passes_logs/2026/01/15/T1/T1__20260115_110640_SUOMI_NPP_rec.log

#Pass ID: 20260115_110640_SUOMI NPP
#Satellite: SUOMI NPP
#Configuration: NPP
#almurnet v.1.7.20251203
#Start time: 2026-01-15 11:06:40

#Version: 2.0.20230620
#Station: T1
#Location: 37.570604 lon 55.790049 lat
#TLE: 1 37849U 11061A   26014.61059675  .00000037  00000+0  38639-4 0  9994
#TLE: 2 37849  98.7810 316.6625 0002460  64.3781 295.7649 14.19525105736658

#Time	Az	El	Level	Level2	SNR	BER	BlckErr	Temp	State	Recorded	gain1	gain2
2026-01-15 11:06:40.31	195.94	4.99	-49.4	-64.9	3.8	1.49e+00	0	40	0	0	70	21293
2026-01-15 11:06:41.29	196.00	5.05	-49.4	-64.9	3.8	1.49e+00	0	40	104	0	70	21468
2026-01-15 11:06:42.29	196.06	5.12	-49.5	-64.9	3.8	1.49e+00	0	40	104	0	70	21479
2026-01-15 11:06:43.28	196.12	5.18	-49.4	-65.0	3.8	1.49e+00	0	40	104	0	70	21540
2026-01-15 11:06:44.27	196.19	5.25	-49.4	-65.0	3.8	1.49e+00	0	40	104	0	70	21556
2026-01-15 11:06:45.27	196.25	5.31	-49.4	-65.0	3.8	1.49e+00	0	40	104	0	70	21603
2026-01-15 11:06:46.26	196.31	5.38	-49.4	-65.0	3.8	1.49e+00	0	40	104	0	70	21623
2026-01-15 11:06:47.25	196.38	5.44	-49.4	-65.0	3.8	1.49e+00	0	40	104	0	70	21694
2026-01-15 11:06:48.24	196.44	5.51	-49.4	-65.0	3.8	1.49e+00	0	40	104	0	70	21532
2026-01-15 11:06:49.24	196.51	5.58	-49.5	-65.0	3.8	1.49e+00	0	40	104	0	70	21546
2026-01-15 11:06:50.23	196.57	5.64	-49.4	-64.9	3.8	1.49e+00	0	40	104	0	70	21427
2026-01-15 11:06:51.22	196.64	5.71	-49.4	-64.9	3.8	1.49e+00	0	40	104	0	70	21263
2026-01-15 11:06:52.21	196.70	5.78	-49.5	-64.8	3.8	1.49e+00	0	40	104	0	70	21127
2026-01-15 11:06:53.21	196.77	5.84	-49.4	-64.8	3.8	1.49e+00	0	40	104	0	70	21063
2026-01-15 11:06:54.20	196.84	5.91	-49.4	-64.7	3.8	1.49e+00	0	41	104	0	70	20916
2026-01-15 11:06:55.19	196.90	5.98	-49.4	-64.7	3.8	1.49e+00	0	41	104	0	70	20922
2026-01-15 11:06:56.19	196.97	6.04	-49.4	-64.7	3.8	1.49e+00	0	41	104	0	70	20856
2026-01-15 11:06:57.18	197.04	6.11	-49.5	-64.8	3.8	1.49e+00	0	41	104	0	70	21022
2026-01-15 11:06:58.17	197.10	6.18	-49.5	-64.8	3.8	1.49e+00	0	41	104	0	70	21144
2026-01-15 11:06:59.17	197.17	6.25	-49.5	-64.8	3.8	1.49e+00	0	41	104	0	70	21083
2026-01-15 11:07:00.16	197.24	6.31	-49.5	-64.8	3.8	1.49e+00	0	41	104	0	70	21097
2026-01-15 11:07:01.15	197.31	6.38	-49.4	-64.7	3.8	1.49e+00	0	41	104	0	70	20853
2026-01-15 11:07:02.15	197.38	6.45	-49.5	-64.5	3.8	1.49e+00	0	41	104	0	70	20445
2026-01-15 11:07:03.14	197.45	6.52	-49.4	-64.4	3.8	1.49e+00	0	41	104	0	70	20124
2026-01-15 11:07:04.13	197.51	6.59	-49.4	-64.2	3.8	1.49e+00	0	41	104	0	70	19649
2026-01-15 11:07:05.13	197.58	6.65	-49.4	-64.0	3.8	1.49e+00	0	41	104	0	70	19292
2026-01-15 11:07:06.12	197.65	6.72	-49.4	-63.8	3.8	1.49e+00	0	41	104	0	70	18890
2026-01-15 11:07:07.11	197.72	6.79	-49.4	-63.7	3.8	1.49e+00	0	41	104	0	70	18582
2026-01-15 11:07:08.10	197.79	6.86	-49.4	-63.6	3.8	1.49e+00	0	41	104	0	70	18452
2026-01-15 11:07:09.10	197.87	6.93	-49.4	-63.5	3.8	1.49e+00	0	41	104	0	70	18248
2026-01-15 11:07:10.09	197.94	7.00	-49.4	-63.5	3.8	1.49e+00	0	41	104	0	70	18221
2026-01-15 11:07:11.08	198.01	7.07	-49.4	-63.4	3.8	1.49e+00	0	41	104	0	70	18076
2026-01-15 11:07:12.08	198.08	7.14	-49.4	-63.5	3.8	1.49e+00	0	41	104	0	70	18283
2026-01-15 11:07:13.07	198.15	7.21	-49.4	-63.6	3.8	1.49e+00	0	41	104	0	70	18512
2026-01-15 11:07:14.06	198.22	7.28	-49.4	-63.8	3.8	1.49e+00	0	41	104	0	70	18912
2026-01-15 11:07:15.05	198.30	7.35	-49.5	-64.1	3.8	1.49e+00	0	41	104	0	70	19460
2026-01-15 11:07:16.05	198.37	7.42	-49.5	-64.5	3.8	1.49e+00	0	41	104	0	70	20364
2026-01-15 11:07:17.04	198.44	7.49	-49.5	-64.9	3.8	1.49e+00	0	41	104	0	70	21293
2026-01-15 11:07:18.03	198.52	7.56	-49.5	-64.9	3.8	1.49e+00	0	41	104	0	70	21490
2026-01-15 11:07:19.03	198.59	7.63	-49.4	-64.1	3.8	1.49e+00	0	41	104	0	70	19532
2026-01-15 11:07:20.02	198.67	7.70	-49.3	-62.3	3.8	1.49e+00	0	41	104	0	70	15778
2026-01-15 11:07:21.01	198.74	7.77	-49.1	-59.8	4.8	1.04e+00	0	41	0	0	70	11951
2026-01-15 11:07:22.01	198.82	7.84	-48.8	-57.7	6.1	4.39e-01	0	42	0	2097152	69	9929
2026-01-15 11:07:23.00	198.89	7.91	-48.4	-55.9	7.7	1.56e-01	0	41	0	4194304	68	8501
2026-01-15 11:07:23.99	198.97	7.98	-48.0	-54.3	9.3	4.65e-02	0	41	0	6291456	68	7068
2026-01-15 11:07:24.99	199.04	8.05	-47.4	-52.9	10.5	5.62e-03	0	42	0	7340032	66	6791
2026-01-15 11:07:25.98	199.12	8.13	-47.0	-52.0	11.6	1.56e-03	0	42	0	9437184	66	6107
2026-01-15 11:07:26.97	199.20	8.20	-46.6	-51.2	12.4	3.93e-04	0	42	0	11534336	65	5900
2026-01-15 11:07:27.96	199.27	8.27	-46.6	-51.1	12.4	1.56e-04	0	42	0	13631488	65	5842
2026-01-15 11:07:28.96	199.35	8.34	-46.4	-50.8	12.7	6.71e-05	0	42	0	15728640	64	5983
2026-01-15 11:07:29.95	199.43	8.41	-46.3	-50.6	12.9	5.34e-05	0	42	0	16777216	64	5855
2026-01-15 11:07:30.94	199.51	8.49	-46.6	-51.0	12.7	6.56e-05	0	42	0	18874368	63	6465
2026-01-15 11:07:31.93	199.59	8.56	-46.6	-51.3	12.3	1.07e-04	0	42	0	20971520	64	6299
2026-01-15 11:07:32.93	199.67	8.63	-46.9	-51.9	11.8	3.52e-04	0	42	0	23068672	64	6727
2026-01-15 11:07:33.92	199.74	8.70	-47.2	-52.6	11.0	8.79e-04	0	42	0	24117248	65	6883
2026-01-15 11:07:34.91	199.82	8.78	-47.6	-53.4	10.1	3.48e-03	0	42	0	26214400	65	7612
2026-01-15 11:07:35.91	199.91	8.85	-47.9	-54.4	9.2	1.70e-02	0	42	0	28311552	66	7992
2026-01-15 11:07:36.90	199.99	8.92	-48.2	-55.2	8.3	3.50e-02	0	42	0	30408704	66	8850
2026-01-15 11:07:37.89	200.07	9.00	-48.4	-56.2	7.3	8.40e-02	0	42	0	32505856	67	9375
2026-01-15 11:07:38.89	200.15	9.07	-46.7	-51.3	12.1	4.44e-03	0	41	0	33554432	65	5982
2026-01-15 11:07:39.88	200.23	9.15	-48.5	-56.9	6.7	3.22e-02	0	42	0	35651584	67	10157
2026-01-15 11:07:40.87	200.31	9.22	-48.7	-57.3	6.2	1.52e-01	0	42	0	37748736	67	10639
2026-01-15 11:07:41.86	200.39	9.29	-47.4	-52.8	10.6	2.69e-01	0	42	0	39845888	66	6722
2026-01-15 11:07:42.86	200.48	9.37	-49.2	-59.2	5.3	2.07e-01	0	42	0	40894464	69	11752
2026-01-15 11:07:43.85	200.56	9.44	-47.6	-53.1	10.5	2.50e-01	0	42	0	42991616	67	6532
2026-01-15 11:07:44.84	200.65	9.52	-46.7	-51.5	11.9	6.37e-04	0	42	0	45088768	65	6094
2026-01-15 11:07:45.84	200.73	9.59	-46.0	-51.0	11.3	4.68e-04	0	42	0	47185920	63	6471
2026-01-15 11:07:46.83	200.81	9.67	-45.2	-50.7	10.4	3.57e-03	0	42	0	49283072	62	6633
2026-01-15 11:07:47.82	200.90	9.74	-44.2	-50.3	9.3	1.05e-02	0	42	0	50331648	60	7041
2026-01-15 11:07:48.82	200.99	9.82	-43.3	-49.7	8.8	2.70e-02	0	42	0	52428800	58	7399
2026-01-15 11:07:49.81	201.07	9.89	-42.8	-49.7	8.0	5.19e-02	0	42	0	54525952	57	7864
2026-01-15 11:07:50.80	201.16	9.97	-42.3	-49.4	7.6	9.99e-02	0	42	0	56623104	56	8048
2026-01-15 11:07:51.80	201.25	10.05	-41.6	-49.1	7.0	1.16e-01	0	42	0	57671680	55	8257
2026-01-15 11:07:52.79	201.33	10.12	-41.3	-49.3	6.5	1.99e-01	0	42	0	59768832	54	8940
2026-01-15 11:07:53.78	201.42	10.20	-43.0	-50.9	6.7	1.87e-01	0	42	0	61865984	56	9526
2026-01-15 11:07:54.78	201.51	10.28	-47.4	-57.7	4.9	3.95e-01	0	42	0	63963136	65	12396
2026-01-15 11:07:55.77	201.60	10.35	-45.6	-54.0	6.3	7.38e-01	0	42	0	66060288	63	9152
2026-01-15 11:07:56.76	201.69	10.43	-40.3	-51.0	4.6	2.57e-01	0	42	0	67108864	52	12112
2026-01-15 11:07:57.76	201.78	10.51	-40.5	-51.0	4.5	1.31e+00	0	42	0	68157440	51	12851
2026-01-15 11:07:58.75	201.87	10.58	-40.7	-50.7	4.8	8.31e-01	0	42	0	70254592	52	11687
2026-01-15 11:07:59.74	201.96	10.66	-41.2	-50.5	5.3	7.38e-01	0	42	0	72351744	52	11448
2026-01-15 11:08:00.73	202.05	10.74	-41.9	-50.3	5.9	4.51e-01	0	42	0	73400320	54	10042
2026-01-15 11:08:01.73	202.14	10.82	-43.9	-50.3	8.5	1.30e-01	0	42	0	75497472	58	7912
2026-01-15 11:08:02.72	202.23	10.89	-44.8	-51.0	9.2	1.71e-02	0	42	0	77594624	60	7666
2026-01-15 11:08:03.71	202.32	10.97	-42.7	-55.2	4.0	8.50e-02	0	42	0	78643200	57	14800
2026-01-15 11:08:04.71	202.42	11.05	-46.8	-54.4	7.1	1.08e+00	0	42	0	78643200	64	9031
2026-01-15 11:08:05.70	202.51	11.13	-46.3	-51.7	10.6	1.10e-02	0	42	0	79691776	64	6605
2026-01-15 11:08:06.69	202.60	11.21	-46.9	-52.3	10.6	4.54e-02	0	42	0	81788928	64	7081
2026-01-15 11:08:07.68	202.70	11.29	-46.9	-51.8	11.7	1.35e-03	0	42	0	83886080	64	6711
2026-01-15 11:08:08.68	202.79	11.37	-46.6	-51.3	12.2	1.82e-04	0	42	0	85983232	64	6280
2026-01-15 11:08:09.67	202.89	11.45	-46.5	-51.2	12.2	2.46e-04	0	42	0	88080384	64	6226
2026-01-15 11:08:10.66	202.98	11.53	-46.7	-51.5	12.1	2.80e-04	0	42	0	89128960	64	6446
2026-01-15 11:08:11.66	203.08	11.61	-46.6	-51.1	12.6	1.06e-04	0	42	0	91226112	64	6199
2026-01-15 11:08:12.65	203.17	11.69	-46.6	-51.0	13.0	4.88e-05	0	42	0	93323264	64	6087
2026-01-15 11:08:13.64	203.27	11.77	-46.3	-50.3	13.8	1.44e-05	0	42	0	95420416	64	5638
2026-01-15 11:08:14.64	203.37	11.85	-46.0	-49.9	14.2	0.00e+00	0	42	0	96468992	64	5344
2026-01-15 11:08:15.63	203.47	11.93	-46.1	-49.8	14.3	2.20e-06	0	42	0	98566144	63	5645
2026-01-15 11:08:16.62	203.57	12.01	-46.0	-49.7	14.5	0.00e+00	0	42	0	100663296	63	5554
2026-01-15 11:08:17.62	203.67	12.09	-46.0	-49.6	14.6	0.00e+00	0	42	0	102760448	63	5508
2026-01-15 11:08:18.61	203.77	12.17	-45.8	-49.2	15.1	0.00e+00	0	42	0	104857600	63	5251
2026-01-15 11:08:19.60	203.87	12.25	-45.8	-49.2	15.0	0.00e+00	0	42	0	105906176	63	5276
2026-01-15 11:08:20.60	203.97	12.33	-45.7	-49.2	15.1	0.00e+00	0	42	0	108003328	63	5226
2026-01-15 11:08:21.59	204.07	12.41	-45.8	-49.2	15.1	0.00e+00	0	42	0	110100480	63	5256
2026-01-15 11:08:22.58	204.17	12.50	-45.5	-48.8	15.4	0.00e+00	0	42	0	112197632	62	5335
2026-01-15 11:08:23.57	204.27	12.58	-45.5	-48.9	15.3	0.00e+00	0	42	0	113246208	62	5371
2026-01-15 11:08:24.57	204.38	12.66	-45.5	-48.8	15.3	0.00e+00	0	42	0	115343360	62	5337
2026-01-15 11:08:25.56	204.48	12.74	-45.5	-48.7	15.5	0.00e+00	0	42	0	117440512	62	5252
2026-01-15 11:08:26.55	204.58	12.82	-45.5	-48.7	15.6	0.00e+00	0	43	0	119537664	62	5261
2026-01-15 11:08:27.55	204.69	12.91	-45.4	-48.5	15.8	0.00e+00	0	42	0	120586240	62	5121
2026-01-15 11:08:28.54	204.79	12.99	-45.4	-48.4	15.9	0.00e+00	0	42	0	122683392	62	5074
2026-01-15 11:08:29.53	204.90	13.07	-45.3	-48.4	15.9	0.00e+00	0	42	0	124780544	62	5047
2026-01-15 11:08:30.52	205.01	13.16	-45.3	-48.3	16.0	0.00e+00	0	42	0	126877696	62	5013
2026-01-15 11:08:31.52	205.11	13.24	-45.3	-48.3	16.0	0.00e+00	0	42	0	128974848	62	5016
2026-01-15 11:08:32.51	205.22	13.32	-45.2	-48.2	16.1	0.00e+00	0	42	0	130023424	62	4954
2026-01-15 11:08:33.50	205.33	13.41	-45.1	-48.0	16.2	0.00e+00	0	43	0	132120576	62	4870
2026-01-15 11:08:34.50	205.44	13.49	-45.1	-48.1	16.2	0.00e+00	0	42	0	134217728	62	4896
2026-01-15 11:08:35.49	205.55	13.58	-45.2	-48.2	16.0	0.00e+00	0	42	0	136314880	62	4952
2026-01-15 11:08:36.48	205.66	13.66	-45.2	-48.2	16.1	0.00e+00	0	42	0	137363456	62	4927
2026-01-15 11:08:37.48	205.77	13.75	-45.2	-48.2	16.0	0.00e+00	0	42	0	139460608	62	4973
2026-01-15 11:08:38.47	205.88	13.83	-45.4	-48.5	15.8	0.00e+00	0	42	0	141557760	62	5122
2026-01-15 11:08:39.46	205.99	13.92	-45.4	-48.5	15.9	0.00e+00	0	43	0	143654912	62	5109
2026-01-15 11:08:40.45	206.10	14.00	-45.6	-48.7	15.6	0.00e+00	0	42	0	144703488	62	5274
2026-01-15 11:08:41.45	206.22	14.09	-45.6	-48.7	15.7	0.00e+00	0	42	0	146800640	62	5258
2026-01-15 11:08:42.44	206.33	14.17	-45.6	-48.7	15.7	0.00e+00	0	42	0	148897792	62	5261
2026-01-15 11:08:43.43	206.45	14.26	-45.7	-48.9	15.5	0.00e+00	0	43	0	150994944	62	5381
2026-01-15 11:08:44.43	206.56	14.35	-45.7	-48.8	15.7	0.00e+00	0	42	0	153092096	62	5311
2026-01-15 11:08:45.42	206.68	14.43	-45.6	-48.8	15.8	7.00e-07	0	42	0	154140672	62	5295
2026-01-15 11:08:46.41	206.79	14.52	-45.6	-48.7	15.8	0.00e+00	0	43	0	156237824	62	5254
2026-01-15 11:08:47.41	206.91	14.61	-45.6	-48.6	15.8	0.00e+00	0	42	0	158334976	62	5191
2026-01-15 11:08:48.40	207.03	14.69	-45.6	-48.7	15.9	0.00e+00	0	42	0	160432128	62	5221
2026-01-15 11:08:49.39	207.15	14.78	-45.3	-48.3	16.1	0.00e+00	0	42	0	161480704	62	5009
2026-01-15 11:08:50.38	207.26	14.87	-45.2	-48.1	16.3	0.00e+00	0	42	0	163577856	62	4898
2026-01-15 11:08:51.38	207.38	14.96	-45.2	-48.1	16.3	0.00e+00	0	43	0	165675008	62	4889
2026-01-15 11:08:52.37	207.50	15.04	-45.1	-47.9	16.5	0.00e+00	0	42	0	167772160	62	4788
2026-01-15 11:08:53.36	207.63	15.13	-45.0	-47.8	16.5	0.00e+00	0	42	0	169869312	62	4754
2026-01-15 11:08:54.36	207.75	15.22	-45.1	-47.9	16.5	0.00e+00	0	42	0	170917888	61	5055
2026-01-15 11:08:55.35	207.87	15.31	-45.2	-48.0	16.5	0.00e+00	0	43	0	173015040	61	5130
2026-01-15 11:08:56.34	207.99	15.40	-45.1	-47.9	16.5	0.00e+00	0	43	0	175112192	61	5064
2026-01-15 11:08:57.34	208.12	15.49	-45.2	-48.1	16.3	0.00e+00	0	43	0	177209344	61	5185
2026-01-15 11:08:58.33	208.24	15.57	-45.4	-48.3	16.1	0.00e+00	0	42	0	179306496	61	5316
2026-01-15 11:08:59.32	208.37	15.66	-45.4	-48.3	16.2	0.00e+00	0	42	0	180355072	61	5333
2026-01-15 11:09:00.31	208.49	15.75	-45.4	-48.4	16.1	0.00e+00	0	42	0	182452224	61	5364
2026-01-15 11:09:01.31	208.62	15.84	-45.5	-48.5	16.0	0.00e+00	0	43	0	184549376	61	5450
2026-01-15 11:09:02.30	208.75	15.93	-45.6	-48.7	15.8	0.00e+00	0	42	0	186646528	61	5566
2026-01-15 11:09:03.29	208.88	16.02	-45.5	-48.6	15.9	0.00e+00	0	42	0	187695104	62	5165
2026-01-15 11:09:04.29	209.01	16.11	-45.8	-48.9	15.6	0.00e+00	0	43	0	189792256	62	5377
2026-01-15 11:09:05.28	209.13	16.20	-45.7	-48.8	15.8	0.00e+00	0	42	0	191889408	62	5288
2026-01-15 11:09:06.27	209.26	16.29	-45.7	-48.8	15.8	0.00e+00	0	43	0	193986560	62	5281
2026-01-15 11:09:07.27	209.40	16.38	-45.9	-49.0	15.6	0.00e+00	0	42	0	196083712	62	5439
2026-01-15 11:09:08.26	209.53	16.48	-45.8	-48.9	15.6	0.00e+00	0	43	0	197132288	62	5399
2026-01-15 11:09:09.25	209.66	16.57	-45.9	-49.0	15.5	0.00e+00	0	43	0	199229440	62	5462
2026-01-15 11:09:10.25	209.80	16.66	-45.9	-49.1	15.4	0.00e+00	0	42	0	201326592	62	5504
2026-01-15 11:09:11.24	209.93	16.75	-46.0	-49.1	15.5	0.00e+00	0	42	0	203423744	62	5519
2026-01-15 11:09:12.23	210.06	16.84	-45.8	-49.0	15.6	0.00e+00	0	42	0	204472320	62	5403
2026-01-15 11:09:13.23	210.20	16.93	-46.0	-49.2	15.4	0.00e+00	0	42	0	206569472	62	5545
2026-01-15 11:09:14.22	210.34	17.03	-45.9	-49.0	15.6	0.00e+00	0	42	0	208666624	62	5448
2026-01-15 11:09:15.21	210.48	17.12	-45.7	-48.7	15.8	0.00e+00	0	43	0	210763776	62	5265
2026-01-15 11:09:16.20	210.61	17.21	-45.7	-48.8	15.8	0.00e+00	0	43	0	211812352	62	5287
2026-01-15 11:09:17.20	210.75	17.30	-45.8	-48.8	15.7	0.00e+00	0	42	0	213909504	62	5314
2026-01-15 11:09:18.19	210.89	17.40	-45.7	-48.8	15.8	0.00e+00	0	43	0	216006656	62	5293
2026-01-15 11:09:19.18	211.03	17.49	-45.7	-48.7	15.8	0.00e+00	0	43	0	218103808	62	5279
2026-01-15 11:09:20.18	211.18	17.58	-45.8	-48.9	15.7	0.00e+00	0	42	0	220200960	62	5359
2026-01-15 11:09:21.17	211.32	17.68	-45.8	-48.9	15.7	0.00e+00	0	43	0	221249536	62	5350
2026-01-15 11:09:22.16	211.46	17.77	-45.8	-48.9	15.6	0.00e+00	0	43	0	223346688	62	5395
2026-01-15 11:09:23.15	211.61	17.86	-46.1	-49.4	15.2	0.00e+00	0	42	0	225443840	62	5672
2026-01-15 11:09:24.15	211.75	17.96	-46.0	-49.2	15.4	0.00e+00	0	43	0	227540992	62	5591
2026-01-15 11:09:25.14	211.90	18.05	-45.9	-49.1	15.5	0.00e+00	0	42	0	228589568	62	5518
2026-01-15 11:09:26.13	212.05	18.15	-46.0	-49.3	15.3	0.00e+00	0	42	0	230686720	62	5626
2026-01-15 11:09:27.13	212.19	18.24	-46.0	-49.2	15.4	0.00e+00	0	43	0	232783872	62	5582
2026-01-15 11:09:28.12	212.34	18.34	-45.9	-49.1	15.5	0.00e+00	0	42	0	234881024	62	5471
2026-01-15 11:09:29.11	212.49	18.43	-45.9	-49.1	15.5	0.00e+00	0	43	0	236978176	62	5490
2026-01-15 11:09:30.10	212.64	18.53	-45.8	-48.9	15.6	0.00e+00	0	42	0	238026752	62	5398
2026-01-15 11:09:31.10	212.79	18.62	-45.7	-48.8	15.8	0.00e+00	0	43	0	240123904	62	5285
2026-01-15 11:09:32.09	212.95	18.72	-46.0	-49.2	15.4	0.00e+00	0	42	0	242221056	62	5558
2026-01-15 11:09:33.08	213.10	18.81	-46.0	-49.2	15.4	0.00e+00	0	42	0	244318208	62	5543
2026-01-15 11:09:34.07	213.25	18.91	-46.0	-49.1	15.5	0.00e+00	0	43	0	245366784	62	5517
2026-01-15 11:09:35.07	213.41	19.01	-46.0	-49.2	15.5	0.00e+00	0	43	0	247463936	62	5538
2026-01-15 11:09:36.06	213.57	19.10	-45.9	-49.0	15.6	0.00e+00	0	43	0	249561088	62	5463
2026-01-15 11:09:37.05	213.72	19.20	-46.0	-49.2	15.4	7.00e-07	0	43	0	251658240	62	5545
2026-01-15 11:09:38.05	213.88	19.29	-46.0	-49.1	15.5	0.00e+00	0	43	0	252706816	62	5525
2026-01-15 11:09:39.04	214.04	19.39	-46.1	-49.4	15.3	0.00e+00	0	43	0	254803968	62	5667
2026-01-15 11:09:40.03	214.20	19.49	-46.0	-49.3	15.4	0.00e+00	0	43	0	256901120	62	5627
2026-01-15 11:09:41.02	214.36	19.58	-46.0	-49.3	15.4	0.00e+00	0	42	0	258998272	62	5612
2026-01-15 11:09:42.02	214.52	19.68	-46.1	-49.4	15.2	0.00e+00	0	43	0	261095424	62	5713
2026-01-15 11:09:43.01	214.69	19.78	-46.2	-49.5	15.2	0.00e+00	0	43	0	262144000	63	5437
2026-01-15 11:09:44.00	214.85	19.88	-46.3	-49.6	15.1	0.00e+00	0	43	0	264241152	63	5509
2026-01-15 11:09:45.00	215.02	19.98	-46.3	-49.7	15.0	0.00e+00	0	43	0	266338304	63	5569
2026-01-15 11:09:45.99	215.18	20.07	-46.4	-49.7	14.9	7.00e-07	0	43	0	268435456	63	5592
2026-01-15 11:09:46.98	215.35	20.17	-46.3	-49.7	15.0	7.00e-07	0	43	0	269484032	63	5576
2026-01-15 11:09:47.98	215.52	20.27	-46.5	-49.9	14.8	0.00e+00	0	43	0	271581184	63	5683
2026-01-15 11:09:48.97	215.69	20.37	-46.3	-49.6	15.1	0.00e+00	0	43	0	273678336	63	5474
2026-01-15 11:09:49.96	215.86	20.47	-46.3	-49.6	15.1	0.00e+00	0	43	0	275775488	63	5468
2026-01-15 11:09:50.95	216.03	20.56	-46.3	-49.6	15.1	0.00e+00	0	43	0	277872640	63	5487
2026-01-15 11:09:51.95	216.20	20.66	-46.0	-49.1	15.6	0.00e+00	0	43	0	278921216	63	5207
2026-01-15 11:09:52.94	216.38	20.76	-45.8	-48.9	15.8	0.00e+00	0	43	0	281018368	63	5042
2026-01-15 11:09:53.93	216.55	20.86	-45.7	-48.7	16.0	0.00e+00	0	43	0	283115520	63	4941
2026-01-15 11:09:54.92	216.73	20.96	-45.6	-48.6	16.0	0.00e+00	0	43	0	285212672	63	4898
2026-01-15 11:09:55.92	216.90	21.06	-45.5	-48.5	16.2	0.00e+00	0	43	0	286261248	63	4815
2026-01-15 11:09:56.91	217.08	21.16	-45.4	-48.3	16.3	0.00e+00	0	43	0	288358400	62	5007
2026-01-15 11:09:57.90	217.26	21.26	-45.6	-48.6	16.1	0.00e+00	0	43	0	290455552	62	5172
2026-01-15 11:09:58.90	217.44	21.36	-45.5	-48.5	16.2	0.00e+00	0	43	0	292552704	62	5108
2026-01-15 11:09:59.89	217.62	21.46	-45.5	-48.5	16.2	0.00e+00	0	43	0	294649856	62	5123
2026-01-15 11:10:00.88	217.80	21.56	-45.5	-48.5	16.2	0.00e+00	0	43	0	295698432	62	5103
2026-01-15 11:10:01.88	217.99	21.66	-45.3	-48.2	16.5	0.00e+00	0	43	0	297795584	62	4930
2026-01-15 11:10:02.87	218.17	21.76	-45.0	-47.8	16.9	0.00e+00	0	43	0	299892736	62	4724
2026-01-15 11:10:03.86	218.36	21.86	-44.9	-47.6	17.0	0.00e+00	0	43	0	301989888	61	4889
2026-01-15 11:10:04.85	218.55	21.96	-44.8	-47.4	17.2	0.00e+00	0	43	0	303038464	61	4804
2026-01-15 11:10:05.85	218.74	22.06	-44.5	-47.1	17.5	0.00e+00	0	43	0	305135616	60	4906
2026-01-15 11:10:06.84	218.92	22.16	-44.4	-47.0	17.6	0.00e+00	0	43	0	307232768	60	4825
2026-01-15 11:10:07.83	219.12	22.26	-44.3	-46.9	17.7	0.00e+00	0	43	0	309329920	60	4773
2026-01-15 11:10:08.82	219.31	22.36	-44.2	-46.7	17.8	0.00e+00	0	43	0	311427072	60	4704
2026-01-15 11:10:09.82	219.50	22.46	-44.4	-47.0	17.6	0.00e+00	0	43	0	312475648	60	4829
2026-01-15 11:10:10.81	219.70	22.56	-44.6	-47.2	17.4	0.00e+00	0	43	0	314572800	60	4931
2026-01-15 11:10:11.80	219.89	22.66	-44.5	-47.0	17.6	0.00e+00	0	42	0	316669952	60	4839
2026-01-15 11:10:12.80	220.09	22.76	-44.5	-47.1	17.5	0.00e+00	0	43	0	318767104	60	4904
2026-01-15 11:10:13.79	220.29	22.86	-44.6	-47.2	17.4	0.00e+00	0	43	0	319815680	60	4968
2026-01-15 11:10:14.78	220.48	22.96	-44.6	-47.2	17.4	0.00e+00	0	43	0	321912832	60	4954
2026-01-15 11:10:15.77	220.68	23.06	-44.8	-47.5	17.2	0.00e+00	0	43	0	324009984	60	5105
2026-01-15 11:10:16.77	220.89	23.16	-44.7	-47.3	17.4	0.00e+00	0	43	0	326107136	60	5002
2026-01-15 11:10:17.76	221.09	23.26	-44.9	-47.5	17.1	0.00e+00	0	43	0	328204288	60	5147
2026-01-15 11:10:18.75	221.29	23.36	-44.8	-47.4	17.3	0.00e+00	0	43	0	329252864	60	5081
2026-01-15 11:10:19.75	221.50	23.46	-45.0	-47.7	17.1	0.00e+00	0	43	0	331350016	60	5249
2026-01-15 11:10:20.74	221.71	23.57	-44.9	-47.6	17.2	0.00e+00	0	43	0	333447168	60	5170
2026-01-15 11:10:21.73	221.92	23.67	-44.9	-47.6	17.1	0.00e+00	0	43	0	335544320	60	5168
2026-01-15 11:10:22.72	222.13	23.77	-44.8	-47.4	17.3	0.00e+00	0	43	0	336592896	60	5098
2026-01-15 11:10:23.72	222.34	23.87	-44.9	-47.5	17.2	0.00e+00	0	43	0	338690048	60	5138
2026-01-15 11:10:24.71	222.55	23.97	-44.9	-47.6	17.2	0.00e+00	0	43	0	340787200	60	5171
2026-01-15 11:10:25.70	222.76	24.07	-44.9	-47.5	17.2	0.00e+00	0	43	0	342884352	60	5156
2026-01-15 11:10:26.69	222.98	24.17	-44.8	-47.4	17.3	0.00e+00	0	43	0	343932928	60	5056
2026-01-15 11:10:27.69	223.20	24.27	-44.8	-47.4	17.4	0.00e+00	0	43	0	346030080	60	5056
2026-01-15 11:10:28.68	223.41	24.37	-44.8	-47.4	17.4	0.00e+00	0	43	0	348127232	60	5054
2026-01-15 11:10:29.67	223.63	24.47	-44.6	-47.2	17.5	0.00e+00	0	43	0	350224384	60	4960
2026-01-15 11:10:30.67	223.85	24.57	-44.6	-47.2	17.6	0.00e+00	0	43	0	352321536	60	4928
2026-01-15 11:10:31.66	224.07	24.67	-44.6	-47.1	17.6	0.00e+00	0	43	0	353370112	60	4912
2026-01-15 11:10:32.65	224.30	24.78	-44.8	-47.4	17.3	0.00e+00	0	43	0	355467264	60	5072
2026-01-15 11:10:33.65	224.52	24.88	-44.9	-47.5	17.2	0.00e+00	0	43	0	357564416	60	5151
2026-01-15 11:10:34.64	224.75	24.98	-44.9	-47.6	17.2	0.00e+00	0	43	0	359661568	60	5168
2026-01-15 11:10:35.63	224.98	25.08	-45.1	-47.7	17.1	0.00e+00	0	43	0	360710144	60	5270
2026-01-15 11:10:36.62	225.20	25.18	-45.1	-47.8	17.0	0.00e+00	0	43	0	362807296	60	5313
2026-01-15 11:10:37.62	225.44	25.28	-45.0	-47.7	17.1	0.00e+00	0	43	0	364904448	60	5245
2026-01-15 11:10:38.61	225.67	25.38	-45.1	-47.8	17.1	0.00e+00	0	43	0	367001600	60	5283
2026-01-15 11:10:39.60	225.90	25.48	-44.9	-47.6	17.2	0.00e+00	0	43	0	369098752	60	5174
2026-01-15 11:10:40.60	226.14	25.58	-45.0	-47.7	17.2	0.00e+00	0	43	0	370147328	60	5253
2026-01-15 11:10:41.59	226.37	25.68	-44.9	-47.6	17.3	0.00e+00	0	43	0	372244480	60	5165
2026-01-15 11:10:42.58	226.61	25.78	-45.0	-47.6	17.2	0.00e+00	0	43	0	374341632	60	5209
2026-01-15 11:10:43.58	226.85	25.88	-44.9	-47.5	17.3	0.00e+00	0	43	0	376438784	60	5128
2026-01-15 11:10:44.57	227.09	25.98	-45.0	-47.6	17.3	0.00e+00	0	43	0	377487360	60	5162
2026-01-15 11:10:45.56	227.33	26.08	-45.0	-47.6	17.3	0.00e+00	0	43	0	379584512	60	5172
2026-01-15 11:10:46.56	227.57	26.17	-45.1	-47.7	17.1	0.00e+00	0	43	0	381681664	60	5266
2026-01-15 11:10:47.55	227.82	26.27	-45.3	-48.0	17.0	0.00e+00	0	43	0	383778816	61	5112
2026-01-15 11:10:48.54	228.06	26.37	-45.2	-47.9	17.0	0.00e+00	0	43	0	385875968	61	5064
2026-01-15 11:10:49.53	228.31	26.47	-45.3	-48.0	17.0	0.00e+00	0	42	0	386924544	61	5102
2026-01-15 11:10:50.53	228.56	26.57	-45.2	-47.8	17.1	0.00e+00	0	43	0	389021696	61	5031
2026-01-15 11:10:51.52	228.81	26.67	-45.3	-48.0	17.0	0.00e+00	0	43	0	391118848	61	5112
2026-01-15 11:10:52.51	229.07	26.76	-45.4	-48.2	16.7	0.00e+00	0	43	0	393216000	61	5261
2026-01-15 11:10:53.51	229.32	26.86	-45.6	-48.4	16.5	0.00e+00	0	43	0	394264576	61	5395
2026-01-15 11:10:54.50	229.58	26.96	-45.8	-48.7	16.3	0.00e+00	0	43	0	396361728	62	5226
2026-01-15 11:10:55.49	229.83	27.06	-46.0	-49.0	16.1	0.00e+00	0	43	0	398458880	62	5436
2026-01-15 11:10:56.48	230.09	27.15	-46.1	-49.1	16.0	0.00e+00	0	43	0	400556032	62	5481
2026-01-15 11:10:57.48	230.35	27.25	-46.2	-49.2	15.9	0.00e+00	0	43	0	402653184	62	5534
2026-01-15 11:10:58.47	230.61	27.35	-46.2	-49.3	15.8	0.00e+00	0	43	0	403701760	63	5294
2026-01-15 11:10:59.46	230.88	27.44	-46.3	-49.4	15.7	0.00e+00	0	43	0	405798912	63	5374
2026-01-15 11:11:00.46	231.14	27.54	-46.5	-49.7	15.5	0.00e+00	0	43	0	407896064	63	5530
2026-01-15 11:11:01.45	231.41	27.63	-46.6	-50.0	15.1	0.00e+00	0	43	0	409993216	64	5421
2026-01-15 11:11:02.44	231.67	27.73	-46.7	-50.1	15.0	0.00e+00	0	43	0	411041792	64	5467
2026-01-15 11:11:03.44	231.95	27.82	-46.4	-49.7	15.3	0.00e+00	0	43	0	413138944	64	5234
2026-01-15 11:11:04.43	232.22	27.92	-46.7	-50.1	15.0	0.00e+00	0	43	0	415236096	64	5488
2026-01-15 11:11:05.42	232.49	28.01	-46.8	-50.3	14.8	0.00e+00	0	43	0	417333248	64	5608
2026-01-15 11:11:06.42	232.76	28.10	-47.0	-50.5	14.6	0.00e+00	0	43	0	419430400	64	5732
2026-01-15 11:11:07.41	233.04	28.20	-47.1	-50.6	14.5	7.00e-07	0	43	0	420478976	64	5821
2026-01-15 11:11:08.40	233.32	28.29	-47.0	-50.6	14.5	0.00e+00	0	43	0	422576128	64	5794
2026-01-15 11:11:09.39	233.59	28.38	-47.3	-51.0	14.1	4.50e-06	0	43	0	424673280	65	5771
2026-01-15 11:11:10.39	233.88	28.47	-47.4	-51.1	13.9	2.20e-06	0	43	0	426770432	65	5843
2026-01-15 11:11:11.38	234.16	28.57	-47.5	-51.3	13.9	3.00e-06	0	43	0	427819008	65	5929
2026-01-15 11:11:12.37	234.44	28.66	-47.6	-51.5	13.7	7.60e-06	0	43	0	429916160	66	5742
2026-01-15 11:11:13.37	234.73	28.75	-47.7	-51.5	13.6	8.30e-06	0	43	0	432013312	66	5778
2026-01-15 11:11:14.36	235.01	28.84	-47.6	-51.4	13.7	5.30e-06	0	43	0	434110464	66	5697
2026-01-15 11:11:15.35	235.30	28.93	-47.5	-51.2	13.9	6.10e-06	0	43	0	435159040	66	5534
2026-01-15 11:11:16.34	235.59	29.02	-47.5	-51.3	13.8	7.00e-07	0	43	0	437256192	66	5619
2026-01-15 11:11:17.33	235.88	29.10	-47.6	-51.5	13.6	3.00e-06	0	43	0	439353344	66	5754
2026-01-15 11:11:18.33	236.17	29.19	-47.7	-51.6	13.5	8.30e-06	0	43	0	441450496	66	5822
2026-01-15 11:11:19.32	236.47	29.28	-47.8	-51.7	13.4	1.06e-05	0	43	0	443547648	66	5897
2026-01-15 11:11:20.31	236.76	29.37	-47.6	-51.5	13.6	9.90e-06	0	43	0	444596224	66	5748
2026-01-15 11:11:21.31	237.06	29.45	-47.7	-51.6	13.6	9.90e-06	0	43	0	446693376	66	5801
2026-01-15 11:11:22.30	237.36	29.54	-48.0	-52.1	13.0	2.36e-05	0	43	0	448790528	66	6139
2026-01-15 11:11:23.29	237.66	29.63	-48.2	-52.5	12.5	6.48e-05	0	43	0	450887680	67	6129
2026-01-15 11:11:24.29	237.97	29.71	-48.4	-53.0	12.1	1.17e-04	0	43	0	451936256	67	6485
2026-01-15 11:11:25.28	238.27	29.79	-48.9	-53.7	11.6	5.36e-04	0	43	0	454033408	68	6592
2026-01-15 11:11:26.27	238.57	29.88	-48.6	-53.1	12.1	2.00e-04	0	43	0	456130560	68	6187
2026-01-15 11:11:27.27	238.88	29.96	-48.4	-52.6	12.7	1.01e-04	0	43	0	458227712	68	5817
2026-01-15 11:11:28.26	239.19	30.04	-48.4	-52.6	12.6	3.89e-05	0	43	0	460324864	68	5818
2026-01-15 11:11:29.25	239.50	30.12	-48.1	-52.2	13.1	3.58e-05	0	43	0	461373440	68	5553
2026-01-15 11:11:30.24	239.81	30.21	-48.3	-52.7	12.6	3.73e-05	0	43	0	463470592	68	5857
2026-01-15 11:11:31.24	240.13	30.29	-48.2	-52.5	12.7	1.23e-04	0	43	0	465567744	68	5768
2026-01-15 11:11:32.23	240.44	30.37	-48.3	-52.5	12.8	9.23e-05	0	43	0	467664896	68	5772
2026-01-15 11:11:33.22	240.76	30.44	-48.6	-53.2	12.2	1.85e-04	0	43	0	468713472	68	6209
2026-01-15 11:11:34.22	241.08	30.52	-48.6	-53.2	12.1	2.43e-04	0	43	0	470810624	68	6268
2026-01-15 11:11:35.21	241.39	30.60	-49.0	-53.9	11.4	3.90e-04	0	43	0	472907776	68	6745
2026-01-15 11:11:36.20	241.71	30.68	-49.0	-54.0	11.3	9.02e-04	0	43	0	475004928	68	6803
2026-01-15 11:11:37.19	242.04	30.75	-48.6	-53.0	12.3	4.25e-04	0	43	0	477102080	68	6127
2026-01-15 11:11:38.19	242.36	30.83	-47.8	-51.7	13.3	5.72e-05	0	43	0	478150656	67	5562
2026-01-15 11:11:39.18	242.69	30.90	-47.4	-51.0	14.0	1.60e-05	0	43	0	480247808	66	5461
2026-01-15 11:11:40.17	243.01	30.97	-47.3	-50.9	14.1	1.50e-06	0	43	0	482344960	66	5392
2026-01-15 11:11:41.17	243.34	31.05	-47.6	-51.4	13.8	3.00e-06	0	43	0	484442112	66	5678
2026-01-15 11:11:42.16	243.67	31.12	-47.6	-51.4	13.6	6.10e-06	0	43	0	485490688	66	5722
2026-01-15 11:11:43.15	244.00	31.19	-48.0	-52.0	13.1	1.44e-05	0	43	0	487587840	66	6126
2026-01-15 11:11:44.14	244.33	31.26	-48.0	-52.1	13.0	5.87e-05	0	43	0	489684992	66	6202
2026-01-15 11:11:45.14	244.67	31.33	-48.0	-52.3	12.8	7.01e-05	0	43	0	491782144	67	5924
2026-01-15 11:11:46.13	245.00	31.40	-47.8	-51.9	13.1	5.72e-05	0	43	0	493879296	67	5711
2026-01-15 11:11:47.12	245.34	31.46	-47.5	-51.3	13.8	1.98e-05	0	43	0	494927872	67	5309
2026-01-15 11:11:48.11	245.67	31.53	-47.1	-50.7	14.5	1.50e-06	0	43	0	497025024	66	5226
2026-01-15 11:11:49.11	246.02	31.60	-46.6	-49.8	15.2	0.00e+00	0	43	0	499122176	65	5027
2026-01-15 11:11:50.10	246.36	31.66	-46.5	-49.7	15.3	0.00e+00	0	43	0	501219328	64	5235
2026-01-15 11:11:51.09	246.70	31.72	-46.6	-49.9	15.1	0.00e+00	0	43	0	502267904	64	5364
2026-01-15 11:11:52.09	247.04	31.79	-47.2	-50.8	14.2	0.00e+00	0	43	0	504365056	65	5638
2026-01-15 11:11:53.08	247.39	31.85	-47.7	-51.7	13.4	1.14e-05	0	43	0	506462208	66	5911
2026-01-15 11:11:54.07	247.73	31.91	-48.0	-52.2	12.9	1.83e-05	0	43	0	508559360	66	6255
2026-01-15 11:11:55.07	248.08	31.97	-47.9	-52.0	13.0	3.66e-05	0	43	0	510656512	66	6115
2026-01-15 11:11:56.06	248.43	32.03	-47.6	-51.5	13.6	1.22e-05	0	43	0	511705088	66	5731
2026-01-15 11:11:57.05	248.78	32.08	-47.4	-51.1	13.9	3.00e-06	0	43	0	513802240	66	5492
2026-01-15 11:11:58.05	249.13	32.14	-47.0	-50.5	14.5	1.50e-06	0	43	0	515899392	65	5457
2026-01-15 11:11:59.04	249.48	32.19	-46.7	-50.0	15.0	0.00e+00	0	43	0	517996544	65	5134
2026-01-15 11:12:00.03	249.83	32.25	-46.3	-49.4	15.6	0.00e+00	0	43	0	519045120	64	5048
2026-01-15 11:12:01.02	250.18	32.30	-46.0	-49.0	16.0	0.00e+00	0	43	0	521142272	63	5155
2026-01-15 11:12:02.02	250.54	32.35	-46.4	-49.6	15.5	0.00e+00	0	43	0	523239424	63	5486
2026-01-15 11:12:03.01	250.90	32.41	-46.9	-50.4	14.7	0.00e+00	0	43	0	525336576	64	5664
2026-01-15 11:12:04.00	251.25	32.45	-47.5	-51.4	13.7	3.80e-06	0	43	0	526385152	65	6016
2026-01-15 11:12:05.00	251.62	32.50	-47.8	-51.7	13.3	2.59e-05	0	43	0	528482304	66	5921
2026-01-15 11:12:05.99	251.97	32.55	-47.5	-51.3	13.8	7.60e-06	0	43	0	530579456	66	5608
2026-01-15 11:12:06.98	252.33	32.60	-47.5	-51.3	13.8	5.30e-06	0	43	0	532676608	66	5621
2026-01-15 11:12:07.97	252.69	32.64	-47.7	-51.6	13.4	3.80e-06	0	43	0	534773760	66	5832
2026-01-15 11:12:08.97	253.06	32.69	-47.7	-51.7	13.4	6.10e-06	0	43	0	535822336	66	5904
2026-01-15 11:12:09.96	253.42	32.73	-47.6	-51.6	13.5	1.75e-05	0	43	0	537919488	66	5825
2026-01-15 11:12:10.95	253.78	32.77	-47.4	-51.2	13.8	3.80e-06	0	43	0	540016640	66	5551
2026-01-15 11:12:11.95	254.15	32.81	-47.2	-50.8	14.2	7.00e-07	0	43	0	542113792	66	5306
2026-01-15 11:12:12.94	254.52	32.85	-47.4	-51.0	14.1	7.00e-07	0	43	0	543162368	66	5408
2026-01-15 11:12:13.93	254.88	32.89	-47.9	-52.0	13.0	3.35e-05	0	43	0	545259520	66	6091
2026-01-15 11:12:14.92	255.25	32.93	-48.8	-53.8	11.5	2.56e-04	0	43	0	547356672	68	6656
2026-01-15 11:12:15.92	255.62	32.96	-49.1	-54.5	10.7	1.44e-03	0	43	0	549453824	68	7213
2026-01-15 11:12:16.91	255.99	32.99	-49.1	-54.7	10.5	3.78e-03	0	43	0	551550976	69	6992
2026-01-15 11:12:17.90	256.36	33.03	-48.9	-54.2	10.9	2.77e-03	0	43	0	552599552	69	6608
2026-01-15 11:12:18.90	256.73	33.06	-48.5	-53.3	11.8	8.72e-04	0	43	0	554696704	69	5959
2026-01-15 11:12:19.89	257.10	33.09	-48.2	-52.6	12.6	3.91e-04	0	43	0	556793856	68	5838
2026-01-15 11:12:20.88	257.47	33.12	-47.7	-51.7	13.3	5.56e-05	0	43	0	558891008	67	5578
2026-01-15 11:12:21.87	257.85	33.15	-47.7	-51.7	13.3	1.37e-05	0	43	0	559939584	67	5588
2026-01-15 11:12:22.87	258.22	33.17	-47.5	-51.4	13.6	1.29e-05	0	43	0	562036736	67	5368
2026-01-15 11:12:23.86	258.60	33.20	-47.5	-51.4	13.7	2.20e-06	0	43	0	564133888	66	5658
2026-01-15 11:12:24.85	258.97	33.22	-47.5	-51.3	13.7	3.80e-06	0	43	0	566231040	66	5629
2026-01-15 11:12:25.85	259.35	33.25	-47.5	-51.3	13.7	5.30e-06	0	43	0	568328192	66	5610
2026-01-15 11:12:26.84	259.72	33.27	-47.7	-51.7	13.3	1.06e-05	0	43	0	569376768	66	5881
2026-01-15 11:12:27.83	260.10	33.29	-47.5	-51.4	13.6	2.13e-05	0	43	0	571473920	66	5678
2026-01-15 11:12:28.82	260.47	33.30	-47.5	-51.4	13.6	1.06e-05	0	43	0	573571072	66	5705
2026-01-15 11:12:29.82	260.85	33.32	-47.2	-50.9	14.1	1.50e-06	0	43	0	575668224	66	5384
2026-01-15 11:12:30.81	261.23	33.34	-47.0	-50.6	14.4	2.20e-06	0	43	0	576716800	66	5202
2026-01-15 11:12:31.80	261.60	33.35	-46.9	-50.3	14.7	7.00e-07	0	43	0	578813952	65	5340
2026-01-15 11:12:32.80	261.98	33.37	-46.9	-50.3	14.7	0.00e+00	0	43	0	580911104	65	5303
2026-01-15 11:12:33.79	262.36	33.38	-46.8	-50.2	14.7	0.00e+00	0	43	0	583008256	65	5262
2026-01-15 11:12:34.78	262.74	33.39	-47.1	-50.6	14.3	7.00e-07	0	43	0	585105408	65	5528
2026-01-15 11:12:35.78	263.12	33.40	-47.2	-50.9	14.1	3.00e-06	0	43	0	586153984	65	5676
2026-01-15 11:12:36.77	263.50	33.40	-47.6	-51.5	13.6	6.10e-06	0	43	0	588251136	65	6093
2026-01-15 11:12:37.76	263.88	33.41	-47.6	-51.6	13.5	1.83e-05	0	43	0	590348288	66	5797
2026-01-15 11:12:38.76	264.26	33.42	-47.7	-51.7	13.2	1.44e-05	0	43	0	592445440	66	5919
2026-01-15 11:12:39.75	264.63	33.42	-47.6	-51.5	13.4	2.05e-05	0	43	0	593494016	66	5747
2026-01-15 11:12:40.74	265.01	33.42	-47.8	-51.7	13.2	1.98e-05	0	43	0	595591168	66	5920
2026-01-15 11:12:41.73	265.39	33.42	-47.8	-51.8	13.2	3.12e-05	0	43	0	597688320	66	5924
2026-01-15 11:12:42.73	265.77	33.42	-47.6	-51.5	13.5	7.60e-06	0	43	0	599785472	66	5734
2026-01-15 11:12:43.72	266.15	33.42	-47.2	-50.8	14.1	7.00e-07	0	43	0	601882624	66	5329
2026-01-15 11:12:44.71	266.53	33.42	-47.1	-50.6	14.4	1.50e-06	0	43	0	602931200	66	5185
2026-01-15 11:12:45.71	266.91	33.41	-47.1	-50.6	14.3	7.00e-07	0	43	0	605028352	66	5215
2026-01-15 11:12:46.70	267.29	33.41	-47.2	-50.8	14.2	1.50e-06	0	43	0	607125504	66	5334
2026-01-15 11:12:47.69	267.67	33.40	-47.1	-50.6	14.3	7.00e-07	0	43	0	609222656	66	5215
2026-01-15 11:12:48.68	268.04	33.39	-47.0	-50.5	14.5	1.50e-06	0	43	0	610271232	65	5418
2026-01-15 11:12:49.68	268.42	33.38	-47.1	-50.6	14.3	7.00e-07	0	43	0	612368384	65	5495
2026-01-15 11:12:50.67	268.80	33.37	-47.2	-50.9	14.1	0.00e+00	0	43	0	614465536	65	5660
2026-01-15 11:12:51.66	269.18	33.36	-47.7	-51.7	13.2	8.30e-06	0	43	0	616562688	66	5888
2026-01-15 11:12:52.66	269.56	33.34	-47.8	-52.0	13.0	3.58e-05	0	43	0	618659840	66	6083
2026-01-15 11:12:53.65	269.93	33.33	-47.7	-51.9	13.0	5.18e-05	0	43	0	619708416	66	6044
2026-01-15 11:12:54.64	270.31	33.31	-47.5	-51.5	13.5	1.83e-05	0	43	0	621805568	66	5749
2026-01-15 11:12:55.64	270.69	33.29	-47.4	-51.2	13.8	1.06e-05	0	43	0	623902720	66	5532
2026-01-15 11:12:56.63	271.06	33.27	-47.2	-51.0	13.9	8.30e-06	0	43	0	625999872	66	5416
2026-01-15 11:12:57.62	271.44	33.25	-46.6	-49.9	15.0	7.00e-07	0	43	0	627048448	65	5080
2026-01-15 11:12:58.62	271.82	33.23	-45.9	-48.9	16.0	0.00e+00	0	43	0	629145600	63	5079
2026-01-15 11:12:59.61	272.19	33.20	-45.3	-48.1	16.8	0.00e+00	0	43	0	631242752	62	4883
2026-01-15 11:13:00.60	272.56	33.18	-45.2	-47.9	16.9	0.00e+00	0	43	0	633339904	62	4802
2026-01-15 11:13:01.59	272.93	33.15	-45.6	-48.5	16.4	0.00e+00	0	43	0	634388480	62	5117
2026-01-15 11:13:02.59	273.31	33.13	-46.1	-49.1	15.9	0.00e+00	0	43	0	636485632	62	5514
2026-01-15 11:13:03.58	273.68	33.10	-46.6	-49.9	15.1	0.00e+00	0	43	0	638582784	63	5673
2026-01-15 11:13:04.57	274.05	33.07	-46.6	-50.0	14.9	0.00e+00	0	43	0	640679936	64	5454
2026-01-15 11:13:05.57	274.42	33.04	-46.8	-50.2	14.6	0.00e+00	0	43	0	642777088	64	5548
2026-01-15 11:13:06.56	274.79	33.00	-47.1	-50.8	14.2	7.00e-07	0	43	0	643825664	64	5949
2026-01-15 11:13:07.55	275.16	32.97	-47.5	-51.5	13.4	2.20e-06	0	43	0	645922816	65	6116
2026-01-15 11:13:08.55	275.53	32.94	-47.5	-51.5	13.4	1.67e-05	0	43	0	648019968	65	6104
2026-01-15 11:13:09.54	275.90	32.90	-47.0	-50.7	14.3	1.14e-05	0	43	0	650117120	65	5537
2026-01-15 11:13:10.53	276.26	32.86	-46.6	-50.0	14.9	7.00e-07	0	43	0	651165696	65	5130
2026-01-15 11:13:11.52	276.63	32.82	-46.5	-49.8	15.1	0.00e+00	0	43	0	653262848	64	5287
2026-01-15 11:13:12.52	276.99	32.78	-46.5	-49.8	15.1	0.00e+00	0	43	0	655360000	64	5289
2026-01-15 11:13:13.51	277.36	32.74	-46.8	-50.3	14.7	0.00e+00	0	43	0	657457152	64	5614
2026-01-15 11:13:14.50	277.72	32.70	-46.7	-50.1	14.8	7.00e-07	0	43	0	659554304	64	5506
2026-01-15 11:13:15.50	278.08	32.66	-46.5	-49.8	15.0	0.00e+00	0	43	0	660602880	64	5329
2026-01-15 11:13:16.49	278.44	32.61	-46.3	-49.5	15.3	0.00e+00	0	43	0	662700032	64	5154
2026-01-15 11:13:17.48	278.80	32.57	-46.3	-49.5	15.4	0.00e+00	0	43	0	664797184	64	5112
2026-01-15 11:13:18.47	279.16	32.52	-46.4	-49.7	15.1	0.00e+00	0	43	0	666894336	64	5273
2026-01-15 11:13:19.47	279.52	32.47	-46.5	-49.9	15.0	0.00e+00	0	43	0	667942912	64	5344
2026-01-15 11:13:20.46	279.88	32.42	-46.6	-50.0	15.0	7.00e-07	0	43	0	670040064	64	5408
2026-01-15 11:13:21.45	280.23	32.37	-46.2	-49.4	15.5	0.00e+00	0	43	0	672137216	64	5051
2026-01-15 11:13:22.45	280.59	32.32	-46.0	-49.0	15.9	0.00e+00	0	43	0	674234368	63	5125
2026-01-15 11:13:23.44	280.94	32.27	-46.1	-49.2	15.8	0.00e+00	0	43	0	676331520	63	5231
2026-01-15 11:13:24.43	281.29	32.21	-46.8	-50.2	14.7	0.00e+00	0	43	0	677380096	64	5562
2026-01-15 11:13:25.43	281.65	32.16	-47.5	-51.4	13.5	7.00e-07	0	43	0	679477248	65	6020
2026-01-15 11:13:26.42	282.00	32.10	-47.6	-51.7	13.2	3.96e-05	0	43	0	681574400	66	5894
2026-01-15 11:13:27.41	282.35	32.04	-47.4	-51.3	13.6	3.05e-05	0	43	0	683671552	66	5647
2026-01-15 11:13:28.41	282.70	31.99	-47.1	-50.7	14.3	3.80e-06	0	43	0	684720128	66	5223
2026-01-15 11:13:29.40	283.04	31.93	-46.6	-49.9	15.0	0.00e+00	0	43	0	686817280	65	5065
2026-01-15 11:13:30.39	283.39	31.87	-46.9	-50.4	14.5	0.00e+00	0	43	0	688914432	65	5354
2026-01-15 11:13:31.38	283.73	31.81	-47.1	-50.8	14.2	0.00e+00	0	43	0	691011584	65	5615
2026-01-15 11:13:32.38	284.07	31.74	-46.8	-50.3	14.6	3.00e-06	0	43	0	693108736	65	5300
2026-01-15 11:13:33.37	284.41	31.68	-46.2	-49.4	15.5	0.00e+00	0	43	0	694157312	64	5044
2026-01-15 11:13:34.36	284.75	31.62	-46.2	-49.3	15.6	0.00e+00	0	43	0	696254464	64	5022
2026-01-15 11:13:35.36	285.09	31.55	-46.0	-48.9	15.9	0.00e+00	0	43	0	698351616	64	4806
2026-01-15 11:13:36.35	285.43	31.49	-46.3	-49.3	15.6	0.00e+00	0	43	0	700448768	63	5318
2026-01-15 11:13:37.34	285.77	31.42	-46.5	-49.6	15.4	0.00e+00	0	43	0	701497344	63	5510
2026-01-15 11:13:38.33	286.10	31.35	-46.5	-49.7	15.2	0.00e+00	0	43	0	703594496	64	5275
2026-01-15 11:13:39.33	286.43	31.28	-46.5	-49.8	15.2	0.00e+00	0	43	0	705691648	64	5286
2026-01-15 11:13:40.32	286.77	31.21	-46.3	-49.6	15.3	7.00e-07	0	43	0	707788800	64	5161
2026-01-15 11:13:41.31	287.09	31.14	-46.1	-49.2	15.7	0.00e+00	0	43	0	709885952	64	4959
2026-01-15 11:13:42.30	287.42	31.07	-46.0	-49.0	16.0	0.00e+00	0	43	0	710934528	63	5117
2026-01-15 11:13:43.30	287.75	31.00	-46.1	-49.1	15.9	0.00e+00	0	43	0	713031680	63	5186
2026-01-15 11:13:44.29	288.08	30.93	-46.3	-49.5	15.4	0.00e+00	0	43	0	715128832	63	5428
2026-01-15 11:13:45.28	288.40	30.86	-46.2	-49.3	15.7	0.00e+00	0	43	0	717225984	63	5307
2026-01-15 11:13:46.28	288.73	30.78	-45.9	-48.8	16.0	0.00e+00	0	43	0	718274560	63	5036
2026-01-15 11:13:47.27	289.05	30.71	-45.6	-48.5	16.4	0.00e+00	0	43	0	720371712	62	5127
2026-01-15 11:13:48.26	289.37	30.63	-45.4	-48.2	16.7	0.00e+00	0	43	0	722468864	62	4933
2026-01-15 11:13:49.26	289.69	30.55	-45.8	-48.7	16.2	0.00e+00	0	43	0	724566016	62	5265
2026-01-15 11:13:50.25	290.00	30.48	-46.2	-49.4	15.6	0.00e+00	0	43	0	725614592	63	5358
2026-01-15 11:13:51.24	290.32	30.40	-46.5	-49.8	15.2	0.00e+00	0	43	0	727711744	63	5636
2026-01-15 11:13:52.24	290.63	30.32	-46.5	-49.8	15.2	0.00e+00	0	43	0	729808896	63	5607
2026-01-15 11:13:53.23	290.95	30.24	-46.3	-49.4	15.6	0.00e+00	0	43	0	731906048	63	5366
2026-01-15 11:13:54.22	291.26	30.16	-45.8	-48.7	16.3	0.00e+00	0	43	0	734003200	63	4954
2026-01-15 11:13:55.22	291.57	30.08	-45.7	-48.6	16.3	0.00e+00	0	43	0	735051776	63	4905
2026-01-15 11:13:56.21	291.88	30.00	-46.0	-49.1	15.9	0.00e+00	0	43	0	737148928	63	5191
2026-01-15 11:13:57.20	292.18	29.91	-46.4	-49.7	15.3	0.00e+00	0	43	0	739246080	63	5563
2026-01-15 11:13:58.19	292.49	29.83	-46.5	-49.8	15.1	0.00e+00	0	43	0	741343232	64	5328
2026-01-15 11:13:59.19	292.79	29.75	-46.4	-49.6	15.3	0.00e+00	0	43	0	742391808	64	5203
2026-01-15 11:14:00.18	293.09	29.66	-46.3	-49.6	15.3	0.00e+00	0	43	0	744488960	64	5180
2026-01-15 11:14:01.17	293.39	29.58	-46.4	-49.7	15.3	0.00e+00	0	43	0	746586112	64	5219
2026-01-15 11:14:02.17	293.69	29.49	-46.4	-49.7	15.2	0.00e+00	0	43	0	748683264	64	5255
2026-01-15 11:14:03.16	293.99	29.41	-46.7	-50.0	14.9	0.00e+00	0	43	0	750780416	64	5432
2026-01-15 11:14:04.15	294.28	29.32	-47.0	-50.5	14.5	0.00e+00	0	43	0	751828992	64	5754
2026-01-15 11:14:05.15	294.58	29.23	-47.1	-50.6	14.4	7.00e-07	0	43	0	753926144	64	5808
2026-01-15 11:14:06.14	294.87	29.15	-47.2	-50.8	14.2	7.00e-07	0	43	0	756023296	65	5639
2026-01-15 11:14:07.13	295.16	29.06	-47.3	-51.1	14.0	0.00e+00	0	43	0	758120448	65	5807
2026-01-15 11:14:08.13	295.45	28.97	-47.2	-50.8	14.2	2.20e-06	0	43	0	759169024	65	5617
2026-01-15 11:14:09.12	295.74	28.88	-46.7	-50.0	14.9	7.00e-07	0	43	0	761266176	65	5128
2026-01-15 11:14:10.11	296.02	28.79	-46.6	-49.9	15.0	7.00e-07	0	43	0	763363328	65	5097
2026-01-15 11:14:11.11	296.31	28.70	-46.7	-50.1	14.8	0.00e+00	0	43	0	765460480	65	5160
2026-01-15 11:14:12.10	296.59	28.61	-47.1	-50.7	14.3	0.00e+00	0	43	0	767557632	65	5561
2026-01-15 11:14:13.09	296.87	28.52	-47.5	-51.3	13.7	5.30e-06	0	43	0	768606208	65	5989
2026-01-15 11:14:14.08	297.15	28.43	-48.0	-52.2	12.8	5.41e-05	0	43	0	770703360	66	6222
2026-01-15 11:14:15.08	297.43	28.34	-48.1	-52.5	12.5	8.92e-05	0	43	0	772800512	66	6428
2026-01-15 11:14:16.07	297.71	28.25	-47.9	-52.2	12.7	1.20e-04	0	43	0	774897664	67	5903
2026-01-15 11:14:17.06	297.98	28.15	-47.8	-52.0	12.9	1.20e-04	0	43	0	775946240	67	5777
2026-01-15 11:14:18.06	298.26	28.06	-47.6	-51.7	13.3	2.59e-05	0	43	0	778043392	67	5534
2026-01-15 11:14:19.05	298.53	27.97	-47.5	-51.5	13.5	1.52e-05	0	43	0	780140544	67	5418
2026-01-15 11:14:20.04	298.80	27.87	-47.0	-50.7	14.2	5.30e-06	0	43	0	782237696	66	5254
2026-01-15 11:14:21.03	299.07	27.78	-47.1	-50.8	14.1	2.20e-06	0	43	0	784334848	66	5338
2026-01-15 11:14:22.03	299.34	27.69	-47.3	-51.3	13.7	2.20e-06	0	43	0	785383424	66	5615
2026-01-15 11:14:23.02	299.60	27.59	-47.4	-51.4	13.5	6.80e-06	0	43	0	787480576	66	5675
2026-01-15 11:14:24.01	299.86	27.50	-47.6	-51.8	13.1	1.60e-05	0	43	0	789577728	66	5969
2026-01-15 11:14:25.01	300.13	27.40	-47.7	-51.9	13.0	2.59e-05	0	43	0	791674880	66	6052
2026-01-15 11:14:26.00	300.39	27.31	-47.8	-52.0	13.0	4.73e-05	0	43	0	792723456	66	6115
2026-01-15 11:14:26.99	300.65	27.21	-48.0	-52.4	12.6	6.48e-05	0	43	0	794820608	66	6371
2026-01-15 11:14:27.98	300.91	27.11	-48.2	-52.9	12.1	1.38e-04	0	43	0	796917760	67	6374
2026-01-15 11:14:28.98	301.16	27.02	-48.6	-53.6	11.4	4.68e-04	0	43	0	799014912	67	6919
2026-01-15 11:14:29.97	301.42	26.92	-48.4	-53.2	11.7	6.97e-04	0	43	0	801112064	67	6646
2026-01-15 11:14:30.96	301.67	26.82	-47.8	-52.1	12.9	2.19e-04	0	43	0	802160640	67	5795
2026-01-15 11:14:31.96	301.93	26.73	-47.4	-51.4	13.6	3.96e-05	0	43	0	804257792	66	5658
2026-01-15 11:14:32.95	302.18	26.63	-47.2	-50.9	14.0	1.14e-05	0	43	0	806354944	66	5394
2026-01-15 11:14:33.94	302.42	26.53	-47.1	-50.7	14.2	0.00e+00	0	43	0	808452096	65	5574
2026-01-15 11:14:34.93	302.67	26.44	-47.7	-51.9	13.1	3.80e-06	0	43	0	809500672	66	6028
2026-01-15 11:14:35.93	302.92	26.34	-48.3	-53.0	12.0	1.42e-04	0	43	0	811597824	67	6425
2026-01-15 11:14:36.92	303.16	26.24	-48.6	-53.6	11.5	4.36e-04	0	43	0	813694976	67	6891
2026-01-15 11:14:37.91	303.40	26.14	-48.6	-53.5	11.5	1.62e-03	0	43	0	815792128	68	6467
2026-01-15 11:14:38.91	303.65	26.04	-48.0	-52.2	12.8	2.44e-04	0	43	0	816840704	68	5580
2026-01-15 11:14:39.90	303.89	25.94	-47.4	-51.1	13.7	1.14e-05	0	43	0	818937856	66	5521
2026-01-15 11:14:40.89	304.12	25.85	-47.1	-50.6	14.3	3.00e-06	0	43	0	821035008	66	5198
2026-01-15 11:14:41.88	304.36	25.75	-47.2	-50.8	14.1	1.50e-06	0	43	0	823132160	66	5287
2026-01-15 11:14:42.88	304.60	25.65	-47.5	-51.3	13.6	6.80e-06	0	43	0	825229312	66	5603
2026-01-15 11:14:43.87	304.83	25.55	-48.0	-52.3	12.6	4.88e-05	0	43	0	826277888	66	6309
2026-01-15 11:14:44.86	305.06	25.45	-48.7	-53.7	11.2	6.01e-04	0	43	0	828375040	67	7027
2026-01-15 11:14:45.86	305.30	25.35	-48.3	-52.9	12.0	7.03e-04	0	43	0	830472192	67	6359
2026-01-15 11:14:46.85	305.53	25.25	-48.2	-52.8	12.1	3.65e-04	0	43	0	832569344	67	6278
2026-01-15 11:14:47.84	305.75	25.15	-47.8	-51.9	13.1	6.33e-05	0	43	0	833617920	67	5657
2026-01-15 11:14:48.83	305.98	25.05	-47.5	-51.5	13.4	8.30e-06	0	43	0	835715072	66	5749
2026-01-15 11:14:49.83	306.21	24.95	-47.0	-50.5	14.3	6.10e-06	0	43	0	837812224	66	5146
2026-01-15 11:14:50.82	306.43	24.85	-46.9	-50.4	14.4	1.50e-06	0	43	0	839909376	65	5378
2026-01-15 11:14:51.81	306.65	24.75	-47.2	-50.9	14.0	1.50e-06	0	43	0	842006528	65	5679
2026-01-15 11:14:52.81	306.88	24.65	-47.4	-51.2	13.6	1.50e-06	0	43	0	843055104	65	5909
2026-01-15 11:14:53.80	307.10	24.55	-47.8	-51.9	13.0	1.67e-05	0	43	0	845152256	66	6035
2026-01-15 11:14:54.79	307.31	24.45	-47.5	-51.5	13.4	1.60e-05	0	43	0	847249408	66	5753
2026-01-15 11:14:55.79	307.53	24.35	-47.1	-50.8	14.1	4.50e-06	0	43	0	849346560	66	5283
2026-01-15 11:14:56.78	307.75	24.25	-46.7	-50.1	14.7	0.00e+00	0	43	0	850395136	65	5182
2026-01-15 11:14:57.77	307.96	24.15	-46.4	-49.7	15.2	0.00e+00	0	43	0	852492288	64	5219
2026-01-15 11:14:58.77	308.18	24.05	-46.5	-49.9	14.9	0.00e+00	0	43	0	854589440	64	5361
2026-01-15 11:14:59.76	308.39	23.95	-46.9	-50.4	14.5	0.00e+00	0	43	0	856686592	64	5677
2026-01-15 11:15:00.75	308.60	23.85	-47.0	-50.8	14.1	1.50e-06	0	43	0	858783744	64	5933
2026-01-15 11:15:01.74	308.81	23.75	-47.0	-50.7	14.2	2.20e-06	0	43	0	859832320	64	5877
2026-01-15 11:15:02.74	309.02	23.65	-46.7	-50.2	14.6	1.50e-06	0	43	0	861929472	64	5580
2026-01-15 11:15:03.73	309.22	23.55	-46.1	-49.4	15.4	0.00e+00	0	43	0	864026624	64	5061
2026-01-15 11:15:04.72	309.43	23.45	-46.1	-49.4	15.4	0.00e+00	0	43	0	866123776	64	5050
2026-01-15 11:15:05.72	309.64	23.35	-46.0	-49.2	15.7	0.00e+00	0	43	0	867172352	63	5229
2026-01-15 11:15:06.71	309.84	23.25	-46.2	-49.4	15.5	0.00e+00	0	43	0	869269504	63	5395
2026-01-15 11:15:07.70	310.04	23.15	-46.5	-50.0	14.9	0.00e+00	0	43	0	871366656	63	5759
2026-01-15 11:15:08.69	310.24	23.05	-46.8	-50.6	14.3	7.00e-07	0	43	0	873463808	64	5800
2026-01-15 11:15:09.69	310.44	22.95	-47.0	-50.8	14.0	7.00e-07	0	43	0	875560960	64	5985
2026-01-15 11:15:10.68	310.64	22.85	-47.1	-51.0	13.9	4.50e-06	0	43	0	876609536	64	6086
2026-01-15 11:15:11.67	310.83	22.75	-47.0	-50.7	14.1	4.50e-06	0	43	0	878706688	64	5916
2026-01-15 11:15:12.67	311.03	22.65	-46.7	-50.3	14.5	1.50e-06	0	43	0	880803840	64	5623
2026-01-15 11:15:13.66	311.22	22.55	-46.6	-50.0	14.8	0.00e+00	0	43	0	882900992	64	5432
2026-01-15 11:15:14.65	311.42	22.45	-46.4	-49.7	15.0	1.50e-06	0	43	0	883949568	64	5272
2026-01-15 11:15:15.64	311.61	22.35	-46.4	-49.8	15.0	0.00e+00	0	43	0	886046720	64	5315
2026-01-15 11:15:16.64	311.80	22.25	-46.5	-49.9	14.9	0.00e+00	0	43	0	888143872	64	5392
2026-01-15 11:15:17.63	311.99	22.15	-46.6	-50.1	14.7	0.00e+00	0	43	0	890241024	64	5511
2026-01-15 11:15:18.62	312.18	22.05	-46.6	-50.1	14.8	7.00e-07	0	43	0	892338176	64	5505
2026-01-15 11:15:19.62	312.36	21.95	-46.6	-50.2	14.7	0.00e+00	0	43	0	893386752	64	5531
2026-01-15 11:15:20.61	312.55	21.86	-46.4	-49.9	14.9	0.00e+00	0	43	0	895483904	64	5378
2026-01-15 11:15:21.60	312.73	21.76	-46.1	-49.4	15.4	0.00e+00	0	43	0	897581056	64	5072
2026-01-15 11:15:22.60	312.92	21.66	-45.8	-48.9	15.9	0.00e+00	0	43	0	899678208	63	5086
2026-01-15 11:15:23.59	313.10	21.56	-45.7	-48.7	16.1	0.00e+00	0	43	0	900726784	63	4974
2026-01-15 11:15:24.58	313.28	21.46	-45.7	-48.7	16.1	0.00e+00	0	43	0	902823936	63	4981
2026-01-15 11:15:25.57	313.46	21.36	-45.8	-48.9	16.0	0.00e+00	0	43	0	904921088	63	5060
2026-01-15 11:15:26.57	313.64	21.26	-46.1	-49.4	15.5	0.00e+00	0	43	0	907018240	63	5343
2026-01-15 11:15:27.56	313.82	21.16	-46.3	-49.7	15.3	0.00e+00	0	43	0	909115392	63	5555
2026-01-15 11:15:28.55	313.99	21.07	-46.4	-49.8	15.1	0.00e+00	0	43	0	910163968	63	5607
2026-01-15 11:15:29.55	314.17	20.97	-46.3	-49.5	15.3	0.00e+00	0	43	0	912261120	63	5462
2026-01-15 11:15:30.54	314.35	20.87	-46.0	-49.1	15.7	0.00e+00	0	43	0	914358272	63	5212
2026-01-15 11:15:31.53	314.52	20.77	-45.7	-48.8	16.0	0.00e+00	0	43	0	916455424	63	5006
2026-01-15 11:15:32.52	314.69	20.67	-45.4	-48.3	16.6	0.00e+00	0	43	0	917504000	62	4993
2026-01-15 11:15:33.52	314.86	20.57	-45.1	-47.9	16.8	0.00e+00	0	43	0	919601152	62	4799
2026-01-15 11:15:34.51	315.03	20.48	-45.1	-47.9	16.9	0.00e+00	0	43	0	921698304	62	4781
2026-01-15 11:15:35.50	315.20	20.38	-45.1	-47.9	16.9	0.00e+00	0	43	0	923795456	62	4804
2026-01-15 11:15:36.50	315.37	20.28	-45.1	-47.9	16.8	0.00e+00	0	43	0	924844032	62	4792
2026-01-15 11:15:37.49	315.54	20.19	-45.4	-48.4	16.5	0.00e+00	0	43	0	926941184	62	5048
2026-01-15 11:15:38.48	315.70	20.09	-45.7	-48.7	16.1	0.00e+00	0	43	0	929038336	62	5278
2026-01-15 11:15:39.48	315.87	19.99	-45.9	-48.9	15.9	0.00e+00	0	43	0	931135488	62	5397
2026-01-15 11:15:40.47	316.03	19.89	-45.9	-49.0	15.9	0.00e+00	0	43	0	933232640	62	5422
2026-01-15 11:15:41.46	316.20	19.80	-46.0	-49.1	15.7	0.00e+00	0	43	0	934281216	62	5500
2026-01-15 11:15:42.45	316.36	19.70	-45.7	-48.8	16.1	0.00e+00	0	43	0	936378368	62	5280
2026-01-15 11:15:43.45	316.52	19.61	-45.8	-48.8	16.0	0.00e+00	0	43	0	938475520	62	5312
2026-01-15 11:15:44.44	316.68	19.51	-45.6	-48.5	16.3	0.00e+00	0	43	0	940572672	62	5138
2026-01-15 11:15:45.43	316.84	19.41	-45.5	-48.4	16.4	0.00e+00	0	43	0	941621248	62	5091
2026-01-15 11:15:46.43	317.00	19.32	-45.4	-48.3	16.5	0.00e+00	0	43	0	943718400	62	5036
2026-01-15 11:15:47.42	317.16	19.22	-45.4	-48.2	16.6	0.00e+00	0	43	0	945815552	62	4983
2026-01-15 11:15:48.41	317.31	19.13	-45.4	-48.3	16.4	0.00e+00	0	43	0	947912704	62	5034
2026-01-15 11:15:49.41	317.47	19.03	-45.4	-48.3	16.5	0.00e+00	0	43	0	950009856	62	5005
2026-01-15 11:15:50.40	317.62	18.94	-45.4	-48.4	16.4	0.00e+00	0	43	0	951058432	62	5099
2026-01-15 11:15:51.39	317.78	18.84	-45.4	-48.5	16.3	0.00e+00	0	43	0	953155584	62	5134
2026-01-15 11:15:52.38	317.93	18.75	-45.4	-48.4	16.4	0.00e+00	0	43	0	955252736	62	5099
2026-01-15 11:15:53.38	318.08	18.65	-45.3	-48.4	16.4	0.00e+00	0	43	0	957349888	62	5067
2026-01-15 11:15:54.37	318.23	18.56	-45.3	-48.3	16.5	0.00e+00	0	43	0	958398464	62	5030
2026-01-15 11:15:55.36	318.38	18.46	-45.1	-48.1	16.8	0.00e+00	0	43	0	960495616	62	4880
2026-01-15 11:15:56.35	318.53	18.37	-45.0	-48.0	16.8	0.00e+00	0	43	0	962592768	62	4867
2026-01-15 11:15:57.35	318.68	18.27	-45.0	-47.9	16.9	0.00e+00	0	43	0	964689920	61	5099
2026-01-15 11:15:58.34	318.83	18.18	-45.0	-47.9	16.8	0.00e+00	0	43	0	966787072	61	5087
2026-01-15 11:15:59.33	318.97	18.09	-45.1	-48.0	16.8	0.00e+00	0	43	0	967835648	61	5132
2026-01-15 11:16:00.33	319.12	17.99	-45.1	-48.0	16.8	0.00e+00	0	43	0	969932800	61	5108
2026-01-15 11:16:01.32	319.26	17.90	-45.1	-47.8	16.9	0.00e+00	0	43	0	972029952	61	5036
2026-01-15 11:16:02.31	319.40	17.81	-45.2	-48.0	16.8	0.00e+00	0	43	0	974127104	61	5146
2026-01-15 11:16:03.30	319.55	17.72	-45.2	-48.0	16.8	0.00e+00	0	43	0	975175680	61	5137
2026-01-15 11:16:04.30	319.69	17.62	-45.4	-48.3	16.5	0.00e+00	0	43	0	977272832	61	5321
2026-01-15 11:16:05.29	319.83	17.53	-45.4	-48.4	16.4	0.00e+00	0	43	0	979369984	61	5353
2026-01-15 11:16:06.28	319.97	17.44	-45.4	-48.3	16.5	0.00e+00	0	43	0	981467136	61	5333
2026-01-15 11:16:07.28	320.11	17.35	-45.4	-48.3	16.5	0.00e+00	0	43	0	983564288	61	5316
2026-01-15 11:16:08.27	320.25	17.25	-45.4	-48.2	16.6	0.00e+00	0	43	0	984612864	61	5274
2026-01-15 11:16:09.26	320.39	17.16	-45.2	-48.1	16.8	0.00e+00	0	43	0	986710016	61	5170
2026-01-15 11:16:10.26	320.53	17.07	-45.0	-47.8	17.0	0.00e+00	0	43	0	988807168	61	4997
2026-01-15 11:16:11.25	320.66	16.98	-44.7	-47.4	17.4	0.00e+00	0	43	0	990904320	61	4770
2026-01-15 11:16:12.24	320.80	16.89	-44.7	-47.3	17.4	0.00e+00	0	43	0	991952896	61	4758
2026-01-15 11:16:13.23	320.93	16.80	-44.6	-47.2	17.5	0.00e+00	0	43	0	994050048	61	4684
2026-01-15 11:16:14.23	321.07	16.71	-44.8	-47.4	17.4	0.00e+00	0	43	0	996147200	61	4782
2026-01-15 11:16:15.22	321.20	16.62	-44.9	-47.6	17.2	0.00e+00	0	43	0	998244352	61	4901
2026-01-15 11:16:16.21	321.33	16.53	-45.2	-47.9	16.9	0.00e+00	0	43	0	1000341504	61	5100
2026-01-15 11:16:17.21	321.46	16.43	-45.3	-48.2	16.7	0.00e+00	0	43	0	1001390080	61	5227
2026-01-15 11:16:18.20	321.59	16.35	-45.6	-48.7	16.2	0.00e+00	0	43	0	1003487232	61	5552
2026-01-15 11:16:19.19	321.72	16.26	-46.0	-49.2	15.7	0.00e+00	0	43	0	1005584384	62	5579
2026-01-15 11:16:20.18	321.85	16.17	-46.1	-49.5	15.5	0.00e+00	0	43	0	1007681536	63	5418
2026-01-15 11:16:21.18	321.98	16.08	-46.3	-49.7	15.3	0.00e+00	0	43	0	1008730112	63	5570
2026-01-15 11:16:22.17	322.11	15.99	-46.5	-50.0	15.0	0.00e+00	0	43	0	1010827264	63	5746
2026-01-15 11:16:23.16	322.24	15.90	-46.4	-49.8	15.1	0.00e+00	0	43	0	1012924416	63	5638
2026-01-15 11:16:24.16	322.36	15.81	-46.4	-49.8	15.2	0.00e+00	0	43	0	1015021568	63	5632
2026-01-15 11:16:25.15	322.49	15.72	-46.4	-49.6	15.3	0.00e+00	0	43	0	1016070144	63	5523
2026-01-15 11:16:26.14	322.61	15.63	-46.2	-49.3	15.6	0.00e+00	0	43	0	1018167296	63	5338
2026-01-15 11:16:27.14	322.74	15.54	-46.2	-49.4	15.6	0.00e+00	0	43	0	1020264448	63	5352
2026-01-15 11:16:28.13	322.86	15.46	-46.0	-49.0	15.9	0.00e+00	0	43	0	1022361600	63	5109
2026-01-15 11:16:29.12	322.98	15.37	-45.9	-48.9	16.0	0.00e+00	0	43	0	1024458752	63	5074
2026-01-15 11:16:30.12	323.11	15.28	-46.0	-49.0	15.9	0.00e+00	0	43	0	1025507328	63	5140
2026-01-15 11:16:31.11	323.23	15.19	-45.9	-48.9	16.1	0.00e+00	0	43	0	1027604480	63	5054
2026-01-15 11:16:32.10	323.35	15.11	-46.0	-49.1	15.9	0.00e+00	0	43	0	1029701632	63	5164
2026-01-15 11:16:33.09	323.47	15.02	-46.1	-49.1	15.8	0.00e+00	0	43	0	1031798784	63	5191
2026-01-15 11:16:34.09	323.59	14.93	-46.2	-49.3	15.6	0.00e+00	0	43	0	1032847360	63	5310
2026-01-15 11:16:35.08	323.71	14.85	-46.5	-49.7	15.3	0.00e+00	0	43	0	1034944512	63	5559
2026-01-15 11:16:36.07	323.82	14.76	-46.3	-49.6	15.4	0.00e+00	0	43	0	1037041664	63	5477
2026-01-15 11:16:37.07	323.94	14.67	-46.5	-50.0	15.0	0.00e+00	0	43	0	1039138816	63	5741
2026-01-15 11:16:38.06	324.06	14.59	-46.6	-50.3	14.6	0.00e+00	0	43	0	1041235968	64	5625
2026-01-15 11:16:39.05	324.17	14.50	-46.4	-50.1	14.8	7.00e-07	0	43	0	1042284544	64	5474
2026-01-15 11:16:40.05	324.29	14.42	-46.5	-50.4	14.5	7.00e-07	0	43	0	1044381696	64	5715
2026-01-15 11:16:41.04	324.40	14.33	-46.4	-50.5	14.3	0.00e+00	0	43	0	1046478848	64	5761
2026-01-15 11:16:42.03	324.52	14.25	-46.2	-50.4	14.5	7.00e-07	0	43	0	1048576000	64	5670
2026-01-15 11:16:43.03	324.63	14.16	-46.4	-50.7	14.2	1.50e-06	0	43	0	1049624576	64	5870
2026-01-15 11:16:44.02	324.75	14.08	-46.2	-50.3	14.5	7.00e-07	0	43	0	1051721728	64	5623
2026-01-15 11:16:45.01	324.86	13.99	-46.2	-50.3	14.5	0.00e+00	0	43	0	1053818880	64	5633
2026-01-15 11:16:46.00	324.97	13.91	-46.4	-50.7	14.1	7.00e-07	0	43	0	1055916032	64	5861
2026-01-15 11:16:47.00	325.08	13.82	-46.3	-50.4	14.5	0.00e+00	0	43	0	1058013184	64	5658
2026-01-15 11:16:47.99	325.19	13.74	-46.6	-50.7	14.1	1.50e-06	0	43	0	1059061760	64	5903
2026-01-15 11:16:48.98	325.30	13.65	-46.5	-50.7	14.1	2.20e-06	0	43	0	1061158912	64	5859
2026-01-15 11:16:49.98	325.41	13.57	-46.3	-50.4	14.4	1.50e-06	0	43	0	1063256064	64	5657
2026-01-15 11:16:50.97	325.52	13.49	-46.4	-50.5	14.2	2.20e-06	0	43	0	1065353216	64	5765
2026-01-15 11:16:51.96	325.63	13.40	-46.3	-50.3	14.4	7.00e-07	0	43	0	1066401792	64	5626
2026-01-15 11:16:52.96	325.74	13.32	-46.1	-50.0	14.8	0.00e+00	0	43	0	1068498944	64	5403
2026-01-15 11:16:53.95	325.84	13.24	-46.2	-50.1	14.6	7.00e-07	0	43	0	1070596096	64	5492
2026-01-15 11:16:54.94	325.95	13.16	-46.0	-49.6	15.0	0.00e+00	0	43	0	1072693248	64	5212
2026-01-15 11:16:55.94	326.05	13.07	-46.2	-49.8	14.9	0.00e+00	0	43	0	1074790400	64	5306
2026-01-15 11:16:56.93	326.16	12.99	-46.0	-49.4	15.3	0.00e+00	0	43	0	1075838976	63	5395
2026-01-15 11:16:57.92	326.26	12.91	-45.7	-49.0	15.7	0.00e+00	0	43	0	1077936128	63	5110
2026-01-15 11:16:58.91	326.37	12.83	-45.9	-49.2	15.5	0.00e+00	0	43	0	1080033280	63	5250
2026-01-15 11:16:59.91	326.47	12.75	-45.7	-48.9	15.8	0.00e+00	0	43	0	1082130432	63	5073
2026-01-15 11:17:00.90	326.58	12.66	-45.5	-48.6	16.0	0.00e+00	0	43	0	1083179008	63	4925
2026-01-15 11:17:01.89	326.68	12.58	-45.7	-48.8	15.8	3.00e-06	0	43	0	1085276160	63	5041
2026-01-15 11:17:02.89	326.78	12.50	-45.4	-48.5	16.2	0.00e+00	0	43	0	1087373312	62	5114
2026-01-15 11:17:03.88	326.88	12.42	-45.5	-48.6	16.0	0.00e+00	0	43	0	1089470464	62	5206
2026-01-15 11:17:04.87	326.98	12.34	-45.4	-48.5	16.1	0.00e+00	0	43	0	1091567616	62	5156
2026-01-15 11:17:05.87	327.08	12.26	-45.4	-48.5	16.1	0.00e+00	0	43	0	1092616192	62	5132
2026-01-15 11:17:06.86	327.18	12.18	-45.6	-48.8	15.8	0.00e+00	0	43	0	1094713344	62	5321
2026-01-15 11:17:07.85	327.28	12.10	-45.5	-48.6	16.0	0.00e+00	0	43	0	1096810496	62	5182
2026-01-15 11:17:08.85	327.38	12.02	-45.5	-48.7	15.9	0.00e+00	0	43	0	1098907648	62	5246
2026-01-15 11:17:09.84	327.48	11.94	-45.8	-49.1	15.5	0.00e+00	0	43	0	1099956224	62	5483
2026-01-15 11:17:10.83	327.58	11.86	-45.8	-49.0	15.6	0.00e+00	0	43	0	1102053376	62	5447
2026-01-15 11:17:11.82	327.67	11.78	-46.0	-49.3	15.4	0.00e+00	0	43	0	1104150528	62	5605
2026-01-15 11:17:12.82	327.77	11.70	-46.1	-49.5	15.1	0.00e+00	0	43	0	1106247680	62	5774
2026-01-15 11:17:13.81	327.87	11.62	-46.1	-49.5	15.0	0.00e+00	0	43	0	1108344832	62	5771
2026-01-15 11:17:14.80	327.96	11.54	-46.3	-49.9	14.7	7.00e-07	0	43	0	1109393408	63	5685
2026-01-15 11:17:15.79	328.06	11.47	-46.2	-49.8	14.8	1.50e-06	0	43	0	1111490560	63	5641
2026-01-15 11:17:16.79	328.15	11.39	-46.3	-50.0	14.6	7.00e-07	0	43	0	1113587712	63	5764
2026-01-15 11:17:17.78	328.25	11.31	-46.5	-50.2	14.3	7.00e-07	0	43	0	1115684864	63	5921
2026-01-15 11:17:18.77	328.34	11.23	-46.4	-50.2	14.4	0.00e+00	0	43	0	1116733440	63	5866
2026-01-15 11:17:19.77	328.44	11.15	-46.4	-50.1	14.5	7.00e-07	0	43	0	1118830592	63	5798
2026-01-15 11:17:20.76	328.53	11.07	-46.5	-50.2	14.4	7.00e-07	0	43	0	1120927744	63	5875
2026-01-15 11:17:21.75	328.62	11.00	-46.3	-49.9	14.7	0.00e+00	0	43	0	1123024896	63	5664
2026-01-15 11:17:22.75	328.71	10.92	-46.3	-49.9	14.7	7.00e-07	0	43	0	1124073472	63	5659
2026-01-15 11:17:23.74	328.80	10.84	-46.2	-49.7	14.8	0.00e+00	0	43	0	1126170624	63	5572
2026-01-15 11:17:24.73	328.89	10.77	-46.2	-49.7	14.8	0.00e+00	0	43	0	1128267776	63	5583
2026-01-15 11:17:25.73	328.99	10.69	-46.4	-50.0	14.6	0.00e+00	0	43	0	1130364928	63	5742
2026-01-15 11:17:26.72	329.08	10.61	-46.1	-49.6	14.9	0.00e+00	0	43	0	1132462080	63	5487
2026-01-15 11:17:27.71	329.17	10.54	-46.0	-49.5	15.0	0.00e+00	0	43	0	1133510656	63	5432
2026-01-15 11:17:28.71	329.26	10.46	-46.0	-49.6	14.9	0.00e+00	0	43	0	1135607808	63	5495
2026-01-15 11:17:29.70	329.34	10.38	-45.9	-49.4	15.1	7.00e-07	0	43	0	1137704960	63	5359
2026-01-15 11:17:30.69	329.43	10.31	-46.0	-49.6	14.9	0.00e+00	0	43	0	1139802112	63	5501
2026-01-15 11:17:31.68	329.52	10.23	-46.0	-49.7	14.8	0.00e+00	0	43	0	1140850688	63	5530
2026-01-15 11:17:32.66	329.61	10.16	-46.0	-49.6	14.9	0.00e+00	0	43	0	1142947840	63	5518
2026-01-15 11:17:33.66	329.69	10.08	-46.2	-49.9	14.6	0.00e+00	0	43	0	1145044992	63	5667
2026-01-15 11:17:34.65	329.78	10.01	-46.1	-49.8	14.7	0.00e+00	0	43	0	1147142144	63	5595
2026-01-15 11:17:35.64	329.87	9.93	-46.2	-49.8	14.7	0.00e+00	0	43	0	1148190720	63	5598
2026-01-15 11:17:36.63	329.95	9.86	-46.3	-49.9	14.6	2.20e-06	0	43	0	1150287872	63	5693
2026-01-15 11:17:37.63	330.04	9.78	-46.3	-49.9	14.6	0.00e+00	0	43	0	1152385024	63	5692
2026-01-15 11:17:38.62	330.12	9.71	-46.4	-50.1	14.4	0.00e+00	0	43	0	1154482176	63	5802
2026-01-15 11:17:39.61	330.21	9.63	-46.4	-50.0	14.4	7.00e-07	0	43	0	1156579328	63	5772
2026-01-15 11:17:40.61	330.29	9.56	-46.3	-49.9	14.6	1.50e-06	0	43	0	1157627904	63	5685
2026-01-15 11:17:41.60	330.38	9.49	-46.5	-50.1	14.3	2.20e-06	0	43	0	1159725056	63	5835
2026-01-15 11:17:42.59	330.46	9.41	-46.3	-49.9	14.5	0.00e+00	0	43	0	1161822208	63	5695
2026-01-15 11:17:43.58	330.54	9.34	-46.3	-49.9	14.6	0.00e+00	0	43	0	1163919360	63	5717
2026-01-15 11:17:44.58	330.62	9.26	-46.3	-50.0	14.5	0.00e+00	0	43	0	1164967936	63	5733
2026-01-15 11:17:45.57	330.71	9.19	-45.9	-49.4	15.0	0.00e+00	0	43	0	1167065088	63	5376
2026-01-15 11:17:46.56	330.79	9.12	-46.0	-49.5	14.9	0.00e+00	0	43	0	1169162240	63	5425
2026-01-15 11:17:47.55	330.87	9.05	-45.8	-49.2	15.2	0.00e+00	0	43	0	1171259392	63	5252
2026-01-15 11:17:48.55	330.95	8.97	-46.7	-50.6	14.0	0.00e+00	0	43	0	1173356544	63	6199
2026-01-15 11:17:49.54	331.03	8.90	-50.4	-65.7	3.8	7.90e-01	0	43	104	1173356544	71	22205
2026-01-15 11:17:50.53	331.11	8.83	-50.4	-66.0	3.8	1.49e+00	0	43	104	1173356544	71	22906
2026-01-15 11:17:51.53	331.19	8.76	-50.1	-66.2	3.8	1.49e+00	0	43	104	1173356544	71	23324
2026-01-15 11:17:52.52	331.27	8.68	-50.5	-66.3	3.8	1.49e+00	0	43	104	1173356544	72	22292
2026-01-15 11:17:53.51	331.35	8.61	-50.6	-66.3	3.8	1.49e+00	0	43	104	1173356544	72	22373
2026-01-15 11:17:54.50	331.43	8.54	-50.8	-66.3	3.8	1.49e+00	0	43	104	1173356544	72	22520
2026-01-15 11:17:55.50	331.51	8.47	-50.9	-66.4	3.8	1.49e+00	0	43	104	1173356544	72	22665
2026-01-15 11:17:56.49	331.59	8.40	-50.8	-66.4	3.8	1.49e+00	0	43	104	1173356544	72	22696
2026-01-15 11:17:57.48	331.66	8.33	-51.1	-66.4	3.8	1.49e+00	0	43	104	1173356544	73	21466
2026-01-15 11:17:58.48	331.74	8.25	-51.1	-66.4	3.8	1.49e+00	0	43	104	1173356544	73	21475
2026-01-15 11:17:59.47	331.82	8.18	-51.2	-66.5	3.8	1.49e+00	0	43	104	1173356544	73	21543
2026-01-15 11:18:00.46	331.89	8.11	-51.1	-66.5	3.8	1.49e+00	0	43	104	1173356544	73	21554
2026-01-15 11:18:01.46	331.97	8.04	-51.2	-66.5	3.8	1.49e+00	0	43	104	1173356544	73	21549
2026-01-15 11:18:02.45	332.05	7.97	-51.3	-66.5	3.8	1.49e+00	0	43	104	1173356544	73	21527
