passes_logs/2026/01/15/T1/T1__20260115_103633_NOAA_21_JPSS-2_rec.log

#Pass ID: 20260115_103633_NOAA 21 (JPSS-2)
#Satellite: NOAA 21 (JPSS-2)
#Configuration: NOAA 21
#almurnet v.1.7.20251203
#Start time: 2026-01-15 10:36:34

#Version: 2.0.20230620
#Station: T1
#Location: 37.570604 lon 55.790049 lat
#TLE: 1 54234U 22150A   26014.58979933  .00000039  00000+0  39403-4 0  9998
#TLE: 2 54234  98.7497 315.4945 0000653 294.6373  65.4735 14.19534652164756

#Time	Az	El	Level	Level2	SNR	BER	BlckErr	Temp	State	Recorded	gain1	gain2
2026-01-15 10:36:34.78	181.95	5.12	-49.9	-63.5	3.8	1.49e+00	0	39	0	0	71	17171
2026-01-15 10:36:35.76	181.99	5.19	-49.9	-63.2	3.8	1.49e+00	0	39	104	0	70	17489
2026-01-15 10:36:36.76	182.03	5.26	-49.9	-63.1	3.8	1.49e+00	0	40	104	0	70	17440
2026-01-15 10:36:37.75	182.07	5.33	-49.8	-63.1	3.8	1.49e+00	0	40	104	0	70	17431
2026-01-15 10:36:38.74	182.11	5.40	-49.8	-63.2	3.8	1.49e+00	0	40	104	0	70	17620
2026-01-15 10:36:39.74	182.15	5.47	-49.9	-63.3	3.8	1.49e+00	0	40	104	0	70	17747
2026-01-15 10:36:40.73	182.19	5.54	-49.9	-63.4	3.8	1.49e+00	0	40	104	0	70	17960
2026-01-15 10:36:41.72	182.23	5.61	-49.9	-63.4	3.8	1.49e+00	0	40	104	0	70	18090
2026-01-15 10:36:42.72	182.27	5.68	-49.9	-63.5	3.8	1.49e+00	0	40	104	0	70	18287
2026-01-15 10:36:43.71	182.31	5.75	-49.9	-63.5	3.8	1.49e+00	0	40	104	0	70	18159
2026-01-15 10:36:44.70	182.36	5.82	-49.9	-63.4	3.8	1.49e+00	0	40	104	0	70	18011
2026-01-15 10:36:45.70	182.40	5.89	-49.8	-63.2	3.8	1.49e+00	0	40	104	0	70	17634
2026-01-15 10:36:46.69	182.44	5.96	-49.8	-63.1	3.8	1.49e+00	0	40	104	0	70	17341
2026-01-15 10:36:47.68	182.48	6.03	-49.8	-62.9	3.8	1.49e+00	0	40	104	0	70	16992
2026-01-15 10:36:48.67	182.52	6.10	-49.8	-62.8	3.8	1.49e+00	0	40	104	0	70	16697
2026-01-15 10:36:49.67	182.56	6.18	-49.8	-62.7	3.8	1.49e+00	0	40	104	0	70	16509
2026-01-15 10:36:50.66	182.61	6.25	-49.8	-62.6	3.8	1.49e+00	0	40	104	0	70	16374
2026-01-15 10:36:51.65	182.65	6.32	-49.8	-62.6	3.8	1.49e+00	0	40	104	0	70	16369
2026-01-15 10:36:52.65	182.69	6.39	-49.8	-62.6	3.8	1.49e+00	0	40	104	0	70	16436
2026-01-15 10:36:53.64	182.73	6.47	-49.8	-62.7	3.8	1.49e+00	0	40	104	0	70	16528
2026-01-15 10:36:54.63	182.78	6.54	-49.8	-62.6	3.8	1.49e+00	0	40	104	0	70	16388
2026-01-15 10:36:55.63	182.82	6.61	-49.8	-62.5	3.8	1.49e+00	0	41	104	0	70	16235
2026-01-15 10:36:56.62	182.86	6.68	-49.8	-62.4	3.8	1.49e+00	0	41	104	0	70	16026
2026-01-15 10:36:57.61	182.91	6.76	-49.7	-62.2	3.8	1.49e+00	0	41	104	0	70	15754
2026-01-15 10:36:58.61	182.95	6.83	-49.8	-62.3	3.8	1.49e+00	0	41	104	0	70	15807
2026-01-15 10:36:59.60	182.99	6.90	-49.8	-62.4	3.8	1.49e+00	0	41	104	0	70	15986
2026-01-15 10:37:00.59	183.04	6.98	-49.8	-62.7	3.8	1.49e+00	0	41	104	0	70	16671
2026-01-15 10:37:01.58	183.08	7.05	-49.8	-63.2	3.8	1.49e+00	0	40	104	0	70	17644
2026-01-15 10:37:02.58	183.13	7.13	-49.9	-63.6	3.8	1.49e+00	0	41	104	0	70	18329
2026-01-15 10:37:03.57	183.17	7.20	-49.8	-63.3	3.8	1.49e+00	0	41	104	0	70	17760
2026-01-15 10:37:04.56	183.22	7.28	-49.7	-61.9	3.8	1.49e+00	0	41	104	0	70	15116
2026-01-15 10:37:05.56	183.26	7.35	-49.4	-59.1	4.5	1.46e+00	0	41	104	0	70	10933
2026-01-15 10:37:06.55	183.31	7.43	-49.0	-56.6	5.9	4.74e-01	0	41	0	0	70	8203
2026-01-15 10:37:07.54	183.35	7.50	-48.4	-54.4	7.8	1.03e-01	0	41	0	0	68	7165
2026-01-15 10:37:08.54	183.40	7.58	-47.5	-52.4	9.8	1.40e-02	0	41	0	0	67	5998
2026-01-15 10:37:09.53	183.44	7.65	-46.8	-50.9	11.2	2.85e-03	0	41	0	0	65	5679
2026-01-15 10:37:10.52	183.49	7.73	-46.1	-49.7	12.5	2.23e-04	0	41	0	0	64	5269
2026-01-15 10:37:11.51	183.54	7.80	-45.6	-48.8	13.5	1.83e-05	0	41	0	0	63	5001
2026-01-15 10:37:12.51	183.58	7.88	-45.1	-48.0	14.3	7.00e-07	0	41	0	0	62	4832
2026-01-15 10:37:13.50	183.63	7.96	-44.7	-47.4	14.8	0.00e+00	0	41	0	0	61	4803
2026-01-15 10:37:14.49	183.68	8.04	-44.4	-47.1	15.2	0.00e+00	0	41	0	0	60	4888
2026-01-15 10:37:15.49	183.73	8.11	-44.2	-46.8	15.4	0.00e+00	0	41	0	0	60	4746
2026-01-15 10:37:16.48	183.77	8.19	-44.2	-46.8	15.4	0.00e+00	0	41	0	0	60	4754
2026-01-15 10:37:17.47	183.82	8.27	-44.4	-47.0	15.3	0.00e+00	0	41	0	0	60	4840
2026-01-15 10:37:18.47	183.87	8.35	-44.6	-47.3	14.9	0.00e+00	0	41	0	0	60	5028
2026-01-15 10:37:19.46	183.92	8.42	-44.9	-47.8	14.5	7.00e-07	0	41	0	0	60	5318
2026-01-15 10:37:20.45	183.97	8.50	-45.3	-48.4	13.9	2.20e-06	0	41	0	0	61	5360
2026-01-15 10:37:21.44	184.02	8.58	-45.9	-49.3	13.0	2.82e-05	0	41	0	0	62	5638
2026-01-15 10:37:22.44	184.06	8.66	-46.5	-50.2	12.1	1.85e-04	0	41	0	0	63	5877
2026-01-15 10:37:23.43	184.11	8.74	-46.9	-51.1	11.2	9.18e-04	0	41	0	0	64	6134
2026-01-15 10:37:24.42	184.16	8.82	-47.4	-52.1	10.0	4.76e-03	0	41	0	0	65	6558
2026-01-15 10:37:25.42	184.21	8.90	-47.9	-53.2	9.0	1.99e-02	0	41	0	0	66	6972
2026-01-15 10:37:26.41	184.26	8.98	-48.2	-54.2	8.0	6.02e-02	0	41	0	0	67	7410
2026-01-15 10:37:27.40	184.31	9.05	-48.6	-55.0	7.2	1.10e-01	0	41	0	0	67	8171
2026-01-15 10:37:28.39	184.36	9.13	-48.7	-55.1	7.1	3.21e-01	0	41	0	0	68	7770
2026-01-15 10:37:29.39	184.42	9.22	-48.5	-54.8	7.6	1.32e-01	0	41	0	0	68	7472
2026-01-15 10:37:30.38	184.47	9.30	-48.5	-54.9	7.3	4.86e-01	0	41	0	0	69	7183
2026-01-15 10:37:31.37	184.52	9.38	-47.5	-52.3	10.0	1.86e-04	0	41	0	0	65	6720
2026-01-15 10:37:32.37	184.57	9.46	-49.1	-56.8	5.5	1.10e+00	0	41	104	0	69	8895
2026-01-15 10:37:33.36	184.62	9.54	-46.1	-49.8	12.6	1.38e-04	0	41	0	0	64	5307
2026-01-15 10:37:34.35	184.67	9.62	-46.0	-49.5	12.9	9.76e-05	0	41	0	0	63	5444
2026-01-15 10:37:35.34	184.73	9.70	-46.2	-49.8	12.7	5.41e-05	0	41	0	0	63	5622
2026-01-15 10:37:36.34	184.78	9.78	-46.1	-49.6	12.9	7.55e-05	0	41	0	0	63	5485
2026-01-15 10:37:37.33	184.83	9.87	-46.1	-49.6	12.9	6.79e-05	0	42	0	0	63	5501
2026-01-15 10:37:38.32	184.89	9.95	-46.1	-49.7	12.7	3.89e-05	0	41	0	0	63	5549
2026-01-15 10:37:39.32	184.94	10.03	-45.7	-49.0	13.5	2.21e-05	0	41	0	0	63	5128
2026-01-15 10:37:40.31	184.99	10.11	-45.5	-48.7	13.7	9.10e-06	0	41	0	0	62	5223
2026-01-15 10:37:41.30	185.05	10.20	-45.8	-49.0	13.4	7.60e-06	0	41	0	0	62	5462
2026-01-15 10:37:42.30	185.10	10.28	-45.4	-48.5	14.0	1.50e-06	0	41	0	0	62	5128
2026-01-15 10:37:43.29	185.16	10.37	-45.5	-48.6	13.8	7.00e-07	0	41	0	0	62	5211
2026-01-15 10:37:44.28	185.21	10.45	-45.4	-48.4	14.0	4.50e-06	0	41	0	0	62	5082
2026-01-15 10:37:45.27	185.27	10.53	-45.2	-48.2	14.3	7.00e-07	0	42	0	0	62	4933
2026-01-15 10:37:46.27	185.32	10.62	-45.1	-48.0	14.4	7.00e-07	0	41	0	0	62	4834
2026-01-15 10:37:47.26	185.38	10.70	-45.0	-47.9	14.7	7.00e-07	0	41	0	0	61	5055
2026-01-15 10:37:48.25	185.44	10.79	-44.9	-47.6	14.9	7.00e-07	0	42	0	0	61	4904
2026-01-15 10:37:49.25	185.49	10.87	-44.9	-47.7	14.7	0.00e+00	0	41	0	0	61	4963
2026-01-15 10:37:50.24	185.55	10.96	-44.9	-47.7	14.8	0.00e+00	0	42	0	0	61	4928
2026-01-15 10:37:51.23	185.61	11.05	-45.0	-47.9	14.6	7.00e-07	0	42	0	0	61	5051
2026-01-15 10:37:52.22	185.66	11.13	-44.9	-47.6	14.8	2.20e-06	0	42	0	0	61	4906
2026-01-15 10:37:53.22	185.72	11.22	-45.0	-47.7	14.7	0.00e+00	0	41	0	0	61	4977
2026-01-15 10:37:54.21	185.78	11.31	-44.9	-47.6	14.9	0.00e+00	0	42	0	0	61	4913
2026-01-15 10:37:55.20	185.84	11.39	-44.6	-47.3	15.2	0.00e+00	0	42	0	0	61	4707
2026-01-15 10:37:56.20	185.90	11.48	-44.5	-47.1	15.4	0.00e+00	0	42	0	0	60	4911
2026-01-15 10:37:57.19	185.96	11.57	-44.3	-46.8	15.7	0.00e+00	0	42	0	0	60	4725
2026-01-15 10:37:58.18	186.02	11.66	-44.1	-46.5	15.9	0.00e+00	0	42	0	0	60	4597
2026-01-15 10:37:59.17	186.08	11.74	-43.8	-46.1	16.2	0.00e+00	0	42	0	0	59	4615
2026-01-15 10:38:00.17	186.14	11.83	-43.6	-45.8	16.6	0.00e+00	0	42	0	0	59	4464
2026-01-15 10:38:01.16	186.20	11.92	-43.5	-45.6	16.8	0.00e+00	0	42	0	0	58	4647
2026-01-15 10:38:02.15	186.26	12.01	-43.5	-45.6	16.8	0.00e+00	0	42	0	0	58	4647
2026-01-15 10:38:03.15	186.32	12.10	-43.5	-45.6	16.8	0.00e+00	0	42	0	0	58	4645
2026-01-15 10:38:04.14	186.38	12.19	-43.5	-45.6	16.8	0.00e+00	0	42	0	0	58	4634
2026-01-15 10:38:05.13	186.44	12.28	-43.5	-45.6	16.8	0.00e+00	0	42	0	0	58	4632
2026-01-15 10:38:06.12	186.51	12.37	-43.5	-45.6	16.8	0.00e+00	0	42	0	0	58	4651
2026-01-15 10:38:07.12	186.57	12.46	-43.6	-45.7	16.7	0.00e+00	0	42	0	0	58	4682
2026-01-15 10:38:08.11	186.63	12.55	-43.6	-45.7	16.7	0.00e+00	0	42	0	0	58	4678
2026-01-15 10:38:09.10	186.70	12.64	-43.4	-45.5	16.9	0.00e+00	0	42	0	0	58	4592
2026-01-15 10:38:10.10	186.76	12.74	-43.3	-45.5	17.0	0.00e+00	0	42	0	0	58	4555
2026-01-15 10:38:11.09	186.82	12.83	-43.4	-45.6	16.9	0.00e+00	0	41	0	0	58	4602
2026-01-15 10:38:12.08	186.89	12.92	-43.3	-45.4	17.0	0.00e+00	0	42	0	0	58	4531
2026-01-15 10:38:13.07	186.95	13.01	-43.3	-45.5	17.0	0.00e+00	0	42	0	0	58	4557
2026-01-15 10:38:14.07	187.02	13.10	-43.4	-45.5	16.9	0.00e+00	0	42	0	0	58	4597
2026-01-15 10:38:15.06	187.09	13.20	-43.3	-45.5	17.0	0.00e+00	0	42	0	0	58	4583
2026-01-15 10:38:16.05	187.15	13.29	-43.3	-45.5	16.9	0.00e+00	0	42	0	0	58	4583
2026-01-15 10:38:17.05	187.22	13.39	-43.2	-45.4	17.0	0.00e+00	0	42	0	0	58	4519
2026-01-15 10:38:18.04	187.29	13.48	-43.2	-45.3	17.1	0.00e+00	0	42	0	0	58	4487
2026-01-15 10:38:19.03	187.35	13.57	-43.2	-45.3	17.1	0.00e+00	0	42	0	0	58	4483
2026-01-15 10:38:20.02	187.42	13.67	-43.2	-45.4	17.1	0.00e+00	0	42	0	0	58	4505
2026-01-15 10:38:21.02	187.49	13.76	-43.3	-45.4	17.0	0.00e+00	0	42	0	0	58	4538
2026-01-15 10:38:22.01	187.56	13.86	-43.3	-45.5	16.9	0.00e+00	0	42	0	0	58	4597
2026-01-15 10:38:23.00	187.63	13.95	-43.3	-45.5	17.1	0.00e+00	0	42	0	0	58	4550
2026-01-15 10:38:24.00	187.70	14.05	-43.2	-45.4	17.1	0.00e+00	0	42	0	0	58	4522
2026-01-15 10:38:24.99	187.77	14.15	-43.2	-45.4	17.1	0.00e+00	0	42	0	0	58	4535
2026-01-15 10:38:25.98	187.84	14.24	-43.2	-45.4	17.1	0.00e+00	0	42	0	0	58	4516
2026-01-15 10:38:26.98	187.91	14.34	-43.2	-45.3	17.1	0.00e+00	0	42	0	0	58	4490
2026-01-15 10:38:27.97	187.98	14.44	-43.2	-45.4	17.1	0.00e+00	0	42	0	0	58	4516
2026-01-15 10:38:28.96	188.05	14.54	-43.3	-45.5	17.0	0.00e+00	0	42	0	0	58	4549
2026-01-15 10:38:29.95	188.12	14.64	-43.3	-45.5	17.0	0.00e+00	0	42	0	0	58	4589
2026-01-15 10:38:30.95	188.20	14.74	-43.4	-45.6	16.9	0.00e+00	0	42	0	0	58	4622
2026-01-15 10:38:31.94	188.27	14.83	-43.4	-45.6	16.9	0.00e+00	0	42	0	0	58	4644
2026-01-15 10:38:32.93	188.34	14.93	-43.3	-45.5	17.0	0.00e+00	0	42	0	0	58	4583
2026-01-15 10:38:33.92	188.42	15.03	-43.3	-45.5	17.1	0.00e+00	0	42	0	0	58	4558
2026-01-15 10:38:34.92	188.49	15.13	-43.3	-45.5	17.0	0.00e+00	0	42	0	0	58	4585
2026-01-15 10:38:35.91	188.57	15.23	-43.4	-45.6	17.0	0.00e+00	0	42	0	0	58	4618
2026-01-15 10:38:36.90	188.64	15.33	-43.4	-45.6	16.9	0.00e+00	0	42	0	0	58	4642
2026-01-15 10:38:37.90	188.72	15.44	-43.4	-45.6	17.0	0.00e+00	0	42	0	0	58	4600
2026-01-15 10:38:38.89	188.79	15.54	-43.5	-45.7	16.9	0.00e+00	0	42	0	0	58	4659
2026-01-15 10:38:39.88	188.87	15.64	-43.4	-45.6	17.0	0.00e+00	0	42	0	0	58	4615
2026-01-15 10:38:40.87	188.95	15.74	-43.4	-45.6	17.0	0.00e+00	0	42	0	0	58	4629
2026-01-15 10:38:41.87	189.03	15.84	-43.4	-45.6	17.0	0.00e+00	0	42	0	0	58	4613
2026-01-15 10:38:42.86	189.10	15.95	-43.5	-45.6	17.0	0.00e+00	0	42	0	0	58	4648
2026-01-15 10:38:43.85	189.18	16.05	-43.6	-45.8	16.8	0.00e+00	0	42	0	0	58	4731
2026-01-15 10:38:44.85	189.26	16.16	-43.7	-45.9	16.8	0.00e+00	0	42	0	0	58	4765
2026-01-15 10:38:45.84	189.34	16.26	-43.6	-45.8	16.8	0.00e+00	0	42	0	0	58	4730
2026-01-15 10:38:46.83	189.42	16.36	-43.6	-45.7	16.9	0.00e+00	0	42	0	0	58	4705
2026-01-15 10:38:47.82	189.50	16.47	-43.6	-45.8	16.9	0.00e+00	0	42	0	0	58	4712
2026-01-15 10:38:48.82	189.59	16.58	-43.6	-45.8	16.9	0.00e+00	0	42	0	0	58	4719
2026-01-15 10:38:49.81	189.67	16.68	-43.6	-45.8	16.9	0.00e+00	0	42	0	0	58	4716
2026-01-15 10:38:50.80	189.75	16.79	-43.7	-45.8	16.9	0.00e+00	0	42	0	0	58	4747
2026-01-15 10:38:51.80	189.83	16.89	-43.7	-45.9	16.8	0.00e+00	0	42	0	0	58	4769
2026-01-15 10:38:52.79	189.92	17.00	-43.8	-46.0	16.8	0.00e+00	0	42	0	0	58	4820
2026-01-15 10:38:53.78	190.00	17.11	-43.7	-45.9	16.9	0.00e+00	0	42	0	0	58	4790
2026-01-15 10:38:54.77	190.09	17.22	-43.8	-45.9	16.8	0.00e+00	0	42	0	0	58	4801
2026-01-15 10:38:55.77	190.17	17.33	-43.8	-46.0	16.8	0.00e+00	0	42	0	0	58	4825
2026-01-15 10:38:56.76	190.26	17.43	-43.8	-46.0	16.8	0.00e+00	0	42	0	0	58	4817
2026-01-15 10:38:57.75	190.35	17.54	-43.7	-45.9	16.9	0.00e+00	0	42	0	0	58	4768
2026-01-15 10:38:58.75	190.43	17.65	-43.8	-46.0	16.7	0.00e+00	0	42	0	0	58	4827
2026-01-15 10:38:59.74	190.52	17.76	-43.8	-45.9	16.8	0.00e+00	0	42	0	0	58	4799
2026-01-15 10:39:00.73	190.61	17.87	-43.8	-45.9	16.8	0.00e+00	0	42	0	0	58	4805
2026-01-15 10:39:01.72	190.70	17.98	-43.8	-46.0	16.8	0.00e+00	0	42	0	0	58	4822
2026-01-15 10:39:02.72	190.79	18.10	-43.8	-45.9	16.9	0.00e+00	0	42	0	0	58	4771
2026-01-15 10:39:03.71	190.88	18.21	-43.7	-45.8	17.0	0.00e+00	0	42	0	0	58	4757
2026-01-15 10:39:04.70	190.97	18.32	-43.7	-45.8	17.0	0.00e+00	0	42	0	0	58	4731
2026-01-15 10:39:05.69	191.06	18.43	-43.7	-45.8	17.0	0.00e+00	0	42	0	0	58	4738
2026-01-15 10:39:06.69	191.16	18.55	-43.7	-45.8	17.1	0.00e+00	0	42	0	0	58	4719
2026-01-15 10:39:07.68	191.25	18.66	-43.7	-45.8	17.1	0.00e+00	0	42	0	0	58	4711
2026-01-15 10:39:08.67	191.34	18.77	-43.5	-45.6	17.3	0.00e+00	0	42	0	0	58	4623
2026-01-15 10:39:09.67	191.44	18.89	-43.5	-45.5	17.3	0.00e+00	0	42	0	0	58	4595
2026-01-15 10:39:10.66	191.53	19.00	-43.5	-45.6	17.3	0.00e+00	0	42	0	0	58	4609
2026-01-15 10:39:11.65	191.63	19.12	-43.5	-45.5	17.3	0.00e+00	0	42	0	0	58	4589
2026-01-15 10:39:12.65	191.73	19.24	-43.5	-45.6	17.2	0.00e+00	0	42	0	0	58	4609
2026-01-15 10:39:13.64	191.82	19.35	-43.4	-45.5	17.3	0.00e+00	0	42	0	0	58	4578
2026-01-15 10:39:14.63	191.92	19.47	-43.4	-45.5	17.3	0.00e+00	0	42	0	0	58	4582
2026-01-15 10:39:15.63	192.02	19.59	-43.4	-45.5	17.2	0.00e+00	0	42	0	0	58	4573
2026-01-15 10:39:16.62	192.12	19.70	-43.3	-45.4	17.4	0.00e+00	0	42	0	0	58	4516
2026-01-15 10:39:17.61	192.22	19.82	-43.3	-45.3	17.4	0.00e+00	0	42	0	0	58	4488
2026-01-15 10:39:18.60	192.32	19.94	-43.3	-45.3	17.5	0.00e+00	0	42	0	0	58	4470
2026-01-15 10:39:19.60	192.42	20.06	-43.2	-45.3	17.5	0.00e+00	0	42	0	0	58	4456
2026-01-15 10:39:20.59	192.53	20.18	-43.2	-45.2	17.6	0.00e+00	0	42	0	0	58	4408
2026-01-15 10:39:21.58	192.63	20.30	-43.2	-45.2	17.6	0.00e+00	0	42	0	0	58	4420
2026-01-15 10:39:22.57	192.73	20.42	-43.2	-45.2	17.5	0.00e+00	0	42	0	0	58	4434
2026-01-15 10:39:23.57	192.84	20.54	-43.2	-45.2	17.6	0.00e+00	0	42	0	0	58	4408
2026-01-15 10:39:24.56	192.94	20.66	-43.2	-45.2	17.5	0.00e+00	0	42	0	0	58	4418
2026-01-15 10:39:25.55	193.05	20.79	-43.1	-45.2	17.6	0.00e+00	0	42	0	0	58	4396
2026-01-15 10:39:26.55	193.16	20.91	-43.0	-45.0	17.7	0.00e+00	0	42	0	0	58	4308
2026-01-15 10:39:27.54	193.27	21.03	-42.9	-44.9	17.8	0.00e+00	0	42	0	0	57	4536
2026-01-15 10:39:28.53	193.37	21.16	-43.0	-45.0	17.7	0.00e+00	0	42	0	0	57	4557
2026-01-15 10:39:29.53	193.48	21.28	-43.1	-45.1	17.6	0.00e+00	0	42	0	0	57	4607
2026-01-15 10:39:30.52	193.60	21.41	-43.0	-45.0	17.7	0.00e+00	0	42	0	0	57	4578
2026-01-15 10:39:31.51	193.71	21.53	-43.1	-45.0	17.6	0.00e+00	0	42	0	0	57	4598
2026-01-15 10:39:32.51	193.82	21.66	-42.9	-44.8	17.8	0.00e+00	0	42	0	0	57	4475
2026-01-15 10:39:33.50	193.93	21.78	-42.9	-44.8	17.8	0.00e+00	0	42	0	0	57	4483
2026-01-15 10:39:34.49	194.05	21.91	-42.8	-44.7	17.9	0.00e+00	0	42	0	0	57	4413
2026-01-15 10:39:35.48	194.16	22.04	-42.8	-44.7	17.9	0.00e+00	0	42	0	0	57	4413
2026-01-15 10:39:36.48	194.28	22.17	-42.6	-44.5	18.1	0.00e+00	0	42	0	0	57	4330
2026-01-15 10:39:37.47	194.39	22.29	-42.6	-44.5	18.0	0.00e+00	0	42	0	0	57	4337
2026-01-15 10:39:38.46	194.51	22.42	-42.6	-44.5	18.1	0.00e+00	0	42	0	0	57	4302
2026-01-15 10:39:39.45	194.63	22.55	-42.4	-44.3	18.2	0.00e+00	0	42	0	0	56	4467
2026-01-15 10:39:40.45	194.75	22.68	-42.2	-44.1	18.4	0.00e+00	0	42	0	0	56	4376
2026-01-15 10:39:41.44	194.87	22.81	-42.3	-44.2	18.3	0.00e+00	0	42	0	0	56	4424
2026-01-15 10:39:42.43	194.99	22.94	-42.3	-44.2	18.3	0.00e+00	0	42	0	0	56	4405
2026-01-15 10:39:43.43	195.12	23.08	-42.2	-44.1	18.3	0.00e+00	0	42	0	0	56	4370
2026-01-15 10:39:44.42	195.24	23.21	-42.2	-44.0	18.4	0.00e+00	0	42	0	0	56	4332
2026-01-15 10:39:45.41	195.37	23.34	-42.1	-44.0	18.4	0.00e+00	0	42	0	0	56	4314
2026-01-15 10:39:46.41	195.49	23.47	-42.1	-44.0	18.4	0.00e+00	0	42	0	0	56	4321
2026-01-15 10:39:47.40	195.62	23.61	-42.1	-44.0	18.4	0.00e+00	0	42	0	0	56	4301
2026-01-15 10:39:48.39	195.75	23.74	-42.0	-43.9	18.5	0.00e+00	0	42	0	0	56	4247
2026-01-15 10:39:49.38	195.87	23.88	-42.0	-43.9	18.5	0.00e+00	0	42	0	0	56	4249
2026-01-15 10:39:50.38	196.01	24.01	-42.0	-43.8	18.6	0.00e+00	0	42	0	0	56	4228
2026-01-15 10:39:51.37	196.14	24.15	-42.0	-43.8	18.6	0.00e+00	0	42	0	0	56	4240
2026-01-15 10:39:52.36	196.27	24.28	-42.0	-43.8	18.6	0.00e+00	0	42	0	0	56	4217
2026-01-15 10:39:53.35	196.40	24.42	-41.8	-43.7	18.6	0.00e+00	0	42	0	0	55	4399
2026-01-15 10:39:54.35	196.54	24.56	-41.9	-43.7	18.5	0.00e+00	0	42	0	0	55	4415
2026-01-15 10:39:55.34	196.67	24.70	-41.9	-43.7	18.5	0.00e+00	0	42	0	0	55	4431
2026-01-15 10:39:56.33	196.81	24.84	-42.0	-43.9	18.4	0.00e+00	0	42	0	0	55	4495
2026-01-15 10:39:57.33	196.95	24.98	-41.8	-43.6	18.6	0.00e+00	0	42	0	0	55	4376
2026-01-15 10:39:58.32	197.09	25.12	-41.8	-43.7	18.6	0.00e+00	0	42	0	0	55	4394
2026-01-15 10:39:59.31	197.23	25.26	-41.9	-43.7	18.5	0.00e+00	0	42	0	0	55	4412
2026-01-15 10:40:00.31	197.37	25.40	-41.8	-43.7	18.6	0.00e+00	0	42	0	0	55	4396
2026-01-15 10:40:01.30	197.51	25.54	-41.9	-43.8	18.4	0.00e+00	0	42	0	0	55	4457
2026-01-15 10:40:02.29	197.66	25.68	-42.0	-43.8	18.4	0.00e+00	0	42	0	0	55	4470
2026-01-15 10:40:03.29	197.80	25.83	-42.1	-43.9	18.3	0.00e+00	0	42	0	0	55	4525
2026-01-15 10:40:04.28	197.95	25.97	-42.1	-44.0	18.2	0.00e+00	0	42	0	0	55	4567
2026-01-15 10:40:05.27	198.10	26.11	-42.1	-44.0	18.2	0.00e+00	0	42	0	0	55	4573
2026-01-15 10:40:06.26	198.25	26.26	-42.2	-44.0	18.2	0.00e+00	0	42	0	0	55	4584
2026-01-15 10:40:07.26	198.40	26.40	-42.3	-44.1	18.1	0.00e+00	0	42	0	0	55	4643
2026-01-15 10:40:08.25	198.55	26.55	-42.3	-44.2	18.0	0.00e+00	0	42	0	0	55	4698
2026-01-15 10:40:09.24	198.70	26.69	-42.4	-44.3	17.9	0.00e+00	0	42	0	0	55	4757
2026-01-15 10:40:10.23	198.86	26.84	-42.5	-44.4	17.9	0.00e+00	0	42	0	0	55	4794
2026-01-15 10:40:11.23	199.01	26.99	-42.5	-44.4	17.9	0.00e+00	0	42	0	0	55	4808
2026-01-15 10:40:12.22	199.17	27.14	-42.6	-44.5	17.8	0.00e+00	0	42	0	0	55	4853
2026-01-15 10:40:13.21	199.33	27.28	-42.6	-44.6	17.7	0.00e+00	0	42	0	0	55	4874
2026-01-15 10:40:14.21	199.49	27.43	-42.9	-44.8	17.6	0.00e+00	0	42	0	0	56	4755
2026-01-15 10:40:15.20	199.65	27.58	-42.9	-44.9	17.6	0.00e+00	0	42	0	0	56	4769
2026-01-15 10:40:16.19	199.81	27.73	-43.0	-45.0	17.5	0.00e+00	0	42	0	0	56	4815
2026-01-15 10:40:17.19	199.98	27.89	-43.1	-45.1	17.4	0.00e+00	0	42	0	0	56	4880
2026-01-15 10:40:18.18	200.15	28.04	-43.0	-45.0	17.5	0.00e+00	0	42	0	0	56	4858
2026-01-15 10:40:19.17	200.31	28.19	-43.1	-45.2	17.3	0.00e+00	0	42	0	0	56	4936
2026-01-15 10:40:20.16	200.48	28.34	-43.2	-45.2	17.3	0.00e+00	0	42	0	0	57	4673
2026-01-15 10:40:21.16	200.66	28.50	-43.1	-45.2	17.3	0.00e+00	0	42	0	0	57	4662
2026-01-15 10:40:22.15	200.83	28.65	-43.2	-45.2	17.3	0.00e+00	0	42	0	0	57	4690
2026-01-15 10:40:23.14	201.00	28.80	-43.2	-45.2	17.3	0.00e+00	0	42	0	0	57	4676
2026-01-15 10:40:24.13	201.18	28.96	-43.2	-45.3	17.2	0.00e+00	0	42	0	0	57	4709
2026-01-15 10:40:25.13	201.36	29.11	-43.2	-45.2	17.3	0.00e+00	0	42	0	0	57	4679
2026-01-15 10:40:26.12	201.54	29.27	-43.2	-45.3	17.2	0.00e+00	0	42	0	0	57	4722
2026-01-15 10:40:27.11	201.72	29.43	-43.3	-45.3	17.2	0.00e+00	0	42	0	0	57	4727
2026-01-15 10:40:28.11	201.90	29.58	-43.4	-45.4	17.0	0.00e+00	0	42	0	0	57	4813
2026-01-15 10:40:29.10	202.08	29.74	-43.4	-45.4	17.0	0.00e+00	0	42	0	0	57	4802
2026-01-15 10:40:30.09	202.27	29.90	-43.4	-45.5	17.0	0.00e+00	0	42	0	0	57	4820
2026-01-15 10:40:31.08	202.46	30.06	-43.4	-45.4	17.1	0.00e+00	0	42	0	0	57	4803
2026-01-15 10:40:32.08	202.65	30.22	-43.4	-45.4	17.1	0.00e+00	0	42	0	0	57	4786
2026-01-15 10:40:33.07	202.84	30.38	-43.3	-45.3	17.2	0.00e+00	0	42	0	0	57	4744
2026-01-15 10:40:34.06	203.03	30.54	-43.3	-45.4	17.1	0.00e+00	0	42	0	0	57	4769
2026-01-15 10:40:35.06	203.23	30.70	-43.1	-45.1	17.4	0.00e+00	0	42	0	0	57	4630
2026-01-15 10:40:36.05	203.43	30.86	-43.2	-45.2	17.3	0.00e+00	0	42	0	0	57	4673
2026-01-15 10:40:37.04	203.63	31.02	-43.2	-45.2	17.3	0.00e+00	0	42	0	0	57	4699
2026-01-15 10:40:38.04	203.83	31.19	-43.2	-45.2	17.4	0.00e+00	0	42	0	0	57	4663
2026-01-15 10:40:39.03	204.03	31.35	-43.0	-45.0	17.6	0.00e+00	0	42	0	0	57	4561
2026-01-15 10:40:40.02	204.24	31.51	-42.9	-44.9	17.6	0.00e+00	0	42	0	0	57	4516
2026-01-15 10:40:41.02	204.45	31.68	-43.0	-45.0	17.6	0.00e+00	0	42	0	0	57	4550
2026-01-15 10:40:42.01	204.65	31.84	-42.9	-44.9	17.7	0.00e+00	0	42	0	0	57	4499
2026-01-15 10:40:43.00	204.87	32.01	-42.8	-44.7	17.8	0.00e+00	0	42	0	0	57	4422
2026-01-15 10:40:44.00	205.08	32.17	-42.7	-44.6	17.9	0.00e+00	0	42	0	0	57	4366
2026-01-15 10:40:44.99	205.30	32.34	-42.7	-44.6	17.8	0.00e+00	0	42	0	0	57	4383
2026-01-15 10:40:45.98	205.51	32.51	-42.9	-44.8	17.7	0.00e+00	0	42	0	0	57	4477
2026-01-15 10:40:46.97	205.73	32.67	-42.9	-44.9	17.6	0.00e+00	0	42	0	0	57	4498
2026-01-15 10:40:47.97	205.96	32.84	-42.9	-44.9	17.6	0.00e+00	0	42	0	0	57	4534
2026-01-15 10:40:48.96	206.18	33.01	-43.1	-45.1	17.4	0.00e+00	0	42	0	0	57	4626
2026-01-15 10:40:49.95	206.41	33.18	-43.2	-45.2	17.3	0.00e+00	0	42	0	0	57	4691
2026-01-15 10:40:50.95	206.64	33.35	-43.3	-45.3	17.2	0.00e+00	0	42	0	0	57	4754
2026-01-15 10:40:51.94	206.87	33.52	-43.3	-45.4	17.2	0.00e+00	0	42	0	0	57	4775
2026-01-15 10:40:52.93	207.10	33.69	-43.4	-45.5	17.1	0.00e+00	0	42	0	0	57	4858
2026-01-15 10:40:53.93	207.34	33.86	-43.3	-45.4	17.2	0.00e+00	0	42	0	0	57	4767
2026-01-15 10:40:54.92	207.58	34.03	-43.4	-45.4	17.2	0.00e+00	0	42	0	0	57	4793
2026-01-15 10:40:55.91	207.82	34.20	-43.4	-45.5	17.1	0.00e+00	0	42	0	0	57	4815
2026-01-15 10:40:56.91	208.07	34.37	-43.4	-45.4	17.2	0.00e+00	0	42	0	0	57	4785
2026-01-15 10:40:57.90	208.31	34.54	-43.4	-45.5	17.1	0.00e+00	0	42	0	0	57	4844
2026-01-15 10:40:58.89	208.56	34.72	-43.7	-45.8	16.9	0.00e+00	0	42	0	0	57	5013
2026-01-15 10:40:59.89	208.81	34.89	-43.9	-46.0	16.6	0.00e+00	0	42	0	0	58	4853
2026-01-15 10:41:00.88	209.07	35.06	-44.0	-46.2	16.5	0.00e+00	0	42	0	0	58	4948
2026-01-15 10:41:01.87	209.32	35.23	-44.1	-46.3	16.4	0.00e+00	0	42	0	0	58	5009
2026-01-15 10:41:02.86	209.58	35.41	-44.1	-46.3	16.3	0.00e+00	0	42	0	0	58	5008
2026-01-15 10:41:03.86	209.85	35.58	-43.9	-46.1	16.5	0.00e+00	0	42	0	0	58	4903
2026-01-15 10:41:04.85	210.11	35.76	-43.8	-45.9	16.7	0.00e+00	0	42	0	0	58	4803
2026-01-15 10:41:05.84	210.38	35.93	-43.8	-45.9	16.7	0.00e+00	0	42	0	0	58	4813
2026-01-15 10:41:06.84	210.65	36.11	-43.9	-46.1	16.6	0.00e+00	0	42	0	0	58	4886
2026-01-15 10:41:07.83	210.92	36.28	-44.2	-46.4	16.2	0.00e+00	0	42	0	0	59	4791
2026-01-15 10:41:08.82	211.20	36.46	-44.2	-46.5	16.2	0.00e+00	0	42	0	0	59	4815
2026-01-15 10:41:09.82	211.48	36.63	-44.3	-46.5	16.1	0.00e+00	0	42	0	0	59	4840
2026-01-15 10:41:10.81	211.76	36.81	-44.3	-46.5	16.1	0.00e+00	0	42	0	0	59	4847
2026-01-15 10:41:11.80	212.05	36.98	-44.3	-46.5	16.2	0.00e+00	0	42	0	0	59	4823
2026-01-15 10:41:12.80	212.34	37.16	-44.3	-46.5	16.1	0.00e+00	0	42	0	0	59	4843
2026-01-15 10:41:13.79	212.63	37.34	-44.4	-46.6	16.0	0.00e+00	0	43	0	0	59	4912
2026-01-15 10:41:14.78	212.92	37.51	-44.5	-46.7	15.9	0.00e+00	0	42	0	0	59	4975
2026-01-15 10:41:15.78	213.22	37.69	-44.6	-46.8	15.8	0.00e+00	0	42	0	0	59	5034
2026-01-15 10:41:16.77	213.52	37.86	-44.7	-47.1	15.7	0.00e+00	0	42	0	0	60	4888
2026-01-15 10:41:17.76	213.83	38.04	-44.8	-47.2	15.6	0.00e+00	0	42	0	0	60	4944
2026-01-15 10:41:18.75	214.13	38.22	-44.5	-46.8	16.0	0.00e+00	0	42	0	0	60	4718
2026-01-15 10:41:19.75	214.44	38.39	-44.5	-46.8	16.0	0.00e+00	0	42	0	0	60	4725
2026-01-15 10:41:20.74	214.76	38.57	-44.6	-47.0	15.8	0.00e+00	0	42	0	0	60	4816
2026-01-15 10:41:21.73	215.07	38.74	-44.7	-47.1	15.7	0.00e+00	0	42	0	0	60	4872
2026-01-15 10:41:22.73	215.40	38.92	-44.7	-47.1	15.7	0.00e+00	0	42	0	0	60	4893
2026-01-15 10:41:23.72	215.72	39.10	-44.7	-47.1	15.8	0.00e+00	0	42	0	0	60	4876
2026-01-15 10:41:24.71	216.05	39.27	-44.8	-47.2	15.7	0.00e+00	0	42	0	0	60	4942
2026-01-15 10:41:25.71	216.38	39.45	-44.7	-47.0	15.8	0.00e+00	0	42	0	0	60	4866
2026-01-15 10:41:26.70	216.72	39.63	-44.8	-47.2	15.6	0.00e+00	0	42	0	0	60	4952
2026-01-15 10:41:27.69	217.05	39.80	-44.8	-47.2	15.7	0.00e+00	0	42	0	0	60	4937
2026-01-15 10:41:28.68	217.39	39.98	-44.6	-46.9	15.9	0.00e+00	0	42	0	0	60	4783
2026-01-15 10:41:29.68	217.74	40.15	-44.6	-46.9	15.9	0.00e+00	0	42	0	0	60	4794
2026-01-15 10:41:30.67	218.09	40.33	-44.7	-47.0	15.8	0.00e+00	0	42	0	0	60	4866
2026-01-15 10:41:31.66	218.44	40.50	-44.8	-47.2	15.6	0.00e+00	0	42	0	0	60	4965
2026-01-15 10:41:32.66	218.80	40.68	-44.8	-47.2	15.7	0.00e+00	0	42	0	0	60	4943
2026-01-15 10:41:33.65	219.16	40.85	-44.9	-47.3	15.5	0.00e+00	0	42	0	0	60	5033
2026-01-15 10:41:34.64	219.53	41.02	-45.0	-47.5	15.4	0.00e+00	0	42	0	0	60	5114
2026-01-15 10:41:35.63	219.89	41.19	-45.0	-47.4	15.5	0.00e+00	0	42	0	0	60	5057
2026-01-15 10:41:36.63	220.27	41.37	-45.1	-47.5	15.4	0.00e+00	0	42	0	0	60	5153
2026-01-15 10:41:37.62	220.64	41.54	-45.1	-47.5	15.3	0.00e+00	0	42	0	0	60	5143
2026-01-15 10:41:38.61	221.02	41.71	-45.3	-47.7	15.1	7.00e-07	0	42	0	0	61	4982
2026-01-15 10:41:39.61	221.41	41.88	-45.4	-47.9	14.9	0.00e+00	0	42	0	0	61	5096
2026-01-15 10:41:40.60	221.80	42.05	-45.6	-48.2	14.6	0.00e+00	0	42	0	0	61	5246
2026-01-15 10:41:41.59	222.19	42.22	-45.6	-48.1	14.6	0.00e+00	0	42	0	0	61	5216
2026-01-15 10:41:42.58	222.58	42.39	-45.5	-48.1	14.7	0.00e+00	0	42	0	0	61	5200
2026-01-15 10:41:43.58	222.98	42.56	-45.6	-48.2	14.6	0.00e+00	0	42	0	0	61	5250
2026-01-15 10:41:44.57	223.39	42.72	-45.5	-48.1	14.7	0.00e+00	0	42	0	0	61	5160
2026-01-15 10:41:45.56	223.80	42.89	-45.4	-47.9	14.9	0.00e+00	0	42	0	0	61	5051
2026-01-15 10:41:46.56	224.21	43.05	-45.3	-47.8	15.0	7.00e-07	0	42	0	0	61	5022
2026-01-15 10:41:47.55	224.63	43.22	-45.5	-48.0	14.8	0.00e+00	0	42	0	0	61	5152
2026-01-15 10:41:48.54	225.05	43.38	-45.4	-48.0	14.9	0.00e+00	0	43	0	0	61	5115
2026-01-15 10:41:49.53	225.47	43.54	-45.3	-47.8	15.1	0.00e+00	0	42	0	0	61	4984
2026-01-15 10:41:50.53	225.90	43.71	-44.9	-47.3	15.6	0.00e+00	0	42	0	0	61	4721
2026-01-15 10:41:51.52	226.34	43.86	-44.7	-47.1	15.8	0.00e+00	0	42	0	0	61	4600
2026-01-15 10:41:52.51	226.77	44.02	-45.0	-47.4	15.5	0.00e+00	0	42	0	0	61	4778
2026-01-15 10:41:53.51	227.22	44.18	-45.3	-47.9	15.0	0.00e+00	0	42	0	0	61	5066
2026-01-15 10:41:54.50	227.67	44.34	-45.5	-48.1	14.8	0.00e+00	0	42	0	0	61	5176
2026-01-15 10:41:55.49	228.12	44.49	-45.5	-48.1	14.8	0.00e+00	0	43	0	0	61	5165
2026-01-15 10:41:56.48	228.57	44.65	-45.5	-48.1	14.7	0.00e+00	0	42	0	0	61	5212
2026-01-15 10:41:57.48	229.03	44.80	-45.2	-47.7	15.1	0.00e+00	0	43	0	0	61	4975
2026-01-15 10:41:58.47	229.50	44.95	-45.1	-47.6	15.2	0.00e+00	0	42	0	0	61	4887
2026-01-15 10:41:59.46	229.96	45.10	-45.2	-47.7	15.1	0.00e+00	0	42	0	0	61	4945
2026-01-15 10:42:00.44	230.43	45.25	-45.2	-47.7	15.0	0.00e+00	0	43	0	0	61	4956
2026-01-15 10:42:01.43	230.91	45.39	-45.1	-47.6	15.1	0.00e+00	0	42	0	0	61	4913
2026-01-15 10:42:02.43	231.39	45.54	-45.4	-47.9	14.9	0.00e+00	0	42	0	0	61	5078
2026-01-15 10:42:03.42	231.88	45.68	-45.4	-48.0	14.8	0.00e+00	0	42	0	0	61	5132
2026-01-15 10:42:04.41	232.37	45.82	-45.3	-47.8	15.0	0.00e+00	0	42	0	0	61	4992
2026-01-15 10:42:05.41	232.86	45.96	-45.3	-47.8	15.0	0.00e+00	0	42	0	0	61	5026
2026-01-15 10:42:06.40	233.36	46.10	-45.2	-47.6	15.1	0.00e+00	0	42	0	0	61	4917
2026-01-15 10:42:07.39	233.86	46.24	-45.0	-47.4	15.3	0.00e+00	0	42	0	0	61	4798
2026-01-15 10:42:08.38	234.37	46.37	-45.1	-47.5	15.2	0.00e+00	0	42	0	0	61	4863
2026-01-15 10:42:09.38	234.89	46.50	-44.9	-47.3	15.4	0.00e+00	0	42	0	0	61	4736
2026-01-15 10:42:10.37	235.40	46.63	-44.9	-47.3	15.5	0.00e+00	0	42	0	0	61	4719
2026-01-15 10:42:11.36	235.92	46.76	-44.6	-46.9	15.8	0.00e+00	0	42	0	0	61	4521
2026-01-15 10:42:12.36	236.45	46.89	-44.7	-46.9	15.8	0.00e+00	0	42	0	0	61	4537
2026-01-15 10:42:13.35	236.98	47.01	-44.7	-47.0	15.8	0.00e+00	0	42	0	0	61	4549
2026-01-15 10:42:14.34	237.51	47.13	-44.7	-47.0	15.7	0.00e+00	0	43	0	0	61	4572
2026-01-15 10:42:15.33	238.04	47.25	-44.6	-46.9	15.8	0.00e+00	0	43	0	0	61	4535
2026-01-15 10:42:16.33	238.59	47.36	-44.6	-46.8	15.8	0.00e+00	0	42	0	0	61	4480
2026-01-15 10:42:17.32	239.13	47.48	-44.5	-46.8	15.8	0.00e+00	0	42	0	0	60	4715
2026-01-15 10:42:18.31	239.68	47.59	-44.6	-46.8	15.7	0.00e+00	0	42	0	0	60	4747
2026-01-15 10:42:19.31	240.23	47.70	-44.6	-46.9	15.7	0.00e+00	0	42	0	0	60	4777
2026-01-15 10:42:20.30	240.79	47.81	-44.6	-46.9	15.8	0.00e+00	0	43	0	0	60	4805
2026-01-15 10:42:21.29	241.35	47.91	-44.7	-47.0	15.7	0.00e+00	0	42	0	0	60	4837
2026-01-15 10:42:22.28	241.91	48.01	-44.8	-47.1	15.6	0.00e+00	0	42	0	0	60	4914
2026-01-15 10:42:23.28	242.48	48.11	-44.9	-47.4	15.4	7.00e-07	0	43	0	0	60	5048
2026-01-15 10:42:24.27	243.05	48.20	-45.0	-47.4	15.3	0.00e+00	0	42	0	0	60	5093
2026-01-15 10:42:25.26	243.62	48.30	-45.0	-47.4	15.3	7.00e-07	0	43	0	0	60	5089
2026-01-15 10:42:26.26	244.20	48.39	-44.8	-47.2	15.6	0.00e+00	0	42	0	0	60	4932
2026-01-15 10:42:27.25	244.78	48.47	-44.6	-47.0	15.8	0.00e+00	0	42	0	0	60	4828
2026-01-15 10:42:28.24	245.37	48.56	-44.8	-47.2	15.6	0.00e+00	0	42	0	0	60	4977
2026-01-15 10:42:29.24	245.96	48.64	-45.0	-47.5	15.4	7.00e-07	0	42	0	0	60	5105
2026-01-15 10:42:30.23	246.55	48.72	-45.1	-47.6	15.1	0.00e+00	0	42	0	0	61	4926
2026-01-15 10:42:31.22	247.14	48.79	-44.9	-47.3	15.5	0.00e+00	0	42	0	0	61	4724
2026-01-15 10:42:32.21	247.73	48.86	-44.7	-47.0	15.8	0.00e+00	0	43	0	0	61	4563
2026-01-15 10:42:33.21	248.33	48.93	-44.4	-46.6	16.2	0.00e+00	0	42	0	0	60	4612
2026-01-15 10:42:34.20	248.93	49.00	-44.6	-46.8	15.9	0.00e+00	0	42	0	0	60	4759
2026-01-15 10:42:35.19	249.54	49.06	-44.9	-47.3	15.5	0.00e+00	0	42	0	0	60	5005
2026-01-15 10:42:36.19	250.15	49.12	-44.8	-47.3	15.5	0.00e+00	0	43	0	0	60	4997
2026-01-15 10:42:37.18	250.75	49.17	-44.7	-47.0	15.7	0.00e+00	0	42	0	0	60	4856
2026-01-15 10:42:38.17	251.36	49.22	-44.6	-46.9	15.9	0.00e+00	0	42	0	0	60	4794
2026-01-15 10:42:39.16	251.97	49.27	-44.7	-47.0	15.7	0.00e+00	0	43	0	0	60	4864
2026-01-15 10:42:40.16	252.59	49.32	-44.7	-47.0	15.8	0.00e+00	0	42	0	0	60	4835
2026-01-15 10:42:41.15	253.20	49.36	-44.4	-46.7	16.0	0.00e+00	0	42	0	0	60	4682
2026-01-15 10:42:42.14	253.82	49.40	-44.2	-46.4	16.3	0.00e+00	0	42	0	0	60	4530
2026-01-15 10:42:43.14	254.44	49.43	-44.3	-46.5	16.2	0.00e+00	0	43	0	0	60	4584
2026-01-15 10:42:44.13	255.06	49.46	-44.6	-46.9	15.9	0.00e+00	0	42	0	0	60	4781
2026-01-15 10:42:45.12	255.68	49.49	-44.7	-47.0	15.7	0.00e+00	0	42	0	0	60	4870
2026-01-15 10:42:46.11	256.30	49.52	-44.7	-47.1	15.7	0.00e+00	0	42	0	0	60	4890
2026-01-15 10:42:47.11	256.93	49.54	-44.6	-47.0	15.8	0.00e+00	0	42	0	0	60	4831
2026-01-15 10:42:48.10	257.55	49.56	-44.8	-47.2	15.5	0.00e+00	0	42	0	0	60	4956
2026-01-15 10:42:49.09	258.17	49.57	-44.7	-47.1	15.8	0.00e+00	0	42	0	0	60	4872
2026-01-15 10:42:50.09	258.80	49.58	-44.6	-46.8	15.9	0.00e+00	0	43	0	0	60	4757
2026-01-15 10:42:51.08	259.43	49.59	-44.3	-46.6	16.1	0.00e+00	0	42	0	0	60	4602
2026-01-15 10:42:52.07	260.05	49.59	-44.2	-46.4	16.3	0.00e+00	0	42	0	0	60	4510
2026-01-15 10:42:53.07	260.68	49.59	-44.4	-46.7	16.1	0.00e+00	0	42	0	0	60	4657
2026-01-15 10:42:54.06	261.30	49.58	-44.6	-46.9	15.9	0.00e+00	0	42	0	0	60	4763
2026-01-15 10:42:55.05	261.93	49.58	-44.5	-46.7	16.0	0.00e+00	0	42	0	0	60	4685
2026-01-15 10:42:56.04	262.55	49.57	-44.5	-46.8	16.0	0.00e+00	0	42	0	0	60	4735
2026-01-15 10:42:57.04	263.18	49.55	-44.5	-46.8	16.0	0.00e+00	0	42	0	0	60	4722
2026-01-15 10:42:58.03	263.80	49.53	-44.3	-46.6	16.2	0.00e+00	0	42	0	0	60	4614
2026-01-15 10:42:59.02	264.42	49.51	-44.3	-46.5	16.2	0.00e+00	0	42	0	0	60	4586
2026-01-15 10:43:00.02	265.05	49.49	-44.1	-46.3	16.3	0.00e+00	0	42	0	0	60	4482
2026-01-15 10:43:01.01	265.67	49.46	-44.3	-46.5	16.2	0.00e+00	0	43	0	0	60	4563
2026-01-15 10:43:02.00	266.29	49.42	-44.5	-46.9	15.9	0.00e+00	0	42	0	0	60	4763
2026-01-15 10:43:03.00	266.91	49.39	-44.5	-46.8	16.0	0.00e+00	0	42	0	0	60	4719
2026-01-15 10:43:03.99	267.52	49.35	-44.4	-46.6	16.1	0.00e+00	0	42	0	0	60	4638
2026-01-15 10:43:04.98	268.14	49.31	-44.2	-46.5	16.2	0.00e+00	0	42	0	0	60	4579
2026-01-15 10:43:05.98	268.75	49.26	-44.0	-46.1	16.5	0.00e+00	0	42	0	0	60	4385
2026-01-15 10:43:06.97	269.36	49.21	-44.1	-46.3	16.4	0.00e+00	0	43	0	0	59	4737
2026-01-15 10:43:07.96	269.97	49.16	-44.5	-46.8	15.9	0.00e+00	0	42	0	0	59	4998
2026-01-15 10:43:08.95	270.58	49.10	-44.7	-47.1	15.6	0.00e+00	0	42	0	0	60	4915
2026-01-15 10:43:09.95	271.19	49.04	-44.5	-46.9	15.7	0.00e+00	0	43	0	0	60	4784
2026-01-15 10:43:10.94	271.79	48.98	-44.6	-47.0	15.7	0.00e+00	0	42	0	0	60	4822
2026-01-15 10:43:11.93	272.38	48.91	-44.4	-46.7	16.0	0.00e+00	0	42	0	0	60	4661
2026-01-15 10:43:12.93	272.99	48.84	-44.4	-46.7	16.0	0.00e+00	0	42	0	0	60	4678
2026-01-15 10:43:13.92	273.58	48.77	-44.7	-47.1	15.6	0.00e+00	0	42	0	0	60	4904
2026-01-15 10:43:14.91	274.17	48.70	-45.1	-47.7	15.1	0.00e+00	0	42	0	0	60	5239
2026-01-15 10:43:15.91	274.76	48.62	-45.5	-48.2	14.5	0.00e+00	0	42	0	0	61	5263
2026-01-15 10:43:16.90	275.34	48.54	-45.6	-48.3	14.5	7.00e-07	0	42	0	0	61	5331
2026-01-15 10:43:17.89	275.93	48.45	-45.3	-47.9	14.8	0.00e+00	0	42	0	0	61	5085
2026-01-15 10:43:18.88	276.50	48.37	-45.2	-47.8	14.9	0.00e+00	0	42	0	0	61	5016
2026-01-15 10:43:19.88	277.08	48.27	-44.8	-47.3	15.5	0.00e+00	0	42	0	0	61	4716
2026-01-15 10:43:20.87	277.65	48.18	-44.5	-46.8	15.9	0.00e+00	0	42	0	0	61	4473
2026-01-15 10:43:21.86	278.22	48.09	-44.6	-47.0	15.7	0.00e+00	0	42	0	0	60	4854
2026-01-15 10:43:22.85	278.79	47.99	-44.7	-47.2	15.5	0.00e+00	0	42	0	0	60	4958
2026-01-15 10:43:23.85	279.35	47.89	-44.6	-47.0	15.7	0.00e+00	0	42	0	0	60	4860
2026-01-15 10:43:24.84	279.91	47.78	-44.6	-47.1	15.6	0.00e+00	0	42	0	0	60	4894
2026-01-15 10:43:25.83	280.46	47.68	-44.4	-46.8	15.9	0.00e+00	0	43	0	0	60	4706
2026-01-15 10:43:26.83	281.01	47.57	-43.9	-46.1	16.5	0.00e+00	0	42	0	0	59	4609
2026-01-15 10:43:27.82	281.56	47.45	-43.8	-45.9	16.6	0.00e+00	0	42	0	0	59	4540
2026-01-15 10:43:28.81	282.10	47.34	-44.1	-46.3	16.2	0.00e+00	0	43	0	0	59	4726
2026-01-15 10:43:29.81	282.64	47.22	-44.4	-46.7	15.9	0.00e+00	0	42	0	0	59	4966
2026-01-15 10:43:30.80	283.18	47.10	-44.7	-47.1	15.5	7.00e-07	0	43	0	0	60	4900
2026-01-15 10:43:31.79	283.71	46.98	-44.6	-47.0	15.6	0.00e+00	0	42	0	0	60	4850
2026-01-15 10:43:32.79	284.24	46.86	-44.7	-47.0	15.5	0.00e+00	0	43	0	0	60	4865
2026-01-15 10:43:33.78	284.76	46.73	-44.6	-47.0	15.6	0.00e+00	0	42	0	0	60	4840
2026-01-15 10:43:34.77	285.27	46.61	-44.5	-46.8	15.9	0.00e+00	0	43	0	0	60	4710
2026-01-15 10:43:35.76	285.79	46.48	-44.2	-46.4	16.2	0.00e+00	0	43	0	0	60	4522
2026-01-15 10:43:36.75	286.30	46.35	-44.0	-46.2	16.4	0.00e+00	0	43	0	0	60	4416
2026-01-15 10:43:37.75	286.80	46.21	-44.2	-46.4	16.3	0.00e+00	0	43	0	0	60	4514
2026-01-15 10:43:38.74	287.30	46.08	-44.2	-46.4	16.3	0.00e+00	0	43	0	0	60	4518
2026-01-15 10:43:39.73	287.80	45.94	-44.3	-46.5	16.2	0.00e+00	0	42	0	0	60	4572
2026-01-15 10:43:40.73	288.30	45.80	-44.2	-46.4	16.3	0.00e+00	0	42	0	0	60	4518
2026-01-15 10:43:41.72	288.78	45.66	-44.0	-46.2	16.4	0.00e+00	0	43	0	0	60	4438
2026-01-15 10:43:42.71	289.26	45.51	-43.8	-45.9	16.6	0.00e+00	0	43	0	0	59	4540
2026-01-15 10:43:43.71	289.75	45.37	-43.8	-45.9	16.7	0.00e+00	0	43	0	0	59	4506
2026-01-15 10:43:44.70	290.22	45.22	-44.1	-46.3	16.3	0.00e+00	0	42	0	0	59	4716
2026-01-15 10:43:45.69	290.69	45.07	-44.3	-46.6	16.1	0.00e+00	0	43	0	0	59	4878
2026-01-15 10:43:46.68	291.16	44.93	-44.5	-46.8	15.8	0.00e+00	0	43	0	0	59	5025
2026-01-15 10:43:47.68	291.62	44.77	-44.4	-46.7	15.9	0.00e+00	0	42	0	0	59	4939
2026-01-15 10:43:48.67	292.08	44.62	-44.4	-46.7	15.8	0.00e+00	0	42	0	0	59	4935
2026-01-15 10:43:49.66	292.53	44.47	-44.5	-46.8	15.7	0.00e+00	0	43	0	0	59	5004
2026-01-15 10:43:50.65	292.98	44.31	-44.5	-46.8	15.8	0.00e+00	0	43	0	0	59	4987
2026-01-15 10:43:51.65	293.43	44.16	-44.8	-47.2	15.5	0.00e+00	0	42	0	0	60	4932
2026-01-15 10:43:52.64	293.87	44.00	-44.9	-47.3	15.3	0.00e+00	0	42	0	0	60	4998
2026-01-15 10:43:53.63	294.30	43.84	-45.1	-47.6	15.1	0.00e+00	0	43	0	0	60	5162
2026-01-15 10:43:54.63	294.73	43.68	-45.4	-48.0	14.7	0.00e+00	0	42	0	0	61	5113
2026-01-15 10:43:55.62	295.16	43.52	-45.6	-48.2	14.4	0.00e+00	0	43	0	0	61	5278
2026-01-15 10:43:56.61	295.58	43.36	-45.5	-48.1	14.5	7.00e-07	0	42	0	0	61	5216
2026-01-15 10:43:57.61	296.01	43.20	-45.5	-48.2	14.4	1.50e-06	0	43	0	0	61	5225
2026-01-15 10:43:58.60	296.42	43.03	-45.5	-48.2	14.4	1.50e-06	0	43	0	0	61	5247
2026-01-15 10:43:59.59	296.83	42.87	-45.4	-48.0	14.7	0.00e+00	0	42	0	0	61	5126
2026-01-15 10:44:00.58	297.23	42.70	-45.3	-47.8	14.8	0.00e+00	0	43	0	0	61	5041
2026-01-15 10:44:01.57	297.64	42.54	-45.1	-47.6	15.0	0.00e+00	0	42	0	0	61	4887
2026-01-15 10:44:02.57	298.04	42.37	-45.1	-47.6	15.0	0.00e+00	0	42	0	0	61	4911
2026-01-15 10:44:03.56	298.43	42.20	-45.1	-47.6	15.1	7.00e-07	0	43	0	0	61	4880
2026-01-15 10:44:04.55	298.82	42.03	-45.0	-47.5	15.2	0.00e+00	0	43	0	0	61	4861
2026-01-15 10:44:05.55	299.21	41.86	-45.0	-47.5	15.2	7.00e-07	0	43	0	0	61	4828
2026-01-15 10:44:06.54	299.59	41.69	-44.8	-47.2	15.4	0.00e+00	0	43	0	0	61	4687
2026-01-15 10:44:07.53	299.97	41.52	-44.6	-47.0	15.6	0.00e+00	0	42	0	0	61	4551
2026-01-15 10:44:08.53	300.34	41.35	-44.5	-46.9	15.8	0.00e+00	0	43	0	0	60	4766
2026-01-15 10:44:09.52	300.71	41.18	-44.3	-46.5	16.1	0.00e+00	0	43	0	0	60	4583
2026-01-15 10:44:10.51	301.08	41.01	-44.1	-46.3	16.4	0.00e+00	0	42	0	0	60	4444
2026-01-15 10:44:11.51	301.44	40.84	-44.2	-46.4	16.2	0.00e+00	0	42	0	0	60	4530
2026-01-15 10:44:12.50	301.80	40.66	-44.4	-46.6	16.0	0.00e+00	0	43	0	0	60	4641
2026-01-15 10:44:13.49	302.15	40.49	-44.3	-46.6	16.0	0.00e+00	0	43	0	0	60	4630
2026-01-15 10:44:14.49	302.51	40.32	-44.5	-46.8	15.8	0.00e+00	0	42	0	0	60	4723
2026-01-15 10:44:15.48	302.85	40.14	-44.4	-46.7	15.8	0.00e+00	0	42	0	0	60	4701
2026-01-15 10:44:16.47	303.20	39.97	-44.4	-46.7	15.9	0.00e+00	0	42	0	0	60	4677
2026-01-15 10:44:17.46	303.54	39.80	-44.4	-46.7	15.9	0.00e+00	0	42	0	0	60	4686
2026-01-15 10:44:18.46	303.87	39.62	-44.4	-46.8	15.8	0.00e+00	0	43	0	0	60	4709
2026-01-15 10:44:19.45	304.21	39.45	-44.4	-46.8	15.8	0.00e+00	0	42	0	0	60	4727
2026-01-15 10:44:20.44	304.54	39.27	-44.6	-47.0	15.7	0.00e+00	0	42	0	0	60	4847
2026-01-15 10:44:21.44	304.86	39.10	-44.8	-47.4	15.3	0.00e+00	0	42	0	0	60	5050
2026-01-15 10:44:22.43	305.19	38.92	-45.0	-47.7	15.1	0.00e+00	0	43	0	0	60	5222
2026-01-15 10:44:23.42	305.50	38.75	-45.0	-47.6	15.1	7.00e-07	0	43	0	0	60	5166
2026-01-15 10:44:24.41	305.82	38.57	-44.7	-47.2	15.5	0.00e+00	0	43	0	0	60	4951
2026-01-15 10:44:25.41	306.13	38.39	-44.3	-46.7	16.0	0.00e+00	0	42	0	0	60	4695
2026-01-15 10:44:26.40	306.44	38.22	-44.0	-46.3	16.3	0.00e+00	0	42	0	0	60	4479
2026-01-15 10:44:27.39	306.75	38.05	-43.6	-45.8	16.7	0.00e+00	0	43	0	0	59	4455
2026-01-15 10:44:28.38	307.05	37.87	-43.5	-45.6	16.8	0.00e+00	0	43	0	0	59	4359
2026-01-15 10:44:29.38	307.35	37.69	-43.5	-45.6	16.9	0.00e+00	0	43	0	0	58	4639
2026-01-15 10:44:30.37	307.65	37.52	-43.6	-45.7	16.9	0.00e+00	0	42	0	0	58	4682
2026-01-15 10:44:31.36	307.94	37.34	-43.5	-45.7	16.9	0.00e+00	0	42	0	0	58	4661
2026-01-15 10:44:32.36	308.23	37.17	-43.5	-45.6	16.9	0.00e+00	0	43	0	0	58	4639
2026-01-15 10:44:33.35	308.52	36.99	-43.6	-45.7	16.9	0.00e+00	0	43	0	0	58	4690
2026-01-15 10:44:34.34	308.80	36.82	-43.6	-45.7	16.9	0.00e+00	0	43	0	0	58	4675
2026-01-15 10:44:35.33	309.08	36.65	-43.5	-45.6	16.9	0.00e+00	0	43	0	0	58	4628
2026-01-15 10:44:36.33	309.36	36.47	-43.5	-45.6	17.0	0.00e+00	0	43	0	0	58	4606
2026-01-15 10:44:37.32	309.64	36.30	-43.5	-45.6	17.0	0.00e+00	0	43	0	0	58	4603
2026-01-15 10:44:38.31	309.91	36.12	-43.4	-45.5	17.1	0.00e+00	0	43	0	0	58	4555
2026-01-15 10:44:39.31	310.18	35.95	-43.4	-45.5	17.1	0.00e+00	0	43	0	0	58	4557
2026-01-15 10:44:40.30	310.44	35.78	-43.3	-45.3	17.2	0.00e+00	0	43	0	0	58	4486
2026-01-15 10:44:41.29	310.71	35.60	-43.3	-45.3	17.2	0.00e+00	0	43	0	0	58	4482
2026-01-15 10:44:42.29	310.97	35.43	-43.4	-45.4	17.1	0.00e+00	0	42	0	0	58	4514
2026-01-15 10:44:43.28	311.23	35.26	-43.3	-45.4	17.2	0.00e+00	0	43	0	0	58	4509
2026-01-15 10:44:44.27	311.48	35.09	-43.4	-45.5	17.0	0.00e+00	0	42	0	0	58	4585
2026-01-15 10:44:45.26	311.74	34.92	-43.6	-45.8	16.8	0.00e+00	0	43	0	0	58	4723
2026-01-15 10:44:46.26	311.99	34.74	-43.8	-46.0	16.6	0.00e+00	0	43	0	0	58	4844
2026-01-15 10:44:47.25	312.24	34.57	-43.8	-46.0	16.6	0.00e+00	0	43	0	0	58	4846
2026-01-15 10:44:48.24	312.48	34.40	-43.8	-46.0	16.5	0.00e+00	0	42	0	0	58	4861
2026-01-15 10:44:49.23	312.72	34.23	-43.8	-45.9	16.6	0.00e+00	0	43	0	0	58	4813
2026-01-15 10:44:50.23	312.96	34.06	-43.6	-45.7	16.8	0.00e+00	0	42	0	0	58	4679
2026-01-15 10:44:51.22	313.20	33.89	-43.6	-45.8	16.7	0.00e+00	0	42	0	0	58	4709
2026-01-15 10:44:52.21	313.44	33.72	-43.6	-45.7	16.8	0.00e+00	0	42	0	0	58	4681
2026-01-15 10:44:53.21	313.67	33.55	-43.6	-45.7	16.7	0.00e+00	0	42	0	0	58	4703
2026-01-15 10:44:54.20	313.90	33.38	-43.7	-45.8	16.7	0.00e+00	0	42	0	0	58	4745
2026-01-15 10:44:55.19	314.13	33.22	-43.7	-45.9	16.6	0.00e+00	0	42	0	0	58	4763
2026-01-15 10:44:56.19	314.36	33.05	-43.9	-46.1	16.5	0.00e+00	0	42	0	0	58	4883
2026-01-15 10:44:57.18	314.58	32.88	-43.7	-45.9	16.6	0.00e+00	0	42	0	0	58	4795
2026-01-15 10:44:58.17	314.80	32.72	-43.7	-45.8	16.8	0.00e+00	0	42	0	0	58	4733
2026-01-15 10:44:59.16	315.02	32.55	-43.6	-45.8	16.7	0.00e+00	0	43	0	0	58	4726
2026-01-15 10:45:00.16	315.24	32.38	-43.6	-45.7	16.8	0.00e+00	0	42	0	0	58	4688
2026-01-15 10:45:01.15	315.45	32.22	-43.4	-45.5	17.0	0.00e+00	0	42	0	0	58	4558
2026-01-15 10:45:02.14	315.67	32.06	-43.2	-45.3	17.2	0.00e+00	0	43	0	0	58	4454
2026-01-15 10:45:03.14	315.88	31.89	-43.2	-45.2	17.2	0.00e+00	0	43	0	0	58	4435
2026-01-15 10:45:04.13	316.09	31.73	-43.0	-45.1	17.3	0.00e+00	0	42	0	0	58	4371
2026-01-15 10:45:05.12	316.29	31.56	-43.1	-45.2	17.2	0.00e+00	0	43	0	0	58	4402
2026-01-15 10:45:06.11	316.50	31.40	-42.9	-44.9	17.4	0.00e+00	0	42	0	0	57	4528
2026-01-15 10:45:07.11	316.70	31.24	-42.7	-44.7	17.6	0.00e+00	0	43	0	0	57	4439
2026-01-15 10:45:08.10	316.90	31.08	-42.7	-44.7	17.7	0.00e+00	0	43	0	0	57	4413
2026-01-15 10:45:09.09	317.10	30.92	-42.7	-44.8	17.6	0.00e+00	0	43	0	0	57	4451
2026-01-15 10:45:10.09	317.30	30.76	-42.8	-44.9	17.5	0.00e+00	0	42	0	0	57	4514
2026-01-15 10:45:11.08	317.49	30.60	-42.9	-45.1	17.4	0.00e+00	0	42	0	0	57	4614
2026-01-15 10:45:12.07	317.68	30.44	-42.9	-45.0	17.4	0.00e+00	0	43	0	0	57	4586
2026-01-15 10:45:13.07	317.88	30.28	-42.9	-45.0	17.4	0.00e+00	0	42	0	0	57	4595
2026-01-15 10:45:14.06	318.07	30.12	-43.0	-45.2	17.3	0.00e+00	0	43	0	0	57	4657
2026-01-15 10:45:15.05	318.25	29.96	-42.9	-45.0	17.4	0.00e+00	0	42	0	0	57	4577
2026-01-15 10:45:16.04	318.44	29.80	-42.7	-44.8	17.6	0.00e+00	0	43	0	0	57	4452
2026-01-15 10:45:17.04	318.62	29.65	-42.7	-44.7	17.6	0.00e+00	0	43	0	0	57	4430
2026-01-15 10:45:18.03	318.80	29.49	-42.6	-44.5	17.8	0.00e+00	0	42	0	0	57	4329
2026-01-15 10:45:19.02	318.98	29.34	-42.5	-44.4	17.9	0.00e+00	0	42	0	0	56	4539
2026-01-15 10:45:20.02	319.17	29.18	-42.5	-44.5	17.8	0.00e+00	0	43	0	0	56	4568
2026-01-15 10:45:21.01	319.34	29.03	-42.5	-44.5	17.8	0.00e+00	0	42	0	0	56	4568
2026-01-15 10:45:22.00	319.52	28.87	-42.5	-44.5	17.8	0.00e+00	0	42	0	0	56	4563
2026-01-15 10:45:23.00	319.69	28.72	-42.5	-44.5	17.8	0.00e+00	0	43	0	0	56	4574
2026-01-15 10:45:23.99	319.86	28.57	-42.4	-44.4	17.9	0.00e+00	0	43	0	0	56	4511
2026-01-15 10:45:24.98	320.03	28.41	-42.5	-44.5	17.8	0.00e+00	0	43	0	0	56	4576
2026-01-15 10:45:25.98	320.20	28.26	-42.5	-44.5	17.9	0.00e+00	0	42	0	0	56	4552
2026-01-15 10:45:26.97	320.37	28.11	-42.5	-44.5	17.8	0.00e+00	0	42	0	0	56	4590
2026-01-15 10:45:27.96	320.54	27.96	-42.5	-44.5	17.8	0.00e+00	0	43	0	0	56	4580
2026-01-15 10:45:28.95	320.70	27.81	-42.4	-44.3	18.0	0.00e+00	0	43	0	0	56	4468
2026-01-15 10:45:29.95	320.87	27.66	-42.3	-44.3	18.0	0.00e+00	0	43	0	0	56	4471
2026-01-15 10:45:30.94	321.03	27.51	-42.3	-44.3	18.1	0.00e+00	0	43	0	0	56	4448
2026-01-15 10:45:31.93	321.19	27.37	-42.3	-44.2	18.1	0.00e+00	0	43	0	0	56	4431
2026-01-15 10:45:32.93	321.35	27.22	-42.3	-44.3	18.0	0.00e+00	0	42	0	0	56	4445
2026-01-15 10:45:33.92	321.50	27.07	-42.3	-44.3	18.0	0.00e+00	0	42	0	0	56	4486
2026-01-15 10:45:34.91	321.66	26.92	-42.3	-44.3	18.0	0.00e+00	0	42	0	0	56	4473
2026-01-15 10:45:35.91	321.81	26.78	-42.4	-44.4	17.9	0.00e+00	0	43	0	0	56	4500
2026-01-15 10:45:36.90	321.97	26.63	-42.4	-44.4	17.9	0.00e+00	0	43	0	0	56	4536
2026-01-15 10:45:37.89	322.12	26.49	-42.4	-44.4	17.9	0.00e+00	0	43	0	0	56	4534
2026-01-15 10:45:38.89	322.27	26.34	-42.5	-44.5	17.9	0.00e+00	0	42	0	0	56	4546
2026-01-15 10:45:39.88	322.42	26.20	-42.5	-44.4	17.9	0.00e+00	0	43	0	0	56	4543
2026-01-15 10:45:40.87	322.57	26.06	-42.3	-44.3	18.1	0.00e+00	0	42	0	0	56	4446
2026-01-15 10:45:41.86	322.71	25.92	-42.2	-44.1	18.2	0.00e+00	0	42	0	0	56	4357
2026-01-15 10:45:42.86	322.86	25.77	-42.0	-43.9	18.4	0.00e+00	0	42	0	0	56	4258
2026-01-15 10:45:43.85	323.00	25.63	-41.9	-43.8	18.3	0.00e+00	0	42	0	0	55	4444
2026-01-15 10:45:44.84	323.14	25.49	-41.8	-43.7	18.3	0.00e+00	0	43	0	0	55	4406
2026-01-15 10:45:45.83	323.29	25.35	-41.7	-43.5	18.4	0.00e+00	0	43	0	0	55	4340
2026-01-15 10:45:46.83	323.43	25.21	-41.6	-43.5	18.5	0.00e+00	0	43	0	0	55	4307
2026-01-15 10:45:47.82	323.57	25.07	-41.5	-43.4	18.6	0.00e+00	0	42	0	0	55	4273
2026-01-15 10:45:48.81	323.70	24.93	-41.5	-43.4	18.6	0.00e+00	0	43	0	0	55	4268
2026-01-15 10:45:49.81	323.84	24.80	-41.6	-43.5	18.5	0.00e+00	0	42	0	0	55	4311
2026-01-15 10:45:50.80	323.98	24.66	-41.7	-43.6	18.4	0.00e+00	0	42	0	0	55	4380
2026-01-15 10:45:51.79	324.11	24.52	-41.8	-43.7	18.3	0.00e+00	0	42	0	0	55	4409
2026-01-15 10:45:52.79	324.24	24.39	-41.9	-43.8	18.2	0.00e+00	0	42	0	0	55	4470
2026-01-15 10:45:53.78	324.38	24.25	-41.9	-43.8	18.2	0.00e+00	0	43	0	0	55	4480
2026-01-15 10:45:54.77	324.51	24.12	-41.9	-43.8	18.3	0.00e+00	0	43	0	0	55	4459
2026-01-15 10:45:55.77	324.64	23.98	-41.9	-43.8	18.2	0.00e+00	0	42	0	0	55	4475
2026-01-15 10:45:56.76	324.77	23.85	-41.9	-43.9	18.2	0.00e+00	0	42	0	0	55	4501
2026-01-15 10:45:57.75	324.89	23.71	-41.9	-43.8	18.3	0.00e+00	0	43	0	0	55	4447
2026-01-15 10:45:58.75	325.02	23.58	-41.9	-43.8	18.2	0.00e+00	0	42	0	0	55	4473
2026-01-15 10:45:59.74	325.15	23.45	-42.0	-43.9	18.1	0.00e+00	0	42	0	0	55	4527
2026-01-15 10:46:00.73	325.27	23.32	-41.9	-43.8	18.2	0.00e+00	0	42	0	0	55	4480
2026-01-15 10:46:01.72	325.40	23.18	-41.9	-43.8	18.1	0.00e+00	0	42	0	0	55	4493
2026-01-15 10:46:02.71	325.52	23.05	-42.0	-43.9	18.1	0.00e+00	0	43	0	0	55	4515
2026-01-15 10:46:03.71	325.64	22.92	-42.1	-44.0	17.9	0.00e+00	0	43	0	0	55	4587
2026-01-15 10:46:04.70	325.76	22.79	-42.1	-44.1	17.9	0.00e+00	0	43	0	0	55	4617
2026-01-15 10:46:05.69	325.88	22.67	-42.1	-44.1	17.8	0.00e+00	0	43	0	0	55	4624
2026-01-15 10:46:06.69	326.00	22.54	-42.1	-44.1	17.9	0.00e+00	0	43	0	0	55	4637
2026-01-15 10:46:07.68	326.12	22.41	-42.1	-44.1	17.9	0.00e+00	0	43	0	0	55	4645
2026-01-15 10:46:08.67	326.24	22.28	-42.1	-44.1	17.9	0.00e+00	0	43	0	0	55	4634
2026-01-15 10:46:09.67	326.35	22.15	-42.2	-44.2	17.9	0.00e+00	0	42	0	0	55	4664
2026-01-15 10:46:10.66	326.47	22.03	-42.3	-44.2	17.9	0.00e+00	0	43	0	0	55	4694
2026-01-15 10:46:11.65	326.58	21.90	-42.3	-44.3	17.8	0.00e+00	0	43	0	0	55	4729
2026-01-15 10:46:12.64	326.69	21.78	-42.4	-44.4	17.8	0.00e+00	0	42	0	0	55	4764
2026-01-15 10:46:13.64	326.81	21.65	-42.4	-44.4	17.7	0.00e+00	0	43	0	0	55	4807
2026-01-15 10:46:14.63	326.92	21.53	-42.5	-44.5	17.7	0.00e+00	0	42	0	0	55	4839
2026-01-15 10:46:15.62	327.03	21.40	-42.6	-44.6	17.6	0.00e+00	0	43	0	0	55	4907
2026-01-15 10:46:16.62	327.14	21.28	-42.6	-44.7	17.5	0.00e+00	0	43	0	0	55	4957
2026-01-15 10:46:17.61	327.25	21.16	-42.9	-45.0	17.4	0.00e+00	0	42	0	0	56	4834
2026-01-15 10:46:18.60	327.36	21.03	-42.9	-45.1	17.3	0.00e+00	0	43	0	0	56	4872
2026-01-15 10:46:19.59	327.46	20.91	-43.0	-45.1	17.3	0.00e+00	0	43	0	0	56	4901
2026-01-15 10:46:20.59	327.57	20.79	-43.0	-45.1	17.2	0.00e+00	0	42	0	0	56	4925
2026-01-15 10:46:21.58	327.68	20.67	-42.9	-45.0	17.3	0.00e+00	0	42	0	0	56	4868
2026-01-15 10:46:22.57	327.78	20.55	-43.0	-45.1	17.3	0.00e+00	0	43	0	0	56	4919
2026-01-15 10:46:23.56	327.89	20.43	-42.9	-45.0	17.3	0.00e+00	0	42	0	0	56	4867
2026-01-15 10:46:24.56	327.99	20.31	-42.9	-45.0	17.3	0.00e+00	0	42	0	0	56	4847
2026-01-15 10:46:25.55	328.09	20.19	-42.8	-45.0	17.4	0.00e+00	0	43	0	0	56	4829
2026-01-15 10:46:26.54	328.20	20.07	-42.8	-45.0	17.4	0.00e+00	0	42	0	0	56	4825
2026-01-15 10:46:27.53	328.30	19.95	-42.5	-44.6	17.7	0.00e+00	0	43	0	0	56	4632
2026-01-15 10:46:28.52	328.40	19.84	-42.5	-44.5	17.7	0.00e+00	0	43	0	0	56	4579
2026-01-15 10:46:29.52	328.50	19.72	-42.5	-44.5	17.7	0.00e+00	0	43	0	0	56	4594
2026-01-15 10:46:30.51	328.60	19.60	-42.4	-44.4	17.8	0.00e+00	0	43	0	0	56	4515
2026-01-15 10:46:31.50	328.69	19.49	-42.4	-44.5	17.7	0.00e+00	0	43	0	0	56	4549
2026-01-15 10:46:32.50	328.79	19.37	-42.5	-44.5	17.6	0.00e+00	0	43	0	0	56	4587
2026-01-15 10:46:33.49	328.89	19.26	-42.4	-44.4	17.7	0.00e+00	0	43	0	0	56	4528
2026-01-15 10:46:34.48	328.99	19.14	-42.3	-44.4	17.8	0.00e+00	0	42	0	0	56	4512
2026-01-15 10:46:35.48	329.08	19.03	-42.4	-44.4	17.8	0.00e+00	0	42	0	0	56	4525
2026-01-15 10:46:36.47	329.18	18.91	-42.4	-44.4	17.8	0.00e+00	0	43	0	0	56	4522
2026-01-15 10:46:37.46	329.27	18.80	-42.3	-44.3	17.8	0.00e+00	0	42	0	0	56	4485
2026-01-15 10:46:38.45	329.36	18.69	-42.3	-44.3	17.9	0.00e+00	0	42	0	0	56	4468
2026-01-15 10:46:39.45	329.46	18.57	-42.3	-44.3	17.9	0.00e+00	0	42	0	0	56	4458
2026-01-15 10:46:40.44	329.55	18.46	-42.2	-44.2	18.1	0.00e+00	0	43	0	0	56	4396
2026-01-15 10:46:41.43	329.64	18.35	-42.2	-44.1	18.1	0.00e+00	0	43	0	0	56	4383
2026-01-15 10:46:42.42	329.73	18.24	-42.2	-44.1	18.1	0.00e+00	0	42	0	0	56	4367
2026-01-15 10:46:43.42	329.82	18.13	-42.2	-44.1	18.1	0.00e+00	0	43	0	0	56	4359
2026-01-15 10:46:44.41	329.91	18.02	-42.3	-44.2	18.1	0.00e+00	0	42	0	0	56	4416
2026-01-15 10:46:45.40	330.00	17.91	-42.3	-44.2	18.0	0.00e+00	0	42	0	0	56	4424
2026-01-15 10:46:46.39	330.09	17.80	-42.3	-44.3	18.0	0.00e+00	0	43	0	0	56	4465
2026-01-15 10:46:47.39	330.18	17.69	-42.4	-44.4	17.9	0.00e+00	0	42	0	0	56	4501
2026-01-15 10:46:48.38	330.26	17.58	-42.5	-44.5	17.8	0.00e+00	0	42	0	0	56	4571
2026-01-15 10:46:49.37	330.35	17.47	-42.6	-44.6	17.7	0.00e+00	0	43	0	0	56	4637
2026-01-15 10:46:50.37	330.44	17.37	-42.7	-44.7	17.6	0.00e+00	0	42	0	0	56	4685
2026-01-15 10:46:51.36	330.52	17.26	-42.8	-44.9	17.4	0.00e+00	0	43	0	0	56	4760
2026-01-15 10:46:52.35	330.61	17.15	-42.8	-44.9	17.4	0.00e+00	0	42	0	0	56	4803
2026-01-15 10:46:53.35	330.69	17.04	-42.9	-45.1	17.2	0.00e+00	0	43	0	0	56	4880
2026-01-15 10:46:54.34	330.78	16.94	-43.0	-45.1	17.2	0.00e+00	0	43	0	0	56	4915
2026-01-15 10:46:55.33	330.86	16.83	-43.1	-45.3	17.0	0.00e+00	0	43	0	0	56	5007
2026-01-15 10:46:56.32	330.94	16.73	-43.1	-45.3	17.0	0.00e+00	0	43	0	0	56	5030
2026-01-15 10:46:57.32	331.02	16.62	-43.2	-45.4	16.9	0.00e+00	0	42	0	0	57	4798
2026-01-15 10:46:58.31	331.11	16.52	-43.3	-45.5	16.8	0.00e+00	0	42	0	0	57	4837
2026-01-15 10:46:59.30	331.19	16.41	-43.3	-45.5	16.8	0.00e+00	0	43	0	0	57	4855
2026-01-15 10:47:00.29	331.27	16.31	-43.3	-45.6	16.7	0.00e+00	0	42	0	0	57	4873
2026-01-15 10:47:01.29	331.35	16.21	-43.3	-45.5	16.8	0.00e+00	0	42	0	0	57	4853
2026-01-15 10:47:02.28	331.43	16.10	-43.3	-45.5	16.7	0.00e+00	0	42	0	0	57	4849
2026-01-15 10:47:03.27	331.50	16.00	-43.3	-45.5	16.7	0.00e+00	0	42	0	0	57	4867
2026-01-15 10:47:04.27	331.58	15.90	-43.2	-45.4	16.8	0.00e+00	0	42	0	0	57	4805
2026-01-15 10:47:05.26	331.66	15.80	-43.2	-45.4	16.8	0.00e+00	0	43	0	0	57	4811
2026-01-15 10:47:06.25	331.74	15.70	-43.1	-45.4	16.8	0.00e+00	0	43	0	0	57	4788
2026-01-15 10:47:07.25	331.82	15.60	-43.1	-45.5	16.7	0.00e+00	0	42	0	0	57	4827
2026-01-15 10:47:08.24	331.89	15.49	-43.1	-45.4	16.8	0.00e+00	0	43	0	0	57	4785
2026-01-15 10:47:09.23	331.97	15.39	-42.9	-45.3	16.9	0.00e+00	0	43	0	0	57	4727
2026-01-15 10:47:10.22	332.04	15.30	-43.0	-45.4	16.8	0.00e+00	0	43	0	0	57	4768
2026-01-15 10:47:11.22	332.12	15.19	-43.1	-45.4	16.7	0.00e+00	0	43	0	0	57	4800
2026-01-15 10:47:12.21	332.19	15.10	-43.0	-45.4	16.8	0.00e+00	0	43	0	0	57	4773
2026-01-15 10:47:13.20	332.27	15.00	-43.1	-45.5	16.7	0.00e+00	0	43	0	0	57	4817
2026-01-15 10:47:14.19	332.34	14.90	-43.2	-45.5	16.7	0.00e+00	0	43	0	0	57	4840
2026-01-15 10:47:15.19	332.42	14.80	-43.3	-45.6	16.6	0.00e+00	0	42	0	0	57	4894
2026-01-15 10:47:16.18	332.49	14.70	-43.3	-45.6	16.6	0.00e+00	0	43	0	0	57	4912
2026-01-15 10:47:17.17	332.56	14.61	-43.4	-45.6	16.6	0.00e+00	0	42	0	0	57	4915
2026-01-15 10:47:18.17	332.63	14.51	-43.3	-45.5	16.7	0.00e+00	0	43	0	0	57	4833
2026-01-15 10:47:19.16	332.70	14.41	-43.3	-45.5	16.7	0.00e+00	0	42	0	0	57	4845
2026-01-15 10:47:20.15	332.77	14.32	-43.4	-45.6	16.7	0.00e+00	0	43	0	0	57	4891
2026-01-15 10:47:21.15	332.85	14.22	-43.2	-45.4	16.9	0.00e+00	0	43	0	0	57	4767
2026-01-15 10:47:22.14	332.92	14.12	-43.2	-45.3	16.9	0.00e+00	0	43	0	0	57	4745
2026-01-15 10:47:23.13	332.98	14.03	-43.1	-45.3	16.9	0.00e+00	0	43	0	0	57	4729
2026-01-15 10:47:24.12	333.05	13.93	-43.2	-45.4	16.9	0.00e+00	0	43	0	0	57	4766
2026-01-15 10:47:25.12	333.12	13.84	-43.0	-45.2	17.0	0.00e+00	0	43	0	0	57	4700
2026-01-15 10:47:26.11	333.19	13.74	-43.0	-45.2	17.0	0.00e+00	0	42	0	0	57	4666
2026-01-15 10:47:27.10	333.26	13.65	-43.0	-45.2	17.0	0.00e+00	0	42	0	0	57	4695
2026-01-15 10:47:28.09	333.33	13.56	-42.9	-45.2	17.0	0.00e+00	0	42	0	0	57	4662
2026-01-15 10:47:29.09	333.39	13.46	-43.0	-45.3	16.9	0.00e+00	0	42	0	0	57	4710
2026-01-15 10:47:30.08	333.46	13.37	-43.1	-45.3	16.9	0.00e+00	0	43	0	0	57	4724
2026-01-15 10:47:31.07	333.53	13.28	-43.1	-45.4	16.8	0.00e+00	0	43	0	0	57	4761
2026-01-15 10:47:32.07	333.59	13.19	-43.2	-45.4	16.8	0.00e+00	0	43	0	0	57	4795
2026-01-15 10:47:33.04	333.66	13.10	-43.3	-45.6	16.6	0.00e+00	0	43	0	0	57	4872
2026-01-15 10:47:34.03	333.72	13.00	-43.4	-45.6	16.5	0.00e+00	0	43	0	0	57	4908
2026-01-15 10:47:35.03	333.79	12.91	-43.4	-45.6	16.6	0.00e+00	0	42	0	0	57	4894
2026-01-15 10:47:36.02	333.85	12.82	-43.4	-45.7	16.5	0.00e+00	0	43	0	0	57	4940
2026-01-15 10:47:37.01	333.92	12.73	-43.5	-45.8	16.4	0.00e+00	0	43	0	0	57	4989
2026-01-15 10:47:38.01	333.98	12.64	-43.5	-45.8	16.4	0.00e+00	0	43	0	0	57	5004
2026-01-15 10:47:39.00	334.05	12.55	-43.5	-45.8	16.3	0.00e+00	0	42	0	0	57	5021
2026-01-15 10:47:39.99	334.11	12.46	-43.5	-45.8	16.3	0.00e+00	0	43	0	0	57	5028
2026-01-15 10:47:40.99	334.17	12.37	-43.5	-45.8	16.3	0.00e+00	0	43	0	0	57	5035
2026-01-15 10:47:41.98	334.23	12.28	-43.5	-45.8	16.3	0.00e+00	0	43	0	0	57	5041
2026-01-15 10:47:42.97	334.30	12.19	-43.6	-45.9	16.2	0.00e+00	0	43	0	0	57	5100
2026-01-15 10:47:43.96	334.36	12.10	-43.6	-45.9	16.2	0.00e+00	0	43	0	0	57	5085
2026-01-15 10:47:44.96	334.42	12.01	-43.6	-45.9	16.2	0.00e+00	0	43	0	0	57	5097
2026-01-15 10:47:45.95	334.48	11.93	-43.6	-45.9	16.2	0.00e+00	0	43	0	0	57	5066
2026-01-15 10:47:46.94	334.54	11.84	-43.5	-45.9	16.3	0.00e+00	0	43	0	0	57	5042
2026-01-15 10:47:47.94	334.60	11.75	-43.5	-45.9	16.2	0.00e+00	0	43	0	0	57	5057
2026-01-15 10:47:48.93	334.66	11.66	-43.5	-45.9	16.2	0.00e+00	0	43	0	0	57	5076
2026-01-15 10:47:49.92	334.72	11.58	-43.5	-45.9	16.2	0.00e+00	0	43	0	0	57	5077
2026-01-15 10:47:50.92	334.78	11.49	-43.5	-45.9	16.3	0.00e+00	0	43	0	0	57	5055
2026-01-15 10:47:51.91	334.84	11.40	-43.5	-45.9	16.2	0.00e+00	0	43	0	0	57	5094
2026-01-15 10:47:52.90	334.90	11.32	-43.4	-45.9	16.2	0.00e+00	0	43	0	0	57	5045
2026-01-15 10:47:53.89	334.96	11.23	-43.4	-45.9	16.2	0.00e+00	0	43	0	0	57	5080
2026-01-15 10:47:54.89	335.01	11.15	-43.4	-45.9	16.2	0.00e+00	0	43	0	0	57	5070
2026-01-15 10:47:55.88	335.07	11.06	-43.4	-45.9	16.2	0.00e+00	0	43	0	0	57	5048
2026-01-15 10:47:56.87	335.13	10.98	-43.4	-46.0	16.1	0.00e+00	0	43	0	0	57	5101
2026-01-15 10:47:57.87	335.19	10.89	-43.4	-45.9	16.1	0.00e+00	0	42	0	0	57	5100
2026-01-15 10:47:58.86	335.24	10.81	-43.4	-46.0	16.1	0.00e+00	0	43	0	0	57	5133
2026-01-15 10:47:59.85	335.30	10.72	-43.4	-46.0	16.0	0.00e+00	0	43	0	0	57	5154
2026-01-15 10:48:00.84	335.36	10.64	-43.5	-46.2	15.9	0.00e+00	0	43	0	0	57	5228
2026-01-15 10:48:01.84	335.41	10.56	-43.5	-46.2	15.9	0.00e+00	0	43	0	0	57	5253
2026-01-15 10:48:02.83	335.47	10.47	-43.6	-46.3	15.8	0.00e+00	0	43	0	0	57	5291
2026-01-15 10:48:03.82	335.52	10.39	-43.5	-46.2	15.9	0.00e+00	0	42	0	0	57	5254
2026-01-15 10:48:04.82	335.58	10.31	-43.7	-46.4	15.7	0.00e+00	0	42	0	0	57	5358
2026-01-15 10:48:05.81	335.63	10.22	-43.7	-46.5	15.6	0.00e+00	0	43	0	0	58	5101
2026-01-15 10:48:06.80	335.69	10.14	-43.7	-46.4	15.7	0.00e+00	0	43	0	0	58	5076
2026-01-15 10:48:07.79	335.74	10.06	-43.6	-46.4	15.7	0.00e+00	0	42	0	0	58	5068
2026-01-15 10:48:08.79	335.80	9.98	-43.7	-46.4	15.6	0.00e+00	0	42	0	0	58	5100
2026-01-15 10:48:09.78	335.85	9.90	-43.7	-46.4	15.7	0.00e+00	0	43	0	0	58	5070
2026-01-15 10:48:10.77	335.90	9.82	-43.7	-46.4	15.6	0.00e+00	0	43	0	0	58	5089
2026-01-15 10:48:11.77	335.96	9.73	-43.6	-46.3	15.8	0.00e+00	0	43	0	0	58	4991
2026-01-15 10:48:12.76	336.01	9.65	-43.7	-46.4	15.7	0.00e+00	0	42	0	0	58	5059
2026-01-15 10:48:13.75	336.06	9.57	-43.7	-46.3	15.7	0.00e+00	0	43	0	0	58	5036
2026-01-15 10:48:14.75	336.12	9.49	-43.7	-46.4	15.6	0.00e+00	0	43	0	0	58	5080
2026-01-15 10:48:15.74	336.17	9.41	-43.7	-46.5	15.5	0.00e+00	0	43	0	0	58	5109
2026-01-15 10:48:16.73	336.22	9.33	-43.7	-46.4	15.6	0.00e+00	0	43	0	0	58	5077
2026-01-15 10:48:17.73	336.27	9.25	-43.7	-46.5	15.5	0.00e+00	0	42	0	0	58	5153
2026-01-15 10:48:18.72	336.32	9.17	-43.7	-46.5	15.5	0.00e+00	0	43	0	0	58	5140
2026-01-15 10:48:19.71	336.37	9.09	-43.6	-46.4	15.5	0.00e+00	0	42	0	0	58	5100
2026-01-15 10:48:20.70	336.42	9.02	-45.9	-49.9	12.4	0.00e+00	0	42	0	0	62	6047
2026-01-15 10:48:21.70	336.47	8.94	-49.9	-63.5	3.8	1.49e+00	0	42	104	0	70	18212
2026-01-15 10:48:22.69	336.52	8.86	-50.4	-63.6	3.8	1.49e+00	0	43	104	0	71	17377
2026-01-15 10:48:23.68	336.57	8.78	-50.0	-63.8	3.8	1.49e+00	0	43	104	0	71	17696
2026-01-15 10:48:24.68	336.62	8.70	-50.4	-63.8	3.8	1.49e+00	0	43	104	0	71	17816
2026-01-15 10:48:25.67	336.67	8.62	-50.1	-63.9	3.8	1.49e+00	0	42	104	0	71	18045
2026-01-15 10:48:26.66	336.72	8.55	-50.5	-64.0	3.8	1.49e+00	0	43	104	0	71	18212
2026-01-15 10:48:27.66	336.77	8.47	-50.6	-64.0	3.8	1.49e+00	0	43	104	0	71	18166
2026-01-15 10:48:28.65	336.82	8.39	-50.7	-64.0	3.8	1.49e+00	0	43	104	0	72	17143
2026-01-15 10:48:29.64	336.87	8.32	-50.3	-64.0	3.8	1.49e+00	0	43	104	0	72	17258
2026-01-15 10:48:30.64	336.92	8.24	-50.9	-64.0	3.8	1.49e+00	0	42	104	0	72	17209
2026-01-15 10:48:31.63	336.97	8.16	-50.9	-64.0	3.8	1.49e+00	0	43	104	0	72	17231
2026-01-15 10:48:32.62	337.01	8.09	-50.9	-64.0	3.8	1.49e+00	0	43	104	0	72	17261
2026-01-15 10:48:33.61	337.06	8.01	-50.7	-64.0	3.8	1.49e+00	0	43	104	0	72	17205
2026-01-15 10:48:34.61	337.11	7.93	-50.9	-64.1	3.8	1.49e+00	0	43	104	0	72	17306
2026-01-15 10:48:35.60	337.16	7.86	-51.0	-64.1	3.8	1.49e+00	0	43	104	0	72	17318
2026-01-15 10:48:36.59	337.20	7.78	-51.0	-64.1	3.8	1.49e+00	0	43	104	0	72	17306
2026-01-15 10:48:37.59	337.25	7.71	-51.1	-64.1	3.8	1.49e+00	0	43	104	0	72	17399
2026-01-15 10:48:38.58	337.30	7.63	-51.1	-64.1	3.8	1.49e+00	0	43	104	0	72	17301
2026-01-15 10:48:39.57	337.34	7.56	-51.0	-64.1	3.8	1.49e+00	0	43	104	0	72	17321
2026-01-15 10:48:40.56	337.39	7.48	-51.0	-64.1	3.8	1.49e+00	0	42	104	0	72	17302
2026-01-15 10:48:41.56	337.44	7.41	-51.0	-64.0	3.8	1.49e+00	0	43	104	0	72	17257
2026-01-15 10:48:42.55	337.48	7.33	-50.9	-64.1	3.8	1.49e+00	0	43	104	0	72	17285
2026-01-15 10:48:43.54	337.53	7.26	-51.0	-64.1	3.8	1.49e+00	0	43	104	0	72	17305
2026-01-15 10:48:44.54	337.57	7.19	-50.8	-64.0	3.8	1.49e+00	0	42	104	0	72	17269
2026-01-15 10:48:45.53	337.62	7.11	-50.8	-64.0	3.8	1.49e+00	0	43	104	0	72	17216
2026-01-15 10:48:46.52	337.66	7.04	-50.8	-64.0	3.8	1.49e+00	0	43	104	0	72	17167
2026-01-15 10:48:47.52	337.71	6.97	-50.8	-64.0	3.8	1.49e+00	0	43	104	0	72	17251
2026-01-15 10:48:48.51	337.75	6.89	-50.8	-64.0	3.8	1.49e+00	0	43	104	0	72	17213
2026-01-15 10:48:49.50	337.80	6.82	-50.8	-64.0	3.8	1.49e+00	0	43	104	0	72	17192
2026-01-15 10:48:50.49	337.84	6.75	-50.8	-64.0	3.8	1.49e+00	0	43	104	0	72	17211
2026-01-15 10:48:51.49	337.88	6.68	-50.8	-64.0	3.8	1.49e+00	0	43	104	0	72	17208
2026-01-15 10:48:52.48	337.93	6.60	-50.8	-64.0	3.8	1.49e+00	0	43	104	0	72	17138
2026-01-15 10:48:53.47	337.97	6.53	-50.8	-64.0	3.8	1.49e+00	0	43	104	0	72	17138
2026-01-15 10:48:54.47	338.02	6.46	-50.8	-64.0	3.8	1.49e+00	0	43	104	0	72	17145
2026-01-15 10:48:55.46	338.06	6.39	-50.8	-64.0	3.8	1.49e+00	0	43	104	0	72	17182
2026-01-15 10:48:56.45	338.10	6.32	-50.8	-64.0	3.8	1.49e+00	0	43	104	0	72	17142
2026-01-15 10:48:57.45	338.14	6.25	-50.8	-64.0	3.8	1.49e+00	0	43	104	0	72	17118
2026-01-15 10:48:58.44	338.19	6.17	-50.8	-64.0	3.8	1.49e+00	0	43	104	0	72	17114
2026-01-15 10:48:59.43	338.23	6.10	-50.8	-64.0	3.8	1.49e+00	0	43	104	0	72	17164
2026-01-15 10:49:00.43	338.27	6.03	-50.8	-64.0	3.8	1.49e+00	0	43	104	0	72	17137
2026-01-15 10:49:01.42	338.31	5.96	-50.8	-64.0	3.8	1.49e+00	0	43	104	0	72	17097
