passes_logs/2026/01/15/T1/T1__20260115_035921_FENGYUN_3E_rec.log

#Pass ID: 20260115_035921_FENGYUN 3E
#Satellite: FENGYUN 3E
#Configuration: FENGYUN 3E
#almurnet v.1.7.20251203
#Start time: 2026-01-15 03:59:23

#Version: 2.0.20230620
#Station: T1
#Location: 37.570604 lon 55.790049 lat
#TLE: 1 49008U 21062A   26014.58289545 -.00000120  00000+0 -35876-4 0  9998
#TLE: 2 49008  98.7488  19.7165 0002000 137.1107 223.0226 14.19884293234788

#Time	Az	El	Level	Level2	SNR	BER	BlckErr	Temp	State	Recorded	gain1	gain2
2026-01-15 03:59:23.74	16.19	5.13	-48.9	-60.7	3.8	8.47e-01	0	41	0	0	68	13848
2026-01-15 03:59:24.73	16.20	5.20	-48.8	-60.9	3.8	8.48e-01	0	41	104	0	67	14961
2026-01-15 03:59:25.72	16.20	5.27	-48.8	-60.8	3.8	8.47e-01	0	41	104	0	67	14807
2026-01-15 03:59:26.72	16.20	5.34	-48.8	-60.6	3.8	8.46e-01	0	41	104	0	67	14421
2026-01-15 03:59:27.71	16.20	5.41	-48.8	-60.4	3.8	8.47e-01	0	41	104	0	67	14111
2026-01-15 03:59:28.70	16.21	5.48	-48.7	-60.1	3.8	8.47e-01	0	41	104	0	67	13672
2026-01-15 03:59:29.70	16.21	5.56	-48.7	-60.0	3.8	8.46e-01	0	41	104	0	67	13484
2026-01-15 03:59:30.69	16.21	5.63	-48.7	-59.8	3.8	8.47e-01	0	41	104	0	67	13167
2026-01-15 03:59:31.68	16.21	5.70	-48.7	-59.7	3.8	8.46e-01	0	41	104	0	67	13075
2026-01-15 03:59:32.67	16.22	5.77	-48.7	-59.7	3.8	8.47e-01	0	41	104	0	67	13044
2026-01-15 03:59:33.67	16.22	5.85	-48.7	-59.9	3.8	8.46e-01	0	41	104	0	67	13267
2026-01-15 03:59:34.66	16.22	5.92	-48.7	-59.9	3.8	8.46e-01	0	41	104	0	67	13398
2026-01-15 03:59:35.65	16.22	5.99	-48.7	-60.1	3.8	8.47e-01	0	41	104	0	67	13706
2026-01-15 03:59:36.65	16.23	6.07	-48.7	-60.3	3.8	8.46e-01	0	41	104	0	67	13930
2026-01-15 03:59:37.64	16.23	6.14	-48.7	-60.4	3.8	8.46e-01	0	41	104	0	67	14105
2026-01-15 03:59:38.63	16.23	6.21	-48.8	-60.4	3.8	8.47e-01	0	41	104	0	67	14120
2026-01-15 03:59:39.63	16.24	6.29	-48.8	-60.3	3.8	8.47e-01	0	41	104	0	67	14011
2026-01-15 03:59:40.62	16.24	6.36	-48.7	-60.2	3.8	8.47e-01	0	41	104	0	67	13778
2026-01-15 03:59:41.61	16.24	6.44	-48.7	-60.1	3.8	8.46e-01	0	41	104	0	67	13633
2026-01-15 03:59:42.61	16.24	6.51	-48.7	-60.0	3.8	8.47e-01	0	42	104	0	67	13518
2026-01-15 03:59:43.60	16.25	6.59	-48.7	-60.0	3.8	8.46e-01	0	42	104	0	67	13481
2026-01-15 03:59:44.59	16.25	6.66	-48.7	-60.1	3.8	8.46e-01	0	42	104	0	67	13583
2026-01-15 03:59:45.58	16.25	6.74	-48.8	-60.3	3.8	8.46e-01	0	42	104	0	67	14025
2026-01-15 03:59:46.58	16.25	6.81	-48.8	-60.7	3.8	8.47e-01	0	42	104	0	67	14636
2026-01-15 03:59:47.57	16.26	6.89	-48.8	-61.0	3.8	8.47e-01	0	42	104	0	67	15196
2026-01-15 03:59:48.56	16.26	6.96	-48.8	-61.2	3.8	8.46e-01	0	42	104	0	67	15552
2026-01-15 03:59:49.56	16.26	7.04	-48.8	-61.1	3.8	8.46e-01	0	42	104	0	67	15328
2026-01-15 03:59:50.55	16.26	7.12	-48.8	-60.5	3.8	8.46e-01	0	42	104	0	67	14223
2026-01-15 03:59:51.54	16.27	7.19	-48.7	-59.5	3.8	8.47e-01	0	42	104	0	67	12665
2026-01-15 03:59:52.54	16.27	7.27	-48.5	-58.0	4.1	8.41e-01	0	42	0	0	67	10694
2026-01-15 03:59:53.53	16.27	7.35	-48.3	-56.5	4.6	8.27e-01	0	42	0	0	67	9046
2026-01-15 03:59:54.52	16.27	7.42	-48.0	-55.2	5.3	7.43e-01	0	42	0	0	66	8228
2026-01-15 03:59:55.52	16.28	7.50	-47.8	-54.0	6.1	3.66e-01	0	42	0	3145728	66	7192
2026-01-15 03:59:56.51	16.28	7.58	-47.5	-53.2	6.9	2.00e-01	0	42	0	10485760	65	6890
2026-01-15 03:59:57.51	16.28	7.66	-47.2	-52.4	7.6	1.14e-01	0	42	0	17825792	65	6308
2026-01-15 03:59:58.50	16.28	7.74	-47.0	-51.8	8.2	7.09e-02	0	42	0	24117248	64	6230
2026-01-15 03:59:59.49	16.29	7.82	-46.7	-51.1	8.8	3.47e-02	0	42	0	31457280	64	5752
2026-01-15 04:00:00.48	16.29	7.89	-46.7	-50.8	9.2	2.39e-02	0	42	0	38797312	63	5923
2026-01-15 04:00:01.48	16.29	7.97	-46.5	-50.5	9.5	1.50e-02	0	42	0	46137344	63	5722
2026-01-15 04:00:02.47	16.29	8.05	-46.3	-50.1	10.0	9.34e-03	0	42	0	53477376	63	5412
2026-01-15 04:00:03.46	16.30	8.13	-46.2	-49.8	10.2	7.16e-03	0	42	0	60817408	63	5275
2026-01-15 04:00:04.46	16.30	8.21	-46.0	-49.6	10.5	4.08e-03	0	42	0	67108864	62	5428
2026-01-15 04:00:05.45	16.30	8.29	-46.0	-49.5	10.6	3.46e-03	0	42	0	74448896	62	5368
2026-01-15 04:00:06.44	16.30	8.37	-45.8	-49.2	10.9	2.61e-03	0	42	0	81788928	62	5199
2026-01-15 04:00:07.44	16.31	8.45	-45.8	-49.2	11.0	1.87e-03	0	42	0	89128960	62	5173
2026-01-15 04:00:08.43	16.31	8.53	-45.8	-49.1	11.0	2.39e-03	0	42	0	96468992	62	5146
2026-01-15 04:00:09.42	16.31	8.62	-45.9	-49.3	10.8	2.42e-03	0	42	0	102760448	62	5275
2026-01-15 04:00:10.42	16.31	8.70	-46.0	-49.5	10.6	3.03e-03	0	42	0	110100480	62	5361
2026-01-15 04:00:11.41	16.31	8.78	-46.2	-49.8	10.2	5.46e-03	0	42	0	117440512	62	5589
2026-01-15 04:00:12.40	16.32	8.86	-46.4	-50.4	9.7	1.12e-02	0	42	0	124780544	62	5959
2026-01-15 04:00:13.40	16.32	8.94	-46.8	-51.3	8.8	2.66e-02	0	42	0	132120576	63	6227
2026-01-15 04:00:14.39	16.32	9.03	-47.2	-52.2	7.8	5.89e-02	0	42	0	139460608	63	6928
2026-01-15 04:00:15.38	16.32	9.11	-46.4	-50.1	9.9	1.11e-01	0	42	0	145752064	63	5448
2026-01-15 04:00:16.38	16.33	9.19	-45.1	-47.7	12.6	1.02e-05	0	42	0	153092096	59	5161
2026-01-15 04:00:17.37	16.33	9.27	-48.7	-58.5	3.8	8.46e-01	0	43	104	155189248	67	11364
2026-01-15 04:00:18.37	16.33	9.36	-43.1	-45.0	15.1	0.00e+00	0	43	0	159383552	57	4250
2026-01-15 04:00:19.36	16.33	9.44	-42.4	-44.1	15.9	0.00e+00	0	43	0	166723584	55	4330
2026-01-15 04:00:20.36	16.33	9.53	-45.9	-49.3	10.8	3.82e-02	0	43	0	174063616	62	5243
2026-01-15 04:00:21.35	16.34	9.61	-42.5	-44.3	15.8	0.00e+00	0	43	0	181403648	55	4393
2026-01-15 04:00:22.35	16.34	9.70	-42.0	-43.6	16.4	0.00e+00	0	42	0	187695104	54	4320
2026-01-15 04:00:23.34	16.34	9.78	-41.7	-43.2	16.8	0.00e+00	0	43	0	195035136	54	4127
2026-01-15 04:00:24.34	16.34	9.87	-41.4	-42.8	17.2	0.00e+00	0	42	0	202375168	53	4184
2026-01-15 04:00:25.33	16.35	9.95	-41.4	-42.8	17.2	0.00e+00	0	43	0	209715200	53	4163
2026-01-15 04:00:26.33	16.35	10.04	-41.3	-42.8	17.2	0.00e+00	0	42	0	217055232	53	4148
2026-01-15 04:00:27.32	16.35	10.13	-41.4	-42.9	17.1	0.00e+00	0	43	0	224395264	53	4196
2026-01-15 04:00:28.32	16.35	10.21	-41.4	-42.9	17.1	0.00e+00	0	43	0	230686720	53	4213
2026-01-15 04:00:29.31	16.35	10.30	-41.1	-42.5	17.4	0.00e+00	0	43	0	238026752	53	4043
2026-01-15 04:00:30.30	16.36	10.39	-41.0	-42.4	17.6	0.00e+00	0	43	0	245366784	52	4228
2026-01-15 04:00:31.30	16.36	10.47	-41.1	-42.5	17.5	0.00e+00	0	43	0	252706816	52	4248
2026-01-15 04:00:32.29	16.36	10.56	-40.9	-42.3	17.7	0.00e+00	0	43	0	260046848	52	4174
2026-01-15 04:00:33.29	16.36	10.65	-41.0	-42.3	17.7	0.00e+00	0	43	0	266338304	52	4186
2026-01-15 04:00:34.28	16.36	10.74	-40.9	-42.3	17.7	0.00e+00	0	43	0	273678336	52	4175
2026-01-15 04:00:35.28	16.37	10.83	-40.8	-42.1	17.9	0.00e+00	0	43	0	281018368	52	4088
2026-01-15 04:00:36.27	16.37	10.92	-40.8	-42.1	17.9	0.00e+00	0	43	0	288358400	52	4095
2026-01-15 04:00:37.27	16.37	11.01	-40.8	-42.2	17.8	0.00e+00	0	43	0	295698432	52	4132
2026-01-15 04:00:38.26	16.37	11.10	-40.8	-42.2	17.8	0.00e+00	0	43	0	303038464	52	4104
2026-01-15 04:00:39.26	16.37	11.19	-40.8	-42.1	17.9	0.00e+00	0	43	0	310378496	52	4090
2026-01-15 04:00:40.25	16.38	11.28	-40.9	-42.2	17.8	0.00e+00	0	43	0	317718528	52	4141
2026-01-15 04:00:41.24	16.38	11.37	-40.6	-42.0	18.1	0.00e+00	0	43	0	325058560	52	4011
2026-01-15 04:00:42.24	16.38	11.46	-40.6	-41.9	18.1	0.00e+00	0	43	0	331350016	52	3998
2026-01-15 04:00:43.23	16.38	11.55	-40.6	-42.0	18.1	0.00e+00	0	43	0	338690048	52	4024
2026-01-15 04:00:44.23	16.38	11.64	-40.7	-42.0	18.0	0.00e+00	0	43	0	346030080	52	4044
2026-01-15 04:00:45.22	16.39	11.73	-40.7	-42.1	18.0	0.00e+00	0	43	0	353370112	51	4311
2026-01-15 04:00:46.22	16.39	11.83	-40.7	-42.1	18.0	0.00e+00	0	43	0	360710144	51	4320
2026-01-15 04:00:47.21	16.39	11.92	-40.8	-42.2	17.9	0.00e+00	0	43	0	368050176	51	4367
2026-01-15 04:00:48.21	16.39	12.01	-40.7	-42.1	18.1	0.00e+00	0	43	0	374341632	51	4304
2026-01-15 04:00:49.20	16.39	12.11	-40.7	-42.0	18.1	0.00e+00	0	43	0	381681664	51	4283
2026-01-15 04:00:50.20	16.40	12.20	-40.8	-42.1	18.0	0.00e+00	0	43	0	389021696	51	4336
2026-01-15 04:00:51.19	16.40	12.30	-40.6	-42.0	18.2	0.00e+00	0	43	0	396361728	51	4251
2026-01-15 04:00:52.18	16.40	12.39	-40.6	-41.9	18.2	0.00e+00	0	43	0	403701760	51	4240
2026-01-15 04:00:53.18	16.40	12.49	-40.6	-41.9	18.3	0.00e+00	0	43	0	409993216	51	4225
2026-01-15 04:00:54.17	16.40	12.58	-40.5	-41.8	18.3	0.00e+00	0	43	0	417333248	51	4191
2026-01-15 04:00:55.17	16.40	12.68	-40.5	-41.8	18.3	0.00e+00	0	43	0	424673280	51	4190
2026-01-15 04:00:56.17	16.41	12.77	-40.6	-41.9	18.2	0.00e+00	0	43	0	432013312	51	4238
2026-01-15 04:00:57.16	16.41	12.87	-40.6	-42.0	18.2	0.00e+00	0	43	0	439353344	51	4251
2026-01-15 04:00:58.15	16.41	12.97	-40.6	-41.9	18.3	0.00e+00	0	43	0	446693376	51	4200
2026-01-15 04:00:59.15	16.41	13.06	-40.4	-41.7	18.5	0.00e+00	0	43	0	454033408	51	4126
2026-01-15 04:01:00.15	16.41	13.16	-40.4	-41.6	18.6	0.00e+00	0	43	0	461373440	51	4071
2026-01-15 04:01:01.14	16.41	13.26	-40.3	-41.5	18.7	0.00e+00	0	43	0	467664896	51	4014
2026-01-15 04:01:02.14	16.42	13.36	-40.4	-41.7	18.5	0.00e+00	0	43	0	475004928	51	4108
2026-01-15 04:01:03.13	16.42	13.46	-40.3	-41.5	18.6	0.00e+00	0	43	0	482344960	51	4032
2026-01-15 04:01:04.13	16.42	13.56	-40.2	-41.4	18.8	0.00e+00	0	43	0	489684992	51	3989
2026-01-15 04:01:05.12	16.42	13.66	-40.3	-41.4	18.7	0.00e+00	0	43	0	497025024	51	4001
2026-01-15 04:01:06.12	16.42	13.76	-40.2	-41.3	18.9	0.00e+00	0	43	0	504365056	51	3935
2026-01-15 04:01:07.11	16.42	13.86	-40.3	-41.5	18.7	0.00e+00	0	43	0	511705088	51	4010
2026-01-15 04:01:08.11	16.43	13.96	-40.0	-41.2	19.0	0.00e+00	0	43	0	517996544	50	4114
2026-01-15 04:01:09.10	16.43	14.06	-40.1	-41.2	18.9	0.00e+00	0	43	0	525336576	50	4144
2026-01-15 04:01:10.10	16.43	14.16	-40.2	-41.3	18.8	0.00e+00	0	43	0	532676608	50	4189
2026-01-15 04:01:11.10	16.43	14.27	-40.1	-41.2	19.0	0.00e+00	0	43	0	540016640	50	4115
2026-01-15 04:01:12.09	16.43	14.37	-40.0	-41.1	19.0	0.00e+00	0	43	0	547356672	50	4098
2026-01-15 04:01:13.08	16.43	14.47	-40.1	-41.2	18.9	0.00e+00	0	43	0	553648128	50	4126
2026-01-15 04:01:14.08	16.43	14.58	-39.9	-41.1	19.1	0.00e+00	0	43	0	560988160	50	4059
2026-01-15 04:01:15.07	16.44	14.68	-40.0	-41.1	19.1	0.00e+00	0	43	0	568328192	50	4092
2026-01-15 04:01:16.07	16.44	14.79	-40.0	-41.1	19.1	0.00e+00	0	43	0	575668224	50	4053
2026-01-15 04:01:17.06	16.44	14.89	-40.0	-41.2	19.0	0.00e+00	0	43	0	583008256	50	4100
2026-01-15 04:01:18.05	16.44	14.99	-39.9	-41.0	19.2	0.00e+00	0	43	0	590348288	50	4038
2026-01-15 04:01:19.05	16.44	15.10	-39.9	-41.0	19.1	0.00e+00	0	43	0	597688320	50	4048
2026-01-15 04:01:20.04	16.44	15.21	-39.9	-41.0	19.2	0.00e+00	0	43	0	605028352	50	4037
2026-01-15 04:01:21.04	16.44	15.31	-40.0	-41.1	19.1	0.00e+00	0	43	0	611319808	50	4060
2026-01-15 04:01:22.03	16.45	15.42	-40.0	-41.1	19.1	0.00e+00	0	43	0	618659840	50	4059
2026-01-15 04:01:23.03	16.45	15.53	-39.9	-41.0	19.2	0.00e+00	0	43	0	625999872	50	4031
2026-01-15 04:01:24.02	16.45	15.64	-40.0	-41.1	19.2	0.00e+00	0	43	0	633339904	50	4053
2026-01-15 04:01:25.02	16.45	15.75	-39.9	-41.0	19.2	0.00e+00	0	43	0	640679936	50	4042
2026-01-15 04:01:26.01	16.45	15.86	-40.0	-41.1	19.2	0.00e+00	0	43	0	648019968	50	4055
2026-01-15 04:01:27.00	16.45	15.97	-39.9	-41.0	19.2	0.00e+00	0	43	0	655360000	50	4008
2026-01-15 04:01:28.00	16.45	16.08	-40.0	-41.0	19.2	0.00e+00	0	43	0	661651456	50	4049
2026-01-15 04:01:28.99	16.45	16.19	-39.8	-40.8	19.4	0.00e+00	0	43	0	668991488	50	3947
2026-01-15 04:01:29.99	16.45	16.30	-40.0	-41.1	19.2	0.00e+00	0	43	0	676331520	50	4053
2026-01-15 04:01:30.98	16.46	16.41	-40.0	-41.0	19.2	0.00e+00	0	43	0	683671552	50	4040
2026-01-15 04:01:31.98	16.46	16.52	-40.0	-41.0	19.2	0.00e+00	0	43	0	691011584	50	4046
2026-01-15 04:01:32.98	16.46	16.64	-39.9	-40.9	19.3	0.00e+00	0	43	0	697303040	50	3975
2026-01-15 04:01:33.97	16.46	16.75	-39.9	-41.0	19.3	0.00e+00	0	43	0	704643072	50	4011
2026-01-15 04:01:34.97	16.46	16.86	-39.9	-40.9	19.3	0.00e+00	0	43	0	711983104	50	3997
2026-01-15 04:01:35.96	16.46	16.98	-39.9	-41.0	19.3	0.00e+00	0	43	0	719323136	50	4009
2026-01-15 04:01:36.96	16.46	17.09	-39.9	-40.9	19.3	0.00e+00	0	43	0	726663168	50	3985
2026-01-15 04:01:37.95	16.46	17.21	-39.8	-40.8	19.4	0.00e+00	0	43	0	734003200	50	3942
2026-01-15 04:01:38.94	16.46	17.32	-39.8	-40.8	19.5	0.00e+00	0	43	0	741343232	50	3920
2026-01-15 04:01:39.94	16.46	17.44	-39.7	-40.7	19.5	0.00e+00	0	43	0	747634688	50	3874
2026-01-15 04:01:40.93	16.47	17.56	-39.7	-40.7	19.5	0.00e+00	0	43	0	754974720	50	3890
2026-01-15 04:01:41.93	16.47	17.68	-39.7	-40.7	19.5	0.00e+00	0	43	0	762314752	49	4105
2026-01-15 04:01:42.92	16.47	17.79	-39.8	-40.8	19.4	0.00e+00	0	43	0	769654784	49	4153
2026-01-15 04:01:43.92	16.47	17.91	-39.7	-40.7	19.5	0.00e+00	0	43	0	776994816	49	4118
2026-01-15 04:01:44.91	16.47	18.03	-39.7	-40.7	19.5	0.00e+00	0	43	0	784334848	49	4128
2026-01-15 04:01:45.91	16.47	18.15	-39.6	-40.6	19.6	0.00e+00	0	43	0	791674880	49	4066
2026-01-15 04:01:46.90	16.47	18.27	-39.7	-40.7	19.5	0.00e+00	0	43	0	797966336	49	4139
2026-01-15 04:01:47.89	16.47	18.39	-39.6	-40.6	19.6	0.00e+00	0	43	0	805306368	49	4066
2026-01-15 04:01:48.89	16.47	18.52	-39.6	-40.6	19.6	0.00e+00	0	43	0	812646400	49	4084
2026-01-15 04:01:49.88	16.47	18.64	-39.4	-40.4	19.8	0.00e+00	0	43	0	819986432	49	3979
2026-01-15 04:01:50.87	16.47	18.76	-39.5	-40.5	19.7	0.00e+00	0	43	0	827326464	49	4019
2026-01-15 04:01:51.87	16.47	18.89	-39.5	-40.4	19.8	0.00e+00	0	43	0	834666496	49	4000
2026-01-15 04:01:52.86	16.47	19.01	-39.4	-40.4	19.8	0.00e+00	0	43	0	840957952	49	3966
2026-01-15 04:01:53.86	16.47	19.14	-39.3	-40.3	19.9	0.00e+00	0	43	0	848297984	49	3936
2026-01-15 04:01:54.85	16.47	19.26	-39.4	-40.4	19.8	0.00e+00	0	43	0	855638016	49	3965
2026-01-15 04:01:55.85	16.47	19.39	-39.3	-40.3	19.9	0.00e+00	0	43	0	862978048	49	3941
2026-01-15 04:01:56.85	16.48	19.52	-39.4	-40.3	19.8	0.00e+00	0	43	0	870318080	49	3954
2026-01-15 04:01:57.84	16.48	19.64	-39.3	-40.3	19.9	0.00e+00	0	43	0	877658112	49	3936
2026-01-15 04:01:58.83	16.48	19.77	-39.3	-40.3	19.9	0.00e+00	0	43	0	883949568	49	3939
2026-01-15 04:01:59.83	16.48	19.90	-39.3	-40.3	19.9	0.00e+00	0	43	0	891289600	49	3914
2026-01-15 04:02:00.82	16.48	20.03	-39.0	-40.0	20.1	0.00e+00	0	43	0	898629632	48	4040
2026-01-15 04:02:01.82	16.48	20.16	-39.2	-40.1	20.0	0.00e+00	0	43	0	905969664	48	4094
2026-01-15 04:02:02.81	16.48	20.29	-39.2	-40.1	20.0	0.00e+00	0	43	0	913309696	48	4094
2026-01-15 04:02:03.81	16.48	20.42	-39.2	-40.1	20.0	0.00e+00	0	43	0	920649728	48	4091
2026-01-15 04:02:04.80	16.48	20.55	-39.1	-40.1	20.0	0.00e+00	0	43	0	927989760	48	4082
2026-01-15 04:02:05.80	16.48	20.69	-39.2	-40.2	19.9	0.00e+00	0	43	0	935329792	48	4139
2026-01-15 04:02:06.79	16.48	20.82	-38.8	-39.8	20.3	0.00e+00	0	43	0	941621248	48	3939
2026-01-15 04:02:07.79	16.48	20.96	-39.0	-40.0	20.2	0.00e+00	0	43	0	948961280	48	4014
2026-01-15 04:02:08.78	16.48	21.09	-38.9	-39.8	20.4	0.00e+00	0	43	0	956301312	48	3946
2026-01-15 04:02:09.78	16.48	21.23	-38.6	-39.6	20.5	0.00e+00	0	43	0	963641344	48	3836
2026-01-15 04:02:10.77	16.48	21.36	-38.8	-39.7	20.4	0.00e+00	0	44	0	970981376	48	3901
2026-01-15 04:02:11.77	16.48	21.50	-38.5	-39.5	20.4	0.00e+00	0	44	0	978321408	47	4011
2026-01-15 04:02:12.76	16.48	21.64	-38.6	-39.6	20.2	0.00e+00	0	43	0	984612864	47	4078
2026-01-15 04:02:13.76	16.48	21.78	-38.5	-39.5	20.3	0.00e+00	0	43	0	991952896	47	4024
2026-01-15 04:02:14.75	16.48	21.92	-38.5	-39.5	20.3	0.00e+00	0	44	0	999292928	47	4035
2026-01-15 04:02:15.75	16.48	22.06	-38.5	-39.4	20.3	0.00e+00	0	43	0	1006632960	47	3992
2026-01-15 04:02:16.74	16.48	22.20	-38.4	-39.4	20.3	0.00e+00	0	43	0	1013972992	47	3984
2026-01-15 04:02:17.73	16.48	22.34	-38.5	-39.5	20.3	0.00e+00	0	43	0	1021313024	47	4019
2026-01-15 04:02:18.73	16.48	22.49	-38.4	-39.4	20.3	0.00e+00	0	44	0	1027604480	47	3974
2026-01-15 04:02:19.72	16.48	22.63	-38.4	-39.4	20.4	0.00e+00	0	44	0	1034944512	47	3960
2026-01-15 04:02:20.72	16.48	22.77	-38.4	-39.3	20.5	0.00e+00	0	43	0	1042284544	47	3945
2026-01-15 04:02:21.71	16.48	22.92	-38.5	-39.4	20.3	0.00e+00	0	43	0	1049624576	47	3994
2026-01-15 04:02:22.70	16.47	23.06	-38.5	-39.5	20.4	0.00e+00	0	43	0	1056964608	47	4013
2026-01-15 04:02:23.70	16.47	23.21	-38.3	-39.3	20.6	0.00e+00	0	43	0	1064304640	47	3930
2026-01-15 04:02:24.69	16.47	23.36	-38.3	-39.2	20.6	0.00e+00	0	43	0	1070596096	47	3901
2026-01-15 04:02:25.69	16.47	23.51	-38.3	-39.2	20.6	0.00e+00	0	43	0	1077936128	47	3893
2026-01-15 04:02:26.68	16.47	23.66	-38.3	-39.3	20.5	0.00e+00	0	43	0	1085276160	47	3923
2026-01-15 04:02:27.68	16.47	23.81	-38.3	-39.2	20.6	0.00e+00	0	43	0	1092616192	47	3892
2026-01-15 04:02:28.67	16.47	23.96	-38.3	-39.2	20.6	0.00e+00	0	43	0	1099956224	47	3909
2026-01-15 04:02:29.67	16.47	24.11	-38.3	-39.3	20.6	0.00e+00	0	43	0	1107296256	47	3925
2026-01-15 04:02:30.66	16.47	24.26	-38.4	-39.3	20.5	0.00e+00	0	43	0	1114636288	47	3954
2026-01-15 04:02:31.66	16.47	24.42	-38.3	-39.2	20.6	0.00e+00	0	43	0	1121976320	47	3892
2026-01-15 04:02:32.65	16.47	24.57	-38.3	-39.3	20.6	0.00e+00	0	43	0	1128267776	47	3921
2026-01-15 04:02:33.65	16.47	24.73	-38.5	-39.5	20.4	0.00e+00	0	43	0	1135607808	47	4005
2026-01-15 04:02:34.64	16.47	24.89	-38.5	-39.4	20.4	0.00e+00	0	43	0	1142947840	47	3991
2026-01-15 04:02:35.64	16.46	25.04	-38.5	-39.4	20.5	0.00e+00	0	43	0	1150287872	47	3985
2026-01-15 04:02:36.63	16.46	25.20	-38.5	-39.5	20.4	0.00e+00	0	43	0	1157627904	47	4020
2026-01-15 04:02:37.63	16.46	25.36	-38.5	-39.5	20.4	0.00e+00	0	43	0	1164967936	47	4011
2026-01-15 04:02:38.62	16.46	25.52	-38.5	-39.4	20.5	0.00e+00	0	43	0	1171259392	47	3998
2026-01-15 04:02:39.62	16.46	25.69	-38.3	-39.3	20.6	0.00e+00	0	43	0	1178599424	47	3932
2026-01-15 04:02:40.61	16.46	25.85	-38.4	-39.4	20.5	0.00e+00	0	43	0	1185939456	47	3980
2026-01-15 04:02:41.61	16.46	26.01	-38.3	-39.3	20.6	0.00e+00	0	44	0	1193279488	47	3930
2026-01-15 04:02:42.60	16.46	26.18	-38.3	-39.3	20.6	0.00e+00	0	44	0	1200619520	47	3926
2026-01-15 04:02:43.60	16.45	26.34	-38.5	-39.5	20.5	0.00e+00	0	44	0	1207959552	47	4008
2026-01-15 04:02:44.59	16.45	26.51	-38.2	-39.2	20.7	0.00e+00	0	44	0	1215299584	47	3871
2026-01-15 04:02:45.59	16.45	26.68	-38.1	-39.1	20.8	0.00e+00	0	44	0	1221591040	46	4052
2026-01-15 04:02:46.59	16.45	26.85	-38.0	-39.0	20.9	0.00e+00	0	43	0	1228931072	46	4009
2026-01-15 04:02:47.58	16.45	27.02	-37.9	-38.8	21.0	0.00e+00	0	43	0	1236271104	46	3950
2026-01-15 04:02:48.58	16.45	27.19	-37.9	-38.8	21.0	0.00e+00	0	43	0	1243611136	46	3933
2026-01-15 04:02:49.57	16.44	27.36	-38.0	-39.0	20.9	0.00e+00	0	44	0	1250951168	46	4005
2026-01-15 04:02:50.57	16.44	27.53	-37.9	-38.8	21.1	0.00e+00	0	43	0	1258291200	46	3936
2026-01-15 04:02:51.56	16.44	27.71	-37.8	-38.7	21.1	0.00e+00	0	43	0	1265631232	46	3893
2026-01-15 04:02:52.55	16.44	27.88	-37.8	-38.7	21.1	0.00e+00	0	43	0	1271922688	46	3886
2026-01-15 04:02:53.55	16.44	28.06	-37.8	-38.7	21.2	0.00e+00	0	43	0	1279262720	46	3886
2026-01-15 04:02:54.54	16.43	28.23	-37.7	-38.6	21.2	0.00e+00	0	43	0	1286602752	46	3862
2026-01-15 04:02:55.54	16.43	28.41	-37.5	-38.4	21.4	0.00e+00	0	43	0	1293942784	45	4002
2026-01-15 04:02:56.53	16.43	28.59	-37.6	-38.5	21.3	0.00e+00	0	44	0	1301282816	45	4029
2026-01-15 04:02:57.52	16.43	28.77	-37.6	-38.5	21.3	0.00e+00	0	44	0	1308622848	45	4020
2026-01-15 04:02:58.52	16.42	28.96	-37.6	-38.5	21.4	0.00e+00	0	43	0	1314914304	45	4015
2026-01-15 04:02:59.52	16.42	29.14	-37.6	-38.5	21.3	0.00e+00	0	43	0	1322254336	45	4033
2026-01-15 04:03:00.51	16.42	29.32	-37.6	-38.5	21.3	0.00e+00	0	43	0	1329594368	45	4049
2026-01-15 04:03:01.50	16.42	29.51	-37.7	-38.6	21.2	0.00e+00	0	43	0	1336934400	45	4091
2026-01-15 04:03:02.50	16.41	29.70	-37.8	-38.7	21.1	0.00e+00	0	43	0	1344274432	45	4132
2026-01-15 04:03:03.49	16.41	29.88	-37.9	-38.9	21.0	0.00e+00	0	44	0	1351614464	45	4199
2026-01-15 04:03:04.49	16.41	30.08	-37.9	-38.9	21.0	0.00e+00	0	43	0	1357905920	45	4201
2026-01-15 04:03:05.48	16.41	30.27	-38.1	-39.0	20.9	0.00e+00	0	43	0	1365245952	45	4269
2026-01-15 04:03:06.48	16.40	30.46	-38.1	-39.1	20.8	0.00e+00	0	43	0	1372585984	45	4311
2026-01-15 04:03:07.47	16.40	30.65	-38.2	-39.1	20.8	0.00e+00	0	43	0	1379926016	46	4076
2026-01-15 04:03:08.47	16.40	30.85	-38.4	-39.4	20.6	0.00e+00	0	44	0	1387266048	46	4194
2026-01-15 04:03:09.46	16.39	31.04	-38.1	-39.0	20.9	0.00e+00	0	44	0	1394606080	46	4037
2026-01-15 04:03:10.46	16.39	31.24	-38.1	-39.0	20.9	0.00e+00	0	43	0	1401946112	46	4042
2026-01-15 04:03:11.45	16.39	31.44	-38.1	-39.0	20.9	0.00e+00	0	43	0	1409286144	46	4039
2026-01-15 04:03:12.45	16.38	31.64	-38.2	-39.2	20.8	0.00e+00	0	43	0	1415577600	46	4118
2026-01-15 04:03:13.44	16.38	31.84	-38.1	-39.0	20.9	0.00e+00	0	43	0	1422917632	46	4046
2026-01-15 04:03:14.44	16.37	32.04	-38.1	-39.0	20.9	0.00e+00	0	44	0	1430257664	46	4042
2026-01-15 04:03:15.43	16.37	32.25	-38.1	-39.0	20.9	0.00e+00	0	43	0	1437597696	46	4042
2026-01-15 04:03:16.43	16.37	32.45	-38.1	-39.0	20.9	0.00e+00	0	43	0	1444937728	46	4041
2026-01-15 04:03:17.42	16.36	32.66	-38.0	-38.9	21.0	0.00e+00	0	43	0	1452277760	46	3977
2026-01-15 04:03:18.42	16.36	32.87	-38.0	-38.9	21.0	0.00e+00	0	44	0	1458569216	46	4001
2026-01-15 04:03:19.41	16.35	33.08	-37.9	-38.8	21.0	0.00e+00	0	43	0	1465909248	46	3957
2026-01-15 04:03:20.41	16.35	33.29	-38.0	-38.9	21.1	0.00e+00	0	44	0	1473249280	46	3976
2026-01-15 04:03:21.40	16.35	33.50	-38.0	-39.0	21.0	0.00e+00	0	43	0	1480589312	46	4006
2026-01-15 04:03:22.40	16.34	33.72	-37.8	-38.7	21.2	0.00e+00	0	43	0	1487929344	46	3912
2026-01-15 04:03:23.39	16.34	33.93	-38.0	-38.9	21.1	0.00e+00	0	43	0	1494220800	46	3969
2026-01-15 04:03:24.39	16.33	34.15	-38.0	-38.9	21.1	0.00e+00	0	43	0	1501560832	46	3969
2026-01-15 04:03:25.38	16.33	34.37	-37.9	-38.9	21.1	0.00e+00	0	43	0	1508900864	46	3962
2026-01-15 04:03:26.37	16.32	34.59	-37.8	-38.7	21.2	0.00e+00	0	43	0	1516240896	46	3894
2026-01-15 04:03:27.37	16.32	34.81	-37.8	-38.7	21.2	0.00e+00	0	43	0	1523580928	46	3905
2026-01-15 04:03:28.36	16.31	35.04	-37.7	-38.6	21.3	0.00e+00	0	43	0	1530920960	46	3855
2026-01-15 04:03:29.36	16.31	35.26	-37.8	-38.7	21.2	0.00e+00	0	43	0	1538260992	46	3888
2026-01-15 04:03:30.35	16.30	35.49	-37.8	-38.7	21.3	0.00e+00	0	43	0	1545601024	46	3875
2026-01-15 04:03:31.35	16.29	35.72	-37.8	-38.7	21.2	0.00e+00	0	44	0	1552941056	46	3902
2026-01-15 04:03:32.34	16.29	35.95	-37.8	-38.8	21.2	0.00e+00	0	43	0	1559232512	46	3914
2026-01-15 04:03:33.34	16.28	36.18	-37.7	-38.6	21.3	0.00e+00	0	44	0	1566572544	46	3853
2026-01-15 04:03:34.33	16.28	36.42	-37.7	-38.6	21.3	0.00e+00	0	43	0	1573912576	46	3848
2026-01-15 04:03:35.33	16.27	36.65	-37.7	-38.6	21.3	0.00e+00	0	43	0	1581252608	46	3839
2026-01-15 04:03:36.32	16.26	36.89	-37.6	-38.5	21.4	0.00e+00	0	43	0	1588592640	46	3801
2026-01-15 04:03:37.32	16.26	37.13	-37.5	-38.4	21.4	0.00e+00	0	43	0	1595932672	45	3987
2026-01-15 04:03:38.31	16.25	37.37	-37.5	-38.4	21.5	0.00e+00	0	44	0	1602224128	45	3988
2026-01-15 04:03:39.31	16.24	37.61	-37.6	-38.5	21.4	0.00e+00	0	44	0	1609564160	45	4046
2026-01-15 04:03:40.30	16.24	37.85	-37.8	-38.7	21.2	0.00e+00	0	43	0	1616904192	45	4127
2026-01-15 04:03:41.29	16.23	38.10	-37.9	-38.8	21.1	0.00e+00	0	43	0	1624244224	45	4186
2026-01-15 04:03:42.29	16.22	38.35	-38.1	-39.0	21.0	0.00e+00	0	43	0	1631584256	45	4278
2026-01-15 04:03:43.28	16.22	38.60	-38.1	-39.1	20.9	0.00e+00	0	44	0	1637875712	45	4300
2026-01-15 04:03:44.28	16.21	38.85	-38.0	-39.0	21.0	0.00e+00	0	44	0	1645215744	45	4270
2026-01-15 04:03:45.27	16.20	39.10	-38.1	-39.0	20.9	0.00e+00	0	44	0	1652555776	45	4287
2026-01-15 04:03:46.27	16.19	39.36	-38.0	-39.0	21.0	0.00e+00	0	43	0	1659895808	45	4263
2026-01-15 04:03:47.26	16.18	39.61	-37.9	-38.9	21.1	0.00e+00	0	43	0	1667235840	45	4212
2026-01-15 04:03:48.26	16.18	39.88	-37.9	-38.9	21.1	0.00e+00	0	43	0	1674575872	45	4202
2026-01-15 04:03:49.25	16.17	40.14	-37.8	-38.7	21.2	0.00e+00	0	44	0	1681915904	45	4133
2026-01-15 04:03:50.25	16.16	40.40	-38.0	-38.9	21.0	0.00e+00	0	43	0	1689255936	45	4239
2026-01-15 04:03:51.24	16.15	40.66	-38.0	-39.0	21.0	0.00e+00	0	44	0	1695547392	45	4252
2026-01-15 04:03:52.24	16.14	40.93	-38.1	-39.0	21.0	0.00e+00	0	44	0	1702887424	45	4266
2026-01-15 04:03:53.23	16.13	41.20	-38.0	-38.9	21.1	0.00e+00	0	43	0	1710227456	45	4217
2026-01-15 04:03:54.23	16.12	41.47	-38.0	-38.9	21.1	0.00e+00	0	44	0	1717567488	45	4236
2026-01-15 04:03:55.22	16.11	41.74	-38.0	-39.0	21.0	0.00e+00	0	43	0	1724907520	45	4253
2026-01-15 04:03:56.22	16.10	42.02	-38.0	-39.0	21.0	0.00e+00	0	43	0	1732247552	45	4248
2026-01-15 04:03:57.21	16.09	42.30	-38.0	-39.0	21.0	0.00e+00	0	43	0	1739587584	45	4246
2026-01-15 04:03:58.21	16.08	42.58	-38.1	-39.0	21.0	0.00e+00	0	44	0	1745879040	45	4259
2026-01-15 04:03:59.20	16.07	42.86	-38.2	-39.1	20.9	0.00e+00	0	43	0	1753219072	45	4330
2026-01-15 04:04:00.19	16.06	43.14	-38.4	-39.3	20.7	0.00e+00	0	43	0	1760559104	46	4188
2026-01-15 04:04:01.19	16.05	43.43	-38.4	-39.3	20.7	0.00e+00	0	43	0	1767899136	46	4174
2026-01-15 04:04:02.19	16.04	43.72	-38.4	-39.4	20.7	0.00e+00	0	44	0	1775239168	46	4206
2026-01-15 04:04:03.18	16.02	44.00	-38.6	-39.5	20.6	0.00e+00	0	44	0	1781530624	46	4273
2026-01-15 04:04:04.18	16.01	44.30	-38.7	-39.7	20.4	0.00e+00	0	43	0	1788870656	46	4342
2026-01-15 04:04:05.17	16.00	44.59	-38.9	-39.9	20.2	0.00e+00	0	44	0	1796210688	47	4199
2026-01-15 04:04:06.16	15.99	44.89	-38.8	-39.8	20.3	0.00e+00	0	43	0	1803550720	47	4173
2026-01-15 04:04:07.16	15.97	45.19	-38.9	-39.9	20.2	0.00e+00	0	44	0	1810890752	47	4194
2026-01-15 04:04:08.15	15.96	45.49	-38.9	-39.8	20.3	0.00e+00	0	44	0	1818230784	47	4188
2026-01-15 04:04:09.15	15.95	45.79	-39.0	-40.0	20.1	0.00e+00	0	44	0	1825570816	47	4250
2026-01-15 04:04:10.14	15.93	46.10	-38.9	-39.9	20.2	0.00e+00	0	43	0	1831862272	47	4216
2026-01-15 04:04:11.14	15.92	46.41	-38.9	-39.9	20.2	0.00e+00	0	43	0	1839202304	47	4212
2026-01-15 04:04:12.13	15.90	46.71	-38.7	-39.6	20.5	0.00e+00	0	44	0	1846542336	47	4070
2026-01-15 04:04:13.12	15.89	47.03	-38.8	-39.7	20.4	0.00e+00	0	44	0	1853882368	47	4115
2026-01-15 04:04:14.12	15.87	47.34	-38.8	-39.7	20.4	0.00e+00	0	43	0	1861222400	47	4125
2026-01-15 04:04:15.11	15.86	47.66	-39.0	-39.9	20.2	0.00e+00	0	43	0	1868562432	47	4218
2026-01-15 04:04:16.10	15.84	47.98	-39.1	-40.1	20.0	0.00e+00	0	43	0	1875902464	47	4321
2026-01-15 04:04:17.10	15.82	48.30	-39.0	-39.9	20.2	0.00e+00	0	44	0	1883242496	47	4242
2026-01-15 04:04:18.09	15.81	48.62	-39.0	-40.0	20.1	0.00e+00	0	44	0	1889533952	47	4268
2026-01-15 04:04:19.09	15.79	48.95	-38.9	-39.8	20.3	0.00e+00	0	43	0	1896873984	47	4180
2026-01-15 04:04:20.09	15.77	49.28	-39.0	-39.9	20.2	0.00e+00	0	43	0	1904214016	47	4232
2026-01-15 04:04:21.08	15.75	49.61	-39.1	-40.1	20.0	0.00e+00	0	43	0	1911554048	47	4321
2026-01-15 04:04:22.07	15.73	49.95	-39.4	-40.4	20.0	0.00e+00	0	43	0	1918894080	48	4227
2026-01-15 04:04:23.07	15.71	50.28	-39.7	-40.7	19.7	0.00e+00	0	44	0	1925185536	48	4383
2026-01-15 04:04:24.07	15.69	50.63	-39.7	-40.7	19.8	0.00e+00	0	44	0	1932525568	49	4113
2026-01-15 04:04:25.06	15.67	50.97	-39.8	-40.8	19.7	0.00e+00	0	43	0	1939865600	49	4177
2026-01-15 04:04:26.05	15.65	51.31	-39.7	-40.6	19.8	0.00e+00	0	44	0	1947205632	49	4096
2026-01-15 04:04:27.05	15.63	51.66	-39.6	-40.6	19.9	0.00e+00	0	44	0	1954545664	49	4086
2026-01-15 04:04:28.04	15.61	52.01	-39.9	-40.9	19.6	0.00e+00	0	44	0	1961885696	49	4219
2026-01-15 04:04:29.04	15.59	52.36	-39.9	-40.9	19.6	0.00e+00	0	43	0	1968177152	49	4195
2026-01-15 04:04:30.03	15.56	52.71	-39.8	-40.8	19.7	0.00e+00	0	44	0	1975517184	49	4149
2026-01-15 04:04:31.03	15.54	53.07	-39.8	-40.8	19.6	0.00e+00	0	44	0	1982857216	49	4189
2026-01-15 04:04:32.02	15.51	53.43	-39.6	-40.6	19.9	0.00e+00	0	44	0	1990197248	49	4067
2026-01-15 04:04:33.02	15.49	53.79	-39.9	-40.9	19.6	0.00e+00	0	44	0	1997537280	49	4206
2026-01-15 04:04:34.02	15.46	54.16	-39.9	-40.9	19.6	0.00e+00	0	44	0	2004877312	49	4221
2026-01-15 04:04:35.01	15.43	54.53	-39.9	-41.0	19.6	0.00e+00	0	44	0	2012217344	49	4244
2026-01-15 04:04:36.01	15.41	54.90	-39.5	-40.5	20.0	0.00e+00	0	43	0	2019557376	49	4035
2026-01-15 04:04:37.00	15.38	55.27	-39.4	-40.4	20.1	0.00e+00	0	44	0	2026897408	49	3969
2026-01-15 04:04:37.99	15.35	55.64	-39.5	-40.4	20.0	0.00e+00	0	43	0	2033188864	49	3999
2026-01-15 04:04:38.99	15.32	56.02	-39.7	-40.7	19.8	0.00e+00	0	43	0	2040528896	49	4101
2026-01-15 04:04:39.98	15.29	56.40	-40.0	-41.1	19.4	0.00e+00	0	44	0	2047868928	49	4304
2026-01-15 04:04:40.98	15.25	56.79	-39.9	-40.9	19.6	0.00e+00	0	44	0	2055208960	49	4232
2026-01-15 04:04:41.97	15.22	57.17	-39.9	-40.9	19.6	0.00e+00	0	43	0	2062548992	49	4237
2026-01-15 04:04:42.96	15.19	57.56	-39.5	-40.5	20.0	0.00e+00	0	44	0	2068840448	49	4012
2026-01-15 04:04:43.96	15.15	57.95	-39.6	-40.6	19.9	0.00e+00	0	44	0	2076180480	49	4053
2026-01-15 04:04:44.95	15.11	58.34	-39.6	-40.6	19.9	0.00e+00	0	44	0	2083520512	49	4064
2026-01-15 04:04:45.95	15.07	58.74	-39.8	-40.8	19.7	0.00e+00	0	44	0	2090860544	49	4155
2026-01-15 04:04:46.94	15.04	59.14	-39.7	-40.7	19.7	0.00e+00	0	44	0	2098200576	49	4141
2026-01-15 04:04:47.94	14.99	59.54	-39.3	-40.2	20.1	0.00e+00	0	43	0	2105540608	49	3912
2026-01-15 04:04:48.93	14.95	59.95	-39.7	-40.6	19.8	0.00e+00	0	44	0	2111832064	49	4098
2026-01-15 04:04:49.93	14.91	60.36	-39.3	-40.2	20.2	0.00e+00	0	44	0	2119172096	49	3902
2026-01-15 04:04:50.92	14.86	60.76	-39.1	-40.1	20.3	0.00e+00	0	44	0	2126512128	49	3832
2026-01-15 04:04:51.91	14.82	61.17	-39.2	-40.2	20.3	0.00e+00	0	43	0	2133852160	48	4116
2026-01-15 04:04:52.91	14.77	61.59	-39.5	-40.5	19.9	0.00e+00	0	44	0	2141192192	48	4281
2026-01-15 04:04:53.91	14.72	62.01	-39.3	-40.2	20.2	0.00e+00	0	44	0	2148532224	48	4142
2026-01-15 04:04:54.90	14.67	62.43	-38.9	-39.8	20.6	0.00e+00	0	44	0	2155872256	48	3942
2026-01-15 04:04:55.90	14.61	62.85	-38.8	-39.7	20.7	0.00e+00	0	44	0	2163212288	48	3887
2026-01-15 04:04:56.89	14.56	63.28	-38.4	-39.3	20.7	0.00e+00	0	44	0	2170552320	47	3952
2026-01-15 04:04:57.89	14.50	63.71	-38.9	-39.9	20.2	0.00e+00	0	44	0	2176843776	47	4206
2026-01-15 04:04:58.88	14.44	64.13	-38.4	-39.3	20.7	0.00e+00	0	44	0	2184183808	47	3944
2026-01-15 04:04:59.88	14.37	64.57	-38.5	-39.5	20.6	0.00e+00	0	44	0	2191523840	47	4019
2026-01-15 04:05:00.87	14.31	65.00	-38.4	-39.4	20.7	0.00e+00	0	44	0	2198863872	47	3962
2026-01-15 04:05:01.86	14.24	65.44	-38.3	-39.2	20.8	0.00e+00	0	43	0	2206203904	47	3890
2026-01-15 04:05:02.86	14.17	65.88	-37.9	-38.8	21.1	0.00e+00	0	44	0	2212495360	46	3954
2026-01-15 04:05:03.85	14.10	66.32	-38.0	-38.9	21.1	0.00e+00	0	44	0	2219835392	46	3989
2026-01-15 04:05:04.85	14.02	66.77	-37.7	-38.6	21.3	0.00e+00	0	44	0	2227175424	46	3856
2026-01-15 04:05:05.84	13.94	67.21	-37.7	-38.6	21.4	0.00e+00	0	44	0	2234515456	46	3851
2026-01-15 04:05:06.84	13.85	67.67	-37.6	-38.5	21.4	0.00e+00	0	44	0	2241855488	45	4042
2026-01-15 04:05:07.83	13.76	68.12	-37.8	-38.7	21.3	0.00e+00	0	43	0	2249195520	45	4129
2026-01-15 04:05:08.83	13.67	68.57	-37.5	-38.4	21.4	0.00e+00	0	43	0	2255486976	46	3765
2026-01-15 04:05:09.82	13.57	69.03	-38.2	-39.1	20.9	0.00e+00	0	44	0	2262827008	46	4067
2026-01-15 04:05:10.81	13.47	69.49	-38.4	-39.3	20.7	0.00e+00	0	44	0	2270167040	46	4171
2026-01-15 04:05:11.81	13.36	69.95	-38.3	-39.2	20.8	0.00e+00	0	44	0	2277507072	46	4145
2026-01-15 04:05:12.80	13.25	70.41	-38.2	-39.1	20.9	0.00e+00	0	44	0	2284847104	46	4098
2026-01-15 04:05:13.80	13.13	70.88	-38.2	-39.1	20.8	0.00e+00	0	43	0	2292187136	46	4082
2026-01-15 04:05:14.79	13.01	71.34	-38.0	-38.9	21.0	0.00e+00	0	44	0	2298478592	46	3999
2026-01-15 04:05:15.79	12.87	71.81	-38.2	-39.1	20.9	0.00e+00	0	43	0	2305818624	46	4071
2026-01-15 04:05:16.78	12.73	72.28	-38.4	-39.3	20.8	0.00e+00	0	44	0	2313158656	46	4164
2026-01-15 04:05:17.78	12.58	72.76	-38.5	-39.4	20.7	0.00e+00	0	44	0	2320498688	46	4215
2026-01-15 04:05:18.77	12.42	73.23	-38.3	-39.2	20.8	0.00e+00	0	43	0	2327838720	47	3911
2026-01-15 04:05:19.76	12.26	73.71	-38.2	-39.1	21.0	0.00e+00	0	43	0	2335178752	46	4069
2026-01-15 04:05:20.76	12.08	74.19	-38.1	-39.0	21.0	0.00e+00	0	44	0	2342518784	46	4028
2026-01-15 04:05:21.75	11.89	74.67	-38.1	-39.0	21.0	0.00e+00	0	43	0	2349858816	46	4024
2026-01-15 04:05:22.75	11.68	75.15	-38.0	-38.9	21.1	0.00e+00	0	44	0	2356150272	46	3969
2026-01-15 04:05:23.74	11.47	75.63	-37.8	-38.8	21.2	0.00e+00	0	43	0	2363490304	46	3922
2026-01-15 04:05:24.74	11.23	76.12	-37.4	-38.3	21.7	0.00e+00	0	44	0	2370830336	45	3918
2026-01-15 04:05:25.73	10.98	76.61	-36.9	-37.8	22.1	0.00e+00	0	43	0	2378170368	44	3920
2026-01-15 04:05:26.73	10.71	77.10	-36.8	-37.7	22.1	0.00e+00	0	44	0	2385510400	44	3895
2026-01-15 04:05:27.72	10.41	77.59	-36.9	-37.8	22.1	0.00e+00	0	44	0	2392850432	44	3919
2026-01-15 04:05:28.72	10.09	78.08	-36.9	-37.7	22.1	0.00e+00	0	44	0	2399141888	44	3911
2026-01-15 04:05:29.71	9.74	78.57	-36.9	-37.7	21.9	0.00e+00	0	44	0	2406481920	44	3904
2026-01-15 04:05:30.70	9.36	79.06	-36.6	-37.4	22.3	0.00e+00	0	44	0	2413821952	44	3777
2026-01-15 04:05:31.70	8.94	79.56	-36.3	-37.2	22.4	0.00e+00	0	44	0	2421161984	43	3870
2026-01-15 04:05:32.69	8.49	80.05	-36.1	-36.9	22.6	0.00e+00	0	44	0	2428502016	42	3995
2026-01-15 04:05:33.69	7.97	80.54	-36.1	-36.9	22.6	0.00e+00	0	43	0	2435842048	42	3981
2026-01-15 04:05:34.68	7.41	81.04	-36.2	-37.0	22.5	0.00e+00	0	44	0	2442133504	42	4044
2026-01-15 04:05:35.68	6.77	81.54	-36.6	-37.5	22.2	0.00e+00	0	44	0	2449473536	42	4243
2026-01-15 04:05:36.67	6.06	82.03	-36.7	-37.6	22.1	0.00e+00	0	44	0	2456813568	42	4306
2026-01-15 04:05:37.67	5.24	82.53	-36.7	-37.6	22.1	0.00e+00	0	43	0	2464153600	43	4053
2026-01-15 04:05:38.66	4.32	83.02	-36.3	-37.1	22.5	0.00e+00	0	44	0	2471493632	43	3866
2026-01-15 04:05:39.66	3.24	83.51	-36.5	-37.4	22.2	0.00e+00	0	44	0	2478833664	43	3975
2026-01-15 04:05:40.66	1.98	84.01	-36.7	-37.6	22.0	0.00e+00	0	44	0	2486173696	43	4085
2026-01-15 04:05:41.65	0.51	84.49	-36.7	-37.6	22.0	0.00e+00	0	44	0	2493513728	43	4072
2026-01-15 04:05:42.65	358.74	84.98	-36.6	-37.5	22.1	0.00e+00	0	44	0	2499805184	43	4008
2026-01-15 04:05:43.64	356.61	85.46	-36.5	-37.3	22.3	0.00e+00	0	44	0	2507145216	43	3955
2026-01-15 04:05:44.63	353.97	85.93	-36.7	-37.5	22.0	0.00e+00	0	44	0	2514485248	43	4036
2026-01-15 04:05:45.63	350.62	86.39	-36.6	-37.5	22.2	0.00e+00	0	44	0	2521825280	43	4005
2026-01-15 04:05:46.62	346.35	86.84	-36.8	-37.6	22.0	0.00e+00	0	43	0	2529165312	43	4081
2026-01-15 04:05:47.62	340.65	87.26	-36.8	-37.6	22.0	0.00e+00	0	44	0	2536505344	43	4083
2026-01-15 04:05:48.61	333.05	87.65	-37.1	-38.0	21.7	0.00e+00	0	44	0	2542796800	43	4260
2026-01-15 04:05:49.60	322.73	87.98	-37.2	-38.1	21.8	0.00e+00	0	44	0	2550136832	44	4068
2026-01-15 04:05:50.60	308.90	88.22	-37.2	-38.1	21.7	0.00e+00	0	44	0	2557476864	44	4074
2026-01-15 04:05:51.59	292.23	88.33	-37.4	-38.3	21.5	0.00e+00	0	44	0	2564816896	44	4193
2026-01-15 04:05:52.59	274.68	88.29	-37.6	-38.5	21.4	0.00e+00	0	44	0	2572156928	45	4048
2026-01-15 04:05:53.59	259.32	88.10	-37.5	-38.4	21.5	0.00e+00	0	44	0	2579496960	45	3991
2026-01-15 04:05:54.58	247.51	87.81	-37.3	-38.2	21.6	0.00e+00	0	44	0	2585788416	45	3908
2026-01-15 04:05:55.58	238.68	87.44	-37.2	-38.1	21.8	0.00e+00	0	44	0	2593128448	44	4058
2026-01-15 04:05:56.57	232.24	87.03	-37.2	-38.1	21.8	0.00e+00	0	43	0	2600468480	44	4073
2026-01-15 04:05:57.57	227.36	86.59	-37.4	-38.3	21.7	0.00e+00	0	43	0	2607808512	44	4161
2026-01-15 04:05:58.56	223.64	86.14	-37.5	-38.4	21.5	0.00e+00	0	44	0	2615148544	44	4197
2026-01-15 04:05:59.55	220.73	85.67	-37.2	-38.1	21.8	0.00e+00	0	44	0	2622488576	44	4062
2026-01-15 04:06:00.55	218.36	85.20	-37.1	-38.0	21.9	0.00e+00	0	44	0	2629828608	44	4015
2026-01-15 04:06:01.54	216.45	84.71	-37.0	-37.9	22.0	0.00e+00	0	44	0	2637168640	44	3959
2026-01-15 04:06:02.54	214.84	84.22	-36.9	-37.8	22.1	0.00e+00	0	44	0	2643460096	44	3924
2026-01-15 04:06:03.53	213.50	83.74	-37.0	-37.9	21.9	0.00e+00	0	44	0	2650800128	44	3995
2026-01-15 04:06:04.53	212.35	83.24	-37.1	-38.0	21.9	0.00e+00	0	44	0	2658140160	44	4021
2026-01-15 04:06:05.52	211.36	82.75	-37.0	-37.9	22.0	0.00e+00	0	44	0	2665480192	44	3964
2026-01-15 04:06:06.52	210.49	82.25	-36.7	-37.5	22.2	0.00e+00	0	43	0	2672820224	44	3804
2026-01-15 04:06:07.51	209.74	81.76	-35.9	-36.8	22.7	0.00e+00	0	44	0	2680160256	42	3919
2026-01-15 04:06:08.51	209.07	81.26	-35.9	-36.7	22.8	0.00e+00	0	44	0	2686451712	42	3905
2026-01-15 04:06:09.50	208.47	80.77	-36.3	-37.1	22.4	0.00e+00	0	44	0	2693791744	42	4075
2026-01-15 04:06:10.50	207.93	80.27	-36.6	-37.4	22.2	0.00e+00	0	44	0	2701131776	42	4228
2026-01-15 04:06:11.49	207.45	79.78	-36.6	-37.4	22.2	0.00e+00	0	44	0	2708471808	42	4218
2026-01-15 04:06:12.49	207.01	79.28	-36.4	-37.2	22.4	0.00e+00	0	44	0	2715811840	42	4129
2026-01-15 04:06:13.48	206.62	78.79	-36.3	-37.2	22.3	0.00e+00	0	44	0	2723151872	42	4111
2026-01-15 04:06:14.47	206.26	78.30	-36.5	-37.4	22.2	0.00e+00	0	44	0	2729443328	42	4202
2026-01-15 04:06:15.47	205.92	77.80	-36.9	-37.8	21.9	0.00e+00	0	44	0	2736783360	43	4181
2026-01-15 04:06:16.46	205.62	77.31	-37.5	-38.4	21.5	0.00e+00	0	44	0	2744123392	44	4226
2026-01-15 04:06:17.45	205.34	76.83	-37.5	-38.4	21.5	0.00e+00	0	44	0	2751463424	44	4232
2026-01-15 04:06:18.45	205.08	76.33	-37.5	-38.5	21.5	0.00e+00	0	44	0	2758803456	44	4243
2026-01-15 04:06:19.44	204.83	75.85	-37.5	-38.3	21.6	0.00e+00	0	44	0	2766143488	44	4191
2026-01-15 04:06:20.44	204.61	75.36	-37.8	-38.7	21.0	0.00e+00	0	44	0	2772434944	45	4119
2026-01-15 04:06:21.43	204.40	74.88	-38.1	-39.0	20.9	0.00e+00	0	44	0	2779774976	45	4284
2026-01-15 04:06:22.43	204.20	74.40	-38.4	-39.3	20.8	0.00e+00	0	43	0	2787115008	46	4183
2026-01-15 04:06:23.42	204.02	73.92	-38.6	-39.5	20.5	0.00e+00	0	44	0	2794455040	46	4272
2026-01-15 04:06:24.42	203.84	73.44	-38.7	-39.6	20.5	0.00e+00	0	44	0	2801795072	46	4339
2026-01-15 04:06:25.41	203.68	72.96	-38.5	-39.4	20.6	0.00e+00	0	44	0	2809135104	46	4229
2026-01-15 04:06:26.41	203.53	72.48	-38.1	-39.0	21.1	0.00e+00	0	44	0	2816475136	46	4012
2026-01-15 04:06:27.40	203.38	72.01	-38.0	-38.8	21.2	0.00e+00	0	44	0	2823815168	46	3953
2026-01-15 04:06:28.39	203.25	71.54	-38.2	-39.1	21.0	0.00e+00	0	44	0	2830106624	46	4080
2026-01-15 04:06:29.39	203.12	71.07	-38.7	-39.6	20.5	0.00e+00	0	44	0	2837446656	46	4324
2026-01-15 04:06:30.39	202.99	70.60	-38.9	-39.9	20.3	0.00e+00	0	44	0	2844786688	47	4206
2026-01-15 04:06:31.38	202.88	70.14	-38.5	-39.4	20.6	0.00e+00	0	44	0	2852126720	47	4001
2026-01-15 04:06:32.38	202.77	69.67	-38.1	-39.0	21.0	0.00e+00	0	44	0	2859466752	46	4037
2026-01-15 04:06:33.37	202.66	69.21	-37.9	-38.8	21.2	0.00e+00	0	43	0	2866806784	46	3939
2026-01-15 04:06:34.36	202.56	68.76	-38.1	-39.0	21.0	0.00e+00	0	44	0	2873098240	46	4018
2026-01-15 04:06:35.36	202.47	68.30	-38.4	-39.3	20.7	0.00e+00	0	44	0	2880438272	46	4182
2026-01-15 04:06:36.35	202.38	67.84	-38.3	-39.2	20.8	0.00e+00	0	43	0	2887778304	46	4134
2026-01-15 04:06:37.35	202.29	67.39	-38.2	-39.1	20.9	0.00e+00	0	44	0	2895118336	46	4081
2026-01-15 04:06:38.34	202.21	66.94	-38.2	-39.1	20.9	0.00e+00	0	44	0	2902458368	46	4081
2026-01-15 04:06:39.33	202.13	66.50	-38.0	-38.9	21.1	0.00e+00	0	44	0	2908749824	46	3998
2026-01-15 04:06:40.33	202.05	66.05	-37.8	-38.7	21.3	0.00e+00	0	43	0	2916089856	46	3891
2026-01-15 04:06:41.32	201.98	65.61	-37.8	-38.6	21.3	0.00e+00	0	44	0	2923429888	46	3863
2026-01-15 04:06:42.32	201.91	65.17	-38.0	-38.9	21.2	0.00e+00	0	44	0	2930769920	46	3978
2026-01-15 04:06:43.31	201.84	64.73	-38.3	-39.2	20.9	0.00e+00	0	44	0	2938109952	46	4129
2026-01-15 04:06:44.31	201.78	64.29	-38.6	-39.5	20.6	0.00e+00	0	43	0	2945449984	46	4286
2026-01-15 04:06:45.30	201.72	63.86	-38.6	-39.6	20.5	0.00e+00	0	44	0	2952790016	47	4062
2026-01-15 04:06:46.30	201.66	63.43	-38.5	-39.4	20.7	0.00e+00	0	44	0	2960130048	47	3998
2026-01-15 04:06:47.29	201.60	63.01	-38.6	-39.5	20.6	0.00e+00	0	44	0	2967470080	47	4023
2026-01-15 04:06:48.29	201.55	62.58	-38.5	-39.5	20.6	0.00e+00	0	44	0	2973761536	47	4012
2026-01-15 04:06:49.28	201.49	62.16	-39.1	-40.0	20.2	0.00e+00	0	44	0	2981101568	47	4278
2026-01-15 04:06:50.28	201.44	61.74	-39.6	-40.6	19.9	0.00e+00	0	44	0	2988441600	48	4311
2026-01-15 04:06:51.27	201.39	61.32	-39.8	-40.9	19.7	0.00e+00	0	43	0	2995781632	49	4197
2026-01-15 04:06:52.27	201.34	60.90	-39.7	-40.7	19.8	0.00e+00	0	44	0	3003121664	49	4136
2026-01-15 04:06:53.26	201.30	60.49	-39.5	-40.5	20.0	0.00e+00	0	44	0	3010461696	49	4007
2026-01-15 04:06:54.26	201.25	60.08	-39.3	-40.3	20.2	0.00e+00	0	44	0	3016753152	49	3935
2026-01-15 04:06:55.25	201.21	59.68	-39.4	-40.3	20.2	0.00e+00	0	44	0	3024093184	49	3952
2026-01-15 04:06:56.25	201.17	59.27	-39.6	-40.6	19.9	0.00e+00	0	44	0	3031433216	49	4085
2026-01-15 04:06:57.24	201.13	58.87	-39.7	-40.7	19.8	0.00e+00	0	44	0	3038773248	49	4135
2026-01-15 04:06:58.24	201.09	58.47	-39.8	-40.8	19.7	0.00e+00	0	44	0	3046113280	49	4182
2026-01-15 04:06:59.23	201.05	58.08	-39.8	-40.8	19.7	0.00e+00	0	44	0	3052404736	49	4193
2026-01-15 04:07:00.23	201.02	57.68	-39.8	-40.8	19.7	0.00e+00	0	44	0	3059744768	49	4181
2026-01-15 04:07:01.22	200.98	57.29	-39.8	-40.8	19.8	0.00e+00	0	44	0	3067084800	49	4156
2026-01-15 04:07:02.22	200.95	56.90	-39.7	-40.7	19.8	0.00e+00	0	44	0	3074424832	49	4141
2026-01-15 04:07:03.21	200.91	56.52	-39.7	-40.7	19.8	0.00e+00	0	44	0	3081764864	49	4124
2026-01-15 04:07:04.21	200.88	56.13	-39.7	-40.6	19.7	0.00e+00	0	44	0	3089104896	49	4097
2026-01-15 04:07:05.20	200.85	55.75	-39.6	-40.6	19.9	0.00e+00	0	44	0	3096444928	49	4087
2026-01-15 04:07:06.20	200.82	55.37	-39.6	-40.6	19.9	0.00e+00	0	44	0	3103784960	49	4072
2026-01-15 04:07:07.19	200.79	55.00	-39.7	-40.7	19.8	0.00e+00	0	44	0	3110076416	49	4117
2026-01-15 04:07:08.18	200.76	54.63	-39.7	-40.6	19.9	0.00e+00	0	44	0	3117416448	49	4097
2026-01-15 04:07:09.18	200.73	54.26	-39.5	-40.5	19.9	0.00e+00	0	44	0	3124756480	49	4031
2026-01-15 04:07:10.17	200.71	53.89	-39.5	-40.4	20.1	0.00e+00	0	44	0	3132096512	49	3997
2026-01-15 04:07:11.17	200.68	53.52	-39.4	-40.4	20.0	0.00e+00	0	44	0	3139436544	49	3978
2026-01-15 04:07:12.16	200.66	53.16	-39.6	-40.6	19.9	0.00e+00	0	44	0	3146776576	49	4064
2026-01-15 04:07:13.16	200.63	52.80	-39.6	-40.6	19.9	0.00e+00	0	44	0	3153068032	49	4068
2026-01-15 04:07:14.15	200.61	52.45	-39.7	-40.7	19.8	0.00e+00	0	44	0	3160408064	49	4104
2026-01-15 04:07:15.15	200.58	52.09	-39.7	-40.7	19.8	0.00e+00	0	44	0	3167748096	49	4119
2026-01-15 04:07:16.14	200.56	51.74	-39.8	-40.7	19.7	0.00e+00	0	44	0	3175088128	49	4140
2026-01-15 04:07:17.14	200.54	51.39	-39.9	-40.9	19.5	0.00e+00	0	44	0	3182428160	49	4240
2026-01-15 04:07:18.14	200.52	51.04	-39.8	-40.8	19.7	0.00e+00	0	44	0	3189768192	49	4170
2026-01-15 04:07:19.13	200.50	50.70	-39.7	-40.7	19.8	0.00e+00	0	44	0	3196059648	49	4124
2026-01-15 04:07:20.12	200.48	50.36	-39.7	-40.7	19.8	0.00e+00	0	44	0	3203399680	49	4137
2026-01-15 04:07:21.11	200.46	50.02	-39.7	-40.7	19.8	0.00e+00	0	44	0	3210739712	49	4107
2026-01-15 04:07:22.11	200.44	49.68	-39.4	-40.4	20.0	0.00e+00	0	44	0	3218079744	49	3976
2026-01-15 04:07:23.10	200.42	49.35	-39.2	-40.2	20.3	0.00e+00	0	44	0	3225419776	49	3888
2026-01-15 04:07:24.09	200.40	49.02	-39.0	-40.0	20.4	0.00e+00	0	44	0	3232759808	48	4021
2026-01-15 04:07:25.09	200.38	48.69	-38.9	-39.9	20.4	0.00e+00	0	44	0	3239051264	48	3961
2026-01-15 04:07:26.08	200.36	48.36	-38.9	-39.9	20.5	0.00e+00	0	44	0	3246391296	48	3961
2026-01-15 04:07:27.08	200.35	48.04	-39.0	-40.0	20.4	0.00e+00	0	44	0	3253731328	48	4018
2026-01-15 04:07:28.08	200.33	47.71	-39.0	-40.0	20.4	0.00e+00	0	44	0	3261071360	48	4023
2026-01-15 04:07:29.07	200.31	47.39	-39.1	-40.0	20.4	0.00e+00	0	44	0	3268411392	48	4038
2026-01-15 04:07:30.07	200.30	47.07	-39.0	-39.9	20.5	0.00e+00	0	44	0	3275751424	48	3997
2026-01-15 04:07:31.06	200.28	46.76	-38.9	-39.8	20.6	0.00e+00	0	44	0	3283091456	48	3928
2026-01-15 04:07:32.05	200.27	46.45	-38.8	-39.6	20.7	0.00e+00	0	44	0	3290431488	48	3868
2026-01-15 04:07:33.05	200.25	46.14	-38.4	-39.3	20.8	0.00e+00	0	44	0	3296722944	47	3928
2026-01-15 04:07:34.04	200.24	45.83	-38.2	-39.1	21.0	0.00e+00	0	44	0	3304062976	47	3831
2026-01-15 04:07:35.04	200.22	45.52	-38.2	-39.1	20.8	0.00e+00	0	44	0	3311403008	47	3846
2026-01-15 04:07:36.03	200.21	45.22	-38.2	-39.1	20.8	0.00e+00	0	44	0	3318743040	47	3863
2026-01-15 04:07:37.03	200.20	44.92	-38.4	-39.3	20.7	0.00e+00	0	44	0	3326083072	47	3951
2026-01-15 04:07:38.02	200.18	44.62	-38.5	-39.4	20.6	0.00e+00	0	44	0	3333423104	47	3987
2026-01-15 04:07:39.02	200.17	44.33	-38.5	-39.5	20.6	0.00e+00	0	44	0	3339714560	47	4027
2026-01-15 04:07:40.01	200.16	44.03	-38.6	-39.6	20.5	0.00e+00	0	44	0	3347054592	47	4057
2026-01-15 04:07:41.00	200.14	43.74	-38.6	-39.5	20.5	0.00e+00	0	44	0	3354394624	47	4028
2026-01-15 04:07:42.00	200.13	43.45	-38.5	-39.4	20.7	0.00e+00	0	44	0	3361734656	47	3981
2026-01-15 04:07:42.99	200.12	43.16	-38.4	-39.4	20.7	0.00e+00	0	44	0	3369074688	47	3972
2026-01-15 04:07:43.99	200.11	42.88	-38.4	-39.4	20.7	0.00e+00	0	44	0	3376414720	47	3971
2026-01-15 04:07:44.98	200.10	42.59	-38.6	-39.6	20.5	0.00e+00	0	44	0	3382706176	47	4058
2026-01-15 04:07:45.97	200.09	42.31	-38.8	-39.7	20.1	0.00e+00	0	44	0	3390046208	47	4130
2026-01-15 04:07:46.97	200.08	42.03	-38.6	-39.6	20.5	0.00e+00	0	44	0	3397386240	47	4060
2026-01-15 04:07:47.96	200.07	41.76	-38.6	-39.6	20.4	0.00e+00	0	44	0	3404726272	47	4079
2026-01-15 04:07:48.96	200.06	41.48	-38.6	-39.5	20.5	0.00e+00	0	44	0	3412066304	47	4049
2026-01-15 04:07:49.95	200.05	41.21	-38.5	-39.4	20.6	0.00e+00	0	44	0	3419406336	47	3998
2026-01-15 04:07:50.95	200.04	40.94	-38.5	-39.4	20.6	0.00e+00	0	44	0	3426746368	47	4000
2026-01-15 04:07:51.94	200.03	40.67	-38.3	-39.2	20.8	0.00e+00	0	44	0	3434086400	47	3889
2026-01-15 04:07:52.94	200.02	40.40	-38.2	-39.1	20.9	0.00e+00	0	44	0	3440377856	47	3838
2026-01-15 04:07:53.93	200.01	40.14	-38.1	-39.0	21.0	0.00e+00	0	44	0	3447717888	47	3824
2026-01-15 04:07:54.93	200.00	39.87	-38.1	-39.0	21.0	0.00e+00	0	44	0	3455057920	47	3803
2026-01-15 04:07:55.92	199.99	39.61	-38.0	-38.9	21.0	0.00e+00	0	44	0	3462397952	46	3994
2026-01-15 04:07:56.92	199.98	39.35	-38.2	-39.1	20.8	0.00e+00	0	44	0	3469737984	46	4064
2026-01-15 04:07:57.91	199.97	39.10	-38.2	-39.1	20.9	0.00e+00	0	44	0	3477078016	46	4083
2026-01-15 04:07:58.91	199.96	38.84	-38.2	-39.2	20.8	0.00e+00	0	44	0	3483369472	46	4099
2026-01-15 04:07:59.90	199.96	38.59	-38.2	-39.2	20.8	0.00e+00	0	44	0	3490709504	46	4113
2026-01-15 04:08:00.89	199.95	38.34	-38.3	-39.3	20.8	0.00e+00	0	44	0	3498049536	46	4155
2026-01-15 04:08:01.89	199.94	38.09	-38.3	-39.2	20.8	0.00e+00	0	44	0	3505389568	46	4136
2026-01-15 04:08:02.88	199.93	37.84	-38.2	-39.1	20.9	0.00e+00	0	44	0	3512729600	46	4066
2026-01-15 04:08:03.88	199.93	37.59	-38.0	-38.9	21.1	0.00e+00	0	44	0	3520069632	46	3987
2026-01-15 04:08:04.87	199.92	37.35	-37.8	-38.7	21.2	0.00e+00	0	44	0	3526361088	46	3910
2026-01-15 04:08:05.87	199.91	37.11	-37.7	-38.6	21.3	0.00e+00	0	44	0	3533701120	46	3846
2026-01-15 04:08:06.86	199.90	36.87	-37.6	-38.5	21.4	0.00e+00	0	44	0	3541041152	46	3803
2026-01-15 04:08:07.86	199.90	36.63	-37.5	-38.4	21.5	0.00e+00	0	44	0	3548381184	45	3992
2026-01-15 04:08:08.85	199.89	36.39	-37.6	-38.5	21.4	0.00e+00	0	44	0	3555721216	45	4019
2026-01-15 04:08:09.84	199.88	36.16	-37.7	-38.6	21.3	0.00e+00	0	44	0	3563061248	45	4058
2026-01-15 04:08:10.84	199.88	35.92	-37.7	-38.6	21.3	0.00e+00	0	44	0	3569352704	45	4083
2026-01-15 04:08:11.83	199.87	35.69	-37.8	-38.7	21.2	0.00e+00	0	44	0	3576692736	45	4127
2026-01-15 04:08:12.83	199.86	35.46	-37.9	-38.8	21.1	0.00e+00	0	44	0	3584032768	45	4185
2026-01-15 04:08:13.82	199.86	35.23	-38.0	-38.9	21.0	0.00e+00	0	44	0	3591372800	45	4238
2026-01-15 04:08:14.82	199.85	35.01	-38.1	-39.0	21.0	0.00e+00	0	44	0	3598712832	45	4263
2026-01-15 04:08:15.81	199.85	34.78	-38.1	-39.1	20.9	0.00e+00	0	44	0	3606052864	45	4305
2026-01-15 04:08:16.81	199.84	34.56	-38.2	-39.1	20.9	0.00e+00	0	44	0	3613392896	45	4306
2026-01-15 04:08:17.80	199.84	34.33	-38.2	-39.1	20.8	0.00e+00	0	44	0	3620732928	45	4336
2026-01-15 04:08:18.80	199.83	34.11	-38.2	-39.1	20.9	0.00e+00	0	44	0	3627024384	45	4309
2026-01-15 04:08:19.79	199.83	33.89	-38.1	-39.0	21.0	0.00e+00	0	44	0	3634364416	45	4262
2026-01-15 04:08:20.79	199.82	33.68	-38.1	-39.1	20.9	0.00e+00	0	44	0	3641704448	45	4300
2026-01-15 04:08:21.78	199.82	33.46	-38.1	-39.0	21.0	0.00e+00	0	44	0	3649044480	45	4252
2026-01-15 04:08:22.78	199.81	33.25	-37.9	-38.8	21.1	0.00e+00	0	43	0	3656384512	45	4184
2026-01-15 04:08:23.77	199.81	33.03	-37.9	-38.8	21.1	0.00e+00	0	44	0	3663724544	45	4177
2026-01-15 04:08:24.77	199.80	32.82	-37.9	-38.8	21.1	0.00e+00	0	44	0	3670016000	45	4177
2026-01-15 04:08:25.76	199.80	32.61	-37.9	-38.8	21.2	0.00e+00	0	44	0	3677356032	45	4168
2026-01-15 04:08:26.76	199.79	32.40	-37.8	-38.7	21.1	0.00e+00	0	44	0	3684696064	45	4144
2026-01-15 04:08:27.75	199.79	32.20	-37.9	-38.9	21.1	0.00e+00	0	44	0	3692036096	45	4200
2026-01-15 04:08:28.75	199.78	31.99	-38.0	-38.9	21.0	0.00e+00	0	44	0	3699376128	45	4233
2026-01-15 04:08:29.74	199.78	31.79	-38.0	-38.9	21.1	0.00e+00	0	44	0	3705667584	45	4216
2026-01-15 04:08:30.74	199.77	31.58	-38.1	-39.0	20.9	0.00e+00	0	44	0	3713007616	45	4266
2026-01-15 04:08:31.73	199.77	31.38	-38.1	-39.1	20.9	0.00e+00	0	44	0	3720347648	45	4293
2026-01-15 04:08:32.72	199.77	31.18	-38.1	-39.0	20.9	0.00e+00	0	44	0	3727687680	45	4289
2026-01-15 04:08:33.72	199.76	30.98	-38.2	-39.1	20.9	0.00e+00	0	44	0	3735027712	45	4331
2026-01-15 04:08:34.71	199.76	30.79	-38.3	-39.3	20.8	0.00e+00	0	44	0	3742367744	46	4146
2026-01-15 04:08:35.71	199.75	30.59	-38.3	-39.2	20.8	0.00e+00	0	44	0	3749707776	46	4136
2026-01-15 04:08:36.70	199.75	30.40	-38.2	-39.2	20.8	0.00e+00	0	44	0	3757047808	46	4109
2026-01-15 04:08:37.69	199.75	30.20	-38.3	-39.3	20.7	0.00e+00	0	44	0	3764387840	46	4159
2026-01-15 04:08:38.69	199.74	30.01	-38.3	-39.2	20.8	0.00e+00	0	44	0	3770679296	46	4140
2026-01-15 04:08:39.69	199.74	29.82	-38.2	-39.1	20.9	0.00e+00	0	44	0	3778019328	46	4080
2026-01-15 04:08:40.68	199.74	29.63	-38.2	-39.2	20.8	0.00e+00	0	44	0	3785359360	46	4099
2026-01-15 04:08:41.67	199.73	29.44	-38.1	-39.1	20.9	0.00e+00	0	44	0	3792699392	46	4054
2026-01-15 04:08:42.67	199.73	29.25	-38.1	-39.1	20.9	0.00e+00	0	44	0	3800039424	46	4067
2026-01-15 04:08:43.66	199.73	29.07	-38.1	-39.0	20.9	0.00e+00	0	44	0	3807379456	46	4042
2026-01-15 04:08:44.66	199.72	28.88	-38.1	-39.1	20.9	0.00e+00	0	44	0	3813670912	46	4055
2026-01-15 04:08:45.65	199.72	28.70	-38.1	-39.1	20.9	0.00e+00	0	44	0	3821010944	46	4055
2026-01-15 04:08:46.64	199.72	28.52	-38.1	-39.0	20.9	0.00e+00	0	44	0	3828350976	46	4042
2026-01-15 04:08:47.64	199.72	28.34	-38.1	-39.1	20.8	0.00e+00	0	44	0	3835691008	46	4055
2026-01-15 04:08:48.63	199.71	28.16	-38.2	-39.2	20.8	0.00e+00	0	44	0	3843031040	46	4099
2026-01-15 04:08:49.63	199.71	27.98	-38.2	-39.1	20.8	0.00e+00	0	44	0	3849322496	46	4097
2026-01-15 04:08:50.62	199.71	27.80	-38.2	-39.1	20.8	0.00e+00	0	44	0	3856662528	46	4093
2026-01-15 04:08:51.62	199.70	27.63	-38.3	-39.3	20.7	0.00e+00	0	44	0	3864002560	46	4162
2026-01-15 04:08:52.61	199.70	27.45	-38.3	-39.2	20.8	0.00e+00	0	44	0	3871342592	46	4123
2026-01-15 04:08:53.61	199.70	27.28	-38.3	-39.2	20.7	0.00e+00	0	44	0	3878682624	46	4144
2026-01-15 04:08:54.60	199.70	27.10	-38.3	-39.3	20.7	0.00e+00	0	44	0	3886022656	46	4166
2026-01-15 04:08:55.60	199.69	26.93	-38.4	-39.4	20.6	0.00e+00	0	44	0	3893362688	46	4211
2026-01-15 04:08:56.59	199.69	26.76	-38.4	-39.4	20.6	0.00e+00	0	44	0	3899654144	46	4195
2026-01-15 04:08:57.59	199.69	26.59	-38.5	-39.4	20.6	0.00e+00	0	44	0	3906994176	46	4223
2026-01-15 04:08:58.58	199.69	26.42	-38.5	-39.5	20.5	0.00e+00	0	44	0	3914334208	46	4256
2026-01-15 04:08:59.58	199.69	26.25	-38.6	-39.5	20.4	0.00e+00	0	44	0	3921674240	46	4291
2026-01-15 04:09:00.57	199.68	26.09	-38.6	-39.5	20.5	0.00e+00	0	44	0	3929014272	46	4272
2026-01-15 04:09:01.57	199.68	25.92	-38.6	-39.6	20.4	0.00e+00	0	44	0	3936354304	46	4311
2026-01-15 04:09:02.56	199.68	25.76	-38.6	-39.5	20.5	0.00e+00	0	43	0	3943694336	46	4290
2026-01-15 04:09:03.56	199.68	25.59	-38.5	-39.5	20.6	0.00e+00	0	44	0	3951034368	46	4253
2026-01-15 04:09:04.55	199.68	25.43	-38.5	-39.5	20.5	0.00e+00	0	44	0	3957325824	46	4262
2026-01-15 04:09:05.54	199.67	25.27	-38.5	-39.5	20.5	0.00e+00	0	44	0	3964665856	46	4270
2026-01-15 04:09:06.54	199.67	25.11	-38.6	-39.5	20.5	0.00e+00	0	44	0	3972005888	46	4269
2026-01-15 04:09:07.54	199.67	24.95	-38.6	-39.6	20.4	0.00e+00	0	44	0	3979345920	46	4307
2026-01-15 04:09:08.53	199.67	24.79	-38.5	-39.5	20.5	0.00e+00	0	44	0	3986685952	46	4246
2026-01-15 04:09:09.52	199.67	24.63	-38.5	-39.4	20.6	0.00e+00	0	44	0	3992977408	46	4225
2026-01-15 04:09:10.52	199.67	24.48	-38.5	-39.5	20.5	0.00e+00	0	44	0	4000317440	46	4254
2026-01-15 04:09:11.51	199.66	24.32	-38.6	-39.6	20.4	0.00e+00	0	44	0	4007657472	46	4296
2026-01-15 04:09:12.51	199.66	24.16	-38.6	-39.5	20.5	0.00e+00	0	44	0	4014997504	46	4272
2026-01-15 04:09:13.50	199.66	24.01	-38.5	-39.5	20.5	0.00e+00	0	44	0	4022337536	46	4257
2026-01-15 04:09:14.49	199.66	23.86	-38.5	-39.4	20.5	0.00e+00	0	44	0	4029677568	46	4232
2026-01-15 04:09:15.49	199.66	23.71	-38.6	-39.5	20.5	0.00e+00	0	44	0	4035969024	46	4279
2026-01-15 04:09:16.48	199.66	23.56	-38.5	-39.5	20.5	0.00e+00	0	44	0	4043309056	46	4250
2026-01-15 04:09:17.48	199.66	23.40	-38.5	-39.4	20.5	0.00e+00	0	44	0	4050649088	46	4234
2026-01-15 04:09:18.47	199.65	23.25	-38.5	-39.4	20.5	0.00e+00	0	44	0	4057989120	46	4238
2026-01-15 04:09:19.47	199.65	23.11	-38.5	-39.4	20.5	0.00e+00	0	44	0	4065329152	46	4230
2026-01-15 04:09:20.46	199.65	22.96	-38.5	-39.4	20.6	0.00e+00	0	44	0	4072669184	46	4234
2026-01-15 04:09:21.46	199.65	22.81	-38.5	-39.5	20.5	0.00e+00	0	44	0	4080009216	46	4246
2026-01-15 04:09:22.45	199.65	22.67	-38.5	-39.5	20.5	0.00e+00	0	44	0	4087349248	46	4252
2026-01-15 04:09:23.45	199.65	22.52	-38.6	-39.5	20.4	0.00e+00	0	44	0	4093640704	46	4284
2026-01-15 04:09:24.44	199.65	22.38	-38.6	-39.5	20.4	0.00e+00	0	44	0	4100980736	46	4276
2026-01-15 04:09:25.44	199.65	22.23	-38.6	-39.5	20.4	0.00e+00	0	44	0	4108320768	46	4291
2026-01-15 04:09:26.43	199.65	22.09	-38.6	-39.6	20.4	0.00e+00	0	44	0	4115660800	46	4311
2026-01-15 04:09:27.43	199.64	21.95	-38.7	-39.7	20.3	0.00e+00	0	44	0	4123000832	46	4359
2026-01-15 04:09:28.42	199.64	21.80	-38.7	-39.6	20.3	0.00e+00	0	44	0	4130340864	46	4318
2026-01-15 04:09:29.42	199.64	21.66	-38.7	-39.6	20.3	0.00e+00	0	44	0	4136632320	46	4330
2026-01-15 04:09:30.41	199.64	21.52	-38.8	-39.7	20.2	0.00e+00	0	44	0	4143972352	46	4382
2026-01-15 04:09:31.40	199.64	21.39	-38.8	-39.7	20.2	0.00e+00	0	44	0	4151312384	47	4143
2026-01-15 04:09:32.40	199.64	21.25	-38.8	-39.7	20.3	0.00e+00	0	44	0	4158652416	47	4128
2026-01-15 04:09:33.39	199.64	21.11	-38.8	-39.8	20.2	0.00e+00	0	44	0	4165992448	47	4151
2026-01-15 04:09:34.39	199.64	20.97	-38.8	-39.7	20.2	0.00e+00	0	44	0	4173332480	47	4142
2026-01-15 04:09:35.38	199.64	20.84	-38.8	-39.8	20.2	0.00e+00	0	44	0	4179623936	47	4166
2026-01-15 04:09:36.38	199.64	20.70	-38.8	-39.8	20.1	0.00e+00	0	44	0	4186963968	47	4183
2026-01-15 04:09:37.37	199.64	20.57	-38.8	-39.8	20.2	0.00e+00	0	44	0	4194304000	47	4172
2026-01-15 04:09:38.37	199.64	20.43	-38.9	-39.9	20.1	0.00e+00	0	44	0	4201644032	47	4205
2026-01-15 04:09:39.36	199.64	20.30	-38.9	-39.9	20.1	0.00e+00	0	44	0	4208984064	47	4222
2026-01-15 04:09:40.35	199.64	20.17	-38.9	-39.9	20.0	0.00e+00	0	44	0	4216324096	47	4226
2026-01-15 04:09:41.35	199.63	20.04	-39.0	-40.0	20.0	0.00e+00	0	44	0	4223664128	47	4250
2026-01-15 04:09:42.34	199.63	19.91	-39.0	-39.9	20.0	0.00e+00	0	44	0	4231004160	47	4236
2026-01-15 04:09:43.34	199.63	19.78	-39.0	-40.0	20.0	0.00e+00	0	44	0	4237295616	47	4278
2026-01-15 04:09:44.33	199.63	19.65	-39.0	-40.0	20.0	0.00e+00	0	44	0	4244635648	47	4281
2026-01-15 04:09:45.33	199.63	19.52	-39.1	-40.1	19.9	0.00e+00	0	44	0	4251975680	47	4299
2026-01-15 04:09:46.32	199.63	19.39	-39.0	-40.0	19.9	0.00e+00	0	44	0	4259315712	47	4288
2026-01-15 04:09:47.31	199.63	19.26	-39.1	-40.1	19.9	0.00e+00	0	43	0	4266655744	47	4327
2026-01-15 04:09:48.31	199.63	19.13	-39.2	-40.2	19.8	0.00e+00	0	44	0	4273995776	47	4362
2026-01-15 04:09:49.30	199.63	19.01	-39.2	-40.2	19.7	0.00e+00	0	44	0	4280287232	47	4389
2026-01-15 04:09:50.30	199.63	18.88	-39.2	-40.2	19.8	0.00e+00	0	44	0	4287627264	47	4365
2026-01-15 04:09:51.29	199.63	18.76	-39.2	-40.2	19.8	0.00e+00	0	44	0	4294967296	47	4354
2026-01-15 04:09:52.29	199.63	18.63	-39.2	-40.2	19.8	0.00e+00	0	44	0	4302307328	47	4362
2026-01-15 04:09:53.28	199.63	18.51	-39.2	-40.2	19.8	0.00e+00	0	44	0	4309647360	47	4373
2026-01-15 04:09:54.28	199.63	18.39	-39.3	-40.3	19.7	0.00e+00	0	44	0	4316987392	47	4405
2026-01-15 04:09:55.27	199.63	18.26	-39.2	-40.2	19.8	0.00e+00	0	44	0	4323278848	47	4351
2026-01-15 04:09:56.26	199.63	18.14	-39.3	-40.3	19.7	0.00e+00	0	44	0	4330618880	47	4403
2026-01-15 04:09:57.26	199.63	18.02	-39.3	-40.3	19.7	0.00e+00	0	44	0	4337958912	47	4408
2026-01-15 04:09:58.25	199.63	17.90	-39.4	-40.4	19.8	0.00e+00	0	44	0	4345298944	48	4218
2026-01-15 04:09:59.25	199.63	17.78	-39.4	-40.4	19.9	0.00e+00	0	44	0	4352638976	48	4204
2026-01-15 04:10:00.24	199.63	17.66	-39.4	-40.4	19.8	0.00e+00	0	44	0	4358930432	48	4240
2026-01-15 04:10:01.24	199.63	17.54	-39.5	-40.5	19.8	0.00e+00	0	44	0	4366270464	48	4253
2026-01-15 04:10:02.23	199.63	17.42	-39.5	-40.5	19.8	0.00e+00	0	44	0	4373610496	48	4245
2026-01-15 04:10:03.23	199.63	17.30	-39.5	-40.5	19.8	0.00e+00	0	44	0	4380950528	48	4263
2026-01-15 04:10:04.22	199.63	17.19	-39.5	-40.5	19.7	0.00e+00	0	44	0	4388290560	48	4282
2026-01-15 04:10:05.21	199.63	17.07	-39.5	-40.5	19.7	0.00e+00	0	44	0	4395630592	48	4280
2026-01-15 04:10:06.21	199.63	16.96	-39.6	-40.6	19.7	0.00e+00	0	44	0	4402970624	48	4303
2026-01-15 04:10:07.20	199.63	16.84	-39.6	-40.6	19.6	0.00e+00	0	44	0	4410310656	48	4338
2026-01-15 04:10:08.20	199.63	16.72	-39.6	-40.6	19.6	0.00e+00	0	44	0	4417650688	48	4335
2026-01-15 04:10:09.19	199.63	16.61	-39.8	-40.8	19.5	0.00e+00	0	44	0	4423942144	48	4402
2026-01-15 04:10:10.19	199.63	16.50	-39.7	-40.7	19.5	0.00e+00	0	44	0	4431282176	48	4387
2026-01-15 04:10:11.18	199.63	16.38	-39.8	-40.8	19.5	0.00e+00	0	44	0	4438622208	49	4174
2026-01-15 04:10:12.18	199.63	16.27	-39.8	-40.8	19.5	0.00e+00	0	44	0	4445962240	49	4169
2026-01-15 04:10:13.17	199.63	16.16	-39.9	-40.9	19.4	0.00e+00	0	44	0	4453302272	49	4202
2026-01-15 04:10:14.17	199.63	16.05	-40.0	-41.0	19.3	0.00e+00	0	44	0	4460642304	49	4258
2026-01-15 04:10:15.16	199.63	15.93	-40.0	-41.1	19.2	0.00e+00	0	44	0	4466933760	49	4293
2026-01-15 04:10:16.16	199.63	15.82	-40.0	-41.0	19.2	0.00e+00	0	44	0	4474273792	49	4268
2026-01-15 04:10:17.15	199.63	15.71	-40.0	-41.0	19.3	0.00e+00	0	44	0	4481613824	49	4271
2026-01-15 04:10:18.15	199.63	15.60	-40.0	-41.0	19.2	0.00e+00	0	44	0	4488953856	49	4280
2026-01-15 04:10:19.14	199.63	15.49	-40.1	-41.1	19.1	0.00e+00	0	44	0	4496293888	49	4337
2026-01-15 04:10:20.14	199.63	15.38	-40.2	-41.2	19.0	0.00e+00	0	44	0	4502585344	49	4384
2026-01-15 04:10:21.13	199.64	15.28	-40.2	-41.2	19.0	0.00e+00	0	44	0	4509925376	49	4380
2026-01-15 04:10:22.13	199.64	15.17	-40.2	-41.2	19.1	0.00e+00	0	44	0	4517265408	49	4372
2026-01-15 04:10:23.12	199.64	15.06	-40.3	-41.4	18.9	0.00e+00	0	44	0	4524605440	50	4211
2026-01-15 04:10:24.11	199.64	14.95	-40.4	-41.4	18.9	0.00e+00	0	44	0	4531945472	50	4226
2026-01-15 04:10:25.11	199.64	14.85	-40.3	-41.3	19.0	0.00e+00	0	44	0	4539285504	50	4172
2026-01-15 04:10:26.10	199.64	14.74	-40.4	-41.4	18.9	0.00e+00	0	44	0	4546625536	50	4228
2026-01-15 04:10:27.10	199.64	14.64	-40.4	-41.5	18.8	0.00e+00	0	44	0	4553965568	50	4256
2026-01-15 04:10:28.09	199.64	14.53	-40.5	-41.5	18.7	0.00e+00	0	44	0	4561305600	50	4289
2026-01-15 04:10:29.09	199.64	14.43	-40.5	-41.6	18.7	0.00e+00	0	44	0	4567597056	50	4297
2026-01-15 04:10:30.08	199.64	14.32	-40.5	-41.6	18.7	0.00e+00	0	44	0	4574937088	50	4292
2026-01-15 04:10:31.08	199.64	14.22	-40.5	-41.6	18.7	0.00e+00	0	44	0	4582277120	50	4318
2026-01-15 04:10:32.07	199.64	14.12	-40.6	-41.6	18.6	0.00e+00	0	44	0	4589617152	50	4336
2026-01-15 04:10:33.06	199.64	14.01	-40.7	-41.8	18.5	0.00e+00	0	44	0	4596957184	50	4392
2026-01-15 04:10:34.06	199.64	13.91	-40.7	-41.7	18.5	0.00e+00	0	44	0	4604297216	50	4387
2026-01-15 04:10:35.05	199.64	13.81	-40.7	-41.8	18.5	0.00e+00	0	44	0	4610588672	50	4405
2026-01-15 04:10:36.05	199.64	13.71	-40.7	-41.8	18.4	0.00e+00	0	44	0	4617928704	51	4193
2026-01-15 04:10:37.04	199.64	13.61	-40.7	-41.7	18.5	0.00e+00	0	44	0	4625268736	51	4141
2026-01-15 04:10:38.04	199.64	13.50	-40.7	-41.8	18.5	0.00e+00	0	44	0	4632608768	51	4159
2026-01-15 04:10:39.03	199.65	13.40	-40.8	-41.9	18.4	0.00e+00	0	44	0	4639948800	51	4218
2026-01-15 04:10:40.02	199.65	13.31	-40.8	-41.9	18.4	0.00e+00	0	44	0	4646240256	51	4202
2026-01-15 04:10:41.02	199.65	13.21	-40.7	-41.8	18.4	0.00e+00	0	44	0	4653580288	51	4193
2026-01-15 04:10:42.01	199.65	13.11	-40.8	-41.9	18.3	0.00e+00	0	44	0	4660920320	51	4241
2026-01-15 04:10:43.01	199.65	13.01	-40.8	-42.0	18.3	0.00e+00	0	44	0	4668260352	51	4251
2026-01-15 04:10:44.00	199.65	12.91	-40.8	-42.0	18.3	0.00e+00	0	44	0	4675600384	51	4253
2026-01-15 04:10:45.00	199.65	12.81	-40.8	-42.0	18.3	0.00e+00	0	44	0	4682940416	51	4253
