passes_logs/2026/01/15/T1/T1__20260115_213046_FENGYUN_3G_rec.log

#Pass ID: 20260115_213046_FENGYUN 3G
#Satellite: FENGYUN 3G
#Configuration: FENGYUN 3G
#almurnet v.1.7.20251203
#Start time: 2026-01-15 21:30:46

#Version: 2.0.20230620
#Station: T1
#Location: 37.570604 lon 55.790049 lat
#TLE: 1 56232U 23055A   26015.17772624  .00018907  00000+0  29824-3 0  9995
#TLE: 2 56232  49.9942  55.0157 0004230  27.8148 332.3045 15.53505157156222

#Time	Az	El	Level	Level2	SNR	BER	BlckErr	Temp	State	Recorded	gain1	gain2
2026-01-15 21:30:46.86	219.65	5.01	-48.7	-67.8	3.8	8.47e-01	0	35	0	0	69	31595
2026-01-15 21:30:47.85	219.53	5.08	-48.7	-67.6	3.8	8.39e-01	0	35	104	0	69	31055
2026-01-15 21:30:48.84	219.42	5.15	-48.7	-67.7	3.8	8.47e-01	0	36	104	0	69	31255
2026-01-15 21:30:49.84	219.30	5.22	-48.7	-67.8	3.8	8.47e-01	0	36	104	0	69	31501
2026-01-15 21:30:50.83	219.18	5.30	-48.7	-67.7	3.8	8.47e-01	0	36	104	0	69	31430
2026-01-15 21:30:51.83	219.06	5.37	-48.7	-67.7	3.8	8.47e-01	0	36	104	0	69	31231
2026-01-15 21:30:52.82	218.94	5.44	-48.7	-67.6	3.8	8.47e-01	0	36	104	0	69	31060
2026-01-15 21:30:53.81	218.82	5.51	-48.7	-67.6	3.8	8.47e-01	0	36	104	0	69	30946
2026-01-15 21:30:54.80	218.69	5.58	-48.7	-67.6	3.8	8.47e-01	0	36	104	0	69	31084
2026-01-15 21:30:55.80	218.57	5.65	-48.7	-67.5	3.8	8.46e-01	0	36	104	0	69	30703
2026-01-15 21:30:56.79	218.45	5.72	-48.7	-67.5	3.8	8.46e-01	0	36	104	0	69	30397
2026-01-15 21:30:57.78	218.32	5.79	-48.7	-67.4	3.8	8.47e-01	0	36	104	0	69	30342
2026-01-15 21:30:58.78	218.19	5.87	-48.7	-67.5	3.8	8.46e-01	0	36	104	0	69	30534
2026-01-15 21:30:59.77	218.07	5.94	-48.7	-67.5	3.8	8.46e-01	0	36	104	0	69	30656
2026-01-15 21:31:00.76	217.94	6.01	-48.7	-67.5	3.8	8.47e-01	0	36	104	0	69	30730
2026-01-15 21:31:01.76	217.81	6.08	-48.7	-67.6	3.8	8.47e-01	0	36	104	0	69	30795
2026-01-15 21:31:02.75	217.68	6.16	-48.7	-67.6	3.8	8.47e-01	0	36	104	0	69	30949
2026-01-15 21:31:03.75	217.55	6.23	-48.7	-67.7	3.8	8.46e-01	0	36	104	0	69	31097
2026-01-15 21:31:04.74	217.42	6.30	-48.7	-67.6	3.8	8.47e-01	0	36	104	0	69	30815
2026-01-15 21:31:05.73	217.29	6.38	-48.7	-67.7	3.8	8.46e-01	0	36	104	0	69	31211
2026-01-15 21:31:06.73	217.15	6.45	-48.7	-67.7	3.8	8.46e-01	0	36	104	0	69	31203
2026-01-15 21:31:07.72	217.02	6.52	-48.7	-67.6	3.8	8.46e-01	0	36	104	0	69	31076
2026-01-15 21:31:08.71	216.88	6.60	-48.7	-67.6	3.8	8.47e-01	0	36	104	0	69	30799
2026-01-15 21:31:09.71	216.75	6.67	-48.7	-67.5	3.8	8.47e-01	0	36	104	0	69	30553
2026-01-15 21:31:10.70	216.61	6.75	-48.7	-67.5	3.8	8.47e-01	0	36	104	0	69	30580
2026-01-15 21:31:11.69	216.47	6.82	-48.7	-67.4	3.8	8.47e-01	0	36	104	0	69	30113
2026-01-15 21:31:12.69	216.33	6.90	-48.7	-67.3	3.8	8.47e-01	0	36	104	0	69	29797
2026-01-15 21:31:13.68	216.19	6.97	-48.7	-67.1	3.8	8.46e-01	0	36	104	0	69	29134
2026-01-15 21:31:14.68	216.05	7.05	-48.7	-67.1	3.8	8.47e-01	0	36	104	0	69	29179
2026-01-15 21:31:15.67	215.91	7.12	-48.7	-67.2	3.8	8.47e-01	0	36	104	0	69	29493
2026-01-15 21:31:16.66	215.77	7.20	-48.7	-67.4	3.8	8.47e-01	0	37	104	0	69	30284
2026-01-15 21:31:17.65	215.62	7.27	-48.7	-67.6	3.8	8.47e-01	0	36	104	0	69	30931
2026-01-15 21:31:18.65	215.48	7.35	-48.7	-67.7	3.8	8.47e-01	0	37	104	0	69	31161
2026-01-15 21:31:19.64	215.33	7.43	-48.7	-67.7	3.8	8.47e-01	0	37	104	0	69	31242
2026-01-15 21:31:20.63	215.18	7.50	-48.7	-67.7	3.8	8.47e-01	0	37	104	0	69	31250
2026-01-15 21:31:21.63	215.03	7.58	-48.7	-67.7	3.8	8.47e-01	0	37	104	0	69	31162
2026-01-15 21:31:22.62	214.88	7.66	-48.7	-67.6	3.8	8.46e-01	0	37	104	0	69	30808
2026-01-15 21:31:23.61	214.73	7.73	-48.7	-67.5	3.8	8.46e-01	0	37	104	0	69	30532
2026-01-15 21:31:24.61	214.58	7.81	-48.7	-67.5	3.8	8.46e-01	0	37	104	0	69	30697
2026-01-15 21:31:25.60	214.43	7.89	-48.7	-67.7	3.8	8.48e-01	0	37	104	0	69	31277
2026-01-15 21:31:26.60	214.27	7.97	-48.7	-67.8	3.8	8.47e-01	0	37	104	0	69	31469
2026-01-15 21:31:27.59	214.12	8.05	-48.7	-67.6	3.8	8.46e-01	0	37	104	0	69	31043
2026-01-15 21:31:28.58	213.96	8.12	-48.7	-67.3	3.8	8.46e-01	0	37	104	0	69	29984
2026-01-15 21:31:29.58	213.80	8.20	-48.7	-66.9	3.8	8.46e-01	0	37	104	0	69	28512
2026-01-15 21:31:30.57	213.64	8.28	-48.7	-66.5	3.8	8.47e-01	0	37	104	0	69	27133
2026-01-15 21:31:31.57	213.48	8.36	-48.6	-65.9	3.8	8.47e-01	0	37	104	0	69	25489
2026-01-15 21:31:32.56	213.32	8.44	-48.6	-65.9	3.8	8.47e-01	0	37	104	0	69	25370
2026-01-15 21:31:33.55	213.16	8.52	-48.7	-66.8	3.8	8.48e-01	0	37	104	0	69	28125
2026-01-15 21:31:34.55	213.00	8.60	-48.7	-67.7	3.8	8.48e-01	0	37	104	0	69	31167
2026-01-15 21:31:35.54	212.83	8.68	-48.6	-65.6	3.9	8.47e-01	0	37	104	0	69	24544
2026-01-15 21:31:36.53	212.67	8.76	-48.4	-60.7	5.9	8.29e-01	0	37	0	0	68	14790
2026-01-15 21:31:37.53	212.50	8.84	-47.7	-56.8	9.4	8.29e-01	0	37	0	0	67	9971
2026-01-15 21:31:38.52	212.33	8.92	-47.0	-53.8	12.6	1.68e-01	0	37	0	0	66	7462
2026-01-15 21:31:39.51	212.16	9.00	-46.3	-51.8	14.7	6.20e-04	0	37	0	0	64	6670
2026-01-15 21:31:40.51	211.99	9.08	-45.9	-50.6	16.1	6.20e-04	0	37	0	0	63	6199
2026-01-15 21:31:41.52	211.81	9.16	-45.7	-50.3	16.1	0.00e+00	0	37	0	0	63	5973
2026-01-15 21:31:42.55	211.63	9.25	-45.8	-50.5	16.6	0.00e+00	0	37	0	0	62	6447
2026-01-15 21:31:43.54	211.46	9.33	-46.8	-52.8	13.7	0.00e+00	0	37	0	0	65	7098
2026-01-15 21:31:44.54	211.28	9.41	-44.9	-48.9	17.1	1.48e-04	0	37	0	0	62	5401
2026-01-15 21:31:45.53	211.10	9.49	-43.4	-46.5	20.2	4.54e-04	0	37	0	0	58	5149
2026-01-15 21:31:46.53	210.92	9.57	-43.3	-46.5	20.2	0.00e+00	0	37	0	0	58	5111
2026-01-15 21:31:47.52	210.74	9.66	-43.1	-46.2	20.6	0.00e+00	0	37	0	0	58	4937
2026-01-15 21:31:48.52	210.56	9.74	-42.6	-45.4	21.3	0.00e+00	0	37	0	0	57	4782
2026-01-15 21:31:49.52	210.37	9.82	-42.3	-45.0	21.7	0.00e+00	0	37	0	0	56	4841
2026-01-15 21:31:50.51	210.19	9.91	-42.2	-44.9	21.8	0.00e+00	0	37	0	0	56	4782
2026-01-15 21:31:51.51	210.00	9.99	-41.8	-44.4	22.1	0.00e+00	0	37	0	0	55	4786
2026-01-15 21:31:52.50	209.81	10.07	-41.6	-44.2	22.4	0.00e+00	0	37	0	0	55	4660
2026-01-15 21:31:53.50	209.62	10.16	-41.5	-44.1	22.5	0.00e+00	0	37	0	0	55	4599
2026-01-15 21:31:54.49	209.43	10.24	-41.4	-44.0	22.6	0.00e+00	0	37	0	0	54	4839
2026-01-15 21:31:55.49	209.24	10.32	-41.4	-44.0	22.6	0.00e+00	0	37	0	0	54	4831
2026-01-15 21:31:56.48	209.05	10.41	-41.4	-44.0	22.5	0.00e+00	0	37	0	0	54	4841
2026-01-15 21:31:57.48	208.85	10.49	-41.3	-43.9	22.6	0.00e+00	0	37	0	0	54	4778
2026-01-15 21:31:58.47	208.65	10.58	-41.3	-43.9	22.7	0.00e+00	0	37	0	0	54	4760
2026-01-15 21:31:59.47	208.45	10.66	-41.3	-43.8	22.8	0.00e+00	0	37	0	0	54	4707
2026-01-15 21:32:00.46	208.25	10.75	-41.4	-43.9	22.7	0.00e+00	0	37	0	0	54	4771
2026-01-15 21:32:01.46	208.05	10.83	-41.4	-43.9	22.7	0.00e+00	0	37	0	0	54	4778
2026-01-15 21:32:02.45	207.85	10.92	-41.5	-44.0	22.6	0.00e+00	0	37	0	0	54	4859
2026-01-15 21:32:03.44	207.64	11.00	-41.4	-43.9	22.6	0.00e+00	0	37	0	0	54	4794
2026-01-15 21:32:04.44	207.44	11.09	-41.4	-43.9	22.7	0.00e+00	0	37	0	0	54	4792
2026-01-15 21:32:05.43	207.23	11.17	-41.4	-43.9	22.7	0.00e+00	0	37	0	0	54	4788
2026-01-15 21:32:06.43	207.02	11.26	-41.3	-43.9	22.6	0.00e+00	0	37	0	0	54	4777
2026-01-15 21:32:07.42	206.81	11.34	-41.1	-43.6	22.8	0.00e+00	0	37	0	0	54	4649
2026-01-15 21:32:08.42	206.59	11.43	-40.9	-43.3	23.2	0.00e+00	0	37	0	0	53	4721
2026-01-15 21:32:09.41	206.38	11.52	-40.7	-43.1	23.4	0.00e+00	0	37	0	0	53	4609
2026-01-15 21:32:10.41	206.16	11.60	-40.6	-42.9	23.6	0.00e+00	0	37	0	0	53	4530
2026-01-15 21:32:11.40	205.95	11.69	-40.4	-42.8	23.7	0.00e+00	0	37	0	0	52	4734
2026-01-15 21:32:12.40	205.72	11.78	-40.3	-42.7	23.9	0.00e+00	0	37	0	0	52	4656
2026-01-15 21:32:13.40	205.50	11.86	-40.5	-42.9	23.7	0.00e+00	0	37	0	0	52	4761
2026-01-15 21:32:14.39	205.28	11.95	-40.6	-42.9	23.6	0.00e+00	0	37	0	0	52	4805
2026-01-15 21:32:15.43	205.04	12.04	-40.6	-43.0	23.5	0.00e+00	0	37	0	0	52	4854
2026-01-15 21:32:16.40	204.82	12.13	-40.7	-43.1	23.5	0.00e+00	0	37	0	0	52	4891
2026-01-15 21:32:17.45	204.58	12.22	-40.8	-43.2	23.3	0.00e+00	0	37	0	0	52	4981
2026-01-15 21:32:18.31	204.38	12.29	-40.8	-43.3	23.3	0.00e+00	0	37	0	0	52	4987
2026-01-15 21:32:19.45	204.12	12.39	-40.8	-43.3	23.3	0.00e+00	0	37	0	0	52	4991
2026-01-15 21:32:20.30	203.92	12.47	-40.8	-43.2	23.4	0.00e+00	0	38	0	0	52	4964
2026-01-15 21:32:21.44	203.65	12.57	-40.5	-42.9	23.7	0.00e+00	0	37	0	0	52	4760
2026-01-15 21:32:22.29	203.44	12.64	-40.4	-42.7	23.9	0.00e+00	0	37	0	0	52	4689
2026-01-15 21:32:23.43	203.17	12.75	-40.3	-42.7	23.9	0.00e+00	0	37	0	0	52	4653
2026-01-15 21:32:24.28	202.96	12.82	-40.3	-42.6	24.0	0.00e+00	0	37	0	0	52	4650
2026-01-15 21:32:25.42	202.68	12.92	-40.4	-42.7	23.9	0.00e+00	0	38	0	0	52	4689
2026-01-15 21:32:26.27	202.47	13.00	-40.4	-42.7	23.8	0.00e+00	0	37	0	0	52	4697
2026-01-15 21:32:27.41	202.19	13.10	-40.3	-42.7	23.8	0.00e+00	0	37	0	0	52	4686
2026-01-15 21:32:28.26	201.98	13.17	-40.4	-42.8	23.8	0.00e+00	0	37	0	0	52	4710
2026-01-15 21:32:29.40	201.69	13.27	-40.5	-42.9	23.7	0.00e+00	0	37	0	0	52	4768
2026-01-15 21:32:30.25	201.47	13.35	-40.4	-42.7	23.8	0.00e+00	0	37	0	0	52	4698
2026-01-15 21:32:31.51	201.15	13.46	-40.3	-42.7	23.9	0.00e+00	0	37	0	0	52	4676
2026-01-15 21:32:32.22	200.97	13.52	-40.3	-42.6	24.0	0.00e+00	0	38	0	0	52	4628
2026-01-15 21:32:33.69	200.58	13.65	-40.0	-42.3	24.3	0.00e+00	0	38	0	0	52	4462
2026-01-15 21:32:34.66	200.33	13.74	-40.0	-42.2	24.3	0.00e+00	0	38	0	0	52	4431
2026-01-15 21:32:35.97	199.98	13.86	-39.9	-42.1	24.5	0.00e+00	0	37	0	0	51	4632
2026-01-15 21:32:36.68	199.79	13.92	-39.7	-41.9	24.7	0.00e+00	0	38	0	0	51	4535
2026-01-15 21:32:37.96	199.44	14.03	-39.8	-42.0	24.6	0.00e+00	0	37	0	0	51	4548
2026-01-15 21:32:38.69	199.25	14.10	-39.7	-41.9	24.6	0.00e+00	0	37	0	0	51	4543
2026-01-15 21:32:39.96	198.90	14.21	-40.0	-42.2	24.4	0.00e+00	0	37	0	0	51	4693
2026-01-15 21:32:40.69	198.70	14.27	-40.1	-42.3	24.3	0.00e+00	0	37	0	0	51	4739
2026-01-15 21:32:41.97	198.34	14.39	-40.2	-42.5	24.1	0.00e+00	0	38	0	0	51	4840
2026-01-15 21:32:42.68	198.14	14.45	-40.4	-42.8	23.9	0.00e+00	0	38	0	0	51	5013
2026-01-15 21:32:44.01	197.77	14.57	-40.5	-42.8	23.9	0.00e+00	0	38	0	0	51	5025
2026-01-15 21:32:44.72	197.57	14.63	-40.4	-42.8	23.9	0.00e+00	0	38	0	0	51	4995
2026-01-15 21:32:46.06	197.18	14.75	-40.3	-42.6	24.0	0.00e+00	0	37	0	0	51	4921
2026-01-15 21:32:46.77	196.98	14.81	-40.0	-42.3	24.4	0.00e+00	0	38	0	0	51	4727
2026-01-15 21:32:48.05	196.60	14.92	-39.6	-41.8	24.9	0.00e+00	0	37	0	0	51	4454
2026-01-15 21:32:48.77	196.39	14.99	-39.5	-41.7	24.9	0.00e+00	0	38	0	0	51	4427
2026-01-15 21:32:50.05	196.01	15.10	-39.4	-41.5	25.1	0.00e+00	0	37	0	0	50	4595
2026-01-15 21:32:50.76	195.80	15.16	-39.5	-41.7	24.9	0.00e+00	0	37	0	0	50	4689
2026-01-15 21:32:52.04	195.42	15.27	-39.3	-41.5	25.1	0.00e+00	0	37	0	0	50	4586
2026-01-15 21:32:52.78	195.20	15.34	-39.4	-41.6	25.1	0.00e+00	0	37	0	0	50	4623
2026-01-15 21:32:54.06	194.81	15.45	-39.5	-41.8	24.9	0.00e+00	0	38	0	0	50	4717
2026-01-15 21:32:54.78	194.58	15.51	-39.8	-42.0	24.7	0.00e+00	0	38	0	0	50	4870
2026-01-15 21:32:56.06	194.19	15.62	-39.9	-42.2	24.5	0.00e+00	0	38	0	0	50	4931
2026-01-15 21:32:56.80	193.96	15.68	-40.0	-42.3	24.4	0.00e+00	0	38	0	0	50	4988
2026-01-15 21:32:58.08	193.56	15.79	-40.2	-42.4	24.3	0.00e+00	0	38	0	0	50	5099
2026-01-15 21:32:58.80	193.33	15.85	-40.1	-42.4	24.3	0.00e+00	0	38	0	0	50	5079
2026-01-15 21:33:00.07	192.93	15.96	-40.2	-42.5	24.3	0.00e+00	0	38	0	0	50	5109
2026-01-15 21:33:00.79	192.70	16.02	-39.7	-41.9	24.7	0.00e+00	0	38	0	0	50	4783
2026-01-15 21:33:02.07	192.28	16.13	-39.4	-41.6	25.0	0.00e+00	0	38	0	0	50	4644
2026-01-15 21:33:02.81	192.04	16.19	-39.4	-41.6	25.0	0.00e+00	0	38	0	0	50	4618
2026-01-15 21:33:04.09	191.62	16.30	-39.0	-41.2	25.5	0.00e+00	0	38	0	0	50	4397
2026-01-15 21:33:04.80	191.39	16.36	-38.9	-41.0	25.6	0.00e+00	0	38	0	0	49	4561
2026-01-15 21:33:06.08	190.97	16.47	-38.8	-40.9	25.6	0.00e+00	0	38	0	0	49	4541
2026-01-15 21:33:06.79	190.73	16.52	-39.0	-41.1	25.5	0.00e+00	0	38	0	0	49	4648
2026-01-15 21:33:08.15	190.27	16.64	-38.9	-41.1	25.6	0.00e+00	0	38	0	0	49	4602
2026-01-15 21:33:08.86	190.03	16.69	-39.0	-41.1	25.5	0.00e+00	0	38	0	0	49	4638
2026-01-15 21:33:10.22	189.57	16.80	-39.2	-41.4	25.2	0.00e+00	0	38	0	0	49	4784
2026-01-15 21:33:10.93	189.32	16.86	-39.1	-41.3	25.4	0.00e+00	0	38	0	0	49	4721
2026-01-15 21:33:12.22	188.88	16.97	-39.2	-41.4	25.2	0.00e+00	0	38	0	0	49	4781
2026-01-15 21:33:12.93	188.63	17.02	-39.3	-41.5	25.2	0.00e+00	0	38	0	0	49	4832
2026-01-15 21:33:14.21	188.18	17.12	-39.2	-41.4	25.2	0.00e+00	0	38	0	0	49	4785
2026-01-15 21:33:14.95	187.92	17.18	-39.2	-41.4	25.3	0.00e+00	0	38	0	0	49	4791
2026-01-15 21:33:16.23	187.47	17.28	-39.4	-41.6	25.1	0.00e+00	0	38	0	0	49	4881
2026-01-15 21:33:16.94	187.21	17.34	-39.3	-41.5	25.1	0.00e+00	0	38	0	0	49	4856
2026-01-15 21:33:18.22	186.75	17.43	-39.4	-41.6	25.1	0.00e+00	0	38	0	0	49	4881
2026-01-15 21:33:18.93	186.49	17.49	-39.4	-41.6	25.0	0.00e+00	0	38	0	0	49	4880
2026-01-15 21:33:20.21	186.03	17.58	-39.0	-41.1	25.5	0.00e+00	0	38	0	0	49	4649
2026-01-15 21:33:20.97	185.75	17.64	-38.8	-41.0	25.7	0.00e+00	0	38	0	0	49	4563
2026-01-15 21:33:22.25	185.28	17.74	-38.8	-40.9	24.9	0.00e+00	0	38	0	0	49	4528
2026-01-15 21:33:22.97	185.01	17.79	-38.6	-40.7	25.9	0.00e+00	0	38	0	0	49	4434
2026-01-15 21:33:24.25	184.53	17.88	-38.5	-40.6	26.0	0.00e+00	0	38	0	0	48	4618
2026-01-15 21:33:24.96	184.27	17.93	-38.5	-40.6	26.0	0.00e+00	0	38	0	0	48	4608
2026-01-15 21:33:26.24	183.78	18.03	-38.5	-40.6	26.0	0.00e+00	0	38	0	0	48	4643
2026-01-15 21:33:26.97	183.51	18.08	-38.8	-40.9	25.8	0.00e+00	0	38	0	0	48	4801
2026-01-15 21:33:28.25	183.02	18.17	-38.7	-40.9	25.7	0.00e+00	0	38	0	0	48	4770
2026-01-15 21:33:28.96	182.75	18.21	-38.7	-40.8	25.8	0.00e+00	0	38	0	0	48	4715
2026-01-15 21:33:30.24	182.25	18.30	-38.7	-40.8	25.8	0.00e+00	0	38	0	0	48	4746
2026-01-15 21:33:30.96	181.97	18.35	-38.7	-40.8	22.8	0.00e+00	0	38	0	0	48	4739
2026-01-15 21:33:32.24	181.47	18.43	-38.8	-40.9	25.8	0.00e+00	0	38	0	0	48	4764
2026-01-15 21:33:32.97	181.19	18.48	-38.8	-40.9	25.7	0.00e+00	0	38	0	0	48	4797
2026-01-15 21:33:34.24	180.69	18.56	-39.1	-41.2	25.4	0.00e+00	0	38	0	0	48	4952
2026-01-15 21:33:34.96	180.40	18.61	-39.1	-41.2	25.4	0.00e+00	0	38	0	0	48	4961
2026-01-15 21:33:36.24	179.89	18.69	-39.1	-41.2	25.5	0.00e+00	0	38	0	0	48	4941
2026-01-15 21:33:36.95	179.61	18.73	-39.2	-41.3	25.4	0.00e+00	0	38	0	0	48	5014
2026-01-15 21:33:38.23	179.09	18.81	-38.8	-40.9	25.7	0.00e+00	0	38	0	0	48	4809
2026-01-15 21:33:39.11	178.74	18.86	-38.6	-40.7	25.9	0.00e+00	0	38	0	0	48	4675
2026-01-15 21:33:40.25	178.27	18.93	-38.7	-40.8	25.8	0.00e+00	0	38	0	0	48	4737
2026-01-15 21:33:41.10	177.93	18.98	-38.5	-40.6	26.0	0.00e+00	0	38	0	0	48	4606
2026-01-15 21:33:42.24	177.46	19.04	-38.5	-40.6	26.0	0.00e+00	0	38	0	0	48	4620
2026-01-15 21:33:43.09	177.11	19.09	-38.5	-40.6	26.0	0.00e+00	0	38	0	0	48	4601
2026-01-15 21:33:44.22	176.64	19.15	-38.4	-40.4	26.2	0.00e+00	0	38	0	0	48	4545
2026-01-15 21:33:45.08	176.28	19.19	-38.2	-40.3	26.3	0.00e+00	0	38	0	0	48	4459
2026-01-15 21:33:46.22	175.81	19.25	-38.4	-40.4	26.2	0.00e+00	0	38	0	0	48	4516
2026-01-15 21:33:47.07	175.45	19.30	-38.5	-40.5	26.1	0.00e+00	0	38	0	0	48	4578
2026-01-15 21:33:48.28	174.94	19.36	-38.7	-40.8	25.8	0.00e+00	0	38	0	0	48	4751
2026-01-15 21:33:49.13	174.59	19.40	-38.7	-40.7	25.8	0.00e+00	0	38	0	0	48	4696
2026-01-15 21:33:50.27	174.10	19.45	-38.6	-40.7	25.7	0.00e+00	0	38	0	0	48	4693
2026-01-15 21:33:51.12	173.74	19.49	-38.8	-40.8	25.6	0.00e+00	0	38	0	0	48	4748
2026-01-15 21:33:52.26	173.25	19.54	-38.5	-40.6	26.0	0.00e+00	0	38	0	0	48	4602
2026-01-15 21:33:53.11	172.89	19.58	-38.3	-40.4	26.2	0.00e+00	0	38	0	0	48	4510
2026-01-15 21:33:54.25	172.40	19.62	-38.3	-40.3	26.3	0.00e+00	0	38	0	0	48	4471
2026-01-15 21:33:55.10	172.03	19.66	-38.1	-40.2	26.3	0.00e+00	0	38	0	0	48	4409
2026-01-15 21:33:56.24	171.54	19.70	-38.2	-40.3	26.3	0.00e+00	0	38	0	0	48	4447
2026-01-15 21:33:57.20	171.13	19.74	-38.5	-40.6	26.0	0.00e+00	0	38	0	0	48	4613
2026-01-15 21:33:58.37	170.62	19.78	-38.6	-40.7	25.9	0.00e+00	0	38	0	0	48	4675
2026-01-15 21:33:59.25	170.23	19.81	-38.5	-40.6	26.0	0.00e+00	0	38	0	0	48	4600
2026-01-15 21:34:00.39	169.73	19.85	-38.5	-40.6	26.0	0.00e+00	0	38	0	0	48	4625
2026-01-15 21:34:01.31	169.33	19.88	-38.6	-40.7	25.9	0.00e+00	0	38	0	0	48	4656
2026-01-15 21:34:02.48	168.82	19.91	-38.6	-40.6	25.9	0.00e+00	0	38	0	0	48	4637
2026-01-15 21:34:03.33	168.44	19.94	-38.5	-40.6	26.0	0.00e+00	0	38	0	0	48	4616
2026-01-15 21:34:04.67	167.85	19.97	-38.6	-40.6	26.0	0.00e+00	0	38	0	0	48	4650
2026-01-15 21:34:05.38	167.54	19.99	-38.7	-40.7	25.9	0.00e+00	0	38	0	0	48	4696
2026-01-15 21:34:06.66	166.97	20.02	-38.8	-40.9	25.7	0.00e+00	0	38	0	0	48	4796
2026-01-15 21:34:07.37	166.65	20.04	-38.8	-40.9	25.7	0.00e+00	0	38	0	0	48	4789
2026-01-15 21:34:08.65	166.08	20.06	-38.6	-40.7	25.9	0.00e+00	0	38	0	0	48	4672
2026-01-15 21:34:09.36	165.77	20.08	-38.6	-40.6	25.9	0.00e+00	0	38	0	0	48	4647
2026-01-15 21:34:10.64	165.20	20.10	-38.5	-40.6	26.0	0.00e+00	0	38	0	0	48	4609
2026-01-15 21:34:11.48	164.82	20.12	-38.4	-40.4	26.1	0.00e+00	0	38	0	0	48	4543
2026-01-15 21:34:12.62	164.31	20.13	-38.4	-40.4	26.2	0.00e+00	0	38	0	0	48	4524
2026-01-15 21:34:13.47	163.93	20.14	-38.3	-40.3	26.3	0.00e+00	0	38	0	0	48	4480
2026-01-15 21:34:14.61	163.42	20.16	-38.3	-40.4	26.2	0.00e+00	0	38	0	0	48	4501
2026-01-15 21:34:15.46	163.04	20.17	-38.4	-40.4	26.2	0.00e+00	0	38	0	0	48	4520
2026-01-15 21:34:16.60	162.52	20.18	-38.3	-40.4	26.2	0.00e+00	0	38	0	0	48	4519
2026-01-15 21:34:17.45	162.14	20.18	-38.3	-40.3	26.2	0.00e+00	0	38	0	0	48	4488
2026-01-15 21:34:18.59	161.63	20.19	-38.4	-40.4	26.2	0.00e+00	0	38	0	0	48	4518
2026-01-15 21:34:19.44	161.25	20.19	-38.2	-40.3	26.3	0.00e+00	0	38	0	0	48	4454
2026-01-15 21:34:20.62	160.72	20.20	-38.2	-40.2	26.3	0.00e+00	0	38	0	0	48	4435
2026-01-15 21:34:21.47	160.33	20.20	-38.3	-40.4	26.2	0.00e+00	0	38	0	0	48	4495
2026-01-15 21:34:22.61	159.82	20.20	-38.1	-40.2	26.4	0.00e+00	0	38	0	0	48	4394
2026-01-15 21:34:23.47	159.43	20.19	-38.1	-40.2	26.3	0.00e+00	0	38	0	0	47	4666
2026-01-15 21:34:24.60	158.93	20.19	-38.1	-40.1	26.4	0.00e+00	0	38	0	0	47	4643
2026-01-15 21:34:25.45	158.54	20.18	-38.0	-40.1	26.4	0.00e+00	0	38	0	0	47	4623
2026-01-15 21:34:26.59	158.03	20.18	-38.0	-40.0	26.4	0.00e+00	0	38	0	0	47	4597
2026-01-15 21:34:27.44	157.65	20.17	-38.0	-40.0	26.5	0.00e+00	0	38	0	0	47	4572
2026-01-15 21:34:28.58	157.14	20.16	-37.9	-40.0	26.5	0.00e+00	0	38	0	0	47	4549
2026-01-15 21:34:29.43	156.76	20.15	-38.0	-40.0	26.5	0.00e+00	0	38	0	0	47	4577
2026-01-15 21:34:30.57	156.25	20.13	-38.0	-40.1	26.4	0.00e+00	0	38	0	0	47	4603
2026-01-15 21:34:31.42	155.87	20.12	-38.0	-40.1	26.3	0.00e+00	0	38	0	0	47	4632
2026-01-15 21:34:32.56	155.36	20.10	-38.2	-40.3	26.2	0.00e+00	0	38	0	0	47	4733
2026-01-15 21:34:33.41	154.98	20.09	-38.3	-40.4	26.1	0.00e+00	0	38	0	0	47	4772
2026-01-15 21:34:34.55	154.47	20.07	-38.5	-40.6	25.9	0.00e+00	0	38	0	0	47	4914
2026-01-15 21:34:35.40	154.09	20.05	-38.7	-40.8	25.8	0.00e+00	0	38	0	0	48	4741
2026-01-15 21:34:36.54	153.59	20.02	-38.6	-40.7	25.9	0.00e+00	0	38	0	0	48	4680
2026-01-15 21:34:37.39	153.21	20.00	-38.6	-40.6	25.9	0.00e+00	0	38	0	0	48	4647
2026-01-15 21:34:38.53	152.70	19.97	-38.3	-40.4	26.2	0.00e+00	0	38	0	0	48	4494
2026-01-15 21:34:39.38	152.33	19.95	-38.2	-40.3	26.3	0.00e+00	0	38	0	0	48	4464
2026-01-15 21:34:40.52	151.83	19.92	-38.1	-40.2	26.4	0.00e+00	0	38	0	0	48	4409
2026-01-15 21:34:41.37	151.45	19.89	-38.2	-40.3	26.3	0.00e+00	0	38	0	0	48	4468
2026-01-15 21:34:42.65	150.89	19.85	-38.5	-40.6	26.0	0.00e+00	0	38	0	0	48	4619
2026-01-15 21:34:43.40	150.56	19.83	-38.6	-40.7	25.8	0.00e+00	0	38	0	0	48	4697
2026-01-15 21:34:44.68	150.01	19.79	-39.1	-41.2	25.4	0.00e+00	0	38	0	0	48	4953
2026-01-15 21:34:45.42	149.68	19.76	-39.2	-41.4	25.3	0.00e+00	0	38	0	0	49	4766
2026-01-15 21:34:46.70	149.13	19.71	-39.1	-41.2	25.4	0.00e+00	0	38	0	0	49	4705
2026-01-15 21:34:47.41	148.82	19.69	-38.8	-40.9	25.7	0.00e+00	0	38	0	0	49	4523
2026-01-15 21:34:48.69	148.27	19.64	-38.8	-40.9	25.7	0.00e+00	0	38	0	0	49	4525
2026-01-15 21:34:49.40	147.97	19.61	-38.7	-40.8	25.8	0.00e+00	0	38	0	0	49	4447
2026-01-15 21:34:50.68	147.42	19.55	-38.3	-40.4	26.2	0.00e+00	0	38	0	0	48	4502
2026-01-15 21:34:51.48	147.08	19.52	-38.6	-40.7	25.8	0.00e+00	0	38	0	0	48	4653
2026-01-15 21:34:52.62	146.59	19.47	-38.4	-40.4	26.1	0.00e+00	0	38	0	0	48	4535
2026-01-15 21:34:53.69	146.14	19.42	-38.4	-40.4	26.1	0.00e+00	0	38	0	0	48	4537
2026-01-15 21:34:54.72	145.70	19.37	-38.3	-40.4	26.1	0.00e+00	0	38	0	0	48	4520
2026-01-15 21:34:55.72	145.28	19.32	-38.2	-40.2	26.2	0.00e+00	0	38	0	0	48	4440
2026-01-15 21:34:56.71	144.87	19.27	-38.3	-40.4	26.2	0.00e+00	0	38	0	0	48	4501
2026-01-15 21:34:57.71	144.45	19.22	-38.5	-40.6	25.9	0.00e+00	0	38	0	0	48	4630
2026-01-15 21:34:58.70	144.04	19.17	-38.4	-40.5	25.9	0.00e+00	0	38	0	0	48	4583
2026-01-15 21:34:59.70	143.63	19.12	-38.1	-40.2	26.3	0.00e+00	0	38	0	0	48	4409
2026-01-15 21:35:00.69	143.22	19.06	-38.0	-40.1	26.4	0.00e+00	0	38	0	0	48	4353
2026-01-15 21:35:01.69	142.81	19.01	-38.1	-40.2	26.3	0.00e+00	0	38	0	0	48	4400
2026-01-15 21:35:02.69	142.40	18.95	-38.2	-40.2	26.3	0.00e+00	0	38	0	0	48	4437
2026-01-15 21:35:03.68	142.00	18.89	-38.3	-40.4	26.2	0.00e+00	0	38	0	0	48	4517
2026-01-15 21:35:04.68	141.60	18.83	-38.4	-40.5	26.1	0.00e+00	0	38	0	0	48	4552
2026-01-15 21:35:05.67	141.20	18.78	-38.3	-40.3	26.2	0.00e+00	0	38	0	0	48	4458
2026-01-15 21:35:06.66	140.80	18.72	-38.3	-40.3	26.2	0.00e+00	0	38	0	0	48	4475
2026-01-15 21:35:07.66	140.40	18.65	-38.4	-40.5	26.1	0.00e+00	0	38	0	0	48	4565
2026-01-15 21:35:08.65	140.01	18.59	-38.6	-40.6	26.0	0.00e+00	0	38	0	0	48	4645
2026-01-15 21:35:09.83	139.55	18.52	-38.8	-40.8	25.7	0.00e+00	0	38	0	0	48	4759
2026-01-15 21:35:10.69	139.21	18.46	-38.9	-41.0	25.6	0.00e+00	0	38	0	0	48	4847
2026-01-15 21:35:12.09	138.66	18.37	-38.8	-40.9	25.7	0.00e+00	0	38	0	0	48	4765
2026-01-15 21:35:12.80	138.39	18.32	-38.7	-40.8	25.8	0.00e+00	0	38	0	0	48	4735
2026-01-15 21:35:14.08	137.89	18.23	-38.8	-40.9	25.6	0.00e+00	0	38	0	0	48	4793
2026-01-15 21:35:14.79	137.62	18.19	-39.0	-41.1	25.6	0.00e+00	0	38	0	0	48	4883
2026-01-15 21:35:16.07	137.13	18.10	-38.9	-41.0	25.6	0.00e+00	0	38	0	0	48	4842
2026-01-15 21:35:16.79	136.86	18.05	-38.8	-40.9	25.6	0.00e+00	0	38	0	0	48	4809
2026-01-15 21:35:18.06	136.38	17.96	-38.6	-40.6	25.9	0.00e+00	0	38	0	0	48	4634
2026-01-15 21:35:18.79	136.11	17.91	-38.5	-40.6	26.0	0.00e+00	0	38	0	0	48	4615
2026-01-15 21:35:20.07	135.63	17.81	-38.5	-40.5	26.0	0.00e+00	0	38	0	0	48	4595
2026-01-15 21:35:20.78	135.37	17.76	-38.3	-40.3	26.2	0.00e+00	0	38	0	0	48	4473
2026-01-15 21:35:22.06	134.90	17.67	-38.3	-40.3	26.2	0.00e+00	0	38	0	0	48	4485
2026-01-15 21:35:23.02	134.55	17.60	-38.5	-40.6	25.9	0.00e+00	0	38	0	0	48	4633
2026-01-15 21:35:24.02	134.18	17.52	-38.8	-40.8	25.7	0.00e+00	0	38	0	0	48	4758
2026-01-15 21:35:25.01	133.83	17.44	-39.0	-41.1	25.5	0.00e+00	0	38	0	0	48	4888
2026-01-15 21:35:26.01	133.47	17.37	-39.1	-41.2	25.4	0.00e+00	0	38	0	0	48	4949
2026-01-15 21:35:27.00	133.11	17.29	-38.9	-41.1	25.5	0.00e+00	0	38	0	0	48	4880
2026-01-15 21:35:28.00	132.76	17.21	-38.8	-40.9	25.7	0.00e+00	0	38	0	0	48	4781
2026-01-15 21:35:28.99	132.41	17.14	-38.9	-41.0	25.4	0.00e+00	0	38	0	0	48	4859
2026-01-15 21:35:29.98	132.07	17.06	-39.0	-41.1	25.5	0.00e+00	0	38	0	0	48	4916
2026-01-15 21:35:30.98	131.72	16.98	-39.1	-41.2	25.4	0.00e+00	0	38	0	0	48	4939
2026-01-15 21:35:31.99	131.37	16.90	-39.2	-41.3	25.3	0.00e+00	0	38	0	0	48	5014
2026-01-15 21:35:32.98	131.03	16.82	-39.2	-41.3	25.3	0.00e+00	0	38	0	0	49	4747
2026-01-15 21:35:33.98	130.69	16.74	-39.1	-41.3	25.3	0.00e+00	0	38	0	0	49	4719
2026-01-15 21:35:34.97	130.35	16.66	-39.2	-41.4	25.2	0.00e+00	0	38	0	0	49	4767
2026-01-15 21:35:35.97	130.02	16.58	-39.3	-41.4	25.2	0.00e+00	0	38	0	0	49	4783
2026-01-15 21:35:36.96	129.69	16.50	-39.3	-41.4	25.2	0.00e+00	0	38	0	0	49	4793
2026-01-15 21:35:37.95	129.36	16.41	-39.2	-41.4	25.2	0.00e+00	0	38	0	0	49	4765
2026-01-15 21:35:38.95	129.03	16.33	-39.2	-41.3	25.2	0.00e+00	0	38	0	0	49	4752
2026-01-15 21:35:39.95	128.70	16.25	-39.1	-41.2	25.4	0.00e+00	0	38	0	0	49	4685
2026-01-15 21:35:40.94	128.38	16.17	-39.1	-41.2	25.3	0.00e+00	0	38	0	0	49	4704
2026-01-15 21:35:41.93	128.06	16.08	-39.2	-41.3	25.2	0.00e+00	0	38	0	0	49	4742
2026-01-15 21:35:42.93	127.74	16.00	-39.3	-41.5	25.1	0.00e+00	0	38	0	0	49	4832
2026-01-15 21:35:43.92	127.43	15.91	-39.5	-41.6	25.0	0.00e+00	0	38	0	0	49	4917
2026-01-15 21:35:44.95	127.10	15.83	-39.6	-41.8	24.8	0.00e+00	0	38	0	0	49	4996
2026-01-15 21:35:45.98	126.78	15.74	-39.8	-42.0	24.7	0.00e+00	0	38	0	0	50	4832
2026-01-15 21:35:47.00	126.46	15.65	-39.8	-42.0	24.7	0.00e+00	0	38	0	0	50	4830
2026-01-15 21:35:48.00	126.16	15.57	-39.8	-42.0	24.7	0.00e+00	0	38	0	0	50	4860
2026-01-15 21:35:48.99	125.85	15.48	-39.8	-42.0	24.6	0.00e+00	0	38	0	0	50	4851
2026-01-15 21:35:49.99	125.55	15.40	-39.8	-42.0	24.6	0.00e+00	0	38	0	0	50	4836
2026-01-15 21:35:50.99	125.25	15.31	-39.7	-41.9	24.7	0.00e+00	0	38	0	0	50	4780
2026-01-15 21:35:51.98	124.95	15.22	-39.7	-41.9	24.6	0.00e+00	0	38	0	0	50	4811
2026-01-15 21:35:52.98	124.65	15.14	-39.8	-42.0	24.6	0.00e+00	0	38	0	0	50	4842
2026-01-15 21:35:53.97	124.36	15.05	-39.7	-41.9	24.7	0.00e+00	0	38	0	0	50	4796
2026-01-15 21:35:54.97	124.07	14.96	-39.7	-41.9	24.7	0.00e+00	0	38	0	0	50	4775
2026-01-15 21:35:55.96	123.78	14.88	-39.8	-42.0	24.7	0.00e+00	0	38	0	0	50	4838
2026-01-15 21:35:56.96	123.49	14.79	-39.9	-42.1	24.5	0.00e+00	0	38	0	0	50	4924
2026-01-15 21:35:57.95	123.21	14.70	-40.1	-42.4	24.3	0.00e+00	0	38	0	0	50	5043
2026-01-15 21:35:58.94	122.93	14.62	-40.1	-42.3	24.3	0.00e+00	0	38	0	0	50	5027
2026-01-15 21:35:59.94	122.64	14.53	-40.1	-42.4	24.3	0.00e+00	0	38	0	0	50	5052
2026-01-15 21:36:00.93	122.37	14.44	-40.2	-42.4	24.2	0.00e+00	0	38	0	0	51	4804
2026-01-15 21:36:01.96	122.08	14.35	-40.0	-42.3	24.4	0.00e+00	0	38	0	0	51	4717
2026-01-15 21:36:02.98	121.80	14.26	-39.9	-42.2	24.4	0.00e+00	0	38	0	0	51	4673
2026-01-15 21:36:03.98	121.53	14.17	-40.0	-42.2	24.4	0.00e+00	0	38	0	0	51	4689
2026-01-15 21:36:04.97	121.26	14.09	-40.1	-42.4	24.2	0.00e+00	0	38	0	0	51	4789
2026-01-15 21:36:05.97	120.99	14.00	-40.3	-42.6	24.1	0.00e+00	0	38	0	0	51	4897
2026-01-15 21:36:06.96	120.72	13.91	-40.5	-42.8	23.9	0.00e+00	0	38	0	0	51	5036
2026-01-15 21:36:07.96	120.46	13.82	-40.5	-42.8	23.8	0.00e+00	0	38	0	0	51	5029
2026-01-15 21:36:08.95	120.20	13.73	-40.5	-42.8	23.9	0.00e+00	0	38	0	0	51	4998
2026-01-15 21:36:09.94	119.94	13.65	-40.5	-42.8	23.9	0.00e+00	0	38	0	0	51	5000
2026-01-15 21:36:10.94	119.68	13.56	-40.5	-42.8	23.8	0.00e+00	0	38	0	0	51	5016
2026-01-15 21:36:11.93	119.42	13.47	-40.5	-42.8	23.9	0.00e+00	0	38	0	0	51	5011
2026-01-15 21:36:12.93	119.17	13.38	-40.5	-42.8	23.8	0.00e+00	0	38	0	0	51	4990
2026-01-15 21:36:13.92	118.92	13.30	-40.6	-42.9	23.7	0.00e+00	0	38	0	0	51	5072
2026-01-15 21:36:14.92	118.67	13.21	-40.7	-43.0	23.7	0.00e+00	0	38	0	0	51	5139
2026-01-15 21:36:15.92	118.42	13.12	-40.7	-43.0	23.6	0.00e+00	0	38	0	0	52	4863
2026-01-15 21:36:16.91	118.17	13.03	-40.8	-43.2	23.4	0.00e+00	0	38	0	0	52	4932
2026-01-15 21:36:17.90	117.93	12.94	-40.6	-43.0	23.5	0.00e+00	0	38	0	0	52	4850
2026-01-15 21:36:18.90	117.68	12.86	-40.5	-42.8	23.7	0.00e+00	0	38	0	0	52	4756
2026-01-15 21:36:19.89	117.45	12.77	-40.6	-43.0	23.6	0.00e+00	0	38	0	0	52	4844
2026-01-15 21:36:20.89	117.21	12.68	-40.7	-43.0	23.5	0.00e+00	0	38	0	0	52	4870
2026-01-15 21:36:21.88	116.97	12.59	-40.7	-43.0	23.5	0.00e+00	0	38	0	0	52	4850
2026-01-15 21:36:22.95	116.72	12.50	-40.7	-43.1	23.4	0.00e+00	0	38	0	0	52	4896
2026-01-15 21:36:23.84	116.51	12.42	-40.8	-43.2	23.4	0.00e+00	0	38	0	0	52	4949
2026-01-15 21:36:25.15	116.20	12.31	-40.8	-43.2	23.4	0.00e+00	0	38	0	0	52	4952
2026-01-15 21:36:25.86	116.04	12.25	-40.9	-43.3	23.3	0.00e+00	0	38	0	0	52	5021
2026-01-15 21:36:27.14	115.75	12.13	-41.0	-43.4	23.1	0.00e+00	0	38	0	0	52	5086
2026-01-15 21:36:27.85	115.59	12.07	-41.1	-43.5	23.1	0.00e+00	0	38	0	0	52	5145
2026-01-15 21:36:29.13	115.30	11.96	-41.1	-43.6	22.9	0.00e+00	0	38	0	0	53	4901
2026-01-15 21:36:29.85	115.14	11.90	-41.1	-43.5	23.0	0.00e+00	0	38	0	0	53	4859
2026-01-15 21:36:31.12	114.86	11.79	-41.1	-43.6	23.0	0.00e+00	0	38	0	0	53	4875
2026-01-15 21:36:32.01	114.66	11.71	-41.2	-43.6	22.9	0.00e+00	0	38	0	0	53	4916
2026-01-15 21:36:33.14	114.41	11.61	-41.1	-43.6	23.0	0.00e+00	0	38	0	0	53	4878
2026-01-15 21:36:33.99	114.23	11.54	-41.0	-43.5	23.0	0.00e+00	0	38	0	0	53	4817
2026-01-15 21:36:35.13	113.99	11.44	-40.8	-43.3	23.1	0.00e+00	0	38	0	0	53	4707
2026-01-15 21:36:35.98	113.80	11.37	-40.9	-43.3	23.2	0.00e+00	0	38	0	0	53	4734
2026-01-15 21:36:37.12	113.56	11.27	-41.0	-43.4	23.1	0.00e+00	0	38	0	0	53	4811
2026-01-15 21:36:37.97	113.39	11.20	-41.0	-43.4	23.1	0.00e+00	0	38	0	0	53	4799
2026-01-15 21:36:39.11	113.15	11.10	-41.0	-43.5	23.0	0.00e+00	0	38	0	0	53	4828
2026-01-15 21:36:39.96	112.97	11.03	-41.2	-43.7	22.9	0.00e+00	0	38	0	0	53	4937
2026-01-15 21:36:41.13	112.73	10.93	-41.3	-43.8	22.7	0.00e+00	0	38	0	0	53	5011
2026-01-15 21:36:41.98	112.56	10.85	-41.4	-43.9	22.6	0.00e+00	0	38	0	0	53	5046
2026-01-15 21:36:43.12	112.33	10.76	-41.4	-43.9	22.6	0.00e+00	0	38	0	0	53	5093
2026-01-15 21:36:43.97	112.16	10.68	-41.6	-44.1	22.4	0.00e+00	0	38	0	0	53	5214
2026-01-15 21:36:45.11	111.94	10.59	-41.8	-44.5	22.1	0.00e+00	0	38	0	0	54	5121
2026-01-15 21:36:45.96	111.77	10.52	-42.0	-44.6	21.9	0.00e+00	0	38	0	0	54	5210
2026-01-15 21:36:47.09	111.55	10.42	-42.0	-44.7	21.9	0.00e+00	0	38	0	0	54	5234
2026-01-15 21:36:47.95	111.38	10.35	-41.9	-44.6	22.0	0.00e+00	0	38	0	0	54	5164
2026-01-15 21:36:49.08	111.16	10.25	-41.7	-44.4	22.1	0.00e+00	0	38	0	0	54	5048
2026-01-15 21:36:50.05	110.98	10.17	-41.6	-44.2	22.3	0.00e+00	0	38	0	0	54	4946
2026-01-15 21:36:51.04	110.79	10.09	-41.6	-44.2	22.3	0.00e+00	0	38	0	0	54	4968
2026-01-15 21:36:52.04	110.60	10.01	-41.8	-44.4	22.1	0.00e+00	0	38	0	0	54	5063
2026-01-15 21:36:53.03	110.42	9.92	-41.9	-44.5	22.0	0.00e+00	0	38	0	0	54	5141
2026-01-15 21:36:54.03	110.23	9.84	-41.9	-44.5	22.0	0.00e+00	0	38	0	0	54	5144
2026-01-15 21:36:55.02	110.05	9.76	-42.0	-44.7	21.8	0.00e+00	0	38	0	0	54	5229
2026-01-15 21:36:56.02	109.87	9.68	-42.2	-44.9	21.6	0.00e+00	0	38	0	0	54	5370
2026-01-15 21:36:57.01	109.69	9.59	-42.1	-44.8	21.7	0.00e+00	0	38	0	0	54	5291
2026-01-15 21:36:58.01	109.51	9.51	-42.0	-44.7	21.8	0.00e+00	0	38	0	0	54	5250
2026-01-15 21:36:59.00	109.33	9.43	-42.0	-44.7	21.8	0.00e+00	0	38	0	0	54	5241
2026-01-15 21:37:00.01	109.16	9.35	-42.0	-44.7	21.8	0.00e+00	0	38	0	0	54	5228
2026-01-15 21:37:01.01	108.98	9.27	-41.8	-44.4	22.0	0.00e+00	0	38	0	0	54	5091
2026-01-15 21:37:02.01	108.81	9.19	-41.7	-44.3	22.1	0.00e+00	0	38	0	0	54	5023
2026-01-15 21:37:03.00	108.64	9.11	-41.9	-44.6	21.9	0.00e+00	0	38	0	0	54	5172
2026-01-15 21:37:04.14	108.44	9.01	-41.9	-44.6	21.8	0.00e+00	0	38	0	0	54	5197
2026-01-15 21:37:05.02	108.29	8.94	-48.6	-61.6	6.7	0.00e+00	0	38	0	0	67	17284
2026-01-15 21:37:06.15	108.10	8.85	-49.2	-67.7	3.9	3.17e-01	0	38	104	0	69	31259
2026-01-15 21:37:07.07	107.95	8.78	-49.4	-68.1	3.8	8.47e-01	0	38	104	0	69	32726
2026-01-15 21:37:08.06	107.78	8.70	-49.4	-68.3	3.8	8.47e-01	0	38	104	0	69	33409
2026-01-15 21:37:09.06	107.62	8.62	-49.5	-68.3	3.8	8.47e-01	0	38	104	0	69	33600
2026-01-15 21:37:10.05	107.45	8.54	-49.5	-68.4	3.8	8.47e-01	0	38	104	0	69	33801
2026-01-15 21:37:11.04	107.29	8.46	-49.3	-68.4	3.8	8.47e-01	0	38	104	0	69	33923
2026-01-15 21:37:12.03	107.13	8.38	-49.2	-68.4	3.8	8.47e-01	0	38	104	0	69	34061
2026-01-15 21:37:13.03	106.97	8.30	-49.1	-68.5	3.8	8.46e-01	0	38	104	0	69	34109
2026-01-15 21:37:14.02	106.82	8.22	-49.2	-68.5	3.8	8.46e-01	0	38	104	0	69	34369
2026-01-15 21:37:15.01	106.66	8.15	-49.2	-68.5	3.8	8.46e-01	0	38	104	0	69	34444
2026-01-15 21:37:16.01	106.50	8.07	-49.4	-68.6	3.8	8.47e-01	0	38	104	0	69	34490
2026-01-15 21:37:17.00	106.35	7.99	-49.5	-68.5	3.8	8.47e-01	0	38	104	0	69	34440
2026-01-15 21:37:17.99	106.20	7.91	-49.4	-68.6	3.8	8.47e-01	0	38	104	0	69	34604
2026-01-15 21:37:18.99	106.05	7.84	-49.5	-68.6	3.8	8.47e-01	0	38	104	0	69	34566
2026-01-15 21:37:19.98	105.90	7.76	-49.5	-68.6	3.8	8.47e-01	0	38	104	0	69	34682
2026-01-15 21:37:20.97	105.75	7.68	-49.3	-68.6	3.8	8.47e-01	0	38	104	0	69	34623
2026-01-15 21:37:21.96	105.60	7.61	-49.3	-68.5	3.8	8.47e-01	0	38	104	0	69	34472
2026-01-15 21:37:22.96	105.45	7.53	-49.3	-68.6	3.8	8.47e-01	0	38	104	0	69	34655
2026-01-15 21:37:23.95	105.30	7.45	-49.4	-68.6	3.8	8.46e-01	0	38	104	0	69	34616
2026-01-15 21:37:24.94	105.16	7.38	-49.5	-68.6	3.8	8.46e-01	0	38	104	0	69	34718
2026-01-15 21:37:25.94	105.01	7.30	-49.5	-68.6	3.8	8.46e-01	0	38	104	0	69	34654
2026-01-15 21:37:26.93	104.87	7.22	-49.5	-68.5	3.8	8.47e-01	0	38	104	0	69	34423
2026-01-15 21:37:27.92	104.73	7.15	-49.5	-68.5	3.8	8.47e-01	0	38	104	0	69	34406
2026-01-15 21:37:28.92	104.59	7.07	-49.4	-68.5	3.8	8.46e-01	0	38	104	0	69	34384
2026-01-15 21:37:29.91	104.45	7.00	-49.4	-68.5	3.8	8.46e-01	0	38	104	0	69	34383
2026-01-15 21:37:30.90	104.31	6.92	-49.4	-68.5	3.8	8.47e-01	0	38	104	0	69	34389
2026-01-15 21:37:31.90	104.17	6.85	-49.4	-68.6	3.8	8.47e-01	0	38	104	0	69	34494
2026-01-15 21:37:32.89	104.03	6.78	-49.4	-68.5	3.8	8.47e-01	0	38	104	0	69	34454
2026-01-15 21:37:33.88	103.90	6.70	-49.4	-68.5	3.8	8.48e-01	0	38	104	0	69	34451
2026-01-15 21:37:34.88	103.76	6.63	-49.4	-68.5	3.8	8.47e-01	0	38	104	0	69	34347
2026-01-15 21:37:35.87	103.63	6.55	-49.5	-68.5	3.8	8.47e-01	0	38	104	0	69	34314
2026-01-15 21:37:36.86	103.49	6.48	-49.4	-68.5	3.8	8.46e-01	0	38	104	0	69	34354
2026-01-15 21:37:37.86	103.36	6.41	-49.4	-68.5	3.8	8.47e-01	0	38	104	0	69	34393
2026-01-15 21:37:38.85	103.23	6.33	-49.4	-68.5	3.8	8.47e-01	0	38	104	0	69	34332
2026-01-15 21:37:39.84	103.10	6.26	-49.4	-68.5	3.8	8.47e-01	0	38	104	0	69	34398
2026-01-15 21:37:40.83	102.97	6.19	-49.4	-68.5	3.8	8.46e-01	0	38	104	0	69	34324
2026-01-15 21:37:41.83	102.84	6.12	-49.4	-68.5	3.8	8.46e-01	0	38	104	0	69	34310
2026-01-15 21:37:42.82	102.71	6.04	-49.4	-68.5	3.8	8.47e-01	0	38	104	0	69	34367
2026-01-15 21:37:43.82	102.59	5.97	-49.4	-68.5	3.8	8.48e-01	0	38	104	0	69	34239
2026-01-15 21:37:44.81	102.46	5.90	-49.4	-68.5	3.8	8.48e-01	0	38	104	0	69	34312
2026-01-15 21:37:45.80	102.34	5.83	-49.4	-68.5	3.8	8.46e-01	0	38	104	0	69	34298
2026-01-15 21:37:46.79	102.21	5.76	-49.4	-68.5	3.8	8.46e-01	0	38	104	0	69	34306
2026-01-15 21:37:47.79	102.09	5.68	-49.4	-68.5	3.8	8.46e-01	0	38	104	0	69	34234
2026-01-15 21:37:48.78	101.97	5.61	-49.4	-68.5	3.8	8.47e-01	0	38	104	0	69	34369
2026-01-15 21:37:49.77	101.84	5.54	-49.4	-68.5	3.8	8.47e-01	0	38	104	0	69	34277
2026-01-15 21:37:50.77	101.72	5.47	-49.4	-68.5	3.8	8.47e-01	0	38	104	0	69	34309
2026-01-15 21:37:51.76	101.60	5.40	-49.4	-68.5	3.8	8.47e-01	0	38	104	0	69	34303
2026-01-15 21:37:52.75	101.48	5.33	-49.4	-68.5	3.8	8.46e-01	0	38	104	0	69	34149
2026-01-15 21:37:53.75	101.37	5.26	-49.4	-68.5	3.8	8.48e-01	0	38	104	0	69	34320
2026-01-15 21:37:54.74	101.25	5.19	-49.4	-68.5	3.8	8.48e-01	0	38	104	0	69	34268
2026-01-15 21:37:55.73	101.13	5.12	-49.4	-68.5	3.8	8.47e-01	0	38	104	0	69	34201
2026-01-15 21:37:56.73	101.02	5.05	-49.4	-68.5	3.8	8.48e-01	0	38	104	0	69	34169
2026-01-15 21:37:57.72	100.90	4.98	-49.4	-68.5	3.8	8.48e-01	0	38	104	0	69	34229

#Closed at: 2026-01-15 21:37:58
#Recorded file [0 MB]: D:/Data/31040_260116_003046.dat