passes_logs/2026/01/15/T1/T1__20260115_102124_AQUA_rec.log

#Pass ID: 20260115_102124_AQUA
#Satellite: AQUA
#Configuration: AQUA
#almurnet v.1.7.20251203
#Start time: 2026-01-15 10:21:26

#Version: 2.0.20230620
#Station: T1
#Location: 37.570604 lon 55.790049 lat
#TLE: 1 27424U 02022A   26014.61231444  .00000653  00000+0  14070-3 0  9991
#TLE: 2 27424  98.4080 341.0332 0002042  78.9336 335.9961 14.61820174260839

#Time	Az	El	Level	Level2	SNR	BER	BlckErr	Temp	State	Recorded	gain1	gain2
2026-01-15 10:21:26.91	115.91	5.13	-53.0	-73.1	3.8	7.46e-01	0	39	0	0	77	36897
2026-01-15 10:21:27.90	115.82	5.20	-53.0	-73.1	3.8	7.48e-01	0	39	104	0	76	39061
2026-01-15 10:21:28.89	115.74	5.26	-53.0	-73.1	3.8	7.47e-01	0	39	104	0	76	38979
2026-01-15 10:21:29.88	115.65	5.33	-52.9	-73.2	3.8	7.43e-01	0	39	104	0	76	39142
2026-01-15 10:21:30.88	115.57	5.40	-53.0	-73.1	3.8	7.47e-01	0	39	104	0	76	39095
2026-01-15 10:21:31.87	115.48	5.46	-53.0	-73.2	3.8	7.45e-01	0	39	104	0	76	39221
2026-01-15 10:21:32.86	115.39	5.53	-53.0	-73.1	3.8	7.49e-01	0	39	104	0	76	39021
2026-01-15 10:21:33.86	115.30	5.59	-53.0	-73.1	3.8	7.49e-01	0	39	104	0	76	38950
2026-01-15 10:21:34.85	115.22	5.66	-53.0	-73.1	3.8	7.46e-01	0	39	104	0	76	38750
2026-01-15 10:21:35.84	115.13	5.73	-53.0	-73.0	3.8	7.45e-01	0	40	104	0	76	38650
2026-01-15 10:21:36.84	115.04	5.79	-52.9	-73.0	3.8	7.43e-01	0	39	104	0	76	38642
2026-01-15 10:21:37.83	114.95	5.86	-53.0	-73.0	3.8	7.42e-01	0	40	104	0	76	38386
2026-01-15 10:21:38.82	114.86	5.93	-53.0	-72.9	3.8	7.46e-01	0	39	104	0	76	38191
2026-01-15 10:21:39.82	114.77	5.99	-53.0	-72.9	3.8	7.48e-01	0	39	104	0	76	37992
2026-01-15 10:21:40.81	114.68	6.06	-52.9	-72.8	3.8	7.46e-01	0	40	104	0	76	37619
2026-01-15 10:21:41.80	114.59	6.13	-53.0	-72.7	3.8	7.47e-01	0	40	104	0	76	37206
2026-01-15 10:21:42.80	114.50	6.20	-53.0	-72.6	3.8	7.44e-01	0	40	104	0	76	36838
2026-01-15 10:21:43.79	114.40	6.26	-53.0	-72.5	3.8	7.47e-01	0	40	104	0	76	36355
2026-01-15 10:21:44.78	114.31	6.33	-53.0	-72.3	3.8	7.47e-01	0	40	104	0	76	35405
2026-01-15 10:21:45.77	114.22	6.40	-52.9	-71.9	3.8	7.44e-01	0	40	104	0	76	33967
2026-01-15 10:21:46.77	114.12	6.47	-52.9	-71.2	3.9	7.44e-01	0	40	104	0	76	31347
2026-01-15 10:21:47.76	114.03	6.53	-53.0	-70.9	3.9	7.49e-01	0	40	104	0	76	30246
2026-01-15 10:21:48.75	113.94	6.60	-52.9	-70.7	3.8	7.42e-01	0	40	104	0	76	29559
2026-01-15 10:21:49.75	113.84	6.67	-52.9	-70.5	4.0	7.46e-01	0	40	104	0	76	28929
2026-01-15 10:21:50.74	113.75	6.74	-52.9	-70.3	4.1	7.38e-01	0	40	104	0	76	28085
2026-01-15 10:21:51.73	113.65	6.81	-52.9	-70.6	4.1	7.38e-01	0	40	104	0	76	29092
2026-01-15 10:21:52.73	113.55	6.88	-52.9	-71.3	3.8	7.43e-01	0	40	104	0	76	31502
2026-01-15 10:21:53.72	113.46	6.94	-52.9	-71.9	3.8	7.46e-01	0	40	104	0	76	33826
2026-01-15 10:21:54.71	113.36	7.01	-53.0	-72.5	3.8	7.43e-01	0	40	104	0	76	36253
2026-01-15 10:21:55.71	113.26	7.08	-53.0	-72.9	3.8	7.44e-01	0	40	104	0	76	37869
2026-01-15 10:21:56.70	113.16	7.15	-52.9	-73.0	3.8	7.46e-01	0	40	104	0	76	38683
2026-01-15 10:21:57.69	113.06	7.22	-53.0	-73.1	3.8	7.47e-01	0	40	104	0	76	38748
2026-01-15 10:21:58.68	112.96	7.29	-53.0	-73.2	3.8	7.46e-01	0	40	104	0	76	39220
2026-01-15 10:21:59.68	112.86	7.36	-53.0	-73.3	3.8	7.47e-01	0	40	104	0	76	39847
2026-01-15 10:22:00.67	112.76	7.43	-53.0	-73.3	3.8	7.47e-01	0	40	104	0	76	39895
2026-01-15 10:22:01.66	112.66	7.50	-53.0	-72.7	3.8	7.45e-01	0	40	104	0	76	37035
2026-01-15 10:22:02.66	112.56	7.57	-53.0	-71.4	3.9	7.43e-01	0	40	104	0	76	32036
2026-01-15 10:22:03.65	112.46	7.64	-52.9	-69.3	4.4	7.26e-01	0	40	104	0	76	25154
2026-01-15 10:22:04.64	112.35	7.71	-52.8	-68.2	4.8	7.14e-01	0	40	104	0	76	22082
2026-01-15 10:22:05.63	112.25	7.78	-52.9	-68.1	4.9	7.16e-01	0	40	0	0	76	21875
2026-01-15 10:22:06.63	112.15	7.85	-52.9	-69.4	4.4	7.32e-01	0	40	104	0	76	25515
2026-01-15 10:22:07.62	112.04	7.92	-52.9	-72.5	3.8	7.43e-01	0	40	104	0	76	36186
2026-01-15 10:22:08.61	111.94	7.99	-53.0	-72.4	3.8	7.43e-01	0	40	104	0	76	35773
2026-01-15 10:22:09.60	111.83	8.06	-52.7	-66.5	5.8	6.91e-01	0	40	104	0	76	18105
2026-01-15 10:22:10.60	111.72	8.13	-52.3	-61.7	10.3	6.21e-01	0	40	0	1572864	76	10465
2026-01-15 10:22:11.59	111.62	8.20	-51.5	-58.4	13.6	6.08e-01	0	40	0	3670016	75	7617
2026-01-15 10:22:12.58	111.51	8.28	-50.6	-56.1	16.0	6.07e-01	0	40	0	5242880	73	6561
2026-01-15 10:22:13.58	111.40	8.35	-50.0	-54.8	17.3	6.06e-01	0	41	0	7340032	72	5940
2026-01-15 10:22:14.57	111.29	8.42	-49.6	-54.0	18.1	6.05e-01	0	40	0	8912896	71	5779
2026-01-15 10:22:15.57	111.18	8.49	-49.5	-53.8	18.3	6.07e-01	0	40	0	11010048	71	5653
2026-01-15 10:22:16.56	111.07	8.56	-49.8	-54.3	17.9	6.06e-01	0	40	0	12582912	71	5952
2026-01-15 10:22:17.55	110.96	8.63	-50.3	-55.4	16.9	6.08e-01	0	40	0	14680064	71	6770
2026-01-15 10:22:18.54	110.85	8.71	-51.0	-57.1	15.1	6.09e-01	0	40	0	16252928	72	7774
2026-01-15 10:22:19.54	110.74	8.78	-51.8	-59.7	12.6	6.10e-01	0	40	0	18350080	74	9331
2026-01-15 10:22:20.53	110.63	8.85	-52.5	-63.5	8.7	6.38e-01	0	41	0	20447232	75	13651
2026-01-15 10:22:21.52	110.52	8.92	-52.9	-69.1	3.9	7.40e-01	0	41	104	21495808	76	24660
2026-01-15 10:22:22.52	110.40	9.00	-53.0	-72.3	3.8	7.46e-01	0	41	104	21495808	76	35439
2026-01-15 10:22:23.51	110.29	9.07	-53.0	-71.0	3.9	7.41e-01	0	40	104	21495808	76	30639
2026-01-15 10:22:24.50	110.18	9.14	-53.0	-69.2	4.4	7.28e-01	0	41	104	21495808	76	24918
2026-01-15 10:22:25.49	110.06	9.22	-53.0	-71.4	3.7	7.46e-01	0	41	104	22544384	76	31999
2026-01-15 10:22:26.49	109.94	9.29	-53.1	-73.0	3.6	7.49e-01	0	40	104	22544384	76	38559
2026-01-15 10:22:27.48	109.83	9.36	-52.5	-62.9	10.1	6.26e-01	0	41	0	23592960	75	12674
2026-01-15 10:22:28.48	109.71	9.44	-53.0	-68.0	4.6	7.11e-01	0	41	104	23592960	76	21580
2026-01-15 10:22:29.47	109.59	9.51	-50.5	-55.5	16.7	6.08e-01	0	41	0	25165824	73	6078
2026-01-15 10:22:30.46	109.47	9.58	-49.6	-53.6	18.7	6.07e-01	0	41	0	26738688	71	5493
2026-01-15 10:22:31.45	109.35	9.66	-48.8	-52.4	19.8	6.08e-01	0	41	0	28835840	69	5342
2026-01-15 10:22:32.45	109.23	9.73	-48.4	-51.7	20.5	6.08e-01	0	41	0	30408704	68	5222
2026-01-15 10:22:33.44	109.11	9.81	-48.4	-51.6	20.6	6.06e-01	0	41	0	32505856	68	5205
2026-01-15 10:22:34.43	108.99	9.88	-48.3	-51.5	20.7	6.05e-01	0	41	0	34078720	68	5132
2026-01-15 10:22:35.43	108.87	9.95	-48.2	-51.4	20.8	6.07e-01	0	41	0	36175872	68	5087
2026-01-15 10:22:36.42	108.75	10.03	-48.3	-51.4	20.8	6.08e-01	0	41	0	38273024	68	5085
2026-01-15 10:22:37.41	108.62	10.10	-48.2	-51.4	20.8	6.07e-01	0	41	0	39845888	68	5075
2026-01-15 10:22:38.41	108.50	10.18	-48.3	-51.4	20.8	6.08e-01	0	41	0	41943040	68	5094
2026-01-15 10:22:39.40	108.37	10.25	-48.2	-51.3	20.9	6.06e-01	0	41	0	43515904	68	5010
2026-01-15 10:22:40.39	108.25	10.33	-48.2	-51.2	21.0	6.08e-01	0	41	0	45613056	68	4981
2026-01-15 10:22:41.38	108.12	10.40	-48.1	-51.2	21.0	6.06e-01	0	41	0	47185920	68	4967
2026-01-15 10:22:42.38	108.00	10.48	-48.0	-51.1	21.1	6.07e-01	0	41	0	49283072	68	4902
2026-01-15 10:22:43.37	107.87	10.55	-48.1	-51.1	21.1	6.09e-01	0	41	0	50855936	68	4913
2026-01-15 10:22:44.36	107.74	10.63	-48.1	-51.1	21.1	6.08e-01	0	41	0	52953088	68	4925
2026-01-15 10:22:45.36	107.61	10.71	-48.0	-51.1	21.2	6.05e-01	0	41	0	54525952	68	4887
2026-01-15 10:22:46.35	107.48	10.78	-47.9	-51.0	21.2	6.07e-01	0	41	0	56623104	67	5136
2026-01-15 10:22:47.34	107.35	10.86	-47.9	-51.0	21.1	6.06e-01	0	41	0	58720256	67	5119
2026-01-15 10:22:48.34	107.22	10.93	-47.8	-50.9	21.2	6.07e-01	0	41	0	60293120	67	5079
2026-01-15 10:22:49.33	107.09	11.01	-47.9	-51.0	21.2	6.06e-01	0	41	0	62390272	67	5102
2026-01-15 10:22:50.32	106.96	11.09	-47.8	-50.9	21.3	6.04e-01	0	41	0	63963136	67	5042
2026-01-15 10:22:51.31	106.82	11.16	-47.8	-50.9	21.2	6.07e-01	0	41	0	66060288	67	5095
2026-01-15 10:22:52.31	106.69	11.24	-47.9	-51.0	21.2	6.09e-01	0	41	0	67633152	67	5107
2026-01-15 10:22:53.30	106.55	11.32	-47.8	-50.9	21.3	6.06e-01	0	41	0	69730304	67	5057
2026-01-15 10:22:54.29	106.42	11.39	-47.9	-51.0	21.1	6.08e-01	0	41	0	71303168	67	5146
2026-01-15 10:22:55.29	106.28	11.47	-48.0	-51.1	21.1	6.06e-01	0	41	0	73400320	67	5173
2026-01-15 10:22:56.28	106.14	11.55	-47.9	-51.0	21.1	6.08e-01	0	41	0	75497472	67	5153
2026-01-15 10:22:57.27	106.01	11.62	-48.0	-51.2	21.0	6.04e-01	0	41	0	77070336	67	5226
2026-01-15 10:22:58.27	105.87	11.70	-48.0	-51.1	21.1	6.07e-01	0	41	0	79167488	67	5176
2026-01-15 10:22:59.26	105.73	11.78	-48.1	-51.2	21.0	6.08e-01	0	41	0	80740352	67	5227
2026-01-15 10:23:00.25	105.59	11.86	-48.1	-51.2	21.0	6.05e-01	0	41	0	82837504	67	5224
2026-01-15 10:23:01.25	105.44	11.93	-48.1	-51.2	21.0	6.07e-01	0	41	0	84410368	67	5263
2026-01-15 10:23:02.24	105.30	12.01	-47.9	-51.0	21.2	6.06e-01	0	41	0	86507520	67	5105
2026-01-15 10:23:03.23	105.16	12.09	-47.8	-50.8	21.3	6.07e-01	0	41	0	88080384	67	5039
2026-01-15 10:23:04.22	105.02	12.17	-47.8	-50.8	21.4	6.07e-01	0	41	0	90177536	67	5015
2026-01-15 10:23:05.22	104.87	12.24	-47.7	-50.7	21.4	6.06e-01	0	41	0	92274688	67	4982
2026-01-15 10:23:06.21	104.73	12.32	-47.7	-50.7	21.5	6.09e-01	0	41	0	93847552	67	4979
2026-01-15 10:23:07.20	104.58	12.40	-47.7	-50.7	21.5	6.07e-01	0	41	0	95944704	67	4967
2026-01-15 10:23:08.20	104.43	12.48	-47.7	-50.7	21.5	6.06e-01	0	41	0	97517568	67	4968
2026-01-15 10:23:09.19	104.28	12.56	-47.7	-50.7	21.5	6.06e-01	0	41	0	99614720	67	4970
2026-01-15 10:23:10.18	104.14	12.64	-47.8	-50.8	21.4	6.08e-01	0	41	0	101187584	67	5004
2026-01-15 10:23:11.18	103.98	12.72	-47.8	-50.8	21.4	6.07e-01	0	41	0	103284736	67	5012
2026-01-15 10:23:12.17	103.83	12.79	-47.7	-50.7	21.5	6.08e-01	0	41	0	104857600	67	4951
2026-01-15 10:23:13.16	103.68	12.87	-47.7	-50.7	21.5	6.07e-01	0	41	0	106954752	67	4943
2026-01-15 10:23:14.16	103.53	12.95	-47.8	-50.8	21.4	6.08e-01	0	41	0	108527616	67	4995
2026-01-15 10:23:15.15	103.38	13.03	-47.7	-50.7	21.5	6.07e-01	0	41	0	110624768	67	4955
2026-01-15 10:23:16.14	103.22	13.11	-47.8	-50.8	21.4	6.05e-01	0	41	0	112721920	67	4992
2026-01-15 10:23:17.13	103.07	13.19	-47.8	-50.8	21.5	6.05e-01	0	41	0	114294784	67	4986
2026-01-15 10:23:18.13	102.91	13.27	-47.7	-50.6	21.6	6.06e-01	0	41	0	116391936	67	4879
2026-01-15 10:23:19.12	102.75	13.35	-47.7	-50.7	21.5	6.04e-01	0	41	0	117964800	67	4946
2026-01-15 10:23:20.11	102.60	13.43	-47.8	-50.7	21.5	6.05e-01	0	41	0	120061952	67	4957
2026-01-15 10:23:21.11	102.44	13.51	-47.7	-50.7	21.6	6.06e-01	0	41	0	121634816	67	4933
2026-01-15 10:23:22.10	102.28	13.59	-47.6	-50.6	21.6	6.07e-01	0	41	0	123731968	67	4885
2026-01-15 10:23:23.09	102.12	13.67	-47.7	-50.6	21.6	6.08e-01	0	41	0	125304832	67	4907
2026-01-15 10:23:24.08	101.96	13.75	-47.6	-50.5	21.6	6.06e-01	0	41	0	127401984	67	4862
2026-01-15 10:23:25.08	101.79	13.83	-47.6	-50.6	21.6	6.07e-01	0	41	0	129499136	67	4881
2026-01-15 10:23:26.07	101.63	13.91	-47.7	-50.6	21.6	6.07e-01	0	41	0	131072000	67	4921
2026-01-15 10:23:27.06	101.47	13.99	-47.6	-50.6	21.6	6.08e-01	0	41	0	133169152	67	4873
2026-01-15 10:23:28.06	101.30	14.07	-47.7	-50.6	21.6	6.06e-01	0	41	0	134742016	67	4880
2026-01-15 10:23:29.05	101.13	14.15	-47.7	-50.7	21.6	6.06e-01	0	41	0	136839168	67	4929
2026-01-15 10:23:30.04	100.97	14.23	-47.7	-50.7	21.5	6.07e-01	0	41	0	138412032	67	4950
2026-01-15 10:23:31.03	100.80	14.31	-47.7	-50.7	21.5	6.07e-01	0	41	0	140509184	67	4941
2026-01-15 10:23:32.03	100.63	14.39	-47.6	-50.6	21.7	6.05e-01	0	41	0	142082048	67	4876
2026-01-15 10:23:33.02	100.46	14.47	-47.7	-50.7	21.6	6.08e-01	0	41	0	144179200	67	4935
2026-01-15 10:23:34.01	100.29	14.55	-47.7	-50.6	21.6	6.06e-01	0	41	0	146276352	67	4899
2026-01-15 10:23:35.01	100.12	14.63	-47.7	-50.7	21.6	6.06e-01	0	41	0	147849216	67	4929
2026-01-15 10:23:36.00	99.94	14.71	-47.7	-50.6	21.6	6.07e-01	0	41	0	149422080	67	4899
2026-01-15 10:23:36.99	99.77	14.79	-47.6	-50.5	21.7	6.09e-01	0	41	0	151519232	67	4856
2026-01-15 10:23:37.99	99.59	14.87	-47.5	-50.4	21.8	6.08e-01	0	41	0	153616384	67	4769
2026-01-15 10:23:38.98	99.42	14.95	-47.5	-50.4	21.7	6.07e-01	0	41	0	155189248	67	4782
2026-01-15 10:23:39.97	99.24	15.03	-47.5	-50.4	21.7	6.06e-01	0	41	0	157286400	67	4791
2026-01-15 10:23:40.96	99.06	15.11	-47.5	-50.4	21.7	6.06e-01	0	41	0	158859264	67	4766
2026-01-15 10:23:41.96	98.88	15.19	-47.4	-50.2	21.8	6.08e-01	0	41	0	160956416	66	4965
2026-01-15 10:23:42.95	98.70	15.27	-47.4	-50.3	21.8	6.07e-01	0	41	0	162529280	66	5004
2026-01-15 10:23:43.94	98.52	15.36	-47.4	-50.3	21.8	6.06e-01	0	41	0	164626432	66	5023
2026-01-15 10:23:44.94	98.34	15.44	-47.5	-50.4	21.8	6.07e-01	0	41	0	166723584	66	5061
2026-01-15 10:23:45.93	98.15	15.52	-47.5	-50.3	21.9	6.07e-01	0	41	0	168296448	66	5030
2026-01-15 10:23:46.92	97.97	15.60	-47.5	-50.3	21.9	6.07e-01	0	41	0	170393600	66	5023
2026-01-15 10:23:47.91	97.78	15.68	-47.6	-50.5	21.7	6.07e-01	0	42	0	171966464	66	5131
2026-01-15 10:23:48.91	97.60	15.76	-47.6	-50.5	21.6	6.05e-01	0	41	0	174063616	66	5154
2026-01-15 10:23:49.90	97.41	15.84	-47.6	-50.5	21.7	6.07e-01	0	41	0	175636480	66	5143
2026-01-15 10:23:50.89	97.22	15.92	-47.7	-50.6	21.6	6.07e-01	0	41	0	177733632	66	5210
2026-01-15 10:23:51.89	97.03	16.00	-47.6	-50.5	21.7	6.06e-01	0	41	0	179306496	66	5157
2026-01-15 10:23:52.88	96.84	16.08	-47.6	-50.5	21.7	6.05e-01	0	41	0	181403648	66	5149
2026-01-15 10:23:53.87	96.65	16.16	-47.5	-50.4	21.8	6.07e-01	0	41	0	183500800	66	5084
2026-01-15 10:23:54.87	96.45	16.25	-47.6	-50.5	21.8	6.07e-01	0	41	0	185073664	66	5106
2026-01-15 10:23:55.86	96.26	16.33	-47.5	-50.4	21.8	6.06e-01	0	41	0	186646528	66	5068
2026-01-15 10:23:56.85	96.06	16.41	-47.5	-50.5	21.8	6.08e-01	0	41	0	188743680	66	5104
2026-01-15 10:23:57.84	95.86	16.49	-47.6	-50.6	21.7	6.06e-01	0	41	0	190840832	66	5166
2026-01-15 10:23:58.84	95.67	16.57	-47.5	-50.4	21.7	6.08e-01	0	41	0	192413696	66	5086
2026-01-15 10:23:59.83	95.47	16.65	-47.5	-50.4	21.7	6.06e-01	0	41	0	194510848	66	5075
2026-01-15 10:24:00.82	95.27	16.73	-47.5	-50.5	21.7	6.05e-01	0	41	0	196083712	66	5104
2026-01-15 10:24:01.82	95.06	16.81	-47.5	-50.4	21.7	6.10e-01	0	41	0	198180864	66	5083
2026-01-15 10:24:02.81	94.86	16.89	-47.3	-50.2	21.8	6.06e-01	0	41	0	200278016	66	4962
2026-01-15 10:24:03.80	94.66	16.97	-47.3	-50.2	21.8	6.06e-01	0	41	0	201850880	66	4973
2026-01-15 10:24:04.80	94.45	17.05	-47.4	-50.3	21.8	6.07e-01	0	41	0	203423744	66	5016
2026-01-15 10:24:05.79	94.25	17.13	-47.4	-50.3	21.9	6.07e-01	0	41	0	205520896	66	5015
2026-01-15 10:24:06.78	94.04	17.21	-47.5	-50.4	21.9	6.07e-01	0	41	0	207618048	66	5058
2026-01-15 10:24:07.77	93.83	17.29	-47.6	-50.5	21.7	6.08e-01	0	41	0	209190912	66	5155
2026-01-15 10:24:08.77	93.62	17.37	-47.6	-50.5	21.8	6.08e-01	0	41	0	211288064	66	5114
2026-01-15 10:24:09.76	93.41	17.45	-47.5	-50.4	21.7	6.10e-01	0	41	0	212860928	66	5085
2026-01-15 10:24:10.75	93.20	17.53	-47.5	-50.4	21.7	6.09e-01	0	41	0	214958080	66	5058
2026-01-15 10:24:11.75	92.98	17.61	-47.5	-50.5	21.7	6.06e-01	0	41	0	216530944	66	5106
2026-01-15 10:24:12.74	92.77	17.69	-47.4	-50.3	21.8	6.06e-01	0	41	0	218628096	66	5026
2026-01-15 10:24:13.73	92.56	17.77	-47.3	-50.3	21.5	6.09e-01	0	41	0	220725248	66	5030
2026-01-15 10:24:14.73	92.34	17.85	-47.4	-50.4	21.5	6.06e-01	0	41	0	222298112	66	5070
2026-01-15 10:24:15.72	92.12	17.93	-47.4	-50.5	21.6	6.07e-01	0	41	0	224395264	66	5143
2026-01-15 10:24:16.71	91.90	18.01	-47.5	-50.5	21.6	6.07e-01	0	41	0	225968128	66	5159
2026-01-15 10:24:17.70	91.68	18.09	-47.4	-50.4	21.8	6.08e-01	0	41	0	228065280	66	5081
2026-01-15 10:24:18.70	91.46	18.17	-47.4	-50.4	21.7	6.09e-01	0	41	0	229638144	66	5072
2026-01-15 10:24:19.69	91.24	18.25	-47.5	-50.5	21.7	6.08e-01	0	41	0	231735296	66	5111
2026-01-15 10:24:20.68	91.01	18.33	-47.6	-50.5	21.8	6.06e-01	0	41	0	233308160	66	5139
2026-01-15 10:24:21.68	90.78	18.41	-47.5	-50.4	21.9	6.05e-01	0	41	0	235405312	66	5077
2026-01-15 10:24:22.67	90.56	18.48	-47.5	-50.5	21.8	6.06e-01	0	41	0	237502464	66	5102
2026-01-15 10:24:23.66	90.33	18.56	-47.5	-50.5	21.7	6.08e-01	0	41	0	239075328	66	5155
2026-01-15 10:24:24.65	90.10	18.64	-47.4	-50.5	21.8	6.07e-01	0	41	0	240648192	66	5131
2026-01-15 10:24:25.65	89.87	18.72	-47.3	-50.5	21.8	6.07e-01	0	41	0	242745344	66	5116
2026-01-15 10:24:26.64	89.64	18.79	-47.3	-50.4	21.9	6.07e-01	0	41	0	244842496	66	5085
2026-01-15 10:24:27.63	89.41	18.87	-47.2	-50.3	22.0	6.06e-01	0	42	0	246415360	66	5034
2026-01-15 10:24:28.62	89.17	18.95	-47.3	-50.4	21.9	6.06e-01	0	41	0	248512512	66	5086
2026-01-15 10:24:29.62	88.94	19.03	-47.4	-50.5	21.8	6.06e-01	0	41	0	250085376	66	5157
2026-01-15 10:24:30.61	88.70	19.10	-47.4	-50.5	21.8	6.06e-01	0	41	0	252182528	66	5137
2026-01-15 10:24:31.60	88.46	19.18	-47.4	-50.5	21.8	6.05e-01	0	41	0	253755392	66	5123
2026-01-15 10:24:32.59	88.22	19.26	-47.4	-50.6	21.8	6.09e-01	0	41	0	255852544	66	5170
2026-01-15 10:24:33.59	87.98	19.33	-47.3	-50.5	21.8	6.08e-01	0	41	0	257425408	66	5119
2026-01-15 10:24:34.58	87.74	19.41	-47.3	-50.5	21.8	6.09e-01	0	42	0	259522560	66	5135
2026-01-15 10:24:35.57	87.50	19.48	-47.3	-50.5	21.8	6.06e-01	0	41	0	261619712	66	5139
2026-01-15 10:24:36.57	87.25	19.56	-47.2	-50.4	21.9	6.07e-01	0	41	0	263192576	66	5084
2026-01-15 10:24:37.56	87.01	19.63	-47.3	-50.5	21.8	6.06e-01	0	41	0	265289728	66	5109
2026-01-15 10:24:38.55	86.76	19.71	-47.4	-50.6	21.7	6.05e-01	0	41	0	266862592	66	5216
2026-01-15 10:24:39.55	86.51	19.78	-47.5	-50.7	21.7	6.06e-01	0	41	0	268959744	66	5253
2026-01-15 10:24:40.54	86.26	19.86	-47.3	-50.5	21.8	6.07e-01	0	41	0	270532608	66	5109
2026-01-15 10:24:41.53	86.01	19.93	-47.3	-50.4	21.8	6.06e-01	0	42	0	272629760	66	5083
2026-01-15 10:24:42.52	85.76	20.00	-47.5	-50.6	21.7	6.10e-01	0	41	0	274726912	66	5171
2026-01-15 10:24:43.52	85.51	20.08	-47.5	-50.7	21.7	6.05e-01	0	41	0	276299776	66	5226
2026-01-15 10:24:44.51	85.25	20.15	-47.5	-50.6	21.7	6.07e-01	0	41	0	278396928	66	5206
2026-01-15 10:24:45.50	85.00	20.22	-47.5	-50.6	21.7	6.05e-01	0	42	0	279969792	66	5213
2026-01-15 10:24:46.50	84.74	20.30	-47.5	-50.7	21.6	6.06e-01	0	42	0	282066944	66	5234
2026-01-15 10:24:47.49	84.48	20.37	-47.5	-50.6	21.7	6.07e-01	0	42	0	283639808	66	5196
2026-01-15 10:24:48.48	84.22	20.44	-47.4	-50.6	21.7	6.05e-01	0	41	0	285736960	66	5199
2026-01-15 10:24:49.48	83.96	20.51	-47.4	-50.6	21.7	6.06e-01	0	41	0	287309824	66	5204
2026-01-15 10:24:50.47	83.70	20.58	-47.4	-50.6	21.7	6.09e-01	0	42	0	289406976	66	5210
2026-01-15 10:24:51.46	83.44	20.65	-47.4	-50.6	21.7	6.07e-01	0	41	0	291504128	66	5183
2026-01-15 10:24:52.46	83.17	20.72	-47.5	-50.7	21.6	6.06e-01	0	42	0	293076992	66	5222
2026-01-15 10:24:53.45	82.90	20.79	-47.6	-50.7	21.6	6.08e-01	0	42	0	294649856	66	5270
2026-01-15 10:24:54.44	82.64	20.86	-47.6	-50.7	21.6	6.07e-01	0	42	0	296747008	66	5257
2026-01-15 10:24:55.43	82.37	20.93	-47.6	-50.8	21.6	6.05e-01	0	41	0	298844160	66	5283
2026-01-15 10:24:56.43	82.10	21.00	-47.5	-50.7	21.6	6.07e-01	0	42	0	300417024	66	5234
2026-01-15 10:24:57.42	81.83	21.06	-47.6	-50.8	21.5	6.07e-01	0	41	0	302514176	66	5314
2026-01-15 10:24:58.41	81.56	21.13	-47.7	-50.9	21.5	6.08e-01	0	42	0	304087040	66	5358
2026-01-15 10:24:59.40	81.28	21.20	-47.9	-51.0	21.3	6.05e-01	0	42	0	306184192	66	5458
2026-01-15 10:25:00.40	81.01	21.26	-47.8	-50.8	21.5	6.05e-01	0	42	0	307757056	66	5314
2026-01-15 10:25:01.39	80.73	21.33	-47.6	-50.6	21.7	6.05e-01	0	42	0	309854208	66	5178
2026-01-15 10:25:02.38	80.45	21.40	-47.6	-50.6	21.7	6.07e-01	0	41	0	311427072	66	5182
2026-01-15 10:25:03.38	80.17	21.46	-47.7	-50.6	21.7	6.05e-01	0	41	0	313524224	66	5214
2026-01-15 10:25:04.37	79.89	21.52	-47.6	-50.6	21.8	6.06e-01	0	42	0	315621376	66	5183
2026-01-15 10:25:05.36	79.61	21.59	-47.7	-50.7	21.7	6.08e-01	0	41	0	317194240	66	5243
2026-01-15 10:25:06.35	79.33	21.65	-47.7	-50.7	21.7	6.08e-01	0	42	0	319291392	66	5255
2026-01-15 10:25:07.35	79.05	21.71	-47.8	-50.8	21.6	6.07e-01	0	41	0	320864256	66	5309
2026-01-15 10:25:08.34	78.76	21.78	-47.8	-50.8	21.6	6.06e-01	0	42	0	322961408	66	5304
2026-01-15 10:25:09.33	78.48	21.84	-47.9	-50.8	21.6	6.09e-01	0	41	0	324534272	66	5338
2026-01-15 10:25:10.33	78.19	21.90	-47.8	-50.8	21.6	6.07e-01	0	41	0	326631424	66	5288
2026-01-15 10:25:11.32	77.90	21.96	-47.6	-50.6	21.8	6.09e-01	0	42	0	328728576	66	5198
2026-01-15 10:25:12.31	77.61	22.02	-47.6	-50.7	21.7	6.06e-01	0	41	0	330301440	66	5237
2026-01-15 10:25:13.30	77.32	22.08	-47.7	-50.8	21.6	6.06e-01	0	41	0	331874304	66	5313
2026-01-15 10:25:14.30	77.03	22.14	-47.7	-50.9	21.5	6.07e-01	0	42	0	333971456	66	5394
2026-01-15 10:25:15.29	76.74	22.20	-47.9	-51.1	21.3	6.08e-01	0	42	0	336068608	66	5466
2026-01-15 10:25:16.28	76.45	22.25	-47.8	-51.0	21.4	6.06e-01	0	42	0	337641472	66	5407
2026-01-15 10:25:17.28	76.15	22.31	-47.7	-50.7	21.6	6.08e-01	0	41	0	339738624	66	5277
2026-01-15 10:25:18.27	75.85	22.37	-47.7	-50.7	21.7	6.05e-01	0	41	0	341311488	66	5261
2026-01-15 10:25:19.26	75.56	22.42	-47.8	-50.9	21.5	6.09e-01	0	41	0	343408640	66	5352
2026-01-15 10:25:20.26	75.26	22.48	-47.9	-51.0	21.4	6.07e-01	0	42	0	344981504	66	5415
2026-01-15 10:25:21.25	74.96	22.53	-47.9	-50.9	21.5	6.05e-01	0	42	0	347078656	66	5388
2026-01-15 10:25:22.24	74.66	22.58	-47.9	-50.9	21.5	6.08e-01	0	42	0	348651520	66	5397
2026-01-15 10:25:23.24	74.35	22.64	-47.8	-50.8	21.6	6.07e-01	0	42	0	350748672	66	5280
2026-01-15 10:25:24.23	74.05	22.69	-47.8	-50.8	21.6	6.07e-01	0	41	0	352845824	66	5308
2026-01-15 10:25:25.22	73.75	22.74	-47.9	-50.9	21.5	6.06e-01	0	42	0	354418688	66	5379
2026-01-15 10:25:26.21	73.44	22.79	-47.9	-50.8	21.6	6.05e-01	0	42	0	356515840	66	5340
2026-01-15 10:25:27.21	73.14	22.84	-47.9	-50.9	21.5	6.06e-01	0	42	0	358088704	66	5393
2026-01-15 10:25:28.20	72.83	22.89	-47.9	-51.0	21.5	6.05e-01	0	41	0	360185856	66	5403
2026-01-15 10:25:29.19	72.52	22.94	-47.8	-50.8	21.6	6.06e-01	0	41	0	361758720	66	5311
2026-01-15 10:25:30.18	72.21	22.99	-47.9	-50.9	21.5	6.06e-01	0	41	0	363855872	66	5349
2026-01-15 10:25:31.18	71.90	23.03	-47.9	-50.9	21.5	6.06e-01	0	42	0	365428736	66	5377
2026-01-15 10:25:32.17	71.59	23.08	-47.9	-50.9	21.5	6.07e-01	0	42	0	367525888	66	5361
2026-01-15 10:25:33.16	71.28	23.13	-47.9	-50.8	21.6	6.06e-01	0	42	0	369623040	66	5337
2026-01-15 10:25:34.16	70.97	23.17	-47.9	-50.9	21.5	6.07e-01	0	41	0	371195904	66	5345
2026-01-15 10:25:35.15	70.65	23.21	-47.9	-51.0	21.4	6.07e-01	0	41	0	373293056	66	5419
2026-01-15 10:25:36.14	70.34	23.26	-47.8	-50.8	21.6	6.06e-01	0	42	0	374865920	66	5331
2026-01-15 10:25:37.13	70.03	23.30	-47.9	-50.9	21.5	6.07e-01	0	42	0	376963072	66	5362
2026-01-15 10:25:38.13	69.71	23.34	-48.0	-51.0	21.5	6.07e-01	0	41	0	378535936	66	5403
2026-01-15 10:25:39.12	69.39	23.38	-48.0	-51.0	21.5	6.08e-01	0	42	0	380633088	66	5411
2026-01-15 10:25:40.11	69.07	23.42	-47.9	-50.9	21.5	6.07e-01	0	42	0	382205952	66	5389
2026-01-15 10:25:41.11	68.75	23.46	-47.9	-50.9	21.5	6.06e-01	0	42	0	384303104	66	5397
2026-01-15 10:25:42.10	68.43	23.50	-48.0	-51.0	21.4	6.09e-01	0	42	0	385875968	66	5438
2026-01-15 10:25:43.09	68.11	23.53	-47.9	-50.9	21.6	6.06e-01	0	42	0	387973120	66	5346
2026-01-15 10:25:44.09	67.79	23.57	-48.0	-51.0	21.5	6.08e-01	0	42	0	390070272	66	5414
2026-01-15 10:25:45.08	67.47	23.61	-48.0	-51.1	21.4	6.07e-01	0	42	0	391643136	66	5473
2026-01-15 10:25:46.07	67.15	23.64	-47.9	-50.8	21.6	6.07e-01	0	42	0	393740288	66	5335
2026-01-15 10:25:47.06	66.82	23.67	-47.9	-50.9	21.6	6.06e-01	0	41	0	395313152	66	5358
2026-01-15 10:25:48.06	66.50	23.71	-47.9	-50.9	21.5	6.07e-01	0	41	0	397410304	66	5376
2026-01-15 10:25:49.05	66.17	23.74	-48.0	-51.0	21.5	6.07e-01	0	41	0	398983168	66	5414
2026-01-15 10:25:50.04	65.85	23.77	-48.1	-51.0	21.4	6.07e-01	0	42	0	401080320	66	5459
2026-01-15 10:25:51.04	65.52	23.80	-48.0	-50.9	21.5	6.09e-01	0	42	0	402653184	66	5371
2026-01-15 10:25:52.03	65.19	23.83	-47.8	-50.7	21.7	6.07e-01	0	42	0	404750336	66	5273
2026-01-15 10:25:53.02	64.87	23.85	-47.9	-50.9	21.5	6.04e-01	0	42	0	406847488	66	5369
2026-01-15 10:25:54.01	64.54	23.88	-47.9	-51.0	21.4	6.07e-01	0	42	0	408420352	66	5447
2026-01-15 10:25:55.01	64.21	23.91	-47.9	-51.0	21.5	6.07e-01	0	42	0	410517504	66	5411
2026-01-15 10:25:56.00	63.88	23.93	-47.9	-50.9	21.5	6.03e-01	0	42	0	412090368	66	5393
2026-01-15 10:25:56.99	63.55	23.96	-47.9	-51.0	21.5	6.08e-01	0	42	0	414187520	66	5434
2026-01-15 10:25:57.99	63.22	23.98	-48.0	-51.1	21.4	6.08e-01	0	42	0	415760384	66	5486
2026-01-15 10:25:58.98	62.89	24.00	-48.1	-51.1	21.3	6.07e-01	0	42	0	417857536	66	5508
2026-01-15 10:25:59.97	62.56	24.02	-48.1	-51.2	21.2	6.05e-01	0	42	0	419430400	66	5571
2026-01-15 10:26:00.96	62.23	24.04	-48.1	-51.1	21.3	6.06e-01	0	42	0	421527552	66	5508
2026-01-15 10:26:01.96	61.89	24.06	-48.1	-51.1	21.3	6.05e-01	0	42	0	423100416	66	5524
2026-01-15 10:26:02.95	61.56	24.08	-48.1	-51.2	21.3	6.07e-01	0	42	0	425197568	67	5236
2026-01-15 10:26:03.94	61.23	24.10	-48.1	-51.1	21.3	6.05e-01	0	41	0	427294720	67	5167
2026-01-15 10:26:04.93	60.90	24.11	-48.1	-51.2	21.3	6.08e-01	0	42	0	428867584	67	5231
2026-01-15 10:26:05.93	60.56	24.13	-48.0	-51.0	21.4	6.06e-01	0	42	0	430964736	67	5159
2026-01-15 10:26:06.92	60.23	24.14	-47.9	-51.0	21.5	6.10e-01	0	42	0	432537600	67	5119
2026-01-15 10:26:07.91	59.90	24.16	-47.9	-51.1	21.3	6.07e-01	0	41	0	434634752	67	5179
2026-01-15 10:26:08.91	59.56	24.17	-48.0	-51.2	21.3	6.04e-01	0	42	0	436207616	67	5235
2026-01-15 10:26:09.90	59.23	24.18	-48.0	-51.1	21.3	6.07e-01	0	42	0	438304768	67	5209
2026-01-15 10:26:10.89	58.89	24.19	-48.0	-51.1	21.3	6.05e-01	0	42	0	439877632	67	5185
2026-01-15 10:26:11.88	58.56	24.20	-47.9	-50.9	21.5	6.06e-01	0	42	0	441974784	67	5092
2026-01-15 10:26:12.88	58.22	24.21	-47.9	-51.0	21.5	6.06e-01	0	42	0	444071936	67	5109
2026-01-15 10:26:13.87	57.88	24.22	-47.9	-50.9	21.5	6.09e-01	0	41	0	445644800	67	5099
2026-01-15 10:26:14.86	57.55	24.22	-47.9	-51.1	21.4	6.06e-01	0	42	0	447741952	67	5170
2026-01-15 10:26:15.86	57.21	24.23	-47.9	-51.1	21.3	6.07e-01	0	41	0	449314816	67	5182
2026-01-15 10:26:16.85	56.88	24.23	-47.9	-51.0	21.4	6.05e-01	0	42	0	451411968	67	5134
2026-01-15 10:26:17.84	56.54	24.23	-47.9	-51.0	21.4	6.07e-01	0	42	0	452984832	67	5138
2026-01-15 10:26:18.83	56.21	24.24	-47.9	-50.9	21.5	6.07e-01	0	42	0	455081984	67	5095
2026-01-15 10:26:19.83	55.87	24.24	-47.9	-51.0	21.4	6.06e-01	0	42	0	456654848	67	5115
2026-01-15 10:26:20.82	55.53	24.24	-48.0	-51.1	21.4	6.08e-01	0	42	0	458752000	67	5163
2026-01-15 10:26:21.81	55.20	24.24	-48.0	-51.0	21.4	6.07e-01	0	42	0	460849152	67	5147
2026-01-15 10:26:22.81	54.86	24.23	-48.0	-51.1	21.3	6.06e-01	0	42	0	462422016	67	5179
2026-01-15 10:26:23.80	54.52	24.23	-48.1	-51.1	21.3	6.07e-01	0	42	0	464519168	67	5195
2026-01-15 10:26:24.79	54.19	24.23	-48.0	-51.1	21.4	6.06e-01	0	42	0	466092032	67	5170
2026-01-15 10:26:25.78	53.85	24.22	-48.0	-51.2	21.3	6.07e-01	0	42	0	468189184	67	5237
2026-01-15 10:26:26.78	53.52	24.22	-47.9	-51.1	21.4	6.07e-01	0	42	0	469762048	67	5165
2026-01-15 10:26:27.77	53.18	24.21	-47.9	-51.0	21.4	6.08e-01	0	42	0	471859200	67	5158
2026-01-15 10:26:28.76	52.85	24.20	-47.9	-51.0	21.4	6.07e-01	0	42	0	473432064	67	5157
2026-01-15 10:26:29.76	52.51	24.19	-48.0	-51.2	21.3	6.05e-01	0	41	0	475529216	67	5237
2026-01-15 10:26:30.75	52.18	24.18	-48.1	-51.3	21.2	6.05e-01	0	42	0	477102080	67	5283
2026-01-15 10:26:31.74	51.84	24.17	-48.4	-60.8	3.7	7.48e-01	0	42	104	478150656	67	15850
2026-01-15 10:26:32.73	51.51	24.16	-48.4	-60.8	3.8	7.46e-01	0	42	104	478150656	67	15826
2026-01-15 10:26:33.73	51.17	24.14	-48.4	-60.8	3.9	7.45e-01	0	42	104	478150656	67	15790
2026-01-15 10:26:34.72	50.84	24.13	-48.9	-61.5	3.8	7.48e-01	0	42	104	478150656	68	16222
2026-01-15 10:26:35.71	50.51	24.11	-51.1	-64.9	3.8	7.44e-01	0	42	104	478150656	72	19105
2026-01-15 10:26:36.70	50.18	24.10	-54.0	-73.6	3.8	7.45e-01	0	42	104	478150656	78	36535
2026-01-15 10:26:37.70	49.84	24.08	-51.5	-66.2	3.9	7.46e-01	0	42	104	478150656	75	18625
2026-01-15 10:26:38.69	49.51	24.06	-53.1	-70.8	3.8	7.51e-01	0	42	104	478150656	76	29811
2026-01-15 10:26:39.68	49.18	24.04	-50.6	-64.4	3.8	7.46e-01	0	42	104	478150656	73	16924
2026-01-15 10:26:40.68	48.85	24.02	-49.6	-62.3	3.9	7.46e-01	0	42	104	478150656	71	15036
2026-01-15 10:26:41.67	48.52	24.00	-49.6	-62.4	3.8	7.44e-01	0	42	104	478150656	70	16012
2026-01-15 10:26:42.66	48.19	23.98	-49.2	-61.9	3.8	7.47e-01	0	42	104	478150656	70	15166
2026-01-15 10:26:43.66	47.85	23.96	-49.5	-62.5	3.9	7.45e-01	0	42	104	478150656	69	17273
2026-01-15 10:26:44.65	47.53	23.93	-49.0	-61.7	3.8	7.47e-01	0	42	104	478150656	69	15695
2026-01-15 10:26:45.64	47.20	23.91	-53.5	-73.6	3.8	7.48e-01	0	42	104	478150656	77	38977
2026-01-15 10:26:46.63	46.87	23.88	-51.9	-67.4	4.0	7.40e-01	0	42	104	478150656	76	20091
2026-01-15 10:26:47.63	46.54	23.85	-53.0	-69.7	3.7	7.50e-01	0	42	104	478150656	76	26202
2026-01-15 10:26:48.62	46.21	23.83	-51.1	-65.2	3.7	7.49e-01	0	42	104	478150656	74	17500
2026-01-15 10:26:49.61	45.89	23.80	-49.5	-62.3	3.9	7.58e-01	0	42	104	478150656	71	15034
2026-01-15 10:26:50.61	45.56	23.77	-49.4	-62.1	3.9	7.34e-01	0	42	104	478150656	70	15422
2026-01-15 10:26:51.60	45.24	23.74	-49.5	-62.2	3.7	7.45e-01	0	42	104	478150656	70	15670
2026-01-15 10:26:52.59	44.91	23.70	-49.9	-63.2	3.8	7.44e-01	0	42	104	478150656	70	17543
2026-01-15 10:26:53.58	44.59	23.67	-50.2	-63.7	3.8	7.46e-01	0	42	104	478150656	72	16545
2026-01-15 10:26:54.58	44.27	23.64	-53.6	-73.5	3.7	7.51e-01	0	42	104	478150656	77	38667
2026-01-15 10:26:55.57	43.94	23.60	-52.6	-68.7	4.1	7.39e-01	0	42	104	478150656	77	22028
2026-01-15 10:26:56.56	43.62	23.57	-52.6	-68.5	3.8	7.50e-01	0	42	104	478150656	75	24163
2026-01-15 10:26:57.56	43.30	23.53	-51.9	-68.0	4.0	7.42e-01	0	42	104	478150656	76	21605
2026-01-15 10:26:58.55	42.98	23.50	-49.4	-62.3	3.8	7.47e-01	0	42	104	478150656	70	15843
2026-01-15 10:26:59.54	42.66	23.46	-48.8	-61.3	3.8	7.45e-01	0	42	104	478150656	69	14883
2026-01-15 10:27:00.54	42.34	23.42	-48.6	-60.9	3.8	7.45e-01	0	42	104	478150656	69	14344
2026-01-15 10:27:01.53	42.03	23.38	-49.9	-62.9	3.8	7.43e-01	0	42	104	478150656	70	16966
2026-01-15 10:27:02.52	41.71	23.34	-49.5	-62.4	3.8	7.47e-01	0	42	104	478150656	71	15189
2026-01-15 10:27:03.51	41.40	23.30	-53.7	-72.9	3.7	7.54e-01	0	42	104	478150656	78	33761
2026-01-15 10:27:04.51	41.08	23.26	-53.6	-72.3	3.8	7.44e-01	0	42	104	478150656	78	31734
2026-01-15 10:27:05.50	40.77	23.21	-51.3	-65.7	3.8	7.48e-01	0	41	104	478150656	73	19658
2026-01-15 10:27:06.49	40.45	23.17	-52.3	-69.2	4.0	7.42e-01	0	42	104	478150656	76	24910
2026-01-15 10:27:07.49	40.14	23.12	-49.5	-62.6	3.8	7.44e-01	0	41	104	478150656	71	15523
2026-01-15 10:27:08.48	39.83	23.08	-49.0	-61.9	3.8	7.44e-01	0	42	104	478150656	70	15092
2026-01-15 10:27:09.47	39.52	23.03	-48.6	-61.5	3.8	7.45e-01	0	42	104	478150656	69	15249
2026-01-15 10:27:10.46	39.21	22.99	-48.7	-61.7	3.8	7.47e-01	0	42	104	478150656	68	16610
2026-01-15 10:27:11.46	38.90	22.94	-48.5	-61.8	3.8	7.43e-01	0	42	104	478150656	69	15794
2026-01-15 10:27:12.45	38.60	22.89	-51.1	-70.3	3.7	7.49e-01	0	42	104	478150656	72	35523
2026-01-15 10:27:13.44	38.29	22.84	-51.2	-73.0	3.8	7.40e-01	0	42	104	478150656	73	45813
2026-01-15 10:27:14.44	37.98	22.79	-50.4	-64.5	3.8	7.44e-01	0	42	104	478150656	71	19288
2026-01-15 10:27:15.43	37.68	22.74	-52.0	-69.9	3.9	7.43e-01	0	42	104	478150656	75	28375
2026-01-15 10:27:16.42	37.38	22.69	-49.2	-62.4	3.8	7.46e-01	0	42	104	478150656	70	16006
2026-01-15 10:27:17.41	37.08	22.64	-48.9	-62.1	3.8	7.47e-01	0	42	104	478150656	69	16475
2026-01-15 10:27:18.41	36.78	22.58	-48.6	-61.8	3.8	7.49e-01	0	42	104	478150656	69	15802
2026-01-15 10:27:19.40	36.48	22.53	-49.1	-62.6	3.8	7.48e-01	0	42	104	478150656	69	17441
2026-01-15 10:27:20.39	36.18	22.48	-52.5	-70.4	3.9	7.45e-01	0	42	104	478150656	76	28566
2026-01-15 10:27:21.39	35.88	22.42	-52.2	-69.0	3.8	7.51e-01	0	42	104	478150656	74	27270
2026-01-15 10:27:22.38	35.58	22.37	-52.7	-73.2	3.8	7.46e-01	0	42	104	478150656	76	39438
2026-01-15 10:27:23.37	35.29	22.31	-50.1	-63.6	3.8	7.46e-01	0	42	104	478150656	70	18511
2026-01-15 10:27:24.36	35.00	22.25	-52.3	-70.5	3.9	7.41e-01	0	42	104	478150656	75	30682
2026-01-15 10:27:25.36	34.70	22.20	-49.0	-62.2	3.8	7.44e-01	0	42	104	478150656	70	15610
2026-01-15 10:27:26.35	34.41	22.14	-49.3	-62.5	3.8	7.43e-01	0	42	104	478150656	70	16222
2026-01-15 10:27:27.34	34.12	22.08	-49.1	-62.3	3.8	7.47e-01	0	42	104	478150656	70	15844
2026-01-15 10:27:28.33	33.83	22.02	-49.1	-62.2	3.8	7.49e-01	0	42	104	478150656	69	16563
2026-01-15 10:27:29.33	33.54	21.96	-52.1	-70.6	3.9	7.46e-01	0	42	104	478150656	74	32778
2026-01-15 10:27:30.32	33.25	21.90	-51.6	-67.9	3.8	7.47e-01	0	42	104	478150656	73	25399
2026-01-15 10:27:31.31	32.97	21.84	-52.4	-73.2	3.8	7.48e-01	0	42	104	478150656	75	41790
2026-01-15 10:27:32.31	32.68	21.78	-49.6	-63.1	3.8	7.49e-01	0	42	104	478150656	70	17322
2026-01-15 10:27:33.30	32.40	21.72	-52.5	-71.5	3.8	7.43e-01	0	42	104	478150656	75	34129
2026-01-15 10:27:34.29	32.12	21.65	-49.1	-62.3	3.8	7.43e-01	0	42	104	478150656	70	15865
2026-01-15 10:27:35.29	31.84	21.59	-48.7	-61.7	3.8	7.45e-01	0	42	104	478150656	69	15606
2026-01-15 10:27:36.28	31.56	21.53	-48.3	-61.2	3.8	7.47e-01	0	42	104	478150656	68	15644
2026-01-15 10:27:37.27	31.28	21.46	-47.7	-60.7	3.8	7.43e-01	0	42	104	478150656	67	15634
2026-01-15 10:27:38.26	31.00	21.40	-49.1	-62.6	3.9	7.42e-01	0	42	104	478150656	70	16491
2026-01-15 10:27:39.26	30.72	21.33	-49.7	-66.3	3.8	7.47e-01	0	42	104	478150656	69	26686
2026-01-15 10:27:40.25	30.45	21.27	-51.1	-73.1	3.8	7.47e-01	0	42	104	478150656	73	46246
2026-01-15 10:27:41.24	30.18	21.20	-48.8	-62.5	3.8	7.47e-01	0	42	104	478150656	69	17156
2026-01-15 10:27:42.24	29.90	21.14	-52.5	-71.5	3.8	7.45e-01	0	42	104	478150656	75	34374
2026-01-15 10:27:43.23	29.63	21.07	-48.9	-62.3	3.8	7.45e-01	0	42	104	478150656	69	16785
2026-01-15 10:27:44.22	29.36	21.00	-48.8	-62.3	3.8	7.45e-01	0	42	104	478150656	69	16829
2026-01-15 10:27:45.22	29.09	20.93	-48.4	-62.0	3.8	7.46e-01	0	42	104	478150656	68	17196
2026-01-15 10:27:46.21	28.83	20.86	-48.1	-61.7	3.8	7.44e-01	0	42	104	478150656	68	16559
2026-01-15 10:27:47.20	28.56	20.80	-50.2	-64.8	3.8	7.47e-01	0	42	104	478150656	71	20058
2026-01-15 10:27:48.19	28.30	20.73	-50.4	-67.3	3.8	7.48e-01	0	42	104	478150656	71	26668
2026-01-15 10:27:49.19	28.03	20.66	-52.5	-73.2	3.8	7.47e-01	0	42	104	478150656	75	41633
2026-01-15 10:27:50.18	27.77	20.59	-49.0	-62.4	3.8	7.46e-01	0	42	104	478150656	69	16979
2026-01-15 10:27:51.17	27.51	20.52	-51.9	-72.7	3.8	7.46e-01	0	42	104	478150656	74	41465
2026-01-15 10:27:52.17	27.25	20.45	-48.5	-61.8	3.8	7.42e-01	0	42	104	478150656	69	15790
2026-01-15 10:27:53.16	26.99	20.37	-47.8	-60.8	3.8	7.43e-01	0	42	104	478150656	67	15916
2026-01-15 10:27:54.15	26.73	20.30	-47.4	-60.7	3.8	7.47e-01	0	42	104	478150656	66	16547
2026-01-15 10:27:55.14	26.48	20.23	-47.4	-60.8	3.8	7.47e-01	0	42	104	478150656	66	16820
2026-01-15 10:27:56.14	26.22	20.16	-50.4	-65.9	3.8	7.42e-01	0	42	104	478150656	72	21438
2026-01-15 10:27:57.13	25.97	20.09	-49.6	-64.7	3.8	7.47e-01	0	42	104	478150656	69	22184
2026-01-15 10:27:58.12	25.72	20.01	-50.6	-73.0	3.8	7.45e-01	0	42	104	478150656	72	48202
2026-01-15 10:27:59.11	25.47	19.94	-48.5	-61.9	3.8	7.46e-01	0	42	104	478150656	68	16924
2026-01-15 10:28:00.11	25.22	19.87	-52.2	-71.6	3.9	7.46e-01	0	42	104	478150656	75	34518
2026-01-15 10:28:01.10	24.97	19.79	-48.9	-62.2	3.8	7.44e-01	0	42	104	478150656	69	16573
2026-01-15 10:28:02.09	24.72	19.72	-48.7	-61.7	3.8	7.44e-01	0	42	104	478150656	69	15650
2026-01-15 10:28:03.09	24.48	19.64	-48.3	-61.1	3.8	7.45e-01	0	42	104	478150656	68	15477
2026-01-15 10:28:04.08	24.23	19.57	-48.1	-60.8	3.8	7.46e-01	0	42	104	478150656	68	15008
2026-01-15 10:28:05.07	23.99	19.49	-50.3	-64.4	3.8	7.47e-01	0	42	104	478150656	71	19075
2026-01-15 10:28:06.07	23.75	19.42	-50.2	-64.3	3.8	7.46e-01	0	42	104	478150656	70	19979
2026-01-15 10:28:07.06	23.51	19.34	-52.5	-73.1	3.8	7.45e-01	0	42	104	478150656	75	41123
2026-01-15 10:28:08.05	23.27	19.27	-48.9	-61.9	3.8	7.46e-01	0	42	104	478150656	69	16054
2026-01-15 10:28:09.05	23.03	19.19	-52.3	-71.2	3.8	7.51e-01	0	42	104	478150656	75	32961
2026-01-15 10:28:10.04	22.79	19.12	-48.9	-62.0	3.8	7.41e-01	0	42	104	478150656	69	16231
2026-01-15 10:28:11.03	22.56	19.04	-49.0	-62.0	3.8	7.46e-01	0	42	104	478150656	69	16132
2026-01-15 10:28:12.02	22.32	18.96	-48.7	-61.3	3.8	7.43e-01	0	42	104	478150656	69	15013
2026-01-15 10:28:13.02	22.09	18.89	-48.7	-61.2	3.8	7.42e-01	0	42	104	478150656	69	14782
2026-01-15 10:28:14.01	21.86	18.81	-51.0	-65.1	3.8	7.47e-01	0	42	104	478150656	72	19467
2026-01-15 10:28:15.00	21.63	18.73	-49.9	-63.5	3.8	7.46e-01	0	42	104	478150656	70	18255
2026-01-15 10:28:16.00	21.40	18.65	-53.0	-73.1	3.8	7.47e-01	0	42	104	478150656	76	39102
2026-01-15 10:28:16.99	21.17	18.58	-49.0	-61.7	3.8	7.43e-01	0	42	104	478150656	70	14790
2026-01-15 10:28:17.98	20.94	18.50	-52.1	-70.3	3.7	7.48e-01	0	42	104	478150656	74	31695
2026-01-15 10:28:18.98	20.72	18.42	-48.8	-61.8	3.8	7.46e-01	0	42	104	478150656	69	15864
2026-01-15 10:28:19.97	20.49	18.34	-48.6	-61.5	3.8	7.43e-01	0	42	104	478150656	69	15394
2026-01-15 10:28:20.96	20.27	18.26	-48.4	-61.2	3.8	7.45e-01	0	42	104	478150656	68	15691
2026-01-15 10:28:21.95	20.05	18.19	-48.1	-60.7	3.8	7.44e-01	0	42	104	478150656	68	14799
2026-01-15 10:28:22.95	19.83	18.11	-50.5	-64.5	3.8	7.48e-01	0	42	104	478150656	71	19303
2026-01-15 10:28:23.94	19.61	18.03	-49.5	-62.7	3.8	7.45e-01	0	42	104	478150656	69	17549
2026-01-15 10:28:24.93	19.39	17.95	-53.1	-73.2	3.8	7.47e-01	0	42	104	478150656	76	39425
2026-01-15 10:28:25.92	19.17	17.87	-48.8	-62.1	3.8	7.44e-01	0	42	104	478150656	69	16333
2026-01-15 10:28:26.92	18.96	17.79	-51.5	-69.4	3.8	7.49e-01	0	42	104	478150656	73	30160
2026-01-15 10:28:27.91	18.74	17.71	-48.4	-61.4	3.8	7.48e-01	0	42	104	478150656	68	16078
2026-01-15 10:28:28.90	18.53	17.63	-48.4	-61.4	3.8	7.42e-01	0	42	104	478150656	68	16123
2026-01-15 10:28:29.90	18.32	17.55	-48.6	-61.8	3.8	7.44e-01	0	42	104	478150656	68	16760
2026-01-15 10:28:30.89	18.11	17.47	-48.4	-61.1	3.8	7.47e-01	0	42	104	478150656	68	15557
2026-01-15 10:28:31.88	17.90	17.39	-50.5	-64.2	3.8	7.44e-01	0	42	104	478150656	71	18521
2026-01-15 10:28:32.87	17.69	17.31	-49.4	-62.1	3.8	7.43e-01	0	42	104	478150656	69	16461
2026-01-15 10:28:33.87	17.48	17.23	-52.7	-73.1	3.8	7.48e-01	0	42	104	478150656	76	38927
2026-01-15 10:28:34.86	17.28	17.15	-49.3	-62.2	3.9	7.45e-01	0	42	104	478150656	70	15730
2026-01-15 10:28:35.85	17.07	17.08	-52.6	-67.9	3.8	7.48e-01	0	42	104	478150656	75	22586
2026-01-15 10:28:36.85	16.87	16.99	-48.9	-61.4	3.8	7.46e-01	0	42	104	478150656	69	15132
2026-01-15 10:28:37.84	16.67	16.91	-48.9	-61.3	3.8	7.47e-01	0	42	104	478150656	69	14936
2026-01-15 10:28:38.83	16.46	16.83	-48.6	-61.1	3.8	7.48e-01	0	42	104	478150656	69	14598
2026-01-15 10:28:39.83	16.26	16.75	-48.2	-60.8	3.8	7.43e-01	0	42	104	478150656	68	14966
2026-01-15 10:28:40.82	16.06	16.67	-49.9	-64.0	3.8	7.45e-01	0	42	104	478150656	70	19238
2026-01-15 10:28:41.81	15.87	16.59	-48.6	-61.7	3.8	7.49e-01	0	42	104	478150656	67	17600
2026-01-15 10:28:42.81	15.67	16.51	-53.1	-72.4	3.8	7.50e-01	0	42	104	478150656	76	36082
2026-01-15 10:28:43.80	15.47	16.43	-49.0	-62.5	3.8	7.43e-01	0	42	104	478150656	70	16180
2026-01-15 10:28:44.79	15.28	16.35	-51.0	-66.7	3.8	7.47e-01	0	42	104	478150656	72	23330
2026-01-15 10:28:45.79	15.09	16.27	-48.8	-62.2	3.9	7.46e-01	0	42	104	478150656	69	16525
2026-01-15 10:28:46.78	14.89	16.19	-48.7	-62.1	3.8	7.43e-01	0	42	104	478150656	69	16485
2026-01-15 10:28:47.77	14.70	16.11	-48.4	-61.7	3.9	7.48e-01	0	42	104	478150656	68	16553
2026-01-15 10:28:48.76	14.51	16.03	-48.1	-61.4	3.8	7.45e-01	0	42	104	478150656	68	15963
2026-01-15 10:28:49.76	14.32	15.95	-47.7	-61.1	3.8	7.46e-01	0	42	104	478150656	67	16369
2026-01-15 10:28:50.75	14.14	15.87	-47.7	-61.2	3.8	7.44e-01	0	42	104	478150656	66	17603
2026-01-15 10:28:51.74	13.95	15.79	-51.5	-71.6	3.8	7.50e-01	0	42	104	478150656	73	38786
2026-01-15 10:28:52.74	13.76	15.71	-48.8	-63.2	3.9	7.47e-01	0	42	104	478150656	69	18546
2026-01-15 10:28:53.73	13.58	15.63	-50.0	-65.7	3.7	7.45e-01	0	42	104	478150656	70	23351
2026-01-15 10:28:54.72	13.40	15.55	-48.6	-62.3	3.8	7.41e-01	0	42	104	478150656	69	16876
2026-01-15 10:28:55.72	13.21	15.47	-48.5	-61.8	3.8	7.45e-01	0	42	104	478150656	68	16839
2026-01-15 10:28:56.71	13.03	15.39	-48.6	-61.8	3.8	7.45e-01	0	42	104	478150656	68	16754
2026-01-15 10:28:57.70	12.85	15.31	-48.3	-61.3	3.8	7.45e-01	0	42	104	478150656	68	15764
2026-01-15 10:28:58.69	12.67	15.23	-48.2	-61.4	3.8	7.46e-01	0	42	104	478150656	67	17006
2026-01-15 10:28:59.69	12.49	15.14	-47.7	-60.7	3.8	7.47e-01	0	42	104	478150656	67	15749
2026-01-15 10:29:00.68	12.32	15.06	-52.1	-70.8	3.8	7.49e-01	0	42	104	478150656	74	33539
2026-01-15 10:29:01.67	12.14	14.98	-49.2	-63.4	3.9	7.43e-01	0	42	104	478150656	70	18089
2026-01-15 10:29:02.66	11.97	14.90	-49.5	-64.7	3.7	7.47e-01	0	42	104	478150656	69	22246
2026-01-15 10:29:03.66	11.79	14.82	-48.6	-62.9	3.9	7.46e-01	0	42	104	478150656	69	18088
2026-01-15 10:29:04.65	11.62	14.74	-48.0	-61.6	3.8	7.46e-01	0	42	104	478150656	68	16485
2026-01-15 10:29:05.64	11.45	14.66	-47.8	-61.4	3.8	7.43e-01	0	42	104	478150656	67	16984
2026-01-15 10:29:06.64	11.27	14.58	-47.9	-61.5	3.8	7.44e-01	0	42	104	478150656	67	17213
2026-01-15 10:29:07.63	11.10	14.50	-47.6	-61.2	3.8	7.43e-01	0	42	104	478150656	67	16534
2026-01-15 10:29:08.62	10.94	14.42	-47.2	-60.9	3.8	7.47e-01	0	42	104	478150656	66	16933
2026-01-15 10:29:09.62	10.77	14.34	-50.7	-70.2	3.7	7.51e-01	0	42	104	478150656	72	34990
2026-01-15 10:29:10.61	10.60	14.26	-49.0	-64.6	4.0	7.41e-01	0	42	104	478150656	70	20649
2026-01-15 10:29:11.60	10.43	14.18	-47.8	-63.1	3.8	7.47e-01	0	42	104	478150656	66	21993
2026-01-15 10:29:12.60	10.27	14.10	-48.1	-63.4	3.8	7.43e-01	0	42	104	478150656	68	20282
2026-01-15 10:29:13.59	10.10	14.02	-47.6	-61.7	3.8	7.45e-01	0	42	104	478150656	67	17576
2026-01-15 10:29:14.58	9.94	13.94	-47.7	-61.6	3.8	7.48e-01	0	42	104	478150656	67	17386
2026-01-15 10:29:15.57	9.78	13.87	-48.0	-61.5	3.8	7.47e-01	0	42	104	478150656	67	17264
2026-01-15 10:29:16.57	9.62	13.79	-48.1	-61.2	3.8	7.48e-01	0	42	104	478150656	67	16595
2026-01-15 10:29:17.56	9.46	13.71	-47.8	-60.8	3.8	7.48e-01	0	42	104	478150656	67	15828
2026-01-15 10:29:18.55	9.30	13.63	-50.9	-67.5	3.7	7.48e-01	0	42	104	478150656	72	25812
2026-01-15 10:29:19.54	9.14	13.55	-50.7	-67.2	4.0	7.41e-01	0	42	104	478150656	73	23471
2026-01-15 10:29:20.54	8.98	13.47	-48.9	-62.5	3.8	7.47e-01	0	42	104	478150656	68	18206
2026-01-15 10:29:21.53	8.83	13.39	-49.7	-63.9	3.8	7.44e-01	0	42	104	478150656	71	17985
2026-01-15 10:29:22.52	8.67	13.31	-48.4	-61.9	3.8	7.43e-01	0	42	104	478150656	68	16907
2026-01-15 10:29:23.52	8.52	13.23	-48.6	-61.9	3.8	7.44e-01	0	42	104	478150656	68	16943
2026-01-15 10:29:24.51	8.36	13.15	-48.6	-61.8	3.8	7.44e-01	0	42	104	478150656	68	16758
2026-01-15 10:29:25.50	8.21	13.07	-48.4	-61.4	3.8	7.47e-01	0	42	104	478150656	68	15944
2026-01-15 10:29:26.49	8.06	13.00	-48.2	-61.2	3.8	7.46e-01	0	42	104	478150656	68	15655
2026-01-15 10:29:27.49	7.91	12.92	-50.7	-66.2	3.8	7.49e-01	0	42	104	478150656	72	22223
2026-01-15 10:29:28.48	7.76	12.84	-51.4	-68.3	4.0	7.39e-01	0	42	104	478150656	74	25091
2026-01-15 10:29:29.47	7.61	12.76	-48.6	-62.2	3.8	7.46e-01	0	42	104	478150656	69	16623
2026-01-15 10:29:30.47	7.46	12.68	-48.8	-64.0	3.9	7.44e-01	0	42	104	478150656	69	20455
2026-01-15 10:29:31.46	7.31	12.60	-47.7	-61.6	3.8	7.44e-01	0	42	104	478150656	67	17386
2026-01-15 10:29:32.45	7.16	12.52	-47.4	-61.4	3.8	7.46e-01	0	42	104	478150656	66	18051
2026-01-15 10:29:33.45	7.02	12.45	-47.4	-61.5	3.8	7.43e-01	0	42	104	478150656	66	18101
2026-01-15 10:29:34.44	6.87	12.37	-47.5	-61.1	3.8	7.48e-01	0	42	104	478150656	66	17456
2026-01-15 10:29:35.43	6.73	12.29	-48.1	-61.5	3.8	7.47e-01	0	42	104	478150656	68	16224
2026-01-15 10:29:36.42	6.58	12.21	-49.3	-65.1	3.8	7.44e-01	0	42	104	478150656	69	23224
2026-01-15 10:29:37.42	6.44	12.14	-50.0	-70.1	3.9	7.39e-01	0	42	104	478150656	71	36587
2026-01-15 10:29:38.41	6.30	12.06	-48.5	-61.9	3.8	7.47e-01	0	42	104	478150656	69	16067
2026-01-15 10:29:39.40	6.16	11.98	-49.9	-65.3	3.8	7.44e-01	0	42	104	478150656	71	21058
2026-01-15 10:29:40.40	6.02	11.90	-48.2	-61.8	3.8	7.45e-01	0	42	104	478150656	68	16746
2026-01-15 10:29:41.39	5.88	11.83	-48.2	-61.9	3.8	7.45e-01	0	42	104	478150656	68	16904
2026-01-15 10:29:42.38	5.74	11.75	-47.7	-61.2	3.8	7.43e-01	0	42	104	478150656	67	16662
2026-01-15 10:29:43.37	5.60	11.67	-47.6	-61.0	3.8	7.43e-01	0	42	104	478150656	67	16240
2026-01-15 10:29:44.37	5.46	11.60	-48.1	-61.8	3.8	7.46e-01	0	42	104	478150656	68	16858
2026-01-15 10:29:45.36	5.33	11.52	-48.8	-64.4	3.8	7.45e-01	0	42	104	478150656	68	22765
2026-01-15 10:29:46.35	5.19	11.44	-50.4	-71.6	3.9	7.45e-01	0	42	104	478150656	72	41226
2026-01-15 10:29:47.35	5.06	11.37	-48.5	-62.3	3.8	7.43e-01	0	42	104	478150656	69	16819
2026-01-15 10:29:48.34	4.93	11.29	-50.2	-65.4	3.9	7.44e-01	0	42	104	478150656	71	21296
2026-01-15 10:29:49.33	4.79	11.21	-48.7	-61.8	3.8	7.41e-01	0	42	104	478150656	69	15942
2026-01-15 10:29:50.32	4.66	11.14	-48.8	-61.9	3.8	7.47e-01	0	42	104	478150656	69	16083
2026-01-15 10:29:51.32	4.53	11.06	-48.7	-61.6	3.8	7.47e-01	0	42	104	478150656	69	15495
2026-01-15 10:29:52.31	4.40	10.99	-48.7	-61.4	3.8	7.47e-01	0	42	104	478150656	69	15195
2026-01-15 10:29:53.30	4.27	10.91	-49.4	-62.4	3.9	7.46e-01	0	42	104	478150656	70	16020
2026-01-15 10:29:54.30	4.14	10.83	-49.7	-63.5	3.8	7.47e-01	0	42	104	478150656	70	18165
2026-01-15 10:29:55.29	4.01	10.76	-52.3	-71.7	3.9	7.45e-01	0	42	104	478150656	75	35131
2026-01-15 10:29:56.28	3.88	10.68	-49.4	-62.4	3.8	7.48e-01	0	42	104	478150656	70	15965
2026-01-15 10:29:57.27	3.76	10.61	-50.7	-65.6	3.8	7.42e-01	0	42	104	478150656	72	20555
2026-01-15 10:29:58.27	3.63	10.53	-48.7	-62.2	3.8	7.44e-01	0	42	104	478150656	69	16593
2026-01-15 10:29:59.26	3.50	10.46	-48.6	-62.3	3.8	7.46e-01	0	42	104	478150656	69	16767
2026-01-15 10:30:00.25	3.38	10.38	-48.3	-62.0	3.8	7.46e-01	0	42	104	478150656	68	17249
2026-01-15 10:30:01.25	3.25	10.31	-47.8	-61.9	3.8	7.44e-01	0	42	104	478150656	67	17974
2026-01-15 10:30:02.24	3.13	10.23	-46.8	-61.4	3.8	7.42e-01	0	42	104	478150656	65	19071
2026-01-15 10:30:03.23	3.01	10.16	-47.6	-62.6	3.8	7.45e-01	0	42	104	478150656	65	21804
2026-01-15 10:30:04.23	2.88	10.09	-51.5	-72.3	3.8	7.44e-01	0	42	104	478150656	73	42186
2026-01-15 10:30:05.22	2.76	10.01	-47.0	-62.6	3.8	7.48e-01	0	42	104	478150656	66	20550
2026-01-15 10:30:06.21	2.64	9.94	-49.1	-65.7	3.8	7.42e-01	0	42	104	478150656	69	24904
2026-01-15 10:30:07.20	2.52	9.86	-47.1	-62.0	3.8	7.46e-01	0	42	104	478150656	66	19225
2026-01-15 10:30:08.19	2.40	9.79	-47.4	-61.8	3.8	7.48e-01	0	42	104	478150656	66	18758
2026-01-15 10:30:09.19	2.28	9.72	-47.8	-61.5	3.8	7.46e-01	0	42	104	478150656	66	18247
2026-01-15 10:30:10.18	2.17	9.64	-48.0	-61.5	3.8	7.48e-01	0	42	104	478150656	66	18191
2026-01-15 10:30:11.17	2.05	9.57	-48.7	-64.1	3.8	7.44e-01	0	42	104	478150656	68	21963
2026-01-15 10:30:12.17	1.93	9.50	-48.6	-62.5	3.8	7.44e-01	0	42	104	478150656	68	18261
2026-01-15 10:30:13.16	1.82	9.42	-50.1	-72.6	3.8	7.43e-01	0	42	104	478150656	71	49055
2026-01-15 10:30:14.15	1.70	9.35	-48.8	-63.3	3.8	7.45e-01	0	42	104	478150656	69	18754
2026-01-15 10:30:15.15	1.58	9.28	-47.6	-65.6	3.8	7.45e-01	0	42	104	478150656	66	29239
2026-01-15 10:30:16.14	1.47	9.20	-47.2	-62.0	3.8	7.46e-01	0	42	104	478150656	66	19273
2026-01-15 10:30:17.13	1.36	9.13	-46.9	-61.8	3.8	7.44e-01	0	42	104	478150656	65	19965
2026-01-15 10:30:18.12	1.24	9.06	-46.7	-61.9	3.8	7.44e-01	0	42	104	478150656	65	20092
2026-01-15 10:30:19.12	1.13	8.99	-51.1	-72.2	3.7	7.50e-01	0	42	104	478150656	73	41648
2026-01-15 10:30:20.11	1.02	8.91	-52.0	-73.7	3.8	7.49e-01	0	42	104	478150656	75	44328
2026-01-15 10:30:21.10	0.91	8.84	-52.4	-73.9	3.8	7.48e-01	0	42	104	478150656	75	45360
2026-01-15 10:30:22.10	0.80	8.77	-53.4	-74.0	3.8	7.48e-01	0	42	104	478150656	78	38655
2026-01-15 10:30:23.09	0.69	8.70	-52.8	-74.0	3.8	7.50e-01	0	42	104	478150656	77	40758
2026-01-15 10:30:24.08	0.58	8.63	-53.6	-74.2	3.9	7.44e-01	0	42	104	478150656	77	41483
2026-01-15 10:30:25.07	0.47	8.56	-54.1	-74.2	3.8	7.45e-01	0	42	104	478150656	79	37042
2026-01-15 10:30:26.07	0.36	8.48	-54.3	-74.2	3.8	7.43e-01	0	42	104	478150656	79	37298
2026-01-15 10:30:27.06	0.26	8.41	-53.9	-74.2	3.8	7.42e-01	0	42	104	478150656	79	37276
2026-01-15 10:30:28.05	0.15	8.34	-53.7	-74.3	3.8	7.47e-01	0	42	104	478150656	78	39685
2026-01-15 10:30:29.05	0.04	8.27	-54.2	-74.3	3.8	7.46e-01	0	42	104	478150656	79	37394
2026-01-15 10:30:30.04	359.94	8.20	-54.3	-74.3	3.8	7.47e-01	0	42	104	478150656	79	37484
2026-01-15 10:30:31.03	359.83	8.13	-53.8	-74.3	3.8	7.46e-01	0	42	104	478150656	78	39626
2026-01-15 10:30:32.02	359.73	8.06	-54.2	-74.3	3.8	7.48e-01	0	42	104	478150656	79	37478
2026-01-15 10:30:33.02	359.62	7.99	-54.4	-74.3	3.8	7.49e-01	0	42	104	478150656	79	37569
2026-01-15 10:30:34.01	359.52	7.92	-53.9	-74.3	3.8	7.49e-01	0	42	104	478150656	78	39767
2026-01-15 10:30:35.00	359.42	7.85	-54.0	-74.3	3.8	7.46e-01	0	42	104	478150656	79	37678
2026-01-15 10:30:36.00	359.31	7.78	-54.2	-74.3	3.8	7.45e-01	0	42	104	478150656	79	37601
2026-01-15 10:30:36.99	359.21	7.71	-54.4	-74.3	3.8	7.46e-01	0	42	104	478150656	79	37664
2026-01-15 10:30:37.98	359.11	7.64	-54.3	-74.3	3.8	7.45e-01	0	42	104	478150656	79	37651
2026-01-15 10:30:38.97	359.01	7.57	-54.3	-74.3	3.8	7.42e-01	0	42	104	478150656	79	37515
2026-01-15 10:30:39.97	358.91	7.50	-54.1	-74.3	3.8	7.45e-01	0	42	104	478150656	79	37613
2026-01-15 10:30:40.96	358.81	7.43	-54.4	-74.3	3.8	7.44e-01	0	42	104	478150656	79	37617
2026-01-15 10:30:41.95	358.71	7.36	-54.3	-74.3	3.8	7.50e-01	0	42	104	478150656	79	37617
2026-01-15 10:30:42.95	358.61	7.29	-54.0	-74.3	3.8	7.45e-01	0	42	104	478150656	79	37509
2026-01-15 10:30:43.94	358.52	7.22	-54.2	-74.3	3.8	7.47e-01	0	42	104	478150656	79	37639
2026-01-15 10:30:44.93	358.42	7.15	-54.2	-74.3	3.8	7.50e-01	0	42	104	478150656	79	37470
2026-01-15 10:30:45.92	358.32	7.08	-53.6	-74.3	3.8	7.47e-01	0	42	104	478150656	79	37504
2026-01-15 10:30:46.92	358.22	7.01	-53.8	-74.3	3.8	7.45e-01	0	42	104	478150656	79	37643
2026-01-15 10:30:47.91	358.13	6.95	-53.6	-74.3	3.8	7.47e-01	0	42	104	478150656	79	37478
2026-01-15 10:30:48.90	358.03	6.88	-53.6	-74.3	3.8	7.46e-01	0	42	104	478150656	79	37480
2026-01-15 10:30:49.90	357.94	6.81	-53.6	-74.3	3.8	7.45e-01	0	42	104	478150656	79	37380
2026-01-15 10:30:50.89	357.84	6.74	-53.6	-74.2	3.8	7.46e-01	0	42	104	478150656	79	37369
2026-01-15 10:30:51.88	357.75	6.67	-53.6	-74.2	3.8	7.45e-01	0	42	104	478150656	79	37347
2026-01-15 10:30:52.88	357.66	6.61	-53.6	-74.3	3.8	7.44e-01	0	42	104	478150656	79	37499
2026-01-15 10:30:53.87	357.56	6.54	-53.6	-74.2	3.8	7.46e-01	0	42	104	478150656	79	37335
2026-01-15 10:30:54.86	357.47	6.47	-53.6	-74.2	3.8	7.49e-01	0	42	104	478150656	79	37369
2026-01-15 10:30:55.85	357.38	6.40	-53.6	-74.2	3.8	7.45e-01	0	42	104	478150656	79	37358
2026-01-15 10:30:56.85	357.29	6.34	-53.6	-74.3	3.8	7.45e-01	0	42	104	478150656	79	37430
2026-01-15 10:30:57.84	357.20	6.27	-53.6	-74.3	3.8	7.48e-01	0	42	104	478150656	79	37400
2026-01-15 10:30:58.83	357.11	6.20	-53.6	-74.3	3.8	7.46e-01	0	42	104	478150656	79	37416
2026-01-15 10:30:59.83	357.02	6.13	-53.6	-74.3	3.8	7.44e-01	0	42	104	478150656	79	37392
2026-01-15 10:31:00.82	356.93	6.07	-53.6	-74.3	3.8	7.48e-01	0	42	104	478150656	79	37424
2026-01-15 10:31:01.81	356.84	6.00	-53.6	-74.3	3.8	7.48e-01	0	42	104	478150656	79	37391
2026-01-15 10:31:02.81	356.75	5.93	-53.6	-74.2	3.8	7.46e-01	0	42	104	478150656	79	37334
2026-01-15 10:31:03.80	356.66	5.87	-53.6	-74.2	3.8	7.49e-01	0	42	104	478150656	79	37360
2026-01-15 10:31:04.79	356.57	5.80	-53.6	-74.2	3.8	7.45e-01	0	42	104	478150656	79	37293
2026-01-15 10:31:05.78	356.49	5.74	-53.6	-74.2	3.8	7.49e-01	0	42	104	478150656	79	37230
2026-01-15 10:31:06.78	356.40	5.67	-53.6	-74.2	3.8	7.44e-01	0	42	104	478150656	79	37257
2026-01-15 10:31:07.77	356.31	5.60	-53.6	-74.3	3.8	7.48e-01	0	42	104	478150656	79	37387
2026-01-15 10:31:08.76	356.23	5.54	-53.6	-74.2	3.8	7.43e-01	0	42	104	478150656	79	37332
2026-01-15 10:31:09.76	356.14	5.47	-53.6	-74.2	3.8	7.46e-01	0	42	104	478150656	79	37310
2026-01-15 10:31:10.75	356.06	5.41	-53.6	-74.2	3.8	7.46e-01	0	42	104	478150656	79	37364
2026-01-15 10:31:11.74	355.97	5.34	-53.6	-74.2	3.8	7.49e-01	0	42	104	478150656	79	37280
2026-01-15 10:31:12.74	355.89	5.28	-53.6	-74.2	3.8	7.45e-01	0	42	104	478150656	79	37257
2026-01-15 10:31:13.73	355.80	5.21	-53.6	-74.2	3.8	7.46e-01	0	42	104	478150656	79	37266
2026-01-15 10:31:14.72	355.72	5.15	-53.6	-74.2	3.8	7.45e-01	0	42	104	478150656	79	37244
2026-01-15 10:31:15.72	355.64	5.08	-53.6	-74.2	3.8	7.47e-01	0	42	104	478150656	79	37228
2026-01-15 10:31:16.71	355.55	5.02	-53.5	-74.2	3.8	7.45e-01	0	42	104	478150656	79	37272

#Closed at: 2026-01-15 10:31:17
#Recorded file [478 MB]: D:/Data/31040_260115_132126.dat