passes_logs/2026/01/15/T1/T1__20260115_004634_AQUA_rec.log

#Pass ID: 20260115_004634_AQUA
#Satellite: AQUA
#Configuration: AQUA
#almurnet v.1.7.20251203
#Start time: 2026-01-15 00:46:35

#Version: 2.0.20230620
#Station: T1
#Location: 37.570604 lon 55.790049 lat
#TLE: 1 27424U 02022A   26014.19338718  .00000717  00000+0  15340-3 0  9998
#TLE: 2 27424  98.4080 340.6072 0002047  79.4950 292.1093 14.61819636260772

#Time	Az	El	Level	Level2	SNR	BER	BlckErr	Temp	State	Recorded	gain1	gain2
2026-01-15 00:46:35.23	21.49	5.05	-51.6	-72.2	3.8	7.47e-01	0	41	0	0	73	41902
2026-01-15 00:46:36.22	21.53	5.12	-51.6	-72.2	3.8	7.44e-01	0	41	104	0	73	41867
2026-01-15 00:46:37.21	21.58	5.19	-51.6	-72.2	3.8	7.46e-01	0	41	104	0	73	41870
2026-01-15 00:46:38.20	21.62	5.27	-51.6	-72.2	3.8	7.46e-01	0	41	104	0	73	41877
2026-01-15 00:46:39.20	21.66	5.34	-51.6	-72.3	3.8	7.47e-01	0	41	104	0	73	41936
2026-01-15 00:46:40.19	21.71	5.41	-51.6	-72.3	3.8	7.48e-01	0	41	104	0	73	41962
2026-01-15 00:46:41.18	21.75	5.48	-51.6	-72.3	3.8	7.46e-01	0	41	104	0	73	41965
2026-01-15 00:46:42.18	21.80	5.56	-51.6	-72.2	3.8	7.47e-01	0	41	104	0	73	41928
2026-01-15 00:46:43.17	21.84	5.63	-51.6	-72.2	3.8	7.46e-01	0	41	104	0	73	41761
2026-01-15 00:46:44.16	21.89	5.70	-51.6	-72.2	3.8	7.46e-01	0	41	104	0	73	41928
2026-01-15 00:46:45.16	21.94	5.78	-51.6	-72.2	3.8	7.46e-01	0	41	104	0	73	41903
2026-01-15 00:46:46.15	21.98	5.85	-51.6	-72.2	3.8	7.42e-01	0	41	104	0	73	41909
2026-01-15 00:46:47.15	22.03	5.93	-51.6	-72.3	3.8	7.48e-01	0	41	104	0	73	41959
2026-01-15 00:46:48.14	22.08	6.00	-51.6	-72.2	3.8	7.46e-01	0	41	104	0	73	41861
2026-01-15 00:46:49.13	22.12	6.07	-51.6	-72.2	3.8	7.46e-01	0	41	104	0	73	41896
2026-01-15 00:46:50.12	22.17	6.15	-51.6	-72.2	3.8	7.47e-01	0	41	104	0	73	41917
2026-01-15 00:46:51.12	22.22	6.22	-51.6	-72.3	3.8	7.47e-01	0	41	104	0	73	41938
2026-01-15 00:46:52.11	22.26	6.30	-51.6	-72.2	3.8	7.45e-01	0	42	104	0	73	41860
2026-01-15 00:46:53.10	22.31	6.37	-51.6	-72.2	3.8	7.45e-01	0	42	104	0	73	41773
2026-01-15 00:46:54.10	22.36	6.45	-51.6	-72.2	3.8	7.47e-01	0	41	104	0	73	41878
2026-01-15 00:46:55.09	22.41	6.53	-51.6	-72.2	3.8	7.44e-01	0	42	104	0	73	41915
2026-01-15 00:46:56.08	22.46	6.60	-51.6	-72.2	3.8	7.43e-01	0	42	104	0	73	41826
2026-01-15 00:46:57.08	22.51	6.68	-51.6	-72.3	3.8	7.46e-01	0	41	104	0	73	41967
2026-01-15 00:46:58.07	22.56	6.76	-51.6	-72.2	3.8	7.45e-01	0	42	104	0	73	41890
2026-01-15 00:46:59.06	22.60	6.83	-51.6	-72.2	3.8	7.48e-01	0	42	104	0	73	41908
2026-01-15 00:47:00.06	22.65	6.91	-51.6	-72.2	3.8	7.47e-01	0	42	104	0	73	41840
2026-01-15 00:47:01.05	22.70	6.99	-51.6	-72.3	3.8	7.47e-01	0	42	104	0	73	41960
2026-01-15 00:47:02.04	22.75	7.07	-51.6	-72.2	3.8	7.43e-01	0	42	104	0	73	41923
2026-01-15 00:47:03.04	22.80	7.14	-51.6	-72.2	3.8	7.46e-01	0	42	104	0	73	41833
2026-01-15 00:47:04.03	22.86	7.22	-51.6	-72.2	3.8	7.48e-01	0	42	104	0	73	41866
2026-01-15 00:47:05.03	22.91	7.30	-51.6	-72.2	3.8	7.49e-01	0	42	104	0	73	41850
2026-01-15 00:47:06.02	22.96	7.38	-51.6	-72.2	3.8	7.43e-01	0	42	104	0	73	41912
2026-01-15 00:47:07.01	23.01	7.46	-51.6	-72.2	3.8	7.47e-01	0	42	104	0	73	41886
2026-01-15 00:47:08.01	23.06	7.54	-51.6	-72.2	3.8	7.44e-01	0	42	104	0	73	41831
2026-01-15 00:47:09.00	23.11	7.62	-51.6	-72.3	3.8	7.46e-01	0	42	104	0	73	41949
2026-01-15 00:47:09.99	23.16	7.70	-51.6	-72.3	3.8	7.49e-01	0	42	104	0	73	41944
2026-01-15 00:47:10.99	23.22	7.78	-51.6	-72.2	3.8	7.46e-01	0	42	104	0	73	41897
2026-01-15 00:47:11.98	23.27	7.86	-51.6	-72.2	3.8	7.48e-01	0	42	104	0	73	41813
2026-01-15 00:47:12.98	23.32	7.94	-51.6	-72.2	3.8	7.44e-01	0	42	104	0	73	41933
2026-01-15 00:47:13.97	23.38	8.02	-51.6	-72.2	3.8	7.45e-01	0	42	104	0	73	41907
2026-01-15 00:47:14.96	23.43	8.10	-51.6	-72.2	3.8	7.46e-01	0	42	104	0	73	41884
2026-01-15 00:47:15.96	23.49	8.18	-51.6	-72.2	3.8	7.40e-01	0	42	104	0	73	41889
2026-01-15 00:47:16.95	23.54	8.26	-51.6	-72.2	3.8	7.43e-01	0	42	104	0	73	41830
2026-01-15 00:47:17.95	23.59	8.34	-51.6	-72.2	3.8	7.45e-01	0	42	104	0	73	41780
2026-01-15 00:47:18.94	23.65	8.43	-51.6	-72.2	3.8	7.44e-01	0	42	104	0	73	41872
2026-01-15 00:47:19.93	23.70	8.51	-51.6	-72.2	3.8	7.47e-01	0	42	104	0	73	41891
2026-01-15 00:47:20.93	23.76	8.59	-51.6	-72.2	3.8	7.47e-01	0	42	104	0	73	41932
2026-01-15 00:47:21.92	23.82	8.67	-51.6	-72.3	3.8	7.46e-01	0	42	104	0	73	41998
2026-01-15 00:47:22.92	23.87	8.76	-51.6	-72.2	3.8	7.46e-01	0	42	104	0	73	41887
2026-01-15 00:47:23.91	23.93	8.84	-51.6	-72.3	3.8	7.47e-01	0	42	104	0	73	41956
2026-01-15 00:47:24.90	23.99	8.93	-51.6	-72.3	3.8	7.46e-01	0	42	104	0	73	41947
2026-01-15 00:47:25.90	24.04	9.01	-51.6	-72.2	3.8	7.48e-01	0	42	104	0	73	41883
2026-01-15 00:47:26.89	24.10	9.09	-51.6	-72.2	3.8	7.45e-01	0	42	104	0	73	41889
2026-01-15 00:47:27.88	24.16	9.18	-51.6	-72.2	3.8	7.47e-01	0	43	104	0	73	41850
2026-01-15 00:47:28.88	24.22	9.26	-51.6	-72.3	3.8	7.48e-01	0	42	104	0	73	41979
2026-01-15 00:47:29.87	24.28	9.35	-51.7	-72.2	3.8	7.46e-01	0	42	104	0	73	41898
2026-01-15 00:47:30.86	24.33	9.44	-51.6	-72.3	3.8	7.43e-01	0	42	104	0	73	41975
2026-01-15 00:47:31.84	24.39	9.52	-51.6	-72.2	3.8	7.45e-01	0	43	104	0	73	41925
2026-01-15 00:47:32.83	24.45	9.61	-51.6	-72.3	3.8	7.45e-01	0	42	104	0	73	41966
2026-01-15 00:47:33.83	24.51	9.69	-51.7	-72.3	3.8	7.41e-01	0	42	104	0	73	41965
2026-01-15 00:47:34.82	24.57	9.78	-51.7	-72.2	3.8	7.46e-01	0	42	104	0	73	41923
2026-01-15 00:47:35.81	24.63	9.87	-51.7	-72.2	3.8	7.43e-01	0	42	104	0	73	41863
2026-01-15 00:47:36.81	24.70	9.95	-51.6	-72.3	3.8	7.46e-01	0	43	104	0	73	41952
2026-01-15 00:47:37.80	24.76	10.04	-51.7	-72.2	3.8	7.47e-01	0	42	104	0	73	41926
2026-01-15 00:47:38.79	24.82	10.13	-51.7	-72.2	3.8	7.46e-01	0	42	104	0	73	41856
2026-01-15 00:47:39.79	24.88	10.22	-51.7	-72.2	3.8	7.47e-01	0	42	104	0	73	41920
2026-01-15 00:47:40.78	24.94	10.31	-51.7	-72.3	3.8	7.42e-01	0	43	104	0	73	41937
2026-01-15 00:47:41.78	25.01	10.40	-51.7	-72.3	3.8	7.47e-01	0	43	104	0	73	42047
2026-01-15 00:47:42.77	25.07	10.49	-51.7	-72.2	3.8	7.45e-01	0	43	104	0	73	41897
2026-01-15 00:47:43.76	25.13	10.58	-51.7	-72.3	3.8	7.44e-01	0	43	104	0	73	41981
2026-01-15 00:47:44.76	25.20	10.67	-51.7	-72.3	3.8	7.46e-01	0	42	104	0	73	41962
2026-01-15 00:47:45.75	25.26	10.76	-51.7	-72.3	3.8	7.44e-01	0	43	104	0	73	41980
2026-01-15 00:47:46.74	25.33	10.85	-51.7	-72.2	3.8	7.45e-01	0	42	104	0	73	41921
2026-01-15 00:47:47.74	25.39	10.94	-51.7	-72.3	3.8	7.47e-01	0	43	104	0	73	41999
2026-01-15 00:47:48.73	25.46	11.03	-51.7	-72.3	3.8	7.49e-01	0	43	104	0	73	41999
2026-01-15 00:47:49.72	25.52	11.12	-51.7	-72.3	3.8	7.45e-01	0	43	104	0	73	41981
2026-01-15 00:47:50.72	25.59	11.22	-51.7	-72.3	3.8	7.44e-01	0	43	104	0	73	42001
2026-01-15 00:47:51.71	25.66	11.31	-51.7	-72.2	3.8	7.47e-01	0	43	104	0	73	41916
2026-01-15 00:47:52.70	25.73	11.40	-51.7	-72.3	3.8	7.48e-01	0	43	104	0	73	41979
2026-01-15 00:47:53.69	25.79	11.49	-51.7	-72.3	3.8	7.41e-01	0	43	104	0	73	41955
2026-01-15 00:47:54.69	25.86	11.59	-51.7	-72.2	3.8	7.44e-01	0	42	104	0	73	41916
2026-01-15 00:47:55.68	25.93	11.68	-51.7	-72.2	3.8	7.47e-01	0	43	104	0	73	41904
2026-01-15 00:47:56.68	26.00	11.78	-51.7	-72.3	3.8	7.44e-01	0	43	104	0	73	42122
2026-01-15 00:47:57.67	26.07	11.87	-51.7	-72.3	3.8	7.44e-01	0	43	104	0	73	41951
2026-01-15 00:47:58.66	26.14	11.97	-51.7	-72.3	3.8	7.49e-01	0	43	104	0	73	41987
2026-01-15 00:47:59.66	26.21	12.06	-51.7	-72.3	3.8	7.46e-01	0	43	104	0	73	42019
2026-01-15 00:48:00.65	26.28	12.16	-51.7	-72.2	3.8	7.44e-01	0	43	104	0	73	41907
2026-01-15 00:48:01.64	26.35	12.26	-51.7	-72.3	3.8	7.46e-01	0	43	104	0	73	41945
2026-01-15 00:48:02.64	26.43	12.35	-51.7	-72.3	3.8	7.48e-01	0	43	104	0	73	41975
2026-01-15 00:48:03.63	26.50	12.45	-51.6	-72.2	3.8	7.45e-01	0	43	104	0	73	41836
2026-01-15 00:48:04.63	26.57	12.55	-51.6	-72.3	3.8	7.46e-01	0	43	104	0	73	42052
2026-01-15 00:48:05.62	26.64	12.65	-51.6	-72.3	3.8	7.47e-01	0	43	104	0	73	41953
2026-01-15 00:48:06.61	26.72	12.74	-51.6	-72.3	3.8	7.45e-01	0	43	104	0	73	42099
2026-01-15 00:48:07.61	26.79	12.84	-51.6	-72.3	3.8	7.47e-01	0	43	104	0	73	42000
2026-01-15 00:48:08.60	26.87	12.94	-51.6	-72.3	3.8	7.45e-01	0	43	104	0	73	41959
2026-01-15 00:48:09.60	26.94	13.04	-51.7	-72.2	3.8	7.48e-01	0	43	104	0	73	41902
2026-01-15 00:48:10.59	27.02	13.14	-51.7	-72.3	3.8	7.44e-01	0	43	104	0	73	41995
2026-01-15 00:48:11.58	27.10	13.24	-51.7	-72.3	3.8	7.45e-01	0	43	104	0	73	41998
2026-01-15 00:48:12.58	27.17	13.34	-51.7	-72.3	3.8	7.47e-01	0	43	104	0	73	41941
2026-01-15 00:48:13.57	27.25	13.45	-51.6	-72.3	3.8	7.43e-01	0	43	104	0	73	41964
2026-01-15 00:48:14.57	27.33	13.55	-51.7	-72.2	3.8	7.48e-01	0	43	104	0	73	41894
2026-01-15 00:48:15.64	27.41	13.66	-51.7	-72.3	3.8	7.44e-01	0	43	104	0	73	41986
2026-01-15 00:48:16.49	27.48	13.75	-51.7	-72.3	3.8	7.47e-01	0	43	104	0	73	41983
2026-01-15 00:48:17.63	27.57	13.86	-51.7	-72.2	3.8	7.46e-01	0	43	104	0	73	41876
2026-01-15 00:48:18.47	27.64	13.95	-51.7	-72.3	3.8	7.46e-01	0	43	104	0	73	42011
2026-01-15 00:48:19.61	27.73	14.07	-51.7	-72.3	3.8	7.48e-01	0	43	104	0	73	41962
2026-01-15 00:48:20.46	27.80	14.16	-51.7	-72.2	3.8	7.47e-01	0	43	104	0	73	41861
2026-01-15 00:48:21.60	27.90	14.28	-51.7	-72.3	3.8	7.45e-01	0	43	104	0	73	41977
2026-01-15 00:48:22.45	27.97	14.37	-51.7	-72.3	3.8	7.45e-01	0	43	104	0	73	42024
2026-01-15 00:48:23.59	28.06	14.49	-51.7	-72.2	3.8	7.44e-01	0	43	104	0	73	41927
2026-01-15 00:48:24.44	28.14	14.58	-51.7	-72.3	3.8	7.44e-01	0	43	104	0	73	42000
2026-01-15 00:48:25.59	28.23	14.71	-51.7	-72.3	3.8	7.46e-01	0	43	104	0	73	42004
2026-01-15 00:48:26.44	28.31	14.80	-51.7	-72.3	3.8	7.46e-01	0	43	104	0	73	41993
2026-01-15 00:48:27.69	28.42	14.93	-51.7	-72.3	3.8	7.45e-01	0	43	104	0	73	41977
2026-01-15 00:48:28.54	28.49	15.03	-51.7	-72.3	3.8	7.45e-01	0	43	104	0	73	42032
2026-01-15 00:48:29.74	28.59	15.16	-51.7	-72.3	3.8	7.46e-01	0	43	104	0	73	41999
2026-01-15 00:48:30.59	28.67	15.25	-51.7	-72.3	3.8	7.48e-01	0	43	104	0	73	42037
2026-01-15 00:48:31.72	28.77	15.38	-51.7	-72.3	3.8	7.44e-01	0	43	104	0	73	41968
2026-01-15 00:48:32.58	28.85	15.47	-51.7	-72.2	3.8	7.46e-01	0	43	104	0	73	41933
2026-01-15 00:48:33.71	28.95	15.60	-51.7	-72.3	3.8	7.46e-01	0	43	104	0	73	41981
2026-01-15 00:48:34.56	29.03	15.69	-51.7	-72.3	3.8	7.46e-01	0	43	104	0	73	41994
2026-01-15 00:48:35.70	29.13	15.82	-51.7	-72.3	3.8	7.47e-01	0	43	104	0	73	41948
2026-01-15 00:48:36.55	29.21	15.92	-51.7	-72.2	3.8	7.44e-01	0	43	104	0	73	41901
2026-01-15 00:48:37.68	29.32	16.05	-51.7	-72.2	3.8	7.49e-01	0	43	104	0	73	41882
2026-01-15 00:48:38.54	29.40	16.14	-51.7	-72.2	3.8	7.43e-01	0	43	104	0	73	41865
2026-01-15 00:48:39.67	29.50	16.27	-51.7	-72.2	3.8	7.45e-01	0	43	104	0	73	41894
2026-01-15 00:48:40.52	29.58	16.37	-51.7	-72.3	3.8	7.49e-01	0	43	104	0	73	41978
2026-01-15 00:48:41.66	29.69	16.50	-51.6	-72.2	3.8	7.47e-01	0	43	104	0	73	41857
2026-01-15 00:48:42.51	29.78	16.60	-51.6	-72.2	3.8	7.46e-01	0	43	104	0	73	41910
2026-01-15 00:48:43.65	29.89	16.73	-51.6	-72.3	3.8	7.43e-01	0	43	104	0	73	41988
2026-01-15 00:48:44.50	29.97	16.83	-51.6	-72.2	3.8	7.43e-01	0	43	104	0	73	41860
2026-01-15 00:48:45.64	30.08	16.97	-51.6	-72.3	3.8	7.47e-01	0	43	104	0	73	41935
2026-01-15 00:48:46.49	30.17	17.07	-51.6	-72.2	3.8	7.44e-01	0	43	104	0	73	41808
2026-01-15 00:48:47.62	30.28	17.20	-51.6	-72.2	3.8	7.44e-01	0	43	104	0	73	41917
2026-01-15 00:48:48.48	30.37	17.31	-51.6	-72.3	3.8	7.49e-01	0	43	104	0	73	41976
2026-01-15 00:48:49.61	30.49	17.44	-51.6	-72.2	3.8	7.46e-01	0	43	104	0	73	41840
2026-01-15 00:48:50.46	30.57	17.54	-51.6	-72.3	3.8	7.48e-01	0	43	104	0	73	41970
2026-01-15 00:48:51.60	30.69	17.68	-51.6	-72.2	3.8	7.44e-01	0	43	104	0	73	41856
2026-01-15 00:48:52.45	30.78	17.79	-51.6	-72.2	3.8	7.45e-01	0	43	104	0	73	41756
2026-01-15 00:48:53.59	30.90	17.92	-51.6	-72.2	3.8	7.48e-01	0	43	104	0	73	41835
2026-01-15 00:48:54.44	30.99	18.03	-51.6	-72.2	3.8	7.45e-01	0	43	104	0	73	41795
2026-01-15 00:48:55.57	31.11	18.17	-51.7	-72.2	3.8	7.48e-01	0	43	104	0	73	41861
2026-01-15 00:48:56.43	31.21	18.28	-51.6	-72.2	3.8	7.47e-01	0	43	104	0	73	41913
2026-01-15 00:48:57.61	31.34	18.42	-51.6	-72.2	3.8	7.42e-01	0	43	104	0	73	41912
2026-01-15 00:48:58.46	31.43	18.53	-51.7	-72.3	3.8	7.48e-01	0	43	104	0	73	41986
2026-01-15 00:48:59.66	31.56	18.68	-51.7	-72.2	3.8	7.48e-01	0	43	104	0	73	41900
2026-01-15 00:49:00.51	31.66	18.79	-51.6	-72.2	3.8	7.47e-01	0	43	104	0	73	41753
2026-01-15 00:49:01.71	31.79	18.94	-51.6	-72.2	3.8	7.43e-01	0	43	104	0	73	41876
2026-01-15 00:49:02.56	31.89	19.05	-51.6	-72.2	3.8	7.48e-01	0	43	104	0	73	41877
2026-01-15 00:49:03.76	32.03	19.20	-51.6	-72.2	3.8	7.46e-01	0	43	104	0	73	41845
2026-01-15 00:49:04.61	32.13	19.31	-51.6	-72.2	3.8	7.48e-01	0	43	104	0	73	41809
2026-01-15 00:49:05.75	32.26	19.46	-51.6	-72.2	3.8	7.47e-01	0	43	104	0	73	41851
2026-01-15 00:49:06.60	32.36	19.57	-51.6	-72.2	3.8	7.47e-01	0	43	104	0	73	41875
2026-01-15 00:49:07.74	32.50	19.72	-51.7	-72.3	3.8	7.45e-01	0	43	104	0	73	41953
2026-01-15 00:49:08.59	32.60	19.83	-51.6	-72.2	3.8	7.48e-01	0	43	104	0	73	41766
2026-01-15 00:49:09.72	32.74	19.98	-51.6	-72.2	3.8	7.44e-01	0	43	104	0	73	41820
2026-01-15 00:49:10.57	32.84	20.09	-51.6	-72.2	3.8	7.45e-01	0	43	104	0	73	41902
2026-01-15 00:49:11.71	32.98	20.25	-51.7	-72.2	3.8	7.48e-01	0	43	104	0	73	41892
2026-01-15 00:49:12.56	33.09	20.36	-51.7	-72.2	3.8	7.43e-01	0	43	104	0	73	41885
2026-01-15 00:49:13.70	33.23	20.52	-51.6	-72.2	3.8	7.46e-01	0	43	104	0	73	41873
2026-01-15 00:49:14.55	33.34	20.63	-51.6	-72.2	3.8	7.46e-01	0	43	104	0	73	41878
2026-01-15 00:49:15.69	33.49	20.79	-51.6	-72.2	3.8	7.45e-01	0	43	104	0	73	41849
2026-01-15 00:49:16.54	33.59	20.90	-51.6	-72.2	3.8	7.48e-01	0	43	104	0	73	41919
2026-01-15 00:49:17.67	33.74	21.06	-51.6	-72.2	3.8	7.48e-01	0	43	104	0	73	41822
2026-01-15 00:49:18.52	33.85	21.18	-51.6	-72.2	3.8	7.46e-01	0	43	104	0	73	41813
2026-01-15 00:49:19.71	34.01	21.34	-51.6	-72.2	3.8	7.45e-01	0	43	104	0	73	41880
2026-01-15 00:49:20.56	34.13	21.46	-51.6	-72.3	3.8	7.44e-01	0	43	104	0	73	41973
2026-01-15 00:49:21.76	34.29	21.63	-51.6	-72.2	3.8	7.44e-01	0	43	104	0	73	41817
2026-01-15 00:49:22.61	34.40	21.75	-51.6	-72.2	3.8	7.44e-01	0	43	104	0	73	41872
2026-01-15 00:49:23.74	34.56	21.91	-51.6	-72.2	3.8	7.45e-01	0	43	104	0	73	41893
2026-01-15 00:49:24.59	34.68	22.03	-51.6	-72.2	3.8	7.46e-01	0	43	104	0	73	41890
2026-01-15 00:49:25.73	34.84	22.19	-51.6	-72.3	3.8	7.46e-01	0	43	104	0	73	41961
2026-01-15 00:49:26.58	34.96	22.32	-51.6	-72.2	3.8	7.47e-01	0	43	104	0	73	41896
2026-01-15 00:49:27.72	35.12	22.48	-51.6	-72.2	3.8	7.46e-01	0	43	104	0	73	41844
2026-01-15 00:49:28.57	35.24	22.60	-51.6	-72.2	3.8	7.47e-01	0	43	104	0	73	41813
2026-01-15 00:49:29.71	35.41	22.77	-51.6	-72.2	3.8	7.47e-01	0	43	104	0	73	41833
2026-01-15 00:49:30.56	35.53	22.90	-51.6	-72.2	3.8	7.46e-01	0	44	104	0	73	41816
2026-01-15 00:49:31.69	35.70	23.06	-51.6	-72.2	3.8	7.44e-01	0	44	104	0	73	41925
2026-01-15 00:49:32.54	35.83	23.19	-51.6	-72.2	3.8	7.46e-01	0	44	104	0	73	41844
2026-01-15 00:49:33.68	36.00	23.36	-51.6	-72.2	3.8	7.44e-01	0	43	104	0	73	41902
2026-01-15 00:49:34.53	36.13	23.49	-51.6	-72.2	3.8	7.45e-01	0	43	104	0	73	41905
2026-01-15 00:49:35.67	36.31	23.66	-51.6	-72.2	3.8	7.46e-01	0	43	104	0	73	41922
2026-01-15 00:49:36.52	36.44	23.79	-51.6	-72.2	3.8	7.47e-01	0	43	104	0	73	41818
2026-01-15 00:49:37.65	36.62	23.96	-51.6	-72.2	3.8	7.45e-01	0	43	104	0	73	41845
2026-01-15 00:49:38.50	36.75	24.09	-51.6	-72.2	3.8	7.42e-01	0	43	104	0	73	41811
2026-01-15 00:49:39.64	36.94	24.26	-51.7	-72.3	3.8	7.48e-01	0	43	104	0	73	41939
2026-01-15 00:49:40.49	37.07	24.39	-51.6	-72.2	3.8	7.47e-01	0	43	104	0	73	41850
2026-01-15 00:49:41.63	37.26	24.57	-51.6	-72.2	3.8	7.47e-01	0	43	104	0	73	41821
2026-01-15 00:49:42.48	37.40	24.70	-51.6	-72.2	3.8	7.47e-01	0	43	104	0	73	41900
2026-01-15 00:49:43.61	37.59	24.88	-51.6	-72.3	3.8	7.44e-01	0	43	104	0	73	41945
2026-01-15 00:49:44.47	37.73	25.02	-51.7	-72.2	3.8	7.45e-01	0	43	104	0	73	41837
2026-01-15 00:49:45.60	37.93	25.20	-51.6	-72.3	3.8	7.47e-01	0	43	104	0	73	41948
2026-01-15 00:49:46.45	38.07	25.33	-51.6	-72.2	3.8	7.45e-01	0	43	104	0	73	41851
2026-01-15 00:49:47.59	38.27	25.51	-51.6	-72.2	3.8	7.48e-01	0	43	104	0	73	41842
2026-01-15 00:49:48.44	38.42	25.65	-51.6	-72.2	3.8	7.50e-01	0	43	104	0	73	41877
2026-01-15 00:49:49.58	38.62	25.83	-51.6	-72.2	3.8	7.53e-01	0	43	104	0	73	41815
2026-01-15 00:49:50.43	38.78	25.97	-51.6	-72.2	3.8	7.46e-01	0	43	104	0	73	41886
2026-01-15 00:49:51.56	38.98	26.16	-51.6	-72.2	3.8	7.48e-01	0	43	104	0	73	41829
2026-01-15 00:49:52.42	39.14	26.30	-51.6	-72.2	3.8	7.44e-01	0	43	104	0	73	41825
2026-01-15 00:49:53.68	39.37	26.50	-51.6	-72.2	3.8	7.45e-01	0	43	104	0	73	41877
2026-01-15 00:49:54.47	39.52	26.63	-51.6	-72.2	3.8	7.42e-01	0	43	104	0	73	41853
2026-01-15 00:49:55.84	39.78	26.86	-51.6	-72.3	3.8	7.44e-01	0	44	104	0	73	41942
2026-01-15 00:49:56.55	39.91	26.98	-51.6	-72.2	3.8	7.46e-01	0	43	104	0	73	41792
2026-01-15 00:49:57.83	40.16	27.20	-51.6	-72.2	3.8	7.46e-01	0	44	104	0	73	41777
2026-01-15 00:49:58.54	40.30	27.32	-51.6	-72.2	3.8	7.49e-01	0	43	104	0	73	41886
2026-01-15 00:49:59.81	40.55	27.53	-51.6	-72.2	3.8	7.48e-01	0	43	104	0	73	41891
2026-01-15 00:50:00.53	40.70	27.65	-51.6	-72.2	3.8	7.49e-01	0	43	104	0	73	41883
2026-01-15 00:50:01.81	40.95	27.87	-51.6	-72.2	3.8	7.46e-01	0	44	104	0	73	41917
2026-01-15 00:50:02.52	41.10	27.99	-51.6	-72.2	3.8	7.45e-01	0	43	104	0	73	41722
2026-01-15 00:50:03.80	41.36	28.22	-51.6	-72.2	3.8	7.46e-01	0	43	104	0	73	41792
2026-01-15 00:50:04.51	41.51	28.34	-51.6	-72.2	3.8	7.46e-01	0	43	104	0	73	41605
2026-01-15 00:50:05.79	41.78	28.56	-51.6	-72.2	3.8	7.46e-01	0	44	104	0	73	41829
2026-01-15 00:50:06.50	41.93	28.69	-51.6	-72.2	3.8	7.48e-01	0	44	104	0	73	41712
2026-01-15 00:50:07.78	42.21	28.91	-51.6	-72.2	3.8	7.44e-01	0	43	104	0	73	41830
2026-01-15 00:50:08.49	42.36	29.04	-51.6	-72.2	3.8	7.46e-01	0	43	104	0	73	41894
2026-01-15 00:50:09.76	42.64	29.26	-51.7	-72.2	3.8	7.45e-01	0	43	104	0	73	41927
2026-01-15 00:50:10.47	42.80	29.39	-51.7	-72.2	3.8	7.43e-01	0	43	104	0	73	41837
2026-01-15 00:50:11.75	43.09	29.62	-51.7	-72.2	3.8	7.45e-01	0	43	104	0	73	41772
2026-01-15 00:50:12.48	43.26	29.75	-51.6	-72.2	3.8	7.43e-01	0	43	104	0	73	41858
2026-01-15 00:50:13.75	43.55	29.98	-51.6	-72.1	3.8	7.47e-01	0	43	104	0	73	41159
2026-01-15 00:50:14.46	43.72	30.10	-51.7	-72.2	3.8	7.47e-01	0	43	104	0	73	41853
2026-01-15 00:50:15.74	44.02	30.34	-51.6	-72.2	3.8	7.44e-01	0	44	104	0	73	41531
2026-01-15 00:50:16.45	44.19	30.47	-51.6	-72.1	3.8	7.43e-01	0	43	104	0	73	41229
2026-01-15 00:50:17.73	44.50	30.70	-51.6	-72.2	3.8	7.47e-01	0	43	104	0	73	41722
2026-01-15 00:50:18.45	44.67	30.83	-51.6	-72.2	3.8	7.45e-01	0	44	104	0	73	41593
2026-01-15 00:50:19.73	44.99	31.07	-51.7	-72.2	3.8	7.47e-01	0	44	104	0	73	41812
2026-01-15 00:50:20.44	45.17	31.20	-51.7	-72.2	3.8	7.45e-01	0	44	104	0	73	41463
2026-01-15 00:50:21.72	45.49	31.44	-51.7	-72.2	3.8	7.46e-01	0	43	104	0	73	41752
2026-01-15 00:50:22.45	45.68	31.58	-51.6	-72.2	3.8	7.41e-01	0	43	104	0	73	41759
2026-01-15 00:50:23.72	46.00	31.81	-51.7	-72.2	3.8	7.44e-01	0	44	104	0	73	41708
2026-01-15 00:50:24.43	46.19	31.95	-51.6	-72.2	3.8	7.45e-01	0	43	104	0	73	41813
2026-01-15 00:50:25.71	46.53	32.19	-51.7	-72.2	3.8	7.47e-01	0	43	104	0	73	41840
2026-01-15 00:50:26.42	46.72	32.32	-51.7	-72.2	3.8	7.45e-01	0	43	104	0	73	41746
2026-01-15 00:50:27.72	47.07	32.57	-51.6	-72.2	3.8	7.47e-01	0	43	104	0	73	41699
2026-01-15 00:50:28.43	47.27	32.70	-51.7	-72.2	3.8	7.47e-01	0	43	104	0	73	41774
2026-01-15 00:50:29.70	47.62	32.95	-51.7	-72.3	3.8	7.47e-01	0	44	104	0	73	41967
2026-01-15 00:50:30.43	47.82	33.09	-51.7	-72.2	3.8	7.49e-01	0	44	104	0	73	41866
2026-01-15 00:50:31.71	48.19	33.33	-51.7	-72.3	3.8	7.47e-01	0	43	104	0	73	41936
2026-01-15 00:50:32.43	48.40	33.47	-51.6	-72.2	3.8	7.47e-01	0	43	104	0	73	41852
2026-01-15 00:50:33.71	48.77	33.72	-51.6	-72.2	3.8	7.47e-01	0	44	104	0	73	41914
2026-01-15 00:50:34.44	48.98	33.86	-51.7	-72.2	3.8	7.46e-01	0	43	104	0	73	41859
2026-01-15 00:50:35.71	49.36	34.11	-51.7	-72.2	3.8	7.47e-01	0	44	104	0	73	41881
2026-01-15 00:50:36.42	49.58	34.25	-51.7	-72.2	3.8	7.44e-01	0	44	104	0	73	41930
2026-01-15 00:50:37.70	49.97	34.50	-51.7	-72.2	3.8	7.48e-01	0	43	104	0	73	41908
2026-01-15 00:50:38.41	50.19	34.63	-51.7	-72.2	3.8	7.47e-01	0	44	104	0	73	41883
2026-01-15 00:50:39.69	50.59	34.89	-51.7	-72.3	3.8	7.45e-01	0	44	104	0	73	41951
2026-01-15 00:50:40.40	50.81	35.03	-51.6	-72.2	3.8	7.48e-01	0	43	104	0	73	41634
2026-01-15 00:50:41.68	51.23	35.28	-51.6	-72.2	3.8	7.45e-01	0	43	104	0	73	41756
2026-01-15 00:50:42.39	51.46	35.42	-51.6	-72.2	3.8	7.42e-01	0	43	104	0	73	41649
2026-01-15 00:50:43.66	51.87	35.67	-51.6	-72.2	3.8	7.46e-01	0	44	104	0	73	41685
2026-01-15 00:50:44.37	52.11	35.81	-51.7	-72.2	3.8	7.44e-01	0	43	104	0	73	41640
2026-01-15 00:50:45.65	52.54	36.06	-51.7	-72.2	3.8	7.43e-01	0	43	104	0	73	41686
2026-01-15 00:50:46.36	52.78	36.20	-51.7	-72.2	3.8	7.45e-01	0	43	104	0	73	41883
2026-01-15 00:50:47.64	53.23	36.46	-51.7	-72.2	3.8	7.45e-01	0	44	104	0	73	41821
2026-01-15 00:50:48.35	53.47	36.60	-51.6	-72.2	3.8	7.46e-01	0	43	104	0	73	41852
2026-01-15 00:50:49.64	53.93	36.85	-51.7	-72.2	3.8	7.46e-01	0	43	104	0	73	41900
2026-01-15 00:50:50.35	54.18	36.99	-51.7	-72.2	3.8	7.44e-01	0	43	104	0	73	41770
2026-01-15 00:50:51.63	54.65	37.25	-51.6	-72.2	3.8	7.42e-01	0	43	104	0	73	41776
2026-01-15 00:50:52.34	54.91	37.39	-51.6	-72.2	3.8	7.46e-01	0	43	104	0	73	41513
2026-01-15 00:50:53.62	55.39	37.64	-51.6	-72.2	3.8	7.44e-01	0	43	104	0	73	41760
2026-01-15 00:50:54.33	55.65	37.79	-51.6	-72.2	3.8	7.47e-01	0	43	104	0	73	41767
2026-01-15 00:50:55.61	56.14	38.04	-51.6	-72.2	3.8	7.47e-01	0	43	104	0	73	41830
2026-01-15 00:50:56.31	56.41	38.18	-51.6	-72.2	3.8	7.46e-01	0	44	104	0	73	41781
2026-01-15 00:50:57.59	56.91	38.43	-51.6	-72.2	3.8	7.45e-01	0	43	104	0	73	41578
2026-01-15 00:50:58.30	57.19	38.57	-51.6	-72.2	3.8	7.46e-01	0	44	104	0	73	41492
2026-01-15 00:50:59.58	57.70	38.83	-51.6	-72.1	3.8	7.44e-01	0	44	104	0	73	41378
2026-01-15 00:51:00.29	57.99	38.97	-51.6	-72.2	3.8	7.45e-01	0	44	104	0	73	41706
2026-01-15 00:51:01.57	58.51	39.22	-51.6	-72.2	3.8	7.44e-01	0	43	104	0	73	41852
2026-01-15 00:51:02.28	58.81	39.36	-51.6	-72.3	3.8	7.44e-01	0	44	104	0	73	42004
2026-01-15 00:51:03.56	59.35	39.61	-51.6	-72.2	3.8	7.46e-01	0	44	104	0	73	41852
2026-01-15 00:51:04.27	59.65	39.75	-51.7	-72.2	3.8	7.45e-01	0	44	104	0	73	41709
2026-01-15 00:51:05.55	60.20	40.00	-51.7	-72.2	3.8	7.44e-01	0	44	104	0	73	41861
2026-01-15 00:51:06.26	60.51	40.14	-51.6	-72.3	3.8	7.44e-01	0	44	104	0	73	41962
2026-01-15 00:51:07.53	61.07	40.38	-51.6	-72.2	3.8	7.44e-01	0	43	104	0	73	41739
2026-01-15 00:51:08.24	61.39	40.52	-51.6	-72.2	3.8	7.47e-01	0	44	104	0	73	41872
2026-01-15 00:51:09.52	61.96	40.77	-51.6	-72.2	3.8	7.46e-01	0	44	104	0	73	41927
2026-01-15 00:51:10.23	62.29	40.90	-51.6	-72.3	3.8	7.43e-01	0	43	104	0	73	41966
2026-01-15 00:51:11.51	62.88	41.15	-51.7	-72.3	3.8	7.46e-01	0	44	104	0	73	41959
2026-01-15 00:51:12.22	63.21	41.28	-51.6	-72.3	3.8	7.47e-01	0	43	104	0	73	41996
2026-01-15 00:51:13.51	63.82	41.52	-51.6	-72.3	3.8	7.48e-01	0	43	104	0	73	42013
2026-01-15 00:51:14.22	64.16	41.66	-51.6	-72.3	3.8	7.48e-01	0	44	104	0	73	42039
2026-01-15 00:51:15.50	64.78	41.90	-51.6	-72.3	3.8	7.45e-01	0	43	104	0	73	42006
2026-01-15 00:51:16.22	65.14	42.03	-51.6	-72.3	3.8	7.45e-01	0	44	104	0	73	41954
2026-01-15 00:51:17.50	65.77	42.27	-51.6	-72.3	3.8	7.45e-01	0	44	104	0	73	41962
2026-01-15 00:51:18.24	66.14	42.40	-51.6	-72.3	3.8	7.48e-01	0	44	104	0	73	41946
2026-01-15 00:51:19.52	66.79	42.63	-51.6	-72.3	3.8	7.43e-01	0	43	104	0	73	41997
2026-01-15 00:51:20.22	67.15	42.76	-51.6	-72.3	3.8	7.43e-01	0	44	104	0	73	41945
2026-01-15 00:51:21.50	67.82	42.98	-51.7	-72.2	3.8	7.45e-01	0	43	104	0	73	41901
2026-01-15 00:51:22.24	68.20	43.11	-51.6	-72.3	3.8	7.45e-01	0	44	104	0	73	41945
2026-01-15 00:51:23.52	68.88	43.34	-51.7	-72.2	3.8	7.47e-01	0	43	104	0	73	41888
2026-01-15 00:51:24.23	69.26	43.46	-51.6	-72.3	3.8	7.48e-01	0	43	104	0	73	41986
2026-01-15 00:51:25.51	69.96	43.68	-51.7	-72.3	3.8	7.50e-01	0	44	104	0	73	41974
2026-01-15 00:51:26.22	70.35	43.80	-51.7	-72.3	3.8	7.44e-01	0	43	104	0	73	41995
2026-01-15 00:51:27.49	71.05	44.01	-51.7	-72.2	3.8	7.46e-01	0	44	104	0	73	41925
2026-01-15 00:51:28.22	71.46	44.13	-51.7	-72.2	3.8	7.48e-01	0	44	104	0	73	41911
2026-01-15 00:51:29.50	72.18	44.34	-51.6	-72.2	3.8	7.47e-01	0	43	104	0	73	41929
2026-01-15 00:51:30.21	72.59	44.45	-51.7	-72.3	3.8	7.41e-01	0	44	104	0	73	41985
2026-01-15 00:51:31.63	73.41	44.67	-51.6	-72.3	3.8	7.46e-01	0	44	104	0	73	41970
2026-01-15 00:51:32.34	73.82	44.78	-51.6	-72.3	3.8	7.48e-01	0	43	104	0	73	41962
2026-01-15 00:51:33.68	74.61	44.99	-51.7	-72.2	3.8	7.50e-01	0	43	104	0	73	41926
2026-01-15 00:51:34.39	75.04	45.09	-51.7	-72.3	3.8	7.44e-01	0	43	104	0	73	42053
2026-01-15 00:51:35.74	75.85	45.29	-51.7	-72.3	3.8	7.46e-01	0	44	104	0	73	42015
2026-01-15 00:51:36.45	76.28	45.39	-51.6	-72.3	3.8	7.43e-01	0	44	104	0	73	42002
2026-01-15 00:51:37.79	77.10	45.58	-51.7	-72.3	3.8	7.45e-01	0	43	104	0	73	41988
2026-01-15 00:51:38.51	77.54	45.68	-51.7	-72.3	3.8	7.45e-01	0	43	104	0	73	42010
2026-01-15 00:51:39.86	78.39	45.86	-51.7	-72.3	3.8	7.45e-01	0	44	104	0	73	41943
2026-01-15 00:51:40.57	78.83	45.95	-51.7	-72.3	3.8	7.43e-01	0	44	104	0	73	42046
2026-01-15 00:51:41.85	79.65	46.11	-51.7	-72.3	3.8	7.45e-01	0	44	104	0	73	41957
2026-01-15 00:51:42.56	80.10	46.20	-51.7	-72.3	3.8	7.46e-01	0	44	104	0	73	42011
2026-01-15 00:51:43.83	80.92	46.36	-51.7	-72.3	3.8	7.46e-01	0	44	104	0	73	41962
2026-01-15 00:51:44.54	81.38	46.44	-51.7	-72.3	3.8	7.43e-01	0	43	104	0	73	42000
2026-01-15 00:51:45.82	82.22	46.58	-51.7	-72.3	3.8	7.43e-01	0	44	104	0	73	41940
2026-01-15 00:51:46.55	82.70	46.66	-51.7	-72.3	3.8	7.49e-01	0	44	104	0	73	42006
2026-01-15 00:51:47.82	83.54	46.80	-51.7	-72.2	3.8	7.43e-01	0	44	104	0	73	41919
2026-01-15 00:51:48.53	84.01	46.87	-51.7	-72.3	3.8	7.48e-01	0	44	104	0	73	41936
2026-01-15 00:51:49.81	84.87	47.00	-51.7	-72.2	3.8	7.47e-01	0	44	104	0	73	41922
2026-01-15 00:51:50.52	85.35	47.06	-51.7	-72.3	3.8	7.46e-01	0	44	104	0	73	41996
2026-01-15 00:51:51.80	86.23	47.18	-51.7	-72.3	3.8	7.46e-01	0	44	104	0	73	42009
2026-01-15 00:51:52.51	86.71	47.24	-51.7	-72.3	3.8	7.48e-01	0	44	104	0	73	41935
2026-01-15 00:51:53.79	87.59	47.35	-51.7	-72.3	3.8	7.49e-01	0	44	104	0	73	42102
2026-01-15 00:51:54.50	88.08	47.40	-51.6	-72.3	3.8	7.47e-01	0	44	104	0	73	41972
2026-01-15 00:51:55.79	88.98	47.50	-51.7	-72.3	3.8	7.47e-01	0	44	104	0	73	41965
2026-01-15 00:51:56.50	89.48	47.55	-51.7	-72.2	3.8	7.47e-01	0	44	104	0	73	41909
2026-01-15 00:51:57.84	90.42	47.63	-51.7	-72.2	3.8	7.45e-01	0	43	104	0	73	41859
2026-01-15 00:51:58.55	90.92	47.68	-51.7	-72.3	3.8	7.44e-01	0	44	104	0	73	41942
2026-01-15 00:51:59.89	91.86	47.75	-51.7	-72.3	3.8	7.47e-01	0	44	104	0	73	41935
2026-01-15 00:52:00.60	92.37	47.79	-51.7	-72.3	3.8	7.44e-01	0	43	104	0	73	41989
2026-01-15 00:52:01.88	93.28	47.85	-51.7	-72.3	3.8	7.45e-01	0	43	104	0	73	41968
2026-01-15 00:52:02.59	93.79	47.87	-51.7	-72.2	3.8	7.47e-01	0	44	104	0	73	41891
2026-01-15 00:52:03.87	94.70	47.92	-51.7	-72.2	3.8	7.45e-01	0	44	104	0	73	41902
2026-01-15 00:52:04.58	95.21	47.95	-51.7	-72.3	3.8	7.46e-01	0	44	104	0	74	39653
2026-01-15 00:52:05.86	96.13	47.98	-51.7	-72.3	3.8	7.48e-01	0	44	104	0	74	39786
2026-01-15 00:52:06.57	96.64	48.00	-51.7	-72.3	3.8	7.45e-01	0	44	104	0	74	39653
2026-01-15 00:52:07.85	97.57	48.02	-51.7	-72.3	3.8	7.46e-01	0	43	104	0	74	39623
2026-01-15 00:52:08.55	98.07	48.03	-51.7	-72.2	3.8	7.45e-01	0	44	104	0	74	39575
2026-01-15 00:52:09.83	99.00	48.04	-51.7	-72.3	3.8	7.43e-01	0	44	104	0	74	39619
2026-01-15 00:52:10.57	99.53	48.04	-51.7	-72.3	3.8	7.44e-01	0	43	104	0	74	39707
2026-01-15 00:52:11.85	100.46	48.04	-51.7	-72.3	3.8	7.47e-01	0	43	104	0	74	39773
2026-01-15 00:52:12.56	100.97	48.04	-51.7	-72.3	3.8	7.43e-01	0	43	104	0	74	39708
2026-01-15 00:52:13.84	101.89	48.03	-51.7	-72.3	3.8	7.50e-01	0	44	104	0	74	39703
2026-01-15 00:52:14.55	102.41	48.01	-51.7	-72.3	3.8	7.45e-01	0	44	104	0	74	39635
2026-01-15 00:52:15.83	103.33	47.99	-51.7	-72.2	3.8	7.48e-01	0	44	104	0	74	39589
2026-01-15 00:52:16.54	103.84	47.97	-51.7	-72.3	3.8	7.46e-01	0	43	104	0	74	39660
2026-01-15 00:52:17.81	104.75	47.93	-51.7	-72.3	3.8	7.46e-01	0	43	104	0	74	39728
2026-01-15 00:52:18.52	105.26	47.91	-51.7	-72.3	3.8	7.47e-01	0	44	104	0	74	39779
2026-01-15 00:52:19.80	106.18	47.86	-51.7	-72.3	3.8	7.45e-01	0	44	104	0	74	39789
2026-01-15 00:52:20.51	106.68	47.83	-51.7	-72.3	3.8	7.43e-01	0	43	104	0	74	39754
2026-01-15 00:52:21.80	107.60	47.77	-51.7	-72.3	3.8	7.44e-01	0	44	104	0	74	39724
2026-01-15 00:52:22.51	108.11	47.73	-51.7	-72.3	3.8	7.51e-01	0	43	104	0	74	39769
2026-01-15 00:52:23.79	109.01	47.66	-51.7	-72.3	3.8	7.45e-01	0	44	104	0	74	39749
2026-01-15 00:52:24.50	109.51	47.61	-51.7	-72.3	3.8	7.45e-01	0	44	104	0	74	39801
2026-01-15 00:52:25.78	110.41	47.53	-51.7	-72.3	3.8	7.44e-01	0	44	104	0	74	39768
2026-01-15 00:52:26.49	110.90	47.48	-51.7	-72.3	3.8	7.46e-01	0	44	104	0	74	39705
2026-01-15 00:52:27.76	111.79	47.38	-51.7	-72.3	3.8	7.50e-01	0	44	104	0	74	39671
2026-01-15 00:52:28.48	112.28	47.33	-51.7	-72.3	3.8	7.45e-01	0	44	104	0	74	39756
2026-01-15 00:52:29.75	113.16	47.22	-51.7	-72.3	3.8	7.45e-01	0	43	104	0	74	39656
2026-01-15 00:52:30.48	113.66	47.16	-51.7	-72.3	3.8	7.43e-01	0	44	104	0	74	39771
2026-01-15 00:52:31.76	114.53	47.04	-51.7	-72.3	3.8	7.46e-01	0	44	104	0	74	39728
2026-01-15 00:52:32.47	115.01	46.97	-51.7	-72.3	3.8	7.47e-01	0	43	104	0	74	39782
2026-01-15 00:52:33.74	115.86	46.85	-51.7	-72.3	3.8	7.44e-01	0	44	104	0	74	39758
2026-01-15 00:52:34.47	116.35	46.77	-51.7	-72.3	3.8	7.45e-01	0	43	104	0	74	39804
2026-01-15 00:52:35.75	117.20	46.63	-51.7	-72.3	3.8	7.44e-01	0	44	104	0	74	39740
2026-01-15 00:52:36.46	117.67	46.56	-51.7	-72.3	3.8	7.43e-01	0	44	104	0	74	39748
2026-01-15 00:52:37.73	118.50	46.41	-51.7	-72.3	3.8	7.49e-01	0	43	104	0	74	39766
2026-01-15 00:52:38.44	118.96	46.33	-51.7	-72.3	3.8	7.49e-01	0	44	104	0	74	39720
2026-01-15 00:52:39.72	119.78	46.17	-51.7	-72.3	3.8	7.45e-01	0	44	104	0	74	39800
2026-01-15 00:52:40.45	120.25	46.08	-51.7	-72.3	3.8	7.44e-01	0	44	104	0	74	39754
2026-01-15 00:52:41.72	121.06	45.92	-51.7	-72.3	3.8	7.45e-01	0	44	104	0	74	39728
2026-01-15 00:52:42.44	121.51	45.82	-51.7	-72.3	3.8	7.46e-01	0	44	104	0	74	39818
2026-01-15 00:52:43.71	122.30	45.65	-51.7	-72.3	3.8	7.47e-01	0	44	104	0	74	39744
2026-01-15 00:52:44.42	122.74	45.55	-51.7	-72.3	3.8	7.46e-01	0	44	104	0	74	39723
2026-01-15 00:52:45.70	123.53	45.37	-51.7	-72.3	3.8	7.46e-01	0	44	104	0	74	39733
2026-01-15 00:52:46.41	123.96	45.27	-51.7	-72.3	3.8	7.44e-01	0	44	104	0	74	39648
2026-01-15 00:52:47.78	124.78	45.07	-51.7	-72.3	3.8	7.45e-01	0	44	104	0	74	39720
2026-01-15 00:52:48.49	125.20	44.96	-51.7	-72.3	3.8	7.48e-01	0	43	104	0	74	39846
2026-01-15 00:52:49.83	126.00	44.76	-51.7	-72.3	3.8	7.45e-01	0	44	104	0	74	39673
2026-01-15 00:52:50.54	126.41	44.65	-51.7	-72.3	3.8	7.49e-01	0	43	104	0	74	39768
2026-01-15 00:52:51.89	127.19	44.43	-51.7	-72.3	3.8	7.44e-01	0	44	104	0	74	39764
2026-01-15 00:52:52.60	127.60	44.32	-51.7	-72.3	3.8	7.48e-01	0	44	104	0	74	39833
2026-01-15 00:52:53.87	128.32	44.11	-51.7	-72.3	3.8	7.49e-01	0	44	104	0	74	39734
2026-01-15 00:52:54.58	128.72	44.00	-51.7	-72.3	3.8	7.46e-01	0	44	104	0	74	39720
2026-01-15 00:52:55.86	129.43	43.78	-51.7	-72.3	3.8	7.45e-01	0	44	104	0	74	39716
2026-01-15 00:52:56.57	129.82	43.66	-51.7	-72.3	3.8	7.49e-01	0	43	104	0	74	39799
2026-01-15 00:52:57.85	130.51	43.44	-51.7	-72.3	3.8	7.46e-01	0	43	104	0	74	39737
2026-01-15 00:52:58.56	130.89	43.32	-51.7	-72.3	3.8	7.50e-01	0	43	104	0	74	39846
2026-01-15 00:52:59.83	131.57	43.10	-51.7	-72.3	3.8	7.45e-01	0	43	104	0	74	39825
2026-01-15 00:53:00.54	131.94	42.97	-51.7	-72.3	3.8	7.40e-01	0	44	104	0	74	39878
2026-01-15 00:53:01.82	132.61	42.74	-51.7	-72.3	3.8	7.47e-01	0	44	104	0	74	39819
2026-01-15 00:53:02.53	132.97	42.62	-51.7	-72.3	3.8	7.48e-01	0	44	104	0	74	39786
2026-01-15 00:53:03.81	133.62	42.38	-51.7	-72.3	3.8	7.48e-01	0	44	104	0	74	39711
2026-01-15 00:53:04.52	133.98	42.25	-51.7	-72.3	3.8	7.45e-01	0	44	104	0	74	39734
2026-01-15 00:53:05.80	134.62	42.02	-51.7	-72.3	3.8	7.47e-01	0	44	104	0	74	39695
2026-01-15 00:53:06.51	134.97	41.88	-51.7	-72.3	3.8	7.46e-01	0	43	104	0	74	39753
2026-01-15 00:53:07.78	135.59	41.65	-51.7	-72.3	3.8	7.43e-01	0	44	104	0	74	39817
2026-01-15 00:53:08.51	135.94	41.51	-51.7	-72.3	3.8	7.45e-01	0	43	104	0	74	39791
2026-01-15 00:53:09.79	136.54	41.27	-51.7	-72.3	3.8	7.48e-01	0	44	104	0	74	39799
2026-01-15 00:53:10.50	136.88	41.13	-51.7	-72.3	3.8	7.44e-01	0	44	104	0	74	39823
2026-01-15 00:53:11.77	137.47	40.89	-51.7	-72.3	3.8	7.45e-01	0	44	104	0	74	39828
2026-01-15 00:53:12.48	137.79	40.75	-51.7	-72.3	3.8	7.44e-01	0	44	104	0	74	39696
2026-01-15 00:53:13.76	138.37	40.50	-51.7	-72.3	3.8	7.48e-01	0	44	104	0	74	39741
2026-01-15 00:53:14.47	138.69	40.37	-51.7	-72.3	3.8	7.46e-01	0	44	104	0	74	39653
2026-01-15 00:53:15.75	139.25	40.12	-51.7	-72.3	3.8	7.47e-01	0	44	104	0	74	39656
2026-01-15 00:53:16.47	139.57	39.98	-51.7	-72.3	3.8	7.46e-01	0	44	104	0	74	39719
2026-01-15 00:53:17.75	140.12	39.73	-51.7	-72.3	3.8	7.46e-01	0	44	104	0	74	39831
2026-01-15 00:53:18.46	140.42	39.59	-51.7	-72.3	3.8	7.50e-01	0	44	104	0	74	39812
2026-01-15 00:53:19.74	140.96	39.33	-51.7	-72.3	3.8	7.43e-01	0	44	104	0	74	39809
2026-01-15 00:53:20.45	141.26	39.19	-51.7	-72.3	3.8	7.42e-01	0	44	104	0	74	39797
2026-01-15 00:53:21.73	141.78	38.94	-51.7	-72.3	3.8	7.46e-01	0	44	104	0	74	39724
2026-01-15 00:53:22.44	142.07	38.80	-51.7	-72.3	3.8	7.47e-01	0	43	104	0	74	39840
2026-01-15 00:53:23.81	142.62	38.53	-51.7	-72.3	3.8	7.48e-01	0	44	104	0	74	39743
2026-01-15 00:53:24.52	142.90	38.38	-51.7	-72.3	3.8	7.46e-01	0	44	104	0	74	39741
2026-01-15 00:53:25.87	143.43	38.11	-51.7	-72.3	3.8	7.47e-01	0	44	104	0	74	39876
2026-01-15 00:53:26.58	143.71	37.97	-51.7	-72.3	3.8	7.45e-01	0	44	104	0	74	39783
2026-01-15 00:53:27.86	144.19	37.72	-51.7	-72.3	3.8	7.44e-01	0	44	104	0	74	39831
2026-01-15 00:53:28.60	144.47	37.57	-51.7	-72.3	3.8	7.50e-01	0	44	104	0	74	39813
2026-01-15 00:53:29.88	144.95	37.31	-51.7	-72.3	3.8	7.45e-01	0	43	104	0	74	39863
2026-01-15 00:53:30.59	145.21	37.17	-51.7	-72.3	3.8	7.45e-01	0	44	104	0	74	39781
2026-01-15 00:53:31.87	145.67	36.92	-51.7	-72.3	3.8	7.44e-01	0	44	104	0	74	39862
2026-01-15 00:53:32.59	145.93	36.77	-51.7	-72.3	3.8	7.43e-01	0	44	104	0	74	39807
2026-01-15 00:53:33.87	146.38	36.52	-51.7	-72.3	3.8	7.47e-01	0	44	104	0	74	39768
2026-01-15 00:53:34.59	146.64	36.37	-51.7	-72.3	3.8	7.45e-01	0	44	104	0	74	39817
2026-01-15 00:53:35.87	147.08	36.12	-51.7	-72.3	3.8	7.40e-01	0	44	104	0	74	39710
2026-01-15 00:53:36.58	147.32	35.98	-51.7	-72.3	3.8	7.44e-01	0	44	104	0	74	39833
2026-01-15 00:53:37.86	147.75	35.72	-51.7	-72.3	3.8	7.43e-01	0	44	104	0	74	39841
2026-01-15 00:53:38.57	147.99	35.58	-51.7	-72.3	3.8	7.44e-01	0	44	104	0	74	39862
2026-01-15 00:53:39.84	148.40	35.33	-51.7	-72.3	3.8	7.45e-01	0	44	104	0	74	39857
2026-01-15 00:53:40.55	148.64	35.19	-51.7	-72.3	3.8	7.48e-01	0	44	104	0	74	39840
2026-01-15 00:53:41.83	149.05	34.93	-51.7	-72.3	3.8	7.46e-01	0	44	104	0	74	39883
2026-01-15 00:53:42.54	149.27	34.79	-51.7	-72.3	3.8	7.45e-01	0	44	104	0	74	39818
2026-01-15 00:53:43.82	149.67	34.54	-51.7	-72.3	3.8	7.47e-01	0	44	104	0	74	39779
2026-01-15 00:53:44.53	149.89	34.40	-51.7	-72.3	3.8	7.46e-01	0	43	104	0	74	39810
2026-01-15 00:53:45.90	150.31	34.13	-51.7	-72.3	3.8	7.49e-01	0	44	104	0	74	39830
2026-01-15 00:53:46.61	150.52	33.99	-51.7	-72.3	3.8	7.45e-01	0	44	104	0	74	39739
2026-01-15 00:53:47.89	150.91	33.74	-51.7	-72.3	3.8	7.45e-01	0	44	104	0	74	39866
2026-01-15 00:53:48.60	151.11	33.61	-51.7	-72.3	3.8	7.46e-01	0	44	104	0	74	39839
2026-01-15 00:53:49.88	151.49	33.36	-51.7	-72.3	3.8	7.45e-01	0	44	104	0	74	39822
2026-01-15 00:53:50.60	151.69	33.22	-51.7	-72.3	3.8	7.47e-01	0	44	104	0	74	39794
2026-01-15 00:53:51.88	152.06	32.97	-51.7	-72.3	3.8	7.43e-01	0	43	104	0	74	39847
2026-01-15 00:53:52.60	152.26	32.83	-51.7	-72.3	3.8	7.45e-01	0	43	104	0	74	39751
2026-01-15 00:53:53.88	152.61	32.59	-51.7	-72.3	3.8	7.46e-01	0	44	104	0	74	39770
2026-01-15 00:53:54.59	152.81	32.45	-51.7	-72.3	3.8	7.43e-01	0	44	104	0	74	39928
2026-01-15 00:53:55.87	153.16	32.21	-51.7	-72.3	3.8	7.44e-01	0	44	104	0	74	39820
2026-01-15 00:53:56.59	153.35	32.07	-51.7	-72.3	3.8	7.45e-01	0	43	104	0	74	39900
2026-01-15 00:53:57.87	153.69	31.83	-51.7	-72.3	3.8	7.45e-01	0	43	104	0	74	39761
2026-01-15 00:53:58.61	153.88	31.69	-51.7	-72.3	3.8	7.47e-01	0	43	104	0	74	39774
2026-01-15 00:53:59.89	154.21	31.45	-51.7	-72.3	3.8	7.45e-01	0	44	104	0	74	39741
2026-01-15 00:54:00.63	154.40	31.31	-51.7	-72.3	3.8	7.47e-01	0	43	104	0	74	39818
2026-01-15 00:54:01.91	154.72	31.07	-51.7	-72.3	3.8	7.49e-01	0	44	104	0	74	39799
2026-01-15 00:54:02.62	154.90	30.94	-51.7	-72.3	3.8	7.41e-01	0	44	104	0	74	39857
2026-01-15 00:54:03.89	155.21	30.70	-51.7	-72.3	3.8	7.47e-01	0	44	104	0	74	39827
2026-01-15 00:54:04.63	155.39	30.56	-51.7	-72.3	3.8	7.46e-01	0	43	104	0	74	39821
2026-01-15 00:54:05.91	155.70	30.33	-51.7	-72.3	3.8	7.44e-01	0	43	104	0	74	39834
2026-01-15 00:54:06.62	155.87	30.20	-51.7	-72.3	3.8	7.50e-01	0	44	104	0	74	39777
2026-01-15 00:54:07.90	156.17	29.96	-51.7	-72.3	3.8	7.41e-01	0	44	104	0	74	39854
2026-01-15 00:54:08.61	156.34	29.83	-51.7	-72.3	3.8	7.46e-01	0	44	104	0	74	39884
2026-01-15 00:54:09.89	156.63	29.60	-51.7	-72.3	3.8	7.44e-01	0	44	104	0	74	39842
2026-01-15 00:54:10.60	156.79	29.48	-51.7	-72.3	3.8	7.46e-01	0	44	104	0	74	39840
2026-01-15 00:54:11.88	157.08	29.25	-51.7	-72.3	3.8	7.44e-01	0	44	104	0	74	39793
2026-01-15 00:54:12.59	157.24	29.12	-51.7	-72.3	3.8	7.47e-01	0	44	104	0	74	39830
2026-01-15 00:54:13.86	157.52	28.89	-51.7	-72.3	3.8	7.45e-01	0	44	104	0	74	39786
2026-01-15 00:54:14.57	157.67	28.77	-51.7	-72.3	3.8	7.43e-01	0	44	104	0	74	39774
2026-01-15 00:54:15.86	157.95	28.54	-51.7	-72.3	3.8	7.45e-01	0	44	104	0	74	39861
2026-01-15 00:54:16.57	158.10	28.41	-51.7	-72.3	3.8	7.47e-01	0	44	104	0	74	39895
2026-01-15 00:54:17.85	158.37	28.19	-51.7	-72.3	3.8	7.49e-01	0	44	104	0	74	39830
2026-01-15 00:54:18.56	158.52	28.07	-51.7	-72.3	3.8	7.45e-01	0	44	104	0	74	39796
2026-01-15 00:54:19.84	158.78	27.84	-51.7	-72.3	3.8	7.43e-01	0	44	104	0	74	39875
2026-01-15 00:54:20.55	158.93	27.72	-51.7	-72.3	3.8	7.44e-01	0	44	104	0	74	39824
2026-01-15 00:54:21.82	159.18	27.50	-51.7	-72.3	3.8	7.44e-01	0	44	104	0	74	39870
2026-01-15 00:54:22.55	159.33	27.38	-51.7	-72.3	3.8	7.43e-01	0	44	104	0	74	39864
2026-01-15 00:54:23.83	159.58	27.16	-51.7	-72.3	3.8	7.44e-01	0	44	104	0	74	39822
2026-01-15 00:54:24.54	159.72	27.04	-51.7	-72.3	3.8	7.49e-01	0	44	104	0	74	39872
2026-01-15 00:54:25.85	159.97	26.82	-51.7	-72.3	3.8	7.44e-01	0	44	104	0	74	39835
2026-01-15 00:54:26.56	160.11	26.70	-51.7	-72.3	3.8	7.43e-01	0	44	104	0	74	39819
2026-01-15 00:54:27.83	160.35	26.49	-51.7	-72.3	3.8	7.46e-01	0	44	104	0	74	39888
2026-01-15 00:54:28.56	160.48	26.37	-51.7	-72.3	3.8	7.49e-01	0	44	104	0	74	39815
2026-01-15 00:54:29.83	160.72	26.16	-51.7	-72.3	3.8	7.46e-01	0	44	104	0	74	39892
2026-01-15 00:54:30.54	160.85	26.04	-51.7	-72.3	3.8	7.45e-01	0	44	104	0	74	39847
2026-01-15 00:54:31.82	161.08	25.83	-51.7	-72.3	3.8	7.49e-01	0	44	104	0	74	39922
2026-01-15 00:54:32.53	161.21	25.72	-51.7	-72.3	3.8	7.44e-01	0	44	104	0	74	39886
2026-01-15 00:54:33.81	161.43	25.51	-51.7	-72.3	3.8	7.45e-01	0	44	104	0	74	39813
2026-01-15 00:54:34.54	161.56	25.39	-51.7	-72.3	3.8	7.46e-01	0	44	104	0	74	39876
2026-01-15 00:54:35.89	161.80	25.17	-51.7	-72.3	3.8	7.46e-01	0	44	104	0	74	39825
2026-01-15 00:54:36.60	161.92	25.06	-51.7	-72.3	3.8	7.47e-01	0	44	104	0	74	39894
2026-01-15 00:54:37.88	162.13	24.86	-51.7	-72.3	3.8	7.44e-01	0	44	104	0	74	39926
2026-01-15 00:54:38.59	162.25	24.74	-51.7	-72.3	3.8	7.47e-01	0	44	104	0	74	39837
2026-01-15 00:54:39.87	162.47	24.54	-51.7	-72.3	3.8	7.48e-01	0	44	104	0	74	39913
2026-01-15 00:54:40.58	162.58	24.43	-51.7	-72.3	3.8	7.44e-01	0	44	104	0	74	39773
2026-01-15 00:54:41.86	162.79	24.23	-51.7	-72.3	3.8	7.45e-01	0	44	104	0	74	39935
2026-01-15 00:54:42.57	162.91	24.12	-51.7	-72.3	3.8	7.47e-01	0	44	104	0	74	39887
2026-01-15 00:54:43.84	163.11	23.93	-51.7	-72.3	3.8	7.48e-01	0	44	104	0	74	39881
2026-01-15 00:54:44.57	163.23	23.81	-51.7	-72.3	3.8	7.41e-01	0	44	104	0	74	39852
2026-01-15 00:54:45.85	163.43	23.62	-51.7	-72.3	3.8	7.47e-01	0	44	104	0	74	39907
2026-01-15 00:54:46.56	163.54	23.51	-51.7	-72.3	3.8	7.49e-01	0	44	104	0	74	39890
2026-01-15 00:54:47.83	163.73	23.32	-51.7	-72.3	3.8	7.43e-01	0	44	104	0	74	39852
2026-01-15 00:54:48.56	163.84	23.21	-51.7	-72.3	3.8	7.47e-01	0	43	104	0	74	39811
2026-01-15 00:54:49.84	164.04	23.02	-51.7	-72.3	3.8	7.44e-01	0	44	104	0	74	39841
2026-01-15 00:54:50.55	164.14	22.91	-51.7	-72.3	3.8	7.45e-01	0	44	104	0	74	39870
2026-01-15 00:54:51.82	164.33	22.72	-51.7	-72.3	3.8	7.47e-01	0	43	104	0	74	39835
2026-01-15 00:54:52.55	164.44	22.62	-51.7	-72.3	3.8	7.47e-01	0	44	104	0	74	39786
2026-01-15 00:54:53.83	164.62	22.43	-51.7	-72.3	3.8	7.49e-01	0	44	104	0	74	39831
2026-01-15 00:54:54.54	164.73	22.32	-51.7	-72.3	3.8	7.48e-01	0	44	104	0	74	39858
2026-01-15 00:54:55.81	164.91	22.14	-51.7	-72.3	3.8	7.46e-01	0	44	104	0	74	39921
2026-01-15 00:54:56.52	165.01	22.04	-51.7	-72.3	3.8	7.46e-01	0	44	104	0	74	39892
2026-01-15 00:54:57.80	165.19	21.85	-51.7	-72.3	3.8	7.45e-01	0	44	104	0	74	39865
2026-01-15 00:54:58.51	165.28	21.75	-51.7	-72.3	3.8	7.44e-01	0	43	104	0	74	39952
2026-01-15 00:54:59.79	165.46	21.57	-51.7	-72.3	3.8	7.48e-01	0	44	104	0	74	39877
2026-01-15 00:55:00.50	165.56	21.47	-51.7	-72.3	3.8	7.47e-01	0	44	104	0	74	39778
2026-01-15 00:55:01.79	165.73	21.29	-51.7	-72.3	3.8	7.45e-01	0	44	104	0	74	39818
2026-01-15 00:55:02.50	165.82	21.19	-51.7	-72.3	3.8	7.44e-01	0	43	104	0	74	39808
2026-01-15 00:55:03.78	165.99	21.01	-51.7	-72.3	3.8	7.45e-01	0	44	104	0	74	39925
2026-01-15 00:55:04.49	166.09	20.91	-51.7	-72.3	3.8	7.46e-01	0	44	104	0	74	39838
2026-01-15 00:55:05.77	166.25	20.73	-51.7	-72.3	3.8	7.46e-01	0	44	104	0	74	39959
2026-01-15 00:55:06.48	166.34	20.63	-51.7	-72.3	3.8	7.46e-01	0	44	104	0	74	39986
2026-01-15 00:55:07.76	166.51	20.46	-51.7	-72.3	3.8	7.46e-01	0	43	104	0	74	39865
2026-01-15 00:55:08.47	166.60	20.36	-51.7	-72.3	3.8	7.44e-01	0	43	104	0	74	39867
2026-01-15 00:55:09.74	166.76	20.19	-51.7	-72.3	3.8	7.46e-01	0	44	104	0	74	39895
2026-01-15 00:55:10.45	166.84	20.09	-51.7	-72.3	3.8	7.50e-01	0	44	104	0	74	39939
2026-01-15 00:55:11.73	167.00	19.92	-51.7	-72.3	3.8	7.45e-01	0	44	104	0	74	39834
2026-01-15 00:55:12.44	167.09	19.83	-51.7	-72.3	3.8	7.46e-01	0	44	104	0	74	39892
2026-01-15 00:55:13.72	167.24	19.66	-51.7	-72.3	3.8	7.46e-01	0	44	104	0	74	39955
2026-01-15 00:55:14.43	167.33	19.56	-51.7	-72.3	3.8	7.47e-01	0	44	104	0	74	39917
2026-01-15 00:55:15.71	167.48	19.40	-51.7	-72.3	3.8	7.47e-01	0	44	104	0	74	40005
2026-01-15 00:55:16.43	167.56	19.30	-51.7	-72.3	3.8	7.45e-01	0	44	104	0	74	39953
2026-01-15 00:55:17.71	167.71	19.13	-51.7	-72.3	3.8	7.44e-01	0	44	104	0	74	39908
2026-01-15 00:55:18.42	167.79	19.04	-51.7	-72.3	3.8	7.44e-01	0	44	104	0	74	40011
2026-01-15 00:55:19.70	167.94	18.88	-51.7	-72.3	3.8	7.45e-01	0	44	104	0	74	39904
2026-01-15 00:55:20.41	168.02	18.79	-51.7	-72.3	3.8	7.45e-01	0	44	104	0	74	39909
2026-01-15 00:55:21.75	168.17	18.62	-51.7	-72.3	3.8	7.44e-01	0	44	104	0	74	39972
2026-01-15 00:55:22.46	168.25	18.53	-51.7	-72.3	3.8	7.47e-01	0	44	104	0	74	39942
2026-01-15 00:55:23.80	168.40	18.36	-51.7	-72.3	3.8	7.47e-01	0	44	104	0	74	39920
2026-01-15 00:55:24.51	168.48	18.27	-51.7	-72.3	3.8	7.48e-01	0	44	104	0	74	39969
2026-01-15 00:55:25.85	168.62	18.10	-51.7	-72.3	3.8	7.47e-01	0	44	104	0	74	39891
2026-01-15 00:55:26.56	168.70	18.01	-51.7	-72.3	3.8	7.48e-01	0	44	104	0	74	39988
2026-01-15 00:55:27.90	168.84	17.84	-51.7	-72.3	3.8	7.46e-01	0	44	104	0	74	39907
2026-01-15 00:55:28.61	168.92	17.76	-51.7	-72.3	3.8	7.44e-01	0	44	104	0	74	39920
2026-01-15 00:55:29.88	169.05	17.60	-51.7	-72.3	3.8	7.45e-01	0	44	104	0	74	39902
2026-01-15 00:55:30.59	169.13	17.51	-51.7	-72.3	3.8	7.49e-01	0	44	104	0	74	39950
2026-01-15 00:55:31.89	169.26	17.36	-51.7	-72.3	3.8	7.47e-01	0	44	104	0	74	39908
2026-01-15 00:55:32.60	169.33	17.27	-51.7	-72.3	3.8	7.43e-01	0	43	104	0	74	39947
2026-01-15 00:55:33.87	169.46	17.12	-51.7	-72.3	3.8	7.43e-01	0	44	104	0	74	39942
2026-01-15 00:55:34.58	169.53	17.03	-51.7	-72.3	3.8	7.46e-01	0	44	104	0	74	39906
2026-01-15 00:55:35.86	169.66	16.88	-51.7	-72.3	3.8	7.47e-01	0	44	104	0	74	39917
2026-01-15 00:55:36.59	169.74	16.79	-51.7	-72.3	3.8	7.47e-01	0	44	104	0	74	39993
2026-01-15 00:55:37.86	169.86	16.64	-51.7	-72.3	3.8	7.42e-01	0	43	104	0	74	39903
2026-01-15 00:55:38.57	169.93	16.56	-51.7	-72.3	3.8	7.51e-01	0	44	104	0	74	39955
2026-01-15 00:55:39.85	170.05	16.41	-51.7	-72.3	3.8	7.47e-01	0	44	104	0	74	39972
2026-01-15 00:55:40.56	170.12	16.33	-51.7	-72.3	3.8	7.46e-01	0	44	104	0	74	39990
2026-01-15 00:55:41.84	170.24	16.18	-51.7	-72.3	3.8	7.45e-01	0	44	104	0	74	39937
2026-01-15 00:55:42.55	170.31	16.10	-51.7	-72.3	3.8	7.44e-01	0	44	104	0	74	39910
2026-01-15 00:55:43.83	170.43	15.95	-51.7	-72.3	3.8	7.46e-01	0	44	104	0	74	39918
2026-01-15 00:55:44.55	170.50	15.87	-51.7	-72.3	3.8	7.45e-01	0	44	104	0	74	40034
2026-01-15 00:55:45.83	170.62	15.72	-51.7	-72.3	3.8	7.43e-01	0	44	104	0	74	39947
2026-01-15 00:55:46.56	170.68	15.64	-51.7	-72.3	3.8	7.43e-01	0	44	104	0	74	39955
2026-01-15 00:55:47.83	170.80	15.49	-51.7	-72.3	3.8	7.46e-01	0	44	104	0	74	39953
2026-01-15 00:55:48.54	170.86	15.42	-51.7	-72.3	3.8	7.42e-01	0	44	104	0	74	40040
2026-01-15 00:55:49.82	170.98	15.27	-51.7	-72.3	3.8	7.45e-01	0	44	104	0	74	40029
2026-01-15 00:55:50.53	171.04	15.19	-51.7	-72.3	3.8	7.46e-01	0	44	104	0	74	39908
2026-01-15 00:55:51.81	171.15	15.05	-51.7	-72.3	3.8	7.46e-01	0	44	104	0	74	39833
2026-01-15 00:55:52.52	171.22	14.97	-51.7	-72.3	3.8	7.47e-01	0	43	104	0	74	39992
2026-01-15 00:55:53.83	171.33	14.83	-51.7	-72.3	3.8	7.47e-01	0	44	104	0	74	39943
2026-01-15 00:55:54.54	171.39	14.75	-51.7	-72.3	3.8	7.44e-01	0	44	104	0	74	39974
2026-01-15 00:55:55.81	171.50	14.61	-51.7	-72.3	3.8	7.48e-01	0	43	104	0	74	39836
2026-01-15 00:55:56.52	171.56	14.54	-51.7	-72.3	3.8	7.43e-01	0	44	104	0	74	39927
2026-01-15 00:55:57.80	171.67	14.40	-51.7	-72.3	3.8	7.49e-01	0	44	104	0	74	39970
2026-01-15 00:55:58.51	171.73	14.32	-51.7	-72.3	3.8	7.47e-01	0	44	104	0	74	40017
2026-01-15 00:55:59.79	171.84	14.19	-51.7	-72.4	3.8	7.45e-01	0	44	104	0	74	40050
2026-01-15 00:56:00.50	171.89	14.11	-51.7	-72.3	3.8	7.46e-01	0	44	104	0	74	39973
2026-01-15 00:56:01.87	172.01	13.96	-51.7	-72.3	3.8	7.43e-01	0	44	104	0	74	39875
2026-01-15 00:56:02.58	172.06	13.89	-51.7	-72.3	3.8	7.42e-01	0	44	104	0	74	39933
2026-01-15 00:56:03.92	172.17	13.75	-51.7	-72.3	3.8	7.47e-01	0	44	104	0	74	39977
2026-01-15 00:56:04.63	172.23	13.67	-51.7	-72.3	3.8	7.44e-01	0	43	104	0	74	39928
2026-01-15 00:56:05.91	172.33	13.54	-51.7	-72.3	3.8	7.48e-01	0	44	104	0	74	39904
2026-01-15 00:56:06.62	172.39	13.47	-51.7	-72.3	3.8	7.45e-01	0	43	104	0	74	39972
2026-01-15 00:56:07.90	172.49	13.34	-51.7	-72.3	3.8	7.46e-01	0	44	104	0	74	39887
2026-01-15 00:56:08.62	172.54	13.26	-51.7	-72.3	3.8	7.47e-01	0	44	104	0	74	39920
2026-01-15 00:56:09.90	172.64	13.13	-51.7	-72.3	3.8	7.44e-01	0	44	104	0	74	39893
2026-01-15 00:56:10.62	172.70	13.06	-51.7	-72.3	3.8	7.47e-01	0	44	104	0	74	39870
2026-01-15 00:56:11.90	172.80	12.93	-51.7	-72.3	3.8	7.41e-01	0	44	104	0	74	39921
2026-01-15 00:56:12.62	172.85	12.85	-51.7	-72.3	3.8	7.47e-01	0	44	104	0	74	39869
2026-01-15 00:56:13.90	172.95	12.73	-51.7	-72.3	3.8	7.48e-01	0	44	104	0	74	39891
2026-01-15 00:56:14.63	173.00	12.65	-51.7	-72.3	3.8	7.47e-01	0	44	104	0	74	39921
2026-01-15 00:56:15.90	173.09	12.53	-51.7	-72.3	3.8	7.51e-01	0	44	104	0	74	39905
2026-01-15 00:56:16.62	173.15	12.45	-51.7	-72.3	3.8	7.46e-01	0	44	104	0	74	39926
2026-01-15 00:56:17.89	173.24	12.33	-51.7	-72.3	3.8	7.43e-01	0	44	104	0	74	39967
2026-01-15 00:56:18.60	173.29	12.26	-51.7	-72.3	3.8	7.44e-01	0	44	104	0	74	39857
2026-01-15 00:56:19.88	173.38	12.13	-51.7	-72.3	3.8	7.46e-01	0	44	104	0	74	39822
2026-01-15 00:56:20.62	173.44	12.06	-51.7	-72.3	3.8	7.46e-01	0	44	104	0	74	39828
2026-01-15 00:56:21.89	173.53	11.94	-51.7	-72.3	3.8	7.44e-01	0	44	104	0	74	39920
2026-01-15 00:56:22.61	173.58	11.87	-51.7	-72.3	3.8	7.47e-01	0	44	104	0	74	39872
2026-01-15 00:56:23.88	173.67	11.74	-51.7	-72.3	3.8	7.44e-01	0	44	104	0	74	39918
2026-01-15 00:56:24.59	173.72	11.68	-51.7	-72.3	3.8	7.44e-01	0	44	104	0	74	39803
2026-01-15 00:56:25.87	173.81	11.55	-51.7	-72.3	3.8	7.47e-01	0	44	104	0	74	39900
2026-01-15 00:56:26.58	173.85	11.49	-51.7	-72.3	3.8	7.49e-01	0	44	104	0	74	39894
2026-01-15 00:56:27.86	173.94	11.36	-51.7	-72.3	3.8	7.46e-01	0	44	104	0	74	39854
2026-01-15 00:56:28.58	173.99	11.30	-51.7	-72.3	3.8	7.48e-01	0	44	104	0	74	39893
2026-01-15 00:56:29.86	174.08	11.17	-51.7	-72.3	3.8	7.45e-01	0	44	104	0	74	39892
2026-01-15 00:56:30.57	174.12	11.11	-51.7	-72.3	3.8	7.47e-01	0	44	104	0	74	39811
2026-01-15 00:56:31.85	174.21	10.99	-51.7	-72.3	3.8	7.47e-01	0	44	104	0	74	39837
2026-01-15 00:56:32.57	174.26	10.92	-51.7	-72.3	3.8	7.44e-01	0	44	104	0	74	39876
2026-01-15 00:56:33.85	174.34	10.80	-51.7	-72.3	3.8	7.49e-01	0	44	104	0	74	39860
2026-01-15 00:56:34.56	174.39	10.74	-51.7	-72.3	3.8	7.45e-01	0	44	104	0	74	39934
2026-01-15 00:56:35.84	174.47	10.62	-51.7	-72.3	3.8	7.46e-01	0	44	104	0	74	39914
2026-01-15 00:56:36.55	174.52	10.55	-51.7	-72.3	3.8	7.48e-01	0	44	104	0	74	39776
2026-01-15 00:56:37.83	174.60	10.44	-51.7	-72.3	3.8	7.45e-01	0	44	104	0	74	39782
2026-01-15 00:56:38.55	174.64	10.37	-51.7	-72.3	3.8	7.48e-01	0	44	104	0	74	39883
2026-01-15 00:56:39.83	174.73	10.25	-51.7	-72.3	3.8	7.47e-01	0	44	104	0	74	39883
2026-01-15 00:56:40.54	174.77	10.19	-51.7	-72.3	3.8	7.45e-01	0	44	104	0	74	39939
2026-01-15 00:56:41.82	174.85	10.08	-51.7	-72.3	3.8	7.46e-01	0	44	104	0	74	39888
2026-01-15 00:56:42.53	174.89	10.01	-51.7	-72.3	3.8	7.46e-01	0	44	104	0	74	39921
2026-01-15 00:56:43.80	174.97	9.90	-51.7	-72.3	3.8	7.47e-01	0	44	104	0	74	39790
2026-01-15 00:56:44.54	175.02	9.83	-51.7	-72.3	3.8	7.45e-01	0	44	104	0	74	39912
2026-01-15 00:56:45.82	175.10	9.72	-51.7	-72.3	3.8	7.46e-01	0	44	104	0	74	39875
2026-01-15 00:56:46.53	175.14	9.66	-51.7	-72.3	3.8	7.46e-01	0	44	104	0	74	39942
2026-01-15 00:56:47.81	175.22	9.54	-51.7	-72.3	3.8	7.45e-01	0	44	104	0	74	39908
2026-01-15 00:56:48.52	175.26	9.48	-51.7	-72.3	3.8	7.46e-01	0	44	104	0	74	39889
2026-01-15 00:56:49.79	175.33	9.37	-51.7	-72.3	3.8	7.48e-01	0	44	104	0	74	39903
2026-01-15 00:56:50.52	175.38	9.31	-51.7	-72.3	3.8	7.46e-01	0	44	104	0	74	39836
2026-01-15 00:56:51.80	175.45	9.20	-51.7	-72.3	3.8	7.45e-01	0	44	104	0	74	39961
2026-01-15 00:56:52.50	175.49	9.13	-51.7	-72.3	3.8	7.48e-01	0	44	104	0	74	39857
2026-01-15 00:56:53.86	175.57	9.02	-51.7	-72.3	3.8	7.44e-01	0	44	104	0	74	39908
2026-01-15 00:56:54.57	175.61	8.96	-51.7	-72.3	3.8	7.47e-01	0	44	104	0	74	39946
2026-01-15 00:56:55.85	175.69	8.85	-51.7	-72.3	3.8	7.44e-01	0	44	104	0	74	39922
2026-01-15 00:56:56.56	175.73	8.79	-51.7	-72.3	3.8	7.46e-01	0	44	104	0	74	39880
2026-01-15 00:56:57.83	175.80	8.68	-51.7	-72.3	3.8	7.47e-01	0	44	104	0	74	39930
2026-01-15 00:56:58.56	175.84	8.62	-51.7	-72.3	3.8	7.46e-01	0	44	104	0	74	39917
2026-01-15 00:56:59.84	175.91	8.51	-51.7	-72.3	3.8	7.44e-01	0	44	104	0	74	39918
2026-01-15 00:57:00.55	175.95	8.45	-51.7	-72.3	3.8	7.44e-01	0	44	104	0	74	39959
2026-01-15 00:57:01.82	176.02	8.34	-51.7	-72.3	3.8	7.44e-01	0	44	104	0	74	39863
2026-01-15 00:57:02.56	176.06	8.28	-51.7	-72.3	3.8	7.47e-01	0	44	104	0	74	39922
2026-01-15 00:57:03.84	176.13	8.17	-51.7	-72.3	3.8	7.46e-01	0	44	104	0	74	39934
2026-01-15 00:57:04.55	176.17	8.12	-51.7	-72.3	3.8	7.45e-01	0	43	104	0	74	39967
2026-01-15 00:57:05.83	176.24	8.01	-51.7	-72.3	3.8	7.46e-01	0	44	104	0	74	39878
2026-01-15 00:57:06.54	176.28	7.95	-51.7	-72.3	3.8	7.46e-01	0	44	104	0	74	39909
2026-01-15 00:57:07.82	176.34	7.85	-51.7	-72.3	3.8	7.45e-01	0	44	104	0	74	39828
2026-01-15 00:57:08.53	176.38	7.79	-51.7	-72.3	3.8	7.47e-01	0	44	104	0	74	39908
2026-01-15 00:57:09.82	176.45	7.68	-51.7	-72.3	3.8	7.49e-01	0	44	104	0	74	39902
2026-01-15 00:57:10.53	176.49	7.63	-51.7	-72.3	3.8	7.48e-01	0	44	104	0	74	39917
2026-01-15 00:57:11.81	176.55	7.52	-51.7	-72.3	3.8	7.47e-01	0	44	104	0	74	39968
2026-01-15 00:57:12.52	176.59	7.46	-51.7	-72.3	3.8	7.46e-01	0	44	104	0	74	39863
2026-01-15 00:57:13.79	176.66	7.36	-51.7	-72.3	3.8	7.46e-01	0	44	104	0	74	39943
2026-01-15 00:57:14.52	176.69	7.30	-51.7	-72.3	3.8	7.46e-01	0	44	104	0	74	39915
2026-01-15 00:57:15.80	176.76	7.20	-51.7	-72.4	3.8	7.46e-01	0	44	104	0	74	40061
2026-01-15 00:57:16.51	176.80	7.15	-51.7	-72.3	3.8	7.49e-01	0	44	104	0	74	39807
2026-01-15 00:57:17.78	176.86	7.04	-51.7	-72.3	3.8	7.46e-01	0	44	104	0	74	39877
2026-01-15 00:57:18.51	176.90	6.99	-51.7	-72.3	3.8	7.45e-01	0	44	104	0	74	39941
2026-01-15 00:57:19.79	176.96	6.89	-51.7	-72.3	3.8	7.43e-01	0	44	104	0	74	40006
2026-01-15 00:57:20.53	177.00	6.83	-51.7	-72.3	3.8	7.46e-01	0	44	104	0	74	39844
2026-01-15 00:57:22.12	177.07	6.70	-51.7	-72.3	3.8	7.44e-01	0	44	104	0	74	39998
2026-01-15 00:57:22.69	177.10	6.66	-51.7	-72.3	3.8	7.48e-01	0	44	104	0	74	39910
2026-01-15 00:57:24.39	177.19	6.53	-51.7	-72.3	3.8	7.47e-01	0	44	104	0	74	39888
2026-01-15 00:57:24.96	177.21	6.48	-51.7	-72.3	3.8	7.46e-01	0	44	104	0	74	39818
2026-01-15 00:57:26.68	177.30	6.35	-51.7	-72.3	3.8	7.46e-01	0	44	104	0	74	39793
2026-01-15 00:57:27.25	177.32	6.31	-51.7	-72.3	3.8	7.43e-01	0	44	104	0	74	39884
2026-01-15 00:57:28.95	177.40	6.18	-51.7	-72.3	3.8	7.44e-01	0	44	104	0	74	39872
2026-01-15 00:57:29.52	177.43	6.13	-51.7	-72.3	3.8	7.43e-01	0	44	104	0	74	39913
2026-01-15 00:57:31.30	177.51	6.00	-51.7	-72.3	3.8	7.50e-01	0	44	104	0	74	39893
2026-01-15 00:57:31.87	177.54	5.95	-51.7	-72.3	3.8	7.43e-01	0	44	104	0	74	39912
2026-01-15 00:57:33.57	177.62	5.82	-51.7	-72.3	3.8	7.49e-01	0	44	104	0	74	39945
2026-01-15 00:57:34.14	177.65	5.78	-51.7	-72.3	3.8	7.45e-01	0	44	104	0	74	39927
2026-01-15 00:57:35.84	177.72	5.65	-51.7	-72.3	3.8	7.43e-01	0	44	104	0	74	39891
2026-01-15 00:57:36.41	177.75	5.61	-51.7	-72.3	3.8	7.48e-01	0	44	104	0	74	39919
2026-01-15 00:57:38.11	177.83	5.49	-51.7	-72.3	3.8	7.45e-01	0	44	104	0	74	39863
2026-01-15 00:57:38.68	177.85	5.44	-51.7	-72.3	3.8	7.47e-01	0	44	104	0	74	39878
2026-01-15 00:57:40.38	177.93	5.32	-51.7	-72.3	3.8	7.50e-01	0	44	104	0	74	39916
2026-01-15 00:57:40.95	177.95	5.27	-51.7	-72.3	3.8	7.46e-01	0	44	104	0	74	39900
2026-01-15 00:57:42.66	178.03	5.15	-51.7	-72.3	3.8	7.47e-01	0	44	104	0	74	39989
2026-01-15 00:57:43.22	178.05	5.11	-51.7	-72.3	3.8	7.44e-01	0	44	104	0	74	39827
2026-01-15 00:57:44.93	178.13	4.98	-51.7	-72.3	3.8	7.48e-01	0	44	104	0	74	39835

#Closed at: 2026-01-15 00:57:45
#Recorded file [0 MB]: D:/Data/31040_260115_034635.dat