passes_logs/2026/01/15/T1/T1__20260115_233657_NOAA_20_JPSS-1_rec.log

#Pass ID: 20260115_233657_NOAA 20 (JPSS-1)
#Satellite: NOAA 20 (JPSS-1)
#Configuration: NOAA 20
#almurnet v.1.7.20251203
#Start time: 2026-01-15 23:36:58

#Version: 2.0.20230620
#Station: T1
#Location: 37.570604 lon 55.790049 lat
#TLE: 1 43013U 17073A   26015.47098083  .00000029  00000+0  34851-4 0  9997
#TLE: 2 43013  98.7636 316.4053 0001479  38.6686 321.4595 14.19536048422808

#Time	Az	El	Level	Level2	SNR	BER	BlckErr	Temp	State	Recorded	gain1	gain2
2026-01-15 23:36:58.71	16.86	5.05	-47.4	-63.8	3.8	1.49e+00	0	39	0	0	66	23586
2026-01-15 23:36:59.70	16.87	5.12	-47.4	-63.8	3.8	1.49e+00	0	40	104	0	65	25143
2026-01-15 23:37:00.69	16.87	5.20	-47.4	-63.8	3.8	1.49e+00	0	39	104	0	65	25017
2026-01-15 23:37:01.69	16.88	5.27	-47.4	-63.7	3.8	1.49e+00	0	40	104	0	65	24796
2026-01-15 23:37:02.68	16.89	5.34	-47.4	-63.6	3.8	1.49e+00	0	40	104	0	65	24463
2026-01-15 23:37:03.67	16.90	5.41	-47.4	-63.4	3.8	1.49e+00	0	40	104	0	65	24128
2026-01-15 23:37:04.67	16.91	5.48	-47.4	-63.3	3.8	1.49e+00	0	40	104	0	65	23837
2026-01-15 23:37:05.66	16.91	5.55	-47.4	-63.2	3.8	1.49e+00	0	40	104	0	65	23506
2026-01-15 23:37:06.65	16.92	5.62	-47.4	-63.2	3.8	1.49e+00	0	40	104	0	65	23370
2026-01-15 23:37:07.65	16.93	5.70	-47.4	-63.1	3.8	1.49e+00	0	40	104	0	65	23183
2026-01-15 23:37:08.64	16.94	5.77	-47.4	-63.1	3.8	1.49e+00	0	40	104	0	65	23081
2026-01-15 23:37:09.64	16.95	5.84	-47.4	-63.1	3.8	1.49e+00	0	40	104	0	65	23246
2026-01-15 23:37:10.63	16.95	5.92	-47.4	-63.2	3.8	1.49e+00	0	40	104	0	65	23402
2026-01-15 23:37:11.62	16.96	5.99	-47.4	-63.3	3.8	1.49e+00	0	40	104	0	65	23677
2026-01-15 23:37:12.62	16.97	6.06	-47.4	-63.4	3.8	1.49e+00	0	40	104	0	65	23927
2026-01-15 23:37:13.61	16.98	6.14	-47.4	-63.4	3.8	1.49e+00	0	40	104	0	65	23964
2026-01-15 23:37:14.60	16.99	6.21	-47.4	-63.4	3.8	1.49e+00	0	40	104	0	65	23918
2026-01-15 23:37:15.60	16.99	6.28	-47.4	-63.3	3.8	1.49e+00	0	40	104	0	65	23828
2026-01-15 23:37:16.59	17.00	6.36	-47.4	-63.2	3.8	1.49e+00	0	40	104	0	65	23564
2026-01-15 23:37:17.58	17.01	6.43	-47.4	-63.1	3.8	1.49e+00	0	40	104	0	65	23266
2026-01-15 23:37:18.58	17.02	6.51	-47.4	-63.0	3.8	1.49e+00	0	40	104	0	65	22946
2026-01-15 23:37:19.57	17.03	6.58	-47.4	-63.0	3.8	1.49e+00	0	41	104	0	65	22901
2026-01-15 23:37:20.56	17.04	6.66	-47.4	-63.1	3.8	1.49e+00	0	40	104	0	65	23053
2026-01-15 23:37:21.56	17.04	6.73	-47.4	-63.2	3.8	1.49e+00	0	41	104	0	65	23404
2026-01-15 23:37:22.55	17.05	6.81	-47.4	-63.4	3.8	1.49e+00	0	40	104	0	65	23892
2026-01-15 23:37:23.55	17.06	6.88	-47.4	-63.6	3.8	1.49e+00	0	40	104	0	65	24476
2026-01-15 23:37:24.54	17.07	6.96	-47.4	-63.7	3.8	1.49e+00	0	41	104	0	65	24865
2026-01-15 23:37:25.53	17.08	7.04	-47.4	-63.7	3.8	1.49e+00	0	41	104	0	65	24823
2026-01-15 23:37:26.53	17.09	7.11	-47.4	-63.5	3.8	1.49e+00	0	41	104	0	65	24227
2026-01-15 23:37:27.52	17.09	7.19	-47.4	-63.0	3.8	1.49e+00	0	41	104	0	65	22882
2026-01-15 23:37:28.51	17.10	7.26	-47.3	-62.3	3.8	1.49e+00	0	41	104	0	65	21096
2026-01-15 23:37:29.51	17.11	7.34	-47.3	-61.4	3.8	1.49e+00	0	41	104	0	65	19131
2026-01-15 23:37:30.50	17.12	7.42	-47.2	-60.4	4.2	1.45e+00	0	41	0	0	65	17025
2026-01-15 23:37:31.49	17.13	7.50	-47.2	-59.5	4.4	1.36e+00	0	41	0	0	65	15361
2026-01-15 23:37:32.49	17.14	7.58	-47.1	-58.7	4.8	9.02e-01	0	41	0	2097152	65	14000
2026-01-15 23:37:33.48	17.15	7.65	-47.0	-58.1	5.1	7.20e-01	0	41	0	4194304	65	13051
2026-01-15 23:37:34.47	17.15	7.73	-47.0	-57.5	5.5	5.70e-01	0	41	0	6291456	65	12176
2026-01-15 23:37:35.47	17.16	7.81	-46.9	-57.1	5.8	4.26e-01	0	41	0	7340032	65	11620
2026-01-15 23:37:36.46	17.17	7.89	-46.9	-56.7	6.0	3.59e-01	0	41	0	9437184	65	11139
2026-01-15 23:37:37.45	17.18	7.97	-46.8	-56.5	6.2	2.97e-01	0	41	0	11534336	65	10802
2026-01-15 23:37:38.45	17.19	8.05	-46.8	-56.2	6.4	2.62e-01	0	41	0	13631488	65	10498
2026-01-15 23:37:39.44	17.20	8.13	-46.7	-56.0	6.6	2.16e-01	0	41	0	14680064	65	10220
2026-01-15 23:37:40.43	17.21	8.21	-46.7	-55.7	6.9	1.85e-01	0	41	0	16777216	65	9896
2026-01-15 23:37:41.43	17.22	8.29	-46.7	-55.6	7.0	1.63e-01	0	41	0	18874368	65	9727
2026-01-15 23:37:42.42	17.22	8.37	-46.6	-55.3	7.2	1.36e-01	0	41	0	20971520	65	9476
2026-01-15 23:37:43.41	17.23	8.45	-46.6	-55.3	7.2	1.27e-01	0	41	0	23068672	65	9450
2026-01-15 23:37:44.41	17.24	8.53	-46.6	-55.3	7.3	1.19e-01	0	41	0	24117248	65	9405
2026-01-15 23:37:45.40	17.25	8.61	-46.6	-55.3	7.2	1.25e-01	0	41	0	26214400	65	9487
2026-01-15 23:37:46.39	17.26	8.69	-46.7	-55.5	7.1	1.42e-01	0	41	0	28311552	65	9632
2026-01-15 23:37:47.39	17.27	8.77	-46.7	-55.9	6.7	1.68e-01	0	41	0	30408704	65	10078
2026-01-15 23:37:48.38	17.28	8.85	-46.8	-56.3	6.4	2.20e-01	0	41	0	31457280	65	10630
2026-01-15 23:37:49.37	17.29	8.93	-46.9	-57.0	5.8	2.96e-01	0	41	0	33554432	65	11549
2026-01-15 23:37:50.37	17.30	9.02	-47.0	-57.9	5.2	5.16e-01	0	41	0	35651584	65	12761
2026-01-15 23:37:51.36	17.30	9.10	-47.1	-59.0	4.7	7.69e-01	0	41	0	37748736	65	14426
2026-01-15 23:37:52.35	17.31	9.18	-47.3	-58.4	4.9	1.14e+00	0	41	0	39845888	65	13560
2026-01-15 23:37:53.38	17.32	9.27	-47.2	-56.2	6.6	1.45e-01	0	41	0	40894464	65	10533
2026-01-15 23:37:54.42	17.33	9.36	-47.6	-63.8	3.8	1.49e+00	0	41	104	41943040	65	25230
2026-01-15 23:37:55.45	17.34	9.44	-47.6	-58.4	4.2	1.49e+00	0	41	104	41943040	66	12764
2026-01-15 23:37:56.47	17.35	9.53	-45.1	-50.1	12.8	6.02e-05	0	42	0	42991616	62	6138
2026-01-15 23:37:57.47	17.36	9.61	-44.9	-49.5	13.3	4.88e-05	0	41	0	45088768	61	6100
2026-01-15 23:37:58.46	17.37	9.70	-44.4	-48.6	14.3	1.50e-06	0	41	0	46137344	60	5793
2026-01-15 23:37:59.46	17.38	9.78	-44.0	-48.0	14.9	0.00e+00	0	41	0	48234496	60	5463
2026-01-15 23:38:00.45	17.39	9.87	-44.0	-48.1	14.8	0.00e+00	0	42	0	50331648	60	5481
2026-01-15 23:38:01.45	17.40	9.96	-44.0	-48.1	14.8	0.00e+00	0	42	0	52428800	60	5506
2026-01-15 23:38:02.44	17.41	10.04	-44.0	-47.9	15.0	7.00e-07	0	42	0	54525952	59	5690
2026-01-15 23:38:03.44	17.42	10.13	-44.0	-47.8	15.1	0.00e+00	0	42	0	55574528	59	5625
2026-01-15 23:38:04.43	17.43	10.21	-43.9	-47.8	15.1	0.00e+00	0	42	0	57671680	59	5622
2026-01-15 23:38:05.43	17.44	10.30	-43.9	-47.7	15.1	0.00e+00	0	42	0	59768832	59	5589
2026-01-15 23:38:06.42	17.45	10.39	-43.9	-47.7	15.2	0.00e+00	0	42	0	61865984	59	5553
2026-01-15 23:38:07.42	17.46	10.48	-43.9	-47.7	15.1	0.00e+00	0	42	0	62914560	59	5584
2026-01-15 23:38:08.41	17.46	10.56	-43.9	-47.7	15.1	0.00e+00	0	42	0	65011712	59	5576
2026-01-15 23:38:09.40	17.47	10.65	-44.0	-47.7	15.2	0.00e+00	0	42	0	67108864	59	5581
2026-01-15 23:38:10.40	17.48	10.74	-43.9	-47.7	15.3	0.00e+00	0	41	0	69206016	59	5535
2026-01-15 23:38:11.39	17.49	10.83	-43.9	-47.6	15.4	0.00e+00	0	42	0	71303168	59	5466
2026-01-15 23:38:12.39	17.50	10.92	-44.0	-47.6	15.3	0.00e+00	0	42	0	72351744	59	5510
2026-01-15 23:38:13.38	17.51	11.01	-43.9	-47.5	15.5	0.00e+00	0	42	0	74448896	59	5417
2026-01-15 23:38:14.38	17.52	11.10	-43.9	-47.4	15.5	0.00e+00	0	42	0	76546048	59	5372
2026-01-15 23:38:15.45	17.53	11.19	-43.9	-47.4	15.5	0.00e+00	0	42	0	78643200	59	5393
2026-01-15 23:38:16.30	17.54	11.27	-43.9	-47.4	15.5	0.00e+00	0	42	0	79691776	59	5372
2026-01-15 23:38:17.66	17.56	11.39	-43.9	-47.5	15.5	0.00e+00	0	42	0	82837504	59	5424
2026-01-15 23:38:18.37	17.56	11.46	-43.9	-47.4	15.5	0.00e+00	0	42	0	83886080	59	5393
2026-01-15 23:38:19.65	17.58	11.58	-43.9	-47.4	15.6	0.00e+00	0	42	0	85983232	59	5376
2026-01-15 23:38:20.38	17.58	11.64	-43.9	-47.4	15.6	0.00e+00	0	42	0	88080384	59	5353
2026-01-15 23:38:21.66	17.60	11.76	-43.9	-47.3	15.7	0.00e+00	0	42	0	90177536	59	5294
2026-01-15 23:38:22.37	17.60	11.83	-43.9	-47.2	15.7	0.00e+00	0	42	0	91226112	59	5269
2026-01-15 23:38:23.65	17.62	11.95	-43.9	-47.2	15.8	0.00e+00	0	42	0	93323264	59	5255
2026-01-15 23:38:24.44	17.62	12.02	-43.9	-47.1	15.8	0.00e+00	0	42	0	95420416	59	5211
2026-01-15 23:38:25.64	17.64	12.14	-43.9	-47.1	15.8	0.00e+00	0	42	0	97517568	59	5213
2026-01-15 23:38:26.50	17.64	12.22	-43.9	-47.1	15.8	0.00e+00	0	42	0	99614720	59	5205
2026-01-15 23:38:27.63	17.66	12.32	-43.9	-47.1	15.9	0.00e+00	0	42	0	101711872	59	5200
2026-01-15 23:38:28.71	17.67	12.43	-43.9	-47.1	15.9	0.00e+00	0	42	0	102760448	59	5183
2026-01-15 23:38:29.56	17.68	12.51	-43.9	-47.0	15.9	0.00e+00	0	42	0	104857600	59	5150
2026-01-15 23:38:30.70	17.69	12.62	-43.8	-46.9	16.0	0.00e+00	0	42	0	106954752	59	5097
2026-01-15 23:38:31.79	17.70	12.72	-43.8	-47.1	15.9	0.00e+00	0	42	0	109051904	59	5180
2026-01-15 23:38:32.81	17.71	12.82	-43.7	-46.9	16.1	0.00e+00	0	42	0	111149056	59	5090
2026-01-15 23:38:33.81	17.72	12.92	-43.7	-46.9	16.1	0.00e+00	0	42	0	113246208	59	5057
2026-01-15 23:38:34.80	17.73	13.01	-43.7	-46.8	16.1	0.00e+00	0	42	0	114294784	59	5040
2026-01-15 23:38:35.80	17.74	13.11	-43.7	-46.8	16.2	0.00e+00	0	42	0	116391936	59	5027
2026-01-15 23:38:36.80	17.75	13.21	-43.7	-46.8	16.1	0.00e+00	0	42	0	118489088	59	5035
2026-01-15 23:38:37.79	17.76	13.31	-43.7	-46.8	16.2	0.00e+00	0	42	0	120586240	59	5001
2026-01-15 23:38:38.79	17.77	13.41	-43.7	-46.7	16.3	0.00e+00	0	42	0	122683392	59	4966
2026-01-15 23:38:39.78	17.78	13.51	-43.6	-46.7	16.3	0.00e+00	0	42	0	123731968	59	4965
2026-01-15 23:38:40.78	17.80	13.61	-43.7	-46.7	16.3	0.00e+00	0	42	0	125829120	59	4972
2026-01-15 23:38:41.77	17.81	13.71	-43.7	-46.7	16.3	0.00e+00	0	42	0	127926272	59	4979
2026-01-15 23:38:42.76	17.82	13.81	-43.7	-46.7	16.3	0.00e+00	0	42	0	130023424	59	4973
2026-01-15 23:38:43.76	17.83	13.91	-43.7	-46.8	16.2	0.00e+00	0	42	0	131072000	59	5007
2026-01-15 23:38:44.75	17.84	14.01	-43.7	-46.7	16.4	0.00e+00	0	42	0	133169152	59	4932
2026-01-15 23:38:45.84	17.85	14.12	-43.7	-46.7	16.3	0.00e+00	0	42	0	135266304	59	4952
2026-01-15 23:38:46.72	17.86	14.21	-43.7	-46.7	16.3	0.00e+00	0	42	0	137363456	59	4959
2026-01-15 23:38:47.86	17.87	14.33	-43.8	-46.7	16.3	0.00e+00	0	42	0	139460608	59	4972
2026-01-15 23:38:48.71	17.88	14.41	-43.7	-46.6	16.4	0.00e+00	0	42	0	140509184	59	4924
2026-01-15 23:38:49.85	17.90	14.53	-43.7	-46.7	16.4	0.00e+00	0	42	0	142606336	59	4935
2026-01-15 23:38:50.78	17.91	14.63	-43.7	-46.6	16.4	0.00e+00	0	42	0	144703488	59	4916
2026-01-15 23:38:51.95	17.92	14.75	-43.8	-46.7	16.3	0.00e+00	0	42	0	146800640	59	4953
2026-01-15 23:38:52.81	17.93	14.84	-43.8	-46.7	16.3	0.00e+00	0	42	0	148897792	59	4981
2026-01-15 23:38:53.94	17.94	14.96	-43.7	-46.6	16.4	0.00e+00	0	42	0	150994944	59	4917
2026-01-15 23:38:54.80	17.95	15.05	-43.7	-46.7	16.4	0.00e+00	0	42	0	152043520	59	4941
2026-01-15 23:38:55.93	17.97	15.17	-43.7	-46.6	16.4	0.00e+00	0	42	0	154140672	59	4925
2026-01-15 23:38:56.79	17.98	15.27	-43.8	-46.7	16.3	0.00e+00	0	42	0	156237824	59	4952
2026-01-15 23:38:57.92	17.99	15.39	-43.7	-46.7	16.4	0.00e+00	0	42	0	158334976	59	4938
2026-01-15 23:38:58.78	18.00	15.48	-43.7	-46.7	16.4	0.00e+00	0	42	0	159383552	59	4947
2026-01-15 23:38:59.91	18.01	15.60	-43.7	-46.7	16.4	0.00e+00	0	42	0	161480704	59	4941
2026-01-15 23:39:00.77	18.02	15.70	-43.7	-46.6	16.5	0.00e+00	0	42	0	163577856	59	4883
2026-01-15 23:39:01.90	18.04	15.82	-43.7	-46.7	16.4	0.00e+00	0	42	0	165675008	59	4944
2026-01-15 23:39:02.76	18.05	15.91	-43.7	-46.7	16.4	0.00e+00	0	42	0	166723584	59	4934
2026-01-15 23:39:03.89	18.06	16.04	-43.7	-46.5	16.5	0.00e+00	0	42	0	168820736	59	4867
2026-01-15 23:39:04.75	18.07	16.13	-43.7	-46.6	16.5	0.00e+00	0	42	0	170917888	59	4885
2026-01-15 23:39:05.88	18.08	16.26	-43.7	-46.5	16.5	0.00e+00	0	42	0	173015040	59	4862
2026-01-15 23:39:06.74	18.09	16.36	-43.6	-46.5	16.6	0.00e+00	0	42	0	175112192	59	4849
2026-01-15 23:39:08.08	18.11	16.51	-43.8	-46.7	16.4	0.00e+00	0	42	0	177209344	59	4940
2026-01-15 23:39:08.79	18.12	16.59	-43.7	-46.7	16.4	0.00e+00	0	42	0	178257920	59	4928
2026-01-15 23:39:10.07	18.14	16.73	-43.7	-46.6	16.5	0.00e+00	0	42	0	181403648	59	4895
2026-01-15 23:39:10.78	18.14	16.81	-43.8	-46.7	16.4	0.00e+00	0	42	0	182452224	59	4966
2026-01-15 23:39:12.06	18.16	16.96	-43.7	-46.7	16.4	0.00e+00	0	42	0	184549376	59	4950
2026-01-15 23:39:12.77	18.17	17.04	-43.7	-46.7	16.4	0.00e+00	0	42	0	185597952	59	4951
2026-01-15 23:39:14.05	18.19	17.19	-43.8	-46.8	16.3	0.00e+00	0	42	0	188743680	59	4985
2026-01-15 23:39:14.87	18.20	17.29	-43.7	-46.6	16.5	0.00e+00	0	42	0	189792256	59	4915
2026-01-15 23:39:16.01	18.21	17.42	-43.7	-46.7	16.4	0.00e+00	0	42	0	191889408	59	4965
2026-01-15 23:39:16.86	18.22	17.52	-43.7	-46.7	16.4	0.00e+00	0	42	0	193986560	59	4967
2026-01-15 23:39:18.00	18.24	17.65	-43.7	-46.7	16.5	0.00e+00	0	42	0	196083712	59	4948
2026-01-15 23:39:18.85	18.25	17.75	-43.6	-46.6	16.5	0.00e+00	0	42	0	197132288	59	4894
2026-01-15 23:39:19.99	18.26	17.89	-43.6	-46.6	16.5	0.00e+00	0	42	0	199229440	59	4904
2026-01-15 23:39:20.84	18.27	17.99	-43.7	-46.7	16.4	0.00e+00	0	42	0	201326592	59	4953
2026-01-15 23:39:21.98	18.29	18.13	-43.6	-46.7	16.5	0.00e+00	0	42	0	203423744	59	4928
2026-01-15 23:39:22.83	18.30	18.23	-43.5	-46.5	16.6	0.00e+00	0	42	0	204472320	59	4863
2026-01-15 23:39:24.01	18.32	18.37	-43.7	-46.7	16.4	0.00e+00	0	42	0	206569472	59	4970
2026-01-15 23:39:24.86	18.33	18.48	-43.7	-46.7	16.4	0.00e+00	0	42	0	208666624	59	4967
2026-01-15 23:39:26.07	18.34	18.63	-43.7	-46.7	16.4	0.00e+00	0	42	0	210763776	59	4972
2026-01-15 23:39:26.92	18.36	18.73	-43.7	-46.8	16.4	0.00e+00	0	42	0	212860928	59	4992
2026-01-15 23:39:28.06	18.37	18.87	-43.6	-46.7	16.4	0.00e+00	0	42	0	214958080	59	4956
2026-01-15 23:39:28.91	18.38	18.98	-43.6	-46.7	16.5	0.00e+00	0	42	0	216006656	59	4929
2026-01-15 23:39:30.05	18.40	19.12	-43.7	-46.7	16.4	0.00e+00	0	42	0	218103808	59	4976
2026-01-15 23:39:30.90	18.41	19.23	-43.7	-46.7	16.5	0.00e+00	0	42	0	220200960	59	4954
2026-01-15 23:39:32.04	18.43	19.37	-43.7	-46.8	16.4	0.00e+00	0	42	0	222298112	59	4992
2026-01-15 23:39:32.89	18.44	19.48	-43.8	-46.8	16.3	0.00e+00	0	42	0	223346688	59	5020
2026-01-15 23:39:34.03	18.45	19.63	-43.8	-46.9	16.3	0.00e+00	0	42	0	225443840	59	5052
2026-01-15 23:39:34.88	18.47	19.74	-43.9	-47.0	16.2	0.00e+00	0	42	0	227540992	59	5103
2026-01-15 23:39:36.02	18.48	19.88	-43.9	-47.0	16.2	0.00e+00	0	42	0	229638144	59	5121
2026-01-15 23:39:36.87	18.50	19.99	-44.0	-47.0	16.1	0.00e+00	0	42	0	230686720	59	5136
2026-01-15 23:39:38.01	18.51	20.14	-43.9	-46.9	16.2	0.00e+00	0	42	0	232783872	59	5075
2026-01-15 23:39:38.86	18.52	20.25	-43.9	-46.8	16.3	0.00e+00	0	42	0	234881024	59	5039
2026-01-15 23:39:40.00	18.54	20.40	-43.9	-46.9	16.2	0.00e+00	0	42	0	236978176	59	5091
2026-01-15 23:39:40.85	18.55	20.52	-43.9	-47.0	16.2	0.00e+00	0	42	0	239075328	59	5104
2026-01-15 23:39:41.99	18.57	20.67	-43.9	-46.9	16.2	0.00e+00	0	42	0	241172480	59	5084
2026-01-15 23:39:42.84	18.58	20.78	-44.0	-47.0	16.1	0.00e+00	0	42	0	242221056	59	5126
2026-01-15 23:39:43.98	18.60	20.94	-44.0	-47.0	16.2	0.00e+00	0	42	0	244318208	59	5124
2026-01-15 23:39:44.83	18.61	21.05	-43.9	-47.0	16.2	0.00e+00	0	42	0	246415360	59	5112
2026-01-15 23:39:45.96	18.63	21.20	-44.0	-47.0	16.2	0.00e+00	0	42	0	248512512	59	5142
2026-01-15 23:39:46.81	18.64	21.32	-44.0	-47.0	16.1	0.00e+00	0	42	0	249561088	59	5156
2026-01-15 23:39:47.95	18.66	21.48	-44.0	-47.1	16.0	0.00e+00	0	42	0	251658240	59	5204
2026-01-15 23:39:48.80	18.67	21.60	-44.0	-47.1	16.1	0.00e+00	0	42	0	253755392	59	5192
2026-01-15 23:39:49.94	18.69	21.75	-44.0	-47.1	16.1	0.00e+00	0	42	0	255852544	59	5173
2026-01-15 23:39:50.79	18.71	21.87	-44.1	-47.2	16.0	0.00e+00	0	42	0	256901120	59	5233
2026-01-15 23:39:51.93	18.72	22.03	-44.0	-47.1	16.1	0.00e+00	0	42	0	258998272	59	5203
2026-01-15 23:39:52.78	18.74	22.15	-44.0	-47.1	16.0	0.00e+00	0	42	0	261095424	59	5217
2026-01-15 23:39:53.93	18.76	22.32	-44.0	-47.1	16.1	0.00e+00	0	42	0	263192576	59	5172
2026-01-15 23:39:54.79	18.77	22.44	-44.1	-47.2	16.0	0.00e+00	0	42	0	264241152	59	5252
2026-01-15 23:39:55.92	18.79	22.60	-44.0	-47.1	16.1	0.00e+00	0	42	0	267386880	59	5180
2026-01-15 23:39:56.78	18.80	22.73	-44.1	-47.2	16.0	0.00e+00	0	42	0	268435456	59	5227
2026-01-15 23:39:58.02	18.82	22.91	-44.1	-47.2	15.9	0.00e+00	0	42	0	270532608	59	5265
2026-01-15 23:39:58.88	18.84	23.03	-44.0	-47.1	16.1	0.00e+00	0	42	0	272629760	59	5196
2026-01-15 23:40:00.09	18.86	23.21	-44.0	-47.0	16.2	0.00e+00	0	42	0	274726912	59	5126
2026-01-15 23:40:00.95	18.87	23.34	-44.0	-47.0	16.1	0.00e+00	0	42	0	275775488	59	5151
2026-01-15 23:40:02.09	18.89	23.51	-44.0	-47.1	16.1	0.00e+00	0	42	0	278921216	59	5161
2026-01-15 23:40:02.94	18.91	23.64	-44.0	-47.1	16.1	0.00e+00	0	42	0	279969792	59	5181
2026-01-15 23:40:04.08	18.93	23.81	-44.1	-47.1	16.1	0.00e+00	0	42	0	282066944	59	5205
2026-01-15 23:40:04.98	18.94	23.94	-44.0	-47.1	16.1	0.00e+00	0	42	0	284164096	59	5181
2026-01-15 23:40:06.09	18.96	24.11	-44.0	-47.1	16.2	0.00e+00	0	42	0	286261248	59	5162
2026-01-15 23:40:06.95	18.98	24.24	-44.0	-47.0	16.2	0.00e+00	0	42	0	287309824	59	5149
2026-01-15 23:40:08.08	19.00	24.42	-44.0	-47.1	16.1	0.00e+00	0	42	0	289406976	59	5172
2026-01-15 23:40:09.12	19.01	24.58	-44.0	-47.1	16.2	0.00e+00	0	42	0	291504128	59	5169
2026-01-15 23:40:10.04	19.03	24.72	-43.9	-47.0	16.2	0.00e+00	0	42	0	293601280	59	5147
2026-01-15 23:40:11.04	19.05	24.88	-44.1	-47.3	15.9	0.00e+00	0	42	0	295698432	59	5318
2026-01-15 23:40:12.03	19.07	25.04	-44.0	-47.1	16.1	0.00e+00	0	42	0	296747008	59	5194
2026-01-15 23:40:13.02	19.09	25.19	-44.0	-47.2	16.0	0.00e+00	0	42	0	298844160	59	5260
2026-01-15 23:40:14.02	19.11	25.35	-44.1	-47.3	15.9	0.00e+00	0	42	0	300941312	59	5312
2026-01-15 23:40:15.01	19.12	25.51	-44.1	-47.2	16.0	0.00e+00	0	42	0	303038464	59	5279
2026-01-15 23:40:16.01	19.14	25.68	-44.2	-47.4	15.9	0.00e+00	0	42	0	304087040	59	5349
2026-01-15 23:40:17.01	19.16	25.84	-44.1	-47.4	15.9	0.00e+00	0	42	0	306184192	59	5361
2026-01-15 23:40:18.00	19.18	26.00	-44.1	-47.3	15.9	0.00e+00	0	42	0	308281344	59	5322
2026-01-15 23:40:19.00	19.20	26.17	-44.2	-47.4	15.8	0.00e+00	0	42	0	310378496	59	5386
2026-01-15 23:40:19.99	19.22	26.33	-44.1	-47.3	16.0	0.00e+00	0	42	0	312475648	59	5303
2026-01-15 23:40:20.99	19.24	26.50	-44.1	-47.4	15.9	0.00e+00	0	42	0	313524224	59	5363
2026-01-15 23:40:21.98	19.26	26.66	-44.1	-47.3	15.9	0.00e+00	0	42	0	315621376	59	5340
2026-01-15 23:40:22.97	19.28	26.83	-44.2	-47.4	15.8	0.00e+00	0	42	0	317718528	59	5374
2026-01-15 23:40:23.97	19.30	27.00	-44.2	-47.4	15.8	0.00e+00	0	42	0	319815680	59	5385
2026-01-15 23:40:24.96	19.32	27.17	-44.2	-47.4	15.9	0.00e+00	0	42	0	320864256	59	5346
2026-01-15 23:40:25.96	19.34	27.34	-44.3	-47.4	15.8	0.00e+00	0	42	0	322961408	59	5396
2026-01-15 23:40:26.95	19.36	27.51	-44.3	-47.4	15.8	0.00e+00	0	42	0	325058560	59	5392
2026-01-15 23:40:27.95	19.38	27.69	-44.3	-47.4	15.8	0.00e+00	0	42	0	327155712	59	5392
2026-01-15 23:40:28.94	19.40	27.86	-44.3	-47.4	15.8	0.00e+00	0	42	0	329252864	59	5381
2026-01-15 23:40:29.93	19.42	28.04	-44.3	-47.5	15.8	0.00e+00	0	42	0	330301440	59	5407
2026-01-15 23:40:30.93	19.45	28.21	-44.4	-47.7	15.6	0.00e+00	0	42	0	332398592	59	5545
2026-01-15 23:40:31.92	19.47	28.39	-44.5	-47.7	15.6	0.00e+00	0	42	0	334495744	59	5570
2026-01-15 23:40:32.92	19.49	28.57	-44.5	-47.8	15.5	0.00e+00	0	42	0	336592896	59	5596
2026-01-15 23:40:33.91	19.51	28.75	-44.6	-47.9	15.3	0.00e+00	0	42	0	337641472	59	5717
2026-01-15 23:40:34.91	19.53	28.93	-44.6	-48.0	15.3	0.00e+00	0	42	0	339738624	59	5729
2026-01-15 23:40:35.91	19.56	29.12	-44.7	-48.2	15.1	0.00e+00	0	42	0	341835776	60	5535
2026-01-15 23:40:36.90	19.58	29.30	-44.8	-48.3	15.0	0.00e+00	0	42	0	343932928	60	5606
2026-01-15 23:40:37.90	19.60	29.48	-44.9	-48.4	15.0	0.00e+00	0	42	0	346030080	60	5665
2026-01-15 23:40:38.89	19.62	29.67	-45.0	-48.6	14.7	7.00e-07	0	42	0	347078656	60	5848
2026-01-15 23:40:39.89	19.65	29.86	-45.0	-48.6	14.7	0.00e+00	0	42	0	349175808	60	5843
2026-01-15 23:40:40.88	19.67	30.05	-45.1	-48.7	14.7	0.00e+00	0	43	0	351272960	60	5864
2026-01-15 23:40:41.88	19.70	30.24	-45.1	-48.7	14.6	7.00e-07	0	42	0	353370112	60	5920
2026-01-15 23:40:42.87	19.72	30.43	-45.1	-48.7	14.6	0.00e+00	0	42	0	354418688	61	5540
2026-01-15 23:40:43.87	19.74	30.62	-45.1	-48.7	14.7	7.00e-07	0	42	0	356515840	61	5550
2026-01-15 23:40:44.86	19.77	30.81	-45.1	-48.7	14.6	0.00e+00	0	42	0	358612992	61	5578
2026-01-15 23:40:45.85	19.79	31.01	-45.2	-48.9	14.4	7.00e-07	0	42	0	360710144	61	5713
2026-01-15 23:40:46.85	19.82	31.20	-45.2	-49.0	14.4	3.00e-06	0	42	0	362807296	61	5729
2026-01-15 23:40:47.84	19.84	31.40	-45.3	-49.0	14.3	0.00e+00	0	42	0	363855872	61	5760
2026-01-15 23:40:48.84	19.87	31.60	-45.4	-49.1	14.2	3.00e-06	0	42	0	365953024	61	5841
2026-01-15 23:40:49.83	19.89	31.80	-45.4	-49.2	14.2	3.00e-06	0	42	0	368050176	61	5875
2026-01-15 23:40:50.83	19.92	32.00	-45.5	-49.3	14.0	1.50e-06	0	42	0	370147328	61	5950
2026-01-15 23:40:51.82	19.95	32.21	-45.5	-49.2	14.1	0.00e+00	0	42	0	371195904	61	5910
2026-01-15 23:40:52.81	19.97	32.41	-45.6	-49.4	13.9	1.50e-06	0	42	0	373293056	61	6032
2026-01-15 23:40:53.81	20.00	32.62	-45.7	-49.5	13.8	3.00e-06	0	42	0	375390208	62	5759
2026-01-15 23:40:54.80	20.03	32.82	-45.6	-49.4	13.9	2.20e-06	0	42	0	377487360	62	5695
2026-01-15 23:40:55.80	20.06	33.03	-45.7	-49.5	13.8	2.20e-06	0	42	0	379584512	62	5753
2026-01-15 23:40:56.86	20.09	33.26	-45.7	-49.5	13.8	2.20e-06	0	42	0	380633088	62	5750
2026-01-15 23:40:57.78	20.11	33.45	-45.5	-49.2	14.2	3.00e-06	0	42	0	382730240	62	5540
2026-01-15 23:40:58.93	20.14	33.70	-45.3	-48.9	14.5	1.50e-06	0	42	0	384827392	62	5358
2026-01-15 23:40:59.80	20.17	33.89	-45.1	-48.6	14.7	0.00e+00	0	42	0	386924544	62	5211
2026-01-15 23:41:01.09	20.21	34.17	-44.8	-48.1	15.3	0.00e+00	0	42	0	389021696	61	5191
2026-01-15 23:41:01.80	20.23	34.32	-44.7	-47.9	15.4	0.00e+00	0	42	0	390070272	61	5095
2026-01-15 23:41:03.08	20.27	34.60	-44.5	-47.8	15.6	0.00e+00	0	42	0	393216000	61	5001
2026-01-15 23:41:03.80	20.29	34.76	-44.4	-47.6	15.8	0.00e+00	0	42	0	394264576	60	5192
2026-01-15 23:41:05.07	20.33	35.05	-44.0	-47.0	16.4	0.00e+00	0	42	0	396361728	60	4855
2026-01-15 23:41:05.80	20.35	35.21	-43.8	-46.7	16.5	0.00e+00	0	42	0	397410304	59	4977
2026-01-15 23:41:07.08	20.39	35.50	-43.8	-46.7	16.6	0.00e+00	0	42	0	400556032	59	4960
2026-01-15 23:41:07.80	20.41	35.67	-43.6	-46.6	16.8	0.00e+00	0	42	0	401604608	59	4875
2026-01-15 23:41:09.08	20.46	35.96	-43.5	-46.4	16.9	0.00e+00	0	42	0	403701760	59	4787
2026-01-15 23:41:09.93	20.48	36.16	-43.3	-46.2	17.1	0.00e+00	0	42	0	405798912	58	4966
2026-01-15 23:41:11.07	20.52	36.43	-43.2	-46.1	17.3	0.00e+00	0	42	0	407896064	58	4881
2026-01-15 23:41:12.10	20.56	36.67	-43.2	-46.0	17.3	0.00e+00	0	42	0	409993216	58	4867
2026-01-15 23:41:13.27	20.60	36.95	-42.9	-45.6	17.7	0.00e+00	0	42	0	412090368	57	4920
2026-01-15 23:41:14.12	20.63	37.15	-42.9	-45.6	17.7	0.00e+00	0	43	0	413138944	57	4900
2026-01-15 23:41:15.26	20.67	37.43	-42.9	-45.6	17.7	0.00e+00	0	42	0	415236096	57	4894
2026-01-15 23:41:16.11	20.70	37.63	-42.8	-45.5	17.8	0.00e+00	0	42	0	417333248	57	4836
2026-01-15 23:41:17.25	20.74	37.91	-42.9	-45.6	17.7	0.00e+00	0	42	0	419430400	57	4891
2026-01-15 23:41:18.10	20.77	38.12	-42.9	-45.6	17.7	0.00e+00	0	42	0	420478976	57	4896
2026-01-15 23:41:19.57	20.82	38.48	-43.0	-45.7	17.7	0.00e+00	0	42	0	423624704	57	4929
2026-01-15 23:41:20.28	20.85	38.66	-43.1	-45.8	17.5	0.00e+00	0	42	0	424673280	57	5006
2026-01-15 23:41:21.56	20.90	38.99	-43.2	-45.9	17.4	0.00e+00	0	42	0	427819008	57	5058
2026-01-15 23:41:22.30	20.93	39.17	-43.3	-46.1	17.3	0.00e+00	0	42	0	428867584	57	5170
2026-01-15 23:41:23.58	20.98	39.50	-43.4	-46.1	17.2	0.00e+00	0	42	0	430964736	57	5203
2026-01-15 23:41:24.31	21.00	39.69	-43.4	-46.1	17.2	0.00e+00	0	42	0	432013312	57	5212
2026-01-15 23:41:25.59	21.06	40.02	-43.4	-46.2	17.2	0.00e+00	0	42	0	435159040	57	5228
2026-01-15 23:41:26.31	21.09	40.21	-43.5	-46.2	17.1	0.00e+00	0	42	0	436207616	57	5257
2026-01-15 23:41:27.59	21.14	40.55	-43.5	-46.3	17.0	0.00e+00	0	42	0	438304768	57	5305
2026-01-15 23:41:28.30	21.17	40.74	-43.6	-46.4	17.0	0.00e+00	0	42	0	440401920	57	5360
2026-01-15 23:41:29.58	21.22	41.08	-43.9	-46.8	16.6	0.00e+00	0	42	0	442499072	58	5281
2026-01-15 23:41:30.46	21.26	41.32	-44.0	-46.9	16.5	0.00e+00	0	42	0	444596224	58	5366
2026-01-15 23:41:31.60	21.31	41.63	-44.2	-47.1	16.3	0.00e+00	0	42	0	446693376	59	5167
2026-01-15 23:41:32.62	21.36	41.90	-44.2	-47.2	16.2	0.00e+00	0	42	0	447741952	59	5226
2026-01-15 23:41:33.78	21.41	42.23	-44.3	-47.3	16.1	0.00e+00	0	42	0	449839104	59	5291
2026-01-15 23:41:34.66	21.45	42.47	-44.3	-47.3	16.1	0.00e+00	0	42	0	451936256	59	5285
2026-01-15 23:41:35.97	21.51	42.84	-44.3	-47.3	16.1	0.00e+00	0	42	0	454033408	59	5321
2026-01-15 23:41:36.68	21.55	43.04	-44.2	-47.1	16.2	0.00e+00	0	42	0	456130560	59	5201
2026-01-15 23:41:38.17	21.62	43.46	-44.0	-46.9	16.4	0.00e+00	0	42	0	458227712	59	5083
2026-01-15 23:41:38.88	21.66	43.67	-43.9	-46.8	16.6	0.00e+00	0	42	0	460324864	59	5001
2026-01-15 23:41:40.16	21.72	44.04	-44.0	-46.9	16.5	0.00e+00	0	43	0	462422016	59	5057
2026-01-15 23:41:41.20	21.78	44.34	-43.9	-46.7	16.6	0.00e+00	0	42	0	464519168	59	4955
2026-01-15 23:41:42.48	21.84	44.72	-44.0	-46.9	16.5	0.00e+00	0	42	0	466616320	59	5075
2026-01-15 23:41:43.19	21.88	44.93	-44.1	-47.1	16.3	0.00e+00	0	42	0	467664896	59	5175
2026-01-15 23:41:44.47	21.95	45.31	-44.3	-47.3	15.9	0.00e+00	0	42	0	470810624	59	5337
2026-01-15 23:41:45.19	21.99	45.53	-44.5	-47.7	15.7	0.00e+00	0	42	0	471859200	59	5573
2026-01-15 23:41:46.47	22.06	45.92	-44.9	-48.4	15.0	0.00e+00	0	42	0	473956352	60	5721
2026-01-15 23:41:47.18	22.10	46.13	-45.1	-48.8	14.6	0.00e+00	0	42	0	475004928	60	5985
2026-01-15 23:41:48.46	22.18	46.53	-45.3	-49.1	14.3	1.50e-06	0	42	0	478150656	61	5808
2026-01-15 23:41:49.19	22.22	46.75	-45.2	-48.9	14.5	0.00e+00	0	42	0	479199232	61	5722
2026-01-15 23:41:50.47	22.30	47.15	-45.2	-48.7	14.7	0.00e+00	0	42	0	481296384	61	5592
2026-01-15 23:41:51.19	22.34	47.38	-45.4	-49.0	14.4	0.00e+00	0	42	0	483393536	61	5756
2026-01-15 23:41:52.55	22.43	47.81	-45.6	-49.4	14.1	2.20e-06	0	43	0	485490688	61	6001
2026-01-15 23:41:53.26	22.48	48.04	-45.6	-49.3	14.1	5.30e-06	0	42	0	486539264	62	5648
2026-01-15 23:41:54.65	22.57	48.49	-45.7	-49.5	13.9	2.20e-06	0	43	0	489684992	62	5775
2026-01-15 23:41:55.36	22.62	48.72	-45.8	-49.7	13.7	7.00e-07	0	43	0	490733568	62	5898
2026-01-15 23:41:56.64	22.70	49.14	-45.6	-49.4	14.2	7.00e-07	0	42	0	492830720	62	5664
2026-01-15 23:41:57.68	22.78	49.48	-45.7	-49.5	14.0	3.00e-06	0	42	0	494927872	62	5759
2026-01-15 23:41:58.96	22.87	49.90	-45.2	-48.7	14.8	7.00e-07	0	42	0	497025024	62	5231
2026-01-15 23:41:59.70	22.92	50.15	-45.0	-48.4	15.1	0.00e+00	0	42	0	499122176	62	5044
2026-01-15 23:42:00.98	23.02	50.58	-44.2	-47.3	16.2	0.00e+00	0	42	0	501219328	60	4991
2026-01-15 23:42:01.69	23.07	50.83	-43.9	-46.8	16.5	0.00e+00	0	42	0	502267904	59	5039
2026-01-15 23:42:02.97	23.17	51.26	-43.5	-46.2	17.1	0.00e+00	0	43	0	505413632	59	4683
2026-01-15 23:42:03.70	23.23	51.52	-43.1	-45.7	17.6	0.00e+00	0	43	0	506462208	58	4705
2026-01-15 23:42:04.98	23.34	51.96	-42.8	-45.3	18.0	0.00e+00	0	42	0	508559360	57	4730
2026-01-15 23:42:05.69	23.40	52.21	-42.9	-45.4	18.0	0.00e+00	0	42	0	510656512	57	4792
2026-01-15 23:42:06.96	23.50	52.66	-42.9	-45.4	17.9	0.00e+00	0	42	0	512753664	57	4802
2026-01-15 23:42:07.68	23.57	52.91	-42.7	-45.2	18.1	0.00e+00	0	43	0	513802240	57	4697
2026-01-15 23:42:08.95	23.68	53.37	-42.3	-44.7	18.6	0.00e+00	0	42	0	515899392	56	4690
2026-01-15 23:42:09.68	23.75	53.63	-42.2	-44.6	18.7	0.00e+00	0	42	0	517996544	56	4621
2026-01-15 23:42:10.96	23.87	54.09	-41.7	-44.0	19.1	0.00e+00	0	43	0	520093696	55	4552
2026-01-15 23:42:11.67	23.94	54.35	-41.5	-43.8	19.3	0.00e+00	0	42	0	521142272	55	4474
2026-01-15 23:42:13.14	24.08	54.89	-41.6	-43.8	19.3	0.00e+00	0	43	0	524288000	55	4482
2026-01-15 23:42:13.85	24.15	55.15	-41.6	-43.9	19.2	0.00e+00	0	43	0	525336576	55	4507
2026-01-15 23:42:15.13	24.29	55.63	-41.9	-44.2	18.9	0.00e+00	0	43	0	527433728	55	4702
2026-01-15 23:42:15.84	24.36	55.90	-42.1	-44.4	18.7	0.00e+00	0	42	0	529530880	55	4800
2026-01-15 23:42:17.26	24.52	56.43	-42.6	-45.0	18.1	0.00e+00	0	42	0	531628032	55	5148
2026-01-15 23:42:18.26	24.63	56.81	-43.2	-45.8	17.6	0.00e+00	0	42	0	533725184	57	5014
2026-01-15 23:42:19.25	24.75	57.19	-43.7	-46.4	17.0	0.00e+00	0	42	0	535822336	57	5360
2026-01-15 23:42:20.25	24.87	57.58	-43.9	-46.7	16.5	0.00e+00	0	43	0	537919488	58	5273
2026-01-15 23:42:21.25	24.99	57.97	-43.9	-46.8	16.6	0.00e+00	0	42	0	538968064	58	5287
2026-01-15 23:42:22.24	25.12	58.36	-43.6	-46.3	17.1	0.00e+00	0	43	0	541065216	58	5012
2026-01-15 23:42:23.24	25.25	58.75	-43.1	-45.7	17.6	0.00e+00	0	43	0	543162368	58	4693
2026-01-15 23:42:24.25	25.38	59.15	-42.8	-45.3	18.0	0.00e+00	0	43	0	545259520	57	4755
2026-01-15 23:42:25.27	25.52	59.56	-42.3	-44.6	18.7	0.00e+00	0	43	0	547356672	56	4643
2026-01-15 23:42:26.27	25.67	59.96	-42.1	-44.5	18.8	0.00e+00	0	42	0	548405248	56	4552
2026-01-15 23:42:27.26	25.81	60.36	-42.0	-44.3	19.0	0.00e+00	0	43	0	550502400	56	4448
2026-01-15 23:42:28.26	25.96	60.76	-41.8	-44.1	19.1	0.00e+00	0	42	0	552599552	55	4610
2026-01-15 23:42:29.25	26.12	61.17	-41.9	-44.2	18.9	0.00e+00	0	42	0	554696704	55	4687
2026-01-15 23:42:30.25	26.28	61.58	-41.7	-44.1	19.1	0.00e+00	0	42	0	555745280	55	4613
2026-01-15 23:42:31.24	26.44	61.98	-41.6	-43.9	19.2	0.00e+00	0	42	0	557842432	55	4511
2026-01-15 23:42:32.24	26.62	62.40	-41.6	-43.9	19.1	0.00e+00	0	42	0	559939584	55	4536
2026-01-15 23:42:33.23	26.79	62.81	-41.8	-44.1	19.0	0.00e+00	0	42	0	562036736	55	4625
2026-01-15 23:42:34.23	26.98	63.23	-42.1	-44.4	18.8	0.00e+00	0	42	0	564133888	55	4803
2026-01-15 23:42:35.22	27.16	63.65	-42.3	-44.7	18.4	0.00e+00	0	42	0	565182464	55	4971
2026-01-15 23:42:36.22	27.36	64.07	-42.7	-45.2	18.1	0.00e+00	0	42	0	567279616	55	5220
2026-01-15 23:42:37.21	27.56	64.50	-43.3	-45.9	17.4	0.00e+00	0	42	0	569376768	57	5095
2026-01-15 23:42:38.21	27.78	64.92	-44.2	-47.3	16.3	0.00e+00	0	43	0	571473920	59	5300
2026-01-15 23:42:39.20	28.00	65.35	-44.6	-47.8	15.6	0.00e+00	0	43	0	572522496	59	5600
2026-01-15 23:42:40.20	28.22	65.78	-44.6	-47.9	15.6	0.00e+00	0	42	0	574619648	60	5342
2026-01-15 23:42:41.24	28.47	66.24	-44.4	-47.5	15.9	0.00e+00	0	42	0	576716800	60	5115
2026-01-15 23:42:42.25	28.72	66.68	-44.1	-47.0	16.4	0.00e+00	0	42	0	578813952	60	4847
2026-01-15 23:42:43.28	28.99	67.13	-43.9	-46.7	16.7	0.00e+00	0	42	0	580911104	59	4949
2026-01-15 23:42:44.27	29.26	67.57	-44.0	-46.8	16.6	0.00e+00	0	42	0	583008256	59	5020
2026-01-15 23:42:45.34	29.56	68.04	-44.2	-47.2	16.2	0.00e+00	0	42	0	584056832	59	5228
2026-01-15 23:42:46.23	29.82	68.43	-44.2	-47.2	16.2	0.00e+00	0	43	0	586153984	59	5219
2026-01-15 23:42:47.37	30.17	68.94	-43.8	-46.5	16.8	0.00e+00	0	43	0	588251136	59	4854
2026-01-15 23:42:48.22	30.44	69.32	-43.6	-46.3	17.1	0.00e+00	0	42	0	590348288	59	4720
2026-01-15 23:42:49.59	30.91	69.94	-43.3	-45.9	17.6	0.00e+00	0	43	0	592445440	58	4760
2026-01-15 23:42:50.31	31.16	70.26	-43.3	-45.9	17.5	0.00e+00	0	42	0	593494016	58	4789
2026-01-15 23:42:51.59	31.64	70.84	-43.5	-46.2	17.3	0.00e+00	0	42	0	596639744	58	4943
2026-01-15 23:42:52.30	31.92	71.16	-43.7	-46.4	17.0	0.00e+00	0	43	0	597688320	58	5054
2026-01-15 23:42:53.58	32.45	71.75	-43.7	-46.5	16.9	0.00e+00	0	42	0	599785472	58	5121
2026-01-15 23:42:54.31	32.77	72.08	-43.4	-46.1	17.3	0.00e+00	0	43	0	600834048	58	4909
2026-01-15 23:42:55.59	33.36	72.66	-43.9	-46.7	16.7	0.00e+00	0	43	0	603979776	58	5264
2026-01-15 23:42:56.30	33.70	72.99	-44.3	-47.2	16.2	0.00e+00	0	42	0	605028352	59	5275
2026-01-15 23:42:57.57	34.35	73.57	-44.8	-48.0	15.5	0.00e+00	0	42	0	607125504	60	5441
2026-01-15 23:42:58.29	34.74	73.90	-44.8	-48.0	15.4	0.00e+00	0	42	0	609222656	60	5451
2026-01-15 23:42:59.57	35.48	74.49	-45.0	-48.4	15.1	7.00e-07	0	42	0	611319808	60	5694
2026-01-15 23:43:00.30	35.93	74.82	-45.1	-48.5	15.0	0.00e+00	0	42	0	612368384	60	5736
2026-01-15 23:43:01.58	36.76	75.41	-44.7	-47.9	15.5	0.00e+00	0	42	0	614465536	60	5387
2026-01-15 23:43:02.56	37.45	75.86	-44.3	-47.4	16.1	0.00e+00	0	42	0	616562688	60	5071
2026-01-15 23:43:03.56	38.20	76.32	-44.6	-47.7	15.7	0.00e+00	0	43	0	618659840	60	5257
2026-01-15 23:43:04.55	39.00	76.77	-44.8	-48.1	15.3	0.00e+00	0	43	0	620756992	60	5480
2026-01-15 23:43:05.54	39.85	77.22	-44.9	-48.2	15.2	0.00e+00	0	43	0	622854144	60	5583
2026-01-15 23:43:06.54	40.78	77.67	-45.0	-48.4	15.0	0.00e+00	0	42	0	623902720	60	5694
2026-01-15 23:43:07.52	41.76	78.12	-45.3	-48.8	14.7	0.00e+00	0	42	0	625999872	61	5593
2026-01-15 23:43:08.52	42.84	78.57	-45.3	-48.8	14.7	0.00e+00	0	42	0	628097024	61	5599
2026-01-15 23:43:09.52	44.00	79.01	-44.6	-47.8	15.8	0.00e+00	0	42	0	630194176	61	5002
2026-01-15 23:43:10.51	45.26	79.45	-44.1	-47.0	16.5	0.00e+00	0	42	0	631242752	60	4853
2026-01-15 23:43:11.51	46.64	79.89	-43.5	-46.3	17.1	0.00e+00	0	43	0	633339904	59	4712
2026-01-15 23:43:12.50	48.13	80.32	-44.0	-47.0	16.4	0.00e+00	0	43	0	635437056	59	5105
2026-01-15 23:43:13.50	49.77	80.74	-45.2	-48.7	14.9	0.00e+00	0	42	0	637534208	60	5889
2026-01-15 23:43:14.49	51.56	81.16	-46.1	-50.2	13.2	5.30e-06	0	42	0	639631360	62	6253
2026-01-15 23:43:15.49	53.54	81.57	-45.3	-48.7	14.7	1.06e-05	0	42	0	640679936	62	5275
2026-01-15 23:43:16.48	55.71	81.97	-44.9	-48.1	15.3	0.00e+00	0	42	0	642777088	61	5195
2026-01-15 23:43:17.48	58.12	82.36	-44.6	-47.7	15.8	0.00e+00	0	42	0	644874240	61	4937
2026-01-15 23:43:18.47	60.76	82.73	-43.8	-46.6	16.7	0.00e+00	0	42	0	646971392	59	4872
2026-01-15 23:43:19.47	63.71	83.08	-43.7	-46.4	16.9	0.00e+00	0	43	0	648019968	59	4804
2026-01-15 23:43:20.46	66.94	83.42	-43.5	-46.2	17.1	0.00e+00	0	42	0	650117120	59	4690
2026-01-15 23:43:21.45	70.51	83.73	-42.5	-45.0	18.3	0.00e+00	0	43	0	652214272	57	4575
2026-01-15 23:43:22.45	74.48	84.02	-42.0	-44.4	18.9	0.00e+00	0	42	0	654311424	56	4518
2026-01-15 23:43:23.45	78.83	84.28	-41.7	-44.0	19.1	0.00e+00	0	43	0	656408576	55	4579
2026-01-15 23:43:24.44	83.51	84.50	-41.7	-44.0	19.1	0.00e+00	0	42	0	657457152	55	4550
2026-01-15 23:43:25.55	89.19	84.70	-42.1	-44.5	18.7	0.00e+00	0	42	0	659554304	55	4852
2026-01-15 23:43:26.40	93.79	84.81	-42.3	-44.8	18.3	0.00e+00	0	43	0	661651456	55	5028
2026-01-15 23:43:27.54	100.24	84.91	-42.3	-44.8	18.3	0.00e+00	0	42	0	663748608	55	5017
2026-01-15 23:43:28.40	105.23	84.95	-42.8	-45.4	18.0	0.00e+00	0	43	0	664797184	56	5058
2026-01-15 23:43:29.53	111.82	84.93	-43.4	-46.1	17.3	0.00e+00	0	42	0	666894336	57	5179
2026-01-15 23:43:30.38	116.70	84.88	-43.5	-46.2	17.1	0.00e+00	0	43	0	668991488	57	5272
2026-01-15 23:43:31.52	123.02	84.75	-44.2	-47.2	16.1	0.00e+00	0	42	0	671088640	59	5241
2026-01-15 23:43:32.38	127.54	84.61	-44.6	-47.8	15.6	0.00e+00	0	42	0	673185792	59	5640
2026-01-15 23:43:33.51	133.09	84.38	-45.2	-48.8	14.7	0.00e+00	0	42	0	675282944	60	5938
2026-01-15 23:43:34.37	137.00	84.17	-45.4	-49.2	14.3	2.20e-06	0	42	0	676331520	61	5901
2026-01-15 23:43:35.50	141.70	83.86	-45.3	-48.9	14.5	1.50e-06	0	42	0	678428672	61	5700
2026-01-15 23:43:36.36	144.96	83.60	-45.0	-48.4	15.0	0.00e+00	0	42	0	680525824	61	5347
2026-01-15 23:43:37.49	148.84	83.23	-45.8	-49.7	13.7	3.80e-06	0	42	0	682622976	62	5885
2026-01-15 23:43:38.35	151.51	82.93	-46.2	-50.5	12.9	2.28e-05	0	42	0	683671552	63	6087
2026-01-15 23:43:39.58	154.94	82.48	-46.7	-51.7	11.6	3.69e-04	0	43	0	685768704	64	6592
2026-01-15 23:43:40.43	157.08	82.15	-46.7	-51.3	11.9	6.82e-04	0	42	0	687865856	64	6314
2026-01-15 23:43:41.57	159.67	81.70	-45.8	-49.5	13.9	3.81e-05	0	42	0	689963008	63	5460
2026-01-15 23:43:42.42	161.42	81.35	-45.0	-48.3	15.1	2.20e-06	0	42	0	692060160	62	5039
2026-01-15 23:43:43.56	163.56	80.88	-44.3	-47.3	16.1	0.00e+00	0	42	0	693108736	60	5025
2026-01-15 23:43:44.41	165.01	80.52	-44.1	-46.9	16.5	0.00e+00	0	42	0	695205888	59	5078
2026-01-15 23:43:45.55	166.79	80.03	-44.1	-47.0	16.4	0.00e+00	0	42	0	697303040	59	5124
2026-01-15 23:43:46.40	168.01	79.66	-44.0	-46.8	16.6	0.00e+00	0	43	0	699400192	59	5024
2026-01-15 23:43:47.53	169.49	79.16	-44.0	-46.8	16.6	0.00e+00	0	43	0	701497344	59	4997
2026-01-15 23:43:48.39	170.53	78.77	-44.7	-47.9	15.6	0.00e+00	0	42	0	702545920	60	5398
2026-01-15 23:43:49.52	171.79	78.27	-45.5	-49.2	14.2	2.20e-06	0	43	0	704643072	61	5901
2026-01-15 23:43:50.38	172.67	77.88	-46.1	-50.1	13.3	3.00e-06	0	42	0	706740224	62	6147
2026-01-15 23:43:51.51	173.75	77.37	-47.2	-52.3	11.0	1.96e-04	0	43	0	708837376	64	7117
2026-01-15 23:43:52.37	174.51	76.97	-48.1	-54.8	8.4	1.74e-02	0	42	0	709885952	66	8412
2026-01-15 23:43:53.50	175.45	76.46	-47.7	-53.6	9.5	4.84e-02	0	42	0	711983104	67	6952
2026-01-15 23:43:54.36	176.11	76.06	-47.5	-53.1	10.1	1.06e-02	0	43	0	714080256	66	6949
2026-01-15 23:43:55.49	176.93	75.55	-47.1	-52.3	10.9	3.92e-03	0	42	0	716177408	66	6308
2026-01-15 23:43:56.34	177.50	75.16	-46.8	-51.5	11.7	9.03e-04	0	43	0	717225984	65	6119
2026-01-15 23:43:57.48	178.22	74.63	-47.2	-52.2	10.9	1.06e-03	0	43	0	719323136	65	6646
2026-01-15 23:43:58.33	178.73	74.24	-46.9	-51.7	11.5	2.01e-03	0	43	0	721420288	65	6217
2026-01-15 23:43:59.60	179.44	73.66	-45.5	-49.1	14.4	3.43e-05	0	42	0	723517440	63	5167
2026-01-15 23:44:00.80	180.07	73.11	-44.7	-47.8	15.7	0.00e+00	0	42	0	725614592	61	5003
2026-01-15 23:44:01.89	180.60	72.61	-44.8	-47.9	15.6	0.00e+00	0	43	0	727711744	61	5076
2026-01-15 23:44:02.74	180.99	72.22	-44.3	-47.2	16.2	0.00e+00	0	43	0	729808896	60	4980
2026-01-15 23:44:03.88	181.49	71.70	-43.6	-46.3	17.2	0.00e+00	0	42	0	731906048	59	4710
2026-01-15 23:44:04.73	181.84	71.31	-43.6	-46.3	17.1	0.00e+00	0	43	0	732954624	59	4726
2026-01-15 23:44:05.87	182.29	70.79	-43.5	-46.2	17.2	0.00e+00	0	43	0	735051776	59	4659
2026-01-15 23:44:06.72	182.61	70.41	-43.7	-46.4	17.1	0.00e+00	0	42	0	737148928	58	5054
2026-01-15 23:44:07.86	183.02	69.89	-44.4	-47.4	16.1	0.00e+00	0	42	0	739246080	59	5343
2026-01-15 23:44:08.71	183.31	69.51	-43.9	-46.7	16.8	0.00e+00	0	43	0	740294656	59	4930
2026-01-15 23:44:09.84	183.68	69.00	-43.6	-46.2	17.2	0.00e+00	0	42	0	743440384	58	4980
2026-01-15 23:44:10.70	183.95	68.62	-44.7	-47.8	15.7	0.00e+00	0	43	0	744488960	60	5333
2026-01-15 23:44:11.97	184.33	68.05	-46.7	-51.5	11.9	1.03e-04	0	42	0	746586112	64	6424
2026-01-15 23:44:12.68	184.53	67.73	-46.7	-51.4	11.9	7.32e-04	0	43	0	748683264	64	6388
2026-01-15 23:44:14.17	184.93	67.08	-45.8	-49.6	13.8	9.10e-06	0	42	0	750780416	63	5487
2026-01-15 23:44:14.88	185.12	66.76	-45.5	-49.1	14.4	2.20e-06	0	43	0	752877568	63	5172
2026-01-15 23:44:16.22	185.45	66.18	-45.1	-48.4	15.0	0.00e+00	0	43	0	754974720	61	5376
2026-01-15 23:44:16.93	185.62	65.87	-45.4	-49.0	14.5	0.00e+00	0	43	0	756023296	61	5733
2026-01-15 23:44:18.21	185.92	65.31	-46.0	-50.0	13.4	1.83e-05	0	43	0	758120448	62	6119
2026-01-15 23:44:19.29	186.15	64.84	-44.3	-47.4	16.0	0.00e+00	0	43	0	760217600	60	5043
2026-01-15 23:44:20.14	186.33	64.48	-43.3	-46.0	17.4	0.00e+00	0	43	0	762314752	58	4818
2026-01-15 23:44:21.28	186.57	63.99	-43.2	-45.8	17.6	0.00e+00	0	43	0	764411904	58	4734
2026-01-15 23:44:22.13	186.74	63.63	-42.6	-45.1	18.2	0.00e+00	0	43	0	766509056	57	4646
2026-01-15 23:44:23.26	186.95	63.15	-42.0	-44.3	19.1	0.00e+00	0	43	0	768606208	56	4460
2026-01-15 23:44:24.12	187.11	62.79	-41.9	-44.2	19.0	0.00e+00	0	43	0	769654784	55	4688
2026-01-15 23:44:25.25	187.31	62.32	-41.8	-44.1	19.0	0.00e+00	0	43	0	771751936	55	4647
2026-01-15 23:44:26.16	187.47	61.94	-41.6	-43.9	19.2	0.00e+00	0	43	0	773849088	55	4501
2026-01-15 23:44:27.18	187.64	61.52	-41.4	-43.6	19.5	0.00e+00	0	43	0	775946240	54	4635
2026-01-15 23:44:28.35	187.82	61.04	-42.9	-45.4	18.0	0.00e+00	0	43	0	778043392	56	5073
2026-01-15 23:44:29.24	187.96	60.67	-44.3	-47.2	16.2	0.00e+00	0	42	0	779091968	59	5269
2026-01-15 23:44:30.37	188.13	60.21	-44.7	-47.9	15.5	7.00e-07	0	43	0	781189120	60	5380
2026-01-15 23:44:31.29	188.27	59.84	-44.1	-47.0	16.4	0.00e+00	0	42	0	783286272	60	4849
2026-01-15 23:44:32.46	188.43	59.37	-44.1	-46.9	16.5	0.00e+00	0	43	0	785383424	59	5071
2026-01-15 23:44:33.31	188.55	59.03	-44.6	-47.7	15.7	0.00e+00	0	42	0	786432000	59	5576
2026-01-15 23:44:34.45	188.70	58.58	-45.7	-49.5	14.0	1.50e-06	0	43	0	789577728	62	5748
2026-01-15 23:44:35.30	188.81	58.25	-46.0	-50.0	13.5	3.00e-06	0	42	0	790626304	62	6068
2026-01-15 23:44:36.44	188.95	57.80	-46.4	-50.7	12.8	6.40e-05	0	43	0	792723456	63	6203
2026-01-15 23:44:37.29	189.06	57.47	-46.4	-50.7	12.8	1.07e-04	0	43	0	794820608	63	6225
2026-01-15 23:44:38.43	189.19	57.03	-45.4	-48.9	14.5	9.10e-06	0	43	0	796917760	62	5392
2026-01-15 23:44:39.28	189.29	56.70	-44.6	-47.7	15.7	0.00e+00	0	43	0	797966336	61	4958
2026-01-15 23:44:40.42	189.42	56.27	-44.4	-47.3	16.1	0.00e+00	0	43	0	800063488	60	5027
2026-01-15 23:44:41.28	189.51	55.94	-44.7	-47.9	15.5	0.00e+00	0	42	0	802160640	60	5352
2026-01-15 23:44:42.42	189.63	55.51	-43.9	-46.7	16.7	0.00e+00	0	43	0	804257792	59	4973
2026-01-15 23:44:43.27	189.72	55.19	-43.2	-45.7	17.6	0.00e+00	0	43	0	805306368	58	4683
2026-01-15 23:44:44.52	189.85	54.73	-42.8	-45.3	18.1	0.00e+00	0	42	0	808452096	57	4717
2026-01-15 23:44:45.37	189.93	54.42	-43.1	-45.6	17.8	0.00e+00	0	43	0	809500672	57	4896
2026-01-15 23:44:46.51	190.04	54.00	-43.8	-46.6	16.8	0.00e+00	0	43	0	811597824	58	5190
2026-01-15 23:44:47.36	190.12	53.69	-43.7	-46.6	16.8	0.00e+00	0	43	0	813694976	58	5171
2026-01-15 23:44:48.62	190.24	53.24	-43.0	-45.6	17.8	0.00e+00	0	43	0	815792128	57	4879
2026-01-15 23:44:49.42	190.31	52.95	-43.1	-45.7	17.6	0.00e+00	0	43	0	816840704	57	4980
2026-01-15 23:44:50.56	190.41	52.54	-43.3	-46.0	17.4	0.00e+00	0	42	0	818937856	57	5136
2026-01-15 23:44:51.41	190.48	52.24	-44.0	-47.0	16.5	0.00e+00	0	42	0	821035008	58	5405
2026-01-15 23:44:52.55	190.58	51.84	-44.7	-48.0	15.4	0.00e+00	0	42	0	823132160	60	5452
2026-01-15 23:44:53.41	190.65	51.54	-45.0	-48.5	14.9	0.00e+00	0	42	0	824180736	60	5762
2026-01-15 23:44:54.55	190.74	51.15	-45.8	-49.6	13.8	3.80e-06	0	42	0	826277888	62	5855
2026-01-15 23:44:55.40	190.80	50.86	-45.9	-49.8	13.6	2.20e-06	0	43	0	828375040	62	5959
2026-01-15 23:44:56.53	190.89	50.47	-45.7	-49.4	14.0	5.30e-06	0	43	0	830472192	62	5682
2026-01-15 23:44:57.39	190.96	50.18	-45.4	-48.9	14.4	2.20e-06	0	43	0	832569344	62	5389
2026-01-15 23:44:58.53	191.04	49.79	-45.0	-48.2	15.2	0.00e+00	0	43	0	834666496	62	4975
2026-01-15 23:44:59.38	191.10	49.51	-44.8	-48.0	15.4	0.00e+00	0	42	0	835715072	61	5125
2026-01-15 23:45:00.52	191.18	49.13	-45.7	-49.5	13.9	7.00e-07	0	42	0	837812224	62	5729
2026-01-15 23:45:01.37	191.24	48.85	-46.9	-51.9	11.3	2.36e-04	0	42	0	839909376	64	6791
2026-01-15 23:45:02.51	191.32	48.48	-48.4	-56.4	6.8	4.81e-02	0	43	0	842006528	67	9571
2026-01-15 23:45:03.36	191.37	48.20	-47.4	-53.2	9.6	1.13e-01	0	43	0	843055104	66	7010
2026-01-15 23:45:04.50	191.45	47.84	-45.8	-49.5	13.8	8.39e-05	0	43	0	845152256	63	5435
2026-01-15 23:45:05.35	191.50	47.57	-44.7	-47.9	15.5	0.00e+00	0	43	0	847249408	61	5043
2026-01-15 23:45:06.69	191.58	47.14	-43.9	-46.7	16.7	0.00e+00	0	43	0	849346560	59	4965
2026-01-15 23:45:07.40	191.63	46.92	-43.9	-46.7	16.7	0.00e+00	0	43	0	850395136	59	4937
2026-01-15 23:45:08.68	191.70	46.52	-44.5	-47.6	15.9	0.00e+00	0	42	0	853540864	59	5497
2026-01-15 23:45:09.41	191.75	46.29	-45.1	-48.5	15.0	0.00e+00	0	42	0	854589440	60	5746
2026-01-15 23:45:10.69	191.82	45.90	-45.4	-49.2	14.2	7.00e-07	0	42	0	856686592	61	5872
2026-01-15 23:45:11.40	191.86	45.68	-45.5	-49.3	14.0	3.00e-06	0	43	0	858783744	61	5982
2026-01-15 23:45:12.68	191.93	45.29	-45.2	-48.8	14.6	0.00e+00	0	43	0	860880896	61	5617
2026-01-15 23:45:13.47	191.97	45.05	-44.8	-48.1	15.3	0.00e+00	0	43	0	861929472	61	5168
2026-01-15 23:45:14.65	192.04	44.70	-43.9	-46.8	16.5	0.00e+00	0	43	0	864026624	59	5012
2026-01-15 23:45:15.50	192.08	44.45	-43.5	-46.2	17.1	0.00e+00	0	43	0	866123776	59	4680
2026-01-15 23:45:16.64	192.14	44.11	-42.8	-45.3	18.0	0.00e+00	0	43	0	868220928	57	4728
2026-01-15 23:45:17.71	192.20	43.80	-42.7	-45.2	18.0	0.00e+00	0	43	0	870318080	57	4671
2026-01-15 23:45:18.74	192.25	43.50	-42.7	-45.1	18.2	0.00e+00	0	42	0	872415232	57	4634
2026-01-15 23:45:19.73	192.30	43.22	-43.0	-45.6	17.7	0.00e+00	0	43	0	874512384	57	4873
2026-01-15 23:45:20.93	192.35	42.88	-43.7	-46.5	16.8	0.00e+00	0	43	0	876609536	58	5143
2026-01-15 23:45:21.82	192.40	42.62	-44.7	-48.0	15.4	0.00e+00	0	42	0	877658112	60	5438
2026-01-15 23:45:23.13	192.46	42.26	-45.9	-50.0	13.4	0.00e+00	0	43	0	880803840	62	6094
2026-01-15 23:45:23.84	192.49	42.06	-45.9	-50.1	13.4	1.98e-05	0	43	0	881852416	62	6133
2026-01-15 23:45:25.12	192.55	41.71	-45.5	-49.3	14.1	4.50e-06	0	43	0	883949568	62	5596
2026-01-15 23:45:25.83	192.58	41.51	-45.3	-48.9	14.5	0.00e+00	0	43	0	884998144	62	5371
2026-01-15 23:45:27.11	192.64	41.16	-44.6	-47.7	15.6	0.00e+00	0	43	0	888143872	61	4959
2026-01-15 23:45:27.87	192.67	40.96	-44.3	-47.3	16.1	0.00e+00	0	42	0	889192448	60	4992
2026-01-15 23:45:29.15	192.72	40.61	-44.1	-47.0	16.3	0.00e+00	0	43	0	891289600	60	4853
2026-01-15 23:45:29.90	192.75	40.41	-43.9	-46.7	16.6	0.00e+00	0	42	0	893386752	59	4972
2026-01-15 23:45:31.19	192.81	40.07	-43.9	-46.7	16.7	0.00e+00	0	43	0	895483904	59	4935
2026-01-15 23:45:31.90	192.84	39.89	-44.4	-47.3	16.0	0.00e+00	0	43	0	896532480	59	5327
2026-01-15 23:45:33.17	192.89	39.56	-45.3	-48.9	14.5	0.00e+00	0	43	0	899678208	61	5658
2026-01-15 23:45:34.01	192.92	39.34	-46.0	-50.1	13.2	2.20e-06	0	43	0	900726784	62	6167
2026-01-15 23:45:35.15	192.96	39.05	-46.8	-51.8	11.4	4.09e-04	0	43	0	902823936	64	6675
2026-01-15 23:45:36.21	193.00	38.78	-47.5	-53.4	9.6	3.99e-03	0	43	0	904921088	65	7609
2026-01-15 23:45:37.24	193.04	38.52	-47.8	-54.2	8.9	1.89e-02	0	43	0	907018240	66	7899
2026-01-15 23:45:38.23	193.08	38.27	-47.4	-53.2	9.9	1.57e-02	0	43	0	909115392	66	7024
2026-01-15 23:45:39.43	193.12	37.97	-46.9	-51.9	11.3	3.11e-03	0	43	0	911212544	65	6383
2026-01-15 23:45:40.31	193.16	37.75	-46.5	-51.1	12.0	5.30e-04	0	43	0	912261120	65	5852
2026-01-15 23:45:41.62	193.20	37.43	-46.1	-50.3	13.0	5.87e-05	0	42	0	915406848	64	5598
2026-01-15 23:45:42.33	193.23	37.26	-46.1	-50.0	13.3	3.50e-05	0	43	0	916455424	63	5780
2026-01-15 23:45:43.83	193.28	36.90	-45.6	-49.3	14.1	3.80e-06	0	43	0	919601152	63	5293
2026-01-15 23:45:44.54	193.30	36.73	-45.7	-49.3	14.1	3.80e-06	0	43	0	920649728	63	5325
2026-01-15 23:45:45.83	193.35	36.42	-45.9	-49.7	13.7	3.80e-06	0	43	0	922746880	63	5581
2026-01-15 23:45:46.54	193.37	36.25	-46.0	-49.9	13.4	1.29e-05	0	43	0	923795456	63	5700
2026-01-15 23:45:47.82	193.41	35.95	-46.1	-50.0	13.3	6.80e-06	0	43	0	926941184	63	5775
2026-01-15 23:45:48.53	193.43	35.79	-46.2	-50.2	13.1	2.21e-05	0	43	0	927989760	63	5890
2026-01-15 23:45:49.81	193.47	35.49	-46.3	-50.5	12.8	5.11e-05	0	43	0	930086912	63	6115
2026-01-15 23:45:50.52	193.50	35.33	-46.6	-51.1	12.2	1.01e-04	0	42	0	932184064	63	6552
2026-01-15 23:45:51.80	193.54	35.04	-47.0	-52.1	11.1	8.36e-04	0	43	0	934281216	64	6937
2026-01-15 23:45:52.52	193.56	34.88	-47.4	-53.1	10.1	4.34e-03	0	42	0	935329792	65	7293
2026-01-15 23:45:53.80	193.60	34.59	-47.8	-54.2	8.9	1.94e-02	0	43	0	937426944	66	7835
2026-01-15 23:45:54.61	193.62	34.41	-47.8	-54.4	8.7	2.82e-02	0	43	0	939524096	66	8008
2026-01-15 23:45:56.04	193.66	34.10	-47.8	-54.3	8.8	3.03e-02	0	42	0	941621248	66	7916
2026-01-15 23:45:56.75	193.68	33.94	-47.6	-53.9	9.2	2.98e-02	0	43	0	943718400	66	7579
2026-01-15 23:45:58.28	193.73	33.61	-47.3	-52.9	10.2	1.20e-02	0	43	0	945815552	66	6759
2026-01-15 23:45:58.99	193.75	33.45	-47.0	-52.3	10.8	3.28e-03	0	43	0	947912704	66	6319
2026-01-15 23:46:00.27	193.78	33.18	-46.9	-51.9	11.3	1.44e-03	0	43	0	950009856	65	6382
2026-01-15 23:46:00.98	193.80	33.03	-46.7	-51.5	11.7	1.02e-03	0	43	0	951058432	65	6087
2026-01-15 23:46:02.26	193.84	32.76	-46.5	-51.2	12.0	4.92e-04	0	43	0	954204160	65	5899
2026-01-15 23:46:02.99	193.86	32.61	-46.3	-50.7	12.5	1.79e-04	0	43	0	955252736	64	5877
2026-01-15 23:46:04.27	193.89	32.34	-46.3	-50.8	12.4	1.35e-04	0	43	0	957349888	64	5936
2026-01-15 23:46:04.98	193.91	32.19	-46.1	-50.4	12.8	1.34e-04	0	43	0	958398464	64	5663
2026-01-15 23:46:06.26	193.94	31.93	-46.0	-50.1	13.2	2.59e-05	0	43	0	961544192	63	5815
2026-01-15 23:46:06.97	193.96	31.78	-45.9	-49.9	13.4	1.75e-05	0	43	0	962592768	63	5705
2026-01-15 23:46:08.25	194.00	31.52	-46.1	-50.2	13.1	1.52e-05	0	43	0	964689920	63	5880
2026-01-15 23:46:09.08	194.02	31.36	-46.1	-50.3	13.0	2.51e-05	0	43	0	966787072	63	5939
2026-01-15 23:46:10.52	194.05	31.07	-46.3	-50.5	12.8	6.25e-05	0	43	0	968884224	63	6101
2026-01-15 23:46:11.23	194.07	30.93	-46.4	-50.8	12.5	1.01e-04	0	43	0	970981376	63	6326
2026-01-15 23:46:12.71	194.11	30.64	-46.6	-51.2	11.9	3.36e-04	0	43	0	973078528	64	6262
2026-01-15 23:46:13.43	194.12	30.50	-46.6	-51.3	11.9	3.62e-04	0	43	0	975175680	64	6295
2026-01-15 23:46:14.71	194.15	30.25	-46.6	-51.2	12.0	4.59e-04	0	43	0	977272832	64	6206
2026-01-15 23:46:15.42	194.17	30.11	-46.5	-51.0	12.1	2.82e-04	0	43	0	978321408	64	6126
2026-01-15 23:46:16.70	194.20	29.87	-46.5	-51.1	12.1	2.68e-04	0	43	0	980418560	64	6179
2026-01-15 23:46:17.41	194.22	29.73	-46.5	-51.0	12.1	2.53e-04	0	43	0	982515712	64	6129
2026-01-15 23:46:18.69	194.25	29.49	-46.4	-50.9	12.3	1.79e-04	0	43	0	984612864	64	6031
2026-01-15 23:46:19.40	194.26	29.36	-46.3	-50.7	12.4	1.61e-04	0	43	0	985661440	64	5908
2026-01-15 23:46:20.68	194.29	29.12	-46.1	-50.3	12.9	7.17e-05	0	43	0	987758592	64	5618
2026-01-15 23:46:21.41	194.31	28.98	-46.0	-50.0	13.2	3.35e-05	0	43	0	989855744	63	5781
2026-01-15 23:46:22.69	194.34	28.75	-45.7	-49.5	13.7	4.50e-06	0	43	0	991952896	63	5443
2026-01-15 23:46:23.40	194.35	28.62	-45.6	-49.4	13.9	2.20e-06	0	43	0	993001472	63	5369
2026-01-15 23:46:24.68	194.38	28.39	-45.3	-48.8	14.5	7.00e-07	0	43	0	996147200	62	5320
2026-01-15 23:46:25.59	194.40	28.22	-45.1	-48.6	14.7	7.00e-07	0	42	0	997195776	62	5183
2026-01-15 23:46:26.89	194.43	27.99	-44.8	-48.1	15.1	0.00e+00	0	43	0	1000341504	61	5207
2026-01-15 23:46:27.60	194.44	27.86	-44.6	-47.8	15.4	0.00e+00	0	43	0	1001390080	61	5038
2026-01-15 23:46:29.24	194.48	27.57	-44.4	-47.6	15.7	0.00e+00	0	43	0	1004535808	60	5167
2026-01-15 23:46:29.81	194.49	27.47	-44.4	-47.5	15.8	0.00e+00	0	43	0	1005584384	60	5129
2026-01-15 23:46:31.50	194.52	27.18	-44.1	-47.2	16.1	0.00e+00	0	43	0	1008730112	60	4933
2026-01-15 23:46:32.07	194.53	27.08	-43.9	-46.8	16.4	0.00e+00	0	42	0	1009778688	59	5018
2026-01-15 23:46:33.77	194.57	26.79	-43.9	-46.8	16.4	0.00e+00	0	42	0	1012924416	59	5022
2026-01-15 23:46:34.34	194.58	26.69	-43.9	-46.8	16.5	0.00e+00	0	43	0	1013972992	59	4986
2026-01-15 23:46:36.05	194.61	26.40	-44.0	-46.9	16.3	0.00e+00	0	43	0	1017118720	59	5087
2026-01-15 23:46:36.61	194.62	26.31	-44.0	-46.9	16.3	0.00e+00	0	43	0	1018167296	59	5092
2026-01-15 23:46:38.32	194.65	26.02	-44.0	-46.9	16.3	0.00e+00	0	43	0	1021313024	59	5069
2026-01-15 23:46:38.89	194.67	25.93	-44.0	-46.9	16.3	0.00e+00	0	43	0	1022361600	59	5054
2026-01-15 23:46:40.59	194.70	25.65	-43.9	-46.8	16.5	0.00e+00	0	42	0	1025507328	59	4990
2026-01-15 23:46:41.37	194.71	25.52	-43.9	-46.9	16.4	0.00e+00	0	43	0	1027604480	59	5044
2026-01-15 23:46:42.65	194.74	25.32	-44.0	-47.0	16.2	0.00e+00	0	43	0	1029701632	59	5110
2026-01-15 23:46:43.37	194.75	25.20	-44.0	-47.0	16.2	0.00e+00	0	43	0	1030750208	59	5112
2026-01-15 23:46:44.65	194.77	24.99	-43.9	-46.8	16.4	0.00e+00	0	43	0	1032847360	59	5039
2026-01-15 23:46:45.36	194.78	24.88	-43.9	-46.9	16.3	0.00e+00	0	43	0	1034944512	59	5077
2026-01-15 23:46:46.64	194.81	24.68	-43.9	-46.8	16.4	0.00e+00	0	43	0	1037041664	59	5033
2026-01-15 23:46:47.35	194.82	24.57	-43.8	-46.8	16.4	0.00e+00	0	43	0	1038090240	59	4996
2026-01-15 23:46:48.74	194.84	24.35	-43.7	-46.7	16.5	0.00e+00	0	43	0	1041235968	59	4942
2026-01-15 23:46:49.45	194.86	24.24	-43.6	-46.5	16.7	0.00e+00	0	43	0	1042284544	59	4843
2026-01-15 23:46:50.73	194.88	24.04	-43.5	-46.4	16.8	0.00e+00	0	42	0	1044381696	59	4768
2026-01-15 23:46:51.44	194.89	23.93	-43.5	-46.3	16.9	0.00e+00	0	43	0	1045430272	58	5011
2026-01-15 23:46:52.85	194.91	23.72	-43.3	-46.1	17.1	0.00e+00	0	43	0	1048576000	58	4891
2026-01-15 23:46:53.56	194.93	23.61	-43.3	-46.0	17.1	0.00e+00	0	43	0	1049624576	58	4839
2026-01-15 23:46:54.84	194.95	23.42	-43.1	-45.7	17.5	0.00e+00	0	43	0	1052770304	58	4682
2026-01-15 23:46:55.56	194.96	23.31	-43.0	-45.7	17.5	0.00e+00	0	43	0	1053818880	58	4663
2026-01-15 23:46:56.85	194.98	23.12	-43.0	-45.6	17.5	0.00e+00	0	43	0	1055916032	58	4645
2026-01-15 23:46:57.56	194.99	23.01	-42.9	-45.6	17.6	0.00e+00	0	43	0	1056964608	57	4874
2026-01-15 23:46:58.84	195.01	22.82	-42.8	-45.4	17.7	0.00e+00	0	43	0	1060110336	57	4812
2026-01-15 23:46:59.55	195.02	22.72	-42.9	-45.5	17.7	0.00e+00	0	42	0	1061158912	57	4819
2026-01-15 23:47:00.83	195.04	22.53	-42.8	-45.4	17.7	0.00e+00	0	43	0	1063256064	57	4810
2026-01-15 23:47:01.54	195.05	22.43	-42.9	-45.5	17.6	0.00e+00	0	43	0	1065353216	57	4848
2026-01-15 23:47:02.82	195.07	22.24	-42.9	-45.5	17.6	0.00e+00	0	42	0	1067450368	57	4861
2026-01-15 23:47:03.56	195.09	22.14	-42.9	-45.5	17.6	0.00e+00	0	43	0	1068498944	57	4866
2026-01-15 23:47:04.84	195.11	21.96	-42.9	-45.5	17.6	0.00e+00	0	42	0	1070596096	57	4868
2026-01-15 23:47:05.69	195.12	21.84	-43.0	-45.6	17.5	0.00e+00	0	43	0	1072693248	57	4916
2026-01-15 23:47:07.13	195.14	21.63	-43.0	-45.6	17.5	0.00e+00	0	43	0	1075838976	57	4909
2026-01-15 23:47:07.84	195.15	21.53	-43.1	-45.7	17.4	0.00e+00	0	42	0	1076887552	57	4970
2026-01-15 23:47:09.12	195.17	21.36	-43.1	-45.8	17.4	0.00e+00	0	43	0	1078984704	57	4993
2026-01-15 23:47:09.83	195.18	21.26	-43.1	-45.7	17.4	0.00e+00	0	43	0	1080033280	57	4964
2026-01-15 23:47:11.11	195.20	21.08	-43.1	-45.8	17.4	0.00e+00	0	43	0	1083179008	57	4995
2026-01-15 23:47:11.82	195.21	20.98	-43.1	-45.8	17.3	0.00e+00	0	43	0	1084227584	57	4999
2026-01-15 23:47:13.10	195.23	20.81	-43.2	-45.9	17.3	0.00e+00	0	42	0	1086324736	57	5052
2026-01-15 23:47:13.83	195.24	20.71	-43.1	-45.8	17.3	0.00e+00	0	43	0	1088421888	57	5005
2026-01-15 23:47:15.10	195.26	20.54	-43.2	-45.9	17.2	0.00e+00	0	43	0	1090519040	57	5096
2026-01-15 23:47:15.89	195.27	20.43	-43.3	-46.0	17.1	0.00e+00	0	42	0	1091567616	57	5144
2026-01-15 23:47:17.09	195.29	20.27	-43.3	-46.1	17.0	0.00e+00	0	43	0	1093664768	57	5163
2026-01-15 23:47:17.95	195.30	20.16	-43.3	-46.1	17.0	0.00e+00	0	43	0	1095761920	57	5212
2026-01-15 23:47:19.08	195.31	20.01	-43.3	-46.1	17.0	0.00e+00	0	42	0	1097859072	57	5170
2026-01-15 23:47:19.94	195.33	19.90	-43.3	-46.1	16.9	0.00e+00	0	43	0	1098907648	57	5218
2026-01-15 23:47:21.08	195.34	19.75	-43.4	-46.3	16.8	0.00e+00	0	43	0	1102053376	57	5287
2026-01-15 23:47:21.93	195.35	19.64	-43.4	-46.2	16.9	0.00e+00	0	43	0	1103101952	57	5262
2026-01-15 23:47:23.06	195.37	19.49	-43.5	-46.4	16.7	0.00e+00	0	43	0	1105199104	57	5390
2026-01-15 23:47:23.92	195.38	19.38	-43.5	-46.3	16.8	0.00e+00	0	43	0	1107296256	57	5338
2026-01-15 23:47:25.05	195.39	19.24	-43.4	-46.3	16.8	0.00e+00	0	43	0	1109393408	57	5287
2026-01-15 23:47:25.91	195.41	19.13	-43.5	-46.4	16.7	0.00e+00	0	42	0	1110441984	57	5348
2026-01-15 23:47:27.05	195.42	18.99	-43.4	-46.3	16.8	0.00e+00	0	43	0	1112539136	57	5310
2026-01-15 23:47:27.90	195.43	18.88	-43.3	-46.2	16.9	0.00e+00	0	42	0	1114636288	57	5237
2026-01-15 23:47:29.04	195.45	18.74	-43.4	-46.3	16.8	0.00e+00	0	43	0	1116733440	57	5284
2026-01-15 23:47:29.89	195.46	18.63	-43.4	-46.3	16.8	0.00e+00	0	43	0	1117782016	57	5297
2026-01-15 23:47:31.03	195.47	18.49	-43.4	-46.3	16.8	0.00e+00	0	43	0	1119879168	57	5306
2026-01-15 23:47:31.88	195.48	18.38	-43.3	-46.3	16.8	0.00e+00	0	43	0	1121976320	57	5282
2026-01-15 23:47:33.02	195.50	18.24	-43.3	-46.3	16.8	0.00e+00	0	43	0	1124073472	57	5296
2026-01-15 23:47:33.85	195.51	18.14	-43.3	-46.2	16.8	0.00e+00	0	42	0	1125122048	57	5279
2026-01-15 23:47:34.99	195.52	18.00	-43.4	-46.4	16.7	0.00e+00	0	42	0	1127219200	57	5366
2026-01-15 23:47:35.84	195.53	17.90	-43.4	-46.3	16.8	0.00e+00	0	43	0	1129316352	57	5314
2026-01-15 23:47:36.97	195.55	17.77	-43.4	-46.3	16.7	0.00e+00	0	43	0	1131413504	57	5331
2026-01-15 23:47:37.83	195.56	17.66	-43.4	-46.3	16.7	0.00e+00	0	42	0	1132462080	57	5340
2026-01-15 23:47:38.97	195.57	17.53	-43.4	-46.3	16.8	0.00e+00	0	42	0	1135607808	57	5321
2026-01-15 23:47:39.82	195.58	17.43	-43.4	-46.3	16.7	0.00e+00	0	43	0	1136656384	57	5320
2026-01-15 23:47:40.95	195.60	17.29	-43.5	-46.4	16.7	0.00e+00	0	43	0	1138753536	57	5373
2026-01-15 23:47:41.81	195.61	17.19	-43.5	-46.4	16.6	0.00e+00	0	43	0	1140850688	57	5391
2026-01-15 23:47:42.94	195.62	17.06	-43.5	-46.5	16.6	0.00e+00	0	43	0	1142947840	57	5428
2026-01-15 23:47:43.80	195.63	16.96	-43.6	-46.6	16.5	0.00e+00	0	43	0	1143996416	57	5470
2026-01-15 23:47:45.09	195.65	16.81	-43.6	-46.6	16.5	0.00e+00	0	43	0	1146093568	57	5480
2026-01-15 23:47:45.81	195.65	16.73	-43.7	-46.7	16.3	0.00e+00	0	42	0	1148190720	57	5563
2026-01-15 23:47:47.08	195.67	16.58	-43.7	-46.7	16.4	0.00e+00	0	42	0	1150287872	58	5241
2026-01-15 23:47:47.79	195.68	16.50	-43.6	-46.6	16.4	0.00e+00	0	43	0	1151336448	58	5196
2026-01-15 23:47:49.07	195.69	16.36	-43.8	-46.8	16.2	0.00e+00	0	42	0	1154482176	58	5320
2026-01-15 23:47:49.80	195.70	16.27	-43.8	-46.8	16.3	0.00e+00	0	43	0	1155530752	58	5307
2026-01-15 23:47:51.08	195.72	16.13	-43.8	-46.9	16.2	0.00e+00	0	42	0	1157627904	58	5361
2026-01-15 23:47:51.87	195.72	16.04	-43.8	-46.8	16.2	0.00e+00	0	42	0	1159725056	58	5317
2026-01-15 23:47:53.05	195.74	15.91	-43.7	-46.8	16.3	0.00e+00	0	42	0	1161822208	58	5281
2026-01-15 23:47:53.90	195.75	15.81	-43.8	-46.9	16.2	0.00e+00	0	43	0	1162870784	58	5344
2026-01-15 23:47:55.04	195.76	15.69	-43.7	-46.7	16.4	0.00e+00	0	43	0	1164967936	58	5241
2026-01-15 23:47:55.89	195.77	15.60	-43.7	-46.7	16.4	0.00e+00	0	43	0	1167065088	58	5252
2026-01-15 23:47:57.03	195.78	15.47	-43.7	-46.8	16.3	0.00e+00	0	43	0	1169162240	58	5294
2026-01-15 23:47:57.88	195.79	15.38	-43.7	-46.8	16.3	0.00e+00	0	42	0	1170210816	58	5280
2026-01-15 23:47:59.02	195.80	15.25	-43.7	-46.8	16.3	0.00e+00	0	43	0	1172307968	58	5281
2026-01-15 23:47:59.87	195.81	15.16	-43.7	-46.8	16.2	0.00e+00	0	42	0	1174405120	58	5304
2026-01-15 23:48:01.01	195.83	15.04	-43.7	-46.8	16.2	0.00e+00	0	43	0	1176502272	58	5314
2026-01-15 23:48:01.86	195.83	14.95	-43.7	-46.8	16.2	0.00e+00	0	43	0	1177550848	58	5321
2026-01-15 23:48:03.06	195.85	14.82	-43.8	-46.9	16.2	0.00e+00	0	43	0	1180696576	58	5361
2026-01-15 23:48:03.91	195.86	14.73	-43.7	-46.8	16.3	0.00e+00	0	42	0	1181745152	58	5290
2026-01-15 23:48:05.05	195.87	14.61	-43.8	-46.8	16.2	0.00e+00	0	43	0	1183842304	58	5337
2026-01-15 23:48:05.90	195.88	14.52	-43.8	-46.9	16.1	0.00e+00	0	43	0	1185939456	58	5357
2026-01-15 23:48:07.04	195.89	14.40	-43.8	-46.9	16.1	0.00e+00	0	42	0	1188036608	58	5385
2026-01-15 23:48:07.89	195.90	14.31	-43.8	-46.9	16.1	0.00e+00	0	42	0	1189085184	58	5363
2026-01-15 23:48:09.03	195.91	14.19	-43.8	-46.9	16.1	0.00e+00	0	43	0	1191182336	58	5382
2026-01-15 23:48:09.88	195.92	14.11	-43.9	-47.0	16.0	0.00e+00	0	43	0	1193279488	58	5431
2026-01-15 23:48:11.02	195.93	13.99	-43.9	-47.0	16.0	0.00e+00	0	43	0	1195376640	58	5453
2026-01-15 23:48:11.87	195.94	13.90	-43.9	-47.1	15.9	0.00e+00	0	42	0	1196425216	58	5502
2026-01-15 23:48:13.00	195.95	13.79	-43.9	-47.1	15.9	0.00e+00	0	43	0	1198522368	58	5508
2026-01-15 23:48:13.86	195.96	13.70	-44.0	-47.2	15.8	0.00e+00	0	43	0	1200619520	58	5557
2026-01-15 23:48:14.99	195.97	13.58	-44.1	-47.3	15.6	0.00e+00	0	43	0	1202716672	58	5635
2026-01-15 23:48:15.85	195.98	13.50	-44.1	-47.4	15.6	0.00e+00	0	42	0	1203765248	58	5670
2026-01-15 23:48:16.98	195.99	13.38	-44.1	-47.4	15.5	0.00e+00	0	42	0	1205862400	58	5697
2026-01-15 23:48:17.84	196.00	13.30	-44.2	-47.5	15.5	0.00e+00	0	43	0	1207959552	58	5770
2026-01-15 23:48:19.01	196.01	13.18	-44.2	-47.6	15.4	0.00e+00	0	42	0	1210056704	59	5476
2026-01-15 23:48:19.86	196.02	13.10	-44.2	-47.6	15.4	0.00e+00	0	43	0	1212153856	59	5469
2026-01-15 23:48:21.00	196.03	12.98	-44.3	-47.7	15.3	0.00e+00	0	42	0	1214251008	59	5537
2026-01-15 23:48:21.85	196.04	12.90	-44.3	-47.8	15.1	0.00e+00	0	42	0	1215299584	59	5629
2026-01-15 23:48:22.99	196.05	12.79	-44.4	-47.9	15.1	0.00e+00	0	43	0	1217396736	59	5673
2026-01-15 23:48:23.84	196.06	12.71	-44.4	-47.9	15.0	0.00e+00	0	42	0	1219493888	59	5720
2026-01-15 23:48:24.98	196.07	12.59	-44.5	-48.1	14.9	0.00e+00	0	42	0	1221591040	59	5802
2026-01-15 23:48:25.83	196.08	12.51	-44.5	-48.0	15.0	7.00e-07	0	42	0	1222639616	59	5726
2026-01-15 23:48:26.97	196.09	12.40	-44.6	-48.2	14.8	0.00e+00	0	43	0	1224736768	59	5862
2026-01-15 23:48:27.82	196.10	12.32	-44.6	-48.2	14.8	0.00e+00	0	43	0	1226833920	59	5866
2026-01-15 23:48:28.95	196.11	12.21	-44.6	-48.2	14.7	0.00e+00	0	43	0	1228931072	59	5887
2026-01-15 23:48:29.81	196.11	12.13	-44.7	-48.4	14.6	7.00e-07	0	43	0	1229979648	60	5706
2026-01-15 23:48:30.95	196.13	12.02	-44.6	-48.3	14.6	1.50e-06	0	43	0	1232076800	60	5623
2026-01-15 23:48:31.80	196.13	11.94	-44.7	-48.4	14.6	0.00e+00	0	43	0	1234173952	60	5669
2026-01-15 23:48:32.94	196.14	11.83	-44.8	-48.6	14.4	0.00e+00	0	43	0	1236271104	60	5812
2026-01-15 23:48:33.79	196.15	11.75	-44.7	-48.5	14.5	0.00e+00	0	43	0	1237319680	60	5747
2026-01-15 23:48:34.93	196.16	11.65	-44.8	-48.6	14.3	7.00e-07	0	43	0	1240465408	60	5844
2026-01-15 23:48:35.78	196.17	11.57	-44.7	-48.6	14.4	0.00e+00	0	43	0	1241513984	60	5794
2026-01-15 23:48:37.06	196.18	11.45	-44.7	-48.5	14.4	0.00e+00	0	43	0	1243611136	60	5782
