passes_logs/2026/01/15/T1/T1__20260115_215715_NOAA_20_JPSS-1_rec.log

#Pass ID: 20260115_215715_NOAA 20 (JPSS-1)
#Satellite: NOAA 20 (JPSS-1)
#Configuration: NOAA 20
#almurnet v.1.7.20251203
#Start time: 2026-01-15 21:57:15

#Version: 2.0.20230620
#Station: T1
#Location: 37.570604 lon 55.790049 lat
#TLE: 1 43013U 17073A   26015.47098083  .00000029  00000+0  34851-4 0  9997
#TLE: 2 43013  98.7636 316.4053 0001479  38.6686 321.4595 14.19536048422808

#Time	Az	El	Level	Level2	SNR	BER	BlckErr	Temp	State	Recorded	gain1	gain2
2026-01-15 21:57:15.12	32.59	4.99	-48.7	-64.0	3.8	1.49e+00	0	35	0	0	69	20519
2026-01-15 21:57:16.11	32.68	5.04	-48.7	-64.0	3.8	1.49e+00	0	36	104	0	69	20442
2026-01-15 21:57:17.10	32.78	5.09	-48.7	-64.1	3.8	1.49e+00	0	36	104	0	69	20549
2026-01-15 21:57:18.10	32.88	5.15	-48.7	-64.0	3.8	1.49e+00	0	36	104	0	69	20459
2026-01-15 21:57:19.09	32.98	5.20	-48.7	-64.0	3.8	1.49e+00	0	35	104	0	69	20491
2026-01-15 21:57:20.09	33.08	5.25	-48.7	-64.0	3.8	1.49e+00	0	36	104	0	69	20521
2026-01-15 21:57:21.08	33.18	5.31	-48.7	-64.0	3.8	1.49e+00	0	36	104	0	69	20441
2026-01-15 21:57:22.07	33.28	5.36	-48.7	-64.0	3.8	1.49e+00	0	36	104	0	69	20469
2026-01-15 21:57:23.06	33.38	5.41	-48.7	-64.0	3.8	1.49e+00	0	36	104	0	69	20440
2026-01-15 21:57:24.06	33.49	5.47	-48.7	-64.0	3.8	1.49e+00	0	36	104	0	69	20420
2026-01-15 21:57:25.05	33.59	5.52	-48.7	-64.0	3.8	1.49e+00	0	36	104	0	69	20336
2026-01-15 21:57:26.04	33.69	5.57	-48.7	-64.0	3.8	1.49e+00	0	36	104	0	69	20311
2026-01-15 21:57:27.04	33.79	5.63	-48.7	-64.0	3.8	1.49e+00	0	36	104	0	69	20400
2026-01-15 21:57:28.03	33.89	5.68	-48.7	-64.0	3.8	1.49e+00	0	36	104	0	69	20378
2026-01-15 21:57:29.02	34.00	5.73	-48.7	-64.0	3.8	1.49e+00	0	36	104	0	69	20416
2026-01-15 21:57:30.02	34.10	5.79	-48.7	-64.0	3.8	1.49e+00	0	36	104	0	69	20441
2026-01-15 21:57:31.01	34.20	5.84	-48.7	-64.0	3.8	1.49e+00	0	36	104	0	69	20388
2026-01-15 21:57:32.00	34.31	5.90	-48.7	-64.0	3.8	1.49e+00	0	36	104	0	69	20406
2026-01-15 21:57:32.99	34.41	5.95	-48.7	-64.0	3.8	1.49e+00	0	36	104	0	69	20435
2026-01-15 21:57:33.99	34.52	6.00	-48.7	-64.0	3.8	1.49e+00	0	36	104	0	69	20486
2026-01-15 21:57:34.98	34.62	6.06	-48.7	-64.0	3.8	1.49e+00	0	36	104	0	69	20387
2026-01-15 21:57:35.97	34.73	6.11	-48.7	-64.0	3.8	1.49e+00	0	37	104	0	69	20447
2026-01-15 21:57:36.97	34.83	6.17	-48.7	-64.0	3.8	1.49e+00	0	37	104	0	69	20428
2026-01-15 21:57:37.96	34.94	6.22	-48.7	-64.0	3.8	1.49e+00	0	37	104	0	69	20429
2026-01-15 21:57:38.95	35.05	6.27	-48.7	-64.0	3.8	1.49e+00	0	36	104	0	69	20378
2026-01-15 21:57:39.95	35.15	6.33	-48.7	-64.0	3.8	1.49e+00	0	37	104	0	69	20360
2026-01-15 21:57:40.94	35.26	6.38	-48.7	-64.0	3.8	1.49e+00	0	37	104	0	69	20371
2026-01-15 21:57:41.93	35.37	6.44	-48.7	-64.0	3.8	1.49e+00	0	37	104	0	69	20384
2026-01-15 21:57:42.93	35.48	6.49	-48.7	-64.0	3.8	1.49e+00	0	37	104	0	69	20376
2026-01-15 21:57:43.92	35.59	6.54	-48.7	-64.0	3.8	1.49e+00	0	37	104	0	69	20360
2026-01-15 21:57:44.91	35.70	6.60	-48.7	-64.0	3.8	1.49e+00	0	37	104	0	69	20323
2026-01-15 21:57:45.91	35.81	6.65	-48.7	-63.9	3.8	1.49e+00	0	37	104	0	69	20231
2026-01-15 21:57:46.90	35.91	6.71	-48.7	-63.9	3.8	1.49e+00	0	37	104	0	69	20161
2026-01-15 21:57:47.89	36.02	6.76	-48.7	-63.9	3.8	1.49e+00	0	37	104	0	69	20120
2026-01-15 21:57:48.89	36.14	6.82	-48.7	-63.8	3.8	1.49e+00	0	37	104	0	69	20040
2026-01-15 21:57:49.88	36.25	6.87	-48.7	-63.9	3.8	1.49e+00	0	37	104	0	69	20131
2026-01-15 21:57:50.87	36.36	6.92	-48.7	-63.9	3.8	1.49e+00	0	37	104	0	69	20148
2026-01-15 21:57:51.87	36.47	6.98	-48.7	-63.9	3.8	1.49e+00	0	37	104	0	69	20117
2026-01-15 21:57:52.86	36.58	7.03	-48.7	-63.9	3.8	1.49e+00	0	37	104	0	69	20168
2026-01-15 21:57:53.85	36.69	7.09	-48.7	-63.9	3.8	1.49e+00	0	37	104	0	69	20122
2026-01-15 21:57:54.85	36.81	7.14	-48.7	-63.9	3.8	1.49e+00	0	37	104	0	69	20104
2026-01-15 21:57:55.84	36.92	7.20	-48.7	-63.9	3.8	1.49e+00	0	37	104	0	69	20226
2026-01-15 21:57:56.83	37.03	7.25	-48.7	-63.9	3.8	1.49e+00	0	37	104	0	69	20243
2026-01-15 21:57:57.83	37.15	7.31	-48.7	-63.9	3.8	1.49e+00	0	37	104	0	69	20204
2026-01-15 21:57:58.82	37.26	7.36	-48.7	-64.0	3.8	1.49e+00	0	37	104	0	69	20348
2026-01-15 21:57:59.81	37.38	7.41	-48.7	-64.0	3.8	1.49e+00	0	37	104	0	69	20356
2026-01-15 21:58:00.81	37.50	7.47	-48.7	-64.0	3.8	1.49e+00	0	37	104	0	69	20343
2026-01-15 21:58:01.80	37.61	7.52	-48.7	-64.0	3.8	1.49e+00	0	37	104	0	69	20354
2026-01-15 21:58:02.79	37.73	7.58	-48.7	-64.0	3.8	1.49e+00	0	37	104	0	69	20307
2026-01-15 21:58:03.79	37.84	7.63	-48.7	-63.9	3.8	1.49e+00	0	37	104	0	69	20293
2026-01-15 21:58:04.78	37.96	7.69	-48.7	-64.0	3.8	1.49e+00	0	37	104	0	69	20344
2026-01-15 21:58:05.77	38.08	7.74	-48.7	-64.0	3.8	1.49e+00	0	37	104	0	69	20337
2026-01-15 21:58:06.77	38.20	7.80	-48.7	-63.9	3.8	1.49e+00	0	37	104	0	69	20298
2026-01-15 21:58:07.76	38.32	7.85	-48.7	-63.9	3.8	1.49e+00	0	37	104	0	69	20263
2026-01-15 21:58:08.75	38.43	7.91	-48.6	-63.9	3.8	1.49e+00	0	37	104	0	69	20113
2026-01-15 21:58:09.75	38.55	7.96	-48.7	-63.8	3.8	1.49e+00	0	37	104	0	69	20006
2026-01-15 21:58:10.74	38.67	8.02	-48.7	-63.8	3.8	1.49e+00	0	37	104	0	69	19980
2026-01-15 21:58:11.73	38.79	8.07	-48.6	-63.8	3.8	1.49e+00	0	37	104	0	69	19992
2026-01-15 21:58:12.73	38.91	8.13	-48.6	-63.8	3.8	1.49e+00	0	38	104	0	69	20039
2026-01-15 21:58:13.72	39.04	8.18	-48.7	-63.9	3.8	1.49e+00	0	37	104	0	69	20117
2026-01-15 21:58:14.71	39.16	8.24	-48.7	-63.9	3.8	1.49e+00	0	37	104	0	69	20150
2026-01-15 21:58:15.71	39.28	8.29	-48.7	-63.9	3.8	1.49e+00	0	37	104	0	69	20094
2026-01-15 21:58:16.70	39.40	8.35	-48.6	-63.9	3.8	1.49e+00	0	37	104	0	69	20113
2026-01-15 21:58:17.69	39.52	8.40	-48.6	-63.8	3.8	1.49e+00	0	37	104	0	69	20054
2026-01-15 21:58:18.69	39.65	8.46	-48.7	-63.8	3.8	1.49e+00	0	38	104	0	69	19922
2026-01-15 21:58:19.68	39.77	8.51	-48.6	-63.8	3.8	1.49e+00	0	37	104	0	69	19912
2026-01-15 21:58:20.67	39.89	8.57	-48.7	-63.8	3.8	1.49e+00	0	37	104	0	69	19941
2026-01-15 21:58:21.67	40.02	8.62	-48.7	-63.7	3.8	1.49e+00	0	38	104	0	69	19838
2026-01-15 21:58:22.66	40.14	8.68	-48.6	-63.7	3.8	1.49e+00	0	37	104	0	69	19723
2026-01-15 21:58:23.65	40.27	8.73	-48.6	-63.6	3.8	1.49e+00	0	38	104	0	69	19431
2026-01-15 21:58:24.65	40.40	8.79	-48.6	-63.3	3.8	1.49e+00	0	38	104	0	69	18856
2026-01-15 21:58:25.64	40.52	8.84	-48.6	-63.0	3.8	1.49e+00	0	38	104	0	69	18246
2026-01-15 21:58:26.63	40.65	8.90	-48.6	-62.9	3.8	1.49e+00	0	38	104	0	69	17968
2026-01-15 21:58:27.63	40.78	8.95	-48.6	-62.8	3.8	1.49e+00	0	38	104	0	69	17881
2026-01-15 21:58:28.62	40.90	9.01	-48.6	-62.9	3.8	1.49e+00	0	38	104	0	69	17930
2026-01-15 21:58:29.62	41.03	9.06	-48.6	-61.8	3.8	1.49e+00	0	38	104	0	69	15856
2026-01-15 21:58:30.61	41.16	9.12	-48.6	-62.8	3.8	1.48e+00	0	38	104	0	69	17694
2026-01-15 21:58:31.61	41.29	9.17	-48.5	-61.5	3.9	1.49e+00	0	38	104	0	69	15361
2026-01-15 21:58:32.60	41.42	9.23	-47.8	-56.3	6.5	5.24e-02	0	38	0	1048576	66	9984
2026-01-15 21:58:33.59	41.55	9.28	-47.1	-53.4	9.0	5.75e-01	0	38	0	2097152	66	7174
2026-01-15 21:58:34.59	41.68	9.34	-46.2	-51.2	11.5	1.61e-03	0	38	0	4194304	64	6217
2026-01-15 21:58:35.58	41.81	9.39	-46.1	-50.9	11.7	7.37e-04	0	38	0	6291456	64	6049
2026-01-15 21:58:36.57	41.94	9.45	-46.0	-50.7	12.0	3.54e-04	0	38	0	8388608	63	6241
2026-01-15 21:58:37.57	42.08	9.50	-45.8	-50.3	12.5	2.36e-04	0	38	0	9437184	63	5938
2026-01-15 21:58:38.57	42.21	9.56	-45.5	-49.7	13.1	6.25e-05	0	38	0	11534336	63	5568
2026-01-15 21:58:39.56	42.34	9.61	-45.2	-49.1	13.7	4.50e-06	0	38	0	13631488	62	5499
2026-01-15 21:58:40.55	42.48	9.67	-45.0	-48.8	14.1	0.00e+00	0	38	0	15728640	61	5598
2026-01-15 21:58:41.55	42.61	9.72	-44.7	-48.2	14.7	0.00e+00	0	38	0	17825792	61	5259
2026-01-15 21:58:42.54	42.75	9.78	-44.6	-48.0	14.9	0.00e+00	0	38	0	18874368	61	5138
2026-01-15 21:58:43.54	42.88	9.83	-44.5	-47.9	15.0	0.00e+00	0	38	0	20971520	61	5078
2026-01-15 21:58:44.53	43.02	9.89	-44.4	-47.9	15.0	0.00e+00	0	38	0	23068672	60	5345
2026-01-15 21:58:45.54	43.16	9.94	-44.3	-47.8	15.1	0.00e+00	0	38	0	25165824	60	5292
2026-01-15 21:58:46.55	43.29	10.00	-44.4	-47.8	15.1	0.00e+00	0	38	0	26214400	60	5320
2026-01-15 21:58:47.55	43.43	10.05	-44.5	-47.9	15.0	0.00e+00	0	38	0	28311552	60	5387
2026-01-15 21:58:48.54	43.57	10.11	-44.5	-47.9	15.0	0.00e+00	0	38	0	30408704	60	5395
2026-01-15 21:58:49.54	43.71	10.16	-44.4	-47.8	15.1	0.00e+00	0	38	0	32505856	60	5298
2026-01-15 21:58:50.53	43.85	10.22	-44.3	-47.6	15.4	0.00e+00	0	38	0	34603008	60	5179
2026-01-15 21:58:51.53	43.99	10.27	-44.2	-47.5	15.5	0.00e+00	0	38	0	35651584	60	5112
2026-01-15 21:58:52.52	44.12	10.33	-44.1	-47.3	15.7	0.00e+00	0	38	0	37748736	60	4997
2026-01-15 21:58:53.52	44.27	10.38	-44.0	-47.2	15.7	0.00e+00	0	38	0	39845888	60	4973
2026-01-15 21:58:54.51	44.41	10.44	-44.0	-47.2	15.7	0.00e+00	0	38	0	41943040	60	4955
2026-01-15 21:58:55.51	44.55	10.49	-44.0	-47.2	15.8	0.00e+00	0	38	0	44040192	60	4927
2026-01-15 21:58:56.50	44.69	10.54	-44.0	-47.1	15.8	0.00e+00	0	38	0	45088768	59	5177
2026-01-15 21:58:57.50	44.83	10.60	-44.0	-47.1	15.8	0.00e+00	0	38	0	47185920	59	5188
2026-01-15 21:58:58.49	44.97	10.65	-44.0	-47.2	15.8	0.00e+00	0	38	0	49283072	59	5220
2026-01-15 21:58:59.49	45.12	10.71	-43.9	-47.0	15.9	0.00e+00	0	38	0	51380224	59	5151
2026-01-15 21:59:00.48	45.26	10.76	-43.8	-46.9	16.0	0.00e+00	0	38	0	52428800	59	5043
2026-01-15 21:59:01.48	45.41	10.82	-43.7	-46.8	16.1	0.00e+00	0	38	0	54525952	59	4997
2026-01-15 21:59:02.47	45.55	10.87	-43.7	-46.8	16.2	0.00e+00	0	38	0	56623104	59	4994
2026-01-15 21:59:03.47	45.70	10.93	-43.8	-46.9	16.0	0.00e+00	0	38	0	58720256	59	5071
2026-01-15 21:59:04.46	45.84	10.98	-43.8	-46.8	16.1	0.00e+00	0	38	0	60817408	59	5012
2026-01-15 21:59:05.46	45.99	11.04	-43.7	-46.7	16.3	0.00e+00	0	38	0	61865984	59	4929
2026-01-15 21:59:06.45	46.14	11.09	-43.6	-46.5	16.4	0.00e+00	0	38	0	63963136	59	4861
2026-01-15 21:59:07.44	46.28	11.14	-43.7	-46.6	16.3	0.00e+00	0	38	0	66060288	59	4903
2026-01-15 21:59:08.44	46.43	11.20	-43.7	-46.7	16.2	0.00e+00	0	38	0	68157440	59	4968
2026-01-15 21:59:09.44	46.58	11.25	-43.7	-46.6	16.3	0.00e+00	0	38	0	69206016	59	4909
2026-01-15 21:59:10.43	46.73	11.31	-43.6	-46.5	16.4	0.00e+00	0	38	0	71303168	59	4856
2026-01-15 21:59:11.42	46.88	11.36	-43.6	-46.5	16.5	0.00e+00	0	38	0	73400320	59	4849
2026-01-15 21:59:12.42	47.03	11.41	-43.6	-46.6	16.4	0.00e+00	0	38	0	75497472	59	4885
2026-01-15 21:59:13.41	47.18	11.47	-43.6	-46.6	16.3	0.00e+00	0	38	0	77594624	59	4890
2026-01-15 21:59:14.41	47.33	11.52	-43.7	-46.7	16.2	0.00e+00	0	38	0	78643200	59	4956
2026-01-15 21:59:15.40	47.48	11.58	-43.7	-46.7	16.3	0.00e+00	0	38	0	80740352	59	4952
2026-01-15 21:59:16.40	47.63	11.63	-43.7	-46.7	16.3	0.00e+00	0	38	0	82837504	59	4952
2026-01-15 21:59:17.39	47.79	11.68	-43.7	-46.7	16.3	0.00e+00	0	38	0	84934656	59	4941
2026-01-15 21:59:18.39	47.94	11.74	-43.7	-46.7	16.3	0.00e+00	0	38	0	85983232	59	4938
2026-01-15 21:59:19.44	48.10	11.79	-43.6	-46.5	16.4	0.00e+00	0	38	0	88080384	59	4866
2026-01-15 21:59:20.34	48.24	11.84	-43.6	-46.5	16.4	0.00e+00	0	38	0	90177536	59	4859
2026-01-15 21:59:21.59	48.44	11.91	-43.6	-46.5	16.5	0.00e+00	0	38	0	92274688	59	4852
2026-01-15 21:59:22.44	48.57	11.96	-43.7	-46.6	16.4	0.00e+00	0	38	0	94371840	59	4910
2026-01-15 21:59:23.71	48.77	12.02	-43.6	-46.5	16.5	0.00e+00	0	38	0	96468992	59	4838
2026-01-15 21:59:24.47	48.89	12.06	-43.6	-46.5	16.5	0.00e+00	0	38	0	97517568	59	4824
2026-01-15 21:59:25.75	49.09	12.13	-43.6	-46.5	16.5	0.00e+00	0	38	0	100663296	59	4833
2026-01-15 21:59:26.46	49.21	12.17	-43.6	-46.5	16.5	0.00e+00	0	38	0	101711872	59	4858
2026-01-15 21:59:27.74	49.41	12.24	-43.7	-46.6	16.4	0.00e+00	0	38	0	103809024	59	4908
2026-01-15 21:59:28.46	49.52	12.28	-43.7	-46.6	16.3	0.00e+00	0	38	0	105906176	59	4920
2026-01-15 21:59:29.74	49.73	12.34	-43.7	-46.7	16.3	0.00e+00	0	38	0	108003328	59	4929
2026-01-15 21:59:30.49	49.85	12.38	-43.7	-46.6	16.3	0.00e+00	0	38	0	109051904	59	4926
2026-01-15 21:59:31.77	50.06	12.45	-43.7	-46.6	16.4	0.00e+00	0	38	0	111149056	59	4893
2026-01-15 21:59:32.56	50.19	12.49	-43.6	-46.5	16.5	0.00e+00	0	38	0	113246208	59	4856
2026-01-15 21:59:33.75	50.38	12.56	-43.6	-46.5	16.5	0.00e+00	0	38	0	115343360	59	4864
2026-01-15 21:59:34.73	50.54	12.61	-43.6	-46.5	16.4	0.00e+00	0	38	0	117440512	59	4865
2026-01-15 21:59:35.73	50.70	12.66	-43.6	-46.5	16.3	0.00e+00	0	38	0	118489088	59	4860
2026-01-15 21:59:36.72	50.87	12.71	-43.6	-46.6	16.4	0.00e+00	0	38	0	120586240	59	4896
2026-01-15 21:59:37.72	51.03	12.76	-43.6	-46.5	16.5	0.00e+00	0	38	0	122683392	59	4836
2026-01-15 21:59:38.71	51.19	12.82	-43.6	-46.5	16.5	0.00e+00	0	38	0	124780544	59	4842
2026-01-15 21:59:39.71	51.36	12.87	-43.6	-46.6	16.4	0.00e+00	0	38	0	126877696	59	4881
2026-01-15 21:59:40.70	51.53	12.92	-43.7	-46.6	16.3	0.00e+00	0	38	0	127926272	59	4921
2026-01-15 21:59:41.70	51.69	12.97	-43.8	-46.8	16.2	0.00e+00	0	38	0	130023424	59	4997
2026-01-15 21:59:42.69	51.86	13.02	-43.8	-46.9	16.1	0.00e+00	0	38	0	132120576	59	5043
2026-01-15 21:59:43.69	52.03	13.08	-43.8	-46.8	16.2	0.00e+00	0	38	0	134217728	59	5004
2026-01-15 21:59:44.68	52.20	13.13	-43.8	-46.8	16.2	0.00e+00	0	38	0	135266304	59	5033
2026-01-15 21:59:45.74	52.38	13.18	-43.8	-46.8	16.2	0.00e+00	0	38	0	137363456	59	4999
2026-01-15 21:59:46.64	52.53	13.23	-43.8	-46.8	16.2	0.00e+00	0	38	0	139460608	59	4996
2026-01-15 21:59:47.65	52.70	13.28	-43.8	-46.9	16.1	0.00e+00	0	38	0	141557760	59	5065
2026-01-15 21:59:48.82	52.90	13.34	-43.8	-46.8	16.2	0.00e+00	0	38	0	143654912	59	5040
2026-01-15 21:59:49.69	53.05	13.38	-43.8	-46.9	16.1	0.00e+00	0	38	0	144703488	59	5051
2026-01-15 21:59:50.99	53.28	13.45	-43.9	-47.0	16.0	0.00e+00	0	38	0	147849216	59	5125
2026-01-15 21:59:51.70	53.40	13.49	-44.0	-47.0	15.9	0.00e+00	0	38	0	148897792	59	5154
2026-01-15 21:59:53.17	53.65	13.56	-44.1	-47.2	15.9	0.00e+00	0	38	0	152043520	59	5226
2026-01-15 21:59:53.88	53.78	13.60	-44.1	-47.2	15.8	0.00e+00	0	38	0	153092096	59	5243
2026-01-15 21:59:55.16	54.00	13.66	-44.2	-47.3	15.7	0.00e+00	0	38	0	155189248	59	5326
2026-01-15 21:59:55.87	54.13	13.70	-44.3	-47.4	15.6	0.00e+00	0	38	0	157286400	59	5396
2026-01-15 21:59:57.23	54.37	13.76	-44.3	-47.5	15.6	0.00e+00	0	38	0	159383552	59	5409
2026-01-15 21:59:57.93	54.49	13.80	-44.3	-47.5	15.5	0.00e+00	0	38	0	160432128	59	5456
2026-01-15 21:59:59.21	54.72	13.86	-44.4	-47.6	15.4	0.00e+00	0	38	0	162529280	59	5514
2026-01-15 22:00:00.26	54.90	13.91	-44.4	-47.7	15.3	0.00e+00	0	38	0	164626432	59	5565
2026-01-15 22:00:01.53	55.13	13.98	-44.5	-47.8	15.3	0.00e+00	0	38	0	167772160	59	5613
2026-01-15 22:00:02.24	55.26	14.01	-44.5	-47.8	15.3	0.00e+00	0	38	0	168820736	59	5599
2026-01-15 22:00:03.52	55.49	14.07	-44.5	-47.8	15.2	0.00e+00	0	38	0	170917888	59	5644
2026-01-15 22:00:04.25	55.62	14.11	-44.6	-47.9	15.1	0.00e+00	0	38	0	171966464	59	5703
2026-01-15 22:00:05.53	55.85	14.17	-44.7	-48.0	15.0	7.00e-07	0	38	0	175112192	59	5756
2026-01-15 22:00:06.24	55.98	14.21	-44.7	-48.1	15.0	0.00e+00	0	38	0	176160768	60	5504
2026-01-15 22:00:07.52	56.21	14.27	-44.8	-48.2	14.8	0.00e+00	0	38	0	178257920	60	5590
2026-01-15 22:00:08.23	56.34	14.30	-44.8	-48.2	14.9	0.00e+00	0	38	0	180355072	60	5577
2026-01-15 22:00:09.50	56.58	14.36	-44.8	-48.3	14.8	0.00e+00	0	38	0	182452224	60	5595
2026-01-15 22:00:10.23	56.71	14.40	-44.9	-48.3	14.8	7.00e-07	0	38	0	183500800	60	5635
2026-01-15 22:00:11.51	56.95	14.46	-44.9	-48.3	14.8	0.00e+00	0	38	0	185597952	60	5622
2026-01-15 22:00:12.22	57.08	14.49	-44.9	-48.3	14.8	0.00e+00	0	38	0	187695104	60	5652
2026-01-15 22:00:13.64	57.34	14.56	-45.0	-48.5	14.6	7.00e-07	0	38	0	189792256	60	5762
2026-01-15 22:00:14.35	57.47	14.59	-45.0	-48.6	14.6	0.00e+00	0	38	0	190840832	60	5805
2026-01-15 22:00:15.71	57.73	14.66	-45.0	-48.6	14.5	7.00e-07	0	38	0	193986560	60	5796
2026-01-15 22:00:16.42	57.86	14.69	-45.1	-48.6	14.5	0.00e+00	0	38	0	195035136	60	5847
2026-01-15 22:00:17.77	58.12	14.75	-45.1	-48.6	14.4	0.00e+00	0	38	0	198180864	60	5835
2026-01-15 22:00:18.48	58.25	14.79	-45.0	-48.6	14.5	7.00e-07	0	38	0	199229440	60	5832
2026-01-15 22:00:19.81	58.50	14.85	-45.1	-48.7	14.5	0.00e+00	0	38	0	201326592	60	5866
2026-01-15 22:00:20.52	58.64	14.88	-45.1	-48.7	14.4	7.00e-07	0	38	0	203423744	60	5913
2026-01-15 22:00:21.80	58.88	14.94	-45.2	-48.9	14.2	2.20e-06	0	38	0	205520896	60	5997
2026-01-15 22:00:22.54	59.02	14.97	-45.2	-48.9	14.3	1.50e-06	0	38	0	206569472	61	5674
2026-01-15 22:00:23.82	59.27	15.03	-45.3	-49.0	14.1	1.50e-06	0	38	0	208666624	61	5747
2026-01-15 22:00:24.55	59.41	15.06	-45.3	-49.1	14.1	1.50e-06	0	38	0	210763776	61	5804
2026-01-15 22:00:25.82	59.65	15.12	-45.3	-48.9	14.1	7.00e-07	0	38	0	212860928	61	5719
2026-01-15 22:00:26.54	59.79	15.15	-45.2	-48.9	14.2	1.50e-06	0	38	0	213909504	61	5677
2026-01-15 22:00:27.82	60.04	15.21	-45.3	-49.0	14.1	1.50e-06	0	38	0	217055232	61	5780
2026-01-15 22:00:28.53	60.18	15.24	-45.3	-49.1	14.1	3.00e-06	0	38	0	218103808	61	5789
2026-01-15 22:00:29.81	60.43	15.30	-45.3	-49.1	14.0	2.20e-06	0	38	0	220200960	61	5804
2026-01-15 22:00:30.58	60.58	15.33	-45.2	-49.0	14.2	1.50e-06	0	38	0	222298112	61	5732
2026-01-15 22:00:32.16	60.89	15.40	-45.2	-48.9	14.2	1.50e-06	0	38	0	224395264	61	5719
2026-01-15 22:00:32.77	61.01	15.43	-45.2	-48.9	14.2	7.00e-07	0	38	0	225443840	61	5683
2026-01-15 22:00:34.33	61.32	15.49	-45.2	-48.9	14.2	7.00e-07	0	38	0	228589568	61	5702
2026-01-15 22:00:35.04	61.46	15.52	-45.2	-48.9	14.3	0.00e+00	0	38	0	230686720	61	5658
2026-01-15 22:00:36.33	61.71	15.58	-45.1	-48.7	14.4	7.00e-07	0	38	0	232783872	61	5548
2026-01-15 22:00:37.04	61.85	15.61	-45.1	-48.6	14.5	1.50e-06	0	38	0	233832448	61	5500
2026-01-15 22:00:38.32	62.11	15.66	-45.0	-48.6	14.6	0.00e+00	0	38	0	235929600	61	5473
2026-01-15 22:00:39.04	62.25	15.69	-44.9	-48.3	14.8	7.00e-07	0	38	0	238026752	61	5335
2026-01-15 22:00:40.32	62.51	15.75	-44.9	-48.3	14.8	0.00e+00	0	38	0	240123904	61	5321
2026-01-15 22:00:41.05	62.66	15.78	-44.9	-48.3	14.8	0.00e+00	0	38	0	241172480	61	5305
2026-01-15 22:00:42.33	62.92	15.83	-44.7	-48.0	15.1	0.00e+00	0	38	0	244318208	61	5157
2026-01-15 22:00:43.06	63.06	15.86	-44.6	-47.9	15.3	7.00e-07	0	38	0	245366784	61	5050
2026-01-15 22:00:44.55	63.37	15.92	-44.5	-47.7	15.5	0.00e+00	0	38	0	247463936	60	5233
2026-01-15 22:00:45.26	63.51	15.95	-44.5	-47.7	15.4	0.00e+00	0	38	0	249561088	60	5254
2026-01-15 22:00:46.56	63.78	16.00	-44.3	-47.5	15.7	0.00e+00	0	38	0	251658240	60	5127
2026-01-15 22:00:47.27	63.92	16.03	-44.3	-47.4	15.7	0.00e+00	0	38	0	252706816	60	5069
2026-01-15 22:00:48.55	64.18	16.08	-44.2	-47.3	15.8	7.00e-07	0	38	0	255852544	60	5013
2026-01-15 22:00:49.29	64.34	16.11	-44.2	-47.3	15.8	0.00e+00	0	38	0	256901120	60	5041
2026-01-15 22:00:50.74	64.64	16.16	-44.1	-47.2	16.0	0.00e+00	0	38	0	260046848	60	4952
2026-01-15 22:00:51.45	64.78	16.19	-44.1	-47.2	15.9	0.00e+00	0	38	0	261095424	60	4980
2026-01-15 22:00:52.73	65.05	16.24	-44.0	-47.0	16.2	0.00e+00	0	38	0	263192576	59	5108
2026-01-15 22:00:53.44	65.20	16.26	-43.8	-46.7	16.4	0.00e+00	0	38	0	264241152	59	4968
2026-01-15 22:00:54.72	65.46	16.31	-43.8	-46.6	16.5	0.00e+00	0	38	0	267386880	59	4922
2026-01-15 22:00:55.44	65.61	16.34	-43.6	-46.5	16.6	0.00e+00	0	38	0	268435456	59	4841
2026-01-15 22:00:56.72	65.88	16.39	-43.5	-46.3	16.7	0.00e+00	0	38	0	270532608	59	4757
2026-01-15 22:00:57.45	66.04	16.41	-43.7	-46.5	16.6	0.00e+00	0	38	0	272629760	59	4838
2026-01-15 22:00:58.73	66.30	16.46	-43.6	-46.5	16.6	0.00e+00	0	38	0	274726912	59	4835
2026-01-15 22:00:59.44	66.45	16.48	-43.7	-46.5	16.6	0.00e+00	0	38	0	275775488	59	4855
2026-01-15 22:01:00.73	66.73	16.53	-43.7	-46.6	16.6	0.00e+00	0	38	0	277872640	59	4881
2026-01-15 22:01:01.44	66.88	16.55	-43.8	-46.7	16.4	0.00e+00	0	38	0	279969792	59	4958
2026-01-15 22:01:02.72	67.15	16.60	-43.8	-46.7	16.4	0.00e+00	0	38	0	282066944	59	4962
2026-01-15 22:01:03.59	67.34	16.63	-43.8	-46.8	16.4	0.00e+00	0	38	0	284164096	59	5002
2026-01-15 22:01:05.02	67.64	16.68	-43.9	-46.8	16.3	0.00e+00	0	38	0	286261248	59	5016
2026-01-15 22:01:05.74	67.79	16.70	-43.9	-46.8	16.3	0.00e+00	0	38	0	287309824	59	5026
2026-01-15 22:01:07.24	68.12	16.75	-44.0	-47.0	16.2	0.00e+00	0	38	0	290455552	59	5121
2026-01-15 22:01:07.95	68.27	16.78	-44.0	-47.0	16.1	0.00e+00	0	38	0	291504128	59	5137
2026-01-15 22:01:09.23	68.55	16.82	-44.1	-47.1	16.0	0.00e+00	0	38	0	294649856	59	5184
2026-01-15 22:01:10.30	68.78	16.85	-44.1	-47.1	16.0	0.00e+00	0	38	0	296747008	59	5179
2026-01-15 22:01:11.16	68.96	16.88	-44.1	-47.1	16.0	0.00e+00	0	38	0	297795584	59	5183
2026-01-15 22:01:12.30	69.21	16.92	-44.1	-47.1	16.0	0.00e+00	0	38	0	299892736	59	5192
2026-01-15 22:01:13.15	69.39	16.94	-44.1	-47.1	16.1	0.00e+00	0	38	0	301989888	59	5175
2026-01-15 22:01:14.30	69.65	16.98	-44.2	-47.2	16.0	0.00e+00	0	38	0	304087040	59	5222
2026-01-15 22:01:15.16	69.83	17.01	-44.1	-47.2	16.0	0.00e+00	0	38	0	305135616	59	5222
2026-01-15 22:01:16.29	70.08	17.04	-44.1	-47.0	16.1	0.00e+00	0	38	0	307232768	59	5153
2026-01-15 22:01:17.14	70.27	17.06	-44.2	-47.2	15.9	0.00e+00	0	38	0	309329920	59	5249
2026-01-15 22:01:18.28	70.52	17.10	-44.2	-47.3	15.8	0.00e+00	0	38	0	311427072	59	5298
2026-01-15 22:01:19.13	70.70	17.12	-44.2	-47.2	15.9	0.00e+00	0	38	0	312475648	59	5276
2026-01-15 22:01:20.48	71.00	17.16	-44.2	-47.2	15.9	0.00e+00	0	38	0	315621376	59	5254
2026-01-15 22:01:21.19	71.16	17.18	-44.3	-47.3	15.8	0.00e+00	0	38	0	316669952	59	5327
2026-01-15 22:01:22.47	71.44	17.22	-44.2	-47.3	15.8	0.00e+00	0	38	0	318767104	59	5313
2026-01-15 22:01:23.19	71.60	17.24	-44.2	-47.3	15.8	0.00e+00	0	38	0	320864256	59	5305
2026-01-15 22:01:24.47	71.89	17.27	-44.2	-47.3	15.8	0.00e+00	0	38	0	322961408	59	5326
2026-01-15 22:01:25.19	72.05	17.29	-44.3	-47.4	15.8	0.00e+00	0	38	0	324009984	59	5345
2026-01-15 22:01:26.46	72.33	17.33	-44.2	-47.3	15.8	0.00e+00	0	38	0	327155712	59	5325
2026-01-15 22:01:27.19	72.49	17.34	-44.3	-47.4	15.7	0.00e+00	0	38	0	328204288	59	5365
2026-01-15 22:01:28.47	72.78	17.38	-44.3	-47.3	15.8	0.00e+00	0	38	0	330301440	59	5340
2026-01-15 22:01:29.18	72.94	17.40	-44.3	-47.3	15.8	0.00e+00	0	38	0	331350016	59	5338
2026-01-15 22:01:30.46	73.22	17.43	-44.3	-47.4	15.7	0.00e+00	0	38	0	334495744	59	5372
2026-01-15 22:01:31.18	73.39	17.45	-44.3	-47.4	15.7	0.00e+00	0	38	0	335544320	59	5362
2026-01-15 22:01:32.46	73.67	17.48	-44.2	-47.3	15.9	0.00e+00	0	38	0	337641472	59	5283
2026-01-15 22:01:33.19	73.84	17.49	-44.2	-47.2	15.9	0.00e+00	0	38	0	338690048	59	5274
2026-01-15 22:01:34.47	74.13	17.52	-44.1	-47.2	16.0	0.00e+00	0	38	0	341835776	59	5238
2026-01-15 22:01:35.21	74.30	17.54	-44.1	-47.2	16.0	0.00e+00	0	38	0	342884352	59	5219
2026-01-15 22:01:36.49	74.59	17.57	-44.2	-47.3	15.9	0.00e+00	0	38	0	344981504	59	5288
2026-01-15 22:01:37.21	74.75	17.58	-44.3	-47.3	15.8	0.00e+00	0	39	0	347078656	59	5329
2026-01-15 22:01:38.49	75.04	17.61	-44.3	-47.4	15.8	0.00e+00	0	38	0	349175808	59	5346
2026-01-15 22:01:39.20	75.20	17.63	-44.3	-47.4	15.8	0.00e+00	0	38	0	350224384	59	5352
2026-01-15 22:01:40.48	75.49	17.65	-44.4	-47.5	15.7	0.00e+00	0	38	0	353370112	59	5433
2026-01-15 22:01:41.19	75.65	17.67	-44.3	-47.4	15.8	0.00e+00	0	38	0	354418688	59	5370
2026-01-15 22:01:42.47	75.95	17.69	-44.2	-47.2	15.9	0.00e+00	0	38	0	356515840	59	5252
2026-01-15 22:01:43.18	76.11	17.71	-44.1	-47.1	16.0	0.00e+00	0	38	0	357564416	59	5194
2026-01-15 22:01:44.46	76.40	17.73	-44.0	-47.0	16.2	0.00e+00	0	38	0	360710144	59	5120
2026-01-15 22:01:45.23	76.58	17.75	-44.0	-47.0	16.1	0.00e+00	0	38	0	361758720	59	5117
2026-01-15 22:01:46.51	76.87	17.77	-44.0	-47.0	16.1	0.00e+00	0	38	0	363855872	59	5154
2026-01-15 22:01:47.22	77.04	17.78	-44.0	-47.0	16.2	0.00e+00	0	38	0	365953024	59	5126
2026-01-15 22:01:48.50	77.33	17.81	-44.1	-47.1	16.0	0.00e+00	0	38	0	368050176	59	5212
2026-01-15 22:01:49.25	77.50	17.82	-44.1	-47.2	15.8	0.00e+00	0	38	0	369098752	59	5221
2026-01-15 22:01:50.53	77.80	17.84	-44.2	-47.3	15.8	0.00e+00	0	38	0	372244480	59	5306
2026-01-15 22:01:51.25	77.97	17.85	-44.3	-47.4	15.7	0.00e+00	0	38	0	373293056	59	5358
2026-01-15 22:01:52.53	78.26	17.87	-44.4	-47.6	15.5	0.00e+00	0	38	0	375390208	59	5508
2026-01-15 22:01:53.24	78.43	17.88	-44.5	-47.8	15.4	0.00e+00	0	38	0	376438784	59	5602
2026-01-15 22:01:54.52	78.72	17.90	-44.7	-48.0	15.2	0.00e+00	0	38	0	379584512	59	5752
2026-01-15 22:01:55.26	78.89	17.91	-44.6	-48.0	15.2	0.00e+00	0	38	0	380633088	60	5404
2026-01-15 22:01:56.54	79.19	17.93	-44.6	-47.9	15.3	0.00e+00	0	38	0	382730240	60	5352
2026-01-15 22:01:57.25	79.36	17.94	-44.5	-47.8	15.4	0.00e+00	0	38	0	383778816	60	5309
2026-01-15 22:01:58.64	79.68	17.96	-44.6	-47.9	15.4	0.00e+00	0	38	0	386924544	60	5345
2026-01-15 22:01:59.35	79.84	17.97	-44.5	-47.7	15.4	0.00e+00	0	38	0	387973120	60	5279
2026-01-15 22:02:00.63	80.14	17.98	-44.3	-47.5	15.7	0.00e+00	0	38	0	391118848	60	5134
2026-01-15 22:02:01.36	80.31	17.99	-44.3	-47.4	15.8	0.00e+00	0	38	0	392167424	60	5079
2026-01-15 22:02:02.74	80.63	18.01	-44.1	-47.3	15.9	0.00e+00	0	38	0	394264576	60	5005
2026-01-15 22:02:03.45	80.80	18.01	-44.2	-47.4	15.8	0.00e+00	0	38	0	396361728	60	5052
2026-01-15 22:02:04.73	81.10	18.03	-44.2	-47.4	15.8	0.00e+00	0	38	0	398458880	60	5060
2026-01-15 22:02:05.44	81.26	18.03	-44.2	-47.4	15.8	0.00e+00	0	38	0	399507456	60	5069
2026-01-15 22:02:06.72	81.56	18.04	-44.3	-47.6	15.6	0.00e+00	0	38	0	401604608	60	5181
2026-01-15 22:02:07.45	81.73	18.05	-44.4	-47.7	15.5	0.00e+00	0	38	0	403701760	60	5251
2026-01-15 22:02:08.73	82.03	18.06	-44.4	-47.8	15.4	0.00e+00	0	38	0	405798912	60	5329
2026-01-15 22:02:09.44	82.20	18.07	-44.4	-47.8	15.4	0.00e+00	0	38	0	406847488	60	5285
2026-01-15 22:02:10.72	82.50	18.08	-44.4	-47.8	15.4	0.00e+00	0	38	0	409993216	60	5284
2026-01-15 22:02:11.43	82.67	18.08	-44.4	-47.7	15.5	0.00e+00	0	38	0	411041792	60	5236
2026-01-15 22:02:12.71	82.97	18.09	-44.1	-47.4	15.8	0.00e+00	0	38	0	413138944	60	5043
2026-01-15 22:02:13.48	83.15	18.10	-44.0	-47.2	15.9	0.00e+00	0	38	0	415236096	60	4968
2026-01-15 22:02:14.76	83.45	18.10	-44.1	-47.3	15.8	0.00e+00	0	38	0	417333248	60	5029
2026-01-15 22:02:15.47	83.62	18.11	-44.1	-47.4	15.8	0.00e+00	0	38	0	418381824	60	5081
2026-01-15 22:02:16.75	83.92	18.11	-44.1	-47.4	15.8	0.00e+00	0	38	0	420478976	60	5052
2026-01-15 22:02:17.57	84.11	18.12	-44.0	-47.3	15.9	0.00e+00	0	38	0	422576128	60	5029
2026-01-15 22:02:18.70	84.38	18.12	-44.0	-47.4	15.8	0.00e+00	0	38	0	424673280	60	5043
2026-01-15 22:02:19.73	84.62	18.12	-44.0	-47.3	15.8	0.00e+00	0	38	0	426770432	60	5028
2026-01-15 22:02:20.73	84.85	18.13	-44.1	-47.4	15.8	0.00e+00	0	38	0	428867584	60	5067
2026-01-15 22:02:21.72	85.09	18.13	-44.2	-47.5	15.6	0.00e+00	0	38	0	429916160	60	5144
2026-01-15 22:02:22.94	85.37	18.13	-44.2	-47.5	15.6	0.00e+00	0	38	0	432013312	60	5154
2026-01-15 22:02:23.82	85.58	18.13	-44.2	-47.6	15.6	0.00e+00	0	38	0	434110464	60	5170
2026-01-15 22:02:24.96	85.85	18.13	-44.2	-47.5	15.6	0.00e+00	0	38	0	436207616	60	5156
2026-01-15 22:02:25.81	86.05	18.13	-44.1	-47.4	15.8	0.00e+00	0	38	0	438304768	60	5098
2026-01-15 22:02:26.95	86.32	18.13	-44.0	-47.3	15.9	0.00e+00	0	38	0	440401920	60	5010
2026-01-15 22:02:27.80	86.52	18.13	-44.1	-47.4	15.8	0.00e+00	0	38	0	441450496	60	5067
2026-01-15 22:02:28.94	86.79	18.13	-44.0	-47.2	15.9	0.00e+00	0	38	0	443547648	60	4978
2026-01-15 22:02:29.79	86.99	18.13	-44.0	-47.3	15.9	0.00e+00	0	38	0	445644800	60	5016
2026-01-15 22:02:30.93	87.25	18.13	-44.1	-47.3	15.8	0.00e+00	0	38	0	447741952	60	5022
2026-01-15 22:02:31.78	87.45	18.13	-44.1	-47.4	15.8	0.00e+00	0	38	0	448790528	60	5043
2026-01-15 22:02:32.92	87.72	18.12	-44.0	-47.2	16.0	0.00e+00	0	39	0	450887680	60	4964
2026-01-15 22:02:33.77	87.92	18.12	-44.0	-47.1	16.0	0.00e+00	0	38	0	452984832	60	4921
2026-01-15 22:02:35.00	88.21	18.11	-44.0	-47.1	16.1	0.00e+00	0	38	0	455081984	59	5175
2026-01-15 22:02:35.85	88.41	18.11	-44.0	-47.1	16.1	0.00e+00	0	38	0	457179136	59	5174
2026-01-15 22:02:36.99	88.68	18.11	-44.0	-47.1	16.1	0.00e+00	0	38	0	459276288	59	5161
2026-01-15 22:02:37.84	88.88	18.10	-44.1	-47.2	15.9	0.00e+00	0	38	0	460324864	59	5267
2026-01-15 22:02:39.11	89.18	18.09	-44.2	-47.4	15.7	0.00e+00	0	38	0	462422016	59	5371
2026-01-15 22:02:39.90	89.36	18.09	-44.2	-47.4	15.7	0.00e+00	0	38	0	464519168	59	5383
2026-01-15 22:02:41.11	89.65	18.08	-44.2	-47.5	15.6	0.00e+00	0	38	0	466616320	59	5436
2026-01-15 22:02:41.97	89.85	18.07	-44.2	-47.5	15.6	0.00e+00	0	38	0	468713472	59	5416
2026-01-15 22:02:43.10	90.11	18.07	-44.2	-47.4	15.7	0.00e+00	0	38	0	469762048	59	5356
2026-01-15 22:02:43.96	90.32	18.06	-44.0	-47.1	16.0	0.00e+00	0	38	0	471859200	59	5161
2026-01-15 22:02:45.09	90.58	18.05	-43.8	-46.8	16.3	0.00e+00	0	38	0	473956352	59	5002
2026-01-15 22:02:45.95	90.78	18.04	-43.8	-46.8	16.4	0.00e+00	0	38	0	476053504	59	4990
2026-01-15 22:02:47.08	91.05	18.03	-43.8	-46.6	16.5	0.00e+00	0	38	0	478150656	59	4916
2026-01-15 22:02:48.06	91.28	18.02	-43.7	-46.5	16.6	0.00e+00	0	38	0	479199232	59	4862
2026-01-15 22:02:49.06	91.51	18.01	-43.7	-46.6	16.5	0.00e+00	0	38	0	481296384	59	4873
2026-01-15 22:02:50.05	91.74	18.00	-43.7	-46.6	16.5	0.00e+00	0	38	0	483393536	59	4894
2026-01-15 22:02:51.05	91.97	17.99	-43.8	-46.7	16.4	0.00e+00	0	38	0	485490688	59	4977
2026-01-15 22:02:52.04	92.21	17.98	-43.9	-46.9	16.2	0.00e+00	0	38	0	486539264	59	5061
2026-01-15 22:02:53.04	92.44	17.96	-43.9	-46.9	16.2	0.00e+00	0	38	0	488636416	59	5076
2026-01-15 22:02:54.03	92.67	17.95	-43.9	-46.9	16.1	0.00e+00	0	38	0	490733568	59	5091
2026-01-15 22:02:55.03	92.90	17.94	-44.1	-47.1	16.0	0.00e+00	0	38	0	492830720	59	5187
2026-01-15 22:02:56.02	93.13	17.92	-44.1	-47.1	16.1	0.00e+00	0	38	0	494927872	59	5171
2026-01-15 22:02:57.02	93.36	17.91	-44.0	-46.9	16.2	0.00e+00	0	38	0	495976448	59	5084
2026-01-15 22:02:58.01	93.59	17.90	-44.0	-46.9	16.2	0.00e+00	0	38	0	498073600	59	5081
2026-01-15 22:02:59.00	93.82	17.88	-43.8	-46.8	16.4	0.00e+00	0	38	0	500170752	59	4991
2026-01-15 22:03:00.00	94.06	17.87	-43.8	-46.7	16.4	0.00e+00	0	38	0	502267904	59	4964
2026-01-15 22:03:01.00	94.29	17.85	-43.7	-46.6	16.5	0.00e+00	0	38	0	503316480	59	4887
2026-01-15 22:03:01.99	94.52	17.83	-43.7	-46.5	16.6	0.00e+00	0	39	0	505413632	59	4856
2026-01-15 22:03:02.98	94.74	17.82	-43.5	-46.3	16.8	0.00e+00	0	38	0	507510784	59	4740
2026-01-15 22:03:03.98	94.98	17.80	-43.5	-46.3	16.9	0.00e+00	0	38	0	509607936	58	4998
2026-01-15 22:03:04.97	95.20	17.78	-43.4	-46.1	17.0	0.00e+00	0	38	0	511705088	58	4905
2026-01-15 22:03:05.97	95.43	17.77	-43.4	-46.1	17.0	0.00e+00	0	38	0	512753664	58	4912
2026-01-15 22:03:06.96	95.66	17.75	-43.3	-46.1	17.0	0.00e+00	0	38	0	514850816	58	4875
2026-01-15 22:03:07.96	95.89	17.73	-43.4	-46.1	17.0	0.00e+00	0	38	0	516947968	58	4913
2026-01-15 22:03:08.95	96.12	17.71	-43.2	-45.9	17.2	0.00e+00	0	38	0	519045120	58	4806
2026-01-15 22:03:09.94	96.35	17.69	-43.3	-46.0	17.1	0.00e+00	0	38	0	520093696	58	4827
2026-01-15 22:03:10.94	96.57	17.67	-43.3	-46.0	17.1	0.00e+00	0	38	0	522190848	58	4850
2026-01-15 22:03:11.93	96.80	17.65	-43.4	-46.1	17.0	0.00e+00	0	38	0	524288000	58	4893
2026-01-15 22:03:12.93	97.03	17.63	-43.5	-46.2	16.9	0.00e+00	0	38	0	526385152	58	4978
2026-01-15 22:03:13.92	97.25	17.61	-43.5	-46.3	16.8	0.00e+00	0	38	0	528482304	58	4991
2026-01-15 22:03:14.92	97.48	17.59	-43.6	-46.5	16.6	0.00e+00	0	38	0	529530880	58	5113
2026-01-15 22:03:15.99	97.73	17.56	-43.6	-46.4	16.7	0.00e+00	0	38	0	531628032	58	5065
2026-01-15 22:03:16.85	97.92	17.54	-43.7	-46.5	16.6	0.00e+00	0	38	0	533725184	58	5155
2026-01-15 22:03:17.99	98.18	17.52	-43.6	-46.4	16.7	0.00e+00	0	38	0	535822336	58	5072
2026-01-15 22:03:18.84	98.37	17.50	-43.6	-46.3	16.8	0.00e+00	0	38	0	536870912	58	5041
2026-01-15 22:03:19.97	98.63	17.47	-43.6	-46.3	16.8	0.00e+00	0	38	0	538968064	58	5041
2026-01-15 22:03:20.82	98.82	17.45	-43.5	-46.3	16.8	0.00e+00	0	38	0	541065216	58	5005
2026-01-15 22:03:21.96	99.08	17.42	-43.3	-46.0	17.1	0.00e+00	0	38	0	543162368	58	4858
2026-01-15 22:03:22.82	99.27	17.40	-43.2	-45.9	17.1	0.00e+00	0	38	0	545259520	58	4807
2026-01-15 22:03:23.95	99.52	17.37	-43.1	-45.8	17.3	0.00e+00	0	38	0	547356672	58	4733
2026-01-15 22:03:24.81	99.72	17.35	-43.1	-45.8	17.3	0.00e+00	0	39	0	548405248	58	4741
2026-01-15 22:03:25.94	99.97	17.32	-43.1	-45.8	17.3	0.00e+00	0	38	0	550502400	58	4725
2026-01-15 22:03:26.79	100.16	17.30	-43.1	-45.7	17.4	0.00e+00	0	38	0	552599552	58	4695
2026-01-15 22:03:27.95	100.42	17.26	-42.9	-45.5	17.5	0.00e+00	0	38	0	554696704	57	4855
2026-01-15 22:03:28.80	100.61	17.24	-42.7	-45.3	17.8	0.00e+00	0	38	0	555745280	57	4723
2026-01-15 22:03:30.00	100.87	17.21	-42.7	-45.2	17.8	0.00e+00	0	38	0	557842432	57	4703
2026-01-15 22:03:30.86	101.06	17.18	-42.7	-45.2	17.8	0.00e+00	0	38	0	559939584	57	4704
2026-01-15 22:03:31.99	101.32	17.15	-42.8	-45.3	17.7	0.00e+00	0	38	0	562036736	57	4748
2026-01-15 22:03:32.85	101.51	17.13	-42.9	-45.4	17.6	0.00e+00	0	38	0	563085312	57	4808
2026-01-15 22:03:33.98	101.75	17.09	-43.0	-45.6	17.5	0.00e+00	0	38	0	566231040	57	4893
2026-01-15 22:03:34.84	101.94	17.07	-43.0	-45.6	17.5	0.00e+00	0	38	0	567279616	57	4900
2026-01-15 22:03:35.98	102.19	17.03	-43.0	-45.6	17.4	0.00e+00	0	38	0	569376768	57	4896
2026-01-15 22:03:36.83	102.38	17.01	-42.9	-45.5	17.6	0.00e+00	0	38	0	571473920	57	4821
2026-01-15 22:03:37.96	102.63	16.97	-42.8	-45.4	17.7	0.00e+00	0	38	0	573571072	57	4791
2026-01-15 22:03:38.81	102.81	16.95	-42.9	-45.5	17.6	0.00e+00	0	38	0	574619648	57	4832
2026-01-15 22:03:39.95	103.06	16.91	-42.6	-45.1	17.9	0.00e+00	0	38	0	576716800	57	4646
2026-01-15 22:03:40.80	103.25	16.88	-42.5	-45.0	18.0	0.00e+00	0	38	0	578813952	57	4556
2026-01-15 22:03:41.94	103.50	16.85	-42.5	-44.9	18.1	0.00e+00	0	38	0	580911104	56	4796
2026-01-15 22:03:42.79	103.68	16.82	-42.5	-45.0	18.0	0.00e+00	0	38	0	581959680	56	4846
2026-01-15 22:03:44.00	103.94	16.78	-42.4	-44.9	18.2	0.00e+00	0	38	0	584056832	56	4784
2026-01-15 22:03:44.86	104.13	16.75	-42.4	-44.8	18.2	0.00e+00	0	38	0	586153984	56	4753
2026-01-15 22:03:46.00	104.37	16.71	-42.5	-45.0	18.1	0.00e+00	0	38	0	588251136	56	4838
2026-01-15 22:03:46.85	104.56	16.68	-42.6	-45.1	17.9	0.00e+00	0	38	0	589299712	56	4906
2026-01-15 22:03:48.12	104.83	16.64	-42.8	-45.3	17.7	0.00e+00	0	38	0	592445440	56	5037
2026-01-15 22:03:48.83	104.98	16.62	-42.8	-45.4	17.6	0.00e+00	0	38	0	593494016	56	5083
2026-01-15 22:03:50.11	105.25	16.57	-42.8	-45.5	17.6	0.00e+00	0	38	0	595591168	56	5118
2026-01-15 22:03:50.82	105.40	16.55	-42.8	-45.5	17.6	0.00e+00	0	38	0	597688320	56	5114
2026-01-15 22:03:52.10	105.68	16.50	-42.9	-45.6	17.5	0.00e+00	0	38	0	599785472	56	5178
2026-01-15 22:03:52.92	105.85	16.47	-42.9	-45.5	17.5	0.00e+00	0	38	0	600834048	56	5156
2026-01-15 22:03:54.05	106.09	16.43	-42.9	-45.5	17.6	0.00e+00	0	38	0	602931200	56	5148
2026-01-15 22:03:54.90	106.27	16.40	-42.9	-45.5	17.5	0.00e+00	0	38	0	605028352	56	5138
2026-01-15 22:03:56.04	106.51	16.36	-43.0	-45.6	17.5	0.00e+00	0	38	0	607125504	56	5173
2026-01-15 22:03:56.90	106.69	16.33	-42.9	-45.5	17.5	0.00e+00	0	38	0	608174080	56	5152
2026-01-15 22:03:58.03	106.93	16.28	-42.9	-45.5	17.5	0.00e+00	0	38	0	611319808	56	5141
2026-01-15 22:03:58.88	107.10	16.25	-42.9	-45.5	17.6	0.00e+00	0	38	0	612368384	56	5125
2026-01-15 22:04:00.02	107.34	16.21	-42.8	-45.5	17.6	0.00e+00	0	38	0	614465536	56	5106
2026-01-15 22:04:00.88	107.52	16.18	-42.9	-45.5	17.5	0.00e+00	0	38	0	616562688	56	5141
2026-01-15 22:04:02.07	107.77	16.13	-43.0	-45.7	17.3	0.00e+00	0	38	0	618659840	56	5277
2026-01-15 22:04:02.93	107.95	16.10	-43.2	-45.9	17.1	0.00e+00	0	38	0	619708416	57	5091
2026-01-15 22:04:04.07	108.18	16.05	-43.3	-46.1	17.0	0.00e+00	0	38	0	621805568	57	5179
2026-01-15 22:04:04.92	108.36	16.02	-43.6	-46.4	16.7	0.00e+00	0	38	0	623902720	57	5379
2026-01-15 22:04:06.06	108.59	15.97	-43.9	-46.8	16.3	0.00e+00	0	38	0	625999872	58	5310
2026-01-15 22:04:06.91	108.76	15.94	-44.1	-47.1	16.0	0.00e+00	0	38	0	627048448	58	5489
2026-01-15 22:04:08.05	109.00	15.89	-44.2	-47.2	15.9	0.00e+00	0	38	0	629145600	58	5556
2026-01-15 22:04:08.90	109.17	15.86	-44.2	-47.3	15.8	0.00e+00	0	38	0	631242752	59	5298
2026-01-15 22:04:10.04	109.40	15.81	-44.3	-47.4	15.7	0.00e+00	0	38	0	633339904	59	5361
2026-01-15 22:04:10.89	109.58	15.78	-44.3	-47.4	15.6	0.00e+00	0	38	0	634388480	59	5396
2026-01-15 22:04:12.03	109.81	15.73	-44.3	-47.4	15.6	0.00e+00	0	38	0	637534208	59	5400
2026-01-15 22:04:12.88	109.98	15.69	-44.3	-47.5	15.6	0.00e+00	0	38	0	638582784	59	5446
2026-01-15 22:04:14.01	110.20	15.65	-44.4	-47.5	15.5	0.00e+00	0	38	0	640679936	59	5463
2026-01-15 22:04:14.87	110.38	15.61	-44.3	-47.5	15.6	0.00e+00	0	38	0	642777088	59	5430
2026-01-15 22:04:16.00	110.60	15.56	-44.3	-47.4	15.7	0.00e+00	0	38	0	644874240	59	5367
2026-01-15 22:04:16.86	110.77	15.52	-44.2	-47.3	15.7	0.00e+00	0	38	0	645922816	59	5329
2026-01-15 22:04:17.99	111.00	15.48	-44.0	-47.1	15.9	0.00e+00	0	38	0	648019968	59	5212
2026-01-15 22:04:18.85	111.17	15.44	-44.0	-47.1	16.0	0.00e+00	0	38	0	650117120	59	5184
2026-01-15 22:04:19.99	111.40	15.39	-44.0	-47.1	16.0	0.00e+00	0	38	0	652214272	59	5198
2026-01-15 22:04:20.84	111.56	15.35	-44.0	-47.1	15.9	0.00e+00	0	38	0	653262848	59	5185
2026-01-15 22:04:21.98	111.79	15.30	-44.1	-47.2	15.8	0.00e+00	0	38	0	655360000	59	5276
2026-01-15 22:04:22.83	111.95	15.26	-44.1	-47.3	15.8	0.00e+00	0	38	0	657457152	59	5285
2026-01-15 22:04:23.97	112.18	15.21	-44.3	-47.6	15.5	0.00e+00	0	38	0	659554304	59	5484
2026-01-15 22:04:24.82	112.34	15.18	-44.4	-47.7	15.3	0.00e+00	0	38	0	660602880	59	5581
2026-01-15 22:04:25.96	112.56	15.12	-44.6	-47.9	15.2	0.00e+00	0	38	0	662700032	59	5689
2026-01-15 22:04:26.81	112.73	15.09	-44.6	-47.9	15.1	0.00e+00	0	38	0	664797184	59	5700
2026-01-15 22:04:27.95	112.95	15.03	-44.6	-48.0	15.1	0.00e+00	0	38	0	666894336	59	5735
2026-01-15 22:04:28.80	113.11	15.00	-44.6	-48.0	15.0	0.00e+00	0	38	0	667942912	59	5761
2026-01-15 22:04:29.93	113.33	14.94	-44.6	-47.9	15.2	0.00e+00	0	38	0	671088640	60	5373
2026-01-15 22:04:30.79	113.50	14.90	-44.7	-48.0	15.1	0.00e+00	0	38	0	672137216	60	5442
2026-01-15 22:04:32.10	113.75	14.84	-44.7	-48.0	15.1	0.00e+00	0	38	0	674234368	60	5437
2026-01-15 22:04:32.81	113.88	14.81	-44.7	-48.1	15.0	0.00e+00	0	38	0	676331520	60	5494
2026-01-15 22:04:34.09	114.12	14.75	-44.7	-48.0	15.1	0.00e+00	0	38	0	678428672	60	5426
2026-01-15 22:04:34.81	114.26	14.72	-44.6	-48.0	15.1	0.00e+00	0	38	0	679477248	60	5416
2026-01-15 22:04:36.09	114.50	14.66	-44.5	-47.8	15.3	0.00e+00	0	38	0	682622976	60	5322
2026-01-15 22:04:36.83	114.64	14.62	-44.4	-47.7	15.4	0.00e+00	0	38	0	683671552	60	5237
2026-01-15 22:04:38.11	114.88	14.56	-44.5	-47.8	15.3	0.00e+00	0	38	0	685768704	60	5298
2026-01-15 22:04:38.83	115.02	14.53	-44.6	-47.9	15.2	0.00e+00	0	38	0	686817280	60	5358
2026-01-15 22:04:40.11	115.25	14.47	-44.5	-47.7	15.4	0.00e+00	0	38	0	689963008	60	5242
2026-01-15 22:04:40.95	115.41	14.43	-44.5	-47.8	15.3	0.00e+00	0	38	0	691011584	60	5286
2026-01-15 22:04:42.09	115.62	14.37	-44.5	-47.8	15.3	0.00e+00	0	38	0	693108736	60	5301
2026-01-15 22:04:42.94	115.78	14.33	-44.4	-47.6	15.5	0.00e+00	0	38	0	695205888	60	5186
2026-01-15 22:04:44.08	115.99	14.28	-44.3	-47.5	15.6	0.00e+00	0	38	0	697303040	60	5118
2026-01-15 22:04:44.94	116.15	14.23	-44.2	-47.4	15.7	0.00e+00	0	38	0	698351616	60	5056
2026-01-15 22:04:46.07	116.35	14.18	-44.1	-47.2	15.9	0.00e+00	0	38	0	700448768	60	4942
2026-01-15 22:04:46.92	116.51	14.14	-43.9	-46.8	16.2	0.00e+00	0	38	0	702545920	59	5022
2026-01-15 22:04:48.06	116.71	14.08	-43.8	-46.7	16.3	0.00e+00	0	38	0	704643072	59	4957
2026-01-15 22:04:49.28	116.93	14.02	-43.7	-46.7	16.4	0.00e+00	0	38	0	706740224	59	4934
2026-01-15 22:04:50.33	117.12	13.97	-43.9	-46.9	16.2	0.00e+00	0	38	0	708837376	59	5046
2026-01-15 22:04:51.20	117.28	13.92	-43.8	-46.8	16.2	0.00e+00	0	38	0	710934528	59	5006
2026-01-15 22:04:52.34	117.49	13.87	-43.8	-46.8	16.2	0.00e+00	0	38	0	713031680	59	5001
2026-01-15 22:04:53.19	117.64	13.83	-43.9	-46.9	16.1	0.00e+00	0	38	0	714080256	59	5062
2026-01-15 22:04:54.33	117.84	13.77	-43.9	-46.9	16.1	0.00e+00	0	38	0	716177408	59	5079
2026-01-15 22:04:55.18	117.99	13.73	-44.0	-47.1	15.9	0.00e+00	0	38	0	718274560	59	5178
2026-01-15 22:04:56.31	118.19	13.67	-44.2	-47.3	15.6	0.00e+00	0	38	0	720371712	59	5340
2026-01-15 22:04:57.17	118.34	13.62	-44.3	-47.5	15.6	0.00e+00	0	38	0	721420288	59	5404
2026-01-15 22:04:58.34	118.55	13.57	-44.6	-47.9	15.1	0.00e+00	0	38	0	723517440	59	5702
2026-01-15 22:04:59.19	118.70	13.52	-44.7	-48.1	15.0	0.00e+00	0	38	0	725614592	60	5495
2026-01-15 22:05:00.39	118.91	13.46	-44.8	-48.3	14.8	0.00e+00	0	38	0	727711744	60	5597
2026-01-15 22:05:01.24	119.05	13.42	-44.7	-48.2	14.9	0.00e+00	0	38	0	729808896	60	5536
2026-01-15 22:05:02.44	119.26	13.36	-44.5	-47.8	15.2	0.00e+00	0	38	0	731906048	60	5294
2026-01-15 22:05:03.30	119.41	13.31	-44.4	-47.6	15.5	0.00e+00	0	39	0	732954624	60	5180
2026-01-15 22:05:04.50	119.62	13.25	-44.2	-47.3	15.7	0.00e+00	0	38	0	735051776	60	5032
2026-01-15 22:05:05.35	119.76	13.21	-44.1	-47.2	15.9	0.00e+00	0	38	0	737148928	60	4949
2026-01-15 22:05:06.49	119.96	13.15	-44.0	-47.0	16.0	0.00e+00	0	38	0	739246080	60	4852
2026-01-15 22:05:07.34	120.10	13.10	-43.8	-46.7	16.3	0.00e+00	0	38	0	740294656	59	4960
2026-01-15 22:05:08.60	120.32	13.04	-43.8	-46.7	16.3	0.00e+00	0	38	0	743440384	59	4928
2026-01-15 22:05:09.39	120.45	13.00	-43.7	-46.7	16.3	0.00e+00	0	38	0	744488960	59	4932
2026-01-15 22:05:10.56	120.65	12.93	-43.9	-46.9	16.1	0.00e+00	0	38	0	746586112	59	5059
2026-01-15 22:05:11.42	120.79	12.89	-43.9	-46.9	16.1	0.00e+00	0	38	0	748683264	59	5078
2026-01-15 22:05:12.56	120.98	12.83	-43.9	-47.0	16.1	0.00e+00	0	38	0	750780416	59	5101
2026-01-15 22:05:13.41	121.12	12.78	-43.9	-46.9	16.1	0.00e+00	0	38	0	751828992	59	5071
2026-01-15 22:05:14.55	121.31	12.72	-43.9	-46.8	16.2	0.00e+00	0	38	0	753926144	59	5026
2026-01-15 22:05:15.40	121.45	12.68	-43.9	-46.9	16.1	0.00e+00	0	39	0	756023296	59	5054
2026-01-15 22:05:16.54	121.64	12.62	-43.9	-46.8	16.2	0.00e+00	0	38	0	758120448	59	5024
2026-01-15 22:05:17.39	121.78	12.57	-43.9	-46.9	16.1	0.00e+00	0	38	0	759169024	59	5057
2026-01-15 22:05:18.53	121.97	12.51	-43.9	-46.9	16.1	0.00e+00	0	38	0	761266176	59	5064
2026-01-15 22:05:19.38	122.11	12.47	-43.9	-46.9	16.1	0.00e+00	0	38	0	763363328	59	5056
2026-01-15 22:05:20.52	122.29	12.41	-44.1	-47.1	15.9	0.00e+00	0	38	0	765460480	59	5217
2026-01-15 22:05:21.37	122.43	12.36	-44.1	-47.2	15.8	0.00e+00	0	38	0	767557632	59	5277
2026-01-15 22:05:22.51	122.62	12.30	-44.1	-47.2	15.8	0.00e+00	0	38	0	769654784	59	5246
2026-01-15 22:05:23.36	122.75	12.25	-44.1	-47.2	15.7	0.00e+00	0	38	0	770703360	59	5278
2026-01-15 22:05:24.50	122.94	12.19	-43.9	-46.9	16.0	0.00e+00	0	38	0	772800512	59	5100
2026-01-15 22:05:25.35	123.07	12.15	-43.8	-46.8	16.2	0.00e+00	0	38	0	774897664	59	5006
2026-01-15 22:05:26.49	123.25	12.09	-43.9	-46.9	16.1	0.00e+00	0	38	0	776994816	59	5049
2026-01-15 22:05:27.34	123.39	12.04	-43.8	-46.8	16.2	0.00e+00	0	39	0	778043392	59	4994
2026-01-15 22:05:28.48	123.57	11.98	-43.7	-46.6	16.4	0.00e+00	0	38	0	780140544	59	4873
2026-01-15 22:05:29.33	123.70	11.93	-43.7	-46.6	16.4	0.00e+00	0	38	0	782237696	59	4893
2026-01-15 22:05:30.69	123.92	11.86	-43.8	-46.8	16.2	0.00e+00	0	38	0	784334848	59	5006
2026-01-15 22:05:31.40	124.03	11.82	-43.9	-47.0	16.0	0.00e+00	0	38	0	785383424	59	5120
2026-01-15 22:05:32.68	124.23	11.75	-44.0	-47.1	15.8	0.00e+00	0	38	0	788529152	59	5209
2026-01-15 22:05:33.40	124.34	11.71	-44.1	-47.2	15.8	0.00e+00	0	38	0	789577728	59	5242
2026-01-15 22:05:34.68	124.54	11.64	-44.1	-47.2	15.8	0.00e+00	0	38	0	791674880	59	5245
2026-01-15 22:05:35.42	124.65	11.60	-44.1	-47.3	15.7	0.00e+00	0	38	0	793772032	59	5288
2026-01-15 22:05:36.70	124.85	11.53	-44.0	-47.1	15.9	0.00e+00	0	38	0	795869184	59	5177
2026-01-15 22:05:37.42	124.96	11.49	-43.9	-46.9	16.0	0.00e+00	0	38	0	796917760	59	5094
2026-01-15 22:05:38.69	125.15	11.42	-43.9	-46.9	16.0	0.00e+00	0	38	0	799014912	59	5079
2026-01-15 22:05:39.40	125.26	11.38	-43.9	-46.8	16.1	0.00e+00	0	38	0	801112064	59	5015
2026-01-15 22:05:40.68	125.46	11.31	-43.9	-46.9	16.1	0.00e+00	0	38	0	803209216	59	5050
2026-01-15 22:05:41.50	125.58	11.27	-43.9	-46.9	16.0	0.00e+00	0	38	0	804257792	59	5076
2026-01-15 22:05:42.64	125.75	11.21	-44.0	-47.0	15.9	0.00e+00	0	38	0	807403520	59	5155
2026-01-15 22:05:43.49	125.88	11.16	-44.1	-47.2	15.7	0.00e+00	0	38	0	808452096	59	5272
2026-01-15 22:05:44.63	126.05	11.10	-44.2	-47.4	15.5	0.00e+00	0	38	0	810549248	59	5376
2026-01-15 22:05:45.48	126.17	11.05	-44.4	-47.6	15.3	0.00e+00	0	38	0	812646400	59	5490
2026-01-15 22:05:46.62	126.34	10.99	-44.4	-47.8	15.2	0.00e+00	0	38	0	814743552	59	5593
2026-01-15 22:05:47.47	126.47	10.94	-44.3	-47.6	15.3	0.00e+00	0	38	0	815792128	59	5504
2026-01-15 22:05:48.61	126.64	10.88	-44.3	-47.6	15.3	0.00e+00	0	38	0	817889280	59	5502
2026-01-15 22:05:49.46	126.76	10.83	-44.3	-47.6	15.3	0.00e+00	0	38	0	819986432	59	5490
2026-01-15 22:05:50.68	126.94	10.76	-44.2	-47.4	15.5	0.00e+00	0	38	0	822083584	59	5383
2026-01-15 22:05:51.53	127.06	10.72	-44.1	-47.2	15.7	0.00e+00	0	38	0	823132160	59	5247
2026-01-15 22:05:52.67	127.23	10.65	-43.9	-47.0	15.9	0.00e+00	0	38	0	826277888	59	5151
2026-01-15 22:05:53.52	127.35	10.61	-44.0	-47.1	15.8	0.00e+00	0	38	0	827326464	59	5198
2026-01-15 22:05:54.66	127.52	10.54	-44.1	-47.3	15.5	0.00e+00	0	38	0	829423616	59	5320
2026-01-15 22:05:55.51	127.64	10.50	-44.1	-47.4	15.5	0.00e+00	0	38	0	831520768	59	5346
2026-01-15 22:05:56.65	127.80	10.43	-44.3	-47.6	15.3	0.00e+00	0	38	0	833617920	59	5509
2026-01-15 22:05:57.50	127.92	10.38	-44.4	-47.8	15.1	0.00e+00	0	38	0	834666496	59	5625
2026-01-15 22:05:58.64	128.08	10.32	-44.4	-47.9	15.0	0.00e+00	0	38	0	836763648	59	5659
2026-01-15 22:05:59.70	128.23	10.26	-44.3	-47.7	15.1	0.00e+00	0	38	0	838860800	59	5589
2026-01-15 22:06:00.74	128.38	10.20	-44.3	-47.7	15.2	0.00e+00	0	38	0	840957952	59	5567
2026-01-15 22:06:01.89	128.54	10.14	-44.3	-47.7	15.1	0.00e+00	0	38	0	843055104	59	5573
2026-01-15 22:06:02.78	128.67	10.09	-44.3	-47.7	15.2	0.00e+00	0	38	0	845152256	59	5540
2026-01-15 22:06:04.09	128.85	10.02	-44.2	-47.5	15.4	0.00e+00	0	38	0	847249408	59	5416
2026-01-15 22:06:04.80	128.95	9.98	-44.2	-47.4	15.5	0.00e+00	0	38	0	848297984	59	5371
2026-01-15 22:06:06.29	129.15	9.90	-44.3	-47.6	15.2	0.00e+00	0	38	0	851443712	59	5506
2026-01-15 22:06:07.00	129.25	9.86	-44.5	-47.8	15.1	0.00e+00	0	38	0	852492288	59	5601
2026-01-15 22:06:08.28	129.43	9.78	-44.5	-48.0	14.8	0.00e+00	0	38	0	854589440	59	5732
2026-01-15 22:06:08.99	129.52	9.74	-44.6	-48.1	14.7	0.00e+00	0	38	0	856686592	59	5819
2026-01-15 22:06:10.27	129.70	9.67	-44.7	-48.3	14.6	0.00e+00	0	38	0	858783744	60	5599
2026-01-15 22:06:11.00	129.80	9.63	-44.7	-48.3	14.6	0.00e+00	0	38	0	859832320	60	5607
2026-01-15 22:06:12.27	129.97	9.56	-44.8	-48.4	14.5	0.00e+00	0	38	0	862978048	60	5698
2026-01-15 22:06:12.99	130.06	9.52	-44.8	-48.4	14.5	7.00e-07	0	38	0	864026624	60	5661
2026-01-15 22:06:14.26	130.23	9.45	-44.7	-48.2	14.7	0.00e+00	0	38	0	866123776	60	5531
2026-01-15 22:06:14.97	130.33	9.41	-44.7	-48.3	14.6	7.00e-07	0	38	0	867172352	60	5595
2026-01-15 22:06:16.25	130.50	9.34	-44.7	-48.2	14.6	0.00e+00	0	38	0	870318080	60	5561
2026-01-15 22:06:17.09	130.61	9.29	-44.6	-48.1	14.7	0.00e+00	0	38	0	871366656	60	5503
2026-01-15 22:06:18.52	130.80	9.21	-44.6	-48.1	14.7	1.50e-06	0	38	0	874512384	60	5496
2026-01-15 22:06:19.23	130.89	9.17	-44.7	-48.2	14.6	0.00e+00	0	38	0	875560960	60	5563
2026-01-15 22:06:20.70	131.08	9.09	-44.8	-48.3	14.5	1.50e-06	0	38	0	878706688	60	5656
2026-01-15 22:06:21.41	131.18	9.05	-44.8	-48.4	14.4	7.00e-07	0	38	0	879755264	60	5713
2026-01-15 22:06:22.80	131.36	8.97	-47.7	-55.2	8.1	7.00e-07	0	38	0	881852416	65	9341
2026-01-15 22:06:23.51	131.45	8.93	-49.1	-64.3	3.8	1.36e+00	0	38	104	882900992	68	22421
2026-01-15 22:06:24.79	131.61	8.86	-49.3	-64.5	3.8	1.49e+00	0	38	104	882900992	69	21529
2026-01-15 22:06:25.50	131.71	8.82	-49.3	-64.5	3.8	1.49e+00	0	39	104	882900992	69	21682
2026-01-15 22:06:26.77	131.87	8.75	-49.3	-64.6	3.8	1.49e+00	0	38	104	882900992	69	21940
2026-01-15 22:06:27.48	131.96	8.71	-49.5	-64.6	3.8	1.49e+00	0	38	104	882900992	69	21965
2026-01-15 22:06:28.76	132.12	8.64	-49.5	-64.7	3.8	1.49e+00	0	39	104	882900992	69	22117
2026-01-15 22:06:29.48	132.21	8.60	-49.5	-64.7	3.8	1.49e+00	0	38	104	882900992	69	22105
2026-01-15 22:06:30.76	132.37	8.53	-49.5	-64.7	3.8	1.49e+00	0	39	104	882900992	69	22172
2026-01-15 22:06:31.49	132.46	8.49	-49.6	-64.7	3.8	1.49e+00	0	38	104	882900992	69	22247
2026-01-15 22:06:32.76	132.62	8.42	-49.5	-64.7	3.8	1.49e+00	0	38	104	882900992	69	22225
2026-01-15 22:06:33.47	132.71	8.38	-49.5	-64.8	3.8	1.49e+00	0	38	104	882900992	69	22391
2026-01-15 22:06:34.75	132.87	8.30	-49.7	-64.8	3.9	1.49e+00	0	38	104	882900992	70	21249
2026-01-15 22:06:35.48	132.96	8.26	-49.7	-64.8	3.8	1.49e+00	0	38	104	882900992	70	21177
2026-01-15 22:06:36.75	133.12	8.19	-49.3	-64.8	3.8	1.49e+00	0	39	104	882900992	70	21207
2026-01-15 22:06:37.46	133.21	8.15	-49.4	-64.9	3.8	1.49e+00	0	38	104	882900992	70	21323
2026-01-15 22:06:38.74	133.36	8.08	-49.2	-64.8	3.8	1.49e+00	0	38	104	882900992	70	21106
2026-01-15 22:06:39.45	133.45	8.04	-49.2	-64.8	3.8	1.49e+00	0	38	104	882900992	70	21180
2026-01-15 22:06:40.77	133.61	7.97	-49.2	-64.8	3.8	1.49e+00	0	39	104	882900992	70	21239
2026-01-15 22:06:41.48	133.69	7.93	-49.2	-64.8	3.8	1.49e+00	0	38	104	882900992	70	21254
2026-01-15 22:06:42.82	133.86	7.85	-49.4	-64.8	3.8	1.49e+00	0	38	104	882900992	70	21184
2026-01-15 22:06:43.53	133.94	7.81	-49.4	-64.8	3.8	1.49e+00	0	38	104	882900992	70	21085
2026-01-15 22:06:44.81	134.09	7.74	-49.3	-64.8	3.8	1.49e+00	0	38	104	882900992	70	21084
2026-01-15 22:06:45.52	134.18	7.70	-49.3	-64.8	3.8	1.49e+00	0	38	104	882900992	70	21129
2026-01-15 22:06:46.80	134.33	7.63	-49.3	-64.8	3.8	1.49e+00	0	39	104	882900992	70	21036
2026-01-15 22:06:47.52	134.42	7.59	-49.3	-64.8	3.8	1.49e+00	0	38	104	882900992	70	21040
2026-01-15 22:06:48.80	134.57	7.52	-49.3	-64.7	3.8	1.49e+00	0	38	104	882900992	70	21005
2026-01-15 22:06:49.53	134.65	7.48	-49.3	-64.8	3.8	1.49e+00	0	39	104	882900992	70	21051
2026-01-15 22:06:50.80	134.80	7.41	-49.3	-64.8	3.8	1.49e+00	0	39	104	882900992	70	21074
2026-01-15 22:06:51.51	134.88	7.37	-49.3	-64.8	3.8	1.49e+00	0	38	104	882900992	70	21022
2026-01-15 22:06:52.79	135.03	7.30	-49.3	-64.8	3.8	1.49e+00	0	38	104	882900992	70	21053
2026-01-15 22:06:53.51	135.12	7.26	-49.3	-64.8	3.8	1.49e+00	0	38	104	882900992	70	21042
2026-01-15 22:06:54.79	135.26	7.19	-49.3	-64.8	3.8	1.49e+00	0	38	104	882900992	70	21112
2026-01-15 22:06:55.50	135.35	7.15	-49.3	-64.7	3.8	1.49e+00	0	38	104	882900992	70	21015
2026-01-15 22:06:56.78	135.49	7.08	-49.3	-64.7	3.8	1.49e+00	0	38	104	882900992	70	20919
2026-01-15 22:06:57.50	135.57	7.04	-49.3	-64.8	3.8	1.49e+00	0	38	104	882900992	70	21105
2026-01-15 22:06:58.78	135.72	6.97	-49.3	-64.7	3.8	1.49e+00	0	38	104	882900992	70	20993
2026-01-15 22:06:59.49	135.80	6.93	-49.3	-64.8	3.8	1.49e+00	0	38	104	882900992	70	21037
2026-01-15 22:07:00.77	135.94	6.86	-49.3	-64.8	3.8	1.49e+00	0	38	104	882900992	70	21065
2026-01-15 22:07:01.48	136.02	6.82	-49.3	-64.8	3.8	1.49e+00	0	38	104	882900992	70	21027
2026-01-15 22:07:02.76	136.17	6.74	-49.3	-64.7	3.8	1.49e+00	0	38	104	882900992	70	20987
2026-01-15 22:07:03.46	136.25	6.71	-49.3	-64.7	3.8	1.49e+00	0	38	104	882900992	70	20979
2026-01-15 22:07:04.76	136.39	6.63	-49.3	-64.8	3.8	1.49e+00	0	38	104	882900992	70	21021
2026-01-15 22:07:05.47	136.47	6.60	-49.3	-64.7	3.8	1.49e+00	0	38	104	882900992	70	21011
2026-01-15 22:07:06.74	136.61	6.52	-49.3	-64.8	3.8	1.49e+00	0	38	104	882900992	70	21049
2026-01-15 22:07:07.45	136.69	6.49	-49.3	-64.8	3.8	1.49e+00	0	38	104	882900992	70	21049
2026-01-15 22:07:08.73	136.83	6.42	-49.3	-64.8	3.8	1.49e+00	0	38	104	882900992	70	21027
2026-01-15 22:07:09.44	136.91	6.38	-49.3	-64.7	3.8	1.49e+00	0	38	104	882900992	70	20985
2026-01-15 22:07:10.72	137.04	6.31	-49.3	-64.7	3.8	1.49e+00	0	38	104	882900992	70	20994
2026-01-15 22:07:11.44	137.12	6.27	-49.3	-64.8	3.8	1.49e+00	0	39	104	882900992	70	21065
2026-01-15 22:07:12.72	137.26	6.20	-49.3	-64.7	3.8	1.49e+00	0	39	104	882900992	70	20976
2026-01-15 22:07:13.43	137.34	6.16	-49.3	-64.7	3.8	1.49e+00	0	39	104	882900992	70	20970
2026-01-15 22:07:14.72	137.48	6.09	-49.3	-64.7	3.8	1.49e+00	0	38	104	882900992	70	20929
2026-01-15 22:07:15.43	137.55	6.05	-49.3	-64.7	3.8	1.49e+00	0	38	104	882900992	70	20930
2026-01-15 22:07:16.71	137.69	5.98	-49.3	-64.8	3.8	1.49e+00	0	38	104	882900992	70	21029
2026-01-15 22:07:17.43	137.76	5.94	-49.3	-64.7	3.8	1.49e+00	0	39	104	882900992	70	20993
2026-01-15 22:07:18.71	137.90	5.87	-49.3	-64.7	3.8	1.49e+00	0	38	104	882900992	70	20990
2026-01-15 22:07:19.42	137.97	5.83	-49.3	-64.7	3.8	1.49e+00	0	38	104	882900992	70	20944
2026-01-15 22:07:20.70	138.11	5.76	-49.3	-64.7	3.8	1.49e+00	0	38	104	882900992	70	21014
2026-01-15 22:07:21.41	138.18	5.72	-49.3	-64.7	3.8	1.49e+00	0	38	104	882900992	70	20958
2026-01-15 22:07:22.68	138.31	5.65	-49.3	-64.7	3.8	1.49e+00	0	38	104	882900992	70	21012
2026-01-15 22:07:23.41	138.39	5.61	-49.3	-64.7	3.8	1.49e+00	0	39	104	882900992	70	20928
2026-01-15 22:07:24.69	138.52	5.54	-49.3	-64.7	3.8	1.49e+00	0	38	104	882900992	70	20947
2026-01-15 22:07:25.40	138.60	5.50	-49.3	-64.7	3.8	1.49e+00	0	39	104	882900992	70	20952
2026-01-15 22:07:26.67	138.73	5.43	-49.3	-64.7	3.8	1.49e+00	0	39	104	882900992	70	20996
2026-01-15 22:07:27.38	138.80	5.39	-49.3	-64.7	3.8	1.49e+00	0	38	104	882900992	70	20928
2026-01-15 22:07:28.66	138.93	5.32	-49.3	-64.7	3.8	1.49e+00	0	38	104	882900992	70	20900
2026-01-15 22:07:29.37	139.00	5.28	-49.3	-64.7	3.8	1.49e+00	0	38	104	882900992	70	20949
2026-01-15 22:07:30.65	139.13	5.21	-49.3	-64.7	3.8	1.49e+00	0	38	104	882900992	70	20913
2026-01-15 22:07:31.36	139.20	5.17	-49.3	-64.7	3.8	1.49e+00	0	38	104	882900992	70	20946
2026-01-15 22:07:32.64	139.33	5.11	-49.3	-64.7	3.8	1.49e+00	0	38	104	882900992	70	20977
2026-01-15 22:07:33.35	139.40	5.07	-49.3	-64.7	3.8	1.49e+00	0	38	104	882900992	70	20965
2026-01-15 22:07:34.62	139.53	5.00	-49.3	-64.7	3.8	1.49e+00	0	38	104	882900992	70	20928

#Closed at: 2026-01-15 22:07:35
#Recorded file [882 MB]: D:/Data/31040_260116_005715.dat