passes_logs/2026/01/15/T1/T1__20260115_021430_FENGYUN_3D_rec.log

#Pass ID: 20260115_021430_FENGYUN 3D
#Satellite: FENGYUN 3D
#Configuration: FENGYUN 3D
#almurnet v.1.7.20251203
#Start time: 2026-01-15 02:14:32

#Version: 2.0.20230620
#Station: T1
#Location: 37.570604 lon 55.790049 lat
#TLE: 1 43010U 17072A   26014.65117763 -.00000217  00000+0 -80772-4 0  9993
#TLE: 2 43010  98.9933 346.4618 0002330 108.4699 251.6730 14.19694700423204

#Time	Az	El	Level	Level2	SNR	BER	BlckErr	Temp	State	Recorded	gain1	gain2
2026-01-15 02:14:32.71	13.80	5.08	-48.1	-62.3	3.8	8.47e-01	0	37	0	0	68	17703
2026-01-15 02:14:33.71	13.77	5.16	-47.9	-62.2	3.8	8.46e-01	0	37	104	0	66	19729
2026-01-15 02:14:34.70	13.75	5.23	-48.0	-62.2	3.8	8.46e-01	0	37	104	0	66	19668
2026-01-15 02:14:35.70	13.73	5.30	-47.9	-62.1	3.8	8.47e-01	0	37	104	0	66	19481
2026-01-15 02:14:36.70	13.71	5.37	-47.9	-62.0	3.8	8.48e-01	0	37	104	0	66	19372
2026-01-15 02:14:37.69	13.69	5.44	-48.0	-62.0	3.8	8.47e-01	0	37	104	0	66	19185
2026-01-15 02:14:38.69	13.67	5.51	-47.9	-61.8	3.8	8.47e-01	0	37	104	0	66	18881
2026-01-15 02:14:39.69	13.64	5.58	-47.9	-61.7	3.8	8.48e-01	0	37	104	0	66	18674
2026-01-15 02:14:40.68	13.62	5.65	-47.9	-61.7	3.8	8.47e-01	0	37	104	0	66	18554
2026-01-15 02:14:41.69	13.60	5.73	-47.9	-61.6	3.8	8.47e-01	0	38	104	0	66	18384
2026-01-15 02:14:42.68	13.58	5.80	-47.9	-61.5	3.8	8.47e-01	0	38	104	0	66	18173
2026-01-15 02:14:43.68	13.56	5.87	-47.9	-61.4	3.8	8.47e-01	0	38	104	0	66	18015
2026-01-15 02:14:44.67	13.53	5.94	-47.9	-61.3	3.8	8.48e-01	0	37	104	0	66	17757
2026-01-15 02:14:45.67	13.51	6.02	-47.9	-61.2	3.8	8.46e-01	0	38	104	0	66	17672
2026-01-15 02:14:46.67	13.49	6.09	-47.9	-61.0	3.8	8.46e-01	0	38	104	0	66	17253
2026-01-15 02:14:47.66	13.46	6.16	-47.8	-60.9	3.8	8.47e-01	0	38	104	0	66	17008
2026-01-15 02:14:48.66	13.44	6.24	-47.8	-60.7	3.8	8.46e-01	0	38	104	0	66	16637
2026-01-15 02:14:49.66	13.42	6.31	-47.8	-60.6	3.9	8.47e-01	0	38	104	0	66	16460
2026-01-15 02:14:50.66	13.39	6.38	-47.8	-60.6	3.8	8.48e-01	0	38	104	0	66	16396
2026-01-15 02:14:51.65	13.37	6.46	-47.8	-60.6	3.8	8.47e-01	0	38	104	0	66	16317
2026-01-15 02:14:52.65	13.35	6.53	-47.8	-60.7	3.9	8.47e-01	0	38	104	0	66	16642
2026-01-15 02:14:53.65	13.32	6.61	-47.8	-60.9	3.8	8.45e-01	0	38	104	0	66	17064
2026-01-15 02:14:54.64	13.30	6.68	-47.9	-61.4	3.8	8.46e-01	0	38	104	0	66	17956
2026-01-15 02:14:55.64	13.28	6.76	-47.9	-61.7	3.8	8.47e-01	0	38	104	0	66	18720
2026-01-15 02:14:56.64	13.25	6.83	-48.0	-62.1	3.8	8.47e-01	0	38	104	0	66	19507
2026-01-15 02:14:57.64	13.23	6.91	-47.9	-62.3	3.8	8.47e-01	0	38	104	0	66	19865
2026-01-15 02:14:58.63	13.20	6.98	-47.9	-62.1	3.8	8.48e-01	0	38	104	0	66	19534
2026-01-15 02:14:59.63	13.18	7.06	-47.9	-61.4	3.8	8.46e-01	0	38	104	0	66	18045
2026-01-15 02:15:00.63	13.15	7.13	-47.8	-60.4	3.8	8.46e-01	0	38	104	0	66	15960
2026-01-15 02:15:01.63	13.13	7.21	-47.7	-58.9	4.1	8.43e-01	0	38	0	0	66	13462
2026-01-15 02:15:02.63	13.10	7.29	-47.5	-57.5	4.6	8.22e-01	0	38	0	0	66	11454
2026-01-15 02:15:03.62	13.08	7.36	-47.3	-56.2	5.2	7.63e-01	0	38	0	0	66	9911
2026-01-15 02:15:04.62	13.05	7.44	-47.1	-55.1	6.1	4.64e-01	0	38	0	2097152	66	8694
2026-01-15 02:15:05.62	13.03	7.52	-46.8	-53.9	7.0	2.12e-01	0	38	0	8388608	65	8028
2026-01-15 02:15:06.62	13.00	7.60	-46.6	-53.1	7.7	1.17e-01	0	38	0	13631488	65	7346
2026-01-15 02:15:07.62	12.97	7.67	-46.3	-52.2	8.7	5.20e-02	0	38	0	19922944	64	6986
2026-01-15 02:15:08.61	12.95	7.75	-46.0	-51.5	9.4	2.84e-02	0	38	0	25165824	64	6459
2026-01-15 02:15:09.61	12.92	7.83	-45.8	-51.0	10.0	1.33e-02	0	38	0	30408704	63	6433
2026-01-15 02:15:10.60	12.90	7.91	-45.5	-50.3	10.8	4.31e-03	0	38	0	35651584	63	5925
2026-01-15 02:15:11.60	12.87	7.98	-45.3	-49.8	11.3	2.41e-03	0	38	0	41943040	62	5938
2026-01-15 02:15:12.59	12.84	8.06	-45.0	-49.2	11.9	7.16e-04	0	38	0	47185920	62	5552
2026-01-15 02:15:13.59	12.82	8.14	-44.7	-48.7	12.4	3.38e-04	0	39	0	52428800	61	5555
2026-01-15 02:15:14.59	12.79	8.22	-44.5	-48.3	12.7	1.19e-04	0	39	0	58720256	61	5319
2026-01-15 02:15:15.58	12.76	8.30	-44.3	-48.0	13.0	5.72e-05	0	39	0	63963136	60	5449
2026-01-15 02:15:16.58	12.73	8.38	-44.2	-47.9	13.2	5.72e-05	0	39	0	70254592	60	5370
2026-01-15 02:15:17.58	12.71	8.46	-44.2	-47.8	13.3	3.77e-05	0	39	0	75497472	60	5320
2026-01-15 02:15:18.58	12.68	8.54	-44.1	-47.7	13.3	3.31e-05	0	39	0	80740352	60	5274
2026-01-15 02:15:19.58	12.65	8.62	-44.3	-48.0	13.1	5.03e-05	0	39	0	87031808	60	5442
2026-01-15 02:15:20.58	12.62	8.70	-44.5	-48.4	12.7	9.15e-05	0	39	0	92274688	60	5684
2026-01-15 02:15:21.58	12.59	8.78	-44.9	-49.0	12.0	3.36e-04	0	39	0	97517568	60	6117
2026-01-15 02:15:22.58	12.56	8.87	-45.3	-49.8	11.2	1.08e-03	0	39	0	103809024	61	6304
2026-01-15 02:15:23.57	12.54	8.95	-45.8	-50.8	10.2	4.12e-03	0	39	0	109051904	62	6704
2026-01-15 02:15:24.57	12.51	9.03	-46.4	-52.2	8.7	2.67e-02	0	39	0	114294784	63	7452
2026-01-15 02:15:25.56	12.48	9.11	-47.1	-54.7	6.3	1.07e-01	0	39	0	120586240	64	9364
2026-01-15 02:15:26.56	12.45	9.19	-47.9	-57.4	4.6	7.89e-01	0	39	0	122683392	66	11345
2026-01-15 02:15:27.56	12.42	9.27	-46.4	-52.6	8.1	7.92e-01	0	39	0	123731968	65	6949
2026-01-15 02:15:28.56	12.39	9.36	-43.0	-46.0	15.0	3.54e-04	0	39	0	128974848	58	4826
2026-01-15 02:15:29.55	12.36	9.44	-44.8	-49.1	12.2	0.00e+00	0	39	0	134217728	60	6175
2026-01-15 02:15:30.55	12.33	9.52	-44.6	-48.7	12.1	7.75e-01	0	39	0	137363456	61	5554
2026-01-15 02:15:31.55	12.30	9.61	-42.0	-44.6	16.5	0.00e+00	0	39	0	143654912	56	4630
2026-01-15 02:15:32.55	12.27	9.69	-41.9	-44.5	16.5	0.00e+00	0	39	0	148897792	55	4817
2026-01-15 02:15:33.54	12.24	9.78	-41.6	-44.2	16.8	0.00e+00	0	39	0	154140672	55	4665
2026-01-15 02:15:34.54	12.21	9.86	-41.5	-44.0	17.0	0.00e+00	0	39	0	160432128	55	4555
2026-01-15 02:15:35.54	12.18	9.95	-41.4	-43.9	17.0	0.00e+00	0	39	0	165675008	54	4786
2026-01-15 02:15:36.53	12.15	10.03	-41.5	-44.0	17.0	0.00e+00	0	39	0	170917888	54	4830
2026-01-15 02:15:37.53	12.11	10.12	-41.3	-43.8	17.1	0.00e+00	0	39	0	177209344	54	4711
2026-01-15 02:15:38.53	12.08	10.20	-41.3	-43.7	17.2	0.00e+00	0	39	0	182452224	54	4687
2026-01-15 02:15:39.53	12.05	10.29	-41.3	-43.7	17.3	0.00e+00	0	39	0	187695104	54	4677
2026-01-15 02:15:40.53	12.02	10.37	-41.2	-43.6	17.3	0.00e+00	0	39	0	193986560	54	4641
2026-01-15 02:15:41.53	11.99	10.46	-41.2	-43.6	17.3	0.00e+00	0	39	0	199229440	54	4631
2026-01-15 02:15:42.53	11.95	10.55	-41.2	-43.7	17.3	0.00e+00	0	39	0	205520896	54	4652
2026-01-15 02:15:43.53	11.92	10.63	-41.2	-43.6	17.3	0.00e+00	0	39	0	210763776	54	4633
2026-01-15 02:15:44.53	11.89	10.72	-41.1	-43.5	17.4	0.00e+00	0	39	0	216006656	54	4597
2026-01-15 02:15:45.53	11.85	10.81	-41.2	-43.6	17.4	0.00e+00	0	39	0	222298112	54	4608
2026-01-15 02:15:46.53	11.82	10.90	-41.2	-43.6	17.3	0.00e+00	0	39	0	227540992	54	4641
2026-01-15 02:15:47.53	11.79	10.99	-41.2	-43.6	17.4	0.00e+00	0	39	0	232783872	54	4618
2026-01-15 02:15:48.53	11.75	11.08	-41.2	-43.7	17.3	0.00e+00	0	39	0	239075328	54	4660
2026-01-15 02:15:49.53	11.72	11.16	-41.2	-43.7	17.3	0.00e+00	0	39	0	244318208	54	4667
2026-01-15 02:15:50.53	11.68	11.25	-41.1	-43.5	17.4	0.00e+00	0	39	0	249561088	54	4584
2026-01-15 02:15:51.53	11.65	11.34	-41.2	-43.5	17.5	0.00e+00	0	39	0	255852544	54	4583
2026-01-15 02:15:52.53	11.62	11.43	-41.0	-43.4	17.6	0.00e+00	0	39	0	261095424	54	4505
2026-01-15 02:15:53.53	11.58	11.52	-41.0	-43.3	17.7	0.00e+00	0	39	0	267386880	53	4718
2026-01-15 02:15:54.53	11.55	11.61	-41.0	-43.4	17.6	0.00e+00	0	39	0	272629760	53	4781
2026-01-15 02:15:55.53	11.51	11.71	-40.9	-43.3	17.7	0.00e+00	0	39	0	277872640	53	4709
2026-01-15 02:15:56.53	11.47	11.80	-40.9	-43.2	17.8	0.00e+00	0	39	0	284164096	53	4652
2026-01-15 02:15:57.53	11.44	11.89	-40.8	-43.1	17.9	0.00e+00	0	39	0	289406976	53	4632
2026-01-15 02:15:58.53	11.40	11.98	-40.9	-43.1	17.8	0.00e+00	0	39	0	294649856	53	4644
2026-01-15 02:15:59.53	11.36	12.07	-40.8	-43.0	17.9	0.00e+00	0	39	0	300941312	53	4583
2026-01-15 02:16:00.53	11.33	12.17	-40.8	-43.0	18.0	0.00e+00	0	39	0	306184192	53	4570
2026-01-15 02:16:01.54	11.29	12.26	-40.8	-43.0	17.9	0.00e+00	0	39	0	312475648	53	4575
2026-01-15 02:16:02.54	11.25	12.35	-40.8	-43.0	17.9	0.00e+00	0	39	0	317718528	53	4594
2026-01-15 02:16:03.54	11.22	12.45	-40.7	-43.0	18.0	0.00e+00	0	40	0	322961408	53	4554
2026-01-15 02:16:04.54	11.18	12.54	-40.7	-42.9	18.0	0.00e+00	0	39	0	329252864	53	4524
2026-01-15 02:16:05.54	11.14	12.64	-40.7	-43.0	18.0	0.00e+00	0	39	0	334495744	53	4558
2026-01-15 02:16:06.54	11.10	12.73	-40.7	-43.0	18.0	0.00e+00	0	39	0	339738624	53	4572
2026-01-15 02:16:07.54	11.06	12.83	-40.8	-43.1	17.9	0.00e+00	0	39	0	346030080	53	4614
2026-01-15 02:16:08.54	11.02	12.92	-40.7	-43.0	18.0	0.00e+00	0	39	0	351272960	53	4559
2026-01-15 02:16:09.54	10.98	13.02	-40.7	-42.9	18.0	0.00e+00	0	39	0	356515840	53	4531
2026-01-15 02:16:10.54	10.94	13.11	-40.7	-42.9	18.1	0.00e+00	0	39	0	362807296	53	4536
2026-01-15 02:16:11.55	10.90	13.21	-40.7	-42.9	18.1	0.00e+00	0	39	0	368050176	53	4523
2026-01-15 02:16:12.55	10.86	13.31	-40.7	-43.0	18.0	0.00e+00	0	39	0	374341632	53	4550
2026-01-15 02:16:13.54	10.82	13.40	-40.6	-42.9	18.1	0.00e+00	0	39	0	379584512	53	4523
2026-01-15 02:16:14.54	10.78	13.50	-40.7	-43.0	18.0	0.00e+00	0	39	0	384827392	53	4575
2026-01-15 02:16:15.54	10.74	13.60	-40.8	-43.1	18.0	0.00e+00	0	39	0	391118848	53	4599
2026-01-15 02:16:16.54	10.70	13.70	-40.7	-43.0	18.0	0.00e+00	0	39	0	396361728	53	4561
2026-01-15 02:16:17.54	10.66	13.80	-40.6	-42.9	18.1	0.00e+00	0	39	0	401604608	53	4496
2026-01-15 02:16:18.54	10.62	13.90	-40.7	-43.0	18.1	0.00e+00	0	39	0	407896064	53	4552
2026-01-15 02:16:19.54	10.58	14.00	-40.7	-42.9	18.1	0.00e+00	0	39	0	413138944	53	4516
2026-01-15 02:16:20.54	10.53	14.10	-40.7	-42.9	18.1	0.00e+00	0	39	0	418381824	53	4496
2026-01-15 02:16:21.54	10.49	14.20	-40.6	-42.8	18.2	0.00e+00	0	39	0	424673280	53	4485
2026-01-15 02:16:22.53	10.45	14.30	-40.6	-42.8	18.2	0.00e+00	0	39	0	429916160	53	4465
2026-01-15 02:16:23.53	10.40	14.40	-40.6	-42.8	18.2	0.00e+00	0	39	0	436207616	53	4486
2026-01-15 02:16:24.53	10.36	14.50	-40.6	-42.8	18.2	0.00e+00	0	39	0	441450496	53	4473
2026-01-15 02:16:25.53	10.32	14.60	-40.6	-42.8	18.3	0.00e+00	0	39	0	446693376	53	4449
2026-01-15 02:16:26.54	10.27	14.70	-40.5	-42.6	18.4	0.00e+00	0	39	0	452984832	53	4382
2026-01-15 02:16:27.53	10.23	14.81	-40.5	-42.7	18.3	0.00e+00	0	39	0	458227712	52	4660
2026-01-15 02:16:28.54	10.18	14.91	-40.5	-42.7	18.3	0.00e+00	0	39	0	463470592	52	4679
2026-01-15 02:16:29.54	10.14	15.01	-40.4	-42.6	18.4	0.00e+00	0	39	0	469762048	52	4619
2026-01-15 02:16:30.54	10.09	15.12	-40.4	-42.5	18.5	0.00e+00	0	39	0	475004928	52	4574
2026-01-15 02:16:31.55	10.04	15.22	-40.4	-42.5	18.5	0.00e+00	0	39	0	480247808	52	4590
2026-01-15 02:16:32.55	10.00	15.33	-40.3	-42.5	18.6	0.00e+00	0	39	0	486539264	52	4557
2026-01-15 02:16:33.55	9.95	15.43	-40.3	-42.4	18.6	0.00e+00	0	39	0	491782144	52	4521
2026-01-15 02:16:34.55	9.90	15.54	-40.3	-42.4	18.6	0.00e+00	0	39	0	498073600	52	4544
2026-01-15 02:16:35.55	9.85	15.65	-40.3	-42.4	18.6	0.00e+00	0	39	0	503316480	52	4514
2026-01-15 02:16:36.55	9.81	15.75	-40.2	-42.3	18.7	0.00e+00	0	39	0	508559360	52	4464
2026-01-15 02:16:37.54	9.76	15.86	-40.1	-42.2	18.8	0.00e+00	0	40	0	514850816	52	4426
2026-01-15 02:16:38.54	9.71	15.97	-40.2	-42.2	18.8	0.00e+00	0	39	0	520093696	52	4434
2026-01-15 02:16:39.54	9.66	16.08	-40.2	-42.3	18.8	0.00e+00	0	39	0	525336576	52	4450
2026-01-15 02:16:40.54	9.61	16.18	-40.2	-42.3	18.7	0.00e+00	0	39	0	531628032	52	4481
2026-01-15 02:16:41.54	9.56	16.29	-40.2	-42.3	18.7	0.00e+00	0	39	0	536870912	52	4451
2026-01-15 02:16:42.55	9.51	16.40	-40.2	-42.3	18.7	0.00e+00	0	40	0	542113792	52	4469
2026-01-15 02:16:43.55	9.46	16.51	-40.1	-42.2	18.8	0.00e+00	0	40	0	548405248	52	4411
2026-01-15 02:16:44.55	9.41	16.62	-40.1	-42.1	18.9	0.00e+00	0	39	0	553648128	52	4368
2026-01-15 02:16:45.55	9.36	16.74	-40.0	-42.1	19.0	0.00e+00	0	40	0	559939584	52	4345
2026-01-15 02:16:46.55	9.31	16.85	-40.0	-42.0	19.1	0.00e+00	0	39	0	565182464	51	4557
2026-01-15 02:16:47.55	9.25	16.96	-40.0	-42.0	19.1	0.00e+00	0	40	0	570425344	51	4582
2026-01-15 02:16:48.55	9.20	17.07	-39.9	-41.9	19.2	0.00e+00	0	39	0	576716800	51	4517
2026-01-15 02:16:49.55	9.15	17.18	-39.8	-41.7	19.3	0.00e+00	0	40	0	581959680	51	4427
2026-01-15 02:16:50.56	9.09	17.30	-39.8	-41.7	19.3	0.00e+00	0	40	0	587202560	51	4416
2026-01-15 02:16:51.55	9.04	17.41	-39.8	-41.7	19.3	0.00e+00	0	40	0	593494016	51	4430
2026-01-15 02:16:52.56	8.99	17.53	-39.8	-41.7	19.3	0.00e+00	0	40	0	598736896	51	4421
2026-01-15 02:16:53.55	8.93	17.64	-39.7	-41.7	19.4	0.00e+00	0	40	0	603979776	51	4407
2026-01-15 02:16:54.55	8.88	17.76	-39.7	-41.6	19.5	0.00e+00	0	40	0	610271232	51	4362
2026-01-15 02:16:55.56	8.82	17.87	-39.6	-41.5	19.5	0.00e+00	0	40	0	615514112	51	4326
2026-01-15 02:16:56.56	8.76	17.99	-39.5	-41.4	19.6	0.00e+00	0	40	0	621805568	51	4268
2026-01-15 02:16:57.56	8.71	18.11	-39.6	-41.5	19.5	0.00e+00	0	40	0	627048448	51	4321
2026-01-15 02:16:58.56	8.65	18.22	-39.6	-41.5	19.6	0.00e+00	0	39	0	632291328	51	4315
2026-01-15 02:16:59.56	8.59	18.34	-39.6	-41.5	19.6	0.00e+00	0	40	0	638582784	51	4320
2026-01-15 02:17:00.56	8.53	18.46	-39.5	-41.4	19.7	0.00e+00	0	40	0	643825664	50	4522
2026-01-15 02:17:01.57	8.47	18.58	-39.5	-41.5	19.6	0.00e+00	0	40	0	650117120	50	4546
2026-01-15 02:17:02.57	8.41	18.70	-39.4	-41.4	19.7	0.00e+00	0	39	0	655360000	50	4507
2026-01-15 02:17:03.57	8.36	18.82	-39.5	-41.4	19.6	0.00e+00	0	39	0	660602880	50	4544
2026-01-15 02:17:04.57	8.30	18.94	-39.4	-41.3	19.7	0.00e+00	0	40	0	666894336	50	4493
2026-01-15 02:17:05.57	8.23	19.06	-39.3	-41.3	19.8	0.00e+00	0	39	0	672137216	50	4452
2026-01-15 02:17:06.57	8.17	19.18	-39.3	-41.2	19.8	0.00e+00	0	40	0	677380096	50	4414
2026-01-15 02:17:07.57	8.11	19.31	-39.3	-41.2	19.8	0.00e+00	0	40	0	683671552	50	4424
2026-01-15 02:17:08.57	8.05	19.43	-39.3	-41.2	19.8	0.00e+00	0	40	0	688914432	50	4428
2026-01-15 02:17:09.57	7.99	19.55	-39.3	-41.2	19.9	0.00e+00	0	39	0	695205888	50	4413
2026-01-15 02:17:10.57	7.92	19.68	-39.3	-41.2	19.9	0.00e+00	0	39	0	700448768	50	4412
2026-01-15 02:17:11.57	7.86	19.80	-39.2	-41.1	19.9	0.00e+00	0	39	0	705691648	50	4370
2026-01-15 02:17:12.57	7.80	19.93	-39.2	-41.1	19.9	0.00e+00	0	39	0	711983104	50	4362
2026-01-15 02:17:13.57	7.73	20.05	-39.2	-41.1	19.9	0.00e+00	0	40	0	717225984	50	4389
2026-01-15 02:17:14.57	7.66	20.18	-39.2	-41.1	20.0	0.00e+00	0	39	0	722468864	50	4354
2026-01-15 02:17:15.57	7.60	20.31	-39.2	-41.1	20.0	0.00e+00	0	39	0	728760320	50	4370
2026-01-15 02:17:16.57	7.53	20.44	-39.2	-41.1	19.9	0.00e+00	0	39	0	734003200	50	4371
2026-01-15 02:17:17.57	7.46	20.56	-39.2	-41.1	20.0	0.00e+00	0	40	0	739246080	50	4370
2026-01-15 02:17:18.57	7.40	20.69	-39.2	-41.1	20.0	0.00e+00	0	40	0	745537536	50	4345
2026-01-15 02:17:19.57	7.33	20.82	-39.3	-41.1	19.9	0.00e+00	0	40	0	750780416	50	4382
2026-01-15 02:17:20.57	7.26	20.95	-39.2	-41.1	20.0	0.00e+00	0	40	0	757071872	50	4354
2026-01-15 02:17:21.57	7.19	21.08	-39.2	-41.1	20.0	0.00e+00	0	40	0	762314752	50	4363
2026-01-15 02:17:22.58	7.12	21.22	-39.3	-41.1	19.9	0.00e+00	0	40	0	767557632	50	4384
2026-01-15 02:17:23.58	7.05	21.35	-39.2	-41.0	20.0	0.00e+00	0	40	0	773849088	50	4337
2026-01-15 02:17:24.58	6.98	21.48	-39.2	-41.1	20.0	0.00e+00	0	40	0	779091968	50	4344
2026-01-15 02:17:25.58	6.90	21.62	-39.2	-41.0	20.0	0.00e+00	0	40	0	784334848	50	4340
2026-01-15 02:17:26.59	6.83	21.75	-39.2	-41.0	20.1	0.00e+00	0	40	0	790626304	50	4314
2026-01-15 02:17:27.59	6.76	21.89	-39.2	-41.0	20.1	0.00e+00	0	40	0	795869184	50	4325
2026-01-15 02:17:28.59	6.68	22.02	-39.1	-40.9	20.1	0.00e+00	0	40	0	801112064	50	4282
2026-01-15 02:17:29.59	6.61	22.16	-39.1	-40.9	20.2	0.00e+00	0	39	0	807403520	50	4257
2026-01-15 02:17:30.58	6.53	22.29	-39.0	-40.8	20.3	0.00e+00	0	40	0	812646400	50	4218
2026-01-15 02:17:31.59	6.46	22.43	-38.9	-40.7	20.3	0.00e+00	0	40	0	818937856	49	4425
2026-01-15 02:17:32.57	6.38	22.57	-38.8	-40.6	20.4	0.00e+00	0	39	0	824180736	49	4347
2026-01-15 02:17:33.57	6.30	22.71	-38.6	-40.4	20.6	0.00e+00	0	40	0	829423616	49	4257
2026-01-15 02:17:34.57	6.22	22.85	-38.6	-40.3	20.7	0.00e+00	0	40	0	835715072	49	4232
2026-01-15 02:17:35.57	6.14	22.99	-38.6	-40.4	20.6	0.00e+00	0	40	0	840957952	49	4266
2026-01-15 02:17:36.56	6.07	23.13	-38.6	-40.3	20.7	0.00e+00	0	40	0	846200832	49	4211
2026-01-15 02:17:37.56	5.98	23.27	-38.6	-40.3	20.7	0.00e+00	0	40	0	852492288	49	4217
2026-01-15 02:17:38.56	5.90	23.41	-38.6	-40.3	20.7	0.00e+00	0	40	0	857735168	49	4235
2026-01-15 02:17:39.56	5.82	23.55	-38.5	-40.3	20.7	0.00e+00	0	40	0	862978048	49	4197
2026-01-15 02:17:40.56	5.74	23.70	-38.6	-40.4	20.6	0.00e+00	0	40	0	869269504	49	4244
2026-01-15 02:17:41.56	5.65	23.84	-38.7	-40.5	20.6	0.00e+00	0	40	0	874512384	49	4296
2026-01-15 02:17:42.56	5.57	23.99	-38.6	-40.4	20.6	0.00e+00	0	40	0	880803840	49	4268
2026-01-15 02:17:43.56	5.48	24.13	-38.7	-40.5	20.5	0.00e+00	0	39	0	886046720	49	4302
2026-01-15 02:17:44.56	5.40	24.28	-38.6	-40.4	20.6	0.00e+00	0	39	0	891289600	49	4266
2026-01-15 02:17:45.56	5.31	24.43	-38.7	-40.4	20.6	0.00e+00	0	40	0	897581056	49	4286
2026-01-15 02:17:46.56	5.22	24.58	-38.6	-40.4	20.7	0.00e+00	0	40	0	902823936	49	4251
2026-01-15 02:17:47.56	5.13	24.73	-38.6	-40.3	20.7	0.00e+00	0	40	0	908066816	49	4227
2026-01-15 02:17:48.56	5.04	24.88	-38.6	-40.3	20.7	0.00e+00	0	40	0	914358272	49	4233
2026-01-15 02:17:49.56	4.95	25.03	-38.5	-40.3	20.7	0.00e+00	0	39	0	919601152	49	4203
2026-01-15 02:17:50.56	4.86	25.18	-38.5	-40.2	20.8	0.00e+00	0	40	0	925892608	49	4190
2026-01-15 02:17:51.56	4.77	25.33	-38.4	-40.1	20.9	0.00e+00	0	39	0	931135488	48	4383
2026-01-15 02:17:52.56	4.67	25.48	-38.4	-40.1	20.9	0.00e+00	0	40	0	936378368	48	4387
2026-01-15 02:17:53.56	4.58	25.64	-38.4	-40.1	20.9	0.00e+00	0	40	0	942669824	48	4357
2026-01-15 02:17:54.56	4.49	25.79	-38.4	-40.1	20.9	0.00e+00	0	40	0	947912704	48	4380
2026-01-15 02:17:55.56	4.39	25.95	-38.4	-40.1	20.9	0.00e+00	0	40	0	953155584	48	4378
2026-01-15 02:17:56.57	4.29	26.11	-38.2	-40.0	21.0	0.00e+00	0	40	0	959447040	48	4293
2026-01-15 02:17:57.57	4.19	26.26	-38.2	-40.0	21.0	0.00e+00	0	40	0	964689920	48	4292
2026-01-15 02:17:58.57	4.09	26.42	-38.2	-39.9	21.0	0.00e+00	0	40	0	969932800	48	4276
2026-01-15 02:17:59.57	3.99	26.58	-38.2	-39.9	21.0	0.00e+00	0	39	0	976224256	48	4279
2026-01-15 02:18:00.57	3.89	26.74	-38.3	-40.0	21.0	0.00e+00	0	40	0	981467136	48	4320
2026-01-15 02:18:01.57	3.79	26.90	-38.4	-40.1	20.9	0.00e+00	0	40	0	987758592	48	4385
2026-01-15 02:18:02.57	3.68	27.06	-38.4	-40.2	20.8	0.00e+00	0	40	0	993001472	48	4409
2026-01-15 02:18:03.57	3.58	27.22	-38.5	-40.3	20.8	0.00e+00	0	40	0	998244352	48	4449
2026-01-15 02:18:04.57	3.47	27.39	-38.5	-40.3	20.8	0.00e+00	0	40	0	1004535808	48	4448
2026-01-15 02:18:05.57	3.37	27.55	-38.6	-40.3	20.7	0.00e+00	0	40	0	1009778688	48	4485
2026-01-15 02:18:06.57	3.26	27.72	-38.5	-40.3	20.7	0.00e+00	0	40	0	1015021568	48	4466
2026-01-15 02:18:07.57	3.15	27.88	-38.4	-40.2	20.8	0.00e+00	0	40	0	1021313024	48	4410
2026-01-15 02:18:08.57	3.04	28.05	-38.4	-40.2	20.8	0.00e+00	0	40	0	1026555904	48	4400
2026-01-15 02:18:09.58	2.93	28.22	-38.4	-40.1	20.9	0.00e+00	0	39	0	1031798784	48	4375
2026-01-15 02:18:10.58	2.81	28.39	-38.4	-40.1	20.9	0.00e+00	0	40	0	1038090240	48	4377
2026-01-15 02:18:11.58	2.70	28.55	-38.3	-40.0	20.9	0.00e+00	0	40	0	1043333120	48	4339
2026-01-15 02:18:12.57	2.59	28.72	-38.2	-39.9	21.1	0.00e+00	0	40	0	1049624576	48	4272
2026-01-15 02:18:13.57	2.47	28.89	-38.3	-40.0	21.0	0.00e+00	0	40	0	1054867456	48	4310
2026-01-15 02:18:14.57	2.35	29.07	-38.3	-40.1	20.9	0.00e+00	0	40	0	1060110336	48	4342
2026-01-15 02:18:15.57	2.23	29.24	-38.3	-40.1	20.9	0.00e+00	0	40	0	1066401792	48	4356
2026-01-15 02:18:16.57	2.11	29.41	-38.4	-40.2	20.8	0.00e+00	0	40	0	1071644672	48	4397
2026-01-15 02:18:17.57	1.99	29.59	-38.4	-40.1	20.9	0.00e+00	0	40	0	1076887552	48	4387
2026-01-15 02:18:18.57	1.87	29.76	-38.4	-40.2	20.8	0.00e+00	0	40	0	1083179008	48	4414
2026-01-15 02:18:19.57	1.74	29.94	-38.5	-40.2	20.8	0.00e+00	0	40	0	1088421888	48	4429
2026-01-15 02:18:20.58	1.61	30.12	-38.5	-40.2	20.8	0.00e+00	0	40	0	1093664768	48	4428
2026-01-15 02:18:21.58	1.49	30.30	-38.4	-40.1	20.9	0.00e+00	0	40	0	1099956224	48	4386
2026-01-15 02:18:22.58	1.36	30.48	-38.4	-40.1	20.9	0.00e+00	0	40	0	1105199104	48	4377
2026-01-15 02:18:23.58	1.23	30.66	-38.3	-40.0	21.0	0.00e+00	0	40	0	1111490560	48	4311
2026-01-15 02:18:24.57	1.10	30.84	-38.3	-40.0	21.0	0.00e+00	0	39	0	1116733440	48	4334
2026-01-15 02:18:25.58	0.96	31.02	-38.3	-40.0	21.0	0.00e+00	0	40	0	1121976320	48	4325
2026-01-15 02:18:26.58	0.83	31.21	-38.0	-39.8	21.2	0.00e+00	0	40	0	1128267776	48	4198
2026-01-15 02:18:27.58	0.69	31.39	-37.8	-39.5	21.2	0.00e+00	0	40	0	1133510656	47	4316
2026-01-15 02:18:28.58	0.55	31.58	-37.9	-39.6	21.1	0.00e+00	0	40	0	1138753536	47	4356
2026-01-15 02:18:29.58	0.41	31.76	-38.0	-39.7	21.0	0.00e+00	0	40	0	1145044992	47	4427
2026-01-15 02:18:30.59	0.27	31.95	-38.0	-39.8	21.0	0.00e+00	0	40	0	1150287872	47	4443
2026-01-15 02:18:31.59	0.13	32.14	-38.2	-39.9	20.9	0.00e+00	0	40	0	1155530752	47	4529
2026-01-15 02:18:32.59	359.98	32.33	-38.1	-39.9	20.9	0.00e+00	0	40	0	1161822208	47	4503
2026-01-15 02:18:33.59	359.84	32.52	-38.2	-39.9	20.9	0.00e+00	0	40	0	1167065088	47	4526
2026-01-15 02:18:34.59	359.69	32.71	-38.1	-39.9	20.9	0.00e+00	0	40	0	1173356544	47	4497
2026-01-15 02:18:35.59	359.54	32.90	-37.9	-39.6	21.2	0.00e+00	0	40	0	1178599424	47	4353
2026-01-15 02:18:36.59	359.38	33.10	-37.8	-39.5	21.2	0.00e+00	0	40	0	1183842304	47	4331
2026-01-15 02:18:37.60	359.23	33.29	-37.6	-39.3	21.4	0.00e+00	0	40	0	1190133760	47	4236
2026-01-15 02:18:38.60	359.07	33.49	-37.7	-39.4	21.3	0.00e+00	0	40	0	1195376640	47	4248
2026-01-15 02:18:39.60	358.92	33.68	-37.6	-39.3	21.4	0.00e+00	0	39	0	1201668096	47	4231
2026-01-15 02:18:40.60	358.76	33.88	-37.7	-39.4	21.3	0.00e+00	0	40	0	1206910976	47	4288
2026-01-15 02:18:41.60	358.59	34.08	-37.8	-39.6	21.2	0.00e+00	0	40	0	1212153856	47	4350
2026-01-15 02:18:42.60	358.43	34.28	-37.9	-39.7	21.1	0.00e+00	0	40	0	1218445312	47	4400
2026-01-15 02:18:43.60	358.26	34.48	-38.0	-39.8	21.0	0.00e+00	0	40	0	1223688192	47	4444
2026-01-15 02:18:44.60	358.10	34.68	-38.1	-39.9	20.9	0.00e+00	0	40	0	1228931072	47	4504
2026-01-15 02:18:45.60	357.93	34.88	-38.1	-39.9	20.9	0.00e+00	0	40	0	1235222528	47	4530
2026-01-15 02:18:46.60	357.75	35.09	-38.2	-39.9	20.9	0.00e+00	0	40	0	1240465408	47	4541
2026-01-15 02:18:47.60	357.58	35.29	-38.1	-39.9	20.9	0.00e+00	0	40	0	1246756864	47	4495
2026-01-15 02:18:48.60	357.40	35.50	-38.0	-39.8	21.0	0.00e+00	0	40	0	1251999744	47	4444
2026-01-15 02:18:49.60	357.22	35.70	-37.8	-39.5	21.2	0.00e+00	0	40	0	1257242624	47	4330
2026-01-15 02:18:50.60	357.04	35.91	-37.6	-39.4	21.3	0.00e+00	0	40	0	1263534080	47	4258
2026-01-15 02:18:51.60	356.86	36.12	-37.7	-39.4	21.3	0.00e+00	0	40	0	1268776960	47	4264
2026-01-15 02:18:52.60	356.67	36.33	-37.6	-39.3	21.4	0.00e+00	0	40	0	1274019840	47	4229
2026-01-15 02:18:53.60	356.48	36.54	-37.5	-39.2	21.5	0.00e+00	0	40	0	1280311296	47	4170
2026-01-15 02:18:54.60	356.29	36.75	-37.6	-39.3	21.4	0.00e+00	0	40	0	1285554176	47	4221
2026-01-15 02:18:55.60	356.10	36.96	-37.6	-39.3	21.4	0.00e+00	0	40	0	1290797056	47	4202
2026-01-15 02:18:56.60	355.90	37.18	-37.7	-39.4	21.3	0.00e+00	0	40	0	1297088512	47	4259
2026-01-15 02:18:57.60	355.70	37.39	-37.7	-39.4	21.3	0.00e+00	0	40	0	1302331392	47	4283
2026-01-15 02:18:58.60	355.50	37.61	-37.7	-39.4	21.3	0.00e+00	0	40	0	1308622848	47	4285
2026-01-15 02:18:59.60	355.30	37.82	-37.8	-39.5	21.3	0.00e+00	0	40	0	1313865728	47	4309
2026-01-15 02:19:00.60	355.09	38.04	-37.6	-39.3	21.4	0.00e+00	0	40	0	1319108608	47	4205
2026-01-15 02:19:01.60	354.88	38.26	-37.5	-39.2	21.4	0.00e+00	0	40	0	1325400064	47	4186
2026-01-15 02:19:02.60	354.67	38.48	-37.5	-39.2	21.5	0.00e+00	0	40	0	1330642944	47	4175
2026-01-15 02:19:03.60	354.45	38.70	-37.6	-39.3	21.4	0.00e+00	0	40	0	1335885824	47	4211
2026-01-15 02:19:04.60	354.23	38.92	-37.8	-39.5	21.3	0.00e+00	0	40	0	1342177280	47	4309
2026-01-15 02:19:05.61	354.01	39.15	-37.8	-39.6	21.2	0.00e+00	0	40	0	1347420160	47	4343
2026-01-15 02:19:06.60	353.79	39.37	-37.9	-39.6	21.1	0.00e+00	0	40	0	1352663040	47	4378
2026-01-15 02:19:07.61	353.56	39.59	-37.9	-39.7	21.1	0.00e+00	0	40	0	1358954496	47	4395
2026-01-15 02:19:08.61	353.33	39.82	-38.1	-39.8	21.0	0.00e+00	0	40	0	1364197376	47	4465
2026-01-15 02:19:09.61	353.09	40.05	-38.0	-39.8	21.0	0.00e+00	0	40	0	1370488832	47	4455
2026-01-15 02:19:10.61	352.85	40.27	-38.1	-39.9	21.0	0.00e+00	0	40	0	1375731712	47	4498
2026-01-15 02:19:11.61	352.61	40.50	-38.0	-39.7	21.1	0.00e+00	0	40	0	1380974592	47	4417
2026-01-15 02:19:12.61	352.37	40.73	-38.0	-39.7	21.0	0.00e+00	0	40	0	1387266048	47	4436
2026-01-15 02:19:13.62	352.12	40.96	-38.0	-39.8	21.0	0.00e+00	0	40	0	1392508928	47	4446
2026-01-15 02:19:14.62	351.86	41.19	-38.0	-39.7	21.1	0.00e+00	0	40	0	1397751808	47	4432
2026-01-15 02:19:15.62	351.61	41.42	-38.1	-39.8	21.0	0.00e+00	0	40	0	1404043264	47	4475
2026-01-15 02:19:16.62	351.35	41.66	-38.2	-39.9	20.9	0.00e+00	0	40	0	1409286144	47	4537
2026-01-15 02:19:17.62	351.08	41.89	-38.2	-39.9	20.9	0.00e+00	0	40	0	1414529024	47	4532
2026-01-15 02:19:18.62	350.82	42.12	-38.2	-39.9	20.9	0.00e+00	0	40	0	1420820480	47	4529
2026-01-15 02:19:19.62	350.55	42.36	-38.1	-39.8	21.0	0.00e+00	0	40	0	1426063360	47	4477
2026-01-15 02:19:20.63	350.27	42.59	-38.0	-39.7	21.1	0.00e+00	0	40	0	1432354816	47	4427
2026-01-15 02:19:21.63	349.99	42.83	-38.0	-39.8	21.0	0.00e+00	0	40	0	1437597696	47	4452
2026-01-15 02:19:22.62	349.71	43.07	-38.1	-39.9	21.0	0.00e+00	0	40	0	1442840576	47	4495
2026-01-15 02:19:23.62	349.42	43.30	-38.2	-40.0	20.8	0.00e+00	0	40	0	1449132032	47	4564
2026-01-15 02:19:24.62	349.13	43.54	-38.3	-40.1	20.8	0.00e+00	0	40	0	1454374912	47	4614
2026-01-15 02:19:25.62	348.83	43.78	-38.4	-40.2	20.6	0.00e+00	0	40	0	1459617792	47	4702
2026-01-15 02:19:26.62	348.53	44.02	-38.4	-40.2	20.6	0.00e+00	0	40	0	1465909248	47	4674
2026-01-15 02:19:27.62	348.23	44.26	-38.4	-40.2	20.6	0.00e+00	0	40	0	1471152128	47	4686
2026-01-15 02:19:28.62	347.92	44.50	-38.2	-39.9	20.9	0.00e+00	0	40	0	1476395008	47	4517
2026-01-15 02:19:29.62	347.60	44.74	-38.1	-39.8	21.0	0.00e+00	0	40	0	1482686464	47	4491
2026-01-15 02:19:30.62	347.28	44.98	-38.1	-39.9	20.9	0.00e+00	0	40	0	1487929344	47	4518
2026-01-15 02:19:31.62	346.96	45.22	-38.2	-39.9	20.9	0.00e+00	0	40	0	1494220800	47	4519
2026-01-15 02:19:32.62	346.63	45.47	-38.2	-40.0	20.8	0.00e+00	0	40	0	1499463680	47	4566
2026-01-15 02:19:33.62	346.29	45.71	-38.1	-39.8	21.0	0.00e+00	0	40	0	1504706560	47	4492
2026-01-15 02:19:34.62	345.95	45.95	-38.3	-40.1	20.8	0.00e+00	0	40	0	1510998016	47	4615
2026-01-15 02:19:35.62	345.60	46.20	-38.4	-40.1	20.7	0.00e+00	0	40	0	1516240896	47	4636
2026-01-15 02:19:36.62	345.25	46.44	-38.4	-40.1	20.7	0.00e+00	0	40	0	1521483776	47	4635
2026-01-15 02:19:37.62	344.90	46.68	-38.5	-40.3	20.6	0.00e+00	0	40	0	1527775232	47	4740
2026-01-15 02:19:38.62	344.53	46.93	-38.5	-40.3	20.6	0.00e+00	0	40	0	1533018112	47	4706
2026-01-15 02:19:39.62	344.16	47.17	-38.3	-40.0	20.8	0.00e+00	0	40	0	1538260992	47	4589
2026-01-15 02:19:40.62	343.79	47.42	-38.2	-40.0	20.9	0.00e+00	0	40	0	1544552448	47	4557
2026-01-15 02:19:41.62	343.41	47.66	-38.2	-40.0	20.9	0.00e+00	0	40	0	1549795328	47	4559
2026-01-15 02:19:42.62	343.02	47.90	-38.4	-40.1	20.8	0.00e+00	0	40	0	1556086784	47	4626
2026-01-15 02:19:43.62	342.63	48.15	-38.3	-40.1	20.8	0.00e+00	0	40	0	1561329664	47	4615
2026-01-15 02:19:44.62	342.23	48.39	-38.3	-40.1	20.8	0.00e+00	0	40	0	1566572544	47	4603
2026-01-15 02:19:45.62	341.83	48.64	-38.4	-40.1	20.7	0.00e+00	0	39	0	1572864000	47	4648
2026-01-15 02:19:46.62	341.42	48.88	-38.7	-40.4	20.5	0.00e+00	0	40	0	1578106880	47	4800
2026-01-15 02:19:47.62	341.00	49.13	-38.6	-40.4	20.5	0.00e+00	0	40	0	1583349760	47	4782
2026-01-15 02:19:48.62	340.57	49.37	-38.9	-40.6	20.6	0.00e+00	0	40	0	1589641216	48	4627
2026-01-15 02:19:49.62	340.14	49.61	-39.1	-40.9	20.3	0.00e+00	0	40	0	1594884096	48	4775
2026-01-15 02:19:50.62	339.70	49.85	-39.3	-41.1	20.1	0.00e+00	0	40	0	1601175552	49	4623
2026-01-15 02:19:51.62	339.26	50.10	-39.3	-41.1	20.1	0.00e+00	0	40	0	1606418432	49	4614
2026-01-15 02:19:52.62	338.80	50.34	-39.0	-40.8	20.4	0.00e+00	0	40	0	1611661312	49	4457
2026-01-15 02:19:53.62	338.34	50.58	-38.9	-40.7	20.5	0.00e+00	0	40	0	1617952768	49	4407
2026-01-15 02:19:54.62	337.88	50.82	-39.1	-40.8	20.4	0.00e+00	0	40	0	1623195648	49	4491
2026-01-15 02:19:55.62	337.40	51.06	-39.2	-41.0	20.2	0.00e+00	0	40	0	1628438528	49	4562
2026-01-15 02:19:56.62	336.92	51.30	-39.1	-40.9	20.3	0.00e+00	0	40	0	1634729984	49	4514
2026-01-15 02:19:57.62	336.43	51.53	-39.1	-40.9	20.3	0.00e+00	0	40	0	1639972864	49	4505
2026-01-15 02:19:58.62	335.93	51.77	-39.0	-40.8	20.4	0.00e+00	0	40	0	1645215744	49	4458
2026-01-15 02:19:59.62	335.42	52.00	-39.0	-40.8	20.4	0.00e+00	0	40	0	1651507200	49	4448
2026-01-15 02:20:00.62	334.91	52.24	-39.1	-40.8	20.4	0.00e+00	0	40	0	1656750080	49	4487
2026-01-15 02:20:01.61	334.39	52.47	-39.0	-40.7	20.4	0.00e+00	0	40	0	1663041536	49	4437
2026-01-15 02:20:02.62	333.85	52.70	-38.9	-40.7	20.5	0.00e+00	0	40	0	1668284416	49	4399
2026-01-15 02:20:03.62	333.31	52.93	-39.1	-40.8	20.4	0.00e+00	0	40	0	1673527296	49	4466
2026-01-15 02:20:04.62	332.76	53.16	-39.6	-41.4	19.9	0.00e+00	0	40	0	1679818752	49	4768
2026-01-15 02:20:05.62	332.20	53.38	-39.3	-41.2	20.1	0.00e+00	0	40	0	1685061632	49	4658
2026-01-15 02:20:06.62	331.64	53.61	-39.4	-41.2	20.1	0.00e+00	0	40	0	1690304512	49	4656
2026-01-15 02:20:07.62	331.06	53.83	-39.1	-40.9	20.3	0.00e+00	0	40	0	1696595968	49	4520
2026-01-15 02:20:08.62	330.48	54.05	-39.0	-40.8	20.4	0.00e+00	0	40	0	1701838848	49	4466
2026-01-15 02:20:09.62	329.89	54.27	-38.8	-40.6	20.6	0.00e+00	0	40	0	1707081728	49	4352
2026-01-15 02:20:10.62	329.29	54.49	-38.7	-40.5	20.6	0.00e+00	0	40	0	1713373184	49	4297
2026-01-15 02:20:11.61	328.68	54.70	-38.8	-40.6	20.6	0.00e+00	0	39	0	1718616064	49	4349
2026-01-15 02:20:12.61	328.06	54.91	-38.8	-40.6	20.5	0.00e+00	0	40	0	1724907520	49	4366
2026-01-15 02:20:13.60	327.44	55.12	-38.8	-40.5	20.6	0.00e+00	0	40	0	1730150400	49	4328
2026-01-15 02:20:14.60	326.80	55.32	-38.8	-40.5	20.6	0.00e+00	0	40	0	1735393280	49	4316
2026-01-15 02:20:15.60	326.15	55.53	-38.8	-40.5	20.6	0.00e+00	0	40	0	1741684736	49	4325
2026-01-15 02:20:16.60	325.49	55.73	-38.7	-40.5	20.7	0.00e+00	0	40	0	1746927616	49	4307
2026-01-15 02:20:17.60	324.82	55.92	-38.7	-40.5	20.6	0.00e+00	0	40	0	1752170496	49	4317
2026-01-15 02:20:18.60	324.15	56.12	-38.7	-40.5	20.7	0.00e+00	0	40	0	1758461952	49	4294
2026-01-15 02:20:19.60	323.46	56.31	-38.7	-40.4	20.7	0.00e+00	0	40	0	1763704832	49	4277
2026-01-15 02:20:20.60	322.77	56.50	-38.7	-40.5	20.4	0.00e+00	0	40	0	1768947712	49	4312
2026-01-15 02:20:21.60	322.06	56.68	-38.7	-40.5	20.4	0.00e+00	0	40	0	1775239168	49	4305
2026-01-15 02:20:22.60	321.35	56.86	-38.7	-40.5	20.4	0.00e+00	0	40	0	1780482048	49	4315
2026-01-15 02:20:23.60	320.62	57.04	-38.5	-40.3	20.6	0.00e+00	0	40	0	1786773504	49	4229
2026-01-15 02:20:24.60	319.89	57.21	-38.5	-40.3	20.6	0.00e+00	0	40	0	1792016384	49	4198
2026-01-15 02:20:25.59	319.15	57.38	-38.4	-40.2	20.7	0.00e+00	0	40	0	1797259264	48	4395
2026-01-15 02:20:26.59	318.40	57.54	-38.4	-40.1	20.7	0.00e+00	0	40	0	1802502144	48	4388
2026-01-15 02:20:27.59	317.64	57.70	-38.5	-40.4	20.5	0.00e+00	0	40	0	1808793600	48	4496
2026-01-15 02:20:28.58	316.88	57.86	-38.5	-40.4	20.5	0.00e+00	0	40	0	1814036480	48	4495
2026-01-15 02:20:29.58	316.10	58.01	-38.3	-40.1	20.7	0.00e+00	0	40	0	1819279360	48	4366
2026-01-15 02:20:30.59	315.31	58.16	-38.3	-40.1	20.8	0.00e+00	0	39	0	1825570816	48	4351
2026-01-15 02:20:31.58	314.52	58.30	-38.6	-40.4	20.5	0.00e+00	0	40	0	1830813696	48	4519
2026-01-15 02:20:32.58	313.71	58.44	-39.0	-40.8	20.1	0.00e+00	0	40	0	1837105152	48	4748
2026-01-15 02:20:33.59	312.89	58.57	-38.8	-40.6	20.3	0.00e+00	0	39	0	1842348032	48	4649
2026-01-15 02:20:34.59	312.07	58.70	-38.7	-40.6	20.4	0.00e+00	0	40	0	1847590912	48	4600
2026-01-15 02:20:35.59	311.24	58.82	-39.0	-40.9	20.0	0.00e+00	0	40	0	1853882368	48	4788
2026-01-15 02:20:36.58	310.42	58.93	-39.2	-41.0	19.9	0.00e+00	0	40	0	1859125248	48	4868
2026-01-15 02:20:37.58	309.57	59.04	-38.9	-40.7	20.2	0.00e+00	0	40	0	1864368128	48	4681
2026-01-15 02:20:38.58	308.72	59.15	-38.7	-40.5	20.3	0.00e+00	0	40	0	1870659584	48	4580
2026-01-15 02:20:39.58	307.86	59.25	-38.7	-40.6	20.3	0.00e+00	0	40	0	1875902464	48	4610
2026-01-15 02:20:40.57	307.01	59.34	-38.9	-40.7	20.2	0.00e+00	0	40	0	1881145344	48	4698
2026-01-15 02:20:41.57	306.14	59.43	-38.5	-40.2	20.6	0.00e+00	0	40	0	1887436800	48	4441
2026-01-15 02:20:42.57	305.26	59.51	-38.5	-40.3	20.6	0.00e+00	0	40	0	1892679680	48	4464
2026-01-15 02:20:43.57	304.38	59.59	-38.8	-40.6	20.3	0.00e+00	0	40	0	1898971136	48	4624
2026-01-15 02:20:44.57	303.50	59.66	-38.8	-40.7	20.2	0.00e+00	0	40	0	1904214016	48	4657
2026-01-15 02:20:45.57	302.61	59.72	-38.7	-40.6	20.3	0.00e+00	0	40	0	1909456896	48	4618
2026-01-15 02:20:46.57	301.71	59.78	-38.6	-40.4	20.4	0.00e+00	0	40	0	1915748352	48	4532
2026-01-15 02:20:47.57	300.82	59.83	-38.7	-40.6	20.3	0.00e+00	0	40	0	1920991232	48	4603
2026-01-15 02:20:48.58	299.91	59.88	-38.7	-40.6	20.4	0.00e+00	0	40	0	1926234112	48	4601
2026-01-15 02:20:49.58	299.00	59.91	-38.6	-40.5	20.4	0.00e+00	0	40	0	1932525568	48	4560
2026-01-15 02:20:50.58	298.09	59.95	-38.6	-40.4	20.5	0.00e+00	0	40	0	1937768448	48	4530
2026-01-15 02:20:51.58	297.18	59.97	-38.5	-40.3	20.6	0.00e+00	0	40	0	1943011328	48	4452
2026-01-15 02:20:52.58	296.27	59.99	-38.4	-40.2	20.6	0.00e+00	0	40	0	1949302784	48	4412
2026-01-15 02:20:53.59	295.35	60.00	-38.1	-39.9	20.9	0.00e+00	0	40	0	1954545664	48	4278
2026-01-15 02:20:54.59	294.44	60.01	-38.1	-39.8	21.0	0.00e+00	0	40	0	1960837120	48	4233
2026-01-15 02:20:55.59	293.53	60.01	-38.4	-40.2	20.6	0.00e+00	0	40	0	1966080000	48	4412
2026-01-15 02:20:56.59	292.61	60.00	-38.4	-40.2	20.7	0.00e+00	0	40	0	1971322880	48	4417
2026-01-15 02:20:57.60	291.69	59.99	-38.5	-40.3	20.6	0.00e+00	0	40	0	1977614336	48	4462
2026-01-15 02:20:58.60	290.78	59.97	-38.4	-40.2	20.7	0.00e+00	0	40	0	1982857216	48	4398
2026-01-15 02:20:59.60	289.87	59.94	-38.2	-40.0	20.8	0.00e+00	0	40	0	1989148672	48	4312
2026-01-15 02:21:00.60	288.97	59.91	-38.1	-39.9	20.9	0.00e+00	0	40	0	1994391552	48	4268
2026-01-15 02:21:01.60	288.06	59.87	-38.3	-40.0	20.8	0.00e+00	0	40	0	1999634432	48	4338
2026-01-15 02:21:02.60	287.16	59.82	-38.4	-40.2	20.6	0.00e+00	0	40	0	2005925888	48	4397
2026-01-15 02:21:03.60	286.26	59.77	-38.3	-40.1	20.7	0.00e+00	0	40	0	2011168768	48	4360
2026-01-15 02:21:04.60	285.37	59.71	-38.4	-40.2	20.6	0.00e+00	0	40	0	2016411648	48	4437
2026-01-15 02:21:05.60	284.48	59.64	-38.4	-40.3	20.6	0.00e+00	0	40	0	2022703104	48	4468
2026-01-15 02:21:06.60	283.59	59.57	-37.8	-39.6	21.0	0.00e+00	0	40	0	2027945984	47	4347
2026-01-15 02:21:07.60	282.71	59.49	-37.6	-39.3	21.2	0.00e+00	0	40	0	2034237440	47	4212
2026-01-15 02:21:08.59	281.85	59.41	-37.8	-39.6	20.9	0.00e+00	0	40	0	2039480320	47	4366
2026-01-15 02:21:09.59	280.98	59.32	-38.2	-40.1	20.5	0.00e+00	0	40	0	2044723200	47	4615
2026-01-15 02:21:10.59	280.12	59.23	-38.1	-39.9	20.6	0.00e+00	0	40	0	2049966080	47	4526
2026-01-15 02:21:11.59	279.26	59.13	-38.1	-39.9	20.6	0.00e+00	0	40	0	2056257536	47	4532
2026-01-15 02:21:12.59	278.41	59.02	-38.3	-40.1	20.5	0.00e+00	0	40	0	2061500416	47	4630
2026-01-15 02:21:13.59	277.57	58.91	-38.4	-40.2	20.4	0.00e+00	0	40	0	2066743296	47	4702
2026-01-15 02:21:14.59	276.73	58.79	-38.6	-40.4	20.2	0.00e+00	0	40	0	2073034752	47	4785
2026-01-15 02:21:15.59	275.91	58.67	-38.5	-40.3	20.3	0.00e+00	0	40	0	2078277632	47	4728
2026-01-15 02:21:16.59	275.09	58.54	-38.3	-40.1	20.5	0.00e+00	0	40	0	2084569088	47	4622
2026-01-15 02:21:17.59	274.27	58.40	-38.4	-40.2	20.4	0.00e+00	0	40	0	2089811968	47	4680
2026-01-15 02:21:18.59	273.47	58.27	-38.1	-39.9	20.7	0.00e+00	0	40	0	2095054848	47	4502
2026-01-15 02:21:19.59	272.68	58.12	-38.1	-39.9	20.7	0.00e+00	0	40	0	2101346304	47	4501
2026-01-15 02:21:20.59	271.89	57.97	-38.2	-40.0	20.6	0.00e+00	0	40	0	2106589184	47	4556
2026-01-15 02:21:21.59	271.11	57.82	-38.3	-40.1	20.5	0.00e+00	0	40	0	2111832064	47	4624
2026-01-15 02:21:22.59	270.34	57.66	-38.2	-40.0	20.5	0.00e+00	0	40	0	2118123520	47	4592
2026-01-15 02:21:23.59	269.58	57.50	-38.1	-39.9	20.7	0.00e+00	0	40	0	2123366400	47	4497
2026-01-15 02:21:24.59	268.83	57.34	-38.0	-39.7	20.8	0.00e+00	0	40	0	2128609280	47	4427
2026-01-15 02:21:25.59	268.09	57.17	-38.2	-40.0	20.6	0.00e+00	0	40	0	2134900736	47	4582
2026-01-15 02:21:26.60	267.35	56.99	-38.5	-40.3	20.3	0.00e+00	0	40	0	2140143616	47	4753
2026-01-15 02:21:27.60	266.63	56.81	-38.2	-39.9	20.7	0.00e+00	0	40	0	2146435072	47	4543
2026-01-15 02:21:28.60	265.91	56.63	-37.9	-39.7	20.9	0.00e+00	0	40	0	2151677952	47	4408
2026-01-15 02:21:29.60	265.21	56.45	-38.0	-39.8	20.8	0.00e+00	0	40	0	2157969408	47	4472
2026-01-15 02:21:30.60	264.52	56.26	-38.1	-39.9	20.7	0.00e+00	0	40	0	2163212288	47	4542
2026-01-15 02:21:31.60	263.83	56.06	-38.1	-39.9	20.7	0.00e+00	0	40	0	2168455168	47	4497
2026-01-15 02:21:32.60	263.16	55.87	-38.3	-40.1	20.5	0.00e+00	0	40	0	2174746624	47	4641
2026-01-15 02:21:33.61	262.48	55.67	-38.5	-40.3	20.3	0.00e+00	0	40	0	2179989504	47	4736
2026-01-15 02:21:34.60	261.83	55.47	-38.5	-40.3	20.3	0.00e+00	0	40	0	2185232384	47	4745
2026-01-15 02:21:35.60	261.19	55.26	-38.3	-40.1	20.5	0.00e+00	0	40	0	2191523840	47	4606
2026-01-15 02:21:36.60	260.55	55.06	-38.3	-40.1	20.6	0.00e+00	0	40	0	2196766720	47	4602
2026-01-15 02:21:37.60	259.92	54.85	-38.0	-39.8	20.7	0.00e+00	0	40	0	2202009600	47	4480
2026-01-15 02:21:38.60	259.30	54.63	-38.2	-40.0	20.6	0.00e+00	0	40	0	2208301056	47	4578
2026-01-15 02:21:39.60	258.69	54.42	-38.3	-40.1	20.5	0.00e+00	0	40	0	2213543936	47	4606
2026-01-15 02:21:40.60	258.09	54.20	-38.3	-40.1	20.5	0.00e+00	0	40	0	2219835392	47	4640
2026-01-15 02:21:41.60	257.50	53.98	-38.3	-40.1	20.6	0.00e+00	0	40	0	2225078272	47	4622
2026-01-15 02:21:42.60	256.92	53.76	-38.1	-39.9	20.7	0.00e+00	0	40	0	2230321152	47	4505
2026-01-15 02:21:43.60	256.34	53.54	-38.3	-40.1	20.6	0.00e+00	0	40	0	2236612608	47	4606
2026-01-15 02:21:44.59	255.78	53.31	-38.2	-40.0	20.5	0.00e+00	0	40	0	2241855488	47	4593
2026-01-15 02:21:45.59	255.23	53.08	-38.2	-39.9	20.6	0.00e+00	0	40	0	2247098368	47	4535
2026-01-15 02:21:46.59	254.68	52.86	-38.3	-40.0	20.5	0.00e+00	0	40	0	2253389824	47	4593
2026-01-15 02:21:47.59	254.14	52.62	-38.3	-40.1	20.4	0.00e+00	0	40	0	2258632704	47	4646
2026-01-15 02:21:48.59	253.61	52.39	-38.4	-40.2	20.4	0.00e+00	0	40	0	2263875584	47	4679
2026-01-15 02:21:49.59	253.09	52.16	-38.3	-40.1	20.5	0.00e+00	0	40	0	2270167040	47	4625
2026-01-15 02:21:50.59	252.58	51.92	-38.2	-39.9	20.6	0.00e+00	0	39	0	2275409920	47	4534
2026-01-15 02:21:51.60	252.06	51.69	-38.2	-40.0	20.6	0.00e+00	0	40	0	2280652800	47	4546
2026-01-15 02:21:52.60	251.57	51.45	-38.3	-40.1	20.6	0.00e+00	0	40	0	2286944256	47	4609
2026-01-15 02:21:53.59	251.08	51.21	-38.4	-40.2	20.5	0.00e+00	0	40	0	2292187136	47	4653
2026-01-15 02:21:54.60	250.60	50.97	-38.3	-40.1	20.5	0.00e+00	0	40	0	2298478592	47	4640
2026-01-15 02:21:55.60	250.12	50.73	-38.3	-40.1	20.5	0.00e+00	0	40	0	2303721472	47	4609
2026-01-15 02:21:56.59	249.66	50.49	-38.2	-40.0	20.6	0.00e+00	0	39	0	2308964352	47	4582
2026-01-15 02:21:57.60	249.19	50.25	-38.2	-40.0	20.6	0.00e+00	0	40	0	2315255808	47	4566
2026-01-15 02:21:58.59	248.75	50.01	-38.2	-40.0	20.5	0.00e+00	0	40	0	2320498688	47	4568
2026-01-15 02:21:59.59	248.30	49.76	-38.0	-39.8	20.7	0.00e+00	0	40	0	2325741568	47	4452
2026-01-15 02:22:00.60	247.86	49.52	-38.1	-39.8	20.7	0.00e+00	0	40	0	2332033024	47	4493
2026-01-15 02:22:01.59	247.43	49.28	-37.9	-39.7	20.8	0.00e+00	0	40	0	2337275904	47	4412
2026-01-15 02:22:02.60	247.00	49.03	-37.8	-39.6	20.9	0.00e+00	0	40	0	2343567360	47	4367
2026-01-15 02:22:03.60	246.59	48.79	-37.9	-39.7	20.8	0.00e+00	0	39	0	2348810240	47	4422
2026-01-15 02:22:04.60	246.18	48.54	-37.8	-39.6	20.9	0.00e+00	0	40	0	2354053120	47	4380
2026-01-15 02:22:05.60	245.77	48.30	-37.9	-39.6	20.8	0.00e+00	0	39	0	2360344576	47	4381
2026-01-15 02:22:06.60	245.37	48.05	-38.0	-39.8	20.7	0.00e+00	0	40	0	2365587456	47	4446
2026-01-15 02:22:07.60	244.98	47.81	-38.0	-39.8	20.7	0.00e+00	0	40	0	2370830336	47	4461
2026-01-15 02:22:08.61	244.59	47.56	-38.0	-39.8	20.7	0.00e+00	0	40	0	2377121792	47	4491
2026-01-15 02:22:09.61	244.21	47.31	-38.0	-39.8	20.7	0.00e+00	0	40	0	2382364672	47	4467
2026-01-15 02:22:10.60	243.85	47.07	-38.1	-39.9	20.6	0.00e+00	0	40	0	2388656128	47	4521
2026-01-15 02:22:11.60	243.48	46.82	-37.9	-39.6	20.8	0.00e+00	0	40	0	2393899008	47	4382
2026-01-15 02:22:12.60	243.12	46.58	-37.8	-39.5	21.0	0.00e+00	0	40	0	2399141888	47	4323
2026-01-15 02:22:13.60	242.76	46.33	-37.6	-39.4	21.1	0.00e+00	0	40	0	2405433344	47	4253
2026-01-15 02:22:14.60	242.41	46.09	-37.4	-39.1	21.2	0.00e+00	0	40	0	2410676224	46	4387
2026-01-15 02:22:15.61	242.06	45.84	-37.5	-39.3	21.2	0.00e+00	0	40	0	2415919104	46	4457
2026-01-15 02:22:16.60	241.72	45.60	-37.5	-39.3	21.2	0.00e+00	0	40	0	2422210560	46	4448
2026-01-15 02:22:17.61	241.39	45.36	-37.5	-39.3	21.1	0.00e+00	0	40	0	2427453440	46	4480
2026-01-15 02:22:18.61	241.06	45.11	-37.4	-39.2	21.2	0.00e+00	0	40	0	2432696320	46	4400
2026-01-15 02:22:19.61	240.73	44.87	-37.3	-39.0	21.4	0.00e+00	0	40	0	2438987776	46	4321
2026-01-15 02:22:20.61	240.41	44.63	-37.3	-39.1	21.3	0.00e+00	0	40	0	2444230656	46	4341
2026-01-15 02:22:21.61	240.10	44.39	-37.4	-39.2	21.2	0.00e+00	0	39	0	2450522112	46	4395
2026-01-15 02:22:22.61	239.79	44.14	-37.4	-39.1	21.2	0.00e+00	0	40	0	2455764992	46	4381
2026-01-15 02:22:23.61	239.48	43.90	-37.3	-39.1	21.3	0.00e+00	0	40	0	2461007872	46	4354
2026-01-15 02:22:24.61	239.18	43.66	-37.3	-39.1	21.3	0.00e+00	0	40	0	2467299328	46	4346
2026-01-15 02:22:25.60	238.89	43.43	-37.4	-39.1	21.3	0.00e+00	0	40	0	2472542208	46	4374
2026-01-15 02:22:26.61	238.60	43.19	-37.4	-39.1	21.3	0.00e+00	0	40	0	2477785088	46	4379
2026-01-15 02:22:27.61	238.31	42.95	-37.5	-39.3	21.2	0.00e+00	0	40	0	2484076544	46	4443
2026-01-15 02:22:28.61	238.03	42.71	-37.4	-39.2	21.2	0.00e+00	0	39	0	2489319424	46	4413
2026-01-15 02:22:29.60	237.75	42.47	-37.5	-39.2	21.2	0.00e+00	0	40	0	2494562304	46	4437
2026-01-15 02:22:30.61	237.47	42.24	-37.4	-39.2	21.2	0.00e+00	0	39	0	2500853760	46	4421
2026-01-15 02:22:31.61	237.20	42.00	-37.5	-39.2	21.2	0.00e+00	0	40	0	2506096640	46	4436
2026-01-15 02:22:32.61	236.93	41.77	-37.5	-39.3	21.1	0.00e+00	0	40	0	2512388096	46	4458
2026-01-15 02:22:33.61	236.67	41.53	-37.6	-39.3	21.0	0.00e+00	0	40	0	2517630976	46	4491
2026-01-15 02:22:34.61	236.41	41.30	-37.7	-39.5	20.9	0.00e+00	0	40	0	2522873856	46	4560
2026-01-15 02:22:35.61	236.16	41.07	-37.7	-39.5	20.9	0.00e+00	0	40	0	2529165312	46	4554
2026-01-15 02:22:36.62	235.90	40.83	-37.7	-39.5	20.9	0.00e+00	0	40	0	2534408192	46	4558
2026-01-15 02:22:37.62	235.65	40.60	-37.6	-39.4	21.0	0.00e+00	0	40	0	2539651072	46	4505
2026-01-15 02:22:38.62	235.41	40.37	-37.4	-39.1	21.2	0.00e+00	0	40	0	2545942528	46	4388
2026-01-15 02:22:39.62	235.17	40.15	-37.3	-39.1	21.2	0.00e+00	0	40	0	2551185408	46	4358
2026-01-15 02:22:40.61	234.93	39.92	-37.4	-39.1	21.2	0.00e+00	0	40	0	2556428288	46	4386
2026-01-15 02:22:41.61	234.70	39.69	-37.5	-39.2	21.1	0.00e+00	0	40	0	2562719744	46	4441
2026-01-15 02:22:42.62	234.47	39.47	-37.3	-39.1	21.2	0.00e+00	0	39	0	2567962624	46	4372
2026-01-15 02:22:43.62	234.24	39.24	-37.3	-39.1	21.2	0.00e+00	0	40	0	2574254080	46	4347
2026-01-15 02:22:44.62	234.01	39.02	-37.4	-39.2	21.1	0.00e+00	0	40	0	2579496960	46	4424
2026-01-15 02:22:45.62	233.79	38.79	-37.4	-39.2	21.1	0.00e+00	0	40	0	2584739840	46	4394
2026-01-15 02:22:46.62	233.57	38.57	-37.3	-39.1	21.2	0.00e+00	0	40	0	2591031296	46	4361
2026-01-15 02:22:47.62	233.36	38.35	-37.3	-39.1	21.2	0.00e+00	0	40	0	2596274176	46	4358
2026-01-15 02:22:48.62	233.14	38.13	-37.2	-39.0	21.3	0.00e+00	0	40	0	2601517056	46	4327
2026-01-15 02:22:49.62	232.93	37.91	-37.3	-39.1	21.2	0.00e+00	0	40	0	2607808512	46	4344
2026-01-15 02:22:50.62	232.73	37.69	-37.1	-38.9	21.4	0.00e+00	0	40	0	2613051392	46	4264
2026-01-15 02:22:51.62	232.52	37.48	-36.9	-38.7	21.5	0.00e+00	0	40	0	2618294272	45	4401
2026-01-15 02:22:52.62	232.32	37.26	-37.0	-38.7	21.5	0.00e+00	0	40	0	2624585728	45	4414
2026-01-15 02:22:53.62	232.12	37.04	-37.1	-38.9	21.4	0.00e+00	0	40	0	2629828608	45	4497
2026-01-15 02:22:54.62	231.93	36.83	-37.1	-38.9	21.3	0.00e+00	0	40	0	2636120064	45	4520
2026-01-15 02:22:55.61	231.74	36.62	-37.2	-39.0	21.3	0.00e+00	0	40	0	2641362944	45	4553
2026-01-15 02:22:56.61	231.54	36.41	-37.2	-38.9	21.3	0.00e+00	0	40	0	2646605824	45	4544
2026-01-15 02:22:57.62	231.35	36.19	-37.2	-39.0	21.3	0.00e+00	0	40	0	2652897280	45	4563
2026-01-15 02:22:58.61	231.17	35.99	-37.2	-38.9	21.3	0.00e+00	0	40	0	2658140160	45	4528
2026-01-15 02:22:59.61	230.99	35.78	-37.2	-39.0	21.3	0.00e+00	0	40	0	2663383040	45	4562
2026-01-15 02:23:00.62	230.80	35.57	-37.2	-39.0	21.3	0.00e+00	0	40	0	2669674496	45	4565
2026-01-15 02:23:01.61	230.63	35.36	-37.3	-39.0	21.2	0.00e+00	0	40	0	2674917376	45	4589
2026-01-15 02:23:02.62	230.45	35.15	-37.2	-39.0	21.3	0.00e+00	0	40	0	2680160256	45	4552
2026-01-15 02:23:03.61	230.27	34.95	-37.2	-39.0	21.3	0.00e+00	0	40	0	2686451712	45	4546
2026-01-15 02:23:04.61	230.10	34.75	-37.2	-38.9	21.3	0.00e+00	0	40	0	2691694592	45	4535
2026-01-15 02:23:05.62	229.93	34.54	-37.2	-38.9	21.3	0.00e+00	0	40	0	2697986048	45	4531
2026-01-15 02:23:06.62	229.76	34.34	-37.1	-38.9	21.4	0.00e+00	0	40	0	2703228928	45	4496
2026-01-15 02:23:07.62	229.60	34.14	-37.1	-38.8	21.3	0.00e+00	0	40	0	2708471808	45	4493
2026-01-15 02:23:08.62	229.43	33.94	-37.2	-38.9	21.3	0.00e+00	0	40	0	2714763264	45	4535
2026-01-15 02:23:09.62	229.27	33.74	-37.3	-39.0	21.2	0.00e+00	0	40	0	2720006144	45	4593
2026-01-15 02:23:10.62	229.11	33.54	-37.4	-39.2	21.1	0.00e+00	0	40	0	2725249024	45	4669
2026-01-15 02:23:11.62	228.95	33.34	-37.4	-39.2	21.1	0.00e+00	0	40	0	2731540480	45	4664
2026-01-15 02:23:12.62	228.80	33.15	-37.4	-39.2	21.1	0.00e+00	0	40	0	2736783360	45	4678
2026-01-15 02:23:13.62	228.64	32.95	-37.5	-39.2	21.0	0.00e+00	0	40	0	2742026240	45	4703
2026-01-15 02:23:14.62	228.49	32.76	-37.3	-39.1	21.2	0.00e+00	0	40	0	2748317696	45	4637
2026-01-15 02:23:15.63	228.34	32.57	-37.3	-39.1	21.2	0.00e+00	0	40	0	2753560576	45	4628
2026-01-15 02:23:16.62	228.19	32.38	-37.2	-39.0	21.3	0.00e+00	0	40	0	2759852032	45	4573
2026-01-15 02:23:17.63	228.04	32.18	-37.2	-38.9	21.3	0.00e+00	0	40	0	2765094912	45	4531
2026-01-15 02:23:18.63	227.90	31.99	-37.2	-39.0	21.3	0.00e+00	0	40	0	2770337792	45	4553
2026-01-15 02:23:19.63	227.75	31.80	-37.3	-39.1	21.2	0.00e+00	0	40	0	2776629248	45	4602
2026-01-15 02:23:20.63	227.61	31.62	-37.4	-39.2	21.1	0.00e+00	0	40	0	2781872128	45	4657
2026-01-15 02:23:21.63	227.47	31.43	-37.5	-39.3	21.0	0.00e+00	0	40	0	2787115008	45	4727
2026-01-15 02:23:22.63	227.33	31.24	-37.5	-39.3	21.0	0.00e+00	0	40	0	2793406464	45	4759
2026-01-15 02:23:23.63	227.20	31.06	-37.6	-39.4	20.9	0.00e+00	0	40	0	2798649344	45	4765
2026-01-15 02:23:24.63	227.06	30.88	-37.7	-39.5	20.8	0.00e+00	0	40	0	2803892224	45	4826
2026-01-15 02:23:25.63	226.93	30.69	-37.7	-39.5	20.8	0.00e+00	0	40	0	2810183680	46	4598
2026-01-15 02:23:26.63	226.80	30.51	-37.7	-39.5	20.8	0.00e+00	0	40	0	2815426560	46	4590
2026-01-15 02:23:27.63	226.67	30.33	-37.8	-39.6	20.8	0.00e+00	0	40	0	2821718016	46	4602
2026-01-15 02:23:28.63	226.54	30.15	-37.9	-39.7	20.7	0.00e+00	0	39	0	2826960896	46	4672
2026-01-15 02:23:29.63	226.41	29.97	-37.9	-39.7	20.6	0.00e+00	0	40	0	2832203776	46	4691
2026-01-15 02:23:30.63	226.28	29.79	-37.9	-39.8	20.6	0.00e+00	0	40	0	2838495232	46	4716
2026-01-15 02:23:31.63	226.16	29.62	-37.9	-39.7	20.7	0.00e+00	0	40	0	2843738112	46	4688
2026-01-15 02:23:32.63	226.03	29.44	-37.9	-39.7	20.7	0.00e+00	0	40	0	2848980992	46	4678
2026-01-15 02:23:33.63	225.91	29.26	-37.9	-39.7	20.6	0.00e+00	0	39	0	2855272448	46	4696
2026-01-15 02:23:34.63	225.79	29.09	-37.9	-39.8	20.6	0.00e+00	0	40	0	2860515328	46	4706
2026-01-15 02:23:35.64	225.67	28.91	-37.8	-39.6	20.7	0.00e+00	0	40	0	2865758208	46	4640
2026-01-15 02:23:36.64	225.55	28.74	-37.8	-39.6	20.8	0.00e+00	0	40	0	2872049664	46	4644
2026-01-15 02:23:37.63	225.44	28.57	-37.8	-39.6	20.8	0.00e+00	0	39	0	2877292544	46	4647
2026-01-15 02:23:38.63	225.32	28.40	-37.8	-39.6	20.8	0.00e+00	0	39	0	2883584000	46	4623
2026-01-15 02:23:39.64	225.21	28.23	-37.8	-39.6	20.8	0.00e+00	0	40	0	2888826880	46	4633
2026-01-15 02:23:40.63	225.09	28.06	-37.8	-39.6	20.7	0.00e+00	0	40	0	2894069760	46	4638
2026-01-15 02:23:41.64	224.98	27.89	-37.9	-39.7	20.7	0.00e+00	0	40	0	2900361216	46	4652
2026-01-15 02:23:42.64	224.87	27.73	-37.8	-39.6	20.7	0.00e+00	0	40	0	2905604096	46	4641
2026-01-15 02:23:43.64	224.76	27.56	-37.8	-39.6	20.7	0.00e+00	0	40	0	2910846976	46	4647
2026-01-15 02:23:44.64	224.65	27.40	-37.9	-39.7	20.7	0.00e+00	0	40	0	2917138432	46	4657
2026-01-15 02:23:45.65	224.54	27.23	-37.9	-39.7	20.7	0.00e+00	0	39	0	2922381312	46	4686
2026-01-15 02:23:46.65	224.44	27.07	-37.9	-39.7	20.6	0.00e+00	0	39	0	2928672768	46	4695
2026-01-15 02:23:47.65	224.33	26.90	-37.9	-39.7	20.7	0.00e+00	0	39	0	2933915648	46	4667
2026-01-15 02:23:48.65	224.23	26.74	-37.9	-39.7	20.6	0.00e+00	0	40	0	2939158528	46	4700
2026-01-15 02:23:49.65	224.13	26.58	-37.9	-39.7	20.7	0.00e+00	0	40	0	2945449984	46	4664
2026-01-15 02:23:50.66	224.02	26.42	-37.9	-39.7	20.6	0.00e+00	0	40	0	2950692864	46	4702
2026-01-15 02:23:51.66	223.92	26.26	-38.0	-39.8	20.6	0.00e+00	0	40	0	2956984320	46	4753
2026-01-15 02:23:52.66	223.82	26.10	-38.0	-39.8	20.6	0.00e+00	0	39	0	2962227200	46	4726
2026-01-15 02:23:53.66	223.72	25.94	-38.0	-39.8	20.6	0.00e+00	0	40	0	2967470080	46	4731
2026-01-15 02:23:54.66	223.63	25.79	-38.0	-39.9	20.5	0.00e+00	0	39	0	2973761536	46	4764
2026-01-15 02:23:55.66	223.53	25.63	-38.0	-39.8	20.6	0.00e+00	0	40	0	2979004416	46	4729
2026-01-15 02:23:56.66	223.43	25.48	-38.0	-39.8	20.5	0.00e+00	0	40	0	2984247296	46	4751
2026-01-15 02:23:57.66	223.34	25.32	-38.1	-39.9	20.5	0.00e+00	0	40	0	2990538752	46	4782
2026-01-15 02:23:58.66	223.25	25.17	-38.0	-39.8	20.6	0.00e+00	0	40	0	2995781632	46	4746
2026-01-15 02:23:59.66	223.15	25.02	-38.0	-39.9	20.5	0.00e+00	0	40	0	3001024512	46	4768
2026-01-15 02:24:00.66	223.06	24.86	-38.1	-39.9	20.5	0.00e+00	0	40	0	3007315968	46	4808
2026-01-15 02:24:01.66	222.97	24.71	-38.1	-39.9	20.5	0.00e+00	0	40	0	3012558848	46	4786
2026-01-15 02:24:02.66	222.88	24.56	-38.1	-39.9	20.5	0.00e+00	0	40	0	3018850304	46	4792
2026-01-15 02:24:03.66	222.79	24.41	-38.1	-39.9	20.5	0.00e+00	0	40	0	3024093184	46	4790
2026-01-15 02:24:04.66	222.70	24.27	-38.1	-39.9	20.5	0.00e+00	0	40	0	3029336064	46	4801
2026-01-15 02:24:05.66	222.61	24.12	-38.1	-39.9	20.5	0.00e+00	0	40	0	3035627520	46	4795
2026-01-15 02:24:06.66	222.53	23.97	-38.1	-39.9	20.5	0.00e+00	0	40	0	3040870400	46	4791
2026-01-15 02:24:07.66	222.44	23.82	-38.0	-39.8	20.5	0.00e+00	0	39	0	3046113280	46	4744
2026-01-15 02:24:08.66	222.36	23.68	-38.0	-39.8	20.5	0.00e+00	0	40	0	3052404736	46	4744
2026-01-15 02:24:09.67	222.27	23.53	-38.0	-39.8	20.6	0.00e+00	0	39	0	3057647616	46	4735
2026-01-15 02:24:10.67	222.19	23.39	-38.1	-39.9	20.5	0.00e+00	0	40	0	3063939072	46	4768
2026-01-15 02:24:11.67	222.10	23.24	-37.9	-39.7	20.6	0.00e+00	0	40	0	3069181952	46	4705
2026-01-15 02:24:12.67	222.02	23.10	-37.9	-39.7	20.6	0.00e+00	0	40	0	3074424832	46	4679
2026-01-15 02:24:13.67	221.94	22.96	-38.0	-39.8	20.5	0.00e+00	0	39	0	3080716288	46	4747
2026-01-15 02:24:14.68	221.86	22.82	-38.0	-39.8	20.6	0.00e+00	0	40	0	3085959168	46	4732
2026-01-15 02:24:15.68	221.78	22.68	-38.0	-39.8	20.5	0.00e+00	0	40	0	3091202048	46	4751
2026-01-15 02:24:16.67	221.70	22.54	-38.1	-39.9	20.5	0.00e+00	0	40	0	3097493504	46	4767
2026-01-15 02:24:17.67	221.62	22.40	-38.2	-40.0	20.4	0.00e+00	0	39	0	3102736384	46	4822
2026-01-15 02:24:18.68	221.55	22.26	-38.1	-39.9	20.5	0.00e+00	0	40	0	3107979264	47	4515
2026-01-15 02:24:19.68	221.47	22.12	-38.1	-39.9	20.5	0.00e+00	0	39	0	3114270720	47	4517
2026-01-15 02:24:20.68	221.39	21.98	-38.2	-40.0	20.4	0.00e+00	0	39	0	3119513600	47	4564
2026-01-15 02:24:21.68	221.32	21.85	-38.2	-40.0	20.4	0.00e+00	0	40	0	3125805056	47	4570
2026-01-15 02:24:22.68	221.24	21.71	-38.2	-40.0	20.4	0.00e+00	0	39	0	3131047936	47	4580
2026-01-15 02:24:23.68	221.17	21.58	-38.2	-40.1	20.3	0.00e+00	0	40	0	3136290816	47	4600
2026-01-15 02:24:24.68	221.10	21.44	-38.3	-40.2	20.3	0.00e+00	0	40	0	3142582272	47	4653
2026-01-15 02:24:25.67	221.02	21.31	-38.3	-40.1	20.3	0.00e+00	0	39	0	3147825152	47	4624
2026-01-15 02:24:26.67	220.95	21.18	-38.3	-40.2	20.2	0.00e+00	0	39	0	3153068032	47	4666
2026-01-15 02:24:27.67	220.88	21.04	-38.4	-40.2	20.2	0.00e+00	0	40	0	3159359488	47	4673
2026-01-15 02:24:28.67	220.81	20.91	-38.4	-40.3	20.2	0.00e+00	0	40	0	3164602368	47	4724
2026-01-15 02:24:29.68	220.74	20.78	-38.5	-40.4	20.0	0.00e+00	0	39	0	3169845248	47	4778
2026-01-15 02:24:30.68	220.67	20.65	-38.6	-40.4	20.0	0.00e+00	0	40	0	3176136704	47	4799
2026-01-15 02:24:31.68	220.60	20.52	-38.6	-40.4	20.0	0.00e+00	0	40	0	3181379584	47	4812
2026-01-15 02:24:32.68	220.53	20.39	-38.7	-40.5	19.9	0.00e+00	0	40	0	3187671040	47	4867
2026-01-15 02:24:33.68	220.46	20.26	-38.8	-40.7	20.1	0.00e+00	0	40	0	3192913920	48	4654
2026-01-15 02:24:34.68	220.40	20.13	-38.9	-40.7	20.0	0.00e+00	0	39	0	3198156800	48	4688
2026-01-15 02:24:35.68	220.33	20.01	-38.9	-40.8	20.0	0.00e+00	0	39	0	3204448256	48	4721
2026-01-15 02:24:36.69	220.26	19.88	-39.0	-40.9	19.9	0.00e+00	0	40	0	3209691136	48	4765
2026-01-15 02:24:37.68	220.20	19.75	-39.0	-40.8	19.9	0.00e+00	0	40	0	3214934016	48	4742
2026-01-15 02:24:38.69	220.13	19.63	-39.0	-40.9	19.9	0.00e+00	0	40	0	3221225472	48	4760
2026-01-15 02:24:39.69	220.07	19.50	-39.1	-41.0	19.8	0.00e+00	0	40	0	3226468352	48	4832
2026-01-15 02:24:40.69	220.00	19.38	-39.1	-41.0	19.8	0.00e+00	0	40	0	3231711232	48	4840
2026-01-15 02:24:41.69	219.94	19.25	-39.1	-41.0	19.7	0.00e+00	0	40	0	3238002688	49	4571
2026-01-15 02:24:42.69	219.88	19.13	-39.1	-41.0	19.7	0.00e+00	0	40	0	3243245568	49	4589
2026-01-15 02:24:43.69	219.82	19.01	-39.1	-41.0	19.8	0.00e+00	0	40	0	3249537024	49	4550
2026-01-15 02:24:44.69	219.75	18.88	-39.1	-41.0	19.8	0.00e+00	0	40	0	3254779904	49	4548
2026-01-15 02:24:45.69	219.69	18.76	-39.0	-40.9	19.8	0.00e+00	0	39	0	3260022784	49	4508
2026-01-15 02:24:46.69	219.63	18.64	-39.0	-40.9	19.8	0.00e+00	0	40	0	3266314240	49	4523
2026-01-15 02:24:47.69	219.57	18.52	-39.1	-41.0	19.8	0.00e+00	0	40	0	3271557120	49	4546
2026-01-15 02:24:48.70	219.51	18.40	-39.2	-41.0	19.7	0.00e+00	0	40	0	3277848576	49	4572
2026-01-15 02:24:49.70	219.45	18.28	-39.1	-41.0	19.7	0.00e+00	0	40	0	3283091456	49	4559
2026-01-15 02:24:50.70	219.39	18.16	-39.1	-41.0	19.7	0.00e+00	0	40	0	3288334336	49	4560
2026-01-15 02:24:51.70	219.34	18.04	-39.2	-41.0	19.7	0.00e+00	0	39	0	3294625792	49	4585
2026-01-15 02:24:52.70	219.28	17.93	-39.2	-41.1	19.6	0.00e+00	0	40	0	3299868672	49	4619
2026-01-15 02:24:53.70	219.22	17.81	-39.3	-41.1	19.6	0.00e+00	0	40	0	3305111552	49	4651
2026-01-15 02:24:54.70	219.16	17.69	-39.3	-41.2	19.6	0.00e+00	0	40	0	3311403008	49	4652
2026-01-15 02:24:55.70	219.11	17.58	-39.3	-41.2	19.5	0.00e+00	0	40	0	3316645888	49	4664
2026-01-15 02:24:56.70	219.05	17.46	-39.4	-41.3	19.4	0.00e+00	0	40	0	3322937344	49	4730
2026-01-15 02:24:57.70	219.00	17.35	-39.5	-41.4	19.4	0.00e+00	0	40	0	3328180224	49	4771
2026-01-15 02:24:58.70	218.94	17.23	-39.6	-41.5	19.3	0.00e+00	0	40	0	3333423104	49	4826
2026-01-15 02:24:59.70	218.89	17.12	-39.6	-41.5	19.2	0.00e+00	0	40	0	3339714560	49	4868
2026-01-15 02:25:00.70	218.83	17.00	-39.8	-41.7	19.1	0.00e+00	0	40	0	3344957440	50	4679
2026-01-15 02:25:01.70	218.78	16.89	-39.8	-41.7	19.1	0.00e+00	0	40	0	3350200320	50	4688
2026-01-15 02:25:02.70	218.72	16.78	-39.8	-41.7	19.1	0.00e+00	0	40	0	3356491776	50	4679
2026-01-15 02:25:03.70	218.67	16.67	-39.8	-41.8	19.0	0.00e+00	0	40	0	3361734656	50	4727
2026-01-15 02:25:04.70	218.62	16.55	-39.9	-41.9	19.0	0.00e+00	0	39	0	3366977536	50	4762
2026-01-15 02:25:05.70	218.57	16.44	-39.9	-41.9	18.9	0.00e+00	0	39	0	3373268992	50	4783
2026-01-15 02:25:06.70	218.51	16.33	-40.0	-41.9	18.9	0.00e+00	0	39	0	3378511872	50	4802
2026-01-15 02:25:07.70	218.46	16.22	-40.0	-42.0	18.9	0.00e+00	0	40	0	3384803328	50	4822
2026-01-15 02:25:08.70	218.41	16.11	-40.0	-42.0	18.8	0.00e+00	0	40	0	3390046208	50	4839
2026-01-15 02:25:09.70	218.36	16.00	-40.0	-42.0	18.8	0.00e+00	0	40	0	3395289088	50	4842
2026-01-15 02:25:10.69	218.31	15.90	-40.1	-42.0	18.8	0.00e+00	0	40	0	3400531968	50	4870
2026-01-15 02:25:11.69	218.26	15.79	-40.0	-42.0	18.9	0.00e+00	0	40	0	3406823424	50	4825
2026-01-15 02:25:12.70	218.21	15.68	-40.1	-42.0	18.8	0.00e+00	0	40	0	3412066304	50	4865
2026-01-15 02:25:13.69	218.16	15.57	-40.0	-42.0	18.8	0.00e+00	0	40	0	3417309184	50	4830
2026-01-15 02:25:14.69	218.12	15.47	-40.0	-41.9	18.9	0.00e+00	0	40	0	3423600640	50	4814
2026-01-15 02:25:15.70	218.07	15.36	-40.0	-42.0	18.8	0.00e+00	0	40	0	3428843520	50	4834
2026-01-15 02:25:16.69	218.02	15.25	-40.1	-42.1	18.7	0.00e+00	0	39	0	3435134976	50	4901
2026-01-15 02:25:17.69	217.97	15.15	-40.0	-42.0	18.8	0.00e+00	0	40	0	3440377856	50	4833
2026-01-15 02:25:18.69	217.92	15.04	-40.1	-42.0	18.7	0.00e+00	0	40	0	3445620736	50	4867
2026-01-15 02:25:19.69	217.88	14.94	-40.2	-42.1	18.7	0.00e+00	0	40	0	3451912192	50	4915
2026-01-15 02:25:20.69	217.83	14.83	-40.2	-42.1	18.7	0.00e+00	0	40	0	3457155072	51	4644
2026-01-15 02:25:21.69	217.78	14.73	-40.1	-42.1	18.7	0.00e+00	0	39	0	3462397952	51	4601
2026-01-15 02:25:22.69	217.74	14.63	-40.2	-42.2	18.6	0.00e+00	0	40	0	3468689408	51	4680
2026-01-15 02:25:23.69	217.69	14.52	-40.2	-42.2	18.6	0.00e+00	0	40	0	3473932288	51	4675
2026-01-15 02:25:24.69	217.65	14.42	-40.2	-42.2	18.6	0.00e+00	0	39	0	3479175168	51	4656
2026-01-15 02:25:25.69	217.60	14.32	-40.2	-42.1	18.6	0.00e+00	0	40	0	3485466624	51	4632
2026-01-15 02:25:26.70	217.56	14.22	-40.2	-42.2	18.6	0.00e+00	0	39	0	3490709504	51	4668
2026-01-15 02:25:27.70	217.51	14.11	-40.3	-42.3	18.5	0.00e+00	0	40	0	3497000960	51	4715
2026-01-15 02:25:28.70	217.47	14.01	-40.3	-42.3	18.5	0.00e+00	0	39	0	3502243840	51	4722
2026-01-15 02:25:29.70	217.43	13.91	-40.3	-42.3	18.5	0.00e+00	0	40	0	3508535296	51	4733
2026-01-15 02:25:30.70	217.38	13.81	-40.4	-42.5	18.3	0.00e+00	0	40	0	3513778176	51	4815
2026-01-15 02:25:31.70	217.34	13.71	-40.4	-42.4	18.4	0.00e+00	0	40	0	3519021056	51	4796
2026-01-15 02:25:32.70	217.30	13.61	-40.4	-42.5	18.4	0.00e+00	0	40	0	3525312512	51	4815
2026-01-15 02:25:33.71	217.25	13.51	-40.4	-42.5	18.4	0.00e+00	0	40	0	3530555392	51	4816
2026-01-15 02:25:34.71	217.21	13.41	-40.5	-42.5	18.3	0.00e+00	0	39	0	3535798272	51	4862
2026-01-15 02:25:35.70	217.17	13.32	-40.5	-42.5	18.3	0.00e+00	0	40	0	3542089728	51	4854
2026-01-15 02:25:36.70	217.13	13.22	-40.5	-42.6	18.2	0.00e+00	0	39	0	3547332608	51	4890
2026-01-15 02:25:37.70	217.09	13.12	-40.6	-42.7	18.1	0.00e+00	0	40	0	3552575488	51	4933
2026-01-15 02:25:38.70	217.05	13.02	-40.7	-42.7	18.0	0.00e+00	0	40	0	3558866944	51	4983
2026-01-15 02:25:39.70	217.01	12.93	-40.7	-42.8	18.0	0.00e+00	0	40	0	3564109824	52	4709
2026-01-15 02:25:40.70	216.97	12.83	-40.8	-42.8	17.9	0.00e+00	0	40	0	3570401280	52	4756
2026-01-15 02:25:41.70	216.93	12.74	-40.7	-42.8	18.0	0.00e+00	0	39	0	3575644160	52	4708
2026-01-15 02:25:42.70	216.89	12.64	-40.6	-42.7	18.0	0.00e+00	0	40	0	3580887040	52	4671
2026-01-15 02:25:43.70	216.85	12.54	-40.7	-42.8	18.0	0.00e+00	0	40	0	3587178496	52	4713
2026-01-15 02:25:44.70	216.81	12.45	-40.7	-42.8	18.0	0.00e+00	0	39	0	3592421376	52	4721
2026-01-15 02:25:45.70	216.77	12.36	-40.8	-42.8	17.9	0.00e+00	0	40	0	3597664256	52	4751
2026-01-15 02:25:46.70	216.73	12.26	-40.8	-42.9	17.9	0.00e+00	0	40	0	3603955712	52	4767
2026-01-15 02:25:47.70	216.69	12.17	-40.8	-42.9	17.9	0.00e+00	0	40	0	3609198592	52	4762
2026-01-15 02:25:48.70	216.65	12.07	-40.9	-43.0	17.7	0.00e+00	0	40	0	3614441472	52	4839
2026-01-15 02:25:49.70	216.62	11.98	-40.9	-43.0	17.7	0.00e+00	0	40	0	3620732928	52	4857
2026-01-15 02:25:50.70	216.58	11.89	-40.9	-43.0	17.7	0.00e+00	0	40	0	3625975808	52	4834
2026-01-15 02:25:51.70	216.54	11.80	-40.9	-43.0	17.7	0.00e+00	0	39	0	3632267264	52	4839
2026-01-15 02:25:52.70	216.50	11.70	-40.9	-43.0	17.7	0.00e+00	0	40	0	3637510144	52	4859
2026-01-15 02:25:53.69	216.47	11.61	-41.0	-43.1	17.6	0.00e+00	0	40	0	3642753024	52	4888
2026-01-15 02:25:54.70	216.43	11.52	-41.0	-43.2	17.6	0.00e+00	0	40	0	3649044480	52	4935
2026-01-15 02:25:55.70	216.39	11.43	-41.0	-43.1	17.6	0.00e+00	0	40	0	3654287360	52	4907
2026-01-15 02:25:56.70	216.36	11.34	-41.0	-43.1	17.6	0.00e+00	0	40	0	3659530240	52	4908
2026-01-15 02:25:57.69	216.32	11.25	-41.1	-43.2	17.5	0.00e+00	0	40	0	3664773120	52	4961
