passes_logs/2026/01/15/T1/T1__20260115_070103_KHAYYAM_rec.log

#Pass ID: 20260115_070103_KHAYYAM
#Satellite: KHAYYAM
#Configuration: KHAYYAM_480M
#almurnet v.1.7.20251203
#Start time: 2026-01-15 07:01:05

#Version: 2.0.20230620
#Station: T1
#Location: 37.570604 lon 55.790049 lat
#TLE: 1 53370U 22096A   26014.69422851  .00010074  00000+0  41151-3 0  9993
#TLE: 2 53370  97.3560 281.7091 0001556 106.8298 253.3111 15.24576057191198

#Time	Az	El	Level	Level2	SNR	BER	BlckErr	Temp	State	Recorded	gain1	gain2
2026-01-15 07:01:05.32	133.42	3.00	-53.1	-57.6	3.6	0.00e+00	0	41	0	0	77	24682
2026-01-15 07:01:06.31	133.36	3.07	-53.0	-57.6	3.7	0.00e+00	0	41	104	0	76	26136
2026-01-15 07:01:07.31	133.29	3.14	-53.0	-57.6	3.7	0.00e+00	0	42	104	0	76	26056
2026-01-15 07:01:08.30	133.22	3.21	-53.0	-57.6	3.7	0.00e+00	0	42	104	0	76	26100
2026-01-15 07:01:09.29	133.15	3.27	-53.0	-57.6	3.7	0.00e+00	0	42	104	0	76	26179
2026-01-15 07:01:10.29	133.08	3.34	-53.0	-57.6	3.7	0.00e+00	0	42	104	0	76	26120
2026-01-15 07:01:11.28	133.01	3.41	-53.0	-57.6	3.7	0.00e+00	0	42	104	0	76	26131
2026-01-15 07:01:12.27	132.94	3.48	-53.0	-57.6	3.7	0.00e+00	0	42	104	0	76	26125
2026-01-15 07:01:13.27	132.87	3.56	-53.0	-57.6	3.7	0.00e+00	0	42	104	0	76	26079
2026-01-15 07:01:14.26	132.80	3.63	-53.0	-57.6	3.7	0.00e+00	0	42	104	0	76	26053
2026-01-15 07:01:15.25	132.73	3.70	-53.0	-57.6	3.7	0.00e+00	0	42	104	0	76	26117
2026-01-15 07:01:16.24	132.66	3.77	-53.0	-57.6	3.7	0.00e+00	0	42	104	0	76	26087
2026-01-15 07:01:17.24	132.59	3.84	-53.0	-57.6	3.7	0.00e+00	0	42	104	0	76	26041
2026-01-15 07:01:18.23	132.51	3.91	-53.0	-57.6	3.7	0.00e+00	0	43	104	0	76	26106
2026-01-15 07:01:19.22	132.44	3.98	-53.0	-57.6	3.7	0.00e+00	0	42	104	0	76	26090
2026-01-15 07:01:20.22	132.37	4.05	-53.0	-57.6	3.7	0.00e+00	0	43	104	0	76	26138
2026-01-15 07:01:21.21	132.29	4.13	-53.0	-57.6	3.7	0.00e+00	0	43	104	0	76	26069
2026-01-15 07:01:22.20	132.22	4.20	-53.0	-57.6	3.7	0.00e+00	0	43	104	0	76	26064
2026-01-15 07:01:23.20	132.14	4.27	-53.0	-57.6	3.7	0.00e+00	0	43	104	0	76	25990
2026-01-15 07:01:24.19	132.07	4.34	-53.0	-57.6	3.7	0.00e+00	0	43	104	0	76	26091
2026-01-15 07:01:25.18	131.99	4.42	-53.0	-57.6	3.7	0.00e+00	0	43	104	0	76	26086
2026-01-15 07:01:26.17	131.92	4.49	-53.0	-57.6	3.7	0.00e+00	0	43	104	0	76	26044
2026-01-15 07:01:27.17	131.84	4.56	-53.0	-57.6	3.7	0.00e+00	0	43	104	0	76	26047
2026-01-15 07:01:28.16	131.76	4.64	-53.0	-57.6	3.7	0.00e+00	0	43	104	0	76	26052
2026-01-15 07:01:29.15	131.68	4.71	-53.0	-57.6	3.7	0.00e+00	0	43	104	0	76	26016
2026-01-15 07:01:30.15	131.60	4.79	-53.0	-57.6	3.7	0.00e+00	0	43	104	0	76	26045
2026-01-15 07:01:31.14	131.52	4.86	-53.0	-57.6	3.7	0.00e+00	0	43	104	0	76	26056
2026-01-15 07:01:32.13	131.44	4.93	-53.0	-57.6	3.7	0.00e+00	0	43	104	0	76	26103
2026-01-15 07:01:33.13	131.36	5.01	-53.0	-57.6	3.7	0.00e+00	0	44	104	0	76	26087
2026-01-15 07:01:34.12	131.28	5.09	-53.0	-57.6	3.7	0.00e+00	0	43	104	0	76	26122
2026-01-15 07:01:35.11	131.20	5.16	-53.0	-57.6	3.7	0.00e+00	0	43	104	0	76	26041
2026-01-15 07:01:36.11	131.12	5.24	-53.0	-57.6	3.7	0.00e+00	0	44	104	0	76	26130
2026-01-15 07:01:37.10	131.04	5.31	-53.0	-57.6	3.7	0.00e+00	0	44	104	0	76	26038
2026-01-15 07:01:38.09	130.95	5.39	-53.0	-57.6	3.7	0.00e+00	0	44	104	0	76	26108
2026-01-15 07:01:39.08	130.87	5.46	-53.0	-57.6	3.7	0.00e+00	0	44	104	0	76	26116
2026-01-15 07:01:40.08	130.79	5.54	-53.0	-57.6	3.7	0.00e+00	0	44	104	0	76	26124
2026-01-15 07:01:41.07	130.70	5.62	-53.0	-57.6	3.7	0.00e+00	0	44	104	0	76	26018
2026-01-15 07:01:42.06	130.62	5.70	-53.0	-57.6	3.7	0.00e+00	0	44	104	0	76	26045
2026-01-15 07:01:43.06	130.53	5.77	-53.0	-57.6	3.7	0.00e+00	0	44	104	0	76	26055
2026-01-15 07:01:44.05	130.44	5.85	-53.0	-57.6	3.7	0.00e+00	0	44	104	0	76	26095
2026-01-15 07:01:45.04	130.36	5.93	-53.0	-57.6	3.7	0.00e+00	0	44	104	0	76	26012
2026-01-15 07:01:46.03	130.27	6.01	-53.0	-57.6	3.7	0.00e+00	0	44	104	0	76	26024
2026-01-15 07:01:47.03	130.18	6.09	-53.0	-57.6	3.7	0.00e+00	0	44	104	0	76	26083
2026-01-15 07:01:48.02	130.09	6.16	-53.0	-57.6	3.7	0.00e+00	0	44	104	0	76	26036
2026-01-15 07:01:49.01	130.00	6.24	-53.0	-57.6	3.7	0.00e+00	0	44	104	0	76	26101
2026-01-15 07:01:50.01	129.91	6.32	-53.0	-57.6	3.7	0.00e+00	0	44	104	0	76	26072
2026-01-15 07:01:51.00	129.82	6.40	-53.0	-57.6	3.7	0.00e+00	0	44	104	0	76	26034
2026-01-15 07:01:51.99	129.73	6.48	-53.0	-57.6	3.7	0.00e+00	0	44	104	0	76	26002
2026-01-15 07:01:52.99	129.64	6.56	-53.0	-57.6	3.7	0.00e+00	0	44	104	0	76	26091
2026-01-15 07:01:53.98	129.54	6.64	-53.0	-57.6	3.6	0.00e+00	0	45	104	0	76	26117
2026-01-15 07:01:54.97	129.45	6.72	-53.0	-57.6	3.7	0.00e+00	0	45	104	0	76	26088
2026-01-15 07:01:55.97	129.36	6.80	-53.0	-57.6	3.7	0.00e+00	0	45	104	0	76	26029
2026-01-15 07:01:56.96	129.26	6.89	-53.0	-57.6	3.7	0.00e+00	0	44	104	0	76	26006
2026-01-15 07:01:57.95	129.17	6.97	-53.0	-57.6	3.7	0.00e+00	0	44	104	0	76	26029
2026-01-15 07:01:58.95	129.07	7.05	-53.0	-57.6	3.7	0.00e+00	0	45	104	0	76	26036
2026-01-15 07:01:59.94	128.97	7.13	-53.0	-57.6	3.7	0.00e+00	0	45	104	0	76	26097
2026-01-15 07:02:00.93	128.88	7.21	-53.0	-57.6	3.7	0.00e+00	0	45	104	0	76	25995
2026-01-15 07:02:01.93	128.78	7.30	-53.0	-57.6	3.7	0.00e+00	0	45	104	0	76	25996
2026-01-15 07:02:02.92	128.68	7.38	-53.0	-57.6	3.7	0.00e+00	0	45	104	0	76	25998
2026-01-15 07:02:03.91	128.58	7.46	-53.0	-57.6	3.7	0.00e+00	0	45	104	0	76	26061
2026-01-15 07:02:04.91	128.48	7.55	-53.0	-57.5	3.7	0.00e+00	0	45	104	0	76	25942
2026-01-15 07:02:05.90	128.38	7.63	-53.0	-57.6	3.7	0.00e+00	0	45	104	0	76	26035
2026-01-15 07:02:06.89	128.27	7.71	-53.0	-57.6	3.7	0.00e+00	0	45	104	0	76	26059
2026-01-15 07:02:07.88	128.17	7.80	-53.0	-57.6	3.7	0.00e+00	0	45	104	0	76	25986
2026-01-15 07:02:08.88	128.07	7.88	-53.0	-57.5	3.7	0.00e+00	0	45	104	0	76	25954
2026-01-15 07:02:09.87	127.96	7.97	-53.0	-57.6	3.7	0.00e+00	0	45	104	0	76	26015
2026-01-15 07:02:10.87	127.86	8.05	-53.0	-57.5	3.7	0.00e+00	0	45	104	0	76	25954
2026-01-15 07:02:11.86	127.75	8.14	-53.0	-57.6	3.7	0.00e+00	0	45	104	0	76	25994
2026-01-15 07:02:12.85	127.64	8.23	-53.0	-57.5	3.7	0.00e+00	0	45	104	0	76	25974
2026-01-15 07:02:13.85	127.54	8.31	-53.0	-57.5	3.7	0.00e+00	0	45	104	0	76	25861
2026-01-15 07:02:14.84	127.43	8.40	-53.0	-57.5	3.7	0.00e+00	0	45	104	0	76	25955
2026-01-15 07:02:15.83	127.32	8.49	-53.0	-57.5	3.7	0.00e+00	0	45	104	0	76	25951
2026-01-15 07:02:16.83	127.21	8.57	-53.0	-57.5	3.7	0.00e+00	0	45	104	0	76	25902
2026-01-15 07:02:17.82	127.10	8.66	-53.0	-57.6	3.7	0.00e+00	0	45	104	0	76	26038
2026-01-15 07:02:18.81	126.99	8.75	-53.0	-57.6	3.7	0.00e+00	0	45	104	0	76	26032
2026-01-15 07:02:19.81	126.87	8.84	-53.0	-57.6	3.7	0.00e+00	0	45	104	0	76	26005
2026-01-15 07:02:20.80	126.76	8.93	-53.0	-57.5	3.7	0.00e+00	0	45	104	0	76	25899
2026-01-15 07:02:21.79	126.65	9.02	-53.0	-57.6	3.7	0.00e+00	0	45	104	0	76	26018
2026-01-15 07:02:22.79	126.53	9.11	-53.1	-57.7	3.7	0.00e+00	0	45	104	0	76	26277
2026-01-15 07:02:23.78	126.41	9.20	-53.3	-57.8	3.7	0.00e+00	0	45	104	0	77	25138
2026-01-15 07:02:24.78	126.30	9.29	-53.1	-57.6	3.7	0.00e+00	0	45	104	0	77	24738
2026-01-15 07:02:25.77	126.18	9.38	-53.3	-57.8	3.7	0.00e+00	0	45	104	0	77	25253
2026-01-15 07:02:26.77	126.06	9.47	-53.2	-57.6	3.7	0.00e+00	0	45	104	0	77	24711
2026-01-15 07:02:27.76	125.94	9.56	-53.4	-57.9	3.7	0.00e+00	0	45	104	0	77	25411
2026-01-15 07:02:28.76	125.82	9.65	-53.3	-57.8	3.7	0.00e+00	0	46	104	0	77	25152
2026-01-15 07:02:29.75	125.69	9.74	-53.3	-57.8	3.7	0.00e+00	0	46	104	0	77	25189
2026-01-15 07:02:30.75	125.57	9.83	-53.4	-57.9	3.7	0.00e+00	0	46	104	0	77	25428
2026-01-15 07:02:31.74	125.45	9.93	-53.3	-57.8	3.7	0.00e+00	0	46	104	0	77	25256
2026-01-15 07:02:32.73	125.32	10.02	-53.3	-57.9	3.7	0.00e+00	0	45	104	0	77	25388
2026-01-15 07:02:33.73	125.20	10.11	-53.4	-57.9	3.7	0.00e+00	0	45	104	0	77	25434
2026-01-15 07:02:34.73	125.07	10.21	-53.3	-57.7	3.7	0.00e+00	0	46	104	0	77	25087
2026-01-15 07:02:35.72	124.94	10.30	-53.4	-57.8	3.7	0.00e+00	0	46	104	0	77	25249
2026-01-15 07:02:36.72	124.81	10.40	-53.4	-57.9	3.7	0.00e+00	0	46	104	0	77	25434
2026-01-15 07:02:37.71	124.68	10.49	-53.6	-58.0	3.7	0.00e+00	0	45	104	0	77	25790
2026-01-15 07:02:38.71	124.55	10.59	-53.4	-57.7	3.7	0.00e+00	0	46	104	0	77	25012
2026-01-15 07:02:39.70	124.42	10.68	-53.4	-57.8	3.7	0.00e+00	0	46	104	0	77	25247
2026-01-15 07:02:40.70	124.28	10.78	-53.4	-57.8	3.7	0.00e+00	0	46	104	0	77	25334
2026-01-15 07:02:41.70	124.15	10.87	-53.4	-57.9	3.7	0.00e+00	0	46	104	0	77	25461
2026-01-15 07:02:42.69	124.01	10.97	-53.4	-57.8	3.7	0.00e+00	0	46	104	0	77	25277
2026-01-15 07:02:43.69	123.88	11.07	-53.6	-57.9	3.7	0.00e+00	0	46	104	0	77	25543
2026-01-15 07:02:44.76	123.73	11.17	-53.5	-57.9	3.7	0.00e+00	0	46	104	0	77	25550
2026-01-15 07:02:45.62	123.61	11.26	-53.4	-57.8	3.7	0.00e+00	0	46	104	0	77	25299
2026-01-15 07:02:46.97	123.42	11.39	-53.5	-57.9	3.7	0.00e+00	0	46	104	0	77	25676
2026-01-15 07:02:47.69	123.31	11.46	-53.4	-57.8	3.7	0.00e+00	0	46	104	0	77	25206
2026-01-15 07:02:48.97	123.13	11.59	-53.5	-57.8	3.7	0.00e+00	0	46	104	0	77	25361
2026-01-15 07:02:49.68	123.03	11.66	-53.5	-57.7	3.7	0.00e+00	0	46	104	0	77	24990
2026-01-15 07:02:51.25	122.80	11.82	-53.4	-57.9	3.7	0.00e+00	0	46	104	0	77	25472
2026-01-15 07:02:51.90	122.70	11.88	-53.5	-57.9	3.7	0.00e+00	0	46	104	0	77	25525
2026-01-15 07:02:53.32	122.49	12.03	-53.4	-57.8	3.7	0.00e+00	0	46	104	0	77	25177
2026-01-15 07:02:54.03	122.38	12.10	-53.4	-57.8	3.7	0.00e+00	0	46	104	0	77	25335
2026-01-15 07:02:55.31	122.19	12.23	-53.5	-57.9	3.7	0.00e+00	0	46	104	0	77	25479
2026-01-15 07:02:56.02	122.08	12.30	-53.4	-57.8	3.7	0.00e+00	0	46	104	0	77	25163
2026-01-15 07:02:57.30	121.89	12.44	-53.5	-57.9	3.7	0.00e+00	0	46	104	0	77	25540
2026-01-15 07:02:58.01	121.77	12.51	-53.5	-57.9	3.7	0.00e+00	0	46	104	0	77	25403
2026-01-15 07:02:59.29	121.57	12.64	-53.4	-57.8	3.7	0.00e+00	0	46	104	0	77	25135
2026-01-15 07:03:00.00	121.46	12.72	-53.4	-57.8	3.7	0.00e+00	0	46	104	0	77	25169
2026-01-15 07:03:01.28	121.26	12.85	-53.4	-57.8	3.7	0.00e+00	0	46	104	0	77	25155
2026-01-15 07:03:02.02	121.14	12.93	-53.5	-57.9	3.7	0.00e+00	0	46	104	0	77	25504
2026-01-15 07:03:03.30	120.93	13.06	-53.4	-57.9	3.7	0.00e+00	0	46	104	0	77	25452
2026-01-15 07:03:04.02	120.81	13.14	-53.5	-57.9	3.7	0.00e+00	0	46	104	0	77	25430
2026-01-15 07:03:05.30	120.60	13.27	-53.5	-57.9	3.7	0.00e+00	0	46	104	0	77	25437
2026-01-15 07:03:06.01	120.48	13.35	-53.6	-57.9	3.7	0.00e+00	0	46	104	0	77	25649
2026-01-15 07:03:07.29	120.27	13.49	-53.5	-57.9	3.7	0.00e+00	0	46	104	0	77	25653
2026-01-15 07:03:08.21	120.11	13.59	-53.6	-57.9	3.7	0.00e+00	0	46	104	0	77	25614
2026-01-15 07:03:09.47	119.90	13.72	-53.5	-57.9	3.7	0.00e+00	0	46	104	0	77	25421
2026-01-15 07:03:10.29	119.75	13.81	-53.7	-58.0	3.7	0.00e+00	0	46	104	0	77	25754
2026-01-15 07:03:11.43	119.56	13.93	-53.7	-58.1	3.7	0.00e+00	0	46	104	0	78	24595
2026-01-15 07:03:12.28	119.41	14.03	-53.6	-58.0	3.7	0.00e+00	0	46	104	0	78	24477
2026-01-15 07:03:13.42	119.20	14.15	-53.7	-58.1	3.7	0.00e+00	0	46	104	0	78	24591
2026-01-15 07:03:14.27	119.05	14.25	-53.7	-58.1	3.7	0.00e+00	0	46	104	0	78	24550
2026-01-15 07:03:15.40	118.85	14.37	-53.6	-58.0	3.7	0.00e+00	0	46	104	0	78	24385
2026-01-15 07:03:16.26	118.69	14.47	-53.6	-58.1	3.7	0.00e+00	0	46	104	0	78	24528
2026-01-15 07:03:17.40	118.48	14.59	-53.7	-58.1	3.7	0.00e+00	0	46	104	0	78	24651
2026-01-15 07:03:18.25	118.32	14.69	-53.8	-58.1	3.7	0.00e+00	0	46	104	0	78	24713
2026-01-15 07:03:19.39	118.11	14.82	-53.5	-58.0	3.7	0.00e+00	0	46	104	0	78	24478
2026-01-15 07:03:20.24	117.95	14.91	-53.4	-58.0	3.7	0.00e+00	0	46	104	0	78	24263
2026-01-15 07:03:21.37	117.73	15.04	-53.6	-58.1	3.7	0.00e+00	0	46	104	0	78	24556
2026-01-15 07:03:22.23	117.57	15.14	-53.5	-58.0	3.7	0.00e+00	0	46	104	0	78	24274
2026-01-15 07:03:23.36	117.35	15.26	-53.4	-57.8	3.7	0.00e+00	0	46	104	0	78	23739
2026-01-15 07:03:24.21	117.18	15.36	-53.5	-57.9	3.7	0.00e+00	0	46	104	0	78	24049
2026-01-15 07:03:25.35	116.95	15.49	-53.4	-57.8	3.7	0.00e+00	0	46	104	0	78	23798
2026-01-15 07:03:26.21	116.78	15.59	-53.6	-57.9	3.7	0.00e+00	0	46	104	0	78	24128
2026-01-15 07:03:27.34	116.55	15.72	-53.6	-57.9	3.7	0.00e+00	0	46	104	0	78	24242
2026-01-15 07:03:28.19	116.38	15.82	-53.6	-58.0	3.7	0.00e+00	0	46	104	0	78	24325
2026-01-15 07:03:29.33	116.15	15.95	-53.6	-57.9	3.7	0.00e+00	0	46	104	0	78	24228
2026-01-15 07:03:30.19	115.97	16.05	-53.7	-58.1	3.7	0.00e+00	0	46	104	0	78	24668
2026-01-15 07:03:31.32	115.73	16.18	-53.6	-58.0	3.7	0.00e+00	0	46	104	0	78	24409
2026-01-15 07:03:32.18	115.55	16.28	-53.7	-58.2	3.7	0.00e+00	0	46	104	0	78	24809
2026-01-15 07:03:33.31	115.31	16.42	-53.7	-58.1	3.7	0.00e+00	0	46	104	0	78	24714
2026-01-15 07:03:34.17	115.13	16.52	-53.7	-58.1	3.7	0.00e+00	0	46	104	0	78	24791
2026-01-15 07:03:35.30	114.88	16.65	-53.7	-58.1	3.7	0.00e+00	0	46	104	0	78	24570
2026-01-15 07:03:36.16	114.69	16.76	-53.7	-58.1	3.7	0.00e+00	0	46	104	0	78	24731
2026-01-15 07:03:37.31	114.44	16.89	-53.7	-58.1	3.7	0.00e+00	0	46	104	0	78	24607
2026-01-15 07:03:38.16	114.25	16.99	-53.7	-58.1	3.7	0.00e+00	0	46	104	0	78	24689
2026-01-15 07:03:39.30	113.99	17.13	-53.7	-58.1	3.7	0.00e+00	0	46	104	0	78	24688
2026-01-15 07:03:40.15	113.80	17.23	-53.7	-58.1	3.7	0.00e+00	0	46	104	0	78	24735
2026-01-15 07:03:41.29	113.54	17.37	-53.8	-58.1	3.7	0.00e+00	0	46	104	0	78	24781
2026-01-15 07:03:42.14	113.34	17.47	-53.6	-58.0	3.7	0.00e+00	0	46	104	0	78	24491
2026-01-15 07:03:43.28	113.07	17.61	-53.6	-58.0	3.7	0.00e+00	0	46	104	0	78	24509
2026-01-15 07:03:44.13	112.87	17.71	-53.4	-58.0	3.7	0.00e+00	0	46	104	0	78	24493
2026-01-15 07:03:45.27	112.60	17.85	-53.6	-58.1	3.7	0.00e+00	0	46	104	0	78	24536
2026-01-15 07:03:46.12	112.40	17.96	-53.4	-58.0	3.7	0.00e+00	0	46	104	0	78	24281
2026-01-15 07:03:47.26	112.12	18.10	-53.4	-58.0	3.7	0.00e+00	0	47	104	0	78	24439
2026-01-15 07:03:48.11	111.91	18.20	-53.4	-58.0	3.7	0.00e+00	0	46	104	0	78	24464
2026-01-15 07:03:49.25	111.63	18.34	-53.4	-58.1	3.7	0.00e+00	0	46	104	0	78	24541
2026-01-15 07:03:50.10	111.42	18.45	-53.5	-58.0	3.7	0.00e+00	0	46	104	0	78	24402
2026-01-15 07:03:51.24	111.13	18.59	-53.5	-58.1	3.7	0.00e+00	0	46	104	0	78	24564
2026-01-15 07:03:52.09	110.91	18.69	-53.5	-58.1	3.7	0.00e+00	0	46	104	0	78	24647
2026-01-15 07:03:53.23	110.62	18.84	-53.4	-58.0	3.7	0.00e+00	0	46	104	0	78	24434
2026-01-15 07:03:54.08	110.40	18.94	-53.5	-58.1	3.7	0.00e+00	0	46	104	0	78	24648
2026-01-15 07:03:55.22	110.10	19.08	-53.6	-58.1	3.7	0.00e+00	0	46	104	0	78	24645
2026-01-15 07:03:56.07	109.87	19.19	-53.7	-58.0	3.7	0.00e+00	0	46	104	0	78	24478
2026-01-15 07:03:57.24	109.56	19.34	-53.6	-58.1	3.7	0.00e+00	0	46	104	0	78	24625
2026-01-15 07:03:58.09	109.33	19.44	-53.7	-58.1	3.7	0.00e+00	0	46	104	0	78	24584
2026-01-15 07:03:59.31	109.00	19.60	-53.8	-58.1	3.7	0.00e+00	0	47	104	0	78	24625
2026-01-15 07:04:00.16	108.77	19.70	-53.8	-58.1	3.7	0.00e+00	0	46	104	0	78	24687
2026-01-15 07:04:01.30	108.45	19.85	-53.7	-58.1	3.7	0.00e+00	0	46	104	0	78	24526
2026-01-15 07:04:02.15	108.21	19.96	-53.8	-58.2	3.7	0.00e+00	0	46	104	0	78	24886
2026-01-15 07:04:03.29	107.89	20.10	-53.6	-58.1	3.7	0.00e+00	0	46	104	0	78	24708
2026-01-15 07:04:04.14	107.65	20.21	-53.5	-58.0	3.7	0.00e+00	0	47	104	0	78	24411
2026-01-15 07:04:05.48	107.26	20.38	-53.6	-58.1	3.7	0.00e+00	0	46	104	0	78	24685
2026-01-15 07:04:06.19	107.05	20.47	-53.5	-58.0	3.7	0.00e+00	0	46	104	0	78	24489
2026-01-15 07:04:07.47	106.68	20.63	-53.6	-58.0	3.7	0.00e+00	0	46	104	0	78	24463
2026-01-15 07:04:08.20	106.46	20.72	-53.6	-58.1	3.7	0.00e+00	0	46	104	0	78	24620
2026-01-15 07:04:09.48	106.07	20.89	-53.6	-58.0	3.7	0.00e+00	0	46	104	0	78	24266
2026-01-15 07:04:10.19	105.86	20.98	-53.5	-58.0	3.7	0.00e+00	0	46	104	0	78	24313
2026-01-15 07:04:11.47	105.47	21.14	-53.6	-58.1	3.7	0.00e+00	0	46	104	0	78	24742
2026-01-15 07:04:12.17	105.25	21.23	-53.7	-58.2	3.7	0.00e+00	0	46	104	0	78	24878
2026-01-15 07:04:13.46	104.85	21.39	-53.6	-58.1	3.7	0.00e+00	0	46	104	0	78	24763
2026-01-15 07:04:14.18	104.62	21.49	-53.8	-58.3	3.7	0.00e+00	0	46	104	0	78	25144
2026-01-15 07:04:15.46	104.22	21.65	-53.7	-58.1	3.7	0.00e+00	0	46	104	0	78	24648
2026-01-15 07:04:16.19	103.98	21.74	-53.8	-58.2	3.7	0.00e+00	0	46	104	0	78	24869
2026-01-15 07:04:17.47	103.57	21.91	-53.8	-58.2	3.7	0.00e+00	0	46	104	0	78	24875
2026-01-15 07:04:18.19	103.34	22.00	-53.7	-58.1	3.7	0.00e+00	0	46	104	0	78	24623
2026-01-15 07:04:19.48	102.91	22.16	-53.6	-58.2	3.7	0.00e+00	0	47	104	0	78	24808
2026-01-15 07:04:20.19	102.67	22.25	-53.7	-58.2	3.7	0.00e+00	0	46	104	0	78	24992
2026-01-15 07:04:21.47	102.25	22.41	-53.8	-58.2	3.7	0.00e+00	0	46	104	0	78	25078
2026-01-15 07:04:22.19	102.00	22.51	-53.6	-58.1	3.7	0.00e+00	0	47	104	0	78	24740
2026-01-15 07:04:23.56	101.53	22.68	-53.6	-57.8	3.7	0.00e+00	0	46	104	0	78	23784
2026-01-15 07:04:24.27	101.29	22.77	-53.7	-57.8	3.7	0.00e+00	0	46	104	0	78	23802
2026-01-15 07:04:25.62	100.82	22.94	-53.7	-57.7	3.7	0.00e+00	0	46	104	0	78	23677
2026-01-15 07:04:26.33	100.57	23.03	-53.6	-57.8	3.7	0.00e+00	0	46	104	0	78	23749
2026-01-15 07:04:27.61	100.11	23.19	-53.9	-58.2	3.7	0.00e+00	0	46	104	0	78	25088
2026-01-15 07:04:28.32	99.86	23.28	-53.9	-58.3	3.7	0.00e+00	0	46	104	0	78	25203
2026-01-15 07:04:29.76	99.34	23.46	-53.9	-58.3	3.7	0.00e+00	0	47	104	0	78	25247
2026-01-15 07:04:30.47	99.08	23.55	-53.8	-58.2	3.7	0.00e+00	0	46	104	0	78	25075
2026-01-15 07:04:31.74	98.61	23.70	-53.6	-58.0	3.7	0.00e+00	0	46	104	0	78	24282
2026-01-15 07:04:32.47	98.34	23.79	-53.6	-58.0	3.7	0.00e+00	0	46	104	0	78	24249
2026-01-15 07:04:33.75	97.86	23.95	-53.8	-58.1	3.7	0.00e+00	0	46	104	0	78	24612
2026-01-15 07:04:34.46	97.59	24.04	-53.8	-58.2	3.7	0.00e+00	0	47	104	0	78	24814
2026-01-15 07:04:35.74	97.10	24.19	-53.8	-58.0	3.7	0.00e+00	0	47	104	0	78	24289
2026-01-15 07:04:36.48	96.82	24.28	-53.8	-57.9	3.7	0.00e+00	0	46	104	0	78	24188
2026-01-15 07:04:37.75	96.32	24.44	-53.6	-57.8	3.7	0.00e+00	0	46	104	0	78	23703
2026-01-15 07:04:38.49	96.03	24.53	-53.5	-57.5	3.7	0.00e+00	0	46	104	0	78	23122
2026-01-15 07:04:39.77	95.53	24.68	-53.2	-57.3	3.7	0.00e+00	0	47	104	0	78	22413
2026-01-15 07:04:40.48	95.24	24.76	-53.2	-57.3	3.7	0.00e+00	0	47	104	0	78	22429
2026-01-15 07:04:41.76	94.73	24.92	-53.4	-57.4	3.7	0.00e+00	0	46	104	0	78	22812
2026-01-15 07:04:42.55	94.41	25.01	-53.5	-57.5	3.7	0.00e+00	0	46	104	0	78	23023
2026-01-15 07:04:43.77	93.91	25.15	-53.7	-57.8	3.7	0.00e+00	0	47	104	0	78	23754
2026-01-15 07:04:44.70	93.53	25.26	-53.8	-57.9	3.7	0.00e+00	0	46	104	0	78	24000
2026-01-15 07:04:45.86	93.05	25.39	-53.7	-58.1	3.7	0.00e+00	0	46	104	0	78	24791
2026-01-15 07:04:46.75	92.67	25.49	-53.4	-58.0	3.7	0.00e+00	0	47	104	0	78	24500
2026-01-15 07:04:47.88	92.19	25.62	-53.5	-58.1	3.7	0.00e+00	0	47	104	0	78	24659
2026-01-15 07:04:48.74	91.83	25.72	-53.3	-57.9	3.7	0.00e+00	0	46	104	0	78	24202
2026-01-15 07:04:50.11	91.24	25.87	-53.6	-58.0	3.7	0.00e+00	0	47	104	0	78	24441
2026-01-15 07:04:50.82	90.93	25.95	-53.7	-58.1	3.7	0.00e+00	0	47	104	0	78	24788
2026-01-15 07:04:52.10	90.37	26.09	-53.8	-58.2	3.7	0.00e+00	0	47	104	0	78	25017
2026-01-15 07:04:53.28	89.85	26.21	-53.6	-58.2	3.7	0.00e+00	0	47	104	0	78	25041
2026-01-15 07:04:54.13	89.48	26.30	-53.3	-58.1	3.7	0.00e+00	0	47	104	0	78	24599
2026-01-15 07:04:55.27	88.97	26.42	-53.2	-58.0	3.7	0.00e+00	0	47	104	0	78	24314
2026-01-15 07:04:56.12	88.58	26.51	-53.2	-58.0	3.7	0.00e+00	0	47	104	0	78	24372
2026-01-15 07:04:57.29	88.05	26.63	-53.4	-58.1	3.7	0.00e+00	0	46	104	0	78	24660
2026-01-15 07:04:58.15	87.66	26.71	-53.0	-57.8	3.7	0.00e+00	0	46	104	0	78	23944
2026-01-15 07:04:59.35	87.11	26.83	-52.9	-57.9	3.7	0.00e+00	0	47	104	0	77	25535
2026-01-15 07:05:00.20	86.71	26.92	-53.0	-57.9	3.7	0.00e+00	0	47	104	0	77	25649
2026-01-15 07:05:01.34	86.18	27.03	-53.0	-57.9	3.7	0.00e+00	0	47	104	0	77	25668
2026-01-15 07:05:02.19	85.78	27.11	-52.8	-57.8	3.7	0.00e+00	0	47	104	0	77	25284
2026-01-15 07:05:03.43	85.20	27.22	-52.8	-57.7	3.7	0.00e+00	0	47	104	0	77	24970
2026-01-15 07:05:04.29	84.79	27.30	-52.9	-57.7	3.7	0.00e+00	0	47	104	0	77	25048
2026-01-15 07:05:05.42	84.25	27.40	-52.8	-57.7	3.7	0.00e+00	0	47	104	0	77	24942
2026-01-15 07:05:06.28	83.83	27.48	-53.0	-57.9	3.7	0.00e+00	0	46	104	0	77	25518
2026-01-15 07:05:07.41	83.29	27.58	-52.7	-57.7	3.7	0.00e+00	0	47	104	0	77	25041
2026-01-15 07:05:08.27	82.87	27.65	-52.8	-57.8	3.7	0.00e+00	0	46	104	0	77	25181
2026-01-15 07:05:09.62	82.20	27.76	-52.6	-57.8	3.7	0.00e+00	0	46	104	0	77	25207
2026-01-15 07:05:10.33	81.85	27.82	-52.9	-57.9	3.7	0.00e+00	0	47	104	0	77	25457
2026-01-15 07:05:11.61	81.22	27.92	-53.2	-58.0	3.7	0.00e+00	0	47	104	0	77	25880
2026-01-15 07:05:12.32	80.86	27.97	-53.4	-58.1	3.7	0.00e+00	0	47	104	0	77	26263
2026-01-15 07:05:13.60	80.22	28.07	-53.4	-58.2	3.7	0.00e+00	0	47	104	0	77	26376
2026-01-15 07:05:14.31	79.87	28.12	-53.7	-58.3	3.7	0.00e+00	0	47	104	0	77	26670
2026-01-15 07:05:15.59	79.22	28.21	-53.6	-58.0	3.7	0.00e+00	0	46	104	0	78	24494
2026-01-15 07:05:16.30	78.86	28.26	-53.6	-58.0	3.7	0.00e+00	0	47	104	0	78	24478
2026-01-15 07:05:17.58	78.20	28.35	-53.7	-58.1	3.7	0.00e+00	0	47	104	0	78	24728
2026-01-15 07:05:18.30	77.83	28.39	-53.7	-58.1	3.7	0.00e+00	0	47	104	0	78	24679
2026-01-15 07:05:19.58	77.17	28.47	-53.6	-58.1	3.7	0.00e+00	0	47	104	0	78	24739
2026-01-15 07:05:20.30	76.80	28.52	-53.6	-58.2	3.7	0.00e+00	0	47	104	0	78	24988
2026-01-15 07:05:21.57	76.14	28.59	-53.6	-58.2	3.7	0.00e+00	0	47	104	0	78	24923
2026-01-15 07:05:22.28	75.77	28.63	-53.5	-58.1	3.7	0.00e+00	0	46	104	0	78	24737
2026-01-15 07:05:23.56	75.10	28.70	-53.6	-58.2	3.7	0.00e+00	0	47	104	0	78	25027
2026-01-15 07:05:24.29	74.72	28.73	-53.7	-58.2	3.7	0.00e+00	0	47	104	0	78	25055
2026-01-15 07:05:25.63	74.01	28.80	-53.7	-58.1	3.7	0.00e+00	0	47	104	0	78	24556
2026-01-15 07:05:26.34	73.63	28.83	-53.6	-58.0	3.7	0.00e+00	0	47	104	0	78	24291
2026-01-15 07:05:27.62	72.96	28.89	-54.0	-58.4	3.7	0.00e+00	0	47	104	0	78	25512
2026-01-15 07:05:28.68	72.39	28.93	-54.0	-58.4	3.7	0.00e+00	0	47	104	0	78	25618
2026-01-15 07:05:29.86	71.76	28.98	-54.0	-58.4	3.7	0.00e+00	0	46	104	0	78	25615
2026-01-15 07:05:30.84	71.24	29.01	-53.8	-58.3	3.6	0.00e+00	0	46	104	0	78	25356
2026-01-15 07:05:31.84	70.70	29.04	-53.8	-58.3	3.7	0.00e+00	0	47	104	0	78	25228
2026-01-15 07:05:32.83	70.17	29.07	-53.8	-58.3	3.7	0.00e+00	0	47	104	0	78	25199
2026-01-15 07:05:33.83	69.63	29.10	-53.8	-58.3	3.7	0.00e+00	0	47	104	0	78	25312
2026-01-15 07:05:34.82	69.09	29.12	-53.8	-58.2	3.7	0.00e+00	0	47	104	0	78	24917
2026-01-15 07:05:35.82	68.55	29.15	-54.0	-58.3	3.6	0.00e+00	0	47	104	0	78	25299
2026-01-15 07:05:36.81	68.02	29.17	-53.9	-58.3	3.7	0.00e+00	0	47	104	0	78	25126
2026-01-15 07:05:37.81	67.48	29.18	-54.0	-58.3	3.7	0.00e+00	0	47	104	0	78	25374
2026-01-15 07:05:38.80	66.94	29.20	-53.9	-58.2	3.7	0.00e+00	0	47	104	0	78	24976
2026-01-15 07:05:39.79	66.40	29.21	-53.7	-58.2	3.7	0.00e+00	0	47	104	0	78	24827
2026-01-15 07:05:40.84	65.83	29.22	-53.8	-58.2	3.7	0.00e+00	0	47	104	0	78	24889
2026-01-15 07:05:41.84	65.29	29.23	-53.7	-58.3	3.7	0.00e+00	0	47	104	0	78	25262
2026-01-15 07:05:42.84	64.75	29.23	-53.9	-58.3	3.7	0.00e+00	0	47	104	0	78	25123
2026-01-15 07:05:43.83	64.21	29.23	-53.9	-58.4	3.7	0.00e+00	0	47	104	0	78	25448
2026-01-15 07:05:44.93	63.61	29.23	-54.0	-58.3	3.7	0.00e+00	0	47	104	0	78	25352
2026-01-15 07:05:45.82	63.12	29.23	-53.9	-58.4	3.7	0.00e+00	0	47	104	0	78	25619
2026-01-15 07:05:47.13	62.41	29.22	-53.5	-57.9	3.7	0.00e+00	0	47	104	0	78	24039
2026-01-15 07:05:47.84	62.03	29.21	-53.4	-57.8	3.7	0.00e+00	0	47	104	0	78	23693
2026-01-15 07:05:49.12	61.33	29.19	-53.4	-57.8	3.7	0.00e+00	0	47	104	0	78	23792
2026-01-15 07:05:49.85	60.94	29.18	-53.5	-57.8	3.7	0.00e+00	0	47	104	0	78	23923
2026-01-15 07:05:51.13	60.24	29.16	-53.7	-57.9	3.7	0.00e+00	0	47	104	0	78	24197
2026-01-15 07:05:51.85	59.86	29.15	-53.7	-57.9	3.7	0.00e+00	0	47	104	0	78	24178
2026-01-15 07:05:53.13	59.16	29.12	-53.8	-57.9	3.7	0.00e+00	0	47	104	0	78	24105
2026-01-15 07:05:53.86	58.77	29.10	-53.7	-58.1	3.7	0.00e+00	0	47	104	0	78	24565
2026-01-15 07:05:55.13	58.09	29.06	-53.3	-57.7	3.7	0.00e+00	0	46	104	0	78	23540
2026-01-15 07:05:56.01	57.62	29.03	-53.7	-57.9	3.7	0.00e+00	0	47	104	0	78	24059
2026-01-15 07:05:57.14	57.01	29.00	-53.6	-57.9	3.7	0.00e+00	0	47	104	0	78	24021
2026-01-15 07:05:58.00	56.55	28.97	-53.9	-58.2	3.7	0.00e+00	0	47	104	0	78	24939
2026-01-15 07:05:59.14	55.94	28.92	-53.7	-58.0	3.7	0.00e+00	0	47	104	0	78	24388
2026-01-15 07:05:59.99	55.49	28.89	-53.0	-56.8	3.7	0.00e+00	0	47	104	0	78	21305
2026-01-15 07:06:01.12	54.89	28.84	-53.2	-57.2	3.7	0.00e+00	0	47	104	0	78	22344
2026-01-15 07:06:02.31	54.26	28.78	-53.1	-57.0	3.7	0.00e+00	0	47	104	0	77	22999
2026-01-15 07:06:03.33	53.73	28.73	-53.7	-57.9	3.7	0.00e+00	0	47	104	0	78	24214
2026-01-15 07:06:04.33	53.20	28.68	-53.8	-58.1	3.7	0.00e+00	0	47	104	0	78	24630
2026-01-15 07:06:05.33	52.68	28.63	-53.7	-57.8	3.7	0.00e+00	0	47	104	0	78	23759
2026-01-15 07:06:06.56	52.04	28.56	-53.4	-57.2	3.7	0.00e+00	0	47	104	0	78	22336
2026-01-15 07:06:07.42	51.60	28.51	-53.2	-57.0	3.7	0.00e+00	0	47	104	0	78	21695
2026-01-15 07:06:08.56	51.01	28.44	-53.4	-57.3	3.7	0.00e+00	0	47	104	0	78	22586
2026-01-15 07:06:09.41	50.57	28.39	-53.6	-57.7	3.7	0.00e+00	0	47	104	0	78	23639
2026-01-15 07:06:10.55	49.99	28.31	-53.6	-57.7	3.7	0.00e+00	0	47	104	0	78	23513
2026-01-15 07:06:11.40	49.56	28.26	-53.9	-58.1	3.7	0.00e+00	0	47	104	0	78	24650
2026-01-15 07:06:12.53	48.98	28.18	-53.8	-57.9	3.7	0.00e+00	0	47	104	0	78	24075
2026-01-15 07:06:13.39	48.55	28.12	-53.9	-58.3	3.7	0.00e+00	0	47	104	0	78	25132
2026-01-15 07:06:14.52	47.98	28.03	-53.9	-58.2	3.7	0.00e+00	0	47	104	0	78	24859
2026-01-15 07:06:15.38	47.55	27.97	-53.7	-57.8	3.7	0.00e+00	0	47	104	0	78	23782
2026-01-15 07:06:16.51	46.99	27.88	-53.3	-57.3	3.7	0.00e+00	0	47	104	0	78	22455
2026-01-15 07:06:17.37	46.57	27.81	-53.1	-56.8	3.7	0.00e+00	0	46	104	0	78	21318
2026-01-15 07:06:18.50	46.01	27.72	-53.3	-57.2	3.7	0.00e+00	0	47	104	0	78	22345
2026-01-15 07:06:19.36	45.59	27.65	-53.4	-57.5	3.7	0.00e+00	0	47	104	0	78	23049
2026-01-15 07:06:20.60	44.99	27.55	-53.2	-57.2	3.7	0.00e+00	0	47	104	0	78	22162
2026-01-15 07:06:21.46	44.58	27.47	-53.3	-57.4	3.7	0.00e+00	0	46	104	0	78	22708
2026-01-15 07:06:22.59	44.03	27.37	-52.2	-55.3	3.7	0.00e+00	0	47	104	0	76	19968
2026-01-15 07:06:23.45	43.62	27.29	-51.9	-55.0	3.8	0.00e+00	0	47	104	0	75	20441
2026-01-15 07:06:24.58	43.09	27.19	-52.1	-55.4	3.7	0.00e+00	0	47	104	0	75	21390
2026-01-15 07:06:25.43	42.69	27.11	-52.4	-55.8	3.7	0.00e+00	0	47	104	0	75	22501
2026-01-15 07:06:26.57	42.16	27.00	-52.9	-56.9	3.7	0.00e+00	0	47	104	0	76	24026
2026-01-15 07:06:27.42	41.76	26.92	-53.2	-57.4	3.6	0.00e+00	0	47	104	0	77	24011
2026-01-15 07:06:28.56	41.24	26.81	-53.6	-58.0	3.7	0.00e+00	0	47	104	0	77	25785
2026-01-15 07:06:29.42	40.84	26.73	-53.7	-58.1	3.7	0.00e+00	0	47	104	0	78	24632
2026-01-15 07:06:30.55	40.33	26.61	-53.5	-57.6	3.7	0.00e+00	0	47	104	0	78	23307
2026-01-15 07:06:31.40	39.94	26.53	-53.6	-57.9	3.7	0.00e+00	0	47	104	0	78	24161
2026-01-15 07:06:32.54	39.43	26.41	-53.7	-58.1	3.7	0.00e+00	0	47	104	0	78	24579
2026-01-15 07:06:33.39	39.05	26.32	-52.7	-56.2	3.7	0.00e+00	0	47	104	0	77	21054
2026-01-15 07:06:34.53	38.55	26.20	-52.0	-55.0	3.8	0.00e+00	0	47	104	0	76	19371
2026-01-15 07:06:35.38	38.18	26.11	-52.4	-55.6	3.7	0.00e+00	0	47	104	0	76	20695
2026-01-15 07:06:36.52	37.68	25.99	-52.9	-56.6	3.7	0.00e+00	0	47	104	0	76	23204
2026-01-15 07:06:37.38	37.31	25.89	-52.9	-56.5	3.7	0.00e+00	0	47	104	0	76	22937
2026-01-15 07:06:38.51	36.83	25.77	-51.5	-54.4	3.7	0.00e+00	0	47	104	0	75	19122
2026-01-15 07:06:39.37	36.46	25.67	-51.8	-54.7	3.7	0.00e+00	0	47	104	0	74	21043
2026-01-15 07:06:40.50	35.98	25.55	-52.4	-55.5	3.7	0.00e+00	0	47	104	0	76	20607
2026-01-15 07:06:41.36	35.62	25.45	-51.8	-54.7	3.7	0.00e+00	0	47	104	0	75	19850
2026-01-15 07:06:42.49	35.15	25.32	-53.4	-57.2	3.7	0.00e+00	0	47	104	0	77	23519
2026-01-15 07:06:43.35	34.80	25.22	-53.4	-57.4	3.7	0.00e+00	0	47	104	0	77	24240
2026-01-15 07:06:44.49	34.33	25.09	-52.9	-56.8	3.7	0.00e+00	0	47	104	0	77	22584
2026-01-15 07:06:45.34	33.99	24.99	-52.9	-56.9	3.7	0.00e+00	0	47	104	0	77	22670
2026-01-15 07:06:46.48	33.53	24.86	-52.3	-55.9	3.7	0.00e+00	0	47	104	0	76	21567
2026-01-15 07:06:47.33	33.19	24.76	-52.4	-56.2	3.7	0.00e+00	0	47	104	0	76	22196
2026-01-15 07:06:48.47	32.74	24.62	-52.6	-57.2	3.7	0.00e+00	0	47	104	0	76	24908
2026-01-15 07:06:49.32	32.41	24.52	-52.4	-56.7	3.7	0.00e+00	0	46	104	0	76	23525
2026-01-15 07:06:50.46	31.96	24.38	-52.5	-56.8	3.7	0.00e+00	0	47	104	0	76	23711
2026-01-15 07:06:51.31	31.64	24.28	-52.0	-55.9	3.7	0.00e+00	0	47	104	0	75	22788
2026-01-15 07:06:52.45	31.20	24.14	-52.3	-56.5	3.7	0.00e+00	0	47	104	0	75	24381
2026-01-15 07:06:53.30	30.88	24.04	-52.5	-56.9	3.7	0.00e+00	0	47	104	0	75	25399
2026-01-15 07:06:54.58	30.40	23.88	-52.8	-57.2	3.7	0.00e+00	0	47	104	0	76	24915
2026-01-15 07:06:55.30	30.13	23.79	-52.9	-57.2	3.7	0.00e+00	0	47	104	0	76	24884
2026-01-15 07:06:56.77	29.59	23.61	-52.9	-57.2	3.7	0.00e+00	0	47	104	0	76	24862
2026-01-15 07:06:57.48	29.33	23.53	-52.6	-56.4	3.7	0.00e+00	0	47	104	0	76	22710
2026-01-15 07:06:58.76	28.87	23.37	-52.4	-55.9	3.7	0.00e+00	0	47	104	0	76	21592
2026-01-15 07:06:59.47	28.61	23.28	-52.5	-56.2	3.7	0.00e+00	0	47	104	0	76	22268
2026-01-15 07:07:00.75	28.16	23.12	-53.2	-57.6	3.7	0.00e+00	0	46	104	0	77	24675
2026-01-15 07:07:01.47	27.91	23.03	-53.3	-57.7	3.7	0.00e+00	0	47	104	0	77	25011
2026-01-15 07:07:02.75	27.46	22.87	-52.8	-56.6	3.7	0.00e+00	0	46	104	0	77	22065
2026-01-15 07:07:03.48	27.21	22.78	-53.0	-56.7	3.7	0.00e+00	0	47	104	0	77	22140
2026-01-15 07:07:04.75	26.77	22.62	-53.4	-57.4	3.7	0.00e+00	0	47	104	0	77	24213
2026-01-15 07:07:05.50	26.52	22.52	-52.9	-56.5	3.7	0.00e+00	0	47	104	0	77	21650
2026-01-15 07:07:06.77	26.09	22.36	-51.4	-54.5	3.7	0.00e+00	0	47	104	0	74	20630
2026-01-15 07:07:07.50	25.85	22.27	-51.5	-54.7	3.7	0.00e+00	0	47	104	0	74	20911
2026-01-15 07:07:08.78	25.43	22.11	-50.3	-53.8	3.7	0.00e+00	0	47	104	0	72	21219
2026-01-15 07:07:09.58	25.17	22.01	-50.4	-54.1	3.7	0.00e+00	0	47	104	0	72	21927
2026-01-15 07:07:10.72	24.80	21.86	-51.1	-55.2	3.7	0.00e+00	0	47	104	0	72	24834
2026-01-15 07:07:11.72	24.48	21.74	-51.9	-56.3	3.7	0.00e+00	0	47	104	0	74	25241
2026-01-15 07:07:12.71	24.16	21.61	-51.7	-55.4	3.7	0.00e+00	0	47	104	0	74	22729
2026-01-15 07:07:13.71	23.85	21.49	-51.8	-55.6	3.7	0.00e+00	0	47	104	0	74	23393
2026-01-15 07:07:14.70	23.54	21.36	-52.1	-56.3	3.7	0.00e+00	0	47	104	0	74	25247
2026-01-15 07:07:15.70	23.23	21.23	-52.2	-56.5	3.7	0.00e+00	0	47	104	0	75	24417
2026-01-15 07:07:16.70	22.93	21.11	-51.4	-55.0	3.7	0.00e+00	0	47	104	0	74	21734
2026-01-15 07:07:17.69	22.63	20.98	-52.0	-56.1	3.7	0.00e+00	0	47	104	0	74	24722
2026-01-15 07:07:18.69	22.33	20.85	-52.3	-56.8	3.7	0.00e+00	0	47	104	0	75	25097
2026-01-15 07:07:19.68	22.03	20.73	-52.6	-57.3	3.7	0.00e+00	0	47	104	0	75	26652
2026-01-15 07:07:20.68	21.74	20.60	-52.7	-57.4	3.7	0.00e+00	0	47	104	0	76	25607
2026-01-15 07:07:21.67	21.45	20.48	-53.0	-57.5	3.7	0.00e+00	0	47	104	0	76	25825
2026-01-15 07:07:22.67	21.16	20.35	-53.3	-57.7	3.7	0.00e+00	0	47	104	0	77	25011
2026-01-15 07:07:23.74	20.85	20.22	-53.1	-57.5	3.7	0.00e+00	0	47	104	0	77	24462
2026-01-15 07:07:24.62	20.61	20.11	-53.4	-57.8	3.7	0.00e+00	0	47	104	0	77	25220
2026-01-15 07:07:25.76	20.29	19.96	-53.3	-57.8	3.7	0.00e+00	0	47	104	0	77	25263
2026-01-15 07:07:26.69	20.03	19.85	-52.9	-57.6	3.7	0.00e+00	0	47	104	0	77	24579
2026-01-15 07:07:27.86	19.71	19.70	-53.3	-57.7	3.7	0.00e+00	0	47	104	0	77	25012
2026-01-15 07:07:28.74	19.47	19.59	-52.6	-57.2	3.7	0.00e+00	0	47	104	0	77	23449
2026-01-15 07:07:29.88	19.16	19.45	-52.9	-57.6	3.7	0.00e+00	0	47	104	0	77	24546
2026-01-15 07:07:30.73	18.93	19.34	-53.1	-57.7	3.7	0.00e+00	0	47	104	0	77	24847
2026-01-15 07:07:32.08	18.57	19.17	-53.3	-58.0	3.7	0.00e+00	0	47	104	0	77	25702
2026-01-15 07:07:32.79	18.39	19.08	-53.3	-57.9	3.7	0.00e+00	0	47	104	0	77	25667
2026-01-15 07:07:34.07	18.06	18.93	-52.9	-57.7	3.7	0.00e+00	0	47	104	0	77	25011
2026-01-15 07:07:34.79	17.87	18.84	-52.5	-57.5	3.7	0.00e+00	0	47	104	0	77	24312
2026-01-15 07:07:36.07	17.55	18.68	-52.5	-57.5	3.7	0.00e+00	0	46	104	0	76	25698
2026-01-15 07:07:36.88	17.34	18.58	-52.3	-56.7	3.7	0.00e+00	0	47	104	0	76	23677
2026-01-15 07:07:38.01	17.06	18.44	-52.9	-56.9	3.7	0.00e+00	0	47	104	0	76	23985
2026-01-15 07:07:38.87	16.85	18.33	-52.3	-56.4	3.7	0.00e+00	0	47	104	0	76	22850
2026-01-15 07:07:40.00	16.57	18.20	-53.1	-57.0	3.7	0.00e+00	0	47	104	0	76	24409
2026-01-15 07:07:40.86	16.36	18.09	-53.4	-57.4	3.7	0.00e+00	0	47	104	0	77	24177
2026-01-15 07:07:41.99	16.09	17.95	-53.7	-57.9	3.7	0.00e+00	0	47	104	0	77	25675
2026-01-15 07:07:42.85	15.89	17.85	-53.6	-58.1	3.7	0.00e+00	0	47	104	0	78	24544
2026-01-15 07:07:43.99	15.62	17.71	-53.6	-58.0	3.7	0.00e+00	0	47	104	0	78	24423
2026-01-15 07:07:44.84	15.42	17.61	-52.8	-57.5	3.7	0.00e+00	0	47	104	0	77	24492
2026-01-15 07:07:46.02	15.15	17.47	-52.8	-57.6	3.7	0.00e+00	0	47	104	0	77	24675
2026-01-15 07:07:46.88	14.95	17.36	-52.3	-57.5	3.7	0.00e+00	0	47	104	0	76	25735
2026-01-15 07:07:48.01	14.69	17.23	-52.8	-57.6	3.7	0.00e+00	0	47	104	0	76	26230
2026-01-15 07:07:48.86	14.50	17.13	-52.3	-57.5	3.7	0.00e+00	0	47	104	0	76	25794
2026-01-15 07:07:50.00	14.25	16.99	-52.6	-57.7	3.7	0.00e+00	0	47	104	0	76	26387
2026-01-15 07:07:50.86	14.06	16.89	-52.6	-57.6	3.7	0.00e+00	0	47	104	0	76	26209
2026-01-15 07:07:51.99	13.81	16.75	-52.0	-57.2	3.7	0.00e+00	0	47	104	0	76	24866
2026-01-15 07:07:52.85	13.62	16.65	-50.8	-56.3	3.7	0.00e+00	0	47	104	0	73	26699
2026-01-15 07:07:53.98	13.38	16.52	-51.5	-56.9	3.7	0.00e+00	0	47	104	0	73	28499
2026-01-15 07:07:54.84	13.20	16.42	-51.1	-56.7	3.7	0.00e+00	0	47	104	0	73	27928
2026-01-15 07:07:55.97	12.96	16.29	-51.8	-57.1	3.7	0.00e+00	0	47	104	0	74	27570
2026-01-15 07:07:56.83	12.78	16.19	-50.9	-56.4	3.7	0.00e+00	0	47	104	0	73	27053
2026-01-15 07:07:57.96	12.55	16.06	-51.1	-56.5	3.7	0.00e+00	0	47	104	0	73	27345
2026-01-15 07:07:58.81	12.37	15.96	-51.3	-56.7	3.7	0.00e+00	0	47	104	0	73	27964
2026-01-15 07:07:59.95	12.14	15.83	-51.7	-57.0	3.7	0.00e+00	0	47	104	0	74	27418
2026-01-15 07:08:00.80	11.97	15.73	-52.1	-57.3	3.7	0.00e+00	0	47	104	0	74	28300
2026-01-15 07:08:01.94	11.74	15.60	-52.6	-57.5	3.7	0.00e+00	0	47	104	0	75	27468
2026-01-15 07:08:02.79	11.58	15.50	-52.3	-57.2	3.7	0.00e+00	0	47	104	0	75	26568
2026-01-15 07:08:04.01	11.34	15.36	-50.7	-56.4	3.7	0.00e+00	0	47	104	0	73	26903
2026-01-15 07:08:04.86	11.17	15.27	-50.8	-56.3	3.7	0.00e+00	0	47	104	0	73	26798
2026-01-15 07:08:06.00	10.95	15.14	-50.9	-56.5	3.7	0.00e+00	0	47	104	0	73	27211
2026-01-15 07:08:06.85	10.79	15.04	-50.9	-56.5	3.7	0.00e+00	0	47	104	0	73	27462
2026-01-15 07:08:08.11	10.55	14.90	-50.2	-56.0	3.7	0.00e+00	0	47	104	0	72	27348
2026-01-15 07:08:08.89	10.41	14.82	-49.9	-55.8	3.7	0.00e+00	0	47	104	0	71	28236
2026-01-15 07:08:10.28	10.15	14.66	-49.7	-55.7	3.7	0.00e+00	0	47	104	0	71	28046
2026-01-15 07:08:10.99	10.02	14.58	-49.9	-55.9	3.7	0.00e+00	0	47	104	0	71	28555
2026-01-15 07:08:12.27	9.79	14.44	-50.2	-56.1	3.7	0.00e+00	0	47	104	0	71	29301
2026-01-15 07:08:12.99	9.66	14.36	-49.8	-55.8	3.7	0.00e+00	0	47	104	0	71	28201
2026-01-15 07:08:14.27	9.43	14.22	-50.0	-55.7	3.7	0.00e+00	0	47	104	0	71	27958
2026-01-15 07:08:14.99	9.30	14.14	-50.4	-56.3	3.7	0.00e+00	0	47	104	0	71	29972
2026-01-15 07:08:16.26	9.08	14.01	-50.6	-56.1	3.7	0.00e+00	0	47	104	0	72	27648
2026-01-15 07:08:17.00	8.95	13.93	-51.1	-56.5	3.7	0.00e+00	0	47	104	0	72	28871
2026-01-15 07:08:18.28	8.73	13.79	-51.9	-57.1	3.7	0.00e+00	0	47	104	0	74	27688
2026-01-15 07:08:18.99	8.61	13.71	-52.1	-57.2	3.7	0.00e+00	0	47	104	0	74	28061
2026-01-15 07:08:20.27	8.40	13.57	-52.2	-57.4	3.7	0.00e+00	0	47	104	0	75	27019
2026-01-15 07:08:21.01	8.27	13.50	-52.0	-57.2	3.7	0.00e+00	0	47	104	0	75	26534
2026-01-15 07:08:22.29	8.06	13.36	-52.0	-57.0	3.7	0.00e+00	0	47	104	0	75	25857
2026-01-15 07:08:23.02	7.94	13.28	-52.4	-57.1	3.7	0.00e+00	0	47	104	0	75	26164
2026-01-15 07:08:24.30	7.73	13.15	-52.1	-57.2	3.7	0.00e+00	0	47	104	0	75	26376
2026-01-15 07:08:25.02	7.62	13.07	-52.5	-57.1	3.7	0.00e+00	0	47	104	0	75	26161
2026-01-15 07:08:26.30	7.41	12.94	-52.2	-56.7	3.7	0.00e+00	0	47	104	0	75	25085
2026-01-15 07:08:27.03	7.29	12.86	-51.7	-56.4	3.7	0.00e+00	0	47	104	0	75	24117
2026-01-15 07:08:28.31	7.09	12.73	-50.6	-55.8	3.7	0.00e+00	0	47	104	0	73	25290
2026-01-15 07:08:29.02	6.98	12.66	-50.2	-55.7	3.7	0.00e+00	0	47	104	0	72	26343
2026-01-15 07:08:30.30	6.78	12.53	-50.0	-55.4	3.7	0.00e+00	0	47	104	0	72	25633
2026-01-15 07:08:31.01	6.68	12.45	-50.3	-56.3	3.7	0.00e+00	0	47	104	0	71	30123
2026-01-15 07:08:32.29	6.48	12.32	-50.8	-56.0	3.7	0.00e+00	0	47	104	0	72	27368
2026-01-15 07:08:33.00	6.37	12.25	-49.9	-55.4	3.7	0.00e+00	0	47	104	0	71	27028
2026-01-15 07:08:34.28	6.18	12.12	-50.0	-55.5	3.7	0.00e+00	0	47	104	0	71	27503
2026-01-15 07:08:35.02	6.07	12.05	-50.3	-55.7	3.7	0.00e+00	0	47	104	0	71	28103
2026-01-15 07:08:36.30	5.89	11.92	-50.9	-56.0	3.7	0.00e+00	0	47	104	0	72	27471
2026-01-15 07:08:37.03	5.78	11.84	-51.3	-56.2	3.7	0.00e+00	0	47	104	0	73	26495
2026-01-15 07:08:38.31	5.59	11.72	-51.4	-56.2	3.7	0.00e+00	0	47	104	0	73	26568
2026-01-15 07:08:39.03	5.49	11.64	-51.3	-56.2	3.7	0.00e+00	0	47	104	0	73	26407
2026-01-15 07:08:40.31	5.31	11.52	-50.3	-56.0	3.7	0.00e+00	0	47	104	0	72	27508
2026-01-15 07:08:41.09	5.20	11.44	-50.5	-56.1	3.7	0.00e+00	0	47	104	0	72	27557
2026-01-15 07:08:42.67	4.98	11.29	-51.4	-56.9	3.7	0.00e+00	0	47	104	0	73	28659
2026-01-15 07:08:43.58	4.85	11.20	-50.7	-56.4	3.7	0.00e+00	0	47	104	0	73	26925
2026-01-15 07:08:44.58	4.72	11.10	-50.8	-56.4	3.7	0.00e+00	0	47	104	0	72	28776
2026-01-15 07:08:45.57	4.58	11.00	-50.8	-56.4	3.7	0.00e+00	0	47	104	0	72	28676
2026-01-15 07:08:46.57	4.45	10.91	-51.2	-56.8	3.7	0.00e+00	0	47	104	0	73	28179
2026-01-15 07:08:47.56	4.32	10.81	-51.3	-56.9	3.7	0.00e+00	0	47	104	0	74	27097
2026-01-15 07:08:48.55	4.19	10.72	-51.8	-57.2	3.7	0.00e+00	0	47	104	0	75	26357
2026-01-15 07:08:49.55	4.05	10.62	-52.0	-57.3	3.7	0.00e+00	0	47	104	0	75	26643
2026-01-15 07:08:50.54	3.93	10.53	-53.0	-57.8	3.7	0.00e+00	0	47	104	0	76	26721
2026-01-15 07:08:51.53	3.80	10.43	-52.6	-57.6	3.7	0.00e+00	0	47	104	0	77	24682
2026-01-15 07:08:52.53	3.67	10.34	-52.5	-57.6	3.7	0.00e+00	0	47	104	0	76	26150
2026-01-15 07:08:53.52	3.54	10.25	-51.2	-56.4	3.7	0.00e+00	0	47	104	0	74	25511
2026-01-15 07:08:54.52	3.42	10.15	-51.2	-56.4	3.7	0.00e+00	0	47	104	0	73	27138
2026-01-15 07:08:55.51	3.29	10.06	-50.0	-55.8	3.7	0.00e+00	0	47	104	0	72	26691
2026-01-15 07:08:56.51	3.17	9.97	-49.4	-55.1	3.7	0.00e+00	0	47	104	0	70	27561
2026-01-15 07:08:57.50	3.05	9.88	-49.0	-54.8	3.7	0.00e+00	0	47	104	0	69	28472
2026-01-15 07:08:58.50	2.93	9.78	-48.7	-54.7	3.7	0.00e+00	0	47	104	0	69	28047
2026-01-15 07:08:59.49	2.81	9.69	-48.9	-54.8	3.7	0.00e+00	0	47	104	0	69	28380
2026-01-15 07:09:00.49	2.69	9.60	-49.1	-55.0	3.7	0.00e+00	0	47	104	0	69	28898
2026-01-15 07:09:01.49	2.57	9.51	-49.2	-55.1	3.7	0.00e+00	0	47	104	0	70	27555
2026-01-15 07:09:02.48	2.45	9.42	-48.7	-54.7	3.7	0.00e+00	0	47	104	0	69	27988
2026-01-15 07:09:03.48	2.33	9.33	-49.3	-55.1	3.7	0.00e+00	0	47	104	0	69	29368
2026-01-15 07:09:04.47	2.22	9.24	-50.7	-56.3	3.7	0.00e+00	0	47	104	0	72	28372
2026-01-15 07:09:05.46	2.10	9.15	-50.1	-56.0	3.7	0.00e+00	0	47	104	0	71	28902
2026-01-15 07:09:06.46	1.99	9.06	-50.5	-56.3	3.7	0.00e+00	0	47	104	0	72	28206
2026-01-15 07:09:07.45	1.88	8.98	-50.5	-56.3	3.7	0.00e+00	0	47	104	0	72	28346
2026-01-15 07:09:08.45	1.76	8.89	-52.1	-57.3	3.7	0.00e+00	0	47	104	0	74	28191
2026-01-15 07:09:09.44	1.65	8.80	-51.3	-56.4	3.7	0.00e+00	0	47	104	0	73	27091
2026-01-15 07:09:10.44	1.54	8.71	-52.9	-56.8	3.7	0.00e+00	0	47	104	0	76	23961
2026-01-15 07:09:11.43	1.43	8.62	-52.6	-57.8	3.7	0.00e+00	0	47	104	0	77	25098
2026-01-15 07:09:12.42	1.32	8.54	-52.6	-57.5	3.7	0.00e+00	0	47	104	0	75	27420
2026-01-15 07:09:13.42	1.22	8.45	-54.0	-58.2	3.7	0.00e+00	0	47	104	0	78	24995
2026-01-15 07:09:14.41	1.11	8.36	-53.8	-58.3	3.7	0.00e+00	0	47	104	0	78	25159
2026-01-15 07:09:15.40	1.00	8.28	-54.1	-58.6	3.7	0.00e+00	0	47	104	0	78	25978
2026-01-15 07:09:16.40	0.90	8.19	-52.7	-57.6	3.7	0.00e+00	0	47	104	0	77	24734
2026-01-15 07:09:17.39	0.79	8.11	-53.7	-58.4	3.7	0.00e+00	0	47	104	0	78	25406
2026-01-15 07:09:18.41	0.69	8.02	-54.1	-58.6	3.7	0.00e+00	0	47	104	0	78	26153
2026-01-15 07:09:19.44	0.58	7.93	-52.9	-57.8	3.7	0.00e+00	0	47	104	0	77	25356
2026-01-15 07:09:20.45	0.48	7.85	-54.2	-58.6	3.7	0.00e+00	0	47	104	0	79	24794
2026-01-15 07:09:21.49	0.37	7.76	-54.2	-58.5	3.7	0.00e+00	0	47	104	0	79	24463
2026-01-15 07:09:22.52	0.27	7.67	-53.3	-58.2	3.7	0.00e+00	0	47	104	0	78	24812
2026-01-15 07:09:23.54	0.16	7.59	-54.0	-58.5	3.7	0.00e+00	0	47	104	0	78	25968
2026-01-15 07:09:24.57	0.06	7.50	-54.0	-58.4	3.7	0.00e+00	0	47	104	0	78	25651
2026-01-15 07:09:25.56	359.96	7.42	-54.3	-58.7	3.7	0.00e+00	0	47	104	0	79	24903

#Closed at: 2026-01-15 07:09:26
#Recorded file [0 MB]: D:/Data/31040_260115_100105.dat