passes_logs/2026/01/15/T1/T1__20260115_134954_FENGYUN_3E_rec.log

#Pass ID: 20260115_134954_FENGYUN 3E
#Satellite: FENGYUN 3E
#Configuration: FENGYUN 3E
#almurnet v.1.7.20251203
#Start time: 2026-01-15 13:49:53

#Version: 2.0.20230620
#Station: T1
#Location: 37.570604 lon 55.790049 lat
#TLE: 1 49008U 21062A   26014.58289545 -.00000120  00000+0 -35876-4 0  9998
#TLE: 2 49008  98.7488  19.7165 0002000 137.1107 223.0226 14.19884293234788

#Time	Az	El	Level	Level2	SNR	BER	BlckErr	Temp	State	Recorded	gain1	gain2
2026-01-15 13:49:53.63	148.48	4.97	-50.5	-61.1	3.8	8.47e-01	0	38	0	0	71	12131
2026-01-15 13:49:54.61	148.46	5.04	-50.5	-61.0	3.8	8.47e-01	0	39	104	0	71	12021
2026-01-15 13:49:55.61	148.44	5.11	-50.5	-61.1	3.8	8.47e-01	0	39	104	0	71	12158
2026-01-15 13:49:56.60	148.42	5.18	-50.5	-61.1	3.8	8.47e-01	0	39	104	0	71	12172
2026-01-15 13:49:57.59	148.40	5.25	-50.5	-61.2	3.8	8.47e-01	0	39	104	0	71	12254
2026-01-15 13:49:58.59	148.38	5.32	-50.5	-61.2	3.8	8.47e-01	0	39	104	0	71	12281
2026-01-15 13:49:59.58	148.37	5.39	-50.5	-61.2	3.8	8.46e-01	0	39	104	0	71	12314
2026-01-15 13:50:00.57	148.35	5.46	-50.5	-61.2	3.8	8.47e-01	0	39	104	0	71	12270
2026-01-15 13:50:01.56	148.33	5.54	-50.5	-61.0	3.8	8.47e-01	0	39	104	0	71	12073
2026-01-15 13:50:02.56	148.31	5.61	-50.5	-60.8	3.8	8.46e-01	0	39	104	0	71	11788
2026-01-15 13:50:03.55	148.29	5.68	-50.4	-60.5	3.8	8.46e-01	0	39	104	0	71	11398
2026-01-15 13:50:04.54	148.27	5.75	-50.4	-60.2	3.8	8.46e-01	0	39	104	0	71	11005
2026-01-15 13:50:05.54	148.25	5.83	-50.3	-59.9	3.8	8.47e-01	0	39	104	0	71	10535
2026-01-15 13:50:06.53	148.23	5.90	-50.3	-59.6	3.8	8.47e-01	0	39	104	0	71	10218
2026-01-15 13:50:07.52	148.21	5.97	-50.2	-59.1	3.9	8.45e-01	0	39	104	0	71	9648
2026-01-15 13:50:08.52	148.19	6.05	-50.2	-59.0	4.0	8.46e-01	0	39	104	0	71	9519
2026-01-15 13:50:09.51	148.17	6.12	-50.2	-58.7	4.0	8.45e-01	0	39	104	0	71	9219
2026-01-15 13:50:10.50	148.15	6.19	-50.1	-58.5	4.0	8.44e-01	0	40	104	0	71	8983
2026-01-15 13:50:11.50	148.13	6.27	-50.1	-58.4	4.0	8.44e-01	0	40	104	0	71	8957
2026-01-15 13:50:12.49	148.10	6.34	-50.1	-58.2	4.1	8.44e-01	0	39	0	0	70	9268
2026-01-15 13:50:13.48	148.08	6.42	-50.0	-57.9	4.2	8.39e-01	0	40	0	0	70	8871
2026-01-15 13:50:14.47	148.06	6.49	-49.9	-57.4	4.3	8.34e-01	0	40	0	0	70	8388
2026-01-15 13:50:15.47	148.04	6.57	-49.8	-56.9	4.5	8.30e-01	0	40	0	0	70	7969
2026-01-15 13:50:16.46	148.02	6.64	-49.7	-56.3	4.8	8.04e-01	0	40	0	0	70	7395
2026-01-15 13:50:17.45	148.00	6.72	-49.5	-55.6	5.1	7.79e-01	0	40	0	0	69	7260
2026-01-15 13:50:18.45	147.98	6.79	-49.2	-54.8	5.6	6.98e-01	0	40	0	0	69	6577
2026-01-15 13:50:19.44	147.96	6.87	-49.0	-54.0	6.2	3.31e-01	0	40	0	5242880	68	6379
2026-01-15 13:50:20.43	147.93	6.94	-48.6	-53.2	6.9	2.07e-01	0	40	0	12582912	68	5794
2026-01-15 13:50:21.43	147.91	7.02	-48.2	-52.3	7.6	1.11e-01	0	40	0	19922944	67	5533
2026-01-15 13:50:22.42	147.89	7.10	-47.7	-51.3	8.6	5.27e-02	0	40	0	26214400	66	5252
2026-01-15 13:50:23.41	147.87	7.17	-47.2	-50.4	9.5	2.35e-02	0	40	0	33554432	65	5010
2026-01-15 13:50:24.41	147.85	7.25	-46.7	-49.5	10.5	5.79e-03	0	40	0	40894464	64	4768
2026-01-15 13:50:25.40	147.82	7.33	-46.2	-48.7	11.3	1.39e-03	0	40	0	48234496	63	4628
2026-01-15 13:50:26.39	147.80	7.40	-45.6	-47.9	12.2	3.55e-04	0	40	0	55574528	62	4446
2026-01-15 13:50:27.38	147.78	7.48	-45.1	-47.1	13.0	5.49e-05	0	40	0	62914560	61	4314
2026-01-15 13:50:28.38	147.76	7.56	-44.5	-46.3	13.7	1.02e-05	0	40	0	70254592	59	4413
2026-01-15 13:50:29.37	147.73	7.64	-44.0	-45.7	14.3	2.20e-06	0	40	0	76546048	58	4361
2026-01-15 13:50:30.36	147.71	7.72	-43.4	-45.0	15.0	9.78e-04	0	40	0	83886080	57	4251
2026-01-15 13:50:31.36	147.69	7.80	-43.1	-44.6	15.4	0.00e+00	0	40	0	91226112	57	4055
2026-01-15 13:50:32.35	147.66	7.87	-42.9	-44.3	15.7	0.00e+00	0	40	0	98566144	56	4153
2026-01-15 13:50:33.34	147.64	7.95	-42.6	-44.0	16.0	6.13e-04	0	40	0	105906176	56	4044
2026-01-15 13:50:34.33	147.62	8.03	-42.6	-44.0	16.0	0.00e+00	0	40	0	113246208	56	4035
2026-01-15 13:50:35.33	147.59	8.11	-42.8	-44.2	15.8	0.00e+00	0	40	0	119537664	56	4124
2026-01-15 13:50:36.32	147.57	8.19	-43.0	-44.4	15.6	7.66e-04	0	40	0	126877696	56	4220
2026-01-15 13:50:37.31	147.55	8.27	-43.4	-45.0	15.0	0.00e+00	0	40	0	134217728	56	4509
2026-01-15 13:50:38.31	147.52	8.35	-43.8	-45.4	14.6	0.00e+00	0	40	0	141557760	57	4474
2026-01-15 13:50:39.30	147.50	8.43	-44.6	-46.4	13.6	4.50e-06	0	40	0	148897792	58	4739
2026-01-15 13:50:40.29	147.47	8.51	-45.3	-47.3	12.6	8.58e-05	0	40	0	156237824	59	4973
2026-01-15 13:50:41.29	147.45	8.59	-46.2	-48.7	11.3	6.50e-04	0	40	0	162529280	61	5197
2026-01-15 13:50:42.28	147.42	8.68	-47.2	-50.3	9.7	1.04e-02	0	40	0	169869312	63	5571
2026-01-15 13:50:43.27	147.40	8.76	-47.9	-51.9	8.0	5.19e-02	0	40	0	177209344	65	5955
2026-01-15 13:50:44.27	147.37	8.84	-48.8	-54.0	6.0	2.31e-01	0	40	0	184549376	67	6763
2026-01-15 13:50:45.26	147.35	8.92	-49.8	-56.7	4.5	8.08e-01	0	40	0	186646528	68	8757
2026-01-15 13:50:46.25	147.32	9.00	-50.1	-59.2	3.8	8.46e-01	0	40	104	186646528	69	10921
2026-01-15 13:50:47.25	147.30	9.09	-50.3	-60.3	3.8	8.46e-01	0	40	104	186646528	70	11702
2026-01-15 13:50:48.24	147.27	9.17	-50.0	-58.8	3.8	8.46e-01	0	40	104	186646528	70	9845
2026-01-15 13:50:49.23	147.25	9.25	-47.4	-50.7	9.4	8.18e-04	0	40	0	190840832	64	5483
2026-01-15 13:50:50.22	147.22	9.33	-50.0	-58.1	4.1	8.42e-01	0	40	0	191889408	70	9147
2026-01-15 13:50:51.22	147.19	9.42	-46.8	-49.7	10.3	7.31e-03	0	40	0	192937984	64	4875
2026-01-15 13:50:52.21	147.17	9.50	-47.2	-50.4	9.5	1.07e-02	0	40	0	200278016	64	5329
2026-01-15 13:50:53.20	147.14	9.59	-46.5	-49.1	11.0	2.09e-03	0	40	0	207618048	63	4863
2026-01-15 13:50:54.20	147.11	9.67	-45.7	-47.9	12.3	3.71e-04	0	40	0	214958080	62	4473
2026-01-15 13:50:55.19	147.09	9.76	-44.6	-46.4	13.8	1.25e-05	0	40	0	222298112	60	4222
2026-01-15 13:50:56.18	147.06	9.84	-43.6	-45.2	15.0	1.77e-03	0	40	0	229638144	57	4345
2026-01-15 13:50:57.17	147.03	9.93	-42.7	-44.1	16.0	0.00e+00	0	41	0	235929600	56	4093
2026-01-15 13:50:58.17	147.01	10.01	-42.2	-43.5	16.5	0.00e+00	0	40	0	243269632	55	4032
2026-01-15 13:50:59.16	146.98	10.10	-41.8	-43.1	16.9	4.46e-05	0	41	0	250609664	54	4070
2026-01-15 13:51:00.15	146.95	10.18	-41.9	-43.2	16.8	0.00e+00	0	41	0	257949696	54	4117
2026-01-15 13:51:01.15	146.92	10.27	-41.6	-42.9	17.1	0.00e+00	0	41	0	265289728	53	4213
2026-01-15 13:51:02.14	146.90	10.36	-41.6	-42.8	17.1	1.17e-04	0	41	0	272629760	53	4190
2026-01-15 13:51:03.13	146.87	10.44	-41.2	-42.4	17.5	0.00e+00	0	41	0	279969792	53	3991
2026-01-15 13:51:04.12	146.84	10.53	-41.6	-42.8	17.2	0.00e+00	0	41	0	286261248	53	4162
2026-01-15 13:51:05.12	146.81	10.62	-41.5	-42.7	17.3	1.10e-06	0	41	0	293601280	53	4124
2026-01-15 13:51:06.11	146.78	10.71	-41.4	-42.6	17.4	0.00e+00	0	41	0	300941312	53	4080
2026-01-15 13:51:07.10	146.75	10.80	-41.3	-42.4	17.5	0.00e+00	0	41	0	308281344	53	3998
2026-01-15 13:51:08.10	146.72	10.89	-41.3	-42.4	17.4	0.00e+00	0	41	0	315621376	53	4001
2026-01-15 13:51:09.09	146.69	10.97	-41.3	-42.5	17.3	0.00e+00	0	41	0	322961408	53	4015
2026-01-15 13:51:10.08	146.66	11.06	-41.2	-42.5	17.2	0.00e+00	0	40	0	330301440	53	4006
2026-01-15 13:51:11.07	146.64	11.15	-41.2	-42.4	17.3	0.00e+00	0	41	0	336592896	53	3983
2026-01-15 13:51:12.07	146.61	11.24	-41.2	-42.4	17.3	0.00e+00	0	41	0	343932928	53	3959
2026-01-15 13:51:13.06	146.57	11.33	-41.1	-42.2	17.3	0.00e+00	0	41	0	351272960	52	4142
2026-01-15 13:51:14.05	146.54	11.42	-41.1	-42.3	17.3	0.00e+00	0	41	0	358612992	52	4193
2026-01-15 13:51:15.05	146.51	11.52	-41.0	-42.2	17.8	1.10e-06	0	40	0	365953024	52	4103
2026-01-15 13:51:16.04	146.48	11.61	-41.0	-42.2	17.8	0.00e+00	0	41	0	373293056	52	4119
2026-01-15 13:51:17.03	146.45	11.70	-41.0	-42.2	17.8	0.00e+00	0	41	0	379584512	52	4110
2026-01-15 13:51:18.02	146.42	11.79	-41.1	-42.2	17.8	0.00e+00	0	41	0	386924544	52	4138
2026-01-15 13:51:19.02	146.39	11.88	-41.0	-42.2	17.8	0.00e+00	0	41	0	394264576	52	4118
2026-01-15 13:51:20.01	146.36	11.97	-40.9	-42.1	17.9	0.00e+00	0	41	0	401604608	52	4070
2026-01-15 13:51:21.00	146.33	12.07	-40.9	-42.0	17.9	0.00e+00	0	41	0	408944640	52	4051
2026-01-15 13:51:21.99	146.29	12.16	-40.8	-42.0	18.0	0.00e+00	0	41	0	416284672	52	4029
2026-01-15 13:51:22.99	146.26	12.25	-40.9	-42.0	18.0	0.00e+00	0	41	0	422576128	52	4039
2026-01-15 13:51:23.98	146.23	12.35	-41.0	-42.2	17.8	0.00e+00	0	41	0	429916160	52	4130
2026-01-15 13:51:24.97	146.20	12.44	-40.7	-41.9	18.2	0.00e+00	0	41	0	437256192	52	3962
2026-01-15 13:51:25.97	146.16	12.54	-40.7	-41.9	18.2	0.00e+00	0	41	0	444596224	52	3960
2026-01-15 13:51:26.96	146.13	12.63	-40.7	-41.9	18.1	0.00e+00	0	41	0	451936256	52	3980
2026-01-15 13:51:27.95	146.10	12.73	-40.8	-41.9	18.1	0.00e+00	0	41	0	458227712	52	4000
2026-01-15 13:51:28.95	146.06	12.82	-40.8	-41.9	18.1	0.00e+00	0	41	0	465567744	52	3984
2026-01-15 13:51:29.94	146.03	12.92	-40.6	-41.8	18.2	0.00e+00	0	41	0	472907776	52	3924
2026-01-15 13:51:30.93	146.00	13.02	-40.7	-41.8	18.3	0.00e+00	0	41	0	480247808	51	4188
2026-01-15 13:51:31.92	145.96	13.11	-40.8	-41.9	18.2	0.00e+00	0	41	0	487587840	51	4224
2026-01-15 13:51:32.92	145.93	13.21	-40.7	-41.8	18.4	0.00e+00	0	41	0	494927872	51	4151
2026-01-15 13:51:33.91	145.89	13.31	-40.6	-41.7	18.4	0.00e+00	0	41	0	501219328	51	4136
2026-01-15 13:51:34.90	145.86	13.41	-40.5	-41.6	18.5	0.00e+00	0	41	0	508559360	51	4075
2026-01-15 13:51:35.90	145.82	13.50	-40.6	-41.7	18.4	0.00e+00	0	41	0	515899392	51	4115
2026-01-15 13:51:36.89	145.79	13.60	-40.5	-41.6	18.5	0.00e+00	0	41	0	523239424	51	4084
2026-01-15 13:51:37.88	145.75	13.70	-40.5	-41.6	18.5	0.00e+00	0	41	0	530579456	51	4084
2026-01-15 13:51:38.88	145.71	13.80	-40.5	-41.6	18.5	0.00e+00	0	40	0	537919488	51	4078
2026-01-15 13:51:39.87	145.68	13.90	-40.4	-41.4	18.7	0.00e+00	0	41	0	544210944	51	3993
2026-01-15 13:51:40.86	145.64	14.00	-40.6	-41.7	18.4	0.00e+00	0	41	0	551550976	51	4122
2026-01-15 13:51:41.85	145.60	14.10	-40.4	-41.4	18.7	0.00e+00	0	41	0	558891008	51	3993
2026-01-15 13:51:42.85	145.57	14.20	-40.3	-41.4	18.7	0.00e+00	0	41	0	566231040	51	3962
2026-01-15 13:51:43.84	145.53	14.31	-40.3	-41.4	18.7	0.00e+00	0	41	0	573571072	51	3987
2026-01-15 13:51:44.83	145.49	14.41	-40.3	-41.4	18.7	0.00e+00	0	41	0	580911104	51	3990
2026-01-15 13:51:45.82	145.45	14.51	-40.3	-41.4	18.7	0.00e+00	0	41	0	587202560	51	3963
2026-01-15 13:51:46.82	145.42	14.61	-40.2	-41.3	18.9	0.00e+00	0	41	0	594542592	51	3917
2026-01-15 13:51:47.81	145.38	14.72	-40.2	-41.3	18.8	0.00e+00	0	41	0	601882624	51	3926
2026-01-15 13:51:48.80	145.34	14.82	-40.1	-41.2	18.9	0.00e+00	0	41	0	609222656	51	3890
2026-01-15 13:51:49.80	145.30	14.92	-40.2	-41.3	18.8	0.00e+00	0	41	0	616562688	51	3926
2026-01-15 13:51:50.79	145.26	15.03	-40.2	-41.2	18.8	0.00e+00	0	41	0	623902720	51	3909
2026-01-15 13:51:51.78	145.22	15.13	-40.1	-41.1	19.0	0.00e+00	0	41	0	631242752	50	4079
2026-01-15 13:51:52.78	145.18	15.24	-40.2	-41.3	18.9	0.00e+00	0	41	0	638582784	50	4150
2026-01-15 13:51:53.77	145.14	15.35	-40.1	-41.1	19.0	0.00e+00	0	41	0	644874240	50	4073
2026-01-15 13:51:54.76	145.10	15.45	-40.0	-41.1	19.0	0.00e+00	0	41	0	652214272	50	4060
2026-01-15 13:51:55.76	145.06	15.56	-40.0	-41.1	19.0	0.00e+00	0	41	0	659554304	50	4070
2026-01-15 13:51:56.75	145.02	15.67	-40.0	-41.1	19.1	0.00e+00	0	41	0	666894336	50	4053
2026-01-15 13:51:57.74	144.98	15.77	-39.9	-40.9	19.2	0.00e+00	0	41	0	674234368	50	3990
2026-01-15 13:51:58.73	144.93	15.88	-40.0	-41.1	19.1	0.00e+00	0	41	0	681574400	50	4055
2026-01-15 13:51:59.73	144.89	15.99	-40.0	-41.0	19.2	0.00e+00	0	41	0	687865856	50	4013
2026-01-15 13:52:00.72	144.85	16.10	-40.0	-41.0	19.1	0.00e+00	0	41	0	695205888	50	4020
2026-01-15 13:52:01.71	144.81	16.21	-39.8	-40.8	19.3	0.00e+00	0	41	0	702545920	50	3919
2026-01-15 13:52:02.70	144.76	16.32	-39.8	-40.8	19.3	0.00e+00	0	41	0	709885952	50	3939
2026-01-15 13:52:03.70	144.72	16.43	-39.7	-40.7	19.4	0.00e+00	0	41	0	717225984	50	3878
2026-01-15 13:52:04.69	144.68	16.54	-39.6	-40.6	19.5	0.00e+00	0	41	0	723517440	49	4085
2026-01-15 13:52:05.69	144.63	16.65	-39.6	-40.6	19.5	0.00e+00	0	41	0	730857472	49	4078
2026-01-15 13:52:06.68	144.59	16.76	-39.7	-40.7	19.4	0.00e+00	0	41	0	738197504	49	4116
2026-01-15 13:52:07.67	144.54	16.88	-39.6	-40.6	19.5	0.00e+00	0	41	0	745537536	49	4066
2026-01-15 13:52:08.66	144.50	16.99	-39.5	-40.5	19.6	0.00e+00	0	41	0	752877568	49	4034
2026-01-15 13:52:09.65	144.45	17.10	-39.6	-40.5	19.5	0.00e+00	0	41	0	760217600	49	4049
2026-01-15 13:52:10.65	144.41	17.22	-39.5	-40.5	19.6	0.00e+00	0	41	0	766509056	49	4005
2026-01-15 13:52:11.64	144.36	17.33	-39.5	-40.5	19.6	0.00e+00	0	41	0	773849088	49	4021
2026-01-15 13:52:12.63	144.31	17.45	-39.6	-40.6	19.5	0.00e+00	0	41	0	781189120	49	4057
2026-01-15 13:52:13.63	144.27	17.56	-39.5	-40.4	19.6	0.00e+00	0	41	0	788529152	49	4004
2026-01-15 13:52:14.62	144.22	17.68	-39.5	-40.5	19.6	0.00e+00	0	41	0	795869184	49	4016
2026-01-15 13:52:15.61	144.17	17.79	-39.4	-40.4	19.6	0.00e+00	0	41	0	803209216	49	4001
2026-01-15 13:52:16.60	144.12	17.91	-39.5	-40.5	19.6	0.00e+00	0	41	0	809500672	49	4049
2026-01-15 13:52:17.60	144.07	18.03	-39.5	-40.5	19.6	0.00e+00	0	41	0	816840704	49	4034
2026-01-15 13:52:18.59	144.02	18.15	-39.5	-40.5	19.6	0.00e+00	0	41	0	824180736	49	4018
2026-01-15 13:52:19.58	143.98	18.27	-39.5	-40.5	19.6	0.00e+00	0	41	0	831520768	49	4018
2026-01-15 13:52:20.58	143.93	18.39	-39.4	-40.4	19.7	0.00e+00	0	41	0	838860800	49	3977
2026-01-15 13:52:21.57	143.88	18.51	-39.5	-40.5	19.6	0.00e+00	0	41	0	845152256	49	4032
2026-01-15 13:52:22.56	143.82	18.63	-39.3	-40.3	19.7	0.00e+00	0	41	0	852492288	49	3949
2026-01-15 13:52:23.55	143.77	18.75	-39.4	-40.4	19.7	0.00e+00	0	41	0	859832320	49	3988
2026-01-15 13:52:24.55	143.72	18.87	-39.5	-40.5	19.6	0.00e+00	0	41	0	867172352	49	4046
2026-01-15 13:52:25.54	143.67	18.99	-39.4	-40.4	19.7	0.00e+00	0	41	0	874512384	49	3990
2026-01-15 13:52:26.53	143.62	19.11	-39.4	-40.5	19.7	0.00e+00	0	41	0	881852416	49	4005
2026-01-15 13:52:27.53	143.56	19.24	-39.6	-40.6	19.5	0.00e+00	0	41	0	889192448	49	4081
2026-01-15 13:52:28.52	143.51	19.36	-39.4	-40.4	19.7	0.00e+00	0	41	0	895483904	49	3985
2026-01-15 13:52:29.51	143.46	19.49	-39.5	-40.5	19.6	0.00e+00	0	41	0	902823936	49	4049
2026-01-15 13:52:30.50	143.40	19.61	-39.5	-40.5	19.6	0.00e+00	0	41	0	910163968	49	4040
2026-01-15 13:52:31.50	143.35	19.74	-39.5	-40.5	19.6	0.00e+00	0	41	0	917504000	49	4037
2026-01-15 13:52:32.49	143.29	19.86	-39.5	-40.6	19.6	0.00e+00	0	41	0	924844032	49	4052
2026-01-15 13:52:33.48	143.24	19.99	-39.5	-40.5	19.6	0.00e+00	0	41	0	932184064	49	4026
2026-01-15 13:52:34.48	143.18	20.12	-39.6	-40.7	19.5	0.00e+00	0	41	0	939524096	49	4101
2026-01-15 13:52:35.47	143.13	20.25	-39.5	-40.5	19.6	0.00e+00	0	41	0	945815552	49	4051
2026-01-15 13:52:36.46	143.07	20.37	-39.5	-40.5	19.6	0.00e+00	0	41	0	953155584	49	4025
2026-01-15 13:52:37.45	143.01	20.50	-39.5	-40.5	19.6	0.00e+00	0	41	0	960495616	49	4014
2026-01-15 13:52:38.45	142.95	20.63	-39.5	-40.5	19.7	0.00e+00	0	41	0	967835648	49	4011
2026-01-15 13:52:39.44	142.89	20.77	-39.4	-40.3	19.8	0.00e+00	0	41	0	975175680	49	3958
2026-01-15 13:52:40.43	142.83	20.90	-39.5	-40.5	19.6	0.00e+00	0	41	0	982515712	49	4032
2026-01-15 13:52:41.43	142.77	21.03	-39.3	-40.2	19.9	0.00e+00	0	41	0	988807168	49	3903
2026-01-15 13:52:42.42	142.71	21.16	-39.2	-40.2	19.9	0.00e+00	0	41	0	996147200	49	3889
2026-01-15 13:52:43.41	142.65	21.29	-39.1	-40.1	20.0	0.00e+00	0	41	0	1003487232	49	3831
2026-01-15 13:52:44.40	142.59	21.43	-39.1	-40.0	20.1	0.00e+00	0	41	0	1010827264	48	4041
2026-01-15 13:52:45.40	142.53	21.56	-39.0	-39.9	20.2	0.00e+00	0	41	0	1018167296	48	3989
2026-01-15 13:52:46.39	142.47	21.70	-38.9	-39.8	20.2	0.00e+00	0	41	0	1025507328	48	3958
2026-01-15 13:52:47.38	142.41	21.83	-38.8	-39.8	20.3	0.00e+00	0	41	0	1031798784	48	3915
2026-01-15 13:52:48.37	142.34	21.97	-38.8	-39.7	20.3	0.00e+00	0	41	0	1039138816	48	3908
2026-01-15 13:52:49.37	142.28	22.11	-38.8	-39.7	20.4	0.00e+00	0	41	0	1046478848	48	3900
2026-01-15 13:52:50.36	142.21	22.25	-38.7	-39.6	20.4	0.00e+00	0	41	0	1053818880	48	3867
2026-01-15 13:52:51.36	142.15	22.39	-38.7	-39.6	20.5	0.00e+00	0	41	0	1061158912	48	3844
2026-01-15 13:52:52.35	142.08	22.53	-38.6	-39.6	20.5	0.00e+00	0	41	0	1068498944	48	3835
2026-01-15 13:52:53.34	142.01	22.67	-38.5	-39.4	20.4	0.00e+00	0	41	0	1074790400	47	3980
2026-01-15 13:52:54.33	141.95	22.81	-38.5	-39.5	20.3	0.00e+00	0	41	0	1082130432	47	4031
2026-01-15 13:52:55.33	141.88	22.95	-38.6	-39.6	20.2	0.00e+00	0	41	0	1089470464	47	4076
2026-01-15 13:52:56.32	141.81	23.09	-38.5	-39.5	20.3	0.00e+00	0	41	0	1096810496	47	4031
2026-01-15 13:52:57.31	141.74	23.24	-38.6	-39.5	20.3	0.00e+00	0	41	0	1104150528	47	4036
2026-01-15 13:52:58.31	141.67	23.38	-38.6	-39.5	20.3	0.00e+00	0	41	0	1110441984	47	4051
2026-01-15 13:52:59.30	141.60	23.52	-38.5	-39.4	20.4	0.00e+00	0	41	0	1117782016	47	3989
2026-01-15 13:53:00.29	141.53	23.67	-38.5	-39.4	20.4	0.00e+00	0	41	0	1125122048	47	3991
2026-01-15 13:53:01.28	141.46	23.82	-38.4	-39.3	20.5	0.00e+00	0	41	0	1132462080	47	3956
2026-01-15 13:53:02.28	141.39	23.96	-38.4	-39.3	20.5	0.00e+00	0	41	0	1139802112	47	3950
2026-01-15 13:53:03.27	141.31	24.11	-38.3	-39.2	20.5	0.00e+00	0	41	0	1147142144	47	3904
2026-01-15 13:53:04.26	141.24	24.26	-38.3	-39.3	20.5	0.00e+00	0	41	0	1153433600	47	3928
2026-01-15 13:53:05.26	141.16	24.41	-38.3	-39.2	20.5	0.00e+00	0	41	0	1160773632	47	3908
2026-01-15 13:53:06.25	141.09	24.56	-38.4	-39.3	20.5	0.00e+00	0	41	0	1168113664	47	3932
2026-01-15 13:53:07.24	141.01	24.71	-38.5	-39.4	20.4	0.00e+00	0	41	0	1175453696	47	3989
2026-01-15 13:53:08.24	140.93	24.86	-38.4	-39.3	20.5	0.00e+00	0	41	0	1182793728	47	3955
2026-01-15 13:53:09.23	140.86	25.02	-38.5	-39.4	20.4	0.00e+00	0	41	0	1190133760	47	4003
2026-01-15 13:53:10.22	140.78	25.17	-38.6	-39.5	20.3	0.00e+00	0	41	0	1196425216	47	4041
2026-01-15 13:53:11.21	140.70	25.32	-38.5	-39.5	20.4	0.00e+00	0	41	0	1203765248	47	4006
2026-01-15 13:53:12.21	140.62	25.48	-38.5	-39.5	20.4	0.00e+00	0	41	0	1211105280	47	4013
2026-01-15 13:53:13.20	140.54	25.64	-38.5	-39.5	20.3	0.00e+00	0	41	0	1218445312	47	4015
2026-01-15 13:53:14.19	140.46	25.79	-38.5	-39.5	20.4	0.00e+00	0	41	0	1225785344	47	4005
2026-01-15 13:53:15.19	140.37	25.95	-38.4	-39.4	20.4	0.00e+00	0	41	0	1233125376	47	3980
2026-01-15 13:53:16.18	140.29	26.11	-38.4	-39.3	20.5	0.00e+00	0	41	0	1240465408	47	3929
2026-01-15 13:53:17.17	140.21	26.27	-38.5	-39.4	20.4	0.00e+00	0	41	0	1246756864	47	3991
2026-01-15 13:53:18.16	140.12	26.43	-38.5	-39.4	20.4	0.00e+00	0	41	0	1254096896	47	3972
2026-01-15 13:53:19.16	140.03	26.59	-38.5	-39.4	20.4	0.00e+00	0	41	0	1261436928	47	3994
2026-01-15 13:53:20.15	139.95	26.75	-38.5	-39.4	20.4	0.00e+00	0	41	0	1268776960	47	3991
2026-01-15 13:53:21.14	139.86	26.92	-38.4	-39.4	20.5	0.00e+00	0	41	0	1276116992	47	3965
2026-01-15 13:53:22.14	139.77	27.08	-38.4	-39.3	20.5	0.00e+00	0	41	0	1283457024	47	3950
2026-01-15 13:53:23.13	139.68	27.25	-38.4	-39.4	20.5	0.00e+00	0	41	0	1290797056	47	3967
2026-01-15 13:53:24.12	139.59	27.41	-38.5	-39.5	20.4	0.00e+00	0	41	0	1297088512	47	4018
2026-01-15 13:53:25.11	139.50	27.58	-38.5	-39.4	20.4	0.00e+00	0	41	0	1304428544	47	3985
2026-01-15 13:53:26.11	139.41	27.75	-38.4	-39.4	20.5	0.00e+00	0	41	0	1311768576	47	3971
2026-01-15 13:53:27.10	139.31	27.91	-38.4	-39.3	20.5	0.00e+00	0	41	0	1319108608	47	3944
2026-01-15 13:53:28.09	139.22	28.08	-38.4	-39.3	20.6	0.00e+00	0	41	0	1326448640	47	3924
2026-01-15 13:53:29.09	139.12	28.26	-38.3	-39.2	20.6	0.00e+00	0	41	0	1333788672	47	3896
2026-01-15 13:53:30.08	139.02	28.43	-38.2	-39.1	20.7	0.00e+00	0	41	0	1340080128	47	3858
2026-01-15 13:53:31.07	138.93	28.60	-38.0	-38.9	20.9	0.00e+00	0	41	0	1347420160	46	3997
2026-01-15 13:53:32.07	138.83	28.77	-38.2	-39.1	20.8	0.00e+00	0	41	0	1354760192	46	4064
2026-01-15 13:53:33.06	138.73	28.95	-38.1	-39.0	20.8	0.00e+00	0	41	0	1362100224	46	4037
2026-01-15 13:53:34.05	138.63	29.12	-38.0	-38.9	20.9	0.00e+00	0	41	0	1369440256	46	3986
2026-01-15 13:53:35.05	138.52	29.30	-38.0	-38.9	20.9	0.00e+00	0	41	0	1375731712	46	3976
2026-01-15 13:53:36.04	138.42	29.48	-38.0	-38.9	20.9	0.00e+00	0	41	0	1383071744	46	3997
2026-01-15 13:53:37.03	138.32	29.66	-37.9	-38.9	20.9	0.00e+00	0	41	0	1390411776	46	3960
2026-01-15 13:53:38.02	138.21	29.83	-38.0	-38.9	20.9	0.00e+00	0	41	0	1397751808	46	3984
2026-01-15 13:53:39.02	138.10	30.02	-37.9	-38.9	20.9	0.00e+00	0	41	0	1405091840	46	3966
2026-01-15 13:53:40.01	137.99	30.20	-38.0	-39.0	20.9	0.00e+00	0	41	0	1412431872	46	4005
2026-01-15 13:53:41.00	137.88	30.38	-38.1	-39.0	20.8	0.00e+00	0	41	0	1418723328	46	4029
2026-01-15 13:53:41.99	137.77	30.56	-38.0	-38.9	20.9	0.00e+00	0	41	0	1426063360	46	3976
2026-01-15 13:53:42.99	137.66	30.75	-38.0	-39.0	20.8	0.00e+00	0	41	0	1433403392	46	4008
2026-01-15 13:53:43.98	137.55	30.93	-37.9	-38.8	20.9	0.00e+00	0	41	0	1440743424	46	3958
2026-01-15 13:53:44.97	137.43	31.12	-38.0	-39.0	20.9	0.00e+00	0	41	0	1448083456	46	4006
2026-01-15 13:53:45.96	137.32	31.31	-38.0	-38.9	20.9	0.00e+00	0	41	0	1455423488	46	3981
2026-01-15 13:53:46.96	137.20	31.50	-38.0	-38.9	21.0	0.00e+00	0	41	0	1461714944	46	3982
2026-01-15 13:53:47.95	137.08	31.69	-38.0	-38.9	20.9	0.00e+00	0	41	0	1469054976	46	3977
2026-01-15 13:53:48.94	136.96	31.88	-38.2	-39.1	20.7	0.00e+00	0	41	0	1476395008	46	4089
2026-01-15 13:53:49.94	136.84	32.07	-38.0	-38.9	20.9	0.00e+00	0	41	0	1483735040	46	4002
2026-01-15 13:53:50.93	136.71	32.26	-38.1	-39.0	20.8	0.00e+00	0	41	0	1491075072	46	4028
2026-01-15 13:53:51.92	136.59	32.46	-38.0	-38.9	20.9	0.00e+00	0	41	0	1497366528	46	4000
2026-01-15 13:53:52.92	136.46	32.65	-38.1	-39.1	20.8	0.00e+00	0	41	0	1504706560	46	4054
2026-01-15 13:53:53.91	136.33	32.85	-38.2	-39.1	20.7	0.00e+00	0	41	0	1512046592	46	4088
2026-01-15 13:53:54.90	136.20	33.05	-38.3	-39.3	20.6	0.00e+00	0	41	0	1519386624	46	4161
2026-01-15 13:53:55.89	136.07	33.25	-38.4	-39.4	20.5	0.00e+00	0	41	0	1526726656	46	4203
2026-01-15 13:53:56.89	135.94	33.45	-38.4	-39.4	20.5	0.00e+00	0	41	0	1534066688	46	4216
2026-01-15 13:53:57.88	135.81	33.65	-38.2	-39.1	20.8	0.00e+00	0	41	0	1541406720	46	4071
2026-01-15 13:53:58.87	135.67	33.85	-38.3	-39.3	20.6	0.00e+00	0	41	0	1547698176	46	4171
2026-01-15 13:53:59.87	135.53	34.05	-38.3	-39.2	20.6	0.00e+00	0	41	0	1555038208	46	4134
2026-01-15 13:54:00.86	135.39	34.26	-38.3	-39.3	20.6	0.00e+00	0	41	0	1562378240	46	4149
2026-01-15 13:54:01.85	135.25	34.46	-38.4	-39.3	20.5	0.00e+00	0	41	0	1569718272	46	4189
2026-01-15 13:54:02.84	135.11	34.67	-38.4	-39.4	20.5	0.00e+00	0	41	0	1577058304	46	4194
2026-01-15 13:54:03.83	134.96	34.88	-38.3	-39.3	20.6	0.00e+00	0	41	0	1584398336	46	4156
2026-01-15 13:54:04.83	134.81	35.09	-38.3	-39.3	20.6	0.00e+00	0	41	0	1591738368	46	4150
2026-01-15 13:54:05.82	134.67	35.30	-38.2	-39.2	20.7	0.00e+00	0	41	0	1598029824	46	4100
2026-01-15 13:54:06.81	134.51	35.51	-38.2	-39.2	20.7	0.00e+00	0	41	0	1605369856	46	4112
2026-01-15 13:54:07.81	134.36	35.72	-38.2	-39.1	20.7	0.00e+00	0	41	0	1612709888	46	4080
2026-01-15 13:54:08.80	134.21	35.94	-38.1	-39.0	20.8	0.00e+00	0	41	0	1620049920	46	4023
2026-01-15 13:54:09.79	134.05	36.15	-38.1	-39.0	20.8	0.00e+00	0	41	0	1627389952	46	4020
2026-01-15 13:54:10.78	133.89	36.37	-38.1	-39.0	20.9	0.00e+00	0	41	0	1634729984	46	4018
2026-01-15 13:54:11.78	133.73	36.59	-38.1	-39.0	20.8	0.00e+00	0	41	0	1641021440	46	4045
2026-01-15 13:54:12.77	133.56	36.80	-38.0	-38.9	20.9	0.00e+00	0	41	0	1648361472	46	4000
2026-01-15 13:54:13.76	133.40	37.02	-38.2	-39.1	20.7	0.00e+00	0	41	0	1655701504	46	4076
2026-01-15 13:54:14.76	133.23	37.25	-38.0	-38.9	20.9	0.00e+00	0	41	0	1663041536	46	4004
2026-01-15 13:54:15.75	133.06	37.47	-38.0	-38.9	20.9	0.00e+00	0	41	0	1670381568	46	3996
2026-01-15 13:54:16.74	132.89	37.69	-38.0	-38.9	20.9	0.00e+00	0	41	0	1677721600	46	3981
2026-01-15 13:54:17.73	132.71	37.91	-38.1	-39.0	20.8	0.00e+00	0	41	0	1684013056	46	4032
2026-01-15 13:54:18.73	132.53	38.14	-38.2	-39.1	20.8	0.00e+00	0	41	0	1691353088	46	4070
2026-01-15 13:54:19.72	132.35	38.37	-38.1	-39.0	20.9	0.00e+00	0	41	0	1698693120	46	4020
2026-01-15 13:54:20.71	132.17	38.60	-38.1	-39.0	20.8	0.00e+00	0	41	0	1706033152	46	4048
2026-01-15 13:54:21.71	131.98	38.83	-38.2	-39.1	20.8	0.00e+00	0	41	0	1713373184	46	4066
2026-01-15 13:54:22.70	131.79	39.06	-38.3	-39.2	20.7	0.00e+00	0	41	0	1720713216	46	4113
2026-01-15 13:54:23.69	131.60	39.29	-38.4	-39.4	20.5	0.00e+00	0	41	0	1727004672	46	4207
2026-01-15 13:54:24.69	131.41	39.52	-38.5	-39.5	20.4	0.00e+00	0	41	0	1734344704	46	4249
2026-01-15 13:54:25.68	131.21	39.76	-38.6	-39.6	20.4	0.00e+00	0	41	0	1741684736	46	4311
2026-01-15 13:54:26.67	131.01	39.99	-38.9	-39.8	20.1	0.00e+00	0	41	0	1749024768	47	4182
2026-01-15 13:54:27.66	130.81	40.23	-38.8	-39.8	20.2	0.00e+00	0	41	0	1756364800	47	4146
2026-01-15 13:54:28.66	130.61	40.47	-38.9	-39.9	20.1	0.00e+00	0	41	0	1762656256	47	4197
2026-01-15 13:54:29.65	130.40	40.70	-38.7	-39.6	20.3	0.00e+00	0	41	0	1769996288	47	4085
2026-01-15 13:54:30.64	130.19	40.94	-38.6	-39.5	20.4	0.00e+00	0	41	0	1777336320	47	4034
2026-01-15 13:54:31.64	129.97	41.19	-38.4	-39.3	20.6	0.00e+00	0	41	0	1784676352	47	3941
2026-01-15 13:54:32.63	129.75	41.43	-38.4	-39.3	20.6	0.00e+00	0	41	0	1792016384	47	3936
2026-01-15 13:54:33.62	129.53	41.67	-38.2	-39.1	20.8	0.00e+00	0	41	0	1799356416	47	3836
2026-01-15 13:54:34.61	129.31	41.91	-38.0	-38.9	20.9	0.00e+00	0	41	0	1805647872	46	3986
2026-01-15 13:54:35.61	129.08	42.16	-38.0	-38.9	21.0	0.00e+00	0	41	0	1812987904	46	3973
2026-01-15 13:54:36.60	128.85	42.41	-38.0	-38.9	21.0	0.00e+00	0	41	0	1820327936	46	3977
2026-01-15 13:54:37.59	128.61	42.66	-38.0	-38.9	21.0	0.00e+00	0	41	0	1827667968	46	3968
2026-01-15 13:54:38.59	128.37	42.91	-38.0	-39.0	20.9	0.00e+00	0	41	0	1835008000	46	4010
2026-01-15 13:54:39.58	128.13	43.16	-38.3	-39.3	20.6	0.00e+00	0	41	0	1842348032	46	4159
2026-01-15 13:54:40.57	127.88	43.41	-38.3	-39.2	20.7	0.00e+00	0	41	0	1848639488	46	4119
2026-01-15 13:54:41.56	127.63	43.66	-38.4	-39.3	20.6	0.00e+00	0	41	0	1855979520	46	4185
2026-01-15 13:54:42.56	127.37	43.91	-38.5	-39.5	20.5	0.00e+00	0	41	0	1863319552	46	4243
2026-01-15 13:54:43.55	127.12	44.17	-38.7	-39.6	20.3	0.00e+00	0	41	0	1870659584	46	4321
2026-01-15 13:54:44.54	126.85	44.42	-38.6	-39.6	20.3	0.00e+00	0	41	0	1877999616	47	4073
2026-01-15 13:54:45.54	126.58	44.68	-38.6	-39.5	20.4	0.00e+00	0	41	0	1885339648	47	4045
2026-01-15 13:54:46.53	126.31	44.93	-38.5	-39.5	20.4	0.00e+00	0	41	0	1892679680	47	4020
2026-01-15 13:54:47.52	126.04	45.19	-38.6	-39.5	20.4	0.00e+00	0	41	0	1898971136	47	4039
2026-01-15 13:54:48.52	125.75	45.45	-38.5	-39.4	20.5	0.00e+00	0	41	0	1906311168	47	3998
2026-01-15 13:54:49.51	125.47	45.71	-38.2	-39.2	20.7	0.00e+00	0	41	0	1913651200	47	3875
2026-01-15 13:54:50.50	125.18	45.97	-38.5	-39.5	20.5	0.00e+00	0	41	0	1920991232	46	4267
2026-01-15 13:54:51.50	124.88	46.23	-38.5	-39.4	20.5	0.00e+00	0	41	0	1928331264	46	4235
2026-01-15 13:54:52.49	124.58	46.50	-38.7	-39.6	20.3	0.00e+00	0	41	0	1935671296	46	4337
2026-01-15 13:54:53.48	124.28	46.76	-38.9	-39.9	20.1	0.00e+00	0	41	0	1943011328	47	4216
2026-01-15 13:54:54.47	123.97	47.02	-39.2	-40.2	19.8	0.00e+00	0	41	0	1949302784	47	4370
2026-01-15 13:54:55.47	123.65	47.29	-39.2	-40.1	20.1	0.00e+00	0	41	0	1956642816	49	3861
2026-01-15 13:54:56.46	123.33	47.55	-39.8	-40.8	19.6	0.00e+00	0	41	0	1963982848	49	4161
2026-01-15 13:54:57.45	123.00	47.82	-39.6	-40.6	19.7	0.00e+00	0	41	0	1971322880	49	4089
2026-01-15 13:54:58.45	122.67	48.09	-39.6	-40.6	19.7	0.00e+00	0	41	0	1978662912	49	4057
2026-01-15 13:54:59.44	122.33	48.35	-39.5	-40.5	19.8	0.00e+00	0	41	0	1986002944	49	4043
2026-01-15 13:55:00.43	121.99	48.62	-39.2	-40.1	20.1	0.00e+00	0	41	0	1992294400	49	3858
2026-01-15 13:55:01.42	121.64	48.89	-39.4	-40.4	19.9	0.00e+00	0	41	0	1999634432	49	3993
2026-01-15 13:55:02.42	121.28	49.16	-39.3	-40.2	20.0	0.00e+00	0	41	0	2006974464	49	3893
2026-01-15 13:55:03.41	120.91	49.42	-39.3	-40.2	20.1	0.00e+00	0	41	0	2014314496	49	3886
2026-01-15 13:55:04.40	120.55	49.69	-39.4	-40.3	20.0	0.00e+00	0	41	0	2021654528	49	3937
2026-01-15 13:55:05.40	120.17	49.96	-39.5	-40.4	19.9	0.00e+00	0	41	0	2027945984	49	3990
2026-01-15 13:55:06.39	119.79	50.23	-39.4	-40.4	20.0	0.00e+00	0	41	0	2035286016	48	4195
2026-01-15 13:55:07.38	119.40	50.50	-39.5	-40.5	19.9	0.00e+00	0	41	0	2042626048	48	4260
2026-01-15 13:55:08.37	119.00	50.77	-39.7	-40.6	19.7	0.00e+00	0	41	0	2049966080	48	4332
2026-01-15 13:55:09.37	118.59	51.04	-39.7	-40.6	19.7	0.00e+00	0	41	0	2057306112	48	4334
2026-01-15 13:55:10.36	118.18	51.31	-39.6	-40.6	19.8	0.00e+00	0	41	0	2064646144	49	4057
2026-01-15 13:55:11.35	117.76	51.58	-40.4	-41.5	19.0	0.00e+00	0	41	0	2070937600	50	4246
2026-01-15 13:55:12.35	117.33	51.86	-40.3	-41.3	19.1	0.00e+00	0	41	0	2078277632	50	4191
2026-01-15 13:55:13.34	116.90	52.12	-40.3	-41.3	19.1	0.00e+00	0	41	0	2085617664	50	4169
2026-01-15 13:55:14.33	116.46	52.39	-39.8	-40.8	19.6	0.00e+00	0	41	0	2092957696	50	3927
2026-01-15 13:55:15.32	116.01	52.66	-39.2	-40.2	20.1	0.00e+00	0	41	0	2100297728	49	3881
2026-01-15 13:55:16.32	115.55	52.93	-39.1	-40.0	20.3	0.00e+00	0	41	0	2107637760	48	4036
2026-01-15 13:55:17.31	115.08	53.20	-38.8	-39.7	20.5	0.00e+00	0	41	0	2113929216	48	3905
2026-01-15 13:55:18.30	114.61	53.47	-39.0	-39.9	20.4	0.00e+00	0	41	0	2121269248	48	3973
2026-01-15 13:55:19.29	114.12	53.73	-39.3	-40.2	20.1	0.00e+00	0	41	0	2128609280	48	4127
2026-01-15 13:55:20.29	113.62	54.00	-39.5	-40.4	19.9	0.00e+00	0	41	0	2135949312	48	4240
2026-01-15 13:55:21.28	113.12	54.27	-39.9	-40.9	19.5	0.00e+00	0	41	0	2143289344	50	3989
2026-01-15 13:55:22.27	112.61	54.53	-40.0	-41.0	19.4	0.00e+00	0	41	0	2149580800	50	4031
2026-01-15 13:55:23.27	112.08	54.80	-40.0	-41.0	19.5	0.00e+00	0	41	0	2156920832	50	4006
2026-01-15 13:55:24.26	111.55	55.06	-39.5	-40.5	19.9	0.00e+00	0	41	0	2164260864	49	4029
2026-01-15 13:55:25.25	111.01	55.32	-39.2	-40.2	20.1	0.00e+00	0	41	0	2171600896	49	3882
2026-01-15 13:55:26.25	110.45	55.58	-39.3	-40.3	20.1	0.00e+00	0	41	0	2178940928	48	4152
2026-01-15 13:55:27.24	109.89	55.84	-39.3	-40.3	20.1	0.00e+00	0	41	0	2186280960	48	4168
2026-01-15 13:55:28.23	109.32	56.09	-39.5	-40.5	19.8	0.00e+00	0	41	0	2193620992	48	4279
2026-01-15 13:55:29.22	108.74	56.35	-39.8	-40.8	19.6	0.00e+00	0	41	0	2199912448	49	4178
2026-01-15 13:55:30.22	108.14	56.60	-39.8	-40.8	19.6	0.00e+00	0	41	0	2207252480	49	4159
2026-01-15 13:55:31.21	107.53	56.85	-39.4	-40.4	20.0	0.00e+00	0	41	0	2214592512	49	3974
2026-01-15 13:55:32.20	106.92	57.10	-39.1	-40.1	20.2	0.00e+00	0	41	0	2221932544	49	3831
2026-01-15 13:55:33.20	106.28	57.35	-39.1	-40.0	20.3	0.00e+00	0	41	0	2229272576	48	4042
2026-01-15 13:55:34.19	105.65	57.60	-39.0	-39.9	20.4	0.00e+00	0	41	0	2236612608	48	3986
2026-01-15 13:55:35.18	105.00	57.84	-39.1	-40.1	20.2	0.00e+00	0	41	0	2243952640	48	4061
2026-01-15 13:55:36.18	104.33	58.08	-39.5	-40.5	19.9	0.00e+00	0	41	0	2251292672	48	4249
2026-01-15 13:55:37.17	103.65	58.32	-39.4	-40.4	19.9	0.00e+00	0	41	0	2257584128	49	3975
2026-01-15 13:55:38.16	102.97	58.55	-39.4	-40.4	19.9	0.00e+00	0	41	0	2264924160	49	3989
2026-01-15 13:55:39.15	102.27	58.78	-39.7	-40.7	19.7	0.00e+00	0	41	0	2272264192	49	4124
2026-01-15 13:55:40.15	101.55	59.01	-39.8	-40.8	19.6	0.00e+00	0	41	0	2279604224	49	4173
2026-01-15 13:55:41.14	100.83	59.24	-39.9	-40.9	19.4	0.00e+00	0	41	0	2286944256	49	4231
2026-01-15 13:55:42.13	100.10	59.46	-39.8	-40.8	19.6	0.00e+00	0	41	0	2293235712	49	4183
2026-01-15 13:55:43.13	99.34	59.68	-39.7	-40.7	19.7	0.00e+00	0	41	0	2300575744	49	4117
2026-01-15 13:55:44.12	98.58	59.89	-39.4	-40.4	20.0	0.00e+00	0	41	0	2307915776	49	3969
2026-01-15 13:55:45.11	97.81	60.10	-39.3	-40.2	20.1	0.00e+00	0	41	0	2315255808	49	3908
2026-01-15 13:55:46.11	97.01	60.31	-39.5	-40.5	19.9	0.00e+00	0	41	0	2322595840	49	4018
2026-01-15 13:55:47.10	96.22	60.51	-39.8	-40.9	19.5	0.00e+00	0	41	0	2329935872	49	4200
2026-01-15 13:55:48.09	95.41	60.70	-39.7	-40.7	19.7	0.00e+00	0	41	0	2336227328	49	4143
2026-01-15 13:55:49.08	94.58	60.90	-39.4	-40.4	20.0	0.00e+00	0	41	0	2343567360	49	3968
2026-01-15 13:55:50.08	93.74	61.09	-39.0	-39.9	20.4	0.00e+00	0	41	0	2350907392	48	3996
2026-01-15 13:55:51.07	92.89	61.27	-38.8	-39.7	20.6	0.00e+00	0	41	0	2358247424	48	3878
2026-01-15 13:55:52.06	92.03	61.44	-38.8	-39.8	20.3	0.00e+00	0	41	0	2365587456	47	4150
2026-01-15 13:55:53.06	91.15	61.62	-39.0	-39.9	20.1	0.00e+00	0	41	0	2372927488	47	4241
2026-01-15 13:55:54.05	90.26	61.79	-39.4	-40.4	20.0	0.00e+00	0	41	0	2379218944	48	4200
2026-01-15 13:55:55.04	89.36	61.95	-39.4	-40.4	20.0	0.00e+00	0	41	0	2386558976	48	4199
2026-01-15 13:55:56.04	88.45	62.10	-39.2	-40.2	20.1	0.00e+00	0	41	0	2393899008	48	4121
2026-01-15 13:55:57.03	87.53	62.25	-39.1	-40.1	20.3	0.00e+00	0	41	0	2401239040	48	4074
2026-01-15 13:55:58.02	86.60	62.40	-38.8	-39.7	20.4	0.00e+00	0	41	0	2408579072	48	3887
2026-01-15 13:55:59.02	85.64	62.53	-39.0	-40.0	20.3	0.00e+00	0	41	0	2414870528	48	4015
2026-01-15 13:56:00.01	84.69	62.66	-39.3	-40.3	20.1	0.00e+00	0	41	0	2422210560	48	4151
2026-01-15 13:56:01.00	83.73	62.79	-39.6	-40.6	19.8	0.00e+00	0	41	0	2429550592	48	4311
2026-01-15 13:56:02.00	82.75	62.91	-39.7	-40.8	19.7	0.00e+00	0	41	0	2436890624	49	4155
2026-01-15 13:56:02.99	81.76	63.02	-39.4	-40.4	19.9	0.00e+00	0	41	0	2444230656	49	3987
2026-01-15 13:56:03.98	80.77	63.12	-39.1	-40.0	20.3	0.00e+00	0	41	0	2451570688	49	3817
2026-01-15 13:56:04.97	79.77	63.22	-38.6	-39.5	20.7	0.00e+00	0	41	0	2457862144	48	3822
2026-01-15 13:56:05.97	78.76	63.31	-38.6	-39.5	20.5	0.00e+00	0	41	0	2465202176	47	4019
2026-01-15 13:56:06.96	77.74	63.39	-38.9	-39.8	20.2	0.00e+00	0	41	0	2472542208	47	4190
2026-01-15 13:56:07.95	76.72	63.46	-39.5	-40.5	20.0	0.00e+00	0	41	0	2479882240	48	4254
2026-01-15 13:56:08.95	75.68	63.53	-38.9	-39.9	20.4	0.00e+00	0	41	0	2487222272	48	3974
2026-01-15 13:56:09.94	74.65	63.59	-38.9	-39.8	20.5	0.00e+00	0	41	0	2494562304	48	3943
2026-01-15 13:56:10.93	73.61	63.64	-38.4	-39.4	20.6	0.00e+00	0	41	0	2501902336	47	3959
2026-01-15 13:56:11.92	72.57	63.69	-38.5	-39.4	20.5	0.00e+00	0	41	0	2508193792	47	4001
2026-01-15 13:56:12.91	71.53	63.72	-38.7	-39.7	20.4	0.00e+00	0	41	0	2515533824	47	4112
2026-01-15 13:56:13.91	70.47	63.75	-39.3	-40.3	20.1	0.00e+00	0	41	0	2522873856	48	4157
2026-01-15 13:56:14.90	69.42	63.77	-38.7	-39.6	20.7	0.00e+00	0	41	0	2530213888	48	3855
2026-01-15 13:56:15.89	68.36	63.78	-38.3	-39.2	20.8	0.00e+00	0	41	0	2537553920	47	3883
2026-01-15 13:56:16.89	67.30	63.79	-38.2	-39.1	20.8	0.00e+00	0	41	0	2544893952	47	3868
2026-01-15 13:56:17.88	66.25	63.78	-38.3	-39.3	20.7	0.00e+00	0	41	0	2552233984	47	3916
2026-01-15 13:56:18.87	65.20	63.77	-38.4	-39.4	20.5	0.00e+00	0	41	0	2558525440	47	3959
2026-01-15 13:56:19.86	64.14	63.75	-39.0	-39.9	20.1	0.00e+00	0	41	0	2565865472	47	4239
2026-01-15 13:56:20.86	63.09	63.73	-39.0	-40.0	20.1	0.00e+00	0	41	0	2573205504	47	4267
2026-01-15 13:56:21.85	62.04	63.69	-38.7	-39.7	20.3	0.00e+00	0	41	0	2580545536	47	4109
2026-01-15 13:56:22.84	61.00	63.65	-38.6	-39.5	20.5	0.00e+00	0	41	0	2587885568	47	4030
2026-01-15 13:56:23.84	59.95	63.60	-38.5	-39.4	20.5	0.00e+00	0	41	0	2595225600	47	3996
2026-01-15 13:56:24.83	58.92	63.54	-38.5	-39.5	20.6	0.00e+00	0	41	0	2601517056	47	4016
2026-01-15 13:56:25.82	57.89	63.47	-38.8	-39.7	20.3	0.00e+00	0	41	0	2608857088	47	4129
2026-01-15 13:56:26.81	56.87	63.40	-38.9	-39.8	20.2	0.00e+00	0	41	0	2616197120	47	4178
2026-01-15 13:56:27.81	55.84	63.32	-38.9	-39.8	20.2	0.00e+00	0	41	0	2623537152	47	4181
2026-01-15 13:56:28.80	54.83	63.23	-38.7	-39.7	20.4	0.00e+00	0	41	0	2630877184	47	4101
2026-01-15 13:56:29.79	53.83	63.14	-38.7	-39.6	20.4	0.00e+00	0	41	0	2638217216	47	4073
2026-01-15 13:56:30.79	52.83	63.03	-39.0	-40.0	20.1	0.00e+00	0	41	0	2644508672	47	4250
2026-01-15 13:56:31.78	51.85	62.92	-39.0	-40.0	20.1	0.00e+00	0	41	0	2651848704	47	4259
2026-01-15 13:56:32.77	50.88	62.81	-38.7	-39.6	20.3	0.00e+00	0	41	0	2659188736	47	4085
2026-01-15 13:56:33.76	49.91	62.69	-39.0	-40.0	20.1	0.00e+00	0	41	0	2666528768	47	4264
2026-01-15 13:56:34.76	48.95	62.56	-39.2	-40.2	19.9	0.00e+00	0	41	0	2673868800	47	4377
2026-01-15 13:56:35.75	48.01	62.42	-39.2	-40.2	19.9	0.00e+00	0	41	0	2680160256	47	4355
2026-01-15 13:56:36.74	47.07	62.28	-38.9	-39.9	20.1	0.00e+00	0	41	0	2687500288	47	4214
2026-01-15 13:56:37.73	46.15	62.13	-38.7	-39.6	20.4	0.00e+00	0	41	0	2694840320	47	4081
2026-01-15 13:56:38.73	45.23	61.97	-38.8	-39.8	20.3	0.00e+00	0	41	0	2702180352	47	4152
2026-01-15 13:56:39.72	44.34	61.82	-39.2	-40.2	19.9	0.00e+00	0	41	0	2709520384	47	4391
2026-01-15 13:56:40.71	43.45	61.65	-39.2	-40.2	20.0	0.00e+00	0	41	0	2716860416	47	4347
2026-01-15 13:56:41.71	42.57	61.48	-39.0	-40.0	20.0	0.00e+00	0	41	0	2723151872	47	4255
2026-01-15 13:56:42.70	41.70	61.30	-38.9	-39.8	20.2	0.00e+00	0	41	0	2730491904	47	4185
2026-01-15 13:56:43.69	40.86	61.12	-39.2	-40.1	19.9	0.00e+00	0	41	0	2737831936	47	4334
2026-01-15 13:56:44.69	40.01	60.93	-39.7	-40.7	19.7	0.00e+00	0	41	0	2745171968	48	4361
2026-01-15 13:56:45.68	39.19	60.74	-39.6	-40.6	19.8	0.00e+00	0	41	0	2752512000	49	4087
2026-01-15 13:56:46.67	38.37	60.55	-39.3	-40.3	20.0	0.00e+00	0	41	0	2759852032	49	3939
2026-01-15 13:56:47.66	37.57	60.35	-39.1	-40.0	20.3	0.00e+00	0	41	0	2766143488	49	3824
2026-01-15 13:56:48.66	36.78	60.14	-39.5	-40.4	19.9	0.00e+00	0	41	0	2773483520	49	3999
2026-01-15 13:56:49.65	36.01	59.93	-39.8	-40.8	19.6	0.00e+00	0	41	0	2780823552	49	4148
2026-01-15 13:56:50.64	35.24	59.72	-39.8	-40.8	19.6	0.00e+00	0	41	0	2788163584	49	4181
2026-01-15 13:56:51.63	34.50	59.50	-39.7	-40.6	19.7	0.00e+00	0	41	0	2795503616	49	4097
2026-01-15 13:56:52.63	33.75	59.28	-39.6	-40.5	19.8	0.00e+00	0	41	0	2802843648	49	4050
2026-01-15 13:56:53.62	33.03	59.06	-39.5	-40.4	19.9	0.00e+00	0	41	0	2809135104	49	4000
2026-01-15 13:56:54.61	32.32	58.83	-39.6	-40.6	19.8	0.00e+00	0	41	0	2816475136	49	4079
2026-01-15 13:56:55.60	31.62	58.60	-39.3	-40.3	20.1	0.00e+00	0	41	0	2823815168	49	3926
2026-01-15 13:56:56.60	30.92	58.37	-39.4	-40.4	20.0	0.00e+00	0	41	0	2831155200	49	3977
2026-01-15 13:56:57.59	30.25	58.13	-39.5	-40.5	19.9	0.00e+00	0	41	0	2838495232	49	4006
2026-01-15 13:56:58.58	29.59	57.89	-39.7	-40.7	19.7	0.00e+00	0	41	0	2845835264	49	4105
2026-01-15 13:56:59.57	28.94	57.65	-39.7	-40.7	19.7	0.00e+00	0	41	0	2852126720	49	4099
2026-01-15 13:57:00.57	28.29	57.41	-39.6	-40.5	19.6	0.00e+00	0	41	0	2859466752	49	4051
2026-01-15 13:57:01.56	27.66	57.16	-39.7	-40.7	19.7	0.00e+00	0	41	0	2866806784	49	4103
2026-01-15 13:57:02.55	27.04	56.91	-40.0	-41.0	19.4	0.00e+00	0	41	0	2874146816	49	4279
2026-01-15 13:57:03.55	26.43	56.66	-40.1	-41.1	19.2	0.00e+00	0	41	0	2881486848	49	4322
2026-01-15 13:57:04.54	25.84	56.41	-40.3	-41.3	19.2	0.00e+00	0	41	0	2888826880	50	4165
2026-01-15 13:57:05.53	25.25	56.15	-40.1	-41.1	19.4	0.00e+00	0	41	0	2896166912	50	4066
2026-01-15 13:57:06.52	24.68	55.90	-39.8	-40.8	19.7	0.00e+00	0	41	0	2902458368	50	3915
2026-01-15 13:57:07.52	24.11	55.64	-39.4	-40.4	20.0	0.00e+00	0	41	0	2909798400	49	3965
2026-01-15 13:57:08.51	23.56	55.38	-39.4	-40.4	20.0	0.00e+00	0	41	0	2917138432	49	3974
2026-01-15 13:57:09.50	23.02	55.12	-39.5	-40.4	19.9	0.00e+00	0	41	0	2924478464	49	4004
2026-01-15 13:57:10.50	22.48	54.86	-39.7	-40.7	19.7	0.00e+00	0	41	0	2931818496	49	4113
2026-01-15 13:57:11.49	21.96	54.60	-39.6	-40.6	19.7	0.00e+00	0	41	0	2939158528	49	4074
2026-01-15 13:57:12.48	21.45	54.33	-39.5	-40.5	19.9	0.00e+00	0	41	0	2945449984	49	4012
2026-01-15 13:57:13.48	20.94	54.07	-39.2	-40.1	20.2	0.00e+00	0	41	0	2952790016	49	3865
2026-01-15 13:57:14.47	20.45	53.80	-39.1	-40.0	20.3	0.00e+00	0	41	0	2960130048	48	4049
2026-01-15 13:57:15.46	19.96	53.54	-39.3	-40.3	20.0	0.00e+00	0	41	0	2967470080	48	4169
2026-01-15 13:57:16.45	19.48	53.27	-39.7	-40.7	19.7	0.00e+00	0	41	0	2974810112	49	4125
2026-01-15 13:57:17.45	19.01	53.00	-39.9	-40.9	19.5	0.00e+00	0	41	0	2982150144	49	4216
2026-01-15 13:57:18.44	18.55	52.73	-39.8	-40.8	19.6	0.00e+00	0	41	0	2988441600	49	4175
2026-01-15 13:57:19.43	18.10	52.47	-39.5	-40.4	20.0	0.00e+00	0	41	0	2995781632	49	3990
2026-01-15 13:57:20.42	17.66	52.20	-39.6	-40.5	19.9	0.00e+00	0	41	0	3003121664	49	4040
2026-01-15 13:57:21.42	17.22	51.93	-39.5	-40.5	19.9	0.00e+00	0	41	0	3010461696	49	4026
2026-01-15 13:57:22.41	16.80	51.66	-39.8	-40.7	19.7	0.00e+00	0	41	0	3017801728	49	4127
2026-01-15 13:57:23.40	16.38	51.39	-39.9	-40.9	19.5	0.00e+00	0	41	0	3025141760	49	4228
2026-01-15 13:57:24.40	15.96	51.12	-39.9	-40.9	19.6	0.00e+00	0	41	0	3031433216	49	4202
2026-01-15 13:57:25.39	15.56	50.85	-39.7	-40.7	19.7	0.00e+00	0	41	0	3038773248	49	4119
2026-01-15 13:57:26.38	15.16	50.58	-39.6	-40.6	19.8	0.00e+00	0	41	0	3046113280	49	4058
2026-01-15 13:57:27.38	14.77	50.31	-39.5	-40.5	19.9	0.00e+00	0	41	0	3053453312	49	4033
2026-01-15 13:57:28.37	14.39	50.04	-39.6	-40.5	19.9	0.00e+00	0	41	0	3060793344	49	4050
2026-01-15 13:57:29.36	14.01	49.78	-39.7	-40.7	19.8	0.00e+00	0	41	0	3067084800	49	4102
2026-01-15 13:57:30.35	13.64	49.51	-39.7	-40.7	19.7	0.00e+00	0	41	0	3074424832	49	4112
2026-01-15 13:57:31.35	13.28	49.24	-39.7	-40.7	19.7	0.00e+00	0	41	0	3081764864	49	4136
2026-01-15 13:57:32.34	12.92	48.97	-39.6	-40.6	19.8	0.00e+00	0	41	0	3089104896	49	4062
2026-01-15 13:57:33.33	12.57	48.71	-39.7	-40.7	19.7	0.00e+00	0	41	0	3096444928	49	4118
2026-01-15 13:57:34.33	12.22	48.44	-39.7	-40.7	19.7	0.00e+00	0	41	0	3103784960	49	4114
2026-01-15 13:57:35.32	11.88	48.17	-39.6	-40.5	19.9	0.00e+00	0	41	0	3110076416	49	4048
2026-01-15 13:57:36.31	11.55	47.91	-39.5	-40.5	19.9	0.00e+00	0	41	0	3117416448	49	4036
2026-01-15 13:57:37.30	11.23	47.64	-39.5	-40.4	19.7	0.00e+00	0	41	0	3124756480	49	4002
2026-01-15 13:57:38.30	10.90	47.38	-39.1	-40.0	20.3	0.00e+00	0	41	0	3132096512	48	4027
2026-01-15 13:57:39.29	10.59	47.11	-39.0	-40.0	20.3	0.00e+00	0	41	0	3139436544	48	4013
2026-01-15 13:57:40.28	10.28	46.85	-39.0	-39.9	20.4	0.00e+00	0	41	0	3146776576	48	3992
2026-01-15 13:57:41.28	9.97	46.59	-38.8	-39.7	20.6	0.00e+00	0	41	0	3154116608	48	3902
2026-01-15 13:57:42.27	9.67	46.33	-38.7	-39.6	20.6	0.00e+00	0	41	0	3160408064	48	3848
2026-01-15 13:57:43.26	9.37	46.07	-38.6	-39.6	20.7	0.00e+00	0	41	0	3167748096	48	3830
2026-01-15 13:57:44.26	9.08	45.80	-38.6	-39.5	20.7	0.00e+00	0	41	0	3175088128	48	3814
2026-01-15 13:57:45.25	8.80	45.55	-38.7	-39.6	20.7	0.00e+00	0	41	0	3182428160	48	3847
2026-01-15 13:57:46.24	8.52	45.29	-38.7	-39.6	20.6	0.00e+00	0	41	0	3189768192	48	3858
2026-01-15 13:57:47.24	8.24	45.03	-38.7	-39.6	20.4	0.00e+00	0	41	0	3197108224	48	3864
2026-01-15 13:57:48.23	7.97	44.77	-38.5	-39.5	20.5	0.00e+00	0	41	0	3204448256	47	4013
2026-01-15 13:57:49.22	7.70	44.52	-38.5	-39.5	20.5	0.00e+00	0	41	0	3210739712	47	4009
2026-01-15 13:57:50.22	7.43	44.26	-38.5	-39.5	20.5	0.00e+00	0	41	0	3218079744	47	4024
2026-01-15 13:57:51.21	7.17	44.01	-38.4	-39.4	20.6	0.00e+00	0	41	0	3225419776	47	3975
2026-01-15 13:57:52.20	6.92	43.76	-38.5	-39.4	20.5	0.00e+00	0	41	0	3232759808	47	4003
2026-01-15 13:57:53.19	6.67	43.51	-38.3	-39.3	20.7	0.00e+00	0	41	0	3240099840	47	3924
2026-01-15 13:57:54.19	6.42	43.25	-38.3	-39.3	20.7	0.00e+00	0	41	0	3247439872	47	3920
2026-01-15 13:57:55.18	6.18	43.01	-38.5	-39.4	20.5	0.00e+00	0	41	0	3253731328	47	3991
2026-01-15 13:57:56.18	5.94	42.76	-38.6	-39.6	20.4	0.00e+00	0	41	0	3261071360	47	4067
2026-01-15 13:57:57.17	5.70	42.51	-38.7	-39.7	20.3	0.00e+00	0	41	0	3268411392	47	4123
2026-01-15 13:57:58.16	5.47	42.26	-38.6	-39.6	20.2	0.00e+00	0	41	0	3275751424	47	4076
2026-01-15 13:57:59.15	5.24	42.02	-38.8	-39.7	20.3	0.00e+00	0	41	0	3283091456	47	4136
2026-01-15 13:58:00.15	5.02	41.77	-38.8	-39.7	20.3	0.00e+00	0	41	0	3290431488	47	4138
2026-01-15 13:58:01.14	4.80	41.53	-38.5	-39.4	20.5	0.00e+00	0	41	0	3296722944	47	3994
2026-01-15 13:58:02.13	4.58	41.29	-38.5	-39.4	20.5	0.00e+00	0	41	0	3304062976	47	4000
2026-01-15 13:58:03.12	4.36	41.05	-38.4	-39.3	20.6	0.00e+00	0	41	0	3311403008	47	3951
2026-01-15 13:58:04.12	4.15	40.81	-38.4	-39.4	20.5	0.00e+00	0	41	0	3318743040	47	3971
2026-01-15 13:58:05.11	3.94	40.57	-38.4	-39.4	20.5	0.00e+00	0	41	0	3326083072	47	3975
2026-01-15 13:58:06.10	3.74	40.34	-38.6	-39.5	20.4	0.00e+00	0	41	0	3332374528	47	4050
2026-01-15 13:58:07.10	3.53	40.10	-38.7	-39.6	20.4	0.00e+00	0	41	0	3339714560	47	4086
2026-01-15 13:58:08.09	3.33	39.87	-38.6	-39.6	20.3	0.00e+00	0	41	0	3347054592	47	4075
2026-01-15 13:58:09.08	3.14	39.63	-38.6	-39.6	20.4	0.00e+00	0	41	0	3354394624	47	4055
2026-01-15 13:58:10.08	2.94	39.40	-38.5	-39.4	20.5	0.00e+00	0	41	0	3361734656	47	3996
2026-01-15 13:58:11.07	2.75	39.17	-38.3	-39.3	20.6	0.00e+00	0	41	0	3369074688	47	3916
2026-01-15 13:58:12.06	2.56	38.94	-38.2	-39.1	20.8	0.00e+00	0	41	0	3375366144	47	3850
2026-01-15 13:58:13.05	2.38	38.71	-38.3	-39.2	20.7	0.00e+00	0	41	0	3382706176	47	3888
2026-01-15 13:58:14.05	2.20	38.48	-38.1	-39.0	20.9	0.00e+00	0	41	0	3390046208	46	4026
2026-01-15 13:58:15.04	2.02	38.26	-38.2	-39.1	20.8	0.00e+00	0	41	0	3397386240	46	4090
2026-01-15 13:58:16.03	1.84	38.03	-38.3	-39.2	20.7	0.00e+00	0	41	0	3404726272	46	4138
2026-01-15 13:58:17.03	1.66	37.80	-38.3	-39.2	20.7	0.00e+00	0	41	0	3412066304	46	4136
2026-01-15 13:58:18.02	1.49	37.58	-38.3	-39.2	20.7	0.00e+00	0	41	0	3418357760	46	4129
2026-01-15 13:58:19.01	1.32	37.36	-38.3	-39.3	20.2	0.00e+00	0	41	0	3425697792	46	4147
2026-01-15 13:58:20.01	1.15	37.14	-38.1	-39.0	20.8	0.00e+00	0	41	0	3433037824	46	4049
2026-01-15 13:58:21.00	0.98	36.92	-38.0	-39.0	20.9	0.00e+00	0	41	0	3440377856	46	4007
2026-01-15 13:58:21.99	0.82	36.70	-38.1	-39.0	20.8	0.00e+00	0	41	0	3447717888	46	4051
2026-01-15 13:58:22.98	0.66	36.49	-38.0	-39.0	20.9	0.00e+00	0	41	0	3455057920	46	4006
2026-01-15 13:58:23.97	0.50	36.27	-38.1	-39.0	20.8	0.00e+00	0	41	0	3461349376	46	4047
2026-01-15 13:58:24.97	0.34	36.06	-38.2	-39.2	20.7	0.00e+00	0	41	0	3468689408	46	4109
2026-01-15 13:58:25.96	0.19	35.84	-38.3	-39.2	20.7	0.00e+00	0	41	0	3476029440	46	4129
2026-01-15 13:58:26.95	0.04	35.63	-38.3	-39.3	20.7	0.00e+00	0	41	0	3483369472	46	4157
2026-01-15 13:58:27.95	359.88	35.42	-38.3	-39.3	20.6	0.00e+00	0	41	0	3490709504	46	4180
2026-01-15 13:58:28.94	359.74	35.21	-38.3	-39.3	20.6	0.00e+00	0	41	0	3498049536	46	4147
2026-01-15 13:58:29.93	359.59	35.00	-38.0	-39.0	20.9	0.00e+00	0	41	0	3505389568	46	4016
2026-01-15 13:58:30.93	359.44	34.79	-38.0	-38.9	21.0	0.00e+00	0	41	0	3512729600	46	3989
2026-01-15 13:58:31.92	359.30	34.59	-38.0	-38.9	20.9	0.00e+00	0	41	0	3519021056	46	4004
2026-01-15 13:58:32.91	359.16	34.38	-38.0	-38.9	21.0	0.00e+00	0	41	0	3526361088	46	3967
2026-01-15 13:58:33.90	359.02	34.18	-38.0	-38.9	20.8	0.00e+00	0	41	0	3533701120	46	3964
2026-01-15 13:58:34.90	358.88	33.97	-38.1	-39.0	20.9	0.00e+00	0	41	0	3541041152	46	4015
2026-01-15 13:58:35.89	358.75	33.77	-38.1	-39.0	20.9	0.00e+00	0	41	0	3548381184	46	4042
2026-01-15 13:58:36.88	358.61	33.57	-38.2	-39.1	20.8	0.00e+00	0	41	0	3554672640	46	4081
2026-01-15 13:58:37.87	358.48	33.37	-38.3	-39.2	20.6	0.00e+00	0	41	0	3562012672	46	4144
2026-01-15 13:58:38.87	358.35	33.17	-38.3	-39.3	20.6	0.00e+00	0	41	0	3569352704	46	4148
2026-01-15 13:58:39.86	358.22	32.98	-38.3	-39.2	20.7	0.00e+00	0	41	0	3576692736	46	4123
2026-01-15 13:58:40.85	358.09	32.78	-38.3	-39.2	20.7	0.00e+00	0	41	0	3584032768	46	4130
2026-01-15 13:58:41.85	357.96	32.59	-38.3	-39.2	20.7	0.00e+00	0	41	0	3591372800	46	4135
2026-01-15 13:58:42.84	357.84	32.39	-38.1	-39.1	20.8	0.00e+00	0	41	0	3597664256	46	4059
2026-01-15 13:58:43.83	357.72	32.20	-38.2	-39.1	20.8	0.00e+00	0	41	0	3605004288	46	4092
2026-01-15 13:58:44.82	357.60	32.01	-38.2	-39.1	20.8	0.00e+00	0	41	0	3612344320	46	4068
2026-01-15 13:58:45.82	357.47	31.82	-38.1	-39.0	20.8	0.00e+00	0	41	0	3619684352	46	4046
2026-01-15 13:58:46.81	357.36	31.63	-38.0	-38.9	20.9	0.00e+00	0	41	0	3627024384	46	4004
2026-01-15 13:58:47.80	357.24	31.44	-38.1	-39.0	20.8	0.00e+00	0	41	0	3634364416	46	4010
2026-01-15 13:58:48.80	357.12	31.25	-38.1	-39.0	20.9	0.00e+00	0	41	0	3640655872	46	4025
2026-01-15 13:58:49.79	357.01	31.06	-38.1	-39.0	20.9	0.00e+00	0	41	0	3647995904	46	4019
2026-01-15 13:58:50.78	356.90	30.88	-38.2	-39.1	20.8	0.00e+00	0	41	0	3655335936	46	4061
2026-01-15 13:58:51.78	356.78	30.69	-38.3	-39.2	20.7	0.00e+00	0	41	0	3662675968	46	4126
2026-01-15 13:58:52.77	356.67	30.51	-38.3	-39.3	20.6	0.00e+00	0	41	0	3670016000	46	4149
2026-01-15 13:58:53.76	356.56	30.33	-38.3	-39.3	20.6	0.00e+00	0	41	0	3676307456	46	4156
2026-01-15 13:58:54.76	356.45	30.15	-38.4	-39.4	20.5	0.00e+00	0	41	0	3683647488	46	4200
2026-01-15 13:58:55.75	356.35	29.97	-38.5	-39.4	20.5	0.00e+00	0	41	0	3690987520	46	4242
2026-01-15 13:58:56.74	356.24	29.79	-38.4	-39.4	20.5	0.00e+00	0	41	0	3698327552	46	4223
2026-01-15 13:58:57.73	356.14	29.61	-38.5	-39.4	20.5	0.00e+00	0	41	0	3705667584	46	4238
2026-01-15 13:58:58.73	356.03	29.43	-38.5	-39.4	20.5	0.00e+00	0	41	0	3713007616	46	4224
2026-01-15 13:58:59.72	355.93	29.26	-38.5	-39.4	20.5	0.00e+00	0	41	0	3719299072	46	4232
2026-01-15 13:59:00.71	355.83	29.08	-38.5	-39.4	20.5	0.00e+00	0	41	0	3726639104	46	4217
2026-01-15 13:59:01.71	355.73	28.91	-38.4	-39.4	20.5	0.00e+00	0	41	0	3733979136	46	4201
2026-01-15 13:59:02.70	355.63	28.74	-38.4	-39.3	20.6	0.00e+00	0	41	0	3741319168	46	4178
2026-01-15 13:59:03.69	355.54	28.56	-38.4	-39.4	20.6	0.00e+00	0	41	0	3748659200	46	4200
2026-01-15 13:59:04.69	355.44	28.39	-38.5	-39.4	20.5	0.00e+00	0	41	0	3755999232	46	4226
2026-01-15 13:59:05.68	355.34	28.22	-38.5	-39.5	20.5	0.00e+00	0	41	0	3763339264	46	4243
2026-01-15 13:59:06.67	355.25	28.05	-38.5	-39.4	20.5	0.00e+00	0	41	0	3769630720	46	4236
2026-01-15 13:59:07.67	355.16	27.88	-38.6	-39.5	20.4	0.00e+00	0	41	0	3776970752	46	4276
2026-01-15 13:59:08.66	355.06	27.72	-38.5	-39.5	20.4	0.00e+00	0	41	0	3784310784	46	4269
2026-01-15 13:59:09.65	354.97	27.55	-38.6	-39.6	20.4	0.00e+00	0	41	0	3791650816	46	4311
2026-01-15 13:59:10.65	354.88	27.38	-38.7	-39.7	20.2	0.00e+00	0	41	0	3798990848	46	4362
2026-01-15 13:59:11.64	354.79	27.22	-38.6	-39.6	20.3	0.00e+00	0	41	0	3806330880	47	4077
2026-01-15 13:59:12.63	354.70	27.06	-38.7	-39.6	20.3	0.00e+00	0	41	0	3813670912	47	4097
2026-01-15 13:59:13.63	354.62	26.89	-38.7	-39.6	20.3	0.00e+00	0	41	0	3819962368	47	4086
2026-01-15 13:59:14.62	354.53	26.73	-38.7	-39.7	20.3	0.00e+00	0	41	0	3827302400	47	4106
2026-01-15 13:59:15.61	354.44	26.57	-38.7	-39.7	20.2	0.00e+00	0	41	0	3834642432	47	4127
2026-01-15 13:59:16.60	354.36	26.41	-38.8	-39.8	20.1	0.00e+00	0	41	0	3841982464	47	4158
2026-01-15 13:59:17.60	354.28	26.25	-38.7	-39.8	20.2	0.00e+00	0	41	0	3849322496	47	4146
2026-01-15 13:59:18.59	354.19	26.09	-38.8	-39.9	20.1	0.00e+00	0	41	0	3856662528	47	4198
2026-01-15 13:59:19.58	354.11	25.94	-38.8	-39.9	20.0	0.00e+00	0	41	0	3862953984	47	4204
2026-01-15 13:59:20.57	354.03	25.78	-38.6	-39.7	20.2	0.00e+00	0	41	0	3870294016	47	4099
2026-01-15 13:59:21.57	353.95	25.62	-38.7	-39.7	20.2	0.00e+00	0	41	0	3877634048	47	4126
2026-01-15 13:59:22.56	353.87	25.47	-38.6	-39.7	20.2	0.00e+00	0	41	0	3884974080	47	4111
2026-01-15 13:59:23.55	353.79	25.31	-38.6	-39.6	20.3	0.00e+00	0	41	0	3892314112	47	4091
2026-01-15 13:59:24.55	353.71	25.16	-38.6	-39.7	20.3	0.00e+00	0	41	0	3899654144	47	4101
2026-01-15 13:59:25.54	353.64	25.01	-38.5	-39.5	20.4	0.00e+00	0	41	0	3905945600	47	4041
2026-01-15 13:59:26.53	353.56	24.86	-38.5	-39.5	20.4	0.00e+00	0	41	0	3913285632	47	4031
2026-01-15 13:59:27.52	353.48	24.71	-38.6	-39.6	20.3	0.00e+00	0	41	0	3920625664	47	4061
2026-01-15 13:59:28.52	353.41	24.55	-38.3	-39.3	20.5	0.00e+00	0	41	0	3927965696	47	3948
2026-01-15 13:59:29.51	353.33	24.41	-38.3	-39.3	20.6	0.00e+00	0	41	0	3935305728	47	3945
2026-01-15 13:59:30.51	353.26	24.26	-38.3	-39.3	20.6	0.00e+00	0	41	0	3941597184	47	3918
2026-01-15 13:59:31.50	353.19	24.11	-38.3	-39.3	20.6	0.00e+00	0	41	0	3948937216	47	3915
2026-01-15 13:59:32.49	353.12	23.96	-38.3	-39.2	20.6	0.00e+00	0	41	0	3956277248	47	3905
2026-01-15 13:59:33.48	353.04	23.82	-38.3	-39.3	20.6	0.00e+00	0	41	0	3963617280	47	3919
2026-01-15 13:59:34.48	352.97	23.67	-38.4	-39.3	20.5	0.00e+00	0	41	0	3970957312	47	3948
2026-01-15 13:59:35.47	352.90	23.53	-38.5	-39.4	20.5	0.00e+00	0	41	0	3978297344	47	4002
2026-01-15 13:59:36.46	352.83	23.38	-38.4	-39.4	20.5	0.00e+00	0	41	0	3984588800	47	3965
2026-01-15 13:59:37.45	352.77	23.24	-38.5	-39.4	20.4	0.00e+00	0	41	0	3991928832	47	4004
2026-01-15 13:59:38.45	352.70	23.10	-38.5	-39.5	20.3	0.00e+00	0	41	0	3999268864	47	4030
2026-01-15 13:59:39.44	352.63	22.96	-38.5	-39.5	20.4	0.00e+00	0	41	0	4006608896	47	4033
2026-01-15 13:59:40.43	352.56	22.82	-38.6	-39.6	20.3	0.00e+00	0	41	0	4013948928	47	4058
2026-01-15 13:59:41.43	352.50	22.67	-38.6	-39.6	20.2	0.00e+00	0	41	0	4021288960	47	4065
2026-01-15 13:59:42.42	352.43	22.54	-38.6	-39.6	20.3	0.00e+00	0	41	0	4027580416	47	4082
2026-01-15 13:59:43.41	352.37	22.40	-38.7	-39.6	20.3	0.00e+00	0	41	0	4034920448	47	4095
2026-01-15 13:59:44.40	352.30	22.26	-38.7	-39.7	20.3	0.00e+00	0	41	0	4042260480	47	4115
2026-01-15 13:59:45.40	352.24	22.12	-38.7	-39.7	20.2	0.00e+00	0	41	0	4049600512	47	4124
2026-01-15 13:59:46.39	352.18	21.99	-38.7	-39.7	20.3	0.00e+00	0	41	0	4056940544	47	4102
2026-01-15 13:59:47.38	352.11	21.85	-38.7	-39.7	20.2	0.00e+00	0	41	0	4064280576	47	4118
2026-01-15 13:59:48.38	352.05	21.71	-38.8	-39.8	20.2	0.00e+00	0	41	0	4071620608	47	4162
2026-01-15 13:59:49.37	351.99	21.58	-38.7	-39.7	20.2	0.00e+00	0	41	0	4077912064	47	4123
2026-01-15 13:59:50.36	351.93	21.45	-38.7	-39.6	20.2	0.00e+00	0	41	0	4085252096	47	4094
2026-01-15 13:59:51.36	351.87	21.31	-38.7	-39.7	20.2	0.00e+00	0	41	0	4092592128	47	4110
2026-01-15 13:59:52.35	351.81	21.18	-38.7	-39.7	20.2	0.00e+00	0	41	0	4099932160	47	4128
2026-01-15 13:59:53.34	351.75	21.05	-38.8	-39.7	20.1	0.00e+00	0	41	0	4107272192	47	4136
2026-01-15 13:59:54.33	351.69	20.92	-38.8	-39.8	20.1	0.00e+00	0	41	0	4114612224	47	4168
2026-01-15 13:59:55.33	351.63	20.79	-38.9	-39.9	20.1	0.00e+00	0	41	0	4121952256	47	4201
2026-01-15 13:59:56.32	351.58	20.66	-38.9	-39.8	20.1	0.00e+00	0	41	0	4128243712	47	4184
2026-01-15 13:59:57.31	351.52	20.53	-39.0	-39.9	20.0	0.00e+00	0	41	0	4135583744	47	4240
2026-01-15 13:59:58.31	351.46	20.40	-39.0	-40.0	19.9	0.00e+00	0	41	0	4142923776	47	4265
2026-01-15 13:59:59.30	351.41	20.27	-39.1	-40.1	19.8	0.00e+00	0	41	0	4150263808	47	4310
2026-01-15 14:00:00.29	351.35	20.14	-39.1	-40.2	19.8	0.00e+00	0	41	0	4157603840	47	4342
2026-01-15 14:00:01.28	351.30	20.02	-39.2	-40.2	19.7	0.00e+00	0	41	0	4164943872	47	4389
2026-01-15 14:00:02.28	351.24	19.89	-39.4	-40.5	19.8	0.00e+00	0	41	0	4171235328	48	4257
2026-01-15 14:00:03.27	351.19	19.77	-39.4	-40.5	19.8	0.00e+00	0	41	0	4178575360	48	4272
2026-01-15 14:00:04.26	351.13	19.64	-39.5	-40.6	19.6	0.00e+00	0	41	0	4185915392	48	4330
2026-01-15 14:00:05.26	351.08	19.52	-39.5	-40.6	19.6	0.00e+00	0	41	0	4193255424	48	4324
2026-01-15 14:00:06.25	351.03	19.39	-39.5	-40.6	19.6	0.00e+00	0	41	0	4200595456	48	4333
2026-01-15 14:00:07.24	350.98	19.27	-39.6	-40.7	19.5	0.00e+00	0	41	0	4206886912	48	4388
2026-01-15 14:00:08.23	350.92	19.15	-39.6	-40.8	19.5	0.00e+00	0	41	0	4214226944	48	4400
2026-01-15 14:00:09.23	350.87	19.02	-39.7	-40.8	19.5	0.00e+00	0	41	0	4221566976	48	4423
2026-01-15 14:00:10.22	350.82	18.90	-39.7	-40.8	19.5	0.00e+00	0	41	0	4228907008	48	4432
2026-01-15 14:00:11.21	350.77	18.78	-39.7	-40.8	19.5	0.00e+00	0	40	0	4236247040	48	4439
2026-01-15 14:00:12.21	350.72	18.66	-39.7	-40.8	19.5	0.00e+00	0	41	0	4243587072	48	4415
2026-01-15 14:00:13.20	350.67	18.54	-39.7	-40.9	19.4	0.00e+00	0	41	0	4249878528	49	4198
2026-01-15 14:00:14.19	350.62	18.42	-39.8	-41.0	19.3	0.00e+00	0	41	0	4257218560	49	4245
2026-01-15 14:00:15.19	350.57	18.30	-39.7	-40.8	19.5	0.00e+00	0	41	0	4264558592	49	4157
2026-01-15 14:00:16.18	350.53	18.19	-39.8	-40.9	19.4	0.00e+00	0	41	0	4271898624	49	4200
2026-01-15 14:00:17.17	350.48	18.07	-39.7	-40.8	19.5	0.00e+00	0	41	0	4279238656	49	4161
2026-01-15 14:00:18.16	350.43	17.95	-39.8	-40.9	19.4	0.00e+00	0	41	0	4285530112	49	4214
2026-01-15 14:00:19.16	350.38	17.84	-39.8	-40.8	19.4	0.00e+00	0	41	0	4292870144	49	4190
2026-01-15 14:00:20.15	350.34	17.72	-39.9	-40.9	19.3	0.00e+00	0	41	0	4300210176	49	4235
2026-01-15 14:00:21.14	350.29	17.60	-39.7	-40.8	19.5	0.00e+00	0	41	0	4307550208	49	4156
2026-01-15 14:00:22.14	350.24	17.49	-39.7	-40.7	19.5	0.00e+00	0	41	0	4314890240	49	4132
2026-01-15 14:00:23.13	350.20	17.38	-39.7	-40.7	19.5	0.00e+00	0	41	0	4322230272	49	4126
2026-01-15 14:00:24.12	350.15	17.26	-39.7	-40.8	19.5	0.00e+00	0	41	0	4328521728	49	4150
2026-01-15 14:00:25.11	350.11	17.15	-39.8	-40.8	19.4	0.00e+00	0	41	0	4335861760	49	4179
2026-01-15 14:00:26.11	350.06	17.04	-39.7	-40.8	19.5	0.00e+00	0	41	0	4343201792	49	4164
2026-01-15 14:00:27.10	350.02	16.92	-39.8	-40.8	19.4	0.00e+00	0	41	0	4350541824	49	4184
2026-01-15 14:00:28.09	349.98	16.81	-39.7	-40.8	19.5	0.00e+00	0	41	0	4357881856	49	4162
2026-01-15 14:00:29.09	349.93	16.70	-39.7	-40.8	19.5	0.00e+00	0	41	0	4365221888	49	4147
2026-01-15 14:00:30.08	349.89	16.59	-39.7	-40.8	19.5	0.00e+00	0	41	0	4372561920	49	4150
2026-01-15 14:00:31.07	349.85	16.48	-39.8	-40.9	19.4	0.00e+00	0	41	0	4378853376	49	4202
2026-01-15 14:00:32.06	349.80	16.37	-39.8	-40.9	19.4	0.00e+00	0	41	0	4386193408	49	4198
2026-01-15 14:00:33.06	349.76	16.26	-39.8	-40.9	19.3	0.00e+00	0	41	0	4393533440	49	4222
2026-01-15 14:00:34.05	349.72	16.15	-39.8	-40.9	19.3	0.00e+00	0	41	0	4400873472	49	4224
2026-01-15 14:00:35.04	349.68	16.04	-39.9	-41.0	19.2	0.00e+00	0	41	0	4408213504	49	4288
2026-01-15 14:00:36.04	349.64	15.93	-39.8	-41.0	19.3	0.00e+00	0	41	0	4415553536	49	4244
2026-01-15 14:00:37.03	349.60	15.83	-39.9	-41.0	19.2	0.00e+00	0	41	0	4422893568	49	4281
2026-01-15 14:00:38.02	349.56	15.72	-40.0	-41.2	19.0	0.00e+00	0	41	0	4429185024	49	4359
2026-01-15 14:00:39.01	349.52	15.61	-40.0	-41.1	19.1	0.00e+00	0	41	0	4436525056	49	4326
2026-01-15 14:00:40.01	349.48	15.51	-40.1	-41.2	19.0	0.00e+00	0	41	0	4443865088	49	4371
2026-01-15 14:00:41.00	349.44	15.40	-40.1	-41.2	19.0	0.00e+00	0	41	0	4451205120	49	4378
2026-01-15 14:00:41.99	349.40	15.30	-40.2	-41.3	19.0	0.00e+00	0	41	0	4458545152	49	4419
2026-01-15 14:00:42.98	349.36	15.19	-40.2	-41.4	18.9	0.00e+00	0	41	0	4465885184	49	4459
2026-01-15 14:00:43.98	349.32	15.09	-40.3	-41.4	18.9	0.00e+00	0	41	0	4472176640	50	4235
2026-01-15 14:00:44.97	349.28	14.98	-40.3	-41.5	18.8	0.00e+00	0	41	0	4479516672	50	4269
2026-01-15 14:00:45.96	349.24	14.88	-40.3	-41.5	18.8	0.00e+00	0	41	0	4486856704	50	4268
2026-01-15 14:00:46.96	349.21	14.78	-40.4	-41.6	18.7	0.00e+00	0	41	0	4494196736	50	4329
2026-01-15 14:00:47.95	349.17	14.67	-40.4	-41.6	18.6	0.00e+00	0	41	0	4501536768	50	4337
2026-01-15 14:00:48.94	349.13	14.57	-40.5	-41.7	18.6	0.00e+00	0	41	0	4508876800	50	4350
2026-01-15 14:00:49.94	349.09	14.47	-40.5	-41.7	18.6	0.00e+00	0	41	0	4515168256	50	4345
2026-01-15 14:00:50.93	349.06	14.37	-40.6	-41.8	18.6	0.00e+00	0	41	0	4522508288	50	4404
2026-01-15 14:00:51.92	349.02	14.27	-40.5	-41.8	18.6	0.00e+00	0	41	0	4529848320	50	4395
2026-01-15 14:00:52.91	348.99	14.17	-40.7	-41.9	18.4	0.00e+00	0	41	0	4537188352	50	4467
2026-01-15 14:00:53.90	348.95	14.07	-40.6	-41.8	18.5	0.00e+00	0	41	0	4544528384	50	4432
2026-01-15 14:00:54.90	348.91	13.97	-40.7	-41.9	18.4	0.00e+00	0	41	0	4550819840	50	4465
2026-01-15 14:00:55.89	348.88	13.87	-40.7	-41.9	18.4	0.00e+00	0	41	0	4558159872	50	4479
2026-01-15 14:00:56.88	348.84	13.77	-40.8	-42.0	18.2	0.00e+00	0	41	0	4565499904	51	4284
2026-01-15 14:00:57.88	348.81	13.67	-40.9	-42.1	18.2	0.00e+00	0	41	0	4572839936	51	4297
2026-01-15 14:00:58.87	348.77	13.57	-40.9	-42.1	18.2	0.00e+00	0	41	0	4580179968	51	4314
2026-01-15 14:00:59.86	348.74	13.47	-40.8	-42.0	18.3	0.00e+00	0	41	0	4587520000	51	4266
2026-01-15 14:01:00.85	348.71	13.38	-40.9	-42.1	18.2	0.00e+00	0	41	0	4593811456	51	4310
2026-01-15 14:01:01.85	348.67	13.28	-41.0	-42.2	18.1	0.00e+00	0	41	0	4601151488	51	4359
2026-01-15 14:01:02.84	348.64	13.18	-40.9	-42.1	18.2	0.00e+00	0	41	0	4608491520	51	4314
2026-01-15 14:01:03.83	348.61	13.09	-40.7	-42.0	18.3	0.00e+00	0	41	0	4615831552	51	4257
2026-01-15 14:01:04.83	348.57	12.99	-40.7	-42.0	18.2	0.00e+00	0	41	0	4623171584	51	4285
2026-01-15 14:01:05.82	348.54	12.89	-40.7	-42.1	18.2	0.00e+00	0	41	0	4630511616	51	4301
2026-01-15 14:01:06.81	348.51	12.80	-40.6	-42.0	18.2	0.00e+00	0	41	0	4636803072	51	4273
2026-01-15 14:01:07.81	348.48	12.70	-40.7	-42.2	18.1	0.00e+00	0	41	0	4644143104	51	4356
2026-01-15 14:01:08.80	348.44	12.61	-40.6	-42.1	18.2	0.00e+00	0	41	0	4651483136	51	4315
2026-01-15 14:01:09.79	348.41	12.52	-40.7	-42.2	18.1	0.00e+00	0	41	0	4658823168	51	4342
2026-01-15 14:01:10.78	348.38	12.42	-40.7	-42.2	18.1	0.00e+00	0	41	0	4666163200	51	4369
2026-01-15 14:01:11.77	348.35	12.33	-40.7	-42.1	18.1	0.00e+00	0	41	0	4672454656	51	4323
