passes_logs/2026/01/15/T1/T1__20260115_120458_FENGYUN_3D_rec.log

#Pass ID: 20260115_120458_FENGYUN 3D
#Satellite: FENGYUN 3D
#Configuration: FENGYUN 3D
#almurnet v.1.7.20251203
#Start time: 2026-01-15 12:05:00

#Version: 2.0.20230620
#Station: T1
#Location: 37.570604 lon 55.790049 lat
#TLE: 1 43010U 17072A   26014.65117763 -.00000217  00000+0 -80772-4 0  9993
#TLE: 2 43010  98.9933 346.4618 0002330 108.4699 251.6730 14.19694700423204

#Time	Az	El	Level	Level2	SNR	BER	BlckErr	Temp	State	Recorded	gain1	gain2
2026-01-15 12:05:00.87	163.57	5.15	-48.5	-62.0	3.8	8.47e-01	0	41	0	0	68	17281
2026-01-15 12:05:01.86	163.58	5.23	-48.5	-62.2	3.8	8.48e-01	0	41	104	0	68	17591
2026-01-15 12:05:02.85	163.59	5.30	-48.5	-62.2	3.8	8.45e-01	0	41	104	0	68	17655
2026-01-15 12:05:03.84	163.60	5.37	-48.5	-62.3	3.8	8.47e-01	0	41	104	0	68	17811
2026-01-15 12:05:04.83	163.61	5.44	-48.5	-62.3	3.8	8.46e-01	0	41	104	0	68	17874
2026-01-15 12:05:05.83	163.61	5.51	-48.6	-62.4	3.8	8.47e-01	0	41	104	0	68	18036
2026-01-15 12:05:06.82	163.62	5.59	-48.6	-62.4	3.8	8.46e-01	0	41	104	0	68	17957
2026-01-15 12:05:07.81	163.63	5.66	-48.6	-62.3	3.8	8.46e-01	0	41	104	0	68	17876
2026-01-15 12:05:08.81	163.64	5.73	-48.6	-62.2	3.8	8.46e-01	0	41	104	0	68	17662
2026-01-15 12:05:09.80	163.65	5.81	-48.5	-62.0	3.8	8.47e-01	0	41	104	0	68	17260
2026-01-15 12:05:10.79	163.66	5.88	-48.6	-61.8	3.8	8.46e-01	0	41	104	0	68	16741
2026-01-15 12:05:11.78	163.66	5.95	-48.5	-61.5	3.8	8.46e-01	0	41	104	0	68	16164
2026-01-15 12:05:12.78	163.67	6.03	-48.5	-61.1	3.8	8.47e-01	0	41	104	0	68	15471
2026-01-15 12:05:13.77	163.68	6.10	-48.5	-60.8	3.8	8.46e-01	0	42	104	0	68	14889
2026-01-15 12:05:14.76	163.69	6.18	-48.4	-60.2	3.9	8.46e-01	0	42	104	0	68	13941
2026-01-15 12:05:15.76	163.70	6.25	-48.4	-59.7	4.0	8.44e-01	0	42	104	0	68	13179
2026-01-15 12:05:16.75	163.71	6.33	-48.3	-59.1	4.1	8.44e-01	0	41	0	0	68	12338
2026-01-15 12:05:17.74	163.72	6.40	-48.3	-58.5	4.3	8.35e-01	0	42	0	0	68	11484
2026-01-15 12:05:18.73	163.72	6.48	-48.1	-57.9	4.5	8.28e-01	0	42	0	0	68	10776
2026-01-15 12:05:19.73	163.73	6.55	-48.0	-57.2	4.8	8.01e-01	0	42	0	0	68	9866
2026-01-15 12:05:20.72	163.74	6.63	-47.7	-56.2	5.2	7.60e-01	0	42	0	0	67	9381
2026-01-15 12:05:21.71	163.75	6.70	-47.6	-55.5	5.7	6.77e-01	0	42	0	1048576	67	8656
2026-01-15 12:05:22.71	163.76	6.78	-47.4	-54.9	6.2	3.40e-01	0	42	0	6291456	66	8467
2026-01-15 12:05:23.70	163.77	6.86	-47.3	-54.2	6.7	2.41e-01	0	42	0	11534336	66	7858
2026-01-15 12:05:24.69	163.78	6.93	-47.0	-53.5	7.4	1.45e-01	0	42	0	17825792	66	7257
2026-01-15 12:05:25.68	163.79	7.01	-46.7	-52.7	8.1	8.36e-02	0	42	0	23068672	65	7014
2026-01-15 12:05:26.68	163.79	7.09	-46.5	-52.1	8.8	4.96e-02	0	42	0	28311552	65	6521
2026-01-15 12:05:27.67	163.80	7.16	-46.2	-51.4	9.4	2.19e-02	0	42	0	34603008	64	6389
2026-01-15 12:05:28.66	163.81	7.24	-46.0	-50.8	10.2	1.14e-02	0	42	0	39845888	63	6285
2026-01-15 12:05:29.66	163.82	7.32	-45.7	-50.2	10.8	3.97e-03	0	42	0	45088768	63	5903
2026-01-15 12:05:30.65	163.83	7.40	-45.3	-49.6	11.5	1.69e-02	0	42	0	50331648	62	5793
2026-01-15 12:05:31.64	163.84	7.47	-45.0	-49.0	12.1	6.35e-04	0	42	0	56623104	62	5413
2026-01-15 12:05:32.63	163.85	7.55	-44.7	-48.4	12.6	1.80e-04	0	42	0	61865984	61	5389
2026-01-15 12:05:33.63	163.86	7.63	-44.4	-47.9	13.1	1.72e-02	0	42	0	68157440	60	5393
2026-01-15 12:05:34.62	163.87	7.71	-44.1	-47.5	13.6	2.05e-05	0	42	0	73400320	60	5113
2026-01-15 12:05:35.61	163.88	7.79	-43.9	-47.1	13.9	4.50e-06	0	42	0	78643200	59	5184
2026-01-15 12:05:36.61	163.89	7.87	-43.7	-46.8	14.1	1.57e-02	0	42	0	83886080	59	5041
2026-01-15 12:05:37.60	163.90	7.95	-43.6	-46.6	14.3	2.20e-06	0	42	0	90177536	59	4908
2026-01-15 12:05:38.59	163.90	8.03	-43.5	-46.6	14.4	2.20e-06	0	42	0	95420416	59	4895
2026-01-15 12:05:39.58	163.91	8.11	-43.6	-46.7	14.2	2.20e-06	0	42	0	100663296	59	4973
2026-01-15 12:05:40.58	163.92	8.19	-43.7	-46.8	14.1	2.20e-06	0	42	0	106954752	59	5028
2026-01-15 12:05:41.57	163.93	8.27	-43.9	-47.1	13.9	5.70e-06	0	42	0	112197632	59	5200
2026-01-15 12:05:42.56	163.94	8.35	-44.3	-47.7	13.3	2.17e-05	0	42	0	117440512	59	5542
2026-01-15 12:05:43.56	163.95	8.43	-44.7	-48.4	12.7	6.17e-05	0	42	0	123731968	60	5673
2026-01-15 12:05:44.55	163.96	8.51	-45.1	-49.1	11.9	4.34e-04	0	42	0	128974848	60	6187
2026-01-15 12:05:45.54	163.97	8.60	-45.7	-50.2	10.8	1.98e-03	0	42	0	134217728	62	6256
2026-01-15 12:05:46.54	163.98	8.68	-46.3	-51.5	9.4	1.50e-02	0	42	0	140509184	63	6857
2026-01-15 12:05:47.53	163.99	8.76	-46.8	-53.0	7.8	5.92e-02	0	42	0	145752064	64	7715
2026-01-15 12:05:48.52	164.00	8.84	-47.4	-54.8	6.2	2.00e-01	0	42	0	150994944	65	8964
2026-01-15 12:05:49.51	164.01	8.93	-47.8	-56.8	4.9	7.47e-01	0	43	0	154140672	66	10556
2026-01-15 12:05:50.51	164.02	9.01	-48.1	-58.8	4.2	8.31e-01	0	43	0	154140672	66	13334
2026-01-15 12:05:51.50	164.03	9.09	-47.5	-56.4	5.0	8.31e-01	0	42	0	154140672	67	9589
2026-01-15 12:05:52.49	164.04	9.18	-45.4	-50.0	11.0	8.68e-03	0	43	0	159383552	62	6113
2026-01-15 12:05:53.49	164.05	9.26	-48.4	-59.0	4.3	4.04e-03	0	43	0	164626432	66	13621
2026-01-15 12:05:54.48	164.06	9.34	-48.2	-61.0	3.8	8.45e-01	0	42	104	164626432	67	16262
2026-01-15 12:05:55.47	164.07	9.43	-45.6	-50.5	10.4	7.67e-02	0	42	0	166723584	63	6105
2026-01-15 12:05:56.46	164.08	9.51	-43.9	-47.0	14.1	1.10e-06	0	42	0	171966464	59	5111
2026-01-15 12:05:57.46	164.09	9.60	-43.8	-46.6	14.4	0.00e+00	0	42	0	177209344	59	4924
2026-01-15 12:05:58.45	164.10	9.68	-43.6	-46.3	14.7	1.10e-06	0	43	0	182452224	59	4731
2026-01-15 12:05:59.44	164.11	9.77	-43.6	-46.3	14.8	0.00e+00	0	43	0	188743680	59	4708
2026-01-15 12:06:00.44	164.12	9.86	-43.0	-45.5	15.6	0.00e+00	0	43	0	193986560	58	4549
2026-01-15 12:06:01.43	164.13	9.94	-42.4	-44.7	16.3	0.00e+00	0	43	0	200278016	56	4691
2026-01-15 12:06:02.42	164.14	10.03	-42.1	-44.3	16.7	1.49e-03	0	43	0	205520896	56	4472
2026-01-15 12:06:03.42	164.15	10.12	-41.8	-44.0	16.9	0.00e+00	0	43	0	210763776	55	4553
2026-01-15 12:06:04.41	164.16	10.20	-41.6	-43.8	17.0	0.00e+00	0	43	0	216006656	55	4476
2026-01-15 12:06:05.40	164.17	10.29	-41.6	-43.8	17.0	1.04e-02	0	43	0	222298112	55	4462
2026-01-15 12:06:06.39	164.18	10.38	-41.6	-43.8	17.1	0.00e+00	0	43	0	227540992	55	4449
2026-01-15 12:06:07.39	164.19	10.47	-41.7	-43.9	16.9	0.00e+00	0	43	0	232783872	55	4522
2026-01-15 12:06:08.38	164.20	10.56	-41.7	-43.9	17.0	0.00e+00	0	43	0	239075328	55	4518
2026-01-15 12:06:09.37	164.21	10.64	-41.5	-43.7	17.1	0.00e+00	0	43	0	244318208	55	4416
2026-01-15 12:06:10.37	164.22	10.73	-41.5	-43.7	17.2	0.00e+00	0	43	0	249561088	55	4397
2026-01-15 12:06:11.36	164.23	10.82	-41.6	-43.8	17.1	0.00e+00	0	43	0	255852544	55	4457
2026-01-15 12:06:12.35	164.25	10.91	-41.5	-43.7	17.2	0.00e+00	0	43	0	261095424	54	4655
2026-01-15 12:06:13.34	164.26	11.00	-41.4	-43.5	17.3	0.00e+00	0	43	0	266338304	54	4583
2026-01-15 12:06:14.34	164.27	11.09	-41.4	-43.6	17.3	0.00e+00	0	43	0	272629760	54	4602
2026-01-15 12:06:15.33	164.28	11.18	-41.4	-43.6	17.3	0.00e+00	0	43	0	277872640	54	4605
2026-01-15 12:06:16.32	164.29	11.28	-41.4	-43.5	17.3	0.00e+00	0	43	0	283115520	54	4572
2026-01-15 12:06:17.32	164.30	11.37	-41.4	-43.5	17.3	0.00e+00	0	43	0	289406976	54	4598
2026-01-15 12:06:18.31	164.31	11.46	-41.4	-43.5	17.4	0.00e+00	0	43	0	294649856	54	4575
2026-01-15 12:06:19.30	164.32	11.55	-41.3	-43.4	17.4	0.00e+00	0	43	0	299892736	54	4536
2026-01-15 12:06:20.30	164.33	11.64	-41.4	-43.6	17.3	0.00e+00	0	43	0	306184192	54	4606
2026-01-15 12:06:21.29	164.34	11.74	-41.3	-43.4	17.4	0.00e+00	0	43	0	311427072	54	4538
2026-01-15 12:06:22.28	164.36	11.83	-41.3	-43.5	17.3	0.00e+00	0	43	0	316669952	54	4558
2026-01-15 12:06:23.28	164.37	11.92	-41.3	-43.4	17.4	0.00e+00	0	43	0	322961408	54	4539
2026-01-15 12:06:24.27	164.38	12.02	-41.2	-43.4	17.5	0.00e+00	0	43	0	328204288	54	4507
2026-01-15 12:06:25.26	164.39	12.11	-41.2	-43.3	17.5	0.00e+00	0	43	0	333447168	54	4482
2026-01-15 12:06:26.25	164.40	12.21	-41.2	-43.4	17.5	0.00e+00	0	43	0	339738624	54	4496
2026-01-15 12:06:27.25	164.41	12.30	-41.1	-43.2	17.7	0.00e+00	0	43	0	344981504	54	4415
2026-01-15 12:06:28.24	164.42	12.40	-41.1	-43.2	17.7	9.06e-03	0	43	0	350224384	54	4420
2026-01-15 12:06:29.23	164.44	12.49	-41.1	-43.2	17.7	0.00e+00	0	43	0	356515840	54	4401
2026-01-15 12:06:30.22	164.45	12.59	-41.0	-43.1	17.7	0.00e+00	0	43	0	361758720	54	4379
2026-01-15 12:06:31.22	164.46	12.69	-40.9	-43.1	17.8	9.55e-03	0	43	0	367001600	53	4600
2026-01-15 12:06:32.21	164.47	12.78	-41.0	-43.1	17.7	0.00e+00	0	43	0	372244480	53	4637
2026-01-15 12:06:33.20	164.48	12.88	-41.0	-43.1	17.8	0.00e+00	0	43	0	378535936	53	4626
2026-01-15 12:06:34.20	164.50	12.98	-40.8	-42.9	17.9	6.42e-03	0	43	0	383778816	53	4517
2026-01-15 12:06:35.19	164.51	13.08	-40.7	-42.8	18.0	0.00e+00	0	43	0	390070272	53	4469
2026-01-15 12:06:36.18	164.52	13.17	-40.8	-42.9	18.0	0.00e+00	0	43	0	395313152	53	4495
2026-01-15 12:06:37.18	164.53	13.27	-40.6	-42.7	18.2	2.82e-04	0	43	0	400556032	53	4398
2026-01-15 12:06:38.17	164.54	13.37	-40.6	-42.6	18.2	0.00e+00	0	43	0	406847488	53	4379
2026-01-15 12:06:39.16	164.56	13.47	-40.5	-42.6	18.3	0.00e+00	0	43	0	412090368	53	4343
2026-01-15 12:06:40.15	164.57	13.57	-40.5	-42.5	18.3	0.00e+00	0	43	0	417333248	52	4572
2026-01-15 12:06:41.15	164.58	13.67	-40.5	-42.5	18.3	0.00e+00	0	43	0	422576128	52	4578
2026-01-15 12:06:42.14	164.59	13.77	-40.5	-42.6	18.3	0.00e+00	0	43	0	428867584	52	4618
2026-01-15 12:06:43.13	164.61	13.87	-40.4	-42.5	18.4	0.00e+00	0	43	0	434110464	52	4554
2026-01-15 12:06:44.13	164.62	13.98	-40.3	-42.3	18.5	0.00e+00	0	43	0	440401920	52	4460
2026-01-15 12:06:45.12	164.63	14.08	-40.2	-42.2	18.6	0.00e+00	0	43	0	445644800	52	4426
2026-01-15 12:06:46.11	164.64	14.18	-40.3	-42.3	18.6	0.00e+00	0	43	0	450887680	52	4458
2026-01-15 12:06:47.10	164.66	14.28	-40.2	-42.2	18.7	0.00e+00	0	43	0	456130560	52	4399
2026-01-15 12:06:48.10	164.67	14.39	-40.3	-42.2	18.6	0.00e+00	0	43	0	462422016	52	4439
2026-01-15 12:06:49.09	164.68	14.49	-40.2	-42.2	18.6	0.00e+00	0	43	0	467664896	52	4394
2026-01-15 12:06:50.08	164.70	14.60	-40.2	-42.2	18.6	0.00e+00	0	43	0	472907776	52	4409
2026-01-15 12:06:51.08	164.71	14.70	-40.2	-42.2	18.4	0.00e+00	0	43	0	479199232	52	4410
2026-01-15 12:06:52.07	164.72	14.81	-40.1	-42.0	18.8	0.00e+00	0	43	0	484442112	52	4335
2026-01-15 12:06:53.06	164.74	14.91	-40.1	-42.0	18.8	0.00e+00	0	43	0	489684992	52	4335
2026-01-15 12:06:54.06	164.75	15.02	-40.0	-42.0	18.8	0.00e+00	0	43	0	495976448	52	4309
2026-01-15 12:06:55.05	164.76	15.13	-40.0	-41.9	18.9	0.00e+00	0	43	0	501219328	52	4278
2026-01-15 12:06:56.04	164.78	15.23	-40.0	-41.9	18.9	0.00e+00	0	43	0	506462208	52	4290
2026-01-15 12:06:57.04	164.79	15.34	-40.0	-42.0	18.9	0.00e+00	0	43	0	512753664	51	4549
2026-01-15 12:06:58.03	164.80	15.45	-40.0	-42.0	18.9	0.00e+00	0	43	0	517996544	51	4564
2026-01-15 12:06:59.02	164.82	15.56	-40.0	-42.0	18.9	0.00e+00	0	43	0	523239424	51	4547
2026-01-15 12:07:00.02	164.83	15.67	-40.0	-41.9	18.9	0.00e+00	0	43	0	529530880	51	4538
2026-01-15 12:07:01.01	164.84	15.78	-39.9	-41.8	19.0	0.00e+00	0	43	0	534773760	51	4485
2026-01-15 12:07:02.00	164.86	15.89	-39.9	-41.9	19.0	0.00e+00	0	43	0	540016640	51	4504
2026-01-15 12:07:02.99	164.87	16.00	-40.0	-41.9	18.9	0.00e+00	0	43	0	546308096	51	4545
2026-01-15 12:07:03.99	164.89	16.11	-39.9	-41.9	19.0	0.00e+00	0	43	0	551550976	51	4504
2026-01-15 12:07:04.98	164.90	16.22	-39.9	-41.9	19.0	0.00e+00	0	43	0	556793856	51	4522
2026-01-15 12:07:05.97	164.92	16.33	-39.9	-41.8	19.0	0.00e+00	0	43	0	563085312	51	4491
2026-01-15 12:07:06.97	164.93	16.45	-39.8	-41.8	19.0	0.00e+00	0	43	0	568328192	51	4467
2026-01-15 12:07:07.96	164.94	16.56	-39.8	-41.7	19.1	0.00e+00	0	43	0	573571072	51	4433
2026-01-15 12:07:08.95	164.96	16.67	-39.8	-41.8	19.1	0.00e+00	0	43	0	579862528	51	4447
2026-01-15 12:07:09.95	164.97	16.79	-39.7	-41.7	19.2	0.00e+00	0	43	0	585105408	51	4407
2026-01-15 12:07:10.94	164.99	16.90	-39.8	-41.8	19.1	0.00e+00	0	43	0	590348288	51	4453
2026-01-15 12:07:11.93	165.00	17.02	-39.8	-41.8	19.0	0.00e+00	0	43	0	596639744	51	4471
2026-01-15 12:07:12.92	165.02	17.13	-39.8	-41.7	19.1	0.00e+00	0	43	0	601882624	51	4431
2026-01-15 12:07:13.92	165.03	17.25	-39.8	-41.7	19.1	0.00e+00	0	43	0	607125504	51	4428
2026-01-15 12:07:14.91	165.05	17.37	-39.7	-41.7	19.2	0.00e+00	0	43	0	613416960	51	4409
2026-01-15 12:07:15.90	165.06	17.48	-39.8	-41.7	19.1	0.00e+00	0	43	0	618659840	51	4430
2026-01-15 12:07:16.90	165.08	17.60	-39.9	-41.9	19.0	0.00e+00	0	43	0	623902720	51	4500
2026-01-15 12:07:17.89	165.09	17.72	-39.8	-41.8	19.1	0.00e+00	0	43	0	630194176	51	4450
2026-01-15 12:07:18.88	165.11	17.84	-39.6	-41.5	19.3	0.00e+00	0	43	0	635437056	51	4340
2026-01-15 12:07:19.88	165.12	17.96	-39.6	-41.5	19.3	0.00e+00	0	43	0	640679936	51	4324
2026-01-15 12:07:20.87	165.14	18.08	-39.6	-41.6	19.2	0.00e+00	0	43	0	646971392	51	4353
2026-01-15 12:07:21.86	165.16	18.20	-39.6	-41.6	19.3	0.00e+00	0	43	0	652214272	51	4343
2026-01-15 12:07:22.86	165.17	18.32	-39.7	-41.6	19.2	0.00e+00	0	43	0	657457152	51	4379
2026-01-15 12:07:23.85	165.19	18.44	-39.7	-41.6	19.3	0.00e+00	0	43	0	663748608	51	4368
2026-01-15 12:07:24.84	165.20	18.57	-39.6	-41.6	19.3	0.00e+00	0	43	0	668991488	51	4344
2026-01-15 12:07:25.84	165.22	18.69	-39.5	-41.4	19.4	0.00e+00	0	43	0	674234368	51	4259
2026-01-15 12:07:26.83	165.24	18.82	-39.4	-41.2	19.6	0.00e+00	0	43	0	680525824	50	4441
2026-01-15 12:07:27.82	165.25	18.94	-39.3	-41.2	19.7	0.00e+00	0	43	0	685768704	50	4393
2026-01-15 12:07:28.81	165.27	19.06	-39.2	-41.1	19.7	0.00e+00	0	43	0	691011584	50	4383
2026-01-15 12:07:29.81	165.29	19.19	-39.2	-41.1	19.7	0.00e+00	0	44	0	696254464	50	4343
2026-01-15 12:07:30.80	165.30	19.32	-39.2	-41.0	19.8	0.00e+00	0	43	0	702545920	50	4331
2026-01-15 12:07:31.79	165.32	19.44	-39.1	-41.0	19.8	0.00e+00	0	43	0	707788800	50	4318
2026-01-15 12:07:32.78	165.34	19.57	-39.2	-41.1	19.7	0.00e+00	0	43	0	714080256	50	4341
2026-01-15 12:07:33.78	165.35	19.70	-39.1	-41.0	19.8	0.00e+00	0	43	0	719323136	50	4308
2026-01-15 12:07:34.77	165.37	19.83	-39.1	-41.0	19.8	0.00e+00	0	43	0	724566016	50	4293
2026-01-15 12:07:35.76	165.39	19.96	-39.0	-40.9	19.9	0.00e+00	0	43	0	729808896	50	4268
2026-01-15 12:07:36.76	165.41	20.09	-39.1	-40.9	19.8	0.00e+00	0	43	0	736100352	50	4282
2026-01-15 12:07:37.75	165.42	20.22	-39.0	-40.9	19.9	0.00e+00	0	43	0	741343232	50	4273
2026-01-15 12:07:38.74	165.44	20.35	-39.0	-40.9	19.9	0.00e+00	0	43	0	746586112	50	4258
2026-01-15 12:07:39.73	165.46	20.49	-39.1	-41.0	19.8	0.00e+00	0	43	0	752877568	50	4296
2026-01-15 12:07:40.73	165.48	20.62	-39.0	-40.9	19.9	0.00e+00	0	43	0	758120448	50	4275
2026-01-15 12:07:41.72	165.50	20.75	-39.0	-40.9	19.8	0.00e+00	0	43	0	764411904	50	4284
2026-01-15 12:07:42.71	165.51	20.89	-39.1	-40.9	19.8	0.00e+00	0	43	0	769654784	50	4286
2026-01-15 12:07:43.70	165.53	21.02	-38.9	-40.8	19.9	0.00e+00	0	43	0	774897664	49	4472
2026-01-15 12:07:44.70	165.55	21.16	-39.0	-40.9	19.9	0.00e+00	0	43	0	780140544	49	4494
2026-01-15 12:07:45.69	165.57	21.30	-38.9	-40.8	19.9	0.00e+00	0	43	0	786432000	49	4468
2026-01-15 12:07:46.68	165.59	21.43	-38.9	-40.7	20.0	0.00e+00	0	43	0	791674880	49	4431
2026-01-15 12:07:47.68	165.61	21.57	-38.9	-40.8	20.0	0.00e+00	0	43	0	796917760	49	4443
2026-01-15 12:07:48.67	165.63	21.71	-39.0	-40.8	12.2	0.00e+00	0	43	0	803209216	49	4493
2026-01-15 12:07:49.66	165.64	21.85	-38.9	-40.7	20.0	0.00e+00	0	43	0	808452096	49	4437
2026-01-15 12:07:50.66	165.66	21.99	-38.8	-40.7	20.0	0.00e+00	0	43	0	813694976	49	4417
2026-01-15 12:07:51.65	165.68	22.14	-38.8	-40.7	20.0	0.00e+00	0	43	0	819986432	49	4409
2026-01-15 12:07:52.64	165.70	22.28	-38.8	-40.7	20.0	0.00e+00	0	43	0	825229312	49	4412
2026-01-15 12:07:53.63	165.72	22.42	-38.6	-40.5	20.2	0.00e+00	0	43	0	830472192	49	4310
2026-01-15 12:07:54.63	165.74	22.57	-38.7	-40.5	20.2	0.00e+00	0	43	0	836763648	49	4321
2026-01-15 12:07:55.62	165.76	22.71	-38.7	-40.5	20.2	0.00e+00	0	43	0	842006528	49	4333
2026-01-15 12:07:56.61	165.78	22.85	-38.5	-40.4	20.3	0.00e+00	0	43	0	847249408	49	4253
2026-01-15 12:07:57.61	165.80	23.00	-38.5	-40.3	20.4	0.00e+00	0	43	0	853540864	49	4225
2026-01-15 12:07:58.60	165.82	23.15	-38.5	-40.3	20.4	0.00e+00	0	43	0	858783744	48	4465
2026-01-15 12:07:59.59	165.85	23.30	-38.5	-40.3	20.4	0.00e+00	0	43	0	864026624	48	4473
2026-01-15 12:08:00.58	165.87	23.45	-38.5	-40.3	20.4	0.00e+00	0	43	0	870318080	48	4492
2026-01-15 12:08:01.58	165.89	23.60	-38.4	-40.2	20.5	0.00e+00	0	43	0	875560960	48	4438
2026-01-15 12:08:02.57	165.91	23.75	-38.4	-40.3	20.4	0.00e+00	0	43	0	880803840	48	4443
2026-01-15 12:08:03.56	165.93	23.90	-38.5	-40.3	20.4	0.00e+00	0	43	0	887095296	48	4490
2026-01-15 12:08:04.55	165.95	24.05	-38.5	-40.3	20.4	0.00e+00	0	43	0	892338176	48	4473
2026-01-15 12:08:05.55	165.97	24.20	-38.4	-40.3	20.4	0.00e+00	0	43	0	897581056	48	4451
2026-01-15 12:08:06.54	166.00	24.36	-38.5	-40.4	20.3	0.00e+00	0	43	0	903872512	48	4500
2026-01-15 12:08:07.53	166.02	24.51	-38.5	-40.3	20.4	0.00e+00	0	43	0	909115392	48	4473
2026-01-15 12:08:08.52	166.04	24.67	-38.5	-40.3	20.4	0.00e+00	0	43	0	914358272	48	4484
2026-01-15 12:08:09.51	166.06	24.83	-38.5	-40.3	20.4	0.00e+00	0	43	0	919601152	48	4493
2026-01-15 12:08:10.51	166.09	24.98	-38.5	-40.3	20.4	0.00e+00	0	43	0	925892608	48	4490
2026-01-15 12:08:11.50	166.11	25.14	-38.5	-40.3	20.4	0.00e+00	0	44	0	931135488	48	4485
2026-01-15 12:08:12.49	166.13	25.30	-38.5	-40.4	20.4	0.00e+00	0	43	0	937426944	48	4496
2026-01-15 12:08:13.49	166.16	25.46	-38.6	-40.4	20.3	0.00e+00	0	43	0	942669824	48	4539
2026-01-15 12:08:14.48	166.18	25.63	-38.5	-40.4	20.3	0.00e+00	0	44	0	947912704	48	4511
2026-01-15 12:08:15.47	166.20	25.79	-38.6	-40.4	20.3	0.00e+00	0	44	0	954204160	48	4533
2026-01-15 12:08:16.47	166.23	25.95	-38.6	-40.4	20.3	0.00e+00	0	43	0	959447040	48	4512
2026-01-15 12:08:17.46	166.25	26.12	-38.5	-40.3	20.4	0.00e+00	0	43	0	964689920	48	4478
2026-01-15 12:08:18.45	166.28	26.28	-38.5	-40.3	20.3	0.00e+00	0	43	0	969932800	48	4490
2026-01-15 12:08:19.44	166.30	26.45	-38.4	-40.2	20.4	0.00e+00	0	44	0	976224256	48	4427
2026-01-15 12:08:20.44	166.32	26.62	-38.4	-40.2	20.5	0.00e+00	0	44	0	981467136	48	4409
2026-01-15 12:08:21.43	166.35	26.79	-38.4	-40.2	20.5	0.00e+00	0	43	0	987758592	48	4426
2026-01-15 12:08:22.42	166.38	26.96	-38.3	-40.2	20.5	0.00e+00	0	43	0	993001472	48	4405
2026-01-15 12:08:23.41	166.40	27.13	-38.3	-40.1	20.5	0.00e+00	0	43	0	998244352	48	4382
2026-01-15 12:08:24.41	166.43	27.30	-38.3	-40.1	20.6	0.00e+00	0	43	0	1003487232	48	4356
2026-01-15 12:08:25.40	166.45	27.47	-38.3	-40.1	20.6	0.00e+00	0	43	0	1009778688	48	4351
2026-01-15 12:08:26.39	166.48	27.65	-38.3	-40.1	20.5	0.00e+00	0	43	0	1015021568	48	4379
2026-01-15 12:08:27.39	166.51	27.82	-38.2	-40.0	20.6	0.00e+00	0	43	0	1020264448	48	4322
2026-01-15 12:08:28.38	166.53	28.00	-38.1	-39.9	20.7	0.00e+00	0	43	0	1026555904	48	4263
2026-01-15 12:08:29.37	166.56	28.18	-38.3	-40.1	20.5	0.00e+00	0	44	0	1031798784	48	4387
2026-01-15 12:08:30.37	166.59	28.36	-38.3	-40.1	20.5	0.00e+00	0	43	0	1037041664	48	4372
2026-01-15 12:08:31.36	166.61	28.54	-38.3	-40.2	20.5	0.00e+00	0	44	0	1043333120	48	4402
2026-01-15 12:08:32.35	166.64	28.72	-38.4	-40.3	20.4	0.00e+00	0	43	0	1048576000	48	4451
2026-01-15 12:08:33.34	166.67	28.90	-38.5	-40.4	20.3	0.00e+00	0	43	0	1053818880	48	4500
2026-01-15 12:08:34.34	166.70	29.08	-38.5	-40.4	20.3	0.00e+00	0	43	0	1060110336	48	4520
2026-01-15 12:08:35.33	166.73	29.27	-38.5	-40.4	20.3	0.00e+00	0	43	0	1065353216	48	4499
2026-01-15 12:08:36.32	166.76	29.45	-38.4	-40.2	20.5	0.00e+00	0	43	0	1070596096	48	4412
2026-01-15 12:08:37.31	166.79	29.64	-38.4	-40.2	20.4	0.00e+00	0	44	0	1076887552	48	4431
2026-01-15 12:08:38.31	166.82	29.83	-38.4	-40.2	20.4	0.00e+00	0	43	0	1082130432	48	4441
2026-01-15 12:08:39.30	166.85	30.02	-38.4	-40.2	20.4	0.00e+00	0	44	0	1087373312	48	4440
2026-01-15 12:08:40.29	166.88	30.21	-38.4	-40.3	20.4	0.00e+00	0	43	0	1093664768	48	4457
2026-01-15 12:08:41.29	166.91	30.40	-38.6	-40.4	20.3	0.00e+00	0	44	0	1098907648	48	4540
2026-01-15 12:08:42.28	166.94	30.59	-38.5	-40.4	20.3	0.00e+00	0	43	0	1104150528	48	4515
2026-01-15 12:08:43.27	166.97	30.79	-38.5	-40.4	20.3	0.00e+00	0	43	0	1110441984	48	4504
2026-01-15 12:08:44.27	167.00	30.99	-38.6	-40.4	20.3	0.00e+00	0	43	0	1115684864	48	4531
2026-01-15 12:08:45.26	167.03	31.18	-38.5	-40.3	20.3	0.00e+00	0	43	0	1120927744	48	4493
2026-01-15 12:08:46.25	167.07	31.38	-38.4	-40.3	20.4	0.00e+00	0	43	0	1127219200	48	4449
2026-01-15 12:08:47.24	167.10	31.58	-38.1	-39.9	20.7	0.00e+00	0	44	0	1132462080	48	4286
2026-01-15 12:08:48.24	167.13	31.78	-37.9	-39.7	20.7	0.00e+00	0	43	0	1137704960	47	4413
2026-01-15 12:08:49.23	167.17	31.99	-37.9	-39.7	20.7	0.00e+00	0	44	0	1143996416	47	4407
2026-01-15 12:08:50.22	167.20	32.19	-37.8	-39.7	20.7	0.00e+00	0	44	0	1149239296	47	4393
2026-01-15 12:08:51.22	167.23	32.40	-37.7	-39.4	20.8	0.00e+00	0	44	0	1154482176	47	4290
2026-01-15 12:08:52.21	167.27	32.60	-37.6	-39.4	20.9	0.00e+00	0	44	0	1159725056	47	4248
2026-01-15 12:08:53.20	167.30	32.81	-37.8	-39.6	20.7	0.00e+00	0	43	0	1166016512	47	4359
2026-01-15 12:08:54.20	167.34	33.02	-37.8	-39.6	20.7	0.00e+00	0	44	0	1171259392	47	4387
2026-01-15 12:08:55.19	167.37	33.23	-37.9	-39.7	20.6	0.00e+00	0	44	0	1177550848	47	4419
2026-01-15 12:08:56.18	167.41	33.44	-37.9	-39.7	20.6	0.00e+00	0	44	0	1182793728	47	4433
2026-01-15 12:08:57.17	167.45	33.66	-38.0	-39.8	20.6	0.00e+00	0	43	0	1188036608	47	4490
2026-01-15 12:08:58.17	167.49	33.88	-37.9	-39.8	20.6	0.00e+00	0	43	0	1193279488	47	4461
2026-01-15 12:08:59.16	167.52	34.09	-38.0	-39.8	20.6	0.00e+00	0	43	0	1199570944	47	4483
2026-01-15 12:09:00.15	167.56	34.31	-37.9	-39.8	20.6	0.00e+00	0	43	0	1204813824	47	4455
2026-01-15 12:09:01.15	167.60	34.53	-37.9	-39.7	20.6	0.00e+00	0	43	0	1211105280	47	4436
2026-01-15 12:09:02.14	167.64	34.75	-37.8	-39.6	20.7	0.00e+00	0	43	0	1216348160	47	4376
2026-01-15 12:09:03.13	167.68	34.98	-37.8	-39.6	20.7	0.00e+00	0	44	0	1221591040	47	4386
2026-01-15 12:09:04.12	167.72	35.20	-37.9	-39.7	20.7	0.00e+00	0	43	0	1227882496	47	4397
2026-01-15 12:09:05.12	167.76	35.43	-38.0	-39.8	20.6	0.00e+00	0	43	0	1233125376	47	4451
2026-01-15 12:09:06.11	167.80	35.66	-37.9	-39.7	20.7	0.00e+00	0	43	0	1238368256	47	4420
2026-01-15 12:09:07.10	167.84	35.89	-37.8	-39.6	20.8	0.00e+00	0	43	0	1243611136	47	4366
2026-01-15 12:09:08.10	167.88	36.12	-37.7	-39.5	20.8	0.00e+00	0	43	0	1249902592	47	4336
2026-01-15 12:09:09.09	167.93	36.35	-37.7	-39.5	20.9	0.00e+00	0	44	0	1255145472	47	4292
2026-01-15 12:09:10.08	167.97	36.59	-37.6	-39.4	21.0	0.00e+00	0	44	0	1261436928	47	4266
2026-01-15 12:09:11.07	168.01	36.82	-37.5	-39.2	21.1	0.00e+00	0	44	0	1266679808	46	4434
2026-01-15 12:09:12.07	168.06	37.06	-37.5	-39.3	21.0	0.00e+00	0	43	0	1271922688	46	4469
2026-01-15 12:09:13.06	168.10	37.30	-37.5	-39.3	21.1	0.00e+00	0	43	0	1277165568	46	4463
2026-01-15 12:09:14.05	168.15	37.54	-37.6	-39.4	21.0	0.00e+00	0	44	0	1283457024	46	4526
2026-01-15 12:09:15.05	168.20	37.79	-37.7	-39.5	20.9	0.00e+00	0	43	0	1288699904	46	4559
2026-01-15 12:09:16.04	168.24	38.03	-37.7	-39.5	20.8	0.00e+00	0	43	0	1293942784	46	4585
2026-01-15 12:09:17.03	168.29	38.28	-37.7	-39.5	20.8	0.00e+00	0	44	0	1300234240	46	4578
2026-01-15 12:09:18.02	168.34	38.53	-37.6	-39.4	20.9	0.00e+00	0	44	0	1305477120	46	4538
2026-01-15 12:09:19.02	168.39	38.78	-37.6	-39.4	20.9	0.00e+00	0	44	0	1311768576	46	4530
2026-01-15 12:09:20.01	168.44	39.03	-37.6	-39.4	21.0	0.00e+00	0	43	0	1317011456	46	4506
2026-01-15 12:09:21.00	168.49	39.28	-37.6	-39.3	21.0	0.00e+00	0	44	0	1322254336	46	4487
2026-01-15 12:09:22.00	168.54	39.54	-37.5	-39.3	21.1	0.00e+00	0	44	0	1327497216	46	4448
2026-01-15 12:09:22.99	168.59	39.80	-37.8	-39.6	20.8	0.00e+00	0	44	0	1333788672	46	4635
2026-01-15 12:09:23.98	168.64	40.06	-38.0	-39.8	20.6	0.00e+00	0	44	0	1339031552	46	4738
2026-01-15 12:09:24.97	168.70	40.32	-38.0	-39.9	20.6	0.00e+00	0	43	0	1344274432	46	4763
2026-01-15 12:09:25.97	168.75	40.58	-38.1	-40.0	20.5	0.00e+00	0	43	0	1350565888	46	4825
2026-01-15 12:09:26.96	168.81	40.85	-38.2	-40.1	20.4	0.00e+00	0	43	0	1355808768	47	4608
2026-01-15 12:09:27.95	168.86	41.12	-38.3	-40.2	20.3	0.00e+00	0	43	0	1361051648	47	4677
2026-01-15 12:09:28.94	168.92	41.38	-38.3	-40.1	20.4	0.00e+00	0	44	0	1367343104	47	4633
2026-01-15 12:09:29.94	168.98	41.66	-38.1	-40.0	20.5	0.00e+00	0	44	0	1372585984	47	4553
2026-01-15 12:09:30.93	169.04	41.93	-38.0	-39.8	20.6	0.00e+00	0	43	0	1377828864	47	4482
2026-01-15 12:09:31.92	169.10	42.21	-38.1	-39.9	20.6	0.00e+00	0	43	0	1384120320	47	4523
2026-01-15 12:09:32.91	169.16	42.48	-38.1	-39.9	20.6	0.00e+00	0	44	0	1389363200	47	4509
2026-01-15 12:09:33.91	169.22	42.76	-38.0	-39.8	20.7	0.00e+00	0	44	0	1394606080	47	4474
2026-01-15 12:09:34.90	169.28	43.04	-38.0	-39.8	20.7	0.00e+00	0	43	0	1400897536	47	4465
2026-01-15 12:09:35.89	169.35	43.33	-38.0	-39.7	20.7	0.00e+00	0	44	0	1406140416	47	4438
2026-01-15 12:09:36.88	169.41	43.61	-38.1	-39.9	20.6	0.00e+00	0	44	0	1411383296	47	4525
2026-01-15 12:09:37.88	169.48	43.90	-38.1	-39.9	20.6	0.00e+00	0	44	0	1417674752	47	4540
2026-01-15 12:09:38.87	169.54	44.19	-38.3	-40.1	20.5	0.00e+00	0	43	0	1422917632	47	4607
2026-01-15 12:09:39.86	169.61	44.48	-38.3	-40.1	20.4	0.00e+00	0	44	0	1428160512	47	4628
2026-01-15 12:09:40.86	169.68	44.78	-38.5	-40.3	20.2	0.00e+00	0	43	0	1433403392	47	4738
2026-01-15 12:09:41.85	169.75	45.08	-38.5	-40.3	20.2	0.00e+00	0	44	0	1439694848	47	4755
2026-01-15 12:09:42.84	169.82	45.37	-38.2	-40.1	20.5	0.00e+00	0	44	0	1444937728	47	4614
2026-01-15 12:09:43.84	169.90	45.68	-38.2	-40.0	20.5	0.00e+00	0	43	0	1451229184	47	4595
2026-01-15 12:09:44.83	169.97	45.98	-38.3	-40.1	20.4	0.00e+00	0	44	0	1456472064	47	4643
2026-01-15 12:09:45.82	170.05	46.28	-38.3	-40.1	20.4	0.00e+00	0	44	0	1461714944	47	4626
2026-01-15 12:09:46.82	170.13	46.59	-38.4	-40.2	20.3	0.00e+00	0	44	0	1466957824	47	4700
2026-01-15 12:09:47.81	170.21	46.90	-38.4	-40.3	20.3	0.00e+00	0	44	0	1473249280	47	4717
2026-01-15 12:09:48.80	170.29	47.21	-38.6	-40.4	20.2	0.00e+00	0	43	0	1478492160	47	4806
2026-01-15 12:09:49.79	170.37	47.53	-38.5	-40.3	20.3	0.00e+00	0	43	0	1483735040	47	4756
2026-01-15 12:09:50.79	170.45	47.84	-38.3	-40.1	20.5	0.00e+00	0	44	0	1490026496	47	4619
2026-01-15 12:09:51.78	170.54	48.16	-38.2	-40.0	20.6	0.00e+00	0	44	0	1495269376	47	4558
2026-01-15 12:09:52.77	170.62	48.48	-38.1	-39.9	20.6	0.00e+00	0	44	0	1501560832	47	4533
2026-01-15 12:09:53.77	170.71	48.81	-37.9	-39.7	20.9	0.00e+00	0	43	0	1506803712	47	4404
2026-01-15 12:09:54.76	170.80	49.13	-37.9	-39.6	20.9	0.00e+00	0	44	0	1512046592	47	4386
2026-01-15 12:09:55.75	170.90	49.46	-38.0	-39.7	20.8	0.00e+00	0	44	0	1517289472	47	4427
2026-01-15 12:09:56.74	170.99	49.79	-38.3	-40.1	20.5	0.00e+00	0	44	0	1523580928	47	4640
2026-01-15 12:09:57.74	171.09	50.13	-38.6	-40.5	20.2	0.00e+00	0	44	0	1528823808	47	4829
2026-01-15 12:09:58.73	171.19	50.46	-38.8	-40.6	20.3	0.00e+00	0	44	0	1534066688	48	4611
2026-01-15 12:09:59.72	171.29	50.80	-38.6	-40.3	20.6	0.00e+00	0	44	0	1540358144	48	4483
2026-01-15 12:10:00.72	171.39	51.14	-38.4	-40.2	20.7	0.00e+00	0	44	0	1545601024	48	4405
2026-01-15 12:10:01.71	171.50	51.48	-38.7	-40.5	20.4	0.00e+00	0	43	0	1550843904	48	4575
2026-01-15 12:10:02.70	171.60	51.82	-39.0	-40.9	20.1	0.00e+00	0	43	0	1557135360	48	4765
2026-01-15 12:10:03.69	171.71	52.17	-39.1	-40.9	20.0	0.00e+00	0	43	0	1562378240	49	4539
2026-01-15 12:10:04.69	171.83	52.52	-38.8	-40.5	20.3	0.00e+00	0	44	0	1567621120	49	4340
2026-01-15 12:10:05.68	171.94	52.87	-38.8	-40.6	20.3	0.00e+00	0	43	0	1573912576	49	4351
2026-01-15 12:10:06.67	172.06	53.23	-39.0	-40.8	20.1	0.00e+00	0	44	0	1579155456	49	4465
2026-01-15 12:10:07.67	172.18	53.58	-39.4	-41.2	19.7	0.00e+00	0	44	0	1584398336	49	4689
2026-01-15 12:10:08.66	172.30	53.94	-39.7	-41.6	19.4	0.00e+00	0	43	0	1590689792	50	4650
2026-01-15 12:10:09.65	172.43	54.30	-39.8	-41.7	19.3	0.00e+00	0	43	0	1595932672	50	4692
2026-01-15 12:10:10.64	172.56	54.67	-39.9	-41.8	19.2	0.00e+00	0	44	0	1601175552	50	4755
2026-01-15 12:10:11.64	172.69	55.03	-39.8	-41.8	19.3	0.00e+00	0	44	0	1607467008	50	4708
2026-01-15 12:10:12.63	172.83	55.40	-39.6	-41.5	19.5	0.00e+00	0	44	0	1612709888	50	4581
2026-01-15 12:10:13.62	172.97	55.77	-39.4	-41.3	19.7	0.00e+00	0	43	0	1617952768	50	4459
2026-01-15 12:10:14.62	173.11	56.15	-39.3	-41.2	19.8	0.00e+00	0	44	0	1624244224	50	4404
2026-01-15 12:10:15.61	173.26	56.52	-39.4	-41.3	19.7	0.00e+00	0	43	0	1629487104	50	4452
2026-01-15 12:10:16.60	173.41	56.90	-39.4	-41.3	19.7	0.00e+00	0	43	0	1634729984	50	4447
2026-01-15 12:10:17.59	173.57	57.28	-39.4	-41.3	19.7	0.00e+00	0	43	0	1641021440	50	4484
2026-01-15 12:10:18.59	173.73	57.66	-39.0	-40.8	20.1	0.00e+00	0	44	0	1646264320	50	4229
2026-01-15 12:10:19.58	173.89	58.05	-38.5	-40.3	20.5	0.00e+00	0	43	0	1651507200	49	4205
2026-01-15 12:10:20.57	174.06	58.43	-38.5	-40.3	20.5	0.00e+00	0	44	0	1657798656	49	4227
2026-01-15 12:10:21.56	174.24	58.82	-38.6	-40.3	20.5	0.00e+00	0	43	0	1663041536	49	4241
2026-01-15 12:10:22.56	174.42	59.22	-38.5	-40.3	20.6	0.00e+00	0	44	0	1668284416	48	4447
2026-01-15 12:10:23.55	174.60	59.61	-38.3	-40.1	20.8	0.00e+00	0	43	0	1674575872	48	4347
2026-01-15 12:10:24.54	174.79	60.01	-38.5	-40.3	20.6	0.00e+00	0	43	0	1679818752	48	4448
2026-01-15 12:10:25.54	174.99	60.41	-38.6	-40.5	20.5	0.00e+00	0	44	0	1685061632	48	4552
2026-01-15 12:10:26.53	175.19	60.81	-38.2	-40.0	20.9	0.00e+00	0	44	0	1691353088	48	4298
2026-01-15 12:10:27.52	175.40	61.21	-37.7	-39.5	21.1	0.00e+00	0	44	0	1696595968	47	4306
2026-01-15 12:10:28.52	175.61	61.62	-37.7	-39.4	21.1	0.00e+00	0	43	0	1701838848	47	4274
2026-01-15 12:10:29.51	175.84	62.02	-37.9	-39.7	20.9	0.00e+00	0	44	0	1707081728	47	4430
2026-01-15 12:10:30.50	176.07	62.43	-37.8	-39.5	21.0	0.00e+00	0	44	0	1713373184	47	4327
2026-01-15 12:10:31.49	176.30	62.84	-37.3	-39.0	21.4	0.00e+00	0	43	0	1718616064	46	4311
2026-01-15 12:10:32.48	176.55	63.26	-37.4	-39.1	21.3	0.00e+00	0	43	0	1724907520	46	4376
2026-01-15 12:10:33.48	176.80	63.67	-37.3	-39.1	21.3	0.00e+00	0	43	0	1730150400	46	4348
2026-01-15 12:10:34.47	177.07	64.09	-37.3	-39.0	21.3	0.00e+00	0	43	0	1735393280	46	4340
2026-01-15 12:10:35.46	177.34	64.51	-37.2	-39.0	21.4	0.00e+00	0	43	0	1740636160	46	4325
2026-01-15 12:10:36.46	177.63	64.93	-37.3	-39.0	21.4	0.00e+00	0	44	0	1746927616	46	4322
2026-01-15 12:10:37.45	177.92	65.35	-37.4	-39.2	21.2	0.00e+00	0	44	0	1752170496	46	4406
2026-01-15 12:10:38.44	178.22	65.78	-37.7	-39.5	20.9	0.00e+00	0	43	0	1757413376	46	4582
2026-01-15 12:10:39.43	178.54	66.20	-37.7	-39.5	21.0	0.00e+00	0	43	0	1763704832	46	4547
2026-01-15 12:10:40.43	178.87	66.63	-37.6	-39.4	21.0	0.00e+00	0	43	0	1768947712	46	4504
2026-01-15 12:10:41.42	179.21	67.06	-37.8	-39.6	20.9	0.00e+00	0	44	0	1775239168	46	4610
2026-01-15 12:10:42.41	179.57	67.49	-37.3	-39.1	21.2	0.00e+00	0	44	0	1780482048	46	4360
2026-01-15 12:10:43.40	179.94	67.92	-36.9	-38.6	21.6	0.00e+00	0	44	0	1785724928	45	4351
2026-01-15 12:10:44.40	180.33	68.36	-37.1	-38.8	21.5	0.00e+00	0	44	0	1790967808	45	4463
2026-01-15 12:10:45.39	180.74	68.79	-37.4	-39.2	21.1	0.00e+00	0	44	0	1797259264	45	4688
2026-01-15 12:10:46.38	181.16	69.23	-37.1	-38.8	21.4	0.00e+00	0	44	0	1802502144	45	4487
2026-01-15 12:10:47.38	181.61	69.67	-36.8	-38.6	21.6	0.00e+00	0	44	0	1807745024	45	4352
2026-01-15 12:10:48.37	182.07	70.10	-36.9	-38.7	21.6	0.00e+00	0	44	0	1814036480	45	4404
2026-01-15 12:10:49.36	182.56	70.54	-36.9	-38.7	21.5	0.00e+00	0	44	0	1819279360	45	4401
2026-01-15 12:10:50.35	183.06	70.98	-37.1	-38.9	21.4	0.00e+00	0	43	0	1824522240	45	4500
2026-01-15 12:10:51.35	183.60	71.42	-37.2	-38.9	21.3	0.00e+00	0	44	0	1830813696	45	4538
2026-01-15 12:10:52.34	184.17	71.86	-36.9	-38.6	21.6	0.00e+00	0	44	0	1836056576	45	4381
2026-01-15 12:10:53.33	184.76	72.30	-36.8	-38.5	21.7	0.00e+00	0	44	0	1841299456	45	4306
2026-01-15 12:10:54.32	185.38	72.73	-36.6	-38.3	21.8	0.00e+00	0	44	0	1847590912	45	4225
2026-01-15 12:10:55.32	186.04	73.18	-36.5	-38.2	21.9	0.00e+00	0	44	0	1852833792	45	4186
2026-01-15 12:10:56.31	186.73	73.61	-36.4	-38.1	22.0	0.00e+00	0	44	0	1858076672	44	4346
2026-01-15 12:10:57.30	187.47	74.05	-36.4	-38.1	22.0	0.00e+00	0	43	0	1864368128	44	4365
2026-01-15 12:10:58.29	188.24	74.49	-36.3	-38.0	22.1	0.00e+00	0	44	0	1869611008	44	4298
2026-01-15 12:10:59.29	189.07	74.92	-36.2	-37.9	22.1	0.00e+00	0	43	0	1874853888	44	4284
2026-01-15 12:11:00.28	189.94	75.36	-36.2	-37.9	22.1	0.00e+00	0	44	0	1881145344	44	4268
2026-01-15 12:11:01.27	190.87	75.79	-36.0	-37.7	22.3	0.00e+00	0	44	0	1886388224	44	4180
2026-01-15 12:11:02.27	191.87	76.22	-36.1	-37.8	22.2	0.00e+00	0	44	0	1891631104	44	4201
2026-01-15 12:11:03.26	192.92	76.64	-35.6	-37.3	22.4	0.00e+00	0	44	0	1897922560	43	4220
2026-01-15 12:11:04.25	194.04	77.06	-35.7	-37.4	22.4	0.00e+00	0	43	0	1903165440	43	4269
2026-01-15 12:11:05.25	195.26	77.49	-35.8	-37.5	22.3	0.00e+00	0	43	0	1908408320	43	4333
2026-01-15 12:11:06.24	196.54	77.90	-35.5	-37.2	22.5	0.00e+00	0	44	0	1914699776	43	4155
2026-01-15 12:11:07.23	197.92	78.31	-35.2	-36.8	22.8	0.00e+00	0	44	0	1919942656	42	4242
2026-01-15 12:11:08.23	199.41	78.71	-35.1	-36.7	22.9	0.00e+00	0	43	0	1925185536	42	4177
2026-01-15 12:11:09.22	201.00	79.11	-35.2	-36.9	22.7	0.00e+00	0	44	0	1931476992	42	4273
2026-01-15 12:11:10.21	202.71	79.49	-35.3	-37.0	22.7	0.00e+00	0	44	0	1936719872	42	4302
2026-01-15 12:11:11.20	204.55	79.87	-35.1	-36.7	22.8	0.00e+00	0	43	0	1941962752	42	4193
2026-01-15 12:11:12.20	206.56	80.24	-35.1	-36.8	22.8	0.00e+00	0	44	0	1948254208	42	4199
2026-01-15 12:11:13.19	208.70	80.60	-35.0	-36.7	22.9	0.00e+00	0	44	0	1953497088	42	4154
2026-01-15 12:11:14.18	211.00	80.94	-35.3	-36.9	22.7	0.00e+00	0	44	0	1958739968	42	4290
2026-01-15 12:11:15.17	213.49	81.26	-35.4	-37.1	22.6	0.00e+00	0	44	0	1965031424	42	4349
2026-01-15 12:11:16.17	216.19	81.58	-35.2	-36.9	22.7	0.00e+00	0	44	0	1970274304	42	4248
2026-01-15 12:11:17.16	219.07	81.87	-35.0	-36.6	22.9	0.00e+00	0	44	0	1975517184	42	4127
2026-01-15 12:11:18.15	222.16	82.14	-34.9	-36.6	22.9	0.00e+00	0	44	0	1980760064	41	4353
2026-01-15 12:11:19.15	225.48	82.38	-34.9	-36.6	22.9	0.00e+00	0	44	0	1987051520	41	4362
2026-01-15 12:11:20.14	228.99	82.60	-34.9	-36.5	22.9	0.00e+00	0	44	0	1992294400	41	4327
2026-01-15 12:11:21.13	232.69	82.79	-35.1	-36.7	22.8	0.00e+00	0	43	0	1998585856	41	4439
2026-01-15 12:11:22.12	236.59	82.95	-35.3	-37.0	22.7	0.00e+00	0	44	0	2003828736	41	4557
2026-01-15 12:11:23.12	240.68	83.08	-35.4	-37.1	22.5	0.00e+00	0	44	0	2009071616	41	4627
2026-01-15 12:11:24.11	244.86	83.17	-35.3	-37.0	22.6	0.00e+00	0	43	0	2014314496	41	4589
2026-01-15 12:11:25.10	249.13	83.22	-35.2	-36.9	22.6	0.00e+00	0	44	0	2020605952	41	4526
2026-01-15 12:11:26.10	253.48	83.23	-35.2	-36.9	22.7	0.00e+00	0	44	0	2025848832	41	4540
2026-01-15 12:11:27.09	257.79	83.21	-35.3	-37.0	22.6	0.00e+00	0	43	0	2031091712	41	4575
2026-01-15 12:11:28.08	262.04	83.15	-35.3	-37.0	22.6	0.00e+00	0	44	0	2037383168	41	4564
2026-01-15 12:11:29.07	266.19	83.05	-35.3	-37.0	22.6	0.00e+00	0	43	0	2042626048	41	4561
2026-01-15 12:11:30.07	270.24	82.92	-34.9	-36.6	22.9	0.00e+00	0	44	0	2048917504	41	4343
2026-01-15 12:11:31.06	274.09	82.75	-34.9	-36.5	23.0	0.00e+00	0	43	0	2054160384	41	4328
2026-01-15 12:11:32.05	277.75	82.55	-35.1	-36.8	22.8	0.00e+00	0	44	0	2059403264	41	4486
2026-01-15 12:11:33.05	281.24	82.32	-35.2	-36.9	22.7	0.00e+00	0	44	0	2064646144	41	4526
2026-01-15 12:11:34.04	284.48	82.07	-35.0	-36.7	22.8	0.00e+00	0	44	0	2070937600	41	4423
2026-01-15 12:11:35.03	287.51	81.80	-35.1	-36.7	22.8	0.00e+00	0	44	0	2076180480	41	4441
2026-01-15 12:11:36.03	290.37	81.50	-34.9	-36.6	22.9	0.00e+00	0	43	0	2081423360	41	4341
2026-01-15 12:11:37.02	293.00	81.19	-35.1	-36.8	22.8	0.00e+00	0	44	0	2087714816	41	4443
2026-01-15 12:11:38.01	295.44	80.86	-35.0	-36.7	22.9	0.00e+00	0	44	0	2092957696	41	4406
2026-01-15 12:11:39.01	297.73	80.51	-35.0	-36.6	22.9	0.00e+00	0	44	0	2098200576	41	4386
2026-01-15 12:11:40.00	299.82	80.15	-35.2	-36.9	22.7	0.00e+00	0	44	0	2104492032	41	4519
2026-01-15 12:11:40.99	301.77	79.78	-35.1	-36.8	22.8	0.00e+00	0	43	0	2109734912	41	4474
2026-01-15 12:11:41.98	303.58	79.40	-35.0	-36.7	22.8	0.00e+00	0	44	0	2114977792	41	4420
2026-01-15 12:11:42.98	305.28	79.01	-35.4	-37.1	22.5	0.00e+00	0	44	0	2121269248	41	4637
2026-01-15 12:11:43.97	306.84	78.62	-35.7	-37.5	22.3	0.00e+00	0	43	0	2126512128	42	4551
2026-01-15 12:11:44.96	308.29	78.21	-35.8	-37.5	22.3	0.00e+00	0	44	0	2131755008	42	4561
2026-01-15 12:11:45.95	309.64	77.81	-35.8	-37.5	22.2	0.00e+00	0	44	0	2138046464	42	4582
2026-01-15 12:11:46.95	310.92	77.39	-36.0	-37.7	22.1	0.00e+00	0	44	0	2143289344	42	4701
2026-01-15 12:11:47.94	312.10	76.97	-35.8	-37.5	22.3	0.00e+00	0	44	0	2148532224	42	4571
2026-01-15 12:11:48.93	313.21	76.55	-35.7	-37.4	22.4	0.00e+00	0	43	0	2154823680	42	4521
2026-01-15 12:11:49.93	314.25	76.12	-36.0	-37.7	22.2	0.00e+00	0	43	0	2160066560	42	4682
2026-01-15 12:11:50.92	315.22	75.69	-36.0	-37.8	22.1	0.00e+00	0	44	0	2165309440	42	4713
2026-01-15 12:11:51.91	316.14	75.26	-36.1	-37.8	22.1	0.00e+00	0	44	0	2170552320	42	4729
2026-01-15 12:11:52.91	317.01	74.82	-36.3	-38.0	21.9	0.00e+00	0	44	0	2176843776	43	4573
2026-01-15 12:11:53.90	317.82	74.39	-36.5	-38.2	21.8	0.00e+00	0	44	0	2182086656	43	4704
2026-01-15 12:11:54.89	318.58	73.96	-36.3	-38.1	21.9	0.00e+00	0	44	0	2188378112	43	4600
2026-01-15 12:11:55.89	319.31	73.52	-36.6	-38.3	21.7	0.00e+00	0	44	0	2193620992	43	4736
2026-01-15 12:11:56.88	319.99	73.08	-36.9	-38.6	21.6	0.00e+00	0	43	0	2198863872	44	4643
2026-01-15 12:11:57.87	320.64	72.64	-36.6	-38.3	21.8	0.00e+00	0	44	0	2205155328	44	4485
2026-01-15 12:11:58.87	321.26	72.20	-36.5	-38.2	21.9	0.00e+00	0	44	0	2210398208	44	4411
2026-01-15 12:11:59.86	321.85	71.76	-36.7	-38.4	21.8	0.00e+00	0	44	0	2215641088	44	4510
2026-01-15 12:12:00.85	322.40	71.33	-36.6	-38.4	21.8	0.00e+00	0	44	0	2220883968	44	4513
2026-01-15 12:12:01.85	322.93	70.88	-36.7	-38.4	21.8	0.00e+00	0	43	0	2227175424	44	4542
2026-01-15 12:12:02.84	323.43	70.45	-36.6	-38.3	21.8	0.00e+00	0	44	0	2232418304	44	4481
2026-01-15 12:12:03.83	323.91	70.01	-36.9	-38.7	21.6	0.00e+00	0	44	0	2238709760	44	4670
2026-01-15 12:12:04.82	324.37	69.58	-36.9	-38.6	21.6	0.00e+00	0	44	0	2243952640	44	4635
2026-01-15 12:12:05.82	324.81	69.14	-36.9	-38.7	21.6	0.00e+00	0	44	0	2249195520	44	4659
2026-01-15 12:12:06.81	325.23	68.71	-37.2	-39.0	21.4	0.00e+00	0	43	0	2254438400	44	4815
2026-01-15 12:12:07.80	325.63	68.27	-37.1	-38.9	21.5	0.00e+00	0	44	0	2260729856	45	4494
2026-01-15 12:12:08.80	326.02	67.84	-37.0	-38.7	21.6	0.00e+00	0	44	0	2265972736	45	4425
2026-01-15 12:12:09.79	326.39	67.41	-37.1	-38.9	21.5	0.00e+00	0	44	0	2272264192	45	4505
2026-01-15 12:12:10.78	326.74	66.98	-37.2	-38.9	21.4	0.00e+00	0	44	0	2277507072	45	4541
2026-01-15 12:12:11.77	327.08	66.55	-37.3	-39.0	21.3	0.00e+00	0	44	0	2282749952	45	4580
2026-01-15 12:12:12.77	327.41	66.12	-37.1	-38.8	21.5	0.00e+00	0	44	0	2289041408	45	4483
2026-01-15 12:12:13.76	327.72	65.70	-36.9	-38.6	21.6	0.00e+00	0	44	0	2294284288	45	4388
2026-01-15 12:12:14.75	328.02	65.28	-37.2	-39.0	21.4	0.00e+00	0	44	0	2299527168	45	4548
2026-01-15 12:12:15.75	328.32	64.85	-37.3	-39.1	21.3	0.00e+00	0	44	0	2304770048	45	4625
2026-01-15 12:12:16.74	328.60	64.44	-37.5	-39.3	21.1	0.00e+00	0	44	0	2311061504	45	4709
2026-01-15 12:12:17.73	328.87	64.02	-37.4	-39.2	21.2	0.00e+00	0	44	0	2316304384	45	4677
2026-01-15 12:12:18.73	329.13	63.60	-37.5	-39.2	21.2	0.00e+00	0	44	0	2322595840	45	4699
2026-01-15 12:12:19.72	329.38	63.19	-37.7	-39.4	21.1	0.00e+00	0	43	0	2327838720	45	4801
2026-01-15 12:12:20.71	329.63	62.78	-37.9	-39.7	20.8	0.00e+00	0	44	0	2333081600	46	4689
2026-01-15 12:12:21.71	329.86	62.36	-37.8	-39.7	20.9	0.00e+00	0	44	0	2338324480	46	4656
2026-01-15 12:12:22.70	330.09	61.96	-37.6	-39.4	21.1	0.00e+00	0	43	0	2344615936	46	4510
2026-01-15 12:12:23.69	330.31	61.55	-37.6	-39.4	21.1	0.00e+00	0	44	0	2349858816	46	4515
2026-01-15 12:12:24.68	330.52	61.15	-37.6	-39.4	21.1	0.00e+00	0	44	0	2355101696	46	4510
2026-01-15 12:12:25.68	330.73	60.74	-37.7	-39.5	21.0	0.00e+00	0	44	0	2361393152	46	4548
2026-01-15 12:12:26.67	330.93	60.35	-37.7	-39.4	21.0	0.00e+00	0	44	0	2366636032	46	4543
2026-01-15 12:12:27.66	331.13	59.95	-37.6	-39.4	21.1	0.00e+00	0	44	0	2371878912	46	4517
2026-01-15 12:12:28.66	331.32	59.55	-37.8	-39.5	21.0	0.00e+00	0	44	0	2378170368	46	4592
2026-01-15 12:12:29.65	331.50	59.16	-38.0	-39.8	20.8	0.00e+00	0	43	0	2383413248	46	4706
2026-01-15 12:12:30.64	331.68	58.77	-38.2	-40.0	20.6	0.00e+00	0	44	0	2388656128	46	4825
2026-01-15 12:12:31.64	331.85	58.38	-38.4	-40.3	20.4	0.00e+00	0	44	0	2394947584	47	4712
2026-01-15 12:12:32.63	332.02	58.00	-38.5	-40.4	20.3	0.00e+00	0	43	0	2400190464	47	4789
2026-01-15 12:12:33.62	332.18	57.61	-38.5	-40.3	20.3	0.00e+00	0	44	0	2405433344	47	4749
2026-01-15 12:12:34.61	332.34	57.23	-38.4	-40.2	20.4	0.00e+00	0	44	0	2411724800	47	4692
2026-01-15 12:12:35.61	332.50	56.85	-38.5	-40.3	20.3	0.00e+00	0	44	0	2416967680	47	4718
2026-01-15 12:12:36.60	332.65	56.48	-38.6	-40.4	20.3	0.00e+00	0	43	0	2422210560	47	4765
2026-01-15 12:12:37.59	332.79	56.11	-38.9	-40.8	20.2	0.00e+00	0	44	0	2428502016	48	4727
2026-01-15 12:12:38.59	332.94	55.73	-39.1	-41.0	20.0	0.00e+00	0	44	0	2433744896	48	4865
2026-01-15 12:12:39.58	333.08	55.36	-39.0	-40.9	20.1	0.00e+00	0	44	0	2438987776	48	4785
2026-01-15 12:12:40.57	333.21	55.00	-39.0	-40.9	20.1	0.00e+00	0	44	0	2445279232	48	4760
2026-01-15 12:12:41.57	333.35	54.63	-38.8	-40.6	20.3	0.00e+00	0	44	0	2450522112	48	4636
2026-01-15 12:12:42.56	333.48	54.27	-38.9	-40.6	20.5	0.00e+00	0	44	0	2455764992	48	4627
2026-01-15 12:12:43.55	333.60	53.91	-39.0	-40.8	20.4	0.00e+00	0	43	0	2462056448	48	4731
2026-01-15 12:12:44.54	333.72	53.55	-38.9	-40.7	20.5	0.00e+00	0	44	0	2467299328	48	4661
2026-01-15 12:12:45.54	333.85	53.20	-38.9	-40.6	20.5	0.00e+00	0	44	0	2472542208	48	4649
2026-01-15 12:12:46.53	333.96	52.85	-39.0	-40.7	20.5	0.00e+00	0	44	0	2478833664	48	4688
2026-01-15 12:12:47.52	334.08	52.50	-39.0	-40.8	20.4	0.00e+00	0	44	0	2484076544	48	4718
2026-01-15 12:12:48.52	334.19	52.15	-39.2	-41.0	20.2	0.00e+00	0	44	0	2489319424	48	4818
2026-01-15 12:12:49.51	334.30	51.80	-39.1	-40.9	20.3	0.00e+00	0	44	0	2494562304	49	4503
2026-01-15 12:12:50.50	334.41	51.46	-38.9	-40.7	20.4	0.00e+00	0	44	0	2500853760	49	4441
2026-01-15 12:12:51.50	334.51	51.12	-38.7	-40.4	20.7	0.00e+00	0	44	0	2506096640	49	4286
2026-01-15 12:12:52.49	334.61	50.78	-38.6	-40.3	20.8	0.00e+00	0	44	0	2512388096	49	4211
2026-01-15 12:12:53.48	334.71	50.44	-38.5	-40.2	20.8	0.00e+00	0	44	0	2517630976	49	4175
2026-01-15 12:12:54.47	334.81	50.11	-38.5	-40.2	20.9	0.00e+00	0	43	0	2522873856	48	4423
2026-01-15 12:12:55.47	334.91	49.78	-38.3	-40.1	21.0	0.00e+00	0	44	0	2529165312	48	4365
2026-01-15 12:12:56.46	335.00	49.45	-38.3	-40.0	21.0	0.00e+00	0	44	0	2534408192	48	4321
2026-01-15 12:12:57.45	335.10	49.13	-38.2	-39.9	21.1	0.00e+00	0	44	0	2539651072	48	4281
2026-01-15 12:12:58.45	335.19	48.80	-38.2	-40.0	21.1	0.00e+00	0	44	0	2544893952	48	4295
2026-01-15 12:12:59.44	335.28	48.48	-38.1	-39.8	21.2	0.00e+00	0	44	0	2551185408	48	4238
2026-01-15 12:13:00.43	335.36	48.16	-37.9	-39.6	21.2	0.00e+00	0	44	0	2556428288	47	4356
2026-01-15 12:13:01.42	335.45	47.84	-37.9	-39.6	21.1	0.00e+00	0	44	0	2562719744	47	4384
2026-01-15 12:13:02.42	335.53	47.53	-37.9	-39.6	21.1	0.00e+00	0	43	0	2567962624	47	4374
2026-01-15 12:13:03.41	335.61	47.21	-37.9	-39.6	21.1	0.00e+00	0	43	0	2573205504	47	4380
2026-01-15 12:13:04.40	335.69	46.90	-37.9	-39.6	21.2	0.00e+00	0	44	0	2578448384	47	4354
2026-01-15 12:13:05.40	335.77	46.59	-38.0	-39.8	21.0	0.00e+00	0	44	0	2584739840	47	4452
2026-01-15 12:13:06.39	335.85	46.29	-37.9	-39.6	21.1	0.00e+00	0	44	0	2589982720	47	4376
2026-01-15 12:13:07.38	335.93	45.99	-37.9	-39.6	21.2	0.00e+00	0	43	0	2595225600	47	4370
2026-01-15 12:13:08.38	336.00	45.68	-37.9	-39.6	21.1	0.00e+00	0	44	0	2601517056	47	4391
2026-01-15 12:13:09.37	336.07	45.38	-37.8	-39.5	21.2	0.00e+00	0	44	0	2606759936	47	4327
2026-01-15 12:13:10.36	336.15	45.09	-37.8	-39.5	21.2	0.00e+00	0	43	0	2612002816	47	4324
2026-01-15 12:13:11.35	336.22	44.79	-37.7	-39.4	21.3	0.00e+00	0	44	0	2618294272	47	4268
2026-01-15 12:13:12.35	336.29	44.50	-37.6	-39.3	21.4	0.00e+00	0	44	0	2623537152	47	4210
2026-01-15 12:13:13.34	336.35	44.21	-37.7	-39.4	21.4	0.00e+00	0	44	0	2628780032	47	4243
2026-01-15 12:13:14.33	336.42	43.92	-37.7	-39.4	21.3	0.00e+00	0	44	0	2635071488	47	4259
2026-01-15 12:13:15.33	336.49	43.63	-37.6	-39.3	21.3	0.00e+00	0	44	0	2640314368	47	4241
2026-01-15 12:13:16.32	336.55	43.35	-37.6	-39.3	21.4	0.00e+00	0	44	0	2646605824	47	4207
2026-01-15 12:13:17.31	336.62	43.07	-37.6	-39.4	21.4	0.00e+00	0	44	0	2651848704	47	4244
2026-01-15 12:13:18.30	336.68	42.79	-37.6	-39.4	21.3	0.00e+00	0	44	0	2657091584	47	4256
2026-01-15 12:13:19.30	336.74	42.51	-37.7	-39.5	21.2	0.00e+00	0	44	0	2662334464	47	4307
2026-01-15 12:13:20.29	336.80	42.23	-37.7	-39.5	21.2	0.00e+00	0	44	0	2668625920	47	4309
2026-01-15 12:13:21.29	336.86	41.96	-37.7	-39.4	21.3	0.00e+00	0	44	0	2673868800	47	4281
2026-01-15 12:13:22.28	336.92	41.69	-37.7	-39.4	21.3	0.00e+00	0	44	0	2679111680	47	4289
2026-01-15 12:13:23.27	336.98	41.42	-37.6	-39.4	21.3	0.00e+00	0	44	0	2685403136	47	4243
2026-01-15 12:13:24.26	337.04	41.15	-37.5	-39.2	21.5	0.00e+00	0	44	0	2690646016	47	4174
2026-01-15 12:13:25.26	337.09	40.88	-37.6	-39.3	21.4	0.00e+00	0	44	0	2695888896	47	4197
2026-01-15 12:13:26.25	337.15	40.62	-37.5	-39.2	21.4	0.00e+00	0	44	0	2702180352	47	4174
2026-01-15 12:13:27.24	337.20	40.36	-37.5	-39.2	21.4	0.00e+00	0	44	0	2707423232	47	4170
2026-01-15 12:13:28.24	337.26	40.09	-37.5	-39.2	21.4	0.00e+00	0	44	0	2712666112	47	4181
2026-01-15 12:13:29.23	337.31	39.84	-37.4	-39.1	21.5	0.00e+00	0	44	0	2718957568	46	4390
2026-01-15 12:13:30.22	337.36	39.58	-37.4	-39.1	21.5	0.00e+00	0	43	0	2724200448	46	4370
2026-01-15 12:13:31.21	337.41	39.33	-37.5	-39.2	21.5	0.00e+00	0	44	0	2729443328	46	4404
2026-01-15 12:13:32.21	337.46	39.07	-37.4	-39.0	21.6	0.00e+00	0	44	0	2735734784	46	4339
2026-01-15 12:13:33.20	337.51	38.82	-37.4	-39.1	21.5	0.00e+00	0	44	0	2740977664	46	4361
2026-01-15 12:13:34.19	337.56	38.57	-37.4	-39.1	21.5	0.00e+00	0	44	0	2746220544	46	4370
2026-01-15 12:13:35.19	337.61	38.32	-37.4	-39.1	21.5	0.00e+00	0	44	0	2752512000	46	4382
2026-01-15 12:13:36.18	337.66	38.08	-37.4	-39.1	21.5	0.00e+00	0	44	0	2757754880	46	4351
2026-01-15 12:13:37.17	337.71	37.83	-37.3	-39.0	21.6	0.00e+00	0	44	0	2762997760	46	4335
2026-01-15 12:13:38.17	337.75	37.59	-37.3	-38.9	21.7	0.00e+00	0	43	0	2768240640	46	4290
2026-01-15 12:13:39.16	337.80	37.35	-37.4	-39.1	21.6	0.00e+00	0	44	0	2774532096	46	4356
2026-01-15 12:13:40.15	337.84	37.11	-37.4	-39.1	21.5	0.00e+00	0	44	0	2779774976	46	4370
2026-01-15 12:13:41.15	337.89	36.87	-37.3	-39.0	21.6	0.00e+00	0	44	0	2786066432	46	4329
2026-01-15 12:13:42.14	337.93	36.64	-37.3	-39.0	21.6	0.00e+00	0	44	0	2791309312	46	4304
2026-01-15 12:13:43.13	337.98	36.41	-37.4	-39.2	21.5	0.00e+00	0	43	0	2796552192	46	4392
2026-01-15 12:13:44.12	338.02	36.17	-37.4	-39.1	21.5	0.00e+00	0	44	0	2802843648	46	4354
2026-01-15 12:13:45.12	338.06	35.94	-37.5	-39.2	21.5	0.00e+00	0	44	0	2808086528	46	4405
2026-01-15 12:13:46.11	338.10	35.71	-37.6	-39.3	21.4	0.00e+00	0	43	0	2813329408	46	4468
2026-01-15 12:13:47.10	338.15	35.49	-37.7	-39.4	21.3	0.00e+00	0	43	0	2818572288	46	4545
2026-01-15 12:13:48.09	338.19	35.26	-37.7	-39.5	21.2	0.00e+00	0	43	0	2824863744	46	4569
2026-01-15 12:13:49.09	338.23	35.04	-37.8	-39.5	21.2	0.00e+00	0	44	0	2830106624	46	4570
2026-01-15 12:13:50.08	338.27	34.82	-37.8	-39.5	21.2	0.00e+00	0	44	0	2836398080	46	4578
2026-01-15 12:13:51.07	338.31	34.60	-37.8	-39.5	21.2	0.00e+00	0	44	0	2841640960	46	4568
2026-01-15 12:13:52.07	338.35	34.38	-37.6	-39.3	21.4	0.00e+00	0	44	0	2846883840	46	4465
2026-01-15 12:13:53.06	338.38	34.16	-37.6	-39.4	21.3	0.00e+00	0	44	0	2852126720	46	4498
2026-01-15 12:13:54.05	338.42	33.94	-37.5	-39.2	21.4	0.00e+00	0	44	0	2858418176	46	4414
2026-01-15 12:13:55.05	338.46	33.73	-37.4	-39.1	21.5	0.00e+00	0	43	0	2863661056	46	4380
2026-01-15 12:13:56.04	338.50	33.51	-37.4	-39.1	21.5	0.00e+00	0	44	0	2868903936	46	4388
2026-01-15 12:13:57.03	338.53	33.30	-37.5	-39.2	21.5	0.00e+00	0	44	0	2875195392	46	4394
2026-01-15 12:13:58.03	338.57	33.09	-37.5	-39.2	21.5	0.00e+00	0	44	0	2880438272	46	4404
2026-01-15 12:13:59.02	338.61	32.88	-37.6	-39.3	21.4	0.00e+00	0	44	0	2886729728	46	4442
2026-01-15 12:14:00.01	338.64	32.68	-37.5	-39.2	21.4	0.00e+00	0	44	0	2891972608	46	4439
2026-01-15 12:14:01.00	338.68	32.47	-37.6	-39.3	21.3	0.00e+00	0	44	0	2897215488	46	4492
2026-01-15 12:14:02.00	338.71	32.27	-37.7	-39.4	21.3	0.00e+00	0	43	0	2902458368	46	4541
2026-01-15 12:14:02.99	338.75	32.06	-37.8	-39.6	20.3	0.00e+00	0	44	0	2908749824	46	4606
2026-01-15 12:14:03.98	338.78	31.86	-37.8	-39.5	21.1	0.00e+00	0	43	0	2913992704	46	4598
2026-01-15 12:14:04.98	338.81	31.66	-37.8	-39.6	21.1	0.00e+00	0	44	0	2919235584	46	4612
2026-01-15 12:14:05.97	338.85	31.46	-37.9	-39.7	21.0	0.00e+00	0	44	0	2925527040	46	4660
2026-01-15 12:14:06.96	338.88	31.26	-38.0	-39.7	21.0	0.00e+00	0	44	0	2930769920	46	4692
2026-01-15 12:14:07.95	338.91	31.07	-38.0	-39.7	21.0	0.00e+00	0	44	0	2936012800	46	4699
2026-01-15 12:14:08.95	338.94	30.87	-38.0	-39.7	21.0	0.00e+00	0	43	0	2942304256	46	4699
2026-01-15 12:14:09.94	338.97	30.68	-38.0	-39.7	21.0	0.00e+00	0	43	0	2947547136	46	4699
2026-01-15 12:14:10.93	339.01	30.49	-38.0	-39.7	21.0	0.00e+00	0	44	0	2952790016	46	4698
2026-01-15 12:14:11.93	339.04	30.29	-38.0	-39.7	21.0	0.00e+00	0	44	0	2959081472	46	4692
2026-01-15 12:14:12.92	339.07	30.10	-38.0	-39.7	21.0	0.00e+00	0	43	0	2964324352	46	4675
2026-01-15 12:14:13.91	339.10	29.92	-37.9	-39.7	21.0	0.00e+00	0	44	0	2969567232	46	4671
2026-01-15 12:14:14.91	339.13	29.73	-38.0	-39.7	21.0	0.00e+00	0	44	0	2975858688	46	4682
2026-01-15 12:14:15.90	339.16	29.54	-37.8	-39.6	21.1	0.00e+00	0	44	0	2981101568	46	4611
2026-01-15 12:14:16.89	339.19	29.36	-37.8	-39.6	21.1	0.00e+00	0	43	0	2986344448	46	4602
2026-01-15 12:14:17.89	339.22	29.17	-37.9	-39.6	21.0	0.00e+00	0	43	0	2992635904	46	4644
2026-01-15 12:14:18.88	339.25	28.99	-37.9	-39.6	21.1	0.00e+00	0	44	0	2997878784	46	4637
2026-01-15 12:14:19.87	339.27	28.81	-37.8	-39.5	21.1	0.00e+00	0	44	0	3003121664	46	4589
2026-01-15 12:14:20.86	339.30	28.63	-37.8	-39.6	21.1	0.00e+00	0	44	0	3008364544	46	4604
2026-01-15 12:14:21.86	339.33	28.45	-37.8	-39.6	21.1	0.00e+00	0	44	0	3014656000	46	4604
2026-01-15 12:14:22.85	339.36	28.27	-37.8	-39.6	21.1	0.00e+00	0	44	0	3019898880	46	4613
2026-01-15 12:14:23.84	339.39	28.10	-37.9	-39.6	21.0	0.00e+00	0	44	0	3026190336	46	4644
2026-01-15 12:14:24.83	339.41	27.92	-37.8	-39.6	21.1	0.00e+00	0	44	0	3031433216	46	4621
2026-01-15 12:14:25.83	339.44	27.74	-37.9	-39.6	21.0	0.00e+00	0	44	0	3036676096	46	4645
2026-01-15 12:14:26.82	339.47	27.57	-37.8	-39.6	21.1	0.00e+00	0	44	0	3042967552	46	4605
2026-01-15 12:14:27.81	339.49	27.40	-37.7	-39.5	21.2	0.00e+00	0	44	0	3048210432	46	4562
2026-01-15 12:14:28.80	339.52	27.23	-37.7	-39.4	21.2	0.00e+00	0	44	0	3053453312	46	4528
2026-01-15 12:14:29.80	339.55	27.06	-37.7	-39.4	21.2	0.00e+00	0	44	0	3059744768	46	4528
2026-01-15 12:14:30.79	339.57	26.89	-37.7	-39.4	21.2	0.00e+00	0	44	0	3064987648	46	4504
2026-01-15 12:14:31.78	339.60	26.72	-37.6	-39.3	20.4	0.00e+00	0	44	0	3070230528	46	4464
2026-01-15 12:14:32.77	339.62	26.55	-37.7	-39.3	21.2	0.00e+00	0	44	0	3076521984	46	4487
2026-01-15 12:14:33.77	339.65	26.39	-37.7	-39.3	21.2	0.00e+00	0	44	0	3081764864	46	4492
2026-01-15 12:14:34.76	339.67	26.22	-37.7	-39.3	21.2	0.00e+00	0	44	0	3087007744	46	4487
2026-01-15 12:14:35.75	339.70	26.06	-37.7	-39.4	21.2	0.00e+00	0	44	0	3092250624	46	4499
2026-01-15 12:14:36.75	339.72	25.89	-37.7	-39.4	21.2	0.00e+00	0	44	0	3098542080	46	4518
2026-01-15 12:14:37.74	339.75	25.73	-37.8	-39.5	21.2	0.00e+00	0	44	0	3103784960	46	4552
2026-01-15 12:14:38.73	339.77	25.57	-37.9	-39.6	21.0	0.00e+00	0	44	0	3110076416	46	4620
2026-01-15 12:14:39.72	339.80	25.41	-37.9	-39.6	21.0	0.00e+00	0	44	0	3115319296	46	4637
2026-01-15 12:14:40.72	339.82	25.25	-37.9	-39.6	21.0	0.00e+00	0	44	0	3120562176	46	4645
2026-01-15 12:14:41.71	339.84	25.09	-38.0	-39.7	20.9	0.00e+00	0	44	0	3125805056	46	4697
2026-01-15 12:14:42.70	339.87	24.94	-38.1	-39.9	20.8	0.00e+00	0	44	0	3132096512	46	4762
2026-01-15 12:14:43.70	339.89	24.78	-38.2	-40.0	20.8	0.00e+00	0	44	0	3137339392	47	4547
2026-01-15 12:14:44.69	339.91	24.63	-38.2	-40.0	20.8	0.00e+00	0	44	0	3142582272	47	4550
2026-01-15 12:14:45.68	339.94	24.47	-38.3	-40.1	20.7	0.00e+00	0	44	0	3148873728	47	4610
2026-01-15 12:14:46.67	339.96	24.32	-38.3	-40.1	20.6	0.00e+00	0	44	0	3154116608	47	4613
2026-01-15 12:14:47.67	339.98	24.16	-38.4	-40.2	20.6	0.00e+00	0	43	0	3160408064	47	4664
2026-01-15 12:14:48.66	340.00	24.01	-38.4	-40.3	20.5	0.00e+00	0	44	0	3165650944	47	4706
2026-01-15 12:14:49.65	340.02	23.86	-38.4	-40.3	20.5	0.00e+00	0	44	0	3170893824	47	4708
2026-01-15 12:14:50.65	340.05	23.71	-38.5	-40.3	20.5	0.00e+00	0	44	0	3176136704	47	4739
2026-01-15 12:14:51.64	340.07	23.56	-38.5	-40.3	20.4	0.00e+00	0	44	0	3182428160	47	4756
2026-01-15 12:14:52.63	340.09	23.41	-38.5	-40.3	20.4	0.00e+00	0	43	0	3187671040	47	4748
2026-01-15 12:14:53.63	340.11	23.27	-38.5	-40.3	20.4	0.00e+00	0	44	0	3192913920	47	4754
2026-01-15 12:14:54.62	340.13	23.12	-38.5	-40.3	20.4	0.00e+00	0	44	0	3199205376	47	4759
2026-01-15 12:14:55.61	340.15	22.97	-38.5	-40.4	20.4	0.00e+00	0	44	0	3204448256	47	4767
2026-01-15 12:14:56.60	340.17	22.83	-38.7	-40.5	20.3	0.00e+00	0	44	0	3209691136	47	4825
2026-01-15 12:14:57.60	340.20	22.68	-38.7	-40.5	20.5	0.00e+00	0	44	0	3215982592	48	4577
2026-01-15 12:14:58.59	340.22	22.54	-38.7	-40.5	20.5	0.00e+00	0	44	0	3221225472	48	4568
2026-01-15 12:14:59.58	340.24	22.40	-38.7	-40.5	20.5	0.00e+00	0	44	0	3226468352	48	4571
2026-01-15 12:15:00.57	340.26	22.26	-38.7	-40.5	20.4	0.00e+00	0	44	0	3232759808	48	4575
2026-01-15 12:15:01.57	340.28	22.12	-38.7	-40.5	20.5	0.00e+00	0	44	0	3238002688	48	4578
2026-01-15 12:15:02.56	340.30	21.98	-38.7	-40.6	20.4	0.00e+00	0	44	0	3243245568	48	4608
2026-01-15 12:15:03.55	340.32	21.84	-38.7	-40.5	20.4	0.00e+00	0	44	0	3249537024	48	4596
2026-01-15 12:15:04.55	340.34	21.70	-38.8	-40.7	20.3	0.00e+00	0	44	0	3254779904	48	4653
2026-01-15 12:15:05.54	340.36	21.56	-38.7	-40.6	20.4	0.00e+00	0	44	0	3260022784	48	4625
2026-01-15 12:15:06.53	340.38	21.42	-38.7	-40.7	20.3	0.00e+00	0	44	0	3266314240	48	4657
2026-01-15 12:15:07.52	340.39	21.29	-38.7	-40.6	20.4	0.00e+00	0	44	0	3271557120	48	4627
2026-01-15 12:15:08.52	340.41	21.15	-38.8	-40.7	20.3	0.00e+00	0	44	0	3276800000	48	4681
2026-01-15 12:15:09.51	340.43	21.02	-38.8	-40.7	20.3	0.00e+00	0	44	0	3282042880	48	4685
2026-01-15 12:15:10.50	340.45	20.88	-38.8	-40.7	20.3	0.00e+00	0	44	0	3288334336	48	4664
2026-01-15 12:15:11.50	340.47	20.75	-38.8	-40.7	20.3	0.00e+00	0	44	0	3293577216	48	4661
2026-01-15 12:15:12.49	340.49	20.62	-38.9	-40.8	20.2	0.00e+00	0	44	0	3299868672	48	4710
2026-01-15 12:15:13.48	340.51	20.48	-39.1	-40.9	20.1	0.00e+00	0	44	0	3305111552	48	4780
2026-01-15 12:15:14.48	340.53	20.35	-38.9	-40.7	20.2	0.00e+00	0	44	0	3310354432	48	4703
2026-01-15 12:15:15.47	340.54	20.22	-38.9	-40.7	20.3	0.00e+00	0	44	0	3316645888	48	4692
2026-01-15 12:15:16.46	340.56	20.09	-39.0	-40.8	20.2	0.00e+00	0	44	0	3321888768	48	4712
2026-01-15 12:15:17.45	340.58	19.96	-39.1	-40.9	20.1	0.00e+00	0	44	0	3327131648	48	4764
2026-01-15 12:15:18.45	340.60	19.83	-39.0	-40.8	20.2	0.00e+00	0	44	0	3332374528	48	4726
2026-01-15 12:15:19.44	340.62	19.70	-39.1	-40.9	20.1	0.00e+00	0	44	0	3338665984	48	4801
2026-01-15 12:15:20.43	340.63	19.58	-39.1	-40.9	20.1	0.00e+00	0	44	0	3343908864	48	4788
2026-01-15 12:15:21.43	340.65	19.45	-39.1	-41.0	20.0	0.00e+00	0	44	0	3350200320	48	4823
2026-01-15 12:15:22.42	340.67	19.32	-39.1	-40.9	20.1	0.00e+00	0	44	0	3355443200	48	4790
2026-01-15 12:15:23.41	340.69	19.20	-39.1	-41.0	20.0	0.00e+00	0	44	0	3360686080	48	4825
2026-01-15 12:15:24.41	340.70	19.07	-39.2	-41.0	20.0	0.00e+00	0	44	0	3365928960	49	4597
2026-01-15 12:15:25.40	340.72	18.95	-39.1	-41.0	20.0	0.00e+00	0	44	0	3372220416	49	4562
2026-01-15 12:15:26.39	340.74	18.83	-39.3	-41.1	19.9	0.00e+00	0	44	0	3377463296	49	4621
2026-01-15 12:15:27.38	340.75	18.70	-39.3	-41.1	19.9	0.00e+00	0	44	0	3382706176	49	4638
2026-01-15 12:15:28.38	340.77	18.58	-39.3	-41.1	19.9	0.00e+00	0	44	0	3388997632	49	4643
2026-01-15 12:15:29.37	340.79	18.46	-39.4	-41.2	19.7	0.00e+00	0	43	0	3394240512	49	4701
2026-01-15 12:15:30.36	340.80	18.34	-39.4	-41.2	19.8	0.00e+00	0	44	0	3399483392	49	4690
2026-01-15 12:15:31.36	340.82	18.22	-39.5	-41.3	19.7	0.00e+00	0	44	0	3405774848	49	4736
2026-01-15 12:15:32.35	340.84	18.10	-39.5	-41.4	19.7	0.00e+00	0	44	0	3411017728	49	4769
2026-01-15 12:15:33.34	340.85	17.98	-39.8	-41.6	19.5	0.00e+00	0	43	0	3416260608	50	4616
2026-01-15 12:15:34.33	340.87	17.86	-39.7	-41.5	19.6	0.00e+00	0	44	0	3422552064	50	4560
2026-01-15 12:15:35.33	340.89	17.74	-39.7	-41.5	19.5	0.00e+00	0	44	0	3427794944	50	4587
2026-01-15 12:15:36.32	340.90	17.62	-39.7	-41.5	19.5	0.00e+00	0	44	0	3434086400	50	4580
2026-01-15 12:15:37.31	340.92	17.51	-39.8	-41.6	19.5	0.00e+00	0	44	0	3439329280	50	4624
2026-01-15 12:15:38.30	340.93	17.39	-39.8	-41.6	19.4	0.00e+00	0	44	0	3444572160	50	4640
2026-01-15 12:15:39.30	340.95	17.27	-39.8	-41.7	19.4	0.00e+00	0	44	0	3449815040	50	4678
2026-01-15 12:15:40.29	340.97	17.16	-39.9	-41.8	19.3	0.00e+00	0	44	0	3456106496	50	4709
2026-01-15 12:15:41.28	340.98	17.04	-39.9	-41.8	19.3	0.00e+00	0	44	0	3461349376	50	4744
2026-01-15 12:15:42.28	341.00	16.93	-40.0	-41.9	19.2	0.00e+00	0	44	0	3466592256	50	4767
2026-01-15 12:15:43.27	341.01	16.82	-40.0	-41.9	19.2	0.00e+00	0	43	0	3472883712	50	4762
2026-01-15 12:15:44.26	341.03	16.70	-40.0	-41.9	19.2	0.00e+00	0	44	0	3478126592	50	4799
2026-01-15 12:15:45.25	341.04	16.59	-40.1	-41.9	19.2	0.00e+00	0	44	0	3483369472	50	4810
2026-01-15 12:15:46.25	341.06	16.48	-40.1	-42.0	19.1	0.00e+00	0	44	0	3489660928	50	4858
2026-01-15 12:15:47.24	341.07	16.37	-40.3	-42.2	19.0	0.00e+00	0	43	0	3494903808	51	4653
2026-01-15 12:15:48.23	341.09	16.25	-40.2	-42.1	19.0	0.00e+00	0	44	0	3500146688	51	4614
2026-01-15 12:15:49.22	341.10	16.14	-40.3	-42.2	18.9	0.00e+00	0	44	0	3506438144	51	4675
2026-01-15 12:15:50.22	341.12	16.03	-40.3	-42.2	18.9	0.00e+00	0	44	0	3511681024	51	4699
2026-01-15 12:15:51.21	341.13	15.92	-40.3	-42.2	18.9	0.00e+00	0	44	0	3516923904	51	4682
2026-01-15 12:15:52.20	341.15	15.82	-40.2	-42.2	18.9	0.00e+00	0	44	0	3523215360	51	4686
2026-01-15 12:15:53.20	341.16	15.71	-40.3	-42.2	18.8	0.00e+00	0	44	0	3528458240	51	4703
2026-01-15 12:15:54.19	341.18	15.60	-40.3	-42.3	18.8	0.00e+00	0	44	0	3533701120	51	4711
2026-01-15 12:15:55.18	341.19	15.49	-40.4	-42.4	18.7	0.00e+00	0	44	0	3539992576	51	4780
2026-01-15 12:15:56.18	341.20	15.38	-40.4	-42.4	18.7	0.00e+00	0	44	0	3545235456	51	4785
2026-01-15 12:15:57.17	341.22	15.28	-40.4	-42.4	18.7	0.00e+00	0	44	0	3550478336	51	4795
2026-01-15 12:15:58.16	341.23	15.17	-40.4	-42.5	18.7	0.00e+00	0	44	0	3555721216	51	4815
2026-01-15 12:15:59.16	341.25	15.06	-40.4	-42.4	18.6	0.00e+00	0	44	0	3562012672	51	4808
2026-01-15 12:16:00.15	341.26	14.96	-40.4	-42.4	18.7	0.00e+00	0	44	0	3567255552	51	4814
2026-01-15 12:16:01.14	341.28	14.85	-40.4	-42.5	18.6	0.00e+00	0	44	0	3573547008	51	4818
2026-01-15 12:16:02.14	341.29	14.75	-40.5	-42.5	18.6	0.00e+00	0	44	0	3578789888	51	4869
2026-01-15 12:16:03.13	341.30	14.64	-40.5	-42.5	18.6	0.00e+00	0	44	0	3584032768	51	4862
2026-01-15 12:16:04.12	341.32	14.54	-40.5	-42.5	18.6	0.00e+00	0	44	0	3590324224	51	4845
2026-01-15 12:16:05.11	341.33	14.44	-40.5	-42.6	18.5	0.00e+00	0	44	0	3595567104	51	4881
2026-01-15 12:16:06.11	341.34	14.33	-40.5	-42.5	18.6	0.00e+00	0	44	0	3600809984	51	4866
2026-01-15 12:16:07.10	341.36	14.23	-40.5	-42.6	18.5	0.00e+00	0	44	0	3606052864	51	4890
2026-01-15 12:16:08.09	341.37	14.13	-40.6	-42.6	18.4	0.00e+00	0	44	0	3612344320	51	4916
2026-01-15 12:16:09.08	341.38	14.03	-40.6	-42.7	18.4	0.00e+00	0	44	0	3617587200	51	4942
2026-01-15 12:16:10.08	341.40	13.93	-40.6	-42.7	18.4	0.00e+00	0	43	0	3623878656	51	4960
2026-01-15 12:16:11.07	341.41	13.83	-40.6	-42.8	18.3	0.00e+00	0	44	0	3629121536	51	4984
2026-01-15 12:16:12.06	341.42	13.73	-40.5	-42.7	18.4	0.00e+00	0	44	0	3634364416	51	4928
2026-01-15 12:16:13.06	341.44	13.63	-40.6	-42.8	18.3	0.00e+00	0	44	0	3639607296	51	5006
2026-01-15 12:16:14.05	341.45	13.53	-40.6	-42.9	18.2	0.00e+00	0	44	0	3645898752	51	5043
2026-01-15 12:16:15.04	341.46	13.43	-40.6	-42.8	18.3	0.00e+00	0	44	0	3651141632	51	4987
2026-01-15 12:16:16.03	341.48	13.33	-40.7	-42.9	18.2	0.00e+00	0	44	0	3656384512	51	5055
