passes_logs/2026/01/15/T1/T1__20260115_195542_KHAYYAM_rec.log

#Pass ID: 20260115_195542_KHAYYAM
#Satellite: KHAYYAM
#Configuration: KHAYYAM_480M
#almurnet v.1.7.20251203
#Start time: 2026-01-15 19:55:43

#Version: 2.0.20230620
#Station: T1
#Location: 37.570604 lon 55.790049 lat
#TLE: 1 53370U 22096A   26014.69422851  .00010074  00000+0  41151-3 0  9993
#TLE: 2 53370  97.3560 281.7091 0001556 106.8298 253.3111 15.24576057191198

#Time	Az	El	Level	Level2	SNR	BER	BlckErr	Temp	State	Recorded	gain1	gain2
2026-01-15 19:55:43.66	38.50	5.05	-50.3	-54.1	3.4	0.00e+00	0	44	0	0	71	23277
2026-01-15 19:55:44.65	38.64	5.10	-50.4	-54.1	3.7	0.00e+00	0	45	104	0	71	23232
2026-01-15 19:55:45.65	38.79	5.16	-50.3	-54.1	3.7	0.00e+00	0	45	104	0	71	23212
2026-01-15 19:55:46.64	38.94	5.22	-50.3	-54.1	3.7	0.00e+00	0	45	104	0	71	23231
2026-01-15 19:55:47.63	39.08	5.28	-50.3	-54.1	3.7	0.00e+00	0	45	104	0	71	23310
2026-01-15 19:55:48.63	39.23	5.34	-50.3	-54.1	3.7	0.00e+00	0	45	104	0	71	23262
2026-01-15 19:55:49.63	39.38	5.40	-50.3	-54.1	3.7	0.00e+00	0	45	104	0	71	23214
2026-01-15 19:55:50.62	39.53	5.46	-50.3	-54.1	3.7	0.00e+00	0	45	104	0	71	23268
2026-01-15 19:55:51.62	39.68	5.51	-50.3	-54.1	3.7	0.00e+00	0	45	104	0	71	23252
2026-01-15 19:55:52.62	39.84	5.57	-50.3	-54.1	3.7	0.00e+00	0	45	104	0	71	23221
2026-01-15 19:55:53.62	39.99	5.63	-50.3	-54.1	3.7	0.00e+00	0	46	104	0	71	23263
2026-01-15 19:55:54.61	40.14	5.69	-50.3	-54.1	3.7	0.00e+00	0	46	104	0	71	23245
2026-01-15 19:55:55.61	40.30	5.75	-50.3	-54.1	3.7	0.00e+00	0	46	104	0	71	23271
2026-01-15 19:55:56.60	40.45	5.81	-50.3	-54.1	3.7	0.00e+00	0	46	104	0	71	23316
2026-01-15 19:55:57.60	40.61	5.87	-50.3	-54.1	3.7	0.00e+00	0	46	104	0	71	23291
2026-01-15 19:55:58.60	40.76	5.93	-50.3	-54.1	3.7	0.00e+00	0	46	104	0	71	23272
2026-01-15 19:55:59.59	40.92	5.99	-50.3	-54.1	3.7	0.00e+00	0	46	104	0	71	23334
2026-01-15 19:56:00.59	41.08	6.05	-50.3	-54.1	3.7	0.00e+00	0	46	104	0	71	23219
2026-01-15 19:56:01.59	41.24	6.10	-50.3	-54.1	3.7	0.00e+00	0	46	104	0	71	23255
2026-01-15 19:56:02.58	41.40	6.16	-50.3	-54.1	3.7	0.00e+00	0	46	104	0	71	23330
2026-01-15 19:56:03.57	41.56	6.22	-50.3	-54.1	3.7	0.00e+00	0	46	104	0	71	23210
2026-01-15 19:56:04.57	41.72	6.28	-50.3	-54.1	3.7	0.00e+00	0	46	104	0	71	23288
2026-01-15 19:56:05.57	41.88	6.34	-50.3	-54.1	3.7	0.00e+00	0	46	104	0	71	23262
2026-01-15 19:56:06.56	42.04	6.40	-50.3	-54.1	3.7	0.00e+00	0	47	104	0	71	23221
2026-01-15 19:56:07.56	42.21	6.46	-50.3	-54.1	3.7	0.00e+00	0	46	104	0	71	23273
2026-01-15 19:56:08.56	42.37	6.52	-50.3	-54.1	3.7	0.00e+00	0	46	104	0	71	23305
2026-01-15 19:56:09.55	42.54	6.58	-50.3	-54.1	3.7	0.00e+00	0	47	104	0	71	23251
2026-01-15 19:56:10.55	42.70	6.64	-50.3	-54.1	3.7	0.00e+00	0	47	104	0	71	23210
2026-01-15 19:56:11.54	42.87	6.70	-50.3	-54.1	3.7	0.00e+00	0	47	104	0	71	23289
2026-01-15 19:56:12.54	43.04	6.76	-50.3	-54.1	3.7	0.00e+00	0	47	104	0	71	23245
2026-01-15 19:56:13.54	43.21	6.81	-50.3	-54.1	3.7	0.00e+00	0	47	104	0	71	23216
2026-01-15 19:56:14.53	43.38	6.87	-50.3	-54.1	3.7	0.00e+00	0	47	104	0	71	23225
2026-01-15 19:56:15.53	43.55	6.93	-50.3	-54.1	3.7	0.00e+00	0	47	104	0	71	23276
2026-01-15 19:56:16.53	43.72	6.99	-50.3	-54.1	3.7	0.00e+00	0	47	104	0	71	23175
2026-01-15 19:56:17.52	43.89	7.05	-50.3	-54.1	3.7	0.00e+00	0	47	104	0	71	23267
2026-01-15 19:56:18.52	44.06	7.11	-50.3	-54.1	3.7	0.00e+00	0	47	104	0	71	23217
2026-01-15 19:56:19.52	44.24	7.17	-50.3	-54.1	3.7	0.00e+00	0	47	104	0	71	23187
2026-01-15 19:56:20.51	44.41	7.23	-50.3	-54.1	3.7	0.00e+00	0	47	104	0	71	23236
2026-01-15 19:56:21.51	44.59	7.29	-50.3	-54.1	3.7	0.00e+00	0	47	104	0	71	23280
2026-01-15 19:56:22.51	44.77	7.35	-50.3	-54.1	3.7	0.00e+00	0	47	104	0	71	23236
2026-01-15 19:56:23.51	44.95	7.41	-50.3	-54.1	3.7	0.00e+00	0	47	104	0	71	23213
2026-01-15 19:56:24.50	45.12	7.47	-50.3	-54.1	3.7	0.00e+00	0	47	104	0	71	23230
2026-01-15 19:56:25.50	45.30	7.53	-50.3	-54.1	3.7	0.00e+00	0	47	104	0	71	23217
2026-01-15 19:56:26.50	45.48	7.59	-50.3	-54.1	3.7	0.00e+00	0	48	104	0	71	23181
2026-01-15 19:56:27.49	45.66	7.64	-50.3	-54.1	3.7	0.00e+00	0	48	104	0	71	23180
2026-01-15 19:56:28.49	45.85	7.70	-50.3	-54.0	3.7	0.00e+00	0	47	104	0	71	23136
2026-01-15 19:56:29.49	46.03	7.76	-50.3	-54.1	3.7	0.00e+00	0	48	104	0	71	23191
2026-01-15 19:56:30.48	46.21	7.82	-50.3	-54.1	3.7	0.00e+00	0	47	104	0	71	23194
2026-01-15 19:56:31.48	46.40	7.88	-50.3	-54.0	3.7	0.00e+00	0	47	104	0	71	23150
2026-01-15 19:56:32.48	46.58	7.94	-50.3	-54.1	3.7	0.00e+00	0	48	104	0	71	23195
2026-01-15 19:56:33.47	46.77	8.00	-50.3	-54.1	3.7	0.00e+00	0	48	104	0	71	23182
2026-01-15 19:56:34.47	46.96	8.06	-50.3	-54.1	3.7	0.00e+00	0	48	104	0	71	23197
2026-01-15 19:56:35.47	47.15	8.12	-50.3	-54.1	3.7	0.00e+00	0	48	104	0	71	23213
2026-01-15 19:56:36.46	47.34	8.18	-50.3	-54.1	3.7	0.00e+00	0	48	104	0	71	23182
2026-01-15 19:56:37.46	47.53	8.24	-50.3	-54.1	3.7	0.00e+00	0	48	104	0	71	23223
2026-01-15 19:56:38.46	47.72	8.30	-50.3	-54.0	3.7	0.00e+00	0	48	104	0	71	23136
2026-01-15 19:56:39.45	47.91	8.35	-50.3	-54.1	3.7	0.00e+00	0	48	104	0	71	23238
2026-01-15 19:56:40.45	48.10	8.41	-50.3	-54.1	3.7	0.00e+00	0	48	104	0	71	23207
2026-01-15 19:56:41.44	48.30	8.47	-50.3	-54.1	3.7	0.00e+00	0	48	104	0	71	23211
2026-01-15 19:56:42.44	48.49	8.53	-50.3	-54.1	3.7	0.00e+00	0	48	104	0	71	23243
2026-01-15 19:56:43.44	48.69	8.59	-50.3	-54.1	3.7	0.00e+00	0	48	104	0	71	23214
2026-01-15 19:56:44.43	48.88	8.65	-50.3	-54.1	3.7	0.00e+00	0	48	104	0	71	23242
2026-01-15 19:56:45.43	49.08	8.71	-50.3	-54.1	3.7	0.00e+00	0	48	104	0	71	23179
2026-01-15 19:56:46.43	49.28	8.76	-50.3	-54.1	3.7	0.00e+00	0	48	104	0	71	23227
2026-01-15 19:56:47.43	49.48	8.82	-50.3	-54.1	3.7	0.00e+00	0	48	104	0	71	23199
2026-01-15 19:56:48.42	49.68	8.88	-50.3	-54.1	3.7	0.00e+00	0	48	104	0	71	23187
2026-01-15 19:56:49.42	49.89	8.94	-50.3	-54.1	3.7	0.00e+00	0	48	104	0	71	23221
2026-01-15 19:56:50.42	50.09	9.00	-50.3	-54.1	3.7	0.00e+00	0	48	104	0	71	23188
2026-01-15 19:56:51.42	50.30	9.06	-50.3	-54.0	3.7	0.00e+00	0	48	104	0	71	23006
2026-01-15 19:56:52.42	50.50	9.11	-50.6	-54.8	3.7	0.00e+00	0	48	104	0	71	25245
2026-01-15 19:56:53.42	50.71	9.17	-50.9	-55.2	3.7	0.00e+00	0	48	104	0	72	24945
2026-01-15 19:56:54.42	50.92	9.23	-51.0	-55.5	3.7	0.00e+00	0	48	104	0	72	25726
2026-01-15 19:56:55.42	51.12	9.29	-51.2	-55.5	3.7	0.00e+00	0	48	104	0	73	24321
2026-01-15 19:56:56.42	51.33	9.35	-50.6	-54.1	3.7	0.00e+00	0	49	104	0	73	20843
2026-01-15 19:56:57.42	51.55	9.40	-50.9	-54.6	3.7	0.00e+00	0	48	104	0	73	22051
2026-01-15 19:56:58.43	51.76	9.46	-51.1	-55.0	3.7	0.00e+00	0	49	104	0	73	22928
2026-01-15 19:56:59.42	51.97	9.52	-51.0	-55.0	3.7	0.00e+00	0	49	104	0	73	23061
2026-01-15 19:57:00.42	52.18	9.58	-50.8	-54.8	3.7	0.00e+00	0	49	104	0	73	22587
2026-01-15 19:57:01.42	52.40	9.63	-50.9	-55.1	3.7	0.00e+00	0	49	104	0	73	23209
2026-01-15 19:57:02.42	52.61	9.69	-51.0	-55.3	3.7	0.00e+00	0	49	104	0	73	23737
2026-01-15 19:57:03.42	52.83	9.75	-51.2	-56.0	3.7	0.00e+00	0	49	104	0	73	25879
2026-01-15 19:57:04.42	53.05	9.80	-51.2	-55.8	3.7	0.00e+00	0	49	104	0	73	25283
2026-01-15 19:57:05.42	53.27	9.86	-51.2	-56.0	3.7	0.00e+00	0	49	104	0	73	25763
2026-01-15 19:57:06.43	53.49	9.92	-51.4	-56.1	3.7	0.00e+00	0	49	104	0	73	26126
2026-01-15 19:57:07.43	53.71	9.97	-51.5	-55.9	3.7	0.00e+00	0	49	104	0	73	25627
2026-01-15 19:57:08.43	53.93	10.03	-51.6	-56.1	3.7	0.00e+00	0	49	104	0	73	26036
2026-01-15 19:57:09.43	54.16	10.09	-51.5	-55.8	3.7	0.00e+00	0	49	104	0	73	25160
2026-01-15 19:57:10.43	54.38	10.14	-51.6	-56.2	3.7	0.00e+00	0	49	104	0	73	26338
2026-01-15 19:57:11.43	54.61	10.20	-51.1	-55.2	3.7	0.00e+00	0	49	104	0	73	23623
2026-01-15 19:57:12.44	54.84	10.25	-51.3	-55.6	3.7	0.00e+00	0	49	104	0	73	24629
2026-01-15 19:57:13.43	55.06	10.31	-51.1	-55.3	3.7	0.00e+00	0	49	104	0	73	23895
2026-01-15 19:57:14.43	55.29	10.36	-51.4	-55.7	3.7	0.00e+00	0	49	104	0	73	25013
2026-01-15 19:57:15.43	55.52	10.42	-51.4	-55.9	3.7	0.00e+00	0	48	104	0	73	25469
2026-01-15 19:57:16.44	55.75	10.47	-51.5	-56.0	3.7	0.00e+00	0	49	104	0	73	25908
2026-01-15 19:57:17.44	55.98	10.53	-51.5	-55.8	3.7	0.00e+00	0	49	104	0	73	25125
2026-01-15 19:57:18.44	56.22	10.58	-51.7	-56.0	3.7	0.00e+00	0	49	104	0	74	24282
2026-01-15 19:57:19.44	56.45	10.64	-51.7	-56.0	3.7	0.00e+00	0	49	104	0	74	24319
2026-01-15 19:57:20.44	56.68	10.69	-51.7	-56.1	3.7	0.00e+00	0	49	104	0	74	24758
2026-01-15 19:57:21.44	56.92	10.75	-51.7	-56.1	3.7	0.00e+00	0	49	104	0	74	24554
2026-01-15 19:57:22.44	57.16	10.80	-51.7	-56.1	3.7	0.00e+00	0	49	104	0	74	24596
2026-01-15 19:57:23.44	57.40	10.85	-51.7	-56.3	3.7	0.00e+00	0	49	104	0	74	25240
2026-01-15 19:57:24.44	57.63	10.91	-51.7	-56.0	3.7	0.00e+00	0	49	104	0	74	24411
2026-01-15 19:57:25.44	57.87	10.96	-51.7	-56.1	3.7	0.00e+00	0	49	104	0	74	24712
2026-01-15 19:57:26.44	58.12	11.01	-51.7	-56.1	3.7	0.00e+00	0	49	104	0	74	24558
2026-01-15 19:57:27.44	58.36	11.07	-51.7	-56.2	3.7	0.00e+00	0	49	104	0	74	24964
2026-01-15 19:57:28.43	58.60	11.12	-51.9	-56.5	3.7	0.00e+00	0	49	104	0	74	25771
2026-01-15 19:57:29.43	58.84	11.17	-51.9	-56.6	3.7	0.00e+00	0	49	104	0	74	26005
2026-01-15 19:57:30.44	59.09	11.22	-51.8	-56.4	3.7	0.00e+00	0	49	104	0	74	25506
2026-01-15 19:57:31.44	59.34	11.27	-51.7	-56.1	3.7	0.00e+00	0	49	104	0	74	24612
2026-01-15 19:57:32.44	59.58	11.32	-51.7	-56.2	3.7	0.00e+00	0	49	104	0	74	24831
2026-01-15 19:57:33.44	59.83	11.37	-51.7	-56.3	3.7	0.00e+00	0	49	104	0	74	25379
2026-01-15 19:57:34.44	60.08	11.43	-51.7	-56.4	3.7	0.00e+00	0	49	104	0	74	25544
2026-01-15 19:57:35.44	60.33	11.48	-51.7	-56.4	3.7	0.00e+00	0	49	104	0	74	25506
2026-01-15 19:57:36.44	60.58	11.53	-51.7	-56.4	3.7	0.00e+00	0	49	104	0	74	25390
2026-01-15 19:57:37.45	60.84	11.58	-51.7	-56.3	3.7	0.00e+00	0	49	104	0	74	25239
2026-01-15 19:57:38.45	61.09	11.63	-51.7	-56.0	3.7	0.00e+00	0	49	104	0	74	24421
2026-01-15 19:57:39.45	61.35	11.68	-51.7	-56.0	3.7	0.00e+00	0	49	104	0	74	24434
2026-01-15 19:57:40.45	61.60	11.72	-51.7	-56.0	3.7	0.00e+00	0	49	104	0	74	24345
2026-01-15 19:57:41.46	61.86	11.77	-51.7	-55.9	3.7	0.00e+00	0	49	104	0	74	24210
2026-01-15 19:57:42.46	62.12	11.82	-51.8	-56.3	3.7	0.00e+00	0	49	104	0	74	25149
2026-01-15 19:57:43.46	62.38	11.87	-51.8	-56.3	3.7	0.00e+00	0	49	104	0	74	25304
2026-01-15 19:57:44.47	62.64	11.92	-51.6	-55.9	3.7	0.00e+00	0	49	104	0	74	24018
2026-01-15 19:57:45.47	62.90	11.97	-51.5	-55.8	3.7	0.00e+00	0	49	104	0	74	23785
2026-01-15 19:57:46.47	63.17	12.01	-51.8	-56.2	3.7	0.00e+00	0	49	104	0	74	24810
2026-01-15 19:57:47.47	63.43	12.06	-51.5	-55.8	3.7	0.00e+00	0	49	104	0	74	23809
2026-01-15 19:57:48.47	63.69	12.11	-51.8	-56.2	3.7	0.00e+00	0	49	104	0	74	24904
2026-01-15 19:57:49.47	63.96	12.15	-51.8	-56.2	3.7	0.00e+00	0	49	104	0	74	24995
2026-01-15 19:57:50.47	64.22	12.20	-51.9	-56.5	3.7	0.00e+00	0	49	104	0	74	25706
2026-01-15 19:57:51.47	64.49	12.24	-51.7	-56.2	3.7	0.00e+00	0	49	104	0	74	24841
2026-01-15 19:57:52.47	64.76	12.29	-51.7	-56.2	3.7	0.00e+00	0	49	104	0	74	24907
2026-01-15 19:57:53.47	65.03	12.33	-51.8	-56.2	3.7	0.00e+00	0	49	104	0	74	25065
2026-01-15 19:57:54.47	65.30	12.38	-51.8	-56.3	3.7	0.00e+00	0	49	104	0	74	25121
2026-01-15 19:57:55.48	65.57	12.42	-51.8	-56.2	3.7	0.00e+00	0	49	104	0	74	24943
2026-01-15 19:57:56.48	65.84	12.46	-51.8	-56.2	3.7	0.00e+00	0	49	104	0	74	24914
2026-01-15 19:57:57.48	66.12	12.51	-51.8	-56.1	3.7	0.00e+00	0	49	104	0	74	24799
2026-01-15 19:57:58.48	66.39	12.55	-51.6	-56.1	3.7	0.00e+00	0	49	104	0	74	24611
2026-01-15 19:57:59.48	66.66	12.59	-51.5	-56.0	3.7	0.00e+00	0	49	104	0	74	24455
2026-01-15 19:58:00.49	66.94	12.63	-51.3	-55.7	3.7	0.00e+00	0	49	104	0	74	23572
2026-01-15 19:58:01.49	67.22	12.67	-51.3	-55.8	3.7	0.00e+00	0	49	104	0	74	23729
2026-01-15 19:58:02.48	67.49	12.71	-51.3	-55.6	3.7	0.00e+00	0	49	104	0	74	23384
2026-01-15 19:58:03.49	67.78	12.75	-51.4	-55.7	3.7	0.00e+00	0	49	104	0	74	23441
2026-01-15 19:58:04.48	68.05	12.79	-51.4	-55.6	3.7	0.00e+00	0	49	104	0	74	23402
2026-01-15 19:58:05.48	68.33	12.83	-51.3	-55.5	3.7	0.00e+00	0	49	104	0	74	23110
2026-01-15 19:58:06.49	68.62	12.87	-51.3	-55.5	3.7	0.00e+00	0	49	104	0	74	22978
2026-01-15 19:58:07.49	68.90	12.91	-51.5	-55.8	3.7	0.00e+00	0	49	104	0	74	23771
2026-01-15 19:58:08.48	69.18	12.95	-51.5	-55.8	3.7	0.00e+00	0	49	104	0	74	23899
2026-01-15 19:58:09.48	69.46	12.99	-51.1	-55.2	3.7	0.00e+00	0	49	104	0	74	22144
2026-01-15 19:58:10.48	69.75	13.02	-50.8	-54.6	3.7	0.00e+00	0	49	104	0	73	22043
2026-01-15 19:58:11.48	70.03	13.06	-50.2	-53.8	3.7	0.00e+00	0	49	104	0	72	21126
2026-01-15 19:58:12.48	70.32	13.09	-50.2	-53.7	3.7	0.00e+00	0	49	104	0	72	21079
2026-01-15 19:58:13.48	70.61	13.13	-50.2	-53.7	3.7	0.00e+00	0	49	104	0	72	20886
2026-01-15 19:58:14.48	70.89	13.16	-50.4	-54.0	3.7	0.00e+00	0	49	104	0	72	21730
2026-01-15 19:58:15.48	71.18	13.20	-50.4	-54.0	3.7	0.00e+00	0	49	104	0	72	21697
2026-01-15 19:58:16.49	71.47	13.23	-50.4	-53.8	3.7	0.00e+00	0	49	104	0	72	21313
2026-01-15 19:58:17.49	71.77	13.27	-51.1	-54.8	3.7	0.00e+00	0	49	104	0	72	23702
2026-01-15 19:58:18.49	72.06	13.30	-51.4	-55.2	3.7	0.00e+00	0	49	104	0	73	23687
2026-01-15 19:58:19.49	72.35	13.33	-51.7	-56.0	3.7	0.00e+00	0	49	104	0	74	24470
2026-01-15 19:58:20.49	72.64	13.36	-52.1	-56.5	3.7	0.00e+00	0	49	104	0	74	25907
2026-01-15 19:58:21.50	72.94	13.40	-52.1	-56.6	3.7	0.00e+00	0	49	104	0	75	24665
2026-01-15 19:58:22.49	73.23	13.43	-52.1	-56.6	3.7	0.00e+00	0	49	104	0	75	24564
2026-01-15 19:58:23.49	73.52	13.46	-51.9	-56.4	3.7	0.00e+00	0	49	104	0	75	24183
2026-01-15 19:58:24.50	73.82	13.49	-51.6	-56.0	3.7	0.00e+00	0	49	104	0	75	23066
2026-01-15 19:58:25.50	74.12	13.52	-51.5	-55.7	3.7	0.00e+00	0	49	104	0	75	22127
2026-01-15 19:58:26.50	74.42	13.54	-51.4	-55.5	3.7	0.00e+00	0	49	104	0	74	23089
2026-01-15 19:58:27.50	74.71	13.57	-51.4	-55.5	3.7	0.00e+00	0	49	104	0	74	23125
2026-01-15 19:58:28.50	75.01	13.60	-51.7	-55.9	3.7	0.00e+00	0	49	104	0	74	24161
2026-01-15 19:58:29.50	75.31	13.63	-51.7	-55.9	3.7	0.00e+00	0	49	104	0	74	24128
2026-01-15 19:58:30.51	75.61	13.65	-51.5	-55.6	3.7	0.00e+00	0	49	104	0	74	23184
2026-01-15 19:58:31.51	75.92	13.68	-51.4	-55.5	3.7	0.00e+00	0	49	104	0	74	23121
2026-01-15 19:58:32.51	76.22	13.70	-51.4	-55.8	3.7	0.00e+00	0	49	104	0	74	23869
2026-01-15 19:58:33.51	76.52	13.73	-51.5	-56.0	3.7	0.00e+00	0	49	104	0	74	24522
2026-01-15 19:58:34.51	76.82	13.75	-51.5	-56.1	3.7	0.00e+00	0	49	104	0	74	24732
2026-01-15 19:58:35.51	77.12	13.77	-51.4	-55.8	3.7	0.00e+00	0	49	104	0	74	23951
2026-01-15 19:58:36.52	77.43	13.80	-51.6	-55.7	3.7	0.00e+00	0	49	104	0	74	23553
2026-01-15 19:58:37.52	77.73	13.82	-51.8	-56.0	3.7	0.00e+00	0	49	104	0	74	24502
2026-01-15 19:58:38.52	78.04	13.84	-51.5	-56.0	3.7	0.00e+00	0	49	104	0	74	24262
2026-01-15 19:58:39.52	78.34	13.86	-51.2	-55.6	3.7	0.00e+00	0	49	104	0	74	23200
2026-01-15 19:58:40.52	78.65	13.88	-51.2	-55.6	3.7	0.00e+00	0	49	104	0	74	23205
2026-01-15 19:58:41.52	78.95	13.90	-51.3	-55.5	3.7	0.00e+00	0	49	104	0	74	23095
2026-01-15 19:58:42.52	79.26	13.92	-51.4	-55.7	3.7	0.00e+00	0	49	104	0	74	23601
2026-01-15 19:58:43.52	79.57	13.94	-51.7	-56.1	3.7	0.00e+00	0	50	104	0	74	24695
2026-01-15 19:58:44.52	79.88	13.95	-51.9	-56.5	3.7	0.00e+00	0	49	104	0	74	25904
2026-01-15 19:58:45.52	80.18	13.97	-51.4	-56.1	3.7	0.00e+00	0	49	104	0	74	24661
2026-01-15 19:58:46.52	80.49	13.99	-51.2	-55.8	3.7	0.00e+00	0	49	104	0	74	23886
2026-01-15 19:58:47.53	80.80	14.00	-50.6	-55.1	3.7	0.00e+00	0	49	104	0	73	23152
2026-01-15 19:58:48.53	81.11	14.02	-50.5	-55.2	3.7	0.00e+00	0	49	104	0	73	23427
2026-01-15 19:58:49.53	81.42	14.03	-50.6	-55.2	3.7	0.00e+00	0	49	104	0	73	23575
2026-01-15 19:58:50.53	81.73	14.04	-51.0	-55.5	3.7	0.00e+00	0	49	104	0	73	24498
2026-01-15 19:58:51.53	82.04	14.06	-51.0	-55.4	3.7	0.00e+00	0	49	104	0	73	24047
2026-01-15 19:58:52.54	82.35	14.07	-50.7	-55.2	3.7	0.00e+00	0	49	104	0	73	23446
2026-01-15 19:58:53.53	82.66	14.08	-50.4	-55.5	3.7	0.00e+00	0	49	104	0	72	25843
2026-01-15 19:58:54.53	82.97	14.09	-50.3	-55.6	3.7	0.00e+00	0	49	104	0	72	26091
2026-01-15 19:58:55.54	83.29	14.10	-50.1	-55.1	3.7	0.00e+00	0	49	104	0	72	24698
2026-01-15 19:58:56.54	83.60	14.11	-50.3	-55.5	3.7	0.00e+00	0	49	104	0	72	25683
2026-01-15 19:58:57.54	83.91	14.12	-50.6	-55.7	3.7	0.00e+00	0	49	104	0	72	26429
2026-01-15 19:58:58.54	84.22	14.13	-50.5	-55.7	3.7	0.00e+00	0	49	104	0	72	26325
2026-01-15 19:58:59.54	84.54	14.13	-50.3	-55.5	3.7	0.00e+00	0	49	104	0	72	25780
2026-01-15 19:59:00.55	84.85	14.14	-50.4	-55.6	3.7	0.00e+00	0	49	104	0	72	26071
2026-01-15 19:59:01.55	85.16	14.15	-50.5	-55.7	3.7	0.00e+00	0	49	104	0	72	26484
2026-01-15 19:59:02.55	85.48	14.15	-50.6	-55.8	3.7	0.00e+00	0	49	104	0	72	26602
2026-01-15 19:59:03.55	85.79	14.16	-50.5	-55.4	3.7	0.00e+00	0	50	104	0	72	25429
2026-01-15 19:59:04.56	86.10	14.16	-50.1	-54.6	3.7	0.00e+00	0	49	104	0	72	23326
2026-01-15 19:59:05.55	86.41	14.16	-50.1	-54.5	3.7	0.00e+00	0	49	104	0	72	23110
2026-01-15 19:59:06.56	86.73	14.17	-50.2	-54.5	3.7	0.00e+00	0	49	104	0	72	23130
2026-01-15 19:59:07.56	87.04	14.17	-50.7	-55.0	3.7	0.00e+00	0	49	104	0	72	24420
2026-01-15 19:59:08.56	87.36	14.17	-51.0	-55.4	3.7	0.00e+00	0	49	104	0	72	25497
2026-01-15 19:59:09.57	87.67	14.17	-51.2	-55.8	3.7	0.00e+00	0	49	104	0	73	25195
2026-01-15 19:59:10.57	87.99	14.17	-51.0	-55.9	3.7	0.00e+00	0	49	104	0	73	25569
2026-01-15 19:59:11.57	88.30	14.17	-51.1	-56.1	3.7	0.00e+00	0	49	104	0	73	25988
2026-01-15 19:59:12.57	88.61	14.17	-50.9	-55.7	3.7	0.00e+00	0	49	104	0	73	25083
2026-01-15 19:59:13.57	88.93	14.16	-50.7	-55.5	3.7	0.00e+00	0	49	104	0	73	24452
2026-01-15 19:59:14.57	89.24	14.16	-50.8	-55.5	3.7	0.00e+00	0	49	104	0	73	24443
2026-01-15 19:59:15.57	89.55	14.16	-51.0	-55.7	3.7	0.00e+00	0	50	104	0	73	24962
2026-01-15 19:59:16.57	89.87	14.15	-51.4	-56.0	3.7	0.00e+00	0	49	104	0	73	25869
2026-01-15 19:59:17.57	90.18	14.15	-51.4	-55.9	3.7	0.00e+00	0	49	104	0	73	25649
2026-01-15 19:59:18.57	90.49	14.14	-51.4	-55.9	3.7	0.00e+00	0	49	104	0	73	25406
2026-01-15 19:59:19.57	90.80	14.13	-51.5	-55.9	3.7	0.00e+00	0	49	104	0	73	25676
2026-01-15 19:59:20.57	91.12	14.13	-51.6	-56.1	3.7	0.00e+00	0	49	104	0	73	26013
2026-01-15 19:59:21.58	91.43	14.12	-51.5	-56.2	3.7	0.00e+00	0	49	104	0	73	26282
2026-01-15 19:59:22.58	91.74	14.11	-51.6	-56.2	3.7	0.00e+00	0	49	104	0	73	26347
2026-01-15 19:59:23.58	92.06	14.10	-51.7	-56.2	3.7	0.00e+00	0	49	104	0	74	24926
2026-01-15 19:59:24.58	92.37	14.09	-51.9	-56.3	3.7	0.00e+00	0	49	104	0	74	25300
2026-01-15 19:59:25.58	92.68	14.08	-51.8	-56.1	3.7	0.00e+00	0	49	104	0	74	24638
2026-01-15 19:59:26.58	92.99	14.07	-51.7	-56.1	3.7	0.00e+00	0	49	104	0	74	24665
2026-01-15 19:59:27.59	93.30	14.06	-51.7	-56.0	3.7	0.00e+00	0	49	104	0	74	24456
2026-01-15 19:59:28.58	93.61	14.04	-51.9	-56.1	3.7	0.00e+00	0	49	104	0	74	24727
2026-01-15 19:59:29.58	93.92	14.03	-51.9	-56.4	3.7	0.00e+00	0	49	104	0	74	25530
2026-01-15 19:59:30.58	94.23	14.02	-52.0	-56.4	3.7	0.00e+00	0	49	104	0	74	25636
2026-01-15 19:59:31.59	94.54	14.00	-51.9	-56.4	3.7	0.00e+00	0	49	104	0	74	25549
2026-01-15 19:59:32.59	94.85	13.99	-52.0	-56.4	3.7	0.00e+00	0	49	104	0	74	25527
2026-01-15 19:59:33.59	95.16	13.97	-52.1	-56.7	3.7	0.00e+00	0	49	104	0	74	26420
2026-01-15 19:59:34.59	95.47	13.95	-52.2	-56.7	3.7	0.00e+00	0	49	104	0	75	25065
2026-01-15 19:59:35.59	95.78	13.94	-52.2	-56.7	3.7	0.00e+00	0	49	104	0	75	24984
2026-01-15 19:59:36.59	96.09	13.92	-52.2	-56.7	3.7	0.00e+00	0	49	104	0	75	25011
2026-01-15 19:59:37.59	96.39	13.90	-52.1	-56.5	3.7	0.00e+00	0	49	104	0	75	24476
2026-01-15 19:59:38.59	96.70	13.88	-52.0	-56.3	3.7	0.00e+00	0	49	104	0	75	23795
2026-01-15 19:59:39.59	97.01	13.86	-51.9	-56.3	3.7	0.00e+00	0	49	104	0	75	23731
2026-01-15 19:59:40.59	97.31	13.84	-51.9	-56.2	3.7	0.00e+00	0	50	104	0	75	23462
2026-01-15 19:59:41.59	97.62	13.82	-51.9	-56.3	3.7	0.00e+00	0	49	104	0	75	23862
2026-01-15 19:59:42.59	97.92	13.80	-52.1	-56.5	3.7	0.00e+00	0	49	104	0	75	24471
2026-01-15 19:59:43.59	98.23	13.77	-52.1	-56.5	3.7	0.00e+00	0	49	104	0	75	24269
2026-01-15 19:59:44.59	98.53	13.75	-52.1	-56.5	3.7	0.00e+00	0	49	104	0	75	24365
2026-01-15 19:59:45.60	98.84	13.73	-52.1	-56.6	3.7	0.00e+00	0	50	104	0	75	24531
2026-01-15 19:59:46.60	99.14	13.70	-52.0	-56.5	3.7	0.00e+00	0	49	104	0	75	24254
2026-01-15 19:59:47.60	99.44	13.68	-51.9	-56.4	3.7	0.00e+00	0	49	104	0	75	24049
2026-01-15 19:59:48.60	99.74	13.65	-51.9	-56.3	3.7	0.00e+00	0	49	104	0	75	23914
2026-01-15 19:59:49.60	100.04	13.62	-52.0	-56.4	3.7	0.00e+00	0	49	104	0	75	24100
2026-01-15 19:59:50.60	100.34	13.60	-52.0	-56.3	3.7	0.00e+00	0	49	104	0	75	23940
2026-01-15 19:59:51.60	100.64	13.57	-51.9	-56.2	3.7	0.00e+00	0	49	104	0	75	23562
2026-01-15 19:59:52.60	100.94	13.54	-51.9	-56.1	3.7	0.00e+00	0	49	104	0	75	23338
2026-01-15 19:59:53.60	101.24	13.51	-52.1	-56.6	3.6	0.00e+00	0	49	104	0	75	24668
2026-01-15 19:59:54.61	101.54	13.48	-52.2	-56.7	3.7	0.00e+00	0	49	104	0	75	25076
2026-01-15 19:59:55.61	101.84	13.45	-52.2	-56.7	3.7	0.00e+00	0	49	104	0	75	25029
2026-01-15 19:59:56.61	102.13	13.42	-52.2	-56.7	3.7	0.00e+00	0	49	104	0	75	24992
2026-01-15 19:59:57.61	102.43	13.39	-52.2	-56.7	3.7	0.00e+00	0	49	104	0	75	24901
2026-01-15 19:59:58.61	102.72	13.36	-52.1	-56.6	3.7	0.00e+00	0	50	104	0	75	24754
2026-01-15 19:59:59.61	103.02	13.33	-52.1	-56.5	3.7	0.00e+00	0	49	104	0	75	24511
2026-01-15 20:00:00.61	103.31	13.30	-52.0	-56.5	3.7	0.00e+00	0	49	104	0	75	24431
2026-01-15 20:00:01.61	103.60	13.26	-52.1	-56.6	3.7	0.00e+00	0	49	104	0	75	24610
2026-01-15 20:00:02.61	103.90	13.23	-52.1	-56.6	3.7	0.00e+00	0	50	104	0	75	24768
2026-01-15 20:00:03.61	104.19	13.20	-52.0	-56.6	3.7	0.00e+00	0	49	104	0	75	24569
2026-01-15 20:00:04.61	104.48	13.16	-52.0	-56.6	3.7	0.00e+00	0	50	104	0	75	24579
2026-01-15 20:00:05.61	104.77	13.13	-52.1	-56.6	3.7	0.00e+00	0	50	104	0	75	24793
2026-01-15 20:00:06.61	105.05	13.09	-52.2	-56.7	3.7	0.00e+00	0	49	104	0	75	24934
2026-01-15 20:00:07.61	105.34	13.05	-52.1	-56.7	3.7	0.00e+00	0	49	104	0	75	25012
2026-01-15 20:00:08.61	105.63	13.02	-52.1	-56.7	3.7	0.00e+00	0	49	104	0	75	24931
2026-01-15 20:00:09.62	105.92	12.98	-51.9	-56.5	3.7	0.00e+00	0	49	104	0	75	24509
2026-01-15 20:00:10.62	106.20	12.94	-51.8	-56.4	3.7	0.00e+00	0	49	104	0	75	24204
2026-01-15 20:00:11.62	106.49	12.90	-52.0	-56.5	3.7	0.00e+00	0	49	104	0	75	24463
2026-01-15 20:00:12.62	106.77	12.87	-51.9	-56.5	3.7	0.00e+00	0	49	104	0	75	24291
2026-01-15 20:00:13.63	107.06	12.83	-51.9	-56.5	3.7	0.00e+00	0	49	104	0	75	24411
2026-01-15 20:00:14.63	107.34	12.79	-52.2	-56.7	3.7	0.00e+00	0	50	104	0	75	24848
2026-01-15 20:00:15.63	107.62	12.75	-52.2	-56.6	3.7	0.00e+00	0	49	104	0	75	24693
2026-01-15 20:00:16.63	107.90	12.71	-52.1	-56.6	3.7	0.00e+00	0	49	104	0	75	24669
2026-01-15 20:00:17.63	108.18	12.66	-52.2	-56.6	3.7	0.00e+00	0	50	104	0	75	24536
2026-01-15 20:00:18.63	108.45	12.62	-52.2	-56.7	3.7	0.00e+00	0	49	104	0	75	24972
2026-01-15 20:00:19.64	108.73	12.58	-52.0	-56.6	3.7	0.00e+00	0	49	104	0	75	24698
2026-01-15 20:00:20.63	109.01	12.54	-52.0	-56.6	3.7	0.00e+00	0	49	104	0	75	24680
2026-01-15 20:00:21.63	109.28	12.50	-51.9	-56.4	3.7	0.00e+00	0	49	104	0	75	24138
2026-01-15 20:00:22.64	109.56	12.45	-51.7	-56.4	3.7	0.00e+00	0	50	104	0	75	24232
2026-01-15 20:00:23.63	109.83	12.41	-51.5	-56.3	3.7	0.00e+00	0	49	104	0	75	23768
2026-01-15 20:00:24.63	110.10	12.37	-51.6	-56.3	3.7	0.00e+00	0	49	104	0	75	23784
2026-01-15 20:00:25.63	110.37	12.32	-51.6	-56.3	3.7	0.00e+00	0	49	104	0	75	23783
2026-01-15 20:00:26.63	110.64	12.28	-51.4	-56.1	3.7	0.00e+00	0	50	104	0	74	24637
2026-01-15 20:00:27.64	110.92	12.23	-51.6	-56.3	3.7	0.00e+00	0	49	104	0	74	25140
2026-01-15 20:00:28.64	111.18	12.18	-51.5	-56.2	3.7	0.00e+00	0	49	104	0	74	25010
2026-01-15 20:00:29.64	111.45	12.14	-51.7	-56.4	3.7	0.00e+00	0	49	104	0	74	25467
2026-01-15 20:00:30.65	111.72	12.09	-51.6	-56.4	3.7	0.00e+00	0	49	104	0	74	25388
2026-01-15 20:00:31.65	111.99	12.05	-51.9	-56.5	3.7	0.00e+00	0	49	104	0	74	25766
2026-01-15 20:00:32.65	112.25	12.00	-51.8	-56.4	3.7	0.00e+00	0	50	104	0	74	25585
2026-01-15 20:00:33.66	112.52	11.95	-52.0	-56.5	3.7	0.00e+00	0	50	104	0	74	25804
2026-01-15 20:00:34.66	112.78	11.90	-52.1	-56.5	3.7	0.00e+00	0	50	104	0	74	25826
2026-01-15 20:00:35.66	113.04	11.85	-52.0	-56.5	3.7	0.00e+00	0	49	104	0	74	25807
2026-01-15 20:00:36.66	113.30	11.81	-52.0	-56.5	3.7	0.00e+00	0	49	104	0	74	25776
2026-01-15 20:00:37.66	113.56	11.76	-52.0	-56.4	3.7	0.00e+00	0	49	104	0	74	25629
2026-01-15 20:00:38.66	113.82	11.71	-52.0	-56.5	3.7	0.00e+00	0	49	104	0	74	25794
2026-01-15 20:00:39.67	114.08	11.66	-52.1	-56.5	3.7	0.00e+00	0	49	104	0	74	25799
2026-01-15 20:00:40.67	114.34	11.61	-52.0	-56.4	3.7	0.00e+00	0	49	104	0	74	25568
2026-01-15 20:00:41.67	114.59	11.56	-52.0	-56.5	3.7	0.00e+00	0	49	104	0	74	25784
2026-01-15 20:00:42.67	114.84	11.51	-52.1	-56.5	3.7	0.00e+00	0	49	104	0	74	25731
2026-01-15 20:00:43.67	115.10	11.46	-52.1	-56.5	3.7	0.00e+00	0	49	104	0	74	25828
2026-01-15 20:00:44.67	115.35	11.41	-52.0	-56.5	3.7	0.00e+00	0	49	104	0	74	25761
2026-01-15 20:00:45.67	115.60	11.36	-52.0	-56.5	3.7	0.00e+00	0	49	104	0	74	25693
2026-01-15 20:00:46.67	115.85	11.30	-52.1	-56.5	3.7	0.00e+00	0	50	104	0	74	25922
2026-01-15 20:00:47.67	116.10	11.25	-51.8	-56.3	3.7	0.00e+00	0	49	104	0	74	25222
2026-01-15 20:00:48.67	116.35	11.20	-51.9	-56.4	3.7	0.00e+00	0	50	104	0	74	25434
2026-01-15 20:00:49.67	116.59	11.15	-51.7	-56.2	3.7	0.00e+00	0	49	104	0	74	24941
2026-01-15 20:00:50.67	116.84	11.10	-51.8	-56.3	3.7	0.00e+00	0	49	104	0	74	25367
2026-01-15 20:00:51.67	117.09	11.04	-52.0	-56.5	3.7	0.00e+00	0	50	104	0	74	25891
2026-01-15 20:00:52.68	117.33	10.99	-51.9	-56.5	3.7	0.00e+00	0	49	104	0	74	25688
2026-01-15 20:00:53.68	117.57	10.94	-51.8	-56.4	3.7	0.00e+00	0	49	104	0	74	25472
2026-01-15 20:00:54.68	117.82	10.88	-52.1	-56.5	3.7	0.00e+00	0	50	104	0	74	25918
2026-01-15 20:00:55.68	118.06	10.83	-51.9	-56.4	3.7	0.00e+00	0	49	104	0	74	25614
2026-01-15 20:00:56.68	118.30	10.77	-51.9	-56.4	3.7	0.00e+00	0	50	104	0	74	25592
2026-01-15 20:00:57.68	118.53	10.72	-51.9	-56.4	3.7	0.00e+00	0	49	104	0	74	25649
2026-01-15 20:00:58.69	118.77	10.67	-51.9	-56.5	3.7	0.00e+00	0	49	104	0	74	25768
2026-01-15 20:00:59.68	119.01	10.61	-51.9	-56.4	3.7	0.00e+00	0	49	104	0	74	25477
2026-01-15 20:01:00.69	119.25	10.56	-51.9	-56.4	3.7	0.00e+00	0	49	104	0	74	25646
2026-01-15 20:01:01.69	119.48	10.50	-51.8	-56.3	3.7	0.00e+00	0	50	104	0	74	25333
2026-01-15 20:01:02.69	119.71	10.45	-52.0	-56.6	3.7	0.00e+00	0	50	104	0	74	26043
2026-01-15 20:01:03.69	119.94	10.39	-52.0	-56.6	3.7	0.00e+00	0	49	104	0	74	26029
2026-01-15 20:01:04.69	120.18	10.33	-51.9	-56.6	3.7	0.00e+00	0	50	104	0	74	26009
2026-01-15 20:01:05.69	120.41	10.28	-51.8	-56.4	3.7	0.00e+00	0	49	104	0	74	25629
2026-01-15 20:01:06.69	120.63	10.22	-51.9	-56.4	3.7	0.00e+00	0	50	104	0	74	25613
2026-01-15 20:01:07.69	120.86	10.17	-51.8	-56.2	3.7	0.00e+00	0	49	104	0	74	24968
2026-01-15 20:01:08.69	121.09	10.11	-51.8	-56.2	3.7	0.00e+00	0	49	104	0	74	24925
2026-01-15 20:01:09.69	121.31	10.05	-51.7	-56.0	3.7	0.00e+00	0	50	104	0	74	24317
2026-01-15 20:01:10.69	121.54	10.00	-51.7	-56.1	3.7	0.00e+00	0	49	104	0	74	24583
2026-01-15 20:01:11.69	121.76	9.94	-51.6	-56.0	3.7	0.00e+00	0	49	104	0	74	24361
2026-01-15 20:01:12.69	121.99	9.88	-51.6	-55.9	3.7	0.00e+00	0	49	104	0	74	24188
2026-01-15 20:01:13.70	122.21	9.83	-51.5	-55.8	3.7	0.00e+00	0	50	104	0	74	23883
2026-01-15 20:01:14.70	122.43	9.77	-51.7	-56.2	3.7	0.00e+00	0	50	104	0	74	24989
2026-01-15 20:01:15.70	122.65	9.71	-51.7	-56.2	3.7	0.00e+00	0	50	104	0	74	25000
2026-01-15 20:01:16.70	122.87	9.65	-51.7	-56.1	3.7	0.00e+00	0	50	104	0	74	24798
2026-01-15 20:01:17.70	123.08	9.60	-51.8	-56.3	3.7	0.00e+00	0	49	104	0	74	25177
2026-01-15 20:01:18.69	123.30	9.54	-51.8	-56.2	3.7	0.00e+00	0	49	104	0	74	25071
2026-01-15 20:01:19.70	123.52	9.48	-51.7	-56.0	3.7	0.00e+00	0	50	104	0	74	24464
2026-01-15 20:01:20.70	123.73	9.42	-51.6	-56.0	3.7	0.00e+00	0	49	104	0	74	24482
2026-01-15 20:01:21.70	123.94	9.36	-51.7	-56.1	3.7	0.00e+00	0	49	104	0	74	24778
2026-01-15 20:01:22.70	124.16	9.31	-51.7	-56.1	3.7	0.00e+00	0	50	104	0	74	24769
2026-01-15 20:01:23.70	124.37	9.25	-51.4	-56.0	3.7	0.00e+00	0	49	104	0	74	24349
2026-01-15 20:01:24.71	124.58	9.19	-51.5	-56.0	3.7	0.00e+00	0	50	104	0	74	24317
2026-01-15 20:01:25.71	124.79	9.13	-51.6	-56.2	3.7	0.00e+00	0	49	104	0	74	24883
2026-01-15 20:01:26.71	125.00	9.07	-51.6	-56.3	3.7	0.00e+00	0	49	104	0	74	25159
2026-01-15 20:01:27.71	125.20	9.01	-51.8	-56.3	3.7	0.00e+00	0	49	104	0	74	25253
2026-01-15 20:01:28.71	125.41	8.95	-52.1	-56.5	3.7	0.00e+00	0	49	104	0	74	25821
2026-01-15 20:01:29.70	125.61	8.89	-52.2	-56.7	3.7	0.00e+00	0	49	104	0	75	24874
2026-01-15 20:01:30.70	125.82	8.84	-52.3	-56.7	3.6	0.00e+00	0	50	104	0	75	25006
2026-01-15 20:01:31.69	126.02	8.78	-52.2	-56.8	3.7	0.00e+00	0	49	104	0	75	25189
2026-01-15 20:01:32.69	126.22	8.72	-52.0	-56.4	3.7	0.00e+00	0	49	104	0	75	24077
2026-01-15 20:01:33.69	126.42	8.66	-51.6	-56.5	3.7	0.00e+00	0	49	104	0	75	24340
2026-01-15 20:01:34.68	126.62	8.60	-52.3	-56.8	3.7	0.00e+00	0	49	104	0	75	25189
2026-01-15 20:01:35.68	126.82	8.54	-52.3	-56.6	3.7	0.00e+00	0	50	104	0	75	24581
2026-01-15 20:01:36.68	127.02	8.48	-52.1	-56.7	3.7	0.00e+00	0	49	104	0	75	24951
2026-01-15 20:01:37.68	127.21	8.42	-52.3	-56.9	3.7	0.00e+00	0	49	104	0	75	25641
2026-01-15 20:01:38.67	127.41	8.36	-52.6	-57.0	3.7	0.00e+00	0	50	104	0	75	25877
2026-01-15 20:01:39.67	127.60	8.30	-51.7	-56.7	3.7	0.00e+00	0	49	104	0	75	24959
2026-01-15 20:01:40.67	127.80	8.24	-51.7	-56.5	3.7	0.00e+00	0	50	104	0	75	24486
2026-01-15 20:01:41.66	127.99	8.18	-51.9	-56.6	3.7	0.00e+00	0	49	104	0	75	24805
2026-01-15 20:01:42.66	128.18	8.12	-51.8	-56.5	3.7	0.00e+00	0	49	104	0	75	24412
2026-01-15 20:01:43.66	128.37	8.06	-51.5	-56.6	3.7	0.00e+00	0	50	104	0	74	26148
2026-01-15 20:01:44.66	128.56	8.00	-51.5	-56.5	3.7	0.00e+00	0	49	104	0	74	25843
2026-01-15 20:01:45.65	128.75	7.94	-51.2	-56.1	3.7	0.00e+00	0	49	104	0	74	24639
2026-01-15 20:01:46.65	128.94	7.88	-51.2	-56.0	3.7	0.00e+00	0	49	104	0	74	24442
2026-01-15 20:01:47.65	129.12	7.82	-51.4	-55.7	3.7	0.00e+00	0	49	104	0	74	23677
2026-01-15 20:01:48.64	129.31	7.77	-51.6	-56.1	3.7	0.00e+00	0	49	104	0	74	24583
2026-01-15 20:01:49.64	129.49	7.71	-51.6	-56.1	3.7	0.00e+00	0	50	104	0	74	24702
2026-01-15 20:01:50.63	129.68	7.65	-51.6	-56.1	3.7	0.00e+00	0	49	104	0	74	24614
2026-01-15 20:01:51.63	129.86	7.59	-51.6	-56.1	3.7	0.00e+00	0	49	104	0	74	24603
2026-01-15 20:01:52.63	130.04	7.53	-51.6	-56.1	3.7	0.00e+00	0	49	104	0	74	24529
2026-01-15 20:01:53.62	130.22	7.47	-51.6	-56.1	3.7	0.00e+00	0	49	104	0	74	24588
2026-01-15 20:01:54.62	130.40	7.41	-51.6	-56.1	3.7	0.00e+00	0	49	104	0	74	24564
2026-01-15 20:01:55.62	130.59	7.35	-51.6	-56.0	3.7	0.00e+00	0	49	104	0	74	24501
2026-01-15 20:01:56.61	130.76	7.29	-51.6	-56.0	3.7	0.00e+00	0	49	104	0	74	24518
2026-01-15 20:01:57.61	130.94	7.23	-51.6	-56.1	3.7	0.00e+00	0	49	104	0	74	24584
2026-01-15 20:01:58.60	131.12	7.17	-51.6	-56.0	3.7	0.00e+00	0	49	104	0	74	24516
2026-01-15 20:01:59.60	131.29	7.11	-51.6	-56.1	3.7	0.00e+00	0	50	104	0	74	24525
2026-01-15 20:02:00.59	131.47	7.05	-51.6	-56.0	3.7	0.00e+00	0	49	104	0	74	24506
2026-01-15 20:02:01.59	131.64	6.99	-51.6	-56.0	3.7	0.00e+00	0	49	104	0	74	24470
2026-01-15 20:02:02.59	131.82	6.93	-51.6	-56.0	3.7	0.00e+00	0	49	104	0	74	24465
2026-01-15 20:02:03.58	131.99	6.87	-51.6	-56.1	3.7	0.00e+00	0	49	104	0	74	24578
2026-01-15 20:02:04.58	132.16	6.81	-51.6	-56.1	3.7	0.00e+00	0	49	104	0	74	24537
2026-01-15 20:02:05.58	132.33	6.75	-51.6	-56.1	3.7	0.00e+00	0	49	104	0	74	24550
2026-01-15 20:02:06.57	132.50	6.69	-51.6	-56.0	3.7	0.00e+00	0	50	104	0	74	24452
2026-01-15 20:02:07.57	132.67	6.63	-51.6	-56.0	3.7	0.00e+00	0	49	104	0	74	24467
2026-01-15 20:02:08.57	132.84	6.57	-51.6	-56.0	3.7	0.00e+00	0	49	104	0	74	24511
2026-01-15 20:02:09.56	133.00	6.51	-51.6	-56.0	3.7	0.00e+00	0	49	104	0	74	24414
2026-01-15 20:02:10.56	133.17	6.45	-51.6	-56.0	3.7	0.00e+00	0	49	104	0	74	24454
2026-01-15 20:02:11.56	133.34	6.39	-51.6	-56.0	3.7	0.00e+00	0	49	104	0	74	24480
2026-01-15 20:02:12.55	133.50	6.33	-51.6	-56.0	3.7	0.00e+00	0	49	104	0	74	24444
2026-01-15 20:02:13.55	133.66	6.27	-51.5	-56.0	3.7	0.00e+00	0	49	104	0	74	24437
2026-01-15 20:02:14.55	133.83	6.21	-51.6	-56.0	3.7	0.00e+00	0	49	104	0	74	24487
2026-01-15 20:02:15.55	133.99	6.15	-51.6	-56.0	3.7	0.00e+00	0	49	104	0	74	24465
2026-01-15 20:02:16.55	134.15	6.09	-51.5	-56.0	3.7	0.00e+00	0	49	104	0	74	24399
2026-01-15 20:02:17.54	134.31	6.03	-51.6	-56.0	3.7	0.00e+00	0	49	104	0	74	24435
2026-01-15 20:02:18.54	134.47	5.97	-51.6	-56.0	3.7	0.00e+00	0	49	104	0	74	24355
2026-01-15 20:02:19.54	134.63	5.91	-51.6	-56.0	3.7	0.00e+00	0	49	104	0	74	24400
2026-01-15 20:02:20.53	134.79	5.85	-51.6	-56.0	3.7	0.00e+00	0	49	104	0	74	24424
2026-01-15 20:02:21.53	134.95	5.79	-51.6	-56.0	3.7	0.00e+00	0	49	104	0	74	24456
2026-01-15 20:02:22.53	135.10	5.73	-51.6	-56.0	3.7	0.00e+00	0	49	104	0	74	24463
2026-01-15 20:02:23.52	135.26	5.67	-51.6	-56.0	3.7	0.00e+00	0	49	104	0	74	24429
2026-01-15 20:02:24.52	135.41	5.61	-51.6	-56.0	3.7	0.00e+00	0	49	104	0	74	24444
2026-01-15 20:02:25.52	135.57	5.55	-51.6	-56.0	3.7	0.00e+00	0	49	104	0	74	24461
2026-01-15 20:02:26.51	135.72	5.49	-51.5	-56.0	3.7	0.00e+00	0	49	104	0	74	24445
2026-01-15 20:02:27.51	135.87	5.43	-51.6	-56.0	3.7	0.00e+00	0	49	104	0	74	24369
2026-01-15 20:02:28.50	136.02	5.37	-51.5	-56.0	3.7	0.00e+00	0	49	104	0	74	24361
2026-01-15 20:02:29.50	136.17	5.31	-51.5	-56.0	3.7	0.00e+00	0	49	104	0	74	24409
2026-01-15 20:02:30.49	136.32	5.25	-51.5	-56.0	3.7	0.00e+00	0	49	104	0	74	24361
2026-01-15 20:02:31.49	136.47	5.19	-51.6	-56.0	3.7	0.00e+00	0	49	104	0	74	24358
2026-01-15 20:02:32.48	136.62	5.14	-51.5	-56.0	3.7	0.00e+00	0	49	104	0	74	24353
2026-01-15 20:02:33.48	136.77	5.08	-51.5	-56.0	3.7	0.00e+00	0	49	104	0	74	24465
2026-01-15 20:02:34.48	136.92	5.02	-51.5	-56.0	3.7	0.00e+00	0	49	104	0	74	24378
2026-01-15 20:02:35.47	137.06	4.96	-51.5	-56.0	3.7	0.00e+00	0	49	104	0	74	24483

#Closed at: 2026-01-15 20:02:36
#Recorded file [0 MB]: D:/Data/31040_260115_225543.dat