passes_logs/2026/01/15/T1/T1__20260115_083428_KHAYYAM_rec.log

#Pass ID: 20260115_083428_KHAYYAM
#Satellite: KHAYYAM
#Configuration: KHAYYAM_480M
#almurnet v.1.7.20251203
#Start time: 2026-01-15 08:34:30

#Version: 2.0.20230620
#Station: T1
#Location: 37.570604 lon 55.790049 lat
#TLE: 1 53370U 22096A   26014.69422851  .00010074  00000+0  41151-3 0  9993
#TLE: 2 53370  97.3560 281.7091 0001556 106.8298 253.3111 15.24576057191198

#Time	Az	El	Level	Level2	SNR	BER	BlckErr	Temp	State	Recorded	gain1	gain2
2026-01-15 08:34:30.38	190.16	2.87	-53.2	-58.1	3.5	0.00e+00	0	41	0	0	78	24649
2026-01-15 08:34:31.37	190.23	2.94	-53.2	-58.1	3.7	0.00e+00	0	41	104	0	77	26005
2026-01-15 08:34:32.36	190.29	3.01	-53.2	-58.1	3.7	0.00e+00	0	41	104	0	77	26007
2026-01-15 08:34:33.36	190.36	3.08	-53.2	-58.0	3.7	0.00e+00	0	41	104	0	77	25974
2026-01-15 08:34:34.35	190.42	3.15	-53.2	-58.1	3.7	0.00e+00	0	41	104	0	77	26043
2026-01-15 08:34:35.35	190.49	3.22	-53.2	-58.0	3.7	0.00e+00	0	41	104	0	77	25939
2026-01-15 08:34:36.34	190.55	3.29	-53.1	-58.0	3.7	0.00e+00	0	41	104	0	77	25902
2026-01-15 08:34:37.34	190.62	3.36	-53.1	-58.0	3.7	0.00e+00	0	41	104	0	77	25919
2026-01-15 08:34:38.33	190.69	3.43	-53.2	-58.0	3.7	0.00e+00	0	41	104	0	77	25975
2026-01-15 08:34:39.33	190.75	3.50	-53.2	-58.1	3.7	0.00e+00	0	42	104	0	77	26010
2026-01-15 08:34:40.33	190.82	3.57	-53.1	-58.0	3.7	0.00e+00	0	42	104	0	77	25871
2026-01-15 08:34:41.32	190.89	3.64	-53.1	-58.0	3.7	0.00e+00	0	42	104	0	77	25897
2026-01-15 08:34:42.32	190.96	3.71	-53.1	-58.0	3.7	0.00e+00	0	42	104	0	77	25924
2026-01-15 08:34:43.32	191.03	3.79	-53.1	-58.0	3.7	0.00e+00	0	42	104	0	77	25885
2026-01-15 08:34:44.31	191.10	3.86	-53.1	-58.0	3.7	0.00e+00	0	42	104	0	77	25943
2026-01-15 08:34:45.31	191.17	3.93	-53.1	-58.1	3.7	0.00e+00	0	42	104	0	77	25977
2026-01-15 08:34:46.31	191.24	4.00	-53.1	-58.0	3.7	0.00e+00	0	42	104	0	77	25938
2026-01-15 08:34:47.31	191.31	4.08	-53.1	-57.9	3.7	0.00e+00	0	42	104	0	77	25660
2026-01-15 08:34:48.30	191.38	4.15	-53.1	-58.0	3.7	0.00e+00	0	42	104	0	77	25753
2026-01-15 08:34:49.30	191.45	4.22	-53.1	-58.0	3.7	0.00e+00	0	42	104	0	77	25873
2026-01-15 08:34:50.30	191.52	4.30	-53.1	-58.0	3.7	0.00e+00	0	42	104	0	77	25831
2026-01-15 08:34:51.29	191.59	4.37	-53.1	-58.0	3.7	0.00e+00	0	42	104	0	77	25779
2026-01-15 08:34:52.28	191.67	4.44	-53.1	-58.0	3.7	0.00e+00	0	43	104	0	77	25779
2026-01-15 08:34:53.28	191.74	4.52	-53.1	-58.0	3.7	0.00e+00	0	43	104	0	77	25772
2026-01-15 08:34:54.28	191.81	4.59	-53.1	-58.0	3.7	0.00e+00	0	43	104	0	77	25802
2026-01-15 08:34:55.27	191.89	4.67	-53.1	-58.0	3.7	0.00e+00	0	43	104	0	77	25811
2026-01-15 08:34:56.27	191.96	4.74	-53.1	-58.0	3.7	0.00e+00	0	43	104	0	77	25806
2026-01-15 08:34:57.26	192.04	4.82	-53.1	-58.0	3.7	0.00e+00	0	43	104	0	77	25796
2026-01-15 08:34:58.26	192.11	4.89	-53.1	-58.0	3.7	0.00e+00	0	43	104	0	77	25763
2026-01-15 08:34:59.26	192.19	4.97	-53.1	-58.0	3.7	0.00e+00	0	43	104	0	77	25791
2026-01-15 08:35:00.26	192.27	5.05	-53.1	-58.0	3.7	0.00e+00	0	43	104	0	77	25734
2026-01-15 08:35:01.25	192.34	5.12	-53.1	-58.0	3.7	0.00e+00	0	43	104	0	77	25790
2026-01-15 08:35:02.25	192.42	5.20	-53.1	-58.0	3.7	0.00e+00	0	43	104	0	77	25807
2026-01-15 08:35:03.25	192.50	5.27	-53.1	-58.0	3.7	0.00e+00	0	43	104	0	77	25684
2026-01-15 08:35:04.25	192.58	5.35	-53.1	-58.0	3.7	0.00e+00	0	43	104	0	77	25762
2026-01-15 08:35:05.24	192.66	5.43	-53.1	-58.0	3.7	0.00e+00	0	43	104	0	77	25785
2026-01-15 08:35:06.24	192.74	5.51	-53.1	-58.0	3.7	0.00e+00	0	43	104	0	77	25702
2026-01-15 08:35:07.23	192.81	5.58	-53.1	-58.0	3.7	0.00e+00	0	43	104	0	77	25769
2026-01-15 08:35:08.23	192.90	5.66	-53.1	-58.0	3.7	0.00e+00	0	43	104	0	77	25732
2026-01-15 08:35:09.23	192.98	5.74	-53.1	-57.9	3.7	0.00e+00	0	43	104	0	77	25611
2026-01-15 08:35:10.23	193.06	5.82	-53.1	-58.0	3.7	0.00e+00	0	44	104	0	77	25719
2026-01-15 08:35:11.23	193.14	5.90	-53.1	-58.0	3.7	0.00e+00	0	43	104	0	77	25710
2026-01-15 08:35:12.22	193.22	5.98	-53.1	-58.0	3.7	0.00e+00	0	44	104	0	77	25731
2026-01-15 08:35:13.22	193.31	6.06	-53.1	-57.9	3.7	0.00e+00	0	44	104	0	77	25662
2026-01-15 08:35:14.22	193.39	6.14	-53.1	-58.0	3.7	0.00e+00	0	44	104	0	77	25706
2026-01-15 08:35:15.21	193.48	6.22	-53.1	-58.0	3.7	0.00e+00	0	44	104	0	77	25772
2026-01-15 08:35:16.21	193.56	6.30	-53.1	-58.0	3.7	0.00e+00	0	44	104	0	77	25694
2026-01-15 08:35:17.21	193.65	6.38	-53.1	-58.0	3.7	0.00e+00	0	44	104	0	77	25769
2026-01-15 08:35:18.21	193.73	6.46	-53.1	-57.9	3.7	0.00e+00	0	44	104	0	77	25648
2026-01-15 08:35:19.20	193.82	6.54	-53.1	-58.0	3.7	0.00e+00	0	44	104	0	77	25738
2026-01-15 08:35:20.20	193.91	6.62	-53.1	-57.9	3.7	0.00e+00	0	44	104	0	77	25658
2026-01-15 08:35:21.20	194.00	6.71	-53.1	-58.0	3.7	0.00e+00	0	44	104	0	77	25755
2026-01-15 08:35:22.20	194.08	6.79	-53.1	-57.9	3.7	0.00e+00	0	44	104	0	77	25640
2026-01-15 08:35:23.19	194.17	6.87	-53.1	-57.9	3.7	0.00e+00	0	44	104	0	77	25640
2026-01-15 08:35:24.19	194.26	6.95	-53.1	-57.9	3.7	0.00e+00	0	44	104	0	77	25668
2026-01-15 08:35:25.19	194.35	7.04	-53.1	-58.0	3.7	0.00e+00	0	44	104	0	77	25684
2026-01-15 08:35:26.18	194.44	7.12	-53.1	-57.9	3.7	0.00e+00	0	44	104	0	77	25582
2026-01-15 08:35:27.18	194.54	7.21	-53.1	-58.0	3.7	0.00e+00	0	44	104	0	77	25732
2026-01-15 08:35:28.18	194.63	7.29	-53.1	-58.0	3.7	0.00e+00	0	44	104	0	77	25772
2026-01-15 08:35:29.18	194.72	7.37	-53.1	-58.0	3.7	0.00e+00	0	44	104	0	77	25729
2026-01-15 08:35:30.19	194.82	7.46	-53.1	-58.0	3.7	0.00e+00	0	44	104	0	77	25693
2026-01-15 08:35:31.18	194.91	7.55	-53.1	-57.9	3.7	0.00e+00	0	44	104	0	77	25603
2026-01-15 08:35:32.18	195.01	7.63	-53.0	-57.9	3.7	0.00e+00	0	44	104	0	77	25577
2026-01-15 08:35:33.18	195.10	7.72	-53.0	-58.0	3.7	0.00e+00	0	44	104	0	77	25707
2026-01-15 08:35:34.18	195.20	7.80	-53.1	-58.0	3.7	0.00e+00	0	44	104	0	77	25737
2026-01-15 08:35:35.18	195.30	7.89	-53.0	-58.0	3.7	0.00e+00	0	44	104	0	77	25731
2026-01-15 08:35:36.17	195.39	7.98	-53.1	-58.0	3.7	0.00e+00	0	44	104	0	77	25754
2026-01-15 08:35:37.17	195.49	8.06	-53.1	-58.0	3.7	0.00e+00	0	45	104	0	77	25747
2026-01-15 08:35:38.17	195.59	8.15	-53.1	-58.0	3.7	0.00e+00	0	44	104	0	77	25804
2026-01-15 08:35:39.17	195.69	8.24	-53.1	-58.0	3.7	0.00e+00	0	44	104	0	77	25732
2026-01-15 08:35:40.17	195.79	8.33	-53.1	-58.0	3.7	0.00e+00	0	45	104	0	77	25766
2026-01-15 08:35:41.17	195.90	8.42	-53.1	-58.0	3.7	0.00e+00	0	44	104	0	77	25766
2026-01-15 08:35:42.17	196.00	8.51	-53.1	-57.9	3.7	0.00e+00	0	45	104	0	77	25623
2026-01-15 08:35:43.17	196.10	8.60	-53.1	-58.0	3.7	0.00e+00	0	45	104	0	77	25741
2026-01-15 08:35:44.17	196.21	8.69	-53.1	-57.9	3.7	0.00e+00	0	45	104	0	77	25543
2026-01-15 08:35:45.17	196.31	8.78	-53.1	-57.9	3.7	0.00e+00	0	45	104	0	77	25671
2026-01-15 08:35:46.16	196.42	8.87	-53.1	-58.0	3.7	0.00e+00	0	45	104	0	77	25743
2026-01-15 08:35:47.16	196.52	8.96	-53.1	-58.0	3.7	0.00e+00	0	45	104	0	77	25716
2026-01-15 08:35:48.16	196.63	9.05	-53.1	-58.0	3.7	0.00e+00	0	45	104	0	77	25736
2026-01-15 08:35:49.16	196.74	9.14	-53.2	-58.0	3.7	0.00e+00	0	45	104	0	77	25939
2026-01-15 08:35:50.16	196.85	9.23	-53.1	-57.8	3.7	0.00e+00	0	45	104	0	77	25237
2026-01-15 08:35:51.16	196.96	9.33	-53.3	-58.1	3.7	0.00e+00	0	45	104	0	77	26131
2026-01-15 08:35:52.16	197.07	9.42	-53.0	-57.8	3.7	0.00e+00	0	45	104	0	77	25188
2026-01-15 08:35:53.17	197.18	9.52	-53.0	-57.9	3.7	0.00e+00	0	45	104	0	77	25508
2026-01-15 08:35:54.17	197.29	9.61	-52.9	-57.7	3.7	0.00e+00	0	45	104	0	77	24923
2026-01-15 08:35:55.16	197.40	9.70	-53.2	-58.0	3.7	0.00e+00	0	45	104	0	77	25729
2026-01-15 08:35:56.16	197.52	9.80	-53.2	-57.8	3.7	0.00e+00	0	45	104	0	77	25097
2026-01-15 08:35:57.16	197.63	9.89	-52.9	-57.7	3.7	0.00e+00	0	45	104	0	77	24977
2026-01-15 08:35:58.15	197.75	9.99	-53.1	-57.8	3.7	0.00e+00	0	45	104	0	77	25206
2026-01-15 08:35:59.15	197.86	10.08	-53.2	-57.7	3.7	0.00e+00	0	45	104	0	77	24831
2026-01-15 08:36:00.15	197.98	10.18	-53.0	-57.4	3.7	0.00e+00	0	45	104	0	77	24101
2026-01-15 08:36:01.15	198.10	10.28	-53.2	-57.7	3.7	0.00e+00	0	45	104	0	77	25072
2026-01-15 08:36:02.15	198.22	10.37	-52.9	-57.4	3.7	0.00e+00	0	45	104	0	77	24122
2026-01-15 08:36:03.15	198.34	10.47	-53.0	-57.6	3.7	0.00e+00	0	45	104	0	77	24738
2026-01-15 08:36:04.14	198.46	10.57	-52.9	-57.4	3.7	0.00e+00	0	45	104	0	77	24198
2026-01-15 08:36:05.15	198.58	10.67	-53.0	-57.3	3.6	0.00e+00	0	45	104	0	77	23961
2026-01-15 08:36:06.14	198.71	10.76	-52.9	-57.3	3.7	0.00e+00	0	45	104	0	77	23909
2026-01-15 08:36:07.14	198.83	10.86	-53.1	-57.8	3.7	0.00e+00	0	45	104	0	77	25113
2026-01-15 08:36:08.14	198.96	10.96	-53.4	-58.0	3.7	0.00e+00	0	45	104	0	77	25849
2026-01-15 08:36:09.14	199.08	11.06	-52.9	-57.4	3.7	0.00e+00	0	45	104	0	77	24173
2026-01-15 08:36:10.13	199.21	11.16	-53.0	-57.5	3.7	0.00e+00	0	45	104	0	77	24502
2026-01-15 08:36:11.13	199.34	11.26	-53.0	-57.6	3.7	0.00e+00	0	45	104	0	77	24615
2026-01-15 08:36:12.13	199.47	11.37	-53.0	-57.6	3.7	0.00e+00	0	45	104	0	77	24760
2026-01-15 08:36:13.12	199.60	11.47	-53.2	-57.8	3.7	0.00e+00	0	45	104	0	77	25206
2026-01-15 08:36:14.12	199.73	11.57	-53.3	-57.9	3.7	0.00e+00	0	45	104	0	77	25485
2026-01-15 08:36:15.12	199.86	11.67	-53.6	-58.2	3.7	0.00e+00	0	45	104	0	77	26447
2026-01-15 08:36:16.12	200.00	11.78	-53.6	-58.4	3.7	0.00e+00	0	45	104	0	77	27157
2026-01-15 08:36:17.12	200.13	11.88	-53.5	-58.2	3.7	0.00e+00	0	45	104	0	77	26359
2026-01-15 08:36:18.12	200.27	11.98	-53.6	-58.4	3.7	0.00e+00	0	45	104	0	77	27020
2026-01-15 08:36:19.12	200.40	12.09	-53.8	-58.6	3.7	0.00e+00	0	45	104	0	78	26139
2026-01-15 08:36:20.12	200.54	12.19	-53.5	-58.4	3.7	0.00e+00	0	45	104	0	78	25486
2026-01-15 08:36:21.13	200.68	12.30	-53.8	-58.5	3.7	0.00e+00	0	45	104	0	78	25766
2026-01-15 08:36:22.13	200.83	12.41	-45.5	-46.8	5.1	0.00e+00	73	45	104	0	62	16946
2026-01-15 08:36:23.12	200.97	12.51	-45.2	-46.5	10.3	1.11e-02	0	46	0	41943040	61	17220
2026-01-15 08:36:24.12	201.11	12.62	-44.7	-45.9	10.8	5.56e-03	0	46	0	100663296	61	16098
2026-01-15 08:36:25.12	201.25	12.73	-44.0	-45.2	11.5	2.66e-03	0	46	0	159383552	59	16656
2026-01-15 08:36:26.11	201.40	12.83	-43.3	-44.4	12.0	1.32e-03	0	46	0	218103808	58	16054
2026-01-15 08:36:27.11	201.55	12.94	-42.8	-43.9	12.3	3.81e-04	0	46	0	276824064	57	16044
2026-01-15 08:36:28.11	201.69	13.05	-42.6	-43.7	12.3	1.61e-04	0	46	0	343932928	56	16598
2026-01-15 08:36:29.11	201.84	13.16	-42.8	-43.9	11.9	3.98e-04	0	46	0	402653184	56	17005
2026-01-15 08:36:30.10	201.99	13.27	-42.5	-43.6	12.1	3.47e-04	0	46	0	461373440	56	16409
2026-01-15 08:36:31.10	202.15	13.38	-41.7	-42.7	12.8	1.10e-04	0	46	0	520093696	54	16731
2026-01-15 08:36:32.10	202.30	13.49	-40.6	-41.6	13.8	8.47e-05	0	46	0	578813952	53	15550
2026-01-15 08:36:33.11	202.46	13.61	-40.8	-41.8	13.5	3.39e-05	0	46	0	637534208	53	15912
2026-01-15 08:36:34.11	202.61	13.72	-40.4	-41.4	14.0	0.00e+00	0	46	0	696254464	51	17006
2026-01-15 08:36:35.10	202.77	13.83	-39.2	-40.2	14.9	8.40e-06	0	46	0	763363328	50	15707
2026-01-15 08:36:36.11	202.93	13.94	-39.2	-40.1	15.1	0.00e+00	0	46	0	822083584	50	15649
2026-01-15 08:36:37.10	203.09	14.06	-39.2	-40.2	15.0	0.00e+00	0	46	0	880803840	49	16621
2026-01-15 08:36:38.10	203.25	14.17	-38.4	-39.3	15.7	0.00e+00	0	46	0	939524096	48	15915
2026-01-15 08:36:39.10	203.41	14.29	-38.2	-39.2	15.8	0.00e+00	0	46	0	998244352	48	15665
2026-01-15 08:36:40.10	203.58	14.40	-38.1	-39.0	15.9	0.00e+00	0	46	0	1056964608	48	15450
2026-01-15 08:36:41.10	203.75	14.52	-37.7	-38.7	15.5	0.00e+00	0	46	0	1124073472	46	16644
2026-01-15 08:36:42.09	203.91	14.63	-37.0	-38.0	16.1	0.00e+00	0	46	0	1182793728	46	15338
2026-01-15 08:36:43.09	204.08	14.75	-36.9	-37.8	16.2	0.00e+00	0	46	0	1241513984	45	16009
2026-01-15 08:36:44.09	204.25	14.87	-36.3	-37.2	16.7	0.00e+00	0	46	0	1300234240	44	15695
2026-01-15 08:36:45.08	204.42	14.98	-36.1	-37.0	16.9	0.00e+00	0	46	0	1358954496	44	15436
2026-01-15 08:36:46.08	204.60	15.10	-35.8	-36.7	17.0	0.00e+00	0	47	0	1417674752	43	15811
2026-01-15 08:36:47.07	204.77	15.22	-35.4	-36.3	17.3	0.00e+00	0	46	0	1476395008	42	15883
2026-01-15 08:36:48.07	204.95	15.34	-35.3	-36.2	17.3	0.00e+00	0	46	0	1535115264	42	15685
2026-01-15 08:36:49.06	205.13	15.46	-35.3	-36.2	17.2	0.00e+00	0	47	0	1593835520	42	15779
2026-01-15 08:36:50.06	205.31	15.58	-35.2	-36.1	17.4	0.00e+00	0	47	0	1660944384	42	15558
2026-01-15 08:36:51.05	205.49	15.70	-35.1	-35.9	17.5	0.00e+00	0	46	0	1719664640	42	15286
2026-01-15 08:36:52.05	205.67	15.82	-34.9	-35.8	17.6	0.00e+00	0	47	0	1778384896	41	15880
2026-01-15 08:36:53.05	205.86	15.94	-34.8	-35.7	17.6	0.00e+00	0	46	0	1837105152	41	15792
2026-01-15 08:36:54.05	206.05	16.07	-34.8	-35.7	17.6	0.00e+00	0	47	0	1895825408	41	15791
2026-01-15 08:36:55.05	206.24	16.19	-34.8	-35.7	17.6	0.00e+00	0	47	0	1954545664	41	15670
2026-01-15 08:36:56.05	206.43	16.31	-34.6	-35.5	17.6	0.00e+00	0	46	0	2013265920	41	15433
2026-01-15 08:36:57.06	206.63	16.44	-34.6	-35.5	17.7	0.00e+00	0	47	0	2080374784	41	15384
2026-01-15 08:36:58.06	206.82	16.57	-34.6	-35.4	17.8	0.00e+00	0	47	0	2139095040	41	15293
2026-01-15 08:36:59.05	207.02	16.69	-34.5	-35.4	17.9	0.00e+00	0	47	0	2197815296	41	15189
2026-01-15 08:37:00.05	207.21	16.82	-34.5	-35.4	17.9	0.00e+00	0	47	0	2256535552	41	15162
2026-01-15 08:37:01.05	207.42	16.94	-34.5	-35.4	17.7	0.00e+00	0	47	0	2315255808	40	16076
2026-01-15 08:37:02.05	207.62	17.07	-34.4	-35.3	17.7	0.00e+00	0	47	0	2373976064	40	15892
2026-01-15 08:37:03.04	207.82	17.20	-34.3	-35.2	17.7	0.00e+00	0	47	0	2441084928	40	15777
2026-01-15 08:37:04.04	208.03	17.33	-34.2	-35.1	17.8	0.00e+00	0	47	0	2499805184	40	15568
2026-01-15 08:37:05.04	208.24	17.45	-34.3	-35.2	17.7	0.00e+00	0	47	0	2558525440	40	15690
2026-01-15 08:37:06.04	208.45	17.58	-34.2	-35.0	17.9	0.00e+00	0	47	0	2617245696	40	15444
2026-01-15 08:37:07.04	208.66	17.71	-34.0	-34.9	18.1	0.00e+00	0	47	0	2675965952	40	15221
2026-01-15 08:37:08.03	208.87	17.84	-34.0	-34.9	18.1	0.00e+00	0	47	0	2734686208	40	15257
2026-01-15 08:37:09.03	209.09	17.97	-34.0	-34.9	18.0	0.00e+00	0	47	0	2793406464	40	15245
2026-01-15 08:37:10.03	209.31	18.11	-34.0	-34.9	18.2	0.00e+00	0	47	0	2860515328	39	16137
2026-01-15 08:37:11.03	209.53	18.24	-34.0	-34.9	18.1	0.00e+00	0	47	0	2919235584	39	16102
2026-01-15 08:37:12.03	209.76	18.37	-34.0	-34.9	18.0	0.00e+00	0	47	0	2977955840	39	16167
2026-01-15 08:37:13.04	209.98	18.51	-33.8	-34.7	18.2	0.00e+00	0	47	0	3036676096	39	15769
2026-01-15 08:37:14.04	210.21	18.64	-33.8	-34.6	18.3	0.00e+00	0	47	0	3095396352	39	15644
2026-01-15 08:37:15.04	210.44	18.77	-33.8	-34.6	18.3	0.00e+00	0	47	0	3154116608	39	15636
2026-01-15 08:37:16.04	210.68	18.91	-33.7	-34.6	18.3	0.00e+00	0	47	0	3221225472	39	15614
2026-01-15 08:37:17.04	210.91	19.05	-33.7	-34.5	18.4	0.00e+00	0	47	0	3279945728	39	15423
2026-01-15 08:37:18.03	211.15	19.18	-33.4	-34.3	18.4	0.00e+00	0	47	0	3338665984	38	15888
2026-01-15 08:37:19.03	211.39	19.32	-33.5	-34.3	18.2	0.00e+00	0	47	0	3397386240	38	16011
2026-01-15 08:37:20.03	211.63	19.45	-33.5	-34.4	18.0	0.00e+00	0	47	0	3456106496	38	16170
2026-01-15 08:37:21.03	211.87	19.59	-33.4	-34.3	18.1	0.00e+00	0	47	0	3514826752	38	15907
2026-01-15 08:37:22.03	212.12	19.73	-33.3	-34.2	18.3	0.00e+00	0	47	0	3573547008	38	15724
2026-01-15 08:37:23.03	212.37	19.87	-33.1	-34.0	18.5	0.00e+00	0	47	0	3632267264	38	15400
2026-01-15 08:37:24.03	212.62	20.01	-33.2	-34.1	18.6	0.00e+00	0	47	0	3690987520	38	15494
2026-01-15 08:37:25.02	212.88	20.15	-33.2	-34.1	18.6	0.00e+00	0	47	0	3758096384	38	15476
2026-01-15 08:37:26.02	213.14	20.29	-33.0	-33.9	18.5	0.00e+00	0	47	0	3816816640	38	15245
2026-01-15 08:37:27.01	213.39	20.42	-33.0	-33.9	18.6	0.00e+00	0	47	0	3875536896	38	15175
2026-01-15 08:37:28.01	213.66	20.57	-32.9	-33.8	18.6	0.00e+00	0	47	0	3934257152	37	15908
2026-01-15 08:37:29.01	213.92	20.71	-33.0	-33.9	18.6	0.00e+00	0	47	0	3992977408	37	16058
2026-01-15 08:37:30.01	214.19	20.85	-33.0	-33.8	18.6	0.00e+00	0	47	0	4051697664	37	16006
2026-01-15 08:37:31.01	214.46	20.99	-32.9	-33.8	18.6	0.00e+00	0	47	0	4110417920	37	15944
2026-01-15 08:37:32.00	214.73	21.13	-32.8	-33.7	18.7	0.00e+00	0	47	0	4177526784	37	15683
2026-01-15 08:37:33.01	215.01	21.28	-32.9	-33.7	18.4	0.00e+00	0	47	0	4236247040	37	15825
2026-01-15 08:37:34.01	215.29	21.42	-32.9	-33.8	18.5	0.00e+00	0	47	0	4294967296	37	15878
2026-01-15 08:37:35.01	215.58	21.57	-32.7	-33.6	18.5	0.00e+00	0	47	0	4353687552	37	15474
2026-01-15 08:37:36.01	215.86	21.71	-32.6	-33.4	18.6	0.00e+00	0	47	0	4412407808	37	15264
2026-01-15 08:37:37.00	216.15	21.85	-32.4	-33.2	18.8	0.00e+00	0	47	0	4471128064	36	15805
2026-01-15 08:37:38.00	216.44	22.00	-32.3	-33.2	18.8	0.00e+00	0	47	0	4538236928	36	15787
2026-01-15 08:37:38.99	216.73	22.14	-32.4	-33.3	18.6	0.00e+00	0	47	0	4596957184	36	15919
2026-01-15 08:37:39.99	217.03	22.29	-32.3	-33.2	18.7	0.00e+00	0	47	0	4655677440	36	15749
2026-01-15 08:37:40.99	217.33	22.43	-32.1	-33.0	18.8	0.00e+00	0	47	0	4714397696	36	15330
2026-01-15 08:37:41.99	217.64	22.58	-32.1	-33.0	18.9	0.00e+00	0	47	0	4773117952	36	15319
2026-01-15 08:37:42.99	217.94	22.73	-32.1	-32.9	18.9	0.00e+00	0	47	0	4831838208	36	15290
2026-01-15 08:37:43.99	218.25	22.87	-32.0	-32.9	18.7	0.00e+00	0	47	0	4890558464	36	15263
2026-01-15 08:37:44.99	218.57	23.02	-30.7	-31.5	18.6	0.00e+00	0	47	0	4957667328	33	15449
2026-01-15 08:37:45.99	218.89	23.17	-30.7	-31.5	18.7	0.00e+00	0	47	0	5016387584	33	15449
2026-01-15 08:37:46.99	219.21	23.32	-30.5	-31.4	18.8	0.00e+00	0	47	0	5075107840	33	15243
2026-01-15 08:37:47.99	219.53	23.46	-30.5	-31.4	18.9	0.00e+00	0	47	0	5133828096	33	15183
2026-01-15 08:37:48.98	219.85	23.61	-30.4	-31.3	18.8	0.00e+00	0	47	0	5192548352	32	15924
2026-01-15 08:37:49.98	220.19	23.76	-30.5	-31.3	18.8	0.00e+00	0	47	0	5251268608	32	15997
2026-01-15 08:37:50.98	220.52	23.91	-30.4	-31.3	18.9	0.00e+00	0	47	0	5309988864	32	15858
2026-01-15 08:37:51.98	220.86	24.06	-30.3	-31.2	19.0	0.00e+00	0	47	0	5377097728	32	15707
2026-01-15 08:37:52.98	221.20	24.21	-30.3	-31.2	18.9	0.00e+00	0	47	0	5427429376	32	15746
2026-01-15 08:37:53.97	221.54	24.35	-30.3	-31.1	18.9	0.00e+00	0	47	0	5494538240	32	15610
2026-01-15 08:37:54.97	221.89	24.50	-30.3	-31.2	18.9	0.00e+00	0	47	0	5553258496	32	15662
2026-01-15 08:37:55.97	222.24	24.65	-30.1	-31.0	19.0	0.00e+00	0	47	0	5611978752	32	15343
2026-01-15 08:37:56.97	222.60	24.80	-30.0	-30.8	19.2	0.00e+00	0	47	0	5670699008	32	15088
2026-01-15 08:37:57.96	222.95	24.95	-30.0	-30.9	19.0	0.00e+00	0	47	0	5729419264	32	15241
2026-01-15 08:37:58.96	223.32	25.09	-30.1	-30.9	19.0	0.00e+00	0	47	0	5788139520	32	15294
2026-01-15 08:37:59.96	223.68	25.24	-30.2	-31.1	18.9	0.00e+00	0	47	0	5855248384	32	15501
2026-01-15 08:38:00.96	224.05	25.39	-29.8	-30.6	19.1	0.00e+00	0	47	0	5913968640	31	15605
2026-01-15 08:38:01.96	224.43	25.54	-29.8	-30.7	18.9	0.00e+00	0	47	0	5972688896	31	15686
2026-01-15 08:38:02.96	224.81	25.69	-29.8	-30.7	19.0	0.00e+00	0	47	0	6031409152	31	15667
2026-01-15 08:38:03.96	225.19	25.84	-29.7	-30.5	19.1	0.00e+00	0	47	0	6090129408	31	15448
2026-01-15 08:38:04.96	225.58	25.98	-29.7	-30.6	19.2	0.00e+00	0	47	0	6148849664	31	15485
2026-01-15 08:38:05.96	225.97	26.13	-29.7	-30.5	19.0	0.00e+00	0	47	0	6207569920	31	15433
2026-01-15 08:38:06.96	226.36	26.28	-29.9	-30.8	18.9	0.00e+00	0	47	0	6274678784	31	15929
2026-01-15 08:38:07.95	226.75	26.42	-29.5	-30.4	19.2	0.00e+00	0	47	0	6333399040	31	15138
2026-01-15 08:38:08.95	227.16	26.57	-29.7	-30.6	19.0	0.00e+00	0	47	0	6392119296	30	16426
2026-01-15 08:38:09.95	227.56	26.72	-29.6	-30.4	19.0	0.00e+00	0	47	0	6450839552	30	16197
2026-01-15 08:38:10.95	227.97	26.86	-29.3	-30.1	19.2	0.00e+00	0	47	0	6509559808	30	15634
2026-01-15 08:38:11.95	228.39	27.01	-29.4	-30.2	19.2	0.00e+00	0	47	0	6568280064	30	15753
2026-01-15 08:38:12.95	228.81	27.15	-29.3	-30.2	19.0	0.00e+00	0	47	0	6627000320	30	15737
2026-01-15 08:38:13.95	229.23	27.29	-29.1	-30.0	19.3	0.00e+00	0	47	0	6694109184	30	15360
2026-01-15 08:38:14.95	229.65	27.44	-29.1	-29.9	19.4	0.00e+00	0	48	0	6752829440	30	15261
2026-01-15 08:38:15.95	230.09	27.58	-29.4	-30.3	19.1	0.00e+00	0	47	0	6811549696	30	15936
2026-01-15 08:38:16.95	230.52	27.72	-29.5	-30.4	19.1	0.00e+00	0	47	0	6870269952	30	16138
2026-01-15 08:38:17.95	230.96	27.86	-29.1	-30.0	19.3	0.00e+00	0	47	0	6928990208	30	15354
2026-01-15 08:38:18.95	231.40	28.00	-29.0	-29.9	19.4	0.00e+00	0	47	0	6987710464	30	15172
2026-01-15 08:38:19.95	231.85	28.14	-29.1	-30.0	19.3	0.00e+00	0	47	0	7054819328	30	15296
2026-01-15 08:38:20.95	232.30	28.28	-28.8	-29.7	19.4	0.00e+00	0	47	0	7113539584	29	15720
2026-01-15 08:38:21.95	232.76	28.42	-28.9	-29.8	19.5	0.00e+00	0	47	0	7172259840	29	15907
2026-01-15 08:38:22.95	233.22	28.55	-29.1	-29.9	19.3	0.00e+00	0	47	0	7230980096	29	16179
2026-01-15 08:38:23.95	233.68	28.69	-28.8	-29.7	19.5	0.00e+00	0	47	0	7289700352	29	15729
2026-01-15 08:38:24.95	234.15	28.82	-29.1	-29.9	19.5	0.00e+00	0	48	0	7348420608	29	16143
2026-01-15 08:38:25.94	234.62	28.95	-29.0	-29.8	19.4	0.00e+00	0	47	0	7407140864	29	15962
2026-01-15 08:38:26.94	235.10	29.09	-28.8	-29.6	19.6	0.00e+00	0	48	0	7474249728	29	15639
2026-01-15 08:38:27.94	235.58	29.22	-28.8	-29.7	19.6	0.00e+00	0	47	0	7532969984	29	15665
2026-01-15 08:38:28.94	236.06	29.35	-28.8	-29.7	19.4	0.00e+00	0	47	0	7591690240	29	15695
2026-01-15 08:38:29.94	236.55	29.47	-28.7	-29.5	19.6	0.00e+00	0	48	0	7650410496	29	15422
2026-01-15 08:38:30.94	237.05	29.60	-28.6	-29.4	19.6	0.00e+00	0	48	0	7709130752	29	15262
2026-01-15 08:38:31.93	237.54	29.72	-28.7	-29.5	19.4	0.00e+00	0	47	0	7767851008	29	15418
2026-01-15 08:38:32.94	238.05	29.85	-28.5	-29.3	19.6	0.00e+00	0	47	0	7834959872	28	15985
2026-01-15 08:38:33.94	238.55	29.97	-28.7	-29.6	19.3	0.00e+00	0	47	0	7893680128	28	16506
2026-01-15 08:38:34.94	239.06	30.09	-28.4	-29.3	19.5	0.00e+00	0	47	0	7952400384	28	15916
2026-01-15 08:38:35.94	239.58	30.21	-28.2	-29.0	19.8	0.00e+00	0	47	0	8011120640	28	15457
2026-01-15 08:38:36.94	240.10	30.32	-28.6	-29.4	19.5	0.00e+00	0	47	0	8069840896	28	16153
2026-01-15 08:38:37.94	240.62	30.44	-28.3	-29.2	19.7	0.00e+00	0	48	0	8128561152	28	15685
2026-01-15 08:38:38.94	241.14	30.55	-28.2	-29.0	20.0	0.00e+00	0	48	0	8187281408	28	15425
2026-01-15 08:38:39.94	241.67	30.66	-28.3	-29.1	19.9	0.00e+00	0	48	0	8254390272	28	15577
2026-01-15 08:38:40.94	242.21	30.77	-28.4	-29.3	19.8	0.00e+00	0	47	0	8313110528	28	15890
2026-01-15 08:38:41.94	242.75	30.88	-28.1	-28.9	20.1	0.00e+00	0	47	0	8371830784	28	15284
2026-01-15 08:38:42.94	243.29	30.98	-28.2	-29.1	19.9	0.00e+00	0	47	0	8430551040	28	15516
2026-01-15 08:38:43.94	243.83	31.08	-28.6	-29.4	19.7	0.00e+00	0	47	0	8489271296	28	16174
2026-01-15 08:38:44.94	244.38	31.18	-28.3	-29.2	19.8	0.00e+00	0	48	0	8547991552	28	15721
2026-01-15 08:38:45.93	244.93	31.28	-28.2	-29.1	19.9	0.00e+00	0	47	0	8615100416	28	15557
2026-01-15 08:38:46.93	245.48	31.38	-28.5	-29.4	19.8	0.00e+00	0	47	0	8673820672	28	16118
2026-01-15 08:38:47.93	246.04	31.47	-28.1	-28.9	20.1	0.00e+00	0	48	0	8732540928	28	15283
2026-01-15 08:38:48.92	246.60	31.56	-28.1	-28.9	20.1	0.00e+00	0	47	0	8791261184	28	15265
2026-01-15 08:38:49.92	247.17	31.65	-28.1	-29.0	20.2	0.00e+00	0	47	0	8849981440	27	16274
2026-01-15 08:38:50.92	247.73	31.73	-28.2	-29.0	20.2	0.00e+00	0	48	0	8908701696	27	16292
2026-01-15 08:38:51.93	248.31	31.81	-28.1	-29.0	20.2	0.00e+00	0	47	0	8967421952	27	16247
2026-01-15 08:38:52.93	248.89	31.89	-27.9	-28.8	20.3	0.00e+00	0	47	0	9026142208	27	15870
2026-01-15 08:38:53.92	249.46	31.97	-28.0	-28.9	20.2	0.00e+00	0	48	0	9084862464	27	16074
2026-01-15 08:38:54.92	250.04	32.05	-28.5	-29.3	20.0	0.00e+00	0	47	0	9151971328	27	16932
2026-01-15 08:38:55.92	250.63	32.12	-27.9	-28.7	20.3	0.00e+00	0	48	0	9210691584	27	15757
2026-01-15 08:38:56.92	251.21	32.19	-27.9	-28.7	20.3	0.00e+00	0	48	0	9269411840	27	15832
2026-01-15 08:38:57.92	251.80	32.25	-28.1	-29.0	20.2	0.00e+00	0	48	0	9328132096	27	16234
2026-01-15 08:38:58.92	252.39	32.31	-27.8	-28.7	20.4	0.00e+00	0	47	0	9386852352	27	15715
2026-01-15 08:38:59.92	252.99	32.37	-28.0	-28.9	20.1	0.00e+00	0	47	0	9445572608	27	16068
2026-01-15 08:39:00.92	253.58	32.43	-28.2	-29.1	20.0	0.00e+00	0	48	0	9504292864	27	16398
2026-01-15 08:39:01.91	254.18	32.48	-28.1	-29.0	20.1	0.00e+00	0	47	0	9571401728	27	16282
2026-01-15 08:39:02.91	254.78	32.53	-27.9	-28.7	20.2	0.00e+00	0	47	0	9630121984	27	15793
2026-01-15 08:39:03.91	255.38	32.58	-28.2	-29.0	20.1	0.00e+00	0	48	0	9688842240	27	16389
2026-01-15 08:39:04.91	255.98	32.63	-27.8	-28.6	20.2	0.00e+00	0	48	0	9747562496	27	15592
2026-01-15 08:39:05.90	256.58	32.67	-27.9	-28.8	20.1	0.00e+00	0	47	0	9806282752	27	15911
2026-01-15 08:39:06.90	257.19	32.70	-28.1	-28.9	20.2	0.00e+00	0	48	0	9865003008	27	16125
2026-01-15 08:39:07.90	257.80	32.74	-27.9	-28.7	20.2	0.00e+00	0	48	0	9932111872	27	15788
2026-01-15 08:39:08.90	258.41	32.77	-27.9	-28.8	20.2	0.00e+00	0	47	0	9990832128	27	15924
2026-01-15 08:39:09.90	259.02	32.80	-27.7	-28.5	20.4	0.00e+00	0	48	0	10049552384	27	15461
2026-01-15 08:39:10.90	259.63	32.82	-27.8	-28.7	20.4	0.00e+00	0	48	0	10108272640	27	15700
2026-01-15 08:39:11.90	260.24	32.84	-27.9	-28.7	20.3	0.00e+00	0	47	0	10166992896	27	15805
2026-01-15 08:39:12.90	260.86	32.86	-27.6	-28.5	20.6	0.00e+00	0	47	0	10225713152	27	15323
2026-01-15 08:39:13.90	261.47	32.87	-27.7	-28.6	20.5	0.00e+00	0	47	0	10284433408	27	15555
2026-01-15 08:39:14.90	262.09	32.89	-27.9	-28.8	20.5	0.00e+00	0	48	0	10351542272	27	15838
2026-01-15 08:39:15.90	262.70	32.89	-28.0	-28.9	20.5	0.00e+00	0	47	0	10410262528	27	16096
2026-01-15 08:39:16.89	263.31	32.90	-27.8	-28.7	20.6	0.00e+00	0	48	0	10468982784	27	15699
2026-01-15 08:39:17.89	263.93	32.90	-28.0	-28.8	20.6	0.00e+00	0	48	0	10527703040	27	16001
2026-01-15 08:39:18.89	264.54	32.89	-27.7	-28.5	20.7	0.00e+00	0	48	0	10586423296	27	15461
2026-01-15 08:39:19.88	265.15	32.89	-27.9	-28.7	20.7	0.00e+00	0	48	0	10645143552	27	15815
2026-01-15 08:39:20.88	265.76	32.88	-28.0	-28.8	20.6	0.00e+00	0	47	0	10712252416	27	15988
2026-01-15 08:39:21.88	266.38	32.87	-27.9	-28.7	20.7	0.00e+00	0	47	0	10770972672	27	15733
2026-01-15 08:39:22.87	266.99	32.85	-28.0	-28.9	20.6	0.00e+00	0	48	0	10821304320	27	16082
2026-01-15 08:39:23.87	267.60	32.83	-28.1	-28.9	20.5	0.00e+00	0	48	0	10888413184	27	16083
2026-01-15 08:39:24.87	268.21	32.81	-28.2	-29.1	20.4	0.00e+00	0	48	0	10947133440	27	16408
2026-01-15 08:39:25.87	268.82	32.78	-54.6	-59.0	3.7	0.00e+00	0	47	104	10980687872	79	25771
2026-01-15 08:39:26.87	269.43	32.75	-54.6	-59.1	3.7	0.00e+00	0	47	104	10980687872	79	26121
2026-01-15 08:39:27.87	270.04	32.72	-54.5	-59.2	3.7	0.00e+00	0	47	104	10980687872	79	26388
2026-01-15 08:39:28.86	270.64	32.68	-54.5	-59.2	3.7	0.00e+00	0	47	104	10980687872	79	26369
2026-01-15 08:39:29.86	271.25	32.64	-54.5	-59.2	3.7	0.00e+00	0	47	104	10980687872	79	26381
2026-01-15 08:39:30.85	271.84	32.60	-54.5	-59.1	3.7	0.00e+00	0	47	104	10980687872	79	26256
2026-01-15 08:39:31.85	272.45	32.55	-54.6	-59.1	3.7	0.00e+00	0	47	104	10980687872	79	26104
2026-01-15 08:39:32.85	273.05	32.50	-54.6	-59.1	3.7	0.00e+00	0	47	104	10980687872	79	26146
2026-01-15 08:39:33.85	273.65	32.45	-54.3	-58.8	3.7	0.00e+00	0	47	104	10980687872	79	25172
2026-01-15 08:39:34.85	274.24	32.40	-54.4	-58.8	3.7	0.00e+00	0	47	104	10980687872	79	25288
2026-01-15 08:39:35.84	274.83	32.34	-54.1	-58.6	3.7	0.00e+00	0	47	104	10980687872	79	24670
2026-01-15 08:39:36.84	275.42	32.28	-54.5	-59.0	3.7	0.00e+00	0	47	104	10980687872	79	25932
2026-01-15 08:39:37.83	276.00	32.21	-54.6	-59.1	3.7	0.00e+00	0	47	104	10980687872	80	24700
2026-01-15 08:39:38.83	276.59	32.15	-54.5	-59.1	3.7	0.00e+00	0	47	104	10980687872	80	24704
2026-01-15 08:39:39.83	277.17	32.07	-54.5	-59.1	3.7	0.00e+00	0	47	104	10980687872	80	24526
2026-01-15 08:39:40.82	277.75	32.00	-54.5	-59.1	3.7	0.00e+00	0	47	104	10980687872	80	24662
2026-01-15 08:39:41.82	278.33	31.93	-54.7	-59.2	3.7	0.00e+00	0	47	104	10980687872	80	24823
2026-01-15 08:39:42.82	278.90	31.85	-54.7	-59.1	3.7	0.00e+00	0	47	104	10980687872	80	24743
2026-01-15 08:39:43.82	279.47	31.77	-54.4	-59.0	3.7	0.00e+00	0	47	104	10980687872	80	24340
2026-01-15 08:39:44.82	280.04	31.68	-54.3	-58.9	3.7	0.00e+00	0	47	104	10980687872	80	24145
2026-01-15 08:39:45.82	280.61	31.60	-54.6	-59.1	3.7	0.00e+00	0	47	104	10980687872	80	24679
2026-01-15 08:39:46.82	281.17	31.51	-54.6	-59.1	3.7	0.00e+00	0	47	104	10980687872	80	24574
2026-01-15 08:39:47.81	281.72	31.42	-54.6	-59.0	3.7	0.00e+00	0	47	104	10980687872	80	24359
2026-01-15 08:39:48.81	282.28	31.32	-54.4	-58.8	3.7	0.00e+00	0	47	104	10980687872	80	23912
2026-01-15 08:39:49.81	282.83	31.23	-54.6	-59.0	3.7	0.00e+00	0	47	104	10980687872	80	24497
2026-01-15 08:39:50.81	283.38	31.13	-54.5	-59.0	3.7	0.00e+00	0	47	104	10980687872	80	24373
2026-01-15 08:39:51.82	283.93	31.03	-54.6	-59.0	3.7	0.00e+00	0	47	104	10980687872	80	24377
2026-01-15 08:39:52.81	284.47	30.92	-54.3	-58.8	3.7	0.00e+00	0	47	104	10980687872	80	23824
2026-01-15 08:39:53.81	285.00	30.82	-54.5	-58.9	3.7	0.00e+00	0	47	104	10980687872	80	24229
2026-01-15 08:39:54.81	285.54	30.71	-54.5	-58.9	3.7	0.00e+00	0	47	104	10980687872	80	24189
2026-01-15 08:39:55.80	286.06	30.60	-54.6	-59.1	3.7	0.00e+00	0	47	104	10980687872	80	24627
2026-01-15 08:39:56.80	286.59	30.49	-54.7	-59.1	3.7	0.00e+00	0	47	104	10980687872	80	24782
2026-01-15 08:39:57.80	287.11	30.38	-54.6	-59.1	3.7	0.00e+00	0	47	104	10980687872	80	24584
2026-01-15 08:39:58.80	287.63	30.26	-54.5	-59.1	3.7	0.00e+00	0	47	104	10980687872	80	24599
2026-01-15 08:39:59.79	288.14	30.15	-54.6	-59.1	3.7	0.00e+00	0	47	104	10980687872	80	24750
2026-01-15 08:40:00.79	288.65	30.03	-54.6	-59.1	3.7	0.00e+00	0	47	104	10980687872	80	24527
2026-01-15 08:40:01.79	289.15	29.91	-54.3	-58.9	3.7	0.00e+00	0	47	104	10980687872	80	24020
2026-01-15 08:40:02.79	289.66	29.79	-54.3	-58.9	3.7	0.00e+00	0	47	104	10980687872	80	24089
2026-01-15 08:40:03.79	290.15	29.66	-54.3	-58.8	3.7	0.00e+00	0	47	104	10980687872	80	23715
2026-01-15 08:40:04.78	290.64	29.54	-54.4	-58.9	3.7	0.00e+00	0	47	104	10980687872	80	24073
2026-01-15 08:40:05.78	291.13	29.41	-54.5	-58.9	3.7	0.00e+00	0	47	104	10980687872	80	24166
2026-01-15 08:40:06.77	291.61	29.29	-54.5	-58.9	3.7	0.00e+00	0	47	104	10980687872	80	24143
2026-01-15 08:40:07.76	292.09	29.16	-54.3	-58.7	3.7	0.00e+00	0	47	104	10980687872	80	23583
2026-01-15 08:40:08.77	292.57	29.03	-54.1	-58.6	3.7	0.00e+00	0	47	104	10980687872	80	23251
2026-01-15 08:40:09.77	293.04	28.89	-54.0	-58.5	3.7	0.00e+00	0	47	104	10980687872	80	23124
2026-01-15 08:40:10.77	293.51	28.76	-54.1	-58.6	3.7	0.00e+00	0	47	104	10980687872	79	24583
2026-01-15 08:40:11.76	293.97	28.63	-54.4	-58.9	3.7	0.00e+00	0	47	104	10980687872	79	25565
2026-01-15 08:40:12.75	294.43	28.50	-54.5	-58.8	3.7	0.00e+00	0	47	104	10980687872	79	25154
2026-01-15 08:40:13.75	294.88	28.36	-54.6	-58.9	3.7	0.00e+00	0	47	104	10980687872	79	25398
2026-01-15 08:40:14.75	295.33	28.22	-54.5	-58.8	3.7	0.00e+00	0	47	104	10980687872	79	25321
2026-01-15 08:40:15.75	295.78	28.08	-54.4	-58.7	3.7	0.00e+00	0	47	104	10980687872	79	24847
2026-01-15 08:40:16.75	296.23	27.95	-54.3	-58.8	3.7	0.00e+00	0	47	104	10980687872	79	25189
2026-01-15 08:40:17.75	296.66	27.81	-54.2	-58.7	3.7	0.00e+00	0	47	104	10980687872	79	24859
2026-01-15 08:40:18.75	297.10	27.67	-54.2	-58.7	3.7	0.00e+00	0	47	104	10980687872	79	24868
2026-01-15 08:40:19.75	297.53	27.52	-54.3	-58.7	3.7	0.00e+00	0	46	104	10980687872	79	25049
2026-01-15 08:40:20.75	297.96	27.38	-54.3	-58.7	3.7	0.00e+00	0	47	104	10980687872	79	25014
2026-01-15 08:40:21.75	298.38	27.24	-54.3	-58.9	3.7	0.00e+00	0	46	104	10980687872	79	25480
2026-01-15 08:40:22.75	298.80	27.10	-54.4	-58.8	3.7	0.00e+00	0	46	104	10980687872	79	25358
2026-01-15 08:40:23.75	299.21	26.95	-54.2	-58.8	3.7	0.00e+00	0	47	104	10980687872	79	25245
2026-01-15 08:40:24.75	299.62	26.81	-53.8	-58.5	3.7	0.00e+00	0	47	104	10980687872	79	24428
2026-01-15 08:40:25.75	300.03	26.66	-53.6	-58.3	3.7	0.00e+00	0	46	104	10980687872	79	23864
2026-01-15 08:40:26.75	300.43	26.52	-53.7	-58.4	3.7	0.00e+00	0	47	104	10980687872	79	24163
2026-01-15 08:40:27.74	300.83	26.38	-53.7	-58.3	3.7	0.00e+00	0	46	104	10980687872	79	23702
2026-01-15 08:40:28.74	301.22	26.23	-54.0	-58.5	3.7	0.00e+00	0	47	104	10980687872	79	24300
2026-01-15 08:40:29.74	301.61	26.08	-54.3	-58.7	3.7	0.00e+00	0	47	104	10980687872	79	25033
2026-01-15 08:40:30.74	302.00	25.94	-54.2	-58.6	3.7	0.00e+00	0	47	104	10980687872	79	24756
2026-01-15 08:40:31.74	302.38	25.79	-54.4	-58.8	3.7	0.00e+00	0	47	104	10980687872	79	25304
2026-01-15 08:40:32.74	302.76	25.64	-54.4	-58.8	3.7	0.00e+00	0	46	104	10980687872	79	25373
2026-01-15 08:40:33.74	303.13	25.50	-54.3	-58.8	3.7	0.00e+00	0	47	104	10980687872	79	25364
2026-01-15 08:40:34.74	303.50	25.35	-54.4	-59.0	3.7	0.00e+00	0	46	104	10980687872	79	25702
2026-01-15 08:40:35.73	303.87	25.20	-54.2	-58.5	3.7	0.00e+00	0	47	104	10980687872	79	24361
2026-01-15 08:40:36.73	304.23	25.06	-54.3	-58.5	3.7	0.00e+00	0	47	104	10980687872	79	24257
2026-01-15 08:40:37.73	304.59	24.91	-54.5	-58.7	3.7	0.00e+00	0	46	104	10980687872	79	25066
2026-01-15 08:40:38.72	304.94	24.76	-54.5	-58.7	3.7	0.00e+00	0	46	104	10980687872	79	24870
2026-01-15 08:40:39.72	305.29	24.61	-54.6	-58.9	3.7	0.00e+00	0	47	104	10980687872	79	25561
2026-01-15 08:40:40.73	305.65	24.47	-54.5	-58.9	3.7	0.00e+00	0	47	104	10980687872	79	25468
2026-01-15 08:40:41.72	305.99	24.32	-54.5	-59.1	3.7	0.00e+00	0	47	104	10980687872	79	26097
2026-01-15 08:40:42.72	306.33	24.17	-54.5	-59.1	3.7	0.00e+00	0	46	104	10980687872	79	26139
2026-01-15 08:40:43.72	306.67	24.02	-54.3	-58.8	3.7	0.00e+00	0	46	104	10980687872	79	25319
2026-01-15 08:40:44.72	307.00	23.88	-54.4	-58.7	3.7	0.00e+00	0	47	104	10980687872	79	25062
2026-01-15 08:40:45.71	307.33	23.73	-54.5	-58.8	3.7	0.00e+00	0	47	104	10980687872	79	25122
2026-01-15 08:40:46.71	307.66	23.58	-54.5	-58.8	3.7	0.00e+00	0	46	104	10980687872	79	25286
2026-01-15 08:40:47.71	307.98	23.44	-54.3	-58.5	3.7	0.00e+00	0	46	104	10980687872	79	24382
2026-01-15 08:40:48.71	308.30	23.29	-54.3	-58.6	3.7	0.00e+00	0	46	104	10980687872	79	24749
2026-01-15 08:40:49.71	308.62	23.14	-54.1	-58.7	3.7	0.00e+00	0	46	104	10980687872	79	24861
2026-01-15 08:40:50.71	308.93	23.00	-54.2	-58.6	3.7	0.00e+00	0	47	104	10980687872	79	24709
2026-01-15 08:40:51.71	309.25	22.85	-54.1	-58.5	3.7	0.00e+00	0	46	104	10980687872	79	24439
2026-01-15 08:40:52.71	309.55	22.71	-54.0	-58.6	3.7	0.00e+00	0	47	104	10980687872	79	24714
2026-01-15 08:40:53.71	309.86	22.56	-53.9	-58.7	3.7	0.00e+00	0	47	104	10980687872	79	24820
2026-01-15 08:40:54.71	310.16	22.42	-54.0	-58.7	3.7	0.00e+00	0	47	104	10980687872	79	24968
2026-01-15 08:40:55.71	310.46	22.27	-53.8	-58.5	3.7	0.00e+00	0	47	104	10980687872	79	24341
2026-01-15 08:40:56.71	310.75	22.13	-53.5	-58.1	3.7	0.00e+00	0	46	104	10980687872	79	23357
2026-01-15 08:40:57.71	311.04	21.98	-53.6	-58.2	3.7	0.00e+00	0	47	104	10980687872	79	23483
2026-01-15 08:40:58.71	311.33	21.84	-53.6	-58.2	3.7	0.00e+00	0	47	104	10980687872	79	23481
2026-01-15 08:40:59.71	311.62	21.69	-53.6	-58.2	3.7	0.00e+00	0	46	104	10980687872	79	23613
2026-01-15 08:41:00.70	311.90	21.55	-53.7	-58.1	3.7	0.00e+00	0	46	104	10980687872	79	23177
2026-01-15 08:41:01.70	312.18	21.41	-53.7	-58.1	3.7	0.00e+00	0	47	104	10980687872	79	23223
2026-01-15 08:41:02.69	312.46	21.27	-53.7	-58.0	3.7	0.00e+00	0	46	104	10980687872	79	23108
2026-01-15 08:41:03.69	312.73	21.13	-53.8	-58.3	3.7	0.00e+00	0	47	104	10980687872	79	23717
2026-01-15 08:41:04.69	313.00	20.99	-53.6	-58.1	3.7	0.00e+00	0	46	104	10980687872	79	23340
2026-01-15 08:41:05.69	313.27	20.84	-53.6	-58.1	3.7	0.00e+00	0	47	104	10980687872	79	23418
2026-01-15 08:41:06.69	313.54	20.70	-53.6	-58.1	3.7	0.00e+00	0	46	104	10980687872	79	23337
2026-01-15 08:41:07.69	313.80	20.56	-53.7	-58.2	3.7	0.00e+00	0	47	104	10980687872	79	23554
2026-01-15 08:41:08.69	314.06	20.42	-53.9	-58.5	3.7	0.00e+00	0	46	104	10980687872	79	24261
2026-01-15 08:41:09.69	314.32	20.28	-53.8	-58.6	3.7	0.00e+00	0	46	104	10980687872	79	24727
2026-01-15 08:41:10.68	314.57	20.15	-53.9	-58.5	3.7	0.00e+00	0	47	104	10980687872	79	24295
2026-01-15 08:41:11.69	314.83	20.01	-53.9	-58.6	3.7	0.00e+00	0	47	104	10980687872	79	24656
2026-01-15 08:41:12.69	315.08	19.87	-53.8	-58.6	3.7	0.00e+00	0	47	104	10980687872	79	24765
2026-01-15 08:41:13.68	315.32	19.73	-53.7	-58.3	3.7	0.00e+00	0	46	104	10980687872	79	23884
2026-01-15 08:41:14.68	315.57	19.60	-53.7	-58.4	3.7	0.00e+00	0	47	104	10980687872	79	24150
2026-01-15 08:41:15.68	315.81	19.46	-53.8	-58.3	3.7	0.00e+00	0	46	104	10980687872	79	23798
2026-01-15 08:41:16.67	316.05	19.33	-53.9	-58.4	3.7	0.00e+00	0	46	104	10980687872	79	24239
2026-01-15 08:41:17.68	316.29	19.19	-54.0	-58.7	3.7	0.00e+00	0	47	104	10980687872	79	24815
2026-01-15 08:41:18.68	316.53	19.06	-53.9	-58.6	3.7	0.00e+00	0	46	104	10980687872	79	24689
2026-01-15 08:41:19.68	316.76	18.92	-54.1	-58.7	3.7	0.00e+00	0	46	104	10980687872	79	25077
2026-01-15 08:41:20.67	316.99	18.79	-54.2	-58.8	3.7	0.00e+00	0	47	104	10980687872	79	25101
2026-01-15 08:41:21.68	317.22	18.65	-53.9	-58.5	3.7	0.00e+00	0	46	104	10980687872	79	24483
2026-01-15 08:41:22.68	317.44	18.52	-54.1	-58.7	3.7	0.00e+00	0	47	104	10980687872	79	24968
2026-01-15 08:41:23.68	317.67	18.39	-53.8	-58.6	3.7	0.00e+00	0	47	104	10980687872	79	24770
2026-01-15 08:41:24.68	317.89	18.26	-53.2	-58.1	3.7	0.00e+00	0	47	104	10980687872	78	24768
2026-01-15 08:41:25.69	318.11	18.13	-52.8	-57.9	3.7	0.00e+00	0	47	104	10980687872	77	25559
2026-01-15 08:41:26.69	318.33	18.00	-52.7	-58.0	3.7	0.00e+00	0	46	104	10980687872	77	25689
2026-01-15 08:41:27.69	318.55	17.87	-52.8	-58.0	3.7	0.00e+00	0	47	104	10980687872	77	25879
2026-01-15 08:41:28.69	318.76	17.74	-52.8	-58.0	3.7	0.00e+00	0	47	104	10980687872	77	25971
2026-01-15 08:41:29.69	318.97	17.61	-52.7	-58.1	3.7	0.00e+00	0	46	104	10980687872	77	25986
2026-01-15 08:41:30.70	319.18	17.48	-53.0	-58.1	3.7	0.00e+00	0	46	104	10980687872	77	26249
2026-01-15 08:41:31.69	319.39	17.35	-53.2	-58.2	3.7	0.00e+00	0	46	104	10980687872	77	26342
2026-01-15 08:41:32.70	319.59	17.22	-53.7	-58.4	3.7	0.00e+00	0	47	104	10980687872	78	25518
2026-01-15 08:41:33.70	319.80	17.10	-53.5	-58.4	3.7	0.00e+00	0	46	104	10980687872	78	25464
2026-01-15 08:41:34.70	320.00	16.97	-53.6	-58.4	3.7	0.00e+00	0	46	104	10980687872	78	25492
2026-01-15 08:41:35.70	320.20	16.84	-53.8	-58.4	3.7	0.00e+00	0	47	104	10980687872	78	25572
2026-01-15 08:41:36.70	320.39	16.72	-53.9	-58.6	3.7	0.00e+00	0	46	104	10980687872	78	26113
2026-01-15 08:41:37.70	320.59	16.59	-53.8	-58.5	3.7	0.00e+00	0	46	104	10980687872	78	25823
2026-01-15 08:41:38.70	320.78	16.47	-54.2	-58.9	3.7	0.00e+00	0	47	104	10980687872	79	25389
2026-01-15 08:41:39.70	320.98	16.35	-54.1	-58.8	3.7	0.00e+00	0	46	104	10980687872	79	25130
2026-01-15 08:41:40.70	321.17	16.22	-54.1	-58.8	3.7	0.00e+00	0	47	104	10980687872	79	25184
2026-01-15 08:41:41.70	321.35	16.10	-54.2	-58.9	3.7	0.00e+00	0	46	104	10980687872	79	25396
2026-01-15 08:41:42.70	321.54	15.98	-54.0	-58.7	3.7	0.00e+00	0	47	104	10980687872	79	24907
2026-01-15 08:41:43.70	321.72	15.86	-53.5	-58.4	3.7	0.00e+00	0	47	104	10980687872	79	24068
2026-01-15 08:41:44.70	321.91	15.74	-53.2	-58.1	3.7	0.00e+00	0	46	104	10980687872	78	24748
2026-01-15 08:41:45.70	322.09	15.62	-53.2	-58.1	3.7	0.00e+00	0	46	104	10980687872	78	24718
2026-01-15 08:41:46.70	322.27	15.50	-53.3	-58.2	3.7	0.00e+00	0	46	104	10980687872	78	25069
2026-01-15 08:41:47.70	322.45	15.38	-53.4	-58.3	3.7	0.00e+00	0	46	104	10980687872	78	25195
2026-01-15 08:41:48.69	322.62	15.26	-54.1	-58.6	3.7	0.00e+00	0	47	104	10980687872	78	26195
2026-01-15 08:41:49.70	322.80	15.14	-53.8	-58.4	3.6	0.00e+00	0	47	104	10980687872	78	25571
2026-01-15 08:41:50.69	322.97	15.03	-54.1	-58.6	3.7	0.00e+00	0	46	104	10980687872	78	26038
2026-01-15 08:41:51.70	323.14	14.91	-54.1	-58.7	3.7	0.00e+00	0	46	104	10980687872	78	26334
2026-01-15 08:41:52.70	323.31	14.79	-54.1	-58.7	3.7	0.00e+00	0	47	104	10980687872	78	26494
2026-01-15 08:41:53.70	323.48	14.68	-53.9	-58.5	3.7	0.00e+00	0	47	104	10980687872	79	24438
2026-01-15 08:41:54.70	323.65	14.56	-54.2	-58.6	3.7	0.00e+00	0	47	104	10980687872	79	24726
2026-01-15 08:41:55.69	323.81	14.45	-54.4	-59.0	3.7	0.00e+00	0	46	104	10980687872	79	25895
2026-01-15 08:41:56.70	323.98	14.33	-53.6	-58.5	3.7	0.00e+00	0	46	104	10980687872	79	24379
2026-01-15 08:41:57.70	324.14	14.22	-54.4	-59.0	3.7	0.00e+00	0	47	104	10980687872	79	25816
2026-01-15 08:41:58.69	324.30	14.11	-52.5	-57.8	3.7	0.00e+00	0	47	104	10980687872	77	25308
2026-01-15 08:41:59.69	324.46	13.99	-51.2	-56.9	3.7	0.00e+00	0	47	104	10980687872	74	27124
2026-01-15 08:42:00.66	324.61	13.89	-51.4	-57.0	3.7	0.00e+00	0	47	104	10980687872	74	27283
2026-01-15 08:42:01.66	324.77	13.77	-51.7	-57.1	3.7	0.00e+00	0	46	104	10980687872	74	27787
2026-01-15 08:42:02.66	324.92	13.66	-51.9	-57.5	3.7	0.00e+00	0	46	104	10980687872	74	28901
2026-01-15 08:42:03.66	325.08	13.55	-52.0	-57.5	3.7	0.00e+00	0	46	104	10980687872	74	28878
2026-01-15 08:42:04.66	325.23	13.44	-51.5	-57.0	3.7	0.00e+00	0	47	104	10980687872	74	27465
2026-01-15 08:42:05.66	325.38	13.33	-51.6	-57.2	3.7	0.00e+00	0	47	104	10980687872	74	27896
2026-01-15 08:42:06.67	325.53	13.22	-52.1	-57.5	3.7	0.00e+00	0	47	104	10980687872	74	28908
2026-01-15 08:42:07.67	325.68	13.11	-52.0	-57.5	3.7	0.00e+00	0	47	104	10980687872	74	29143
2026-01-15 08:42:08.66	325.83	13.01	-52.0	-57.5	3.7	0.00e+00	0	46	104	10980687872	74	28956
2026-01-15 08:42:09.67	325.98	12.90	-52.0	-57.5	3.7	0.00e+00	0	47	104	10980687872	74	28884
2026-01-15 08:42:10.67	326.12	12.79	-52.1	-57.7	3.7	0.00e+00	0	47	104	10980687872	74	29505
2026-01-15 08:42:11.67	326.27	12.68	-52.9	-58.1	3.7	0.00e+00	0	46	104	10980687872	76	27786
2026-01-15 08:42:12.67	326.41	12.58	-52.4	-57.9	3.7	0.00e+00	0	47	104	10980687872	76	27037
2026-01-15 08:42:13.67	326.55	12.47	-52.2	-57.8	3.7	0.00e+00	0	47	104	10980687872	76	26763
2026-01-15 08:42:14.67	326.69	12.37	-52.7	-58.0	3.7	0.00e+00	0	47	104	10980687872	76	27401
2026-01-15 08:42:15.67	326.83	12.26	-53.0	-58.2	3.7	0.00e+00	0	46	104	10980687872	76	28016
2026-01-15 08:42:16.67	326.97	12.16	-53.3	-58.3	3.7	0.00e+00	0	47	104	10980687872	77	26680
2026-01-15 08:42:17.67	327.10	12.05	-53.4	-58.4	3.7	0.00e+00	0	46	104	10980687872	77	26946
2026-01-15 08:42:18.67	327.24	11.95	-53.6	-58.5	3.7	0.00e+00	0	46	104	10980687872	77	27274
2026-01-15 08:42:19.67	327.37	11.85	-53.4	-58.4	3.7	0.00e+00	0	46	104	10980687872	77	26922
2026-01-15 08:42:20.67	327.51	11.75	-53.5	-58.5	3.7	0.00e+00	0	47	104	10980687872	77	27329
2026-01-15 08:42:21.67	327.64	11.64	-53.8	-58.8	3.7	0.00e+00	0	47	104	10980687872	78	26680
2026-01-15 08:42:22.68	327.77	11.54	-53.9	-58.8	3.7	0.00e+00	0	47	104	10980687872	78	26824
2026-01-15 08:42:23.67	327.90	11.44	-54.0	-58.8	3.7	0.00e+00	0	47	104	10980687872	78	26728
2026-01-15 08:42:24.68	328.03	11.34	-53.6	-58.5	3.7	0.00e+00	0	47	104	10980687872	78	25688
2026-01-15 08:42:25.68	328.16	11.24	-53.9	-58.7	3.7	0.00e+00	0	47	104	10980687872	78	26359
2026-01-15 08:42:26.68	328.29	11.14	-53.3	-58.2	3.7	0.00e+00	0	46	104	10980687872	78	25084
2026-01-15 08:42:27.68	328.41	11.04	-53.4	-58.2	3.7	0.00e+00	0	47	104	10980687872	77	26456
2026-01-15 08:42:28.68	328.54	10.94	-53.3	-58.2	3.7	0.00e+00	0	46	104	10980687872	77	26430
2026-01-15 08:42:29.68	328.66	10.84	-53.4	-58.3	3.7	0.00e+00	0	47	104	10980687872	77	26651
2026-01-15 08:42:30.68	328.78	10.75	-53.7	-58.5	3.7	0.00e+00	0	46	104	10980687872	77	27325
2026-01-15 08:42:31.68	328.91	10.65	-53.9	-58.7	3.7	0.00e+00	0	46	104	10980687872	78	26321
2026-01-15 08:42:32.68	329.03	10.55	-53.9	-58.7	3.7	0.00e+00	0	46	104	10980687872	78	26367
2026-01-15 08:42:33.68	329.15	10.45	-53.8	-58.6	3.7	0.00e+00	0	47	104	10980687872	78	26120
2026-01-15 08:42:34.68	329.27	10.36	-53.8	-58.6	3.7	0.00e+00	0	47	104	10980687872	78	25984
2026-01-15 08:42:35.68	329.39	10.26	-53.9	-58.7	3.7	0.00e+00	0	47	104	10980687872	78	26462
2026-01-15 08:42:36.68	329.50	10.17	-53.7	-58.6	3.7	0.00e+00	0	47	104	10980687872	78	25980
2026-01-15 08:42:37.68	329.62	10.07	-53.2	-58.3	3.7	0.00e+00	0	46	104	10980687872	78	25156
2026-01-15 08:42:38.68	329.73	9.98	-53.6	-58.5	3.7	0.00e+00	0	47	104	10980687872	78	25735
2026-01-15 08:42:39.68	329.85	9.88	-53.5	-58.4	3.7	0.00e+00	0	46	104	10980687872	78	25512
2026-01-15 08:42:40.69	329.96	9.79	-53.2	-58.3	3.7	0.00e+00	0	47	104	10980687872	78	25246
2026-01-15 08:42:41.69	330.08	9.69	-53.4	-58.4	3.7	0.00e+00	0	47	104	10980687872	78	25503
2026-01-15 08:42:42.69	330.19	9.60	-53.2	-58.3	3.7	0.00e+00	0	47	104	10980687872	78	25180
2026-01-15 08:42:43.69	330.30	9.51	-53.1	-58.3	3.7	0.00e+00	0	47	104	10980687872	78	25123
2026-01-15 08:42:44.69	330.41	9.42	-53.6	-58.6	3.7	0.00e+00	0	47	104	10980687872	78	26165
2026-01-15 08:42:45.69	330.52	9.32	-54.1	-58.7	3.7	0.00e+00	0	47	104	10980687872	78	26414
2026-01-15 08:42:46.69	330.63	9.23	-53.6	-58.5	3.7	0.00e+00	0	46	104	10980687872	78	25938
2026-01-15 08:42:47.69	330.74	9.14	-53.7	-58.6	3.7	0.00e+00	0	47	104	10980687872	78	26015
2026-01-15 08:42:48.69	330.84	9.05	-54.1	-58.7	3.7	0.00e+00	0	46	104	10980687872	78	26509
2026-01-15 08:42:49.69	330.95	8.96	-54.0	-58.9	3.7	0.00e+00	0	47	104	10980687872	79	25404
2026-01-15 08:42:50.69	331.06	8.87	-53.7	-58.8	3.7	0.00e+00	0	47	104	10980687872	79	25212
2026-01-15 08:42:51.68	331.16	8.78	-53.4	-58.3	3.7	0.00e+00	0	47	104	10980687872	78	25249
2026-01-15 08:42:52.68	331.26	8.69	-54.4	-58.9	3.7	0.00e+00	0	47	104	10980687872	79	25467
2026-01-15 08:42:53.67	331.36	8.60	-54.4	-58.9	3.7	0.00e+00	0	47	104	10980687872	79	25624
2026-01-15 08:42:54.67	331.47	8.52	-54.1	-58.8	3.7	0.00e+00	0	47	104	10980687872	79	25155
2026-01-15 08:42:55.67	331.57	8.43	-54.1	-58.6	3.7	0.00e+00	0	46	104	10980687872	79	24786
2026-01-15 08:42:56.66	331.67	8.34	-53.4	-58.7	3.7	0.00e+00	0	47	104	10980687872	78	26534
2026-01-15 08:42:57.66	331.77	8.25	-54.6	-59.2	3.7	0.00e+00	0	47	104	10980687872	79	26385
2026-01-15 08:42:58.65	331.87	8.17	-54.6	-59.3	3.7	0.00e+00	0	47	104	10980687872	80	25217
2026-01-15 08:42:59.65	331.97	8.08	-54.3	-59.1	3.7	0.00e+00	0	47	104	10980687872	80	24638
2026-01-15 08:43:00.65	332.06	7.99	-54.3	-58.8	3.7	0.00e+00	0	47	104	10980687872	80	23938
2026-01-15 08:43:01.65	332.16	7.91	-54.8	-59.1	3.7	0.00e+00	0	47	104	10980687872	80	24568
2026-01-15 08:43:02.65	332.26	7.82	-55.0	-59.5	3.7	0.00e+00	0	47	104	10980687872	80	25721
2026-01-15 08:43:03.64	332.35	7.74	-55.3	-59.8	3.7	0.00e+00	0	46	104	10980687872	81	25198
2026-01-15 08:43:04.64	332.45	7.65	-55.5	-59.9	3.7	0.00e+00	0	47	104	10980687872	81	25547
2026-01-15 08:43:05.64	332.54	7.57	-55.1	-59.7	3.7	0.00e+00	0	47	104	10980687872	81	24809
2026-01-15 08:43:06.64	332.64	7.48	-55.0	-59.6	3.7	0.00e+00	0	47	104	10980687872	81	24631

#Closed at: 2026-01-15 08:43:07
#Recorded file [10980 MB]: D:/Data/31040_260115_113430.dat