passes_logs/2026/01/15/T1/T1__20260115_013632_NOAA_20_JPSS-1_rec.log

#Pass ID: 20260115_013632_NOAA 20 (JPSS-1)
#Satellite: NOAA 20 (JPSS-1)
#Configuration: NOAA 20
#almurnet v.1.7.20251203
#Start time: 2026-01-15 01:36:34

#Version: 2.0.20230620
#Station: T1
#Location: 37.570604 lon 55.790049 lat
#TLE: 1 43013U 17073A   26014.13176244  .00000049  00000+0  44136-4 0  9994
#TLE: 2 43013  98.7634 315.0803 0001538  40.6488 319.4803 14.19535812422619

#Time	Az	El	Level	Level2	SNR	BER	BlckErr	Temp	State	Recorded	gain1	gain2
2026-01-15 01:36:34.29	5.05	5.08	-50.6	-66.0	3.8	1.49e+00	0	39	0	0	72	21662
2026-01-15 01:36:35.28	4.96	5.14	-50.6	-66.0	3.8	1.49e+00	0	39	104	0	73	20378
2026-01-15 01:36:36.27	4.87	5.20	-50.6	-66.0	3.8	1.49e+00	0	39	104	0	73	20401
2026-01-15 01:36:37.26	4.78	5.25	-50.6	-66.0	3.8	1.49e+00	0	39	104	0	73	20409
2026-01-15 01:36:38.26	4.69	5.31	-50.6	-66.0	3.8	1.49e+00	0	39	104	0	73	20394
2026-01-15 01:36:39.25	4.60	5.37	-50.6	-66.0	3.8	1.49e+00	0	39	104	0	73	20435
2026-01-15 01:36:40.24	4.51	5.42	-50.6	-66.0	3.8	1.49e+00	0	39	104	0	73	20436
2026-01-15 01:36:41.24	4.42	5.48	-50.6	-66.0	3.8	1.49e+00	0	39	104	0	73	20410
2026-01-15 01:36:42.23	4.32	5.54	-50.6	-66.0	3.8	1.49e+00	0	39	104	0	73	20455
2026-01-15 01:36:43.23	4.23	5.60	-50.6	-66.0	3.8	1.49e+00	0	39	104	0	73	20418
2026-01-15 01:36:44.22	4.14	5.65	-50.6	-66.0	3.8	1.49e+00	0	39	104	0	73	20398
2026-01-15 01:36:45.21	4.04	5.71	-50.6	-66.0	3.8	1.49e+00	0	39	104	0	73	20448
2026-01-15 01:36:46.21	3.95	5.77	-50.6	-66.0	3.8	1.49e+00	0	40	104	0	73	20421
2026-01-15 01:36:47.25	3.85	5.83	-50.6	-66.0	3.8	1.49e+00	0	40	104	0	73	20473
2026-01-15 01:36:48.29	3.75	5.89	-50.6	-66.0	3.8	1.49e+00	0	39	104	0	73	20406
2026-01-15 01:36:49.31	3.65	5.95	-50.6	-66.0	3.8	1.49e+00	0	40	104	0	73	20432
2026-01-15 01:36:50.34	3.55	6.01	-50.6	-66.0	3.8	1.49e+00	0	40	104	0	73	20514
2026-01-15 01:36:51.36	3.45	6.07	-50.6	-66.0	3.8	1.49e+00	0	40	104	0	73	20446
2026-01-15 01:36:52.37	3.35	6.12	-50.6	-66.0	3.8	1.49e+00	0	40	104	0	73	20501
2026-01-15 01:36:53.43	3.25	6.19	-50.6	-66.0	3.8	1.49e+00	0	39	104	0	73	20384
2026-01-15 01:36:54.36	3.16	6.24	-50.6	-66.0	3.8	1.49e+00	0	40	104	0	73	20412
2026-01-15 01:36:55.49	3.05	6.31	-50.6	-66.0	3.8	1.49e+00	0	40	104	0	73	20460
2026-01-15 01:36:56.38	2.96	6.36	-50.6	-66.0	3.8	1.49e+00	0	40	104	0	73	20395
2026-01-15 01:36:57.69	2.83	6.43	-50.6	-66.0	3.8	1.49e+00	0	40	104	0	73	20469
2026-01-15 01:36:58.40	2.76	6.48	-50.6	-66.0	3.8	1.49e+00	0	40	104	0	73	20449
2026-01-15 01:36:59.88	2.61	6.56	-50.6	-66.0	3.8	1.49e+00	0	40	104	0	73	20512
2026-01-15 01:37:00.59	2.54	6.60	-50.6	-66.0	3.8	1.49e+00	0	40	104	0	73	20526
2026-01-15 01:37:01.87	2.41	6.68	-50.6	-66.0	3.8	1.49e+00	0	40	104	0	73	20492
2026-01-15 01:37:02.58	2.34	6.72	-50.6	-66.0	3.8	1.49e+00	0	40	104	0	73	20497
2026-01-15 01:37:03.86	2.21	6.79	-50.6	-66.0	3.8	1.49e+00	0	40	104	0	73	20391
2026-01-15 01:37:04.58	2.13	6.84	-50.6	-66.0	3.8	1.49e+00	0	40	104	0	73	20444
2026-01-15 01:37:05.86	2.00	6.91	-50.6	-66.0	3.8	1.49e+00	0	40	104	0	73	20380
2026-01-15 01:37:06.57	1.93	6.95	-50.6	-66.0	3.8	1.49e+00	0	40	104	0	73	20435
2026-01-15 01:37:07.86	1.79	7.03	-50.6	-66.0	3.8	1.49e+00	0	40	104	0	73	20454
2026-01-15 01:37:08.57	1.72	7.07	-50.6	-66.0	3.8	1.49e+00	0	40	104	0	73	20448
2026-01-15 01:37:09.85	1.59	7.15	-50.6	-66.0	3.8	1.49e+00	0	40	104	0	73	20478
2026-01-15 01:37:10.56	1.51	7.19	-50.6	-66.0	3.8	1.49e+00	0	40	104	0	73	20525
2026-01-15 01:37:11.84	1.38	7.26	-50.6	-66.0	3.8	1.49e+00	0	40	104	0	73	20508
2026-01-15 01:37:12.55	1.30	7.31	-50.6	-66.0	3.8	1.49e+00	0	40	104	0	73	20466
2026-01-15 01:37:13.83	1.16	7.38	-50.6	-66.0	3.8	1.49e+00	0	40	104	0	73	20475
2026-01-15 01:37:14.54	1.09	7.42	-50.6	-66.0	3.8	1.49e+00	0	40	104	0	73	20464
2026-01-15 01:37:15.81	0.95	7.50	-50.6	-66.0	3.8	1.49e+00	0	40	104	0	73	20425
2026-01-15 01:37:16.52	0.88	7.54	-50.6	-66.0	3.8	1.49e+00	0	40	104	0	73	20426
2026-01-15 01:37:17.80	0.74	7.62	-50.6	-66.0	3.8	1.49e+00	0	40	104	0	73	20467
2026-01-15 01:37:18.51	0.66	7.66	-50.6	-66.0	3.8	1.49e+00	0	40	104	0	73	20436
2026-01-15 01:37:19.90	0.51	7.74	-50.6	-66.0	3.8	1.49e+00	0	40	104	0	73	20456
2026-01-15 01:37:20.61	0.43	7.78	-50.6	-66.0	3.8	1.49e+00	0	40	104	0	73	20448
2026-01-15 01:37:21.89	0.29	7.86	-50.6	-66.0	3.8	1.49e+00	0	40	104	0	73	20424
2026-01-15 01:37:22.60	0.21	7.90	-50.6	-66.0	3.8	1.49e+00	0	40	104	0	73	20378
2026-01-15 01:37:23.87	0.07	7.98	-50.6	-66.0	3.8	1.49e+00	0	40	104	0	73	20442
2026-01-15 01:37:24.60	359.99	8.02	-50.6	-66.0	3.8	1.49e+00	0	40	104	0	73	20362
2026-01-15 01:37:25.88	359.85	8.10	-50.6	-66.0	3.8	1.49e+00	0	41	104	0	73	20442
2026-01-15 01:37:26.59	359.77	8.14	-50.6	-66.0	3.8	1.49e+00	0	40	104	0	73	20472
2026-01-15 01:37:27.86	359.62	8.21	-50.6	-66.0	3.8	1.49e+00	0	40	104	0	73	20476
2026-01-15 01:37:28.57	359.54	8.26	-50.6	-66.0	3.8	1.49e+00	0	40	104	0	73	20422
2026-01-15 01:37:29.85	359.40	8.33	-50.6	-66.0	3.8	1.49e+00	0	41	104	0	73	20460
2026-01-15 01:37:30.56	359.32	8.37	-50.6	-66.0	3.8	1.49e+00	0	41	104	0	73	20482
2026-01-15 01:37:31.84	359.17	8.45	-50.6	-66.0	3.8	1.49e+00	0	41	104	0	73	20448
2026-01-15 01:37:32.55	359.09	8.49	-50.6	-66.0	3.8	1.49e+00	0	41	104	0	73	20431
2026-01-15 01:37:33.82	358.94	8.57	-50.6	-66.0	3.8	1.49e+00	0	41	104	0	73	20454
2026-01-15 01:37:34.53	358.86	8.61	-50.6	-66.0	3.8	1.49e+00	0	41	104	0	73	20473
2026-01-15 01:37:35.81	358.71	8.69	-50.6	-66.0	3.8	1.49e+00	0	41	104	0	73	20359
2026-01-15 01:37:36.52	358.62	8.73	-50.6	-66.0	3.8	1.49e+00	0	41	104	0	73	20528
2026-01-15 01:37:37.80	358.47	8.81	-50.6	-66.0	3.8	1.49e+00	0	41	104	0	73	20455
2026-01-15 01:37:38.51	358.39	8.85	-50.6	-66.0	3.8	1.49e+00	0	41	104	0	73	20430
2026-01-15 01:37:39.79	358.24	8.93	-50.6	-66.0	3.8	1.49e+00	0	41	104	0	73	20430
2026-01-15 01:37:40.50	358.15	8.97	-50.6	-66.0	3.8	1.49e+00	0	40	104	0	73	20369
2026-01-15 01:37:41.77	358.00	9.04	-50.6	-66.0	3.8	1.49e+00	0	41	104	0	73	20414
2026-01-15 01:37:42.48	357.92	9.09	-50.6	-66.0	3.8	1.49e+00	0	41	104	0	73	20467
2026-01-15 01:37:43.76	357.76	9.16	-50.6	-66.0	3.8	1.49e+00	0	41	104	0	73	20429
2026-01-15 01:37:44.47	357.68	9.21	-50.6	-66.0	3.8	1.49e+00	0	41	104	0	73	20516
2026-01-15 01:37:45.75	357.52	9.28	-50.6	-66.0	3.8	1.49e+00	0	41	104	0	73	20438
2026-01-15 01:37:46.46	357.43	9.33	-50.6	-66.0	3.8	1.49e+00	0	41	104	0	73	20485
2026-01-15 01:37:47.73	357.28	9.40	-50.6	-66.0	3.8	1.49e+00	0	41	104	0	73	20452
2026-01-15 01:37:48.45	357.19	9.45	-50.6	-66.0	3.8	1.49e+00	0	41	104	0	73	20463
2026-01-15 01:37:49.72	357.03	9.52	-50.6	-66.0	3.8	1.49e+00	0	41	104	0	73	20477
2026-01-15 01:37:50.43	356.94	9.56	-50.6	-66.0	3.8	1.49e+00	0	41	104	0	73	20405
2026-01-15 01:37:51.71	356.78	9.64	-50.6	-66.0	3.8	1.49e+00	0	41	104	0	73	20456
2026-01-15 01:37:52.42	356.69	9.68	-50.6	-66.0	3.8	1.49e+00	0	41	104	0	73	20473
2026-01-15 01:37:53.72	356.53	9.76	-50.6	-66.0	3.8	1.49e+00	0	41	104	0	73	20469
2026-01-15 01:37:54.42	356.44	9.80	-50.6	-66.0	3.8	1.49e+00	0	41	104	0	73	20482
2026-01-15 01:37:55.70	356.28	9.88	-50.6	-66.0	3.8	1.49e+00	0	41	104	0	73	20441
2026-01-15 01:37:56.43	356.19	9.93	-50.6	-66.0	3.8	1.49e+00	0	41	104	0	73	20477
2026-01-15 01:37:57.71	356.02	10.00	-50.6	-66.0	3.8	1.49e+00	0	41	104	0	73	20405
2026-01-15 01:37:58.42	355.93	10.05	-50.6	-66.0	3.8	1.49e+00	0	41	104	0	73	20392
2026-01-15 01:37:59.69	355.77	10.12	-50.6	-66.0	3.8	1.49e+00	0	41	104	0	73	20457
2026-01-15 01:38:00.40	355.67	10.16	-50.6	-66.0	3.8	1.49e+00	0	41	104	0	73	20473
2026-01-15 01:38:01.68	355.51	10.24	-50.6	-66.0	3.8	1.49e+00	0	41	104	0	73	20462
2026-01-15 01:38:02.39	355.41	10.28	-50.6	-66.0	3.8	1.49e+00	0	41	104	0	73	20410
2026-01-15 01:38:03.67	355.25	10.36	-50.6	-66.0	3.8	1.49e+00	0	41	104	0	73	20517
2026-01-15 01:38:04.40	355.15	10.41	-50.6	-66.0	3.8	1.49e+00	0	41	104	0	73	20490
2026-01-15 01:38:05.67	354.98	10.48	-50.6	-66.0	3.8	1.49e+00	0	41	104	0	73	20439
2026-01-15 01:38:06.38	354.89	10.52	-50.6	-66.0	3.8	1.49e+00	0	41	104	0	73	20313
2026-01-15 01:38:07.66	354.72	10.60	-50.6	-66.0	3.8	1.49e+00	0	41	104	0	73	20506
2026-01-15 01:38:08.39	354.62	10.65	-50.6	-66.0	3.8	1.49e+00	0	41	104	0	73	20377
2026-01-15 01:38:09.66	354.45	10.72	-50.6	-66.0	3.8	1.49e+00	0	41	104	0	73	20410
2026-01-15 01:38:10.38	354.35	10.77	-50.6	-66.0	3.8	1.49e+00	0	41	104	0	73	20410
2026-01-15 01:38:11.65	354.18	10.84	-50.6	-66.0	3.8	1.49e+00	0	41	104	0	73	20456
2026-01-15 01:38:12.36	354.08	10.88	-50.6	-66.0	3.8	1.49e+00	0	41	104	0	73	20378
2026-01-15 01:38:13.64	353.91	10.96	-50.6	-66.0	3.8	1.49e+00	0	41	104	0	73	20487
2026-01-15 01:38:14.35	353.81	11.00	-50.6	-66.0	3.8	1.49e+00	0	41	104	0	73	20462
2026-01-15 01:38:15.63	353.63	11.08	-50.6	-66.0	3.8	1.49e+00	0	41	104	0	73	20395
2026-01-15 01:38:16.34	353.53	11.12	-50.6	-66.0	3.8	1.49e+00	0	41	104	0	73	20488
2026-01-15 01:38:17.61	353.36	11.20	-50.6	-66.0	3.8	1.49e+00	0	41	104	0	73	20433
2026-01-15 01:38:18.32	353.26	11.24	-50.6	-66.0	3.8	1.49e+00	0	41	104	0	73	20467
2026-01-15 01:38:19.60	353.08	11.32	-50.6	-66.0	3.8	1.49e+00	0	41	104	0	73	20479
2026-01-15 01:38:20.31	352.98	11.36	-50.6	-66.0	3.8	1.49e+00	0	41	104	0	73	20422
2026-01-15 01:38:21.59	352.80	11.44	-50.6	-66.0	3.8	1.49e+00	0	41	104	0	73	20447
2026-01-15 01:38:22.30	352.69	11.48	-50.6	-66.0	3.8	1.49e+00	0	41	104	0	73	20502
2026-01-15 01:38:23.58	352.51	11.56	-50.6	-66.0	3.8	1.49e+00	0	41	104	0	73	20516
2026-01-15 01:38:24.29	352.41	11.60	-50.6	-66.0	3.8	1.49e+00	0	41	104	0	73	20514
2026-01-15 01:38:25.56	352.23	11.68	-50.6	-66.0	3.8	1.49e+00	0	41	104	0	73	20436
2026-01-15 01:38:26.27	352.12	11.72	-50.6	-66.0	3.8	1.49e+00	0	41	104	0	73	20471
2026-01-15 01:38:27.55	351.94	11.80	-50.6	-66.0	3.8	1.49e+00	0	41	104	0	73	20454
2026-01-15 01:38:28.32	351.83	11.84	-50.6	-66.0	3.8	1.49e+00	0	41	104	0	73	20465
2026-01-15 01:38:29.60	351.64	11.92	-50.6	-66.0	3.8	1.49e+00	0	41	104	0	73	20522
2026-01-15 01:38:30.31	351.53	11.96	-50.6	-66.0	3.8	1.49e+00	0	41	104	0	73	20438
2026-01-15 01:38:31.59	351.35	12.04	-50.6	-66.0	3.8	1.49e+00	0	41	104	0	73	20408
2026-01-15 01:38:32.30	351.24	12.08	-50.6	-66.0	3.8	1.49e+00	0	41	104	0	73	20417
2026-01-15 01:38:33.58	351.05	12.16	-50.6	-66.0	3.8	1.49e+00	0	41	104	0	73	20428
2026-01-15 01:38:34.29	350.94	12.20	-50.6	-66.0	3.8	1.49e+00	0	41	104	0	73	20461
2026-01-15 01:38:35.58	350.75	12.27	-50.6	-66.0	3.8	1.49e+00	0	41	104	0	73	20521
2026-01-15 01:38:36.29	350.64	12.32	-50.6	-66.0	3.8	1.49e+00	0	41	104	0	73	20502
2026-01-15 01:38:37.64	350.44	12.40	-50.6	-66.0	3.8	1.49e+00	0	41	104	0	73	20399
2026-01-15 01:38:38.35	350.33	12.44	-50.6	-66.0	3.8	1.49e+00	0	41	104	0	73	20395
2026-01-15 01:38:39.69	350.13	12.52	-50.6	-66.0	3.8	1.49e+00	0	41	104	0	73	20468
2026-01-15 01:38:40.40	350.02	12.56	-50.6	-66.0	3.8	1.49e+00	0	41	104	0	73	20378
2026-01-15 01:38:41.75	349.81	12.64	-50.6	-66.0	3.8	1.49e+00	0	41	104	0	73	20467
2026-01-15 01:38:42.46	349.70	12.68	-50.6	-66.0	3.8	1.49e+00	0	41	104	0	73	20403
2026-01-15 01:38:43.81	349.49	12.76	-50.6	-66.0	3.8	1.49e+00	0	41	104	0	73	20482
2026-01-15 01:38:44.51	349.38	12.80	-50.6	-66.0	3.8	1.49e+00	0	41	104	0	73	20469
2026-01-15 01:38:45.86	349.17	12.88	-50.6	-66.0	3.8	1.49e+00	0	41	104	0	73	20484
2026-01-15 01:38:46.56	349.06	12.92	-50.6	-66.0	3.8	1.49e+00	0	41	104	0	73	20523
2026-01-15 01:38:47.91	348.85	13.00	-50.6	-66.1	3.8	1.49e+00	0	41	104	0	73	20560
2026-01-15 01:38:48.62	348.73	13.04	-50.6	-66.0	3.8	1.49e+00	0	41	104	0	73	20441
2026-01-15 01:38:49.89	348.53	13.12	-50.6	-66.0	3.8	1.49e+00	0	41	104	0	73	20515
2026-01-15 01:38:50.62	348.42	13.16	-50.6	-66.0	3.8	1.49e+00	0	41	104	0	73	20506
2026-01-15 01:38:51.90	348.21	13.24	-50.6	-66.1	3.8	1.49e+00	0	41	104	0	73	20550
2026-01-15 01:38:52.61	348.10	13.28	-50.6	-66.0	3.8	1.49e+00	0	41	104	0	73	20454
2026-01-15 01:38:53.88	347.89	13.35	-50.6	-66.0	3.8	1.49e+00	0	41	104	0	73	20497
2026-01-15 01:38:54.59	347.77	13.39	-50.6	-66.0	3.8	1.49e+00	0	41	104	0	73	20396
2026-01-15 01:38:55.87	347.57	13.47	-50.6	-66.0	3.8	1.49e+00	0	41	104	0	73	20444
2026-01-15 01:38:56.60	347.45	13.51	-50.6	-66.0	3.8	1.49e+00	0	41	104	0	73	20494
2026-01-15 01:38:57.88	347.24	13.58	-50.6	-66.0	3.8	1.49e+00	0	41	104	0	73	20513
2026-01-15 01:38:58.58	347.12	13.62	-50.6	-66.0	3.8	1.49e+00	0	41	104	0	73	20443
2026-01-15 01:38:59.86	346.91	13.70	-50.6	-66.0	3.8	1.49e+00	0	41	104	0	73	20413
2026-01-15 01:39:00.57	346.79	13.74	-50.6	-66.0	3.8	1.49e+00	0	41	104	0	73	20518
2026-01-15 01:39:01.85	346.58	13.81	-50.6	-66.0	3.8	1.49e+00	0	41	104	0	73	20443
2026-01-15 01:39:02.57	346.46	13.85	-50.6	-66.0	3.8	1.49e+00	0	41	104	0	73	20468
2026-01-15 01:39:03.85	346.24	13.93	-50.6	-66.0	3.8	1.49e+00	0	41	104	0	73	20422
2026-01-15 01:39:04.56	346.12	13.97	-50.6	-66.0	3.8	1.49e+00	0	41	104	0	73	20405
2026-01-15 01:39:05.84	345.90	14.04	-50.6	-66.0	3.8	1.49e+00	0	41	104	0	73	20522
2026-01-15 01:39:06.55	345.78	14.08	-50.6	-66.0	3.8	1.49e+00	0	41	104	0	73	20364
2026-01-15 01:39:07.83	345.56	14.15	-50.6	-66.0	3.8	1.49e+00	0	41	104	0	73	20438
2026-01-15 01:39:08.55	345.44	14.19	-50.6	-66.0	3.8	1.49e+00	0	41	104	0	73	20337
2026-01-15 01:39:09.83	345.22	14.27	-50.6	-66.0	3.8	1.49e+00	0	41	104	0	73	20443
2026-01-15 01:39:10.54	345.10	14.31	-50.6	-66.0	3.8	1.49e+00	0	41	104	0	73	20433
2026-01-15 01:39:11.84	344.87	14.38	-50.6	-66.0	3.8	1.49e+00	0	41	104	0	73	20454
2026-01-15 01:39:12.55	344.75	14.42	-50.6	-66.0	3.8	1.49e+00	0	41	104	0	73	20406
2026-01-15 01:39:13.82	344.53	14.49	-50.6	-66.0	3.8	1.49e+00	0	41	104	0	73	20474
2026-01-15 01:39:14.55	344.40	14.53	-50.6	-66.0	3.8	1.49e+00	0	41	104	0	73	20434
2026-01-15 01:39:15.83	344.17	14.60	-50.6	-66.0	3.8	1.49e+00	0	41	104	0	73	20460
2026-01-15 01:39:16.54	344.05	14.64	-50.6	-66.0	3.8	1.49e+00	0	41	104	0	73	20442
2026-01-15 01:39:17.81	343.82	14.71	-50.6	-66.0	3.8	1.49e+00	0	41	104	0	73	20509
2026-01-15 01:39:18.52	343.69	14.75	-50.6	-66.0	3.8	1.49e+00	0	41	104	0	73	20461
2026-01-15 01:39:19.80	343.46	14.82	-50.6	-66.0	3.8	1.49e+00	0	41	104	0	73	20424
2026-01-15 01:39:20.51	343.34	14.86	-50.6	-66.0	3.8	1.49e+00	0	41	104	0	73	20492
2026-01-15 01:39:21.78	343.11	14.93	-50.6	-66.0	3.8	1.49e+00	0	41	104	0	73	20505
2026-01-15 01:39:22.49	342.98	14.97	-50.6	-66.0	3.8	1.49e+00	0	41	104	0	73	20495
2026-01-15 01:39:23.77	342.75	15.04	-50.6	-66.0	3.8	1.49e+00	0	41	104	0	73	20395
2026-01-15 01:39:24.50	342.61	15.08	-50.6	-66.0	3.8	1.49e+00	0	41	104	0	73	20487
2026-01-15 01:39:25.77	342.38	15.15	-50.6	-66.1	3.8	1.49e+00	0	41	104	0	73	20559
2026-01-15 01:39:26.48	342.25	15.19	-50.6	-66.0	3.8	1.49e+00	0	41	104	0	73	20504
2026-01-15 01:39:27.76	342.02	15.25	-50.6	-66.0	3.8	1.49e+00	0	41	104	0	73	20483
2026-01-15 01:39:28.47	341.88	15.29	-50.6	-66.0	3.8	1.49e+00	0	41	104	0	73	20406
2026-01-15 01:39:29.75	341.65	15.36	-50.6	-66.1	3.8	1.49e+00	0	41	104	0	73	20571
2026-01-15 01:39:30.46	341.51	15.40	-50.6	-66.0	3.8	1.49e+00	0	41	104	0	73	20473
2026-01-15 01:39:31.74	341.27	15.47	-50.6	-66.0	3.8	1.49e+00	0	41	104	0	73	20464
2026-01-15 01:39:32.46	341.14	15.50	-50.6	-66.0	3.8	1.49e+00	0	41	104	0	73	20368
2026-01-15 01:39:33.74	340.90	15.57	-50.6	-66.0	3.8	1.49e+00	0	41	104	0	73	20458
2026-01-15 01:39:34.45	340.76	15.61	-50.6	-66.0	3.8	1.49e+00	0	41	104	0	73	20537
2026-01-15 01:39:35.72	340.52	15.68	-50.6	-66.0	3.8	1.49e+00	0	41	104	0	73	20513
2026-01-15 01:39:36.44	340.39	15.71	-50.6	-66.0	3.8	1.49e+00	0	41	104	0	73	20470
2026-01-15 01:39:37.72	340.14	15.78	-50.6	-66.0	3.8	1.49e+00	0	41	104	0	73	20442
2026-01-15 01:39:38.44	340.00	15.82	-50.6	-66.0	3.8	1.49e+00	0	41	104	0	73	20527
2026-01-15 01:39:39.81	339.74	15.89	-50.7	-66.0	3.8	1.49e+00	0	41	104	0	73	20461
2026-01-15 01:39:40.52	339.60	15.92	-50.6	-66.0	3.8	1.49e+00	0	41	104	0	73	20461
2026-01-15 01:39:41.86	339.34	15.99	-50.7	-66.0	3.8	1.49e+00	0	41	104	0	73	20531
2026-01-15 01:39:42.57	339.20	16.03	-50.6	-66.0	3.8	1.49e+00	0	41	104	0	73	20407
2026-01-15 01:39:43.85	338.95	16.09	-50.6	-66.0	3.8	1.49e+00	0	41	104	0	73	20463
2026-01-15 01:39:44.58	338.81	16.13	-50.7	-66.0	3.8	1.49e+00	0	41	104	0	73	20504
2026-01-15 01:39:45.85	338.56	16.19	-50.6	-66.0	3.8	1.49e+00	0	41	104	0	73	20472
2026-01-15 01:39:46.56	338.42	16.23	-50.6	-66.0	3.8	1.49e+00	0	41	104	0	73	20512
2026-01-15 01:39:47.84	338.17	16.29	-50.6	-66.0	3.8	1.49e+00	0	41	104	0	73	20406
2026-01-15 01:39:48.55	338.03	16.33	-50.6	-66.0	3.8	1.49e+00	0	41	104	0	73	20451
2026-01-15 01:39:49.83	337.77	16.39	-50.7	-66.0	3.8	1.49e+00	0	41	104	0	73	20443
2026-01-15 01:39:50.55	337.63	16.42	-50.6	-66.0	3.8	1.49e+00	0	41	104	0	73	20500
2026-01-15 01:39:51.83	337.37	16.49	-50.6	-66.0	3.8	1.49e+00	0	41	104	0	73	20436
2026-01-15 01:39:52.54	337.23	16.52	-50.6	-66.0	3.8	1.49e+00	0	41	104	0	73	20456
2026-01-15 01:39:53.81	336.97	16.58	-50.7	-66.0	3.8	1.49e+00	0	41	104	0	73	20470
2026-01-15 01:39:54.53	336.83	16.61	-50.6	-66.0	3.8	1.49e+00	0	41	104	0	73	20424
2026-01-15 01:39:55.80	336.57	16.67	-50.7	-66.0	3.8	1.49e+00	0	41	104	0	73	20394
2026-01-15 01:39:56.53	336.42	16.71	-50.6	-66.0	3.8	1.49e+00	0	41	104	0	73	20491
2026-01-15 01:39:57.82	336.16	16.77	-50.6	-66.0	3.8	1.49e+00	0	41	104	0	73	20463
2026-01-15 01:39:58.53	336.01	16.80	-50.7	-66.0	3.8	1.49e+00	0	41	104	0	73	20392
2026-01-15 01:39:59.87	335.74	16.86	-50.6	-66.0	3.8	1.49e+00	0	41	104	0	73	20419
2026-01-15 01:40:00.58	335.59	16.90	-50.6	-66.0	3.8	1.49e+00	0	41	104	0	73	20498
2026-01-15 01:40:01.86	335.32	16.96	-50.6	-66.0	3.8	1.49e+00	0	41	104	0	73	20458
2026-01-15 01:40:02.57	335.18	16.99	-50.7	-66.0	3.8	1.49e+00	0	41	104	0	73	20444
2026-01-15 01:40:03.85	334.91	17.05	-50.6	-66.0	3.8	1.49e+00	0	42	104	0	73	20413
2026-01-15 01:40:04.56	334.76	17.08	-50.7	-66.0	3.8	1.49e+00	0	41	104	0	73	20412
2026-01-15 01:40:05.84	334.49	17.13	-50.7	-66.0	3.8	1.49e+00	0	41	104	0	73	20379
2026-01-15 01:40:06.54	334.35	17.17	-50.6	-66.0	3.8	1.49e+00	0	42	104	0	73	20502
2026-01-15 01:40:07.82	334.08	17.22	-50.7	-66.0	3.8	1.49e+00	0	41	104	0	73	20523
2026-01-15 01:40:08.55	333.92	17.25	-50.7	-66.0	3.8	1.49e+00	0	41	104	0	73	20463
2026-01-15 01:40:09.83	333.65	17.31	-50.7	-66.0	3.8	1.49e+00	0	41	104	0	73	20419
2026-01-15 01:40:10.54	333.50	17.34	-50.6	-66.0	3.8	1.49e+00	0	41	104	0	73	20511
2026-01-15 01:40:11.81	333.23	17.39	-50.7	-66.0	3.8	1.49e+00	0	41	104	0	73	20499
2026-01-15 01:40:12.52	333.08	17.42	-50.6	-66.0	3.8	1.49e+00	0	41	104	0	73	20524
2026-01-15 01:40:13.80	332.80	17.48	-50.6	-66.0	3.8	1.49e+00	0	41	104	0	73	20435
2026-01-15 01:40:14.52	332.65	17.51	-50.7	-66.0	3.8	1.49e+00	0	41	104	0	73	20477
2026-01-15 01:40:15.80	332.37	17.56	-50.7	-66.0	3.8	1.49e+00	0	41	104	0	73	20502
2026-01-15 01:40:16.51	332.22	17.59	-50.7	-66.0	3.8	1.49e+00	0	41	104	0	73	20509
2026-01-15 01:40:17.79	331.94	17.64	-50.6	-66.0	3.8	1.49e+00	0	41	104	0	73	20454
2026-01-15 01:40:18.52	331.78	17.67	-50.7	-66.0	3.8	1.49e+00	0	41	104	0	73	20501
2026-01-15 01:40:19.88	331.49	17.72	-50.6	-66.0	3.8	1.49e+00	0	41	104	0	73	20425
2026-01-15 01:40:20.59	331.33	17.75	-50.6	-66.0	3.8	1.49e+00	0	41	104	0	73	20444
2026-01-15 01:40:21.87	331.05	17.80	-50.7	-66.0	3.8	1.49e+00	0	41	104	0	73	20496
2026-01-15 01:40:22.60	330.89	17.83	-50.7	-66.1	3.8	1.49e+00	0	41	104	0	73	20541
2026-01-15 01:40:23.87	330.61	17.88	-50.6	-66.1	3.8	1.49e+00	0	41	104	0	73	20567
2026-01-15 01:40:24.58	330.45	17.90	-50.7	-66.0	3.8	1.49e+00	0	41	104	0	73	20443
2026-01-15 01:40:25.86	330.17	17.95	-50.7	-66.0	3.8	1.49e+00	0	42	104	0	73	20463
2026-01-15 01:40:26.57	330.01	17.98	-50.7	-66.0	3.8	1.49e+00	0	41	104	0	73	20509
2026-01-15 01:40:27.85	329.73	18.03	-50.6	-66.0	3.8	1.49e+00	0	42	104	0	73	20472
2026-01-15 01:40:28.56	329.57	18.05	-50.7	-66.0	3.8	1.49e+00	0	41	104	0	73	20492
2026-01-15 01:40:29.84	329.28	18.10	-50.6	-66.0	3.8	1.49e+00	0	42	104	0	73	20469
2026-01-15 01:40:30.55	329.12	18.12	-50.6	-66.0	3.8	1.49e+00	0	41	104	0	73	20435
2026-01-15 01:40:31.83	328.84	18.17	-50.7	-66.0	3.8	1.49e+00	0	41	104	0	73	20523
2026-01-15 01:40:32.54	328.68	18.19	-50.7	-66.0	3.8	1.49e+00	0	41	104	0	73	20499
2026-01-15 01:40:33.81	328.39	18.24	-50.7	-66.0	3.8	1.49e+00	0	41	104	0	73	20404
2026-01-15 01:40:34.54	328.22	18.26	-50.6	-66.0	3.8	1.49e+00	0	41	104	0	73	20467
2026-01-15 01:40:35.82	327.93	18.30	-50.6	-66.0	3.8	1.49e+00	0	41	104	0	73	20514
2026-01-15 01:40:36.54	327.77	18.33	-50.6	-66.0	3.8	1.49e+00	0	41	104	0	73	20447
2026-01-15 01:40:37.82	327.48	18.37	-50.7	-66.0	3.8	1.49e+00	0	41	104	0	73	20513
2026-01-15 01:40:38.54	327.32	18.39	-50.6	-66.0	3.8	1.49e+00	0	41	104	0	73	20501
2026-01-15 01:40:39.82	327.02	18.43	-50.7	-66.0	3.8	1.49e+00	0	41	104	0	73	20488
2026-01-15 01:40:40.53	326.86	18.46	-50.6	-66.0	3.8	1.49e+00	0	41	104	0	73	20537
2026-01-15 01:40:41.81	326.57	18.50	-50.7	-66.0	3.8	1.49e+00	0	41	104	0	73	20514
2026-01-15 01:40:42.53	326.40	18.52	-50.7	-66.0	3.8	1.49e+00	0	41	104	0	73	20479
2026-01-15 01:40:43.81	326.10	18.56	-50.7	-66.0	3.8	1.49e+00	0	41	104	0	73	20435
2026-01-15 01:40:44.54	325.94	18.58	-50.6	-66.0	3.8	1.49e+00	0	41	104	0	73	20530
2026-01-15 01:40:45.81	325.64	18.61	-50.7	-66.0	3.8	1.49e+00	0	41	104	0	73	20420
2026-01-15 01:40:46.52	325.48	18.63	-50.7	-66.0	3.8	1.49e+00	0	41	104	0	73	20474
2026-01-15 01:40:47.80	325.18	18.67	-50.6	-66.1	3.8	1.49e+00	0	41	104	0	73	20571
2026-01-15 01:40:48.51	325.01	18.69	-50.6	-66.1	3.8	1.49e+00	0	41	104	0	73	20544
2026-01-15 01:40:49.80	324.71	18.73	-50.6	-66.0	3.8	1.49e+00	0	41	104	0	73	20510
2026-01-15 01:40:50.51	324.55	18.74	-50.7	-66.0	3.8	1.49e+00	0	41	104	0	73	20408
2026-01-15 01:40:51.87	324.23	18.78	-50.6	-66.0	3.8	1.49e+00	0	41	104	0	73	20459
2026-01-15 01:40:52.58	324.06	18.80	-50.7	-66.0	3.8	1.49e+00	0	41	104	0	73	20508
2026-01-15 01:40:53.85	323.76	18.83	-50.6	-66.0	3.8	1.49e+00	0	41	104	0	73	20513
2026-01-15 01:40:54.56	323.60	18.85	-50.6	-66.0	3.8	1.49e+00	0	41	104	0	73	20453
2026-01-15 01:40:55.84	323.29	18.88	-50.7	-66.0	3.8	1.49e+00	0	41	104	0	73	20396
2026-01-15 01:40:56.57	323.12	18.90	-50.7	-66.0	3.8	1.49e+00	0	41	104	0	73	20515
2026-01-15 01:40:57.84	322.82	18.93	-50.7	-66.0	3.8	1.49e+00	0	41	104	0	73	20509
2026-01-15 01:40:58.55	322.65	18.94	-50.6	-66.0	3.8	1.49e+00	0	41	104	0	73	20454
2026-01-15 01:40:59.85	322.35	18.97	-50.7	-66.0	3.8	1.49e+00	0	41	104	0	73	20477
2026-01-15 01:41:00.56	322.18	18.99	-50.6	-66.0	3.8	1.49e+00	0	41	104	0	73	20471
2026-01-15 01:41:01.83	321.87	19.02	-50.7	-66.0	3.8	1.49e+00	0	41	104	0	73	20426
2026-01-15 01:41:02.54	321.71	19.03	-50.6	-66.0	3.8	1.49e+00	0	41	104	0	73	20468
2026-01-15 01:41:03.82	321.40	19.06	-50.7	-66.1	3.8	1.49e+00	0	41	104	0	73	20541
2026-01-15 01:41:04.53	321.23	19.07	-50.6	-66.1	3.8	1.49e+00	0	42	104	0	73	20609
2026-01-15 01:41:05.81	320.92	19.10	-50.7	-66.0	3.8	1.49e+00	0	42	104	0	73	20433
2026-01-15 01:41:06.53	320.75	19.11	-50.7	-66.0	3.8	1.49e+00	0	42	104	0	73	20467
2026-01-15 01:41:07.81	320.44	19.13	-50.6	-66.0	3.8	1.49e+00	0	41	104	0	73	20457
2026-01-15 01:41:08.52	320.27	19.15	-50.7	-66.1	3.8	1.49e+00	0	41	104	0	73	20542
2026-01-15 01:41:09.80	319.97	19.17	-50.7	-66.0	3.8	1.49e+00	0	41	104	0	73	20534
2026-01-15 01:41:10.52	319.79	19.18	-50.6	-66.0	3.8	1.49e+00	0	41	104	0	73	20490
2026-01-15 01:41:11.80	319.48	19.20	-50.7	-66.0	3.8	1.49e+00	0	41	104	0	73	20442
2026-01-15 01:41:12.51	319.31	19.21	-50.7	-66.0	3.8	1.49e+00	0	41	104	0	73	20450
2026-01-15 01:41:13.79	319.00	19.23	-50.6	-66.0	3.8	1.49e+00	0	41	104	0	73	20416
2026-01-15 01:41:14.50	318.83	19.25	-50.6	-66.0	3.8	1.49e+00	0	41	104	0	73	20483
2026-01-15 01:41:15.78	318.52	19.26	-50.6	-66.0	3.8	1.49e+00	0	41	104	0	73	20484
2026-01-15 01:41:16.49	318.35	19.27	-50.6	-66.0	3.8	1.49e+00	0	42	104	0	73	20509
2026-01-15 01:41:17.77	318.04	19.29	-50.6	-66.0	3.8	1.49e+00	0	41	104	0	73	20376
2026-01-15 01:41:18.49	317.86	19.30	-50.6	-66.0	3.8	1.49e+00	0	41	104	0	73	20461
2026-01-15 01:41:19.77	317.55	19.32	-50.6	-66.1	3.8	1.49e+00	0	41	104	0	73	20568
2026-01-15 01:41:20.48	317.38	19.32	-50.6	-66.0	3.8	1.49e+00	0	41	104	0	73	20409
2026-01-15 01:41:21.76	317.07	19.34	-50.6	-66.0	3.8	1.49e+00	0	41	104	0	73	20427
2026-01-15 01:41:22.47	316.90	19.35	-50.6	-66.0	3.8	1.49e+00	0	41	104	0	73	20467
2026-01-15 01:41:23.74	316.59	19.36	-50.6	-66.0	3.8	1.49e+00	0	41	104	0	73	20437
2026-01-15 01:41:24.45	316.41	19.37	-50.6	-66.0	3.8	1.49e+00	0	41	104	0	73	20458
2026-01-15 01:41:25.73	316.10	19.38	-50.6	-66.0	3.8	1.49e+00	0	41	104	0	73	20522
2026-01-15 01:41:26.45	315.93	19.38	-50.6	-66.1	3.8	1.49e+00	0	41	104	0	73	20548
2026-01-15 01:41:27.81	315.59	19.39	-50.6	-66.0	3.8	1.49e+00	0	41	104	0	73	20457
2026-01-15 01:41:28.52	315.42	19.40	-50.6	-66.0	3.8	1.49e+00	0	41	104	0	73	20520
2026-01-15 01:41:29.86	315.09	19.41	-50.6	-66.0	3.8	1.49e+00	0	42	104	0	73	20493
2026-01-15 01:41:30.57	314.92	19.41	-50.6	-66.0	3.8	1.49e+00	0	41	104	0	73	20445
2026-01-15 01:41:31.85	314.61	19.42	-50.6	-66.0	3.8	1.49e+00	0	41	104	0	73	20390
2026-01-15 01:41:32.56	314.43	19.43	-50.6	-66.0	3.8	1.49e+00	0	41	104	0	73	20477
2026-01-15 01:41:33.83	314.12	19.43	-50.6	-66.0	3.8	1.49e+00	0	42	104	0	73	20481
2026-01-15 01:41:34.54	313.95	19.43	-50.6	-66.0	3.8	1.49e+00	0	41	104	0	73	20502
2026-01-15 01:41:35.82	313.63	19.44	-50.6	-66.0	3.8	1.49e+00	0	41	104	0	73	20401
2026-01-15 01:41:36.55	313.45	19.44	-50.6	-66.0	3.8	1.49e+00	0	41	104	0	73	20425
2026-01-15 01:41:37.82	313.14	19.44	-50.6	-66.0	3.8	1.49e+00	0	41	104	0	73	20466
2026-01-15 01:41:38.53	312.97	19.45	-50.6	-66.0	3.8	1.49e+00	0	41	104	0	73	20438
2026-01-15 01:41:39.81	312.66	19.45	-50.6	-66.0	3.8	1.49e+00	0	41	104	0	73	20459
2026-01-15 01:41:40.52	312.48	19.45	-50.6	-66.0	3.8	1.49e+00	0	41	104	0	73	20407
2026-01-15 01:41:41.80	312.17	19.45	-50.6	-66.0	3.8	1.49e+00	0	41	104	0	73	20432
2026-01-15 01:41:42.51	311.99	19.45	-50.6	-66.0	3.8	1.49e+00	0	41	104	0	73	20458
2026-01-15 01:41:43.79	311.68	19.45	-50.6	-66.0	3.8	1.49e+00	0	41	104	0	73	20517
2026-01-15 01:41:44.51	311.50	19.45	-50.6	-66.0	3.8	1.49e+00	0	41	104	0	73	20396
2026-01-15 01:41:45.79	311.19	19.45	-50.6	-66.0	3.8	1.49e+00	0	41	104	0	73	20463
2026-01-15 01:41:46.50	311.01	19.44	-50.6	-66.0	3.8	1.49e+00	0	41	104	0	73	20459
2026-01-15 01:41:47.78	310.70	19.44	-50.6	-66.0	3.8	1.49e+00	0	41	104	0	73	20478
2026-01-15 01:41:48.49	310.53	19.44	-50.6	-66.0	3.8	1.49e+00	0	41	104	0	73	20452
2026-01-15 01:41:49.77	310.21	19.43	-50.6	-66.0	3.8	1.49e+00	0	41	104	0	73	20485
2026-01-15 01:41:50.48	310.04	19.43	-50.6	-66.0	3.8	1.49e+00	0	41	104	0	73	20443
2026-01-15 01:41:51.75	309.73	19.42	-50.6	-66.0	3.8	1.49e+00	0	41	104	0	73	20482
2026-01-15 01:41:52.46	309.55	19.42	-50.6	-66.0	3.8	1.49e+00	0	41	104	0	73	20493
2026-01-15 01:41:53.74	309.24	19.41	-50.6	-66.0	3.8	1.49e+00	0	41	104	0	73	20453
2026-01-15 01:41:54.48	309.06	19.41	-50.6	-66.0	3.8	1.49e+00	0	41	104	0	73	20474
2026-01-15 01:41:55.76	308.75	19.40	-50.6	-66.0	3.8	1.49e+00	0	41	104	0	73	20445
2026-01-15 01:41:56.47	308.57	19.39	-50.6	-66.0	3.8	1.49e+00	0	41	104	0	73	20394
2026-01-15 01:41:57.75	308.26	19.38	-50.6	-66.0	3.8	1.49e+00	0	41	104	0	73	20436
2026-01-15 01:41:58.46	308.09	19.37	-50.6	-66.0	3.8	1.49e+00	0	41	104	0	73	20420
2026-01-15 01:41:59.73	307.78	19.36	-50.6	-66.0	3.8	1.49e+00	0	41	104	0	73	20404
2026-01-15 01:42:00.53	307.58	19.35	-50.6	-66.0	3.8	1.49e+00	0	41	104	0	73	20466
2026-01-15 01:42:01.66	307.31	19.34	-50.6	-66.0	3.8	1.49e+00	0	41	104	0	73	20376
2026-01-15 01:42:02.51	307.10	19.33	-50.6	-66.0	3.8	1.49e+00	0	41	104	0	73	20382
2026-01-15 01:42:03.65	306.82	19.32	-50.6	-66.0	3.8	1.49e+00	0	41	104	0	73	20438
2026-01-15 01:42:04.50	306.62	19.31	-50.6	-66.0	3.8	1.49e+00	0	41	104	0	73	20404
2026-01-15 01:42:05.64	306.34	19.30	-50.6	-66.0	3.8	1.49e+00	0	41	104	0	73	20392
2026-01-15 01:42:06.49	306.13	19.28	-50.6	-66.0	3.8	1.49e+00	0	41	104	0	73	20375
2026-01-15 01:42:07.62	305.86	19.27	-50.6	-66.0	3.8	1.49e+00	0	41	104	0	73	20398
2026-01-15 01:42:08.48	305.65	19.26	-50.6	-66.0	3.8	1.49e+00	0	41	104	0	73	20445
2026-01-15 01:42:09.61	305.38	19.24	-50.6	-66.0	3.8	1.49e+00	0	41	104	0	73	20502
2026-01-15 01:42:10.46	305.17	19.23	-50.6	-66.0	3.8	1.49e+00	0	41	104	0	73	20386
2026-01-15 01:42:11.60	304.89	19.21	-50.6	-66.0	3.8	1.49e+00	0	41	104	0	73	20449
2026-01-15 01:42:12.45	304.69	19.20	-50.6	-66.0	3.8	1.49e+00	0	41	104	0	73	20523
2026-01-15 01:42:13.59	304.41	19.18	-50.6	-66.0	3.8	1.49e+00	0	41	104	0	73	20423
2026-01-15 01:42:14.44	304.21	19.16	-50.6	-66.0	3.8	1.49e+00	0	41	104	0	73	20344
2026-01-15 01:42:15.58	303.94	19.14	-50.6	-66.0	3.8	1.49e+00	0	41	104	0	73	20518
2026-01-15 01:42:16.43	303.73	19.13	-50.6	-66.0	3.8	1.49e+00	0	41	104	0	73	20464
2026-01-15 01:42:17.56	303.46	19.11	-50.6	-66.0	3.8	1.49e+00	0	41	104	0	73	20426
2026-01-15 01:42:18.42	303.25	19.09	-50.6	-66.0	3.8	1.49e+00	0	41	104	0	73	20482
2026-01-15 01:42:19.62	302.97	19.07	-50.6	-66.0	3.8	1.49e+00	0	41	104	0	73	20488
2026-01-15 01:42:20.47	302.76	19.05	-50.6	-66.0	3.8	1.49e+00	0	41	104	0	73	20444
2026-01-15 01:42:21.67	302.48	19.02	-50.6	-66.0	3.8	1.49e+00	0	41	104	0	73	20455
2026-01-15 01:42:22.52	302.27	19.01	-50.6	-66.0	3.8	1.49e+00	0	41	104	0	73	20406
2026-01-15 01:42:23.73	301.99	18.98	-50.6	-66.0	3.8	1.49e+00	0	41	104	0	73	20427
2026-01-15 01:42:24.58	301.78	18.96	-50.6	-66.0	3.8	1.49e+00	0	41	104	0	73	20496
2026-01-15 01:42:25.72	301.51	18.93	-50.6	-66.0	3.8	1.49e+00	0	41	104	0	73	20428
2026-01-15 01:42:26.57	301.31	18.91	-50.6	-66.0	3.8	1.49e+00	0	41	104	0	73	20356
2026-01-15 01:42:27.71	301.04	18.89	-50.6	-66.0	3.8	1.49e+00	0	41	104	0	73	20434
2026-01-15 01:42:28.56	300.84	18.87	-50.6	-66.0	3.8	1.49e+00	0	41	104	0	73	20466
2026-01-15 01:42:29.69	300.57	18.84	-50.6	-66.0	3.8	1.49e+00	0	41	104	0	73	20410
2026-01-15 01:42:30.55	300.37	18.82	-50.6	-66.0	3.8	1.49e+00	0	41	104	0	73	20442
2026-01-15 01:42:31.68	300.11	18.79	-50.6	-66.0	3.8	1.49e+00	0	41	104	0	73	20501
2026-01-15 01:42:32.53	299.91	18.77	-50.6	-66.0	3.8	1.49e+00	0	41	104	0	73	20473
2026-01-15 01:42:33.67	299.64	18.73	-50.6	-66.0	3.8	1.49e+00	0	41	104	0	73	20384
2026-01-15 01:42:34.52	299.44	18.71	-50.6	-66.0	3.8	1.49e+00	0	41	104	0	73	20405
2026-01-15 01:42:35.66	299.17	18.68	-50.6	-66.0	3.8	1.49e+00	0	41	104	0	73	20503
2026-01-15 01:42:36.51	298.97	18.66	-50.6	-66.0	3.8	1.49e+00	0	41	104	0	73	20436
2026-01-15 01:42:37.65	298.71	18.62	-50.6	-66.0	3.8	1.49e+00	0	41	104	0	73	20414
2026-01-15 01:42:38.50	298.51	18.60	-50.6	-66.0	3.8	1.49e+00	0	41	104	0	73	20392
2026-01-15 01:42:39.68	298.24	18.56	-50.6	-66.0	3.8	1.49e+00	0	41	104	0	73	20396
2026-01-15 01:42:40.53	298.04	18.54	-50.6	-66.0	3.8	1.49e+00	0	41	104	0	73	20457
2026-01-15 01:42:41.73	297.76	18.50	-50.6	-66.0	3.8	1.49e+00	0	41	104	0	73	20391
2026-01-15 01:42:42.58	297.57	18.48	-50.6	-66.0	3.8	1.49e+00	0	41	104	0	73	20476
2026-01-15 01:42:43.78	297.29	18.44	-50.6	-66.0	3.8	1.49e+00	0	41	104	0	73	20387
2026-01-15 01:42:44.63	297.10	18.41	-50.6	-66.0	3.8	1.49e+00	0	41	104	0	73	20431
2026-01-15 01:42:45.87	296.81	18.37	-50.6	-66.0	3.8	1.49e+00	0	41	104	0	73	20485
2026-01-15 01:42:46.72	296.62	18.35	-50.6	-66.0	3.8	1.49e+00	0	41	104	0	73	20407
2026-01-15 01:42:47.85	296.36	18.31	-50.6	-66.0	3.8	1.49e+00	0	41	104	0	73	20406
2026-01-15 01:42:48.70	296.17	18.28	-50.6	-66.0	3.8	1.49e+00	0	41	104	0	73	20471
2026-01-15 01:42:49.84	295.91	18.24	-50.6	-66.0	3.8	1.49e+00	0	41	104	0	73	20411
2026-01-15 01:42:50.69	295.72	18.21	-50.6	-66.0	3.8	1.49e+00	0	41	104	0	73	20401
2026-01-15 01:42:51.83	295.46	18.17	-50.6	-66.0	3.8	1.49e+00	0	41	104	0	73	20405
2026-01-15 01:42:52.68	295.27	18.14	-50.6	-66.0	3.8	1.49e+00	0	41	104	0	73	20358
2026-01-15 01:42:53.81	295.01	18.10	-50.6	-66.0	3.8	1.49e+00	0	41	104	0	73	20427
2026-01-15 01:42:54.66	294.82	18.07	-50.6	-66.0	3.8	1.49e+00	0	41	104	0	73	20378
2026-01-15 01:42:55.80	294.57	18.03	-50.6	-66.0	3.8	1.49e+00	0	41	104	0	73	20441
2026-01-15 01:42:56.65	294.38	18.00	-50.6	-66.0	3.8	1.49e+00	0	41	104	0	73	20432
2026-01-15 01:42:57.79	294.12	17.96	-50.6	-66.0	3.8	1.49e+00	0	41	104	0	73	20460
2026-01-15 01:42:58.64	293.94	17.93	-50.6	-66.0	3.8	1.49e+00	0	41	104	0	73	20339
2026-01-15 01:42:59.77	293.69	17.88	-50.6	-66.0	3.8	1.49e+00	0	41	104	0	73	20494
2026-01-15 01:43:00.62	293.50	17.85	-50.6	-66.0	3.8	1.49e+00	0	41	104	0	73	20415
2026-01-15 01:43:01.76	293.25	17.81	-50.6	-66.0	3.8	1.49e+00	0	41	104	0	73	20347
2026-01-15 01:43:02.61	293.06	17.77	-50.6	-66.0	3.8	1.49e+00	0	41	104	0	73	20382
2026-01-15 01:43:03.74	292.81	17.73	-50.6	-66.0	3.8	1.49e+00	0	41	104	0	73	20375
2026-01-15 01:43:04.60	292.62	17.70	-50.6	-66.0	3.8	1.49e+00	0	41	104	0	73	20370
2026-01-15 01:43:05.73	292.38	17.65	-50.6	-66.0	3.8	1.49e+00	0	41	104	0	73	20477
2026-01-15 01:43:06.59	292.19	17.62	-50.6	-66.0	3.8	1.49e+00	0	41	104	0	73	20425
2026-01-15 01:43:07.72	291.94	17.57	-50.6	-66.0	3.8	1.49e+00	0	41	104	0	73	20411
2026-01-15 01:43:08.57	291.76	17.53	-50.6	-66.0	3.8	1.49e+00	0	41	104	0	73	20335
2026-01-15 01:43:09.71	291.51	17.49	-50.6	-66.0	3.8	1.49e+00	0	41	104	0	73	20506
2026-01-15 01:43:10.56	291.33	17.45	-50.6	-66.0	3.8	1.49e+00	0	41	104	0	73	20420
2026-01-15 01:43:11.70	291.08	17.40	-50.6	-66.0	3.8	1.49e+00	0	41	104	0	73	20415
2026-01-15 01:43:12.55	290.90	17.37	-50.6	-66.0	3.8	1.49e+00	0	41	104	0	73	20360
2026-01-15 01:43:13.68	290.66	17.32	-50.6	-66.0	3.8	1.49e+00	0	41	104	0	73	20328
2026-01-15 01:43:14.53	290.48	17.28	-50.6	-66.0	3.8	1.49e+00	0	41	104	0	73	20404
2026-01-15 01:43:15.67	290.24	17.23	-50.6	-66.0	3.8	1.49e+00	0	41	104	0	73	20389
2026-01-15 01:43:16.52	290.06	17.20	-50.6	-66.0	3.8	1.49e+00	0	41	104	0	73	20399
2026-01-15 01:43:17.75	289.80	17.14	-50.6	-66.0	3.8	1.49e+00	0	41	104	0	73	20401
2026-01-15 01:43:18.60	289.62	17.10	-50.6	-66.0	3.8	1.49e+00	0	41	104	0	73	20349
2026-01-15 01:43:19.74	289.38	17.05	-50.6	-66.0	3.8	1.49e+00	0	41	104	0	73	20435
2026-01-15 01:43:20.59	289.20	17.01	-50.6	-66.0	3.8	1.49e+00	0	41	104	0	73	20394
2026-01-15 01:43:21.73	288.96	16.96	-50.6	-66.0	3.8	1.49e+00	0	41	104	0	73	20404
2026-01-15 01:43:22.58	288.79	16.92	-50.6	-66.0	3.8	1.49e+00	0	41	104	0	73	20386
2026-01-15 01:43:23.72	288.55	16.87	-50.6	-66.0	3.8	1.49e+00	0	41	104	0	73	20406
2026-01-15 01:43:24.57	288.38	16.83	-50.6	-66.0	3.8	1.49e+00	0	41	104	0	73	20363
2026-01-15 01:43:25.70	288.14	16.78	-50.6	-66.0	3.8	1.49e+00	0	41	104	0	73	20418
2026-01-15 01:43:26.55	287.97	16.74	-50.6	-66.0	3.8	1.49e+00	0	41	104	0	73	20346
2026-01-15 01:43:27.69	287.73	16.69	-50.6	-66.0	3.8	1.49e+00	0	41	104	0	73	20429
2026-01-15 01:43:28.54	287.56	16.65	-50.6	-66.0	3.8	1.49e+00	0	41	104	0	73	20369
2026-01-15 01:43:29.68	287.33	16.59	-50.6	-66.0	3.8	1.49e+00	0	41	104	0	73	20408
2026-01-15 01:43:30.53	287.16	16.55	-50.6	-66.0	3.8	1.49e+00	0	41	104	0	73	20405
2026-01-15 01:43:31.67	286.93	16.50	-50.6	-66.0	3.8	1.49e+00	0	41	104	0	73	20410
2026-01-15 01:43:32.52	286.75	16.46	-50.6	-66.0	3.8	1.49e+00	0	41	104	0	73	20474
2026-01-15 01:43:33.77	286.50	16.39	-50.6	-66.0	3.8	1.49e+00	0	41	104	0	73	20419
2026-01-15 01:43:34.62	286.33	16.35	-50.6	-66.0	3.8	1.49e+00	0	41	104	0	73	20428
2026-01-15 01:43:35.76	286.11	16.30	-50.6	-66.0	3.8	1.49e+00	0	41	104	0	73	20364
2026-01-15 01:43:36.61	285.94	16.25	-50.6	-66.0	3.8	1.49e+00	0	41	104	0	73	20449
2026-01-15 01:43:37.75	285.71	16.20	-50.6	-66.0	3.8	1.49e+00	0	41	104	0	73	20356
2026-01-15 01:43:38.60	285.54	16.16	-50.6	-66.0	3.8	1.49e+00	0	41	104	0	73	20356
2026-01-15 01:43:39.73	285.32	16.10	-50.6	-66.0	3.8	1.49e+00	0	41	104	0	73	20312
2026-01-15 01:43:40.58	285.15	16.06	-50.6	-66.0	3.8	1.49e+00	0	41	104	0	73	20349
2026-01-15 01:43:41.72	284.93	16.00	-50.6	-66.0	3.8	1.49e+00	0	41	104	0	73	20380
2026-01-15 01:43:42.57	284.76	15.95	-50.6	-66.0	3.8	1.49e+00	0	41	104	0	73	20417
2026-01-15 01:43:43.71	284.54	15.90	-50.6	-66.0	3.8	1.49e+00	0	41	104	0	73	20368
2026-01-15 01:43:44.56	284.38	15.85	-50.6	-66.0	3.8	1.49e+00	0	41	104	0	73	20453
2026-01-15 01:43:45.69	284.16	15.79	-50.6	-66.0	3.8	1.49e+00	0	41	104	0	73	20337
2026-01-15 01:43:46.54	284.00	15.75	-50.6	-66.0	3.8	1.49e+00	0	41	104	0	73	20471
2026-01-15 01:43:47.68	283.78	15.69	-50.6	-66.0	3.8	1.49e+00	0	41	104	0	73	20418
2026-01-15 01:43:48.53	283.62	15.65	-50.6	-66.0	3.8	1.49e+00	0	41	104	0	73	20427
2026-01-15 01:43:49.66	283.40	15.59	-50.6	-66.0	3.8	1.49e+00	0	41	104	0	73	20406
2026-01-15 01:43:50.52	283.24	15.54	-50.6	-66.0	3.8	1.49e+00	0	41	104	0	73	20354
2026-01-15 01:43:51.65	283.02	15.48	-50.6	-66.0	3.8	1.49e+00	0	41	104	0	73	20407
2026-01-15 01:43:52.50	282.86	15.44	-50.6	-66.0	3.8	1.49e+00	0	41	104	0	73	20357
2026-01-15 01:43:53.64	282.65	15.38	-50.6	-66.0	3.8	1.49e+00	0	41	104	0	73	20331
2026-01-15 01:43:54.49	282.49	15.33	-50.6	-66.0	3.8	1.49e+00	0	41	104	0	73	20359
2026-01-15 01:43:55.63	282.28	15.27	-50.6	-66.0	3.8	1.49e+00	0	41	104	0	73	20375
2026-01-15 01:43:56.48	282.12	15.22	-50.6	-66.0	3.8	1.49e+00	0	41	104	0	73	20414
2026-01-15 01:43:57.62	281.91	15.16	-50.6	-66.0	3.8	1.49e+00	0	41	104	0	73	20409
2026-01-15 01:43:58.47	281.75	15.12	-50.6	-66.0	3.8	1.49e+00	0	41	104	0	73	20399
2026-01-15 01:43:59.60	281.55	15.06	-50.6	-66.0	3.8	1.49e+00	0	41	104	0	73	20366
2026-01-15 01:44:00.45	281.39	15.01	-50.6	-66.0	3.8	1.49e+00	0	41	104	0	73	20367
2026-01-15 01:44:01.59	281.18	14.95	-50.6	-66.0	3.8	1.49e+00	0	41	104	0	73	20388
2026-01-15 01:44:02.44	281.03	14.90	-50.6	-66.0	3.8	1.49e+00	0	41	104	0	73	20343
2026-01-15 01:44:03.60	280.82	14.84	-50.6	-66.0	3.8	1.49e+00	0	41	104	0	73	20327
2026-01-15 01:44:04.46	280.66	14.79	-50.6	-66.0	3.8	1.49e+00	0	41	104	0	73	20382
2026-01-15 01:44:05.66	280.45	14.72	-50.6	-65.9	3.8	1.49e+00	0	41	104	0	73	20278
2026-01-15 01:44:06.51	280.30	14.68	-50.6	-65.9	3.8	1.49e+00	0	41	104	0	73	20278
2026-01-15 01:44:07.71	280.08	14.61	-50.6	-66.0	3.8	1.49e+00	0	41	104	0	73	20343
2026-01-15 01:44:08.56	279.93	14.56	-50.6	-66.0	3.8	1.49e+00	0	41	104	0	73	20359
2026-01-15 01:44:09.70	279.73	14.50	-50.6	-66.0	3.8	1.49e+00	0	41	104	0	73	20409
2026-01-15 01:44:10.55	279.58	14.45	-50.6	-66.0	3.8	1.49e+00	0	41	104	0	73	20397
2026-01-15 01:44:11.68	279.38	14.39	-50.6	-65.9	3.8	1.49e+00	0	41	104	0	73	20292
2026-01-15 01:44:12.53	279.23	14.34	-50.6	-66.0	3.8	1.49e+00	0	41	104	0	73	20362
2026-01-15 01:44:13.67	279.04	14.27	-50.6	-66.0	3.8	1.49e+00	0	41	104	0	73	20427
2026-01-15 01:44:14.52	278.89	14.23	-50.6	-66.0	3.8	1.49e+00	0	41	104	0	73	20346
2026-01-15 01:44:15.66	278.69	14.16	-50.6	-66.0	3.8	1.49e+00	0	41	104	0	73	20425
2026-01-15 01:44:16.51	278.54	14.11	-50.6	-66.0	3.8	1.49e+00	0	41	104	0	73	20374
2026-01-15 01:44:17.65	278.35	14.05	-50.6	-66.0	3.8	1.49e+00	0	41	104	0	73	20428
2026-01-15 01:44:18.50	278.20	14.00	-50.6	-66.0	3.8	1.49e+00	0	41	104	0	73	20393
2026-01-15 01:44:19.63	278.01	13.93	-50.6	-66.0	3.8	1.49e+00	0	41	104	0	73	20352
2026-01-15 01:44:20.48	277.87	13.89	-50.6	-66.0	3.8	1.49e+00	0	41	104	0	73	20387
2026-01-15 01:44:21.62	277.68	13.82	-50.6	-66.0	3.8	1.49e+00	0	41	104	0	73	20435
2026-01-15 01:44:22.47	277.53	13.77	-50.6	-66.0	3.8	1.49e+00	0	41	104	0	73	20324
2026-01-15 01:44:23.61	277.34	13.71	-50.6	-65.9	3.8	1.49e+00	0	41	104	0	73	20281
2026-01-15 01:44:24.46	277.20	13.66	-50.6	-66.0	3.8	1.49e+00	0	41	104	0	73	20385
2026-01-15 01:44:25.59	277.01	13.59	-50.6	-66.0	3.8	1.49e+00	0	41	104	0	73	20405
2026-01-15 01:44:26.45	276.87	13.54	-50.6	-66.0	3.8	1.49e+00	0	41	104	0	73	20360
2026-01-15 01:44:27.58	276.68	13.48	-50.6	-65.9	3.8	1.49e+00	0	41	104	0	73	20279
2026-01-15 01:44:28.43	276.54	13.43	-50.6	-66.0	3.8	1.49e+00	0	41	104	0	73	20467
2026-01-15 01:44:29.57	276.36	13.36	-50.6	-66.0	3.8	1.49e+00	0	41	104	0	73	20348
2026-01-15 01:44:30.42	276.22	13.31	-50.6	-66.0	3.8	1.49e+00	0	41	104	0	73	20411
2026-01-15 01:44:31.56	276.03	13.24	-50.6	-66.0	3.8	1.49e+00	0	41	104	0	73	20383
2026-01-15 01:44:32.41	275.90	13.19	-50.6	-66.0	3.8	1.49e+00	0	41	104	0	73	20340
2026-01-15 01:44:33.54	275.71	13.13	-50.6	-66.0	3.8	1.49e+00	0	41	104	0	73	20396
2026-01-15 01:44:34.39	275.58	13.08	-50.6	-66.0	3.8	1.49e+00	0	41	104	0	73	20325
2026-01-15 01:44:35.53	275.39	13.01	-50.6	-66.0	3.8	1.49e+00	0	41	104	0	73	20312
2026-01-15 01:44:36.38	275.26	12.96	-50.6	-66.0	3.8	1.49e+00	0	41	104	0	73	20356
2026-01-15 01:44:37.52	275.08	12.89	-50.6	-66.0	3.8	1.49e+00	0	41	104	0	73	20339
2026-01-15 01:44:38.37	274.94	12.84	-50.6	-66.0	3.8	1.49e+00	0	41	104	0	73	20346
2026-01-15 01:44:39.50	274.77	12.78	-50.6	-66.0	3.8	1.49e+00	0	41	104	0	73	20348
2026-01-15 01:44:40.35	274.63	12.73	-50.6	-66.0	3.8	1.49e+00	0	41	104	0	73	20405
2026-01-15 01:44:41.49	274.46	12.66	-50.6	-66.0	3.8	1.49e+00	0	41	104	0	73	20377
2026-01-15 01:44:42.34	274.32	12.61	-50.6	-66.0	3.8	1.49e+00	0	41	104	0	73	20386
2026-01-15 01:44:43.48	274.15	12.54	-50.6	-65.9	3.8	1.49e+00	0	41	104	0	73	20292
2026-01-15 01:44:44.33	274.02	12.49	-50.6	-66.0	3.8	1.49e+00	0	41	104	0	73	20372
2026-01-15 01:44:45.46	273.84	12.42	-50.6	-66.0	3.8	1.49e+00	0	41	104	0	73	20387
2026-01-15 01:44:46.31	273.71	12.37	-50.6	-65.9	3.8	1.49e+00	0	41	104	0	73	20257
2026-01-15 01:44:47.45	273.54	12.30	-50.6	-66.0	3.8	1.49e+00	0	41	104	0	73	20338
2026-01-15 01:44:48.30	273.41	12.25	-50.6	-66.0	3.8	1.49e+00	0	41	104	0	73	20320
2026-01-15 01:44:49.44	273.24	12.19	-50.6	-66.0	3.8	1.49e+00	0	41	104	0	73	20324
2026-01-15 01:44:50.29	273.11	12.14	-50.6	-66.0	3.8	1.49e+00	0	41	104	0	73	20357
2026-01-15 01:44:51.42	272.94	12.07	-50.6	-66.0	3.8	1.49e+00	0	41	104	0	73	20393
2026-01-15 01:44:52.28	272.81	12.02	-50.6	-66.0	3.8	1.49e+00	0	41	104	0	73	20481
2026-01-15 01:44:53.51	272.63	11.94	-50.6	-66.0	3.8	1.49e+00	0	41	104	0	73	20368
2026-01-15 01:44:54.36	272.50	11.89	-50.6	-66.0	3.8	1.49e+00	0	41	104	0	73	20371
2026-01-15 01:44:55.55	272.33	11.82	-50.6	-66.0	3.8	1.49e+00	0	41	104	0	73	20356
2026-01-15 01:44:56.41	272.20	11.77	-50.6	-66.0	3.8	1.49e+00	0	41	104	0	73	20355
2026-01-15 01:44:57.61	272.03	11.70	-50.6	-66.0	3.8	1.49e+00	0	41	104	0	73	20315
2026-01-15 01:44:58.46	271.90	11.65	-50.6	-66.0	3.8	1.49e+00	0	41	104	0	73	20403
2026-01-15 01:44:59.66	271.73	11.57	-50.6	-66.0	3.8	1.49e+00	0	41	104	0	73	20375
2026-01-15 01:45:00.51	271.61	11.52	-50.6	-65.9	3.8	1.49e+00	0	41	104	0	73	20249
2026-01-15 01:45:01.71	271.44	11.45	-50.6	-65.9	3.8	1.49e+00	0	41	104	0	73	20246
2026-01-15 01:45:02.56	271.31	11.40	-50.6	-65.9	3.8	1.49e+00	0	41	104	0	73	20302
2026-01-15 01:45:03.76	271.14	11.33	-50.6	-66.0	3.8	1.49e+00	0	41	104	0	73	20311
2026-01-15 01:45:04.61	271.02	11.28	-50.6	-66.0	3.8	1.49e+00	0	41	104	0	73	20308
2026-01-15 01:45:05.74	270.86	11.21	-50.6	-66.0	3.8	1.49e+00	0	41	104	0	73	20371
2026-01-15 01:45:06.60	270.74	11.16	-50.6	-66.0	3.8	1.49e+00	0	41	104	0	73	20501
2026-01-15 01:45:07.73	270.58	11.09	-50.6	-66.0	3.8	1.49e+00	0	41	104	0	73	20384
2026-01-15 01:45:08.59	270.46	11.04	-50.6	-66.0	3.8	1.49e+00	0	41	104	0	73	20382
2026-01-15 01:45:09.72	270.31	10.97	-50.6	-66.0	3.8	1.49e+00	0	41	104	0	73	20340
2026-01-15 01:45:10.57	270.19	10.92	-50.6	-65.9	3.8	1.49e+00	0	41	104	0	73	20251
2026-01-15 01:45:11.71	270.03	10.85	-50.6	-66.0	3.8	1.49e+00	0	41	104	0	73	20324
2026-01-15 01:45:12.56	269.92	10.80	-50.6	-66.0	3.8	1.49e+00	0	41	104	0	73	20388
2026-01-15 01:45:13.70	269.76	10.73	-50.6	-65.9	3.8	1.49e+00	0	41	104	0	73	20273
2026-01-15 01:45:14.55	269.64	10.68	-50.6	-66.0	3.8	1.49e+00	0	41	104	0	73	20401
2026-01-15 01:45:15.69	269.49	10.61	-50.6	-66.0	3.8	1.49e+00	0	41	104	0	73	20308
2026-01-15 01:45:16.53	269.38	10.56	-50.6	-66.0	3.8	1.49e+00	0	41	104	0	73	20312
2026-01-15 01:45:17.69	269.22	10.49	-50.6	-65.9	3.8	1.49e+00	0	41	104	0	73	20287
2026-01-15 01:45:18.54	269.11	10.44	-50.6	-66.0	3.8	1.49e+00	0	41	104	0	73	20334
2026-01-15 01:45:19.77	268.94	10.36	-50.6	-66.0	3.8	1.49e+00	0	41	104	0	73	20322
2026-01-15 01:45:20.62	268.83	10.31	-50.6	-66.0	3.8	1.49e+00	0	41	104	0	73	20334
2026-01-15 01:45:21.76	268.68	10.24	-50.6	-66.0	3.8	1.49e+00	0	41	104	0	73	20377
2026-01-15 01:45:22.61	268.57	10.19	-50.6	-66.0	3.8	1.49e+00	0	41	104	0	73	20352
2026-01-15 01:45:23.74	268.42	10.12	-50.6	-65.9	3.8	1.49e+00	0	41	104	0	73	20262
2026-01-15 01:45:24.60	268.31	10.07	-50.6	-65.9	3.8	1.49e+00	0	41	104	0	73	20289
2026-01-15 01:45:25.73	268.16	10.00	-50.6	-65.9	3.8	1.49e+00	0	41	104	0	73	20297
2026-01-15 01:45:26.58	268.05	9.95	-50.6	-66.0	3.8	1.49e+00	0	41	104	0	73	20349
2026-01-15 01:45:27.72	267.91	9.88	-50.6	-66.0	3.8	1.49e+00	0	41	104	0	73	20361
2026-01-15 01:45:28.57	267.80	9.83	-50.6	-65.9	3.8	1.49e+00	0	41	104	0	73	20270
2026-01-15 01:45:29.71	267.65	9.76	-50.6	-66.0	3.8	1.49e+00	0	41	104	0	73	20341
2026-01-15 01:45:30.56	267.54	9.71	-50.6	-66.0	3.8	1.49e+00	0	41	104	0	73	20306
2026-01-15 01:45:31.70	267.40	9.64	-50.6	-66.0	3.8	1.49e+00	0	41	104	0	73	20384
2026-01-15 01:45:32.55	267.29	9.59	-50.6	-66.0	3.8	1.49e+00	0	41	104	0	73	20366
2026-01-15 01:45:33.68	267.15	9.52	-50.6	-65.9	3.8	1.49e+00	0	41	104	0	73	20283
2026-01-15 01:45:34.54	267.04	9.47	-50.6	-66.0	3.8	1.49e+00	0	41	104	0	73	20522
2026-01-15 01:45:35.67	266.90	9.40	-50.6	-66.0	3.8	1.49e+00	0	41	104	0	73	20423
2026-01-15 01:45:36.52	266.80	9.35	-50.6	-66.0	3.8	1.49e+00	0	41	104	0	73	20312
2026-01-15 01:45:37.66	266.65	9.28	-50.6	-66.0	3.8	1.49e+00	0	41	104	0	73	20400
2026-01-15 01:45:38.51	266.55	9.23	-50.6	-66.0	3.8	1.49e+00	0	41	104	0	73	20350
2026-01-15 01:45:39.64	266.41	9.16	-50.6	-66.0	3.8	1.49e+00	0	41	104	0	73	20335
2026-01-15 01:45:40.50	266.31	9.11	-50.6	-65.9	3.8	1.49e+00	0	41	104	0	73	20268
2026-01-15 01:45:41.63	266.17	9.04	-50.6	-66.0	3.8	1.49e+00	0	41	104	0	73	20356
2026-01-15 01:45:42.48	266.07	8.99	-50.6	-65.9	3.8	1.49e+00	0	41	104	0	73	20250
2026-01-15 01:45:43.62	265.93	8.92	-50.6	-65.9	3.8	1.49e+00	0	41	104	0	73	20292
2026-01-15 01:45:44.47	265.83	8.87	-50.6	-66.0	3.8	1.49e+00	0	41	104	0	73	20314
2026-01-15 01:45:45.61	265.69	8.80	-50.6	-65.9	3.8	1.49e+00	0	41	104	0	73	20277
2026-01-15 01:45:46.46	265.59	8.75	-50.6	-66.0	3.8	1.49e+00	0	41	104	0	73	20322
2026-01-15 01:45:47.59	265.46	8.69	-50.6	-66.0	3.8	1.49e+00	0	41	104	0	73	20362
2026-01-15 01:45:48.44	265.36	8.63	-50.6	-66.0	3.8	1.49e+00	0	41	104	0	73	20328
2026-01-15 01:45:49.58	265.22	8.57	-50.6	-65.9	3.8	1.49e+00	0	41	104	0	73	20264
2026-01-15 01:45:50.43	265.12	8.52	-50.6	-66.0	3.8	1.49e+00	0	41	104	0	73	20351
2026-01-15 01:45:51.57	264.99	8.45	-50.6	-65.9	3.8	1.49e+00	0	41	104	0	73	20302
2026-01-15 01:45:52.42	264.89	8.40	-50.6	-66.0	3.8	1.49e+00	0	41	104	0	73	20311
2026-01-15 01:45:53.56	264.76	8.33	-50.6	-66.0	3.8	1.49e+00	0	41	104	0	73	20312
2026-01-15 01:45:54.41	264.66	8.28	-50.6	-66.0	3.8	1.49e+00	0	41	104	0	73	20331
2026-01-15 01:45:55.54	264.53	8.21	-50.6	-66.0	3.8	1.49e+00	0	41	104	0	73	20335
2026-01-15 01:45:56.39	264.43	8.16	-50.6	-66.0	3.8	1.49e+00	0	41	104	0	73	20346
2026-01-15 01:45:57.53	264.30	8.09	-50.6	-66.0	3.8	1.49e+00	0	41	104	0	73	20325
2026-01-15 01:45:58.38	264.21	8.04	-50.6	-66.0	3.8	1.49e+00	0	41	104	0	73	20384
2026-01-15 01:45:59.51	264.08	7.97	-50.6	-66.0	3.8	1.49e+00	0	41	104	0	73	20461
2026-01-15 01:46:00.36	263.99	7.92	-50.6	-66.0	3.8	1.49e+00	0	41	104	0	73	20335
2026-01-15 01:46:01.50	263.86	7.85	-50.6	-65.9	3.8	1.49e+00	0	41	104	0	73	20269
2026-01-15 01:46:02.35	263.76	7.80	-50.6	-66.0	3.8	1.49e+00	0	41	104	0	73	20373
2026-01-15 01:46:03.49	263.64	7.74	-50.6	-65.9	3.8	1.49e+00	0	41	104	0	73	20259
2026-01-15 01:46:04.34	263.54	7.69	-50.6	-65.9	3.8	1.49e+00	0	41	104	0	73	20266
2026-01-15 01:46:05.47	263.42	7.62	-50.6	-65.9	3.8	1.49e+00	0	41	104	0	73	20249
2026-01-15 01:46:06.32	263.33	7.57	-50.6	-66.0	3.8	1.49e+00	0	41	104	0	73	20322
2026-01-15 01:46:07.46	263.20	7.50	-50.6	-65.9	3.8	1.49e+00	0	41	104	0	73	20265
2026-01-15 01:46:08.31	263.11	7.45	-50.6	-65.9	3.8	1.49e+00	0	41	104	0	73	20271
2026-01-15 01:46:09.45	262.99	7.38	-50.6	-66.0	3.8	1.49e+00	0	41	104	0	73	20318
2026-01-15 01:46:10.41	262.88	7.33	-50.6	-66.0	3.8	1.49e+00	0	41	104	0	73	20388
2026-01-15 01:46:11.40	262.78	7.27	-50.6	-66.0	3.8	1.49e+00	0	41	104	0	73	20351
2026-01-15 01:46:12.40	262.67	7.21	-50.6	-66.0	3.8	1.49e+00	0	41	104	0	73	20436
2026-01-15 01:46:13.39	262.56	7.15	-50.6	-66.0	3.8	1.49e+00	0	41	104	0	73	20371
2026-01-15 01:46:14.39	262.46	7.09	-50.6	-66.0	3.8	1.49e+00	0	41	104	0	73	20434
2026-01-15 01:46:15.38	262.35	7.03	-50.6	-66.0	3.8	1.49e+00	0	41	104	0	73	20399
2026-01-15 01:46:16.37	262.25	6.97	-50.6	-66.0	3.8	1.49e+00	0	41	104	0	73	20322
2026-01-15 01:46:17.37	262.15	6.91	-50.6	-65.9	3.8	1.49e+00	0	41	104	0	73	20288
2026-01-15 01:46:18.36	262.04	6.86	-50.6	-66.0	3.8	1.49e+00	0	41	104	0	73	20307
2026-01-15 01:46:19.36	261.94	6.80	-50.6	-66.0	3.8	1.49e+00	0	41	104	0	73	20373
2026-01-15 01:46:20.35	261.84	6.74	-50.6	-66.0	3.8	1.49e+00	0	41	104	0	73	20345
2026-01-15 01:46:21.34	261.73	6.68	-50.6	-65.9	3.8	1.49e+00	0	41	104	0	73	20268
2026-01-15 01:46:22.34	261.63	6.62	-50.6	-66.0	3.8	1.49e+00	0	41	104	0	73	20342
2026-01-15 01:46:23.33	261.53	6.56	-50.6	-65.9	3.8	1.49e+00	0	41	104	0	73	20277
2026-01-15 01:46:24.32	261.43	6.51	-50.6	-65.9	3.8	1.49e+00	0	41	104	0	73	20236
2026-01-15 01:46:25.32	261.33	6.45	-50.6	-66.0	3.8	1.49e+00	0	41	104	0	73	20408
2026-01-15 01:46:26.31	261.23	6.39	-50.6	-65.9	3.8	1.49e+00	0	41	104	0	73	20299
2026-01-15 01:46:27.30	261.13	6.33	-50.6	-65.9	3.8	1.49e+00	0	41	104	0	73	20218
2026-01-15 01:46:28.30	261.03	6.27	-50.6	-66.0	3.8	1.49e+00	0	41	104	0	73	20357
2026-01-15 01:46:29.29	260.93	6.22	-50.6	-65.9	3.8	1.49e+00	0	41	104	0	73	20302
2026-01-15 01:46:30.29	260.83	6.16	-50.6	-65.9	3.8	1.49e+00	0	41	104	0	73	20290
2026-01-15 01:46:31.28	260.73	6.10	-50.6	-66.0	3.8	1.49e+00	0	41	104	0	73	20355
2026-01-15 01:46:32.27	260.64	6.04	-50.6	-65.9	3.8	1.49e+00	0	41	104	0	73	20271
2026-01-15 01:46:33.27	260.54	5.98	-50.6	-65.9	3.8	1.49e+00	0	41	104	0	73	20270
2026-01-15 01:46:34.26	260.44	5.93	-50.6	-65.9	3.8	1.49e+00	0	41	104	0	73	20293
2026-01-15 01:46:35.25	260.34	5.87	-50.6	-65.9	3.8	1.49e+00	0	41	104	0	73	20265
2026-01-15 01:46:36.26	260.25	5.81	-50.6	-66.0	3.8	1.49e+00	0	41	104	0	73	20307
2026-01-15 01:46:37.29	260.15	5.75	-50.6	-65.9	3.8	1.49e+00	0	41	104	0	73	20288
2026-01-15 01:46:38.29	260.05	5.69	-50.6	-66.0	3.8	1.49e+00	0	41	104	0	73	20312
2026-01-15 01:46:39.35	259.95	5.63	-50.6	-66.0	3.8	1.49e+00	0	41	104	0	73	20310
2026-01-15 01:46:40.27	259.86	5.58	-50.6	-65.9	3.8	1.49e+00	0	41	104	0	73	20264
2026-01-15 01:46:41.42	259.75	5.51	-50.6	-65.9	3.8	1.49e+00	0	41	104	0	73	20266
2026-01-15 01:46:42.30	259.67	5.46	-50.6	-65.9	3.8	1.49e+00	0	41	104	0	73	20275
2026-01-15 01:46:43.61	259.55	5.39	-50.6	-66.0	3.8	1.49e+00	0	41	104	0	73	20306
2026-01-15 01:46:44.32	259.48	5.35	-50.6	-66.0	3.8	1.49e+00	0	41	104	0	73	20350
2026-01-15 01:46:45.83	259.34	5.26	-50.6	-66.0	3.8	1.49e+00	0	41	104	0	73	20325
2026-01-15 01:46:46.54	259.27	5.22	-50.6	-66.0	3.8	1.49e+00	0	41	104	0	73	20330
2026-01-15 01:46:47.88	259.15	5.14	-50.6	-66.0	3.8	1.49e+00	0	41	104	0	73	20313
2026-01-15 01:46:48.59	259.08	5.10	-50.6	-65.9	3.8	1.49e+00	0	41	104	0	73	20296
2026-01-15 01:46:49.87	258.97	5.03	-50.6	-66.0	3.8	1.49e+00	0	41	104	0	73	20332
2026-01-15 01:46:50.58	258.90	4.99	-50.6	-65.9	3.8	1.49e+00	0	41	104	0	73	20303

#Closed at: 2026-01-15 01:46:51
#Recorded file [0 MB]: D:/Data/31040_260115_043634.dat