passes_logs/2026/01/15/T1/T1__20260115_112805_NOAA_20_JPSS-1_rec.log

#Pass ID: 20260115_112805_NOAA 20 (JPSS-1)
#Satellite: NOAA 20 (JPSS-1)
#Configuration: NOAA 20
#almurnet v.1.7.20251203
#Start time: 2026-01-15 11:28:04

#Version: 2.0.20230620
#Station: T1
#Location: 37.570604 lon 55.790049 lat
#TLE: 1 43013U 17073A   26014.55467351  .00000038  00000+0  38801-4 0  9992
#TLE: 2 43013  98.7635 315.4987 0001517  39.9279 320.2008 14.19535859422677

#Time	Az	El	Level	Level2	SNR	BER	BlckErr	Temp	State	Recorded	gain1	gain2
2026-01-15 11:28:04.83	210.86	4.99	-49.7	-65.5	3.8	1.49e+00	0	40	0	0	71	21592
2026-01-15 11:28:05.82	210.94	5.05	-49.7	-65.5	3.8	1.49e+00	0	40	104	0	70	22938
2026-01-15 11:28:06.81	211.03	5.11	-49.7	-65.5	3.8	1.49e+00	0	40	104	0	70	22839
2026-01-15 11:28:07.81	211.11	5.17	-49.7	-65.5	3.8	1.49e+00	0	40	104	0	70	22807
2026-01-15 11:28:08.80	211.20	5.22	-49.7	-65.5	3.8	1.49e+00	0	40	104	0	70	22899
2026-01-15 11:28:09.79	211.29	5.28	-49.7	-65.5	3.8	1.49e+00	0	41	104	0	70	22955
2026-01-15 11:28:10.78	211.37	5.34	-49.7	-65.5	3.8	1.49e+00	0	41	104	0	70	22892
2026-01-15 11:28:11.78	211.46	5.40	-49.7	-65.5	3.8	1.49e+00	0	40	104	0	70	22920
2026-01-15 11:28:12.77	211.55	5.46	-49.7	-65.5	3.8	1.49e+00	0	41	104	0	70	23034
2026-01-15 11:28:13.76	211.64	5.52	-49.7	-65.6	3.8	1.49e+00	0	41	104	0	70	23058
2026-01-15 11:28:14.76	211.73	5.58	-49.7	-65.5	3.8	1.49e+00	0	41	104	0	70	22927
2026-01-15 11:28:15.75	211.82	5.64	-49.7	-65.5	3.8	1.49e+00	0	41	104	0	70	22983
2026-01-15 11:28:16.74	211.90	5.70	-49.7	-65.5	3.8	1.49e+00	0	41	104	0	70	22845
2026-01-15 11:28:17.73	211.99	5.76	-49.7	-65.4	3.8	1.49e+00	0	41	104	0	70	22634
2026-01-15 11:28:18.73	212.08	5.82	-49.7	-65.3	3.8	1.49e+00	0	41	104	0	70	22430
2026-01-15 11:28:19.72	212.17	5.88	-49.7	-65.3	3.8	1.49e+00	0	41	104	0	70	22349
2026-01-15 11:28:20.71	212.26	5.94	-49.7	-65.3	3.8	1.49e+00	0	41	104	0	70	22446
2026-01-15 11:28:21.71	212.36	6.00	-49.7	-65.3	3.8	1.49e+00	0	41	104	0	70	22497
2026-01-15 11:28:22.70	212.45	6.06	-49.7	-65.4	3.8	1.49e+00	0	41	104	0	70	22579
2026-01-15 11:28:23.69	212.54	6.12	-49.7	-65.3	3.8	1.49e+00	0	41	104	0	70	22519
2026-01-15 11:28:24.69	212.63	6.18	-49.7	-65.4	3.8	1.49e+00	0	41	104	0	70	22525
2026-01-15 11:28:25.68	212.72	6.24	-49.7	-65.4	3.8	1.49e+00	0	41	104	0	70	22538
2026-01-15 11:28:26.67	212.82	6.30	-49.7	-65.3	3.8	1.49e+00	0	41	104	0	70	22493
2026-01-15 11:28:27.66	212.91	6.36	-49.7	-65.5	3.8	1.49e+00	0	41	104	0	70	22840
2026-01-15 11:28:28.66	213.00	6.42	-49.7	-65.5	3.8	1.49e+00	0	41	104	0	70	22906
2026-01-15 11:28:29.65	213.10	6.48	-49.7	-65.5	3.8	1.49e+00	0	41	104	0	70	23033
2026-01-15 11:28:30.64	213.19	6.54	-49.7	-65.5	3.8	1.49e+00	0	41	104	0	70	22832
2026-01-15 11:28:31.64	213.29	6.61	-49.7	-65.4	3.8	1.49e+00	0	41	104	0	70	22641
2026-01-15 11:28:32.63	213.38	6.67	-49.7	-65.3	3.8	1.49e+00	0	41	104	0	70	22297
2026-01-15 11:28:33.62	213.48	6.73	-49.7	-65.2	3.8	1.49e+00	0	41	104	0	70	22013
2026-01-15 11:28:34.62	213.58	6.79	-49.7	-65.2	3.8	1.49e+00	0	41	104	0	70	22030
2026-01-15 11:28:35.61	213.67	6.85	-49.7	-65.2	3.8	1.49e+00	0	42	104	0	70	22036
2026-01-15 11:28:36.60	213.77	6.91	-49.7	-65.2	3.8	1.49e+00	0	42	104	0	70	22214
2026-01-15 11:28:37.59	213.86	6.97	-49.7	-65.3	3.8	1.49e+00	0	42	104	0	70	22340
2026-01-15 11:28:38.59	213.96	7.03	-49.7	-65.3	3.8	1.49e+00	0	42	104	0	70	22484
2026-01-15 11:28:39.58	214.06	7.10	-49.7	-65.3	3.8	1.49e+00	0	42	104	0	70	22502
2026-01-15 11:28:40.57	214.16	7.16	-49.7	-65.3	3.8	1.49e+00	0	42	104	0	70	22488
2026-01-15 11:28:41.57	214.26	7.22	-49.7	-65.2	3.8	1.49e+00	0	42	104	0	70	22067
2026-01-15 11:28:42.56	214.36	7.28	-49.7	-65.0	3.8	1.49e+00	0	42	104	0	70	21553
2026-01-15 11:28:43.55	214.46	7.34	-49.7	-64.7	3.8	1.49e+00	0	42	104	0	70	20881
2026-01-15 11:28:44.54	214.56	7.40	-49.6	-64.4	3.8	1.49e+00	0	42	104	0	70	20200
2026-01-15 11:28:45.54	214.66	7.47	-49.6	-64.3	3.8	1.49e+00	0	42	104	0	70	19876
2026-01-15 11:28:46.53	214.76	7.53	-49.6	-64.3	3.8	1.49e+00	0	42	104	0	70	19864
2026-01-15 11:28:47.52	214.86	7.59	-49.6	-64.3	3.8	1.49e+00	0	42	104	0	70	19951
2026-01-15 11:28:48.52	214.96	7.65	-49.6	-64.3	3.8	1.49e+00	0	42	104	0	70	19929
2026-01-15 11:28:49.51	215.06	7.72	-49.6	-64.2	3.8	1.49e+00	0	42	104	0	70	19645
2026-01-15 11:28:50.50	215.16	7.78	-49.6	-64.0	3.8	1.49e+00	0	42	104	0	70	19202
2026-01-15 11:28:51.50	215.27	7.84	-49.6	-63.9	3.8	1.49e+00	0	42	104	0	70	19086
2026-01-15 11:28:52.49	215.37	7.90	-49.6	-64.3	3.8	1.49e+00	0	42	104	0	70	19861
2026-01-15 11:28:53.48	215.48	7.97	-49.7	-65.0	3.8	1.49e+00	0	42	104	0	70	21720
2026-01-15 11:28:54.48	215.58	8.03	-49.7	-65.4	3.8	1.49e+00	0	42	104	0	70	22679
2026-01-15 11:28:55.47	215.68	8.09	-49.6	-64.2	3.8	1.49e+00	0	42	104	0	70	19794
2026-01-15 11:28:56.46	215.79	8.15	-49.4	-60.8	4.6	1.37e+00	0	42	0	0	70	13360
2026-01-15 11:28:57.45	215.89	8.22	-48.9	-57.5	6.7	4.22e-01	0	42	0	2097152	69	9648
2026-01-15 11:28:58.45	216.00	8.28	-48.2	-54.8	9.3	7.28e-02	0	42	0	3145728	68	7495
2026-01-15 11:28:59.44	216.11	8.34	-47.4	-52.7	11.4	6.80e-03	0	42	0	5242880	66	6578
2026-01-15 11:29:00.43	216.21	8.41	-46.7	-51.2	12.9	1.43e-04	0	42	0	7340032	65	5913
2026-01-15 11:29:01.43	216.32	8.47	-46.3	-50.4	13.7	1.60e-05	0	42	0	9437184	64	5690
2026-01-15 11:29:02.42	216.43	8.53	-46.0	-49.9	14.2	1.50e-06	0	42	0	10485760	64	5379
2026-01-15 11:29:03.41	216.54	8.60	-46.0	-49.9	14.3	2.20e-06	0	42	0	12582912	63	5683
2026-01-15 11:29:04.41	216.65	8.66	-46.1	-50.1	14.2	7.00e-07	0	42	0	14680064	63	5797
2026-01-15 11:29:05.40	216.76	8.72	-46.5	-50.6	13.6	3.00e-06	0	42	0	16777216	63	6190
2026-01-15 11:29:06.39	216.86	8.79	-46.8	-51.4	12.7	1.52e-05	0	42	0	18874368	64	6381
2026-01-15 11:29:07.38	216.97	8.85	-47.2	-52.3	11.8	3.12e-04	0	42	0	19922944	65	6698
2026-01-15 11:29:08.38	217.09	8.92	-47.6	-53.3	10.7	1.77e-03	0	42	0	22020096	65	7537
2026-01-15 11:29:09.37	217.20	8.98	-48.0	-54.5	9.6	6.90e-03	0	42	0	24117248	66	8088
2026-01-15 11:29:10.36	217.31	9.04	-48.3	-55.3	8.7	2.21e-02	0	42	0	26214400	67	8412
2026-01-15 11:29:11.35	217.42	9.11	-48.4	-55.3	8.8	2.73e-02	0	42	0	27262976	67	8370
2026-01-15 11:29:12.35	217.53	9.17	-48.7	-56.5	7.6	1.68e-01	0	42	0	29360128	68	9101
2026-01-15 11:29:13.34	217.64	9.23	-48.9	-55.8	8.3	6.00e-02	0	42	0	31457280	69	7924
2026-01-15 11:29:14.33	217.76	9.30	-48.0	-53.4	11.0	3.68e-04	0	42	0	33554432	66	7147
2026-01-15 11:29:15.33	217.87	9.36	-49.4	-58.0	6.2	3.37e-01	0	42	0	34603008	69	10268
2026-01-15 11:29:16.32	217.99	9.43	-47.1	-51.5	12.7	6.44e-04	0	42	0	36700160	66	5774
2026-01-15 11:29:17.31	218.10	9.49	-46.7	-50.6	13.6	2.82e-05	0	42	0	38797312	65	5498
2026-01-15 11:29:18.31	218.22	9.56	-46.1	-49.8	14.5	0.00e+00	0	42	0	40894464	64	5289
2026-01-15 11:29:19.30	218.33	9.62	-46.0	-49.7	14.6	0.00e+00	0	42	0	42991616	63	5579
2026-01-15 11:29:20.29	218.45	9.69	-46.1	-49.8	14.5	0.00e+00	0	42	0	44040192	63	5611
2026-01-15 11:29:21.29	218.57	9.75	-46.1	-49.8	14.5	0.00e+00	0	42	0	46137344	63	5634
2026-01-15 11:29:22.28	218.68	9.82	-46.1	-49.8	14.5	0.00e+00	0	42	0	48234496	63	5653
2026-01-15 11:29:23.27	218.80	9.88	-46.2	-49.9	14.4	0.00e+00	0	42	0	50331648	63	5706
2026-01-15 11:29:24.26	218.92	9.94	-46.3	-50.0	14.3	7.00e-07	0	42	0	51380224	63	5771
2026-01-15 11:29:25.26	219.04	10.01	-46.2	-49.9	14.5	7.00e-07	0	42	0	53477376	63	5703
2026-01-15 11:29:26.25	219.16	10.07	-46.2	-50.0	14.4	0.00e+00	0	42	0	55574528	63	5723
2026-01-15 11:29:27.24	219.28	10.14	-46.1	-49.9	14.5	0.00e+00	0	42	0	57671680	63	5678
2026-01-15 11:29:28.23	219.40	10.20	-46.1	-49.7	14.6	7.00e-07	0	42	0	59768832	63	5587
2026-01-15 11:29:29.23	219.52	10.27	-46.1	-49.8	14.6	7.00e-07	0	42	0	60817408	63	5600
2026-01-15 11:29:30.22	219.64	10.33	-45.9	-49.6	14.8	0.00e+00	0	43	0	62914560	63	5490
2026-01-15 11:29:31.21	219.76	10.40	-45.9	-49.6	14.7	0.00e+00	0	42	0	65011712	63	5525
2026-01-15 11:29:32.21	219.88	10.47	-45.9	-49.5	14.8	0.00e+00	0	42	0	67108864	63	5463
2026-01-15 11:29:33.20	220.01	10.53	-45.9	-49.5	14.9	0.00e+00	0	42	0	68157440	63	5427
2026-01-15 11:29:34.19	220.13	10.60	-46.0	-49.6	14.8	0.00e+00	0	43	0	70254592	63	5477
2026-01-15 11:29:35.18	220.25	10.66	-46.0	-49.6	14.8	0.00e+00	0	42	0	72351744	63	5489
2026-01-15 11:29:36.18	220.38	10.73	-45.9	-49.4	15.0	0.00e+00	0	43	0	74448896	63	5382
2026-01-15 11:29:37.17	220.50	10.79	-45.9	-49.3	15.1	0.00e+00	0	43	0	76546048	63	5328
2026-01-15 11:29:38.17	220.63	10.86	-45.8	-49.2	15.2	7.00e-07	0	43	0	77594624	63	5265
2026-01-15 11:29:39.16	220.76	10.92	-45.8	-49.2	15.2	0.00e+00	0	43	0	79691776	63	5256
2026-01-15 11:29:40.15	220.88	10.99	-45.8	-49.3	15.2	0.00e+00	0	43	0	81788928	63	5280
2026-01-15 11:29:41.14	221.01	11.06	-45.8	-49.1	15.3	0.00e+00	0	42	0	83886080	63	5206
2026-01-15 11:29:42.14	221.14	11.12	-45.8	-49.1	15.3	0.00e+00	0	43	0	84934656	63	5198
2026-01-15 11:29:43.13	221.27	11.19	-45.8	-49.2	15.3	0.00e+00	0	43	0	87031808	63	5233
2026-01-15 11:29:44.12	221.39	11.25	-45.7	-49.0	15.5	0.00e+00	0	43	0	89128960	63	5105
2026-01-15 11:29:45.11	221.52	11.32	-45.7	-49.0	15.4	0.00e+00	0	43	0	91226112	63	5131
2026-01-15 11:29:46.11	221.65	11.39	-45.8	-49.1	15.4	0.00e+00	0	43	0	93323264	63	5161
2026-01-15 11:29:47.10	221.78	11.45	-45.8	-49.0	15.4	0.00e+00	0	43	0	94371840	63	5147
2026-01-15 11:29:48.09	221.91	11.52	-45.6	-48.8	15.6	0.00e+00	0	42	0	96468992	63	5024
2026-01-15 11:29:49.09	222.05	11.59	-45.7	-48.9	15.6	0.00e+00	0	43	0	98566144	63	5042
2026-01-15 11:29:50.08	222.18	11.65	-45.6	-48.7	15.7	0.00e+00	0	43	0	100663296	63	4979
2026-01-15 11:29:51.07	222.31	11.72	-45.6	-48.8	15.6	0.00e+00	0	43	0	101711872	63	5021
2026-01-15 11:29:52.07	222.45	11.78	-45.6	-48.9	15.5	0.00e+00	0	43	0	103809024	63	5082
2026-01-15 11:29:53.06	222.58	11.85	-45.6	-48.9	15.6	0.00e+00	0	43	0	105906176	63	5080
2026-01-15 11:29:54.05	222.71	11.92	-45.7	-49.1	15.4	0.00e+00	0	43	0	108003328	63	5172
2026-01-15 11:29:55.04	222.85	11.98	-45.8	-49.1	15.3	0.00e+00	0	42	0	110100480	63	5203
2026-01-15 11:29:56.04	222.99	12.05	-45.8	-49.1	15.4	0.00e+00	0	43	0	111149056	63	5164
2026-01-15 11:29:57.03	223.12	12.12	-45.8	-49.0	15.5	0.00e+00	0	43	0	113246208	63	5124
2026-01-15 11:29:58.02	223.26	12.18	-45.8	-49.0	15.4	0.00e+00	0	43	0	115343360	63	5156
2026-01-15 11:29:59.02	223.40	12.25	-45.8	-49.0	15.5	0.00e+00	0	43	0	117440512	63	5147
2026-01-15 11:30:00.01	223.54	12.32	-45.7	-48.9	15.6	0.00e+00	0	43	0	118489088	63	5090
2026-01-15 11:30:01.00	223.67	12.38	-45.7	-48.9	15.6	0.00e+00	0	43	0	120586240	63	5068
2026-01-15 11:30:02.00	223.81	12.45	-45.7	-48.9	15.6	0.00e+00	0	43	0	122683392	63	5046
2026-01-15 11:30:02.99	223.95	12.52	-45.7	-48.9	15.6	0.00e+00	0	43	0	124780544	63	5070
2026-01-15 11:30:03.98	224.10	12.58	-45.7	-48.9	15.6	0.00e+00	0	43	0	125829120	63	5063
2026-01-15 11:30:04.97	224.24	12.65	-45.8	-48.9	15.6	0.00e+00	0	43	0	127926272	63	5091
2026-01-15 11:30:05.97	224.38	12.72	-45.8	-49.0	15.6	0.00e+00	0	43	0	130023424	63	5124
2026-01-15 11:30:06.96	224.52	12.78	-45.7	-48.9	15.7	0.00e+00	0	43	0	132120576	63	5052
2026-01-15 11:30:07.95	224.66	12.85	-45.7	-48.8	15.7	0.00e+00	0	43	0	134217728	63	5025
2026-01-15 11:30:08.94	224.81	12.92	-45.7	-48.8	15.7	0.00e+00	0	43	0	135266304	63	5022
2026-01-15 11:30:09.94	224.95	12.98	-45.6	-48.7	15.8	0.00e+00	0	43	0	137363456	63	4965
2026-01-15 11:30:10.93	225.10	13.05	-45.6	-48.7	15.8	0.00e+00	0	43	0	139460608	63	4948
2026-01-15 11:30:11.92	225.24	13.12	-45.6	-48.8	15.8	0.00e+00	0	43	0	141557760	63	4997
2026-01-15 11:30:12.92	225.39	13.19	-45.6	-48.7	15.8	0.00e+00	0	43	0	142606336	63	4971
2026-01-15 11:30:13.91	225.54	13.25	-45.6	-48.7	15.8	0.00e+00	0	43	0	144703488	63	4958
2026-01-15 11:30:14.90	225.68	13.32	-45.7	-48.7	15.8	0.00e+00	0	43	0	146800640	63	4983
2026-01-15 11:30:15.90	225.83	13.39	-45.6	-48.7	15.9	0.00e+00	0	43	0	148897792	63	4946
2026-01-15 11:30:16.89	225.98	13.45	-45.7	-48.8	15.8	0.00e+00	0	43	0	150994944	63	4996
2026-01-15 11:30:17.88	226.13	13.52	-45.7	-48.8	15.8	0.00e+00	0	43	0	152043520	63	5018
2026-01-15 11:30:18.87	226.28	13.59	-45.8	-48.8	15.7	0.00e+00	0	43	0	154140672	63	5036
2026-01-15 11:30:19.87	226.43	13.65	-45.7	-48.7	15.8	0.00e+00	0	43	0	156237824	63	4972
2026-01-15 11:30:20.86	226.59	13.72	-45.7	-48.8	15.8	0.00e+00	0	43	0	158334976	63	4990
2026-01-15 11:30:21.85	226.74	13.79	-45.7	-48.8	15.8	0.00e+00	0	43	0	159383552	63	5001
2026-01-15 11:30:22.85	226.89	13.86	-45.7	-48.7	15.8	0.00e+00	0	43	0	161480704	63	4977
2026-01-15 11:30:23.84	227.04	13.92	-45.7	-48.8	15.8	0.00e+00	0	43	0	163577856	63	5025
2026-01-15 11:30:24.83	227.20	13.99	-45.8	-48.9	15.7	0.00e+00	0	42	0	165675008	63	5067
2026-01-15 11:30:25.83	227.35	14.06	-45.8	-48.8	15.7	0.00e+00	0	43	0	167772160	63	5034
2026-01-15 11:30:26.82	227.51	14.12	-45.7	-48.7	15.8	0.00e+00	0	43	0	168820736	63	4971
2026-01-15 11:30:27.81	227.67	14.19	-45.8	-48.8	15.8	0.00e+00	0	43	0	170917888	63	5020
2026-01-15 11:30:28.80	227.82	14.26	-45.8	-48.8	15.7	0.00e+00	0	43	0	173015040	63	5036
2026-01-15 11:30:29.80	227.98	14.32	-45.7	-48.8	15.8	0.00e+00	0	43	0	175112192	63	5004
2026-01-15 11:30:30.79	228.14	14.39	-45.7	-48.7	15.9	0.00e+00	0	43	0	176160768	63	4981
2026-01-15 11:30:31.78	228.30	14.46	-45.6	-48.7	16.0	0.00e+00	0	43	0	178257920	63	4939
2026-01-15 11:30:32.78	228.46	14.53	-45.6	-48.5	16.1	0.00e+00	0	43	0	180355072	63	4867
2026-01-15 11:30:33.77	228.62	14.59	-45.6	-48.6	16.1	0.00e+00	0	43	0	182452224	63	4885
2026-01-15 11:30:34.76	228.78	14.66	-45.6	-48.6	16.0	0.00e+00	0	43	0	184549376	63	4923
2026-01-15 11:30:35.75	228.94	14.73	-45.7	-48.8	15.9	0.00e+00	0	43	0	185597952	63	4998
2026-01-15 11:30:36.75	229.10	14.79	-45.7	-48.8	15.8	0.00e+00	0	43	0	187695104	63	5010
2026-01-15 11:30:37.74	229.27	14.86	-45.6	-48.7	16.0	0.00e+00	0	43	0	189792256	63	4946
2026-01-15 11:30:38.73	229.43	14.93	-45.7	-48.7	15.9	0.00e+00	0	43	0	191889408	63	4971
2026-01-15 11:30:39.73	229.60	14.99	-45.7	-48.7	15.9	0.00e+00	0	43	0	192937984	63	4982
2026-01-15 11:30:40.72	229.76	15.06	-45.7	-48.7	15.9	0.00e+00	0	43	0	195035136	63	4961
2026-01-15 11:30:41.71	229.93	15.13	-45.7	-48.8	15.9	0.00e+00	0	43	0	197132288	63	5010
2026-01-15 11:30:42.71	230.10	15.19	-45.7	-48.8	15.9	0.00e+00	0	43	0	199229440	63	4989
2026-01-15 11:30:43.70	230.26	15.26	-45.8	-48.8	15.8	0.00e+00	0	43	0	201326592	63	5022
2026-01-15 11:30:44.69	230.43	15.33	-45.7	-48.8	15.9	0.00e+00	0	43	0	202375168	63	5032
2026-01-15 11:30:45.69	230.60	15.39	-45.7	-48.8	15.8	0.00e+00	0	43	0	204472320	63	5037
2026-01-15 11:30:46.68	230.77	15.46	-45.7	-48.8	15.9	0.00e+00	0	43	0	206569472	63	4990
2026-01-15 11:30:47.67	230.94	15.52	-45.7	-48.8	15.9	0.00e+00	0	43	0	208666624	63	5034
2026-01-15 11:30:48.67	231.11	15.59	-45.8	-48.9	15.8	0.00e+00	0	43	0	209715200	63	5077
2026-01-15 11:30:49.66	231.29	15.66	-45.7	-48.8	15.9	0.00e+00	0	43	0	211812352	63	4988
2026-01-15 11:30:50.65	231.46	15.72	-45.7	-48.7	15.9	0.00e+00	0	43	0	213909504	63	4971
2026-01-15 11:30:51.64	231.63	15.79	-45.7	-48.8	15.9	0.00e+00	0	43	0	216006656	63	4995
2026-01-15 11:30:52.64	231.81	15.86	-45.7	-48.8	15.9	0.00e+00	0	43	0	218103808	63	5015
2026-01-15 11:30:53.63	231.98	15.92	-45.7	-48.7	15.9	0.00e+00	0	43	0	219152384	63	4982
2026-01-15 11:30:54.62	232.16	15.99	-45.7	-48.7	16.0	0.00e+00	0	43	0	221249536	63	4969
2026-01-15 11:30:55.62	232.33	16.05	-45.7	-48.7	16.0	0.00e+00	0	43	0	223346688	63	4969
2026-01-15 11:30:56.61	232.51	16.12	-45.6	-48.6	16.0	0.00e+00	0	43	0	225443840	63	4922
2026-01-15 11:30:57.60	232.69	16.18	-45.6	-48.5	16.1	0.00e+00	0	43	0	226492416	63	4869
2026-01-15 11:30:58.60	232.87	16.25	-45.5	-48.5	16.2	0.00e+00	0	43	0	228589568	63	4853
2026-01-15 11:30:59.59	233.05	16.32	-45.6	-48.6	16.1	0.00e+00	0	43	0	230686720	63	4910
2026-01-15 11:31:00.58	233.23	16.38	-45.6	-48.6	16.1	0.00e+00	0	43	0	232783872	63	4912
2026-01-15 11:31:01.57	233.41	16.45	-45.8	-48.9	15.9	0.00e+00	0	43	0	233832448	63	5043
2026-01-15 11:31:02.57	233.59	16.51	-45.6	-48.7	16.0	0.00e+00	0	43	0	235929600	63	4951
2026-01-15 11:31:03.56	233.77	16.58	-45.6	-48.6	16.0	0.00e+00	0	43	0	238026752	63	4908
2026-01-15 11:31:04.55	233.96	16.64	-45.6	-48.6	16.1	0.00e+00	0	43	0	240123904	63	4885
2026-01-15 11:31:05.55	234.14	16.71	-45.6	-48.7	16.1	0.00e+00	0	43	0	242221056	63	4927
2026-01-15 11:31:06.54	234.33	16.77	-45.4	-48.4	16.3	0.00e+00	0	43	0	243269632	62	5077
2026-01-15 11:31:07.53	234.51	16.84	-45.3	-48.2	16.5	0.00e+00	0	43	0	245366784	62	4957
2026-01-15 11:31:08.52	234.70	16.90	-45.4	-48.2	16.4	0.00e+00	0	43	0	247463936	62	4981
2026-01-15 11:31:09.52	234.89	16.96	-45.3	-48.2	16.5	0.00e+00	0	43	0	249561088	62	4952
2026-01-15 11:31:10.51	235.07	17.03	-45.4	-48.3	16.4	0.00e+00	0	43	0	250609664	62	4988
2026-01-15 11:31:11.50	235.26	17.09	-45.3	-48.2	16.5	0.00e+00	0	43	0	252706816	62	4961
2026-01-15 11:31:12.49	235.45	17.16	-45.4	-48.3	16.4	0.00e+00	0	43	0	254803968	62	5013
2026-01-15 11:31:13.49	235.64	17.22	-45.4	-48.3	16.3	0.00e+00	0	43	0	256901120	62	5041
2026-01-15 11:31:14.48	235.83	17.28	-45.4	-48.3	16.4	0.00e+00	0	43	0	258998272	62	5022
2026-01-15 11:31:15.48	236.03	17.35	-45.3	-48.3	16.4	0.00e+00	0	43	0	260046848	62	5010
2026-01-15 11:31:16.47	236.22	17.41	-45.4	-48.3	16.4	0.00e+00	0	43	0	262144000	62	5019
2026-01-15 11:31:17.46	236.41	17.48	-45.4	-48.3	16.4	0.00e+00	0	43	0	264241152	62	5013
2026-01-15 11:31:18.45	236.61	17.54	-45.3	-48.1	16.6	0.00e+00	0	43	0	266338304	62	4913
2026-01-15 11:31:19.45	236.80	17.60	-45.2	-48.1	16.6	0.00e+00	0	43	0	267386880	62	4883
2026-01-15 11:31:20.44	237.00	17.66	-45.2	-48.0	16.7	0.00e+00	0	43	0	269484032	62	4832
2026-01-15 11:31:21.43	237.19	17.73	-45.1	-47.9	16.8	0.00e+00	0	43	0	271581184	62	4786
2026-01-15 11:31:22.43	237.39	17.79	-45.2	-48.0	16.7	0.00e+00	0	43	0	273678336	62	4827
2026-01-15 11:31:23.42	237.59	17.85	-45.1	-47.9	16.8	0.00e+00	0	43	0	275775488	62	4794
2026-01-15 11:31:24.41	237.79	17.91	-45.1	-47.8	16.8	0.00e+00	0	43	0	276824064	62	4755
2026-01-15 11:31:25.41	237.99	17.98	-45.0	-47.8	16.9	0.00e+00	0	43	0	278921216	62	4730
2026-01-15 11:31:26.40	238.19	18.04	-45.0	-47.8	16.9	0.00e+00	0	43	0	281018368	62	4742
2026-01-15 11:31:27.39	238.39	18.10	-45.0	-47.8	16.9	0.00e+00	0	43	0	283115520	62	4722
2026-01-15 11:31:28.38	238.59	18.16	-45.1	-47.9	16.8	0.00e+00	0	43	0	284164096	62	4768
2026-01-15 11:31:29.38	238.80	18.22	-45.0	-47.8	16.8	0.00e+00	0	43	0	286261248	62	4730
2026-01-15 11:31:30.37	239.00	18.28	-45.1	-47.9	16.8	0.00e+00	0	43	0	288358400	62	4777
2026-01-15 11:31:31.36	239.21	18.34	-44.9	-47.7	16.9	0.00e+00	0	43	0	290455552	61	4973
2026-01-15 11:31:32.36	239.41	18.40	-45.0	-47.7	16.9	0.00e+00	0	43	0	292552704	61	4973
2026-01-15 11:31:33.35	239.62	18.46	-44.9	-47.6	17.0	0.00e+00	0	43	0	293601280	61	4924
2026-01-15 11:31:34.34	239.82	18.52	-45.0	-47.7	17.0	0.00e+00	0	43	0	295698432	61	4958
2026-01-15 11:31:35.34	240.03	18.59	-45.1	-47.9	16.8	0.00e+00	0	43	0	297795584	61	5047
2026-01-15 11:31:36.33	240.24	18.64	-45.1	-47.9	16.8	0.00e+00	0	43	0	299892736	61	5058
2026-01-15 11:31:37.32	240.45	18.70	-45.1	-48.0	16.7	0.00e+00	0	43	0	300941312	61	5103
2026-01-15 11:31:38.31	240.66	18.76	-45.1	-47.9	16.8	0.00e+00	0	43	0	303038464	61	5078
2026-01-15 11:31:39.31	240.87	18.82	-45.0	-47.9	16.8	0.00e+00	0	43	0	305135616	61	5053
2026-01-15 11:31:40.30	241.08	18.88	-44.9	-47.7	16.9	0.00e+00	0	43	0	307232768	61	4982
2026-01-15 11:31:41.29	241.30	18.94	-44.9	-47.8	16.8	0.00e+00	0	43	0	309329920	61	5030
2026-01-15 11:31:42.29	241.51	19.00	-45.0	-48.0	16.7	0.00e+00	0	43	0	310378496	61	5101
2026-01-15 11:31:43.28	241.73	19.06	-45.0	-48.0	16.7	0.00e+00	0	43	0	312475648	61	5115
2026-01-15 11:31:44.27	241.94	19.11	-45.2	-48.2	16.5	0.00e+00	0	43	0	314572800	61	5247
2026-01-15 11:31:45.27	242.16	19.17	-45.4	-48.5	16.2	0.00e+00	0	43	0	316669952	61	5413
2026-01-15 11:31:46.26	242.37	19.23	-45.6	-48.7	16.0	0.00e+00	0	43	0	317718528	61	5547
2026-01-15 11:31:47.25	242.59	19.29	-45.7	-48.8	15.9	0.00e+00	0	43	0	319815680	62	5320
2026-01-15 11:31:48.25	242.81	19.34	-45.8	-48.9	15.8	0.00e+00	0	43	0	321912832	62	5391
2026-01-15 11:31:49.24	243.03	19.40	-45.8	-48.9	15.8	0.00e+00	0	43	0	324009984	62	5381
2026-01-15 11:31:50.23	243.25	19.46	-45.8	-48.9	15.8	0.00e+00	0	43	0	326107136	62	5398
2026-01-15 11:31:51.22	243.47	19.51	-45.9	-49.0	15.7	0.00e+00	0	43	0	327155712	62	5435
2026-01-15 11:31:52.22	243.69	19.57	-45.9	-49.0	15.7	0.00e+00	0	43	0	329252864	62	5436
2026-01-15 11:31:53.21	243.91	19.62	-45.9	-48.9	15.8	7.00e-07	0	43	0	331350016	62	5392
2026-01-15 11:31:54.20	244.13	19.68	-45.9	-49.0	15.7	0.00e+00	0	43	0	333447168	62	5430
2026-01-15 11:31:55.20	244.36	19.73	-46.0	-49.2	15.6	0.00e+00	0	43	0	334495744	62	5541
2026-01-15 11:31:56.19	244.58	19.79	-46.1	-49.3	15.4	0.00e+00	0	43	0	336592896	62	5630
2026-01-15 11:31:57.18	244.81	19.84	-46.3	-49.6	15.2	0.00e+00	0	43	0	338690048	63	5482
2026-01-15 11:31:58.17	245.03	19.89	-46.4	-49.9	14.9	0.00e+00	0	43	0	340787200	63	5666
2026-01-15 11:31:59.17	245.26	19.95	-46.6	-50.2	14.6	0.00e+00	0	43	0	341835776	63	5881
2026-01-15 11:32:00.16	245.49	20.00	-46.6	-50.3	14.4	7.00e-07	0	43	0	343932928	64	5594
2026-01-15 11:32:01.15	245.72	20.05	-46.7	-50.4	14.3	0.00e+00	0	43	0	346030080	64	5657
2026-01-15 11:32:02.14	245.94	20.11	-46.8	-50.4	14.3	1.50e-06	0	43	0	348127232	64	5688
2026-01-15 11:32:03.14	246.18	20.16	-46.8	-50.5	14.3	3.00e-06	0	43	0	350224384	64	5731
2026-01-15 11:32:04.13	246.41	20.21	-46.7	-50.2	14.5	0.00e+00	0	43	0	351272960	64	5579
2026-01-15 11:32:05.13	246.64	20.26	-46.6	-50.1	14.6	0.00e+00	0	43	0	353370112	64	5474
2026-01-15 11:32:06.12	246.87	20.31	-46.5	-49.9	14.8	0.00e+00	0	43	0	355467264	64	5373
2026-01-15 11:32:07.11	247.10	20.36	-46.4	-49.8	14.9	0.00e+00	0	43	0	357564416	64	5332
2026-01-15 11:32:08.11	247.34	20.41	-46.3	-49.7	15.0	0.00e+00	0	43	0	358612992	64	5259
2026-01-15 11:32:09.10	247.57	20.46	-46.3	-49.7	15.0	0.00e+00	0	43	0	360710144	64	5244
2026-01-15 11:32:10.09	247.81	20.51	-46.3	-49.8	14.9	0.00e+00	0	43	0	362807296	64	5308
2026-01-15 11:32:11.08	248.04	20.56	-46.3	-49.8	14.8	0.00e+00	0	43	0	364904448	64	5336
2026-01-15 11:32:12.08	248.28	20.61	-46.3	-49.8	14.9	0.00e+00	0	43	0	367001600	64	5321
2026-01-15 11:32:13.07	248.52	20.66	-46.2	-49.7	14.9	7.00e-07	0	43	0	368050176	64	5267
2026-01-15 11:32:14.06	248.75	20.71	-46.3	-49.7	15.0	0.00e+00	0	43	0	370147328	64	5263
2026-01-15 11:32:15.05	248.99	20.75	-46.2	-49.6	15.0	0.00e+00	0	43	0	372244480	64	5212
2026-01-15 11:32:16.05	249.23	20.80	-46.3	-49.6	15.1	0.00e+00	0	43	0	374341632	64	5209
2026-01-15 11:32:17.04	249.47	20.85	-46.2	-49.5	15.2	0.00e+00	0	43	0	375390208	64	5133
2026-01-15 11:32:18.03	249.71	20.89	-46.1	-49.3	15.4	0.00e+00	0	43	0	377487360	64	5009
2026-01-15 11:32:19.03	249.96	20.94	-46.0	-49.1	15.6	0.00e+00	0	43	0	379584512	63	5208
2026-01-15 11:32:20.02	250.20	20.99	-45.8	-48.9	15.9	0.00e+00	0	43	0	381681664	63	5066
2026-01-15 11:32:21.01	250.44	21.03	-45.8	-48.8	15.9	0.00e+00	0	43	0	383778816	63	5028
2026-01-15 11:32:22.01	250.68	21.08	-45.7	-48.6	16.1	0.00e+00	0	43	0	384827392	63	4911
2026-01-15 11:32:23.00	250.93	21.12	-45.7	-48.7	16.0	0.00e+00	0	43	0	386924544	63	4975
2026-01-15 11:32:23.99	251.17	21.16	-45.8	-48.9	15.9	0.00e+00	0	43	0	389021696	63	5052
2026-01-15 11:32:24.98	251.42	21.21	-46.0	-49.2	15.6	0.00e+00	0	43	0	391118848	63	5231
2026-01-15 11:32:25.98	251.67	21.25	-46.1	-49.3	15.5	0.00e+00	0	43	0	392167424	63	5317
2026-01-15 11:32:26.97	251.91	21.29	-46.2	-49.4	15.4	7.00e-07	0	43	0	394264576	63	5391
2026-01-15 11:32:27.96	252.16	21.33	-46.2	-49.5	15.3	0.00e+00	0	43	0	396361728	63	5432
2026-01-15 11:32:28.95	252.41	21.37	-46.2	-49.5	15.3	0.00e+00	0	43	0	398458880	63	5422
2026-01-15 11:32:29.95	252.66	21.42	-46.3	-49.5	15.3	0.00e+00	0	43	0	400556032	63	5456
2026-01-15 11:32:30.94	252.91	21.46	-46.2	-49.4	15.4	0.00e+00	0	43	0	401604608	63	5395
2026-01-15 11:32:31.93	253.16	21.50	-46.2	-49.4	15.4	0.00e+00	0	43	0	403701760	63	5363
2026-01-15 11:32:32.93	253.41	21.54	-46.2	-49.4	15.4	0.00e+00	0	43	0	405798912	63	5375
2026-01-15 11:32:33.92	253.66	21.57	-46.1	-49.3	15.5	0.00e+00	0	43	0	407896064	63	5298
2026-01-15 11:32:34.91	253.91	21.61	-46.1	-49.3	15.5	0.00e+00	0	43	0	408944640	63	5301
2026-01-15 11:32:35.90	254.16	21.65	-46.1	-49.3	15.5	0.00e+00	0	43	0	411041792	63	5322
2026-01-15 11:32:36.90	254.42	21.69	-46.0	-49.2	15.6	0.00e+00	0	43	0	413138944	63	5269
2026-01-15 11:32:37.89	254.67	21.73	-46.0	-49.1	15.6	0.00e+00	0	43	0	415236096	63	5215
2026-01-15 11:32:38.88	254.92	21.76	-46.0	-49.2	15.5	0.00e+00	0	43	0	417333248	63	5267
2026-01-15 11:32:39.88	255.18	21.80	-46.1	-49.3	15.5	0.00e+00	0	43	0	418381824	63	5292
2026-01-15 11:32:40.87	255.44	21.83	-46.1	-49.3	15.4	7.00e-07	0	43	0	420478976	63	5320
2026-01-15 11:32:41.86	255.69	21.87	-46.1	-49.4	15.4	0.00e+00	0	43	0	422576128	63	5341
2026-01-15 11:32:42.86	255.95	21.90	-46.0	-49.2	15.6	0.00e+00	0	43	0	424673280	63	5262
2026-01-15 11:32:43.85	256.21	21.94	-45.9	-49.0	15.7	0.00e+00	0	43	0	425721856	63	5153
2026-01-15 11:32:44.84	256.46	21.97	-45.8	-48.9	15.9	0.00e+00	0	43	0	427819008	63	5057
2026-01-15 11:32:45.83	256.72	22.00	-45.8	-48.9	15.9	0.00e+00	0	43	0	429916160	63	5058
2026-01-15 11:32:46.83	256.98	22.03	-45.8	-49.0	15.9	0.00e+00	0	43	0	432013312	63	5104
2026-01-15 11:32:47.82	257.24	22.07	-45.5	-48.6	16.2	0.00e+00	0	43	0	433061888	63	4882
2026-01-15 11:32:48.81	257.50	22.10	-45.5	-48.5	16.3	0.00e+00	0	43	0	435159040	63	4847
2026-01-15 11:32:49.81	257.76	22.13	-45.6	-48.6	16.2	0.00e+00	0	43	0	437256192	63	4893
2026-01-15 11:32:50.80	258.02	22.16	-45.5	-48.5	16.3	0.00e+00	0	43	0	439353344	63	4853
2026-01-15 11:32:51.79	258.28	22.19	-45.5	-48.5	16.3	0.00e+00	0	43	0	441450496	63	4823
2026-01-15 11:32:52.78	258.54	22.22	-45.4	-48.4	16.4	0.00e+00	0	43	0	442499072	62	5060
2026-01-15 11:32:53.78	258.81	22.24	-45.5	-48.4	16.4	0.00e+00	0	43	0	444596224	62	5075
2026-01-15 11:32:54.77	259.07	22.27	-45.5	-48.4	16.3	0.00e+00	0	43	0	446693376	62	5084
2026-01-15 11:32:55.76	259.33	22.30	-45.4	-48.3	16.4	0.00e+00	0	43	0	448790528	62	5020
2026-01-15 11:32:56.76	259.60	22.33	-45.5	-48.4	16.4	0.00e+00	0	43	0	449839104	62	5071
2026-01-15 11:32:57.75	259.86	22.35	-45.5	-48.5	16.3	0.00e+00	0	43	0	451936256	62	5110
2026-01-15 11:32:58.74	260.12	22.38	-45.6	-48.6	16.2	0.00e+00	0	43	0	454033408	62	5193
2026-01-15 11:32:59.74	260.39	22.40	-45.7	-48.7	16.1	0.00e+00	0	43	0	456130560	62	5268
2026-01-15 11:33:00.73	260.65	22.43	-45.8	-48.9	15.9	0.00e+00	0	43	0	457179136	62	5358
2026-01-15 11:33:01.72	260.92	22.45	-45.8	-48.9	15.9	0.00e+00	0	43	0	459276288	62	5383
2026-01-15 11:33:02.72	261.19	22.47	-45.9	-49.0	15.8	0.00e+00	0	43	0	461373440	62	5409
2026-01-15 11:33:03.71	261.45	22.49	-45.9	-49.0	15.9	0.00e+00	0	43	0	463470592	62	5429
2026-01-15 11:33:04.70	261.72	22.52	-45.9	-49.0	15.8	0.00e+00	0	43	0	465567744	62	5423
2026-01-15 11:33:05.69	261.99	22.54	-45.9	-49.1	15.7	0.00e+00	0	43	0	466616320	62	5469
2026-01-15 11:33:06.69	262.26	22.56	-46.0	-49.2	15.6	0.00e+00	0	43	0	468713472	62	5540
2026-01-15 11:33:07.68	262.52	22.58	-46.0	-49.2	15.6	0.00e+00	0	43	0	470810624	62	5537
2026-01-15 11:33:08.67	262.79	22.60	-46.1	-49.3	15.5	0.00e+00	0	43	0	472907776	62	5620
2026-01-15 11:33:09.66	263.06	22.61	-46.2	-49.4	15.4	0.00e+00	0	43	0	475004928	62	5698
2026-01-15 11:33:10.66	263.33	22.63	-46.2	-49.5	15.3	0.00e+00	0	43	0	476053504	63	5414
2026-01-15 11:33:11.65	263.60	22.65	-46.2	-49.5	15.3	0.00e+00	0	43	0	478150656	63	5442
2026-01-15 11:33:12.64	263.86	22.67	-46.2	-49.5	15.3	0.00e+00	0	43	0	480247808	63	5413
2026-01-15 11:33:13.63	264.13	22.68	-46.2	-49.3	15.5	0.00e+00	0	43	0	482344960	63	5326
2026-01-15 11:33:14.63	264.41	22.70	-46.2	-49.3	15.5	0.00e+00	0	43	0	483393536	63	5332
2026-01-15 11:33:15.62	264.67	22.71	-46.1	-49.2	15.5	0.00e+00	0	43	0	485490688	63	5268
2026-01-15 11:33:16.61	264.94	22.73	-46.1	-49.2	15.6	0.00e+00	0	43	0	487587840	63	5261
2026-01-15 11:33:17.61	265.22	22.74	-46.1	-49.2	15.6	0.00e+00	0	43	0	489684992	63	5260
2026-01-15 11:33:18.60	265.49	22.75	-46.0	-49.2	15.6	0.00e+00	0	43	0	491782144	63	5230
2026-01-15 11:33:19.59	265.76	22.77	-45.9	-49.0	15.7	0.00e+00	0	43	0	492830720	63	5155
2026-01-15 11:33:20.59	266.03	22.78	-45.8	-48.8	15.9	0.00e+00	0	43	0	494927872	63	5036
2026-01-15 11:33:21.58	266.30	22.79	-45.6	-48.6	16.1	0.00e+00	0	43	0	497025024	63	4924
2026-01-15 11:33:22.57	266.57	22.80	-45.7	-48.7	16.1	0.00e+00	0	43	0	499122176	63	4935
2026-01-15 11:33:23.56	266.84	22.81	-45.6	-48.6	16.2	0.00e+00	0	43	0	500170752	63	4879
2026-01-15 11:33:24.56	267.12	22.82	-45.7	-48.7	16.0	0.00e+00	0	43	0	502267904	63	4968
2026-01-15 11:33:25.55	267.39	22.83	-45.8	-48.8	16.0	0.00e+00	0	43	0	504365056	63	5015
2026-01-15 11:33:26.54	267.66	22.83	-45.9	-49.0	15.8	0.00e+00	0	43	0	506462208	63	5122
2026-01-15 11:33:27.53	267.93	22.84	-46.0	-49.1	15.7	0.00e+00	0	43	0	508559360	63	5177
2026-01-15 11:33:28.53	268.20	22.85	-45.9	-49.0	15.7	0.00e+00	0	43	0	509607936	63	5154
2026-01-15 11:33:29.52	268.48	22.85	-45.9	-49.0	15.8	0.00e+00	0	43	0	511705088	63	5132
2026-01-15 11:33:30.51	268.75	22.86	-45.8	-48.9	15.9	0.00e+00	0	43	0	513802240	63	5085
2026-01-15 11:33:31.50	269.02	22.86	-45.7	-48.8	16.0	0.00e+00	0	43	0	515899392	63	4986
2026-01-15 11:33:32.50	269.29	22.87	-45.6	-48.6	16.1	0.00e+00	0	43	0	516947968	63	4902
2026-01-15 11:33:33.49	269.57	22.87	-45.5	-48.4	16.3	0.00e+00	0	43	0	519045120	63	4804
2026-01-15 11:33:34.48	269.84	22.87	-45.4	-48.3	16.4	0.00e+00	0	43	0	521142272	62	5041
2026-01-15 11:33:35.48	270.11	22.87	-45.4	-48.4	16.4	0.00e+00	0	43	0	523239424	62	5073
2026-01-15 11:33:36.47	270.38	22.87	-45.5	-48.5	16.3	0.00e+00	0	43	0	524288000	62	5110
2026-01-15 11:33:37.46	270.66	22.88	-45.7	-48.7	16.1	0.00e+00	0	43	0	526385152	62	5228
2026-01-15 11:33:38.45	270.93	22.87	-45.8	-48.8	15.9	0.00e+00	0	43	0	528482304	62	5324
2026-01-15 11:33:39.45	271.20	22.87	-45.9	-49.0	15.8	0.00e+00	0	43	0	530579456	62	5416
2026-01-15 11:33:40.44	271.48	22.87	-45.9	-49.0	15.8	0.00e+00	0	43	0	532676608	62	5434
2026-01-15 11:33:41.43	271.75	22.87	-45.8	-48.9	15.9	0.00e+00	0	43	0	533725184	62	5360
2026-01-15 11:33:42.43	272.02	22.87	-45.9	-48.9	15.9	0.00e+00	0	43	0	535822336	62	5374
2026-01-15 11:33:43.42	272.29	22.86	-45.7	-48.8	16.0	0.00e+00	0	43	0	537919488	62	5289
2026-01-15 11:33:44.41	272.57	22.86	-45.6	-48.6	16.2	0.00e+00	0	43	0	540016640	62	5168
2026-01-15 11:33:45.40	272.84	22.85	-45.4	-48.3	16.4	0.00e+00	0	43	0	541065216	62	5030
2026-01-15 11:33:46.40	273.11	22.85	-45.4	-48.2	16.5	0.00e+00	0	43	0	543162368	62	4983
2026-01-15 11:33:47.39	273.38	22.84	-45.3	-48.2	16.6	0.00e+00	0	43	0	545259520	62	4931
2026-01-15 11:33:48.38	273.65	22.84	-45.4	-48.3	16.5	0.00e+00	0	43	0	547356672	62	5013
2026-01-15 11:33:49.37	273.93	22.83	-45.6	-48.5	16.2	0.00e+00	0	43	0	548405248	62	5118
2026-01-15 11:33:50.37	274.20	22.82	-45.7	-48.7	16.0	0.00e+00	0	43	0	550502400	62	5273
2026-01-15 11:33:51.36	274.47	22.81	-46.0	-49.1	15.7	0.00e+00	0	43	0	552599552	62	5498
2026-01-15 11:33:52.35	274.74	22.80	-46.1	-49.3	15.4	0.00e+00	0	43	0	554696704	62	5651
2026-01-15 11:33:53.35	275.01	22.79	-46.1	-49.4	15.4	0.00e+00	0	43	0	556793856	62	5661
2026-01-15 11:33:54.34	275.28	22.78	-46.1	-49.4	15.4	0.00e+00	0	43	0	557842432	62	5692
2026-01-15 11:33:55.33	275.56	22.77	-46.1	-49.4	15.4	0.00e+00	0	43	0	559939584	62	5671
2026-01-15 11:33:56.33	275.83	22.76	-46.3	-49.5	15.2	0.00e+00	0	43	0	562036736	63	5457
2026-01-15 11:33:57.32	276.10	22.75	-46.3	-49.5	15.3	7.00e-07	0	43	0	564133888	63	5436
2026-01-15 11:33:58.31	276.37	22.73	-46.1	-49.3	15.5	0.00e+00	0	43	0	565182464	63	5286
2026-01-15 11:33:59.31	276.64	22.72	-46.0	-49.2	15.6	0.00e+00	0	43	0	567279616	63	5235
2026-01-15 11:34:00.30	276.91	22.70	-45.9	-48.9	15.8	0.00e+00	0	43	0	569376768	63	5094
2026-01-15 11:34:01.29	277.18	22.69	-45.8	-48.8	15.9	0.00e+00	0	43	0	571473920	63	5013
2026-01-15 11:34:02.28	277.45	22.67	-45.8	-48.8	16.0	0.00e+00	0	43	0	573571072	63	5026
2026-01-15 11:34:03.28	277.72	22.66	-45.6	-48.6	16.1	0.00e+00	0	43	0	574619648	63	4895
2026-01-15 11:34:04.27	277.98	22.64	-45.6	-48.5	16.3	0.00e+00	0	43	0	576716800	63	4849
2026-01-15 11:34:05.26	278.25	22.62	-45.6	-48.6	16.2	0.00e+00	0	43	0	578813952	63	4890
2026-01-15 11:34:06.25	278.52	22.60	-45.7	-48.7	16.0	0.00e+00	0	43	0	580911104	63	4972
2026-01-15 11:34:07.25	278.79	22.58	-45.9	-49.0	15.8	0.00e+00	0	43	0	583008256	63	5138
2026-01-15 11:34:08.24	279.06	22.57	-46.1	-49.3	15.5	0.00e+00	0	43	0	584056832	63	5284
2026-01-15 11:34:09.23	279.32	22.54	-46.2	-49.4	15.4	0.00e+00	0	43	0	586153984	63	5398
2026-01-15 11:34:10.23	279.59	22.52	-46.2	-49.4	15.4	0.00e+00	0	43	0	588251136	63	5358
2026-01-15 11:34:11.22	279.86	22.50	-46.1	-49.3	15.5	0.00e+00	0	43	0	590348288	63	5299
2026-01-15 11:34:12.21	280.12	22.48	-46.1	-49.2	15.6	0.00e+00	0	43	0	591396864	63	5260
2026-01-15 11:34:13.20	280.39	22.46	-45.9	-49.0	15.8	0.00e+00	0	43	0	593494016	63	5104
2026-01-15 11:34:14.20	280.65	22.43	-45.8	-48.8	16.0	0.00e+00	0	43	0	595591168	63	5031
2026-01-15 11:34:15.19	280.92	22.41	-45.8	-48.8	16.0	0.00e+00	0	43	0	597688320	63	5024
2026-01-15 11:34:16.18	281.18	22.39	-45.8	-48.8	16.0	0.00e+00	0	43	0	599785472	63	5010
2026-01-15 11:34:17.18	281.45	22.36	-45.7	-48.7	16.1	0.00e+00	0	43	0	600834048	63	4930
2026-01-15 11:34:18.17	281.71	22.34	-45.5	-48.4	16.4	0.00e+00	0	43	0	602931200	62	5049
2026-01-15 11:34:19.16	281.97	22.31	-45.4	-48.3	16.4	0.00e+00	0	43	0	605028352	62	5021
2026-01-15 11:34:20.15	282.24	22.28	-45.4	-48.3	16.5	0.00e+00	0	43	0	607125504	62	4993
2026-01-15 11:34:21.15	282.50	22.26	-45.4	-48.3	16.4	0.00e+00	0	43	0	608174080	62	5032
2026-01-15 11:34:22.14	282.76	22.23	-45.6	-48.5	16.3	0.00e+00	0	43	0	610271232	62	5137
2026-01-15 11:34:23.13	283.02	22.20	-45.6	-48.6	16.2	0.00e+00	0	43	0	612368384	62	5176
2026-01-15 11:34:24.12	283.28	22.17	-45.7	-48.7	16.1	0.00e+00	0	43	0	614465536	62	5227
2026-01-15 11:34:25.12	283.54	22.14	-45.7	-48.6	16.1	0.00e+00	0	43	0	615514112	62	5213
2026-01-15 11:34:26.11	283.80	22.11	-45.6	-48.5	16.3	0.00e+00	0	43	0	617611264	62	5101
2026-01-15 11:34:27.10	284.06	22.08	-45.4	-48.3	16.4	0.00e+00	0	43	0	619708416	62	5021
2026-01-15 11:34:28.10	284.32	22.05	-45.4	-48.3	16.4	0.00e+00	0	43	0	621805568	62	5013
2026-01-15 11:34:29.09	284.58	22.02	-45.4	-48.3	16.4	0.00e+00	0	43	0	623902720	62	5027
2026-01-15 11:34:30.08	284.84	21.98	-45.4	-48.3	16.4	0.00e+00	0	43	0	624951296	62	5017
2026-01-15 11:34:31.08	285.10	21.95	-45.4	-48.3	16.5	0.00e+00	0	43	0	627048448	62	5009
2026-01-15 11:34:32.07	285.35	21.92	-45.5	-48.4	16.3	0.00e+00	0	43	0	629145600	62	5090
2026-01-15 11:34:33.06	285.61	21.88	-45.6	-48.5	16.2	0.00e+00	0	43	0	631242752	62	5142
2026-01-15 11:34:34.06	285.86	21.85	-45.6	-48.6	16.1	0.00e+00	0	43	0	632291328	62	5210
2026-01-15 11:34:35.05	286.12	21.81	-45.5	-48.4	16.3	0.00e+00	0	43	0	634388480	62	5100
2026-01-15 11:34:36.04	286.37	21.78	-45.5	-48.4	16.4	0.00e+00	0	43	0	636485632	62	5052
2026-01-15 11:34:37.03	286.63	21.74	-45.3	-48.2	16.5	0.00e+00	0	43	0	638582784	62	4951
2026-01-15 11:34:38.03	286.88	21.71	-45.2	-48.0	16.7	0.00e+00	0	43	0	639631360	62	4868
2026-01-15 11:34:39.02	287.13	21.67	-45.1	-48.0	16.7	0.00e+00	0	43	0	641728512	62	4822
2026-01-15 11:34:40.01	287.38	21.63	-45.3	-48.1	16.6	0.00e+00	0	43	0	643825664	62	4904
2026-01-15 11:34:41.01	287.64	21.59	-45.1	-47.9	16.8	0.00e+00	0	43	0	645922816	62	4778
2026-01-15 11:34:42.00	287.89	21.55	-44.7	-47.4	17.3	0.00e+00	0	43	0	648019968	61	4771
2026-01-15 11:34:42.99	288.14	21.52	-44.5	-47.1	17.6	0.00e+00	0	43	0	649068544	61	4618
2026-01-15 11:34:43.98	288.39	21.48	-44.5	-47.2	17.5	0.00e+00	0	43	0	651165696	61	4657
2026-01-15 11:34:44.98	288.64	21.44	-44.4	-46.9	17.7	0.00e+00	0	43	0	653262848	60	4789
2026-01-15 11:34:45.97	288.88	21.40	-44.4	-46.9	17.7	0.00e+00	0	43	0	655360000	60	4806
2026-01-15 11:34:46.96	289.13	21.35	-44.6	-47.2	17.5	0.00e+00	0	43	0	656408576	60	4939
2026-01-15 11:34:47.95	289.38	21.31	-44.7	-47.4	17.2	0.00e+00	0	43	0	658505728	60	5089
2026-01-15 11:34:48.95	289.63	21.27	-44.8	-47.6	17.1	0.00e+00	0	43	0	660602880	60	5180
2026-01-15 11:34:49.94	289.87	21.23	-44.9	-47.7	17.0	0.00e+00	0	43	0	662700032	60	5259
2026-01-15 11:34:50.93	290.11	21.19	-44.9	-47.7	16.9	0.00e+00	0	43	0	664797184	60	5277
2026-01-15 11:34:51.93	290.36	21.14	-44.8	-47.6	17.1	0.00e+00	0	43	0	665845760	60	5171
2026-01-15 11:34:52.92	290.60	21.10	-44.9	-47.6	17.1	0.00e+00	0	43	0	667942912	60	5210
2026-01-15 11:34:53.91	290.85	21.06	-44.9	-47.6	17.1	0.00e+00	0	43	0	670040064	60	5185
2026-01-15 11:34:54.90	291.09	21.01	-44.9	-47.6	17.1	0.00e+00	0	43	0	672137216	60	5179
2026-01-15 11:34:55.90	291.33	20.97	-44.7	-47.3	17.3	0.00e+00	0	43	0	673185792	60	5038
2026-01-15 11:34:56.89	291.57	20.92	-44.5	-47.1	17.5	0.00e+00	0	43	0	675282944	60	4905
2026-01-15 11:34:57.88	291.81	20.87	-44.4	-47.0	17.7	0.00e+00	0	43	0	677380096	60	4829
2026-01-15 11:34:58.88	292.05	20.83	-44.3	-46.8	17.8	0.00e+00	0	43	0	679477248	60	4756
2026-01-15 11:34:59.87	292.29	20.78	-44.2	-46.7	17.9	0.00e+00	0	43	0	681574400	60	4690
2026-01-15 11:35:00.86	292.53	20.73	-44.2	-46.7	17.9	0.00e+00	0	43	0	682622976	60	4668
2026-01-15 11:35:01.86	292.77	20.69	-44.2	-46.7	17.9	0.00e+00	0	43	0	684720128	60	4678
2026-01-15 11:35:02.85	293.00	20.64	-44.1	-46.6	18.0	0.00e+00	0	43	0	686817280	60	4616
2026-01-15 11:35:03.84	293.24	20.59	-44.0	-46.5	18.1	0.00e+00	0	43	0	688914432	60	4558
2026-01-15 11:35:04.84	293.47	20.54	-44.1	-46.6	18.0	0.00e+00	0	43	0	689963008	60	4620
2026-01-15 11:35:05.83	293.71	20.49	-44.2	-46.7	17.9	0.00e+00	0	43	0	692060160	60	4675
2026-01-15 11:35:06.82	293.94	20.44	-44.3	-46.8	17.8	0.00e+00	0	43	0	694157312	60	4722
2026-01-15 11:35:07.81	294.17	20.39	-44.3	-46.8	17.8	0.00e+00	0	43	0	696254464	60	4747
2026-01-15 11:35:08.81	294.41	20.34	-44.5	-47.0	17.6	0.00e+00	0	43	0	698351616	60	4866
2026-01-15 11:35:09.80	294.64	20.29	-44.5	-47.1	17.6	0.00e+00	0	43	0	699400192	60	4896
2026-01-15 11:35:10.79	294.87	20.24	-44.7	-47.3	17.3	0.00e+00	0	43	0	701497344	60	5041
2026-01-15 11:35:11.79	295.10	20.19	-44.8	-47.5	17.1	0.00e+00	0	43	0	703594496	60	5150
2026-01-15 11:35:12.78	295.33	20.14	-44.9	-47.7	17.0	0.00e+00	0	43	0	705691648	60	5239
2026-01-15 11:35:13.77	295.56	20.09	-45.0	-47.8	16.9	0.00e+00	0	43	0	706740224	60	5319
2026-01-15 11:35:14.76	295.78	20.04	-45.1	-47.9	16.8	0.00e+00	0	43	0	708837376	60	5370
2026-01-15 11:35:15.76	296.01	19.98	-45.1	-47.9	16.8	0.00e+00	0	43	0	710934528	61	5077
2026-01-15 11:35:16.75	296.24	19.93	-45.0	-47.7	17.0	0.00e+00	0	43	0	713031680	61	4962
2026-01-15 11:35:17.74	296.46	19.88	-44.9	-47.7	17.0	0.00e+00	0	43	0	715128832	61	4935
2026-01-15 11:35:18.73	296.69	19.82	-44.9	-47.7	17.0	0.00e+00	0	43	0	716177408	61	4951
2026-01-15 11:35:19.73	296.91	19.77	-44.9	-47.6	17.1	0.00e+00	0	43	0	718274560	61	4909
2026-01-15 11:35:20.72	297.13	19.72	-44.7	-47.4	17.3	0.00e+00	0	43	0	720371712	61	4797
2026-01-15 11:35:21.71	297.36	19.66	-44.7	-47.4	17.3	0.00e+00	0	43	0	722468864	61	4779
2026-01-15 11:35:22.71	297.58	19.61	-44.6	-47.3	17.3	0.00e+00	0	43	0	723517440	61	4750
2026-01-15 11:35:23.70	297.80	19.55	-44.7	-47.4	17.3	0.00e+00	0	43	0	725614592	61	4774
2026-01-15 11:35:24.69	298.02	19.50	-44.8	-47.5	17.2	0.00e+00	0	43	0	727711744	61	4818
2026-01-15 11:35:25.69	298.24	19.44	-44.9	-47.7	17.0	0.00e+00	0	43	0	729808896	61	4947
2026-01-15 11:35:26.68	298.46	19.38	-45.2	-48.0	16.7	0.00e+00	0	43	0	730857472	61	5104
2026-01-15 11:35:27.67	298.67	19.33	-45.5	-48.4	16.4	0.00e+00	0	43	0	732954624	61	5341
2026-01-15 11:35:28.66	298.89	19.27	-45.7	-48.7	16.1	0.00e+00	0	43	0	735051776	62	5249
2026-01-15 11:35:29.66	299.11	19.21	-45.9	-48.9	15.9	0.00e+00	0	43	0	737148928	62	5376
2026-01-15 11:35:30.65	299.32	19.16	-46.0	-49.0	15.7	0.00e+00	0	43	0	739246080	62	5455
2026-01-15 11:35:31.64	299.54	19.10	-45.9	-49.0	15.7	0.00e+00	0	43	0	740294656	62	5438
2026-01-15 11:35:32.63	299.75	19.04	-46.0	-49.1	15.6	0.00e+00	0	43	0	742391808	62	5524
2026-01-15 11:35:33.63	299.96	18.99	-46.1	-49.2	15.6	0.00e+00	0	43	0	744488960	62	5574
2026-01-15 11:35:34.62	300.17	18.93	-46.1	-49.3	15.5	0.00e+00	0	43	0	746586112	62	5613
2026-01-15 11:35:35.61	300.38	18.87	-46.1	-49.3	15.4	0.00e+00	0	43	0	747634688	63	5311
2026-01-15 11:35:36.61	300.60	18.81	-46.1	-49.2	15.5	0.00e+00	0	43	0	749731840	63	5275
2026-01-15 11:35:37.60	300.81	18.75	-46.0	-49.2	15.6	0.00e+00	0	43	0	751828992	63	5224
2026-01-15 11:35:38.59	301.01	18.69	-45.8	-48.9	15.9	0.00e+00	0	43	0	753926144	63	5063
2026-01-15 11:35:39.59	301.22	18.63	-45.8	-48.8	15.9	0.00e+00	0	43	0	756023296	63	5018
2026-01-15 11:35:40.58	301.43	18.57	-45.7	-48.7	16.0	0.00e+00	0	43	0	757071872	63	4971
2026-01-15 11:35:41.57	301.64	18.52	-45.6	-48.5	16.2	0.00e+00	0	43	0	759169024	63	4865
2026-01-15 11:35:42.57	301.84	18.45	-45.6	-48.5	16.2	0.00e+00	0	43	0	761266176	63	4858
2026-01-15 11:35:43.56	302.05	18.40	-45.6	-48.5	16.2	0.00e+00	0	43	0	763363328	63	4853
2026-01-15 11:35:44.55	302.25	18.34	-45.7	-48.7	16.1	0.00e+00	0	43	0	764411904	63	4948
2026-01-15 11:35:45.54	302.45	18.27	-45.7	-48.7	16.1	0.00e+00	0	43	0	766509056	63	4954
2026-01-15 11:35:46.54	302.66	18.21	-45.8	-48.9	15.9	0.00e+00	0	43	0	768606208	63	5045
2026-01-15 11:35:47.53	302.86	18.15	-45.9	-49.0	15.7	0.00e+00	0	43	0	770703360	63	5138
2026-01-15 11:35:48.52	303.06	18.09	-46.0	-49.2	15.6	0.00e+00	0	43	0	772800512	63	5229
2026-01-15 11:35:49.51	303.26	18.03	-46.0	-49.2	15.5	7.00e-07	0	43	0	773849088	63	5248
2026-01-15 11:35:50.51	303.46	17.97	-46.1	-49.3	15.5	0.00e+00	0	43	0	775946240	63	5310
2026-01-15 11:35:51.50	303.66	17.91	-46.2	-49.3	15.4	0.00e+00	0	43	0	778043392	63	5340
2026-01-15 11:35:52.49	303.85	17.85	-46.2	-49.5	15.3	0.00e+00	0	43	0	780140544	63	5416
2026-01-15 11:35:53.49	304.05	17.78	-46.3	-49.5	15.3	0.00e+00	0	43	0	781189120	63	5432
2026-01-15 11:35:54.48	304.25	17.72	-46.2	-49.5	15.3	0.00e+00	0	43	0	783286272	63	5414
2026-01-15 11:35:55.47	304.44	17.66	-46.1	-49.3	15.5	0.00e+00	0	43	0	785383424	63	5303
2026-01-15 11:35:56.47	304.64	17.60	-45.9	-49.1	15.7	0.00e+00	0	43	0	787480576	63	5188
2026-01-15 11:35:57.46	304.83	17.54	-45.9	-49.1	15.7	0.00e+00	0	43	0	789577728	63	5171
2026-01-15 11:35:58.45	305.03	17.47	-45.6	-48.6	16.1	0.00e+00	0	43	0	790626304	63	4922
2026-01-15 11:35:59.45	305.22	17.41	-45.4	-48.4	16.3	0.00e+00	0	43	0	792723456	62	5086
2026-01-15 11:36:00.44	305.41	17.35	-45.5	-48.5	16.3	0.00e+00	0	43	0	794820608	62	5111
2026-01-15 11:36:01.43	305.60	17.28	-45.5	-48.5	16.2	0.00e+00	0	43	0	796917760	62	5152
2026-01-15 11:36:02.43	305.79	17.22	-45.6	-48.6	16.1	0.00e+00	0	43	0	797966336	62	5184
2026-01-15 11:36:03.42	305.98	17.16	-45.6	-48.6	16.1	0.00e+00	0	43	0	800063488	62	5214
2026-01-15 11:36:04.41	306.17	17.09	-45.6	-48.6	16.1	0.00e+00	0	43	0	802160640	62	5190
2026-01-15 11:36:05.40	306.35	17.03	-45.6	-48.5	16.2	0.00e+00	0	43	0	804257792	62	5156
2026-01-15 11:36:06.40	306.54	16.97	-45.6	-48.6	16.2	0.00e+00	0	43	0	806354944	62	5163
2026-01-15 11:36:07.39	306.73	16.90	-45.5	-48.4	16.3	0.00e+00	0	43	0	807403520	62	5093
2026-01-15 11:36:08.38	306.91	16.84	-45.5	-48.5	16.3	0.00e+00	0	43	0	809500672	62	5121
2026-01-15 11:36:09.37	307.10	16.77	-45.6	-48.6	16.1	0.00e+00	0	43	0	811597824	62	5213
2026-01-15 11:36:10.37	307.28	16.71	-45.7	-48.8	16.0	0.00e+00	0	43	0	813694976	62	5305
2026-01-15 11:36:11.36	307.46	16.65	-45.8	-49.0	15.7	0.00e+00	0	43	0	814743552	62	5449
2026-01-15 11:36:12.35	307.65	16.58	-46.0	-49.3	15.5	0.00e+00	0	43	0	816840704	62	5622
2026-01-15 11:36:13.35	307.83	16.52	-46.1	-49.4	15.3	0.00e+00	0	43	0	818937856	62	5687
2026-01-15 11:36:14.34	308.01	16.45	-46.1	-49.4	15.4	0.00e+00	0	43	0	821035008	62	5709
2026-01-15 11:36:15.33	308.19	16.39	-46.0	-49.3	15.4	0.00e+00	0	43	0	823132160	62	5630
2026-01-15 11:36:16.33	308.37	16.32	-46.0	-49.2	15.5	0.00e+00	0	43	0	824180736	62	5586
2026-01-15 11:36:17.32	308.55	16.26	-45.9	-49.1	15.7	0.00e+00	0	43	0	826277888	62	5486
2026-01-15 11:36:18.31	308.72	16.19	-45.9	-49.1	15.7	0.00e+00	0	43	0	828375040	62	5480
2026-01-15 11:36:19.30	308.90	16.13	-45.9	-49.0	15.8	0.00e+00	0	43	0	830472192	62	5429
2026-01-15 11:36:20.30	309.08	16.06	-45.8	-48.8	15.9	0.00e+00	0	43	0	831520768	62	5331
2026-01-15 11:36:21.29	309.25	16.00	-45.9	-49.0	15.7	0.00e+00	0	43	0	833617920	62	5441
2026-01-15 11:36:22.28	309.43	15.93	-45.9	-49.1	15.6	0.00e+00	0	43	0	835715072	62	5522
2026-01-15 11:36:23.28	309.60	15.87	-45.9	-49.1	15.6	0.00e+00	0	43	0	837812224	62	5496
2026-01-15 11:36:24.27	309.77	15.80	-45.8	-49.0	15.7	0.00e+00	0	43	0	838860800	62	5441
2026-01-15 11:36:25.26	309.95	15.74	-45.7	-48.9	15.9	0.00e+00	0	43	0	840957952	62	5345
2026-01-15 11:36:26.25	310.12	15.67	-45.7	-48.8	15.9	0.00e+00	0	43	0	843055104	62	5322
2026-01-15 11:36:27.25	310.29	15.61	-45.6	-48.6	16.1	0.00e+00	0	43	0	845152256	62	5202
2026-01-15 11:36:28.24	310.46	15.54	-45.5	-48.5	16.3	0.00e+00	0	43	0	847249408	62	5103
2026-01-15 11:36:29.23	310.63	15.47	-45.5	-48.6	16.2	0.00e+00	0	43	0	848297984	62	5175
2026-01-15 11:36:30.22	310.80	15.41	-45.6	-48.6	16.1	0.00e+00	0	43	0	850395136	62	5194
2026-01-15 11:36:31.22	310.97	15.34	-45.8	-48.9	15.9	0.00e+00	0	43	0	852492288	62	5342
2026-01-15 11:36:32.21	311.13	15.28	-45.9	-49.1	15.7	0.00e+00	0	43	0	854589440	62	5483
2026-01-15 11:36:33.20	311.30	15.21	-46.0	-49.2	15.6	0.00e+00	0	43	0	855638016	62	5554
2026-01-15 11:36:34.20	311.47	15.14	-46.0	-49.3	15.5	0.00e+00	0	43	0	857735168	62	5610
2026-01-15 11:36:35.19	311.63	15.08	-45.9	-49.1	15.7	0.00e+00	0	43	0	859832320	62	5487
2026-01-15 11:36:36.18	311.80	15.01	-45.8	-48.9	15.8	0.00e+00	0	43	0	861929472	62	5402
2026-01-15 11:36:37.18	311.96	14.95	-45.7	-48.7	16.0	0.00e+00	0	43	0	864026624	62	5256
2026-01-15 11:36:38.17	312.12	14.88	-45.5	-48.4	16.3	0.00e+00	0	43	0	865075200	62	5099
2026-01-15 11:36:39.16	312.28	14.81	-45.4	-48.5	16.3	0.00e+00	0	43	0	867172352	62	5102
2026-01-15 11:36:40.15	312.45	14.75	-45.5	-48.6	16.2	0.00e+00	0	43	0	869269504	62	5172
2026-01-15 11:36:41.15	312.61	14.68	-45.7	-48.8	16.0	0.00e+00	0	43	0	871366656	62	5298
2026-01-15 11:36:42.14	312.77	14.62	-45.8	-49.0	15.8	0.00e+00	0	43	0	872415232	62	5408
2026-01-15 11:36:43.13	312.93	14.55	-45.9	-49.2	15.6	0.00e+00	0	43	0	874512384	62	5571
2026-01-15 11:36:44.12	313.09	14.48	-46.0	-49.4	15.4	0.00e+00	0	43	0	876609536	62	5660
2026-01-15 11:36:45.12	313.24	14.42	-46.0	-49.3	15.4	0.00e+00	0	43	0	878706688	62	5638
2026-01-15 11:36:46.11	313.40	14.35	-45.9	-49.2	15.5	0.00e+00	0	43	0	880803840	62	5586
2026-01-15 11:36:47.10	313.56	14.29	-45.8	-49.0	15.8	0.00e+00	0	43	0	881852416	62	5451
2026-01-15 11:36:48.10	313.72	14.22	-45.7	-48.9	15.9	0.00e+00	0	43	0	883949568	62	5352
2026-01-15 11:36:49.09	313.87	14.15	-45.7	-48.8	15.9	0.00e+00	0	43	0	886046720	62	5311
2026-01-15 11:36:50.08	314.02	14.09	-45.6	-48.7	16.1	0.00e+00	0	43	0	888143872	62	5249
2026-01-15 11:36:51.07	314.18	14.02	-45.6	-48.6	16.2	0.00e+00	0	43	0	889192448	62	5166
2026-01-15 11:36:52.07	314.33	13.95	-45.8	-48.9	15.9	0.00e+00	0	43	0	891289600	62	5343
2026-01-15 11:36:53.06	314.49	13.89	-45.8	-48.8	16.0	0.00e+00	0	43	0	893386752	62	5317
2026-01-15 11:36:54.05	314.64	13.82	-46.0	-49.1	15.7	0.00e+00	0	43	0	895483904	62	5497
2026-01-15 11:36:55.05	314.79	13.75	-46.1	-49.4	15.4	0.00e+00	0	43	0	897581056	62	5664
2026-01-15 11:36:56.04	314.94	13.69	-46.2	-49.4	15.4	0.00e+00	0	43	0	898629632	63	5402
2026-01-15 11:36:57.03	315.09	13.62	-46.3	-49.6	15.2	0.00e+00	0	43	0	900726784	63	5471
2026-01-15 11:36:58.03	315.24	13.55	-46.3	-49.6	15.2	0.00e+00	0	43	0	902823936	63	5467
2026-01-15 11:36:59.02	315.39	13.49	-46.2	-49.5	15.3	0.00e+00	0	43	0	904921088	63	5435
2026-01-15 11:37:00.01	315.54	13.42	-46.2	-49.5	15.4	0.00e+00	0	43	0	905969664	63	5408
2026-01-15 11:37:01.00	315.68	13.36	-46.2	-49.5	15.3	0.00e+00	0	43	0	908066816	63	5455
2026-01-15 11:37:02.00	315.83	13.29	-46.1	-49.4	15.4	0.00e+00	0	43	0	910163968	63	5343
2026-01-15 11:37:02.99	315.98	13.22	-46.1	-49.5	15.3	0.00e+00	0	43	0	912261120	63	5406
2026-01-15 11:37:03.98	316.12	13.16	-46.1	-49.4	15.4	0.00e+00	0	43	0	913309696	63	5379
2026-01-15 11:37:04.97	316.27	13.09	-46.2	-49.6	15.3	0.00e+00	0	43	0	915406848	63	5481
2026-01-15 11:37:05.97	316.41	13.02	-46.2	-49.7	15.2	0.00e+00	0	43	0	917504000	63	5533
2026-01-15 11:37:06.96	316.56	12.96	-46.2	-49.8	15.1	0.00e+00	0	43	0	919601152	63	5598
2026-01-15 11:37:07.95	316.70	12.89	-46.2	-49.7	15.1	0.00e+00	0	43	0	921698304	63	5570
2026-01-15 11:37:08.95	316.84	12.83	-46.2	-49.7	15.1	0.00e+00	0	43	0	922746880	63	5592
2026-01-15 11:37:09.94	316.98	12.76	-46.1	-49.7	15.1	0.00e+00	0	43	0	924844032	63	5565
2026-01-15 11:37:10.93	317.12	12.69	-46.0	-49.7	15.1	0.00e+00	0	43	0	926941184	63	5585
2026-01-15 11:37:11.93	317.27	12.63	-45.8	-49.4	15.5	0.00e+00	0	43	0	929038336	63	5355
2026-01-15 11:37:12.92	317.41	12.56	-45.6	-49.2	15.7	0.00e+00	0	43	0	930086912	63	5223
2026-01-15 11:37:13.91	317.55	12.50	-45.5	-48.9	15.9	0.00e+00	0	43	0	932184064	63	5083
2026-01-15 11:37:14.90	317.68	12.43	-45.6	-48.9	15.9	0.00e+00	0	43	0	934281216	63	5085
2026-01-15 11:37:15.90	317.82	12.36	-45.7	-49.1	15.8	0.00e+00	0	43	0	936378368	63	5164
2026-01-15 11:37:16.89	317.96	12.30	-45.8	-49.2	15.7	0.00e+00	0	43	0	938475520	63	5220
2026-01-15 11:37:17.88	318.10	12.23	-46.0	-49.4	15.5	0.00e+00	0	43	0	939524096	63	5347
2026-01-15 11:37:18.88	318.23	12.17	-46.2	-49.6	15.3	0.00e+00	0	43	0	941621248	63	5490
2026-01-15 11:37:19.87	318.37	12.10	-46.3	-49.8	15.1	0.00e+00	0	43	0	943718400	63	5621
2026-01-15 11:37:20.86	318.50	12.03	-46.5	-50.0	14.9	0.00e+00	0	43	0	945815552	63	5737
2026-01-15 11:37:21.86	318.64	11.97	-46.6	-50.1	14.8	7.00e-07	0	43	0	946864128	63	5812
2026-01-15 11:37:22.85	318.77	11.90	-46.6	-50.1	14.8	0.00e+00	0	43	0	948961280	63	5838
2026-01-15 11:37:23.84	318.91	11.84	-46.6	-50.1	14.8	0.00e+00	0	43	0	951058432	63	5835
2026-01-15 11:37:24.84	319.04	11.77	-46.6	-50.1	14.8	0.00e+00	0	43	0	953155584	63	5849
2026-01-15 11:37:25.83	319.17	11.71	-46.5	-50.1	14.9	0.00e+00	0	43	0	955252736	63	5797
2026-01-15 11:37:26.82	319.30	11.64	-46.3	-50.0	14.9	0.00e+00	0	43	0	956301312	63	5753
2026-01-15 11:37:27.81	319.44	11.58	-46.3	-50.1	14.8	0.00e+00	0	43	0	958398464	63	5831
2026-01-15 11:37:28.81	319.57	11.51	-46.3	-50.1	14.9	0.00e+00	0	43	0	960495616	63	5802
2026-01-15 11:37:29.80	319.70	11.44	-46.2	-49.9	15.1	7.00e-07	0	43	0	962592768	63	5677
2026-01-15 11:37:30.79	319.83	11.38	-46.2	-49.9	15.0	0.00e+00	0	43	0	963641344	63	5707
2026-01-15 11:37:31.79	319.96	11.31	-46.3	-50.1	14.8	0.00e+00	0	43	0	965738496	63	5828
2026-01-15 11:37:32.78	320.08	11.25	-46.4	-50.2	14.8	0.00e+00	0	43	0	967835648	63	5882
2026-01-15 11:37:33.77	320.21	11.18	-46.5	-50.3	14.7	0.00e+00	0	43	0	969932800	63	5950
2026-01-15 11:37:34.76	320.34	11.12	-46.6	-50.3	14.6	0.00e+00	0	43	0	972029952	63	5972
2026-01-15 11:37:35.76	320.47	11.05	-46.6	-50.4	14.5	7.00e-07	0	43	0	973078528	64	5690
2026-01-15 11:37:36.75	320.59	10.99	-46.7	-50.3	14.6	0.00e+00	0	43	0	975175680	64	5599
2026-01-15 11:37:37.74	320.72	10.92	-46.7	-50.1	14.7	0.00e+00	0	43	0	977272832	64	5526
2026-01-15 11:37:38.74	320.84	10.86	-46.6	-50.1	14.8	0.00e+00	0	43	0	979369984	64	5501
2026-01-15 11:37:39.73	320.97	10.79	-46.6	-50.1	14.7	7.00e-07	0	43	0	980418560	64	5499
2026-01-15 11:37:40.72	321.09	10.73	-46.6	-50.1	14.7	0.00e+00	0	43	0	982515712	64	5516
2026-01-15 11:37:41.71	321.21	10.66	-46.7	-50.2	14.6	7.00e-07	0	43	0	984612864	64	5587
2026-01-15 11:37:42.71	321.34	10.60	-46.6	-50.2	14.6	0.00e+00	0	43	0	986710016	64	5566
2026-01-15 11:37:43.70	321.46	10.53	-46.7	-50.4	14.4	7.00e-07	0	43	0	988807168	64	5688
2026-01-15 11:37:44.69	321.58	10.47	-46.8	-50.6	14.2	1.50e-06	0	43	0	989855744	64	5834
2026-01-15 11:37:45.68	321.70	10.40	-47.0	-50.8	14.0	0.00e+00	0	43	0	991952896	64	5991
2026-01-15 11:37:46.68	321.83	10.34	-47.1	-51.0	13.8	2.20e-06	0	43	0	994050048	64	6127
2026-01-15 11:37:47.67	321.95	10.28	-47.2	-51.2	13.6	6.10e-06	0	43	0	996147200	65	5871
2026-01-15 11:37:48.66	322.07	10.21	-47.2	-51.2	13.6	7.60e-06	0	43	0	997195776	65	5891
2026-01-15 11:37:49.65	322.18	10.15	-47.2	-51.2	13.6	2.20e-06	0	43	0	999292928	65	5880
2026-01-15 11:37:50.65	322.30	10.08	-47.1	-51.1	13.7	5.30e-06	0	43	0	1001390080	65	5847
2026-01-15 11:37:51.64	322.42	10.02	-47.0	-51.0	13.8	6.10e-06	0	43	0	1003487232	65	5760
2026-01-15 11:37:52.63	322.54	9.95	-47.0	-51.0	13.8	4.50e-06	0	43	0	1005584384	65	5775
2026-01-15 11:37:53.63	322.66	9.89	-46.8	-51.0	13.8	4.50e-06	0	43	0	1006632960	65	5736
2026-01-15 11:37:54.62	322.78	9.83	-46.5	-50.6	14.2	0.00e+00	0	43	0	1008730112	65	5474
2026-01-15 11:37:55.61	322.89	9.76	-46.3	-50.5	14.3	7.00e-07	0	43	0	1010827264	64	5754
2026-01-15 11:37:56.61	323.01	9.70	-46.3	-50.5	14.3	2.20e-06	0	43	0	1012924416	64	5735
2026-01-15 11:37:57.60	323.12	9.63	-46.0	-50.2	14.6	0.00e+00	0	43	0	1013972992	64	5540
2026-01-15 11:37:58.59	323.24	9.57	-46.1	-50.2	14.6	7.00e-07	0	43	0	1016070144	64	5544
2026-01-15 11:37:59.59	323.35	9.51	-46.2	-50.2	14.5	1.50e-06	0	44	0	1018167296	64	5582
2026-01-15 11:38:00.58	323.47	9.44	-46.3	-50.4	14.4	0.00e+00	0	43	0	1020264448	64	5663
2026-01-15 11:38:01.57	323.58	9.38	-46.4	-50.4	14.3	1.50e-06	0	43	0	1021313024	64	5720
2026-01-15 11:38:02.56	323.69	9.32	-46.3	-50.3	14.5	0.00e+00	0	43	0	1023410176	64	5617
2026-01-15 11:38:03.56	323.81	9.25	-46.3	-50.5	14.3	7.00e-07	0	43	0	1025507328	64	5732
2026-01-15 11:38:04.55	323.92	9.19	-46.3	-50.5	14.3	2.20e-06	0	43	0	1027604480	64	5730
2026-01-15 11:38:05.54	324.03	9.13	-46.3	-50.6	14.2	3.80e-06	0	43	0	1029701632	64	5807
2026-01-15 11:38:06.53	324.14	9.06	-46.3	-50.6	14.1	1.50e-06	0	43	0	1030750208	64	5843
2026-01-15 11:38:07.53	324.25	9.00	-46.6	-51.3	13.6	4.50e-06	0	43	0	1032847360	64	6334
2026-01-15 11:38:08.52	324.36	8.94	-50.8	-66.1	3.8	1.49e+00	0	43	104	1033895936	72	21866
2026-01-15 11:38:09.51	324.47	8.87	-50.8	-66.4	3.8	1.49e+00	0	43	104	1033895936	72	22591
2026-01-15 11:38:10.51	324.58	8.81	-50.6	-66.5	3.8	1.49e+00	0	43	104	1033895936	72	22892
2026-01-15 11:38:11.50	324.69	8.75	-51.1	-66.6	3.8	1.49e+00	0	43	104	1033895936	72	23052
2026-01-15 11:38:12.49	324.80	8.69	-51.2	-66.6	3.8	1.49e+00	0	43	104	1033895936	73	21913
2026-01-15 11:38:13.49	324.91	8.62	-51.3	-66.7	3.8	1.49e+00	0	43	104	1033895936	73	22039
2026-01-15 11:38:14.48	325.02	8.56	-51.5	-66.7	3.8	1.49e+00	0	43	104	1033895936	73	22174
2026-01-15 11:38:15.47	325.12	8.50	-51.4	-66.7	3.8	1.49e+00	0	43	104	1033895936	73	22213
2026-01-15 11:38:16.47	325.23	8.44	-51.3	-66.8	3.8	1.49e+00	0	43	104	1033895936	73	22373
2026-01-15 11:38:17.46	325.34	8.37	-51.3	-66.8	3.8	1.49e+00	0	43	104	1033895936	73	22341
2026-01-15 11:38:18.45	325.44	8.31	-51.5	-66.8	3.8	1.49e+00	0	43	104	1033895936	73	22358
2026-01-15 11:38:19.44	325.55	8.25	-51.5	-66.8	3.8	1.49e+00	0	43	104	1033895936	73	22479
2026-01-15 11:38:20.44	325.65	8.19	-47.5	-66.0	4.0	1.49e+00	0	43	104	1033895936	64	34415
2026-01-15 11:38:21.43	325.76	8.12	-51.6	-66.9	3.8	1.49e+00	0	43	104	1033895936	73	22533
2026-01-15 11:38:22.42	325.86	8.06	-51.7	-66.8	3.8	1.49e+00	0	43	104	1033895936	74	21218
2026-01-15 11:38:23.42	325.96	8.00	-51.6	-66.9	3.8	1.49e+00	0	43	104	1033895936	74	21266
2026-01-15 11:38:24.41	326.07	7.94	-51.6	-66.8	3.8	1.49e+00	0	43	104	1033895936	74	21190
2026-01-15 11:38:25.41	326.17	7.88	-51.7	-66.8	3.8	1.49e+00	0	43	104	1033895936	74	21129
2026-01-15 11:38:26.40	326.27	7.81	-51.5	-66.8	3.8	1.49e+00	0	43	104	1033895936	74	21195
2026-01-15 11:38:27.39	326.38	7.75	-51.5	-66.8	3.8	1.49e+00	0	43	104	1033895936	74	21189
2026-01-15 11:38:28.38	326.48	7.69	-51.4	-66.8	3.8	1.49e+00	0	43	104	1033895936	74	21119
2026-01-15 11:38:29.38	326.58	7.63	-51.4	-66.8	3.8	1.49e+00	0	43	104	1033895936	74	21075
2026-01-15 11:38:30.37	326.68	7.57	-51.4	-66.8	3.8	1.49e+00	0	43	104	1033895936	74	21066
2026-01-15 11:38:31.36	326.78	7.51	-51.4	-66.8	3.8	1.49e+00	0	43	104	1033895936	74	21143
2026-01-15 11:38:32.36	326.88	7.45	-51.4	-66.8	3.8	1.49e+00	0	43	104	1033895936	74	21107
2026-01-15 11:38:33.35	326.98	7.38	-51.4	-66.8	3.8	1.49e+00	0	43	104	1033895936	74	21066
2026-01-15 11:38:34.34	327.08	7.32	-51.4	-66.8	3.8	1.49e+00	0	43	104	1033895936	74	21072
2026-01-15 11:38:35.33	327.18	7.26	-51.4	-66.8	3.8	1.49e+00	0	43	104	1033895936	74	21093
2026-01-15 11:38:36.33	327.28	7.20	-51.4	-66.8	3.8	1.49e+00	0	43	104	1033895936	74	21072
2026-01-15 11:38:37.32	327.37	7.14	-51.4	-66.8	3.8	1.49e+00	0	43	104	1033895936	74	21064
2026-01-15 11:38:38.31	327.47	7.08	-51.4	-66.8	3.8	1.49e+00	0	43	104	1033895936	74	21116
2026-01-15 11:38:39.31	327.57	7.02	-51.4	-66.8	3.8	1.49e+00	0	43	104	1033895936	74	21112
2026-01-15 11:38:40.30	327.67	6.96	-51.4	-66.8	3.8	1.49e+00	0	43	104	1033895936	74	21041
2026-01-15 11:38:41.29	327.76	6.90	-51.4	-66.8	3.8	1.49e+00	0	43	104	1033895936	74	21141
2026-01-15 11:38:42.29	327.86	6.84	-51.4	-66.8	3.8	1.49e+00	0	43	104	1033895936	74	21055
2026-01-15 11:38:43.28	327.95	6.78	-51.4	-66.8	3.8	1.49e+00	0	43	104	1033895936	74	21045
2026-01-15 11:38:44.27	328.05	6.72	-51.4	-66.8	3.8	1.49e+00	0	43	104	1033895936	74	21048
2026-01-15 11:38:45.27	328.14	6.66	-51.4	-66.8	3.8	1.49e+00	0	43	104	1033895936	74	21100
2026-01-15 11:38:46.26	328.24	6.60	-51.4	-66.7	3.8	1.49e+00	0	43	104	1033895936	74	20999
2026-01-15 11:38:47.25	328.33	6.54	-51.4	-66.8	3.8	1.49e+00	0	43	104	1033895936	74	21150
2026-01-15 11:38:48.25	328.43	6.48	-51.4	-66.8	3.8	1.49e+00	0	43	104	1033895936	74	21071
2026-01-15 11:38:49.24	328.52	6.42	-51.4	-66.8	3.8	1.49e+00	0	43	104	1033895936	74	21060
2026-01-15 11:38:50.23	328.61	6.36	-51.4	-66.8	3.8	1.49e+00	0	43	104	1033895936	74	21082
2026-01-15 11:38:51.22	328.71	6.30	-51.4	-66.7	3.8	1.49e+00	0	43	104	1033895936	74	20997
2026-01-15 11:38:52.22	328.80	6.24	-51.4	-66.8	3.8	1.49e+00	0	43	104	1033895936	74	21069
2026-01-15 11:38:53.21	328.89	6.18	-51.4	-66.8	3.8	1.49e+00	0	43	104	1033895936	74	21029
2026-01-15 11:38:54.20	328.98	6.12	-51.4	-66.7	3.8	1.49e+00	0	43	104	1033895936	74	20993
2026-01-15 11:38:55.20	329.07	6.06	-51.4	-66.8	3.8	1.49e+00	0	43	104	1033895936	74	21070
2026-01-15 11:38:56.19	329.17	6.00	-51.4	-66.8	3.8	1.49e+00	0	43	104	1033895936	74	21112
2026-01-15 11:38:57.18	329.26	5.94	-51.4	-66.8	3.8	1.49e+00	0	43	104	1033895936	74	21072
2026-01-15 11:38:58.18	329.35	5.88	-51.3	-66.8	3.8	1.49e+00	0	43	104	1033895936	74	21062
2026-01-15 11:38:59.17	329.44	5.82	-51.4	-66.7	3.8	1.49e+00	0	43	104	1033895936	74	20992
2026-01-15 11:39:00.16	329.53	5.76	-51.4	-66.7	3.8	1.49e+00	0	43	104	1033895936	74	20990
2026-01-15 11:39:01.15	329.61	5.70	-51.4	-66.7	3.8	1.49e+00	0	43	104	1033895936	74	20945
2026-01-15 11:39:02.15	329.70	5.64	-51.4	-66.8	3.8	1.49e+00	0	43	104	1033895936	74	21059
2026-01-15 11:39:03.14	329.79	5.58	-51.3	-66.7	3.8	1.49e+00	0	43	104	1033895936	74	20986
2026-01-15 11:39:04.13	329.88	5.53	-51.4	-66.7	3.8	1.49e+00	0	43	104	1033895936	74	20925
2026-01-15 11:39:05.13	329.97	5.47	-51.3	-66.7	3.8	1.49e+00	0	43	104	1033895936	74	20909
2026-01-15 11:39:06.12	330.06	5.41	-51.3	-66.7	3.8	1.49e+00	0	43	104	1033895936	74	20943
2026-01-15 11:39:07.11	330.14	5.35	-51.3	-66.7	3.8	1.49e+00	0	43	104	1033895936	74	20979
2026-01-15 11:39:08.10	330.23	5.29	-51.3	-66.7	3.8	1.49e+00	0	43	104	1033895936	74	21016
2026-01-15 11:39:09.10	330.32	5.23	-51.3	-66.8	3.8	1.49e+00	0	43	104	1033895936	74	21036
2026-01-15 11:39:10.09	330.40	5.17	-51.3	-66.8	3.8	1.49e+00	0	43	104	1033895936	74	21053
2026-01-15 11:39:11.08	330.49	5.12	-51.3	-66.7	3.8	1.49e+00	0	43	104	1033895936	74	20957
2026-01-15 11:39:12.08	330.58	5.06	-51.3	-66.7	3.8	1.49e+00	0	43	104	1033895936	74	21015
2026-01-15 11:39:13.07	330.66	5.00	-51.3	-66.7	3.8	1.49e+00	0	43	104	1033895936	74	20922

#Closed at: 2026-01-15 11:39:14
#Recorded file [1033 MB]: D:/Data/31040_260115_142804.dat