passes_logs/2026/01/24/R2M6_AANII_01/R2M6_AANII_01__20260124_231753_NOAA_21_JPSS-2_rec.log

#Pass ID: 20260124_231753_NOAA 21 (JPSS-2)
#Satellite: NOAA 21 (JPSS-2)
#Configuration: NOAA 21
#almurnet v.1.7.20240730
#Start time: 2026-01-24 23:17:55

#Version: 2.2.20231116
#Station: R2M6_AANII_01
#Location: 30.233357 lon 59.946436 lat
#TLE: 1 54234U 22150A   26024.45772595  .00000201  00000+0  11607-3 0  9996
#TLE: 2 54234  98.7508 325.2435 0000728 220.7365 139.3757 14.19538765166156

#Time	Az	El	Level	Level2	SNR	BER	BlckErr	Temp	State	Recorded	gain1	gain2
2026-01-24 23:17:55.08	24.83	7.14	-30.8	-36.3	4.5	1.41e+00	0	41	0	0	21	6759
2026-01-24 23:17:56.08	24.89	7.21	-31.3	-37.0	4.4	1.43e+00	0	41	104	0	23	6912
2026-01-24 23:17:57.08	24.96	7.28	-31.5	-36.8	6.6	2.06e-01	0	41	0	0	23	6652
2026-01-24 23:17:58.09	25.02	7.35	-31.3	-36.5	7.2	1.47e-01	0	42	102	1048576	22	6579
2026-01-24 23:17:59.09	25.08	7.43	-31.0	-35.5	7.9	7.68e-02	0	41	102	1048576	22	6037
2026-01-24 23:18:00.09	25.15	7.50	-30.8	-35.0	8.6	4.08e-02	0	42	102	1048576	21	5896
2026-01-24 23:18:01.08	25.21	7.57	-30.4	-33.9	9.5	2.30e-02	0	42	102	1048576	21	5387
2026-01-24 23:18:02.08	25.28	7.64	-30.1	-32.9	10.2	8.89e-03	0	42	102	1048576	21	4988
2026-01-24 23:18:03.09	25.34	7.71	-29.9	-32.8	10.7	3.82e-03	0	42	102	1048576	20	5028
2026-01-24 23:18:04.10	25.41	7.79	-29.8	-32.9	11.0	1.85e-03	0	42	102	1048576	19	5193
2026-01-24 23:18:05.10	25.47	7.86	-29.9	-33.3	10.7	3.04e-03	0	42	102	1048576	19	5340
2026-01-24 23:18:06.11	25.54	7.93	-29.6	-32.4	11.3	1.70e-03	0	42	102	1048576	19	5013
2026-01-24 23:18:07.11	25.60	8.01	-29.3	-31.9	11.7	7.25e-04	0	42	102	1048576	19	4811
2026-01-24 23:18:08.12	25.67	8.08	-29.2	-31.5	11.9	4.54e-04	0	42	102	1048576	19	4679
2026-01-24 23:18:09.12	25.74	8.15	-29.1	-31.7	12.2	2.47e-04	0	42	102	1048576	18	4860
2026-01-24 23:18:10.13	25.80	8.23	-29.2	-32.0	12.0	2.86e-04	0	42	102	1048576	18	4951
2026-01-24 23:18:11.13	25.87	8.30	-29.2	-32.0	11.9	3.86e-04	0	42	102	1048576	18	4962
2026-01-24 23:18:12.13	25.94	8.38	-29.1	-31.8	12.1	2.62e-04	0	42	102	1048576	18	4884
2026-01-24 23:18:13.13	26.01	8.45	-28.8	-31.1	12.6	1.36e-04	0	42	102	1048576	18	4645
2026-01-24 23:18:14.14	26.08	8.53	-28.7	-30.7	12.8	8.39e-05	0	42	102	1048576	18	4522
2026-01-24 23:18:15.14	26.14	8.60	-28.7	-31.1	12.9	4.50e-05	0	42	102	1048576	17	4749
2026-01-24 23:18:16.15	26.21	8.68	-28.5	-31.0	12.7	6.40e-05	0	42	102	1048576	17	4814
2026-01-24 23:18:17.16	26.28	8.75	-28.8	-31.4	12.7	6.71e-05	0	42	102	1048576	17	4847
2026-01-24 23:18:18.17	26.35	8.83	-29.0	-31.9	12.3	9.46e-05	0	42	102	1048576	17	5021
2026-01-24 23:18:19.17	26.42	8.90	-28.8	-31.4	12.7	8.16e-05	0	42	102	1048576	17	4844
2026-01-24 23:18:20.17	26.49	8.98	-28.6	-30.9	13.0	4.88e-05	0	42	102	1048576	17	4692
2026-01-24 23:18:21.17	26.56	9.06	-28.6	-31.0	13.0	4.34e-05	0	42	102	1048576	17	4717
2026-01-24 23:18:22.17	26.63	9.13	-28.7	-31.1	12.9	4.19e-05	0	42	102	1048576	17	4767
2026-01-24 23:18:23.17	26.71	9.21	-28.8	-31.5	12.7	8.01e-05	0	42	102	1048576	17	4877
2026-01-24 23:18:24.18	26.78	9.29	-28.7	-31.0	13.0	4.19e-04	0	42	102	1048576	17	4732
2026-01-24 23:18:25.18	26.85	9.36	-28.8	-31.3	12.8	5.49e-05	0	42	102	1048576	17	4822
2026-01-24 23:18:26.18	26.92	9.44	-27.9	-30.6	12.5	1.18e-04	0	42	102	1048576	17	4914
2026-01-24 23:18:27.19	27.00	9.52	-28.7	-31.1	12.1	3.96e-05	0	42	102	1048576	17	4768
2026-01-24 23:18:28.19	27.07	9.59	-28.6	-30.9	13.1	3.76e-04	0	42	102	1048576	17	4679
2026-01-24 23:18:29.20	27.14	9.67	-28.5	-30.6	12.9	1.60e-05	0	42	102	1048576	17	4586
2026-01-24 23:18:30.20	27.22	9.75	-28.5	-30.7	13.2	1.83e-05	0	42	102	1048576	17	4611
2026-01-24 23:18:31.20	27.29	9.83	-28.5	-30.5	13.4	1.22e-05	0	42	102	1048576	17	4568
2026-01-24 23:18:32.21	27.37	9.91	-28.2	-30.5	13.7	6.80e-06	0	42	102	1048576	16	4664
2026-01-24 23:18:33.21	27.44	9.98	-28.3	-30.6	13.6	9.61e-05	0	42	102	1048576	16	4707
2026-01-24 23:18:34.22	27.52	10.06	-28.3	-30.6	13.7	6.33e-05	0	42	102	1048576	16	4693
2026-01-24 23:18:35.23	27.59	10.14	-28.3	-30.5	13.7	1.40e-03	0	42	102	1048576	16	4675
2026-01-24 23:18:36.24	27.67	10.22	-28.3	-30.6	13.6	1.17e-03	0	43	102	1048576	16	4700
2026-01-24 23:18:37.24	27.75	10.30	-28.3	-30.6	13.7	3.20e-05	0	42	102	1048576	16	4705
2026-01-24 23:18:38.24	27.82	10.38	-28.5	-31.0	13.4	9.90e-06	0	42	102	1048576	16	4813
2026-01-24 23:18:39.24	27.90	10.46	-28.4	-30.8	13.5	1.22e-03	0	42	102	1048576	16	4758
2026-01-24 23:18:40.24	27.98	10.54	-28.5	-30.6	13.4	1.35e-04	0	43	102	1048576	17	4591
2026-01-24 23:18:41.25	28.06	10.62	-28.6	-30.8	13.2	1.25e-03	0	43	102	1048576	17	4666
2026-01-24 23:18:42.25	28.13	10.70	-28.5	-30.6	13.4	2.69e-04	0	42	102	1048576	17	4587
2026-01-24 23:18:43.25	28.21	10.78	-28.6	-30.8	13.2	3.21e-04	0	43	102	1048576	17	4647
2026-01-24 23:18:44.25	28.29	10.86	-28.6	-30.7	13.3	1.06e-03	0	43	102	1048576	17	4615
2026-01-24 23:18:45.25	28.37	10.94	-28.5	-30.5	13.4	1.39e-03	0	42	102	1048576	17	4562
2026-01-24 23:18:46.24	28.45	11.02	-28.5	-30.7	13.4	4.67e-04	0	43	102	1048576	17	4601
2026-01-24 23:18:47.25	28.53	11.11	-28.3	-30.1	13.7	9.10e-06	0	43	102	1048576	17	4437
2026-01-24 23:18:48.26	28.61	11.19	-28.3	-30.7	13.7	6.04e-04	0	43	102	1048576	16	4723
2026-01-24 23:18:49.27	28.70	11.27	-28.3	-30.5	13.8	6.90e-04	0	43	102	1048576	16	4652
2026-01-24 23:18:50.27	28.78	11.35	-28.3	-30.5	13.8	1.40e-03	0	43	102	1048576	16	4665
2026-01-24 23:18:51.28	28.86	11.44	-28.4	-30.8	13.6	2.31e-03	0	43	102	1048576	16	4753
2026-01-24 23:18:52.29	28.94	11.52	-28.1	-30.1	14.0	1.50e-06	0	43	102	1048576	16	4530
2026-01-24 23:18:53.29	29.03	11.60	-27.9	-30.3	14.0	1.24e-03	0	43	102	1048576	15	4709
2026-01-24 23:18:54.29	29.11	11.69	-28.0	-30.3	14.0	2.37e-03	0	43	102	1048576	15	4732
2026-01-24 23:18:55.29	29.19	11.77	-28.2	-30.4	13.9	8.26e-04	0	43	102	1048576	16	4628
2026-01-24 23:18:56.28	29.28	11.85	-28.3	-30.7	13.7	1.43e-03	0	43	102	1048576	16	4707
2026-01-24 23:18:57.29	29.36	11.94	-28.2	-30.3	13.9	1.39e-03	0	43	102	1048576	16	4593
2026-01-24 23:18:58.29	29.45	12.02	-28.3	-30.6	13.8	5.30e-06	0	43	102	1048576	16	4679
2026-01-24 23:18:59.29	29.53	12.10	-28.3	-30.6	13.8	1.28e-03	0	43	102	1048576	16	4677
2026-01-24 23:19:00.29	29.62	12.19	-28.1	-30.1	14.0	1.98e-03	0	43	102	1048576	16	4530
2026-01-24 23:19:01.29	29.71	12.27	-28.0	-30.0	14.2	3.00e-06	0	43	102	1048576	16	4493
2026-01-24 23:19:02.29	29.79	12.36	-27.9	-30.1	14.1	1.73e-03	0	43	102	1048576	15	4671
2026-01-24 23:19:03.30	29.88	12.44	-28.1	-30.2	14.0	7.00e-07	0	43	102	1048576	16	4571
2026-01-24 23:19:04.31	29.97	12.53	-28.2	-30.3	14.0	4.50e-06	0	43	102	1048576	16	4589
2026-01-24 23:19:05.31	30.06	12.61	-28.0	-30.0	14.2	1.35e-03	0	43	102	1048576	16	4495
2026-01-24 23:19:06.31	30.15	12.70	-28.0	-29.8	14.3	1.47e-03	0	43	102	1048576	16	4430
2026-01-24 23:19:07.31	30.24	12.79	-28.0	-29.8	14.3	2.20e-06	0	43	102	1048576	16	4456
2026-01-24 23:19:08.31	30.33	12.87	-27.9	-30.2	14.2	2.20e-06	0	43	102	1048576	15	4684
2026-01-24 23:19:09.32	30.42	12.96	-27.8	-30.0	14.3	7.00e-07	0	43	102	1048576	15	4611
2026-01-24 23:19:10.32	30.51	13.05	-27.8	-30.0	14.3	9.53e-05	0	43	102	1048576	15	4623
2026-01-24 23:19:11.33	30.60	13.13	-27.8	-29.8	14.4	1.49e-03	0	43	102	1048576	15	4575
2026-01-24 23:19:12.33	30.69	13.22	-27.8	-30.0	14.3	1.66e-03	0	43	102	1048576	15	4634
2026-01-24 23:19:13.34	30.79	13.31	-27.8	-29.9	14.5	0.00e+00	0	43	102	1048576	15	4579
2026-01-24 23:19:14.34	30.88	13.40	-27.8	-29.9	14.4	0.00e+00	0	43	102	1048576	15	4577
2026-01-24 23:19:15.34	30.97	13.49	-27.8	-29.8	14.4	1.50e-06	0	43	102	1048576	15	4573
2026-01-24 23:19:16.34	31.07	13.57	-27.6	-29.6	14.6	0.00e+00	0	43	102	1048576	15	4497
2026-01-24 23:19:17.34	31.16	13.66	-27.6	-29.5	14.6	1.18e-03	0	43	102	1048576	15	4473
2026-01-24 23:19:18.35	31.26	13.75	-27.6	-29.5	14.6	7.00e-07	0	43	102	1048576	15	4458
2026-01-24 23:19:19.36	31.36	13.84	-27.7	-29.6	14.6	0.00e+00	0	43	102	1048576	15	4504
2026-01-24 23:19:20.36	31.45	13.93	-27.6	-29.4	14.7	0.00e+00	0	43	102	1048576	15	4442
2026-01-24 23:19:21.36	31.55	14.02	-27.5	-29.3	14.8	7.00e-07	0	43	102	1048576	15	4409
2026-01-24 23:19:22.36	31.65	14.11	-27.6	-29.4	14.7	0.00e+00	0	43	102	1048576	15	4440
2026-01-24 23:19:23.37	31.75	14.20	-27.6	-29.5	14.6	0.00e+00	0	43	102	1048576	15	4483
2026-01-24 23:19:24.37	31.84	14.29	-27.8	-29.9	14.5	7.00e-07	0	43	102	1048576	15	4580
2026-01-24 23:19:25.37	31.94	14.38	-27.7	-29.7	14.6	0.00e+00	0	43	102	1048576	15	4529
2026-01-24 23:19:26.38	32.04	14.47	-27.7	-29.8	14.5	0.00e+00	0	43	102	1048576	15	4546
2026-01-24 23:19:27.39	32.15	14.57	-27.6	-29.5	14.7	7.00e-07	0	43	102	1048576	15	4472
2026-01-24 23:19:28.39	32.25	14.66	-27.6	-29.4	14.8	0.00e+00	0	43	102	1048576	15	4434
2026-01-24 23:19:29.40	32.35	14.75	-27.6	-29.5	14.7	0.00e+00	0	43	102	1048576	15	4465
2026-01-24 23:19:30.40	32.45	14.84	-27.6	-29.4	14.8	0.00e+00	0	43	102	1048576	15	4424
2026-01-24 23:19:31.41	32.56	14.94	-27.6	-29.5	14.7	0.00e+00	0	43	102	1048576	15	4456
2026-01-24 23:19:32.41	32.66	15.03	-27.7	-29.7	14.6	0.00e+00	0	43	102	1048576	15	4517
2026-01-24 23:19:33.42	32.76	15.12	-27.6	-29.4	14.8	0.00e+00	0	43	102	1048576	15	4446
2026-01-24 23:19:34.42	32.87	15.21	-27.6	-29.4	14.8	7.00e-07	0	43	102	1048576	15	4442
2026-01-24 23:19:35.43	32.97	15.31	-27.7	-29.6	14.7	0.00e+00	0	43	102	1048576	15	4496
2026-01-24 23:19:36.43	33.08	15.40	-27.7	-29.6	14.7	0.00e+00	0	43	102	1048576	15	4486
2026-01-24 23:19:37.44	33.19	15.50	-27.7	-29.7	14.7	7.00e-07	0	43	102	1048576	15	4509
2026-01-24 23:19:38.44	33.30	15.59	-27.7	-29.7	14.7	7.00e-07	0	43	102	1048576	15	4518
2026-01-24 23:19:39.45	33.40	15.69	-27.7	-29.6	14.7	7.00e-07	0	43	102	1048576	15	4489
2026-01-24 23:19:40.45	33.51	15.78	-27.7	-29.7	14.6	0.00e+00	0	43	102	1048576	15	4509
2026-01-24 23:19:41.45	33.62	15.88	-27.7	-29.7	14.6	7.00e-07	0	43	102	1048576	15	4521
2026-01-24 23:19:42.45	33.73	15.97	-27.8	-29.9	14.5	0.00e+00	0	43	102	1048576	15	4585
2026-01-24 23:19:43.46	33.84	16.07	-27.8	-29.9	14.6	1.50e-06	0	43	102	1048576	15	4585
2026-01-24 23:19:44.46	33.95	16.16	-27.8	-30.0	14.5	7.00e-07	0	43	102	1048576	15	4597
2026-01-24 23:19:45.46	34.07	16.26	-27.9	-30.1	14.5	7.00e-07	0	43	102	1048576	15	4648
2026-01-24 23:19:46.47	34.18	16.36	-27.9	-30.2	14.4	0.00e+00	0	43	102	1048576	15	4655
2026-01-24 23:19:47.47	34.29	16.45	-28.0	-30.2	14.4	1.50e-06	0	43	102	1048576	15	4681
2026-01-24 23:19:48.47	34.41	16.55	-28.2	-30.2	14.3	1.50e-06	0	43	102	1048576	16	4555
2026-01-24 23:19:49.47	34.52	16.65	-28.4	-30.7	14.0	0.00e+00	0	43	102	1048576	16	4700
2026-01-24 23:19:50.47	34.64	16.74	-28.4	-30.3	14.0	2.20e-06	0	43	102	1048576	17	4477
2026-01-24 23:19:51.48	34.75	16.84	-28.2	-29.8	14.3	7.00e-07	0	43	102	1048576	17	4323
2026-01-24 23:19:52.49	34.87	16.94	-28.1	-29.6	14.4	7.00e-07	0	43	102	1048576	17	4265
2026-01-24 23:19:53.49	34.99	17.04	-28.0	-29.9	14.5	0.00e+00	0	43	102	1048576	16	4445
2026-01-24 23:19:54.49	35.11	17.14	-28.1	-30.1	14.4	7.00e-07	0	43	102	1048576	16	4500
2026-01-24 23:19:55.50	35.23	17.24	-28.2	-30.2	14.3	0.00e+00	0	43	102	1048576	16	4546
2026-01-24 23:19:56.50	35.35	17.34	-28.1	-30.0	14.4	7.00e-07	0	43	102	1048576	16	4492
2026-01-24 23:19:57.50	35.47	17.44	-28.2	-30.2	14.3	7.00e-07	0	43	102	1048576	16	4551
2026-01-24 23:19:58.50	35.59	17.54	-28.2	-30.2	14.3	7.00e-07	0	44	102	1048576	16	4547
2026-01-24 23:19:59.52	35.71	17.64	-28.2	-30.2	14.3	7.00e-07	0	43	102	1048576	16	4534
2026-01-24 23:20:00.51	35.84	17.74	-28.2	-30.2	14.2	7.00e-07	0	44	102	1048576	16	4542
2026-01-24 23:20:01.51	35.96	17.84	-28.3	-30.6	14.1	0.00e+00	0	43	102	1048576	16	4654
2026-01-24 23:20:02.52	36.09	17.94	-28.4	-30.2	14.1	2.20e-06	0	43	102	1048576	17	4419
2026-01-24 23:20:03.53	36.21	18.04	-28.1	-29.6	14.4	7.00e-07	0	43	102	1048576	17	4268
2026-01-24 23:20:04.53	36.34	18.15	-27.9	-29.1	14.7	7.00e-07	0	43	102	1048576	17	4126
2026-01-24 23:20:05.54	36.47	18.25	-27.9	-29.5	14.8	7.00e-07	0	43	102	1048576	16	4345
2026-01-24 23:20:06.54	36.59	18.35	-27.9	-29.5	14.8	0.00e+00	0	43	102	1048576	16	4326
2026-01-24 23:20:07.55	36.72	18.45	-27.9	-29.4	14.9	0.00e+00	0	43	102	1048576	16	4320
2026-01-24 23:20:08.55	36.85	18.56	-27.8	-29.3	14.9	3.80e-06	0	43	102	1048576	16	4270
2026-01-24 23:20:09.54	36.98	18.66	-27.7	-29.1	15.0	0.00e+00	0	43	102	1048576	16	4234
2026-01-24 23:20:10.55	37.11	18.76	-27.8	-29.3	14.9	0.00e+00	0	43	102	1048576	16	4276
2026-01-24 23:20:11.54	37.25	18.87	-27.8	-29.4	14.9	0.00e+00	0	43	102	1048576	16	4309
2026-01-24 23:20:12.54	37.38	18.97	-27.8	-29.4	14.9	2.51e-05	0	44	102	1048576	16	4307
2026-01-24 23:20:13.55	37.51	19.07	-27.9	-29.5	14.9	0.00e+00	0	44	102	1048576	16	4325
2026-01-24 23:20:14.55	37.65	19.18	-27.8	-29.4	14.9	6.63e-05	0	43	102	1048576	16	4305
2026-01-24 23:20:15.56	37.78	19.28	-27.9	-29.6	14.8	0.00e+00	0	44	102	1048576	16	4364
2026-01-24 23:20:16.57	37.92	19.39	-27.8	-29.4	14.9	7.00e-07	0	43	102	1048576	16	4304
2026-01-24 23:20:17.58	38.06	19.50	-27.7	-29.1	15.1	0.00e+00	0	43	102	1048576	16	4225
2026-01-24 23:20:18.58	38.20	19.60	-27.6	-28.8	15.2	0.00e+00	0	43	102	1048576	16	4153
2026-01-24 23:20:19.59	38.34	19.71	-27.6	-28.8	15.2	0.00e+00	0	44	102	1048576	16	4139
2026-01-24 23:20:20.59	38.48	19.82	-27.6	-28.8	15.3	1.33e-04	0	43	102	1048576	16	4130
2026-01-24 23:20:21.60	38.62	19.92	-27.6	-28.8	15.3	8.30e-06	0	43	102	1048576	16	4145
2026-01-24 23:20:22.60	38.76	20.03	-27.6	-28.9	15.2	0.00e+00	0	43	102	1048576	16	4159
2026-01-24 23:20:23.60	38.91	20.14	-27.6	-28.8	15.2	3.43e-05	0	43	102	1048576	16	4142
2026-01-24 23:20:24.61	39.05	20.25	-27.8	-29.3	15.0	4.27e-05	0	44	102	1048576	16	4284
2026-01-24 23:20:25.62	39.20	20.35	-27.9	-29.4	14.9	8.23e-05	0	44	102	1048576	16	4310
2026-01-24 23:20:26.63	39.35	20.46	-27.6	-28.9	15.2	1.01e-04	0	44	102	1048576	16	4169
2026-01-24 23:20:27.63	39.49	20.57	-27.5	-28.5	15.4	1.80e-04	0	43	102	1048576	16	4070
2026-01-24 23:20:28.64	39.64	20.68	-27.5	-28.5	15.4	0.00e+00	0	43	102	1048576	16	4062
2026-01-24 23:20:29.65	39.79	20.79	-27.2	-28.5	15.6	5.50e-04	0	43	102	1048576	15	4158
2026-01-24 23:20:30.65	39.94	20.90	-27.1	-28.2	15.7	6.45e-04	0	44	102	1048576	15	4103
2026-01-24 23:20:31.66	40.10	21.01	-27.1	-28.2	15.7	0.00e+00	0	44	102	1048576	15	4105
2026-01-24 23:20:32.66	40.25	21.12	-27.2	-28.9	15.6	0.00e+00	0	43	102	1048576	14	4389
2026-01-24 23:20:33.67	40.40	21.23	-27.1	-28.7	15.7	5.23e-04	0	43	102	1048576	14	4345
2026-01-24 23:20:34.67	40.56	21.34	-26.9	-28.4	15.9	0.00e+00	0	44	102	1048576	14	4237
2026-01-24 23:20:35.67	40.71	21.45	-26.9	-28.3	16.0	2.47e-04	0	43	102	1048576	14	4218
2026-01-24 23:20:36.68	40.87	21.56	-27.0	-28.5	15.9	0.00e+00	0	43	102	1048576	14	4271
2026-01-24 23:20:37.68	41.03	21.68	-26.9	-28.3	16.0	0.00e+00	0	44	102	1048576	14	4221
2026-01-24 23:20:38.68	41.19	21.79	-26.9	-28.2	16.1	8.30e-06	0	43	102	1048576	14	4188
2026-01-24 23:20:39.69	41.35	21.90	-26.9	-28.4	15.9	1.50e-06	0	43	102	1048576	14	4244
2026-01-24 23:20:40.69	41.51	22.01	-26.9	-28.2	16.0	0.00e+00	0	44	102	1048576	14	4183
2026-01-24 23:20:41.69	41.67	22.12	-26.7	-27.8	16.3	0.00e+00	0	44	102	1048576	14	4083
2026-01-24 23:20:42.69	41.83	22.24	-26.7	-27.8	16.2	0.00e+00	0	44	102	1048576	14	4096
2026-01-24 23:20:43.69	42.00	22.35	-26.7	-27.8	16.3	0.00e+00	0	44	102	1048576	14	4087
2026-01-24 23:20:44.70	42.17	22.46	-26.7	-27.7	16.3	0.00e+00	0	44	102	1048576	14	4073
2026-01-24 23:20:45.71	42.33	22.58	-26.7	-27.7	16.3	0.00e+00	0	44	102	1048576	14	4067
2026-01-24 23:20:46.71	42.50	22.69	-26.8	-27.9	16.2	0.00e+00	0	44	102	1048576	14	4123
2026-01-24 23:20:47.72	42.67	22.81	-26.7	-27.9	16.2	0.00e+00	0	44	102	1048576	14	4117
2026-01-24 23:20:48.72	42.84	22.92	-26.8	-28.0	16.2	0.00e+00	0	43	102	1048576	14	4133
2026-01-24 23:20:49.72	43.02	23.03	-26.7	-27.8	16.3	0.00e+00	0	43	102	1048576	14	4096
2026-01-24 23:20:50.73	43.19	23.15	-26.8	-28.1	16.2	0.00e+00	0	44	102	1048576	14	4159
2026-01-24 23:20:51.74	43.37	23.27	-26.7	-27.8	16.3	0.00e+00	0	44	102	1048576	14	4090
2026-01-24 23:20:52.74	43.54	23.38	-26.7	-27.9	16.3	0.00e+00	0	43	102	1048576	14	4099
2026-01-24 23:20:53.75	43.72	23.50	-26.9	-28.3	16.0	0.00e+00	0	44	102	1048576	14	4217
2026-01-24 23:20:54.75	43.90	23.61	-26.9	-28.3	16.0	0.00e+00	0	44	102	1048576	14	4202
2026-01-24 23:20:55.76	44.08	23.73	-26.7	-27.7	16.4	0.00e+00	0	44	102	1048576	14	4066
2026-01-24 23:20:56.77	44.26	23.85	-26.7	-27.7	16.4	0.00e+00	0	44	102	1048576	14	4056
2026-01-24 23:20:57.77	44.44	23.96	-26.8	-28.0	16.2	0.00e+00	0	44	102	1048576	14	4128
2026-01-24 23:20:58.77	44.62	24.08	-26.9	-28.3	16.1	0.00e+00	0	43	102	1048576	14	4205
2026-01-24 23:20:59.77	44.81	24.20	-27.0	-28.3	16.1	0.00e+00	0	43	102	1048576	14	4225
2026-01-24 23:21:00.78	45.00	24.32	-27.0	-28.4	16.0	0.00e+00	0	43	102	1048576	14	4248
2026-01-24 23:21:01.78	45.18	24.43	-26.9	-28.3	16.1	0.00e+00	0	44	102	1048576	14	4213
2026-01-24 23:21:02.78	45.37	24.55	-26.8	-28.0	16.3	0.00e+00	0	44	102	1048576	14	4136
2026-01-24 23:21:03.78	45.56	24.67	-26.8	-27.9	16.3	0.00e+00	0	44	102	1048576	14	4116
2026-01-24 23:21:04.79	45.75	24.79	-26.9	-28.2	16.2	0.00e+00	0	44	102	1048576	14	4180
2026-01-24 23:21:05.80	45.95	24.91	-26.7	-27.8	16.4	0.00e+00	0	44	102	1048576	14	4076
2026-01-24 23:21:06.80	46.14	25.02	-26.7	-27.9	16.3	0.00e+00	0	44	102	1048576	14	4100
2026-01-24 23:21:07.80	46.34	25.14	-26.7	-27.8	16.4	0.00e+00	0	44	102	1048576	14	4068
2026-01-24 23:21:08.80	46.54	25.26	-26.7	-27.9	16.3	0.00e+00	0	44	102	1048576	14	4101
2026-01-24 23:21:09.80	46.73	25.38	-26.8	-27.9	16.4	0.00e+00	0	43	102	1048576	14	4106
2026-01-24 23:21:10.81	46.94	25.50	-26.7	-27.9	16.4	0.00e+00	0	44	102	1048576	14	4095
2026-01-24 23:21:11.82	47.14	25.62	-26.9	-28.3	16.2	0.00e+00	0	44	102	1048576	14	4200
2026-01-24 23:21:12.82	47.34	25.74	-26.9	-28.3	16.1	0.00e+00	0	44	102	1048576	14	4207
2026-01-24 23:21:13.82	47.55	25.86	-26.8	-28.1	16.2	0.00e+00	0	44	102	1048576	14	4160
2026-01-24 23:21:14.82	47.75	25.98	-26.9	-28.3	16.1	0.00e+00	0	44	102	1048576	14	4219
2026-01-24 23:21:15.82	47.96	26.10	-27.0	-28.4	16.1	0.00e+00	0	44	102	1048576	14	4243
2026-01-24 23:21:16.83	48.17	26.22	-27.1	-28.6	16.0	0.00e+00	0	44	102	1048576	14	4309
2026-01-24 23:21:17.83	48.38	26.34	-27.1	-28.6	15.9	0.00e+00	0	44	102	1048576	14	4290
2026-01-24 23:21:18.83	48.59	26.46	-27.2	-29.0	15.8	0.00e+00	0	44	102	1048576	14	4395
2026-01-24 23:21:19.83	48.81	26.58	-27.5	-29.5	15.5	0.00e+00	0	44	102	1048576	14	4533
2026-01-24 23:21:20.83	49.02	26.70	-27.4	-29.3	15.6	0.00e+00	0	44	102	1048576	14	4488
2026-01-24 23:21:21.84	49.24	26.82	-27.4	-29.4	15.6	0.00e+00	0	43	102	1048576	14	4507
2026-01-24 23:21:22.85	49.46	26.94	-27.5	-29.1	15.4	0.00e+00	0	44	102	1048576	15	4306
2026-01-24 23:21:23.85	49.68	27.06	-27.7	-29.6	15.1	0.00e+00	0	44	102	1048576	15	4456
2026-01-24 23:21:24.86	49.91	27.19	-27.6	-29.4	15.2	0.00e+00	0	44	102	1048576	15	4393
2026-01-24 23:21:25.87	50.13	27.31	-27.7	-29.5	15.2	0.00e+00	0	44	102	1048576	15	4443
2026-01-24 23:21:26.87	50.36	27.43	-27.7	-29.5	15.2	0.00e+00	0	44	102	1048576	15	4443
2026-01-24 23:21:27.87	50.58	27.55	-27.6	-29.4	15.2	0.00e+00	0	44	102	1048576	15	4401
2026-01-24 23:21:28.88	50.81	27.67	-27.8	-29.8	15.0	0.00e+00	0	44	102	1048576	15	4507
2026-01-24 23:21:29.88	51.04	27.80	-27.6	-29.2	14.8	0.00e+00	0	44	102	1048576	15	4358
2026-01-24 23:21:30.88	51.28	27.92	-27.3	-28.7	15.6	7.00e-07	0	43	102	1048576	15	4214
2026-01-24 23:21:31.88	51.51	28.04	-27.3	-28.6	15.7	0.00e+00	0	44	102	1048576	15	4186
2026-01-24 23:21:32.88	51.74	28.16	-27.3	-28.6	15.7	0.00e+00	0	44	102	1048576	15	4198
2026-01-24 23:21:33.89	51.98	28.28	-27.4	-28.9	15.6	0.00e+00	0	44	102	1048576	15	4276
2026-01-24 23:21:34.89	52.22	28.40	-27.1	-28.3	15.9	0.00e+00	0	44	102	1048576	15	4099
2026-01-24 23:21:35.89	52.46	28.52	-27.0	-28.5	16.1	0.00e+00	0	44	102	1048576	14	4259
2026-01-24 23:21:36.90	52.71	28.65	-27.0	-28.5	16.0	7.00e-07	0	44	102	1048576	14	4265
2026-01-24 23:21:37.89	52.95	28.77	-27.1	-28.7	15.9	0.00e+00	0	44	102	1048576	14	4334
2026-01-24 23:21:38.90	53.20	28.89	-27.0	-28.5	16.0	0.00e+00	0	44	102	1048576	14	4278
2026-01-24 23:21:39.91	53.45	29.01	-27.2	-28.9	15.8	1.50e-06	0	44	102	1048576	14	4369
2026-01-24 23:21:40.91	53.70	29.13	-27.2	-28.9	15.8	0.00e+00	0	44	102	1048576	14	4372
2026-01-24 23:21:41.92	53.95	29.26	-27.3	-29.0	15.8	0.00e+00	0	44	102	1048576	14	4410
2026-01-24 23:21:42.92	54.21	29.38	-27.3	-29.1	15.7	0.00e+00	0	44	102	1048576	14	4443
2026-01-24 23:21:43.92	54.46	29.50	-27.2	-28.9	15.9	0.00e+00	0	44	102	1048576	14	4368
2026-01-24 23:21:44.92	54.72	29.62	-27.0	-28.5	16.0	0.00e+00	0	44	102	1048576	14	4260
2026-01-24 23:21:45.92	54.98	29.74	-27.1	-28.7	15.9	0.00e+00	0	43	102	1048576	14	4309
2026-01-24 23:21:46.92	55.24	29.86	-27.0	-28.4	16.1	0.00e+00	0	44	102	1048576	14	4238
2026-01-24 23:21:47.93	55.51	29.98	-27.1	-28.6	16.0	0.00e+00	0	44	102	1048576	14	4290
2026-01-24 23:21:48.93	55.77	30.10	-27.1	-28.7	16.0	0.00e+00	0	44	102	1048576	14	4318
2026-01-24 23:21:49.93	56.04	30.22	-27.3	-29.1	15.7	0.00e+00	0	44	102	1048576	14	4433
2026-01-24 23:21:50.93	56.31	30.34	-27.3	-29.0	15.8	7.60e-06	0	44	102	1048576	14	4409
2026-01-24 23:21:51.93	56.58	30.46	-27.1	-28.6	16.0	0.00e+00	0	44	102	1048576	14	4300
2026-01-24 23:21:52.94	56.85	30.59	-27.0	-28.5	16.0	4.04e-05	0	44	102	1048576	14	4277
2026-01-24 23:21:53.94	57.13	30.71	-27.2	-28.8	15.9	8.30e-06	0	44	102	1048576	14	4351
2026-01-24 23:21:54.94	57.41	30.82	-27.1	-28.7	16.0	0.00e+00	0	44	102	1048576	14	4312
2026-01-24 23:21:55.95	57.69	30.95	-27.2	-28.9	15.9	1.90e-05	0	44	102	1048576	14	4373
2026-01-24 23:21:56.95	57.97	31.06	-27.2	-29.0	15.8	6.17e-05	0	44	102	1048576	14	4388
2026-01-24 23:21:57.95	58.25	31.18	-27.4	-29.4	15.6	0.00e+00	0	43	102	1048576	14	4506
2026-01-24 23:21:58.96	58.54	31.30	-27.3	-29.1	15.8	4.24e-04	0	44	102	1048576	14	4427
2026-01-24 23:21:59.97	58.83	31.42	-27.3	-29.1	15.7	6.16e-04	0	44	102	1048576	14	4430
2026-01-24 23:22:00.97	59.12	31.54	-27.5	-29.5	15.6	0.00e+00	0	44	102	1048576	14	4536
2026-01-24 23:22:01.97	59.41	31.66	-27.4	-28.8	15.7	6.79e-04	0	44	102	1048576	15	4240
2026-01-24 23:22:02.97	59.70	31.77	-27.4	-29.4	15.6	6.35e-04	0	44	102	1048576	14	4506
2026-01-24 23:22:03.97	60.00	31.89	-27.5	-29.5	15.6	0.00e+00	0	44	102	1048576	14	4554
2026-01-24 23:22:04.97	60.30	32.01	-27.5	-29.0	15.5	0.00e+00	0	44	102	1048576	15	4291
2026-01-24 23:22:05.97	60.60	32.12	-27.5	-29.1	15.5	6.03e-04	0	44	102	1048576	15	4308
2026-01-24 23:22:06.97	60.90	32.24	-27.5	-29.1	15.5	0.00e+00	0	44	102	1048576	15	4312
2026-01-24 23:22:07.97	61.20	32.35	-27.7	-29.6	15.2	3.97e-04	0	44	102	1048576	15	4448
2026-01-24 23:22:08.97	61.51	32.47	-27.8	-29.6	15.2	3.15e-04	0	44	102	1048576	15	4465
2026-01-24 23:22:09.97	61.82	32.58	-28.0	-30.2	14.9	0.00e+00	0	44	102	1048576	15	4641
2026-01-24 23:22:10.98	62.13	32.70	-28.1	-30.0	14.9	0.00e+00	0	44	102	1048576	16	4449
2026-01-24 23:22:11.98	62.44	32.81	-28.1	-29.9	14.9	0.00e+00	0	44	102	1048576	16	4441
2026-01-24 23:22:12.99	62.76	32.93	-28.2	-30.0	14.9	0.00e+00	0	44	102	1048576	16	4455
2026-01-24 23:22:14.00	63.08	33.04	-28.1	-30.0	14.8	0.00e+00	0	44	102	1048576	16	4452
2026-01-24 23:22:15.00	63.40	33.15	-28.2	-30.0	14.9	0.00e+00	0	44	102	1048576	16	4465
2026-01-24 23:22:15.99	63.72	33.26	-28.2	-30.2	14.7	0.00e+00	0	44	102	1048576	16	4499
2026-01-24 23:22:17.00	64.05	33.37	-28.3	-30.3	14.7	0.00e+00	0	44	102	1048576	16	4550
2026-01-24 23:22:18.00	64.37	33.48	-28.4	-30.5	14.6	0.00e+00	0	44	102	1048576	16	4614
2026-01-24 23:22:19.01	64.70	33.60	-28.4	-30.6	14.6	0.00e+00	0	44	102	1048576	16	4627
2026-01-24 23:22:20.02	65.04	33.71	-28.4	-30.6	14.6	1.50e-06	0	44	102	1048576	16	4631
2026-01-24 23:22:21.02	65.37	33.81	-28.3	-30.4	14.7	7.00e-07	0	44	102	1048576	16	4563
2026-01-24 23:22:22.03	65.71	33.92	-28.4	-30.5	14.6	0.00e+00	0	44	102	1048576	16	4612
2026-01-24 23:22:23.04	66.05	34.03	-28.4	-30.5	14.6	0.00e+00	0	44	102	1048576	16	4616
2026-01-24 23:22:24.04	66.39	34.14	-28.4	-30.2	14.6	0.00e+00	0	44	102	1048576	17	4391
2026-01-24 23:22:25.05	66.73	34.24	-28.6	-30.6	14.4	0.00e+00	0	44	102	1048576	17	4519
2026-01-24 23:22:26.06	67.08	34.35	-28.5	-30.2	14.5	7.00e-07	0	44	102	1048576	17	4416
2026-01-24 23:22:27.06	67.42	34.45	-28.4	-30.2	14.6	0.00e+00	0	44	102	1048576	17	4399
2026-01-24 23:22:28.07	67.77	34.56	-28.4	-30.1	14.6	0.00e+00	0	44	102	1048576	17	4361
2026-01-24 23:22:29.08	68.13	34.66	-28.4	-30.0	14.6	0.00e+00	0	44	102	1048576	17	4350
2026-01-24 23:22:30.09	68.48	34.76	-28.4	-30.0	14.6	0.00e+00	0	44	102	1048576	17	4350
2026-01-24 23:22:31.10	68.84	34.86	-28.3	-29.9	14.8	7.00e-07	0	44	102	1048576	17	4306
2026-01-24 23:22:32.10	69.20	34.96	-28.3	-29.8	14.8	0.00e+00	0	44	102	1048576	17	4282
2026-01-24 23:22:33.11	69.56	35.06	-28.3	-29.8	14.7	0.00e+00	0	44	102	1048576	17	4287
2026-01-24 23:22:34.12	69.92	35.16	-28.4	-30.0	14.7	0.00e+00	0	44	102	1048576	17	4351
2026-01-24 23:22:35.12	70.29	35.26	-28.3	-29.9	14.7	0.00e+00	0	44	102	1048576	17	4315
2026-01-24 23:22:36.13	70.66	35.35	-28.3	-29.8	14.8	7.00e-07	0	44	102	1048576	17	4286
2026-01-24 23:22:37.14	71.03	35.45	-28.5	-30.2	14.6	0.00e+00	0	44	102	1048576	17	4396
2026-01-24 23:22:38.14	71.40	35.54	-28.3	-29.9	14.7	7.00e-07	0	44	102	1048576	17	4320
2026-01-24 23:22:39.14	71.77	35.64	-28.4	-30.0	14.7	0.00e+00	0	44	102	1048576	17	4338
2026-01-24 23:22:40.15	72.14	35.73	-28.7	-30.8	14.2	1.50e-06	0	44	102	1048576	17	4570
2026-01-24 23:22:41.15	72.52	35.82	-28.6	-30.7	14.3	1.50e-06	0	44	102	1048576	17	4544
2026-01-24 23:22:42.15	72.90	35.91	-28.6	-30.5	14.4	1.06e-05	0	44	102	1048576	17	4482
2026-01-24 23:22:43.15	73.28	36.00	-28.6	-30.5	14.3	7.00e-07	0	44	102	1048576	17	4490
2026-01-24 23:22:44.16	73.66	36.09	-28.8	-31.0	14.0	2.20e-06	0	44	102	1048576	17	4644
2026-01-24 23:22:45.16	74.05	36.17	-28.6	-30.5	14.4	1.06e-05	0	44	102	1048576	17	4478
2026-01-24 23:22:46.16	74.43	36.26	-28.5	-30.4	14.4	0.00e+00	0	44	102	1048576	17	4451
2026-01-24 23:22:47.17	74.82	36.34	-28.7	-30.8	14.2	3.80e-06	0	44	102	1048576	17	4582
2026-01-24 23:22:48.17	75.21	36.42	-28.8	-31.0	14.0	7.00e-07	0	44	102	1048576	17	4657
2026-01-24 23:22:49.18	75.61	36.51	-28.8	-31.1	14.0	7.00e-07	0	44	102	1048576	17	4684
2026-01-24 23:22:50.18	76.00	36.59	-28.6	-30.4	14.4	7.00e-07	0	44	102	1048576	17	4476
2026-01-24 23:22:51.19	76.40	36.67	-28.5	-30.2	14.6	1.50e-06	0	44	102	1048576	17	4408
2026-01-24 23:22:52.19	76.80	36.74	-28.5	-30.3	14.5	7.00e-07	0	44	102	1048576	17	4419
2026-01-24 23:22:53.20	77.20	36.82	-28.7	-30.7	14.3	2.20e-06	0	44	102	1048576	17	4549
2026-01-24 23:22:54.19	77.60	36.89	-28.8	-31.1	14.1	2.20e-06	0	44	102	1048576	17	4672
2026-01-24 23:22:55.20	78.01	36.97	-28.7	-30.8	14.2	1.50e-06	0	44	102	1048576	17	4589
2026-01-24 23:22:56.20	78.41	37.04	-28.7	-30.8	14.2	1.50e-06	0	44	102	1048576	17	4566
2026-01-24 23:22:57.21	78.82	37.11	-28.8	-31.1	14.0	7.00e-07	0	44	102	1048576	17	4664
2026-01-24 23:22:58.20	79.23	37.18	-28.8	-31.1	14.1	1.50e-06	0	44	102	1048576	17	4663
2026-01-24 23:22:59.21	79.64	37.25	-29.1	-31.2	13.7	5.30e-06	0	44	102	1048576	18	4588
2026-01-24 23:23:00.22	80.06	37.31	-29.1	-31.3	13.7	7.60e-06	0	44	102	1048576	18	4605
2026-01-24 23:23:01.22	80.47	37.38	-29.3	-31.7	13.4	1.37e-05	0	44	102	1048576	18	4745
2026-01-24 23:23:02.22	80.88	37.44	-29.3	-31.7	13.4	9.90e-06	0	44	102	1048576	18	4749
2026-01-24 23:23:03.22	81.30	37.50	-29.2	-31.6	13.5	1.29e-05	0	44	102	1048576	18	4704
2026-01-24 23:23:04.22	81.72	37.56	-29.3	-31.6	13.4	1.22e-05	0	44	102	1048576	18	4719
2026-01-24 23:23:05.22	82.14	37.62	-29.4	-31.9	13.3	1.60e-05	0	44	102	1048576	18	4815
2026-01-24 23:23:06.22	82.56	37.68	-29.2	-31.6	13.5	2.05e-05	0	44	102	1048576	18	4699
2026-01-24 23:23:07.22	82.98	37.73	-29.2	-31.5	13.2	6.80e-06	0	44	102	1048576	18	4698
2026-01-24 23:23:08.23	83.41	37.78	-29.2	-31.5	13.4	1.29e-05	0	44	102	1048576	18	4679
2026-01-24 23:23:09.23	83.83	37.84	-29.0	-30.9	13.9	9.90e-06	0	44	102	1048576	18	4492
2026-01-24 23:23:10.22	84.26	37.89	-28.9	-30.6	14.1	6.40e-05	0	44	102	1048576	18	4423
2026-01-24 23:23:11.22	84.68	37.93	-28.1	-30.2	13.6	9.24e-04	0	44	102	1048576	17	4627
2026-01-24 23:23:12.23	85.12	37.98	-28.2	-30.4	13.5	1.56e-02	0	44	102	1048576	17	4682
2026-01-24 23:23:13.23	85.55	38.03	-28.4	-30.9	13.2	1.59e-02	0	44	102	1048576	17	4848
2026-01-24 23:23:14.23	85.98	38.07	-28.1	-30.5	13.4	1.52e-02	0	44	102	1048576	17	4740
2026-01-24 23:23:15.23	86.41	38.11	-28.4	-31.0	13.1	1.60e-02	0	44	102	1048576	17	4854
2026-01-24 23:23:16.22	86.84	38.15	-28.4	-30.9	13.2	1.57e-02	0	44	102	1048576	17	4830
2026-01-24 23:23:17.22	87.28	38.19	-28.4	-31.1	13.1	1.59e-02	0	44	102	1048576	17	4888
2026-01-24 23:23:18.23	87.72	38.22	-28.4	-31.0	13.1	1.59e-02	0	44	102	1048576	17	4869
2026-01-24 23:23:19.23	88.15	38.26	-28.3	-30.6	13.4	1.51e-02	0	44	102	1048576	17	4704
2026-01-24 23:23:20.23	88.59	38.29	-28.1	-30.4	13.5	1.26e-02	0	44	102	1048576	17	4684
2026-01-24 23:23:21.24	89.03	38.32	-28.4	-30.7	13.6	1.24e-02	0	44	102	1048576	17	4701
2026-01-24 23:23:22.24	89.47	38.35	-28.2	-30.3	14.0	2.59e-03	0	44	102	1048576	17	4573
2026-01-24 23:23:23.24	89.91	38.38	-28.1	-29.8	14.3	4.55e-04	0	44	102	1048576	17	4409
2026-01-24 23:23:24.24	90.35	38.40	-27.9	-29.5	14.5	4.58e-04	0	44	102	1048576	17	4322
2026-01-24 23:23:25.24	90.79	38.43	-28.1	-29.9	14.4	3.94e-04	0	44	102	1048576	17	4407
2026-01-24 23:23:26.25	91.24	38.45	-28.1	-29.8	14.4	6.05e-04	0	44	102	1048576	17	4358
2026-01-24 23:23:27.26	91.69	38.47	-28.0	-29.4	14.6	4.47e-04	0	44	102	1048576	17	4253
2026-01-24 23:23:28.26	92.13	38.49	-28.1	-29.6	14.5	5.10e-04	0	44	102	1048576	17	4295
2026-01-24 23:23:29.27	92.58	38.50	-28.2	-29.9	14.4	1.70e-04	0	44	102	1048576	17	4381
2026-01-24 23:23:30.27	93.02	38.52	-28.5	-30.6	14.1	5.18e-05	0	44	102	1048576	17	4595
2026-01-24 23:23:31.28	93.47	38.53	-28.8	-31.3	13.7	7.09e-05	0	44	102	1048576	17	4806
2026-01-24 23:23:32.28	93.91	38.54	-28.8	-31.4	13.6	5.11e-05	0	44	102	1048576	17	4842
2026-01-24 23:23:33.29	94.36	38.55	-28.7	-31.2	13.7	4.50e-05	0	44	102	1048576	17	4779
2026-01-24 23:23:34.30	94.81	38.55	-28.8	-31.3	13.5	5.90e-04	0	44	102	1048576	17	4810
2026-01-24 23:23:35.29	95.25	38.56	-29.0	-31.3	13.3	2.94e-03	0	44	102	1048576	18	4684
2026-01-24 23:23:36.30	95.70	38.56	-29.1	-31.5	13.1	2.02e-03	0	44	102	1048576	18	4748
2026-01-24 23:23:37.30	96.15	38.56	-29.0	-31.2	13.3	2.43e-03	0	44	102	1048576	18	4634
2026-01-24 23:23:38.31	96.60	38.56	-28.8	-30.7	13.5	3.75e-03	0	44	102	1048576	18	4501
2026-01-24 23:23:39.31	97.04	38.56	-28.9	-31.1	13.4	4.20e-03	0	44	102	1048576	18	4586
2026-01-24 23:23:40.31	97.49	38.55	-28.9	-31.0	13.5	3.11e-03	0	44	102	1048576	18	4574
2026-01-24 23:23:41.32	97.94	38.54	-28.6	-30.3	14.0	4.32e-04	0	44	102	1048576	18	4348
2026-01-24 23:23:42.33	98.39	38.54	-28.5	-30.0	14.2	2.59e-05	0	44	102	1048576	18	4269
2026-01-24 23:23:43.33	98.83	38.52	-28.6	-30.2	14.2	3.00e-06	0	44	102	1048576	18	4327
2026-01-24 23:23:44.34	99.28	38.51	-28.6	-30.1	14.2	1.22e-05	0	44	102	1048576	18	4282
2026-01-24 23:23:45.34	99.73	38.50	-28.5	-29.9	14.2	9.84e-05	0	44	102	1048576	18	4236
2026-01-24 23:23:46.34	100.17	38.48	-28.7	-30.4	14.0	9.23e-05	0	44	102	1048576	18	4384
2026-01-24 23:23:47.35	100.62	38.46	-28.8	-30.5	14.1	2.82e-04	0	44	102	1048576	18	4370
2026-01-24 23:23:48.35	101.06	38.44	-28.9	-30.6	14.0	1.50e-06	0	44	102	1048576	18	4416
2026-01-24 23:23:49.36	101.51	38.42	-28.8	-30.5	14.1	0.00e+00	0	44	102	1048576	18	4379
2026-01-24 23:23:50.36	101.95	38.39	-28.8	-30.4	14.2	1.14e-05	0	44	102	1048576	18	4349
2026-01-24 23:23:51.36	102.39	38.37	-28.6	-30.0	14.4	7.00e-07	0	44	102	1048576	18	4228
2026-01-24 23:23:52.36	102.83	38.34	-28.7	-30.3	14.2	3.80e-06	0	44	102	1048576	18	4325
2026-01-24 23:23:53.37	103.27	38.31	-28.8	-30.5	14.0	2.20e-06	0	44	102	1048576	18	4389
2026-01-24 23:23:54.38	103.71	38.28	-28.7	-30.2	14.2	3.80e-06	0	44	102	1048576	18	4300
2026-01-24 23:23:55.38	104.15	38.25	-28.7	-30.3	14.2	2.20e-06	0	44	102	1048576	18	4326
2026-01-24 23:23:56.38	104.59	38.21	-28.6	-30.1	14.2	2.20e-06	0	44	102	1048576	18	4272
2026-01-24 23:23:57.39	105.03	38.17	-28.5	-29.8	14.5	0.00e+00	0	44	102	1048576	18	4182
2026-01-24 23:23:58.39	105.46	38.13	-28.5	-29.7	14.5	7.00e-07	0	44	102	1048576	18	4164
2026-01-24 23:23:59.39	105.90	38.09	-28.6	-30.1	14.2	0.00e+00	0	44	102	1048576	18	4272
2026-01-24 23:24:00.39	106.33	38.05	-28.6	-30.1	14.3	0.00e+00	0	44	102	1048576	18	4259
2026-01-24 23:24:01.40	106.77	38.01	-28.7	-30.3	14.2	5.30e-06	0	44	102	1048576	18	4335
2026-01-24 23:24:02.40	107.20	37.96	-28.7	-30.3	14.1	7.00e-07	0	44	102	1048576	18	4330
2026-01-24 23:24:03.40	107.63	37.91	-28.8	-30.5	14.0	4.50e-06	0	44	102	1048576	18	4389
2026-01-24 23:24:04.40	108.05	37.87	-29.1	-31.2	13.6	1.22e-05	0	44	102	1048576	18	4603
2026-01-24 23:24:05.41	108.48	37.81	-29.0	-30.9	13.8	5.30e-06	0	44	102	1048576	18	4508
2026-01-24 23:24:06.41	108.91	37.76	-28.8	-30.6	14.0	3.00e-06	0	44	102	1048576	18	4398
2026-01-24 23:24:07.41	109.33	37.71	-28.7	-30.3	14.1	1.50e-06	0	44	102	1048576	18	4323
2026-01-24 23:24:08.42	109.76	37.65	-28.7	-30.4	14.1	2.20e-06	0	44	102	1048576	18	4355
2026-01-24 23:24:09.42	110.18	37.59	-28.6	-30.1	14.2	7.00e-07	0	44	102	1048576	18	4281
2026-01-24 23:24:10.43	110.60	37.53	-28.8	-30.5	13.9	1.50e-06	0	44	102	1048576	18	4387
2026-01-24 23:24:11.43	111.02	37.47	-29.0	-30.9	13.7	5.30e-06	0	44	102	1048576	18	4513
2026-01-24 23:24:12.44	111.44	37.41	-28.8	-30.6	13.9	3.80e-06	0	44	102	1048576	18	4417
2026-01-24 23:24:13.44	111.86	37.35	-28.9	-30.8	13.8	6.80e-06	0	44	102	1048576	18	4471
2026-01-24 23:24:14.44	112.27	37.28	-28.8	-30.6	13.9	6.80e-06	0	44	102	1048576	18	4409
2026-01-24 23:24:15.45	112.69	37.21	-28.6	-30.2	14.2	4.50e-06	0	44	102	1048576	18	4289
2026-01-24 23:24:16.45	113.10	37.15	-28.5	-29.7	14.4	0.00e+00	0	44	102	1048576	18	4161
2026-01-24 23:24:17.45	113.51	37.08	-28.6	-30.0	14.2	1.50e-06	0	44	102	1048576	18	4250
2026-01-24 23:24:18.46	113.92	37.00	-28.7	-30.4	14.0	2.20e-06	0	44	102	1048576	18	4364
2026-01-24 23:24:19.46	114.32	36.93	-28.9	-30.8	13.8	4.50e-06	0	44	102	1048576	18	4485
2026-01-24 23:24:20.46	114.73	36.86	-29.2	-31.4	13.3	1.37e-05	0	44	102	1048576	18	4675
2026-01-24 23:24:21.47	115.13	36.78	-29.0	-31.0	13.6	8.30e-06	0	44	102	1048576	18	4535
2026-01-24 23:24:22.48	115.53	36.70	-28.5	-29.8	14.3	0.00e+00	0	44	102	1048576	18	4189
2026-01-24 23:24:23.49	115.94	36.63	-28.3	-29.8	14.6	0.00e+00	0	44	102	1048576	17	4277
2026-01-24 23:24:24.49	116.33	36.55	-28.2	-29.7	14.6	0.00e+00	0	44	102	1048576	17	4271
2026-01-24 23:24:25.49	116.72	36.47	-28.0	-29.3	14.9	0.00e+00	0	44	102	1048576	17	4149
2026-01-24 23:24:26.50	117.12	36.38	-27.9	-28.9	15.1	0.00e+00	0	44	102	1048576	17	4049
2026-01-24 23:24:27.50	117.51	36.30	-27.9	-29.0	15.1	0.00e+00	0	44	102	1048576	17	4069
2026-01-24 23:24:28.50	117.90	36.21	-28.0	-29.1	15.0	0.00e+00	0	44	102	1048576	17	4086
2026-01-24 23:24:29.50	118.28	36.13	-27.9	-29.0	15.1	0.00e+00	0	44	102	1048576	17	4065
2026-01-24 23:24:30.51	118.67	36.04	-28.0	-29.2	14.9	0.00e+00	0	44	102	1048576	17	4144
2026-01-24 23:24:31.51	119.05	35.95	-28.1	-29.3	14.9	0.00e+00	0	44	102	1048576	17	4162
2026-01-24 23:24:32.52	119.44	35.86	-28.0	-29.3	14.9	0.00e+00	0	44	102	1048576	17	4139
2026-01-24 23:24:33.52	119.82	35.77	-28.2	-29.5	14.7	0.00e+00	0	44	102	1048576	17	4227
2026-01-24 23:24:34.52	120.19	35.68	-28.3	-29.8	14.6	0.00e+00	0	44	102	1048576	17	4312
2026-01-24 23:24:35.52	120.56	35.59	-28.5	-30.3	14.3	1.50e-06	0	44	102	1048576	17	4444
2026-01-24 23:24:36.52	120.94	35.49	-28.5	-30.3	14.3	1.50e-06	0	44	102	1048576	17	4432
2026-01-24 23:24:37.53	121.31	35.40	-28.5	-30.4	14.2	2.20e-06	0	44	102	1048576	17	4477
2026-01-24 23:24:38.53	121.68	35.30	-28.4	-30.1	14.4	7.00e-07	0	44	102	1048576	17	4384
2026-01-24 23:24:39.52	122.04	35.21	-28.4	-30.1	14.4	7.00e-07	0	44	102	1048576	17	4383
2026-01-24 23:24:40.53	122.40	35.11	-28.3	-29.8	14.5	0.00e+00	0	44	102	1048576	17	4293
2026-01-24 23:24:41.54	122.77	35.01	-28.1	-29.4	14.8	0.00e+00	0	44	102	1048576	17	4182
2026-01-24 23:24:42.55	123.13	34.91	-28.2	-29.5	14.7	0.00e+00	0	44	102	1048576	17	4219
2026-01-24 23:24:43.55	123.49	34.81	-28.2	-29.7	14.6	0.00e+00	0	44	102	1048576	17	4259
2026-01-24 23:24:44.56	123.85	34.71	-28.3	-29.8	14.6	7.00e-07	0	44	102	1048576	17	4290
2026-01-24 23:24:45.55	124.19	34.60	-28.0	-29.2	14.9	0.00e+00	0	44	102	1048576	17	4133
2026-01-24 23:24:46.56	124.55	34.50	-27.7	-29.0	15.3	0.00e+00	0	44	102	1048576	16	4188
2026-01-24 23:24:47.56	124.90	34.40	-27.8	-29.2	15.2	0.00e+00	0	44	102	1048576	16	4233
2026-01-24 23:24:48.57	125.25	34.29	-27.8	-29.4	15.1	0.00e+00	0	44	102	1048576	16	4283
2026-01-24 23:24:49.57	125.59	34.19	-27.7	-28.9	15.3	1.90e-05	0	44	102	1048576	16	4165
2026-01-24 23:24:50.57	125.93	34.08	-27.6	-28.9	15.3	0.00e+00	0	44	102	1048576	16	4148
2026-01-24 23:24:51.58	126.27	33.97	-27.6	-28.7	15.5	0.00e+00	0	44	102	1048576	16	4099
2026-01-24 23:24:52.57	126.61	33.86	-27.5	-28.5	15.6	0.00e+00	0	44	102	1048576	16	4048
2026-01-24 23:24:53.57	126.94	33.76	-27.6	-28.7	15.4	0.00e+00	0	44	102	1048576	16	4112
2026-01-24 23:24:54.58	127.28	33.65	-27.9	-29.4	15.0	0.00e+00	0	44	102	1048576	16	4297
2026-01-24 23:24:55.59	127.61	33.53	-28.1	-30.0	14.7	9.90e-06	0	44	102	1048576	16	4454
2026-01-24 23:24:56.59	127.94	33.42	-27.9	-29.6	14.9	0.00e+00	0	44	102	1048576	16	4335
2026-01-24 23:24:57.59	128.26	33.31	-27.8	-29.1	15.2	0.00e+00	0	44	102	1048576	16	4222
2026-01-24 23:24:58.60	128.59	33.20	-27.7	-28.9	15.3	0.00e+00	0	44	102	1048576	16	4157
2026-01-24 23:24:59.61	128.92	33.09	-27.8	-29.2	15.1	0.00e+00	0	44	102	1048576	16	4253
2026-01-24 23:25:00.61	129.24	32.97	-27.8	-29.2	15.1	0.00e+00	0	44	102	1048576	16	4230
2026-01-24 23:25:01.62	129.56	32.86	-27.8	-29.2	15.1	9.90e-06	0	44	102	1048576	16	4234
2026-01-24 23:25:02.63	129.87	32.75	-27.6	-28.9	15.3	0.00e+00	0	44	102	1048576	16	4157
2026-01-24 23:25:03.63	130.19	32.63	-27.4	-28.3	15.6	0.00e+00	0	44	102	1048576	16	3994
2026-01-24 23:25:04.64	130.50	32.51	-27.4	-28.4	15.6	6.10e-06	0	44	102	1048576	16	4013
2026-01-24 23:25:05.64	130.81	32.40	-27.3	-28.1	15.7	0.00e+00	0	44	102	1048576	16	3946
2026-01-24 23:25:06.65	131.12	32.28	-27.4	-28.3	15.6	0.00e+00	0	44	102	1048576	16	4008
2026-01-24 23:25:07.65	131.42	32.17	-27.5	-28.5	15.5	8.30e-06	0	44	102	1048576	16	4050
2026-01-24 23:25:08.66	131.73	32.05	-27.6	-28.8	15.3	0.00e+00	0	44	102	1048576	16	4133
2026-01-24 23:25:09.66	132.03	31.93	-27.4	-28.4	15.5	0.00e+00	0	44	102	1048576	16	4043
2026-01-24 23:25:10.66	132.33	31.81	-27.0	-28.1	15.8	6.25e-05	0	44	102	1048576	15	4063
2026-01-24 23:25:11.66	132.62	31.70	-27.1	-28.2	15.8	0.00e+00	0	44	102	1048576	15	4089
2026-01-24 23:25:12.67	132.92	31.58	-27.3	-28.7	15.5	0.00e+00	0	44	102	1048576	15	4222
2026-01-24 23:25:13.68	133.21	31.46	-27.3	-28.8	15.4	6.02e-05	0	44	102	1048576	15	4279
2026-01-24 23:25:14.69	133.51	31.34	-27.3	-28.6	15.5	0.00e+00	0	44	102	1048576	15	4220
2026-01-24 23:25:15.69	133.79	31.22	-27.2	-28.6	15.5	4.50e-06	0	44	102	1048576	15	4208
2026-01-24 23:25:16.70	134.08	31.10	-27.5	-29.2	15.2	2.51e-05	0	44	102	1048576	15	4375
2026-01-24 23:25:17.70	134.36	30.98	-27.6	-29.4	15.1	0.00e+00	0	44	102	1048576	15	4449
2026-01-24 23:25:18.71	134.65	30.86	-27.7	-29.8	14.8	0.00e+00	0	44	102	1048576	15	4542
2026-01-24 23:25:19.71	134.93	30.74	-27.8	-29.8	14.8	0.00e+00	0	44	102	1048576	15	4551
2026-01-24 23:25:20.72	135.21	30.62	-27.8	-29.8	14.8	0.00e+00	0	44	102	1048576	15	4557
2026-01-24 23:25:21.72	135.48	30.49	-27.7	-29.7	14.9	7.26e-04	0	44	102	1048576	15	4516
2026-01-24 23:25:22.73	135.76	30.37	-27.7	-29.6	15.0	0.00e+00	0	44	102	1048576	15	4472
2026-01-24 23:25:23.73	136.03	30.25	-27.8	-29.8	14.8	7.00e-07	0	44	102	1048576	15	4558
2026-01-24 23:25:24.73	136.30	30.13	-27.8	-29.9	14.8	7.00e-07	0	44	102	1048576	15	4582
2026-01-24 23:25:25.73	136.56	30.01	-27.9	-30.1	14.6	3.42e-04	0	44	102	1048576	15	4647
2026-01-24 23:25:26.73	136.83	29.89	-27.8	-29.8	14.8	0.00e+00	0	44	102	1048576	15	4552
2026-01-24 23:25:27.72	137.09	29.77	-27.6	-29.5	15.0	0.00e+00	0	44	102	1048576	15	4473
2026-01-24 23:25:28.73	137.35	29.64	-27.7	-29.6	14.9	0.00e+00	0	44	102	1048576	15	4491
2026-01-24 23:25:29.73	137.61	29.52	-27.6	-29.5	15.0	1.50e-06	0	44	102	1048576	15	4455
2026-01-24 23:25:30.73	137.87	29.40	-27.6	-29.4	15.0	0.00e+00	0	44	102	1048576	15	4429
2026-01-24 23:25:31.74	138.13	29.28	-27.7	-29.6	15.0	7.00e-07	0	44	102	1048576	15	4474
2026-01-24 23:25:32.75	138.38	29.15	-27.4	-29.0	15.3	0.00e+00	0	44	102	1048576	15	4315
2026-01-24 23:25:33.75	138.64	29.03	-27.2	-28.6	15.5	0.00e+00	0	44	102	1048576	15	4187
2026-01-24 23:25:34.75	138.89	28.91	-27.2	-28.5	15.5	0.00e+00	0	44	102	1048576	15	4162
2026-01-24 23:25:35.76	139.14	28.79	-27.1	-28.2	15.7	0.00e+00	0	44	102	1048576	15	4086
2026-01-24 23:25:36.76	139.38	28.66	-27.1	-28.8	15.6	0.00e+00	0	44	102	1048576	14	4375
2026-01-24 23:25:37.77	139.63	28.54	-27.2	-28.9	15.6	0.00e+00	0	44	102	1048576	14	4389
2026-01-24 23:25:38.77	139.87	28.42	-27.3	-29.1	15.4	0.00e+00	0	44	102	1048576	14	4459
2026-01-24 23:25:39.78	140.11	28.30	-27.1	-28.7	15.6	0.00e+00	0	44	102	1048576	14	4342
2026-01-24 23:25:40.78	140.35	28.17	-27.0	-28.5	15.8	0.00e+00	0	44	102	1048576	14	4282
2026-01-24 23:25:41.78	140.59	28.05	-26.9	-28.2	15.9	0.00e+00	0	44	102	1048576	14	4204
2026-01-24 23:25:42.78	140.83	27.93	-27.1	-28.7	15.7	0.00e+00	0	44	102	1048576	14	4324
2026-01-24 23:25:43.79	141.06	27.81	-26.9	-28.3	15.8	0.00e+00	0	44	102	1048576	14	4235
2026-01-24 23:25:44.80	141.30	27.68	-26.8	-28.1	16.0	0.00e+00	0	44	102	1048576	14	4168
2026-01-24 23:25:45.81	141.53	27.56	-26.8	-28.6	15.9	0.00e+00	0	44	102	1048576	13	4421
2026-01-24 23:25:46.81	141.76	27.44	-26.9	-28.8	15.9	0.00e+00	0	44	102	1048576	13	4472
2026-01-24 23:25:47.82	141.98	27.31	-26.8	-28.7	15.9	0.00e+00	0	44	102	1048576	13	4453
2026-01-24 23:25:48.83	142.21	27.19	-26.9	-28.8	15.8	0.00e+00	0	44	102	1048576	13	4488
2026-01-24 23:25:49.83	142.43	27.07	-27.0	-28.6	15.6	0.00e+00	0	44	102	1048576	14	4322
2026-01-24 23:25:50.83	142.66	26.95	-27.3	-29.3	15.2	0.00e+00	0	44	102	1048576	14	4515
2026-01-24 23:25:51.84	142.88	26.82	-27.1	-28.8	15.5	0.00e+00	0	44	102	1048576	14	4369
2026-01-24 23:25:52.84	143.10	26.70	-27.0	-28.5	15.7	0.00e+00	0	44	102	1048576	14	4282
2026-01-24 23:25:53.85	143.32	26.58	-26.9	-28.4	15.7	0.00e+00	0	44	102	1048576	14	4265
2026-01-24 23:25:54.86	143.53	26.46	-26.9	-28.8	15.7	0.00e+00	0	44	102	1048576	13	4492
2026-01-24 23:25:55.86	143.75	26.34	-26.8	-28.6	15.8	0.00e+00	0	44	102	1048576	13	4429
2026-01-24 23:25:56.87	143.96	26.21	-26.9	-28.7	15.8	0.00e+00	0	44	102	1048576	13	4455
2026-01-24 23:25:57.88	144.17	26.09	-27.2	-28.9	15.4	0.00e+00	0	44	102	1048576	14	4400
2026-01-24 23:25:58.88	144.38	25.97	-27.4	-29.5	15.1	0.00e+00	0	44	102	1048576	14	4562
2026-01-24 23:25:59.89	144.59	25.85	-27.2	-28.9	15.4	0.00e+00	0	44	102	1048576	14	4400
2026-01-24 23:26:00.90	144.80	25.73	-26.9	-28.3	15.7	0.00e+00	0	44	102	1048576	14	4236
2026-01-24 23:26:01.90	145.00	25.61	-26.8	-28.6	15.8	0.00e+00	0	44	102	1048576	13	4440
2026-01-24 23:26:02.91	145.21	25.49	-26.8	-28.6	15.8	0.00e+00	0	44	102	1048576	13	4417
2026-01-24 23:26:03.91	145.41	25.37	-27.0	-29.0	15.6	0.00e+00	0	44	102	1048576	13	4529
2026-01-24 23:26:04.92	145.61	25.24	-26.8	-28.6	15.8	0.00e+00	0	44	102	1048576	13	4431
2026-01-24 23:26:05.92	145.81	25.13	-27.1	-28.8	15.4	0.00e+00	0	44	102	1048576	14	4374
2026-01-24 23:26:06.93	146.01	25.00	-26.9	-28.3	15.7	1.50e-06	0	44	102	1048576	14	4225
2026-01-24 23:26:07.94	146.20	24.88	-26.7	-28.4	15.9	0.00e+00	0	44	102	1048576	13	4388
2026-01-24 23:26:08.95	146.40	24.76	-26.9	-28.9	15.6	0.00e+00	0	44	102	1048576	13	4517
2026-01-24 23:26:09.96	146.59	24.64	-26.7	-28.5	15.8	0.00e+00	0	44	102	1048576	13	4408
2026-01-24 23:26:10.96	146.78	24.53	-26.5	-28.0	16.1	0.00e+00	0	44	102	1048576	13	4276
2026-01-24 23:26:11.96	146.97	24.41	-26.5	-27.9	13.8	0.00e+00	0	44	102	1048576	13	4241
2026-01-24 23:26:12.96	147.16	24.29	-26.6	-28.2	14.9	6.10e-06	0	44	102	1048576	13	4314
2026-01-24 23:26:13.97	147.35	24.17	-26.5	-28.1	16.1	0.00e+00	0	44	102	1048576	13	4290
2026-01-24 23:26:14.98	147.54	24.05	-26.5	-28.4	16.0	0.00e+00	0	44	102	1048576	12	4501
2026-01-24 23:26:15.98	147.72	23.93	-26.5	-28.0	16.1	8.30e-06	0	44	102	1048576	13	4279
2026-01-24 23:26:16.97	147.90	23.82	-26.6	-28.3	16.0	0.00e+00	0	44	102	1048576	13	4336
2026-01-24 23:26:17.98	148.08	23.70	-26.7	-28.4	15.9	0.00e+00	0	44	102	1048576	13	4371
2026-01-24 23:26:18.98	148.26	23.58	-26.8	-28.7	15.7	3.44e-03	0	44	102	1048576	13	4463
2026-01-24 23:26:19.99	148.45	23.46	-26.7	-28.5	15.8	0.00e+00	0	44	102	1048576	13	4412
2026-01-24 23:26:20.99	148.62	23.35	-26.9	-28.8	15.6	0.00e+00	0	44	102	1048576	13	4497
2026-01-24 23:26:21.99	148.80	23.23	-26.9	-28.8	15.6	8.30e-06	0	44	102	1048576	13	4496
2026-01-24 23:26:23.00	148.98	23.12	-26.9	-29.0	15.5	0.00e+00	0	44	102	1048576	13	4562
2026-01-24 23:26:24.01	149.15	23.00	-27.0	-28.7	15.4	3.89e-03	0	44	102	1048576	14	4360
2026-01-24 23:26:25.01	149.32	22.88	-27.2	-29.1	15.2	3.91e-03	0	44	102	1048576	14	4463
2026-01-24 23:26:26.02	149.50	22.77	-27.2	-29.0	15.3	0.00e+00	0	44	102	1048576	14	4439
2026-01-24 23:26:27.03	149.67	22.65	-27.2	-29.1	15.2	0.00e+00	0	44	102	1048576	14	4485
2026-01-24 23:26:28.03	149.84	22.54	-27.1	-28.8	15.4	3.74e-03	0	44	102	1048576	14	4382
2026-01-24 23:26:29.03	150.00	22.42	-27.1	-28.8	15.3	0.00e+00	0	44	102	1048576	14	4397
2026-01-24 23:26:30.03	150.17	22.31	-27.0	-28.6	15.4	3.75e-03	0	44	102	1048576	14	4338
2026-01-24 23:26:31.04	150.34	22.19	-27.1	-28.8	15.3	4.04e-03	0	44	102	1048576	14	4396
2026-01-24 23:26:32.04	150.50	22.08	-27.1	-28.7	15.4	0.00e+00	0	44	102	1048576	14	4374
2026-01-24 23:26:33.05	150.66	21.97	-27.1	-28.9	15.3	4.03e-03	0	44	102	1048576	14	4402
2026-01-24 23:26:34.05	150.83	21.85	-27.1	-28.8	15.3	3.98e-03	0	44	102	1048576	14	4384
2026-01-24 23:26:35.05	150.99	21.74	-27.2	-29.0	15.2	0.00e+00	0	44	102	1048576	14	4433
2026-01-24 23:26:36.05	151.15	21.63	-27.3	-29.2	15.1	3.78e-03	0	44	102	1048576	14	4499
2026-01-24 23:26:37.05	151.30	21.52	-27.0	-28.6	15.4	3.45e-03	0	44	102	1048576	14	4314
2026-01-24 23:26:38.06	151.46	21.40	-26.8	-28.2	15.6	0.00e+00	0	44	102	1048576	14	4206
2026-01-24 23:26:39.07	151.62	21.29	-26.8	-28.6	15.6	3.48e-03	0	44	102	1048576	13	4427
2026-01-24 23:26:40.07	151.78	21.18	-26.7	-28.5	15.7	3.83e-03	0	44	102	1048576	13	4406
2026-01-24 23:26:41.07	151.93	21.07	-26.8	-28.6	15.7	0.00e+00	0	44	102	1048576	13	4426
2026-01-24 23:26:42.08	152.08	20.96	-26.9	-28.8	15.5	3.91e-03	0	44	102	1048576	13	4506
2026-01-24 23:26:43.08	152.24	20.85	-26.8	-28.5	15.7	0.00e+00	0	44	102	1048576	13	4424
2026-01-24 23:26:44.08	152.39	20.74	-26.8	-28.6	15.6	0.00e+00	0	44	102	1048576	13	4433
2026-01-24 23:26:45.08	152.54	20.63	-26.8	-28.6	15.6	3.82e-03	0	44	102	1048576	13	4439
2026-01-24 23:26:46.09	152.69	20.52	-26.9	-28.8	15.5	3.56e-03	0	44	102	1048576	13	4517
2026-01-24 23:26:47.09	152.83	20.41	-26.8	-28.6	15.5	0.00e+00	0	44	102	1048576	13	4462
2026-01-24 23:26:48.09	152.98	20.30	-26.9	-28.8	15.4	0.00e+00	0	44	102	1048576	13	4508
2026-01-24 23:26:49.09	153.13	20.19	-27.0	-29.1	15.3	0.00e+00	0	44	102	1048576	13	4582
2026-01-24 23:26:50.10	153.27	20.08	-26.9	-28.9	15.4	1.75e-04	0	44	102	1048576	13	4542
2026-01-24 23:26:51.10	153.41	19.97	-26.9	-29.0	15.4	3.91e-03	0	44	102	1048576	13	4569
2026-01-24 23:26:52.11	153.56	19.86	-26.9	-29.0	15.4	0.00e+00	0	44	102	1048576	13	4554
2026-01-24 23:26:53.11	153.70	19.76	-27.0	-29.0	15.3	0.00e+00	0	44	102	1048576	13	4577
2026-01-24 23:26:54.11	153.84	19.65	-26.9	-29.0	15.3	0.00e+00	0	44	102	1048576	13	4558
2026-01-24 23:26:55.12	153.98	19.54	-27.0	-29.2	15.2	3.50e-03	0	44	102	1048576	13	4625
2026-01-24 23:26:56.13	154.12	19.43	-26.9	-28.9	15.3	2.67e-05	0	44	102	1048576	13	4555
2026-01-24 23:26:57.13	154.26	19.33	-26.8	-28.9	15.4	0.00e+00	0	44	102	1048576	13	4535
2026-01-24 23:26:58.13	154.40	19.22	-26.9	-28.9	15.3	0.00e+00	0	44	102	1048576	13	4549
2026-01-24 23:26:59.13	154.53	19.12	-26.8	-28.7	15.4	0.00e+00	0	44	102	1048576	13	4506
2026-01-24 23:27:00.13	154.67	19.01	-27.0	-29.1	15.2	0.00e+00	0	44	102	1048576	13	4629
2026-01-24 23:27:01.13	154.80	18.91	-26.7	-28.6	15.4	0.00e+00	0	44	102	1048576	13	4475
2026-01-24 23:27:02.13	154.94	18.80	-26.7	-28.6	15.4	0.00e+00	0	44	102	1048576	13	4473
2026-01-24 23:27:03.13	155.07	18.70	-26.8	-28.7	15.4	0.00e+00	0	44	102	1048576	13	4511
2026-01-24 23:27:04.14	155.20	18.59	-26.9	-28.9	15.2	0.00e+00	0	44	102	1048576	13	4565
2026-01-24 23:27:05.14	155.33	18.49	-26.9	-29.1	15.2	0.00e+00	0	44	102	1048576	13	4598
2026-01-24 23:27:06.15	155.46	18.38	-27.1	-28.9	15.1	3.80e-06	0	44	102	1048576	14	4437
2026-01-24 23:27:07.15	155.59	18.28	-27.2	-29.2	14.9	0.00e+00	0	44	102	1048576	14	4525
2026-01-24 23:27:08.16	155.72	18.18	-27.0	-28.8	15.1	7.00e-07	0	44	102	1048576	14	4385
2026-01-24 23:27:09.15	155.85	18.07	-26.8	-28.3	15.4	0.00e+00	0	44	102	1048576	14	4258
2026-01-24 23:27:10.16	155.97	17.97	-26.8	-28.7	15.4	0.00e+00	0	44	102	1048576	13	4500
2026-01-24 23:27:11.16	156.10	17.87	-26.8	-28.8	15.4	0.00e+00	0	44	102	1048576	13	4500
2026-01-24 23:27:12.16	156.22	17.77	-26.9	-28.9	15.3	9.90e-06	0	44	102	1048576	13	4547
2026-01-24 23:27:13.16	156.35	17.66	-26.9	-28.9	15.3	0.00e+00	0	44	102	1048576	13	4559
2026-01-24 23:27:14.17	156.47	17.56	-26.9	-29.0	15.2	0.00e+00	0	44	102	1048576	13	4585
2026-01-24 23:27:15.17	156.59	17.46	-26.9	-29.1	15.2	0.00e+00	0	44	102	1048576	13	4602
2026-01-24 23:27:16.17	156.72	17.36	-27.1	-28.9	15.0	0.00e+00	0	44	102	1048576	14	4445
2026-01-24 23:27:17.17	156.84	17.26	-27.3	-29.4	14.7	0.00e+00	0	44	102	1048576	14	4583
2026-01-24 23:27:18.18	156.96	17.16	-27.2	-29.1	14.9	0.00e+00	0	44	102	1048576	14	4500
2026-01-24 23:27:19.18	157.08	17.06	-27.2	-29.2	14.8	0.00e+00	0	44	102	1048576	14	4509
2026-01-24 23:27:20.19	157.20	16.96	-27.3	-29.4	14.7	1.29e-05	0	44	102	1048576	14	4552
2026-01-24 23:27:21.19	157.32	16.86	-27.4	-29.5	14.7	9.53e-05	0	44	102	1048576	14	4590
2026-01-24 23:27:22.20	157.43	16.76	-27.4	-29.6	14.6	7.00e-07	0	44	102	1048576	14	4622
2026-01-24 23:27:23.20	157.55	16.66	-27.4	-29.7	14.6	1.64e-04	0	44	102	1048576	14	4660
2026-01-24 23:27:24.20	157.67	16.56	-27.5	-29.3	14.5	8.54e-05	0	44	102	1048576	15	4436
2026-01-24 23:27:25.20	157.78	16.47	-27.8	-29.9	14.1	1.50e-06	0	44	102	1048576	15	4615
2026-01-24 23:27:26.20	157.89	16.37	-28.2	-30.3	13.7	1.83e-05	0	44	102	1048576	16	4619
2026-01-24 23:27:27.21	158.01	16.27	-27.9	-29.7	14.1	2.44e-05	0	44	102	1048576	16	4422
2026-01-24 23:27:28.22	158.12	16.17	-27.5	-29.3	14.4	7.00e-07	0	44	102	1048576	15	4446
2026-01-24 23:27:29.22	158.23	16.07	-27.4	-29.2	14.5	0.00e+00	0	44	102	1048576	15	4403
2026-01-24 23:27:30.23	158.35	15.98	-27.5	-29.7	14.5	1.75e-05	0	44	102	1048576	14	4668
2026-01-24 23:27:31.23	158.46	15.88	-27.5	-29.4	14.4	7.00e-07	0	44	102	1048576	15	4463
2026-01-24 23:27:32.24	158.57	15.78	-27.6	-29.5	14.3	7.00e-07	0	44	102	1048576	15	4484
2026-01-24 23:27:33.25	158.68	15.69	-27.6	-29.6	14.2	1.52e-05	0	44	102	1048576	15	4541
2026-01-24 23:27:34.25	158.79	15.59	-27.6	-29.6	14.3	2.20e-06	0	44	102	1048576	15	4535
2026-01-24 23:27:35.25	158.89	15.50	-27.7	-29.7	14.2	7.00e-07	0	44	102	1048576	15	4563
2026-01-24 23:27:36.25	159.00	15.40	-27.6	-29.7	14.2	3.73e-05	0	44	102	1048576	15	4541
2026-01-24 23:27:37.26	159.11	15.31	-27.7	-29.8	14.1	7.00e-07	0	44	102	1048576	15	4589
2026-01-24 23:27:38.25	159.21	15.21	-27.8	-30.1	13.9	2.20e-06	0	44	102	1048576	15	4687
2026-01-24 23:27:39.26	159.32	15.12	-27.8	-30.1	13.9	5.30e-06	0	44	102	1048576	15	4676
2026-01-24 23:27:40.26	159.43	15.02	-27.8	-29.9	14.0	3.80e-06	0	44	102	1048576	15	4625
2026-01-24 23:27:41.26	159.53	14.93	-27.8	-30.1	13.9	3.00e-06	0	44	102	1048576	15	4665
2026-01-24 23:27:42.27	159.63	14.84	-27.7	-29.8	14.1	1.29e-05	0	44	102	1048576	15	4573
2026-01-24 23:27:43.27	159.74	14.74	-27.7	-29.8	14.1	3.00e-06	0	44	102	1048576	15	4572
2026-01-24 23:27:44.27	159.84	14.65	-27.7	-29.9	14.0	7.00e-07	0	44	102	1048576	15	4608
2026-01-24 23:27:45.27	159.94	14.56	-27.9	-30.2	13.8	1.50e-06	0	44	102	1048576	15	4715
2026-01-24 23:27:46.28	160.04	14.46	-27.7	-29.8	14.1	3.00e-06	0	44	102	1048576	15	4584
2026-01-24 23:27:47.28	160.14	14.37	-27.5	-29.5	14.2	7.00e-07	0	44	102	1048576	15	4505
2026-01-24 23:27:48.29	160.24	14.28	-27.5	-29.4	14.3	7.00e-07	0	44	102	1048576	15	4473
2026-01-24 23:27:49.29	160.34	14.19	-27.5	-29.4	14.2	7.00e-07	0	44	102	1048576	15	4497
2026-01-24 23:27:50.29	160.44	14.10	-26.8	-28.8	13.8	7.00e-07	0	44	102	1048576	15	4548
2026-01-24 23:27:51.30	160.54	14.01	-27.5	-30.0	12.3	2.20e-06	0	44	102	1048576	14	4800
2026-01-24 23:27:52.30	160.64	13.92	-27.4	-29.3	14.2	1.50e-06	0	44	102	1048576	15	4464
2026-01-24 23:27:53.30	160.73	13.83	-27.4	-29.7	13.5	7.00e-07	0	44	102	1048576	14	4692
2026-01-24 23:27:54.30	160.83	13.74	-27.4	-29.7	14.2	7.00e-07	0	44	102	1048576	14	4717
2026-01-24 23:27:55.30	160.93	13.65	-27.4	-29.7	14.2	1.50e-06	0	44	102	1048576	14	4720
2026-01-24 23:27:56.30	161.02	13.56	-27.5	-29.9	14.2	3.80e-06	0	44	102	1048576	14	4774
2026-01-24 23:27:57.31	161.12	13.47	-27.5	-29.6	14.1	7.00e-07	0	44	102	1048576	15	4551
2026-01-24 23:27:58.31	161.21	13.38	-27.7	-29.8	13.9	1.30e-04	0	44	102	1048576	15	4617
2026-01-24 23:27:59.32	161.30	13.29	-27.6	-29.7	14.0	4.50e-06	0	44	102	1048576	15	4588
2026-01-24 23:28:00.32	161.40	13.20	-27.7	-29.8	13.9	3.00e-06	0	44	102	1048576	15	4618
2026-01-24 23:28:01.33	161.49	13.11	-27.8	-30.1	13.8	6.10e-06	0	44	102	1048576	15	4683
2026-01-24 23:28:02.34	161.58	13.02	-27.7	-29.9	13.9	3.00e-06	0	44	102	1048576	15	4635
2026-01-24 23:28:03.35	161.68	12.93	-27.8	-30.1	13.8	3.81e-03	0	44	102	1048576	15	4693
2026-01-24 23:28:04.35	161.77	12.85	-27.8	-30.1	13.7	1.51e-04	0	44	102	1048576	15	4700
2026-01-24 23:28:05.36	161.86	12.76	-27.8	-30.2	13.7	1.50e-06	0	44	102	1048576	15	4715
2026-01-24 23:28:06.36	161.95	12.67	-27.9	-30.3	13.7	6.80e-06	0	44	102	1048576	15	4743
2026-01-24 23:28:07.36	162.04	12.58	-27.8	-30.2	13.7	7.47e-05	0	44	102	1048576	15	4741
2026-01-24 23:28:08.37	162.13	12.50	-28.0	-30.5	13.5	3.45e-03	0	44	102	1048576	15	4847
2026-01-24 23:28:09.37	162.21	12.41	-28.1	-30.4	13.4	3.88e-03	0	44	102	1048576	16	4681
2026-01-24 23:28:10.38	162.30	12.32	-28.2	-30.5	13.4	1.37e-05	0	44	102	1048576	16	4703
2026-01-24 23:28:11.38	162.39	12.24	-28.2	-30.5	13.3	2.28e-05	0	44	102	1048576	16	4716
2026-01-24 23:28:12.39	162.48	12.15	-28.1	-30.4	13.4	3.78e-03	0	44	102	1048576	16	4674
2026-01-24 23:28:13.39	162.56	12.07	-28.1	-30.4	13.4	1.14e-05	0	44	102	1048576	16	4681
2026-01-24 23:28:14.39	162.65	11.98	-28.0	-30.6	13.4	3.86e-03	0	44	102	1048576	15	4889
2026-01-24 23:28:15.40	162.74	11.90	-28.2	-30.5	13.3	3.58e-03	0	44	102	1048576	16	4709
2026-01-24 23:28:16.40	162.82	11.81	-28.2	-30.6	13.3	1.52e-05	0	44	102	1048576	16	4734
2026-01-24 23:28:17.40	162.91	11.73	-28.2	-30.6	13.2	3.57e-03	0	44	102	1048576	16	4745
2026-01-24 23:28:18.41	162.99	11.64	-28.1	-30.3	13.4	3.85e-03	0	44	102	1048576	16	4668
2026-01-24 23:28:19.42	163.08	11.56	-28.1	-30.3	13.3	1.29e-05	0	44	102	1048576	16	4667
2026-01-24 23:28:20.42	163.16	11.47	-28.0	-30.3	13.4	3.96e-03	0	44	102	1048576	16	4650
2026-01-24 23:28:21.42	163.24	11.39	-27.8	-30.4	13.4	3.79e-03	0	44	102	1048576	15	4820
2026-01-24 23:28:22.43	163.32	11.31	-27.9	-30.5	13.3	1.14e-05	0	44	102	1048576	15	4880
2026-01-24 23:28:23.43	163.41	11.22	-27.9	-30.5	13.3	3.73e-05	0	44	102	1048576	15	4876
2026-01-24 23:28:24.43	163.49	11.14	-27.8	-30.4	13.3	3.46e-03	0	44	102	1048576	15	4856
2026-01-24 23:28:25.44	163.57	11.06	-27.8	-30.5	13.3	1.60e-05	0	44	102	1048576	15	4898
2026-01-24 23:28:26.43	163.65	10.98	-27.8	-30.4	13.3	2.59e-05	0	44	102	1048576	15	4858
2026-01-24 23:28:27.43	163.73	10.89	-27.8	-30.5	13.3	2.21e-05	0	44	102	1048576	15	4890
2026-01-24 23:28:28.43	163.81	10.81	-27.9	-30.7	13.2	1.98e-05	0	44	102	1048576	15	4956
2026-01-24 23:28:29.43	163.89	10.73	-27.8	-30.5	13.2	3.92e-03	0	44	102	1048576	15	4904
2026-01-24 23:28:30.44	163.97	10.65	-27.9	-30.7	13.1	3.79e-03	0	44	102	1048576	15	4978
2026-01-24 23:28:31.45	164.05	10.57	-27.9	-30.8	13.1	3.35e-05	0	44	102	1048576	15	4985
2026-01-24 23:28:32.45	164.12	10.49	-27.2	-29.9	13.2	3.35e-05	0	44	102	1048576	15	4893
2026-01-24 23:28:33.45	164.20	10.41	-27.9	-30.6	13.2	2.36e-05	0	44	102	1048576	15	4932
2026-01-24 23:28:34.45	164.28	10.33	-27.9	-30.5	13.0	1.75e-05	0	44	102	1048576	15	4894
2026-01-24 23:28:35.46	164.36	10.24	-27.8	-30.4	13.2	3.39e-03	0	44	102	1048576	15	4859
2026-01-24 23:28:36.46	164.43	10.16	-27.8	-30.5	13.3	1.90e-05	0	44	102	1048576	15	4881
2026-01-24 23:28:37.47	164.51	10.08	-27.9	-30.5	13.3	2.51e-05	0	44	102	1048576	15	4879
2026-01-24 23:28:38.47	164.58	10.00	-27.9	-30.5	13.3	3.50e-05	0	44	102	1048576	15	4868
2026-01-24 23:28:39.47	164.66	9.93	-28.0	-30.7	13.2	2.13e-05	0	44	102	1048576	15	4917
2026-01-24 23:28:40.48	164.73	9.85	-28.0	-30.6	13.2	2.36e-05	0	44	102	1048576	15	4904
2026-01-24 23:28:41.48	164.81	9.77	-28.2	-30.6	13.1	5.49e-05	0	44	102	1048576	16	4753
2026-01-24 23:28:42.48	164.88	9.69	-28.2	-30.6	13.1	2.74e-05	0	44	102	1048576	16	4742
2026-01-24 23:28:43.48	164.96	9.61	-28.2	-30.6	13.1	3.12e-05	0	44	102	1048576	16	4759
2026-01-24 23:28:44.48	165.03	9.53	-28.2	-30.6	13.1	7.30e-04	0	44	102	1048576	16	4774
2026-01-24 23:28:45.48	165.10	9.45	-28.2	-30.7	13.0	3.86e-03	0	44	102	1048576	16	4787
2026-01-24 23:28:46.48	165.18	9.38	-28.2	-30.8	13.0	3.43e-05	0	44	102	1048576	16	4816
2026-01-24 23:28:47.48	165.25	9.30	-28.3	-30.9	12.9	6.40e-05	0	44	102	1048576	16	4871
2026-01-24 23:28:48.48	165.32	9.22	-28.3	-31.0	12.8	4.42e-05	0	44	102	1048576	16	4913
2026-01-24 23:28:49.48	165.39	9.14	-28.3	-30.9	12.9	1.19e-03	0	44	102	1048576	16	4879
2026-01-24 23:28:50.48	165.46	9.07	-28.3	-30.9	12.8	9.18e-04	0	44	102	1048576	16	4884
2026-01-24 23:28:51.49	165.53	8.99	-28.3	-30.9	12.8	7.40e-05	0	44	102	1048576	16	4883
2026-01-24 23:28:52.49	165.60	8.91	-28.3	-31.0	12.8	6.02e-05	0	44	102	1048576	16	4914
2026-01-24 23:28:53.50	165.67	8.83	-28.3	-31.0	12.7	9.75e-04	0	44	102	1048576	16	4925
2026-01-24 23:28:54.50	165.74	8.76	-28.3	-31.0	12.8	4.80e-05	0	44	102	1048576	16	4899
2026-01-24 23:28:55.51	165.81	8.68	-28.3	-31.1	12.7	8.88e-04	0	44	102	1048576	16	4926
2026-01-24 23:28:56.52	165.88	8.61	-28.4	-31.1	12.6	7.90e-04	0	44	102	1048576	16	4937
2026-01-24 23:28:57.52	165.95	8.53	-28.4	-31.3	12.6	1.27e-04	0	44	102	1048576	16	4997
2026-01-24 23:28:58.52	166.02	8.45	-28.4	-31.2	12.6	6.93e-04	0	44	102	1048576	16	4954
2026-01-24 23:28:59.52	166.09	8.38	-28.4	-31.1	12.6	7.26e-04	0	44	102	1048576	16	4946
2026-01-24 23:29:00.53	166.16	8.30	-28.4	-31.3	12.5	1.11e-04	0	44	102	1048576	16	4993
2026-01-24 23:29:01.53	166.22	8.23	-28.5	-30.9	12.5	7.74e-04	0	44	102	1048576	17	4742
2026-01-24 23:29:02.53	166.29	8.15	-28.4	-31.3	12.5	1.04e-04	0	44	102	1048576	16	4987
2026-01-24 23:29:03.54	166.36	8.08	-28.5	-31.3	12.5	1.07e-04	0	44	102	1048576	16	5017
2026-01-24 23:29:04.54	166.42	8.00	-28.6	-31.1	12.3	8.73e-04	0	44	102	1048576	17	4831
2026-01-24 23:29:05.55	166.49	7.93	-28.7	-31.4	12.1	1.04e-03	0	44	102	1048576	17	4910
2026-01-24 23:29:06.55	166.56	7.86	-28.6	-31.2	12.2	2.14e-04	0	44	102	1048576	17	4857
2026-01-24 23:29:07.55	166.62	7.78	-28.6	-31.2	12.2	1.31e-03	0	44	102	1048576	17	4849
2026-01-24 23:29:08.56	166.69	7.71	-28.5	-31.0	12.3	1.61e-04	0	44	102	1048576	17	4794
2026-01-24 23:29:09.57	166.75	7.63	-28.6	-31.1	12.3	1.70e-04	0	44	102	1048576	17	4812
2026-01-24 23:29:10.56	166.82	7.56	-28.6	-31.1	12.3	1.33e-03	0	44	102	1048576	17	4825
2026-01-24 23:29:11.57	166.88	7.49	-28.6	-31.2	12.2	1.45e-03	0	44	102	1048576	17	4860
2026-01-24 23:29:12.58	166.94	7.41	-28.7	-31.5	12.0	2.71e-04	0	44	102	1048576	17	4945
2026-01-24 23:29:13.58	167.01	7.34	-32.3	-43.0	3.8	1.16e+00	0	44	104	1048576	24	12442
2026-01-24 23:29:14.59	167.07	7.27	-32.3	-44.4	3.8	1.49e+00	0	44	104	1048576	24	14423
2026-01-24 23:29:15.59	167.13	7.20	-32.2	-44.3	3.8	1.49e+00	0	44	104	1048576	24	14535
2026-01-24 23:29:16.59	167.20	7.12	-32.2	-44.2	3.8	1.49e+00	0	44	104	1048576	24	14337
2026-01-24 23:29:17.59	167.26	7.05	-32.4	-44.4	3.8	1.49e+00	0	44	104	1048576	24	14351
2026-01-24 23:29:18.59	167.32	6.98	-31.7	-44.3	3.8	1.49e+00	0	44	104	1048576	24	15368
2026-01-24 23:29:19.60	167.38	6.91	-33.2	-45.4	3.8	1.49e+00	0	44	104	1048576	26	14715
2026-01-24 23:29:20.61	167.45	6.84	-33.6	-45.8	3.8	1.49e+00	0	44	104	1048576	27	14585

#Closed at: 2026-01-24 23:29:20
#Recorded file [1 MB]: D:/data/31010_260125_021756.dat