passes_logs/2026/01/24/R2M6_AANII_01/R2M6_AANII_01__20260124_010403_FENGYUN_3D_rec.log

#Pass ID: 20260124_010403_FENGYUN 3D
#Satellite: FENGYUN 3D
#Configuration: FENGYUN 3D
#almurnet v.1.7.20240730
#Start time: 2026-01-24 01:04:04

#Version: 2.2.20231116
#Station: R2M6_AANII_01
#Location: 30.233357 lon 59.946436 lat
#TLE: 1 43010U 17072A   26022.96745493  .00000490  00000+0  25355-3 0  9999
#TLE: 2 43010  98.9955 354.9072 0002484  95.6139 264.5320 14.19700039424383

#Time	Az	El	Level	Level2	SNR	BER	BlckErr	Temp	State	Recorded	gain1	gain2
2026-01-24 01:04:04.07	28.17	7.03	-29.1	-31.8	5.6	7.70e-01	0	41	0	0	18	4894
2026-01-24 01:04:05.07	28.26	7.09	-30.3	-33.9	5.3	7.87e-01	0	42	104	0	20	5500
2026-01-24 01:04:06.07	28.34	7.16	-30.0	-33.0	9.8	7.74e-03	0	42	0	0	20	5114
2026-01-24 01:04:07.08	28.42	7.23	-30.3	-33.9	9.2	1.40e-02	0	42	102	1048576	20	5446
2026-01-24 01:04:08.08	28.50	7.29	-30.0	-33.1	9.8	1.18e-02	0	42	102	1048576	20	5125
2026-01-24 01:04:09.09	28.59	7.36	-29.7	-32.2	10.4	4.29e-03	0	42	102	1048576	20	4797
2026-01-24 01:04:10.09	28.67	7.43	-29.4	-32.1	10.9	1.86e-03	0	42	102	1048576	19	4865
2026-01-24 01:04:11.09	28.75	7.50	-29.2	-31.8	11.4	7.52e-04	0	42	102	1048576	18	4872
2026-01-24 01:04:12.10	28.84	7.56	-29.0	-31.4	11.7	4.58e-04	0	42	102	1048576	18	4741
2026-01-24 01:04:13.10	28.92	7.63	-28.8	-31.4	12.0	2.52e-04	0	42	102	1048576	17	4858
2026-01-24 01:04:14.10	29.01	7.70	-28.9	-31.7	11.8	3.27e-04	0	42	102	1048576	17	4943
2026-01-24 01:04:15.11	29.09	7.77	-28.5	-30.6	12.5	7.20e-05	0	42	102	1048576	17	4588
2026-01-24 01:04:16.12	29.18	7.84	-28.0	-29.9	13.2	1.71e-05	0	42	102	1048576	16	4505
2026-01-24 01:04:17.11	29.26	7.90	-27.6	-29.5	13.6	9.10e-06	0	42	102	1048576	15	4480
2026-01-24 01:04:18.12	29.35	7.97	-27.3	-28.9	14.0	0.00e+00	0	42	102	1048576	15	4327
2026-01-24 01:04:19.12	29.44	8.04	-27.2	-29.2	14.1	0.00e+00	0	42	102	1048576	14	4514
2026-01-24 01:04:20.12	29.53	8.11	-27.3	-29.4	14.0	1.10e-06	0	42	102	1048576	14	4570
2026-01-24 01:04:21.12	29.61	8.18	-27.4	-29.7	13.8	3.40e-06	0	42	102	1048576	14	4666
2026-01-24 01:04:22.12	29.70	8.25	-26.4	-28.2	13.7	0.00e+00	0	42	102	1048576	14	4445
2026-01-24 01:04:23.13	29.79	8.32	-27.1	-28.8	14.4	0.00e+00	0	42	102	1048576	14	4406
2026-01-24 01:04:24.14	29.88	8.39	-26.9	-29.0	14.2	0.00e+00	0	42	102	1048576	13	4562
2026-01-24 01:04:25.15	29.97	8.46	-27.0	-28.6	14.4	0.00e+00	0	42	102	1048576	14	4349
2026-01-24 01:04:26.16	30.06	8.53	-27.0	-28.5	14.6	0.00e+00	0	42	102	1048576	14	4315
2026-01-24 01:04:27.16	30.15	8.59	-27.1	-28.8	14.4	1.10e-06	0	42	102	1048576	14	4406
2026-01-24 01:04:28.16	30.24	8.66	-26.9	-28.9	14.6	0.00e+00	0	42	102	1048576	13	4549
2026-01-24 01:04:29.17	30.33	8.73	-26.8	-28.8	14.7	1.10e-06	0	42	102	1048576	13	4492
2026-01-24 01:04:30.17	30.42	8.80	-26.9	-28.9	14.6	0.00e+00	0	42	102	1048576	13	4544
2026-01-24 01:04:31.18	30.51	8.88	-26.8	-28.7	14.7	1.01e-03	0	42	102	1048576	13	4489
2026-01-24 01:04:32.18	30.61	8.95	-26.9	-28.9	14.7	0.00e+00	0	43	102	1048576	13	4539
2026-01-24 01:04:33.18	30.70	9.02	-26.9	-28.9	14.7	8.96e-04	0	42	102	1048576	13	4523
2026-01-24 01:04:34.18	30.79	9.09	-26.9	-29.0	14.6	0.00e+00	0	42	102	1048576	13	4557
2026-01-24 01:04:35.18	30.88	9.16	-26.8	-28.6	14.8	0.00e+00	0	42	102	1048576	13	4462
2026-01-24 01:04:36.19	30.98	9.23	-26.8	-28.6	14.8	1.12e-03	0	42	102	1048576	13	4445
2026-01-24 01:04:37.19	31.07	9.30	-26.8	-28.7	14.8	0.00e+00	0	43	102	1048576	13	4471
2026-01-24 01:04:38.20	31.17	9.37	-26.8	-28.7	14.8	0.00e+00	0	43	102	1048576	13	4481
2026-01-24 01:04:39.21	31.26	9.44	-26.7	-28.5	14.9	0.00e+00	0	42	102	1048576	13	4421
2026-01-24 01:04:40.21	31.36	9.51	-26.7	-28.5	14.9	1.11e-03	0	43	102	1048576	13	4419
2026-01-24 01:04:41.22	31.46	9.59	-26.9	-28.9	14.6	0.00e+00	0	43	102	1048576	13	4543
2026-01-24 01:04:42.22	31.55	9.66	-26.6	-28.3	15.0	1.14e-03	0	43	102	1048576	13	4366
2026-01-24 01:04:43.23	31.65	9.73	-26.5	-27.9	15.2	1.12e-03	0	43	102	1048576	13	4259
2026-01-24 01:04:44.24	31.75	9.80	-26.4	-27.7	15.4	0.00e+00	0	43	102	1048576	13	4207
2026-01-24 01:04:45.24	31.85	9.87	-26.5	-28.0	15.2	1.07e-03	0	42	102	1048576	13	4279
2026-01-24 01:04:46.24	31.94	9.95	-25.7	-27.4	14.9	0.00e+00	0	43	102	1048576	12	4357
2026-01-24 01:04:47.24	32.04	10.02	-26.3	-28.1	15.5	0.00e+00	0	43	102	1048576	12	4416
2026-01-24 01:04:48.25	32.14	10.09	-26.4	-28.2	14.7	1.08e-03	0	43	102	1048576	12	4437
2026-01-24 01:04:49.26	32.24	10.16	-26.3	-28.1	15.4	1.13e-03	0	43	102	1048576	12	4413
2026-01-24 01:04:50.26	32.34	10.24	-26.3	-28.0	15.5	0.00e+00	0	43	102	1048576	12	4402
2026-01-24 01:04:51.26	32.44	10.31	-26.3	-28.0	15.5	1.12e-03	0	43	102	1048576	12	4392
2026-01-24 01:04:52.26	32.54	10.38	-26.3	-28.1	15.5	1.10e-03	0	43	102	1048576	12	4409
2026-01-24 01:04:53.26	32.65	10.46	-26.4	-28.3	15.3	0.00e+00	0	43	102	1048576	12	4481
2026-01-24 01:04:54.27	32.75	10.53	-26.5	-28.4	15.3	1.14e-03	0	43	102	1048576	12	4517
2026-01-24 01:04:55.27	32.85	10.60	-26.7	-28.4	15.1	1.13e-03	0	43	102	1048576	13	4379
2026-01-24 01:04:56.28	32.95	10.68	-26.8	-28.6	15.0	0.00e+00	0	43	102	1048576	13	4427
2026-01-24 01:04:57.29	33.06	10.75	-26.5	-28.0	15.3	1.06e-03	0	43	102	1048576	13	4266
2026-01-24 01:04:58.29	33.16	10.83	-26.4	-28.2	15.4	1.23e-04	0	43	102	1048576	12	4454
2026-01-24 01:04:59.29	33.27	10.90	-26.3	-28.1	15.5	0.00e+00	0	43	102	1048576	12	4410
2026-01-24 01:05:00.29	33.37	10.97	-26.4	-28.2	15.5	3.77e-05	0	43	102	1048576	12	4441
2026-01-24 01:05:01.29	33.48	11.05	-26.3	-28.1	15.6	8.40e-04	0	43	102	1048576	12	4407
2026-01-24 01:05:02.30	33.58	11.12	-26.3	-28.2	15.5	0.00e+00	0	43	102	1048576	12	4430
2026-01-24 01:05:03.30	33.69	11.20	-26.4	-28.2	15.5	7.66e-04	0	43	102	1048576	12	4443
2026-01-24 01:05:04.30	33.80	11.27	-26.5	-28.0	15.3	8.62e-04	0	43	102	1048576	13	4277
2026-01-24 01:05:05.31	33.91	11.35	-26.4	-27.7	15.5	0.00e+00	0	43	102	1048576	13	4189
2026-01-24 01:05:06.31	34.01	11.42	-26.4	-28.3	15.4	8.57e-04	0	43	102	1048576	12	4486
2026-01-24 01:05:07.32	34.12	11.50	-26.4	-28.3	15.4	1.35e-04	0	43	102	1048576	12	4480
2026-01-24 01:05:08.32	34.23	11.57	-26.3	-28.1	15.6	0.00e+00	0	43	102	1048576	12	4413
2026-01-24 01:05:09.33	34.34	11.65	-26.2	-27.8	15.7	1.41e-04	0	43	102	1048576	12	4321
2026-01-24 01:05:10.33	34.45	11.73	-26.2	-27.7	15.7	1.45e-04	0	43	102	1048576	12	4311
2026-01-24 01:05:11.33	34.56	11.80	-26.2	-27.9	15.7	0.00e+00	0	43	102	1048576	12	4345
2026-01-24 01:05:12.33	34.68	11.88	-26.3	-28.0	15.6	1.41e-04	0	43	102	1048576	12	4378
2026-01-24 01:05:13.34	34.79	11.95	-26.1	-27.6	15.8	7.88e-04	0	43	102	1048576	12	4276
2026-01-24 01:05:14.34	34.90	12.03	-26.0	-27.3	16.0	0.00e+00	0	43	102	1048576	12	4186
2026-01-24 01:05:15.34	35.01	12.11	-26.0	-27.3	16.0	7.66e-05	0	43	102	1048576	12	4195
2026-01-24 01:05:16.35	35.13	12.18	-26.1	-27.5	15.9	6.40e-05	0	43	102	1048576	12	4257
2026-01-24 01:05:17.35	35.24	12.26	-26.0	-27.3	16.0	0.00e+00	0	43	102	1048576	12	4203
2026-01-24 01:05:18.35	35.36	12.34	-26.0	-27.5	15.9	4.50e-06	0	43	102	1048576	12	4242
2026-01-24 01:05:19.35	35.47	12.41	-26.0	-27.5	15.9	0.00e+00	0	43	102	1048576	12	4245
2026-01-24 01:05:20.35	35.59	12.49	-26.1	-27.5	15.9	0.00e+00	0	43	102	1048576	12	4260
2026-01-24 01:05:21.36	35.71	12.57	-26.1	-27.7	15.8	1.10e-06	0	43	102	1048576	12	4296
2026-01-24 01:05:22.36	35.82	12.64	-26.0	-27.5	15.9	0.00e+00	0	43	102	1048576	12	4238
2026-01-24 01:05:23.36	35.94	12.72	-26.0	-27.3	16.1	0.00e+00	0	43	102	1048576	12	4194
2026-01-24 01:05:24.36	36.06	12.80	-26.0	-27.3	16.1	8.46e-05	0	43	102	1048576	12	4191
2026-01-24 01:05:25.36	36.18	12.88	-25.9	-27.7	16.2	9.15e-05	0	43	102	1048576	11	4404
2026-01-24 01:05:26.37	36.30	12.96	-25.9	-27.7	16.2	0.00e+00	0	43	102	1048576	11	4407
2026-01-24 01:05:27.37	36.42	13.03	-25.9	-27.6	16.3	0.00e+00	0	43	102	1048576	11	4383
2026-01-24 01:05:28.37	36.54	13.11	-25.7	-27.2	16.5	3.77e-05	0	43	102	1048576	11	4275
2026-01-24 01:05:29.37	36.66	13.19	-25.6	-26.9	16.7	0.00e+00	0	43	102	1048576	11	4186
2026-01-24 01:05:30.37	36.78	13.27	-25.6	-27.0	16.6	4.50e-06	0	43	102	1048576	11	4212
2026-01-24 01:05:31.37	36.90	13.35	-25.7	-27.2	16.5	0.00e+00	0	43	102	1048576	11	4268
2026-01-24 01:05:32.37	37.03	13.43	-25.7	-27.3	16.4	0.00e+00	0	43	102	1048576	11	4290
2026-01-24 01:05:33.38	37.15	13.51	-25.8	-27.4	16.3	0.00e+00	0	43	102	1048576	11	4338
2026-01-24 01:05:34.38	37.28	13.58	-25.9	-27.7	16.2	0.00e+00	0	43	102	1048576	11	4404
2026-01-24 01:05:35.38	37.40	13.66	-25.8	-27.4	16.4	0.00e+00	0	43	102	1048576	11	4337
2026-01-24 01:05:36.38	37.53	13.74	-25.8	-27.5	16.3	0.00e+00	0	44	102	1048576	11	4359
2026-01-24 01:05:37.38	37.65	13.82	-25.9	-27.6	16.3	0.00e+00	0	43	102	1048576	11	4376
2026-01-24 01:05:38.39	37.78	13.90	-25.9	-27.5	16.3	0.00e+00	0	44	102	1048576	11	4364
2026-01-24 01:05:39.40	37.91	13.98	-26.0	-27.8	16.2	0.00e+00	0	44	102	1048576	11	4441
2026-01-24 01:05:40.40	38.04	14.06	-26.2	-27.7	15.9	1.99e-04	0	43	102	1048576	12	4301
2026-01-24 01:05:41.40	38.17	14.14	-26.2	-27.9	15.8	0.00e+00	0	44	102	1048576	12	4350
2026-01-24 01:05:42.41	38.30	14.22	-26.0	-27.3	16.1	1.03e-04	0	43	102	1048576	12	4194
2026-01-24 01:05:43.42	38.43	14.30	-25.7	-26.8	16.4	0.00e+00	0	43	102	1048576	12	4059
2026-01-24 01:05:44.42	38.56	14.38	-25.6	-26.6	16.5	0.00e+00	0	43	102	1048576	12	4003
2026-01-24 01:05:45.43	38.69	14.46	-25.7	-26.6	16.5	0.00e+00	0	43	102	1048576	12	4004
2026-01-24 01:05:46.43	38.82	14.55	-25.7	-26.7	16.5	0.00e+00	0	43	102	1048576	12	4044
2026-01-24 01:05:47.43	38.96	14.63	-25.6	-26.5	16.6	0.00e+00	0	43	102	1048576	12	3992
2026-01-24 01:05:48.44	39.09	14.71	-25.6	-27.0	16.6	0.00e+00	0	43	102	1048576	11	4215
2026-01-24 01:05:49.44	39.23	14.79	-25.6	-26.9	16.7	0.00e+00	0	43	102	1048576	11	4194
2026-01-24 01:05:50.45	39.36	14.87	-25.5	-26.7	16.8	0.00e+00	0	43	102	1048576	11	4151
2026-01-24 01:05:51.45	39.50	14.95	-25.3	-26.4	17.0	0.00e+00	0	43	102	1048576	11	4066
2026-01-24 01:05:52.45	39.64	15.03	-25.3	-26.7	17.1	0.00e+00	0	43	102	1048576	10	4259
2026-01-24 01:05:53.46	39.77	15.12	-25.2	-26.7	17.1	0.00e+00	0	43	102	1048576	10	4246
2026-01-24 01:05:54.46	39.91	15.20	-25.3	-26.7	17.1	0.00e+00	0	44	102	1048576	10	4260
2026-01-24 01:05:55.46	40.05	15.28	-25.3	-26.8	17.0	0.00e+00	0	43	102	1048576	10	4279
2026-01-24 01:05:56.47	40.19	15.36	-25.2	-26.5	17.2	0.00e+00	0	44	102	1048576	10	4211
2026-01-24 01:05:57.48	40.33	15.44	-25.3	-26.8	16.3	0.00e+00	0	44	102	1048576	10	4285
2026-01-24 01:05:58.48	40.47	15.53	-25.3	-26.9	17.0	0.00e+00	0	44	102	1048576	10	4300
2026-01-24 01:05:59.48	40.62	15.61	-25.3	-26.7	17.1	0.00e+00	0	44	102	1048576	10	4250
2026-01-24 01:06:00.48	40.76	15.69	-25.2	-26.6	17.2	0.00e+00	0	44	102	1048576	10	4240
2026-01-24 01:06:01.49	40.90	15.77	-25.3	-26.8	17.1	0.00e+00	0	43	102	1048576	10	4265
2026-01-24 01:06:02.50	41.05	15.86	-25.5	-26.7	17.1	0.00e+00	0	44	102	1048576	11	4132
2026-01-24 01:06:03.50	41.19	15.94	-25.5	-26.8	17.0	0.00e+00	0	43	102	1048576	11	4147
2026-01-24 01:06:04.51	41.34	16.02	-25.7	-27.1	16.8	0.00e+00	0	43	102	1048576	11	4236
2026-01-24 01:06:05.52	41.49	16.11	-25.7	-27.1	16.8	2.86e-05	0	44	102	1048576	11	4223
2026-01-24 01:06:06.53	41.64	16.19	-25.5	-26.6	17.1	0.00e+00	0	44	102	1048576	11	4102
2026-01-24 01:06:07.53	41.79	16.27	-25.4	-26.4	17.2	0.00e+00	0	44	102	1048576	11	4046
2026-01-24 01:06:08.53	41.93	16.36	-25.3	-26.2	17.4	0.00e+00	0	44	102	1048576	11	3993
2026-01-24 01:06:09.54	42.09	16.44	-25.3	-26.2	17.4	0.00e+00	0	43	102	1048576	11	4007
2026-01-24 01:06:10.54	42.24	16.52	-25.4	-26.4	17.2	0.00e+00	0	43	102	1048576	11	4055
2026-01-24 01:06:11.54	42.39	16.61	-25.3	-26.3	17.3	0.00e+00	0	44	102	1048576	11	4021
2026-01-24 01:06:12.54	42.54	16.69	-25.1	-25.8	17.6	9.04e-05	0	44	102	1048576	11	3918
2026-01-24 01:06:13.54	42.69	16.77	-25.0	-25.6	17.7	0.00e+00	0	44	102	1048576	11	3859
2026-01-24 01:06:14.55	42.85	16.86	-25.0	-25.6	17.7	3.89e-05	0	44	102	1048576	11	3859
2026-01-24 01:06:15.55	43.00	16.94	-25.1	-25.9	17.5	6.80e-06	0	44	102	1048576	11	3926
2026-01-24 01:06:16.55	43.16	17.03	-25.1	-25.9	17.5	0.00e+00	0	44	102	1048576	11	3937
2026-01-24 01:06:17.56	43.31	17.11	-25.2	-26.0	17.5	2.20e-06	0	44	102	1048576	11	3957
2026-01-24 01:06:18.56	43.47	17.20	-25.2	-26.0	17.5	0.00e+00	0	44	102	1048576	11	3958
2026-01-24 01:06:19.56	43.63	17.28	-25.2	-26.0	17.5	0.00e+00	0	43	102	1048576	11	3960
2026-01-24 01:06:20.57	43.79	17.37	-25.1	-25.8	17.5	3.89e-05	0	44	102	1048576	11	3921
2026-01-24 01:06:21.57	43.95	17.45	-25.1	-25.7	17.6	9.49e-05	0	44	102	1048576	11	3892
2026-01-24 01:06:22.57	44.11	17.53	-25.1	-25.9	17.5	0.00e+00	0	44	102	1048576	11	3945
2026-01-24 01:06:23.58	44.27	17.62	-25.3	-26.2	17.4	1.89e-04	0	44	102	1048576	11	4000
2026-01-24 01:06:24.59	44.44	17.71	-25.2	-26.5	17.5	2.09e-04	0	44	102	1048576	10	4202
2026-01-24 01:06:25.59	44.60	17.79	-25.2	-26.5	17.5	0.00e+00	0	44	102	1048576	10	4179
2026-01-24 01:06:26.59	44.76	17.87	-25.1	-26.2	17.6	1.30e-04	0	44	102	1048576	10	4125
2026-01-24 01:06:27.59	44.93	17.96	-24.9	-26.0	17.7	6.40e-05	0	44	102	1048576	10	4069
2026-01-24 01:06:28.60	45.10	18.05	-25.0	-26.1	17.7	0.00e+00	0	44	102	1048576	10	4099
2026-01-24 01:06:29.60	45.26	18.13	-25.0	-26.1	17.7	0.00e+00	0	44	102	1048576	10	4084
2026-01-24 01:06:30.61	45.43	18.22	-25.0	-26.2	17.6	4.50e-06	0	44	102	1048576	10	4121
2026-01-24 01:06:31.61	45.60	18.30	-25.0	-26.1	17.7	0.00e+00	0	44	102	1048576	10	4084
2026-01-24 01:06:32.61	45.77	18.39	-24.8	-25.8	17.7	0.00e+00	0	44	102	1048576	10	4010
2026-01-24 01:06:33.61	45.94	18.47	-24.7	-25.6	17.9	0.00e+00	0	44	102	1048576	10	3966
2026-01-24 01:06:34.62	46.11	18.56	-24.7	-25.5	18.1	0.00e+00	0	44	102	1048576	10	3940
2026-01-24 01:06:35.62	46.29	18.64	-24.7	-25.4	18.1	2.74e-05	0	44	102	1048576	10	3922
2026-01-24 01:06:36.62	46.46	18.73	-24.6	-25.2	18.2	6.75e-05	0	44	102	1048576	10	3871
2026-01-24 01:06:37.63	46.64	18.82	-24.6	-25.3	18.1	0.00e+00	0	44	102	1048576	10	3896
2026-01-24 01:06:38.64	46.81	18.90	-24.8	-25.7	17.9	4.00e-05	0	44	102	1048576	10	3993
2026-01-24 01:06:39.65	46.99	18.99	-24.8	-25.7	17.9	3.98e-04	0	44	102	1048576	10	3993
2026-01-24 01:06:40.65	47.17	19.07	-24.7	-25.4	18.1	0.00e+00	0	44	102	1048576	10	3915
2026-01-24 01:06:41.65	47.35	19.16	-24.6	-25.2	18.2	4.44e-04	0	44	102	1048576	10	3868
2026-01-24 01:06:42.66	47.53	19.25	-24.6	-25.3	18.2	0.00e+00	0	44	102	1048576	10	3892
2026-01-24 01:06:43.66	47.71	19.33	-24.6	-25.3	18.1	0.00e+00	0	44	102	1048576	10	3897
2026-01-24 01:06:44.67	47.89	19.42	-24.7	-25.4	18.1	3.16e-04	0	44	102	1048576	10	3929
2026-01-24 01:06:45.67	48.07	19.50	-24.6	-25.3	18.2	1.27e-04	0	44	102	1048576	10	3884
2026-01-24 01:06:46.67	48.26	19.59	-24.5	-25.0	18.3	0.00e+00	0	44	102	1048576	10	3821
2026-01-24 01:06:47.68	48.44	19.68	-24.4	-25.3	18.4	0.00e+00	0	44	102	1048576	9	4012
2026-01-24 01:06:48.69	48.63	19.76	-24.4	-25.3	18.4	5.86e-04	0	44	102	1048576	9	3998
2026-01-24 01:06:49.70	48.82	19.85	-24.4	-25.4	18.4	0.00e+00	0	44	102	1048576	9	4021
2026-01-24 01:06:50.70	49.00	19.93	-24.3	-25.2	18.5	4.70e-04	0	44	102	1048576	9	3978
2026-01-24 01:06:51.70	49.19	20.02	-24.3	-25.1	18.5	3.76e-04	0	44	102	1048576	9	3945
2026-01-24 01:06:52.70	49.38	20.11	-24.3	-25.1	18.5	0.00e+00	0	44	102	1048576	9	3955
2026-01-24 01:06:53.70	49.57	20.19	-24.2	-25.0	18.6	3.99e-04	0	44	102	1048576	9	3925
2026-01-24 01:06:54.71	49.76	20.28	-24.3	-25.0	18.6	0.00e+00	0	44	102	1048576	9	3934
2026-01-24 01:06:55.72	49.96	20.37	-24.4	-25.3	18.4	0.00e+00	0	44	102	1048576	9	4001
2026-01-24 01:06:56.72	50.15	20.45	-24.5	-25.6	18.3	2.70e-04	0	44	102	1048576	9	4071
2026-01-24 01:06:57.73	50.35	20.54	-24.5	-25.5	18.3	1.30e-04	0	44	102	1048576	9	4059
2026-01-24 01:06:58.74	50.55	20.62	-24.5	-25.6	18.2	0.00e+00	0	44	102	1048576	9	4090
2026-01-24 01:06:59.74	50.74	20.71	-24.6	-25.8	18.2	5.72e-05	0	44	102	1048576	9	4116
2026-01-24 01:07:00.74	50.94	20.79	-24.6	-25.8	18.2	1.25e-05	0	44	102	1048576	9	4130
2026-01-24 01:07:01.75	51.14	20.88	-24.7	-25.9	18.1	0.00e+00	0	44	102	1048576	9	4156
2026-01-24 01:07:02.76	51.34	20.97	-24.5	-25.5	18.3	0.00e+00	0	44	102	1048576	9	4060
2026-01-24 01:07:03.76	51.54	21.05	-24.3	-25.1	18.5	0.00e+00	0	44	102	1048576	9	3947
2026-01-24 01:07:04.77	51.75	21.14	-24.2	-25.0	18.6	0.00e+00	0	44	102	1048576	9	3918
2026-01-24 01:07:05.77	51.95	21.22	-24.4	-25.3	18.5	1.38e-04	0	44	102	1048576	9	4005
2026-01-24 01:07:06.78	52.16	21.31	-24.3	-25.1	18.5	1.57e-04	0	44	102	1048576	9	3956
2026-01-24 01:07:07.79	52.36	21.40	-24.3	-25.1	18.5	0.00e+00	0	44	102	1048576	9	3956
2026-01-24 01:07:08.79	52.57	21.48	-24.4	-25.2	18.5	0.00e+00	0	44	102	1048576	9	3990
2026-01-24 01:07:09.80	52.78	21.57	-24.3	-25.2	18.5	3.09e-04	0	44	102	1048576	9	3981
2026-01-24 01:07:10.80	52.99	21.65	-24.4	-25.3	18.5	0.00e+00	0	44	102	1048576	9	4002
2026-01-24 01:07:11.81	53.20	21.74	-24.5	-25.6	18.3	4.60e-04	0	44	102	1048576	9	4081
2026-01-24 01:07:12.81	53.41	21.82	-24.5	-25.5	18.3	0.00e+00	0	44	102	1048576	9	4062
2026-01-24 01:07:13.82	53.63	21.91	-24.4	-25.3	18.4	0.00e+00	0	44	102	1048576	9	4001
2026-01-24 01:07:14.82	53.84	21.99	-24.3	-25.1	18.6	0.00e+00	0	44	102	1048576	9	3953
2026-01-24 01:07:15.83	54.06	22.08	-24.2	-25.5	18.6	0.00e+00	0	44	102	1048576	8	4165
2026-01-24 01:07:16.83	54.27	22.16	-24.0	-25.0	18.9	0.00e+00	0	44	102	1048576	8	4038
2026-01-24 01:07:17.83	54.49	22.25	-24.0	-24.9	18.9	0.00e+00	0	44	102	1048576	8	4019
2026-01-24 01:07:18.84	54.71	22.33	-24.1	-25.2	18.7	3.28e-04	0	44	102	1048576	8	4098
2026-01-24 01:07:19.84	54.93	22.41	-24.0	-25.0	18.9	0.00e+00	0	44	102	1048576	8	4032
2026-01-24 01:07:20.84	55.15	22.50	-24.0	-25.0	18.9	0.00e+00	0	44	102	1048576	8	4028
2026-01-24 01:07:21.85	55.37	22.58	-24.2	-25.4	18.7	0.00e+00	0	44	102	1048576	8	4135
2026-01-24 01:07:22.85	55.59	22.67	-24.0	-25.1	18.8	0.00e+00	0	44	102	1048576	8	4050
2026-01-24 01:07:23.85	55.82	22.75	-23.9	-24.8	19.0	0.00e+00	0	44	102	1048576	8	3976
2026-01-24 01:07:24.85	56.04	22.83	-23.8	-24.6	19.1	0.00e+00	0	44	102	1048576	8	3947
2026-01-24 01:07:25.85	56.27	22.91	-24.0	-24.9	18.9	0.00e+00	0	44	102	1048576	8	4020
2026-01-24 01:07:26.86	56.50	23.00	-23.9	-24.8	19.0	0.00e+00	0	44	102	1048576	8	3981
2026-01-24 01:07:27.87	56.73	23.08	-23.9	-24.7	19.0	0.00e+00	0	44	102	1048576	8	3967
2026-01-24 01:07:28.88	56.96	23.16	-24.0	-25.0	18.9	0.00e+00	0	44	102	1048576	8	4030
2026-01-24 01:07:29.88	57.19	23.25	-24.1	-25.2	18.8	0.00e+00	0	44	102	1048576	8	4074
2026-01-24 01:07:30.89	57.43	23.33	-24.1	-25.2	18.8	0.00e+00	0	44	102	1048576	8	4089
2026-01-24 01:07:31.90	57.66	23.41	-24.1	-25.2	18.8	0.00e+00	0	44	102	1048576	8	4082
2026-01-24 01:07:32.91	57.90	23.49	-24.1	-25.2	18.8	0.00e+00	0	44	102	1048576	8	4091
2026-01-24 01:07:33.91	58.13	23.58	-23.9	-24.8	19.0	0.00e+00	0	44	102	1048576	8	3992
2026-01-24 01:07:34.91	58.37	23.66	-23.8	-24.5	19.1	0.00e+00	0	44	102	1048576	8	3928
2026-01-24 01:07:35.92	58.61	23.74	-23.7	-24.5	19.2	0.00e+00	0	44	102	1048576	8	3909
2026-01-24 01:07:36.92	58.85	23.82	-23.9	-24.9	19.0	0.00e+00	0	44	102	1048576	8	4001
2026-01-24 01:07:37.92	59.09	23.90	-23.8	-24.5	19.1	2.20e-06	0	44	102	1048576	8	3911
2026-01-24 01:07:38.93	59.34	23.98	-23.7	-24.3	19.2	0.00e+00	0	44	102	1048576	8	3878
2026-01-24 01:07:39.93	59.58	24.06	-23.8	-24.5	19.1	0.00e+00	0	44	102	1048576	8	3917
2026-01-24 01:07:40.94	59.82	24.14	-23.9	-24.7	19.0	0.00e+00	0	44	102	1048576	8	3960
2026-01-24 01:07:41.93	60.07	24.22	-23.8	-24.5	19.2	0.00e+00	0	44	102	1048576	8	3919
2026-01-24 01:07:42.93	60.31	24.30	-23.7	-24.3	19.2	0.00e+00	0	44	102	1048576	8	3880
2026-01-24 01:07:43.94	60.56	24.38	-23.8	-24.5	19.2	0.00e+00	0	44	102	1048576	8	3925
2026-01-24 01:07:44.94	60.81	24.45	-23.5	-24.0	19.4	0.00e+00	0	44	102	1048576	8	3802
2026-01-24 01:07:45.94	61.06	24.53	-23.4	-23.6	19.6	0.00e+00	0	44	102	1048576	8	3717
2026-01-24 01:07:46.95	61.32	24.61	-23.4	-23.8	19.5	0.00e+00	0	44	102	1048576	8	3745
2026-01-24 01:07:47.95	61.57	24.69	-23.6	-24.2	19.3	3.40e-06	0	44	102	1048576	8	3837
2026-01-24 01:07:48.95	61.82	24.76	-23.5	-24.5	19.4	0.00e+00	0	44	102	1048576	7	4023
2026-01-24 01:07:49.96	62.08	24.84	-23.5	-24.4	19.4	1.37e-05	0	44	102	1048576	7	4013
2026-01-24 01:07:50.96	62.34	24.92	-23.6	-24.7	19.3	4.80e-05	0	44	102	1048576	7	4076
2026-01-24 01:07:51.97	62.60	24.99	-23.4	-24.1	19.6	0.00e+00	0	44	102	1048576	7	3940
2026-01-24 01:07:52.98	62.86	25.07	-23.2	-23.9	19.7	0.00e+00	0	44	102	1048576	7	3876
2026-01-24 01:07:53.98	63.12	25.14	-23.3	-24.0	19.7	1.48e-05	0	44	102	1048576	7	3896
2026-01-24 01:07:54.99	63.38	25.22	-23.2	-23.9	19.7	0.00e+00	0	44	102	1048576	7	3878
2026-01-24 01:07:55.99	63.65	25.29	-23.5	-24.4	19.4	0.00e+00	0	44	102	1048576	7	3989
2026-01-24 01:07:56.99	63.91	25.37	-23.4	-24.1	19.6	0.00e+00	0	44	102	1048576	7	3939
2026-01-24 01:07:58.00	64.18	25.44	-23.3	-24.1	19.6	0.00e+00	0	44	102	1048576	7	3936
2026-01-24 01:07:59.00	64.44	25.51	-23.5	-24.5	19.4	0.00e+00	0	44	102	1048576	7	4018
2026-01-24 01:08:00.01	64.71	25.59	-23.3	-24.1	19.6	0.00e+00	0	44	102	1048576	7	3941
2026-01-24 01:08:01.02	64.98	25.66	-23.2	-23.8	19.8	0.00e+00	0	44	102	1048576	7	3857
2026-01-24 01:08:02.02	65.25	25.73	-23.2	-23.7	19.8	0.00e+00	0	44	102	1048576	7	3844
2026-01-24 01:08:03.02	65.52	25.80	-23.0	-23.5	19.9	0.00e+00	0	44	102	1048576	7	3785
2026-01-24 01:08:04.03	65.80	25.87	-23.1	-23.6	19.8	0.00e+00	0	44	102	1048576	7	3823
2026-01-24 01:08:05.04	66.08	25.94	-23.2	-23.8	19.8	0.00e+00	0	44	102	1048576	7	3854
2026-01-24 01:08:06.04	66.35	26.01	-23.3	-23.9	19.7	0.00e+00	0	44	102	1048576	7	3895
2026-01-24 01:08:07.05	66.63	26.08	-23.2	-23.9	19.7	0.00e+00	0	44	102	1048576	7	3884
2026-01-24 01:08:08.05	66.91	26.15	-23.4	-24.1	19.6	0.00e+00	0	44	102	1048576	7	3942
2026-01-24 01:08:09.05	67.18	26.22	-23.2	-23.8	19.8	4.80e-05	0	44	102	1048576	7	3871
2026-01-24 01:08:10.06	67.47	26.29	-23.2	-23.9	19.7	0.00e+00	0	44	102	1048576	7	3879
2026-01-24 01:08:11.06	67.75	26.35	-23.4	-24.2	19.6	1.02e-04	0	44	102	1048576	7	3947
2026-01-24 01:08:12.07	68.03	26.42	-23.2	-23.8	19.8	0.00e+00	0	44	102	1048576	7	3871
2026-01-24 01:08:13.07	68.31	26.49	-23.2	-23.8	19.8	0.00e+00	0	44	102	1048576	7	3864
2026-01-24 01:08:14.07	68.60	26.55	-23.2	-23.8	19.8	0.00e+00	0	44	102	1048576	7	3856
2026-01-24 01:08:15.08	68.88	26.62	-23.3	-24.0	19.7	0.00e+00	0	44	102	1048576	7	3902
2026-01-24 01:08:16.07	69.17	26.68	-23.3	-24.0	19.7	0.00e+00	0	44	102	1048576	7	3913
2026-01-24 01:08:17.08	69.46	26.75	-23.1	-23.7	19.9	0.00e+00	0	44	102	1048576	7	3829
2026-01-24 01:08:18.08	69.75	26.81	-23.1	-23.6	19.9	1.80e-04	0	44	102	1048576	7	3809
2026-01-24 01:08:19.09	70.04	26.87	-23.1	-23.7	19.8	0.00e+00	0	44	102	1048576	7	3826
2026-01-24 01:08:20.09	70.33	26.93	-23.0	-23.3	20.0	2.33e-04	0	44	102	1048576	7	3740
2026-01-24 01:08:21.10	70.62	26.99	-23.0	-23.4	20.0	1.86e-04	0	44	102	1048576	7	3765
2026-01-24 01:08:22.09	70.91	27.05	-23.1	-23.7	19.6	0.00e+00	0	44	102	1048576	7	3860
2026-01-24 01:08:23.10	71.21	27.11	-23.1	-23.7	19.6	6.98e-05	0	44	102	1048576	7	3866
2026-01-24 01:08:24.10	71.51	27.17	-23.1	-23.7	19.7	0.00e+00	0	44	102	1048576	7	3855
2026-01-24 01:08:25.11	71.81	27.23	-23.2	-23.9	19.6	0.00e+00	0	44	102	1048576	7	3893
2026-01-24 01:08:26.11	72.10	27.29	-23.3	-24.2	19.4	2.05e-05	0	44	102	1048576	7	3961
2026-01-24 01:08:27.11	72.40	27.35	-23.1	-23.7	19.7	1.48e-05	0	44	102	1048576	7	3852
2026-01-24 01:08:28.12	72.70	27.40	-23.0	-23.5	19.8	0.00e+00	0	44	102	1048576	7	3814
2026-01-24 01:08:29.12	73.00	27.46	-23.1	-23.7	19.7	1.37e-05	0	44	102	1048576	7	3847
2026-01-24 01:08:30.13	73.31	27.51	-23.2	-23.9	19.5	1.48e-05	0	44	102	1048576	7	3906
2026-01-24 01:08:31.13	73.61	27.57	-23.1	-23.6	19.7	0.00e+00	0	44	102	1048576	7	3832
2026-01-24 01:08:32.14	73.92	27.62	-23.1	-23.7	19.6	0.00e+00	0	44	102	1048576	7	3850
2026-01-24 01:08:33.14	74.22	27.67	-23.0	-23.5	19.8	0.00e+00	0	44	102	1048576	7	3796
2026-01-24 01:08:34.14	74.53	27.73	-23.1	-23.6	19.7	0.00e+00	0	44	102	1048576	7	3841
2026-01-24 01:08:35.15	74.84	27.78	-23.2	-23.8	19.6	1.37e-05	0	44	102	1048576	7	3882
2026-01-24 01:08:36.16	75.15	27.83	-23.0	-23.4	19.8	6.40e-05	0	44	102	1048576	7	3778
2026-01-24 01:08:37.16	75.46	27.88	-23.0	-23.6	19.7	0.00e+00	0	44	102	1048576	7	3818
2026-01-24 01:08:38.16	75.77	27.93	-22.9	-23.3	19.9	0.00e+00	0	44	102	1048576	7	3752
2026-01-24 01:08:39.16	76.08	27.97	-22.9	-23.2	19.9	1.36e-04	0	44	102	1048576	7	3734
2026-01-24 01:08:40.17	76.39	28.02	-23.0	-23.4	19.8	0.00e+00	0	44	102	1048576	7	3784
2026-01-24 01:08:41.17	76.70	28.07	-22.9	-23.3	19.8	9.10e-06	0	44	102	1048576	7	3762
2026-01-24 01:08:42.17	77.01	28.11	-23.0	-23.4	19.8	0.00e+00	0	44	102	1048576	7	3779
2026-01-24 01:08:43.17	77.33	28.16	-22.9	-23.3	19.8	0.00e+00	0	44	102	1048576	7	3766
2026-01-24 01:08:44.18	77.65	28.20	-22.8	-23.1	20.0	1.10e-06	0	44	102	1048576	7	3709
2026-01-24 01:08:45.18	77.96	28.24	-22.8	-23.0	20.0	0.00e+00	0	44	102	1048576	7	3694
2026-01-24 01:08:46.18	78.28	28.29	-22.7	-23.3	20.1	0.00e+00	0	44	102	1048576	6	3853
2026-01-24 01:08:47.18	78.60	28.33	-22.8	-23.5	20.0	0.00e+00	0	44	102	1048576	6	3915
2026-01-24 01:08:48.18	78.91	28.37	-22.9	-23.7	19.9	0.00e+00	0	44	102	1048576	6	3958
2026-01-24 01:08:49.18	79.23	28.41	-22.9	-23.7	19.2	0.00e+00	0	44	102	1048576	6	3978
2026-01-24 01:08:50.19	79.55	28.44	-22.8	-23.6	19.9	0.00e+00	0	44	102	1048576	6	3940
2026-01-24 01:08:51.19	79.88	28.48	-22.9	-23.7	19.9	0.00e+00	0	44	102	1048576	6	3966
2026-01-24 01:08:52.19	80.20	28.52	-22.8	-23.5	20.0	0.00e+00	0	44	102	1048576	6	3920
2026-01-24 01:08:53.19	80.52	28.55	-22.8	-23.5	20.0	0.00e+00	0	44	102	1048576	6	3921
2026-01-24 01:08:54.20	80.84	28.59	-22.8	-23.6	19.9	0.00e+00	0	44	102	1048576	6	3946
2026-01-24 01:08:55.20	81.17	28.62	-22.7	-23.4	20.0	0.00e+00	0	44	102	1048576	6	3896
2026-01-24 01:08:56.20	81.49	28.66	-22.8	-23.6	19.9	0.00e+00	0	44	102	1048576	6	3927
2026-01-24 01:08:57.21	81.82	28.69	-23.0	-23.9	19.8	0.00e+00	0	44	102	1048576	6	4015
2026-01-24 01:08:58.21	82.14	28.72	-23.1	-24.2	19.6	0.00e+00	0	44	102	1048576	6	4092
2026-01-24 01:08:59.22	82.47	28.75	-23.0	-24.0	19.7	0.00e+00	0	44	102	1048576	6	4034
2026-01-24 01:09:00.22	82.80	28.78	-22.9	-23.8	19.8	0.00e+00	0	44	102	1048576	6	3991
2026-01-24 01:09:01.23	83.13	28.81	-23.0	-24.0	19.7	0.00e+00	0	44	102	1048576	6	4027
2026-01-24 01:09:02.23	83.46	28.84	-23.3	-24.5	19.5	0.00e+00	0	44	102	1048576	6	4149
2026-01-24 01:09:03.23	83.78	28.86	-23.1	-24.2	19.6	0.00e+00	0	44	102	1048576	6	4087
2026-01-24 01:09:04.23	84.11	28.89	-23.3	-24.5	19.5	0.00e+00	0	44	102	1048576	6	4161
2026-01-24 01:09:05.24	84.45	28.91	-23.2	-24.3	19.6	0.00e+00	0	44	102	1048576	6	4110
2026-01-24 01:09:06.24	84.77	28.93	-23.1	-24.2	19.6	0.00e+00	0	44	102	1048576	6	4083
2026-01-24 01:09:07.25	85.11	28.96	-23.1	-24.2	19.6	6.80e-06	0	44	102	1048576	6	4071
2026-01-24 01:09:08.25	85.44	28.98	-23.1	-24.1	19.7	3.54e-05	0	44	102	1048576	6	4059
2026-01-24 01:09:09.25	85.77	29.00	-22.9	-23.7	19.8	0.00e+00	0	44	102	1048576	6	3973
2026-01-24 01:09:10.25	86.10	29.02	-22.7	-23.3	20.0	3.89e-05	0	44	102	1048576	6	3864
2026-01-24 01:09:11.26	86.44	29.04	-22.7	-23.3	20.1	1.83e-05	0	44	102	1048576	6	3856
2026-01-24 01:09:12.27	86.77	29.05	-22.8	-23.6	19.9	0.00e+00	0	44	102	1048576	6	3931
2026-01-24 01:09:13.28	87.11	29.07	-22.8	-23.5	19.9	1.37e-05	0	44	102	1048576	6	3921
2026-01-24 01:09:14.28	87.44	29.09	-22.8	-23.6	19.9	5.70e-06	0	44	102	1048576	6	3925
2026-01-24 01:09:15.28	87.77	29.10	-22.8	-23.5	20.0	0.00e+00	0	44	102	1048576	6	3923
2026-01-24 01:09:16.29	88.11	29.11	-22.7	-23.4	20.0	0.00e+00	0	44	102	1048576	6	3892
2026-01-24 01:09:17.30	88.45	29.12	-22.6	-23.2	20.1	0.00e+00	0	44	102	1048576	6	3847
2026-01-24 01:09:18.30	88.78	29.14	-22.7	-23.3	20.0	0.00e+00	0	44	102	1048576	6	3876
2026-01-24 01:09:19.31	89.12	29.15	-22.7	-23.4	20.0	0.00e+00	0	44	102	1048576	6	3880
2026-01-24 01:09:20.31	89.45	29.15	-22.7	-23.4	20.0	0.00e+00	0	44	102	1048576	6	3897
2026-01-24 01:09:21.31	89.79	29.16	-22.8	-23.5	20.0	0.00e+00	0	44	102	1048576	6	3908
2026-01-24 01:09:22.31	90.12	29.17	-22.8	-23.6	19.9	0.00e+00	0	44	102	1048576	6	3943
2026-01-24 01:09:23.32	90.46	29.18	-22.9	-23.7	19.8	0.00e+00	0	44	102	1048576	6	3973
2026-01-24 01:09:24.33	90.80	29.18	-22.9	-23.9	19.8	0.00e+00	0	44	102	1048576	6	4003
2026-01-24 01:09:25.34	91.14	29.18	-22.8	-23.6	19.9	0.00e+00	0	44	102	1048576	6	3950
2026-01-24 01:09:26.34	91.47	29.19	-22.8	-23.6	19.9	0.00e+00	0	44	102	1048576	6	3925
2026-01-24 01:09:27.34	91.81	29.19	-22.8	-23.6	19.9	0.00e+00	0	44	102	1048576	6	3923
2026-01-24 01:09:28.34	92.14	29.19	-22.7	-23.4	20.0	0.00e+00	0	44	102	1048576	6	3896
2026-01-24 01:09:29.34	92.48	29.19	-22.8	-23.6	19.9	0.00e+00	0	44	102	1048576	6	3926
2026-01-24 01:09:30.32	92.80	29.19	-23.0	-23.9	19.8	0.00e+00	0	44	102	1048576	6	4022
2026-01-24 01:09:31.33	93.14	29.18	-23.0	-24.1	19.7	0.00e+00	0	44	102	1048576	6	4058
2026-01-24 01:09:32.34	93.48	29.18	-23.0	-23.9	19.7	0.00e+00	0	44	102	1048576	6	4024
2026-01-24 01:09:33.34	93.82	29.18	-22.9	-23.8	19.8	0.00e+00	0	44	102	1048576	6	3993
2026-01-24 01:09:34.35	94.15	29.17	-22.8	-23.6	19.9	0.00e+00	0	44	102	1048576	6	3942
2026-01-24 01:09:35.35	94.49	29.16	-22.9	-23.9	19.8	0.00e+00	0	44	102	1048576	6	4003
2026-01-24 01:09:36.36	94.83	29.16	-23.0	-24.1	19.7	0.00e+00	0	44	102	1048576	6	4062
2026-01-24 01:09:37.36	95.16	29.15	-23.1	-24.2	19.4	0.00e+00	0	44	102	1048576	6	4086
2026-01-24 01:09:38.36	95.50	29.14	-23.1	-24.1	19.6	0.00e+00	0	44	102	1048576	6	4071
2026-01-24 01:09:39.36	95.83	29.13	-23.0	-24.0	19.7	0.00e+00	0	44	102	1048576	6	4030
2026-01-24 01:09:40.37	96.17	29.11	-23.0	-24.0	19.8	0.00e+00	0	44	102	1048576	6	4025
2026-01-24 01:09:41.38	96.50	29.10	-23.0	-23.9	19.8	0.00e+00	0	44	102	1048576	6	4012
2026-01-24 01:09:42.38	96.84	29.09	-23.1	-24.2	19.6	0.00e+00	0	44	102	1048576	6	4073
2026-01-24 01:09:43.39	97.17	29.07	-23.1	-24.1	19.6	0.00e+00	0	44	102	1048576	6	4072
2026-01-24 01:09:44.39	97.51	29.05	-23.0	-24.0	19.7	0.00e+00	0	44	102	1048576	6	4047
2026-01-24 01:09:45.39	97.84	29.04	-23.0	-24.0	19.7	0.00e+00	0	44	102	1048576	6	4047
2026-01-24 01:09:46.39	98.17	29.02	-23.1	-24.2	19.6	0.00e+00	0	44	102	1048576	6	4076
2026-01-24 01:09:47.40	98.51	29.00	-23.1	-24.2	19.6	0.00e+00	0	44	102	1048576	6	4078
2026-01-24 01:09:48.40	98.84	28.98	-22.9	-23.9	19.8	0.00e+00	0	44	102	1048576	6	4004
2026-01-24 01:09:49.41	99.17	28.96	-22.9	-23.9	19.8	0.00e+00	0	44	102	1048576	6	3999
2026-01-24 01:09:50.41	99.50	28.94	-22.9	-23.8	19.8	6.98e-05	0	44	102	1048576	6	3991
2026-01-24 01:09:51.42	99.83	28.91	-22.9	-23.8	19.8	0.00e+00	0	44	102	1048576	6	3994
2026-01-24 01:09:52.42	100.16	28.89	-23.0	-23.9	19.8	1.38e-04	0	44	102	1048576	6	4013
2026-01-24 01:09:53.42	100.49	28.86	-22.9	-23.8	19.8	0.00e+00	0	44	102	1048576	6	3989
2026-01-24 01:09:54.43	100.82	28.84	-23.0	-23.9	19.7	0.00e+00	0	44	102	1048576	6	4018
2026-01-24 01:09:55.43	101.15	28.81	-23.0	-24.0	19.7	3.43e-05	0	44	102	1048576	6	4033
2026-01-24 01:09:56.43	101.48	28.78	-22.9	-23.7	19.8	0.00e+00	0	44	102	1048576	6	3962
2026-01-24 01:09:57.44	101.81	28.75	-22.9	-23.8	19.8	0.00e+00	0	44	102	1048576	6	3987
2026-01-24 01:09:58.45	102.14	28.72	-23.0	-24.0	19.7	0.00e+00	0	44	102	1048576	6	4044
2026-01-24 01:09:59.45	102.47	28.69	-23.0	-24.1	19.7	2.43e-04	0	44	102	1048576	6	4050
2026-01-24 01:10:00.46	102.79	28.66	-22.8	-23.6	19.9	0.00e+00	0	44	102	1048576	6	3931
2026-01-24 01:10:01.47	103.12	28.62	-22.7	-23.4	19.9	2.25e-04	0	44	102	1048576	6	3898
2026-01-24 01:10:02.47	103.45	28.59	-22.8	-23.6	19.9	2.02e-04	0	44	102	1048576	6	3942
2026-01-24 01:10:03.48	103.77	28.56	-22.9	-23.7	19.8	0.00e+00	0	44	102	1048576	6	3973
2026-01-24 01:10:04.49	104.10	28.52	-23.0	-24.0	19.7	6.86e-05	0	44	102	1048576	6	4023
2026-01-24 01:10:05.49	104.42	28.48	-23.1	-24.2	19.5	0.00e+00	0	44	102	1048576	6	4088
2026-01-24 01:10:06.50	104.74	28.44	-23.0	-24.0	19.6	0.00e+00	0	44	102	1048576	6	4045
2026-01-24 01:10:07.50	105.06	28.41	-23.0	-24.0	19.6	5.49e-05	0	44	102	1048576	6	4042
2026-01-24 01:10:08.50	105.38	28.37	-23.1	-24.1	19.6	1.18e-04	0	44	102	1048576	6	4054
2026-01-24 01:10:09.50	105.70	28.33	-23.0	-24.0	19.6	0.00e+00	0	44	102	1048576	6	4045
2026-01-24 01:10:10.51	106.02	28.28	-23.1	-24.1	19.6	2.13e-04	0	44	102	1048576	6	4063
2026-01-24 01:10:11.51	106.34	28.24	-23.2	-24.4	19.5	2.17e-04	0	44	102	1048576	6	4125
2026-01-24 01:10:12.52	106.66	28.20	-23.3	-24.6	19.2	0.00e+00	0	44	102	1048576	6	4184
2026-01-24 01:10:13.52	106.97	28.16	-23.3	-24.6	19.3	1.20e-04	0	44	102	1048576	6	4198
2026-01-24 01:10:14.53	107.29	28.11	-23.3	-24.5	19.4	0.00e+00	0	44	102	1048576	6	4168
2026-01-24 01:10:15.54	107.61	28.06	-23.1	-24.1	19.6	0.00e+00	0	44	102	1048576	6	4069
2026-01-24 01:10:16.54	107.92	28.02	-23.0	-24.1	19.6	0.00e+00	0	44	102	1048576	6	4050
2026-01-24 01:10:17.55	108.24	27.97	-23.0	-24.1	19.6	0.00e+00	0	44	102	1048576	6	4053
2026-01-24 01:10:18.55	108.55	27.92	-23.0	-24.0	19.6	0.00e+00	0	44	102	1048576	6	4040
2026-01-24 01:10:19.56	108.86	27.87	-23.0	-23.9	19.7	0.00e+00	0	44	102	1048576	6	4010
2026-01-24 01:10:20.57	109.17	27.82	-22.9	-23.7	19.8	0.00e+00	0	44	102	1048576	6	3966
2026-01-24 01:10:21.57	109.48	27.77	-23.0	-24.0	19.6	2.05e-05	0	44	102	1048576	6	4026
2026-01-24 01:10:22.57	109.79	27.72	-23.0	-23.9	19.6	0.00e+00	0	44	102	1048576	6	4013
2026-01-24 01:10:23.57	110.09	27.67	-22.9	-23.8	19.7	0.00e+00	0	44	102	1048576	6	3998
2026-01-24 01:10:24.58	110.40	27.62	-23.0	-24.1	19.6	1.10e-06	0	44	102	1048576	6	4058
2026-01-24 01:10:25.58	110.71	27.56	-23.2	-24.4	19.4	0.00e+00	0	44	102	1048576	6	4137
2026-01-24 01:10:26.58	111.01	27.51	-23.2	-24.4	19.4	0.00e+00	0	44	102	1048576	6	4149
2026-01-24 01:10:27.59	111.31	27.45	-23.2	-24.3	19.4	0.00e+00	0	44	102	1048576	6	4124
2026-01-24 01:10:28.58	111.61	27.40	-23.2	-24.5	19.4	0.00e+00	0	44	102	1048576	6	4161
2026-01-24 01:10:29.59	111.92	27.34	-23.2	-24.3	19.4	0.00e+00	0	44	102	1048576	6	4115
2026-01-24 01:10:30.60	112.22	27.28	-23.0	-24.0	19.6	0.00e+00	0	44	102	1048576	6	4030
2026-01-24 01:10:31.60	112.52	27.23	-23.0	-23.9	19.7	1.94e-05	0	44	102	1048576	6	4005
2026-01-24 01:10:32.61	112.82	27.17	-22.9	-23.8	19.7	0.00e+00	0	44	102	1048576	6	3986
2026-01-24 01:10:33.61	113.11	27.11	-23.1	-24.1	19.6	2.28e-05	0	44	102	1048576	6	4058
2026-01-24 01:10:34.60	113.40	27.05	-23.2	-24.3	19.4	4.46e-05	0	44	102	1048576	6	4112
2026-01-24 01:10:35.61	113.70	26.99	-23.4	-24.8	19.2	0.00e+00	0	44	102	1048576	6	4232
2026-01-24 01:10:36.62	114.00	26.93	-23.4	-24.8	19.2	5.14e-05	0	44	102	1048576	6	4249
2026-01-24 01:10:37.62	114.29	26.86	-23.2	-24.5	19.3	5.26e-05	0	44	102	1048576	6	4154
2026-01-24 01:10:38.62	114.58	26.80	-23.2	-24.3	19.4	0.00e+00	0	44	102	1048576	6	4121
2026-01-24 01:10:39.62	114.87	26.74	-23.1	-24.2	19.4	2.63e-05	0	44	102	1048576	6	4091
2026-01-24 01:10:40.62	115.16	26.67	-23.1	-24.2	19.4	3.31e-05	0	44	102	1048576	6	4098
2026-01-24 01:10:41.63	115.45	26.61	-23.2	-24.4	19.3	0.00e+00	0	44	102	1048576	6	4135
2026-01-24 01:10:42.62	115.73	26.54	-23.2	-24.3	19.4	1.14e-05	0	44	102	1048576	6	4115
2026-01-24 01:10:43.62	116.01	26.48	-23.1	-24.2	19.5	1.71e-05	0	44	102	1048576	6	4090
2026-01-24 01:10:44.63	116.30	26.41	-23.2	-24.3	19.4	0.00e+00	0	44	102	1048576	6	4119
2026-01-24 01:10:45.63	116.58	26.35	-23.3	-24.6	19.3	4.11e-05	0	44	102	1048576	6	4185
2026-01-24 01:10:46.63	116.86	26.28	-23.4	-24.9	19.1	1.02e-05	0	44	102	1048576	6	4271
2026-01-24 01:10:47.64	117.15	26.21	-23.5	-24.6	19.0	0.00e+00	0	44	102	1048576	7	4071
2026-01-24 01:10:48.64	117.43	26.14	-23.5	-24.6	19.0	0.00e+00	0	44	102	1048576	7	4067
2026-01-24 01:10:49.65	117.71	26.07	-23.6	-24.7	19.0	0.00e+00	0	44	102	1048576	7	4096
2026-01-24 01:10:50.65	117.98	26.00	-23.4	-24.4	19.1	0.00e+00	0	44	102	1048576	7	4021
2026-01-24 01:10:51.66	118.26	25.93	-23.2	-24.0	19.3	1.10e-06	0	44	102	1048576	7	3920
2026-01-24 01:10:52.67	118.54	25.86	-23.3	-24.0	19.3	0.00e+00	0	44	102	1048576	7	3934
2026-01-24 01:10:53.67	118.81	25.79	-23.3	-24.1	19.3	0.00e+00	0	44	102	1048576	7	3949
2026-01-24 01:10:54.67	119.08	25.72	-23.4	-24.3	19.2	0.00e+00	0	44	102	1048576	7	4007
2026-01-24 01:10:55.67	119.35	25.65	-23.5	-24.6	19.0	0.00e+00	0	44	102	1048576	7	4064
2026-01-24 01:10:56.68	119.63	25.57	-23.5	-24.6	19.0	0.00e+00	0	44	102	1048576	7	4077
2026-01-24 01:10:57.69	119.90	25.50	-23.6	-24.7	18.9	0.00e+00	0	44	102	1048576	7	4097
2026-01-24 01:10:58.69	120.16	25.43	-23.4	-24.4	19.1	0.00e+00	0	44	102	1048576	7	4020
2026-01-24 01:10:59.69	120.43	25.35	-23.4	-24.3	19.1	0.00e+00	0	44	102	1048576	7	3991
2026-01-24 01:11:00.69	120.69	25.28	-23.4	-24.3	19.1	0.00e+00	0	44	102	1048576	7	3990
2026-01-24 01:11:01.70	120.96	25.20	-23.4	-24.3	19.1	0.00e+00	0	44	102	1048576	7	4013
2026-01-24 01:11:02.71	121.22	25.13	-23.4	-24.3	19.1	0.00e+00	0	44	102	1048576	7	4016
2026-01-24 01:11:03.71	121.49	25.05	-23.4	-24.4	19.1	0.00e+00	0	44	102	1048576	7	4019
2026-01-24 01:11:04.71	121.75	24.98	-23.4	-24.2	19.1	0.00e+00	0	44	102	1048576	7	3984
2026-01-24 01:11:05.71	122.00	24.90	-23.4	-24.3	19.1	0.00e+00	0	44	102	1048576	7	3990
2026-01-24 01:11:06.72	122.26	24.82	-23.6	-24.7	18.9	0.00e+00	0	44	102	1048576	7	4096
2026-01-24 01:11:07.72	122.52	24.75	-23.6	-24.9	18.8	0.00e+00	0	44	102	1048576	7	4144
2026-01-24 01:11:08.72	122.77	24.67	-23.7	-24.9	18.8	0.00e+00	0	44	102	1048576	7	4159
2026-01-24 01:11:09.72	123.03	24.59	-23.6	-24.8	18.9	0.00e+00	0	44	102	1048576	7	4122
2026-01-24 01:11:10.72	123.28	24.51	-23.5	-24.6	18.9	0.00e+00	0	44	102	1048576	7	4066
2026-01-24 01:11:11.73	123.53	24.43	-23.6	-24.8	18.9	0.00e+00	0	44	102	1048576	7	4116
2026-01-24 01:11:12.73	123.78	24.36	-23.5	-24.6	19.0	0.00e+00	0	44	102	1048576	7	4066
2026-01-24 01:11:13.73	124.03	24.28	-23.5	-24.5	19.0	0.00e+00	0	44	102	1048576	7	4057
2026-01-24 01:11:14.73	124.28	24.20	-23.5	-24.6	18.9	0.00e+00	0	44	102	1048576	7	4078
2026-01-24 01:11:15.74	124.53	24.12	-23.5	-24.5	18.2	0.00e+00	0	44	102	1048576	7	4054
2026-01-24 01:11:16.74	124.77	24.04	-23.4	-24.3	18.0	0.00e+00	0	44	102	1048576	7	3993
2026-01-24 01:11:17.74	125.02	23.96	-23.4	-24.4	19.0	0.00e+00	0	44	102	1048576	7	4020
2026-01-24 01:11:18.75	125.26	23.88	-23.4	-24.4	19.0	0.00e+00	0	44	102	1048576	7	4026
2026-01-24 01:11:19.75	125.50	23.80	-23.4	-24.4	19.0	0.00e+00	0	44	102	1048576	7	4039
2026-01-24 01:11:20.75	125.74	23.71	-23.6	-24.7	18.9	0.00e+00	0	44	102	1048576	7	4111
2026-01-24 01:11:21.75	125.98	23.63	-23.5	-24.5	19.0	0.00e+00	0	44	102	1048576	7	4041
2026-01-24 01:11:22.76	126.22	23.55	-23.4	-24.3	19.1	0.00e+00	0	44	102	1048576	7	3997
2026-01-24 01:11:23.77	126.46	23.47	-23.5	-24.5	19.0	1.10e-06	0	44	102	1048576	7	4041
2026-01-24 01:11:24.78	126.70	23.39	-23.5	-24.5	19.0	1.84e-04	0	44	102	1048576	7	4034
2026-01-24 01:11:25.78	126.93	23.30	-23.5	-24.5	18.9	0.00e+00	0	44	102	1048576	7	4055
2026-01-24 01:11:26.79	127.17	23.22	-23.7	-24.9	18.7	0.00e+00	0	44	102	1048576	7	4155
2026-01-24 01:11:27.79	127.40	23.14	-23.8	-25.2	18.6	0.00e+00	0	44	102	1048576	7	4219
2026-01-24 01:11:28.79	127.63	23.05	-24.0	-25.6	18.4	2.49e-04	0	44	102	1048576	7	4329
2026-01-24 01:11:29.79	127.86	22.97	-24.0	-25.0	18.5	0.00e+00	0	44	102	1048576	8	4078
2026-01-24 01:11:30.80	128.09	22.89	-23.9	-24.9	18.5	0.00e+00	0	44	102	1048576	8	4042
2026-01-24 01:11:31.81	128.32	22.80	-24.0	-25.0	18.4	2.10e-04	0	44	102	1048576	8	4079
2026-01-24 01:11:32.81	128.55	22.72	-23.9	-25.0	18.5	3.40e-06	0	44	102	1048576	8	4060
2026-01-24 01:11:33.82	128.77	22.63	-23.9	-25.0	18.5	1.06e-04	0	44	102	1048576	8	4062
2026-01-24 01:11:34.82	129.00	22.55	-24.1	-25.3	18.3	0.00e+00	0	44	102	1048576	8	4134
2026-01-24 01:11:35.82	129.22	22.47	-24.1	-25.4	18.3	0.00e+00	0	44	102	1048576	8	4156
2026-01-24 01:11:36.83	129.44	22.38	-24.1	-25.3	18.3	7.55e-05	0	44	102	1048576	8	4132
2026-01-24 01:11:37.83	129.66	22.30	-24.1	-25.3	18.3	6.75e-05	0	44	102	1048576	8	4127
2026-01-24 01:11:38.84	129.88	22.21	-24.1	-25.2	18.3	0.00e+00	0	44	102	1048576	8	4110
2026-01-24 01:11:39.85	130.10	22.13	-24.1	-25.4	18.2	0.00e+00	0	44	102	1048576	8	4160
2026-01-24 01:11:40.85	130.32	22.04	-24.2	-25.5	18.2	2.16e-04	0	44	102	1048576	8	4183
2026-01-24 01:11:41.85	130.53	21.96	-24.5	-26.1	17.9	0.00e+00	0	44	102	1048576	8	4345
2026-01-24 01:11:42.86	130.75	21.87	-24.3	-25.2	18.0	2.25e-04	0	44	102	1048576	9	4011
2026-01-24 01:11:43.86	130.96	21.79	-24.1	-24.8	18.3	8.58e-05	0	44	102	1048576	9	3903
2026-01-24 01:11:44.87	131.18	21.70	-24.0	-24.6	18.4	0.00e+00	0	44	102	1048576	9	3865
2026-01-24 01:11:45.87	131.39	21.61	-24.0	-24.7	18.3	4.00e-05	0	44	102	1048576	9	3874
2026-01-24 01:11:46.87	131.60	21.53	-24.0	-24.6	18.4	0.00e+00	0	44	102	1048576	9	3854
2026-01-24 01:11:47.88	131.81	21.44	-24.0	-24.5	18.4	0.00e+00	0	44	102	1048576	9	3841
2026-01-24 01:11:48.88	132.01	21.36	-24.1	-24.8	18.3	5.49e-05	0	44	102	1048576	9	3897
2026-01-24 01:11:49.88	132.22	21.27	-24.0	-24.7	18.3	1.70e-04	0	44	102	1048576	9	3885
2026-01-24 01:11:50.89	132.43	21.18	-24.1	-24.7	18.3	0.00e+00	0	44	102	1048576	9	3890
2026-01-24 01:11:51.89	132.63	21.10	-24.2	-25.1	18.1	2.72e-04	0	44	102	1048576	9	3971
2026-01-24 01:11:52.89	132.83	21.01	-24.2	-25.1	18.1	2.23e-04	0	44	102	1048576	9	3986
2026-01-24 01:11:53.90	133.04	20.92	-24.4	-25.4	17.9	1.83e-05	0	44	102	1048576	9	4068
2026-01-24 01:11:54.90	133.24	20.84	-24.4	-25.5	17.9	3.44e-04	0	44	102	1048576	9	4086
2026-01-24 01:11:55.90	133.44	20.75	-24.5	-25.7	17.8	0.00e+00	0	44	102	1048576	9	4141
2026-01-24 01:11:56.90	133.63	20.67	-24.5	-25.7	17.7	1.37e-05	0	44	102	1048576	9	4142
2026-01-24 01:11:57.91	133.83	20.58	-24.5	-25.8	17.7	5.60e-05	0	44	102	1048576	9	4161
2026-01-24 01:11:58.92	134.03	20.49	-24.7	-26.2	17.5	0.00e+00	0	44	102	1048576	9	4260
2026-01-24 01:11:59.93	134.23	20.40	-24.6	-26.0	17.6	0.00e+00	0	44	102	1048576	9	4207
2026-01-24 01:12:00.94	134.42	20.32	-24.6	-26.0	17.6	7.66e-05	0	44	102	1048576	9	4210
2026-01-24 01:12:01.95	134.62	20.23	-24.6	-25.8	17.7	3.23e-04	0	44	102	1048576	9	4164
2026-01-24 01:12:02.95	134.81	20.14	-24.6	-25.9	17.6	3.77e-05	0	44	102	1048576	9	4178
2026-01-24 01:12:03.95	135.00	20.06	-24.5	-25.7	17.7	3.41e-04	0	44	102	1048576	9	4141
2026-01-24 01:12:04.95	135.19	19.97	-24.6	-25.9	17.6	0.00e+00	0	44	102	1048576	9	4181
2026-01-24 01:12:05.96	135.38	19.88	-24.6	-26.0	17.6	1.25e-05	0	44	102	1048576	9	4191
2026-01-24 01:12:06.96	135.57	19.80	-24.9	-26.5	17.3	1.14e-05	0	44	102	1048576	9	4336
2026-01-24 01:12:07.97	135.76	19.71	-24.8	-26.4	17.3	0.00e+00	0	44	102	1048576	9	4322
2026-01-24 01:12:08.97	135.94	19.62	-25.1	-26.6	17.0	0.00e+00	0	44	102	1048576	10	4252
2026-01-24 01:12:09.97	136.13	19.54	-25.1	-26.5	17.0	8.69e-05	0	44	102	1048576	10	4220
2026-01-24 01:12:10.97	136.31	19.45	-25.3	-26.9	16.8	0.00e+00	0	44	102	1048576	10	4344
2026-01-24 01:12:11.97	136.50	19.36	-25.1	-26.5	17.0	5.26e-05	0	44	102	1048576	10	4226
2026-01-24 01:12:12.98	136.68	19.28	-25.0	-26.4	17.0	4.92e-05	0	44	102	1048576	10	4193
2026-01-24 01:12:13.98	136.86	19.19	-25.1	-26.5	17.0	0.00e+00	0	44	102	1048576	10	4226
2026-01-24 01:12:14.99	137.04	19.10	-24.9	-26.0	17.2	1.25e-05	0	44	102	1048576	10	4093
2026-01-24 01:12:15.99	137.22	19.02	-24.8	-25.8	17.3	0.00e+00	0	44	102	1048576	10	4048
2026-01-24 01:12:16.99	137.40	18.93	-24.9	-26.0	17.3	0.00e+00	0	44	102	1048576	10	4083
2026-01-24 01:12:17.99	137.57	18.85	-24.8	-25.9	17.3	4.57e-05	0	44	102	1048576	10	4065
2026-01-24 01:12:18.99	137.75	18.76	-25.0	-26.4	17.0	0.00e+00	0	44	102	1048576	10	4195
2026-01-24 01:12:20.00	137.93	18.67	-24.9	-26.1	17.2	1.10e-06	0	44	102	1048576	10	4127
2026-01-24 01:12:21.00	138.10	18.59	-24.8	-25.9	17.3	0.00e+00	0	44	102	1048576	10	4082
2026-01-24 01:12:22.01	138.27	18.50	-24.8	-25.9	17.2	0.00e+00	0	44	102	1048576	10	4090
2026-01-24 01:12:23.01	138.45	18.41	-24.8	-25.8	17.3	0.00e+00	0	44	102	1048576	10	4046
2026-01-24 01:12:24.02	138.62	18.33	-24.8	-25.8	17.3	0.00e+00	0	44	102	1048576	10	4047
2026-01-24 01:12:25.02	138.79	18.24	-25.0	-26.2	17.1	0.00e+00	0	44	102	1048576	10	4153
2026-01-24 01:12:26.02	138.96	18.15	-25.1	-26.4	16.9	0.00e+00	0	44	102	1048576	10	4206
2026-01-24 01:12:27.02	139.13	18.07	-25.1	-26.4	16.9	4.11e-05	0	44	102	1048576	10	4219
2026-01-24 01:12:28.02	139.29	17.98	-25.2	-26.6	16.8	0.00e+00	0	44	102	1048576	10	4269
2026-01-24 01:12:29.03	139.46	17.90	-25.2	-26.6	16.8	1.10e-06	0	44	102	1048576	10	4272
2026-01-24 01:12:30.03	139.63	17.81	-25.2	-26.8	16.7	0.00e+00	0	44	102	1048576	10	4312
2026-01-24 01:12:31.04	139.79	17.72	-25.3	-26.9	16.7	0.00e+00	0	44	102	1048576	10	4339
2026-01-24 01:12:32.04	139.96	17.64	-25.1	-26.6	16.8	0.00e+00	0	44	102	1048576	10	4259
2026-01-24 01:12:33.04	140.12	17.55	-25.1	-26.5	16.9	0.00e+00	0	44	102	1048576	10	4232
2026-01-24 01:12:34.03	140.28	17.47	-25.2	-26.6	16.8	0.00e+00	0	44	102	1048576	10	4274
2026-01-24 01:12:35.04	140.44	17.38	-25.2	-26.7	16.7	0.00e+00	0	44	102	1048576	10	4284
2026-01-24 01:12:36.05	140.60	17.30	-25.2	-26.8	16.7	0.00e+00	0	44	102	1048576	10	4317
2026-01-24 01:12:37.05	140.76	17.21	-25.2	-26.8	16.6	0.00e+00	0	44	102	1048576	10	4319
2026-01-24 01:12:38.04	140.92	17.13	-25.3	-27.0	16.5	0.00e+00	0	44	102	1048576	10	4369
2026-01-24 01:12:39.05	141.08	17.04	-25.3	-26.9	16.5	0.00e+00	0	44	102	1048576	10	4355
2026-01-24 01:12:40.05	141.23	16.96	-25.4	-27.2	16.4	0.00e+00	0	44	102	1048576	10	4426
2026-01-24 01:12:41.05	141.39	16.87	-25.4	-27.2	16.4	0.00e+00	0	44	102	1048576	10	4425
2026-01-24 01:12:42.05	141.55	16.79	-25.5	-26.9	16.3	0.00e+00	0	44	102	1048576	11	4223
2026-01-24 01:12:43.06	141.70	16.70	-25.6	-27.2	16.1	0.00e+00	0	44	102	1048576	11	4307
2026-01-24 01:12:44.07	141.86	16.62	-25.8	-27.5	16.0	0.00e+00	0	44	102	1048576	11	4384
2026-01-24 01:12:45.08	142.01	16.53	-25.7	-27.4	16.0	0.00e+00	0	44	102	1048576	11	4371
2026-01-24 01:12:46.08	142.16	16.45	-25.8	-27.6	15.8	0.00e+00	0	44	102	1048576	11	4430
2026-01-24 01:12:47.08	142.31	16.36	-25.8	-27.6	15.9	0.00e+00	0	44	102	1048576	11	4409
2026-01-24 01:12:48.09	142.46	16.28	-25.8	-27.6	15.8	0.00e+00	0	44	102	1048576	11	4432
2026-01-24 01:12:49.09	142.61	16.20	-25.9	-27.4	15.6	0.00e+00	0	44	102	1048576	12	4261
2026-01-24 01:12:50.09	142.76	16.11	-25.8	-27.0	15.8	0.00e+00	0	44	102	1048576	12	4155
2026-01-24 01:12:51.09	142.91	16.03	-25.9	-27.3	15.6	0.00e+00	0	44	102	1048576	12	4229
2026-01-24 01:12:52.09	143.05	15.95	-25.8	-27.5	15.9	0.00e+00	0	44	102	1048576	11	4378
2026-01-24 01:12:53.09	143.20	15.86	-25.9	-27.7	15.7	0.00e+00	0	44	102	1048576	11	4458
2026-01-24 01:12:54.10	143.35	15.78	-25.7	-27.3	15.9	0.00e+00	0	44	102	1048576	11	4338
2026-01-24 01:12:55.11	143.49	15.69	-25.6	-27.1	16.0	0.00e+00	0	44	102	1048576	11	4288
2026-01-24 01:12:56.11	143.64	15.61	-25.6	-27.1	16.0	0.00e+00	0	44	102	1048576	11	4276
2026-01-24 01:12:57.11	143.78	15.53	-25.7	-27.3	15.9	0.00e+00	0	44	102	1048576	11	4337
2026-01-24 01:12:58.12	143.92	15.44	-25.9	-27.8	15.6	0.00e+00	0	44	102	1048576	11	4474
2026-01-24 01:12:59.12	144.06	15.36	-25.7	-27.4	15.8	0.00e+00	0	44	102	1048576	11	4382
2026-01-24 01:13:00.12	144.20	15.28	-25.7	-27.3	13.4	0.00e+00	0	44	102	1048576	11	4336
2026-01-24 01:13:01.13	144.34	15.20	-25.7	-27.4	14.5	1.10e-06	0	44	102	1048576	11	4363
2026-01-24 01:13:02.13	144.48	15.11	-25.6	-27.2	15.9	0.00e+00	0	44	102	1048576	11	4330
2026-01-24 01:13:03.14	144.62	15.03	-25.7	-27.4	15.9	0.00e+00	0	44	102	1048576	11	4362
2026-01-24 01:13:04.14	144.76	14.95	-25.8	-27.6	15.7	0.00e+00	0	44	102	1048576	11	4424
2026-01-24 01:13:05.14	144.90	14.87	-25.8	-27.6	15.7	0.00e+00	0	44	102	1048576	11	4432
2026-01-24 01:13:06.15	145.03	14.78	-25.8	-27.5	15.8	0.00e+00	0	44	102	1048576	11	4404
2026-01-24 01:13:07.15	145.17	14.70	-25.8	-27.5	15.8	0.00e+00	0	44	102	1048576	11	4398
2026-01-24 01:13:08.16	145.30	14.62	-25.8	-27.7	15.7	0.00e+00	0	44	102	1048576	11	4441
2026-01-24 01:13:09.16	145.44	14.54	-25.8	-27.6	15.8	0.00e+00	0	44	102	1048576	11	4415
2026-01-24 01:13:10.16	145.57	14.46	-25.8	-27.5	15.8	9.42e-04	0	44	102	1048576	11	4401
2026-01-24 01:13:11.16	145.70	14.38	-25.8	-27.7	15.7	0.00e+00	0	44	102	1048576	11	4463
2026-01-24 01:13:12.16	145.84	14.29	-25.8	-27.6	15.7	0.00e+00	0	44	102	1048576	11	4433
2026-01-24 01:13:13.17	145.97	14.21	-25.7	-27.4	15.9	9.98e-04	0	44	102	1048576	11	4367
2026-01-24 01:13:14.18	146.10	14.13	-25.6	-27.3	15.9	0.00e+00	0	44	102	1048576	11	4353
2026-01-24 01:13:15.18	146.23	14.05	-25.7	-27.4	15.9	1.18e-03	0	44	102	1048576	11	4379
2026-01-24 01:13:16.18	146.36	13.97	-25.7	-27.5	15.8	8.00e-06	0	44	102	1048576	11	4403
2026-01-24 01:13:17.17	146.49	13.89	-25.7	-27.5	15.8	9.26e-05	0	44	102	1048576	11	4406
2026-01-24 01:13:18.18	146.61	13.81	-25.7	-27.4	15.8	0.00e+00	0	44	102	1048576	11	4398
2026-01-24 01:13:19.18	146.74	13.73	-25.8	-27.6	15.7	1.12e-03	0	44	102	1048576	11	4435
2026-01-24 01:13:20.19	146.87	13.65	-25.8	-27.6	15.7	6.80e-06	0	44	102	1048576	11	4435
2026-01-24 01:13:21.19	146.99	13.57	-25.7	-27.5	15.7	0.00e+00	0	44	102	1048576	11	4402
2026-01-24 01:13:22.20	147.12	13.49	-25.8	-27.7	15.7	1.28e-03	0	44	102	1048576	11	4456
2026-01-24 01:13:23.20	147.24	13.41	-25.7	-27.5	15.8	0.00e+00	0	44	102	1048576	11	4395
2026-01-24 01:13:24.20	147.37	13.33	-25.7	-27.5	15.7	1.58e-03	0	44	102	1048576	11	4409
2026-01-24 01:13:25.21	147.49	13.25	-25.8	-27.6	15.7	1.25e-03	0	44	102	1048576	11	4432
2026-01-24 01:13:26.21	147.62	13.17	-25.9	-27.3	15.5	3.43e-04	0	44	102	1048576	12	4258
2026-01-24 01:13:27.22	147.74	13.09	-25.8	-27.6	15.7	1.33e-03	0	44	102	1048576	11	4431
2026-01-24 01:13:28.21	147.86	13.01	-25.8	-27.7	15.7	1.18e-03	0	44	102	1048576	11	4447
2026-01-24 01:13:29.22	147.98	12.93	-25.9	-27.8	15.6	2.14e-04	0	44	102	1048576	11	4474
2026-01-24 01:13:30.23	148.10	12.85	-25.9	-27.8	15.6	1.26e-03	0	44	102	1048576	11	4477
2026-01-24 01:13:31.23	148.22	12.78	-26.0	-27.5	15.4	1.46e-03	0	44	102	1048576	12	4300
2026-01-24 01:13:32.23	148.34	12.70	-26.1	-27.7	15.3	1.34e-04	0	44	102	1048576	12	4337
2026-01-24 01:13:33.24	148.46	12.62	-26.2	-27.9	15.2	1.75e-03	0	44	102	1048576	12	4404
2026-01-24 01:13:34.24	148.58	12.54	-26.1	-27.8	15.2	1.37e-03	0	44	102	1048576	12	4358
2026-01-24 01:13:35.25	148.69	12.46	-26.1	-27.8	15.2	5.61e-04	0	44	102	1048576	12	4374
2026-01-24 01:13:36.25	148.81	12.38	-26.1	-27.9	15.2	1.67e-03	0	44	102	1048576	12	4392
2026-01-24 01:13:37.25	148.93	12.31	-26.2	-28.0	15.1	1.37e-03	0	44	102	1048576	12	4431
2026-01-24 01:13:38.26	149.04	12.23	-26.1	-27.8	15.2	2.12e-04	0	44	102	1048576	12	4390
2026-01-24 01:13:39.26	149.16	12.15	-26.1	-27.9	15.1	0.00e+00	0	44	102	1048576	12	4411
2026-01-24 01:13:40.27	149.27	12.07	-26.2	-28.0	15.1	1.46e-03	0	44	102	1048576	12	4447
2026-01-24 01:13:41.27	149.38	12.00	-26.2	-28.0	15.1	2.41e-04	0	44	102	1048576	12	4426
2026-01-24 01:13:42.28	149.50	11.92	-26.3	-28.3	14.9	2.22e-04	0	44	102	1048576	12	4527
2026-01-24 01:13:43.28	149.61	11.84	-26.3	-28.3	14.9	1.39e-03	0	44	102	1048576	12	4508
2026-01-24 01:13:44.29	149.72	11.76	-26.4	-28.4	14.8	2.15e-04	0	44	102	1048576	12	4559
2026-01-24 01:13:45.29	149.83	11.69	-26.6	-28.5	14.5	1.62e-03	0	44	102	1048576	13	4473
2026-01-24 01:13:46.29	149.94	11.61	-26.8	-28.9	14.2	1.10e-06	0	44	102	1048576	13	4582
2026-01-24 01:13:47.29	150.05	11.54	-26.6	-28.4	14.5	2.61e-04	0	44	102	1048576	13	4452
2026-01-24 01:13:48.29	150.16	11.46	-26.4	-28.0	14.7	1.56e-03	0	44	102	1048576	13	4347
2026-01-24 01:13:49.30	150.27	11.38	-26.4	-28.5	14.7	0.00e+00	0	44	102	1048576	12	4610
2026-01-24 01:13:50.30	150.38	11.31	-26.4	-28.5	14.7	3.95e-04	0	44	102	1048576	12	4599
2026-01-24 01:13:51.31	150.49	11.23	-26.4	-28.6	14.6	0.00e+00	0	44	102	1048576	12	4648
2026-01-24 01:13:52.32	150.60	11.16	-26.5	-28.8	14.5	1.48e-03	0	44	102	1048576	12	4688
2026-01-24 01:13:53.32	150.71	11.08	-26.4	-28.6	14.6	0.00e+00	0	44	102	1048576	12	4645
2026-01-24 01:13:54.32	150.81	11.00	-26.5	-28.4	14.4	6.63e-05	0	44	102	1048576	13	4482
2026-01-24 01:13:55.33	150.92	10.93	-26.8	-29.0	14.0	1.10e-06	0	44	102	1048576	13	4649
2026-01-24 01:13:56.33	151.02	10.85	-26.9	-29.3	13.9	1.10e-06	0	44	102	1048576	13	4723
2026-01-24 01:13:57.33	151.13	10.78	-26.8	-28.9	14.1	2.20e-06	0	44	102	1048576	13	4608
2026-01-24 01:13:58.33	151.23	10.71	-26.8	-29.0	14.0	1.10e-06	0	44	102	1048576	13	4642
2026-01-24 01:13:59.34	151.34	10.63	-26.7	-28.8	14.1	1.02e-04	0	44	102	1048576	13	4568
2026-01-24 01:14:00.33	151.44	10.56	-26.7	-28.9	14.1	0.00e+00	0	44	102	1048576	13	4592
2026-01-24 01:14:01.33	151.54	10.48	-26.8	-29.1	14.0	1.10e-06	0	44	102	1048576	13	4649
2026-01-24 01:14:02.34	151.65	10.41	-26.8	-29.1	13.9	0.00e+00	0	44	102	1048576	13	4658
2026-01-24 01:14:03.34	151.75	10.33	-27.0	-29.4	13.7	1.10e-06	0	44	102	1048576	13	4770
2026-01-24 01:14:04.34	151.85	10.26	-27.2	-29.4	13.5	1.02e-05	0	44	102	1048576	14	4632
2026-01-24 01:14:05.35	151.95	10.19	-27.0	-28.9	13.7	0.00e+00	0	44	102	1048576	14	4493
2026-01-24 01:14:06.35	152.05	10.11	-26.8	-28.9	14.0	1.02e-05	0	44	102	1048576	13	4620
2026-01-24 01:14:07.35	152.15	10.04	-26.6	-28.7	14.1	0.00e+00	0	44	102	1048576	13	4556
2026-01-24 01:14:08.36	152.25	9.97	-26.7	-28.8	14.0	0.00e+00	0	44	102	1048576	13	4591
2026-01-24 01:14:09.37	152.35	9.89	-26.7	-28.9	14.0	9.10e-06	0	44	102	1048576	13	4622
2026-01-24 01:14:10.37	152.45	9.82	-26.7	-28.9	14.0	1.10e-06	0	44	102	1048576	13	4628
2026-01-24 01:14:11.38	152.55	9.75	-26.8	-29.0	13.9	2.20e-06	0	44	102	1048576	13	4660
2026-01-24 01:14:12.38	152.64	9.67	-26.7	-28.8	14.0	9.10e-06	0	44	102	1048576	13	4602
2026-01-24 01:14:13.38	152.74	9.60	-26.8	-28.9	13.9	1.10e-06	0	44	102	1048576	13	4623
2026-01-24 01:14:14.39	152.84	9.53	-26.8	-28.9	14.0	0.00e+00	0	44	102	1048576	13	4613
2026-01-24 01:14:15.39	152.93	9.46	-26.8	-29.0	13.9	5.70e-06	0	44	102	1048576	13	4644
2026-01-24 01:14:16.39	153.03	9.38	-26.7	-28.7	14.1	4.50e-06	0	44	102	1048576	13	4547
2026-01-24 01:14:17.39	153.12	9.31	-26.9	-29.2	13.9	0.00e+00	0	44	102	1048576	13	4672
2026-01-24 01:14:18.39	153.22	9.24	-26.9	-28.8	13.8	1.60e-05	0	44	102	1048576	14	4444
2026-01-24 01:14:19.40	153.31	9.17	-26.8	-29.0	13.9	3.40e-06	0	44	102	1048576	13	4629
2026-01-24 01:14:20.40	153.41	9.10	-26.8	-29.1	13.9	2.20e-06	0	44	102	1048576	13	4659
2026-01-24 01:14:21.41	153.50	9.03	-26.8	-29.1	13.8	8.00e-06	0	44	102	1048576	13	4685
2026-01-24 01:14:22.41	153.59	8.95	-26.8	-29.1	13.8	1.10e-06	0	44	102	1048576	13	4679
2026-01-24 01:14:23.42	153.69	8.88	-26.8	-29.2	13.8	4.50e-06	0	44	102	1048576	13	4705
2026-01-24 01:14:24.42	153.78	8.81	-26.9	-29.2	13.7	6.80e-06	0	44	102	1048576	13	4721
2026-01-24 01:14:25.43	153.87	8.74	-26.9	-29.3	13.7	2.20e-06	0	44	102	1048576	13	4728
2026-01-24 01:14:26.44	153.96	8.67	-27.0	-29.0	13.6	5.70e-06	0	44	102	1048576	14	4514
2026-01-24 01:14:27.44	154.05	8.60	-27.0	-29.0	13.7	2.20e-06	0	44	102	1048576	14	4518
2026-01-24 01:14:28.45	154.14	8.53	-27.0	-29.4	13.7	1.10e-06	0	44	102	1048576	13	4769
2026-01-24 01:14:29.45	154.23	8.46	-27.2	-29.3	13.5	5.70e-06	0	44	102	1048576	14	4606
2026-01-24 01:14:30.45	154.32	8.39	-27.0	-29.0	13.6	2.20e-06	0	44	102	1048576	14	4533
2026-01-24 01:14:31.45	154.41	8.32	-27.1	-29.3	13.4	1.25e-05	0	44	102	1048576	14	4617
2026-01-24 01:14:32.46	154.50	8.25	-27.1	-29.2	13.5	9.10e-06	0	44	102	1048576	14	4603
2026-01-24 01:14:33.46	154.59	8.18	-27.2	-29.6	13.2	1.02e-05	0	44	102	1048576	14	4725
2026-01-24 01:14:34.46	154.68	8.11	-27.1	-29.4	13.3	1.60e-05	0	44	102	1048576	14	4671
2026-01-24 01:14:35.46	154.77	8.04	-27.1	-29.3	13.4	9.10e-06	0	44	102	1048576	14	4649
2026-01-24 01:14:36.46	154.85	7.97	-27.0	-29.0	13.5	9.10e-06	0	44	102	1048576	14	4557
2026-01-24 01:14:37.47	154.94	7.90	-26.9	-29.4	13.6	6.80e-06	0	44	102	1048576	13	4785
2026-01-24 01:14:38.47	155.03	7.83	-26.9	-29.4	13.6	6.80e-06	0	44	102	1048576	13	4797
2026-01-24 01:14:39.47	155.11	7.76	-26.9	-29.4	13.6	4.50e-06	0	44	102	1048576	13	4803
2026-01-24 01:14:40.48	155.20	7.69	-27.0	-29.5	13.5	9.10e-06	0	44	102	1048576	13	4822
2026-01-24 01:14:41.48	155.28	7.62	-27.0	-29.0	13.5	5.70e-06	0	44	102	1048576	14	4545
2026-01-24 01:14:42.49	155.37	7.56	-27.0	-28.9	13.6	6.80e-06	0	44	102	1048576	14	4510
2026-01-24 01:14:43.50	155.45	7.49	-27.0	-29.0	13.6	6.80e-06	0	44	102	1048576	14	4532
2026-01-24 01:14:44.51	155.54	7.42	-27.1	-29.3	13.5	1.52e-03	0	44	102	1048576	14	4591
2026-01-24 01:14:45.51	155.62	7.35	-27.1	-29.1	13.5	3.40e-06	0	44	102	1048576	14	4548
2026-01-24 01:14:46.51	155.70	7.28	-27.1	-29.1	13.6	4.50e-06	0	44	102	1048576	14	4526
2026-01-24 01:14:47.51	155.79	7.21	-27.0	-29.4	13.7	4.50e-06	0	44	102	1048576	13	4742
2026-01-24 01:14:48.51	155.87	7.15	-27.3	-29.5	13.3	8.00e-06	0	44	102	1048576	14	4662
2026-01-24 01:14:49.52	155.95	7.08	-32.1	-42.2	3.8	3.49e-01	0	44	104	1048576	24	11537
2026-01-24 01:14:50.52	156.03	7.01	-32.8	-44.3	3.8	8.45e-01	0	44	104	1048576	25	13509
2026-01-24 01:14:51.52	156.12	6.94	-33.7	-45.0	3.8	8.46e-01	0	44	104	1048576	27	13223
2026-01-24 01:14:52.52	156.20	6.88	-34.0	-45.5	3.8	8.46e-01	0	44	104	1048576	27	13607
2026-01-24 01:14:53.53	156.28	6.81	-34.1	-45.3	3.8	8.46e-01	0	44	104	1048576	28	13077

#Closed at: 2026-01-24 01:14:53
#Recorded file [1 MB]: D:/data/31010_260124_040405.dat