passes_logs/2026/01/24/R2M6_AANII_01/R2M6_AANII_01__20260124_141925_FENGYUN_3D_rec.log

#Pass ID: 20260124_141925_FENGYUN 3D
#Satellite: FENGYUN 3D
#Configuration: FENGYUN 3D
#almurnet v.1.7.20240730
#Start time: 2026-01-24 14:19:26

#Version: 2.2.20231116
#Station: R2M6_AANII_01
#Location: 30.233357 lon 59.946436 lat
#TLE: 1 43010U 17072A   26024.16556041  .00000326  00000+0  17587-3 0  9998
#TLE: 2 43010  98.9960 356.1242 0002491  92.2506 267.8955 14.19700380424559

#Time	Az	El	Level	Level2	SNR	BER	BlckErr	Temp	State	Recorded	gain1	gain2
2026-01-24 14:19:26.22	225.40	7.06	-28.1	-29.8	5.7	7.49e-01	0	40	0	0	17	4401
2026-01-24 14:19:27.21	225.51	7.12	-29.3	-32.6	5.5	7.62e-01	0	41	104	0	18	5225
2026-01-24 14:19:28.22	225.63	7.17	-28.9	-31.4	11.2	1.78e-03	0	40	0	0	18	4799
2026-01-24 14:19:29.22	225.74	7.23	-29.2	-32.1	10.8	3.95e-03	0	41	102	1048576	18	5042
2026-01-24 14:19:30.23	225.86	7.28	-28.9	-31.4	11.2	2.17e-03	0	41	102	1048576	18	4784
2026-01-24 14:19:31.23	225.97	7.34	-28.7	-30.7	11.7	9.68e-04	0	41	102	1048576	18	4570
2026-01-24 14:19:32.24	226.09	7.40	-28.3	-29.9	12.3	3.51e-04	0	41	102	1048576	18	4298
2026-01-24 14:19:33.25	226.21	7.45	-28.2	-30.0	12.4	2.04e-04	0	41	102	1048576	17	4453
2026-01-24 14:19:34.25	226.32	7.51	-28.3	-30.2	12.4	2.68e-04	0	40	102	1048576	17	4503
2026-01-24 14:19:35.26	226.44	7.57	-27.8	-29.5	13.1	6.63e-05	0	41	102	1048576	16	4400
2026-01-24 14:19:36.26	226.56	7.62	-27.5	-28.9	13.5	1.83e-05	0	41	102	1048576	16	4220
2026-01-24 14:19:37.26	226.68	7.68	-27.1	-28.5	13.8	1.71e-05	0	41	102	1048576	15	4233
2026-01-24 14:19:38.27	226.80	7.74	-27.0	-28.3	14.0	5.70e-06	0	41	102	1048576	15	4162
2026-01-24 14:19:39.27	226.92	7.79	-26.9	-28.1	14.1	3.40e-06	0	41	102	1048576	15	4117
2026-01-24 14:19:40.27	227.04	7.85	-27.1	-28.4	13.9	3.40e-06	0	41	102	1048576	15	4208
2026-01-24 14:19:41.28	227.16	7.90	-27.0	-28.3	13.9	1.48e-05	0	41	102	1048576	15	4184
2026-01-24 14:19:42.28	227.28	7.96	-26.9	-28.1	14.1	8.00e-06	0	41	102	1048576	15	4109
2026-01-24 14:19:43.29	227.40	8.02	-26.9	-28.0	14.2	1.10e-06	0	41	102	1048576	15	4098
2026-01-24 14:19:44.30	227.52	8.07	-27.0	-28.3	14.0	2.20e-06	0	41	102	1048576	15	4172
2026-01-24 14:19:45.30	227.64	8.13	-26.5	-27.6	14.7	1.10e-06	0	41	102	1048576	14	4092
2026-01-24 14:19:46.30	227.76	8.19	-26.8	-28.3	14.3	3.40e-06	0	41	102	1048576	14	4269
2026-01-24 14:19:47.31	227.89	8.24	-26.5	-27.7	14.7	0.00e+00	0	41	102	1048576	14	4113
2026-01-24 14:19:48.31	228.01	8.30	-26.6	-27.8	14.6	0.00e+00	0	41	102	1048576	14	4142
2026-01-24 14:19:49.32	228.14	8.36	-26.6	-27.9	14.5	1.10e-06	0	41	102	1048576	14	4172
2026-01-24 14:19:50.32	228.26	8.41	-26.5	-27.5	14.8	0.00e+00	0	41	102	1048576	14	4060
2026-01-24 14:19:51.32	228.38	8.47	-26.4	-27.3	15.0	0.00e+00	0	41	102	1048576	14	3991
2026-01-24 14:19:52.33	228.51	8.53	-26.3	-27.2	15.0	0.00e+00	0	41	102	1048576	14	3976
2026-01-24 14:19:53.33	228.63	8.58	-26.2	-27.3	15.2	0.00e+00	0	41	102	1048576	13	4108
2026-01-24 14:19:54.33	228.76	8.64	-26.1	-27.1	15.3	0.00e+00	0	41	102	1048576	13	4062
2026-01-24 14:19:55.33	228.89	8.70	-26.2	-27.3	15.2	0.00e+00	0	41	102	1048576	13	4104
2026-01-24 14:19:56.33	229.01	8.75	-26.2	-27.4	15.2	0.00e+00	0	41	102	1048576	13	4128
2026-01-24 14:19:57.33	229.14	8.81	-26.2	-27.3	15.2	0.00e+00	0	41	102	1048576	13	4120
2026-01-24 14:19:58.34	229.27	8.87	-26.3	-27.6	15.1	0.00e+00	0	41	102	1048576	13	4182
2026-01-24 14:19:59.34	229.40	8.92	-26.4	-27.7	15.0	0.00e+00	0	41	102	1048576	13	4224
2026-01-24 14:20:00.35	229.53	8.98	-26.4	-27.8	15.0	1.10e-06	0	41	102	1048576	13	4229
2026-01-24 14:20:01.36	229.66	9.04	-26.4	-27.8	15.0	0.00e+00	0	42	102	1048576	13	4241
2026-01-24 14:20:02.37	229.79	9.09	-26.5	-28.2	14.8	0.00e+00	0	41	102	1048576	13	4346
2026-01-24 14:20:03.38	229.92	9.15	-26.6	-28.4	14.6	0.00e+00	0	42	102	1048576	13	4413
2026-01-24 14:20:04.38	230.05	9.21	-26.6	-28.2	14.7	1.10e-06	0	42	102	1048576	13	4357
2026-01-24 14:20:05.38	230.18	9.26	-26.4	-27.8	15.0	0.00e+00	0	42	102	1048576	13	4244
2026-01-24 14:20:06.39	230.31	9.32	-26.3	-27.7	15.1	0.00e+00	0	42	102	1048576	13	4202
2026-01-24 14:20:07.39	230.44	9.38	-26.4	-27.9	14.9	0.00e+00	0	42	102	1048576	13	4277
2026-01-24 14:20:08.39	230.58	9.43	-26.3	-27.7	15.1	0.00e+00	0	42	102	1048576	13	4205
2026-01-24 14:20:09.40	230.71	9.49	-26.3	-27.7	15.0	0.00e+00	0	41	102	1048576	13	4222
2026-01-24 14:20:10.40	230.84	9.55	-26.4	-27.8	15.0	0.00e+00	0	41	102	1048576	13	4248
2026-01-24 14:20:11.41	230.98	9.61	-26.2	-27.4	15.2	0.00e+00	0	42	102	1048576	13	4147
2026-01-24 14:20:12.41	231.11	9.66	-26.4	-27.8	15.0	0.00e+00	0	42	102	1048576	13	4252
2026-01-24 14:20:13.42	231.25	9.72	-26.5	-28.0	14.9	0.00e+00	0	42	102	1048576	13	4285
2026-01-24 14:20:14.42	231.39	9.78	-26.3	-27.6	15.1	0.00e+00	0	42	102	1048576	13	4175
2026-01-24 14:20:15.42	231.52	9.83	-26.4	-27.8	15.0	0.00e+00	0	42	102	1048576	13	4246
2026-01-24 14:20:16.43	231.66	9.89	-26.5	-28.1	14.9	1.10e-06	0	42	102	1048576	13	4309
2026-01-24 14:20:17.43	231.80	9.95	-26.3	-27.6	15.1	1.10e-06	0	42	102	1048576	13	4191
2026-01-24 14:20:18.44	231.94	10.00	-26.3	-27.6	15.2	0.00e+00	0	42	102	1048576	13	4184
2026-01-24 14:20:19.44	232.07	10.06	-26.2	-27.5	15.2	0.00e+00	0	42	102	1048576	13	4145
2026-01-24 14:20:20.45	232.21	10.12	-26.2	-27.3	15.3	0.00e+00	0	42	102	1048576	13	4097
2026-01-24 14:20:21.45	232.35	10.17	-26.1	-27.0	15.5	0.00e+00	0	42	102	1048576	13	4029
2026-01-24 14:20:22.46	232.49	10.23	-26.0	-27.0	15.5	0.00e+00	0	42	102	1048576	13	4020
2026-01-24 14:20:23.46	232.63	10.29	-26.0	-26.9	15.6	0.00e+00	0	42	102	1048576	13	4005
2026-01-24 14:20:24.46	232.77	10.34	-25.9	-26.8	15.7	0.00e+00	0	42	102	1048576	13	3965
2026-01-24 14:20:25.46	232.92	10.40	-25.9	-26.8	15.7	0.00e+00	0	42	102	1048576	13	3973
2026-01-24 14:20:26.48	233.06	10.45	-25.9	-26.7	15.7	2.20e-06	0	42	102	1048576	13	3953
2026-01-24 14:20:27.48	233.20	10.51	-25.7	-26.8	15.9	0.00e+00	0	42	102	1048576	12	4087
2026-01-24 14:20:28.48	233.34	10.57	-25.7	-26.7	16.0	0.00e+00	0	42	102	1048576	12	4061
2026-01-24 14:20:29.48	233.49	10.62	-25.6	-26.6	16.0	2.20e-06	0	42	102	1048576	12	4022
2026-01-24 14:20:30.49	233.63	10.68	-25.6	-26.6	16.0	0.00e+00	0	42	102	1048576	12	4019
2026-01-24 14:20:31.49	233.78	10.74	-25.5	-26.3	16.2	0.00e+00	0	42	102	1048576	12	3939
2026-01-24 14:20:32.49	233.92	10.79	-25.5	-26.3	16.2	0.00e+00	0	42	102	1048576	12	3954
2026-01-24 14:20:33.49	234.07	10.85	-25.6	-26.5	16.1	0.00e+00	0	42	102	1048576	12	3984
2026-01-24 14:20:34.49	234.21	10.90	-25.6	-26.5	16.1	0.00e+00	0	42	102	1048576	12	4005
2026-01-24 14:20:35.50	234.36	10.96	-25.7	-26.8	16.0	0.00e+00	0	42	102	1048576	12	4079
2026-01-24 14:20:36.51	234.51	11.02	-25.7	-26.8	16.0	0.00e+00	0	42	102	1048576	12	4079
2026-01-24 14:20:37.51	234.66	11.07	-25.7	-26.8	16.0	0.00e+00	0	42	102	1048576	12	4080
2026-01-24 14:20:38.51	234.81	11.13	-25.8	-26.9	15.9	0.00e+00	0	42	102	1048576	12	4105
2026-01-24 14:20:39.52	234.96	11.19	-25.7	-26.9	16.0	0.00e+00	0	42	102	1048576	12	4094
2026-01-24 14:20:40.52	235.11	11.24	-25.8	-27.1	15.8	0.00e+00	0	42	102	1048576	12	4154
2026-01-24 14:20:41.53	235.26	11.30	-25.9	-27.1	15.8	1.10e-06	0	42	102	1048576	12	4153
2026-01-24 14:20:42.52	235.41	11.35	-25.7	-26.8	16.0	0.00e+00	0	42	102	1048576	12	4089
2026-01-24 14:20:43.52	235.56	11.41	-25.8	-26.9	15.9	0.00e+00	0	42	102	1048576	12	4103
2026-01-24 14:20:44.52	235.71	11.46	-25.7	-26.8	16.0	0.00e+00	0	42	102	1048576	12	4068
2026-01-24 14:20:45.53	235.86	11.52	-25.7	-26.7	16.0	0.00e+00	0	42	102	1048576	12	4058
2026-01-24 14:20:46.53	236.01	11.58	-25.8	-26.9	15.9	0.00e+00	0	42	102	1048576	12	4109
2026-01-24 14:20:47.54	236.17	11.63	-25.8	-27.0	15.9	0.00e+00	0	42	102	1048576	12	4135
2026-01-24 14:20:48.55	236.32	11.69	-25.8	-26.9	15.9	0.00e+00	0	42	102	1048576	12	4117
2026-01-24 14:20:49.55	236.48	11.74	-25.8	-26.9	15.9	1.10e-06	0	42	102	1048576	12	4115
2026-01-24 14:20:50.55	236.63	11.80	-25.9	-27.2	15.8	0.00e+00	0	42	102	1048576	12	4187
2026-01-24 14:20:51.56	236.79	11.85	-25.9	-27.2	15.8	0.00e+00	0	42	102	1048576	12	4179
2026-01-24 14:20:52.57	236.95	11.91	-25.9	-27.2	15.8	0.00e+00	0	42	102	1048576	12	4192
2026-01-24 14:20:53.57	237.10	11.96	-25.9	-27.2	15.8	0.00e+00	0	42	102	1048576	12	4171
2026-01-24 14:20:54.57	237.26	12.02	-25.9	-27.2	15.8	0.00e+00	0	42	102	1048576	12	4170
2026-01-24 14:20:55.57	237.42	12.07	-26.0	-27.5	15.7	0.00e+00	0	42	102	1048576	12	4253
2026-01-24 14:20:56.58	237.58	12.13	-26.0	-27.3	15.8	0.00e+00	0	42	102	1048576	12	4205
2026-01-24 14:20:57.58	237.74	12.18	-25.8	-27.0	15.9	0.00e+00	0	42	102	1048576	12	4122
2026-01-24 14:20:58.59	237.90	12.24	-25.8	-27.0	15.9	0.00e+00	0	42	102	1048576	12	4137
2026-01-24 14:20:59.59	238.06	12.29	-25.8	-26.9	16.0	0.00e+00	0	42	102	1048576	12	4105
2026-01-24 14:21:00.59	238.22	12.35	-25.6	-26.5	16.2	0.00e+00	0	42	102	1048576	12	4009
2026-01-24 14:21:01.60	238.38	12.40	-25.5	-26.2	16.4	0.00e+00	0	42	102	1048576	12	3927
2026-01-24 14:21:02.60	238.54	12.46	-25.5	-26.3	16.3	0.00e+00	0	42	102	1048576	12	3957
2026-01-24 14:21:03.61	238.71	12.51	-25.4	-26.1	16.4	0.00e+00	0	42	102	1048576	12	3909
2026-01-24 14:21:04.61	238.87	12.57	-25.4	-26.0	16.5	0.00e+00	0	42	102	1048576	12	3873
2026-01-24 14:21:05.62	239.03	12.62	-25.4	-26.1	16.5	0.00e+00	0	42	102	1048576	12	3898
2026-01-24 14:21:06.62	239.20	12.67	-25.5	-26.2	16.4	0.00e+00	0	42	102	1048576	12	3927
2026-01-24 14:21:07.62	239.36	12.73	-25.5	-26.3	16.4	0.00e+00	0	42	102	1048576	12	3945
2026-01-24 14:21:08.62	239.53	12.78	-25.4	-26.2	16.4	0.00e+00	0	42	102	1048576	12	3909
2026-01-24 14:21:09.63	239.70	12.84	-25.4	-26.0	16.5	0.00e+00	0	42	102	1048576	12	3869
2026-01-24 14:21:10.63	239.86	12.89	-25.5	-26.3	16.4	0.00e+00	0	42	102	1048576	12	3932
2026-01-24 14:21:11.64	240.03	12.94	-25.4	-26.1	16.4	0.00e+00	0	42	102	1048576	12	3903
2026-01-24 14:21:12.64	240.20	13.00	-25.4	-26.0	16.5	0.00e+00	0	42	102	1048576	12	3875
2026-01-24 14:21:13.64	240.37	13.05	-25.4	-26.0	16.5	0.00e+00	0	42	102	1048576	12	3868
2026-01-24 14:21:14.65	240.54	13.10	-25.5	-26.2	16.4	0.00e+00	0	42	102	1048576	12	3922
2026-01-24 14:21:15.66	240.71	13.16	-25.5	-26.3	16.4	0.00e+00	0	42	102	1048576	12	3947
2026-01-24 14:21:16.66	240.88	13.21	-25.5	-26.2	16.4	0.00e+00	0	42	102	1048576	12	3921
2026-01-24 14:21:17.66	241.05	13.26	-25.4	-26.0	16.5	0.00e+00	0	42	102	1048576	12	3872
2026-01-24 14:21:18.67	241.22	13.32	-25.3	-25.9	16.6	0.00e+00	0	42	102	1048576	12	3852
2026-01-24 14:21:19.67	241.39	13.37	-25.5	-26.3	16.4	0.00e+00	0	42	102	1048576	12	3946
2026-01-24 14:21:20.68	241.57	13.42	-25.3	-25.9	16.6	0.00e+00	0	43	102	1048576	12	3845
2026-01-24 14:21:21.68	241.74	13.48	-25.3	-26.2	16.8	0.00e+00	0	42	102	1048576	11	4023
2026-01-24 14:21:22.68	241.91	13.53	-25.4	-26.4	16.7	0.00e+00	0	42	102	1048576	11	4083
2026-01-24 14:21:23.68	242.09	13.58	-25.4	-26.6	16.6	0.00e+00	0	42	102	1048576	11	4124
2026-01-24 14:21:24.68	242.26	13.63	-25.5	-26.7	16.6	0.00e+00	0	43	102	1048576	11	4144
2026-01-24 14:21:25.69	242.44	13.68	-25.4	-26.6	16.6	0.00e+00	0	42	102	1048576	11	4116
2026-01-24 14:21:26.69	242.61	13.74	-25.5	-26.8	16.5	0.00e+00	0	43	102	1048576	11	4171
2026-01-24 14:21:27.69	242.79	13.79	-25.4	-26.6	16.6	0.00e+00	0	42	102	1048576	11	4120
2026-01-24 14:21:28.70	242.97	13.84	-25.4	-26.5	16.6	0.00e+00	0	42	102	1048576	11	4103
2026-01-24 14:21:29.71	243.15	13.89	-25.4	-26.5	16.7	0.00e+00	0	43	102	1048576	11	4090
2026-01-24 14:21:30.71	243.33	13.94	-25.6	-26.9	16.5	0.00e+00	0	43	102	1048576	11	4192
2026-01-24 14:21:31.72	243.51	13.99	-25.4	-26.7	16.6	0.00e+00	0	42	102	1048576	11	4138
2026-01-24 14:21:32.73	243.69	14.04	-25.5	-26.7	16.5	0.00e+00	0	42	102	1048576	11	4157
2026-01-24 14:21:33.73	243.87	14.10	-25.7	-27.3	16.2	0.00e+00	0	42	102	1048576	11	4293
2026-01-24 14:21:34.73	244.05	14.15	-25.7	-27.1	16.4	0.00e+00	0	42	102	1048576	11	4258
2026-01-24 14:21:35.72	244.23	14.20	-25.5	-26.7	16.6	0.00e+00	0	43	102	1048576	11	4153
2026-01-24 14:21:36.72	244.41	14.25	-25.3	-26.3	16.8	0.00e+00	0	42	102	1048576	11	4046
2026-01-24 14:21:37.72	244.59	14.30	-25.3	-26.3	16.8	1.10e-06	0	42	102	1048576	11	4044
2026-01-24 14:21:38.73	244.78	14.35	-25.2	-26.1	16.9	0.00e+00	0	43	102	1048576	11	4003
2026-01-24 14:21:39.73	244.96	14.40	-25.1	-25.9	17.0	0.00e+00	0	43	102	1048576	11	3949
2026-01-24 14:21:40.73	245.15	14.45	-25.0	-25.7	17.1	0.00e+00	0	43	102	1048576	11	3903
2026-01-24 14:21:41.74	245.33	14.50	-25.2	-26.1	17.0	0.00e+00	0	43	102	1048576	11	3983
2026-01-24 14:21:42.74	245.52	14.54	-25.1	-25.8	17.1	0.00e+00	0	43	102	1048576	11	3924
2026-01-24 14:21:43.75	245.70	14.59	-25.0	-25.8	17.1	0.00e+00	0	42	102	1048576	11	3915
2026-01-24 14:21:44.76	245.89	14.64	-25.1	-25.9	17.1	0.00e+00	0	43	102	1048576	11	3945
2026-01-24 14:21:45.76	246.08	14.69	-25.3	-26.3	16.8	0.00e+00	0	42	102	1048576	11	4041
2026-01-24 14:21:46.76	246.27	14.74	-25.4	-26.6	16.7	1.10e-06	0	42	102	1048576	11	4113
2026-01-24 14:21:47.77	246.46	14.79	-25.4	-26.5	16.7	0.00e+00	0	42	102	1048576	11	4105
2026-01-24 14:21:48.77	246.65	14.84	-25.5	-26.7	16.6	0.00e+00	0	42	102	1048576	11	4156
2026-01-24 14:21:49.77	246.84	14.89	-25.4	-26.6	16.7	0.00e+00	0	43	102	1048576	11	4124
2026-01-24 14:21:50.77	247.03	14.93	-25.5	-26.8	16.6	0.00e+00	0	42	102	1048576	11	4176
2026-01-24 14:21:51.76	247.22	14.98	-25.5	-26.7	16.6	0.00e+00	0	42	102	1048576	11	4150
2026-01-24 14:21:52.77	247.41	15.03	-25.4	-26.5	16.8	0.00e+00	0	43	102	1048576	11	4104
2026-01-24 14:21:53.78	247.60	15.08	-25.5	-26.7	16.7	0.00e+00	0	43	102	1048576	11	4139
2026-01-24 14:21:54.78	247.80	15.12	-25.4	-26.4	16.8	0.00e+00	0	43	102	1048576	11	4084
2026-01-24 14:21:55.78	247.99	15.17	-25.6	-26.9	16.5	0.00e+00	0	43	102	1048576	11	4211
2026-01-24 14:21:56.78	248.18	15.21	-25.3	-26.4	16.8	0.00e+00	0	43	102	1048576	11	4065
2026-01-24 14:21:57.78	248.38	15.26	-25.0	-25.8	17.2	0.00e+00	0	43	102	1048576	11	3913
2026-01-24 14:21:58.78	248.57	15.31	-24.9	-25.4	17.4	6.80e-06	0	42	102	1048576	11	3820
2026-01-24 14:21:59.79	248.77	15.35	-24.9	-25.4	17.4	0.00e+00	0	42	102	1048576	11	3824
2026-01-24 14:22:00.79	248.96	15.40	-24.9	-25.4	17.4	0.00e+00	0	43	102	1048576	11	3813
2026-01-24 14:22:01.79	249.16	15.44	-24.9	-25.4	17.3	0.00e+00	0	43	102	1048576	11	3830
2026-01-24 14:22:02.79	249.36	15.49	-24.9	-25.5	17.3	0.00e+00	0	43	102	1048576	11	3836
2026-01-24 14:22:03.80	249.56	15.53	-24.9	-25.4	17.4	0.00e+00	0	43	102	1048576	11	3822
2026-01-24 14:22:04.80	249.76	15.58	-24.9	-25.5	17.3	0.00e+00	0	43	102	1048576	11	3847
2026-01-24 14:22:05.81	249.96	15.62	-24.9	-25.5	17.3	0.00e+00	0	43	102	1048576	11	3845
2026-01-24 14:22:06.81	250.16	15.67	-24.9	-25.5	17.3	0.00e+00	0	42	102	1048576	11	3846
2026-01-24 14:22:07.81	250.36	15.71	-25.0	-25.6	17.3	0.00e+00	0	43	102	1048576	11	3861
2026-01-24 14:22:08.81	250.56	15.76	-24.9	-25.5	17.3	0.00e+00	0	42	102	1048576	11	3853
2026-01-24 14:22:09.82	250.76	15.80	-24.8	-25.3	17.5	0.00e+00	0	43	102	1048576	11	3797
2026-01-24 14:22:10.82	250.96	15.84	-24.9	-25.4	17.4	0.00e+00	0	42	102	1048576	11	3825
2026-01-24 14:22:11.83	251.17	15.89	-24.9	-25.4	17.4	0.00e+00	0	43	102	1048576	11	3827
2026-01-24 14:22:12.83	251.37	15.93	-24.9	-25.4	17.4	0.00e+00	0	43	102	1048576	11	3816
2026-01-24 14:22:13.84	251.58	15.97	-25.0	-25.7	17.2	0.00e+00	0	42	102	1048576	11	3896
2026-01-24 14:22:14.84	251.78	16.01	-24.9	-25.4	17.4	0.00e+00	0	43	102	1048576	11	3828
2026-01-24 14:22:15.85	251.99	16.05	-24.8	-25.3	17.4	0.00e+00	0	43	102	1048576	11	3804
2026-01-24 14:22:16.84	252.19	16.10	-24.9	-25.4	17.3	0.00e+00	0	43	102	1048576	11	3837
2026-01-24 14:22:17.85	252.40	16.14	-24.9	-25.5	17.3	0.00e+00	0	43	102	1048576	11	3861
2026-01-24 14:22:18.85	252.60	16.18	-24.9	-25.5	17.3	0.00e+00	0	43	102	1048576	11	3858
2026-01-24 14:22:19.85	252.81	16.22	-24.9	-25.5	17.3	0.00e+00	0	43	102	1048576	11	3839
2026-01-24 14:22:20.86	253.02	16.26	-24.9	-25.5	17.3	0.00e+00	0	43	102	1048576	11	3854
2026-01-24 14:22:21.86	253.23	16.30	-25.0	-25.7	17.2	0.00e+00	0	43	102	1048576	11	3902
2026-01-24 14:22:22.86	253.43	16.34	-24.9	-25.4	17.4	0.00e+00	0	43	102	1048576	11	3821
2026-01-24 14:22:23.86	253.64	16.38	-24.7	-25.5	17.6	0.00e+00	0	43	102	1048576	10	3947
2026-01-24 14:22:24.86	253.85	16.42	-24.8	-25.7	17.5	0.00e+00	0	43	102	1048576	10	3994
2026-01-24 14:22:25.86	254.06	16.46	-24.7	-25.5	17.6	0.00e+00	0	42	102	1048576	10	3961
2026-01-24 14:22:26.86	254.27	16.50	-24.8	-25.7	17.5	0.00e+00	0	43	102	1048576	10	3991
2026-01-24 14:22:27.86	254.48	16.53	-24.8	-25.7	17.4	0.00e+00	0	43	102	1048576	10	4010
2026-01-24 14:22:28.86	254.70	16.57	-24.9	-25.9	17.4	0.00e+00	0	43	102	1048576	10	4047
2026-01-24 14:22:29.86	254.91	16.61	-24.8	-25.8	17.4	0.00e+00	0	43	102	1048576	10	4021
2026-01-24 14:22:30.87	255.12	16.65	-24.8	-25.8	17.3	0.00e+00	0	43	102	1048576	10	4031
2026-01-24 14:22:31.87	255.34	16.68	-24.7	-25.6	17.5	0.00e+00	0	43	102	1048576	10	3978
2026-01-24 14:22:32.88	255.55	16.72	-24.7	-25.4	17.5	0.00e+00	0	43	102	1048576	10	3937
2026-01-24 14:22:33.88	255.77	16.76	-24.7	-25.4	17.5	0.00e+00	0	43	102	1048576	10	3941
2026-01-24 14:22:34.88	255.98	16.79	-24.6	-25.3	17.6	0.00e+00	0	43	102	1048576	10	3908
2026-01-24 14:22:35.89	256.20	16.83	-24.6	-25.4	17.5	0.00e+00	0	43	102	1048576	10	3932
2026-01-24 14:22:36.89	256.41	16.86	-24.7	-25.5	17.5	0.00e+00	0	43	102	1048576	10	3959
2026-01-24 14:22:37.90	256.63	16.90	-24.7	-25.6	17.4	0.00e+00	0	43	102	1048576	10	3972
2026-01-24 14:22:38.90	256.85	16.93	-24.7	-25.5	17.5	0.00e+00	0	43	102	1048576	10	3952
2026-01-24 14:22:39.90	257.06	16.97	-24.7	-25.5	17.5	4.50e-06	0	43	102	1048576	10	3959
2026-01-24 14:22:40.91	257.28	17.00	-24.9	-25.9	17.3	0.00e+00	0	43	102	1048576	10	4043
2026-01-24 14:22:41.91	257.50	17.04	-24.7	-25.5	17.5	0.00e+00	0	43	102	1048576	10	3960
2026-01-24 14:22:42.91	257.72	17.07	-24.6	-25.3	17.8	0.00e+00	0	43	102	1048576	10	3895
2026-01-24 14:22:43.91	257.94	17.10	-24.6	-25.2	17.8	0.00e+00	0	43	102	1048576	10	3891
2026-01-24 14:22:44.92	258.16	17.14	-24.6	-25.3	17.8	0.00e+00	0	43	102	1048576	10	3895
2026-01-24 14:22:45.93	258.38	17.17	-24.7	-25.5	17.6	0.00e+00	0	43	102	1048576	10	3962
2026-01-24 14:22:46.93	258.60	17.20	-24.6	-25.3	17.7	0.00e+00	0	43	102	1048576	10	3911
2026-01-24 14:22:47.94	258.83	17.23	-24.5	-25.1	17.9	0.00e+00	0	43	102	1048576	10	3849
2026-01-24 14:22:48.94	259.05	17.26	-24.5	-25.1	17.9	6.80e-06	0	43	102	1048576	10	3866
2026-01-24 14:22:49.94	259.27	17.29	-24.4	-24.9	18.0	0.00e+00	0	43	102	1048576	10	3820
2026-01-24 14:22:50.94	259.49	17.32	-24.4	-24.9	17.9	0.00e+00	0	43	102	1048576	10	3821
2026-01-24 14:22:51.95	259.72	17.35	-24.7	-25.5	17.7	4.50e-06	0	43	102	1048576	10	3943
2026-01-24 14:22:52.95	259.94	17.38	-24.7	-25.5	17.7	0.00e+00	0	43	102	1048576	10	3950
2026-01-24 14:22:53.96	260.16	17.41	-24.7	-25.6	17.6	0.00e+00	0	43	102	1048576	10	3967
2026-01-24 14:22:54.95	260.39	17.44	-24.7	-25.6	17.6	4.50e-06	0	43	102	1048576	10	3980
2026-01-24 14:22:55.96	260.61	17.47	-24.8	-25.7	17.6	0.00e+00	0	43	102	1048576	10	4001
2026-01-24 14:22:56.96	260.84	17.50	-24.9	-25.9	17.4	0.00e+00	0	43	102	1048576	10	4058
2026-01-24 14:22:57.97	261.06	17.53	-24.8	-25.7	17.5	0.00e+00	0	43	102	1048576	10	4006
2026-01-24 14:22:58.98	261.29	17.55	-25.0	-26.2	17.3	0.00e+00	0	43	102	1048576	10	4117
2026-01-24 14:22:59.98	261.52	17.58	-24.7	-25.6	17.6	0.00e+00	0	43	102	1048576	10	3975
2026-01-24 14:23:00.99	261.75	17.61	-24.5	-25.2	17.9	0.00e+00	0	43	102	1048576	10	3869
2026-01-24 14:23:02.00	261.97	17.63	-24.4	-25.0	17.9	0.00e+00	0	43	102	1048576	10	3830
2026-01-24 14:23:03.00	262.20	17.66	-24.5	-25.2	17.9	0.00e+00	0	43	102	1048576	10	3873
2026-01-24 14:23:04.00	262.43	17.68	-24.4	-24.9	18.0	4.50e-06	0	43	102	1048576	10	3820
2026-01-24 14:23:05.01	262.66	17.71	-24.5	-25.0	17.9	0.00e+00	0	43	102	1048576	10	3831
2026-01-24 14:23:06.02	262.89	17.73	-24.5	-25.1	17.9	0.00e+00	0	43	102	1048576	10	3862
2026-01-24 14:23:07.02	263.12	17.76	-24.4	-25.0	18.0	0.00e+00	0	43	102	1048576	10	3831
2026-01-24 14:23:08.02	263.35	17.78	-24.6	-25.4	17.8	0.00e+00	0	43	102	1048576	10	3920
2026-01-24 14:23:09.02	263.57	17.80	-24.5	-25.1	17.9	0.00e+00	0	43	102	1048576	10	3855
2026-01-24 14:23:10.02	263.80	17.83	-24.5	-25.2	17.8	0.00e+00	0	43	102	1048576	10	3875
2026-01-24 14:23:11.03	264.04	17.85	-24.6	-25.3	17.8	0.00e+00	0	43	102	1048576	10	3911
2026-01-24 14:23:12.03	264.27	17.87	-24.7	-25.5	17.7	0.00e+00	0	43	102	1048576	10	3946
2026-01-24 14:23:13.04	264.50	17.89	-24.5	-25.1	17.9	0.00e+00	0	43	102	1048576	10	3860
2026-01-24 14:23:14.04	264.73	17.91	-24.5	-25.1	17.9	0.00e+00	0	43	102	1048576	10	3855
2026-01-24 14:23:15.04	264.96	17.94	-24.6	-25.4	17.7	0.00e+00	0	43	102	1048576	10	3922
2026-01-24 14:23:16.04	265.19	17.96	-24.5	-25.1	17.9	0.00e+00	0	43	102	1048576	10	3857
2026-01-24 14:23:17.04	265.42	17.98	-24.4	-24.9	18.0	0.00e+00	0	43	102	1048576	10	3816
2026-01-24 14:23:18.05	265.66	17.99	-24.5	-25.1	17.9	0.00e+00	0	43	102	1048576	10	3841
2026-01-24 14:23:19.05	265.89	18.01	-24.5	-25.1	17.9	0.00e+00	0	43	102	1048576	10	3849
2026-01-24 14:23:20.05	266.12	18.03	-24.7	-25.4	17.7	0.00e+00	0	43	102	1048576	10	3935
2026-01-24 14:23:21.06	266.36	18.05	-24.5	-25.1	17.9	0.00e+00	0	43	102	1048576	10	3849
2026-01-24 14:23:22.07	266.59	18.07	-24.4	-24.9	18.0	0.00e+00	0	43	102	1048576	10	3799
2026-01-24 14:23:23.07	266.83	18.08	-24.3	-24.8	18.1	0.00e+00	0	43	102	1048576	10	3773
2026-01-24 14:23:24.08	267.06	18.10	-24.4	-24.8	18.0	0.00e+00	0	43	102	1048576	10	3791
2026-01-24 14:23:25.09	267.30	18.12	-24.3	-25.1	18.2	0.00e+00	0	43	102	1048576	9	3952
2026-01-24 14:23:26.10	267.53	18.13	-24.4	-25.4	18.0	0.00e+00	0	43	102	1048576	9	4032
2026-01-24 14:23:27.10	267.77	18.15	-24.4	-25.5	18.0	0.00e+00	0	43	102	1048576	9	4049
2026-01-24 14:23:28.11	268.00	18.16	-24.4	-25.4	18.0	0.00e+00	0	43	102	1048576	9	4039
2026-01-24 14:23:29.11	268.24	18.18	-24.3	-25.1	18.1	0.00e+00	0	43	102	1048576	9	3965
2026-01-24 14:23:30.12	268.48	18.19	-24.3	-25.2	18.1	0.00e+00	0	43	102	1048576	9	3992
2026-01-24 14:23:31.12	268.71	18.21	-24.5	-25.5	17.9	0.00e+00	0	43	102	1048576	9	4067
2026-01-24 14:23:32.12	268.95	18.22	-24.3	-25.2	18.1	0.00e+00	0	43	102	1048576	9	3985
2026-01-24 14:23:33.12	269.18	18.23	-24.4	-25.3	18.1	0.00e+00	0	43	102	1048576	9	4005
2026-01-24 14:23:34.13	269.42	18.24	-24.4	-25.4	18.0	0.00e+00	0	43	102	1048576	9	4047
2026-01-24 14:23:35.14	269.66	18.26	-24.4	-25.4	18.0	0.00e+00	0	43	102	1048576	9	4027
2026-01-24 14:23:36.14	269.89	18.27	-24.4	-25.4	18.0	0.00e+00	0	43	102	1048576	9	4022
2026-01-24 14:23:37.15	270.13	18.28	-24.5	-25.6	17.9	0.00e+00	0	43	102	1048576	9	4078
2026-01-24 14:23:38.14	270.37	18.29	-24.5	-25.6	17.9	0.00e+00	0	43	102	1048576	9	4088
2026-01-24 14:23:39.15	270.60	18.30	-24.5	-25.7	17.9	0.00e+00	0	43	102	1048576	9	4104
2026-01-24 14:23:40.16	270.84	18.31	-24.6	-25.8	17.8	0.00e+00	0	43	102	1048576	9	4147
2026-01-24 14:23:41.16	271.08	18.31	-24.4	-25.3	18.0	0.00e+00	0	43	102	1048576	9	4017
2026-01-24 14:23:42.17	271.32	18.32	-24.2	-25.0	18.2	0.00e+00	0	43	102	1048576	9	3949
2026-01-24 14:23:43.17	271.56	18.33	-24.2	-25.0	18.2	0.00e+00	0	43	102	1048576	9	3931
2026-01-24 14:23:44.18	271.80	18.34	-24.3	-25.2	18.1	0.00e+00	0	43	102	1048576	9	3971
2026-01-24 14:23:45.18	272.03	18.35	-24.2	-24.9	18.3	2.20e-06	0	43	102	1048576	9	3910
2026-01-24 14:23:46.18	272.27	18.35	-24.2	-25.0	18.2	0.00e+00	0	43	102	1048576	9	3931
2026-01-24 14:23:47.19	272.51	18.36	-24.2	-25.0	18.2	0.00e+00	0	43	102	1048576	9	3926
2026-01-24 14:23:48.19	272.75	18.36	-24.3	-25.1	18.2	1.10e-06	0	43	102	1048576	9	3960
2026-01-24 14:23:49.19	272.98	18.37	-24.2	-25.0	18.2	0.00e+00	0	43	102	1048576	9	3928
2026-01-24 14:23:50.19	273.22	18.37	-24.2	-25.0	18.2	0.00e+00	0	43	102	1048576	9	3940
2026-01-24 14:23:51.19	273.46	18.38	-24.4	-25.3	18.1	0.00e+00	0	43	102	1048576	9	4006
2026-01-24 14:23:52.20	273.70	18.38	-24.3	-25.1	18.1	0.00e+00	0	43	102	1048576	9	3972
2026-01-24 14:23:53.20	273.94	18.38	-24.3	-25.1	18.1	0.00e+00	0	43	102	1048576	9	3964
2026-01-24 14:23:54.21	274.18	18.39	-24.4	-25.4	18.0	2.20e-06	0	43	102	1048576	9	4037
2026-01-24 14:23:55.20	274.41	18.39	-24.3	-25.2	18.1	0.00e+00	0	43	102	1048576	9	3971
2026-01-24 14:23:56.21	274.65	18.39	-24.4	-25.4	18.0	0.00e+00	0	43	102	1048576	9	4042
2026-01-24 14:23:57.21	274.89	18.39	-24.6	-25.9	17.8	0.00e+00	0	43	102	1048576	9	4143
2026-01-24 14:23:58.21	275.13	18.39	-24.5	-25.5	18.0	0.00e+00	0	43	102	1048576	9	4052
2026-01-24 14:23:59.21	275.37	18.39	-24.4	-25.3	18.0	0.00e+00	0	43	102	1048576	9	4009
2026-01-24 14:24:00.22	275.61	18.39	-24.5	-25.5	18.0	0.00e+00	0	43	102	1048576	9	4055
2026-01-24 14:24:01.23	275.85	18.39	-24.4	-25.4	18.0	0.00e+00	0	43	102	1048576	9	4046
2026-01-24 14:24:02.23	276.08	18.39	-24.5	-25.7	17.9	0.00e+00	0	43	102	1048576	9	4106
2026-01-24 14:24:03.23	276.32	18.39	-24.6	-25.9	17.7	0.00e+00	0	43	102	1048576	9	4165
2026-01-24 14:24:04.23	276.56	18.38	-24.5	-25.7	17.9	0.00e+00	0	43	102	1048576	9	4106
2026-01-24 14:24:05.24	276.80	18.38	-24.5	-25.6	17.9	0.00e+00	0	43	102	1048576	9	4076
2026-01-24 14:24:06.24	277.04	18.38	-24.5	-25.5	17.9	0.00e+00	0	43	102	1048576	9	4065
2026-01-24 14:24:07.24	277.27	18.38	-24.4	-25.4	18.0	0.00e+00	0	43	102	1048576	9	4036
2026-01-24 14:24:08.25	277.51	18.37	-24.3	-25.2	18.1	0.00e+00	0	43	102	1048576	9	3991
2026-01-24 14:24:09.25	277.75	18.37	-24.3	-25.2	18.1	0.00e+00	0	43	102	1048576	9	3997
2026-01-24 14:24:10.25	277.99	18.36	-24.4	-25.4	18.0	0.00e+00	0	43	102	1048576	9	4035
2026-01-24 14:24:11.25	278.23	18.36	-24.5	-25.7	17.9	0.00e+00	0	43	102	1048576	9	4106
2026-01-24 14:24:12.26	278.46	18.35	-24.5	-25.6	17.9	0.00e+00	0	43	102	1048576	9	4075
2026-01-24 14:24:13.27	278.70	18.34	-24.5	-25.6	18.0	0.00e+00	0	43	102	1048576	9	4077
2026-01-24 14:24:14.27	278.94	18.34	-24.5	-25.6	17.9	0.00e+00	0	43	102	1048576	9	4071
2026-01-24 14:24:15.27	279.18	18.33	-24.4	-25.3	18.1	0.00e+00	0	43	102	1048576	9	4008
2026-01-24 14:24:16.27	279.41	18.32	-24.5	-25.5	17.9	0.00e+00	0	43	102	1048576	9	4059
2026-01-24 14:24:17.27	279.65	18.31	-24.5	-25.6	17.9	0.00e+00	0	43	102	1048576	9	4076
2026-01-24 14:24:18.27	279.89	18.30	-24.4	-25.4	18.0	0.00e+00	0	43	102	1048576	9	4037
2026-01-24 14:24:19.27	280.12	18.29	-24.4	-25.5	18.0	0.00e+00	0	43	102	1048576	9	4053
2026-01-24 14:24:20.28	280.36	18.28	-24.5	-25.5	17.9	0.00e+00	0	43	102	1048576	9	4061
2026-01-24 14:24:21.29	280.60	18.27	-24.5	-25.5	17.9	0.00e+00	0	43	102	1048576	9	4070
2026-01-24 14:24:22.29	280.84	18.26	-24.5	-25.5	17.9	0.00e+00	0	43	102	1048576	9	4066
2026-01-24 14:24:23.30	281.07	18.25	-24.5	-25.6	17.9	0.00e+00	0	43	102	1048576	9	4083
2026-01-24 14:24:24.30	281.31	18.24	-24.3	-25.2	18.1	0.00e+00	0	43	102	1048576	9	3989
2026-01-24 14:24:25.31	281.55	18.23	-24.3	-25.1	18.2	0.00e+00	0	43	102	1048576	9	3959
2026-01-24 14:24:26.31	281.78	18.21	-24.3	-25.2	18.1	0.00e+00	0	43	102	1048576	9	3972
2026-01-24 14:24:27.31	282.02	18.20	-24.3	-25.2	18.1	0.00e+00	0	43	102	1048576	9	3975
2026-01-24 14:24:28.32	282.25	18.19	-24.4	-25.3	18.0	0.00e+00	0	43	102	1048576	9	4016
2026-01-24 14:24:29.32	282.49	18.17	-24.4	-25.3	18.0	0.00e+00	0	43	102	1048576	9	4017
2026-01-24 14:24:30.32	282.72	18.16	-24.3	-25.2	18.1	0.00e+00	0	43	102	1048576	9	3988
2026-01-24 14:24:31.33	282.96	18.14	-24.3	-25.1	18.2	0.00e+00	0	43	102	1048576	9	3959
2026-01-24 14:24:32.33	283.19	18.13	-24.3	-25.3	18.1	0.00e+00	0	43	102	1048576	9	4000
2026-01-24 14:24:33.33	283.43	18.11	-24.4	-25.4	18.0	0.00e+00	0	43	102	1048576	9	4039
2026-01-24 14:24:34.33	283.66	18.10	-24.4	-25.4	18.0	0.00e+00	0	43	102	1048576	9	4034
2026-01-24 14:24:35.34	283.89	18.08	-24.4	-25.5	18.0	0.00e+00	0	43	102	1048576	9	4058
2026-01-24 14:24:36.35	284.13	18.06	-24.5	-25.6	17.9	0.00e+00	0	43	102	1048576	9	4085
2026-01-24 14:24:37.35	284.36	18.05	-24.5	-25.7	17.8	0.00e+00	0	43	102	1048576	9	4114
2026-01-24 14:24:38.36	284.60	18.03	-24.5	-25.6	17.9	0.00e+00	0	43	102	1048576	9	4091
2026-01-24 14:24:39.36	284.83	18.01	-24.7	-26.0	17.7	0.00e+00	0	43	102	1048576	9	4178
2026-01-24 14:24:40.36	285.06	17.99	-24.8	-26.3	17.5	0.00e+00	0	43	102	1048576	9	4250
2026-01-24 14:24:41.37	285.29	17.97	-24.9	-26.4	17.5	0.00e+00	0	43	102	1048576	9	4295
2026-01-24 14:24:42.37	285.52	17.95	-24.9	-26.5	17.4	0.00e+00	0	43	102	1048576	9	4316
2026-01-24 14:24:43.37	285.76	17.93	-25.0	-26.2	17.3	0.00e+00	0	43	102	1048576	10	4124
2026-01-24 14:24:44.38	285.99	17.91	-25.0	-26.2	17.3	0.00e+00	0	43	102	1048576	10	4124
2026-01-24 14:24:45.39	286.22	17.89	-25.1	-26.3	17.3	0.00e+00	0	43	102	1048576	10	4152
2026-01-24 14:24:46.39	286.45	17.87	-25.1	-26.5	17.2	0.00e+00	0	43	102	1048576	10	4197
2026-01-24 14:24:47.40	286.68	17.84	-25.0	-26.2	17.4	0.00e+00	0	43	102	1048576	10	4119
2026-01-24 14:24:48.40	286.91	17.82	-25.0	-26.2	17.3	0.00e+00	0	43	102	1048576	10	4138
2026-01-24 14:24:49.40	287.14	17.80	-25.0	-26.2	17.3	0.00e+00	0	43	102	1048576	10	4127
2026-01-24 14:24:50.41	287.37	17.78	-24.9	-26.0	17.4	0.00e+00	0	43	102	1048576	10	4087
2026-01-24 14:24:51.41	287.60	17.75	-24.9	-26.0	17.4	0.00e+00	0	43	102	1048576	10	4088
2026-01-24 14:24:52.42	287.83	17.73	-24.9	-26.0	17.4	0.00e+00	0	43	102	1048576	10	4064
2026-01-24 14:24:53.42	288.06	17.70	-24.8	-25.8	17.6	0.00e+00	0	43	102	1048576	10	4019
2026-01-24 14:24:54.42	288.28	17.68	-24.9	-25.9	17.5	0.00e+00	0	43	102	1048576	10	4046
2026-01-24 14:24:55.42	288.51	17.65	-25.0	-26.1	17.4	0.00e+00	0	43	102	1048576	10	4099
2026-01-24 14:24:56.42	288.74	17.63	-24.8	-25.7	17.6	0.00e+00	0	43	102	1048576	10	3997
2026-01-24 14:24:57.41	288.96	17.60	-24.8	-25.7	17.6	0.00e+00	0	43	102	1048576	10	3998
2026-01-24 14:24:58.42	289.19	17.58	-24.8	-25.7	17.6	0.00e+00	0	43	102	1048576	10	4001
2026-01-24 14:24:59.42	289.41	17.55	-24.8	-25.8	17.5	0.00e+00	0	43	102	1048576	10	4029
2026-01-24 14:25:00.43	289.64	17.52	-24.9	-25.9	17.5	0.00e+00	0	43	102	1048576	10	4044
2026-01-24 14:25:01.44	289.87	17.49	-24.8	-25.8	17.5	0.00e+00	0	43	102	1048576	10	4020
2026-01-24 14:25:02.44	290.09	17.46	-24.8	-25.6	17.6	0.00e+00	0	43	102	1048576	10	3979
2026-01-24 14:25:03.45	290.31	17.44	-24.8	-25.7	17.6	0.00e+00	0	43	102	1048576	10	3994
2026-01-24 14:25:04.46	290.54	17.41	-24.9	-26.0	17.5	0.00e+00	0	43	102	1048576	10	4066
2026-01-24 14:25:05.46	290.76	17.38	-24.9	-26.0	17.4	0.00e+00	0	43	102	1048576	10	4084
2026-01-24 14:25:06.47	290.99	17.35	-25.1	-26.4	17.2	0.00e+00	0	43	102	1048576	10	4173
2026-01-24 14:25:07.48	291.21	17.32	-25.1	-26.3	17.3	0.00e+00	0	43	102	1048576	10	4151
2026-01-24 14:25:08.48	291.43	17.29	-25.0	-26.2	17.3	0.00e+00	0	43	102	1048576	10	4128
2026-01-24 14:25:09.48	291.65	17.26	-25.0	-26.2	17.3	0.00e+00	0	43	102	1048576	10	4132
2026-01-24 14:25:10.48	291.87	17.23	-25.1	-26.3	17.2	0.00e+00	0	43	102	1048576	10	4157
2026-01-24 14:25:11.49	292.10	17.19	-25.1	-26.4	17.2	0.00e+00	0	43	102	1048576	10	4180
2026-01-24 14:25:12.49	292.32	17.16	-25.1	-26.4	17.2	0.00e+00	0	43	102	1048576	10	4167
2026-01-24 14:25:13.49	292.53	17.13	-25.1	-26.4	17.2	0.00e+00	0	43	102	1048576	10	4185
2026-01-24 14:25:14.50	292.75	17.10	-24.9	-26.0	17.4	0.00e+00	0	43	102	1048576	10	4071
2026-01-24 14:25:15.50	292.97	17.06	-24.9	-25.9	17.5	0.00e+00	0	43	102	1048576	10	4052
2026-01-24 14:25:16.50	293.19	17.03	-24.9	-25.9	17.4	0.00e+00	0	43	102	1048576	10	4056
2026-01-24 14:25:17.50	293.41	17.00	-24.9	-26.0	17.4	0.00e+00	0	43	102	1048576	10	4080
2026-01-24 14:25:18.50	293.62	16.96	-24.8	-25.8	17.5	0.00e+00	0	43	102	1048576	10	4032
2026-01-24 14:25:19.51	293.84	16.93	-24.9	-26.0	17.4	0.00e+00	0	43	102	1048576	10	4062
2026-01-24 14:25:20.51	294.06	16.89	-24.9	-26.0	17.4	0.00e+00	0	43	102	1048576	10	4064
2026-01-24 14:25:21.52	294.28	16.86	-25.0	-26.1	17.4	0.00e+00	0	43	102	1048576	10	4092
2026-01-24 14:25:22.52	294.49	16.82	-25.0	-26.1	17.3	0.00e+00	0	43	102	1048576	10	4095
2026-01-24 14:25:23.53	294.71	16.79	-24.9	-26.1	17.4	0.00e+00	0	43	102	1048576	10	4094
2026-01-24 14:25:24.54	294.92	16.75	-24.9	-26.0	17.4	0.00e+00	0	43	102	1048576	10	4078
2026-01-24 14:25:25.53	295.13	16.72	-24.9	-25.9	17.5	0.00e+00	0	43	102	1048576	10	4039
2026-01-24 14:25:26.54	295.35	16.68	-24.9	-25.9	17.5	0.00e+00	0	43	102	1048576	10	4049
2026-01-24 14:25:27.53	295.56	16.64	-24.9	-26.0	17.4	0.00e+00	0	43	102	1048576	10	4069
2026-01-24 14:25:28.53	295.77	16.61	-24.8	-25.8	17.5	0.00e+00	0	43	102	1048576	10	4022
2026-01-24 14:25:29.54	295.98	16.57	-24.9	-26.0	17.4	0.00e+00	0	43	102	1048576	10	4074
2026-01-24 14:25:30.54	296.19	16.53	-24.9	-26.0	17.4	0.00e+00	0	43	102	1048576	10	4078
2026-01-24 14:25:31.54	296.40	16.49	-24.9	-26.0	17.4	0.00e+00	0	43	102	1048576	10	4075
2026-01-24 14:25:32.54	296.61	16.45	-25.0	-26.1	17.3	0.00e+00	0	43	102	1048576	10	4111
2026-01-24 14:25:33.55	296.83	16.41	-25.0	-26.3	17.3	0.00e+00	0	43	102	1048576	10	4146
2026-01-24 14:25:34.55	297.03	16.38	-25.1	-26.5	17.1	0.00e+00	0	43	102	1048576	10	4199
2026-01-24 14:25:35.56	297.24	16.34	-25.2	-26.5	17.1	0.00e+00	0	43	102	1048576	10	4209
2026-01-24 14:25:36.56	297.45	16.30	-25.1	-26.4	17.2	0.00e+00	0	43	102	1048576	10	4175
2026-01-24 14:25:37.56	297.66	16.26	-25.1	-26.3	17.2	0.00e+00	0	43	102	1048576	10	4156
2026-01-24 14:25:38.56	297.86	16.22	-25.1	-26.4	17.2	0.00e+00	0	43	102	1048576	10	4188
2026-01-24 14:25:39.57	298.07	16.18	-25.1	-26.5	17.1	0.00e+00	0	43	102	1048576	10	4195
2026-01-24 14:25:40.57	298.28	16.13	-25.2	-26.6	17.1	0.00e+00	0	43	102	1048576	10	4238
2026-01-24 14:25:41.58	298.48	16.09	-25.3	-26.8	17.0	0.00e+00	0	43	102	1048576	10	4274
2026-01-24 14:25:42.58	298.69	16.05	-25.4	-27.0	16.9	0.00e+00	0	43	102	1048576	10	4325
2026-01-24 14:25:43.58	298.89	16.01	-25.3	-26.8	17.0	0.00e+00	0	43	102	1048576	10	4293
2026-01-24 14:25:44.58	299.10	15.97	-25.3	-26.9	16.9	0.00e+00	0	43	102	1048576	10	4311
2026-01-24 14:25:45.59	299.30	15.93	-25.3	-26.8	16.9	0.00e+00	0	43	102	1048576	10	4285
2026-01-24 14:25:46.59	299.50	15.88	-25.2	-26.7	17.0	0.00e+00	0	43	102	1048576	10	4248
2026-01-24 14:25:47.60	299.71	15.84	-25.3	-26.8	16.9	0.00e+00	0	43	102	1048576	10	4293
2026-01-24 14:25:48.60	299.91	15.80	-25.3	-26.8	17.0	0.00e+00	0	43	102	1048576	10	4272
2026-01-24 14:25:49.60	300.11	15.76	-25.3	-26.7	17.0	0.00e+00	0	43	102	1048576	10	4262
2026-01-24 14:25:50.60	300.31	15.71	-25.3	-26.8	16.9	0.00e+00	0	43	102	1048576	10	4287
2026-01-24 14:25:51.61	300.51	15.67	-25.4	-27.0	16.8	0.00e+00	0	43	102	1048576	10	4331
2026-01-24 14:25:52.62	300.71	15.62	-25.3	-26.9	16.9	0.00e+00	0	43	102	1048576	10	4316
2026-01-24 14:25:53.62	300.91	15.58	-25.5	-27.2	16.7	0.00e+00	0	43	102	1048576	10	4380
2026-01-24 14:25:54.63	301.11	15.53	-25.4	-27.0	16.8	0.00e+00	0	43	102	1048576	10	4342
2026-01-24 14:25:55.63	301.30	15.49	-25.3	-26.8	16.9	1.10e-06	0	43	102	1048576	10	4286
2026-01-24 14:25:56.63	301.50	15.45	-25.4	-26.9	16.9	0.00e+00	0	43	102	1048576	10	4320
2026-01-24 14:25:57.64	301.70	15.40	-25.4	-26.9	16.9	0.00e+00	0	43	102	1048576	10	4316
2026-01-24 14:25:58.64	301.89	15.35	-25.4	-26.9	16.9	0.00e+00	0	43	102	1048576	10	4315
2026-01-24 14:25:59.64	302.09	15.31	-25.4	-27.0	16.8	0.00e+00	0	43	102	1048576	10	4345
2026-01-24 14:26:00.65	302.28	15.26	-25.5	-26.8	16.7	0.00e+00	0	43	102	1048576	11	4159
2026-01-24 14:26:01.64	302.47	15.22	-25.5	-26.7	16.7	2.20e-06	0	43	102	1048576	11	4142
2026-01-24 14:26:02.64	302.67	15.17	-25.5	-26.6	16.7	0.00e+00	0	43	102	1048576	11	4129
2026-01-24 14:26:03.64	302.86	15.13	-25.4	-26.5	16.8	0.00e+00	0	43	102	1048576	11	4098
2026-01-24 14:26:04.65	303.05	15.08	-25.5	-26.7	16.7	1.10e-06	0	43	102	1048576	11	4135
2026-01-24 14:26:05.65	303.24	15.03	-25.4	-26.5	16.8	0.00e+00	0	43	102	1048576	11	4094
2026-01-24 14:26:06.66	303.43	14.98	-25.6	-26.9	16.6	0.00e+00	0	43	102	1048576	11	4185
2026-01-24 14:26:07.65	303.62	14.94	-25.6	-26.9	16.6	1.10e-06	0	43	102	1048576	11	4205
2026-01-24 14:26:08.66	303.81	14.89	-25.4	-26.6	16.7	0.00e+00	0	43	102	1048576	11	4123
2026-01-24 14:26:09.66	304.00	14.84	-25.4	-26.5	16.8	0.00e+00	0	43	102	1048576	11	4090
2026-01-24 14:26:10.67	304.19	14.79	-25.4	-26.6	16.7	1.10e-06	0	43	102	1048576	11	4128
2026-01-24 14:26:11.67	304.38	14.75	-25.4	-26.5	16.8	0.00e+00	0	43	102	1048576	11	4104
2026-01-24 14:26:12.68	304.57	14.70	-25.5	-26.7	16.7	0.00e+00	0	43	102	1048576	11	4141
2026-01-24 14:26:13.68	304.75	14.65	-25.4	-26.5	16.8	0.00e+00	0	43	102	1048576	11	4096
2026-01-24 14:26:14.68	304.94	14.60	-25.4	-26.6	16.8	0.00e+00	0	43	102	1048576	11	4112
2026-01-24 14:26:15.69	305.13	14.55	-25.3	-26.4	16.8	0.00e+00	0	43	102	1048576	11	4073
2026-01-24 14:26:16.69	305.31	14.50	-25.5	-26.8	16.6	0.00e+00	0	43	102	1048576	11	4182
2026-01-24 14:26:17.69	305.50	14.45	-25.5	-26.9	16.6	0.00e+00	0	43	102	1048576	11	4189
2026-01-24 14:26:18.69	305.68	14.40	-25.6	-27.0	16.5	0.00e+00	0	43	102	1048576	11	4220
2026-01-24 14:26:19.69	305.86	14.36	-25.7	-27.3	16.3	0.00e+00	0	43	102	1048576	11	4297
2026-01-24 14:26:20.69	306.04	14.31	-25.8	-27.4	16.3	0.00e+00	0	43	102	1048576	11	4330
2026-01-24 14:26:21.69	306.22	14.26	-25.8	-27.5	16.2	0.00e+00	0	43	102	1048576	11	4366
2026-01-24 14:26:22.69	306.41	14.21	-25.8	-27.4	16.2	0.00e+00	0	43	102	1048576	11	4345
2026-01-24 14:26:23.69	306.59	14.16	-25.9	-27.6	16.2	0.00e+00	0	43	102	1048576	11	4375
2026-01-24 14:26:24.70	306.77	14.11	-25.8	-27.5	16.2	0.00e+00	0	43	102	1048576	11	4357
2026-01-24 14:26:25.71	306.95	14.06	-26.0	-27.8	16.1	0.00e+00	0	43	102	1048576	11	4438
2026-01-24 14:26:26.71	307.13	14.00	-25.9	-27.6	16.1	0.00e+00	0	43	102	1048576	11	4396
2026-01-24 14:26:27.71	307.30	13.95	-25.8	-27.4	16.3	0.00e+00	0	43	102	1048576	11	4317
2026-01-24 14:26:28.71	307.48	13.90	-25.7	-27.2	16.3	0.00e+00	0	43	102	1048576	11	4278
2026-01-24 14:26:29.72	307.66	13.85	-25.6	-27.0	16.4	0.00e+00	0	43	102	1048576	11	4230
2026-01-24 14:26:30.72	307.84	13.80	-25.7	-27.3	16.3	0.00e+00	0	43	102	1048576	11	4301
2026-01-24 14:26:31.72	308.01	13.75	-25.7	-27.1	16.4	0.00e+00	0	43	102	1048576	11	4258
2026-01-24 14:26:32.72	308.19	13.70	-25.6	-27.0	16.4	0.00e+00	0	43	102	1048576	11	4235
2026-01-24 14:26:33.72	308.36	13.65	-25.9	-27.6	16.1	0.00e+00	0	43	102	1048576	11	4377
2026-01-24 14:26:34.73	308.54	13.59	-25.8	-27.3	16.2	0.00e+00	0	43	102	1048576	11	4317
2026-01-24 14:26:35.73	308.71	13.54	-25.7	-27.2	16.3	0.00e+00	0	43	102	1048576	11	4280
2026-01-24 14:26:36.73	308.88	13.49	-25.7	-27.3	16.3	0.00e+00	0	43	102	1048576	11	4305
2026-01-24 14:26:37.74	309.06	13.44	-26.0	-27.8	16.0	0.00e+00	0	43	102	1048576	11	4447
2026-01-24 14:26:38.74	309.23	13.39	-26.1	-27.6	15.8	0.00e+00	0	43	102	1048576	12	4273
2026-01-24 14:26:39.74	309.40	13.33	-26.2	-27.9	15.6	1.10e-06	0	43	102	1048576	12	4367
2026-01-24 14:26:40.75	309.57	13.28	-26.3	-27.9	15.6	0.00e+00	0	43	102	1048576	12	4373
2026-01-24 14:26:41.75	309.74	13.23	-26.1	-27.6	15.7	0.00e+00	0	43	102	1048576	12	4289
2026-01-24 14:26:42.76	309.91	13.18	-26.1	-27.7	15.7	0.00e+00	0	43	102	1048576	12	4292
2026-01-24 14:26:43.75	310.08	13.12	-26.2	-27.7	15.7	0.00e+00	0	43	102	1048576	12	4310
2026-01-24 14:26:44.76	310.25	13.07	-26.2	-27.7	15.7	0.00e+00	0	43	102	1048576	12	4311
2026-01-24 14:26:45.76	310.42	13.02	-26.4	-28.3	15.4	0.00e+00	0	43	102	1048576	12	4480
2026-01-24 14:26:46.76	310.58	12.97	-26.3	-27.5	15.5	0.00e+00	0	43	102	1048576	13	4152
2026-01-24 14:26:47.77	310.75	12.91	-26.0	-26.9	15.8	0.00e+00	0	43	102	1048576	13	3995
2026-01-24 14:26:48.78	310.92	12.86	-26.0	-27.0	15.8	0.00e+00	0	43	102	1048576	13	4000
2026-01-24 14:26:49.78	311.08	12.81	-26.1	-27.2	15.7	0.00e+00	0	43	102	1048576	13	4057
2026-01-24 14:26:50.78	311.25	12.75	-26.1	-27.2	15.7	0.00e+00	0	43	102	1048576	13	4063
2026-01-24 14:26:51.78	311.41	12.70	-26.3	-27.5	15.5	0.00e+00	0	43	102	1048576	13	4138
2026-01-24 14:26:52.79	311.58	12.64	-26.2	-27.3	15.6	0.00e+00	0	43	102	1048576	13	4098
2026-01-24 14:26:53.79	311.74	12.59	-26.1	-27.0	15.8	0.00e+00	0	43	102	1048576	13	4020
2026-01-24 14:26:54.79	311.90	12.54	-26.0	-26.9	15.9	0.00e+00	0	43	102	1048576	13	3981
2026-01-24 14:26:55.79	312.06	12.48	-26.0	-26.9	15.8	0.00e+00	0	43	102	1048576	13	3995
2026-01-24 14:26:56.80	312.22	12.43	-25.8	-26.5	16.0	0.00e+00	0	43	102	1048576	13	3902
2026-01-24 14:26:57.80	312.38	12.37	-25.9	-26.6	16.0	0.00e+00	0	43	102	1048576	13	3925
2026-01-24 14:26:58.81	312.55	12.32	-25.8	-26.5	16.0	0.00e+00	0	43	102	1048576	13	3896
2026-01-24 14:26:59.81	312.70	12.27	-25.9	-26.7	15.9	0.00e+00	0	43	102	1048576	13	3931
2026-01-24 14:27:00.81	312.86	12.21	-25.9	-26.6	16.0	0.00e+00	0	43	102	1048576	13	3907
2026-01-24 14:27:01.81	313.02	12.16	-25.9	-26.6	15.9	0.00e+00	0	43	102	1048576	13	3926
2026-01-24 14:27:02.82	313.18	12.10	-25.9	-26.7	15.9	0.00e+00	0	43	102	1048576	13	3947
2026-01-24 14:27:03.82	313.34	12.05	-26.0	-26.8	15.9	0.00e+00	0	43	102	1048576	13	3969
2026-01-24 14:27:04.83	313.50	11.99	-26.0	-26.8	15.9	0.00e+00	0	43	102	1048576	13	3968
2026-01-24 14:27:05.84	313.65	11.94	-25.9	-26.7	15.9	0.00e+00	0	43	102	1048576	13	3946
2026-01-24 14:27:06.84	313.81	11.88	-26.1	-27.1	15.7	0.00e+00	0	43	102	1048576	13	4036
2026-01-24 14:27:07.85	313.96	11.83	-26.0	-26.8	15.8	0.00e+00	0	43	102	1048576	13	3969
2026-01-24 14:27:08.85	314.12	11.77	-26.0	-27.0	15.7	0.00e+00	0	43	102	1048576	13	4016
2026-01-24 14:27:09.84	314.27	11.72	-26.1	-27.0	15.7	0.00e+00	0	43	102	1048576	13	4028
2026-01-24 14:27:10.85	314.43	11.66	-26.1	-27.0	15.7	0.00e+00	0	43	102	1048576	13	4029
2026-01-24 14:27:11.86	314.58	11.61	-26.3	-27.6	15.3	0.00e+00	0	43	102	1048576	13	4182
2026-01-24 14:27:12.86	314.73	11.55	-26.2	-27.3	15.5	0.00e+00	0	43	102	1048576	13	4103
2026-01-24 14:27:13.87	314.88	11.50	-26.0	-26.9	15.7	0.00e+00	0	43	102	1048576	13	3998
2026-01-24 14:27:14.87	315.03	11.44	-26.1	-27.1	15.7	0.00e+00	0	43	102	1048576	13	4034
2026-01-24 14:27:15.88	315.19	11.39	-26.0	-27.0	15.7	0.00e+00	0	43	102	1048576	13	4008
2026-01-24 14:27:16.88	315.34	11.33	-26.1	-27.1	15.6	0.00e+00	0	43	102	1048576	13	4041
2026-01-24 14:27:17.89	315.49	11.28	-26.1	-27.2	15.6	0.00e+00	0	43	102	1048576	13	4057
2026-01-24 14:27:18.89	315.64	11.22	-26.3	-27.6	15.3	0.00e+00	0	43	102	1048576	13	4181
2026-01-24 14:27:19.89	315.78	11.17	-26.2	-27.4	15.4	0.00e+00	0	43	102	1048576	13	4128
2026-01-24 14:27:20.89	315.93	11.11	-26.4	-27.7	15.3	0.00e+00	0	43	102	1048576	13	4199
2026-01-24 14:27:21.90	316.08	11.06	-26.4	-27.7	15.3	0.00e+00	0	43	102	1048576	13	4206
2026-01-24 14:27:22.90	316.23	11.00	-26.4	-27.9	15.2	1.10e-06	0	43	102	1048576	13	4240
2026-01-24 14:27:23.90	316.37	10.94	-26.4	-27.8	15.2	0.00e+00	0	43	102	1048576	13	4241
2026-01-24 14:27:24.90	316.52	10.89	-26.5	-28.1	15.1	1.10e-06	0	43	102	1048576	13	4298
2026-01-24 14:27:25.89	316.66	10.83	-26.4	-27.7	15.2	0.00e+00	0	43	102	1048576	13	4215
2026-01-24 14:27:26.89	316.80	10.78	-26.3	-27.7	15.3	0.00e+00	0	43	102	1048576	13	4193
2026-01-24 14:27:27.89	316.95	10.72	-26.3	-27.7	15.3	0.00e+00	0	43	102	1048576	13	4199
2026-01-24 14:27:28.89	317.09	10.67	-26.5	-28.0	15.1	1.10e-06	0	43	102	1048576	13	4296
2026-01-24 14:27:29.90	317.24	10.61	-26.4	-27.9	15.1	0.00e+00	0	43	102	1048576	13	4254
2026-01-24 14:27:30.90	317.38	10.56	-26.4	-27.8	15.2	0.00e+00	0	43	102	1048576	13	4222
2026-01-24 14:27:31.91	317.52	10.50	-26.5	-28.0	15.1	0.00e+00	0	43	102	1048576	13	4279
2026-01-24 14:27:32.91	317.66	10.44	-26.5	-27.9	15.1	0.00e+00	0	43	102	1048576	13	4266
2026-01-24 14:27:33.91	317.80	10.39	-26.4	-27.8	15.2	0.00e+00	0	43	102	1048576	13	4225
2026-01-24 14:27:34.91	317.94	10.33	-26.4	-27.9	15.1	0.00e+00	0	43	102	1048576	13	4243
2026-01-24 14:27:35.92	318.08	10.28	-26.4	-27.8	15.2	0.00e+00	0	43	102	1048576	13	4237
2026-01-24 14:27:36.92	318.22	10.22	-26.5	-28.1	15.0	1.10e-06	0	43	102	1048576	13	4298
2026-01-24 14:27:37.93	318.36	10.16	-26.4	-27.9	15.1	1.10e-06	0	43	102	1048576	13	4245
2026-01-24 14:27:38.93	318.50	10.11	-26.5	-27.9	15.1	4.50e-06	0	43	102	1048576	13	4264
2026-01-24 14:27:39.94	318.64	10.05	-26.5	-28.1	15.0	0.00e+00	0	43	102	1048576	13	4316
2026-01-24 14:27:40.94	318.78	10.00	-26.4	-27.9	15.1	0.00e+00	0	43	102	1048576	13	4246
2026-01-24 14:27:41.94	318.91	9.94	-26.5	-28.1	15.0	2.20e-06	0	43	102	1048576	13	4305
2026-01-24 14:27:42.94	319.05	9.88	-26.5	-28.1	15.0	1.10e-06	0	43	102	1048576	13	4300
2026-01-24 14:27:43.95	319.19	9.83	-26.6	-28.2	14.9	0.00e+00	0	43	102	1048576	13	4346
2026-01-24 14:27:44.96	319.32	9.77	-26.5	-28.1	15.0	0.00e+00	0	43	102	1048576	13	4306
2026-01-24 14:27:45.97	319.46	9.71	-26.4	-27.8	15.1	0.00e+00	0	43	102	1048576	13	4232
2026-01-24 14:27:46.98	319.59	9.66	-26.5	-28.1	15.0	0.00e+00	0	43	102	1048576	13	4315
2026-01-24 14:27:47.99	319.73	9.60	-26.4	-27.8	15.1	0.00e+00	0	43	102	1048576	13	4231
2026-01-24 14:27:48.99	319.86	9.55	-26.5	-28.0	15.0	0.00e+00	0	43	102	1048576	13	4280
2026-01-24 14:27:49.99	319.99	9.49	-26.5	-27.9	15.1	0.00e+00	0	43	102	1048576	13	4264
2026-01-24 14:27:51.00	320.13	9.43	-26.4	-27.8	15.1	1.10e-06	0	43	102	1048576	13	4234
2026-01-24 14:27:52.01	320.26	9.38	-26.6	-28.2	14.9	2.20e-06	0	43	102	1048576	13	4331
2026-01-24 14:27:53.02	320.39	9.32	-26.5	-28.0	15.0	0.00e+00	0	43	102	1048576	13	4283
2026-01-24 14:27:54.03	320.52	9.26	-26.5	-28.1	14.9	0.00e+00	0	43	102	1048576	13	4313
2026-01-24 14:27:55.03	320.66	9.21	-26.6	-28.3	14.8	0.00e+00	0	43	102	1048576	13	4369
2026-01-24 14:27:56.04	320.79	9.15	-26.6	-28.2	14.8	0.00e+00	0	43	102	1048576	13	4353
2026-01-24 14:27:57.04	320.91	9.10	-26.7	-28.6	14.7	0.00e+00	0	43	102	1048576	13	4449
2026-01-24 14:27:58.04	321.04	9.04	-26.6	-28.4	14.8	2.20e-06	0	43	102	1048576	13	4390
2026-01-24 14:27:59.04	321.17	8.98	-26.7	-28.5	14.7	0.00e+00	0	43	102	1048576	13	4440
2026-01-24 14:28:00.04	321.30	8.93	-26.8	-28.8	14.5	0.00e+00	0	43	102	1048576	13	4505
2026-01-24 14:28:01.05	321.43	8.87	-26.8	-28.7	14.5	0.00e+00	0	43	102	1048576	13	4498
2026-01-24 14:28:02.05	321.55	8.82	-26.9	-29.0	14.3	1.10e-06	0	43	102	1048576	13	4584
2026-01-24 14:28:03.06	321.68	8.76	-26.9	-29.0	14.4	2.20e-06	0	43	102	1048576	13	4571
2026-01-24 14:28:04.06	321.81	8.70	-26.9	-29.0	14.4	3.40e-06	0	43	102	1048576	13	4568
2026-01-24 14:28:05.07	321.93	8.65	-27.2	-29.2	14.0	5.70e-06	0	43	102	1048576	14	4512
2026-01-24 14:28:06.08	322.06	8.59	-27.5	-29.8	13.5	1.02e-05	0	43	102	1048576	14	4711
2026-01-24 14:28:07.09	322.19	8.53	-27.4	-29.6	13.7	1.14e-05	0	43	102	1048576	14	4633
2026-01-24 14:28:08.09	322.31	8.48	-27.1	-28.9	14.1	3.40e-06	0	43	102	1048576	14	4441
2026-01-24 14:28:09.09	322.43	8.42	-27.1	-28.9	14.1	1.10e-06	0	43	102	1048576	14	4446
2026-01-24 14:28:10.10	322.56	8.37	-27.2	-29.1	14.0	4.50e-06	0	43	102	1048576	14	4494
2026-01-24 14:28:11.09	322.68	8.31	-27.2	-29.3	13.9	8.00e-06	0	43	102	1048576	14	4541
2026-01-24 14:28:12.10	322.80	8.25	-27.3	-29.4	13.8	4.50e-06	0	43	102	1048576	14	4589
2026-01-24 14:28:13.10	322.92	8.20	-27.4	-29.6	13.7	1.14e-05	0	43	102	1048576	14	4628
2026-01-24 14:28:14.09	323.04	8.14	-27.2	-29.2	13.9	1.02e-05	0	43	102	1048576	14	4522
2026-01-24 14:28:15.10	323.17	8.09	-27.1	-29.0	14.0	5.70e-06	0	43	102	1048576	14	4456
2026-01-24 14:28:16.10	323.29	8.03	-27.0	-28.8	14.2	1.10e-06	0	43	102	1048576	14	4393
2026-01-24 14:28:17.11	323.41	7.97	-27.3	-29.4	13.8	6.80e-06	0	43	102	1048576	14	4565
2026-01-24 14:28:18.11	323.53	7.92	-27.3	-29.3	13.9	6.80e-06	0	43	102	1048576	14	4552
2026-01-24 14:28:19.11	323.65	7.86	-27.2	-29.2	13.9	3.40e-06	0	43	102	1048576	14	4514
2026-01-24 14:28:20.12	323.77	7.81	-27.5	-29.8	13.5	1.37e-05	0	43	102	1048576	14	4707
2026-01-24 14:28:21.12	323.88	7.75	-27.3	-29.4	13.8	6.80e-06	0	43	102	1048576	14	4587
2026-01-24 14:28:22.13	324.00	7.70	-27.3	-29.3	13.8	6.80e-06	0	43	102	1048576	14	4554
2026-01-24 14:28:23.13	324.12	7.64	-27.2	-29.1	13.9	6.80e-06	0	43	102	1048576	14	4507
2026-01-24 14:28:24.13	324.24	7.58	-27.3	-29.4	13.8	8.00e-06	0	43	102	1048576	14	4581
2026-01-24 14:28:25.14	324.36	7.53	-27.3	-29.3	13.8	2.20e-06	0	43	102	1048576	14	4559
2026-01-24 14:28:26.15	324.47	7.47	-27.4	-29.7	13.6	1.37e-05	0	43	102	1048576	14	4671
2026-01-24 14:28:27.15	324.59	7.42	-27.3	-29.5	13.7	6.80e-06	0	43	102	1048576	14	4624
2026-01-24 14:28:28.16	324.70	7.36	-27.4	-29.7	13.6	1.71e-05	0	43	102	1048576	14	4686
2026-01-24 14:28:29.16	324.82	7.31	-27.4	-29.5	13.7	8.00e-06	0	43	102	1048576	14	4634
2026-01-24 14:28:30.17	324.93	7.25	-27.4	-29.7	13.6	1.71e-05	0	43	102	1048576	14	4682
2026-01-24 14:28:31.17	325.05	7.19	-27.5	-29.3	13.5	2.40e-05	0	43	102	1048576	15	4431
2026-01-24 14:28:32.17	325.16	7.14	-27.5	-29.4	13.4	2.63e-05	0	43	102	1048576	15	4486
2026-01-24 14:28:33.17	325.27	7.08	-27.4	-29.2	13.6	3.43e-05	0	43	102	1048576	15	4429
2026-01-24 14:28:34.18	325.39	7.03	-33.4	-44.8	3.8	8.45e-01	0	43	104	1048576	26	13386
2026-01-24 14:28:35.18	325.50	6.97	-33.8	-45.0	3.8	8.47e-01	0	43	104	1048576	27	13202
2026-01-24 14:28:36.18	325.61	6.92	-33.9	-45.4	3.8	8.45e-01	0	43	104	1048576	27	13491

#Closed at: 2026-01-24 14:28:36
#Recorded file [1 MB]: D:/data/31010_260124_171928.dat