passes_logs/2026/01/24/R2M6_AANII_01/R2M6_AANII_01__20260124_031352_AQUA_rec.log

#Pass ID: 20260124_031352_AQUA
#Satellite: AQUA
#Configuration: AQUA
#almurnet v.1.7.20240730
#Start time: 2026-01-24 03:13:53

#Version: 2.2.20231116
#Station: R2M6_AANII_01
#Location: 30.233357 lon 59.946436 lat
#TLE: 1 27424U 02022A   26022.96978264  .00001879  00000+0  38593-3 0  9993
#TLE: 2 27424  98.4100 349.5315 0001958  69.4371  21.4765 14.61848807262053

#Time	Az	El	Level	Level2	SNR	BER	BlckErr	Temp	State	Recorded	gain1	gain2
2026-01-24 03:13:53.33	9.41	7.07	-32.7	-49.0	3.8	7.47e-01	0	41	0	0	26	23382
2026-01-24 03:13:54.32	9.33	7.14	-32.7	-48.8	3.8	7.47e-01	0	42	104	0	26	22988
2026-01-24 03:13:55.33	9.26	7.22	-32.6	-48.4	3.8	7.46e-01	0	42	104	0	26	22211
2026-01-24 03:13:56.33	9.18	7.29	-32.7	-48.6	3.8	7.44e-01	0	42	104	0	26	22515
2026-01-24 03:13:57.33	9.11	7.37	-32.6	-48.3	3.8	7.44e-01	0	42	104	0	26	21826
2026-01-24 03:13:58.34	9.03	7.45	-32.7	-48.5	3.8	7.42e-01	0	42	104	0	26	22129
2026-01-24 03:13:59.35	8.95	7.52	-32.7	-48.5	3.8	7.46e-01	0	42	104	0	26	22154
2026-01-24 03:14:00.33	8.87	7.60	-32.5	-47.5	3.9	7.41e-01	0	42	104	0	26	20327
2026-01-24 03:14:01.33	8.80	7.67	-32.2	-47.1	3.8	7.45e-01	0	42	104	0	25	19818
2026-01-24 03:14:02.34	8.72	7.75	-31.9	-46.0	3.8	7.46e-01	0	42	104	0	25	18158
2026-01-24 03:14:03.33	8.64	7.82	-31.7	-45.7	4.0	7.36e-01	0	42	104	0	24	17937
2026-01-24 03:14:04.34	8.56	7.90	-31.5	-45.0	3.8	7.48e-01	0	42	104	0	24	17001
2026-01-24 03:14:05.35	8.48	7.98	-31.4	-44.7	3.9	7.43e-01	0	42	104	0	24	16617
2026-01-24 03:14:06.35	8.40	8.06	-31.6	-45.8	3.8	7.44e-01	0	42	104	0	23	18479
2026-01-24 03:14:07.35	8.32	8.13	-31.6	-45.5	3.8	7.44e-01	0	42	104	0	24	17727
2026-01-24 03:14:08.35	8.24	8.21	-31.5	-45.0	3.8	7.42e-01	0	42	104	0	24	17032
2026-01-24 03:14:09.36	8.15	8.29	-31.4	-45.2	3.8	7.45e-01	0	42	104	0	23	17682
2026-01-24 03:14:10.37	8.07	8.37	-31.3	-44.9	3.8	7.44e-01	0	42	104	0	23	17225
2026-01-24 03:14:11.36	7.99	8.45	-31.3	-44.8	3.8	7.44e-01	0	42	104	0	23	17122
2026-01-24 03:14:12.37	7.90	8.52	-31.4	-45.1	3.8	7.45e-01	0	42	104	0	23	17578
2026-01-24 03:14:13.37	7.82	8.60	-31.7	-45.6	3.8	7.48e-01	0	42	104	0	24	17903
2026-01-24 03:14:14.38	7.73	8.68	-31.9	-46.5	3.8	7.44e-01	0	42	104	0	24	19259
2026-01-24 03:14:15.39	7.65	8.76	-32.3	-47.1	3.8	7.44e-01	0	42	104	0	25	19785
2026-01-24 03:14:16.39	7.56	8.84	-32.5	-48.0	3.8	7.46e-01	0	42	104	0	25	21377
2026-01-24 03:14:17.40	7.48	8.92	-32.8	-48.4	3.8	7.46e-01	0	42	104	0	26	21842
2026-01-24 03:14:18.40	7.39	9.00	-32.9	-48.9	3.8	7.43e-01	0	42	104	0	26	22771
2026-01-24 03:14:19.40	7.30	9.08	-32.9	-49.1	3.8	7.45e-01	0	42	104	0	26	23172
2026-01-24 03:14:20.41	7.21	9.16	-32.9	-49.3	3.8	7.45e-01	0	42	104	0	26	23575
2026-01-24 03:14:21.41	7.13	9.24	-33.0	-49.6	3.8	7.45e-01	0	42	104	0	26	24272
2026-01-24 03:14:22.42	7.04	9.32	-33.1	-50.0	3.8	7.45e-01	0	42	104	0	26	25102
2026-01-24 03:14:23.42	6.95	9.40	-33.2	-49.8	3.8	7.42e-01	0	42	104	0	27	24501
2026-01-24 03:14:24.43	6.86	9.49	-33.3	-50.3	3.8	7.43e-01	0	42	104	0	27	25567
2026-01-24 03:14:25.44	6.77	9.57	-33.3	-50.8	3.8	7.46e-01	0	42	104	0	27	26731
2026-01-24 03:14:26.44	6.67	9.65	-33.4	-51.1	3.8	7.45e-01	0	43	104	0	27	27645
2026-01-24 03:14:27.44	6.58	9.73	-33.5	-51.4	3.8	7.46e-01	0	42	104	0	27	28553
2026-01-24 03:14:28.44	6.49	9.81	-33.5	-51.7	3.8	7.46e-01	0	42	104	0	27	29369
2026-01-24 03:14:29.45	6.40	9.90	-33.5	-51.7	3.8	7.44e-01	0	43	104	0	27	29264
2026-01-24 03:14:30.45	6.30	9.98	-33.5	-51.4	3.8	7.44e-01	0	43	104	0	27	28526
2026-01-24 03:14:31.45	6.21	10.06	-33.5	-51.4	3.8	7.46e-01	0	43	104	0	27	28541
2026-01-24 03:14:32.46	6.11	10.14	-33.5	-51.5	3.8	7.42e-01	0	43	104	0	27	28650
2026-01-24 03:14:33.46	6.02	10.23	-33.4	-51.1	3.8	7.44e-01	0	43	104	0	27	27597
2026-01-24 03:14:34.46	5.92	10.31	-33.4	-50.8	3.8	7.46e-01	0	43	104	0	27	26706
2026-01-24 03:14:35.46	5.83	10.39	-33.3	-50.5	3.8	7.44e-01	0	43	104	0	27	25901
2026-01-24 03:14:36.47	5.73	10.48	-33.3	-50.1	3.8	7.44e-01	0	43	104	0	27	25020
2026-01-24 03:14:37.47	5.63	10.56	-33.2	-49.8	3.8	7.45e-01	0	43	104	0	27	24374
2026-01-24 03:14:38.47	5.53	10.65	-33.1	-49.4	3.8	7.44e-01	0	43	104	0	27	23393
2026-01-24 03:14:39.48	5.43	10.73	-33.0	-49.2	3.8	7.44e-01	0	43	104	0	26	23168
2026-01-24 03:14:40.49	5.33	10.82	-32.8	-48.5	3.8	7.45e-01	0	43	104	0	26	21841
2026-01-24 03:14:41.49	5.23	10.90	-32.6	-47.5	3.8	7.44e-01	0	43	104	0	26	19990
2026-01-24 03:14:42.50	5.13	10.99	-32.3	-47.1	3.8	7.46e-01	0	43	104	0	25	19691
2026-01-24 03:14:43.51	5.03	11.08	-32.1	-46.2	3.8	7.46e-01	0	43	104	0	25	18308
2026-01-24 03:14:44.51	4.93	11.16	-32.0	-46.5	3.8	7.45e-01	0	43	104	0	24	19066
2026-01-24 03:14:45.52	4.82	11.25	-32.0	-46.3	3.8	7.45e-01	0	43	104	0	24	18708
2026-01-24 03:14:46.52	4.72	11.34	-31.9	-46.2	3.8	7.41e-01	0	43	104	0	24	18616
2026-01-24 03:14:47.51	4.62	11.42	-32.0	-46.3	3.8	7.43e-01	0	43	104	0	24	18649
2026-01-24 03:14:48.52	4.51	11.51	-32.1	-46.6	3.8	7.44e-01	0	43	104	0	24	19214
2026-01-24 03:14:49.52	4.41	11.60	-32.0	-45.9	3.8	7.43e-01	0	43	104	0	25	17806
2026-01-24 03:14:50.53	4.30	11.68	-31.7	-45.4	3.8	7.43e-01	0	43	104	0	24	17355
2026-01-24 03:14:51.54	4.19	11.77	-31.4	-45.1	3.8	7.43e-01	0	43	104	0	23	17304
2026-01-24 03:14:52.54	4.08	11.86	-31.2	-44.5	3.8	7.43e-01	0	43	104	0	23	16513
2026-01-24 03:14:53.54	3.97	11.95	-31.2	-44.4	3.8	7.46e-01	0	43	104	0	23	16381
2026-01-24 03:14:54.55	3.86	12.04	-31.5	-45.1	3.8	7.43e-01	0	43	104	0	23	17398
2026-01-24 03:14:55.55	3.75	12.13	-31.7	-45.5	3.8	7.46e-01	0	43	104	0	24	17488
2026-01-24 03:14:56.55	3.64	12.21	-32.0	-46.3	3.8	7.45e-01	0	43	104	0	24	18635
2026-01-24 03:14:57.56	3.53	12.30	-32.0	-46.3	3.8	7.47e-01	0	43	104	0	24	18660
2026-01-24 03:14:58.55	3.42	12.39	-31.8	-45.8	3.8	7.42e-01	0	43	104	0	24	17999
2026-01-24 03:14:59.56	3.31	12.48	-31.7	-45.5	3.8	7.46e-01	0	43	104	0	24	17523
2026-01-24 03:15:00.56	3.19	12.57	-31.7	-45.3	3.8	7.45e-01	0	43	104	0	24	17228
2026-01-24 03:15:01.56	3.08	12.66	-31.6	-45.2	3.8	7.42e-01	0	43	104	0	24	17148
2026-01-24 03:15:02.57	2.96	12.75	-31.8	-45.7	3.8	7.45e-01	0	43	104	0	24	17822
2026-01-24 03:15:03.57	2.85	12.84	-32.1	-46.3	3.8	7.47e-01	0	43	104	0	25	18303
2026-01-24 03:15:04.57	2.73	12.94	-32.4	-47.2	3.8	7.45e-01	0	43	104	0	25	19707
2026-01-24 03:15:05.57	2.61	13.03	-32.7	-47.8	3.8	7.46e-01	0	43	104	0	26	20497
2026-01-24 03:15:06.57	2.49	13.12	-33.0	-48.7	3.8	7.45e-01	0	43	104	0	26	22121
2026-01-24 03:15:07.57	2.37	13.21	-33.1	-49.2	3.8	7.44e-01	0	43	104	0	27	22992
2026-01-24 03:15:08.57	2.25	13.30	-33.2	-49.2	3.8	7.43e-01	0	43	104	0	27	22802
2026-01-24 03:15:09.58	2.13	13.39	-33.2	-49.3	3.8	7.40e-01	0	43	104	0	27	23063
2026-01-24 03:15:10.58	2.01	13.49	-33.3	-49.6	3.8	7.46e-01	0	43	104	0	27	23510
2026-01-24 03:15:11.58	1.89	13.58	-33.3	-49.8	3.8	7.45e-01	0	43	104	0	27	24084
2026-01-24 03:15:12.59	1.76	13.67	-33.4	-50.1	3.8	7.43e-01	0	43	104	0	27	24791
2026-01-24 03:15:13.59	1.64	13.77	-33.5	-50.6	3.8	7.47e-01	0	43	104	0	27	25803
2026-01-24 03:15:14.59	1.51	13.86	-33.5	-51.0	3.8	7.48e-01	0	43	104	0	27	26912
2026-01-24 03:15:15.60	1.39	13.96	-33.5	-50.8	3.8	7.48e-01	0	43	104	0	28	26231
2026-01-24 03:15:16.61	1.26	14.05	-33.6	-51.2	3.8	7.46e-01	0	43	104	0	28	27261
2026-01-24 03:15:17.61	1.13	14.15	-33.6	-51.1	3.8	7.42e-01	0	43	104	0	28	27062
2026-01-24 03:15:18.61	1.00	14.24	-33.5	-50.7	3.8	7.45e-01	0	43	104	0	28	26101
2026-01-24 03:15:19.61	0.87	14.33	-33.5	-50.3	3.8	7.44e-01	0	43	104	0	28	25115
2026-01-24 03:15:20.62	0.74	14.43	-33.5	-50.5	3.8	7.43e-01	0	43	104	0	27	25583
2026-01-24 03:15:21.62	0.61	14.53	-33.5	-50.6	3.8	7.49e-01	0	43	104	0	27	25705
2026-01-24 03:15:22.62	0.48	14.62	-33.5	-50.4	3.8	7.47e-01	0	43	104	0	27	25339
2026-01-24 03:15:23.62	0.34	14.72	-33.4	-49.9	3.8	7.48e-01	0	43	104	0	27	24197
2026-01-24 03:15:24.63	0.21	14.81	-33.3	-49.4	3.8	7.42e-01	0	43	104	0	27	23174
2026-01-24 03:15:25.64	0.07	14.91	-33.2	-48.9	3.8	7.42e-01	0	43	104	0	27	22067
2026-01-24 03:15:26.64	359.94	15.01	-33.1	-48.6	3.8	7.44e-01	0	43	104	0	27	21515
2026-01-24 03:15:27.65	359.80	15.11	-33.0	-48.1	3.8	7.45e-01	0	43	104	0	27	20538
2026-01-24 03:15:28.65	359.66	15.20	-32.7	-47.1	3.8	7.47e-01	0	43	104	0	27	18802
2026-01-24 03:15:29.66	359.52	15.30	-32.4	-46.5	3.8	7.43e-01	0	43	104	0	26	18262
2026-01-24 03:15:30.66	359.38	15.40	-32.1	-45.9	3.8	7.43e-01	0	43	104	0	25	17741
2026-01-24 03:15:31.67	359.24	15.50	-31.7	-44.8	3.8	7.48e-01	0	43	104	0	25	16237
2026-01-24 03:15:32.68	359.09	15.60	-31.4	-44.3	3.8	7.46e-01	0	43	104	0	24	15893
2026-01-24 03:15:33.68	358.95	15.70	-31.1	-44.0	3.8	7.43e-01	0	43	104	0	23	15960
2026-01-24 03:15:34.69	358.80	15.80	-31.0	-43.9	3.8	7.45e-01	0	43	104	0	23	15768
2026-01-24 03:15:35.70	358.66	15.90	-31.0	-44.3	3.8	7.46e-01	0	43	104	0	22	16568
2026-01-24 03:15:36.70	358.51	16.00	-31.1	-44.4	3.8	7.47e-01	0	43	104	0	22	16730
2026-01-24 03:15:37.70	358.36	16.10	-31.2	-44.2	3.8	7.42e-01	0	43	104	0	23	16083
2026-01-24 03:15:38.70	358.22	16.20	-31.3	-44.5	3.8	7.47e-01	0	43	104	0	23	16462
2026-01-24 03:15:39.71	358.06	16.30	-31.2	-44.2	3.8	7.45e-01	0	43	104	0	23	16150
2026-01-24 03:15:40.71	357.91	16.40	-31.0	-43.6	3.8	7.44e-01	0	43	104	0	23	15398
2026-01-24 03:15:41.71	357.76	16.50	-31.0	-44.1	3.8	7.44e-01	0	43	104	0	22	16293
2026-01-24 03:15:42.72	357.61	16.60	-31.3	-44.3	3.8	7.48e-01	0	43	104	0	23	16217
2026-01-24 03:15:43.72	357.45	16.70	-31.6	-45.0	3.8	7.42e-01	0	43	104	0	24	16893
2026-01-24 03:15:44.73	357.30	16.81	-32.0	-45.9	3.8	7.46e-01	0	43	104	0	24	17989
2026-01-24 03:15:45.74	357.14	16.91	-32.3	-46.5	3.8	7.46e-01	0	44	104	0	25	18539
2026-01-24 03:15:46.74	356.98	17.01	-32.6	-47.5	3.8	7.44e-01	0	43	104	0	25	19932
2026-01-24 03:15:47.74	356.82	17.11	-32.5	-47.1	3.8	7.45e-01	0	43	104	0	25	19325
2026-01-24 03:15:48.74	356.66	17.22	-32.3	-46.7	3.8	7.45e-01	0	43	104	0	25	18715
2026-01-24 03:15:49.75	356.50	17.32	-32.2	-46.3	3.8	7.44e-01	0	43	104	0	25	18113
2026-01-24 03:15:50.75	356.34	17.42	-32.2	-46.1	3.8	7.43e-01	0	43	104	0	25	17975
2026-01-24 03:15:51.75	356.18	17.53	-32.2	-46.1	3.8	7.43e-01	0	44	104	0	25	17870
2026-01-24 03:15:52.76	356.01	17.63	-32.4	-47.0	3.8	7.45e-01	0	43	104	0	25	19219
2026-01-24 03:15:53.76	355.84	17.74	-32.8	-47.7	3.8	7.47e-01	0	43	104	0	26	20096
2026-01-24 03:15:54.77	355.67	17.84	-33.1	-48.7	3.8	7.47e-01	0	44	104	0	26	21776
2026-01-24 03:15:55.77	355.51	17.94	-33.2	-48.9	3.8	7.45e-01	0	44	104	0	27	21937
2026-01-24 03:15:56.77	355.34	18.05	-33.4	-49.4	3.8	7.43e-01	0	44	104	0	27	22858
2026-01-24 03:15:57.78	355.16	18.16	-33.5	-49.8	3.8	7.47e-01	0	43	104	0	27	23586
2026-01-24 03:15:58.78	354.99	18.26	-33.5	-50.0	3.8	7.47e-01	0	44	104	0	27	24070
2026-01-24 03:15:59.79	354.82	18.37	-33.5	-50.2	3.8	7.46e-01	0	44	104	0	27	24539
2026-01-24 03:16:00.79	354.64	18.47	-33.5	-49.9	3.8	7.44e-01	0	43	104	0	28	23771
2026-01-24 03:16:01.79	354.47	18.58	-33.6	-50.3	3.8	7.46e-01	0	43	104	0	28	24605
2026-01-24 03:16:02.80	354.29	18.68	-33.7	-50.8	3.8	7.48e-01	0	43	104	0	28	25763
2026-01-24 03:16:03.81	354.11	18.79	-33.8	-51.3	3.8	7.45e-01	0	43	104	0	28	26937
2026-01-24 03:16:04.82	353.92	18.90	-33.9	-51.8	3.8	7.45e-01	0	44	104	0	28	28233
2026-01-24 03:16:05.82	353.74	19.01	-33.8	-51.5	3.8	7.46e-01	0	43	104	0	28	27591
2026-01-24 03:16:06.82	353.56	19.11	-33.8	-51.0	3.8	7.42e-01	0	43	104	0	28	26321
2026-01-24 03:16:07.83	353.37	19.22	-33.7	-50.4	3.8	7.49e-01	0	44	104	0	28	24784
2026-01-24 03:16:08.83	353.19	19.33	-33.5	-49.8	3.8	7.43e-01	0	44	104	0	28	23427
2026-01-24 03:16:09.84	353.00	19.44	-33.4	-49.1	3.8	7.46e-01	0	44	104	0	28	21934
2026-01-24 03:16:10.83	352.81	19.54	-33.2	-48.8	3.8	7.44e-01	0	44	104	0	27	21625
2026-01-24 03:16:11.84	352.62	19.65	-33.3	-49.1	3.8	7.46e-01	0	44	104	0	27	22209
2026-01-24 03:16:12.84	352.43	19.76	-33.2	-48.7	3.8	7.44e-01	0	43	104	0	27	21404
2026-01-24 03:16:13.84	352.24	19.87	-33.0	-48.5	3.8	7.42e-01	0	43	104	0	26	21364
2026-01-24 03:16:14.85	352.04	19.98	-32.9	-48.1	3.8	7.43e-01	0	43	104	0	26	20644
2026-01-24 03:16:15.85	351.84	20.09	-32.8	-47.7	3.8	7.45e-01	0	44	104	0	26	19862
2026-01-24 03:16:16.85	351.65	20.20	-32.7	-47.4	3.8	7.46e-01	0	43	104	0	26	19439
2026-01-24 03:16:17.86	351.45	20.31	-32.4	-46.8	3.8	7.46e-01	0	44	104	0	25	18856
2026-01-24 03:16:18.86	351.25	20.42	-32.0	-45.4	3.8	7.43e-01	0	44	104	0	25	16856
2026-01-24 03:16:19.86	351.04	20.53	-31.6	-44.8	3.8	7.46e-01	0	44	104	0	24	16385
2026-01-24 03:16:20.87	350.84	20.64	-31.2	-44.2	3.8	7.43e-01	0	44	104	0	23	16036
2026-01-24 03:16:21.87	350.63	20.75	-30.9	-43.4	3.8	7.43e-01	0	44	104	0	23	15152
2026-01-24 03:16:22.87	350.43	20.86	-30.6	-43.1	3.8	7.44e-01	0	43	104	0	22	15112
2026-01-24 03:16:23.88	350.22	20.97	-30.5	-43.2	3.8	7.44e-01	0	43	104	0	21	15559
2026-01-24 03:16:24.88	350.01	21.08	-30.4	-43.2	3.8	7.43e-01	0	44	104	0	21	15545
2026-01-24 03:16:25.89	349.79	21.19	-30.5	-43.4	3.8	7.45e-01	0	44	104	0	21	15783
2026-01-24 03:16:26.89	349.58	21.30	-30.7	-43.2	3.8	7.44e-01	0	44	104	0	22	15300
2026-01-24 03:16:27.90	349.36	21.41	-30.9	-43.8	3.8	7.47e-01	0	43	104	0	22	15922
2026-01-24 03:16:28.91	349.15	21.52	-31.1	-44.0	3.8	7.41e-01	0	44	104	0	23	15788
2026-01-24 03:16:29.91	348.93	21.63	-31.3	-44.5	3.8	7.43e-01	0	43	104	0	23	16426
2026-01-24 03:16:30.92	348.71	21.74	-31.6	-44.8	3.8	7.43e-01	0	44	104	0	24	16372
2026-01-24 03:16:31.91	348.49	21.85	-31.9	-45.7	3.8	7.42e-01	0	43	104	0	24	17555
2026-01-24 03:16:32.92	348.26	21.97	-32.3	-46.2	3.8	7.47e-01	0	44	104	0	25	17950
2026-01-24 03:16:33.93	348.03	22.08	-32.6	-47.2	3.8	7.46e-01	0	44	104	0	25	19410
2026-01-24 03:16:34.93	347.81	22.19	-32.9	-47.9	3.8	7.44e-01	0	44	104	0	26	20158
2026-01-24 03:16:35.93	347.58	22.30	-33.2	-48.4	3.8	7.47e-01	0	43	104	0	27	20801
2026-01-24 03:16:36.93	347.35	22.41	-33.4	-49.2	3.8	7.44e-01	0	44	104	0	27	22284
2026-01-24 03:16:37.93	347.12	22.52	-33.3	-48.8	3.8	7.46e-01	0	44	104	0	27	21428
2026-01-24 03:16:38.94	346.88	22.64	-33.1	-48.3	3.8	7.44e-01	0	44	104	0	27	20587
2026-01-24 03:16:39.94	346.65	22.75	-33.1	-47.9	3.8	7.46e-01	0	44	104	0	27	19968
2026-01-24 03:16:40.95	346.41	22.86	-33.0	-47.7	3.8	7.46e-01	0	44	104	0	27	19597
2026-01-24 03:16:41.95	346.17	22.97	-33.0	-47.7	3.8	7.44e-01	0	44	104	0	27	19552
2026-01-24 03:16:42.95	345.93	23.08	-33.2	-48.5	3.8	7.45e-01	0	44	104	0	27	21035
2026-01-24 03:16:43.95	345.69	23.19	-33.4	-49.3	3.8	7.45e-01	0	44	104	0	27	22437
2026-01-24 03:16:44.96	345.44	23.31	-33.5	-49.8	3.8	7.44e-01	0	44	104	0	27	23545
2026-01-24 03:16:45.96	345.19	23.42	-33.5	-49.6	3.8	7.43e-01	0	44	104	0	28	22895
2026-01-24 03:16:46.97	344.94	23.53	-33.6	-49.8	3.8	7.47e-01	0	44	104	0	28	23339
2026-01-24 03:16:47.97	344.69	23.64	-33.5	-49.5	3.8	7.44e-01	0	44	104	0	28	22752
2026-01-24 03:16:48.97	344.44	23.75	-33.6	-49.7	3.8	7.47e-01	0	44	104	0	28	23041
2026-01-24 03:16:49.97	344.19	23.86	-33.6	-50.0	3.8	7.43e-01	0	44	104	0	28	23690
2026-01-24 03:16:50.98	343.93	23.98	-33.7	-50.4	3.8	7.45e-01	0	44	104	0	28	24556
2026-01-24 03:16:51.99	343.67	24.09	-33.8	-50.7	3.8	7.45e-01	0	44	104	0	28	25307
2026-01-24 03:16:52.99	343.41	24.20	-33.8	-51.1	3.8	7.43e-01	0	44	104	0	28	26322
2026-01-24 03:16:54.00	343.15	24.31	-33.9	-51.5	3.8	7.44e-01	0	44	104	0	28	27237
2026-01-24 03:16:55.00	342.88	24.42	-33.8	-51.1	3.8	7.50e-01	0	44	104	0	28	26227
2026-01-24 03:16:56.00	342.62	24.53	-33.7	-50.5	3.8	7.47e-01	0	44	104	0	28	24848
2026-01-24 03:16:57.01	342.35	24.64	-33.6	-49.8	3.8	7.44e-01	0	44	104	0	28	23348
2026-01-24 03:16:58.01	342.08	24.75	-33.4	-49.0	3.8	7.45e-01	0	44	104	0	28	21604
2026-01-24 03:16:59.01	341.81	24.86	-33.1	-47.8	3.8	7.44e-01	0	44	104	0	28	19492
2026-01-24 03:17:00.02	341.53	24.97	-32.9	-47.3	3.8	7.49e-01	0	44	104	0	27	18816
2026-01-24 03:17:01.02	341.25	25.08	-32.5	-46.0	3.8	7.46e-01	0	44	104	0	27	16908
2026-01-24 03:17:02.02	340.98	25.19	-32.7	-47.2	3.8	7.43e-01	0	44	104	0	26	19060
2026-01-24 03:17:03.02	340.70	25.30	-32.5	-46.5	3.8	7.48e-01	0	44	104	0	26	17920
2026-01-24 03:17:04.02	340.42	25.41	-32.3	-45.8	3.8	7.41e-01	0	43	104	0	26	16938
2026-01-24 03:17:05.02	340.13	25.52	-32.1	-45.7	3.8	7.43e-01	0	44	104	0	25	17173
2026-01-24 03:17:06.03	339.84	25.63	-31.9	-45.6	3.8	7.44e-01	0	44	104	0	24	17318
2026-01-24 03:17:07.03	339.56	25.74	-31.8	-45.3	3.8	7.43e-01	0	44	104	0	24	16980
2026-01-24 03:17:08.03	339.27	25.84	-31.4	-44.1	3.8	7.43e-01	0	44	104	0	24	15543
2026-01-24 03:17:09.04	338.97	25.95	-31.0	-43.4	3.8	7.43e-01	0	44	104	0	23	15095
2026-01-24 03:17:10.04	338.68	26.06	-30.7	-42.7	3.9	7.41e-01	0	44	104	0	23	14329
2026-01-24 03:17:11.05	338.38	26.17	-30.4	-42.6	3.8	7.45e-01	0	44	104	0	22	14593
2026-01-24 03:17:12.05	338.08	26.28	-30.6	-43.0	3.8	7.42e-01	0	44	104	0	22	15065
2026-01-24 03:17:13.06	337.78	26.38	-30.9	-43.6	3.8	7.44e-01	0	44	104	0	22	15641
2026-01-24 03:17:14.07	337.47	26.49	-30.1	-42.7	3.8	7.47e-01	0	44	104	0	22	15372
2026-01-24 03:17:15.06	337.17	26.59	-30.8	-43.6	3.8	7.44e-01	0	44	104	0	22	15597
2026-01-24 03:17:16.07	336.86	26.70	-31.0	-43.9	3.8	7.45e-01	0	44	104	0	22	15966
2026-01-24 03:17:17.07	336.55	26.80	-31.1	-44.1	3.8	7.47e-01	0	44	104	0	22	16166
2026-01-24 03:17:18.07	336.24	26.91	-31.3	-44.2	3.8	7.46e-01	0	44	104	0	23	15930
2026-01-24 03:17:19.07	335.93	27.01	-31.7	-44.9	3.8	7.43e-01	0	44	104	0	24	16443
2026-01-24 03:17:20.08	335.61	27.11	-32.1	-46.0	3.8	7.46e-01	0	44	104	0	24	17829
2026-01-24 03:17:21.09	335.29	27.22	-32.3	-46.3	3.8	7.49e-01	0	44	104	0	25	18031
2026-01-24 03:17:22.09	334.97	27.32	-32.6	-46.7	3.9	7.44e-01	0	44	104	0	26	18238
2026-01-24 03:17:23.09	334.65	27.42	-33.0	-47.9	3.8	7.46e-01	0	44	104	0	26	20095
2026-01-24 03:17:24.10	334.32	27.52	-33.2	-48.4	3.8	7.43e-01	0	44	104	0	27	20628
2026-01-24 03:17:25.11	333.99	27.62	-33.4	-49.0	3.8	7.46e-01	0	44	104	0	27	21641
2026-01-24 03:17:26.12	333.66	27.73	-33.5	-49.4	3.8	7.43e-01	0	44	104	0	27	22552
2026-01-24 03:17:27.12	333.33	27.82	-33.6	-49.8	3.8	7.47e-01	0	44	104	0	27	23374
2026-01-24 03:17:28.12	333.00	27.92	-33.5	-49.4	3.8	7.45e-01	0	44	104	0	27	22505
2026-01-24 03:17:29.12	332.66	28.02	-33.4	-48.9	3.8	7.44e-01	0	44	104	0	27	21612
2026-01-24 03:17:30.12	332.33	28.12	-33.3	-48.7	3.8	7.44e-01	0	44	104	0	27	21160
2026-01-24 03:17:31.13	331.98	28.21	-33.3	-48.6	3.8	7.46e-01	0	44	104	0	27	21054
2026-01-24 03:17:32.13	331.64	28.31	-33.3	-48.5	3.8	7.43e-01	0	44	104	0	27	20863
2026-01-24 03:17:33.13	331.30	28.40	-33.5	-49.3	3.8	7.46e-01	0	44	104	0	27	22230
2026-01-24 03:17:34.13	330.95	28.50	-33.5	-49.2	3.8	7.45e-01	0	44	104	0	28	21994
2026-01-24 03:17:35.13	330.61	28.59	-33.6	-49.7	3.8	7.44e-01	0	44	104	0	28	22880
2026-01-24 03:17:36.14	330.25	28.68	-33.5	-49.0	3.8	7.44e-01	0	44	104	0	28	21599
2026-01-24 03:17:37.14	329.90	28.78	-33.3	-48.3	3.8	7.44e-01	0	44	104	0	28	20207
2026-01-24 03:17:38.15	329.54	28.87	-33.2	-48.4	3.8	7.45e-01	0	44	104	0	27	20558
2026-01-24 03:17:39.15	329.19	28.96	-33.3	-48.5	3.8	7.46e-01	0	44	104	0	27	20816
2026-01-24 03:17:40.16	328.83	29.05	-33.3	-48.6	3.8	7.45e-01	0	44	104	0	27	20903
2026-01-24 03:17:41.16	328.47	29.13	-33.3	-48.8	3.8	7.43e-01	0	44	104	0	27	21371
2026-01-24 03:17:42.16	328.11	29.22	-33.4	-49.0	3.8	7.46e-01	0	44	104	0	27	21757
2026-01-24 03:17:43.17	327.74	29.31	-33.5	-49.5	3.8	7.43e-01	0	44	104	0	27	22702
2026-01-24 03:17:44.17	327.37	29.39	-33.6	-49.8	3.8	7.44e-01	0	44	104	0	27	23255
2026-01-24 03:17:45.18	327.00	29.48	-33.3	-48.7	3.8	7.47e-01	0	44	104	0	27	21180
2026-01-24 03:17:46.19	326.63	29.56	-33.0	-47.5	3.8	7.44e-01	0	44	104	0	27	19027
2026-01-24 03:17:47.19	326.25	29.64	-32.6	-46.7	3.8	7.44e-01	0	44	104	0	26	18179
2026-01-24 03:17:48.20	325.88	29.73	-32.2	-45.5	3.8	7.43e-01	0	44	104	0	26	16514
2026-01-24 03:17:49.20	325.50	29.80	-31.8	-45.3	3.8	7.47e-01	0	44	104	0	24	16968
2026-01-24 03:17:50.20	325.12	29.88	-31.4	-44.6	3.8	7.48e-01	0	44	104	0	23	16426
2026-01-24 03:17:51.20	324.74	29.96	-31.2	-44.0	3.8	7.45e-01	0	44	104	0	23	15641
2026-01-24 03:17:52.21	324.36	30.04	-31.4	-44.5	3.8	7.44e-01	0	44	104	0	23	16369
2026-01-24 03:17:53.20	323.98	30.11	-31.0	-43.5	3.9	7.45e-01	0	44	104	0	23	15081
2026-01-24 03:17:54.20	323.59	30.19	-30.7	-42.6	3.8	7.44e-01	0	44	104	0	23	14177
2026-01-24 03:17:55.20	323.20	30.26	-30.5	-42.7	3.8	7.44e-01	0	44	104	0	22	14686
2026-01-24 03:17:56.21	322.81	30.33	-30.4	-43.0	3.8	7.44e-01	0	44	104	0	21	15298
2026-01-24 03:17:57.21	322.42	30.40	-30.3	-42.7	3.8	7.46e-01	0	44	104	0	21	14995
2026-01-24 03:17:58.22	322.02	30.47	-29.8	-41.9	3.8	7.45e-01	0	44	104	0	20	14490
2026-01-24 03:17:59.22	321.63	30.54	-29.7	-41.6	3.9	7.45e-01	0	44	104	0	20	14248
2026-01-24 03:18:00.22	321.23	30.60	-30.0	-42.4	3.8	7.42e-01	0	44	104	0	20	15056
2026-01-24 03:18:01.22	320.83	30.67	-30.4	-42.8	3.8	7.45e-01	0	44	104	0	21	15038
2026-01-24 03:18:02.23	320.43	30.73	-30.8	-43.3	3.8	7.44e-01	0	44	104	0	22	15315
2026-01-24 03:18:03.24	320.03	30.80	-31.0	-44.0	3.8	7.46e-01	0	44	104	0	22	16118
2026-01-24 03:18:04.25	319.62	30.86	-31.1	-44.1	3.8	7.46e-01	0	44	104	0	22	16213
2026-01-24 03:18:05.25	319.22	30.92	-31.2	-43.9	3.8	7.45e-01	0	44	104	0	23	15630
2026-01-24 03:18:06.26	318.81	30.98	-31.3	-44.4	3.8	7.44e-01	0	44	104	0	23	16119
2026-01-24 03:18:07.27	318.39	31.03	-31.5	-44.9	3.8	7.46e-01	0	44	104	0	23	16766
2026-01-24 03:18:08.27	317.98	31.09	-31.9	-45.5	3.8	7.46e-01	0	44	104	0	24	17195
2026-01-24 03:18:09.28	317.57	31.14	-32.3	-46.1	3.8	7.46e-01	0	44	104	0	25	17664
2026-01-24 03:18:10.28	317.16	31.19	-32.6	-47.0	3.8	7.44e-01	0	44	104	0	25	18887
2026-01-24 03:18:11.29	316.74	31.24	-32.9	-47.5	3.8	7.46e-01	0	44	104	0	26	19301
2026-01-24 03:18:12.29	316.33	31.29	-33.1	-48.0	3.8	7.46e-01	0	44	104	0	27	19813
2026-01-24 03:18:13.30	315.91	31.34	-33.3	-48.7	3.8	7.44e-01	0	44	104	0	27	21107
2026-01-24 03:18:14.30	315.49	31.39	-33.4	-49.1	3.8	7.47e-01	0	44	104	0	27	21891
2026-01-24 03:18:15.31	315.07	31.43	-33.5	-49.3	3.8	7.44e-01	0	44	104	0	27	22131
2026-01-24 03:18:16.32	314.64	31.47	-33.6	-49.7	3.8	7.48e-01	0	44	104	0	27	22924
2026-01-24 03:18:17.33	314.22	31.51	-33.5	-49.2	3.8	7.45e-01	0	44	104	0	28	21943
2026-01-24 03:18:18.33	313.80	31.55	-33.5	-48.9	3.8	7.43e-01	0	44	104	0	28	21390
2026-01-24 03:18:19.33	313.38	31.59	-33.5	-49.4	3.8	7.47e-01	0	44	104	0	27	22320
2026-01-24 03:18:20.33	312.95	31.63	-33.5	-49.6	3.8	7.44e-01	0	44	104	0	27	22845
2026-01-24 03:18:21.33	312.53	31.66	-33.6	-49.7	3.8	7.44e-01	0	44	104	0	27	23169
2026-01-24 03:18:22.34	312.10	31.69	-33.6	-49.3	3.8	7.43e-01	0	44	104	0	28	21948
2026-01-24 03:18:23.35	311.67	31.72	-33.6	-49.4	3.8	7.45e-01	0	44	104	0	28	22289
2026-01-24 03:18:24.35	311.24	31.75	-33.4	-48.8	3.8	7.44e-01	0	44	104	0	28	21039
2026-01-24 03:18:25.35	310.81	31.78	-33.3	-48.6	3.8	7.44e-01	0	44	104	0	27	21056
2026-01-24 03:18:26.35	310.38	31.80	-33.0	-47.6	3.8	7.42e-01	0	44	104	0	27	19291
2026-01-24 03:18:27.36	309.95	31.83	-32.7	-46.4	3.8	7.41e-01	0	44	104	0	27	17296
2026-01-24 03:18:28.36	309.52	31.85	-32.4	-45.9	3.8	7.41e-01	0	44	104	0	26	17037
2026-01-24 03:18:29.37	309.09	31.87	-32.3	-46.4	3.8	7.44e-01	0	44	104	0	25	18161
2026-01-24 03:18:30.37	308.65	31.89	-32.3	-46.4	3.8	7.42e-01	0	44	104	0	25	18221
2026-01-24 03:18:31.38	308.22	31.91	-32.4	-46.4	3.8	7.45e-01	0	44	104	0	25	18073
2026-01-24 03:18:32.39	307.78	31.92	-32.4	-46.3	3.8	7.43e-01	0	44	104	0	25	17785
2026-01-24 03:18:33.39	307.35	31.93	-32.5	-46.8	3.8	7.45e-01	0	44	104	0	25	18494
2026-01-24 03:18:34.39	306.92	31.94	-32.5	-46.5	3.8	7.42e-01	0	44	104	0	26	17989
2026-01-24 03:18:35.39	306.48	31.95	-32.1	-46.0	3.8	7.44e-01	0	44	104	0	25	17687
2026-01-24 03:18:36.40	306.05	31.96	-31.7	-44.4	3.8	7.48e-01	0	44	104	0	25	15628
2026-01-24 03:18:37.40	305.61	31.97	-31.2	-43.2	3.8	7.41e-01	0	44	104	0	24	14398
2026-01-24 03:18:38.41	305.17	31.97	-30.8	-42.4	3.8	7.46e-01	0	44	104	0	23	13721
2026-01-24 03:18:39.41	304.74	31.97	-30.5	-42.1	3.8	7.42e-01	0	44	104	0	22	13713
2026-01-24 03:18:40.42	304.30	31.97	-30.3	-43.0	3.8	7.48e-01	0	44	104	0	21	15551
2026-01-24 03:18:41.42	303.87	31.97	-30.5	-43.8	3.8	7.44e-01	0	44	104	0	21	16616
2026-01-24 03:18:42.41	303.44	31.97	-30.5	-43.2	3.8	7.45e-01	0	44	104	0	21	15634
2026-01-24 03:18:43.42	303.00	31.96	-30.0	-41.8	3.8	7.45e-01	0	44	104	0	20	13965
2026-01-24 03:18:44.43	302.56	31.96	-29.7	-41.1	3.8	7.45e-01	0	44	104	0	20	13272
2026-01-24 03:18:45.43	302.13	31.95	-29.8	-41.8	3.8	7.41e-01	0	44	104	0	20	14368
2026-01-24 03:18:46.43	301.70	31.94	-29.8	-42.5	3.8	7.47e-01	0	44	104	0	20	15515
2026-01-24 03:18:47.43	301.26	31.93	-29.8	-42.4	3.8	7.46e-01	0	44	104	0	20	15241
2026-01-24 03:18:48.44	300.83	31.91	-29.9	-42.0	3.8	7.46e-01	0	44	104	0	20	14465
2026-01-24 03:18:49.44	300.40	31.89	-30.2	-41.9	3.8	7.40e-01	0	44	104	0	21	13890
2026-01-24 03:18:50.45	299.96	31.88	-30.6	-43.1	3.8	7.42e-01	0	44	104	0	22	15107
2026-01-24 03:18:51.45	299.53	31.86	-31.1	-44.3	3.8	7.46e-01	0	44	104	0	23	16399
2026-01-24 03:18:52.45	299.10	31.84	-31.5	-45.1	3.8	7.46e-01	0	44	104	0	23	17125
2026-01-24 03:18:53.46	298.66	31.81	-31.8	-44.7	3.8	7.45e-01	0	44	104	0	24	15989
2026-01-24 03:18:54.46	298.24	31.79	-31.8	-44.8	3.8	7.45e-01	0	44	104	0	24	16005
2026-01-24 03:18:55.46	297.81	31.76	-32.1	-45.8	3.8	7.47e-01	0	44	104	0	24	17506
2026-01-24 03:18:56.47	297.38	31.73	-32.3	-46.3	3.8	7.45e-01	0	44	104	0	25	17918
2026-01-24 03:18:57.48	296.94	31.70	-32.5	-46.9	3.8	7.43e-01	0	44	104	0	25	18789
2026-01-24 03:18:58.48	296.52	31.67	-32.8	-47.5	3.8	7.46e-01	0	44	104	0	26	19564
2026-01-24 03:18:59.49	296.09	31.64	-33.0	-48.6	3.8	7.43e-01	0	44	104	0	26	21568
2026-01-24 03:19:00.49	295.66	31.60	-33.2	-48.6	3.8	7.45e-01	0	44	104	0	27	21167
2026-01-24 03:19:01.49	295.24	31.56	-33.3	-48.7	3.8	7.43e-01	0	44	104	0	27	21060
2026-01-24 03:19:02.50	294.81	31.53	-33.5	-49.2	3.8	7.46e-01	0	44	104	0	27	22050
2026-01-24 03:19:03.51	294.39	31.49	-33.6	-49.9	3.8	7.46e-01	0	44	104	0	27	23566
2026-01-24 03:19:04.52	293.96	31.44	-33.5	-49.3	3.8	7.46e-01	0	44	104	0	28	22197
2026-01-24 03:19:05.52	293.55	31.40	-33.6	-49.4	3.8	7.47e-01	0	44	104	0	28	22363
2026-01-24 03:19:06.52	293.13	31.35	-33.5	-49.5	3.8	7.46e-01	0	44	104	0	28	22586
2026-01-24 03:19:07.53	292.71	31.31	-33.5	-49.2	3.8	7.46e-01	0	44	104	0	28	22013
2026-01-24 03:19:08.54	292.29	31.26	-33.5	-48.8	3.8	7.45e-01	0	44	104	0	28	21130
2026-01-24 03:19:09.54	291.87	31.21	-33.4	-49.0	3.8	7.47e-01	0	44	104	0	28	21528
2026-01-24 03:19:10.55	291.46	31.16	-33.4	-49.3	3.8	7.45e-01	0	44	104	0	28	22335
2026-01-24 03:19:11.55	291.04	31.10	-33.4	-48.6	3.8	7.46e-01	0	44	104	0	28	20677
2026-01-24 03:19:12.55	290.63	31.05	-33.4	-48.9	3.8	7.40e-01	0	44	104	0	27	21368
2026-01-24 03:19:13.55	290.23	30.99	-33.1	-47.9	3.8	7.46e-01	0	44	104	0	27	19669
2026-01-24 03:19:14.55	289.82	30.94	-32.8	-47.0	3.8	7.45e-01	0	44	104	0	27	18388
2026-01-24 03:19:15.55	289.41	30.88	-32.5	-46.9	3.8	7.43e-01	0	44	104	0	26	18901
2026-01-24 03:19:16.55	289.01	30.82	-32.1	-44.8	3.8	7.43e-01	0	44	104	0	26	15390
2026-01-24 03:19:17.55	288.61	30.76	-31.8	-44.4	3.8	7.44e-01	0	44	104	0	25	15346
2026-01-24 03:19:18.56	288.20	30.69	-31.4	-44.6	3.8	7.43e-01	0	44	104	0	25	16355
2026-01-24 03:19:19.55	287.81	30.63	-31.2	-43.4	3.8	7.46e-01	0	44	104	0	24	14703
2026-01-24 03:19:20.56	287.41	30.56	-31.1	-42.4	3.9	7.45e-01	0	44	104	0	24	13259
2026-01-24 03:19:21.56	287.01	30.49	-31.1	-44.3	3.8	7.42e-01	0	44	104	0	23	16526
2026-01-24 03:19:22.57	286.61	30.42	-31.1	-44.2	3.8	7.44e-01	0	44	104	0	23	16277
2026-01-24 03:19:23.57	286.22	30.35	-31.2	-43.5	3.8	7.46e-01	0	44	104	0	23	14813
2026-01-24 03:19:24.57	285.83	30.28	-30.9	-43.6	3.8	7.47e-01	0	44	104	0	23	15572
2026-01-24 03:19:25.58	285.44	30.21	-30.5	-43.2	3.8	7.43e-01	0	44	104	0	22	15434
2026-01-24 03:19:26.58	285.05	30.14	-30.3	-41.8	3.8	7.48e-01	0	44	104	0	22	13567
2026-01-24 03:19:27.58	284.66	30.06	-30.2	-42.2	3.8	7.46e-01	0	44	104	0	21	14425
2026-01-24 03:19:28.58	284.28	29.99	-30.0	-42.7	3.8	7.43e-01	0	44	104	0	21	15466
2026-01-24 03:19:29.58	283.90	29.91	-30.0	-41.3	3.8	7.46e-01	0	44	104	0	21	13253
2026-01-24 03:19:30.59	283.51	29.83	-30.1	-42.6	3.9	7.44e-01	0	44	104	0	21	15143
2026-01-24 03:19:31.58	283.14	29.75	-30.3	-42.6	3.8	7.46e-01	0	44	104	0	21	14876
2026-01-24 03:19:32.59	282.76	29.67	-30.3	-42.4	3.8	7.44e-01	0	44	104	0	21	14520
2026-01-24 03:19:33.60	282.38	29.59	-30.1	-42.5	3.8	7.47e-01	0	44	104	0	21	14978
2026-01-24 03:19:34.61	282.01	29.50	-30.0	-42.4	3.8	7.45e-01	0	44	104	0	20	14939
2026-01-24 03:19:35.60	281.64	29.42	-30.0	-42.7	3.8	7.46e-01	0	44	104	0	20	15421
2026-01-24 03:19:36.61	281.27	29.33	-30.1	-42.1	3.8	7.44e-01	0	44	104	0	21	14309
2026-01-24 03:19:37.61	280.91	29.25	-30.4	-42.9	3.8	7.46e-01	0	44	104	0	21	15236
2026-01-24 03:19:38.62	280.54	29.16	-30.7	-43.0	3.8	7.45e-01	0	44	104	0	22	14941
2026-01-24 03:19:39.62	280.18	29.07	-31.0	-44.4	3.8	7.45e-01	0	44	104	0	22	16779
2026-01-24 03:19:40.63	279.81	28.98	-31.4	-44.1	3.8	7.47e-01	0	44	104	0	23	15521
2026-01-24 03:19:41.63	279.46	28.89	-31.8	-45.9	3.8	7.45e-01	0	44	104	0	24	18210
2026-01-24 03:19:42.64	279.10	28.80	-32.3	-45.8	3.8	7.43e-01	0	44	104	0	25	17144
2026-01-24 03:19:43.64	278.74	28.71	-32.5	-47.2	3.8	7.43e-01	0	44	104	0	25	19539
2026-01-24 03:19:44.64	278.39	28.62	-32.6	-47.2	3.8	7.42e-01	0	44	104	0	25	19322
2026-01-24 03:19:45.65	278.04	28.53	-32.8	-47.3	3.8	7.44e-01	0	44	104	0	26	19108
2026-01-24 03:19:46.65	277.69	28.43	-32.9	-48.1	3.8	7.45e-01	0	44	104	0	26	20651
2026-01-24 03:19:47.64	277.35	28.34	-33.1	-48.6	3.8	7.46e-01	0	44	104	0	26	21482
2026-01-24 03:19:48.64	277.01	28.24	-33.2	-48.3	3.8	7.44e-01	0	44	104	0	27	20520
2026-01-24 03:19:49.63	276.67	28.15	-33.3	-49.5	3.8	7.46e-01	0	44	104	0	27	23018
2026-01-24 03:19:50.64	276.33	28.05	-33.4	-49.4	3.8	7.47e-01	0	44	104	0	27	22518
2026-01-24 03:19:51.65	275.99	27.95	-33.5	-49.9	3.8	7.44e-01	0	44	104	0	27	23815
2026-01-24 03:19:52.66	275.65	27.85	-33.5	-49.9	3.9	7.42e-01	0	44	104	0	28	23676
2026-01-24 03:19:53.66	275.32	27.75	-33.5	-49.5	3.8	7.46e-01	0	44	104	0	28	22661
2026-01-24 03:19:54.67	274.99	27.65	-33.4	-49.3	3.8	7.48e-01	0	44	104	0	28	22496
2026-01-24 03:19:55.67	274.66	27.55	-33.4	-49.6	3.8	7.46e-01	0	44	104	0	27	23332
2026-01-24 03:19:56.68	274.33	27.45	-33.4	-49.2	3.8	7.43e-01	0	44	104	0	27	22199
2026-01-24 03:19:57.68	274.01	27.35	-33.4	-49.5	3.8	7.44e-01	0	44	104	0	27	23058
2026-01-24 03:19:58.69	273.68	27.24	-33.3	-49.1	3.8	7.46e-01	0	44	104	0	27	22277
2026-01-24 03:19:59.69	273.36	27.14	-33.2	-48.8	3.8	7.43e-01	0	44	104	0	27	21534
2026-01-24 03:20:00.70	273.04	27.04	-33.1	-48.3	3.8	7.43e-01	0	44	104	0	27	20840
2026-01-24 03:20:01.70	272.73	26.93	-33.0	-48.1	3.8	7.45e-01	0	44	104	0	26	20565
2026-01-24 03:20:02.70	272.41	26.83	-32.7	-47.6	3.8	7.44e-01	0	44	104	0	26	19921
2026-01-24 03:20:03.70	272.10	26.73	-32.4	-46.5	3.8	7.46e-01	0	44	104	0	26	18167
2026-01-24 03:20:04.70	271.79	26.62	-32.1	-45.4	3.8	7.42e-01	0	44	104	0	25	16669
2026-01-24 03:20:05.71	271.48	26.51	-31.8	-44.9	3.8	7.47e-01	0	44	104	0	25	16308
2026-01-24 03:20:06.72	271.18	26.41	-31.5	-44.5	3.8	7.45e-01	0	44	104	0	25	15908
2026-01-24 03:20:07.72	270.87	26.30	-31.3	-43.8	3.8	7.43e-01	0	44	104	0	24	15130
2026-01-24 03:20:08.72	270.57	26.19	-31.0	-43.1	3.8	7.42e-01	0	44	104	0	24	14501
2026-01-24 03:20:09.73	270.27	26.09	-30.6	-43.1	3.8	7.42e-01	0	44	104	0	23	15107
2026-01-24 03:20:10.73	269.98	25.98	-30.5	-41.8	3.8	7.46e-01	0	44	104	0	23	13201
2026-01-24 03:20:11.74	269.68	25.87	-30.3	-42.7	3.8	7.46e-01	0	44	104	0	21	14932
2026-01-24 03:20:12.74	269.39	25.76	-30.3	-43.2	3.8	7.42e-01	0	44	104	0	21	15958
2026-01-24 03:20:13.75	269.10	25.65	-30.3	-42.6	3.9	7.45e-01	0	44	104	0	21	14904
2026-01-24 03:20:14.75	268.81	25.54	-30.2	-42.2	3.8	7.50e-01	0	44	104	0	21	14342
2026-01-24 03:20:15.76	268.52	25.43	-30.1	-42.9	3.8	7.44e-01	0	44	104	0	21	15619
2026-01-24 03:20:16.77	268.24	25.32	-30.1	-42.5	3.8	7.46e-01	0	44	104	0	21	15068
2026-01-24 03:20:17.77	267.95	25.21	-30.0	-42.1	3.8	7.47e-01	0	44	104	0	20	14511
2026-01-24 03:20:18.78	267.67	25.10	-30.1	-42.8	3.8	7.47e-01	0	44	104	0	20	15463
2026-01-24 03:20:19.77	267.40	24.99	-30.3	-43.3	3.8	7.46e-01	0	44	104	0	21	16061
2026-01-24 03:20:20.78	267.12	24.88	-30.5	-43.4	3.8	7.43e-01	0	44	104	0	21	15768
2026-01-24 03:20:21.78	266.85	24.77	-30.7	-42.7	3.8	7.44e-01	0	44	104	0	22	14471
2026-01-24 03:20:22.79	266.57	24.66	-30.5	-43.0	3.8	7.48e-01	0	44	104	0	22	15124
2026-01-24 03:20:23.79	266.30	24.55	-30.5	-43.9	3.8	7.39e-01	0	44	104	0	21	16843
2026-01-24 03:20:24.80	266.03	24.44	-30.5	-43.5	3.8	7.46e-01	0	44	104	0	21	16048
2026-01-24 03:20:25.80	265.77	24.33	-30.7	-42.9	3.8	7.45e-01	0	44	104	0	22	14685
2026-01-24 03:20:26.81	265.50	24.21	-30.9	-43.3	3.8	7.48e-01	0	44	104	0	22	15083
2026-01-24 03:20:27.82	265.24	24.10	-31.0	-35.6	5.3	7.05e-01	0	44	0	0	22	6120
2026-01-24 03:20:28.82	264.98	23.99	-31.6	-36.6	5.2	7.10e-01	0	44	0	0	24	6393
2026-01-24 03:20:29.82	264.72	23.88	-31.2	-35.9	5.2	7.03e-01	0	44	104	0	23	6165
2026-01-24 03:20:30.83	264.46	23.76	-30.6	-33.9	18.1	6.03e-01	0	44	104	0	22	5234
2026-01-24 03:20:31.83	264.21	23.65	-30.3	-33.0	18.9	6.02e-01	0	44	102	1048576	22	4916
2026-01-24 03:20:32.83	263.96	23.54	-30.4	-33.7	18.8	5.99e-01	0	44	102	1048576	21	5289
2026-01-24 03:20:33.84	263.71	23.43	-30.6	-34.0	18.3	6.05e-01	0	44	102	1048576	22	5294
2026-01-24 03:20:34.84	263.46	23.32	-30.4	-33.2	18.7	6.04e-01	0	44	102	1048576	22	5006
2026-01-24 03:20:35.84	263.21	23.20	-29.9	-32.6	19.4	6.01e-01	0	44	102	1048576	21	4889
2026-01-24 03:20:36.84	262.97	23.09	-29.8	-32.7	19.7	6.03e-01	0	44	102	1048576	20	5030
2026-01-24 03:20:37.85	262.72	22.98	-29.9	-32.9	19.5	5.99e-01	0	44	102	1048576	20	5097
2026-01-24 03:20:38.85	262.48	22.87	-29.9	-33.1	19.5	6.03e-01	0	44	102	1048576	20	5175
2026-01-24 03:20:39.85	262.24	22.76	-30.1	-33.5	19.2	6.03e-01	0	44	102	1048576	20	5333
2026-01-24 03:20:40.85	262.01	22.64	-30.0	-32.7	19.4	6.02e-01	0	44	102	1048576	21	4927
2026-01-24 03:20:41.85	261.77	22.53	-29.7	-32.6	19.7	6.03e-01	0	44	102	1048576	20	5013
2026-01-24 03:20:42.85	261.54	22.42	-29.7	-32.5	19.7	6.02e-01	0	44	102	1048576	20	4973
2026-01-24 03:20:43.86	261.31	22.31	-29.7	-32.5	19.8	6.01e-01	0	44	102	1048576	20	4975
2026-01-24 03:20:44.86	261.08	22.20	-29.8	-32.7	19.7	6.02e-01	0	44	102	1048576	20	5024
2026-01-24 03:20:45.86	260.85	22.08	-29.7	-32.6	19.7	6.03e-01	0	44	102	1048576	20	5019
2026-01-24 03:20:46.87	260.62	21.97	-29.8	-32.9	19.5	6.04e-01	0	44	102	1048576	20	5119
2026-01-24 03:20:47.88	260.39	21.86	-29.9	-33.0	19.5	6.02e-01	0	44	102	1048576	20	5139
2026-01-24 03:20:48.87	260.17	21.75	-30.0	-33.2	19.3	6.02e-01	0	44	102	1048576	20	5222
2026-01-24 03:20:49.87	259.95	21.64	-29.8	-32.7	19.6	6.01e-01	0	44	102	1048576	20	5035
2026-01-24 03:20:50.88	259.73	21.53	-29.6	-32.2	19.8	6.03e-01	0	44	102	1048576	20	4876
2026-01-24 03:20:51.88	259.51	21.41	-29.6	-32.3	19.8	6.01e-01	0	44	102	1048576	20	4909
2026-01-24 03:20:52.88	259.29	21.30	-29.7	-32.5	19.7	6.03e-01	0	44	102	1048576	20	4967
2026-01-24 03:20:53.88	259.08	21.19	-29.7	-32.5	19.6	6.03e-01	0	44	102	1048576	20	4996
2026-01-24 03:20:54.89	258.86	21.08	-29.7	-32.6	19.6	6.04e-01	0	44	102	1048576	20	5007
2026-01-24 03:20:55.89	258.65	20.97	-29.8	-32.7	19.6	6.04e-01	0	44	102	1048576	20	5064
2026-01-24 03:20:56.90	258.44	20.86	-29.7	-32.4	19.7	6.03e-01	0	44	102	1048576	20	4956
2026-01-24 03:20:57.89	258.24	20.75	-29.6	-32.3	19.8	6.01e-01	0	44	102	1048576	20	4927
2026-01-24 03:20:58.89	258.03	20.64	-29.7	-32.7	19.6	6.02e-01	0	44	102	1048576	20	5044
2026-01-24 03:20:59.90	257.82	20.53	-29.7	-32.6	19.6	6.01e-01	0	44	102	1048576	20	5022
2026-01-24 03:21:00.90	257.62	20.42	-29.6	-32.4	19.7	6.01e-01	0	44	102	1048576	20	4945
2026-01-24 03:21:01.91	257.41	20.31	-29.6	-32.3	19.8	6.02e-01	0	44	102	1048576	20	4899
2026-01-24 03:21:02.91	257.21	20.20	-29.7	-32.5	19.7	6.01e-01	0	44	102	1048576	20	4981
2026-01-24 03:21:03.91	257.02	20.09	-29.6	-32.3	19.8	6.03e-01	0	44	102	1048576	20	4906
2026-01-24 03:21:04.92	256.82	19.98	-29.6	-32.3	19.7	6.01e-01	0	44	102	1048576	20	4937
2026-01-24 03:21:05.93	256.62	19.87	-29.7	-32.6	19.6	6.04e-01	0	44	102	1048576	20	5024
2026-01-24 03:21:06.92	256.43	19.76	-29.8	-32.9	19.4	6.03e-01	0	44	102	1048576	20	5134
2026-01-24 03:21:07.92	256.23	19.65	-29.8	-32.9	19.4	6.01e-01	0	44	102	1048576	20	5115
2026-01-24 03:21:08.93	256.04	19.54	-29.8	-32.9	19.3	6.03e-01	0	44	102	1048576	20	5149
2026-01-24 03:21:09.93	255.85	19.43	-29.8	-32.9	19.4	6.02e-01	0	44	102	1048576	20	5129
2026-01-24 03:21:10.93	255.66	19.33	-29.8	-32.9	19.4	6.01e-01	0	44	102	1048576	20	5126
2026-01-24 03:21:11.94	255.47	19.22	-29.9	-33.1	19.3	6.01e-01	0	44	102	1048576	20	5203
2026-01-24 03:21:12.94	255.29	19.11	-29.7	-32.5	19.6	6.05e-01	0	44	102	1048576	20	4976
2026-01-24 03:21:13.94	255.10	19.00	-29.8	-32.8	19.4	6.02e-01	0	44	102	1048576	20	5110
2026-01-24 03:21:14.94	254.92	18.89	-29.7	-32.5	19.6	6.04e-01	0	44	102	1048576	20	4993
2026-01-24 03:21:15.95	254.74	18.79	-29.6	-32.3	19.8	6.03e-01	0	44	102	1048576	20	4916
2026-01-24 03:21:16.96	254.55	18.68	-29.6	-32.2	19.8	6.03e-01	0	44	102	1048576	20	4906
2026-01-24 03:21:17.96	254.37	18.57	-29.7	-32.6	19.6	6.03e-01	0	44	102	1048576	20	5039
2026-01-24 03:21:18.97	254.20	18.46	-29.6	-32.4	19.7	6.01e-01	0	44	102	1048576	20	4952
2026-01-24 03:21:19.97	254.02	18.36	-29.6	-32.4	19.7	6.01e-01	0	44	102	1048576	20	4958
2026-01-24 03:21:20.97	253.84	18.25	-29.6	-32.3	19.7	6.05e-01	0	44	102	1048576	20	4928
2026-01-24 03:21:21.97	253.67	18.15	-29.7	-32.5	19.6	6.00e-01	0	44	102	1048576	20	4995
2026-01-24 03:21:22.98	253.50	18.04	-29.6	-32.4	19.6	6.03e-01	0	44	102	1048576	20	4962
2026-01-24 03:21:23.98	253.33	17.94	-29.7	-32.6	19.5	6.01e-01	0	44	102	1048576	20	5028
2026-01-24 03:21:24.98	253.16	17.83	-29.8	-32.8	19.3	6.04e-01	0	44	102	1048576	20	5109
2026-01-24 03:21:25.98	252.99	17.73	-29.8	-32.9	19.3	6.00e-01	0	44	102	1048576	20	5138
2026-01-24 03:21:26.98	252.82	17.62	-30.0	-33.3	19.1	6.05e-01	0	44	102	1048576	20	5291
2026-01-24 03:21:27.98	252.65	17.52	-29.9	-33.0	19.2	6.04e-01	0	44	102	1048576	20	5188
2026-01-24 03:21:28.99	252.49	17.41	-29.8	-32.9	19.3	6.03e-01	0	44	102	1048576	20	5152
2026-01-24 03:21:29.98	252.33	17.31	-29.9	-33.1	19.2	6.03e-01	0	44	102	1048576	20	5209
2026-01-24 03:21:30.99	252.16	17.21	-29.9	-33.1	19.1	6.02e-01	0	44	102	1048576	20	5218
2026-01-24 03:21:31.99	252.00	17.10	-30.1	-33.6	18.8	6.03e-01	0	44	102	1048576	20	5418
2026-01-24 03:21:33.00	251.84	17.00	-29.8	-32.8	19.3	6.02e-01	0	44	102	1048576	20	5102
2026-01-24 03:21:34.00	251.68	16.90	-29.6	-32.3	19.6	6.03e-01	0	44	102	1048576	20	4916
2026-01-24 03:21:35.00	251.52	16.79	-29.5	-32.0	19.7	6.02e-01	0	44	102	1048576	20	4824
2026-01-24 03:21:36.01	251.36	16.69	-29.6	-32.8	19.6	6.00e-01	0	44	102	1048576	19	5212
2026-01-24 03:21:37.01	251.21	16.59	-29.5	-32.2	19.6	6.03e-01	0	44	102	1048576	20	4892
2026-01-24 03:21:38.02	251.05	16.49	-29.6	-32.4	19.4	6.00e-01	0	44	102	1048576	20	4965
2026-01-24 03:21:39.03	250.90	16.38	-29.5	-32.2	19.5	6.00e-01	0	44	102	1048576	20	4897
2026-01-24 03:21:40.04	250.75	16.28	-29.7	-32.6	19.3	6.02e-01	0	44	102	1048576	20	5044
2026-01-24 03:21:41.05	250.59	16.18	-29.6	-32.5	19.4	6.01e-01	0	44	102	1048576	20	4999
2026-01-24 03:21:42.05	250.44	16.08	-29.7	-32.7	19.0	6.02e-01	0	44	102	1048576	20	5088
2026-01-24 03:21:43.05	250.29	15.98	-29.9	-33.2	19.0	6.03e-01	0	44	102	1048576	20	5246
2026-01-24 03:21:44.06	250.15	15.88	-29.7	-32.6	19.1	6.04e-01	0	44	102	1048576	20	5050
2026-01-24 03:21:45.07	250.00	15.78	-29.6	-32.8	19.4	6.02e-01	0	44	102	1048576	19	5226
2026-01-24 03:21:46.07	249.85	15.68	-29.5	-32.5	19.7	6.05e-01	0	44	102	1048576	19	5119
2026-01-24 03:21:47.08	249.71	15.58	-29.5	-32.5	19.8	6.01e-01	0	44	102	1048576	19	5101
2026-01-24 03:21:48.07	249.56	15.48	-29.6	-32.7	19.6	6.02e-01	0	44	102	1048576	19	5190
2026-01-24 03:21:49.08	249.42	15.38	-29.7	-32.6	19.3	6.02e-01	0	44	102	1048576	20	5055
2026-01-24 03:21:50.08	249.28	15.28	-30.0	-33.4	18.8	6.01e-01	0	44	102	1048576	20	5328
2026-01-24 03:21:51.08	249.14	15.18	-29.8	-33.0	19.1	6.04e-01	0	44	102	1048576	20	5180
2026-01-24 03:21:52.09	249.00	15.08	-29.7	-32.7	19.2	6.03e-01	0	44	102	1048576	20	5079
2026-01-24 03:21:53.09	248.86	14.99	-29.6	-32.6	19.3	6.02e-01	0	44	102	1048576	20	5029
2026-01-24 03:21:54.09	248.72	14.89	-29.6	-32.5	19.4	6.04e-01	0	44	102	1048576	20	5003
2026-01-24 03:21:55.10	248.58	14.79	-29.6	-32.4	19.4	6.03e-01	0	44	102	1048576	20	4968
2026-01-24 03:21:56.10	248.45	14.70	-29.7	-32.6	19.3	6.01e-01	0	44	102	1048576	20	5061
2026-01-24 03:21:57.09	248.32	14.60	-29.8	-32.9	19.1	6.02e-01	0	44	102	1048576	20	5147
2026-01-24 03:21:58.09	248.18	14.50	-29.6	-32.5	19.4	6.01e-01	0	44	102	1048576	20	5008
2026-01-24 03:21:59.10	248.05	14.41	-29.5	-32.3	19.5	6.03e-01	0	44	102	1048576	20	4938
2026-01-24 03:22:00.09	247.92	14.31	-29.6	-32.3	19.4	6.00e-01	0	44	102	1048576	20	4951
2026-01-24 03:22:01.09	247.79	14.22	-29.6	-32.4	19.3	6.02e-01	0	44	102	1048576	20	4984
2026-01-24 03:22:02.09	247.66	14.12	-29.6	-32.6	19.3	6.02e-01	0	44	102	1048576	20	5037
2026-01-24 03:22:03.09	247.53	14.03	-29.7	-32.8	19.1	6.03e-01	0	44	102	1048576	20	5131
2026-01-24 03:22:04.10	247.40	13.93	-29.6	-32.5	19.3	6.01e-01	0	44	102	1048576	20	5029
2026-01-24 03:22:05.10	247.27	13.84	-29.6	-32.5	19.3	6.02e-01	0	44	102	1048576	20	5022
2026-01-24 03:22:06.11	247.14	13.74	-29.7	-32.7	19.1	6.01e-01	0	44	102	1048576	20	5087
2026-01-24 03:22:07.11	247.02	13.65	-29.7	-32.7	19.2	6.01e-01	0	44	102	1048576	20	5096
2026-01-24 03:22:08.11	246.89	13.55	-29.8	-32.9	19.0	6.02e-01	0	44	102	1048576	20	5160
2026-01-24 03:22:09.11	246.77	13.46	-29.9	-33.1	18.8	6.02e-01	0	44	102	1048576	20	5255
2026-01-24 03:22:10.12	246.65	13.37	-29.7	-32.6	19.1	6.02e-01	0	44	102	1048576	20	5075
2026-01-24 03:22:11.12	246.52	13.27	-29.7	-32.7	19.0	6.01e-01	0	44	102	1048576	20	5098
2026-01-24 03:22:12.13	246.40	13.18	-29.8	-32.9	19.0	6.03e-01	0	44	102	1048576	20	5179
2026-01-24 03:22:13.13	246.28	13.09	-29.9	-33.2	18.8	6.02e-01	0	44	102	1048576	20	5281
2026-01-24 03:22:14.14	246.16	13.00	-29.8	-32.9	19.0	6.03e-01	0	44	102	1048576	20	5185
2026-01-24 03:22:15.15	246.04	12.90	-29.9	-33.2	18.8	6.03e-01	0	44	102	1048576	20	5284
2026-01-24 03:22:16.15	245.92	12.81	-29.7	-32.8	19.1	6.02e-01	0	44	102	1048576	20	5122
2026-01-24 03:22:17.15	245.81	12.72	-29.6	-32.6	19.2	6.01e-01	0	44	102	1048576	20	5073
2026-01-24 03:22:18.16	245.69	12.63	-29.7	-32.8	19.1	6.03e-01	0	44	102	1048576	20	5138
2026-01-24 03:22:19.16	245.57	12.54	-29.8	-33.1	18.9	6.02e-01	0	44	102	1048576	20	5241
2026-01-24 03:22:20.16	245.46	12.45	-29.8	-33.0	19.0	6.02e-01	0	44	102	1048576	20	5193
2026-01-24 03:22:21.17	245.34	12.36	-29.9	-33.2	18.8	6.03e-01	0	44	102	1048576	20	5286
2026-01-24 03:22:22.17	245.23	12.27	-29.8	-33.1	18.9	6.02e-01	0	44	102	1048576	20	5268
2026-01-24 03:22:23.18	245.12	12.18	-30.0	-33.6	18.6	6.02e-01	0	44	102	1048576	20	5444
2026-01-24 03:22:24.19	245.00	12.09	-29.9	-33.4	18.7	6.01e-01	0	44	102	1048576	20	5372
2026-01-24 03:22:25.19	244.89	12.00	-30.1	-33.8	18.4	6.00e-01	0	44	102	1048576	20	5522
2026-01-24 03:22:26.20	244.78	11.91	-30.3	-33.8	18.1	6.03e-01	0	44	102	1048576	21	5427
2026-01-24 03:22:27.21	244.67	11.82	-30.3	-33.9	18.0	6.02e-01	0	44	102	1048576	21	5452
2026-01-24 03:22:28.21	244.56	11.73	-30.1	-33.4	18.3	6.05e-01	0	44	102	1048576	21	5260
2026-01-24 03:22:29.21	244.45	11.64	-30.1	-33.8	18.4	6.02e-01	0	44	102	1048576	20	5515
2026-01-24 03:22:30.22	244.34	11.56	-30.1	-33.8	18.4	6.04e-01	0	44	102	1048576	20	5535
2026-01-24 03:22:31.22	244.24	11.47	-30.0	-33.7	18.4	6.02e-01	0	44	102	1048576	20	5502
2026-01-24 03:22:32.22	244.13	11.38	-30.1	-33.4	18.3	6.03e-01	0	44	102	1048576	21	5278
2026-01-24 03:22:33.23	244.03	11.29	-30.3	-33.9	17.9	6.02e-01	0	44	102	1048576	21	5472
2026-01-24 03:22:34.23	243.92	11.21	-30.2	-33.8	18.0	6.01e-01	0	44	102	1048576	21	5421
2026-01-24 03:22:35.23	243.82	11.12	-30.0	-33.2	18.4	6.03e-01	0	44	102	1048576	21	5177
2026-01-24 03:22:36.23	243.71	11.03	-30.0	-33.7	18.4	6.01e-01	0	44	102	1048576	20	5489
2026-01-24 03:22:37.23	243.61	10.95	-30.1	-33.3	18.3	6.02e-01	0	44	102	1048576	21	5238
2026-01-24 03:22:38.24	243.51	10.86	-30.0	-33.6	18.4	6.03e-01	0	44	102	1048576	20	5457
2026-01-24 03:22:39.24	243.41	10.78	-29.9	-33.4	18.6	6.00e-01	0	44	102	1048576	20	5380
2026-01-24 03:22:40.25	243.31	10.69	-29.9	-33.5	18.5	6.04e-01	0	44	102	1048576	20	5432
2026-01-24 03:22:41.26	243.20	10.60	-30.0	-33.6	18.4	6.02e-01	0	44	102	1048576	20	5462
2026-01-24 03:22:42.27	243.10	10.52	-30.0	-33.6	18.4	6.04e-01	0	44	102	1048576	20	5452
2026-01-24 03:22:43.27	243.01	10.43	-30.0	-33.6	18.4	6.03e-01	0	44	102	1048576	20	5460
2026-01-24 03:22:44.28	242.91	10.35	-30.0	-33.7	18.3	6.02e-01	0	44	102	1048576	20	5520
2026-01-24 03:22:45.29	242.81	10.26	-29.9	-33.4	18.5	6.01e-01	0	44	102	1048576	20	5402
2026-01-24 03:22:46.29	242.71	10.18	-29.9	-33.4	18.5	6.01e-01	0	44	102	1048576	20	5393
2026-01-24 03:22:47.29	242.62	10.10	-30.0	-33.6	18.4	6.01e-01	0	44	102	1048576	20	5466
2026-01-24 03:22:48.30	242.52	10.01	-30.0	-33.7	18.3	6.03e-01	0	44	102	1048576	20	5526
2026-01-24 03:22:49.31	242.42	9.93	-30.0	-33.6	18.3	6.01e-01	0	44	102	1048576	20	5488
2026-01-24 03:22:50.31	242.33	9.85	-29.9	-33.5	18.4	6.02e-01	0	44	102	1048576	20	5453
2026-01-24 03:22:51.31	242.23	9.76	-30.0	-33.8	18.3	6.03e-01	0	44	102	1048576	20	5545
2026-01-24 03:22:52.32	242.14	9.68	-30.1	-33.5	18.1	6.02e-01	0	44	102	1048576	21	5344
2026-01-24 03:22:53.31	242.05	9.60	-30.0	-33.8	18.2	6.05e-01	0	44	102	1048576	20	5563
2026-01-24 03:22:54.32	241.96	9.52	-30.0	-33.9	18.1	6.03e-01	0	44	102	1048576	20	5602
2026-01-24 03:22:55.32	241.86	9.44	-30.0	-33.7	18.2	6.03e-01	0	44	102	1048576	20	5536
2026-01-24 03:22:56.33	241.77	9.35	-30.0	-33.7	18.3	6.03e-01	0	44	102	1048576	20	5516
2026-01-24 03:22:57.33	241.68	9.27	-30.0	-33.8	18.2	6.02e-01	0	44	102	1048576	20	5560
2026-01-24 03:22:58.34	241.59	9.19	-30.0	-33.7	18.2	6.03e-01	0	44	102	1048576	20	5519
2026-01-24 03:22:59.34	241.50	9.11	-30.0	-33.9	18.1	6.02e-01	0	44	102	1048576	20	5601
2026-01-24 03:23:00.35	241.41	9.03	-30.1	-33.6	17.9	6.02e-01	0	44	102	1048576	21	5390
2026-01-24 03:23:01.34	241.33	8.95	-30.1	-33.7	17.9	6.02e-01	0	44	102	1048576	21	5418
2026-01-24 03:23:02.35	241.24	8.87	-30.2	-33.8	17.8	6.02e-01	0	44	102	1048576	21	5453
2026-01-24 03:23:03.35	241.15	8.79	-30.2	-33.8	17.8	6.02e-01	0	44	102	1048576	21	5457
2026-01-24 03:23:04.36	241.06	8.71	-30.2	-33.9	17.7	6.02e-01	0	44	102	1048576	21	5528
2026-01-24 03:23:05.36	240.98	8.63	-30.2	-33.8	17.8	6.03e-01	0	44	102	1048576	21	5488
2026-01-24 03:23:06.37	240.89	8.55	-30.2	-34.0	17.6	6.04e-01	0	44	102	1048576	21	5556
2026-01-24 03:23:07.37	240.81	8.47	-30.3	-34.5	17.5	6.02e-01	0	44	102	1048576	20	5875
2026-01-24 03:23:08.37	240.72	8.39	-30.1	-33.8	17.3	6.05e-01	0	44	102	1048576	21	5463
2026-01-24 03:23:09.37	240.64	8.31	-30.2	-33.8	17.8	6.00e-01	0	44	102	1048576	21	5468
2026-01-24 03:23:10.37	240.55	8.24	-30.2	-33.9	17.0	6.03e-01	0	44	102	1048576	21	5505
2026-01-24 03:23:11.37	240.47	8.16	-30.1	-34.1	17.2	6.04e-01	0	44	102	1048576	20	5718
2026-01-24 03:23:12.38	240.39	8.08	-30.2	-33.9	17.6	6.01e-01	0	44	102	1048576	21	5526
2026-01-24 03:23:13.39	240.30	8.00	-30.2	-33.9	17.6	6.03e-01	0	44	102	1048576	21	5528
2026-01-24 03:23:14.39	240.22	7.92	-30.3	-34.3	17.3	6.04e-01	0	44	102	1048576	21	5710
2026-01-24 03:23:15.40	240.14	7.85	-30.4	-34.6	17.1	6.04e-01	0	44	102	1048576	21	5812
2026-01-24 03:23:16.41	240.06	7.77	-30.3	-34.3	17.3	6.01e-01	0	44	102	1048576	21	5706
2026-01-24 03:23:17.41	239.98	7.69	-30.4	-34.7	17.0	6.03e-01	0	44	102	1048576	21	5873
2026-01-24 03:23:18.41	239.90	7.62	-30.4	-34.5	17.2	6.03e-01	0	44	102	1048576	21	5791
2026-01-24 03:23:19.42	239.82	7.54	-30.4	-34.8	16.9	6.01e-01	0	44	102	1048576	21	5920
2026-01-24 03:23:20.42	239.74	7.46	-30.5	-35.1	16.7	6.03e-01	0	44	102	1048576	21	6062
2026-01-24 03:23:21.42	239.66	7.39	-30.4	-34.6	17.0	6.05e-01	0	44	102	1048576	21	5836
2026-01-24 03:23:22.42	239.59	7.31	-30.2	-33.9	17.5	6.01e-01	0	44	102	1048576	21	5535
2026-01-24 03:23:23.43	239.51	7.23	-30.2	-33.9	17.4	6.03e-01	0	44	102	1048576	21	5561
2026-01-24 03:23:24.43	239.43	7.16	-30.2	-33.9	17.5	6.04e-01	0	44	102	1048576	21	5534
2026-01-24 03:23:25.43	239.36	7.08	-33.3	-50.0	5.2	7.49e-01	0	44	102	1048576	27	24645
2026-01-24 03:23:26.43	239.28	7.01	-33.6	-52.8	3.8	7.48e-01	0	44	104	1048576	28	32658
2026-01-24 03:23:27.44	239.20	6.93	-34.0	-53.5	3.8	7.46e-01	0	44	104	1048576	28	34218

#Closed at: 2026-01-24 03:23:27
#Recorded file [1 MB]: D:/data/31010_260124_062030.dat