passes_logs/2026/01/24/R2M6_AANII_01/R2M6_AANII_01__20260124_120141_NOAA_20_JPSS-1_rec.log

#Pass ID: 20260124_120141_NOAA 20 (JPSS-1)
#Satellite: NOAA 20 (JPSS-1)
#Configuration: NOAA 20
#almurnet v.1.7.20240730
#Start time: 2026-01-24 12:01:42

#Version: 2.2.20231116
#Station: R2M6_AANII_01
#Location: 30.233357 lon 59.946436 lat
#TLE: 1 43013U 17073A   26023.57676825  .00000205  00000+0  11821-3 0  9990
#TLE: 2 43013  98.7645 324.4259 0001147  27.0566 333.0670 14.19539368423954

#Time	Az	El	Level	Level2	SNR	BER	BlckErr	Temp	State	Recorded	gain1	gain2
2026-01-24 12:01:42.54	216.48	7.05	-31.3	-36.3	5.3	1.16e+00	0	41	0	0	23	6361
2026-01-24 12:01:43.54	216.58	7.11	-31.9	-38.1	5.0	1.24e+00	0	41	104	0	24	7335
2026-01-24 12:01:44.54	216.68	7.17	-31.9	-37.8	7.8	6.83e-02	0	41	0	0	24	7176
2026-01-24 12:01:45.54	216.78	7.24	-31.9	-37.8	7.8	8.86e-02	0	41	102	1048576	24	7164
2026-01-24 12:01:46.55	216.89	7.30	-31.6	-36.8	8.7	4.62e-02	0	41	102	1048576	24	6494
2026-01-24 12:01:47.55	216.99	7.36	-31.5	-36.3	9.1	2.80e-02	0	41	102	1048576	24	6246
2026-01-24 12:01:48.55	217.09	7.42	-31.3	-35.5	9.7	1.92e-02	0	41	102	1048576	24	5835
2026-01-24 12:01:49.55	217.19	7.48	-31.2	-35.7	10.0	8.94e-03	0	41	102	1048576	23	5992
2026-01-24 12:01:50.55	217.30	7.55	-31.2	-35.6	10.1	6.68e-03	0	41	102	1048576	23	5976
2026-01-24 12:01:51.56	217.40	7.61	-31.2	-35.4	10.3	8.03e-03	0	41	102	1048576	23	5845
2026-01-24 12:01:52.56	217.51	7.67	-31.0	-34.8	10.7	3.23e-03	0	41	102	1048576	23	5589
2026-01-24 12:01:53.57	217.61	7.73	-30.9	-34.3	11.1	1.86e-03	0	41	102	1048576	23	5364
2026-01-24 12:01:54.57	217.72	7.80	-30.8	-34.3	11.2	1.29e-03	0	41	102	1048576	23	5328
2026-01-24 12:01:55.57	217.82	7.86	-30.7	-34.4	11.4	1.29e-03	0	41	102	1048576	22	5486
2026-01-24 12:01:56.57	217.93	7.92	-30.8	-34.7	11.2	1.23e-03	0	41	102	1048576	22	5627
2026-01-24 12:01:57.58	218.03	7.98	-31.0	-35.1	11.0	2.12e-03	0	41	102	1048576	22	5795
2026-01-24 12:01:58.58	218.14	8.05	-30.9	-34.9	11.1	1.43e-03	0	41	102	1048576	22	5701
2026-01-24 12:01:59.59	218.25	8.11	-31.0	-35.1	10.9	2.30e-03	0	41	102	1048576	22	5819
2026-01-24 12:02:00.58	218.35	8.17	-30.9	-34.9	11.1	1.77e-03	0	41	102	1048576	22	5711
2026-01-24 12:02:01.59	218.46	8.23	-31.1	-35.6	10.6	2.29e-03	0	41	102	1048576	22	6040
2026-01-24 12:02:02.59	218.57	8.30	-31.1	-35.5	10.6	3.52e-03	0	41	102	1048576	22	6012
2026-01-24 12:02:03.60	218.68	8.36	-31.2	-35.8	10.5	3.24e-03	0	41	102	1048576	22	6128
2026-01-24 12:02:04.60	218.79	8.42	-31.2	-35.8	10.4	5.35e-03	0	42	102	1048576	22	6148
2026-01-24 12:02:05.61	218.90	8.49	-31.0	-35.3	10.8	2.60e-03	0	41	102	1048576	22	5893
2026-01-24 12:02:06.62	219.01	8.55	-31.0	-35.3	10.8	2.33e-03	0	42	102	1048576	22	5905
2026-01-24 12:02:07.62	219.12	8.61	-31.0	-35.3	10.9	2.49e-03	0	41	102	1048576	22	5867
2026-01-24 12:02:08.63	219.24	8.68	-31.0	-35.4	10.8	2.15e-03	0	42	102	1048576	22	5917
2026-01-24 12:02:09.63	219.35	8.74	-31.1	-35.5	10.7	2.85e-03	0	42	102	1048576	22	5973
2026-01-24 12:02:10.63	219.46	8.80	-31.1	-35.5	10.7	3.30e-03	0	42	102	1048576	22	5983
2026-01-24 12:02:11.64	219.57	8.87	-31.2	-35.8	10.5	2.97e-03	0	42	102	1048576	22	6137
2026-01-24 12:02:12.63	219.68	8.93	-31.1	-35.6	10.6	4.33e-03	0	42	102	1048576	22	6012
2026-01-24 12:02:13.63	219.80	8.99	-30.9	-34.9	11.2	1.82e-03	0	42	102	1048576	22	5677
2026-01-24 12:02:14.64	219.91	9.06	-30.8	-34.6	11.4	9.82e-04	0	42	102	1048576	22	5558
2026-01-24 12:02:15.65	220.03	9.12	-30.8	-34.4	11.5	7.80e-04	0	42	102	1048576	22	5484
2026-01-24 12:02:16.65	220.14	9.19	-30.8	-34.4	11.5	7.49e-04	0	42	102	1048576	22	5482
2026-01-24 12:02:17.66	220.26	9.25	-30.7	-34.3	11.6	6.48e-04	0	42	102	1048576	22	5422
2026-01-24 12:02:18.66	220.38	9.32	-30.8	-34.6	11.4	7.80e-04	0	42	102	1048576	22	5543
2026-01-24 12:02:19.67	220.49	9.38	-30.8	-34.6	11.4	1.07e-03	0	42	102	1048576	22	5557
2026-01-24 12:02:20.68	220.61	9.44	-30.7	-34.2	11.7	7.90e-04	0	42	102	1048576	22	5394
2026-01-24 12:02:21.68	220.73	9.51	-30.8	-34.4	11.6	5.62e-04	0	42	102	1048576	22	5481
2026-01-24 12:02:22.69	220.85	9.57	-30.7	-34.3	11.6	7.30e-04	0	42	102	1048576	22	5421
2026-01-24 12:02:23.69	220.97	9.64	-30.8	-34.4	11.6	6.70e-04	0	42	102	1048576	22	5467
2026-01-24 12:02:24.70	221.09	9.70	-30.7	-34.2	11.7	6.77e-04	0	42	102	1048576	22	5390
2026-01-24 12:02:25.71	221.21	9.77	-30.6	-33.7	12.1	3.58e-04	0	42	102	1048576	22	5186
2026-01-24 12:02:26.72	221.33	9.83	-30.5	-33.5	12.3	2.41e-04	0	42	102	1048576	22	5081
2026-01-24 12:02:27.72	221.45	9.90	-30.6	-33.8	12.1	2.57e-04	0	42	102	1048576	22	5209
2026-01-24 12:02:28.72	221.57	9.96	-30.5	-33.5	12.3	1.88e-04	0	42	102	1048576	22	5105
2026-01-24 12:02:29.73	221.69	10.03	-30.5	-33.5	12.3	1.78e-04	0	42	102	1048576	22	5083
2026-01-24 12:02:30.73	221.81	10.09	-30.5	-33.5	12.3	2.39e-04	0	42	102	1048576	22	5097
2026-01-24 12:02:31.73	221.94	10.16	-30.5	-33.4	12.4	1.89e-04	0	42	102	1048576	22	5036
2026-01-24 12:02:32.73	222.06	10.22	-30.5	-33.6	12.2	1.77e-04	0	42	102	1048576	22	5112
2026-01-24 12:02:33.73	222.18	10.29	-30.7	-34.0	12.0	2.86e-04	0	42	102	1048576	22	5299
2026-01-24 12:02:34.73	222.31	10.35	-30.6	-33.7	12.2	3.42e-04	0	42	102	1048576	22	5167
2026-01-24 12:02:35.74	222.43	10.42	-30.4	-33.2	12.5	1.93e-04	0	42	102	1048576	22	4982
2026-01-24 12:02:36.74	222.56	10.48	-30.4	-33.1	12.6	1.24e-04	0	42	102	1048576	22	4948
2026-01-24 12:02:37.75	222.68	10.55	-30.3	-32.9	12.7	1.10e-04	0	42	102	1048576	22	4867
2026-01-24 12:02:38.75	222.81	10.61	-30.5	-33.7	12.2	1.08e-04	0	42	102	1048576	22	5151
2026-01-24 12:02:39.76	222.94	10.68	-30.4	-33.2	12.5	1.26e-04	0	42	102	1048576	22	4972
2026-01-24 12:02:40.77	223.07	10.74	-30.3	-33.5	12.7	5.41e-05	0	42	102	1048576	21	5183
2026-01-24 12:02:41.77	223.19	10.81	-30.3	-33.5	12.6	1.09e-04	0	42	102	1048576	21	5192
2026-01-24 12:02:42.77	223.32	10.87	-30.3	-33.5	12.7	8.08e-05	0	42	102	1048576	21	5170
2026-01-24 12:02:43.77	223.45	10.94	-30.3	-33.5	12.6	7.70e-05	0	42	102	1048576	21	5210
2026-01-24 12:02:44.77	223.58	11.00	-30.3	-33.3	12.8	8.46e-05	0	42	102	1048576	21	5109
2026-01-24 12:02:45.78	223.71	11.07	-30.2	-33.2	12.9	4.80e-05	0	42	102	1048576	21	5055
2026-01-24 12:02:46.79	223.84	11.14	-30.2	-33.0	12.9	4.11e-05	0	42	102	1048576	21	5014
2026-01-24 12:02:47.79	223.98	11.20	-30.2	-33.0	13.0	4.11e-05	0	42	102	1048576	21	5004
2026-01-24 12:02:48.79	224.11	11.27	-30.2	-33.0	13.0	4.34e-05	0	42	102	1048576	21	4986
2026-01-24 12:02:49.79	224.24	11.33	-30.2	-33.1	13.0	3.12e-05	0	42	102	1048576	21	5015
2026-01-24 12:02:50.79	224.37	11.40	-30.2	-33.2	12.8	4.19e-05	0	42	102	1048576	21	5083
2026-01-24 12:02:51.80	224.51	11.46	-30.1	-32.9	13.0	4.88e-05	0	42	102	1048576	21	4974
2026-01-24 12:02:52.80	224.64	11.53	-30.1	-32.9	13.1	3.50e-05	0	42	102	1048576	21	4967
2026-01-24 12:02:53.81	224.78	11.60	-30.2	-33.0	13.0	4.57e-05	0	42	102	1048576	21	4993
2026-01-24 12:02:54.82	224.91	11.66	-30.2	-33.1	12.9	4.04e-05	0	42	102	1048576	21	5044
2026-01-24 12:02:55.82	225.05	11.73	-30.2	-33.1	12.9	3.73e-05	0	42	102	1048576	21	5039
2026-01-24 12:02:56.83	225.19	11.79	-30.1	-32.9	13.1	3.28e-05	0	42	102	1048576	21	4959
2026-01-24 12:02:57.84	225.33	11.86	-30.1	-32.9	13.1	3.12e-05	0	42	102	1048576	21	4957
2026-01-24 12:02:58.84	225.46	11.93	-30.1	-32.9	13.1	3.35e-05	0	42	102	1048576	21	4952
2026-01-24 12:02:59.84	225.60	11.99	-30.1	-32.8	13.2	3.81e-05	0	42	102	1048576	21	4923
2026-01-24 12:03:00.85	225.74	12.06	-30.2	-33.1	13.0	2.74e-05	0	42	102	1048576	21	5010
2026-01-24 12:03:01.85	225.88	12.12	-30.2	-33.0	13.1	2.59e-05	0	42	102	1048576	21	4965
2026-01-24 12:03:02.86	226.02	12.19	-30.2	-33.1	13.1	1.83e-05	0	42	102	1048576	21	5007
2026-01-24 12:03:03.86	226.16	12.26	-30.3	-33.3	12.9	5.34e-05	0	42	102	1048576	21	5108
2026-01-24 12:03:04.86	226.30	12.32	-30.2	-33.1	13.0	3.89e-05	0	43	102	1048576	21	5023
2026-01-24 12:03:05.87	226.45	12.39	-30.2	-33.2	12.9	3.96e-05	0	42	102	1048576	21	5068
2026-01-24 12:03:06.87	226.59	12.46	-30.5	-33.9	12.5	7.70e-05	0	43	102	1048576	21	5352
2026-01-24 12:03:07.87	226.73	12.52	-30.3	-33.5	12.8	9.07e-05	0	43	102	1048576	21	5176
2026-01-24 12:03:08.88	226.88	12.59	-30.2	-33.2	13.0	4.50e-05	0	42	102	1048576	21	5053
2026-01-24 12:03:09.89	227.02	12.66	-30.3	-33.2	13.0	3.89e-05	0	42	102	1048576	21	5065
2026-01-24 12:03:10.89	227.17	12.72	-30.3	-33.3	12.9	4.88e-05	0	43	102	1048576	21	5084
2026-01-24 12:03:11.90	227.32	12.79	-30.3	-33.3	12.9	4.65e-05	0	43	102	1048576	21	5099
2026-01-24 12:03:12.91	227.46	12.86	-30.4	-33.6	12.7	5.11e-05	0	43	102	1048576	21	5203
2026-01-24 12:03:13.91	227.61	12.92	-30.3	-33.5	12.8	7.24e-05	0	43	102	1048576	21	5159
2026-01-24 12:03:14.92	227.76	12.99	-30.4	-33.8	12.6	6.48e-05	0	42	102	1048576	21	5281
2026-01-24 12:03:15.92	227.91	13.05	-30.3	-33.4	12.9	9.76e-05	0	43	102	1048576	21	5134
2026-01-24 12:03:16.92	228.06	13.12	-30.2	-32.9	13.2	2.89e-05	0	42	102	1048576	21	4955
2026-01-24 12:03:17.92	228.21	13.19	-30.0	-32.5	13.5	1.37e-05	0	43	102	1048576	21	4792
2026-01-24 12:03:18.93	228.36	13.25	-30.0	-32.3	13.6	1.06e-05	0	43	102	1048576	21	4742
2026-01-24 12:03:19.93	228.51	13.32	-30.0	-32.4	13.5	1.14e-05	0	43	102	1048576	21	4777
2026-01-24 12:03:20.94	228.66	13.39	-30.0	-32.6	13.5	6.80e-06	0	43	102	1048576	21	4823
2026-01-24 12:03:21.94	228.81	13.45	-30.2	-32.9	13.2	1.29e-05	0	43	102	1048576	21	4950
2026-01-24 12:03:22.94	228.97	13.52	-30.0	-32.6	13.4	1.37e-05	0	43	102	1048576	21	4808
2026-01-24 12:03:23.94	229.12	13.59	-30.0	-32.5	13.5	6.80e-06	0	43	102	1048576	21	4785
2026-01-24 12:03:24.95	229.27	13.65	-30.0	-32.6	13.5	1.06e-05	0	43	102	1048576	21	4814
2026-01-24 12:03:25.96	229.43	13.72	-30.1	-32.7	13.4	1.06e-05	0	43	102	1048576	21	4852
2026-01-24 12:03:26.96	229.59	13.79	-30.1	-32.6	13.5	6.10e-06	0	43	102	1048576	21	4837
2026-01-24 12:03:27.96	229.74	13.85	-30.2	-32.9	13.2	1.29e-05	0	42	102	1048576	21	4947
2026-01-24 12:03:28.97	229.90	13.92	-30.0	-32.5	13.5	1.22e-05	0	43	102	1048576	21	4791
2026-01-24 12:03:29.98	230.06	13.99	-29.9	-32.3	13.7	8.30e-06	0	42	102	1048576	21	4725
2026-01-24 12:03:30.98	230.22	14.05	-30.0	-32.4	13.6	5.30e-06	0	43	102	1048576	21	4764
2026-01-24 12:03:31.99	230.38	14.12	-30.0	-32.4	13.6	6.10e-06	0	43	102	1048576	21	4772
2026-01-24 12:03:33.00	230.54	14.18	-30.0	-32.5	13.6	9.90e-06	0	43	102	1048576	21	4800
2026-01-24 12:03:34.00	230.70	14.25	-30.1	-32.8	13.4	1.06e-05	0	43	102	1048576	21	4888
2026-01-24 12:03:35.00	230.86	14.32	-30.1	-32.6	13.5	1.67e-05	0	43	102	1048576	21	4829
2026-01-24 12:03:36.01	231.02	14.38	-30.0	-32.5	13.6	1.06e-05	0	43	102	1048576	21	4775
2026-01-24 12:03:37.02	231.19	14.45	-30.1	-32.7	13.5	1.29e-05	0	43	102	1048576	21	4840
2026-01-24 12:03:38.01	231.35	14.51	-30.2	-33.1	13.2	1.22e-05	0	43	102	1048576	21	4989
2026-01-24 12:03:39.01	231.51	14.58	-30.1	-32.7	13.5	1.67e-05	0	43	102	1048576	21	4852
2026-01-24 12:03:40.02	231.68	14.65	-30.2	-33.0	13.2	1.75e-05	0	43	102	1048576	21	4971
2026-01-24 12:03:41.03	231.85	14.71	-30.1	-32.8	13.4	1.52e-05	0	43	102	1048576	21	4891
2026-01-24 12:03:42.04	232.01	14.78	-30.1	-32.7	13.5	1.44e-05	0	43	102	1048576	21	4838
2026-01-24 12:03:43.04	232.18	14.85	-30.2	-32.9	13.4	6.80e-06	0	43	102	1048576	21	4911
2026-01-24 12:03:44.05	232.35	14.91	-30.2	-33.1	13.2	1.98e-05	0	43	102	1048576	21	4985
2026-01-24 12:03:45.06	232.52	14.98	-30.1	-32.6	13.5	1.60e-05	0	43	102	1048576	21	4829
2026-01-24 12:03:46.07	232.69	15.04	-30.0	-32.5	13.6	1.22e-05	0	43	102	1048576	21	4790
2026-01-24 12:03:47.07	232.86	15.11	-30.1	-32.5	13.6	3.80e-06	0	43	102	1048576	21	4793
2026-01-24 12:03:48.08	233.03	15.18	-30.1	-32.5	13.6	5.30e-06	0	43	102	1048576	21	4790
2026-01-24 12:03:49.08	233.20	15.24	-30.1	-32.8	13.5	5.30e-06	0	43	102	1048576	21	4874
2026-01-24 12:03:50.09	233.37	15.31	-30.2	-33.0	13.3	2.05e-05	0	43	102	1048576	21	4958
2026-01-24 12:03:51.09	233.55	15.37	-30.2	-33.0	13.4	8.30e-06	0	43	102	1048576	21	4935
2026-01-24 12:03:52.09	233.72	15.44	-30.3	-33.2	13.2	1.60e-05	0	43	102	1048576	21	5024
2026-01-24 12:03:53.09	233.89	15.50	-30.4	-33.4	13.0	3.66e-05	0	43	102	1048576	21	5110
2026-01-24 12:03:54.10	234.07	15.57	-30.3	-33.1	13.3	2.36e-05	0	43	102	1048576	21	4996
2026-01-24 12:03:55.10	234.25	15.63	-30.2	-32.9	13.4	1.75e-05	0	43	102	1048576	21	4912
2026-01-24 12:03:56.11	234.42	15.70	-30.2	-32.9	13.4	9.90e-06	0	43	102	1048576	21	4928
2026-01-24 12:03:57.11	234.60	15.76	-30.2	-32.9	13.4	1.44e-05	0	43	102	1048576	21	4925
2026-01-24 12:03:58.11	234.78	15.83	-30.3	-33.1	13.3	1.14e-05	0	43	102	1048576	21	4993
2026-01-24 12:03:59.12	234.96	15.89	-30.2	-33.0	13.4	1.67e-05	0	43	102	1048576	21	4952
2026-01-24 12:04:00.12	235.14	15.96	-30.4	-33.4	13.1	2.59e-05	0	43	102	1048576	21	5083
2026-01-24 12:04:01.12	235.32	16.02	-30.3	-33.1	13.3	1.98e-05	0	43	102	1048576	21	4987
2026-01-24 12:04:02.13	235.50	16.09	-30.4	-33.3	13.2	2.28e-05	0	43	102	1048576	21	5061
2026-01-24 12:04:03.13	235.68	16.15	-30.6	-33.9	12.7	5.03e-05	0	43	102	1048576	21	5294
2026-01-24 12:04:04.14	235.86	16.22	-30.3	-33.3	13.2	3.35e-05	0	43	102	1048576	21	5050
2026-01-24 12:04:05.14	236.05	16.28	-30.1	-32.7	13.6	1.06e-05	0	43	102	1048576	21	4835
2026-01-24 12:04:06.15	236.23	16.34	-30.1	-32.5	13.7	4.50e-06	0	43	102	1048576	21	4755
2026-01-24 12:04:07.16	236.42	16.41	-30.0	-32.3	13.9	1.50e-06	0	43	102	1048576	21	4683
2026-01-24 12:04:08.16	236.60	16.47	-30.0	-32.3	13.8	4.50e-06	0	43	102	1048576	21	4713
2026-01-24 12:04:09.17	236.79	16.54	-30.0	-32.4	13.8	5.30e-06	0	43	102	1048576	21	4724
2026-01-24 12:04:10.17	236.98	16.60	-30.1	-32.5	13.8	2.20e-06	0	43	102	1048576	21	4759
2026-01-24 12:04:11.17	237.16	16.66	-30.0	-32.5	13.8	4.50e-06	0	43	102	1048576	21	4753
2026-01-24 12:04:12.17	237.35	16.73	-30.1	-32.5	13.7	1.06e-05	0	43	102	1048576	21	4768
2026-01-24 12:04:13.18	237.54	16.79	-30.2	-32.9	13.5	5.30e-06	0	43	102	1048576	21	4902
2026-01-24 12:04:14.18	237.73	16.85	-30.0	-32.4	13.8	6.10e-06	0	43	102	1048576	21	4719
2026-01-24 12:04:15.19	237.93	16.92	-29.9	-32.0	14.1	1.50e-06	0	43	102	1048576	21	4608
2026-01-24 12:04:16.20	238.12	16.98	-29.9	-32.0	14.1	3.00e-06	0	43	102	1048576	21	4599
2026-01-24 12:04:17.21	238.31	17.04	-29.9	-32.0	14.1	7.00e-07	0	43	102	1048576	21	4586
2026-01-24 12:04:18.22	238.51	17.11	-29.8	-32.2	14.3	3.00e-06	0	43	102	1048576	20	4766
2026-01-24 12:04:19.22	238.70	17.17	-29.7	-32.0	14.4	7.00e-07	0	43	102	1048576	20	4688
2026-01-24 12:04:20.23	238.90	17.23	-29.7	-32.0	14.4	0.00e+00	0	43	102	1048576	20	4703
2026-01-24 12:04:21.24	239.09	17.29	-29.6	-31.8	14.5	0.00e+00	0	43	102	1048576	20	4642
2026-01-24 12:04:22.24	239.29	17.36	-29.7	-32.0	14.5	2.20e-06	0	43	102	1048576	20	4690
2026-01-24 12:04:23.24	239.49	17.42	-29.8	-32.2	14.3	7.00e-07	0	43	102	1048576	20	4762
2026-01-24 12:04:24.25	239.69	17.48	-29.6	-31.9	14.5	1.50e-06	0	43	102	1048576	20	4648
2026-01-24 12:04:25.25	239.89	17.54	-29.6	-31.6	14.7	0.00e+00	0	43	102	1048576	20	4572
2026-01-24 12:04:26.25	240.08	17.60	-29.5	-31.5	14.8	7.00e-07	0	43	102	1048576	20	4528
2026-01-24 12:04:27.26	240.29	17.66	-29.6	-31.7	14.6	0.00e+00	0	43	102	1048576	20	4593
2026-01-24 12:04:28.26	240.49	17.72	-29.5	-31.4	14.8	0.00e+00	0	43	102	1048576	20	4510
2026-01-24 12:04:29.26	240.69	17.78	-29.5	-31.5	14.8	0.00e+00	0	43	102	1048576	20	4514
2026-01-24 12:04:30.27	240.89	17.84	-29.5	-31.4	14.8	7.00e-07	0	43	102	1048576	20	4497
2026-01-24 12:04:31.27	241.10	17.90	-29.5	-31.6	14.7	7.00e-07	0	43	102	1048576	20	4554
2026-01-24 12:04:32.27	241.30	17.96	-29.6	-31.7	14.7	0.00e+00	0	43	102	1048576	20	4590
2026-01-24 12:04:33.28	241.51	18.02	-29.6	-31.8	14.6	7.00e-07	0	43	102	1048576	20	4626
2026-01-24 12:04:34.28	241.71	18.08	-29.6	-31.8	14.6	7.00e-07	0	43	102	1048576	20	4625
2026-01-24 12:04:35.29	241.92	18.14	-29.7	-32.0	14.5	0.00e+00	0	43	102	1048576	20	4693
2026-01-24 12:04:36.30	242.13	18.20	-29.7	-31.9	14.5	7.00e-07	0	43	102	1048576	20	4673
2026-01-24 12:04:37.30	242.34	18.26	-29.6	-31.9	14.5	1.50e-06	0	43	102	1048576	20	4644
2026-01-24 12:04:38.30	242.54	18.32	-29.7	-31.9	14.5	0.00e+00	0	43	102	1048576	20	4647
2026-01-24 12:04:39.29	242.75	18.38	-29.7	-31.9	14.5	0.00e+00	0	43	102	1048576	20	4651
2026-01-24 12:04:40.30	242.96	18.44	-29.7	-31.9	14.5	0.00e+00	0	43	102	1048576	20	4665
2026-01-24 12:04:41.31	243.18	18.50	-29.7	-32.1	14.4	7.00e-07	0	43	102	1048576	20	4709
2026-01-24 12:04:42.31	243.39	18.55	-29.8	-32.3	14.3	7.00e-07	0	43	102	1048576	20	4782
2026-01-24 12:04:43.31	243.60	18.61	-29.9	-32.6	14.1	7.00e-07	0	43	102	1048576	20	4876
2026-01-24 12:04:44.31	243.81	18.67	-30.0	-32.8	14.0	7.00e-07	0	43	102	1048576	20	4968
2026-01-24 12:04:45.31	244.03	18.72	-30.1	-33.1	13.8	4.50e-06	0	43	102	1048576	20	5068
2026-01-24 12:04:46.32	244.24	18.78	-30.2	-33.3	13.7	4.50e-06	0	43	102	1048576	20	5145
2026-01-24 12:04:47.32	244.46	18.84	-30.2	-33.4	13.6	1.06e-05	0	43	102	1048576	20	5199
2026-01-24 12:04:48.32	244.68	18.89	-30.3	-33.5	13.5	8.30e-06	0	43	102	1048576	20	5234
2026-01-24 12:04:49.33	244.90	18.95	-30.2	-33.4	13.6	1.06e-05	0	43	102	1048576	20	5185
2026-01-24 12:04:50.34	245.12	19.01	-30.3	-33.6	13.4	5.30e-06	0	43	102	1048576	20	5276
2026-01-24 12:04:51.34	245.33	19.06	-30.3	-33.6	13.5	3.80e-06	0	43	102	1048576	20	5251
2026-01-24 12:04:52.35	245.56	19.12	-30.4	-33.8	13.4	1.98e-05	0	43	102	1048576	20	5329
2026-01-24 12:04:53.36	245.78	19.17	-30.4	-33.8	13.3	1.52e-05	0	43	102	1048576	20	5345
2026-01-24 12:04:54.36	246.00	19.23	-30.5	-34.1	13.2	2.05e-05	0	43	102	1048576	20	5443
2026-01-24 12:04:55.36	246.22	19.28	-30.5	-33.7	13.1	1.98e-05	0	43	102	1048576	21	5189
2026-01-24 12:04:56.36	246.44	19.33	-30.6	-33.9	13.0	3.66e-05	0	43	102	1048576	21	5248
2026-01-24 12:04:57.37	246.67	19.39	-30.6	-34.0	12.9	4.11e-05	0	43	102	1048576	21	5315
2026-01-24 12:04:58.37	246.89	19.44	-30.7	-34.3	12.7	6.33e-05	0	43	102	1048576	21	5417
2026-01-24 12:04:59.37	247.12	19.49	-30.8	-34.5	12.5	9.91e-05	0	43	102	1048576	21	5521
2026-01-24 12:05:00.37	247.34	19.55	-30.9	-34.8	12.4	1.76e-04	0	43	102	1048576	21	5653
2026-01-24 12:05:01.37	247.57	19.60	-31.0	-35.0	12.2	2.00e-04	0	43	102	1048576	21	5731
2026-01-24 12:05:02.37	247.80	19.65	-31.1	-34.9	12.0	2.35e-04	0	43	102	1048576	22	5548
2026-01-24 12:05:03.38	248.03	19.70	-31.1	-34.8	12.0	3.30e-04	0	43	102	1048576	22	5534
2026-01-24 12:05:04.39	248.26	19.75	-31.0	-34.6	12.2	2.87e-04	0	43	102	1048576	22	5438
2026-01-24 12:05:05.39	248.49	19.80	-31.0	-34.5	12.2	2.39e-04	0	43	102	1048576	22	5405
2026-01-24 12:05:06.40	248.72	19.86	-31.0	-34.5	12.2	2.01e-04	0	43	102	1048576	22	5407
2026-01-24 12:05:07.41	248.95	19.91	-31.0	-34.6	12.2	2.68e-04	0	43	102	1048576	22	5449
2026-01-24 12:05:08.41	249.18	19.96	-31.1	-34.9	12.0	3.04e-04	0	43	102	1048576	22	5555
2026-01-24 12:05:09.42	249.42	20.01	-31.1	-34.9	12.0	4.13e-04	0	43	102	1048576	22	5568
2026-01-24 12:05:10.42	249.65	20.05	-31.0	-34.6	12.2	2.41e-04	0	43	102	1048576	22	5453
2026-01-24 12:05:11.43	249.89	20.10	-31.0	-34.6	12.2	2.31e-04	0	43	102	1048576	22	5431
2026-01-24 12:05:12.44	250.12	20.15	-31.1	-34.8	12.1	2.44e-04	0	43	102	1048576	22	5503
2026-01-24 12:05:13.45	250.36	20.20	-31.1	-34.9	12.0	3.94e-04	0	43	102	1048576	22	5576
2026-01-24 12:05:14.45	250.59	20.25	-31.1	-35.0	11.9	3.18e-04	0	43	102	1048576	22	5592
2026-01-24 12:05:15.46	250.83	20.30	-31.1	-34.9	12.0	5.01e-04	0	43	102	1048576	22	5574
2026-01-24 12:05:16.47	251.07	20.34	-31.0	-34.5	12.3	2.11e-04	0	43	102	1048576	22	5383
2026-01-24 12:05:17.47	251.31	20.39	-30.8	-34.0	12.6	1.02e-04	0	43	102	1048576	22	5190
2026-01-24 12:05:18.47	251.55	20.43	-30.6	-33.5	13.0	6.02e-05	0	43	102	1048576	22	4991
2026-01-24 12:05:19.47	251.79	20.48	-30.6	-33.3	13.1	3.96e-05	0	43	102	1048576	22	4913
2026-01-24 12:05:20.48	252.03	20.53	-30.6	-33.3	13.1	2.67e-05	0	43	102	1048576	22	4933
2026-01-24 12:05:21.48	252.27	20.57	-30.6	-33.3	13.1	3.66e-05	0	43	102	1048576	22	4931
2026-01-24 12:05:22.48	252.51	20.61	-30.5	-33.0	13.3	1.06e-05	0	43	102	1048576	22	4803
2026-01-24 12:05:23.49	252.76	20.66	-30.5	-33.2	13.2	1.90e-05	0	43	102	1048576	22	4890
2026-01-24 12:05:24.49	253.00	20.70	-30.6	-33.4	13.0	3.12e-05	0	43	102	1048576	22	4966
2026-01-24 12:05:25.50	253.25	20.74	-30.7	-33.7	12.8	5.56e-05	0	43	102	1048576	22	5064
2026-01-24 12:05:26.50	253.49	20.79	-30.8	-33.8	12.7	6.71e-05	0	43	102	1048576	22	5116
2026-01-24 12:05:27.51	253.74	20.83	-30.8	-33.9	12.7	7.78e-05	0	43	102	1048576	22	5167
2026-01-24 12:05:28.52	253.98	20.87	-30.8	-33.9	12.7	8.01e-05	0	43	102	1048576	22	5135
2026-01-24 12:05:29.52	254.23	20.91	-30.7	-33.6	12.9	6.56e-05	0	43	102	1048576	22	5042
2026-01-24 12:05:30.52	254.48	20.95	-30.7	-33.6	12.9	5.41e-05	0	43	102	1048576	22	5032
2026-01-24 12:05:31.53	254.73	20.99	-30.7	-33.5	13.0	3.81e-05	0	43	102	1048576	22	5016
2026-01-24 12:05:32.53	254.97	21.03	-30.6	-33.5	13.0	4.73e-05	0	43	102	1048576	22	4983
2026-01-24 12:05:33.53	255.22	21.07	-30.6	-33.3	13.1	2.82e-05	0	43	102	1048576	22	4928
2026-01-24 12:05:34.53	255.47	21.11	-30.5	-33.2	13.2	2.97e-05	0	43	102	1048576	22	4872
2026-01-24 12:05:35.54	255.72	21.15	-30.5	-33.1	13.2	2.67e-05	0	43	102	1048576	22	4861
2026-01-24 12:05:36.54	255.97	21.19	-30.5	-33.1	13.3	1.90e-05	0	43	102	1048576	22	4846
2026-01-24 12:05:37.54	256.22	21.22	-30.5	-33.2	13.2	2.21e-05	0	43	102	1048576	22	4871
2026-01-24 12:05:38.55	256.48	21.26	-30.5	-33.0	13.3	1.83e-05	0	43	102	1048576	22	4829
2026-01-24 12:05:39.54	256.73	21.30	-30.5	-33.1	13.3	2.05e-05	0	43	102	1048576	22	4864
2026-01-24 12:05:40.55	256.98	21.33	-30.6	-33.4	13.1	2.36e-05	0	43	102	1048576	22	4952
2026-01-24 12:05:41.55	257.24	21.37	-30.7	-33.5	13.0	3.05e-05	0	43	102	1048576	22	4984
2026-01-24 12:05:42.56	257.49	21.40	-30.7	-33.6	12.9	3.66e-05	0	43	102	1048576	22	5044
2026-01-24 12:05:43.56	257.75	21.44	-30.7	-33.6	13.0	5.03e-05	0	43	102	1048576	22	5018
2026-01-24 12:05:44.56	258.00	21.47	-30.5	-33.1	13.3	1.52e-05	0	43	102	1048576	22	4854
2026-01-24 12:05:45.56	258.26	21.50	-30.5	-33.0	13.4	1.44e-05	0	43	102	1048576	22	4817
2026-01-24 12:05:46.56	258.51	21.54	-30.4	-32.9	13.4	1.22e-05	0	43	102	1048576	22	4775
2026-01-24 12:05:47.57	258.77	21.57	-30.5	-33.2	13.2	1.75e-05	0	43	102	1048576	22	4866
2026-01-24 12:05:48.57	259.03	21.60	-30.4	-32.9	13.4	2.51e-05	0	43	102	1048576	22	4778
2026-01-24 12:05:49.57	259.29	21.63	-30.4	-32.8	13.5	1.06e-05	0	43	102	1048576	22	4739
2026-01-24 12:05:50.58	259.55	21.66	-30.3	-32.5	13.7	1.44e-05	0	43	102	1048576	22	4644
2026-01-24 12:05:51.58	259.80	21.69	-30.2	-32.7	13.8	3.80e-06	0	43	102	1048576	21	4818
2026-01-24 12:05:52.57	260.06	21.72	-30.1	-32.6	14.0	3.80e-06	0	43	102	1048576	21	4756
2026-01-24 12:05:53.58	260.32	21.75	-30.2	-32.6	13.9	1.50e-06	0	43	102	1048576	21	4777
2026-01-24 12:05:54.59	260.58	21.78	-30.2	-32.6	13.9	1.50e-06	0	43	102	1048576	21	4776
2026-01-24 12:05:55.59	260.84	21.81	-30.4	-33.2	13.6	1.22e-05	0	43	102	1048576	21	4980
2026-01-24 12:05:56.60	261.11	21.83	-30.3	-32.9	13.7	9.10e-06	0	43	102	1048576	21	4891
2026-01-24 12:05:57.60	261.37	21.86	-30.2	-32.7	13.9	3.80e-06	0	43	102	1048576	21	4813
2026-01-24 12:05:58.60	261.63	21.89	-30.1	-32.5	14.0	7.00e-07	0	43	102	1048576	21	4749
2026-01-24 12:05:59.61	261.89	21.91	-30.1	-32.5	14.0	3.00e-06	0	43	102	1048576	21	4735
2026-01-24 12:06:00.61	262.16	21.94	-30.1	-32.5	14.0	4.50e-06	0	43	102	1048576	21	4724
2026-01-24 12:06:01.61	262.42	21.96	-30.1	-32.6	14.0	3.00e-06	0	43	102	1048576	21	4759
2026-01-24 12:06:02.62	262.69	21.98	-30.2	-32.7	13.9	6.10e-06	0	43	102	1048576	21	4791
2026-01-24 12:06:03.62	262.95	22.01	-30.2	-32.8	13.8	7.00e-07	0	43	102	1048576	21	4833
2026-01-24 12:06:04.62	263.21	22.03	-30.2	-32.8	13.8	6.10e-06	0	43	102	1048576	21	4853
2026-01-24 12:06:05.63	263.48	22.05	-30.2	-32.7	13.9	9.10e-06	0	43	102	1048576	21	4811
2026-01-24 12:06:06.64	263.75	22.07	-30.4	-33.1	13.6	6.80e-06	0	43	102	1048576	21	4961
2026-01-24 12:06:07.65	264.01	22.09	-30.3	-33.1	13.6	1.06e-05	0	43	102	1048576	21	4962
2026-01-24 12:06:08.65	264.28	22.11	-30.4	-33.2	13.6	1.52e-05	0	43	102	1048576	21	4995
2026-01-24 12:06:09.66	264.55	22.13	-30.4	-33.4	13.4	1.06e-05	0	43	102	1048576	21	5045
2026-01-24 12:06:10.66	264.81	22.15	-30.5	-33.5	13.4	1.06e-05	0	43	102	1048576	21	5086
2026-01-24 12:06:11.66	265.08	22.17	-30.6	-33.8	13.1	2.97e-05	0	43	102	1048576	21	5228
2026-01-24 12:06:12.66	265.35	22.19	-30.7	-34.1	13.0	2.51e-05	0	43	102	1048576	21	5326
2026-01-24 12:06:13.67	265.62	22.21	-30.8	-34.3	12.8	3.96e-05	0	43	102	1048576	21	5393
2026-01-24 12:06:14.67	265.88	22.22	-30.8	-34.5	12.7	6.25e-05	0	43	102	1048576	21	5476
2026-01-24 12:06:15.67	266.15	22.24	-30.8	-34.3	12.8	7.32e-05	0	43	102	1048576	21	5385
2026-01-24 12:06:16.68	266.42	22.25	-30.6	-33.8	13.2	3.28e-05	0	43	102	1048576	21	5208
2026-01-24 12:06:17.69	266.69	22.27	-30.6	-33.7	13.2	3.28e-05	0	43	102	1048576	21	5171
2026-01-24 12:06:18.69	266.96	22.28	-30.6	-33.8	13.2	2.89e-05	0	43	102	1048576	21	5196
2026-01-24 12:06:19.70	267.23	22.29	-30.6	-33.7	13.2	1.83e-05	0	43	102	1048576	21	5177
2026-01-24 12:06:20.70	267.50	22.31	-30.6	-33.8	13.1	3.50e-05	0	43	102	1048576	21	5215
2026-01-24 12:06:21.70	267.77	22.32	-30.6	-33.9	13.1	2.74e-05	0	43	102	1048576	21	5229
2026-01-24 12:06:22.71	268.04	22.33	-30.7	-34.0	13.0	3.12e-05	0	43	102	1048576	21	5299
2026-01-24 12:06:23.71	268.31	22.34	-30.5	-33.6	13.3	3.35e-05	0	43	102	1048576	21	5117
2026-01-24 12:06:24.72	268.58	22.35	-30.4	-33.2	13.6	7.60e-06	0	43	102	1048576	21	4963
2026-01-24 12:06:25.72	268.85	22.36	-30.3	-33.1	13.6	5.30e-06	0	43	102	1048576	21	4934
2026-01-24 12:06:26.73	269.12	22.37	-30.5	-33.6	13.3	1.06e-05	0	43	102	1048576	21	5127
2026-01-24 12:06:27.73	269.39	22.38	-30.5	-33.6	13.3	2.36e-05	0	43	102	1048576	21	5141
2026-01-24 12:06:28.73	269.66	22.38	-30.7	-34.0	13.0	2.82e-05	0	43	102	1048576	21	5288
2026-01-24 12:06:29.74	269.93	22.39	-30.6	-33.9	13.1	4.65e-05	0	43	102	1048576	21	5237
2026-01-24 12:06:30.74	270.20	22.40	-30.6	-33.9	13.1	3.05e-05	0	43	102	1048576	21	5231
2026-01-24 12:06:31.75	270.48	22.40	-30.5	-33.6	13.3	2.97e-05	0	43	102	1048576	21	5133
2026-01-24 12:06:32.75	270.75	22.41	-30.4	-33.3	13.5	1.75e-05	0	43	102	1048576	21	5031
2026-01-24 12:06:33.76	271.02	22.41	-30.3	-33.1	13.6	1.14e-05	0	43	102	1048576	21	4936
2026-01-24 12:06:34.77	271.29	22.42	-30.4	-33.2	13.5	7.60e-06	0	43	102	1048576	21	4971
2026-01-24 12:06:35.77	271.56	22.42	-30.2	-32.6	13.9	3.80e-06	0	43	102	1048576	21	4760
2026-01-24 12:06:36.78	271.84	22.42	-30.0	-32.2	14.2	7.00e-07	0	43	102	1048576	21	4637
2026-01-24 12:06:37.78	272.11	22.42	-29.9	-31.9	14.3	0.00e+00	0	43	102	1048576	21	4551
2026-01-24 12:06:38.79	272.38	22.42	-30.2	-32.6	14.0	0.00e+00	0	43	102	1048576	21	4775
2026-01-24 12:06:39.79	272.65	22.42	-30.2	-32.8	13.8	4.50e-06	0	43	102	1048576	21	4849
2026-01-24 12:06:40.80	272.92	22.42	-30.3	-33.1	13.6	5.30e-06	0	43	102	1048576	21	4932
2026-01-24 12:06:41.80	273.19	22.42	-30.3	-33.0	13.6	7.60e-06	0	43	102	1048576	21	4916
2026-01-24 12:06:42.80	273.46	22.42	-30.3	-33.0	13.7	3.80e-06	0	43	102	1048576	21	4901
2026-01-24 12:06:43.79	273.73	22.42	-30.4	-33.3	13.4	5.30e-06	0	43	102	1048576	21	5012
2026-01-24 12:06:44.79	274.00	22.42	-30.2	-32.8	13.8	6.10e-06	0	43	102	1048576	21	4841
2026-01-24 12:06:45.79	274.27	22.41	-30.0	-32.2	14.2	5.30e-06	0	43	102	1048576	21	4650
2026-01-24 12:06:46.80	274.54	22.41	-30.0	-32.1	14.3	1.50e-06	0	43	102	1048576	21	4605
2026-01-24 12:06:47.80	274.81	22.40	-29.9	-31.9	14.4	1.50e-06	0	43	102	1048576	21	4551
2026-01-24 12:06:48.81	275.09	22.40	-30.0	-32.1	14.3	7.00e-07	0	43	102	1048576	21	4609
2026-01-24 12:06:49.82	275.36	22.39	-29.9	-31.9	14.4	3.00e-06	0	43	102	1048576	21	4539
2026-01-24 12:06:50.82	275.63	22.38	-30.0	-32.2	14.2	0.00e+00	0	43	102	1048576	21	4642
2026-01-24 12:06:51.81	275.90	22.38	-30.2	-32.7	13.9	3.00e-06	0	43	102	1048576	21	4792
2026-01-24 12:06:52.82	276.17	22.37	-30.4	-33.2	13.5	6.10e-06	0	43	102	1048576	21	4985
2026-01-24 12:06:53.83	276.44	22.36	-30.5	-33.5	13.3	1.37e-05	0	43	102	1048576	21	5090
2026-01-24 12:06:54.83	276.71	22.35	-30.5	-33.6	13.2	2.13e-05	0	43	102	1048576	21	5142
2026-01-24 12:06:55.83	276.98	22.34	-30.6	-33.8	13.1	2.82e-05	0	43	102	1048576	21	5192
2026-01-24 12:06:56.83	277.25	22.33	-30.6	-33.8	13.2	2.74e-05	0	43	102	1048576	21	5198
2026-01-24 12:06:57.84	277.52	22.32	-30.6	-33.7	13.2	2.36e-05	0	43	102	1048576	21	5186
2026-01-24 12:06:58.84	277.79	22.31	-30.6	-33.9	13.1	2.82e-05	0	43	102	1048576	21	5266
2026-01-24 12:06:59.85	278.06	22.29	-30.6	-33.8	13.2	3.12e-05	0	43	102	1048576	21	5203
2026-01-24 12:07:00.85	278.33	22.28	-30.5	-33.6	13.3	1.83e-05	0	43	102	1048576	21	5125
2026-01-24 12:07:01.85	278.59	22.27	-30.6	-33.9	13.1	2.21e-05	0	43	102	1048576	21	5227
2026-01-24 12:07:02.85	278.86	22.25	-30.4	-33.2	13.6	1.60e-05	0	43	102	1048576	21	4978
2026-01-24 12:07:03.85	279.13	22.24	-30.3	-33.0	13.7	9.90e-06	0	43	102	1048576	21	4902
2026-01-24 12:07:04.86	279.40	22.22	-30.2	-32.8	13.8	6.80e-06	0	43	102	1048576	21	4839
2026-01-24 12:07:05.86	279.66	22.21	-30.4	-33.1	13.6	6.80e-06	0	43	102	1048576	21	4958
2026-01-24 12:07:06.87	279.93	22.19	-30.3	-33.0	13.7	7.60e-06	0	43	102	1048576	21	4905
2026-01-24 12:07:07.87	280.20	22.17	-30.2	-32.7	13.9	3.00e-06	0	43	102	1048576	21	4813
2026-01-24 12:07:08.87	280.47	22.15	-30.3	-33.1	13.6	6.10e-06	0	43	102	1048576	21	4935
2026-01-24 12:07:09.88	280.73	22.13	-30.5	-33.7	13.3	1.14e-05	0	43	102	1048576	21	5164
2026-01-24 12:07:10.88	281.00	22.12	-30.7	-34.0	13.0	2.97e-05	0	43	102	1048576	21	5309
2026-01-24 12:07:11.88	281.26	22.10	-30.6	-33.9	13.1	3.89e-05	0	43	102	1048576	21	5234
2026-01-24 12:07:12.88	281.53	22.07	-30.5	-33.7	13.2	2.82e-05	0	43	102	1048576	21	5167
2026-01-24 12:07:13.89	281.79	22.05	-30.5	-33.6	13.3	1.98e-05	0	43	102	1048576	21	5131
2026-01-24 12:07:14.89	282.06	22.03	-30.6	-33.8	13.2	2.05e-05	0	43	102	1048576	21	5196
2026-01-24 12:07:15.89	282.32	22.01	-30.4	-33.3	13.5	2.21e-05	0	43	102	1048576	21	5035
2026-01-24 12:07:16.88	282.58	21.99	-30.5	-33.6	13.3	1.37e-05	0	43	102	1048576	21	5139
2026-01-24 12:07:17.89	282.85	21.96	-30.4	-33.2	13.6	1.83e-05	0	43	102	1048576	21	4966
2026-01-24 12:07:18.89	283.11	21.94	-30.4	-33.2	13.5	8.30e-06	0	43	102	1048576	21	4997
2026-01-24 12:07:19.89	283.37	21.91	-30.3	-32.9	13.7	8.30e-06	0	43	102	1048576	21	4887
2026-01-24 12:07:20.90	283.64	21.89	-30.3	-33.0	13.7	6.10e-06	0	43	102	1048576	21	4918
2026-01-24 12:07:21.90	283.90	21.86	-30.4	-33.2	13.5	3.80e-06	0	43	102	1048576	21	4999
2026-01-24 12:07:22.91	284.16	21.84	-30.6	-33.8	13.2	1.06e-05	0	43	102	1048576	21	5209
2026-01-24 12:07:23.92	284.42	21.81	-30.5	-33.7	13.3	1.52e-05	0	43	102	1048576	21	5150
2026-01-24 12:07:24.92	284.68	21.78	-30.7	-34.1	13.0	1.98e-05	0	43	102	1048576	21	5307
2026-01-24 12:07:25.92	284.94	21.75	-30.6	-33.7	13.2	2.44e-05	0	43	102	1048576	21	5173
2026-01-24 12:07:26.92	285.20	21.73	-30.5	-33.4	13.4	1.60e-05	0	43	102	1048576	21	5059
2026-01-24 12:07:27.92	285.46	21.70	-30.4	-33.1	13.6	9.90e-06	0	43	102	1048576	21	4954
2026-01-24 12:07:28.93	285.72	21.67	-30.4	-33.2	13.6	7.60e-06	0	43	102	1048576	21	4964
2026-01-24 12:07:29.93	285.98	21.64	-30.3	-32.9	13.8	6.80e-06	0	43	102	1048576	21	4871
2026-01-24 12:07:30.94	286.23	21.60	-30.4	-33.1	13.6	9.90e-06	0	43	102	1048576	21	4958
2026-01-24 12:07:31.95	286.49	21.57	-30.2	-32.7	13.9	8.30e-06	0	43	102	1048576	21	4787
2026-01-24 12:07:32.95	286.75	21.54	-30.1	-32.4	14.1	3.80e-06	0	43	102	1048576	21	4684
2026-01-24 12:07:33.96	287.01	21.51	-30.1	-32.4	14.1	1.50e-06	0	43	102	1048576	21	4702
2026-01-24 12:07:34.96	287.26	21.48	-30.2	-32.8	13.9	7.00e-07	0	43	102	1048576	21	4834
2026-01-24 12:07:35.97	287.52	21.44	-30.2	-32.7	13.9	6.80e-06	0	43	102	1048576	21	4807
2026-01-24 12:07:36.98	287.77	21.41	-30.3	-33.1	13.6	3.80e-06	0	43	102	1048576	21	4929
2026-01-24 12:07:37.98	288.03	21.37	-30.3	-33.0	13.7	8.30e-06	0	43	102	1048576	21	4922
2026-01-24 12:07:38.99	288.28	21.34	-30.1	-32.4	14.1	3.00e-06	0	43	102	1048576	21	4688
2026-01-24 12:07:39.99	288.53	21.30	-30.0	-32.1	14.3	3.80e-06	0	43	102	1048576	21	4584
2026-01-24 12:07:40.99	288.78	21.27	-30.0	-32.1	14.3	1.50e-06	0	43	102	1048576	21	4590
2026-01-24 12:07:42.00	289.04	21.23	-30.1	-32.5	14.0	7.00e-07	0	43	102	1048576	21	4737
2026-01-24 12:07:43.01	289.29	21.19	-29.9	-31.9	14.4	7.00e-07	0	43	102	1048576	21	4552
2026-01-24 12:07:44.01	289.54	21.15	-29.8	-31.8	14.5	0.00e+00	0	43	102	1048576	21	4494
2026-01-24 12:07:45.01	289.79	21.12	-29.9	-31.9	14.4	0.00e+00	0	43	102	1048576	21	4535
2026-01-24 12:07:46.01	290.04	21.08	-29.6	-31.6	14.9	0.00e+00	0	43	102	1048576	20	4543
2026-01-24 12:07:47.01	290.28	21.04	-29.4	-31.1	15.2	0.00e+00	0	43	102	1048576	20	4396
2026-01-24 12:07:48.02	290.53	21.00	-29.3	-31.4	15.4	0.00e+00	0	43	102	1048576	19	4586
2026-01-24 12:07:49.02	290.78	20.96	-29.6	-32.0	15.0	0.00e+00	0	43	102	1048576	19	4778
2026-01-24 12:07:50.03	291.03	20.92	-30.0	-33.1	14.3	0.00e+00	0	43	102	1048576	19	5169
2026-01-24 12:07:51.04	291.28	20.88	-29.9	-32.4	14.4	7.00e-07	0	43	102	1048576	20	4796
2026-01-24 12:07:52.04	291.52	20.84	-29.8	-32.3	14.5	1.50e-06	0	43	102	1048576	20	4770
2026-01-24 12:07:53.04	291.76	20.79	-29.8	-32.2	14.5	1.50e-06	0	43	102	1048576	20	4735
2026-01-24 12:07:54.05	292.01	20.75	-29.8	-32.2	14.5	7.00e-07	0	43	102	1048576	20	4750
2026-01-24 12:07:55.05	292.25	20.71	-30.0	-32.7	14.2	0.00e+00	0	43	102	1048576	20	4899
2026-01-24 12:07:56.06	292.50	20.67	-29.9	-32.4	14.4	0.00e+00	0	43	102	1048576	20	4815
2026-01-24 12:07:57.06	292.74	20.62	-29.8	-32.3	14.4	7.00e-07	0	43	102	1048576	20	4790
2026-01-24 12:07:58.07	292.98	20.58	-29.8	-32.3	14.4	7.00e-07	0	43	102	1048576	20	4770
2026-01-24 12:07:59.07	293.22	20.53	-29.7	-32.0	14.6	0.00e+00	0	43	102	1048576	20	4667
2026-01-24 12:08:00.08	293.46	20.49	-29.6	-31.6	14.8	0.00e+00	0	43	102	1048576	20	4564
2026-01-24 12:08:01.08	293.70	20.44	-29.5	-31.5	14.9	0.00e+00	0	43	102	1048576	20	4511
2026-01-24 12:08:02.08	293.94	20.40	-29.5	-31.5	14.9	0.00e+00	0	43	102	1048576	20	4525
2026-01-24 12:08:03.08	294.17	20.35	-29.3	-31.4	15.4	0.00e+00	0	43	102	1048576	19	4591
2026-01-24 12:08:04.08	294.41	20.31	-29.5	-31.9	15.0	7.00e-07	0	43	102	1048576	19	4750
2026-01-24 12:08:05.09	294.65	20.26	-29.2	-31.2	15.4	0.00e+00	0	43	102	1048576	19	4522
2026-01-24 12:08:06.09	294.88	20.21	-29.1	-30.8	15.7	0.00e+00	0	43	102	1048576	19	4413
2026-01-24 12:08:07.09	295.12	20.16	-29.1	-30.8	15.7	0.00e+00	0	43	102	1048576	19	4386
2026-01-24 12:08:08.09	295.35	20.12	-29.2	-31.1	15.6	0.00e+00	0	43	102	1048576	19	4473
2026-01-24 12:08:09.09	295.58	20.07	-29.1	-31.0	15.6	0.00e+00	0	43	102	1048576	19	4454
2026-01-24 12:08:10.09	295.82	20.02	-29.3	-31.4	15.3	0.00e+00	0	43	102	1048576	19	4595
2026-01-24 12:08:11.10	296.05	19.97	-29.2	-31.2	15.4	0.00e+00	0	43	102	1048576	19	4522
2026-01-24 12:08:12.11	296.28	19.92	-29.2	-31.1	15.5	0.00e+00	0	43	102	1048576	19	4488
2026-01-24 12:08:13.12	296.52	19.87	-29.3	-31.4	15.3	1.50e-06	0	43	102	1048576	19	4592
2026-01-24 12:08:14.12	296.74	19.82	-29.5	-31.8	15.1	0.00e+00	0	43	102	1048576	19	4722
2026-01-24 12:08:15.12	296.97	19.77	-29.6	-32.2	14.8	0.00e+00	0	43	102	1048576	19	4853
2026-01-24 12:08:16.13	297.20	19.72	-29.7	-32.4	14.7	0.00e+00	0	43	102	1048576	19	4924
2026-01-24 12:08:17.13	297.43	19.67	-29.7	-32.5	14.7	0.00e+00	0	43	102	1048576	19	4948
2026-01-24 12:08:18.13	297.66	19.62	-29.8	-32.7	14.6	7.00e-07	0	43	102	1048576	19	5010
2026-01-24 12:08:19.13	297.88	19.56	-29.9	-32.9	14.4	1.50e-06	0	43	102	1048576	19	5089
2026-01-24 12:08:20.14	298.11	19.51	-29.7	-32.4	14.7	0.00e+00	0	43	102	1048576	19	4899
2026-01-24 12:08:21.14	298.33	19.46	-29.5	-31.9	15.0	0.00e+00	0	43	102	1048576	19	4759
2026-01-24 12:08:22.15	298.56	19.41	-29.5	-31.9	15.0	0.00e+00	0	43	102	1048576	19	4733
2026-01-24 12:08:23.15	298.78	19.35	-29.6	-32.0	15.0	0.00e+00	0	44	102	1048576	19	4785
2026-01-24 12:08:24.16	299.00	19.30	-29.5	-31.8	15.1	0.00e+00	0	43	102	1048576	19	4723
2026-01-24 12:08:25.16	299.22	19.25	-29.4	-31.8	15.1	0.00e+00	0	43	102	1048576	19	4704
2026-01-24 12:08:26.18	299.45	19.19	-29.4	-31.7	15.2	0.00e+00	0	43	102	1048576	19	4668
2026-01-24 12:08:27.18	299.67	19.14	-29.5	-31.8	15.1	7.00e-07	0	43	102	1048576	19	4706
2026-01-24 12:08:28.19	299.89	19.08	-29.7	-32.3	14.8	0.00e+00	0	43	102	1048576	19	4865
2026-01-24 12:08:29.19	300.11	19.03	-29.8	-32.6	14.6	0.00e+00	0	43	102	1048576	19	4983
2026-01-24 12:08:30.19	300.32	18.97	-30.0	-32.6	14.2	0.00e+00	0	43	102	1048576	20	4894
2026-01-24 12:08:31.19	300.54	18.92	-30.1	-33.0	13.9	7.00e-07	0	43	102	1048576	20	5027
2026-01-24 12:08:32.19	300.75	18.86	-30.2	-33.3	13.7	3.00e-06	0	43	102	1048576	20	5153
2026-01-24 12:08:33.20	300.97	18.80	-30.3	-33.5	13.6	3.00e-06	0	43	102	1048576	20	5200
2026-01-24 12:08:34.21	301.19	18.75	-30.3	-33.7	13.5	1.14e-05	0	43	102	1048576	20	5272
2026-01-24 12:08:35.21	301.40	18.69	-30.3	-33.6	13.5	1.52e-05	0	43	102	1048576	20	5258
2026-01-24 12:08:36.22	301.61	18.63	-30.4	-33.7	13.5	1.06e-05	0	43	102	1048576	20	5303
2026-01-24 12:08:37.23	301.83	18.58	-30.5	-34.0	13.3	2.21e-05	0	43	102	1048576	20	5405
2026-01-24 12:08:38.22	302.04	18.52	-30.4	-33.9	13.3	1.83e-05	0	43	102	1048576	20	5384
2026-01-24 12:08:39.22	302.25	18.46	-30.5	-33.7	13.1	1.67e-05	0	43	102	1048576	21	5170
2026-01-24 12:08:40.23	302.46	18.40	-30.6	-33.8	13.0	4.27e-05	0	43	102	1048576	21	5225
2026-01-24 12:08:41.23	302.67	18.35	-30.4	-33.4	13.3	2.44e-05	0	43	102	1048576	21	5083
2026-01-24 12:08:42.23	302.87	18.29	-30.2	-32.9	13.7	9.10e-06	0	43	102	1048576	21	4869
2026-01-24 12:08:43.23	303.08	18.23	-30.2	-32.9	13.7	8.30e-06	0	43	102	1048576	21	4868
2026-01-24 12:08:44.24	303.29	18.17	-30.2	-32.9	13.7	5.30e-06	0	43	102	1048576	21	4869
2026-01-24 12:08:45.25	303.50	18.11	-30.2	-32.7	13.8	3.00e-06	0	43	102	1048576	21	4824
2026-01-24 12:08:46.25	303.70	18.05	-30.1	-32.6	13.8	2.20e-06	0	43	102	1048576	21	4778
2026-01-24 12:08:47.25	303.90	17.99	-30.2	-32.7	13.8	3.80e-06	0	43	102	1048576	21	4796
2026-01-24 12:08:48.26	304.11	17.93	-30.2	-32.7	13.7	3.00e-06	0	43	102	1048576	21	4833
2026-01-24 12:08:49.26	304.31	17.87	-30.2	-32.9	13.6	9.90e-06	0	43	102	1048576	21	4890
2026-01-24 12:08:50.26	304.51	17.81	-30.3	-33.0	13.5	4.50e-06	0	43	102	1048576	21	4928
2026-01-24 12:08:51.27	304.72	17.75	-30.4	-33.3	13.3	1.67e-05	0	43	102	1048576	21	5031
2026-01-24 12:08:52.27	304.92	17.69	-30.5	-33.5	13.2	2.13e-05	0	43	102	1048576	21	5129
2026-01-24 12:08:53.27	305.11	17.63	-30.4	-33.5	13.2	2.28e-05	0	43	102	1048576	21	5102
2026-01-24 12:08:54.27	305.31	17.57	-30.5	-33.6	13.1	1.22e-05	0	43	102	1048576	21	5134
2026-01-24 12:08:55.28	305.51	17.51	-30.5	-33.6	13.1	3.96e-05	0	43	102	1048576	21	5166
2026-01-24 12:08:56.29	305.71	17.45	-30.5	-33.7	13.1	3.05e-05	0	43	102	1048576	21	5168
2026-01-24 12:08:57.30	305.91	17.39	-30.5	-33.6	13.1	2.82e-05	0	43	102	1048576	21	5168
2026-01-24 12:08:58.30	306.10	17.33	-30.6	-33.9	12.9	4.65e-05	0	44	102	1048576	21	5260
2026-01-24 12:08:59.31	306.30	17.27	-30.5	-33.6	13.1	3.66e-05	0	43	102	1048576	21	5155
2026-01-24 12:09:00.31	306.49	17.20	-30.4	-33.4	13.2	1.37e-05	0	43	102	1048576	21	5087
2026-01-24 12:09:01.32	306.69	17.14	-30.4	-33.5	13.2	2.05e-05	0	43	102	1048576	21	5096
2026-01-24 12:09:02.32	306.88	17.08	-30.3	-33.0	13.6	1.60e-05	0	43	102	1048576	21	4912
2026-01-24 12:09:03.33	307.07	17.02	-30.2	-32.8	13.7	4.50e-06	0	43	102	1048576	21	4852
2026-01-24 12:09:04.33	307.26	16.96	-30.2	-32.8	13.6	6.10e-06	0	43	102	1048576	21	4856
2026-01-24 12:09:05.34	307.46	16.89	-30.3	-33.0	13.5	6.10e-06	0	43	102	1048576	21	4922
2026-01-24 12:09:06.34	307.64	16.83	-30.2	-32.9	13.6	6.80e-06	0	43	102	1048576	21	4880
2026-01-24 12:09:07.35	307.83	16.77	-30.4	-33.2	13.3	1.29e-05	0	43	102	1048576	21	5018
2026-01-24 12:09:08.35	308.02	16.71	-30.4	-33.5	13.2	2.67e-05	0	43	102	1048576	21	5102
2026-01-24 12:09:09.35	308.21	16.64	-30.3	-33.0	13.5	1.52e-05	0	43	102	1048576	21	4919
2026-01-24 12:09:10.35	308.39	16.58	-30.2	-32.8	13.6	1.06e-05	0	43	102	1048576	21	4872
2026-01-24 12:09:11.36	308.58	16.52	-30.2	-32.7	13.7	7.60e-06	0	43	102	1048576	21	4833
2026-01-24 12:09:12.37	308.77	16.45	-30.2	-32.8	13.6	6.80e-06	0	43	102	1048576	21	4873
2026-01-24 12:09:13.37	308.95	16.39	-30.4	-33.3	13.3	1.67e-05	0	43	102	1048576	21	5028
2026-01-24 12:09:14.37	309.13	16.33	-30.4	-33.5	13.2	1.29e-05	0	43	102	1048576	21	5100
2026-01-24 12:09:15.37	309.32	16.26	-30.6	-34.0	12.8	5.34e-05	0	43	102	1048576	21	5308
2026-01-24 12:09:16.38	309.50	16.20	-30.7	-34.2	12.7	5.18e-05	0	44	102	1048576	21	5382
2026-01-24 12:09:17.39	309.68	16.13	-30.7	-34.3	12.6	8.46e-05	0	43	102	1048576	21	5415
2026-01-24 12:09:18.40	309.86	16.07	-30.5	-33.7	13.0	7.01e-05	0	43	102	1048576	21	5208
2026-01-24 12:09:19.40	310.04	16.01	-30.4	-33.4	13.2	3.66e-05	0	43	102	1048576	21	5087
2026-01-24 12:09:20.40	310.22	15.94	-30.4	-33.3	13.2	1.67e-05	0	43	102	1048576	21	5055
2026-01-24 12:09:21.40	310.40	15.88	-30.3	-33.2	13.3	2.13e-05	0	43	102	1048576	21	5006
2026-01-24 12:09:22.40	310.58	15.81	-30.2	-32.9	13.6	9.90e-06	0	43	102	1048576	21	4901
2026-01-24 12:09:23.41	310.75	15.75	-30.3	-33.1	13.4	9.10e-06	0	43	102	1048576	21	4974
2026-01-24 12:09:24.41	310.93	15.69	-30.4	-33.3	13.3	1.75e-05	0	43	102	1048576	21	5054
2026-01-24 12:09:25.42	311.11	15.62	-30.5	-33.5	13.1	1.52e-05	0	43	102	1048576	21	5131
2026-01-24 12:09:26.42	311.28	15.56	-30.4	-33.5	13.2	4.19e-05	0	43	102	1048576	21	5104
2026-01-24 12:09:27.42	311.45	15.49	-30.4	-33.3	13.3	2.44e-05	0	43	102	1048576	21	5044
2026-01-24 12:09:28.43	311.63	15.43	-30.3	-33.2	13.4	2.05e-05	0	43	102	1048576	21	4988
2026-01-24 12:09:29.42	311.80	15.36	-30.2	-33.0	13.5	1.60e-05	0	43	102	1048576	21	4925
2026-01-24 12:09:30.42	311.97	15.30	-30.2	-32.8	13.6	7.60e-06	0	43	102	1048576	21	4860
2026-01-24 12:09:31.43	312.14	15.23	-30.1	-32.7	13.6	9.10e-06	0	43	102	1048576	21	4819
2026-01-24 12:09:32.43	312.31	15.17	-30.3	-33.2	13.3	1.06e-05	0	43	102	1048576	21	5013
2026-01-24 12:09:33.43	312.48	15.10	-30.5	-33.6	13.1	2.36e-05	0	43	102	1048576	21	5146
2026-01-24 12:09:34.44	312.65	15.04	-30.5	-33.6	13.0	1.98e-05	0	43	102	1048576	21	5170
2026-01-24 12:09:35.45	312.82	14.97	-30.7	-34.2	12.6	6.79e-05	0	43	102	1048576	21	5408
2026-01-24 12:09:36.45	312.98	14.91	-30.7	-34.3	12.6	9.00e-05	0	43	102	1048576	21	5430
2026-01-24 12:09:37.46	313.15	14.84	-30.7	-34.4	12.5	1.08e-04	0	44	102	1048576	21	5493
2026-01-24 12:09:38.46	313.32	14.78	-30.8	-34.5	12.5	1.67e-04	0	43	102	1048576	21	5518
2026-01-24 12:09:39.47	313.48	14.71	-30.6	-34.0	12.8	1.03e-04	0	43	102	1048576	21	5311
2026-01-24 12:09:40.47	313.65	14.64	-30.5	-33.7	13.0	5.03e-05	0	43	102	1048576	21	5213
2026-01-24 12:09:41.47	313.81	14.58	-30.5	-33.6	13.0	3.12e-05	0	43	102	1048576	21	5168
2026-01-24 12:09:42.47	313.97	14.51	-30.4	-33.5	13.1	3.50e-05	0	43	102	1048576	21	5125
2026-01-24 12:09:43.48	314.14	14.45	-30.5	-33.8	12.9	2.74e-05	0	43	102	1048576	21	5249
2026-01-24 12:09:44.48	314.30	14.38	-30.6	-34.1	12.7	1.12e-04	0	43	102	1048576	21	5375
2026-01-24 12:09:45.48	314.46	14.32	-30.5	-33.8	12.8	6.33e-05	0	43	102	1048576	21	5262
2026-01-24 12:09:46.48	314.62	14.25	-30.4	-33.5	13.0	3.96e-05	0	43	102	1048576	21	5138
2026-01-24 12:09:47.48	314.78	14.19	-30.4	-33.5	13.1	2.67e-05	0	43	102	1048576	21	5138
2026-01-24 12:09:48.49	314.94	14.12	-30.4	-33.4	13.1	2.44e-05	0	43	102	1048576	21	5103
2026-01-24 12:09:49.49	315.09	14.06	-30.3	-33.3	13.2	3.28e-05	0	43	102	1048576	21	5048
2026-01-24 12:09:50.49	315.25	13.99	-30.3	-33.2	13.3	2.36e-05	0	43	102	1048576	21	5001
2026-01-24 12:09:51.50	315.41	13.92	-30.2	-32.8	13.5	7.60e-06	0	43	102	1048576	21	4871
2026-01-24 12:09:52.50	315.56	13.86	-30.1	-32.6	13.6	5.30e-06	0	43	102	1048576	21	4811
2026-01-24 12:09:53.50	315.72	13.79	-30.2	-33.0	13.4	9.90e-06	0	43	102	1048576	21	4937
2026-01-24 12:09:54.51	315.87	13.73	-30.2	-32.8	13.5	1.52e-05	0	43	102	1048576	21	4866
2026-01-24 12:09:55.51	316.03	13.66	-30.1	-32.7	13.6	9.10e-06	0	43	102	1048576	21	4817
2026-01-24 12:09:56.52	316.18	13.60	-30.2	-32.9	13.4	4.50e-06	0	43	102	1048576	21	4913
2026-01-24 12:09:57.52	316.34	13.53	-30.4	-33.5	13.1	2.97e-05	0	43	102	1048576	21	5115
2026-01-24 12:09:58.52	316.49	13.46	-30.6	-33.9	12.8	7.17e-05	0	43	102	1048576	21	5286
2026-01-24 12:09:59.53	316.64	13.40	-30.7	-34.2	12.6	9.46e-05	0	43	102	1048576	21	5419
2026-01-24 12:10:00.53	316.79	13.33	-30.7	-34.4	12.4	1.06e-04	0	43	102	1048576	21	5474
2026-01-24 12:10:01.54	316.94	13.27	-30.8	-34.6	12.3	1.49e-04	0	43	102	1048576	21	5575
2026-01-24 12:10:02.54	317.09	13.20	-30.8	-34.6	12.3	1.67e-04	0	43	102	1048576	21	5569
2026-01-24 12:10:03.55	317.24	13.13	-30.9	-34.9	12.0	1.87e-04	0	43	102	1048576	21	5710
2026-01-24 12:10:04.55	317.39	13.07	-30.8	-34.6	12.2	2.73e-04	0	43	102	1048576	21	5584
2026-01-24 12:10:05.56	317.54	13.00	-30.6	-34.1	12.5	1.38e-04	0	43	102	1048576	21	5394
2026-01-24 12:10:06.57	317.68	12.94	-30.6	-33.9	12.7	1.22e-04	0	43	102	1048576	21	5306
2026-01-24 12:10:07.57	317.83	12.87	-30.5	-33.9	12.7	7.24e-05	0	43	102	1048576	21	5280
2026-01-24 12:10:08.57	317.98	12.81	-30.7	-34.4	12.3	1.22e-04	0	43	102	1048576	21	5521
2026-01-24 12:10:09.57	318.12	12.74	-30.8	-34.5	12.3	2.14e-04	0	44	102	1048576	21	5539
2026-01-24 12:10:10.58	318.27	12.67	-30.7	-34.4	12.4	1.86e-04	0	43	102	1048576	21	5499
2026-01-24 12:10:11.58	318.41	12.61	-30.7	-34.5	12.3	1.58e-04	0	43	102	1048576	21	5542
2026-01-24 12:10:12.58	318.55	12.54	-30.7	-34.4	12.4	2.03e-04	0	43	102	1048576	21	5494
2026-01-24 12:10:13.59	318.70	12.48	-30.7	-34.3	12.4	1.14e-04	0	43	102	1048576	21	5452
2026-01-24 12:10:14.60	318.84	12.41	-30.6	-34.2	12.5	1.33e-04	0	43	102	1048576	21	5410
2026-01-24 12:10:15.60	318.98	12.35	-30.6	-34.1	12.5	9.46e-05	0	43	102	1048576	21	5385
2026-01-24 12:10:16.60	319.12	12.28	-30.5	-33.7	12.8	1.20e-04	0	43	102	1048576	21	5213
2026-01-24 12:10:17.61	319.26	12.21	-30.4	-33.4	13.1	3.35e-05	0	44	102	1048576	21	5079
2026-01-24 12:10:18.61	319.40	12.15	-30.2	-33.1	13.2	2.67e-05	0	43	102	1048576	21	4978
2026-01-24 12:10:19.61	319.54	12.08	-30.3	-33.2	13.2	1.98e-05	0	43	102	1048576	21	5025
2026-01-24 12:10:20.61	319.68	12.02	-30.3	-33.3	13.1	1.60e-05	0	43	102	1048576	21	5064
2026-01-24 12:10:21.62	319.82	11.95	-30.5	-33.8	12.7	4.65e-05	0	43	102	1048576	21	5266
2026-01-24 12:10:22.62	319.95	11.89	-30.6	-34.2	12.5	9.68e-05	0	43	102	1048576	21	5422
2026-01-24 12:10:23.63	320.09	11.82	-30.8	-34.6	12.2	1.69e-04	0	43	102	1048576	21	5574
2026-01-24 12:10:24.63	320.23	11.76	-30.8	-34.8	12.0	2.78e-04	0	43	102	1048576	21	5668
2026-01-24 12:10:25.64	320.36	11.69	-30.9	-35.0	11.9	3.06e-04	0	43	102	1048576	21	5757
2026-01-24 12:10:26.65	320.50	11.63	-30.9	-35.1	11.8	5.52e-04	0	43	102	1048576	21	5820
2026-01-24 12:10:27.66	320.63	11.56	-30.8	-34.8	12.0	4.31e-04	0	43	102	1048576	21	5683
2026-01-24 12:10:28.66	320.77	11.49	-30.9	-35.0	11.9	3.04e-04	0	43	102	1048576	21	5765
2026-01-24 12:10:29.67	320.90	11.43	-30.8	-34.8	12.0	4.29e-04	0	43	102	1048576	21	5676
2026-01-24 12:10:30.68	321.03	11.36	-30.7	-34.5	12.2	2.47e-04	0	43	102	1048576	21	5562
2026-01-24 12:10:31.68	321.17	11.30	-30.6	-34.2	12.4	1.42e-04	0	43	102	1048576	21	5426
2026-01-24 12:10:32.69	321.30	11.23	-30.7	-34.4	12.3	1.80e-04	0	43	102	1048576	21	5525
2026-01-24 12:10:33.69	321.43	11.17	-30.7	-34.4	12.3	2.12e-04	0	43	102	1048576	21	5523
2026-01-24 12:10:34.69	321.56	11.10	-30.7	-34.5	12.2	1.89e-04	0	43	102	1048576	21	5550
2026-01-24 12:10:35.69	321.69	11.04	-30.7	-34.5	12.1	3.19e-04	0	43	102	1048576	21	5583
2026-01-24 12:10:36.69	321.82	10.97	-30.9	-34.9	11.9	2.41e-04	0	43	102	1048576	21	5756
2026-01-24 12:10:37.69	321.94	10.91	-30.8	-34.8	12.0	3.44e-04	0	43	102	1048576	21	5670
2026-01-24 12:10:38.69	322.07	10.85	-30.7	-34.5	12.1	2.72e-04	0	43	102	1048576	21	5562
2026-01-24 12:10:39.69	322.20	10.78	-30.7	-34.5	12.1	2.10e-04	0	43	102	1048576	21	5581
2026-01-24 12:10:40.69	322.33	10.72	-30.7	-34.5	12.1	2.91e-04	0	43	102	1048576	21	5570
2026-01-24 12:10:41.70	322.45	10.65	-30.6	-34.1	12.4	1.82e-04	0	43	102	1048576	21	5417
2026-01-24 12:10:42.70	322.58	10.59	-30.7	-34.4	12.2	1.46e-04	0	43	102	1048576	21	5524
2026-01-24 12:10:43.70	322.70	10.52	-30.6	-34.1	12.4	2.04e-04	0	43	102	1048576	21	5416
2026-01-24 12:10:44.71	322.83	10.46	-30.7	-34.6	12.1	2.44e-04	0	43	102	1048576	21	5593
2026-01-24 12:10:45.71	322.95	10.39	-30.5	-34.0	12.5	1.85e-04	0	43	102	1048576	21	5337
2026-01-24 12:10:46.72	323.08	10.33	-30.8	-34.6	12.0	2.19e-04	0	43	102	1048576	21	5619
2026-01-24 12:10:47.72	323.20	10.27	-30.8	-34.8	11.9	4.06e-04	0	43	102	1048576	21	5723
2026-01-24 12:10:48.73	323.32	10.20	-30.9	-35.1	11.7	4.07e-04	0	43	102	1048576	21	5841
2026-01-24 12:10:49.74	323.45	10.14	-31.0	-35.3	11.5	7.78e-04	0	43	102	1048576	21	5948
2026-01-24 12:10:50.75	323.57	10.07	-31.1	-35.2	11.3	1.18e-03	0	43	102	1048576	22	5766
2026-01-24 12:10:51.75	323.69	10.01	-31.2	-35.6	10.9	1.49e-03	0	43	102	1048576	22	5978
2026-01-24 12:10:52.75	323.81	9.94	-31.2	-35.4	11.0	2.17e-03	0	43	102	1048576	22	5889
2026-01-24 12:10:53.75	323.93	9.88	-31.2	-35.4	11.1	1.54e-03	0	43	102	1048576	22	5878
2026-01-24 12:10:54.76	324.05	9.82	-31.1	-35.1	11.3	1.15e-03	0	43	102	1048576	22	5750
2026-01-24 12:10:55.76	324.17	9.75	-31.1	-35.2	11.2	1.32e-03	0	43	102	1048576	22	5789
2026-01-24 12:10:56.77	324.29	9.69	-31.1	-35.1	11.3	1.12e-03	0	43	102	1048576	22	5711
2026-01-24 12:10:57.78	324.41	9.62	-31.1	-35.1	11.3	1.23e-03	0	43	102	1048576	22	5719
2026-01-24 12:10:58.78	324.53	9.56	-31.2	-35.5	11.0	1.48e-03	0	43	102	1048576	22	5923
2026-01-24 12:10:59.79	324.64	9.50	-31.0	-34.9	11.4	1.61e-03	0	43	102	1048576	22	5634
2026-01-24 12:11:00.80	324.76	9.43	-30.8	-34.4	11.8	5.29e-04	0	43	102	1048576	22	5435
2026-01-24 12:11:01.81	324.88	9.37	-30.8	-34.4	11.8	4.42e-04	0	43	102	1048576	22	5407
2026-01-24 12:11:02.81	324.99	9.31	-30.8	-34.4	11.8	4.95e-04	0	43	102	1048576	22	5437
2026-01-24 12:11:03.82	325.11	9.24	-30.8	-34.4	11.7	5.19e-04	0	43	102	1048576	22	5449
2026-01-24 12:11:04.82	325.23	9.18	-31.1	-35.1	11.2	1.04e-03	0	43	102	1048576	22	5746
2026-01-24 12:11:05.83	325.34	9.11	-31.0	-35.0	11.3	1.27e-03	0	43	102	1048576	22	5708
2026-01-24 12:11:06.83	325.45	9.05	-31.1	-35.3	11.1	1.10e-03	0	43	102	1048576	22	5827
2026-01-24 12:11:07.84	325.57	8.99	-31.1	-35.2	11.1	1.46e-03	0	43	102	1048576	22	5804
2026-01-24 12:11:08.84	325.68	8.93	-31.1	-35.4	11.0	1.74e-03	0	43	102	1048576	22	5865
2026-01-24 12:11:09.84	325.79	8.86	-31.1	-35.3	11.1	2.10e-03	0	43	102	1048576	22	5834
2026-01-24 12:11:10.84	325.90	8.80	-31.1	-35.5	11.0	1.90e-03	0	43	102	1048576	22	5914
2026-01-24 12:11:11.85	326.02	8.74	-31.1	-35.4	11.0	2.00e-03	0	43	102	1048576	22	5857
2026-01-24 12:11:12.85	326.13	8.67	-31.2	-35.5	10.9	1.91e-03	0	43	102	1048576	22	5925
2026-01-24 12:11:13.86	326.24	8.61	-31.2	-35.8	10.7	2.72e-03	0	43	102	1048576	22	6067
2026-01-24 12:11:14.87	326.35	8.55	-31.2	-35.7	10.8	3.02e-03	0	43	102	1048576	22	6035
2026-01-24 12:11:15.87	326.46	8.49	-31.3	-36.0	10.5	3.28e-03	0	43	102	1048576	22	6166
2026-01-24 12:11:16.88	326.57	8.42	-31.3	-35.9	10.5	3.83e-03	0	43	102	1048576	22	6156
2026-01-24 12:11:17.88	326.68	8.36	-31.4	-36.4	10.2	5.20e-03	0	43	102	1048576	22	6375
2026-01-24 12:11:18.89	326.79	8.30	-31.4	-36.4	10.2	6.93e-03	0	43	102	1048576	22	6409
2026-01-24 12:11:19.90	326.89	8.24	-31.6	-36.4	9.8	7.36e-03	0	43	102	1048576	23	6310
2026-01-24 12:11:20.90	327.00	8.17	-31.8	-37.3	9.1	1.92e-02	0	43	102	1048576	23	6814
2026-01-24 12:11:21.91	327.11	8.11	-31.6	-36.7	9.5	1.86e-02	0	43	102	1048576	23	6475
2026-01-24 12:11:22.91	327.22	8.05	-31.7	-37.0	9.3	1.50e-02	0	43	102	1048576	23	6654
2026-01-24 12:11:23.92	327.32	7.99	-31.7	-37.0	9.3	2.11e-02	0	43	102	1048576	23	6651
2026-01-24 12:11:24.92	327.43	7.93	-31.6	-36.7	9.5	1.37e-02	0	43	102	1048576	23	6456
2026-01-24 12:11:25.93	327.53	7.86	-31.6	-36.5	9.7	1.24e-02	0	43	102	1048576	23	6388
2026-01-24 12:11:26.93	327.64	7.80	-31.5	-36.3	9.8	1.15e-02	0	43	102	1048576	23	6240
2026-01-24 12:11:27.93	327.74	7.74	-31.4	-36.0	10.0	7.92e-03	0	43	102	1048576	23	6094
2026-01-24 12:11:28.93	327.85	7.68	-31.5	-36.3	9.8	9.16e-03	0	43	102	1048576	23	6239
2026-01-24 12:11:29.94	327.95	7.62	-31.4	-36.0	10.0	8.81e-03	0	43	102	1048576	23	6123
2026-01-24 12:11:30.95	328.06	7.55	-31.2	-35.2	10.6	3.77e-03	0	43	102	1048576	23	5702
2026-01-24 12:11:31.95	328.16	7.49	-31.2	-35.3	10.5	3.97e-03	0	43	102	1048576	23	5775
2026-01-24 12:11:32.96	328.26	7.43	-31.2	-35.3	10.5	3.65e-03	0	43	102	1048576	23	5779
2026-01-24 12:11:33.96	328.36	7.37	-31.5	-36.3	9.7	5.87e-03	0	43	102	1048576	23	6282
2026-01-24 12:11:34.97	328.46	7.31	-31.4	-36.0	9.9	1.03e-02	0	43	102	1048576	23	6125
2026-01-24 12:11:35.97	328.57	7.25	-31.3	-35.8	10.1	7.11e-03	0	43	102	1048576	23	6014
2026-01-24 12:11:36.98	328.67	7.19	-31.3	-35.6	10.2	6.08e-03	0	43	102	1048576	23	5935
2026-01-24 12:11:37.98	328.77	7.13	-31.3	-35.8	10.1	7.00e-03	0	43	102	1048576	23	6043
2026-01-24 12:11:38.99	328.87	7.06	-31.4	-35.9	10.1	6.60e-03	0	43	102	1048576	23	6045
2026-01-24 12:11:39.99	328.97	7.00	-33.6	-47.5	3.8	1.13e+00	0	43	104	1048576	27	18004

#Closed at: 2026-01-24 12:11:41
#Recorded file [1 MB]: D:/data/31010_260124_150144.dat