passes_logs/2026/01/24/R2M6_AANII_01/R2M6_AANII_01__20260124_013611_AQUA_rec.log

#Pass ID: 20260124_013611_AQUA
#Satellite: AQUA
#Configuration: AQUA
#almurnet v.1.7.20240730
#Start time: 2026-01-24 01:36:10

#Version: 2.2.20231116
#Station: R2M6_AANII_01
#Location: 30.233357 lon 59.946436 lat
#TLE: 1 27424U 02022A   26022.96978264  .00001879  00000+0  38593-3 0  9993
#TLE: 2 27424  98.4100 349.5315 0001958  69.4371  21.4765 14.61848807262053

#Time	Az	El	Level	Level2	SNR	BER	BlckErr	Temp	State	Recorded	gain1	gain2
2026-01-24 01:36:10.95	20.89	6.97	-31.4	-46.0	3.8	7.42e-01	0	41	0	0	23	19347
2026-01-24 01:36:11.95	20.93	7.05	-31.4	-46.1	3.8	7.49e-01	0	42	104	0	23	19532
2026-01-24 01:36:12.95	20.96	7.13	-31.7	-46.5	3.9	7.46e-01	0	41	104	0	24	19957
2026-01-24 01:36:13.96	20.99	7.21	-31.0	-45.2	3.8	7.47e-01	0	41	104	0	23	18608
2026-01-24 01:36:14.96	21.03	7.29	-31.6	-46.7	3.8	7.46e-01	0	41	104	0	23	20591
2026-01-24 01:36:15.96	21.06	7.37	-31.5	-46.4	3.8	7.42e-01	0	42	104	0	23	20023
2026-01-24 01:36:16.96	21.10	7.45	-31.6	-46.6	3.8	7.45e-01	0	41	104	0	23	20295
2026-01-24 01:36:17.96	21.13	7.54	-31.7	-46.4	3.8	7.46e-01	0	42	104	0	24	19704
2026-01-24 01:36:18.96	21.17	7.62	-31.3	-45.8	3.8	7.46e-01	0	42	104	0	23	19080
2026-01-24 01:36:19.97	21.20	7.70	-31.1	-45.1	3.8	7.45e-01	0	42	104	0	23	18038
2026-01-24 01:36:20.98	21.24	7.78	-30.9	-44.2	3.8	7.46e-01	0	42	104	0	23	16824
2026-01-24 01:36:21.98	21.27	7.87	-30.6	-44.0	3.8	7.45e-01	0	42	104	0	22	16866
2026-01-24 01:36:22.99	21.31	7.95	-30.4	-44.0	3.8	7.44e-01	0	42	104	0	21	17100
2026-01-24 01:36:23.99	21.35	8.03	-30.3	-43.5	3.8	7.45e-01	0	42	104	0	21	16508
2026-01-24 01:36:25.00	21.38	8.12	-30.4	-43.8	3.8	7.44e-01	0	42	104	0	21	16948
2026-01-24 01:36:26.00	21.42	8.20	-30.2	-43.2	3.8	7.44e-01	0	42	104	0	21	16185
2026-01-24 01:36:27.01	21.46	8.29	-30.3	-43.5	3.8	7.41e-01	0	42	104	0	21	16580
2026-01-24 01:36:28.02	21.49	8.37	-30.1	-43.1	3.8	7.45e-01	0	42	104	0	21	16100
2026-01-24 01:36:29.02	21.53	8.46	-30.3	-43.7	3.8	7.44e-01	0	42	104	0	21	16770
2026-01-24 01:36:30.02	21.57	8.54	-30.5	-44.1	3.8	7.40e-01	0	42	104	0	21	17275
2026-01-24 01:36:31.03	21.60	8.63	-30.5	-44.2	3.8	7.41e-01	0	42	104	0	21	17400
2026-01-24 01:36:32.04	21.64	8.71	-30.6	-44.0	3.8	7.44e-01	0	42	104	0	22	16842
2026-01-24 01:36:33.04	21.68	8.80	-30.7	-44.2	3.8	7.49e-01	0	42	104	0	22	16988
2026-01-24 01:36:34.05	21.72	8.89	-31.0	-45.0	3.8	7.44e-01	0	42	104	0	22	18123
2026-01-24 01:36:35.05	21.76	8.98	-31.1	-45.0	3.8	7.48e-01	0	42	104	0	23	17757
2026-01-24 01:36:36.06	21.79	9.06	-31.4	-45.9	3.8	7.42e-01	0	42	104	0	23	19072
2026-01-24 01:36:37.05	21.83	9.15	-31.6	-46.1	3.9	7.44e-01	0	42	104	0	24	19003
2026-01-24 01:36:38.06	21.87	9.24	-31.7	-46.3	3.8	7.44e-01	0	42	104	0	24	19322
2026-01-24 01:36:39.07	21.91	9.33	-30.5	-45.6	3.8	7.45e-01	0	42	104	0	24	20450
2026-01-24 01:36:40.07	21.95	9.42	-32.0	-47.6	3.8	7.42e-01	0	42	104	0	23	21721
2026-01-24 01:36:41.08	21.99	9.51	-32.2	-48.0	3.8	7.44e-01	0	42	104	0	25	21993
2026-01-24 01:36:42.09	22.03	9.60	-32.4	-48.7	3.8	7.45e-01	0	42	104	0	25	23582
2026-01-24 01:36:43.10	22.07	9.69	-32.6	-49.3	3.9	7.47e-01	0	42	104	0	26	24469
2026-01-24 01:36:44.10	22.11	9.78	-32.7	-49.7	3.8	7.47e-01	0	42	104	0	26	25443
2026-01-24 01:36:45.10	22.15	9.87	-32.9	-50.5	3.8	7.43e-01	0	42	104	0	26	27387
2026-01-24 01:36:46.10	22.19	9.96	-33.0	-51.1	3.8	7.45e-01	0	42	104	0	26	29062
2026-01-24 01:36:47.10	22.23	10.05	-33.1	-51.4	3.8	7.44e-01	0	43	104	0	26	29595
2026-01-24 01:36:48.11	22.27	10.14	-33.2	-51.5	3.8	7.46e-01	0	42	104	0	27	29822
2026-01-24 01:36:49.11	22.32	10.23	-33.2	-51.5	3.8	7.50e-01	0	42	104	0	27	29833
2026-01-24 01:36:50.10	22.36	10.32	-33.2	-51.8	3.8	7.48e-01	0	42	104	0	27	30702
2026-01-24 01:36:51.10	22.40	10.42	-33.2	-51.7	3.8	7.45e-01	0	42	104	0	27	30165
2026-01-24 01:36:52.11	22.44	10.51	-33.2	-51.4	3.8	7.46e-01	0	43	104	0	27	29155
2026-01-24 01:36:53.11	22.48	10.60	-33.1	-51.0	3.8	7.46e-01	0	43	104	0	27	28182
2026-01-24 01:36:54.12	22.53	10.70	-33.1	-51.1	3.8	7.45e-01	0	43	104	0	26	28631
2026-01-24 01:36:55.13	22.57	10.79	-33.0	-50.7	3.8	7.44e-01	0	43	104	0	26	27675
2026-01-24 01:36:56.13	22.61	10.89	-32.8	-49.8	3.8	7.46e-01	0	43	104	0	26	25334
2026-01-24 01:36:57.14	22.66	10.98	-32.6	-48.8	3.8	7.44e-01	0	42	104	0	26	23063
2026-01-24 01:36:58.14	22.70	11.08	-32.4	-48.3	3.8	7.47e-01	0	43	104	0	25	22359
2026-01-24 01:36:59.14	22.75	11.17	-32.1	-47.2	3.8	7.42e-01	0	43	104	0	25	20423
2026-01-24 01:37:00.14	22.79	11.27	-31.9	-46.8	3.8	7.46e-01	0	43	104	0	24	19991
2026-01-24 01:37:01.15	22.84	11.37	-31.6	-45.8	3.8	7.43e-01	0	43	104	0	24	18386
2026-01-24 01:37:02.15	22.88	11.46	-31.3	-45.3	3.8	7.45e-01	0	43	104	0	23	18042
2026-01-24 01:37:03.16	22.93	11.56	-31.1	-44.7	3.8	7.48e-01	0	43	104	0	23	17211
2026-01-24 01:37:04.16	22.97	11.66	-30.9	-44.5	3.8	7.47e-01	0	43	104	0	22	17266
2026-01-24 01:37:05.16	23.02	11.76	-30.8	-44.1	3.8	7.43e-01	0	43	104	0	22	16732
2026-01-24 01:37:06.16	23.06	11.85	-30.7	-44.1	3.8	7.43e-01	0	43	104	0	22	16671
2026-01-24 01:37:07.16	23.11	11.95	-30.8	-44.2	3.8	7.46e-01	0	43	104	0	22	16916
2026-01-24 01:37:08.17	23.16	12.05	-30.8	-44.3	3.8	7.43e-01	0	43	104	0	22	16926
2026-01-24 01:37:09.18	23.20	12.15	-30.5	-43.8	3.8	7.45e-01	0	43	104	0	21	16702
2026-01-24 01:37:10.19	23.25	12.26	-30.2	-43.1	3.8	7.47e-01	0	43	104	0	21	15838
2026-01-24 01:37:11.19	23.30	12.36	-30.0	-42.5	3.8	7.46e-01	0	43	104	0	21	15161
2026-01-24 01:37:12.19	23.35	12.46	-29.8	-42.7	3.8	7.46e-01	0	43	104	0	20	15728
2026-01-24 01:37:13.20	23.40	12.56	-30.0	-43.0	3.8	7.43e-01	0	43	104	0	20	16137
2026-01-24 01:37:14.20	23.45	12.66	-30.2	-43.1	3.8	7.45e-01	0	43	104	0	21	15890
2026-01-24 01:37:15.20	23.49	12.76	-30.3	-43.5	3.8	7.46e-01	0	43	104	0	21	16278
2026-01-24 01:37:16.20	23.54	12.87	-30.2	-43.1	3.8	7.43e-01	0	43	104	0	21	15873
2026-01-24 01:37:17.19	23.59	12.97	-30.2	-43.1	3.8	7.42e-01	0	43	104	0	21	15849
2026-01-24 01:37:18.20	23.64	13.08	-30.2	-43.0	3.8	7.40e-01	0	43	104	0	21	15788
2026-01-24 01:37:19.20	23.69	13.18	-30.2	-43.1	3.8	7.43e-01	0	43	104	0	21	15939
2026-01-24 01:37:20.20	23.74	13.28	-30.4	-43.6	3.8	7.47e-01	0	43	104	0	21	16435
2026-01-24 01:37:21.21	23.80	13.39	-30.6	-43.7	3.9	7.45e-01	0	43	104	0	22	16277
2026-01-24 01:37:22.21	23.85	13.50	-30.9	-44.6	3.8	7.43e-01	0	43	104	0	22	17341
2026-01-24 01:37:23.22	23.90	13.60	-31.1	-44.7	3.8	7.45e-01	0	43	104	0	23	17189
2026-01-24 01:37:24.22	23.95	13.71	-31.5	-45.7	3.8	7.44e-01	0	43	104	0	23	18583
2026-01-24 01:37:25.22	24.00	13.82	-31.8	-46.5	3.8	7.41e-01	0	43	104	0	24	19356
2026-01-24 01:37:26.23	24.06	13.93	-32.1	-47.3	3.8	7.47e-01	0	43	104	0	24	20750
2026-01-24 01:37:27.23	24.11	14.04	-32.4	-48.0	3.8	7.45e-01	0	43	104	0	25	21722
2026-01-24 01:37:28.24	24.17	14.15	-32.5	-48.4	3.8	7.47e-01	0	43	104	0	25	22394
2026-01-24 01:37:29.24	24.22	14.26	-32.6	-48.8	3.8	7.44e-01	0	43	104	0	25	23248
2026-01-24 01:37:30.25	24.27	14.37	-32.8	-49.3	3.8	7.44e-01	0	43	104	0	26	23894
2026-01-24 01:37:31.26	24.33	14.48	-33.0	-50.0	3.8	7.45e-01	0	43	104	0	26	25575
2026-01-24 01:37:32.26	24.38	14.59	-33.1	-50.7	3.8	7.43e-01	0	43	104	0	26	27250
2026-01-24 01:37:33.27	24.44	14.70	-33.2	-50.8	3.8	7.45e-01	0	43	104	0	27	27402
2026-01-24 01:37:34.27	24.50	14.81	-33.3	-51.6	3.8	7.44e-01	0	43	104	0	27	29427
2026-01-24 01:37:35.28	24.55	14.93	-33.4	-52.2	3.8	7.46e-01	0	43	104	0	27	31279
2026-01-24 01:37:36.29	24.61	15.04	-33.5	-52.4	3.8	7.46e-01	0	43	104	0	27	31808
2026-01-24 01:37:37.29	24.67	15.16	-33.4	-52.1	3.8	7.46e-01	0	43	104	0	27	30912
2026-01-24 01:37:38.29	24.73	15.27	-33.3	-51.5	3.8	7.45e-01	0	43	104	0	27	29177
2026-01-24 01:37:39.30	24.79	15.39	-33.3	-51.1	3.8	7.48e-01	0	43	104	0	27	28132
2026-01-24 01:37:40.30	24.84	15.50	-33.3	-51.6	3.8	7.44e-01	0	43	104	0	27	29383
2026-01-24 01:37:41.31	24.90	15.62	-33.2	-50.9	3.8	7.45e-01	0	43	104	0	27	27413
2026-01-24 01:37:42.32	24.96	15.74	-33.1	-50.2	3.8	7.47e-01	0	43	104	0	27	25763
2026-01-24 01:37:43.32	25.02	15.86	-33.0	-49.9	3.8	7.45e-01	0	43	104	0	26	25244
2026-01-24 01:37:44.33	25.09	15.97	-32.9	-49.3	3.8	7.46e-01	0	43	104	0	26	23826
2026-01-24 01:37:45.33	25.15	16.09	-32.7	-48.5	3.8	7.45e-01	0	43	104	0	26	22177
2026-01-24 01:37:46.34	25.21	16.21	-32.4	-47.7	3.8	7.45e-01	0	43	104	0	25	21120
2026-01-24 01:37:47.34	25.27	16.33	-32.1	-46.5	3.8	7.46e-01	0	43	104	0	25	19038
2026-01-24 01:37:48.34	25.33	16.45	-31.7	-46.0	3.8	7.40e-01	0	43	104	0	24	18539
2026-01-24 01:37:49.34	25.40	16.57	-31.4	-45.4	3.8	7.41e-01	0	43	104	0	23	18001
2026-01-24 01:37:50.34	25.46	16.70	-31.1	-44.5	3.8	7.45e-01	0	43	104	0	23	16875
2026-01-24 01:37:51.35	25.52	16.82	-30.9	-44.3	3.8	7.48e-01	0	43	104	0	22	16900
2026-01-24 01:37:52.35	25.59	16.94	-30.6	-43.6	3.8	7.47e-01	0	43	104	0	22	16061
2026-01-24 01:37:53.36	25.65	17.07	-30.4	-42.9	3.8	7.47e-01	0	43	104	0	22	15282
2026-01-24 01:37:54.36	25.72	17.19	-29.9	-33.5	6.0	6.41e-01	0	43	104	0	20	5392
2026-01-24 01:37:55.37	25.79	17.32	-29.8	-33.0	18.8	6.03e-01	0	43	0	0	20	5223
2026-01-24 01:37:56.37	25.85	17.44	-29.8	-33.0	18.9	6.03e-01	0	43	102	524288	20	5210
2026-01-24 01:37:57.38	25.92	17.57	-29.8	-32.9	18.9	6.03e-01	0	43	102	524288	20	5196
2026-01-24 01:37:58.39	25.99	17.70	-29.7	-32.7	19.1	6.04e-01	0	43	102	524288	20	5110
2026-01-24 01:37:59.39	26.06	17.83	-29.4	-32.1	19.5	6.03e-01	0	43	102	524288	20	4900
2026-01-24 01:38:00.40	26.13	17.96	-29.4	-32.5	19.6	6.02e-01	0	43	102	524288	19	5137
2026-01-24 01:38:01.41	26.20	18.09	-29.5	-32.8	19.4	6.01e-01	0	43	102	524288	19	5239
2026-01-24 01:38:02.42	26.27	18.22	-29.7	-32.9	19.0	6.04e-01	0	43	102	524288	20	5178
2026-01-24 01:38:03.42	26.34	18.35	-29.8	-33.0	18.9	6.04e-01	0	43	102	524288	20	5199
2026-01-24 01:38:04.43	26.41	18.48	-29.6	-32.5	19.2	6.03e-01	0	43	102	524288	20	5047
2026-01-24 01:38:05.44	26.48	18.62	-29.7	-32.8	19.0	6.03e-01	0	43	102	524288	20	5150
2026-01-24 01:38:06.45	26.56	18.75	-29.8	-33.0	18.9	6.03e-01	0	43	102	524288	20	5221
2026-01-24 01:38:07.44	26.63	18.88	-29.7	-32.6	19.2	6.04e-01	0	43	102	524288	20	5075
2026-01-24 01:38:08.45	26.70	19.02	-29.6	-32.5	19.3	6.03e-01	0	43	102	524288	20	5038
2026-01-24 01:38:09.46	26.78	19.16	-29.6	-32.6	19.2	6.01e-01	0	43	102	524288	20	5064
2026-01-24 01:38:10.46	26.86	19.29	-29.6	-32.4	19.3	6.04e-01	0	44	102	524288	20	5003
2026-01-24 01:38:11.47	26.93	19.43	-29.4	-31.9	19.7	6.02e-01	0	43	102	524288	20	4802
2026-01-24 01:38:12.47	27.01	19.57	-29.4	-32.4	19.7	6.02e-01	0	43	102	524288	19	5095
2026-01-24 01:38:13.47	27.09	19.71	-29.4	-32.4	19.7	6.01e-01	0	43	102	524288	19	5092
2026-01-24 01:38:14.47	27.16	19.85	-29.2	-32.0	20.0	6.04e-01	0	44	102	524288	19	4944
2026-01-24 01:38:15.47	27.24	19.99	-28.1	-30.8	20.1	6.02e-01	0	43	102	524288	19	4911
2026-01-24 01:38:16.47	27.32	20.13	-29.2	-31.9	20.1	6.03e-01	0	43	102	524288	19	4902
2026-01-24 01:38:17.47	27.40	20.27	-29.2	-32.0	19.9	6.04e-01	0	44	102	524288	19	4947
2026-01-24 01:38:18.47	27.48	20.41	-29.3	-32.1	19.8	6.04e-01	0	43	102	524288	19	4969
2026-01-24 01:38:19.47	27.56	20.55	-29.3	-32.2	20.0	6.06e-01	0	43	102	524288	19	5018
2026-01-24 01:38:20.48	27.65	20.70	-29.5	-32.6	19.6	6.02e-01	0	43	102	524288	19	5148
2026-01-24 01:38:21.48	27.73	20.84	-29.4	-32.5	19.7	6.04e-01	0	43	102	524288	19	5132
2026-01-24 01:38:22.48	27.82	20.99	-29.5	-32.5	19.7	6.03e-01	0	43	102	524288	19	5139
2026-01-24 01:38:23.48	27.90	21.14	-29.4	-32.5	19.8	6.02e-01	0	43	102	524288	19	5119
2026-01-24 01:38:24.49	27.99	21.29	-29.6	-32.8	19.6	6.02e-01	0	43	102	524288	19	5228
2026-01-24 01:38:25.48	28.07	21.43	-29.5	-32.1	19.7	6.03e-01	0	44	102	524288	20	4864
2026-01-24 01:38:26.49	28.16	21.58	-29.3	-31.7	19.9	6.04e-01	0	43	102	524288	20	4729
2026-01-24 01:38:27.49	28.25	21.74	-29.3	-32.1	20.0	6.03e-01	0	44	102	524288	19	4985
2026-01-24 01:38:28.50	28.34	21.89	-29.3	-32.1	20.0	6.02e-01	0	44	102	524288	19	4984
2026-01-24 01:38:29.50	28.43	22.04	-29.3	-32.0	20.0	6.02e-01	0	43	102	524288	19	4957
2026-01-24 01:38:30.50	28.52	22.19	-29.3	-32.0	20.1	6.03e-01	0	44	102	524288	19	4957
2026-01-24 01:38:31.51	28.61	22.35	-29.4	-32.3	19.9	6.02e-01	0	43	102	524288	19	5042
2026-01-24 01:38:32.51	28.70	22.50	-29.4	-32.4	19.9	6.01e-01	0	43	102	524288	19	5064
2026-01-24 01:38:33.51	28.80	22.66	-29.3	-32.1	20.1	6.05e-01	0	43	102	524288	19	4957
2026-01-24 01:38:34.52	28.89	22.82	-29.3	-32.1	20.0	6.00e-01	0	43	102	524288	19	4974
2026-01-24 01:38:35.53	28.99	22.98	-29.4	-32.3	20.0	6.04e-01	0	43	102	524288	19	5024
2026-01-24 01:38:36.53	29.09	23.14	-29.4	-32.3	19.9	6.02e-01	0	43	102	524288	19	5050
2026-01-24 01:38:37.54	29.18	23.30	-29.4	-32.4	19.9	6.03e-01	0	44	102	524288	19	5083
2026-01-24 01:38:38.54	29.28	23.46	-29.4	-32.5	19.8	6.03e-01	0	43	102	524288	19	5104
2026-01-24 01:38:39.55	29.38	23.62	-29.5	-32.5	19.9	6.01e-01	0	43	102	524288	19	5100
2026-01-24 01:38:40.55	29.48	23.79	-29.4	-32.3	19.9	6.02e-01	0	43	102	524288	19	5049
2026-01-24 01:38:41.55	29.58	23.95	-29.4	-32.4	19.9	6.01e-01	0	43	102	524288	19	5078
2026-01-24 01:38:42.56	29.69	24.12	-29.5	-32.5	19.8	6.02e-01	0	43	102	524288	19	5114
2026-01-24 01:38:43.55	29.79	24.28	-29.6	-32.8	19.7	6.02e-01	0	43	102	524288	19	5226
2026-01-24 01:38:44.55	29.90	24.45	-29.6	-32.5	19.5	6.02e-01	0	43	102	524288	20	5007
2026-01-24 01:38:45.55	30.00	24.62	-29.7	-32.5	19.5	6.02e-01	0	43	102	524288	20	5016
2026-01-24 01:38:46.55	30.11	24.79	-29.5	-32.2	19.7	6.03e-01	0	44	102	524288	20	4891
2026-01-24 01:38:47.56	30.22	24.96	-29.5	-32.1	19.7	6.03e-01	0	43	102	524288	20	4868
2026-01-24 01:38:48.56	30.33	25.13	-29.4	-32.0	19.9	6.03e-01	0	44	102	524288	20	4820
2026-01-24 01:38:49.56	30.44	25.31	-29.5	-32.7	19.8	6.03e-01	0	44	102	524288	19	5178
2026-01-24 01:38:50.57	30.55	25.48	-29.5	-32.0	19.8	6.02e-01	0	44	102	524288	20	4829
2026-01-24 01:38:51.58	30.67	25.66	-29.4	-32.4	20.0	6.02e-01	0	43	102	524288	19	5057
2026-01-24 01:38:52.59	30.78	25.84	-29.4	-32.4	20.0	6.01e-01	0	44	102	524288	19	5063
2026-01-24 01:38:53.59	30.90	26.01	-29.4	-32.2	20.1	6.04e-01	0	44	102	524288	19	5005
2026-01-24 01:38:54.59	31.01	26.19	-29.4	-32.2	20.1	6.05e-01	0	43	102	524288	19	5008
2026-01-24 01:38:55.59	31.13	26.37	-29.4	-32.3	20.0	6.02e-01	0	43	102	524288	19	5049
2026-01-24 01:38:56.60	31.25	26.55	-29.5	-32.5	19.9	6.03e-01	0	43	102	524288	19	5114
2026-01-24 01:38:57.60	31.37	26.74	-29.4	-32.4	20.0	6.01e-01	0	44	102	524288	19	5073
2026-01-24 01:38:58.60	31.50	26.92	-29.3	-32.2	20.2	6.02e-01	0	44	102	524288	19	4987
2026-01-24 01:38:59.60	31.62	27.10	-29.3	-32.1	20.2	6.04e-01	0	44	102	524288	19	4948
2026-01-24 01:39:00.61	31.75	27.29	-29.4	-32.2	20.1	6.02e-01	0	44	102	524288	19	4997
2026-01-24 01:39:01.61	31.87	27.48	-29.3	-32.1	20.2	6.04e-01	0	44	102	524288	19	4958
2026-01-24 01:39:02.61	32.00	27.67	-29.4	-32.2	20.1	6.03e-01	0	44	102	524288	19	5002
2026-01-24 01:39:03.62	32.13	27.86	-29.3	-32.1	20.2	6.02e-01	0	44	102	524288	19	4969
2026-01-24 01:39:04.62	32.26	28.05	-29.2	-31.9	20.4	6.02e-01	0	44	102	524288	19	4875
2026-01-24 01:39:05.63	32.40	28.24	-29.2	-31.7	20.5	6.05e-01	0	43	102	524288	19	4812
2026-01-24 01:39:06.64	32.54	28.44	-29.1	-31.6	20.6	6.02e-01	0	43	102	524288	19	4775
2026-01-24 01:39:07.65	32.67	28.64	-29.1	-31.5	20.6	6.04e-01	0	44	102	524288	19	4747
2026-01-24 01:39:08.66	32.81	28.83	-29.2	-32.2	19.9	6.03e-01	0	44	102	524288	18	5091
2026-01-24 01:39:09.67	32.95	29.03	-29.2	-31.9	19.3	6.07e-01	0	44	102	524288	19	4920
2026-01-24 01:39:10.67	33.09	29.23	-29.1	-31.6	20.6	6.03e-01	0	44	102	524288	19	4779
2026-01-24 01:39:11.67	33.24	29.43	-29.1	-32.0	18.6	6.06e-01	0	43	102	524288	18	5046
2026-01-24 01:39:12.68	33.38	29.64	-29.0	-31.9	18.7	6.06e-01	0	44	102	524288	18	4992
2026-01-24 01:39:13.68	33.53	29.84	-29.1	-31.9	20.7	6.03e-01	0	44	102	524288	18	5013
2026-01-24 01:39:14.68	33.68	30.04	-29.1	-31.9	19.4	6.04e-01	0	44	102	524288	18	5014
2026-01-24 01:39:15.68	33.83	30.25	-29.1	-32.0	20.1	6.04e-01	0	43	102	524288	18	5028
2026-01-24 01:39:16.69	33.99	30.46	-29.1	-31.4	20.7	6.01e-01	0	44	102	524288	19	4731
2026-01-24 01:39:17.69	34.14	30.67	-29.0	-31.8	20.6	6.05e-01	0	44	102	524288	18	4951
2026-01-24 01:39:18.70	34.30	30.88	-29.0	-31.8	20.7	6.04e-01	0	44	102	524288	18	4970
2026-01-24 01:39:19.70	34.46	31.09	-29.1	-31.6	20.6	6.03e-01	0	43	102	524288	19	4769
2026-01-24 01:39:20.71	34.62	31.30	-29.2	-31.7	20.5	6.03e-01	0	44	102	524288	19	4821
2026-01-24 01:39:21.71	34.78	31.52	-29.2	-31.8	20.5	6.05e-01	0	44	102	524288	19	4844
2026-01-24 01:39:22.72	34.95	31.74	-29.2	-31.8	20.5	6.02e-01	0	44	102	524288	19	4844
2026-01-24 01:39:23.72	35.12	31.95	-29.3	-31.9	20.5	6.00e-01	0	44	102	524288	19	4871
2026-01-24 01:39:24.73	35.29	32.17	-29.2	-31.8	20.5	6.05e-01	0	44	102	524288	19	4844
2026-01-24 01:39:25.73	35.46	32.39	-29.2	-31.8	20.5	6.02e-01	0	44	102	524288	19	4837
2026-01-24 01:39:26.74	35.64	32.62	-29.4	-32.1	20.3	6.02e-01	0	44	102	524288	19	4959
2026-01-24 01:39:27.75	35.82	32.84	-29.4	-32.2	20.3	6.03e-01	0	44	102	524288	19	4973
2026-01-24 01:39:28.76	36.00	33.07	-29.5	-32.4	20.2	6.02e-01	0	44	102	524288	19	5054
2026-01-24 01:39:29.76	36.18	33.30	-29.5	-32.5	20.1	6.01e-01	0	44	102	524288	19	5091
2026-01-24 01:39:30.76	36.36	33.52	-29.6	-32.2	20.0	6.04e-01	0	44	102	524288	20	4860
2026-01-24 01:39:31.76	36.55	33.75	-29.8	-32.7	19.6	6.04e-01	0	44	102	524288	20	5046
2026-01-24 01:39:32.76	36.74	33.98	-29.8	-32.7	19.6	6.02e-01	0	44	102	524288	20	5057
2026-01-24 01:39:33.77	36.93	34.22	-29.8	-32.8	19.6	6.03e-01	0	44	102	524288	20	5072
2026-01-24 01:39:34.77	37.13	34.45	-29.9	-33.0	19.5	6.03e-01	0	44	102	524288	20	5163
2026-01-24 01:39:35.77	37.33	34.69	-29.9	-33.0	19.5	6.05e-01	0	44	102	524288	20	5166
2026-01-24 01:39:36.77	37.53	34.92	-30.1	-33.5	19.2	6.01e-01	0	44	102	524288	20	5352
2026-01-24 01:39:37.77	37.73	35.16	-30.3	-33.6	18.8	6.04e-01	0	44	102	524288	21	5271
2026-01-24 01:39:38.78	37.94	35.40	-30.4	-33.7	18.8	6.01e-01	0	44	102	524288	21	5312
2026-01-24 01:39:39.79	38.15	35.65	-30.7	-34.2	18.2	6.02e-01	0	44	102	524288	22	5394
2026-01-24 01:39:40.79	38.37	35.89	-30.5	-33.6	18.5	6.03e-01	0	44	102	524288	22	5142
2026-01-24 01:39:41.79	38.58	36.13	-30.2	-33.3	19.0	6.04e-01	0	44	102	524288	21	5162
2026-01-24 01:39:42.80	38.81	36.38	-30.3	-33.4	19.0	6.01e-01	0	44	102	524288	21	5197
2026-01-24 01:39:43.80	39.03	36.63	-30.4	-34.0	18.6	6.02e-01	0	44	102	524288	21	5400
2026-01-24 01:39:44.79	39.25	36.88	-30.5	-34.0	18.6	6.00e-01	0	44	102	524288	21	5429
2026-01-24 01:39:45.79	39.48	37.13	-30.8	-34.3	18.1	6.01e-01	0	44	102	524288	22	5409
2026-01-24 01:39:46.80	39.72	37.38	-30.8	-34.5	18.0	6.03e-01	0	44	102	524288	22	5496
2026-01-24 01:39:47.80	39.96	37.63	-31.0	-35.0	17.8	6.04e-01	0	44	102	524288	22	5694
2026-01-24 01:39:48.80	40.20	37.89	-30.7	-34.1	18.3	6.03e-01	0	44	102	524288	22	5321
2026-01-24 01:39:49.80	40.44	38.15	-30.5	-33.7	18.6	6.02e-01	0	44	102	524288	22	5161
2026-01-24 01:39:50.81	40.70	38.41	-30.5	-34.0	18.6	6.01e-01	0	44	102	524288	21	5412
2026-01-24 01:39:51.81	40.95	38.67	-30.3	-33.5	19.0	6.03e-01	0	44	102	524288	21	5226
2026-01-24 01:39:52.82	41.21	38.93	-30.5	-34.2	18.6	6.04e-01	0	44	102	524288	21	5471
2026-01-24 01:39:53.82	41.47	39.19	-30.5	-33.7	18.5	6.00e-01	0	44	102	524288	22	5176
2026-01-24 01:39:54.82	41.74	39.46	-30.3	-32.9	18.9	6.01e-01	0	44	102	524288	22	4886
2026-01-24 01:39:55.82	42.01	39.72	-30.1	-32.4	19.4	6.02e-01	0	44	102	524288	22	4699
2026-01-24 01:39:56.83	42.28	39.99	-30.1	-32.5	19.3	6.04e-01	0	44	102	524288	22	4742
2026-01-24 01:39:57.83	42.56	40.26	-30.0	-32.8	19.4	6.02e-01	0	44	102	524288	21	4966
2026-01-24 01:39:58.83	42.85	40.53	-29.9	-32.7	19.4	6.04e-01	0	44	102	524288	21	4980
2026-01-24 01:39:59.84	43.14	40.81	-30.2	-33.4	19.1	6.02e-01	0	44	102	524288	21	5162
2026-01-24 01:40:00.83	43.43	41.08	-29.9	-32.5	19.6	6.02e-01	0	44	102	524288	21	4861
2026-01-24 01:40:01.83	43.73	41.35	-29.7	-32.5	19.7	6.02e-01	0	44	102	524288	20	4950
2026-01-24 01:40:02.83	44.03	41.62	-29.9	-32.9	19.6	6.02e-01	0	44	102	524288	20	5105
2026-01-24 01:40:03.83	44.34	41.90	-29.5	-31.9	20.2	6.01e-01	0	44	102	524288	20	4746
2026-01-24 01:40:04.84	44.66	42.18	-29.5	-31.9	20.1	6.05e-01	0	44	102	524288	20	4776
2026-01-24 01:40:05.84	44.98	42.46	-29.4	-31.8	20.2	6.04e-01	0	44	102	524288	20	4716
2026-01-24 01:40:06.85	45.31	42.75	-29.3	-31.6	20.4	6.02e-01	0	44	102	524288	20	4662
2026-01-24 01:40:07.85	45.64	43.03	-29.4	-31.7	20.4	6.02e-01	0	44	102	524288	20	4710
2026-01-24 01:40:08.85	45.98	43.31	-29.2	-31.2	20.7	6.04e-01	0	44	102	524288	20	4539
2026-01-24 01:40:09.85	46.32	43.59	-29.2	-31.3	20.6	6.02e-01	0	44	102	524288	20	4564
2026-01-24 01:40:10.86	46.67	43.88	-29.2	-31.3	20.6	6.04e-01	0	44	102	524288	20	4555
2026-01-24 01:40:11.86	47.03	44.17	-29.2	-31.2	20.7	6.02e-01	0	44	102	524288	20	4543
2026-01-24 01:40:12.86	47.39	44.46	-29.3	-31.8	20.7	6.03e-01	0	44	102	524288	19	4844
2026-01-24 01:40:13.87	47.76	44.75	-29.0	-31.2	21.1	6.01e-01	0	44	102	524288	19	4630
2026-01-24 01:40:14.87	48.14	45.04	-29.1	-31.8	21.0	6.02e-01	0	44	102	524288	18	4951
2026-01-24 01:40:15.87	48.52	45.33	-29.2	-31.6	20.8	6.03e-01	0	44	102	524288	19	4772
2026-01-24 01:40:16.88	48.92	45.62	-29.3	-32.0	20.6	6.02e-01	0	44	102	524288	19	4887
2026-01-24 01:40:17.89	49.32	45.92	-28.9	-31.4	21.2	6.03e-01	0	44	102	524288	18	4824
2026-01-24 01:40:18.89	49.72	46.21	-29.1	-31.9	20.9	6.04e-01	0	44	102	524288	18	4984
2026-01-24 01:40:19.90	50.14	46.51	-29.1	-31.4	21.0	6.04e-01	0	44	102	524288	19	4697
2026-01-24 01:40:20.90	50.56	46.80	-29.0	-31.6	21.1	6.02e-01	0	44	102	524288	18	4862
2026-01-24 01:40:21.90	50.99	47.09	-29.1	-31.3	20.9	6.02e-01	0	44	102	524288	19	4680
2026-01-24 01:40:22.90	51.43	47.39	-29.1	-31.4	21.0	6.01e-01	0	44	102	524288	19	4701
2026-01-24 01:40:23.90	51.87	47.68	-29.2	-31.6	20.8	6.03e-01	0	44	102	524288	19	4758
2026-01-24 01:40:24.90	52.32	47.98	-29.2	-31.7	20.8	6.03e-01	0	44	102	524288	19	4777
2026-01-24 01:40:25.90	52.79	48.27	-29.3	-31.8	20.7	6.04e-01	0	44	102	524288	19	4837
2026-01-24 01:40:26.90	53.26	48.57	-29.2	-31.7	20.8	6.03e-01	0	44	102	524288	19	4775
2026-01-24 01:40:27.91	53.74	48.87	-29.6	-32.1	20.2	6.03e-01	0	44	102	524288	20	4830
2026-01-24 01:40:28.92	54.24	49.17	-29.4	-31.6	20.5	6.03e-01	0	44	102	524288	20	4650
2026-01-24 01:40:29.92	54.74	49.46	-29.3	-31.8	20.7	6.01e-01	0	44	102	524288	19	4818
2026-01-24 01:40:30.92	55.25	49.76	-29.5	-32.4	20.4	6.02e-01	0	44	102	524288	19	5011
2026-01-24 01:40:31.93	55.77	50.06	-29.6	-32.3	20.2	6.05e-01	0	44	102	524288	20	4877
2026-01-24 01:40:32.93	56.30	50.35	-30.0	-33.1	19.7	6.04e-01	0	44	102	524288	20	5174
2026-01-24 01:40:33.94	56.85	50.65	-29.6	-32.1	20.2	6.02e-01	0	44	102	524288	20	4821
2026-01-24 01:40:34.95	57.40	50.95	-29.4	-31.6	20.5	6.04e-01	0	44	102	524288	20	4637
2026-01-24 01:40:35.96	57.97	51.24	-29.1	-31.5	20.8	6.04e-01	0	44	102	524288	19	4716
2026-01-24 01:40:36.96	58.54	51.53	-29.0	-31.1	21.1	6.03e-01	0	44	102	524288	19	4588
2026-01-24 01:40:37.97	59.14	51.83	-29.1	-31.4	21.0	6.05e-01	0	44	102	524288	19	4681
2026-01-24 01:40:38.97	59.73	52.11	-28.9	-31.0	21.3	6.03e-01	0	44	102	524288	19	4572
2026-01-24 01:40:39.98	60.35	52.41	-29.2	-31.6	21.0	6.00e-01	0	44	102	524288	19	4744
2026-01-24 01:40:40.98	60.97	52.69	-29.0	-31.1	21.2	6.02e-01	0	44	102	524288	19	4592
2026-01-24 01:40:41.98	61.60	52.98	-28.9	-31.4	21.3	6.02e-01	0	44	102	524288	18	4790
2026-01-24 01:40:42.99	62.25	53.26	-29.0	-31.6	21.3	6.02e-01	0	44	102	524288	18	4859
2026-01-24 01:40:43.99	62.91	53.54	-29.1	-31.4	21.1	6.02e-01	0	44	102	524288	19	4698
2026-01-24 01:40:44.99	63.58	53.82	-29.0	-31.2	21.2	6.03e-01	0	44	102	524288	19	4634
2026-01-24 01:40:46.00	64.27	54.10	-29.4	-32.2	20.6	6.04e-01	0	44	102	524288	19	4942
2026-01-24 01:40:46.99	64.96	54.37	-29.4	-32.1	20.6	6.05e-01	0	44	102	524288	19	4906
2026-01-24 01:40:48.00	65.67	54.64	-29.5	-32.4	20.5	6.01e-01	0	44	102	524288	19	5021
2026-01-24 01:40:49.00	66.40	54.91	-29.5	-32.4	20.5	6.02e-01	0	44	102	524288	19	5015
2026-01-24 01:40:50.01	67.14	55.18	-29.8	-32.6	20.1	6.02e-01	0	44	102	524288	20	4964
2026-01-24 01:40:51.02	67.90	55.44	-30.1	-33.3	19.6	6.04e-01	0	44	102	524288	20	5248
2026-01-24 01:40:52.02	68.67	55.70	-29.8	-32.0	20.1	6.03e-01	0	44	102	524288	21	4663
2026-01-24 01:40:53.03	69.45	55.96	-30.1	-32.8	19.6	6.01e-01	0	44	102	524288	21	4928
2026-01-24 01:40:54.03	70.25	56.21	-30.0	-32.6	19.8	6.03e-01	0	44	102	524288	21	4846
2026-01-24 01:40:55.04	71.06	56.45	-29.9	-32.5	19.9	6.05e-01	0	44	102	524288	21	4812
2026-01-24 01:40:56.04	71.89	56.70	-29.9	-32.4	19.9	6.03e-01	0	44	102	524288	21	4798
2026-01-24 01:40:57.05	72.73	56.94	-30.3	-33.3	19.3	6.02e-01	0	44	102	524288	21	5112
2026-01-24 01:40:58.05	73.59	57.17	-30.2	-33.1	19.5	6.02e-01	0	44	102	524288	21	5031
2026-01-24 01:40:59.05	74.45	57.39	-30.3	-33.4	19.3	6.02e-01	0	44	102	524288	21	5134
2026-01-24 01:41:00.06	75.34	57.62	-30.5	-33.9	19.1	6.04e-01	0	44	102	524288	21	5319
2026-01-24 01:41:01.06	76.24	57.83	-30.9	-34.5	18.3	6.02e-01	0	44	102	524288	22	5440
2026-01-24 01:41:02.06	77.15	58.04	-30.7	-34.1	18.6	6.01e-01	0	44	102	524288	22	5273
2026-01-24 01:41:03.07	78.08	58.25	-30.6	-33.7	18.8	6.02e-01	0	44	102	524288	22	5137
2026-01-24 01:41:04.07	79.02	58.45	-30.9	-34.6	18.3	6.02e-01	0	44	102	524288	22	5480
2026-01-24 01:41:05.08	79.98	58.64	-30.8	-34.2	18.5	6.05e-01	0	44	102	524288	22	5321
2026-01-24 01:41:06.08	80.95	58.83	-30.9	-34.4	18.4	6.02e-01	0	44	102	524288	22	5421
2026-01-24 01:41:07.08	81.93	59.00	-30.8	-34.4	18.5	6.03e-01	0	44	102	524288	22	5394
2026-01-24 01:41:08.09	82.93	59.18	-30.8	-34.1	18.6	6.04e-01	0	44	102	524288	22	5290
2026-01-24 01:41:09.10	83.94	59.34	-30.8	-34.2	18.5	6.00e-01	0	44	102	524288	22	5317
2026-01-24 01:41:10.10	84.96	59.50	-30.8	-34.3	18.5	6.03e-01	0	44	102	524288	22	5378
2026-01-24 01:41:11.10	85.99	59.65	-30.9	-34.6	18.2	6.01e-01	0	44	102	524288	22	5506
2026-01-24 01:41:12.10	87.03	59.79	-30.8	-34.2	18.6	6.02e-01	0	44	102	524288	22	5310
2026-01-24 01:41:13.10	88.09	59.92	-30.9	-34.6	18.4	6.03e-01	0	44	102	524288	22	5469
2026-01-24 01:41:14.10	89.15	60.04	-31.0	-34.8	18.2	6.03e-01	0	44	102	524288	22	5572
2026-01-24 01:41:15.11	90.23	60.16	-31.2	-34.9	17.8	6.01e-01	0	44	102	524288	23	5481
2026-01-24 01:41:16.11	91.31	60.26	-31.5	-35.6	17.3	6.00e-01	0	44	102	524288	23	5808
2026-01-24 01:41:17.11	92.41	60.36	-31.4	-35.5	17.5	6.02e-01	0	44	102	524288	23	5763
2026-01-24 01:41:18.11	93.50	60.45	-31.1	-34.6	18.0	6.01e-01	0	44	102	524288	23	5367
2026-01-24 01:41:19.11	94.61	60.53	-31.4	-35.5	17.5	6.05e-01	0	44	102	524288	23	5729
2026-01-24 01:41:20.11	95.72	60.59	-31.8	-36.0	16.7	6.00e-01	0	44	102	524288	24	5880
2026-01-24 01:41:21.11	96.84	60.65	-31.9	-36.3	16.6	6.01e-01	0	44	102	524288	24	5975
2026-01-24 01:41:22.12	97.98	60.71	-31.6	-35.4	17.2	6.02e-01	0	44	102	524288	24	5603
2026-01-24 01:41:23.12	99.10	60.75	-31.9	-36.5	16.5	6.02e-01	0	44	102	524288	24	6079
2026-01-24 01:41:24.12	100.23	60.78	-31.9	-36.3	16.6	6.03e-01	0	44	102	524288	24	5983
2026-01-24 01:41:25.13	101.38	60.80	-31.8	-36.0	16.8	6.01e-01	0	44	102	524288	24	5879
2026-01-24 01:41:26.13	102.51	60.81	-32.0	-36.7	16.4	6.05e-01	0	44	102	524288	24	6178
2026-01-24 01:41:27.13	103.65	60.81	-31.9	-36.5	16.4	6.03e-01	0	44	102	524288	24	6118
2026-01-24 01:41:28.14	104.80	60.80	-31.6	-35.5	17.1	6.04e-01	0	44	102	524288	24	5652
2026-01-24 01:41:29.14	105.93	60.79	-31.3	-35.2	17.6	6.04e-01	0	44	102	524288	23	5619
2026-01-24 01:41:30.14	107.06	60.76	-31.3	-35.1	17.7	6.04e-01	0	44	102	524288	23	5591
2026-01-24 01:41:31.14	108.19	60.72	-31.4	-35.2	17.7	6.01e-01	0	44	102	524288	23	5610
2026-01-24 01:41:32.14	109.32	60.67	-31.4	-35.4	17.5	6.03e-01	0	44	102	524288	23	5702
2026-01-24 01:41:33.15	110.45	60.62	-31.1	-34.4	18.2	6.03e-01	0	44	102	524288	23	5280
2026-01-24 01:41:34.15	111.56	60.55	-31.4	-35.3	17.6	6.01e-01	0	44	102	524288	23	5672
2026-01-24 01:41:35.16	112.68	60.48	-31.1	-34.4	18.2	6.01e-01	0	44	102	524288	23	5265
2026-01-24 01:41:36.17	113.80	60.39	-30.9	-34.4	18.5	6.02e-01	0	44	102	524288	22	5401
2026-01-24 01:41:37.17	114.89	60.30	-30.8	-34.3	18.7	6.02e-01	0	44	102	524288	22	5344
2026-01-24 01:41:38.17	115.98	60.19	-31.1	-34.5	18.1	6.05e-01	0	44	102	524288	23	5347
2026-01-24 01:41:39.18	117.07	60.08	-31.0	-34.3	18.2	6.02e-01	0	44	102	524288	23	5241
2026-01-24 01:41:40.18	118.13	59.96	-30.7	-33.4	18.8	6.03e-01	0	44	102	524288	23	4913
2026-01-24 01:41:41.19	119.20	59.83	-31.1	-34.5	18.2	6.04e-01	0	44	102	524288	23	5323
2026-01-24 01:41:42.20	120.26	59.69	-31.0	-34.6	18.5	6.01e-01	0	44	102	524288	22	5473
2026-01-24 01:41:43.20	121.29	59.54	-31.2	-34.6	18.0	6.01e-01	0	44	102	524288	23	5371
2026-01-24 01:41:44.20	122.31	59.39	-30.7	-33.8	19.0	6.00e-01	0	44	102	524288	22	5162
2026-01-24 01:41:45.21	123.33	59.23	-30.8	-34.1	18.8	6.03e-01	0	44	102	524288	22	5280
2026-01-24 01:41:46.21	124.33	59.06	-31.0	-34.8	18.3	6.02e-01	0	44	102	524288	22	5554
2026-01-24 01:41:47.21	125.32	58.88	-31.1	-34.9	18.0	6.02e-01	0	44	102	524288	22	5599
2026-01-24 01:41:48.21	126.29	58.70	-30.9	-34.3	18.6	6.01e-01	0	44	102	524288	22	5356
2026-01-24 01:41:49.21	127.25	58.51	-30.9	-34.4	18.5	6.02e-01	0	44	102	524288	22	5377
2026-01-24 01:41:50.21	128.19	58.32	-31.1	-35.0	18.2	6.02e-01	0	44	102	524288	22	5622
2026-01-24 01:41:51.22	129.13	58.11	-31.0	-34.4	18.2	6.01e-01	0	44	102	524288	23	5272
2026-01-24 01:41:52.22	130.05	57.90	-30.6	-33.6	19.0	6.02e-01	0	44	102	524288	22	5080
2026-01-24 01:41:53.22	130.95	57.69	-30.5	-34.0	19.1	6.03e-01	0	44	102	524288	21	5336
2026-01-24 01:41:54.23	131.84	57.47	-31.0	-34.7	18.3	6.01e-01	0	44	102	524288	22	5524
2026-01-24 01:41:55.23	132.72	57.24	-30.8	-34.2	18.6	6.03e-01	0	44	102	524288	22	5331
2026-01-24 01:41:56.24	133.58	57.01	-30.4	-33.6	19.2	6.02e-01	0	44	102	524288	21	5208
2026-01-24 01:41:57.25	134.44	56.77	-30.3	-33.4	19.4	6.02e-01	0	44	102	524288	21	5126
2026-01-24 01:41:58.25	135.26	56.53	-30.1	-32.9	19.7	6.04e-01	0	44	102	524288	21	4968
2026-01-24 01:41:59.25	136.08	56.28	-30.4	-33.7	19.3	6.01e-01	0	44	102	524288	21	5240
2026-01-24 01:42:00.25	136.88	56.03	-30.1	-32.8	19.7	6.05e-01	0	44	102	524288	21	4927
2026-01-24 01:42:01.25	137.66	55.78	-30.0	-33.1	19.8	6.02e-01	0	44	102	524288	20	5142
2026-01-24 01:42:02.26	138.44	55.52	-29.9	-32.7	20.1	6.03e-01	0	44	102	524288	20	5020
2026-01-24 01:42:03.26	139.20	55.26	-30.0	-33.1	19.9	6.04e-01	0	44	102	524288	20	5160
2026-01-24 01:42:04.27	139.95	54.99	-30.0	-33.0	19.9	6.01e-01	0	44	102	524288	20	5127
2026-01-24 01:42:05.27	140.68	54.72	-30.1	-33.4	19.7	6.03e-01	0	44	102	524288	20	5256
2026-01-24 01:42:06.27	141.40	54.45	-29.9	-32.8	20.0	6.03e-01	0	44	102	524288	20	5060
2026-01-24 01:42:07.28	142.11	54.18	-29.7	-32.3	20.4	6.05e-01	0	44	102	524288	20	4861
2026-01-24 01:42:08.28	142.80	53.90	-30.1	-33.3	19.7	6.04e-01	0	44	102	524288	20	5236
2026-01-24 01:42:09.28	143.47	53.62	-30.1	-32.9	19.8	6.01e-01	0	44	102	524288	21	4946
2026-01-24 01:42:10.28	144.14	53.34	-30.3	-33.4	19.4	6.02e-01	0	44	102	524288	21	5148
2026-01-24 01:42:11.29	144.79	53.06	-29.7	-32.4	20.2	6.03e-01	0	44	102	524288	20	4904
2026-01-24 01:42:12.29	145.43	52.77	-29.6	-32.1	20.5	6.03e-01	0	44	102	524288	20	4809
2026-01-24 01:42:13.30	146.06	52.48	-29.9	-32.9	20.0	6.02e-01	0	44	102	524288	20	5061
2026-01-24 01:42:14.31	146.68	52.19	-30.2	-33.2	19.6	6.03e-01	0	44	102	524288	21	5059
2026-01-24 01:42:15.31	147.28	51.90	-30.2	-33.2	19.5	6.03e-01	0	44	102	524288	21	5078
2026-01-24 01:42:16.32	147.88	51.61	-30.1	-32.9	19.7	6.03e-01	0	44	102	524288	21	4964
2026-01-24 01:42:17.32	148.45	51.32	-30.3	-33.2	19.5	6.05e-01	0	44	102	524288	21	5082
2026-01-24 01:42:18.32	149.02	51.02	-30.1	-32.7	19.8	6.00e-01	0	44	102	524288	21	4887
2026-01-24 01:42:19.33	149.58	50.73	-30.3	-33.2	19.5	6.03e-01	0	44	102	524288	21	5073
2026-01-24 01:42:20.33	150.13	50.43	-30.5	-33.9	19.1	6.02e-01	0	44	102	524288	21	5329
2026-01-24 01:42:21.34	150.67	50.13	-30.9	-34.4	18.5	6.02e-01	0	44	102	524288	22	5405
2026-01-24 01:42:22.34	151.19	49.84	-30.6	-34.0	18.7	6.05e-01	0	44	102	524288	21	5379
2026-01-24 01:42:23.34	151.70	49.54	-30.4	-33.8	19.1	6.03e-01	0	44	102	524288	21	5310
2026-01-24 01:42:24.35	152.21	49.24	-30.7	-34.0	18.7	6.01e-01	0	44	102	524288	22	5251
2026-01-24 01:42:25.35	152.71	48.94	-31.0	-34.7	18.3	6.02e-01	0	44	102	524288	22	5533
2026-01-24 01:42:26.35	153.19	48.65	-30.9	-34.6	18.3	6.02e-01	0	44	102	524288	22	5508
2026-01-24 01:42:27.35	153.67	48.35	-31.0	-34.7	18.2	6.03e-01	0	44	102	524288	22	5522
2026-01-24 01:42:28.35	154.13	48.05	-30.7	-34.0	18.7	6.05e-01	0	44	102	524288	22	5227
2026-01-24 01:42:29.35	154.59	47.76	-30.7	-33.8	18.9	6.01e-01	0	44	102	524288	22	5173
2026-01-24 01:42:30.36	155.04	47.46	-30.8	-34.2	18.6	6.03e-01	0	44	102	524288	22	5341
2026-01-24 01:42:31.36	155.49	47.16	-30.7	-33.9	18.7	6.04e-01	0	44	102	524288	22	5234
2026-01-24 01:42:32.37	155.92	46.86	-30.6	-33.7	18.9	6.01e-01	0	44	102	524288	22	5146
2026-01-24 01:42:33.37	156.35	46.57	-30.6	-33.6	18.9	6.02e-01	0	44	102	524288	22	5100
2026-01-24 01:42:34.37	156.76	46.27	-30.7	-34.0	18.7	6.02e-01	0	44	102	524288	22	5240
2026-01-24 01:42:35.37	157.17	45.98	-30.7	-34.1	18.6	6.00e-01	0	44	102	524288	22	5278
2026-01-24 01:42:36.37	157.57	45.68	-30.3	-33.0	19.3	6.01e-01	0	44	102	524288	22	4899
2026-01-24 01:42:37.37	157.96	45.39	-30.0	-32.7	19.7	6.03e-01	0	44	102	524288	21	4911
2026-01-24 01:42:38.37	158.35	45.10	-30.1	-33.0	19.6	6.02e-01	0	44	102	524288	21	5016
2026-01-24 01:42:39.37	158.73	44.81	-30.4	-33.6	19.2	6.00e-01	0	44	102	524288	21	5226
2026-01-24 01:42:40.38	159.10	44.52	-30.3	-33.6	19.2	6.03e-01	0	44	102	524288	21	5211
2026-01-24 01:42:41.38	159.47	44.23	-30.3	-33.4	19.3	6.04e-01	0	44	102	524288	21	5144
2026-01-24 01:42:42.37	159.82	43.94	-30.2	-33.1	19.4	6.02e-01	0	44	102	524288	21	5051
2026-01-24 01:42:43.37	160.18	43.65	-30.0	-33.2	19.7	6.02e-01	0	44	102	524288	20	5204
2026-01-24 01:42:44.38	160.53	43.37	-30.2	-33.2	19.4	6.03e-01	0	44	102	524288	21	5099
2026-01-24 01:42:45.38	160.87	43.08	-30.3	-33.6	19.1	6.05e-01	0	44	102	524288	21	5241
2026-01-24 01:42:46.39	161.20	42.79	-30.2	-33.1	19.4	6.03e-01	0	44	102	524288	21	5065
2026-01-24 01:42:47.39	161.53	42.51	-30.2	-33.2	19.4	6.02e-01	0	44	102	524288	21	5092
2026-01-24 01:42:48.39	161.85	42.23	-30.4	-33.7	19.1	6.04e-01	0	44	102	524288	21	5284
2026-01-24 01:42:49.39	162.17	41.95	-30.3	-33.6	19.1	6.04e-01	0	44	102	524288	21	5246
2026-01-24 01:42:50.39	162.48	41.67	-30.4	-33.8	19.0	6.04e-01	0	44	102	524288	21	5311
2026-01-24 01:42:51.39	162.79	41.40	-30.5	-33.9	18.9	6.01e-01	0	44	102	524288	21	5355
2026-01-24 01:42:52.39	163.09	41.12	-30.4	-33.7	19.1	6.03e-01	0	44	102	524288	21	5265
2026-01-24 01:42:53.39	163.39	40.85	-30.3	-33.5	19.2	6.03e-01	0	44	102	524288	21	5191
2026-01-24 01:42:54.40	163.68	40.57	-30.5	-33.9	19.0	6.02e-01	0	44	102	524288	21	5348
2026-01-24 01:42:55.40	163.97	40.30	-30.6	-33.9	18.6	6.02e-01	0	44	102	524288	22	5250
2026-01-24 01:42:56.40	164.25	40.03	-30.5	-34.0	18.8	6.02e-01	0	44	102	524288	21	5408
2026-01-24 01:42:57.40	164.52	39.76	-30.4	-33.7	19.0	6.02e-01	0	44	102	524288	21	5263
2026-01-24 01:42:58.40	164.80	39.49	-30.3	-33.6	19.1	6.03e-01	0	44	102	524288	21	5212
2026-01-24 01:42:59.40	165.06	39.23	-30.4	-33.7	19.1	6.03e-01	0	44	102	524288	21	5253
2026-01-24 01:43:00.40	165.33	38.96	-30.4	-33.6	19.1	6.04e-01	0	44	102	524288	21	5243
2026-01-24 01:43:01.40	165.58	38.70	-30.5	-33.9	18.9	6.01e-01	0	44	102	524288	21	5351
2026-01-24 01:43:02.40	165.84	38.44	-30.5	-33.9	18.9	6.01e-01	0	44	102	524288	21	5366
2026-01-24 01:43:03.41	166.09	38.17	-30.4	-33.9	18.9	6.02e-01	0	44	102	524288	21	5364
2026-01-24 01:43:04.41	166.34	37.92	-30.2	-33.3	19.2	6.03e-01	0	44	102	524288	21	5154
2026-01-24 01:43:05.42	166.59	37.66	-30.1	-33.1	19.3	6.02e-01	0	44	102	524288	21	5061
2026-01-24 01:43:06.43	166.83	37.40	-30.1	-33.0	19.4	6.00e-01	0	44	102	524288	21	5028
2026-01-24 01:43:07.43	167.06	37.14	-30.0	-33.4	19.4	6.02e-01	0	44	102	524288	20	5274
2026-01-24 01:43:08.44	167.30	36.89	-30.0	-33.2	19.6	6.02e-01	0	44	102	524288	20	5212
2026-01-24 01:43:09.45	167.53	36.64	-30.0	-33.2	19.6	6.03e-01	0	44	102	524288	20	5222
2026-01-24 01:43:10.45	167.75	36.39	-29.9	-33.0	19.7	6.02e-01	0	44	102	524288	20	5123
2026-01-24 01:43:11.45	167.97	36.14	-29.7	-32.5	20.0	6.02e-01	0	44	102	524288	20	4965
2026-01-24 01:43:12.45	168.19	35.89	-29.8	-32.6	20.0	6.04e-01	0	44	102	524288	20	4994
2026-01-24 01:43:13.45	168.40	35.65	-29.8	-32.6	19.9	6.01e-01	0	44	102	524288	20	5002
2026-01-24 01:43:14.45	168.62	35.41	-29.6	-32.3	20.1	6.01e-01	0	44	102	524288	20	4888
2026-01-24 01:43:15.46	168.83	35.16	-29.6	-32.2	20.1	6.01e-01	0	44	102	524288	20	4869
2026-01-24 01:43:16.46	169.03	34.92	-29.7	-32.4	20.0	6.04e-01	0	44	102	524288	20	4938
2026-01-24 01:43:17.47	169.24	34.68	-29.9	-32.8	19.8	6.03e-01	0	44	102	524288	20	5078
2026-01-24 01:43:18.48	169.44	34.44	-29.8	-32.7	19.8	6.05e-01	0	44	102	524288	20	5041
2026-01-24 01:43:19.49	169.63	34.21	-29.8	-32.7	19.9	6.04e-01	0	44	102	524288	20	5014
2026-01-24 01:43:20.50	169.83	33.97	-29.8	-32.7	19.9	6.03e-01	0	44	102	524288	20	5011
2026-01-24 01:43:21.50	170.02	33.74	-29.9	-33.0	19.7	6.02e-01	0	44	102	524288	20	5124
2026-01-24 01:43:22.50	170.21	33.51	-29.9	-32.9	19.7	6.03e-01	0	44	102	524288	20	5094
2026-01-24 01:43:23.50	170.39	33.28	-29.9	-32.8	19.8	6.01e-01	0	44	102	524288	20	5076
2026-01-24 01:43:24.51	170.58	33.05	-29.8	-32.7	19.8	6.04e-01	0	44	102	524288	20	5022
2026-01-24 01:43:25.52	170.76	32.82	-28.3	-30.6	20.5	6.00e-01	0	44	102	524288	20	4667
2026-01-24 01:43:26.52	170.94	32.60	-29.2	-31.6	20.7	6.04e-01	0	44	102	524288	19	4768
2026-01-24 01:43:27.52	171.11	32.37	-29.1	-31.9	20.9	6.02e-01	0	44	102	524288	18	4979
2026-01-24 01:43:28.53	171.29	32.15	-29.2	-31.6	19.8	6.03e-01	0	44	102	524288	19	4746
2026-01-24 01:43:29.54	171.46	31.93	-29.2	-31.8	20.6	6.02e-01	0	44	102	524288	19	4824
2026-01-24 01:43:30.54	171.63	31.71	-29.3	-31.9	19.5	6.03e-01	0	44	102	524288	19	4881
2026-01-24 01:43:31.54	171.79	31.49	-29.5	-32.4	19.5	6.03e-01	0	44	102	524288	19	5024
2026-01-24 01:43:32.53	171.96	31.28	-29.4	-31.6	20.2	6.04e-01	0	44	102	524288	20	4664
2026-01-24 01:43:33.54	172.12	31.06	-29.1	-31.4	20.9	6.03e-01	0	44	102	524288	19	4702
2026-01-24 01:43:34.54	172.28	30.85	-29.1	-31.9	20.0	6.00e-01	0	44	102	524288	18	4966
2026-01-24 01:43:35.54	172.44	30.64	-29.3	-32.0	20.6	6.03e-01	0	44	102	524288	19	4888
2026-01-24 01:43:36.55	172.59	30.43	-29.4	-32.1	20.6	6.01e-01	0	44	102	524288	19	4918
2026-01-24 01:43:37.56	172.75	30.22	-29.3	-31.9	20.6	6.03e-01	0	44	102	524288	19	4877
2026-01-24 01:43:38.56	172.90	30.01	-29.3	-31.9	20.6	6.01e-01	0	44	102	524288	19	4868
2026-01-24 01:43:39.57	173.05	29.80	-29.3	-31.8	20.7	6.03e-01	0	44	102	524288	19	4842
2026-01-24 01:43:40.57	173.20	29.60	-29.3	-31.9	20.6	6.04e-01	0	44	102	524288	19	4871
2026-01-24 01:43:41.58	173.34	29.39	-29.3	-31.9	20.7	6.04e-01	0	44	102	524288	19	4854
2026-01-24 01:43:42.59	173.49	29.19	-29.3	-31.8	20.7	6.00e-01	0	44	102	524288	19	4844
2026-01-24 01:43:43.59	173.63	28.99	-29.4	-32.1	20.5	6.04e-01	0	44	102	524288	19	4938
2026-01-24 01:43:44.60	173.77	28.79	-29.5	-32.1	20.1	6.02e-01	0	44	102	524288	20	4826
2026-01-24 01:43:45.60	173.91	28.59	-29.9	-33.1	19.5	6.01e-01	0	44	102	524288	20	5187
2026-01-24 01:43:46.61	174.05	28.39	-30.0	-32.7	19.4	6.03e-01	0	44	102	524288	21	4915
2026-01-24 01:43:47.61	174.18	28.20	-29.7	-32.4	19.8	6.02e-01	0	44	102	524288	20	4951
2026-01-24 01:43:48.61	174.32	28.01	-29.5	-32.1	20.1	6.03e-01	0	44	102	524288	20	4834
2026-01-24 01:43:49.62	174.45	27.81	-29.6	-32.2	20.1	6.03e-01	0	44	102	524288	20	4868
2026-01-24 01:43:50.63	174.58	27.62	-29.8	-32.9	19.7	6.04e-01	0	44	102	524288	20	5095
2026-01-24 01:43:51.63	174.71	27.43	-29.9	-32.9	19.6	6.04e-01	0	44	102	524288	20	5127
2026-01-24 01:43:52.63	174.84	27.24	-29.8	-32.7	19.8	6.04e-01	0	44	102	524288	20	5024
2026-01-24 01:43:53.64	174.97	27.05	-29.7	-32.5	19.9	6.04e-01	0	44	102	524288	20	4954
2026-01-24 01:43:54.64	175.09	26.87	-29.7	-32.4	19.9	6.01e-01	0	44	102	524288	20	4944
2026-01-24 01:43:55.64	175.21	26.68	-29.8	-32.7	19.8	6.03e-01	0	44	102	524288	20	5027
2026-01-24 01:43:56.64	175.33	26.50	-29.8	-32.7	19.7	6.03e-01	0	44	102	524288	20	5043
2026-01-24 01:43:57.64	175.45	26.32	-29.8	-32.7	19.7	6.00e-01	0	44	102	524288	20	5053
2026-01-24 01:43:58.64	175.57	26.13	-29.8	-32.7	19.7	6.02e-01	0	44	102	524288	20	5054
2026-01-24 01:43:59.65	175.69	25.95	-29.7	-32.5	19.9	6.04e-01	0	44	102	524288	20	4961
2026-01-24 01:44:00.65	175.81	25.77	-29.7	-32.5	19.0	6.04e-01	0	44	102	524288	20	4957
2026-01-24 01:44:01.65	175.92	25.60	-29.7	-32.5	19.7	6.01e-01	0	44	102	524288	20	4954
2026-01-24 01:44:02.66	176.04	25.42	-29.9	-32.9	19.6	6.02e-01	0	44	102	524288	20	5111
2026-01-24 01:44:03.66	176.15	25.24	-29.9	-32.9	19.5	6.02e-01	0	44	102	524288	20	5129
2026-01-24 01:44:04.66	176.26	25.07	-29.8	-32.6	19.7	6.03e-01	0	44	102	524288	20	5021
2026-01-24 01:44:05.67	176.37	24.90	-29.7	-32.5	19.8	6.04e-01	0	44	102	524288	20	4981
2026-01-24 01:44:06.68	176.48	24.72	-29.7	-32.6	19.7	6.00e-01	0	44	102	524288	20	5026
2026-01-24 01:44:07.68	176.59	24.55	-29.8	-32.7	19.6	6.03e-01	0	44	102	524288	20	5063
2026-01-24 01:44:08.68	176.69	24.38	-29.8	-32.9	19.6	6.01e-01	0	44	102	524288	20	5107
2026-01-24 01:44:09.68	176.80	24.21	-29.9	-33.0	19.5	6.03e-01	0	44	102	524288	20	5153
2026-01-24 01:44:10.69	176.90	24.04	-29.9	-33.0	19.5	6.03e-01	0	44	102	524288	20	5139
2026-01-24 01:44:11.69	177.00	23.88	-29.9	-33.1	19.4	6.00e-01	0	44	102	524288	20	5185
2026-01-24 01:44:12.70	177.11	23.71	-30.0	-33.4	19.2	6.02e-01	0	44	102	524288	20	5314
2026-01-24 01:44:13.70	177.21	23.55	-30.0	-33.3	19.3	6.01e-01	0	44	102	524288	20	5288
2026-01-24 01:44:14.70	177.31	23.38	-29.9	-33.2	19.4	6.01e-01	0	44	102	524288	20	5228
2026-01-24 01:44:15.70	177.40	23.22	-29.9	-33.2	19.3	6.01e-01	0	44	102	524288	20	5238
2026-01-24 01:44:16.71	177.50	23.06	-30.1	-33.5	19.1	6.04e-01	0	44	102	524288	20	5347
2026-01-24 01:44:17.70	177.60	22.90	-30.0	-32.8	19.2	6.03e-01	0	44	102	524288	21	4983
2026-01-24 01:44:18.71	177.69	22.74	-29.8	-32.9	19.5	6.01e-01	0	44	102	524288	20	5144
2026-01-24 01:44:19.71	177.79	22.58	-29.8	-32.9	19.5	6.03e-01	0	44	102	524288	20	5146
2026-01-24 01:44:20.72	177.88	22.42	-29.9	-33.2	19.3	6.02e-01	0	44	102	524288	20	5236
2026-01-24 01:44:21.72	177.98	22.27	-29.9	-33.0	19.4	6.04e-01	0	44	102	524288	20	5164
2026-01-24 01:44:22.73	178.07	22.11	-29.9	-33.1	19.4	6.02e-01	0	44	102	524288	20	5212
2026-01-24 01:44:23.73	178.16	21.96	-30.1	-33.2	19.1	6.01e-01	0	44	102	524288	21	5146
2026-01-24 01:44:24.73	178.25	21.80	-30.0	-33.5	19.2	6.03e-01	0	44	102	524288	20	5337
2026-01-24 01:44:25.74	178.34	21.65	-30.1	-33.2	19.0	6.02e-01	0	44	102	524288	21	5119
2026-01-24 01:44:26.75	178.43	21.50	-30.4	-34.0	18.5	6.04e-01	0	44	102	524288	21	5451
2026-01-24 01:44:27.76	178.52	21.35	-30.2	-33.5	18.8	6.03e-01	0	44	102	524288	21	5225
2026-01-24 01:44:28.76	178.60	21.20	-30.1	-33.1	19.0	6.04e-01	0	44	102	524288	21	5092
2026-01-24 01:44:29.76	178.69	21.05	-30.0	-33.0	19.1	6.03e-01	0	44	102	524288	21	5051
2026-01-24 01:44:30.76	178.77	20.90	-30.1	-33.2	19.0	6.02e-01	0	44	102	524288	21	5121
2026-01-24 01:44:31.76	178.86	20.75	-30.0	-33.4	19.1	6.01e-01	0	44	102	524288	20	5324
2026-01-24 01:44:32.76	178.94	20.61	-30.1	-33.5	19.1	6.03e-01	0	44	102	524288	20	5373
2026-01-24 01:44:33.76	179.02	20.46	-30.0	-33.4	19.1	6.04e-01	0	44	102	524288	20	5341
2026-01-24 01:44:34.76	179.10	20.32	-29.9	-33.2	19.3	6.00e-01	0	44	102	524288	20	5231
2026-01-24 01:44:35.76	179.18	20.18	-30.0	-33.4	19.1	6.04e-01	0	44	102	524288	20	5320
2026-01-24 01:44:36.77	179.26	20.03	-29.9	-33.3	19.1	6.03e-01	0	44	102	524288	20	5297
2026-01-24 01:44:37.78	179.34	19.89	-29.8	-32.8	19.4	6.03e-01	0	44	102	524288	20	5118
2026-01-24 01:44:38.78	179.42	19.75	-29.5	-32.2	19.8	6.02e-01	0	44	102	524288	20	4910
2026-01-24 01:44:39.79	179.50	19.61	-29.5	-32.6	19.9	6.05e-01	0	44	102	524288	19	5141
2026-01-24 01:44:40.79	179.58	19.47	-29.5	-32.5	19.9	6.03e-01	0	44	102	524288	19	5113
2026-01-24 01:44:41.80	179.65	19.33	-29.6	-32.8	19.8	6.03e-01	0	44	102	524288	19	5228
2026-01-24 01:44:42.80	179.73	19.19	-29.5	-32.6	19.9	6.03e-01	0	44	102	524288	19	5154
2026-01-24 01:44:43.81	179.81	19.05	-29.4	-32.5	20.0	6.03e-01	0	44	102	524288	19	5124
2026-01-24 01:44:44.82	179.88	18.91	-29.4	-32.5	20.0	6.02e-01	0	44	102	524288	19	5111
2026-01-24 01:44:45.82	179.95	18.78	-29.5	-32.7	19.8	6.04e-01	0	44	102	524288	19	5202
2026-01-24 01:44:46.82	180.03	18.64	-29.5	-32.7	19.8	6.03e-01	0	44	102	524288	19	5194
2026-01-24 01:44:47.83	180.10	18.51	-29.6	-32.8	19.7	6.01e-01	0	44	102	524288	19	5249
2026-01-24 01:44:48.84	180.17	18.38	-29.7	-32.7	19.5	6.01e-01	0	44	102	524288	20	5110
2026-01-24 01:44:49.85	180.24	18.24	-29.9	-33.2	19.1	6.02e-01	0	44	102	524288	20	5299
2026-01-24 01:44:50.85	180.32	18.11	-29.8	-33.1	19.2	6.01e-01	0	44	102	524288	20	5242
2026-01-24 01:44:51.86	180.39	17.98	-29.8	-32.9	19.3	6.04e-01	0	44	102	524288	20	5155
2026-01-24 01:44:52.87	180.46	17.85	-29.8	-33.0	19.3	6.04e-01	0	44	102	524288	20	5188
2026-01-24 01:44:53.87	180.52	17.72	-29.7	-32.8	19.3	6.02e-01	0	44	102	524288	20	5130
2026-01-24 01:44:54.88	180.59	17.59	-29.7	-32.7	19.4	6.05e-01	0	44	102	524288	20	5102
2026-01-24 01:44:55.89	180.66	17.46	-29.8	-33.0	19.3	6.02e-01	0	44	102	524288	20	5187
2026-01-24 01:44:56.89	180.73	17.33	-29.7	-32.6	19.5	6.02e-01	0	44	102	524288	20	5059
2026-01-24 01:44:57.89	180.79	17.21	-28.1	-31.1	19.0	6.02e-01	0	44	102	524288	19	5089
2026-01-24 01:44:58.90	180.86	17.08	-29.5	-32.3	19.7	6.02e-01	0	44	102	524288	20	4936
2026-01-24 01:44:59.91	180.93	16.95	-29.6	-32.4	18.9	6.05e-01	0	44	102	524288	20	4992
2026-01-24 01:45:00.91	180.99	16.83	-29.7	-32.6	19.2	6.05e-01	0	44	102	524288	20	5066
2026-01-24 01:45:01.91	181.06	16.70	-29.6	-32.5	19.5	6.03e-01	0	44	102	524288	20	5034
2026-01-24 01:45:02.91	181.12	16.58	-29.7	-32.6	18.1	6.06e-01	0	44	102	524288	20	5063
2026-01-24 01:45:03.92	181.18	16.46	-29.9	-33.3	17.8	6.03e-01	0	44	102	524288	20	5320
2026-01-24 01:45:04.92	181.25	16.34	-29.8	-32.9	19.2	6.03e-01	0	44	102	524288	20	5177
2026-01-24 01:45:05.93	181.31	16.21	-29.6	-32.6	18.1	6.01e-01	0	44	102	524288	20	5051
2026-01-24 01:45:06.94	181.37	16.09	-29.6	-32.4	19.5	6.03e-01	0	44	102	524288	20	4990
2026-01-24 01:45:07.95	181.43	15.97	-29.7	-32.7	19.4	6.04e-01	0	44	102	524288	20	5080
2026-01-24 01:45:08.95	181.49	15.85	-29.6	-32.5	19.5	6.01e-01	0	44	102	524288	20	5013
2026-01-24 01:45:09.96	181.55	15.73	-29.8	-33.0	19.2	6.01e-01	0	44	102	524288	20	5203
2026-01-24 01:45:10.95	181.61	15.62	-29.6	-32.5	19.4	6.03e-01	0	44	102	524288	20	5025
2026-01-24 01:45:11.96	181.67	15.50	-29.6	-32.8	19.6	6.03e-01	0	44	102	524288	19	5238
2026-01-24 01:45:12.96	181.73	15.38	-29.5	-32.7	19.7	6.02e-01	0	44	102	524288	19	5178
2026-01-24 01:45:13.97	181.79	15.26	-29.6	-32.8	19.6	6.02e-01	0	44	102	524288	19	5249
2026-01-24 01:45:14.97	181.85	15.15	-29.5	-32.6	19.7	6.02e-01	0	44	102	524288	19	5167
2026-01-24 01:45:15.97	181.90	15.03	-29.5	-32.6	19.7	6.04e-01	0	44	102	524288	19	5170
2026-01-24 01:45:16.97	181.96	14.92	-29.6	-32.3	19.5	6.04e-01	0	44	102	524288	20	4959
2026-01-24 01:45:17.98	182.02	14.80	-29.7	-32.8	19.2	6.04e-01	0	44	102	524288	20	5135
2026-01-24 01:45:18.98	182.07	14.69	-29.6	-32.3	19.4	6.01e-01	0	44	102	524288	20	4958
2026-01-24 01:45:19.98	182.13	14.58	-29.5	-32.6	19.7	6.04e-01	0	44	102	524288	19	5150
2026-01-24 01:45:20.98	182.19	14.46	-29.6	-32.9	19.5	6.03e-01	0	44	102	524288	19	5258
2026-01-24 01:45:21.98	182.24	14.35	-29.7	-32.7	19.2	6.02e-01	0	44	102	524288	20	5086
2026-01-24 01:45:22.99	182.29	14.24	-29.8	-33.1	19.0	6.01e-01	0	44	102	524288	20	5239
2026-01-24 01:45:23.99	182.35	14.13	-29.7	-32.8	19.2	6.02e-01	0	44	102	524288	20	5112
2026-01-24 01:45:25.00	182.40	14.02	-29.6	-32.5	19.3	6.03e-01	0	44	102	524288	20	5019
2026-01-24 01:45:26.00	182.46	13.91	-29.6	-32.4	19.4	6.01e-01	0	44	102	524288	20	4993
2026-01-24 01:45:27.00	182.51	13.80	-28.7	-32.1	19.4	6.02e-01	0	44	102	524288	19	5307
2026-01-24 01:45:28.00	182.56	13.69	-29.7	-33.0	18.2	6.02e-01	0	44	102	524288	20	5246
2026-01-24 01:45:29.01	182.61	13.58	-29.6	-32.4	19.4	6.02e-01	0	44	102	524288	20	4987
2026-01-24 01:45:30.01	182.67	13.48	-29.5	-32.8	17.6	6.06e-01	0	44	102	524288	19	5220
2026-01-24 01:45:31.02	182.72	13.37	-29.6	-32.4	18.0	6.02e-01	0	44	102	524288	20	4979
2026-01-24 01:45:32.03	182.77	13.26	-29.6	-32.5	19.3	6.04e-01	0	44	102	524288	20	5020
2026-01-24 01:45:33.03	182.82	13.15	-29.6	-32.9	18.3	6.02e-01	0	44	102	524288	19	5265
2026-01-24 01:45:34.04	182.87	13.05	-29.6	-32.9	18.1	6.03e-01	0	44	102	524288	19	5259
2026-01-24 01:45:35.04	182.92	12.94	-29.5	-32.8	19.5	6.00e-01	0	44	102	524288	19	5232
2026-01-24 01:45:36.04	182.97	12.84	-29.6	-32.5	19.3	6.03e-01	0	44	102	524288	20	5006
2026-01-24 01:45:37.05	183.02	12.73	-29.9	-33.1	18.9	6.01e-01	0	44	102	524288	20	5262
2026-01-24 01:45:38.05	183.07	12.63	-29.7	-32.6	19.2	6.05e-01	0	44	102	524288	20	5076
2026-01-24 01:45:39.05	183.12	12.53	-29.6	-32.8	19.5	6.00e-01	0	44	102	524288	19	5249
2026-01-24 01:45:40.05	183.16	12.43	-29.5	-32.6	19.6	6.03e-01	0	44	102	524288	19	5172
2026-01-24 01:45:41.05	183.21	12.32	-29.5	-32.3	19.4	6.02e-01	0	44	102	524288	20	4973
2026-01-24 01:45:42.05	183.26	12.22	-29.6	-32.9	19.4	6.03e-01	0	44	102	524288	19	5287
2026-01-24 01:45:43.06	183.31	12.12	-29.6	-32.4	19.3	5.99e-01	0	44	102	524288	20	4990
2026-01-24 01:45:44.06	183.35	12.02	-29.6	-32.5	19.3	6.03e-01	0	44	102	524288	20	5012
2026-01-24 01:45:45.07	183.40	11.92	-29.6	-32.5	19.2	6.01e-01	0	44	102	524288	20	5045
2026-01-24 01:45:46.07	183.45	11.82	-29.7	-32.8	19.1	6.01e-01	0	44	102	524288	20	5148
2026-01-24 01:45:47.08	183.49	11.72	-29.6	-32.6	19.2	6.01e-01	0	44	102	524288	20	5065
2026-01-24 01:45:48.09	183.54	11.62	-29.8	-33.0	19.0	6.04e-01	0	44	102	524288	20	5207
2026-01-24 01:45:49.09	183.58	11.52	-29.7	-32.7	19.1	6.04e-01	0	44	102	524288	20	5113
2026-01-24 01:45:50.09	183.63	11.42	-29.6	-32.4	19.3	6.03e-01	0	44	102	524288	20	4996
2026-01-24 01:45:51.09	183.67	11.32	-29.6	-32.5	19.3	6.02e-01	0	44	102	524288	20	5032
2026-01-24 01:45:52.10	183.72	11.22	-29.6	-32.7	19.1	6.01e-01	0	44	102	524288	20	5094
2026-01-24 01:45:53.10	183.76	11.13	-29.7	-32.9	19.0	6.03e-01	0	44	102	524288	20	5168
2026-01-24 01:45:54.10	183.80	11.03	-29.7	-32.7	19.1	6.01e-01	0	44	102	524288	20	5102
2026-01-24 01:45:55.11	183.85	10.93	-29.7	-32.9	19.0	6.00e-01	0	44	102	524288	20	5192
2026-01-24 01:45:56.11	183.89	10.84	-29.9	-33.5	18.6	6.01e-01	0	44	102	524288	20	5401
2026-01-24 01:45:57.11	183.93	10.74	-29.8	-33.0	18.9	6.01e-01	0	44	102	524288	20	5206
2026-01-24 01:45:58.12	183.98	10.65	-29.7	-32.8	19.0	6.01e-01	0	44	102	524288	20	5154
2026-01-24 01:45:59.11	184.02	10.55	-29.6	-32.6	19.1	6.03e-01	0	44	102	524288	20	5067
2026-01-24 01:46:00.12	184.06	10.46	-29.7	-32.8	19.0	6.01e-01	0	44	102	524288	20	5135
2026-01-24 01:46:01.12	184.10	10.37	-29.7	-32.7	19.0	6.03e-01	0	44	102	524288	20	5115
2026-01-24 01:46:02.13	184.15	10.27	-29.7	-32.8	19.0	6.02e-01	0	44	102	524288	20	5143
2026-01-24 01:46:03.13	184.19	10.18	-29.8	-33.0	18.9	6.03e-01	0	44	102	524288	20	5216
2026-01-24 01:46:04.14	184.23	10.09	-29.7	-32.9	18.9	6.02e-01	0	44	102	524288	20	5172
2026-01-24 01:46:05.14	184.27	9.99	-29.8	-33.2	18.7	6.02e-01	0	44	102	524288	20	5310
2026-01-24 01:46:06.15	184.31	9.90	-29.8	-33.2	18.7	6.03e-01	0	44	102	524288	20	5320
2026-01-24 01:46:07.16	184.35	9.81	-29.8	-33.1	18.7	6.04e-01	0	44	102	524288	20	5274
2026-01-24 01:46:08.16	184.39	9.72	-29.8	-33.1	18.7	6.03e-01	0	44	102	524288	20	5263
2026-01-24 01:46:09.16	184.43	9.63	-29.9	-33.4	18.5	6.02e-01	0	44	102	524288	20	5398
2026-01-24 01:46:10.17	184.47	9.54	-30.0	-33.8	18.2	6.02e-01	0	44	102	524288	20	5553
2026-01-24 01:46:11.17	184.51	9.45	-29.9	-33.4	18.5	6.03e-01	0	44	102	524288	20	5402
2026-01-24 01:46:12.17	184.55	9.36	-29.8	-33.1	18.7	6.05e-01	0	44	102	524288	20	5287
2026-01-24 01:46:13.18	184.59	9.27	-30.0	-33.6	18.4	6.04e-01	0	44	102	524288	20	5455
2026-01-24 01:46:14.18	184.63	9.18	-29.9	-33.4	18.5	6.02e-01	0	44	102	524288	20	5406
2026-01-24 01:46:15.19	184.66	9.09	-29.9	-33.6	18.4	6.02e-01	0	44	102	524288	20	5462
2026-01-24 01:46:16.19	184.70	9.00	-30.1	-33.9	18.2	6.03e-01	0	44	102	524288	20	5585
2026-01-24 01:46:17.19	184.74	8.91	-30.0	-33.7	18.3	6.02e-01	0	44	102	524288	20	5526
2026-01-24 01:46:18.20	184.78	8.82	-30.1	-33.5	18.0	6.02e-01	0	44	102	524288	21	5330
2026-01-24 01:46:19.20	184.82	8.74	-30.2	-33.8	17.9	6.04e-01	0	44	102	524288	21	5466
2026-01-24 01:46:20.20	184.85	8.65	-30.3	-34.2	17.6	6.02e-01	0	44	102	524288	21	5624
2026-01-24 01:46:21.21	184.89	8.56	-30.3	-34.0	17.8	6.03e-01	0	44	102	524288	21	5533
2026-01-24 01:46:22.21	184.93	8.48	-30.3	-34.1	17.7	6.02e-01	0	44	102	524288	21	5562
2026-01-24 01:46:23.21	184.96	8.39	-30.5	-34.8	17.2	6.03e-01	0	44	102	524288	21	5882
2026-01-24 01:46:24.22	185.00	8.30	-30.4	-34.4	17.5	6.03e-01	0	44	102	524288	21	5692
2026-01-24 01:46:25.22	185.04	8.22	-30.3	-34.1	17.6	6.03e-01	0	44	102	524288	21	5595
2026-01-24 01:46:26.23	185.07	8.13	-30.2	-33.9	17.8	6.03e-01	0	44	102	524288	21	5481
2026-01-24 01:46:27.24	185.11	8.05	-30.2	-33.9	17.7	6.03e-01	0	44	102	524288	21	5521
2026-01-24 01:46:28.24	185.14	7.96	-30.2	-33.8	17.8	6.02e-01	0	44	102	524288	21	5451
2026-01-24 01:46:29.24	185.18	7.88	-30.1	-33.7	17.9	6.04e-01	0	44	102	524288	21	5411
2026-01-24 01:46:30.25	185.21	7.80	-30.1	-33.6	17.9	6.03e-01	0	44	102	524288	21	5395
2026-01-24 01:46:31.26	185.25	7.71	-30.2	-33.9	17.8	6.02e-01	0	44	102	524288	21	5492
2026-01-24 01:46:32.26	185.28	7.63	-30.2	-33.8	17.8	6.03e-01	0	44	102	524288	21	5485
2026-01-24 01:46:33.27	185.32	7.54	-30.2	-33.8	17.8	6.02e-01	0	44	102	524288	21	5457
2026-01-24 01:46:34.27	185.35	7.46	-30.3	-34.2	17.5	6.02e-01	0	44	102	524288	21	5631
2026-01-24 01:46:35.28	185.39	7.38	-28.7	-32.8	17.7	6.04e-01	0	44	102	524288	20	5776
2026-01-24 01:46:36.29	185.42	7.30	-30.7	-34.8	17.7	6.05e-01	0	44	102	524288	21	5797
2026-01-24 01:46:37.29	185.46	7.21	-30.2	-33.8	17.7	6.03e-01	0	44	102	524288	21	5485
2026-01-24 01:46:38.30	185.49	7.13	-32.3	-39.6	13.3	6.07e-01	0	44	102	524288	25	8353
2026-01-24 01:46:39.30	185.52	7.05	-33.6	-52.7	3.9	7.44e-01	0	44	104	524288	28	32388
2026-01-24 01:46:40.30	185.56	6.97	-33.6	-52.9	3.8	7.44e-01	0	44	104	524288	28	33363
2026-01-24 01:46:41.30	185.59	6.89	-34.0	-53.6	3.8	7.45e-01	0	44	104	524288	28	34275

#Closed at: 2026-01-24 01:46:42
#Recorded file [0 MB]: D:/data/31010_260124_043755.dat