passes_logs/2026/01/24/R2M6_AANII_01/R2M6_AANII_01__20260124_075159_NOAA_21_JPSS-2_rec.log

#Pass ID: 20260124_075159_NOAA 21 (JPSS-2)
#Satellite: NOAA 21 (JPSS-2)
#Configuration: NOAA 21
#almurnet v.1.7.20240730
#Start time: 2026-01-24 07:51:59

#Version: 2.2.20231116
#Station: R2M6_AANII_01
#Location: 30.233357 lon 59.946436 lat
#TLE: 1 54234U 22150A   26023.61190495  .00000215  00000+0  12293-3 0  9993
#TLE: 2 54234  98.7508 324.4078 0000700 226.6110 133.5008 14.19538339166032

#Time	Az	El	Level	Level2	SNR	BER	BlckErr	Temp	State	Recorded	gain1	gain2
2026-01-24 07:51:59.62	83.91	6.98	-32.0	-38.2	4.2	1.45e+00	0	41	0	0	25	7402
2026-01-24 07:52:00.61	83.79	7.04	-31.2	-36.1	4.5	1.40e+00	0	41	104	0	23	6313
2026-01-24 07:52:01.62	83.68	7.09	-31.1	-35.0	8.3	5.46e-02	0	41	0	0	23	5634
2026-01-24 07:52:02.62	83.57	7.15	-31.0	-34.7	8.5	4.55e-02	0	41	102	1048576	23	5519
2026-01-24 07:52:03.63	83.45	7.20	-31.0	-34.5	8.6	3.59e-02	0	41	102	1048576	23	5398
2026-01-24 07:52:04.63	83.34	7.26	-31.0	-34.7	8.6	4.02e-02	0	41	102	1048576	23	5488
2026-01-24 07:52:05.63	83.22	7.32	-31.0	-34.7	8.5	4.46e-02	0	41	102	1048576	23	5476
2026-01-24 07:52:06.63	83.11	7.37	-31.3	-35.6	7.9	5.60e-02	0	41	102	1048576	23	5888
2026-01-24 07:52:07.64	82.99	7.43	-31.1	-35.1	8.2	6.73e-02	0	41	102	1048576	23	5699
2026-01-24 07:52:08.65	82.88	7.48	-30.8	-34.0	9.0	2.92e-02	0	41	102	1048576	23	5194
2026-01-24 07:52:09.66	82.76	7.54	-30.5	-33.4	9.8	1.18e-02	0	41	102	1048576	22	5071
2026-01-24 07:52:10.66	82.64	7.60	-30.0	-32.7	10.6	5.87e-03	0	41	102	1048576	21	4883
2026-01-24 07:52:11.66	82.53	7.65	-29.6	-32.0	11.4	1.50e-03	0	41	102	1048576	20	4758
2026-01-24 07:52:12.67	82.41	7.71	-29.4	-31.4	11.8	5.77e-04	0	41	102	1048576	20	4539
2026-01-24 07:52:13.68	82.29	7.77	-29.3	-31.6	12.1	4.21e-04	0	41	102	1048576	19	4701
2026-01-24 07:52:14.68	82.17	7.82	-28.9	-30.6	12.7	7.85e-05	0	41	102	1048576	19	4385
2026-01-24 07:52:15.68	82.05	7.88	-29.0	-30.9	12.6	9.76e-05	0	41	102	1048576	19	4463
2026-01-24 07:52:16.69	81.93	7.93	-29.0	-30.9	12.6	1.07e-04	0	41	102	1048576	19	4475
2026-01-24 07:52:17.69	81.81	7.99	-28.9	-30.7	12.7	7.24e-05	0	41	102	1048576	19	4410
2026-01-24 07:52:18.70	81.69	8.05	-28.9	-30.6	12.8	7.55e-05	0	41	102	1048576	19	4383
2026-01-24 07:52:19.71	81.57	8.10	-28.9	-30.6	12.8	6.17e-05	0	41	102	1048576	19	4390
2026-01-24 07:52:20.71	81.44	8.16	-29.0	-30.8	12.7	7.40e-05	0	41	102	1048576	19	4446
2026-01-24 07:52:21.72	81.32	8.21	-28.9	-30.5	12.9	5.26e-05	0	41	102	1048576	19	4346
2026-01-24 07:52:22.71	81.20	8.27	-28.8	-30.4	12.9	5.64e-05	0	41	102	1048576	19	4326
2026-01-24 07:52:23.71	81.08	8.33	-28.8	-30.4	13.0	4.65e-05	0	41	102	1048576	19	4305
2026-01-24 07:52:24.71	80.95	8.38	-28.8	-30.5	12.9	4.19e-05	0	41	102	1048576	19	4332
2026-01-24 07:52:25.72	80.83	8.44	-28.9	-30.6	12.9	5.49e-05	0	42	102	1048576	19	4380
2026-01-24 07:52:26.73	80.70	8.50	-28.7	-30.6	13.1	3.28e-05	0	41	102	1048576	18	4482
2026-01-24 07:52:27.73	80.58	8.55	-28.8	-30.9	13.0	3.12e-05	0	41	102	1048576	18	4566
2026-01-24 07:52:28.73	80.45	8.61	-28.9	-31.1	12.9	4.88e-05	0	41	102	1048576	18	4623
2026-01-24 07:52:29.74	80.33	8.66	-28.9	-31.1	12.9	4.65e-05	0	42	102	1048576	18	4641
2026-01-24 07:52:30.75	80.20	8.72	-28.9	-31.0	12.9	6.33e-05	0	42	102	1048576	18	4605
2026-01-24 07:52:31.75	80.07	8.78	-28.8	-30.8	13.1	3.05e-05	0	42	102	1048576	18	4524
2026-01-24 07:52:32.76	79.94	8.83	-28.6	-30.4	13.3	2.21e-05	0	42	102	1048576	18	4417
2026-01-24 07:52:33.75	79.82	8.89	-28.7	-30.7	13.1	2.82e-05	0	42	102	1048576	18	4491
2026-01-24 07:52:34.75	79.69	8.94	-28.8	-30.8	13.1	2.36e-05	0	42	102	1048576	18	4526
2026-01-24 07:52:35.75	79.56	9.00	-28.7	-30.4	13.3	1.83e-05	0	42	102	1048576	18	4423
2026-01-24 07:52:36.76	79.43	9.06	-28.7	-30.7	13.1	2.36e-05	0	42	102	1048576	18	4504
2026-01-24 07:52:37.76	79.30	9.11	-28.7	-30.6	13.2	2.89e-05	0	42	102	1048576	18	4458
2026-01-24 07:52:38.76	79.17	9.17	-28.7	-30.4	13.4	2.13e-05	0	42	102	1048576	18	4414
2026-01-24 07:52:39.76	79.04	9.22	-28.5	-30.1	13.5	9.90e-06	0	42	102	1048576	18	4322
2026-01-24 07:52:40.76	78.91	9.28	-28.6	-30.4	13.4	1.67e-05	0	42	102	1048576	18	4397
2026-01-24 07:52:41.76	78.78	9.33	-28.5	-30.2	13.5	1.83e-05	0	42	102	1048576	18	4338
2026-01-24 07:52:42.76	78.64	9.39	-28.4	-29.8	13.7	6.10e-06	0	42	102	1048576	18	4236
2026-01-24 07:52:43.77	78.51	9.45	-28.5	-30.1	13.5	4.50e-06	0	42	102	1048576	18	4322
2026-01-24 07:52:44.78	78.38	9.50	-28.5	-30.1	13.6	7.60e-06	0	42	102	1048576	18	4311
2026-01-24 07:52:45.78	78.24	9.56	-28.6	-30.3	13.5	1.29e-05	0	42	102	1048576	18	4362
2026-01-24 07:52:46.79	78.11	9.61	-28.6	-30.2	13.5	1.06e-05	0	42	102	1048576	18	4349
2026-01-24 07:52:47.79	77.97	9.67	-28.6	-30.3	13.5	1.52e-05	0	42	102	1048576	18	4368
2026-01-24 07:52:48.79	77.84	9.72	-28.6	-30.2	13.5	1.06e-05	0	42	102	1048576	18	4351
2026-01-24 07:52:49.79	77.70	9.78	-28.4	-29.9	13.7	8.30e-06	0	42	102	1048576	18	4267
2026-01-24 07:52:50.79	77.56	9.84	-28.3	-29.7	13.9	4.50e-06	0	42	102	1048576	18	4191
2026-01-24 07:52:51.79	77.43	9.89	-28.4	-29.8	13.8	5.30e-06	0	42	102	1048576	18	4228
2026-01-24 07:52:52.80	77.29	9.95	-28.4	-29.8	13.8	4.50e-06	0	42	102	1048576	18	4216
2026-01-24 07:52:53.81	77.15	10.00	-28.4	-29.8	13.8	1.50e-06	0	42	102	1048576	18	4229
2026-01-24 07:52:54.81	77.01	10.06	-28.4	-29.8	13.8	3.00e-06	0	42	102	1048576	18	4219
2026-01-24 07:52:55.81	76.87	10.11	-28.4	-29.8	13.8	6.10e-06	0	42	102	1048576	18	4236
2026-01-24 07:52:56.82	76.73	10.17	-28.4	-29.9	13.7	6.10e-06	0	42	102	1048576	18	4258
2026-01-24 07:52:57.82	76.59	10.22	-28.5	-30.1	13.7	2.20e-06	0	42	102	1048576	18	4300
2026-01-24 07:52:58.82	76.45	10.28	-28.6	-30.2	13.6	6.10e-06	0	42	102	1048576	18	4352
2026-01-24 07:52:59.83	76.31	10.34	-28.4	-29.8	13.8	1.50e-06	0	42	102	1048576	18	4226
2026-01-24 07:53:00.83	76.17	10.39	-28.3	-29.6	13.9	1.50e-06	0	42	102	1048576	18	4177
2026-01-24 07:53:01.84	76.02	10.45	-28.5	-29.9	13.8	1.50e-06	0	42	102	1048576	18	4261
2026-01-24 07:53:02.84	75.88	10.50	-28.4	-29.8	13.8	6.80e-06	0	42	102	1048576	18	4235
2026-01-24 07:53:03.85	75.73	10.56	-28.4	-29.7	13.9	4.50e-06	0	42	102	1048576	18	4196
2026-01-24 07:53:04.86	75.59	10.61	-28.3	-29.9	14.1	2.20e-06	0	42	102	1048576	17	4360
2026-01-24 07:53:05.86	75.44	10.67	-28.5	-30.6	13.7	6.80e-06	0	42	102	1048576	17	4554
2026-01-24 07:53:06.87	75.30	10.72	-28.5	-30.5	13.7	3.00e-06	0	42	102	1048576	17	4540
2026-01-24 07:53:07.88	75.15	10.78	-28.6	-30.7	13.6	6.80e-06	0	42	102	1048576	17	4601
2026-01-24 07:53:08.89	75.00	10.83	-28.6	-30.8	13.5	1.29e-05	0	42	102	1048576	17	4641
2026-01-24 07:53:09.89	74.86	10.89	-28.7	-31.0	13.4	1.29e-05	0	42	102	1048576	17	4703
2026-01-24 07:53:10.90	74.71	10.94	-28.7	-31.0	13.4	1.14e-05	0	42	102	1048576	17	4682
2026-01-24 07:53:11.90	74.56	11.00	-28.8	-31.2	13.3	1.29e-05	0	42	102	1048576	17	4750
2026-01-24 07:53:12.90	74.41	11.05	-28.8	-31.2	13.3	1.67e-05	0	42	102	1048576	17	4751
2026-01-24 07:53:13.90	74.26	11.11	-28.8	-31.2	13.4	1.83e-05	0	42	102	1048576	17	4744
2026-01-24 07:53:14.90	74.11	11.16	-28.8	-31.3	13.3	2.36e-05	0	42	102	1048576	17	4780
2026-01-24 07:53:15.90	73.96	11.21	-28.7	-31.1	13.5	2.21e-05	0	42	102	1048576	17	4704
2026-01-24 07:53:16.91	73.81	11.27	-28.7	-30.9	13.5	1.52e-05	0	42	102	1048576	17	4649
2026-01-24 07:53:17.91	73.66	11.32	-28.6	-30.8	13.6	5.30e-06	0	42	102	1048576	17	4627
2026-01-24 07:53:18.92	73.51	11.38	-28.8	-31.1	13.4	1.98e-05	0	42	102	1048576	17	4730
2026-01-24 07:53:19.92	73.35	11.43	-28.6	-30.8	13.6	5.30e-06	0	42	102	1048576	17	4625
2026-01-24 07:53:20.93	73.20	11.49	-28.8	-31.3	13.3	1.52e-05	0	42	102	1048576	17	4793
2026-01-24 07:53:21.93	73.05	11.54	-28.8	-31.2	13.4	2.28e-05	0	43	102	1048576	17	4753
2026-01-24 07:53:22.94	72.89	11.59	-28.9	-31.6	13.1	2.59e-05	0	42	102	1048576	17	4876
2026-01-24 07:53:23.94	72.74	11.65	-28.9	-31.4	13.2	2.44e-05	0	42	102	1048576	17	4827
2026-01-24 07:53:24.95	72.58	11.70	-28.8	-31.1	13.4	1.06e-05	0	42	102	1048576	17	4725
2026-01-24 07:53:25.95	72.42	11.75	-28.6	-30.8	13.6	6.80e-06	0	42	102	1048576	17	4637
2026-01-24 07:53:26.96	72.27	11.81	-28.7	-31.0	13.5	9.10e-06	0	42	102	1048576	17	4692
2026-01-24 07:53:27.95	72.11	11.86	-28.6	-30.8	13.7	1.06e-05	0	42	102	1048576	17	4613
2026-01-24 07:53:28.95	71.95	11.91	-28.5	-30.6	13.8	4.50e-06	0	43	102	1048576	17	4547
2026-01-24 07:53:29.95	71.79	11.97	-28.5	-30.5	13.9	5.30e-06	0	43	102	1048576	17	4514
2026-01-24 07:53:30.96	71.63	12.02	-28.6	-30.7	13.7	1.06e-05	0	42	102	1048576	17	4591
2026-01-24 07:53:31.96	71.48	12.07	-28.5	-30.5	13.8	8.30e-06	0	43	102	1048576	17	4528
2026-01-24 07:53:32.96	71.32	12.13	-28.5	-30.4	13.9	2.20e-06	0	42	102	1048576	17	4479
2026-01-24 07:53:33.97	71.15	12.18	-28.5	-30.4	13.9	5.30e-06	0	43	102	1048576	17	4489
2026-01-24 07:53:34.98	70.99	12.23	-28.4	-30.3	14.0	1.06e-05	0	43	102	1048576	17	4466
2026-01-24 07:53:35.97	70.83	12.28	-28.3	-30.1	14.1	7.00e-07	0	42	102	1048576	17	4392
2026-01-24 07:53:36.98	70.67	12.34	-28.4	-30.3	14.0	2.20e-06	0	42	102	1048576	17	4453
2026-01-24 07:53:37.98	70.50	12.39	-28.2	-29.9	14.3	5.30e-06	0	42	102	1048576	17	4332
2026-01-24 07:53:38.99	70.34	12.44	-28.1	-29.6	14.4	0.00e+00	0	43	102	1048576	17	4268
2026-01-24 07:53:39.99	70.18	12.49	-28.2	-29.8	14.3	0.00e+00	0	43	102	1048576	17	4318
2026-01-24 07:53:40.99	70.01	12.54	-28.1	-29.5	14.4	4.50e-06	0	42	102	1048576	17	4233
2026-01-24 07:53:42.00	69.84	12.60	-28.2	-29.7	14.3	7.00e-07	0	43	102	1048576	17	4298
2026-01-24 07:53:43.00	69.68	12.65	-28.2	-29.9	14.3	1.50e-06	0	43	102	1048576	17	4334
2026-01-24 07:53:44.01	69.51	12.70	-28.4	-30.1	14.1	3.00e-06	0	42	102	1048576	17	4417
2026-01-24 07:53:45.01	69.34	12.75	-28.5	-30.5	13.9	3.00e-06	0	43	102	1048576	17	4520
2026-01-24 07:53:46.01	69.18	12.80	-28.6	-30.7	13.8	3.00e-06	0	43	102	1048576	17	4597
2026-01-24 07:53:47.02	69.01	12.85	-28.6	-30.6	13.8	3.00e-06	0	43	102	1048576	17	4558
2026-01-24 07:53:48.03	68.84	12.91	-28.5	-30.4	14.0	1.50e-06	0	43	102	1048576	17	4482
2026-01-24 07:53:49.03	68.67	12.96	-28.5	-30.4	13.9	3.00e-06	0	43	102	1048576	17	4500
2026-01-24 07:53:50.02	68.50	13.01	-28.6	-30.8	13.8	5.30e-06	0	42	102	1048576	17	4601
2026-01-24 07:53:51.03	68.33	13.06	-28.5	-30.4	14.0	3.00e-06	0	43	102	1048576	17	4486
2026-01-24 07:53:52.03	68.16	13.11	-28.3	-30.1	14.2	1.50e-06	0	43	102	1048576	17	4399
2026-01-24 07:53:53.03	67.99	13.16	-28.4	-30.3	14.0	1.50e-06	0	43	102	1048576	17	4462
2026-01-24 07:53:54.04	67.81	13.21	-28.5	-30.6	13.9	3.80e-06	0	43	102	1048576	17	4545
2026-01-24 07:53:55.04	67.64	13.26	-28.4	-30.1	14.1	1.50e-06	0	43	102	1048576	17	4407
2026-01-24 07:53:56.05	67.46	13.31	-28.3	-29.9	14.3	7.00e-07	0	43	102	1048576	17	4347
2026-01-24 07:53:57.05	67.29	13.36	-28.5	-30.4	14.0	7.00e-07	0	43	102	1048576	17	4489
2026-01-24 07:53:58.06	67.11	13.41	-28.3	-30.0	14.3	0.00e+00	0	43	102	1048576	17	4365
2026-01-24 07:53:59.06	66.94	13.46	-28.3	-30.0	14.3	7.00e-07	0	43	102	1048576	17	4364
2026-01-24 07:54:00.06	66.76	13.51	-28.4	-30.1	14.2	2.20e-06	0	43	102	1048576	17	4403
2026-01-24 07:54:01.07	66.59	13.55	-28.3	-30.0	14.3	2.20e-06	0	43	102	1048576	17	4362
2026-01-24 07:54:02.06	66.41	13.60	-28.2	-29.8	14.4	0.00e+00	0	43	102	1048576	17	4310
2026-01-24 07:54:03.06	66.23	13.65	-28.3	-29.9	14.3	0.00e+00	0	43	102	1048576	17	4330
2026-01-24 07:54:04.06	66.05	13.70	-28.2	-29.6	14.5	1.50e-06	0	43	102	1048576	17	4262
2026-01-24 07:54:05.07	65.87	13.75	-28.2	-29.8	14.4	0.00e+00	0	43	102	1048576	17	4313
2026-01-24 07:54:06.07	65.70	13.80	-28.2	-29.7	14.4	1.50e-06	0	43	102	1048576	17	4286
2026-01-24 07:54:07.07	65.52	13.84	-28.3	-29.9	14.3	7.00e-07	0	43	102	1048576	17	4336
2026-01-24 07:54:08.08	65.33	13.89	-28.2	-29.8	14.4	1.50e-06	0	43	102	1048576	17	4314
2026-01-24 07:54:09.09	65.15	13.94	-28.2	-29.7	14.4	7.00e-07	0	43	102	1048576	17	4272
2026-01-24 07:54:10.09	64.97	13.99	-28.3	-30.0	14.3	7.00e-07	0	43	102	1048576	17	4372
2026-01-24 07:54:11.10	64.78	14.03	-28.1	-29.5	14.6	0.00e+00	0	43	102	1048576	17	4210
2026-01-24 07:54:12.11	64.60	14.08	-28.1	-29.5	14.6	0.00e+00	0	43	102	1048576	17	4235
2026-01-24 07:54:13.11	64.42	14.13	-28.2	-29.7	14.5	7.00e-07	0	43	102	1048576	17	4283
2026-01-24 07:54:14.11	64.23	14.17	-28.1	-29.6	14.6	7.00e-07	0	43	102	1048576	17	4246
2026-01-24 07:54:15.11	64.05	14.22	-28.2	-29.6	14.5	7.00e-07	0	43	102	1048576	17	4263
2026-01-24 07:54:16.12	63.86	14.27	-28.1	-29.5	14.6	0.00e+00	0	43	102	1048576	17	4228
2026-01-24 07:54:17.13	63.67	14.31	-28.2	-29.7	14.5	0.00e+00	0	43	102	1048576	17	4272
2026-01-24 07:54:18.13	63.49	14.36	-28.0	-29.3	14.7	0.00e+00	0	43	102	1048576	17	4166
2026-01-24 07:54:19.14	63.30	14.40	-28.2	-29.6	14.5	0.00e+00	0	43	102	1048576	17	4256
2026-01-24 07:54:20.14	63.11	14.45	-28.2	-29.6	14.5	0.00e+00	0	43	102	1048576	17	4254
2026-01-24 07:54:21.15	62.92	14.49	-28.2	-29.6	14.5	7.00e-07	0	43	102	1048576	17	4263
2026-01-24 07:54:22.15	62.73	14.54	-28.3	-29.9	14.4	0.00e+00	0	43	102	1048576	17	4328
2026-01-24 07:54:23.15	62.55	14.58	-28.3	-29.9	14.4	1.50e-06	0	43	102	1048576	17	4339
2026-01-24 07:54:24.15	62.36	14.63	-28.3	-30.0	14.3	7.00e-07	0	43	102	1048576	17	4365
2026-01-24 07:54:25.15	62.17	14.67	-28.3	-29.9	14.4	0.00e+00	0	43	102	1048576	17	4332
2026-01-24 07:54:26.16	61.97	14.72	-28.3	-29.8	14.4	0.00e+00	0	43	102	1048576	17	4310
2026-01-24 07:54:27.16	61.78	14.76	-28.3	-29.8	14.4	7.00e-07	0	43	102	1048576	17	4319
2026-01-24 07:54:28.17	61.59	14.80	-28.1	-29.6	14.6	7.00e-07	0	43	102	1048576	17	4239
2026-01-24 07:54:29.17	61.40	14.85	-28.2	-29.7	14.5	7.00e-07	0	43	102	1048576	17	4271
2026-01-24 07:54:30.17	61.20	14.89	-28.0	-29.2	14.8	0.00e+00	0	43	102	1048576	17	4140
2026-01-24 07:54:31.18	61.01	14.93	-28.0	-29.2	14.8	0.00e+00	0	43	102	1048576	17	4131
2026-01-24 07:54:32.18	60.81	14.97	-28.1	-29.4	14.7	0.00e+00	0	43	102	1048576	17	4195
2026-01-24 07:54:33.18	60.62	15.02	-28.1	-29.5	14.6	0.00e+00	0	43	102	1048576	17	4224
2026-01-24 07:54:34.19	60.42	15.06	-28.2	-29.8	14.5	0.00e+00	0	43	102	1048576	17	4297
2026-01-24 07:54:35.19	60.23	15.10	-28.2	-29.8	14.5	1.50e-06	0	43	102	1048576	17	4300
2026-01-24 07:54:36.20	60.03	15.14	-28.2	-29.6	14.6	7.00e-07	0	43	102	1048576	17	4254
2026-01-24 07:54:37.20	59.83	15.18	-28.1	-29.5	14.7	3.80e-06	0	43	102	1048576	17	4232
2026-01-24 07:54:38.20	59.63	15.22	-28.1	-29.5	14.7	7.00e-07	0	43	102	1048576	17	4220
2026-01-24 07:54:39.20	59.43	15.26	-28.1	-29.4	14.7	0.00e+00	0	43	102	1048576	17	4187
2026-01-24 07:54:40.21	59.23	15.30	-28.1	-29.4	14.7	3.80e-06	0	43	102	1048576	17	4201
2026-01-24 07:54:41.21	59.04	15.34	-28.1	-29.3	14.8	0.00e+00	0	43	102	1048576	17	4164
2026-01-24 07:54:42.21	58.84	15.38	-28.2	-29.7	14.6	7.00e-07	0	43	102	1048576	17	4280
2026-01-24 07:54:43.21	58.64	15.42	-28.2	-29.6	14.6	2.20e-06	0	43	102	1048576	17	4250
2026-01-24 07:54:44.22	58.43	15.46	-28.1	-29.5	14.7	0.00e+00	0	43	102	1048576	17	4228
2026-01-24 07:54:45.22	58.23	15.50	-28.2	-29.8	14.5	0.00e+00	0	43	102	1048576	17	4295
2026-01-24 07:54:46.22	58.03	15.54	-28.2	-29.7	14.6	0.00e+00	0	43	102	1048576	17	4267
2026-01-24 07:54:47.22	57.83	15.58	-28.1	-29.5	14.7	7.00e-07	0	43	102	1048576	17	4224
2026-01-24 07:54:48.22	57.63	15.61	-28.1	-29.5	14.7	0.00e+00	0	43	102	1048576	17	4222
2026-01-24 07:54:49.23	57.42	15.65	-28.2	-29.7	14.6	1.50e-06	0	43	102	1048576	17	4265
2026-01-24 07:54:50.23	57.22	15.69	-28.3	-29.8	14.5	1.50e-06	0	43	102	1048576	17	4308
2026-01-24 07:54:51.24	57.01	15.72	-28.2	-29.7	14.6	7.00e-07	0	43	102	1048576	17	4285
2026-01-24 07:54:52.24	56.81	15.76	-28.3	-29.9	14.5	0.00e+00	0	43	102	1048576	17	4340
2026-01-24 07:54:53.24	56.60	15.80	-28.4	-30.2	14.3	7.00e-07	0	43	102	1048576	17	4402
2026-01-24 07:54:54.25	56.39	15.83	-28.3	-29.8	14.5	7.00e-07	0	43	102	1048576	17	4310
2026-01-24 07:54:55.26	56.18	15.87	-28.3	-29.9	14.5	7.00e-07	0	43	102	1048576	17	4336
2026-01-24 07:54:56.26	55.98	15.90	-28.2	-29.6	14.7	0.00e+00	0	43	102	1048576	17	4252
2026-01-24 07:54:57.27	55.77	15.94	-28.2	-29.7	14.6	0.00e+00	0	43	102	1048576	17	4278
2026-01-24 07:54:58.27	55.56	15.97	-28.1	-29.5	14.7	0.00e+00	0	43	102	1048576	17	4231
2026-01-24 07:54:59.28	55.35	16.01	-28.2	-29.6	14.7	0.00e+00	0	43	102	1048576	17	4246
2026-01-24 07:55:00.28	55.14	16.04	-28.4	-30.1	14.3	7.00e-07	0	43	102	1048576	17	4399
2026-01-24 07:55:01.29	54.93	16.08	-28.5	-30.3	14.3	1.50e-06	0	43	102	1048576	17	4449
2026-01-24 07:55:02.29	54.72	16.11	-28.3	-29.9	14.5	7.00e-07	0	43	102	1048576	17	4333
2026-01-24 07:55:03.30	54.51	16.14	-28.2	-29.8	14.5	0.00e+00	0	43	102	1048576	17	4287
2026-01-24 07:55:04.31	54.30	16.18	-28.2	-29.6	14.7	0.00e+00	0	43	102	1048576	17	4230
2026-01-24 07:55:05.31	54.09	16.21	-28.2	-29.6	14.7	0.00e+00	0	43	102	1048576	17	4231
2026-01-24 07:55:06.32	53.87	16.24	-28.2	-29.6	14.6	0.00e+00	0	43	102	1048576	17	4252
2026-01-24 07:55:07.32	53.66	16.27	-28.3	-29.8	14.6	0.00e+00	0	43	102	1048576	17	4293
2026-01-24 07:55:08.32	53.45	16.30	-28.5	-30.3	14.3	2.20e-06	0	43	102	1048576	17	4449
2026-01-24 07:55:09.32	53.23	16.33	-28.2	-29.8	14.6	7.00e-07	0	43	102	1048576	17	4287
2026-01-24 07:55:10.33	53.02	16.36	-28.1	-29.4	14.8	7.00e-07	0	43	102	1048576	17	4197
2026-01-24 07:55:11.33	52.81	16.39	-28.1	-29.4	14.8	0.00e+00	0	43	102	1048576	17	4180
2026-01-24 07:55:12.33	52.59	16.42	-28.1	-29.4	14.8	0.00e+00	0	43	102	1048576	17	4174
2026-01-24 07:55:13.33	52.38	16.45	-28.1	-29.5	14.8	0.00e+00	0	43	102	1048576	17	4221
2026-01-24 07:55:14.34	52.16	16.48	-28.1	-29.4	14.8	7.00e-07	0	43	102	1048576	17	4192
2026-01-24 07:55:15.33	51.95	16.51	-28.0	-29.2	14.9	0.00e+00	0	43	102	1048576	17	4141
2026-01-24 07:55:16.34	51.73	16.54	-28.0	-29.2	14.9	0.00e+00	0	43	102	1048576	17	4124
2026-01-24 07:55:17.35	51.51	16.56	-28.1	-29.5	14.8	0.00e+00	0	43	102	1048576	17	4206
2026-01-24 07:55:18.36	51.29	16.59	-28.2	-29.6	14.7	2.20e-06	0	43	102	1048576	17	4251
2026-01-24 07:55:19.36	51.08	16.62	-28.0	-29.2	14.9	0.00e+00	0	43	102	1048576	17	4146
2026-01-24 07:55:20.36	50.86	16.65	-27.9	-29.0	15.0	0.00e+00	0	43	102	1048576	17	4089
2026-01-24 07:55:21.37	50.64	16.67	-27.9	-28.9	15.1	0.00e+00	0	43	102	1048576	17	4052
2026-01-24 07:55:22.37	50.42	16.70	-27.9	-29.0	15.1	0.00e+00	0	43	102	1048576	17	4074
2026-01-24 07:55:23.37	50.20	16.72	-27.7	-29.1	15.3	0.00e+00	0	43	102	1048576	16	4206
2026-01-24 07:55:24.38	49.98	16.75	-27.8	-29.1	15.3	0.00e+00	0	43	102	1048576	16	4218
2026-01-24 07:55:25.37	49.76	16.77	-27.7	-29.1	15.3	0.00e+00	0	43	102	1048576	16	4193
2026-01-24 07:55:26.38	49.54	16.80	-27.8	-29.1	15.3	0.00e+00	0	43	102	1048576	16	4213
2026-01-24 07:55:27.38	49.32	16.82	-27.8	-29.2	15.2	0.00e+00	0	43	102	1048576	16	4241
2026-01-24 07:55:28.38	49.10	16.84	-27.8	-29.3	15.2	0.00e+00	0	43	102	1048576	16	4264
2026-01-24 07:55:29.39	48.88	16.87	-27.8	-29.3	15.1	0.00e+00	0	43	102	1048576	16	4269
2026-01-24 07:55:30.39	48.66	16.89	-27.9	-29.3	15.2	0.00e+00	0	43	102	1048576	16	4272
2026-01-24 07:55:31.39	48.44	16.91	-27.9	-29.3	15.2	0.00e+00	0	43	102	1048576	16	4270
2026-01-24 07:55:32.40	48.21	16.93	-27.9	-29.5	15.1	0.00e+00	0	43	102	1048576	16	4323
2026-01-24 07:55:33.41	47.99	16.95	-27.9	-29.4	15.1	0.00e+00	0	43	102	1048576	16	4274
2026-01-24 07:55:34.41	47.77	16.97	-27.9	-29.5	15.1	0.00e+00	0	43	102	1048576	16	4316
2026-01-24 07:55:35.41	47.55	17.00	-28.0	-29.8	14.9	0.00e+00	0	43	102	1048576	16	4404
2026-01-24 07:55:36.42	47.32	17.02	-28.1	-30.0	14.8	0.00e+00	0	43	102	1048576	16	4451
2026-01-24 07:55:37.43	47.10	17.03	-28.1	-30.0	14.8	7.00e-07	0	43	102	1048576	16	4457
2026-01-24 07:55:38.43	46.87	17.05	-28.2	-30.1	14.7	7.00e-07	0	43	102	1048576	16	4478
2026-01-24 07:55:39.43	46.65	17.07	-28.2	-30.1	14.7	0.00e+00	0	43	102	1048576	16	4485
2026-01-24 07:55:40.44	46.42	17.09	-28.2	-30.1	14.7	0.00e+00	0	43	102	1048576	16	4489
2026-01-24 07:55:41.44	46.20	17.11	-28.1	-29.9	14.8	7.00e-07	0	43	102	1048576	16	4442
2026-01-24 07:55:42.44	45.97	17.13	-28.1	-29.9	14.8	0.00e+00	0	43	102	1048576	16	4443
2026-01-24 07:55:43.45	45.75	17.14	-28.1	-30.0	14.8	7.00e-07	0	43	102	1048576	16	4455
2026-01-24 07:55:44.45	45.52	17.16	-28.0	-29.8	14.9	0.00e+00	0	43	102	1048576	16	4402
2026-01-24 07:55:45.46	45.29	17.18	-28.1	-29.9	14.8	0.00e+00	0	43	102	1048576	16	4423
2026-01-24 07:55:46.46	45.07	17.19	-28.1	-29.8	14.9	7.00e-07	0	43	102	1048576	16	4412
2026-01-24 07:55:47.46	44.84	17.21	-28.0	-29.6	15.0	0.00e+00	0	43	102	1048576	16	4359
2026-01-24 07:55:48.47	44.62	17.22	-28.1	-29.9	14.9	0.00e+00	0	43	102	1048576	16	4423
2026-01-24 07:55:49.46	44.39	17.23	-28.1	-29.8	14.9	0.00e+00	0	43	102	1048576	16	4416
2026-01-24 07:55:50.47	44.16	17.25	-27.9	-29.6	15.0	0.00e+00	0	43	102	1048576	16	4339
2026-01-24 07:55:51.47	43.94	17.26	-28.0	-29.7	14.9	0.00e+00	0	43	102	1048576	16	4388
2026-01-24 07:55:52.48	43.71	17.27	-28.0	-29.7	15.0	0.00e+00	0	43	102	1048576	16	4365
2026-01-24 07:55:53.48	43.48	17.29	-28.1	-29.9	14.9	0.00e+00	0	43	102	1048576	16	4427
2026-01-24 07:55:54.48	43.25	17.30	-28.1	-30.0	14.8	0.00e+00	0	43	102	1048576	16	4445
2026-01-24 07:55:55.49	43.03	17.31	-28.1	-29.9	14.9	0.00e+00	0	43	102	1048576	16	4419
2026-01-24 07:55:56.49	42.80	17.32	-28.1	-29.8	14.9	0.00e+00	0	43	102	1048576	16	4418
2026-01-24 07:55:57.49	42.57	17.33	-28.1	-29.9	14.8	0.00e+00	0	43	102	1048576	16	4443
2026-01-24 07:55:58.49	42.34	17.34	-28.0	-29.7	14.9	0.00e+00	0	43	102	1048576	16	4386
2026-01-24 07:55:59.50	42.11	17.35	-28.0	-29.7	14.9	0.00e+00	0	43	102	1048576	16	4388
2026-01-24 07:56:00.50	41.88	17.36	-28.1	-29.9	14.9	0.00e+00	0	43	102	1048576	16	4432
2026-01-24 07:56:01.50	41.66	17.37	-28.2	-30.1	14.7	0.00e+00	0	43	102	1048576	16	4480
2026-01-24 07:56:02.51	41.43	17.38	-28.2	-30.2	14.7	0.00e+00	0	43	102	1048576	16	4521
2026-01-24 07:56:03.51	41.20	17.39	-28.3	-30.4	14.6	7.00e-07	0	43	102	1048576	16	4578
2026-01-24 07:56:04.52	40.97	17.39	-28.3	-30.5	14.5	7.00e-07	0	43	102	1048576	16	4602
2026-01-24 07:56:05.52	40.74	17.40	-28.3	-30.4	14.5	7.00e-07	0	43	102	1048576	16	4597
2026-01-24 07:56:06.53	40.51	17.41	-28.5	-30.7	14.4	0.00e+00	0	43	102	1048576	16	4686
2026-01-24 07:56:07.53	40.28	17.41	-28.3	-29.9	14.6	0.00e+00	0	43	102	1048576	17	4330
2026-01-24 07:56:08.54	40.05	17.42	-28.3	-29.8	14.6	7.00e-07	0	43	102	1048576	17	4286
2026-01-24 07:56:09.55	39.82	17.42	-28.1	-29.5	14.8	0.00e+00	0	43	102	1048576	17	4213
2026-01-24 07:56:10.56	39.59	17.43	-28.0	-29.2	14.9	0.00e+00	0	43	102	1048576	17	4120
2026-01-24 07:56:11.56	39.36	17.43	-27.8	-28.8	15.2	0.00e+00	0	43	102	1048576	17	4012
2026-01-24 07:56:12.56	39.13	17.43	-27.7	-29.0	15.3	0.00e+00	0	43	102	1048576	16	4180
2026-01-24 07:56:13.57	38.90	17.44	-27.7	-29.0	15.3	0.00e+00	0	43	102	1048576	16	4193
2026-01-24 07:56:14.58	38.66	17.44	-27.8	-29.3	15.2	0.00e+00	0	43	102	1048576	16	4265
2026-01-24 07:56:15.59	38.43	17.44	-27.8	-29.3	15.1	0.00e+00	0	43	102	1048576	16	4266
2026-01-24 07:56:16.59	38.20	17.44	-27.8	-29.2	15.2	0.00e+00	0	43	102	1048576	16	4229
2026-01-24 07:56:17.60	37.97	17.45	-27.7	-29.0	15.3	0.00e+00	0	43	102	1048576	16	4191
2026-01-24 07:56:18.61	37.74	17.45	-27.7	-28.9	15.4	0.00e+00	0	43	102	1048576	16	4168
2026-01-24 07:56:19.61	37.51	17.45	-27.7	-29.1	15.2	0.00e+00	0	43	102	1048576	16	4229
2026-01-24 07:56:20.61	37.28	17.45	-27.7	-29.2	15.2	7.00e-07	0	43	102	1048576	16	4236
2026-01-24 07:56:21.62	37.05	17.45	-27.8	-29.2	15.2	0.00e+00	0	43	102	1048576	16	4232
2026-01-24 07:56:22.62	36.82	17.44	-27.8	-29.3	15.2	0.00e+00	0	43	102	1048576	16	4253
2026-01-24 07:56:23.62	36.59	17.44	-27.8	-29.3	15.1	0.00e+00	0	43	102	1048576	16	4263
2026-01-24 07:56:24.63	36.36	17.44	-27.8	-29.1	15.3	0.00e+00	0	43	102	1048576	16	4215
2026-01-24 07:56:25.63	36.13	17.44	-27.8	-29.2	15.2	0.00e+00	0	43	102	1048576	16	4232
2026-01-24 07:56:26.64	35.90	17.43	-27.8	-29.2	15.2	0.00e+00	0	43	102	1048576	16	4245
2026-01-24 07:56:27.64	35.67	17.43	-27.8	-29.2	15.2	7.00e-07	0	43	102	1048576	16	4250
2026-01-24 07:56:28.64	35.44	17.43	-27.8	-29.4	15.1	0.00e+00	0	43	102	1048576	16	4300
2026-01-24 07:56:29.65	35.21	17.42	-27.5	-29.3	14.8	7.00e-07	0	43	102	1048576	16	4416
2026-01-24 07:56:30.65	34.98	17.42	-27.0	-29.5	14.4	1.50e-06	0	43	102	1048576	15	4828
2026-01-24 07:56:31.66	34.75	17.41	-26.6	-29.6	14.5	0.00e+00	0	43	102	1048576	14	5038
2026-01-24 07:56:32.66	34.52	17.41	-26.6	-29.0	14.9	0.00e+00	0	43	102	1048576	14	4750
2026-01-24 07:56:33.66	34.29	17.40	-27.1	-29.3	15.2	0.00e+00	0	43	102	1048576	14	4632
2026-01-24 07:56:34.67	34.06	17.39	-27.5	-29.3	15.2	0.00e+00	0	43	102	1048576	15	4400
2026-01-24 07:56:35.66	33.84	17.39	-27.8	-29.8	15.0	0.00e+00	0	43	102	1048576	15	4528
2026-01-24 07:56:36.66	33.61	17.38	-27.8	-29.9	14.9	0.00e+00	0	43	102	1048576	15	4554
2026-01-24 07:56:37.66	33.38	17.37	-27.9	-30.0	14.9	0.00e+00	0	43	102	1048576	15	4578
2026-01-24 07:56:38.67	33.15	17.36	-27.9	-30.1	14.8	0.00e+00	0	43	102	1048576	15	4616
2026-01-24 07:56:39.67	32.92	17.35	-28.0	-29.8	14.8	0.00e+00	0	43	102	1048576	16	4413
2026-01-24 07:56:40.67	32.70	17.34	-28.0	-29.7	14.9	0.00e+00	0	43	102	1048576	16	4391
2026-01-24 07:56:41.68	32.47	17.33	-28.0	-29.8	14.9	0.00e+00	0	43	102	1048576	16	4404
2026-01-24 07:56:42.69	32.24	17.32	-28.0	-29.7	14.9	0.00e+00	0	43	102	1048576	16	4366
2026-01-24 07:56:43.69	32.01	17.31	-28.0	-29.6	15.0	0.00e+00	0	43	102	1048576	16	4349
2026-01-24 07:56:44.70	31.78	17.30	-28.0	-29.7	15.0	0.00e+00	0	43	102	1048576	16	4364
2026-01-24 07:56:45.71	31.55	17.29	-28.0	-29.7	14.9	0.00e+00	0	43	102	1048576	16	4379
2026-01-24 07:56:46.72	31.32	17.27	-28.0	-29.6	15.0	0.00e+00	0	43	102	1048576	16	4357
2026-01-24 07:56:47.72	31.10	17.26	-28.2	-30.0	14.7	0.00e+00	0	43	102	1048576	16	4472
2026-01-24 07:56:48.73	30.87	17.25	-28.0	-29.8	14.9	7.00e-07	0	43	102	1048576	16	4397
2026-01-24 07:56:49.73	30.64	17.23	-28.2	-30.1	14.7	0.00e+00	0	43	102	1048576	16	4479
2026-01-24 07:56:50.73	30.42	17.22	-28.2	-30.1	14.7	0.00e+00	0	43	102	1048576	16	4501
2026-01-24 07:56:51.73	30.19	17.20	-28.3	-30.3	14.6	0.00e+00	0	43	102	1048576	16	4559
2026-01-24 07:56:52.73	29.96	17.19	-28.2	-30.2	14.6	0.00e+00	0	43	102	1048576	16	4514
2026-01-24 07:56:53.74	29.74	17.17	-28.0	-29.7	14.9	0.00e+00	0	43	102	1048576	16	4384
2026-01-24 07:56:54.74	29.51	17.16	-27.9	-29.4	15.1	0.00e+00	0	43	102	1048576	16	4293
2026-01-24 07:56:55.75	29.29	17.14	-27.9	-29.5	15.1	0.00e+00	0	43	102	1048576	16	4304
2026-01-24 07:56:56.76	29.06	17.12	-27.8	-29.3	15.2	0.00e+00	0	43	102	1048576	16	4259
2026-01-24 07:56:57.76	28.84	17.11	-27.8	-29.2	15.2	0.00e+00	0	43	102	1048576	16	4241
2026-01-24 07:56:58.76	28.61	17.09	-27.8	-29.3	15.2	7.00e-07	0	43	102	1048576	16	4263
2026-01-24 07:56:59.77	28.39	17.07	-28.0	-29.6	15.0	0.00e+00	0	43	102	1048576	16	4350
2026-01-24 07:57:00.78	28.16	17.05	-27.9	-29.4	15.1	0.00e+00	0	43	102	1048576	16	4292
2026-01-24 07:57:01.78	27.94	17.03	-27.8	-29.3	15.2	0.00e+00	0	43	102	1048576	16	4269
2026-01-24 07:57:02.79	27.71	17.01	-27.9	-29.5	15.1	7.00e-07	0	43	102	1048576	16	4307
2026-01-24 07:57:03.79	27.49	16.99	-27.9	-29.4	15.1	7.00e-07	0	43	102	1048576	16	4292
2026-01-24 07:57:04.79	27.27	16.97	-27.9	-29.5	15.1	0.00e+00	0	43	102	1048576	16	4313
2026-01-24 07:57:05.80	27.04	16.95	-27.9	-29.4	15.1	0.00e+00	0	43	102	1048576	16	4283
2026-01-24 07:57:06.79	26.82	16.93	-28.0	-29.6	15.0	0.00e+00	0	43	102	1048576	16	4353
2026-01-24 07:57:07.80	26.60	16.91	-27.8	-29.3	15.1	0.00e+00	0	43	102	1048576	16	4278
2026-01-24 07:57:08.80	26.38	16.89	-27.7	-29.0	15.3	0.00e+00	0	43	102	1048576	16	4182
2026-01-24 07:57:09.81	26.16	16.86	-27.7	-28.9	15.4	0.00e+00	0	43	102	1048576	16	4163
2026-01-24 07:57:10.81	25.94	16.84	-27.7	-29.0	15.3	0.00e+00	0	43	102	1048576	16	4192
2026-01-24 07:57:11.81	25.72	16.82	-27.7	-29.1	15.3	0.00e+00	0	43	102	1048576	16	4200
2026-01-24 07:57:12.81	25.50	16.79	-27.7	-29.0	15.3	0.00e+00	0	43	102	1048576	16	4185
2026-01-24 07:57:13.82	25.28	16.77	-27.7	-28.9	15.3	0.00e+00	0	43	102	1048576	16	4164
2026-01-24 07:57:14.83	25.06	16.75	-27.7	-29.0	15.3	0.00e+00	0	43	102	1048576	16	4190
2026-01-24 07:57:15.83	24.84	16.72	-27.8	-29.3	15.1	0.00e+00	0	43	102	1048576	16	4263
2026-01-24 07:57:16.83	24.62	16.70	-27.8	-29.1	15.2	0.00e+00	0	43	102	1048576	16	4216
2026-01-24 07:57:17.83	24.40	16.67	-27.7	-29.1	15.2	0.00e+00	0	43	102	1048576	16	4211
2026-01-24 07:57:18.84	24.18	16.64	-27.8	-29.2	15.2	0.00e+00	0	43	102	1048576	16	4227
2026-01-24 07:57:19.85	23.96	16.62	-27.8	-29.2	15.2	0.00e+00	0	43	102	1048576	16	4249
2026-01-24 07:57:20.85	23.75	16.59	-27.7	-29.0	15.3	0.00e+00	0	43	102	1048576	16	4182
2026-01-24 07:57:21.85	23.53	16.56	-27.7	-29.0	15.3	0.00e+00	0	43	102	1048576	16	4179
2026-01-24 07:57:22.85	23.32	16.54	-27.7	-29.1	15.3	0.00e+00	0	43	102	1048576	16	4200
2026-01-24 07:57:23.85	23.10	16.51	-27.7	-28.9	15.4	0.00e+00	0	43	102	1048576	16	4154
2026-01-24 07:57:24.85	22.89	16.48	-27.7	-28.9	15.4	7.00e-07	0	43	102	1048576	16	4148
2026-01-24 07:57:25.85	22.67	16.45	-27.7	-28.9	15.4	1.50e-06	0	43	102	1048576	16	4144
2026-01-24 07:57:26.85	22.46	16.42	-27.8	-29.3	15.1	0.00e+00	0	43	102	1048576	16	4254
2026-01-24 07:57:27.86	22.24	16.39	-27.7	-29.1	15.3	0.00e+00	0	43	102	1048576	16	4198
2026-01-24 07:57:28.86	22.03	16.36	-27.7	-28.9	15.3	0.00e+00	0	43	102	1048576	16	4159
2026-01-24 07:57:29.86	21.82	16.33	-27.7	-29.1	15.3	0.00e+00	0	43	102	1048576	16	4194
2026-01-24 07:57:30.87	21.60	16.30	-27.7	-29.0	15.3	0.00e+00	0	43	102	1048576	16	4175
2026-01-24 07:57:31.88	21.39	16.27	-27.7	-29.0	15.3	0.00e+00	0	43	102	1048576	16	4181
2026-01-24 07:57:32.88	21.18	16.24	-27.9	-29.4	15.1	0.00e+00	0	43	102	1048576	16	4284
2026-01-24 07:57:33.88	20.96	16.21	-27.9	-29.4	15.1	0.00e+00	0	43	102	1048576	16	4280
2026-01-24 07:57:34.89	20.75	16.17	-27.9	-29.5	15.0	0.00e+00	0	43	102	1048576	16	4325
2026-01-24 07:57:35.89	20.54	16.14	-28.0	-29.6	14.9	7.00e-07	0	43	102	1048576	16	4353
2026-01-24 07:57:36.90	20.33	16.11	-28.0	-29.7	14.8	0.00e+00	0	43	102	1048576	16	4383
2026-01-24 07:57:37.90	20.12	16.07	-28.0	-29.7	14.9	0.00e+00	0	43	102	1048576	16	4363
2026-01-24 07:57:38.90	19.91	16.04	-28.0	-29.7	14.9	7.00e-07	0	43	102	1048576	16	4385
2026-01-24 07:57:39.90	19.70	16.01	-28.3	-30.3	14.5	0.00e+00	0	43	102	1048576	16	4544
2026-01-24 07:57:40.90	19.50	15.97	-28.0	-29.8	14.8	0.00e+00	0	43	102	1048576	16	4403
2026-01-24 07:57:41.91	19.29	15.94	-27.9	-29.4	15.0	0.00e+00	0	43	102	1048576	16	4301
2026-01-24 07:57:42.91	19.08	15.90	-27.9	-29.5	15.0	0.00e+00	0	43	102	1048576	16	4333
2026-01-24 07:57:43.91	18.87	15.87	-28.0	-29.6	14.9	0.00e+00	0	43	102	1048576	16	4362
2026-01-24 07:57:44.91	18.67	15.83	-28.0	-29.6	14.9	0.00e+00	0	43	102	1048576	16	4343
2026-01-24 07:57:45.92	18.46	15.80	-28.0	-29.7	14.8	0.00e+00	0	43	102	1048576	16	4386
2026-01-24 07:57:46.92	18.26	15.76	-27.8	-29.3	15.1	0.00e+00	0	43	102	1048576	16	4261
2026-01-24 07:57:47.93	18.05	15.72	-27.7	-29.0	15.2	0.00e+00	0	43	102	1048576	16	4192
2026-01-24 07:57:48.93	17.85	15.69	-27.7	-29.1	15.2	0.00e+00	0	43	102	1048576	16	4201
2026-01-24 07:57:49.94	17.64	15.65	-27.6	-28.9	15.3	0.00e+00	0	43	102	1048576	16	4150
2026-01-24 07:57:50.95	17.44	15.61	-27.7	-29.1	15.2	0.00e+00	0	43	102	1048576	16	4217
2026-01-24 07:57:51.95	17.24	15.57	-27.7	-28.9	15.3	0.00e+00	0	43	102	1048576	16	4149
2026-01-24 07:57:52.95	17.03	15.54	-27.8	-29.2	15.2	0.00e+00	0	43	102	1048576	16	4232
2026-01-24 07:57:53.95	16.83	15.50	-27.8	-29.2	15.2	0.00e+00	0	43	102	1048576	16	4229
2026-01-24 07:57:54.96	16.63	15.46	-27.8	-29.4	15.1	0.00e+00	0	43	102	1048576	16	4284
2026-01-24 07:57:55.96	16.43	15.42	-27.9	-29.5	15.0	0.00e+00	0	44	102	1048576	16	4317
2026-01-24 07:57:56.97	16.23	15.38	-28.0	-29.7	14.9	0.00e+00	0	43	102	1048576	16	4369
2026-01-24 07:57:57.98	16.03	15.34	-28.0	-29.7	14.9	0.00e+00	0	43	102	1048576	16	4379
2026-01-24 07:57:58.98	15.83	15.30	-28.0	-29.7	14.9	0.00e+00	0	43	102	1048576	16	4380
2026-01-24 07:57:59.98	15.63	15.26	-28.0	-29.6	14.9	7.00e-07	0	43	102	1048576	16	4360
2026-01-24 07:58:00.98	15.43	15.22	-27.9	-29.6	14.9	7.00e-07	0	43	102	1048576	16	4335
2026-01-24 07:58:01.99	15.24	15.18	-27.9	-29.5	15.0	0.00e+00	0	43	102	1048576	16	4308
2026-01-24 07:58:03.00	15.04	15.14	-27.9	-29.5	15.0	0.00e+00	0	43	102	1048576	16	4332
2026-01-24 07:58:03.99	14.84	15.10	-27.9	-29.5	15.0	0.00e+00	0	43	102	1048576	16	4317
2026-01-24 07:58:04.99	14.65	15.06	-27.8	-29.3	15.1	0.00e+00	0	43	102	1048576	16	4273
2026-01-24 07:58:06.00	14.45	15.02	-28.0	-29.6	14.9	0.00e+00	0	43	102	1048576	16	4365
2026-01-24 07:58:07.00	14.26	14.97	-27.9	-29.4	15.0	7.00e-07	0	43	102	1048576	16	4305
2026-01-24 07:58:08.00	14.06	14.93	-28.0	-29.8	14.8	0.00e+00	0	43	102	1048576	16	4398
2026-01-24 07:58:09.00	13.87	14.89	-28.2	-30.1	14.6	0.00e+00	0	43	102	1048576	16	4500
2026-01-24 07:58:10.00	13.68	14.85	-28.3	-30.4	14.5	1.50e-06	0	43	102	1048576	16	4582
2026-01-24 07:58:11.00	13.49	14.80	-28.2	-30.2	14.6	7.00e-07	0	43	102	1048576	16	4521
2026-01-24 07:58:12.01	13.29	14.76	-28.2	-30.1	14.6	0.00e+00	0	43	102	1048576	16	4492
2026-01-24 07:58:13.02	13.10	14.72	-28.3	-30.5	14.4	1.50e-06	0	43	102	1048576	16	4606
2026-01-24 07:58:14.02	12.91	14.67	-28.1	-30.0	14.7	2.20e-06	0	43	102	1048576	16	4455
2026-01-24 07:58:15.03	12.72	14.63	-28.1	-29.9	14.7	0.00e+00	0	43	102	1048576	16	4437
2026-01-24 07:58:16.03	12.53	14.58	-28.0	-29.7	14.8	0.00e+00	0	43	102	1048576	16	4382
2026-01-24 07:58:17.03	12.34	14.54	-28.1	-29.8	14.7	0.00e+00	0	43	102	1048576	16	4422
2026-01-24 07:58:18.03	12.15	14.50	-28.1	-29.9	14.7	7.00e-07	0	44	102	1048576	16	4428
2026-01-24 07:58:19.03	11.97	14.45	-28.0	-29.7	14.8	0.00e+00	0	43	102	1048576	16	4390
2026-01-24 07:58:20.05	11.78	14.41	-28.0	-29.8	14.7	0.00e+00	0	43	102	1048576	16	4403
2026-01-24 07:58:21.05	11.59	14.36	-28.1	-30.0	14.6	0.00e+00	0	43	102	1048576	16	4471
2026-01-24 07:58:22.05	11.41	14.31	-28.2	-30.3	14.5	0.00e+00	0	43	102	1048576	16	4543
2026-01-24 07:58:23.06	11.22	14.27	-28.2	-30.1	14.6	7.00e-07	0	43	102	1048576	16	4502
2026-01-24 07:58:24.07	11.03	14.22	-28.2	-30.1	14.6	7.00e-07	0	43	102	1048576	16	4506
2026-01-24 07:58:25.07	10.85	14.18	-28.2	-30.1	14.5	7.00e-07	0	43	102	1048576	16	4504
2026-01-24 07:58:26.07	10.67	14.13	-28.2	-30.2	14.5	0.00e+00	0	43	102	1048576	16	4539
2026-01-24 07:58:27.08	10.48	14.08	-28.2	-30.1	14.6	0.00e+00	0	43	102	1048576	16	4499
2026-01-24 07:58:28.08	10.30	14.04	-28.1	-30.0	14.7	0.00e+00	0	43	102	1048576	16	4456
2026-01-24 07:58:29.09	10.12	13.99	-28.1	-30.0	14.6	1.50e-06	0	43	102	1048576	16	4478
2026-01-24 07:58:30.09	9.93	13.94	-28.1	-29.9	14.7	0.00e+00	0	43	102	1048576	16	4435
2026-01-24 07:58:31.09	9.75	13.89	-28.2	-30.2	14.5	4.50e-06	0	43	102	1048576	16	4517
2026-01-24 07:58:32.10	9.57	13.85	-28.3	-30.4	14.4	7.00e-07	0	43	102	1048576	16	4577
2026-01-24 07:58:33.10	9.39	13.80	-28.4	-30.7	14.2	7.00e-07	0	43	102	1048576	16	4673
2026-01-24 07:58:34.10	9.22	13.75	-28.4	-30.6	14.2	2.20e-06	0	43	102	1048576	16	4655
2026-01-24 07:58:35.11	9.04	13.70	-28.5	-30.5	14.0	1.50e-06	0	43	102	1048576	17	4502
2026-01-24 07:58:36.11	8.86	13.65	-28.5	-30.4	14.1	7.00e-07	0	43	102	1048576	17	4468
2026-01-24 07:58:37.12	8.68	13.61	-28.4	-30.3	14.1	7.00e-07	0	43	102	1048576	17	4440
2026-01-24 07:58:38.12	8.50	13.56	-28.5	-30.3	14.1	0.00e+00	0	43	102	1048576	17	4467
2026-01-24 07:58:39.13	8.33	13.51	-28.3	-29.9	14.3	1.50e-06	0	43	102	1048576	17	4325
2026-01-24 07:58:40.14	8.15	13.46	-28.3	-29.9	14.3	0.00e+00	0	43	102	1048576	17	4335
2026-01-24 07:58:41.14	7.98	13.41	-28.3	-30.0	14.3	0.00e+00	0	43	102	1048576	17	4353
2026-01-24 07:58:42.14	7.80	13.36	-28.3	-29.8	14.4	0.00e+00	0	43	102	1048576	17	4318
2026-01-24 07:58:43.14	7.63	13.31	-28.2	-29.7	14.4	2.20e-06	0	43	102	1048576	17	4278
2026-01-24 07:58:44.15	7.45	13.26	-28.2	-29.8	14.4	1.50e-06	0	43	102	1048576	17	4312
2026-01-24 07:58:45.15	7.28	13.21	-28.2	-29.7	14.5	0.00e+00	0	43	102	1048576	17	4270
2026-01-24 07:58:46.16	7.11	13.16	-28.2	-29.7	14.5	7.00e-07	0	43	102	1048576	17	4275
2026-01-24 07:58:47.16	6.94	13.11	-28.1	-29.5	14.5	0.00e+00	0	43	102	1048576	17	4236
2026-01-24 07:58:48.17	6.77	13.06	-28.2	-29.7	14.4	1.50e-06	0	43	102	1048576	17	4270
2026-01-24 07:58:49.17	6.60	13.01	-28.1	-29.5	14.5	0.00e+00	0	43	102	1048576	17	4224
2026-01-24 07:58:50.17	6.43	12.96	-28.1	-29.5	14.5	0.00e+00	0	43	102	1048576	17	4237
2026-01-24 07:58:51.18	6.26	12.91	-28.2	-29.6	14.5	7.00e-07	0	43	102	1048576	17	4257
2026-01-24 07:58:52.18	6.09	12.86	-28.0	-29.2	14.7	7.00e-07	0	43	102	1048576	17	4147
2026-01-24 07:58:53.19	5.92	12.81	-28.0	-29.3	14.6	0.00e+00	0	43	102	1048576	17	4169
2026-01-24 07:58:54.19	5.75	12.76	-28.1	-29.4	14.6	7.00e-07	0	43	102	1048576	17	4207
2026-01-24 07:58:55.19	5.59	12.70	-28.1	-29.4	14.6	0.00e+00	0	43	102	1048576	17	4187
2026-01-24 07:58:56.20	5.42	12.65	-28.2	-29.6	14.5	0.00e+00	0	43	102	1048576	17	4247
2026-01-24 07:58:57.20	5.26	12.60	-28.1	-29.5	14.5	7.00e-07	0	43	102	1048576	17	4222
2026-01-24 07:58:58.20	5.09	12.55	-28.2	-29.7	14.4	7.00e-07	0	43	102	1048576	17	4280
2026-01-24 07:58:59.21	4.93	12.50	-28.2	-29.7	14.4	0.00e+00	0	43	102	1048576	17	4280
2026-01-24 07:59:00.21	4.76	12.45	-28.2	-29.7	14.4	7.00e-07	0	43	102	1048576	17	4291
2026-01-24 07:59:01.22	4.60	12.39	-28.2	-29.8	14.3	7.00e-07	0	43	102	1048576	17	4312
2026-01-24 07:59:02.22	4.44	12.34	-28.2	-29.8	14.3	0.00e+00	0	43	102	1048576	17	4299
2026-01-24 07:59:03.23	4.27	12.29	-28.2	-29.8	14.3	0.00e+00	0	43	102	1048576	17	4310
2026-01-24 07:59:04.23	4.11	12.24	-28.3	-30.1	14.2	2.20e-06	0	43	102	1048576	17	4386
2026-01-24 07:59:05.24	3.95	12.18	-28.4	-30.2	14.1	4.50e-06	0	43	102	1048576	17	4415
2026-01-24 07:59:06.24	3.79	12.13	-28.6	-30.6	13.8	3.80e-06	0	43	102	1048576	17	4557
2026-01-24 07:59:07.24	3.63	12.08	-28.6	-30.7	13.8	4.50e-06	0	43	102	1048576	17	4582
2026-01-24 07:59:08.24	3.47	12.03	-28.7	-30.8	13.7	9.10e-06	0	43	102	1048576	17	4621
2026-01-24 07:59:09.25	3.32	11.97	-28.6	-30.7	13.8	1.50e-06	0	43	102	1048576	17	4577
2026-01-24 07:59:10.25	3.16	11.92	-28.7	-30.8	13.7	3.00e-06	0	43	102	1048576	17	4613
2026-01-24 07:59:11.25	3.00	11.87	-28.7	-31.0	13.6	8.30e-06	0	43	102	1048576	17	4659
2026-01-24 07:59:12.26	2.84	11.81	-28.6	-30.7	13.7	8.30e-06	0	43	102	1048576	17	4593
2026-01-24 07:59:13.26	2.69	11.76	-28.7	-31.0	13.6	7.60e-06	0	43	102	1048576	17	4666
2026-01-24 07:59:14.26	2.53	11.71	-28.8	-31.3	13.4	8.30e-06	0	43	102	1048576	17	4760
2026-01-24 07:59:15.27	2.38	11.65	-28.7	-30.9	13.6	7.60e-06	0	43	102	1048576	17	4629
2026-01-24 07:59:16.27	2.22	11.60	-28.6	-30.7	13.7	6.10e-06	0	43	102	1048576	17	4596
2026-01-24 07:59:17.28	2.07	11.55	-28.7	-30.9	13.6	9.90e-06	0	43	102	1048576	17	4650
2026-01-24 07:59:18.28	1.92	11.49	-28.7	-30.8	13.7	9.10e-06	0	43	102	1048576	17	4624
2026-01-24 07:59:19.28	1.76	11.44	-28.8	-31.1	13.5	1.37e-05	0	43	102	1048576	17	4694
2026-01-24 07:59:20.28	1.61	11.38	-28.8	-31.1	13.5	1.29e-05	0	43	102	1048576	17	4716
2026-01-24 07:59:21.28	1.46	11.33	-28.8	-31.3	13.4	2.13e-05	0	43	102	1048576	17	4770
2026-01-24 07:59:22.28	1.31	11.28	-28.8	-31.1	13.5	8.30e-06	0	43	102	1048576	17	4713
2026-01-24 07:59:23.28	1.16	11.22	-28.8	-31.1	13.5	7.60e-06	0	43	102	1048576	17	4716
2026-01-24 07:59:24.29	1.01	11.17	-28.7	-31.0	13.5	1.06e-05	0	43	102	1048576	17	4676
2026-01-24 07:59:25.29	0.86	11.11	-28.7	-31.0	13.5	9.90e-06	0	43	102	1048576	17	4694
2026-01-24 07:59:26.30	0.71	11.06	-28.8	-31.1	13.4	1.44e-05	0	43	102	1048576	17	4728
2026-01-24 07:59:27.31	0.56	11.00	-28.9	-31.3	13.3	1.44e-05	0	43	102	1048576	17	4775
2026-01-24 07:59:28.31	0.42	10.95	-28.7	-30.9	13.6	7.60e-06	0	43	102	1048576	17	4644
2026-01-24 07:59:29.31	0.27	10.90	-28.7	-30.8	13.6	5.30e-06	0	43	102	1048576	17	4631
2026-01-24 07:59:30.32	0.12	10.84	-28.5	-30.5	13.8	6.80e-06	0	43	102	1048576	17	4532
2026-01-24 07:59:31.33	359.97	10.79	-28.6	-30.6	13.7	1.50e-06	0	43	102	1048576	17	4559
2026-01-24 07:59:32.33	359.83	10.73	-28.7	-31.1	13.5	1.44e-05	0	43	102	1048576	17	4699
2026-01-24 07:59:33.34	359.68	10.68	-28.5	-30.6	13.7	1.22e-05	0	43	102	1048576	17	4548
2026-01-24 07:59:34.35	359.54	10.62	-28.5	-30.4	13.8	3.80e-06	0	43	102	1048576	17	4494
2026-01-24 07:59:35.35	359.40	10.57	-28.5	-30.5	13.8	9.10e-06	0	44	102	1048576	17	4517
2026-01-24 07:59:36.36	359.25	10.51	-28.6	-30.7	13.7	3.80e-06	0	43	102	1048576	17	4577
2026-01-24 07:59:37.36	359.11	10.46	-28.6	-30.8	13.6	8.30e-06	0	43	102	1048576	17	4604
2026-01-24 07:59:38.37	358.97	10.40	-28.6	-30.7	13.7	7.60e-06	0	43	102	1048576	17	4573
2026-01-24 07:59:39.37	358.83	10.35	-28.7	-30.9	13.5	1.29e-05	0	43	102	1048576	17	4655
2026-01-24 07:59:40.37	358.69	10.29	-28.7	-30.9	13.5	1.06e-05	0	43	102	1048576	17	4647
2026-01-24 07:59:41.37	358.55	10.24	-28.7	-30.9	13.5	6.80e-06	0	44	102	1048576	17	4652
2026-01-24 07:59:42.38	358.40	10.18	-28.7	-31.0	13.5	1.22e-05	0	44	102	1048576	17	4690
2026-01-24 07:59:43.39	358.26	10.12	-28.7	-31.0	13.4	9.90e-06	0	43	102	1048576	17	4687
2026-01-24 07:59:44.39	358.13	10.07	-28.7	-30.9	13.5	1.52e-05	0	43	102	1048576	17	4670
2026-01-24 07:59:45.40	357.99	10.01	-28.6	-30.6	13.6	7.60e-06	0	43	102	1048576	17	4568
2026-01-24 07:59:46.40	357.85	9.96	-28.5	-30.6	13.6	7.60e-06	0	43	102	1048576	17	4571
2026-01-24 07:59:47.40	357.71	9.90	-28.6	-30.8	13.5	1.44e-05	0	43	102	1048576	17	4616
2026-01-24 07:59:48.40	357.58	9.85	-28.6	-30.8	13.5	6.10e-06	0	43	102	1048576	17	4631
2026-01-24 07:59:49.40	357.44	9.79	-28.7	-30.9	13.4	2.05e-05	0	43	102	1048576	17	4667
2026-01-24 07:59:50.41	357.31	9.74	-28.6	-30.7	13.5	1.14e-05	0	43	102	1048576	17	4598
2026-01-24 07:59:51.41	357.17	9.68	-28.6	-30.8	13.5	6.80e-06	0	43	102	1048576	17	4617
2026-01-24 07:59:52.41	357.04	9.63	-28.7	-31.0	13.4	1.14e-05	0	43	102	1048576	17	4691
2026-01-24 07:59:53.42	356.90	9.57	-28.6	-30.9	13.5	1.52e-05	0	43	102	1048576	17	4643
2026-01-24 07:59:54.42	356.77	9.51	-28.6	-30.8	13.5	1.83e-05	0	43	102	1048576	17	4617
2026-01-24 07:59:55.41	356.64	9.46	-28.7	-31.0	13.4	1.75e-05	0	43	102	1048576	17	4686
2026-01-24 07:59:56.41	356.51	9.40	-28.8	-31.1	13.3	1.98e-05	0	43	102	1048576	17	4733
2026-01-24 07:59:57.42	356.37	9.35	-28.8	-31.3	13.1	3.66e-05	0	43	102	1048576	17	4802
2026-01-24 07:59:58.42	356.24	9.29	-28.8	-31.1	13.3	1.83e-05	0	44	102	1048576	17	4738
2026-01-24 07:59:59.42	356.11	9.24	-28.8	-31.3	13.2	1.37e-05	0	43	102	1048576	17	4781
2026-01-24 08:00:00.43	355.98	9.18	-28.8	-31.4	13.2	2.13e-05	0	43	102	1048576	17	4807
2026-01-24 08:00:01.43	355.85	9.12	-28.8	-31.3	13.2	2.97e-05	0	43	102	1048576	17	4790
2026-01-24 08:00:02.44	355.72	9.07	-28.9	-31.4	13.1	2.82e-05	0	43	102	1048576	17	4840
2026-01-24 08:00:03.45	355.59	9.01	-28.9	-31.6	12.9	3.43e-05	0	43	102	1048576	17	4900
2026-01-24 08:00:04.45	355.46	8.96	-29.0	-31.6	12.9	4.04e-05	0	43	102	1048576	17	4907
2026-01-24 08:00:05.46	355.33	8.90	-29.0	-31.6	12.9	4.42e-05	0	43	102	1048576	17	4908
2026-01-24 08:00:06.47	355.21	8.84	-28.9	-31.4	13.0	2.97e-05	0	43	102	1048576	17	4825
2026-01-24 08:00:07.47	355.08	8.79	-28.9	-31.6	12.9	2.89e-05	0	43	102	1048576	17	4891
2026-01-24 08:00:08.48	354.95	8.73	-29.0	-31.3	12.8	5.11e-05	0	43	102	1048576	18	4698
2026-01-24 08:00:09.49	354.83	8.68	-29.1	-31.4	12.7	6.17e-05	0	43	102	1048576	18	4720
2026-01-24 08:00:10.49	354.70	8.62	-29.1	-31.5	12.7	8.16e-05	0	43	102	1048576	18	4740
2026-01-24 08:00:11.50	354.58	8.56	-29.1	-31.6	12.6	8.85e-05	0	43	102	1048576	18	4766
2026-01-24 08:00:12.50	354.45	8.51	-29.1	-31.4	12.7	7.62e-05	0	43	102	1048576	18	4724
2026-01-24 08:00:13.51	354.33	8.45	-29.0	-31.4	12.8	5.79e-05	0	43	102	1048576	18	4706
2026-01-24 08:00:14.51	354.20	8.40	-28.9	-31.1	12.9	5.87e-05	0	43	102	1048576	18	4637
2026-01-24 08:00:15.51	354.08	8.34	-29.1	-31.6	12.6	8.16e-05	0	43	102	1048576	18	4770
2026-01-24 08:00:16.52	353.96	8.28	-29.1	-31.5	12.7	8.08e-05	0	43	102	1048576	18	4747
2026-01-24 08:00:17.52	353.84	8.23	-29.0	-31.4	12.7	7.62e-05	0	43	102	1048576	18	4706
2026-01-24 08:00:18.53	353.72	8.17	-29.1	-31.6	12.6	7.40e-05	0	44	102	1048576	18	4770
2026-01-24 08:00:19.53	353.59	8.12	-29.2	-31.7	12.6	1.06e-04	0	43	102	1048576	18	4810
2026-01-24 08:00:20.53	353.47	8.06	-29.3	-32.0	12.3	1.59e-04	0	43	102	1048576	18	4912
2026-01-24 08:00:21.54	353.35	8.00	-29.2	-31.9	12.4	1.46e-04	0	43	102	1048576	18	4890
2026-01-24 08:00:22.54	353.23	7.95	-29.3	-32.0	12.3	1.59e-04	0	43	102	1048576	18	4922
2026-01-24 08:00:23.55	353.12	7.89	-29.1	-31.6	12.5	1.17e-04	0	43	102	1048576	18	4789
2026-01-24 08:00:24.55	353.00	7.84	-29.2	-31.8	12.4	1.50e-04	0	43	102	1048576	18	4870
2026-01-24 08:00:25.55	352.88	7.78	-29.2	-31.8	12.4	1.79e-04	0	43	102	1048576	18	4866
2026-01-24 08:00:26.55	352.76	7.72	-29.1	-31.7	12.5	1.17e-04	0	43	102	1048576	18	4815
2026-01-24 08:00:27.56	352.64	7.67	-29.1	-31.5	12.6	1.20e-04	0	43	102	1048576	18	4762
2026-01-24 08:00:28.56	352.53	7.61	-29.1	-31.4	12.6	7.93e-05	0	43	102	1048576	18	4741
2026-01-24 08:00:29.57	352.41	7.56	-29.1	-31.5	12.6	1.01e-04	0	43	102	1048576	18	4750
2026-01-24 08:00:30.57	352.30	7.50	-29.1	-31.6	12.5	1.10e-04	0	43	102	1048576	18	4777
2026-01-24 08:00:31.57	352.18	7.44	-28.8	-30.9	12.9	6.33e-05	0	43	102	1048576	18	4558
2026-01-24 08:00:32.58	352.06	7.39	-28.9	-31.0	12.9	4.04e-05	0	43	102	1048576	18	4582
2026-01-24 08:00:33.59	351.95	7.33	-29.0	-31.4	12.6	6.86e-05	0	43	102	1048576	18	4736
2026-01-24 08:00:34.59	351.84	7.28	-29.0	-31.2	12.7	8.62e-05	0	43	102	1048576	18	4659
2026-01-24 08:00:35.60	351.72	7.22	-28.9	-31.1	12.8	6.25e-05	0	43	102	1048576	18	4640
2026-01-24 08:00:36.61	351.61	7.16	-29.0	-31.4	12.6	8.62e-05	0	43	102	1048576	18	4718
2026-01-24 08:00:37.61	351.50	7.11	-29.3	-32.1	12.2	1.47e-04	0	43	102	1048576	18	4956
2026-01-24 08:00:38.61	351.38	7.05	-33.2	-44.1	3.8	1.39e-01	0	43	104	1048576	26	12577
2026-01-24 08:00:39.61	351.27	7.00	-33.7	-45.7	3.8	1.49e+00	0	44	104	1048576	27	14329

#Closed at: 2026-01-24 08:00:39
#Recorded file [1 MB]: D:/data/31010_260124_105201.dat