passes_logs/2026/01/24/R2M6_AANII_01/R2M6_AANII_01__20260124_000619_SUOMI_NPP_rec.log

#Pass ID: 20260124_000619_SUOMI NPP
#Satellite: SUOMI NPP
#Configuration: NPP
#almurnet v.1.7.20240730
#Start time: 2026-01-24 00:06:21

#Version: 2.2.20231116
#Station: R2M6_AANII_01
#Location: 30.233357 lon 59.946436 lat
#TLE: 1 37849U 11061A   26022.92790088  .00000200  00000+0  11571-3 0  9994
#TLE: 2 37849  98.7820 324.9085 0002258  50.1112 310.0263 14.19528452737839

#Time	Az	El	Level	Level2	SNR	BER	BlckErr	Temp	State	Recorded	gain1	gain2
2026-01-24 00:06:21.07	19.96	7.15	-31.2	-35.4	5.1	1.27e+00	0	42	0	0	22	5837
2026-01-24 00:06:22.07	19.98	7.23	-31.3	-35.9	5.0	1.29e+00	0	42	104	0	22	6089
2026-01-24 00:06:23.06	20.00	7.30	-31.3	-35.7	8.3	5.93e-02	0	42	0	0	22	5958
2026-01-24 00:06:24.07	20.02	7.38	-31.4	-36.1	7.9	6.43e-02	0	42	102	1048576	22	6219
2026-01-24 00:06:25.07	20.04	7.46	-31.4	-36.1	8.0	7.30e-02	0	42	102	1048576	22	6167
2026-01-24 00:06:26.07	20.06	7.54	-31.5	-36.3	7.5	7.12e-02	0	42	102	1048576	23	6206
2026-01-24 00:06:27.07	20.09	7.62	-31.6	-36.4	7.4	1.01e-01	0	42	102	1048576	23	6309
2026-01-24 00:06:28.07	20.11	7.69	-31.7	-37.0	6.9	1.40e-01	0	42	102	1048576	23	6643
2026-01-24 00:06:29.08	20.13	7.77	-31.7	-36.8	7.1	1.64e-01	0	42	102	1048576	23	6509
2026-01-24 00:06:30.08	20.15	7.85	-31.5	-36.0	7.7	1.10e-01	0	42	102	1048576	23	6018
2026-01-24 00:06:31.09	20.18	7.93	-31.3	-35.7	8.4	5.35e-02	0	42	102	1048576	22	5952
2026-01-24 00:06:32.09	20.20	8.01	-31.1	-34.9	9.0	3.11e-02	0	42	102	1048576	22	5568
2026-01-24 00:06:33.09	20.22	8.09	-31.0	-34.3	9.4	2.26e-02	0	42	102	1048576	22	5314
2026-01-24 00:06:34.10	20.25	8.17	-30.8	-34.3	9.8	1.11e-02	0	42	102	1048576	21	5388
2026-01-24 00:06:35.11	20.27	8.25	-30.9	-34.6	9.6	1.31e-02	0	42	102	1048576	21	5505
2026-01-24 00:06:36.11	20.29	8.33	-31.1	-34.7	9.1	1.69e-02	0	42	102	1048576	22	5483
2026-01-24 00:06:37.11	20.31	8.41	-31.0	-34.2	9.5	2.19e-02	0	42	102	1048576	22	5261
2026-01-24 00:06:38.11	20.34	8.49	-30.8	-34.2	10.0	8.82e-03	0	42	102	1048576	21	5325
2026-01-24 00:06:39.12	20.36	8.57	-31.0	-34.8	9.5	1.07e-02	0	42	102	1048576	21	5573
2026-01-24 00:06:40.12	20.38	8.65	-30.7	-33.8	9.8	8.82e-03	0	42	102	1048576	21	5155
2026-01-24 00:06:41.13	20.41	8.74	-30.6	-33.7	9.8	5.44e-03	0	42	102	1048576	21	5088
2026-01-24 00:06:42.13	20.43	8.82	-30.6	-33.3	10.6	4.00e-03	0	42	102	1048576	21	4941
2026-01-24 00:06:43.14	20.46	8.90	-30.6	-33.4	10.5	3.47e-03	0	42	102	1048576	21	4981
2026-01-24 00:06:44.15	20.48	8.98	-29.6	-32.4	10.6	5.95e-03	0	42	102	1048576	21	4974
2026-01-24 00:06:45.14	20.50	9.06	-30.5	-33.5	10.5	2.55e-03	0	42	102	1048576	20	5113
2026-01-24 00:06:46.15	20.53	9.15	-30.7	-33.7	10.4	3.78e-03	0	42	102	1048576	21	5090
2026-01-24 00:06:47.15	20.55	9.23	-30.5	-33.1	10.4	3.46e-03	0	42	102	1048576	21	4858
2026-01-24 00:06:48.16	20.58	9.32	-30.4	-33.2	11.0	1.69e-03	0	42	102	1048576	20	4989
2026-01-24 00:06:49.16	20.60	9.40	-30.1	-32.2	11.8	7.50e-04	0	42	102	1048576	20	4615
2026-01-24 00:06:50.16	20.63	9.48	-29.9	-32.3	12.2	2.70e-04	0	42	102	1048576	19	4720
2026-01-24 00:06:51.17	20.65	9.57	-29.7	-31.7	12.6	2.25e-03	0	42	102	1048576	19	4519
2026-01-24 00:06:52.18	20.68	9.65	-29.9	-32.1	12.3	1.08e-04	0	42	102	1048576	19	4659
2026-01-24 00:06:53.18	20.70	9.74	-29.8	-31.9	12.5	1.78e-04	0	42	102	1048576	19	4598
2026-01-24 00:06:54.18	20.73	9.82	-29.9	-32.2	12.3	2.15e-03	0	42	102	1048576	19	4679
2026-01-24 00:06:55.19	20.75	9.91	-29.9	-32.1	12.4	2.47e-03	0	43	102	1048576	19	4649
2026-01-24 00:06:56.19	20.78	9.99	-29.8	-32.0	12.5	1.13e-04	0	42	102	1048576	19	4614
2026-01-24 00:06:57.19	20.80	10.08	-29.8	-31.9	12.5	1.14e-04	0	42	102	1048576	19	4581
2026-01-24 00:06:58.19	20.83	10.17	-29.8	-31.9	12.6	2.30e-03	0	42	102	1048576	19	4567
2026-01-24 00:06:59.20	20.85	10.25	-29.8	-31.5	12.4	1.69e-04	0	43	102	1048576	20	4368
2026-01-24 00:07:00.20	20.88	10.34	-29.8	-31.9	12.5	1.06e-04	0	42	102	1048576	19	4573
2026-01-24 00:07:01.21	20.90	10.43	-29.7	-31.5	12.9	2.10e-03	0	43	102	1048576	19	4432
2026-01-24 00:07:02.21	20.93	10.51	-29.7	-31.6	12.8	4.30e-03	0	43	102	1048576	19	4460
2026-01-24 00:07:03.21	20.96	10.60	-29.5	-31.0	13.2	3.50e-05	0	42	102	1048576	19	4277
2026-01-24 00:07:04.22	20.98	10.69	-29.5	-31.0	13.2	2.13e-03	0	43	102	1048576	19	4283
2026-01-24 00:07:05.22	21.01	10.78	-29.4	-31.2	13.4	3.91e-03	0	43	102	1048576	18	4438
2026-01-24 00:07:06.23	21.04	10.87	-29.4	-31.2	13.4	2.03e-03	0	43	102	1048576	18	4446
2026-01-24 00:07:07.23	21.06	10.96	-29.5	-31.5	13.2	1.52e-05	0	43	102	1048576	18	4518
2026-01-24 00:07:08.24	21.09	11.05	-29.5	-31.1	13.2	4.01e-03	0	43	102	1048576	19	4295
2026-01-24 00:07:09.24	21.12	11.14	-29.4	-31.1	13.5	2.07e-03	0	43	102	1048576	18	4397
2026-01-24 00:07:10.24	21.14	11.23	-29.4	-31.2	13.4	1.22e-05	0	43	102	1048576	18	4416
2026-01-24 00:07:11.24	21.17	11.32	-29.4	-31.1	13.5	4.16e-03	0	43	102	1048576	18	4400
2026-01-24 00:07:12.25	21.20	11.41	-29.5	-31.4	13.3	2.02e-03	0	43	102	1048576	18	4481
2026-01-24 00:07:13.25	21.23	11.50	-29.4	-31.3	13.4	2.19e-03	0	43	102	1048576	18	4451
2026-01-24 00:07:14.26	21.25	11.59	-29.4	-31.1	13.5	6.80e-06	0	43	102	1048576	18	4401
2026-01-24 00:07:15.26	21.28	11.68	-29.4	-31.1	13.5	2.09e-03	0	43	102	1048576	18	4394
2026-01-24 00:07:16.27	21.31	11.78	-29.4	-31.1	13.5	2.24e-03	0	43	102	1048576	18	4384
2026-01-24 00:07:17.28	21.34	11.87	-29.5	-31.3	13.4	3.55e-03	0	43	102	1048576	18	4461
2026-01-24 00:07:18.28	21.37	11.96	-29.4	-31.2	13.5	2.07e-03	0	43	102	1048576	18	4427
2026-01-24 00:07:19.29	21.39	12.06	-29.5	-31.4	13.3	2.03e-03	0	43	102	1048576	18	4494
2026-01-24 00:07:20.29	21.42	12.15	-29.5	-31.0	13.3	4.40e-03	0	43	102	1048576	19	4273
2026-01-24 00:07:21.30	21.45	12.24	-29.6	-31.4	13.0	2.09e-03	0	43	102	1048576	19	4414
2026-01-24 00:07:22.30	21.48	12.34	-29.7	-31.6	12.9	2.40e-03	0	43	102	1048576	19	4455
2026-01-24 00:07:23.30	21.51	12.43	-29.5	-31.0	13.3	4.31e-03	0	43	102	1048576	19	4270
2026-01-24 00:07:24.30	21.54	12.53	-29.5	-30.8	13.4	2.06e-03	0	43	102	1048576	19	4214
2026-01-24 00:07:25.31	21.57	12.62	-29.4	-31.2	13.5	2.29e-03	0	43	102	1048576	18	4419
2026-01-24 00:07:26.31	21.60	12.72	-29.5	-31.3	13.5	4.11e-03	0	43	102	1048576	18	4460
2026-01-24 00:07:27.31	21.63	12.81	-29.5	-31.3	13.4	2.06e-03	0	43	102	1048576	18	4449
2026-01-24 00:07:28.32	21.66	12.91	-29.5	-30.8	13.4	2.08e-03	0	43	102	1048576	19	4214
2026-01-24 00:07:29.33	21.69	13.01	-29.5	-31.3	13.5	4.40e-03	0	43	102	1048576	18	4461
2026-01-24 00:07:30.33	21.72	13.10	-29.5	-31.0	13.4	2.05e-03	0	43	102	1048576	19	4252
2026-01-24 00:07:31.33	21.75	13.20	-29.6	-31.1	13.3	1.98e-05	0	43	102	1048576	19	4298
2026-01-24 00:07:32.34	21.78	13.30	-29.5	-31.0	13.4	2.46e-03	0	43	102	1048576	19	4256
2026-01-24 00:07:33.34	21.81	13.40	-29.5	-30.9	13.4	2.04e-03	0	43	102	1048576	19	4238
2026-01-24 00:07:34.34	21.84	13.50	-29.5	-31.0	13.4	2.28e-03	0	43	102	1048576	19	4243
2026-01-24 00:07:35.35	21.87	13.60	-29.5	-30.9	13.5	1.14e-05	0	43	102	1048576	19	4227
2026-01-24 00:07:36.35	21.90	13.70	-29.4	-31.2	13.6	1.91e-03	0	43	102	1048576	18	4408
2026-01-24 00:07:37.36	21.94	13.80	-29.5	-30.9	13.4	2.05e-03	0	43	102	1048576	19	4230
2026-01-24 00:07:38.36	21.97	13.90	-29.5	-30.9	13.5	1.29e-05	0	43	102	1048576	19	4212
2026-01-24 00:07:39.37	22.00	14.00	-29.5	-30.9	13.5	1.75e-05	0	43	102	1048576	19	4218
2026-01-24 00:07:40.38	22.03	14.10	-29.5	-30.8	13.5	2.41e-03	0	43	102	1048576	19	4183
2026-01-24 00:07:41.39	22.06	14.20	-29.4	-31.0	13.7	5.30e-06	0	43	102	1048576	18	4347
2026-01-24 00:07:42.39	22.10	14.30	-29.5	-30.9	13.5	1.44e-05	0	43	102	1048576	19	4232
2026-01-24 00:07:43.40	22.13	14.41	-29.8	-31.6	13.1	2.28e-03	0	43	102	1048576	19	4434
2026-01-24 00:07:44.40	22.16	14.51	-29.9	-32.0	12.8	4.01e-03	0	43	102	1048576	19	4559
2026-01-24 00:07:45.41	22.19	14.61	-29.7	-31.4	13.2	3.89e-05	0	43	102	1048576	19	4385
2026-01-24 00:07:46.41	22.23	14.72	-29.5	-30.9	13.5	1.52e-05	0	43	102	1048576	19	4231
2026-01-24 00:07:47.42	22.26	14.82	-29.6	-31.0	13.4	3.84e-03	0	43	102	1048576	19	4253
2026-01-24 00:07:48.42	22.29	14.93	-29.6	-31.0	13.4	1.14e-05	0	43	102	1048576	19	4253
2026-01-24 00:07:49.43	22.33	15.03	-29.6	-31.1	13.3	1.22e-05	0	43	102	1048576	19	4287
2026-01-24 00:07:50.44	22.36	15.14	-29.7	-31.3	13.2	2.02e-03	0	43	102	1048576	19	4358
2026-01-24 00:07:51.44	22.40	15.25	-29.7	-31.4	13.1	3.35e-05	0	43	102	1048576	19	4388
2026-01-24 00:07:52.45	22.43	15.35	-29.6	-31.2	13.3	1.67e-05	0	43	102	1048576	19	4295
2026-01-24 00:07:53.45	22.47	15.46	-29.7	-31.4	13.2	1.60e-05	0	43	102	1048576	19	4381
2026-01-24 00:07:54.45	22.50	15.57	-29.7	-31.5	13.1	2.13e-05	0	43	102	1048576	19	4400
2026-01-24 00:07:55.46	22.54	15.68	-29.9	-32.0	12.8	3.73e-05	0	43	102	1048576	19	4567
2026-01-24 00:07:56.45	22.57	15.78	-29.7	-31.4	13.2	2.74e-05	0	43	102	1048576	19	4375
2026-01-24 00:07:57.45	22.61	15.89	-29.9	-32.0	12.9	3.50e-05	0	43	102	1048576	19	4555
2026-01-24 00:07:58.45	22.64	16.00	-29.8	-31.2	12.9	8.01e-05	0	43	102	1048576	20	4220
2026-01-24 00:07:59.46	22.68	16.11	-29.9	-31.9	12.8	5.41e-05	0	43	102	1048576	19	4551
2026-01-24 00:08:00.47	22.72	16.22	-30.0	-31.7	12.6	6.10e-05	0	43	102	1048576	20	4390
2026-01-24 00:08:01.48	22.75	16.33	-30.3	-32.5	12.1	2.01e-04	0	43	102	1048576	20	4643
2026-01-24 00:08:02.48	22.79	16.44	-30.3	-32.7	11.9	4.06e-04	0	43	102	1048576	20	4729
2026-01-24 00:08:03.49	22.83	16.56	-30.2	-32.4	12.2	1.40e-04	0	44	102	1048576	20	4610
2026-01-24 00:08:04.50	22.86	16.67	-30.3	-32.5	12.1	2.11e-04	0	43	102	1048576	20	4644
2026-01-24 00:08:05.51	22.90	16.78	-30.2	-32.3	12.2	2.30e-04	0	43	102	1048576	20	4595
2026-01-24 00:08:06.51	22.94	16.90	-30.2	-32.2	12.2	4.26e-04	0	43	102	1048576	20	4562
2026-01-24 00:08:07.52	22.98	17.01	-30.4	-33.0	11.7	3.25e-04	0	43	102	1048576	20	4849
2026-01-24 00:08:08.52	23.01	17.12	-30.5	-32.8	11.5	1.13e-03	0	43	102	1048576	21	4682
2026-01-24 00:08:09.52	23.05	17.24	-30.2	-31.9	12.1	4.87e-04	0	43	102	1048576	21	4348
2026-01-24 00:08:10.53	23.09	17.36	-30.3	-32.5	12.1	2.50e-04	0	44	102	1048576	20	4652
2026-01-24 00:08:11.53	23.13	17.47	-30.3	-32.6	12.0	2.24e-03	0	44	102	1048576	20	4682
2026-01-24 00:08:12.53	23.17	17.59	-30.3	-32.7	12.0	2.86e-04	0	43	102	1048576	20	4731
2026-01-24 00:08:13.53	23.21	17.70	-30.5	-32.8	11.6	4.84e-04	0	43	102	1048576	21	4657
2026-01-24 00:08:14.54	23.25	17.82	-30.7	-33.3	11.2	7.46e-04	0	43	102	1048576	21	4867
2026-01-24 00:08:15.54	23.29	17.94	-30.8	-33.5	11.1	2.82e-03	0	44	102	1048576	21	4941
2026-01-24 00:08:16.55	23.33	18.06	-29.8	-32.6	11.0	1.42e-03	0	44	102	1048576	21	4960
2026-01-24 00:08:17.55	23.37	18.18	-30.8	-33.6	11.0	2.44e-03	0	43	102	1048576	21	4978
2026-01-24 00:08:18.56	23.41	18.30	-30.7	-33.3	10.7	1.22e-03	0	43	102	1048576	21	4866
2026-01-24 00:08:19.56	23.45	18.42	-30.6	-33.0	10.9	1.27e-03	0	44	102	1048576	21	4751
2026-01-24 00:08:20.56	23.49	18.54	-30.6	-32.8	11.6	8.38e-04	0	43	102	1048576	21	4675
2026-01-24 00:08:21.56	23.54	18.66	-30.7	-33.2	11.3	9.00e-04	0	43	102	1048576	21	4811
2026-01-24 00:08:22.57	23.58	18.78	-30.6	-32.9	11.5	3.47e-03	0	43	102	1048576	21	4685
2026-01-24 00:08:23.57	23.62	18.91	-30.7	-33.3	11.3	1.38e-03	0	44	102	1048576	21	4840
2026-01-24 00:08:24.58	23.66	19.03	-30.8	-33.4	11.2	1.81e-03	0	43	102	1048576	21	4880
2026-01-24 00:08:25.58	23.71	19.15	-30.6	-32.9	11.6	4.94e-03	0	44	102	1048576	21	4692
2026-01-24 00:08:26.59	23.75	19.28	-30.2	-32.3	12.3	2.40e-03	0	44	102	1048576	20	4585
2026-01-24 00:08:27.59	23.79	19.41	-30.3	-32.4	12.3	1.91e-04	0	44	102	1048576	20	4622
2026-01-24 00:08:28.59	23.84	19.53	-30.4	-32.7	12.0	4.51e-03	0	43	102	1048576	20	4730
2026-01-24 00:08:29.60	23.88	19.66	-30.2	-32.4	12.3	2.26e-03	0	43	102	1048576	20	4590
2026-01-24 00:08:30.60	23.93	19.79	-30.2	-32.3	12.4	9.91e-05	0	43	102	1048576	20	4584
2026-01-24 00:08:31.60	23.97	19.91	-30.3	-32.7	12.2	2.05e-04	0	43	102	1048576	20	4694
2026-01-24 00:08:32.61	24.02	20.04	-30.4	-32.9	12.0	2.42e-03	0	43	102	1048576	20	4768
2026-01-24 00:08:33.61	24.06	20.17	-30.4	-32.9	12.0	2.27e-04	0	43	102	1048576	20	4768
2026-01-24 00:08:34.61	24.11	20.30	-29.7	-32.9	11.5	1.46e-02	0	43	102	1048576	19	5216
2026-01-24 00:08:35.62	24.16	20.43	-29.8	-32.9	11.7	1.39e-02	0	44	102	1048576	19	5138
2026-01-24 00:08:36.63	24.20	20.56	-29.4	-32.2	12.0	1.54e-02	0	44	102	1048576	19	4931
2026-01-24 00:08:37.64	24.25	20.70	-29.5	-32.4	11.9	1.36e-02	0	44	102	1048576	19	5022
2026-01-24 00:08:38.65	24.30	20.83	-29.7	-32.9	11.5	1.65e-02	0	44	102	1048576	19	5236
2026-01-24 00:08:39.65	24.35	20.96	-29.6	-32.1	11.6	1.72e-02	0	44	102	1048576	20	4823
2026-01-24 00:08:40.65	24.39	21.10	-29.4	-31.9	12.2	1.53e-02	0	44	102	1048576	19	4810
2026-01-24 00:08:41.65	24.44	21.23	-29.1	-31.0	12.8	1.13e-02	0	44	102	1048576	19	4487
2026-01-24 00:08:42.65	24.49	21.36	-29.2	-31.5	13.1	1.35e-02	0	43	102	1048576	18	4661
2026-01-24 00:08:43.65	24.54	21.50	-28.9	-30.8	13.3	1.73e-02	0	44	102	1048576	18	4458
2026-01-24 00:08:44.66	24.59	21.64	-28.8	-30.8	13.3	1.29e-02	0	44	102	1048576	18	4525
2026-01-24 00:08:45.66	24.64	21.77	-28.7	-30.3	13.5	1.40e-02	0	44	102	1048576	18	4362
2026-01-24 00:08:46.66	24.69	21.91	-28.8	-30.6	13.4	1.36e-02	0	44	102	1048576	18	4434
2026-01-24 00:08:47.66	24.74	22.05	-29.0	-30.9	13.3	1.42e-02	0	44	102	1048576	18	4489
2026-01-24 00:08:48.67	24.79	22.19	-28.9	-30.5	13.8	8.82e-03	0	43	102	1048576	18	4320
2026-01-24 00:08:49.67	24.85	22.33	-29.0	-30.8	13.4	1.09e-02	0	44	102	1048576	18	4419
2026-01-24 00:08:50.68	24.90	22.47	-29.0	-30.7	13.7	1.04e-02	0	44	102	1048576	18	4378
2026-01-24 00:08:51.68	24.95	22.61	-28.8	-30.4	13.6	8.41e-03	0	44	102	1048576	18	4369
2026-01-24 00:08:52.68	25.00	22.76	-28.8	-30.5	13.7	6.57e-03	0	44	102	1048576	18	4376
2026-01-24 00:08:53.68	25.06	22.90	-28.9	-30.4	13.8	5.08e-03	0	44	102	1048576	18	4277
2026-01-24 00:08:54.69	25.11	23.04	-28.7	-30.7	13.9	1.19e-02	0	44	102	1048576	17	4517
2026-01-24 00:08:55.69	25.17	23.19	-28.9	-30.8	13.8	6.01e-03	0	44	102	1048576	17	4503
2026-01-24 00:08:56.69	25.22	23.33	-28.9	-30.7	13.9	7.97e-03	0	44	102	1048576	17	4458
2026-01-24 00:08:57.70	25.28	23.48	-28.9	-31.0	13.8	4.60e-03	0	44	102	1048576	17	4547
2026-01-24 00:08:58.71	25.33	23.63	-29.0	-30.6	13.8	1.03e-02	0	44	102	1048576	18	4331
2026-01-24 00:08:59.71	25.39	23.78	-29.0	-30.8	13.6	6.15e-03	0	44	102	1048576	18	4421
2026-01-24 00:09:00.72	25.45	23.93	-29.0	-30.5	13.8	6.05e-03	0	44	102	1048576	18	4294
2026-01-24 00:09:01.73	25.51	24.08	-28.9	-31.0	13.8	1.15e-02	0	44	102	1048576	17	4543
2026-01-24 00:09:02.72	25.56	24.23	-29.0	-30.6	13.8	4.64e-03	0	44	102	1048576	18	4322
2026-01-24 00:09:03.73	25.62	24.38	-28.9	-30.5	13.7	5.39e-03	0	44	102	1048576	18	4335
2026-01-24 00:09:04.73	25.68	24.53	-28.9	-30.8	13.5	1.11e-02	0	44	102	1048576	18	4455
2026-01-24 00:09:05.73	25.74	24.69	-29.0	-30.7	13.7	6.13e-03	0	44	102	1048576	18	4340
2026-01-24 00:09:06.74	25.80	24.84	-29.0	-30.9	13.4	5.33e-03	0	44	102	1048576	18	4485
2026-01-24 00:09:07.74	25.86	25.00	-29.0	-30.7	13.8	1.11e-02	0	44	102	1048576	18	4386
2026-01-24 00:09:08.75	25.92	25.15	-28.8	-30.5	13.7	4.67e-03	0	44	102	1048576	18	4357
2026-01-24 00:09:09.75	25.98	25.31	-29.7	-31.1	13.7	1.86e-03	0	44	102	1048576	19	4269
2026-01-24 00:09:10.76	26.05	25.47	-29.5	-30.8	13.9	1.62e-03	0	44	102	1048576	19	4162
2026-01-24 00:09:11.77	26.11	25.63	-29.6	-30.8	14.0	1.20e-03	0	44	102	1048576	19	4169
2026-01-24 00:09:12.77	26.17	25.79	-29.5	-30.7	14.0	2.20e-06	0	44	102	1048576	19	4120
2026-01-24 00:09:13.77	26.24	25.95	-29.6	-31.0	13.8	1.39e-03	0	44	102	1048576	19	4215
2026-01-24 00:09:14.78	26.30	26.11	-29.8	-31.3	13.6	4.50e-06	0	44	102	1048576	19	4323
2026-01-24 00:09:15.77	26.37	26.27	-29.5	-30.8	13.9	0.00e+00	0	44	102	1048576	19	4149
2026-01-24 00:09:16.78	26.43	26.43	-29.5	-30.7	14.0	1.50e-06	0	44	102	1048576	19	4140
2026-01-24 00:09:17.78	26.50	26.60	-29.6	-30.8	14.0	2.20e-06	0	44	102	1048576	19	4165
2026-01-24 00:09:18.78	26.57	26.76	-29.3	-30.8	14.3	1.23e-03	0	44	102	1048576	18	4233
2026-01-24 00:09:19.78	26.64	26.93	-29.3	-30.7	14.3	1.50e-06	0	44	102	1048576	18	4231
2026-01-24 00:09:20.78	26.70	27.10	-29.1	-30.2	14.6	7.00e-07	0	44	102	1048576	18	4074
2026-01-24 00:09:21.78	26.77	27.26	-29.1	-30.0	14.8	6.05e-04	0	44	102	1048576	18	4002
2026-01-24 00:09:22.79	26.84	27.43	-28.7	-29.7	15.2	7.00e-07	0	44	102	1048576	17	4029
2026-01-24 00:09:23.79	26.92	27.60	-28.8	-29.9	15.1	0.00e+00	0	44	102	1048576	17	4076
2026-01-24 00:09:24.80	26.99	27.78	-28.8	-29.8	15.3	3.55e-04	0	43	102	1048576	17	4062
2026-01-24 00:09:25.80	27.06	27.95	-28.6	-29.4	15.5	0.00e+00	0	43	102	1048576	17	3929
2026-01-24 00:09:26.80	27.13	28.12	-28.7	-29.6	15.3	0.00e+00	0	44	102	1048576	17	3991
2026-01-24 00:09:27.80	27.21	28.30	-28.7	-29.6	15.3	0.00e+00	0	44	102	1048576	17	3999
2026-01-24 00:09:28.81	27.28	28.47	-28.7	-29.7	15.3	3.49e-04	0	44	102	1048576	17	4033
2026-01-24 00:09:29.80	27.35	28.65	-28.8	-29.8	15.2	0.00e+00	0	44	102	1048576	17	4044
2026-01-24 00:09:30.81	27.43	28.83	-28.7	-29.6	15.4	0.00e+00	0	44	102	1048576	17	4005
2026-01-24 00:09:31.81	27.51	29.00	-28.4	-29.4	14.6	3.42e-04	0	44	102	1048576	18	4026
2026-01-24 00:09:32.82	27.59	29.18	-29.5	-30.6	14.1	7.00e-07	0	44	102	1048576	19	4075
2026-01-24 00:09:33.81	27.66	29.36	-29.4	-30.9	13.8	0.00e+00	0	44	102	1048576	18	4273
2026-01-24 00:09:34.82	27.74	29.55	-29.4	-30.7	14.1	7.00e-07	0	44	102	1048576	18	4212
2026-01-24 00:09:35.82	27.82	29.73	-29.6	-30.8	14.0	3.80e-06	0	44	102	1048576	19	4152
2026-01-24 00:09:36.82	27.90	29.91	-29.9	-31.7	13.5	5.30e-06	0	44	102	1048576	19	4410
2026-01-24 00:09:37.82	27.99	30.10	-30.0	-31.5	13.3	1.29e-05	0	44	102	1048576	20	4269
2026-01-24 00:09:38.83	28.07	30.29	-30.6	-32.7	12.1	2.74e-05	0	44	102	1048576	21	4586
2026-01-24 00:09:39.83	28.15	30.47	-30.6	-32.7	12.0	2.75e-04	0	44	102	1048576	21	4598
2026-01-24 00:09:40.84	28.24	30.66	-30.5	-32.3	12.3	2.08e-04	0	44	102	1048576	21	4461
2026-01-24 00:09:41.85	28.32	30.85	-30.7	-32.8	11.9	2.24e-04	0	44	102	1048576	21	4633
2026-01-24 00:09:42.85	28.41	31.05	-30.6	-32.6	12.2	8.53e-04	0	44	102	1048576	21	4533
2026-01-24 00:09:43.86	28.50	31.24	-30.9	-33.5	11.5	3.11e-04	0	44	102	1048576	21	4876
2026-01-24 00:09:44.86	28.59	31.43	-30.8	-32.6	11.9	6.74e-04	0	44	102	1048576	22	4443
2026-01-24 00:09:45.86	28.68	31.63	-30.6	-32.2	12.1	1.02e-03	0	44	102	1048576	22	4325
2026-01-24 00:09:46.87	28.77	31.82	-30.9	-33.6	11.5	1.12e-03	0	44	102	1048576	21	4886
2026-01-24 00:09:47.88	28.86	32.02	-30.8	-33.2	11.7	3.79e-04	0	44	102	1048576	21	4766
2026-01-24 00:09:48.88	28.95	32.22	-30.8	-33.2	11.8	4.08e-04	0	44	102	1048576	21	4735
2026-01-24 00:09:49.89	29.05	32.42	-30.9	-33.5	11.6	1.21e-03	0	44	102	1048576	21	4875
2026-01-24 00:09:50.90	29.14	32.63	-30.8	-33.2	11.8	5.20e-04	0	44	102	1048576	21	4749
2026-01-24 00:09:51.91	29.24	32.83	-30.6	-32.6	12.1	5.33e-04	0	44	102	1048576	21	4557
2026-01-24 00:09:52.92	29.34	33.03	-30.6	-32.6	12.2	7.10e-04	0	44	102	1048576	21	4545
2026-01-24 00:09:53.92	29.44	33.24	-30.7	-33.0	12.0	2.93e-04	0	44	102	1048576	21	4683
2026-01-24 00:09:54.93	29.54	33.45	-30.5	-32.2	12.5	5.48e-04	0	44	102	1048576	21	4402
2026-01-24 00:09:55.93	29.64	33.65	-30.9	-33.6	11.5	1.03e-03	0	44	102	1048576	21	4893
2026-01-24 00:09:56.93	29.74	33.86	-30.7	-33.0	12.0	6.19e-04	0	44	102	1048576	21	4672
2026-01-24 00:09:57.93	29.84	34.07	-30.8	-33.4	11.7	7.78e-04	0	44	102	1048576	21	4825
2026-01-24 00:09:58.93	29.95	34.28	-30.7	-32.9	12.0	3.33e-04	0	44	102	1048576	21	4651
2026-01-24 00:09:59.94	30.05	34.50	-30.6	-32.6	12.2	2.24e-04	0	44	102	1048576	21	4532
2026-01-24 00:10:00.94	30.16	34.71	-31.0	-33.2	11.5	1.03e-03	0	44	102	1048576	22	4643
2026-01-24 00:10:01.95	30.27	34.93	-30.8	-33.1	11.9	1.49e-03	0	44	102	1048576	21	4704
2026-01-24 00:10:02.96	30.38	35.15	-30.7	-33.0	11.9	3.26e-04	0	44	102	1048576	21	4695
2026-01-24 00:10:03.96	30.49	35.37	-30.8	-33.3	11.8	1.74e-03	0	44	102	1048576	21	4776
2026-01-24 00:10:04.96	30.60	35.59	-31.1	-33.6	11.3	1.86e-03	0	44	102	1048576	22	4797
2026-01-24 00:10:05.96	30.72	35.81	-31.1	-33.7	11.2	1.45e-03	0	44	102	1048576	22	4838
2026-01-24 00:10:06.97	30.83	36.03	-31.2	-34.0	11.0	2.73e-03	0	44	102	1048576	22	4957
2026-01-24 00:10:07.97	30.95	36.26	-31.3	-34.1	10.9	2.92e-03	0	44	102	1048576	22	5010
2026-01-24 00:10:08.98	31.07	36.48	-31.1	-33.6	11.2	2.34e-03	0	44	102	1048576	22	4793
2026-01-24 00:10:09.98	31.19	36.71	-31.1	-33.5	11.3	2.16e-03	0	44	102	1048576	22	4760
2026-01-24 00:10:10.98	31.31	36.94	-31.3	-34.2	10.8	2.87e-03	0	44	102	1048576	22	5033
2026-01-24 00:10:11.98	31.44	37.17	-31.3	-34.1	10.9	1.21e-03	0	44	102	1048576	22	5001
2026-01-24 00:10:12.98	31.56	37.40	-31.4	-34.6	10.6	2.92e-03	0	44	102	1048576	22	5189
2026-01-24 00:10:13.99	31.69	37.63	-31.4	-33.9	10.6	5.85e-03	0	44	102	1048576	23	4843
2026-01-24 00:10:14.99	31.82	37.87	-31.8	-35.5	9.5	7.06e-03	0	44	102	1048576	23	5504
2026-01-24 00:10:16.00	31.95	38.11	-31.7	-35.1	9.8	1.19e-02	0	44	102	1048576	23	5311
2026-01-24 00:10:17.00	32.09	38.34	-31.9	-35.9	9.3	1.56e-02	0	44	102	1048576	23	5661
2026-01-24 00:10:18.01	32.22	38.58	-31.8	-35.6	9.4	1.57e-02	0	44	102	1048576	23	5527
2026-01-24 00:10:19.01	32.36	38.82	-31.4	-34.0	10.4	7.67e-03	0	44	102	1048576	23	4850
2026-01-24 00:10:20.02	32.50	39.07	-31.6	-34.6	10.2	6.34e-03	0	44	102	1048576	23	5081
2026-01-24 00:10:21.02	32.64	39.31	-31.8	-35.6	9.5	9.85e-03	0	44	102	1048576	23	5535
2026-01-24 00:10:22.03	32.78	39.56	-31.8	-35.2	9.8	7.40e-03	0	44	102	1048576	23	5369
2026-01-24 00:10:23.03	32.93	39.80	-31.9	-35.6	9.4	1.50e-02	0	44	102	1048576	23	5552
2026-01-24 00:10:24.04	33.08	40.05	-32.2	-36.4	8.5	2.53e-02	0	44	102	1048576	24	5843
2026-01-24 00:10:25.05	33.23	40.31	-32.1	-36.2	8.6	3.87e-02	0	44	102	1048576	24	5748
2026-01-24 00:10:26.05	33.38	40.56	-32.2	-36.5	8.5	3.36e-02	0	44	102	1048576	24	5882
2026-01-24 00:10:27.06	33.53	40.81	-32.1	-35.8	8.9	6.36e-02	0	44	102	1048576	24	5560
2026-01-24 00:10:28.06	33.69	41.07	-32.1	-35.8	8.9	3.04e-02	0	44	102	1048576	24	5562
2026-01-24 00:10:29.06	33.85	41.32	-32.1	-36.0	8.8	3.68e-02	0	44	102	1048576	24	5631
2026-01-24 00:10:30.06	34.01	41.58	-31.7	-34.6	10.0	1.86e-02	0	44	102	1048576	24	4997
2026-01-24 00:10:31.06	34.17	41.84	-31.5	-34.3	10.5	6.50e-03	0	44	102	1048576	23	4975
2026-01-24 00:10:32.06	34.34	42.10	-31.5	-34.3	10.5	7.29e-03	0	44	102	1048576	23	4982
2026-01-24 00:10:33.07	34.51	42.36	-31.6	-34.7	10.2	6.76e-03	0	44	102	1048576	23	5139
2026-01-24 00:10:34.07	34.68	42.63	-31.7	-35.1	9.9	6.39e-03	0	44	102	1048576	23	5305
2026-01-24 00:10:35.08	34.86	42.89	-31.4	-34.0	10.7	6.48e-03	0	44	102	1048576	23	4851
2026-01-24 00:10:36.09	35.03	43.16	-31.4	-34.4	10.8	4.83e-03	0	44	102	1048576	22	5115
2026-01-24 00:10:37.09	35.21	43.43	-31.3	-34.3	10.9	2.27e-03	0	44	102	1048576	22	5036
2026-01-24 00:10:38.09	35.40	43.70	-30.8	-32.7	12.0	1.18e-03	0	44	102	1048576	22	4443
2026-01-24 00:10:39.10	35.59	43.98	-30.7	-32.7	12.4	5.94e-04	0	44	102	1048576	21	4532
2026-01-24 00:10:40.09	35.77	44.25	-30.8	-33.2	12.1	3.72e-04	0	44	102	1048576	21	4717
2026-01-24 00:10:41.10	35.97	44.53	-30.8	-32.6	12.1	3.62e-04	0	44	102	1048576	22	4431
2026-01-24 00:10:42.09	36.16	44.80	-30.4	-31.4	13.0	4.54e-04	0	44	102	1048576	22	4027
2026-01-24 00:10:43.09	36.36	45.08	-30.3	-32.0	13.2	1.11e-03	0	44	102	1048576	20	4401
2026-01-24 00:10:44.10	36.56	45.36	-30.2	-31.9	13.3	1.22e-05	0	44	102	1048576	20	4351
2026-01-24 00:10:45.10	36.77	45.64	-30.3	-32.1	13.1	9.44e-04	0	44	102	1048576	20	4433
2026-01-24 00:10:46.10	36.98	45.92	-30.3	-32.2	13.1	1.03e-03	0	44	102	1048576	20	4472
2026-01-24 00:10:47.11	37.20	46.21	-30.4	-32.3	13.0	2.28e-05	0	44	102	1048576	20	4511
2026-01-24 00:10:48.11	37.41	46.50	-30.2	-31.5	13.1	1.18e-03	0	44	102	1048576	21	4143
2026-01-24 00:10:49.11	37.63	46.78	-30.8	-32.9	12.3	1.23e-03	0	44	102	1048576	21	4599
2026-01-24 00:10:50.12	37.86	47.08	-31.0	-33.2	11.7	4.88e-04	0	44	102	1048576	22	4639
2026-01-24 00:10:51.13	38.09	47.37	-31.0	-33.0	11.9	1.45e-03	0	44	102	1048576	22	4549
2026-01-24 00:10:52.14	38.33	47.67	-30.9	-33.3	11.9	1.43e-03	0	44	102	1048576	21	4766
2026-01-24 00:10:53.14	38.57	47.96	-31.1	-33.5	11.6	5.15e-04	0	44	102	1048576	22	4714
2026-01-24 00:10:54.14	38.81	48.25	-31.2	-33.8	11.3	1.27e-03	0	44	102	1048576	22	4825
2026-01-24 00:10:55.14	39.06	48.55	-31.2	-33.6	11.4	1.13e-03	0	44	102	1048576	22	4777
2026-01-24 00:10:56.14	39.31	48.85	-31.2	-33.6	11.4	6.25e-04	0	44	102	1048576	22	4764
2026-01-24 00:10:57.14	39.57	49.15	-30.8	-32.5	12.2	3.71e-04	0	44	102	1048576	22	4378
2026-01-24 00:10:58.15	39.83	49.45	-30.6	-32.4	12.8	1.01e-04	0	44	102	1048576	21	4438
2026-01-24 00:10:59.16	40.10	49.76	-30.4	-31.8	13.1	4.04e-05	0	44	102	1048576	21	4250
2026-01-24 00:11:00.16	40.37	50.06	-30.5	-32.1	12.8	4.50e-05	0	44	102	1048576	21	4354
2026-01-24 00:11:01.16	40.65	50.37	-30.2	-31.8	13.3	2.51e-05	0	44	102	1048576	20	4344
2026-01-24 00:11:02.17	40.94	50.68	-30.1	-31.4	13.6	6.10e-06	0	44	102	1048576	20	4222
2026-01-24 00:11:03.17	41.23	50.98	-30.0	-31.3	13.7	8.12e-04	0	44	102	1048576	20	4190
2026-01-24 00:11:04.18	41.53	51.30	-30.0	-31.4	13.7	7.00e-07	0	44	102	1048576	20	4200
2026-01-24 00:11:05.18	41.83	51.61	-30.1	-31.6	13.5	8.30e-06	0	44	102	1048576	20	4265
2026-01-24 00:11:06.18	42.13	51.92	-29.8	-30.8	14.1	1.06e-03	0	44	102	1048576	20	4040
2026-01-24 00:11:07.19	42.45	52.24	-29.8	-30.8	14.1	1.98e-05	0	44	102	1048576	20	4032
2026-01-24 00:11:08.19	42.77	52.55	-29.4	-29.7	14.7	0.00e+00	0	44	102	1048576	20	3729
2026-01-24 00:11:09.20	43.10	52.87	-29.2	-29.7	15.0	9.00e-05	0	44	102	1048576	19	3827
2026-01-24 00:11:10.20	43.44	53.18	-29.4	-30.6	14.8	4.31e-04	0	44	102	1048576	18	4143
2026-01-24 00:11:11.21	43.78	53.50	-29.0	-29.8	15.3	0.00e+00	0	44	102	1048576	18	3922
2026-01-24 00:11:12.22	44.14	53.83	-28.9	-29.3	15.5	0.00e+00	0	44	102	1048576	18	3810
2026-01-24 00:11:13.22	44.49	54.14	-28.8	-29.2	15.6	7.00e-07	0	44	102	1048576	18	3771
2026-01-24 00:11:14.21	44.86	54.46	-28.7	-29.0	15.8	0.00e+00	0	44	102	1048576	18	3711
2026-01-24 00:11:15.21	45.23	54.78	-28.5	-28.5	16.0	0.00e+00	0	44	102	1048576	18	3589
2026-01-24 00:11:16.22	45.62	55.11	-28.2	-28.4	16.5	0.00e+00	0	44	102	1048576	17	3661
2026-01-24 00:11:17.21	46.00	55.43	-28.1	-28.1	16.6	0.00e+00	0	44	102	1048576	17	3600
2026-01-24 00:11:18.22	46.41	55.75	-28.1	-28.5	16.6	3.68e-04	0	44	102	1048576	16	3775
2026-01-24 00:11:19.22	46.81	56.08	-27.7	-28.2	17.0	0.00e+00	0	44	102	1048576	15	3799
2026-01-24 00:11:20.22	47.23	56.40	-28.0	-28.4	16.7	0.00e+00	0	44	102	1048576	16	3760
2026-01-24 00:11:21.23	47.67	56.73	-28.3	-29.1	16.3	3.68e-04	0	44	102	1048576	16	3921
2026-01-24 00:11:22.23	48.10	57.05	-28.1	-28.5	16.7	0.00e+00	0	44	102	1048576	16	3766
2026-01-24 00:11:23.23	48.55	57.38	-27.8	-27.7	17.1	0.00e+00	0	44	102	1048576	16	3594
2026-01-24 00:11:24.24	49.02	57.71	-27.8	-28.5	16.8	3.76e-04	0	44	102	1048576	15	3880
2026-01-24 00:11:25.24	49.49	58.03	-28.2	-28.9	16.5	4.07e-04	0	44	102	1048576	16	3866
2026-01-24 00:11:26.25	49.98	58.36	-28.3	-28.6	16.4	0.00e+00	0	44	102	1048576	17	3698
2026-01-24 00:11:27.25	50.47	58.68	-28.1	-28.6	16.6	0.00e+00	0	44	102	1048576	16	3794
2026-01-24 00:11:28.26	50.98	59.01	-27.8	-28.4	16.9	9.42e-04	0	44	102	1048576	15	3863
2026-01-24 00:11:29.26	51.50	59.34	-28.7	-29.3	16.0	0.00e+00	0	44	102	1048576	17	3894
2026-01-24 00:11:30.27	52.04	59.66	-29.0	-29.8	15.4	0.00e+00	0	44	102	1048576	18	3924
2026-01-24 00:11:31.27	52.58	59.99	-29.5	-30.5	14.7	6.45e-04	0	44	102	1048576	19	4025
2026-01-24 00:11:32.27	53.14	60.31	-29.5	-30.5	14.7	0.00e+00	0	44	102	1048576	19	4023
2026-01-24 00:11:33.27	53.72	60.63	-29.5	-30.4	14.8	4.56e-04	0	44	102	1048576	19	3998
2026-01-24 00:11:34.28	54.31	60.96	-29.6	-30.7	14.6	4.94e-04	0	44	102	1048576	19	4072
2026-01-24 00:11:35.28	54.91	61.28	-30.0	-31.2	13.8	4.50e-06	0	44	102	1048576	20	4141
2026-01-24 00:11:36.29	55.54	61.60	-29.8	-31.2	13.8	1.22e-03	0	44	102	1048576	19	4210
2026-01-24 00:11:37.30	56.18	61.92	-29.6	-30.8	14.5	0.00e+00	0	44	102	1048576	19	4098
2026-01-24 00:11:38.29	56.83	62.23	-29.0	-29.2	15.4	0.00e+00	0	44	102	1048576	19	3689
2026-01-24 00:11:39.30	57.50	62.55	-28.6	-29.2	16.0	5.26e-04	0	44	102	1048576	17	3865
2026-01-24 00:11:40.30	58.19	62.86	-28.3	-28.4	16.5	9.57e-04	0	44	102	1048576	17	3659
2026-01-24 00:11:41.31	58.90	63.18	-28.0	-28.4	16.9	0.00e+00	0	44	102	1048576	16	3736
2026-01-24 00:11:42.31	59.62	63.48	-28.4	-29.1	16.4	1.03e-03	0	44	102	1048576	16	3934
2026-01-24 00:11:43.32	60.37	63.79	-28.7	-29.5	15.9	1.07e-03	0	44	102	1048576	17	3924
2026-01-24 00:11:44.32	61.14	64.10	-28.9	-29.9	15.8	1.23e-04	0	44	102	1048576	17	4036
2026-01-24 00:11:45.33	61.93	64.40	-28.6	-29.2	16.1	1.21e-03	0	44	102	1048576	17	3847
2026-01-24 00:11:46.33	62.73	64.70	-28.7	-29.5	16.0	1.28e-03	0	44	102	1048576	17	3927
2026-01-24 00:11:47.34	63.56	64.99	-29.0	-29.7	15.6	0.00e+00	0	44	102	1048576	18	3904
2026-01-24 00:11:48.35	64.41	65.28	-28.7	-29.5	16.0	2.18e-03	0	44	102	1048576	17	3937
2026-01-24 00:11:49.35	65.28	65.57	-28.9	-29.4	15.8	1.02e-03	0	44	102	1048576	18	3814
2026-01-24 00:11:50.35	66.17	65.85	-29.5	-30.3	15.0	0.00e+00	0	44	102	1048576	19	3950
2026-01-24 00:11:51.35	67.09	66.13	-29.5	-30.4	14.9	2.11e-03	0	44	102	1048576	19	3975
2026-01-24 00:11:52.35	68.02	66.40	-29.4	-30.2	15.1	2.23e-04	0	44	102	1048576	19	3917
2026-01-24 00:11:53.35	68.98	66.67	-30.0	-31.1	14.1	0.00e+00	0	44	102	1048576	20	4097
2026-01-24 00:11:54.36	69.98	66.93	-30.6	-32.3	13.0	2.00e-03	0	44	102	1048576	21	4376
2026-01-24 00:11:55.36	70.99	67.19	-31.3	-33.7	11.8	4.00e-04	0	44	102	1048576	22	4764
2026-01-24 00:11:56.36	72.02	67.44	-31.9	-35.2	10.2	2.17e-03	0	44	102	1048576	23	5286
2026-01-24 00:11:57.37	73.09	67.69	-31.9	-35.3	10.3	9.72e-03	0	44	102	1048576	23	5315
2026-01-24 00:11:58.37	74.18	67.93	-31.0	-32.4	12.3	6.01e-04	0	44	102	1048576	23	4209
2026-01-24 00:11:59.38	75.30	68.16	-30.8	-32.7	12.9	7.52e-04	0	44	102	1048576	21	4509
2026-01-24 00:12:00.38	76.43	68.39	-31.7	-34.6	10.8	1.05e-03	0	44	102	1048576	23	5034
2026-01-24 00:12:01.39	77.61	68.61	-31.8	-35.0	10.5	5.85e-03	0	44	102	1048576	23	5179
2026-01-24 00:12:02.39	78.79	68.82	-31.4	-33.7	11.3	2.22e-03	0	44	102	1048576	23	4669
2026-01-24 00:12:03.39	80.00	69.02	-31.1	-33.2	12.1	2.10e-03	0	44	102	1048576	22	4587
2026-01-24 00:12:04.39	81.24	69.21	-30.9	-32.6	12.5	1.59e-04	0	44	102	1048576	22	4361
2026-01-24 00:12:05.40	82.51	69.40	-31.0	-33.0	12.3	1.30e-04	0	44	102	1048576	22	4500
2026-01-24 00:12:06.41	83.81	69.57	-30.8	-32.4	12.7	2.69e-04	0	44	102	1048576	22	4302
2026-01-24 00:12:07.42	85.13	69.74	-30.4	-31.6	13.6	1.75e-03	0	44	102	1048576	21	4143
2026-01-24 00:12:08.41	86.45	69.90	-30.1	-31.5	13.9	1.73e-03	0	44	102	1048576	20	4196
2026-01-24 00:12:09.41	87.80	70.04	-30.5	-32.0	13.3	2.09e-03	0	44	102	1048576	21	4264
2026-01-24 00:12:10.42	89.19	70.18	-30.6	-32.2	13.0	8.77e-05	0	44	102	1048576	21	4324
2026-01-24 00:12:11.42	90.58	70.30	-30.3	-31.8	13.7	2.27e-03	0	44	102	1048576	20	4310
2026-01-24 00:12:12.42	91.99	70.42	-30.4	-32.2	13.5	2.07e-03	0	44	102	1048576	20	4408
2026-01-24 00:12:13.43	93.43	70.52	-30.4	-32.1	13.6	1.45e-04	0	44	102	1048576	20	4378
2026-01-24 00:12:14.44	94.89	70.61	-29.8	-30.5	14.5	2.05e-03	0	44	102	1048576	20	3918
2026-01-24 00:12:15.45	96.36	70.70	-29.3	-29.8	15.4	2.26e-03	0	44	102	1048576	19	3812
2026-01-24 00:12:16.46	97.84	70.76	-29.5	-30.7	15.1	1.46e-04	0	44	102	1048576	18	4143
2026-01-24 00:12:17.46	99.32	70.82	-29.7	-30.9	14.9	1.98e-03	0	44	102	1048576	19	4108
2026-01-24 00:12:18.47	100.82	70.87	-30.1	-31.4	13.9	1.50e-03	0	44	102	1048576	20	4179
2026-01-24 00:12:19.47	102.32	70.90	-30.4	-31.7	13.5	1.14e-05	0	44	102	1048576	21	4178
2026-01-24 00:12:20.47	103.82	70.92	-30.1	-31.4	14.1	1.14e-03	0	44	102	1048576	20	4163
2026-01-24 00:12:21.48	105.33	70.93	-30.9	-33.0	12.7	1.52e-03	0	44	102	1048576	21	4600
2026-01-24 00:12:22.49	106.85	70.92	-31.7	-34.5	10.9	1.10e-03	0	44	102	1048576	23	4957
2026-01-24 00:12:23.49	108.35	70.91	-31.5	-33.8	11.4	3.34e-03	0	44	102	1048576	23	4679
2026-01-24 00:12:24.50	109.86	70.88	-30.6	-31.7	13.1	5.18e-05	0	44	102	1048576	22	4069
2026-01-24 00:12:25.50	111.35	70.83	-30.5	-31.9	13.4	1.22e-05	0	44	102	1048576	21	4240
2026-01-24 00:12:26.50	112.83	70.78	-31.1	-33.2	12.3	1.26e-03	0	44	102	1048576	22	4554
2026-01-24 00:12:27.50	114.30	70.72	-30.5	-32.6	11.6	2.23e-03	0	44	102	1048576	23	4587
2026-01-24 00:12:28.51	115.78	70.64	-31.7	-34.3	11.1	1.20e-03	0	44	102	1048576	23	4877
2026-01-24 00:12:29.51	117.22	70.55	-31.4	-34.1	11.6	1.87e-03	0	44	102	1048576	22	4884
2026-01-24 00:12:30.52	118.67	70.45	-32.0	-35.1	10.2	3.03e-03	0	44	102	1048576	24	5114
2026-01-24 00:12:31.52	120.09	70.34	-32.0	-34.8	10.4	4.41e-03	0	44	102	1048576	24	4999
2026-01-24 00:12:32.51	121.47	70.22	-31.7	-34.4	11.1	3.24e-03	0	44	102	1048576	23	4918
2026-01-24 00:12:33.51	122.85	70.08	-31.9	-35.3	10.4	5.54e-03	0	44	102	1048576	23	5275
2026-01-24 00:12:34.50	124.20	69.94	-31.6	-33.5	11.3	4.75e-03	0	44	102	1048576	24	4492
2026-01-24 00:12:35.50	125.53	69.79	-30.9	-32.6	12.6	7.01e-05	0	44	102	1048576	22	4373
2026-01-24 00:12:36.51	126.86	69.63	-31.3	-33.8	11.8	1.88e-03	0	44	102	1048576	22	4780
2026-01-24 00:12:37.51	128.16	69.45	-31.6	-34.2	11.1	1.19e-03	0	44	102	1048576	23	4848
2026-01-24 00:12:38.51	129.43	69.27	-30.8	-32.4	12.8	4.63e-04	0	44	102	1048576	22	4287
2026-01-24 00:12:39.51	130.67	69.08	-30.7	-32.5	12.8	4.73e-05	0	44	102	1048576	21	4432
2026-01-24 00:12:40.51	131.89	68.88	-30.8	-32.3	12.8	1.35e-04	0	44	102	1048576	22	4269
2026-01-24 00:12:41.51	133.09	68.68	-30.7	-32.4	13.1	2.16e-04	0	44	102	1048576	21	4402
2026-01-24 00:12:42.51	134.26	68.46	-30.8	-32.6	12.9	5.18e-05	0	44	102	1048576	21	4471
2026-01-24 00:12:43.52	135.42	68.24	-31.1	-33.0	12.4	9.61e-05	0	44	102	1048576	22	4501
2026-01-24 00:12:44.52	136.54	68.01	-31.7	-34.5	10.9	1.93e-03	0	44	102	1048576	23	4957
2026-01-24 00:12:45.52	137.63	67.77	-31.0	-32.5	12.3	1.12e-03	0	44	102	1048576	23	4248
2026-01-24 00:12:46.52	138.70	67.53	-29.7	-30.4	14.6	1.83e-05	0	44	102	1048576	20	3898
2026-01-24 00:12:47.52	139.74	67.28	-28.9	-29.2	15.8	1.70e-03	0	44	102	1048576	18	3757
2026-01-24 00:12:48.53	140.77	67.02	-28.9	-29.4	15.9	3.52e-04	0	44	102	1048576	18	3803
2026-01-24 00:12:49.54	141.78	66.76	-29.9	-31.3	14.6	0.00e+00	0	44	102	1048576	19	4242
2026-01-24 00:12:50.54	142.75	66.49	-29.9	-30.8	14.3	3.00e-06	0	44	102	1048576	20	4010
2026-01-24 00:12:51.53	143.68	66.22	-29.2	-29.9	15.6	2.19e-03	0	44	102	1048576	18	3944
2026-01-24 00:12:52.54	144.61	65.94	-28.7	-28.9	16.2	0.00e+00	0	44	102	1048576	18	3682
2026-01-24 00:12:53.55	145.52	65.66	-28.5	-29.0	16.3	1.34e-03	0	44	102	1048576	17	3790
2026-01-24 00:12:54.56	146.41	65.37	-27.4	-27.3	17.7	1.66e-03	0	44	102	1048576	15	3578
2026-01-24 00:12:55.56	147.26	65.08	-27.2	-26.9	18.1	0.00e+00	0	44	102	1048576	15	3484
2026-01-24 00:12:56.55	148.08	64.79	-28.0	-28.8	17.0	8.64e-04	0	44	102	1048576	15	3937
2026-01-24 00:12:57.56	148.90	64.49	-29.0	-29.6	15.7	0.00e+00	0	44	102	1048576	18	3866
2026-01-24 00:12:58.56	149.69	64.19	-29.1	-29.9	15.6	0.00e+00	0	44	102	1048576	18	3930
2026-01-24 00:12:59.57	150.47	63.89	-28.9	-29.5	15.8	3.66e-04	0	44	102	1048576	18	3829
2026-01-24 00:13:00.57	151.22	63.58	-28.2	-28.2	16.8	2.29e-04	0	44	102	1048576	17	3609
2026-01-24 00:13:01.58	151.96	63.27	-28.0	-27.7	17.1	0.00e+00	0	44	102	1048576	17	3492
2026-01-24 00:13:02.59	152.68	62.96	-28.5	-29.4	16.5	1.69e-04	0	44	102	1048576	16	3995
2026-01-24 00:13:03.59	153.37	62.64	-28.6	-29.1	16.3	2.78e-04	0	44	102	1048576	17	3820
2026-01-24 00:13:04.60	154.05	62.33	-27.8	-27.4	17.2	0.00e+00	0	44	102	1048576	17	3411
2026-01-24 00:13:05.60	154.71	62.01	-27.6	-27.3	17.6	4.10e-04	0	44	102	1048576	16	3478
2026-01-24 00:13:06.60	155.35	61.69	-27.9	-28.5	17.0	5.13e-04	0	44	102	1048576	15	3855
2026-01-24 00:13:07.60	155.98	61.37	-28.3	-28.4	16.7	0.00e+00	0	44	102	1048576	17	3639
2026-01-24 00:13:08.60	156.59	61.05	-28.4	-28.8	16.5	0.00e+00	0	44	102	1048576	17	3747
2026-01-24 00:13:09.61	157.19	60.73	-29.2	-30.2	15.4	6.62e-04	0	44	102	1048576	18	4025
2026-01-24 00:13:10.61	157.76	60.41	-29.0	-29.1	15.7	0.00e+00	0	44	102	1048576	19	3640
2026-01-24 00:13:11.62	158.34	60.08	-28.6	-28.6	16.4	3.34e-04	0	44	102	1048576	18	3598
2026-01-24 00:13:12.62	158.89	59.75	-28.7	-29.3	16.3	2.28e-04	0	44	102	1048576	17	3875
2026-01-24 00:13:13.62	159.42	59.43	-29.7	-30.8	14.8	0.00e+00	0	44	102	1048576	19	4085
2026-01-24 00:13:14.62	159.95	59.10	-29.7	-31.0	14.7	1.97e-04	0	44	102	1048576	19	4140
2026-01-24 00:13:15.62	160.46	58.78	-29.2	-29.7	15.5	0.00e+00	0	44	102	1048576	19	3780
2026-01-24 00:13:16.63	160.96	58.45	-29.1	-29.3	15.6	0.00e+00	0	44	102	1048576	19	3700
2026-01-24 00:13:17.63	161.45	58.12	-29.3	-30.4	15.2	2.40e-04	0	44	102	1048576	18	4072
2026-01-24 00:13:18.63	161.92	57.80	-29.4	-30.0	15.2	1.72e-04	0	44	102	1048576	19	3859
2026-01-24 00:13:19.63	162.39	57.47	-29.2	-30.2	14.6	0.00e+00	0	44	102	1048576	18	4004
2026-01-24 00:13:20.64	162.85	57.14	-30.0	-31.6	13.4	1.62e-04	0	44	102	1048576	19	4341
2026-01-24 00:13:21.65	163.29	56.81	-29.3	-29.4	15.1	1.42e-04	0	44	102	1048576	20	3633
2026-01-24 00:13:22.65	163.73	56.49	-28.1	-28.5	15.7	0.00e+00	0	44	102	1048576	16	3763
2026-01-24 00:13:23.66	164.15	56.16	-27.1	-26.7	17.9	4.34e-05	0	44	102	1048576	15	3439
2026-01-24 00:13:24.66	164.56	55.83	-27.4	-27.5	17.5	3.80e-06	0	44	102	1048576	15	3630
2026-01-24 00:13:25.67	164.97	55.51	-28.9	-29.8	15.8	5.12e-04	0	44	102	1048576	17	4018
2026-01-24 00:13:26.66	165.36	55.19	-28.8	-29.8	15.8	0.00e+00	0	44	102	1048576	17	4002
2026-01-24 00:13:27.67	165.75	54.86	-27.9	-27.5	17.1	0.00e+00	0	44	102	1048576	17	3451
2026-01-24 00:13:28.67	166.13	54.54	-27.3	-27.1	17.7	0.00e+00	0	44	102	1048576	15	3552
2026-01-24 00:13:29.67	166.50	54.22	-28.6	-29.2	16.2	1.79e-04	0	44	102	1048576	17	3854
2026-01-24 00:13:30.68	166.86	53.89	-29.4	-30.7	15.0	6.80e-06	0	44	102	1048576	18	4170
2026-01-24 00:13:31.68	167.21	53.57	-29.8	-31.1	14.4	0.00e+00	0	44	102	1048576	19	4182
2026-01-24 00:13:32.69	167.56	53.25	-29.7	-30.5	14.4	4.50e-06	0	44	102	1048576	20	3944
2026-01-24 00:13:33.69	167.90	52.93	-29.4	-29.7	14.9	0.00e+00	0	44	102	1048576	20	3718
2026-01-24 00:13:34.69	168.23	52.62	-28.9	-28.9	15.7	0.00e+00	0	44	102	1048576	19	3607
2026-01-24 00:13:35.70	168.55	52.30	-28.7	-29.0	16.1	7.00e-07	0	44	102	1048576	18	3704
2026-01-24 00:13:36.70	168.87	51.98	-28.5	-28.4	16.3	0.00e+00	0	44	102	1048576	18	3571
2026-01-24 00:13:37.70	169.18	51.67	-28.4	-28.2	16.4	0.00e+00	0	44	102	1048576	18	3522
2026-01-24 00:13:38.71	169.49	51.36	-28.6	-28.6	16.2	3.12e-05	0	44	102	1048576	18	3609
2026-01-24 00:13:39.72	169.79	51.04	-29.0	-29.7	15.6	0.00e+00	0	44	102	1048576	18	3878
2026-01-24 00:13:40.73	170.08	50.73	-30.1	-31.5	13.8	7.00e-07	0	44	102	1048576	20	4230
2026-01-24 00:13:41.74	170.37	50.42	-30.2	-31.6	13.7	1.14e-05	0	44	102	1048576	20	4257
2026-01-24 00:13:42.74	170.65	50.11	-29.1	-29.3	15.5	0.00e+00	0	44	102	1048576	19	3696
2026-01-24 00:13:43.75	170.93	49.80	-28.6	-28.6	16.2	0.00e+00	0	44	102	1048576	18	3618
2026-01-24 00:13:44.76	171.20	49.50	-29.0	-29.7	15.6	0.00e+00	0	44	102	1048576	18	3891
2026-01-24 00:13:45.76	171.46	49.19	-30.1	-31.3	13.9	1.50e-06	0	44	102	1048576	20	4174
2026-01-24 00:13:46.76	171.72	48.89	-30.8	-32.9	12.6	9.15e-05	0	44	102	1048576	21	4576
2026-01-24 00:13:47.76	171.97	48.59	-31.2	-33.6	11.8	2.14e-04	0	44	102	1048576	22	4719
2026-01-24 00:13:48.76	172.22	48.29	-31.0	-33.1	12.0	5.23e-04	0	44	102	1048576	22	4559
2026-01-24 00:13:49.77	172.47	48.00	-31.3	-33.4	11.5	1.16e-03	0	44	102	1048576	23	4580
2026-01-24 00:13:50.77	172.71	47.70	-31.1	-32.9	11.9	2.36e-04	0	44	102	1048576	23	4396
2026-01-24 00:13:51.77	172.94	47.41	-31.2	-32.9	11.9	3.75e-04	0	44	102	1048576	23	4421
2026-01-24 00:13:52.78	173.18	47.11	-31.3	-33.2	11.7	1.06e-03	0	44	102	1048576	23	4505
2026-01-24 00:13:53.78	173.40	46.82	-31.0	-32.3	12.2	3.68e-04	0	44	102	1048576	23	4214
2026-01-24 00:13:54.78	173.63	46.53	-30.7	-32.1	12.8	1.14e-04	0	44	102	1048576	22	4214
2026-01-24 00:13:55.79	173.85	46.24	-30.7	-32.1	12.7	7.85e-05	0	44	102	1048576	22	4236
2026-01-24 00:13:56.79	174.06	45.95	-31.2	-33.5	12.0	1.76e-04	0	44	102	1048576	22	4712
2026-01-24 00:13:57.79	174.27	45.67	-31.3	-33.7	11.6	5.32e-04	0	44	102	1048576	22	4795
2026-01-24 00:13:58.80	174.48	45.38	-30.7	-32.2	12.5	7.35e-04	0	44	102	1048576	22	4265
2026-01-24 00:13:59.81	174.69	45.10	-29.8	-30.7	14.1	1.76e-04	0	44	102	1048576	20	4008
2026-01-24 00:14:00.79	174.88	44.83	-29.5	-30.0	14.7	0.00e+00	0	44	102	1048576	20	3807
2026-01-24 00:14:01.80	175.08	44.55	-29.8	-31.2	14.2	2.37e-04	0	44	102	1048576	19	4230
2026-01-24 00:14:02.80	175.28	44.27	-30.2	-31.8	13.4	3.75e-04	0	44	102	1048576	20	4328
2026-01-24 00:14:03.80	175.47	43.99	-30.5	-32.0	13.1	2.44e-05	0	44	102	1048576	21	4285
2026-01-24 00:14:04.80	175.65	43.72	-30.7	-32.6	12.5	1.65e-04	0	44	102	1048576	21	4476
2026-01-24 00:14:05.80	175.84	43.45	-31.0	-33.0	12.1	1.87e-04	0	44	102	1048576	22	4513
2026-01-24 00:14:06.81	176.02	43.18	-30.8	-32.5	12.3	2.44e-04	0	44	102	1048576	22	4371
2026-01-24 00:14:07.81	176.20	42.91	-30.3	-31.6	13.2	8.01e-05	0	44	102	1048576	21	4165
2026-01-24 00:14:08.81	176.37	42.64	-29.9	-31.1	14.0	1.75e-05	0	44	102	1048576	20	4106
2026-01-24 00:14:09.81	176.54	42.38	-29.6	-30.1	14.5	2.20e-06	0	44	102	1048576	20	3838
2026-01-24 00:14:10.82	176.72	42.11	-29.0	-29.2	15.5	2.13e-05	0	44	102	1048576	19	3673
2026-01-24 00:14:11.82	176.88	41.85	-29.0	-29.7	15.5	4.27e-05	0	44	102	1048576	18	3904
2026-01-24 00:14:12.83	177.05	41.59	-28.9	-29.4	15.6	0.00e+00	0	44	102	1048576	18	3804
2026-01-24 00:14:13.84	177.21	41.32	-29.2	-30.1	15.2	3.02e-04	0	44	102	1048576	18	3994
2026-01-24 00:14:14.84	177.37	41.07	-29.5	-30.5	14.7	1.95e-04	0	44	102	1048576	19	4018
2026-01-24 00:14:15.85	177.53	40.81	-30.2	-31.7	13.6	0.00e+00	0	44	102	1048576	20	4288
2026-01-24 00:14:16.85	177.68	40.56	-30.2	-31.7	13.5	3.00e-04	0	44	102	1048576	20	4303
2026-01-24 00:14:17.86	177.84	40.30	-30.2	-31.7	13.5	3.51e-04	0	44	102	1048576	20	4301
2026-01-24 00:14:18.86	177.99	40.05	-30.2	-31.9	13.4	9.90e-06	0	44	102	1048576	20	4342
2026-01-24 00:14:19.86	178.13	39.80	-29.4	-30.2	14.8	3.07e-04	0	44	102	1048576	19	3950
2026-01-24 00:14:20.87	178.28	39.55	-29.1	-30.0	15.4	3.54e-04	0	44	102	1048576	18	3981
2026-01-24 00:14:21.87	178.42	39.30	-29.3	-30.4	15.0	0.00e+00	0	44	102	1048576	18	4078
2026-01-24 00:14:22.88	178.56	39.06	-29.5	-30.4	14.7	4.02e-04	0	44	102	1048576	19	3994
2026-01-24 00:14:23.88	178.70	38.81	-30.1	-31.5	13.7	4.12e-04	0	44	102	1048576	20	4229
2026-01-24 00:14:24.88	178.84	38.57	-30.6	-32.5	12.7	4.65e-05	0	44	102	1048576	21	4474
2026-01-24 00:14:25.89	178.98	38.33	-31.2	-33.7	11.6	9.70e-04	0	44	102	1048576	22	4781
2026-01-24 00:14:26.89	179.11	38.09	-31.2	-33.7	11.5	1.38e-03	0	44	102	1048576	22	4792
2026-01-24 00:14:27.89	179.24	37.86	-31.0	-33.0	12.0	5.45e-04	0	44	102	1048576	22	4536
2026-01-24 00:14:28.90	179.37	37.62	-30.4	-31.8	12.9	1.14e-03	0	44	102	1048576	21	4252
2026-01-24 00:14:29.90	179.50	37.38	-29.9	-31.5	14.1	3.23e-04	0	44	102	1048576	19	4326
2026-01-24 00:14:30.90	179.62	37.15	-29.4	-30.2	14.8	0.00e+00	0	44	102	1048576	19	3948
2026-01-24 00:14:31.91	179.75	36.92	-29.2	-30.2	15.1	2.94e-04	0	44	102	1048576	18	4034
2026-01-24 00:14:32.91	179.87	36.69	-29.4	-30.7	14.8	3.47e-04	0	44	102	1048576	18	4171
2026-01-24 00:14:33.92	179.99	36.46	-29.7	-30.9	14.4	0.00e+00	0	44	102	1048576	19	4147
2026-01-24 00:14:34.92	180.11	36.23	-29.5	-30.4	14.6	4.35e-04	0	44	102	1048576	19	4004
2026-01-24 00:14:35.93	180.23	36.01	-29.5	-30.5	14.6	1.83e-03	0	44	102	1048576	19	4037
2026-01-24 00:14:36.93	180.35	35.78	-29.9	-31.4	14.1	0.00e+00	0	44	102	1048576	19	4298
2026-01-24 00:14:37.93	180.46	35.56	-29.9	-30.9	14.0	6.79e-04	0	44	102	1048576	20	4064
2026-01-24 00:14:38.94	180.58	35.34	-29.9	-31.5	14.0	7.49e-04	0	44	102	1048576	19	4315
2026-01-24 00:14:39.94	180.69	35.12	-30.4	-32.3	13.1	1.37e-05	0	44	102	1048576	20	4495
2026-01-24 00:14:40.94	180.80	34.90	-30.6	-32.5	12.6	9.12e-04	0	44	102	1048576	21	4481
2026-01-24 00:14:41.94	180.91	34.68	-31.2	-33.6	11.6	1.18e-03	0	44	102	1048576	22	4770
2026-01-24 00:14:42.95	181.01	34.47	-31.8	-35.2	10.0	2.45e-03	0	44	102	1048576	23	5321
2026-01-24 00:14:43.96	181.12	34.25	-32.1	-35.9	9.1	1.08e-02	0	44	102	1048576	24	5577
2026-01-24 00:14:44.96	181.23	34.04	-32.2	-36.3	8.7	2.48e-02	0	44	102	1048576	24	5748
2026-01-24 00:14:45.96	181.33	33.83	-32.0	-35.4	9.4	3.09e-02	0	44	102	1048576	24	5322
2026-01-24 00:14:46.96	181.43	33.62	-31.8	-35.2	10.0	1.24e-02	0	44	102	1048576	23	5307
2026-01-24 00:14:47.97	181.53	33.41	-31.2	-33.1	11.5	3.21e-03	0	44	102	1048576	23	4506
2026-01-24 00:14:48.97	181.63	33.20	-30.9	-32.4	12.0	3.78e-04	0	44	102	1048576	23	4259
2026-01-24 00:14:49.98	181.73	32.99	-30.8	-33.0	12.2	2.94e-04	0	44	102	1048576	21	4629
2026-01-24 00:14:50.98	181.83	32.79	-30.0	-31.2	13.7	3.55e-04	0	44	102	1048576	20	4160
2026-01-24 00:14:51.99	181.93	32.58	-29.9	-31.1	13.8	8.30e-06	0	44	102	1048576	20	4135
2026-01-24 00:14:52.99	182.02	32.38	-29.9	-31.0	13.8	1.08e-03	0	44	102	1048576	20	4102
2026-01-24 00:14:53.99	182.11	32.18	-29.8	-31.2	14.2	7.00e-07	0	44	102	1048576	19	4230
2026-01-24 00:14:55.00	182.21	31.98	-30.0	-31.6	13.9	7.00e-07	0	44	102	1048576	19	4366
2026-01-24 00:14:56.00	182.30	31.78	-30.0	-31.4	13.6	8.01e-04	0	44	102	1048576	20	4210
2026-01-24 00:14:57.01	182.39	31.58	-30.3	-32.1	13.1	1.90e-05	0	44	102	1048576	20	4434
2026-01-24 00:14:58.01	182.48	31.39	-30.6	-32.6	12.4	7.70e-05	0	44	102	1048576	21	4508
2026-01-24 00:14:59.01	182.57	31.19	-31.2	-33.9	11.3	1.60e-03	0	44	102	1048576	22	4869
2026-01-24 00:15:00.02	182.66	31.00	-31.2	-33.7	11.3	1.06e-03	0	44	102	1048576	22	4819
2026-01-24 00:15:01.03	182.74	30.80	-31.8	-35.2	10.0	2.32e-03	0	44	102	1048576	23	5319
2026-01-24 00:15:02.04	182.83	30.61	-31.3	-34.2	11.0	4.86e-03	0	44	102	1048576	22	5012
2026-01-24 00:15:03.04	182.91	30.42	-30.9	-32.9	12.0	2.15e-03	0	44	102	1048576	22	4510
2026-01-24 00:15:04.05	183.00	30.23	-31.1	-33.5	11.4	1.05e-03	0	44	102	1048576	22	4757
2026-01-24 00:15:05.06	183.08	30.04	-30.8	-33.2	12.1	4.51e-04	0	44	102	1048576	21	4710
2026-01-24 00:15:06.06	183.16	29.86	-30.6	-32.6	12.4	1.69e-03	0	44	102	1048576	21	4508
2026-01-24 00:15:07.06	183.24	29.67	-30.5	-32.3	12.6	1.14e-03	0	44	102	1048576	21	4428
2026-01-24 00:15:08.07	183.32	29.49	-30.4	-32.0	12.8	6.63e-05	0	44	102	1048576	21	4309
2026-01-24 00:15:09.08	183.40	29.30	-30.4	-31.9	12.9	5.56e-05	0	44	102	1048576	21	4285
2026-01-24 00:15:10.08	183.48	29.12	-30.3	-32.3	13.0	1.45e-03	0	44	102	1048576	20	4508
2026-01-24 00:15:11.09	183.56	28.94	-30.5	-32.2	12.6	1.52e-03	0	44	102	1048576	21	4387
2026-01-24 00:15:12.10	183.64	28.76	-30.4	-31.8	12.8	7.70e-05	0	44	102	1048576	21	4262
2026-01-24 00:15:13.10	183.71	28.58	-30.4	-32.3	12.9	3.96e-05	0	44	102	1048576	20	4514
2026-01-24 00:15:14.11	183.79	28.40	-30.3	-32.1	13.1	1.91e-03	0	44	102	1048576	20	4425
2026-01-24 00:15:15.10	183.86	28.23	-30.2	-31.8	13.2	1.75e-05	0	44	102	1048576	20	4345
2026-01-24 00:15:16.11	183.93	28.05	-30.5	-32.2	12.6	3.81e-05	0	44	102	1048576	21	4396
2026-01-24 00:15:17.12	184.01	27.87	-30.0	-31.3	13.6	2.08e-03	0	44	102	1048576	20	4185
2026-01-24 00:15:18.12	184.08	27.70	-30.3	-32.2	13.0	3.73e-05	0	44	102	1048576	20	4484
2026-01-24 00:15:19.13	184.15	27.53	-30.2	-31.9	13.2	2.28e-05	0	44	102	1048576	20	4369
2026-01-24 00:15:20.13	184.22	27.36	-30.3	-32.3	13.0	2.14e-03	0	44	102	1048576	20	4505
2026-01-24 00:15:21.14	184.29	27.19	-30.3	-32.2	13.0	1.01e-04	0	44	102	1048576	20	4466
2026-01-24 00:15:22.14	184.36	27.02	-30.1	-31.5	13.4	2.59e-05	0	44	102	1048576	20	4266
2026-01-24 00:15:23.15	184.43	26.85	-30.0	-31.4	13.5	7.60e-06	0	44	102	1048576	20	4213
2026-01-24 00:15:24.16	184.50	26.68	-29.8	-30.8	13.9	1.34e-04	0	44	102	1048576	20	4031
2026-01-24 00:15:25.17	184.57	26.51	-29.7	-31.2	13.6	2.37e-03	0	44	102	1048576	19	4239
2026-01-24 00:15:26.17	184.63	26.35	-29.8	-31.3	13.9	1.50e-06	0	44	102	1048576	19	4293
2026-01-24 00:15:27.17	184.70	26.18	-29.7	-31.1	14.1	9.23e-05	0	44	102	1048576	19	4218
2026-01-24 00:15:28.18	184.76	26.02	-29.8	-31.4	13.9	2.27e-03	0	44	102	1048576	19	4321
2026-01-24 00:15:29.18	184.83	25.86	-30.0	-31.3	13.6	2.09e-03	0	44	102	1048576	20	4188
2026-01-24 00:15:30.18	184.89	25.70	-30.0	-31.4	13.5	1.04e-04	0	44	102	1048576	20	4226
2026-01-24 00:15:31.19	184.95	25.54	-29.7	-31.1	14.1	2.06e-03	0	44	102	1048576	19	4212
2026-01-24 00:15:32.20	185.02	25.38	-29.1	-30.1	15.0	2.15e-03	0	44	102	1048576	18	4016
2026-01-24 00:15:33.20	185.08	25.22	-28.8	-29.3	15.4	0.00e+00	0	44	102	1048576	18	3797
2026-01-24 00:15:34.21	185.14	25.06	-28.5	-28.9	15.9	3.45e-03	0	44	102	1048576	17	3812
2026-01-24 00:15:35.21	185.20	24.90	-28.5	-29.0	15.8	1.86e-03	0	44	102	1048576	17	3822
2026-01-24 00:15:36.21	185.26	24.75	-28.3	-28.6	16.1	9.99e-05	0	44	102	1048576	17	3730
2026-01-24 00:15:37.22	185.32	24.59	-28.5	-29.1	15.8	3.40e-03	0	44	102	1048576	17	3847
2026-01-24 00:15:38.23	185.38	24.44	-28.3	-29.2	16.1	1.79e-03	0	44	102	1048576	16	3960
2026-01-24 00:15:39.23	185.44	24.28	-28.2	-29.0	16.2	1.15e-04	0	44	102	1048576	16	3909
2026-01-24 00:15:40.24	185.50	24.13	-28.3	-29.2	16.0	1.65e-03	0	44	102	1048576	16	3967
2026-01-24 00:15:41.24	185.56	23.98	-28.3	-29.1	16.1	3.33e-03	0	44	102	1048576	16	3953
2026-01-24 00:15:42.25	185.61	23.83	-28.0	-28.3	16.5	1.27e-04	0	44	102	1048576	16	3755
2026-01-24 00:15:43.25	185.67	23.68	-28.1	-28.6	16.4	1.58e-03	0	44	102	1048576	16	3826
2026-01-24 00:15:44.25	185.73	23.53	-28.2	-28.9	16.2	3.22e-03	0	44	102	1048576	16	3902
2026-01-24 00:15:45.25	185.78	23.38	-28.1	-28.7	16.2	1.67e-04	0	44	102	1048576	16	3858
2026-01-24 00:15:46.25	185.84	23.24	-28.2	-28.9	16.2	1.56e-03	0	44	102	1048576	16	3903
2026-01-24 00:15:47.25	185.89	23.09	-28.2	-28.9	16.1	1.67e-03	0	44	102	1048576	16	3905
2026-01-24 00:15:48.25	185.95	22.94	-28.3	-29.1	16.0	1.96e-04	0	44	102	1048576	16	3957
2026-01-24 00:15:49.25	186.00	22.80	-28.5	-29.6	15.8	1.51e-03	0	44	102	1048576	16	4078
2026-01-24 00:15:50.26	186.05	22.65	-28.4	-29.3	16.0	1.58e-03	0	44	102	1048576	16	3994
2026-01-24 00:15:51.26	186.11	22.51	-28.6	-29.3	15.6	2.26e-04	0	44	102	1048576	17	3919
2026-01-24 00:15:52.26	186.16	22.37	-28.8	-29.7	15.4	3.25e-03	0	44	102	1048576	17	4018
2026-01-24 00:15:53.27	186.21	22.23	-28.9	-30.1	15.2	1.78e-03	0	44	102	1048576	17	4116
2026-01-24 00:15:54.27	186.26	22.09	-28.8	-29.8	15.3	6.10e-06	0	44	102	1048576	17	4059
2026-01-24 00:15:55.28	186.31	21.95	-29.1	-30.1	14.9	3.24e-03	0	44	102	1048576	18	4024
2026-01-24 00:15:56.29	186.36	21.80	-29.2	-30.3	14.7	3.17e-03	0	44	102	1048576	18	4101
2026-01-24 00:15:57.29	186.41	21.67	-29.2	-30.3	14.8	3.80e-06	0	44	102	1048576	18	4086
2026-01-24 00:15:58.29	186.46	21.53	-29.3	-30.7	14.5	1.64e-03	0	44	102	1048576	18	4199
2026-01-24 00:15:59.30	186.51	21.39	-29.4	-30.9	14.4	3.40e-03	0	44	102	1048576	18	4275
2026-01-24 00:16:00.29	186.56	21.26	-29.5	-30.5	14.3	3.10e-04	0	44	102	1048576	19	4051
2026-01-24 00:16:01.29	186.61	21.12	-29.5	-31.0	14.3	1.70e-03	0	44	102	1048576	18	4291
2026-01-24 00:16:02.29	186.66	20.99	-29.4	-30.4	14.4	3.35e-03	0	44	102	1048576	19	4042
2026-01-24 00:16:03.29	186.71	20.85	-29.3	-30.7	14.5	2.78e-04	0	44	102	1048576	18	4203
2026-01-24 00:16:04.29	186.75	20.72	-29.4	-30.8	14.4	1.74e-03	0	44	102	1048576	18	4240
2026-01-24 00:16:05.30	186.80	20.58	-29.4	-30.9	14.4	1.80e-03	0	44	102	1048576	18	4271
2026-01-24 00:16:06.31	186.85	20.45	-29.5	-30.7	14.2	2.71e-04	0	44	102	1048576	19	4127
2026-01-24 00:16:07.32	186.89	20.32	-29.3	-30.7	14.5	0.00e+00	0	44	102	1048576	18	4216
2026-01-24 00:16:08.32	186.94	20.19	-29.5	-30.6	14.2	1.73e-03	0	44	102	1048576	19	4098
2026-01-24 00:16:09.32	186.98	20.06	-29.2	-29.9	14.6	1.50e-06	0	44	102	1048576	19	3897
2026-01-24 00:16:10.33	187.03	19.93	-29.0	-29.9	14.9	2.88e-03	0	44	102	1048576	18	3991
2026-01-24 00:16:11.33	187.07	19.80	-29.1	-30.0	14.9	1.52e-03	0	44	102	1048576	18	4008
2026-01-24 00:16:12.34	187.12	19.67	-29.0	-30.0	14.9	1.50e-06	0	44	102	1048576	18	4005
2026-01-24 00:16:13.35	187.16	19.54	-29.2	-30.3	14.7	2.22e-03	0	44	102	1048576	18	4093
2026-01-24 00:16:14.34	187.21	19.42	-29.4	-30.9	14.3	1.50e-06	0	44	102	1048576	18	4269
2026-01-24 00:16:15.35	187.25	19.29	-29.4	-30.8	14.3	1.50e-06	0	44	102	1048576	18	4258
2026-01-24 00:16:16.35	187.29	19.16	-29.2	-30.5	14.6	1.49e-03	0	44	102	1048576	18	4142
2026-01-24 00:16:17.36	187.34	19.04	-29.1	-30.1	14.8	0.00e+00	0	44	102	1048576	18	4041
2026-01-24 00:16:18.36	187.38	18.91	-29.0	-29.9	14.9	7.00e-07	0	44	102	1048576	18	3989
2026-01-24 00:16:19.36	187.42	18.79	-29.1	-30.0	14.8	1.39e-03	0	44	102	1048576	18	4027
2026-01-24 00:16:20.36	187.46	18.67	-29.1	-30.0	14.8	1.81e-03	0	44	102	1048576	18	4022
2026-01-24 00:16:21.36	187.50	18.54	-29.1	-30.1	14.8	0.00e+00	0	44	102	1048576	18	4053
2026-01-24 00:16:22.37	187.55	18.42	-29.1	-30.2	14.7	1.28e-03	0	44	102	1048576	18	4069
2026-01-24 00:16:23.38	187.59	18.30	-29.3	-30.7	14.4	1.24e-03	0	44	102	1048576	18	4231
2026-01-24 00:16:24.38	187.63	18.18	-29.6	-31.0	13.9	2.20e-06	0	44	102	1048576	19	4200
2026-01-24 00:16:25.38	187.67	18.06	-29.4	-31.0	14.2	7.00e-07	0	44	102	1048576	18	4301
2026-01-24 00:16:26.39	187.71	17.94	-29.9	-31.7	13.5	1.34e-03	0	44	102	1048576	19	4419
2026-01-24 00:16:27.39	187.75	17.82	-30.0	-31.5	13.1	3.50e-05	0	44	102	1048576	20	4292
2026-01-24 00:16:28.39	187.79	17.70	-29.7	-31.2	13.7	1.37e-05	0	44	102	1048576	19	4281
2026-01-24 00:16:29.39	187.83	17.58	-29.6	-31.0	13.9	5.30e-06	0	44	102	1048576	19	4218
2026-01-24 00:16:30.39	187.87	17.47	-29.8	-31.4	13.6	6.10e-06	0	44	102	1048576	19	4336
2026-01-24 00:16:31.39	187.90	17.35	-29.8	-31.5	13.5	9.90e-06	0	44	102	1048576	19	4370
2026-01-24 00:16:32.40	187.94	17.23	-30.0	-31.5	13.1	1.67e-05	0	44	102	1048576	20	4295
2026-01-24 00:16:33.41	187.98	17.11	-29.8	-31.1	13.4	2.21e-05	0	44	102	1048576	20	4163
2026-01-24 00:16:34.41	188.02	17.00	-30.0	-31.8	13.3	1.44e-05	0	44	102	1048576	19	4474
2026-01-24 00:16:35.42	188.06	16.88	-29.9	-31.8	13.4	1.98e-05	0	44	102	1048576	19	4449
2026-01-24 00:16:36.42	188.09	16.77	-29.8	-31.5	13.5	4.50e-06	0	44	102	1048576	19	4377
2026-01-24 00:16:37.42	188.13	16.66	-29.5	-31.1	13.5	1.59e-03	0	44	102	1048576	19	4341
2026-01-24 00:16:38.43	188.17	16.54	-29.7	-31.3	13.6	5.30e-06	0	44	102	1048576	19	4305
2026-01-24 00:16:39.43	188.20	16.43	-29.9	-31.7	13.3	6.80e-06	0	44	102	1048576	19	4425
2026-01-24 00:16:40.43	188.24	16.32	-30.0	-31.7	12.8	2.97e-05	0	44	102	1048576	20	4354
2026-01-24 00:16:41.44	188.28	16.21	-29.9	-31.2	13.2	3.12e-05	0	44	102	1048576	20	4198
2026-01-24 00:16:42.44	188.31	16.09	-30.0	-31.5	13.1	4.50e-05	0	44	102	1048576	20	4294
2026-01-24 00:16:43.44	188.35	15.98	-30.0	-31.6	13.0	3.81e-05	0	44	102	1048576	20	4309
2026-01-24 00:16:44.45	188.38	15.87	-30.2	-32.1	12.7	1.62e-03	0	44	102	1048576	20	4472
2026-01-24 00:16:45.45	188.42	15.76	-29.9	-31.3	13.2	2.44e-05	0	44	102	1048576	20	4239
2026-01-24 00:16:46.45	188.45	15.65	-30.0	-31.9	13.2	1.67e-05	0	44	102	1048576	19	4510
2026-01-24 00:16:47.45	188.49	15.55	-29.9	-31.3	13.2	2.97e-05	0	44	102	1048576	20	4237
2026-01-24 00:16:48.46	188.52	15.44	-29.8	-30.9	13.4	9.07e-05	0	44	102	1048576	20	4104
2026-01-24 00:16:49.46	188.56	15.33	-29.8	-31.5	13.4	7.60e-06	0	44	102	1048576	19	4387
2026-01-24 00:16:50.46	188.59	15.22	-29.8	-31.4	13.5	1.14e-05	0	44	102	1048576	19	4333
2026-01-24 00:16:51.47	188.62	15.11	-29.8	-31.5	13.5	1.33e-04	0	44	102	1048576	19	4366
2026-01-24 00:16:52.47	188.66	15.01	-29.8	-31.6	13.4	1.37e-05	0	44	102	1048576	19	4406
2026-01-24 00:16:53.47	188.69	14.90	-29.9	-31.8	13.2	8.30e-06	0	44	102	1048576	19	4464
2026-01-24 00:16:54.48	188.72	14.80	-29.9	-31.8	13.3	2.05e-05	0	44	102	1048576	19	4457
2026-01-24 00:16:55.49	188.76	14.69	-29.8	-31.5	13.5	1.07e-04	0	44	102	1048576	19	4371
2026-01-24 00:16:56.49	188.79	14.59	-29.9	-31.7	13.3	1.83e-05	0	44	102	1048576	19	4425
2026-01-24 00:16:57.50	188.82	14.48	-29.8	-31.6	13.3	2.13e-05	0	44	102	1048576	19	4423
2026-01-24 00:16:58.50	188.85	14.38	-28.9	-30.7	13.3	2.70e-04	0	44	102	1048576	19	4449
2026-01-24 00:16:59.50	188.89	14.28	-29.9	-31.4	13.1	3.89e-05	0	44	102	1048576	20	4252
2026-01-24 00:17:00.50	188.92	14.17	-30.0	-31.6	12.3	4.65e-05	0	44	102	1048576	20	4314
2026-01-24 00:17:01.50	188.95	14.07	-29.9	-31.5	12.6	1.71e-03	0	44	102	1048576	20	4283
2026-01-24 00:17:02.51	188.98	13.97	-30.0	-31.8	12.8	3.58e-05	0	44	102	1048576	20	4382
2026-01-24 00:17:03.51	189.01	13.87	-30.1	-31.8	12.7	5.87e-05	0	44	102	1048576	20	4384
2026-01-24 00:17:04.51	189.04	13.77	-30.1	-31.9	12.7	6.48e-05	0	44	102	1048576	20	4420
2026-01-24 00:17:05.52	189.08	13.66	-30.1	-32.0	12.6	7.78e-05	0	44	102	1048576	20	4474
2026-01-24 00:17:06.51	189.11	13.56	-30.1	-31.9	12.7	7.32e-04	0	44	102	1048576	20	4420
2026-01-24 00:17:07.52	189.14	13.46	-30.2	-32.2	12.5	9.99e-05	0	44	102	1048576	20	4542
2026-01-24 00:17:08.52	189.17	13.36	-30.3	-32.5	12.3	1.72e-04	0	44	102	1048576	20	4630
2026-01-24 00:17:09.53	189.20	13.27	-30.2	-32.2	12.5	1.18e-03	0	44	102	1048576	20	4547
2026-01-24 00:17:10.53	189.23	13.17	-30.3	-32.5	12.3	1.40e-04	0	44	102	1048576	20	4646
2026-01-24 00:17:11.53	189.26	13.07	-30.3	-32.6	12.1	3.13e-04	0	44	102	1048576	20	4685
2026-01-24 00:17:12.54	189.29	12.97	-30.3	-32.5	12.3	2.51e-03	0	44	102	1048576	20	4635
2026-01-24 00:17:13.54	189.32	12.87	-30.4	-32.8	12.0	1.65e-03	0	44	102	1048576	20	4746
2026-01-24 00:17:14.54	189.35	12.78	-30.4	-32.8	12.0	3.21e-04	0	44	102	1048576	20	4749
2026-01-24 00:17:15.54	189.37	12.68	-30.5	-32.7	11.7	2.73e-03	0	44	102	1048576	21	4641
2026-01-24 00:17:16.55	189.40	12.58	-30.7	-33.2	11.4	2.22e-03	0	44	102	1048576	21	4814
2026-01-24 00:17:17.55	189.43	12.49	-30.7	-33.3	11.4	1.24e-03	0	44	102	1048576	21	4841
2026-01-24 00:17:18.55	189.46	12.39	-30.7	-33.1	11.4	3.49e-03	0	44	102	1048576	21	4768
2026-01-24 00:17:19.55	189.49	12.30	-30.4	-32.5	11.8	3.25e-03	0	44	102	1048576	21	4551
2026-01-24 00:17:20.56	189.52	12.20	-30.5	-32.5	11.8	4.97e-04	0	44	102	1048576	21	4561
2026-01-24 00:17:21.56	189.55	12.11	-30.5	-32.7	11.7	3.33e-03	0	44	102	1048576	21	4634
2026-01-24 00:17:22.55	189.57	12.01	-30.5	-33.1	11.8	3.18e-03	0	44	102	1048576	20	4858
2026-01-24 00:17:23.56	189.60	11.92	-30.6	-32.9	11.5	9.41e-04	0	44	102	1048576	21	4713
2026-01-24 00:17:24.57	189.63	11.82	-30.4	-33.0	11.8	1.93e-03	0	44	102	1048576	20	4829
2026-01-24 00:17:25.57	189.66	11.73	-30.4	-32.9	11.9	2.80e-03	0	44	102	1048576	20	4782
2026-01-24 00:17:26.58	189.68	11.64	-30.4	-33.0	11.8	3.97e-04	0	44	102	1048576	20	4837
2026-01-24 00:17:27.58	189.71	11.55	-30.5	-32.7	11.6	2.23e-03	0	44	102	1048576	21	4628
2026-01-24 00:17:28.59	189.74	11.45	-30.5	-33.1	11.7	2.89e-03	0	44	102	1048576	20	4876
2026-01-24 00:17:29.59	189.77	11.36	-30.5	-32.6	11.7	5.72e-04	0	44	102	1048576	21	4607
2026-01-24 00:17:30.59	189.79	11.27	-30.4	-32.8	11.9	2.96e-03	0	44	102	1048576	20	4770
2026-01-24 00:17:31.60	189.82	11.18	-30.4	-33.0	11.7	2.18e-03	0	44	102	1048576	20	4844
2026-01-24 00:17:32.60	189.84	11.09	-30.4	-33.0	11.7	4.90e-04	0	44	102	1048576	20	4849
2026-01-24 00:17:33.61	189.87	11.00	-30.5	-32.7	11.7	2.78e-03	0	44	102	1048576	21	4636
2026-01-24 00:17:34.62	189.90	10.91	-30.5	-32.8	11.6	3.14e-03	0	44	102	1048576	21	4675
2026-01-24 00:17:35.62	189.92	10.82	-30.4	-32.5	11.7	8.59e-04	0	44	102	1048576	21	4583
2026-01-24 00:17:36.62	189.95	10.73	-30.6	-32.9	11.5	3.07e-03	0	44	102	1048576	21	4729
2026-01-24 00:17:37.62	189.98	10.64	-30.6	-33.2	11.2	3.70e-03	0	44	102	1048576	21	4818
2026-01-24 00:17:38.62	190.00	10.55	-30.6	-33.0	11.4	9.28e-04	0	44	102	1048576	21	4748
2026-01-24 00:17:39.62	190.03	10.46	-30.7	-33.4	11.1	3.82e-03	0	44	102	1048576	21	4907
2026-01-24 00:17:40.62	190.05	10.37	-30.7	-33.5	11.0	5.17e-03	0	44	102	1048576	21	4963
2026-01-24 00:17:41.63	190.08	10.28	-30.7	-33.3	11.2	1.49e-03	0	44	102	1048576	21	4854
2026-01-24 00:17:42.63	190.10	10.20	-30.9	-34.0	10.6	3.20e-03	0	44	102	1048576	21	5163
2026-01-24 00:17:43.63	190.13	10.11	-30.7	-33.4	11.0	6.21e-03	0	44	102	1048576	21	4924
2026-01-24 00:17:44.63	190.15	10.02	-30.6	-33.1	11.2	1.57e-03	0	44	102	1048576	21	4809
2026-01-24 00:17:45.63	190.18	9.94	-30.5	-32.7	11.5	8.82e-04	0	44	102	1048576	21	4651
2026-01-24 00:17:46.64	190.20	9.85	-30.4	-33.0	11.7	1.26e-03	0	44	102	1048576	20	4844
2026-01-24 00:17:47.64	190.22	9.76	-30.4	-33.1	11.6	4.16e-04	0	44	102	1048576	20	4915
2026-01-24 00:17:48.65	190.25	9.68	-30.5	-32.8	11.5	3.60e-03	0	44	102	1048576	21	4678
2026-01-24 00:17:49.65	190.27	9.59	-30.6	-33.1	11.2	1.81e-03	0	44	102	1048576	21	4818
2026-01-24 00:17:50.66	190.30	9.51	-30.7	-33.4	11.0	2.17e-03	0	44	102	1048576	21	4914
2026-01-24 00:17:51.67	190.32	9.42	-30.7	-33.3	11.0	4.58e-03	0	44	102	1048576	21	4899
