passes_logs/2026/01/24/R2M6_AANII_01/R2M6_AANII_01__20260124_101939_NOAA_20_JPSS-1_rec.log

#Pass ID: 20260124_101939_NOAA 20 (JPSS-1)
#Satellite: NOAA 20 (JPSS-1)
#Configuration: NOAA 20
#almurnet v.1.7.20240730
#Start time: 2026-01-24 10:19:39

#Version: 2.2.20231116
#Station: R2M6_AANII_01
#Location: 30.233357 lon 59.946436 lat
#TLE: 1 43013U 17073A   26023.57676825  .00000205  00000+0  11821-3 0  9990
#TLE: 2 43013  98.7645 324.4259 0001147  27.0566 333.0670 14.19539368423954

#Time	Az	El	Level	Level2	SNR	BER	BlckErr	Temp	State	Recorded	gain1	gain2
2026-01-24 10:19:39.45	160.28	7.00	-32.2	-40.7	4.3	1.42e+00	0	41	0	0	25	9595
2026-01-24 10:19:40.45	160.29	7.08	-32.0	-39.7	4.5	1.39e+00	0	41	104	0	25	8690
2026-01-24 10:19:41.46	160.29	7.16	-32.0	-39.4	6.1	3.06e-01	0	41	0	0	25	8415
2026-01-24 10:19:42.47	160.30	7.24	-32.0	-39.6	5.9	3.68e-01	0	41	102	1048576	25	8593
2026-01-24 10:19:43.47	160.30	7.31	-32.0	-39.3	6.1	3.29e-01	0	41	102	1048576	25	8383
2026-01-24 10:19:44.48	160.31	7.39	-32.0	-39.3	6.1	3.12e-01	0	41	102	1048576	25	8331
2026-01-24 10:19:45.48	160.31	7.47	-32.0	-39.3	6.1	3.01e-01	0	41	102	1048576	25	8387
2026-01-24 10:19:46.48	160.32	7.55	-32.0	-39.6	5.9	3.38e-01	0	42	102	1048576	25	8661
2026-01-24 10:19:47.49	160.32	7.63	-32.0	-39.6	5.9	3.40e-01	0	41	102	1048576	25	8626
2026-01-24 10:19:48.49	160.33	7.71	-32.0	-39.6	5.9	3.64e-01	0	41	102	1048576	25	8690
2026-01-24 10:19:49.50	160.33	7.79	-32.0	-39.9	5.7	4.11e-01	0	42	102	1048576	25	8949
2026-01-24 10:19:50.50	160.34	7.87	-31.8	-39.1	6.1	3.53e-01	0	41	102	1048576	25	8356
2026-01-24 10:19:51.50	160.34	7.95	-31.7	-39.0	6.6	2.53e-01	0	42	102	1048576	24	8312
2026-01-24 10:19:52.50	160.35	8.03	-31.6	-38.5	7.0	1.68e-01	0	42	102	1048576	24	7929
2026-01-24 10:19:53.50	160.35	8.11	-31.4	-37.6	7.7	1.02e-01	0	42	102	1048576	24	7309
2026-01-24 10:19:54.51	160.36	8.20	-31.2	-37.3	8.3	6.99e-02	0	42	102	1048576	23	7210
2026-01-24 10:19:55.52	160.36	8.28	-31.1	-36.7	8.7	3.40e-02	0	42	102	1048576	23	6867
2026-01-24 10:19:56.52	160.37	8.36	-31.0	-36.3	9.1	2.50e-02	0	42	102	1048576	23	6573
2026-01-24 10:19:57.52	160.37	8.44	-30.9	-35.7	9.6	1.80e-02	0	42	102	1048576	23	6253
2026-01-24 10:19:58.53	160.38	8.52	-30.8	-35.4	9.7	1.06e-02	0	42	102	1048576	23	6136
2026-01-24 10:19:59.54	160.38	8.61	-30.8	-35.8	9.9	8.60e-03	0	42	102	1048576	22	6395
2026-01-24 10:20:00.55	160.39	8.69	-30.9	-35.9	9.8	9.88e-03	0	42	102	1048576	22	6465
2026-01-24 10:20:01.55	160.39	8.77	-30.9	-36.0	9.8	1.09e-02	0	42	102	1048576	22	6499
2026-01-24 10:20:02.55	160.40	8.86	-30.9	-36.0	9.8	1.03e-02	0	42	102	1048576	22	6486
2026-01-24 10:20:03.56	160.40	8.94	-30.9	-35.9	9.9	9.75e-03	0	42	102	1048576	22	6415
2026-01-24 10:20:04.57	160.41	9.03	-30.9	-35.8	10.0	7.68e-03	0	42	102	1048576	22	6323
2026-01-24 10:20:05.57	160.41	9.11	-30.9	-35.8	10.0	7.96e-03	0	42	102	1048576	22	6362
2026-01-24 10:20:06.58	160.42	9.20	-31.0	-36.0	9.9	1.00e-02	0	42	102	1048576	22	6452
2026-01-24 10:20:07.58	160.43	9.28	-30.9	-35.8	10.0	7.67e-03	0	42	102	1048576	22	6328
2026-01-24 10:20:08.59	160.43	9.37	-30.9	-35.7	10.2	6.91e-03	0	42	102	1048576	22	6267
2026-01-24 10:20:09.59	160.44	9.45	-30.8	-35.5	10.2	5.76e-03	0	42	102	1048576	22	6201
2026-01-24 10:20:10.59	160.44	9.54	-30.8	-35.5	10.3	5.92e-03	0	42	102	1048576	22	6173
2026-01-24 10:20:11.60	160.45	9.62	-30.7	-35.2	10.5	4.11e-03	0	42	102	1048576	22	6041
2026-01-24 10:20:12.61	160.45	9.71	-30.8	-35.4	10.4	4.66e-03	0	42	102	1048576	22	6137
2026-01-24 10:20:13.61	160.46	9.80	-30.8	-35.5	10.3	5.24e-03	0	42	102	1048576	22	6146
2026-01-24 10:20:14.62	160.46	9.89	-30.9	-35.7	10.2	5.73e-03	0	42	102	1048576	22	6263
2026-01-24 10:20:15.62	160.47	9.97	-30.9	-35.6	10.3	5.57e-03	0	42	102	1048576	22	6208
2026-01-24 10:20:16.63	160.47	10.06	-30.8	-35.5	10.3	5.09e-03	0	42	102	1048576	22	6184
2026-01-24 10:20:17.63	160.48	10.15	-30.8	-35.6	10.3	5.14e-03	0	42	102	1048576	22	6203
2026-01-24 10:20:18.63	160.48	10.24	-30.7	-35.3	10.5	5.01e-03	0	42	102	1048576	22	6091
2026-01-24 10:20:19.63	160.49	10.33	-30.7	-35.2	10.6	3.21e-03	0	42	102	1048576	22	6059
2026-01-24 10:20:20.64	160.50	10.41	-30.7	-35.2	10.6	4.00e-03	0	42	102	1048576	22	6024
2026-01-24 10:20:21.64	160.50	10.50	-30.7	-35.1	10.6	3.06e-03	0	42	102	1048576	22	5999
2026-01-24 10:20:22.64	160.51	10.59	-30.7	-35.1	10.6	3.80e-03	0	42	102	1048576	22	5993
2026-01-24 10:20:23.65	160.51	10.68	-30.6	-34.9	10.8	2.77e-03	0	42	102	1048576	22	5871
2026-01-24 10:20:24.65	160.52	10.77	-30.5	-34.5	11.1	2.33e-03	0	42	102	1048576	22	5701
2026-01-24 10:20:25.65	160.52	10.86	-30.5	-34.4	11.2	1.47e-03	0	43	102	1048576	22	5653
2026-01-24 10:20:26.66	160.53	10.96	-30.6	-34.5	11.2	1.29e-03	0	42	102	1048576	22	5670
2026-01-24 10:20:27.66	160.54	11.05	-30.6	-34.5	11.2	1.27e-03	0	42	102	1048576	22	5654
2026-01-24 10:20:28.67	160.54	11.14	-30.6	-34.5	11.2	1.46e-03	0	43	102	1048576	22	5663
2026-01-24 10:20:29.68	160.55	11.23	-30.7	-34.9	10.9	1.84e-03	0	43	102	1048576	22	5841
2026-01-24 10:20:30.69	160.55	11.32	-30.7	-34.8	11.0	2.59e-03	0	43	102	1048576	22	5795
2026-01-24 10:20:31.69	160.56	11.42	-30.7	-34.7	11.1	1.54e-03	0	42	102	1048576	22	5703
2026-01-24 10:20:32.70	160.56	11.51	-30.8	-34.6	11.3	1.24e-03	0	43	102	1048576	22	5634
2026-01-24 10:20:33.71	160.57	11.60	-30.8	-34.8	11.2	1.46e-03	0	43	102	1048576	22	5702
2026-01-24 10:20:34.71	160.58	11.70	-30.8	-34.8	11.2	1.49e-03	0	43	102	1048576	22	5702
2026-01-24 10:20:35.72	160.58	11.79	-30.8	-34.6	11.4	1.08e-03	0	42	102	1048576	22	5581
2026-01-24 10:20:36.72	160.59	11.89	-30.7	-34.5	11.4	9.79e-04	0	43	102	1048576	22	5562
2026-01-24 10:20:37.72	160.59	11.98	-30.8	-34.5	11.4	9.50e-04	0	43	102	1048576	22	5563
2026-01-24 10:20:38.72	160.60	12.08	-30.7	-34.5	11.5	8.19e-04	0	43	102	1048576	22	5533
2026-01-24 10:20:39.73	160.60	12.17	-30.8	-34.6	11.4	1.07e-03	0	43	102	1048576	22	5611
2026-01-24 10:20:40.73	160.61	12.27	-30.8	-34.6	11.4	1.09e-03	0	43	102	1048576	22	5586
2026-01-24 10:20:41.74	160.62	12.36	-30.9	-35.0	11.1	1.38e-03	0	43	102	1048576	22	5806
2026-01-24 10:20:42.74	160.62	12.46	-30.9	-35.0	11.1	1.64e-03	0	43	102	1048576	22	5790
2026-01-24 10:20:43.75	160.63	12.56	-30.8	-34.6	11.4	1.01e-03	0	42	102	1048576	22	5625
2026-01-24 10:20:44.76	160.63	12.66	-30.7	-34.6	11.4	8.78e-04	0	43	102	1048576	22	5584
2026-01-24 10:20:45.76	160.64	12.75	-30.7	-34.5	11.5	7.85e-04	0	43	102	1048576	22	5546
2026-01-24 10:20:46.77	160.65	12.85	-30.8	-34.7	11.4	9.73e-04	0	43	102	1048576	22	5627
2026-01-24 10:20:47.78	160.65	12.95	-30.8	-34.5	11.5	9.17e-04	0	43	102	1048576	22	5565
2026-01-24 10:20:48.78	160.66	13.05	-30.7	-34.4	11.6	9.14e-04	0	43	102	1048576	22	5508
2026-01-24 10:20:49.78	160.66	13.15	-30.7	-34.3	11.7	6.11e-04	0	43	102	1048576	22	5448
2026-01-24 10:20:50.78	160.67	13.25	-30.8	-34.7	11.4	7.74e-04	0	43	102	1048576	22	5594
2026-01-24 10:20:51.79	160.68	13.35	-30.8	-34.4	11.6	7.78e-04	0	43	102	1048576	22	5488
2026-01-24 10:20:52.80	160.68	13.45	-30.8	-34.4	11.6	6.96e-04	0	43	102	1048576	22	5487
2026-01-24 10:20:53.80	160.69	13.55	-30.7	-34.2	11.7	5.76e-04	0	43	102	1048576	22	5409
2026-01-24 10:20:54.81	160.69	13.66	-30.6	-34.0	11.9	5.03e-04	0	43	102	1048576	22	5332
2026-01-24 10:20:55.81	160.70	13.76	-30.7	-34.3	11.7	5.20e-04	0	43	102	1048576	22	5449
2026-01-24 10:20:56.82	160.71	13.86	-30.7	-34.3	11.7	5.73e-04	0	43	102	1048576	22	5427
2026-01-24 10:20:57.83	160.71	13.96	-30.6	-34.1	11.8	4.94e-04	0	43	102	1048576	22	5370
2026-01-24 10:20:58.83	160.72	14.07	-30.5	-33.8	12.0	4.02e-04	0	43	102	1048576	22	5275
2026-01-24 10:20:59.83	160.73	14.17	-30.5	-33.8	12.0	2.88e-04	0	43	102	1048576	22	5268
2026-01-24 10:21:00.83	160.73	14.27	-30.4	-33.6	12.2	2.15e-04	0	43	102	1048576	22	5181
2026-01-24 10:21:01.83	160.74	14.38	-30.5	-33.8	12.1	2.50e-04	0	43	102	1048576	22	5248
2026-01-24 10:21:02.84	160.74	14.48	-30.4	-33.5	12.2	2.09e-04	0	43	102	1048576	22	5154
2026-01-24 10:21:03.84	160.75	14.59	-30.4	-33.6	12.2	2.22e-04	0	43	102	1048576	22	5182
2026-01-24 10:21:04.85	160.76	14.70	-30.4	-33.5	12.2	2.30e-04	0	43	102	1048576	22	5155
2026-01-24 10:21:05.85	160.76	14.80	-30.5	-33.8	12.2	2.14e-04	0	43	102	1048576	22	5227
2026-01-24 10:21:06.85	160.77	14.91	-30.5	-33.5	12.3	1.97e-04	0	43	102	1048576	22	5137
2026-01-24 10:21:07.86	160.78	15.02	-30.4	-33.4	12.4	1.51e-04	0	43	102	1048576	22	5070
2026-01-24 10:21:08.86	160.78	15.12	-30.4	-33.4	12.4	1.77e-04	0	43	102	1048576	22	5077
2026-01-24 10:21:09.86	160.79	15.23	-30.5	-33.5	12.4	1.30e-04	0	43	102	1048576	22	5110
2026-01-24 10:21:10.86	160.80	15.34	-30.7	-34.1	12.0	2.30e-04	0	43	102	1048576	22	5306
2026-01-24 10:21:11.86	160.80	15.45	-30.7	-34.0	12.1	2.64e-04	0	43	102	1048576	22	5294
2026-01-24 10:21:12.86	160.81	15.56	-30.7	-34.0	12.1	2.25e-04	0	43	102	1048576	22	5277
2026-01-24 10:21:13.86	160.82	15.67	-30.7	-34.1	12.1	2.79e-04	0	43	102	1048576	22	5315
2026-01-24 10:21:14.87	160.82	15.78	-30.8	-34.3	11.9	3.62e-04	0	43	102	1048576	22	5399
2026-01-24 10:21:15.88	160.83	15.89	-30.8	-34.2	12.0	4.07e-04	0	43	102	1048576	22	5349
2026-01-24 10:21:16.88	160.84	16.00	-30.8	-34.3	11.9	3.48e-04	0	43	102	1048576	22	5384
2026-01-24 10:21:17.89	160.84	16.12	-31.0	-34.8	11.6	4.34e-04	0	43	102	1048576	22	5608
2026-01-24 10:21:18.89	160.85	16.23	-30.8	-34.3	12.0	6.07e-04	0	43	102	1048576	22	5369
2026-01-24 10:21:19.89	160.86	16.34	-30.6	-33.7	12.4	1.79e-04	0	43	102	1048576	22	5131
2026-01-24 10:21:20.89	160.86	16.46	-30.5	-33.3	12.6	1.03e-04	0	43	102	1048576	22	4997
2026-01-24 10:21:21.90	160.87	16.57	-30.4	-33.2	12.7	8.77e-05	0	43	102	1048576	22	4956
2026-01-24 10:21:22.90	160.88	16.69	-30.4	-33.2	12.7	7.85e-05	0	43	102	1048576	22	4956
2026-01-24 10:21:23.90	160.88	16.80	-30.5	-33.3	12.7	7.47e-05	0	43	102	1048576	22	4971
2026-01-24 10:21:24.90	160.89	16.92	-30.6	-33.6	12.5	1.07e-04	0	43	102	1048576	22	5091
2026-01-24 10:21:25.90	160.90	17.03	-30.5	-33.5	12.6	1.37e-04	0	43	102	1048576	22	5048
2026-01-24 10:21:26.91	160.90	17.15	-30.5	-33.5	12.6	1.13e-04	0	43	102	1048576	22	5051
2026-01-24 10:21:27.91	160.91	17.27	-30.7	-34.1	12.2	1.51e-04	0	43	102	1048576	22	5304
2026-01-24 10:21:28.91	160.92	17.39	-30.7	-33.9	12.3	2.72e-04	0	43	102	1048576	22	5204
2026-01-24 10:21:29.91	160.93	17.51	-30.7	-34.1	12.2	2.48e-04	0	43	102	1048576	22	5286
2026-01-24 10:21:30.91	160.93	17.62	-30.9	-34.5	11.9	2.75e-04	0	43	102	1048576	22	5447
2026-01-24 10:21:31.92	160.94	17.75	-30.8	-34.2	12.1	3.42e-04	0	43	102	1048576	22	5336
2026-01-24 10:21:32.93	160.95	17.87	-30.7	-33.9	12.3	2.42e-04	0	43	102	1048576	22	5232
2026-01-24 10:21:33.92	160.95	17.99	-30.7	-34.1	12.2	2.35e-04	0	43	102	1048576	22	5308
2026-01-24 10:21:34.93	160.96	18.11	-30.7	-33.9	12.3	1.91e-04	0	43	102	1048576	22	5234
2026-01-24 10:21:35.94	160.97	18.23	-30.8	-34.2	12.1	1.81e-04	0	43	102	1048576	22	5317
2026-01-24 10:21:36.94	160.98	18.36	-30.7	-34.0	12.3	2.39e-04	0	43	102	1048576	22	5244
2026-01-24 10:21:37.94	160.98	18.48	-30.8	-34.4	12.0	2.55e-04	0	43	102	1048576	22	5401
2026-01-24 10:21:38.95	160.99	18.60	-30.8	-34.3	12.1	2.39e-04	0	43	102	1048576	22	5359
2026-01-24 10:21:39.95	161.00	18.73	-30.8	-34.3	12.1	2.26e-04	0	43	102	1048576	22	5354
2026-01-24 10:21:40.96	161.01	18.86	-31.1	-35.1	11.5	5.63e-04	0	43	102	1048576	22	5720
2026-01-24 10:21:41.96	161.01	18.98	-31.0	-34.9	11.7	6.97e-04	0	43	102	1048576	22	5587
2026-01-24 10:21:42.97	161.02	19.11	-31.1	-35.0	11.6	5.18e-04	0	43	102	1048576	22	5658
2026-01-24 10:21:43.97	161.03	19.24	-31.1	-35.1	11.6	6.68e-04	0	43	102	1048576	22	5683
2026-01-24 10:21:44.97	161.04	19.36	-31.2	-35.4	11.4	7.80e-04	0	43	102	1048576	22	5826
2026-01-24 10:21:45.97	161.04	19.49	-31.1	-35.2	11.5	9.67e-04	0	43	102	1048576	22	5725
2026-01-24 10:21:46.98	161.05	19.62	-31.2	-35.2	11.5	7.64e-04	0	43	102	1048576	22	5729
2026-01-24 10:21:47.98	161.06	19.75	-31.2	-35.3	11.4	8.16e-04	0	43	102	1048576	22	5799
2026-01-24 10:21:48.99	161.07	19.88	-31.4	-35.8	11.1	1.20e-03	0	43	102	1048576	22	6023
2026-01-24 10:21:49.99	161.07	20.02	-31.2	-35.2	11.6	1.56e-03	0	43	102	1048576	22	5716
2026-01-24 10:21:51.00	161.08	20.15	-30.9	-34.3	12.2	3.43e-04	0	43	102	1048576	22	5347
2026-01-24 10:21:52.00	161.09	20.28	-30.6	-33.5	12.7	1.27e-04	0	43	102	1048576	22	5037
2026-01-24 10:21:53.01	161.10	20.42	-30.3	-32.8	13.2	5.49e-05	0	44	102	1048576	22	4768
2026-01-24 10:21:54.02	161.11	20.55	-30.1	-32.6	13.6	1.14e-05	0	43	102	1048576	21	4820
2026-01-24 10:21:55.02	161.11	20.69	-30.0	-32.3	13.9	3.80e-06	0	43	102	1048576	21	4714
2026-01-24 10:21:56.03	161.12	20.82	-29.9	-32.0	14.0	7.00e-07	0	43	102	1048576	21	4617
2026-01-24 10:21:57.04	161.13	20.96	-29.8	-31.9	14.1	7.00e-07	0	43	102	1048576	21	4577
2026-01-24 10:21:58.03	161.14	21.10	-29.9	-32.2	14.0	2.20e-06	0	43	102	1048576	21	4663
2026-01-24 10:21:59.04	161.15	21.24	-29.9	-32.0	14.1	0.00e+00	0	43	102	1048576	21	4594
2026-01-24 10:22:00.04	161.15	21.37	-29.7	-32.1	14.3	5.30e-06	0	43	102	1048576	20	4753
2026-01-24 10:22:01.04	161.16	21.51	-29.8	-32.4	14.2	0.00e+00	0	43	102	1048576	20	4840
2026-01-24 10:22:02.05	161.17	21.65	-29.7	-32.1	14.4	1.50e-06	0	43	102	1048576	20	4739
2026-01-24 10:22:03.06	161.18	21.80	-29.7	-32.0	14.4	1.50e-06	0	44	102	1048576	20	4700
2026-01-24 10:22:04.06	161.19	21.94	-29.7	-32.2	14.3	7.00e-07	0	43	102	1048576	20	4768
2026-01-24 10:22:05.07	161.20	22.08	-29.7	-32.0	14.4	0.00e+00	0	44	102	1048576	20	4691
2026-01-24 10:22:06.07	161.20	22.23	-29.7	-32.2	14.3	1.50e-06	0	43	102	1048576	20	4764
2026-01-24 10:22:07.08	161.21	22.37	-29.7	-32.0	14.4	1.50e-06	0	43	102	1048576	20	4698
2026-01-24 10:22:08.08	161.22	22.52	-29.7	-32.2	14.3	0.00e+00	0	43	102	1048576	20	4766
2026-01-24 10:22:09.09	161.23	22.66	-29.8	-32.2	14.3	7.00e-07	0	43	102	1048576	20	4783
2026-01-24 10:22:10.09	161.24	22.81	-29.8	-32.2	14.3	7.00e-07	0	43	102	1048576	20	4774
2026-01-24 10:22:11.10	161.25	22.96	-29.9	-32.6	14.1	2.20e-06	0	43	102	1048576	20	4904
2026-01-24 10:22:12.10	161.26	23.11	-30.0	-32.7	14.0	3.00e-06	0	43	102	1048576	20	4940
2026-01-24 10:22:13.11	161.26	23.26	-29.9	-32.6	14.1	2.20e-06	0	43	102	1048576	20	4895
2026-01-24 10:22:14.11	161.27	23.41	-29.9	-32.6	14.0	0.00e+00	0	43	102	1048576	20	4914
2026-01-24 10:22:15.11	161.28	23.56	-29.9	-32.5	14.1	1.50e-06	0	43	102	1048576	20	4876
2026-01-24 10:22:16.12	161.29	23.71	-29.9	-32.7	14.1	1.50e-06	0	43	102	1048576	20	4920
2026-01-24 10:22:17.11	161.30	23.86	-29.9	-32.6	14.1	2.20e-06	0	43	102	1048576	20	4912
2026-01-24 10:22:18.12	161.31	24.02	-30.0	-32.9	13.9	2.20e-06	0	43	102	1048576	20	5000
2026-01-24 10:22:19.12	161.32	24.17	-29.9	-32.6	14.1	3.80e-06	0	44	102	1048576	20	4879
2026-01-24 10:22:20.13	161.33	24.33	-29.9	-32.5	14.2	7.00e-07	0	43	102	1048576	20	4855
2026-01-24 10:22:21.13	161.34	24.48	-30.0	-32.7	14.1	3.00e-06	0	43	102	1048576	20	4947
2026-01-24 10:22:22.13	161.35	24.64	-30.1	-33.1	13.8	5.30e-06	0	44	102	1048576	20	5085
2026-01-24 10:22:23.14	161.36	24.80	-30.1	-33.0	13.9	5.30e-06	0	43	102	1048576	20	5050
2026-01-24 10:22:24.15	161.37	24.96	-30.1	-33.2	13.7	7.60e-06	0	43	102	1048576	20	5113
2026-01-24 10:22:25.16	161.38	25.12	-30.3	-33.6	13.5	1.52e-05	0	43	102	1048576	20	5254
2026-01-24 10:22:26.16	161.38	25.28	-30.3	-33.5	13.5	6.10e-06	0	43	102	1048576	20	5250
2026-01-24 10:22:27.17	161.39	25.45	-30.4	-33.9	13.3	2.05e-05	0	43	102	1048576	20	5366
2026-01-24 10:22:28.18	161.40	25.61	-30.5	-34.1	13.2	2.13e-05	0	43	102	1048576	20	5473
2026-01-24 10:22:29.19	161.41	25.78	-30.6	-34.0	12.9	1.44e-05	0	44	102	1048576	21	5337
2026-01-24 10:22:30.18	161.42	25.94	-30.7	-34.4	12.7	4.04e-05	0	44	102	1048576	21	5463
2026-01-24 10:22:31.19	161.43	26.11	-30.7	-34.3	12.7	5.41e-05	0	43	102	1048576	21	5431
2026-01-24 10:22:32.19	161.44	26.28	-30.8	-34.6	12.5	1.09e-04	0	44	102	1048576	21	5571
2026-01-24 10:22:33.20	161.45	26.45	-30.8	-34.6	12.5	1.10e-04	0	44	102	1048576	21	5553
2026-01-24 10:22:34.20	161.46	26.62	-31.1	-34.9	12.0	2.47e-04	0	44	102	1048576	22	5548
2026-01-24 10:22:35.20	161.47	26.79	-31.0	-34.4	12.4	2.72e-04	0	44	102	1048576	22	5353
2026-01-24 10:22:36.21	161.48	26.96	-30.9	-34.3	12.4	1.71e-04	0	44	102	1048576	22	5323
2026-01-24 10:22:37.21	161.49	27.13	-30.9	-34.2	12.5	1.27e-04	0	43	102	1048576	22	5262
2026-01-24 10:22:38.22	161.51	27.31	-30.8	-34.1	12.6	9.53e-05	0	43	102	1048576	22	5212
2026-01-24 10:22:39.22	161.52	27.48	-31.0	-34.4	12.4	1.23e-04	0	43	102	1048576	22	5345
2026-01-24 10:22:40.23	161.53	27.66	-31.1	-34.9	12.1	1.88e-04	0	43	102	1048576	22	5550
2026-01-24 10:22:41.23	161.54	27.84	-31.3	-35.4	11.8	4.23e-04	0	43	102	1048576	22	5750
2026-01-24 10:22:42.23	161.55	28.01	-31.3	-35.4	11.8	4.23e-04	0	44	102	1048576	22	5757
2026-01-24 10:22:43.23	161.56	28.19	-31.4	-35.6	11.5	6.87e-04	0	43	102	1048576	22	5883
2026-01-24 10:22:44.24	161.57	28.38	-31.4	-35.6	11.6	6.85e-04	0	43	102	1048576	22	5863
2026-01-24 10:22:45.25	161.58	28.56	-31.4	-35.7	11.6	6.44e-04	0	43	102	1048576	22	5899
2026-01-24 10:22:46.25	161.59	28.74	-31.4	-35.8	11.5	9.92e-04	0	43	102	1048576	22	5936
2026-01-24 10:22:47.25	161.60	28.93	-31.5	-36.0	11.3	1.10e-03	0	43	102	1048576	22	6040
2026-01-24 10:22:48.25	161.61	29.11	-31.6	-35.8	11.1	1.20e-03	0	44	102	1048576	23	5851
2026-01-24 10:22:49.26	161.63	29.30	-31.6	-35.9	11.0	1.66e-03	0	43	102	1048576	23	5918
2026-01-24 10:22:50.26	161.64	29.49	-31.7	-36.1	10.9	1.88e-03	0	44	102	1048576	23	5993
2026-01-24 10:22:51.26	161.65	29.68	-31.8	-36.4	10.7	2.98e-03	0	43	102	1048576	23	6132
2026-01-24 10:22:52.26	161.66	29.87	-31.7	-36.3	10.8	2.57e-03	0	43	102	1048576	23	6079
2026-01-24 10:22:53.27	161.67	30.06	-31.8	-36.5	10.6	3.14e-03	0	44	102	1048576	23	6197
2026-01-24 10:22:54.27	161.68	30.25	-31.9	-36.7	10.5	4.99e-03	0	44	102	1048576	23	6264
2026-01-24 10:22:55.27	161.70	30.45	-31.9	-36.9	10.3	4.91e-03	0	43	102	1048576	23	6389
2026-01-24 10:22:56.28	161.71	30.64	-32.0	-36.7	10.2	5.29e-03	0	43	102	1048576	24	6160
2026-01-24 10:22:57.29	161.72	30.84	-32.0	-36.6	10.1	6.24e-03	0	43	102	1048576	24	6125
2026-01-24 10:22:58.30	161.73	31.04	-32.0	-36.7	10.1	6.38e-03	0	43	102	1048576	24	6176
2026-01-24 10:22:59.30	161.75	31.24	-32.2	-37.3	9.7	7.54e-03	0	44	102	1048576	24	6472
2026-01-24 10:23:00.31	161.76	31.45	-32.1	-37.0	9.9	1.04e-02	0	43	102	1048576	24	6321
2026-01-24 10:23:01.31	161.77	31.65	-32.1	-36.8	10.0	7.92e-03	0	43	102	1048576	24	6240
2026-01-24 10:23:02.32	161.78	31.85	-32.0	-36.5	10.3	7.40e-03	0	43	102	1048576	24	6080
2026-01-24 10:23:03.32	161.80	32.06	-31.9	-36.4	10.4	5.12e-03	0	44	102	1048576	24	6021
2026-01-24 10:23:04.33	161.81	32.27	-31.9	-36.3	10.4	4.50e-03	0	43	102	1048576	24	5981
2026-01-24 10:23:05.34	161.82	32.48	-31.9	-36.3	10.4	5.46e-03	0	43	102	1048576	24	5982
2026-01-24 10:23:06.34	161.84	32.69	-31.9	-36.3	10.5	4.02e-03	0	43	102	1048576	24	5976
2026-01-24 10:23:07.35	161.85	32.90	-32.0	-36.6	10.2	6.16e-03	0	43	102	1048576	24	6100
2026-01-24 10:23:08.35	161.86	33.11	-31.7	-35.7	10.9	2.66e-03	0	43	102	1048576	24	5676
2026-01-24 10:23:09.36	161.88	33.33	-31.5	-35.1	11.4	1.34e-03	0	44	102	1048576	24	5399
2026-01-24 10:23:10.36	161.89	33.54	-31.2	-34.6	12.0	5.97e-04	0	44	102	1048576	23	5317
2026-01-24 10:23:11.35	161.90	33.76	-31.2	-34.5	12.1	2.40e-04	0	43	102	1048576	23	5272
2026-01-24 10:23:12.36	161.92	33.98	-31.1	-34.3	12.2	2.16e-04	0	44	102	1048576	23	5190
2026-01-24 10:23:13.36	161.93	34.20	-30.9	-33.5	12.8	1.07e-04	0	43	102	1048576	23	4890
2026-01-24 10:23:14.37	161.95	34.42	-30.7	-33.7	13.1	3.05e-05	0	43	102	1048576	22	5031
2026-01-24 10:23:15.38	161.96	34.65	-30.6	-33.3	13.3	2.44e-05	0	43	102	1048576	22	4902
2026-01-24 10:23:16.39	161.98	34.88	-30.3	-32.5	13.8	9.90e-06	0	43	102	1048576	22	4633
2026-01-24 10:23:17.39	161.99	35.10	-30.2	-32.6	14.1	3.00e-06	0	43	102	1048576	21	4763
2026-01-24 10:23:18.40	162.01	35.33	-29.9	-32.0	14.5	0.00e+00	0	44	102	1048576	21	4547
2026-01-24 10:23:19.41	162.02	35.56	-29.9	-32.0	14.5	2.20e-06	0	43	102	1048576	21	4550
2026-01-24 10:23:20.41	162.04	35.80	-30.1	-32.3	14.3	7.00e-07	0	44	102	1048576	21	4653
2026-01-24 10:23:21.41	162.05	36.03	-30.1	-32.3	14.3	7.00e-07	0	44	102	1048576	21	4654
2026-01-24 10:23:22.42	162.07	36.27	-30.0	-32.2	14.4	7.00e-07	0	44	102	1048576	21	4614
2026-01-24 10:23:23.43	162.08	36.51	-30.0	-32.2	14.3	1.50e-06	0	43	102	1048576	21	4628
2026-01-24 10:23:24.43	162.10	36.74	-30.1	-32.4	14.2	1.50e-06	0	43	102	1048576	21	4695
2026-01-24 10:23:25.43	162.12	36.98	-30.1	-32.4	14.2	1.50e-06	0	43	102	1048576	21	4692
2026-01-24 10:23:26.43	162.13	37.23	-30.2	-32.7	14.1	1.50e-06	0	43	102	1048576	21	4774
2026-01-24 10:23:27.44	162.15	37.47	-30.2	-32.6	14.1	0.00e+00	0	44	102	1048576	21	4743
2026-01-24 10:23:28.44	162.17	37.72	-29.9	-31.8	14.6	2.20e-06	0	43	102	1048576	21	4499
2026-01-24 10:23:29.45	162.18	37.97	-29.7	-31.7	15.0	7.00e-07	0	44	102	1048576	20	4580
2026-01-24 10:23:30.45	162.20	38.22	-29.6	-31.5	15.1	0.00e+00	0	44	102	1048576	20	4497
2026-01-24 10:23:31.46	162.22	38.47	-29.4	-31.1	15.4	0.00e+00	0	44	102	1048576	20	4387
2026-01-24 10:23:32.46	162.23	38.72	-29.5	-31.3	15.3	1.50e-06	0	43	102	1048576	20	4435
2026-01-24 10:23:33.47	162.25	38.98	-29.5	-31.4	15.2	0.00e+00	0	44	102	1048576	20	4467
2026-01-24 10:23:34.47	162.27	39.24	-29.6	-31.6	15.1	0.00e+00	0	43	102	1048576	20	4534
2026-01-24 10:23:35.48	162.29	39.50	-29.6	-31.5	15.1	0.00e+00	0	44	102	1048576	20	4517
2026-01-24 10:23:36.48	162.31	39.76	-29.3	-31.4	15.5	0.00e+00	0	44	102	1048576	19	4561
2026-01-24 10:23:37.48	162.33	40.02	-29.3	-31.3	15.6	0.00e+00	0	44	102	1048576	19	4529
2026-01-24 10:23:38.49	162.35	40.29	-29.3	-31.3	15.6	0.00e+00	0	44	102	1048576	19	4539
2026-01-24 10:23:39.49	162.36	40.55	-29.2	-31.1	15.7	0.00e+00	0	44	102	1048576	19	4476
2026-01-24 10:23:40.49	162.38	40.82	-29.2	-31.1	15.8	0.00e+00	0	43	102	1048576	19	4472
2026-01-24 10:23:41.49	162.40	41.09	-29.2	-31.2	15.7	0.00e+00	0	44	102	1048576	19	4494
2026-01-24 10:23:42.49	162.42	41.36	-29.4	-31.5	15.5	0.00e+00	0	44	102	1048576	19	4600
2026-01-24 10:23:43.50	162.44	41.64	-29.3	-31.5	15.5	7.00e-07	0	44	102	1048576	19	4600
2026-01-24 10:23:44.50	162.47	41.92	-29.4	-31.6	15.4	0.00e+00	0	44	102	1048576	19	4650
2026-01-24 10:23:45.50	162.49	42.20	-29.4	-31.5	15.5	0.00e+00	0	44	102	1048576	19	4613
2026-01-24 10:23:46.51	162.51	42.48	-29.3	-31.5	15.5	0.00e+00	0	44	102	1048576	19	4602
2026-01-24 10:23:47.52	162.53	42.77	-29.3	-31.3	15.6	0.00e+00	0	44	102	1048576	19	4549
2026-01-24 10:23:48.53	162.55	43.05	-29.3	-31.3	15.6	0.00e+00	0	44	102	1048576	19	4540
2026-01-24 10:23:49.53	162.57	43.34	-29.3	-31.3	15.7	0.00e+00	0	44	102	1048576	19	4549
2026-01-24 10:23:50.53	162.60	43.63	-29.5	-31.7	15.4	0.00e+00	0	44	102	1048576	19	4669
2026-01-24 10:23:51.53	162.62	43.92	-29.7	-32.3	15.1	7.00e-07	0	44	102	1048576	19	4846
2026-01-24 10:23:52.54	162.64	44.22	-30.1	-32.8	14.4	7.00e-07	0	44	102	1048576	20	4931
2026-01-24 10:23:53.54	162.67	44.51	-30.5	-33.5	13.6	1.50e-06	0	44	102	1048576	21	5070
2026-01-24 10:23:54.55	162.69	44.82	-30.7	-34.0	13.2	2.21e-05	0	44	102	1048576	21	5274
2026-01-24 10:23:55.55	162.72	45.12	-30.9	-34.5	13.0	4.11e-05	0	44	102	1048576	21	5456
2026-01-24 10:23:56.55	162.74	45.42	-31.0	-34.5	12.6	5.11e-05	0	44	102	1048576	22	5357
2026-01-24 10:23:57.55	162.77	45.72	-31.0	-34.5	12.6	9.91e-05	0	44	102	1048576	22	5366
2026-01-24 10:23:58.56	162.79	46.03	-31.0	-34.4	12.7	1.08e-04	0	44	102	1048576	22	5329
2026-01-24 10:23:59.57	162.82	46.35	-30.9	-34.2	12.9	6.63e-05	0	44	102	1048576	22	5228
2026-01-24 10:24:00.57	162.84	46.66	-31.0	-34.3	12.8	4.95e-05	0	44	102	1048576	22	5268
2026-01-24 10:24:01.58	162.87	46.98	-31.1	-34.5	12.7	7.17e-05	0	43	102	1048576	22	5343
2026-01-24 10:24:02.59	162.90	47.30	-31.2	-34.9	12.5	1.40e-04	0	44	102	1048576	22	5489
2026-01-24 10:24:03.58	162.93	47.61	-31.3	-35.2	12.2	1.95e-04	0	44	102	1048576	22	5623
2026-01-24 10:24:04.59	162.96	47.94	-31.4	-35.4	12.1	2.96e-04	0	44	102	1048576	22	5714
2026-01-24 10:24:05.59	162.99	48.26	-31.3	-35.2	12.1	3.59e-04	0	43	102	1048576	22	5651
2026-01-24 10:24:06.60	163.02	48.59	-31.4	-35.4	12.0	2.34e-04	0	44	102	1048576	22	5722
2026-01-24 10:24:07.60	163.05	48.92	-31.3	-35.3	12.1	3.07e-04	0	44	102	1048576	22	5666
2026-01-24 10:24:08.61	163.08	49.26	-31.2	-35.0	12.3	2.64e-04	0	44	102	1048576	22	5545
2026-01-24 10:24:09.62	163.11	49.59	-31.3	-35.1	12.2	2.23e-04	0	43	102	1048576	22	5584
2026-01-24 10:24:10.62	163.14	49.93	-31.2	-35.0	12.3	2.43e-04	0	44	102	1048576	22	5555
2026-01-24 10:24:11.62	163.17	50.27	-31.0	-34.2	12.9	6.02e-05	0	44	102	1048576	22	5215
2026-01-24 10:24:12.62	163.21	50.61	-30.8	-33.7	13.3	2.51e-05	0	44	102	1048576	22	5020
2026-01-24 10:24:13.63	163.24	50.96	-30.3	-32.3	14.0	7.60e-06	0	44	102	1048576	22	4544
2026-01-24 10:24:14.64	163.28	51.31	-29.7	-31.8	15.0	0.00e+00	0	44	102	1048576	20	4572
2026-01-24 10:24:15.64	163.31	51.66	-29.4	-31.0	15.5	0.00e+00	0	43	102	1048576	20	4332
2026-01-24 10:24:16.64	163.35	52.01	-29.4	-31.4	15.6	0.00e+00	0	44	102	1048576	19	4564
2026-01-24 10:24:17.64	163.38	52.36	-29.1	-30.9	16.0	0.00e+00	0	44	102	1048576	19	4402
2026-01-24 10:24:18.65	163.42	52.72	-29.0	-30.5	16.2	0.00e+00	0	43	102	1048576	19	4278
2026-01-24 10:24:19.65	163.46	53.08	-28.9	-30.4	16.3	0.00e+00	0	44	102	1048576	19	4247
2026-01-24 10:24:20.66	163.50	53.45	-29.1	-30.8	16.1	0.00e+00	0	44	102	1048576	19	4363
2026-01-24 10:24:21.67	163.54	53.82	-29.1	-30.9	16.0	0.00e+00	0	44	102	1048576	19	4398
2026-01-24 10:24:22.67	163.58	54.18	-29.0	-30.5	16.2	0.00e+00	0	44	102	1048576	19	4300
2026-01-24 10:24:23.67	163.63	54.55	-29.0	-30.6	16.2	0.00e+00	0	44	102	1048576	19	4328
2026-01-24 10:24:24.68	163.67	54.93	-29.2	-31.0	15.9	0.00e+00	0	43	102	1048576	19	4442
2026-01-24 10:24:25.68	163.71	55.30	-29.6	-32.1	15.3	0.00e+00	0	44	102	1048576	19	4777
2026-01-24 10:24:26.69	163.76	55.68	-29.7	-32.1	15.2	7.00e-07	0	44	102	1048576	19	4793
2026-01-24 10:24:27.69	163.81	56.07	-29.5	-31.8	15.4	0.00e+00	0	44	102	1048576	19	4688
2026-01-24 10:24:28.69	163.86	56.45	-29.5	-31.8	15.5	0.00e+00	0	44	102	1048576	19	4666
2026-01-24 10:24:29.70	163.90	56.84	-29.8	-32.3	15.1	0.00e+00	0	44	102	1048576	19	4852
2026-01-24 10:24:30.70	163.96	57.23	-30.2	-33.0	14.4	0.00e+00	0	43	102	1048576	20	4978
2026-01-24 10:24:31.70	164.01	57.62	-30.3	-33.4	14.2	1.50e-06	0	44	102	1048576	20	5134
2026-01-24 10:24:32.70	164.06	58.01	-30.5	-33.4	13.8	3.80e-06	0	44	102	1048576	21	5011
2026-01-24 10:24:33.71	164.12	58.41	-30.7	-34.0	13.5	1.06e-05	0	43	102	1048576	21	5220
2026-01-24 10:24:34.71	164.17	58.81	-30.5	-33.4	13.8	8.30e-06	0	44	102	1048576	21	5028
2026-01-24 10:24:35.71	164.23	59.21	-30.3	-32.7	14.3	1.50e-06	0	44	102	1048576	21	4752
2026-01-24 10:24:36.71	164.29	59.61	-30.0	-32.1	14.7	7.00e-07	0	44	102	1048576	21	4552
2026-01-24 10:24:37.72	164.35	60.03	-29.7	-31.8	15.2	0.00e+00	0	44	102	1048576	20	4567
2026-01-24 10:24:38.72	164.42	60.43	-29.5	-31.3	15.5	0.00e+00	0	44	102	1048576	20	4416
2026-01-24 10:24:39.73	164.48	60.85	-29.5	-31.3	15.5	0.00e+00	0	44	102	1048576	20	4426
2026-01-24 10:24:40.74	164.55	61.27	-29.3	-31.2	15.9	0.00e+00	0	44	102	1048576	19	4489
2026-01-24 10:24:41.74	164.62	61.69	-28.8	-30.1	16.6	0.00e+00	0	44	102	1048576	19	4153
2026-01-24 10:24:42.74	164.69	62.11	-28.5	-29.9	16.9	0.00e+00	0	44	102	1048576	18	4211
2026-01-24 10:24:43.74	164.77	62.53	-28.4	-29.6	17.0	0.00e+00	0	44	102	1048576	18	4138
2026-01-24 10:24:44.74	164.84	62.95	-28.7	-30.3	16.7	0.00e+00	0	44	102	1048576	18	4320
2026-01-24 10:24:45.74	164.92	63.38	-28.7	-30.4	16.6	0.00e+00	0	44	102	1048576	18	4360
2026-01-24 10:24:46.74	165.00	63.81	-28.9	-30.8	16.4	0.00e+00	0	44	102	1048576	18	4486
2026-01-24 10:24:47.74	165.09	64.24	-29.1	-31.1	16.2	0.00e+00	0	44	102	1048576	18	4575
2026-01-24 10:24:48.74	165.18	64.68	-29.7	-32.3	15.2	0.00e+00	0	44	102	1048576	19	4828
2026-01-24 10:24:49.74	165.27	65.12	-30.1	-32.8	14.5	0.00e+00	0	44	102	1048576	20	4917
2026-01-24 10:24:50.74	165.36	65.56	-30.6	-33.7	13.7	1.50e-06	0	44	102	1048576	21	5129
2026-01-24 10:24:51.74	165.46	66.00	-30.9	-34.5	13.2	1.52e-05	0	44	102	1048576	21	5440
2026-01-24 10:24:52.75	165.57	66.45	-31.2	-34.7	12.8	4.34e-05	0	44	102	1048576	22	5401
2026-01-24 10:24:53.75	165.67	66.89	-30.9	-34.0	13.2	6.48e-05	0	44	102	1048576	22	5110
2026-01-24 10:24:54.76	165.79	67.35	-30.6	-33.1	13.7	1.37e-05	0	44	102	1048576	22	4804
2026-01-24 10:24:55.77	165.90	67.80	-30.6	-33.1	13.8	3.00e-06	0	44	102	1048576	22	4789
2026-01-24 10:24:56.77	166.03	68.26	-30.9	-33.9	13.3	9.90e-06	0	44	102	1048576	22	5070
2026-01-24 10:24:57.77	166.15	68.71	-31.1	-34.3	13.0	3.35e-05	0	44	102	1048576	22	5239
2026-01-24 10:24:58.78	166.29	69.18	-30.9	-33.8	13.4	2.44e-05	0	44	102	1048576	22	5043
2026-01-24 10:24:59.78	166.43	69.64	-30.6	-32.9	13.9	8.30e-06	0	43	102	1048576	22	4731
2026-01-24 10:25:00.78	166.57	70.10	-30.5	-32.9	13.9	1.50e-06	0	44	102	1048576	22	4724
2026-01-24 10:25:01.78	166.73	70.57	-30.6	-33.0	13.8	7.00e-07	0	44	102	1048576	22	4768
2026-01-24 10:25:02.78	166.89	71.03	-30.6	-33.1	13.8	3.00e-06	0	44	102	1048576	22	4792
2026-01-24 10:25:03.79	167.06	71.51	-30.9	-34.0	13.3	8.30e-06	0	44	102	1048576	22	5113
2026-01-24 10:25:04.80	167.24	71.98	-31.5	-35.2	12.1	4.27e-05	0	44	102	1048576	23	5471
2026-01-24 10:25:05.80	167.43	72.45	-31.8	-36.1	11.5	7.21e-04	0	44	102	1048576	23	5886
2026-01-24 10:25:06.80	167.63	72.93	-31.9	-36.4	11.2	1.10e-03	0	43	102	1048576	23	6034
2026-01-24 10:25:07.80	167.84	73.40	-31.9	-35.8	11.3	1.16e-03	0	44	102	1048576	24	5633
2026-01-24 10:25:08.81	168.07	73.89	-32.3	-37.0	10.5	2.59e-03	0	43	102	1048576	24	6191
2026-01-24 10:25:09.81	168.31	74.37	-32.3	-37.3	10.3	5.78e-03	0	44	102	1048576	24	6346
2026-01-24 10:25:10.82	168.56	74.85	-32.4	-37.6	10.0	4.83e-03	0	44	102	1048576	24	6507
2026-01-24 10:25:11.83	168.84	75.34	-32.2	-36.1	10.8	7.13e-03	0	44	102	1048576	25	5666
2026-01-24 10:25:12.83	169.13	75.82	-31.8	-35.3	11.7	8.12e-04	0	44	102	1048576	24	5404
2026-01-24 10:25:13.84	169.44	76.31	-31.3	-33.9	12.7	1.96e-04	0	44	102	1048576	24	4860
2026-01-24 10:25:14.84	169.78	76.80	-30.9	-33.3	13.5	2.59e-05	0	44	102	1048576	23	4757
2026-01-24 10:25:15.84	170.14	77.29	-31.0	-33.5	13.4	9.10e-06	0	44	102	1048576	23	4805
2026-01-24 10:25:16.84	170.53	77.78	-31.0	-33.7	13.2	2.44e-05	0	44	102	1048576	23	4876
2026-01-24 10:25:17.85	170.96	78.27	-30.6	-32.9	14.0	4.50e-06	0	44	102	1048576	22	4714
2026-01-24 10:25:18.85	171.43	78.76	-30.3	-32.3	14.5	1.50e-06	0	44	102	1048576	22	4520
2026-01-24 10:25:19.86	171.94	79.26	-30.2	-32.5	14.6	0.00e+00	0	43	102	1048576	21	4682
2026-01-24 10:25:20.86	172.49	79.75	-29.7	-31.7	15.5	0.00e+00	0	44	102	1048576	20	4526
2026-01-24 10:25:21.86	173.10	80.24	-29.5	-31.3	15.7	0.00e+00	0	44	102	1048576	20	4396
2026-01-24 10:25:22.86	173.78	80.73	-29.7	-31.7	15.6	0.00e+00	0	44	102	1048576	20	4517
2026-01-24 10:25:23.86	174.54	81.23	-30.0	-32.5	15.0	0.00e+00	0	44	102	1048576	20	4776
2026-01-24 10:25:24.87	175.39	81.72	-30.9	-34.2	13.7	1.50e-06	0	44	102	1048576	21	5279
2026-01-24 10:25:25.87	176.34	82.21	-31.9	-36.2	11.7	2.39e-04	0	44	102	1048576	23	5862
2026-01-24 10:25:26.88	177.43	82.70	-32.6	-37.4	10.0	4.15e-03	0	44	102	1048576	25	6248
2026-01-24 10:25:27.88	178.67	83.19	-32.4	-36.8	10.5	7.28e-03	0	44	102	1048576	25	5932
2026-01-24 10:25:28.89	180.12	83.68	-31.8	-35.3	12.1	4.47e-04	0	44	102	1048576	24	5358
2026-01-24 10:25:29.90	181.81	84.16	-31.3	-34.2	13.1	4.04e-05	0	44	102	1048576	23	5057
2026-01-24 10:25:30.90	183.78	84.64	-31.6	-35.1	12.5	3.28e-05	0	44	102	1048576	23	5385
2026-01-24 10:25:31.91	186.15	85.11	-32.1	-36.2	11.5	1.50e-04	0	44	102	1048576	24	5729
2026-01-24 10:25:32.92	189.03	85.57	-32.1	-36.1	11.5	1.03e-03	0	44	102	1048576	24	5709
2026-01-24 10:25:33.92	192.54	86.02	-32.2	-36.3	11.4	6.43e-04	0	44	102	1048576	24	5789
2026-01-24 10:25:34.92	196.90	86.44	-32.4	-36.9	11.0	1.06e-03	0	44	102	1048576	24	6057
2026-01-24 10:25:35.93	202.48	86.85	-32.4	-36.9	11.1	2.18e-03	0	44	102	1048576	24	6070
2026-01-24 10:25:36.93	209.53	87.21	-32.2	-36.3	11.5	1.02e-03	0	44	102	1048576	24	5759
2026-01-24 10:25:37.93	218.52	87.52	-31.8	-35.0	12.3	4.65e-04	0	44	102	1048576	24	5241
2026-01-24 10:25:38.94	229.82	87.76	-31.2	-33.9	13.5	3.12e-05	0	44	102	1048576	23	4911
2026-01-24 10:25:39.95	243.12	87.89	-30.4	-32.4	14.7	7.00e-07	0	43	102	1048576	22	4496
2026-01-24 10:25:40.94	257.01	87.89	-30.2	-32.2	15.1	7.00e-07	0	44	102	1048576	21	4541
2026-01-24 10:25:41.94	270.35	87.78	-30.6	-33.3	14.4	0.00e+00	0	44	102	1048576	21	4929
2026-01-24 10:25:42.94	281.83	87.56	-30.9	-34.3	13.8	2.20e-06	0	44	102	1048576	21	5273
2026-01-24 10:25:43.94	291.11	87.26	-31.2	-34.5	13.3	8.30e-06	0	44	102	1048576	22	5241
2026-01-24 10:25:44.95	298.47	86.90	-31.5	-35.2	12.8	4.57e-05	0	44	102	1048576	22	5552
2026-01-24 10:25:45.95	304.17	86.50	-31.0	-33.5	13.5	1.06e-05	0	44	102	1048576	23	4779
2026-01-24 10:25:46.96	308.72	86.07	-30.7	-33.2	14.0	3.00e-06	0	43	102	1048576	22	4784
2026-01-24 10:25:47.96	312.32	85.63	-30.5	-32.8	14.2	1.50e-06	0	44	102	1048576	22	4653
2026-01-24 10:25:48.97	315.27	85.17	-30.1	-32.0	14.9	0.00e+00	0	44	102	1048576	21	4523
2026-01-24 10:25:49.97	317.68	84.70	-29.8	-31.8	15.4	0.00e+00	0	44	102	1048576	20	4563
2026-01-24 10:25:50.98	319.72	84.23	-30.0	-32.5	14.9	0.00e+00	0	44	102	1048576	20	4788
2026-01-24 10:25:51.98	321.42	83.75	-30.8	-34.0	13.6	7.00e-07	0	44	102	1048576	21	5224
2026-01-24 10:25:52.98	322.88	83.27	-31.5	-34.9	12.3	1.12e-04	0	44	102	1048576	23	5361
2026-01-24 10:25:53.99	324.16	82.77	-32.2	-36.8	10.7	1.38e-03	0	44	102	1048576	24	6089
2026-01-24 10:25:54.99	325.26	82.29	-32.4	-37.4	10.2	5.00e-03	0	44	102	1048576	24	6385
2026-01-24 10:25:55.99	326.23	81.80	-32.2	-36.7	10.7	4.56e-03	0	44	102	1048576	24	6040
2026-01-24 10:25:57.00	327.10	81.30	-31.4	-34.3	12.3	4.77e-04	0	44	102	1048576	24	5000
2026-01-24 10:25:58.00	327.87	80.81	-30.6	-33.0	13.9	2.89e-05	0	44	102	1048576	22	4754
2026-01-24 10:25:59.00	328.56	80.32	-30.0	-32.0	14.7	7.00e-07	0	44	102	1048576	21	4521
2026-01-24 10:26:00.00	329.18	79.83	-29.7	-31.8	15.3	0.00e+00	0	44	102	1048576	20	4576
2026-01-24 10:26:01.01	329.75	79.33	-30.4	-33.4	14.2	0.00e+00	0	44	102	1048576	20	5120
2026-01-24 10:26:02.01	330.26	78.84	-30.9	-34.3	13.3	3.80e-06	0	44	102	1048576	21	5362
2026-01-24 10:26:03.02	330.73	78.35	-31.1	-34.3	13.1	2.67e-05	0	44	102	1048576	22	5214
2026-01-24 10:26:04.02	331.16	77.86	-32.0	-36.6	11.3	2.01e-04	0	44	102	1048576	23	6100
2026-01-24 10:26:05.03	331.56	77.37	-32.8	-38.7	8.7	1.06e-02	0	44	102	1048576	25	7095
2026-01-24 10:26:06.04	331.93	76.87	-32.9	-38.8	8.5	4.17e-02	0	44	102	1048576	25	7163
2026-01-24 10:26:07.04	332.27	76.39	-32.3	-36.5	10.4	1.28e-02	0	43	102	1048576	25	5878
2026-01-24 10:26:08.04	332.59	75.90	-31.7	-35.1	11.7	1.97e-03	0	44	102	1048576	24	5356
2026-01-24 10:26:09.04	332.88	75.42	-31.8	-35.6	11.4	5.28e-04	0	44	102	1048576	24	5581
2026-01-24 10:26:10.05	333.16	74.93	-32.5	-37.3	9.8	6.86e-03	0	44	102	1048576	25	6275
2026-01-24 10:26:11.05	333.41	74.45	-32.5	-37.3	9.7	1.81e-02	0	44	102	1048576	25	6283
2026-01-24 10:26:12.05	333.66	73.97	-31.1	-33.8	12.9	1.55e-03	0	44	102	1048576	23	4944
2026-01-24 10:26:13.06	333.88	73.49	-30.1	-32.3	14.5	7.00e-07	0	44	102	1048576	21	4637
2026-01-24 10:26:14.06	334.10	73.01	-30.2	-32.6	14.5	0.00e+00	0	44	102	1048576	21	4716
2026-01-24 10:26:15.06	334.30	72.54	-30.5	-33.2	13.9	1.50e-06	0	44	102	1048576	21	4948
2026-01-24 10:26:16.07	334.49	72.06	-30.0	-32.0	14.7	2.20e-06	0	44	102	1048576	21	4551
2026-01-24 10:26:17.07	334.67	71.59	-29.6	-31.4	15.4	0.00e+00	0	44	102	1048576	20	4454
2026-01-24 10:26:18.08	334.85	71.12	-29.7	-31.7	15.3	0.00e+00	0	44	102	1048576	20	4537
2026-01-24 10:26:19.09	335.01	70.65	-30.9	-34.5	13.2	0.00e+00	0	43	102	1048576	21	5444
2026-01-24 10:26:20.09	335.16	70.19	-31.6	-35.5	11.9	2.27e-04	0	44	102	1048576	23	5626
2026-01-24 10:26:21.10	335.31	69.72	-31.7	-35.9	11.4	9.41e-04	0	44	102	1048576	23	5846
2026-01-24 10:26:22.10	335.45	69.26	-31.2	-34.2	12.7	2.30e-04	0	44	102	1048576	23	5107
2026-01-24 10:26:23.10	335.59	68.80	-31.6	-35.4	11.9	2.11e-04	0	44	102	1048576	23	5604
2026-01-24 10:26:24.11	335.72	68.34	-32.9	-39.2	8.4	1.25e-02	0	44	102	1048576	25	7399
2026-01-24 10:26:25.11	335.84	67.89	-33.1	-39.5	7.7	1.19e-01	0	43	102	1048576	26	7534
2026-01-24 10:26:26.12	335.96	67.43	-32.5	-36.9	9.7	2.03e-02	0	44	102	1048576	26	6002
2026-01-24 10:26:27.13	336.07	66.98	-31.8	-35.1	11.4	2.24e-03	0	44	102	1048576	25	5277
2026-01-24 10:26:28.13	336.18	66.53	-31.6	-35.1	11.8	5.68e-04	0	44	102	1048576	24	5340
2026-01-24 10:26:29.14	336.28	66.09	-32.0	-36.1	11.0	7.03e-04	0	43	102	1048576	24	5788
2026-01-24 10:26:30.14	336.38	65.64	-32.5	-37.9	9.7	7.08e-03	0	44	102	1048576	24	6706
2026-01-24 10:26:31.14	336.48	65.21	-31.9	-35.5	11.0	7.63e-03	0	44	102	1048576	25	5451
2026-01-24 10:26:32.14	336.57	64.77	-30.6	-33.0	13.8	2.12e-04	0	44	102	1048576	22	4768
2026-01-24 10:26:33.15	336.66	64.33	-29.4	-31.0	15.6	0.00e+00	0	44	102	1048576	20	4342
2026-01-24 10:26:34.16	336.75	63.90	-29.2	-31.0	16.0	0.00e+00	0	44	102	1048576	19	4437
2026-01-24 10:26:35.16	336.83	63.47	-28.9	-30.4	16.3	0.00e+00	0	44	102	1048576	19	4246
2026-01-24 10:26:36.16	336.91	63.04	-28.8	-30.5	16.6	0.00e+00	0	44	102	1048576	18	4373
2026-01-24 10:26:37.16	336.99	62.62	-28.9	-30.7	16.4	0.00e+00	0	44	102	1048576	18	4443
2026-01-24 10:26:38.17	337.06	62.19	-28.4	-29.7	17.0	0.00e+00	0	44	102	1048576	18	4151
2026-01-24 10:26:39.17	337.13	61.77	-28.3	-29.8	17.2	0.00e+00	0	44	102	1048576	17	4288
2026-01-24 10:26:40.17	337.20	61.36	-29.0	-31.5	16.3	0.00e+00	0	44	102	1048576	17	4807
2026-01-24 10:26:41.18	337.27	60.94	-30.0	-32.9	14.9	0.00e+00	0	44	102	1048576	19	5064
2026-01-24 10:26:42.19	337.34	60.52	-30.8	-34.2	13.2	3.80e-06	0	44	102	1048576	21	5312
2026-01-24 10:26:43.19	337.40	60.11	-30.7	-33.8	13.5	1.98e-05	0	44	102	1048576	21	5142
2026-01-24 10:26:44.18	337.46	59.71	-30.4	-33.1	14.0	6.80e-06	0	44	102	1048576	21	4888
2026-01-24 10:26:45.19	337.53	59.30	-30.6	-33.5	13.7	7.00e-07	0	44	102	1048576	21	5055
2026-01-24 10:26:46.20	337.58	58.90	-31.3	-35.0	12.5	1.83e-05	0	44	102	1048576	22	5529
2026-01-24 10:26:47.20	337.64	58.50	-31.8	-36.1	11.3	6.37e-04	0	44	102	1048576	23	5909
2026-01-24 10:26:48.20	337.70	58.11	-32.0	-36.4	10.7	2.25e-03	0	44	102	1048576	24	5941
2026-01-24 10:26:49.21	337.75	57.71	-32.1	-36.7	10.4	3.25e-03	0	44	102	1048576	24	6093
2026-01-24 10:26:50.21	337.80	57.32	-31.9	-35.9	11.1	2.40e-03	0	44	102	1048576	24	5721
2026-01-24 10:26:51.21	337.85	56.93	-31.2	-34.3	12.5	4.31e-04	0	43	102	1048576	23	5155
2026-01-24 10:26:52.22	337.90	56.54	-30.8	-33.2	13.2	3.89e-05	0	44	102	1048576	23	4738
2026-01-24 10:26:53.23	337.95	56.16	-30.7	-33.4	13.4	9.90e-06	0	44	102	1048576	22	4924
2026-01-24 10:26:54.23	338.00	55.78	-30.5	-32.9	13.7	7.60e-06	0	44	102	1048576	22	4744
2026-01-24 10:26:55.24	338.05	55.40	-30.2	-32.7	14.2	5.30e-06	0	44	102	1048576	21	4767
2026-01-24 10:26:56.24	338.09	55.03	-29.8	-31.6	14.8	7.00e-07	0	44	102	1048576	21	4427
2026-01-24 10:26:57.25	338.13	54.65	-30.1	-32.2	14.4	7.00e-07	0	43	102	1048576	21	4623
2026-01-24 10:26:58.25	338.18	54.28	-30.4	-33.0	14.0	0.00e+00	0	44	102	1048576	21	4900
2026-01-24 10:26:59.25	338.22	53.92	-30.9	-34.5	13.0	1.90e-05	0	44	102	1048576	21	5451
2026-01-24 10:27:00.25	338.26	53.55	-30.6	-33.6	13.5	1.14e-05	0	44	102	1048576	21	5106
2026-01-24 10:27:01.26	338.30	53.19	-29.8	-31.6	14.8	1.50e-06	0	44	102	1048576	21	4422
2026-01-24 10:27:02.26	338.34	52.83	-29.6	-31.6	15.1	7.00e-07	0	44	102	1048576	20	4526
2026-01-24 10:27:03.27	338.38	52.47	-30.0	-32.6	14.6	1.50e-06	0	44	102	1048576	20	4834
2026-01-24 10:27:04.27	338.41	52.12	-30.6	-33.5	13.6	7.00e-07	0	44	102	1048576	21	5079
2026-01-24 10:27:05.28	338.45	51.76	-31.1	-34.4	12.7	2.67e-05	0	44	102	1048576	22	5291
2026-01-24 10:27:06.28	338.49	51.41	-31.5	-35.3	11.7	1.40e-04	0	44	102	1048576	23	5586
2026-01-24 10:27:07.29	338.52	51.06	-32.0	-36.8	10.6	2.33e-03	0	44	102	1048576	23	6263
2026-01-24 10:27:08.29	338.56	50.72	-32.2	-36.9	10.1	3.98e-03	0	44	102	1048576	24	6227
2026-01-24 10:27:09.30	338.59	50.38	-32.3	-37.3	9.9	1.07e-02	0	44	102	1048576	24	6452
2026-01-24 10:27:10.31	338.62	50.04	-31.9	-36.0	10.8	4.10e-03	0	44	102	1048576	24	5778
2026-01-24 10:27:11.31	338.66	49.70	-31.6	-35.1	11.5	1.42e-03	0	44	102	1048576	24	5377
2026-01-24 10:27:12.32	338.69	49.36	-31.7	-35.2	11.4	6.74e-04	0	44	102	1048576	24	5434
2026-01-24 10:27:13.32	338.72	49.03	-32.3	-37.3	9.9	5.31e-03	0	44	102	1048576	24	6445
2026-01-24 10:27:14.32	338.75	48.71	-33.2	-40.6	6.6	7.28e-02	0	44	102	1048576	26	8436
2026-01-24 10:27:15.33	338.78	48.38	-33.5	-42.2	5.2	5.64e-01	0	44	102	1048576	27	9769
2026-01-24 10:27:16.33	338.81	48.05	-32.7	-38.2	8.1	4.04e-01	0	44	102	1048576	26	6768
2026-01-24 10:27:17.34	338.84	47.73	-31.5	-34.9	11.5	3.28e-03	0	44	102	1048576	24	5330
2026-01-24 10:27:18.34	338.87	47.41	-30.6	-33.3	13.4	9.68e-05	0	44	102	1048576	22	4876
2026-01-24 10:27:19.34	338.90	47.10	-30.4	-32.7	13.7	3.80e-06	0	44	102	1048576	22	4685
2026-01-24 10:27:20.34	338.92	46.78	-30.5	-32.8	13.7	2.20e-06	0	43	102	1048576	22	4723
2026-01-24 10:27:21.35	338.95	46.47	-30.6	-33.1	13.5	3.80e-06	0	44	102	1048576	22	4819
2026-01-24 10:27:22.35	338.98	46.16	-30.9	-34.2	12.8	3.20e-05	0	44	102	1048576	22	5226
2026-01-24 10:27:23.35	339.00	45.85	-31.3	-35.2	12.2	1.71e-04	0	44	102	1048576	22	5624
2026-01-24 10:27:24.35	339.03	45.55	-31.4	-35.6	11.8	5.35e-04	0	44	102	1048576	22	5846
2026-01-24 10:27:25.36	339.05	45.24	-31.3	-35.1	12.1	3.52e-04	0	44	102	1048576	22	5618
2026-01-24 10:27:26.35	339.08	44.95	-31.1	-34.6	12.4	2.56e-04	0	44	102	1048576	22	5412
2026-01-24 10:27:27.36	339.10	44.65	-30.7	-33.4	13.3	3.89e-05	0	44	102	1048576	22	4924
2026-01-24 10:27:28.36	339.13	44.35	-30.2	-32.6	14.1	1.50e-06	0	44	102	1048576	21	4756
2026-01-24 10:27:29.36	339.15	44.06	-30.0	-32.1	14.4	7.00e-07	0	44	102	1048576	21	4601
2026-01-24 10:27:30.37	339.17	43.76	-29.9	-31.9	14.5	7.00e-07	0	44	102	1048576	21	4519
2026-01-24 10:27:31.37	339.20	43.48	-29.4	-31.1	15.3	7.00e-07	0	44	102	1048576	20	4372
2026-01-24 10:27:32.37	339.22	43.19	-29.5	-31.3	15.2	0.00e+00	0	44	102	1048576	20	4417
2026-01-24 10:27:33.38	339.24	42.90	-29.7	-31.7	14.9	0.00e+00	0	44	102	1048576	20	4562
2026-01-24 10:27:34.37	339.26	42.62	-30.3	-33.5	13.8	0.00e+00	0	44	102	1048576	20	5179
2026-01-24 10:27:35.38	339.28	42.34	-30.9	-34.5	12.9	1.44e-05	0	44	102	1048576	21	5483
2026-01-24 10:27:36.37	339.31	42.06	-31.5	-35.9	11.6	1.98e-04	0	44	102	1048576	22	5976
2026-01-24 10:27:37.37	339.33	41.79	-31.7	-36.1	11.0	1.52e-03	0	44	102	1048576	23	5957
2026-01-24 10:27:38.38	339.35	41.51	-31.7	-35.9	11.1	2.37e-03	0	44	102	1048576	23	5887
2026-01-24 10:27:39.39	339.37	41.24	-31.0	-33.9	12.6	5.05e-04	0	44	102	1048576	23	5016
2026-01-24 10:27:40.39	339.39	40.97	-30.5	-32.9	13.6	4.50e-05	0	44	102	1048576	22	4758
2026-01-24 10:27:41.41	339.41	40.69	-30.0	-32.1	14.4	2.20e-06	0	44	102	1048576	21	4578
2026-01-24 10:27:42.40	339.43	40.43	-29.7	-31.8	14.9	0.00e+00	0	44	102	1048576	20	4582
2026-01-24 10:27:43.40	339.45	40.17	-29.7	-31.8	14.9	7.00e-07	0	44	102	1048576	20	4594
2026-01-24 10:27:44.41	339.47	39.90	-29.9	-32.3	14.5	0.00e+00	0	44	102	1048576	20	4757
2026-01-24 10:27:45.41	339.49	39.64	-30.2	-33.1	14.1	0.00e+00	0	44	102	1048576	20	5027
2026-01-24 10:27:46.42	339.51	39.38	-30.7	-33.9	13.2	3.80e-06	0	44	102	1048576	21	5237
2026-01-24 10:27:47.43	339.52	39.13	-31.3	-35.2	12.0	1.82e-04	0	44	102	1048576	22	5652
2026-01-24 10:27:48.44	339.54	38.87	-31.9	-36.6	10.6	1.40e-03	0	44	102	1048576	23	6190
2026-01-24 10:27:49.43	339.56	38.62	-32.3	-37.7	9.5	6.47e-03	0	44	102	1048576	24	6692
2026-01-24 10:27:50.44	339.58	38.37	-32.6	-38.4	8.5	2.36e-02	0	44	102	1048576	25	7002
2026-01-24 10:27:51.44	339.60	38.12	-32.6	-38.5	8.4	4.78e-02	0	43	102	1048576	25	7116
2026-01-24 10:27:52.44	339.61	37.87	-32.5	-37.9	8.8	4.39e-02	0	44	102	1048576	25	6718
2026-01-24 10:27:53.44	339.63	37.63	-32.2	-36.9	9.6	2.31e-02	0	44	102	1048576	25	6149
2026-01-24 10:27:54.44	339.65	37.38	-31.9	-35.9	10.4	6.13e-03	0	43	102	1048576	25	5670
2026-01-24 10:27:55.45	339.66	37.14	-31.7	-35.7	11.0	2.44e-03	0	44	102	1048576	24	5664
2026-01-24 10:27:56.46	339.68	36.90	-31.6	-35.2	11.2	2.16e-03	0	44	102	1048576	24	5467
2026-01-24 10:27:57.46	339.70	36.66	-31.4	-34.5	11.8	5.78e-04	0	44	102	1048576	24	5144
2026-01-24 10:27:58.47	339.71	36.42	-31.2	-34.5	12.2	2.60e-04	0	44	102	1048576	23	5233
2026-01-24 10:27:59.48	339.73	36.19	-31.2	-34.5	12.1	2.09e-04	0	44	102	1048576	23	5227
2026-01-24 10:28:00.49	339.75	35.95	-31.3	-34.6	12.1	2.88e-04	0	44	102	1048576	23	5301
2026-01-24 10:28:01.49	339.76	35.72	-31.2	-34.3	12.2	2.39e-04	0	44	102	1048576	23	5192
2026-01-24 10:28:02.49	339.78	35.49	-31.3	-34.7	12.0	2.54e-04	0	44	102	1048576	23	5340
2026-01-24 10:28:03.50	339.79	35.26	-31.6	-35.7	11.3	6.45e-04	0	44	102	1048576	23	5765
2026-01-24 10:28:04.51	339.81	35.03	-31.9	-36.9	10.4	2.80e-03	0	43	102	1048576	23	6355
2026-01-24 10:28:05.50	339.82	34.81	-32.3	-37.9	9.2	1.15e-02	0	43	102	1048576	24	6815
2026-01-24 10:28:06.51	339.84	34.59	-32.7	-38.8	8.1	3.76e-02	0	44	102	1048576	25	7277
2026-01-24 10:28:07.51	339.85	34.36	-33.0	-40.2	7.0	1.22e-01	0	44	102	1048576	25	8305
2026-01-24 10:28:08.51	339.87	34.15	-33.2	-40.6	6.4	2.29e-01	0	43	102	1048576	26	8522
2026-01-24 10:28:09.52	339.88	33.93	-33.2	-41.0	6.2	2.86e-01	0	44	102	1048576	26	8816
2026-01-24 10:28:10.52	339.90	33.71	-33.1	-40.6	6.4	2.99e-01	0	44	102	1048576	26	8527
2026-01-24 10:28:11.53	339.91	33.49	-33.0	-39.7	7.1	1.70e-01	0	44	102	1048576	26	7831
2026-01-24 10:28:12.53	339.92	33.28	-32.8	-38.7	7.8	1.06e-01	0	44	102	1048576	26	7130
2026-01-24 10:28:13.54	339.94	33.06	-32.6	-38.1	8.3	6.47e-02	0	44	102	1048576	26	6726
2026-01-24 10:28:14.54	339.95	32.85	-32.5	-37.4	8.8	3.23e-02	0	44	102	1048576	26	6363
2026-01-24 10:28:15.54	339.96	32.65	-32.3	-36.7	9.4	2.60e-02	0	44	102	1048576	26	5980
2026-01-24 10:28:16.55	339.98	32.44	-32.0	-36.2	10.1	1.14e-02	0	44	102	1048576	25	5809
2026-01-24 10:28:17.55	339.99	32.23	-31.9	-35.8	10.4	5.32e-03	0	44	102	1048576	25	5628
2026-01-24 10:28:18.55	340.01	32.02	-31.9	-35.6	10.5	3.60e-03	0	44	102	1048576	25	5547
2026-01-24 10:28:19.56	340.02	31.82	-31.8	-35.6	10.5	4.03e-03	0	44	102	1048576	25	5529
2026-01-24 10:28:20.56	340.03	31.62	-31.9	-35.7	10.5	3.98e-03	0	44	102	1048576	25	5574
2026-01-24 10:28:21.57	340.04	31.42	-31.9	-36.3	10.4	4.94e-03	0	44	102	1048576	24	5982
2026-01-24 10:28:22.58	340.06	31.21	-32.0	-36.5	10.2	5.23e-03	0	44	102	1048576	24	6075
2026-01-24 10:28:23.58	340.07	31.02	-32.2	-37.2	9.8	7.46e-03	0	44	102	1048576	24	6414
2026-01-24 10:28:24.59	340.08	30.82	-32.2	-37.4	9.5	1.45e-02	0	44	102	1048576	24	6556
2026-01-24 10:28:25.59	340.10	30.62	-32.2	-37.3	9.6	1.16e-02	0	44	102	1048576	24	6462
2026-01-24 10:28:26.59	340.11	30.43	-32.2	-37.3	9.6	1.28e-02	0	44	102	1048576	24	6497
2026-01-24 10:28:27.59	340.12	30.24	-32.2	-37.3	9.6	1.19e-02	0	44	102	1048576	24	6491
2026-01-24 10:28:28.60	340.13	30.04	-32.3	-37.6	9.4	1.45e-02	0	44	102	1048576	24	6659
2026-01-24 10:28:29.60	340.14	29.85	-32.3	-37.7	9.3	1.83e-02	0	44	102	1048576	24	6717
2026-01-24 10:28:30.61	340.16	29.66	-32.2	-37.4	9.6	1.44e-02	0	44	102	1048576	24	6528
2026-01-24 10:28:31.61	340.17	29.48	-32.1	-37.1	9.8	1.08e-02	0	44	102	1048576	24	6366
2026-01-24 10:28:32.61	340.18	29.29	-32.1	-37.0	9.8	9.96e-03	0	44	102	1048576	24	6327
2026-01-24 10:28:33.62	340.19	29.10	-32.0	-36.6	10.1	9.83e-03	0	44	102	1048576	24	6158
2026-01-24 10:28:34.63	340.20	28.92	-31.8	-36.0	10.5	4.40e-03	0	44	102	1048576	24	5848
2026-01-24 10:28:35.64	340.22	28.73	-31.7	-35.6	10.8	2.53e-03	0	44	102	1048576	24	5661
2026-01-24 10:28:36.64	340.23	28.55	-31.5	-35.0	11.3	1.59e-03	0	44	102	1048576	24	5375
2026-01-24 10:28:37.64	340.24	28.37	-31.4	-34.7	11.5	7.52e-04	0	44	102	1048576	24	5256
2026-01-24 10:28:38.64	340.25	28.19	-31.4	-34.6	11.6	6.27e-04	0	44	102	1048576	24	5237
2026-01-24 10:28:39.65	340.26	28.01	-31.3	-34.9	11.7	5.24e-04	0	44	102	1048576	23	5430
2026-01-24 10:28:40.65	340.27	27.84	-31.2	-34.6	11.9	5.43e-04	0	44	102	1048576	23	5305
2026-01-24 10:28:41.65	340.28	27.66	-31.1	-34.1	12.3	2.38e-04	0	44	102	1048576	23	5132
2026-01-24 10:28:42.66	340.29	27.49	-31.0	-34.0	12.3	1.75e-04	0	44	102	1048576	23	5072
2026-01-24 10:28:43.66	340.31	27.31	-30.9	-33.6	12.6	1.28e-04	0	44	102	1048576	23	4919
2026-01-24 10:28:44.66	340.32	27.14	-30.9	-33.6	12.6	8.54e-05	0	44	102	1048576	23	4925
2026-01-24 10:28:45.67	340.33	26.97	-30.9	-33.7	12.6	9.84e-05	0	44	102	1048576	23	4961
2026-01-24 10:28:46.67	340.34	26.80	-30.9	-33.6	12.6	1.29e-04	0	44	102	1048576	23	4932
2026-01-24 10:28:47.68	340.35	26.63	-30.7	-33.6	12.9	6.40e-05	0	44	102	1048576	22	5043
2026-01-24 10:28:48.68	340.36	26.46	-30.6	-33.4	13.0	3.43e-05	0	44	102	1048576	22	4953
2026-01-24 10:28:49.69	340.37	26.29	-30.8	-33.9	12.7	3.58e-05	0	44	102	1048576	22	5132
2026-01-24 10:28:50.69	340.38	26.13	-30.9	-34.2	12.5	1.23e-04	0	44	102	1048576	22	5263
2026-01-24 10:28:51.69	340.39	25.96	-30.9	-34.1	12.5	1.14e-04	0	44	102	1048576	22	5225
2026-01-24 10:28:52.69	340.40	25.80	-31.1	-34.7	12.1	1.67e-04	0	44	102	1048576	22	5480
2026-01-24 10:28:53.70	340.41	25.63	-31.1	-34.9	12.0	3.79e-04	0	44	102	1048576	22	5571
2026-01-24 10:28:54.70	340.42	25.47	-31.0	-34.7	12.1	2.56e-04	0	44	102	1048576	22	5458
2026-01-24 10:28:55.71	340.43	25.31	-31.0	-34.4	12.3	2.10e-04	0	44	102	1048576	22	5378
2026-01-24 10:28:56.71	340.44	25.15	-31.0	-34.4	12.3	1.66e-04	0	44	102	1048576	22	5368
2026-01-24 10:28:57.70	340.45	24.99	-30.9	-34.3	12.4	1.91e-04	0	44	102	1048576	22	5332
2026-01-24 10:28:58.71	340.46	24.83	-31.0	-34.6	12.2	1.75e-04	0	43	102	1048576	22	5419
2026-01-24 10:28:59.72	340.47	24.67	-30.9	-34.2	12.4	2.51e-04	0	44	102	1048576	22	5282
2026-01-24 10:29:00.72	340.48	24.52	-30.6	-33.3	13.0	8.85e-05	0	44	102	1048576	22	4932
2026-01-24 10:29:01.73	340.49	24.36	-30.3	-32.6	13.5	1.37e-05	0	44	102	1048576	22	4680
2026-01-24 10:29:02.74	340.50	24.21	-30.0	-32.4	13.9	5.30e-06	0	44	102	1048576	21	4710
2026-01-24 10:29:03.74	340.51	24.05	-29.8	-31.7	14.4	7.00e-07	0	44	102	1048576	21	4484
2026-01-24 10:29:04.75	340.52	23.90	-29.7	-32.1	14.4	0.00e+00	0	44	102	1048576	20	4718
2026-01-24 10:29:05.76	340.53	23.75	-29.7	-31.9	14.5	0.00e+00	0	44	102	1048576	20	4663
2026-01-24 10:29:06.76	340.54	23.60	-29.7	-32.0	14.4	0.00e+00	0	44	102	1048576	20	4701
2026-01-24 10:29:07.76	340.55	23.45	-29.7	-32.1	14.4	1.50e-06	0	44	102	1048576	20	4725
2026-01-24 10:29:08.77	340.56	23.30	-29.5	-31.6	14.7	7.00e-07	0	44	102	1048576	20	4563
2026-01-24 10:29:09.77	340.57	23.15	-29.5	-31.4	14.8	0.00e+00	0	44	102	1048576	20	4495
2026-01-24 10:29:10.78	340.58	23.00	-29.5	-31.5	14.7	7.00e-07	0	44	102	1048576	20	4544
2026-01-24 10:29:11.78	340.59	22.85	-29.5	-31.6	14.7	0.00e+00	0	44	102	1048576	20	4555
2026-01-24 10:29:12.78	340.60	22.71	-29.5	-31.5	14.8	0.00e+00	0	44	102	1048576	20	4520
2026-01-24 10:29:13.79	340.60	22.56	-29.6	-31.8	14.6	0.00e+00	0	44	102	1048576	20	4613
2026-01-24 10:29:14.79	340.61	22.42	-29.6	-31.7	14.7	0.00e+00	0	44	102	1048576	20	4587
2026-01-24 10:29:15.80	340.62	22.27	-29.7	-31.9	14.5	7.00e-07	0	44	102	1048576	20	4653
2026-01-24 10:29:16.80	340.63	22.13	-29.7	-32.0	14.4	7.00e-07	0	44	102	1048576	20	4710
2026-01-24 10:29:17.80	340.64	21.99	-29.8	-32.3	14.3	7.00e-07	0	44	102	1048576	20	4783
2026-01-24 10:29:18.81	340.65	21.85	-29.8	-32.3	14.2	2.20e-06	0	44	102	1048576	20	4807
2026-01-24 10:29:19.81	340.66	21.71	-30.0	-32.7	13.9	1.50e-06	0	43	102	1048576	20	4956
2026-01-24 10:29:20.82	340.67	21.57	-29.9	-32.5	14.1	7.60e-06	0	44	102	1048576	20	4883
2026-01-24 10:29:21.82	340.68	21.43	-29.8	-32.2	14.2	0.00e+00	0	44	102	1048576	20	4781
2026-01-24 10:29:22.83	340.68	21.29	-29.7	-32.1	14.3	7.00e-07	0	43	102	1048576	20	4741
2026-01-24 10:29:23.84	340.69	21.15	-29.7	-32.0	14.4	1.50e-06	0	44	102	1048576	20	4686
2026-01-24 10:29:24.85	340.70	21.02	-29.8	-32.2	14.3	0.00e+00	0	44	102	1048576	20	4772
2026-01-24 10:29:25.85	340.71	20.88	-29.9	-32.5	14.0	2.20e-06	0	44	102	1048576	20	4881
2026-01-24 10:29:26.85	340.72	20.75	-29.9	-32.5	14.1	4.50e-06	0	44	102	1048576	20	4872
2026-01-24 10:29:27.86	340.73	20.61	-29.9	-32.7	13.9	6.10e-06	0	44	102	1048576	20	4925
2026-01-24 10:29:28.85	340.74	20.48	-29.8	-32.4	14.1	1.50e-06	0	44	102	1048576	20	4830
2026-01-24 10:29:29.86	340.75	20.35	-29.8	-32.3	14.2	7.00e-07	0	44	102	1048576	20	4802
2026-01-24 10:29:30.86	340.75	20.21	-29.9	-32.6	14.0	3.00e-06	0	44	102	1048576	20	4910
2026-01-24 10:29:31.87	340.76	20.08	-29.9	-32.5	14.0	1.50e-06	0	44	102	1048576	20	4864
2026-01-24 10:29:32.87	340.77	19.95	-29.9	-32.5	14.0	2.20e-06	0	44	102	1048576	20	4884
2026-01-24 10:29:33.87	340.78	19.82	-30.0	-32.8	13.9	2.20e-06	0	44	102	1048576	20	4971
2026-01-24 10:29:34.88	340.79	19.69	-30.0	-32.8	13.8	4.50e-06	0	44	102	1048576	20	4989
2026-01-24 10:29:35.89	340.80	19.56	-30.0	-32.9	13.8	3.00e-06	0	44	102	1048576	20	5014
2026-01-24 10:29:36.90	340.80	19.43	-30.2	-33.4	13.4	8.30e-06	0	44	102	1048576	20	5208
2026-01-24 10:29:37.90	340.81	19.31	-30.1	-33.3	13.6	5.30e-06	0	44	102	1048576	20	5152
2026-01-24 10:29:38.91	340.82	19.18	-30.2	-33.4	13.4	1.67e-05	0	44	102	1048576	20	5214
2026-01-24 10:29:39.91	340.83	19.05	-30.3	-33.7	13.2	1.22e-05	0	44	102	1048576	20	5330
2026-01-24 10:29:40.92	340.84	18.93	-30.2	-33.4	13.4	1.67e-05	0	44	102	1048576	20	5214
2026-01-24 10:29:41.92	340.84	18.80	-30.2	-33.4	13.4	1.37e-05	0	44	102	1048576	20	5223
2026-01-24 10:29:42.93	340.85	18.68	-30.3	-33.6	13.3	2.36e-05	0	44	102	1048576	20	5298
2026-01-24 10:29:43.94	340.86	18.55	-30.2	-33.5	13.4	9.90e-06	0	44	102	1048576	20	5235
2026-01-24 10:29:44.94	340.87	18.43	-30.2	-33.3	13.4	1.60e-05	0	44	102	1048576	20	5187
2026-01-24 10:29:45.94	340.88	18.31	-30.2	-33.4	13.4	1.60e-05	0	44	102	1048576	20	5210
2026-01-24 10:29:46.94	340.88	18.19	-30.4	-33.9	13.1	2.67e-05	0	43	102	1048576	20	5389
2026-01-24 10:29:47.95	340.89	18.07	-30.3	-33.8	13.1	2.05e-05	0	44	102	1048576	20	5372
2026-01-24 10:29:48.96	340.90	17.95	-30.3	-33.8	13.1	2.28e-05	0	44	102	1048576	20	5370
2026-01-24 10:29:49.96	340.91	17.83	-30.5	-34.3	12.8	3.89e-05	0	44	102	1048576	20	5561
2026-01-24 10:29:50.97	340.92	17.71	-30.6	-34.1	12.6	8.31e-05	0	44	102	1048576	21	5361
2026-01-24 10:29:51.97	340.92	17.59	-30.5	-33.8	12.8	5.87e-05	0	44	102	1048576	21	5250
2026-01-24 10:29:52.98	340.93	17.47	-30.6	-34.0	12.6	7.09e-05	0	44	102	1048576	21	5345
2026-01-24 10:29:53.98	340.94	17.35	-30.5	-33.8	12.7	9.68e-05	0	44	102	1048576	21	5280
2026-01-24 10:29:54.99	340.95	17.23	-30.6	-34.1	12.6	8.01e-05	0	44	102	1048576	21	5370
2026-01-24 10:29:56.00	340.95	17.12	-30.6	-34.0	12.6	1.11e-04	0	44	102	1048576	21	5355
2026-01-24 10:29:57.01	340.96	17.00	-30.8	-34.8	12.0	1.40e-04	0	44	102	1048576	21	5669
2026-01-24 10:29:58.01	340.97	16.88	-31.0	-34.9	11.7	5.57e-04	0	44	102	1048576	22	5613
2026-01-24 10:29:59.02	340.98	16.77	-31.1	-35.1	11.5	7.66e-04	0	44	102	1048576	22	5688
2026-01-24 10:30:00.03	340.98	16.65	-31.1	-35.2	11.4	9.33e-04	0	43	102	1048576	22	5742
2026-01-24 10:30:01.03	340.99	16.54	-31.1	-35.1	11.5	9.63e-04	0	44	102	1048576	22	5707
2026-01-24 10:30:02.04	341.00	16.43	-31.0	-34.7	11.8	5.92e-04	0	44	102	1048576	22	5523
2026-01-24 10:30:03.04	341.01	16.31	-30.8	-34.1	12.2	3.36e-04	0	44	102	1048576	22	5283
2026-01-24 10:30:04.05	341.01	16.20	-30.7	-33.8	12.4	1.88e-04	0	43	102	1048576	22	5143
2026-01-24 10:30:05.05	341.02	16.09	-30.6	-33.5	12.5	1.19e-04	0	44	102	1048576	22	5052
2026-01-24 10:30:06.06	341.03	15.98	-30.6	-33.5	12.6	1.12e-04	0	44	102	1048576	22	5040
2026-01-24 10:30:07.06	341.04	15.87	-30.6	-33.5	12.5	8.62e-05	0	44	102	1048576	22	5069
2026-01-24 10:30:08.06	341.04	15.76	-30.8	-34.3	12.0	2.75e-04	0	44	102	1048576	22	5379
2026-01-24 10:30:09.07	341.05	15.65	-30.6	-33.5	12.5	1.58e-04	0	44	102	1048576	22	5047
2026-01-24 10:30:10.08	341.06	15.54	-30.3	-32.9	12.9	6.63e-05	0	44	102	1048576	22	4830
2026-01-24 10:30:11.09	341.07	15.43	-30.1	-32.7	13.4	2.59e-05	0	44	102	1048576	21	4855
2026-01-24 10:30:12.09	341.07	15.32	-29.9	-32.2	13.7	9.10e-06	0	44	102	1048576	21	4695
2026-01-24 10:30:13.09	341.08	15.21	-30.0	-32.4	13.5	9.90e-06	0	44	102	1048576	21	4759
2026-01-24 10:30:14.10	341.09	15.11	-29.9	-32.3	13.6	6.80e-06	0	43	102	1048576	21	4732
2026-01-24 10:30:15.10	341.10	15.00	-30.0	-32.5	13.5	8.30e-06	0	44	102	1048576	21	4787
2026-01-24 10:30:16.10	341.10	14.89	-29.9	-32.2	13.7	9.10e-06	0	44	102	1048576	21	4701
2026-01-24 10:30:17.11	341.11	14.79	-30.0	-32.4	13.6	5.30e-06	0	44	102	1048576	21	4745
2026-01-24 10:30:18.11	341.12	14.68	-30.0	-32.6	13.4	1.44e-05	0	44	102	1048576	21	4827
2026-01-24 10:30:19.11	341.12	14.58	-30.0	-32.4	13.5	1.06e-05	0	44	102	1048576	21	4765
2026-01-24 10:30:20.12	341.13	14.47	-30.0	-32.5	13.5	9.10e-06	0	43	102	1048576	21	4803
2026-01-24 10:30:21.12	341.14	14.37	-30.2	-32.9	13.2	1.60e-05	0	44	102	1048576	21	4947
2026-01-24 10:30:22.12	341.14	14.27	-30.1	-32.7	13.3	1.29e-05	0	44	102	1048576	21	4859
2026-01-24 10:30:23.12	341.15	14.16	-30.2	-32.9	13.2	1.90e-05	0	43	102	1048576	21	4948
2026-01-24 10:30:24.13	341.16	14.06	-30.2	-32.9	13.2	2.67e-05	0	44	102	1048576	21	4942
2026-01-24 10:30:25.13	341.17	13.96	-30.1	-32.8	13.3	3.89e-05	0	44	102	1048576	21	4892
2026-01-24 10:30:26.13	341.17	13.86	-30.2	-33.0	13.1	2.59e-05	0	44	102	1048576	21	4993
2026-01-24 10:30:27.13	341.18	13.76	-30.2	-33.0	13.1	3.35e-05	0	43	102	1048576	21	4970
2026-01-24 10:30:28.14	341.19	13.65	-30.2	-33.1	13.0	4.11e-05	0	44	102	1048576	21	5026
2026-01-24 10:30:29.14	341.19	13.55	-30.2	-33.0	13.1	3.12e-05	0	43	102	1048576	21	4991
2026-01-24 10:30:30.15	341.20	13.45	-30.2	-33.1	13.0	3.66e-05	0	44	102	1048576	21	5029
2026-01-24 10:30:31.15	341.21	13.35	-30.4	-33.6	12.7	4.34e-05	0	44	102	1048576	21	5216
2026-01-24 10:30:32.16	341.21	13.25	-30.3	-33.3	12.8	6.71e-05	0	44	102	1048576	21	5095
2026-01-24 10:30:33.16	341.22	13.16	-30.4	-33.8	12.5	9.15e-05	0	44	102	1048576	21	5278
2026-01-24 10:30:34.17	341.23	13.06	-30.4	-33.7	12.6	1.17e-04	0	44	102	1048576	21	5265
2026-01-24 10:30:35.17	341.23	12.96	-30.5	-33.8	12.5	1.16e-04	0	44	102	1048576	21	5309
2026-01-24 10:30:36.17	341.24	12.86	-30.6	-34.2	12.2	1.86e-04	0	44	102	1048576	21	5479
2026-01-24 10:30:37.17	341.25	12.76	-30.4	-33.7	12.6	1.68e-04	0	44	102	1048576	21	5254
2026-01-24 10:30:38.17	341.25	12.67	-30.4	-33.6	12.6	1.16e-04	0	44	102	1048576	21	5230
2026-01-24 10:30:39.16	341.26	12.57	-30.4	-33.6	12.6	1.12e-04	0	44	102	1048576	21	5237
2026-01-24 10:30:40.17	341.27	12.48	-30.4	-33.8	12.5	9.84e-05	0	44	102	1048576	21	5277
2026-01-24 10:30:41.17	341.28	12.38	-30.5	-34.0	12.3	1.52e-04	0	44	102	1048576	21	5397
2026-01-24 10:30:42.18	341.28	12.28	-30.4	-33.7	12.5	1.27e-04	0	44	102	1048576	21	5246
2026-01-24 10:30:43.18	341.29	12.19	-30.3	-33.5	12.6	1.09e-04	0	44	102	1048576	21	5187
2026-01-24 10:30:44.18	341.30	12.10	-30.5	-33.9	12.4	9.15e-05	0	44	102	1048576	21	5340
2026-01-24 10:30:45.19	341.30	12.00	-30.5	-34.0	12.3	1.30e-04	0	43	102	1048576	21	5392
2026-01-24 10:30:46.19	341.31	11.91	-30.5	-33.9	12.4	1.63e-04	0	44	102	1048576	21	5335
2026-01-24 10:30:47.20	341.32	11.81	-30.5	-34.0	12.3	2.36e-04	0	44	102	1048576	21	5406
2026-01-24 10:30:48.20	341.32	11.72	-30.7	-34.5	12.0	2.73e-04	0	44	102	1048576	21	5586
2026-01-24 10:30:49.20	341.33	11.63	-30.7	-34.5	12.0	3.37e-04	0	44	102	1048576	21	5588
2026-01-24 10:30:50.21	341.33	11.53	-30.7	-34.6	11.8	3.67e-04	0	44	102	1048576	21	5666
2026-01-24 10:30:51.21	341.34	11.44	-30.9	-35.1	11.5	6.60e-04	0	44	102	1048576	21	5889
2026-01-24 10:30:52.21	341.35	11.35	-30.8	-34.8	11.7	5.91e-04	0	43	102	1048576	21	5748
2026-01-24 10:30:53.21	341.35	11.26	-30.7	-34.7	11.7	5.08e-04	0	44	102	1048576	21	5706
2026-01-24 10:30:54.22	341.36	11.17	-30.8	-35.1	11.5	5.51e-04	0	44	102	1048576	21	5850
2026-01-24 10:30:55.22	341.37	11.08	-30.9	-35.2	11.4	8.56e-04	0	44	102	1048576	21	5907
2026-01-24 10:30:56.23	341.37	10.99	-30.9	-35.3	11.3	1.03e-03	0	44	102	1048576	21	5972
2026-01-24 10:30:57.23	341.38	10.90	-31.0	-35.4	11.2	1.18e-03	0	43	102	1048576	21	6034
2026-01-24 10:30:58.22	341.39	10.81	-31.1	-35.4	10.9	1.52e-03	0	44	102	1048576	22	5922
2026-01-24 10:30:59.23	341.39	10.72	-31.1	-35.3	10.9	2.25e-03	0	44	102	1048576	22	5858
2026-01-24 10:31:00.23	341.40	10.63	-31.1	-35.3	11.0	2.13e-03	0	43	102	1048576	22	5860
2026-01-24 10:31:01.24	341.41	10.54	-31.2	-35.6	10.7	2.81e-03	0	44	102	1048576	22	6019
2026-01-24 10:31:02.24	341.41	10.45	-31.1	-35.5	10.8	2.82e-03	0	44	102	1048576	22	5957
2026-01-24 10:31:03.24	341.42	10.36	-31.1	-35.4	10.8	2.53e-03	0	44	102	1048576	22	5911
2026-01-24 10:31:04.25	341.43	10.28	-31.2	-35.7	10.6	2.89e-03	0	44	102	1048576	22	6079
2026-01-24 10:31:05.25	341.43	10.19	-31.2	-35.8	10.5	3.47e-03	0	44	102	1048576	22	6110
2026-01-24 10:31:06.26	341.44	10.10	-31.2	-35.9	10.5	3.65e-03	0	44	102	1048576	22	6166
