passes_logs/2026/01/24/R2M6_AANII_01/R2M6_AANII_01__20260124_060752_FENGYUN_3E_rec.log

#Pass ID: 20260124_060752_FENGYUN 3E
#Satellite: FENGYUN 3E
#Configuration: FENGYUN 3E
#almurnet v.1.7.20240730
#Start time: 2026-01-24 06:07:53

#Version: 2.2.20231116
#Station: R2M6_AANII_01
#Location: 30.233357 lon 59.946436 lat
#TLE: 1 49008U 21062A   26023.60278097 -.00000097  00000+0 -24964-4 0  9990
#TLE: 2 49008  98.7490  28.6300 0002358 120.0933 240.0477 14.19886577236062

#Time	Az	El	Level	Level2	SNR	BER	BlckErr	Temp	State	Recorded	gain1	gain2
2026-01-24 06:07:53.14	11.62	7.06	-31.0	-34.4	4.8	8.03e-01	0	41	0	0	22	5285
2026-01-24 06:07:54.14	11.55	7.12	-31.0	-34.7	4.8	7.99e-01	0	41	104	0	21	5515
2026-01-24 06:07:55.15	11.47	7.19	-30.8	-34.0	7.6	9.38e-02	0	41	0	0	21	5196
2026-01-24 06:07:56.15	11.40	7.26	-30.8	-34.1	7.5	1.04e-01	0	41	102	1048576	21	5259
2026-01-24 06:07:57.16	11.32	7.33	-30.7	-33.8	7.8	8.44e-02	0	41	102	1048576	21	5120
2026-01-24 06:07:58.16	11.25	7.40	-30.7	-33.8	7.8	7.54e-02	0	41	102	1048576	21	5124
2026-01-24 06:07:59.16	11.17	7.47	-30.8	-34.1	7.5	8.58e-02	0	41	102	1048576	21	5258
2026-01-24 06:08:00.17	11.10	7.54	-31.1	-34.4	7.1	1.46e-01	0	41	102	1048576	22	5270
2026-01-24 06:08:01.17	11.02	7.61	-30.6	-33.4	8.0	7.37e-02	0	41	102	1048576	21	4976
2026-01-24 06:08:02.17	10.95	7.68	-30.0	-32.2	9.2	3.34e-02	0	41	102	1048576	20	4636
2026-01-24 06:08:03.17	10.87	7.75	-29.6	-31.0	10.0	9.11e-03	0	41	102	1048576	20	4256
2026-01-24 06:08:04.18	10.79	7.82	-28.9	-30.3	11.2	2.75e-03	0	41	102	1048576	18	4222
2026-01-24 06:08:05.18	10.72	7.89	-28.4	-29.6	11.9	8.69e-04	0	41	102	1048576	17	4123
2026-01-24 06:08:06.19	10.64	7.97	-27.9	-28.4	12.7	9.72e-05	0	42	102	1048576	17	3809
2026-01-24 06:08:07.19	10.56	8.04	-27.3	-28.1	13.3	4.23e-05	0	41	102	1048576	15	3944
2026-01-24 06:08:08.20	10.48	8.11	-27.1	-28.0	13.6	4.31e-04	0	42	102	1048576	14	4006
2026-01-24 06:08:09.21	10.40	8.18	-26.8	-27.5	14.0	3.40e-06	0	42	102	1048576	14	3872
2026-01-24 06:08:10.20	10.32	8.25	-26.7	-27.7	14.1	4.12e-04	0	42	102	1048576	13	4036
2026-01-24 06:08:11.21	10.24	8.32	-26.7	-27.8	14.0	4.19e-04	0	42	102	1048576	13	4064
2026-01-24 06:08:12.22	10.16	8.39	-26.6	-27.6	14.1	0.00e+00	0	42	102	1048576	13	4007
2026-01-24 06:08:13.22	10.08	8.47	-26.7	-27.7	14.0	3.78e-04	0	42	102	1048576	13	4046
2026-01-24 06:08:14.22	10.00	8.54	-26.8	-27.8	14.0	0.00e+00	0	41	102	1048576	13	4061
2026-01-24 06:08:15.23	9.92	8.61	-26.8	-28.0	14.0	2.20e-06	0	42	102	1048576	13	4105
2026-01-24 06:08:16.23	9.84	8.68	-26.8	-27.8	14.0	3.90e-04	0	42	102	1048576	13	4072
2026-01-24 06:08:17.23	9.76	8.75	-26.6	-27.5	14.2	1.10e-06	0	42	102	1048576	13	3990
2026-01-24 06:08:18.23	9.67	8.83	-26.6	-27.5	14.2	0.00e+00	0	42	102	1048576	13	3993
2026-01-24 06:08:19.23	9.59	8.90	-26.7	-27.6	14.2	0.00e+00	0	42	102	1048576	13	4012
2026-01-24 06:08:20.23	9.51	8.97	-26.6	-27.5	14.2	1.10e-06	0	42	102	1048576	13	3993
2026-01-24 06:08:21.23	9.42	9.04	-26.6	-27.5	14.2	0.00e+00	0	42	102	1048576	13	3987
2026-01-24 06:08:22.23	9.34	9.12	-26.6	-27.4	14.3	2.20e-06	0	42	102	1048576	13	3945
2026-01-24 06:08:23.24	9.25	9.19	-26.7	-27.8	14.1	2.38e-04	0	42	102	1048576	13	4051
2026-01-24 06:08:24.24	9.17	9.26	-26.8	-27.8	14.1	2.20e-06	0	42	102	1048576	13	4061
2026-01-24 06:08:25.25	9.08	9.34	-26.7	-27.7	14.2	1.10e-06	0	42	102	1048576	13	4025
2026-01-24 06:08:26.25	9.00	9.41	-26.8	-27.8	14.1	1.10e-06	0	42	102	1048576	13	4056
2026-01-24 06:08:27.26	8.91	9.49	-26.9	-28.1	13.9	3.40e-06	0	42	102	1048576	13	4148
2026-01-24 06:08:28.26	8.82	9.56	-27.0	-27.9	13.8	2.20e-06	0	42	102	1048576	14	3977
2026-01-24 06:08:29.25	8.74	9.63	-26.9	-27.5	14.0	5.70e-06	0	42	102	1048576	14	3883
2026-01-24 06:08:30.26	8.65	9.71	-26.8	-27.5	14.0	2.20e-06	0	42	102	1048576	14	3877
2026-01-24 06:08:31.26	8.56	9.78	-26.9	-28.1	14.0	1.10e-06	0	42	102	1048576	13	4124
2026-01-24 06:08:32.26	8.47	9.86	-26.8	-27.9	14.1	2.20e-06	0	42	102	1048576	13	4075
2026-01-24 06:08:33.27	8.38	9.93	-26.8	-28.0	14.1	1.10e-06	0	42	102	1048576	13	4097
2026-01-24 06:08:34.27	8.29	10.01	-26.7	-27.2	14.2	1.10e-06	0	42	102	1048576	14	3808
2026-01-24 06:08:35.27	8.20	10.08	-26.9	-28.1	14.0	5.70e-06	0	42	102	1048576	13	4129
2026-01-24 06:08:36.28	8.11	10.16	-26.6	-27.4	14.4	1.10e-06	0	42	102	1048576	13	3952
2026-01-24 06:08:37.28	8.02	10.23	-26.4	-27.6	14.6	0.00e+00	0	42	102	1048576	12	4097
2026-01-24 06:08:38.29	7.93	10.31	-26.4	-27.6	14.6	0.00e+00	0	42	102	1048576	12	4105
2026-01-24 06:08:39.29	7.83	10.39	-26.4	-27.5	14.6	0.00e+00	0	42	102	1048576	12	4090
2026-01-24 06:08:40.30	7.74	10.46	-26.4	-27.4	14.7	0.00e+00	0	42	102	1048576	12	4048
2026-01-24 06:08:41.30	7.65	10.54	-26.3	-27.3	14.8	0.00e+00	0	42	102	1048576	12	4026
2026-01-24 06:08:42.30	7.55	10.61	-26.3	-27.3	14.8	1.10e-06	0	42	102	1048576	12	4038
2026-01-24 06:08:43.30	7.46	10.69	-26.2	-27.1	14.9	0.00e+00	0	42	102	1048576	12	3982
2026-01-24 06:08:44.31	7.36	10.77	-26.3	-27.2	14.9	0.00e+00	0	42	102	1048576	12	3999
2026-01-24 06:08:45.32	7.27	10.85	-26.3	-27.3	14.8	0.00e+00	0	42	102	1048576	12	4028
2026-01-24 06:08:46.32	7.17	10.92	-26.3	-27.2	14.9	0.00e+00	0	42	102	1048576	12	3999
2026-01-24 06:08:47.32	7.08	11.00	-26.3	-27.4	14.8	0.00e+00	0	43	102	1048576	12	4044
2026-01-24 06:08:48.33	6.98	11.08	-26.5	-27.6	14.6	0.00e+00	0	42	102	1048576	12	4110
2026-01-24 06:08:49.32	6.88	11.15	-26.3	-27.3	14.9	0.00e+00	0	43	102	1048576	12	4016
2026-01-24 06:08:50.32	6.78	11.23	-26.3	-27.1	14.9	0.00e+00	0	43	102	1048576	12	3989
2026-01-24 06:08:51.32	6.69	11.31	-26.4	-27.4	14.8	0.00e+00	0	43	102	1048576	12	4052
2026-01-24 06:08:52.33	6.59	11.39	-26.3	-27.3	14.8	0.00e+00	0	43	102	1048576	12	4042
2026-01-24 06:08:53.34	6.49	11.47	-26.4	-27.4	14.7	0.00e+00	0	43	102	1048576	12	4059
2026-01-24 06:08:54.34	6.39	11.54	-26.3	-27.3	14.8	0.00e+00	0	43	102	1048576	12	4034
2026-01-24 06:08:55.34	6.28	11.62	-26.5	-27.3	14.6	0.00e+00	0	43	102	1048576	13	3915
2026-01-24 06:08:56.35	6.18	11.70	-26.5	-27.3	14.6	0.00e+00	0	43	102	1048576	13	3918
2026-01-24 06:08:57.36	6.08	11.78	-26.6	-27.4	14.5	0.00e+00	0	43	102	1048576	13	3941
2026-01-24 06:08:58.36	5.98	11.86	-26.5	-27.2	14.6	0.00e+00	0	43	102	1048576	13	3902
2026-01-24 06:08:59.37	5.87	11.94	-26.5	-27.3	14.6	0.00e+00	0	43	102	1048576	13	3916
2026-01-24 06:09:00.38	5.77	12.02	-26.6	-27.3	14.6	1.10e-06	0	43	102	1048576	13	3928
2026-01-24 06:09:01.38	5.67	12.10	-26.4	-27.0	14.8	0.00e+00	0	43	102	1048576	13	3858
2026-01-24 06:09:02.38	5.56	12.18	-26.4	-26.9	14.8	0.00e+00	0	43	102	1048576	13	3836
2026-01-24 06:09:03.38	5.46	12.26	-26.4	-26.9	14.8	1.10e-06	0	43	102	1048576	13	3814
2026-01-24 06:09:04.39	5.35	12.34	-26.3	-26.8	14.9	0.00e+00	0	43	102	1048576	13	3804
2026-01-24 06:09:05.39	5.24	12.42	-26.4	-26.9	14.8	0.00e+00	0	43	102	1048576	13	3819
2026-01-24 06:09:06.39	5.14	12.50	-26.4	-26.9	14.8	0.00e+00	0	43	102	1048576	13	3837
2026-01-24 06:09:07.40	5.03	12.58	-26.4	-26.9	14.8	0.00e+00	0	43	102	1048576	13	3821
2026-01-24 06:09:08.40	4.92	12.66	-26.2	-26.6	15.0	1.10e-06	0	43	102	1048576	13	3756
2026-01-24 06:09:09.40	4.81	12.74	-26.1	-26.4	15.1	1.10e-06	0	43	102	1048576	13	3693
2026-01-24 06:09:10.40	4.70	12.82	-26.1	-26.3	15.2	0.00e+00	0	43	102	1048576	13	3674
2026-01-24 06:09:11.41	4.59	12.90	-26.1	-26.2	15.2	0.00e+00	0	43	102	1048576	13	3662
2026-01-24 06:09:12.42	4.48	12.98	-26.1	-26.3	15.2	0.00e+00	0	43	102	1048576	13	3691
2026-01-24 06:09:13.42	4.37	13.06	-26.0	-26.2	15.2	1.37e-05	0	43	102	1048576	13	3659
2026-01-24 06:09:14.43	4.25	13.15	-26.0	-26.0	15.4	0.00e+00	0	43	102	1048576	13	3608
2026-01-24 06:09:15.44	4.14	13.23	-26.2	-26.6	15.0	0.00e+00	0	43	102	1048576	13	3751
2026-01-24 06:09:16.45	4.03	13.31	-26.0	-26.1	15.3	0.00e+00	0	43	102	1048576	13	3636
2026-01-24 06:09:17.45	3.91	13.39	-26.1	-26.2	15.3	0.00e+00	0	43	102	1048576	13	3665
2026-01-24 06:09:18.45	3.80	13.47	-26.1	-26.4	15.2	0.00e+00	0	43	102	1048576	13	3695
2026-01-24 06:09:19.46	3.68	13.56	-26.3	-26.7	15.0	0.00e+00	0	43	102	1048576	13	3782
2026-01-24 06:09:20.46	3.57	13.64	-26.1	-26.3	15.2	0.00e+00	0	43	102	1048576	13	3672
2026-01-24 06:09:21.46	3.45	13.72	-26.0	-26.2	15.3	0.00e+00	0	43	102	1048576	13	3656
2026-01-24 06:09:22.46	3.33	13.80	-26.1	-26.2	15.3	0.00e+00	0	43	102	1048576	13	3664
2026-01-24 06:09:23.47	3.21	13.89	-26.1	-26.4	15.2	0.00e+00	0	43	102	1048576	13	3694
2026-01-24 06:09:24.47	3.09	13.97	-26.1	-26.2	15.3	0.00e+00	0	43	102	1048576	13	3658
2026-01-24 06:09:25.48	2.97	14.05	-26.1	-26.2	15.3	0.00e+00	0	43	102	1048576	13	3663
2026-01-24 06:09:26.49	2.85	14.14	-26.1	-26.2	15.3	0.00e+00	0	43	102	1048576	13	3656
2026-01-24 06:09:27.49	2.73	14.22	-25.8	-26.1	15.6	0.00e+00	0	43	102	1048576	12	3739
2026-01-24 06:09:28.49	2.61	14.31	-25.7	-25.8	15.8	0.00e+00	0	43	102	1048576	12	3672
2026-01-24 06:09:29.49	2.49	14.39	-25.6	-25.7	15.9	0.00e+00	0	43	102	1048576	12	3642
2026-01-24 06:09:30.50	2.36	14.47	-25.5	-25.6	15.9	0.00e+00	0	43	102	1048576	12	3610
2026-01-24 06:09:31.51	2.24	14.56	-25.5	-25.5	16.0	0.00e+00	0	43	102	1048576	12	3604
2026-01-24 06:09:32.52	2.11	14.64	-25.7	-25.9	15.8	0.00e+00	0	43	102	1048576	12	3675
2026-01-24 06:09:33.52	1.99	14.73	-25.6	-25.7	15.9	1.10e-06	0	43	102	1048576	12	3639
2026-01-24 06:09:34.53	1.86	14.81	-25.6	-25.6	15.9	0.00e+00	0	43	102	1048576	12	3624
2026-01-24 06:09:35.53	1.74	14.90	-25.6	-25.6	15.9	0.00e+00	0	43	102	1048576	12	3615
2026-01-24 06:09:36.52	1.61	14.98	-25.6	-25.6	15.9	2.20e-06	0	43	102	1048576	12	3623
2026-01-24 06:09:37.53	1.48	15.07	-25.6	-25.7	15.9	3.40e-06	0	43	102	1048576	12	3643
2026-01-24 06:09:38.54	1.35	15.15	-25.5	-25.6	16.0	0.00e+00	0	43	102	1048576	12	3612
2026-01-24 06:09:39.54	1.22	15.24	-25.5	-25.5	16.0	0.00e+00	0	43	102	1048576	12	3596
2026-01-24 06:09:40.55	1.09	15.32	-25.5	-25.9	16.1	9.26e-05	0	43	102	1048576	11	3779
2026-01-24 06:09:41.55	0.96	15.41	-25.6	-26.2	16.0	0.00e+00	0	43	102	1048576	11	3858
2026-01-24 06:09:42.55	0.83	15.50	-25.6	-26.1	16.0	0.00e+00	0	43	102	1048576	11	3835
2026-01-24 06:09:43.56	0.69	15.58	-25.5	-25.9	16.2	1.58e-04	0	43	102	1048576	11	3781
2026-01-24 06:09:44.56	0.56	15.67	-25.4	-25.8	16.2	0.00e+00	0	43	102	1048576	11	3754
2026-01-24 06:09:45.57	0.43	15.76	-25.5	-25.9	16.2	2.30e-04	0	43	102	1048576	11	3780
2026-01-24 06:09:46.58	0.29	15.84	-25.4	-26.1	16.3	2.57e-04	0	43	102	1048576	10	3943
2026-01-24 06:09:47.58	0.15	15.93	-25.4	-25.8	16.3	0.00e+00	0	43	102	1048576	11	3748
2026-01-24 06:09:48.58	0.02	16.02	-25.3	-25.9	16.4	2.82e-04	0	43	102	1048576	10	3893
2026-01-24 06:09:49.59	359.88	16.10	-25.3	-26.0	16.4	0.00e+00	0	43	102	1048576	10	3892
2026-01-24 06:09:50.59	359.74	16.19	-25.3	-26.0	16.4	0.00e+00	0	43	102	1048576	10	3914
2026-01-24 06:09:51.60	359.60	16.28	-25.3	-26.1	16.4	0.00e+00	0	43	102	1048576	10	3920
2026-01-24 06:09:52.61	359.46	16.37	-25.4	-26.3	16.2	0.00e+00	0	43	102	1048576	10	3970
2026-01-24 06:09:53.61	359.32	16.45	-25.4	-26.2	16.3	0.00e+00	0	43	102	1048576	10	3962
2026-01-24 06:09:54.61	359.18	16.54	-25.4	-26.2	16.3	0.00e+00	0	43	102	1048576	10	3943
2026-01-24 06:09:55.62	359.03	16.63	-25.5	-26.4	16.2	0.00e+00	0	43	102	1048576	10	4008
2026-01-24 06:09:56.62	358.89	16.72	-25.6	-26.2	16.1	0.00e+00	0	43	102	1048576	11	3842
2026-01-24 06:09:57.63	358.75	16.80	-25.6	-26.3	16.0	0.00e+00	0	43	102	1048576	11	3862
2026-01-24 06:09:58.63	358.60	16.89	-25.5	-25.9	16.2	0.00e+00	0	43	102	1048576	11	3777
2026-01-24 06:09:59.63	358.45	16.98	-25.5	-26.0	16.2	0.00e+00	0	43	102	1048576	11	3798
2026-01-24 06:10:00.63	358.31	17.07	-25.5	-26.4	16.2	0.00e+00	0	43	102	1048576	10	3997
2026-01-24 06:10:01.63	358.16	17.16	-25.3	-26.1	16.4	0.00e+00	0	43	102	1048576	10	3921
2026-01-24 06:10:02.64	358.01	17.25	-25.3	-26.1	16.4	0.00e+00	0	43	102	1048576	10	3924
2026-01-24 06:10:03.65	357.86	17.34	-25.2	-25.7	16.6	0.00e+00	0	43	102	1048576	10	3843
2026-01-24 06:10:04.65	357.71	17.42	-25.1	-25.6	16.6	0.00e+00	0	43	102	1048576	10	3815
2026-01-24 06:10:05.66	357.56	17.51	-25.2	-25.7	16.6	0.00e+00	0	43	102	1048576	10	3842
2026-01-24 06:10:06.66	357.40	17.60	-25.1	-25.7	16.6	0.00e+00	0	43	102	1048576	10	3827
2026-01-24 06:10:07.67	357.25	17.69	-24.8	-25.5	16.9	0.00e+00	0	43	102	1048576	9	3902
2026-01-24 06:10:08.67	357.10	17.78	-24.9	-25.6	16.9	0.00e+00	0	43	102	1048576	9	3905
2026-01-24 06:10:09.67	356.94	17.87	-24.8	-25.5	16.9	0.00e+00	0	43	102	1048576	9	3897
2026-01-24 06:10:10.68	356.78	17.96	-24.9	-25.6	16.9	0.00e+00	0	43	102	1048576	9	3909
2026-01-24 06:10:11.68	356.63	18.05	-24.9	-25.6	16.9	0.00e+00	0	43	102	1048576	9	3923
2026-01-24 06:10:12.69	356.47	18.14	-24.8	-25.5	17.0	0.00e+00	0	43	102	1048576	9	3881
2026-01-24 06:10:13.69	356.31	18.23	-25.0	-26.0	16.7	0.00e+00	0	43	102	1048576	9	4007
2026-01-24 06:10:14.70	356.15	18.32	-25.0	-25.9	16.8	0.00e+00	0	43	102	1048576	9	3986
2026-01-24 06:10:15.70	355.99	18.41	-25.0	-25.8	16.8	0.00e+00	0	43	102	1048576	9	3963
2026-01-24 06:10:16.71	355.83	18.50	-25.0	-25.8	16.8	0.00e+00	0	43	102	1048576	9	3967
2026-01-24 06:10:17.72	355.66	18.59	-24.9	-25.6	16.9	0.00e+00	0	43	102	1048576	9	3927
2026-01-24 06:10:18.72	355.50	18.68	-25.1	-26.1	16.7	0.00e+00	0	43	102	1048576	9	4031
2026-01-24 06:10:19.73	355.33	18.77	-25.2	-25.8	16.5	0.00e+00	0	43	102	1048576	10	3870
2026-01-24 06:10:20.74	355.16	18.86	-25.3	-26.0	16.5	0.00e+00	0	43	102	1048576	10	3894
2026-01-24 06:10:21.74	355.00	18.95	-25.2	-25.7	16.6	0.00e+00	0	43	102	1048576	10	3842
2026-01-24 06:10:22.75	354.83	19.05	-25.0	-25.5	16.8	0.00e+00	0	43	102	1048576	10	3781
2026-01-24 06:10:23.75	354.66	19.14	-25.2	-25.8	16.6	0.00e+00	0	43	102	1048576	10	3845
2026-01-24 06:10:24.76	354.49	19.23	-25.0	-25.4	16.8	0.00e+00	0	43	102	1048576	10	3760
2026-01-24 06:10:25.77	354.32	19.32	-25.0	-25.8	16.9	0.00e+00	0	43	102	1048576	9	3959
2026-01-24 06:10:26.77	354.14	19.41	-24.9	-25.7	16.9	0.00e+00	0	43	102	1048576	9	3929
2026-01-24 06:10:27.77	353.97	19.50	-25.1	-25.6	16.7	0.00e+00	0	43	102	1048576	10	3817
2026-01-24 06:10:28.78	353.80	19.59	-25.5	-26.4	16.3	0.00e+00	0	43	102	1048576	10	3997
2026-01-24 06:10:29.79	353.62	19.68	-25.4	-25.7	16.4	0.00e+00	0	43	102	1048576	11	3723
2026-01-24 06:10:30.79	353.44	19.77	-25.1	-25.7	16.7	0.00e+00	0	43	102	1048576	10	3827
2026-01-24 06:10:31.80	353.27	19.87	-25.0	-25.5	16.8	0.00e+00	0	43	102	1048576	10	3776
2026-01-24 06:10:32.80	353.09	19.96	-25.0	-25.4	16.9	0.00e+00	0	43	102	1048576	10	3753
2026-01-24 06:10:33.80	352.91	20.05	-24.8	-25.6	17.0	0.00e+00	0	43	102	1048576	9	3907
2026-01-24 06:10:34.80	352.73	20.14	-25.0	-25.9	16.8	0.00e+00	0	43	102	1048576	9	3999
2026-01-24 06:10:35.81	352.54	20.23	-24.9	-25.8	16.9	0.00e+00	0	43	102	1048576	9	3961
2026-01-24 06:10:36.82	352.36	20.32	-24.2	-25.1	16.8	0.00e+00	0	43	102	1048576	9	3995
2026-01-24 06:10:37.81	352.18	20.41	-25.2	-25.8	16.6	0.00e+00	0	43	102	1048576	10	3867
2026-01-24 06:10:38.81	351.99	20.50	-25.0	-25.9	16.7	0.00e+00	0	43	102	1048576	9	3984
2026-01-24 06:10:39.82	351.81	20.60	-25.2	-25.7	16.7	0.00e+00	0	43	102	1048576	10	3840
2026-01-24 06:10:40.82	351.62	20.69	-25.4	-26.3	16.4	0.00e+00	0	43	102	1048576	10	3983
2026-01-24 06:10:41.83	351.43	20.78	-25.2	-25.8	16.6	0.00e+00	0	43	102	1048576	10	3870
2026-01-24 06:10:42.84	351.24	20.87	-25.2	-25.7	16.7	0.00e+00	0	43	102	1048576	10	3836
2026-01-24 06:10:43.84	351.05	20.96	-25.0	-25.4	16.9	0.00e+00	0	43	102	1048576	10	3760
2026-01-24 06:10:44.85	350.86	21.05	-25.0	-25.4	16.9	0.00e+00	0	43	102	1048576	10	3769
2026-01-24 06:10:45.85	350.66	21.15	-25.1	-25.6	16.8	2.06e-04	0	43	102	1048576	10	3798
2026-01-24 06:10:46.86	350.47	21.24	-25.1	-25.5	16.8	0.00e+00	0	43	102	1048576	10	3786
2026-01-24 06:10:47.85	350.27	21.33	-25.0	-25.4	16.9	1.85e-04	0	43	102	1048576	10	3767
2026-01-24 06:10:48.85	350.08	21.42	-25.1	-25.6	16.8	1.83e-04	0	43	102	1048576	10	3799
2026-01-24 06:10:49.85	349.88	21.51	-25.0	-25.4	16.9	0.00e+00	0	43	102	1048576	10	3768
2026-01-24 06:10:50.86	349.68	21.60	-25.3	-26.1	16.5	2.36e-04	0	43	102	1048576	10	3918
2026-01-24 06:10:51.86	349.48	21.69	-25.1	-25.5	16.8	1.89e-04	0	43	102	1048576	10	3772
2026-01-24 06:10:52.86	349.28	21.78	-24.7	-24.8	17.2	0.00e+00	0	43	102	1048576	10	3617
2026-01-24 06:10:53.87	349.08	21.87	-24.6	-25.0	17.4	1.12e-04	0	43	102	1048576	9	3767
2026-01-24 06:10:54.88	348.87	21.97	-24.5	-24.9	17.4	0.00e+00	0	43	102	1048576	9	3738
2026-01-24 06:10:55.88	348.67	22.06	-24.8	-25.5	17.1	0.00e+00	0	43	102	1048576	9	3892
2026-01-24 06:10:56.89	348.46	22.15	-24.9	-25.7	17.0	0.00e+00	0	43	102	1048576	9	3934
2026-01-24 06:10:57.89	348.25	22.24	-24.9	-25.7	16.9	0.00e+00	0	43	102	1048576	9	3949
2026-01-24 06:10:58.90	348.04	22.33	-25.0	-25.8	16.9	0.00e+00	0	43	102	1048576	9	3971
2026-01-24 06:10:59.90	347.83	22.42	-25.0	-25.9	16.8	0.00e+00	0	43	102	1048576	9	3999
2026-01-24 06:11:00.90	347.62	22.51	-24.9	-25.7	17.0	0.00e+00	0	43	102	1048576	9	3943
2026-01-24 06:11:01.90	347.41	22.60	-25.0	-25.8	16.9	0.00e+00	0	43	102	1048576	9	3962
2026-01-24 06:11:02.90	347.20	22.69	-24.8	-25.5	17.1	0.00e+00	0	43	102	1048576	9	3892
2026-01-24 06:11:03.90	346.98	22.78	-25.1	-25.6	16.8	0.00e+00	0	43	102	1048576	10	3820
2026-01-24 06:11:04.90	346.77	22.87	-24.8	-24.9	17.2	0.00e+00	0	43	102	1048576	10	3656
2026-01-24 06:11:05.91	346.55	22.96	-24.5	-24.2	17.5	0.00e+00	0	43	102	1048576	10	3507
2026-01-24 06:11:06.91	346.33	23.05	-24.4	-24.0	17.6	0.00e+00	0	43	102	1048576	10	3466
2026-01-24 06:11:07.91	346.11	23.14	-24.4	-24.6	17.6	0.00e+00	0	43	102	1048576	9	3686
2026-01-24 06:11:08.92	345.89	23.23	-24.4	-24.5	17.6	0.00e+00	0	43	102	1048576	9	3670
2026-01-24 06:11:09.92	345.66	23.32	-24.3	-24.4	17.7	0.00e+00	0	43	102	1048576	9	3631
2026-01-24 06:11:10.92	345.44	23.41	-24.3	-24.3	17.7	0.00e+00	0	43	102	1048576	9	3614
2026-01-24 06:11:11.93	345.21	23.50	-24.3	-24.3	17.7	0.00e+00	0	43	102	1048576	9	3625
2026-01-24 06:11:12.93	344.99	23.59	-24.3	-24.4	17.7	0.00e+00	0	44	102	1048576	9	3633
2026-01-24 06:11:13.94	344.76	23.68	-24.4	-24.6	17.6	0.00e+00	0	43	102	1048576	9	3687
2026-01-24 06:11:14.94	344.53	23.76	-24.3	-24.3	17.7	0.00e+00	0	44	102	1048576	9	3619
2026-01-24 06:11:15.95	344.30	23.85	-24.1	-24.1	17.8	0.00e+00	0	43	102	1048576	9	3568
2026-01-24 06:11:16.95	344.07	23.94	-24.1	-24.0	17.9	0.00e+00	0	43	102	1048576	9	3554
2026-01-24 06:11:17.95	343.83	24.03	-24.0	-23.8	18.0	0.00e+00	0	43	102	1048576	9	3507
2026-01-24 06:11:18.95	343.60	24.12	-24.0	-23.8	18.0	0.00e+00	0	43	102	1048576	9	3515
2026-01-24 06:11:19.95	343.36	24.20	-24.2	-24.1	17.8	0.00e+00	0	43	102	1048576	9	3573
2026-01-24 06:11:20.96	343.12	24.29	-24.0	-24.2	18.0	0.00e+00	0	43	102	1048576	8	3691
2026-01-24 06:11:21.96	342.89	24.38	-24.1	-24.4	17.9	0.00e+00	0	43	102	1048576	8	3735
2026-01-24 06:11:22.96	342.65	24.46	-24.3	-24.9	17.7	0.00e+00	0	43	102	1048576	8	3847
2026-01-24 06:11:23.97	342.40	24.55	-24.0	-24.2	18.0	0.00e+00	0	43	102	1048576	8	3695
2026-01-24 06:11:24.97	342.16	24.64	-23.9	-24.1	18.1	0.00e+00	0	43	102	1048576	8	3677
2026-01-24 06:11:25.97	341.92	24.72	-24.1	-24.5	17.9	0.00e+00	0	43	102	1048576	8	3768
2026-01-24 06:11:26.97	341.68	24.81	-24.0	-24.3	18.0	0.00e+00	0	43	102	1048576	8	3707
2026-01-24 06:11:27.98	341.43	24.89	-24.0	-24.3	18.0	0.00e+00	0	43	102	1048576	8	3720
2026-01-24 06:11:28.98	341.18	24.98	-24.0	-24.3	18.0	0.00e+00	0	43	102	1048576	8	3729
2026-01-24 06:11:29.99	340.93	25.06	-24.0	-24.2	18.0	0.00e+00	0	43	102	1048576	8	3700
2026-01-24 06:11:30.99	340.68	25.15	-24.3	-24.9	17.7	0.00e+00	0	43	102	1048576	8	3847
2026-01-24 06:11:32.00	340.42	25.23	-23.9	-24.0	18.2	0.00e+00	0	43	102	1048576	8	3648
2026-01-24 06:11:33.00	340.17	25.32	-23.7	-24.1	18.3	0.00e+00	0	44	102	1048576	7	3767
2026-01-24 06:11:34.00	339.92	25.40	-23.6	-23.8	18.5	0.00e+00	0	43	102	1048576	7	3714
2026-01-24 06:11:35.00	339.66	25.48	-23.7	-24.1	18.3	0.00e+00	0	43	102	1048576	7	3771
2026-01-24 06:11:36.01	339.40	25.56	-23.7	-24.1	18.3	0.00e+00	0	43	102	1048576	7	3785
2026-01-24 06:11:37.01	339.14	25.65	-23.8	-24.4	18.1	0.00e+00	0	43	102	1048576	7	3857
2026-01-24 06:11:38.01	338.89	25.73	-23.8	-24.3	18.2	0.00e+00	0	44	102	1048576	7	3821
2026-01-24 06:11:39.02	338.62	25.81	-23.9	-24.5	18.1	0.00e+00	0	43	102	1048576	7	3859
2026-01-24 06:11:40.02	338.36	25.89	-24.0	-24.8	18.0	0.00e+00	0	43	102	1048576	7	3942
2026-01-24 06:11:41.03	338.09	25.97	-23.9	-24.5	18.1	0.00e+00	0	44	102	1048576	7	3866
2026-01-24 06:11:42.03	337.83	26.05	-23.9	-24.5	18.2	0.00e+00	0	44	102	1048576	7	3860
2026-01-24 06:11:43.04	337.56	26.13	-24.0	-24.7	18.1	0.00e+00	0	43	102	1048576	7	3903
2026-01-24 06:11:44.04	337.29	26.21	-23.8	-24.3	18.2	0.00e+00	0	43	102	1048576	7	3826
2026-01-24 06:11:45.05	337.02	26.29	-23.8	-24.3	18.3	0.00e+00	0	44	102	1048576	7	3809
2026-01-24 06:11:46.05	336.75	26.37	-24.0	-24.7	18.0	0.00e+00	0	44	102	1048576	7	3912
2026-01-24 06:11:47.06	336.48	26.45	-23.9	-24.4	18.1	0.00e+00	0	43	102	1048576	7	3854
2026-01-24 06:11:48.06	336.20	26.52	-23.8	-24.3	18.2	0.00e+00	0	43	102	1048576	7	3823
2026-01-24 06:11:49.07	335.93	26.60	-23.9	-24.4	18.1	0.00e+00	0	43	102	1048576	7	3854
2026-01-24 06:11:50.07	335.65	26.68	-23.9	-24.6	18.1	0.00e+00	0	44	102	1048576	7	3888
2026-01-24 06:11:51.08	335.37	26.75	-24.0	-24.8	18.0	0.00e+00	0	43	102	1048576	7	3944
2026-01-24 06:11:52.08	335.09	26.83	-24.1	-24.5	17.9	0.00e+00	0	44	102	1048576	8	3772
2026-01-24 06:11:53.08	334.81	26.90	-24.1	-24.4	18.0	0.00e+00	0	44	102	1048576	8	3742
2026-01-24 06:11:54.08	334.53	26.98	-24.0	-24.3	18.0	0.00e+00	0	44	102	1048576	8	3715
2026-01-24 06:11:55.09	334.25	27.05	-24.0	-24.7	18.1	0.00e+00	0	43	102	1048576	7	3901
2026-01-24 06:11:56.08	333.96	27.12	-23.8	-24.3	18.3	0.00e+00	0	43	102	1048576	7	3816
2026-01-24 06:11:57.08	333.68	27.19	-23.8	-24.4	18.2	0.00e+00	0	43	102	1048576	7	3837
2026-01-24 06:11:58.09	333.39	27.27	-23.5	-23.7	18.6	0.00e+00	0	44	102	1048576	7	3691
2026-01-24 06:11:59.10	333.10	27.34	-23.5	-23.8	18.6	0.00e+00	0	43	102	1048576	7	3696
2026-01-24 06:12:00.10	332.81	27.41	-23.6	-24.0	18.4	0.00e+00	0	43	102	1048576	7	3740
2026-01-24 06:12:01.10	332.52	27.48	-23.6	-23.9	18.5	0.00e+00	0	44	102	1048576	7	3725
2026-01-24 06:12:02.11	332.23	27.55	-23.6	-23.9	18.5	0.00e+00	0	44	102	1048576	7	3730
2026-01-24 06:12:03.11	331.93	27.62	-22.9	-23.4	17.9	0.00e+00	0	44	102	1048576	7	3809
2026-01-24 06:12:04.11	331.64	27.68	-23.9	-24.6	18.1	0.00e+00	0	44	102	1048576	7	3900
2026-01-24 06:12:05.11	331.34	27.75	-24.0	-24.7	18.0	0.00e+00	0	43	102	1048576	7	3925
2026-01-24 06:12:06.11	331.05	27.82	-24.2	-24.7	17.9	0.00e+00	0	44	102	1048576	8	3803
2026-01-24 06:12:07.11	330.75	27.88	-24.1	-24.5	18.0	0.00e+00	0	43	102	1048576	8	3759
2026-01-24 06:12:08.11	330.45	27.95	-24.2	-24.6	17.9	0.00e+00	0	44	102	1048576	8	3791
2026-01-24 06:12:09.12	330.15	28.01	-24.1	-24.5	18.0	0.00e+00	0	44	102	1048576	8	3757
2026-01-24 06:12:10.12	329.85	28.08	-24.0	-24.2	18.1	0.00e+00	0	43	102	1048576	8	3696
2026-01-24 06:12:11.13	329.54	28.14	-24.1	-24.4	18.0	0.00e+00	0	43	102	1048576	8	3739
2026-01-24 06:12:12.13	329.24	28.20	-24.3	-24.8	17.8	0.00e+00	0	43	102	1048576	8	3830
2026-01-24 06:12:13.14	328.93	28.26	-23.9	-24.1	18.1	0.00e+00	0	43	102	1048576	8	3662
2026-01-24 06:12:14.15	328.62	28.32	-23.7	-23.7	18.4	1.09e-04	0	43	102	1048576	8	3580
2026-01-24 06:12:15.16	328.31	28.38	-23.6	-23.5	18.5	0.00e+00	0	43	102	1048576	8	3541
2026-01-24 06:12:16.16	328.00	28.44	-23.7	-23.6	18.4	0.00e+00	0	43	102	1048576	8	3563
2026-01-24 06:12:17.17	327.69	28.50	-23.8	-24.4	18.2	9.84e-05	0	44	102	1048576	7	3835
2026-01-24 06:12:18.18	327.37	28.56	-23.5	-23.7	18.5	0.00e+00	0	44	102	1048576	7	3688
2026-01-24 06:12:19.18	327.06	28.62	-23.7	-24.0	18.4	0.00e+00	0	44	102	1048576	7	3758
2026-01-24 06:12:20.18	326.75	28.67	-23.8	-24.2	18.3	8.38e-04	0	44	102	1048576	7	3802
2026-01-24 06:12:21.18	326.43	28.73	-23.6	-24.3	18.5	8.56e-04	0	44	102	1048576	6	3931
2026-01-24 06:12:22.19	326.12	28.78	-23.4	-24.1	18.7	0.00e+00	0	44	102	1048576	6	3874
2026-01-24 06:12:23.18	325.80	28.83	-23.5	-24.3	18.6	0.00e+00	0	43	102	1048576	6	3916
2026-01-24 06:12:24.19	325.48	28.89	-23.4	-24.0	18.7	3.81e-04	0	44	102	1048576	6	3862
2026-01-24 06:12:25.19	325.16	28.94	-23.3	-23.9	18.7	0.00e+00	0	43	102	1048576	6	3827
2026-01-24 06:12:26.18	324.85	28.99	-23.4	-23.9	18.7	3.15e-04	0	44	102	1048576	6	3841
2026-01-24 06:12:27.18	324.53	29.04	-23.5	-24.3	18.6	3.71e-04	0	44	102	1048576	6	3926
2026-01-24 06:12:28.19	324.20	29.08	-23.5	-24.3	18.5	0.00e+00	0	43	102	1048576	6	3931
2026-01-24 06:12:29.19	323.88	29.13	-23.7	-24.2	18.4	3.36e-04	0	44	102	1048576	7	3792
2026-01-24 06:12:30.20	323.55	29.18	-23.9	-24.5	18.2	2.97e-04	0	44	102	1048576	7	3855
2026-01-24 06:12:31.20	323.23	29.22	-23.6	-23.9	18.5	0.00e+00	0	43	102	1048576	7	3733
2026-01-24 06:12:32.20	322.90	29.27	-23.6	-23.9	18.5	1.22e-04	0	44	102	1048576	7	3727
2026-01-24 06:12:33.20	322.58	29.31	-23.5	-23.8	18.6	0.00e+00	0	43	102	1048576	7	3697
2026-01-24 06:12:34.20	322.25	29.36	-23.3	-23.2	18.8	0.00e+00	0	44	102	1048576	7	3581
2026-01-24 06:12:35.21	321.92	29.40	-23.2	-23.6	18.9	1.51e-04	0	43	102	1048576	6	3761
2026-01-24 06:12:36.21	321.59	29.44	-23.2	-23.6	18.9	0.00e+00	0	43	102	1048576	6	3765
2026-01-24 06:12:37.21	321.26	29.48	-23.2	-23.5	18.9	0.00e+00	0	44	102	1048576	6	3754
2026-01-24 06:12:38.22	320.93	29.52	-23.3	-23.7	18.9	0.00e+00	0	43	102	1048576	6	3782
2026-01-24 06:12:39.22	320.60	29.55	-23.4	-24.1	18.7	0.00e+00	0	44	102	1048576	6	3868
2026-01-24 06:12:40.23	320.26	29.59	-23.2	-23.7	18.9	0.00e+00	0	43	102	1048576	6	3781
2026-01-24 06:12:41.23	319.93	29.63	-23.1	-23.4	19.0	0.00e+00	0	44	102	1048576	6	3729
2026-01-24 06:12:42.24	319.59	29.66	-23.2	-23.5	18.9	0.00e+00	0	44	102	1048576	6	3742
2026-01-24 06:12:43.23	319.26	29.70	-23.2	-23.7	18.9	0.00e+00	0	44	102	1048576	6	3782
2026-01-24 06:12:44.24	318.92	29.73	-23.3	-23.7	18.8	0.00e+00	0	44	102	1048576	6	3791
2026-01-24 06:12:45.24	318.59	29.76	-23.1	-23.4	19.0	0.00e+00	0	43	102	1048576	6	3716
2026-01-24 06:12:46.25	318.25	29.79	-23.1	-23.3	19.0	0.00e+00	0	43	102	1048576	6	3691
2026-01-24 06:12:47.25	317.91	29.82	-23.1	-23.4	19.0	0.00e+00	0	43	102	1048576	6	3725
2026-01-24 06:12:48.25	317.57	29.85	-23.2	-23.7	18.9	0.00e+00	0	44	102	1048576	6	3786
2026-01-24 06:12:49.26	317.23	29.87	-23.2	-23.6	18.9	0.00e+00	0	44	102	1048576	6	3760
2026-01-24 06:12:50.27	316.89	29.90	-23.3	-23.9	18.8	0.00e+00	0	43	102	1048576	6	3827
2026-01-24 06:12:51.28	316.55	29.93	-23.2	-23.6	18.9	0.00e+00	0	43	102	1048576	6	3772
2026-01-24 06:12:52.28	316.21	29.95	-23.4	-23.9	18.7	0.00e+00	0	44	102	1048576	6	3840
2026-01-24 06:12:53.29	315.86	29.97	-23.5	-23.7	18.6	0.00e+00	0	44	102	1048576	7	3691
2026-01-24 06:12:54.29	315.52	29.99	-23.3	-23.3	18.8	0.00e+00	0	44	102	1048576	7	3602
2026-01-24 06:12:55.30	315.18	30.01	-23.2	-23.1	18.9	0.00e+00	0	44	102	1048576	7	3558
2026-01-24 06:12:56.31	314.83	30.03	-23.3	-23.8	18.8	0.00e+00	0	44	102	1048576	6	3803
2026-01-24 06:12:57.31	314.49	30.05	-23.2	-23.6	18.9	0.00e+00	0	43	102	1048576	6	3767
2026-01-24 06:12:58.31	314.15	30.07	-23.2	-23.5	18.9	0.00e+00	0	43	102	1048576	6	3751
2026-01-24 06:12:59.31	313.81	30.08	-23.2	-23.5	19.0	0.00e+00	0	44	102	1048576	6	3743
2026-01-24 06:13:00.31	313.46	30.10	-23.2	-23.6	18.9	0.00e+00	0	44	102	1048576	6	3764
2026-01-24 06:13:01.31	313.12	30.11	-23.0	-23.3	19.1	0.00e+00	0	44	102	1048576	6	3687
2026-01-24 06:13:02.31	312.78	30.13	-23.0	-23.7	19.1	0.00e+00	0	44	102	1048576	5	3896
2026-01-24 06:13:03.32	312.43	30.14	-23.3	-23.8	18.8	0.00e+00	0	44	102	1048576	6	3801
2026-01-24 06:13:04.32	312.08	30.15	-23.5	-24.1	18.7	0.00e+00	0	44	102	1048576	6	3875
2026-01-24 06:13:05.33	311.74	30.16	-23.5	-24.2	18.7	0.00e+00	0	43	102	1048576	6	3893
2026-01-24 06:13:06.33	311.39	30.16	-23.5	-24.1	18.7	0.00e+00	0	44	102	1048576	6	3874
2026-01-24 06:13:07.34	311.04	30.17	-23.4	-24.1	18.7	0.00e+00	0	43	102	1048576	6	3876
2026-01-24 06:13:08.35	310.69	30.18	-23.4	-24.1	18.7	0.00e+00	0	43	102	1048576	6	3870
2026-01-24 06:13:09.35	310.35	30.18	-23.4	-24.1	18.7	0.00e+00	0	43	102	1048576	6	3880
2026-01-24 06:13:10.36	310.00	30.18	-23.6	-23.8	18.5	0.00e+00	0	43	102	1048576	7	3712
2026-01-24 06:13:11.36	309.66	30.18	-23.6	-24.0	18.4	0.00e+00	0	43	102	1048576	7	3756
2026-01-24 06:13:12.37	309.31	30.19	-23.5	-23.6	18.6	0.00e+00	0	44	102	1048576	7	3658
2026-01-24 06:13:13.36	308.97	30.18	-23.4	-23.4	18.8	0.00e+00	0	43	102	1048576	7	3616
2026-01-24 06:13:14.36	308.62	30.18	-23.4	-24.0	18.7	0.00e+00	0	44	102	1048576	6	3851
2026-01-24 06:13:15.37	308.27	30.18	-23.4	-23.9	18.7	0.00e+00	0	44	102	1048576	6	3835
2026-01-24 06:13:16.37	307.93	30.18	-23.4	-24.0	18.7	0.00e+00	0	44	102	1048576	6	3864
2026-01-24 06:13:17.38	307.58	30.17	-23.4	-23.9	18.8	0.00e+00	0	44	102	1048576	6	3838
2026-01-24 06:13:18.38	307.23	30.16	-23.2	-23.7	18.9	0.00e+00	0	44	102	1048576	6	3787
2026-01-24 06:13:19.38	306.89	30.16	-23.2	-23.5	18.9	0.00e+00	0	44	102	1048576	6	3749
2026-01-24 06:13:20.39	306.54	30.15	-23.2	-23.6	18.9	0.00e+00	0	44	102	1048576	6	3775
2026-01-24 06:13:21.39	306.20	30.14	-23.2	-23.5	19.0	0.00e+00	0	43	102	1048576	6	3757
2026-01-24 06:13:22.40	305.85	30.13	-23.2	-23.7	18.8	0.00e+00	0	44	102	1048576	6	3784
2026-01-24 06:13:23.40	305.50	30.12	-23.4	-23.9	18.7	0.00e+00	0	44	102	1048576	6	3840
2026-01-24 06:13:24.41	305.16	30.10	-23.4	-24.0	18.7	0.00e+00	0	44	102	1048576	6	3857
2026-01-24 06:13:25.41	304.81	30.09	-23.4	-24.0	18.7	0.00e+00	0	43	102	1048576	6	3864
2026-01-24 06:13:26.41	304.47	30.07	-23.5	-24.1	18.6	0.00e+00	0	44	102	1048576	6	3887
2026-01-24 06:13:27.41	304.13	30.05	-23.4	-24.1	18.6	0.00e+00	0	44	102	1048576	6	3872
2026-01-24 06:13:28.41	303.79	30.04	-23.5	-24.3	18.5	0.00e+00	0	44	102	1048576	6	3916
2026-01-24 06:13:29.42	303.44	30.02	-23.4	-24.1	18.7	0.00e+00	0	44	102	1048576	6	3870
2026-01-24 06:13:30.42	303.10	30.00	-23.4	-24.0	18.6	0.00e+00	0	44	102	1048576	6	3861
2026-01-24 06:13:31.42	302.76	29.98	-23.4	-23.5	18.7	0.00e+00	0	44	102	1048576	7	3642
2026-01-24 06:13:32.42	302.42	29.95	-23.2	-23.1	18.9	0.00e+00	0	44	102	1048576	7	3555
2026-01-24 06:13:33.43	302.07	29.93	-23.1	-22.9	19.0	0.00e+00	0	44	102	1048576	7	3516
2026-01-24 06:13:34.43	301.73	29.91	-23.2	-23.1	18.9	0.00e+00	0	44	102	1048576	7	3545
2026-01-24 06:13:35.44	301.39	29.88	-23.3	-23.3	18.8	0.00e+00	0	44	102	1048576	7	3600
2026-01-24 06:13:36.44	301.05	29.85	-23.4	-23.4	18.7	0.00e+00	0	44	102	1048576	7	3627
2026-01-24 06:13:37.45	300.71	29.82	-23.3	-23.3	18.7	0.00e+00	0	44	102	1048576	7	3601
2026-01-24 06:13:38.45	300.37	29.80	-23.0	-22.7	19.0	0.00e+00	0	44	102	1048576	7	3478
2026-01-24 06:13:39.46	300.03	29.76	-23.0	-22.6	19.1	0.00e+00	0	43	102	1048576	7	3461
2026-01-24 06:13:40.47	299.70	29.73	-23.0	-22.6	19.1	0.00e+00	0	44	102	1048576	7	3447
2026-01-24 06:13:41.47	299.36	29.70	-23.0	-23.3	19.0	0.00e+00	0	43	102	1048576	6	3689
2026-01-24 06:13:42.48	299.02	29.67	-23.1	-23.3	19.0	0.00e+00	0	44	102	1048576	6	3707
2026-01-24 06:13:43.49	298.68	29.63	-23.2	-23.5	18.9	0.00e+00	0	43	102	1048576	6	3746
2026-01-24 06:13:44.49	298.35	29.60	-23.2	-23.5	18.9	2.85e-04	0	44	102	1048576	6	3748
2026-01-24 06:13:45.50	298.01	29.56	-23.2	-23.6	18.9	0.00e+00	0	44	102	1048576	6	3754
2026-01-24 06:13:46.50	297.68	29.52	-23.1	-23.4	18.9	0.00e+00	0	44	102	1048576	6	3724
2026-01-24 06:13:47.50	297.35	29.48	-23.0	-23.2	19.1	0.00e+00	0	44	102	1048576	6	3669
2026-01-24 06:13:48.51	297.02	29.44	-23.0	-23.2	19.0	0.00e+00	0	43	102	1048576	6	3690
2026-01-24 06:13:49.50	296.69	29.40	-23.1	-23.3	19.0	2.36e-04	0	44	102	1048576	6	3689
2026-01-24 06:13:50.51	296.36	29.36	-23.2	-23.6	18.8	3.25e-04	0	43	102	1048576	6	3768
2026-01-24 06:13:51.51	296.03	29.32	-23.3	-23.7	18.8	0.00e+00	0	44	102	1048576	6	3799
2026-01-24 06:13:52.51	295.71	29.28	-23.3	-23.8	18.7	4.24e-04	0	44	102	1048576	6	3800
2026-01-24 06:13:53.51	295.38	29.23	-23.3	-23.9	18.7	3.99e-04	0	44	102	1048576	6	3835
2026-01-24 06:13:54.51	295.05	29.19	-23.3	-23.8	18.7	0.00e+00	0	43	102	1048576	6	3816
2026-01-24 06:13:55.52	294.73	29.14	-23.1	-23.5	18.9	3.23e-04	0	44	102	1048576	6	3734
2026-01-24 06:13:56.52	294.40	29.09	-23.1	-23.4	18.9	3.09e-04	0	43	102	1048576	6	3724
2026-01-24 06:13:57.53	294.08	29.04	-23.1	-23.4	18.9	0.00e+00	0	44	102	1048576	6	3714
2026-01-24 06:13:58.53	293.76	28.99	-23.1	-23.4	18.9	0.00e+00	0	43	102	1048576	6	3731
2026-01-24 06:13:59.54	293.43	28.94	-23.0	-23.3	19.0	1.06e-04	0	44	102	1048576	6	3695
2026-01-24 06:14:00.54	293.11	28.89	-23.2	-23.6	18.8	0.00e+00	0	43	102	1048576	6	3760
2026-01-24 06:14:01.54	292.80	28.84	-23.3	-23.7	18.7	0.00e+00	0	43	102	1048576	6	3800
2026-01-24 06:14:02.54	292.48	28.79	-23.4	-24.0	18.6	2.18e-04	0	44	102	1048576	6	3868
2026-01-24 06:14:03.55	292.16	28.73	-23.5	-24.2	18.5	0.00e+00	0	44	102	1048576	6	3896
2026-01-24 06:14:04.55	291.85	28.68	-23.5	-24.1	18.5	6.29e-05	0	43	102	1048576	6	3892
2026-01-24 06:14:05.55	291.53	28.62	-23.6	-24.3	18.4	0.00e+00	0	44	102	1048576	6	3937
2026-01-24 06:14:06.56	291.22	28.56	-23.4	-23.6	18.6	0.00e+00	0	43	102	1048576	7	3655
2026-01-24 06:14:07.56	290.90	28.51	-23.3	-23.2	18.8	0.00e+00	0	43	102	1048576	7	3574
2026-01-24 06:14:08.57	290.59	28.45	-23.2	-23.0	18.8	0.00e+00	0	44	102	1048576	7	3541
2026-01-24 06:14:09.56	290.28	28.39	-23.3	-23.3	18.7	0.00e+00	0	44	102	1048576	7	3588
2026-01-24 06:14:10.57	289.97	28.33	-23.2	-23.1	18.8	0.00e+00	0	44	102	1048576	7	3554
2026-01-24 06:14:11.57	289.67	28.27	-23.3	-23.2	18.7	0.00e+00	0	44	102	1048576	7	3586
2026-01-24 06:14:12.58	289.36	28.21	-23.3	-23.3	18.7	0.00e+00	0	44	102	1048576	7	3600
2026-01-24 06:14:13.58	289.05	28.15	-23.1	-22.9	18.8	0.00e+00	0	44	102	1048576	7	3522
2026-01-24 06:14:14.58	288.75	28.08	-23.1	-23.0	18.9	0.00e+00	0	44	102	1048576	7	3526
2026-01-24 06:14:15.59	288.44	28.02	-23.2	-23.0	18.8	0.00e+00	0	43	102	1048576	7	3538
2026-01-24 06:14:16.59	288.14	27.95	-23.3	-23.3	18.7	0.00e+00	0	44	102	1048576	7	3603
2026-01-24 06:14:17.60	287.84	27.89	-23.5	-23.6	18.5	0.00e+00	0	43	102	1048576	7	3670
2026-01-24 06:14:18.60	287.54	27.82	-23.4	-23.5	18.5	0.00e+00	0	44	102	1048576	7	3640
2026-01-24 06:14:19.61	287.24	27.76	-23.6	-23.8	18.4	0.00e+00	0	44	102	1048576	7	3714
2026-01-24 06:14:20.62	286.94	27.69	-23.5	-23.7	18.4	0.00e+00	0	44	102	1048576	7	3693
2026-01-24 06:14:21.61	286.65	27.62	-23.4	-23.4	18.6	0.00e+00	0	43	102	1048576	7	3630
2026-01-24 06:14:22.62	286.35	27.55	-23.3	-23.2	18.7	0.00e+00	0	44	102	1048576	7	3584
2026-01-24 06:14:23.62	286.06	27.48	-23.4	-23.9	18.5	0.00e+00	0	44	102	1048576	6	3843
2026-01-24 06:14:24.63	285.76	27.41	-23.3	-23.7	18.7	0.00e+00	0	43	102	1048576	6	3793
2026-01-24 06:14:25.63	285.47	27.34	-23.4	-23.9	18.6	0.00e+00	0	44	102	1048576	6	3845
2026-01-24 06:14:26.63	285.19	27.27	-23.4	-24.0	18.5	0.00e+00	0	44	102	1048576	6	3859
2026-01-24 06:14:27.63	284.90	27.20	-23.5	-24.3	18.4	0.00e+00	0	44	102	1048576	6	3924
2026-01-24 06:14:28.64	284.61	27.13	-23.5	-23.8	18.4	0.00e+00	0	43	102	1048576	7	3702
2026-01-24 06:14:29.64	284.32	27.05	-23.5	-23.6	18.5	0.00e+00	0	44	102	1048576	7	3671
2026-01-24 06:14:30.64	284.04	26.98	-23.5	-23.6	18.5	0.00e+00	0	44	102	1048576	7	3675
2026-01-24 06:14:31.65	283.76	26.91	-23.4	-24.1	18.5	0.00e+00	0	44	102	1048576	6	3894
2026-01-24 06:14:32.65	283.48	26.83	-23.4	-24.0	18.5	0.00e+00	0	44	102	1048576	6	3856
2026-01-24 06:14:33.65	283.20	26.76	-23.3	-23.9	18.6	0.00e+00	0	44	102	1048576	6	3832
2026-01-24 06:14:34.64	282.92	26.68	-23.2	-23.6	18.7	0.00e+00	0	43	102	1048576	6	3772
2026-01-24 06:14:35.65	282.64	26.60	-23.2	-23.7	18.7	0.00e+00	0	44	102	1048576	6	3790
2026-01-24 06:14:36.65	282.37	26.53	-23.2	-23.5	18.8	0.00e+00	0	44	102	1048576	6	3751
2026-01-24 06:14:37.65	282.09	26.45	-23.2	-23.5	18.8	0.00e+00	0	43	102	1048576	6	3744
2026-01-24 06:14:38.65	281.82	26.37	-23.3	-23.7	18.6	0.00e+00	0	44	102	1048576	6	3792
2026-01-24 06:14:39.66	281.54	26.29	-23.3	-23.8	18.5	0.00e+00	0	44	102	1048576	6	3824
2026-01-24 06:14:40.66	281.27	26.21	-23.4	-24.1	18.5	0.00e+00	0	44	102	1048576	6	3875
2026-01-24 06:14:41.66	281.01	26.14	-23.5	-24.3	18.4	0.00e+00	0	43	102	1048576	6	3925
2026-01-24 06:14:42.66	280.74	26.06	-23.5	-24.3	18.3	0.00e+00	0	44	102	1048576	6	3921
2026-01-24 06:14:43.67	280.47	25.98	-23.5	-24.3	18.3	0.00e+00	0	43	102	1048576	6	3936
2026-01-24 06:14:44.67	280.20	25.89	-23.5	-23.8	18.4	0.00e+00	0	43	102	1048576	7	3709
2026-01-24 06:14:45.67	279.94	25.81	-23.6	-23.8	18.3	0.00e+00	0	43	102	1048576	7	3715
2026-01-24 06:14:46.68	279.68	25.73	-23.5	-23.7	18.4	0.00e+00	0	43	102	1048576	7	3680
2026-01-24 06:14:47.69	279.41	25.65	-23.4	-23.5	18.5	0.00e+00	0	43	102	1048576	7	3630
2026-01-24 06:14:48.70	279.15	25.57	-23.5	-23.7	18.4	0.00e+00	0	44	102	1048576	7	3685
2026-01-24 06:14:49.70	278.89	25.48	-23.4	-23.5	18.4	0.00e+00	0	44	102	1048576	7	3651
2026-01-24 06:14:50.70	278.64	25.40	-23.4	-23.6	18.4	0.00e+00	0	44	102	1048576	7	3669
2026-01-24 06:14:51.71	278.38	25.32	-23.5	-23.6	18.4	0.00e+00	0	44	102	1048576	7	3672
2026-01-24 06:14:52.71	278.13	25.23	-23.4	-23.6	18.4	0.00e+00	0	44	102	1048576	7	3666
2026-01-24 06:14:53.71	277.87	25.15	-23.6	-23.8	18.3	0.00e+00	0	44	102	1048576	7	3720
2026-01-24 06:14:54.71	277.62	25.06	-23.4	-23.5	18.5	0.00e+00	0	43	102	1048576	7	3641
2026-01-24 06:14:55.71	277.37	24.98	-23.3	-23.3	18.5	0.00e+00	0	43	102	1048576	7	3599
2026-01-24 06:14:56.72	277.12	24.89	-23.4	-23.5	18.5	0.00e+00	0	43	102	1048576	7	3641
2026-01-24 06:14:57.72	276.87	24.81	-23.4	-23.5	18.4	0.00e+00	0	43	102	1048576	7	3653
2026-01-24 06:14:58.73	276.63	24.72	-23.5	-23.7	18.4	0.00e+00	0	43	102	1048576	7	3684
2026-01-24 06:14:59.73	276.38	24.64	-23.5	-23.7	18.3	0.00e+00	0	43	102	1048576	7	3682
2026-01-24 06:15:00.73	276.14	24.55	-23.6	-23.9	18.2	0.00e+00	0	43	102	1048576	7	3741
2026-01-24 06:15:01.73	275.90	24.46	-23.5	-23.8	18.2	0.00e+00	0	44	102	1048576	7	3716
2026-01-24 06:15:02.74	275.65	24.38	-23.5	-24.3	18.3	0.00e+00	0	44	102	1048576	6	3921
2026-01-24 06:15:03.74	275.42	24.29	-23.6	-23.9	18.2	0.00e+00	0	44	102	1048576	7	3743
2026-01-24 06:15:04.75	275.18	24.20	-23.7	-24.1	18.1	0.00e+00	0	44	102	1048576	7	3780
2026-01-24 06:15:05.75	274.94	24.11	-23.6	-23.9	18.2	0.00e+00	0	43	102	1048576	7	3723
2026-01-24 06:15:06.75	274.70	24.03	-23.7	-24.1	18.1	0.00e+00	0	44	102	1048576	7	3769
2026-01-24 06:15:07.76	274.47	23.94	-23.6	-23.9	18.2	2.27e-04	0	43	102	1048576	7	3735
2026-01-24 06:15:08.76	274.24	23.85	-23.7	-24.1	18.1	0.00e+00	0	44	102	1048576	7	3784
2026-01-24 06:15:09.77	274.00	23.76	-23.7	-24.1	18.1	0.00e+00	0	43	102	1048576	7	3783
2026-01-24 06:15:10.77	273.77	23.67	-23.9	-24.5	17.9	2.93e-04	0	44	102	1048576	7	3872
2026-01-24 06:15:11.77	273.54	23.58	-23.8	-24.3	18.0	0.00e+00	0	44	102	1048576	7	3832
2026-01-24 06:15:12.77	273.32	23.49	-23.6	-24.0	18.1	3.27e-04	0	44	102	1048576	7	3756
2026-01-24 06:15:13.78	273.09	23.40	-23.5	-24.3	18.2	1.60e-05	0	44	102	1048576	6	3935
2026-01-24 06:15:14.78	272.86	23.31	-23.6	-23.9	18.2	0.00e+00	0	44	102	1048576	7	3745
2026-01-24 06:15:15.78	272.64	23.22	-23.8	-24.4	17.9	5.06e-04	0	44	102	1048576	7	3857
2026-01-24 06:15:16.79	272.42	23.13	-23.7	-24.2	18.0	0.00e+00	0	44	102	1048576	7	3812
2026-01-24 06:15:17.79	272.20	23.04	-23.8	-24.3	18.0	0.00e+00	0	44	102	1048576	7	3813
2026-01-24 06:15:18.80	271.97	22.95	-23.6	-24.0	18.1	1.85e-04	0	44	102	1048576	7	3761
2026-01-24 06:15:19.80	271.76	22.86	-23.6	-23.9	18.2	0.00e+00	0	44	102	1048576	7	3722
2026-01-24 06:15:20.80	271.54	22.77	-23.6	-23.9	18.2	0.00e+00	0	43	102	1048576	7	3724
2026-01-24 06:15:21.80	271.32	22.68	-23.8	-24.3	18.0	0.00e+00	0	44	102	1048576	7	3825
2026-01-24 06:15:22.80	271.11	22.59	-23.6	-23.9	18.2	0.00e+00	0	44	102	1048576	7	3729
2026-01-24 06:15:23.81	270.89	22.50	-23.5	-23.7	18.3	0.00e+00	0	43	102	1048576	7	3688
2026-01-24 06:15:24.82	270.68	22.41	-23.5	-23.7	18.3	2.39e-04	0	43	102	1048576	7	3696
2026-01-24 06:15:25.82	270.47	22.32	-23.6	-24.0	18.1	3.40e-04	0	43	102	1048576	7	3745
2026-01-24 06:15:26.83	270.26	22.23	-23.7	-24.2	18.0	0.00e+00	0	43	102	1048576	7	3797
2026-01-24 06:15:27.84	270.05	22.14	-23.8	-24.4	17.9	4.04e-04	0	44	102	1048576	7	3852
2026-01-24 06:15:28.84	269.84	22.04	-23.9	-24.6	17.8	0.00e+00	0	44	102	1048576	7	3902
2026-01-24 06:15:29.85	269.63	21.95	-24.2	-24.6	17.6	0.00e+00	0	43	102	1048576	8	3799
2026-01-24 06:15:30.85	269.43	21.86	-24.5	-25.4	17.2	8.43e-04	0	44	102	1048576	8	3982
2026-01-24 06:15:31.85	269.23	21.77	-24.2	-24.8	17.5	0.00e+00	0	43	102	1048576	8	3833
2026-01-24 06:15:32.85	269.02	21.68	-23.9	-24.1	17.8	0.00e+00	0	43	102	1048576	8	3688
2026-01-24 06:15:33.84	268.82	21.59	-23.8	-24.4	17.9	0.00e+00	0	43	102	1048576	7	3841
2026-01-24 06:15:34.85	268.62	21.50	-23.8	-24.4	17.8	0.00e+00	0	44	102	1048576	7	3860
2026-01-24 06:15:35.85	268.42	21.41	-23.9	-24.6	17.8	0.00e+00	0	43	102	1048576	7	3900
2026-01-24 06:15:36.86	268.23	21.31	-23.9	-24.7	17.7	0.00e+00	0	44	102	1048576	7	3911
2026-01-24 06:15:37.87	268.03	21.22	-24.0	-24.7	17.7	0.00e+00	0	43	102	1048576	7	3922
2026-01-24 06:15:38.87	267.83	21.13	-23.9	-24.5	17.8	0.00e+00	0	44	102	1048576	7	3880
2026-01-24 06:15:39.88	267.64	21.04	-23.8	-24.4	17.9	0.00e+00	0	43	102	1048576	7	3840
2026-01-24 06:15:40.89	267.44	20.94	-23.9	-24.6	17.8	0.00e+00	0	43	102	1048576	7	3884
2026-01-24 06:15:41.89	267.25	20.85	-23.7	-24.2	18.0	0.00e+00	0	43	102	1048576	7	3803
2026-01-24 06:15:42.89	267.06	20.76	-23.9	-24.5	17.8	0.00e+00	0	43	102	1048576	7	3881
2026-01-24 06:15:43.89	266.87	20.67	-23.7	-24.1	18.0	0.00e+00	0	43	102	1048576	7	3788
2026-01-24 06:15:44.89	266.68	20.58	-23.6	-23.9	18.1	0.00e+00	0	43	102	1048576	7	3731
2026-01-24 06:15:45.89	266.50	20.49	-23.6	-23.9	18.1	0.00e+00	0	43	102	1048576	7	3742
2026-01-24 06:15:46.89	266.31	20.40	-23.6	-24.0	18.1	0.00e+00	0	43	102	1048576	7	3751
2026-01-24 06:15:47.90	266.12	20.30	-23.7	-24.2	17.9	0.00e+00	0	44	102	1048576	7	3814
2026-01-24 06:15:48.91	265.94	20.21	-23.7	-24.2	17.9	0.00e+00	0	43	102	1048576	7	3801
2026-01-24 06:15:49.91	265.76	20.12	-23.9	-24.6	17.7	0.00e+00	0	44	102	1048576	7	3896
2026-01-24 06:15:50.91	265.58	20.03	-23.9	-24.5	17.7	0.00e+00	0	43	102	1048576	7	3885
2026-01-24 06:15:51.91	265.40	19.94	-24.1	-25.0	17.5	0.00e+00	0	44	102	1048576	7	3980
2026-01-24 06:15:52.92	265.21	19.84	-24.1	-24.4	17.5	0.00e+00	0	44	102	1048576	8	3758
2026-01-24 06:15:53.93	265.03	19.75	-24.1	-24.4	17.6	0.00e+00	0	43	102	1048576	8	3759
2026-01-24 06:15:54.93	264.86	19.66	-24.2	-24.7	17.4	0.00e+00	0	44	102	1048576	8	3815
2026-01-24 06:15:55.94	264.68	19.57	-24.2	-24.7	17.4	0.00e+00	0	43	102	1048576	8	3819
2026-01-24 06:15:56.95	264.50	19.48	-24.2	-24.8	17.4	0.00e+00	0	44	102	1048576	8	3841
2026-01-24 06:15:57.95	264.33	19.39	-24.5	-25.4	17.1	0.00e+00	0	44	102	1048576	8	3984
2026-01-24 06:15:58.95	264.16	19.29	-24.4	-25.1	17.2	0.00e+00	0	43	102	1048576	8	3904
2026-01-24 06:15:59.96	263.98	19.20	-24.3	-25.0	17.3	0.00e+00	0	44	102	1048576	8	3876
2026-01-24 06:16:00.96	263.81	19.11	-24.3	-25.0	17.2	0.00e+00	0	43	102	1048576	8	3898
2026-01-24 06:16:01.96	263.64	19.02	-24.4	-25.1	17.2	0.00e+00	0	44	102	1048576	8	3907
2026-01-24 06:16:02.96	263.47	18.93	-24.4	-25.1	17.2	0.00e+00	0	44	102	1048576	8	3923
2026-01-24 06:16:03.97	263.31	18.84	-24.4	-25.2	17.1	0.00e+00	0	44	102	1048576	8	3940
2026-01-24 06:16:04.97	263.14	18.75	-24.5	-25.3	17.1	0.00e+00	0	44	102	1048576	8	3961
2026-01-24 06:16:05.97	262.97	18.66	-24.4	-25.2	17.1	0.00e+00	0	44	102	1048576	8	3935
2026-01-24 06:16:06.98	262.81	18.57	-24.5	-25.3	17.1	0.00e+00	0	43	102	1048576	8	3965
2026-01-24 06:16:07.99	262.64	18.48	-24.6	-25.0	16.9	0.00e+00	0	44	102	1048576	9	3787
2026-01-24 06:16:08.99	262.48	18.39	-24.5	-24.8	17.1	0.00e+00	0	43	102	1048576	9	3733
2026-01-24 06:16:10.00	262.32	18.29	-24.5	-24.9	17.0	0.00e+00	0	43	102	1048576	9	3763
2026-01-24 06:16:11.00	262.16	18.20	-24.4	-24.8	17.1	0.00e+00	0	44	102	1048576	9	3730
2026-01-24 06:16:12.00	262.00	18.11	-24.4	-24.7	17.1	0.00e+00	0	44	102	1048576	9	3715
2026-01-24 06:16:13.00	261.84	18.02	-24.4	-24.7	17.1	0.00e+00	0	43	102	1048576	9	3710
2026-01-24 06:16:14.00	261.68	17.93	-24.5	-24.8	17.1	0.00e+00	0	44	102	1048576	9	3728
2026-01-24 06:16:15.00	261.52	17.84	-24.3	-24.5	17.2	0.00e+00	0	44	102	1048576	9	3669
2026-01-24 06:16:15.99	261.37	17.76	-24.4	-24.5	17.2	0.00e+00	0	43	102	1048576	9	3679
2026-01-24 06:16:17.00	261.21	17.67	-24.4	-25.0	17.2	0.00e+00	0	44	102	1048576	8	3898
2026-01-24 06:16:18.00	261.06	17.58	-24.4	-25.1	17.2	0.00e+00	0	44	102	1048576	8	3904
2026-01-24 06:16:19.00	260.90	17.49	-24.5	-25.3	17.0	0.00e+00	0	44	102	1048576	8	3962
2026-01-24 06:16:20.00	260.75	17.40	-24.5	-25.4	17.0	0.00e+00	0	43	102	1048576	8	3982
2026-01-24 06:16:21.00	260.60	17.31	-24.6	-25.2	16.8	0.00e+00	0	44	102	1048576	9	3819
2026-01-24 06:16:22.00	260.45	17.22	-24.8	-25.5	16.7	0.00e+00	0	44	102	1048576	9	3891
2026-01-24 06:16:23.01	260.30	17.13	-24.8	-25.5	16.6	0.00e+00	0	44	102	1048576	9	3899
2026-01-24 06:16:24.00	260.15	17.04	-24.9	-25.6	16.6	0.00e+00	0	44	102	1048576	9	3938
2026-01-24 06:16:25.00	260.00	16.95	-24.8	-25.6	16.6	0.00e+00	0	44	102	1048576	9	3931
2026-01-24 06:16:26.00	259.86	16.87	-24.9	-25.7	16.5	0.00e+00	0	44	102	1048576	9	3954
2026-01-24 06:16:27.00	259.71	16.78	-25.1	-25.7	16.2	0.00e+00	0	44	102	1048576	10	3853
2026-01-24 06:16:28.01	259.57	16.69	-25.0	-25.5	16.4	0.00e+00	0	44	102	1048576	10	3800
2026-01-24 06:16:29.01	259.42	16.60	-25.0	-25.5	16.4	0.00e+00	0	44	102	1048576	10	3806
2026-01-24 06:16:30.02	259.28	16.51	-25.0	-25.5	16.3	0.00e+00	0	44	102	1048576	10	3811
2026-01-24 06:16:31.01	259.14	16.43	-25.2	-25.9	16.2	0.00e+00	0	44	102	1048576	10	3891
2026-01-24 06:16:32.02	258.99	16.34	-25.2	-25.8	16.2	0.00e+00	0	43	102	1048576	10	3880
2026-01-24 06:16:33.03	258.85	16.25	-25.4	-26.3	15.9	0.00e+00	0	43	102	1048576	10	3999
2026-01-24 06:16:34.04	258.71	16.16	-25.3	-26.0	16.1	2.20e-06	0	44	102	1048576	10	3931
2026-01-24 06:16:35.04	258.57	16.07	-25.5	-26.6	15.8	0.00e+00	0	44	102	1048576	10	4058
2026-01-24 06:16:36.05	258.43	15.98	-25.3	-26.2	16.0	1.39e-03	0	44	102	1048576	10	3962
2026-01-24 06:16:37.05	258.29	15.90	-25.2	-25.8	16.2	4.50e-06	0	43	102	1048576	10	3879
2026-01-24 06:16:38.05	258.16	15.81	-25.1	-25.7	16.2	0.00e+00	0	43	102	1048576	10	3842
2026-01-24 06:16:39.06	258.02	15.72	-25.2	-25.8	16.1	0.00e+00	0	43	102	1048576	10	3881
2026-01-24 06:16:40.06	257.88	15.64	-25.1	-26.1	16.3	1.10e-06	0	44	102	1048576	9	4047
2026-01-24 06:16:41.06	257.75	15.55	-25.1	-25.6	16.3	0.00e+00	0	44	102	1048576	10	3813
2026-01-24 06:16:42.07	257.61	15.46	-25.1	-25.7	16.2	0.00e+00	0	44	102	1048576	10	3838
2026-01-24 06:16:43.07	257.48	15.38	-25.2	-25.9	16.1	5.70e-06	0	44	102	1048576	10	3884
2026-01-24 06:16:44.07	257.35	15.29	-25.2	-25.8	16.1	0.00e+00	0	43	102	1048576	10	3878
2026-01-24 06:16:45.08	257.22	15.21	-25.3	-26.1	16.0	0.00e+00	0	44	102	1048576	10	3948
2026-01-24 06:16:46.09	257.08	15.12	-25.3	-26.1	16.0	1.47e-03	0	44	102	1048576	10	3949
2026-01-24 06:16:47.10	256.95	15.03	-25.4	-26.3	15.9	0.00e+00	0	43	102	1048576	10	4004
2026-01-24 06:16:48.10	256.82	14.95	-25.5	-26.5	15.8	1.62e-03	0	43	102	1048576	10	4037
2026-01-24 06:16:49.10	256.70	14.86	-25.6	-26.7	15.6	1.60e-03	0	44	102	1048576	10	4085
2026-01-24 06:16:50.11	256.57	14.78	-25.6	-26.2	15.6	0.00e+00	0	44	102	1048576	11	3871
2026-01-24 06:16:51.12	256.44	14.69	-25.7	-26.6	15.5	1.63e-03	0	44	102	1048576	11	3950
2026-01-24 06:16:52.12	256.31	14.61	-25.6	-26.3	15.6	1.57e-03	0	44	102	1048576	11	3890
2026-01-24 06:16:53.12	256.19	14.52	-25.6	-26.3	15.6	0.00e+00	0	44	102	1048576	11	3883
2026-01-24 06:16:54.12	256.06	14.44	-25.8	-26.7	15.4	1.48e-03	0	44	102	1048576	11	3977
2026-01-24 06:16:55.12	255.94	14.35	-25.6	-26.3	15.6	0.00e+00	0	44	102	1048576	11	3896
2026-01-24 06:16:56.12	255.82	14.27	-25.6	-26.3	15.5	0.00e+00	0	44	102	1048576	11	3896
2026-01-24 06:16:57.13	255.69	14.18	-25.8	-26.6	15.4	1.06e-03	0	44	102	1048576	11	3956
2026-01-24 06:16:58.13	255.57	14.10	-25.6	-26.3	15.5	1.02e-03	0	44	102	1048576	11	3893
2026-01-24 06:16:59.14	255.45	14.02	-25.6	-26.2	15.6	0.00e+00	0	44	102	1048576	11	3876
2026-01-24 06:17:00.15	255.33	13.93	-25.6	-26.3	15.6	0.00e+00	0	44	102	1048576	11	3880
2026-01-24 06:17:01.16	255.21	13.85	-25.8	-26.6	15.4	9.28e-04	0	44	102	1048576	11	3963
2026-01-24 06:17:02.16	255.09	13.76	-25.9	-26.8	15.3	0.00e+00	0	44	102	1048576	11	4001
2026-01-24 06:17:03.16	254.97	13.68	-25.6	-26.3	15.6	0.00e+00	0	44	102	1048576	11	3879
2026-01-24 06:17:04.16	254.85	13.60	-25.5	-26.0	15.7	3.71e-04	0	43	102	1048576	11	3821
2026-01-24 06:17:05.17	254.74	13.52	-25.5	-26.0	15.7	0.00e+00	0	44	102	1048576	11	3820
2026-01-24 06:17:06.16	254.62	13.43	-25.6	-26.2	15.6	0.00e+00	0	44	102	1048576	11	3862
2026-01-24 06:17:07.17	254.50	13.35	-25.6	-26.2	15.6	0.00e+00	0	44	102	1048576	11	3854
2026-01-24 06:17:08.17	254.39	13.27	-25.6	-26.2	15.6	0.00e+00	0	44	102	1048576	11	3859
2026-01-24 06:17:09.17	254.27	13.19	-25.6	-26.7	15.6	8.79e-04	0	44	102	1048576	10	4081
2026-01-24 06:17:10.18	254.16	13.10	-25.6	-26.2	15.5	0.00e+00	0	44	102	1048576	11	3875
2026-01-24 06:17:11.18	254.05	13.02	-25.6	-26.2	15.5	0.00e+00	0	43	102	1048576	11	3872
2026-01-24 06:17:12.18	253.93	12.94	-25.7	-26.5	15.4	0.00e+00	0	44	102	1048576	11	3940
2026-01-24 06:17:13.18	253.82	12.86	-25.9	-26.9	15.1	0.00e+00	0	43	102	1048576	11	4044
2026-01-24 06:17:14.19	253.71	12.78	-25.7	-26.5	15.3	0.00e+00	0	44	102	1048576	11	3954
2026-01-24 06:17:15.19	253.60	12.70	-25.7	-26.5	15.3	0.00e+00	0	44	102	1048576	11	3949
2026-01-24 06:17:16.20	253.49	12.62	-25.9	-26.9	15.1	0.00e+00	0	44	102	1048576	11	4030
2026-01-24 06:17:17.21	253.38	12.53	-25.8	-26.6	15.3	0.00e+00	0	44	102	1048576	11	3973
2026-01-24 06:17:18.21	253.27	12.45	-25.8	-26.7	15.2	0.00e+00	0	44	102	1048576	11	4004
2026-01-24 06:17:19.21	253.16	12.37	-25.9	-27.0	15.1	0.00e+00	0	44	102	1048576	11	4057
2026-01-24 06:17:20.22	253.05	12.29	-25.8	-26.6	15.3	0.00e+00	0	44	102	1048576	11	3973
2026-01-24 06:17:21.22	252.95	12.21	-26.0	-27.0	15.0	3.40e-06	0	44	102	1048576	11	4078
2026-01-24 06:17:22.23	252.84	12.13	-25.8	-26.6	15.3	0.00e+00	0	44	102	1048576	11	3974
2026-01-24 06:17:23.23	252.74	12.05	-25.7	-26.5	15.3	0.00e+00	0	44	102	1048576	11	3936
2026-01-24 06:17:24.24	252.63	11.97	-25.6	-26.3	15.4	0.00e+00	0	44	102	1048576	11	3898
2026-01-24 06:17:25.24	252.52	11.89	-25.7	-26.4	15.4	0.00e+00	0	44	102	1048576	11	3927
2026-01-24 06:17:26.24	252.42	11.81	-25.8	-26.6	15.2	0.00e+00	0	43	102	1048576	11	3977
2026-01-24 06:17:27.24	252.32	11.73	-25.8	-26.8	15.1	0.00e+00	0	44	102	1048576	11	4012
2026-01-24 06:17:28.24	252.21	11.66	-25.9	-27.0	15.0	0.00e+00	0	44	102	1048576	11	4068
2026-01-24 06:17:29.24	252.11	11.58	-26.0	-26.7	14.9	0.00e+00	0	44	102	1048576	12	3885
2026-01-24 06:17:30.25	252.01	11.50	-26.0	-26.7	14.8	0.00e+00	0	44	102	1048576	12	3894
2026-01-24 06:17:31.25	251.91	11.42	-26.1	-27.0	14.7	0.00e+00	0	43	102	1048576	12	3962
2026-01-24 06:17:32.25	251.81	11.34	-26.2	-27.0	14.6	0.00e+00	0	44	102	1048576	12	3980
2026-01-24 06:17:33.26	251.71	11.26	-26.2	-27.2	14.5	2.20e-06	0	44	102	1048576	12	4021
2026-01-24 06:17:34.27	251.61	11.18	-26.3	-27.3	14.5	0.00e+00	0	44	102	1048576	12	4042
2026-01-24 06:17:35.27	251.51	11.11	-26.3	-27.3	14.5	3.40e-06	0	44	102	1048576	12	4048
2026-01-24 06:17:36.27	251.41	11.03	-26.3	-27.3	14.4	0.00e+00	0	44	102	1048576	12	4054
2026-01-24 06:17:37.28	251.31	10.95	-26.3	-27.3	14.4	0.00e+00	0	44	102	1048576	12	4055
2026-01-24 06:17:38.29	251.21	10.87	-26.5	-27.7	14.2	2.20e-06	0	44	102	1048576	12	4158
2026-01-24 06:17:39.29	251.12	10.80	-26.3	-27.4	14.4	1.10e-06	0	44	102	1048576	12	4078
2026-01-24 06:17:40.29	251.02	10.72	-26.2	-27.1	14.5	1.10e-06	0	44	102	1048576	12	3993
2026-01-24 06:17:41.29	250.92	10.64	-26.2	-27.1	14.5	0.00e+00	0	44	102	1048576	12	3998
2026-01-24 06:17:42.29	250.83	10.56	-26.3	-27.3	14.4	0.00e+00	0	44	102	1048576	12	4047
2026-01-24 06:17:43.30	250.73	10.49	-26.3	-27.2	14.5	1.10e-06	0	44	102	1048576	12	4019
2026-01-24 06:17:44.30	250.64	10.41	-26.3	-27.2	14.5	0.00e+00	0	44	102	1048576	12	4028
2026-01-24 06:17:45.30	250.55	10.34	-26.2	-27.0	14.6	0.00e+00	0	44	102	1048576	12	3976
2026-01-24 06:17:46.31	250.45	10.26	-26.3	-27.3	14.4	0.00e+00	0	44	102	1048576	12	4052
2026-01-24 06:17:47.30	250.36	10.18	-26.3	-27.2	14.4	1.10e-06	0	44	102	1048576	12	4031
2026-01-24 06:17:48.30	250.27	10.11	-26.5	-27.7	14.1	1.10e-06	0	44	102	1048576	12	4159
2026-01-24 06:17:49.31	250.18	10.03	-26.6	-27.9	14.0	1.10e-06	0	44	102	1048576	12	4212
2026-01-24 06:17:50.32	250.08	9.96	-26.8	-27.8	13.8	0.00e+00	0	43	102	1048576	13	4082
2026-01-24 06:17:51.33	249.99	9.88	-26.8	-28.0	13.7	4.50e-06	0	44	102	1048576	13	4115
2026-01-24 06:17:52.34	249.90	9.80	-26.8	-27.9	13.7	6.80e-06	0	44	102	1048576	13	4105
2026-01-24 06:17:53.34	249.81	9.73	-26.8	-27.9	13.7	4.50e-06	0	44	102	1048576	13	4098
2026-01-24 06:17:54.34	249.72	9.65	-26.8	-27.9	13.7	4.50e-06	0	44	102	1048576	13	4106
2026-01-24 06:17:55.35	249.63	9.58	-26.8	-28.1	13.6	1.14e-05	0	44	102	1048576	13	4147
2026-01-24 06:17:56.36	249.54	9.50	-26.8	-28.1	13.6	9.10e-06	0	44	102	1048576	13	4140
2026-01-24 06:17:57.36	249.46	9.43	-26.6	-27.7	13.7	5.70e-06	0	43	102	1048576	13	4075
2026-01-24 06:17:58.36	249.37	9.36	-26.7	-27.7	13.8	3.40e-06	0	44	102	1048576	13	4054
2026-01-24 06:17:59.36	249.28	9.28	-26.8	-27.9	13.3	6.80e-06	0	44	102	1048576	13	4105
2026-01-24 06:18:00.36	249.19	9.21	-26.7	-27.8	13.7	1.02e-05	0	44	102	1048576	13	4087
2026-01-24 06:18:01.36	249.11	9.14	-26.7	-27.8	13.7	2.20e-06	0	44	102	1048576	13	4070
2026-01-24 06:18:02.37	249.02	9.06	-26.6	-27.6	13.8	5.70e-06	0	44	102	1048576	13	4031
2026-01-24 06:18:03.37	248.94	8.99	-26.7	-27.8	13.7	2.20e-06	0	44	102	1048576	13	4081
2026-01-24 06:18:04.38	248.85	8.91	-26.6	-27.7	13.8	2.20e-06	0	44	102	1048576	13	4042
2026-01-24 06:18:05.38	248.77	8.84	-26.7	-27.7	13.8	2.20e-06	0	44	102	1048576	13	4050
2026-01-24 06:18:06.39	248.68	8.77	-26.6	-27.5	13.8	6.99e-04	0	44	102	1048576	13	4006
2026-01-24 06:18:07.40	248.60	8.69	-26.6	-27.5	13.9	2.20e-06	0	44	102	1048576	13	3993
2026-01-24 06:18:08.40	248.52	8.62	-26.7	-27.7	13.7	7.41e-04	0	44	102	1048576	13	4062
2026-01-24 06:18:09.40	248.43	8.55	-26.6	-27.6	13.8	6.98e-04	0	44	102	1048576	13	4019
2026-01-24 06:18:10.41	248.35	8.48	-26.6	-27.6	13.8	4.50e-06	0	44	102	1048576	13	4027
2026-01-24 06:18:11.41	248.27	8.40	-26.6	-27.6	13.7	6.86e-04	0	43	102	1048576	13	4034
2026-01-24 06:18:12.41	248.19	8.33	-26.6	-27.5	13.8	7.14e-04	0	44	102	1048576	13	3992
2026-01-24 06:18:13.41	248.11	8.26	-26.7	-27.7	13.7	3.40e-06	0	44	102	1048576	13	4058
2026-01-24 06:18:14.42	248.02	8.19	-26.6	-27.6	13.8	6.56e-04	0	44	102	1048576	13	4023
2026-01-24 06:18:15.43	247.94	8.12	-26.8	-28.0	13.5	5.70e-06	0	44	102	1048576	13	4124
2026-01-24 06:18:16.44	247.86	8.04	-26.8	-27.9	13.5	4.50e-06	0	44	102	1048576	13	4107
2026-01-24 06:18:17.44	247.78	7.97	-26.7	-27.9	13.6	8.16e-04	0	44	102	1048576	13	4100
2026-01-24 06:18:18.45	247.70	7.90	-26.8	-28.0	13.5	8.34e-04	0	44	102	1048576	13	4144
2026-01-24 06:18:19.46	247.63	7.83	-26.8	-27.9	13.5	1.37e-05	0	44	102	1048576	13	4120
2026-01-24 06:18:20.46	247.55	7.76	-26.8	-28.1	13.4	1.71e-05	0	44	102	1048576	13	4160
2026-01-24 06:18:21.46	247.47	7.69	-26.8	-28.1	13.4	7.54e-04	0	44	102	1048576	13	4164
2026-01-24 06:18:22.46	247.39	7.62	-27.0	-28.5	13.1	1.71e-05	0	43	102	1048576	13	4270
2026-01-24 06:18:23.47	247.31	7.55	-26.9	-28.4	13.2	6.44e-04	0	44	102	1048576	13	4247
2026-01-24 06:18:24.48	247.24	7.48	-27.0	-28.4	13.2	6.83e-04	0	44	102	1048576	13	4258
2026-01-24 06:18:25.49	247.16	7.41	-27.0	-28.0	13.1	3.31e-05	0	44	102	1048576	14	4050
2026-01-24 06:18:26.49	247.08	7.34	-27.2	-28.4	12.9	7.05e-04	0	44	102	1048576	14	4151
2026-01-24 06:18:27.50	247.01	7.27	-27.2	-28.4	12.9	4.34e-05	0	44	102	1048576	14	4153
2026-01-24 06:18:28.51	246.93	7.20	-27.3	-28.6	12.7	6.06e-05	0	44	102	1048576	14	4203
2026-01-24 06:18:29.51	246.86	7.13	-27.1	-28.4	12.9	3.54e-05	0	44	102	1048576	14	4138
2026-01-24 06:18:30.51	246.78	7.06	-32.9	-42.3	3.8	1.46e-01	0	44	104	1048576	25	10623
2026-01-24 06:18:31.51	246.71	6.99	-33.3	-43.1	3.8	8.45e-01	0	44	104	1048576	26	11100
2026-01-24 06:18:32.51	246.64	6.92	-33.7	-43.4	3.8	8.46e-01	0	44	104	1048576	27	10901
2026-01-24 06:18:33.52	246.56	6.85	-34.0	-43.9	3.8	8.45e-01	0	44	104	1048576	27	11251

#Closed at: 2026-01-24 06:18:33
#Recorded file [1 MB]: D:/data/31010_260124_090755.dat