passes_logs/2026/01/24/R2M6_AANII_01/R2M6_AANII_01__20260124_092942_NOAA_21_JPSS-2_rec.log

#Pass ID: 20260124_092942_NOAA 21 (JPSS-2)
#Satellite: NOAA 21 (JPSS-2)
#Configuration: NOAA 21
#almurnet v.1.7.20240730
#Start time: 2026-01-24 09:29:42

#Version: 2.2.20231116
#Station: R2M6_AANII_01
#Location: 30.233357 lon 59.946436 lat
#TLE: 1 54234U 22150A   26023.61190495  .00000215  00000+0  12293-3 0  9993
#TLE: 2 54234  98.7508 324.4078 0000700 226.6110 133.5008 14.19538339166032

#Time	Az	El	Level	Level2	SNR	BER	BlckErr	Temp	State	Recorded	gain1	gain2
2026-01-24 09:29:42.64	134.70	7.02	-30.7	-34.9	4.7	1.39e+00	0	41	0	0	22	5861
2026-01-24 09:29:43.64	134.66	7.09	-31.0	-36.0	4.6	1.41e+00	0	41	104	0	22	6386
2026-01-24 09:29:44.64	134.62	7.17	-30.6	-34.0	9.3	2.31e-02	0	41	0	0	22	5301
2026-01-24 09:29:45.64	134.58	7.24	-30.6	-34.1	9.2	1.83e-02	0	41	102	1048576	22	5332
2026-01-24 09:29:46.65	134.54	7.32	-30.6	-34.0	9.3	1.99e-02	0	41	102	1048576	22	5302
2026-01-24 09:29:47.66	134.50	7.40	-30.5	-33.5	9.6	1.32e-02	0	41	102	1048576	22	5132
2026-01-24 09:29:48.66	134.46	7.47	-30.2	-33.4	10.0	8.95e-03	0	41	102	1048576	21	5208
2026-01-24 09:29:49.66	134.42	7.55	-30.3	-33.6	9.9	7.91e-03	0	41	102	1048576	21	5263
2026-01-24 09:29:50.66	134.38	7.63	-30.3	-33.9	9.7	1.00e-02	0	41	102	1048576	21	5400
2026-01-24 09:29:51.67	134.34	7.70	-30.3	-33.8	9.7	1.25e-02	0	41	102	1048576	21	5366
2026-01-24 09:29:52.67	134.29	7.78	-30.0	-32.8	10.4	4.57e-03	0	41	102	1048576	21	4970
2026-01-24 09:29:53.68	134.25	7.86	-29.6	-32.3	11.1	2.81e-03	0	41	102	1048576	20	4887
2026-01-24 09:29:54.69	134.21	7.94	-29.4	-31.6	11.6	7.19e-04	0	41	102	1048576	20	4637
2026-01-24 09:29:55.69	134.17	8.02	-29.2	-31.6	12.0	4.06e-04	0	42	102	1048576	19	4728
2026-01-24 09:29:56.70	134.12	8.09	-29.2	-31.5	12.1	2.68e-04	0	41	102	1048576	19	4714
2026-01-24 09:29:57.71	134.08	8.17	-29.3	-31.8	11.9	3.43e-04	0	41	102	1048576	19	4778
2026-01-24 09:29:58.72	134.04	8.25	-29.2	-31.7	12.0	3.28e-04	0	41	102	1048576	19	4748
2026-01-24 09:29:59.72	133.99	8.33	-29.1	-31.3	12.3	1.99e-04	0	42	102	1048576	19	4636
2026-01-24 09:30:00.72	133.95	8.41	-29.0	-31.0	12.5	1.65e-04	0	42	102	1048576	19	4530
2026-01-24 09:30:01.72	133.90	8.49	-29.3	-31.7	12.1	2.47e-04	0	41	102	1048576	19	4729
2026-01-24 09:30:02.73	133.86	8.57	-29.2	-31.4	12.3	2.29e-04	0	42	102	1048576	19	4637
2026-01-24 09:30:03.74	133.82	8.65	-29.2	-31.4	12.3	1.24e-04	0	42	102	1048576	19	4625
2026-01-24 09:30:04.74	133.77	8.73	-29.1	-31.2	12.5	1.78e-04	0	42	102	1048576	19	4571
2026-01-24 09:30:05.74	133.73	8.81	-29.3	-31.7	12.1	1.68e-04	0	42	102	1048576	19	4750
2026-01-24 09:30:06.74	133.68	8.89	-29.2	-31.4	12.3	2.51e-04	0	42	102	1048576	19	4637
2026-01-24 09:30:07.75	133.63	8.97	-28.9	-30.6	12.8	8.39e-05	0	42	102	1048576	19	4392
2026-01-24 09:30:08.76	133.59	9.05	-28.8	-30.8	13.1	5.41e-05	0	42	102	1048576	18	4543
2026-01-24 09:30:09.76	133.54	9.13	-28.9	-31.2	12.8	6.33e-05	0	42	102	1048576	18	4676
2026-01-24 09:30:10.77	133.50	9.22	-28.9	-31.0	12.9	7.09e-05	0	42	102	1048576	18	4616
2026-01-24 09:30:11.77	133.45	9.30	-28.7	-30.8	13.1	2.36e-05	0	42	102	1048576	18	4535
2026-01-24 09:30:12.78	133.40	9.38	-28.9	-31.1	12.9	3.81e-05	0	42	102	1048576	18	4655
2026-01-24 09:30:13.78	133.35	9.46	-28.9	-31.1	12.9	5.03e-05	0	42	102	1048576	18	4629
2026-01-24 09:30:14.79	133.31	9.55	-28.7	-30.5	13.3	2.82e-05	0	42	102	1048576	18	4460
2026-01-24 09:30:15.79	133.26	9.63	-28.7	-30.6	13.3	2.05e-05	0	42	102	1048576	18	4467
2026-01-24 09:30:16.80	133.21	9.71	-28.7	-30.7	13.3	1.98e-05	0	42	102	1048576	18	4504
2026-01-24 09:30:17.81	133.16	9.80	-28.8	-30.8	13.2	1.83e-05	0	42	102	1048576	18	4536
2026-01-24 09:30:18.81	133.11	9.88	-28.6	-30.4	13.4	2.44e-05	0	42	102	1048576	18	4417
2026-01-24 09:30:19.82	133.06	9.96	-28.6	-30.3	13.5	6.80e-06	0	42	102	1048576	18	4385
2026-01-24 09:30:20.83	133.01	10.05	-28.6	-30.3	13.5	7.60e-06	0	42	102	1048576	18	4371
2026-01-24 09:30:21.83	132.96	10.13	-28.6	-30.2	13.6	8.30e-06	0	42	102	1048576	18	4332
2026-01-24 09:30:22.83	132.91	10.22	-28.5	-30.1	13.7	8.30e-06	0	42	102	1048576	18	4306
2026-01-24 09:30:23.83	132.86	10.30	-28.7	-30.4	13.5	1.14e-05	0	42	102	1048576	18	4407
2026-01-24 09:30:24.84	132.81	10.39	-28.7	-30.4	13.6	1.22e-05	0	42	102	1048576	18	4382
2026-01-24 09:30:25.85	132.76	10.48	-28.5	-30.1	13.7	9.90e-06	0	42	102	1048576	18	4303
2026-01-24 09:30:26.85	132.71	10.56	-28.6	-30.3	13.6	5.30e-06	0	42	102	1048576	18	4374
2026-01-24 09:30:27.86	132.66	10.65	-28.4	-29.9	13.9	3.80e-06	0	42	102	1048576	18	4245
2026-01-24 09:30:28.86	132.61	10.73	-28.4	-29.7	13.9	1.50e-06	0	42	102	1048576	18	4203
2026-01-24 09:30:29.87	132.56	10.82	-28.4	-29.7	13.9	3.00e-06	0	42	102	1048576	18	4214
2026-01-24 09:30:30.87	132.50	10.91	-28.5	-30.1	13.7	3.80e-06	0	42	102	1048576	18	4318
2026-01-24 09:30:31.87	132.45	10.99	-28.5	-30.0	13.8	3.80e-06	0	42	102	1048576	18	4291
2026-01-24 09:30:32.88	132.40	11.08	-28.4	-29.7	14.0	2.20e-06	0	42	102	1048576	18	4212
2026-01-24 09:30:33.88	132.34	11.17	-28.4	-29.7	14.0	2.20e-06	0	42	102	1048576	18	4205
2026-01-24 09:30:34.88	132.29	11.26	-28.3	-29.7	14.0	3.80e-06	0	43	102	1048576	18	4211
2026-01-24 09:30:35.88	132.24	11.35	-28.3	-30.1	14.0	1.50e-06	0	42	102	1048576	17	4434
2026-01-24 09:30:36.89	132.18	11.44	-28.3	-30.0	14.1	3.80e-06	0	42	102	1048576	17	4410
2026-01-24 09:30:37.89	132.13	11.52	-28.3	-30.2	14.0	1.50e-06	0	42	102	1048576	17	4458
2026-01-24 09:30:38.89	132.07	11.61	-28.2	-29.9	14.2	0.00e+00	0	42	102	1048576	17	4352
2026-01-24 09:30:39.89	132.02	11.70	-28.1	-29.6	14.4	1.50e-06	0	42	102	1048576	17	4272
2026-01-24 09:30:40.89	131.96	11.79	-28.1	-29.6	14.4	7.00e-07	0	42	102	1048576	17	4279
2026-01-24 09:30:41.90	131.90	11.88	-28.2	-29.8	14.2	2.20e-06	0	42	102	1048576	17	4351
2026-01-24 09:30:42.90	131.85	11.97	-28.1	-29.6	14.4	7.00e-07	0	42	102	1048576	17	4283
2026-01-24 09:30:43.90	131.79	12.06	-28.1	-29.5	14.5	0.00e+00	0	42	102	1048576	17	4234
2026-01-24 09:30:44.90	131.73	12.15	-28.1	-29.5	14.5	7.00e-07	0	43	102	1048576	17	4233
2026-01-24 09:30:45.90	131.68	12.25	-28.3	-29.9	14.2	2.20e-06	0	43	102	1048576	17	4367
2026-01-24 09:30:46.91	131.62	12.34	-28.1	-29.7	14.4	1.50e-06	0	42	102	1048576	17	4287
2026-01-24 09:30:47.92	131.56	12.43	-28.0	-29.4	14.5	0.00e+00	0	42	102	1048576	17	4216
2026-01-24 09:30:48.93	131.50	12.52	-28.1	-29.5	14.5	7.00e-07	0	43	102	1048576	17	4234
2026-01-24 09:30:49.93	131.44	12.62	-28.1	-29.6	14.5	7.00e-07	0	42	102	1048576	17	4259
2026-01-24 09:30:50.93	131.38	12.71	-28.1	-29.5	14.5	1.50e-06	0	43	102	1048576	17	4227
2026-01-24 09:30:51.94	131.32	12.80	-28.1	-29.5	14.5	1.50e-06	0	43	102	1048576	17	4220
2026-01-24 09:30:52.94	131.26	12.90	-28.1	-29.6	14.5	7.00e-07	0	43	102	1048576	17	4252
2026-01-24 09:30:53.94	131.20	12.99	-28.1	-29.5	14.5	1.50e-06	0	43	102	1048576	17	4233
2026-01-24 09:30:54.95	131.14	13.08	-28.1	-29.6	14.4	3.80e-06	0	42	102	1048576	17	4259
2026-01-24 09:30:55.95	131.08	13.18	-28.1	-29.5	14.5	0.00e+00	0	43	102	1048576	17	4233
2026-01-24 09:30:56.96	131.01	13.27	-28.1	-29.6	14.5	7.00e-07	0	43	102	1048576	17	4244
2026-01-24 09:30:57.96	130.95	13.37	-28.4	-30.1	14.2	1.50e-06	0	43	102	1048576	17	4401
2026-01-24 09:30:58.97	130.89	13.47	-28.5	-30.3	14.1	3.00e-06	0	43	102	1048576	17	4467
2026-01-24 09:30:59.97	130.83	13.56	-28.3	-29.9	14.3	0.00e+00	0	43	102	1048576	17	4350
2026-01-24 09:31:00.98	130.76	13.66	-28.3	-30.1	14.2	3.00e-06	0	43	102	1048576	17	4406
2026-01-24 09:31:01.98	130.70	13.75	-28.3	-29.9	14.3	1.50e-06	0	43	102	1048576	17	4353
2026-01-24 09:31:02.99	130.63	13.85	-28.4	-30.2	14.1	7.00e-07	0	43	102	1048576	17	4438
2026-01-24 09:31:04.00	130.57	13.95	-28.3	-30.1	14.2	7.00e-07	0	43	102	1048576	17	4406
2026-01-24 09:31:05.00	130.50	14.05	-28.5	-30.4	14.0	2.20e-06	0	43	102	1048576	17	4518
2026-01-24 09:31:06.00	130.44	14.15	-28.2	-29.9	14.4	1.50e-06	0	43	102	1048576	17	4349
2026-01-24 09:31:07.01	130.37	14.24	-28.1	-29.5	14.6	1.50e-06	0	43	102	1048576	17	4251
2026-01-24 09:31:08.02	130.30	14.34	-27.9	-29.2	14.8	0.00e+00	0	43	102	1048576	17	4160
2026-01-24 09:31:09.02	130.23	14.44	-27.9	-29.2	14.8	1.50e-06	0	43	102	1048576	17	4145
2026-01-24 09:31:10.03	130.17	14.54	-27.9	-29.1	14.8	0.00e+00	0	43	102	1048576	17	4135
2026-01-24 09:31:11.03	130.10	14.64	-27.9	-29.1	14.9	0.00e+00	0	43	102	1048576	17	4116
2026-01-24 09:31:12.04	130.03	14.74	-28.0	-29.3	14.7	0.00e+00	0	43	102	1048576	17	4177
2026-01-24 09:31:13.05	129.96	14.85	-28.0	-29.2	14.8	7.00e-07	0	43	102	1048576	17	4140
2026-01-24 09:31:14.05	129.89	14.95	-28.1	-29.4	14.7	0.00e+00	0	43	102	1048576	17	4195
2026-01-24 09:31:15.06	129.82	15.05	-28.0	-29.1	14.9	3.80e-06	0	43	102	1048576	17	4114
2026-01-24 09:31:16.06	129.75	15.15	-28.0	-29.1	14.9	0.00e+00	0	43	102	1048576	17	4122
2026-01-24 09:31:17.06	129.68	15.25	-28.2	-29.6	14.7	0.00e+00	0	43	102	1048576	17	4241
2026-01-24 09:31:18.07	129.60	15.35	-28.1	-29.4	14.7	5.30e-06	0	43	102	1048576	17	4198
2026-01-24 09:31:19.07	129.53	15.46	-28.3	-29.8	14.5	7.00e-07	0	43	102	1048576	17	4317
2026-01-24 09:31:20.08	129.46	15.56	-28.2	-29.6	14.7	7.00e-07	0	43	102	1048576	17	4241
2026-01-24 09:31:21.08	129.39	15.66	-28.3	-29.9	14.5	7.00e-07	0	43	102	1048576	17	4325
2026-01-24 09:31:22.08	129.31	15.77	-28.4	-30.2	14.3	1.50e-06	0	43	102	1048576	17	4426
2026-01-24 09:31:23.09	129.24	15.87	-28.3	-29.9	14.5	0.00e+00	0	43	102	1048576	17	4331
2026-01-24 09:31:24.09	129.16	15.98	-28.2	-29.8	14.6	0.00e+00	0	43	102	1048576	17	4294
2026-01-24 09:31:25.10	129.09	16.08	-28.2	-29.8	14.6	0.00e+00	0	43	102	1048576	17	4297
2026-01-24 09:31:26.10	129.01	16.19	-28.3	-30.0	14.5	7.00e-07	0	43	102	1048576	17	4354
2026-01-24 09:31:27.11	128.93	16.30	-28.3	-29.8	14.5	7.00e-07	0	43	102	1048576	17	4322
2026-01-24 09:31:28.11	128.86	16.40	-28.3	-30.0	14.5	1.50e-06	0	43	102	1048576	17	4373
2026-01-24 09:31:29.12	128.78	16.51	-28.4	-30.3	14.3	2.20e-06	0	43	102	1048576	17	4449
2026-01-24 09:31:30.12	128.70	16.62	-28.2	-29.8	14.6	7.00e-07	0	43	102	1048576	17	4308
2026-01-24 09:31:31.12	128.62	16.72	-28.2	-29.7	14.7	0.00e+00	0	43	102	1048576	17	4289
2026-01-24 09:31:32.13	128.54	16.83	-28.3	-29.9	14.6	0.00e+00	0	43	102	1048576	17	4333
2026-01-24 09:31:33.13	128.46	16.94	-28.3	-30.0	14.5	0.00e+00	0	43	102	1048576	17	4359
2026-01-24 09:31:34.14	128.38	17.05	-28.2	-29.7	14.7	0.00e+00	0	43	102	1048576	17	4281
2026-01-24 09:31:35.15	128.30	17.16	-28.2	-29.6	14.7	0.00e+00	0	43	102	1048576	17	4269
2026-01-24 09:31:36.15	128.22	17.27	-28.1	-29.6	14.7	0.00e+00	0	43	102	1048576	17	4259
2026-01-24 09:31:37.15	128.14	17.38	-28.2	-29.8	14.6	0.00e+00	0	43	102	1048576	17	4317
2026-01-24 09:31:38.16	128.05	17.49	-28.1	-29.4	14.8	7.00e-07	0	43	102	1048576	17	4217
2026-01-24 09:31:39.16	127.97	17.60	-28.2	-29.7	14.7	0.00e+00	0	43	102	1048576	17	4303
2026-01-24 09:31:40.17	127.88	17.72	-28.4	-30.3	14.3	0.00e+00	0	43	102	1048576	17	4461
2026-01-24 09:31:41.17	127.80	17.83	-28.2	-29.7	14.7	7.00e-07	0	43	102	1048576	17	4285
2026-01-24 09:31:42.17	127.71	17.94	-28.0	-29.4	14.9	0.00e+00	0	43	102	1048576	17	4185
2026-01-24 09:31:43.18	127.63	18.05	-28.0	-29.3	15.0	0.00e+00	0	43	102	1048576	17	4167
2026-01-24 09:31:44.18	127.54	18.17	-28.1	-29.4	14.9	0.00e+00	0	43	102	1048576	17	4196
2026-01-24 09:31:45.19	127.45	18.28	-28.1	-29.4	14.9	0.00e+00	0	43	102	1048576	17	4182
2026-01-24 09:31:46.19	127.36	18.40	-28.1	-29.5	14.9	0.00e+00	0	43	102	1048576	17	4209
2026-01-24 09:31:47.19	127.28	18.51	-28.1	-29.3	15.0	0.00e+00	0	43	102	1048576	17	4157
2026-01-24 09:31:48.20	127.18	18.63	-28.2	-29.6	14.9	0.00e+00	0	43	102	1048576	17	4230
2026-01-24 09:31:49.20	127.09	18.74	-28.2	-29.6	14.9	0.00e+00	0	43	102	1048576	17	4219
2026-01-24 09:31:50.20	127.00	18.86	-28.2	-29.6	14.8	0.00e+00	0	43	102	1048576	17	4240
2026-01-24 09:31:51.21	126.91	18.97	-28.3	-29.8	14.8	0.00e+00	0	43	102	1048576	17	4288
2026-01-24 09:31:52.21	126.82	19.09	-28.2	-29.6	14.9	7.00e-07	0	43	102	1048576	17	4235
2026-01-24 09:31:53.22	126.73	19.21	-28.2	-29.7	14.8	0.00e+00	0	43	102	1048576	17	4256
2026-01-24 09:31:54.23	126.63	19.33	-28.3	-29.9	14.7	0.00e+00	0	43	102	1048576	17	4313
2026-01-24 09:31:55.23	126.54	19.45	-28.4	-30.2	14.5	7.00e-07	0	43	102	1048576	17	4404
2026-01-24 09:31:56.23	126.44	19.57	-28.2	-29.7	14.8	0.00e+00	0	43	102	1048576	17	4264
2026-01-24 09:31:57.24	126.34	19.69	-28.1	-29.4	15.0	0.00e+00	0	43	102	1048576	17	4188
2026-01-24 09:31:58.24	126.25	19.81	-28.1	-29.3	15.1	0.00e+00	0	43	102	1048576	17	4164
2026-01-24 09:31:59.25	126.15	19.93	-28.1	-29.4	15.0	0.00e+00	0	43	102	1048576	17	4177
2026-01-24 09:32:00.25	126.05	20.05	-28.0	-29.1	15.2	0.00e+00	0	43	102	1048576	17	4107
2026-01-24 09:32:01.26	125.95	20.17	-28.0	-29.1	15.2	0.00e+00	0	43	102	1048576	17	4102
2026-01-24 09:32:02.25	125.85	20.29	-28.0	-29.1	15.2	0.00e+00	0	43	102	1048576	17	4090
2026-01-24 09:32:03.26	125.75	20.41	-27.9	-28.9	15.3	0.00e+00	0	43	102	1048576	17	4042
2026-01-24 09:32:04.26	125.65	20.54	-27.9	-28.8	15.4	0.00e+00	0	43	102	1048576	17	4024
2026-01-24 09:32:05.26	125.54	20.66	-27.9	-28.9	15.4	0.00e+00	0	43	102	1048576	17	4036
2026-01-24 09:32:06.26	125.44	20.78	-27.9	-28.8	15.4	0.00e+00	0	43	102	1048576	17	4017
2026-01-24 09:32:07.26	125.34	20.91	-27.9	-28.9	15.4	3.00e-06	0	43	102	1048576	17	4039
2026-01-24 09:32:08.26	125.23	21.03	-27.8	-29.1	15.6	0.00e+00	0	43	102	1048576	16	4182
2026-01-24 09:32:09.26	125.13	21.16	-27.8	-29.1	15.6	0.00e+00	0	43	102	1048576	16	4195
2026-01-24 09:32:10.27	125.02	21.28	-27.8	-29.1	15.6	0.00e+00	0	43	102	1048576	16	4203
2026-01-24 09:32:11.27	124.91	21.41	-27.6	-28.6	15.8	0.00e+00	0	43	102	1048576	16	4075
2026-01-24 09:32:12.28	124.80	21.54	-27.5	-28.4	15.9	0.00e+00	0	43	102	1048576	16	4022
2026-01-24 09:32:13.28	124.69	21.67	-27.5	-28.4	15.9	0.00e+00	0	43	102	1048576	16	4026
2026-01-24 09:32:14.29	124.58	21.79	-27.6	-28.7	15.8	0.00e+00	0	43	102	1048576	16	4104
2026-01-24 09:32:15.29	124.47	21.92	-27.6	-28.7	15.8	0.00e+00	0	43	102	1048576	16	4091
2026-01-24 09:32:16.29	124.36	22.05	-27.6	-28.7	15.8	0.00e+00	0	43	102	1048576	16	4085
2026-01-24 09:32:17.30	124.24	22.18	-27.5	-28.4	16.0	0.00e+00	0	43	102	1048576	16	4016
2026-01-24 09:32:18.30	124.13	22.31	-27.4	-28.2	16.1	0.00e+00	0	43	102	1048576	16	3966
2026-01-24 09:32:19.30	124.01	22.44	-27.3	-28.0	16.2	0.00e+00	0	43	102	1048576	16	3921
2026-01-24 09:32:20.31	123.90	22.58	-27.1	-28.1	16.2	0.00e+00	0	43	102	1048576	15	4057
2026-01-24 09:32:21.31	123.78	22.71	-27.2	-28.3	16.1	0.00e+00	0	43	102	1048576	15	4090
2026-01-24 09:32:22.31	123.66	22.84	-27.2	-28.4	16.1	0.00e+00	0	43	102	1048576	15	4133
2026-01-24 09:32:23.32	123.54	22.97	-27.2	-28.4	16.1	0.00e+00	0	43	102	1048576	15	4131
2026-01-24 09:32:24.32	123.42	23.11	-27.2	-28.3	16.1	0.00e+00	0	43	102	1048576	15	4102
2026-01-24 09:32:25.32	123.30	23.24	-27.1	-28.1	16.3	0.00e+00	0	43	102	1048576	15	4036
2026-01-24 09:32:26.32	123.18	23.37	-27.2	-28.4	16.1	0.00e+00	0	43	102	1048576	15	4112
2026-01-24 09:32:27.32	123.05	23.51	-27.3	-28.5	16.0	0.00e+00	0	43	102	1048576	15	4134
2026-01-24 09:32:28.33	122.93	23.65	-27.2	-28.3	16.2	0.00e+00	0	43	102	1048576	15	4094
2026-01-24 09:32:29.33	122.80	23.78	-27.3	-28.6	16.0	0.00e+00	0	43	102	1048576	15	4183
2026-01-24 09:32:30.34	122.67	23.92	-27.1	-28.1	16.3	0.00e+00	0	43	102	1048576	15	4032
2026-01-24 09:32:31.34	122.54	24.06	-26.9	-27.7	16.5	0.00e+00	0	43	102	1048576	15	3945
2026-01-24 09:32:32.34	122.41	24.19	-26.9	-27.6	16.6	0.00e+00	0	43	102	1048576	15	3914
2026-01-24 09:32:33.35	122.28	24.33	-26.9	-27.7	16.5	0.00e+00	0	43	102	1048576	15	3941
2026-01-24 09:32:34.35	122.15	24.47	-26.9	-27.7	16.5	0.00e+00	0	43	102	1048576	15	3935
2026-01-24 09:32:35.35	122.02	24.61	-26.9	-27.6	16.6	0.00e+00	0	43	102	1048576	15	3913
2026-01-24 09:32:36.34	121.89	24.75	-26.9	-27.6	16.6	0.00e+00	0	43	102	1048576	15	3912
2026-01-24 09:32:37.35	121.75	24.89	-26.9	-27.6	16.6	0.00e+00	0	43	102	1048576	15	3915
2026-01-24 09:32:38.35	121.61	25.03	-26.9	-27.7	16.5	0.00e+00	0	43	102	1048576	15	3950
2026-01-24 09:32:39.35	121.48	25.18	-27.0	-27.9	16.4	0.00e+00	0	43	102	1048576	15	3983
2026-01-24 09:32:40.35	121.34	25.32	-27.0	-28.0	16.4	0.00e+00	0	43	102	1048576	15	4017
2026-01-24 09:32:41.35	121.20	25.46	-27.1	-28.1	16.3	0.00e+00	0	43	102	1048576	15	4035
2026-01-24 09:32:42.36	121.05	25.60	-27.2	-28.3	16.2	0.00e+00	0	43	102	1048576	15	4108
2026-01-24 09:32:43.36	120.91	25.75	-27.2	-28.3	16.2	0.00e+00	0	43	102	1048576	15	4092
2026-01-24 09:32:44.36	120.77	25.89	-27.2	-28.3	16.2	0.00e+00	0	43	102	1048576	15	4098
2026-01-24 09:32:45.37	120.62	26.04	-27.3	-28.6	16.1	0.00e+00	0	43	102	1048576	15	4167
2026-01-24 09:32:46.37	120.47	26.19	-27.3	-28.7	16.0	0.00e+00	0	43	102	1048576	15	4189
2026-01-24 09:32:47.38	120.32	26.33	-27.4	-28.8	16.0	0.00e+00	0	43	102	1048576	15	4222
2026-01-24 09:32:48.38	120.17	26.48	-27.5	-29.0	15.9	0.00e+00	0	43	102	1048576	15	4273
2026-01-24 09:32:49.38	120.02	26.63	-27.6	-29.2	15.7	0.00e+00	0	43	102	1048576	15	4331
2026-01-24 09:32:50.39	119.87	26.78	-27.5	-29.0	15.8	0.00e+00	0	43	102	1048576	15	4286
2026-01-24 09:32:51.40	119.71	26.93	-27.7	-29.5	15.6	0.00e+00	0	43	102	1048576	15	4408
2026-01-24 09:32:52.40	119.56	27.08	-27.7	-29.4	15.6	0.00e+00	0	43	102	1048576	15	4390
2026-01-24 09:32:53.40	119.40	27.23	-27.7	-29.4	15.6	0.00e+00	0	43	102	1048576	15	4395
2026-01-24 09:32:54.41	119.24	27.38	-27.5	-29.1	15.8	0.00e+00	0	43	102	1048576	15	4295
2026-01-24 09:32:55.41	119.08	27.53	-27.6	-29.2	15.8	0.00e+00	0	43	102	1048576	15	4319
2026-01-24 09:32:56.42	118.92	27.68	-27.6	-29.2	15.7	0.00e+00	0	43	102	1048576	15	4335
2026-01-24 09:32:57.42	118.76	27.83	-27.5	-29.1	15.8	0.00e+00	0	43	102	1048576	15	4295
2026-01-24 09:32:58.43	118.59	27.99	-27.5	-29.0	15.8	0.00e+00	0	43	102	1048576	15	4277
2026-01-24 09:32:59.43	118.42	28.14	-27.7	-29.5	15.6	0.00e+00	0	43	102	1048576	15	4407
2026-01-24 09:33:00.44	118.25	28.30	-27.9	-29.8	15.4	0.00e+00	0	43	102	1048576	15	4509
2026-01-24 09:33:01.44	118.09	28.45	-27.9	-30.0	15.3	0.00e+00	0	43	102	1048576	15	4570
2026-01-24 09:33:02.44	117.91	28.61	-28.0	-30.0	15.3	0.00e+00	0	43	102	1048576	15	4578
2026-01-24 09:33:03.45	117.74	28.76	-28.1	-29.8	15.3	0.00e+00	0	43	102	1048576	16	4376
2026-01-24 09:33:04.45	117.57	28.92	-27.9	-29.4	15.5	0.00e+00	0	43	102	1048576	16	4287
2026-01-24 09:33:05.45	117.39	29.08	-27.8	-29.1	15.7	0.00e+00	0	43	102	1048576	16	4183
2026-01-24 09:33:06.46	117.21	29.23	-27.8	-29.1	15.7	0.00e+00	0	43	102	1048576	16	4184
2026-01-24 09:33:07.46	117.03	29.39	-27.8	-29.2	15.6	9.10e-06	0	43	102	1048576	16	4221
2026-01-24 09:33:08.46	116.85	29.55	-27.7	-29.0	15.8	0.00e+00	0	43	102	1048576	16	4154
2026-01-24 09:33:09.46	116.66	29.71	-27.8	-29.2	15.7	0.00e+00	0	43	102	1048576	16	4215
2026-01-24 09:33:10.46	116.48	29.87	-28.0	-29.5	15.5	0.00e+00	0	43	102	1048576	16	4299
2026-01-24 09:33:11.46	116.29	30.03	-28.0	-29.6	15.4	0.00e+00	0	43	102	1048576	16	4321
2026-01-24 09:33:12.46	116.10	30.19	-28.1	-29.9	15.3	0.00e+00	0	43	102	1048576	16	4408
2026-01-24 09:33:13.46	115.91	30.35	-28.1	-29.8	15.3	6.80e-06	0	43	102	1048576	16	4373
2026-01-24 09:33:14.46	115.72	30.51	-28.1	-29.8	15.3	0.00e+00	0	43	102	1048576	16	4384
2026-01-24 09:33:15.46	115.52	30.67	-28.3	-30.2	15.1	0.00e+00	0	43	102	1048576	16	4505
2026-01-24 09:33:16.47	115.33	30.84	-28.1	-29.9	15.3	1.29e-05	0	43	102	1048576	16	4418
2026-01-24 09:33:17.47	115.13	31.00	-28.0	-29.6	15.4	0.00e+00	0	43	102	1048576	16	4331
2026-01-24 09:33:18.48	114.92	31.17	-28.1	-29.7	15.4	0.00e+00	0	43	102	1048576	16	4356
2026-01-24 09:33:19.48	114.72	31.33	-28.2	-30.0	15.3	0.00e+00	0	44	102	1048576	16	4423
2026-01-24 09:33:20.49	114.51	31.50	-28.3	-30.2	15.2	0.00e+00	0	43	102	1048576	16	4486
2026-01-24 09:33:21.49	114.31	31.66	-28.2	-30.0	15.2	0.00e+00	0	43	102	1048576	16	4435
2026-01-24 09:33:22.49	114.10	31.83	-28.2	-30.1	15.2	9.90e-06	0	43	102	1048576	16	4451
2026-01-24 09:33:23.50	113.88	32.00	-28.2	-29.9	15.3	0.00e+00	0	43	102	1048576	16	4420
2026-01-24 09:33:24.50	113.67	32.16	-28.1	-29.8	15.3	0.00e+00	0	43	102	1048576	16	4388
2026-01-24 09:33:25.50	113.45	32.33	-28.2	-29.9	15.3	7.00e-07	0	43	102	1048576	16	4408
2026-01-24 09:33:26.50	113.24	32.50	-28.2	-29.9	15.3	0.00e+00	0	43	102	1048576	16	4415
2026-01-24 09:33:27.51	113.01	32.67	-28.2	-30.0	15.3	0.00e+00	0	43	102	1048576	16	4439
2026-01-24 09:33:28.52	112.79	32.84	-28.2	-30.1	15.2	0.00e+00	0	43	102	1048576	16	4467
2026-01-24 09:33:29.52	112.56	33.01	-28.2	-30.1	15.2	0.00e+00	0	43	102	1048576	16	4464
2026-01-24 09:33:30.52	112.34	33.18	-28.2	-30.0	15.3	0.00e+00	0	43	102	1048576	16	4435
2026-01-24 09:33:31.53	112.10	33.35	-28.2	-29.9	15.4	0.00e+00	0	43	102	1048576	16	4394
2026-01-24 09:33:32.54	111.87	33.52	-28.3	-30.1	15.3	0.00e+00	0	43	102	1048576	16	4457
2026-01-24 09:33:33.55	111.63	33.69	-28.3	-30.1	15.2	0.00e+00	0	44	102	1048576	16	4468
2026-01-24 09:33:34.55	111.39	33.87	-28.3	-30.2	15.2	0.00e+00	0	43	102	1048576	16	4487
2026-01-24 09:33:35.55	111.15	34.04	-28.4	-30.5	15.0	0.00e+00	0	44	102	1048576	16	4563
2026-01-24 09:33:36.55	110.91	34.21	-28.4	-30.6	15.0	0.00e+00	0	43	102	1048576	16	4597
2026-01-24 09:33:37.56	110.66	34.38	-28.5	-30.6	15.0	0.00e+00	0	43	102	1048576	16	4608
2026-01-24 09:33:38.57	110.41	34.56	-28.7	-30.7	14.6	0.00e+00	0	43	102	1048576	17	4507
2026-01-24 09:33:39.57	110.16	34.73	-28.7	-30.7	14.6	7.00e-07	0	43	102	1048576	17	4528
2026-01-24 09:33:40.58	109.91	34.90	-28.9	-31.1	14.4	7.00e-07	0	44	102	1048576	17	4652
2026-01-24 09:33:41.58	109.65	35.08	-29.0	-30.7	14.4	0.00e+00	0	43	102	1048576	18	4418
2026-01-24 09:33:42.59	109.39	35.25	-28.9	-30.7	14.4	7.00e-07	0	43	102	1048576	18	4397
2026-01-24 09:33:43.60	109.13	35.43	-28.9	-30.6	14.4	1.50e-06	0	43	102	1048576	18	4384
2026-01-24 09:33:44.60	108.86	35.60	-28.9	-30.5	14.5	7.00e-07	0	44	102	1048576	18	4348
2026-01-24 09:33:45.61	108.59	35.78	-28.9	-30.7	14.4	0.00e+00	0	44	102	1048576	18	4391
2026-01-24 09:33:46.62	108.32	35.96	-29.0	-30.8	14.4	0.00e+00	0	44	102	1048576	18	4427
2026-01-24 09:33:47.61	108.05	36.13	-29.0	-30.8	14.3	7.00e-07	0	43	102	1048576	18	4423
2026-01-24 09:33:48.61	107.77	36.31	-29.1	-31.1	14.1	2.20e-06	0	44	102	1048576	18	4536
2026-01-24 09:33:49.62	107.49	36.48	-29.3	-31.7	13.9	7.00e-07	0	44	102	1048576	18	4705
2026-01-24 09:33:50.62	107.21	36.66	-29.4	-31.7	13.8	5.30e-06	0	44	102	1048576	18	4729
2026-01-24 09:33:51.63	106.92	36.84	-29.3	-31.6	13.9	3.80e-06	0	43	102	1048576	18	4681
2026-01-24 09:33:52.64	106.63	37.01	-29.3	-31.6	13.9	1.50e-06	0	43	102	1048576	18	4686
2026-01-24 09:33:53.64	106.34	37.19	-29.3	-31.5	14.0	5.30e-06	0	44	102	1048576	18	4639
2026-01-24 09:33:54.65	106.04	37.37	-29.1	-31.1	14.2	7.00e-07	0	43	102	1048576	18	4540
2026-01-24 09:33:55.65	105.74	37.54	-29.3	-31.5	14.0	1.50e-06	0	44	102	1048576	18	4638
2026-01-24 09:33:56.65	105.44	37.72	-29.2	-31.2	14.1	0.00e+00	0	44	102	1048576	18	4547
2026-01-24 09:33:57.66	105.13	37.90	-29.1	-31.0	14.3	0.00e+00	0	44	102	1048576	18	4496
2026-01-24 09:33:58.66	104.82	38.07	-29.3	-31.6	13.9	3.80e-06	0	44	102	1048576	18	4671
2026-01-24 09:33:59.66	104.51	38.25	-29.3	-31.6	13.9	2.20e-06	0	44	102	1048576	18	4685
2026-01-24 09:34:00.67	104.20	38.43	-29.2	-31.3	14.1	3.80e-06	0	43	102	1048576	18	4573
2026-01-24 09:34:01.67	103.88	38.60	-29.1	-31.0	14.3	0.00e+00	0	44	102	1048576	18	4504
2026-01-24 09:34:02.68	103.55	38.78	-29.2	-31.2	14.2	7.00e-07	0	43	102	1048576	18	4563
2026-01-24 09:34:03.68	103.23	38.96	-29.2	-31.2	14.2	3.00e-06	0	43	102	1048576	18	4565
2026-01-24 09:34:04.69	102.90	39.13	-29.0	-30.8	14.4	1.50e-06	0	43	102	1048576	18	4431
2026-01-24 09:34:05.70	102.56	39.31	-29.0	-30.8	14.5	7.00e-07	0	43	102	1048576	18	4421
2026-01-24 09:34:06.70	102.22	39.49	-29.0	-30.9	14.4	6.80e-06	0	43	102	1048576	18	4449
2026-01-24 09:34:07.71	101.88	39.66	-29.2	-31.2	14.2	1.50e-06	0	43	102	1048576	18	4534
2026-01-24 09:34:08.71	101.54	39.84	-29.2	-31.3	14.2	0.00e+00	0	44	102	1048576	18	4572
2026-01-24 09:34:09.72	101.19	40.01	-29.2	-31.2	14.2	7.00e-07	0	44	102	1048576	18	4562
2026-01-24 09:34:10.72	100.84	40.19	-29.3	-31.5	14.0	1.50e-06	0	44	102	1048576	18	4654
2026-01-24 09:34:11.72	100.48	40.36	-29.5	-31.5	13.7	3.80e-06	0	44	102	1048576	19	4546
2026-01-24 09:34:12.73	100.12	40.53	-29.6	-31.9	13.5	2.05e-05	0	43	102	1048576	19	4642
2026-01-24 09:34:13.73	99.76	40.71	-29.8	-32.3	13.3	1.60e-05	0	44	102	1048576	19	4794
2026-01-24 09:34:14.73	99.39	40.88	-29.9	-32.4	13.2	1.98e-05	0	44	102	1048576	19	4829
2026-01-24 09:34:15.73	99.02	41.05	-29.9	-32.1	13.0	3.58e-05	0	43	102	1048576	20	4609
2026-01-24 09:34:16.74	98.64	41.22	-30.2	-32.7	12.7	7.55e-05	0	43	102	1048576	20	4795
2026-01-24 09:34:17.74	98.26	41.39	-30.3	-33.0	12.5	1.04e-04	0	43	102	1048576	20	4898
2026-01-24 09:34:18.74	97.88	41.56	-30.4	-33.3	12.3	1.52e-04	0	43	102	1048576	20	5031
2026-01-24 09:34:19.75	97.49	41.73	-30.4	-32.8	12.3	2.03e-04	0	44	102	1048576	21	4754
2026-01-24 09:34:20.75	97.10	41.90	-30.4	-32.8	12.3	2.07e-04	0	44	102	1048576	21	4728
2026-01-24 09:34:21.76	96.70	42.07	-30.5	-32.9	12.2	1.96e-04	0	44	102	1048576	21	4777
2026-01-24 09:34:22.77	96.30	42.24	-30.3	-32.5	12.5	1.46e-04	0	44	102	1048576	21	4653
2026-01-24 09:34:23.77	95.90	42.41	-30.3	-32.4	12.5	1.19e-04	0	43	102	1048576	21	4608
2026-01-24 09:34:24.78	95.49	42.57	-30.3	-32.6	12.4	1.55e-04	0	44	102	1048576	21	4677
2026-01-24 09:34:25.78	95.08	42.74	-30.5	-33.1	12.1	1.90e-04	0	44	102	1048576	21	4826
2026-01-24 09:34:26.79	94.66	42.90	-30.5	-32.9	12.2	2.20e-04	0	43	102	1048576	21	4773
2026-01-24 09:34:27.79	94.24	43.06	-30.2	-32.1	12.7	1.24e-04	0	43	102	1048576	21	4521
2026-01-24 09:34:28.80	93.81	43.23	-30.1	-31.9	12.9	6.02e-05	0	44	102	1048576	21	4449
2026-01-24 09:34:29.79	93.38	43.38	-30.0	-31.6	13.1	3.50e-05	0	43	102	1048576	21	4360
2026-01-24 09:34:30.80	92.95	43.54	-30.0	-31.7	13.1	3.89e-05	0	44	102	1048576	21	4372
2026-01-24 09:34:31.79	92.51	43.70	-29.8	-31.2	13.3	1.44e-05	0	44	102	1048576	21	4235
2026-01-24 09:34:32.79	92.07	43.86	-29.8	-31.8	13.2	1.22e-05	0	43	102	1048576	20	4507
2026-01-24 09:34:33.80	91.62	44.01	-30.1	-32.5	12.9	3.58e-05	0	43	102	1048576	20	4742
2026-01-24 09:34:34.80	91.17	44.17	-30.2	-32.7	12.7	7.70e-05	0	44	102	1048576	20	4793
2026-01-24 09:34:35.81	90.71	44.32	-30.2	-32.6	12.7	7.24e-05	0	44	102	1048576	20	4785
2026-01-24 09:34:36.81	90.26	44.47	-30.3	-33.1	12.5	1.04e-04	0	43	102	1048576	20	4934
2026-01-24 09:34:37.81	89.79	44.62	-30.4	-33.3	12.3	1.69e-04	0	44	102	1048576	20	5012
2026-01-24 09:34:38.81	89.33	44.77	-30.4	-33.4	12.3	1.86e-04	0	44	102	1048576	20	5036
2026-01-24 09:34:39.82	88.85	44.92	-30.6	-33.1	12.2	2.09e-04	0	44	102	1048576	21	4845
2026-01-24 09:34:40.82	88.37	45.06	-30.6	-33.2	12.1	2.89e-04	0	44	102	1048576	21	4870
2026-01-24 09:34:41.83	87.89	45.20	-30.6	-33.2	12.2	2.72e-04	0	44	102	1048576	21	4846
2026-01-24 09:34:42.84	87.40	45.35	-30.3	-32.4	12.6	1.11e-04	0	44	102	1048576	21	4580
2026-01-24 09:34:43.84	86.91	45.48	-30.1	-32.0	12.9	5.41e-05	0	43	102	1048576	21	4464
2026-01-24 09:34:44.85	86.41	45.62	-30.0	-31.6	13.1	3.50e-05	0	43	102	1048576	21	4347
2026-01-24 09:34:45.85	85.91	45.76	-29.7	-31.4	13.5	1.37e-05	0	43	102	1048576	20	4399
2026-01-24 09:34:46.85	85.41	45.89	-29.4	-30.6	14.0	5.30e-06	0	43	102	1048576	20	4165
2026-01-24 09:34:47.86	84.90	46.02	-29.4	-31.2	14.1	7.00e-07	0	43	102	1048576	19	4419
2026-01-24 09:34:48.86	84.39	46.15	-29.7	-31.9	13.5	7.60e-06	0	44	102	1048576	19	4628
2026-01-24 09:34:49.86	83.87	46.28	-30.0	-32.1	13.0	2.21e-05	0	43	102	1048576	20	4616
2026-01-24 09:34:50.86	83.36	46.41	-30.1	-32.4	12.9	3.81e-05	0	43	102	1048576	20	4710
2026-01-24 09:34:51.86	82.83	46.53	-29.8	-31.8	13.2	2.97e-05	0	44	102	1048576	20	4505
2026-01-24 09:34:52.86	82.31	46.65	-30.0	-32.1	13.1	2.21e-05	0	44	102	1048576	20	4604
2026-01-24 09:34:53.87	81.77	46.77	-29.9	-32.0	13.2	3.12e-05	0	44	102	1048576	20	4561
2026-01-24 09:34:54.87	81.23	46.88	-30.2	-32.8	12.7	6.63e-05	0	44	102	1048576	20	4838
2026-01-24 09:34:55.88	80.69	47.00	-30.5	-33.1	12.2	1.75e-04	0	43	102	1048576	21	4821
2026-01-24 09:34:56.89	80.14	47.11	-30.0	-31.8	12.9	1.23e-04	0	44	102	1048576	21	4407
2026-01-24 09:34:57.89	79.60	47.22	-29.7	-31.4	13.5	1.83e-05	0	44	102	1048576	20	4398
2026-01-24 09:34:58.89	79.04	47.32	-30.1	-32.5	12.9	2.05e-05	0	43	102	1048576	20	4738
2026-01-24 09:34:59.90	78.49	47.43	-30.3	-32.9	12.6	1.04e-04	0	43	102	1048576	20	4886
2026-01-24 09:35:00.90	77.93	47.53	-30.4	-33.3	12.3	1.67e-04	0	43	102	1048576	20	5025
2026-01-24 09:35:01.91	77.36	47.62	-30.4	-32.6	12.4	2.10e-04	0	43	102	1048576	21	4667
2026-01-24 09:35:02.92	76.79	47.72	-30.2	-32.3	12.7	9.30e-05	0	43	102	1048576	21	4551
2026-01-24 09:35:03.91	76.23	47.81	-30.3	-32.4	12.6	7.40e-05	0	44	102	1048576	21	4586
2026-01-24 09:35:04.92	75.65	47.90	-30.1	-31.8	13.0	4.65e-05	0	44	102	1048576	21	4412
2026-01-24 09:35:05.92	75.08	47.98	-29.5	-30.9	13.8	1.37e-05	0	44	102	1048576	20	4254
2026-01-24 09:35:06.91	74.50	48.07	-29.3	-30.5	14.1	7.00e-07	0	44	102	1048576	20	4134
2026-01-24 09:35:07.92	73.92	48.15	-29.3	-30.6	14.0	2.20e-06	0	44	102	1048576	20	4153
2026-01-24 09:35:08.92	73.33	48.22	-29.4	-30.8	13.9	2.20e-06	0	44	102	1048576	20	4215
2026-01-24 09:35:09.93	72.74	48.30	-29.5	-31.0	13.9	4.50e-06	0	44	102	1048576	20	4267
2026-01-24 09:35:10.93	72.15	48.37	-29.6	-31.1	13.7	6.80e-06	0	44	102	1048576	20	4313
2026-01-24 09:35:11.93	71.56	48.44	-29.3	-30.9	14.2	6.10e-06	0	44	102	1048576	19	4342
2026-01-24 09:35:12.94	70.96	48.50	-29.5	-31.3	14.0	3.80e-06	0	44	102	1048576	19	4471
2026-01-24 09:35:13.94	70.36	48.56	-29.8	-32.1	13.5	7.60e-06	0	44	102	1048576	19	4721
2026-01-24 09:35:14.94	69.76	48.62	-30.1	-32.5	12.9	3.20e-05	0	43	102	1048576	20	4732
2026-01-24 09:35:15.94	69.16	48.67	-30.1	-32.6	12.9	5.87e-05	0	43	102	1048576	20	4765
2026-01-24 09:35:16.95	68.55	48.72	-29.9	-32.1	13.2	3.43e-05	0	44	102	1048576	20	4595
2026-01-24 09:35:17.95	67.95	48.77	-30.0	-32.1	13.1	2.97e-05	0	44	102	1048576	20	4613
2026-01-24 09:35:18.95	67.34	48.81	-30.1	-32.4	13.0	3.50e-05	0	44	102	1048576	20	4696
2026-01-24 09:35:19.96	66.72	48.85	-29.9	-31.8	13.3	1.98e-05	0	44	102	1048576	20	4525
2026-01-24 09:35:20.96	66.11	48.89	-29.9	-32.1	13.1	3.20e-05	0	44	102	1048576	20	4617
2026-01-24 09:35:21.96	65.50	48.92	-29.8	-31.8	13.3	1.90e-05	0	44	102	1048576	20	4515
2026-01-24 09:35:22.96	64.89	48.95	-29.7	-31.6	13.4	1.22e-05	0	44	102	1048576	20	4447
2026-01-24 09:35:23.97	64.27	48.98	-30.1	-32.4	13.0	2.67e-05	0	44	102	1048576	20	4714
2026-01-24 09:35:24.97	63.65	49.00	-29.8	-31.6	13.4	2.13e-05	0	43	102	1048576	20	4458
2026-01-24 09:35:25.97	63.04	49.02	-29.5	-31.0	13.8	4.50e-06	0	44	102	1048576	20	4281
2026-01-24 09:35:26.97	62.42	49.04	-29.5	-31.0	13.8	3.80e-06	0	44	102	1048576	20	4255
2026-01-24 09:35:27.98	61.80	49.05	-29.7	-31.6	13.4	9.10e-06	0	44	102	1048576	20	4445
2026-01-24 09:35:28.98	61.18	49.06	-29.9	-31.9	13.3	2.51e-05	0	44	102	1048576	20	4543
2026-01-24 09:35:29.98	60.56	49.06	-29.5	-31.1	13.7	1.06e-05	0	43	102	1048576	20	4293
2026-01-24 09:35:30.99	59.94	49.06	-29.2	-30.7	14.3	0.00e+00	0	44	102	1048576	19	4273
2026-01-24 09:35:31.99	59.32	49.06	-29.0	-30.3	14.6	0.00e+00	0	44	102	1048576	19	4158
2026-01-24 09:35:33.00	58.70	49.05	-29.1	-30.4	14.5	0.00e+00	0	43	102	1048576	19	4211
2026-01-24 09:35:34.00	58.08	49.05	-29.1	-30.5	14.5	1.50e-06	0	44	102	1048576	19	4225
2026-01-24 09:35:35.00	57.46	49.03	-29.3	-30.9	14.2	1.50e-06	0	43	102	1048576	19	4348
2026-01-24 09:35:36.00	56.85	49.02	-29.1	-30.6	14.4	7.00e-07	0	44	102	1048576	19	4255
2026-01-24 09:35:37.01	56.22	48.99	-29.5	-31.4	14.0	0.00e+00	0	44	102	1048576	19	4483
2026-01-24 09:35:38.01	55.61	48.97	-29.7	-31.9	13.7	5.30e-06	0	44	102	1048576	19	4634
2026-01-24 09:35:39.01	55.00	48.94	-29.8	-32.2	13.5	1.37e-05	0	44	102	1048576	19	4742
2026-01-24 09:35:40.02	54.38	48.91	-29.7	-32.0	13.6	1.83e-05	0	44	102	1048576	19	4670
2026-01-24 09:35:41.02	53.77	48.88	-29.7	-31.9	13.7	4.50e-06	0	44	102	1048576	19	4636
2026-01-24 09:35:42.02	53.16	48.84	-29.9	-32.0	13.2	1.83e-05	0	43	102	1048576	20	4563
2026-01-24 09:35:43.03	52.54	48.80	-29.9	-32.0	13.2	1.98e-05	0	44	102	1048576	20	4561
2026-01-24 09:35:44.03	51.94	48.75	-30.1	-32.4	13.0	2.82e-05	0	43	102	1048576	20	4697
2026-01-24 09:35:45.03	51.33	48.70	-30.3	-32.9	12.7	7.70e-05	0	44	102	1048576	20	4877
2026-01-24 09:35:46.04	50.73	48.65	-30.1	-32.4	13.0	3.89e-05	0	44	102	1048576	20	4692
2026-01-24 09:35:47.05	50.12	48.60	-29.9	-32.0	13.2	1.60e-05	0	43	102	1048576	20	4576
2026-01-24 09:35:48.06	49.51	48.54	-30.1	-32.5	12.9	4.57e-05	0	44	102	1048576	20	4738
2026-01-24 09:35:49.06	48.92	48.48	-29.7	-31.5	13.5	1.83e-05	0	44	102	1048576	20	4427
2026-01-24 09:35:50.07	48.32	48.41	-29.7	-31.4	13.6	1.29e-05	0	44	102	1048576	20	4378
2026-01-24 09:35:51.07	47.73	48.34	-29.5	-30.9	13.9	3.00e-06	0	44	102	1048576	20	4238
2026-01-24 09:35:52.08	47.14	48.27	-29.4	-30.8	14.0	2.20e-06	0	44	102	1048576	20	4199
2026-01-24 09:35:53.08	46.55	48.20	-29.9	-32.1	13.2	2.28e-05	0	44	102	1048576	20	4592
2026-01-24 09:35:54.08	45.97	48.12	-30.1	-32.5	12.9	4.19e-05	0	44	102	1048576	20	4724
2026-01-24 09:35:55.09	45.38	48.04	-30.4	-33.3	12.4	1.02e-04	0	44	102	1048576	20	4989
2026-01-24 09:35:56.10	44.80	47.95	-30.6	-33.1	12.1	2.05e-04	0	44	102	1048576	21	4831
2026-01-24 09:35:57.09	44.24	47.87	-30.5	-32.9	12.3	2.66e-04	0	44	102	1048576	21	4763
2026-01-24 09:35:58.10	43.66	47.78	-29.9	-31.4	13.2	3.20e-05	0	44	102	1048576	21	4292
2026-01-24 09:35:59.11	43.09	47.68	-29.7	-31.4	13.6	9.90e-06	0	43	102	1048576	20	4382
2026-01-24 09:36:00.11	42.53	47.59	-29.7	-31.4	13.6	1.06e-05	0	44	102	1048576	20	4371
2026-01-24 09:36:01.11	41.97	47.49	-29.9	-31.9	13.3	7.60e-06	0	44	102	1048576	20	4536
2026-01-24 09:36:02.11	41.41	47.39	-29.9	-32.0	13.2	2.67e-05	0	44	102	1048576	20	4563
2026-01-24 09:36:03.11	40.86	47.29	-29.5	-31.1	13.7	7.60e-06	0	44	102	1048576	20	4288
2026-01-24 09:36:04.12	40.31	47.18	-29.6	-31.2	13.6	1.29e-05	0	44	102	1048576	20	4321
2026-01-24 09:36:05.12	39.76	47.07	-29.7	-31.5	13.5	1.29e-05	0	44	102	1048576	20	4425
2026-01-24 09:36:06.12	39.22	46.96	-29.7	-31.5	13.5	5.30e-06	0	44	102	1048576	20	4422
2026-01-24 09:36:07.13	38.68	46.84	-30.1	-32.5	12.8	3.58e-05	0	44	102	1048576	20	4747
2026-01-24 09:36:08.13	38.15	46.73	-30.4	-33.1	12.3	1.56e-04	0	44	102	1048576	20	4957
2026-01-24 09:36:09.13	37.62	46.61	-30.2	-32.7	12.7	1.14e-04	0	44	102	1048576	20	4814
2026-01-24 09:36:10.13	37.09	46.49	-30.0	-32.1	13.1	3.50e-05	0	44	102	1048576	20	4598
2026-01-24 09:36:11.13	36.57	46.36	-29.6	-31.3	13.6	1.06e-05	0	44	102	1048576	20	4353
2026-01-24 09:36:12.14	36.05	46.24	-29.6	-31.2	13.7	1.06e-05	0	44	102	1048576	20	4334
2026-01-24 09:36:13.14	35.54	46.11	-29.4	-30.7	14.0	2.20e-06	0	44	102	1048576	20	4187
2026-01-24 09:36:14.14	35.03	45.98	-29.8	-31.7	13.4	3.80e-06	0	44	102	1048576	20	4497
2026-01-24 09:36:15.14	34.53	45.85	-30.8	-33.8	11.8	2.79e-04	0	44	102	1048576	21	5071
2026-01-24 09:36:16.14	34.03	45.72	-31.0	-33.8	11.4	8.81e-04	0	44	102	1048576	22	4962
2026-01-24 09:36:17.14	33.53	45.58	-30.3	-32.0	12.5	3.40e-04	0	44	102	1048576	22	4363
2026-01-24 09:36:18.15	33.04	45.44	-29.7	-31.3	13.5	1.14e-05	0	43	102	1048576	20	4367
2026-01-24 09:36:19.16	32.54	45.30	-29.4	-30.7	13.9	3.80e-06	0	44	102	1048576	20	4186
2026-01-24 09:36:20.16	32.06	45.16	-29.9	-31.9	13.2	1.29e-05	0	43	102	1048576	20	4547
2026-01-24 09:36:21.17	31.58	45.01	-30.6	-33.3	12.0	2.61e-04	0	44	102	1048576	21	4893
2026-01-24 09:36:22.18	31.10	44.87	-31.5	-35.0	10.6	2.52e-03	0	44	102	1048576	22	5440
2026-01-24 09:36:23.18	30.63	44.72	-31.7	-35.1	10.1	7.34e-03	0	44	102	1048576	23	5358
2026-01-24 09:36:24.18	30.17	44.57	-30.4	-32.2	12.2	8.89e-04	0	43	102	1048576	22	4442
2026-01-24 09:36:25.19	29.70	44.42	-29.2	-30.8	14.1	6.10e-06	0	43	102	1048576	19	4298
2026-01-24 09:36:26.19	29.25	44.27	-28.7	-30.0	14.9	0.00e+00	0	44	102	1048576	18	4183
2026-01-24 09:36:27.20	28.79	44.12	-28.8	-30.2	14.8	7.00e-07	0	44	102	1048576	18	4253
2026-01-24 09:36:28.20	28.34	43.97	-29.4	-31.7	13.9	2.20e-06	0	44	102	1048576	18	4690
2026-01-24 09:36:29.21	27.90	43.81	-30.5	-33.4	12.2	6.71e-05	0	44	102	1048576	20	5054
2026-01-24 09:36:30.21	27.46	43.65	-31.5	-35.1	10.5	1.62e-03	0	44	102	1048576	22	5486
2026-01-24 09:36:31.22	27.02	43.49	-31.7	-35.3	9.8	1.22e-02	0	44	102	1048576	23	5447
2026-01-24 09:36:32.22	26.59	43.34	-30.7	-32.9	11.5	1.82e-03	0	44	102	1048576	22	4662
2026-01-24 09:36:33.22	26.16	43.18	-29.7	-31.5	13.1	3.66e-05	0	44	102	1048576	20	4418
2026-01-24 09:36:34.23	25.74	43.01	-29.4	-30.9	13.6	1.29e-05	0	44	102	1048576	20	4243
2026-01-24 09:36:35.23	25.32	42.85	-29.7	-31.6	13.2	1.37e-05	0	44	102	1048576	20	4470
2026-01-24 09:36:36.23	24.91	42.69	-29.9	-32.1	12.9	4.19e-05	0	43	102	1048576	20	4614
2026-01-24 09:36:37.24	24.50	42.52	-30.2	-32.7	12.5	9.76e-05	0	44	102	1048576	20	4805
2026-01-24 09:36:38.24	24.09	42.36	-30.5	-33.0	12.1	2.12e-04	0	44	102	1048576	21	4790
2026-01-24 09:36:39.25	23.69	42.19	-30.4	-32.8	12.2	2.19e-04	0	44	102	1048576	21	4746
2026-01-24 09:36:40.26	23.29	42.02	-29.9	-31.6	13.0	3.96e-05	0	44	102	1048576	21	4343
2026-01-24 09:36:41.26	22.90	41.86	-29.4	-30.8	13.8	1.06e-05	0	44	102	1048576	20	4232
2026-01-24 09:36:42.27	22.50	41.69	-29.4	-30.9	13.8	3.00e-06	0	44	102	1048576	20	4235
2026-01-24 09:36:43.27	22.12	41.52	-29.8	-31.8	13.2	1.52e-05	0	44	102	1048576	20	4513
2026-01-24 09:36:44.28	21.74	41.35	-30.1	-32.4	12.8	5.26e-05	0	44	102	1048576	20	4725
2026-01-24 09:36:45.28	21.36	41.18	-30.7	-33.4	11.9	2.85e-04	0	44	102	1048576	21	4943
2026-01-24 09:36:46.28	20.99	41.01	-31.3	-34.5	10.9	1.49e-03	0	44	102	1048576	22	5241
2026-01-24 09:36:47.28	20.62	40.83	-31.3	-34.5	10.8	2.97e-03	0	44	102	1048576	22	5245
2026-01-24 09:36:48.29	20.25	40.66	-30.8	-33.4	11.5	1.27e-03	0	44	102	1048576	22	4853
2026-01-24 09:36:49.29	19.89	40.49	-30.4	-32.3	12.3	2.39e-04	0	43	102	1048576	22	4468
2026-01-24 09:36:50.29	19.54	40.32	-30.3	-32.3	12.5	1.17e-04	0	44	102	1048576	21	4582
2026-01-24 09:36:51.29	19.19	40.14	-30.3	-32.5	12.4	1.56e-04	0	44	102	1048576	21	4634
2026-01-24 09:36:52.30	18.83	39.97	-30.1	-31.9	12.8	6.17e-05	0	44	102	1048576	21	4445
2026-01-24 09:36:53.30	18.49	39.80	-30.1	-32.1	12.7	7.55e-05	0	44	102	1048576	21	4493
2026-01-24 09:36:54.31	18.15	39.62	-30.3	-32.5	12.4	1.10e-04	0	43	102	1048576	21	4622
2026-01-24 09:36:55.32	17.81	39.44	-30.7	-33.5	11.7	4.66e-04	0	43	102	1048576	21	4990
2026-01-24 09:36:56.33	17.47	39.27	-30.8	-33.7	11.7	5.56e-04	0	44	102	1048576	21	5056
2026-01-24 09:36:57.33	17.14	39.09	-30.7	-33.5	11.8	5.37e-04	0	44	102	1048576	21	4974
2026-01-24 09:36:58.33	16.81	38.92	-30.5	-33.0	12.1	3.19e-04	0	44	102	1048576	21	4789
2026-01-24 09:36:59.33	16.49	38.74	-30.4	-32.7	12.3	1.69e-04	0	44	102	1048576	21	4689
2026-01-24 09:37:00.33	16.17	38.57	-30.3	-32.5	12.5	1.88e-04	0	44	102	1048576	21	4615
2026-01-24 09:37:01.33	15.85	38.39	-29.9	-31.6	13.0	4.80e-05	0	44	102	1048576	21	4350
2026-01-24 09:37:02.33	15.54	38.22	-30.1	-32.1	12.7	8.01e-05	0	44	102	1048576	21	4497
2026-01-24 09:37:03.33	15.23	38.04	-30.4	-32.7	12.3	1.43e-04	0	44	102	1048576	21	4706
2026-01-24 09:37:04.34	14.92	37.86	-30.6	-33.4	11.9	4.39e-04	0	44	102	1048576	21	4936
2026-01-24 09:37:05.34	14.62	37.69	-30.5	-33.1	12.0	2.87e-04	0	44	102	1048576	21	4828
2026-01-24 09:37:06.34	14.32	37.51	-30.4	-32.9	12.2	2.41e-04	0	44	102	1048576	21	4761
2026-01-24 09:37:07.34	14.03	37.34	-30.5	-33.0	12.1	2.80e-04	0	44	102	1048576	21	4801
2026-01-24 09:37:08.35	13.73	37.16	-30.3	-32.5	12.4	1.93e-04	0	44	102	1048576	21	4640
2026-01-24 09:37:09.36	13.44	36.98	-29.8	-31.3	13.2	3.96e-05	0	44	102	1048576	21	4279
2026-01-24 09:37:10.37	13.15	36.81	-29.3	-31.0	14.0	3.80e-06	0	44	102	1048576	19	4371
2026-01-24 09:37:11.37	12.87	36.63	-28.8	-30.2	14.7	7.00e-07	0	44	102	1048576	18	4262
2026-01-24 09:37:12.38	12.58	36.46	-28.5	-29.6	15.1	0.00e+00	0	44	102	1048576	18	4105
2026-01-24 09:37:13.39	12.30	36.28	-28.7	-30.1	14.8	0.00e+00	0	44	102	1048576	18	4224
2026-01-24 09:37:14.39	12.03	36.11	-28.9	-30.6	14.5	7.00e-07	0	44	102	1048576	18	4365
2026-01-24 09:37:15.40	11.75	35.93	-28.9	-30.6	14.5	1.50e-06	0	44	102	1048576	18	4375
2026-01-24 09:37:16.40	11.49	35.76	-28.8	-30.3	14.7	0.00e+00	0	44	102	1048576	18	4289
2026-01-24 09:37:17.40	11.22	35.58	-28.5	-29.7	15.0	7.00e-07	0	44	102	1048576	18	4111
2026-01-24 09:37:18.40	10.96	35.41	-28.4	-29.4	15.2	0.00e+00	0	44	102	1048576	18	4055
2026-01-24 09:37:19.40	10.70	35.23	-28.3	-29.3	15.2	0.00e+00	0	44	102	1048576	18	4010
2026-01-24 09:37:20.41	10.44	35.06	-28.2	-29.4	15.4	0.00e+00	0	44	102	1048576	17	4140
2026-01-24 09:37:21.41	10.19	34.89	-28.2	-29.5	15.4	0.00e+00	0	44	102	1048576	17	4178
2026-01-24 09:37:22.41	9.93	34.71	-28.2	-29.6	15.3	0.00e+00	0	44	102	1048576	17	4200
2026-01-24 09:37:23.42	9.68	34.54	-28.4	-29.8	15.2	0.00e+00	0	44	102	1048576	17	4274
2026-01-24 09:37:24.42	9.44	34.37	-28.3	-29.8	15.1	0.00e+00	0	44	102	1048576	17	4268
2026-01-24 09:37:25.43	9.19	34.20	-28.4	-29.9	15.1	0.00e+00	0	44	102	1048576	17	4291
2026-01-24 09:37:26.43	8.95	34.02	-28.5	-30.1	15.0	0.00e+00	0	44	102	1048576	17	4334
2026-01-24 09:37:27.43	8.71	33.85	-28.5	-30.2	14.9	0.00e+00	0	44	102	1048576	17	4371
2026-01-24 09:37:28.44	8.47	33.68	-28.7	-30.6	14.7	0.00e+00	0	44	102	1048576	17	4476
2026-01-24 09:37:29.44	8.24	33.51	-28.8	-30.9	14.5	7.00e-07	0	44	102	1048576	17	4587
2026-01-24 09:37:30.45	8.01	33.34	-28.9	-31.0	14.5	7.00e-07	0	44	102	1048576	17	4621
2026-01-24 09:37:31.46	7.78	33.17	-28.8	-30.9	14.5	7.00e-07	0	44	102	1048576	17	4583
2026-01-24 09:37:32.46	7.55	33.00	-28.6	-30.4	14.8	0.00e+00	0	44	102	1048576	17	4425
2026-01-24 09:37:33.47	7.32	32.83	-28.4	-29.9	15.1	0.00e+00	0	44	102	1048576	17	4294
2026-01-24 09:37:34.47	7.10	32.66	-28.3	-29.7	15.2	7.00e-07	0	44	102	1048576	17	4244
2026-01-24 09:37:35.48	6.88	32.49	-28.4	-29.9	15.1	0.00e+00	0	44	102	1048576	17	4291
2026-01-24 09:37:36.48	6.67	32.33	-28.5	-30.1	15.0	0.00e+00	0	44	102	1048576	17	4360
2026-01-24 09:37:37.48	6.45	32.16	-28.6	-30.4	14.8	0.00e+00	0	44	102	1048576	17	4433
2026-01-24 09:37:38.49	6.24	31.99	-28.5	-30.2	14.8	0.00e+00	0	44	102	1048576	17	4386
2026-01-24 09:37:39.49	6.03	31.83	-28.4	-30.0	15.0	0.00e+00	0	44	102	1048576	17	4313
2026-01-24 09:37:40.49	5.82	31.66	-28.4	-30.0	15.0	0.00e+00	0	44	102	1048576	17	4318
2026-01-24 09:37:41.50	5.61	31.50	-28.3	-29.6	15.2	0.00e+00	0	44	102	1048576	17	4223
2026-01-24 09:37:42.50	5.41	31.33	-28.1	-29.2	15.4	0.00e+00	0	44	102	1048576	17	4108
2026-01-24 09:37:43.51	5.20	31.17	-28.0	-29.0	15.5	0.00e+00	0	44	102	1048576	17	4051
2026-01-24 09:37:44.51	5.01	31.01	-28.0	-29.1	15.4	0.00e+00	0	44	102	1048576	17	4072
2026-01-24 09:37:45.52	4.81	30.84	-28.0	-29.2	15.4	0.00e+00	0	44	102	1048576	17	4094
2026-01-24 09:37:46.52	4.61	30.68	-28.0	-29.0	15.5	0.00e+00	0	44	102	1048576	17	4055
2026-01-24 09:37:47.53	4.42	30.52	-28.2	-29.4	15.3	0.00e+00	0	44	102	1048576	17	4167
2026-01-24 09:37:48.54	4.22	30.35	-28.3	-29.7	15.2	0.00e+00	0	44	102	1048576	17	4234
2026-01-24 09:37:49.54	4.03	30.19	-28.3	-29.8	15.1	0.00e+00	0	44	102	1048576	17	4277
2026-01-24 09:37:50.54	3.85	30.03	-28.2	-29.6	15.2	0.00e+00	0	44	102	1048576	17	4213
2026-01-24 09:37:51.54	3.66	29.88	-28.2	-29.5	15.2	0.00e+00	0	44	102	1048576	17	4199
2026-01-24 09:37:52.54	3.48	29.72	-28.2	-29.5	15.3	0.00e+00	0	44	102	1048576	17	4188
2026-01-24 09:37:53.54	3.29	29.56	-28.2	-29.5	15.2	0.00e+00	0	44	102	1048576	17	4192
2026-01-24 09:37:54.54	3.11	29.40	-28.2	-29.6	15.2	0.00e+00	0	43	102	1048576	17	4209
2026-01-24 09:37:55.55	2.93	29.24	-28.2	-29.6	15.2	0.00e+00	0	43	102	1048576	17	4212
2026-01-24 09:37:56.55	2.76	29.09	-28.2	-29.6	15.2	0.00e+00	0	44	102	1048576	17	4218
2026-01-24 09:37:57.55	2.58	28.93	-28.3	-29.7	15.1	0.00e+00	0	44	102	1048576	17	4232
2026-01-24 09:37:58.56	2.41	28.77	-28.1	-29.3	15.3	0.00e+00	0	44	102	1048576	17	4140
2026-01-24 09:37:59.56	2.24	28.62	-27.8	-28.7	15.7	0.00e+00	0	44	102	1048576	17	3971
2026-01-24 09:38:00.57	2.06	28.46	-27.8	-29.0	15.8	0.00e+00	0	43	102	1048576	16	4162
2026-01-24 09:38:01.57	1.90	28.31	-27.7	-28.9	15.8	0.00e+00	0	44	102	1048576	16	4129
2026-01-24 09:38:02.57	1.73	28.16	-27.7	-29.0	15.8	0.00e+00	0	44	102	1048576	16	4145
2026-01-24 09:38:03.58	1.56	28.00	-27.6	-28.7	15.9	0.00e+00	0	44	102	1048576	16	4082
2026-01-24 09:38:04.59	1.40	27.85	-27.6	-28.8	15.9	0.00e+00	0	44	102	1048576	16	4093
2026-01-24 09:38:05.59	1.24	27.70	-27.6	-28.8	15.9	0.00e+00	0	44	102	1048576	16	4094
2026-01-24 09:38:06.60	1.07	27.55	-27.7	-28.9	15.8	0.00e+00	0	44	102	1048576	16	4130
2026-01-24 09:38:07.60	0.92	27.40	-27.7	-29.0	15.8	0.00e+00	0	44	102	1048576	16	4149
2026-01-24 09:38:08.60	0.76	27.25	-27.8	-29.0	15.7	0.00e+00	0	44	102	1048576	16	4171
2026-01-24 09:38:09.60	0.60	27.10	-27.7	-28.9	15.8	0.00e+00	0	44	102	1048576	16	4145
2026-01-24 09:38:10.61	0.45	26.95	-27.7	-28.9	15.8	0.00e+00	0	44	102	1048576	16	4119
2026-01-24 09:38:11.61	0.30	26.80	-27.7	-28.8	15.9	0.00e+00	0	44	102	1048576	16	4111
2026-01-24 09:38:12.61	0.14	26.65	-27.6	-28.6	16.0	0.00e+00	0	44	102	1048576	16	4052
2026-01-24 09:38:13.61	359.99	26.51	-27.6	-28.7	15.9	0.00e+00	0	44	102	1048576	16	4068
2026-01-24 09:38:14.62	359.84	26.36	-27.4	-28.3	16.1	0.00e+00	0	44	102	1048576	16	3982
2026-01-24 09:38:15.63	359.70	26.21	-27.1	-28.1	16.3	0.00e+00	0	44	102	1048576	15	4036
2026-01-24 09:38:16.63	359.55	26.07	-27.1	-28.0	16.4	0.00e+00	0	43	102	1048576	15	4008
2026-01-24 09:38:17.64	359.41	25.92	-27.0	-27.9	16.4	0.00e+00	0	44	102	1048576	15	3971
2026-01-24 09:38:18.64	359.26	25.78	-26.9	-27.7	16.5	0.00e+00	0	44	102	1048576	15	3937
2026-01-24 09:38:19.64	359.12	25.63	-27.1	-28.1	16.3	0.00e+00	0	44	102	1048576	15	4029
2026-01-24 09:38:20.65	358.98	25.49	-27.0	-27.9	16.4	0.00e+00	0	44	102	1048576	15	3986
2026-01-24 09:38:21.65	358.84	25.35	-27.0	-27.9	16.4	0.00e+00	0	44	102	1048576	15	3994
2026-01-24 09:38:22.66	358.70	25.21	-27.1	-28.2	16.3	0.00e+00	0	44	102	1048576	15	4061
2026-01-24 09:38:23.66	358.56	25.06	-27.2	-28.3	16.2	0.00e+00	0	44	102	1048576	15	4075
2026-01-24 09:38:24.66	358.43	24.92	-27.3	-28.5	16.1	0.00e+00	0	44	102	1048576	15	4152
2026-01-24 09:38:25.66	358.30	24.78	-27.4	-28.8	15.9	0.00e+00	0	44	102	1048576	15	4225
2026-01-24 09:38:26.66	358.16	24.64	-27.6	-29.2	15.7	0.00e+00	0	44	102	1048576	15	4330
2026-01-24 09:38:27.67	358.03	24.50	-27.6	-29.2	15.7	0.00e+00	0	44	102	1048576	15	4339
2026-01-24 09:38:28.67	357.90	24.37	-27.7	-29.6	15.5	0.00e+00	0	44	102	1048576	15	4440
2026-01-24 09:38:29.67	357.77	24.23	-27.8	-29.7	15.4	0.00e+00	0	44	102	1048576	15	4475
2026-01-24 09:38:30.67	357.64	24.09	-27.9	-29.9	15.3	0.00e+00	0	44	102	1048576	15	4544
2026-01-24 09:38:31.68	357.51	23.95	-27.9	-29.9	15.3	0.00e+00	0	44	102	1048576	15	4536
2026-01-24 09:38:32.69	357.39	23.82	-27.9	-30.0	15.2	0.00e+00	0	44	102	1048576	15	4559
2026-01-24 09:38:33.69	357.26	23.68	-28.0	-30.1	15.2	0.00e+00	0	44	102	1048576	15	4585
2026-01-24 09:38:34.69	357.14	23.55	-28.2	-30.0	15.1	7.00e-07	0	44	102	1048576	16	4431
2026-01-24 09:38:35.70	357.02	23.41	-28.1	-29.9	15.2	0.00e+00	0	44	102	1048576	16	4423
2026-01-24 09:38:36.71	356.89	23.28	-28.1	-29.9	15.1	0.00e+00	0	44	102	1048576	16	4425
2026-01-24 09:38:37.71	356.77	23.14	-28.1	-29.9	15.2	0.00e+00	0	44	102	1048576	16	4406
2026-01-24 09:38:38.71	356.65	23.01	-28.1	-29.8	15.1	0.00e+00	0	44	102	1048576	16	4394
2026-01-24 09:38:39.72	356.53	22.88	-28.1	-29.7	15.2	7.00e-07	0	44	102	1048576	16	4375
2026-01-24 09:38:40.73	356.42	22.75	-28.0	-29.5	15.4	0.00e+00	0	43	102	1048576	16	4291
2026-01-24 09:38:41.73	356.30	22.62	-28.0	-29.5	15.5	0.00e+00	0	44	102	1048576	16	4295
2026-01-24 09:38:42.73	356.18	22.48	-27.8	-29.2	15.6	0.00e+00	0	44	102	1048576	16	4211
2026-01-24 09:38:43.73	356.07	22.36	-27.7	-29.0	15.7	0.00e+00	0	44	102	1048576	16	4150
2026-01-24 09:38:44.74	355.96	22.22	-27.8	-29.0	15.7	0.00e+00	0	44	102	1048576	16	4167
2026-01-24 09:38:45.74	355.84	22.10	-27.7	-28.8	15.8	0.00e+00	0	43	102	1048576	16	4110
2026-01-24 09:38:46.75	355.73	21.97	-27.6	-28.7	15.8	0.00e+00	0	44	102	1048576	16	4081
2026-01-24 09:38:47.75	355.62	21.84	-27.6	-28.7	15.9	0.00e+00	0	44	102	1048576	16	4071
2026-01-24 09:38:48.76	355.51	21.71	-27.7	-28.9	15.7	0.00e+00	0	44	102	1048576	16	4137
2026-01-24 09:38:49.76	355.40	21.58	-27.7	-28.8	15.8	0.00e+00	0	44	102	1048576	16	4111
2026-01-24 09:38:50.77	355.29	21.46	-27.6	-28.7	15.8	0.00e+00	0	44	102	1048576	16	4083
2026-01-24 09:38:51.77	355.19	21.33	-27.7	-28.9	15.7	0.00e+00	0	44	102	1048576	16	4143
2026-01-24 09:38:52.78	355.08	21.20	-27.7	-28.8	15.7	0.00e+00	0	44	102	1048576	16	4113
2026-01-24 09:38:53.79	354.97	21.08	-27.6	-28.8	15.8	0.00e+00	0	44	102	1048576	16	4102
2026-01-24 09:38:54.79	354.87	20.96	-27.6	-28.8	15.8	0.00e+00	0	44	102	1048576	16	4105
2026-01-24 09:38:55.80	354.77	20.83	-27.7	-29.0	15.6	0.00e+00	0	44	102	1048576	16	4170
2026-01-24 09:38:56.80	354.66	20.71	-28.0	-29.5	15.4	0.00e+00	0	44	102	1048576	16	4302
2026-01-24 09:38:57.79	354.56	20.59	-27.8	-29.2	15.5	0.00e+00	0	44	102	1048576	16	4228
2026-01-24 09:38:58.80	354.46	20.46	-27.8	-29.1	15.6	0.00e+00	0	43	102	1048576	16	4186
2026-01-24 09:38:59.79	354.36	20.34	-27.8	-29.1	15.5	0.00e+00	0	44	102	1048576	16	4197
2026-01-24 09:39:00.80	354.26	20.22	-27.7	-29.0	15.6	0.00e+00	0	44	102	1048576	16	4161
2026-01-24 09:39:01.80	354.16	20.10	-27.8	-29.2	15.5	0.00e+00	0	44	102	1048576	16	4213
2026-01-24 09:39:02.80	354.07	19.98	-27.7	-29.0	15.6	0.00e+00	0	44	102	1048576	16	4173
2026-01-24 09:39:03.81	353.97	19.86	-27.8	-29.2	15.4	0.00e+00	0	44	102	1048576	16	4227
2026-01-24 09:39:04.81	353.87	19.74	-27.7	-28.9	15.6	0.00e+00	0	44	102	1048576	16	4146
2026-01-24 09:39:05.81	353.78	19.62	-27.6	-28.8	15.7	0.00e+00	0	44	102	1048576	16	4119
2026-01-24 09:39:06.82	353.68	19.50	-27.6	-28.7	15.7	0.00e+00	0	44	102	1048576	16	4084
2026-01-24 09:39:07.83	353.59	19.38	-27.6	-28.7	15.7	0.00e+00	0	44	102	1048576	16	4075
2026-01-24 09:39:08.83	353.50	19.27	-27.6	-28.7	15.7	0.00e+00	0	44	102	1048576	16	4096
2026-01-24 09:39:09.83	353.40	19.15	-27.6	-28.8	15.6	0.00e+00	0	44	102	1048576	16	4118
2026-01-24 09:39:10.83	353.31	19.03	-27.5	-28.5	15.8	0.00e+00	0	44	102	1048576	16	4045
2026-01-24 09:39:11.84	353.22	18.92	-27.5	-28.5	15.8	0.00e+00	0	44	102	1048576	16	4036
2026-01-24 09:39:12.85	353.13	18.80	-27.5	-28.5	15.8	0.00e+00	0	44	102	1048576	16	4038
2026-01-24 09:39:13.85	353.04	18.69	-27.6	-28.6	15.7	0.00e+00	0	44	102	1048576	16	4066
2026-01-24 09:39:14.86	352.95	18.57	-27.5	-28.5	15.8	0.00e+00	0	44	102	1048576	16	4036
2026-01-24 09:39:15.86	352.87	18.46	-27.5	-28.4	15.9	0.00e+00	0	44	102	1048576	16	4006
2026-01-24 09:39:16.87	352.78	18.34	-27.6	-28.6	15.7	0.00e+00	0	44	102	1048576	16	4067
2026-01-24 09:39:17.87	352.69	18.23	-27.6	-28.8	15.7	0.00e+00	0	44	102	1048576	16	4104
2026-01-24 09:39:18.87	352.61	18.12	-27.5	-28.5	15.8	0.00e+00	0	44	102	1048576	16	4046
2026-01-24 09:39:19.88	352.52	18.00	-27.5	-28.6	15.8	0.00e+00	0	44	102	1048576	16	4067
2026-01-24 09:39:20.87	352.44	17.89	-27.6	-28.7	15.7	0.00e+00	0	43	102	1048576	16	4100
2026-01-24 09:39:21.88	352.35	17.78	-27.7	-28.9	15.5	0.00e+00	0	43	102	1048576	16	4148
2026-01-24 09:39:22.89	352.27	17.67	-27.8	-29.1	15.5	0.00e+00	0	44	102	1048576	16	4190
2026-01-24 09:39:23.89	352.18	17.56	-27.8	-29.2	15.4	0.00e+00	0	44	102	1048576	16	4226
2026-01-24 09:39:24.90	352.10	17.45	-28.0	-29.7	15.1	0.00e+00	0	44	102	1048576	16	4371
2026-01-24 09:39:25.90	352.02	17.34	-28.0	-29.6	15.1	0.00e+00	0	44	102	1048576	16	4347
2026-01-24 09:39:26.91	351.94	17.23	-28.0	-29.7	15.1	0.00e+00	0	44	102	1048576	16	4367
2026-01-24 09:39:27.91	351.86	17.12	-28.2	-30.0	14.9	0.00e+00	0	44	102	1048576	16	4462
2026-01-24 09:39:28.92	351.78	17.01	-28.2	-30.0	14.9	0.00e+00	0	44	102	1048576	16	4449
2026-01-24 09:39:29.93	351.70	16.90	-28.2	-30.2	14.8	0.00e+00	0	44	102	1048576	16	4503
2026-01-24 09:39:30.93	351.62	16.79	-28.3	-30.4	14.7	0.00e+00	0	44	102	1048576	16	4560
2026-01-24 09:39:31.94	351.54	16.69	-28.3	-30.4	14.7	0.00e+00	0	44	102	1048576	16	4566
2026-01-24 09:39:32.94	351.47	16.58	-28.4	-30.5	14.6	0.00e+00	0	43	102	1048576	16	4608
2026-01-24 09:39:33.95	351.39	16.47	-28.4	-30.6	14.6	0.00e+00	0	44	102	1048576	16	4622
2026-01-24 09:39:34.96	351.31	16.37	-28.5	-30.4	14.4	7.00e-07	0	44	102	1048576	17	4446
2026-01-24 09:39:35.96	351.24	16.26	-28.4	-30.2	14.5	7.00e-07	0	44	102	1048576	17	4396
2026-01-24 09:39:36.97	351.16	16.15	-28.7	-30.7	14.2	7.00e-07	0	44	102	1048576	17	4549
2026-01-24 09:39:37.97	351.09	16.05	-28.5	-30.4	14.4	7.00e-07	0	44	102	1048576	17	4446
2026-01-24 09:39:38.98	351.01	15.94	-28.4	-30.2	14.5	0.00e+00	0	44	102	1048576	17	4407
2026-01-24 09:39:39.99	350.94	15.84	-28.5	-30.3	14.4	7.00e-07	0	44	102	1048576	17	4440
2026-01-24 09:39:41.00	350.87	15.74	-28.4	-30.1	14.5	7.00e-07	0	44	102	1048576	17	4380
2026-01-24 09:39:42.00	350.79	15.63	-28.5	-30.4	14.3	7.00e-07	0	44	102	1048576	17	4479
2026-01-24 09:39:43.01	350.72	15.53	-28.5	-30.3	14.4	0.00e+00	0	44	102	1048576	17	4442
2026-01-24 09:39:44.01	350.65	15.43	-28.4	-30.1	14.5	0.00e+00	0	44	102	1048576	17	4372
2026-01-24 09:39:45.01	350.58	15.32	-28.4	-30.2	14.5	7.00e-07	0	44	102	1048576	17	4403
2026-01-24 09:39:46.02	350.51	15.22	-28.6	-30.5	14.3	7.00e-07	0	44	102	1048576	17	4504
2026-01-24 09:39:47.02	350.44	15.12	-28.4	-30.1	14.5	7.00e-07	0	44	102	1048576	17	4385
2026-01-24 09:39:48.03	350.37	15.02	-28.4	-30.0	14.5	7.00e-07	0	44	102	1048576	17	4355
2026-01-24 09:39:49.04	350.30	14.92	-28.3	-30.0	14.6	7.00e-07	0	44	102	1048576	17	4343
2026-01-24 09:39:50.04	350.23	14.82	-28.5	-30.2	14.4	2.20e-06	0	44	102	1048576	17	4419
2026-01-24 09:39:51.05	350.16	14.72	-28.3	-30.0	14.6	7.00e-07	0	44	102	1048576	17	4340
2026-01-24 09:39:52.05	350.10	14.62	-28.4	-30.0	14.5	7.00e-07	0	44	102	1048576	17	4354
2026-01-24 09:39:53.05	350.03	14.52	-28.3	-29.9	14.6	0.00e+00	0	44	102	1048576	17	4323
2026-01-24 09:39:54.06	349.96	14.42	-28.4	-30.1	14.4	0.00e+00	0	44	102	1048576	17	4379
2026-01-24 09:39:55.06	349.90	14.32	-28.3	-29.8	14.6	0.00e+00	0	44	102	1048576	17	4293
2026-01-24 09:39:56.07	349.83	14.22	-28.3	-29.8	14.6	1.50e-06	0	44	102	1048576	17	4291
2026-01-24 09:39:57.07	349.77	14.13	-28.3	-29.9	14.5	1.50e-06	0	44	102	1048576	17	4332
2026-01-24 09:39:58.07	349.70	14.03	-28.4	-30.1	14.4	1.50e-06	0	44	102	1048576	17	4395
2026-01-24 09:39:59.07	349.64	13.93	-28.3	-29.8	14.6	0.00e+00	0	44	102	1048576	17	4295
2026-01-24 09:40:00.08	349.57	13.84	-28.3	-29.8	14.6	7.00e-07	0	44	102	1048576	17	4288
2026-01-24 09:40:01.07	349.51	13.74	-28.3	-29.8	14.6	7.00e-07	0	43	102	1048576	17	4293
2026-01-24 09:40:02.07	349.45	13.65	-28.4	-30.1	14.4	0.00e+00	0	44	102	1048576	17	4373
2026-01-24 09:40:03.08	349.39	13.55	-28.3	-29.8	14.6	0.00e+00	0	44	102	1048576	17	4285
2026-01-24 09:40:04.09	349.32	13.45	-28.4	-30.2	14.4	0.00e+00	0	44	102	1048576	17	4402
2026-01-24 09:40:05.09	349.26	13.36	-28.3	-29.8	14.5	0.00e+00	0	44	102	1048576	17	4302
2026-01-24 09:40:06.10	349.20	13.26	-28.3	-29.9	14.5	7.00e-07	0	44	102	1048576	17	4314
2026-01-24 09:40:07.10	349.14	13.17	-28.3	-29.9	14.5	0.00e+00	0	44	102	1048576	17	4325
2026-01-24 09:40:08.11	349.08	13.07	-28.4	-30.1	14.4	7.00e-07	0	44	102	1048576	17	4382
2026-01-24 09:40:09.11	349.02	12.98	-28.3	-29.9	14.5	7.00e-07	0	43	102	1048576	17	4338
2026-01-24 09:40:10.11	348.96	12.89	-28.3	-29.8	14.5	7.00e-07	0	44	102	1048576	17	4296
2026-01-24 09:40:11.11	348.90	12.80	-28.3	-29.9	14.5	7.00e-07	0	44	102	1048576	17	4319
2026-01-24 09:40:12.12	348.84	12.70	-28.3	-29.8	14.5	0.00e+00	0	44	102	1048576	17	4296
2026-01-24 09:40:13.12	348.78	12.61	-28.3	-29.9	14.4	0.00e+00	0	44	102	1048576	17	4331
2026-01-24 09:40:14.13	348.73	12.52	-28.5	-30.3	14.2	7.00e-07	0	44	102	1048576	17	4449
2026-01-24 09:40:15.13	348.67	12.43	-28.4	-30.2	14.3	1.50e-06	0	44	102	1048576	17	4408
2026-01-24 09:40:16.14	348.61	12.33	-28.3	-30.0	14.4	7.00e-07	0	44	102	1048576	17	4356
2026-01-24 09:40:17.14	348.56	12.24	-28.5	-30.3	14.2	1.50e-06	0	44	102	1048576	17	4441
2026-01-24 09:40:18.15	348.50	12.15	-28.4	-30.2	14.2	1.50e-06	0	44	102	1048576	17	4410
2026-01-24 09:40:19.15	348.44	12.06	-28.6	-30.5	14.0	7.00e-07	0	44	102	1048576	17	4505
2026-01-24 09:40:20.16	348.39	11.97	-28.4	-30.2	14.2	1.50e-06	0	44	102	1048576	17	4408
2026-01-24 09:40:21.16	348.33	11.88	-28.5	-30.3	14.2	4.50e-06	0	44	102	1048576	17	4443
2026-01-24 09:40:22.17	348.28	11.79	-28.5	-30.4	14.1	7.00e-07	0	44	102	1048576	17	4469
2026-01-24 09:40:23.16	348.22	11.70	-28.6	-30.7	13.9	3.80e-06	0	44	102	1048576	17	4570
2026-01-24 09:40:24.17	348.17	11.61	-28.5	-30.5	14.0	1.50e-06	0	44	102	1048576	17	4510
2026-01-24 09:40:25.17	348.11	11.53	-28.6	-30.6	14.0	3.00e-06	0	44	102	1048576	17	4538
2026-01-24 09:40:26.17	348.06	11.44	-28.6	-30.6	14.0	7.00e-07	0	44	102	1048576	17	4527
2026-01-24 09:40:27.18	348.01	11.35	-28.6	-30.7	13.9	5.30e-06	0	44	102	1048576	17	4567
2026-01-24 09:40:28.18	347.95	11.26	-28.6	-30.5	14.0	7.00e-07	0	43	102	1048576	17	4521
2026-01-24 09:40:29.19	347.90	11.17	-28.7	-30.8	13.8	4.50e-06	0	44	102	1048576	17	4606
2026-01-24 09:40:30.19	347.85	11.09	-28.7	-30.9	13.7	6.10e-06	0	44	102	1048576	17	4624
2026-01-24 09:40:31.20	347.80	11.00	-28.9	-31.3	13.4	1.75e-05	0	44	102	1048576	17	4777
2026-01-24 09:40:32.21	347.75	10.91	-28.7	-30.9	13.7	1.29e-05	0	43	102	1048576	17	4648
2026-01-24 09:40:33.21	347.69	10.83	-28.6	-30.7	13.9	5.30e-06	0	44	102	1048576	17	4566
2026-01-24 09:40:34.22	347.64	10.74	-28.7	-30.9	13.7	6.80e-06	0	44	102	1048576	17	4629
2026-01-24 09:40:35.23	347.59	10.65	-28.7	-30.9	13.7	6.10e-06	0	44	102	1048576	17	4637
2026-01-24 09:40:36.23	347.54	10.57	-28.8	-31.1	13.6	1.06e-05	0	44	102	1048576	17	4689
2026-01-24 09:40:37.23	347.49	10.48	-28.7	-30.9	13.7	6.80e-06	0	44	102	1048576	17	4630
2026-01-24 09:40:38.23	347.44	10.40	-28.9	-31.4	13.4	1.06e-05	0	44	102	1048576	17	4786
2026-01-24 09:40:39.24	347.39	10.31	-28.8	-31.1	13.6	8.30e-06	0	44	102	1048576	17	4708
2026-01-24 09:40:40.24	347.35	10.23	-28.7	-30.8	13.7	7.60e-06	0	44	102	1048576	17	4591
2026-01-24 09:40:41.25	347.30	10.14	-28.7	-30.9	13.6	7.60e-06	0	44	102	1048576	17	4650
2026-01-24 09:40:42.26	347.25	10.06	-28.7	-31.0	13.6	7.60e-06	0	44	102	1048576	17	4658
2026-01-24 09:40:43.26	347.20	9.98	-28.8	-31.2	13.5	1.06e-05	0	44	102	1048576	17	4729
2026-01-24 09:40:44.26	347.15	9.89	-28.8	-31.0	13.6	3.00e-06	0	44	102	1048576	17	4689
2026-01-24 09:40:45.27	347.10	9.81	-28.7	-30.9	13.6	6.80e-06	0	43	102	1048576	17	4636
2026-01-24 09:40:46.28	347.06	9.73	-28.8	-31.1	13.5	1.06e-05	0	43	102	1048576	17	4722
2026-01-24 09:40:47.28	347.01	9.64	-28.8	-31.2	13.4	1.52e-05	0	44	102	1048576	17	4736
2026-01-24 09:40:48.29	346.96	9.56	-28.8	-31.2	13.4	1.29e-05	0	44	102	1048576	17	4738
2026-01-24 09:40:49.29	346.92	9.48	-28.9	-31.4	13.3	1.22e-05	0	44	102	1048576	17	4789
2026-01-24 09:40:50.30	346.87	9.40	-28.9	-31.4	13.3	1.52e-05	0	44	102	1048576	17	4796
2026-01-24 09:40:51.29	346.83	9.32	-28.9	-31.3	13.3	2.05e-05	0	44	102	1048576	17	4786
2026-01-24 09:40:52.30	346.78	9.23	-28.9	-31.4	13.2	2.21e-05	0	44	102	1048576	17	4817
2026-01-24 09:40:53.30	346.73	9.15	-28.9	-31.5	13.2	2.28e-05	0	44	102	1048576	17	4845
2026-01-24 09:40:54.31	346.69	9.07	-28.9	-31.6	13.2	3.12e-05	0	44	102	1048576	17	4860
2026-01-24 09:40:55.32	346.64	8.99	-29.1	-31.4	13.0	3.05e-05	0	44	102	1048576	18	4705
2026-01-24 09:40:56.32	346.60	8.91	-29.1	-31.5	12.9	7.40e-05	0	44	102	1048576	18	4733
2026-01-24 09:40:57.33	346.56	8.83	-29.0	-31.2	13.1	3.96e-05	0	44	102	1048576	18	4645
2026-01-24 09:40:58.33	346.51	8.75	-29.1	-31.3	13.1	3.35e-05	0	44	102	1048576	18	4662
2026-01-24 09:40:59.34	346.47	8.67	-29.1	-31.5	12.9	5.64e-05	0	43	102	1048576	18	4723
2026-01-24 09:41:00.34	346.42	8.59	-29.0	-31.3	13.0	3.58e-05	0	43	102	1048576	18	4655
2026-01-24 09:41:01.35	346.38	8.51	-29.0	-31.2	13.1	2.51e-05	0	44	102	1048576	18	4635
2026-01-24 09:41:02.36	346.34	8.43	-29.1	-31.4	12.9	4.50e-05	0	44	102	1048576	18	4703
2026-01-24 09:41:03.36	346.30	8.35	-29.1	-31.6	12.8	5.18e-05	0	43	102	1048576	18	4758
2026-01-24 09:41:04.37	346.25	8.27	-29.2	-31.8	12.6	9.76e-05	0	43	102	1048576	18	4837
2026-01-24 09:41:05.37	346.21	8.20	-29.2	-31.7	12.7	8.23e-05	0	44	102	1048576	18	4799
2026-01-24 09:41:06.38	346.17	8.12	-29.3	-32.0	12.5	1.17e-04	0	44	102	1048576	18	4901
2026-01-24 09:41:07.38	346.13	8.04	-29.2	-31.7	12.7	8.62e-05	0	44	102	1048576	18	4794
2026-01-24 09:41:08.39	346.09	7.96	-29.3	-31.9	12.6	9.84e-05	0	44	102	1048576	18	4867
2026-01-24 09:41:09.39	346.05	7.89	-29.3	-32.0	12.5	1.46e-04	0	43	102	1048576	18	4909
2026-01-24 09:41:10.39	346.00	7.81	-29.3	-32.0	12.5	1.40e-04	0	43	102	1048576	18	4900
2026-01-24 09:41:11.39	345.96	7.73	-29.4	-32.2	12.3	1.62e-04	0	44	102	1048576	18	4976
2026-01-24 09:41:12.39	345.92	7.66	-29.4	-32.3	12.2	1.72e-04	0	44	102	1048576	18	5019
