passes_logs/2026/01/24/R2M6_AANII_01/R2M6_AANII_01__20260124_024409_FENGYUN_3D_rec.log

#Pass ID: 20260124_024409_FENGYUN 3D
#Satellite: FENGYUN 3D
#Configuration: FENGYUN 3D
#almurnet v.1.7.20240730
#Start time: 2026-01-24 02:44:11

#Version: 2.2.20231116
#Station: R2M6_AANII_01
#Location: 30.233357 lon 59.946436 lat
#TLE: 1 43010U 17072A   26022.96745493  .00000490  00000+0  25355-3 0  9999
#TLE: 2 43010  98.9955 354.9072 0002484  95.6139 264.5320 14.19700039424383

#Time	Az	El	Level	Level2	SNR	BER	BlckErr	Temp	State	Recorded	gain1	gain2
2026-01-24 02:44:11.13	17.17	7.15	-30.8	-34.9	5.1	8.00e-01	0	41	0	0	21	5788
2026-01-24 02:44:12.14	17.15	7.23	-30.9	-34.6	5.1	8.03e-01	0	41	104	0	22	5557
2026-01-24 02:44:13.14	17.14	7.31	-31.1	-35.2	7.8	1.01e-01	0	42	0	0	22	5799
2026-01-24 02:44:14.14	17.13	7.38	-30.6	-34.4	8.7	5.40e-02	0	41	102	1048576	21	5529
2026-01-24 02:44:15.14	17.12	7.46	-30.3	-33.3	9.5	2.57e-02	0	42	102	1048576	21	5092
2026-01-24 02:44:16.15	17.11	7.54	-29.9	-32.8	10.2	1.04e-02	0	42	102	1048576	20	5000
2026-01-24 02:44:17.15	17.09	7.62	-29.7	-32.6	10.7	5.53e-03	0	42	102	1048576	19	5042
2026-01-24 02:44:18.16	17.08	7.70	-29.4	-31.7	11.3	1.88e-03	0	42	102	1048576	19	4728
2026-01-24 02:44:19.16	17.07	7.78	-29.1	-31.5	11.9	1.73e-03	0	42	102	1048576	18	4745
2026-01-24 02:44:20.17	17.06	7.86	-29.0	-31.2	12.1	3.88e-04	0	42	102	1048576	18	4653
2026-01-24 02:44:21.17	17.04	7.94	-28.9	-31.0	12.2	3.03e-04	0	42	102	1048576	18	4589
2026-01-24 02:44:22.18	17.03	8.02	-28.9	-31.4	12.2	1.39e-03	0	42	102	1048576	17	4846
2026-01-24 02:44:23.18	17.02	8.10	-28.7	-31.1	12.4	2.67e-04	0	42	102	1048576	17	4733
2026-01-24 02:44:24.18	17.00	8.18	-28.5	-30.6	12.7	1.77e-04	0	42	102	1048576	17	4574
2026-01-24 02:44:25.18	16.99	8.26	-28.2	-30.4	13.2	4.46e-05	0	42	102	1048576	16	4610
2026-01-24 02:44:26.19	16.98	8.34	-28.0	-30.0	13.4	9.21e-04	0	42	102	1048576	16	4491
2026-01-24 02:44:27.19	16.97	8.42	-27.8	-29.3	13.8	1.37e-05	0	42	102	1048576	16	4304
2026-01-24 02:44:28.20	16.95	8.50	-27.5	-29.2	14.0	3.40e-06	0	42	102	1048576	15	4388
2026-01-24 02:44:29.21	16.94	8.58	-27.4	-29.4	14.2	3.40e-06	0	42	102	1048576	14	4575
2026-01-24 02:44:30.22	16.92	8.67	-27.4	-29.5	14.1	8.00e-06	0	42	102	1048576	14	4577
2026-01-24 02:44:31.22	16.91	8.75	-27.3	-29.4	14.2	2.20e-06	0	42	102	1048576	14	4552
2026-01-24 02:44:32.21	16.90	8.83	-27.5	-29.6	14.0	2.20e-06	0	42	102	1048576	14	4630
2026-01-24 02:44:33.21	16.88	8.91	-27.4	-29.5	14.1	8.00e-06	0	42	102	1048576	14	4593
2026-01-24 02:44:34.22	16.87	9.00	-27.3	-29.2	14.3	2.20e-06	0	42	102	1048576	14	4491
2026-01-24 02:44:35.22	16.86	9.08	-27.2	-28.9	14.5	0.00e+00	0	42	102	1048576	14	4426
2026-01-24 02:44:36.23	16.84	9.16	-27.2	-29.0	14.5	3.40e-06	0	42	102	1048576	14	4438
2026-01-24 02:44:37.24	16.83	9.25	-27.3	-29.2	14.4	3.40e-06	0	42	102	1048576	14	4494
2026-01-24 02:44:38.24	16.81	9.33	-27.0	-28.5	14.8	0.00e+00	0	42	102	1048576	14	4304
2026-01-24 02:44:39.25	16.80	9.42	-27.2	-29.0	14.5	0.00e+00	0	42	102	1048576	14	4438
2026-01-24 02:44:40.26	16.78	9.50	-27.3	-29.3	14.3	2.20e-06	0	42	102	1048576	14	4524
2026-01-24 02:44:41.26	16.77	9.59	-27.2	-29.0	14.5	0.00e+00	0	42	102	1048576	14	4443
2026-01-24 02:44:42.26	16.75	9.67	-27.1	-28.7	14.6	0.00e+00	0	43	102	1048576	14	4365
2026-01-24 02:44:43.26	16.74	9.76	-26.9	-28.3	14.9	0.00e+00	0	43	102	1048576	14	4247
2026-01-24 02:44:44.26	16.73	9.84	-26.9	-28.8	14.9	0.00e+00	0	43	102	1048576	13	4486
2026-01-24 02:44:45.26	16.71	9.93	-26.8	-28.7	14.9	0.00e+00	0	43	102	1048576	13	4475
2026-01-24 02:44:46.26	16.69	10.01	-26.7	-28.4	15.1	0.00e+00	0	43	102	1048576	13	4373
2026-01-24 02:44:47.26	16.68	10.10	-26.7	-28.5	15.1	0.00e+00	0	43	102	1048576	13	4402
2026-01-24 02:44:48.27	16.66	10.19	-26.8	-28.7	14.9	0.00e+00	0	43	102	1048576	13	4477
2026-01-24 02:44:49.27	16.65	10.28	-26.7	-28.3	15.2	0.00e+00	0	43	102	1048576	13	4365
2026-01-24 02:44:50.27	16.63	10.36	-26.6	-28.1	15.3	0.00e+00	0	43	102	1048576	13	4302
2026-01-24 02:44:51.28	16.62	10.45	-26.7	-28.4	15.2	0.00e+00	0	43	102	1048576	13	4368
2026-01-24 02:44:52.28	16.60	10.54	-26.5	-28.0	15.4	0.00e+00	0	43	102	1048576	13	4282
2026-01-24 02:44:53.29	16.58	10.63	-26.6	-28.2	15.3	0.00e+00	0	43	102	1048576	13	4334
2026-01-24 02:44:54.29	16.57	10.72	-26.7	-28.3	15.2	0.00e+00	0	43	102	1048576	13	4364
2026-01-24 02:44:55.29	16.55	10.81	-26.6	-28.1	15.3	0.00e+00	0	43	102	1048576	13	4301
2026-01-24 02:44:56.30	16.54	10.90	-26.5	-27.9	15.5	0.00e+00	0	43	102	1048576	13	4249
2026-01-24 02:44:57.30	16.52	10.99	-26.6	-28.1	15.4	0.00e+00	0	43	102	1048576	13	4293
2026-01-24 02:44:58.31	16.50	11.08	-26.5	-28.0	15.4	0.00e+00	0	43	102	1048576	13	4268
2026-01-24 02:44:59.31	16.49	11.17	-26.5	-28.0	15.4	0.00e+00	0	43	102	1048576	13	4282
2026-01-24 02:45:00.32	16.47	11.26	-26.5	-27.9	15.5	0.00e+00	0	43	102	1048576	13	4245
2026-01-24 02:45:01.32	16.45	11.35	-26.5	-27.9	15.5	0.00e+00	0	43	102	1048576	13	4237
2026-01-24 02:45:02.32	16.43	11.44	-26.4	-28.2	15.6	0.00e+00	0	43	102	1048576	12	4433
2026-01-24 02:45:03.33	16.42	11.53	-26.6	-28.1	15.4	0.00e+00	0	43	102	1048576	13	4290
2026-01-24 02:45:04.33	16.40	11.63	-26.4	-27.7	15.6	0.00e+00	0	43	102	1048576	13	4197
2026-01-24 02:45:05.33	16.38	11.72	-26.4	-28.3	15.6	0.00e+00	0	43	102	1048576	12	4447
2026-01-24 02:45:06.34	16.36	11.81	-26.4	-28.3	15.6	0.00e+00	0	43	102	1048576	12	4455
2026-01-24 02:45:07.34	16.35	11.91	-26.4	-28.3	15.6	0.00e+00	0	43	102	1048576	12	4453
2026-01-24 02:45:08.34	16.33	12.00	-26.3	-28.1	15.7	0.00e+00	0	43	102	1048576	12	4397
2026-01-24 02:45:09.35	16.31	12.09	-26.4	-28.1	15.7	0.00e+00	0	43	102	1048576	12	4413
2026-01-24 02:45:10.35	16.29	12.19	-25.6	-27.3	15.6	0.00e+00	0	43	102	1048576	12	4405
2026-01-24 02:45:11.35	16.27	12.28	-26.4	-28.3	15.6	0.00e+00	0	43	102	1048576	12	4445
2026-01-24 02:45:12.36	16.26	12.38	-26.5	-28.0	14.8	0.00e+00	0	43	102	1048576	13	4270
2026-01-24 02:45:13.36	16.24	12.47	-26.7	-28.4	15.3	0.00e+00	0	43	102	1048576	13	4361
2026-01-24 02:45:14.37	16.22	12.57	-26.4	-27.7	15.6	0.00e+00	0	43	102	1048576	13	4198
2026-01-24 02:45:15.37	16.20	12.67	-26.3	-28.0	15.8	0.00e+00	0	43	102	1048576	12	4387
2026-01-24 02:45:16.37	16.18	12.76	-26.3	-28.0	15.8	7.93e-04	0	43	102	1048576	12	4364
2026-01-24 02:45:17.38	16.16	12.86	-26.3	-28.0	15.8	0.00e+00	0	43	102	1048576	12	4385
2026-01-24 02:45:18.38	16.14	12.96	-26.4	-28.1	15.7	0.00e+00	0	43	102	1048576	12	4407
2026-01-24 02:45:19.38	16.12	13.05	-26.3	-28.0	15.8	0.00e+00	0	43	102	1048576	12	4368
2026-01-24 02:45:20.39	16.10	13.15	-26.3	-28.0	15.8	0.00e+00	0	43	102	1048576	12	4377
2026-01-24 02:45:21.39	16.08	13.25	-26.4	-28.2	15.7	7.99e-04	0	43	102	1048576	12	4419
2026-01-24 02:45:22.39	16.06	13.35	-26.3	-27.9	15.9	0.00e+00	0	43	102	1048576	12	4347
2026-01-24 02:45:23.39	16.04	13.45	-26.3	-27.9	15.8	0.00e+00	0	43	102	1048576	12	4360
2026-01-24 02:45:24.40	16.02	13.55	-26.3	-27.9	15.9	0.00e+00	0	43	102	1048576	12	4350
2026-01-24 02:45:25.40	16.00	13.65	-26.3	-27.9	15.8	7.91e-04	0	43	102	1048576	12	4360
2026-01-24 02:45:26.40	15.98	13.75	-26.2	-27.8	15.9	0.00e+00	0	43	102	1048576	12	4334
2026-01-24 02:45:27.41	15.96	13.85	-26.2	-27.8	16.0	7.83e-04	0	43	102	1048576	12	4331
2026-01-24 02:45:28.42	15.94	13.95	-26.2	-27.8	16.0	7.82e-04	0	43	102	1048576	12	4334
2026-01-24 02:45:29.42	15.92	14.05	-26.1	-27.6	16.1	0.00e+00	0	43	102	1048576	12	4264
2026-01-24 02:45:30.43	15.89	14.16	-26.2	-27.8	16.0	7.53e-04	0	43	102	1048576	12	4311
2026-01-24 02:45:31.43	15.87	14.26	-26.3	-27.9	15.9	0.00e+00	0	43	102	1048576	12	4359
2026-01-24 02:45:32.44	15.85	14.36	-26.2	-27.8	16.0	0.00e+00	0	43	102	1048576	12	4316
2026-01-24 02:45:33.44	15.83	14.47	-26.1	-27.6	16.1	7.82e-04	0	43	102	1048576	12	4266
2026-01-24 02:45:34.45	15.81	14.57	-26.2	-27.7	16.1	7.74e-04	0	43	102	1048576	12	4284
2026-01-24 02:45:35.45	15.78	14.68	-26.2	-27.8	16.0	0.00e+00	0	43	102	1048576	12	4325
2026-01-24 02:45:36.46	15.76	14.78	-26.2	-27.8	16.0	7.99e-04	0	43	102	1048576	12	4308
2026-01-24 02:45:37.45	15.74	14.89	-26.2	-27.8	16.0	7.82e-04	0	43	102	1048576	12	4319
2026-01-24 02:45:38.46	15.72	14.99	-26.2	-27.7	16.0	0.00e+00	0	43	102	1048576	12	4293
2026-01-24 02:45:39.46	15.69	15.10	-26.0	-27.3	16.3	7.77e-04	0	43	102	1048576	12	4180
2026-01-24 02:45:40.47	15.67	15.20	-25.9	-27.6	16.5	7.57e-04	0	43	102	1048576	11	4384
2026-01-24 02:45:41.48	15.64	15.31	-25.9	-27.5	16.5	0.00e+00	0	43	102	1048576	11	4344
2026-01-24 02:45:42.48	15.62	15.42	-25.9	-27.6	16.5	7.51e-04	0	43	102	1048576	11	4369
2026-01-24 02:45:43.49	15.60	15.53	-25.8	-27.5	16.6	0.00e+00	0	43	102	1048576	11	4336
2026-01-24 02:45:44.48	15.57	15.64	-25.7	-27.1	16.7	0.00e+00	0	43	102	1048576	11	4243
2026-01-24 02:45:45.49	15.55	15.75	-25.7	-27.1	16.7	0.00e+00	0	43	102	1048576	11	4243
2026-01-24 02:45:46.50	15.52	15.86	-25.7	-27.1	16.8	7.90e-04	0	43	102	1048576	11	4230
2026-01-24 02:45:47.50	15.50	15.97	-25.6	-27.0	16.8	0.00e+00	0	43	102	1048576	11	4201
2026-01-24 02:45:48.50	15.47	16.08	-25.6	-27.0	16.9	0.00e+00	0	43	102	1048576	11	4206
2026-01-24 02:45:49.51	15.45	16.19	-25.6	-27.0	16.8	7.69e-04	0	43	102	1048576	11	4212
2026-01-24 02:45:50.51	15.42	16.30	-25.5	-26.7	17.0	0.00e+00	0	43	102	1048576	11	4142
2026-01-24 02:45:51.51	15.40	16.41	-25.5	-26.7	17.0	7.52e-04	0	43	102	1048576	11	4136
2026-01-24 02:45:52.51	15.37	16.52	-25.5	-26.6	17.0	0.00e+00	0	43	102	1048576	11	4121
2026-01-24 02:45:53.52	15.35	16.64	-25.4	-26.5	17.1	0.00e+00	0	44	102	1048576	11	4079
2026-01-24 02:45:54.52	15.32	16.75	-25.4	-26.9	17.2	0.00e+00	0	44	102	1048576	10	4296
2026-01-24 02:45:55.51	15.29	16.86	-25.4	-26.9	17.2	0.00e+00	0	43	102	1048576	10	4298
2026-01-24 02:45:56.52	15.27	16.98	-25.2	-26.6	17.3	0.00e+00	0	43	102	1048576	10	4228
2026-01-24 02:45:57.52	15.24	17.09	-25.1	-26.4	17.5	0.00e+00	0	43	102	1048576	10	4157
2026-01-24 02:45:58.53	15.21	17.21	-25.2	-26.5	17.4	7.14e-04	0	43	102	1048576	10	4191
2026-01-24 02:45:59.53	15.18	17.33	-25.2	-26.5	17.4	0.00e+00	0	43	102	1048576	10	4202
2026-01-24 02:46:00.53	15.16	17.44	-25.1	-26.3	17.5	0.00e+00	0	43	102	1048576	10	4142
2026-01-24 02:46:01.53	15.13	17.56	-25.0	-26.2	17.6	0.00e+00	0	43	102	1048576	10	4112
2026-01-24 02:46:02.54	15.10	17.68	-25.1	-26.4	17.5	0.00e+00	0	43	102	1048576	10	4169
2026-01-24 02:46:03.54	15.07	17.80	-25.2	-26.6	17.4	0.00e+00	0	43	102	1048576	10	4216
2026-01-24 02:46:04.54	15.04	17.91	-25.2	-26.6	17.4	0.00e+00	0	44	102	1048576	10	4214
2026-01-24 02:46:05.54	15.01	18.03	-25.1	-26.3	17.5	0.00e+00	0	44	102	1048576	10	4149
2026-01-24 02:46:06.55	14.99	18.16	-25.1	-26.3	17.6	0.00e+00	0	44	102	1048576	10	4138
2026-01-24 02:46:07.55	14.96	18.28	-25.1	-26.4	17.5	0.00e+00	0	44	102	1048576	10	4167
2026-01-24 02:46:08.56	14.93	18.40	-25.1	-26.3	17.6	0.00e+00	0	43	102	1048576	10	4126
2026-01-24 02:46:09.56	14.90	18.52	-25.1	-26.4	17.5	0.00e+00	0	44	102	1048576	10	4163
2026-01-24 02:46:10.56	14.87	18.64	-25.1	-26.3	17.6	0.00e+00	0	44	102	1048576	10	4147
2026-01-24 02:46:11.56	14.84	18.76	-25.1	-26.3	17.6	0.00e+00	0	43	102	1048576	10	4128
2026-01-24 02:46:12.57	14.80	18.89	-25.1	-26.4	17.5	0.00e+00	0	44	102	1048576	10	4160
2026-01-24 02:46:13.57	14.77	19.01	-25.0	-26.0	17.7	0.00e+00	0	43	102	1048576	10	4076
2026-01-24 02:46:14.58	14.74	19.14	-24.9	-25.9	17.8	0.00e+00	0	44	102	1048576	10	4029
2026-01-24 02:46:15.58	14.71	19.26	-24.9	-25.8	17.8	0.00e+00	0	44	102	1048576	10	4025
2026-01-24 02:46:16.58	14.68	19.39	-24.9	-26.3	17.8	0.00e+00	0	43	102	1048576	9	4254
2026-01-24 02:46:17.58	14.65	19.52	-24.9	-26.4	17.8	0.00e+00	0	43	102	1048576	9	4278
2026-01-24 02:46:18.59	14.61	19.65	-24.9	-26.4	17.8	0.00e+00	0	43	102	1048576	9	4286
2026-01-24 02:46:19.60	14.58	19.77	-24.9	-26.5	17.7	0.00e+00	0	43	102	1048576	9	4296
2026-01-24 02:46:20.60	14.55	19.90	-25.1	-26.3	17.6	0.00e+00	0	44	102	1048576	10	4149
2026-01-24 02:46:21.61	14.51	20.03	-25.4	-27.0	17.2	0.00e+00	0	44	102	1048576	10	4326
2026-01-24 02:46:22.60	14.48	20.16	-25.3	-26.3	17.3	0.00e+00	0	44	102	1048576	11	4041
2026-01-24 02:46:23.60	14.44	20.29	-25.2	-26.0	17.5	0.00e+00	0	43	102	1048576	11	3955
2026-01-24 02:46:24.60	14.41	20.42	-25.2	-26.6	17.4	0.00e+00	0	44	102	1048576	10	4227
2026-01-24 02:46:25.61	14.37	20.56	-25.2	-26.5	17.5	0.00e+00	0	44	102	1048576	10	4202
2026-01-24 02:46:26.62	14.34	20.69	-25.0	-26.1	17.7	0.00e+00	0	43	102	1048576	10	4101
2026-01-24 02:46:27.62	14.30	20.82	-24.9	-25.9	17.8	0.00e+00	0	44	102	1048576	10	4048
2026-01-24 02:46:28.63	14.27	20.96	-24.9	-25.9	17.8	0.00e+00	0	44	102	1048576	10	4051
2026-01-24 02:46:29.63	14.23	21.09	-24.7	-25.6	18.0	0.00e+00	0	44	102	1048576	10	3960
2026-01-24 02:46:30.62	14.20	21.23	-24.5	-25.7	18.2	0.00e+00	0	44	102	1048576	9	4087
2026-01-24 02:46:31.63	14.16	21.36	-24.5	-25.5	18.3	0.00e+00	0	44	102	1048576	9	4051
2026-01-24 02:46:32.63	14.12	21.50	-24.4	-25.4	18.3	0.00e+00	0	44	102	1048576	9	4033
2026-01-24 02:46:33.64	14.08	21.64	-24.4	-25.4	18.3	0.00e+00	0	44	102	1048576	9	4028
2026-01-24 02:46:34.65	14.04	21.78	-24.4	-25.3	18.4	0.00e+00	0	44	102	1048576	9	4015
2026-01-24 02:46:35.65	14.01	21.92	-24.3	-25.2	18.4	0.00e+00	0	43	102	1048576	9	3984
2026-01-24 02:46:36.66	13.97	22.06	-24.3	-25.7	18.5	0.00e+00	0	44	102	1048576	8	4203
2026-01-24 02:46:37.67	13.93	22.20	-24.3	-25.6	18.5	0.00e+00	0	43	102	1048576	8	4176
2026-01-24 02:46:38.67	13.89	22.34	-24.2	-25.5	18.5	0.00e+00	0	44	102	1048576	8	4165
2026-01-24 02:46:39.67	13.85	22.49	-24.3	-25.5	18.5	0.00e+00	0	44	102	1048576	8	4174
2026-01-24 02:46:40.67	13.81	22.63	-24.1	-25.2	18.7	0.00e+00	0	44	102	1048576	8	4093
2026-01-24 02:46:41.68	13.77	22.77	-24.1	-25.3	18.7	0.00e+00	0	44	102	1048576	8	4102
2026-01-24 02:46:42.68	13.73	22.92	-24.1	-25.2	18.8	0.00e+00	0	44	102	1048576	8	4083
2026-01-24 02:46:43.69	13.68	23.06	-24.1	-25.2	18.7	0.00e+00	0	44	102	1048576	8	4081
2026-01-24 02:46:44.69	13.64	23.21	-24.0	-25.0	18.9	0.00e+00	0	44	102	1048576	8	4029
2026-01-24 02:46:45.69	13.60	23.36	-24.0	-25.0	18.9	0.00e+00	0	44	102	1048576	8	4036
2026-01-24 02:46:46.70	13.56	23.51	-24.0	-24.9	18.9	0.00e+00	0	44	102	1048576	8	4023
2026-01-24 02:46:47.70	13.51	23.66	-23.9	-24.9	18.9	0.00e+00	0	44	102	1048576	8	4010
2026-01-24 02:46:48.70	13.47	23.80	-24.1	-25.2	18.8	6.86e-04	0	43	102	1048576	8	4075
2026-01-24 02:46:49.71	13.42	23.96	-24.2	-25.4	18.7	0.00e+00	0	44	102	1048576	8	4139
2026-01-24 02:46:50.72	13.38	24.11	-24.2	-25.5	18.6	6.69e-04	0	44	102	1048576	8	4169
2026-01-24 02:46:51.72	13.33	24.26	-24.2	-25.5	18.6	0.00e+00	0	44	102	1048576	8	4162
2026-01-24 02:46:52.73	13.29	24.42	-24.3	-25.6	18.6	0.00e+00	0	44	102	1048576	8	4178
2026-01-24 02:46:53.73	13.24	24.57	-24.3	-25.6	18.5	6.81e-04	0	44	102	1048576	8	4193
2026-01-24 02:46:54.74	13.19	24.73	-24.3	-25.6	18.6	0.00e+00	0	44	102	1048576	8	4180
2026-01-24 02:46:55.74	13.15	24.88	-24.6	-25.7	18.2	0.00e+00	0	44	102	1048576	9	4110
2026-01-24 02:46:56.75	13.10	25.04	-24.4	-25.3	18.4	0.00e+00	0	44	102	1048576	9	4013
2026-01-24 02:46:57.75	13.05	25.20	-24.2	-25.4	18.7	7.00e-04	0	44	102	1048576	8	4127
2026-01-24 02:46:58.76	13.00	25.36	-24.3	-25.5	18.6	0.00e+00	0	44	102	1048576	8	4165
2026-01-24 02:46:59.76	12.95	25.51	-24.1	-25.3	18.7	6.87e-04	0	44	102	1048576	8	4116
2026-01-24 02:47:00.76	12.90	25.68	-24.0	-25.0	18.9	6.81e-04	0	43	102	1048576	8	4026
2026-01-24 02:47:01.77	12.85	25.84	-24.0	-24.9	18.9	0.00e+00	0	44	102	1048576	8	4013
2026-01-24 02:47:02.76	12.80	26.00	-24.0	-25.1	18.9	6.42e-04	0	44	102	1048576	8	4062
2026-01-24 02:47:03.76	12.75	26.16	-24.0	-24.9	19.0	6.58e-04	0	44	102	1048576	8	4012
2026-01-24 02:47:04.77	12.70	26.33	-23.9	-24.8	19.0	0.00e+00	0	44	102	1048576	8	3984
2026-01-24 02:47:05.77	12.64	26.49	-23.9	-24.8	19.0	6.12e-04	0	44	102	1048576	8	3991
2026-01-24 02:47:06.78	12.59	26.66	-24.1	-25.2	18.8	6.11e-04	0	44	102	1048576	8	4075
2026-01-24 02:47:07.78	12.54	26.83	-24.0	-25.0	18.9	0.00e+00	0	44	102	1048576	8	4040
2026-01-24 02:47:08.79	12.48	27.00	-23.9	-24.7	19.1	6.02e-04	0	44	102	1048576	8	3973
2026-01-24 02:47:09.79	12.43	27.16	-23.8	-25.1	19.1	6.25e-04	0	44	102	1048576	7	4184
2026-01-24 02:47:10.80	12.37	27.34	-23.8	-25.1	19.1	0.00e+00	0	44	102	1048576	7	4173
2026-01-24 02:47:11.80	12.31	27.51	-23.8	-25.0	19.2	5.37e-04	0	44	102	1048576	7	4162
2026-01-24 02:47:12.81	12.26	27.68	-23.8	-25.1	19.1	4.94e-04	0	44	102	1048576	7	4178
2026-01-24 02:47:13.82	12.20	27.86	-23.7	-25.0	19.2	0.00e+00	0	44	102	1048576	7	4147
2026-01-24 02:47:14.82	12.14	28.03	-23.8	-25.0	19.1	4.26e-04	0	44	102	1048576	7	4162
2026-01-24 02:47:15.82	12.08	28.21	-23.7	-24.9	19.2	0.00e+00	0	44	102	1048576	7	4135
2026-01-24 02:47:16.82	12.02	28.38	-23.7	-24.8	19.3	0.00e+00	0	44	102	1048576	7	4115
2026-01-24 02:47:17.83	11.96	28.56	-23.9	-25.3	19.1	0.00e+00	0	44	102	1048576	7	4230
2026-01-24 02:47:18.83	11.90	28.74	-23.9	-25.3	19.0	3.44e-04	0	44	102	1048576	7	4227
2026-01-24 02:47:19.83	11.84	28.92	-23.9	-25.3	19.1	0.00e+00	0	44	102	1048576	7	4219
2026-01-24 02:47:20.84	11.78	29.10	-23.9	-25.3	19.0	0.00e+00	0	44	102	1048576	7	4218
2026-01-24 02:47:21.84	11.71	29.28	-24.1	-25.2	18.9	5.45e-04	0	44	102	1048576	8	4094
2026-01-24 02:47:22.84	11.65	29.47	-24.4	-25.9	18.5	0.00e+00	0	44	102	1048576	8	4269
2026-01-24 02:47:23.84	11.58	29.65	-24.3	-25.5	18.7	5.78e-04	0	44	102	1048576	8	4169
2026-01-24 02:47:24.85	11.52	29.84	-24.5	-26.0	18.5	0.00e+00	0	44	102	1048576	8	4285
2026-01-24 02:47:25.85	11.45	30.03	-24.3	-25.0	18.7	0.00e+00	0	44	102	1048576	9	3939
2026-01-24 02:47:26.86	11.38	30.21	-24.1	-25.1	18.9	0.00e+00	0	44	102	1048576	8	4069
2026-01-24 02:47:27.87	11.31	30.41	-24.2	-25.4	18.8	0.00e+00	0	44	102	1048576	8	4130
2026-01-24 02:47:28.87	11.24	30.60	-24.0	-25.0	19.0	0.00e+00	0	44	102	1048576	8	4036
2026-01-24 02:47:29.88	11.17	30.79	-23.8	-24.6	19.2	0.00e+00	0	44	102	1048576	8	3956
2026-01-24 02:47:30.87	11.10	30.98	-23.8	-25.1	19.2	0.00e+00	0	44	102	1048576	7	4170
2026-01-24 02:47:31.87	11.03	31.17	-23.7	-24.8	19.3	0.00e+00	0	44	102	1048576	7	4110
2026-01-24 02:47:32.87	10.96	31.37	-23.4	-24.3	19.6	0.00e+00	0	44	102	1048576	7	3966
2026-01-24 02:47:33.88	10.89	31.57	-23.2	-23.9	19.8	0.00e+00	0	44	102	1048576	7	3873
2026-01-24 02:47:34.88	10.81	31.76	-23.1	-23.6	19.9	0.00e+00	0	44	102	1048576	7	3814
2026-01-24 02:47:35.88	10.74	31.96	-23.1	-24.1	19.9	0.00e+00	0	44	102	1048576	6	4044
2026-01-24 02:47:36.88	10.66	32.16	-23.0	-24.0	20.0	0.00e+00	0	44	102	1048576	6	4016
2026-01-24 02:47:37.88	10.58	32.37	-23.0	-23.8	20.1	0.00e+00	0	44	102	1048576	6	3977
2026-01-24 02:47:38.89	10.50	32.57	-23.1	-24.0	20.0	0.00e+00	0	44	102	1048576	6	4025
2026-01-24 02:47:39.89	10.42	32.77	-23.1	-24.0	20.0	0.00e+00	0	44	102	1048576	6	4027
2026-01-24 02:47:40.90	10.34	32.98	-23.1	-24.1	19.9	0.00e+00	0	44	102	1048576	6	4042
2026-01-24 02:47:41.91	10.26	33.19	-23.1	-24.1	20.0	0.00e+00	0	44	102	1048576	6	4038
2026-01-24 02:47:42.90	10.18	33.40	-23.2	-24.3	19.9	0.00e+00	0	44	102	1048576	6	4077
2026-01-24 02:47:43.91	10.09	33.61	-23.2	-24.3	19.9	0.00e+00	0	44	102	1048576	6	4081
2026-01-24 02:47:44.92	10.01	33.82	-23.3	-24.5	19.8	0.00e+00	0	44	102	1048576	6	4136
2026-01-24 02:47:45.92	9.92	34.03	-23.2	-24.4	19.8	0.00e+00	0	44	102	1048576	6	4104
2026-01-24 02:47:46.92	9.83	34.25	-23.2	-24.4	19.9	0.00e+00	0	44	102	1048576	6	4101
2026-01-24 02:47:47.93	9.74	34.47	-23.2	-24.4	19.8	0.00e+00	0	44	102	1048576	6	4111
2026-01-24 02:47:48.94	9.65	34.68	-23.0	-23.8	20.2	0.00e+00	0	44	102	1048576	6	3963
2026-01-24 02:47:49.94	9.56	34.90	-22.7	-23.3	20.3	0.00e+00	0	44	102	1048576	6	3860
2026-01-24 02:47:50.94	9.47	35.12	-22.6	-23.6	20.5	0.00e+00	0	44	102	1048576	5	4029
2026-01-24 02:47:51.94	9.38	35.34	-22.5	-23.4	20.6	0.00e+00	0	44	102	1048576	5	3994
2026-01-24 02:47:52.94	9.28	35.56	-22.6	-23.6	20.5	0.00e+00	0	44	102	1048576	5	4027
2026-01-24 02:47:53.94	9.19	35.79	-22.6	-23.6	20.5	0.00e+00	0	44	102	1048576	5	4021
2026-01-24 02:47:54.95	9.09	36.02	-22.8	-24.0	20.3	0.00e+00	0	44	102	1048576	5	4139
2026-01-24 02:47:55.95	8.99	36.24	-22.9	-24.2	20.2	0.00e+00	0	44	102	1048576	5	4189
2026-01-24 02:47:56.96	8.89	36.47	-23.1	-24.1	20.0	0.00e+00	0	44	102	1048576	6	4038
2026-01-24 02:47:57.97	8.78	36.71	-23.3	-24.5	19.8	0.00e+00	0	44	102	1048576	6	4137
2026-01-24 02:47:58.98	8.68	36.94	-23.1	-24.0	20.0	0.00e+00	0	44	102	1048576	6	4019
2026-01-24 02:47:59.98	8.57	37.17	-23.1	-24.1	20.0	0.00e+00	0	44	102	1048576	6	4032
2026-01-24 02:48:00.99	8.47	37.41	-23.2	-24.3	19.9	0.00e+00	0	44	102	1048576	6	4089
2026-01-24 02:48:01.99	8.36	37.65	-23.0	-23.9	20.1	0.00e+00	0	44	102	1048576	6	3991
2026-01-24 02:48:02.99	8.25	37.88	-23.0	-23.8	20.2	0.00e+00	0	44	102	1048576	6	3969
2026-01-24 02:48:04.00	8.14	38.12	-23.0	-24.0	20.1	0.00e+00	0	44	102	1048576	6	4013
2026-01-24 02:48:05.01	8.02	38.37	-23.1	-24.1	20.0	0.00e+00	0	44	102	1048576	6	4049
2026-01-24 02:48:06.01	7.91	38.61	-23.4	-24.7	19.7	0.00e+00	0	44	102	1048576	6	4182
2026-01-24 02:48:07.01	7.79	38.85	-23.2	-24.4	19.9	0.00e+00	0	44	102	1048576	6	4104
2026-01-24 02:48:08.01	7.67	39.10	-23.2	-24.3	19.9	0.00e+00	0	44	102	1048576	6	4098
2026-01-24 02:48:09.02	7.55	39.35	-22.5	-23.5	19.9	0.00e+00	0	44	102	1048576	6	4042
2026-01-24 02:48:10.02	7.43	39.60	-23.0	-23.9	20.1	0.00e+00	0	44	102	1048576	6	3978
2026-01-24 02:48:11.02	7.30	39.85	-23.0	-23.9	20.0	0.00e+00	0	44	102	1048576	6	3999
2026-01-24 02:48:12.02	7.18	40.10	-23.2	-24.3	19.9	0.00e+00	0	44	102	1048576	6	4078
2026-01-24 02:48:13.03	7.05	40.36	-23.4	-24.6	19.8	0.00e+00	0	44	102	1048576	6	4170
2026-01-24 02:48:14.03	6.92	40.61	-23.4	-24.7	19.7	0.00e+00	0	44	102	1048576	6	4196
2026-01-24 02:48:15.03	6.78	40.87	-23.6	-24.7	19.5	0.00e+00	0	44	102	1048576	7	4074
2026-01-24 02:48:16.04	6.65	41.13	-23.9	-25.2	19.2	0.00e+00	0	44	102	1048576	7	4212
2026-01-24 02:48:17.04	6.51	41.39	-23.7	-24.8	19.4	0.00e+00	0	44	102	1048576	7	4110
2026-01-24 02:48:18.04	6.37	41.65	-23.7	-24.8	19.5	0.00e+00	0	44	102	1048576	7	4097
2026-01-24 02:48:19.05	6.23	41.92	-23.9	-25.2	19.3	0.00e+00	0	44	102	1048576	7	4193
2026-01-24 02:48:20.06	6.08	42.19	-23.9	-25.3	19.2	0.00e+00	0	44	102	1048576	7	4217
2026-01-24 02:48:21.06	5.93	42.46	-23.7	-24.8	19.5	6.00e-04	0	44	102	1048576	7	4095
2026-01-24 02:48:22.06	5.78	42.73	-23.5	-24.3	19.7	0.00e+00	0	44	102	1048576	7	3987
2026-01-24 02:48:23.07	5.63	43.00	-23.5	-24.4	19.7	5.76e-04	0	44	102	1048576	7	3988
2026-01-24 02:48:24.07	5.48	43.27	-23.7	-24.9	19.4	5.55e-04	0	44	102	1048576	7	4124
2026-01-24 02:48:25.08	5.32	43.55	-23.7	-24.8	19.5	0.00e+00	0	44	102	1048576	7	4097
2026-01-24 02:48:26.08	5.16	43.83	-23.8	-25.0	19.4	5.39e-04	0	44	102	1048576	7	4149
2026-01-24 02:48:27.08	4.99	44.10	-23.9	-25.2	19.3	0.00e+00	0	44	102	1048576	7	4186
2026-01-24 02:48:28.08	4.83	44.38	-23.7	-24.8	19.5	0.00e+00	0	44	102	1048576	7	4091
2026-01-24 02:48:29.08	4.66	44.66	-23.7	-24.8	19.5	2.93e-04	0	44	102	1048576	7	4095
2026-01-24 02:48:30.08	4.49	44.95	-24.1	-25.1	19.1	1.90e-04	0	44	102	1048576	8	4054
2026-01-24 02:48:31.09	4.31	45.23	-23.9	-24.8	19.2	0.00e+00	0	44	102	1048576	8	3994
2026-01-24 02:48:32.09	4.13	45.52	-23.9	-24.7	19.3	1.02e-04	0	44	102	1048576	8	3967
2026-01-24 02:48:33.09	3.95	45.81	-23.8	-24.6	19.4	9.95e-05	0	44	102	1048576	8	3943
2026-01-24 02:48:34.10	3.76	46.10	-23.7	-24.3	19.5	0.00e+00	0	44	102	1048576	8	3875
2026-01-24 02:48:35.10	3.57	46.39	-23.7	-24.3	19.5	1.83e-05	0	44	102	1048576	8	3874
2026-01-24 02:48:36.10	3.38	46.69	-23.5	-24.0	19.7	2.97e-05	0	44	102	1048576	8	3791
2026-01-24 02:48:37.10	3.19	46.98	-23.4	-23.8	19.8	0.00e+00	0	44	102	1048576	8	3751
2026-01-24 02:48:38.10	2.99	47.28	-23.5	-23.9	19.8	4.80e-05	0	44	102	1048576	8	3766
2026-01-24 02:48:39.11	2.78	47.58	-23.7	-24.4	19.5	7.66e-05	0	44	102	1048576	8	3895
2026-01-24 02:48:40.11	2.57	47.88	-23.6	-24.1	19.6	0.00e+00	0	44	102	1048576	8	3821
2026-01-24 02:48:41.11	2.36	48.18	-23.6	-24.2	19.6	0.00e+00	0	44	102	1048576	8	3833
2026-01-24 02:48:42.11	2.14	48.49	-23.7	-24.4	19.5	1.37e-04	0	44	102	1048576	8	3886
2026-01-24 02:48:43.11	1.92	48.79	-23.5	-23.8	19.8	0.00e+00	0	44	102	1048576	8	3758
2026-01-24 02:48:44.11	1.70	49.10	-23.5	-23.8	19.8	1.11e-04	0	44	102	1048576	8	3751
2026-01-24 02:48:45.12	1.47	49.41	-23.7	-24.4	19.5	1.17e-04	0	44	102	1048576	8	3888
2026-01-24 02:48:46.12	1.23	49.72	-24.0	-24.9	19.3	0.00e+00	0	44	102	1048576	8	4003
2026-01-24 02:48:47.12	0.99	50.03	-24.1	-25.3	19.1	1.38e-04	0	44	102	1048576	8	4099
2026-01-24 02:48:48.13	0.74	50.35	-24.1	-25.1	19.2	0.00e+00	0	44	102	1048576	8	4058
2026-01-24 02:48:49.14	0.49	50.67	-24.2	-25.3	19.1	0.00e+00	0	44	102	1048576	8	4105
2026-01-24 02:48:50.15	0.23	50.99	-24.4	-25.9	18.8	0.00e+00	0	44	102	1048576	8	4260
2026-01-24 02:48:51.15	359.97	51.31	-24.7	-26.0	18.5	0.00e+00	0	44	102	1048576	9	4177
2026-01-24 02:48:52.16	359.70	51.63	-24.7	-26.0	18.4	0.00e+00	0	44	102	1048576	9	4180
2026-01-24 02:48:53.16	359.43	51.95	-24.6	-25.7	18.6	0.00e+00	0	44	102	1048576	9	4096
2026-01-24 02:48:54.17	359.15	52.28	-24.5	-25.5	18.8	6.06e-05	0	44	102	1048576	9	4029
2026-01-24 02:48:55.17	358.86	52.60	-24.7	-25.9	18.5	0.00e+00	0	44	102	1048576	9	4144
2026-01-24 02:48:56.17	358.57	52.93	-24.6	-25.6	18.7	0.00e+00	0	44	102	1048576	9	4073
2026-01-24 02:48:57.18	358.27	53.26	-24.6	-25.8	18.6	0.00e+00	0	44	102	1048576	9	4119
2026-01-24 02:48:58.18	357.97	53.58	-24.7	-26.0	18.5	0.00e+00	0	44	102	1048576	9	4170
2026-01-24 02:48:59.18	357.66	53.91	-24.5	-25.4	18.8	0.00e+00	0	44	102	1048576	9	4025
2026-01-24 02:49:00.18	357.34	54.25	-24.5	-25.5	18.7	0.00e+00	0	44	102	1048576	9	4041
2026-01-24 02:49:01.18	357.01	54.58	-24.5	-25.5	18.7	0.00e+00	0	44	102	1048576	9	4044
2026-01-24 02:49:02.18	356.67	54.91	-24.3	-25.1	19.0	0.00e+00	0	44	102	1048576	9	3946
2026-01-24 02:49:03.18	356.33	55.24	-24.4	-25.4	18.8	0.00e+00	0	44	102	1048576	9	4015
2026-01-24 02:49:04.19	355.98	55.58	-24.4	-25.4	18.8	0.00e+00	0	44	102	1048576	9	4011
2026-01-24 02:49:05.20	355.61	55.92	-24.2	-24.8	19.1	0.00e+00	0	44	102	1048576	9	3874
2026-01-24 02:49:06.20	355.24	56.26	-24.0	-24.4	19.3	0.00e+00	0	44	102	1048576	9	3774
2026-01-24 02:49:07.21	354.86	56.60	-24.1	-24.7	19.2	0.00e+00	0	44	102	1048576	9	3856
2026-01-24 02:49:08.22	354.47	56.94	-23.9	-24.3	19.4	0.00e+00	0	44	102	1048576	9	3761
2026-01-24 02:49:09.22	354.07	57.28	-24.1	-24.6	19.2	0.00e+00	0	44	102	1048576	9	3834
2026-01-24 02:49:10.23	353.66	57.63	-24.2	-24.9	19.1	0.00e+00	0	44	102	1048576	9	3904
2026-01-24 02:49:11.23	353.24	57.97	-23.9	-24.2	19.4	0.00e+00	0	44	102	1048576	9	3732
2026-01-24 02:49:12.24	352.81	58.31	-23.5	-24.0	19.8	0.00e+00	0	44	102	1048576	8	3792
2026-01-24 02:49:13.24	352.37	58.66	-23.9	-24.7	19.5	0.00e+00	0	44	102	1048576	8	3949
2026-01-24 02:49:14.24	351.92	59.00	-24.1	-25.1	19.2	0.00e+00	0	44	102	1048576	8	4059
2026-01-24 02:49:15.24	351.46	59.34	-23.6	-24.1	19.6	0.00e+00	0	44	102	1048576	8	3828
2026-01-24 02:49:16.24	350.98	59.68	-23.5	-23.8	19.8	0.00e+00	0	44	102	1048576	8	3756
2026-01-24 02:49:17.25	350.48	60.03	-23.5	-24.0	19.7	0.00e+00	0	44	102	1048576	8	3796
2026-01-24 02:49:18.25	349.98	60.37	-23.7	-24.3	19.6	0.00e+00	0	44	102	1048576	8	3873
2026-01-24 02:49:19.25	349.47	60.71	-23.9	-24.7	19.4	0.00e+00	0	44	102	1048576	8	3957
2026-01-24 02:49:20.25	348.94	61.06	-23.7	-24.4	19.6	0.00e+00	0	44	102	1048576	8	3895
2026-01-24 02:49:21.26	348.38	61.40	-23.6	-24.0	19.8	0.00e+00	0	44	102	1048576	8	3797
2026-01-24 02:49:22.26	347.82	61.74	-23.8	-24.5	19.5	0.00e+00	0	44	102	1048576	8	3922
2026-01-24 02:49:23.26	347.25	62.08	-23.7	-24.4	19.6	0.00e+00	0	44	102	1048576	8	3885
2026-01-24 02:49:24.27	346.65	62.43	-23.7	-24.4	19.6	0.00e+00	0	44	102	1048576	8	3893
2026-01-24 02:49:25.28	346.03	62.77	-23.4	-23.6	20.0	0.00e+00	0	44	102	1048576	8	3708
2026-01-24 02:49:26.28	345.40	63.11	-23.3	-24.1	20.0	0.00e+00	0	44	102	1048576	7	3920
2026-01-24 02:49:27.29	344.75	63.45	-23.5	-24.5	19.8	0.00e+00	0	44	102	1048576	7	4026
2026-01-24 02:49:28.30	344.08	63.78	-23.8	-25.1	19.5	0.00e+00	0	44	102	1048576	7	4172
2026-01-24 02:49:29.30	343.39	64.12	-23.5	-24.5	19.8	0.00e+00	0	44	102	1048576	7	4023
2026-01-24 02:49:30.30	342.69	64.45	-23.4	-24.2	19.9	0.00e+00	0	44	102	1048576	7	3959
2026-01-24 02:49:31.30	341.96	64.78	-23.3	-24.1	20.0	0.00e+00	0	44	102	1048576	7	3922
2026-01-24 02:49:32.31	341.21	65.10	-23.4	-24.2	19.9	0.00e+00	0	44	102	1048576	7	3947
2026-01-24 02:49:33.31	340.44	65.43	-23.1	-23.5	20.3	0.00e+00	0	44	102	1048576	7	3790
2026-01-24 02:49:34.31	339.65	65.75	-22.9	-23.2	20.4	0.00e+00	0	44	102	1048576	7	3725
2026-01-24 02:49:35.31	338.83	66.07	-23.0	-23.9	20.3	0.00e+00	0	44	102	1048576	6	3978
2026-01-24 02:49:36.31	337.99	66.38	-22.6	-23.0	20.7	0.00e+00	0	44	102	1048576	6	3791
2026-01-24 02:49:37.32	337.12	66.70	-22.1	-22.5	21.2	0.00e+00	0	44	102	1048576	5	3766
2026-01-24 02:49:38.32	336.23	67.00	-22.2	-22.8	21.1	0.00e+00	0	44	102	1048576	5	3841
2026-01-24 02:49:39.33	335.30	67.31	-22.4	-23.2	20.9	0.00e+00	0	44	102	1048576	5	3932
2026-01-24 02:49:40.33	334.36	67.61	-22.0	-22.4	21.3	0.00e+00	0	44	102	1048576	5	3745
2026-01-24 02:49:41.34	333.38	67.90	-21.9	-22.1	21.4	0.00e+00	0	44	102	1048576	5	3678
2026-01-24 02:49:42.34	332.38	68.19	-22.1	-22.5	21.2	0.00e+00	0	44	102	1048576	5	3783
2026-01-24 02:49:43.34	331.35	68.48	-22.2	-22.8	21.1	0.00e+00	0	44	102	1048576	5	3851
2026-01-24 02:49:44.35	330.28	68.76	-22.3	-22.9	21.0	0.00e+00	0	44	102	1048576	5	3863
2026-01-24 02:49:45.35	329.19	69.03	-22.1	-22.6	21.2	0.00e+00	0	44	102	1048576	5	3793
2026-01-24 02:49:46.35	328.07	69.29	-22.1	-22.5	21.2	0.00e+00	0	44	102	1048576	5	3777
2026-01-24 02:49:47.36	326.90	69.55	-22.3	-22.9	21.1	0.00e+00	0	44	102	1048576	5	3855
2026-01-24 02:49:48.36	325.72	69.80	-22.3	-23.0	21.0	0.00e+00	0	44	102	1048576	5	3894
2026-01-24 02:49:49.35	324.52	70.04	-22.5	-23.5	20.8	4.80e-05	0	44	102	1048576	5	4001
2026-01-24 02:49:50.36	323.26	70.28	-22.5	-23.4	20.8	0.00e+00	0	44	102	1048576	5	3984
2026-01-24 02:49:51.35	322.00	70.51	-22.3	-22.9	21.1	0.00e+00	0	44	102	1048576	5	3855
2026-01-24 02:49:52.36	320.67	70.73	-22.4	-23.1	21.0	0.00e+00	0	44	102	1048576	5	3903
2026-01-24 02:49:53.36	319.33	70.93	-22.3	-22.9	21.0	0.00e+00	0	44	102	1048576	5	3868
2026-01-24 02:49:54.37	317.95	71.14	-22.3	-23.0	21.0	0.00e+00	0	44	102	1048576	5	3885
2026-01-24 02:49:55.36	316.56	71.32	-22.3	-23.0	21.0	0.00e+00	0	44	102	1048576	5	3880
2026-01-24 02:49:56.36	315.13	71.50	-22.1	-22.5	21.3	0.00e+00	0	44	102	1048576	5	3766
2026-01-24 02:49:57.37	313.66	71.67	-22.1	-22.5	21.3	0.00e+00	0	44	102	1048576	5	3777
2026-01-24 02:49:58.37	312.17	71.83	-22.4	-23.2	20.9	1.62e-04	0	44	102	1048576	5	3934
2026-01-24 02:49:59.38	310.64	71.97	-22.3	-22.9	21.1	0.00e+00	0	44	102	1048576	5	3864
2026-01-24 02:50:00.38	309.10	72.10	-22.0	-22.3	21.4	0.00e+00	0	44	102	1048576	5	3724
2026-01-24 02:50:01.37	307.55	72.22	-22.2	-22.8	21.1	2.30e-04	0	44	102	1048576	5	3836
2026-01-24 02:50:02.38	305.95	72.33	-22.3	-23.0	21.0	0.00e+00	0	44	102	1048576	5	3892
2026-01-24 02:50:03.38	304.35	72.43	-22.3	-22.9	21.0	0.00e+00	0	44	102	1048576	5	3872
2026-01-24 02:50:04.37	302.75	72.51	-22.2	-23.2	21.1	0.00e+00	0	44	102	1048576	4	4053
2026-01-24 02:50:05.38	301.10	72.57	-22.4	-23.6	20.9	2.99e-04	0	44	102	1048576	4	4144
2026-01-24 02:50:06.38	299.45	72.63	-22.3	-23.6	20.9	0.00e+00	0	44	102	1048576	4	4137
2026-01-24 02:50:07.38	297.79	72.67	-21.9	-22.7	21.3	5.40e-04	0	44	102	1048576	4	3927
2026-01-24 02:50:08.38	296.13	72.70	-22.0	-22.9	21.2	5.07e-04	0	44	102	1048576	4	3971
2026-01-24 02:50:09.38	294.46	72.71	-22.3	-23.3	21.0	0.00e+00	0	44	102	1048576	4	4081
2026-01-24 02:50:10.39	292.78	72.71	-22.4	-23.6	20.9	2.71e-04	0	44	102	1048576	4	4142
2026-01-24 02:50:11.38	291.13	72.69	-22.3	-23.5	20.9	0.00e+00	0	44	102	1048576	4	4124
2026-01-24 02:50:12.39	289.45	72.66	-22.3	-23.4	21.0	0.00e+00	0	44	102	1048576	4	4106
2026-01-24 02:50:13.40	287.78	72.62	-22.3	-23.5	21.0	2.48e-04	0	44	102	1048576	4	4109
2026-01-24 02:50:14.41	286.12	72.56	-22.6	-23.6	20.6	2.78e-04	0	44	102	1048576	5	4023
2026-01-24 02:50:15.41	284.48	72.49	-22.3	-23.0	20.9	0.00e+00	0	44	102	1048576	5	3894
2026-01-24 02:50:16.42	282.85	72.40	-22.5	-23.3	20.8	0.00e+00	0	44	102	1048576	5	3950
2026-01-24 02:50:17.42	281.25	72.31	-22.7	-23.8	20.5	6.32e-04	0	44	102	1048576	5	4077
2026-01-24 02:50:18.43	279.66	72.20	-22.4	-23.1	20.8	0.00e+00	0	44	102	1048576	5	3911
2026-01-24 02:50:19.44	278.08	72.07	-22.5	-23.4	20.7	5.29e-04	0	44	102	1048576	5	3994
2026-01-24 02:50:20.44	276.55	71.94	-22.5	-23.2	20.8	0.00e+00	0	44	102	1048576	5	3942
2026-01-24 02:50:21.43	275.05	71.79	-22.1	-22.6	21.1	0.00e+00	0	44	102	1048576	5	3796
2026-01-24 02:50:22.43	273.57	71.63	-22.0	-22.8	21.2	6.48e-04	0	44	102	1048576	4	3944
2026-01-24 02:50:23.44	272.10	71.46	-22.0	-22.9	21.2	0.00e+00	0	44	102	1048576	4	3982
2026-01-24 02:50:24.44	270.68	71.28	-22.4	-23.6	20.8	0.00e+00	0	44	102	1048576	4	4139
2026-01-24 02:50:25.44	269.28	71.09	-22.0	-22.8	21.2	0.00e+00	0	44	102	1048576	4	3947
2026-01-24 02:50:26.44	267.92	70.89	-21.7	-22.1	21.6	0.00e+00	0	44	102	1048576	4	3790
2026-01-24 02:50:27.44	266.58	70.68	-22.0	-22.8	21.2	0.00e+00	0	44	102	1048576	4	3944
2026-01-24 02:50:28.45	265.27	70.45	-22.2	-23.3	20.9	0.00e+00	0	44	102	1048576	4	4077
2026-01-24 02:50:29.45	263.99	70.23	-22.1	-23.1	21.1	0.00e+00	0	44	102	1048576	4	4018
2026-01-24 02:50:30.45	262.75	69.99	-22.0	-22.9	21.1	0.00e+00	0	44	102	1048576	4	3975
2026-01-24 02:50:31.46	261.53	69.74	-22.1	-23.1	21.0	5.54e-04	0	44	102	1048576	4	4020
2026-01-24 02:50:32.46	260.36	69.49	-22.2	-23.2	20.9	0.00e+00	0	44	102	1048576	4	4055
2026-01-24 02:50:33.47	259.20	69.23	-22.0	-22.8	21.2	0.00e+00	0	44	102	1048576	4	3953
2026-01-24 02:50:34.47	258.09	68.96	-22.0	-22.9	21.1	0.00e+00	0	44	102	1048576	4	3968
2026-01-24 02:50:35.48	257.00	68.68	-22.1	-23.1	21.0	0.00e+00	0	44	102	1048576	4	4027
2026-01-24 02:50:36.48	255.94	68.40	-22.0	-22.8	21.1	0.00e+00	0	44	102	1048576	4	3956
2026-01-24 02:50:37.48	254.92	68.12	-21.9	-22.6	21.3	0.00e+00	0	44	102	1048576	4	3889
2026-01-24 02:50:38.48	253.92	67.83	-22.0	-22.8	21.2	0.00e+00	0	44	102	1048576	4	3947
2026-01-24 02:50:39.48	252.96	67.53	-22.3	-23.5	20.8	0.00e+00	0	44	102	1048576	4	4113
2026-01-24 02:50:40.49	252.01	67.23	-22.2	-23.2	20.9	0.00e+00	0	44	102	1048576	4	4055
2026-01-24 02:50:41.49	251.10	66.92	-21.8	-22.4	21.3	0.00e+00	0	44	102	1048576	4	3850
2026-01-24 02:50:42.49	250.21	66.62	-21.9	-22.5	21.3	0.00e+00	0	44	102	1048576	4	3879
2026-01-24 02:50:43.50	249.34	66.30	-22.4	-23.6	20.7	0.00e+00	0	44	102	1048576	4	4144
2026-01-24 02:50:44.50	248.51	65.98	-22.9	-24.2	20.2	0.00e+00	0	44	102	1048576	5	4176
2026-01-24 02:50:45.51	247.69	65.66	-22.8	-24.0	20.3	0.00e+00	0	44	102	1048576	5	4137
2026-01-24 02:50:46.51	246.90	65.34	-22.7	-23.7	20.4	0.00e+00	0	44	102	1048576	5	4064
2026-01-24 02:50:47.51	246.14	65.01	-22.9	-24.2	20.2	0.00e+00	0	44	102	1048576	5	4182
2026-01-24 02:50:48.52	245.39	64.68	-23.1	-24.2	20.0	0.00e+00	0	44	102	1048576	6	4067
2026-01-24 02:50:49.52	244.67	64.35	-23.1	-24.0	20.0	0.00e+00	0	44	102	1048576	6	4023
2026-01-24 02:50:50.53	243.96	64.02	-23.4	-24.8	19.6	0.00e+00	0	44	102	1048576	6	4213
2026-01-24 02:50:51.53	243.28	63.68	-23.7	-24.9	19.3	0.00e+00	0	44	102	1048576	7	4112
2026-01-24 02:50:52.54	242.61	63.34	-23.3	-24.0	19.8	0.00e+00	0	44	102	1048576	7	3912
2026-01-24 02:50:53.54	241.97	63.01	-22.8	-23.4	20.3	0.00e+00	0	44	102	1048576	6	3875
2026-01-24 02:50:54.54	241.35	62.67	-22.6	-23.1	20.5	0.00e+00	0	44	102	1048576	6	3808
2026-01-24 02:50:55.55	240.73	62.33	-22.6	-23.7	20.4	0.00e+00	0	44	102	1048576	5	4047
2026-01-24 02:50:56.55	240.14	61.99	-22.7	-23.7	20.4	0.00e+00	0	44	102	1048576	5	4064
2026-01-24 02:50:57.55	239.57	61.64	-22.7	-23.9	20.3	0.00e+00	0	44	102	1048576	5	4096
2026-01-24 02:50:58.55	239.01	61.30	-22.9	-24.2	20.1	0.00e+00	0	44	102	1048576	5	4167
2026-01-24 02:50:59.56	238.46	60.96	-23.1	-24.1	20.0	0.00e+00	0	44	102	1048576	6	4032
2026-01-24 02:51:00.57	237.93	60.61	-23.3	-24.5	19.7	0.00e+00	0	44	102	1048576	6	4148
2026-01-24 02:51:01.58	237.41	60.26	-23.4	-24.7	19.6	0.00e+00	0	44	102	1048576	6	4185
2026-01-24 02:51:02.58	236.91	59.92	-23.7	-24.8	19.3	0.00e+00	0	44	102	1048576	7	4112
2026-01-24 02:51:03.58	236.43	59.57	-23.8	-25.2	19.1	0.00e+00	0	44	102	1048576	7	4197
2026-01-24 02:51:04.59	235.95	59.23	-23.4	-24.2	19.6	0.00e+00	0	44	102	1048576	7	3964
2026-01-24 02:51:05.59	235.49	58.88	-23.3	-24.0	19.7	0.00e+00	0	44	102	1048576	7	3916
2026-01-24 02:51:06.59	235.04	58.54	-23.4	-24.2	19.6	0.00e+00	0	44	102	1048576	7	3957
2026-01-24 02:51:07.60	234.59	58.20	-23.2	-24.3	19.8	0.00e+00	0	44	102	1048576	6	4096
2026-01-24 02:51:08.60	234.17	57.85	-23.0	-23.9	20.0	0.00e+00	0	44	102	1048576	6	3993
2026-01-24 02:51:09.61	233.75	57.51	-23.1	-24.1	19.9	0.00e+00	0	44	102	1048576	6	4050
2026-01-24 02:51:10.61	233.34	57.17	-23.2	-24.4	19.8	0.00e+00	0	44	102	1048576	6	4106
2026-01-24 02:51:11.62	232.94	56.82	-23.3	-24.5	19.7	0.00e+00	0	44	102	1048576	6	4140
2026-01-24 02:51:12.62	232.56	56.48	-23.3	-24.6	19.7	0.00e+00	0	44	102	1048576	6	4149
2026-01-24 02:51:13.63	232.18	56.14	-23.4	-24.6	19.6	0.00e+00	0	44	102	1048576	6	4161
2026-01-24 02:51:14.63	231.81	55.80	-23.6	-24.6	19.4	0.00e+00	0	44	102	1048576	7	4051
2026-01-24 02:51:15.64	231.45	55.46	-23.8	-25.1	19.1	0.00e+00	0	44	102	1048576	7	4183
2026-01-24 02:51:16.64	231.10	55.13	-23.9	-25.4	19.0	6.08e-04	0	44	102	1048576	7	4249
2026-01-24 02:51:17.65	230.76	54.79	-24.1	-25.1	18.9	0.00e+00	0	44	102	1048576	8	4072
2026-01-24 02:51:18.65	230.42	54.45	-24.3	-25.7	18.6	0.00e+00	0	44	102	1048576	8	4197
2026-01-24 02:51:19.66	230.09	54.12	-24.3	-25.6	18.6	0.00e+00	0	44	102	1048576	8	4174
2026-01-24 02:51:20.66	229.78	53.79	-23.9	-24.8	19.0	0.00e+00	0	44	102	1048576	8	3992
2026-01-24 02:51:21.66	229.47	53.46	-23.6	-24.7	19.3	6.42e-04	0	44	102	1048576	7	4080
2026-01-24 02:51:22.67	229.16	53.12	-23.6	-24.7	19.3	0.00e+00	0	44	102	1048576	7	4069
2026-01-24 02:51:23.67	228.86	52.80	-23.6	-24.7	19.3	0.00e+00	0	44	102	1048576	7	4070
2026-01-24 02:51:24.68	228.57	52.47	-23.6	-24.6	19.3	0.00e+00	0	44	102	1048576	7	4057
2026-01-24 02:51:25.68	228.29	52.14	-23.8	-25.0	19.1	0.00e+00	0	44	102	1048576	7	4161
2026-01-24 02:51:26.69	228.01	51.82	-23.8	-25.1	19.1	0.00e+00	0	44	102	1048576	7	4190
2026-01-24 02:51:27.69	227.73	51.49	-23.7	-24.9	19.2	5.54e-04	0	44	102	1048576	7	4118
2026-01-24 02:51:28.69	227.47	51.17	-23.9	-25.2	19.0	4.78e-04	0	44	102	1048576	7	4212
2026-01-24 02:51:29.70	227.21	50.85	-23.8	-25.1	19.1	0.00e+00	0	44	102	1048576	7	4167
2026-01-24 02:51:30.70	226.95	50.53	-23.9	-25.3	19.0	3.18e-04	0	44	102	1048576	7	4233
2026-01-24 02:51:31.70	226.70	50.22	-23.6	-24.7	19.3	0.00e+00	0	44	102	1048576	7	4071
2026-01-24 02:51:32.70	226.46	49.90	-23.1	-23.7	19.8	0.00e+00	0	44	102	1048576	7	3823
2026-01-24 02:51:33.71	226.22	49.59	-23.0	-23.8	20.0	2.71e-04	0	44	102	1048576	6	3965
2026-01-24 02:51:34.71	225.98	49.28	-23.1	-24.1	19.9	2.53e-04	0	44	102	1048576	6	4036
2026-01-24 02:51:35.71	225.75	48.97	-23.2	-24.3	19.7	0.00e+00	0	44	102	1048576	6	4089
2026-01-24 02:51:36.71	225.53	48.66	-23.2	-24.3	19.7	0.00e+00	0	44	102	1048576	6	4082
2026-01-24 02:51:37.72	225.31	48.35	-23.0	-24.0	19.9	2.63e-04	0	44	102	1048576	6	4011
2026-01-24 02:51:38.72	225.09	48.05	-22.9	-23.6	20.1	0.00e+00	0	44	102	1048576	6	3924
2026-01-24 02:51:39.72	224.88	47.75	-22.9	-23.8	20.0	2.52e-04	0	44	102	1048576	6	3963
2026-01-24 02:51:40.73	224.67	47.44	-23.0	-23.9	19.9	2.33e-04	0	44	102	1048576	6	3995
2026-01-24 02:51:41.74	224.47	47.14	-23.0	-23.9	19.9	0.00e+00	0	44	102	1048576	6	4001
2026-01-24 02:51:42.74	224.27	46.84	-23.0	-23.8	20.0	1.89e-04	0	44	102	1048576	6	3986
2026-01-24 02:51:43.74	224.07	46.55	-23.0	-24.0	19.9	0.00e+00	0	44	102	1048576	6	4020
2026-01-24 02:51:44.74	223.88	46.25	-22.9	-23.8	20.0	0.00e+00	0	44	102	1048576	6	3970
2026-01-24 02:51:45.75	223.69	45.96	-22.9	-23.7	20.0	1.26e-04	0	44	102	1048576	6	3936
2026-01-24 02:51:46.75	223.51	45.67	-22.9	-23.7	20.0	1.60e-04	0	44	102	1048576	6	3951
2026-01-24 02:51:47.76	223.32	45.38	-22.8	-23.5	20.1	0.00e+00	0	44	102	1048576	6	3905
2026-01-24 02:51:48.76	223.14	45.09	-22.8	-23.5	20.1	2.32e-04	0	44	102	1048576	6	3893
2026-01-24 02:51:49.76	222.97	44.80	-22.9	-23.7	20.0	2.53e-04	0	44	102	1048576	6	3935
2026-01-24 02:51:50.77	222.80	44.52	-22.9	-23.7	20.0	0.00e+00	0	44	102	1048576	6	3953
2026-01-24 02:51:51.77	222.63	44.24	-23.1	-24.1	19.8	2.37e-04	0	44	102	1048576	6	4053
2026-01-24 02:51:52.77	222.46	43.96	-23.1	-24.2	19.8	0.00e+00	0	44	102	1048576	6	4065
2026-01-24 02:51:53.78	222.30	43.67	-23.0	-24.0	19.8	0.00e+00	0	44	102	1048576	6	4027
2026-01-24 02:51:54.79	222.14	43.39	-23.1	-24.1	19.8	0.00e+00	0	44	102	1048576	6	4037
2026-01-24 02:51:55.79	221.98	43.12	-23.0	-23.9	19.9	0.00e+00	0	44	102	1048576	6	4000
2026-01-24 02:51:56.80	221.82	42.84	-23.4	-24.7	19.5	1.10e-06	0	44	102	1048576	6	4187
2026-01-24 02:51:57.80	221.67	42.57	-23.3	-24.5	19.6	0.00e+00	0	44	102	1048576	6	4145
2026-01-24 02:51:58.80	221.52	42.30	-23.1	-24.1	19.7	1.86e-04	0	44	102	1048576	6	4054
2026-01-24 02:51:59.80	221.38	42.04	-22.9	-23.7	20.0	0.00e+00	0	44	102	1048576	6	3958
2026-01-24 02:52:00.81	221.23	41.77	-22.8	-24.0	20.0	0.00e+00	0	44	102	1048576	5	4143
2026-01-24 02:52:01.81	221.09	41.50	-22.7	-23.7	20.2	0.00e+00	0	44	102	1048576	5	4058
2026-01-24 02:52:02.81	220.95	41.24	-22.6	-23.6	20.2	0.00e+00	0	44	102	1048576	5	4039
2026-01-24 02:52:03.82	220.81	40.98	-22.7	-23.8	20.1	2.85e-04	0	44	102	1048576	5	4086
2026-01-24 02:52:04.82	220.68	40.72	-22.5	-23.3	20.4	0.00e+00	0	44	102	1048576	5	3961
2026-01-24 02:52:05.82	220.55	40.46	-22.3	-23.0	20.5	1.10e-06	0	44	102	1048576	5	3892
2026-01-24 02:52:06.82	220.42	40.20	-22.3	-22.9	20.6	0.00e+00	0	44	102	1048576	5	3875
2026-01-24 02:52:07.82	220.29	39.95	-22.5	-23.4	20.3	0.00e+00	0	44	102	1048576	5	3990
2026-01-24 02:52:08.82	220.16	39.70	-22.4	-23.1	20.5	0.00e+00	0	44	102	1048576	5	3922
2026-01-24 02:52:09.83	220.04	39.44	-22.3	-23.0	20.5	0.00e+00	0	44	102	1048576	5	3894
2026-01-24 02:52:10.83	219.91	39.19	-22.4	-23.2	20.4	1.52e-04	0	44	102	1048576	5	3934
2026-01-24 02:52:11.84	219.79	38.94	-22.5	-23.3	20.4	0.00e+00	0	44	102	1048576	5	3970
2026-01-24 02:52:12.84	219.67	38.70	-22.7	-23.9	20.1	0.00e+00	0	44	102	1048576	5	4112
2026-01-24 02:52:13.84	219.56	38.45	-22.5	-23.4	20.3	0.00e+00	0	44	102	1048576	5	4000
2026-01-24 02:52:14.85	219.44	38.21	-22.3	-22.9	20.6	0.00e+00	0	44	102	1048576	5	3880
2026-01-24 02:52:15.85	219.33	37.97	-22.1	-22.7	20.7	0.00e+00	0	44	102	1048576	5	3817
2026-01-24 02:52:16.85	219.22	37.73	-22.2	-22.7	20.7	0.00e+00	0	44	102	1048576	5	3825
2026-01-24 02:52:17.86	219.10	37.49	-22.1	-22.6	20.7	0.00e+00	0	44	102	1048576	5	3796
2026-01-24 02:52:18.86	219.00	37.25	-22.2	-22.7	20.7	0.00e+00	0	44	102	1048576	5	3828
2026-01-24 02:52:19.86	218.89	37.02	-22.2	-22.8	20.6	0.00e+00	0	44	102	1048576	5	3842
2026-01-24 02:52:20.86	218.78	36.78	-22.3	-22.9	20.6	0.00e+00	0	44	102	1048576	5	3869
2026-01-24 02:52:21.86	218.68	36.55	-22.3	-23.0	20.5	0.00e+00	0	44	102	1048576	5	3903
2026-01-24 02:52:22.86	218.58	36.32	-22.4	-23.1	20.4	0.00e+00	0	44	102	1048576	5	3927
2026-01-24 02:52:23.87	218.48	36.09	-22.4	-23.3	20.4	0.00e+00	0	44	102	1048576	5	3955
2026-01-24 02:52:24.88	218.38	35.86	-22.6	-23.6	20.2	0.00e+00	0	44	102	1048576	5	4025
2026-01-24 02:52:25.89	218.28	35.63	-22.6	-23.5	20.3	0.00e+00	0	44	102	1048576	5	4026
2026-01-24 02:52:26.89	218.18	35.41	-22.6	-23.7	20.2	0.00e+00	0	44	102	1048576	5	4052
2026-01-24 02:52:27.90	218.09	35.18	-22.7	-23.7	20.1	0.00e+00	0	44	102	1048576	5	4063
2026-01-24 02:52:28.90	217.99	34.96	-22.7	-23.9	20.1	0.00e+00	0	44	102	1048576	5	4107
2026-01-24 02:52:29.91	217.90	34.74	-22.8	-23.9	20.0	0.00e+00	0	44	102	1048576	5	4114
2026-01-24 02:52:30.91	217.81	34.52	-22.8	-24.1	20.0	0.00e+00	0	44	102	1048576	5	4155
2026-01-24 02:52:31.92	217.72	34.30	-22.9	-24.3	19.9	0.00e+00	0	44	102	1048576	5	4199
2026-01-24 02:52:32.92	217.63	34.09	-22.9	-24.3	19.9	0.00e+00	0	44	102	1048576	5	4208
2026-01-24 02:52:33.92	217.54	33.87	-23.0	-24.3	19.8	0.00e+00	0	44	102	1048576	5	4218
2026-01-24 02:52:34.92	217.46	33.66	-23.1	-24.1	19.7	0.00e+00	0	44	102	1048576	6	4056
2026-01-24 02:52:35.92	217.37	33.45	-23.4	-24.7	19.4	0.00e+00	0	44	102	1048576	6	4189
2026-01-24 02:52:36.93	217.29	33.24	-23.2	-24.3	19.6	0.00e+00	0	44	102	1048576	6	4087
2026-01-24 02:52:37.93	217.20	33.03	-23.3	-24.5	19.5	0.00e+00	0	44	102	1048576	6	4155
2026-01-24 02:52:38.94	217.12	32.82	-23.1	-24.2	19.6	0.00e+00	0	44	102	1048576	6	4062
2026-01-24 02:52:39.94	217.04	32.61	-23.1	-24.0	19.7	0.00e+00	0	44	102	1048576	6	4033
2026-01-24 02:52:40.95	216.96	32.41	-23.1	-24.1	19.7	0.00e+00	0	44	102	1048576	6	4058
2026-01-24 02:52:41.94	216.88	32.21	-23.0	-24.0	19.7	0.00e+00	0	44	102	1048576	6	4022
2026-01-24 02:52:42.95	216.80	32.00	-23.0	-24.0	19.8	0.00e+00	0	44	102	1048576	6	4022
2026-01-24 02:52:43.96	216.73	31.80	-23.2	-24.3	19.6	0.00e+00	0	44	102	1048576	6	4105
2026-01-24 02:52:44.96	216.65	31.60	-23.4	-24.8	19.3	0.00e+00	0	44	102	1048576	6	4209
2026-01-24 02:52:45.96	216.58	31.40	-23.2	-24.3	19.5	0.00e+00	0	44	102	1048576	6	4103
2026-01-24 02:52:46.97	216.50	31.21	-23.1	-24.2	19.6	5.70e-06	0	44	102	1048576	6	4062
2026-01-24 02:52:47.97	216.43	31.01	-23.1	-24.2	19.6	0.00e+00	0	44	102	1048576	6	4060
2026-01-24 02:52:48.97	216.36	30.82	-23.2	-24.4	19.5	0.00e+00	0	44	102	1048576	6	4118
2026-01-24 02:52:49.97	216.29	30.62	-23.2	-24.3	19.6	1.10e-06	0	44	102	1048576	6	4083
2026-01-24 02:52:50.97	216.22	30.43	-23.4	-24.9	19.2	0.00e+00	0	44	102	1048576	6	4238
2026-01-24 02:52:51.97	216.15	30.24	-23.2	-24.3	19.6	0.00e+00	0	44	102	1048576	6	4088
2026-01-24 02:52:52.97	216.08	30.05	-22.9	-23.8	19.8	0.00e+00	0	44	102	1048576	6	3975
2026-01-24 02:52:53.98	216.01	29.86	-22.9	-23.7	19.9	1.09e-04	0	44	102	1048576	6	3943
2026-01-24 02:52:54.98	215.94	29.67	-22.9	-23.7	19.8	0.00e+00	0	44	102	1048576	6	3956
2026-01-24 02:52:55.99	215.88	29.49	-23.1	-24.1	19.6	1.10e-06	0	44	102	1048576	6	4039
2026-01-24 02:52:57.00	215.81	29.30	-22.9	-23.7	19.8	0.00e+00	0	44	102	1048576	6	3951
2026-01-24 02:52:58.00	215.75	29.12	-22.9	-23.7	19.8	3.10e-04	0	44	102	1048576	6	3938
2026-01-24 02:52:59.01	215.68	28.93	-23.0	-23.9	19.7	1.10e-06	0	44	102	1048576	6	3993
2026-01-24 02:53:00.01	215.62	28.75	-23.0	-23.9	19.7	0.00e+00	0	44	102	1048576	6	3982
2026-01-24 02:53:01.01	215.56	28.57	-23.1	-24.0	19.7	6.33e-04	0	44	102	1048576	6	4028
2026-01-24 02:53:02.02	215.50	28.39	-23.1	-24.1	19.6	0.00e+00	0	44	102	1048576	6	4045
2026-01-24 02:53:03.03	215.43	28.21	-23.1	-24.2	19.6	6.81e-04	0	44	102	1048576	6	4079
2026-01-24 02:53:04.03	215.37	28.04	-23.1	-24.2	19.6	0.00e+00	0	44	102	1048576	6	4073
2026-01-24 02:53:05.03	215.32	27.86	-23.2	-24.4	19.4	0.00e+00	0	44	102	1048576	6	4124
2026-01-24 02:53:06.04	215.26	27.68	-23.4	-24.8	19.3	7.51e-04	0	44	102	1048576	6	4219
2026-01-24 02:53:07.04	215.20	27.51	-23.2	-24.4	19.5	8.17e-04	0	44	102	1048576	6	4115
2026-01-24 02:53:08.04	215.14	27.34	-23.1	-24.2	19.6	0.00e+00	0	44	102	1048576	6	4065
2026-01-24 02:53:09.05	215.08	27.17	-23.1	-24.2	19.5	0.00e+00	0	44	102	1048576	6	4078
2026-01-24 02:53:10.05	215.03	27.00	-23.0	-23.9	19.7	8.59e-04	0	44	102	1048576	6	4002
2026-01-24 02:53:11.05	214.97	26.83	-23.2	-24.3	19.5	0.00e+00	0	44	102	1048576	6	4084
2026-01-24 02:53:12.05	214.92	26.66	-23.0	-23.9	19.7	8.86e-04	0	44	102	1048576	6	3986
2026-01-24 02:53:13.07	214.86	26.49	-22.8	-24.1	19.8	8.80e-04	0	44	102	1048576	5	4151
2026-01-24 02:53:14.07	214.81	26.32	-22.9	-24.3	19.7	0.00e+00	0	44	102	1048576	5	4196
2026-01-24 02:53:15.08	214.76	26.15	-22.8	-24.1	19.8	8.82e-04	0	44	102	1048576	5	4152
2026-01-24 02:53:16.09	214.70	25.99	-22.9	-24.1	19.8	7.78e-05	0	44	102	1048576	5	4167
2026-01-24 02:53:17.09	214.65	25.83	-22.9	-24.3	19.7	0.00e+00	0	44	102	1048576	5	4204
2026-01-24 02:53:18.09	214.60	25.66	-23.0	-24.0	19.6	0.00e+00	0	44	102	1048576	6	4014
2026-01-24 02:53:19.09	214.55	25.50	-23.0	-24.0	19.6	8.39e-04	0	44	102	1048576	6	4019
2026-01-24 02:53:20.10	214.50	25.34	-23.2	-24.3	19.5	0.00e+00	0	44	102	1048576	6	4088
2026-01-24 02:53:21.11	214.45	25.18	-23.2	-24.3	19.4	7.43e-04	0	44	102	1048576	6	4096
2026-01-24 02:53:22.11	214.40	25.02	-23.3	-24.6	19.3	7.19e-04	0	44	102	1048576	6	4171
2026-01-24 02:53:23.11	214.35	24.86	-23.3	-24.5	19.3	0.00e+00	0	44	102	1048576	6	4157
2026-01-24 02:53:24.11	214.30	24.71	-23.4	-24.8	19.2	7.35e-04	0	44	102	1048576	6	4234
2026-01-24 02:53:25.11	214.25	24.55	-23.5	-24.9	19.1	0.00e+00	0	44	102	1048576	6	4261
2026-01-24 02:53:26.11	214.21	24.40	-23.5	-24.5	19.1	0.00e+00	0	44	102	1048576	7	4041
2026-01-24 02:53:27.12	214.16	24.24	-23.5	-24.5	19.1	7.11e-04	0	44	102	1048576	7	4045
2026-01-24 02:53:28.11	214.12	24.09	-23.6	-24.8	18.9	0.00e+00	0	44	102	1048576	7	4110
2026-01-24 02:53:29.12	214.07	23.94	-23.5	-24.5	19.1	0.00e+00	0	44	102	1048576	7	4041
2026-01-24 02:53:30.12	214.02	23.78	-23.5	-24.5	19.0	0.00e+00	0	44	102	1048576	7	4045
2026-01-24 02:53:31.13	213.98	23.63	-23.6	-24.7	19.0	7.62e-04	0	44	102	1048576	7	4083
2026-01-24 02:53:32.14	213.93	23.48	-23.5	-24.6	19.0	0.00e+00	0	44	102	1048576	7	4054
2026-01-24 02:53:33.14	213.89	23.33	-23.7	-24.9	18.9	0.00e+00	0	44	102	1048576	7	4135
2026-01-24 02:53:34.15	213.85	23.18	-23.5	-24.4	19.1	0.00e+00	0	44	102	1048576	7	4021
2026-01-24 02:53:35.16	213.80	23.04	-23.4	-24.3	19.2	0.00e+00	0	44	102	1048576	7	3981
2026-01-24 02:53:36.16	213.76	22.89	-23.4	-24.3	19.2	0.00e+00	0	44	102	1048576	7	3976
2026-01-24 02:53:37.17	213.72	22.74	-23.4	-24.3	19.2	0.00e+00	0	44	102	1048576	7	3987
2026-01-24 02:53:38.17	213.68	22.60	-23.5	-24.5	19.1	0.00e+00	0	44	102	1048576	7	4032
2026-01-24 02:53:39.18	213.64	22.45	-23.6	-24.7	18.9	0.00e+00	0	44	102	1048576	7	4089
2026-01-24 02:53:40.19	213.59	22.31	-23.6	-24.6	19.0	0.00e+00	0	44	102	1048576	7	4065
2026-01-24 02:53:41.19	213.55	22.17	-23.6	-24.7	18.9	0.00e+00	0	44	102	1048576	7	4080
2026-01-24 02:53:42.19	213.51	22.02	-23.6	-24.7	18.9	0.00e+00	0	44	102	1048576	7	4076
2026-01-24 02:53:43.20	213.47	21.88	-23.6	-24.7	18.9	0.00e+00	0	44	102	1048576	7	4096
2026-01-24 02:53:44.20	213.43	21.74	-23.7	-24.9	18.8	0.00e+00	0	44	102	1048576	7	4137
2026-01-24 02:53:45.21	213.40	21.60	-23.9	-25.3	18.6	0.00e+00	0	44	102	1048576	7	4245
2026-01-24 02:53:46.21	213.36	21.46	-23.8	-25.1	18.7	0.00e+00	0	44	102	1048576	7	4177
2026-01-24 02:53:47.21	213.32	21.33	-23.7	-24.9	18.8	0.00e+00	0	44	102	1048576	7	4126
2026-01-24 02:53:48.22	213.28	21.19	-23.7	-24.9	18.8	0.00e+00	0	44	102	1048576	7	4133
2026-01-24 02:53:49.22	213.24	21.05	-23.7	-25.0	18.7	0.00e+00	0	44	102	1048576	7	4164
2026-01-24 02:53:50.22	213.21	20.92	-23.8	-25.2	18.7	0.00e+00	0	44	102	1048576	7	4202
2026-01-24 02:53:51.22	213.17	20.78	-23.8	-25.1	18.7	0.00e+00	0	44	102	1048576	7	4198
2026-01-24 02:53:52.23	213.13	20.65	-23.8	-25.2	18.6	0.00e+00	0	44	102	1048576	7	4212
2026-01-24 02:53:53.24	213.10	20.51	-23.9	-25.4	18.5	0.00e+00	0	44	102	1048576	7	4257
2026-01-24 02:53:54.24	213.06	20.38	-24.2	-25.4	18.3	0.00e+00	0	44	102	1048576	8	4142
2026-01-24 02:53:55.24	213.03	20.25	-24.4	-25.8	18.1	0.00e+00	0	44	102	1048576	8	4237
2026-01-24 02:53:56.24	212.99	20.12	-24.2	-25.4	18.3	0.00e+00	0	44	102	1048576	8	4145
2026-01-24 02:53:57.25	212.96	19.98	-24.1	-25.3	18.3	0.00e+00	0	44	102	1048576	8	4117
2026-01-24 02:53:58.25	212.92	19.85	-24.1	-25.3	18.3	0.00e+00	0	44	102	1048576	8	4119
2026-01-24 02:53:59.26	212.89	19.72	-24.1	-25.3	18.3	0.00e+00	0	44	102	1048576	8	4134
2026-01-24 02:54:00.26	212.85	19.59	-24.2	-25.5	18.2	0.00e+00	0	44	102	1048576	8	4167
2026-01-24 02:54:01.27	212.82	19.46	-24.2	-25.5	18.2	0.00e+00	0	44	102	1048576	8	4174
2026-01-24 02:54:02.28	212.79	19.34	-24.2	-25.6	18.2	0.00e+00	0	44	102	1048576	8	4191
2026-01-24 02:54:03.28	212.75	19.21	-24.3	-25.7	18.1	0.00e+00	0	44	102	1048576	8	4231
2026-01-24 02:54:04.28	212.72	19.08	-24.4	-25.8	18.0	0.00e+00	0	44	102	1048576	8	4249
2026-01-24 02:54:05.29	212.69	18.96	-24.5	-25.5	17.9	0.00e+00	0	44	102	1048576	9	4062
2026-01-24 02:54:06.30	212.66	18.83	-24.5	-25.5	17.9	0.00e+00	0	44	102	1048576	9	4064
2026-01-24 02:54:07.30	212.62	18.71	-24.5	-25.6	17.9	0.00e+00	0	44	102	1048576	9	4093
2026-01-24 02:54:08.31	212.59	18.58	-24.5	-25.6	17.9	0.00e+00	0	44	102	1048576	9	4088
2026-01-24 02:54:09.32	212.56	18.46	-24.5	-25.7	17.8	0.00e+00	0	44	102	1048576	9	4107
2026-01-24 02:54:10.33	212.53	18.33	-24.6	-25.7	17.8	0.00e+00	0	44	102	1048576	9	4123
2026-01-24 02:54:11.33	212.50	18.21	-24.6	-25.9	17.7	0.00e+00	0	44	102	1048576	9	4161
2026-01-24 02:54:12.33	212.47	18.09	-24.7	-26.0	17.6	0.00e+00	0	44	102	1048576	9	4190
2026-01-24 02:54:13.33	212.44	17.97	-24.8	-26.2	17.5	0.00e+00	0	44	102	1048576	9	4235
2026-01-24 02:54:14.33	212.41	17.85	-24.7	-26.1	17.6	0.00e+00	0	44	102	1048576	9	4205
2026-01-24 02:54:15.33	212.38	17.73	-24.7	-26.1	17.6	0.00e+00	0	44	102	1048576	9	4213
2026-01-24 02:54:16.33	212.35	17.61	-24.8	-26.2	17.5	0.00e+00	0	44	102	1048576	9	4245
2026-01-24 02:54:17.34	212.32	17.49	-24.9	-26.4	17.2	0.00e+00	0	44	102	1048576	9	4308
2026-01-24 02:54:18.34	212.29	17.38	-24.8	-26.3	17.4	0.00e+00	0	44	102	1048576	9	4260
2026-01-24 02:54:19.34	212.26	17.26	-24.9	-26.4	17.4	0.00e+00	0	44	102	1048576	9	4298
2026-01-24 02:54:20.35	212.24	17.14	-24.9	-26.6	17.3	0.00e+00	0	44	102	1048576	9	4344
2026-01-24 02:54:21.35	212.21	17.02	-24.9	-26.5	17.3	0.00e+00	0	44	102	1048576	9	4318
2026-01-24 02:54:22.36	212.18	16.91	-25.1	-26.4	17.2	0.00e+00	0	44	102	1048576	10	4169
2026-01-24 02:54:23.36	212.15	16.79	-25.3	-26.8	16.9	1.96e-04	0	44	102	1048576	10	4284
2026-01-24 02:54:24.36	212.12	16.68	-25.4	-26.6	16.7	0.00e+00	0	44	102	1048576	11	4128
2026-01-24 02:54:25.37	212.10	16.56	-25.2	-26.1	17.0	0.00e+00	0	44	102	1048576	11	4007
2026-01-24 02:54:26.37	212.07	16.45	-25.1	-26.0	17.1	0.00e+00	0	44	102	1048576	11	3971
2026-01-24 02:54:27.37	212.04	16.34	-25.1	-25.9	17.1	0.00e+00	0	44	102	1048576	11	3939
2026-01-24 02:54:28.38	212.02	16.22	-25.1	-25.8	17.1	0.00e+00	0	44	102	1048576	11	3935
2026-01-24 02:54:29.38	211.99	16.11	-25.1	-26.0	17.0	0.00e+00	0	44	102	1048576	11	3972
2026-01-24 02:54:30.38	211.96	16.00	-25.2	-26.0	17.0	1.45e-04	0	44	102	1048576	11	3988
2026-01-24 02:54:31.38	211.94	15.89	-25.2	-26.1	17.0	0.00e+00	0	44	102	1048576	11	4007
2026-01-24 02:54:32.38	211.91	15.78	-25.2	-26.6	17.0	0.00e+00	0	44	102	1048576	10	4236
2026-01-24 02:54:33.39	211.89	15.67	-25.2	-26.7	16.9	1.65e-04	0	44	102	1048576	10	4252
2026-01-24 02:54:34.40	211.86	15.56	-25.2	-26.7	16.9	0.00e+00	0	44	102	1048576	10	4277
2026-01-24 02:54:35.40	211.84	15.45	-25.3	-26.9	16.8	1.44e-04	0	44	102	1048576	10	4325
2026-01-24 02:54:36.41	211.81	15.34	-25.5	-27.2	16.6	0.00e+00	0	44	102	1048576	10	4413
2026-01-24 02:54:37.41	211.79	15.23	-25.6	-27.1	16.4	0.00e+00	0	44	102	1048576	11	4248
2026-01-24 02:54:38.42	211.76	15.12	-25.7	-27.1	16.3	1.62e-04	0	44	102	1048576	11	4269
2026-01-24 02:54:39.42	211.74	15.02	-25.6	-27.0	16.4	1.35e-04	0	44	102	1048576	11	4230
2026-01-24 02:54:40.42	211.72	14.91	-25.5	-26.9	16.5	0.00e+00	0	44	102	1048576	11	4198
2026-01-24 02:54:41.43	211.69	14.80	-25.6	-26.9	16.5	2.20e-06	0	44	102	1048576	11	4213
2026-01-24 02:54:42.44	211.67	14.70	-25.6	-27.1	16.4	0.00e+00	0	44	102	1048576	11	4260
2026-01-24 02:54:43.44	211.64	14.59	-25.7	-27.2	16.3	0.00e+00	0	44	102	1048576	11	4282
2026-01-24 02:54:44.45	211.62	14.49	-25.8	-27.5	16.2	0.00e+00	0	44	102	1048576	11	4351
2026-01-24 02:54:45.44	211.60	14.38	-25.6	-26.9	16.4	0.00e+00	0	44	102	1048576	11	4215
2026-01-24 02:54:46.45	211.57	14.28	-25.5	-26.9	16.5	0.00e+00	0	44	102	1048576	11	4198
2026-01-24 02:54:47.46	211.55	14.17	-25.5	-26.8	16.5	0.00e+00	0	44	102	1048576	11	4182
2026-01-24 02:54:48.46	211.53	14.07	-25.6	-26.9	16.4	9.10e-06	0	44	102	1048576	11	4219
2026-01-24 02:54:49.47	211.51	13.97	-25.6	-27.0	16.4	0.00e+00	0	44	102	1048576	11	4244
2026-01-24 02:54:50.47	211.48	13.87	-25.5	-26.8	16.5	0.00e+00	0	44	102	1048576	11	4170
2026-01-24 02:54:51.47	211.46	13.76	-25.5	-26.9	16.4	8.00e-06	0	44	102	1048576	11	4205
2026-01-24 02:54:52.47	211.44	13.66	-25.6	-26.9	16.4	0.00e+00	0	44	102	1048576	11	4206
2026-01-24 02:54:53.48	211.42	13.56	-25.6	-27.0	16.4	1.83e-05	0	44	102	1048576	11	4227
2026-01-24 02:54:54.49	211.40	13.46	-25.6	-27.0	16.4	2.28e-05	0	44	102	1048576	11	4226
2026-01-24 02:54:55.49	211.38	13.36	-25.6	-27.0	16.3	0.00e+00	0	44	102	1048576	11	4239
2026-01-24 02:54:56.50	211.36	13.26	-25.5	-26.8	16.4	5.03e-05	0	44	102	1048576	11	4182
2026-01-24 02:54:57.50	211.33	13.16	-25.6	-26.9	16.4	0.00e+00	0	44	102	1048576	11	4205
2026-01-24 02:54:58.51	211.31	13.06	-25.6	-26.9	16.4	0.00e+00	0	44	102	1048576	11	4202
2026-01-24 02:54:59.51	211.29	12.96	-25.5	-26.9	16.4	0.00e+00	0	44	102	1048576	11	4196
2026-01-24 02:55:00.52	211.27	12.86	-25.5	-26.9	16.4	5.70e-06	0	44	102	1048576	11	4192
2026-01-24 02:55:01.53	211.25	12.76	-25.6	-26.9	16.4	0.00e+00	0	44	102	1048576	11	4209
2026-01-24 02:55:02.52	211.23	12.67	-25.6	-26.9	16.4	0.00e+00	0	44	102	1048576	11	4212
2026-01-24 02:55:03.52	211.21	12.57	-25.5	-26.8	16.4	1.43e-04	0	44	102	1048576	11	4180
2026-01-24 02:55:04.53	211.19	12.47	-25.5	-26.9	16.4	0.00e+00	0	44	102	1048576	11	4190
2026-01-24 02:55:05.53	211.17	12.38	-25.5	-26.9	16.4	3.31e-05	0	44	102	1048576	11	4195
2026-01-24 02:55:06.54	211.15	12.28	-25.6	-26.9	16.3	0.00e+00	0	44	102	1048576	11	4211
2026-01-24 02:55:07.55	211.13	12.19	-25.7	-27.1	16.2	0.00e+00	0	44	102	1048576	11	4264
2026-01-24 02:55:08.56	211.11	12.09	-25.7	-27.2	16.2	0.00e+00	0	44	102	1048576	11	4296
2026-01-24 02:55:09.56	211.09	12.00	-25.6	-27.1	16.2	0.00e+00	0	44	102	1048576	11	4242
2026-01-24 02:55:10.57	211.07	11.90	-25.8	-27.4	16.1	0.00e+00	0	44	102	1048576	11	4336
2026-01-24 02:55:11.58	211.06	11.81	-25.8	-27.4	16.0	0.00e+00	0	44	102	1048576	11	4337
2026-01-24 02:55:12.58	211.04	11.71	-25.7	-27.2	16.2	0.00e+00	0	44	102	1048576	11	4270
2026-01-24 02:55:13.59	211.02	11.62	-25.8	-27.4	16.0	0.00e+00	0	44	102	1048576	11	4324
2026-01-24 02:55:14.59	211.00	11.52	-25.8	-27.4	16.1	0.00e+00	0	44	102	1048576	11	4324
2026-01-24 02:55:15.60	210.98	11.43	-25.7	-27.3	16.1	0.00e+00	0	44	102	1048576	11	4297
2026-01-24 02:55:16.61	210.96	11.34	-25.8	-27.3	16.0	0.00e+00	0	44	102	1048576	11	4323
2026-01-24 02:55:17.61	210.94	11.25	-25.8	-27.4	16.0	0.00e+00	0	44	102	1048576	11	4341
2026-01-24 02:55:18.61	210.93	11.16	-25.8	-27.4	16.0	0.00e+00	0	44	102	1048576	11	4339
2026-01-24 02:55:19.62	210.91	11.06	-25.9	-27.7	15.8	0.00e+00	0	44	102	1048576	11	4426
2026-01-24 02:55:20.63	210.89	10.97	-25.9	-27.1	15.8	0.00e+00	0	44	102	1048576	12	4154
2026-01-24 02:55:21.63	210.87	10.88	-25.8	-26.9	15.9	0.00e+00	0	44	102	1048576	12	4104
2026-01-24 02:55:22.63	210.86	10.79	-25.8	-27.0	15.8	0.00e+00	0	44	102	1048576	12	4136
2026-01-24 02:55:23.63	210.84	10.70	-25.8	-27.0	15.9	0.00e+00	0	44	102	1048576	12	4116
2026-01-24 02:55:24.64	210.82	10.61	-26.0	-27.4	15.7	0.00e+00	0	44	102	1048576	12	4219
2026-01-24 02:55:25.65	210.80	10.52	-25.9	-27.2	15.7	0.00e+00	0	44	102	1048576	12	4180
2026-01-24 02:55:26.65	210.79	10.43	-26.0	-27.4	15.6	0.00e+00	0	44	102	1048576	12	4245
2026-01-24 02:55:27.66	210.77	10.34	-25.9	-27.3	15.7	0.00e+00	0	44	102	1048576	12	4200
2026-01-24 02:55:28.67	210.75	10.25	-26.0	-27.4	15.6	0.00e+00	0	44	102	1048576	12	4241
2026-01-24 02:55:29.67	210.74	10.17	-26.1	-27.6	15.5	0.00e+00	0	44	102	1048576	12	4293
2026-01-24 02:55:30.68	210.72	10.08	-26.0	-27.5	15.6	0.00e+00	0	44	102	1048576	12	4253
2026-01-24 02:55:31.68	210.70	9.99	-26.2	-27.8	15.4	0.00e+00	0	44	102	1048576	12	4335
2026-01-24 02:55:32.69	210.69	9.90	-26.2	-27.8	15.4	0.00e+00	0	44	102	1048576	12	4340
2026-01-24 02:55:33.69	210.67	9.82	-26.2	-27.8	15.3	0.00e+00	0	44	102	1048576	12	4345
2026-01-24 02:55:34.69	210.66	9.73	-26.2	-27.9	15.3	0.00e+00	0	44	102	1048576	12	4367
2026-01-24 02:55:35.69	210.64	9.65	-26.3	-28.1	15.2	0.00e+00	0	44	102	1048576	12	4425
2026-01-24 02:55:36.69	210.62	9.56	-26.2	-27.8	15.3	0.00e+00	0	44	102	1048576	12	4359
2026-01-24 02:55:37.69	210.61	9.47	-26.3	-28.1	15.2	0.00e+00	0	44	102	1048576	12	4439
2026-01-24 02:55:38.70	210.59	9.39	-26.3	-28.1	15.1	1.10e-06	0	44	102	1048576	12	4431
2026-01-24 02:55:39.70	210.58	9.30	-26.4	-28.2	15.1	0.00e+00	0	44	102	1048576	12	4469
2026-01-24 02:55:40.70	210.56	9.22	-26.4	-28.2	15.1	0.00e+00	0	44	102	1048576	12	4474
2026-01-24 02:55:41.70	210.55	9.13	-26.3	-28.2	15.1	3.40e-06	0	44	102	1048576	12	4453
2026-01-24 02:55:42.71	210.53	9.05	-26.3	-28.2	15.1	0.00e+00	0	44	102	1048576	12	4460
2026-01-24 02:55:43.71	210.52	8.97	-26.4	-28.3	15.0	1.10e-06	0	44	102	1048576	12	4499
2026-01-24 02:55:44.72	210.50	8.88	-26.4	-28.4	14.9	6.80e-06	0	44	102	1048576	12	4518
2026-01-24 02:55:45.72	210.49	8.80	-26.5	-28.1	14.8	0.00e+00	0	44	102	1048576	13	4328
2026-01-24 02:55:46.73	210.47	8.72	-26.7	-28.4	14.6	0.00e+00	0	44	102	1048576	13	4417
