passes_logs/2026/01/24/R2M6_AANII_01/R2M6_AANII_01__20260124_082052_SUOMI_NPP_rec.log

#Pass ID: 20260124_082052_SUOMI NPP
#Satellite: SUOMI NPP
#Configuration: NPP
#almurnet v.1.7.20240730
#Start time: 2026-01-24 08:20:52

#Version: 2.2.20231116
#Station: R2M6_AANII_01
#Location: 30.233357 lon 59.946436 lat
#TLE: 1 37849U 11061A   26023.63275593  .00000212  00000+0  12133-3 0  9990
#TLE: 2 37849  98.7820 325.6074 0002234  48.9695 311.1673 14.19528901737937

#Time	Az	El	Level	Level2	SNR	BER	BlckErr	Temp	State	Recorded	gain1	gain2
2026-01-24 08:20:52.60	96.63	7.01	-31.1	-42.9	3.7	1.50e+00	0	41	0	0	23	14034
2026-01-24 08:20:53.60	96.53	7.07	-31.1	-42.9	3.8	1.49e+00	0	41	104	0	23	14060
2026-01-24 08:20:54.61	96.44	7.13	-31.0	-42.7	3.8	1.49e+00	0	41	104	0	23	13897
2026-01-24 08:20:55.61	96.34	7.20	-30.9	-42.5	3.8	1.49e+00	0	41	104	0	23	13745
2026-01-24 08:20:56.61	96.24	7.26	-30.8	-42.4	3.8	1.49e+00	0	41	104	0	23	13633
2026-01-24 08:20:57.61	96.14	7.32	-30.8	-42.3	3.8	1.49e+00	0	41	104	0	23	13584
2026-01-24 08:20:58.61	96.04	7.38	-30.8	-42.3	3.8	1.49e+00	0	41	104	0	23	13586
2026-01-24 08:20:59.62	95.94	7.45	-30.8	-42.4	3.8	1.49e+00	0	41	104	0	23	13632
2026-01-24 08:21:00.62	95.84	7.51	-30.8	-42.4	3.8	1.49e+00	0	41	104	0	23	13614
2026-01-24 08:21:01.62	95.74	7.57	-30.8	-42.4	3.8	1.49e+00	0	41	104	0	23	13638
2026-01-24 08:21:02.63	95.64	7.64	-30.8	-42.4	3.8	1.49e+00	0	41	104	0	23	13687
2026-01-24 08:21:03.63	95.54	7.70	-30.9	-42.5	3.8	1.49e+00	0	41	104	0	23	13749
2026-01-24 08:21:04.64	95.43	7.76	-30.9	-42.6	3.8	1.49e+00	0	41	104	0	23	13780
2026-01-24 08:21:05.65	95.33	7.83	-31.0	-42.7	3.8	1.49e+00	0	41	104	0	23	13891
2026-01-24 08:21:06.64	95.23	7.89	-31.1	-42.8	3.8	1.49e+00	0	41	104	0	23	13993
2026-01-24 08:21:07.64	95.13	7.95	-31.1	-42.9	3.8	1.49e+00	0	41	104	0	23	14017
2026-01-24 08:21:08.64	95.02	8.02	-31.1	-42.9	3.8	1.49e+00	0	41	104	0	23	14012
2026-01-24 08:21:09.64	94.92	8.08	-31.1	-42.9	3.8	1.49e+00	0	41	104	0	23	14043
2026-01-24 08:21:10.64	94.81	8.14	-31.1	-43.0	3.8	1.49e+00	0	41	104	0	23	14122
2026-01-24 08:21:11.64	94.71	8.21	-31.2	-43.1	3.8	1.49e+00	0	41	104	0	23	14200
2026-01-24 08:21:12.64	94.60	8.27	-31.2	-43.1	3.8	1.49e+00	0	41	104	0	23	14159
2026-01-24 08:21:13.65	94.50	8.33	-31.3	-43.2	3.8	1.49e+00	0	42	104	0	23	14216
2026-01-24 08:21:14.66	94.39	8.40	-31.3	-43.3	3.8	1.49e+00	0	41	104	0	23	14264
2026-01-24 08:21:15.66	94.28	8.46	-31.4	-43.3	3.8	1.49e+00	0	41	104	0	23	14199
2026-01-24 08:21:16.66	94.17	8.53	-31.4	-43.2	3.8	1.49e+00	0	41	104	0	23	13934
2026-01-24 08:21:17.67	94.06	8.59	-31.5	-43.0	3.8	1.49e+00	0	41	104	0	23	13668
2026-01-24 08:21:18.66	93.96	8.65	-31.5	-43.1	3.8	1.49e+00	0	42	104	0	23	13737
2026-01-24 08:21:19.67	93.85	8.72	-31.6	-43.3	3.8	1.49e+00	0	41	104	0	23	13881
2026-01-24 08:21:20.67	93.74	8.78	-31.6	-43.2	3.8	1.49e+00	0	41	104	0	23	13680
2026-01-24 08:21:21.68	93.63	8.85	-31.6	-42.8	3.8	1.49e+00	0	42	104	0	23	13114
2026-01-24 08:21:22.69	93.52	8.91	-31.6	-42.3	3.8	1.49e+00	0	42	104	0	23	12250
2026-01-24 08:21:23.70	93.40	8.98	-31.6	-41.0	4.1	1.48e+00	0	42	104	0	23	10655
2026-01-24 08:21:24.70	93.29	9.04	-31.6	-40.2	4.0	1.37e+00	0	42	104	0	23	9723
2026-01-24 08:21:25.70	93.18	9.11	-31.7	-40.5	4.3	1.34e+00	0	42	104	0	23	9906
2026-01-24 08:21:26.70	93.07	9.17	-31.8	-40.8	4.0	1.44e+00	0	42	104	0	23	10096
2026-01-24 08:21:27.70	92.96	9.23	-31.9	-40.5	4.5	1.28e+00	0	42	104	0	23	9679
2026-01-24 08:21:28.71	92.84	9.30	-31.9	-40.1	4.1	1.14e+00	0	42	104	0	23	9281
2026-01-24 08:21:29.71	92.73	9.36	-32.0	-40.3	4.7	8.27e-01	0	42	104	0	23	9339
2026-01-24 08:21:30.72	92.61	9.43	-32.3	-41.4	3.9	1.46e+00	0	42	104	0	24	10341
2026-01-24 08:21:31.72	92.50	9.49	-32.4	-41.7	4.2	1.43e+00	0	42	104	0	24	10475
2026-01-24 08:21:32.73	92.38	9.56	-32.4	-40.6	4.1	1.45e+00	0	42	104	0	24	9302
2026-01-24 08:21:33.72	92.26	9.62	-32.4	-40.3	4.9	7.61e-01	0	42	104	0	24	8909
2026-01-24 08:21:34.73	92.15	9.69	-32.4	-40.3	5.0	7.42e-01	0	42	102	1048576	24	8885
2026-01-24 08:21:35.73	92.03	9.75	-32.4	-39.9	5.2	6.46e-01	0	42	102	1048576	24	8531
2026-01-24 08:21:36.72	91.91	9.82	-32.4	-39.7	5.4	5.09e-01	0	42	102	1048576	24	8324
2026-01-24 08:21:37.73	91.79	9.88	-32.4	-39.6	5.4	5.05e-01	0	42	102	1048576	24	8229
2026-01-24 08:21:38.74	91.67	9.95	-32.4	-39.0	5.8	4.91e-01	0	42	102	1048576	24	7696
2026-01-24 08:21:39.74	91.56	10.02	-32.2	-37.9	6.6	2.43e-01	0	42	102	1048576	24	6957
2026-01-24 08:21:40.75	91.43	10.08	-32.1	-37.1	7.2	1.61e-01	0	42	102	1048576	24	6395
2026-01-24 08:21:41.75	91.31	10.15	-31.9	-36.3	7.9	1.12e-01	0	42	102	1048576	24	5950
2026-01-24 08:21:42.76	91.19	10.21	-31.6	-34.7	9.2	2.95e-02	0	42	102	1048576	24	5187
2026-01-24 08:21:43.77	91.07	10.28	-31.3	-34.1	10.0	9.09e-03	0	42	102	1048576	23	4981
2026-01-24 08:21:44.78	90.95	10.34	-30.9	-32.9	11.0	3.66e-03	0	42	102	1048576	23	4519
2026-01-24 08:21:45.78	90.82	10.41	-30.7	-32.7	11.5	1.29e-03	0	42	102	1048576	22	4539
2026-01-24 08:21:46.78	90.70	10.48	-30.7	-32.6	11.6	6.65e-04	0	42	102	1048576	22	4492
2026-01-24 08:21:47.79	90.58	10.54	-30.8	-32.8	11.5	6.74e-04	0	42	102	1048576	22	4557
2026-01-24 08:21:48.80	90.45	10.61	-30.9	-33.3	11.1	9.71e-04	0	42	102	1048576	22	4743
2026-01-24 08:21:49.80	90.33	10.67	-31.0	-33.6	10.9	2.18e-03	0	42	102	1048576	22	4874
2026-01-24 08:21:50.80	90.20	10.74	-31.0	-33.5	11.0	2.01e-03	0	42	102	1048576	22	4820
2026-01-24 08:21:51.80	90.07	10.81	-30.9	-33.3	11.1	1.53e-03	0	42	102	1048576	22	4746
2026-01-24 08:21:52.80	89.95	10.87	-30.7	-32.6	11.7	8.97e-04	0	42	102	1048576	22	4482
2026-01-24 08:21:53.81	89.82	10.94	-30.8	-32.9	11.5	6.25e-04	0	42	102	1048576	22	4597
2026-01-24 08:21:54.81	89.69	11.00	-30.8	-32.9	11.5	1.05e-03	0	43	102	1048576	22	4598
2026-01-24 08:21:55.81	89.56	11.07	-30.9	-33.3	11.3	7.32e-04	0	43	102	1048576	22	4721
2026-01-24 08:21:56.82	89.43	11.14	-31.0	-33.5	11.1	1.47e-03	0	42	102	1048576	22	4797
2026-01-24 08:21:57.83	89.30	11.20	-31.1	-34.0	10.8	2.20e-03	0	42	102	1048576	22	4985
2026-01-24 08:21:58.84	89.17	11.27	-31.2	-34.1	10.7	2.69e-03	0	42	102	1048576	22	5025
2026-01-24 08:21:59.84	89.04	11.33	-31.1	-33.8	10.8	2.95e-03	0	42	102	1048576	22	4929
2026-01-24 08:22:00.85	88.91	11.40	-31.1	-33.7	11.0	1.92e-03	0	43	102	1048576	22	4861
2026-01-24 08:22:01.86	88.77	11.47	-31.1	-33.9	10.8	1.99e-03	0	43	102	1048576	22	4951
2026-01-24 08:22:02.86	88.64	11.53	-31.2	-33.9	10.9	2.44e-03	0	42	102	1048576	22	4952
2026-01-24 08:22:03.87	88.51	11.60	-31.2	-33.9	10.9	2.28e-03	0	43	102	1048576	22	4952
2026-01-24 08:22:04.88	88.37	11.67	-31.2	-34.1	10.8	2.50e-03	0	43	102	1048576	22	5006
2026-01-24 08:22:05.88	88.24	11.73	-31.3	-34.5	10.4	3.75e-03	0	42	102	1048576	22	5196
2026-01-24 08:22:06.89	88.10	11.80	-31.2	-34.1	10.7	3.39e-03	0	42	102	1048576	22	5040
2026-01-24 08:22:07.89	87.97	11.87	-31.0	-33.5	11.2	2.10e-03	0	43	102	1048576	22	4799
2026-01-24 08:22:08.90	87.83	11.93	-30.9	-33.2	11.5	1.31e-03	0	43	102	1048576	22	4670
2026-01-24 08:22:09.90	87.69	12.00	-31.0	-33.4	11.3	8.75e-04	0	43	102	1048576	22	4732
2026-01-24 08:22:10.91	87.55	12.07	-30.9	-33.2	11.5	9.59e-04	0	43	102	1048576	22	4669
2026-01-24 08:22:11.91	87.41	12.13	-31.0	-33.3	11.4	9.58e-04	0	42	102	1048576	22	4696
2026-01-24 08:22:12.92	87.27	12.20	-31.1	-33.7	11.2	9.15e-04	0	43	102	1048576	22	4841
2026-01-24 08:22:13.92	87.14	12.27	-31.2	-34.0	10.9	1.53e-03	0	43	102	1048576	22	4977
2026-01-24 08:22:14.93	86.99	12.33	-31.0	-33.4	11.4	1.73e-03	0	43	102	1048576	22	4744
2026-01-24 08:22:15.93	86.85	12.40	-30.9	-32.9	11.7	9.06e-04	0	43	102	1048576	22	4563
2026-01-24 08:22:16.94	86.71	12.47	-31.0	-33.2	11.5	7.38e-04	0	43	102	1048576	22	4669
2026-01-24 08:22:17.94	86.57	12.53	-31.0	-33.2	11.5	7.00e-04	0	43	102	1048576	22	4672
2026-01-24 08:22:18.94	86.43	12.60	-30.7	-32.8	11.8	7.44e-04	0	43	102	1048576	22	4544
2026-01-24 08:22:19.95	86.28	12.67	-30.7	-32.7	11.7	4.73e-04	0	43	102	1048576	22	4532
2026-01-24 08:22:20.95	86.14	12.73	-30.8	-32.9	11.7	4.73e-04	0	43	102	1048576	22	4579
2026-01-24 08:22:21.96	85.99	12.80	-30.8	-32.8	11.7	3.11e-04	0	43	102	1048576	22	4570
2026-01-24 08:22:22.96	85.85	12.87	-30.7	-32.7	11.8	4.62e-04	0	43	102	1048576	22	4516
2026-01-24 08:22:23.96	85.70	12.93	-30.8	-33.0	11.6	8.76e-04	0	43	102	1048576	22	4633
2026-01-24 08:22:24.97	85.55	13.00	-30.9	-33.3	11.3	1.22e-03	0	43	102	1048576	22	4751
2026-01-24 08:22:25.97	85.40	13.07	-30.9	-33.3	11.4	1.12e-03	0	43	102	1048576	22	4738
2026-01-24 08:22:26.97	85.26	13.13	-30.8	-33.1	11.5	9.83e-04	0	43	102	1048576	22	4675
2026-01-24 08:22:27.97	85.11	13.20	-30.9	-33.2	11.4	8.30e-04	0	43	102	1048576	22	4703
2026-01-24 08:22:28.98	84.96	13.27	-31.0	-33.6	11.1	9.88e-04	0	43	102	1048576	22	4863
2026-01-24 08:22:29.98	84.81	13.33	-30.8	-33.1	11.5	9.44e-04	0	43	102	1048576	22	4690
2026-01-24 08:22:30.99	84.66	13.40	-30.8	-33.0	11.6	6.65e-04	0	43	102	1048576	22	4635
2026-01-24 08:22:31.99	84.50	13.47	-30.9	-33.2	11.5	8.27e-04	0	43	102	1048576	22	4691
2026-01-24 08:22:33.00	84.35	13.53	-30.9	-33.4	11.3	1.09e-03	0	43	102	1048576	22	4785
2026-01-24 08:22:34.01	84.20	13.60	-30.9	-33.2	11.4	9.98e-04	0	43	102	1048576	22	4717
2026-01-24 08:22:35.01	84.04	13.67	-30.9	-33.3	11.4	1.11e-03	0	43	102	1048576	22	4751
2026-01-24 08:22:36.01	83.89	13.73	-30.8	-32.9	11.7	9.02e-04	0	43	102	1048576	22	4582
2026-01-24 08:22:37.02	83.73	13.80	-30.7	-32.6	11.9	4.03e-04	0	43	102	1048576	22	4500
2026-01-24 08:22:38.02	83.58	13.87	-30.8	-32.8	11.8	3.49e-04	0	43	102	1048576	22	4562
2026-01-24 08:22:39.03	83.42	13.93	-31.0	-33.5	11.2	6.36e-04	0	43	102	1048576	22	4824
2026-01-24 08:22:40.03	83.26	14.00	-31.0	-33.6	11.2	1.56e-03	0	43	102	1048576	22	4861
2026-01-24 08:22:41.04	83.10	14.07	-31.1	-33.9	11.0	1.70e-03	0	43	102	1048576	22	4968
2026-01-24 08:22:42.04	82.94	14.13	-31.1	-33.8	11.1	1.98e-03	0	43	102	1048576	22	4939
2026-01-24 08:22:43.04	82.79	14.20	-31.1	-34.0	10.9	1.73e-03	0	43	102	1048576	22	5006
2026-01-24 08:22:44.05	82.62	14.26	-31.0	-33.4	11.4	1.07e-03	0	43	102	1048576	22	4765
2026-01-24 08:22:45.06	82.46	14.33	-30.9	-33.2	11.5	9.09e-04	0	43	102	1048576	22	4712
2026-01-24 08:22:46.06	82.30	14.40	-30.9	-33.4	11.4	6.65e-04	0	43	102	1048576	22	4760
2026-01-24 08:22:47.07	82.14	14.46	-30.9	-33.3	11.5	7.32e-04	0	43	102	1048576	22	4717
2026-01-24 08:22:48.08	81.97	14.53	-30.9	-33.2	11.6	6.45e-04	0	43	102	1048576	22	4704
2026-01-24 08:22:49.08	81.81	14.59	-31.0	-33.4	11.4	7.39e-04	0	43	102	1048576	22	4780
2026-01-24 08:22:50.08	81.64	14.66	-31.0	-33.4	11.4	9.38e-04	0	43	102	1048576	22	4775
2026-01-24 08:22:51.09	81.48	14.73	-30.9	-33.2	11.6	7.86e-04	0	43	102	1048576	22	4685
2026-01-24 08:22:52.09	81.31	14.79	-30.9	-33.1	11.7	5.65e-04	0	43	102	1048576	22	4660
2026-01-24 08:22:53.10	81.14	14.86	-30.9	-33.2	11.7	7.05e-04	0	43	102	1048576	22	4672
2026-01-24 08:22:54.10	80.98	14.92	-31.0	-33.4	11.5	7.09e-04	0	43	102	1048576	22	4758
2026-01-24 08:22:55.11	80.81	14.99	-31.1	-33.9	11.1	1.08e-03	0	43	102	1048576	22	4948
2026-01-24 08:22:56.11	80.64	15.05	-31.0	-33.6	11.3	1.24e-03	0	43	102	1048576	22	4848
2026-01-24 08:22:57.12	80.47	15.12	-31.2	-34.3	10.8	2.25e-03	0	43	102	1048576	22	5120
2026-01-24 08:22:58.13	80.30	15.19	-31.1	-33.8	11.1	1.95e-03	0	43	102	1048576	22	4936
2026-01-24 08:22:59.13	80.13	15.25	-31.2	-34.0	11.0	1.84e-03	0	43	102	1048576	22	5017
2026-01-24 08:23:00.13	79.95	15.32	-31.2	-34.1	11.0	2.02e-03	0	43	102	1048576	22	5039
2026-01-24 08:23:01.13	79.78	15.38	-31.2	-34.1	11.0	1.80e-03	0	43	102	1048576	22	5043
2026-01-24 08:23:02.14	79.61	15.45	-31.1	-33.9	11.0	1.52e-03	0	43	102	1048576	22	4969
2026-01-24 08:23:03.14	79.43	15.51	-31.0	-33.6	11.4	1.39e-03	0	43	102	1048576	22	4814
2026-01-24 08:23:04.14	79.26	15.58	-31.1	-33.9	11.1	1.53e-03	0	43	102	1048576	22	4970
2026-01-24 08:23:05.15	79.08	15.64	-31.1	-33.8	11.2	1.51e-03	0	43	102	1048576	22	4895
2026-01-24 08:23:06.15	78.90	15.70	-31.0	-33.4	11.5	9.33e-04	0	43	102	1048576	22	4746
2026-01-24 08:23:07.15	78.73	15.77	-30.9	-33.1	11.7	7.24e-04	0	43	102	1048576	22	4657
2026-01-24 08:23:08.16	78.55	15.83	-30.9	-33.0	11.8	4.90e-04	0	43	102	1048576	22	4607
2026-01-24 08:23:09.16	78.37	15.90	-31.2	-34.1	11.1	8.19e-04	0	43	102	1048576	22	5026
2026-01-24 08:23:10.16	78.19	15.96	-30.9	-33.0	11.7	5.77e-04	0	43	102	1048576	22	4629
2026-01-24 08:23:11.16	78.01	16.03	-30.7	-32.6	12.1	3.37e-04	0	43	102	1048576	22	4485
2026-01-24 08:23:12.16	77.83	16.09	-30.5	-32.1	12.4	2.68e-04	0	43	102	1048576	22	4321
2026-01-24 08:23:13.17	77.65	16.15	-30.6	-32.2	12.3	1.62e-04	0	43	102	1048576	22	4340
2026-01-24 08:23:14.17	77.46	16.22	-30.7	-32.6	12.1	2.24e-04	0	43	102	1048576	22	4475
2026-01-24 08:23:15.17	77.28	16.28	-30.6	-32.2	12.4	2.06e-04	0	43	102	1048576	22	4353
2026-01-24 08:23:16.18	77.09	16.34	-30.5	-32.1	12.4	1.47e-04	0	43	102	1048576	22	4316
2026-01-24 08:23:17.19	76.91	16.41	-30.5	-32.0	12.5	1.60e-04	0	43	102	1048576	22	4290
2026-01-24 08:23:18.19	76.72	16.47	-30.4	-31.9	12.6	9.99e-05	0	43	102	1048576	22	4250
2026-01-24 08:23:19.20	76.53	16.53	-30.5	-31.9	12.6	8.54e-05	0	43	102	1048576	22	4243
2026-01-24 08:23:20.20	76.35	16.60	-30.6	-32.1	12.4	1.14e-04	0	43	102	1048576	22	4321
2026-01-24 08:23:21.21	76.16	16.66	-30.6	-32.2	12.4	1.64e-04	0	43	102	1048576	22	4347
2026-01-24 08:23:22.21	75.97	16.72	-30.3	-31.5	12.9	1.14e-04	0	43	102	1048576	22	4132
2026-01-24 08:23:23.21	75.78	16.78	-30.3	-32.0	12.8	5.56e-05	0	43	102	1048576	21	4349
2026-01-24 08:23:24.22	75.59	16.85	-30.2	-31.5	13.1	3.66e-05	0	43	102	1048576	21	4209
2026-01-24 08:23:25.22	75.39	16.91	-29.9	-30.9	13.6	1.37e-05	0	43	102	1048576	21	4009
2026-01-24 08:23:26.22	75.20	16.97	-30.0	-31.0	13.5	1.14e-05	0	43	102	1048576	21	4036
2026-01-24 08:23:27.23	75.01	17.03	-30.1	-31.3	13.4	2.05e-05	0	43	102	1048576	21	4122
2026-01-24 08:23:28.23	74.81	17.09	-30.2	-31.5	13.2	2.21e-05	0	43	102	1048576	21	4177
2026-01-24 08:23:29.23	74.62	17.15	-30.1	-31.2	13.4	1.22e-05	0	43	102	1048576	21	4103
2026-01-24 08:23:30.23	74.43	17.21	-30.0	-31.0	13.5	6.10e-06	0	43	102	1048576	21	4034
2026-01-24 08:23:31.23	74.23	17.27	-29.9	-30.7	13.7	7.60e-06	0	43	102	1048576	21	3964
2026-01-24 08:23:32.23	74.03	17.33	-29.9	-30.7	13.7	6.80e-06	0	43	102	1048576	21	3953
2026-01-24 08:23:33.24	73.83	17.40	-29.9	-30.8	13.7	6.80e-06	0	43	102	1048576	21	3978
2026-01-24 08:23:34.24	73.64	17.46	-29.8	-31.0	13.9	3.00e-06	0	43	102	1048576	20	4140
2026-01-24 08:23:35.24	73.44	17.52	-29.9	-31.3	13.6	3.00e-06	0	43	102	1048576	20	4226
2026-01-24 08:23:36.25	73.23	17.58	-29.8	-30.9	13.9	3.80e-06	0	43	102	1048576	20	4111
2026-01-24 08:23:37.25	73.03	17.63	-29.6	-30.6	14.1	1.50e-06	0	43	102	1048576	20	4011
2026-01-24 08:23:38.26	72.83	17.69	-29.8	-30.9	14.0	7.00e-07	0	43	102	1048576	20	4088
2026-01-24 08:23:39.27	72.63	17.75	-29.8	-30.9	13.9	6.80e-06	0	43	102	1048576	20	4108
2026-01-24 08:23:40.27	72.42	17.81	-29.8	-31.0	13.8	1.50e-06	0	43	102	1048576	20	4147
2026-01-24 08:23:41.28	72.22	17.87	-29.9	-31.1	13.8	6.80e-06	0	43	102	1048576	20	4166
2026-01-24 08:23:42.28	72.01	17.93	-29.9	-31.3	13.7	6.10e-06	0	43	102	1048576	20	4213
2026-01-24 08:23:43.29	71.81	17.99	-29.9	-31.3	13.7	2.20e-06	0	43	102	1048576	20	4212
2026-01-24 08:23:44.29	71.60	18.05	-29.8	-31.1	13.7	6.80e-06	0	43	102	1048576	20	4168
2026-01-24 08:23:45.29	71.39	18.10	-30.0	-31.4	13.6	7.60e-06	0	43	102	1048576	20	4267
2026-01-24 08:23:46.30	71.18	18.16	-30.0	-31.4	13.7	1.06e-05	0	43	102	1048576	20	4250
2026-01-24 08:23:47.31	70.97	18.22	-30.1	-31.8	13.4	1.22e-05	0	43	102	1048576	20	4373
2026-01-24 08:23:48.31	70.76	18.28	-30.0	-31.5	13.6	1.37e-05	0	43	102	1048576	20	4285
2026-01-24 08:23:49.31	70.55	18.33	-30.0	-31.6	13.5	6.10e-06	0	43	102	1048576	20	4307
2026-01-24 08:23:50.31	70.34	18.39	-29.9	-31.4	13.7	6.80e-06	0	43	102	1048576	20	4245
2026-01-24 08:23:51.31	70.13	18.44	-30.1	-31.7	13.5	8.30e-06	0	43	102	1048576	20	4328
2026-01-24 08:23:52.32	69.91	18.50	-30.0	-31.6	13.5	1.29e-05	0	43	102	1048576	20	4306
2026-01-24 08:23:53.32	69.70	18.56	-29.8	-31.0	13.9	6.80e-06	0	43	102	1048576	20	4116
2026-01-24 08:23:54.33	69.49	18.61	-30.1	-31.6	13.5	3.80e-06	0	43	102	1048576	20	4310
2026-01-24 08:23:55.34	69.27	18.67	-30.0	-31.4	13.6	1.06e-05	0	43	102	1048576	20	4253
2026-01-24 08:23:56.34	69.05	18.72	-29.8	-30.8	14.0	3.80e-06	0	43	102	1048576	20	4060
2026-01-24 08:23:57.34	68.84	18.78	-29.6	-30.4	14.4	7.00e-07	0	43	102	1048576	20	3941
2026-01-24 08:23:58.34	68.62	18.83	-29.7	-30.6	14.2	3.00e-06	0	43	102	1048576	20	4014
2026-01-24 08:23:59.34	68.40	18.88	-29.5	-30.2	14.5	2.20e-06	0	43	102	1048576	20	3890
2026-01-24 08:24:00.34	68.18	18.94	-29.3	-30.1	14.9	0.00e+00	0	43	102	1048576	19	3947
2026-01-24 08:24:01.35	67.96	18.99	-29.2	-29.8	15.1	0.00e+00	0	43	102	1048576	19	3863
2026-01-24 08:24:02.35	67.74	19.04	-29.1	-29.5	15.3	0.00e+00	0	43	102	1048576	19	3774
2026-01-24 08:24:03.36	67.52	19.09	-28.9	-29.1	15.5	0.00e+00	0	43	102	1048576	19	3670
2026-01-24 08:24:04.37	67.29	19.15	-29.0	-29.3	15.4	0.00e+00	0	43	102	1048576	19	3715
2026-01-24 08:24:05.38	67.07	19.20	-29.2	-29.8	15.1	0.00e+00	0	43	102	1048576	19	3848
2026-01-24 08:24:06.38	66.84	19.25	-29.2	-29.8	15.1	0.00e+00	0	43	102	1048576	19	3847
2026-01-24 08:24:07.39	66.62	19.30	-29.3	-29.9	15.0	7.00e-07	0	43	102	1048576	19	3881
2026-01-24 08:24:08.39	66.39	19.35	-29.3	-30.0	15.0	0.00e+00	0	43	102	1048576	19	3917
2026-01-24 08:24:09.40	66.17	19.40	-29.4	-30.2	14.9	0.00e+00	0	43	102	1048576	19	3966
2026-01-24 08:24:10.41	65.94	19.45	-29.6	-30.7	14.7	1.50e-06	0	43	102	1048576	19	4093
2026-01-24 08:24:11.41	65.71	19.50	-29.7	-30.9	14.5	1.50e-06	0	43	102	1048576	19	4159
2026-01-24 08:24:12.41	65.48	19.55	-29.6	-30.8	14.6	1.50e-06	0	43	102	1048576	19	4125
2026-01-24 08:24:13.42	65.25	19.60	-29.5	-30.5	14.8	0.00e+00	0	43	102	1048576	19	4027
2026-01-24 08:24:14.42	65.02	19.65	-29.6	-30.6	14.7	0.00e+00	0	43	102	1048576	19	4073
2026-01-24 08:24:15.42	64.79	19.70	-29.5	-30.6	14.7	7.00e-07	0	43	102	1048576	19	4063
2026-01-24 08:24:16.42	64.56	19.74	-29.6	-30.8	14.6	0.00e+00	0	43	102	1048576	19	4136
2026-01-24 08:24:17.43	64.33	19.79	-29.7	-31.1	14.4	7.00e-07	0	43	102	1048576	19	4196
2026-01-24 08:24:18.43	64.10	19.84	-29.6	-30.8	14.6	1.50e-06	0	43	102	1048576	19	4122
2026-01-24 08:24:19.44	63.86	19.88	-29.6	-30.8	14.6	7.00e-07	0	43	102	1048576	19	4112
2026-01-24 08:24:20.44	63.63	19.93	-29.6	-30.8	14.5	7.00e-07	0	43	102	1048576	19	4129
2026-01-24 08:24:21.45	63.39	19.98	-29.6	-30.8	14.6	7.00e-07	0	43	102	1048576	19	4106
2026-01-24 08:24:22.44	63.16	20.02	-29.5	-30.5	14.8	0.00e+00	0	43	102	1048576	19	4023
2026-01-24 08:24:23.44	62.92	20.06	-29.3	-30.0	15.1	0.00e+00	0	43	102	1048576	19	3885
2026-01-24 08:24:24.45	62.68	20.11	-29.2	-29.8	15.2	7.00e-07	0	43	102	1048576	19	3841
2026-01-24 08:24:25.45	62.45	20.15	-29.1	-29.4	15.4	0.00e+00	0	43	102	1048576	19	3736
2026-01-24 08:24:26.46	62.21	20.20	-29.1	-29.4	15.4	0.00e+00	0	43	102	1048576	19	3745
2026-01-24 08:24:27.46	61.97	20.24	-29.1	-29.4	15.4	0.00e+00	0	43	102	1048576	19	3749
2026-01-24 08:24:28.46	61.73	20.28	-29.1	-29.4	15.4	0.00e+00	0	43	102	1048576	19	3727
2026-01-24 08:24:29.47	61.49	20.32	-28.9	-29.0	15.7	0.00e+00	0	43	102	1048576	19	3648
2026-01-24 08:24:30.47	61.25	20.36	-29.1	-29.5	15.4	7.00e-07	0	43	102	1048576	19	3766
2026-01-24 08:24:31.47	61.01	20.41	-29.2	-29.7	15.3	0.00e+00	0	43	102	1048576	19	3814
2026-01-24 08:24:32.48	60.76	20.45	-29.2	-29.7	15.3	0.00e+00	0	43	102	1048576	19	3822
2026-01-24 08:24:33.47	60.52	20.49	-29.2	-29.7	15.3	7.00e-07	0	43	102	1048576	19	3803
2026-01-24 08:24:34.47	60.28	20.53	-29.0	-29.1	15.7	0.00e+00	0	43	102	1048576	19	3649
2026-01-24 08:24:35.48	60.03	20.56	-29.0	-29.1	15.6	0.00e+00	0	43	102	1048576	19	3663
2026-01-24 08:24:36.48	59.79	20.60	-29.2	-29.6	15.4	0.00e+00	0	43	102	1048576	19	3778
2026-01-24 08:24:37.49	59.54	20.64	-29.4	-30.1	15.1	0.00e+00	0	43	102	1048576	19	3915
2026-01-24 08:24:38.48	59.30	20.68	-29.6	-30.7	14.7	0.00e+00	0	43	102	1048576	19	4096
2026-01-24 08:24:39.48	59.05	20.72	-29.7	-31.0	14.5	7.00e-07	0	43	102	1048576	19	4179
2026-01-24 08:24:40.49	58.80	20.75	-29.8	-31.2	14.4	1.50e-06	0	43	102	1048576	19	4231
2026-01-24 08:24:41.49	58.56	20.79	-29.7	-31.0	14.5	0.00e+00	0	43	102	1048576	19	4180
2026-01-24 08:24:42.50	58.31	20.82	-29.8	-31.3	14.4	1.50e-06	0	43	102	1048576	19	4245
2026-01-24 08:24:43.50	58.06	20.86	-30.0	-31.2	14.0	3.00e-06	0	43	102	1048576	20	4156
2026-01-24 08:24:44.50	57.81	20.89	-30.2	-31.8	13.7	1.50e-06	0	43	102	1048576	20	4328
2026-01-24 08:24:45.51	57.56	20.93	-30.1	-31.6	13.8	3.00e-06	0	43	102	1048576	20	4263
2026-01-24 08:24:46.52	57.30	20.96	-30.1	-31.5	13.8	5.30e-06	0	43	102	1048576	20	4248
2026-01-24 08:24:47.52	57.05	20.99	-30.3	-32.1	13.6	9.10e-06	0	43	102	1048576	20	4429
2026-01-24 08:24:48.53	56.80	21.03	-30.3	-32.2	13.4	1.22e-05	0	43	102	1048576	20	4467
2026-01-24 08:24:49.52	56.55	21.06	-30.4	-32.2	13.4	1.14e-05	0	43	102	1048576	20	4473
2026-01-24 08:24:50.53	56.30	21.09	-30.4	-32.5	13.1	1.98e-05	0	43	102	1048576	20	4578
2026-01-24 08:24:51.53	56.04	21.12	-30.2	-32.0	13.4	9.90e-06	0	43	102	1048576	20	4395
2026-01-24 08:24:52.53	55.79	21.15	-30.2	-31.8	13.6	1.06e-05	0	43	102	1048576	20	4327
2026-01-24 08:24:53.54	55.54	21.18	-30.2	-31.8	13.7	6.80e-06	0	43	102	1048576	20	4331
2026-01-24 08:24:54.54	55.28	21.21	-30.0	-31.3	13.9	4.50e-06	0	43	102	1048576	20	4195
2026-01-24 08:24:55.54	55.03	21.24	-30.0	-31.2	13.8	3.80e-06	0	43	102	1048576	20	4148
2026-01-24 08:24:56.53	54.77	21.27	-30.2	-31.8	13.6	3.80e-06	0	43	102	1048576	20	4326
2026-01-24 08:24:57.53	54.52	21.29	-30.3	-32.1	13.4	1.44e-05	0	43	102	1048576	20	4427
2026-01-24 08:24:58.53	54.26	21.32	-30.4	-32.0	13.2	2.89e-05	0	43	102	1048576	21	4312
2026-01-24 08:24:59.54	54.00	21.35	-30.9	-33.3	12.3	1.11e-04	0	43	102	1048576	21	4736
2026-01-24 08:25:00.54	53.75	21.37	-31.1	-33.4	11.9	3.63e-04	0	43	102	1048576	22	4680
2026-01-24 08:25:01.55	53.49	21.40	-30.9	-32.9	12.2	2.82e-04	0	43	102	1048576	22	4532
2026-01-24 08:25:02.56	53.23	21.42	-30.8	-32.6	12.4	1.43e-04	0	43	102	1048576	22	4414
2026-01-24 08:25:03.56	52.97	21.45	-30.6	-32.0	12.9	1.05e-04	0	43	102	1048576	22	4224
2026-01-24 08:25:04.57	52.71	21.47	-30.5	-31.7	13.0	9.91e-05	0	43	102	1048576	22	4122
2026-01-24 08:25:05.57	52.45	21.49	-30.6	-31.9	12.9	4.34e-05	0	43	102	1048576	22	4191
2026-01-24 08:25:06.58	52.19	21.51	-30.7	-32.1	12.8	5.49e-05	0	43	102	1048576	22	4237
2026-01-24 08:25:07.58	51.93	21.54	-30.6	-31.9	12.9	4.50e-05	0	43	102	1048576	22	4186
2026-01-24 08:25:08.59	51.67	21.56	-30.7	-32.3	12.7	5.79e-05	0	43	102	1048576	22	4301
2026-01-24 08:25:09.59	51.41	21.58	-30.8	-32.4	12.6	1.22e-04	0	43	102	1048576	22	4348
2026-01-24 08:25:10.60	51.14	21.60	-30.7	-32.1	12.7	6.02e-05	0	43	102	1048576	22	4266
2026-01-24 08:25:11.60	50.88	21.61	-30.5	-31.8	12.9	5.64e-05	0	43	102	1048576	22	4153
2026-01-24 08:25:12.61	50.62	21.63	-30.3	-31.2	13.3	2.82e-05	0	43	102	1048576	22	3979
2026-01-24 08:25:13.61	50.36	21.65	-30.2	-31.4	13.5	7.60e-06	0	43	102	1048576	21	4126
2026-01-24 08:25:14.61	50.10	21.67	-30.1	-31.2	13.7	6.80e-06	0	43	102	1048576	21	4066
2026-01-24 08:25:15.61	49.83	21.68	-30.1	-31.0	13.8	3.00e-06	0	43	102	1048576	21	4027
2026-01-24 08:25:16.62	49.57	21.70	-30.3	-31.6	13.4	1.14e-05	0	43	102	1048576	21	4198
2026-01-24 08:25:17.62	49.31	21.72	-30.4	-32.1	13.0	3.73e-05	0	43	102	1048576	21	4376
2026-01-24 08:25:18.63	49.04	21.73	-30.6	-32.6	12.7	5.79e-05	0	43	102	1048576	21	4530
2026-01-24 08:25:19.64	48.78	21.74	-30.8	-33.1	12.4	1.14e-04	0	43	102	1048576	21	4711
2026-01-24 08:25:20.64	48.51	21.76	-30.8	-33.3	12.2	1.20e-04	0	43	102	1048576	21	4782
2026-01-24 08:25:21.65	48.25	21.77	-30.9	-33.6	12.0	2.49e-04	0	43	102	1048576	21	4877
2026-01-24 08:25:22.65	47.98	21.78	-31.0	-33.2	12.0	3.05e-04	0	43	102	1048576	22	4633
2026-01-24 08:25:23.65	47.72	21.79	-31.1	-33.7	11.7	5.18e-04	0	43	102	1048576	22	4816
2026-01-24 08:25:24.66	47.45	21.80	-31.1	-33.6	11.7	6.26e-04	0	43	102	1048576	22	4806
2026-01-24 08:25:25.66	47.19	21.81	-31.0	-33.3	12.0	4.75e-04	0	43	102	1048576	22	4661
2026-01-24 08:25:26.66	46.92	21.82	-31.0	-33.3	12.0	2.71e-04	0	43	102	1048576	22	4662
2026-01-24 08:25:27.67	46.66	21.83	-30.9	-32.7	12.3	2.10e-04	0	43	102	1048576	22	4467
2026-01-24 08:25:28.68	46.39	21.84	-30.8	-32.5	12.5	9.99e-05	0	43	102	1048576	22	4391
2026-01-24 08:25:29.68	46.12	21.85	-30.9	-32.8	12.3	1.43e-04	0	43	102	1048576	22	4483
2026-01-24 08:25:30.68	45.86	21.85	-30.7	-32.2	12.7	1.36e-04	0	43	102	1048576	22	4299
2026-01-24 08:25:31.68	45.59	21.86	-30.4	-31.4	13.2	4.57e-05	0	43	102	1048576	22	4030
2026-01-24 08:25:32.69	45.33	21.87	-30.1	-31.1	13.7	3.80e-06	0	43	102	1048576	21	4053
2026-01-24 08:25:33.70	45.06	21.87	-30.1	-31.2	13.7	5.30e-06	0	43	102	1048576	21	4061
2026-01-24 08:25:34.71	44.79	21.87	-30.3	-31.5	13.5	9.90e-06	0	43	102	1048576	21	4180
2026-01-24 08:25:35.71	44.53	21.88	-30.1	-31.1	13.7	1.37e-05	0	43	102	1048576	21	4038
2026-01-24 08:25:36.71	44.26	21.88	-30.0	-30.9	13.8	3.00e-06	0	43	102	1048576	21	3979
2026-01-24 08:25:37.71	44.00	21.88	-29.9	-30.7	13.9	3.00e-06	0	43	102	1048576	21	3925
2026-01-24 08:25:38.72	43.73	21.88	-30.0	-30.9	13.8	2.20e-06	0	43	102	1048576	21	3982
2026-01-24 08:25:39.72	43.46	21.89	-30.1	-31.1	13.7	1.50e-06	0	43	102	1048576	21	4055
2026-01-24 08:25:40.72	43.20	21.89	-30.3	-31.6	13.4	1.75e-05	0	43	102	1048576	21	4192
2026-01-24 08:25:41.72	42.93	21.89	-30.4	-32.0	13.1	1.22e-05	0	43	102	1048576	21	4315
2026-01-24 08:25:42.72	42.67	21.88	-30.4	-32.0	13.1	2.74e-05	0	43	102	1048576	21	4320
2026-01-24 08:25:43.72	42.40	21.88	-30.3	-31.8	13.3	3.28e-05	0	43	102	1048576	21	4241
2026-01-24 08:25:44.73	42.13	21.88	-30.4	-31.9	13.2	1.83e-05	0	43	102	1048576	21	4287
2026-01-24 08:25:45.73	41.87	21.88	-30.3	-31.6	13.4	2.59e-05	0	43	102	1048576	21	4203
2026-01-24 08:25:46.73	41.60	21.87	-30.3	-31.7	13.3	1.29e-05	0	43	102	1048576	21	4213
2026-01-24 08:25:47.74	41.33	21.87	-30.4	-31.9	13.2	2.05e-05	0	43	102	1048576	21	4280
2026-01-24 08:25:48.74	41.07	21.86	-30.1	-31.1	13.7	2.21e-05	0	43	102	1048576	21	4020
2026-01-24 08:25:49.74	40.80	21.86	-29.8	-30.3	14.2	1.50e-06	0	43	102	1048576	21	3803
2026-01-24 08:25:50.74	40.54	21.85	-29.5	-30.0	14.7	0.00e+00	0	43	102	1048576	20	3806
2026-01-24 08:25:51.75	40.27	21.84	-29.6	-30.3	14.5	1.50e-06	0	43	102	1048576	20	3898
2026-01-24 08:25:52.75	40.01	21.84	-29.5	-30.1	14.6	0.00e+00	0	43	102	1048576	20	3833
2026-01-24 08:25:53.75	39.74	21.83	-29.7	-30.5	14.4	0.00e+00	0	43	102	1048576	20	3959
2026-01-24 08:25:54.76	39.48	21.82	-29.6	-30.3	14.5	7.00e-07	0	43	102	1048576	20	3880
2026-01-24 08:25:55.76	39.21	21.81	-29.7	-30.4	14.5	7.00e-07	0	43	102	1048576	20	3912
2026-01-24 08:25:56.77	38.94	21.80	-29.4	-29.8	14.8	0.00e+00	0	43	102	1048576	20	3746
2026-01-24 08:25:57.76	38.68	21.79	-29.3	-29.9	15.2	0.00e+00	0	43	102	1048576	19	3863
2026-01-24 08:25:58.77	38.42	21.78	-29.3	-29.9	15.1	0.00e+00	0	43	102	1048576	19	3859
2026-01-24 08:25:59.77	38.15	21.76	-29.7	-30.9	14.6	0.00e+00	0	44	102	1048576	19	4132
2026-01-24 08:26:00.78	37.89	21.75	-29.5	-30.4	14.9	0.00e+00	0	43	102	1048576	19	3987
2026-01-24 08:26:01.79	37.62	21.74	-29.6	-30.6	14.7	7.00e-07	0	43	102	1048576	19	4059
2026-01-24 08:26:02.78	37.36	21.72	-29.6	-30.6	14.8	0.00e+00	0	43	102	1048576	19	4046
2026-01-24 08:26:03.79	37.10	21.71	-29.5	-30.5	14.8	7.00e-07	0	43	102	1048576	19	4024
2026-01-24 08:26:04.79	36.84	21.69	-29.5	-30.4	14.9	0.00e+00	0	43	102	1048576	19	3992
2026-01-24 08:26:05.80	36.57	21.68	-29.6	-30.7	14.7	7.00e-07	0	43	102	1048576	19	4083
2026-01-24 08:26:06.81	36.31	21.66	-29.4	-30.3	14.9	0.00e+00	0	44	102	1048576	19	3968
2026-01-24 08:26:07.81	36.05	21.64	-29.2	-29.8	15.2	0.00e+00	0	43	102	1048576	19	3830
2026-01-24 08:26:08.81	35.78	21.63	-29.2	-29.8	15.2	0.00e+00	0	43	102	1048576	19	3836
2026-01-24 08:26:09.82	35.52	21.61	-29.3	-30.0	15.1	0.00e+00	0	43	102	1048576	19	3894
2026-01-24 08:26:10.82	35.26	21.59	-29.4	-30.1	15.0	7.00e-07	0	43	102	1048576	19	3919
2026-01-24 08:26:11.82	35.00	21.57	-29.4	-30.3	14.9	0.00e+00	0	43	102	1048576	19	3966
2026-01-24 08:26:12.83	34.74	21.55	-29.6	-30.7	14.7	7.00e-07	0	43	102	1048576	19	4077
2026-01-24 08:26:13.84	34.48	21.53	-29.7	-31.0	14.5	0.00e+00	0	43	102	1048576	19	4184
2026-01-24 08:26:14.84	34.22	21.50	-29.6	-30.6	14.7	7.00e-07	0	43	102	1048576	19	4067
2026-01-24 08:26:15.84	33.96	21.48	-29.4	-30.2	15.0	0.00e+00	0	43	102	1048576	19	3930
2026-01-24 08:26:16.84	33.70	21.46	-29.2	-29.6	15.4	0.00e+00	0	44	102	1048576	19	3776
2026-01-24 08:26:17.85	33.44	21.44	-29.2	-29.8	15.3	0.00e+00	0	43	102	1048576	19	3822
2026-01-24 08:26:18.84	33.19	21.41	-29.1	-29.5	15.4	0.00e+00	0	43	102	1048576	19	3763
2026-01-24 08:26:19.85	32.93	21.39	-29.2	-29.6	15.3	0.00e+00	0	43	102	1048576	19	3776
2026-01-24 08:26:20.86	32.67	21.36	-29.0	-29.1	15.6	0.00e+00	0	43	102	1048576	19	3654
2026-01-24 08:26:21.87	32.41	21.34	-28.9	-29.0	15.7	0.00e+00	0	44	102	1048576	19	3631
2026-01-24 08:26:22.88	32.15	21.31	-29.1	-29.3	15.5	0.00e+00	0	43	102	1048576	19	3691
2026-01-24 08:26:23.88	31.89	21.28	-28.9	-29.0	15.7	0.00e+00	0	43	102	1048576	19	3622
2026-01-24 08:26:24.88	31.64	21.25	-29.2	-29.6	15.4	0.00e+00	0	43	102	1048576	19	3775
2026-01-24 08:26:25.90	31.38	21.23	-29.4	-30.1	15.0	7.00e-07	0	43	102	1048576	19	3916
2026-01-24 08:26:26.90	31.13	21.20	-29.8	-31.1	14.4	2.20e-06	0	43	102	1048576	19	4210
2026-01-24 08:26:27.91	30.87	21.17	-29.8	-31.1	14.4	7.00e-07	0	43	102	1048576	19	4212
2026-01-24 08:26:28.90	30.62	21.14	-29.9	-31.3	14.2	1.50e-06	0	43	102	1048576	19	4272
2026-01-24 08:26:29.90	30.37	21.11	-29.8	-31.2	14.3	0.00e+00	0	43	102	1048576	19	4220
2026-01-24 08:26:30.91	30.11	21.08	-29.9	-31.4	14.3	1.50e-06	0	43	102	1048576	19	4275
2026-01-24 08:26:31.91	29.86	21.05	-29.6	-30.6	14.7	1.50e-06	0	43	102	1048576	19	4062
2026-01-24 08:26:32.91	29.61	21.01	-29.7	-31.0	14.5	7.00e-07	0	43	102	1048576	19	4168
2026-01-24 08:26:33.92	29.36	20.98	-29.6	-30.8	14.6	0.00e+00	0	43	102	1048576	19	4103
2026-01-24 08:26:34.93	29.11	20.95	-29.7	-31.1	14.4	7.00e-07	0	44	102	1048576	19	4188
2026-01-24 08:26:35.93	28.86	20.91	-29.8	-31.3	14.3	3.00e-06	0	43	102	1048576	19	4264
2026-01-24 08:26:36.93	28.61	20.88	-30.0	-31.4	13.8	2.20e-06	0	43	102	1048576	20	4211
2026-01-24 08:26:37.94	28.36	20.85	-30.3	-32.1	13.3	9.10e-06	0	43	102	1048576	20	4439
2026-01-24 08:26:38.95	28.11	20.81	-30.6	-32.3	13.0	2.44e-05	0	43	102	1048576	21	4400
2026-01-24 08:26:39.95	27.86	20.77	-30.7	-32.6	12.7	7.24e-05	0	43	102	1048576	21	4494
2026-01-24 08:26:40.96	27.61	20.74	-30.7	-32.8	12.6	8.92e-05	0	43	102	1048576	21	4575
2026-01-24 08:26:41.96	27.37	20.70	-30.7	-32.8	12.6	1.04e-04	0	43	102	1048576	21	4550
2026-01-24 08:26:42.97	27.12	20.66	-30.7	-32.7	12.6	7.70e-05	0	43	102	1048576	21	4526
2026-01-24 08:26:43.97	26.87	20.63	-30.8	-33.0	12.4	1.28e-04	0	43	102	1048576	21	4622
2026-01-24 08:26:44.97	26.63	20.59	-30.6	-32.3	12.9	7.55e-05	0	43	102	1048576	21	4404
2026-01-24 08:26:45.97	26.39	20.55	-30.6	-32.4	12.8	6.79e-05	0	43	102	1048576	21	4442
2026-01-24 08:26:46.97	26.15	20.51	-30.6	-32.3	12.9	3.89e-05	0	43	102	1048576	21	4401
2026-01-24 08:26:47.97	25.90	20.47	-30.7	-32.7	12.6	6.94e-05	0	43	102	1048576	21	4546
2026-01-24 08:26:48.98	25.66	20.43	-30.5	-32.0	13.1	6.79e-05	0	43	102	1048576	21	4312
2026-01-24 08:26:49.98	25.42	20.39	-30.3	-31.7	13.2	2.97e-05	0	43	102	1048576	21	4212
2026-01-24 08:26:50.99	25.18	20.35	-30.3	-31.7	13.2	2.21e-05	0	43	102	1048576	21	4225
2026-01-24 08:26:51.98	24.94	20.31	-30.5	-32.0	13.0	3.12e-05	0	43	102	1048576	21	4325
2026-01-24 08:26:52.99	24.70	20.26	-30.6	-32.3	12.8	3.81e-05	0	43	102	1048576	21	4417
2026-01-24 08:26:53.99	24.46	20.22	-30.6	-32.4	12.7	5.11e-05	0	43	102	1048576	21	4446
2026-01-24 08:26:54.99	24.22	20.18	-30.3	-31.6	13.3	2.82e-05	0	43	102	1048576	21	4189
2026-01-24 08:26:56.00	23.98	20.14	-30.1	-31.1	13.6	1.37e-05	0	43	102	1048576	21	4028
2026-01-24 08:26:57.00	23.75	20.09	-30.1	-31.1	13.6	5.30e-06	0	43	102	1048576	21	4041
2026-01-24 08:26:58.00	23.51	20.05	-30.1	-30.9	13.8	1.06e-05	0	43	102	1048576	21	3984
2026-01-24 08:26:59.01	23.27	20.00	-30.3	-31.5	13.4	9.10e-06	0	43	102	1048576	21	4136
2026-01-24 08:27:00.01	23.04	19.96	-30.0	-30.7	13.9	3.00e-06	0	43	102	1048576	21	3908
2026-01-24 08:27:01.01	22.81	19.91	-30.0	-30.8	13.9	1.50e-06	0	43	102	1048576	21	3932
2026-01-24 08:27:02.01	22.58	19.87	-30.2	-31.4	13.5	3.80e-06	0	43	102	1048576	21	4101
2026-01-24 08:27:03.02	22.34	19.82	-30.0	-30.7	13.9	7.00e-07	0	43	102	1048576	21	3930
2026-01-24 08:27:04.03	22.11	19.77	-29.9	-30.7	13.9	5.30e-06	0	44	102	1048576	21	3910
2026-01-24 08:27:05.03	21.88	19.72	-30.2	-31.2	13.5	6.10e-06	0	43	102	1048576	21	4074
2026-01-24 08:27:06.03	21.65	19.68	-30.1	-31.2	13.5	9.10e-06	0	43	102	1048576	21	4062
2026-01-24 08:27:07.04	21.42	19.63	-30.5	-32.2	12.9	2.28e-05	0	43	102	1048576	21	4383
2026-01-24 08:27:08.04	21.19	19.58	-30.7	-32.6	12.6	6.10e-05	0	43	102	1048576	21	4521
2026-01-24 08:27:09.04	20.96	19.53	-30.9	-32.8	12.2	2.14e-04	0	43	102	1048576	22	4492
2026-01-24 08:27:10.04	20.73	19.48	-31.1	-33.4	11.8	5.21e-04	0	43	102	1048576	22	4683
2026-01-24 08:27:11.05	20.51	19.43	-31.3	-34.0	11.4	1.05e-03	0	43	102	1048576	22	4928
2026-01-24 08:27:12.06	20.28	19.38	-31.0	-33.2	11.8	7.09e-04	0	43	102	1048576	22	4645
2026-01-24 08:27:13.06	20.05	19.33	-30.8	-32.5	12.3	2.02e-04	0	43	102	1048576	22	4375
2026-01-24 08:27:14.06	19.83	19.28	-30.6	-32.0	12.6	1.04e-04	0	43	102	1048576	22	4232
2026-01-24 08:27:15.07	19.60	19.23	-30.8	-32.5	12.3	1.50e-04	0	43	102	1048576	22	4391
2026-01-24 08:27:16.07	19.38	19.18	-31.0	-33.2	11.9	2.34e-04	0	43	102	1048576	22	4632
2026-01-24 08:27:17.07	19.16	19.13	-31.3	-34.2	11.1	1.23e-03	0	43	102	1048576	22	5014
2026-01-24 08:27:18.07	18.94	19.08	-31.5	-34.5	10.5	2.96e-03	0	43	102	1048576	23	5073
2026-01-24 08:27:19.08	18.72	19.02	-31.8	-35.3	9.9	5.03e-03	0	43	102	1048576	23	5383
2026-01-24 08:27:20.08	18.50	18.97	-31.7	-35.0	10.1	5.84e-03	0	43	102	1048576	23	5273
2026-01-24 08:27:21.09	18.28	18.92	-31.6	-34.6	10.4	5.82e-03	0	43	102	1048576	23	5105
2026-01-24 08:27:22.09	18.06	18.87	-31.2	-33.5	11.1	2.72e-03	0	43	102	1048576	23	4668
2026-01-24 08:27:23.10	17.84	18.81	-30.8	-32.3	12.0	4.45e-04	0	43	102	1048576	23	4240
2026-01-24 08:27:24.11	17.62	18.76	-30.7	-32.2	12.4	1.85e-04	0	43	102	1048576	22	4312
2026-01-24 08:27:25.11	17.41	18.70	-30.6	-31.9	12.7	7.93e-05	0	43	102	1048576	22	4193
2026-01-24 08:27:26.12	17.19	18.65	-30.5	-31.7	12.9	5.18e-05	0	43	102	1048576	22	4131
2026-01-24 08:27:27.12	16.98	18.59	-30.6	-31.9	12.7	8.39e-05	0	43	102	1048576	22	4202
2026-01-24 08:27:28.12	16.76	18.54	-30.2	-31.4	13.3	4.42e-05	0	43	102	1048576	21	4126
2026-01-24 08:27:29.12	16.55	18.48	-30.2	-31.3	13.3	1.75e-05	0	43	102	1048576	21	4098
2026-01-24 08:27:30.12	16.34	18.43	-30.2	-31.3	13.4	1.06e-05	0	43	102	1048576	21	4104
2026-01-24 08:27:31.12	16.13	18.37	-30.1	-31.0	13.5	6.80e-06	0	43	102	1048576	21	4028
2026-01-24 08:27:32.13	15.92	18.31	-30.2	-31.5	13.2	2.05e-05	0	43	102	1048576	21	4180
2026-01-24 08:27:33.13	15.71	18.26	-30.2	-31.5	13.2	2.05e-05	0	43	102	1048576	21	4166
2026-01-24 08:27:34.13	15.50	18.20	-30.3	-31.6	13.2	2.67e-05	0	43	102	1048576	21	4191
2026-01-24 08:27:35.13	15.29	18.14	-30.4	-31.9	13.0	3.73e-05	0	43	102	1048576	21	4287
2026-01-24 08:27:36.13	15.09	18.09	-30.4	-32.1	12.8	3.50e-05	0	43	102	1048576	21	4365
2026-01-24 08:27:37.14	14.88	18.03	-30.6	-32.4	12.5	9.91e-05	0	44	102	1048576	21	4464
2026-01-24 08:27:38.14	14.67	17.97	-30.1	-31.0	13.4	3.12e-05	0	43	102	1048576	21	4035
2026-01-24 08:27:39.14	14.47	17.91	-29.8	-30.8	14.0	1.06e-05	0	43	102	1048576	20	4039
2026-01-24 08:27:40.15	14.26	17.86	-29.5	-30.0	14.4	1.50e-06	0	43	102	1048576	20	3824
2026-01-24 08:27:41.15	14.06	17.80	-29.5	-30.1	14.4	0.00e+00	0	43	102	1048576	20	3863
2026-01-24 08:27:42.16	13.86	17.74	-29.6	-30.5	14.0	1.50e-06	0	43	102	1048576	20	3969
2026-01-24 08:27:43.15	13.66	17.68	-29.8	-30.8	13.9	6.10e-06	0	44	102	1048576	20	4071
2026-01-24 08:27:44.16	13.46	17.62	-30.1	-31.6	13.4	1.29e-05	0	43	102	1048576	20	4302
2026-01-24 08:27:45.17	13.26	17.56	-30.3	-32.4	12.9	4.27e-05	0	43	102	1048576	20	4556
2026-01-24 08:27:46.17	13.06	17.50	-30.6	-32.7	12.4	9.30e-05	0	43	102	1048576	21	4583
2026-01-24 08:27:47.16	12.86	17.44	-30.8	-33.2	12.0	3.12e-04	0	43	102	1048576	21	4744
2026-01-24 08:27:48.17	12.66	17.38	-30.9	-33.5	11.7	4.45e-04	0	43	102	1048576	21	4874
2026-01-24 08:27:49.17	12.47	17.32	-30.8	-33.3	11.9	4.13e-04	0	43	102	1048576	21	4809
2026-01-24 08:27:50.18	12.27	17.26	-30.7	-33.0	12.1	3.54e-04	0	43	102	1048576	21	4681
2026-01-24 08:27:51.18	12.07	17.20	-30.6	-32.7	12.4	1.52e-04	0	43	102	1048576	21	4564
2026-01-24 08:27:52.18	11.88	17.14	-30.5	-32.5	12.5	1.43e-04	0	43	102	1048576	21	4497
2026-01-24 08:27:53.19	11.68	17.08	-30.5	-32.3	12.6	9.76e-05	0	43	102	1048576	21	4447
2026-01-24 08:27:54.19	11.49	17.02	-30.6	-32.5	12.4	1.16e-04	0	43	102	1048576	21	4498
2026-01-24 08:27:55.18	11.30	16.96	-30.7	-32.9	12.2	1.77e-04	0	43	102	1048576	21	4643
2026-01-24 08:27:56.19	11.11	16.89	-30.4	-32.0	12.8	1.58e-04	0	43	102	1048576	21	4319
2026-01-24 08:27:57.19	10.92	16.83	-30.1	-31.1	13.3	3.05e-05	0	43	102	1048576	21	4061
2026-01-24 08:27:58.19	10.73	16.77	-29.8	-30.8	13.9	4.50e-06	0	44	102	1048576	20	4053
2026-01-24 08:27:59.19	10.54	16.71	-29.7	-30.5	14.1	1.50e-06	0	43	102	1048576	20	3978
2026-01-24 08:28:00.20	10.35	16.65	-29.8	-30.9	13.8	3.80e-06	0	43	102	1048576	20	4088
2026-01-24 08:28:01.20	10.17	16.58	-30.0	-31.4	13.5	3.00e-06	0	43	102	1048576	20	4240
2026-01-24 08:28:02.21	9.98	16.52	-30.0	-31.6	13.4	5.30e-06	0	43	102	1048576	20	4292
2026-01-24 08:28:03.22	9.79	16.46	-30.3	-32.4	12.9	2.21e-05	0	44	102	1048576	20	4543
2026-01-24 08:28:04.23	9.61	16.39	-30.4	-32.5	12.8	4.19e-05	0	43	102	1048576	20	4589
2026-01-24 08:28:05.23	9.42	16.33	-30.6	-32.8	12.3	1.71e-04	0	43	102	1048576	21	4592
2026-01-24 08:28:06.23	9.24	16.27	-30.6	-32.8	12.4	1.62e-04	0	43	102	1048576	21	4604
2026-01-24 08:28:07.24	9.06	16.21	-30.7	-32.9	12.1	2.22e-04	0	43	102	1048576	21	4660
2026-01-24 08:28:08.25	8.87	16.14	-30.5	-32.2	12.6	1.23e-04	0	43	102	1048576	21	4422
2026-01-24 08:28:09.25	8.69	16.08	-30.4	-32.0	12.8	6.79e-05	0	43	102	1048576	21	4333
2026-01-24 08:28:10.25	8.51	16.01	-30.4	-32.0	12.9	4.19e-05	0	44	102	1048576	21	4339
2026-01-24 08:28:11.26	8.33	15.95	-30.4	-32.1	12.7	7.24e-05	0	44	102	1048576	21	4380
2026-01-24 08:28:12.26	8.15	15.89	-30.4	-32.2	12.7	6.10e-05	0	43	102	1048576	21	4390
2026-01-24 08:28:13.25	7.98	15.82	-30.5	-32.3	12.6	1.14e-04	0	44	102	1048576	21	4444
2026-01-24 08:28:14.25	7.80	15.76	-30.5	-32.4	12.4	1.14e-04	0	43	102	1048576	21	4492
2026-01-24 08:28:15.25	7.63	15.70	-30.6	-32.8	12.2	1.83e-04	0	43	102	1048576	21	4607
2026-01-24 08:28:16.26	7.45	15.63	-30.6	-32.6	12.3	1.45e-04	0	44	102	1048576	21	4528
2026-01-24 08:28:17.27	7.27	15.57	-30.7	-33.0	12.1	1.84e-04	0	43	102	1048576	21	4666
2026-01-24 08:28:18.26	7.10	15.50	-30.8	-33.3	11.8	4.56e-04	0	44	102	1048576	21	4795
2026-01-24 08:28:19.27	6.93	15.44	-30.7	-32.9	12.2	3.00e-04	0	43	102	1048576	21	4629
2026-01-24 08:28:20.27	6.75	15.37	-30.6	-32.7	12.2	2.01e-04	0	43	102	1048576	21	4580
2026-01-24 08:28:21.28	6.58	15.31	-30.7	-32.8	12.2	1.85e-04	0	44	102	1048576	21	4619
2026-01-24 08:28:22.28	6.41	15.24	-30.6	-32.8	12.2	2.39e-04	0	43	102	1048576	21	4590
2026-01-24 08:28:23.27	6.24	15.18	-30.7	-33.0	12.1	2.21e-04	0	43	102	1048576	21	4679
2026-01-24 08:28:24.28	6.07	15.11	-30.8	-33.1	12.0	4.38e-04	0	44	102	1048576	21	4709
2026-01-24 08:28:25.29	5.90	15.05	-30.5	-32.3	12.6	1.56e-04	0	43	102	1048576	21	4421
2026-01-24 08:28:26.29	5.73	14.98	-30.3	-31.8	12.8	7.55e-05	0	43	102	1048576	21	4280
2026-01-24 08:28:27.30	5.57	14.92	-30.3	-31.8	12.8	5.87e-05	0	43	102	1048576	21	4285
2026-01-24 08:28:28.31	5.40	14.85	-30.3	-31.8	12.9	4.88e-05	0	43	102	1048576	21	4262
2026-01-24 08:28:29.31	5.23	14.79	-30.3	-31.7	13.0	4.27e-05	0	43	102	1048576	21	4224
2026-01-24 08:28:30.31	5.07	14.72	-30.3	-31.6	13.0	4.04e-05	0	43	102	1048576	21	4216
2026-01-24 08:28:31.31	4.91	14.66	-30.1	-31.3	13.2	4.95e-05	0	43	102	1048576	21	4103
2026-01-24 08:28:32.31	4.74	14.59	-29.8	-30.4	13.8	1.22e-05	0	43	102	1048576	21	3847
2026-01-24 08:28:33.32	4.58	14.52	-29.5	-30.0	14.4	1.50e-06	0	44	102	1048576	20	3825
2026-01-24 08:28:34.33	4.41	14.46	-29.3	-29.7	14.5	0.00e+00	0	44	102	1048576	20	3740
2026-01-24 08:28:35.33	4.25	14.39	-29.3	-29.6	14.6	7.00e-07	0	43	102	1048576	20	3712
2026-01-24 08:28:36.33	4.09	14.33	-29.5	-30.0	14.4	0.00e+00	0	43	102	1048576	20	3829
2026-01-24 08:28:37.34	3.93	14.26	-29.6	-30.3	14.1	7.00e-07	0	44	102	1048576	20	3922
2026-01-24 08:28:38.34	3.77	14.19	-29.6	-30.4	14.1	2.20e-06	0	44	102	1048576	20	3946
2026-01-24 08:28:39.35	3.61	14.13	-29.6	-30.3	14.1	2.20e-06	0	44	102	1048576	20	3918
2026-01-24 08:28:40.35	3.46	14.06	-29.7	-30.5	14.0	7.00e-07	0	43	102	1048576	20	3976
2026-01-24 08:28:41.36	3.30	14.00	-29.8	-30.9	13.7	2.20e-06	0	44	102	1048576	20	4101
2026-01-24 08:28:42.36	3.14	13.93	-29.8	-30.9	13.7	5.30e-06	0	44	102	1048576	20	4097
2026-01-24 08:28:43.37	2.99	13.86	-30.0	-31.4	13.4	1.06e-05	0	43	102	1048576	20	4226
2026-01-24 08:28:44.37	2.83	13.80	-30.0	-31.5	13.4	1.06e-05	0	43	102	1048576	20	4266
2026-01-24 08:28:45.38	2.68	13.73	-30.1	-31.7	13.2	1.75e-05	0	44	102	1048576	20	4340
2026-01-24 08:28:46.38	2.52	13.66	-30.0	-31.5	13.4	1.29e-05	0	44	102	1048576	20	4257
2026-01-24 08:28:47.39	2.37	13.60	-30.0	-31.5	13.3	1.90e-05	0	43	102	1048576	20	4278
2026-01-24 08:28:48.39	2.22	13.53	-29.9	-31.2	13.4	1.83e-05	0	44	102	1048576	20	4189
2026-01-24 08:28:49.39	2.07	13.47	-29.5	-30.0	14.2	3.80e-06	0	44	102	1048576	20	3840
2026-01-24 08:28:50.39	1.92	13.40	-29.4	-30.3	14.5	7.00e-07	0	44	102	1048576	19	3997
2026-01-24 08:28:51.40	1.77	13.33	-29.2	-29.8	14.7	0.00e+00	0	44	102	1048576	19	3868
2026-01-24 08:28:52.40	1.62	13.27	-29.3	-30.1	14.6	0.00e+00	0	44	102	1048576	19	3954
2026-01-24 08:28:53.40	1.47	13.20	-29.5	-30.6	14.3	1.50e-06	0	44	102	1048576	19	4082
2026-01-24 08:28:54.41	1.32	13.13	-29.6	-30.8	14.1	7.00e-07	0	44	102	1048576	19	4157
2026-01-24 08:28:55.42	1.17	13.07	-29.8	-31.2	13.9	2.20e-06	0	43	102	1048576	19	4273
2026-01-24 08:28:56.43	1.03	13.00	-29.9	-31.7	13.5	5.30e-06	0	43	102	1048576	19	4430
2026-01-24 08:28:57.43	0.88	12.93	-30.2	-31.9	13.0	2.89e-05	0	44	102	1048576	20	4418
2026-01-24 08:28:58.43	0.74	12.87	-30.1	-31.9	13.1	3.89e-05	0	44	102	1048576	20	4398
2026-01-24 08:28:59.43	0.59	12.80	-30.3	-32.5	12.6	7.01e-05	0	43	102	1048576	20	4592
2026-01-24 08:29:00.43	0.45	12.74	-30.4	-32.5	12.7	7.93e-05	0	43	102	1048576	20	4595
2026-01-24 08:29:01.43	0.31	12.67	-30.3	-32.4	12.7	5.87e-05	0	44	102	1048576	20	4568
2026-01-24 08:29:02.43	0.16	12.60	-30.3	-32.5	12.6	7.01e-05	0	43	102	1048576	20	4598
2026-01-24 08:29:03.44	0.02	12.54	-30.3	-32.3	12.8	7.47e-05	0	44	102	1048576	20	4539
2026-01-24 08:29:04.44	359.88	12.47	-30.4	-32.6	12.5	9.46e-05	0	44	102	1048576	20	4631
2026-01-24 08:29:05.45	359.74	12.40	-30.5	-32.3	12.4	1.46e-04	0	44	102	1048576	21	4457
2026-01-24 08:29:06.44	359.60	12.34	-30.7	-33.1	11.9	2.17e-04	0	43	102	1048576	21	4723
2026-01-24 08:29:07.45	359.46	12.27	-30.6	-32.7	12.1	4.35e-04	0	44	102	1048576	21	4571
2026-01-24 08:29:08.46	359.32	12.21	-30.2	-31.5	12.9	8.23e-05	0	43	102	1048576	21	4202
2026-01-24 08:29:09.46	359.18	12.14	-29.8	-30.4	13.6	2.36e-05	0	44	102	1048576	21	3864
2026-01-24 08:29:10.47	359.04	12.07	-29.6	-30.3	14.0	5.30e-06	0	44	102	1048576	20	3930
2026-01-24 08:29:11.47	358.91	12.01	-29.5	-30.0	14.2	0.00e+00	0	43	102	1048576	20	3839
2026-01-24 08:29:12.47	358.77	11.94	-29.3	-30.1	14.5	7.00e-07	0	44	102	1048576	19	3954
2026-01-24 08:29:13.48	358.64	11.87	-29.4	-30.4	14.3	7.00e-07	0	44	102	1048576	19	4025
2026-01-24 08:29:14.48	358.50	11.81	-29.5	-30.6	14.2	1.50e-06	0	44	102	1048576	19	4097
2026-01-24 08:29:15.49	358.37	11.74	-29.9	-31.7	13.5	6.80e-06	0	44	102	1048576	19	4425
2026-01-24 08:29:16.49	358.23	11.68	-30.0	-31.5	13.3	2.44e-05	0	43	102	1048576	20	4274
2026-01-24 08:29:17.49	358.10	11.61	-30.2	-32.1	12.8	2.82e-05	0	43	102	1048576	20	4481
2026-01-24 08:29:18.49	357.97	11.54	-30.4	-32.6	12.5	1.27e-04	0	43	102	1048576	20	4637
2026-01-24 08:29:19.49	357.84	11.48	-30.4	-32.3	12.4	1.70e-04	0	44	102	1048576	21	4440
2026-01-24 08:29:20.49	357.71	11.41	-30.6	-32.8	12.0	3.47e-04	0	43	102	1048576	21	4611
2026-01-24 08:29:21.49	357.58	11.35	-30.5	-32.5	12.2	2.62e-04	0	43	102	1048576	21	4527
2026-01-24 08:29:22.50	357.44	11.28	-30.6	-32.6	12.1	1.98e-04	0	44	102	1048576	21	4557
2026-01-24 08:29:23.51	357.31	11.21	-30.3	-31.8	12.7	1.33e-04	0	43	102	1048576	21	4276
2026-01-24 08:29:24.51	357.19	11.15	-30.3	-31.7	12.7	7.85e-05	0	44	102	1048576	21	4262
2026-01-24 08:29:25.52	357.06	11.08	-30.2	-31.7	12.8	1.04e-04	0	44	102	1048576	21	4248
2026-01-24 08:29:26.52	356.93	11.02	-30.1	-31.4	12.9	5.34e-05	0	43	102	1048576	21	4151
2026-01-24 08:29:27.52	356.80	10.95	-30.0	-31.1	13.1	3.20e-05	0	44	102	1048576	21	4079
2026-01-24 08:29:28.53	356.68	10.88	-30.1	-31.4	12.9	1.90e-05	0	44	102	1048576	21	4164
2026-01-24 08:29:29.53	356.55	10.82	-30.2	-31.5	12.8	5.95e-05	0	43	102	1048576	21	4201
2026-01-24 08:29:30.54	356.42	10.75	-30.1	-31.4	12.9	5.03e-05	0	43	102	1048576	21	4164
2026-01-24 08:29:31.54	356.30	10.69	-30.3	-31.9	12.5	6.10e-05	0	44	102	1048576	21	4316
2026-01-24 08:29:32.54	356.18	10.62	-30.4	-32.1	12.4	1.98e-04	0	44	102	1048576	21	4396
2026-01-24 08:29:33.54	356.05	10.56	-30.2	-31.7	12.7	6.33e-05	0	44	102	1048576	21	4257
2026-01-24 08:29:34.55	355.93	10.49	-30.2	-31.7	12.7	8.46e-05	0	43	102	1048576	21	4272
2026-01-24 08:29:35.54	355.81	10.43	-30.3	-32.0	12.5	1.29e-04	0	44	102	1048576	21	4353
2026-01-24 08:29:36.55	355.69	10.36	-30.3	-32.0	12.4	1.75e-04	0	43	102	1048576	21	4365
2026-01-24 08:29:37.56	355.56	10.29	-30.3	-31.8	12.6	1.02e-04	0	44	102	1048576	21	4307
2026-01-24 08:29:38.56	355.44	10.23	-30.4	-32.1	12.4	1.54e-04	0	43	102	1048576	21	4392
2026-01-24 08:29:39.56	355.32	10.16	-30.4	-32.1	12.4	1.68e-04	0	44	102	1048576	21	4405
2026-01-24 08:29:40.57	355.20	10.10	-30.4	-32.2	12.3	1.65e-04	0	43	102	1048576	21	4434
2026-01-24 08:29:41.57	355.08	10.03	-30.5	-32.5	12.0	2.55e-04	0	43	102	1048576	21	4550
2026-01-24 08:29:42.58	354.97	9.97	-30.6	-32.8	11.9	3.97e-04	0	44	102	1048576	21	4626
2026-01-24 08:29:43.58	354.85	9.90	-30.6	-32.7	11.9	3.20e-04	0	44	102	1048576	21	4609
2026-01-24 08:29:44.59	354.73	9.84	-30.6	-32.9	11.8	4.90e-04	0	44	102	1048576	21	4679
2026-01-24 08:29:45.60	354.61	9.77	-30.6	-32.9	11.7	5.38e-04	0	44	102	1048576	21	4692
2026-01-24 08:29:46.60	354.50	9.71	-30.6	-33.0	11.7	4.48e-04	0	44	102	1048576	21	4700
2026-01-24 08:29:47.60	354.38	9.64	-30.8	-33.5	11.4	7.97e-04	0	43	102	1048576	21	4898
2026-01-24 08:29:48.61	354.26	9.58	-30.7	-33.3	11.5	9.71e-04	0	44	102	1048576	21	4820
2026-01-24 08:29:49.60	354.15	9.51	-30.7	-33.0	11.7	5.68e-04	0	44	102	1048576	21	4729
2026-01-24 08:29:50.62	354.03	9.45	-30.8	-33.4	11.4	8.09e-04	0	44	102	1048576	21	4880
2026-01-24 08:29:51.61	353.92	9.38	-30.8	-33.5	11.3	1.38e-03	0	44	102	1048576	21	4909
2026-01-24 08:29:52.62	353.81	9.32	-31.0	-34.1	10.8	1.98e-03	0	43	102	1048576	21	5163
2026-01-24 08:29:53.63	353.69	9.25	-31.1	-33.8	10.7	3.25e-03	0	44	102	1048576	22	4941
2026-01-24 08:29:54.64	353.58	9.19	-31.1	-34.1	10.5	2.75e-03	0	43	102	1048576	22	5052
2026-01-24 08:29:55.64	353.47	9.12	-31.2	-34.2	10.4	4.88e-03	0	44	102	1048576	22	5118
2026-01-24 08:29:56.65	353.36	9.06	-31.1	-34.1	10.5	4.30e-03	0	44	102	1048576	22	5044
2026-01-24 08:29:57.66	353.25	8.99	-31.1	-34.1	10.5	4.73e-03	0	44	102	1048576	22	5058
2026-01-24 08:29:58.66	353.14	8.93	-31.1	-33.9	10.6	3.31e-03	0	44	102	1048576	22	4965
2026-01-24 08:29:59.67	353.03	8.87	-31.0	-33.8	10.7	2.77e-03	0	43	102	1048576	22	4933
2026-01-24 08:30:00.67	352.92	8.80	-31.0	-33.6	10.8	2.81e-03	0	44	102	1048576	22	4875
2026-01-24 08:30:01.67	352.81	8.74	-31.0	-33.6	10.8	2.29e-03	0	44	102	1048576	22	4863
2026-01-24 08:30:02.67	352.70	8.67	-31.0	-33.7	10.7	3.40e-03	0	44	102	1048576	22	4896
2026-01-24 08:30:03.68	352.59	8.61	-30.7	-32.7	11.5	1.40e-03	0	44	102	1048576	22	4526
2026-01-24 08:30:04.67	352.49	8.55	-30.6	-32.4	11.7	8.16e-04	0	44	102	1048576	22	4425
2026-01-24 08:30:05.68	352.38	8.48	-30.5	-32.0	11.9	3.71e-04	0	44	102	1048576	22	4306
2026-01-24 08:30:06.68	352.27	8.42	-30.6	-32.3	11.7	4.84e-04	0	43	102	1048576	22	4394
2026-01-24 08:30:07.69	352.17	8.36	-30.4	-31.7	12.1	4.73e-04	0	43	102	1048576	22	4201
2026-01-24 08:30:08.69	352.06	8.29	-30.5	-32.1	11.8	3.05e-04	0	44	102	1048576	22	4347
2026-01-24 08:30:09.69	351.96	8.23	-30.5	-32.1	11.8	5.21e-04	0	44	102	1048576	22	4326
2026-01-24 08:30:10.70	351.85	8.17	-30.5	-32.2	11.7	4.17e-04	0	44	102	1048576	22	4360
2026-01-24 08:30:11.70	351.75	8.10	-30.7	-32.7	11.3	6.38e-04	0	44	102	1048576	22	4555
2026-01-24 08:30:12.70	351.65	8.04	-30.8	-33.0	11.2	1.47e-03	0	44	102	1048576	22	4660
2026-01-24 08:30:13.70	351.54	7.98	-30.8	-32.9	11.2	1.27e-03	0	44	102	1048576	22	4618
2026-01-24 08:30:14.71	351.44	7.91	-30.9	-33.2	11.0	1.21e-03	0	43	102	1048576	22	4737
2026-01-24 08:30:15.72	351.34	7.85	-30.9	-33.3	10.9	1.99e-03	0	44	102	1048576	22	4747
2026-01-24 08:30:16.72	351.24	7.79	-30.8	-33.2	11.0	2.30e-03	0	44	102	1048576	22	4723
2026-01-24 08:30:17.72	351.14	7.72	-30.9	-33.4	10.9	1.81e-03	0	44	102	1048576	22	4792
2026-01-24 08:30:18.73	351.04	7.66	-30.9	-33.5	10.8	2.59e-03	0	44	102	1048576	22	4823
2026-01-24 08:30:19.74	350.93	7.60	-30.8	-33.1	11.0	1.95e-03	0	43	102	1048576	22	4693
2026-01-24 08:30:20.75	350.83	7.53	-30.9	-33.3	10.9	2.00e-03	0	44	102	1048576	22	4762
2026-01-24 08:30:21.75	350.74	7.47	-30.7	-32.9	11.2	2.10e-03	0	44	102	1048576	22	4627
2026-01-24 08:30:22.76	350.64	7.41	-30.8	-33.0	11.1	1.57e-03	0	44	102	1048576	22	4668
2026-01-24 08:30:23.76	350.54	7.35	-30.7	-33.0	11.1	2.24e-03	0	44	102	1048576	22	4645
2026-01-24 08:30:24.76	350.44	7.28	-30.6	-32.4	11.5	1.03e-03	0	44	102	1048576	22	4463
2026-01-24 08:30:25.76	350.34	7.22	-30.5	-32.4	11.5	7.39e-04	0	44	102	1048576	22	4435
2026-01-24 08:30:26.77	350.24	7.16	-30.6	-32.6	11.4	8.57e-04	0	43	102	1048576	22	4509
2026-01-24 08:30:27.77	350.15	7.10	-30.7	-32.7	11.3	1.05e-03	0	43	102	1048576	22	4551
2026-01-24 08:30:28.77	350.05	7.03	-33.2	-43.1	3.8	1.45e-02	0	44	104	1048576	26	11269
2026-01-24 08:30:29.78	349.96	6.97	-33.7	-45.8	3.8	1.49e+00	0	44	104	1048576	27	14524

#Closed at: 2026-01-24 08:30:30
#Recorded file [1 MB]: D:/data/31010_260124_112133.dat