passes_logs/2026/01/24/R2M6_AANII_01/R2M6_AANII_01__20260124_123650_FENGYUN_3D_rec.log

#Pass ID: 20260124_123650_FENGYUN 3D
#Satellite: FENGYUN 3D
#Configuration: FENGYUN 3D
#almurnet v.1.7.20240730
#Start time: 2026-01-24 12:36:51

#Version: 2.2.20231116
#Station: R2M6_AANII_01
#Location: 30.233357 lon 59.946436 lat
#TLE: 1 43010U 17072A   26023.60174628  .00000324  00000+0  17481-3 0  9994
#TLE: 2 43010  98.9958 355.5514 0002482  93.7422 266.4037 14.19699955424476

#Time	Az	El	Level	Level2	SNR	BER	BlckErr	Temp	State	Recorded	gain1	gain2
2026-01-24 12:36:51.25	167.28	7.02	-29.8	-32.9	5.3	7.89e-01	0	41	0	0	20	5109
2026-01-24 12:36:52.25	167.29	7.10	-29.6	-32.2	5.4	7.88e-01	0	41	104	0	20	4880
2026-01-24 12:36:53.24	167.31	7.18	-29.7	-32.5	9.9	6.54e-03	0	41	0	0	20	4967
2026-01-24 12:36:54.25	167.33	7.26	-29.6	-32.3	10.1	4.98e-03	0	41	102	1048576	20	4874
2026-01-24 12:36:55.25	167.35	7.34	-29.7	-32.6	9.9	7.33e-03	0	41	102	1048576	20	4997
2026-01-24 12:36:56.25	167.37	7.41	-29.7	-32.5	9.9	7.19e-03	0	41	102	1048576	20	4957
2026-01-24 12:36:57.25	167.39	7.49	-29.9	-33.1	9.5	8.33e-03	0	41	102	1048576	20	5203
2026-01-24 12:36:58.26	167.41	7.57	-30.2	-33.8	9.1	1.58e-02	0	41	102	1048576	20	5452
2026-01-24 12:36:59.26	167.43	7.65	-29.6	-32.2	10.1	8.19e-03	0	41	102	1048576	20	4842
2026-01-24 12:37:00.26	167.44	7.73	-29.2	-31.6	10.9	2.07e-03	0	41	102	1048576	19	4760
2026-01-24 12:37:01.27	167.46	7.81	-28.7	-30.9	11.7	7.71e-04	0	41	102	1048576	18	4638
2026-01-24 12:37:02.28	167.48	7.89	-28.4	-30.2	12.2	3.83e-04	0	41	102	1048576	18	4407
2026-01-24 12:37:03.28	167.50	7.97	-28.1	-29.8	12.7	5.95e-05	0	41	102	1048576	17	4384
2026-01-24 12:37:04.27	167.52	8.05	-27.7	-29.3	13.3	2.74e-05	0	41	102	1048576	16	4345
2026-01-24 12:37:05.28	167.54	8.13	-27.5	-29.0	13.4	5.70e-06	0	41	102	1048576	16	4276
2026-01-24 12:37:06.28	167.56	8.21	-27.1	-28.5	13.9	3.40e-06	0	41	102	1048576	15	4245
2026-01-24 12:37:07.29	167.58	8.29	-27.1	-28.5	13.8	3.40e-06	0	41	102	1048576	15	4250
2026-01-24 12:37:08.29	167.60	8.37	-27.1	-28.5	13.9	1.10e-06	0	41	102	1048576	15	4232
2026-01-24 12:37:09.29	167.62	8.46	-27.4	-29.2	13.5	3.40e-06	0	41	102	1048576	15	4441
2026-01-24 12:37:10.29	167.64	8.54	-27.1	-28.6	13.8	1.14e-05	0	41	102	1048576	15	4271
2026-01-24 12:37:11.30	167.66	8.62	-27.4	-29.3	13.4	2.20e-06	0	41	102	1048576	15	4476
2026-01-24 12:37:12.30	167.68	8.70	-27.5	-29.4	13.4	1.71e-05	0	41	102	1048576	15	4502
2026-01-24 12:37:13.31	167.70	8.79	-27.2	-28.7	13.8	1.48e-05	0	41	102	1048576	15	4309
2026-01-24 12:37:14.31	167.72	8.87	-26.9	-28.2	14.1	2.20e-06	0	41	102	1048576	15	4158
2026-01-24 12:37:15.31	167.74	8.95	-26.8	-28.0	14.3	0.00e+00	0	41	102	1048576	15	4093
2026-01-24 12:37:16.32	167.76	9.04	-26.8	-27.9	14.3	0.00e+00	0	42	102	1048576	15	4069
2026-01-24 12:37:17.33	167.78	9.12	-26.7	-28.2	14.4	1.10e-06	0	42	102	1048576	14	4258
2026-01-24 12:37:18.34	167.80	9.21	-26.7	-28.2	14.4	0.00e+00	0	42	102	1048576	14	4259
2026-01-24 12:37:19.34	167.83	9.29	-26.5	-27.8	14.7	1.10e-06	0	42	102	1048576	14	4146
2026-01-24 12:37:20.35	167.85	9.37	-26.7	-28.1	14.5	0.00e+00	0	41	102	1048576	14	4233
2026-01-24 12:37:21.35	167.87	9.46	-26.8	-28.4	14.3	2.20e-06	0	42	102	1048576	14	4332
2026-01-24 12:37:22.36	167.89	9.55	-26.6	-27.9	14.6	0.00e+00	0	42	102	1048576	14	4183
2026-01-24 12:37:23.37	167.91	9.63	-26.5	-27.7	14.7	0.00e+00	0	42	102	1048576	14	4124
2026-01-24 12:37:24.37	167.93	9.72	-26.7	-28.1	14.5	0.00e+00	0	42	102	1048576	14	4246
2026-01-24 12:37:25.37	167.95	9.80	-26.6	-27.9	14.6	0.00e+00	0	42	102	1048576	14	4185
2026-01-24 12:37:26.38	167.98	9.89	-26.6	-27.8	14.7	2.20e-06	0	42	102	1048576	14	4152
2026-01-24 12:37:27.39	168.00	9.98	-26.6	-28.0	14.6	0.00e+00	0	42	102	1048576	14	4194
2026-01-24 12:37:28.38	168.02	10.06	-26.6	-27.8	14.7	0.00e+00	0	42	102	1048576	14	4160
2026-01-24 12:37:29.39	168.04	10.15	-26.6	-28.0	14.6	0.00e+00	0	42	102	1048576	14	4196
2026-01-24 12:37:30.39	168.06	10.24	-26.6	-27.9	14.7	0.00e+00	0	42	102	1048576	14	4172
2026-01-24 12:37:31.39	168.09	10.33	-26.6	-27.8	14.7	0.00e+00	0	42	102	1048576	14	4157
2026-01-24 12:37:32.40	168.11	10.42	-26.5	-27.7	14.8	0.00e+00	0	42	102	1048576	14	4132
2026-01-24 12:37:33.40	168.13	10.50	-26.5	-27.6	14.8	0.00e+00	0	42	102	1048576	14	4108
2026-01-24 12:37:34.41	168.15	10.59	-26.5	-27.5	14.9	0.00e+00	0	42	102	1048576	14	4082
2026-01-24 12:37:35.42	168.18	10.68	-26.6	-27.8	14.7	0.00e+00	0	42	102	1048576	14	4155
2026-01-24 12:37:36.42	168.20	10.77	-26.7	-28.2	14.6	0.00e+00	0	42	102	1048576	14	4252
2026-01-24 12:37:37.43	168.22	10.86	-26.7	-28.1	14.6	0.00e+00	0	42	102	1048576	14	4233
2026-01-24 12:37:38.44	168.25	10.96	-26.6	-28.0	14.7	0.00e+00	0	42	102	1048576	14	4191
2026-01-24 12:37:39.45	168.27	11.05	-26.7	-28.1	14.6	0.00e+00	0	42	102	1048576	14	4227
2026-01-24 12:37:40.45	168.29	11.14	-26.5	-27.6	14.9	0.00e+00	0	42	102	1048576	14	4090
2026-01-24 12:37:41.45	168.32	11.23	-26.5	-27.7	14.9	0.00e+00	0	42	102	1048576	14	4108
2026-01-24 12:37:42.46	168.34	11.32	-26.4	-27.5	15.0	0.00e+00	0	42	102	1048576	14	4059
2026-01-24 12:37:43.46	168.36	11.41	-26.4	-27.4	15.0	0.00e+00	0	42	102	1048576	14	4037
2026-01-24 12:37:44.46	168.39	11.50	-26.6	-27.9	14.7	0.00e+00	0	42	102	1048576	14	4184
2026-01-24 12:37:45.46	168.41	11.60	-26.6	-27.9	14.7	1.10e-06	0	42	102	1048576	14	4191
2026-01-24 12:37:46.46	168.43	11.69	-26.5	-27.7	14.9	0.00e+00	0	42	102	1048576	14	4130
2026-01-24 12:37:47.47	168.46	11.78	-26.7	-28.1	14.6	0.00e+00	0	42	102	1048576	14	4235
2026-01-24 12:37:48.47	168.48	11.88	-26.8	-28.4	14.5	0.00e+00	0	42	102	1048576	14	4313
2026-01-24 12:37:49.48	168.51	11.97	-26.6	-27.9	14.7	0.00e+00	0	42	102	1048576	14	4194
2026-01-24 12:37:50.48	168.53	12.07	-26.8	-28.4	14.5	0.00e+00	0	42	102	1048576	14	4328
2026-01-24 12:37:51.48	168.56	12.16	-26.8	-28.4	14.5	0.00e+00	0	42	102	1048576	14	4327
2026-01-24 12:37:52.49	168.58	12.26	-26.7	-28.3	14.6	0.00e+00	0	42	102	1048576	14	4297
2026-01-24 12:37:53.49	168.61	12.35	-26.6	-28.1	14.5	0.00e+00	0	42	102	1048576	14	4242
2026-01-24 12:37:54.49	168.63	12.45	-26.6	-28.1	14.5	1.03e-04	0	42	102	1048576	14	4252
2026-01-24 12:37:55.49	168.66	12.54	-26.5	-27.7	14.7	2.89e-04	0	42	102	1048576	14	4146
2026-01-24 12:37:56.49	168.68	12.64	-26.5	-27.8	14.7	7.89e-05	0	42	102	1048576	14	4166
2026-01-24 12:37:57.50	168.71	12.74	-26.6	-28.1	14.6	5.83e-05	0	42	102	1048576	14	4240
2026-01-24 12:37:58.50	168.73	12.83	-26.2	-27.6	15.1	3.40e-06	0	42	102	1048576	13	4213
2026-01-24 12:37:59.50	168.76	12.93	-26.1	-27.4	15.3	0.00e+00	0	42	102	1048576	13	4161
2026-01-24 12:38:00.50	168.79	13.03	-25.8	-27.1	15.7	4.50e-06	0	42	102	1048576	12	4191
2026-01-24 12:38:01.51	168.81	13.13	-25.8	-27.0	15.7	2.20e-06	0	42	102	1048576	12	4167
2026-01-24 12:38:02.51	168.84	13.23	-25.7	-26.9	15.8	2.20e-06	0	42	102	1048576	12	4141
2026-01-24 12:38:03.52	168.87	13.33	-25.6	-26.7	15.9	4.50e-06	0	42	102	1048576	12	4073
2026-01-24 12:38:04.52	168.89	13.43	-25.6	-26.7	15.9	0.00e+00	0	42	102	1048576	12	4088
2026-01-24 12:38:05.52	168.92	13.53	-25.6	-26.7	15.9	0.00e+00	0	42	102	1048576	12	4088
2026-01-24 12:38:06.52	168.95	13.63	-25.6	-26.7	16.0	8.00e-06	0	42	102	1048576	12	4072
2026-01-24 12:38:07.53	168.97	13.73	-25.4	-26.3	16.2	0.00e+00	0	42	102	1048576	12	3964
2026-01-24 12:38:08.53	169.00	13.83	-25.5	-26.5	16.2	0.00e+00	0	42	102	1048576	12	4027
2026-01-24 12:38:09.54	169.03	13.93	-25.6	-26.7	16.1	9.10e-06	0	42	102	1048576	12	4063
2026-01-24 12:38:10.54	169.06	14.04	-25.4	-26.3	16.3	0.00e+00	0	42	102	1048576	12	3971
2026-01-24 12:38:11.54	169.08	14.14	-25.4	-26.3	16.3	0.00e+00	0	42	102	1048576	12	3964
2026-01-24 12:38:12.55	169.11	14.24	-25.4	-26.2	16.3	0.00e+00	0	42	102	1048576	12	3941
2026-01-24 12:38:13.55	169.14	14.34	-25.4	-26.1	16.4	0.00e+00	0	42	102	1048576	12	3921
2026-01-24 12:38:14.55	169.17	14.45	-25.4	-26.1	16.4	0.00e+00	0	42	102	1048576	12	3931
2026-01-24 12:38:15.56	169.20	14.55	-25.4	-26.1	16.4	0.00e+00	0	42	102	1048576	12	3912
2026-01-24 12:38:16.56	169.23	14.66	-25.3	-26.0	16.5	0.00e+00	0	42	102	1048576	12	3888
2026-01-24 12:38:17.57	169.26	14.76	-25.3	-26.4	16.6	0.00e+00	0	42	102	1048576	11	4096
2026-01-24 12:38:18.57	169.28	14.87	-25.3	-26.4	16.6	0.00e+00	0	42	102	1048576	11	4097
2026-01-24 12:38:19.58	169.31	14.98	-25.3	-26.4	16.6	0.00e+00	0	43	102	1048576	11	4084
2026-01-24 12:38:20.57	169.34	15.08	-25.3	-26.4	16.6	0.00e+00	0	42	102	1048576	11	4083
2026-01-24 12:38:21.58	169.37	15.19	-25.2	-26.1	16.8	0.00e+00	0	42	102	1048576	11	4028
2026-01-24 12:38:22.59	169.40	15.30	-25.2	-26.2	16.8	0.00e+00	0	42	102	1048576	11	4031
2026-01-24 12:38:23.59	169.43	15.41	-25.2	-26.2	16.7	0.00e+00	0	42	102	1048576	11	4042
2026-01-24 12:38:24.59	169.46	15.52	-25.3	-26.5	16.6	0.00e+00	0	43	102	1048576	11	4116
2026-01-24 12:38:25.60	169.49	15.62	-25.4	-26.5	16.6	0.00e+00	0	43	102	1048576	11	4124
2026-01-24 12:38:26.60	169.52	15.73	-25.2	-26.3	16.7	0.00e+00	0	43	102	1048576	11	4068
2026-01-24 12:38:27.61	169.56	15.85	-25.1	-25.9	16.9	0.00e+00	0	43	102	1048576	11	3972
2026-01-24 12:38:28.62	169.59	15.96	-25.1	-26.0	16.9	0.00e+00	0	43	102	1048576	11	3980
2026-01-24 12:38:29.62	169.62	16.07	-25.1	-26.0	16.9	0.00e+00	0	43	102	1048576	11	3984
2026-01-24 12:38:30.63	169.65	16.18	-25.1	-26.1	16.8	0.00e+00	0	43	102	1048576	11	4014
2026-01-24 12:38:31.63	169.68	16.29	-25.1	-26.0	16.9	0.00e+00	0	43	102	1048576	11	3996
2026-01-24 12:38:32.63	169.71	16.40	-24.9	-25.6	17.1	0.00e+00	0	43	102	1048576	11	3890
2026-01-24 12:38:33.63	169.74	16.52	-24.8	-25.4	17.2	0.00e+00	0	43	102	1048576	11	3843
2026-01-24 12:38:34.63	169.78	16.63	-24.9	-25.6	17.1	0.00e+00	0	43	102	1048576	11	3887
2026-01-24 12:38:35.64	169.81	16.75	-24.9	-25.5	17.1	0.00e+00	0	43	102	1048576	11	3872
2026-01-24 12:38:36.64	169.84	16.86	-24.8	-25.5	17.2	0.00e+00	0	43	102	1048576	11	3859
2026-01-24 12:38:37.64	169.88	16.97	-24.9	-25.5	17.2	0.00e+00	0	42	102	1048576	11	3860
2026-01-24 12:38:38.65	169.91	17.09	-24.9	-25.5	17.2	0.00e+00	0	43	102	1048576	11	3863
2026-01-24 12:38:39.65	169.94	17.21	-24.9	-25.6	17.2	0.00e+00	0	43	102	1048576	11	3878
2026-01-24 12:38:40.65	169.98	17.32	-25.0	-25.7	17.1	0.00e+00	0	42	102	1048576	11	3926
2026-01-24 12:38:41.65	170.01	17.44	-25.0	-25.7	17.1	0.00e+00	0	43	102	1048576	11	3913
2026-01-24 12:38:42.66	170.04	17.56	-24.8	-25.4	17.2	0.00e+00	0	43	102	1048576	11	3845
2026-01-24 12:38:43.66	170.08	17.68	-24.9	-25.5	17.2	0.00e+00	0	43	102	1048576	11	3876
2026-01-24 12:38:44.66	170.11	17.80	-24.8	-25.4	17.2	0.00e+00	0	43	102	1048576	11	3838
2026-01-24 12:38:45.66	170.15	17.92	-24.8	-25.7	17.3	0.00e+00	0	43	102	1048576	10	4034
2026-01-24 12:38:46.67	170.18	18.04	-24.7	-25.6	17.4	0.00e+00	0	43	102	1048576	10	3986
2026-01-24 12:38:47.67	170.22	18.16	-24.8	-25.8	17.3	0.00e+00	0	43	102	1048576	10	4043
2026-01-24 12:38:48.67	170.25	18.28	-24.7	-25.6	17.4	0.00e+00	0	42	102	1048576	10	3985
2026-01-24 12:38:49.68	170.29	18.40	-24.6	-25.3	17.6	0.00e+00	0	43	102	1048576	10	3927
2026-01-24 12:38:50.69	170.33	18.53	-24.4	-25.1	17.7	0.00e+00	0	43	102	1048576	10	3872
2026-01-24 12:38:51.69	170.36	18.65	-24.5	-25.1	17.7	0.00e+00	0	43	102	1048576	10	3886
2026-01-24 12:38:52.69	170.40	18.77	-24.4	-25.0	17.7	1.10e-06	0	43	102	1048576	10	3858
2026-01-24 12:38:53.69	170.44	18.90	-24.3	-24.9	17.4	2.20e-06	0	43	102	1048576	10	3838
2026-01-24 12:38:54.70	170.47	19.02	-24.3	-24.8	17.4	1.02e-05	0	43	102	1048576	10	3816
2026-01-24 12:38:55.70	170.51	19.15	-24.5	-25.2	17.1	8.23e-05	0	43	102	1048576	10	3918
2026-01-24 12:38:56.71	170.55	19.27	-24.5	-25.2	17.1	3.23e-04	0	43	102	1048576	10	3918
2026-01-24 12:38:57.71	170.59	19.40	-24.5	-25.2	17.0	3.60e-04	0	43	102	1048576	10	3910
2026-01-24 12:38:58.72	170.63	19.53	-24.5	-25.3	17.0	1.82e-04	0	43	102	1048576	10	3919
2026-01-24 12:38:59.73	170.67	19.66	-24.6	-25.4	17.1	8.92e-05	0	43	102	1048576	10	3962
2026-01-24 12:39:00.73	170.70	19.79	-24.5	-25.2	17.2	1.36e-04	0	43	102	1048576	10	3896
2026-01-24 12:39:01.73	170.74	19.92	-24.2	-25.2	17.5	5.70e-06	0	43	102	1048576	9	4004
2026-01-24 12:39:02.74	170.78	20.05	-24.2	-25.2	17.5	2.17e-05	0	43	102	1048576	9	4002
2026-01-24 12:39:03.74	170.82	20.18	-24.4	-25.4	17.3	5.60e-05	0	43	102	1048576	9	4073
2026-01-24 12:39:04.75	170.86	20.31	-24.3	-25.2	17.4	6.98e-05	0	43	102	1048576	9	4016
2026-01-24 12:39:05.76	170.90	20.44	-23.9	-24.5	17.8	4.92e-05	0	43	102	1048576	9	3850
2026-01-24 12:39:06.76	170.95	20.58	-23.8	-24.6	17.9	2.05e-05	0	43	102	1048576	8	3981
2026-01-24 12:39:07.76	170.99	20.71	-23.8	-24.8	18.1	0.00e+00	0	43	102	1048576	8	4015
2026-01-24 12:39:08.77	171.03	20.85	-23.7	-24.6	18.2	1.10e-06	0	43	102	1048576	8	3971
2026-01-24 12:39:09.77	171.07	20.98	-23.9	-24.9	18.1	1.25e-05	0	43	102	1048576	8	4043
2026-01-24 12:39:10.77	171.11	21.12	-23.8	-24.8	18.0	1.10e-06	0	43	102	1048576	8	4013
2026-01-24 12:39:11.77	171.16	21.25	-23.8	-24.7	18.1	1.10e-06	0	43	102	1048576	8	3999
2026-01-24 12:39:12.77	171.20	21.39	-23.8	-24.8	18.0	3.40e-06	0	43	102	1048576	8	4030
2026-01-24 12:39:13.77	171.24	21.53	-24.1	-25.4	18.1	0.00e+00	0	43	102	1048576	8	4163
2026-01-24 12:39:14.77	171.28	21.67	-24.1	-25.2	18.2	0.00e+00	0	43	102	1048576	8	4124
2026-01-24 12:39:15.78	171.33	21.81	-24.0	-25.1	18.3	0.00e+00	0	43	102	1048576	8	4089
2026-01-24 12:39:16.78	171.37	21.95	-24.1	-25.2	18.2	0.00e+00	0	43	102	1048576	8	4127
2026-01-24 12:39:17.78	171.42	22.09	-24.0	-25.2	18.2	0.00e+00	0	43	102	1048576	8	4104
2026-01-24 12:39:18.78	171.46	22.23	-24.0	-25.1	18.3	0.00e+00	0	43	102	1048576	8	4088
2026-01-24 12:39:19.79	171.51	22.37	-24.0	-25.0	18.3	0.00e+00	0	43	102	1048576	8	4078
2026-01-24 12:39:20.79	171.55	22.51	-24.0	-25.2	17.7	2.86e-05	0	43	102	1048576	8	4129
2026-01-24 12:39:21.80	171.60	22.66	-23.9	-25.0	17.8	1.25e-05	0	43	102	1048576	8	4096
2026-01-24 12:39:22.80	171.65	22.80	-23.8	-24.8	17.8	1.66e-04	0	43	102	1048576	8	4034
2026-01-24 12:39:23.80	171.69	22.95	-23.8	-24.8	17.7	1.03e-04	0	43	102	1048576	8	4021
2026-01-24 12:39:24.81	171.74	23.10	-23.7	-24.6	17.9	1.94e-05	0	43	102	1048576	8	3976
2026-01-24 12:39:25.81	171.79	23.24	-23.7	-24.5	18.0	5.72e-05	0	43	102	1048576	8	3947
2026-01-24 12:39:26.81	171.84	23.39	-23.7	-24.5	18.0	0.00e+00	0	43	102	1048576	8	3957
2026-01-24 12:39:27.81	171.89	23.54	-23.6	-24.2	18.3	6.80e-06	0	43	102	1048576	8	3893
2026-01-24 12:39:28.81	171.94	23.69	-23.4	-23.9	18.5	0.00e+00	0	43	102	1048576	8	3800
2026-01-24 12:39:29.82	171.99	23.84	-23.3	-23.7	18.7	1.10e-06	0	43	102	1048576	8	3766
2026-01-24 12:39:30.83	172.04	23.99	-23.4	-23.8	18.6	0.00e+00	0	43	102	1048576	8	3792
2026-01-24 12:39:31.84	172.09	24.15	-23.3	-23.6	18.8	0.00e+00	0	43	102	1048576	8	3738
2026-01-24 12:39:32.84	172.14	24.30	-23.2	-24.0	18.8	0.00e+00	0	43	102	1048576	7	3926
2026-01-24 12:39:33.85	172.19	24.46	-23.2	-24.0	18.9	0.00e+00	0	43	102	1048576	7	3924
2026-01-24 12:39:34.86	172.24	24.61	-23.1	-23.8	18.9	0.00e+00	0	43	102	1048576	7	3882
2026-01-24 12:39:35.86	172.29	24.77	-23.2	-23.9	19.0	0.00e+00	0	43	102	1048576	7	3917
2026-01-24 12:39:36.87	172.35	24.93	-23.2	-23.8	19.0	0.00e+00	0	43	102	1048576	7	3897
2026-01-24 12:39:37.87	172.40	25.08	-23.2	-24.0	19.0	0.00e+00	0	43	102	1048576	7	3932
2026-01-24 12:39:38.87	172.45	25.24	-23.1	-23.7	19.1	0.00e+00	0	43	102	1048576	7	3869
2026-01-24 12:39:39.87	172.51	25.40	-23.2	-23.9	19.1	0.00e+00	0	43	102	1048576	7	3899
2026-01-24 12:39:40.88	172.56	25.56	-23.1	-23.7	19.2	0.00e+00	0	43	102	1048576	7	3864
2026-01-24 12:39:41.88	172.62	25.73	-23.1	-23.7	19.4	0.00e+00	0	43	102	1048576	7	3850
2026-01-24 12:39:42.88	172.68	25.89	-23.2	-23.9	19.2	0.00e+00	0	43	102	1048576	7	3899
2026-01-24 12:39:43.88	172.73	26.05	-23.3	-24.1	19.2	0.00e+00	0	43	102	1048576	7	3944
2026-01-24 12:39:44.89	172.79	26.22	-23.4	-24.2	19.0	0.00e+00	0	43	102	1048576	7	3990
2026-01-24 12:39:45.89	172.85	26.38	-23.4	-24.3	19.0	0.00e+00	0	43	102	1048576	7	4002
2026-01-24 12:39:46.88	172.90	26.55	-23.5	-24.5	18.9	4.50e-06	0	43	102	1048576	7	4058
2026-01-24 12:39:47.88	172.96	26.71	-23.4	-24.4	19.0	0.00e+00	0	43	102	1048576	7	4033
2026-01-24 12:39:48.89	173.02	26.88	-23.5	-24.5	18.9	0.00e+00	0	43	102	1048576	7	4063
2026-01-24 12:39:49.89	173.08	27.05	-23.6	-24.8	18.7	4.50e-06	0	43	102	1048576	7	4121
2026-01-24 12:39:50.90	173.14	27.22	-23.4	-24.4	18.9	0.00e+00	0	43	102	1048576	7	4020
2026-01-24 12:39:51.91	173.21	27.40	-23.3	-24.2	19.0	0.00e+00	0	43	102	1048576	7	3982
2026-01-24 12:39:52.91	173.27	27.57	-23.3	-24.2	19.0	0.00e+00	0	43	102	1048576	7	3970
2026-01-24 12:39:53.91	173.33	27.74	-23.2	-24.0	19.1	0.00e+00	0	43	102	1048576	7	3926
2026-01-24 12:39:54.91	173.39	27.92	-23.2	-24.0	19.1	0.00e+00	0	43	102	1048576	7	3920
2026-01-24 12:39:55.92	173.46	28.09	-23.1	-23.8	19.2	3.40e-06	0	43	102	1048576	7	3887
2026-01-24 12:39:56.92	173.52	28.27	-23.1	-23.8	19.2	0.00e+00	0	43	102	1048576	7	3878
2026-01-24 12:39:57.93	173.59	28.45	-23.2	-24.0	19.1	0.00e+00	0	43	102	1048576	7	3926
2026-01-24 12:39:58.94	173.65	28.63	-23.1	-23.6	19.3	1.10e-06	0	43	102	1048576	7	3842
2026-01-24 12:39:59.95	173.72	28.81	-23.0	-23.5	19.4	0.00e+00	0	43	102	1048576	7	3810
2026-01-24 12:40:00.94	173.79	28.99	-23.0	-23.5	19.4	0.00e+00	0	43	102	1048576	7	3821
2026-01-24 12:40:01.95	173.85	29.18	-23.1	-23.6	19.3	0.00e+00	0	43	102	1048576	7	3851
2026-01-24 12:40:02.95	173.92	29.36	-23.2	-24.0	19.1	0.00e+00	0	43	102	1048576	7	3926
2026-01-24 12:40:03.95	173.99	29.54	-23.3	-24.1	19.1	0.00e+00	0	43	102	1048576	7	3961
2026-01-24 12:40:04.96	174.06	29.73	-23.4	-24.3	18.9	0.00e+00	0	43	102	1048576	7	4019
2026-01-24 12:40:05.97	174.13	29.92	-23.3	-24.1	19.1	0.00e+00	0	43	102	1048576	7	3971
2026-01-24 12:40:06.97	174.21	30.11	-23.4	-24.4	18.9	0.00e+00	0	43	102	1048576	7	4020
2026-01-24 12:40:07.98	174.28	30.30	-23.5	-24.7	18.8	0.00e+00	0	43	102	1048576	7	4101
2026-01-24 12:40:08.99	174.35	30.49	-23.6	-24.7	18.7	0.00e+00	0	43	102	1048576	7	4105
2026-01-24 12:40:09.99	174.43	30.68	-23.4	-24.3	19.0	0.00e+00	0	43	102	1048576	7	4005
2026-01-24 12:40:11.00	174.50	30.88	-23.3	-24.1	19.0	0.00e+00	0	43	102	1048576	7	3962
2026-01-24 12:40:12.01	174.58	31.07	-23.4	-24.4	18.9	0.00e+00	0	43	102	1048576	7	4035
2026-01-24 12:40:13.01	174.66	31.27	-23.3	-24.1	19.1	0.00e+00	0	43	102	1048576	7	3956
2026-01-24 12:40:14.01	174.73	31.47	-23.2	-23.8	19.3	0.00e+00	0	43	102	1048576	7	3888
2026-01-24 12:40:15.02	174.81	31.67	-23.2	-23.9	19.3	0.00e+00	0	43	102	1048576	7	3907
2026-01-24 12:40:16.03	174.89	31.87	-23.1	-23.8	19.3	0.00e+00	0	43	102	1048576	7	3876
2026-01-24 12:40:17.03	174.97	32.07	-23.4	-24.4	19.0	0.00e+00	0	43	102	1048576	7	4023
2026-01-24 12:40:18.03	175.05	32.27	-23.2	-23.8	19.3	0.00e+00	0	43	102	1048576	7	3896
2026-01-24 12:40:19.03	175.14	32.47	-23.0	-23.6	19.4	0.00e+00	0	43	102	1048576	7	3833
2026-01-24 12:40:20.03	175.22	32.68	-23.1	-23.7	19.4	0.00e+00	0	43	102	1048576	7	3867
2026-01-24 12:40:21.04	175.30	32.88	-23.2	-24.0	19.2	0.00e+00	0	43	102	1048576	7	3928
2026-01-24 12:40:22.04	175.39	33.09	-23.2	-23.9	19.2	0.00e+00	0	43	102	1048576	7	3920
2026-01-24 12:40:23.05	175.48	33.30	-23.2	-24.0	19.2	0.00e+00	0	43	102	1048576	7	3940
2026-01-24 12:40:24.05	175.56	33.51	-23.2	-23.9	19.3	0.00e+00	0	43	102	1048576	7	3902
2026-01-24 12:40:25.06	175.65	33.73	-23.1	-23.7	19.4	0.00e+00	0	43	102	1048576	7	3867
2026-01-24 12:40:26.07	175.74	33.94	-23.2	-23.9	19.3	0.00e+00	0	43	102	1048576	7	3897
2026-01-24 12:40:27.07	175.84	34.16	-23.2	-23.8	19.3	0.00e+00	0	43	102	1048576	7	3886
2026-01-24 12:40:28.08	175.93	34.37	-23.4	-24.2	19.2	0.00e+00	0	43	102	1048576	7	3982
2026-01-24 12:40:29.08	176.02	34.59	-23.2	-23.9	19.3	0.00e+00	0	43	102	1048576	7	3902
2026-01-24 12:40:30.09	176.12	34.81	-23.3	-24.1	19.2	0.00e+00	0	43	102	1048576	7	3950
2026-01-24 12:40:31.09	176.21	35.03	-23.2	-23.8	19.4	0.00e+00	0	43	102	1048576	7	3878
2026-01-24 12:40:32.10	176.31	35.25	-23.3	-24.0	19.3	0.00e+00	0	43	102	1048576	7	3931
2026-01-24 12:40:33.10	176.41	35.48	-23.5	-24.5	19.1	0.00e+00	0	43	102	1048576	7	4039
2026-01-24 12:40:34.10	176.51	35.70	-23.6	-24.7	18.9	0.00e+00	0	43	102	1048576	7	4098
2026-01-24 12:40:35.10	176.61	35.93	-23.2	-24.0	19.3	0.00e+00	0	43	102	1048576	7	3933
2026-01-24 12:40:36.10	176.71	36.15	-22.9	-23.3	19.6	0.00e+00	0	43	102	1048576	7	3777
2026-01-24 12:40:37.10	176.81	36.38	-22.7	-23.4	19.8	0.00e+00	0	43	102	1048576	6	3889
2026-01-24 12:40:38.11	176.92	36.62	-22.8	-23.5	19.8	0.00e+00	0	43	102	1048576	6	3925
2026-01-24 12:40:39.11	177.03	36.85	-22.9	-23.8	19.6	0.00e+00	0	43	102	1048576	6	4000
2026-01-24 12:40:40.11	177.13	37.08	-22.7	-23.4	19.8	0.00e+00	0	43	102	1048576	6	3891
2026-01-24 12:40:41.11	177.24	37.32	-22.6	-23.2	20.0	0.00e+00	0	43	102	1048576	6	3836
2026-01-24 12:40:42.11	177.35	37.55	-22.6	-23.2	20.0	0.00e+00	0	43	102	1048576	6	3837
2026-01-24 12:40:43.12	177.47	37.79	-22.8	-23.5	19.8	2.20e-06	0	43	102	1048576	6	3909
2026-01-24 12:40:44.12	177.58	38.03	-22.7	-23.5	19.9	0.00e+00	0	43	102	1048576	6	3906
2026-01-24 12:40:45.13	177.70	38.28	-22.8	-23.5	19.8	0.00e+00	0	43	102	1048576	6	3916
2026-01-24 12:40:46.13	177.81	38.52	-22.9	-23.7	19.7	0.00e+00	0	43	102	1048576	6	3975
2026-01-24 12:40:47.13	177.93	38.76	-22.7	-23.4	19.9	0.00e+00	0	43	102	1048576	6	3895
2026-01-24 12:40:48.14	178.06	39.01	-22.7	-23.4	19.9	0.00e+00	0	43	102	1048576	6	3882
2026-01-24 12:40:49.13	178.18	39.26	-22.7	-23.3	19.9	0.00e+00	0	43	102	1048576	6	3881
2026-01-24 12:40:50.13	178.30	39.51	-22.8	-23.5	19.8	0.00e+00	0	43	102	1048576	6	3920
2026-01-24 12:40:51.13	178.43	39.76	-22.7	-23.4	19.8	0.00e+00	0	43	102	1048576	6	3900
2026-01-24 12:40:52.13	178.56	40.01	-22.8	-23.6	19.7	0.00e+00	0	43	102	1048576	6	3937
2026-01-24 12:40:53.14	178.69	40.27	-23.0	-23.9	19.6	0.00e+00	0	43	102	1048576	6	4020
2026-01-24 12:40:54.14	178.82	40.53	-23.0	-24.0	19.6	0.00e+00	0	43	102	1048576	6	4036
2026-01-24 12:40:55.15	178.96	40.79	-22.9	-23.8	19.7	0.00e+00	0	43	102	1048576	6	3990
2026-01-24 12:40:56.16	179.09	41.05	-22.9	-23.9	19.7	0.00e+00	0	43	102	1048576	6	4005
2026-01-24 12:40:57.16	179.23	41.31	-23.1	-24.2	19.5	0.00e+00	0	43	102	1048576	6	4072
2026-01-24 12:40:58.17	179.37	41.58	-23.0	-23.9	19.6	0.00e+00	0	43	102	1048576	6	4021
2026-01-24 12:40:59.17	179.52	41.84	-23.1	-24.2	19.5	0.00e+00	0	43	102	1048576	6	4078
2026-01-24 12:41:00.18	179.66	42.11	-23.2	-24.5	19.3	0.00e+00	0	43	102	1048576	6	4148
2026-01-24 12:41:01.19	179.81	42.38	-23.3	-24.5	19.3	0.00e+00	0	43	102	1048576	6	4170
2026-01-24 12:41:02.19	179.96	42.65	-23.3	-24.6	19.3	0.00e+00	0	43	102	1048576	6	4178
2026-01-24 12:41:03.19	180.12	42.92	-23.3	-24.6	19.3	0.00e+00	0	43	102	1048576	6	4182
2026-01-24 12:41:04.19	180.27	43.20	-23.2	-24.5	19.4	0.00e+00	0	43	102	1048576	6	4150
2026-01-24 12:41:05.19	180.43	43.47	-23.0	-24.0	19.6	0.00e+00	0	43	102	1048576	6	4036
2026-01-24 12:41:06.20	180.59	43.75	-23.1	-24.2	19.5	0.00e+00	0	43	102	1048576	6	4075
2026-01-24 12:41:07.20	180.75	44.03	-23.3	-24.6	19.4	0.00e+00	0	43	102	1048576	6	4174
2026-01-24 12:41:08.21	180.92	44.31	-23.2	-24.4	19.5	0.00e+00	0	43	102	1048576	6	4120
2026-01-24 12:41:09.21	181.09	44.60	-23.1	-24.2	19.5	0.00e+00	0	43	102	1048576	6	4079
2026-01-24 12:41:10.22	181.26	44.88	-23.3	-24.5	19.4	0.00e+00	0	43	102	1048576	6	4166
2026-01-24 12:41:11.22	181.44	45.17	-23.3	-24.6	19.3	0.00e+00	0	43	102	1048576	6	4187
2026-01-24 12:41:12.22	181.62	45.46	-23.4	-24.7	19.3	0.00e+00	0	43	102	1048576	6	4212
2026-01-24 12:41:13.23	181.80	45.75	-23.3	-24.6	19.4	0.00e+00	0	43	102	1048576	6	4172
2026-01-24 12:41:14.24	181.99	46.04	-23.1	-24.1	19.6	0.00e+00	0	43	102	1048576	6	4056
2026-01-24 12:41:15.24	182.17	46.34	-23.1	-24.1	19.6	0.00e+00	0	43	102	1048576	6	4047
2026-01-24 12:41:16.24	182.37	46.63	-23.2	-24.3	19.5	0.00e+00	0	43	102	1048576	6	4110
2026-01-24 12:41:17.24	182.56	46.93	-23.4	-24.7	19.3	0.00e+00	0	43	102	1048576	6	4217
2026-01-24 12:41:18.25	182.76	47.23	-23.4	-24.7	19.3	0.00e+00	0	43	102	1048576	6	4213
2026-01-24 12:41:19.25	182.96	47.53	-23.2	-24.4	19.5	0.00e+00	0	43	102	1048576	6	4128
2026-01-24 12:41:20.26	183.17	47.83	-22.9	-23.7	19.8	0.00e+00	0	43	102	1048576	6	3949
2026-01-24 12:41:21.26	183.38	48.14	-22.8	-23.4	20.0	0.00e+00	0	43	102	1048576	6	3896
2026-01-24 12:41:22.26	183.60	48.44	-22.9	-23.8	19.8	0.00e+00	0	43	102	1048576	6	3972
2026-01-24 12:41:23.27	183.82	48.75	-23.1	-24.2	19.6	0.00e+00	0	43	102	1048576	6	4084
2026-01-24 12:41:24.27	184.04	49.06	-23.2	-24.3	19.6	0.00e+00	0	43	102	1048576	6	4103
2026-01-24 12:41:25.27	184.27	49.37	-23.3	-24.5	19.4	0.00e+00	0	43	102	1048576	6	4167
2026-01-24 12:41:26.28	184.50	49.69	-23.4	-24.8	19.3	0.00e+00	0	43	102	1048576	6	4235
2026-01-24 12:41:27.28	184.74	50.00	-23.4	-24.8	19.3	0.00e+00	0	43	102	1048576	6	4216
2026-01-24 12:41:28.28	184.98	50.32	-23.4	-24.9	19.3	0.00e+00	0	43	102	1048576	6	4245
2026-01-24 12:41:29.29	185.23	50.64	-23.8	-25.1	19.0	0.00e+00	0	43	102	1048576	7	4192
2026-01-24 12:41:30.29	185.48	50.96	-24.1	-25.3	18.6	0.00e+00	0	43	102	1048576	8	4128
2026-01-24 12:41:31.30	185.74	51.28	-24.1	-25.3	18.6	0.00e+00	0	43	102	1048576	8	4125
2026-01-24 12:41:32.31	186.01	51.60	-24.1	-25.3	18.6	0.00e+00	0	43	102	1048576	8	4117
2026-01-24 12:41:33.31	186.28	51.93	-23.9	-24.7	18.9	0.00e+00	0	43	102	1048576	8	3982
2026-01-24 12:41:34.32	186.56	52.26	-24.0	-25.0	18.8	0.00e+00	0	43	102	1048576	8	4042
2026-01-24 12:41:35.33	186.84	52.59	-24.3	-25.6	18.5	0.00e+00	0	43	102	1048576	8	4211
2026-01-24 12:41:36.33	187.13	52.91	-24.3	-25.7	18.4	0.00e+00	0	43	102	1048576	8	4234
2026-01-24 12:41:37.34	187.42	53.25	-24.3	-25.6	18.5	0.00e+00	0	43	102	1048576	8	4202
2026-01-24 12:41:38.33	187.72	53.58	-24.1	-25.2	18.7	0.00e+00	0	43	102	1048576	8	4095
2026-01-24 12:41:39.34	188.03	53.91	-24.0	-25.0	18.8	0.00e+00	0	43	102	1048576	8	4061
2026-01-24 12:41:40.34	188.34	54.24	-23.9	-24.9	18.9	0.00e+00	0	43	102	1048576	8	4016
2026-01-24 12:41:41.34	188.67	54.58	-23.9	-24.7	19.0	0.00e+00	0	43	102	1048576	8	3983
2026-01-24 12:41:42.34	188.99	54.92	-23.9	-24.7	18.9	0.00e+00	0	43	102	1048576	8	3985
2026-01-24 12:41:43.33	189.33	55.25	-23.9	-24.8	18.9	0.00e+00	0	43	102	1048576	8	4007
2026-01-24 12:41:44.34	189.68	55.59	-24.2	-25.5	18.5	0.00e+00	0	43	102	1048576	8	4188
2026-01-24 12:41:45.34	190.03	55.93	-24.4	-25.9	18.3	0.00e+00	0	43	102	1048576	8	4293
2026-01-24 12:41:46.35	190.39	56.28	-23.9	-24.9	18.8	0.00e+00	0	43	102	1048576	8	4033
2026-01-24 12:41:47.35	190.76	56.62	-23.8	-24.7	18.9	0.00e+00	0	43	102	1048576	8	3983
2026-01-24 12:41:48.36	191.15	56.96	-24.0	-25.0	18.8	0.00e+00	0	43	102	1048576	8	4062
2026-01-24 12:41:49.37	191.54	57.31	-24.1	-25.3	18.6	0.00e+00	0	43	102	1048576	8	4138
2026-01-24 12:41:50.37	191.94	57.65	-23.8	-24.6	19.0	0.00e+00	0	43	102	1048576	8	3958
2026-01-24 12:41:51.37	192.35	58.00	-23.8	-24.5	19.1	0.00e+00	0	43	102	1048576	8	3932
2026-01-24 12:41:52.37	192.77	58.35	-23.8	-24.7	19.0	0.00e+00	0	43	102	1048576	8	3965
2026-01-24 12:41:53.38	193.21	58.70	-23.5	-24.0	19.3	0.00e+00	0	43	102	1048576	8	3810
2026-01-24 12:41:54.38	193.65	59.04	-23.4	-23.8	19.4	0.00e+00	0	43	102	1048576	8	3770
2026-01-24 12:41:55.38	194.10	59.39	-23.3	-23.6	19.6	0.00e+00	0	43	102	1048576	8	3713
2026-01-24 12:41:56.38	194.57	59.74	-23.0	-23.4	19.9	0.00e+00	0	43	102	1048576	7	3769
2026-01-24 12:41:57.38	195.05	60.09	-23.1	-23.6	19.8	0.00e+00	0	43	102	1048576	7	3828
2026-01-24 12:41:58.39	195.54	60.44	-23.4	-24.2	19.5	0.00e+00	0	43	102	1048576	7	3961
2026-01-24 12:41:59.39	196.05	60.78	-23.5	-24.6	19.3	0.00e+00	0	43	102	1048576	7	4064
2026-01-24 12:42:00.39	196.57	61.13	-23.1	-23.6	19.8	1.10e-06	0	43	102	1048576	7	3833
2026-01-24 12:42:01.39	197.10	61.48	-22.8	-23.0	20.1	0.00e+00	0	43	102	1048576	7	3701
2026-01-24 12:42:02.40	197.66	61.83	-23.0	-23.5	19.9	0.00e+00	0	43	102	1048576	7	3809
2026-01-24 12:42:03.41	198.23	62.18	-22.8	-23.1	20.1	0.00e+00	0	43	102	1048576	7	3703
2026-01-24 12:42:04.42	198.82	62.53	-22.7	-23.2	20.3	0.00e+00	0	43	102	1048576	6	3839
2026-01-24 12:42:05.42	199.41	62.87	-23.2	-24.3	19.7	0.00e+00	0	43	102	1048576	6	4094
2026-01-24 12:42:06.43	200.04	63.22	-23.3	-24.6	19.6	0.00e+00	0	43	102	1048576	6	4189
2026-01-24 12:42:07.43	200.67	63.57	-22.8	-23.5	20.1	0.00e+00	0	43	102	1048576	6	3910
2026-01-24 12:42:08.44	201.33	63.91	-22.6	-23.0	20.3	0.00e+00	0	43	102	1048576	6	3805
2026-01-24 12:42:09.44	202.00	64.25	-22.7	-23.3	20.2	0.00e+00	0	43	102	1048576	6	3867
2026-01-24 12:42:10.43	202.68	64.59	-22.7	-23.4	20.2	0.00e+00	0	43	102	1048576	6	3877
2026-01-24 12:42:11.43	203.40	64.92	-22.8	-23.5	20.1	0.00e+00	0	43	102	1048576	6	3916
2026-01-24 12:42:12.43	204.13	65.26	-22.9	-23.8	20.0	0.00e+00	0	43	102	1048576	6	3976
2026-01-24 12:42:13.43	204.89	65.59	-22.7	-23.2	20.5	0.00e+00	0	43	102	1048576	6	3820
2026-01-24 12:42:14.44	205.67	65.92	-22.5	-22.8	20.6	0.00e+00	0	43	102	1048576	6	3738
2026-01-24 12:42:15.44	206.47	66.25	-22.5	-22.9	20.6	0.00e+00	0	43	102	1048576	6	3754
2026-01-24 12:42:16.45	207.31	66.58	-22.4	-22.7	20.7	0.00e+00	0	43	102	1048576	6	3708
2026-01-24 12:42:17.46	208.17	66.90	-22.6	-23.1	20.5	0.00e+00	0	43	102	1048576	6	3802
2026-01-24 12:42:18.46	209.05	67.22	-22.7	-23.2	20.4	0.00e+00	0	43	102	1048576	6	3842
2026-01-24 12:42:19.47	209.96	67.54	-22.5	-22.9	20.6	0.00e+00	0	43	102	1048576	6	3752
2026-01-24 12:42:20.47	210.90	67.84	-22.7	-23.2	20.5	0.00e+00	0	43	102	1048576	6	3838
2026-01-24 12:42:21.47	211.86	68.15	-22.6	-23.2	20.4	0.00e+00	0	43	102	1048576	6	3829
2026-01-24 12:42:22.47	212.85	68.45	-22.4	-22.7	20.7	0.00e+00	0	43	102	1048576	6	3705
2026-01-24 12:42:23.48	213.88	68.75	-22.9	-23.8	20.2	0.00e+00	0	43	102	1048576	6	3958
2026-01-24 12:42:24.48	214.93	69.04	-23.4	-24.3	19.6	0.00e+00	0	43	102	1048576	7	3983
2026-01-24 12:42:25.49	216.03	69.32	-23.0	-23.5	20.1	0.00e+00	0	43	102	1048576	7	3799
2026-01-24 12:42:26.50	217.15	69.60	-22.9	-23.2	20.2	0.00e+00	0	43	102	1048576	7	3712
2026-01-24 12:42:27.50	218.30	69.87	-23.0	-23.3	20.1	0.00e+00	0	43	102	1048576	7	3755
2026-01-24 12:42:28.50	219.48	70.14	-23.0	-23.4	20.1	0.00e+00	0	43	102	1048576	7	3781
2026-01-24 12:42:29.50	220.70	70.39	-22.9	-23.1	20.2	0.00e+00	0	43	102	1048576	7	3706
2026-01-24 12:42:30.50	221.95	70.64	-23.0	-23.4	20.1	0.00e+00	0	43	102	1048576	7	3767
2026-01-24 12:42:31.50	223.23	70.88	-22.9	-23.2	20.2	0.00e+00	0	43	102	1048576	7	3727
2026-01-24 12:42:32.50	224.54	71.11	-22.4	-22.6	20.7	0.00e+00	0	43	102	1048576	6	3700
2026-01-24 12:42:33.50	225.89	71.34	-22.0	-22.3	21.1	0.00e+00	0	43	102	1048576	5	3732
2026-01-24 12:42:34.50	227.28	71.55	-21.6	-22.0	21.4	0.00e+00	0	43	102	1048576	4	3779
2026-01-24 12:42:35.51	228.71	71.76	-21.6	-22.0	21.5	0.00e+00	0	43	102	1048576	4	3762
2026-01-24 12:42:36.51	230.16	71.95	-22.1	-23.1	20.9	0.00e+00	0	43	102	1048576	4	4033
2026-01-24 12:42:37.52	231.66	72.13	-21.8	-22.4	21.3	0.00e+00	0	43	102	1048576	4	3854
2026-01-24 12:42:38.53	233.19	72.30	-21.6	-22.0	21.4	0.00e+00	0	43	102	1048576	4	3763
2026-01-24 12:42:39.53	234.73	72.46	-21.9	-22.7	21.0	0.00e+00	0	43	102	1048576	4	3949
2026-01-24 12:42:40.53	236.30	72.61	-21.6	-22.0	21.4	0.00e+00	0	43	102	1048576	4	3776
2026-01-24 12:42:41.54	237.92	72.75	-21.4	-21.6	21.6	0.00e+00	0	43	102	1048576	4	3676
2026-01-24 12:42:42.54	239.54	72.87	-21.8	-22.5	21.2	0.00e+00	0	43	102	1048576	4	3885
2026-01-24 12:42:43.54	241.19	72.98	-21.7	-22.3	21.3	0.00e+00	0	43	102	1048576	4	3843
2026-01-24 12:42:44.55	242.87	73.07	-21.3	-21.5	21.7	0.00e+00	0	43	102	1048576	4	3659
2026-01-24 12:42:45.55	244.56	73.15	-21.3	-22.0	21.7	0.00e+00	0	43	102	1048576	3	3866
2026-01-24 12:42:46.55	246.26	73.22	-21.3	-21.8	21.8	0.00e+00	0	43	102	1048576	3	3830
2026-01-24 12:42:47.56	248.00	73.27	-21.4	-22.0	21.7	0.00e+00	0	43	102	1048576	3	3882
2026-01-24 12:42:48.56	249.72	73.31	-21.9	-23.2	21.5	0.00e+00	0	43	102	1048576	3	4157
2026-01-24 12:42:49.56	251.45	73.34	-21.8	-23.0	21.4	0.00e+00	0	43	102	1048576	3	4113
2026-01-24 12:42:50.56	253.19	73.35	-21.9	-23.2	21.3	0.00e+00	0	43	102	1048576	3	4170
2026-01-24 12:42:51.57	254.94	73.34	-22.0	-22.7	21.2	0.00e+00	0	43	102	1048576	4	3942
2026-01-24 12:42:52.57	256.67	73.32	-21.8	-22.4	21.4	0.00e+00	0	43	102	1048576	4	3869
2026-01-24 12:42:53.58	258.42	73.29	-21.9	-22.6	21.3	0.00e+00	0	43	102	1048576	4	3908
2026-01-24 12:42:54.58	260.14	73.24	-21.7	-22.1	21.5	0.00e+00	0	43	102	1048576	4	3793
2026-01-24 12:42:55.58	261.84	73.18	-21.4	-21.5	21.8	0.00e+00	0	43	102	1048576	4	3656
2026-01-24 12:42:56.58	263.54	73.10	-21.5	-21.7	21.7	0.00e+00	0	43	102	1048576	4	3709
2026-01-24 12:42:57.58	265.21	73.01	-21.7	-22.2	21.4	0.00e+00	0	43	102	1048576	4	3818
2026-01-24 12:42:58.59	266.88	72.91	-21.7	-22.1	21.5	0.00e+00	0	43	102	1048576	4	3794
2026-01-24 12:42:59.58	268.50	72.79	-21.9	-22.6	21.3	1.10e-06	0	43	102	1048576	4	3913
2026-01-24 12:43:00.59	270.12	72.66	-22.2	-23.2	20.9	0.00e+00	0	43	102	1048576	4	4049
2026-01-24 12:43:01.59	271.70	72.52	-21.9	-22.6	21.2	0.00e+00	0	43	102	1048576	4	3904
2026-01-24 12:43:02.60	273.27	72.36	-21.7	-22.2	21.4	0.00e+00	0	43	102	1048576	4	3815
2026-01-24 12:43:03.60	274.79	72.19	-22.0	-22.8	21.1	0.00e+00	0	43	102	1048576	4	3961
2026-01-24 12:43:04.61	276.30	72.01	-21.8	-22.4	21.3	0.00e+00	0	43	102	1048576	4	3865
2026-01-24 12:43:05.61	277.76	71.83	-21.5	-21.7	21.6	0.00e+00	0	43	102	1048576	4	3714
2026-01-24 12:43:06.61	279.19	71.63	-21.6	-22.1	21.4	0.00e+00	0	43	102	1048576	4	3786
2026-01-24 12:43:07.61	280.58	71.42	-21.8	-22.5	21.3	0.00e+00	0	43	102	1048576	4	3882
2026-01-24 12:43:08.62	281.96	71.20	-21.8	-22.4	21.3	0.00e+00	0	43	102	1048576	4	3850
2026-01-24 12:43:09.63	283.30	70.97	-21.9	-22.6	21.2	0.00e+00	0	43	102	1048576	4	3904
2026-01-24 12:43:10.63	284.59	70.73	-22.0	-22.8	21.1	0.00e+00	0	43	102	1048576	4	3951
2026-01-24 12:43:11.64	285.86	70.48	-22.1	-23.0	21.0	0.00e+00	0	43	102	1048576	4	4006
2026-01-24 12:43:12.64	287.09	70.23	-21.9	-22.6	21.2	0.00e+00	0	43	102	1048576	4	3900
2026-01-24 12:43:13.64	288.28	69.97	-22.0	-22.7	21.1	0.00e+00	0	43	102	1048576	4	3940
2026-01-24 12:43:14.64	289.44	69.70	-22.2	-23.3	20.9	0.00e+00	0	43	102	1048576	4	4067
2026-01-24 12:43:15.64	290.56	69.42	-22.1	-23.1	20.9	0.00e+00	0	43	102	1048576	4	4029
2026-01-24 12:43:16.65	291.67	69.14	-22.2	-23.2	20.9	0.00e+00	0	43	102	1048576	4	4045
2026-01-24 12:43:17.65	292.73	68.85	-22.4	-23.7	20.7	0.00e+00	0	43	102	1048576	4	4171
2026-01-24 12:43:18.66	293.77	68.56	-22.4	-23.6	20.7	0.00e+00	0	43	102	1048576	4	4164
2026-01-24 12:43:19.66	294.77	68.26	-22.3	-23.5	20.7	0.00e+00	0	43	102	1048576	4	4127
2026-01-24 12:43:20.67	295.75	67.95	-22.3	-23.5	20.7	0.00e+00	0	43	102	1048576	4	4111
2026-01-24 12:43:21.68	296.70	67.64	-22.1	-23.0	21.0	0.00e+00	0	43	102	1048576	4	4001
2026-01-24 12:43:22.68	297.61	67.33	-22.1	-23.1	20.9	0.00e+00	0	43	102	1048576	4	4026
2026-01-24 12:43:23.69	298.51	67.01	-22.3	-23.4	20.8	0.00e+00	0	43	102	1048576	4	4099
2026-01-24 12:43:24.69	299.37	66.69	-22.4	-23.7	20.6	0.00e+00	0	43	102	1048576	4	4184
2026-01-24 12:43:25.70	300.21	66.37	-22.6	-23.6	20.4	0.00e+00	0	43	102	1048576	5	4046
2026-01-24 12:43:26.70	301.02	66.04	-22.7	-23.9	20.3	0.00e+00	0	43	102	1048576	5	4091
2026-01-24 12:43:27.71	301.82	65.71	-22.6	-23.6	20.4	0.00e+00	0	43	102	1048576	5	4040
2026-01-24 12:43:28.71	302.58	65.38	-22.5	-23.4	20.5	0.00e+00	0	43	102	1048576	5	3977
2026-01-24 12:43:29.72	303.33	65.05	-22.5	-23.4	20.5	0.00e+00	0	43	102	1048576	5	3982
2026-01-24 12:43:30.72	304.05	64.71	-22.5	-23.4	20.5	0.00e+00	0	43	102	1048576	5	3988
2026-01-24 12:43:31.73	304.75	64.37	-22.6	-23.6	20.4	0.00e+00	0	43	102	1048576	5	4028
2026-01-24 12:43:32.73	305.43	64.03	-22.8	-23.9	20.2	0.00e+00	0	43	102	1048576	5	4120
2026-01-24 12:43:33.73	306.08	63.69	-22.7	-23.8	20.3	0.00e+00	0	43	102	1048576	5	4096
2026-01-24 12:43:34.73	306.72	63.35	-22.7	-23.8	20.3	0.00e+00	0	43	102	1048576	5	4091
2026-01-24 12:43:35.74	307.35	63.00	-22.7	-23.8	20.3	0.00e+00	0	43	102	1048576	5	4080
2026-01-24 12:43:36.74	307.95	62.66	-22.6	-23.5	20.4	0.00e+00	0	43	102	1048576	5	4013
2026-01-24 12:43:37.75	308.54	62.31	-22.9	-24.2	20.1	0.00e+00	0	43	102	1048576	5	4177
2026-01-24 12:43:38.75	309.11	61.96	-22.9	-23.7	20.1	0.00e+00	0	43	102	1048576	6	3935
2026-01-24 12:43:39.76	309.67	61.61	-23.0	-23.9	20.0	0.00e+00	0	43	102	1048576	6	3991
2026-01-24 12:43:40.77	310.22	61.26	-23.1	-24.1	19.9	0.00e+00	0	43	102	1048576	6	4033
2026-01-24 12:43:41.77	310.74	60.92	-23.4	-24.7	19.6	0.00e+00	0	43	102	1048576	6	4181
2026-01-24 12:43:42.78	311.26	60.57	-23.4	-24.7	19.6	0.00e+00	0	43	102	1048576	6	4186
2026-01-24 12:43:43.79	311.76	60.22	-23.5	-24.9	19.5	0.00e+00	0	43	102	1048576	6	4240
2026-01-24 12:43:44.79	312.24	59.87	-23.4	-24.3	19.5	0.00e+00	0	43	102	1048576	7	3980
2026-01-24 12:43:45.80	312.71	59.52	-23.1	-23.7	19.9	0.00e+00	0	43	102	1048576	7	3826
2026-01-24 12:43:46.81	313.18	59.17	-23.0	-23.5	19.9	0.00e+00	0	43	102	1048576	7	3789
2026-01-24 12:43:47.82	313.63	58.82	-23.2	-23.9	19.7	0.00e+00	0	43	102	1048576	7	3881
2026-01-24 12:43:48.82	314.06	58.48	-23.4	-24.2	19.5	0.00e+00	0	43	102	1048576	7	3972
2026-01-24 12:43:49.82	314.48	58.13	-23.4	-24.2	19.5	0.00e+00	0	43	102	1048576	7	3959
2026-01-24 12:43:50.82	314.89	57.79	-23.4	-24.3	19.5	0.00e+00	0	43	102	1048576	7	3980
2026-01-24 12:43:51.83	315.30	57.44	-23.8	-25.0	19.1	0.00e+00	0	43	102	1048576	7	4164
2026-01-24 12:43:52.83	315.69	57.10	-24.1	-25.2	18.8	0.00e+00	0	43	102	1048576	8	4099
2026-01-24 12:43:53.84	316.08	56.75	-24.0	-25.0	18.8	0.00e+00	0	43	102	1048576	8	4046
2026-01-24 12:43:54.84	316.45	56.41	-24.0	-25.0	18.9	0.00e+00	0	43	102	1048576	8	4029
2026-01-24 12:43:55.84	316.82	56.07	-24.1	-25.3	18.7	0.00e+00	0	43	102	1048576	8	4110
2026-01-24 12:43:56.85	317.17	55.73	-24.1	-25.3	18.7	0.00e+00	0	43	102	1048576	8	4103
2026-01-24 12:43:57.84	317.52	55.39	-24.0	-24.9	18.9	0.00e+00	0	43	102	1048576	8	4010
2026-01-24 12:43:58.85	317.86	55.05	-24.3	-25.6	18.5	0.00e+00	0	43	102	1048576	8	4193
2026-01-24 12:43:59.86	318.19	54.71	-24.1	-25.2	18.7	0.00e+00	0	43	102	1048576	8	4098
2026-01-24 12:44:00.86	318.52	54.38	-23.9	-24.8	18.9	0.00e+00	0	43	102	1048576	8	3989
2026-01-24 12:44:01.86	318.83	54.05	-23.7	-24.5	19.1	0.00e+00	0	43	102	1048576	8	3906
2026-01-24 12:44:02.86	319.14	53.72	-23.7	-24.4	19.1	0.00e+00	0	43	102	1048576	8	3909
2026-01-24 12:44:03.86	319.44	53.39	-23.8	-24.6	19.0	0.00e+00	0	43	102	1048576	8	3954
2026-01-24 12:44:04.87	319.74	53.05	-23.7	-24.5	19.1	0.00e+00	0	43	102	1048576	8	3919
2026-01-24 12:44:05.87	320.03	52.73	-23.7	-24.4	19.2	0.00e+00	0	43	102	1048576	8	3892
2026-01-24 12:44:06.87	320.31	52.40	-23.6	-24.2	19.2	0.00e+00	0	43	102	1048576	8	3854
2026-01-24 12:44:07.88	320.59	52.07	-23.4	-23.7	19.4	0.00e+00	0	43	102	1048576	8	3739
2026-01-24 12:44:08.89	320.87	51.75	-23.3	-23.5	19.6	0.00e+00	0	43	102	1048576	8	3691
2026-01-24 12:44:09.89	321.13	51.43	-23.4	-23.7	19.4	0.00e+00	0	43	102	1048576	8	3743
2026-01-24 12:44:10.89	321.39	51.11	-23.5	-23.9	19.4	0.00e+00	0	43	102	1048576	8	3783
2026-01-24 12:44:11.90	321.65	50.78	-23.5	-24.0	19.3	0.00e+00	0	43	102	1048576	8	3816
2026-01-24 12:44:12.90	321.89	50.47	-23.0	-23.5	19.7	0.00e+00	0	43	102	1048576	7	3804
2026-01-24 12:44:13.90	322.14	50.15	-22.7	-23.3	20.1	0.00e+00	0	43	102	1048576	6	3851
2026-01-24 12:44:14.91	322.38	49.84	-22.6	-23.2	20.2	0.00e+00	0	43	102	1048576	6	3821
2026-01-24 12:44:15.91	322.61	49.52	-22.9	-23.6	19.9	0.00e+00	0	43	102	1048576	6	3928
2026-01-24 12:44:16.91	322.84	49.22	-22.9	-23.7	19.9	0.00e+00	0	43	102	1048576	6	3958
2026-01-24 12:44:17.92	323.07	48.90	-23.2	-24.3	19.6	0.00e+00	0	43	102	1048576	6	4101
2026-01-24 12:44:18.93	323.29	48.59	-23.2	-24.4	19.6	0.00e+00	0	43	102	1048576	6	4130
2026-01-24 12:44:19.93	323.51	48.29	-23.3	-24.6	19.4	0.00e+00	0	43	102	1048576	6	4172
2026-01-24 12:44:20.94	323.72	47.98	-23.4	-24.7	19.4	0.00e+00	0	43	102	1048576	6	4205
2026-01-24 12:44:21.95	323.93	47.68	-23.6	-24.6	19.2	0.00e+00	0	43	102	1048576	7	4063
2026-01-24 12:44:22.95	324.13	47.38	-23.8	-25.2	18.9	0.00e+00	0	43	102	1048576	7	4208
2026-01-24 12:44:23.96	324.34	47.08	-23.6	-24.7	19.1	0.00e+00	0	43	102	1048576	7	4094
2026-01-24 12:44:24.95	324.53	46.79	-23.7	-24.8	19.1	0.00e+00	0	43	102	1048576	7	4105
2026-01-24 12:44:25.95	324.72	46.49	-23.2	-23.9	19.5	0.00e+00	0	43	102	1048576	7	3888
2026-01-24 12:44:26.96	324.91	46.20	-23.0	-23.3	19.9	0.00e+00	0	43	102	1048576	7	3748
2026-01-24 12:44:27.97	325.10	45.90	-22.9	-23.3	19.9	0.00e+00	0	43	102	1048576	7	3754
2026-01-24 12:44:28.97	325.28	45.61	-23.1	-23.7	19.6	0.00e+00	0	43	102	1048576	7	3847
2026-01-24 12:44:29.97	325.46	45.33	-23.1	-23.6	19.7	0.00e+00	0	43	102	1048576	7	3825
2026-01-24 12:44:30.97	325.64	45.04	-23.0	-23.5	19.7	0.00e+00	0	43	102	1048576	7	3805
2026-01-24 12:44:31.98	325.81	44.75	-23.0	-23.5	19.7	0.00e+00	0	43	102	1048576	7	3802
2026-01-24 12:44:32.98	325.98	44.47	-23.1	-23.6	19.7	0.00e+00	0	43	102	1048576	7	3824
2026-01-24 12:44:33.99	326.15	44.19	-22.7	-23.4	20.0	0.00e+00	0	43	102	1048576	6	3872
2026-01-24 12:44:35.00	326.32	43.91	-22.6	-23.1	20.2	0.00e+00	0	43	102	1048576	6	3799
2026-01-24 12:44:36.00	326.48	43.63	-22.7	-23.2	20.1	0.00e+00	0	43	102	1048576	6	3835
2026-01-24 12:44:37.00	326.64	43.36	-22.9	-23.7	19.9	0.00e+00	0	43	102	1048576	6	3947
2026-01-24 12:44:38.01	326.80	43.08	-22.7	-23.4	20.0	0.00e+00	0	43	102	1048576	6	3873
2026-01-24 12:44:39.02	326.95	42.81	-22.7	-23.3	20.1	0.00e+00	0	43	102	1048576	6	3851
2026-01-24 12:44:40.02	327.10	42.54	-22.7	-23.3	20.0	0.00e+00	0	43	102	1048576	6	3862
2026-01-24 12:44:41.03	327.25	42.27	-22.6	-23.1	20.2	0.00e+00	0	43	102	1048576	6	3806
2026-01-24 12:44:42.03	327.40	42.00	-22.6	-23.1	20.1	0.00e+00	0	43	102	1048576	6	3804
2026-01-24 12:44:43.04	327.54	41.73	-22.8	-23.5	19.9	0.00e+00	0	43	102	1048576	6	3902
2026-01-24 12:44:44.04	327.68	41.47	-22.5	-23.0	20.2	0.00e+00	0	43	102	1048576	6	3784
2026-01-24 12:44:45.04	327.82	41.21	-22.8	-23.6	19.9	0.00e+00	0	43	102	1048576	6	3919
2026-01-24 12:44:46.04	327.96	40.95	-22.6	-23.2	20.1	0.00e+00	0	43	102	1048576	6	3828
2026-01-24 12:44:47.05	328.10	40.69	-22.6	-23.1	20.1	0.00e+00	0	43	102	1048576	6	3807
2026-01-24 12:44:48.05	328.23	40.44	-22.7	-23.2	20.1	0.00e+00	0	43	102	1048576	6	3835
2026-01-24 12:44:49.06	328.36	40.18	-22.6	-23.1	20.1	0.00e+00	0	43	102	1048576	6	3814
2026-01-24 12:44:50.06	328.49	39.93	-22.6	-23.1	20.1	0.00e+00	0	43	102	1048576	6	3817
2026-01-24 12:44:51.07	328.62	39.67	-22.5	-22.8	20.2	0.00e+00	0	43	102	1048576	6	3748
2026-01-24 12:44:52.07	328.75	39.42	-22.5	-22.9	20.2	0.00e+00	0	43	102	1048576	6	3761
2026-01-24 12:44:53.08	328.87	39.17	-22.6	-23.0	20.2	0.00e+00	0	43	102	1048576	6	3797
2026-01-24 12:44:54.08	328.99	38.93	-22.4	-22.6	20.3	0.00e+00	0	44	102	1048576	6	3709
2026-01-24 12:44:55.08	329.11	38.68	-22.4	-22.6	20.3	0.00e+00	0	43	102	1048576	6	3712
2026-01-24 12:44:56.09	329.23	38.44	-22.6	-23.1	20.1	0.00e+00	0	43	102	1048576	6	3814
2026-01-24 12:44:57.10	329.35	38.20	-22.5	-22.9	20.2	0.00e+00	0	43	102	1048576	6	3774
2026-01-24 12:44:58.10	329.46	37.96	-22.8	-23.5	19.9	0.00e+00	0	43	102	1048576	6	3903
2026-01-24 12:44:59.11	329.58	37.72	-22.7	-23.2	20.0	0.00e+00	0	43	102	1048576	6	3843
2026-01-24 12:45:00.11	329.69	37.48	-22.7	-23.2	20.0	0.00e+00	0	43	102	1048576	6	3849
2026-01-24 12:45:01.11	329.80	37.25	-22.7	-23.4	19.9	0.00e+00	0	43	102	1048576	6	3887
2026-01-24 12:45:02.11	329.91	37.01	-22.7	-23.2	20.0	0.00e+00	0	43	102	1048576	6	3842
2026-01-24 12:45:03.12	330.01	36.78	-22.7	-23.2	20.0	0.00e+00	0	43	102	1048576	6	3841
2026-01-24 12:45:04.12	330.12	36.55	-22.5	-22.9	20.2	0.00e+00	0	43	102	1048576	6	3768
2026-01-24 12:45:05.13	330.23	36.32	-22.4	-22.7	20.3	0.00e+00	0	43	102	1048576	6	3721
2026-01-24 12:45:06.13	330.33	36.09	-22.4	-22.7	20.2	0.00e+00	0	43	102	1048576	6	3722
2026-01-24 12:45:07.14	330.43	35.86	-22.4	-22.7	20.3	0.00e+00	0	44	102	1048576	6	3709
2026-01-24 12:45:08.13	330.53	35.64	-22.5	-22.8	20.2	0.00e+00	0	43	102	1048576	6	3749
2026-01-24 12:45:09.14	330.63	35.42	-22.4	-22.8	20.2	0.00e+00	0	43	102	1048576	6	3738
2026-01-24 12:45:10.14	330.73	35.20	-22.6	-23.0	20.1	0.00e+00	0	43	102	1048576	6	3798
2026-01-24 12:45:11.14	330.82	34.98	-22.6	-23.1	20.0	0.00e+00	0	43	102	1048576	6	3827
2026-01-24 12:45:12.15	330.92	34.76	-22.7	-23.3	20.0	0.00e+00	0	43	102	1048576	6	3859
2026-01-24 12:45:13.15	331.01	34.54	-22.7	-23.3	20.0	0.00e+00	0	43	102	1048576	6	3860
2026-01-24 12:45:14.15	331.10	34.33	-22.8	-23.4	19.9	0.00e+00	0	43	102	1048576	6	3892
2026-01-24 12:45:15.16	331.20	34.11	-22.9	-23.7	19.7	0.00e+00	0	43	102	1048576	6	3948
2026-01-24 12:45:16.15	331.29	33.90	-22.7	-23.3	19.9	0.00e+00	0	43	102	1048576	6	3855
2026-01-24 12:45:17.16	331.38	33.69	-22.6	-23.2	20.0	0.00e+00	0	43	102	1048576	6	3828
2026-01-24 12:45:18.16	331.46	33.48	-22.7	-23.2	19.9	0.00e+00	0	43	102	1048576	6	3845
2026-01-24 12:45:19.17	331.55	33.27	-22.7	-23.2	19.9	0.00e+00	0	43	102	1048576	6	3845
2026-01-24 12:45:20.17	331.64	33.06	-22.8	-23.5	19.8	0.00e+00	0	43	102	1048576	6	3908
2026-01-24 12:45:21.17	331.72	32.85	-22.9	-23.8	19.7	0.00e+00	0	43	102	1048576	6	3968
2026-01-24 12:45:22.18	331.81	32.65	-22.8	-23.5	19.8	0.00e+00	0	43	102	1048576	6	3905
2026-01-24 12:45:23.18	331.89	32.44	-22.7	-23.4	19.9	0.00e+00	0	43	102	1048576	6	3874
2026-01-24 12:45:24.19	331.97	32.24	-22.8	-23.5	19.8	0.00e+00	0	43	102	1048576	6	3905
2026-01-24 12:45:25.20	332.06	32.04	-22.8	-23.5	19.8	0.00e+00	0	43	102	1048576	6	3907
2026-01-24 12:45:26.21	332.14	31.84	-22.9	-23.6	19.7	0.00e+00	0	43	102	1048576	6	3940
2026-01-24 12:45:27.21	332.21	31.64	-22.8	-23.6	19.7	0.00e+00	0	43	102	1048576	6	3932
2026-01-24 12:45:28.21	332.29	31.44	-22.9	-23.8	19.7	0.00e+00	0	43	102	1048576	6	3975
2026-01-24 12:45:29.22	332.37	31.25	-22.8	-23.6	19.7	0.00e+00	0	43	102	1048576	6	3938
2026-01-24 12:45:30.23	332.45	31.05	-22.8	-23.6	19.7	0.00e+00	0	43	102	1048576	6	3927
2026-01-24 12:45:31.22	332.52	30.86	-22.8	-23.4	19.8	0.00e+00	0	43	102	1048576	6	3893
2026-01-24 12:45:32.23	332.60	30.67	-22.8	-23.5	19.8	0.00e+00	0	43	102	1048576	6	3906
2026-01-24 12:45:33.23	332.67	30.48	-22.6	-23.1	20.0	0.00e+00	0	43	102	1048576	6	3820
2026-01-24 12:45:34.24	332.75	30.29	-22.6	-23.1	20.0	0.00e+00	0	43	102	1048576	6	3806
2026-01-24 12:45:35.24	332.82	30.10	-22.6	-23.1	19.9	0.00e+00	0	43	102	1048576	6	3819
2026-01-24 12:45:36.24	332.89	29.91	-22.5	-22.9	20.1	0.00e+00	0	43	102	1048576	6	3760
2026-01-24 12:45:37.24	332.96	29.73	-22.6	-23.0	20.0	0.00e+00	0	43	102	1048576	6	3780
2026-01-24 12:45:38.25	333.03	29.54	-22.7	-23.2	19.9	0.00e+00	0	43	102	1048576	6	3839
2026-01-24 12:45:39.26	333.10	29.36	-22.8	-23.4	19.8	0.00e+00	0	43	102	1048576	6	3890
2026-01-24 12:45:40.25	333.17	29.18	-22.8	-23.4	19.8	0.00e+00	0	43	102	1048576	6	3884
2026-01-24 12:45:41.25	333.24	28.99	-22.9	-23.6	19.7	0.00e+00	0	43	102	1048576	6	3935
2026-01-24 12:45:42.25	333.30	28.82	-22.9	-23.7	19.7	0.00e+00	0	44	102	1048576	6	3950
2026-01-24 12:45:43.25	333.37	28.64	-23.0	-23.9	19.5	0.00e+00	0	43	102	1048576	6	4008
2026-01-24 12:45:44.26	333.44	28.46	-23.0	-24.0	19.5	0.00e+00	0	43	102	1048576	6	4035
2026-01-24 12:45:45.27	333.50	28.28	-23.2	-24.5	19.3	0.00e+00	0	43	102	1048576	6	4145
2026-01-24 12:45:46.27	333.57	28.10	-23.1	-24.1	19.4	0.00e+00	0	43	102	1048576	6	4064
2026-01-24 12:45:47.27	333.63	27.93	-23.2	-24.4	19.3	0.00e+00	0	43	102	1048576	6	4138
2026-01-24 12:45:48.28	333.69	27.76	-23.0	-24.0	19.5	0.00e+00	0	43	102	1048576	6	4026
2026-01-24 12:45:49.28	333.75	27.58	-22.8	-23.6	19.6	0.00e+00	0	43	102	1048576	6	3946
2026-01-24 12:45:50.28	333.82	27.41	-22.8	-23.6	19.7	0.00e+00	0	43	102	1048576	6	3940
2026-01-24 12:45:51.29	333.88	27.24	-22.8	-23.6	19.7	0.00e+00	0	43	102	1048576	6	3935
2026-01-24 12:45:52.29	333.94	27.07	-22.8	-23.5	19.7	0.00e+00	0	43	102	1048576	6	3908
2026-01-24 12:45:53.29	334.00	26.90	-22.8	-23.6	19.6	0.00e+00	0	43	102	1048576	6	3935
2026-01-24 12:45:54.28	334.06	26.74	-22.9	-23.8	19.6	0.00e+00	0	43	102	1048576	6	3983
2026-01-24 12:45:55.29	334.12	26.57	-22.8	-23.5	19.7	0.00e+00	0	43	102	1048576	6	3896
2026-01-24 12:45:56.29	334.17	26.41	-22.7	-23.4	19.7	0.00e+00	0	43	102	1048576	6	3881
2026-01-24 12:45:57.30	334.23	26.24	-22.8	-23.5	19.7	0.00e+00	0	43	102	1048576	6	3908
2026-01-24 12:45:58.30	334.29	26.08	-22.8	-23.5	19.7	0.00e+00	0	43	102	1048576	6	3905
2026-01-24 12:45:59.31	334.35	25.91	-22.9	-23.7	19.6	0.00e+00	0	43	102	1048576	6	3943
2026-01-24 12:46:00.30	334.40	25.75	-22.9	-23.8	19.5	0.00e+00	0	43	102	1048576	6	3970
2026-01-24 12:46:01.31	334.46	25.59	-23.0	-23.9	19.5	0.00e+00	0	43	102	1048576	6	4013
2026-01-24 12:46:02.32	334.51	25.43	-23.2	-24.3	19.3	0.00e+00	0	43	102	1048576	6	4108
2026-01-24 12:46:03.33	334.57	25.27	-23.2	-24.3	19.3	0.00e+00	0	43	102	1048576	6	4097
2026-01-24 12:46:04.33	334.62	25.12	-23.3	-24.6	19.1	0.00e+00	0	43	102	1048576	6	4166
2026-01-24 12:46:05.33	334.68	24.96	-23.3	-24.5	19.1	0.00e+00	0	43	102	1048576	6	4162
2026-01-24 12:46:06.34	334.73	24.80	-23.4	-24.7	19.1	0.00e+00	0	43	102	1048576	6	4206
2026-01-24 12:46:07.34	334.78	24.65	-23.4	-24.8	19.0	0.00e+00	0	43	102	1048576	6	4236
2026-01-24 12:46:08.34	334.83	24.49	-23.5	-24.5	18.9	0.00e+00	0	43	102	1048576	7	4053
2026-01-24 12:46:09.35	334.89	24.34	-23.8	-25.1	18.6	0.00e+00	0	43	102	1048576	7	4185
2026-01-24 12:46:10.36	334.94	24.19	-23.9	-25.4	18.4	0.00e+00	0	43	102	1048576	7	4262
2026-01-24 12:46:11.36	334.99	24.04	-23.8	-25.0	18.6	0.00e+00	0	43	102	1048576	7	4169
2026-01-24 12:46:12.35	335.04	23.89	-23.8	-25.1	18.6	0.00e+00	0	43	102	1048576	7	4181
2026-01-24 12:46:13.36	335.09	23.74	-23.8	-25.1	18.6	0.00e+00	0	43	102	1048576	7	4185
2026-01-24 12:46:14.36	335.14	23.59	-23.8	-25.0	18.6	0.00e+00	0	43	102	1048576	7	4176
2026-01-24 12:46:15.37	335.19	23.44	-23.8	-25.1	18.6	0.00e+00	0	43	102	1048576	7	4177
2026-01-24 12:46:16.37	335.24	23.29	-23.9	-25.3	18.5	0.00e+00	0	43	102	1048576	7	4252
2026-01-24 12:46:17.37	335.28	23.15	-23.9	-25.4	18.4	0.00e+00	0	43	102	1048576	7	4274
2026-01-24 12:46:18.38	335.33	23.00	-24.3	-25.8	18.0	0.00e+00	0	43	102	1048576	8	4240
2026-01-24 12:46:19.38	335.38	22.85	-24.5	-25.6	17.8	0.00e+00	0	43	102	1048576	9	4083
2026-01-24 12:46:20.39	335.43	22.71	-24.1	-24.9	18.2	0.00e+00	0	43	102	1048576	9	3908
2026-01-24 12:46:21.39	335.47	22.57	-23.9	-24.4	18.5	0.00e+00	0	43	102	1048576	9	3797
2026-01-24 12:46:22.40	335.52	22.42	-23.8	-24.1	18.6	0.00e+00	0	43	102	1048576	9	3733
2026-01-24 12:46:23.40	335.56	22.28	-23.8	-24.1	18.6	0.00e+00	0	43	102	1048576	9	3733
2026-01-24 12:46:24.40	335.61	22.14	-23.9	-24.4	18.4	0.00e+00	0	43	102	1048576	9	3804
2026-01-24 12:46:25.41	335.66	22.00	-24.0	-24.6	18.3	0.00e+00	0	43	102	1048576	9	3838
2026-01-24 12:46:26.42	335.70	21.86	-23.9	-24.4	18.4	0.00e+00	0	43	102	1048576	9	3812
2026-01-24 12:46:27.42	335.74	21.72	-23.9	-24.3	18.4	0.00e+00	0	43	102	1048576	9	3789
2026-01-24 12:46:28.44	335.79	21.58	-24.0	-24.5	18.4	0.00e+00	0	43	102	1048576	9	3819
2026-01-24 12:46:29.44	335.83	21.44	-24.0	-24.5	18.4	0.00e+00	0	43	102	1048576	9	3815
2026-01-24 12:46:30.44	335.88	21.31	-24.0	-24.6	18.3	0.00e+00	0	43	102	1048576	9	3844
2026-01-24 12:46:31.44	335.92	21.17	-24.0	-24.5	18.3	0.00e+00	0	43	102	1048576	9	3836
2026-01-24 12:46:32.45	335.96	21.04	-24.0	-24.6	18.3	0.00e+00	0	43	102	1048576	9	3857
2026-01-24 12:46:33.45	336.00	20.90	-24.0	-24.6	18.3	0.00e+00	0	43	102	1048576	9	3859
2026-01-24 12:46:34.45	336.05	20.77	-24.1	-24.7	18.2	0.00e+00	0	43	102	1048576	9	3872
2026-01-24 12:46:35.46	336.09	20.64	-24.0	-24.6	18.3	0.00e+00	0	43	102	1048576	9	3863
2026-01-24 12:46:36.46	336.13	20.51	-24.1	-24.7	18.2	0.00e+00	0	43	102	1048576	9	3878
2026-01-24 12:46:37.46	336.17	20.37	-24.1	-24.8	18.2	0.00e+00	0	43	102	1048576	9	3899
2026-01-24 12:46:38.46	336.21	20.24	-24.2	-24.9	18.1	0.00e+00	0	43	102	1048576	9	3930
2026-01-24 12:46:39.46	336.25	20.11	-24.2	-24.9	18.1	0.00e+00	0	43	102	1048576	9	3921
2026-01-24 12:46:40.46	336.29	19.98	-24.2	-25.1	18.0	0.00e+00	0	43	102	1048576	9	3962
2026-01-24 12:46:41.47	336.33	19.86	-24.3	-25.2	17.9	0.00e+00	0	43	102	1048576	9	4002
2026-01-24 12:46:42.47	336.37	19.73	-24.3	-25.2	17.9	0.00e+00	0	43	102	1048576	9	3997
2026-01-24 12:46:43.48	336.41	19.60	-24.5	-25.6	17.7	0.00e+00	0	43	102	1048576	9	4099
2026-01-24 12:46:44.48	336.45	19.47	-24.5	-25.7	17.7	0.00e+00	0	43	102	1048576	9	4126
2026-01-24 12:46:45.49	336.49	19.35	-24.6	-25.8	17.6	0.00e+00	0	43	102	1048576	9	4136
2026-01-24 12:46:46.49	336.53	19.22	-24.7	-26.0	17.5	0.00e+00	0	43	102	1048576	9	4197
2026-01-24 12:46:47.49	336.56	19.10	-24.9	-26.4	17.3	0.00e+00	0	43	102	1048576	9	4300
2026-01-24 12:46:48.50	336.60	18.97	-24.7	-26.0	17.5	0.00e+00	0	43	102	1048576	9	4181
2026-01-24 12:46:49.50	336.64	18.85	-24.5	-25.7	17.7	0.00e+00	0	43	102	1048576	9	4107
2026-01-24 12:46:50.51	336.68	18.72	-24.6	-25.9	17.5	0.00e+00	0	43	102	1048576	9	4171
2026-01-24 12:46:51.51	336.71	18.60	-24.7	-26.0	17.5	0.00e+00	0	43	102	1048576	9	4186
2026-01-24 12:46:52.51	336.75	18.48	-24.7	-26.0	17.5	0.00e+00	0	43	102	1048576	9	4199
2026-01-24 12:46:53.52	336.79	18.36	-24.8	-26.3	17.3	0.00e+00	0	43	102	1048576	9	4276
2026-01-24 12:46:54.53	336.82	18.24	-24.8	-26.2	17.4	0.00e+00	0	43	102	1048576	9	4245
2026-01-24 12:46:55.53	336.86	18.12	-24.9	-26.5	17.2	0.00e+00	0	43	102	1048576	9	4322
2026-01-24 12:46:56.54	336.89	18.00	-24.7	-26.0	17.5	0.00e+00	0	43	102	1048576	9	4189
2026-01-24 12:46:57.55	336.93	17.88	-24.5	-25.6	17.7	0.00e+00	0	43	102	1048576	9	4086
2026-01-24 12:46:58.55	336.96	17.76	-24.5	-25.6	17.7	0.00e+00	0	43	102	1048576	9	4083
2026-01-24 12:46:59.55	337.00	17.64	-24.5	-25.7	17.6	0.00e+00	0	43	102	1048576	9	4110
2026-01-24 12:47:00.55	337.03	17.52	-24.6	-25.9	17.5	0.00e+00	0	43	102	1048576	9	4165
2026-01-24 12:47:01.55	337.07	17.41	-24.6	-25.9	17.5	0.00e+00	0	43	102	1048576	9	4159
2026-01-24 12:47:02.56	337.10	17.29	-24.7	-26.0	17.4	0.00e+00	0	43	102	1048576	9	4205
2026-01-24 12:47:03.56	337.14	17.17	-24.8	-26.2	17.3	0.00e+00	0	43	102	1048576	9	4263
2026-01-24 12:47:04.56	337.17	17.06	-24.8	-26.3	17.3	0.00e+00	0	43	102	1048576	9	4273
2026-01-24 12:47:05.57	337.20	16.94	-24.9	-26.4	17.2	0.00e+00	0	43	102	1048576	9	4305
2026-01-24 12:47:06.57	337.24	16.83	-24.8	-26.3	17.3	0.00e+00	0	43	102	1048576	9	4275
2026-01-24 12:47:07.58	337.27	16.72	-24.9	-26.5	17.2	0.00e+00	0	43	102	1048576	9	4331
2026-01-24 12:47:08.58	337.30	16.60	-24.9	-26.6	17.1	0.00e+00	0	43	102	1048576	9	4349
2026-01-24 12:47:09.58	337.34	16.49	-24.9	-26.6	17.1	0.00e+00	0	43	102	1048576	9	4345
2026-01-24 12:47:10.59	337.37	16.38	-25.0	-26.2	17.1	0.00e+00	0	43	102	1048576	10	4147
2026-01-24 12:47:11.60	337.40	16.27	-25.0	-26.3	17.0	0.00e+00	0	43	102	1048576	10	4157
2026-01-24 12:47:12.60	337.43	16.16	-25.1	-26.5	16.9	0.00e+00	0	43	102	1048576	10	4210
2026-01-24 12:47:13.61	337.47	16.04	-25.1	-26.5	16.9	0.00e+00	0	43	102	1048576	10	4224
2026-01-24 12:47:14.61	337.50	15.94	-25.3	-26.9	16.7	0.00e+00	0	43	102	1048576	10	4319
2026-01-24 12:47:15.61	337.53	15.83	-25.3	-26.8	16.7	0.00e+00	0	43	102	1048576	10	4294
2026-01-24 12:47:16.62	337.56	15.72	-25.4	-27.1	16.5	0.00e+00	0	43	102	1048576	10	4384
2026-01-24 12:47:17.62	337.59	15.61	-25.5	-26.8	16.5	0.00e+00	0	43	102	1048576	11	4182
2026-01-24 12:47:18.62	337.62	15.50	-25.4	-26.6	16.5	0.00e+00	0	43	102	1048576	11	4126
2026-01-24 12:47:19.63	337.65	15.39	-25.5	-26.9	16.4	0.00e+00	0	43	102	1048576	11	4193
2026-01-24 12:47:20.64	337.68	15.28	-25.4	-26.6	16.6	0.00e+00	0	43	102	1048576	11	4124
2026-01-24 12:47:21.64	337.71	15.18	-25.5	-26.8	16.4	0.00e+00	0	43	102	1048576	11	4188
2026-01-24 12:47:22.65	337.74	15.07	-25.5	-26.9	16.4	0.00e+00	0	43	102	1048576	11	4204
2026-01-24 12:47:23.65	337.77	14.97	-25.4	-26.6	16.5	0.00e+00	0	43	102	1048576	11	4119
2026-01-24 12:47:24.66	337.80	14.86	-25.3	-26.4	16.6	0.00e+00	0	43	102	1048576	11	4089
2026-01-24 12:47:25.67	337.83	14.75	-25.3	-26.3	16.7	0.00e+00	0	43	102	1048576	11	4060
2026-01-24 12:47:26.67	337.86	14.65	-25.3	-26.3	16.7	0.00e+00	0	43	102	1048576	11	4037
2026-01-24 12:47:27.67	337.89	14.55	-25.3	-26.4	16.6	0.00e+00	0	43	102	1048576	11	4068
2026-01-24 12:47:28.67	337.92	14.44	-25.3	-26.4	16.6	0.00e+00	0	43	102	1048576	11	4076
2026-01-24 12:47:29.67	337.95	14.34	-25.3	-26.3	16.7	0.00e+00	0	43	102	1048576	11	4057
2026-01-24 12:47:30.68	337.98	14.24	-25.3	-26.5	16.6	0.00e+00	0	43	102	1048576	11	4087
2026-01-24 12:47:31.68	338.01	14.14	-25.3	-26.4	16.6	0.00e+00	0	43	102	1048576	11	4082
2026-01-24 12:47:32.69	338.04	14.03	-25.5	-26.7	16.5	0.00e+00	0	43	102	1048576	11	4150
2026-01-24 12:47:33.69	338.06	13.93	-25.5	-26.7	16.5	0.00e+00	0	43	102	1048576	11	4146
2026-01-24 12:47:34.70	338.09	13.83	-25.4	-26.6	16.5	0.00e+00	0	43	102	1048576	11	4121
2026-01-24 12:47:35.70	338.12	13.73	-25.6	-27.0	16.3	0.00e+00	0	43	102	1048576	11	4223
2026-01-24 12:47:36.71	338.15	13.63	-25.6	-27.0	16.3	0.00e+00	0	43	102	1048576	11	4225
2026-01-24 12:47:37.71	338.18	13.53	-25.6	-27.0	16.3	0.00e+00	0	43	102	1048576	11	4220
2026-01-24 12:47:38.71	338.20	13.43	-25.7	-27.2	16.2	0.00e+00	0	43	102	1048576	11	4270
2026-01-24 12:47:39.72	338.23	13.33	-25.7	-27.1	16.2	0.00e+00	0	43	102	1048576	11	4260
2026-01-24 12:47:40.72	338.26	13.23	-25.7	-27.3	16.1	1.10e-06	0	43	102	1048576	11	4297
2026-01-24 12:47:41.73	338.28	13.13	-25.7	-27.2	16.1	0.00e+00	0	43	102	1048576	11	4288
2026-01-24 12:47:42.74	338.31	13.04	-25.8	-27.4	16.0	0.00e+00	0	43	102	1048576	11	4350
2026-01-24 12:47:43.74	338.34	12.94	-25.7	-27.2	16.1	0.00e+00	0	43	102	1048576	11	4296
2026-01-24 12:47:44.74	338.36	12.84	-25.7	-27.2	16.1	0.00e+00	0	43	102	1048576	11	4288
2026-01-24 12:47:45.75	338.39	12.75	-25.7	-27.3	16.0	0.00e+00	0	43	102	1048576	11	4311
2026-01-24 12:47:46.75	338.42	12.65	-25.8	-27.4	16.0	0.00e+00	0	43	102	1048576	11	4340
2026-01-24 12:47:47.76	338.44	12.55	-25.9	-27.6	15.9	0.00e+00	0	43	102	1048576	11	4382
2026-01-24 12:47:48.76	338.47	12.46	-25.9	-27.6	15.9	0.00e+00	0	43	102	1048576	11	4394
2026-01-24 12:47:49.76	338.49	12.36	-25.9	-27.3	15.7	0.00e+00	0	43	102	1048576	12	4199
2026-01-24 12:47:50.76	338.52	12.27	-26.1	-27.7	15.5	0.00e+00	0	43	102	1048576	12	4304
2026-01-24 12:47:51.77	338.55	12.17	-26.2	-27.8	15.4	0.00e+00	0	43	102	1048576	12	4333
2026-01-24 12:47:52.77	338.57	12.08	-26.3	-28.0	15.3	0.00e+00	0	43	102	1048576	12	4397
2026-01-24 12:47:53.78	338.60	11.99	-26.3	-28.2	15.2	0.00e+00	0	43	102	1048576	12	4447
2026-01-24 12:47:54.79	338.62	11.89	-26.1	-27.7	15.4	0.00e+00	0	43	102	1048576	12	4318
2026-01-24 12:47:55.79	338.65	11.80	-26.2	-27.9	15.3	0.00e+00	0	43	102	1048576	12	4368
2026-01-24 12:47:56.79	338.67	11.71	-26.1	-27.7	15.4	0.00e+00	0	43	102	1048576	12	4329
2026-01-24 12:47:57.79	338.70	11.62	-26.2	-27.9	15.3	0.00e+00	0	43	102	1048576	12	4379
2026-01-24 12:47:58.79	338.72	11.52	-26.2	-28.0	15.3	0.00e+00	0	43	102	1048576	12	4390
2026-01-24 12:47:59.80	338.75	11.43	-26.3	-28.1	15.2	0.00e+00	0	43	102	1048576	12	4438
2026-01-24 12:48:00.79	338.77	11.34	-26.5	-28.5	14.9	0.00e+00	0	43	102	1048576	12	4555
2026-01-24 12:48:01.79	338.79	11.25	-26.5	-28.0	15.0	0.00e+00	0	43	102	1048576	13	4295
2026-01-24 12:48:02.80	338.82	11.16	-26.3	-27.5	15.2	0.00e+00	0	43	102	1048576	13	4156
2026-01-24 12:48:03.80	338.84	11.07	-26.2	-27.5	15.3	0.00e+00	0	43	102	1048576	13	4143
2026-01-24 12:48:04.80	338.87	10.98	-26.2	-27.4	15.3	0.00e+00	0	43	102	1048576	13	4123
2026-01-24 12:48:05.80	338.89	10.89	-26.3	-27.7	15.1	0.00e+00	0	43	102	1048576	13	4204
2026-01-24 12:48:06.81	338.91	10.80	-26.3	-27.6	15.2	0.00e+00	0	43	102	1048576	13	4185
2026-01-24 12:48:07.81	338.94	10.71	-26.4	-27.9	15.0	0.00e+00	0	43	102	1048576	13	4264
2026-01-24 12:48:08.82	338.96	10.62	-26.4	-27.8	15.0	0.00e+00	0	43	102	1048576	13	4250
2026-01-24 12:48:09.83	338.98	10.54	-26.3	-27.6	15.1	0.00e+00	0	43	102	1048576	13	4191
2026-01-24 12:48:10.83	339.01	10.45	-26.3	-27.7	15.1	0.00e+00	0	43	102	1048576	13	4209
2026-01-24 12:48:11.83	339.03	10.36	-26.3	-27.7	15.1	0.00e+00	0	43	102	1048576	13	4203
2026-01-24 12:48:12.84	339.05	10.27	-26.4	-27.8	15.0	0.00e+00	0	43	102	1048576	13	4236
2026-01-24 12:48:13.85	339.08	10.19	-26.6	-28.2	14.8	0.00e+00	0	43	102	1048576	13	4353
2026-01-24 12:48:14.85	339.10	10.10	-26.5	-28.2	14.8	0.00e+00	0	43	102	1048576	13	4341
2026-01-24 12:48:15.86	339.12	10.01	-26.6	-28.3	14.7	0.00e+00	0	43	102	1048576	13	4392
2026-01-24 12:48:16.86	339.14	9.93	-26.8	-28.7	14.5	0.00e+00	0	43	102	1048576	13	4493
2026-01-24 12:48:17.86	339.17	9.84	-26.9	-28.9	14.3	0.00e+00	0	43	102	1048576	13	4557
2026-01-24 12:48:18.86	339.19	9.76	-27.1	-28.9	14.1	0.00e+00	0	43	102	1048576	14	4429
2026-01-24 12:48:19.86	339.21	9.67	-27.2	-29.3	13.8	2.20e-06	0	43	102	1048576	14	4557
2026-01-24 12:48:20.86	339.23	9.59	-27.4	-29.6	13.6	5.70e-06	0	43	102	1048576	14	4660
2026-01-24 12:48:21.86	339.25	9.50	-27.4	-29.8	13.5	3.40e-06	0	43	102	1048576	14	4700
2026-01-24 12:48:22.87	339.28	9.42	-27.5	-29.9	13.5	9.10e-06	0	43	102	1048576	14	4739
