passes_logs/2026/01/24/R2M6_AANII_01/R2M6_AANII_01__20260124_111003_NOAA_21_JPSS-2_rec.log

#Pass ID: 20260124_111003_NOAA 21 (JPSS-2)
#Satellite: NOAA 21 (JPSS-2)
#Configuration: NOAA 21
#almurnet v.1.7.20240730
#Start time: 2026-01-24 11:10:03

#Version: 2.2.20231116
#Station: R2M6_AANII_01
#Location: 30.233357 lon 59.946436 lat
#TLE: 1 54234U 22150A   26023.61190495  .00000215  00000+0  12293-3 0  9993
#TLE: 2 54234  98.7508 324.4078 0000700 226.6110 133.5008 14.19538339166032

#Time	Az	El	Level	Level2	SNR	BER	BlckErr	Temp	State	Recorded	gain1	gain2
2026-01-24 11:10:03.62	186.98	7.03	-29.6	-33.1	5.0	1.34e+00	0	42	0	0	19	5432
2026-01-24 11:10:04.63	187.03	7.10	-30.6	-35.1	4.7	1.38e+00	0	42	104	0	21	6051
2026-01-24 11:10:05.63	187.08	7.17	-30.6	-34.3	9.4	2.09e-02	0	42	0	0	21	5524
2026-01-24 11:10:06.64	187.14	7.25	-30.4	-33.8	9.7	9.82e-03	0	42	102	1048576	21	5342
2026-01-24 11:10:07.65	187.19	7.32	-30.9	-35.4	8.7	2.97e-02	0	42	102	1048576	21	6019
2026-01-24 11:10:08.65	187.24	7.40	-30.8	-35.1	8.9	3.34e-02	0	42	102	1048576	21	5876
2026-01-24 11:10:09.66	187.30	7.47	-30.4	-33.8	9.8	1.59e-02	0	42	102	1048576	21	5303
2026-01-24 11:10:10.67	187.35	7.55	-30.2	-33.0	10.3	7.23e-03	0	42	102	1048576	21	5010
2026-01-24 11:10:11.68	187.41	7.62	-29.7	-32.1	11.3	1.72e-03	0	42	102	1048576	20	4790
2026-01-24 11:10:12.68	187.46	7.70	-29.4	-31.5	11.7	7.86e-04	0	42	102	1048576	20	4584
2026-01-24 11:10:13.69	187.52	7.78	-29.3	-31.6	12.1	2.77e-04	0	42	102	1048576	19	4701
2026-01-24 11:10:14.69	187.57	7.85	-29.5	-32.0	11.9	4.23e-04	0	42	102	1048576	19	4819
2026-01-24 11:10:15.69	187.63	7.93	-29.4	-31.9	12.0	3.47e-04	0	42	102	1048576	19	4779
2026-01-24 11:10:16.70	187.68	8.00	-29.5	-32.2	11.8	2.59e-04	0	42	102	1048576	19	4887
2026-01-24 11:10:17.70	187.74	8.08	-29.2	-31.4	12.3	3.07e-04	0	42	102	1048576	19	4629
2026-01-24 11:10:18.70	187.80	8.16	-29.3	-31.5	12.2	2.68e-04	0	42	102	1048576	19	4646
2026-01-24 11:10:19.71	187.85	8.23	-29.4	-31.9	11.9	2.76e-04	0	43	102	1048576	19	4809
2026-01-24 11:10:20.71	187.91	8.31	-29.3	-31.6	12.1	2.49e-04	0	42	102	1048576	19	4691
2026-01-24 11:10:21.71	187.97	8.39	-29.7	-32.5	11.6	3.82e-04	0	42	102	1048576	19	5010
2026-01-24 11:10:22.71	188.02	8.46	-29.4	-31.7	12.1	3.80e-04	0	43	102	1048576	19	4737
2026-01-24 11:10:23.71	188.08	8.54	-29.1	-31.0	12.5	1.51e-04	0	42	102	1048576	19	4502
2026-01-24 11:10:24.72	188.14	8.62	-28.9	-30.5	12.8	5.95e-05	0	43	102	1048576	19	4339
2026-01-24 11:10:25.73	188.20	8.70	-28.8	-30.7	13.0	5.56e-05	0	43	102	1048576	18	4514
2026-01-24 11:10:26.73	188.25	8.78	-28.7	-30.6	13.1	3.43e-05	0	43	102	1048576	18	4485
2026-01-24 11:10:27.74	188.31	8.86	-28.9	-31.0	12.8	3.66e-05	0	43	102	1048576	18	4603
2026-01-24 11:10:28.75	188.37	8.94	-29.1	-31.6	12.5	7.78e-05	0	43	102	1048576	18	4789
2026-01-24 11:10:29.75	188.43	9.01	-28.8	-30.8	13.0	6.71e-05	0	43	102	1048576	18	4541
2026-01-24 11:10:30.76	188.49	9.09	-28.9	-31.0	12.9	4.34e-05	0	43	102	1048576	18	4594
2026-01-24 11:10:31.76	188.55	9.17	-28.8	-30.8	13.0	5.72e-05	0	43	102	1048576	18	4537
2026-01-24 11:10:32.76	188.61	9.25	-28.8	-30.9	13.0	3.12e-05	0	42	102	1048576	18	4554
2026-01-24 11:10:33.77	188.67	9.33	-29.0	-31.2	12.8	4.11e-05	0	43	102	1048576	18	4653
2026-01-24 11:10:34.77	188.73	9.41	-28.8	-30.7	13.1	5.79e-05	0	43	102	1048576	18	4501
2026-01-24 11:10:35.77	188.80	9.49	-28.5	-30.1	13.5	9.90e-06	0	43	102	1048576	18	4318
2026-01-24 11:10:36.78	188.86	9.58	-28.7	-30.4	13.3	1.06e-05	0	43	102	1048576	18	4410
2026-01-24 11:10:37.78	188.92	9.66	-28.5	-30.0	13.6	3.43e-05	0	43	102	1048576	18	4304
2026-01-24 11:10:38.79	188.98	9.74	-28.7	-30.5	13.3	1.52e-05	0	43	102	1048576	18	4430
2026-01-24 11:10:39.79	189.04	9.82	-28.5	-30.0	13.6	9.10e-06	0	43	102	1048576	18	4288
2026-01-24 11:10:40.79	189.11	9.90	-28.4	-29.9	13.6	2.74e-05	0	43	102	1048576	18	4268
2026-01-24 11:10:41.79	189.17	9.98	-28.5	-30.1	13.4	1.37e-05	0	43	102	1048576	18	4334
2026-01-24 11:10:42.80	189.23	10.06	-28.4	-29.8	13.5	1.67e-05	0	43	102	1048576	18	4248
2026-01-24 11:10:43.81	189.30	10.15	-28.4	-29.9	13.4	8.30e-06	0	43	102	1048576	18	4282
2026-01-24 11:10:44.81	189.36	10.23	-28.3	-29.6	13.5	1.29e-05	0	43	102	1048576	18	4211
2026-01-24 11:10:45.81	189.43	10.31	-28.4	-29.9	13.3	1.98e-05	0	43	102	1048576	18	4294
2026-01-24 11:10:46.82	189.49	10.40	-28.2	-30.1	13.5	1.44e-05	0	43	102	1048576	17	4440
2026-01-24 11:10:47.82	189.56	10.48	-28.2	-30.0	13.5	1.06e-05	0	43	102	1048576	17	4421
2026-01-24 11:10:48.83	189.62	10.56	-28.3	-30.2	13.4	1.52e-05	0	43	102	1048576	17	4470
2026-01-24 11:10:49.82	189.69	10.65	-28.2	-29.9	13.6	1.37e-05	0	43	102	1048576	17	4383
2026-01-24 11:10:50.83	189.75	10.73	-28.1	-29.7	13.7	6.80e-06	0	43	102	1048576	17	4318
2026-01-24 11:10:51.83	189.82	10.81	-28.2	-29.9	13.7	3.00e-06	0	43	102	1048576	17	4370
2026-01-24 11:10:52.82	189.89	10.90	-28.1	-29.6	13.8	5.30e-06	0	43	102	1048576	17	4297
2026-01-24 11:10:53.82	189.95	10.98	-28.1	-29.6	13.9	2.20e-06	0	43	102	1048576	17	4276
2026-01-24 11:10:54.82	190.02	11.07	-28.1	-29.7	13.8	3.00e-06	0	43	102	1048576	17	4321
2026-01-24 11:10:55.83	190.09	11.15	-28.2	-29.8	13.8	4.50e-06	0	43	102	1048576	17	4337
2026-01-24 11:10:56.84	190.16	11.24	-28.2	-30.0	13.7	5.30e-06	0	43	102	1048576	17	4393
2026-01-24 11:10:57.85	190.23	11.33	-28.2	-29.9	13.8	5.30e-06	0	43	102	1048576	17	4354
2026-01-24 11:10:58.85	190.30	11.41	-28.3	-30.0	13.8	6.10e-06	0	43	102	1048576	17	4384
2026-01-24 11:10:59.86	190.37	11.50	-28.3	-30.0	13.8	3.00e-06	0	43	102	1048576	17	4386
2026-01-24 11:11:00.86	190.44	11.59	-28.1	-29.7	14.0	3.00e-06	0	43	102	1048576	17	4307
2026-01-24 11:11:01.86	190.51	11.67	-28.2	-29.9	13.8	5.30e-06	0	43	102	1048576	17	4368
2026-01-24 11:11:02.86	190.58	11.76	-28.1	-29.6	14.0	3.00e-06	0	43	102	1048576	17	4278
2026-01-24 11:11:03.87	190.65	11.85	-27.9	-29.2	14.3	2.20e-06	0	43	102	1048576	17	4175
2026-01-24 11:11:04.87	190.72	11.94	-27.9	-29.2	14.3	7.00e-07	0	43	102	1048576	17	4173
2026-01-24 11:11:05.87	190.79	12.02	-27.9	-29.1	14.4	1.50e-06	0	43	102	1048576	17	4139
2026-01-24 11:11:06.87	190.87	12.11	-28.0	-29.4	14.2	1.50e-06	0	43	102	1048576	17	4227
2026-01-24 11:11:07.88	190.94	12.20	-28.0	-29.3	14.3	0.00e+00	0	43	102	1048576	17	4193
2026-01-24 11:11:08.88	191.01	12.29	-28.0	-29.3	14.3	7.00e-07	0	43	102	1048576	17	4181
2026-01-24 11:11:09.89	191.09	12.38	-27.9	-29.1	14.4	7.00e-07	0	43	102	1048576	17	4145
2026-01-24 11:11:10.90	191.16	12.47	-28.0	-29.3	14.3	1.50e-06	0	43	102	1048576	17	4184
2026-01-24 11:11:11.91	191.24	12.56	-27.8	-29.0	14.4	7.00e-07	0	43	102	1048576	17	4125
2026-01-24 11:11:12.91	191.31	12.65	-27.8	-28.9	14.4	0.00e+00	0	43	102	1048576	17	4103
2026-01-24 11:11:13.92	191.39	12.74	-27.8	-29.0	14.4	0.00e+00	0	43	102	1048576	17	4136
2026-01-24 11:11:14.92	191.46	12.83	-27.8	-29.0	14.4	1.50e-06	0	43	102	1048576	17	4115
2026-01-24 11:11:15.93	191.54	12.92	-28.0	-30.0	14.1	0.00e+00	0	43	102	1048576	16	4521
2026-01-24 11:11:16.94	191.62	13.01	-27.9	-29.7	14.2	1.50e-06	0	43	102	1048576	16	4443
2026-01-24 11:11:17.94	191.69	13.11	-27.7	-29.2	14.5	0.00e+00	0	43	102	1048576	16	4297
2026-01-24 11:11:18.95	191.77	13.20	-27.6	-29.0	14.6	1.06e-05	0	43	102	1048576	16	4236
2026-01-24 11:11:19.95	191.85	13.29	-27.7	-29.2	14.6	7.00e-07	0	43	102	1048576	16	4279
2026-01-24 11:11:20.96	191.93	13.38	-27.7	-29.1	14.6	7.00e-07	0	43	102	1048576	16	4255
2026-01-24 11:11:21.97	192.01	13.48	-27.7	-29.2	14.5	7.00e-07	0	43	102	1048576	16	4285
2026-01-24 11:11:22.97	192.09	13.57	-27.9	-29.6	14.3	7.00e-07	0	43	102	1048576	16	4382
2026-01-24 11:11:23.97	192.17	13.66	-27.8	-29.3	14.4	7.00e-07	0	43	102	1048576	16	4317
2026-01-24 11:11:24.97	192.25	13.76	-27.6	-29.0	14.6	5.30e-06	0	43	102	1048576	16	4216
2026-01-24 11:11:25.98	192.33	13.85	-27.6	-29.0	14.5	1.50e-06	0	43	102	1048576	16	4245
2026-01-24 11:11:26.97	192.41	13.94	-27.5	-28.9	14.5	7.00e-07	0	43	102	1048576	16	4197
2026-01-24 11:11:27.98	192.49	14.04	-27.7	-29.1	14.4	9.10e-06	0	43	102	1048576	16	4264
2026-01-24 11:11:28.99	192.58	14.13	-27.6	-29.1	14.4	0.00e+00	0	43	102	1048576	16	4262
2026-01-24 11:11:29.99	192.66	14.23	-27.7	-29.3	14.3	7.00e-07	0	43	102	1048576	16	4303
2026-01-24 11:11:30.99	192.74	14.33	-27.7	-29.2	14.3	9.10e-06	0	43	102	1048576	16	4279
2026-01-24 11:11:32.00	192.83	14.42	-27.7	-29.2	14.3	0.00e+00	0	43	102	1048576	16	4279
2026-01-24 11:11:33.01	192.91	14.52	-27.7	-29.2	14.4	0.00e+00	0	43	102	1048576	16	4273
2026-01-24 11:11:34.01	193.00	14.62	-27.9	-29.5	14.3	9.10e-06	0	43	102	1048576	16	4367
2026-01-24 11:11:35.01	193.08	14.71	-27.9	-29.6	14.3	0.00e+00	0	43	102	1048576	16	4390
2026-01-24 11:11:36.02	193.17	14.81	-27.9	-29.7	14.4	7.00e-07	0	43	102	1048576	16	4402
2026-01-24 11:11:37.02	193.26	14.91	-27.9	-29.5	14.5	1.50e-06	0	43	102	1048576	16	4340
2026-01-24 11:11:38.02	193.34	15.00	-27.9	-29.6	14.5	7.00e-07	0	43	102	1048576	16	4372
2026-01-24 11:11:39.03	193.43	15.10	-27.8	-29.4	14.7	0.00e+00	0	43	102	1048576	16	4304
2026-01-24 11:11:40.03	193.52	15.20	-28.0	-29.7	14.5	1.50e-06	0	43	102	1048576	16	4396
2026-01-24 11:11:41.04	193.61	15.30	-27.8	-29.2	14.8	0.00e+00	0	43	102	1048576	16	4266
2026-01-24 11:11:42.04	193.70	15.40	-27.7	-29.1	14.9	0.00e+00	0	43	102	1048576	16	4227
2026-01-24 11:11:43.05	193.79	15.50	-27.7	-29.2	14.8	1.50e-06	0	43	102	1048576	16	4248
2026-01-24 11:11:44.05	193.88	15.60	-27.7	-29.2	14.8	0.00e+00	0	43	102	1048576	16	4244
2026-01-24 11:11:45.06	193.97	15.70	-27.8	-29.3	14.8	0.00e+00	0	43	102	1048576	16	4292
2026-01-24 11:11:46.06	194.06	15.80	-28.0	-29.9	14.4	0.00e+00	0	43	102	1048576	16	4459
2026-01-24 11:11:47.07	194.16	15.90	-28.1	-30.0	14.4	0.00e+00	0	43	102	1048576	16	4478
2026-01-24 11:11:48.07	194.25	16.00	-28.0	-29.7	14.5	2.20e-06	0	43	102	1048576	16	4414
2026-01-24 11:11:49.07	194.34	16.11	-28.1	-30.1	14.3	2.20e-06	0	43	102	1048576	16	4519
2026-01-24 11:11:50.08	194.44	16.21	-28.2	-30.1	14.3	1.50e-06	0	43	102	1048576	16	4526
2026-01-24 11:11:51.08	194.53	16.31	-28.1	-30.1	14.3	1.50e-06	0	43	102	1048576	16	4513
2026-01-24 11:11:52.09	194.63	16.41	-28.2	-30.2	14.3	7.00e-07	0	43	102	1048576	16	4544
2026-01-24 11:11:53.09	194.73	16.52	-28.4	-30.8	13.9	0.00e+00	0	43	102	1048576	16	4732
2026-01-24 11:11:54.10	194.82	16.62	-28.2	-30.2	14.3	1.50e-06	0	43	102	1048576	16	4528
2026-01-24 11:11:55.10	194.92	16.73	-28.0	-29.8	14.5	7.00e-07	0	43	102	1048576	16	4428
2026-01-24 11:11:56.11	195.02	16.83	-28.0	-29.7	14.7	0.00e+00	0	43	102	1048576	16	4375
2026-01-24 11:11:57.11	195.12	16.93	-28.0	-29.8	14.6	1.50e-06	0	43	102	1048576	16	4405
2026-01-24 11:11:58.11	195.22	17.04	-27.9	-29.6	14.7	7.00e-07	0	43	102	1048576	16	4365
2026-01-24 11:11:59.12	195.32	17.15	-28.0	-29.8	14.6	7.00e-07	0	43	102	1048576	16	4430
2026-01-24 11:12:00.13	195.42	17.25	-28.0	-29.8	14.6	0.00e+00	0	43	102	1048576	16	4419
2026-01-24 11:12:01.14	195.52	17.36	-28.0	-29.7	14.7	7.00e-07	0	43	102	1048576	16	4403
2026-01-24 11:12:02.13	195.62	17.46	-28.2	-30.1	14.5	1.50e-06	0	43	102	1048576	16	4503
2026-01-24 11:12:03.14	195.72	17.57	-28.0	-29.7	14.8	0.00e+00	0	43	102	1048576	16	4383
2026-01-24 11:12:04.14	195.83	17.68	-28.0	-29.7	14.7	0.00e+00	0	43	102	1048576	16	4394
2026-01-24 11:12:05.15	195.93	17.79	-28.0	-29.7	14.7	0.00e+00	0	43	102	1048576	16	4396
2026-01-24 11:12:06.15	196.04	17.89	-28.0	-29.7	14.7	0.00e+00	0	43	102	1048576	16	4397
2026-01-24 11:12:07.16	196.14	18.00	-28.0	-29.7	14.8	0.00e+00	0	43	102	1048576	16	4384
2026-01-24 11:12:08.16	196.25	18.11	-28.0	-29.7	14.8	7.00e-07	0	43	102	1048576	16	4373
2026-01-24 11:12:09.16	196.36	18.22	-28.1	-29.9	14.6	0.00e+00	0	43	102	1048576	16	4453
2026-01-24 11:12:10.17	196.47	18.33	-27.9	-29.6	14.8	0.00e+00	0	43	102	1048576	16	4374
2026-01-24 11:12:11.17	196.57	18.44	-27.9	-29.5	14.8	0.00e+00	0	43	102	1048576	16	4344
2026-01-24 11:12:12.18	196.68	18.55	-28.0	-29.8	14.7	0.00e+00	0	43	102	1048576	16	4409
2026-01-24 11:12:13.18	196.79	18.66	-27.8	-29.4	14.9	0.00e+00	0	43	102	1048576	16	4300
2026-01-24 11:12:14.19	196.91	18.77	-27.9	-29.4	14.9	0.00e+00	0	43	102	1048576	16	4315
2026-01-24 11:12:15.20	197.02	18.89	-27.7	-29.1	15.1	0.00e+00	0	43	102	1048576	16	4205
2026-01-24 11:12:16.21	197.13	19.00	-27.7	-29.0	15.2	7.00e-07	0	43	102	1048576	16	4185
2026-01-24 11:12:17.21	197.24	19.11	-27.7	-29.0	15.2	0.00e+00	0	43	102	1048576	16	4191
2026-01-24 11:12:18.21	197.36	19.22	-27.6	-28.8	15.3	2.20e-06	0	43	102	1048576	16	4128
2026-01-24 11:12:19.22	197.47	19.34	-27.6	-28.8	15.3	7.00e-07	0	43	102	1048576	16	4137
2026-01-24 11:12:20.22	197.59	19.45	-27.6	-28.8	15.3	0.00e+00	0	43	102	1048576	16	4134
2026-01-24 11:12:21.23	197.71	19.57	-27.6	-28.8	15.3	9.90e-06	0	43	102	1048576	16	4126
2026-01-24 11:12:22.23	197.82	19.68	-27.5	-28.6	15.5	7.00e-07	0	43	102	1048576	16	4070
2026-01-24 11:12:23.24	197.94	19.80	-27.5	-28.7	15.4	0.00e+00	0	43	102	1048576	16	4103
2026-01-24 11:12:24.25	198.06	19.91	-27.6	-28.8	15.3	7.60e-06	0	43	102	1048576	16	4131
2026-01-24 11:12:25.26	198.18	20.03	-27.5	-28.7	15.4	0.00e+00	0	43	102	1048576	16	4097
2026-01-24 11:12:26.26	198.31	20.14	-27.6	-28.8	15.3	0.00e+00	0	43	102	1048576	16	4145
2026-01-24 11:12:27.27	198.43	20.26	-27.6	-28.7	15.3	1.60e-05	0	43	102	1048576	16	4124
2026-01-24 11:12:28.28	198.55	20.38	-27.6	-28.9	15.2	0.00e+00	0	43	102	1048576	16	4159
2026-01-24 11:12:29.28	198.67	20.50	-27.5	-28.6	15.4	0.00e+00	0	43	102	1048576	16	4071
2026-01-24 11:12:30.28	198.80	20.61	-27.4	-28.4	15.5	0.00e+00	0	43	102	1048576	16	4043
2026-01-24 11:12:31.28	198.92	20.73	-27.5	-28.6	15.4	0.00e+00	0	43	102	1048576	16	4086
2026-01-24 11:12:32.29	199.05	20.85	-27.4	-28.5	15.5	0.00e+00	0	43	102	1048576	16	4047
2026-01-24 11:12:33.28	199.18	20.97	-27.5	-28.5	15.5	1.60e-05	0	43	102	1048576	16	4070
2026-01-24 11:12:34.28	199.31	21.09	-27.3	-28.2	15.7	0.00e+00	0	43	102	1048576	16	3978
2026-01-24 11:12:35.28	199.43	21.21	-27.1	-28.2	15.8	0.00e+00	0	43	102	1048576	15	4079
2026-01-24 11:12:36.28	199.56	21.33	-27.1	-28.3	15.8	0.00e+00	0	43	102	1048576	15	4105
2026-01-24 11:12:37.28	199.69	21.45	-27.0	-27.9	16.0	0.00e+00	0	43	102	1048576	15	4014
2026-01-24 11:12:38.29	199.83	21.57	-26.9	-27.8	16.0	0.00e+00	0	43	102	1048576	15	3991
2026-01-24 11:12:39.29	199.96	21.69	-26.9	-27.8	16.0	0.00e+00	0	43	102	1048576	15	3975
2026-01-24 11:12:40.30	200.10	21.81	-26.9	-27.8	16.0	0.00e+00	0	43	102	1048576	15	3981
2026-01-24 11:12:41.30	200.23	21.94	-26.9	-27.7	16.1	0.00e+00	0	43	102	1048576	15	3972
2026-01-24 11:12:42.30	200.37	22.06	-26.9	-27.7	16.1	0.00e+00	0	43	102	1048576	15	3947
2026-01-24 11:12:43.30	200.50	22.18	-26.8	-27.6	16.1	0.00e+00	0	43	102	1048576	15	3932
2026-01-24 11:12:44.30	200.64	22.30	-26.8	-27.6	16.1	0.00e+00	0	43	102	1048576	15	3932
2026-01-24 11:12:45.31	200.78	22.43	-26.8	-27.6	16.1	0.00e+00	0	43	102	1048576	15	3935
2026-01-24 11:12:46.31	200.92	22.55	-26.9	-27.7	16.1	0.00e+00	0	43	102	1048576	15	3971
2026-01-24 11:12:47.31	201.06	22.68	-26.8	-27.5	16.2	0.00e+00	0	43	102	1048576	15	3910
2026-01-24 11:12:48.31	201.21	22.80	-26.9	-27.8	16.0	0.00e+00	0	43	102	1048576	15	3993
2026-01-24 11:12:49.32	201.35	22.93	-26.9	-27.8	16.0	0.00e+00	0	43	102	1048576	15	3980
2026-01-24 11:12:50.31	201.49	23.05	-26.7	-27.9	16.3	0.00e+00	0	43	102	1048576	14	4112
2026-01-24 11:12:51.32	201.64	23.18	-26.6	-27.6	16.4	0.00e+00	0	43	102	1048576	14	4043
2026-01-24 11:12:52.33	201.79	23.31	-26.7	-27.8	16.3	0.00e+00	0	43	102	1048576	14	4100
2026-01-24 11:12:53.32	201.94	23.44	-26.8	-27.9	16.2	0.00e+00	0	43	102	1048576	14	4124
2026-01-24 11:12:54.33	202.09	23.57	-26.6	-27.6	16.4	0.00e+00	0	43	102	1048576	14	4030
2026-01-24 11:12:55.33	202.24	23.69	-26.5	-27.5	16.5	0.00e+00	0	43	102	1048576	14	4003
2026-01-24 11:12:56.33	202.39	23.82	-26.6	-27.5	16.5	0.00e+00	0	43	102	1048576	14	4011
2026-01-24 11:12:57.34	202.54	23.95	-26.5	-27.4	16.6	0.00e+00	0	43	102	1048576	14	3989
2026-01-24 11:12:58.35	202.70	24.08	-26.5	-27.5	16.5	0.00e+00	0	43	102	1048576	14	4001
2026-01-24 11:12:59.35	202.85	24.21	-26.6	-27.5	16.5	0.00e+00	0	43	102	1048576	14	4022
2026-01-24 11:13:00.35	203.01	24.34	-26.6	-27.7	16.4	0.00e+00	0	43	102	1048576	14	4057
2026-01-24 11:13:01.36	203.17	24.48	-26.5	-27.4	16.6	0.00e+00	0	43	102	1048576	14	3994
2026-01-24 11:13:02.37	203.33	24.61	-26.6	-27.5	16.6	0.00e+00	0	43	102	1048576	14	4007
2026-01-24 11:13:03.37	203.49	24.74	-26.6	-27.5	16.6	0.00e+00	0	43	102	1048576	14	4013
2026-01-24 11:13:04.37	203.65	24.87	-26.6	-27.6	16.5	0.00e+00	0	43	102	1048576	14	4028
2026-01-24 11:13:05.38	203.82	25.01	-26.6	-27.7	16.5	0.00e+00	0	43	102	1048576	14	4050
2026-01-24 11:13:06.38	203.98	25.14	-26.7	-27.8	16.4	0.00e+00	0	43	102	1048576	14	4087
2026-01-24 11:13:07.39	204.15	25.27	-26.8	-28.0	16.3	0.00e+00	0	43	102	1048576	14	4138
2026-01-24 11:13:08.39	204.32	25.41	-26.8	-28.1	16.3	0.00e+00	0	43	102	1048576	14	4163
2026-01-24 11:13:09.39	204.49	25.54	-26.7	-27.8	16.4	0.00e+00	0	43	102	1048576	14	4101
2026-01-24 11:13:10.39	204.66	25.68	-26.8	-27.9	16.3	0.00e+00	0	43	102	1048576	14	4125
2026-01-24 11:13:11.40	204.83	25.81	-26.9	-28.2	16.2	4.50e-06	0	43	102	1048576	14	4180
2026-01-24 11:13:12.41	205.00	25.95	-27.0	-28.5	16.1	0.00e+00	0	43	102	1048576	14	4264
2026-01-24 11:13:13.41	205.18	26.08	-27.2	-28.8	15.9	0.00e+00	0	43	102	1048576	14	4358
2026-01-24 11:13:14.41	205.35	26.22	-27.2	-29.0	15.8	0.00e+00	0	43	102	1048576	14	4399
2026-01-24 11:13:15.42	205.53	26.36	-27.3	-29.1	15.7	0.00e+00	0	43	102	1048576	14	4451
2026-01-24 11:13:16.42	205.71	26.50	-27.3	-29.2	15.7	0.00e+00	0	43	102	1048576	14	4453
2026-01-24 11:13:17.42	205.89	26.63	-27.3	-29.0	15.8	6.10e-06	0	43	102	1048576	14	4419
2026-01-24 11:13:18.42	206.07	26.77	-27.3	-29.2	15.7	0.00e+00	0	43	102	1048576	14	4474
2026-01-24 11:13:19.42	206.26	26.91	-27.4	-29.4	15.6	0.00e+00	0	43	102	1048576	14	4522
2026-01-24 11:13:20.43	206.44	27.05	-27.2	-28.9	15.8	3.00e-06	0	43	102	1048576	14	4398
2026-01-24 11:13:21.43	206.63	27.19	-27.2	-28.9	15.9	0.00e+00	0	43	102	1048576	14	4382
2026-01-24 11:13:22.43	206.82	27.33	-27.1	-28.8	15.9	0.00e+00	0	43	102	1048576	14	4352
2026-01-24 11:13:23.43	207.01	27.47	-27.2	-28.9	15.9	0.00e+00	0	43	102	1048576	14	4384
2026-01-24 11:13:24.43	207.20	27.61	-27.2	-29.0	15.8	0.00e+00	0	43	102	1048576	14	4424
2026-01-24 11:13:25.43	207.39	27.75	-27.3	-29.1	15.8	0.00e+00	0	43	102	1048576	14	4445
2026-01-24 11:13:26.43	207.59	27.89	-27.3	-29.1	15.8	6.10e-06	0	43	102	1048576	14	4427
2026-01-24 11:13:27.43	207.78	28.03	-27.3	-29.1	15.8	0.00e+00	0	43	102	1048576	14	4431
2026-01-24 11:13:28.44	207.98	28.18	-27.3	-29.1	15.7	0.00e+00	0	43	102	1048576	14	4450
2026-01-24 11:13:29.44	208.18	28.32	-27.3	-29.2	15.8	0.00e+00	0	43	102	1048576	14	4469
2026-01-24 11:13:30.45	208.39	28.46	-27.4	-29.3	15.6	0.00e+00	0	43	102	1048576	14	4502
2026-01-24 11:13:31.46	208.59	28.61	-27.3	-29.2	15.7	0.00e+00	0	43	102	1048576	14	4457
2026-01-24 11:13:32.46	208.80	28.75	-27.3	-29.2	15.7	0.00e+00	0	43	102	1048576	14	4464
2026-01-24 11:13:33.46	209.00	28.89	-27.3	-29.1	15.8	0.00e+00	0	43	102	1048576	14	4433
2026-01-24 11:13:34.47	209.21	29.04	-27.3	-29.2	15.8	0.00e+00	0	43	102	1048576	14	4456
2026-01-24 11:13:35.47	209.43	29.18	-27.3	-29.2	15.7	0.00e+00	0	43	102	1048576	14	4462
2026-01-24 11:13:36.47	209.64	29.33	-27.3	-29.2	15.7	0.00e+00	0	43	102	1048576	14	4476
2026-01-24 11:13:37.48	209.85	29.47	-27.3	-29.1	15.8	0.00e+00	0	43	102	1048576	14	4423
2026-01-24 11:13:38.48	210.07	29.62	-27.4	-29.3	15.7	0.00e+00	0	44	102	1048576	14	4491
2026-01-24 11:13:39.48	210.29	29.76	-27.4	-29.3	15.7	0.00e+00	0	43	102	1048576	14	4480
2026-01-24 11:13:40.48	210.51	29.91	-27.2	-28.9	15.9	0.00e+00	0	43	102	1048576	14	4387
2026-01-24 11:13:41.48	210.73	30.06	-27.4	-29.2	15.8	0.00e+00	0	43	102	1048576	14	4466
2026-01-24 11:13:42.48	210.95	30.20	-27.4	-29.3	15.7	0.00e+00	0	43	102	1048576	14	4478
2026-01-24 11:13:43.49	211.18	30.35	-27.3	-29.0	15.9	0.00e+00	0	43	102	1048576	14	4406
2026-01-24 11:13:44.49	211.41	30.50	-27.2	-29.0	15.9	0.00e+00	0	43	102	1048576	14	4395
2026-01-24 11:13:45.49	211.64	30.64	-27.3	-29.2	15.8	0.00e+00	0	43	102	1048576	14	4451
2026-01-24 11:13:46.50	211.87	30.79	-27.4	-29.4	15.7	0.00e+00	0	43	102	1048576	14	4504
2026-01-24 11:13:47.51	212.11	30.94	-27.5	-29.5	15.6	0.00e+00	0	43	102	1048576	14	4537
2026-01-24 11:13:48.51	212.35	31.09	-27.6	-29.2	15.5	0.00e+00	0	43	102	1048576	15	4341
2026-01-24 11:13:49.51	212.59	31.24	-27.5	-29.0	15.7	0.00e+00	0	43	102	1048576	15	4273
2026-01-24 11:13:50.51	212.83	31.39	-27.5	-29.0	15.7	0.00e+00	0	43	102	1048576	15	4296
2026-01-24 11:13:51.51	213.07	31.53	-27.6	-29.3	15.5	0.00e+00	0	43	102	1048576	15	4365
2026-01-24 11:13:52.52	213.32	31.68	-27.7	-29.5	15.4	0.00e+00	0	43	102	1048576	15	4434
2026-01-24 11:13:53.53	213.57	31.84	-27.8	-29.8	15.2	0.00e+00	0	43	102	1048576	15	4516
2026-01-24 11:13:54.52	213.81	31.98	-27.9	-29.9	15.2	7.00e-07	0	43	102	1048576	15	4542
2026-01-24 11:13:55.53	214.07	32.13	-28.0	-30.1	15.0	0.00e+00	0	43	102	1048576	15	4615
2026-01-24 11:13:56.53	214.32	32.28	-28.4	-30.6	14.6	0.00e+00	0	43	102	1048576	16	4643
2026-01-24 11:13:57.53	214.58	32.43	-28.5	-30.2	14.5	0.00e+00	0	43	102	1048576	17	4409
2026-01-24 11:13:58.53	214.84	32.58	-28.4	-30.1	14.7	0.00e+00	0	43	102	1048576	17	4376
2026-01-24 11:13:59.53	215.10	32.73	-28.5	-30.2	14.6	0.00e+00	0	43	102	1048576	17	4403
2026-01-24 11:14:00.53	215.36	32.88	-28.5	-30.3	14.6	1.50e-06	0	43	102	1048576	17	4435
2026-01-24 11:14:01.54	215.63	33.03	-28.6	-30.5	14.4	0.00e+00	0	43	102	1048576	17	4499
2026-01-24 11:14:02.54	215.90	33.18	-28.6	-30.6	14.4	0.00e+00	0	43	102	1048576	17	4525
2026-01-24 11:14:03.55	216.17	33.33	-28.6	-30.6	14.4	7.00e-07	0	43	102	1048576	17	4521
2026-01-24 11:14:04.54	216.44	33.48	-28.6	-30.6	14.4	3.00e-06	0	43	102	1048576	17	4532
2026-01-24 11:14:05.55	216.72	33.63	-28.8	-30.9	14.2	3.00e-06	0	43	102	1048576	17	4601
2026-01-24 11:14:06.55	217.00	33.78	-28.8	-30.9	14.3	2.20e-06	0	43	102	1048576	17	4598
2026-01-24 11:14:07.56	217.28	33.94	-28.8	-30.8	14.2	1.50e-06	0	43	102	1048576	17	4583
2026-01-24 11:14:08.56	217.56	34.09	-28.9	-31.1	14.1	7.00e-07	0	43	102	1048576	17	4668
2026-01-24 11:14:09.57	217.85	34.24	-28.8	-30.9	14.3	3.00e-06	0	43	102	1048576	17	4599
2026-01-24 11:14:10.57	218.14	34.39	-28.4	-30.1	14.7	6.10e-06	0	44	102	1048576	17	4362
2026-01-24 11:14:11.59	218.44	34.54	-28.2	-29.6	15.0	0.00e+00	0	43	102	1048576	17	4232
2026-01-24 11:14:12.58	218.73	34.69	-28.3	-29.8	14.9	7.00e-07	0	43	102	1048576	17	4285
2026-01-24 11:14:13.58	219.02	34.84	-28.3	-29.8	14.9	7.00e-07	0	43	102	1048576	17	4295
2026-01-24 11:14:14.59	219.33	34.99	-28.4	-30.0	14.8	0.00e+00	0	43	102	1048576	17	4344
2026-01-24 11:14:15.60	219.63	35.14	-28.4	-30.1	14.8	0.00e+00	0	43	102	1048576	17	4370
2026-01-24 11:14:16.60	219.93	35.29	-28.5	-30.2	14.8	2.20e-06	0	44	102	1048576	17	4386
2026-01-24 11:14:17.60	220.24	35.44	-28.6	-30.4	14.5	7.00e-07	0	43	102	1048576	17	4465
2026-01-24 11:14:18.61	220.55	35.59	-28.8	-30.9	14.3	7.00e-07	0	43	102	1048576	17	4608
2026-01-24 11:14:19.62	220.87	35.74	-28.8	-31.1	14.2	4.50e-06	0	43	102	1048576	17	4665
2026-01-24 11:14:20.63	221.19	35.89	-28.9	-30.8	14.1	1.50e-06	0	43	102	1048576	18	4480
2026-01-24 11:14:21.63	221.51	36.04	-29.1	-31.2	13.9	2.20e-06	0	43	102	1048576	18	4569
2026-01-24 11:14:22.64	221.83	36.19	-29.1	-31.1	13.9	4.50e-06	0	43	102	1048576	18	4551
2026-01-24 11:14:23.65	222.16	36.34	-28.9	-30.7	14.2	3.80e-06	0	43	102	1048576	18	4420
2026-01-24 11:14:24.65	222.49	36.48	-28.9	-30.6	14.2	2.20e-06	0	43	102	1048576	18	4408
2026-01-24 11:14:25.66	222.82	36.63	-28.9	-30.8	14.2	1.50e-06	0	43	102	1048576	18	4446
2026-01-24 11:14:26.66	223.15	36.78	-29.0	-31.1	13.9	3.00e-06	0	43	102	1048576	18	4537
2026-01-24 11:14:27.66	223.49	36.92	-29.1	-31.2	13.9	6.80e-06	0	43	102	1048576	18	4594
2026-01-24 11:14:28.67	223.83	37.07	-29.2	-31.5	13.7	4.50e-06	0	43	102	1048576	18	4688
2026-01-24 11:14:29.67	224.17	37.21	-29.2	-31.6	13.7	1.14e-05	0	43	102	1048576	18	4695
2026-01-24 11:14:30.67	224.52	37.36	-29.2	-31.4	13.8	7.00e-07	0	43	102	1048576	18	4640
2026-01-24 11:14:31.68	224.87	37.50	-29.2	-31.4	13.8	2.20e-06	0	43	102	1048576	18	4659
2026-01-24 11:14:32.69	225.22	37.65	-29.0	-30.9	14.0	2.20e-06	0	43	102	1048576	18	4505
2026-01-24 11:14:33.70	225.58	37.79	-29.0	-30.9	14.0	3.00e-06	0	43	102	1048576	18	4494
2026-01-24 11:14:34.70	225.94	37.94	-29.2	-31.5	13.7	4.50e-06	0	43	102	1048576	18	4660
2026-01-24 11:14:35.71	226.30	38.08	-29.1	-31.2	13.9	3.00e-06	0	43	102	1048576	18	4585
2026-01-24 11:14:36.71	226.66	38.22	-29.0	-30.8	14.1	3.80e-06	0	43	102	1048576	18	4466
2026-01-24 11:14:37.72	227.04	38.36	-28.9	-30.7	14.1	3.00e-06	0	43	102	1048576	18	4438
2026-01-24 11:14:38.72	227.40	38.50	-28.9	-30.8	14.1	2.20e-06	0	43	102	1048576	18	4456
2026-01-24 11:14:39.72	227.78	38.64	-29.0	-30.9	14.1	3.00e-06	0	43	102	1048576	18	4498
2026-01-24 11:14:40.73	228.16	38.78	-28.9	-30.8	14.3	1.50e-06	0	43	102	1048576	18	4440
2026-01-24 11:14:41.72	228.53	38.91	-28.9	-30.6	14.3	2.20e-06	0	43	102	1048576	18	4406
2026-01-24 11:14:42.73	228.92	39.05	-28.9	-30.7	14.2	0.00e+00	0	44	102	1048576	18	4439
2026-01-24 11:14:43.74	229.31	39.19	-29.2	-31.3	13.9	2.20e-06	0	43	102	1048576	18	4608
2026-01-24 11:14:44.74	229.70	39.32	-29.1	-31.1	14.0	7.00e-07	0	43	102	1048576	18	4531
2026-01-24 11:14:45.74	230.09	39.46	-29.3	-31.5	13.8	4.50e-06	0	43	102	1048576	18	4679
2026-01-24 11:14:46.75	230.49	39.59	-29.1	-31.3	13.9	4.50e-06	0	43	102	1048576	18	4601
2026-01-24 11:14:47.75	230.88	39.72	-29.2	-31.3	13.9	1.50e-06	0	43	102	1048576	18	4608
2026-01-24 11:14:48.75	231.28	39.85	-29.2	-31.5	13.8	6.10e-06	0	43	102	1048576	18	4660
2026-01-24 11:14:49.75	231.69	39.98	-29.2	-31.4	13.9	7.00e-07	0	43	102	1048576	18	4637
2026-01-24 11:14:50.76	232.10	40.11	-29.3	-31.5	13.8	2.20e-06	0	44	102	1048576	18	4669
2026-01-24 11:14:51.77	232.52	40.24	-29.3	-31.6	13.8	6.10e-06	0	43	102	1048576	18	4698
2026-01-24 11:14:52.77	232.93	40.36	-29.5	-31.6	13.5	9.90e-06	0	43	102	1048576	19	4577
2026-01-24 11:14:53.78	233.35	40.49	-29.6	-31.9	13.3	1.29e-05	0	44	102	1048576	19	4677
2026-01-24 11:14:54.78	233.77	40.61	-29.7	-32.0	13.2	2.28e-05	0	43	102	1048576	19	4702
2026-01-24 11:14:55.79	234.20	40.74	-29.7	-32.0	13.2	2.21e-05	0	43	102	1048576	19	4718
2026-01-24 11:14:56.80	234.63	40.86	-29.7	-32.0	13.2	2.21e-05	0	43	102	1048576	19	4700
2026-01-24 11:14:57.80	235.06	40.98	-29.6	-31.7	13.4	2.97e-05	0	43	102	1048576	19	4613
2026-01-24 11:14:58.80	235.49	41.10	-29.6	-31.8	13.3	1.90e-05	0	43	102	1048576	19	4647
2026-01-24 11:14:59.81	235.93	41.21	-29.8	-32.4	13.0	2.13e-05	0	43	102	1048576	19	4831
2026-01-24 11:15:00.81	236.37	41.33	-29.8	-32.3	13.0	3.35e-05	0	43	102	1048576	19	4810
2026-01-24 11:15:01.81	236.81	41.44	-29.8	-32.3	13.0	2.97e-05	0	43	102	1048576	19	4813
2026-01-24 11:15:02.82	237.26	41.56	-29.9	-32.4	13.0	2.97e-05	0	43	102	1048576	19	4840
2026-01-24 11:15:03.82	237.71	41.67	-29.9	-32.6	12.9	6.63e-05	0	43	102	1048576	19	4882
2026-01-24 11:15:04.82	238.16	41.78	-30.1	-32.6	12.5	1.11e-04	0	43	102	1048576	20	4796
2026-01-24 11:15:05.82	238.62	41.88	-30.4	-33.4	12.0	2.41e-04	0	44	102	1048576	20	5086
2026-01-24 11:15:06.82	239.07	41.99	-30.5	-33.1	11.9	3.95e-04	0	43	102	1048576	21	4847
2026-01-24 11:15:07.82	239.53	42.09	-30.3	-32.6	12.2	3.30e-04	0	43	102	1048576	21	4701
2026-01-24 11:15:08.83	240.00	42.20	-30.2	-32.4	12.3	1.38e-04	0	43	102	1048576	21	4619
2026-01-24 11:15:09.84	240.47	42.30	-30.2	-32.3	12.4	1.11e-04	0	43	102	1048576	21	4585
2026-01-24 11:15:10.85	240.94	42.40	-30.3	-32.5	12.2	1.60e-04	0	43	102	1048576	21	4669
2026-01-24 11:15:11.85	241.42	42.49	-30.1	-32.0	12.6	1.32e-04	0	43	102	1048576	21	4493
2026-01-24 11:15:12.86	241.90	42.59	-30.1	-32.0	12.5	1.08e-04	0	43	102	1048576	21	4508
2026-01-24 11:15:13.87	242.38	42.68	-30.1	-32.0	12.6	1.23e-04	0	43	102	1048576	21	4516
2026-01-24 11:15:14.87	242.86	42.77	-30.0	-31.8	12.7	8.77e-05	0	43	102	1048576	21	4434
2026-01-24 11:15:15.88	243.34	42.86	-29.9	-31.6	12.8	5.72e-05	0	43	102	1048576	21	4384
2026-01-24 11:15:16.89	243.83	42.95	-29.8	-31.4	13.0	3.81e-05	0	44	102	1048576	21	4305
2026-01-24 11:15:17.89	244.32	43.03	-30.1	-32.1	12.6	8.01e-05	0	43	102	1048576	21	4527
2026-01-24 11:15:18.88	244.81	43.12	-30.1	-32.1	12.5	9.91e-05	0	44	102	1048576	21	4526
2026-01-24 11:15:19.89	245.31	43.20	-30.4	-32.8	12.0	2.16e-04	0	43	102	1048576	21	4765
2026-01-24 11:15:20.89	245.80	43.28	-30.5	-33.1	12.0	3.35e-04	0	43	102	1048576	21	4844
2026-01-24 11:15:21.90	246.30	43.35	-30.2	-32.3	12.5	1.53e-04	0	43	102	1048576	21	4580
2026-01-24 11:15:22.91	246.81	43.43	-30.0	-31.9	12.7	9.23e-05	0	43	102	1048576	21	4462
2026-01-24 11:15:23.91	247.31	43.50	-30.1	-32.2	12.6	1.01e-04	0	43	102	1048576	21	4540
2026-01-24 11:15:24.91	247.81	43.57	-30.3	-32.5	12.2	1.44e-04	0	43	102	1048576	21	4651
2026-01-24 11:15:25.92	248.32	43.64	-30.7	-33.8	11.5	5.77e-04	0	43	102	1048576	21	5101
2026-01-24 11:15:26.92	248.83	43.70	-30.7	-33.8	11.5	9.13e-04	0	43	102	1048576	21	5116
2026-01-24 11:15:27.92	249.34	43.76	-30.4	-32.8	12.1	3.39e-04	0	43	102	1048576	21	4742
2026-01-24 11:15:28.93	249.86	43.82	-29.8	-31.2	13.1	6.10e-05	0	43	102	1048576	21	4237
2026-01-24 11:15:29.93	250.38	43.88	-29.6	-31.4	13.3	1.67e-05	0	43	102	1048576	20	4399
2026-01-24 11:15:30.94	250.90	43.94	-29.8	-31.8	13.1	2.05e-05	0	43	102	1048576	20	4516
2026-01-24 11:15:31.94	251.41	43.99	-29.7	-31.6	13.3	2.44e-05	0	43	102	1048576	20	4455
2026-01-24 11:15:32.95	251.94	44.04	-29.7	-31.7	13.1	3.35e-05	0	43	102	1048576	20	4488
2026-01-24 11:15:33.95	252.46	44.09	-29.7	-31.5	13.2	1.90e-05	0	43	102	1048576	20	4440
2026-01-24 11:15:34.96	252.99	44.13	-29.7	-31.5	13.2	1.75e-05	0	43	102	1048576	20	4434
2026-01-24 11:15:35.96	253.51	44.17	-29.9	-32.1	12.9	4.27e-05	0	44	102	1048576	20	4612
2026-01-24 11:15:36.96	254.04	44.21	-29.8	-31.9	13.0	3.96e-05	0	43	102	1048576	20	4557
2026-01-24 11:15:37.97	254.57	44.25	-29.7	-31.6	13.3	2.82e-05	0	43	102	1048576	20	4476
2026-01-24 11:15:38.97	255.09	44.29	-29.6	-31.3	13.4	1.98e-05	0	43	102	1048576	20	4368
2026-01-24 11:15:39.97	255.62	44.32	-29.7	-31.4	13.4	1.29e-05	0	43	102	1048576	20	4407
2026-01-24 11:15:40.97	256.15	44.35	-29.6	-31.4	13.3	1.67e-05	0	43	102	1048576	20	4405
2026-01-24 11:15:41.98	256.69	44.37	-29.9	-32.1	12.9	2.28e-05	0	43	102	1048576	20	4625
2026-01-24 11:15:42.98	257.22	44.40	-29.9	-31.9	13.0	3.89e-05	0	43	102	1048576	20	4553
2026-01-24 11:15:43.98	257.75	44.42	-29.8	-31.8	13.1	3.43e-05	0	43	102	1048576	20	4531
2026-01-24 11:15:44.99	258.29	44.44	-30.0	-32.2	12.8	6.63e-05	0	43	102	1048576	20	4669
2026-01-24 11:15:45.99	258.82	44.45	-30.1	-32.5	12.7	5.64e-05	0	43	102	1048576	20	4765
2026-01-24 11:15:46.99	259.36	44.47	-30.2	-32.8	12.5	1.02e-04	0	43	102	1048576	20	4841
2026-01-24 11:15:47.99	259.89	44.48	-30.2	-32.7	12.6	1.20e-04	0	43	102	1048576	20	4821
2026-01-24 11:15:48.99	260.42	44.48	-29.9	-32.1	13.0	5.79e-05	0	43	102	1048576	20	4610
2026-01-24 11:15:49.99	260.96	44.49	-29.9	-31.9	13.0	4.34e-05	0	43	102	1048576	20	4548
2026-01-24 11:15:50.99	261.49	44.49	-29.8	-31.9	13.1	4.27e-05	0	43	102	1048576	20	4553
2026-01-24 11:15:51.99	262.03	44.49	-29.8	-31.8	13.1	3.12e-05	0	43	102	1048576	20	4522
2026-01-24 11:15:53.00	262.57	44.49	-29.9	-32.1	12.9	4.95e-05	0	43	102	1048576	20	4637
2026-01-24 11:15:54.00	263.10	44.48	-29.8	-31.8	13.2	2.13e-05	0	43	102	1048576	20	4523
2026-01-24 11:15:55.00	263.64	44.47	-29.8	-31.8	13.2	3.28e-05	0	43	102	1048576	20	4516
2026-01-24 11:15:56.00	264.17	44.46	-30.0	-32.3	12.9	2.97e-05	0	43	102	1048576	20	4681
2026-01-24 11:15:57.00	264.70	44.45	-29.9	-32.1	13.1	4.27e-05	0	44	102	1048576	20	4604
2026-01-24 11:15:58.00	265.24	44.43	-30.2	-32.8	12.6	8.62e-05	0	43	102	1048576	20	4836
2026-01-24 11:15:59.01	265.77	44.41	-30.0	-32.2	12.9	6.63e-05	0	43	102	1048576	20	4656
2026-01-24 11:16:00.02	266.31	44.39	-29.9	-32.0	13.1	4.04e-05	0	43	102	1048576	20	4566
2026-01-24 11:16:01.00	266.83	44.37	-29.7	-31.4	13.4	1.67e-05	0	43	102	1048576	20	4406
2026-01-24 11:16:02.01	267.37	44.34	-29.6	-31.3	13.4	4.50e-06	0	43	102	1048576	20	4369
2026-01-24 11:16:03.01	267.90	44.31	-29.8	-31.7	13.2	2.13e-05	0	43	102	1048576	20	4477
2026-01-24 11:16:04.01	268.42	44.28	-29.6	-31.2	13.5	1.75e-05	0	43	102	1048576	20	4352
2026-01-24 11:16:05.02	268.96	44.24	-29.4	-30.7	13.8	5.30e-06	0	43	102	1048576	20	4200
2026-01-24 11:16:06.02	269.48	44.20	-29.3	-30.5	13.9	1.22e-05	0	43	102	1048576	20	4146
2026-01-24 11:16:07.03	270.01	44.16	-29.4	-31.3	13.8	2.20e-06	0	43	102	1048576	19	4465
2026-01-24 11:16:08.03	270.53	44.12	-29.5	-31.4	13.7	6.80e-06	0	43	102	1048576	19	4508
2026-01-24 11:16:09.03	271.06	44.08	-29.7	-31.9	13.5	1.75e-05	0	43	102	1048576	19	4642
2026-01-24 11:16:10.03	271.58	44.03	-29.6	-31.6	13.6	1.52e-05	0	43	102	1048576	19	4576
2026-01-24 11:16:11.03	272.09	43.98	-29.6	-31.6	13.7	6.10e-06	0	43	102	1048576	19	4548
2026-01-24 11:16:12.04	272.62	43.92	-30.0	-32.2	12.9	3.35e-05	0	43	102	1048576	20	4651
2026-01-24 11:16:13.04	273.13	43.87	-30.1	-32.6	12.8	5.18e-05	0	43	102	1048576	20	4778
2026-01-24 11:16:14.05	273.65	43.81	-30.4	-33.3	12.3	1.99e-04	0	43	102	1048576	20	5020
2026-01-24 11:16:15.05	274.16	43.75	-30.4	-32.9	12.2	2.81e-04	0	43	102	1048576	21	4756
2026-01-24 11:16:16.06	274.67	43.69	-30.5	-33.0	12.1	2.33e-04	0	43	102	1048576	21	4818
2026-01-24 11:16:17.07	275.19	43.62	-30.4	-32.7	12.3	2.04e-04	0	43	102	1048576	21	4710
2026-01-24 11:16:18.08	275.70	43.55	-30.2	-32.4	12.5	9.30e-05	0	43	102	1048576	21	4601
2026-01-24 11:16:19.08	276.20	43.48	-30.3	-32.5	12.5	1.17e-04	0	43	102	1048576	21	4634
2026-01-24 11:16:20.08	276.70	43.41	-30.1	-32.0	12.8	6.63e-05	0	43	102	1048576	21	4462
2026-01-24 11:16:21.08	277.20	43.34	-30.0	-31.6	13.0	4.19e-05	0	43	102	1048576	21	4371
2026-01-24 11:16:22.09	277.70	43.26	-30.0	-31.8	12.9	3.66e-05	0	43	102	1048576	21	4407
2026-01-24 11:16:23.09	278.19	43.18	-30.3	-32.5	12.5	1.15e-04	0	43	102	1048576	21	4630
2026-01-24 11:16:24.09	278.68	43.10	-30.2	-32.1	12.6	7.17e-05	0	43	102	1048576	21	4527
2026-01-24 11:16:25.09	279.17	43.02	-30.0	-31.8	13.0	4.50e-05	0	43	102	1048576	21	4401
2026-01-24 11:16:26.09	279.66	42.93	-29.8	-31.2	13.2	2.28e-05	0	43	102	1048576	21	4235
2026-01-24 11:16:27.09	280.14	42.85	-29.7	-31.4	13.4	6.10e-06	0	43	102	1048576	20	4391
2026-01-24 11:16:28.09	280.62	42.76	-29.4	-30.6	14.0	3.00e-06	0	43	102	1048576	20	4174
2026-01-24 11:16:29.10	281.11	42.67	-29.3	-31.0	14.1	0.00e+00	0	43	102	1048576	19	4373
2026-01-24 11:16:30.10	281.58	42.57	-29.9	-32.4	13.2	1.67e-05	0	43	102	1048576	19	4817
2026-01-24 11:16:31.11	282.06	42.48	-30.2	-32.6	12.7	7.01e-05	0	43	102	1048576	20	4789
2026-01-24 11:16:32.11	282.53	42.38	-30.5	-33.1	12.1	1.93e-04	0	43	102	1048576	21	4828
2026-01-24 11:16:33.12	283.00	42.28	-30.4	-32.8	12.3	2.48e-04	0	43	102	1048576	21	4734
2026-01-24 11:16:34.13	283.47	42.18	-30.1	-32.1	12.7	1.08e-04	0	44	102	1048576	21	4505
2026-01-24 11:16:35.13	283.93	42.08	-29.9	-31.4	13.2	2.74e-05	0	44	102	1048576	21	4277
2026-01-24 11:16:36.14	284.40	41.97	-29.8	-31.3	13.2	1.67e-05	0	43	102	1048576	21	4269
2026-01-24 11:16:37.14	284.85	41.87	-29.8	-31.7	13.3	1.22e-05	0	44	102	1048576	20	4488
2026-01-24 11:16:38.15	285.31	41.76	-29.6	-31.3	13.6	1.22e-05	0	43	102	1048576	20	4355
2026-01-24 11:16:39.15	285.76	41.65	-29.9	-32.0	13.1	1.60e-05	0	43	102	1048576	20	4575
2026-01-24 11:16:40.15	286.21	41.54	-30.3	-32.9	12.5	7.85e-05	0	43	102	1048576	20	4891
2026-01-24 11:16:41.15	286.65	41.43	-30.6	-33.3	11.9	3.52e-04	0	43	102	1048576	21	4917
2026-01-24 11:16:42.15	287.09	41.32	-30.6	-33.2	12.0	3.80e-04	0	43	102	1048576	21	4864
2026-01-24 11:16:43.15	287.53	41.20	-30.0	-31.8	12.9	7.93e-05	0	43	102	1048576	21	4410
2026-01-24 11:16:44.16	287.97	41.08	-29.8	-31.3	13.2	2.89e-05	0	43	102	1048576	21	4263
2026-01-24 11:16:45.16	288.40	40.96	-30.0	-32.3	12.9	3.81e-05	0	43	102	1048576	20	4656
2026-01-24 11:16:46.17	288.83	40.84	-30.0	-32.3	12.9	5.11e-05	0	43	102	1048576	20	4674
2026-01-24 11:16:47.17	289.25	40.72	-30.3	-33.1	12.4	1.05e-04	0	43	102	1048576	20	4920
2026-01-24 11:16:48.18	289.68	40.60	-30.6	-33.3	12.0	2.85e-04	0	43	102	1048576	21	4906
2026-01-24 11:16:49.18	290.10	40.48	-30.6	-33.4	11.9	3.94e-04	0	43	102	1048576	21	4943
2026-01-24 11:16:50.18	290.51	40.35	-30.5	-33.1	12.1	3.71e-04	0	43	102	1048576	21	4846
2026-01-24 11:16:51.19	290.93	40.23	-30.5	-33.0	12.1	2.27e-04	0	43	102	1048576	21	4813
2026-01-24 11:16:52.19	291.34	40.10	-30.5	-33.0	12.2	2.82e-04	0	43	102	1048576	21	4781
2026-01-24 11:16:53.20	291.75	39.97	-30.1	-31.9	12.9	6.48e-05	0	43	102	1048576	21	4436
2026-01-24 11:16:54.20	292.15	39.84	-30.2	-32.1	12.8	8.01e-05	0	43	102	1048576	21	4500
2026-01-24 11:16:55.20	292.55	39.71	-30.0	-31.6	13.1	3.58e-05	0	43	102	1048576	21	4346
2026-01-24 11:16:56.20	292.95	39.58	-29.9	-32.0	13.1	1.83e-05	0	43	102	1048576	20	4579
2026-01-24 11:16:57.21	293.34	39.45	-30.3	-33.0	12.5	1.26e-04	0	43	102	1048576	20	4899
2026-01-24 11:16:58.21	293.73	39.31	-30.1	-32.5	12.8	7.01e-05	0	43	102	1048576	20	4756
2026-01-24 11:16:59.22	294.13	39.18	-29.8	-31.7	13.3	2.13e-05	0	43	102	1048576	20	4489
2026-01-24 11:17:00.22	294.51	39.04	-29.4	-30.8	13.8	3.80e-06	0	43	102	1048576	20	4213
2026-01-24 11:17:01.23	294.89	38.91	-29.6	-31.1	13.7	7.60e-06	0	43	102	1048576	20	4308
2026-01-24 11:17:02.24	295.27	38.77	-29.9	-31.9	13.2	9.10e-06	0	43	102	1048576	20	4546
2026-01-24 11:17:03.24	295.65	38.63	-30.0	-32.1	13.1	5.95e-05	0	43	102	1048576	20	4615
2026-01-24 11:17:04.25	296.02	38.49	-29.7	-31.5	13.4	1.44e-05	0	43	102	1048576	20	4415
2026-01-24 11:17:05.26	296.39	38.35	-29.5	-31.0	13.7	8.30e-06	0	43	102	1048576	20	4279
2026-01-24 11:17:06.27	296.76	38.21	-29.7	-31.4	13.5	7.60e-06	0	43	102	1048576	20	4391
2026-01-24 11:17:07.27	297.12	38.07	-29.8	-31.8	13.3	2.21e-05	0	43	102	1048576	20	4513
2026-01-24 11:17:08.27	297.48	37.93	-29.7	-31.5	13.4	1.44e-05	0	43	102	1048576	20	4441
2026-01-24 11:17:09.27	297.84	37.79	-29.6	-31.3	13.6	1.22e-05	0	43	102	1048576	20	4353
2026-01-24 11:17:10.28	298.19	37.64	-29.5	-30.9	13.8	5.30e-06	0	43	102	1048576	20	4248
2026-01-24 11:17:11.27	298.54	37.50	-29.6	-31.2	13.6	3.80e-06	0	44	102	1048576	20	4318
2026-01-24 11:17:12.27	298.89	37.36	-29.5	-31.1	13.7	1.14e-05	0	43	102	1048576	20	4296
2026-01-24 11:17:13.28	299.23	37.22	-29.3	-30.5	14.0	2.20e-06	0	43	102	1048576	20	4141
2026-01-24 11:17:14.28	299.57	37.07	-29.4	-30.6	13.9	2.20e-06	0	44	102	1048576	20	4166
2026-01-24 11:17:15.29	299.91	36.92	-29.4	-30.8	13.8	6.10e-06	0	43	102	1048576	20	4226
2026-01-24 11:17:16.29	300.25	36.78	-29.4	-31.1	14.0	1.50e-06	0	43	102	1048576	19	4399
2026-01-24 11:17:17.30	300.58	36.63	-29.4	-31.2	14.0	3.00e-06	0	43	102	1048576	19	4444
2026-01-24 11:17:18.29	300.91	36.49	-29.5	-31.6	13.7	2.20e-06	0	43	102	1048576	19	4555
2026-01-24 11:17:19.30	301.24	36.34	-29.6	-31.7	13.7	3.80e-06	0	43	102	1048576	19	4579
2026-01-24 11:17:20.31	301.56	36.19	-29.8	-32.1	13.4	1.83e-05	0	43	102	1048576	19	4713
2026-01-24 11:17:21.32	301.89	36.04	-29.4	-31.4	13.9	6.10e-06	0	43	102	1048576	19	4485
2026-01-24 11:17:22.33	302.21	35.90	-29.2	-30.8	14.2	0.00e+00	0	43	102	1048576	19	4322
2026-01-24 11:17:23.33	302.52	35.75	-29.2	-30.8	14.2	7.00e-07	0	44	102	1048576	19	4316
2026-01-24 11:17:24.33	302.83	35.60	-29.3	-30.9	14.1	0.00e+00	0	43	102	1048576	19	4338
2026-01-24 11:17:25.33	303.14	35.45	-29.3	-31.1	14.0	7.00e-07	0	43	102	1048576	19	4400
2026-01-24 11:17:26.33	303.45	35.30	-29.5	-31.4	13.8	6.10e-06	0	43	102	1048576	19	4507
2026-01-24 11:17:27.33	303.75	35.16	-29.5	-31.6	13.8	3.00e-06	0	43	102	1048576	19	4549
2026-01-24 11:17:28.34	304.05	35.01	-29.5	-31.4	13.8	2.20e-06	0	43	102	1048576	19	4498
2026-01-24 11:17:29.34	304.35	34.86	-29.3	-31.1	14.0	1.50e-06	0	44	102	1048576	19	4400
2026-01-24 11:17:30.34	304.65	34.71	-29.3	-30.9	14.1	2.20e-06	0	43	102	1048576	19	4364
2026-01-24 11:17:31.35	304.94	34.56	-29.2	-30.6	14.2	7.00e-07	0	43	102	1048576	19	4276
2026-01-24 11:17:32.35	305.23	34.41	-29.0	-30.3	14.4	2.20e-06	0	43	102	1048576	19	4180
2026-01-24 11:17:33.36	305.52	34.26	-28.9	-29.9	14.7	0.00e+00	0	43	102	1048576	19	4075
2026-01-24 11:17:34.36	305.81	34.11	-28.8	-30.2	14.8	0.00e+00	0	43	102	1048576	18	4259
2026-01-24 11:17:35.36	306.09	33.96	-28.9	-30.5	14.7	0.00e+00	0	43	102	1048576	18	4339
2026-01-24 11:17:36.36	306.37	33.81	-29.0	-30.9	14.4	1.50e-06	0	43	102	1048576	18	4446
2026-01-24 11:17:37.37	306.65	33.66	-28.9	-30.5	14.6	0.00e+00	0	43	102	1048576	18	4342
2026-01-24 11:17:38.38	306.93	33.51	-28.7	-30.2	14.9	0.00e+00	0	43	102	1048576	18	4246
2026-01-24 11:17:39.38	307.20	33.36	-28.7	-30.0	14.9	0.00e+00	0	43	102	1048576	18	4193
2026-01-24 11:17:40.38	307.47	33.21	-28.7	-30.1	14.9	0.00e+00	0	43	102	1048576	18	4226
2026-01-24 11:17:41.39	307.74	33.06	-28.5	-29.7	15.1	0.00e+00	0	43	102	1048576	18	4126
2026-01-24 11:17:42.39	308.00	32.91	-28.6	-29.8	15.0	0.00e+00	0	43	102	1048576	18	4145
2026-01-24 11:17:43.40	308.27	32.76	-28.5	-29.6	15.1	0.00e+00	0	43	102	1048576	18	4092
2026-01-24 11:17:44.40	308.53	32.61	-28.2	-29.4	15.5	0.00e+00	0	43	102	1048576	17	4144
2026-01-24 11:17:45.41	308.79	32.46	-28.0	-29.1	15.7	0.00e+00	0	43	102	1048576	17	4059
2026-01-24 11:17:46.41	309.04	32.31	-28.1	-29.3	15.6	0.00e+00	0	43	102	1048576	17	4105
2026-01-24 11:17:47.42	309.30	32.16	-28.2	-29.4	15.5	0.00e+00	0	43	102	1048576	17	4145
2026-01-24 11:17:48.43	309.55	32.01	-28.1	-29.1	15.7	0.00e+00	0	43	102	1048576	17	4075
2026-01-24 11:17:49.44	309.80	31.86	-28.1	-29.2	15.6	0.00e+00	0	43	102	1048576	17	4083
2026-01-24 11:17:50.44	310.05	31.72	-28.2	-29.6	15.5	0.00e+00	0	43	102	1048576	17	4191
2026-01-24 11:17:51.45	310.29	31.57	-28.3	-29.8	15.3	0.00e+00	0	43	102	1048576	17	4240
2026-01-24 11:17:52.45	310.54	31.42	-28.1	-29.3	15.6	0.00e+00	0	43	102	1048576	17	4127
2026-01-24 11:17:53.45	310.78	31.27	-28.1	-29.1	15.6	0.00e+00	0	43	102	1048576	17	4075
2026-01-24 11:17:54.45	311.01	31.12	-28.0	-29.0	15.7	0.00e+00	0	43	102	1048576	17	4038
2026-01-24 11:17:55.45	311.25	30.98	-28.0	-29.0	15.7	0.00e+00	0	43	102	1048576	17	4039
2026-01-24 11:17:56.46	311.48	30.83	-27.9	-28.9	15.8	0.00e+00	0	43	102	1048576	17	4004
2026-01-24 11:17:57.47	311.72	30.68	-27.8	-28.6	15.9	0.00e+00	0	43	102	1048576	17	3934
2026-01-24 11:17:58.48	311.95	30.53	-27.8	-29.2	15.9	0.00e+00	0	43	102	1048576	16	4187
2026-01-24 11:17:59.48	312.18	30.39	-28.0	-29.4	15.8	0.00e+00	0	43	102	1048576	16	4264
2026-01-24 11:18:00.48	312.40	30.24	-27.9	-29.3	15.8	0.00e+00	0	43	102	1048576	16	4215
2026-01-24 11:18:01.48	312.62	30.10	-27.9	-29.4	15.8	0.00e+00	0	43	102	1048576	16	4249
2026-01-24 11:18:02.49	312.85	29.95	-27.9	-29.4	15.8	0.00e+00	0	43	102	1048576	16	4251
2026-01-24 11:18:03.49	313.07	29.81	-27.9	-29.4	15.8	0.00e+00	0	43	102	1048576	16	4245
2026-01-24 11:18:04.48	313.28	29.66	-27.9	-29.2	15.9	0.00e+00	0	43	102	1048576	16	4207
2026-01-24 11:18:05.49	313.50	29.52	-27.9	-29.3	15.8	0.00e+00	0	43	102	1048576	16	4233
2026-01-24 11:18:06.49	313.71	29.37	-28.0	-29.4	15.7	0.00e+00	0	43	102	1048576	16	4267
2026-01-24 11:18:07.49	313.93	29.23	-28.0	-29.6	15.6	0.00e+00	0	43	102	1048576	16	4304
2026-01-24 11:18:08.49	314.13	29.09	-28.0	-29.6	15.6	0.00e+00	0	43	102	1048576	16	4319
2026-01-24 11:18:09.50	314.35	28.94	-28.1	-29.7	15.6	0.00e+00	0	43	102	1048576	16	4326
2026-01-24 11:18:10.51	314.55	28.80	-28.0	-29.6	15.6	0.00e+00	0	44	102	1048576	16	4319
2026-01-24 11:18:11.50	314.76	28.66	-28.0	-29.6	15.6	0.00e+00	0	43	102	1048576	16	4301
2026-01-24 11:18:12.51	314.96	28.51	-28.2	-29.9	15.4	0.00e+00	0	43	102	1048576	16	4402
2026-01-24 11:18:13.52	315.16	28.37	-28.1	-29.7	15.5	0.00e+00	0	43	102	1048576	16	4348
2026-01-24 11:18:14.52	315.36	28.23	-28.0	-29.4	15.7	0.00e+00	0	43	102	1048576	16	4264
2026-01-24 11:18:15.53	315.56	28.09	-27.9	-29.4	15.8	0.00e+00	0	43	102	1048576	16	4248
2026-01-24 11:18:16.53	315.76	27.95	-27.9	-29.4	15.7	0.00e+00	0	43	102	1048576	16	4252
2026-01-24 11:18:17.53	315.95	27.81	-28.0	-29.4	15.7	0.00e+00	0	43	102	1048576	16	4257
2026-01-24 11:18:18.53	316.14	27.67	-28.0	-29.4	15.7	0.00e+00	0	43	102	1048576	16	4263
2026-01-24 11:18:19.54	316.34	27.53	-28.0	-29.4	15.7	0.00e+00	0	43	102	1048576	16	4269
2026-01-24 11:18:20.54	316.53	27.39	-28.0	-29.6	15.6	0.00e+00	0	43	102	1048576	16	4310
2026-01-24 11:18:21.54	316.71	27.25	-28.0	-29.6	15.7	0.00e+00	0	43	102	1048576	16	4302
2026-01-24 11:18:22.54	316.90	27.11	-28.1	-29.7	15.6	0.00e+00	0	43	102	1048576	16	4336
2026-01-24 11:18:23.54	317.08	26.97	-28.1	-29.7	15.5	0.00e+00	0	43	102	1048576	16	4342
2026-01-24 11:18:24.55	317.27	26.83	-28.1	-29.8	15.5	0.00e+00	0	44	102	1048576	16	4373
2026-01-24 11:18:25.55	317.45	26.70	-28.0	-29.4	15.7	0.00e+00	0	43	102	1048576	16	4268
2026-01-24 11:18:26.56	317.63	26.56	-27.7	-28.7	16.1	0.00e+00	0	43	102	1048576	16	4083
2026-01-24 11:18:27.56	317.81	26.42	-27.6	-28.5	16.2	0.00e+00	0	43	102	1048576	16	4030
2026-01-24 11:18:28.57	317.99	26.29	-27.5	-28.4	16.2	0.00e+00	0	43	102	1048576	16	3993
2026-01-24 11:18:29.57	318.16	26.15	-27.6	-28.5	16.2	0.00e+00	0	43	102	1048576	16	4030
2026-01-24 11:18:30.57	318.34	26.02	-27.6	-28.6	16.1	0.00e+00	0	43	102	1048576	16	4042
2026-01-24 11:18:31.58	318.51	25.88	-27.5	-28.3	16.3	0.00e+00	0	43	102	1048576	16	3971
2026-01-24 11:18:32.59	318.68	25.74	-27.4	-28.2	16.3	0.00e+00	0	43	102	1048576	16	3946
2026-01-24 11:18:33.59	318.85	25.61	-27.3	-28.0	16.4	0.00e+00	0	43	102	1048576	16	3887
2026-01-24 11:18:34.59	319.02	25.48	-27.3	-28.0	16.4	0.00e+00	0	43	102	1048576	16	3891
2026-01-24 11:18:35.60	319.19	25.34	-27.4	-28.3	16.3	0.00e+00	0	43	102	1048576	16	3955
2026-01-24 11:18:36.60	319.36	25.21	-27.5	-28.5	16.1	0.00e+00	0	43	102	1048576	16	4029
2026-01-24 11:18:37.60	319.52	25.08	-27.7	-28.8	15.9	0.00e+00	0	43	102	1048576	16	4099
2026-01-24 11:18:38.60	319.68	24.95	-27.8	-29.0	15.8	0.00e+00	0	43	102	1048576	16	4170
2026-01-24 11:18:39.60	319.84	24.82	-27.8	-29.2	15.7	0.00e+00	0	43	102	1048576	16	4200
2026-01-24 11:18:40.60	320.01	24.68	-27.9	-29.2	15.7	0.00e+00	0	43	102	1048576	16	4216
2026-01-24 11:18:41.60	320.16	24.55	-27.9	-29.2	15.7	0.00e+00	0	43	102	1048576	16	4221
2026-01-24 11:18:42.61	320.32	24.42	-27.9	-29.3	15.7	0.00e+00	0	43	102	1048576	16	4233
2026-01-24 11:18:43.61	320.48	24.29	-27.8	-29.2	15.8	0.00e+00	0	43	102	1048576	16	4203
2026-01-24 11:18:44.62	320.64	24.16	-27.6	-28.7	16.0	0.00e+00	0	43	102	1048576	16	4079
2026-01-24 11:18:45.63	320.79	24.03	-27.5	-28.5	16.1	0.00e+00	0	43	102	1048576	16	4030
2026-01-24 11:18:46.63	320.94	23.91	-27.6	-28.8	16.0	0.00e+00	0	43	102	1048576	16	4092
2026-01-24 11:18:47.64	321.10	23.78	-27.7	-28.8	16.0	7.00e-07	0	43	102	1048576	16	4098
2026-01-24 11:18:48.64	321.25	23.65	-27.7	-29.0	15.8	0.00e+00	0	43	102	1048576	16	4151
2026-01-24 11:18:49.64	321.40	23.52	-27.8	-29.1	15.8	0.00e+00	0	43	102	1048576	16	4185
2026-01-24 11:18:50.64	321.54	23.40	-27.9	-29.2	15.7	0.00e+00	0	43	102	1048576	16	4220
2026-01-24 11:18:51.65	321.69	23.27	-27.9	-29.3	15.7	0.00e+00	0	43	102	1048576	16	4231
2026-01-24 11:18:52.66	321.84	23.14	-27.8	-29.2	15.7	0.00e+00	0	43	102	1048576	16	4202
2026-01-24 11:18:53.66	321.98	23.02	-27.8	-29.2	15.7	0.00e+00	0	43	102	1048576	16	4210
2026-01-24 11:18:54.67	322.13	22.89	-27.8	-29.0	15.8	0.00e+00	0	43	102	1048576	16	4165
2026-01-24 11:18:55.67	322.27	22.77	-27.8	-29.1	15.8	0.00e+00	0	43	102	1048576	16	4180
2026-01-24 11:18:56.68	322.41	22.64	-28.0	-29.5	15.5	0.00e+00	0	43	102	1048576	16	4292
2026-01-24 11:18:57.68	322.55	22.52	-27.9	-29.4	15.6	0.00e+00	0	43	102	1048576	16	4267
2026-01-24 11:18:58.68	322.69	22.40	-27.9	-29.2	15.7	0.00e+00	0	43	102	1048576	16	4215
2026-01-24 11:18:59.69	322.83	22.27	-27.8	-29.2	15.7	0.00e+00	0	44	102	1048576	16	4206
2026-01-24 11:19:00.69	322.97	22.15	-27.9	-29.4	15.6	0.00e+00	0	43	102	1048576	16	4271
2026-01-24 11:19:01.70	323.11	22.03	-27.9	-29.4	15.5	0.00e+00	0	43	102	1048576	16	4279
2026-01-24 11:19:02.71	323.24	21.90	-28.0	-29.5	15.5	0.00e+00	0	43	102	1048576	16	4302
2026-01-24 11:19:03.71	323.38	21.78	-27.9	-29.4	15.6	0.00e+00	0	44	102	1048576	16	4256
2026-01-24 11:19:04.72	323.51	21.66	-28.0	-29.5	15.5	0.00e+00	0	43	102	1048576	16	4288
2026-01-24 11:19:05.72	323.64	21.54	-28.0	-29.6	15.4	0.00e+00	0	43	102	1048576	16	4328
2026-01-24 11:19:06.73	323.77	21.42	-28.0	-29.5	15.5	0.00e+00	0	43	102	1048576	16	4308
2026-01-24 11:19:07.73	323.90	21.30	-27.9	-29.4	15.6	0.00e+00	0	43	102	1048576	16	4271
2026-01-24 11:19:08.73	324.03	21.18	-28.1	-29.7	15.4	0.00e+00	0	43	102	1048576	16	4348
2026-01-24 11:19:09.73	324.16	21.06	-28.0	-29.5	15.5	0.00e+00	0	43	102	1048576	16	4282
2026-01-24 11:19:10.74	324.29	20.95	-27.8	-29.1	15.7	0.00e+00	0	43	102	1048576	16	4179
2026-01-24 11:19:11.74	324.42	20.83	-27.7	-29.0	15.7	0.00e+00	0	43	102	1048576	16	4158
2026-01-24 11:19:12.75	324.54	20.71	-27.8	-29.1	15.7	0.00e+00	0	43	102	1048576	16	4187
2026-01-24 11:19:13.74	324.66	20.59	-27.8	-29.1	15.7	0.00e+00	0	43	102	1048576	16	4194
2026-01-24 11:19:14.75	324.79	20.48	-27.9	-29.3	15.6	0.00e+00	0	43	102	1048576	16	4248
2026-01-24 11:19:15.76	324.91	20.36	-27.8	-29.1	15.7	0.00e+00	0	43	102	1048576	16	4190
2026-01-24 11:19:16.76	325.03	20.25	-27.7	-29.0	15.8	0.00e+00	0	43	102	1048576	16	4151
2026-01-24 11:19:17.76	325.15	20.13	-27.8	-29.1	15.7	0.00e+00	0	43	102	1048576	16	4183
2026-01-24 11:19:18.76	325.27	20.02	-27.8	-29.1	15.7	0.00e+00	0	43	102	1048576	16	4179
2026-01-24 11:19:19.77	325.39	19.90	-27.8	-29.1	15.7	0.00e+00	0	43	102	1048576	16	4172
2026-01-24 11:19:20.78	325.51	19.79	-27.7	-29.0	15.7	0.00e+00	0	43	102	1048576	16	4155
2026-01-24 11:19:21.78	325.63	19.67	-27.7	-28.9	15.8	0.00e+00	0	43	102	1048576	16	4123
2026-01-24 11:19:22.79	325.75	19.56	-27.7	-28.9	15.8	0.00e+00	0	44	102	1048576	16	4143
2026-01-24 11:19:23.79	325.86	19.45	-27.6	-28.8	15.9	0.00e+00	0	43	102	1048576	16	4094
2026-01-24 11:19:24.80	325.98	19.33	-27.5	-28.5	16.0	0.00e+00	0	43	102	1048576	16	4041
2026-01-24 11:19:25.80	326.09	19.22	-27.6	-28.7	15.9	0.00e+00	0	43	102	1048576	16	4068
2026-01-24 11:19:26.80	326.21	19.11	-27.5	-28.6	16.0	0.00e+00	0	43	102	1048576	16	4047
2026-01-24 11:19:27.80	326.32	19.00	-27.5	-28.5	16.0	0.00e+00	0	43	102	1048576	16	4021
2026-01-24 11:19:28.81	326.43	18.89	-27.6	-28.6	15.9	0.00e+00	0	43	102	1048576	16	4057
2026-01-24 11:19:29.81	326.54	18.78	-27.7	-28.9	15.7	0.00e+00	0	43	102	1048576	16	4135
2026-01-24 11:19:30.81	326.65	18.67	-27.6	-28.7	15.8	0.00e+00	0	43	102	1048576	16	4092
2026-01-24 11:19:31.81	326.76	18.56	-27.7	-29.0	15.7	0.00e+00	0	43	102	1048576	16	4150
2026-01-24 11:19:32.82	326.87	18.45	-27.7	-28.9	15.7	0.00e+00	0	44	102	1048576	16	4143
2026-01-24 11:19:33.82	326.98	18.34	-27.8	-29.2	15.6	0.00e+00	0	43	102	1048576	16	4206
2026-01-24 11:19:34.83	327.09	18.23	-27.8	-29.3	15.5	0.00e+00	0	43	102	1048576	16	4234
2026-01-24 11:19:35.83	327.19	18.12	-27.9	-29.3	15.5	0.00e+00	0	43	102	1048576	16	4241
2026-01-24 11:19:36.84	327.30	18.01	-28.0	-29.5	15.4	0.00e+00	0	43	102	1048576	16	4303
2026-01-24 11:19:37.85	327.41	17.91	-28.0	-29.5	15.4	0.00e+00	0	43	102	1048576	16	4310
2026-01-24 11:19:38.86	327.51	17.80	-28.1	-29.8	15.2	0.00e+00	0	43	102	1048576	16	4391
2026-01-24 11:19:39.86	327.62	17.69	-28.2	-30.0	15.1	0.00e+00	0	43	102	1048576	16	4430
2026-01-24 11:19:40.87	327.72	17.58	-28.2	-30.2	15.0	0.00e+00	0	43	102	1048576	16	4497
2026-01-24 11:19:41.87	327.82	17.48	-28.4	-30.6	14.8	0.00e+00	0	43	102	1048576	16	4612
2026-01-24 11:19:42.88	327.92	17.37	-28.4	-30.5	14.8	0.00e+00	0	43	102	1048576	16	4588
2026-01-24 11:19:43.89	328.03	17.27	-28.4	-30.5	14.8	0.00e+00	0	43	102	1048576	16	4594
2026-01-24 11:19:44.89	328.13	17.16	-28.4	-30.5	14.8	0.00e+00	0	43	102	1048576	16	4603
2026-01-24 11:19:45.90	328.23	17.06	-28.4	-30.6	14.8	7.00e-07	0	43	102	1048576	16	4619
2026-01-24 11:19:46.90	328.32	16.95	-28.6	-30.4	14.5	1.50e-06	0	43	102	1048576	17	4455
2026-01-24 11:19:47.91	328.42	16.85	-28.8	-30.9	14.2	1.50e-06	0	43	102	1048576	17	4607
2026-01-24 11:19:48.91	328.52	16.75	-28.6	-30.4	14.5	2.20e-06	0	43	102	1048576	17	4459
2026-01-24 11:19:49.91	328.62	16.64	-28.5	-30.2	14.7	0.00e+00	0	43	102	1048576	17	4400
2026-01-24 11:19:50.92	328.71	16.54	-28.5	-30.2	14.6	0.00e+00	0	43	102	1048576	17	4388
2026-01-24 11:19:51.93	328.81	16.44	-28.5	-30.3	14.6	7.00e-07	0	43	102	1048576	17	4412
2026-01-24 11:19:52.92	328.91	16.34	-28.7	-30.7	14.3	0.00e+00	0	43	102	1048576	17	4537
2026-01-24 11:19:53.92	329.00	16.24	-28.6	-30.5	14.4	0.00e+00	0	44	102	1048576	17	4484
2026-01-24 11:19:54.93	329.09	16.13	-28.9	-31.2	14.0	7.00e-07	0	43	102	1048576	17	4688
2026-01-24 11:19:55.94	329.19	16.03	-28.7	-30.7	14.3	2.20e-06	0	43	102	1048576	17	4548
2026-01-24 11:19:56.94	329.28	15.93	-28.5	-30.3	14.6	7.00e-07	0	43	102	1048576	17	4405
2026-01-24 11:19:57.95	329.37	15.83	-28.5	-30.2	14.6	0.00e+00	0	43	102	1048576	17	4393
2026-01-24 11:19:58.95	329.46	15.73	-28.6	-30.4	14.5	0.00e+00	0	43	102	1048576	17	4454
2026-01-24 11:19:59.95	329.56	15.63	-28.5	-30.2	14.6	0.00e+00	0	43	102	1048576	17	4396
2026-01-24 11:20:00.95	329.65	15.54	-28.5	-30.2	14.5	0.00e+00	0	43	102	1048576	17	4401
2026-01-24 11:20:01.95	329.74	15.44	-28.5	-30.2	14.6	6.80e-06	0	43	102	1048576	17	4391
2026-01-24 11:20:02.96	329.83	15.34	-28.6	-30.5	14.4	0.00e+00	0	43	102	1048576	17	4479
2026-01-24 11:20:03.96	329.91	15.24	-28.5	-30.3	14.5	1.50e-06	0	43	102	1048576	17	4430
2026-01-24 11:20:04.96	330.00	15.14	-28.5	-30.2	14.6	0.00e+00	0	43	102	1048576	17	4402
2026-01-24 11:20:05.96	330.09	15.05	-28.5	-30.2	14.6	0.00e+00	0	43	102	1048576	17	4404
2026-01-24 11:20:06.96	330.18	14.95	-28.6	-30.6	14.3	7.00e-07	0	43	102	1048576	17	4509
2026-01-24 11:20:07.97	330.26	14.85	-28.5	-30.3	14.5	0.00e+00	0	43	102	1048576	17	4417
2026-01-24 11:20:08.98	330.35	14.75	-28.5	-30.2	14.6	0.00e+00	0	43	102	1048576	17	4397
2026-01-24 11:20:09.98	330.44	14.66	-28.5	-30.2	14.6	7.00e-07	0	43	102	1048576	17	4382
2026-01-24 11:20:10.98	330.52	14.56	-28.6	-30.5	14.4	1.50e-06	0	43	102	1048576	17	4492
2026-01-24 11:20:11.99	330.61	14.47	-28.5	-30.3	14.5	1.50e-06	0	43	102	1048576	17	4430
2026-01-24 11:20:12.99	330.69	14.37	-28.6	-30.4	14.4	0.00e+00	0	43	102	1048576	17	4463
2026-01-24 11:20:14.00	330.77	14.28	-28.8	-31.0	14.1	0.00e+00	0	43	102	1048576	17	4633
2026-01-24 11:20:15.01	330.86	14.18	-28.7	-30.8	14.2	0.00e+00	0	43	102	1048576	17	4572
2026-01-24 11:20:16.01	330.94	14.09	-28.6	-30.6	14.3	7.00e-07	0	43	102	1048576	17	4524
2026-01-24 11:20:17.01	331.02	14.00	-28.7	-30.7	14.2	1.50e-06	0	43	102	1048576	17	4558
2026-01-24 11:20:18.02	331.10	13.90	-28.7	-30.8	14.1	7.00e-07	0	43	102	1048576	17	4588
2026-01-24 11:20:19.02	331.18	13.81	-28.8	-30.9	14.1	7.00e-07	0	43	102	1048576	17	4606
2026-01-24 11:20:20.01	331.26	13.72	-28.8	-30.9	14.1	1.50e-06	0	43	102	1048576	17	4620
2026-01-24 11:20:21.02	331.34	13.62	-28.8	-31.1	14.0	3.80e-06	0	43	102	1048576	17	4656
2026-01-24 11:20:22.03	331.42	13.53	-28.8	-31.0	14.1	7.00e-07	0	43	102	1048576	17	4629
2026-01-24 11:20:23.03	331.50	13.44	-28.9	-31.3	13.8	4.50e-06	0	43	102	1048576	17	4744
2026-01-24 11:20:24.04	331.58	13.35	-28.9	-31.3	13.8	3.00e-06	0	43	102	1048576	17	4743
2026-01-24 11:20:25.05	331.66	13.25	-29.0	-31.0	13.8	2.20e-06	0	43	102	1048576	18	4519
2026-01-24 11:20:26.05	331.74	13.16	-29.1	-31.2	13.6	3.00e-06	0	43	102	1048576	18	4604
2026-01-24 11:20:27.06	331.82	13.07	-29.1	-31.2	13.6	8.30e-06	0	43	102	1048576	18	4593
2026-01-24 11:20:28.06	331.89	12.98	-29.1	-31.2	13.6	9.90e-06	0	43	102	1048576	18	4582
2026-01-24 11:20:29.07	331.97	12.89	-29.2	-31.6	13.4	1.22e-05	0	43	102	1048576	18	4714
2026-01-24 11:20:30.08	332.05	12.80	-29.1	-31.2	13.6	7.60e-06	0	43	102	1048576	18	4604
2026-01-24 11:20:31.08	332.12	12.71	-29.1	-31.2	13.6	5.30e-06	0	43	102	1048576	18	4594
2026-01-24 11:20:32.08	332.20	12.62	-29.1	-31.3	13.5	3.80e-06	0	43	102	1048576	18	4638
2026-01-24 11:20:33.08	332.27	12.53	-29.1	-31.3	13.5	1.14e-05	0	43	102	1048576	18	4610
2026-01-24 11:20:34.09	332.35	12.44	-29.2	-31.5	13.4	1.52e-05	0	43	102	1048576	18	4693
2026-01-24 11:20:35.09	332.42	12.36	-29.1	-31.2	13.5	9.10e-06	0	43	102	1048576	18	4603
2026-01-24 11:20:36.08	332.49	12.27	-29.1	-31.3	13.5	3.80e-06	0	43	102	1048576	18	4632
2026-01-24 11:20:37.09	332.57	12.18	-29.2	-31.5	13.4	1.75e-05	0	43	102	1048576	18	4680
2026-01-24 11:20:38.10	332.64	12.09	-29.2	-31.5	13.4	1.22e-05	0	44	102	1048576	18	4678
2026-01-24 11:20:39.10	332.71	12.01	-29.3	-31.7	13.3	2.36e-05	0	43	102	1048576	18	4757
2026-01-24 11:20:40.10	332.78	11.92	-29.1	-31.4	13.5	1.44e-05	0	44	102	1048576	18	4654
2026-01-24 11:20:41.10	332.85	11.83	-29.1	-31.4	13.4	1.60e-05	0	43	102	1048576	18	4654
2026-01-24 11:20:42.11	332.93	11.75	-29.2	-31.6	13.3	1.83e-05	0	43	102	1048576	18	4717
2026-01-24 11:20:43.11	333.00	11.66	-29.1	-31.3	13.4	1.37e-05	0	43	102	1048576	18	4638
2026-01-24 11:20:44.11	333.07	11.57	-29.1	-31.4	13.4	9.10e-06	0	43	102	1048576	18	4644
2026-01-24 11:20:45.12	333.14	11.49	-29.2	-31.5	13.3	8.30e-06	0	43	102	1048576	18	4691
2026-01-24 11:20:46.11	333.21	11.40	-29.3	-31.7	13.2	2.74e-05	0	43	102	1048576	18	4763
2026-01-24 11:20:47.12	333.28	11.32	-29.2	-31.6	13.3	1.98e-05	0	43	102	1048576	18	4733
2026-01-24 11:20:48.12	333.34	11.23	-29.3	-31.8	13.1	3.05e-05	0	43	102	1048576	18	4783
2026-01-24 11:20:49.13	333.41	11.15	-29.3	-31.8	13.1	3.12e-05	0	43	102	1048576	18	4793
2026-01-24 11:20:50.13	333.48	11.06	-29.3	-31.6	13.2	2.05e-05	0	43	102	1048576	18	4741
2026-01-24 11:20:51.14	333.55	10.98	-29.3	-31.8	13.1	2.97e-05	0	43	102	1048576	18	4788
2026-01-24 11:20:52.14	333.62	10.89	-29.3	-31.9	13.1	2.36e-05	0	43	102	1048576	18	4820
2026-01-24 11:20:53.14	333.68	10.81	-29.4	-32.0	13.0	3.89e-05	0	43	102	1048576	18	4877
2026-01-24 11:20:54.15	333.75	10.73	-29.3	-31.8	13.2	2.59e-05	0	43	102	1048576	18	4781
2026-01-24 11:20:55.15	333.82	10.64	-29.3	-31.8	13.1	2.13e-05	0	43	102	1048576	18	4782
2026-01-24 11:20:56.15	333.88	10.56	-29.3	-31.7	13.2	2.59e-05	0	43	102	1048576	18	4762
2026-01-24 11:20:57.16	333.95	10.48	-29.3	-31.7	13.1	3.28e-05	0	43	102	1048576	18	4778
2026-01-24 11:20:58.16	334.01	10.40	-29.4	-32.0	13.0	4.95e-05	0	44	102	1048576	18	4845
2026-01-24 11:20:59.16	334.08	10.31	-29.3	-31.7	13.1	2.51e-05	0	43	102	1048576	18	4765
2026-01-24 11:21:00.17	334.14	10.23	-29.2	-31.6	13.2	2.67e-05	0	43	102	1048576	18	4724
2026-01-24 11:21:01.17	334.21	10.15	-29.2	-31.6	13.2	1.83e-05	0	43	102	1048576	18	4748
2026-01-24 11:21:02.17	334.27	10.07	-29.3	-31.7	13.2	2.51e-05	0	43	102	1048576	18	4755
2026-01-24 11:21:03.18	334.33	9.99	-29.3	-31.9	13.0	3.89e-05	0	43	102	1048576	18	4842
2026-01-24 11:21:04.19	334.40	9.91	-29.2	-31.6	13.2	3.58e-05	0	44	102	1048576	18	4746
2026-01-24 11:21:05.19	334.46	9.83	-29.2	-31.6	13.2	1.60e-05	0	43	102	1048576	18	4727
2026-01-24 11:21:06.19	334.52	9.75	-29.3	-31.8	13.0	3.28e-05	0	43	102	1048576	18	4786
2026-01-24 11:21:07.19	334.59	9.67	-29.3	-31.7	13.1	3.81e-05	0	43	102	1048576	18	4773
2026-01-24 11:21:08.20	334.65	9.59	-29.4	-31.9	12.9	4.80e-05	0	43	102	1048576	18	4854
2026-01-24 11:21:09.20	334.71	9.51	-29.3	-31.9	13.0	5.87e-05	0	43	102	1048576	18	4834
2026-01-24 11:21:10.21	334.77	9.43	-29.3	-31.8	13.0	3.96e-05	0	43	102	1048576	18	4783
2026-01-24 11:21:11.21	334.83	9.35	-29.5	-31.9	12.6	9.53e-05	0	43	102	1048576	19	4717
2026-01-24 11:21:12.22	334.89	9.27	-29.4	-31.7	12.8	6.86e-05	0	43	102	1048576	19	4646
2026-01-24 11:21:13.22	334.95	9.19	-29.4	-31.5	12.8	5.18e-05	0	44	102	1048576	19	4613
2026-01-24 11:21:14.23	335.01	9.11	-29.5	-31.9	12.6	8.77e-05	0	43	102	1048576	19	4735
2026-01-24 11:21:15.24	335.07	9.03	-29.5	-31.7	12.7	6.10e-05	0	43	102	1048576	19	4665
2026-01-24 11:21:16.24	335.13	8.95	-29.6	-32.1	12.5	9.30e-05	0	43	102	1048576	19	4783
2026-01-24 11:21:17.25	335.19	8.87	-29.5	-31.8	12.6	9.76e-05	0	43	102	1048576	19	4702
2026-01-24 11:21:18.26	335.25	8.80	-29.6	-32.1	12.5	1.18e-04	0	43	102	1048576	19	4787
2026-01-24 11:21:19.26	335.31	8.72	-29.7	-32.3	12.3	2.12e-04	0	44	102	1048576	19	4878
2026-01-24 11:21:20.26	335.37	8.64	-29.7	-32.4	12.2	1.97e-04	0	43	102	1048576	19	4907
2026-01-24 11:21:21.27	335.43	8.56	-29.7	-32.4	12.2	2.05e-04	0	43	102	1048576	19	4911
2026-01-24 11:21:22.28	335.49	8.49	-29.8	-32.6	12.1	2.37e-04	0	43	102	1048576	19	4966
2026-01-24 11:21:23.28	335.54	8.41	-29.8	-32.7	12.0	3.80e-04	0	43	102	1048576	19	4992
2026-01-24 11:21:24.27	335.60	8.33	-29.8	-32.6	12.1	3.42e-04	0	43	102	1048576	19	4973
2026-01-24 11:21:25.27	335.66	8.26	-29.9	-32.9	11.9	3.63e-04	0	44	102	1048576	19	5063
2026-01-24 11:21:26.28	335.71	8.18	-29.9	-32.9	11.9	4.52e-04	0	43	102	1048576	19	5068
2026-01-24 11:21:27.29	335.77	8.11	-29.8	-32.7	11.9	3.06e-04	0	43	102	1048576	19	5026
2026-01-24 11:21:28.30	335.83	8.03	-30.0	-32.8	11.5	7.31e-04	0	43	102	1048576	20	4946
2026-01-24 11:21:29.31	335.88	7.95	-29.8	-32.2	11.9	3.91e-04	0	43	102	1048576	20	4740
2026-01-24 11:21:30.31	335.94	7.88	-29.7	-31.9	12.1	2.84e-04	0	43	102	1048576	20	4632
