passes_logs/2026/01/24/R2M6_AANII_01/R2M6_AANII_01__20260124_042444_FENGYUN_3D_rec.log

#Pass ID: 20260124_042444_FENGYUN 3D
#Satellite: FENGYUN 3D
#Configuration: FENGYUN 3D
#almurnet v.1.7.20240730
#Start time: 2026-01-24 04:24:45

#Version: 2.2.20231116
#Station: R2M6_AANII_01
#Location: 30.233357 lon 59.946436 lat
#TLE: 1 43010U 17072A   26022.96745493  .00000490  00000+0  25355-3 0  9999
#TLE: 2 43010  98.9955 354.9072 0002484  95.6139 264.5320 14.19700039424383

#Time	Az	El	Level	Level2	SNR	BER	BlckErr	Temp	State	Recorded	gain1	gain2
2026-01-24 04:24:45.95	10.70	7.12	-30.7	-34.8	5.1	7.93e-01	0	42	0	0	21	5765
2026-01-24 04:24:46.95	10.60	7.19	-30.6	-34.5	5.2	7.91e-01	0	42	104	0	21	5606
2026-01-24 04:24:47.95	10.51	7.25	-30.7	-34.5	8.5	4.65e-02	0	42	0	0	21	5611
2026-01-24 04:24:48.95	10.42	7.31	-30.9	-35.3	8.0	7.04e-02	0	42	102	1048576	21	5946
2026-01-24 04:24:49.95	10.32	7.38	-30.8	-35.0	8.2	7.62e-02	0	42	102	1048576	21	5826
2026-01-24 04:24:50.95	10.23	7.44	-30.8	-35.1	8.1	6.49e-02	0	42	102	1048576	21	5853
2026-01-24 04:24:51.96	10.13	7.51	-30.4	-33.8	9.0	4.49e-02	0	42	102	1048576	21	5301
2026-01-24 04:24:52.97	10.04	7.57	-30.1	-33.2	9.8	1.71e-02	0	42	102	1048576	20	5153
2026-01-24 04:24:53.97	9.94	7.63	-30.4	-34.1	9.2	1.73e-02	0	42	102	1048576	20	5517
2026-01-24 04:24:54.98	9.85	7.70	-30.0	-32.9	10.0	1.34e-02	0	42	102	1048576	20	5055
2026-01-24 04:24:55.99	9.75	7.76	-29.6	-32.4	10.7	5.62e-03	0	42	102	1048576	19	4975
2026-01-24 04:24:56.99	9.65	7.83	-29.1	-31.2	11.6	1.49e-03	0	42	102	1048576	19	4551
2026-01-24 04:24:57.99	9.55	7.89	-28.7	-30.5	12.3	1.39e-03	0	42	102	1048576	18	4455
2026-01-24 04:24:58.99	9.46	7.96	-28.4	-30.3	12.8	1.43e-04	0	42	102	1048576	17	4480
2026-01-24 04:25:00.00	9.36	8.02	-28.1	-29.5	13.2	4.23e-05	0	42	102	1048576	17	4272
2026-01-24 04:25:01.00	9.26	8.09	-27.9	-29.7	13.5	6.52e-04	0	42	102	1048576	16	4423
2026-01-24 04:25:02.00	9.16	8.15	-27.8	-29.9	13.4	5.86e-04	0	42	102	1048576	15	4616
2026-01-24 04:25:03.00	9.06	8.22	-27.5	-29.3	13.8	8.00e-06	0	42	102	1048576	15	4440
2026-01-24 04:25:04.01	8.96	8.28	-27.4	-29.0	14.0	4.10e-04	0	42	102	1048576	15	4341
2026-01-24 04:25:05.01	8.86	8.35	-27.4	-29.5	14.0	4.77e-04	0	42	102	1048576	14	4597
2026-01-24 04:25:06.02	8.76	8.41	-27.4	-29.5	14.0	4.50e-06	0	42	102	1048576	14	4586
2026-01-24 04:25:07.02	8.65	8.48	-27.5	-29.7	13.9	5.37e-04	0	42	102	1048576	14	4656
2026-01-24 04:25:08.03	8.55	8.55	-27.3	-29.2	14.2	4.45e-04	0	42	102	1048576	14	4521
2026-01-24 04:25:09.03	8.45	8.61	-27.4	-29.5	14.0	3.40e-06	0	42	102	1048576	14	4597
2026-01-24 04:25:10.03	8.35	8.68	-27.8	-29.9	13.5	3.74e-04	0	42	102	1048576	15	4605
2026-01-24 04:25:11.03	8.24	8.74	-27.4	-29.0	14.1	3.57e-04	0	42	102	1048576	15	4326
2026-01-24 04:25:12.03	8.14	8.81	-27.2	-28.7	14.2	3.40e-06	0	43	102	1048576	15	4253
2026-01-24 04:25:13.03	8.03	8.87	-27.1	-28.9	14.4	1.10e-06	0	42	102	1048576	14	4431
2026-01-24 04:25:14.03	7.93	8.94	-27.2	-29.1	14.3	3.15e-04	0	43	102	1048576	14	4477
2026-01-24 04:25:15.03	7.82	9.01	-27.3	-29.3	14.2	3.40e-06	0	43	102	1048576	14	4541
2026-01-24 04:25:16.04	7.72	9.07	-27.2	-29.2	14.3	3.07e-04	0	42	102	1048576	14	4490
2026-01-24 04:25:17.04	7.61	9.14	-27.4	-29.4	14.1	2.48e-04	0	43	102	1048576	14	4572
2026-01-24 04:25:18.05	7.50	9.20	-27.5	-29.3	13.9	4.50e-06	0	43	102	1048576	15	4433
2026-01-24 04:25:19.05	7.40	9.27	-27.3	-28.9	14.1	2.02e-04	0	42	102	1048576	15	4299
2026-01-24 04:25:20.06	7.29	9.34	-27.2	-28.6	14.3	1.10e-06	0	43	102	1048576	15	4223
2026-01-24 04:25:21.06	7.18	9.40	-27.2	-28.6	14.3	2.20e-06	0	43	102	1048576	15	4236
2026-01-24 04:25:22.07	7.07	9.47	-27.2	-29.0	14.4	0.00e+00	0	43	102	1048576	14	4450
2026-01-24 04:25:23.07	6.96	9.54	-27.1	-28.9	14.5	2.20e-06	0	43	102	1048576	14	4409
2026-01-24 04:25:24.08	6.85	9.61	-27.1	-28.9	14.4	1.10e-06	0	43	102	1048576	14	4430
2026-01-24 04:25:25.09	6.74	9.67	-27.0	-28.6	14.7	0.00e+00	0	43	102	1048576	14	4334
2026-01-24 04:25:26.09	6.63	9.74	-27.1	-28.8	14.6	1.73e-04	0	43	102	1048576	14	4388
2026-01-24 04:25:27.10	6.51	9.81	-27.0	-28.7	14.6	1.10e-06	0	43	102	1048576	14	4359
2026-01-24 04:25:28.10	6.40	9.87	-27.2	-29.0	14.5	1.77e-04	0	43	102	1048576	14	4430
2026-01-24 04:25:29.10	6.29	9.94	-27.2	-29.1	14.4	0.00e+00	0	43	102	1048576	14	4466
2026-01-24 04:25:30.10	6.18	10.01	-27.1	-28.9	14.5	1.10e-06	0	43	102	1048576	14	4422
2026-01-24 04:25:31.11	6.06	10.08	-27.2	-29.0	14.4	3.40e-06	0	43	102	1048576	14	4433
2026-01-24 04:25:32.11	5.95	10.14	-27.3	-29.4	14.2	3.40e-06	0	43	102	1048576	14	4552
2026-01-24 04:25:33.11	5.83	10.21	-27.3	-29.2	14.3	2.20e-06	0	43	102	1048576	14	4503
2026-01-24 04:25:34.11	5.72	10.28	-27.2	-29.1	14.4	2.20e-06	0	43	102	1048576	14	4477
2026-01-24 04:25:35.12	5.60	10.35	-27.4	-29.4	14.2	2.20e-06	0	43	102	1048576	14	4571
2026-01-24 04:25:36.12	5.48	10.41	-27.2	-29.0	14.4	2.20e-06	0	43	102	1048576	14	4446
2026-01-24 04:25:37.12	5.37	10.48	-27.0	-28.6	14.7	2.20e-06	0	43	102	1048576	14	4333
2026-01-24 04:25:38.13	5.25	10.55	-26.9	-28.4	14.8	0.00e+00	0	43	102	1048576	14	4266
2026-01-24 04:25:39.13	5.13	10.62	-27.0	-28.5	14.7	0.00e+00	0	43	102	1048576	14	4305
2026-01-24 04:25:40.14	5.01	10.68	-26.8	-28.6	14.9	0.00e+00	0	43	102	1048576	13	4444
2026-01-24 04:25:41.14	4.89	10.75	-26.8	-28.6	15.0	0.00e+00	0	43	102	1048576	13	4430
2026-01-24 04:25:42.14	4.77	10.82	-26.8	-28.7	14.9	0.00e+00	0	43	102	1048576	13	4467
2026-01-24 04:25:43.15	4.65	10.89	-26.8	-28.6	15.0	0.00e+00	0	43	102	1048576	13	4433
2026-01-24 04:25:44.15	4.53	10.96	-26.7	-28.4	15.1	1.10e-06	0	43	102	1048576	13	4392
2026-01-24 04:25:45.16	4.41	11.03	-26.8	-28.7	14.9	1.10e-06	0	43	102	1048576	13	4457
2026-01-24 04:25:46.16	4.28	11.09	-26.7	-28.5	15.0	0.00e+00	0	43	102	1048576	13	4407
2026-01-24 04:25:47.16	4.16	11.16	-26.7	-28.4	15.1	1.10e-06	0	43	102	1048576	13	4396
2026-01-24 04:25:48.17	4.04	11.23	-26.7	-28.5	15.1	0.00e+00	0	43	102	1048576	13	4398
2026-01-24 04:25:49.17	3.91	11.30	-26.6	-28.2	15.2	0.00e+00	0	43	102	1048576	13	4337
2026-01-24 04:25:50.17	3.79	11.37	-26.6	-28.3	15.2	1.10e-06	0	43	102	1048576	13	4342
2026-01-24 04:25:51.17	3.66	11.44	-26.7	-28.4	15.1	0.00e+00	0	43	102	1048576	13	4380
2026-01-24 04:25:52.17	3.54	11.50	-26.8	-28.5	15.0	0.00e+00	0	43	102	1048576	13	4423
2026-01-24 04:25:53.18	3.41	11.57	-26.6	-28.2	15.2	0.00e+00	0	43	102	1048576	13	4319
2026-01-24 04:25:54.18	3.28	11.64	-26.5	-28.0	15.4	0.00e+00	0	43	102	1048576	13	4270
2026-01-24 04:25:55.18	3.16	11.71	-26.5	-28.1	15.3	0.00e+00	0	43	102	1048576	13	4285
2026-01-24 04:25:56.18	3.03	11.78	-26.5	-28.0	15.4	0.00e+00	0	43	102	1048576	13	4255
2026-01-24 04:25:57.19	2.90	11.85	-26.5	-28.0	15.4	0.00e+00	0	43	102	1048576	13	4275
2026-01-24 04:25:58.20	2.77	11.92	-26.4	-27.8	15.5	0.00e+00	0	43	102	1048576	13	4217
2026-01-24 04:25:59.20	2.64	11.99	-26.5	-28.0	15.4	0.00e+00	0	43	102	1048576	13	4270
2026-01-24 04:26:00.20	2.51	12.06	-26.5	-27.9	15.4	0.00e+00	0	43	102	1048576	13	4250
2026-01-24 04:26:01.21	2.38	12.13	-26.5	-27.9	15.5	0.00e+00	0	43	102	1048576	13	4229
2026-01-24 04:26:02.21	2.24	12.19	-26.4	-27.8	15.5	0.00e+00	0	43	102	1048576	13	4216
2026-01-24 04:26:03.21	2.11	12.26	-26.5	-27.9	15.5	0.00e+00	0	43	102	1048576	13	4238
2026-01-24 04:26:04.20	1.98	12.33	-26.4	-27.7	15.6	0.00e+00	0	43	102	1048576	13	4183
2026-01-24 04:26:05.21	1.84	12.40	-26.4	-28.3	15.5	1.10e-06	0	43	102	1048576	12	4467
2026-01-24 04:26:06.21	1.71	12.47	-26.4	-28.3	15.5	0.00e+00	0	43	102	1048576	12	4476
2026-01-24 04:26:07.22	1.57	12.54	-26.5	-28.0	15.4	0.00e+00	0	43	102	1048576	13	4257
2026-01-24 04:26:08.22	1.44	12.61	-26.6	-28.2	15.3	0.00e+00	0	43	102	1048576	13	4318
2026-01-24 04:26:09.23	1.30	12.68	-26.5	-27.9	15.5	0.00e+00	0	43	102	1048576	13	4249
2026-01-24 04:26:10.23	1.16	12.75	-26.5	-27.9	15.5	0.00e+00	0	43	102	1048576	13	4232
2026-01-24 04:26:11.23	1.03	12.82	-26.4	-27.8	15.5	0.00e+00	0	43	102	1048576	13	4213
2026-01-24 04:26:12.24	0.89	12.89	-26.3	-27.6	15.6	0.00e+00	0	43	102	1048576	13	4168
2026-01-24 04:26:13.25	0.75	12.96	-26.3	-28.0	15.7	0.00e+00	0	43	102	1048576	12	4376
2026-01-24 04:26:14.26	0.60	13.03	-26.2	-27.7	15.8	0.00e+00	0	44	102	1048576	12	4307
2026-01-24 04:26:15.26	0.46	13.10	-26.3	-27.9	15.8	0.00e+00	0	44	102	1048576	12	4360
2026-01-24 04:26:16.27	0.32	13.17	-26.1	-27.6	16.0	0.00e+00	0	43	102	1048576	12	4262
2026-01-24 04:26:17.27	0.18	13.24	-26.1	-27.5	16.0	0.00e+00	0	44	102	1048576	12	4250
2026-01-24 04:26:18.27	0.04	13.31	-26.1	-27.5	16.0	3.23e-04	0	43	102	1048576	12	4240
2026-01-24 04:26:19.28	359.89	13.38	-26.0	-27.4	16.1	0.00e+00	0	43	102	1048576	12	4222
2026-01-24 04:26:20.28	359.75	13.45	-26.1	-27.6	16.0	0.00e+00	0	44	102	1048576	12	4264
2026-01-24 04:26:21.29	359.60	13.52	-26.2	-27.7	15.9	0.00e+00	0	44	102	1048576	12	4299
2026-01-24 04:26:22.29	359.46	13.59	-26.0	-27.3	16.1	0.00e+00	0	43	102	1048576	12	4182
2026-01-24 04:26:23.30	359.31	13.66	-26.0	-27.3	16.2	0.00e+00	0	44	102	1048576	12	4189
2026-01-24 04:26:24.30	359.16	13.73	-26.0	-27.4	16.1	0.00e+00	0	43	102	1048576	12	4224
2026-01-24 04:26:25.30	359.02	13.80	-26.0	-27.2	16.2	3.12e-04	0	43	102	1048576	12	4170
2026-01-24 04:26:26.31	358.87	13.87	-25.9	-27.1	16.3	0.00e+00	0	43	102	1048576	12	4146
2026-01-24 04:26:27.31	358.72	13.94	-26.0	-27.3	16.2	3.87e-04	0	43	102	1048576	12	4175
2026-01-24 04:26:28.31	358.57	14.01	-26.0	-27.4	16.1	5.60e-04	0	44	102	1048576	12	4202
2026-01-24 04:26:29.32	358.42	14.08	-26.1	-27.6	16.0	0.00e+00	0	44	102	1048576	12	4280
2026-01-24 04:26:30.32	358.27	14.15	-26.0	-27.4	16.1	6.55e-04	0	44	102	1048576	12	4208
2026-01-24 04:26:31.33	358.11	14.22	-26.0	-27.4	16.2	0.00e+00	0	44	102	1048576	12	4204
2026-01-24 04:26:32.33	357.96	14.29	-26.0	-27.4	16.1	0.00e+00	0	44	102	1048576	12	4209
2026-01-24 04:26:33.34	357.81	14.36	-26.0	-27.3	16.2	5.37e-04	0	44	102	1048576	12	4188
2026-01-24 04:26:34.35	357.65	14.43	-26.0	-27.3	16.2	6.14e-04	0	43	102	1048576	12	4184
2026-01-24 04:26:35.35	357.50	14.50	-25.9	-27.2	16.3	0.00e+00	0	44	102	1048576	12	4152
2026-01-24 04:26:36.36	357.34	14.57	-25.9	-27.1	16.3	5.68e-04	0	44	102	1048576	12	4128
2026-01-24 04:26:37.36	357.18	14.64	-25.9	-27.5	16.4	6.06e-04	0	44	102	1048576	11	4354
2026-01-24 04:26:38.37	357.02	14.71	-25.8	-27.5	16.5	0.00e+00	0	44	102	1048576	11	4338
2026-01-24 04:26:39.38	356.87	14.78	-25.8	-27.3	16.5	5.45e-04	0	44	102	1048576	11	4298
2026-01-24 04:26:40.38	356.71	14.85	-25.7	-27.2	16.6	6.37e-04	0	44	102	1048576	11	4271
2026-01-24 04:26:41.38	356.55	14.92	-25.7	-27.2	16.6	0.00e+00	0	43	102	1048576	11	4277
2026-01-24 04:26:42.39	356.39	14.99	-25.7	-27.2	16.6	7.00e-04	0	44	102	1048576	11	4281
2026-01-24 04:26:43.38	356.23	15.05	-25.8	-27.3	16.6	7.28e-04	0	44	102	1048576	11	4302
2026-01-24 04:26:44.39	356.06	15.12	-25.7	-27.2	16.6	0.00e+00	0	44	102	1048576	11	4261
2026-01-24 04:26:45.39	355.90	15.19	-25.7	-27.1	16.7	0.00e+00	0	44	102	1048576	11	4255
2026-01-24 04:26:46.40	355.74	15.26	-25.7	-27.1	16.7	7.16e-04	0	44	102	1048576	11	4249
2026-01-24 04:26:47.40	355.57	15.33	-25.7	-27.2	16.6	0.00e+00	0	44	102	1048576	11	4264
2026-01-24 04:26:48.41	355.41	15.40	-25.7	-27.2	16.6	6.80e-04	0	44	102	1048576	11	4266
2026-01-24 04:26:49.41	355.24	15.47	-25.8	-27.5	16.5	0.00e+00	0	44	102	1048576	11	4340
2026-01-24 04:26:50.42	355.07	15.54	-25.9	-27.5	16.4	0.00e+00	0	44	102	1048576	11	4350
2026-01-24 04:26:51.42	354.91	15.61	-25.8	-27.3	16.6	7.29e-04	0	44	102	1048576	11	4291
2026-01-24 04:26:52.43	354.74	15.68	-25.6	-27.0	16.7	0.00e+00	0	44	102	1048576	11	4227
2026-01-24 04:26:53.43	354.57	15.75	-25.6	-27.0	16.8	0.00e+00	0	44	102	1048576	11	4223
2026-01-24 04:26:54.43	354.40	15.82	-25.7	-27.1	16.7	0.00e+00	0	44	102	1048576	11	4249
2026-01-24 04:26:55.44	354.23	15.89	-25.7	-27.1	16.7	0.00e+00	0	44	102	1048576	11	4236
2026-01-24 04:26:56.45	354.06	15.96	-25.7	-27.2	16.7	0.00e+00	0	44	102	1048576	11	4265
2026-01-24 04:26:57.45	353.88	16.03	-25.7	-27.2	16.6	0.00e+00	0	44	102	1048576	11	4272
2026-01-24 04:26:58.46	353.71	16.10	-25.6	-26.9	16.8	0.00e+00	0	44	102	1048576	11	4180
2026-01-24 04:26:59.46	353.54	16.16	-25.6	-26.9	16.8	0.00e+00	0	44	102	1048576	11	4182
2026-01-24 04:27:00.46	353.36	16.23	-25.6	-26.9	16.9	0.00e+00	0	44	102	1048576	11	4176
2026-01-24 04:27:01.47	353.19	16.30	-25.5	-26.7	16.9	0.00e+00	0	44	102	1048576	11	4141
2026-01-24 04:27:02.47	353.01	16.37	-25.6	-26.9	16.8	0.00e+00	0	44	102	1048576	11	4194
2026-01-24 04:27:03.48	352.83	16.44	-25.7	-27.0	16.8	0.00e+00	0	44	102	1048576	11	4223
2026-01-24 04:27:04.49	352.65	16.51	-25.6	-26.8	16.9	0.00e+00	0	44	102	1048576	11	4171
2026-01-24 04:27:05.50	352.47	16.58	-25.6	-26.9	16.8	0.00e+00	0	44	102	1048576	11	4201
2026-01-24 04:27:06.50	352.29	16.65	-25.6	-27.0	16.8	0.00e+00	0	44	102	1048576	11	4224
2026-01-24 04:27:07.51	352.11	16.71	-25.6	-26.9	16.9	0.00e+00	0	44	102	1048576	11	4184
2026-01-24 04:27:08.52	351.93	16.78	-25.6	-26.8	16.9	0.00e+00	0	44	102	1048576	11	4175
2026-01-24 04:27:09.53	351.75	16.85	-25.5	-26.7	17.0	0.00e+00	0	44	102	1048576	11	4145
2026-01-24 04:27:10.53	351.56	16.92	-25.6	-26.9	16.9	0.00e+00	0	44	102	1048576	11	4187
2026-01-24 04:27:11.53	351.38	16.99	-25.5	-26.6	17.0	0.00e+00	0	44	102	1048576	11	4115
2026-01-24 04:27:12.53	351.20	17.05	-25.4	-27.1	17.0	0.00e+00	0	44	102	1048576	10	4342
2026-01-24 04:27:13.53	351.01	17.12	-25.3	-26.8	17.1	0.00e+00	0	44	102	1048576	10	4283
2026-01-24 04:27:14.54	350.82	17.19	-25.2	-26.6	17.3	0.00e+00	0	44	102	1048576	10	4211
2026-01-24 04:27:15.55	350.64	17.26	-25.2	-26.6	17.3	0.00e+00	0	44	102	1048576	10	4221
2026-01-24 04:27:16.54	350.45	17.32	-25.4	-26.9	17.1	0.00e+00	0	44	102	1048576	10	4300
2026-01-24 04:27:17.55	350.26	17.39	-25.3	-26.8	17.2	0.00e+00	0	44	102	1048576	10	4261
2026-01-24 04:27:18.55	350.07	17.46	-25.3	-26.7	17.3	0.00e+00	0	44	102	1048576	10	4238
2026-01-24 04:27:19.55	349.88	17.52	-25.3	-26.8	17.2	0.00e+00	0	44	102	1048576	10	4281
2026-01-24 04:27:20.55	349.69	17.59	-25.2	-26.6	17.3	0.00e+00	0	44	102	1048576	10	4218
2026-01-24 04:27:21.56	349.50	17.66	-25.0	-26.2	17.5	0.00e+00	0	44	102	1048576	10	4116
2026-01-24 04:27:22.57	349.30	17.72	-24.9	-26.0	17.6	0.00e+00	0	44	102	1048576	10	4069
2026-01-24 04:27:23.58	349.11	17.79	-25.0	-26.1	17.5	0.00e+00	0	44	102	1048576	10	4106
2026-01-24 04:27:24.58	348.91	17.85	-25.0	-26.2	17.5	0.00e+00	0	44	102	1048576	10	4129
2026-01-24 04:27:25.59	348.71	17.92	-25.0	-26.1	17.6	0.00e+00	0	44	102	1048576	10	4091
2026-01-24 04:27:26.60	348.52	17.99	-24.9	-26.0	17.6	0.00e+00	0	44	102	1048576	10	4074
2026-01-24 04:27:27.60	348.32	18.05	-25.1	-26.3	17.5	0.00e+00	0	44	102	1048576	10	4148
2026-01-24 04:27:28.61	348.12	18.12	-25.1	-26.3	17.5	0.00e+00	0	44	102	1048576	10	4143
2026-01-24 04:27:29.61	347.92	18.18	-25.0	-26.0	17.6	0.00e+00	0	44	102	1048576	10	4079
2026-01-24 04:27:30.61	347.72	18.25	-25.0	-26.1	17.6	0.00e+00	0	44	102	1048576	10	4099
2026-01-24 04:27:31.61	347.52	18.31	-25.0	-26.0	17.6	0.00e+00	0	44	102	1048576	10	4077
2026-01-24 04:27:32.62	347.32	18.38	-24.9	-25.8	17.7	0.00e+00	0	44	102	1048576	10	4025
2026-01-24 04:27:33.61	347.12	18.44	-24.8	-25.8	17.6	0.00e+00	0	44	102	1048576	10	4046
2026-01-24 04:27:34.62	346.91	18.50	-24.9	-25.9	17.7	0.00e+00	0	44	102	1048576	10	4035
2026-01-24 04:27:35.62	346.71	18.57	-24.8	-25.8	17.7	0.00e+00	0	44	102	1048576	10	4015
2026-01-24 04:27:36.62	346.50	18.63	-24.9	-25.9	17.7	0.00e+00	0	44	102	1048576	10	4050
2026-01-24 04:27:37.62	346.30	18.69	-24.9	-26.0	17.6	0.00e+00	0	44	102	1048576	10	4066
2026-01-24 04:27:38.63	346.09	18.76	-24.9	-25.9	17.7	0.00e+00	0	44	102	1048576	10	4049
2026-01-24 04:27:39.63	345.88	18.82	-24.9	-25.9	17.7	0.00e+00	0	44	102	1048576	10	4033
2026-01-24 04:27:40.63	345.68	18.88	-24.9	-25.8	17.7	0.00e+00	0	44	102	1048576	10	4026
2026-01-24 04:27:41.63	345.47	18.94	-24.8	-25.8	17.7	0.00e+00	0	44	102	1048576	10	4014
2026-01-24 04:27:42.64	345.25	19.01	-24.8	-25.7	17.8	0.00e+00	0	44	102	1048576	10	3996
2026-01-24 04:27:43.64	345.04	19.07	-24.7	-25.5	17.9	0.00e+00	0	44	102	1048576	10	3942
2026-01-24 04:27:44.65	344.83	19.13	-24.7	-25.4	17.9	0.00e+00	0	44	102	1048576	10	3929
2026-01-24 04:27:45.65	344.62	19.19	-24.7	-25.6	17.8	3.08e-05	0	44	102	1048576	10	3964
2026-01-24 04:27:46.66	344.40	19.25	-24.6	-25.4	18.0	0.00e+00	0	44	102	1048576	10	3914
2026-01-24 04:27:47.66	344.19	19.31	-24.6	-25.4	18.0	3.54e-05	0	44	102	1048576	10	3914
2026-01-24 04:27:48.66	343.97	19.37	-24.7	-25.4	17.9	1.83e-05	0	44	102	1048576	10	3933
2026-01-24 04:27:49.66	343.76	19.43	-24.8	-25.6	17.9	0.00e+00	0	44	102	1048576	10	3970
2026-01-24 04:27:50.67	343.54	19.49	-24.8	-25.6	17.8	0.00e+00	0	44	102	1048576	10	3978
2026-01-24 04:27:51.67	343.32	19.55	-24.8	-25.8	17.8	0.00e+00	0	44	102	1048576	10	4012
2026-01-24 04:27:52.67	343.10	19.61	-24.8	-25.7	17.8	0.00e+00	0	44	102	1048576	10	3994
2026-01-24 04:27:53.67	342.88	19.67	-24.8	-25.8	17.8	0.00e+00	0	44	102	1048576	10	4012
2026-01-24 04:27:54.68	342.66	19.73	-25.0	-26.2	17.5	0.00e+00	0	44	102	1048576	10	4110
2026-01-24 04:27:55.69	342.44	19.79	-24.9	-25.9	17.7	0.00e+00	0	44	102	1048576	10	4044
2026-01-24 04:27:56.68	342.22	19.85	-24.6	-25.3	18.0	0.00e+00	0	44	102	1048576	10	3890
2026-01-24 04:27:57.69	341.99	19.91	-24.4	-25.0	18.2	0.00e+00	0	44	102	1048576	10	3816
2026-01-24 04:27:58.69	341.77	19.96	-24.5	-25.1	18.1	0.00e+00	0	44	102	1048576	10	3848
2026-01-24 04:27:59.69	341.54	20.02	-24.5	-25.1	18.1	0.00e+00	0	44	102	1048576	10	3854
2026-01-24 04:28:00.70	341.31	20.08	-24.5	-25.1	18.1	0.00e+00	0	44	102	1048576	10	3854
2026-01-24 04:28:01.69	341.09	20.13	-24.7	-25.4	18.0	0.00e+00	0	44	102	1048576	10	3921
2026-01-24 04:28:02.70	340.86	20.19	-24.6	-25.3	18.0	0.00e+00	0	44	102	1048576	10	3902
2026-01-24 04:28:03.69	340.64	20.25	-24.6	-25.2	18.1	0.00e+00	0	44	102	1048576	10	3869
2026-01-24 04:28:04.69	340.41	20.30	-24.6	-25.2	18.1	0.00e+00	0	44	102	1048576	10	3881
2026-01-24 04:28:05.69	340.18	20.36	-24.7	-25.6	17.9	2.17e-05	0	44	102	1048576	10	3967
2026-01-24 04:28:06.69	339.95	20.41	-24.6	-25.3	18.0	5.03e-05	0	44	102	1048576	10	3911
2026-01-24 04:28:07.69	339.72	20.46	-24.5	-25.1	18.2	0.00e+00	0	44	102	1048576	10	3846
2026-01-24 04:28:08.70	339.48	20.52	-24.6	-25.2	18.1	1.60e-05	0	44	102	1048576	10	3877
2026-01-24 04:28:09.71	339.25	20.57	-24.5	-25.0	18.2	0.00e+00	0	44	102	1048576	10	3834
2026-01-24 04:28:10.71	339.01	20.63	-24.3	-24.7	18.4	0.00e+00	0	44	102	1048576	10	3756
2026-01-24 04:28:11.72	338.77	20.68	-24.4	-24.7	18.3	0.00e+00	0	44	102	1048576	10	3765
2026-01-24 04:28:12.72	338.54	20.73	-24.2	-25.0	18.4	0.00e+00	0	44	102	1048576	9	3939
2026-01-24 04:28:13.73	338.30	20.78	-24.3	-25.1	18.4	0.00e+00	0	44	102	1048576	9	3951
2026-01-24 04:28:14.73	338.06	20.84	-24.1	-24.8	18.5	1.41e-04	0	44	102	1048576	9	3890
2026-01-24 04:28:15.73	337.83	20.89	-24.0	-25.1	18.7	0.00e+00	0	44	102	1048576	8	4064
2026-01-24 04:28:16.73	337.59	20.94	-24.1	-25.1	18.6	0.00e+00	0	44	102	1048576	8	4070
2026-01-24 04:28:17.74	337.35	20.99	-24.1	-25.2	18.6	0.00e+00	0	44	102	1048576	8	4083
2026-01-24 04:28:18.74	337.11	21.04	-24.1	-25.2	18.6	5.48e-04	0	44	102	1048576	8	4094
2026-01-24 04:28:19.74	336.86	21.09	-24.1	-25.3	18.6	0.00e+00	0	44	102	1048576	8	4111
2026-01-24 04:28:20.74	336.62	21.14	-24.1	-25.2	18.6	0.00e+00	0	44	102	1048576	8	4088
2026-01-24 04:28:21.74	336.38	21.18	-24.1	-25.3	18.5	2.07e-04	0	44	102	1048576	8	4117
2026-01-24 04:28:22.75	336.13	21.23	-24.3	-25.7	18.4	0.00e+00	0	44	102	1048576	8	4211
2026-01-24 04:28:23.75	335.89	21.28	-24.2	-25.4	18.5	1.07e-04	0	44	102	1048576	8	4151
2026-01-24 04:28:24.76	335.64	21.33	-24.0	-25.0	18.7	0.00e+00	0	44	102	1048576	8	4052
2026-01-24 04:28:25.76	335.40	21.37	-24.1	-25.1	18.6	0.00e+00	0	44	102	1048576	8	4079
2026-01-24 04:28:26.76	335.15	21.42	-24.1	-25.3	18.6	0.00e+00	0	44	102	1048576	8	4107
2026-01-24 04:28:27.78	334.90	21.47	-24.1	-25.3	18.6	0.00e+00	0	44	102	1048576	8	4117
2026-01-24 04:28:28.78	334.65	21.51	-24.0	-25.0	18.7	0.00e+00	0	44	102	1048576	8	4040
2026-01-24 04:28:29.79	334.40	21.56	-23.9	-24.8	18.8	0.00e+00	0	44	102	1048576	8	3993
2026-01-24 04:28:30.79	334.15	21.60	-23.9	-24.9	18.8	0.00e+00	0	44	102	1048576	8	4015
2026-01-24 04:28:31.79	333.90	21.64	-23.9	-24.8	18.8	0.00e+00	0	44	102	1048576	8	3985
2026-01-24 04:28:32.80	333.65	21.69	-23.8	-25.2	18.9	0.00e+00	0	44	102	1048576	7	4200
2026-01-24 04:28:33.80	333.40	21.73	-23.9	-25.2	18.8	0.00e+00	0	44	102	1048576	7	4204
2026-01-24 04:28:34.80	333.14	21.77	-24.0	-25.4	18.7	0.00e+00	0	44	102	1048576	7	4255
2026-01-24 04:28:35.81	332.89	21.81	-23.8	-25.1	18.9	0.00e+00	0	44	102	1048576	7	4172
2026-01-24 04:28:36.81	332.63	21.86	-23.7	-24.9	19.0	0.00e+00	0	44	102	1048576	7	4131
2026-01-24 04:28:37.81	332.38	21.90	-23.9	-25.2	18.9	0.00e+00	0	44	102	1048576	7	4210
2026-01-24 04:28:38.82	332.12	21.94	-23.8	-25.2	18.9	0.00e+00	0	44	102	1048576	7	4203
2026-01-24 04:28:39.82	331.87	21.98	-23.9	-25.3	18.8	0.00e+00	0	44	102	1048576	7	4225
2026-01-24 04:28:40.82	331.61	22.01	-24.0	-25.5	18.7	0.00e+00	0	44	102	1048576	7	4285
2026-01-24 04:28:41.82	331.35	22.05	-23.9	-24.8	18.8	0.00e+00	0	44	102	1048576	8	4000
2026-01-24 04:28:42.82	331.10	22.09	-23.8	-24.6	18.9	0.00e+00	0	44	102	1048576	8	3953
2026-01-24 04:28:43.83	330.84	22.13	-23.9	-24.7	18.9	0.00e+00	0	44	102	1048576	8	3969
2026-01-24 04:28:44.84	330.57	22.16	-23.7	-25.0	19.0	0.00e+00	0	44	102	1048576	7	4143
2026-01-24 04:28:45.84	330.31	22.20	-23.8	-25.0	19.0	0.00e+00	0	44	102	1048576	7	4165
2026-01-24 04:28:46.85	330.05	22.24	-24.0	-25.4	18.7	0.00e+00	0	44	102	1048576	7	4260
2026-01-24 04:28:47.85	329.79	22.27	-23.9	-24.8	18.9	0.00e+00	0	44	102	1048576	8	3980
2026-01-24 04:28:48.86	329.53	22.31	-23.8	-24.5	19.0	0.00e+00	0	44	102	1048576	8	3927
2026-01-24 04:28:49.87	329.26	22.34	-23.8	-24.7	18.9	0.00e+00	0	44	102	1048576	8	3963
2026-01-24 04:28:50.87	329.00	22.37	-23.8	-24.5	19.0	0.00e+00	0	44	102	1048576	8	3929
2026-01-24 04:28:51.87	328.74	22.40	-23.7	-25.0	19.0	0.00e+00	0	44	102	1048576	7	4142
2026-01-24 04:28:52.87	328.47	22.44	-23.8	-25.0	19.0	0.00e+00	0	44	102	1048576	7	4153
2026-01-24 04:28:53.88	328.21	22.47	-23.7	-24.9	19.0	0.00e+00	0	44	102	1048576	7	4133
2026-01-24 04:28:54.88	327.94	22.50	-23.7	-25.0	19.0	0.00e+00	0	44	102	1048576	7	4150
2026-01-24 04:28:55.89	327.68	22.53	-23.8	-25.0	19.0	0.00e+00	0	44	102	1048576	7	4153
2026-01-24 04:28:56.89	327.41	22.56	-23.8	-25.1	18.9	0.00e+00	0	44	102	1048576	7	4172
2026-01-24 04:28:57.89	327.14	22.59	-23.8	-25.2	18.9	0.00e+00	0	44	102	1048576	7	4201
2026-01-24 04:28:58.89	326.88	22.62	-23.8	-25.1	18.9	0.00e+00	0	44	102	1048576	7	4167
2026-01-24 04:28:59.90	326.61	22.64	-23.7	-25.0	19.0	0.00e+00	0	44	102	1048576	7	4144
2026-01-24 04:29:00.91	326.34	22.67	-23.8	-25.2	18.9	0.00e+00	0	44	102	1048576	7	4193
2026-01-24 04:29:01.91	326.07	22.70	-23.7	-24.9	19.0	0.00e+00	0	44	102	1048576	7	4128
2026-01-24 04:29:02.92	325.80	22.72	-23.8	-25.0	19.0	0.00e+00	0	44	102	1048576	7	4153
2026-01-24 04:29:03.93	325.53	22.75	-23.7	-24.8	19.1	0.00e+00	0	44	102	1048576	7	4098
2026-01-24 04:29:04.93	325.26	22.77	-23.7	-24.8	17.4	0.00e+00	0	44	102	1048576	7	4110
2026-01-24 04:29:05.93	324.99	22.79	-23.8	-25.1	18.0	0.00e+00	0	44	102	1048576	7	4167
2026-01-24 04:29:06.94	324.71	22.82	-23.7	-24.8	19.0	0.00e+00	0	44	102	1048576	7	4101
2026-01-24 04:29:07.93	324.45	22.84	-23.7	-24.8	19.1	0.00e+00	0	44	102	1048576	7	4093
2026-01-24 04:29:08.94	324.17	22.86	-23.6	-24.7	19.1	0.00e+00	0	44	102	1048576	7	4069
2026-01-24 04:29:09.94	323.90	22.88	-23.5	-24.4	19.2	0.00e+00	0	44	102	1048576	7	4019
2026-01-24 04:29:10.95	323.63	22.90	-23.4	-24.4	19.3	0.00e+00	0	44	102	1048576	7	3997
2026-01-24 04:29:11.95	323.36	22.92	-23.5	-24.5	19.2	0.00e+00	0	44	102	1048576	7	4026
2026-01-24 04:29:12.96	323.08	22.94	-23.3	-24.0	19.5	0.00e+00	0	44	102	1048576	7	3904
2026-01-24 04:29:13.96	322.81	22.96	-23.2	-23.8	19.6	3.07e-04	0	44	102	1048576	7	3865
2026-01-24 04:29:14.96	322.53	22.98	-23.3	-24.4	19.5	0.00e+00	0	44	102	1048576	6	4122
2026-01-24 04:29:15.97	322.26	22.99	-23.3	-24.6	19.4	0.00e+00	0	44	102	1048576	6	4166
2026-01-24 04:29:16.97	321.98	23.01	-23.4	-24.7	19.4	0.00e+00	0	44	102	1048576	6	4190
2026-01-24 04:29:17.98	321.71	23.02	-23.5	-24.9	19.2	2.64e-04	0	44	102	1048576	6	4239
2026-01-24 04:29:18.98	321.43	23.04	-23.4	-24.8	19.3	0.00e+00	0	44	102	1048576	6	4226
2026-01-24 04:29:19.98	321.16	23.05	-23.5	-24.9	19.2	0.00e+00	0	44	102	1048576	6	4238
2026-01-24 04:29:20.99	320.88	23.07	-23.5	-24.9	19.2	7.27e-04	0	44	102	1048576	6	4248
2026-01-24 04:29:21.99	320.61	23.08	-23.5	-24.5	19.2	0.00e+00	0	44	102	1048576	7	4023
2026-01-24 04:29:22.99	320.33	23.09	-23.5	-24.5	19.2	7.38e-04	0	44	102	1048576	7	4033
2026-01-24 04:29:23.99	320.06	23.10	-23.6	-24.7	19.1	7.67e-04	0	44	102	1048576	7	4087
2026-01-24 04:29:24.99	319.78	23.11	-23.4	-24.2	19.4	0.00e+00	0	44	102	1048576	7	3951
2026-01-24 04:29:25.99	319.50	23.12	-23.2	-24.4	19.5	8.26e-04	0	44	102	1048576	6	4112
2026-01-24 04:29:27.00	319.23	23.13	-23.3	-24.5	19.5	0.00e+00	0	44	102	1048576	6	4142
2026-01-24 04:29:28.00	318.95	23.14	-23.3	-24.5	19.5	0.00e+00	0	44	102	1048576	6	4150
2026-01-24 04:29:29.00	318.67	23.15	-23.3	-24.6	19.4	3.54e-05	0	44	102	1048576	6	4169
2026-01-24 04:29:30.01	318.39	23.15	-23.4	-24.7	19.4	8.93e-04	0	44	102	1048576	6	4186
2026-01-24 04:29:31.01	318.12	23.16	-23.4	-24.8	19.3	0.00e+00	0	44	102	1048576	6	4212
2026-01-24 04:29:32.01	317.84	23.17	-23.5	-24.6	19.2	7.26e-04	0	44	102	1048576	7	4046
2026-01-24 04:29:33.02	317.56	23.17	-23.8	-25.1	18.9	7.23e-04	0	44	102	1048576	7	4168
2026-01-24 04:29:34.01	317.29	23.17	-23.5	-24.5	19.2	0.00e+00	0	44	102	1048576	7	4020
2026-01-24 04:29:35.02	317.01	23.18	-23.3	-24.1	19.4	7.07e-04	0	44	102	1048576	7	3933
2026-01-24 04:29:36.02	316.73	23.18	-23.3	-24.5	19.4	0.00e+00	0	44	102	1048576	6	4148
2026-01-24 04:29:37.03	316.45	23.18	-23.3	-24.4	19.5	0.00e+00	0	44	102	1048576	6	4127
2026-01-24 04:29:38.04	316.17	23.18	-23.3	-24.6	19.4	6.87e-04	0	44	102	1048576	6	4179
2026-01-24 04:29:39.04	315.89	23.18	-23.2	-24.3	19.6	6.03e-04	0	44	102	1048576	6	4081
2026-01-24 04:29:40.04	315.62	23.18	-23.1	-24.1	19.6	0.00e+00	0	44	102	1048576	6	4047
2026-01-24 04:29:41.04	315.34	23.18	-23.2	-24.3	19.5	0.00e+00	0	44	102	1048576	6	4087
2026-01-24 04:29:42.04	315.06	23.18	-23.4	-24.8	19.3	5.63e-04	0	44	102	1048576	6	4211
2026-01-24 04:29:43.04	314.79	23.18	-23.3	-24.6	19.4	0.00e+00	0	44	102	1048576	6	4173
2026-01-24 04:29:44.03	314.51	23.17	-23.5	-24.9	19.3	3.16e-04	0	44	102	1048576	6	4242
2026-01-24 04:29:45.04	314.23	23.17	-23.3	-24.5	19.4	2.49e-04	0	44	102	1048576	6	4154
2026-01-24 04:29:46.04	313.96	23.17	-23.3	-24.5	19.5	0.00e+00	0	44	102	1048576	6	4140
2026-01-24 04:29:47.04	313.68	23.16	-23.4	-24.8	19.3	0.00e+00	0	44	102	1048576	6	4208
2026-01-24 04:29:48.04	313.40	23.15	-23.3	-24.5	19.4	0.00e+00	0	44	102	1048576	6	4152
2026-01-24 04:29:49.04	313.13	23.15	-23.3	-24.6	19.4	0.00e+00	0	44	102	1048576	6	4172
2026-01-24 04:29:50.05	312.85	23.14	-23.4	-24.7	19.3	0.00e+00	0	44	102	1048576	6	4204
2026-01-24 04:29:51.05	312.57	23.13	-23.6	-24.7	19.1	0.00e+00	0	44	102	1048576	7	4073
2026-01-24 04:29:52.06	312.29	23.12	-23.9	-25.2	18.8	0.00e+00	0	44	102	1048576	7	4214
2026-01-24 04:29:53.07	312.01	23.11	-23.6	-24.6	19.2	0.00e+00	0	44	102	1048576	7	4047
2026-01-24 04:29:54.07	311.74	23.10	-23.4	-24.1	19.4	0.00e+00	0	44	102	1048576	7	3941
2026-01-24 04:29:55.08	311.46	23.09	-23.3	-24.1	19.4	0.00e+00	0	44	102	1048576	7	3941
2026-01-24 04:29:56.08	311.18	23.08	-23.4	-24.2	19.3	0.00e+00	0	44	102	1048576	7	3971
2026-01-24 04:29:57.08	310.91	23.07	-23.4	-24.2	19.3	0.00e+00	0	44	102	1048576	7	3952
2026-01-24 04:29:58.09	310.63	23.05	-23.4	-24.2	19.3	0.00e+00	0	44	102	1048576	7	3950
2026-01-24 04:29:59.09	310.36	23.04	-23.1	-23.7	19.6	0.00e+00	0	44	102	1048576	7	3840
2026-01-24 04:30:00.09	310.08	23.02	-23.1	-23.7	19.6	0.00e+00	0	44	102	1048576	7	3835
2026-01-24 04:30:01.10	309.81	23.01	-23.3	-24.0	19.5	0.00e+00	0	44	102	1048576	7	3901
2026-01-24 04:30:02.10	309.53	22.99	-23.2	-23.9	19.5	0.00e+00	0	44	102	1048576	7	3881
2026-01-24 04:30:03.11	309.26	22.98	-23.3	-24.0	19.4	0.00e+00	0	44	102	1048576	7	3912
2026-01-24 04:30:04.11	308.98	22.96	-23.3	-24.0	19.4	0.00e+00	0	44	102	1048576	7	3918
2026-01-24 04:30:05.12	308.71	22.94	-23.3	-24.0	19.4	0.00e+00	0	44	102	1048576	7	3922
2026-01-24 04:30:06.12	308.43	22.92	-23.5	-24.4	19.2	0.00e+00	0	44	102	1048576	7	4007
2026-01-24 04:30:07.12	308.16	22.90	-23.4	-24.4	19.3	0.00e+00	0	44	102	1048576	7	3999
2026-01-24 04:30:08.13	307.89	22.88	-23.5	-24.4	19.2	0.00e+00	0	44	102	1048576	7	4019
2026-01-24 04:30:09.13	307.61	22.86	-23.4	-24.2	19.3	0.00e+00	0	44	102	1048576	7	3956
2026-01-24 04:30:10.14	307.34	22.84	-23.5	-24.4	19.2	0.00e+00	0	44	102	1048576	7	4015
2026-01-24 04:30:11.14	307.07	22.82	-23.8	-25.0	18.9	0.00e+00	0	44	102	1048576	7	4146
2026-01-24 04:30:12.14	306.80	22.79	-23.5	-24.4	19.2	0.00e+00	0	44	102	1048576	7	3997
2026-01-24 04:30:13.15	306.53	22.77	-23.4	-24.2	19.3	0.00e+00	0	44	102	1048576	7	3956
2026-01-24 04:30:14.15	306.26	22.74	-23.4	-24.2	19.3	0.00e+00	0	44	102	1048576	7	3972
2026-01-24 04:30:15.16	305.99	22.72	-23.5	-24.5	19.2	0.00e+00	0	44	102	1048576	7	4026
2026-01-24 04:30:16.16	305.72	22.69	-23.5	-24.5	19.2	0.00e+00	0	44	102	1048576	7	4032
2026-01-24 04:30:17.16	305.45	22.67	-23.4	-24.3	19.3	0.00e+00	0	44	102	1048576	7	3974
2026-01-24 04:30:18.16	305.18	22.64	-23.3	-24.1	19.4	0.00e+00	0	44	102	1048576	7	3930
2026-01-24 04:30:19.17	304.91	22.61	-23.4	-24.2	19.3	0.00e+00	0	44	102	1048576	7	3960
2026-01-24 04:30:20.18	304.64	22.58	-23.3	-24.1	19.3	0.00e+00	0	44	102	1048576	7	3942
2026-01-24 04:30:21.18	304.37	22.56	-23.4	-24.3	19.2	0.00e+00	0	44	102	1048576	7	3990
2026-01-24 04:30:22.19	304.11	22.53	-23.5	-24.4	19.2	0.00e+00	0	44	102	1048576	7	4004
2026-01-24 04:30:23.20	303.84	22.50	-23.4	-24.3	19.2	0.00e+00	0	44	102	1048576	7	3990
2026-01-24 04:30:24.20	303.57	22.47	-23.4	-24.3	19.3	0.00e+00	0	44	102	1048576	7	3975
2026-01-24 04:30:25.21	303.31	22.43	-23.3	-24.1	19.3	0.00e+00	0	44	102	1048576	7	3937
2026-01-24 04:30:26.22	303.04	22.40	-23.5	-24.4	19.2	0.00e+00	0	44	102	1048576	7	3994
2026-01-24 04:30:27.23	302.77	22.37	-23.6	-24.6	19.1	0.00e+00	0	44	102	1048576	7	4062
2026-01-24 04:30:28.23	302.51	22.34	-23.4	-24.2	19.3	0.00e+00	0	44	102	1048576	7	3964
2026-01-24 04:30:29.23	302.25	22.30	-23.5	-24.4	19.2	0.00e+00	0	44	102	1048576	7	4015
2026-01-24 04:30:30.23	301.99	22.27	-23.6	-24.6	19.1	0.00e+00	0	44	102	1048576	7	4058
2026-01-24 04:30:31.24	301.72	22.23	-23.4	-24.3	19.3	0.00e+00	0	44	102	1048576	7	3974
2026-01-24 04:30:32.24	301.46	22.20	-23.3	-24.1	19.3	0.00e+00	0	44	102	1048576	7	3937
2026-01-24 04:30:33.24	301.20	22.16	-23.4	-24.3	19.3	0.00e+00	0	44	102	1048576	7	3980
2026-01-24 04:30:34.25	300.94	22.12	-23.7	-24.8	18.8	0.00e+00	0	44	102	1048576	7	4106
2026-01-24 04:30:35.25	300.68	22.09	-23.9	-25.3	18.7	0.00e+00	0	44	102	1048576	7	4227
2026-01-24 04:30:36.24	300.43	22.05	-23.8	-25.1	18.8	0.00e+00	0	44	102	1048576	7	4173
2026-01-24 04:30:37.24	300.17	22.01	-23.7	-24.9	18.9	0.00e+00	0	44	102	1048576	7	4140
2026-01-24 04:30:38.25	299.91	21.97	-23.7	-25.0	18.9	0.00e+00	0	44	102	1048576	7	4151
2026-01-24 04:30:39.25	299.65	21.93	-23.8	-25.1	18.8	0.00e+00	0	44	102	1048576	7	4168
2026-01-24 04:30:40.26	299.40	21.89	-23.6	-24.8	19.0	0.00e+00	0	44	102	1048576	7	4095
2026-01-24 04:30:41.25	299.14	21.85	-23.7	-25.0	18.9	6.46e-04	0	44	102	1048576	7	4147
2026-01-24 04:30:42.26	298.89	21.81	-23.6	-24.6	19.0	0.00e+00	0	44	102	1048576	7	4066
2026-01-24 04:30:43.26	298.63	21.77	-23.7	-24.8	19.0	0.00e+00	0	44	102	1048576	7	4106
2026-01-24 04:30:44.26	298.38	21.73	-23.8	-25.0	18.8	2.84e-04	0	44	102	1048576	7	4168
2026-01-24 04:30:45.27	298.13	21.68	-23.6	-24.7	19.0	0.00e+00	0	44	102	1048576	7	4096
2026-01-24 04:30:46.28	297.87	21.64	-23.6	-24.6	19.0	1.05e-04	0	44	102	1048576	7	4067
2026-01-24 04:30:47.28	297.62	21.60	-23.5	-24.4	19.1	0.00e+00	0	44	102	1048576	7	4020
2026-01-24 04:30:48.29	297.37	21.55	-23.5	-24.4	19.2	0.00e+00	0	44	102	1048576	7	4001
2026-01-24 04:30:49.29	297.12	21.51	-23.5	-24.5	19.1	8.00e-06	0	44	102	1048576	7	4038
2026-01-24 04:30:50.29	296.87	21.46	-23.5	-24.5	19.1	0.00e+00	0	44	102	1048576	7	4029
2026-01-24 04:30:51.30	296.62	21.42	-23.5	-24.5	19.1	0.00e+00	0	44	102	1048576	7	4036
2026-01-24 04:30:52.30	296.38	21.37	-23.5	-24.5	19.1	0.00e+00	0	44	102	1048576	7	4029
2026-01-24 04:30:53.30	296.13	21.32	-23.6	-24.6	19.0	1.43e-04	0	44	102	1048576	7	4056
2026-01-24 04:30:54.31	295.88	21.27	-23.5	-24.5	19.1	0.00e+00	0	44	102	1048576	7	4037
2026-01-24 04:30:55.31	295.64	21.23	-23.6	-24.6	19.0	8.01e-05	0	44	102	1048576	7	4062
2026-01-24 04:30:56.31	295.39	21.18	-23.6	-24.7	19.0	5.83e-05	0	44	102	1048576	7	4083
2026-01-24 04:30:57.32	295.15	21.13	-23.6	-24.6	19.0	0.00e+00	0	44	102	1048576	7	4058
2026-01-24 04:30:58.33	294.90	21.08	-23.6	-24.7	19.0	1.29e-04	0	44	102	1048576	7	4073
2026-01-24 04:30:59.33	294.66	21.03	-23.7	-24.8	18.9	1.60e-05	0	44	102	1048576	7	4114
2026-01-24 04:31:00.34	294.42	20.98	-23.7	-24.9	18.9	0.00e+00	0	44	102	1048576	7	4132
2026-01-24 04:31:01.34	294.18	20.93	-23.7	-24.9	18.8	2.21e-04	0	44	102	1048576	7	4129
2026-01-24 04:31:02.35	293.94	20.88	-23.7	-24.9	18.9	2.43e-04	0	44	102	1048576	7	4124
2026-01-24 04:31:03.35	293.70	20.83	-23.8	-25.0	18.8	0.00e+00	0	44	102	1048576	7	4151
2026-01-24 04:31:04.35	293.46	20.78	-23.8	-25.1	18.7	3.13e-04	0	44	102	1048576	7	4171
2026-01-24 04:31:05.34	293.23	20.72	-23.9	-25.3	18.6	5.74e-04	0	44	102	1048576	7	4233
2026-01-24 04:31:06.34	292.99	20.67	-24.2	-25.3	18.4	0.00e+00	0	44	102	1048576	8	4129
2026-01-24 04:31:07.34	292.75	20.62	-24.2	-25.4	18.3	7.04e-04	0	44	102	1048576	8	4158
2026-01-24 04:31:08.35	292.52	20.57	-23.9	-24.7	18.7	0.00e+00	0	44	102	1048576	8	3976
2026-01-24 04:31:09.35	292.28	20.51	-23.7	-24.4	18.9	0.00e+00	0	44	102	1048576	8	3890
2026-01-24 04:31:10.35	292.05	20.46	-23.6	-24.7	18.9	6.64e-04	0	44	102	1048576	7	4085
2026-01-24 04:31:11.35	291.82	20.40	-23.7	-25.0	18.8	0.00e+00	0	44	102	1048576	7	4143
2026-01-24 04:31:12.35	291.59	20.35	-23.7	-24.9	18.8	0.00e+00	0	44	102	1048576	7	4134
2026-01-24 04:31:13.36	291.36	20.29	-23.7	-24.8	18.8	0.00e+00	0	44	102	1048576	7	4116
2026-01-24 04:31:14.37	291.12	20.24	-23.7	-24.8	18.8	6.99e-04	0	44	102	1048576	7	4106
2026-01-24 04:31:15.38	290.89	20.18	-23.8	-25.2	18.6	0.00e+00	0	44	102	1048576	7	4198
2026-01-24 04:31:16.38	290.66	20.13	-24.0	-25.0	18.5	0.00e+00	0	44	102	1048576	8	4048
2026-01-24 04:31:17.39	290.44	20.07	-23.8	-24.7	18.6	9.30e-04	0	44	102	1048576	8	3974
2026-01-24 04:31:18.40	290.21	20.01	-23.9	-24.8	18.6	0.00e+00	0	44	102	1048576	8	3994
2026-01-24 04:31:19.40	289.98	19.95	-24.0	-25.1	18.5	9.38e-04	0	44	102	1048576	8	4059
2026-01-24 04:31:20.40	289.76	19.90	-24.0	-25.1	18.4	0.00e+00	0	44	102	1048576	8	4063
2026-01-24 04:31:21.40	289.53	19.84	-24.1	-25.2	18.4	0.00e+00	0	44	102	1048576	8	4090
2026-01-24 04:31:22.40	289.31	19.78	-24.2	-25.4	18.3	0.00e+00	0	44	102	1048576	8	4141
2026-01-24 04:31:23.40	289.09	19.72	-24.2	-25.5	18.2	0.00e+00	0	44	102	1048576	8	4179
2026-01-24 04:31:24.41	288.87	19.66	-24.2	-25.5	18.2	0.00e+00	0	44	102	1048576	8	4176
2026-01-24 04:31:25.42	288.64	19.60	-24.2	-25.5	18.2	0.00e+00	0	44	102	1048576	8	4160
2026-01-24 04:31:26.42	288.43	19.54	-24.1	-25.2	18.4	0.00e+00	0	44	102	1048576	8	4088
2026-01-24 04:31:27.42	288.21	19.48	-24.0	-25.0	18.4	0.00e+00	0	44	102	1048576	8	4054
2026-01-24 04:31:28.42	287.99	19.42	-24.0	-25.1	18.4	0.00e+00	0	44	102	1048576	8	4076
2026-01-24 04:31:29.43	287.77	19.36	-24.1	-25.2	18.3	0.00e+00	0	44	102	1048576	8	4094
2026-01-24 04:31:30.44	287.55	19.30	-24.1	-25.2	18.3	0.00e+00	0	44	102	1048576	8	4108
2026-01-24 04:31:31.44	287.34	19.24	-24.3	-25.6	18.1	0.00e+00	0	44	102	1048576	8	4207
2026-01-24 04:31:32.45	287.12	19.18	-24.3	-25.7	18.1	0.00e+00	0	44	102	1048576	8	4235
2026-01-24 04:31:33.45	286.91	19.12	-24.3	-25.7	18.1	0.00e+00	0	44	102	1048576	8	4219
2026-01-24 04:31:34.46	286.69	19.05	-24.2	-25.5	18.2	0.00e+00	0	44	102	1048576	8	4167
2026-01-24 04:31:35.46	286.48	18.99	-24.1	-25.2	18.3	0.00e+00	0	44	102	1048576	8	4107
2026-01-24 04:31:36.46	286.27	18.93	-24.1	-25.3	18.3	0.00e+00	0	44	102	1048576	8	4123
2026-01-24 04:31:37.46	286.06	18.87	-24.2	-25.4	18.2	0.00e+00	0	44	102	1048576	8	4134
2026-01-24 04:31:38.46	285.85	18.81	-24.1	-25.3	18.3	0.00e+00	0	44	102	1048576	8	4117
2026-01-24 04:31:39.46	285.64	18.74	-24.2	-25.5	18.2	0.00e+00	0	44	102	1048576	8	4174
2026-01-24 04:31:40.47	285.44	18.68	-24.2	-25.5	18.2	0.00e+00	0	44	102	1048576	8	4185
2026-01-24 04:31:41.47	285.23	18.62	-24.3	-25.6	18.1	0.00e+00	0	44	102	1048576	8	4205
2026-01-24 04:31:42.47	285.02	18.55	-24.3	-25.6	18.1	0.00e+00	0	44	102	1048576	8	4202
2026-01-24 04:31:43.47	284.82	18.49	-24.2	-25.6	18.1	0.00e+00	0	44	102	1048576	8	4194
2026-01-24 04:31:44.48	284.61	18.42	-24.4	-25.8	18.0	0.00e+00	0	44	102	1048576	8	4264
2026-01-24 04:31:45.48	284.41	18.36	-24.5	-25.6	17.9	0.00e+00	0	44	102	1048576	9	4073
2026-01-24 04:31:46.48	284.21	18.29	-24.4	-25.5	17.9	0.00e+00	0	44	102	1048576	9	4052
2026-01-24 04:31:47.49	284.01	18.23	-24.4	-25.4	18.0	0.00e+00	0	44	102	1048576	9	4031
2026-01-24 04:31:48.49	283.81	18.16	-24.4	-25.4	18.0	0.00e+00	0	44	102	1048576	9	4035
2026-01-24 04:31:49.50	283.60	18.10	-24.5	-25.6	17.8	0.00e+00	0	44	102	1048576	9	4097
2026-01-24 04:31:50.49	283.41	18.03	-24.7	-26.0	17.7	0.00e+00	0	44	102	1048576	9	4182
2026-01-24 04:31:51.50	283.21	17.97	-24.7	-26.0	17.7	0.00e+00	0	44	102	1048576	9	4188
2026-01-24 04:31:52.50	283.01	17.90	-24.8	-26.2	17.5	0.00e+00	0	44	102	1048576	9	4246
2026-01-24 04:31:53.50	282.82	17.84	-24.7	-26.0	17.6	0.00e+00	0	44	102	1048576	9	4182
2026-01-24 04:31:54.50	282.62	17.77	-24.6	-25.7	17.8	0.00e+00	0	44	102	1048576	9	4116
2026-01-24 04:31:55.51	282.42	17.70	-24.6	-25.8	17.7	0.00e+00	0	44	102	1048576	9	4130
2026-01-24 04:31:56.51	282.23	17.64	-24.6	-25.7	17.7	0.00e+00	0	44	102	1048576	9	4120
2026-01-24 04:31:57.51	282.04	17.57	-24.6	-25.9	17.7	0.00e+00	0	44	102	1048576	9	4153
2026-01-24 04:31:58.51	281.85	17.51	-24.6	-25.9	17.6	0.00e+00	0	44	102	1048576	9	4168
2026-01-24 04:31:59.51	281.66	17.44	-24.7	-25.9	17.6	0.00e+00	0	44	102	1048576	9	4177
2026-01-24 04:32:00.52	281.46	17.37	-24.5	-25.7	17.8	0.00e+00	0	44	102	1048576	9	4115
2026-01-24 04:32:01.52	281.28	17.30	-24.4	-25.5	17.9	0.00e+00	0	44	102	1048576	9	4051
2026-01-24 04:32:02.52	281.09	17.24	-24.3	-25.2	18.0	0.00e+00	0	44	102	1048576	9	3999
2026-01-24 04:32:03.53	280.90	17.17	-24.4	-25.4	17.9	0.00e+00	0	44	102	1048576	9	4035
2026-01-24 04:32:04.53	280.71	17.10	-24.4	-25.5	17.8	0.00e+00	0	44	102	1048576	9	4063
2026-01-24 04:32:05.54	280.52	17.03	-24.4	-25.4	17.9	0.00e+00	0	44	102	1048576	9	4041
2026-01-24 04:32:06.54	280.34	16.97	-24.5	-25.6	17.3	0.00e+00	0	44	102	1048576	9	4087
2026-01-24 04:32:07.53	280.16	16.90	-24.5	-25.6	17.8	0.00e+00	0	44	102	1048576	9	4090
2026-01-24 04:32:08.54	279.97	16.83	-24.5	-25.7	17.7	0.00e+00	0	44	102	1048576	9	4106
2026-01-24 04:32:09.55	279.79	16.76	-24.5	-26.0	17.8	7.22e-04	0	44	102	1048576	8	4306
2026-01-24 04:32:10.55	279.61	16.69	-24.4	-25.9	17.9	0.00e+00	0	44	102	1048576	8	4268
2026-01-24 04:32:11.55	279.43	16.63	-24.6	-25.8	17.7	0.00e+00	0	44	102	1048576	9	4146
2026-01-24 04:32:12.55	279.25	16.56	-24.7	-26.1	17.5	0.00e+00	0	44	102	1048576	9	4211
2026-01-24 04:32:13.55	279.07	16.49	-24.8	-26.2	17.4	0.00e+00	0	44	102	1048576	9	4238
2026-01-24 04:32:14.56	278.89	16.42	-24.8	-26.3	17.4	0.00e+00	0	44	102	1048576	9	4270
2026-01-24 04:32:15.56	278.71	16.35	-24.8	-26.3	17.4	0.00e+00	0	44	102	1048576	9	4268
2026-01-24 04:32:16.56	278.53	16.28	-24.8	-26.3	17.4	6.93e-04	0	44	102	1048576	9	4265
2026-01-24 04:32:17.56	278.36	16.21	-24.7	-26.0	17.5	0.00e+00	0	44	102	1048576	9	4181
2026-01-24 04:32:18.57	278.18	16.15	-24.6	-25.8	17.6	3.38e-04	0	44	102	1048576	9	4145
2026-01-24 04:32:19.57	278.01	16.08	-24.6	-25.9	17.6	1.42e-04	0	44	102	1048576	9	4157
2026-01-24 04:32:20.58	277.83	16.01	-24.6	-25.9	17.6	0.00e+00	0	44	102	1048576	9	4160
2026-01-24 04:32:21.58	277.66	15.94	-24.6	-25.9	17.6	2.28e-05	0	44	102	1048576	9	4168
2026-01-24 04:32:22.59	277.49	15.87	-24.7	-26.0	17.5	0.00e+00	0	44	102	1048576	9	4188
2026-01-24 04:32:23.59	277.32	15.80	-24.7	-26.0	17.5	0.00e+00	0	44	102	1048576	9	4201
2026-01-24 04:32:24.59	277.15	15.73	-24.7	-25.9	17.5	3.83e-04	0	44	102	1048576	9	4169
2026-01-24 04:32:25.60	276.97	15.66	-24.6	-25.8	17.6	6.41e-04	0	44	102	1048576	9	4125
2026-01-24 04:32:26.60	276.81	15.59	-24.6	-25.8	17.6	0.00e+00	0	44	102	1048576	9	4132
2026-01-24 04:32:27.60	276.64	15.52	-24.6	-25.9	17.5	2.76e-04	0	44	102	1048576	9	4168
2026-01-24 04:32:28.60	276.47	15.45	-24.7	-26.0	17.5	3.40e-06	0	44	102	1048576	9	4177
2026-01-24 04:32:29.60	276.31	15.38	-24.8	-26.2	17.4	0.00e+00	0	44	102	1048576	9	4233
2026-01-24 04:32:30.60	276.14	15.31	-24.9	-26.5	17.2	1.77e-04	0	44	102	1048576	9	4319
2026-01-24 04:32:31.60	275.98	15.24	-24.8	-26.3	17.3	4.27e-04	0	44	102	1048576	9	4278
2026-01-24 04:32:32.60	275.81	15.17	-25.0	-26.6	17.2	0.00e+00	0	44	102	1048576	9	4355
2026-01-24 04:32:33.60	275.65	15.10	-25.3	-26.7	16.9	1.02e-03	0	44	102	1048576	10	4265
2026-01-24 04:32:34.61	275.48	15.03	-25.3	-26.8	16.8	1.17e-03	0	44	102	1048576	10	4289
2026-01-24 04:32:35.61	275.32	14.96	-25.3	-26.9	16.8	0.00e+00	0	44	102	1048576	10	4299
2026-01-24 04:32:36.62	275.16	14.89	-25.3	-26.9	16.8	0.00e+00	0	44	102	1048576	10	4300
2026-01-24 04:32:37.63	275.00	14.82	-25.3	-26.9	16.7	1.37e-03	0	44	102	1048576	10	4325
2026-01-24 04:32:38.63	274.84	14.75	-25.4	-27.1	16.6	5.95e-05	0	44	102	1048576	10	4376
2026-01-24 04:32:39.63	274.68	14.68	-25.5	-27.2	16.6	1.41e-03	0	44	102	1048576	10	4395
2026-01-24 04:32:40.63	274.52	14.61	-25.5	-26.8	16.5	1.38e-03	0	44	102	1048576	11	4185
2026-01-24 04:32:41.63	274.37	14.54	-25.4	-26.5	16.7	0.00e+00	0	44	102	1048576	11	4111
2026-01-24 04:32:42.64	274.21	14.47	-25.2	-26.7	16.8	1.30e-03	0	44	102	1048576	10	4259
2026-01-24 04:32:43.64	274.05	14.40	-25.3	-26.7	16.8	0.00e+00	0	44	102	1048576	10	4274
2026-01-24 04:32:44.64	273.90	14.33	-25.4	-27.1	16.6	1.10e-06	0	44	102	1048576	10	4361
2026-01-24 04:32:45.65	273.74	14.26	-25.3	-26.8	16.8	1.14e-03	0	44	102	1048576	10	4288
2026-01-24 04:32:46.65	273.59	14.19	-25.2	-26.6	16.9	0.00e+00	0	44	102	1048576	10	4223
2026-01-24 04:32:47.65	273.44	14.12	-25.2	-26.7	16.8	0.00e+00	0	44	102	1048576	10	4252
2026-01-24 04:32:48.65	273.29	14.05	-25.3	-26.8	16.8	0.00e+00	0	44	102	1048576	10	4280
2026-01-24 04:32:49.66	273.13	13.98	-25.3	-26.8	16.8	1.11e-03	0	44	102	1048576	10	4293
2026-01-24 04:32:50.66	272.98	13.91	-25.4	-27.1	16.6	0.00e+00	0	44	102	1048576	10	4359
2026-01-24 04:32:51.67	272.83	13.84	-25.4	-26.9	16.6	0.00e+00	0	44	102	1048576	10	4323
2026-01-24 04:32:52.67	272.68	13.77	-25.2	-26.6	16.8	0.00e+00	0	44	102	1048576	10	4243
2026-01-24 04:32:53.67	272.54	13.70	-25.1	-26.5	16.9	0.00e+00	0	44	102	1048576	10	4196
2026-01-24 04:32:54.67	272.39	13.63	-25.3	-26.9	16.7	0.00e+00	0	44	102	1048576	10	4313
2026-01-24 04:32:55.68	272.24	13.56	-25.3	-26.9	16.7	0.00e+00	0	44	102	1048576	10	4312
2026-01-24 04:32:56.68	272.09	13.49	-25.4	-27.1	16.6	0.00e+00	0	44	102	1048576	10	4361
2026-01-24 04:32:57.69	271.95	13.42	-25.4	-26.7	16.5	0.00e+00	0	44	102	1048576	11	4147
2026-01-24 04:32:58.69	271.80	13.35	-25.3	-26.4	16.7	0.00e+00	0	44	102	1048576	11	4078
2026-01-24 04:32:59.70	271.66	13.28	-25.6	-26.9	16.4	0.00e+00	0	44	102	1048576	11	4210
2026-01-24 04:33:00.70	271.51	13.21	-25.5	-26.7	16.5	0.00e+00	0	44	102	1048576	11	4159
2026-01-24 04:33:01.70	271.37	13.14	-25.5	-26.8	16.5	0.00e+00	0	44	102	1048576	11	4187
2026-01-24 04:33:02.70	271.23	13.07	-25.6	-26.9	16.4	0.00e+00	0	44	102	1048576	11	4215
2026-01-24 04:33:03.70	271.09	13.00	-25.7	-27.3	16.2	0.00e+00	0	44	102	1048576	11	4316
2026-01-24 04:33:04.70	270.95	12.93	-25.7	-27.2	16.3	0.00e+00	0	44	102	1048576	11	4272
2026-01-24 04:33:05.70	270.81	12.86	-25.7	-27.2	16.2	0.00e+00	0	44	102	1048576	11	4275
2026-01-24 04:33:06.71	270.67	12.79	-25.8	-27.4	16.1	0.00e+00	0	44	102	1048576	11	4340
2026-01-24 04:33:07.71	270.53	12.73	-25.7	-27.2	16.2	0.00e+00	0	44	102	1048576	11	4269
2026-01-24 04:33:08.72	270.39	12.65	-25.6	-27.1	16.3	0.00e+00	0	44	102	1048576	11	4252
2026-01-24 04:33:09.72	270.25	12.59	-25.6	-27.1	16.3	0.00e+00	0	44	102	1048576	11	4246
2026-01-24 04:33:10.72	270.12	12.52	-25.8	-27.4	16.1	0.00e+00	0	44	102	1048576	11	4337
2026-01-24 04:33:11.73	269.98	12.45	-25.8	-27.5	16.0	0.00e+00	0	44	102	1048576	11	4354
2026-01-24 04:33:12.73	269.84	12.38	-25.7	-27.2	16.2	0.00e+00	0	44	102	1048576	11	4295
2026-01-24 04:33:13.74	269.71	12.31	-25.6	-27.1	16.2	0.00e+00	0	44	102	1048576	11	4257
2026-01-24 04:33:14.75	269.57	12.24	-25.8	-27.4	16.1	0.00e+00	0	44	102	1048576	11	4331
2026-01-24 04:33:15.75	269.44	12.17	-25.8	-27.4	16.1	0.00e+00	0	44	102	1048576	11	4336
2026-01-24 04:33:16.76	269.30	12.10	-25.8	-27.4	16.1	0.00e+00	0	44	102	1048576	11	4336
2026-01-24 04:33:17.76	269.17	12.03	-25.9	-27.7	15.9	4.50e-06	0	44	102	1048576	11	4408
2026-01-24 04:33:18.77	269.04	11.96	-25.8	-27.5	16.0	0.00e+00	0	44	102	1048576	11	4365
2026-01-24 04:33:19.78	268.91	11.89	-25.8	-27.4	16.0	0.00e+00	0	44	102	1048576	11	4346
2026-01-24 04:33:20.79	268.78	11.82	-25.8	-27.5	16.0	1.10e-06	0	44	102	1048576	11	4364
2026-01-24 04:33:21.79	268.65	11.75	-25.9	-27.6	16.0	0.00e+00	0	44	102	1048576	11	4383
2026-01-24 04:33:22.79	268.52	11.68	-25.9	-27.8	15.8	0.00e+00	0	44	102	1048576	11	4447
2026-01-24 04:33:23.79	268.39	11.61	-25.9	-27.3	15.7	1.10e-06	0	44	102	1048576	12	4198
2026-01-24 04:33:24.80	268.26	11.54	-26.0	-27.3	15.7	0.00e+00	0	45	102	1048576	12	4220
2026-01-24 04:33:25.80	268.13	11.47	-26.1	-27.6	15.6	0.00e+00	0	44	102	1048576	12	4297
2026-01-24 04:33:26.81	268.01	11.41	-26.0	-27.5	15.6	0.00e+00	0	44	102	1048576	12	4262
2026-01-24 04:33:27.81	267.88	11.34	-26.0	-27.4	15.7	0.00e+00	0	44	102	1048576	12	4224
2026-01-24 04:33:28.82	267.75	11.27	-26.0	-27.4	15.7	0.00e+00	0	44	102	1048576	12	4227
2026-01-24 04:33:29.83	267.63	11.20	-25.9	-27.1	15.8	0.00e+00	0	44	102	1048576	12	4158
2026-01-24 04:33:30.83	267.50	11.13	-26.0	-27.3	15.7	0.00e+00	0	44	102	1048576	12	4205
2026-01-24 04:33:31.83	267.38	11.06	-25.9	-27.2	15.7	0.00e+00	0	44	102	1048576	12	4191
2026-01-24 04:33:32.83	267.26	10.99	-26.0	-27.4	15.6	0.00e+00	0	44	102	1048576	12	4235
2026-01-24 04:33:33.84	267.13	10.92	-26.0	-27.4	15.6	0.00e+00	0	44	102	1048576	12	4228
2026-01-24 04:33:34.84	267.01	10.86	-26.1	-27.5	15.5	0.00e+00	0	44	102	1048576	12	4270
2026-01-24 04:33:35.84	266.89	10.79	-26.1	-27.7	15.5	0.00e+00	0	44	102	1048576	12	4321
2026-01-24 04:33:36.85	266.77	10.72	-26.2	-27.8	15.4	0.00e+00	0	44	102	1048576	12	4346
2026-01-24 04:33:37.85	266.65	10.65	-26.2	-27.9	15.3	0.00e+00	0	44	102	1048576	12	4377
2026-01-24 04:33:38.85	266.53	10.58	-26.2	-27.9	15.3	0.00e+00	0	44	102	1048576	12	4378
2026-01-24 04:33:39.85	266.41	10.52	-26.3	-28.1	15.2	0.00e+00	0	44	102	1048576	12	4421
2026-01-24 04:33:40.86	266.29	10.45	-26.3	-28.1	15.2	1.10e-06	0	44	102	1048576	12	4430
2026-01-24 04:33:41.87	266.17	10.38	-26.2	-27.9	15.3	1.27e-03	0	44	102	1048576	12	4366
2026-01-24 04:33:42.87	266.06	10.31	-26.3	-28.0	15.2	0.00e+00	0	44	102	1048576	12	4410
2026-01-24 04:33:43.87	265.94	10.24	-26.3	-28.1	15.2	0.00e+00	0	44	102	1048576	12	4431
2026-01-24 04:33:44.88	265.82	10.17	-26.3	-28.1	15.1	0.00e+00	0	44	102	1048576	12	4438
2026-01-24 04:33:45.88	265.71	10.11	-26.3	-28.1	15.2	0.00e+00	0	44	102	1048576	12	4422
2026-01-24 04:33:46.89	265.59	10.04	-26.4	-28.2	15.1	0.00e+00	0	44	102	1048576	12	4469
2026-01-24 04:33:47.89	265.48	9.97	-26.4	-28.3	15.1	0.00e+00	0	44	102	1048576	12	4477
2026-01-24 04:33:48.90	265.36	9.90	-26.3	-28.2	15.1	1.09e-03	0	44	102	1048576	12	4464
2026-01-24 04:33:49.90	265.25	9.84	-26.5	-28.0	14.9	0.00e+00	0	44	102	1048576	13	4300
2026-01-24 04:33:50.91	265.13	9.77	-26.3	-28.1	15.1	1.08e-03	0	44	102	1048576	12	4436
2026-01-24 04:33:51.91	265.02	9.70	-26.3	-28.1	15.1	1.03e-03	0	44	102	1048576	12	4443
2026-01-24 04:33:52.91	264.91	9.64	-26.2	-28.0	15.2	0.00e+00	0	44	102	1048576	12	4391
2026-01-24 04:33:53.92	264.80	9.57	-26.4	-28.4	14.9	1.37e-03	0	44	102	1048576	12	4526
2026-01-24 04:33:54.92	264.69	9.50	-26.3	-28.2	15.1	0.00e+00	0	44	102	1048576	12	4460
2026-01-24 04:33:55.93	264.57	9.43	-26.5	-28.5	14.9	1.22e-04	0	44	102	1048576	12	4541
2026-01-24 04:33:56.92	264.47	9.37	-26.5	-28.5	14.9	1.22e-03	0	44	102	1048576	12	4543
2026-01-24 04:33:57.93	264.36	9.30	-26.6	-28.3	14.7	1.63e-03	0	44	102	1048576	13	4385
2026-01-24 04:33:58.93	264.25	9.23	-26.8	-28.7	14.4	1.99e-04	0	44	102	1048576	13	4504
2026-01-24 04:33:59.93	264.14	9.17	-26.7	-28.5	14.5	1.77e-03	0	44	102	1048576	13	4434
2026-01-24 04:34:00.94	264.03	9.10	-26.6	-28.4	14.6	1.74e-03	0	44	102	1048576	13	4405
2026-01-24 04:34:01.94	263.92	9.03	-26.7	-28.6	14.5	0.00e+00	0	44	102	1048576	13	4476
2026-01-24 04:34:02.94	263.82	8.97	-26.8	-28.6	14.5	1.70e-03	0	44	102	1048576	13	4478
2026-01-24 04:34:03.95	263.71	8.90	-26.8	-28.8	14.4	1.65e-03	0	44	102	1048576	13	4513
2026-01-24 04:34:04.96	263.60	8.83	-26.7	-28.5	14.5	1.27e-04	0	44	102	1048576	13	4444
2026-01-24 04:34:05.95	263.50	8.77	-26.6	-28.4	14.6	1.63e-03	0	44	102	1048576	13	4405
2026-01-24 04:34:06.96	263.39	8.70	-26.7	-28.6	14.5	1.47e-03	0	44	102	1048576	13	4458
2026-01-24 04:34:07.96	263.29	8.64	-26.7	-28.6	14.5	2.17e-05	0	44	102	1048576	13	4462
2026-01-24 04:34:08.95	263.19	8.57	-26.7	-28.6	14.4	0.00e+00	0	44	102	1048576	13	4474
2026-01-24 04:34:09.95	263.08	8.51	-26.7	-28.6	14.4	1.26e-03	0	44	102	1048576	13	4478
2026-01-24 04:34:10.95	262.98	8.44	-26.8	-28.8	14.4	2.20e-06	0	44	102	1048576	13	4527
2026-01-24 04:34:11.95	262.88	8.38	-26.7	-28.5	14.5	8.94e-04	0	44	102	1048576	13	4433
2026-01-24 04:34:12.95	262.78	8.31	-26.7	-28.5	14.4	8.50e-04	0	44	102	1048576	13	4444
2026-01-24 04:34:13.95	262.67	8.24	-26.7	-28.5	14.4	6.80e-06	0	44	102	1048576	13	4456
2026-01-24 04:34:14.96	262.57	8.18	-26.7	-28.6	14.4	3.33e-04	0	44	102	1048576	13	4457
2026-01-24 04:34:15.96	262.47	8.11	-26.7	-28.5	14.5	0.00e+00	0	44	102	1048576	13	4430
2026-01-24 04:34:16.97	262.37	8.05	-26.7	-28.6	14.4	6.80e-06	0	44	102	1048576	13	4469
2026-01-24 04:34:17.97	262.27	7.98	-27.0	-29.2	14.1	4.50e-06	0	44	102	1048576	13	4635
2026-01-24 04:34:18.97	262.17	7.92	-26.8	-28.7	14.3	3.52e-04	0	44	102	1048576	13	4505
2026-01-24 04:34:19.98	262.07	7.85	-26.7	-28.6	14.4	5.70e-06	0	44	102	1048576	13	4464
2026-01-24 04:34:20.99	261.97	7.79	-26.8	-28.8	14.3	1.10e-06	0	44	102	1048576	13	4519
2026-01-24 04:34:21.99	261.88	7.72	-26.7	-28.7	14.3	2.12e-04	0	45	102	1048576	13	4490
2026-01-24 04:34:22.99	261.78	7.66	-26.9	-29.0	14.1	6.80e-06	0	44	102	1048576	13	4580
2026-01-24 04:34:23.99	261.68	7.59	-26.8	-28.8	14.2	0.00e+00	0	44	102	1048576	13	4527
2026-01-24 04:34:25.00	261.58	7.53	-26.9	-29.1	14.0	3.40e-06	0	44	102	1048576	13	4616
2026-01-24 04:34:26.00	261.49	7.47	-26.9	-29.0	14.1	5.70e-06	0	44	102	1048576	13	4590
2026-01-24 04:34:26.99	261.39	7.40	-27.0	-29.2	14.0	7.78e-05	0	44	102	1048576	13	4658
2026-01-24 04:34:28.00	261.30	7.34	-26.9	-29.0	14.0	5.70e-06	0	44	102	1048576	13	4600
2026-01-24 04:34:29.01	261.20	7.27	-27.0	-29.2	13.9	3.40e-06	0	44	102	1048576	13	4640
2026-01-24 04:34:30.00	261.11	7.21	-27.1	-29.1	13.7	9.10e-06	0	44	102	1048576	14	4508
2026-01-24 04:34:31.01	261.01	7.14	-27.1	-28.9	13.8	2.20e-06	0	44	102	1048576	14	4458
2026-01-24 04:34:32.01	260.92	7.08	-27.1	-28.9	13.8	5.70e-06	0	44	102	1048576	14	4463
2026-01-24 04:34:33.02	260.83	7.02	-33.0	-43.6	3.8	8.46e-01	0	44	104	1048576	26	12209
2026-01-24 04:34:34.02	260.73	6.95	-33.5	-45.1	3.8	8.45e-01	0	44	104	1048576	26	13626
2026-01-24 04:34:35.02	260.64	6.89	-33.8	-45.2	3.8	8.47e-01	0	44	104	1048576	27	13292

#Closed at: 2026-01-24 04:34:35
#Recorded file [1 MB]: D:/data/31010_260124_072447.dat