passes_logs/2026/01/24/R2M6_AANII_01/R2M6_AANII_01__20260124_084043_NOAA_20_JPSS-1_rec.log

#Pass ID: 20260124_084043_NOAA 20 (JPSS-1)
#Satellite: NOAA 20 (JPSS-1)
#Configuration: NOAA 20
#almurnet v.1.7.20240730
#Start time: 2026-01-24 08:40:44

#Version: 2.2.20231116
#Station: R2M6_AANII_01
#Location: 30.233357 lon 59.946436 lat
#TLE: 1 43013U 17073A   26023.57676825  .00000205  00000+0  11821-3 0  9990
#TLE: 2 43013  98.7645 324.4259 0001147  27.0566 333.0670 14.19539368423954

#Time	Az	El	Level	Level2	SNR	BER	BlckErr	Temp	State	Recorded	gain1	gain2
2026-01-24 08:40:44.13	109.27	7.07	-32.4	-39.5	4.6	1.37e+00	0	41	0	0	26	8162
2026-01-24 08:40:45.13	109.19	7.13	-32.1	-38.7	4.8	1.30e+00	0	41	104	0	25	7612
2026-01-24 08:40:46.13	109.11	7.20	-32.1	-38.4	7.2	1.39e-01	0	41	0	0	25	7420
2026-01-24 08:40:47.13	109.03	7.27	-32.1	-38.5	7.1	1.40e-01	0	41	102	1048576	25	7464
2026-01-24 08:40:48.14	108.95	7.34	-32.2	-38.9	6.9	1.69e-01	0	41	102	1048576	25	7729
2026-01-24 08:40:49.14	108.87	7.41	-32.2	-38.8	6.9	1.67e-01	0	41	102	1048576	25	7698
2026-01-24 08:40:50.14	108.79	7.48	-32.3	-39.2	6.6	1.95e-01	0	41	102	1048576	25	7986
2026-01-24 08:40:51.15	108.70	7.54	-32.4	-40.0	6.1	2.83e-01	0	41	102	1048576	25	8627
2026-01-24 08:40:52.16	108.62	7.61	-32.3	-39.1	6.7	2.44e-01	0	41	102	1048576	25	7914
2026-01-24 08:40:53.16	108.54	7.68	-32.1	-38.0	7.5	1.49e-01	0	41	102	1048576	25	7163
2026-01-24 08:40:54.16	108.45	7.75	-31.9	-36.9	8.4	5.82e-02	0	41	102	1048576	25	6473
2026-01-24 08:40:55.17	108.37	7.82	-31.6	-36.4	9.3	2.36e-02	0	41	102	1048576	24	6228
2026-01-24 08:40:56.18	108.29	7.89	-31.4	-35.8	9.7	1.50e-02	0	41	102	1048576	24	5923
2026-01-24 08:40:57.18	108.20	7.96	-31.4	-35.4	10.1	8.33e-03	0	41	102	1048576	24	5741
2026-01-24 08:40:58.19	108.11	8.03	-31.4	-36.1	10.0	4.86e-03	0	41	102	1048576	23	6169
2026-01-24 08:40:59.20	108.03	8.10	-31.5	-36.5	9.6	1.01e-02	0	42	102	1048576	23	6388
2026-01-24 08:41:00.20	107.94	8.17	-31.5	-36.3	9.9	1.17e-02	0	41	102	1048576	23	6254
2026-01-24 08:41:01.21	107.86	8.24	-31.4	-35.9	10.1	6.23e-03	0	42	102	1048576	23	6088
2026-01-24 08:41:02.21	107.77	8.31	-31.5	-36.2	10.0	7.50e-03	0	42	102	1048576	23	6195
2026-01-24 08:41:03.22	107.68	8.38	-31.4	-35.8	10.2	7.43e-03	0	41	102	1048576	23	6017
2026-01-24 08:41:04.22	107.59	8.45	-31.4	-35.9	10.2	5.35e-03	0	42	102	1048576	23	6057
2026-01-24 08:41:05.23	107.50	8.52	-31.5	-36.4	9.8	8.54e-03	0	41	102	1048576	23	6335
2026-01-24 08:41:06.23	107.42	8.59	-31.5	-36.2	10.0	7.20e-03	0	42	102	1048576	23	6182
2026-01-24 08:41:07.24	107.33	8.66	-31.5	-36.4	9.9	7.56e-03	0	42	102	1048576	23	6303
2026-01-24 08:41:08.24	107.24	8.73	-31.7	-37.2	9.2	1.85e-02	0	42	102	1048576	23	6745
2026-01-24 08:41:09.25	107.15	8.81	-31.5	-36.3	9.9	1.33e-02	0	42	102	1048576	23	6253
2026-01-24 08:41:10.25	107.06	8.88	-31.2	-35.3	10.7	6.19e-03	0	42	102	1048576	23	5776
2026-01-24 08:41:11.26	106.96	8.95	-31.2	-35.1	10.9	2.44e-03	0	42	102	1048576	23	5663
2026-01-24 08:41:12.27	106.87	9.02	-31.2	-35.1	10.9	2.29e-03	0	42	102	1048576	23	5632
2026-01-24 08:41:13.27	106.78	9.09	-31.2	-35.2	10.9	2.27e-03	0	42	102	1048576	23	5684
2026-01-24 08:41:14.27	106.69	9.16	-31.1	-34.9	11.0	1.73e-03	0	42	102	1048576	23	5571
2026-01-24 08:41:15.27	106.60	9.24	-31.2	-35.3	10.8	2.57e-03	0	42	102	1048576	23	5729
2026-01-24 08:41:16.28	106.50	9.31	-31.1	-34.8	11.2	1.76e-03	0	42	102	1048576	23	5508
2026-01-24 08:41:17.28	106.41	9.38	-31.3	-35.3	10.8	2.19e-03	0	42	102	1048576	23	5745
2026-01-24 08:41:18.29	106.31	9.45	-31.4	-35.7	10.5	3.59e-03	0	42	102	1048576	23	5910
2026-01-24 08:41:19.29	106.22	9.53	-31.3	-35.5	10.7	3.37e-03	0	42	102	1048576	23	5830
2026-01-24 08:41:20.29	106.12	9.60	-31.3	-35.4	10.8	2.41e-03	0	42	102	1048576	23	5777
2026-01-24 08:41:21.30	106.03	9.67	-31.3	-35.4	10.8	2.62e-03	0	42	102	1048576	23	5763
2026-01-24 08:41:22.31	105.93	9.74	-31.4	-35.7	10.5	2.87e-03	0	42	102	1048576	23	5917
2026-01-24 08:41:23.31	105.83	9.82	-31.5	-36.2	10.2	4.42e-03	0	42	102	1048576	23	6154
2026-01-24 08:41:24.32	105.74	9.89	-31.3	-35.4	10.8	3.36e-03	0	42	102	1048576	23	5768
2026-01-24 08:41:25.33	105.64	9.96	-31.2	-35.0	11.1	1.88e-03	0	42	102	1048576	23	5599
2026-01-24 08:41:26.33	105.54	10.04	-31.4	-35.7	10.6	1.84e-03	0	42	102	1048576	23	5901
2026-01-24 08:41:27.34	105.44	10.11	-31.4	-35.6	10.7	3.17e-03	0	42	102	1048576	23	5843
2026-01-24 08:41:28.34	105.34	10.18	-31.2	-35.2	11.0	2.27e-03	0	42	102	1048576	23	5659
2026-01-24 08:41:29.35	105.24	10.26	-31.3	-35.5	10.8	2.77e-03	0	42	102	1048576	23	5804
2026-01-24 08:41:30.35	105.14	10.33	-31.3	-35.3	10.9	2.24e-03	0	42	102	1048576	23	5741
2026-01-24 08:41:31.36	105.04	10.41	-31.3	-35.4	10.9	2.06e-03	0	42	102	1048576	23	5751
2026-01-24 08:41:32.36	104.94	10.48	-31.3	-35.3	10.9	2.28e-03	0	42	102	1048576	23	5709
2026-01-24 08:41:33.36	104.84	10.56	-31.3	-35.4	10.9	2.48e-03	0	42	102	1048576	23	5762
2026-01-24 08:41:34.37	104.73	10.63	-31.4	-35.7	10.6	3.00e-03	0	42	102	1048576	23	5891
2026-01-24 08:41:35.38	104.63	10.71	-31.4	-35.6	10.7	3.86e-03	0	42	102	1048576	23	5839
2026-01-24 08:41:36.39	104.53	10.78	-31.3	-35.3	10.9	2.23e-03	0	42	102	1048576	23	5699
2026-01-24 08:41:37.39	104.42	10.86	-31.2	-35.0	11.2	1.55e-03	0	42	102	1048576	23	5569
2026-01-24 08:41:38.40	104.32	10.93	-31.2	-34.9	11.3	1.24e-03	0	42	102	1048576	23	5507
2026-01-24 08:41:39.40	104.21	11.01	-31.2	-34.9	11.3	1.11e-03	0	42	102	1048576	23	5509
2026-01-24 08:41:40.41	104.11	11.08	-31.1	-34.5	11.6	8.09e-04	0	42	102	1048576	23	5341
2026-01-24 08:41:41.41	104.00	11.16	-31.1	-34.6	11.5	9.01e-04	0	42	102	1048576	23	5375
2026-01-24 08:41:42.41	103.89	11.23	-31.1	-34.6	11.5	7.68e-04	0	42	102	1048576	23	5386
2026-01-24 08:41:43.42	103.78	11.31	-31.1	-34.6	11.5	8.00e-04	0	42	102	1048576	23	5395
2026-01-24 08:41:44.42	103.68	11.38	-31.1	-34.7	11.4	8.44e-04	0	42	102	1048576	23	5414
2026-01-24 08:41:45.43	103.57	11.46	-31.1	-34.5	11.5	1.03e-03	0	42	102	1048576	23	5366
2026-01-24 08:41:46.43	103.46	11.54	-31.0	-34.3	11.7	6.13e-04	0	42	102	1048576	23	5251
2026-01-24 08:41:47.43	103.35	11.61	-31.0	-34.2	11.8	4.61e-04	0	42	102	1048576	23	5239
2026-01-24 08:41:48.43	103.24	11.69	-31.1	-34.8	11.4	6.89e-04	0	42	102	1048576	23	5478
2026-01-24 08:41:49.43	103.13	11.76	-31.3	-35.3	11.0	1.64e-03	0	42	102	1048576	23	5683
2026-01-24 08:41:50.43	103.02	11.84	-31.3	-35.3	11.0	1.58e-03	0	43	102	1048576	23	5697
2026-01-24 08:41:51.44	102.91	11.92	-31.3	-35.4	10.9	2.51e-03	0	42	102	1048576	23	5751
2026-01-24 08:41:52.45	102.79	11.99	-31.1	-34.7	11.5	1.37e-03	0	42	102	1048576	23	5429
2026-01-24 08:41:53.45	102.68	12.07	-31.0	-34.3	11.7	8.38e-04	0	42	102	1048576	23	5276
2026-01-24 08:41:54.46	102.56	12.15	-31.0	-34.2	11.8	5.48e-04	0	42	102	1048576	23	5226
2026-01-24 08:41:55.46	102.45	12.23	-31.0	-34.2	11.9	3.48e-04	0	43	102	1048576	23	5216
2026-01-24 08:41:56.46	102.34	12.30	-31.1	-34.4	11.7	6.43e-04	0	43	102	1048576	23	5321
2026-01-24 08:41:57.47	102.22	12.38	-31.1	-34.6	11.5	7.10e-04	0	43	102	1048576	23	5397
2026-01-24 08:41:58.48	102.10	12.46	-31.1	-34.7	11.5	7.70e-04	0	43	102	1048576	23	5452
2026-01-24 08:41:59.48	101.99	12.54	-31.1	-34.7	11.5	9.12e-04	0	42	102	1048576	23	5424
2026-01-24 08:42:00.47	101.87	12.61	-31.1	-34.5	11.7	6.54e-04	0	43	102	1048576	23	5335
2026-01-24 08:42:01.48	101.75	12.69	-31.0	-34.3	11.8	5.97e-04	0	43	102	1048576	23	5270
2026-01-24 08:42:02.48	101.63	12.77	-31.0	-34.3	11.8	3.76e-04	0	43	102	1048576	23	5251
2026-01-24 08:42:03.49	101.51	12.85	-31.0	-34.2	11.9	4.39e-04	0	43	102	1048576	23	5225
2026-01-24 08:42:04.49	101.39	12.93	-31.0	-34.2	11.9	4.19e-04	0	43	102	1048576	23	5203
2026-01-24 08:42:05.50	101.27	13.01	-31.0	-34.2	11.9	3.83e-04	0	43	102	1048576	23	5235
2026-01-24 08:42:06.50	101.15	13.09	-31.0	-34.3	11.8	4.65e-04	0	43	102	1048576	23	5267
2026-01-24 08:42:07.50	101.03	13.16	-31.0	-34.2	11.8	4.53e-04	0	43	102	1048576	23	5229
2026-01-24 08:42:08.50	100.91	13.24	-31.1	-34.4	11.7	4.65e-04	0	43	102	1048576	23	5303
2026-01-24 08:42:09.51	100.78	13.32	-31.0	-34.3	11.8	6.27e-04	0	43	102	1048576	23	5237
2026-01-24 08:42:10.52	100.66	13.40	-30.9	-34.0	12.0	3.40e-04	0	43	102	1048576	23	5139
2026-01-24 08:42:11.52	100.53	13.48	-30.9	-33.8	12.2	2.46e-04	0	43	102	1048576	23	5043
2026-01-24 08:42:12.52	100.41	13.56	-30.8	-33.7	12.3	1.68e-04	0	43	102	1048576	23	5012
2026-01-24 08:42:13.52	100.28	13.64	-30.9	-34.0	12.1	2.73e-04	0	43	102	1048576	23	5128
2026-01-24 08:42:14.53	100.15	13.72	-30.9	-34.0	12.1	2.83e-04	0	43	102	1048576	23	5123
2026-01-24 08:42:15.54	100.03	13.80	-31.0	-34.1	12.1	2.94e-04	0	43	102	1048576	23	5147
2026-01-24 08:42:16.54	99.90	13.88	-31.0	-34.1	12.0	3.40e-04	0	43	102	1048576	23	5176
2026-01-24 08:42:17.55	99.77	13.96	-31.0	-34.3	11.9	4.07e-04	0	43	102	1048576	23	5229
2026-01-24 08:42:18.55	99.64	14.04	-30.9	-33.9	12.3	2.53e-04	0	43	102	1048576	23	5066
2026-01-24 08:42:19.56	99.51	14.12	-30.9	-33.8	12.3	1.94e-04	0	43	102	1048576	23	5036
2026-01-24 08:42:20.55	99.38	14.20	-30.9	-34.0	12.2	2.47e-04	0	43	102	1048576	23	5097
2026-01-24 08:42:21.55	99.25	14.28	-30.9	-33.9	12.2	2.50e-04	0	43	102	1048576	23	5065
2026-01-24 08:42:22.56	99.11	14.36	-31.0	-34.1	12.1	2.21e-04	0	43	102	1048576	23	5153
2026-01-24 08:42:23.56	98.98	14.44	-31.1	-34.3	12.0	3.13e-04	0	43	102	1048576	23	5218
2026-01-24 08:42:24.56	98.85	14.52	-31.0	-34.1	12.1	2.75e-04	0	43	102	1048576	23	5123
2026-01-24 08:42:25.57	98.71	14.60	-30.9	-33.9	12.2	2.39e-04	0	43	102	1048576	23	5069
2026-01-24 08:42:26.57	98.58	14.68	-30.9	-33.8	12.3	1.70e-04	0	43	102	1048576	23	5023
2026-01-24 08:42:27.58	98.44	14.77	-30.9	-33.8	12.3	1.73e-04	0	43	102	1048576	23	5018
2026-01-24 08:42:28.58	98.30	14.85	-30.9	-33.8	12.4	1.42e-04	0	43	102	1048576	23	5022
2026-01-24 08:42:29.58	98.16	14.93	-31.0	-34.0	12.2	2.10e-04	0	43	102	1048576	23	5095
2026-01-24 08:42:30.59	98.03	15.01	-31.0	-34.0	12.2	2.70e-04	0	43	102	1048576	23	5122
2026-01-24 08:42:31.59	97.89	15.09	-30.8	-33.5	12.5	1.21e-04	0	43	102	1048576	23	4929
2026-01-24 08:42:32.59	97.75	15.17	-30.8	-33.5	12.6	8.31e-05	0	43	102	1048576	23	4904
2026-01-24 08:42:33.59	97.61	15.25	-30.8	-33.6	12.5	9.46e-05	0	43	102	1048576	23	4964
2026-01-24 08:42:34.60	97.46	15.34	-30.8	-33.6	12.5	1.14e-04	0	43	102	1048576	23	4962
2026-01-24 08:42:35.60	97.32	15.42	-30.8	-33.9	12.7	9.30e-05	0	43	102	1048576	22	5178
2026-01-24 08:42:36.61	97.18	15.50	-30.8	-33.9	12.7	7.70e-05	0	43	102	1048576	22	5139
2026-01-24 08:42:37.62	97.03	15.58	-30.8	-33.9	12.7	7.93e-05	0	43	102	1048576	22	5148
2026-01-24 08:42:38.62	96.89	15.67	-30.7	-33.8	12.8	6.02e-05	0	43	102	1048576	22	5099
2026-01-24 08:42:39.62	96.74	15.75	-30.8	-33.9	12.7	7.01e-05	0	43	102	1048576	22	5151
2026-01-24 08:42:40.62	96.60	15.83	-30.8	-34.1	12.6	8.92e-05	0	43	102	1048576	22	5220
2026-01-24 08:42:41.62	96.45	15.91	-30.8	-34.0	12.6	8.01e-05	0	43	102	1048576	22	5193
2026-01-24 08:42:42.63	96.30	16.00	-30.8	-34.1	12.6	8.46e-05	0	43	102	1048576	22	5221
2026-01-24 08:42:43.64	96.15	16.08	-31.0	-34.6	12.2	1.26e-04	0	43	102	1048576	22	5445
2026-01-24 08:42:44.64	96.00	16.16	-31.0	-34.6	12.2	2.60e-04	0	43	102	1048576	22	5435
2026-01-24 08:42:45.65	95.85	16.24	-30.9	-34.3	12.4	1.50e-04	0	43	102	1048576	22	5331
2026-01-24 08:42:46.65	95.70	16.33	-30.8	-34.0	12.7	1.04e-04	0	43	102	1048576	22	5190
2026-01-24 08:42:47.66	95.55	16.41	-30.8	-33.8	12.8	6.86e-05	0	43	102	1048576	22	5120
2026-01-24 08:42:48.67	95.39	16.49	-30.8	-33.9	12.8	7.09e-05	0	43	102	1048576	22	5153
2026-01-24 08:42:49.67	95.24	16.58	-30.8	-33.9	12.8	8.85e-05	0	43	102	1048576	22	5132
2026-01-24 08:42:50.68	95.08	16.66	-30.8	-34.1	12.7	6.10e-05	0	43	102	1048576	22	5209
2026-01-24 08:42:51.68	94.93	16.74	-30.8	-34.0	12.7	7.62e-05	0	43	102	1048576	22	5184
2026-01-24 08:42:52.68	94.77	16.83	-30.8	-33.9	12.8	6.40e-05	0	43	102	1048576	22	5139
2026-01-24 08:42:53.68	94.61	16.91	-30.8	-33.9	12.8	7.24e-05	0	43	102	1048576	22	5144
2026-01-24 08:42:54.69	94.45	16.99	-30.8	-34.0	12.8	7.01e-05	0	43	102	1048576	22	5170
2026-01-24 08:42:55.69	94.30	17.08	-30.9	-34.1	12.7	8.69e-05	0	43	102	1048576	22	5232
2026-01-24 08:42:56.69	94.14	17.16	-31.0	-34.5	12.4	1.09e-04	0	43	102	1048576	22	5381
2026-01-24 08:42:57.69	93.98	17.24	-31.0	-34.5	12.4	1.57e-04	0	43	102	1048576	22	5382
2026-01-24 08:42:58.70	93.81	17.33	-30.9	-34.3	12.6	1.15e-04	0	43	102	1048576	22	5286
2026-01-24 08:42:59.70	93.65	17.41	-31.0	-34.3	12.5	1.03e-04	0	43	102	1048576	22	5310
2026-01-24 08:43:00.70	93.49	17.50	-31.0	-34.6	12.4	1.27e-04	0	43	102	1048576	22	5431
2026-01-24 08:43:01.70	93.32	17.58	-31.0	-34.5	12.5	1.75e-04	0	43	102	1048576	22	5376
2026-01-24 08:43:02.71	93.16	17.66	-31.1	-34.6	12.3	1.41e-04	0	43	102	1048576	22	5440
2026-01-24 08:43:03.71	92.99	17.75	-31.0	-34.6	12.3	1.83e-04	0	43	102	1048576	22	5419
2026-01-24 08:43:04.72	92.82	17.83	-31.0	-34.4	12.5	1.53e-04	0	43	102	1048576	22	5355
2026-01-24 08:43:05.72	92.65	17.91	-30.9	-34.2	12.7	8.39e-05	0	43	102	1048576	22	5265
2026-01-24 08:43:06.73	92.48	18.00	-30.9	-34.3	12.6	7.70e-05	0	43	102	1048576	22	5278
2026-01-24 08:43:07.73	92.31	18.08	-30.9	-34.3	12.7	8.23e-05	0	43	102	1048576	22	5278
2026-01-24 08:43:08.73	92.14	18.17	-31.0	-34.5	12.5	9.76e-05	0	43	102	1048576	22	5360
2026-01-24 08:43:09.73	91.97	18.25	-30.9	-34.3	12.6	1.20e-04	0	43	102	1048576	22	5291
2026-01-24 08:43:10.74	91.80	18.34	-30.9	-34.2	12.7	9.07e-05	0	43	102	1048576	22	5257
2026-01-24 08:43:11.74	91.62	18.42	-30.9	-34.0	12.8	6.79e-05	0	43	102	1048576	22	5180
2026-01-24 08:43:12.74	91.45	18.50	-30.9	-34.2	12.7	6.48e-05	0	43	102	1048576	22	5250
2026-01-24 08:43:13.75	91.27	18.59	-30.9	-34.2	12.7	8.69e-05	0	43	102	1048576	22	5235
2026-01-24 08:43:14.75	91.09	18.67	-30.8	-33.8	13.0	4.11e-05	0	43	102	1048576	22	5077
2026-01-24 08:43:15.76	90.91	18.76	-30.8	-33.9	12.9	3.66e-05	0	43	102	1048576	22	5136
2026-01-24 08:43:16.76	90.73	18.84	-30.8	-34.0	12.9	4.65e-05	0	43	102	1048576	22	5153
2026-01-24 08:43:17.77	90.55	18.92	-30.9	-34.2	12.7	6.17e-05	0	43	102	1048576	22	5243
2026-01-24 08:43:18.77	90.37	19.01	-30.9	-34.1	12.8	6.94e-05	0	43	102	1048576	22	5213
2026-01-24 08:43:19.78	90.19	19.09	-30.9	-34.0	12.8	4.95e-05	0	43	102	1048576	22	5169
2026-01-24 08:43:20.79	90.00	19.18	-30.9	-34.1	12.8	4.50e-05	0	43	102	1048576	22	5190
2026-01-24 08:43:21.79	89.82	19.26	-31.0	-34.4	12.6	7.70e-05	0	43	102	1048576	22	5332
2026-01-24 08:43:22.80	89.63	19.35	-31.0	-34.4	12.6	9.53e-05	0	43	102	1048576	22	5323
2026-01-24 08:43:23.80	89.45	19.43	-31.1	-34.6	12.5	1.29e-04	0	43	102	1048576	22	5397
2026-01-24 08:43:24.80	89.26	19.51	-31.1	-34.6	12.5	1.04e-04	0	43	102	1048576	22	5414
2026-01-24 08:43:25.81	89.07	19.60	-31.0	-34.3	12.7	8.54e-05	0	43	102	1048576	22	5269
2026-01-24 08:43:26.81	88.88	19.68	-30.9	-34.0	12.9	6.02e-05	0	43	102	1048576	22	5171
2026-01-24 08:43:27.81	88.69	19.76	-30.8	-33.9	13.0	4.50e-05	0	43	102	1048576	22	5127
2026-01-24 08:43:28.81	88.50	19.85	-30.8	-33.7	13.1	3.20e-05	0	43	102	1048576	22	5046
2026-01-24 08:43:29.82	88.31	19.93	-30.7	-33.5	13.2	2.21e-05	0	43	102	1048576	22	4971
2026-01-24 08:43:30.82	88.12	20.02	-30.8	-33.7	13.2	1.83e-05	0	43	102	1048576	22	5046
2026-01-24 08:43:31.82	87.92	20.10	-30.7	-33.5	13.3	2.36e-05	0	43	102	1048576	22	4969
2026-01-24 08:43:32.82	87.73	20.18	-30.7	-33.5	13.3	1.60e-05	0	43	102	1048576	22	4964
2026-01-24 08:43:33.83	87.53	20.27	-30.7	-33.4	13.3	2.21e-05	0	43	102	1048576	22	4943
2026-01-24 08:43:34.84	87.33	20.35	-30.8	-33.7	13.2	1.67e-05	0	43	102	1048576	22	5030
2026-01-24 08:43:35.84	87.13	20.43	-30.8	-33.8	13.1	2.36e-05	0	43	102	1048576	22	5078
2026-01-24 08:43:36.85	86.93	20.52	-30.8	-33.7	13.2	2.67e-05	0	43	102	1048576	22	5029
2026-01-24 08:43:37.85	86.73	20.60	-30.8	-33.6	13.2	2.89e-05	0	43	102	1048576	22	5009
2026-01-24 08:43:38.86	86.53	20.68	-30.7	-33.5	13.2	1.67e-05	0	43	102	1048576	22	4968
2026-01-24 08:43:39.86	86.32	20.76	-30.9	-33.9	13.0	1.90e-05	0	43	102	1048576	22	5113
2026-01-24 08:43:40.86	86.12	20.85	-30.7	-33.5	13.4	3.20e-05	0	43	102	1048576	22	4945
2026-01-24 08:43:41.86	85.91	20.93	-30.5	-33.0	13.6	1.44e-05	0	43	102	1048576	22	4783
2026-01-24 08:43:42.86	85.71	21.01	-30.5	-32.8	13.8	4.50e-06	0	43	102	1048576	22	4722
2026-01-24 08:43:43.86	85.50	21.09	-30.5	-32.8	13.8	6.10e-06	0	43	102	1048576	22	4722
2026-01-24 08:43:44.87	85.29	21.18	-30.6	-33.1	13.6	6.10e-06	0	43	102	1048576	22	4810
2026-01-24 08:43:45.87	85.08	21.26	-30.4	-32.7	13.9	3.00e-06	0	43	102	1048576	22	4667
2026-01-24 08:43:46.87	84.87	21.34	-30.3	-32.8	14.1	3.00e-06	0	43	102	1048576	21	4807
2026-01-24 08:43:47.88	84.66	21.42	-30.2	-32.7	14.1	7.00e-07	0	43	102	1048576	21	4794
2026-01-24 08:43:48.88	84.44	21.50	-30.1	-32.5	14.3	7.00e-07	0	43	102	1048576	21	4715
2026-01-24 08:43:49.87	84.23	21.58	-30.2	-32.6	14.2	1.50e-06	0	43	102	1048576	21	4756
2026-01-24 08:43:50.88	84.01	21.67	-30.1	-32.3	14.4	1.50e-06	0	43	102	1048576	21	4641
2026-01-24 08:43:51.88	83.80	21.75	-30.0	-32.2	14.5	7.00e-07	0	43	102	1048576	21	4616
2026-01-24 08:43:52.88	83.58	21.83	-30.2	-32.6	14.2	7.00e-07	0	43	102	1048576	21	4749
2026-01-24 08:43:53.89	83.36	21.91	-29.9	-31.9	14.7	1.50e-06	0	43	102	1048576	21	4508
2026-01-24 08:43:54.90	83.14	21.99	-29.7	-31.8	15.0	0.00e+00	0	43	102	1048576	20	4588
2026-01-24 08:43:55.90	82.92	22.07	-29.6	-31.6	15.2	0.00e+00	0	43	102	1048576	20	4520
2026-01-24 08:43:56.91	82.69	22.15	-29.7	-31.8	15.1	0.00e+00	0	43	102	1048576	20	4586
2026-01-24 08:43:57.92	82.47	22.23	-29.7	-31.7	15.1	0.00e+00	0	43	102	1048576	20	4557
2026-01-24 08:43:58.92	82.24	22.31	-29.7	-31.8	15.1	0.00e+00	0	43	102	1048576	20	4577
2026-01-24 08:43:59.92	82.02	22.39	-29.8	-32.0	14.9	0.00e+00	0	43	102	1048576	20	4658
2026-01-24 08:44:00.92	81.79	22.47	-29.7	-31.8	15.1	7.00e-07	0	43	102	1048576	20	4584
2026-01-24 08:44:01.92	81.56	22.55	-29.7	-32.0	14.9	0.00e+00	0	43	102	1048576	20	4650
2026-01-24 08:44:02.92	81.34	22.62	-29.7	-31.9	14.9	0.00e+00	0	43	102	1048576	20	4635
2026-01-24 08:44:03.93	81.10	22.70	-29.7	-31.8	15.0	0.00e+00	0	43	102	1048576	20	4591
2026-01-24 08:44:04.93	80.87	22.78	-29.7	-31.9	15.0	7.00e-07	0	43	102	1048576	20	4624
2026-01-24 08:44:05.93	80.64	22.86	-29.7	-31.8	15.0	0.00e+00	0	43	102	1048576	20	4583
2026-01-24 08:44:06.93	80.41	22.94	-29.8	-32.0	15.0	0.00e+00	0	43	102	1048576	20	4635
2026-01-24 08:44:07.94	80.17	23.01	-29.7	-31.8	15.1	0.00e+00	0	43	102	1048576	20	4582
2026-01-24 08:44:08.95	79.93	23.09	-29.7	-31.9	15.0	0.00e+00	0	43	102	1048576	20	4621
2026-01-24 08:44:09.95	79.69	23.17	-29.9	-32.2	14.9	1.50e-06	0	43	102	1048576	20	4714
2026-01-24 08:44:10.96	79.45	23.25	-29.8	-32.0	14.9	0.00e+00	0	43	102	1048576	20	4657
2026-01-24 08:44:11.97	79.21	23.32	-29.8	-32.2	14.9	0.00e+00	0	43	102	1048576	20	4703
2026-01-24 08:44:12.98	78.97	23.40	-29.7	-31.9	15.0	0.00e+00	0	43	102	1048576	20	4618
2026-01-24 08:44:13.98	78.73	23.47	-29.8	-31.9	15.0	0.00e+00	0	43	102	1048576	20	4630
2026-01-24 08:44:14.98	78.48	23.55	-29.8	-32.0	15.1	0.00e+00	0	43	102	1048576	20	4627
2026-01-24 08:44:15.99	78.24	23.62	-29.9	-32.4	14.8	0.00e+00	0	43	102	1048576	20	4763
2026-01-24 08:44:16.99	77.99	23.70	-29.8	-32.1	14.9	0.00e+00	0	43	102	1048576	20	4676
2026-01-24 08:44:17.99	77.75	23.77	-29.8	-32.0	15.0	0.00e+00	0	43	102	1048576	20	4641
2026-01-24 08:44:19.00	77.50	23.85	-29.8	-32.0	15.0	7.00e-07	0	43	102	1048576	20	4640
2026-01-24 08:44:20.01	77.24	23.92	-30.0	-32.5	14.7	0.00e+00	0	43	102	1048576	20	4794
2026-01-24 08:44:21.01	76.99	23.99	-29.9	-32.4	14.8	0.00e+00	0	43	102	1048576	20	4767
2026-01-24 08:44:22.02	76.74	24.07	-30.1	-32.7	14.6	7.00e-07	0	43	102	1048576	20	4857
2026-01-24 08:44:23.02	76.49	24.14	-30.0	-32.6	14.6	0.00e+00	0	43	102	1048576	20	4848
2026-01-24 08:44:24.02	76.24	24.21	-30.0	-32.6	14.7	0.00e+00	0	43	102	1048576	20	4827
2026-01-24 08:44:25.03	75.98	24.28	-30.2	-32.9	14.5	0.00e+00	0	43	102	1048576	20	4938
2026-01-24 08:44:26.03	75.72	24.35	-30.2	-32.9	14.5	0.00e+00	0	43	102	1048576	20	4957
2026-01-24 08:44:27.04	75.46	24.42	-30.3	-33.3	14.3	1.50e-06	0	43	102	1048576	20	5083
2026-01-24 08:44:28.05	75.20	24.49	-30.1	-32.7	14.6	0.00e+00	0	43	102	1048576	20	4857
2026-01-24 08:44:29.05	74.94	24.56	-30.0	-32.4	14.8	0.00e+00	0	43	102	1048576	20	4775
2026-01-24 08:44:30.05	74.68	24.63	-30.0	-32.4	14.8	0.00e+00	0	43	102	1048576	20	4759
2026-01-24 08:44:31.05	74.42	24.70	-30.0	-32.5	14.7	0.00e+00	0	43	102	1048576	20	4811
2026-01-24 08:44:32.06	74.16	24.77	-29.8	-32.1	15.0	0.00e+00	0	43	102	1048576	20	4666
2026-01-24 08:44:33.05	73.89	24.83	-29.8	-32.0	15.0	0.00e+00	0	43	102	1048576	20	4650
2026-01-24 08:44:34.06	73.63	24.90	-29.9	-32.1	15.0	0.00e+00	0	43	102	1048576	20	4683
2026-01-24 08:44:35.05	73.36	24.97	-29.8	-32.0	15.1	0.00e+00	0	43	102	1048576	20	4625
2026-01-24 08:44:36.04	73.10	25.03	-29.9	-32.2	14.9	0.00e+00	0	43	102	1048576	20	4719
2026-01-24 08:44:37.05	72.83	25.10	-29.8	-32.0	15.1	0.00e+00	0	43	102	1048576	20	4640
2026-01-24 08:44:38.05	72.56	25.16	-29.8	-31.9	15.2	0.00e+00	0	43	102	1048576	20	4589
2026-01-24 08:44:39.06	72.29	25.23	-29.9	-32.2	14.9	0.00e+00	0	43	102	1048576	20	4711
2026-01-24 08:44:40.07	72.01	25.29	-29.8	-31.9	15.1	0.00e+00	0	43	102	1048576	20	4595
2026-01-24 08:44:41.07	71.74	25.36	-29.7	-31.7	15.2	0.00e+00	0	43	102	1048576	20	4541
2026-01-24 08:44:42.08	71.46	25.42	-29.7	-31.8	15.2	0.00e+00	0	43	102	1048576	20	4587
2026-01-24 08:44:43.08	71.19	25.48	-29.9	-32.3	14.9	0.00e+00	0	43	102	1048576	20	4739
2026-01-24 08:44:44.09	70.91	25.54	-29.8	-31.9	15.2	0.00e+00	0	43	102	1048576	20	4605
2026-01-24 08:44:45.09	70.63	25.60	-29.7	-31.6	15.3	0.00e+00	0	43	102	1048576	20	4524
2026-01-24 08:44:46.09	70.35	25.66	-29.6	-31.6	15.4	0.00e+00	0	43	102	1048576	20	4499
2026-01-24 08:44:47.10	70.07	25.72	-29.7	-31.8	15.2	0.00e+00	0	43	102	1048576	20	4577
2026-01-24 08:44:48.10	69.79	25.78	-29.7	-31.7	15.3	0.00e+00	0	43	102	1048576	20	4530
2026-01-24 08:44:49.11	69.51	25.84	-29.7	-31.8	15.2	0.00e+00	0	43	102	1048576	20	4587
2026-01-24 08:44:50.11	69.23	25.90	-29.6	-31.6	15.4	0.00e+00	0	43	102	1048576	20	4501
2026-01-24 08:44:51.11	68.94	25.96	-29.7	-31.7	15.3	0.00e+00	0	43	102	1048576	20	4528
2026-01-24 08:44:52.12	68.65	26.01	-29.8	-32.1	15.0	0.00e+00	0	43	102	1048576	20	4661
2026-01-24 08:44:53.12	68.37	26.07	-29.9	-32.2	15.0	0.00e+00	0	43	102	1048576	20	4687
2026-01-24 08:44:54.12	68.08	26.12	-29.9	-32.1	15.0	7.00e-07	0	43	102	1048576	20	4671
2026-01-24 08:44:55.13	67.79	26.18	-29.9	-32.2	14.9	0.00e+00	0	43	102	1048576	20	4713
2026-01-24 08:44:56.13	67.50	26.23	-30.0	-32.4	14.8	0.00e+00	0	43	102	1048576	20	4779
2026-01-24 08:44:57.14	67.21	26.29	-30.0	-32.5	14.8	7.00e-07	0	43	102	1048576	20	4794
2026-01-24 08:44:58.15	66.92	26.34	-30.1	-32.7	14.6	0.00e+00	0	44	102	1048576	20	4881
2026-01-24 08:44:59.16	66.63	26.39	-30.0	-32.6	14.7	0.00e+00	0	43	102	1048576	20	4828
2026-01-24 08:45:00.16	66.33	26.44	-30.2	-32.9	14.5	1.50e-06	0	43	102	1048576	20	4953
2026-01-24 08:45:01.17	66.04	26.49	-30.3	-33.3	14.4	0.00e+00	0	43	102	1048576	20	5062
2026-01-24 08:45:02.17	65.74	26.54	-30.3	-33.3	14.3	0.00e+00	0	43	102	1048576	20	5065
2026-01-24 08:45:03.18	65.44	26.59	-30.3	-33.2	14.3	7.00e-07	0	43	102	1048576	20	5051
2026-01-24 08:45:04.18	65.15	26.64	-30.4	-33.5	14.2	7.00e-07	0	43	102	1048576	20	5145
2026-01-24 08:45:05.18	64.85	26.69	-30.4	-33.5	14.1	0.00e+00	0	43	102	1048576	20	5172
2026-01-24 08:45:06.19	64.55	26.73	-30.5	-33.3	13.9	2.20e-06	0	43	102	1048576	21	4975
2026-01-24 08:45:07.19	64.25	26.78	-30.6	-33.5	13.9	2.20e-06	0	43	102	1048576	21	5042
2026-01-24 08:45:08.20	63.95	26.82	-30.5	-33.4	13.9	4.50e-06	0	43	102	1048576	21	5012
2026-01-24 08:45:09.21	63.65	26.87	-30.6	-33.6	13.8	4.50e-06	0	43	102	1048576	21	5081
2026-01-24 08:45:10.21	63.35	26.91	-30.7	-33.7	13.7	6.10e-06	0	44	102	1048576	21	5114
2026-01-24 08:45:11.21	63.04	26.95	-30.6	-33.5	13.8	4.50e-06	0	43	102	1048576	21	5049
2026-01-24 08:45:12.21	62.74	27.00	-30.7	-33.7	13.8	6.10e-06	0	43	102	1048576	21	5111
2026-01-24 08:45:13.22	62.44	27.04	-30.8	-34.1	13.5	1.14e-05	0	43	102	1048576	21	5235
2026-01-24 08:45:14.23	62.13	27.08	-30.8	-34.1	13.5	1.22e-05	0	43	102	1048576	21	5267
2026-01-24 08:45:15.24	61.82	27.12	-31.1	-34.4	13.1	2.36e-05	0	43	102	1048576	22	5241
2026-01-24 08:45:16.24	61.51	27.16	-31.1	-34.4	13.0	3.20e-05	0	43	102	1048576	22	5243
2026-01-24 08:45:17.24	61.21	27.19	-31.1	-34.4	13.0	4.19e-05	0	43	102	1048576	22	5276
2026-01-24 08:45:18.25	60.90	27.23	-31.0	-34.1	13.2	2.74e-05	0	43	102	1048576	22	5152
2026-01-24 08:45:19.25	60.59	27.27	-31.1	-34.5	13.0	2.51e-05	0	43	102	1048576	22	5278
2026-01-24 08:45:20.26	60.28	27.30	-31.2	-34.6	12.9	6.71e-05	0	43	102	1048576	22	5346
2026-01-24 08:45:21.26	59.97	27.33	-31.2	-34.6	12.9	3.58e-05	0	43	102	1048576	22	5338
2026-01-24 08:45:22.26	59.66	27.37	-31.3	-34.9	12.7	7.62e-05	0	43	102	1048576	22	5458
2026-01-24 08:45:23.26	59.35	27.40	-31.1	-34.3	13.1	4.73e-05	0	43	102	1048576	22	5231
2026-01-24 08:45:24.27	59.04	27.43	-31.1	-34.5	13.0	3.58e-05	0	43	102	1048576	22	5290
2026-01-24 08:45:25.26	58.73	27.46	-31.1	-34.2	13.2	3.73e-05	0	43	102	1048576	22	5199
2026-01-24 08:45:26.27	58.41	27.49	-31.0	-34.0	13.3	2.05e-05	0	43	102	1048576	22	5109
2026-01-24 08:45:27.28	58.10	27.52	-31.1	-34.3	13.1	2.67e-05	0	43	102	1048576	22	5197
2026-01-24 08:45:28.28	57.78	27.55	-31.2	-34.5	13.0	3.12e-05	0	43	102	1048576	22	5301
2026-01-24 08:45:29.29	57.47	27.57	-31.3	-35.0	12.6	7.40e-05	0	43	102	1048576	22	5508
2026-01-24 08:45:30.29	57.15	27.60	-31.4	-35.2	12.5	1.02e-04	0	43	102	1048576	22	5574
2026-01-24 08:45:31.29	56.84	27.62	-31.4	-35.3	12.5	8.85e-05	0	43	102	1048576	22	5590
2026-01-24 08:45:32.30	56.52	27.65	-31.6	-35.4	12.0	1.83e-04	0	43	102	1048576	23	5564
2026-01-24 08:45:33.31	56.20	27.67	-31.8	-35.8	11.7	5.89e-04	0	43	102	1048576	23	5722
2026-01-24 08:45:34.31	55.88	27.69	-31.6	-35.2	12.2	3.10e-04	0	43	102	1048576	23	5472
2026-01-24 08:45:35.32	55.56	27.71	-31.4	-34.6	12.6	1.60e-04	0	43	102	1048576	23	5220
2026-01-24 08:45:36.33	55.24	27.73	-31.2	-34.1	12.9	5.26e-05	0	43	102	1048576	23	5026
2026-01-24 08:45:37.33	54.93	27.75	-31.2	-34.1	12.9	4.95e-05	0	43	102	1048576	23	5038
2026-01-24 08:45:38.33	54.61	27.77	-31.3	-34.3	12.8	5.11e-05	0	43	102	1048576	23	5113
2026-01-24 08:45:39.34	54.29	27.79	-31.3	-34.5	12.7	6.63e-05	0	43	102	1048576	23	5192
2026-01-24 08:45:40.34	53.97	27.80	-31.3	-34.5	12.7	1.07e-04	0	43	102	1048576	23	5184
2026-01-24 08:45:41.34	53.65	27.82	-31.4	-34.5	12.6	9.46e-05	0	43	102	1048576	23	5197
2026-01-24 08:45:42.34	53.33	27.83	-31.4	-34.6	12.6	1.05e-04	0	43	102	1048576	23	5202
2026-01-24 08:45:43.34	53.01	27.85	-31.3	-34.4	12.8	6.79e-05	0	43	102	1048576	23	5135
2026-01-24 08:45:44.34	52.69	27.86	-31.2	-34.2	12.8	4.95e-05	0	43	102	1048576	23	5072
2026-01-24 08:45:45.35	52.37	27.87	-31.2	-34.2	12.9	4.42e-05	0	43	102	1048576	23	5061
2026-01-24 08:45:46.35	52.05	27.88	-31.3	-34.2	12.9	5.18e-05	0	43	102	1048576	23	5076
2026-01-24 08:45:47.35	51.73	27.89	-31.1	-33.9	13.1	2.21e-05	0	43	102	1048576	23	4942
2026-01-24 08:45:48.36	51.40	27.90	-31.1	-33.9	13.0	3.20e-05	0	43	102	1048576	23	4975
2026-01-24 08:45:49.36	51.08	27.90	-31.2	-34.0	12.9	5.49e-05	0	43	102	1048576	23	5003
2026-01-24 08:45:50.36	50.76	27.91	-31.0	-33.6	13.2	1.90e-05	0	43	102	1048576	23	4863
2026-01-24 08:45:51.37	50.44	27.92	-31.0	-33.5	13.4	1.44e-05	0	43	102	1048576	23	4798
2026-01-24 08:45:52.38	50.11	27.92	-31.1	-33.7	13.2	1.83e-05	0	43	102	1048576	23	4894
2026-01-24 08:45:53.38	49.79	27.92	-31.0	-33.4	13.4	1.52e-05	0	43	102	1048576	23	4791
2026-01-24 08:45:54.39	49.47	27.93	-30.9	-33.3	13.5	1.29e-05	0	43	102	1048576	23	4752
2026-01-24 08:45:55.38	49.15	27.93	-30.9	-33.3	13.5	6.10e-06	0	43	102	1048576	23	4738
2026-01-24 08:45:56.39	48.83	27.93	-31.0	-33.5	13.4	1.14e-05	0	43	102	1048576	23	4815
2026-01-24 08:45:57.39	48.51	27.93	-31.0	-33.4	13.4	1.75e-05	0	43	102	1048576	23	4780
2026-01-24 08:45:58.40	48.18	27.92	-30.9	-33.3	13.5	1.22e-05	0	43	102	1048576	23	4746
2026-01-24 08:45:59.40	47.86	27.92	-30.8	-33.0	13.6	1.14e-05	0	43	102	1048576	23	4650
2026-01-24 08:46:00.40	47.54	27.92	-30.9	-33.2	13.6	9.90e-06	0	43	102	1048576	23	4697
2026-01-24 08:46:01.41	47.22	27.91	-30.8	-33.0	13.7	7.60e-06	0	43	102	1048576	23	4626
2026-01-24 08:46:02.41	46.90	27.91	-30.9	-33.2	13.6	1.06e-05	0	43	102	1048576	23	4709
2026-01-24 08:46:03.40	46.58	27.90	-30.9	-33.2	13.5	7.60e-06	0	43	102	1048576	23	4719
2026-01-24 08:46:04.41	46.26	27.89	-30.9	-33.2	13.6	7.60e-06	0	44	102	1048576	23	4694
2026-01-24 08:46:05.41	45.94	27.88	-30.9	-33.3	13.5	9.10e-06	0	43	102	1048576	23	4743
2026-01-24 08:46:06.42	45.61	27.87	-30.9	-33.2	13.5	1.52e-05	0	44	102	1048576	23	4694
2026-01-24 08:46:07.42	45.29	27.86	-30.7	-33.4	13.8	4.50e-06	0	43	102	1048576	22	4860
2026-01-24 08:46:08.43	44.97	27.85	-30.9	-33.7	13.5	4.50e-06	0	43	102	1048576	22	4981
2026-01-24 08:46:09.44	44.65	27.84	-30.8	-33.6	13.7	4.50e-06	0	43	102	1048576	22	4937
2026-01-24 08:46:10.44	44.33	27.82	-30.7	-33.3	13.8	9.10e-06	0	43	102	1048576	22	4850
2026-01-24 08:46:11.45	44.01	27.81	-30.7	-33.3	13.8	6.10e-06	0	43	102	1048576	22	4833
2026-01-24 08:46:12.45	43.69	27.79	-30.6	-32.9	14.0	3.00e-06	0	43	102	1048576	22	4705
2026-01-24 08:46:13.44	43.37	27.78	-30.5	-32.6	14.2	2.20e-06	0	43	102	1048576	22	4609
2026-01-24 08:46:14.45	43.05	27.76	-30.5	-32.6	14.2	1.50e-06	0	43	102	1048576	22	4612
2026-01-24 08:46:15.45	42.74	27.74	-30.5	-32.8	14.1	3.80e-06	0	43	102	1048576	22	4666
2026-01-24 08:46:16.46	42.41	27.72	-30.6	-32.9	14.1	7.00e-07	0	43	102	1048576	22	4707
2026-01-24 08:46:17.46	42.10	27.70	-30.5	-32.8	14.1	3.80e-06	0	44	102	1048576	22	4667
2026-01-24 08:46:18.47	41.78	27.68	-30.2	-32.5	14.6	1.50e-06	0	43	102	1048576	21	4673
2026-01-24 08:46:19.47	41.46	27.66	-30.0	-32.0	14.9	0.00e+00	0	43	102	1048576	21	4524
2026-01-24 08:46:20.48	41.15	27.63	-29.9	-31.7	15.1	0.00e+00	0	43	102	1048576	21	4424
2026-01-24 08:46:21.48	40.83	27.61	-30.0	-31.9	15.0	0.00e+00	0	43	102	1048576	21	4477
2026-01-24 08:46:22.49	40.51	27.58	-30.0	-31.9	15.0	0.00e+00	0	43	102	1048576	21	4479
2026-01-24 08:46:23.49	40.20	27.56	-30.0	-32.0	14.9	7.00e-07	0	43	102	1048576	21	4518
2026-01-24 08:46:24.49	39.89	27.53	-30.0	-31.9	15.0	0.00e+00	0	43	102	1048576	21	4496
2026-01-24 08:46:25.49	39.57	27.50	-30.1	-32.1	14.8	7.00e-07	0	43	102	1048576	21	4552
2026-01-24 08:46:26.50	39.26	27.47	-30.0	-32.0	14.9	0.00e+00	0	43	102	1048576	21	4530
2026-01-24 08:46:27.50	38.95	27.44	-30.0	-31.9	15.0	0.00e+00	0	43	102	1048576	21	4478
2026-01-24 08:46:28.51	38.63	27.41	-30.0	-31.9	15.0	0.00e+00	0	43	102	1048576	21	4481
2026-01-24 08:46:29.51	38.32	27.38	-30.0	-31.9	15.0	0.00e+00	0	44	102	1048576	21	4473
2026-01-24 08:46:30.51	38.01	27.35	-29.9	-31.7	15.1	0.00e+00	0	43	102	1048576	21	4415
2026-01-24 08:46:31.52	37.70	27.31	-30.0	-31.9	15.0	0.00e+00	0	43	102	1048576	21	4474
2026-01-24 08:46:32.52	37.39	27.28	-30.0	-32.0	14.9	0.00e+00	0	43	102	1048576	21	4504
2026-01-24 08:46:33.52	37.09	27.24	-30.0	-32.0	14.9	0.00e+00	0	43	102	1048576	21	4510
2026-01-24 08:46:34.52	36.78	27.21	-30.1	-32.2	14.8	7.00e-07	0	43	102	1048576	21	4581
2026-01-24 08:46:35.52	36.47	27.17	-30.2	-32.3	14.7	0.00e+00	0	43	102	1048576	21	4633
2026-01-24 08:46:36.51	36.17	27.13	-30.3	-32.7	14.4	7.00e-07	0	43	102	1048576	21	4756
2026-01-24 08:46:37.52	35.86	27.09	-30.5	-33.1	14.2	0.00e+00	0	43	102	1048576	21	4896
2026-01-24 08:46:38.53	35.56	27.05	-30.5	-33.2	14.1	7.00e-07	0	43	102	1048576	21	4929
2026-01-24 08:46:39.53	35.25	27.01	-30.5	-33.3	14.0	0.00e+00	0	43	102	1048576	21	4972
2026-01-24 08:46:40.54	34.95	26.97	-30.5	-33.3	14.0	1.50e-06	0	43	102	1048576	21	4961
2026-01-24 08:46:41.55	34.64	26.93	-30.5	-33.3	14.0	1.50e-06	0	43	102	1048576	21	4962
2026-01-24 08:46:42.56	34.34	26.89	-30.5	-33.3	14.0	5.30e-06	0	43	102	1048576	21	4965
2026-01-24 08:46:43.56	34.04	26.84	-30.6	-33.4	14.0	3.00e-06	0	43	102	1048576	21	5005
2026-01-24 08:46:44.57	33.74	26.80	-30.7	-33.7	13.8	8.30e-06	0	43	102	1048576	21	5121
2026-01-24 08:46:45.57	33.44	26.75	-30.7	-33.8	13.7	2.20e-06	0	43	102	1048576	21	5147
2026-01-24 08:46:46.57	33.14	26.71	-30.7	-33.9	13.7	6.10e-06	0	43	102	1048576	21	5179
2026-01-24 08:46:47.58	32.84	26.66	-30.8	-34.0	13.5	7.60e-06	0	43	102	1048576	21	5227
2026-01-24 08:46:48.58	32.55	26.61	-30.9	-34.2	13.4	2.13e-05	0	43	102	1048576	21	5309
2026-01-24 08:46:49.58	32.25	26.56	-31.0	-34.5	13.3	2.36e-05	0	44	102	1048576	21	5422
2026-01-24 08:46:50.58	31.96	26.51	-31.0	-34.2	13.2	3.20e-05	0	43	102	1048576	22	5174
2026-01-24 08:46:51.58	31.67	26.46	-31.0	-34.2	13.2	2.28e-05	0	43	102	1048576	22	5173
2026-01-24 08:46:52.58	31.37	26.41	-31.1	-34.4	13.0	2.97e-05	0	43	102	1048576	22	5273
2026-01-24 08:46:53.59	31.08	26.36	-31.1	-34.5	12.9	4.88e-05	0	43	102	1048576	22	5287
2026-01-24 08:46:54.59	30.79	26.31	-31.0	-34.2	13.2	3.35e-05	0	43	102	1048576	22	5184
2026-01-24 08:46:55.60	30.50	26.26	-31.0	-34.1	13.2	2.59e-05	0	43	102	1048576	22	5129
2026-01-24 08:46:56.60	30.21	26.20	-31.0	-34.1	13.2	2.67e-05	0	43	102	1048576	22	5150
2026-01-24 08:46:57.61	29.92	26.15	-31.1	-34.4	13.0	2.74e-05	0	43	102	1048576	22	5265
2026-01-24 08:46:58.61	29.63	26.09	-31.2	-34.7	12.8	4.88e-05	0	43	102	1048576	22	5382
2026-01-24 08:46:59.62	29.35	26.04	-31.3	-35.1	12.6	7.01e-05	0	44	102	1048576	22	5524
2026-01-24 08:47:00.62	29.06	25.98	-31.4	-35.2	12.5	8.77e-05	0	43	102	1048576	22	5563
2026-01-24 08:47:01.63	28.78	25.92	-31.4	-35.2	12.5	1.08e-04	0	44	102	1048576	22	5582
2026-01-24 08:47:02.63	28.50	25.87	-31.3	-34.8	12.7	8.77e-05	0	44	102	1048576	22	5426
2026-01-24 08:47:03.63	28.21	25.81	-31.2	-34.6	12.8	5.18e-05	0	43	102	1048576	22	5340
2026-01-24 08:47:04.64	27.93	25.75	-31.2	-34.5	12.9	5.87e-05	0	43	102	1048576	22	5319
2026-01-24 08:47:05.64	27.65	25.69	-31.1	-34.4	13.0	4.57e-05	0	44	102	1048576	22	5258
2026-01-24 08:47:06.65	27.37	25.63	-31.1	-34.5	13.0	4.11e-05	0	44	102	1048576	22	5288
2026-01-24 08:47:07.65	27.10	25.57	-31.2	-34.7	12.8	7.32e-05	0	43	102	1048576	22	5381
2026-01-24 08:47:08.66	26.82	25.51	-31.2	-34.6	12.9	6.25e-05	0	43	102	1048576	22	5355
2026-01-24 08:47:09.66	26.54	25.45	-31.3	-34.9	12.7	5.64e-05	0	43	102	1048576	22	5455
2026-01-24 08:47:10.66	26.27	25.38	-31.3	-34.8	12.7	9.46e-05	0	44	102	1048576	22	5415
2026-01-24 08:47:11.68	25.99	25.32	-31.2	-34.6	12.9	7.47e-05	0	43	102	1048576	22	5329
2026-01-24 08:47:12.68	25.72	25.26	-31.2	-34.7	12.8	5.87e-05	0	43	102	1048576	22	5380
2026-01-24 08:47:13.69	25.45	25.19	-31.2	-34.6	12.8	5.34e-05	0	43	102	1048576	22	5348
2026-01-24 08:47:14.69	25.18	25.13	-31.1	-34.4	13.0	2.97e-05	0	43	102	1048576	22	5272
2026-01-24 08:47:15.70	24.91	25.06	-30.9	-33.9	13.3	2.05e-05	0	43	102	1048576	22	5076
2026-01-24 08:47:16.71	24.64	25.00	-31.0	-34.0	13.2	2.05e-05	0	43	102	1048576	22	5115
2026-01-24 08:47:17.71	24.37	24.93	-30.9	-34.0	13.2	2.97e-05	0	43	102	1048576	22	5095
2026-01-24 08:47:18.72	24.11	24.86	-30.9	-33.8	13.3	2.13e-05	0	43	102	1048576	22	5043
2026-01-24 08:47:19.72	23.84	24.80	-30.9	-33.7	13.4	1.37e-05	0	43	102	1048576	22	5014
2026-01-24 08:47:20.73	23.58	24.73	-30.9	-33.7	13.4	1.44e-05	0	44	102	1048576	22	5017
2026-01-24 08:47:21.73	23.32	24.66	-30.8	-33.6	13.5	8.30e-06	0	43	102	1048576	22	4969
2026-01-24 08:47:22.73	23.06	24.59	-30.9	-33.9	13.3	1.37e-05	0	44	102	1048576	22	5072
2026-01-24 08:47:23.74	22.80	24.52	-30.8	-33.5	13.5	1.37e-05	0	44	102	1048576	22	4942
2026-01-24 08:47:24.75	22.54	24.45	-30.8	-33.6	13.6	1.06e-05	0	43	102	1048576	22	4955
2026-01-24 08:47:25.75	22.28	24.38	-30.9	-33.7	13.4	1.29e-05	0	43	102	1048576	22	5014
2026-01-24 08:47:26.75	22.02	24.31	-30.8	-33.7	13.4	2.28e-05	0	44	102	1048576	22	5003
2026-01-24 08:47:27.75	21.77	24.24	-30.9	-33.9	13.3	1.44e-05	0	43	102	1048576	22	5059
2026-01-24 08:47:28.76	21.52	24.17	-30.8	-33.6	13.4	1.67e-05	0	43	102	1048576	22	4962
2026-01-24 08:47:29.76	21.26	24.10	-30.6	-33.1	13.8	7.60e-06	0	43	102	1048576	22	4785
2026-01-24 08:47:30.76	21.01	24.03	-30.5	-32.8	13.9	6.10e-06	0	44	102	1048576	22	4701
2026-01-24 08:47:31.77	20.76	23.95	-30.4	-32.6	14.1	5.30e-06	0	43	102	1048576	22	4616
2026-01-24 08:47:32.78	20.51	23.88	-30.3	-32.4	14.3	1.50e-06	0	43	102	1048576	22	4535
2026-01-24 08:47:33.78	20.26	23.81	-30.3	-32.2	14.4	7.00e-07	0	43	102	1048576	22	4486
2026-01-24 08:47:34.78	20.02	23.73	-30.4	-32.4	14.2	2.20e-06	0	43	102	1048576	22	4570
2026-01-24 08:47:35.77	19.78	23.66	-30.3	-32.3	14.3	2.20e-06	0	43	102	1048576	22	4520
2026-01-24 08:47:36.77	19.53	23.59	-30.2	-32.4	14.5	7.00e-07	0	44	102	1048576	21	4649
2026-01-24 08:47:37.78	19.29	23.51	-30.1	-32.1	14.6	0.00e+00	0	44	102	1048576	21	4574
2026-01-24 08:47:38.77	19.05	23.44	-30.0	-32.1	14.7	0.00e+00	0	43	102	1048576	21	4549
2026-01-24 08:47:39.78	18.81	23.36	-30.2	-32.4	14.5	7.00e-07	0	43	102	1048576	21	4663
2026-01-24 08:47:40.78	18.57	23.29	-30.0	-32.0	14.7	1.50e-06	0	43	102	1048576	21	4535
2026-01-24 08:47:41.78	18.33	23.21	-29.9	-31.8	14.8	7.00e-07	0	43	102	1048576	21	4466
2026-01-24 08:47:42.79	18.09	23.13	-29.9	-31.8	14.8	0.00e+00	0	43	102	1048576	21	4476
2026-01-24 08:47:43.80	17.85	23.06	-30.0	-31.9	14.8	7.00e-07	0	44	102	1048576	21	4496
2026-01-24 08:47:44.80	17.62	22.98	-30.0	-32.1	14.7	0.00e+00	0	43	102	1048576	21	4558
2026-01-24 08:47:45.81	17.38	22.90	-30.0	-32.0	14.7	7.00e-07	0	43	102	1048576	21	4543
2026-01-24 08:47:46.82	17.15	22.82	-30.0	-31.9	14.7	0.00e+00	0	43	102	1048576	21	4518
2026-01-24 08:47:47.82	16.92	22.75	-30.1	-32.2	14.5	0.00e+00	0	44	102	1048576	21	4593
2026-01-24 08:47:48.83	16.69	22.67	-29.9	-31.7	14.9	0.00e+00	0	43	102	1048576	21	4438
2026-01-24 08:47:49.83	16.46	22.59	-29.8	-31.9	15.0	0.00e+00	0	43	102	1048576	20	4614
2026-01-24 08:47:50.84	16.23	22.51	-29.7	-31.8	15.1	0.00e+00	0	43	102	1048576	20	4566
2026-01-24 08:47:51.84	16.00	22.43	-29.8	-31.9	15.0	0.00e+00	0	43	102	1048576	20	4611
2026-01-24 08:47:52.84	15.78	22.35	-29.7	-31.8	15.1	0.00e+00	0	43	102	1048576	20	4582
2026-01-24 08:47:53.84	15.55	22.27	-29.7	-31.8	15.1	0.00e+00	0	43	102	1048576	20	4594
2026-01-24 08:47:54.85	15.33	22.19	-29.6	-31.5	15.3	0.00e+00	0	43	102	1048576	20	4476
2026-01-24 08:47:55.85	15.11	22.11	-29.6	-31.5	15.3	0.00e+00	0	43	102	1048576	20	4483
2026-01-24 08:47:56.85	14.89	22.04	-29.6	-31.6	15.2	7.00e-07	0	43	102	1048576	20	4517
2026-01-24 08:47:57.85	14.67	21.96	-29.6	-31.4	15.3	0.00e+00	0	43	102	1048576	20	4463
2026-01-24 08:47:58.86	14.45	21.87	-29.6	-31.4	15.3	0.00e+00	0	43	102	1048576	20	4460
2026-01-24 08:47:59.86	14.23	21.79	-29.7	-31.7	15.1	0.00e+00	0	43	102	1048576	20	4566
2026-01-24 08:48:00.87	14.01	21.71	-29.5	-31.3	15.4	0.00e+00	0	44	102	1048576	20	4430
2026-01-24 08:48:01.88	13.80	21.63	-29.3	-30.8	15.6	0.00e+00	0	43	102	1048576	20	4282
2026-01-24 08:48:02.89	13.58	21.55	-29.2	-31.0	15.9	0.00e+00	0	44	102	1048576	19	4432
2026-01-24 08:48:03.89	13.37	21.47	-29.2	-31.1	15.8	0.00e+00	0	44	102	1048576	19	4465
2026-01-24 08:48:04.90	13.16	21.39	-29.3	-31.3	15.7	0.00e+00	0	44	102	1048576	19	4537
2026-01-24 08:48:05.90	12.95	21.31	-29.2	-30.9	15.9	0.00e+00	0	43	102	1048576	19	4403
2026-01-24 08:48:06.91	12.74	21.22	-29.1	-30.7	16.1	0.00e+00	0	43	102	1048576	19	4331
2026-01-24 08:48:07.91	12.53	21.14	-29.0	-30.5	16.2	0.00e+00	0	43	102	1048576	19	4290
2026-01-24 08:48:08.91	12.32	21.06	-29.1	-30.7	16.0	0.00e+00	0	43	102	1048576	19	4341
2026-01-24 08:48:09.91	12.12	20.98	-28.9	-30.2	16.3	0.00e+00	0	43	102	1048576	19	4191
2026-01-24 08:48:10.91	11.91	20.90	-29.0	-30.5	16.2	0.00e+00	0	43	102	1048576	19	4279
2026-01-24 08:48:11.91	11.71	20.81	-29.2	-31.0	15.8	0.00e+00	0	43	102	1048576	19	4447
2026-01-24 08:48:12.92	11.50	20.73	-29.1	-30.8	15.9	0.00e+00	0	43	102	1048576	19	4388
2026-01-24 08:48:13.92	11.30	20.65	-28.9	-30.4	16.2	0.00e+00	0	43	102	1048576	19	4265
2026-01-24 08:48:14.93	11.10	20.57	-29.0	-30.5	16.1	0.00e+00	0	43	102	1048576	19	4299
2026-01-24 08:48:15.94	10.90	20.48	-29.1	-30.7	16.0	0.00e+00	0	43	102	1048576	19	4340
2026-01-24 08:48:16.95	10.70	20.40	-29.2	-31.0	15.8	0.00e+00	0	43	102	1048576	19	4435
2026-01-24 08:48:17.95	10.50	20.32	-29.1	-30.7	16.0	0.00e+00	0	43	102	1048576	19	4346
2026-01-24 08:48:18.95	10.31	20.23	-29.0	-30.7	16.0	0.00e+00	0	43	102	1048576	19	4339
2026-01-24 08:48:19.96	10.11	20.15	-29.0	-30.6	16.1	0.00e+00	0	43	102	1048576	19	4316
2026-01-24 08:48:20.97	9.92	20.07	-29.2	-31.1	15.8	0.00e+00	0	43	102	1048576	19	4458
2026-01-24 08:48:21.98	9.72	19.98	-29.1	-30.9	15.9	0.00e+00	0	43	102	1048576	19	4414
2026-01-24 08:48:22.98	9.53	19.90	-29.1	-30.8	15.9	0.00e+00	0	43	102	1048576	19	4384
2026-01-24 08:48:23.98	9.34	19.82	-29.2	-31.0	15.8	0.00e+00	0	43	102	1048576	19	4446
2026-01-24 08:48:24.99	9.15	19.73	-29.1	-30.8	15.9	0.00e+00	0	43	102	1048576	19	4387
2026-01-24 08:48:25.99	8.96	19.65	-29.3	-31.3	15.7	0.00e+00	0	43	102	1048576	19	4522
2026-01-24 08:48:27.00	8.77	19.57	-29.2	-31.0	15.9	0.00e+00	0	43	102	1048576	19	4424
2026-01-24 08:48:28.00	8.59	19.48	-29.0	-30.7	16.0	0.00e+00	0	44	102	1048576	19	4335
2026-01-24 08:48:29.00	8.40	19.40	-29.1	-30.7	16.0	0.00e+00	0	43	102	1048576	19	4343
2026-01-24 08:48:30.00	8.22	19.32	-29.1	-30.8	15.9	0.00e+00	0	43	102	1048576	19	4371
2026-01-24 08:48:31.01	8.03	19.23	-29.2	-31.0	15.8	0.00e+00	0	43	102	1048576	19	4445
2026-01-24 08:48:32.01	7.85	19.15	-29.4	-31.4	15.6	0.00e+00	0	43	102	1048576	19	4566
2026-01-24 08:48:33.01	7.67	19.07	-29.4	-31.5	15.5	0.00e+00	0	43	102	1048576	19	4602
2026-01-24 08:48:34.00	7.49	18.98	-29.5	-31.8	15.3	0.00e+00	0	43	102	1048576	19	4688
2026-01-24 08:48:35.00	7.31	18.90	-29.5	-31.9	15.2	7.00e-07	0	43	102	1048576	19	4710
2026-01-24 08:48:36.01	7.13	18.82	-29.6	-32.1	15.1	0.00e+00	0	43	102	1048576	19	4781
2026-01-24 08:48:37.01	6.95	18.73	-29.5	-31.9	15.2	0.00e+00	0	43	102	1048576	19	4712
2026-01-24 08:48:38.02	6.78	18.65	-29.7	-32.2	15.1	0.00e+00	0	43	102	1048576	19	4814
2026-01-24 08:48:39.02	6.60	18.56	-29.6	-31.9	15.2	0.00e+00	0	43	102	1048576	19	4736
2026-01-24 08:48:40.03	6.43	18.48	-29.5	-31.8	15.3	0.00e+00	0	43	102	1048576	19	4707
2026-01-24 08:48:41.03	6.25	18.40	-29.5	-31.8	15.3	0.00e+00	0	43	102	1048576	19	4696
2026-01-24 08:48:42.04	6.08	18.31	-29.6	-32.1	15.1	0.00e+00	0	43	102	1048576	19	4796
2026-01-24 08:48:43.04	5.91	18.23	-29.7	-32.2	15.0	0.00e+00	0	43	102	1048576	19	4843
2026-01-24 08:48:44.05	5.74	18.14	-29.8	-32.7	14.7	0.00e+00	0	43	102	1048576	19	4988
2026-01-24 08:48:45.05	5.57	18.06	-29.8	-32.6	14.7	7.00e-07	0	43	102	1048576	19	4978
2026-01-24 08:48:46.05	5.40	17.98	-29.9	-32.9	14.6	1.50e-06	0	43	102	1048576	19	5084
2026-01-24 08:48:47.06	5.23	17.89	-30.0	-32.7	14.4	7.00e-07	0	43	102	1048576	20	4881
2026-01-24 08:48:48.06	5.06	17.81	-30.2	-33.1	14.1	1.50e-06	0	43	102	1048576	20	5046
2026-01-24 08:48:49.06	4.90	17.73	-30.0	-32.7	14.3	3.80e-06	0	43	102	1048576	20	4897
2026-01-24 08:48:50.06	4.73	17.64	-30.0	-32.7	14.4	7.00e-07	0	43	102	1048576	20	4887
2026-01-24 08:48:51.06	4.57	17.56	-30.0	-32.6	14.4	0.00e+00	0	43	102	1048576	20	4868
2026-01-24 08:48:52.07	4.40	17.48	-30.1	-32.8	14.2	0.00e+00	0	43	102	1048576	20	4949
2026-01-24 08:48:53.07	4.24	17.39	-30.1	-32.8	14.2	7.00e-07	0	43	102	1048576	20	4943
2026-01-24 08:48:54.08	4.08	17.31	-30.1	-32.9	14.2	1.50e-06	0	43	102	1048576	20	4965
2026-01-24 08:48:55.08	3.92	17.23	-30.0	-32.6	14.4	7.00e-07	0	43	102	1048576	20	4861
2026-01-24 08:48:56.09	3.76	17.14	-29.9	-32.5	14.5	7.00e-07	0	43	102	1048576	20	4819
2026-01-24 08:48:57.09	3.60	17.06	-29.9	-32.4	14.5	1.50e-06	0	43	102	1048576	20	4799
2026-01-24 08:48:58.09	3.44	16.98	-29.9	-32.3	14.5	0.00e+00	0	43	102	1048576	20	4778
2026-01-24 08:48:59.10	3.29	16.89	-30.1	-32.8	14.2	7.00e-07	0	43	102	1048576	20	4946
2026-01-24 08:49:00.10	3.13	16.81	-30.0	-32.7	14.3	0.00e+00	0	43	102	1048576	20	4902
2026-01-24 08:49:01.10	2.98	16.73	-30.1	-33.0	14.1	0.00e+00	0	43	102	1048576	20	5027
2026-01-24 08:49:02.11	2.82	16.64	-30.3	-33.5	13.8	1.50e-06	0	43	102	1048576	20	5200
2026-01-24 08:49:03.11	2.67	16.56	-30.2	-33.1	14.0	1.50e-06	0	43	102	1048576	20	5052
2026-01-24 08:49:04.12	2.51	16.48	-30.1	-33.0	14.0	3.00e-06	0	43	102	1048576	20	5023
2026-01-24 08:49:05.11	2.36	16.40	-30.1	-33.1	14.0	1.50e-06	0	43	102	1048576	20	5038
2026-01-24 08:49:06.12	2.21	16.31	-30.2	-33.3	13.9	1.50e-06	0	43	102	1048576	20	5112
2026-01-24 08:49:07.13	2.06	16.23	-30.1	-33.0	14.1	4.50e-06	0	43	102	1048576	20	5001
2026-01-24 08:49:08.13	1.91	16.15	-30.2	-33.2	13.9	7.00e-07	0	44	102	1048576	20	5090
2026-01-24 08:49:09.14	1.76	16.07	-30.2	-33.2	13.9	1.50e-06	0	43	102	1048576	20	5086
2026-01-24 08:49:10.14	1.62	15.98	-30.3	-33.5	13.8	2.20e-06	0	43	102	1048576	20	5189
2026-01-24 08:49:11.15	1.47	15.90	-30.4	-33.7	13.6	9.90e-06	0	43	102	1048576	20	5279
2026-01-24 08:49:12.15	1.32	15.82	-30.3	-33.6	13.7	2.20e-06	0	44	102	1048576	20	5225
2026-01-24 08:49:13.16	1.18	15.74	-30.4	-33.8	13.5	9.90e-06	0	43	102	1048576	20	5329
2026-01-24 08:49:14.16	1.03	15.66	-30.5	-33.6	13.3	9.90e-06	0	43	102	1048576	21	5103
2026-01-24 08:49:15.17	0.89	15.57	-30.5	-33.4	13.5	1.44e-05	0	44	102	1048576	21	5054
2026-01-24 08:49:16.17	0.75	15.49	-30.5	-33.4	13.4	9.90e-06	0	43	102	1048576	21	5051
2026-01-24 08:49:17.18	0.61	15.41	-30.6	-33.7	13.2	2.82e-05	0	43	102	1048576	21	5169
2026-01-24 08:49:18.19	0.46	15.33	-30.4	-33.3	13.5	1.29e-05	0	43	102	1048576	21	5031
2026-01-24 08:49:19.19	0.32	15.25	-30.5	-33.6	13.3	1.83e-05	0	43	102	1048576	21	5131
2026-01-24 08:49:20.19	0.18	15.16	-30.5	-33.7	13.2	2.74e-05	0	44	102	1048576	21	5155
2026-01-24 08:49:21.20	0.04	15.08	-30.5	-33.4	13.4	2.44e-05	0	43	102	1048576	21	5077
2026-01-24 08:49:22.20	359.91	15.00	-30.4	-33.4	13.4	1.52e-05	0	43	102	1048576	21	5060
2026-01-24 08:49:23.20	359.77	14.92	-30.4	-33.4	13.4	6.10e-06	0	44	102	1048576	21	5046
2026-01-24 08:49:24.21	359.63	14.84	-30.5	-33.4	13.4	1.37e-05	0	43	102	1048576	21	5069
2026-01-24 08:49:25.22	359.50	14.76	-30.5	-33.6	13.2	1.98e-05	0	43	102	1048576	21	5153
2026-01-24 08:49:26.22	359.36	14.68	-30.5	-33.6	13.2	1.98e-05	0	43	102	1048576	21	5154
2026-01-24 08:49:27.23	359.23	14.60	-30.6	-33.9	13.1	2.97e-05	0	43	102	1048576	21	5238
2026-01-24 08:49:28.24	359.09	14.52	-30.6	-33.8	13.1	3.28e-05	0	43	102	1048576	21	5228
2026-01-24 08:49:29.24	358.96	14.44	-30.6	-34.0	12.9	4.95e-05	0	43	102	1048576	21	5289
2026-01-24 08:49:30.25	358.83	14.35	-30.6	-33.9	13.0	3.58e-05	0	43	102	1048576	21	5246
2026-01-24 08:49:31.25	358.70	14.28	-30.7	-34.2	12.8	5.11e-05	0	44	102	1048576	21	5394
2026-01-24 08:49:32.25	358.57	14.20	-30.9	-34.7	12.5	7.55e-05	0	43	102	1048576	21	5570
2026-01-24 08:49:33.26	358.44	14.11	-30.9	-34.7	12.4	1.46e-04	0	43	102	1048576	21	5600
2026-01-24 08:49:34.25	358.31	14.04	-30.8	-34.6	12.6	1.17e-04	0	43	102	1048576	21	5536
2026-01-24 08:49:35.26	358.18	13.96	-30.9	-34.7	12.4	1.16e-04	0	43	102	1048576	21	5596
2026-01-24 08:49:36.25	358.05	13.88	-30.9	-34.9	12.3	1.92e-04	0	43	102	1048576	21	5672
2026-01-24 08:49:37.26	357.93	13.80	-31.1	-34.9	12.0	2.30e-04	0	43	102	1048576	22	5564
2026-01-24 08:49:38.26	357.80	13.72	-31.2	-35.3	11.7	5.06e-04	0	43	102	1048576	22	5735
2026-01-24 08:49:39.27	357.68	13.64	-31.2	-35.2	11.7	4.60e-04	0	43	102	1048576	22	5695
2026-01-24 08:49:40.27	357.55	13.56	-31.3	-35.6	11.5	8.75e-04	0	43	102	1048576	22	5874
2026-01-24 08:49:41.28	357.43	13.48	-31.3	-35.5	11.5	7.15e-04	0	43	102	1048576	22	5840
2026-01-24 08:49:42.28	357.30	13.40	-31.4	-35.7	11.3	1.07e-03	0	43	102	1048576	22	5926
2026-01-24 08:49:43.29	357.18	13.32	-31.2	-35.1	11.8	6.26e-04	0	44	102	1048576	22	5667
2026-01-24 08:49:44.29	357.06	13.24	-31.1	-35.0	11.9	4.78e-04	0	43	102	1048576	22	5592
2026-01-24 08:49:45.30	356.94	13.16	-31.1	-34.8	12.0	3.69e-04	0	44	102	1048576	22	5521
2026-01-24 08:49:46.31	356.81	13.09	-31.1	-34.8	12.0	3.13e-04	0	43	102	1048576	22	5528
2026-01-24 08:49:47.32	356.69	13.01	-31.2	-35.1	11.7	5.03e-04	0	43	102	1048576	22	5663
2026-01-24 08:49:48.32	356.57	12.93	-31.0	-34.6	12.1	3.76e-04	0	44	102	1048576	22	5458
2026-01-24 08:49:49.32	356.46	12.85	-30.9	-34.3	12.3	2.05e-04	0	43	102	1048576	22	5304
2026-01-24 08:49:50.32	356.34	12.77	-30.9	-34.2	12.4	1.84e-04	0	43	102	1048576	22	5282
2026-01-24 08:49:51.33	356.22	12.69	-30.9	-34.2	12.3	1.55e-04	0	43	102	1048576	22	5302
2026-01-24 08:49:52.33	356.10	12.62	-30.9	-34.3	12.3	1.94e-04	0	43	102	1048576	22	5330
2026-01-24 08:49:53.33	355.99	12.54	-31.0	-34.5	12.1	2.27e-04	0	43	102	1048576	22	5414
2026-01-24 08:49:54.33	355.87	12.46	-31.0	-34.7	12.0	2.82e-04	0	43	102	1048576	22	5482
2026-01-24 08:49:55.33	355.76	12.39	-31.0	-34.7	12.0	3.47e-04	0	44	102	1048576	22	5492
2026-01-24 08:49:56.34	355.64	12.31	-31.1	-34.9	11.9	3.67e-04	0	43	102	1048576	22	5559
2026-01-24 08:49:57.34	355.53	12.23	-31.1	-34.8	11.9	4.23e-04	0	43	102	1048576	22	5536
2026-01-24 08:49:58.35	355.42	12.15	-31.0	-34.8	11.9	3.24e-04	0	43	102	1048576	22	5532
2026-01-24 08:49:59.35	355.30	12.08	-31.0	-34.7	12.0	4.04e-04	0	43	102	1048576	22	5495
2026-01-24 08:50:00.35	355.19	12.00	-31.0	-34.6	12.0	3.10e-04	0	43	102	1048576	22	5464
2026-01-24 08:50:01.36	355.08	11.92	-30.9	-34.5	12.1	3.08e-04	0	44	102	1048576	22	5399
2026-01-24 08:50:02.36	354.97	11.85	-31.0	-34.6	12.0	2.88e-04	0	43	102	1048576	22	5452
2026-01-24 08:50:03.36	354.86	11.77	-31.0	-34.7	11.9	3.46e-04	0	44	102	1048576	22	5507
2026-01-24 08:50:04.36	354.75	11.70	-31.2	-35.1	11.6	5.08e-04	0	43	102	1048576	22	5694
2026-01-24 08:50:05.37	354.64	11.62	-31.2	-35.2	11.6	7.99e-04	0	44	102	1048576	22	5721
2026-01-24 08:50:06.37	354.53	11.54	-31.1	-35.0	11.6	6.39e-04	0	44	102	1048576	22	5654
2026-01-24 08:50:07.37	354.43	11.47	-31.2	-35.3	11.5	7.64e-04	0	43	102	1048576	22	5768
2026-01-24 08:50:08.38	354.32	11.39	-31.2	-35.3	11.5	8.44e-04	0	43	102	1048576	22	5756
2026-01-24 08:50:09.38	354.21	11.32	-31.2	-35.4	11.4	1.10e-03	0	44	102	1048576	22	5820
2026-01-24 08:50:10.39	354.10	11.24	-31.3	-35.6	11.2	1.10e-03	0	43	102	1048576	22	5917
2026-01-24 08:50:11.39	354.00	11.17	-31.3	-35.5	11.2	1.59e-03	0	43	102	1048576	22	5891
2026-01-24 08:50:12.39	353.89	11.09	-31.2	-35.4	11.4	1.25e-03	0	43	102	1048576	22	5822
2026-01-24 08:50:13.40	353.79	11.02	-31.2	-35.4	11.4	9.60e-04	0	43	102	1048576	22	5816
2026-01-24 08:50:14.39	353.69	10.94	-31.2	-35.3	11.4	1.01e-03	0	43	102	1048576	22	5792
2026-01-24 08:50:15.40	353.58	10.87	-31.2	-35.3	11.3	1.09e-03	0	43	102	1048576	22	5799
2026-01-24 08:50:16.41	353.48	10.79	-31.3	-35.8	11.1	1.66e-03	0	43	102	1048576	22	6004
2026-01-24 08:50:17.41	353.38	10.72	-31.3	-35.9	10.9	2.24e-03	0	43	102	1048576	22	6052
2026-01-24 08:50:18.42	353.27	10.64	-31.3	-35.7	11.1	1.69e-03	0	43	102	1048576	22	5968
2026-01-24 08:50:19.42	353.17	10.57	-31.3	-35.8	11.0	1.79e-03	0	44	102	1048576	22	6030
2026-01-24 08:50:20.43	353.07	10.50	-31.4	-36.0	10.9	2.14e-03	0	43	102	1048576	22	6104
2026-01-24 08:50:21.43	352.97	10.42	-31.4	-36.0	10.9	2.29e-03	0	43	102	1048576	22	6118
2026-01-24 08:50:22.44	352.87	10.35	-31.4	-36.1	10.8	2.49e-03	0	43	102	1048576	22	6173
2026-01-24 08:50:23.43	352.77	10.28	-31.4	-36.2	10.7	3.23e-03	0	43	102	1048576	22	6206
2026-01-24 08:50:24.43	352.68	10.20	-31.3	-35.8	11.0	2.17e-03	0	43	102	1048576	22	6028
2026-01-24 08:50:25.44	352.58	10.13	-31.3	-35.8	10.9	1.93e-03	0	43	102	1048576	22	6054
2026-01-24 08:50:26.45	352.48	10.05	-31.3	-35.9	10.9	2.09e-03	0	43	102	1048576	22	6056
2026-01-24 08:50:27.45	352.38	9.98	-31.4	-36.1	10.7	2.46e-03	0	43	102	1048576	22	6187
2026-01-24 08:50:28.45	352.29	9.91	-31.5	-36.0	10.5	4.33e-03	0	43	102	1048576	23	6020
2026-01-24 08:50:29.46	352.19	9.84	-31.5	-35.9	10.5	3.72e-03	0	44	102	1048576	23	5979
2026-01-24 08:50:30.47	352.09	9.76	-31.5	-35.9	10.5	4.22e-03	0	43	102	1048576	23	5966
2026-01-24 08:50:31.47	352.00	9.69	-31.4	-35.5	10.7	3.08e-03	0	43	102	1048576	23	5814
2026-01-24 08:50:32.47	351.91	9.62	-31.3	-35.3	10.9	2.18e-03	0	44	102	1048576	23	5687
2026-01-24 08:50:33.47	351.81	9.55	-31.3	-35.2	11.0	1.99e-03	0	43	102	1048576	23	5630
2026-01-24 08:50:34.48	351.72	9.47	-31.3	-35.2	10.9	1.82e-03	0	43	102	1048576	23	5679
2026-01-24 08:50:35.48	351.62	9.40	-31.3	-35.2	11.0	2.40e-03	0	43	102	1048576	23	5649
2026-01-24 08:50:36.48	351.53	9.33	-31.2	-34.9	11.2	1.59e-03	0	43	102	1048576	23	5541
2026-01-24 08:50:37.49	351.44	9.26	-31.1	-34.8	11.3	1.17e-03	0	43	102	1048576	23	5481
2026-01-24 08:50:38.48	351.35	9.19	-31.1	-34.8	11.3	1.20e-03	0	43	102	1048576	23	5474
2026-01-24 08:50:39.48	351.26	9.12	-31.1	-34.6	11.4	1.26e-03	0	43	102	1048576	23	5397
2026-01-24 08:50:40.49	351.17	9.04	-31.1	-34.7	11.3	1.12e-03	0	43	102	1048576	23	5442
2026-01-24 08:50:41.49	351.08	8.97	-31.1	-34.7	11.3	1.18e-03	0	43	102	1048576	23	5437
2026-01-24 08:50:42.50	350.99	8.90	-31.1	-34.7	11.3	1.07e-03	0	43	102	1048576	23	5423
2026-01-24 08:50:43.50	350.90	8.83	-31.2	-34.9	11.1	1.52e-03	0	43	102	1048576	23	5537
2026-01-24 08:50:44.51	350.81	8.76	-31.2	-35.1	11.0	2.08e-03	0	43	102	1048576	23	5610
2026-01-24 08:50:45.52	350.72	8.69	-31.2	-35.2	10.8	2.03e-03	0	43	102	1048576	23	5664
2026-01-24 08:50:46.52	350.63	8.62	-31.3	-35.2	10.8	2.70e-03	0	44	102	1048576	23	5691
2026-01-24 08:50:47.52	350.54	8.55	-31.3	-35.3	10.8	2.38e-03	0	43	102	1048576	23	5701
2026-01-24 08:50:48.53	350.46	8.48	-31.3	-35.4	10.7	3.04e-03	0	43	102	1048576	23	5766
2026-01-24 08:50:49.54	350.37	8.41	-31.4	-35.6	10.5	3.31e-03	0	43	102	1048576	23	5858
2026-01-24 08:50:50.55	350.28	8.34	-31.4	-35.8	10.3	5.10e-03	0	43	102	1048576	23	5982
2026-01-24 08:50:51.54	350.20	8.27	-31.4	-35.9	10.3	5.64e-03	0	43	102	1048576	23	6024
2026-01-24 08:50:52.55	350.11	8.20	-31.4	-35.8	10.4	4.74e-03	0	44	102	1048576	23	5961
2026-01-24 08:50:53.55	350.03	8.13	-31.6	-36.5	9.8	9.07e-03	0	43	102	1048576	23	6339
2026-01-24 08:50:54.54	349.94	8.06	-31.6	-36.5	9.8	1.17e-02	0	43	102	1048576	23	6311
2026-01-24 08:50:55.54	349.86	7.99	-31.6	-36.5	9.8	1.01e-02	0	43	102	1048576	23	6347
2026-01-24 08:50:56.54	349.78	7.92	-31.5	-36.4	9.8	8.87e-03	0	43	102	1048576	23	6278
2026-01-24 08:50:57.54	349.69	7.85	-31.7	-36.9	9.5	1.26e-02	0	43	102	1048576	23	6548
2026-01-24 08:50:58.54	349.61	7.78	-31.6	-36.7	9.6	1.77e-02	0	44	102	1048576	23	6476
2026-01-24 08:50:59.54	349.53	7.72	-31.7	-36.8	9.5	1.43e-02	0	44	102	1048576	23	6528
2026-01-24 08:51:00.55	349.44	7.65	-31.7	-36.8	9.5	1.31e-02	0	43	102	1048576	23	6526
2026-01-24 08:51:01.55	349.36	7.58	-31.7	-37.0	9.3	1.98e-02	0	43	102	1048576	23	6616
2026-01-24 08:51:02.55	349.28	7.51	-31.6	-36.6	9.7	1.41e-02	0	43	102	1048576	23	6390
2026-01-24 08:51:03.56	349.20	7.44	-31.5	-36.4	9.8	1.21e-02	0	44	102	1048576	23	6290
2026-01-24 08:51:04.56	349.12	7.37	-31.5	-36.4	9.7	9.63e-03	0	43	102	1048576	23	6289
2026-01-24 08:51:05.57	349.04	7.31	-31.6	-36.8	9.5	1.22e-02	0	43	102	1048576	23	6508
2026-01-24 08:51:06.58	348.96	7.24	-31.6	-36.7	9.5	1.41e-02	0	44	102	1048576	23	6468
2026-01-24 08:51:07.59	348.88	7.17	-31.6	-36.6	9.5	1.33e-02	0	43	102	1048576	23	6438
2026-01-24 08:51:08.59	348.80	7.10	-31.6	-36.9	9.3	1.68e-02	0	43	102	1048576	23	6572
2026-01-24 08:51:09.59	348.72	7.03	-33.4	-46.4	3.8	1.62e-02	0	43	102	1048576	26	16171
2026-01-24 08:51:10.59	348.64	6.97	-33.7	-47.9	3.8	1.49e+00	0	43	104	1048576	27	18423
2026-01-24 08:51:11.59	348.57	6.90	-33.9	-47.9	3.8	1.49e+00	0	43	104	1048576	28	18015

#Closed at: 2026-01-24 08:51:12
#Recorded file [1 MB]: D:/data/31010_260124_114046.dat