passes_logs/2026/01/24/R2M6_AANII_01/R2M6_AANII_01__20260124_025743_NOAA_21_JPSS-2_rec.log

#Pass ID: 20260124_025743_NOAA 21 (JPSS-2)
#Satellite: NOAA 21 (JPSS-2)
#Configuration: NOAA 21
#almurnet v.1.7.20240730
#Start time: 2026-01-24 02:57:44

#Version: 2.2.20231116
#Station: R2M6_AANII_01
#Location: 30.233357 lon 59.946436 lat
#TLE: 1 54234U 22150A   26022.90705406  .00000208  00000+0  11937-3 0  9994
#TLE: 2 54234  98.7507 323.7115 0000669 231.3756 128.7360 14.19537879165931

#Time	Az	El	Level	Level2	SNR	BER	BlckErr	Temp	State	Recorded	gain1	gain2
2026-01-24 02:57:44.06	8.29	7.02	-32.3	-40.0	4.1	1.46e+00	0	43	0	0	24	8759
2026-01-24 02:57:45.07	8.17	7.07	-31.7	-38.0	4.4	1.43e+00	0	43	104	0	23	7385
2026-01-24 02:57:46.07	8.05	7.13	-31.7	-37.0	6.9	1.77e-01	0	43	0	0	23	6629
2026-01-24 02:57:47.07	7.94	7.18	-31.7	-37.0	7.0	1.63e-01	0	43	0	3145728	23	6606
2026-01-24 02:57:48.08	7.82	7.23	-31.7	-37.0	7.0	1.56e-01	0	43	0	6291456	23	6605
2026-01-24 02:57:49.08	7.70	7.29	-31.7	-36.9	7.0	1.49e-01	0	43	0	9437184	23	6572
2026-01-24 02:57:50.08	7.58	7.34	-31.7	-37.0	6.9	1.54e-01	0	43	0	12582912	23	6615
2026-01-24 02:57:51.08	7.46	7.39	-31.4	-35.8	7.8	9.90e-02	0	43	102	14680064	23	5992
2026-01-24 02:57:52.08	7.34	7.45	-31.0	-34.6	8.7	4.35e-02	0	43	102	14680064	23	5412
2026-01-24 02:57:53.08	7.22	7.50	-30.7	-33.8	9.6	1.61e-02	0	43	102	14680064	22	5198
2026-01-24 02:57:54.08	7.10	7.55	-30.3	-32.8	10.3	5.74e-03	0	43	102	14680064	22	4816
2026-01-24 02:57:55.08	6.98	7.61	-29.9	-32.0	11.2	1.61e-03	0	43	102	14680064	21	4629
2026-01-24 02:57:56.08	6.86	7.66	-29.7	-32.0	11.6	1.32e-03	0	43	102	14680064	20	4727
2026-01-24 02:57:57.08	6.74	7.71	-29.8	-32.5	11.3	9.97e-04	0	43	102	14680064	20	4878
2026-01-24 02:57:58.08	6.62	7.77	-30.0	-33.0	11.0	1.94e-03	0	43	102	14680064	20	5067
2026-01-24 02:57:59.09	6.49	7.82	-29.9	-32.6	11.2	1.52e-03	0	43	102	14680064	20	4935
2026-01-24 02:58:00.09	6.37	7.87	-29.8	-32.3	11.4	1.05e-03	0	43	102	14680064	20	4823
2026-01-24 02:58:01.09	6.25	7.93	-29.7	-32.5	11.6	1.58e-03	0	43	102	14680064	19	4999
2026-01-24 02:58:02.10	6.12	7.98	-29.8	-32.8	11.5	1.84e-03	0	43	102	14680064	19	5084
2026-01-24 02:58:03.10	6.00	8.03	-29.8	-32.8	11.5	6.88e-04	0	43	102	14680064	19	5108
2026-01-24 02:58:04.10	5.87	8.08	-30.1	-33.2	10.8	2.17e-03	0	43	102	14680064	20	5126
2026-01-24 02:58:05.10	5.74	8.14	-29.8	-32.9	11.4	1.06e-03	0	43	102	14680064	19	5136
2026-01-24 02:58:06.11	5.62	8.19	-29.9	-32.8	11.1	1.16e-03	0	43	102	14680064	20	4994
2026-01-24 02:58:07.11	5.49	8.24	-29.7	-32.5	11.7	1.66e-03	0	43	102	14680064	19	4972
2026-01-24 02:58:08.11	5.36	8.30	-29.3	-31.5	12.3	2.37e-04	0	43	102	14680064	19	4649
2026-01-24 02:58:09.12	5.24	8.35	-29.1	-31.0	12.7	9.53e-05	0	44	102	14680064	19	4494
2026-01-24 02:58:10.12	5.11	8.40	-29.0	-31.3	12.9	5.49e-05	0	44	102	14680064	18	4673
2026-01-24 02:58:11.12	4.98	8.46	-29.0	-31.3	12.8	6.40e-05	0	44	102	14680064	18	4672
2026-01-24 02:58:12.12	4.85	8.51	-29.0	-31.2	12.9	4.80e-05	0	44	102	14680064	18	4642
2026-01-24 02:58:13.12	4.72	8.56	-29.0	-31.4	12.8	4.95e-05	0	43	102	14680064	18	4706
2026-01-24 02:58:14.13	4.59	8.62	-29.1	-31.4	12.8	5.49e-05	0	43	102	14680064	18	4712
2026-01-24 02:58:15.13	4.46	8.67	-28.9	-31.1	13.0	4.50e-05	0	43	102	14680064	18	4610
2026-01-24 02:58:16.14	4.33	8.72	-29.0	-31.3	12.9	4.65e-05	0	44	102	14680064	18	4671
2026-01-24 02:58:17.14	4.20	8.77	-28.9	-31.0	13.1	3.20e-05	0	44	102	14680064	18	4589
2026-01-24 02:58:18.14	4.06	8.83	-29.0	-31.2	12.9	3.73e-05	0	44	102	14680064	18	4631
2026-01-24 02:58:19.14	3.93	8.88	-28.9	-31.5	13.1	4.42e-05	0	43	102	14680064	17	4845
2026-01-24 02:58:20.15	3.80	8.93	-28.8	-31.2	13.3	3.50e-05	0	44	102	14680064	17	4742
2026-01-24 02:58:21.15	3.66	8.99	-28.9	-31.5	13.1	2.51e-05	0	44	102	14680064	17	4851
2026-01-24 02:58:22.15	3.53	9.04	-29.1	-31.5	12.7	5.64e-05	0	44	102	14680064	18	4746
2026-01-24 02:58:23.16	3.40	9.09	-29.4	-32.1	12.4	1.74e-04	0	44	102	14680064	18	4955
2026-01-24 02:58:24.16	3.26	9.14	-29.0	-31.2	13.0	6.10e-05	0	43	102	14680064	18	4634
2026-01-24 02:58:25.16	3.13	9.20	-28.7	-30.9	13.4	1.90e-05	0	44	102	14680064	17	4669
2026-01-24 02:58:26.16	2.99	9.25	-28.5	-30.5	13.6	9.10e-06	0	44	102	14680064	17	4547
2026-01-24 02:58:27.16	2.85	9.30	-28.5	-30.4	13.7	6.80e-06	0	44	102	14680064	17	4512
2026-01-24 02:58:28.16	2.72	9.35	-28.5	-30.9	13.7	3.80e-06	0	44	102	14680064	16	4776
2026-01-24 02:58:29.16	2.58	9.40	-28.5	-30.6	13.7	4.50e-06	0	44	102	14680064	17	4558
2026-01-24 02:58:30.17	2.44	9.46	-28.5	-30.6	13.7	6.80e-06	0	44	102	14680064	17	4551
2026-01-24 02:58:31.18	2.30	9.51	-28.5	-30.5	13.7	9.10e-06	0	44	102	14680064	17	4538
2026-01-24 02:58:32.17	2.16	9.56	-28.6	-30.8	13.5	1.22e-05	0	44	102	14680064	17	4638
2026-01-24 02:58:33.17	2.02	9.61	-28.6	-30.6	13.6	5.30e-06	0	44	102	14680064	17	4570
2026-01-24 02:58:34.18	1.88	9.67	-28.4	-30.3	13.8	3.00e-06	0	44	102	14680064	17	4471
2026-01-24 02:58:35.18	1.74	9.72	-28.5	-30.5	13.7	4.50e-06	0	44	102	14680064	17	4523
2026-01-24 02:58:36.19	1.60	9.77	-28.4	-30.3	13.8	4.50e-06	0	44	102	14680064	17	4477
2026-01-24 02:58:37.18	1.46	9.82	-28.4	-30.8	13.8	2.20e-06	0	44	102	14680064	16	4748
2026-01-24 02:58:38.19	1.32	9.87	-28.4	-30.7	13.9	3.00e-06	0	44	102	14680064	16	4692
2026-01-24 02:58:39.19	1.17	9.92	-28.5	-30.4	13.8	4.50e-06	0	44	102	14680064	17	4508
2026-01-24 02:58:40.20	1.03	9.98	-28.4	-30.3	13.9	3.80e-06	0	43	102	14680064	17	4468
2026-01-24 02:58:41.21	0.89	10.03	-28.4	-30.8	13.9	7.60e-06	0	44	102	14680064	16	4734
2026-01-24 02:58:42.21	0.74	10.08	-28.5	-30.9	13.8	6.10e-06	0	44	102	14680064	16	4754
2026-01-24 02:58:43.21	0.60	10.13	-28.5	-31.0	13.8	3.80e-06	0	44	102	14680064	16	4775
2026-01-24 02:58:44.21	0.45	10.18	-28.6	-30.6	13.7	4.50e-06	0	44	102	14680064	17	4573
2026-01-24 02:58:45.21	0.31	10.23	-28.6	-30.7	13.6	7.60e-06	0	44	102	14680064	17	4582
2026-01-24 02:58:46.21	0.16	10.29	-28.5	-30.6	13.7	4.50e-06	0	44	102	14680064	17	4550
2026-01-24 02:58:47.22	0.01	10.34	-28.5	-30.5	13.7	1.06e-05	0	44	102	14680064	17	4536
2026-01-24 02:58:48.23	359.86	10.39	-28.4	-30.4	13.8	7.00e-07	0	44	102	14680064	17	4488
2026-01-24 02:58:49.23	359.72	10.44	-28.5	-30.5	13.7	6.80e-06	0	44	102	14680064	17	4538
2026-01-24 02:58:50.24	359.57	10.49	-28.5	-30.5	13.7	7.60e-06	0	44	102	14680064	17	4515
2026-01-24 02:58:51.24	359.42	10.54	-28.6	-30.7	13.6	6.10e-06	0	44	102	14680064	17	4579
2026-01-24 02:58:52.24	359.27	10.59	-28.7	-31.1	13.4	1.37e-05	0	44	102	14680064	17	4708
2026-01-24 02:58:53.24	359.12	10.64	-28.7	-30.9	13.6	3.80e-06	0	44	102	14680064	17	4636
2026-01-24 02:58:54.24	358.97	10.69	-28.7	-31.0	13.5	1.22e-05	0	44	102	14680064	17	4689
2026-01-24 02:58:55.24	358.82	10.74	-28.8	-31.1	13.4	1.67e-05	0	44	102	14680064	17	4721
2026-01-24 02:58:56.25	358.67	10.79	-28.8	-31.1	13.4	1.90e-05	0	44	102	14680064	17	4720
2026-01-24 02:58:57.25	358.51	10.84	-28.8	-31.1	13.4	1.29e-05	0	44	102	14680064	17	4725
2026-01-24 02:58:58.25	358.36	10.89	-28.7	-30.9	13.5	7.60e-06	0	44	102	14680064	17	4648
2026-01-24 02:58:59.25	358.21	10.94	-28.7	-31.0	13.5	1.29e-05	0	44	102	14680064	17	4672
2026-01-24 02:59:00.26	358.05	10.99	-28.6	-30.8	13.7	7.60e-06	0	44	102	14680064	17	4617
2026-01-24 02:59:01.26	357.90	11.04	-28.6	-30.8	13.6	1.60e-05	0	44	102	14680064	17	4608
2026-01-24 02:59:02.26	357.75	11.09	-28.7	-30.9	13.6	7.60e-06	0	44	102	14680064	17	4636
2026-01-24 02:59:03.26	357.59	11.14	-28.6	-31.2	13.1	6.10e-06	0	44	102	14680064	16	4849
2026-01-24 02:59:04.27	357.43	11.19	-28.6	-30.7	13.7	4.50e-06	0	44	102	14680064	17	4597
2026-01-24 02:59:05.27	357.28	11.24	-28.6	-30.6	13.7	3.00e-06	0	44	102	14680064	17	4548
2026-01-24 02:59:06.28	357.12	11.29	-28.7	-30.9	13.6	9.90e-06	0	44	102	14680064	17	4642
2026-01-24 02:59:07.28	356.96	11.34	-28.8	-31.2	13.4	1.44e-05	0	44	102	14680064	17	4731
2026-01-24 02:59:08.29	356.80	11.39	-28.7	-30.9	13.6	9.10e-06	0	44	102	14680064	17	4666
2026-01-24 02:59:09.29	356.64	11.44	-28.7	-30.9	13.6	9.25e-04	0	44	102	14680064	17	4643
2026-01-24 02:59:10.30	356.48	11.49	-28.7	-30.8	13.6	7.60e-06	0	44	102	14680064	17	4628
2026-01-24 02:59:11.31	356.32	11.54	-28.6	-30.6	13.8	1.06e-05	0	44	102	14680064	17	4558
2026-01-24 02:59:12.31	356.16	11.59	-28.6	-30.7	13.7	6.10e-06	0	44	102	14680064	17	4590
2026-01-24 02:59:13.32	356.00	11.64	-28.5	-30.5	13.8	1.14e-03	0	44	102	14680064	17	4513
2026-01-24 02:59:14.32	355.84	11.68	-28.5	-30.6	13.8	3.80e-06	0	44	102	14680064	17	4543
2026-01-24 02:59:15.32	355.68	11.73	-28.6	-30.7	13.7	1.95e-03	0	44	102	14680064	17	4585
2026-01-24 02:59:16.33	355.52	11.78	-28.4	-30.8	13.9	2.20e-06	0	44	102	14680064	16	4729
2026-01-24 02:59:17.33	355.35	11.83	-28.3	-30.6	14.1	3.80e-06	0	44	102	14680064	16	4657
2026-01-24 02:59:18.33	355.19	11.88	-28.5	-30.9	13.9	2.10e-03	0	44	102	14680064	16	4746
2026-01-24 02:59:19.33	355.03	11.92	-28.4	-30.2	14.0	1.75e-03	0	44	102	14680064	17	4434
2026-01-24 02:59:20.34	354.86	11.97	-28.6	-30.7	13.8	1.50e-06	0	44	102	14680064	17	4567
2026-01-24 02:59:21.34	354.70	12.02	-28.7	-30.8	13.6	1.04e-03	0	44	102	14680064	17	4618
2026-01-24 02:59:22.35	354.53	12.07	-28.4	-30.7	14.0	1.13e-03	0	44	102	14680064	16	4684
2026-01-24 02:59:23.35	354.36	12.12	-28.3	-30.5	14.1	7.00e-07	0	44	102	14680064	16	4641
2026-01-24 02:59:24.35	354.20	12.16	-28.5	-30.9	13.9	1.21e-03	0	44	102	14680064	16	4750
2026-01-24 02:59:25.35	354.03	12.21	-28.5	-30.4	13.9	1.10e-03	0	44	102	14680064	17	4510
2026-01-24 02:59:26.36	353.86	12.26	-28.5	-30.5	13.8	5.30e-06	0	44	102	14680064	17	4531
2026-01-24 02:59:27.36	353.69	12.30	-28.6	-30.7	13.7	8.96e-04	0	44	102	14680064	17	4583
2026-01-24 02:59:28.36	353.52	12.35	-28.5	-30.4	13.9	8.94e-04	0	44	102	14680064	17	4494
2026-01-24 02:59:29.36	353.35	12.40	-28.9	-31.4	13.3	1.83e-05	0	44	102	14680064	17	4809
2026-01-24 02:59:30.37	353.18	12.44	-28.7	-30.9	13.6	1.20e-03	0	44	102	14680064	17	4638
2026-01-24 02:59:31.37	353.01	12.49	-28.4	-30.8	13.9	1.40e-03	0	44	102	14680064	16	4726
2026-01-24 02:59:32.37	352.84	12.53	-28.4	-30.6	14.1	1.50e-06	0	44	102	14680064	16	4671
2026-01-24 02:59:33.37	352.67	12.58	-28.5	-30.9	14.0	2.20e-06	0	44	102	14680064	16	4752
2026-01-24 02:59:34.37	352.50	12.62	-28.6	-30.8	13.7	1.44e-03	0	44	102	14680064	17	4593
2026-01-24 02:59:35.37	352.33	12.67	-28.7	-31.0	13.6	7.60e-06	0	44	102	14680064	17	4662
2026-01-24 02:59:36.37	352.15	12.71	-28.6	-30.7	13.8	1.50e-06	0	44	102	14680064	17	4574
2026-01-24 02:59:37.37	351.98	12.76	-28.7	-30.9	13.7	2.20e-06	0	44	102	14680064	17	4641
2026-01-24 02:59:38.38	351.80	12.80	-28.7	-31.0	13.6	6.80e-06	0	44	102	14680064	17	4668
2026-01-24 02:59:39.38	351.63	12.85	-28.6	-30.8	13.7	1.78e-03	0	44	102	14680064	17	4595
2026-01-24 02:59:40.39	351.45	12.89	-28.5	-30.5	13.9	1.76e-03	0	44	102	14680064	17	4513
2026-01-24 02:59:41.39	351.28	12.94	-28.5	-30.4	13.9	3.80e-06	0	44	102	14680064	17	4487
2026-01-24 02:59:42.40	351.10	12.98	-28.5	-30.5	13.9	5.30e-06	0	44	102	14680064	17	4510
2026-01-24 02:59:43.40	350.92	13.03	-28.4	-30.6	14.1	3.00e-06	0	44	102	14680064	16	4661
2026-01-24 02:59:44.41	350.74	13.07	-28.3	-30.5	14.2	1.50e-06	0	44	102	14680064	16	4620
2026-01-24 02:59:45.42	350.56	13.11	-28.3	-30.4	14.3	1.72e-03	0	44	102	14680064	16	4602
2026-01-24 02:59:46.42	350.39	13.16	-28.3	-30.4	14.3	7.00e-07	0	44	102	14680064	16	4593
2026-01-24 02:59:47.42	350.21	13.20	-28.3	-30.5	14.3	3.00e-06	0	44	102	14680064	16	4618
2026-01-24 02:59:48.42	350.03	13.24	-28.3	-30.4	14.2	7.00e-07	0	44	102	14680064	16	4613
2026-01-24 02:59:49.42	349.85	13.28	-28.4	-30.7	14.1	1.50e-06	0	44	102	14680064	16	4681
2026-01-24 02:59:50.43	349.67	13.33	-28.3	-30.6	14.2	2.20e-06	0	44	102	14680064	16	4646
2026-01-24 02:59:51.43	349.48	13.37	-28.2	-30.2	14.4	0.00e+00	0	44	102	14680064	16	4524
2026-01-24 02:59:52.43	349.30	13.41	-28.1	-30.1	14.4	7.00e-07	0	44	102	14680064	16	4502
2026-01-24 02:59:53.43	349.12	13.45	-28.1	-30.1	14.5	7.00e-07	0	44	102	14680064	16	4498
2026-01-24 02:59:54.43	348.94	13.49	-28.1	-30.1	14.5	1.50e-06	0	44	102	14680064	16	4502
2026-01-24 02:59:55.43	348.76	13.54	-28.1	-30.0	14.5	0.00e+00	0	44	102	14680064	16	4467
2026-01-24 02:59:56.44	348.57	13.58	-28.1	-30.1	14.5	0.00e+00	0	44	102	14680064	16	4503
2026-01-24 02:59:57.44	348.39	13.62	-28.2	-30.2	14.4	0.00e+00	0	44	102	14680064	16	4551
2026-01-24 02:59:58.45	348.20	13.66	-28.4	-30.7	14.1	0.00e+00	0	44	102	14680064	16	4698
2026-01-24 02:59:59.46	348.01	13.70	-28.4	-30.2	14.2	4.50e-06	0	44	102	14680064	17	4417
2026-01-24 03:00:00.46	347.83	13.74	-28.3	-29.9	14.3	7.00e-07	0	44	102	14680064	17	4333
2026-01-24 03:00:01.46	347.64	13.78	-28.3	-30.3	14.3	2.20e-06	0	44	102	14680064	16	4583
2026-01-24 03:00:02.46	347.45	13.82	-28.3	-30.4	14.3	7.00e-07	0	44	102	14680064	16	4587
2026-01-24 03:00:03.47	347.27	13.86	-28.3	-30.5	14.2	0.00e+00	0	44	102	14680064	16	4642
2026-01-24 03:00:04.47	347.08	13.90	-28.3	-30.6	14.2	1.50e-06	0	44	102	14680064	16	4644
2026-01-24 03:00:05.48	346.89	13.94	-28.3	-30.5	14.2	7.00e-07	0	44	102	14680064	16	4632
2026-01-24 03:00:06.48	346.70	13.98	-28.3	-30.4	14.3	7.00e-07	0	44	102	14680064	16	4594
2026-01-24 03:00:07.48	346.51	14.01	-28.3	-30.3	14.4	7.00e-07	0	44	102	14680064	16	4576
2026-01-24 03:00:08.48	346.32	14.05	-28.2	-30.3	14.4	2.20e-06	0	44	102	14680064	16	4551
2026-01-24 03:00:09.48	346.13	14.09	-28.3	-30.5	14.3	0.00e+00	0	44	102	14680064	16	4616
2026-01-24 03:00:10.48	345.94	14.13	-28.2	-30.2	14.4	0.00e+00	0	44	102	14680064	16	4534
2026-01-24 03:00:11.48	345.75	14.17	-28.0	-29.8	14.7	0.00e+00	0	44	102	14680064	16	4428
2026-01-24 03:00:12.49	345.56	14.20	-27.8	-29.9	14.7	0.00e+00	0	44	102	14680064	15	4563
2026-01-24 03:00:13.49	345.36	14.24	-27.9	-30.0	14.7	7.00e-07	0	44	102	14680064	15	4598
2026-01-24 03:00:14.50	345.17	14.28	-27.9	-30.1	14.6	0.00e+00	0	44	102	14680064	15	4627
2026-01-24 03:00:15.51	344.97	14.31	-28.2	-30.2	14.4	7.00e-07	0	44	102	14680064	16	4529
2026-01-24 03:00:16.51	344.78	14.35	-28.3	-30.3	14.4	0.00e+00	0	44	102	14680064	16	4575
2026-01-24 03:00:17.51	344.59	14.39	-28.2	-30.2	14.5	7.00e-07	0	44	102	14680064	16	4535
2026-01-24 03:00:18.52	344.39	14.42	-28.3	-30.4	14.3	7.00e-07	0	44	102	14680064	16	4612
2026-01-24 03:00:19.52	344.19	14.46	-28.3	-30.4	14.3	0.00e+00	0	44	102	14680064	16	4581
2026-01-24 03:00:20.52	344.00	14.49	-28.3	-30.4	14.3	1.50e-06	0	44	102	14680064	16	4593
2026-01-24 03:00:21.52	343.80	14.53	-28.4	-30.6	14.2	1.50e-06	0	44	102	14680064	16	4655
2026-01-24 03:00:22.52	343.61	14.56	-28.3	-30.6	14.2	0.00e+00	0	44	102	14680064	16	4640
2026-01-24 03:00:23.53	343.41	14.60	-28.4	-30.7	14.2	1.50e-06	0	44	102	14680064	16	4690
2026-01-24 03:00:24.53	343.21	14.63	-28.4	-30.7	14.2	2.20e-06	0	44	102	14680064	16	4675
2026-01-24 03:00:25.54	343.01	14.66	-28.4	-30.6	14.2	3.00e-06	0	44	102	14680064	16	4638
2026-01-24 03:00:26.54	342.81	14.70	-28.4	-30.6	14.2	1.50e-06	0	44	102	14680064	16	4647
2026-01-24 03:00:27.54	342.61	14.73	-28.3	-30.3	14.4	1.50e-06	0	44	102	14680064	16	4564
2026-01-24 03:00:28.54	342.41	14.76	-28.1	-30.1	14.5	7.00e-07	0	44	102	14680064	16	4493
2026-01-24 03:00:29.55	342.21	14.79	-28.2	-30.1	14.5	7.00e-07	0	44	102	14680064	16	4507
2026-01-24 03:00:30.56	342.01	14.83	-27.9	-30.1	14.6	0.00e+00	0	44	102	14680064	15	4634
2026-01-24 03:00:31.57	341.81	14.86	-27.9	-30.1	14.6	0.00e+00	0	44	102	14680064	15	4626
2026-01-24 03:00:32.57	341.61	14.89	-27.0	-29.2	14.4	1.50e-06	0	44	102	14680064	15	4646
2026-01-24 03:00:33.58	341.40	14.92	-28.1	-30.0	13.8	0.00e+00	0	44	102	14680064	16	4462
2026-01-24 03:00:34.58	341.20	14.95	-28.1	-29.9	14.6	0.00e+00	0	44	102	14680064	16	4438
2026-01-24 03:00:35.59	341.00	14.98	-28.2	-30.1	14.5	7.00e-07	0	44	102	14680064	16	4510
2026-01-24 03:00:36.60	340.79	15.01	-28.1	-30.0	14.6	5.31e-04	0	44	102	14680064	16	4460
2026-01-24 03:00:37.59	340.59	15.04	-27.9	-29.6	14.8	0.00e+00	0	44	102	14680064	16	4349
2026-01-24 03:00:38.60	340.39	15.07	-27.9	-29.4	14.9	0.00e+00	0	44	102	14680064	16	4302
2026-01-24 03:00:39.60	340.18	15.10	-27.9	-29.5	14.9	0.00e+00	0	44	102	14680064	16	4343
2026-01-24 03:00:40.60	339.98	15.13	-27.9	-29.5	14.9	0.00e+00	0	44	102	14680064	16	4341
2026-01-24 03:00:41.60	339.78	15.16	-27.9	-29.5	14.9	5.95e-05	0	44	102	14680064	16	4323
2026-01-24 03:00:42.60	339.57	15.19	-27.9	-29.5	14.9	7.00e-07	0	44	102	14680064	16	4329
2026-01-24 03:00:43.60	339.36	15.21	-27.9	-29.6	14.8	0.00e+00	0	44	102	14680064	16	4349
2026-01-24 03:00:44.61	339.16	15.24	-27.8	-29.8	14.7	1.50e-06	0	44	102	14680064	15	4548
2026-01-24 03:00:45.61	338.95	15.27	-27.8	-29.9	14.8	0.00e+00	0	44	102	14680064	15	4558
2026-01-24 03:00:46.62	338.74	15.30	-27.8	-29.9	14.8	0.00e+00	0	44	102	14680064	15	4562
2026-01-24 03:00:47.62	338.54	15.32	-27.8	-29.8	14.8	1.53e-03	0	44	102	14680064	15	4546
2026-01-24 03:00:48.62	338.33	15.35	-27.8	-29.8	14.8	1.57e-03	0	44	102	14680064	15	4537
2026-01-24 03:00:49.62	338.12	15.37	-27.9	-30.0	14.7	7.00e-07	0	44	102	14680064	15	4593
2026-01-24 03:00:50.62	337.91	15.40	-27.9	-30.0	14.7	3.84e-04	0	44	102	14680064	15	4599
2026-01-24 03:00:51.62	337.70	15.42	-28.5	-30.6	14.5	4.18e-04	0	44	102	14680064	16	4556
2026-01-24 03:00:52.61	337.50	15.45	-28.1	-29.9	14.7	0.00e+00	0	44	102	14680064	16	4428
2026-01-24 03:00:53.62	337.29	15.47	-28.0	-29.8	14.7	0.00e+00	0	44	102	14680064	16	4419
2026-01-24 03:00:54.63	337.07	15.50	-28.1	-30.0	14.6	0.00e+00	0	44	102	14680064	16	4477
2026-01-24 03:00:55.64	336.86	15.52	-28.1	-30.0	14.6	1.50e-06	0	44	102	14680064	16	4469
2026-01-24 03:00:56.64	336.65	15.54	-28.0	-29.8	14.7	3.69e-04	0	44	102	14680064	16	4417
2026-01-24 03:00:57.64	336.44	15.57	-28.2	-30.1	14.5	8.63e-04	0	44	102	14680064	16	4499
2026-01-24 03:00:58.64	336.23	15.59	-28.1	-29.9	14.6	5.30e-06	0	44	102	14680064	16	4441
2026-01-24 03:00:59.65	336.02	15.61	-27.7	-29.6	14.9	1.90e-03	0	44	102	14680064	15	4467
2026-01-24 03:01:00.65	335.81	15.63	-27.7	-29.6	14.9	2.10e-03	0	44	102	14680064	15	4473
2026-01-24 03:01:01.66	335.59	15.65	-27.7	-29.6	14.9	4.50e-06	0	44	102	14680064	15	4463
2026-01-24 03:01:02.66	335.38	15.67	-27.8	-29.8	14.8	1.99e-03	0	44	102	14680064	15	4521
2026-01-24 03:01:03.67	335.17	15.70	-27.9	-30.0	14.7	1.37e-03	0	44	102	14680064	15	4601
2026-01-24 03:01:04.67	334.95	15.72	-27.8	-29.9	14.8	0.00e+00	0	44	102	14680064	15	4559
2026-01-24 03:01:05.67	334.74	15.73	-27.7	-29.7	14.9	0.00e+00	0	44	102	14680064	15	4499
2026-01-24 03:01:06.67	334.53	15.75	-27.8	-29.8	14.8	2.37e-04	0	44	102	14680064	15	4533
2026-01-24 03:01:07.67	334.31	15.77	-27.8	-29.7	14.9	0.00e+00	0	44	102	14680064	15	4499
2026-01-24 03:01:08.67	334.10	15.79	-27.8	-29.7	14.9	3.75e-04	0	44	102	14680064	15	4505
2026-01-24 03:01:09.67	333.89	15.81	-27.7	-29.7	14.9	0.00e+00	0	44	102	14680064	15	4500
2026-01-24 03:01:10.68	333.67	15.83	-27.9	-29.9	14.7	0.00e+00	0	44	102	14680064	15	4576
2026-01-24 03:01:11.68	333.46	15.85	-27.8	-29.8	14.8	1.27e-03	0	44	102	14680064	15	4546
2026-01-24 03:01:12.68	333.24	15.86	-27.7	-29.5	15.0	1.19e-03	0	44	102	14680064	15	4441
2026-01-24 03:01:13.69	333.02	15.88	-27.6	-29.4	15.0	0.00e+00	0	44	102	14680064	15	4414
2026-01-24 03:01:14.68	332.81	15.90	-27.6	-29.3	15.1	0.00e+00	0	44	102	14680064	15	4384
2026-01-24 03:01:15.69	332.59	15.91	-27.8	-29.7	14.8	7.00e-07	0	44	102	14680064	15	4500
2026-01-24 03:01:16.69	332.38	15.93	-27.7	-29.6	14.9	0.00e+00	0	44	102	14680064	15	4477
2026-01-24 03:01:17.71	332.16	15.94	-27.8	-29.8	14.8	5.25e-04	0	44	102	14680064	15	4528
2026-01-24 03:01:18.71	331.94	15.96	-27.8	-29.9	14.8	0.00e+00	0	44	102	14680064	15	4567
2026-01-24 03:01:19.72	331.72	15.97	-27.8	-29.9	14.7	0.00e+00	0	44	102	14680064	15	4562
2026-01-24 03:01:20.72	331.51	15.98	-27.9	-30.1	14.6	7.00e-07	0	44	102	14680064	15	4639
2026-01-24 03:01:21.72	331.29	16.00	-28.0	-29.8	14.7	7.00e-07	0	44	102	14680064	16	4415
2026-01-24 03:01:22.73	331.07	16.01	-27.9	-29.5	14.8	7.00e-07	0	44	102	14680064	16	4338
2026-01-24 03:01:23.74	330.85	16.02	-27.7	-29.6	14.9	0.00e+00	0	44	102	14680064	15	4484
2026-01-24 03:01:24.74	330.63	16.04	-27.7	-29.5	15.0	0.00e+00	0	44	102	14680064	15	4446
2026-01-24 03:01:25.74	330.41	16.05	-27.5	-29.2	15.1	0.00e+00	0	44	102	14680064	15	4362
2026-01-24 03:01:26.74	330.20	16.06	-27.6	-29.3	15.1	0.00e+00	0	44	102	14680064	15	4391
2026-01-24 03:01:27.75	329.98	16.07	-27.7	-29.5	15.0	0.00e+00	0	44	102	14680064	15	4440
2026-01-24 03:01:28.75	329.76	16.08	-27.5	-29.2	15.1	0.00e+00	0	44	102	14680064	15	4354
2026-01-24 03:01:29.75	329.54	16.09	-27.4	-29.0	15.3	0.00e+00	0	44	102	14680064	15	4290
2026-01-24 03:01:30.75	329.32	16.10	-27.4	-29.4	15.3	0.00e+00	0	44	102	14680064	14	4527
2026-01-24 03:01:31.75	329.10	16.11	-27.4	-29.5	15.3	0.00e+00	0	44	102	14680064	14	4545
2026-01-24 03:01:32.75	328.89	16.12	-27.5	-29.1	15.2	0.00e+00	0	44	102	14680064	15	4340
2026-01-24 03:01:33.75	328.67	16.13	-27.7	-29.5	14.9	0.00e+00	0	44	102	14680064	15	4456
2026-01-24 03:01:34.76	328.45	16.13	-27.8	-29.7	14.9	7.00e-07	0	44	102	14680064	15	4517
2026-01-24 03:01:35.77	328.22	16.14	-27.8	-29.8	14.8	0.00e+00	0	44	102	14680064	15	4530
2026-01-24 03:01:36.77	328.01	16.15	-27.9	-30.0	14.7	0.00e+00	0	44	102	14680064	15	4581
2026-01-24 03:01:37.78	327.78	16.16	-27.9	-30.1	14.7	1.50e-06	0	44	102	14680064	15	4615
2026-01-24 03:01:38.78	327.56	16.16	-28.0	-30.2	14.6	7.00e-07	0	44	102	14680064	15	4653
2026-01-24 03:01:39.78	327.34	16.17	-27.9	-30.1	14.6	0.00e+00	0	44	102	14680064	15	4641
2026-01-24 03:01:40.78	327.13	16.17	-27.9	-30.0	14.7	0.00e+00	0	44	102	14680064	15	4603
2026-01-24 03:01:41.78	326.91	16.18	-28.0	-30.2	14.6	0.00e+00	0	44	102	14680064	15	4647
2026-01-24 03:01:42.78	326.69	16.18	-28.0	-29.7	14.7	7.00e-07	0	44	102	14680064	16	4390
2026-01-24 03:01:43.78	326.47	16.19	-27.9	-29.6	14.8	0.00e+00	0	44	102	14680064	16	4360
2026-01-24 03:01:44.78	326.25	16.19	-27.8	-29.8	14.8	0.00e+00	0	44	102	14680064	15	4548
2026-01-24 03:01:45.79	326.02	16.19	-27.8	-29.9	14.7	0.00e+00	0	44	102	14680064	15	4561
2026-01-24 03:01:46.79	325.80	16.20	-27.9	-30.0	14.7	1.50e-06	0	44	102	14680064	15	4600
2026-01-24 03:01:47.80	325.58	16.20	-27.9	-30.0	14.7	0.00e+00	0	44	102	14680064	15	4602
2026-01-24 03:01:48.81	325.36	16.20	-27.9	-30.1	14.7	0.00e+00	0	44	102	14680064	15	4613
2026-01-24 03:01:49.81	325.14	16.20	-27.8	-29.9	14.8	2.20e-06	0	44	102	14680064	15	4565
2026-01-24 03:01:50.82	324.92	16.20	-27.9	-29.9	14.7	7.00e-07	0	44	102	14680064	15	4573
2026-01-24 03:01:51.83	324.70	16.20	-27.9	-30.1	14.6	0.00e+00	0	44	102	14680064	15	4618
2026-01-24 03:01:52.83	324.48	16.20	-28.1	-30.0	14.6	0.00e+00	0	44	102	14680064	16	4460
2026-01-24 03:01:53.84	324.25	16.20	-28.2	-30.1	14.5	0.00e+00	0	44	102	14680064	16	4514
2026-01-24 03:01:54.84	324.03	16.20	-28.1	-30.0	14.6	1.50e-06	0	44	102	14680064	16	4469
2026-01-24 03:01:55.85	323.81	16.20	-28.1	-30.0	14.5	0.00e+00	0	44	102	14680064	16	4482
2026-01-24 03:01:56.85	323.59	16.20	-28.1	-30.0	14.5	7.00e-07	0	44	102	14680064	16	4487
2026-01-24 03:01:57.86	323.37	16.20	-28.3	-30.4	14.3	0.00e+00	0	44	102	14680064	16	4585
2026-01-24 03:01:58.86	323.15	16.20	-28.2	-30.3	14.4	7.00e-07	0	44	102	14680064	16	4548
2026-01-24 03:01:59.86	322.93	16.19	-28.5	-30.8	14.1	1.50e-06	0	44	102	14680064	16	4728
2026-01-24 03:02:00.86	322.71	16.19	-28.3	-30.0	14.2	3.00e-06	0	44	102	14680064	17	4370
2026-01-24 03:02:01.87	322.49	16.19	-28.1	-29.6	14.5	0.00e+00	0	44	102	14680064	17	4243
2026-01-24 03:02:02.88	322.27	16.18	-28.1	-30.1	14.5	0.00e+00	0	44	102	14680064	16	4496
2026-01-24 03:02:03.88	322.05	16.18	-28.2	-30.2	14.4	0.00e+00	0	44	102	14680064	16	4525
2026-01-24 03:02:04.88	321.83	16.17	-28.1	-30.1	14.2	2.20e-06	0	44	102	14680064	16	4505
2026-01-24 03:02:05.88	321.61	16.17	-28.1	-30.0	14.5	0.00e+00	0	44	102	14680064	16	4482
2026-01-24 03:02:06.89	321.38	16.16	-28.1	-29.9	14.6	7.00e-07	0	44	102	14680064	16	4442
2026-01-24 03:02:07.89	321.17	16.16	-28.1	-30.0	14.5	0.00e+00	0	44	102	14680064	16	4487
2026-01-24 03:02:08.90	320.94	16.15	-28.0	-29.7	14.7	0.00e+00	0	44	102	14680064	16	4377
2026-01-24 03:02:09.90	320.72	16.14	-27.9	-29.6	14.8	7.00e-07	0	44	102	14680064	16	4351
2026-01-24 03:02:10.89	320.51	16.13	-27.8	-29.8	14.7	0.00e+00	0	44	102	14680064	15	4540
2026-01-24 03:02:11.90	320.29	16.13	-27.9	-30.0	14.7	0.00e+00	0	44	102	14680064	15	4596
2026-01-24 03:02:12.90	320.07	16.12	-27.8	-29.7	14.8	0.00e+00	0	44	102	14680064	15	4506
2026-01-24 03:02:13.91	319.85	16.11	-27.8	-29.8	14.8	1.69e-03	0	44	102	14680064	15	4532
2026-01-24 03:02:14.91	319.63	16.10	-27.8	-29.9	14.7	1.45e-03	0	44	102	14680064	15	4555
2026-01-24 03:02:15.92	319.41	16.09	-27.8	-29.9	14.7	0.00e+00	0	44	102	14680064	15	4559
2026-01-24 03:02:16.92	319.19	16.08	-27.9	-30.0	14.7	0.00e+00	0	44	102	14680064	15	4610
2026-01-24 03:02:17.93	318.97	16.07	-27.8	-29.8	14.8	0.00e+00	0	44	102	14680064	15	4538
2026-01-24 03:02:18.94	318.75	16.06	-27.7	-29.6	14.9	0.00e+00	0	44	102	14680064	15	4480
2026-01-24 03:02:19.95	318.53	16.05	-27.9	-30.0	14.7	6.09e-04	0	44	102	14680064	15	4599
2026-01-24 03:02:20.94	318.31	16.04	-27.8	-29.7	14.8	5.12e-04	0	44	102	14680064	15	4521
2026-01-24 03:02:21.95	318.09	16.02	-27.7	-29.7	14.9	0.00e+00	0	44	102	14680064	15	4500
2026-01-24 03:02:22.95	317.88	16.01	-27.8	-29.8	14.8	0.00e+00	0	44	102	14680064	15	4523
2026-01-24 03:02:23.95	317.66	16.00	-27.9	-30.0	14.6	8.30e-06	0	44	102	14680064	15	4601
2026-01-24 03:02:24.95	317.44	15.99	-27.7	-29.7	14.8	0.00e+00	0	44	102	14680064	15	4501
2026-01-24 03:02:25.95	317.22	15.97	-27.7	-29.5	14.9	0.00e+00	0	44	102	14680064	15	4448
2026-01-24 03:02:26.97	317.00	15.96	-27.7	-29.5	14.9	0.00e+00	0	44	102	14680064	15	4461
2026-01-24 03:02:27.97	316.79	15.94	-27.7	-29.6	14.9	0.00e+00	0	44	102	14680064	15	4486
2026-01-24 03:02:28.97	316.57	15.93	-27.6	-29.5	14.9	0.00e+00	0	44	102	14680064	15	4436
2026-01-24 03:02:29.98	316.35	15.91	-27.6	-29.4	15.0	4.11e-05	0	44	102	14680064	15	4413
2026-01-24 03:02:30.97	316.14	15.90	-27.7	-29.6	14.9	7.00e-07	0	44	102	14680064	15	4474
2026-01-24 03:02:31.98	315.92	15.88	-27.5	-29.2	15.1	1.79e-04	0	44	102	14680064	15	4379
2026-01-24 03:02:32.97	315.71	15.86	-27.5	-29.2	15.1	0.00e+00	0	44	102	14680064	15	4356
2026-01-24 03:02:33.98	315.49	15.85	-27.5	-29.2	15.1	0.00e+00	0	44	102	14680064	15	4373
2026-01-24 03:02:34.98	315.28	15.83	-27.7	-29.6	14.8	2.14e-04	0	44	102	14680064	15	4494
2026-01-24 03:02:35.98	315.06	15.81	-27.9	-30.0	14.6	2.37e-04	0	44	102	14680064	15	4595
2026-01-24 03:02:36.99	314.84	15.79	-27.9	-30.0	14.6	0.00e+00	0	44	102	14680064	15	4595
2026-01-24 03:02:37.98	314.63	15.77	-27.9	-30.2	14.5	0.00e+00	0	44	102	14680064	15	4660
2026-01-24 03:02:38.98	314.42	15.76	-27.8	-29.9	14.7	0.00e+00	0	44	102	14680064	15	4581
2026-01-24 03:02:39.98	314.21	15.74	-27.8	-29.8	14.7	7.00e-07	0	44	102	14680064	15	4533
2026-01-24 03:02:40.98	313.99	15.72	-27.8	-29.8	14.8	1.27e-03	0	44	102	14680064	15	4527
2026-01-24 03:02:41.99	313.78	15.70	-27.9	-30.0	14.6	3.80e-06	0	44	102	14680064	15	4611
2026-01-24 03:02:42.99	313.56	15.68	-27.8	-29.7	14.8	0.00e+00	0	44	102	14680064	15	4520
2026-01-24 03:02:44.00	313.35	15.65	-27.7	-29.7	14.8	7.00e-07	0	44	102	14680064	15	4499
2026-01-24 03:02:45.00	313.14	15.63	-27.7	-29.7	14.8	1.85e-03	0	44	102	14680064	15	4513
2026-01-24 03:02:46.00	312.93	15.61	-27.9	-30.0	14.6	0.00e+00	0	44	102	14680064	15	4612
2026-01-24 03:02:46.99	312.72	15.59	-27.9	-30.0	14.6	7.00e-07	0	44	102	14680064	15	4588
2026-01-24 03:02:48.00	312.50	15.57	-28.2	-30.3	14.4	1.50e-06	0	44	102	14680064	16	4554
2026-01-24 03:02:49.00	312.29	15.54	-28.1	-30.0	14.5	0.00e+00	0	44	102	14680064	16	4478
2026-01-24 03:02:50.00	312.08	15.52	-28.0	-29.8	14.6	4.84e-04	0	44	102	14680064	16	4414
2026-01-24 03:02:51.00	311.87	15.50	-27.9	-29.6	14.7	4.28e-04	0	44	102	14680064	16	4352
2026-01-24 03:02:52.01	311.66	15.47	-27.9	-29.5	14.8	0.00e+00	0	44	102	14680064	16	4336
2026-01-24 03:02:53.02	311.45	15.45	-27.9	-29.6	14.7	1.50e-06	0	44	102	14680064	16	4367
2026-01-24 03:02:54.01	311.24	15.43	-27.6	-29.5	14.9	0.00e+00	0	44	102	14680064	15	4452
2026-01-24 03:02:55.01	311.03	15.40	-27.6	-29.4	14.9	0.00e+00	0	44	102	14680064	15	4429
2026-01-24 03:02:56.02	310.82	15.37	-27.6	-29.4	14.9	0.00e+00	0	44	102	14680064	15	4433
2026-01-24 03:02:57.02	310.61	15.35	-27.7	-29.5	14.8	1.50e-06	0	44	102	14680064	15	4462
2026-01-24 03:02:58.03	310.40	15.32	-27.5	-29.2	15.0	0.00e+00	0	44	102	14680064	15	4378
2026-01-24 03:02:59.03	310.20	15.30	-27.6	-29.5	14.9	0.00e+00	0	44	102	14680064	15	4447
2026-01-24 03:03:00.03	309.99	15.27	-27.6	-29.3	15.0	0.00e+00	0	44	102	14680064	15	4391
2026-01-24 03:03:01.03	309.78	15.24	-27.7	-29.6	14.9	0.00e+00	0	44	102	14680064	15	4471
2026-01-24 03:03:02.04	309.58	15.22	-27.6	-29.4	14.9	0.00e+00	0	44	102	14680064	15	4427
2026-01-24 03:03:03.04	309.37	15.19	-27.6	-29.4	14.9	0.00e+00	0	44	102	14680064	15	4423
2026-01-24 03:03:04.05	309.16	15.16	-27.6	-29.5	14.9	0.00e+00	0	44	102	14680064	15	4457
2026-01-24 03:03:05.05	308.96	15.13	-27.7	-29.7	14.8	0.00e+00	0	44	102	14680064	15	4504
2026-01-24 03:03:06.05	308.75	15.10	-27.8	-29.9	14.6	0.00e+00	0	44	102	14680064	15	4583
2026-01-24 03:03:07.06	308.55	15.07	-27.7	-29.6	14.8	7.00e-07	0	44	102	14680064	15	4478
2026-01-24 03:03:08.06	308.34	15.04	-27.6	-29.4	14.9	0.00e+00	0	44	102	14680064	15	4435
2026-01-24 03:03:09.05	308.14	15.01	-27.6	-29.4	14.9	7.00e-07	0	44	102	14680064	15	4422
2026-01-24 03:03:10.05	307.94	14.98	-27.5	-29.3	15.0	0.00e+00	0	44	102	14680064	15	4384
2026-01-24 03:03:11.05	307.73	14.95	-27.6	-29.3	15.0	0.00e+00	0	44	102	14680064	15	4407
2026-01-24 03:03:12.06	307.53	14.92	-27.8	-29.8	14.7	0.00e+00	0	44	102	14680064	15	4533
2026-01-24 03:03:13.07	307.33	14.89	-27.6	-29.4	14.9	0.00e+00	0	44	102	14680064	15	4429
2026-01-24 03:03:14.08	307.12	14.86	-27.6	-29.3	15.0	0.00e+00	0	44	102	14680064	15	4398
2026-01-24 03:03:15.08	306.92	14.83	-27.6	-29.5	14.8	0.00e+00	0	44	102	14680064	15	4459
2026-01-24 03:03:16.08	306.72	14.80	-27.7	-29.7	14.7	7.00e-07	0	44	102	14680064	15	4521
2026-01-24 03:03:17.09	306.52	14.76	-27.7	-29.7	14.7	7.00e-07	0	44	102	14680064	15	4531
2026-01-24 03:03:18.10	306.32	14.73	-27.7	-29.6	14.7	7.00e-07	0	44	102	14680064	15	4482
2026-01-24 03:03:19.10	306.12	14.70	-27.7	-29.7	14.7	0.00e+00	0	44	102	14680064	15	4506
2026-01-24 03:03:20.10	305.92	14.66	-27.6	-29.4	14.9	0.00e+00	0	44	102	14680064	15	4432
2026-01-24 03:03:21.10	305.72	14.63	-27.7	-29.6	14.8	0.00e+00	0	44	102	14680064	15	4478
2026-01-24 03:03:22.11	305.52	14.60	-27.6	-29.4	14.9	0.00e+00	0	44	102	14680064	15	4435
2026-01-24 03:03:23.10	305.33	14.56	-27.6	-29.5	14.8	0.00e+00	0	44	102	14680064	15	4451
2026-01-24 03:03:24.11	305.13	14.53	-27.8	-29.9	14.6	1.50e-06	0	44	102	14680064	15	4582
2026-01-24 03:03:25.11	304.93	14.49	-27.8	-29.9	14.5	0.00e+00	0	44	102	14680064	15	4587
2026-01-24 03:03:26.12	304.73	14.46	-27.8	-29.9	14.6	0.00e+00	0	44	102	14680064	15	4578
2026-01-24 03:03:27.13	304.54	14.42	-27.8	-29.9	14.5	7.00e-07	0	44	102	14680064	15	4587
2026-01-24 03:03:28.13	304.34	14.39	-27.7	-29.6	14.7	7.00e-07	0	44	102	14680064	15	4492
2026-01-24 03:03:29.15	304.14	14.35	-27.8	-29.9	14.6	0.00e+00	0	44	102	14680064	15	4569
2026-01-24 03:03:30.14	303.95	14.31	-27.8	-29.8	14.6	7.00e-07	0	44	102	14680064	15	4560
2026-01-24 03:03:31.15	303.75	14.28	-27.9	-30.2	14.4	0.00e+00	0	44	102	14680064	15	4667
2026-01-24 03:03:32.15	303.56	14.24	-27.7	-29.8	14.6	0.00e+00	0	44	102	14680064	15	4536
2026-01-24 03:03:33.15	303.37	14.20	-27.7	-29.5	14.8	7.00e-07	0	44	102	14680064	15	4476
2026-01-24 03:03:34.16	303.17	14.17	-27.6	-29.4	14.8	0.00e+00	0	44	102	14680064	15	4437
2026-01-24 03:03:35.16	302.98	14.13	-27.6	-29.4	14.8	0.00e+00	0	44	102	14680064	15	4435
2026-01-24 03:03:36.17	302.79	14.09	-27.7	-29.5	14.8	0.00e+00	0	44	102	14680064	15	4466
2026-01-24 03:03:37.17	302.60	14.05	-27.7	-29.7	14.6	0.00e+00	0	44	102	14680064	15	4533
2026-01-24 03:03:38.17	302.41	14.01	-27.7	-29.7	14.6	7.00e-07	0	44	102	14680064	15	4521
2026-01-24 03:03:39.18	302.22	13.98	-27.8	-30.0	14.5	7.00e-07	0	44	102	14680064	15	4600
2026-01-24 03:03:40.18	302.03	13.94	-27.9	-30.2	14.3	7.00e-07	0	44	102	14680064	15	4666
2026-01-24 03:03:41.19	301.84	13.90	-27.7	-29.7	14.6	0.00e+00	0	44	102	14680064	15	4531
2026-01-24 03:03:42.19	301.65	13.86	-27.7	-29.6	14.7	0.00e+00	0	44	102	14680064	15	4495
2026-01-24 03:03:43.20	301.46	13.82	-27.7	-29.7	13.2	7.00e-07	0	44	102	14680064	15	4511
2026-01-24 03:03:44.20	301.27	13.78	-27.7	-29.6	13.7	7.00e-07	0	44	102	14680064	15	4505
2026-01-24 03:03:45.21	301.08	13.74	-27.8	-29.8	14.6	7.00e-07	0	44	102	14680064	15	4535
2026-01-24 03:03:46.21	300.90	13.70	-27.7	-29.7	14.6	0.00e+00	0	44	102	14680064	15	4533
2026-01-24 03:03:47.21	300.71	13.66	-27.8	-29.8	14.6	7.00e-07	0	44	102	14680064	15	4556
2026-01-24 03:03:48.22	300.52	13.62	-27.9	-30.2	14.3	0.00e+00	0	44	102	14680064	15	4673
2026-01-24 03:03:49.22	300.34	13.58	-27.9	-30.1	14.4	0.00e+00	0	44	102	14680064	15	4642
2026-01-24 03:03:50.22	300.16	13.53	-28.2	-30.3	14.2	7.00e-07	0	44	102	14680064	16	4569
2026-01-24 03:03:51.23	299.97	13.49	-28.4	-30.7	13.9	5.30e-06	0	44	102	14680064	16	4706
2026-01-24 03:03:52.24	299.78	13.45	-28.4	-30.7	13.9	3.29e-03	0	44	102	14680064	16	4718
2026-01-24 03:03:53.24	299.60	13.41	-28.4	-30.7	13.9	3.36e-03	0	44	102	14680064	16	4716
2026-01-24 03:03:54.24	299.42	13.37	-28.4	-30.8	13.8	6.10e-06	0	44	102	14680064	16	4742
2026-01-24 03:03:55.25	299.24	13.32	-28.5	-30.6	13.6	4.50e-06	0	44	102	14680064	17	4568
2026-01-24 03:03:56.24	299.06	13.28	-28.6	-30.7	13.6	1.75e-05	0	44	102	14680064	17	4604
2026-01-24 03:03:57.25	298.88	13.24	-28.4	-30.2	13.8	4.50e-06	0	44	102	14680064	17	4450
2026-01-24 03:03:58.25	298.70	13.20	-28.6	-30.7	13.5	3.37e-03	0	44	102	14680064	17	4607
2026-01-24 03:03:59.26	298.51	13.15	-28.3	-30.6	13.9	3.34e-03	0	44	102	14680064	16	4686
2026-01-24 03:04:00.27	298.33	13.11	-28.3	-30.5	14.0	0.00e+00	0	44	102	14680064	16	4632
2026-01-24 03:04:01.26	298.16	13.07	-28.4	-30.7	13.8	5.30e-06	0	44	102	14680064	16	4714
2026-01-24 03:04:02.27	297.98	13.02	-28.2	-30.2	14.2	3.11e-03	0	44	102	14680064	16	4550
2026-01-24 03:04:03.28	297.80	12.98	-28.1	-30.0	14.3	7.00e-07	0	44	102	14680064	16	4479
2026-01-24 03:04:04.28	297.62	12.93	-28.0	-29.8	14.4	2.88e-03	0	44	102	14680064	16	4442
2026-01-24 03:04:05.29	297.44	12.89	-27.9	-30.0	14.4	2.63e-03	0	44	102	14680064	15	4621
2026-01-24 03:04:06.29	297.27	12.85	-27.9	-30.2	14.3	7.00e-07	0	44	102	14680064	15	4688
2026-01-24 03:04:07.30	297.09	12.80	-28.3	-30.5	14.0	1.86e-03	0	44	102	14680064	16	4643
2026-01-24 03:04:08.30	296.92	12.76	-28.1	-30.0	14.2	1.70e-03	0	44	102	14680064	16	4507
2026-01-24 03:04:09.30	296.74	12.71	-27.9	-29.7	14.5	1.50e-06	0	44	102	14680064	16	4397
2026-01-24 03:04:10.31	296.57	12.67	-27.9	-30.1	14.3	2.24e-03	0	44	102	14680064	15	4648
2026-01-24 03:04:11.32	296.39	12.62	-27.9	-30.2	14.3	0.00e+00	0	44	102	14680064	15	4670
2026-01-24 03:04:12.32	296.22	12.57	-27.9	-30.2	14.3	2.20e-06	0	44	102	14680064	15	4680
2026-01-24 03:04:13.32	296.05	12.53	-28.2	-30.2	14.1	2.98e-03	0	44	102	14680064	16	4566
2026-01-24 03:04:14.33	295.87	12.48	-28.1	-30.1	14.2	2.94e-03	0	44	102	14680064	16	4521
2026-01-24 03:04:15.33	295.70	12.44	-28.1	-30.2	14.1	3.00e-06	0	44	102	14680064	16	4550
2026-01-24 03:04:16.33	295.53	12.39	-28.3	-30.5	14.0	1.50e-06	0	44	102	14680064	16	4629
2026-01-24 03:04:17.34	295.36	12.34	-28.3	-30.6	13.9	5.30e-06	0	44	102	14680064	16	4673
2026-01-24 03:04:18.34	295.19	12.30	-28.3	-30.6	13.9	0.00e+00	0	44	102	14680064	16	4666
2026-01-24 03:04:19.35	295.02	12.25	-28.4	-30.8	13.8	2.85e-03	0	44	102	14680064	16	4749
2026-01-24 03:04:20.35	294.85	12.20	-28.4	-30.8	13.7	3.03e-03	0	44	102	14680064	16	4754
2026-01-24 03:04:21.35	294.69	12.16	-28.4	-30.8	13.8	6.10e-06	0	44	102	14680064	16	4730
2026-01-24 03:04:22.35	294.52	12.11	-28.4	-30.7	13.8	5.30e-06	0	44	102	14680064	16	4721
2026-01-24 03:04:23.36	294.35	12.06	-28.3	-30.7	13.9	8.30e-06	0	44	102	14680064	16	4703
2026-01-24 03:04:24.36	294.18	12.01	-28.4	-30.8	13.8	3.80e-06	0	44	102	14680064	16	4746
2026-01-24 03:04:25.36	294.02	11.97	-28.6	-30.9	13.4	1.52e-05	0	44	102	14680064	17	4656
2026-01-24 03:04:26.37	293.85	11.92	-28.7	-31.1	13.3	2.21e-05	0	44	102	14680064	17	4717
2026-01-24 03:04:27.36	293.69	11.87	-28.5	-30.7	13.5	1.06e-05	0	44	102	14680064	17	4605
2026-01-24 03:04:28.37	293.52	11.82	-28.6	-30.8	13.4	7.60e-06	0	44	102	14680064	17	4622
2026-01-24 03:04:29.37	293.36	11.77	-28.6	-30.8	13.4	1.14e-05	0	44	102	14680064	17	4632
2026-01-24 03:04:30.37	293.20	11.73	-28.5	-30.6	13.5	1.22e-05	0	44	102	14680064	17	4566
2026-01-24 03:04:31.36	293.04	11.68	-28.4	-30.4	13.6	8.30e-06	0	44	102	14680064	17	4518
2026-01-24 03:04:32.36	292.88	11.63	-28.4	-30.8	13.7	9.90e-06	0	44	102	14680064	16	4749
2026-01-24 03:04:33.37	292.71	11.58	-28.4	-30.7	13.7	8.30e-06	0	44	102	14680064	16	4722
2026-01-24 03:04:34.37	292.55	11.53	-28.3	-30.6	13.8	5.30e-06	0	44	102	14680064	16	4680
2026-01-24 03:04:35.37	292.39	11.48	-28.3	-30.7	13.7	9.10e-06	0	44	102	14680064	16	4721
2026-01-24 03:04:36.38	292.23	11.43	-28.1	-30.0	14.2	2.20e-06	0	44	102	14680064	16	4496
2026-01-24 03:04:37.38	292.07	11.38	-28.0	-29.8	14.3	0.00e+00	0	44	102	14680064	16	4427
2026-01-24 03:04:38.38	291.91	11.34	-27.8	-29.9	14.3	3.00e-06	0	44	102	14680064	15	4600
2026-01-24 03:04:39.39	291.75	11.29	-27.9	-30.1	14.2	2.20e-06	0	44	102	14680064	15	4652
2026-01-24 03:04:40.40	291.60	11.24	-27.9	-30.2	14.1	7.00e-07	0	44	102	14680064	15	4678
2026-01-24 03:04:41.40	291.44	11.19	-28.1	-30.2	14.0	1.50e-06	0	44	102	14680064	16	4556
2026-01-24 03:04:42.40	291.28	11.14	-28.2	-30.3	13.9	2.20e-06	0	44	102	14680064	16	4597
2026-01-24 03:04:43.40	291.13	11.09	-28.3	-30.5	13.8	1.50e-06	0	44	102	14680064	16	4656
2026-01-24 03:04:44.40	290.97	11.04	-28.3	-30.7	13.7	5.30e-06	0	44	102	14680064	16	4710
2026-01-24 03:04:45.40	290.82	10.99	-28.5	-31.0	13.6	9.10e-06	0	44	102	14680064	16	4800
2026-01-24 03:04:46.41	290.66	10.94	-28.7	-30.9	13.3	1.83e-05	0	44	102	14680064	17	4687
2026-01-24 03:04:47.41	290.51	10.89	-28.8	-31.3	13.0	2.82e-05	0	44	102	14680064	17	4795
2026-01-24 03:04:48.41	290.35	10.84	-28.7	-31.1	13.2	2.97e-05	0	44	102	14680064	17	4734
2026-01-24 03:04:49.41	290.20	10.79	-28.8	-31.4	13.0	3.20e-05	0	44	102	14680064	17	4833
2026-01-24 03:04:50.42	290.05	10.74	-28.9	-31.7	12.8	7.62e-05	0	44	102	14680064	17	4924
2026-01-24 03:04:51.42	289.90	10.68	-28.9	-31.7	12.8	5.79e-05	0	44	102	14680064	17	4940
2026-01-24 03:04:52.43	289.74	10.63	-29.1	-31.6	12.5	8.77e-05	0	44	102	14680064	18	4815
2026-01-24 03:04:53.44	289.59	10.58	-29.3	-32.1	12.2	2.41e-04	0	44	102	14680064	18	4982
2026-01-24 03:04:54.44	289.44	10.53	-29.4	-31.9	12.0	4.91e-04	0	44	102	14680064	19	4803
2026-01-24 03:04:55.45	289.29	10.48	-29.5	-32.6	11.9	4.06e-04	0	44	102	14680064	18	5130
2026-01-24 03:04:56.46	289.14	10.43	-29.4	-32.3	12.1	2.82e-04	0	44	102	14680064	18	5032
2026-01-24 03:04:57.46	288.99	10.38	-29.2	-31.8	12.3	2.05e-04	0	44	102	14680064	18	4880
2026-01-24 03:04:58.47	288.84	10.33	-29.2	-32.0	12.2	1.94e-04	0	44	102	14680064	18	4926
2026-01-24 03:04:59.47	288.70	10.28	-29.2	-31.7	12.3	2.32e-04	0	44	102	14680064	18	4854
2026-01-24 03:05:00.47	288.55	10.22	-29.2	-31.9	12.3	1.33e-04	0	44	102	14680064	18	4890
2026-01-24 03:05:01.48	288.40	10.17	-29.3	-32.1	12.1	4.51e-04	0	44	102	14680064	18	4992
2026-01-24 03:05:02.48	288.26	10.12	-29.0	-31.3	12.6	1.25e-04	0	44	102	14680064	18	4713
2026-01-24 03:05:03.48	288.11	10.07	-28.8	-30.8	13.0	5.03e-05	0	44	102	14680064	18	4530
2026-01-24 03:05:04.49	287.96	10.02	-28.6	-30.9	13.2	2.44e-05	0	44	102	14680064	17	4670
2026-01-24 03:05:05.49	287.82	9.97	-28.6	-30.8	13.2	2.44e-05	0	44	102	14680064	17	4653
2026-01-24 03:05:06.50	287.68	9.91	-28.5	-30.7	13.3	2.13e-05	0	44	102	14680064	17	4617
2026-01-24 03:05:07.50	287.53	9.86	-28.5	-30.6	13.3	2.13e-05	0	44	102	14680064	17	4580
2026-01-24 03:05:08.50	287.39	9.81	-28.4	-30.4	13.5	1.29e-05	0	44	102	14680064	17	4527
2026-01-24 03:05:09.49	287.25	9.76	-28.4	-30.4	13.5	9.90e-06	0	44	102	14680064	17	4521
2026-01-24 03:05:10.50	287.11	9.71	-28.4	-30.9	13.4	1.37e-05	0	44	102	14680064	16	4809
2026-01-24 03:05:11.51	286.96	9.65	-28.5	-30.6	13.3	2.36e-05	0	44	102	14680064	17	4598
2026-01-24 03:05:12.51	286.82	9.60	-28.6	-30.8	13.1	2.89e-05	0	44	102	14680064	17	4675
2026-01-24 03:05:13.52	286.68	9.55	-28.7	-31.1	13.0	4.04e-05	0	44	102	14680064	17	4756
2026-01-24 03:05:14.53	286.54	9.50	-28.7	-31.2	12.9	4.88e-05	0	44	102	14680064	17	4778
2026-01-24 03:05:15.53	286.40	9.44	-28.0	-30.6	12.0	4.88e-05	0	44	102	14680064	17	4836
2026-01-24 03:05:16.54	286.26	9.39	-28.7	-31.1	11.3	3.90e-03	0	44	102	14680064	17	4754
2026-01-24 03:05:17.54	286.12	9.34	-28.8	-31.4	12.7	6.48e-05	0	44	102	14680064	17	4851
2026-01-24 03:05:18.55	285.99	9.29	-28.7	-31.1	12.9	6.33e-05	0	44	102	14680064	17	4746
2026-01-24 03:05:19.55	285.85	9.23	-28.6	-30.9	13.0	3.05e-05	0	44	102	14680064	17	4710
2026-01-24 03:05:20.55	285.71	9.18	-28.4	-30.5	13.3	1.83e-05	0	44	102	14680064	17	4575
2026-01-24 03:05:21.56	285.57	9.13	-28.5	-30.6	13.3	3.49e-03	0	44	102	14680064	17	4587
2026-01-24 03:05:22.55	285.44	9.08	-28.4	-31.0	13.3	1.90e-05	0	44	102	14680064	16	4842
2026-01-24 03:05:23.56	285.30	9.02	-28.5	-31.1	13.2	1.52e-05	0	44	102	14680064	16	4873
2026-01-24 03:05:24.56	285.17	8.97	-28.6	-30.9	13.0	3.35e-05	0	44	102	14680064	17	4682
2026-01-24 03:05:25.56	285.04	8.92	-28.6	-30.8	13.1	3.05e-05	0	44	102	14680064	17	4661
2026-01-24 03:05:26.56	284.90	8.86	-28.5	-30.7	13.1	1.72e-04	0	44	102	14680064	17	4618
2026-01-24 03:05:27.57	284.77	8.81	-28.4	-31.0	13.2	4.08e-03	0	44	102	14680064	16	4848
2026-01-24 03:05:28.58	284.63	8.76	-28.5	-31.1	13.2	1.60e-05	0	44	102	14680064	16	4862
2026-01-24 03:05:29.58	284.50	8.71	-28.5	-31.1	13.2	2.13e-05	0	44	102	14680064	16	4867
2026-01-24 03:05:30.59	284.37	8.65	-28.5	-30.6	13.2	1.24e-03	0	44	102	14680064	17	4609
2026-01-24 03:05:31.59	284.24	8.60	-28.4	-31.1	13.2	4.09e-03	0	44	102	14680064	16	4871
2026-01-24 03:05:32.59	284.11	8.55	-28.5	-30.8	13.0	1.92e-04	0	44	102	14680064	17	4671
2026-01-24 03:05:33.58	283.98	8.49	-28.6	-30.9	13.0	4.32e-03	0	44	102	14680064	17	4689
2026-01-24 03:05:34.58	283.85	8.44	-28.7	-31.2	12.7	5.64e-05	0	44	102	14680064	17	4816
2026-01-24 03:05:35.59	283.72	8.39	-28.8	-31.5	12.6	1.71e-04	0	44	102	14680064	17	4896
2026-01-24 03:05:36.59	283.59	8.33	-28.9	-31.8	12.4	4.35e-03	0	44	102	14680064	17	5007
2026-01-24 03:05:37.59	283.46	8.28	-29.0	-31.9	12.3	4.32e-03	0	44	102	14680064	17	5028
2026-01-24 03:05:38.60	283.33	8.23	-29.0	-31.9	12.3	1.72e-04	0	44	102	14680064	17	5041
2026-01-24 03:05:39.60	283.20	8.17	-29.0	-31.6	12.2	2.20e-04	0	44	102	14680064	18	4813
2026-01-24 03:05:40.60	283.08	8.12	-29.0	-31.6	12.2	4.25e-03	0	44	102	14680064	18	4814
2026-01-24 03:05:41.61	282.95	8.07	-29.0	-31.4	12.3	1.89e-04	0	44	102	14680064	18	4770
2026-01-24 03:05:42.62	282.82	8.01	-28.9	-31.8	12.3	3.94e-03	0	44	102	14680064	17	5027
2026-01-24 03:05:43.62	282.70	7.96	-29.0	-31.6	12.2	3.86e-03	0	44	102	14680064	18	4810
2026-01-24 03:05:44.62	282.57	7.91	-29.0	-31.5	12.2	2.31e-04	0	44	102	14680064	18	4789
2026-01-24 03:05:45.63	282.45	7.85	-29.1	-31.8	12.0	3.65e-04	0	44	102	14680064	18	4924
2026-01-24 03:05:46.63	282.32	7.80	-29.1	-31.7	12.0	1.04e-03	0	44	102	14680064	18	4859
2026-01-24 03:05:47.63	282.20	7.75	-29.0	-31.5	12.2	2.43e-04	0	44	102	14680064	18	4791
2026-01-24 03:05:48.64	282.08	7.69	-28.8	-31.5	12.5	1.18e-03	0	44	102	14680064	17	4894
2026-01-24 03:05:49.64	281.95	7.64	-28.7	-31.2	12.7	8.39e-05	0	44	102	14680064	17	4797
2026-01-24 03:05:50.64	281.83	7.59	-28.7	-31.3	12.6	1.04e-04	0	44	102	14680064	17	4859
2026-01-24 03:05:51.64	281.71	7.53	-28.8	-31.6	12.4	3.44e-03	0	44	102	14680064	17	4945
2026-01-24 03:05:52.64	281.59	7.48	-28.7	-31.3	12.6	3.47e-03	0	44	102	14680064	17	4848
2026-01-24 03:05:53.65	281.47	7.43	-29.0	-31.9	12.3	1.64e-04	0	44	102	14680064	17	5031
2026-01-24 03:05:54.66	281.34	7.37	-29.0	-31.4	12.2	2.59e-04	0	44	102	14680064	18	4775
2026-01-24 03:05:55.67	281.22	7.32	-28.9	-31.8	12.3	1.70e-04	0	44	102	14680064	17	4996
2026-01-24 03:05:56.67	281.10	7.27	-29.0	-31.6	12.2	1.99e-04	0	44	102	14680064	18	4816
2026-01-24 03:05:57.68	280.98	7.21	-29.2	-31.9	11.9	1.61e-03	0	44	102	14680064	18	4946
2026-01-24 03:05:58.67	280.87	7.16	-29.1	-31.8	12.0	8.36e-04	0	44	102	14680064	18	4898
2026-01-24 03:05:59.68	280.75	7.10	-29.0	-31.4	12.2	2.75e-04	0	44	102	14680064	18	4757
2026-01-24 03:06:00.68	280.63	7.05	-32.9	-45.0	3.8	1.08e+00	0	44	104	14680064	25	14477
2026-01-24 03:06:01.69	280.51	7.00	-33.5	-45.4	3.8	1.49e+00	0	44	104	14680064	27	14142
2026-01-24 03:06:02.70	280.39	6.94	-33.9	-46.1	3.8	1.49e+00	0	44	104	14680064	27	14736

#Closed at: 2026-01-24 03:06:03
#Recorded file [14 MB]: D:/data/31010_260124_055745.dat