passes_logs/2026/01/24/R2M6_AANII_01/R2M6_AANII_01__20260124_234732_SUOMI_NPP_rec.log

#Pass ID: 20260124_234732_SUOMI NPP
#Satellite: SUOMI NPP
#Configuration: NPP
#almurnet v.1.7.20240730
#Start time: 2026-01-24 23:47:33

#Version: 2.2.20231116
#Station: R2M6_AANII_01
#Location: 30.233357 lon 59.946436 lat
#TLE: 1 37849U 11061A   26024.54906732  .00000185  00000+0  10878-3 0  9990
#TLE: 2 37849  98.7821 326.5159 0002200  47.3746 312.7615 14.19529340738061

#Time	Az	El	Level	Level2	SNR	BER	BlckErr	Temp	State	Recorded	gain1	gain2
2026-01-24 23:47:33.10	21.85	7.02	-31.2	-36.2	4.9	1.30e+00	0	41	0	0	22	6336
2026-01-24 23:47:34.09	21.89	7.09	-31.4	-36.8	4.8	1.33e+00	0	41	104	0	22	6688
2026-01-24 23:47:35.10	21.93	7.17	-31.4	-36.5	7.4	1.43e-01	0	42	0	0	22	6484
2026-01-24 23:47:36.10	21.97	7.25	-31.4	-36.9	7.1	1.31e-01	0	41	102	1048576	22	6737
2026-01-24 23:47:37.10	22.01	7.32	-31.4	-36.6	7.3	1.27e-01	0	42	102	1048576	22	6561
2026-01-24 23:47:38.10	22.05	7.40	-31.4	-36.7	7.3	1.19e-01	0	42	102	1048576	22	6598
2026-01-24 23:47:39.11	22.09	7.47	-31.5	-36.8	6.8	1.42e-01	0	41	102	1048576	23	6618
2026-01-24 23:47:40.11	22.13	7.55	-31.4	-36.3	7.2	1.57e-01	0	42	102	1048576	23	6281
2026-01-24 23:47:41.12	22.17	7.63	-31.3	-36.1	7.7	9.77e-02	0	42	102	1048576	22	6249
2026-01-24 23:47:42.12	22.21	7.70	-31.2	-35.6	8.1	8.04e-02	0	42	102	1048576	22	6015
2026-01-24 23:47:43.12	22.25	7.78	-31.0	-35.1	8.5	4.74e-02	0	42	102	1048576	22	5721
2026-01-24 23:47:44.13	22.29	7.86	-30.9	-34.9	9.0	2.80e-02	0	42	102	1048576	21	5749
2026-01-24 23:47:45.13	22.33	7.93	-30.8	-34.6	9.3	2.34e-02	0	42	102	1048576	21	5578
2026-01-24 23:47:46.13	22.37	8.01	-30.6	-33.8	9.8	1.40e-02	0	42	102	1048576	21	5234
2026-01-24 23:47:47.14	22.42	8.09	-30.6	-33.9	9.8	1.36e-02	0	42	102	1048576	21	5280
2026-01-24 23:47:48.14	22.46	8.17	-30.7	-34.1	9.7	1.07e-02	0	42	102	1048576	21	5322
2026-01-24 23:47:49.15	22.50	8.25	-30.5	-33.8	10.3	7.27e-03	0	42	102	1048576	20	5282
2026-01-24 23:47:50.15	22.54	8.32	-30.2	-33.0	10.9	5.45e-03	0	42	102	1048576	20	4953
2026-01-24 23:47:51.15	22.58	8.40	-30.1	-32.7	11.2	1.86e-03	0	42	102	1048576	20	4825
2026-01-24 23:47:52.15	22.63	8.48	-29.9	-32.1	11.6	3.33e-03	0	42	102	1048576	20	4607
2026-01-24 23:47:53.15	22.67	8.56	-30.0	-32.5	11.7	2.80e-03	0	42	102	1048576	19	4848
2026-01-24 23:47:54.15	22.71	8.64	-30.0	-32.3	11.5	6.09e-04	0	42	102	1048576	20	4670
2026-01-24 23:47:55.15	22.76	8.72	-30.0	-32.3	11.5	2.82e-03	0	42	102	1048576	20	4686
2026-01-24 23:47:56.16	22.80	8.80	-29.9	-32.0	11.7	6.71e-04	0	42	102	1048576	20	4585
2026-01-24 23:47:57.16	22.84	8.88	-30.0	-32.3	11.5	5.52e-04	0	42	102	1048576	20	4680
2026-01-24 23:47:58.17	22.89	8.96	-30.1	-32.5	11.4	2.81e-03	0	42	102	1048576	20	4766
2026-01-24 23:47:59.16	22.93	9.04	-29.9	-32.0	11.7	2.86e-03	0	42	102	1048576	20	4587
2026-01-24 23:48:00.17	22.97	9.12	-29.8	-31.6	12.0	3.66e-04	0	42	102	1048576	20	4421
2026-01-24 23:48:01.17	23.02	9.20	-29.1	-31.4	12.1	1.96e-03	0	42	102	1048576	19	4662
2026-01-24 23:48:02.17	23.06	9.28	-29.9	-32.2	12.0	1.86e-03	0	42	102	1048576	19	4730
2026-01-24 23:48:03.18	23.11	9.36	-29.9	-32.5	11.6	7.10e-04	0	42	102	1048576	19	4820
2026-01-24 23:48:04.18	23.15	9.45	-30.0	-32.4	11.3	2.33e-03	0	42	102	1048576	20	4707
2026-01-24 23:48:05.19	23.20	9.53	-30.2	-32.7	11.2	2.59e-03	0	42	102	1048576	20	4837
2026-01-24 23:48:06.19	23.25	9.61	-30.0	-32.2	11.5	7.32e-04	0	42	102	1048576	20	4641
2026-01-24 23:48:07.20	23.29	9.69	-29.9	-32.5	11.8	4.84e-04	0	42	102	1048576	19	4812
2026-01-24 23:48:08.20	23.34	9.78	-29.7	-31.3	12.3	1.35e-03	0	42	102	1048576	20	4328
2026-01-24 23:48:09.20	23.38	9.86	-29.8	-32.2	12.1	2.47e-04	0	42	102	1048576	19	4701
2026-01-24 23:48:10.20	23.43	9.94	-29.8	-32.0	12.2	6.00e-04	0	42	102	1048576	19	4652
2026-01-24 23:48:11.20	23.48	10.03	-29.7	-31.8	12.4	6.74e-04	0	42	102	1048576	19	4564
2026-01-24 23:48:12.20	23.52	10.11	-29.8	-31.9	12.3	2.22e-04	0	42	102	1048576	19	4610
2026-01-24 23:48:13.21	23.57	10.20	-29.8	-32.1	12.2	5.15e-04	0	42	102	1048576	19	4680
2026-01-24 23:48:14.21	23.62	10.28	-29.7	-31.8	12.4	1.62e-04	0	43	102	1048576	19	4564
2026-01-24 23:48:15.22	23.67	10.36	-29.8	-32.1	12.2	1.87e-04	0	43	102	1048576	19	4661
2026-01-24 23:48:16.22	23.72	10.45	-29.8	-32.0	12.3	3.61e-04	0	42	102	1048576	19	4622
2026-01-24 23:48:17.22	23.76	10.53	-29.8	-31.9	12.3	2.08e-04	0	43	102	1048576	19	4608
2026-01-24 23:48:18.23	23.81	10.62	-29.8	-32.0	12.3	1.83e-04	0	42	102	1048576	19	4640
2026-01-24 23:48:19.24	23.86	10.71	-29.7	-31.7	12.5	3.58e-04	0	42	102	1048576	19	4514
2026-01-24 23:48:20.24	23.91	10.79	-29.7	-31.7	12.5	1.26e-04	0	43	102	1048576	19	4534
2026-01-24 23:48:21.24	23.96	10.88	-29.7	-31.7	12.5	5.31e-04	0	43	102	1048576	19	4532
2026-01-24 23:48:22.25	24.01	10.97	-29.8	-31.9	12.4	6.38e-04	0	43	102	1048576	19	4590
2026-01-24 23:48:23.25	24.06	11.05	-29.8	-31.8	12.5	6.48e-04	0	43	102	1048576	19	4561
2026-01-24 23:48:24.26	24.11	11.14	-29.8	-32.0	12.3	5.15e-04	0	43	102	1048576	19	4626
2026-01-24 23:48:25.26	24.16	11.23	-29.9	-32.1	12.3	2.01e-04	0	43	102	1048576	19	4668
2026-01-24 23:48:26.27	24.21	11.32	-29.8	-32.0	12.4	7.27e-04	0	42	102	1048576	19	4609
2026-01-24 23:48:27.27	24.26	11.41	-29.8	-31.8	12.5	5.61e-04	0	43	102	1048576	19	4565
2026-01-24 23:48:28.27	24.31	11.49	-29.8	-31.8	12.5	4.71e-04	0	43	102	1048576	19	4544
2026-01-24 23:48:29.28	24.37	11.58	-29.8	-32.1	12.3	1.33e-03	0	43	102	1048576	19	4639
2026-01-24 23:48:30.28	24.42	11.67	-29.8	-31.9	12.4	5.58e-04	0	43	102	1048576	19	4584
2026-01-24 23:48:31.29	24.47	11.76	-29.9	-32.1	12.3	5.49e-04	0	43	102	1048576	19	4672
2026-01-24 23:48:32.29	24.52	11.85	-30.0	-32.2	11.8	2.91e-04	0	43	102	1048576	20	4606
2026-01-24 23:48:33.30	24.58	11.94	-30.1	-32.3	11.8	1.02e-03	0	43	102	1048576	20	4641
2026-01-24 23:48:34.31	24.63	12.03	-29.9	-31.6	12.3	6.11e-04	0	43	102	1048576	20	4411
2026-01-24 23:48:35.32	24.68	12.13	-29.8	-31.9	12.5	1.74e-04	0	43	102	1048576	19	4600
2026-01-24 23:48:36.33	24.74	12.22	-30.0	-32.4	12.2	1.78e-04	0	43	102	1048576	19	4759
2026-01-24 23:48:37.32	24.79	12.31	-30.0	-32.0	12.0	6.72e-04	0	43	102	1048576	20	4526
2026-01-24 23:48:38.33	24.84	12.40	-30.1	-32.3	11.8	4.52e-04	0	43	102	1048576	20	4649
2026-01-24 23:48:39.33	24.90	12.49	-30.1	-32.3	11.8	9.35e-04	0	43	102	1048576	20	4648
2026-01-24 23:48:40.34	24.95	12.59	-30.1	-32.2	11.9	8.72e-04	0	43	102	1048576	20	4592
2026-01-24 23:48:41.34	25.01	12.68	-30.0	-32.0	12.0	3.39e-04	0	43	102	1048576	20	4520
2026-01-24 23:48:42.34	25.06	12.77	-29.9	-32.2	12.3	6.06e-04	0	43	102	1048576	19	4689
2026-01-24 23:48:43.35	25.12	12.86	-29.9	-32.2	12.3	6.37e-04	0	43	102	1048576	19	4679
2026-01-24 23:48:44.35	25.18	12.96	-29.8	-32.0	12.4	1.40e-04	0	43	102	1048576	19	4596
2026-01-24 23:48:45.35	25.23	13.05	-29.7	-31.7	12.7	6.19e-04	0	43	102	1048576	19	4489
2026-01-24 23:48:46.35	25.29	13.15	-29.7	-31.5	12.8	5.40e-04	0	43	102	1048576	19	4438
2026-01-24 23:48:47.35	25.35	13.24	-29.6	-31.4	12.9	4.19e-05	0	43	102	1048576	19	4395
2026-01-24 23:48:48.34	25.40	13.33	-29.5	-31.1	13.1	4.69e-04	0	43	102	1048576	19	4302
2026-01-24 23:48:49.35	25.46	13.43	-29.5	-31.1	13.1	5.40e-04	0	43	102	1048576	19	4295
2026-01-24 23:48:50.34	25.52	13.52	-29.5	-31.0	13.2	2.36e-05	0	43	102	1048576	19	4260
2026-01-24 23:48:51.35	25.58	13.62	-29.5	-31.5	13.2	5.91e-04	0	43	102	1048576	18	4520
2026-01-24 23:48:52.35	25.64	13.72	-29.6	-31.1	13.0	5.11e-04	0	43	102	1048576	19	4322
2026-01-24 23:48:53.36	25.70	13.82	-29.4	-30.8	13.4	1.22e-05	0	43	102	1048576	19	4202
2026-01-24 23:48:54.36	25.76	13.91	-29.5	-31.3	13.1	6.01e-04	0	43	102	1048576	18	4478
2026-01-24 23:48:55.36	25.82	14.01	-29.4	-31.1	13.3	7.97e-04	0	43	102	1048576	18	4415
2026-01-24 23:48:56.37	25.88	14.11	-29.3	-31.0	13.6	7.60e-06	0	43	102	1048576	18	4359
2026-01-24 23:48:57.37	25.94	14.21	-29.3	-31.0	13.6	3.55e-04	0	43	102	1048576	18	4371
2026-01-24 23:48:58.37	26.00	14.31	-29.3	-30.9	13.7	9.75e-04	0	43	102	1048576	18	4323
2026-01-24 23:48:59.38	26.06	14.40	-29.3	-30.9	13.6	3.00e-06	0	43	102	1048576	18	4322
2026-01-24 23:49:00.38	26.12	14.50	-29.2	-30.7	13.7	1.00e-03	0	43	102	1048576	18	4286
2026-01-24 23:49:01.38	26.18	14.60	-29.2	-30.7	13.8	6.10e-06	0	43	102	1048576	18	4261
2026-01-24 23:49:02.38	26.25	14.70	-29.2	-30.6	13.8	3.80e-06	0	43	102	1048576	18	4233
2026-01-24 23:49:03.38	26.31	14.80	-29.2	-30.5	13.9	1.06e-03	0	43	102	1048576	18	4222
2026-01-24 23:49:04.38	26.37	14.90	-29.1	-30.3	14.0	9.73e-04	0	43	102	1048576	18	4138
2026-01-24 23:49:05.38	26.44	15.01	-29.1	-30.4	14.0	3.00e-06	0	43	102	1048576	18	4174
2026-01-24 23:49:06.38	26.50	15.11	-29.0	-30.5	14.2	9.06e-04	0	43	102	1048576	17	4304
2026-01-24 23:49:07.38	26.56	15.21	-29.1	-30.3	14.1	9.87e-04	0	43	102	1048576	18	4138
2026-01-24 23:49:08.40	26.63	15.31	-29.2	-30.5	13.9	0.00e+00	0	43	102	1048576	18	4214
2026-01-24 23:49:09.40	26.70	15.42	-29.3	-30.9	13.7	9.95e-04	0	43	102	1048576	18	4321
2026-01-24 23:49:10.41	26.76	15.52	-29.1	-30.3	14.0	8.30e-04	0	43	102	1048576	18	4158
2026-01-24 23:49:11.41	26.83	15.62	-28.8	-29.6	14.5	7.00e-07	0	43	102	1048576	18	3951
2026-01-24 23:49:12.41	26.89	15.73	-28.8	-30.0	14.5	7.00e-07	0	43	102	1048576	17	4164
2026-01-24 23:49:13.42	26.96	15.83	-28.8	-30.2	14.4	7.20e-04	0	43	102	1048576	17	4213
2026-01-24 23:49:14.42	27.03	15.94	-28.8	-30.2	14.5	7.00e-07	0	43	102	1048576	17	4199
2026-01-24 23:49:15.42	27.10	16.04	-28.8	-30.1	14.5	9.26e-04	0	43	102	1048576	17	4180
2026-01-24 23:49:16.42	27.17	16.15	-28.8	-30.1	14.5	5.13e-04	0	43	102	1048576	17	4178
2026-01-24 23:49:17.42	27.23	16.25	-28.8	-29.7	14.5	7.00e-07	0	43	102	1048576	18	3964
2026-01-24 23:49:18.43	27.30	16.36	-28.8	-30.1	14.5	5.91e-04	0	43	102	1048576	17	4179
2026-01-24 23:49:19.43	27.37	16.47	-28.8	-30.1	14.5	0.00e+00	0	43	102	1048576	17	4166
2026-01-24 23:49:20.44	27.45	16.58	-28.9	-30.5	14.3	7.00e-07	0	43	102	1048576	17	4283
2026-01-24 23:49:21.44	27.52	16.69	-28.9	-30.4	14.3	1.54e-04	0	43	102	1048576	17	4265
2026-01-24 23:49:22.44	27.59	16.79	-29.0	-30.1	14.2	6.33e-05	0	43	102	1048576	18	4082
2026-01-24 23:49:23.45	27.66	16.90	-28.9	-29.8	14.5	0.00e+00	0	44	102	1048576	18	3983
2026-01-24 23:49:24.45	27.73	17.01	-28.9	-29.8	14.5	8.30e-06	0	44	102	1048576	18	4002
2026-01-24 23:49:25.45	27.80	17.12	-28.8	-30.2	14.5	3.00e-06	0	43	102	1048576	17	4203
2026-01-24 23:49:26.45	27.88	17.23	-28.9	-30.4	14.4	0.00e+00	0	43	102	1048576	17	4254
2026-01-24 23:49:27.46	27.95	17.34	-28.9	-29.9	14.4	3.59e-04	0	43	102	1048576	18	4035
2026-01-24 23:49:28.46	28.03	17.45	-29.1	-30.4	14.1	1.22e-05	0	43	102	1048576	18	4170
2026-01-24 23:49:29.46	28.10	17.57	-29.1	-30.2	14.2	1.50e-06	0	43	102	1048576	18	4123
2026-01-24 23:49:30.47	28.18	17.68	-28.9	-29.7	14.5	7.00e-07	0	43	102	1048576	18	3970
2026-01-24 23:49:31.47	28.25	17.79	-28.8	-30.1	14.6	1.52e-05	0	43	102	1048576	17	4169
2026-01-24 23:49:32.48	28.33	17.91	-28.8	-30.2	14.5	7.00e-07	0	43	102	1048576	17	4198
2026-01-24 23:49:33.48	28.41	18.02	-28.7	-29.7	14.8	1.98e-05	0	43	102	1048576	17	4063
2026-01-24 23:49:34.49	28.48	18.13	-28.8	-30.0	14.6	0.00e+00	0	43	102	1048576	17	4133
2026-01-24 23:49:35.49	28.56	18.25	-28.7	-29.8	14.7	7.00e-07	0	43	102	1048576	17	4095
2026-01-24 23:49:36.49	28.64	18.36	-28.5	-29.3	15.1	3.73e-05	0	43	102	1048576	17	3948
2026-01-24 23:49:37.49	28.72	18.48	-28.5	-29.4	15.0	7.93e-05	0	43	102	1048576	17	3965
2026-01-24 23:49:38.49	28.80	18.59	-28.5	-29.3	15.1	0.00e+00	0	43	102	1048576	17	3948
2026-01-24 23:49:39.49	28.88	18.71	-28.5	-29.4	15.0	3.39e-04	0	43	102	1048576	17	3964
2026-01-24 23:49:40.50	28.96	18.83	-28.5	-29.3	15.0	4.52e-04	0	43	102	1048576	17	3944
2026-01-24 23:49:41.50	29.04	18.95	-28.5	-29.4	15.0	7.00e-07	0	43	102	1048576	17	3980
2026-01-24 23:49:42.50	29.12	19.06	-28.6	-29.5	14.9	5.17e-04	0	44	102	1048576	17	4013
2026-01-24 23:49:43.50	29.21	19.18	-28.5	-29.4	15.0	5.83e-04	0	43	102	1048576	17	3976
2026-01-24 23:49:44.51	29.29	19.30	-28.5	-29.6	14.6	7.18e-04	0	43	102	1048576	17	4078
2026-01-24 23:49:45.51	29.37	19.42	-28.7	-29.8	14.0	4.38e-04	0	43	102	1048576	17	4083
2026-01-24 23:49:46.52	29.46	19.54	-28.6	-29.6	14.9	4.14e-04	0	43	102	1048576	17	4025
2026-01-24 23:49:47.53	29.54	19.66	-28.6	-29.6	14.6	0.00e+00	0	43	102	1048576	17	4034
2026-01-24 23:49:48.53	29.63	19.78	-28.7	-29.7	14.8	0.00e+00	0	43	102	1048576	17	4046
2026-01-24 23:49:49.54	29.72	19.91	-28.6	-29.5	15.0	1.35e-04	0	43	102	1048576	17	4007
2026-01-24 23:49:50.54	29.80	20.03	-28.7	-29.8	14.8	0.00e+00	0	43	102	1048576	17	4086
2026-01-24 23:49:51.54	29.89	20.15	-28.7	-29.8	14.8	3.79e-04	0	43	102	1048576	17	4067
2026-01-24 23:49:52.54	29.98	20.27	-28.6	-29.6	14.9	1.29e-05	0	43	102	1048576	17	4030
2026-01-24 23:49:53.54	30.07	20.40	-28.6	-29.4	15.1	0.00e+00	0	44	102	1048576	17	3963
2026-01-24 23:49:54.55	30.16	20.52	-28.6	-29.6	15.0	2.43e-04	0	43	102	1048576	17	4024
2026-01-24 23:49:55.56	30.25	20.65	-28.7	-29.8	14.9	0.00e+00	0	44	102	1048576	17	4066
2026-01-24 23:49:56.55	30.34	20.77	-28.6	-29.4	15.1	0.00e+00	0	44	102	1048576	17	3976
2026-01-24 23:49:57.56	30.43	20.90	-28.6	-29.5	15.1	1.50e-06	0	44	102	1048576	17	3982
2026-01-24 23:49:58.56	30.52	21.03	-28.6	-29.6	15.0	0.00e+00	0	44	102	1048576	17	4029
2026-01-24 23:49:59.57	30.62	21.16	-28.6	-29.4	15.0	0.00e+00	0	43	102	1048576	17	3981
2026-01-24 23:50:00.57	30.71	21.28	-28.5	-29.3	15.2	4.27e-05	0	43	102	1048576	17	3927
2026-01-24 23:50:01.58	30.81	21.41	-28.4	-29.1	15.3	0.00e+00	0	43	102	1048576	17	3871
2026-01-24 23:50:02.58	30.90	21.54	-28.4	-29.1	15.3	3.17e-04	0	43	102	1048576	17	3883
2026-01-24 23:50:03.59	31.00	21.67	-28.4	-29.0	15.4	3.56e-04	0	44	102	1048576	17	3861
2026-01-24 23:50:04.59	31.10	21.80	-28.3	-29.4	15.5	3.52e-04	0	43	102	1048576	16	4055
2026-01-24 23:50:05.59	31.20	21.93	-28.2	-29.1	15.7	3.00e-04	0	44	102	1048576	16	3966
2026-01-24 23:50:06.60	31.30	22.06	-28.4	-29.4	15.4	0.00e+00	0	44	102	1048576	16	4067
2026-01-24 23:50:07.60	31.39	22.20	-28.2	-29.0	15.7	3.99e-04	0	44	102	1048576	16	3944
2026-01-24 23:50:08.61	31.50	22.33	-28.2	-29.1	15.7	2.82e-04	0	43	102	1048576	16	3969
2026-01-24 23:50:09.61	31.60	22.46	-28.3	-29.2	15.6	3.36e-04	0	44	102	1048576	16	3991
2026-01-24 23:50:10.62	31.70	22.60	-28.2	-29.1	15.6	5.88e-04	0	44	102	1048576	16	3969
2026-01-24 23:50:11.62	31.80	22.73	-28.4	-29.1	15.4	2.81e-04	0	44	102	1048576	17	3868
2026-01-24 23:50:12.63	31.91	22.87	-28.6	-29.4	15.2	2.21e-04	0	43	102	1048576	17	3964
2026-01-24 23:50:13.62	32.01	23.00	-28.2	-28.6	15.6	0.00e+00	0	43	102	1048576	17	3754
2026-01-24 23:50:14.63	32.12	23.14	-28.2	-28.9	15.7	0.00e+00	0	44	102	1048576	16	3911
2026-01-24 23:50:15.63	32.22	23.28	-28.0	-28.6	16.0	1.87e-04	0	44	102	1048576	16	3841
2026-01-24 23:50:16.64	32.33	23.41	-28.3	-29.1	15.6	0.00e+00	0	43	102	1048576	16	3984
2026-01-24 23:50:17.64	32.44	23.55	-28.2	-29.1	15.7	0.00e+00	0	44	102	1048576	16	3960
2026-01-24 23:50:18.64	32.55	23.69	-28.4	-29.6	15.4	1.52e-04	0	44	102	1048576	16	4106
2026-01-24 23:50:19.65	32.66	23.83	-28.5	-29.2	15.4	0.00e+00	0	44	102	1048576	17	3895
2026-01-24 23:50:20.65	32.77	23.97	-28.8	-29.9	15.0	1.56e-04	0	43	102	1048576	17	4090
2026-01-24 23:50:21.65	32.88	24.11	-28.8	-30.0	14.8	1.94e-04	0	44	102	1048576	17	4137
2026-01-24 23:50:22.65	32.99	24.25	-29.0	-30.4	14.7	7.00e-07	0	44	102	1048576	17	4235
2026-01-24 23:50:23.65	33.11	24.39	-29.1	-30.2	14.5	2.23e-04	0	43	102	1048576	18	4089
2026-01-24 23:50:24.65	33.22	24.54	-29.0	-29.8	14.7	2.10e-04	0	43	102	1048576	18	3977
2026-01-24 23:50:25.66	33.34	24.68	-28.9	-29.8	14.7	0.00e+00	0	44	102	1048576	18	3962
2026-01-24 23:50:26.66	33.45	24.83	-29.0	-30.0	14.6	2.02e-04	0	44	102	1048576	18	4017
2026-01-24 23:50:27.66	33.57	24.97	-29.3	-30.6	14.3	2.32e-04	0	43	102	1048576	18	4203
2026-01-24 23:50:28.67	33.69	25.12	-29.2	-30.3	14.4	1.50e-06	0	43	102	1048576	18	4125
2026-01-24 23:50:29.67	33.81	25.26	-28.9	-29.7	14.8	1.88e-04	0	44	102	1048576	18	3934
2026-01-24 23:50:30.67	33.93	25.41	-29.2	-30.5	14.3	1.58e-04	0	44	102	1048576	18	4182
2026-01-24 23:50:31.68	34.06	25.56	-29.2	-30.5	14.3	0.00e+00	0	44	102	1048576	18	4161
2026-01-24 23:50:32.69	34.18	25.71	-29.2	-30.3	14.5	1.40e-04	0	44	102	1048576	18	4120
2026-01-24 23:50:33.69	34.30	25.86	-29.2	-30.4	14.4	1.57e-04	0	44	102	1048576	18	4142
2026-01-24 23:50:34.70	34.43	26.01	-29.2	-30.5	14.3	0.00e+00	0	44	102	1048576	18	4158
2026-01-24 23:50:35.70	34.56	26.16	-29.0	-30.0	13.9	5.87e-05	0	44	102	1048576	18	4045
2026-01-24 23:50:36.70	34.68	26.31	-29.1	-30.1	13.7	1.46e-04	0	44	102	1048576	18	4040
2026-01-24 23:50:37.70	34.81	26.46	-29.2	-30.3	14.4	0.00e+00	0	44	102	1048576	18	4113
2026-01-24 23:50:38.71	34.94	26.61	-28.9	-30.3	14.7	5.39e-04	0	44	102	1048576	17	4192
2026-01-24 23:50:39.71	35.08	26.77	-29.0	-29.8	14.7	8.16e-05	0	44	102	1048576	18	3971
2026-01-24 23:50:40.72	35.21	26.92	-29.1	-30.2	14.5	0.00e+00	0	43	102	1048576	18	4093
2026-01-24 23:50:41.72	35.34	27.08	-29.2	-30.4	14.4	1.11e-04	0	44	102	1048576	18	4141
2026-01-24 23:50:42.72	35.48	27.23	-29.1	-30.2	14.5	7.00e-07	0	44	102	1048576	18	4086
2026-01-24 23:50:43.72	35.61	27.39	-29.1	-30.3	14.5	7.00e-07	0	43	102	1048576	18	4106
2026-01-24 23:50:44.72	35.75	27.54	-29.2	-30.4	14.5	1.91e-04	0	44	102	1048576	18	4129
2026-01-24 23:50:45.72	35.89	27.70	-29.2	-30.3	14.5	7.00e-07	0	44	102	1048576	18	4104
2026-01-24 23:50:46.73	36.03	27.86	-29.3	-30.7	14.2	0.00e+00	0	44	102	1048576	18	4226
2026-01-24 23:50:47.74	36.18	28.02	-29.3	-30.8	14.2	2.24e-04	0	44	102	1048576	18	4243
2026-01-24 23:50:48.75	36.32	28.18	-29.4	-30.9	14.2	1.83e-04	0	44	102	1048576	18	4272
2026-01-24 23:50:49.75	36.46	28.34	-29.6	-30.9	13.9	5.30e-06	0	44	102	1048576	19	4185
2026-01-24 23:50:50.76	36.61	28.50	-29.7	-31.1	13.6	1.50e-04	0	44	102	1048576	19	4253
2026-01-24 23:50:51.76	36.76	28.67	-29.8	-31.6	13.4	1.33e-04	0	44	102	1048576	19	4395
2026-01-24 23:50:52.76	36.91	28.83	-29.8	-31.2	13.3	3.50e-05	0	44	102	1048576	20	4189
2026-01-24 23:50:53.76	37.06	28.99	-30.1	-31.7	12.9	1.75e-05	0	44	102	1048576	20	4372
2026-01-24 23:50:54.76	37.21	29.15	-30.1	-31.9	12.8	8.08e-05	0	44	102	1048576	20	4408
2026-01-24 23:50:55.77	37.36	29.32	-30.2	-32.1	12.7	8.62e-05	0	44	102	1048576	20	4477
2026-01-24 23:50:56.77	37.52	29.49	-30.4	-32.3	12.2	3.26e-04	0	44	102	1048576	21	4460
2026-01-24 23:50:57.77	37.67	29.65	-30.5	-32.3	12.2	2.44e-04	0	44	102	1048576	21	4479
2026-01-24 23:50:58.78	37.83	29.82	-30.4	-32.3	12.2	2.39e-04	0	44	102	1048576	21	4458
2026-01-24 23:50:59.78	37.99	29.99	-30.4	-32.3	12.1	2.64e-04	0	44	102	1048576	21	4462
2026-01-24 23:51:00.78	38.15	30.16	-30.6	-32.7	11.8	3.39e-04	0	44	102	1048576	21	4611
2026-01-24 23:51:01.77	38.32	30.33	-30.6	-32.9	11.8	4.97e-04	0	44	102	1048576	21	4674
2026-01-24 23:51:02.78	38.48	30.50	-30.7	-33.0	11.8	5.71e-04	0	44	102	1048576	21	4707
2026-01-24 23:51:03.79	38.65	30.67	-31.1	-33.7	10.9	1.33e-03	0	44	102	1048576	22	4888
2026-01-24 23:51:04.79	38.82	30.84	-30.9	-33.0	11.4	7.87e-04	0	44	102	1048576	22	4628
2026-01-24 23:51:05.80	38.99	31.02	-30.8	-32.7	11.6	9.23e-04	0	44	102	1048576	22	4519
2026-01-24 23:51:06.80	39.16	31.19	-30.6	-32.8	11.9	1.07e-03	0	44	102	1048576	21	4636
2026-01-24 23:51:07.81	39.33	31.36	-30.7	-33.2	11.6	6.55e-04	0	43	102	1048576	21	4785
2026-01-24 23:51:08.81	39.51	31.54	-30.7	-33.0	11.6	9.70e-04	0	44	102	1048576	21	4703
2026-01-24 23:51:09.82	39.69	31.72	-30.7	-33.0	11.7	3.57e-04	0	44	102	1048576	21	4686
2026-01-24 23:51:10.82	39.87	31.89	-30.7	-33.0	11.7	5.52e-04	0	44	102	1048576	21	4718
2026-01-24 23:51:11.82	40.05	32.07	-30.5	-32.5	12.1	3.42e-04	0	43	102	1048576	21	4540
2026-01-24 23:51:12.82	40.23	32.25	-30.6	-32.8	11.9	6.07e-04	0	43	102	1048576	21	4624
2026-01-24 23:51:13.83	40.42	32.43	-30.7	-33.0	11.9	5.15e-04	0	44	102	1048576	21	4702
2026-01-24 23:51:14.83	40.60	32.61	-30.9	-33.6	11.4	3.85e-04	0	44	102	1048576	21	4937
2026-01-24 23:51:15.83	40.79	32.79	-30.8	-33.4	11.5	8.94e-04	0	43	102	1048576	21	4837
2026-01-24 23:51:16.84	40.98	32.97	-30.6	-32.8	12.0	4.70e-04	0	44	102	1048576	21	4622
2026-01-24 23:51:17.85	41.18	33.15	-30.6	-32.7	12.0	7.24e-04	0	44	102	1048576	21	4605
2026-01-24 23:51:18.85	41.37	33.33	-30.6	-32.6	12.0	3.75e-04	0	44	102	1048576	21	4563
2026-01-24 23:51:19.85	41.57	33.52	-30.2	-31.5	12.9	1.08e-04	0	44	102	1048576	21	4198
2026-01-24 23:51:20.86	41.77	33.70	-29.8	-30.9	13.6	1.06e-05	0	44	102	1048576	20	4094
2026-01-24 23:51:21.86	41.97	33.89	-29.8	-30.9	13.6	4.50e-06	0	43	102	1048576	20	4081
2026-01-24 23:51:22.87	42.18	34.07	-29.5	-30.2	13.9	3.00e-06	0	44	102	1048576	20	3902
2026-01-24 23:51:23.88	42.39	34.26	-29.7	-30.6	13.7	9.90e-06	0	44	102	1048576	20	4019
2026-01-24 23:51:24.89	42.60	34.45	-29.9	-31.3	13.4	1.52e-05	0	44	102	1048576	20	4217
2026-01-24 23:51:25.89	42.81	34.64	-30.0	-31.5	13.2	1.67e-05	0	44	102	1048576	20	4263
2026-01-24 23:51:26.89	43.02	34.82	-30.3	-32.4	12.6	1.07e-04	0	44	102	1048576	20	4562
2026-01-24 23:51:27.89	43.24	35.01	-30.4	-32.6	12.5	1.47e-04	0	44	102	1048576	20	4633
2026-01-24 23:51:28.89	43.46	35.20	-30.4	-32.0	12.5	3.27e-04	0	44	102	1048576	21	4341
2026-01-24 23:51:29.89	43.68	35.39	-30.4	-32.1	12.5	1.14e-04	0	44	102	1048576	21	4369
2026-01-24 23:51:30.90	43.90	35.59	-30.6	-32.6	12.2	3.11e-04	0	44	102	1048576	21	4544
2026-01-24 23:51:31.90	44.13	35.78	-30.3	-31.7	12.7	1.40e-04	0	44	102	1048576	21	4257
2026-01-24 23:51:32.89	44.35	35.97	-30.0	-31.0	13.1	2.72e-04	0	44	102	1048576	21	4024
2026-01-24 23:51:33.90	44.59	36.16	-29.5	-30.2	14.0	2.82e-04	0	44	102	1048576	20	3888
2026-01-24 23:51:34.89	44.82	36.35	-29.5	-30.1	14.1	4.50e-06	0	44	102	1048576	20	3862
2026-01-24 23:51:35.90	45.06	36.55	-29.4	-30.3	14.3	1.74e-04	0	44	102	1048576	19	4007
2026-01-24 23:51:36.90	45.29	36.74	-29.5	-30.6	14.4	7.00e-07	0	44	102	1048576	19	4074
2026-01-24 23:51:37.91	45.54	36.94	-29.5	-30.6	14.2	7.00e-07	0	43	102	1048576	19	4091
2026-01-24 23:51:38.92	45.79	37.14	-29.5	-30.5	14.3	7.00e-07	0	44	102	1048576	19	4065
2026-01-24 23:51:39.92	46.03	37.34	-29.3	-30.1	14.5	0.00e+00	0	44	102	1048576	19	3955
2026-01-24 23:51:40.92	46.29	37.53	-29.3	-30.1	14.5	0.00e+00	0	44	102	1048576	19	3958
2026-01-24 23:51:41.93	46.54	37.73	-29.3	-30.0	14.6	7.00e-07	0	44	102	1048576	19	3917
2026-01-24 23:51:42.93	46.80	37.93	-29.0	-29.4	15.0	0.00e+00	0	43	102	1048576	19	3763
2026-01-24 23:51:43.93	47.06	38.13	-28.9	-29.5	15.2	0.00e+00	0	44	102	1048576	18	3875
2026-01-24 23:51:44.93	47.32	38.33	-29.2	-30.3	14.7	4.19e-05	0	43	102	1048576	18	4097
2026-01-24 23:51:45.93	47.59	38.53	-29.1	-30.0	14.9	5.34e-05	0	44	102	1048576	18	4010
2026-01-24 23:51:46.95	47.86	38.73	-28.8	-29.3	15.3	0.00e+00	0	44	102	1048576	18	3808
2026-01-24 23:51:47.95	48.14	38.94	-28.9	-29.5	15.2	0.00e+00	0	44	102	1048576	18	3877
2026-01-24 23:51:48.96	48.41	39.14	-28.5	-29.0	15.8	2.92e-04	0	44	102	1048576	17	3842
2026-01-24 23:51:49.96	48.69	39.34	-28.2	-28.4	16.1	0.00e+00	0	44	102	1048576	17	3692
2026-01-24 23:51:50.96	48.98	39.54	-28.2	-28.4	16.2	0.00e+00	0	44	102	1048576	17	3687
2026-01-24 23:51:51.96	49.26	39.75	-28.6	-29.3	15.6	3.81e-05	0	44	102	1048576	17	3900
2026-01-24 23:51:52.97	49.56	39.95	-28.5	-29.0	15.8	0.00e+00	0	44	102	1048576	17	3830
2026-01-24 23:51:53.98	49.85	40.16	-28.6	-29.4	15.6	0.00e+00	0	44	102	1048576	17	3945
2026-01-24 23:51:54.98	50.15	40.36	-29.2	-30.4	14.7	0.00e+00	0	44	102	1048576	18	4109
2026-01-24 23:51:55.99	50.46	40.57	-29.1	-29.9	15.0	0.00e+00	0	44	102	1048576	18	3987
2026-01-24 23:51:56.99	50.76	40.77	-29.1	-30.1	14.9	0.00e+00	0	44	102	1048576	18	4038
2026-01-24 23:51:57.99	51.07	40.97	-29.1	-30.0	15.0	0.00e+00	0	44	102	1048576	18	3993
2026-01-24 23:51:59.00	51.39	41.18	-29.4	-30.8	14.5	0.00e+00	0	44	102	1048576	18	4219
2026-01-24 23:52:00.00	51.70	41.39	-29.5	-30.6	14.3	1.50e-06	0	44	102	1048576	19	4076
2026-01-24 23:52:01.00	52.02	41.59	-29.8	-31.2	13.9	4.50e-06	0	44	102	1048576	19	4265
2026-01-24 23:52:02.00	52.35	41.80	-29.5	-30.5	14.4	7.00e-07	0	43	102	1048576	19	4054
2026-01-24 23:52:03.01	52.68	42.01	-29.4	-30.4	14.4	0.00e+00	0	44	102	1048576	19	4009
2026-01-24 23:52:04.01	53.01	42.21	-29.0	-29.3	15.1	0.00e+00	0	44	102	1048576	19	3721
2026-01-24 23:52:05.01	53.35	42.42	-28.9	-29.1	15.2	0.00e+00	0	44	102	1048576	19	3664
2026-01-24 23:52:06.02	53.70	42.63	-29.0	-29.3	15.2	0.00e+00	0	44	102	1048576	19	3710
2026-01-24 23:52:07.02	54.04	42.83	-28.8	-28.8	15.4	0.00e+00	0	44	102	1048576	19	3588
2026-01-24 23:52:08.01	54.39	43.04	-29.3	-30.0	14.7	0.00e+00	0	44	102	1048576	19	3903
2026-01-24 23:52:09.02	54.75	43.24	-29.5	-30.5	14.4	0.00e+00	0	44	102	1048576	19	4033
2026-01-24 23:52:10.03	55.11	43.45	-30.1	-31.8	13.2	9.90e-06	0	44	102	1048576	20	4355
2026-01-24 23:52:11.03	55.47	43.66	-30.3	-32.2	12.9	2.67e-05	0	44	102	1048576	20	4498
2026-01-24 23:52:12.04	55.85	43.86	-30.5	-32.3	12.5	9.30e-05	0	44	102	1048576	21	4440
2026-01-24 23:52:13.05	56.22	44.07	-30.5	-32.2	12.6	1.01e-04	0	44	102	1048576	21	4387
2026-01-24 23:52:14.05	56.60	44.28	-30.3	-31.6	12.9	6.86e-05	0	44	102	1048576	21	4209
2026-01-24 23:52:15.06	56.99	44.48	-30.2	-31.5	13.1	1.98e-05	0	44	102	1048576	21	4174
2026-01-24 23:52:16.07	57.38	44.69	-30.6	-32.4	12.5	6.10e-05	0	44	102	1048576	21	4470
2026-01-24 23:52:17.07	57.77	44.89	-30.3	-31.7	12.9	4.80e-05	0	44	102	1048576	21	4233
2026-01-24 23:52:18.07	58.17	45.10	-30.3	-31.6	13.0	3.43e-05	0	44	102	1048576	21	4205
2026-01-24 23:52:19.07	58.58	45.30	-30.8	-33.0	12.1	1.65e-04	0	44	102	1048576	21	4669
2026-01-24 23:52:20.07	58.98	45.50	-31.3	-34.0	11.1	1.28e-03	0	44	102	1048576	22	4949
2026-01-24 23:52:21.07	59.40	45.71	-31.6	-34.5	10.2	2.81e-03	0	44	102	1048576	23	5071
2026-01-24 23:52:22.07	59.82	45.91	-31.4	-34.1	10.6	4.74e-03	0	44	102	1048576	23	4874
2026-01-24 23:52:23.07	60.24	46.11	-31.3	-33.5	11.0	3.34e-03	0	44	102	1048576	23	4675
2026-01-24 23:52:24.06	60.67	46.31	-31.1	-33.6	11.4	1.05e-03	0	44	102	1048576	22	4770
2026-01-24 23:52:25.07	61.10	46.51	-31.1	-33.4	11.5	1.47e-03	0	44	102	1048576	22	4726
2026-01-24 23:52:26.07	61.55	46.71	-31.2	-33.7	11.3	1.03e-03	0	44	102	1048576	22	4827
2026-01-24 23:52:27.08	62.00	46.91	-31.4	-34.5	10.7	3.32e-03	0	44	102	1048576	22	5142
2026-01-24 23:52:28.09	62.45	47.10	-31.1	-33.1	11.4	1.76e-03	0	44	102	1048576	23	4513
2026-01-24 23:52:29.09	62.91	47.30	-30.7	-32.1	12.4	4.05e-04	0	44	102	1048576	22	4264
2026-01-24 23:52:30.10	63.38	47.50	-29.9	-30.7	13.6	6.33e-05	0	44	102	1048576	21	3918
2026-01-24 23:52:31.10	63.85	47.69	-29.9	-30.7	13.7	4.50e-06	0	44	102	1048576	21	3919
2026-01-24 23:52:32.11	64.33	47.88	-30.1	-31.5	13.5	8.30e-06	0	44	102	1048576	20	4263
2026-01-24 23:52:33.11	64.81	48.08	-30.2	-31.9	13.2	8.30e-06	0	44	102	1048576	20	4385
2026-01-24 23:52:34.12	65.30	48.27	-30.3	-32.3	13.1	1.44e-05	0	44	102	1048576	20	4518
2026-01-24 23:52:35.12	65.79	48.46	-30.4	-32.4	12.9	4.65e-05	0	44	102	1048576	20	4555
2026-01-24 23:52:36.12	66.29	48.64	-30.1	-31.5	13.6	1.67e-05	0	44	102	1048576	20	4257
2026-01-24 23:52:37.12	66.79	48.83	-29.7	-30.5	14.1	2.20e-06	0	44	102	1048576	20	3953
2026-01-24 23:52:38.13	67.31	49.01	-29.5	-29.9	14.6	1.06e-05	0	44	102	1048576	20	3800
2026-01-24 23:52:39.13	67.83	49.20	-29.7	-30.5	14.0	1.50e-06	0	44	102	1048576	20	3965
2026-01-24 23:52:40.14	68.35	49.38	-30.1	-31.6	13.5	7.00e-07	0	44	102	1048576	20	4270
2026-01-24 23:52:41.13	68.88	49.56	-30.3	-32.1	13.1	2.36e-05	0	44	102	1048576	20	4443
2026-01-24 23:52:42.14	69.42	49.73	-30.3	-32.2	13.1	1.98e-05	0	44	102	1048576	20	4455
2026-01-24 23:52:43.13	69.96	49.91	-30.2	-31.8	13.3	2.05e-05	0	44	102	1048576	20	4336
2026-01-24 23:52:44.14	70.51	50.08	-30.2	-31.9	13.2	7.09e-05	0	44	102	1048576	20	4385
2026-01-24 23:52:45.15	71.07	50.25	-29.9	-31.2	13.7	4.50e-05	0	44	102	1048576	20	4143
2026-01-24 23:52:46.15	71.63	50.42	-29.6	-30.3	14.3	2.20e-06	0	44	102	1048576	20	3887
2026-01-24 23:52:47.16	72.20	50.59	-29.8	-30.7	14.0	4.04e-05	0	44	102	1048576	20	4022
2026-01-24 23:52:48.16	72.77	50.75	-29.8	-30.7	14.0	2.67e-05	0	44	102	1048576	20	4022
2026-01-24 23:52:49.17	73.36	50.92	-30.0	-31.2	13.7	2.20e-06	0	44	102	1048576	20	4165
2026-01-24 23:52:50.18	73.95	51.08	-30.2	-31.8	13.2	6.10e-06	0	44	102	1048576	20	4340
2026-01-24 23:52:51.18	74.54	51.23	-29.6	-30.4	14.3	2.20e-06	0	44	102	1048576	20	3908
2026-01-24 23:52:52.19	75.14	51.39	-29.6	-30.2	14.4	1.50e-06	0	44	102	1048576	20	3878
2026-01-24 23:52:53.19	75.75	51.54	-30.0	-31.3	13.7	6.10e-06	0	44	102	1048576	20	4178
2026-01-24 23:52:54.20	76.36	51.69	-29.4	-29.8	14.7	2.20e-06	0	44	102	1048576	20	3748
2026-01-24 23:52:55.20	76.98	51.83	-29.1	-29.5	15.2	0.00e+00	0	44	102	1048576	19	3762
2026-01-24 23:52:56.21	77.60	51.98	-29.2	-29.7	15.0	6.80e-06	0	44	102	1048576	19	3823
2026-01-24 23:52:57.21	78.23	52.12	-29.9	-31.6	13.9	3.00e-06	0	44	102	1048576	19	4359
2026-01-24 23:52:58.22	78.87	52.25	-30.1	-31.5	13.7	2.20e-06	0	44	102	1048576	20	4235
2026-01-24 23:52:59.22	79.51	52.39	-29.9	-31.0	13.9	9.10e-06	0	44	102	1048576	20	4093
2026-01-24 23:53:00.22	80.15	52.52	-29.7	-30.6	14.1	6.10e-06	0	44	102	1048576	20	3979
2026-01-24 23:53:01.23	80.81	52.64	-29.7	-30.5	14.3	1.50e-06	0	44	102	1048576	20	3939
2026-01-24 23:53:02.23	81.47	52.77	-29.4	-29.7	14.7	2.20e-06	0	44	102	1048576	20	3735
2026-01-24 23:53:03.23	82.13	52.89	-29.0	-29.2	15.4	0.00e+00	0	44	102	1048576	19	3690
2026-01-24 23:53:04.24	82.80	53.00	-29.4	-30.2	14.7	0.00e+00	0	44	102	1048576	19	3957
2026-01-24 23:53:05.24	83.47	53.12	-29.8	-31.3	14.2	5.72e-05	0	44	102	1048576	19	4277
2026-01-24 23:53:06.23	84.14	53.22	-30.2	-32.0	13.2	9.23e-05	0	44	102	1048576	20	4390
2026-01-24 23:53:07.24	84.83	53.33	-30.1	-31.5	13.6	1.75e-05	0	44	102	1048576	20	4241
2026-01-24 23:53:08.24	85.52	53.43	-29.9	-30.9	13.9	4.50e-06	0	44	102	1048576	20	4071
2026-01-24 23:53:09.25	86.22	53.53	-30.4	-32.4	13.0	1.44e-05	0	44	102	1048576	20	4541
2026-01-24 23:53:10.25	86.91	53.62	-30.6	-32.4	12.6	5.56e-05	0	44	102	1048576	21	4442
2026-01-24 23:53:11.26	87.62	53.71	-30.0	-30.8	13.7	1.83e-05	0	44	102	1048576	21	3955
2026-01-24 23:53:12.26	88.33	53.79	-29.5	-29.9	14.6	1.60e-05	0	44	102	1048576	20	3788
2026-01-24 23:53:13.27	89.04	53.87	-29.4	-29.6	14.8	0.00e+00	0	44	102	1048576	20	3711
2026-01-24 23:53:14.27	89.75	53.95	-30.0	-31.2	13.9	7.00e-07	0	44	102	1048576	20	4141
2026-01-24 23:53:15.28	90.48	54.02	-30.2	-31.7	13.4	7.78e-05	0	44	102	1048576	20	4304
2026-01-24 23:53:16.28	91.20	54.09	-29.8	-30.9	14.0	1.37e-05	0	44	102	1048576	20	4049
2026-01-24 23:53:17.28	91.92	54.15	-29.4	-29.7	14.7	5.56e-05	0	44	102	1048576	20	3729
2026-01-24 23:53:18.29	92.65	54.21	-29.7	-30.5	14.3	7.00e-07	0	44	102	1048576	20	3939
2026-01-24 23:53:19.30	93.39	54.26	-30.2	-31.8	13.4	4.50e-06	0	44	102	1048576	20	4331
2026-01-24 23:53:20.30	94.12	54.31	-30.3	-32.0	13.2	4.88e-05	0	44	102	1048576	20	4390
2026-01-24 23:53:21.30	94.85	54.36	-30.3	-32.0	13.3	2.21e-05	0	44	102	1048576	20	4380
2026-01-24 23:53:22.30	95.59	54.40	-30.2	-31.8	13.4	1.06e-05	0	44	102	1048576	20	4334
2026-01-24 23:53:23.30	96.32	54.43	-30.8	-33.1	12.3	6.25e-05	0	44	102	1048576	21	4658
2026-01-24 23:53:24.30	97.06	54.46	-30.6	-32.4	12.7	1.49e-04	0	44	102	1048576	21	4451
2026-01-24 23:53:25.30	97.81	54.49	-30.4	-32.0	12.9	8.92e-05	0	44	102	1048576	21	4304
2026-01-24 23:53:26.30	98.55	54.51	-30.4	-32.0	13.0	3.66e-05	0	44	102	1048576	21	4294
2026-01-24 23:53:27.30	99.29	54.53	-30.5	-32.2	12.9	4.65e-05	0	44	102	1048576	21	4366
2026-01-24 23:53:28.31	100.04	54.54	-30.4	-32.0	13.1	2.51e-05	0	44	102	1048576	21	4293
2026-01-24 23:53:29.31	100.79	54.54	-29.7	-30.6	14.2	4.50e-06	0	44	102	1048576	20	3974
2026-01-24 23:53:30.32	101.54	54.55	-29.4	-30.3	14.8	0.00e+00	0	44	102	1048576	19	3960
2026-01-24 23:53:31.32	102.28	54.54	-29.4	-30.1	14.9	0.00e+00	0	44	102	1048576	19	3929
2026-01-24 23:53:32.32	103.03	54.54	-29.8	-31.3	14.1	0.00e+00	0	44	102	1048576	19	4254
2026-01-24 23:53:33.33	103.78	54.52	-29.8	-31.2	14.2	3.80e-06	0	44	102	1048576	19	4231
2026-01-24 23:53:34.33	104.52	54.51	-29.9	-31.5	14.1	2.20e-06	0	44	102	1048576	19	4323
2026-01-24 23:53:35.34	105.27	54.49	-30.0	-31.4	13.7	1.50e-06	0	44	102	1048576	20	4220
2026-01-24 23:53:36.34	106.01	54.46	-30.0	-31.3	13.7	1.22e-05	0	44	102	1048576	20	4192
2026-01-24 23:53:37.35	106.76	54.43	-30.0	-31.3	13.7	6.10e-06	0	44	102	1048576	20	4177
2026-01-24 23:53:38.35	107.50	54.39	-29.7	-30.6	14.1	3.80e-06	0	44	102	1048576	20	3985
2026-01-24 23:53:39.36	108.24	54.35	-29.3	-29.4	14.9	7.00e-07	0	44	102	1048576	20	3664
2026-01-24 23:53:40.36	108.97	54.31	-28.8	-28.8	15.7	0.00e+00	0	44	102	1048576	19	3581
2026-01-24 23:53:41.37	109.71	54.26	-28.7	-29.0	15.8	0.00e+00	0	44	102	1048576	18	3733
2026-01-24 23:53:42.37	110.44	54.20	-29.5	-30.4	14.8	7.00e-07	0	44	102	1048576	19	4018
2026-01-24 23:53:43.37	111.17	54.14	-29.9	-31.4	14.2	7.00e-07	0	44	102	1048576	19	4299
2026-01-24 23:53:44.37	111.89	54.08	-29.9	-31.0	14.1	2.20e-06	0	44	102	1048576	20	4079
2026-01-24 23:53:45.37	112.61	54.01	-30.0	-31.4	13.7	8.30e-06	0	44	102	1048576	20	4212
2026-01-24 23:53:46.37	113.32	53.94	-29.9	-31.1	14.0	1.22e-05	0	44	102	1048576	20	4107
2026-01-24 23:53:47.38	114.04	53.86	-29.5	-30.1	14.5	7.00e-07	0	44	102	1048576	20	3829
2026-01-24 23:53:48.38	114.75	53.78	-29.5	-30.0	14.6	0.00e+00	0	44	102	1048576	20	3814
2026-01-24 23:53:49.38	115.46	53.70	-29.6	-30.1	14.5	0.00e+00	0	44	102	1048576	20	3843
2026-01-24 23:53:50.39	116.16	53.61	-29.7	-30.6	14.3	1.50e-06	0	44	102	1048576	20	3957
2026-01-24 23:53:51.39	116.86	53.51	-30.0	-31.3	13.9	3.80e-06	0	44	102	1048576	20	4158
2026-01-24 23:53:52.40	117.56	53.42	-29.9	-31.0	14.0	3.00e-06	0	44	102	1048576	20	4094
2026-01-24 23:53:53.40	118.25	53.31	-29.7	-30.5	14.3	2.20e-06	0	44	102	1048576	20	3946
2026-01-24 23:53:54.41	118.93	53.21	-30.2	-31.7	13.6	3.00e-06	0	44	102	1048576	20	4302
2026-01-24 23:53:55.41	119.61	53.10	-30.1	-31.4	13.7	1.14e-05	0	44	102	1048576	20	4212
2026-01-24 23:53:56.42	120.29	52.99	-29.9	-30.9	13.9	6.10e-06	0	44	102	1048576	20	4040
2026-01-24 23:53:57.42	120.96	52.87	-29.8	-30.8	14.1	2.20e-06	0	44	102	1048576	20	4021
2026-01-24 23:53:58.43	121.62	52.75	-29.6	-30.1	14.5	0.00e+00	0	44	102	1048576	20	3837
2026-01-24 23:53:59.43	122.28	52.62	-29.7	-30.5	14.2	0.00e+00	0	44	102	1048576	20	3929
2026-01-24 23:54:00.43	122.93	52.50	-30.1	-31.4	13.8	3.80e-06	0	44	102	1048576	20	4214
2026-01-24 23:54:01.43	123.58	52.37	-30.6	-32.5	12.8	2.74e-05	0	44	102	1048576	21	4461
2026-01-24 23:54:02.44	124.22	52.23	-30.4	-31.8	13.1	6.10e-05	0	44	102	1048576	21	4227
2026-01-24 23:54:03.44	124.85	52.10	-29.5	-29.9	14.6	8.30e-06	0	44	102	1048576	20	3775
2026-01-24 23:54:04.45	125.49	51.95	-29.0	-29.2	15.5	0.00e+00	0	44	102	1048576	19	3675
2026-01-24 23:54:05.46	126.12	51.81	-29.6	-30.7	14.5	0.00e+00	0	44	102	1048576	19	4082
2026-01-24 23:54:06.47	126.74	51.66	-30.0	-31.6	13.9	3.00e-06	0	44	102	1048576	19	4365
2026-01-24 23:54:07.47	127.35	51.51	-29.3	-29.4	14.9	1.50e-06	0	44	102	1048576	20	3650
2026-01-24 23:54:08.48	127.96	51.36	-28.7	-29.0	15.9	0.00e+00	0	44	102	1048576	18	3720
2026-01-24 23:54:09.48	128.55	51.21	-29.0	-29.8	15.3	0.00e+00	0	44	102	1048576	18	3925
2026-01-24 23:54:10.49	129.15	51.05	-29.6	-30.6	14.6	0.00e+00	0	44	102	1048576	19	4050
2026-01-24 23:54:11.49	129.74	50.89	-30.0	-31.2	13.9	6.42e-04	0	44	102	1048576	20	4132
2026-01-24 23:54:12.50	130.32	50.72	-30.0	-31.3	13.8	5.30e-06	0	44	102	1048576	20	4172
2026-01-24 23:54:13.50	130.89	50.56	-29.6	-30.8	14.4	7.00e-07	0	44	102	1048576	19	4112
2026-01-24 23:54:14.51	131.47	50.39	-29.5	-30.4	14.7	0.00e+00	0	44	102	1048576	19	4005
2026-01-24 23:54:15.51	132.03	50.22	-30.0	-31.3	13.8	2.20e-06	0	44	102	1048576	20	4190
2026-01-24 23:54:16.52	132.59	50.05	-30.2	-32.0	13.2	1.44e-05	0	44	102	1048576	20	4417
2026-01-24 23:54:17.52	133.13	49.87	-30.0	-31.3	13.7	7.60e-06	0	44	102	1048576	20	4201
2026-01-24 23:54:18.51	133.67	49.70	-29.5	-30.2	14.4	7.00e-07	0	44	102	1048576	20	3862
2026-01-24 23:54:19.52	134.21	49.52	-29.9	-31.0	13.8	3.04e-04	0	44	102	1048576	20	4104
2026-01-24 23:54:20.53	134.74	49.34	-30.0	-31.2	13.8	4.50e-06	0	44	102	1048576	20	4165
2026-01-24 23:54:21.53	135.27	49.16	-30.5	-32.3	12.8	3.89e-05	0	44	102	1048576	21	4396
2026-01-24 23:54:22.54	135.79	48.97	-31.1	-33.3	11.7	1.58e-03	0	44	102	1048576	22	4654
2026-01-24 23:54:23.54	136.30	48.79	-31.4	-34.3	11.2	2.17e-03	0	44	102	1048576	22	5031
2026-01-24 23:54:24.54	136.80	48.60	-30.5	-31.7	12.7	7.54e-04	0	44	102	1048576	22	4120
2026-01-24 23:54:25.54	137.30	48.41	-30.1	-31.6	13.5	1.34e-03	0	44	102	1048576	20	4270
2026-01-24 23:54:26.54	137.80	48.23	-30.2	-31.7	13.5	1.03e-03	0	44	102	1048576	20	4299
2026-01-24 23:54:27.54	138.28	48.03	-30.3	-32.2	13.1	1.22e-05	0	44	102	1048576	20	4478
2026-01-24 23:54:28.54	138.76	47.84	-30.5	-32.3	12.7	9.31e-04	0	44	102	1048576	21	4395
2026-01-24 23:54:29.55	139.24	47.65	-30.2	-31.9	13.3	1.36e-03	0	44	102	1048576	20	4371
2026-01-24 23:54:30.55	139.71	47.45	-29.9	-31.1	13.8	1.06e-05	0	44	102	1048576	20	4113
2026-01-24 23:54:31.55	140.18	47.26	-30.0	-31.3	13.8	0.00e+00	0	44	102	1048576	20	4177
2026-01-24 23:54:32.55	140.63	47.06	-30.2	-31.8	13.3	1.77e-03	0	44	102	1048576	20	4352
2026-01-24 23:54:33.56	141.09	46.86	-30.7	-32.8	12.5	2.82e-05	0	44	102	1048576	21	4575
2026-01-24 23:54:34.56	141.54	46.66	-30.8	-33.2	12.1	2.21e-03	0	44	102	1048576	21	4729
2026-01-24 23:54:35.56	141.98	46.46	-31.0	-33.3	11.7	2.06e-03	0	44	102	1048576	22	4671
2026-01-24 23:54:36.56	142.41	46.26	-31.0	-33.2	11.8	4.13e-04	0	44	102	1048576	22	4631
2026-01-24 23:54:37.57	142.85	46.06	-30.7	-32.2	12.5	2.11e-03	0	44	102	1048576	22	4294
2026-01-24 23:54:38.57	143.27	45.86	-30.5	-32.3	12.8	1.53e-03	0	44	102	1048576	21	4417
2026-01-24 23:54:39.58	143.69	45.65	-31.4	-34.4	11.0	7.37e-04	0	44	102	1048576	22	5109
2026-01-24 23:54:40.59	144.11	45.45	-32.4	-37.4	7.8	2.18e-02	0	44	102	1048576	24	6364
2026-01-24 23:54:41.59	144.52	45.25	-32.3	-36.5	8.1	8.18e-02	0	44	102	1048576	25	5809
2026-01-24 23:54:42.60	144.93	45.04	-32.0	-35.2	9.1	2.90e-02	0	44	102	1048576	25	5168
2026-01-24 23:54:43.60	145.32	44.83	-31.6	-33.9	10.5	1.16e-02	0	44	102	1048576	24	4713
2026-01-24 23:54:44.60	145.72	44.63	-31.5	-34.3	10.6	3.90e-03	0	44	102	1048576	23	4940
2026-01-24 23:54:45.60	146.11	44.42	-32.1	-36.0	9.0	1.47e-02	0	44	102	1048576	24	5618
2026-01-24 23:54:46.61	146.49	44.22	-33.1	-39.6	5.6	1.63e-01	0	44	102	1048576	26	7602
2026-01-24 23:54:47.61	146.87	44.01	-33.3	-41.1	4.8	8.10e-01	0	44	102	1048576	26	8831
2026-01-24 23:54:48.61	147.24	43.80	-32.7	-37.7	6.9	2.51e-01	0	44	102	1048576	26	6354
2026-01-24 23:54:49.61	147.61	43.60	-32.5	-37.1	7.5	1.11e-01	0	44	102	1048576	25	6112
2026-01-24 23:54:50.60	147.97	43.39	-32.5	-37.4	7.9	5.54e-02	0	44	102	1048576	24	6348
2026-01-24 23:54:51.60	148.33	43.19	-33.0	-39.4	5.7	1.66e-01	0	44	102	1048576	26	7495
2026-01-24 23:54:52.60	148.69	42.98	-33.3	-41.3	4.8	7.17e-01	0	44	102	1048576	26	9061
2026-01-24 23:54:53.60	149.04	42.77	-33.3	-41.3	4.7	8.90e-01	0	44	102	1048576	26	9024
2026-01-24 23:54:54.61	149.39	42.56	-32.6	-37.3	7.0	4.03e-01	0	44	102	1048576	26	6167
2026-01-24 23:54:55.61	149.73	42.36	-32.2	-35.9	8.5	3.83e-02	0	44	102	1048576	25	5503
2026-01-24 23:54:56.60	150.06	42.15	-32.7	-38.3	6.8	8.38e-02	0	44	102	1048576	25	6873
2026-01-24 23:54:57.61	150.40	41.94	-33.0	-39.3	5.7	3.08e-01	0	44	102	1048576	26	7476
2026-01-24 23:54:58.62	150.73	41.74	-32.9	-38.6	6.1	4.67e-01	0	44	102	1048576	26	6978
2026-01-24 23:54:59.63	151.06	41.53	-32.4	-36.1	8.1	9.23e-02	0	44	102	1048576	26	5539
2026-01-24 23:55:00.63	151.38	41.32	-32.1	-35.5	8.7	2.94e-02	0	44	102	1048576	25	5343
2026-01-24 23:55:01.63	151.70	41.11	-32.3	-36.1	8.4	3.36e-02	0	44	102	1048576	25	5615
2026-01-24 23:55:02.63	152.01	40.91	-32.2	-36.6	8.4	5.87e-02	0	44	102	1048576	24	5914
2026-01-24 23:55:03.64	152.32	40.70	-32.2	-36.5	8.5	3.73e-02	0	44	102	1048576	24	5901
2026-01-24 23:55:04.64	152.63	40.50	-32.2	-36.5	8.5	4.58e-02	0	44	102	1048576	24	5864
2026-01-24 23:55:05.64	152.93	40.29	-32.3	-36.8	8.3	5.48e-02	0	44	102	1048576	24	6034
2026-01-24 23:55:06.64	153.23	40.09	-32.3	-36.6	8.4	4.92e-02	0	44	102	1048576	24	5926
2026-01-24 23:55:07.64	153.52	39.88	-32.1	-35.9	8.9	4.26e-02	0	44	102	1048576	24	5588
2026-01-24 23:55:08.65	153.81	39.68	-31.7	-34.5	10.1	1.74e-02	0	44	102	1048576	24	4946
2026-01-24 23:55:09.65	154.10	39.47	-31.5	-33.7	10.6	3.34e-03	0	44	102	1048576	24	4655
2026-01-24 23:55:10.65	154.38	39.27	-31.9	-35.3	9.5	7.62e-03	0	44	102	1048576	24	5312
2026-01-24 23:55:11.64	154.66	39.07	-32.2	-36.6	8.4	3.20e-02	0	44	102	1048576	24	5943
2026-01-24 23:55:12.64	154.94	38.87	-32.2	-36.4	8.5	6.69e-02	0	44	102	1048576	24	5837
2026-01-24 23:55:13.65	155.21	38.66	-31.4	-33.6	10.6	1.43e-02	0	44	102	1048576	24	4629
2026-01-24 23:55:14.65	155.48	38.46	-30.6	-31.9	12.6	8.92e-04	0	44	102	1048576	22	4213
2026-01-24 23:55:15.66	155.75	38.26	-30.2	-31.4	13.2	4.42e-05	0	44	102	1048576	21	4122
2026-01-24 23:55:16.67	156.02	38.06	-30.6	-32.6	12.4	4.04e-05	0	44	102	1048576	21	4532
2026-01-24 23:55:17.68	156.28	37.85	-31.7	-35.0	10.0	1.44e-03	0	44	102	1048576	23	5264
2026-01-24 23:55:18.67	156.53	37.66	-32.0	-35.6	9.1	1.46e-02	0	44	102	1048576	24	5462
2026-01-24 23:55:19.68	156.79	37.46	-31.6	-34.3	10.0	1.20e-02	0	44	102	1048576	24	4908
2026-01-24 23:55:20.68	157.04	37.26	-30.5	-31.6	12.6	7.61e-04	0	44	102	1048576	22	4128
2026-01-24 23:55:21.68	157.29	37.06	-29.9	-30.5	13.6	3.12e-05	0	44	102	1048576	21	3867
2026-01-24 23:55:22.69	157.53	36.86	-29.4	-30.2	14.6	4.11e-05	0	44	102	1048576	19	3948
2026-01-24 23:55:23.69	157.78	36.67	-29.6	-30.8	14.3	7.00e-07	0	44	102	1048576	19	4133
2026-01-24 23:55:24.70	158.02	36.47	-30.1	-31.7	13.3	6.80e-06	0	44	102	1048576	20	4316
2026-01-24 23:55:25.70	158.25	36.27	-30.7	-33.0	12.1	5.79e-05	0	44	102	1048576	21	4661
2026-01-24 23:55:26.70	158.49	36.08	-31.1	-33.6	11.3	1.02e-03	0	44	102	1048576	22	4784
2026-01-24 23:55:27.71	158.72	35.88	-30.9	-32.8	11.8	7.22e-04	0	44	102	1048576	22	4515
2026-01-24 23:55:28.72	158.95	35.69	-30.5	-32.2	12.6	2.17e-04	0	44	102	1048576	21	4392
2026-01-24 23:55:29.72	159.18	35.50	-30.2	-31.5	13.1	4.27e-05	0	44	102	1048576	21	4176
2026-01-24 23:55:30.72	159.40	35.30	-30.0	-30.8	13.6	2.28e-05	0	44	102	1048576	21	3950
2026-01-24 23:55:31.73	159.62	35.11	-30.3	-32.1	13.0	2.13e-05	0	44	102	1048576	20	4454
2026-01-24 23:55:32.73	159.84	34.92	-30.4	-32.3	12.9	5.41e-05	0	44	102	1048576	20	4523
2026-01-24 23:55:33.73	160.06	34.73	-30.7	-32.8	12.3	8.85e-05	0	44	102	1048576	21	4603
2026-01-24 23:55:34.74	160.27	34.54	-31.3	-34.3	10.9	9.96e-04	0	44	102	1048576	22	5069
2026-01-24 23:55:35.74	160.48	34.35	-31.9	-35.8	9.4	7.29e-03	0	44	102	1048576	23	5640
2026-01-24 23:55:36.75	160.69	34.16	-32.3	-37.0	8.0	4.92e-02	0	44	102	1048576	24	6173
2026-01-24 23:55:37.75	160.90	33.98	-32.4	-37.3	7.7	7.76e-02	0	44	102	1048576	24	6317
2026-01-24 23:55:38.75	161.10	33.79	-32.1	-36.1	8.6	6.63e-02	0	44	102	1048576	24	5708
2026-01-24 23:55:39.76	161.30	33.60	-31.6	-34.2	10.1	1.44e-02	0	44	102	1048576	24	4884
2026-01-24 23:55:40.76	161.50	33.42	-30.4	-33.1	10.9	2.26e-03	0	44	102	1048576	22	4905
2026-01-24 23:55:41.76	161.70	33.24	-30.9	-32.8	11.8	6.64e-04	0	44	102	1048576	22	4510
2026-01-24 23:55:42.77	161.90	33.05	-30.4	-32.4	12.0	1.40e-04	0	44	102	1048576	20	4553
2026-01-24 23:55:43.78	162.09	32.87	-30.5	-32.4	11.9	2.33e-04	0	44	102	1048576	21	4444
2026-01-24 23:55:44.79	162.28	32.68	-31.0	-33.7	11.5	3.71e-04	0	44	102	1048576	21	4927
2026-01-24 23:55:45.80	162.47	32.50	-31.5	-34.5	10.2	1.49e-03	0	44	102	1048576	23	5052
2026-01-24 23:55:46.80	162.66	32.32	-31.9	-35.9	9.2	1.95e-02	0	44	102	1048576	23	5696
2026-01-24 23:55:47.80	162.84	32.14	-32.2	-36.7	8.2	3.04e-02	0	44	102	1048576	24	6022
2026-01-24 23:55:48.81	163.03	31.96	-32.4	-37.5	7.7	6.64e-02	0	44	102	1048576	24	6468
2026-01-24 23:55:49.82	163.21	31.78	-32.5	-37.6	7.1	1.35e-01	0	44	102	1048576	25	6458
2026-01-24 23:55:50.82	163.39	31.61	-32.2	-35.9	8.3	8.11e-02	0	44	102	1048576	25	5560
2026-01-24 23:55:51.82	163.56	31.43	-31.9	-35.6	9.0	3.06e-02	0	44	102	1048576	24	5460
2026-01-24 23:55:52.83	163.74	31.25	-31.9	-35.7	9.2	2.90e-02	0	44	102	1048576	23	5623
2026-01-24 23:55:53.83	163.91	31.08	-31.6	-34.7	10.0	1.14e-02	0	44	102	1048576	23	5184
2026-01-24 23:55:54.83	164.09	30.90	-31.1	-33.6	11.2	2.25e-03	0	44	102	1048576	22	4804
2026-01-24 23:55:55.84	164.26	30.73	-30.8	-33.3	11.7	5.54e-04	0	44	102	1048576	21	4805
2026-01-24 23:55:56.83	164.42	30.56	-30.8	-33.2	11.8	5.33e-04	0	44	102	1048576	21	4785
2026-01-24 23:55:57.83	164.59	30.39	-31.0	-33.9	11.4	8.42e-04	0	44	102	1048576	21	5022
2026-01-24 23:55:58.83	164.75	30.22	-32.0	-36.5	8.7	7.72e-03	0	44	102	1048576	23	6045
2026-01-24 23:55:59.84	164.92	30.04	-32.1	-36.5	8.2	5.32e-02	0	44	102	1048576	24	5985
2026-01-24 23:56:00.85	165.08	29.87	-32.3	-37.2	7.7	5.89e-02	0	44	102	1048576	24	6374
2026-01-24 23:56:01.85	165.24	29.71	-32.2	-37.1	7.7	9.30e-02	0	44	102	1048576	24	6335
2026-01-24 23:56:02.85	165.39	29.54	-32.2	-37.1	7.8	1.01e-01	0	44	102	1048576	24	6269
2026-01-24 23:56:03.86	165.55	29.37	-32.1	-36.3	8.3	7.80e-02	0	44	102	1048576	24	5875
2026-01-24 23:56:04.86	165.71	29.20	-32.0	-36.1	8.6	4.20e-02	0	44	102	1048576	24	5745
2026-01-24 23:56:05.87	165.86	29.04	-32.0	-36.0	8.6	3.67e-02	0	44	102	1048576	24	5693
2026-01-24 23:56:06.87	166.01	28.87	-32.1	-36.3	8.3	4.57e-02	0	44	102	1048576	24	5844
2026-01-24 23:56:07.87	166.16	28.71	-31.7	-35.4	9.4	2.73e-02	0	44	102	1048576	23	5496
2026-01-24 23:56:08.87	166.31	28.54	-31.4	-34.2	10.3	7.79e-03	0	44	102	1048576	23	4965
2026-01-24 23:56:09.88	166.46	28.38	-30.9	-33.2	11.4	2.52e-03	0	44	102	1048576	22	4699
2026-01-24 23:56:10.88	166.60	28.22	-30.7	-33.0	11.8	2.73e-03	0	44	102	1048576	21	4725
2026-01-24 23:56:11.89	166.75	28.06	-30.4	-32.3	12.3	3.83e-04	0	44	102	1048576	21	4469
2026-01-24 23:56:12.89	166.89	27.90	-30.6	-32.7	12.2	3.59e-04	0	44	102	1048576	21	4612
2026-01-24 23:56:13.90	167.03	27.74	-30.8	-33.3	11.7	2.41e-03	0	44	102	1048576	21	4821
2026-01-24 23:56:14.90	167.17	27.58	-31.3	-34.3	10.6	1.23e-03	0	44	102	1048576	22	5118
2026-01-24 23:56:15.90	167.31	27.42	-31.3	-34.4	10.6	3.64e-03	0	44	102	1048576	22	5144
2026-01-24 23:56:16.91	167.45	27.26	-31.5	-34.7	9.9	9.59e-03	0	44	102	1048576	23	5215
2026-01-24 23:56:17.91	167.59	27.10	-31.1	-33.4	10.8	3.87e-03	0	44	102	1048576	23	4686
2026-01-24 23:56:18.91	167.72	26.95	-31.0	-33.5	11.2	3.99e-03	0	44	102	1048576	22	4805
2026-01-24 23:56:19.92	167.86	26.79	-31.0	-33.5	11.2	1.57e-03	0	44	102	1048576	22	4795
2026-01-24 23:56:20.92	167.99	26.64	-31.1	-33.8	10.8	2.34e-03	0	44	102	1048576	22	4921
2026-01-24 23:56:21.93	168.12	26.48	-31.1	-33.6	11.1	4.75e-03	0	44	102	1048576	22	4842
2026-01-24 23:56:22.93	168.25	26.33	-30.9	-33.8	11.3	2.77e-03	0	44	102	1048576	21	4996
2026-01-24 23:56:23.94	168.38	26.18	-31.3	-34.3	10.6	2.20e-03	0	44	102	1048576	22	5112
2026-01-24 23:56:24.94	168.51	26.02	-31.2	-33.9	10.9	5.05e-03	0	44	102	1048576	22	4951
2026-01-24 23:56:25.95	168.63	25.87	-31.4	-34.7	10.3	5.15e-03	0	44	102	1048576	22	5301
2026-01-24 23:56:26.96	168.76	25.72	-31.5	-35.0	10.1	5.93e-03	0	44	102	1048576	22	5388
2026-01-24 23:56:27.96	168.88	25.57	-31.8	-35.5	9.4	1.20e-02	0	44	102	1048576	23	5526
2026-01-24 23:56:28.96	169.01	25.42	-31.6	-34.9	9.7	1.75e-02	0	44	102	1048576	23	5266
2026-01-24 23:56:29.97	169.13	25.27	-31.4	-34.3	10.2	9.80e-03	0	44	102	1048576	23	4989
2026-01-24 23:56:30.97	169.25	25.13	-31.3	-34.4	10.5	6.68e-03	0	44	102	1048576	22	5126
2026-01-24 23:56:31.98	169.37	24.98	-31.0	-33.3	11.3	3.86e-03	0	44	102	1048576	22	4705
2026-01-24 23:56:32.98	169.49	24.83	-30.9	-32.9	11.6	1.04e-03	0	44	102	1048576	22	4561
2026-01-24 23:56:33.99	169.61	24.69	-30.7	-32.9	11.9	2.97e-04	0	44	102	1048576	21	4649
2026-01-24 23:56:34.99	169.72	24.54	-30.5	-32.8	12.4	1.59e-03	0	44	102	1048576	20	4694
2026-01-24 23:56:35.99	169.84	24.40	-30.5	-32.3	12.3	1.53e-04	0	44	102	1048576	21	4449
2026-01-24 23:56:37.00	169.95	24.25	-30.6	-32.8	12.0	3.80e-04	0	44	102	1048576	21	4614
2026-01-24 23:56:38.00	170.07	24.11	-30.4	-32.0	12.4	1.79e-03	0	44	102	1048576	21	4354
2026-01-24 23:56:39.00	170.18	23.97	-30.2	-31.5	12.8	1.23e-04	0	44	102	1048576	21	4206
2026-01-24 23:56:40.01	170.29	23.83	-29.7	-30.8	13.6	1.19e-03	0	44	102	1048576	20	4065
2026-01-24 23:56:41.02	170.40	23.69	-29.6	-31.0	13.8	6.80e-06	0	44	102	1048576	19	4223
2026-01-24 23:56:42.02	170.51	23.55	-29.6	-30.9	13.9	7.93e-05	0	44	102	1048576	19	4195
2026-01-24 23:56:43.02	170.62	23.41	-29.4	-31.0	14.1	9.92e-04	0	44	102	1048576	18	4309
2026-01-24 23:56:44.03	170.73	23.27	-29.2	-30.5	14.5	7.00e-07	0	44	102	1048576	18	4157
2026-01-24 23:56:45.03	170.83	23.13	-29.0	-29.9	14.8	0.00e+00	0	44	102	1048576	18	3977
2026-01-24 23:56:46.03	170.94	22.99	-28.9	-30.2	14.7	9.63e-04	0	44	102	1048576	17	4179
2026-01-24 23:56:47.04	171.05	22.85	-29.2	-30.4	14.6	7.00e-07	0	44	102	1048576	18	4131
2026-01-24 23:56:48.04	171.15	22.72	-28.8	-29.3	15.2	7.00e-07	0	44	102	1048576	18	3822
2026-01-24 23:56:49.04	171.25	22.58	-28.7	-29.6	15.3	9.67e-04	0	44	102	1048576	17	4003
2026-01-24 23:56:50.05	171.36	22.45	-28.9	-30.1	15.0	0.00e+00	0	44	102	1048576	17	4142
2026-01-24 23:56:51.05	171.46	22.31	-29.0	-29.9	14.8	0.00e+00	0	44	102	1048576	18	3997
2026-01-24 23:56:52.06	171.56	22.18	-29.2	-30.4	14.5	7.00e-07	0	44	102	1048576	18	4136
2026-01-24 23:56:53.07	171.66	22.04	-29.5	-30.7	14.0	1.21e-03	0	44	102	1048576	19	4130
2026-01-24 23:56:54.07	171.76	21.91	-29.7	-31.1	13.7	2.20e-06	0	44	102	1048576	19	4233
2026-01-24 23:56:55.08	171.86	21.78	-29.8	-31.4	13.6	7.60e-06	0	44	102	1048576	19	4342
2026-01-24 23:56:56.09	171.95	21.65	-29.9	-31.8	13.3	1.37e-05	0	44	102	1048576	19	4459
2026-01-24 23:56:57.09	172.05	21.52	-29.8	-31.6	13.4	1.83e-05	0	44	102	1048576	19	4414
2026-01-24 23:56:58.10	172.15	21.39	-30.1	-31.8	12.8	3.66e-05	0	44	102	1048576	20	4405
2026-01-24 23:56:59.11	172.24	21.26	-30.2	-32.2	12.6	6.79e-05	0	44	102	1048576	20	4514
2026-01-24 23:57:00.11	172.34	21.13	-30.0	-31.5	13.0	3.96e-05	0	44	102	1048576	20	4288
2026-01-24 23:57:01.11	172.43	21.00	-29.7	-30.8	13.5	1.22e-05	0	44	102	1048576	20	4093
2026-01-24 23:57:02.12	172.52	20.87	-29.6	-30.8	13.9	4.50e-06	0	44	102	1048576	19	4169
2026-01-24 23:57:03.13	172.62	20.74	-29.3	-30.2	14.3	2.20e-06	0	44	102	1048576	19	3998
2026-01-24 23:57:04.13	172.71	20.62	-29.1	-30.1	14.6	7.00e-07	0	44	102	1048576	18	4048
2026-01-24 23:57:05.13	172.80	20.49	-28.9	-29.7	14.9	7.00e-07	0	44	102	1048576	18	3932
2026-01-24 23:57:06.14	172.89	20.36	-28.8	-29.4	15.0	0.00e+00	0	44	102	1048576	18	3870
2026-01-24 23:57:07.14	172.98	20.24	-28.9	-30.2	14.6	1.15e-04	0	44	102	1048576	17	4172
2026-01-24 23:57:08.14	173.07	20.12	-28.6	-29.3	15.4	0.00e+00	0	44	102	1048576	17	3939
2026-01-24 23:57:09.15	173.15	19.99	-28.3	-28.7	15.6	0.00e+00	0	44	102	1048576	17	3770
2026-01-24 23:57:10.15	173.24	19.87	-28.1	-28.7	16.0	1.52e-04	0	44	102	1048576	16	3863
2026-01-24 23:57:11.16	173.33	19.74	-28.0	-28.5	16.1	9.10e-06	0	44	102	1048576	16	3809
2026-01-24 23:57:12.17	173.42	19.62	-28.1	-28.8	15.9	0.00e+00	0	44	102	1048576	16	3895
2026-01-24 23:57:13.17	173.50	19.50	-28.0	-28.5	16.1	0.00e+00	0	44	102	1048576	16	3815
2026-01-24 23:57:14.18	173.59	19.38	-28.0	-28.5	16.1	6.80e-06	0	44	102	1048576	16	3808
2026-01-24 23:57:15.19	173.67	19.26	-28.1	-28.7	16.0	0.00e+00	0	44	102	1048576	16	3862
2026-01-24 23:57:16.19	173.75	19.14	-27.9	-28.7	15.9	0.00e+00	0	44	102	1048576	16	3923
2026-01-24 23:57:17.19	173.84	19.02	-28.4	-29.4	15.6	6.80e-06	0	44	102	1048576	16	4037
2026-01-24 23:57:18.20	173.92	18.90	-28.5	-29.3	15.3	0.00e+00	0	44	102	1048576	17	3927
2026-01-24 23:57:19.21	174.00	18.78	-28.7	-29.8	15.1	0.00e+00	0	44	102	1048576	17	4078
2026-01-24 23:57:20.21	174.08	18.66	-29.0	-30.4	14.7	6.10e-06	0	44	102	1048576	17	4247
2026-01-24 23:57:21.21	174.16	18.54	-29.2	-30.5	14.3	2.30e-04	0	44	102	1048576	18	4171
2026-01-24 23:57:22.21	174.24	18.43	-29.3	-30.9	14.1	0.00e+00	0	44	102	1048576	18	4288
2026-01-24 23:57:23.22	174.32	18.31	-29.7	-31.2	13.5	8.30e-06	0	44	102	1048576	19	4307
2026-01-24 23:57:24.22	174.40	18.19	-29.8	-31.7	13.2	8.62e-04	0	44	102	1048576	19	4466
2026-01-24 23:57:25.22	174.48	18.08	-29.9	-31.8	13.2	2.44e-04	0	44	102	1048576	19	4506
2026-01-24 23:57:26.22	174.55	17.96	-29.9	-31.9	13.1	4.04e-05	0	44	102	1048576	19	4534
2026-01-24 23:57:27.24	174.63	17.85	-29.9	-31.5	13.0	9.35e-04	0	44	102	1048576	20	4309
2026-01-24 23:57:28.23	174.71	17.74	-30.0	-31.7	12.8	3.42e-04	0	44	102	1048576	20	4383
2026-01-24 23:57:29.24	174.78	17.62	-29.9	-31.6	12.9	6.86e-05	0	44	102	1048576	20	4351
2026-01-24 23:57:30.25	174.86	17.51	-29.9	-32.1	12.9	5.56e-05	0	44	102	1048576	19	4604
2026-01-24 23:57:31.25	174.93	17.40	-29.9	-31.9	13.0	7.56e-04	0	44	102	1048576	19	4557
2026-01-24 23:57:32.25	175.01	17.28	-29.7	-31.5	13.3	3.81e-05	0	44	102	1048576	19	4410
2026-01-24 23:57:33.26	175.08	17.17	-29.7	-31.3	13.4	1.14e-05	0	44	102	1048576	19	4358
2026-01-24 23:57:34.27	175.15	17.06	-29.6	-31.0	13.6	5.48e-04	0	44	102	1048576	19	4272
2026-01-24 23:57:35.27	175.23	16.95	-29.5	-30.9	13.6	2.67e-05	0	44	102	1048576	19	4238
2026-01-24 23:57:36.27	175.30	16.84	-29.5	-31.0	13.5	1.67e-05	0	44	102	1048576	19	4275
2026-01-24 23:57:37.27	175.37	16.73	-29.4	-30.6	13.8	3.78e-04	0	44	102	1048576	19	4148
2026-01-24 23:57:38.28	175.44	16.62	-29.3	-30.5	13.9	1.22e-05	0	44	102	1048576	19	4100
2026-01-24 23:57:39.28	175.51	16.51	-29.4	-31.0	13.9	2.41e-04	0	44	102	1048576	18	4357
2026-01-24 23:57:40.28	175.58	16.40	-29.3	-30.8	14.0	4.50e-06	0	44	102	1048576	18	4306
2026-01-24 23:57:41.28	175.65	16.30	-29.3	-30.8	14.0	1.50e-06	0	44	102	1048576	18	4305
2026-01-24 23:57:42.28	175.72	16.19	-29.2	-30.6	14.1	3.26e-04	0	44	102	1048576	18	4228
2026-01-24 23:57:43.28	175.79	16.08	-29.2	-30.6	14.1	2.46e-04	0	44	102	1048576	18	4225
2026-01-24 23:57:44.28	175.86	15.97	-29.2	-30.7	14.1	3.80e-06	0	44	102	1048576	18	4267
2026-01-24 23:57:45.29	175.92	15.87	-29.3	-30.8	14.0	6.10e-04	0	44	102	1048576	18	4294
2026-01-24 23:57:46.28	175.99	15.76	-29.2	-30.6	14.1	6.69e-04	0	44	102	1048576	18	4225
2026-01-24 23:57:47.28	176.06	15.66	-29.1	-30.4	14.2	1.44e-05	0	44	102	1048576	18	4180
2026-01-24 23:57:48.29	176.13	15.55	-29.2	-30.5	14.1	1.15e-03	0	44	102	1048576	18	4205
2026-01-24 23:57:49.29	176.19	15.45	-29.3	-30.7	14.0	1.10e-03	0	44	102	1048576	18	4269
2026-01-24 23:57:50.29	176.26	15.34	-29.2	-30.5	14.2	8.30e-06	0	44	102	1048576	18	4191
2026-01-24 23:57:51.29	176.32	15.24	-29.3	-30.7	14.0	1.37e-03	0	44	102	1048576	18	4267
2026-01-24 23:57:52.29	176.39	15.14	-29.1	-30.4	14.2	1.33e-03	0	44	102	1048576	18	4154
2026-01-24 23:57:53.29	176.45	15.04	-29.1	-30.4	14.2	9.46e-05	0	44	102	1048576	18	4159
2026-01-24 23:57:54.30	176.51	14.93	-29.1	-30.4	14.2	5.26e-05	0	44	102	1048576	18	4181
2026-01-24 23:57:55.30	176.58	14.83	-29.1	-30.3	14.2	1.33e-03	0	44	102	1048576	18	4156
2026-01-24 23:57:56.30	176.64	14.73	-29.2	-30.5	14.1	8.16e-05	0	44	102	1048576	18	4197
2026-01-24 23:57:57.30	176.70	14.63	-29.2	-30.6	14.0	1.16e-03	0	44	102	1048576	18	4238
2026-01-24 23:57:58.30	176.76	14.53	-29.1	-30.4	14.2	1.41e-03	0	44	102	1048576	18	4181
2026-01-24 23:57:59.31	176.83	14.43	-29.3	-30.8	13.9	9.99e-05	0	44	102	1048576	18	4295
2026-01-24 23:58:00.31	176.89	14.33	-29.2	-30.6	14.0	1.39e-03	0	44	102	1048576	18	4238
2026-01-24 23:58:01.32	176.95	14.23	-29.2	-30.7	13.9	1.22e-03	0	44	102	1048576	18	4270
2026-01-24 23:58:02.32	177.01	14.13	-29.3	-30.8	13.9	1.11e-04	0	44	102	1048576	18	4287
2026-01-24 23:58:03.32	177.07	14.03	-29.2	-30.5	14.0	1.45e-03	0	44	102	1048576	18	4212
2026-01-24 23:58:04.33	177.13	13.93	-29.1	-30.4	14.1	1.44e-03	0	44	102	1048576	18	4165
2026-01-24 23:58:05.33	177.19	13.83	-29.3	-30.9	13.8	8.31e-05	0	44	102	1048576	18	4329
2026-01-24 23:58:06.34	177.25	13.73	-29.3	-30.9	13.8	1.49e-03	0	44	102	1048576	18	4325
2026-01-24 23:58:07.34	177.31	13.63	-29.2	-30.6	14.0	1.40e-03	0	44	102	1048576	18	4218
2026-01-24 23:58:08.34	177.37	13.54	-29.2	-30.6	14.0	2.20e-06	0	44	102	1048576	18	4238
2026-01-24 23:58:09.34	177.42	13.44	-29.2	-30.6	14.0	1.19e-03	0	44	102	1048576	18	4222
2026-01-24 23:58:10.35	177.48	13.34	-29.2	-30.5	14.0	1.19e-03	0	44	102	1048576	18	4202
2026-01-24 23:58:11.36	177.54	13.25	-29.2	-30.6	14.0	7.00e-07	0	44	102	1048576	18	4226
2026-01-24 23:58:12.37	177.60	13.15	-29.3	-30.8	13.9	4.66e-04	0	44	102	1048576	18	4295
2026-01-24 23:58:13.37	177.65	13.06	-29.2	-30.4	14.0	7.50e-04	0	44	102	1048576	18	4177
2026-01-24 23:58:14.37	177.71	12.96	-29.1	-30.3	14.2	0.00e+00	0	44	102	1048576	18	4126
2026-01-24 23:58:15.37	177.77	12.87	-29.1	-30.3	14.1	1.50e-06	0	44	102	1048576	18	4145
2026-01-24 23:58:16.37	177.82	12.77	-29.1	-30.3	14.1	4.97e-04	0	44	102	1048576	18	4140
2026-01-24 23:58:17.38	177.88	12.68	-29.1	-30.4	14.1	1.50e-06	0	44	102	1048576	18	4156
2026-01-24 23:58:18.39	177.93	12.58	-29.1	-30.3	14.2	7.00e-07	0	44	102	1048576	18	4124
2026-01-24 23:58:19.39	177.99	12.49	-29.3	-30.9	13.8	0.00e+00	0	44	102	1048576	18	4315
2026-01-24 23:58:20.40	178.04	12.40	-29.5	-31.3	13.5	7.60e-06	0	44	102	1048576	18	4452
2026-01-24 23:58:21.41	178.10	12.30	-29.5	-30.9	13.5	1.29e-05	0	44	102	1048576	19	4211
2026-01-24 23:58:22.41	178.15	12.21	-29.6	-31.0	13.3	1.37e-05	0	44	102	1048576	19	4266
2026-01-24 23:58:23.42	178.20	12.12	-29.6	-31.1	13.2	1.37e-05	0	44	102	1048576	19	4305
2026-01-24 23:58:24.42	178.26	12.03	-29.6	-31.3	13.2	5.24e-04	0	44	102	1048576	19	4341
2026-01-24 23:58:25.43	178.31	11.94	-29.8	-31.7	12.8	4.95e-05	0	44	102	1048576	19	4496
2026-01-24 23:58:26.43	178.36	11.84	-29.8	-31.9	12.8	7.55e-05	0	44	102	1048576	19	4540
2026-01-24 23:58:27.43	178.41	11.75	-29.9	-31.9	12.7	5.11e-04	0	44	102	1048576	19	4565
2026-01-24 23:58:28.44	178.47	11.66	-29.9	-32.0	12.6	8.85e-05	0	44	102	1048576	19	4596
2026-01-24 23:58:29.44	178.52	11.57	-30.0	-31.7	12.4	1.44e-04	0	44	102	1048576	20	4416
2026-01-24 23:58:30.45	178.57	11.48	-30.0	-31.7	12.4	1.48e-04	0	44	102	1048576	20	4425
2026-01-24 23:58:31.45	178.62	11.39	-30.1	-32.1	12.1	2.46e-04	0	44	102	1048576	20	4553
2026-01-24 23:58:32.45	178.67	11.30	-30.1	-32.3	12.0	2.79e-04	0	44	102	1048576	20	4599
2026-01-24 23:58:33.45	178.72	11.22	-30.4	-33.0	11.5	4.84e-04	0	44	102	1048576	20	4884
2026-01-24 23:58:34.46	178.77	11.13	-30.5	-33.3	11.3	1.45e-03	0	44	102	1048576	20	4980
2026-01-24 23:58:35.47	178.82	11.04	-30.5	-33.3	11.2	8.50e-04	0	44	102	1048576	20	5001
2026-01-24 23:58:36.47	178.87	10.95	-30.6	-33.2	10.9	2.25e-03	0	44	102	1048576	21	4887
2026-01-24 23:58:37.48	178.92	10.86	-30.6	-33.2	10.9	1.87e-03	0	44	102	1048576	21	4885
2026-01-24 23:58:38.48	178.97	10.78	-30.8	-34.0	10.4	3.60e-03	0	44	102	1048576	21	5185
2026-01-24 23:58:39.48	179.02	10.69	-31.0	-34.6	9.9	7.26e-03	0	44	102	1048576	21	5461
2026-01-24 23:58:40.49	179.07	10.60	-30.9	-34.4	10.0	8.05e-03	0	44	102	1048576	21	5385
2026-01-24 23:58:41.49	179.12	10.51	-31.1	-34.4	9.7	8.35e-03	0	44	102	1048576	22	5266
2026-01-24 23:58:42.49	179.16	10.43	-31.1	-34.7	9.5	1.47e-02	0	44	102	1048576	22	5404
2026-01-24 23:58:43.50	179.21	10.34	-31.0	-34.3	9.7	1.11e-02	0	44	102	1048576	22	5261
2026-01-24 23:58:44.50	179.26	10.26	-31.1	-34.6	9.5	1.24e-02	0	44	102	1048576	22	5378
2026-01-24 23:58:45.50	179.31	10.17	-31.1	-34.6	9.5	1.23e-02	0	44	102	1048576	22	5365
2026-01-24 23:58:46.51	179.35	10.09	-31.1	-34.7	9.4	1.75e-02	0	44	102	1048576	22	5425
2026-01-24 23:58:47.52	179.40	10.00	-30.9	-33.8	10.0	1.09e-02	0	44	102	1048576	22	5026
2026-01-24 23:58:48.52	179.45	9.92	-30.7	-33.8	10.5	5.07e-03	0	44	102	1048576	21	5110
2026-01-24 23:58:49.52	179.49	9.83	-30.7	-33.8	10.4	4.87e-03	0	44	102	1048576	21	5119
2026-01-24 23:58:50.53	179.54	9.75	-30.6	-33.4	10.7	3.42e-03	0	44	102	1048576	21	4966
2026-01-24 23:58:51.54	179.58	9.66	-29.6	-32.2	10.9	2.59e-03	0	44	102	1048576	21	4893
2026-01-24 23:58:52.55	179.63	9.58	-30.6	-33.4	10.7	2.82e-03	0	44	102	1048576	21	4942
2026-01-24 23:58:53.56	179.68	9.50	-30.5	-33.1	10.9	3.07e-03	0	44	102	1048576	21	4862
2026-01-24 23:58:54.56	179.72	9.41	-30.4	-33.2	11.2	1.73e-03	0	44	102	1048576	20	4990
2026-01-24 23:58:55.57	179.77	9.33	-30.4	-33.3	11.1	1.36e-03	0	44	102	1048576	20	5018
2026-01-24 23:58:56.57	179.81	9.25	-30.4	-33.2	11.2	1.48e-03	0	44	102	1048576	20	4999
2026-01-24 23:58:57.56	179.85	9.17	-30.3	-32.9	11.4	1.01e-03	0	44	102	1048576	20	4862
2026-01-24 23:58:58.57	179.90	9.08	-30.4	-33.1	11.3	1.28e-03	0	44	102	1048576	20	4948
2026-01-24 23:58:59.58	179.94	9.00	-30.4	-33.1	11.2	1.55e-03	0	44	102	1048576	20	4956
2026-01-24 23:59:00.57	179.99	8.92	-30.2	-32.8	11.5	1.12e-03	0	44	102	1048576	20	4821
2026-01-24 23:59:01.58	180.03	8.84	-30.4	-33.1	11.2	1.31e-03	0	44	102	1048576	20	4955
2026-01-24 23:59:02.59	180.07	8.76	-30.5	-33.5	10.9	2.35e-03	0	44	102	1048576	20	5097
2026-01-24 23:59:03.59	180.12	8.68	-30.3	-33.1	11.3	1.73e-03	0	44	102	1048576	20	4928
2026-01-24 23:59:04.59	180.16	8.60	-30.1	-32.4	11.7	1.08e-03	0	44	102	1048576	20	4697
