passes_logs/2026/01/24/R2M6_AANII_01/R2M6_AANII_01__20260124_002654_NOAA_20_JPSS-1_rec.log

#Pass ID: 20260124_002654_NOAA 20 (JPSS-1)
#Satellite: NOAA 20 (JPSS-1)
#Configuration: NOAA 20
#almurnet v.1.7.20240730
#Start time: 2026-01-24 00:26:54

#Version: 2.2.20231116
#Station: R2M6_AANII_01
#Location: 30.233357 lon 59.946436 lat
#TLE: 1 43013U 17073A   26022.94240312  .00000200  00000+0  11574-3 0  9998
#TLE: 2 43013  98.7645 323.7982 0001179  28.0279 332.0961 14.19539020423863

#Time	Az	El	Level	Level2	SNR	BER	BlckErr	Temp	State	Recorded	gain1	gain2
2026-01-24 00:26:54.95	17.61	7.05	-32.4	-40.9	4.4	1.39e+00	0	41	0	0	24	9611
2026-01-24 00:26:55.96	17.61	7.12	-32.6	-42.1	4.1	1.45e+00	0	41	104	0	25	10767
2026-01-24 00:26:56.96	17.61	7.20	-32.5	-41.2	5.2	6.99e-01	0	42	0	0	25	9760
2026-01-24 00:26:57.97	17.60	7.28	-32.6	-41.8	5.0	6.71e-01	0	41	102	1048576	25	10330
2026-01-24 00:26:58.98	17.60	7.36	-31.8	-40.5	5.2	6.47e-01	0	42	102	1048576	25	9743
2026-01-24 00:26:59.98	17.60	7.43	-31.2	-39.3	5.7	5.04e-01	0	41	102	1048576	24	9102
2026-01-24 00:27:00.98	17.60	7.51	-32.3	-40.2	6.2	3.50e-01	0	42	102	1048576	24	8854
2026-01-24 00:27:01.98	17.60	7.59	-32.3	-39.5	6.6	2.17e-01	0	42	102	1048576	24	8319
2026-01-24 00:27:02.98	17.59	7.67	-32.1	-38.9	7.1	1.63e-01	0	42	102	1048576	24	7807
2026-01-24 00:27:03.98	17.59	7.75	-32.1	-38.4	7.6	1.18e-01	0	42	102	1048576	24	7462
2026-01-24 00:27:04.99	17.59	7.83	-32.0	-38.4	7.9	7.55e-02	0	42	102	1048576	23	7573
2026-01-24 00:27:05.99	17.59	7.91	-32.0	-38.5	8.0	7.03e-02	0	42	102	1048576	23	7593
2026-01-24 00:27:07.00	17.59	7.99	-32.0	-38.4	8.0	6.85e-02	0	42	102	1048576	23	7586
2026-01-24 00:27:08.00	17.58	8.07	-31.9	-38.2	8.2	7.13e-02	0	42	102	1048576	23	7442
2026-01-24 00:27:09.00	17.58	8.15	-31.8	-37.6	8.6	4.80e-02	0	42	102	1048576	23	7048
2026-01-24 00:27:10.01	17.58	8.23	-31.8	-37.8	8.5	3.97e-02	0	42	102	1048576	23	7155
2026-01-24 00:27:11.01	17.58	8.31	-32.0	-38.3	8.2	4.97e-02	0	42	102	1048576	23	7459
2026-01-24 00:27:12.01	17.58	8.39	-31.9	-37.9	8.5	5.29e-02	0	42	102	1048576	23	7196
2026-01-24 00:27:13.01	17.57	8.47	-31.7	-37.4	8.9	4.08e-02	0	42	102	1048576	23	6878
2026-01-24 00:27:14.02	17.57	8.56	-31.6	-37.0	9.2	2.38e-02	0	42	102	1048576	23	6643
2026-01-24 00:27:15.02	17.57	8.64	-31.6	-36.6	9.5	1.72e-02	0	42	102	1048576	23	6441
2026-01-24 00:27:16.02	17.57	8.72	-31.5	-36.4	9.7	1.51e-02	0	42	102	1048576	23	6334
2026-01-24 00:27:17.03	17.56	8.80	-31.5	-36.5	9.6	1.20e-02	0	42	102	1048576	23	6398
2026-01-24 00:27:18.03	17.56	8.89	-31.6	-36.6	9.5	1.65e-02	0	42	102	1048576	23	6448
2026-01-24 00:27:19.04	17.56	8.97	-31.7	-37.1	9.2	2.09e-02	0	42	102	1048576	23	6715
2026-01-24 00:27:20.04	17.56	9.05	-31.6	-36.6	9.5	1.75e-02	0	42	102	1048576	23	6440
2026-01-24 00:27:21.05	17.55	9.14	-31.5	-36.3	9.8	1.57e-02	0	42	102	1048576	23	6260
2026-01-24 00:27:22.05	17.55	9.22	-31.5	-36.2	9.9	8.74e-03	0	42	102	1048576	23	6218
2026-01-24 00:27:23.06	17.55	9.30	-31.5	-36.7	9.9	1.04e-02	0	42	102	1048576	22	6554
2026-01-24 00:27:24.06	17.55	9.39	-31.5	-36.2	10.0	1.20e-02	0	42	102	1048576	23	6173
2026-01-24 00:27:25.07	17.54	9.47	-31.5	-36.6	10.0	8.22e-03	0	43	102	1048576	22	6534
2026-01-24 00:27:26.07	17.54	9.56	-31.5	-36.4	9.8	1.16e-02	0	43	102	1048576	23	6290
2026-01-24 00:27:27.08	17.54	9.64	-31.6	-36.6	9.6	1.32e-02	0	43	102	1048576	23	6403
2026-01-24 00:27:28.08	17.53	9.73	-31.7	-37.0	9.4	1.53e-02	0	43	102	1048576	23	6605
2026-01-24 00:27:29.08	17.53	9.82	-31.6	-36.6	9.6	1.57e-02	0	43	102	1048576	23	6412
2026-01-24 00:27:30.08	17.53	9.90	-31.7	-36.9	9.5	1.73e-02	0	43	102	1048576	23	6543
2026-01-24 00:27:31.09	17.53	9.99	-31.7	-37.0	9.3	1.95e-02	0	43	102	1048576	23	6638
2026-01-24 00:27:32.10	17.52	10.08	-31.7	-36.9	9.4	1.76e-02	0	42	102	1048576	23	6577
2026-01-24 00:27:33.10	17.52	10.16	-31.7	-36.8	9.6	1.59e-02	0	43	102	1048576	23	6483
2026-01-24 00:27:34.10	17.52	10.25	-31.7	-36.7	9.6	1.51e-02	0	43	102	1048576	23	6456
2026-01-24 00:27:35.10	17.51	10.34	-31.7	-36.8	9.6	1.58e-02	0	42	102	1048576	23	6473
2026-01-24 00:27:36.11	17.51	10.43	-31.6	-36.6	9.7	1.36e-02	0	43	102	1048576	23	6395
2026-01-24 00:27:37.11	17.51	10.52	-31.8	-37.1	9.3	1.43e-02	0	43	102	1048576	23	6654
2026-01-24 00:27:38.11	17.50	10.60	-31.7	-36.9	9.5	1.65e-02	0	43	102	1048576	23	6541
2026-01-24 00:27:39.12	17.50	10.69	-31.8	-37.1	9.4	1.82e-02	0	43	102	1048576	23	6659
2026-01-24 00:27:40.12	17.50	10.78	-31.7	-36.7	9.7	1.29e-02	0	43	102	1048576	23	6438
2026-01-24 00:27:41.12	17.49	10.87	-31.5	-36.2	10.1	1.31e-02	0	43	102	1048576	23	6165
2026-01-24 00:27:42.12	17.49	10.96	-31.4	-36.2	10.5	6.96e-03	0	43	102	1048576	22	6263
2026-01-24 00:27:43.13	17.49	11.05	-31.5	-36.5	10.2	5.48e-03	0	43	102	1048576	22	6451
2026-01-24 00:27:44.14	17.48	11.14	-31.5	-36.5	10.2	7.93e-03	0	43	102	1048576	22	6428
2026-01-24 00:27:45.14	17.48	11.23	-31.6	-36.6	9.8	8.88e-03	0	43	102	1048576	23	6376
2026-01-24 00:27:46.15	17.48	11.33	-31.7	-36.9	9.5	1.38e-02	0	43	102	1048576	23	6564
2026-01-24 00:27:47.15	17.47	11.42	-31.6	-36.3	10.0	1.23e-02	0	43	102	1048576	23	6236
2026-01-24 00:27:48.14	17.47	11.51	-31.4	-35.9	10.3	1.14e-02	0	43	102	1048576	23	6013
2026-01-24 00:27:49.15	17.46	11.60	-31.4	-36.0	10.6	3.88e-03	0	43	102	1048576	22	6181
2026-01-24 00:27:50.15	17.46	11.69	-31.4	-36.2	10.5	5.72e-03	0	43	102	1048576	22	6274
2026-01-24 00:27:51.16	17.46	11.79	-31.5	-36.1	10.2	6.92e-03	0	43	102	1048576	23	6082
2026-01-24 00:27:52.16	17.45	11.88	-31.4	-36.2	10.5	4.20e-03	0	43	102	1048576	22	6259
2026-01-24 00:27:53.16	17.45	11.98	-31.3	-35.9	10.7	4.96e-03	0	43	102	1048576	22	6095
2026-01-24 00:27:54.17	17.44	12.07	-31.2	-35.4	11.1	3.85e-03	0	43	102	1048576	22	5854
2026-01-24 00:27:55.17	17.44	12.16	-31.1	-35.1	11.3	1.14e-03	0	43	102	1048576	22	5741
2026-01-24 00:27:56.17	17.44	12.26	-31.0	-34.9	11.5	1.03e-03	0	43	102	1048576	22	5654
2026-01-24 00:27:57.18	17.43	12.35	-31.0	-34.9	11.5	2.60e-03	0	43	102	1048576	22	5623
2026-01-24 00:27:58.18	17.43	12.45	-31.0	-35.2	11.6	7.39e-04	0	43	102	1048576	21	5889
2026-01-24 00:27:59.19	17.42	12.55	-31.1	-35.3	11.2	1.09e-03	0	43	102	1048576	22	5816
2026-01-24 00:28:00.19	17.42	12.64	-31.3	-35.7	10.9	3.71e-03	0	43	102	1048576	22	5991
2026-01-24 00:28:01.19	17.41	12.74	-31.1	-35.1	11.4	1.49e-03	0	43	102	1048576	22	5720
2026-01-24 00:28:02.20	17.41	12.84	-30.9	-35.2	11.7	5.99e-04	0	43	102	1048576	21	5854
2026-01-24 00:28:03.21	17.40	12.94	-31.1	-35.2	10.6	8.27e-04	0	43	102	1048576	22	5750
2026-01-24 00:28:04.21	17.40	13.03	-31.2	-35.3	11.1	1.33e-03	0	43	102	1048576	22	5829
2026-01-24 00:28:05.22	17.40	13.13	-31.0	-34.9	11.2	3.59e-03	0	43	102	1048576	22	5631
2026-01-24 00:28:06.22	17.39	13.23	-31.0	-35.4	11.5	7.35e-04	0	43	102	1048576	21	5945
2026-01-24 00:28:07.23	17.39	13.33	-31.1	-35.0	11.4	8.33e-04	0	43	102	1048576	22	5688
2026-01-24 00:28:08.22	17.38	13.43	-31.2	-35.3	11.3	2.78e-03	0	43	102	1048576	22	5804
2026-01-24 00:28:09.23	17.38	13.53	-31.2	-35.6	11.1	1.54e-03	0	43	102	1048576	22	5926
2026-01-24 00:28:10.23	17.37	13.63	-31.2	-35.3	11.3	1.32e-03	0	43	102	1048576	22	5809
2026-01-24 00:28:11.23	17.37	13.73	-31.2	-35.5	11.2	3.13e-03	0	43	102	1048576	22	5880
2026-01-24 00:28:12.23	17.36	13.83	-31.1	-35.0	11.5	3.61e-03	0	43	102	1048576	22	5669
2026-01-24 00:28:13.23	17.36	13.93	-30.9	-35.1	11.8	5.19e-04	0	43	102	1048576	21	5815
2026-01-24 00:28:14.24	17.35	14.04	-31.0	-35.2	11.7	5.04e-04	0	43	102	1048576	21	5877
2026-01-24 00:28:15.24	17.34	14.14	-30.9	-35.1	11.8	2.24e-03	0	43	102	1048576	21	5815
2026-01-24 00:28:16.25	17.34	14.24	-31.1	-34.9	11.6	8.40e-04	0	43	102	1048576	22	5617
2026-01-24 00:28:17.25	17.33	14.34	-31.0	-34.9	11.7	5.80e-04	0	43	102	1048576	22	5598
2026-01-24 00:28:18.26	17.33	14.45	-31.1	-35.0	11.5	7.21e-04	0	43	102	1048576	22	5671
2026-01-24 00:28:19.27	17.32	14.55	-31.0	-34.8	11.8	8.43e-04	0	43	102	1048576	22	5541
2026-01-24 00:28:20.27	17.32	14.66	-30.9	-34.9	12.0	3.57e-04	0	43	102	1048576	21	5713
2026-01-24 00:28:21.28	17.31	14.76	-30.9	-35.1	11.9	3.39e-04	0	43	102	1048576	21	5800
2026-01-24 00:28:22.29	17.31	14.87	-31.1	-35.1	11.5	9.90e-04	0	43	102	1048576	22	5706
2026-01-24 00:28:23.30	17.30	14.98	-31.2	-35.5	11.3	4.04e-03	0	43	102	1048576	22	5860
2026-01-24 00:28:24.30	17.29	15.08	-31.1	-35.1	11.5	9.14e-04	0	43	102	1048576	22	5707
2026-01-24 00:28:25.31	17.29	15.19	-31.2	-35.2	11.5	1.05e-03	0	43	102	1048576	22	5743
2026-01-24 00:28:26.31	17.28	15.30	-31.1	-35.1	11.6	3.49e-03	0	43	102	1048576	22	5678
2026-01-24 00:28:27.31	17.28	15.41	-31.1	-34.9	11.7	5.96e-04	0	43	102	1048576	22	5614
2026-01-24 00:28:28.31	17.27	15.52	-31.0	-34.7	11.8	4.87e-04	0	43	102	1048576	22	5536
2026-01-24 00:28:29.31	17.26	15.62	-31.0	-34.9	11.8	3.12e-03	0	43	102	1048576	22	5582
2026-01-24 00:28:30.32	17.26	15.73	-31.0	-34.7	11.9	3.32e-03	0	43	102	1048576	22	5506
2026-01-24 00:28:31.32	17.25	15.84	-30.8	-34.7	12.1	3.34e-04	0	43	102	1048576	21	5635
2026-01-24 00:28:32.32	17.24	15.95	-30.7	-34.5	11.9	2.90e-03	0	43	102	1048576	21	5523
2026-01-24 00:28:33.32	17.24	16.06	-30.8	-34.5	12.3	2.83e-03	0	43	102	1048576	21	5540
2026-01-24 00:28:34.32	17.23	16.18	-30.6	-34.1	12.0	4.00e-04	0	43	102	1048576	21	5380
2026-01-24 00:28:35.32	17.22	16.29	-30.5	-33.8	12.7	7.93e-05	0	43	102	1048576	21	5248
2026-01-24 00:28:36.33	17.22	16.40	-30.4	-34.0	13.0	2.47e-03	0	43	102	1048576	20	5445
2026-01-24 00:28:37.34	17.21	16.51	-30.4	-33.8	13.1	2.54e-04	0	43	102	1048576	20	5370
2026-01-24 00:28:38.35	17.20	16.63	-30.4	-33.8	13.1	3.50e-05	0	43	102	1048576	20	5366
2026-01-24 00:28:39.35	17.20	16.74	-30.4	-34.0	13.0	2.61e-03	0	43	102	1048576	20	5441
2026-01-24 00:28:40.36	17.19	16.86	-30.6	-34.1	12.7	3.04e-04	0	43	102	1048576	21	5355
2026-01-24 00:28:41.37	17.18	16.97	-30.6	-34.1	12.6	2.78e-03	0	43	102	1048576	21	5366
2026-01-24 00:28:42.37	17.17	17.09	-30.4	-34.0	13.0	2.57e-03	0	43	102	1048576	20	5455
2026-01-24 00:28:43.38	17.17	17.21	-30.3	-33.8	13.2	2.77e-04	0	43	102	1048576	20	5339
2026-01-24 00:28:44.38	17.16	17.32	-30.5	-34.1	13.0	2.58e-03	0	43	102	1048576	20	5492
2026-01-24 00:28:45.38	17.15	17.44	-30.5	-34.1	13.0	2.36e-03	0	43	102	1048576	20	5484
2026-01-24 00:28:46.38	17.14	17.56	-30.5	-33.8	12.9	2.09e-03	0	43	102	1048576	21	5236
2026-01-24 00:28:47.39	17.13	17.68	-30.6	-33.9	12.8	2.46e-03	0	43	102	1048576	21	5301
2026-01-24 00:28:48.39	17.13	17.80	-30.6	-33.9	12.8	2.64e-03	0	43	102	1048576	21	5276
2026-01-24 00:28:49.39	17.12	17.92	-30.7	-34.2	12.6	2.17e-03	0	43	102	1048576	21	5406
2026-01-24 00:28:50.39	17.11	18.04	-30.8	-34.5	12.4	4.63e-03	0	44	102	1048576	21	5513
2026-01-24 00:28:51.40	17.10	18.16	-30.7	-34.3	12.6	2.62e-03	0	43	102	1048576	21	5431
2026-01-24 00:28:52.41	17.09	18.28	-30.7	-34.3	12.5	2.00e-03	0	43	102	1048576	21	5447
2026-01-24 00:28:53.41	17.09	18.40	-30.5	-33.7	13.0	4.43e-03	0	43	102	1048576	21	5195
2026-01-24 00:28:54.42	17.08	18.52	-30.3	-33.8	13.3	2.33e-03	0	43	102	1048576	20	5336
2026-01-24 00:28:55.43	17.07	18.65	-30.3	-33.7	13.4	2.61e-04	0	44	102	1048576	20	5296
2026-01-24 00:28:56.43	17.06	18.77	-30.4	-33.9	13.2	3.34e-03	0	43	102	1048576	20	5400
2026-01-24 00:28:57.43	17.05	18.90	-30.5	-33.8	12.9	2.59e-03	0	43	102	1048576	21	5251
2026-01-24 00:28:58.43	17.04	19.02	-30.7	-34.3	12.6	3.07e-04	0	44	102	1048576	21	5442
2026-01-24 00:28:59.44	17.03	19.15	-30.8	-34.5	12.5	2.14e-03	0	44	102	1048576	21	5525
2026-01-24 00:29:00.44	17.02	19.27	-30.6	-34.0	12.8	2.55e-03	0	43	102	1048576	21	5333
2026-01-24 00:29:01.44	17.01	19.40	-30.4	-33.5	13.1	2.19e-03	0	44	102	1048576	21	5118
2026-01-24 00:29:02.44	17.00	19.53	-30.3	-33.5	13.5	2.44e-03	0	44	102	1048576	20	5229
2026-01-24 00:29:03.44	17.00	19.66	-30.2	-33.4	13.6	1.06e-05	0	43	102	1048576	20	5172
2026-01-24 00:29:04.44	16.99	19.78	-30.2	-33.4	13.6	2.04e-03	0	43	102	1048576	20	5174
2026-01-24 00:29:05.44	16.98	19.91	-30.1	-33.0	13.9	2.42e-03	0	44	102	1048576	20	5039
2026-01-24 00:29:06.44	16.97	20.04	-30.0	-32.8	13.9	4.50e-06	0	44	102	1048576	20	4969
2026-01-24 00:29:07.44	16.96	20.17	-30.0	-32.8	14.0	2.07e-03	0	44	102	1048576	20	4966
2026-01-24 00:29:08.45	16.95	20.31	-30.0	-32.8	13.9	4.29e-03	0	43	102	1048576	20	4977
2026-01-24 00:29:09.46	16.94	20.44	-30.1	-32.9	13.9	4.50e-06	0	44	102	1048576	20	5005
2026-01-24 00:29:10.46	16.93	20.57	-30.0	-32.8	14.0	1.79e-03	0	44	102	1048576	20	4955
2026-01-24 00:29:11.46	16.92	20.71	-30.0	-32.8	14.0	4.13e-03	0	44	102	1048576	20	4976
2026-01-24 00:29:12.47	16.90	20.84	-30.0	-32.7	14.1	2.09e-03	0	44	102	1048576	20	4935
2026-01-24 00:29:13.47	16.89	20.98	-29.9	-32.9	14.3	1.80e-03	0	43	102	1048576	19	5113
2026-01-24 00:29:14.48	16.88	21.11	-29.9	-32.9	14.3	1.80e-03	0	43	102	1048576	19	5112
2026-01-24 00:29:15.48	16.87	21.25	-29.9	-33.0	14.2	2.36e-03	0	44	102	1048576	19	5138
2026-01-24 00:29:16.49	16.86	21.39	-29.9	-33.1	14.2	1.14e-05	0	44	102	1048576	19	5148
2026-01-24 00:29:17.49	16.85	21.53	-30.0	-33.2	14.2	1.75e-03	0	44	102	1048576	19	5194
2026-01-24 00:29:18.50	16.84	21.67	-29.9	-32.4	14.3	2.32e-03	0	44	102	1048576	20	4816
2026-01-24 00:29:19.50	16.83	21.81	-29.9	-32.9	14.3	7.00e-07	0	44	102	1048576	19	5099
2026-01-24 00:29:20.51	16.81	21.95	-29.9	-32.9	14.3	1.68e-03	0	43	102	1048576	19	5104
2026-01-24 00:29:21.50	16.80	22.09	-29.9	-32.9	14.3	0.00e+00	0	44	102	1048576	19	5101
2026-01-24 00:29:22.51	16.79	22.23	-30.0	-33.2	14.2	1.84e-03	0	44	102	1048576	19	5179
2026-01-24 00:29:23.51	16.78	22.37	-30.0	-32.9	14.0	6.10e-06	0	44	102	1048576	20	4981
2026-01-24 00:29:24.51	16.77	22.52	-30.2	-33.1	13.8	3.00e-06	0	43	102	1048576	20	5073
2026-01-24 00:29:25.52	16.75	22.66	-30.2	-33.2	13.7	1.51e-03	0	44	102	1048576	20	5108
2026-01-24 00:29:26.52	16.74	22.81	-30.1	-33.0	13.9	3.00e-06	0	44	102	1048576	20	5041
2026-01-24 00:29:27.52	16.73	22.95	-30.3	-33.5	13.6	3.80e-06	0	44	102	1048576	20	5211
2026-01-24 00:29:28.53	16.72	23.10	-30.3	-33.6	13.5	1.52e-03	0	43	102	1048576	20	5267
2026-01-24 00:29:29.54	16.70	23.25	-30.3	-33.6	13.6	3.84e-03	0	44	102	1048576	20	5238
2026-01-24 00:29:30.54	16.69	23.40	-30.3	-33.6	13.6	1.60e-05	0	44	102	1048576	20	5252
2026-01-24 00:29:31.55	16.68	23.55	-30.1	-33.1	13.9	1.43e-03	0	44	102	1048576	20	5056
2026-01-24 00:29:32.55	16.66	23.70	-30.0	-32.8	14.1	1.44e-03	0	44	102	1048576	20	4949
2026-01-24 00:29:33.55	16.65	23.85	-30.0	-32.8	14.1	7.00e-07	0	44	102	1048576	20	4960
2026-01-24 00:29:34.55	16.64	24.00	-30.1	-32.9	14.1	1.50e-06	0	44	102	1048576	20	4975
2026-01-24 00:29:35.55	16.62	24.16	-30.2	-33.2	13.9	1.49e-03	0	44	102	1048576	20	5076
2026-01-24 00:29:36.56	16.61	24.31	-30.2	-33.3	13.8	6.10e-06	0	44	102	1048576	20	5131
2026-01-24 00:29:37.56	16.59	24.47	-30.1	-32.8	14.1	2.20e-06	0	44	102	1048576	20	4956
2026-01-24 00:29:38.56	16.58	24.62	-30.1	-32.8	14.1	1.50e-06	0	44	102	1048576	20	4954
2026-01-24 00:29:39.56	16.56	24.78	-30.2	-33.3	13.8	3.00e-06	0	44	102	1048576	20	5138
2026-01-24 00:29:40.56	16.55	24.94	-30.3	-33.4	13.8	6.10e-06	0	44	102	1048576	20	5158
2026-01-24 00:29:41.57	16.53	25.10	-30.2	-33.1	13.9	6.10e-06	0	44	102	1048576	20	5066
2026-01-24 00:29:42.57	16.52	25.25	-30.2	-33.2	13.9	5.30e-06	0	44	102	1048576	20	5079
2026-01-24 00:29:43.58	16.50	25.42	-30.3	-33.4	13.7	7.60e-06	0	44	102	1048576	20	5172
2026-01-24 00:29:44.59	16.49	25.58	-29.6	-32.9	13.6	7.60e-06	0	44	102	1048576	20	5280
2026-01-24 00:29:45.59	16.47	25.74	-30.3	-33.6	13.6	8.30e-06	0	43	102	1048576	20	5243
2026-01-24 00:29:46.59	16.45	25.90	-30.5	-34.0	12.5	2.29e-03	0	44	102	1048576	20	5407
2026-01-24 00:29:47.60	16.44	26.07	-30.5	-33.6	12.2	2.28e-05	0	44	102	1048576	21	5142
2026-01-24 00:29:48.59	16.42	26.23	-30.4	-33.3	13.4	6.80e-06	0	44	102	1048576	21	5028
2026-01-24 00:29:49.60	16.41	26.40	-30.5	-33.6	13.2	9.10e-06	0	44	102	1048576	21	5111
2026-01-24 00:29:50.61	16.39	26.57	-30.7	-34.1	13.0	2.51e-05	0	44	102	1048576	21	5308
2026-01-24 00:29:51.61	16.37	26.74	-30.8	-34.2	12.9	4.50e-05	0	44	102	1048576	21	5366
2026-01-24 00:29:52.62	16.35	26.91	-30.8	-34.2	12.9	3.58e-05	0	44	102	1048576	21	5354
2026-01-24 00:29:53.62	16.34	27.08	-30.7	-34.1	13.0	2.36e-03	0	44	102	1048576	21	5330
2026-01-24 00:29:54.63	16.32	27.25	-30.9	-34.6	12.7	4.88e-05	0	44	102	1048576	21	5497
2026-01-24 00:29:55.63	16.30	27.43	-30.9	-34.7	12.5	9.15e-05	0	44	102	1048576	21	5575
2026-01-24 00:29:56.64	16.28	27.60	-30.9	-34.6	12.7	2.18e-03	0	44	102	1048576	21	5506
2026-01-24 00:29:57.64	16.26	27.78	-30.9	-34.6	12.7	8.39e-05	0	44	102	1048576	21	5494
2026-01-24 00:29:58.65	16.24	27.95	-31.1	-34.5	12.5	1.42e-04	0	44	102	1048576	22	5370
2026-01-24 00:29:59.65	16.22	28.13	-31.2	-35.0	12.2	1.66e-04	0	44	102	1048576	22	5548
2026-01-24 00:30:00.66	16.20	28.31	-31.3	-35.2	11.9	3.25e-04	0	44	102	1048576	22	5651
2026-01-24 00:30:01.66	16.19	28.49	-31.4	-35.5	11.7	4.55e-04	0	44	102	1048576	22	5801
2026-01-24 00:30:02.66	16.17	28.67	-31.6	-35.8	11.2	6.96e-04	0	44	102	1048576	23	5814
2026-01-24 00:30:03.67	16.15	28.85	-31.7	-36.0	11.1	1.82e-03	0	44	102	1048576	23	5912
2026-01-24 00:30:04.68	16.12	29.04	-31.8	-36.3	10.8	4.02e-03	0	44	102	1048576	23	6063
2026-01-24 00:30:05.68	16.10	29.22	-31.8	-36.3	10.9	3.03e-03	0	44	102	1048576	23	6048
2026-01-24 00:30:06.69	16.08	29.41	-31.8	-36.5	10.7	4.35e-03	0	44	102	1048576	23	6131
2026-01-24 00:30:07.69	16.06	29.60	-31.9	-36.7	10.6	4.91e-03	0	44	102	1048576	23	6242
2026-01-24 00:30:08.69	16.04	29.79	-31.9	-36.8	10.5	4.05e-03	0	44	102	1048576	23	6293
2026-01-24 00:30:09.69	16.02	29.97	-32.0	-36.9	10.4	4.83e-03	0	44	102	1048576	23	6335
2026-01-24 00:30:10.70	16.00	30.17	-32.0	-36.5	10.4	8.24e-03	0	44	102	1048576	24	6062
2026-01-24 00:30:11.70	15.97	30.36	-32.1	-36.9	10.1	7.41e-03	0	44	102	1048576	24	6236
2026-01-24 00:30:12.71	15.95	30.55	-32.1	-36.7	10.2	7.26e-03	0	44	102	1048576	24	6123
2026-01-24 00:30:13.71	15.93	30.75	-32.0	-36.8	10.5	7.29e-03	0	44	102	1048576	23	6315
2026-01-24 00:30:14.71	15.90	30.94	-32.0	-36.4	10.5	6.25e-03	0	44	102	1048576	24	5980
2026-01-24 00:30:15.72	15.88	31.14	-32.0	-36.9	10.5	4.36e-03	0	44	102	1048576	23	6355
2026-01-24 00:30:16.72	15.86	31.34	-32.0	-36.8	10.5	6.73e-03	0	44	102	1048576	23	6300
2026-01-24 00:30:17.73	15.83	31.54	-32.0	-36.6	10.3	6.80e-03	0	44	102	1048576	24	6080
2026-01-24 00:30:18.74	15.81	31.74	-32.1	-36.9	10.2	6.12e-03	0	44	102	1048576	24	6234
2026-01-24 00:30:19.74	15.78	31.95	-32.1	-36.7	10.2	7.23e-03	0	44	102	1048576	24	6145
2026-01-24 00:30:20.75	15.75	32.15	-32.0	-36.5	10.4	6.68e-03	0	44	102	1048576	24	6054
2026-01-24 00:30:21.76	15.73	32.36	-31.9	-36.7	10.6	4.65e-03	0	44	102	1048576	23	6258
2026-01-24 00:30:22.76	15.70	32.56	-31.8	-36.4	10.9	4.30e-03	0	44	102	1048576	23	6074
2026-01-24 00:30:23.77	15.68	32.77	-31.8	-36.4	10.8	3.85e-03	0	44	102	1048576	23	6094
2026-01-24 00:30:24.78	15.65	32.99	-31.9	-36.5	10.8	3.88e-03	0	44	102	1048576	23	6130
2026-01-24 00:30:25.77	15.62	33.20	-32.0	-36.8	10.6	4.95e-03	0	44	102	1048576	23	6260
2026-01-24 00:30:26.77	15.59	33.41	-31.7	-35.9	11.2	2.19e-03	0	44	102	1048576	23	5860
2026-01-24 00:30:27.77	15.56	33.62	-31.4	-35.1	11.8	2.32e-03	0	44	102	1048576	23	5493
2026-01-24 00:30:28.77	15.54	33.84	-31.2	-34.9	12.3	3.64e-03	0	44	102	1048576	22	5509
2026-01-24 00:30:29.77	15.51	34.05	-31.1	-34.5	12.6	1.77e-03	0	44	102	1048576	22	5341
2026-01-24 00:30:30.77	15.48	34.27	-30.9	-34.5	12.9	1.53e-03	0	44	102	1048576	21	5471
2026-01-24 00:30:31.77	15.45	34.49	-30.8	-34.1	13.1	2.95e-03	0	44	102	1048576	21	5303
2026-01-24 00:30:32.78	15.42	34.71	-30.6	-33.8	13.4	1.44e-03	0	44	102	1048576	21	5169
2026-01-24 00:30:33.79	15.38	34.94	-30.6	-33.8	13.3	1.47e-03	0	44	102	1048576	21	5185
2026-01-24 00:30:34.79	15.35	35.16	-30.7	-33.9	13.3	2.85e-03	0	44	102	1048576	21	5236
2026-01-24 00:30:35.80	15.32	35.39	-30.5	-33.4	13.6	1.59e-03	0	44	102	1048576	21	5021
2026-01-24 00:30:36.80	15.29	35.62	-30.1	-32.8	14.3	1.27e-03	0	44	102	1048576	20	4944
2026-01-24 00:30:37.80	15.26	35.85	-29.8	-32.6	14.8	1.22e-03	0	44	102	1048576	19	4963
2026-01-24 00:30:38.80	15.22	36.08	-29.6	-32.1	15.1	1.40e-03	0	44	102	1048576	19	4788
2026-01-24 00:30:39.81	15.19	36.32	-29.5	-31.7	15.4	1.23e-03	0	44	102	1048576	19	4647
2026-01-24 00:30:40.81	15.15	36.55	-29.3	-31.9	15.6	1.23e-03	0	44	102	1048576	18	4838
2026-01-24 00:30:41.82	15.12	36.79	-29.3	-31.7	15.7	1.27e-03	0	44	102	1048576	18	4773
2026-01-24 00:30:42.82	15.08	37.03	-29.3	-31.7	15.6	1.30e-03	0	44	102	1048576	18	4785
2026-01-24 00:30:43.83	15.04	37.27	-29.3	-31.9	15.6	0.00e+00	0	44	102	1048576	18	4835
2026-01-24 00:30:44.83	15.01	37.51	-29.3	-31.8	15.7	0.00e+00	0	44	102	1048576	18	4797
2026-01-24 00:30:45.83	14.97	37.75	-29.2	-31.6	15.8	1.30e-03	0	44	102	1048576	18	4726
2026-01-24 00:30:46.84	14.93	38.00	-29.3	-31.9	15.6	2.41e-03	0	44	102	1048576	18	4818
2026-01-24 00:30:47.84	14.89	38.25	-29.3	-31.8	15.6	0.00e+00	0	44	102	1048576	18	4808
2026-01-24 00:30:48.84	14.85	38.50	-29.3	-31.9	15.6	1.30e-03	0	44	102	1048576	18	4835
2026-01-24 00:30:49.85	14.81	38.75	-29.4	-32.1	15.5	1.98e-03	0	44	102	1048576	18	4894
2026-01-24 00:30:50.85	14.77	39.00	-29.5	-31.9	15.3	0.00e+00	0	44	102	1048576	19	4716
2026-01-24 00:30:51.85	14.73	39.25	-29.6	-31.9	15.2	1.42e-03	0	44	102	1048576	19	4728
2026-01-24 00:30:52.86	14.69	39.51	-29.7	-32.3	15.1	1.96e-03	0	44	102	1048576	19	4834
2026-01-24 00:30:53.85	14.65	39.77	-29.8	-32.5	14.9	0.00e+00	0	44	102	1048576	19	4934
2026-01-24 00:30:54.85	14.60	40.03	-29.8	-32.5	14.9	0.00e+00	0	44	102	1048576	19	4931
2026-01-24 00:30:55.86	14.56	40.29	-29.8	-32.4	15.0	1.46e-03	0	44	102	1048576	19	4884
2026-01-24 00:30:56.87	14.51	40.56	-29.9	-32.8	14.7	3.50e-04	0	44	102	1048576	19	5017
2026-01-24 00:30:57.87	14.46	40.82	-29.9	-32.7	14.8	7.00e-07	0	44	102	1048576	19	4998
2026-01-24 00:30:58.87	14.42	41.09	-29.8	-32.6	14.8	1.49e-03	0	44	102	1048576	19	4947
2026-01-24 00:30:59.87	14.37	41.36	-30.0	-32.5	14.6	4.07e-04	0	44	102	1048576	20	4822
2026-01-24 00:31:00.88	14.32	41.63	-29.8	-32.1	14.8	0.00e+00	0	44	102	1048576	20	4682
2026-01-24 00:31:01.87	14.27	41.91	-29.9	-32.7	14.8	0.00e+00	0	44	102	1048576	19	4988
2026-01-24 00:31:02.88	14.22	42.18	-29.8	-32.6	14.9	0.00e+00	0	44	102	1048576	19	4933
2026-01-24 00:31:03.89	14.17	42.46	-29.9	-32.8	14.8	1.27e-03	0	44	102	1048576	19	5018
2026-01-24 00:31:04.89	14.12	42.74	-29.9	-32.8	14.8	0.00e+00	0	44	102	1048576	19	5017
2026-01-24 00:31:05.90	14.06	43.03	-30.0	-33.0	14.7	0.00e+00	0	44	102	1048576	19	5086
2026-01-24 00:31:06.91	14.01	43.31	-29.9	-32.2	14.7	1.05e-03	0	44	102	1048576	20	4720
2026-01-24 00:31:07.91	13.95	43.60	-30.0	-32.5	14.6	0.00e+00	0	44	102	1048576	20	4813
2026-01-24 00:31:08.92	13.89	43.89	-30.1	-32.8	14.4	7.00e-07	0	44	102	1048576	20	4910
2026-01-24 00:31:09.92	13.84	44.18	-30.2	-33.1	14.2	4.33e-04	0	44	102	1048576	20	5031
2026-01-24 00:31:10.92	13.78	44.47	-30.4	-33.6	13.8	6.80e-06	0	44	102	1048576	20	5222
2026-01-24 00:31:11.93	13.72	44.77	-30.8	-34.2	13.2	1.06e-05	0	44	102	1048576	21	5310
2026-01-24 00:31:12.93	13.66	45.07	-30.9	-34.5	13.0	2.82e-05	0	44	102	1048576	21	5437
2026-01-24 00:31:13.94	13.59	45.37	-31.2	-35.0	12.3	9.89e-04	0	44	102	1048576	22	5533
2026-01-24 00:31:14.93	13.53	45.67	-31.4	-35.3	12.1	1.69e-04	0	44	102	1048576	22	5683
2026-01-24 00:31:15.93	13.47	45.97	-31.4	-35.4	12.1	1.74e-04	0	44	102	1048576	22	5694
2026-01-24 00:31:16.93	13.40	46.28	-31.6	-35.4	11.7	3.56e-04	0	44	102	1048576	23	5603
2026-01-24 00:31:17.93	13.33	46.58	-31.8	-36.0	11.3	1.17e-03	0	44	102	1048576	23	5892
2026-01-24 00:31:18.94	13.26	46.90	-31.9	-36.4	11.0	1.66e-03	0	44	102	1048576	23	6057
2026-01-24 00:31:19.94	13.19	47.21	-32.0	-36.4	10.7	2.67e-03	0	44	102	1048576	24	5970
2026-01-24 00:31:20.94	13.12	47.52	-32.0	-36.4	10.6	3.70e-03	0	44	102	1048576	24	5948
2026-01-24 00:31:21.95	13.05	47.84	-32.0	-36.3	10.6	3.64e-03	0	44	102	1048576	24	5919
2026-01-24 00:31:22.95	12.97	48.16	-31.9	-35.9	11.0	2.53e-03	0	44	102	1048576	24	5725
2026-01-24 00:31:23.96	12.89	48.49	-31.7	-35.2	11.5	1.98e-03	0	44	102	1048576	24	5419
2026-01-24 00:31:24.97	12.81	48.81	-31.3	-34.6	12.2	2.62e-04	0	44	102	1048576	23	5279
2026-01-24 00:31:25.97	12.73	49.14	-31.3	-35.2	12.2	1.59e-04	0	44	102	1048576	22	5616
2026-01-24 00:31:26.98	12.65	49.47	-31.0	-34.2	12.9	9.46e-05	0	44	102	1048576	22	5199
2026-01-24 00:31:27.98	12.57	49.80	-30.8	-33.8	13.1	3.12e-05	0	44	102	1048576	22	5052
2026-01-24 00:31:28.98	12.48	50.14	-30.8	-34.3	13.1	4.19e-05	0	44	102	1048576	21	5377
2026-01-24 00:31:29.99	12.39	50.48	-30.4	-33.2	13.8	1.52e-05	0	44	102	1048576	21	4954
2026-01-24 00:31:31.00	12.30	50.82	-30.2	-33.0	14.3	3.00e-06	0	44	102	1048576	20	4978
2026-01-24 00:31:32.00	12.21	51.16	-29.9	-32.4	14.6	0.00e+00	0	44	102	1048576	20	4786
2026-01-24 00:31:33.00	12.11	51.50	-29.0	-31.2	14.8	0.00e+00	0	44	102	1048576	20	4607
2026-01-24 00:31:34.00	12.02	51.85	-29.6	-32.0	14.6	0.00e+00	0	44	102	1048576	19	4744
2026-01-24 00:31:35.00	11.92	52.19	-29.4	-31.5	15.5	0.00e+00	0	44	102	1048576	19	4600
2026-01-24 00:31:36.00	11.82	52.54	-29.4	-32.1	15.5	0.00e+00	0	44	102	1048576	18	4894
2026-01-24 00:31:37.01	11.71	52.90	-29.5	-31.9	15.3	0.00e+00	0	44	102	1048576	19	4733
2026-01-24 00:31:38.01	11.60	53.26	-29.4	-32.0	15.5	1.14e-04	0	44	102	1048576	18	4864
2026-01-24 00:31:39.02	11.49	53.62	-29.3	-31.7	15.7	0.00e+00	0	44	102	1048576	18	4768
2026-01-24 00:31:40.03	11.38	53.98	-29.2	-31.5	15.8	0.00e+00	0	44	102	1048576	18	4708
2026-01-24 00:31:41.04	11.26	54.35	-29.5	-32.2	15.4	0.00e+00	0	44	102	1048576	18	4924
2026-01-24 00:31:42.04	11.14	54.71	-29.5	-32.2	15.4	9.10e-06	0	44	102	1048576	18	4929
2026-01-24 00:31:43.04	11.02	55.08	-29.8	-32.4	15.0	0.00e+00	0	44	102	1048576	19	4900
2026-01-24 00:31:44.05	10.90	55.45	-29.7	-32.3	15.0	0.00e+00	0	44	102	1048576	19	4867
2026-01-24 00:31:45.06	10.77	55.83	-30.4	-33.7	13.8	4.32e-04	0	44	102	1048576	20	5240
2026-01-24 00:31:46.06	10.63	56.20	-30.6	-33.6	13.5	6.93e-04	0	44	102	1048576	21	5092
2026-01-24 00:31:47.06	10.50	56.58	-31.3	-35.0	12.3	3.58e-05	0	44	102	1048576	22	5545
2026-01-24 00:31:48.06	10.36	56.96	-31.5	-35.6	11.9	7.53e-04	0	44	102	1048576	22	5826
2026-01-24 00:31:49.07	10.21	57.34	-31.7	-35.9	11.4	1.67e-03	0	44	102	1048576	23	5812
2026-01-24 00:31:50.08	10.06	57.73	-31.9	-36.5	10.9	1.62e-03	0	44	102	1048576	23	6130
2026-01-24 00:31:51.07	9.91	58.12	-32.2	-37.1	10.0	4.57e-03	0	44	102	1048576	24	6344
2026-01-24 00:31:52.07	9.76	58.50	-32.3	-37.3	9.9	9.13e-03	0	44	102	1048576	24	6439
2026-01-24 00:31:53.08	9.59	58.90	-32.2	-37.1	10.1	8.95e-03	0	44	102	1048576	24	6309
2026-01-24 00:31:54.08	9.43	59.29	-32.0	-36.5	10.6	4.46e-03	0	44	102	1048576	24	5993
2026-01-24 00:31:55.09	9.25	59.69	-31.8	-36.2	11.0	3.49e-03	0	44	102	1048576	23	5974
2026-01-24 00:31:56.09	9.08	60.09	-31.2	-34.8	12.4	9.41e-04	0	44	102	1048576	22	5446
2026-01-24 00:31:57.10	8.89	60.50	-30.8	-33.8	13.2	5.79e-05	0	44	102	1048576	22	5046
2026-01-24 00:31:58.10	8.70	60.90	-30.5	-33.4	13.7	9.90e-06	0	44	102	1048576	21	5017
2026-01-24 00:31:59.10	8.51	61.31	-30.2	-32.7	14.2	2.14e-04	0	44	102	1048576	21	4782
2026-01-24 00:32:00.11	8.30	61.72	-30.1	-32.8	14.5	8.32e-04	0	44	102	1048576	20	4933
2026-01-24 00:32:01.11	8.09	62.13	-30.3	-33.3	14.2	0.00e+00	0	44	102	1048576	20	5087
2026-01-24 00:32:02.12	7.87	62.54	-30.5	-33.3	13.9	3.00e-06	0	44	102	1048576	21	4968
2026-01-24 00:32:03.12	7.65	62.96	-30.1	-32.7	14.5	9.47e-04	0	44	102	1048576	20	4901
2026-01-24 00:32:04.13	7.41	63.38	-29.8	-32.1	14.9	9.59e-04	0	44	102	1048576	20	4677
2026-01-24 00:32:05.13	7.17	63.79	-29.6	-31.7	15.2	0.00e+00	0	44	102	1048576	20	4539
2026-01-24 00:32:06.13	6.92	64.21	-29.7	-32.3	15.2	8.35e-04	0	44	102	1048576	19	4851
2026-01-24 00:32:07.13	6.66	64.64	-29.8	-32.4	15.1	7.01e-04	0	44	102	1048576	19	4877
2026-01-24 00:32:08.14	6.39	65.06	-30.1	-32.9	14.5	0.00e+00	0	44	102	1048576	20	4934
2026-01-24 00:32:09.14	6.11	65.49	-30.6	-33.5	13.7	6.63e-04	0	44	102	1048576	21	5070
2026-01-24 00:32:10.15	5.82	65.92	-30.9	-34.4	13.1	5.58e-04	0	44	102	1048576	21	5408
2026-01-24 00:32:11.14	5.52	66.35	-30.7	-33.9	13.4	2.13e-04	0	44	102	1048576	21	5216
2026-01-24 00:32:12.15	5.20	66.78	-30.3	-33.4	14.0	4.24e-04	0	44	102	1048576	20	5141
2026-01-24 00:32:13.16	4.87	67.22	-30.4	-33.5	14.0	7.56e-04	0	44	102	1048576	20	5169
2026-01-24 00:32:14.15	4.53	67.65	-30.4	-33.5	14.1	3.33e-04	0	44	102	1048576	20	5141
2026-01-24 00:32:15.16	4.17	68.09	-30.7	-33.8	13.5	7.60e-06	0	44	102	1048576	21	5152
2026-01-24 00:32:16.16	3.79	68.52	-31.0	-34.3	12.9	6.77e-04	0	44	102	1048576	22	5225
2026-01-24 00:32:17.16	3.40	68.96	-31.0	-34.6	13.0	4.37e-04	0	44	102	1048576	21	5469
2026-01-24 00:32:18.17	2.99	69.41	-30.9	-34.4	13.2	2.05e-05	0	44	102	1048576	21	5383
2026-01-24 00:32:19.17	2.56	69.85	-31.0	-34.6	13.0	5.76e-04	0	44	102	1048576	21	5472
2026-01-24 00:32:20.18	2.11	70.29	-31.3	-35.0	12.5	7.84e-04	0	44	102	1048576	22	5513
2026-01-24 00:32:21.18	1.64	70.73	-30.8	-33.5	13.4	3.90e-04	0	44	102	1048576	22	4940
2026-01-24 00:32:22.18	1.14	71.18	-30.6	-33.7	13.6	8.30e-06	0	44	102	1048576	21	5112
2026-01-24 00:32:23.19	0.61	71.62	-30.9	-34.4	13.2	1.54e-03	0	44	102	1048576	21	5379
2026-01-24 00:32:24.19	0.06	72.07	-30.8	-34.0	13.4	2.49e-04	0	44	102	1048576	21	5252
2026-01-24 00:32:25.20	359.48	72.51	-30.2	-32.5	14.4	2.20e-06	0	44	102	1048576	21	4685
2026-01-24 00:32:26.20	358.87	72.96	-30.0	-32.6	14.7	0.00e+00	0	44	102	1048576	20	4833
2026-01-24 00:32:27.21	358.22	73.41	-30.3	-33.3	14.2	1.10e-04	0	44	102	1048576	20	5091
2026-01-24 00:32:28.20	357.54	73.84	-30.7	-33.9	13.5	1.37e-05	0	44	102	1048576	21	5196
2026-01-24 00:32:29.21	356.81	74.29	-31.2	-34.7	12.7	5.79e-05	0	44	102	1048576	22	5402
2026-01-24 00:32:30.22	356.03	74.74	-31.3	-34.9	12.6	1.55e-04	0	44	102	1048576	22	5461
2026-01-24 00:32:31.21	355.23	75.17	-30.7	-33.2	13.6	7.01e-05	0	44	102	1048576	22	4821
2026-01-24 00:32:32.22	354.35	75.61	-30.5	-32.8	14.1	3.00e-06	0	44	102	1048576	22	4670
2026-01-24 00:32:33.22	353.43	76.05	-30.9	-33.8	13.4	8.30e-06	0	44	102	1048576	22	5042
2026-01-24 00:32:34.23	352.43	76.49	-31.1	-34.4	13.0	1.20e-03	0	44	102	1048576	22	5274
2026-01-24 00:32:35.23	351.38	76.92	-31.3	-35.0	12.6	7.78e-05	0	44	102	1048576	22	5482
2026-01-24 00:32:36.23	350.25	77.35	-31.5	-35.0	12.2	7.78e-05	0	44	102	1048576	23	5410
2026-01-24 00:32:37.24	349.02	77.77	-31.6	-35.4	11.9	3.48e-04	0	44	102	1048576	23	5572
2026-01-24 00:32:38.23	347.74	78.19	-31.5	-35.2	12.1	9.92e-04	0	44	102	1048576	23	5471
2026-01-24 00:32:39.24	346.33	78.61	-31.1	-34.0	13.0	7.24e-05	0	44	102	1048576	23	4986
2026-01-24 00:32:40.24	344.82	79.01	-30.8	-33.6	13.5	1.75e-05	0	44	102	1048576	22	4972
2026-01-24 00:32:41.25	343.19	79.42	-30.7	-33.3	13.6	4.20e-04	0	44	102	1048576	22	4853
2026-01-24 00:32:42.25	341.43	79.81	-30.2	-32.4	14.5	2.20e-06	0	44	102	1048576	21	4672
2026-01-24 00:32:43.25	339.54	80.19	-30.3	-32.7	14.3	0.00e+00	0	44	102	1048576	21	4760
2026-01-24 00:32:44.25	337.49	80.56	-31.0	-34.5	13.2	5.30e-06	0	44	102	1048576	21	5430
2026-01-24 00:32:45.26	335.25	80.93	-31.4	-35.1	12.4	7.17e-05	0	44	102	1048576	22	5544
2026-01-24 00:32:46.26	332.86	81.27	-31.6	-35.5	11.9	2.98e-04	0	44	102	1048576	23	5607
2026-01-24 00:32:47.27	330.23	81.61	-31.8	-35.8	11.7	4.43e-04	0	44	102	1048576	23	5761
2026-01-24 00:32:48.27	327.43	81.92	-31.7	-35.7	11.7	6.87e-04	0	44	102	1048576	23	5670
2026-01-24 00:32:49.28	324.37	82.21	-31.7	-35.5	12.0	3.30e-04	0	44	102	1048576	23	5598
2026-01-24 00:32:50.28	321.11	82.48	-31.7	-35.7	11.9	3.88e-04	0	44	102	1048576	23	5657
2026-01-24 00:32:51.28	317.62	82.72	-31.7	-35.7	11.8	4.57e-04	0	44	102	1048576	23	5695
2026-01-24 00:32:52.29	313.87	82.94	-31.2	-34.2	12.8	1.13e-04	0	44	102	1048576	23	5060
2026-01-24 00:32:53.29	309.93	83.12	-30.8	-33.1	13.6	1.37e-05	0	44	102	1048576	23	4675
2026-01-24 00:32:54.29	305.80	83.27	-31.0	-34.1	13.3	7.60e-06	0	44	102	1048576	22	5128
2026-01-24 00:32:55.29	301.51	83.38	-31.4	-35.3	12.5	4.50e-05	0	44	102	1048576	22	5618
2026-01-24 00:32:56.30	297.05	83.46	-31.6	-35.2	12.1	1.36e-04	0	44	102	1048576	23	5475
2026-01-24 00:32:57.30	292.55	83.49	-31.9	-36.2	11.5	9.18e-04	0	44	102	1048576	23	5905
2026-01-24 00:32:58.31	287.99	83.48	-32.0	-36.1	11.1	8.55e-04	0	44	102	1048576	24	5760
2026-01-24 00:32:59.30	283.56	83.44	-32.1	-36.4	10.9	2.56e-03	0	44	102	1048576	24	5895
2026-01-24 00:33:00.30	279.17	83.35	-31.9	-35.9	11.2	1.07e-03	0	44	102	1048576	24	5690
2026-01-24 00:33:01.31	274.87	83.23	-32.0	-36.5	11.2	1.05e-03	0	44	102	1048576	23	6074
2026-01-24 00:33:02.31	270.79	83.07	-31.3	-36.0	10.3	3.79e-03	0	44	102	1048576	24	6161
2026-01-24 00:33:03.32	266.88	82.88	-32.3	-37.3	10.2	4.47e-03	0	44	102	1048576	24	6344
2026-01-24 00:33:04.32	263.22	82.66	-31.8	-37.6	8.7	1.60e-02	0	44	102	1048576	25	7033
2026-01-24 00:33:05.33	259.76	82.40	-33.0	-38.9	8.0	5.42e-02	0	44	102	1048576	26	7140
2026-01-24 00:33:06.34	256.54	82.13	-32.5	-37.7	9.3	2.51e-02	0	44	102	1048576	25	6520
2026-01-24 00:33:07.34	253.58	81.83	-32.0	-36.3	10.6	5.17e-03	0	44	102	1048576	24	5886
2026-01-24 00:33:08.35	250.81	81.51	-31.9	-36.1	11.0	2.70e-03	0	44	102	1048576	24	5788
2026-01-24 00:33:09.36	248.24	81.17	-31.8	-36.1	11.3	2.29e-03	0	44	102	1048576	23	5903
2026-01-24 00:33:10.36	245.90	80.82	-31.7	-35.7	11.6	6.51e-04	0	44	102	1048576	23	5716
2026-01-24 00:33:11.36	243.73	80.46	-31.7	-35.4	11.4	1.96e-03	0	44	102	1048576	24	5486
2026-01-24 00:33:12.36	241.73	80.08	-31.1	-34.5	12.7	1.56e-03	0	44	102	1048576	22	5330
2026-01-24 00:33:13.36	239.88	79.69	-30.5	-33.3	13.9	9.90e-06	0	44	102	1048576	21	4966
2026-01-24 00:33:14.37	238.15	79.30	-30.4	-33.2	13.9	1.50e-06	0	44	102	1048576	21	4941
2026-01-24 00:33:15.37	236.56	78.89	-30.8	-34.1	13.3	5.30e-06	0	44	102	1048576	21	5289
2026-01-24 00:33:16.37	235.09	78.48	-31.4	-35.3	12.2	1.57e-03	0	44	102	1048576	22	5663
2026-01-24 00:33:17.38	233.71	78.06	-31.4	-35.5	12.0	3.49e-04	0	44	102	1048576	22	5740
2026-01-24 00:33:18.39	232.43	77.64	-31.4	-35.4	12.0	3.40e-04	0	44	102	1048576	22	5718
2026-01-24 00:33:19.39	231.24	77.21	-31.2	-34.9	12.4	2.08e-03	0	44	102	1048576	22	5479
2026-01-24 00:33:20.40	230.12	76.78	-31.3	-35.2	12.3	2.30e-04	0	44	102	1048576	22	5597
2026-01-24 00:33:21.41	229.08	76.34	-31.6	-35.4	11.7	3.10e-04	0	44	102	1048576	23	5595
2026-01-24 00:33:22.41	228.11	75.91	-31.8	-36.3	11.1	3.24e-03	0	44	102	1048576	23	6002
2026-01-24 00:33:23.42	227.20	75.47	-31.5	-35.3	11.8	1.30e-03	0	44	102	1048576	23	5550
2026-01-24 00:33:24.42	226.35	75.03	-30.8	-33.5	13.3	1.30e-04	0	44	102	1048576	22	4965
2026-01-24 00:33:25.42	225.55	74.59	-30.2	-32.6	14.2	4.50e-06	0	44	102	1048576	21	4758
2026-01-24 00:33:26.43	224.78	74.14	-29.8	-32.0	14.8	1.17e-04	0	44	102	1048576	20	4661
2026-01-24 00:33:27.43	224.07	73.70	-29.9	-32.3	14.7	4.36e-04	0	44	102	1048576	20	4753
2026-01-24 00:33:28.43	223.40	73.25	-29.8	-32.5	15.0	7.00e-07	0	44	102	1048576	19	4918
2026-01-24 00:33:29.43	222.77	72.81	-29.4	-31.6	15.4	1.86e-04	0	44	102	1048576	19	4625
2026-01-24 00:33:30.43	222.17	72.36	-29.2	-31.6	15.7	7.17e-04	0	44	102	1048576	18	4718
2026-01-24 00:33:31.44	221.59	71.92	-28.9	-30.9	16.2	0.00e+00	0	44	102	1048576	18	4522
2026-01-24 00:33:32.45	221.05	71.47	-28.7	-30.9	16.5	0.00e+00	0	44	102	1048576	17	4615
2026-01-24 00:33:33.45	220.53	71.02	-28.8	-31.1	16.3	6.07e-04	0	44	102	1048576	17	4687
2026-01-24 00:33:34.46	220.04	70.58	-28.6	-30.6	16.5	4.05e-04	0	44	102	1048576	17	4532
2026-01-24 00:33:35.46	219.58	70.13	-28.7	-30.8	16.4	0.00e+00	0	44	102	1048576	17	4608
2026-01-24 00:33:36.47	219.13	69.69	-29.5	-31.8	15.3	5.72e-04	0	44	102	1048576	19	4694
2026-01-24 00:33:37.47	218.71	69.25	-30.3	-33.4	14.0	4.13e-04	0	44	102	1048576	20	5135
2026-01-24 00:33:38.48	218.30	68.80	-31.0	-34.7	12.8	1.86e-04	0	44	102	1048576	21	5535
2026-01-24 00:33:39.48	217.91	68.36	-31.6	-35.8	11.4	1.38e-03	0	44	102	1048576	23	5800
2026-01-24 00:33:40.49	217.54	67.92	-31.9	-36.6	10.7	3.12e-03	0	44	102	1048576	23	6203
2026-01-24 00:33:41.49	217.19	67.49	-32.2	-37.0	10.1	4.56e-03	0	44	102	1048576	24	6294
2026-01-24 00:33:42.49	216.85	67.05	-32.4	-37.8	9.4	9.63e-03	0	44	102	1048576	24	6733
2026-01-24 00:33:43.49	216.52	66.62	-32.2	-37.3	9.9	1.18e-02	0	44	102	1048576	24	6475
2026-01-24 00:33:44.50	216.21	66.18	-31.9	-36.0	10.8	6.31e-03	0	44	102	1048576	24	5815
2026-01-24 00:33:45.50	215.91	65.75	-31.3	-34.7	12.0	2.00e-03	0	44	102	1048576	23	5336
2026-01-24 00:33:46.50	215.62	65.33	-30.8	-33.8	13.0	8.98e-04	0	44	102	1048576	22	5073
2026-01-24 00:33:47.49	215.35	64.90	-30.8	-33.6	13.2	1.38e-04	0	44	102	1048576	22	5000
2026-01-24 00:33:48.50	215.08	64.48	-30.4	-33.2	13.7	9.92e-04	0	44	102	1048576	21	4970
2026-01-24 00:33:49.50	214.82	64.05	-30.0	-32.6	14.4	4.80e-04	0	44	102	1048576	20	4846
2026-01-24 00:33:50.51	214.57	63.63	-29.8	-32.1	14.7	2.47e-04	0	44	102	1048576	20	4675
2026-01-24 00:33:51.51	214.34	63.21	-29.6	-32.0	15.2	1.49e-03	0	44	102	1048576	19	4757
2026-01-24 00:33:52.52	214.10	62.79	-29.6	-32.0	15.2	1.42e-03	0	44	102	1048576	19	4762
2026-01-24 00:33:53.52	213.88	62.38	-29.7	-32.2	15.1	0.00e+00	0	44	102	1048576	19	4830
2026-01-24 00:33:54.53	213.67	61.96	-29.6	-32.1	15.1	1.95e-03	0	44	102	1048576	19	4779
2026-01-24 00:33:55.53	213.46	61.55	-29.7	-32.3	15.0	1.59e-03	0	44	102	1048576	19	4852
2026-01-24 00:33:56.53	213.26	61.14	-30.0	-32.6	14.6	0.00e+00	0	44	102	1048576	20	4853
2026-01-24 00:33:57.54	213.06	60.73	-30.1	-33.0	14.2	1.90e-03	0	44	102	1048576	20	5000
2026-01-24 00:33:58.54	212.88	60.33	-30.8	-34.4	13.0	1.50e-03	0	44	102	1048576	21	5427
2026-01-24 00:33:59.54	212.69	59.93	-31.7	-36.1	11.1	8.01e-04	0	44	102	1048576	23	5969
2026-01-24 00:34:00.55	212.52	59.53	-32.3	-37.5	9.7	7.32e-03	0	44	102	1048576	24	6595
2026-01-24 00:34:01.55	212.35	59.13	-32.3	-37.1	9.5	2.56e-02	0	44	102	1048576	25	6241
2026-01-24 00:34:02.55	212.18	58.74	-32.0	-36.6	10.2	9.05e-03	0	44	102	1048576	24	6122
2026-01-24 00:34:03.55	212.02	58.34	-32.0	-36.6	10.2	5.64e-03	0	44	102	1048576	24	6122
2026-01-24 00:34:04.55	211.86	57.95	-32.1	-36.9	10.1	6.36e-03	0	44	102	1048576	24	6238
2026-01-24 00:34:05.55	211.71	57.57	-31.9	-36.0	10.6	7.03e-03	0	44	102	1048576	24	5794
2026-01-24 00:34:06.56	211.56	57.18	-31.6	-35.7	11.3	1.76e-03	0	44	102	1048576	23	5765
2026-01-24 00:34:07.56	211.42	56.80	-31.2	-34.6	12.0	4.89e-04	0	44	102	1048576	23	5285
2026-01-24 00:34:08.57	211.28	56.41	-30.8	-33.7	13.0	3.91e-04	0	44	102	1048576	22	5047
2026-01-24 00:34:09.58	211.15	56.03	-30.2	-32.7	14.0	2.12e-03	0	44	102	1048576	21	4777
2026-01-24 00:34:10.59	211.01	55.65	-29.9	-32.4	14.5	7.00e-07	0	44	102	1048576	20	4804
2026-01-24 00:34:11.60	210.88	55.28	-29.7	-32.3	14.9	3.96e-05	0	44	102	1048576	19	4871
2026-01-24 00:34:12.60	210.76	54.91	-29.3	-31.3	15.5	2.21e-03	0	44	102	1048576	19	4535
2026-01-24 00:34:13.61	210.64	54.54	-29.1	-31.5	15.7	0.00e+00	0	44	102	1048576	18	4700
2026-01-24 00:34:14.62	210.52	54.17	-29.3	-31.7	15.6	0.00e+00	0	44	102	1048576	18	4784
2026-01-24 00:34:15.62	210.41	53.80	-29.3	-31.8	15.5	1.85e-03	0	44	102	1048576	18	4802
2026-01-24 00:34:16.63	210.29	53.44	-29.0	-31.1	16.0	0.00e+00	0	44	102	1048576	18	4574
2026-01-24 00:34:17.63	210.18	53.08	-28.6	-30.6	16.5	0.00e+00	0	44	102	1048576	17	4549
2026-01-24 00:34:18.63	210.08	52.73	-28.5	-30.4	16.6	0.00e+00	0	44	102	1048576	17	4497
2026-01-24 00:34:19.63	209.97	52.37	-28.6	-30.5	16.5	1.46e-03	0	44	102	1048576	17	4528
2026-01-24 00:34:20.64	209.87	52.02	-28.5	-30.5	16.5	0.00e+00	0	44	102	1048576	17	4512
2026-01-24 00:34:21.63	209.77	51.68	-28.9	-31.4	16.1	0.00e+00	0	44	102	1048576	17	4780
2026-01-24 00:34:22.63	209.68	51.33	-29.6	-32.0	15.1	4.35e-04	0	44	102	1048576	19	4772
2026-01-24 00:34:23.63	209.58	50.99	-30.3	-33.5	13.8	1.50e-06	0	44	102	1048576	20	5194
2026-01-24 00:34:24.64	209.49	50.64	-30.9	-34.6	12.7	4.19e-05	0	44	102	1048576	21	5532
2026-01-24 00:34:25.65	209.40	50.30	-31.4	-35.6	11.7	1.91e-04	0	44	102	1048576	22	5833
2026-01-24 00:34:26.65	209.31	49.97	-31.8	-36.5	10.7	2.12e-03	0	44	102	1048576	23	6170
2026-01-24 00:34:27.66	209.23	49.63	-32.0	-37.1	10.2	3.74e-03	0	44	102	1048576	23	6493
2026-01-24 00:34:28.66	209.14	49.30	-32.0	-36.5	10.2	6.66e-03	0	44	102	1048576	24	6095
2026-01-24 00:34:29.67	209.06	48.97	-30.8	-34.8	10.9	3.91e-03	0	44	102	1048576	24	5658
2026-01-24 00:34:30.67	208.98	48.64	-31.4	-35.3	11.6	1.27e-03	0	44	102	1048576	23	5588
2026-01-24 00:34:31.68	208.90	48.31	-31.5	-35.9	11.2	5.93e-04	0	44	102	1048576	22	5976
2026-01-24 00:34:32.68	208.82	47.99	-31.9	-36.7	10.4	1.40e-03	0	44	102	1048576	23	6271
2026-01-24 00:34:33.68	208.75	47.67	-32.0	-36.8	10.0	6.41e-03	0	44	102	1048576	24	6255
2026-01-24 00:34:34.69	208.67	47.35	-32.0	-36.8	10.1	7.44e-03	0	44	102	1048576	24	6209
2026-01-24 00:34:35.70	208.60	47.03	-31.6	-35.9	11.0	3.31e-03	0	44	102	1048576	23	5885
2026-01-24 00:34:36.69	208.53	46.72	-31.6	-35.8	11.2	1.41e-03	0	44	102	1048576	23	5814
2026-01-24 00:34:37.68	208.46	46.42	-31.5	-35.5	11.4	1.14e-03	0	44	102	1048576	23	5672
2026-01-24 00:34:38.69	208.40	46.10	-31.6	-35.8	11.2	9.44e-04	0	44	102	1048576	23	5823
2026-01-24 00:34:39.69	208.33	45.80	-31.4	-35.0	11.7	1.11e-03	0	44	102	1048576	23	5456
2026-01-24 00:34:40.70	208.26	45.49	-31.4	-35.6	11.6	1.43e-03	0	44	102	1048576	22	5850
2026-01-24 00:34:41.70	208.20	45.19	-31.5	-35.9	11.4	7.10e-04	0	44	102	1048576	22	6003
2026-01-24 00:34:42.70	208.14	44.89	-31.6	-35.9	10.8	1.12e-03	0	44	102	1048576	23	5871
2026-01-24 00:34:43.70	208.08	44.59	-31.9	-36.6	10.5	4.36e-03	0	44	102	1048576	23	6240
2026-01-24 00:34:44.71	208.02	44.30	-32.1	-37.1	9.8	6.86e-03	0	44	102	1048576	24	6378
2026-01-24 00:34:45.72	207.96	44.00	-32.0	-36.8	10.0	1.04e-02	0	44	102	1048576	24	6224
2026-01-24 00:34:46.72	207.90	43.71	-31.9	-36.8	10.4	5.43e-03	0	44	102	1048576	23	6325
2026-01-24 00:34:47.72	207.84	43.42	-31.6	-35.8	11.1	3.40e-03	0	44	102	1048576	23	5847
2026-01-24 00:34:48.72	207.79	43.14	-31.3	-35.4	11.8	1.05e-03	0	44	102	1048576	22	5754
2026-01-24 00:34:49.72	207.73	42.85	-31.1	-34.7	12.2	3.54e-04	0	44	102	1048576	22	5445
2026-01-24 00:34:50.72	207.68	42.57	-31.0	-34.5	12.4	9.86e-04	0	44	102	1048576	22	5364
2026-01-24 00:34:51.72	207.63	42.29	-31.2	-35.1	12.0	2.53e-04	0	44	102	1048576	22	5640
2026-01-24 00:34:52.72	207.58	42.01	-31.3	-35.3	11.9	3.75e-04	0	44	102	1048576	22	5710
2026-01-24 00:34:53.73	207.53	41.74	-31.5	-35.9	11.4	1.91e-03	0	44	102	1048576	22	5998
2026-01-24 00:34:54.73	207.48	41.46	-31.6	-35.9	11.1	1.50e-03	0	44	102	1048576	23	5886
2026-01-24 00:34:55.73	207.43	41.19	-31.8	-36.6	10.6	2.83e-03	0	44	102	1048576	23	6204
2026-01-24 00:34:56.73	207.38	40.92	-31.9	-36.7	10.4	3.73e-03	0	44	102	1048576	23	6272
2026-01-24 00:34:57.74	207.33	40.65	-32.0	-37.0	10.2	6.84e-03	0	44	102	1048576	23	6452
2026-01-24 00:34:58.75	207.29	40.38	-31.9	-36.8	10.4	5.36e-03	0	44	102	1048576	23	6310
2026-01-24 00:34:59.75	207.24	40.12	-31.7	-36.2	10.8	3.67e-03	0	44	102	1048576	23	6042
2026-01-24 00:35:00.75	207.20	39.86	-31.7	-36.2	10.8	2.73e-03	0	44	102	1048576	23	6023
2026-01-24 00:35:01.76	207.15	39.59	-31.8	-36.6	10.5	3.19e-03	0	44	102	1048576	23	6244
2026-01-24 00:35:02.76	207.11	39.34	-31.5	-35.7	11.2	4.13e-03	0	44	102	1048576	23	5790
2026-01-24 00:35:03.76	207.07	39.08	-31.2	-34.7	11.9	6.10e-04	0	44	102	1048576	23	5357
2026-01-24 00:35:04.77	207.02	38.82	-31.1	-34.4	12.1	4.46e-04	0	44	102	1048576	23	5227
2026-01-24 00:35:05.77	206.98	38.57	-30.9	-34.3	12.4	2.88e-04	0	44	102	1048576	22	5324
2026-01-24 00:35:06.77	206.94	38.32	-31.1	-34.7	12.3	1.20e-04	0	44	102	1048576	22	5460
2026-01-24 00:35:07.77	206.90	38.07	-31.1	-34.7	12.2	3.54e-04	0	44	102	1048576	22	5465
2026-01-24 00:35:08.77	206.86	37.82	-31.3	-35.3	11.8	6.31e-04	0	44	102	1048576	22	5720
2026-01-24 00:35:09.78	206.82	37.58	-31.2	-35.2	11.8	4.33e-04	0	44	102	1048576	22	5692
2026-01-24 00:35:10.78	206.79	37.33	-31.2	-35.1	11.9	5.50e-04	0	44	102	1048576	22	5642
2026-01-24 00:35:11.79	206.75	37.09	-31.1	-34.8	12.1	9.09e-04	0	44	102	1048576	22	5532
2026-01-24 00:35:12.79	206.71	36.85	-31.1	-34.7	12.2	2.52e-04	0	44	102	1048576	22	5479
2026-01-24 00:35:13.80	206.68	36.61	-31.0	-34.5	12.4	6.20e-04	0	44	102	1048576	22	5382
2026-01-24 00:35:14.79	206.64	36.38	-30.9	-34.8	12.4	1.53e-03	0	44	102	1048576	21	5636
2026-01-24 00:35:15.80	206.61	36.14	-30.8	-34.5	12.6	1.69e-03	0	44	102	1048576	21	5517
2026-01-24 00:35:16.81	206.57	35.90	-30.7	-34.3	12.8	2.42e-04	0	44	102	1048576	21	5400
2026-01-24 00:35:17.81	206.54	35.67	-30.7	-34.2	12.9	2.13e-03	0	44	102	1048576	21	5368
2026-01-24 00:35:18.80	206.51	35.44	-30.6	-33.8	13.0	2.04e-03	0	44	102	1048576	21	5238
2026-01-24 00:35:19.81	206.47	35.21	-30.6	-33.9	13.0	1.72e-04	0	44	102	1048576	21	5257
2026-01-24 00:35:20.82	206.44	34.99	-30.6	-33.8	13.1	2.14e-03	0	44	102	1048576	21	5220
2026-01-24 00:35:21.82	206.41	34.76	-30.6	-33.9	13.1	2.42e-03	0	44	102	1048576	21	5248
2026-01-24 00:35:22.82	206.38	34.54	-30.6	-33.9	13.0	1.72e-04	0	44	102	1048576	21	5262
2026-01-24 00:35:23.83	206.35	34.31	-30.5	-33.6	13.2	2.16e-04	0	44	102	1048576	21	5144
2026-01-24 00:35:24.84	206.31	34.09	-30.4	-33.9	13.3	2.39e-03	0	44	102	1048576	20	5383
2026-01-24 00:35:25.84	206.28	33.87	-30.4	-33.8	13.4	2.81e-04	0	44	102	1048576	20	5345
2026-01-24 00:35:26.84	206.26	33.66	-30.5	-33.6	13.2	2.77e-03	0	44	102	1048576	21	5133
2026-01-24 00:35:27.85	206.23	33.44	-30.8	-34.3	12.7	2.33e-03	0	44	102	1048576	21	5424
2026-01-24 00:35:28.85	206.20	33.22	-31.0	-35.0	12.3	1.04e-03	0	44	102	1048576	21	5735
2026-01-24 00:35:29.86	206.17	33.01	-31.2	-35.3	11.7	3.78e-03	0	44	102	1048576	22	5719
2026-01-24 00:35:30.86	206.14	32.80	-31.4	-35.8	11.4	8.99e-04	0	44	102	1048576	22	5945
2026-01-24 00:35:31.87	206.11	32.59	-31.6	-35.9	10.9	1.98e-03	0	44	102	1048576	23	5894
2026-01-24 00:35:32.87	206.09	32.38	-31.7	-36.3	10.7	7.21e-03	0	44	102	1048576	23	6094
2026-01-24 00:35:33.87	206.06	32.17	-31.7	-36.3	10.6	5.90e-03	0	44	102	1048576	23	6108
2026-01-24 00:35:34.87	206.03	31.97	-31.7	-36.3	10.6	3.99e-03	0	44	102	1048576	23	6129
2026-01-24 00:35:35.87	206.01	31.76	-31.7	-36.1	10.7	6.02e-03	0	44	102	1048576	23	6029
2026-01-24 00:35:36.87	205.98	31.56	-31.5	-35.6	11.1	4.44e-03	0	44	102	1048576	23	5786
2026-01-24 00:35:37.88	205.96	31.36	-31.5	-35.5	11.2	1.54e-03	0	44	102	1048576	23	5736
2026-01-24 00:35:38.88	205.93	31.16	-31.5	-35.9	11.2	3.25e-03	0	44	102	1048576	22	6031
2026-01-24 00:35:39.89	205.91	30.96	-31.4	-35.7	11.4	3.10e-03	0	44	102	1048576	22	5909
2026-01-24 00:35:40.89	205.88	30.76	-31.3	-35.4	11.6	3.14e-03	0	44	102	1048576	22	5796
2026-01-24 00:35:41.90	205.86	30.56	-31.2	-35.3	11.7	1.44e-03	0	44	102	1048576	22	5737
2026-01-24 00:35:42.91	205.84	30.37	-31.3	-35.5	11.6	2.67e-03	0	44	102	1048576	22	5827
2026-01-24 00:35:43.91	205.81	30.17	-31.1	-34.9	11.9	2.93e-03	0	44	102	1048576	22	5569
2026-01-24 00:35:44.91	205.79	29.98	-31.0	-34.5	12.2	2.23e-04	0	44	102	1048576	22	5408
2026-01-24 00:35:45.91	205.77	29.79	-30.8	-34.5	12.5	1.68e-03	0	44	102	1048576	21	5518
2026-01-24 00:35:46.92	205.74	29.60	-30.9	-34.9	12.3	3.13e-04	0	44	102	1048576	21	5683
2026-01-24 00:35:47.92	205.72	29.41	-31.0	-35.0	12.2	2.08e-04	0	44	102	1048576	21	5719
2026-01-24 00:35:48.93	205.70	29.23	-31.0	-35.1	12.1	2.39e-04	0	44	102	1048576	21	5770
2026-01-24 00:35:49.94	205.68	29.04	-31.1	-34.9	11.9	3.58e-04	0	44	102	1048576	22	5597
2026-01-24 00:35:50.95	205.66	28.85	-31.2	-35.2	11.7	1.14e-03	0	44	102	1048576	22	5736
2026-01-24 00:35:51.95	205.64	28.67	-31.2	-35.2	11.7	6.11e-04	0	44	102	1048576	22	5721
2026-01-24 00:35:52.96	205.62	28.48	-31.2	-35.2	11.7	4.61e-04	0	44	102	1048576	22	5732
2026-01-24 00:35:53.96	205.60	28.30	-31.3	-35.7	11.3	2.26e-03	0	44	102	1048576	22	5966
2026-01-24 00:35:54.97	205.58	28.12	-31.1	-35.1	11.8	7.19e-04	0	44	102	1048576	22	5688
2026-01-24 00:35:55.97	205.56	27.94	-31.1	-35.1	11.8	5.72e-04	0	44	102	1048576	22	5694
2026-01-24 00:35:56.97	205.54	27.77	-31.2	-35.2	11.7	2.37e-03	0	44	102	1048576	22	5732
2026-01-24 00:35:57.97	205.52	27.59	-31.0	-34.8	12.0	3.56e-04	0	44	102	1048576	22	5548
2026-01-24 00:35:58.98	205.50	27.41	-31.0	-34.7	12.0	3.56e-04	0	44	102	1048576	22	5514
2026-01-24 00:35:59.98	205.48	27.24	-31.0	-34.8	11.9	3.04e-04	0	44	102	1048576	22	5547
2026-01-24 00:36:00.98	205.46	27.07	-30.4	-34.3	11.6	2.81e-03	0	44	102	1048576	22	5637
2026-01-24 00:36:01.98	205.44	26.90	-31.2	-35.2	11.3	6.21e-04	0	44	102	1048576	22	5749
2026-01-24 00:36:02.97	205.42	26.73	-31.1	-35.1	11.7	5.93e-04	0	44	102	1048576	22	5669
2026-01-24 00:36:03.98	205.41	26.56	-31.0	-34.7	11.5	2.73e-03	0	44	102	1048576	22	5509
2026-01-24 00:36:04.98	205.39	26.39	-30.8	-34.7	12.2	1.90e-04	0	44	102	1048576	21	5618
2026-01-24 00:36:05.98	205.37	26.22	-30.8	-34.6	12.3	1.79e-04	0	44	102	1048576	21	5580
2026-01-24 00:36:06.99	205.35	26.05	-30.7	-34.3	12.5	1.87e-04	0	44	102	1048576	21	5463
2026-01-24 00:36:07.98	205.34	25.89	-30.6	-34.1	12.7	1.04e-04	0	44	102	1048576	21	5391
2026-01-24 00:36:08.99	205.32	25.72	-30.7	-34.3	12.5	1.03e-04	0	44	102	1048576	21	5463
2026-01-24 00:36:09.98	205.30	25.56	-30.5	-33.9	12.8	8.01e-05	0	44	102	1048576	21	5277
2026-01-24 00:36:10.99	205.29	25.40	-30.7	-34.5	12.4	5.64e-05	0	44	102	1048576	21	5530
2026-01-24 00:36:11.99	205.27	25.24	-30.5	-33.9	12.8	7.62e-05	0	44	102	1048576	21	5289
2026-01-24 00:36:13.00	205.26	25.07	-30.4	-33.9	13.1	3.96e-05	0	44	102	1048576	20	5399
2026-01-24 00:36:14.00	205.24	24.91	-30.3	-33.6	13.3	2.21e-05	0	44	102	1048576	20	5292
2026-01-24 00:36:15.00	205.22	24.76	-30.4	-34.0	13.1	3.58e-05	0	44	102	1048576	20	5444
2026-01-24 00:36:16.01	205.21	24.60	-30.3	-33.8	13.2	2.59e-05	0	44	102	1048576	20	5367
2026-01-24 00:36:17.01	205.19	24.44	-30.3	-33.6	13.3	1.37e-05	0	44	102	1048576	20	5292
2026-01-24 00:36:18.01	205.18	24.28	-30.3	-33.6	13.3	1.29e-05	0	44	102	1048576	20	5296
2026-01-24 00:36:19.00	205.16	24.13	-30.2	-33.3	13.5	1.97e-03	0	44	102	1048576	20	5190
2026-01-24 00:36:20.01	205.15	23.98	-30.3	-33.6	13.3	9.10e-06	0	44	102	1048576	20	5274
2026-01-24 00:36:21.02	205.13	23.82	-30.4	-34.0	13.0	2.67e-05	0	44	102	1048576	20	5450
2026-01-24 00:36:22.03	205.12	23.67	-30.3	-33.6	13.3	1.89e-03	0	44	102	1048576	20	5301
2026-01-24 00:36:23.03	205.11	23.52	-30.3	-33.7	13.2	1.89e-03	0	44	102	1048576	20	5335
2026-01-24 00:36:24.03	205.09	23.37	-30.3	-33.7	13.2	1.67e-05	0	44	102	1048576	20	5332
2026-01-24 00:36:25.04	205.08	23.22	-30.4	-33.9	13.1	2.36e-05	0	44	102	1048576	20	5403
2026-01-24 00:36:26.05	205.06	23.07	-30.5	-33.9	12.8	1.76e-03	0	44	102	1048576	21	5301
2026-01-24 00:36:27.05	205.05	22.92	-30.4	-33.4	13.1	3.50e-05	0	44	102	1048576	21	5119
2026-01-24 00:36:28.05	205.04	22.77	-30.3	-33.8	13.1	3.12e-05	0	44	102	1048576	20	5374
2026-01-24 00:36:29.06	205.02	22.62	-30.4	-34.0	13.0	1.69e-03	0	44	102	1048576	20	5428
2026-01-24 00:36:30.06	205.01	22.48	-30.5	-33.9	12.7	5.79e-05	0	44	102	1048576	21	5309
2026-01-24 00:36:31.07	205.00	22.33	-30.7	-34.4	12.4	8.85e-05	0	44	102	1048576	21	5520
2026-01-24 00:36:32.07	204.98	22.19	-30.6	-34.0	12.7	4.05e-03	0	44	102	1048576	21	5327
2026-01-24 00:36:33.07	204.97	22.05	-30.5	-33.8	12.8	7.40e-05	0	44	102	1048576	21	5264
2026-01-24 00:36:34.08	204.96	21.90	-30.4	-34.0	13.0	1.80e-03	0	44	102	1048576	20	5435
2026-01-24 00:36:35.08	204.95	21.76	-30.5	-33.8	12.7	4.21e-03	0	44	102	1048576	21	5276
2026-01-24 00:36:36.09	204.94	21.62	-30.6	-34.1	12.6	9.61e-05	0	44	102	1048576	21	5367
2026-01-24 00:36:37.09	204.92	21.48	-30.7	-34.4	12.3	1.80e-03	0	44	102	1048576	21	5522
2026-01-24 00:36:38.09	204.91	21.34	-30.7	-34.3	12.4	1.71e-03	0	44	102	1048576	21	5469
2026-01-24 00:36:39.10	204.90	21.20	-30.8	-34.7	12.2	2.38e-03	0	44	102	1048576	21	5620
2026-01-24 00:36:40.10	204.89	21.06	-31.1	-35.0	11.6	1.99e-03	0	44	102	1048576	22	5641
2026-01-24 00:36:41.11	204.88	20.93	-31.0	-35.2	11.8	2.14e-03	0	44	102	1048576	21	5871
2026-01-24 00:36:42.11	204.86	20.79	-31.2	-35.5	11.2	3.55e-03	0	44	102	1048576	22	5898
2026-01-24 00:36:43.12	204.85	20.65	-31.4	-36.0	10.9	3.31e-03	0	44	102	1048576	22	6113
2026-01-24 00:36:44.12	204.84	20.52	-31.3	-35.7	11.0	3.40e-03	0	44	102	1048576	22	6002
2026-01-24 00:36:45.12	204.83	20.39	-31.3	-35.6	11.1	4.08e-03	0	44	102	1048576	22	5948
2026-01-24 00:36:46.13	204.82	20.25	-31.2	-35.4	11.3	2.71e-03	0	44	102	1048576	22	5847
2026-01-24 00:36:47.14	204.81	20.12	-31.2	-35.4	11.2	2.53e-03	0	44	102	1048576	22	5852
2026-01-24 00:36:48.14	204.80	19.99	-31.2	-35.5	11.2	1.28e-03	0	44	102	1048576	22	5891
2026-01-24 00:36:49.14	204.79	19.86	-31.4	-36.0	10.8	2.83e-03	0	44	102	1048576	22	6153
2026-01-24 00:36:50.14	204.78	19.73	-31.1	-35.3	11.3	5.24e-03	0	44	102	1048576	22	5798
2026-01-24 00:36:51.15	204.77	19.60	-30.9	-35.0	11.8	8.03e-04	0	44	102	1048576	21	5792
2026-01-24 00:36:52.14	204.76	19.47	-30.7	-34.5	12.2	4.57e-04	0	44	102	1048576	21	5565
2026-01-24 00:36:53.14	204.75	19.34	-30.7	-34.4	12.3	3.79e-03	0	44	102	1048576	21	5529
2026-01-24 00:36:54.15	204.74	19.21	-30.6	-34.1	12.4	1.06e-03	0	44	102	1048576	21	5406
2026-01-24 00:36:55.15	204.73	19.08	-30.7	-34.4	12.3	3.64e-04	0	44	102	1048576	21	5527
2026-01-24 00:36:56.16	204.72	18.96	-30.6	-34.3	12.4	2.33e-03	0	44	102	1048576	21	5458
2026-01-24 00:36:57.17	204.71	18.83	-30.7	-34.4	12.2	2.24e-03	0	44	102	1048576	21	5523
2026-01-24 00:36:58.17	204.70	18.70	-30.9	-34.9	11.9	1.31e-03	0	44	102	1048576	21	5733
2026-01-24 00:36:59.18	204.69	18.58	-30.8	-34.6	12.1	2.47e-03	0	44	102	1048576	21	5631
2026-01-24 00:37:00.18	204.68	18.46	-30.9	-35.0	11.8	2.71e-03	0	44	102	1048576	21	5802
2026-01-24 00:37:01.19	204.67	18.33	-31.1	-35.1	11.4	1.66e-03	0	44	102	1048576	22	5729
2026-01-24 00:37:02.19	204.66	18.21	-30.9	-35.2	11.7	3.03e-03	0	44	102	1048576	21	5863
2026-01-24 00:37:03.20	204.65	18.09	-31.1	-35.2	11.3	3.42e-03	0	44	102	1048576	22	5788
2026-01-24 00:37:04.20	204.64	17.96	-31.2	-35.4	11.2	2.10e-03	0	44	102	1048576	22	5868
2026-01-24 00:37:05.20	204.63	17.84	-31.2	-35.4	11.2	1.84e-03	0	44	102	1048576	22	5857
2026-01-24 00:37:06.20	204.62	17.72	-31.2	-35.7	11.0	4.04e-03	0	44	102	1048576	22	5989
2026-01-24 00:37:07.21	204.62	17.60	-31.3	-36.0	10.7	2.63e-03	0	44	102	1048576	22	6169
2026-01-24 00:37:08.21	204.61	17.48	-31.2	-35.7	10.9	5.16e-03	0	44	102	1048576	22	5987
2026-01-24 00:37:09.22	204.60	17.37	-31.3	-35.9	10.7	5.10e-03	0	44	102	1048576	22	6110
2026-01-24 00:37:10.22	204.59	17.25	-31.3	-36.0	10.7	3.24e-03	0	44	102	1048576	22	6153
2026-01-24 00:37:11.23	204.58	17.13	-31.3	-35.8	10.8	5.43e-03	0	44	102	1048576	22	6056
2026-01-24 00:37:12.23	204.57	17.01	-31.2	-35.6	11.0	1.87e-03	0	44	102	1048576	22	5963
2026-01-24 00:37:13.24	204.57	16.90	-31.2	-35.5	11.1	1.95e-03	0	44	102	1048576	22	5909
2026-01-24 00:37:14.25	204.56	16.78	-31.2	-35.7	10.9	4.40e-03	0	44	102	1048576	22	5998
2026-01-24 00:37:15.25	204.55	16.66	-31.4	-36.1	10.5	3.74e-03	0	44	102	1048576	22	6231
2026-01-24 00:37:16.26	204.54	16.55	-31.3	-35.9	10.7	3.41e-03	0	44	102	1048576	22	6106
2026-01-24 00:37:17.26	204.53	16.43	-31.4	-36.3	10.4	5.86e-03	0	44	102	1048576	22	6312
2026-01-24 00:37:18.27	204.53	16.32	-31.5	-36.1	10.2	8.72e-03	0	44	102	1048576	23	6105
2026-01-24 00:37:19.27	204.52	16.21	-31.4	-36.2	10.5	4.43e-03	0	44	102	1048576	22	6282
2026-01-24 00:37:20.28	204.51	16.09	-31.5	-36.2	10.1	8.83e-03	0	44	102	1048576	23	6152
2026-01-24 00:37:21.29	204.50	15.98	-31.4	-36.2	10.4	7.82e-03	0	44	102	1048576	22	6257
2026-01-24 00:37:22.29	204.50	15.87	-31.3	-36.0	10.6	3.36e-03	0	44	102	1048576	22	6172
2026-01-24 00:37:23.29	204.49	15.76	-31.4	-36.2	10.4	4.08e-03	0	44	102	1048576	22	6279
2026-01-24 00:37:24.30	204.48	15.65	-31.3	-36.1	10.5	6.36e-03	0	44	102	1048576	22	6229
2026-01-24 00:37:25.31	204.47	15.54	-31.4	-36.5	10.2	5.98e-03	0	44	102	1048576	22	6421
2026-01-24 00:37:26.32	204.47	15.43	-31.4	-36.3	10.4	4.55e-03	0	44	102	1048576	22	6317
2026-01-24 00:37:27.32	204.46	15.32	-31.3	-36.0	10.5	6.46e-03	0	44	102	1048576	22	6164
2026-01-24 00:37:28.32	204.45	15.21	-31.3	-35.9	10.4	3.54e-03	0	44	102	1048576	22	6144
2026-01-24 00:37:29.33	204.45	15.10	-31.3	-35.9	10.6	3.23e-03	0	44	102	1048576	22	6117
2026-01-24 00:37:30.33	204.44	14.99	-31.2	-35.8	10.6	2.97e-03	0	44	102	1048576	22	6089
2026-01-24 00:37:31.34	204.43	14.89	-31.3	-36.0	10.5	3.49e-03	0	44	102	1048576	22	6196
2026-01-24 00:37:32.34	204.43	14.78	-31.3	-36.1	10.5	4.72e-03	0	44	102	1048576	22	6238
2026-01-24 00:37:33.34	204.42	14.67	-31.3	-35.9	10.6	3.46e-03	0	44	102	1048576	22	6118
2026-01-24 00:37:34.34	204.41	14.57	-31.3	-35.9	10.6	3.25e-03	0	44	102	1048576	22	6151
2026-01-24 00:37:35.34	204.41	14.46	-31.2	-35.8	10.7	5.81e-03	0	44	102	1048576	22	6097
2026-01-24 00:37:36.34	204.40	14.36	-31.2	-35.8	10.7	3.20e-03	0	44	102	1048576	22	6090
2026-01-24 00:37:37.34	204.39	14.25	-31.3	-35.9	10.5	3.32e-03	0	44	102	1048576	22	6154
2026-01-24 00:37:38.34	204.39	14.15	-31.3	-36.0	10.5	6.10e-03	0	44	102	1048576	22	6205
2026-01-24 00:37:39.34	204.38	14.05	-31.3	-35.9	10.5	4.49e-03	0	44	102	1048576	22	6171
2026-01-24 00:37:40.35	204.37	13.94	-31.3	-36.0	10.5	3.97e-03	0	44	102	1048576	22	6212
2026-01-24 00:37:41.35	204.37	13.84	-31.3	-36.2	10.3	5.28e-03	0	44	102	1048576	22	6318
2026-01-24 00:37:42.35	204.36	13.74	-31.2	-35.8	10.5	4.46e-03	0	44	102	1048576	22	6118
2026-01-24 00:37:43.36	204.36	13.64	-31.2	-35.8	10.6	4.30e-03	0	44	102	1048576	22	6081
2026-01-24 00:37:44.36	204.35	13.54	-31.1	-35.5	10.8	3.16e-03	0	44	102	1048576	22	5950
2026-01-24 00:37:45.36	204.34	13.43	-31.2	-35.6	10.7	4.00e-03	0	44	102	1048576	22	6016
2026-01-24 00:37:46.37	204.34	13.33	-31.2	-35.9	10.5	5.05e-03	0	44	102	1048576	22	6154
2026-01-24 00:37:47.37	204.33	13.23	-31.1	-35.4	10.9	2.60e-03	0	44	102	1048576	22	5902
2026-01-24 00:37:48.38	204.33	13.13	-31.0	-35.2	11.0	2.11e-03	0	44	102	1048576	22	5820
2026-01-24 00:37:49.38	204.32	13.03	-30.9	-35.5	11.1	2.08e-03	0	44	102	1048576	21	6062
2026-01-24 00:37:50.39	204.32	12.93	-31.0	-35.5	11.1	1.44e-03	0	44	102	1048576	21	6063
2026-01-24 00:37:51.39	204.31	12.84	-30.9	-35.3	11.2	1.48e-03	0	44	102	1048576	21	6003
2026-01-24 00:37:52.40	204.31	12.74	-30.9	-35.2	11.3	1.41e-03	0	44	102	1048576	21	5949
2026-01-24 00:37:53.40	204.30	12.64	-30.9	-35.4	11.2	1.42e-03	0	44	102	1048576	21	6020
2026-01-24 00:37:54.40	204.29	12.54	-31.0	-35.2	11.0	2.54e-03	0	44	102	1048576	22	5809
2026-01-24 00:37:55.41	204.29	12.45	-31.1	-35.4	10.8	2.09e-03	0	44	102	1048576	22	5938
2026-01-24 00:37:56.41	204.28	12.35	-31.2	-35.7	10.6	3.58e-03	0	44	102	1048576	22	6060
2026-01-24 00:37:57.42	204.28	12.25	-31.1	-35.6	10.7	3.98e-03	0	44	102	1048576	22	6027
2026-01-24 00:37:58.42	204.27	12.16	-31.2	-35.8	10.5	3.27e-03	0	44	102	1048576	22	6103
2026-01-24 00:37:59.42	204.27	12.06	-31.2	-35.8	10.4	4.52e-03	0	44	102	1048576	22	6125
2026-01-24 00:38:00.42	204.26	11.97	-31.2	-35.8	10.5	4.85e-03	0	44	102	1048576	22	6103
2026-01-24 00:38:01.43	204.26	11.87	-31.2	-36.0	10.3	5.31e-03	0	44	102	1048576	22	6243
2026-01-24 00:38:02.44	204.25	11.78	-31.3	-36.2	10.2	6.43e-03	0	44	102	1048576	22	6313
2026-01-24 00:38:03.44	204.25	11.68	-31.2	-35.9	10.4	5.50e-03	0	44	102	1048576	22	6180
2026-01-24 00:38:04.45	204.24	11.59	-30.1	-35.3	10.2	6.09e-03	0	44	102	1048576	21	6567
2026-01-24 00:38:05.45	204.24	11.50	-31.3	-36.2	10.1	5.26e-03	0	44	102	1048576	22	6336
2026-01-24 00:38:06.46	204.23	11.40	-31.3	-36.4	10.0	9.68e-03	0	44	102	1048576	22	6436
2026-01-24 00:38:07.46	204.23	11.31	-31.3	-36.1	10.1	7.75e-03	0	44	102	1048576	22	6287
2026-01-24 00:38:08.47	204.23	11.22	-31.2	-35.9	10.3	6.03e-03	0	44	102	1048576	22	6178
2026-01-24 00:38:09.46	204.22	11.13	-31.1	-35.6	10.5	5.06e-03	0	44	102	1048576	22	6038
2026-01-24 00:38:10.46	204.22	11.04	-31.1	-35.5	10.6	4.31e-03	0	44	102	1048576	22	5973
2026-01-24 00:38:11.46	204.21	10.95	-31.1	-35.5	10.6	3.00e-03	0	44	102	1048576	22	6001
2026-01-24 00:38:12.45	204.21	10.86	-31.1	-35.7	10.4	4.26e-03	0	44	102	1048576	22	6081
2026-01-24 00:38:13.46	204.20	10.76	-31.1	-35.8	10.4	8.50e-03	0	44	102	1048576	22	6139
2026-01-24 00:38:14.47	204.20	10.67	-31.1	-35.6	10.5	4.08e-03	0	44	102	1048576	22	6046
2026-01-24 00:38:15.47	204.19	10.58	-31.0	-35.4	10.6	4.44e-03	0	44	102	1048576	22	5958
2026-01-24 00:38:16.48	204.19	10.49	-31.1	-35.8	10.4	7.19e-03	0	44	102	1048576	22	6141
2026-01-24 00:38:17.48	204.19	10.41	-31.2	-35.9	10.2	6.13e-03	0	44	102	1048576	22	6219
2026-01-24 00:38:18.48	204.18	10.32	-31.1	-35.8	10.3	5.72e-03	0	44	102	1048576	22	6171
2026-01-24 00:38:19.49	204.18	10.23	-31.2	-36.1	10.1	6.56e-03	0	44	102	1048576	22	6304
2026-01-24 00:38:20.49	204.17	10.14	-31.2	-36.0	10.1	8.92e-03	0	44	102	1048576	22	6256
2026-01-24 00:38:21.49	204.17	10.05	-31.3	-36.2	10.0	7.45e-03	0	44	102	1048576	22	6375
2026-01-24 00:38:22.50	204.17	9.96	-31.3	-36.4	9.8	9.95e-03	0	44	102	1048576	22	6491
2026-01-24 00:38:23.50	204.16	9.88	-31.3	-36.3	9.9	1.07e-02	0	44	102	1048576	22	6424
2026-01-24 00:38:24.51	204.16	9.79	-31.4	-36.7	9.6	1.17e-02	0	44	102	1048576	22	6645
2026-01-24 00:38:25.51	204.15	9.70	-31.5	-37.1	9.3	1.68e-02	0	44	102	1048576	22	6847
