passes_logs/2026/01/24/R2M6_AANII_01/R2M6_AANII_01__20260124_114019_SUOMI_NPP_rec.log

#Pass ID: 20260124_114019_SUOMI NPP
#Satellite: SUOMI NPP
#Configuration: NPP
#almurnet v.1.7.20240730
#Start time: 2026-01-24 11:40:20

#Version: 2.2.20231116
#Station: R2M6_AANII_01
#Location: 30.233357 lon 59.946436 lat
#TLE: 1 37849U 11061A   26023.63275593  .00000212  00000+0  12133-3 0  9990
#TLE: 2 37849  98.7820 325.6074 0002234  48.9695 311.1673 14.19528901737937

#Time	Az	El	Level	Level2	SNR	BER	BlckErr	Temp	State	Recorded	gain1	gain2
2026-01-24 11:40:20.74	201.31	7.08	-31.5	-35.4	5.1	1.22e+00	0	41	0	0	23	5654
2026-01-24 11:40:21.73	201.39	7.15	-31.7	-36.2	4.9	1.31e+00	0	41	104	0	24	6033
2026-01-24 11:40:22.73	201.46	7.22	-31.7	-36.2	7.3	1.31e-01	0	41	0	0	24	6048
2026-01-24 11:40:23.74	201.54	7.29	-31.9	-37.1	6.6	1.76e-01	0	41	102	1048576	24	6596
2026-01-24 11:40:24.74	201.62	7.36	-31.7	-36.6	6.8	1.88e-01	0	41	102	1048576	24	6354
2026-01-24 11:40:25.74	201.70	7.43	-31.4	-35.5	7.3	1.69e-01	0	41	102	1048576	24	5802
2026-01-24 11:40:26.75	201.78	7.50	-31.0	-34.8	7.8	1.03e-01	0	41	102	1048576	23	5584
2026-01-24 11:40:27.76	201.86	7.57	-30.7	-34.7	7.9	8.42e-02	0	41	102	1048576	22	5696
2026-01-24 11:40:28.76	201.94	7.64	-30.6	-34.6	7.8	6.35e-02	0	41	102	1048576	22	5694
2026-01-24 11:40:29.76	202.02	7.71	-30.8	-35.1	7.5	1.06e-01	0	41	102	1048576	22	5908
2026-01-24 11:40:30.77	202.10	7.78	-30.5	-34.8	7.3	1.14e-01	0	41	102	1048576	22	5842
2026-01-24 11:40:31.78	202.18	7.85	-30.1	-34.1	7.6	1.09e-01	0	41	102	1048576	21	5758
2026-01-24 11:40:32.79	202.26	7.92	-29.8	-34.5	7.1	1.25e-01	0	41	102	1048576	20	6184
2026-01-24 11:40:33.79	202.34	7.99	-29.8	-34.5	7.2	1.24e-01	0	41	102	1048576	20	6179
2026-01-24 11:40:34.79	202.42	8.06	-30.1	-35.0	7.2	1.23e-01	0	41	102	1048576	20	6369
2026-01-24 11:40:35.80	202.51	8.13	-30.1	-34.7	7.5	1.20e-01	0	42	102	1048576	20	6140
2026-01-24 11:40:36.80	202.59	8.20	-30.0	-34.1	8.3	7.13e-02	0	41	102	1048576	20	5773
2026-01-24 11:40:37.80	202.67	8.28	-30.1	-33.8	9.1	2.63e-02	0	41	102	1048576	20	5519
2026-01-24 11:40:38.80	202.75	8.35	-30.3	-33.7	9.9	1.39e-02	0	41	102	1048576	20	5315
2026-01-24 11:40:39.81	202.84	8.42	-30.4	-34.0	9.9	7.56e-03	0	41	102	1048576	20	5436
2026-01-24 11:40:40.82	202.92	8.49	-30.5	-33.4	10.4	7.29e-03	0	42	102	1048576	21	5022
2026-01-24 11:40:41.82	203.01	8.56	-30.8	-34.0	10.3	4.77e-03	0	42	102	1048576	21	5210
2026-01-24 11:40:42.83	203.09	8.64	-30.9	-34.1	10.3	5.43e-03	0	42	102	1048576	21	5215
2026-01-24 11:40:43.84	203.18	8.71	-30.7	-33.5	10.9	2.12e-03	0	41	102	1048576	21	4947
2026-01-24 11:40:44.84	203.26	8.78	-30.6	-33.3	11.0	1.90e-03	0	42	102	1048576	21	4872
2026-01-24 11:40:45.85	203.35	8.85	-30.6	-33.2	11.0	2.19e-03	0	42	102	1048576	21	4841
2026-01-24 11:40:46.86	203.44	8.93	-30.6	-33.4	10.8	2.32e-03	0	42	102	1048576	21	4935
2026-01-24 11:40:47.87	203.53	9.00	-30.5	-33.0	11.0	1.50e-03	0	42	102	1048576	21	4806
2026-01-24 11:40:48.86	203.61	9.07	-30.4	-32.7	11.2	1.44e-03	0	42	102	1048576	21	4707
2026-01-24 11:40:49.86	203.70	9.15	-30.5	-32.9	11.1	1.84e-03	0	42	102	1048576	21	4764
2026-01-24 11:40:50.86	203.79	9.22	-30.4	-32.8	11.2	1.33e-03	0	42	102	1048576	21	4708
2026-01-24 11:40:51.87	203.88	9.29	-30.3	-32.3	11.6	1.10e-03	0	42	102	1048576	21	4546
2026-01-24 11:40:52.87	203.97	9.37	-30.3	-32.5	11.5	7.17e-04	0	42	102	1048576	21	4605
2026-01-24 11:40:53.88	204.06	9.44	-30.4	-32.7	11.3	9.35e-04	0	42	102	1048576	21	4673
2026-01-24 11:40:54.87	204.15	9.51	-30.3	-32.4	11.7	8.46e-04	0	42	102	1048576	21	4546
2026-01-24 11:40:55.88	204.24	9.59	-30.5	-32.8	11.4	7.39e-04	0	42	102	1048576	21	4701
2026-01-24 11:40:56.88	204.33	9.66	-30.5	-32.7	11.6	8.48e-04	0	42	102	1048576	21	4640
2026-01-24 11:40:57.88	204.42	9.74	-30.3	-32.3	11.8	5.03e-04	0	42	102	1048576	21	4515
2026-01-24 11:40:58.88	204.51	9.81	-30.3	-32.4	11.7	4.40e-04	0	42	102	1048576	21	4550
2026-01-24 11:40:59.89	204.60	9.89	-30.4	-32.5	11.5	7.04e-04	0	42	102	1048576	21	4604
2026-01-24 11:41:00.89	204.70	9.96	-30.2	-32.1	11.8	5.90e-04	0	42	102	1048576	21	4471
2026-01-24 11:41:01.90	204.79	10.04	-30.1	-31.8	11.9	4.71e-04	0	42	102	1048576	21	4371
2026-01-24 11:41:02.90	204.88	10.11	-30.1	-31.9	11.9	4.18e-04	0	42	102	1048576	21	4407
2026-01-24 11:41:03.91	204.98	10.19	-30.3	-32.3	11.6	4.68e-04	0	42	102	1048576	21	4528
2026-01-24 11:41:04.91	205.07	10.26	-30.0	-31.7	11.9	4.13e-04	0	42	102	1048576	21	4333
2026-01-24 11:41:05.91	205.17	10.34	-29.9	-31.2	12.2	3.71e-04	0	42	102	1048576	21	4190
2026-01-24 11:41:06.91	205.26	10.42	-29.9	-31.4	12.0	2.60e-04	0	42	102	1048576	21	4248
2026-01-24 11:41:07.91	205.36	10.49	-29.9	-31.2	12.1	2.78e-04	0	42	102	1048576	21	4206
2026-01-24 11:41:08.91	205.45	10.57	-30.0	-31.6	11.9	3.33e-04	0	42	102	1048576	21	4334
2026-01-24 11:41:09.92	205.55	10.65	-29.9	-31.3	12.0	3.63e-04	0	42	102	1048576	21	4220
2026-01-24 11:41:10.92	205.65	10.72	-29.6	-31.0	12.6	1.17e-04	0	42	102	1048576	20	4205
2026-01-24 11:41:11.93	205.75	10.80	-29.6	-30.8	12.7	6.86e-05	0	42	102	1048576	20	4150
2026-01-24 11:41:12.93	205.84	10.88	-29.7	-31.0	12.6	6.02e-05	0	42	102	1048576	20	4203
2026-01-24 11:41:13.94	205.94	10.95	-29.6	-30.8	12.8	5.56e-05	0	42	102	1048576	20	4151
2026-01-24 11:41:14.95	206.04	11.03	-29.4	-30.3	13.1	4.57e-05	0	42	102	1048576	20	3991
2026-01-24 11:41:15.95	206.14	11.11	-29.7	-31.0	12.7	3.96e-05	0	42	102	1048576	20	4200
2026-01-24 11:41:16.97	206.25	11.19	-29.6	-30.6	13.1	4.50e-05	0	42	102	1048576	20	4065
2026-01-24 11:41:17.97	206.35	11.27	-29.6	-30.6	13.1	2.28e-05	0	42	102	1048576	20	4056
2026-01-24 11:41:18.97	206.45	11.34	-29.8	-31.3	12.7	3.12e-05	0	42	102	1048576	20	4278
2026-01-24 11:41:19.98	206.55	11.42	-29.7	-31.0	13.1	6.10e-05	0	42	102	1048576	20	4159
2026-01-24 11:41:20.98	206.65	11.50	-29.9	-31.4	12.9	4.19e-05	0	42	102	1048576	20	4276
2026-01-24 11:41:21.99	206.76	11.58	-30.0	-31.6	12.9	4.04e-05	0	42	102	1048576	20	4334
2026-01-24 11:41:22.99	206.86	11.66	-30.0	-31.6	12.9	5.79e-05	0	43	102	1048576	20	4324
2026-01-24 11:41:23.99	206.96	11.74	-30.2	-32.2	12.6	8.01e-05	0	42	102	1048576	20	4529
2026-01-24 11:41:25.00	207.07	11.82	-30.1	-31.8	12.9	6.79e-05	0	43	102	1048576	20	4393
2026-01-24 11:41:26.01	207.17	11.90	-30.3	-32.3	12.6	8.85e-05	0	43	102	1048576	20	4557
2026-01-24 11:41:27.01	207.28	11.98	-30.5	-32.5	12.1	1.82e-04	0	42	102	1048576	21	4554
2026-01-24 11:41:28.02	207.39	12.06	-30.3	-31.8	12.6	1.52e-04	0	42	102	1048576	21	4312
2026-01-24 11:41:29.02	207.49	12.13	-30.3	-31.8	12.6	1.01e-04	0	42	102	1048576	21	4296
2026-01-24 11:41:30.02	207.60	12.21	-30.2	-31.5	12.8	6.79e-05	0	43	102	1048576	21	4196
2026-01-24 11:41:31.01	207.71	12.29	-30.3	-31.9	12.6	9.53e-05	0	42	102	1048576	21	4317
2026-01-24 11:41:32.01	207.82	12.37	-30.2	-31.5	12.8	5.34e-05	0	42	102	1048576	21	4212
2026-01-24 11:41:33.02	207.93	12.45	-30.1	-31.4	12.9	5.49e-05	0	42	102	1048576	21	4170
2026-01-24 11:41:34.02	208.03	12.54	-30.2	-31.5	12.8	7.01e-05	0	42	102	1048576	21	4190
2026-01-24 11:41:35.03	208.15	12.62	-30.1	-31.2	13.0	5.87e-05	0	42	102	1048576	21	4111
2026-01-24 11:41:36.03	208.26	12.70	-30.2	-31.6	12.8	5.11e-05	0	42	102	1048576	21	4227
2026-01-24 11:41:37.04	208.37	12.78	-29.9	-30.8	13.3	3.12e-05	0	42	102	1048576	21	3985
2026-01-24 11:41:38.04	208.48	12.86	-29.8	-30.5	13.5	1.14e-05	0	43	102	1048576	21	3891
2026-01-24 11:41:39.05	208.59	12.94	-29.6	-30.5	13.8	9.90e-06	0	42	102	1048576	20	3994
2026-01-24 11:41:40.05	208.71	13.02	-29.8	-30.9	13.6	8.30e-06	0	43	102	1048576	20	4089
2026-01-24 11:41:41.05	208.82	13.11	-29.7	-30.6	13.8	8.30e-06	0	43	102	1048576	20	4015
2026-01-24 11:41:42.06	208.94	13.19	-29.6	-30.3	13.9	2.20e-06	0	43	102	1048576	20	3926
2026-01-24 11:41:43.05	209.05	13.27	-29.6	-30.5	13.8	3.80e-06	0	42	102	1048576	20	3977
2026-01-24 11:41:44.06	209.17	13.35	-29.7	-30.6	13.8	6.10e-06	0	43	102	1048576	20	4001
2026-01-24 11:41:45.06	209.28	13.43	-29.8	-31.0	13.6	9.90e-06	0	43	102	1048576	20	4112
2026-01-24 11:41:46.07	209.40	13.52	-29.6	-30.5	13.8	6.10e-06	0	43	102	1048576	20	3994
2026-01-24 11:41:47.07	209.52	13.60	-29.6	-30.6	13.8	3.00e-06	0	43	102	1048576	20	4004
2026-01-24 11:41:48.08	209.64	13.68	-29.7	-30.8	13.6	9.10e-06	0	43	102	1048576	20	4075
2026-01-24 11:41:49.08	209.75	13.77	-29.8	-30.9	13.6	9.90e-06	0	43	102	1048576	20	4104
2026-01-24 11:41:50.09	209.87	13.85	-29.8	-31.0	13.5	1.75e-05	0	43	102	1048576	20	4132
2026-01-24 11:41:51.09	209.99	13.93	-29.9	-31.3	13.3	1.83e-05	0	43	102	1048576	20	4207
2026-01-24 11:41:52.10	210.12	14.02	-30.0	-31.4	13.3	1.83e-05	0	43	102	1048576	20	4256
2026-01-24 11:41:53.11	210.24	14.10	-30.1	-31.8	13.1	4.50e-05	0	43	102	1048576	20	4361
2026-01-24 11:41:54.11	210.36	14.19	-30.0	-31.4	13.4	1.75e-05	0	43	102	1048576	20	4245
2026-01-24 11:41:55.12	210.48	14.27	-30.3	-32.2	12.8	5.11e-05	0	43	102	1048576	20	4512
2026-01-24 11:41:56.13	210.61	14.36	-30.1	-31.9	13.1	4.04e-05	0	43	102	1048576	20	4392
2026-01-24 11:41:57.13	210.73	14.44	-30.1	-31.9	13.1	3.43e-05	0	43	102	1048576	20	4386
2026-01-24 11:41:58.13	210.86	14.53	-30.2	-32.1	12.9	4.95e-05	0	43	102	1048576	20	4472
2026-01-24 11:41:59.14	210.98	14.61	-30.3	-32.2	12.8	5.18e-05	0	43	102	1048576	20	4492
2026-01-24 11:42:00.14	211.11	14.70	-30.2	-32.1	12.9	3.28e-05	0	43	102	1048576	20	4446
2026-01-24 11:42:01.14	211.24	14.78	-30.1	-31.8	13.1	4.11e-05	0	43	102	1048576	20	4363
2026-01-24 11:42:02.14	211.36	14.87	-30.2	-31.9	13.1	2.59e-05	0	43	102	1048576	20	4386
2026-01-24 11:42:03.14	211.49	14.95	-30.1	-31.7	13.2	3.12e-05	0	43	102	1048576	20	4335
2026-01-24 11:42:04.14	211.62	15.04	-30.2	-31.9	13.1	4.42e-05	0	43	102	1048576	20	4387
2026-01-24 11:42:05.15	211.75	15.12	-30.2	-31.9	13.1	3.12e-05	0	43	102	1048576	20	4386
2026-01-24 11:42:06.16	211.88	15.21	-30.1	-31.6	13.3	3.12e-05	0	43	102	1048576	20	4295
2026-01-24 11:42:07.17	212.01	15.30	-30.1	-31.7	13.2	2.97e-05	0	43	102	1048576	20	4339
2026-01-24 11:42:08.17	212.14	15.38	-30.1	-31.7	13.2	1.98e-05	0	43	102	1048576	20	4325
2026-01-24 11:42:09.18	212.28	15.47	-30.2	-32.0	13.1	3.35e-05	0	43	102	1048576	20	4422
2026-01-24 11:42:10.18	212.41	15.56	-30.3	-32.4	12.8	3.43e-05	0	43	102	1048576	20	4543
2026-01-24 11:42:11.19	212.55	15.65	-30.4	-32.0	12.7	9.00e-05	0	43	102	1048576	21	4345
2026-01-24 11:42:12.20	212.68	15.73	-30.3	-31.8	12.9	4.73e-05	0	43	102	1048576	21	4283
2026-01-24 11:42:13.20	212.82	15.82	-30.3	-31.8	12.9	4.88e-05	0	43	102	1048576	21	4264
2026-01-24 11:42:14.21	212.96	15.91	-30.4	-32.1	12.7	8.01e-05	0	43	102	1048576	21	4351
2026-01-24 11:42:15.21	213.09	16.00	-30.4	-32.0	12.7	5.64e-05	0	43	102	1048576	21	4328
2026-01-24 11:42:16.21	213.23	16.08	-30.4	-32.1	12.7	3.81e-05	0	43	102	1048576	21	4369
2026-01-24 11:42:17.21	213.37	16.17	-30.5	-32.3	12.5	1.36e-04	0	43	102	1048576	21	4437
2026-01-24 11:42:18.21	213.51	16.26	-30.2	-31.4	13.1	4.57e-05	0	43	102	1048576	21	4145
2026-01-24 11:42:19.21	213.65	16.35	-30.0	-31.0	13.5	1.67e-05	0	43	102	1048576	21	4016
2026-01-24 11:42:20.21	213.79	16.44	-30.1	-31.2	13.4	1.83e-05	0	43	102	1048576	21	4083
2026-01-24 11:42:21.22	213.93	16.53	-30.1	-31.2	13.3	1.90e-05	0	43	102	1048576	21	4095
2026-01-24 11:42:22.22	214.07	16.61	-30.2	-31.3	13.2	1.90e-05	0	43	102	1048576	21	4128
2026-01-24 11:42:23.22	214.22	16.70	-30.2	-31.4	13.2	2.51e-05	0	43	102	1048576	21	4135
2026-01-24 11:42:24.23	214.36	16.79	-30.1	-31.2	13.3	2.74e-05	0	43	102	1048576	21	4105
2026-01-24 11:42:25.22	214.51	16.88	-30.3	-31.7	13.0	2.97e-05	0	43	102	1048576	21	4231
2026-01-24 11:42:26.23	214.65	16.97	-30.3	-31.9	12.9	3.35e-05	0	43	102	1048576	21	4298
2026-01-24 11:42:27.23	214.80	17.06	-30.3	-31.7	13.0	3.66e-05	0	43	102	1048576	21	4250
2026-01-24 11:42:28.23	214.95	17.15	-30.4	-32.2	12.7	4.34e-05	0	43	102	1048576	21	4389
2026-01-24 11:42:29.23	215.10	17.24	-30.4	-32.1	12.8	6.02e-05	0	43	102	1048576	21	4350
2026-01-24 11:42:30.23	215.25	17.33	-30.4	-32.1	12.8	8.92e-05	0	43	102	1048576	21	4341
2026-01-24 11:42:31.24	215.40	17.42	-30.5	-32.2	12.7	6.79e-05	0	43	102	1048576	21	4393
2026-01-24 11:42:32.24	215.55	17.51	-30.7	-32.8	12.3	1.72e-04	0	43	102	1048576	21	4607
2026-01-24 11:42:33.25	215.70	17.60	-30.5	-32.4	12.5	1.20e-04	0	43	102	1048576	21	4471
2026-01-24 11:42:34.25	215.85	17.69	-30.4	-32.0	12.9	5.72e-05	0	43	102	1048576	21	4332
2026-01-24 11:42:35.25	216.01	17.78	-30.5	-32.2	12.7	7.17e-05	0	43	102	1048576	21	4410
2026-01-24 11:42:36.26	216.16	17.87	-30.5	-32.2	12.7	8.62e-05	0	43	102	1048576	21	4411
2026-01-24 11:42:37.25	216.32	17.96	-30.4	-32.1	12.8	6.25e-05	0	43	102	1048576	21	4357
2026-01-24 11:42:38.26	216.48	18.05	-30.5	-32.3	12.7	5.64e-05	0	43	102	1048576	21	4432
2026-01-24 11:42:39.26	216.63	18.15	-30.6	-32.5	12.5	1.27e-04	0	43	102	1048576	21	4482
2026-01-24 11:42:40.27	216.79	18.24	-30.4	-32.0	12.9	9.53e-05	0	43	102	1048576	21	4323
2026-01-24 11:42:41.28	216.95	18.33	-30.2	-31.5	13.2	2.21e-05	0	43	102	1048576	21	4166
2026-01-24 11:42:42.28	217.11	18.42	-30.3	-31.8	13.1	3.73e-05	0	43	102	1048576	21	4240
2026-01-24 11:42:43.28	217.27	18.51	-30.3	-31.8	13.0	4.27e-05	0	43	102	1048576	21	4242
2026-01-24 11:42:44.28	217.44	18.60	-30.3	-31.7	13.1	2.89e-05	0	43	102	1048576	21	4223
2026-01-24 11:42:45.28	217.60	18.70	-30.1	-31.1	13.5	1.83e-05	0	43	102	1048576	21	4044
2026-01-24 11:42:46.29	217.76	18.79	-29.9	-30.6	13.9	7.60e-06	0	43	102	1048576	21	3884
2026-01-24 11:42:47.29	217.93	18.88	-29.8	-30.8	14.0	3.00e-06	0	43	102	1048576	20	4038
2026-01-24 11:42:48.29	218.09	18.97	-29.8	-30.8	14.0	1.50e-06	0	43	102	1048576	20	4044
2026-01-24 11:42:49.30	218.26	19.07	-29.7	-30.4	14.3	6.10e-06	0	43	102	1048576	20	3925
2026-01-24 11:42:50.30	218.43	19.16	-29.9	-31.0	14.0	2.20e-06	0	43	102	1048576	20	4099
2026-01-24 11:42:51.30	218.60	19.25	-30.0	-31.4	13.7	5.30e-06	0	43	102	1048576	20	4204
2026-01-24 11:42:52.30	218.77	19.34	-29.8	-30.8	14.0	5.30e-06	0	43	102	1048576	20	4040
2026-01-24 11:42:53.31	218.94	19.44	-29.9	-31.0	13.9	4.50e-06	0	43	102	1048576	20	4095
2026-01-24 11:42:54.32	219.12	19.53	-29.7	-30.5	14.3	2.20e-06	0	43	102	1048576	20	3956
2026-01-24 11:42:55.32	219.29	19.62	-29.7	-30.5	14.3	5.30e-06	0	43	102	1048576	20	3945
2026-01-24 11:42:56.33	219.46	19.72	-29.5	-30.0	14.6	1.50e-06	0	43	102	1048576	20	3817
2026-01-24 11:42:57.34	219.64	19.81	-29.5	-30.1	14.5	7.00e-07	0	43	102	1048576	20	3855
2026-01-24 11:42:58.34	219.82	19.90	-29.6	-30.3	14.3	2.20e-06	0	43	102	1048576	20	3915
2026-01-24 11:42:59.35	219.99	20.00	-29.6	-30.4	14.4	0.00e+00	0	43	102	1048576	20	3915
2026-01-24 11:43:00.35	220.17	20.09	-29.7	-30.5	14.3	2.20e-06	0	43	102	1048576	20	3947
2026-01-24 11:43:01.36	220.35	20.18	-29.7	-30.6	14.1	4.50e-06	0	43	102	1048576	20	3999
2026-01-24 11:43:02.36	220.53	20.28	-29.7	-30.6	14.2	0.00e+00	0	43	102	1048576	20	3984
2026-01-24 11:43:03.37	220.72	20.37	-29.8	-30.6	14.2	7.00e-07	0	43	102	1048576	20	3988
2026-01-24 11:43:04.37	220.90	20.47	-29.8	-30.9	14.0	3.80e-06	0	43	102	1048576	20	4050
2026-01-24 11:43:05.37	221.08	20.56	-29.7	-30.6	14.3	1.50e-06	0	43	102	1048576	20	3964
2026-01-24 11:43:06.37	221.27	20.65	-29.7	-30.4	14.3	7.00e-07	0	43	102	1048576	20	3923
2026-01-24 11:43:07.38	221.45	20.75	-29.7	-30.4	14.4	7.00e-07	0	43	102	1048576	20	3911
2026-01-24 11:43:08.38	221.64	20.84	-29.7	-30.6	14.2	2.20e-06	0	43	102	1048576	20	3984
2026-01-24 11:43:09.39	221.83	20.94	-29.6	-30.3	14.4	0.00e+00	0	44	102	1048576	20	3893
2026-01-24 11:43:10.39	222.02	21.03	-29.6	-30.2	14.5	0.00e+00	0	43	102	1048576	20	3858
2026-01-24 11:43:11.40	222.21	21.13	-29.6	-30.2	14.5	1.50e-06	0	43	102	1048576	20	3861
2026-01-24 11:43:12.41	222.40	21.22	-29.8	-30.8	14.2	2.20e-06	0	43	102	1048576	20	4025
2026-01-24 11:43:13.41	222.60	21.31	-29.7	-30.4	14.3	7.00e-07	0	43	102	1048576	20	3932
2026-01-24 11:43:14.41	222.79	21.41	-29.4	-29.7	14.8	7.00e-07	0	43	102	1048576	20	3738
2026-01-24 11:43:15.42	222.99	21.50	-29.3	-29.9	15.0	0.00e+00	0	43	102	1048576	19	3866
2026-01-24 11:43:16.41	223.18	21.60	-29.1	-29.4	15.4	0.00e+00	0	43	102	1048576	19	3744
2026-01-24 11:43:17.41	223.38	21.69	-29.2	-29.7	15.2	0.00e+00	0	43	102	1048576	19	3801
2026-01-24 11:43:18.41	223.57	21.78	-29.2	-29.6	15.2	0.00e+00	0	43	102	1048576	19	3787
2026-01-24 11:43:19.42	223.77	21.88	-29.2	-29.6	15.2	0.00e+00	0	43	102	1048576	19	3780
2026-01-24 11:43:20.43	223.98	21.97	-28.9	-28.9	15.7	0.00e+00	0	43	102	1048576	19	3618
2026-01-24 11:43:21.43	224.18	22.07	-28.8	-28.7	15.8	0.00e+00	0	43	102	1048576	19	3559
2026-01-24 11:43:22.43	224.38	22.16	-28.6	-28.8	16.0	0.00e+00	0	43	102	1048576	18	3682
2026-01-24 11:43:23.44	224.59	22.26	-28.5	-28.5	16.3	0.00e+00	0	43	102	1048576	18	3584
2026-01-24 11:43:24.44	224.79	22.35	-28.3	-28.1	16.4	0.00e+00	0	43	102	1048576	18	3509
2026-01-24 11:43:25.44	225.00	22.44	-28.3	-28.4	16.5	0.00e+00	0	43	102	1048576	17	3668
2026-01-24 11:43:26.45	225.21	22.54	-28.2	-28.4	16.6	0.00e+00	0	43	102	1048576	17	3655
2026-01-24 11:43:27.45	225.42	22.63	-28.3	-28.6	16.5	0.00e+00	0	43	102	1048576	17	3706
2026-01-24 11:43:28.46	225.63	22.73	-28.6	-29.2	16.1	0.00e+00	0	43	102	1048576	17	3864
2026-01-24 11:43:29.47	225.84	22.82	-28.7	-29.4	16.0	0.00e+00	0	43	102	1048576	17	3920
2026-01-24 11:43:30.47	226.06	22.92	-28.8	-29.6	15.9	0.00e+00	0	43	102	1048576	17	3978
2026-01-24 11:43:31.47	226.27	23.01	-28.9	-30.0	15.6	0.00e+00	0	43	102	1048576	17	4086
2026-01-24 11:43:32.47	226.48	23.10	-29.1	-29.8	15.5	0.00e+00	0	43	102	1048576	18	3940
2026-01-24 11:43:33.48	226.70	23.20	-29.2	-30.2	15.2	8.30e-06	0	43	102	1048576	18	4048
2026-01-24 11:43:34.48	226.92	23.29	-29.5	-30.9	14.8	0.00e+00	0	43	102	1048576	18	4240
2026-01-24 11:43:35.48	227.14	23.39	-29.5	-30.5	14.8	0.00e+00	0	43	102	1048576	19	4020
2026-01-24 11:43:36.48	227.36	23.48	-29.7	-30.9	14.6	4.50e-06	0	43	102	1048576	19	4125
2026-01-24 11:43:37.48	227.58	23.57	-29.7	-30.9	14.6	0.00e+00	0	43	102	1048576	19	4128
2026-01-24 11:43:38.48	227.80	23.67	-29.7	-30.8	14.6	7.00e-07	0	43	102	1048576	19	4117
2026-01-24 11:43:39.48	228.03	23.76	-29.8	-31.2	14.4	7.60e-06	0	43	102	1048576	19	4226
2026-01-24 11:43:40.49	228.26	23.85	-29.8	-31.0	14.5	3.00e-06	0	43	102	1048576	19	4174
2026-01-24 11:43:41.49	228.48	23.94	-29.5	-30.5	14.8	0.00e+00	0	43	102	1048576	19	4007
2026-01-24 11:43:42.50	228.71	24.04	-29.4	-30.2	15.0	6.10e-06	0	43	102	1048576	19	3932
2026-01-24 11:43:43.50	228.94	24.13	-29.4	-30.0	15.1	0.00e+00	0	43	102	1048576	19	3893
2026-01-24 11:43:44.50	229.17	24.22	-29.5	-30.3	15.0	0.00e+00	0	43	102	1048576	19	3949
2026-01-24 11:43:45.51	229.41	24.32	-29.4	-30.1	15.0	3.80e-06	0	43	102	1048576	19	3909
2026-01-24 11:43:46.51	229.64	24.41	-29.5	-30.3	15.0	0.00e+00	0	43	102	1048576	19	3963
2026-01-24 11:43:47.52	229.88	24.50	-29.4	-30.1	15.1	0.00e+00	0	43	102	1048576	19	3911
2026-01-24 11:43:48.53	230.12	24.59	-29.6	-30.6	14.8	6.80e-06	0	43	102	1048576	19	4053
2026-01-24 11:43:49.53	230.35	24.68	-29.5	-30.3	15.0	0.00e+00	0	43	102	1048576	19	3962
2026-01-24 11:43:50.53	230.59	24.78	-29.5	-30.4	14.9	0.00e+00	0	43	102	1048576	19	3992
2026-01-24 11:43:51.53	230.83	24.87	-29.6	-30.6	14.9	6.80e-06	0	43	102	1048576	19	4036
2026-01-24 11:43:52.54	231.08	24.96	-29.5	-30.2	15.0	0.00e+00	0	43	102	1048576	19	3945
2026-01-24 11:43:53.54	231.32	25.05	-29.4	-30.2	15.0	0.00e+00	0	43	102	1048576	19	3929
2026-01-24 11:43:54.54	231.56	25.14	-29.5	-30.4	14.9	6.10e-06	0	43	102	1048576	19	3995
2026-01-24 11:43:55.55	231.81	25.23	-29.6	-30.7	14.8	0.00e+00	0	43	102	1048576	19	4064
2026-01-24 11:43:56.56	232.06	25.32	-29.3	-30.0	15.2	0.00e+00	0	43	102	1048576	19	3871
2026-01-24 11:43:57.56	232.31	25.41	-29.2	-29.5	15.4	0.00e+00	0	43	102	1048576	19	3743
2026-01-24 11:43:58.57	232.56	25.50	-29.1	-29.3	15.6	0.00e+00	0	43	102	1048576	19	3700
2026-01-24 11:43:59.57	232.81	25.59	-29.3	-29.8	15.4	0.00e+00	0	43	102	1048576	19	3823
2026-01-24 11:44:00.58	233.07	25.68	-29.6	-30.6	14.9	0.00e+00	0	43	102	1048576	19	4026
2026-01-24 11:44:01.58	233.32	25.77	-29.9	-31.2	14.4	1.50e-06	0	43	102	1048576	19	4221
2026-01-24 11:44:02.59	233.58	25.86	-30.0	-31.2	14.1	7.00e-07	0	43	102	1048576	20	4125
2026-01-24 11:44:03.60	233.84	25.95	-30.3	-31.8	13.7	1.06e-05	0	43	102	1048576	20	4314
2026-01-24 11:44:04.61	234.10	26.04	-30.1	-31.5	14.0	5.30e-06	0	43	102	1048576	20	4201
2026-01-24 11:44:05.61	234.36	26.12	-30.0	-31.0	14.3	4.50e-06	0	43	102	1048576	20	4074
2026-01-24 11:44:06.62	234.62	26.21	-29.7	-30.3	14.7	0.00e+00	0	43	102	1048576	20	3876
2026-01-24 11:44:07.62	234.88	26.30	-29.6	-30.1	14.8	7.00e-07	0	43	102	1048576	20	3810
2026-01-24 11:44:08.62	235.15	26.38	-29.5	-29.8	15.0	0.00e+00	0	43	102	1048576	20	3723
2026-01-24 11:44:09.62	235.41	26.47	-29.6	-30.2	14.8	7.00e-07	0	43	102	1048576	20	3827
2026-01-24 11:44:10.62	235.68	26.56	-29.7	-30.3	14.7	0.00e+00	0	43	102	1048576	20	3861
2026-01-24 11:44:11.63	235.95	26.64	-29.4	-29.5	15.2	0.00e+00	0	43	102	1048576	20	3666
2026-01-24 11:44:12.63	236.22	26.73	-29.5	-29.9	14.9	0.00e+00	0	43	102	1048576	20	3769
2026-01-24 11:44:13.63	236.49	26.81	-29.6	-30.2	14.8	0.00e+00	0	43	102	1048576	20	3831
2026-01-24 11:44:14.63	236.76	26.89	-29.6	-30.0	14.9	7.00e-07	0	43	102	1048576	20	3786
2026-01-24 11:44:15.63	237.03	26.98	-29.7	-30.4	14.7	0.00e+00	0	43	102	1048576	20	3883
2026-01-24 11:44:16.64	237.31	27.06	-29.9	-30.9	14.4	1.50e-06	0	43	102	1048576	20	4020
2026-01-24 11:44:17.64	237.59	27.15	-29.9	-30.7	14.4	1.50e-06	0	43	102	1048576	20	3979
2026-01-24 11:44:18.64	237.86	27.23	-29.2	-30.9	13.7	1.47e-02	0	43	102	1048576	19	4376
2026-01-24 11:44:19.65	238.15	27.31	-29.0	-30.3	14.1	7.43e-03	0	43	102	1048576	19	4172
2026-01-24 11:44:20.65	238.43	27.39	-28.8	-30.4	14.3	6.47e-03	0	43	102	1048576	18	4315
2026-01-24 11:44:21.66	238.71	27.47	-29.0	-30.8	14.2	7.78e-03	0	43	102	1048576	18	4426
2026-01-24 11:44:22.66	238.99	27.55	-29.8	-31.2	14.6	6.41e-03	0	43	102	1048576	19	4184
2026-01-24 11:44:23.66	239.28	27.63	-30.0	-31.0	14.3	1.50e-06	0	43	102	1048576	20	4061
2026-01-24 11:44:24.67	239.57	27.71	-30.0	-31.0	14.3	3.00e-06	0	43	102	1048576	20	4059
2026-01-24 11:44:25.67	239.86	27.79	-30.0	-31.2	14.2	2.20e-06	0	43	102	1048576	20	4111
2026-01-24 11:44:26.68	240.15	27.87	-30.1	-31.3	14.1	7.00e-07	0	43	102	1048576	20	4145
2026-01-24 11:44:27.68	240.44	27.95	-30.1	-31.4	14.1	5.30e-06	0	43	102	1048576	20	4153
2026-01-24 11:44:28.68	240.73	28.03	-30.2	-31.6	14.0	0.00e+00	0	44	102	1048576	20	4228
2026-01-24 11:44:29.69	241.03	28.10	-30.1	-31.4	14.1	4.50e-06	0	43	102	1048576	20	4154
2026-01-24 11:44:30.69	241.32	28.18	-29.9	-30.9	14.4	0.00e+00	0	43	102	1048576	20	4006
2026-01-24 11:44:31.69	241.62	28.25	-29.8	-30.5	14.6	0.00e+00	0	43	102	1048576	20	3915
2026-01-24 11:44:32.70	241.92	28.33	-29.8	-30.6	14.6	0.00e+00	0	43	102	1048576	20	3940
2026-01-24 11:44:33.70	242.21	28.40	-29.9	-30.8	14.4	0.00e+00	0	43	102	1048576	20	3998
2026-01-24 11:44:34.71	242.52	28.48	-29.9	-30.8	14.5	0.00e+00	0	43	102	1048576	20	3996
2026-01-24 11:44:35.71	242.82	28.55	-29.7	-30.4	14.7	4.50e-06	0	43	102	1048576	20	3873
2026-01-24 11:44:36.72	243.12	28.62	-29.8	-30.6	14.6	0.00e+00	0	43	102	1048576	20	3929
2026-01-24 11:44:37.72	243.43	28.69	-29.9	-30.7	14.5	7.00e-07	0	43	102	1048576	20	3975
2026-01-24 11:44:38.73	243.74	28.77	-30.1	-31.4	14.1	8.30e-06	0	43	102	1048576	20	4157
2026-01-24 11:44:39.73	244.04	28.84	-30.3	-31.8	13.9	7.00e-07	0	43	102	1048576	20	4281
2026-01-24 11:44:40.73	244.35	28.90	-30.4	-32.1	13.7	8.30e-06	0	43	102	1048576	20	4392
2026-01-24 11:44:41.74	244.66	28.97	-30.5	-31.7	13.5	1.44e-05	0	43	102	1048576	21	4171
2026-01-24 11:44:42.74	244.97	29.04	-30.5	-31.9	13.5	1.14e-05	0	43	102	1048576	21	4235
2026-01-24 11:44:43.74	245.28	29.11	-30.3	-31.4	13.9	6.10e-06	0	43	102	1048576	21	4066
2026-01-24 11:44:44.74	245.60	29.18	-30.1	-30.9	14.1	8.30e-06	0	43	102	1048576	21	3941
2026-01-24 11:44:45.74	245.91	29.24	-30.2	-31.1	14.0	0.00e+00	0	43	102	1048576	21	3998
2026-01-24 11:44:46.75	246.23	29.31	-30.6	-32.0	13.4	8.30e-06	0	43	102	1048576	21	4269
2026-01-24 11:44:47.75	246.55	29.37	-30.7	-32.5	13.1	3.89e-05	0	43	102	1048576	21	4418
2026-01-24 11:44:48.75	246.86	29.43	-30.7	-32.3	13.2	2.21e-05	0	43	102	1048576	21	4360
2026-01-24 11:44:49.75	247.18	29.50	-30.6	-32.1	13.4	1.75e-05	0	43	102	1048576	21	4295
2026-01-24 11:44:50.75	247.50	29.56	-30.6	-32.1	13.4	1.14e-05	0	43	102	1048576	21	4282
2026-01-24 11:44:51.76	247.83	29.62	-30.5	-31.8	13.6	1.14e-05	0	43	102	1048576	21	4183
2026-01-24 11:44:52.76	248.15	29.68	-30.4	-31.7	13.6	1.50e-06	0	43	102	1048576	21	4159
2026-01-24 11:44:53.76	248.47	29.74	-30.6	-32.2	13.3	2.51e-05	0	43	102	1048576	21	4316
2026-01-24 11:44:54.77	248.80	29.80	-30.8	-32.8	12.9	4.11e-05	0	43	102	1048576	21	4527
2026-01-24 11:44:55.77	249.13	29.85	-31.0	-32.6	12.8	5.03e-05	0	43	102	1048576	22	4354
2026-01-24 11:44:56.77	249.46	29.91	-31.2	-33.2	12.3	1.06e-04	0	43	102	1048576	22	4564
2026-01-24 11:44:57.77	249.78	29.97	-31.5	-34.1	11.8	3.02e-04	0	43	102	1048576	22	4867
2026-01-24 11:44:58.78	250.12	30.02	-31.7	-34.4	11.2	6.60e-04	0	43	102	1048576	23	4888
2026-01-24 11:44:59.78	250.45	30.07	-31.7	-34.4	11.1	1.79e-03	0	43	102	1048576	23	4914
2026-01-24 11:45:00.79	250.78	30.13	-31.6	-34.0	11.3	1.18e-03	0	43	102	1048576	23	4741
2026-01-24 11:45:01.79	251.11	30.18	-31.3	-33.1	12.0	3.95e-04	0	43	102	1048576	23	4444
2026-01-24 11:45:02.80	251.45	30.23	-31.0	-32.3	12.6	1.55e-04	0	43	102	1048576	23	4183
2026-01-24 11:45:03.80	251.79	30.28	-31.4	-33.3	12.0	2.20e-04	0	43	102	1048576	23	4495
2026-01-24 11:45:04.80	252.12	30.33	-31.5	-33.6	11.7	4.31e-04	0	43	102	1048576	23	4611
2026-01-24 11:45:05.81	252.46	30.38	-31.6	-33.9	11.5	6.66e-04	0	43	102	1048576	23	4720
2026-01-24 11:45:06.80	252.80	30.43	-31.7	-34.2	11.2	9.22e-04	0	43	102	1048576	23	4831
2026-01-24 11:45:07.81	253.14	30.47	-31.5	-33.6	11.7	5.26e-04	0	43	102	1048576	23	4616
2026-01-24 11:45:08.81	253.48	30.52	-31.5	-33.8	11.5	6.50e-04	0	43	102	1048576	23	4674
2026-01-24 11:45:09.82	253.82	30.56	-31.4	-33.5	11.8	8.81e-04	0	43	102	1048576	23	4573
2026-01-24 11:45:10.83	254.17	30.60	-31.2	-32.6	12.4	2.49e-04	0	43	102	1048576	23	4270
2026-01-24 11:45:11.83	254.51	30.65	-31.0	-32.1	12.8	7.01e-05	0	43	102	1048576	23	4091
2026-01-24 11:45:12.83	254.85	30.69	-30.9	-31.8	13.0	4.65e-05	0	44	102	1048576	23	4015
2026-01-24 11:45:13.83	255.20	30.73	-31.2	-32.9	12.3	1.28e-04	0	43	102	1048576	23	4341
2026-01-24 11:45:14.83	255.54	30.77	-31.5	-33.6	11.7	4.16e-04	0	43	102	1048576	23	4609
2026-01-24 11:45:15.84	255.89	30.80	-31.7	-34.2	11.3	7.47e-04	0	43	102	1048576	23	4817
2026-01-24 11:45:16.85	256.24	30.84	-31.5	-33.6	11.8	1.63e-03	0	43	102	1048576	23	4594
2026-01-24 11:45:17.85	256.59	30.88	-31.0	-32.2	12.6	1.71e-04	0	43	102	1048576	23	4134
2026-01-24 11:45:18.85	256.94	30.91	-30.8	-32.0	13.2	3.89e-05	0	43	102	1048576	22	4159
2026-01-24 11:45:19.86	257.29	30.94	-30.7	-32.0	13.2	2.44e-05	0	43	102	1048576	22	4152
2026-01-24 11:45:20.87	257.64	30.98	-30.7	-31.9	13.3	2.59e-05	0	43	102	1048576	22	4114
2026-01-24 11:45:21.87	257.99	31.01	-30.5	-31.2	13.6	1.06e-05	0	43	102	1048576	22	3932
2026-01-24 11:45:22.87	258.34	31.04	-30.1	-30.7	14.3	5.30e-06	0	43	102	1048576	21	3877
2026-01-24 11:45:23.87	258.69	31.07	-29.9	-30.3	14.6	0.00e+00	0	43	102	1048576	21	3760
2026-01-24 11:45:24.88	259.05	31.09	-30.1	-30.9	14.2	7.00e-07	0	43	102	1048576	21	3911
2026-01-24 11:45:25.88	259.40	31.12	-30.3	-31.3	14.0	1.50e-06	0	43	102	1048576	21	4027
2026-01-24 11:45:26.88	259.75	31.14	-30.7	-32.5	13.3	6.10e-06	0	43	102	1048576	21	4391
2026-01-24 11:45:27.89	260.11	31.17	-30.9	-32.9	12.9	6.33e-05	0	43	102	1048576	21	4546
2026-01-24 11:45:28.89	260.46	31.19	-30.9	-32.3	12.9	6.17e-05	0	43	102	1048576	22	4254
2026-01-24 11:45:29.90	260.82	31.21	-30.7	-31.8	13.3	2.13e-05	0	43	102	1048576	22	4085
2026-01-24 11:45:30.91	261.18	31.23	-30.8	-32.1	13.1	3.12e-05	0	43	102	1048576	22	4200
2026-01-24 11:45:31.91	261.53	31.25	-30.6	-31.6	13.5	1.90e-05	0	43	102	1048576	22	4024
2026-01-24 11:45:32.91	261.89	31.27	-30.3	-30.7	14.0	6.80e-06	0	43	102	1048576	22	3783
2026-01-24 11:45:33.91	262.25	31.29	-30.1	-30.8	14.2	1.50e-06	0	43	102	1048576	21	3893
2026-01-24 11:45:34.92	262.61	31.31	-30.2	-31.1	14.1	2.20e-06	0	43	102	1048576	21	3967
2026-01-24 11:45:35.92	262.96	31.32	-29.9	-30.3	14.6	0.00e+00	0	43	102	1048576	21	3758
2026-01-24 11:45:36.91	263.32	31.33	-30.3	-31.4	13.8	1.50e-06	0	43	102	1048576	21	4060
2026-01-24 11:45:37.92	263.68	31.35	-30.4	-31.6	13.8	7.60e-06	0	43	102	1048576	21	4108
2026-01-24 11:45:38.92	264.03	31.36	-30.9	-33.0	12.9	2.28e-05	0	43	102	1048576	21	4555
2026-01-24 11:45:39.92	264.39	31.37	-31.1	-32.8	12.7	7.40e-05	0	43	102	1048576	22	4413
2026-01-24 11:45:40.93	264.75	31.37	-31.4	-33.8	12.0	2.52e-04	0	43	102	1048576	22	4745
2026-01-24 11:45:41.94	265.11	31.38	-31.3	-33.6	12.1	2.47e-04	0	43	102	1048576	22	4671
2026-01-24 11:45:42.94	265.47	31.39	-31.0	-32.7	12.7	1.07e-04	0	43	102	1048576	22	4367
2026-01-24 11:45:43.95	265.83	31.39	-30.9	-32.2	13.1	3.50e-05	0	43	102	1048576	22	4224
2026-01-24 11:45:44.95	266.19	31.40	-30.9	-32.4	12.9	3.73e-05	0	43	102	1048576	22	4271
2026-01-24 11:45:45.96	266.56	31.40	-31.1	-32.9	12.6	5.72e-05	0	43	102	1048576	22	4452
2026-01-24 11:45:46.96	266.91	31.40	-31.0	-32.7	12.8	1.14e-04	0	43	102	1048576	22	4374
2026-01-24 11:45:47.97	267.28	31.40	-30.9	-32.4	12.9	4.57e-05	0	43	102	1048576	22	4282
2026-01-24 11:45:48.97	267.63	31.40	-30.7	-31.9	13.3	1.90e-05	0	43	102	1048576	22	4112
2026-01-24 11:45:49.98	268.00	31.40	-30.4	-31.0	13.8	8.30e-06	0	43	102	1048576	22	3871
2026-01-24 11:45:50.98	268.35	31.39	-30.4	-31.1	13.8	6.80e-06	0	43	102	1048576	22	3906
2026-01-24 11:45:51.98	268.71	31.39	-30.4	-30.9	13.9	6.10e-06	0	43	102	1048576	22	3842
2026-01-24 11:45:52.99	269.07	31.38	-30.4	-31.1	13.8	1.14e-05	0	43	102	1048576	22	3881
2026-01-24 11:45:53.99	269.43	31.38	-30.5	-31.2	13.7	6.80e-06	0	43	102	1048576	22	3923
2026-01-24 11:45:54.99	269.79	31.37	-30.4	-31.0	13.8	5.30e-06	0	43	102	1048576	22	3862
2026-01-24 11:45:55.99	270.15	31.36	-30.5	-31.3	13.6	3.80e-06	0	43	102	1048576	22	3954
2026-01-24 11:45:57.00	270.51	31.35	-30.4	-31.1	13.8	3.00e-06	0	43	102	1048576	22	3894
2026-01-24 11:45:58.01	270.87	31.33	-30.5	-31.2	13.7	6.80e-06	0	43	102	1048576	22	3905
2026-01-24 11:45:59.02	271.23	31.32	-31.2	-33.2	12.4	3.58e-05	0	43	102	1048576	22	4540
2026-01-24 11:46:00.02	271.59	31.31	-31.5	-33.6	11.9	2.72e-04	0	43	102	1048576	23	4589
2026-01-24 11:46:01.03	271.95	31.29	-31.4	-33.3	12.0	3.20e-04	0	43	102	1048576	23	4497
2026-01-24 11:46:02.04	272.31	31.27	-31.3	-33.0	12.2	2.54e-04	0	43	102	1048576	23	4385
2026-01-24 11:46:03.04	272.66	31.26	-31.3	-33.0	12.2	1.47e-04	0	43	102	1048576	23	4373
2026-01-24 11:46:04.04	273.02	31.24	-31.4	-33.2	11.9	2.92e-04	0	43	102	1048576	23	4462
2026-01-24 11:46:05.04	273.37	31.22	-31.2	-32.8	12.3	2.78e-04	0	43	102	1048576	23	4324
2026-01-24 11:46:06.05	273.73	31.19	-31.3	-33.0	12.2	2.40e-04	0	43	102	1048576	23	4390
2026-01-24 11:46:07.05	274.08	31.17	-31.5	-33.5	11.8	3.23e-04	0	43	102	1048576	23	4571
2026-01-24 11:46:08.05	274.43	31.15	-31.0	-32.1	12.8	1.17e-04	0	44	102	1048576	23	4096
2026-01-24 11:46:09.05	274.79	31.12	-30.7	-31.7	13.4	2.82e-05	0	43	102	1048576	22	4060
2026-01-24 11:46:10.06	275.14	31.10	-30.4	-31.2	13.7	9.10e-06	0	44	102	1048576	22	3911
2026-01-24 11:46:11.07	275.50	31.07	-30.5	-31.3	13.6	8.30e-06	0	44	102	1048576	22	3955
2026-01-24 11:46:12.08	275.85	31.04	-30.5	-31.4	13.7	4.50e-06	0	43	102	1048576	22	3961
2026-01-24 11:46:13.08	276.20	31.01	-30.5	-31.3	13.6	7.60e-06	0	43	102	1048576	22	3948
2026-01-24 11:46:14.08	276.55	30.98	-30.2	-30.9	14.2	3.00e-06	0	43	102	1048576	21	3935
2026-01-24 11:46:15.09	276.90	30.95	-30.1	-30.7	14.4	0.00e+00	0	44	102	1048576	21	3856
2026-01-24 11:46:16.09	277.25	30.91	-30.3	-31.2	14.1	0.00e+00	0	43	102	1048576	21	3993
2026-01-24 11:46:17.09	277.60	30.88	-30.8	-32.6	13.1	4.50e-06	0	43	102	1048576	21	4426
2026-01-24 11:46:18.09	277.95	30.85	-30.9	-33.0	12.9	5.49e-05	0	43	102	1048576	21	4560
2026-01-24 11:46:19.09	278.29	30.81	-31.5	-34.0	11.8	1.99e-04	0	43	102	1048576	22	4832
2026-01-24 11:46:20.10	278.64	30.77	-31.6	-33.9	11.6	5.44e-04	0	43	102	1048576	23	4678
2026-01-24 11:46:21.10	278.98	30.73	-31.8	-34.4	11.3	9.50e-04	0	43	102	1048576	23	4887
2026-01-24 11:46:22.11	279.33	30.69	-31.9	-34.8	11.0	1.67e-03	0	43	102	1048576	23	5051
2026-01-24 11:46:23.10	279.67	30.65	-31.9	-34.9	10.9	1.75e-03	0	43	102	1048576	23	5073
2026-01-24 11:46:24.11	280.01	30.61	-31.9	-34.8	10.9	2.07e-03	0	43	102	1048576	23	5050
2026-01-24 11:46:25.12	280.36	30.57	-31.6	-33.9	11.6	9.29e-04	0	43	102	1048576	23	4675
2026-01-24 11:46:26.12	280.70	30.52	-31.6	-33.9	11.5	6.56e-04	0	43	102	1048576	23	4708
2026-01-24 11:46:27.12	281.04	30.48	-31.8	-34.4	11.2	9.19e-04	0	43	102	1048576	23	4881
2026-01-24 11:46:28.12	281.38	30.43	-31.7	-34.2	11.4	1.27e-03	0	43	102	1048576	23	4805
2026-01-24 11:46:29.12	281.71	30.39	-32.1	-35.0	10.5	2.39e-03	0	43	102	1048576	24	5048
2026-01-24 11:46:30.13	282.05	30.34	-32.6	-36.2	9.1	1.03e-02	0	44	102	1048576	25	5481
2026-01-24 11:46:31.14	282.39	30.29	-32.4	-35.7	9.5	1.62e-02	0	43	102	1048576	25	5240
2026-01-24 11:46:32.15	282.73	30.24	-32.2	-34.7	10.3	1.17e-02	0	43	102	1048576	25	4820
2026-01-24 11:46:33.15	283.06	30.19	-31.9	-34.0	10.8	4.01e-03	0	43	102	1048576	25	4549
2026-01-24 11:46:34.16	283.40	30.14	-31.9	-33.9	10.8	2.05e-03	0	43	102	1048576	25	4519
2026-01-24 11:46:35.17	283.73	30.08	-32.2	-34.9	10.1	4.86e-03	0	43	102	1048576	25	4916
2026-01-24 11:46:36.17	284.06	30.03	-32.3	-35.3	9.8	1.11e-02	0	43	102	1048576	25	5076
2026-01-24 11:46:37.17	284.39	29.98	-31.9	-33.8	11.0	5.51e-03	0	43	102	1048576	25	4477
2026-01-24 11:46:38.18	284.72	29.92	-31.4	-32.9	11.9	7.18e-04	0	43	102	1048576	24	4260
2026-01-24 11:46:39.18	285.05	29.86	-31.2	-32.8	12.3	2.84e-04	0	43	102	1048576	23	4324
2026-01-24 11:46:40.18	285.37	29.81	-31.6	-33.9	11.6	3.81e-04	0	43	102	1048576	23	4708
2026-01-24 11:46:41.18	285.70	29.75	-31.6	-33.8	11.7	6.89e-04	0	43	102	1048576	23	4672
2026-01-24 11:46:42.18	286.02	29.69	-31.8	-34.4	11.2	1.03e-03	0	43	102	1048576	23	4893
2026-01-24 11:46:43.18	286.34	29.63	-31.6	-34.0	11.5	9.67e-04	0	43	102	1048576	23	4724
2026-01-24 11:46:44.18	286.66	29.57	-31.5	-33.6	11.7	8.26e-04	0	44	102	1048576	23	4602
2026-01-24 11:46:45.18	286.98	29.51	-31.4	-33.3	12.0	5.68e-04	0	43	102	1048576	23	4481
2026-01-24 11:46:46.18	287.30	29.45	-31.2	-32.8	12.4	2.53e-04	0	43	102	1048576	23	4316
2026-01-24 11:46:47.18	287.62	29.39	-31.2	-32.8	12.4	1.44e-04	0	43	102	1048576	23	4325
2026-01-24 11:46:48.19	287.94	29.32	-31.3	-33.0	12.2	2.09e-04	0	43	102	1048576	23	4382
2026-01-24 11:46:49.20	288.25	29.26	-31.4	-33.3	12.0	3.06e-04	0	43	102	1048576	23	4494
2026-01-24 11:46:50.20	288.57	29.19	-31.2	-32.8	12.4	2.16e-04	0	44	102	1048576	23	4323
2026-01-24 11:46:51.20	288.88	29.13	-30.9	-31.8	13.0	7.70e-05	0	43	102	1048576	23	4002
2026-01-24 11:46:52.20	289.19	29.06	-30.5	-31.2	13.7	1.98e-05	0	43	102	1048576	22	3918
2026-01-24 11:46:53.20	289.50	28.99	-30.7	-31.8	13.4	1.14e-05	0	43	102	1048576	22	4096
2026-01-24 11:46:54.20	289.81	28.92	-31.0	-32.5	12.9	2.05e-05	0	43	102	1048576	22	4306
2026-01-24 11:46:55.21	290.12	28.85	-31.0	-32.6	12.8	5.11e-05	0	44	102	1048576	22	4352
2026-01-24 11:46:56.22	290.43	28.78	-31.2	-33.2	12.4	1.39e-04	0	44	102	1048576	22	4535
2026-01-24 11:46:57.22	290.73	28.71	-31.4	-33.8	12.1	2.03e-04	0	43	102	1048576	22	4736
2026-01-24 11:46:58.22	291.03	28.64	-31.5	-33.6	11.7	3.17e-04	0	43	102	1048576	23	4598
2026-01-24 11:46:59.23	291.34	28.57	-31.7	-34.1	11.4	1.22e-03	0	43	102	1048576	23	4781
2026-01-24 11:47:00.22	291.64	28.50	-31.9	-34.8	11.0	1.26e-03	0	44	102	1048576	23	5030
2026-01-24 11:47:01.23	291.94	28.42	-32.1	-35.1	10.4	2.48e-03	0	44	102	1048576	24	5055
2026-01-24 11:47:02.23	292.24	28.35	-32.1	-35.1	10.4	4.95e-03	0	44	102	1048576	24	5065
2026-01-24 11:47:03.24	292.54	28.28	-32.2	-35.2	10.3	8.00e-03	0	44	102	1048576	24	5110
2026-01-24 11:47:04.24	292.83	28.20	-31.9	-34.3	10.9	4.02e-03	0	44	102	1048576	24	4755
2026-01-24 11:47:05.25	293.13	28.13	-31.2	-32.9	12.2	5.51e-04	0	43	102	1048576	23	4367
2026-01-24 11:47:06.25	293.42	28.05	-31.1	-32.6	12.5	1.63e-04	0	43	102	1048576	23	4252
2026-01-24 11:47:07.26	293.71	27.97	-31.2	-32.8	12.4	1.34e-04	0	43	102	1048576	23	4310
2026-01-24 11:47:08.26	294.00	27.90	-31.6	-34.0	11.6	1.96e-04	0	43	102	1048576	23	4728
2026-01-24 11:47:09.26	294.29	27.82	-32.0	-35.1	10.7	2.18e-03	0	43	102	1048576	23	5168
2026-01-24 11:47:10.27	294.58	27.74	-32.2	-35.5	10.0	5.56e-03	0	43	102	1048576	24	5223
2026-01-24 11:47:11.27	294.86	27.66	-32.4	-35.9	9.8	6.75e-03	0	43	102	1048576	24	5398
2026-01-24 11:47:12.28	295.15	27.58	-32.3	-35.8	9.8	1.32e-02	0	43	102	1048576	24	5388
2026-01-24 11:47:13.29	295.44	27.50	-32.3	-35.9	9.8	9.40e-03	0	44	102	1048576	24	5409
2026-01-24 11:47:14.29	295.72	27.42	-32.6	-36.2	9.2	1.19e-02	0	43	102	1048576	25	5480
2026-01-24 11:47:15.29	296.00	27.34	-32.5	-36.0	9.2	2.09e-02	0	43	102	1048576	25	5390
2026-01-24 11:47:16.29	296.28	27.26	-32.5	-35.9	9.4	1.44e-02	0	43	102	1048576	25	5314
2026-01-24 11:47:17.30	296.56	27.17	-32.5	-35.9	9.4	1.43e-02	0	44	102	1048576	25	5324
2026-01-24 11:47:18.30	296.83	27.09	-32.3	-35.3	9.9	1.11e-02	0	43	102	1048576	25	5064
2026-01-24 11:47:19.30	297.10	27.01	-32.3	-35.4	9.8	1.10e-02	0	43	102	1048576	25	5092
2026-01-24 11:47:20.30	297.38	26.93	-32.2	-35.0	10.1	1.01e-02	0	44	102	1048576	25	4925
2026-01-24 11:47:21.31	297.65	26.84	-32.1	-34.4	10.5	3.13e-03	0	43	102	1048576	25	4695
2026-01-24 11:47:22.31	297.92	26.76	-31.9	-34.3	10.9	1.84e-03	0	43	102	1048576	24	4749
2026-01-24 11:47:23.32	298.19	26.67	-31.8	-34.1	11.2	1.72e-03	0	43	102	1048576	24	4662
2026-01-24 11:47:24.32	298.46	26.59	-32.0	-34.5	10.8	2.01e-03	0	44	102	1048576	24	4840
2026-01-24 11:47:25.33	298.73	26.50	-32.0	-34.7	10.6	2.92e-03	0	43	102	1048576	24	4914
2026-01-24 11:47:26.33	298.99	26.42	-32.1	-35.0	10.4	3.63e-03	0	43	102	1048576	24	5027
2026-01-24 11:47:27.34	299.26	26.33	-32.2	-35.5	10.0	5.69e-03	0	43	102	1048576	24	5251
2026-01-24 11:47:28.34	299.52	26.25	-32.2	-35.3	10.2	6.35e-03	0	43	102	1048576	24	5168
2026-01-24 11:47:29.35	299.78	26.16	-32.1	-35.1	10.3	4.14e-03	0	43	102	1048576	24	5066
2026-01-24 11:47:30.35	300.04	26.07	-32.0	-34.7	10.5	4.87e-03	0	44	102	1048576	24	4931
2026-01-24 11:47:31.35	300.30	25.99	-31.8	-34.2	11.0	2.40e-03	0	44	102	1048576	24	4732
2026-01-24 11:47:32.35	300.55	25.90	-31.8	-34.0	11.1	1.76e-03	0	43	102	1048576	24	4662
2026-01-24 11:47:33.36	300.81	25.81	-31.8	-33.9	11.2	1.49e-03	0	43	102	1048576	24	4626
2026-01-24 11:47:34.36	301.06	25.72	-31.7	-33.8	11.4	1.96e-03	0	43	102	1048576	24	4561
2026-01-24 11:47:35.36	301.31	25.63	-31.7	-33.7	11.3	1.07e-03	0	43	102	1048576	24	4555
2026-01-24 11:47:36.37	301.57	25.54	-31.6	-33.4	11.6	6.71e-04	0	44	102	1048576	24	4426
2026-01-24 11:47:37.37	301.82	25.46	-31.4	-32.9	11.9	6.67e-04	0	43	102	1048576	24	4265
2026-01-24 11:47:38.38	302.07	25.37	-31.3	-32.7	12.1	3.91e-04	0	43	102	1048576	24	4201
2026-01-24 11:47:39.39	302.32	25.28	-31.3	-32.6	12.1	3.98e-04	0	44	102	1048576	24	4159
2026-01-24 11:47:40.40	302.56	25.18	-31.2	-32.8	12.2	2.00e-04	0	43	102	1048576	23	4324
2026-01-24 11:47:41.40	302.81	25.10	-31.3	-33.2	12.1	3.08e-04	0	44	102	1048576	23	4445
2026-01-24 11:47:42.41	303.05	25.00	-31.4	-33.4	11.9	3.36e-04	0	44	102	1048576	23	4540
2026-01-24 11:47:43.41	303.29	24.91	-31.3	-33.0	12.1	4.01e-04	0	43	102	1048576	23	4384
2026-01-24 11:47:44.42	303.53	24.82	-31.0	-32.3	12.6	1.97e-04	0	43	102	1048576	23	4163
2026-01-24 11:47:45.43	303.77	24.73	-31.1	-32.5	12.5	1.16e-04	0	44	102	1048576	23	4237
2026-01-24 11:47:46.43	304.01	24.64	-31.1	-32.4	12.5	1.87e-04	0	43	102	1048576	23	4188
2026-01-24 11:47:47.44	304.25	24.55	-30.8	-32.0	13.1	3.12e-05	0	44	102	1048576	22	4166
2026-01-24 11:47:48.44	304.48	24.46	-31.0	-32.7	12.7	4.11e-05	0	43	102	1048576	22	4384
2026-01-24 11:47:49.45	304.72	24.37	-31.4	-33.8	11.9	2.68e-04	0	44	102	1048576	22	4758
2026-01-24 11:47:50.45	304.95	24.27	-31.6	-33.8	11.5	5.81e-04	0	44	102	1048576	23	4677
2026-01-24 11:47:51.44	305.17	24.18	-31.6	-33.8	11.5	8.49e-04	0	43	102	1048576	23	4672
2026-01-24 11:47:52.45	305.41	24.09	-31.5	-33.7	11.7	7.48e-04	0	43	102	1048576	23	4621
2026-01-24 11:47:53.45	305.63	24.00	-31.4	-33.4	11.8	5.05e-04	0	44	102	1048576	23	4515
2026-01-24 11:47:54.45	305.86	23.91	-31.4	-33.4	11.8	2.37e-04	0	44	102	1048576	23	4541
2026-01-24 11:47:55.45	306.08	23.81	-31.4	-33.4	11.9	4.48e-04	0	43	102	1048576	23	4520
2026-01-24 11:47:56.46	306.31	23.72	-31.4	-33.3	11.9	1.70e-04	0	43	102	1048576	23	4500
2026-01-24 11:47:57.47	306.53	23.63	-31.8	-34.6	11.0	1.47e-03	0	43	102	1048576	23	4971
2026-01-24 11:47:58.47	306.75	23.54	-32.0	-34.9	10.4	3.27e-03	0	44	102	1048576	24	5012
2026-01-24 11:47:59.47	306.97	23.44	-32.3	-35.7	9.9	8.33e-03	0	44	102	1048576	24	5332
2026-01-24 11:48:00.48	307.19	23.35	-32.3	-35.7	9.8	1.44e-02	0	43	102	1048576	24	5330
2026-01-24 11:48:01.48	307.41	23.26	-31.6	-33.5	11.4	3.72e-03	0	44	102	1048576	24	4468
2026-01-24 11:48:02.48	307.63	23.16	-31.1	-32.4	12.6	1.14e-04	0	44	102	1048576	23	4187
2026-01-24 11:48:03.49	307.84	23.07	-30.6	-31.5	13.5	1.83e-05	0	44	102	1048576	22	3993
2026-01-24 11:48:04.49	308.06	22.98	-30.4	-31.1	13.7	3.80e-06	0	43	102	1048576	22	3886
2026-01-24 11:48:05.49	308.27	22.88	-30.4	-31.1	13.7	3.80e-06	0	43	102	1048576	22	3899
2026-01-24 11:48:06.49	308.48	22.79	-30.4	-31.1	13.7	8.30e-06	0	43	102	1048576	22	3902
2026-01-24 11:48:07.50	308.69	22.70	-30.0	-30.6	14.3	2.20e-06	0	44	102	1048576	21	3847
2026-01-24 11:48:08.50	308.90	22.60	-29.6	-30.0	15.0	1.50e-06	0	43	102	1048576	20	3769
2026-01-24 11:48:09.51	309.11	22.51	-29.3	-29.8	15.5	0.00e+00	0	43	102	1048576	19	3803
2026-01-24 11:48:10.51	309.31	22.42	-29.2	-29.5	15.6	0.00e+00	0	43	102	1048576	19	3717
2026-01-24 11:48:11.52	309.52	22.32	-29.5	-30.2	15.2	0.00e+00	0	44	102	1048576	19	3901
2026-01-24 11:48:12.53	309.73	22.23	-29.9	-30.9	14.4	7.00e-07	0	43	102	1048576	20	4019
2026-01-24 11:48:13.54	309.93	22.13	-30.5	-32.2	13.6	3.00e-06	0	43	102	1048576	20	4423
2026-01-24 11:48:14.54	310.13	22.04	-31.1	-33.1	12.4	2.67e-05	0	43	102	1048576	22	4504
2026-01-24 11:48:15.55	310.33	21.95	-31.7	-34.3	11.1	5.10e-04	0	43	102	1048576	23	4856
2026-01-24 11:48:16.55	310.53	21.85	-31.8	-34.7	10.9	1.79e-03	0	44	102	1048576	23	5008
2026-01-24 11:48:17.56	310.73	21.76	-31.7	-34.2	11.2	1.41e-03	0	43	102	1048576	23	4846
2026-01-24 11:48:18.56	310.93	21.67	-31.3	-33.1	12.0	5.61e-04	0	43	102	1048576	23	4423
2026-01-24 11:48:19.57	311.13	21.57	-30.9	-31.8	12.9	8.46e-05	0	43	102	1048576	23	4030
2026-01-24 11:48:20.56	311.32	21.48	-30.9	-32.0	12.8	6.48e-05	0	43	102	1048576	23	4080
2026-01-24 11:48:21.57	311.51	21.39	-30.8	-31.7	13.0	7.85e-05	0	43	102	1048576	23	3991
2026-01-24 11:48:22.57	311.70	21.29	-30.7	-32.0	13.1	2.97e-05	0	43	102	1048576	22	4152
2026-01-24 11:48:23.57	311.90	21.20	-30.7	-31.8	13.2	2.51e-05	0	43	102	1048576	22	4108
2026-01-24 11:48:24.57	312.08	21.11	-30.7	-31.8	13.2	2.05e-05	0	43	102	1048576	22	4106
2026-01-24 11:48:25.58	312.28	21.01	-30.6	-31.6	13.4	1.67e-05	0	43	102	1048576	22	4036
2026-01-24 11:48:26.59	312.46	20.92	-30.3	-30.9	13.8	6.10e-06	0	44	102	1048576	22	3840
2026-01-24 11:48:27.59	312.65	20.83	-29.9	-30.2	14.5	1.50e-06	0	43	102	1048576	21	3747
2026-01-24 11:48:28.60	312.84	20.73	-29.7	-30.2	14.8	1.50e-06	0	43	102	1048576	20	3828
2026-01-24 11:48:29.60	313.02	20.64	-29.5	-29.7	15.1	7.00e-07	0	43	102	1048576	20	3692
2026-01-24 11:48:30.60	313.20	20.55	-29.4	-29.5	15.2	0.00e+00	0	43	102	1048576	20	3650
2026-01-24 11:48:31.60	313.39	20.45	-29.4	-30.1	15.2	0.00e+00	0	43	102	1048576	19	3889
2026-01-24 11:48:32.60	313.57	20.36	-29.7	-30.7	14.9	0.00e+00	0	43	102	1048576	19	4042
2026-01-24 11:48:33.61	313.75	20.27	-29.8	-31.1	14.7	7.00e-07	0	44	102	1048576	19	4150
2026-01-24 11:48:34.62	313.93	20.17	-29.9	-30.9	14.4	2.20e-06	0	44	102	1048576	20	4023
2026-01-24 11:48:35.63	314.11	20.08	-30.0	-31.2	14.2	7.00e-07	0	43	102	1048576	20	4116
2026-01-24 11:48:36.63	314.28	19.99	-29.9	-31.0	14.3	7.00e-07	0	43	102	1048576	20	4042
2026-01-24 11:48:37.63	314.46	19.90	-29.8	-30.5	14.6	7.00e-07	0	43	102	1048576	20	3922
2026-01-24 11:48:38.62	314.63	19.80	-29.9	-30.7	14.4	0.00e+00	0	44	102	1048576	20	3977
2026-01-24 11:48:39.63	314.81	19.71	-29.9	-30.7	14.4	0.00e+00	0	44	102	1048576	20	3982
2026-01-24 11:48:40.63	314.98	19.62	-30.1	-31.3	14.1	0.00e+00	0	44	102	1048576	20	4141
2026-01-24 11:48:41.63	315.15	19.53	-30.3	-31.9	13.7	3.00e-06	0	43	102	1048576	20	4318
2026-01-24 11:48:42.64	315.32	19.43	-30.6	-32.0	13.3	8.30e-06	0	43	102	1048576	21	4276
2026-01-24 11:48:43.64	315.49	19.34	-30.8	-32.7	12.9	3.05e-05	0	43	102	1048576	21	4490
2026-01-24 11:48:44.64	315.66	19.25	-30.6	-32.3	13.1	2.82e-05	0	43	102	1048576	21	4346
2026-01-24 11:48:45.65	315.83	19.16	-30.4	-31.7	13.5	1.37e-05	0	43	102	1048576	21	4178
2026-01-24 11:48:46.66	316.00	19.07	-30.1	-31.0	14.0	6.10e-06	0	44	102	1048576	21	3962
2026-01-24 11:48:47.66	316.16	18.97	-30.1	-30.7	14.1	3.80e-06	0	43	102	1048576	21	3884
2026-01-24 11:48:48.66	316.33	18.88	-30.0	-30.6	14.2	0.00e+00	0	43	102	1048576	21	3844
2026-01-24 11:48:49.67	316.49	18.79	-29.7	-30.5	14.6	0.00e+00	0	44	102	1048576	20	3908
2026-01-24 11:48:50.66	316.66	18.70	-29.8	-30.5	14.5	7.00e-07	0	43	102	1048576	20	3920
2026-01-24 11:48:51.67	316.82	18.61	-29.7	-30.3	14.7	0.00e+00	0	44	102	1048576	20	3853
2026-01-24 11:48:52.67	316.98	18.52	-29.6	-30.1	14.8	0.00e+00	0	44	102	1048576	20	3803
2026-01-24 11:48:53.67	317.14	18.43	-29.6	-30.1	14.8	7.00e-07	0	43	102	1048576	20	3807
2026-01-24 11:48:54.68	317.30	18.34	-29.6	-30.0	14.9	0.00e+00	0	44	102	1048576	20	3777
2026-01-24 11:48:55.68	317.46	18.25	-29.7	-30.4	14.6	7.00e-07	0	43	102	1048576	20	3886
2026-01-24 11:48:56.69	317.62	18.15	-29.6	-30.0	14.8	0.00e+00	0	43	102	1048576	20	3772
2026-01-24 11:48:57.69	317.77	18.06	-29.4	-29.6	15.1	0.00e+00	0	44	102	1048576	20	3670
2026-01-24 11:48:58.69	317.93	17.97	-29.3	-29.8	15.3	0.00e+00	0	43	102	1048576	19	3817
2026-01-24 11:48:59.69	318.08	17.88	-29.3	-29.7	15.4	0.00e+00	0	43	102	1048576	19	3803
2026-01-24 11:49:00.70	318.24	17.79	-29.4	-30.1	15.2	0.00e+00	0	43	102	1048576	19	3882
2026-01-24 11:49:01.71	318.39	17.70	-29.4	-30.2	15.1	0.00e+00	0	43	102	1048576	19	3913
2026-01-24 11:49:02.72	318.54	17.61	-29.6	-30.4	14.9	0.00e+00	0	43	102	1048576	19	3986
2026-01-24 11:49:03.72	318.70	17.52	-29.8	-31.0	14.6	7.00e-07	0	44	102	1048576	19	4144
2026-01-24 11:49:04.73	318.85	17.43	-29.8	-31.0	14.6	0.00e+00	0	43	102	1048576	19	4131
2026-01-24 11:49:05.73	319.00	17.35	-29.9	-31.2	14.5	1.50e-06	0	43	102	1048576	19	4204
2026-01-24 11:49:06.74	319.15	17.26	-29.8	-31.1	14.5	0.00e+00	0	44	102	1048576	19	4173
2026-01-24 11:49:07.74	319.29	17.17	-29.8	-31.0	14.5	7.00e-07	0	43	102	1048576	19	4153
2026-01-24 11:49:08.74	319.44	17.08	-29.7	-30.9	14.7	0.00e+00	0	44	102	1048576	19	4119
2026-01-24 11:49:09.75	319.59	16.99	-29.8	-31.0	14.5	0.00e+00	0	43	102	1048576	19	4144
2026-01-24 11:49:10.75	319.73	16.90	-29.7	-30.7	14.7	0.00e+00	0	43	102	1048576	19	4079
2026-01-24 11:49:11.76	319.88	16.81	-29.8	-31.0	14.5	0.00e+00	0	43	102	1048576	19	4164
2026-01-24 11:49:12.76	320.02	16.72	-29.8	-31.0	14.5	0.00e+00	0	43	102	1048576	19	4156
2026-01-24 11:49:13.76	320.16	16.64	-29.7	-31.0	14.6	0.00e+00	0	43	102	1048576	19	4135
2026-01-24 11:49:14.77	320.31	16.55	-29.7	-30.9	14.6	7.00e-07	0	44	102	1048576	19	4123
2026-01-24 11:49:15.77	320.45	16.46	-29.8	-31.0	14.5	7.00e-07	0	43	102	1048576	19	4161
2026-01-24 11:49:16.77	320.59	16.37	-29.7	-30.7	14.7	0.00e+00	0	44	102	1048576	19	4072
2026-01-24 11:49:17.78	320.73	16.28	-29.7	-30.9	14.6	0.00e+00	0	43	102	1048576	19	4112
2026-01-24 11:49:18.78	320.87	16.20	-29.7	-30.8	14.6	0.00e+00	0	43	102	1048576	19	4093
2026-01-24 11:49:19.79	321.00	16.11	-29.8	-31.1	14.5	0.00e+00	0	43	102	1048576	19	4177
2026-01-24 11:49:20.79	321.14	16.02	-29.9	-31.3	14.3	3.80e-06	0	43	102	1048576	19	4253
2026-01-24 11:49:21.79	321.28	15.94	-29.9	-31.4	14.2	1.50e-06	0	43	102	1048576	19	4277
2026-01-24 11:49:22.80	321.41	15.85	-30.0	-31.1	14.1	7.00e-07	0	43	102	1048576	20	4096
2026-01-24 11:49:23.80	321.55	15.76	-30.1	-31.4	13.9	2.20e-06	0	43	102	1048576	20	4185
2026-01-24 11:49:24.80	321.68	15.68	-30.0	-31.2	14.0	3.80e-06	0	43	102	1048576	20	4117
2026-01-24 11:49:25.80	321.82	15.59	-29.9	-30.8	14.2	2.20e-06	0	43	102	1048576	20	4018
2026-01-24 11:49:26.81	321.95	15.50	-29.8	-30.6	14.3	2.20e-06	0	43	102	1048576	20	3957
2026-01-24 11:49:27.81	322.08	15.42	-29.8	-30.6	14.4	7.00e-07	0	44	102	1048576	20	3956
2026-01-24 11:49:28.81	322.21	15.33	-30.0	-31.1	14.0	2.20e-06	0	43	102	1048576	20	4096
2026-01-24 11:49:29.81	322.34	15.25	-30.0	-31.1	14.0	4.50e-06	0	43	102	1048576	20	4098
2026-01-24 11:49:30.82	322.47	15.16	-30.0	-31.0	14.0	3.80e-06	0	43	102	1048576	20	4080
2026-01-24 11:49:31.82	322.60	15.08	-30.2	-31.7	13.6	6.10e-06	0	43	102	1048576	20	4280
2026-01-24 11:49:32.82	322.73	14.99	-30.3	-32.0	13.4	9.10e-06	0	43	102	1048576	20	4373
2026-01-24 11:49:33.83	322.86	14.91	-30.4	-32.2	13.3	1.22e-05	0	43	102	1048576	20	4424
2026-01-24 11:49:34.83	322.99	14.82	-30.5	-32.4	13.2	1.75e-05	0	43	102	1048576	20	4501
2026-01-24 11:49:35.84	323.11	14.74	-30.3	-31.6	13.3	4.27e-05	0	44	102	1048576	21	4158
2026-01-24 11:49:36.84	323.24	14.65	-30.3	-31.5	13.4	1.44e-05	0	43	102	1048576	21	4145
2026-01-24 11:49:37.85	323.36	14.57	-30.5	-32.0	13.1	2.05e-05	0	43	102	1048576	21	4283
2026-01-24 11:49:38.85	323.49	14.48	-30.5	-32.1	13.1	4.19e-05	0	43	102	1048576	21	4307
2026-01-24 11:49:39.86	323.61	14.40	-30.5	-32.1	13.0	4.57e-05	0	43	102	1048576	21	4320
2026-01-24 11:49:40.86	323.74	14.32	-30.7	-32.6	12.7	8.23e-05	0	43	102	1048576	21	4476
2026-01-24 11:49:41.86	323.86	14.23	-30.7	-32.5	12.7	6.10e-05	0	44	102	1048576	21	4455
2026-01-24 11:49:42.86	323.98	14.15	-30.8	-32.8	12.5	7.01e-05	0	44	102	1048576	21	4567
2026-01-24 11:49:43.87	324.10	14.07	-30.7	-32.5	12.7	8.31e-05	0	44	102	1048576	21	4439
2026-01-24 11:49:44.87	324.22	13.98	-30.4	-31.8	13.2	2.59e-05	0	43	102	1048576	21	4225
2026-01-24 11:49:45.88	324.34	13.90	-30.3	-31.5	13.4	1.83e-05	0	43	102	1048576	21	4123
2026-01-24 11:49:46.88	324.46	13.82	-30.3	-31.6	13.3	7.60e-06	0	44	102	1048576	21	4164
2026-01-24 11:49:47.88	324.58	13.74	-30.2	-31.3	13.5	1.44e-05	0	43	102	1048576	21	4082
2026-01-24 11:49:48.89	324.70	13.65	-30.4	-31.9	13.1	1.67e-05	0	43	102	1048576	21	4245
2026-01-24 11:49:49.89	324.81	13.57	-30.5	-32.1	12.9	3.43e-05	0	43	102	1048576	21	4319
2026-01-24 11:49:50.90	324.93	13.49	-30.7	-32.5	12.7	6.33e-05	0	43	102	1048576	21	4456
2026-01-24 11:49:51.91	325.05	13.41	-30.7	-32.5	12.6	7.47e-05	0	43	102	1048576	21	4464
2026-01-24 11:49:52.91	325.16	13.33	-30.9	-33.3	12.2	1.95e-04	0	43	102	1048576	21	4712
2026-01-24 11:49:53.92	325.28	13.24	-31.0	-33.0	12.0	2.88e-04	0	44	102	1048576	22	4539
2026-01-24 11:49:54.93	325.39	13.16	-31.1	-33.3	11.8	3.81e-04	0	44	102	1048576	22	4653
2026-01-24 11:49:55.93	325.51	13.08	-31.1	-33.4	11.7	6.23e-04	0	43	102	1048576	22	4679
2026-01-24 11:49:56.94	325.62	13.00	-31.3	-33.9	11.4	8.54e-04	0	43	102	1048576	22	4850
2026-01-24 11:49:57.94	325.73	12.92	-31.3	-33.8	11.4	1.20e-03	0	44	102	1048576	22	4831
2026-01-24 11:49:58.94	325.84	12.84	-31.3	-34.0	11.2	8.56e-04	0	43	102	1048576	22	4919
2026-01-24 11:49:59.94	325.95	12.76	-31.2	-33.6	11.6	9.63e-04	0	43	102	1048576	22	4761
2026-01-24 11:50:00.94	326.06	12.68	-31.1	-33.4	11.7	5.94e-04	0	43	102	1048576	22	4661
2026-01-24 11:50:01.95	326.17	12.60	-31.0	-33.0	12.0	3.62e-04	0	43	102	1048576	22	4535
2026-01-24 11:50:02.95	326.28	12.52	-31.1	-33.4	11.7	2.77e-04	0	43	102	1048576	22	4679
2026-01-24 11:50:03.95	326.39	12.44	-31.0	-33.0	12.0	2.85e-04	0	43	102	1048576	22	4536
2026-01-24 11:50:04.95	326.50	12.36	-31.0	-33.0	12.0	3.58e-04	0	44	102	1048576	22	4524
2026-01-24 11:50:05.96	326.61	12.28	-31.1	-33.3	11.8	4.52e-04	0	43	102	1048576	22	4631
2026-01-24 11:50:06.96	326.71	12.20	-31.2	-33.6	11.5	6.16e-04	0	44	102	1048576	22	4757
2026-01-24 11:50:07.96	326.82	12.12	-31.2	-33.6	11.5	9.80e-04	0	43	102	1048576	22	4745
2026-01-24 11:50:08.97	326.93	12.04	-31.2	-33.6	11.5	1.10e-03	0	43	102	1048576	22	4769
2026-01-24 11:50:09.97	327.03	11.96	-31.4	-34.3	11.0	1.48e-03	0	43	102	1048576	22	5014
2026-01-24 11:50:10.98	327.14	11.89	-31.4	-34.3	11.0	1.62e-03	0	43	102	1048576	22	5023
2026-01-24 11:50:11.99	327.24	11.81	-31.3	-34.0	11.2	1.48e-03	0	43	102	1048576	22	4929
2026-01-24 11:50:12.99	327.35	11.73	-31.3	-34.0	11.2	1.08e-03	0	43	102	1048576	22	4895
2026-01-24 11:50:13.99	327.45	11.65	-31.4	-34.3	11.0	2.26e-03	0	43	102	1048576	22	5023
2026-01-24 11:50:14.99	327.55	11.57	-31.2	-33.6	11.5	1.15e-03	0	43	102	1048576	22	4759
2026-01-24 11:50:15.99	327.66	11.50	-31.0	-33.0	11.9	5.56e-04	0	43	102	1048576	22	4541
2026-01-24 11:50:17.00	327.76	11.42	-30.8	-32.6	12.2	4.26e-04	0	43	102	1048576	22	4396
2026-01-24 11:50:18.00	327.86	11.34	-30.7	-32.3	12.3	1.66e-04	0	43	102	1048576	22	4324
2026-01-24 11:50:19.01	327.96	11.26	-30.8	-32.6	12.1	1.88e-04	0	43	102	1048576	22	4420
2026-01-24 11:50:20.01	328.06	11.19	-30.6	-32.0	12.5	1.21e-04	0	44	102	1048576	22	4230
2026-01-24 11:50:21.01	328.16	11.11	-30.7	-32.3	12.4	9.30e-05	0	43	102	1048576	22	4324
2026-01-24 11:50:22.02	328.26	11.03	-30.5	-31.7	12.7	1.17e-04	0	43	102	1048576	22	4131
2026-01-24 11:50:23.02	328.36	10.96	-30.4	-31.3	13.0	4.42e-05	0	43	102	1048576	22	3996
2026-01-24 11:50:24.02	328.46	10.88	-30.4	-31.3	13.0	3.05e-05	0	43	102	1048576	22	4008
2026-01-24 11:50:25.03	328.56	10.80	-30.5	-31.7	12.7	5.79e-05	0	43	102	1048576	22	4116
2026-01-24 11:50:26.03	328.65	10.73	-30.5	-31.6	12.8	5.56e-05	0	43	102	1048576	22	4089
2026-01-24 11:50:27.03	328.75	10.65	-30.6	-32.0	12.5	8.08e-05	0	43	102	1048576	22	4232
2026-01-24 11:50:28.04	328.85	10.58	-30.7	-32.2	12.4	1.36e-04	0	44	102	1048576	22	4280
2026-01-24 11:50:29.05	328.94	10.50	-30.7	-32.2	12.3	1.19e-04	0	44	102	1048576	22	4301
2026-01-24 11:50:30.05	329.04	10.43	-30.8	-32.5	12.1	2.53e-04	0	43	102	1048576	22	4401
2026-01-24 11:50:31.06	329.13	10.35	-30.9	-33.0	11.8	3.39e-04	0	43	102	1048576	22	4555
2026-01-24 11:50:32.07	329.23	10.27	-31.0	-33.1	11.7	4.94e-04	0	43	102	1048576	22	4612
2026-01-24 11:50:33.07	329.32	10.20	-30.9	-33.0	11.8	5.05e-04	0	43	102	1048576	22	4561
2026-01-24 11:50:34.08	329.42	10.12	-31.2	-33.6	11.3	8.03e-04	0	44	102	1048576	22	4796
2026-01-24 11:50:35.07	329.51	10.05	-31.2	-33.9	11.1	1.16e-03	0	43	102	1048576	22	4886
2026-01-24 11:50:36.08	329.60	9.98	-31.2	-33.9	11.1	1.38e-03	0	43	102	1048576	22	4888
2026-01-24 11:50:37.09	329.70	9.90	-31.2	-33.9	11.1	1.25e-03	0	43	102	1048576	22	4906
2026-01-24 11:50:38.09	329.79	9.83	-31.2	-33.7	11.3	1.65e-03	0	43	102	1048576	22	4818
2026-01-24 11:50:39.10	329.88	9.75	-31.1	-33.6	11.3	1.48e-03	0	43	102	1048576	22	4795
2026-01-24 11:50:40.10	329.97	9.68	-31.1	-33.7	11.2	1.18e-03	0	44	102	1048576	22	4824
2026-01-24 11:50:41.10	330.06	9.61	-31.1	-33.7	11.3	9.90e-04	0	43	102	1048576	22	4811
2026-01-24 11:50:42.10	330.15	9.53	-31.3	-34.1	10.9	1.40e-03	0	43	102	1048576	22	4970
2026-01-24 11:50:43.11	330.24	9.46	-31.1	-33.5	11.3	9.72e-04	0	43	102	1048576	22	4748
2026-01-24 11:50:44.11	330.33	9.39	-31.0	-33.4	11.4	7.26e-04	0	44	102	1048576	22	4718
2026-01-24 11:50:45.12	330.42	9.31	-30.9	-33.0	11.7	7.22e-04	0	43	102	1048576	22	4586
2026-01-24 11:50:46.12	330.51	9.24	-31.0	-33.2	11.5	8.85e-04	0	43	102	1048576	22	4629
2026-01-24 11:50:47.13	330.59	9.17	-30.8	-32.7	11.9	5.52e-04	0	43	102	1048576	22	4471
2026-01-24 11:50:48.13	330.68	9.10	-30.8	-32.5	11.9	3.12e-04	0	44	102	1048576	22	4399
2026-01-24 11:50:49.13	330.77	9.02	-30.8	-32.7	11.9	3.19e-04	0	43	102	1048576	22	4469
2026-01-24 11:50:50.13	330.86	8.95	-30.8	-32.7	11.9	5.17e-04	0	43	102	1048576	22	4456
2026-01-24 11:50:51.14	330.94	8.88	-30.7	-32.5	12.0	3.09e-04	0	43	102	1048576	22	4387
2026-01-24 11:50:52.14	331.03	8.81	-30.9	-32.9	11.7	4.71e-04	0	43	102	1048576	22	4551
2026-01-24 11:50:53.15	331.11	8.74	-30.6	-32.0	12.3	3.35e-04	0	43	102	1048576	22	4235
2026-01-24 11:50:54.15	331.20	8.66	-30.6	-32.0	12.3	2.60e-04	0	43	102	1048576	22	4240
2026-01-24 11:50:55.15	331.28	8.59	-30.7	-32.4	12.0	2.97e-04	0	43	102	1048576	22	4386
2026-01-24 11:50:56.15	331.37	8.52	-30.9	-32.9	11.7	4.19e-04	0	43	102	1048576	22	4545
2026-01-24 11:50:57.15	331.45	8.45	-30.6	-32.0	12.3	2.91e-04	0	43	102	1048576	22	4260
2026-01-24 11:50:58.16	331.54	8.38	-30.9	-33.0	11.6	4.81e-04	0	43	102	1048576	22	4589
2026-01-24 11:50:59.17	331.62	8.31	-30.7	-32.5	12.0	3.36e-04	0	44	102	1048576	22	4405
2026-01-24 11:51:00.17	331.70	8.24	-30.7	-32.3	12.0	3.13e-04	0	43	102	1048576	22	4353
2026-01-24 11:51:01.17	331.78	8.17	-30.7	-32.3	12.1	2.83e-04	0	44	102	1048576	22	4339
2026-01-24 11:51:02.17	331.87	8.10	-30.7	-32.3	12.1	2.53e-04	0	43	102	1048576	22	4341
2026-01-24 11:51:03.17	331.95	8.03	-30.8	-32.7	11.7	5.52e-04	0	44	102	1048576	22	4498
2026-01-24 11:51:04.18	332.03	7.96	-30.7	-32.6	11.8	4.50e-04	0	44	102	1048576	22	4440
2026-01-24 11:51:05.18	332.11	7.89	-30.6	-32.3	12.0	3.77e-04	0	43	102	1048576	22	4341
2026-01-24 11:51:06.17	332.19	7.82	-30.7	-32.5	11.9	2.78e-04	0	44	102	1048576	22	4406
2026-01-24 11:51:07.18	332.27	7.75	-30.8	-32.7	11.6	4.42e-04	0	44	102	1048576	22	4508
2026-01-24 11:51:08.18	332.35	7.68	-30.7	-32.5	11.9	4.16e-04	0	44	102	1048576	22	4417
2026-01-24 11:51:09.18	332.43	7.61	-30.7	-32.4	11.9	3.40e-04	0	44	102	1048576	22	4401
2026-01-24 11:51:10.19	332.51	7.54	-30.9	-33.0	11.5	1.11e-03	0	44	102	1048576	22	4584
2026-01-24 11:51:11.19	332.59	7.47	-30.7	-32.6	11.7	5.99e-04	0	44	102	1048576	22	4472
2026-01-24 11:51:12.20	332.67	7.40	-30.8	-32.6	11.7	4.20e-04	0	44	102	1048576	22	4476
2026-01-24 11:51:13.20	332.74	7.34	-30.8	-32.7	11.6	4.47e-04	0	43	102	1048576	22	4488
2026-01-24 11:51:14.21	332.82	7.27	-30.7	-32.6	11.7	5.83e-04	0	44	102	1048576	22	4460
2026-01-24 11:51:15.21	332.90	7.20	-30.8	-32.9	11.5	7.31e-04	0	43	102	1048576	22	4572
2026-01-24 11:51:16.21	332.98	7.13	-30.7	-32.6	11.7	5.55e-04	0	43	102	1048576	22	4452
2026-01-24 11:51:17.22	333.05	7.06	-30.7	-32.4	11.9	7.16e-04	0	44	102	1048576	22	4414
2026-01-24 11:51:18.22	333.13	6.99	-33.8	-46.2	3.8	1.49e+00	0	43	104	1048576	27	15091
2026-01-24 11:51:19.23	333.21	6.93	-34.0	-46.1	3.8	1.49e+00	0	44	104	1048576	28	14659

#Closed at: 2026-01-24 11:51:19
#Recorded file [1 MB]: D:/data/31010_260124_144022.dat