passes_logs/2026/01/24/R2M6_AANII_01/R2M6_AANII_01__20260124_222818_NOAA_20_JPSS-1_rec.log

#Pass ID: 20260124_222818_NOAA 20 (JPSS-1)
#Satellite: NOAA 20 (JPSS-1)
#Configuration: NOAA 20
#almurnet v.1.7.20240730
#Start time: 2026-01-24 22:28:17

#Version: 2.2.20231116
#Station: R2M6_AANII_01
#Location: 30.233357 lon 59.946436 lat
#TLE: 1 43013U 17073A   26024.42258823  .00000183  00000+0  10747-3 0  9990
#TLE: 2 43013  98.7646 325.2629 0001105  25.8644 334.2587 14.19539754424075

#Time	Az	El	Level	Level2	SNR	BER	BlckErr	Temp	State	Recorded	gain1	gain2
2026-01-24 22:28:17.36	33.07	6.96	-31.8	-39.8	4.6	1.31e+00	0	41	0	0	23	9054
2026-01-24 22:28:18.36	33.18	7.01	-31.8	-39.9	4.6	1.29e+00	0	41	104	0	23	9090
2026-01-24 22:28:19.37	33.29	7.07	-31.9	-40.1	5.9	3.26e-01	0	41	0	0	23	9278
2026-01-24 22:28:20.37	33.39	7.13	-31.8	-39.7	6.2	3.15e-01	0	41	102	1048576	23	8946
2026-01-24 22:28:21.37	33.50	7.18	-31.8	-39.6	6.4	2.56e-01	0	41	102	1048576	23	8780
2026-01-24 22:28:22.37	33.61	7.24	-31.9	-39.8	6.2	2.71e-01	0	41	102	1048576	23	8993
2026-01-24 22:28:23.37	33.72	7.30	-31.9	-39.9	6.1	3.11e-01	0	42	102	1048576	23	9024
2026-01-24 22:28:24.37	33.84	7.36	-31.8	-39.4	6.5	2.43e-01	0	41	102	1048576	23	8598
2026-01-24 22:28:25.37	33.95	7.41	-31.8	-39.2	6.7	2.08e-01	0	42	102	1048576	23	8425
2026-01-24 22:28:26.38	34.06	7.47	-31.8	-38.8	7.1	1.66e-01	0	42	102	1048576	23	8071
2026-01-24 22:28:27.38	34.17	7.53	-31.7	-38.4	7.4	1.28e-01	0	42	102	1048576	23	7768
2026-01-24 22:28:28.38	34.28	7.58	-31.7	-38.1	7.6	1.04e-01	0	42	102	1048576	23	7565
2026-01-24 22:28:29.39	34.40	7.64	-31.7	-38.1	7.6	9.62e-02	0	42	102	1048576	23	7522
2026-01-24 22:28:30.40	34.51	7.70	-31.6	-38.0	7.7	9.16e-02	0	42	102	1048576	23	7474
2026-01-24 22:28:31.41	34.63	7.76	-31.7	-38.5	7.3	9.94e-02	0	42	102	1048576	23	7834
2026-01-24 22:28:32.41	34.74	7.82	-31.8	-38.8	7.1	1.76e-01	0	42	102	1048576	23	8062
2026-01-24 22:28:33.42	34.86	7.87	-31.5	-37.6	8.0	1.03e-01	0	42	102	1048576	23	7210
2026-01-24 22:28:34.42	34.97	7.93	-31.8	-37.9	8.4	4.93e-02	0	42	102	1048576	23	7261
2026-01-24 22:28:35.42	35.09	7.99	-31.3	-36.4	9.3	2.71e-02	0	42	102	1048576	23	6439
2026-01-24 22:28:36.42	35.20	8.05	-31.0	-35.6	10.2	1.06e-02	0	42	102	1048576	22	6136
2026-01-24 22:28:37.44	35.32	8.10	-30.8	-35.0	10.6	3.34e-03	0	42	102	1048576	22	5816
2026-01-24 22:28:38.44	35.44	8.16	-30.5	-34.1	11.3	1.60e-03	0	42	102	1048576	22	5416
2026-01-24 22:28:39.44	35.56	8.22	-30.4	-34.3	11.5	7.68e-04	0	42	102	1048576	21	5618
2026-01-24 22:28:40.45	35.68	8.28	-30.4	-34.2	11.6	6.90e-04	0	42	102	1048576	21	5573
2026-01-24 22:28:41.45	35.79	8.34	-30.4	-34.3	11.5	7.65e-04	0	42	102	1048576	21	5601
2026-01-24 22:28:42.46	35.91	8.39	-30.4	-34.3	11.5	8.36e-04	0	42	102	1048576	21	5610
2026-01-24 22:28:43.46	36.03	8.45	-30.5	-34.3	11.5	7.67e-04	0	42	102	1048576	21	5623
2026-01-24 22:28:44.46	36.15	8.51	-30.5	-34.3	11.5	8.69e-04	0	42	102	1048576	21	5628
2026-01-24 22:28:45.47	36.27	8.57	-30.5	-34.4	11.5	7.56e-04	0	42	102	1048576	21	5644
2026-01-24 22:28:46.47	36.39	8.62	-30.5	-34.6	11.5	8.94e-04	0	42	102	1048576	21	5723
2026-01-24 22:28:47.47	36.51	8.68	-30.5	-34.5	11.4	7.79e-04	0	42	102	1048576	21	5691
2026-01-24 22:28:48.47	36.64	8.74	-30.6	-34.7	11.3	1.43e-03	0	42	102	1048576	21	5791
2026-01-24 22:28:49.48	36.76	8.80	-30.5	-34.6	11.4	9.76e-04	0	42	102	1048576	21	5724
2026-01-24 22:28:50.48	36.88	8.86	-30.4	-34.5	11.3	1.27e-03	0	42	102	1048576	21	5737
2026-01-24 22:28:51.49	37.00	8.92	-30.5	-34.5	11.5	8.69e-04	0	42	102	1048576	21	5677
2026-01-24 22:28:52.50	37.13	8.97	-30.5	-34.6	11.4	8.30e-04	0	42	102	1048576	21	5720
2026-01-24 22:28:53.50	37.25	9.03	-30.5	-34.5	11.4	1.04e-03	0	42	102	1048576	21	5674
2026-01-24 22:28:54.51	37.38	9.09	-30.5	-34.4	11.5	7.60e-04	0	43	102	1048576	21	5645
2026-01-24 22:28:55.51	37.50	9.15	-30.6	-34.6	11.5	1.07e-03	0	42	102	1048576	21	5705
2026-01-24 22:28:56.52	37.63	9.21	-30.5	-34.4	11.5	8.76e-04	0	43	102	1048576	21	5644
2026-01-24 22:28:57.52	37.76	9.26	-30.4	-34.2	11.8	5.63e-04	0	42	102	1048576	21	5534
2026-01-24 22:28:58.53	37.88	9.32	-30.5	-34.2	11.7	5.94e-04	0	43	102	1048576	21	5557
2026-01-24 22:28:59.54	38.01	9.38	-30.4	-34.1	11.8	6.17e-04	0	43	102	1048576	21	5494
2026-01-24 22:29:00.54	38.14	9.44	-30.5	-34.3	11.7	6.51e-04	0	42	102	1048576	21	5565
2026-01-24 22:29:01.54	38.26	9.50	-30.4	-34.1	11.8	4.98e-04	0	43	102	1048576	21	5491
2026-01-24 22:29:02.55	38.39	9.56	-30.5	-34.5	11.5	6.45e-04	0	42	102	1048576	21	5684
2026-01-24 22:29:03.55	38.52	9.62	-30.6	-34.6	11.4	8.41e-04	0	42	102	1048576	21	5716
2026-01-24 22:29:04.56	38.65	9.67	-30.5	-34.3	11.6	6.59e-04	0	42	102	1048576	21	5604
2026-01-24 22:29:05.56	38.78	9.73	-30.5	-34.5	11.5	7.74e-04	0	43	102	1048576	21	5691
2026-01-24 22:29:06.56	38.91	9.79	-30.6	-34.7	11.4	7.54e-04	0	43	102	1048576	21	5785
2026-01-24 22:29:07.57	39.04	9.85	-30.6	-34.7	11.4	1.23e-03	0	43	102	1048576	21	5761
2026-01-24 22:29:08.57	39.18	9.91	-30.5	-34.4	11.6	8.77e-04	0	43	102	1048576	21	5626
2026-01-24 22:29:09.58	39.31	9.97	-30.4	-34.1	11.8	5.82e-04	0	43	102	1048576	21	5500
2026-01-24 22:29:10.59	39.44	10.02	-30.4	-34.0	12.0	3.97e-04	0	43	102	1048576	21	5438
2026-01-24 22:29:11.59	39.57	10.08	-30.4	-34.0	12.0	3.96e-04	0	43	102	1048576	21	5440
2026-01-24 22:29:12.60	39.71	10.14	-30.4	-34.0	11.8	4.03e-04	0	43	102	1048576	21	5477
2026-01-24 22:29:13.60	39.84	10.20	-30.4	-34.2	11.7	4.32e-04	0	43	102	1048576	21	5546
2026-01-24 22:29:14.59	39.98	10.26	-30.4	-34.0	11.9	5.42e-04	0	43	102	1048576	21	5462
2026-01-24 22:29:15.60	40.11	10.32	-30.3	-33.7	12.2	2.73e-04	0	43	102	1048576	21	5324
2026-01-24 22:29:16.60	40.25	10.37	-30.3	-33.6	12.2	2.11e-04	0	43	102	1048576	21	5284
2026-01-24 22:29:17.60	40.38	10.43	-30.3	-33.6	12.2	1.69e-04	0	43	102	1048576	21	5309
2026-01-24 22:29:18.60	40.52	10.49	-30.3	-33.6	12.2	2.27e-04	0	43	102	1048576	21	5296
2026-01-24 22:29:19.60	40.66	10.55	-30.2	-33.5	12.2	1.92e-04	0	43	102	1048576	21	5260
2026-01-24 22:29:20.61	40.79	10.61	-30.2	-33.5	12.2	2.04e-04	0	43	102	1048576	21	5263
2026-01-24 22:29:21.61	40.93	10.67	-30.3	-33.7	12.1	2.99e-04	0	43	102	1048576	21	5345
2026-01-24 22:29:22.61	41.07	10.72	-30.3	-33.9	12.0	3.27e-04	0	43	102	1048576	21	5418
2026-01-24 22:29:23.61	41.21	10.78	-30.3	-33.7	12.1	2.82e-04	0	43	102	1048576	21	5358
2026-01-24 22:29:24.62	41.35	10.84	-30.2	-33.5	12.2	2.55e-04	0	43	102	1048576	21	5276
2026-01-24 22:29:25.62	41.49	10.90	-30.2	-33.6	12.1	2.28e-04	0	43	102	1048576	21	5284
2026-01-24 22:29:26.63	41.63	10.96	-30.2	-33.6	12.2	2.82e-04	0	43	102	1048576	21	5281
2026-01-24 22:29:27.64	41.77	11.02	-30.2	-33.4	12.4	1.63e-04	0	43	102	1048576	21	5201
2026-01-24 22:29:28.64	41.92	11.08	-30.2	-33.5	12.3	1.70e-04	0	43	102	1048576	21	5251
2026-01-24 22:29:29.65	42.06	11.13	-30.2	-33.4	12.3	1.61e-04	0	43	102	1048576	21	5209
2026-01-24 22:29:30.66	42.20	11.19	-30.3	-33.8	12.1	2.39e-04	0	43	102	1048576	21	5349
2026-01-24 22:29:31.66	42.35	11.25	-30.3	-33.7	12.1	2.98e-04	0	43	102	1048576	21	5316
2026-01-24 22:29:32.67	42.49	11.31	-30.2	-33.5	12.3	2.25e-04	0	43	102	1048576	21	5248
2026-01-24 22:29:33.68	42.64	11.37	-30.2	-33.4	12.3	1.64e-04	0	43	102	1048576	21	5198
2026-01-24 22:29:34.68	42.78	11.43	-30.2	-33.5	12.4	1.60e-04	0	43	102	1048576	21	5222
2026-01-24 22:29:35.69	42.93	11.48	-30.2	-33.5	12.3	1.59e-04	0	43	102	1048576	21	5256
2026-01-24 22:29:36.69	43.07	11.54	-30.3	-33.6	12.2	1.52e-04	0	43	102	1048576	21	5300
2026-01-24 22:29:37.70	43.22	11.60	-30.2	-33.3	12.4	1.53e-04	0	43	102	1048576	21	5152
2026-01-24 22:29:38.71	43.37	11.66	-30.2	-33.4	12.4	1.34e-04	0	43	102	1048576	21	5187
2026-01-24 22:29:39.71	43.52	11.72	-30.0	-32.9	12.7	9.46e-05	0	43	102	1048576	21	5009
2026-01-24 22:29:40.71	43.67	11.78	-30.1	-33.1	12.6	1.40e-04	0	43	102	1048576	21	5074
2026-01-24 22:29:41.72	43.82	11.83	-30.0	-32.8	12.7	9.38e-05	0	43	102	1048576	21	4989
2026-01-24 22:29:42.73	43.97	11.89	-29.9	-32.6	12.8	4.27e-05	0	43	102	1048576	21	4897
2026-01-24 22:29:43.73	44.12	11.95	-29.9	-32.5	13.0	4.88e-05	0	43	102	1048576	21	4848
2026-01-24 22:29:44.74	44.27	12.01	-30.0	-32.7	12.8	5.49e-05	0	43	102	1048576	21	4925
2026-01-24 22:29:45.75	44.42	12.07	-29.9	-33.0	13.0	5.87e-05	0	43	102	1048576	20	5151
2026-01-24 22:29:46.76	44.58	12.12	-29.8	-32.7	13.2	3.43e-05	0	43	102	1048576	20	5029
2026-01-24 22:29:47.76	44.73	12.18	-29.7	-32.6	13.3	2.05e-05	0	43	102	1048576	20	4998
2026-01-24 22:29:48.76	44.88	12.24	-29.8	-32.6	13.3	1.60e-05	0	43	102	1048576	20	4986
2026-01-24 22:29:49.76	45.03	12.30	-29.8	-32.8	13.1	3.12e-05	0	43	102	1048576	20	5087
2026-01-24 22:29:50.76	45.19	12.35	-29.8	-32.7	13.2	2.74e-05	0	43	102	1048576	20	5020
2026-01-24 22:29:51.77	45.34	12.41	-29.9	-32.9	13.1	2.54e-04	0	43	102	1048576	20	5098
2026-01-24 22:29:52.77	45.50	12.47	-29.9	-33.3	13.2	2.36e-05	0	43	102	1048576	19	5374
2026-01-24 22:29:53.76	45.65	12.53	-29.9	-33.4	13.2	2.21e-05	0	43	102	1048576	19	5380
2026-01-24 22:29:54.77	45.81	12.58	-29.8	-33.2	13.3	1.94e-04	0	43	102	1048576	19	5306
2026-01-24 22:29:55.77	45.97	12.64	-29.8	-33.3	13.3	1.01e-04	0	43	102	1048576	19	5351
2026-01-24 22:29:56.77	46.13	12.70	-29.9	-33.5	13.1	2.82e-05	0	43	102	1048576	19	5443
2026-01-24 22:29:57.78	46.29	12.76	-29.9	-33.4	13.2	2.89e-05	0	43	102	1048576	19	5410
2026-01-24 22:29:58.78	46.45	12.81	-30.0	-33.6	13.0	2.89e-05	0	43	102	1048576	19	5492
2026-01-24 22:29:59.79	46.61	12.87	-29.8	-32.8	13.2	3.28e-05	0	43	102	1048576	20	5061
2026-01-24 22:30:00.79	46.77	12.93	-29.8	-32.6	13.4	1.98e-05	0	43	102	1048576	20	4969
2026-01-24 22:30:01.79	46.93	12.98	-29.7	-32.4	13.4	1.75e-05	0	43	102	1048576	20	4929
2026-01-24 22:30:02.79	47.09	13.04	-29.7	-32.5	13.4	1.37e-05	0	43	102	1048576	20	4936
2026-01-24 22:30:03.80	47.25	13.10	-29.8	-32.7	13.3	1.44e-05	0	43	102	1048576	20	5009
2026-01-24 22:30:04.81	47.42	13.16	-29.9	-32.8	13.1	3.20e-05	0	43	102	1048576	20	5072
2026-01-24 22:30:05.80	47.58	13.21	-30.0	-33.3	12.9	3.73e-05	0	43	102	1048576	20	5256
2026-01-24 22:30:06.80	47.74	13.27	-29.8	-32.7	13.2	6.79e-05	0	43	102	1048576	20	5035
2026-01-24 22:30:07.81	47.91	13.33	-29.6	-32.2	13.6	1.52e-05	0	43	102	1048576	20	4848
2026-01-24 22:30:08.82	48.07	13.38	-29.6	-32.0	13.6	6.80e-06	0	43	102	1048576	20	4770
2026-01-24 22:30:09.82	48.24	13.44	-29.7	-32.3	13.6	2.06e-04	0	43	102	1048576	20	4860
2026-01-24 22:30:10.82	48.40	13.49	-29.7	-32.7	13.7	7.60e-06	0	43	102	1048576	19	5131
2026-01-24 22:30:11.83	48.57	13.55	-29.6	-32.7	13.8	6.10e-06	0	43	102	1048576	19	5104
2026-01-24 22:30:12.83	48.74	13.61	-29.7	-32.9	13.6	3.71e-04	0	43	102	1048576	19	5186
2026-01-24 22:30:13.84	48.91	13.66	-29.7	-32.8	13.6	3.79e-04	0	43	102	1048576	19	5159
2026-01-24 22:30:14.85	49.08	13.72	-29.7	-32.9	13.6	9.10e-06	0	43	102	1048576	19	5196
2026-01-24 22:30:15.85	49.25	13.78	-29.8	-32.9	13.6	3.74e-04	0	43	102	1048576	19	5198
2026-01-24 22:30:16.86	49.42	13.83	-29.8	-33.1	13.5	3.85e-04	0	43	102	1048576	19	5275
2026-01-24 22:30:17.86	49.59	13.89	-29.8	-33.2	13.5	1.29e-05	0	43	102	1048576	19	5290
2026-01-24 22:30:18.87	49.76	13.94	-29.8	-32.9	13.7	5.19e-04	0	43	102	1048576	19	5191
2026-01-24 22:30:19.87	49.93	14.00	-29.6	-32.6	13.8	4.68e-04	0	43	102	1048576	19	5077
2026-01-24 22:30:20.88	50.11	14.05	-29.8	-32.9	13.6	4.50e-06	0	43	102	1048576	19	5201
2026-01-24 22:30:21.89	50.28	14.11	-29.6	-32.5	13.8	3.40e-04	0	44	102	1048576	19	5052
2026-01-24 22:30:22.89	50.46	14.16	-29.5	-32.4	13.9	3.39e-04	0	43	102	1048576	19	4984
2026-01-24 22:30:23.89	50.63	14.22	-29.6	-32.5	13.8	2.20e-06	0	44	102	1048576	19	5051
2026-01-24 22:30:24.90	50.81	14.27	-29.7	-32.9	13.6	3.80e-06	0	43	102	1048576	19	5189
2026-01-24 22:30:25.90	50.98	14.33	-29.7	-32.8	13.6	3.49e-04	0	43	102	1048576	19	5152
2026-01-24 22:30:26.90	51.16	14.38	-29.9	-33.3	13.4	5.30e-06	0	43	102	1048576	19	5324
2026-01-24 22:30:27.90	51.33	14.44	-29.9	-33.2	13.4	3.77e-04	0	43	102	1048576	19	5318
2026-01-24 22:30:28.90	51.51	14.49	-29.9	-33.3	13.4	6.25e-05	0	43	102	1048576	19	5352
2026-01-24 22:30:29.91	51.69	14.55	-30.0	-33.1	13.1	1.75e-05	0	43	102	1048576	20	5171
2026-01-24 22:30:30.90	51.87	14.60	-30.1	-33.4	12.8	4.03e-04	0	43	102	1048576	20	5293
2026-01-24 22:30:31.90	52.05	14.65	-30.0	-33.0	13.2	2.89e-05	0	43	102	1048576	20	5133
2026-01-24 22:30:32.91	52.23	14.71	-30.0	-33.2	13.1	2.74e-05	0	44	102	1048576	20	5190
2026-01-24 22:30:33.91	52.41	14.76	-30.1	-33.5	12.9	9.07e-04	0	44	102	1048576	20	5319
2026-01-24 22:30:34.92	52.59	14.81	-30.0	-33.2	13.1	3.43e-05	0	43	102	1048576	20	5209
2026-01-24 22:30:35.93	52.78	14.87	-30.1	-33.4	13.0	3.12e-05	0	43	102	1048576	20	5255
2026-01-24 22:30:36.93	52.96	14.92	-30.1	-33.6	12.8	8.86e-04	0	43	102	1048576	20	5341
2026-01-24 22:30:37.93	53.14	14.97	-30.2	-33.7	12.7	6.58e-04	0	43	102	1048576	20	5397
2026-01-24 22:30:38.94	53.33	15.03	-30.2	-33.8	12.7	7.32e-05	0	43	102	1048576	20	5421
2026-01-24 22:30:39.95	53.51	15.08	-30.5	-34.5	12.2	4.30e-04	0	43	102	1048576	20	5719
2026-01-24 22:30:40.95	53.70	15.13	-30.3	-34.1	12.5	4.10e-04	0	43	102	1048576	20	5540
2026-01-24 22:30:41.95	53.88	15.19	-30.2	-33.8	12.7	8.92e-05	0	43	102	1048576	20	5414
2026-01-24 22:30:42.95	54.07	15.24	-30.3	-34.0	12.5	9.23e-05	0	44	102	1048576	20	5527
2026-01-24 22:30:43.95	54.26	15.29	-30.5	-34.1	12.1	9.38e-04	0	44	102	1048576	21	5462
2026-01-24 22:30:44.95	54.44	15.34	-30.7	-34.6	11.8	3.58e-04	0	43	102	1048576	21	5646
2026-01-24 22:30:45.95	54.63	15.39	-30.7	-34.6	11.8	4.61e-04	0	43	102	1048576	21	5648
2026-01-24 22:30:46.95	54.82	15.44	-30.8	-34.9	11.6	6.51e-04	0	43	102	1048576	21	5805
2026-01-24 22:30:47.94	55.01	15.49	-30.8	-34.9	11.6	6.95e-04	0	43	102	1048576	21	5773
2026-01-24 22:30:48.94	55.20	15.55	-30.8	-35.1	11.5	7.48e-04	0	43	102	1048576	21	5881
2026-01-24 22:30:49.95	55.39	15.60	-30.8	-35.1	11.5	7.34e-04	0	44	102	1048576	21	5893
2026-01-24 22:30:50.96	55.58	15.65	-30.9	-35.2	11.3	1.09e-03	0	44	102	1048576	21	5938
2026-01-24 22:30:51.96	55.78	15.70	-30.7	-34.7	11.8	5.65e-04	0	43	102	1048576	21	5685
2026-01-24 22:30:52.97	55.97	15.75	-30.5	-34.2	12.0	3.26e-04	0	44	102	1048576	21	5469
2026-01-24 22:30:53.97	56.16	15.80	-30.5	-33.9	12.3	2.30e-04	0	44	102	1048576	21	5372
2026-01-24 22:30:54.97	56.36	15.85	-30.4	-33.7	12.4	3.47e-04	0	44	102	1048576	21	5278
2026-01-24 22:30:55.97	56.55	15.90	-30.4	-34.3	12.4	1.44e-04	0	43	102	1048576	20	5631
2026-01-24 22:30:56.98	56.75	15.95	-30.4	-34.2	12.4	1.20e-04	0	43	102	1048576	20	5570
2026-01-24 22:30:57.98	56.94	16.00	-30.5	-34.0	12.2	1.65e-04	0	44	102	1048576	21	5390
2026-01-24 22:30:58.98	57.14	16.05	-30.6	-34.3	12.0	3.14e-04	0	44	102	1048576	21	5533
2026-01-24 22:30:59.98	57.34	16.10	-30.6	-34.3	12.1	2.85e-04	0	43	102	1048576	21	5516
2026-01-24 22:31:00.98	57.53	16.14	-30.7	-34.7	11.8	3.33e-04	0	44	102	1048576	21	5688
2026-01-24 22:31:01.99	57.73	16.19	-30.7	-34.6	11.8	1.87e-03	0	44	102	1048576	21	5644
2026-01-24 22:31:02.99	57.93	16.24	-30.9	-35.2	11.5	6.29e-04	0	44	102	1048576	21	5916
2026-01-24 22:31:04.00	58.13	16.29	-30.8	-35.0	11.6	7.84e-04	0	44	102	1048576	21	5847
2026-01-24 22:31:05.00	58.33	16.34	-30.8	-35.1	11.5	7.21e-04	0	43	102	1048576	21	5862
2026-01-24 22:31:06.01	58.54	16.39	-30.9	-35.3	11.4	9.00e-04	0	44	102	1048576	21	5960
2026-01-24 22:31:07.01	58.74	16.43	-30.8	-35.0	11.7	7.91e-04	0	43	102	1048576	21	5809
2026-01-24 22:31:08.01	58.94	16.48	-30.7	-34.8	11.8	4.34e-04	0	44	102	1048576	21	5711
2026-01-24 22:31:09.02	59.15	16.53	-30.6	-34.4	12.0	3.23e-04	0	43	102	1048576	21	5575
2026-01-24 22:31:10.03	59.35	16.57	-30.6	-34.3	12.0	3.29e-04	0	44	102	1048576	21	5529
2026-01-24 22:31:11.03	59.55	16.62	-30.8	-34.8	11.8	3.75e-04	0	44	102	1048576	21	5727
2026-01-24 22:31:12.04	59.76	16.67	-30.6	-34.3	12.1	3.95e-04	0	44	102	1048576	21	5505
2026-01-24 22:31:13.04	59.97	16.71	-30.5	-34.0	12.3	2.08e-04	0	44	102	1048576	21	5398
2026-01-24 22:31:14.05	60.17	16.76	-30.5	-33.8	12.4	1.52e-04	0	44	102	1048576	21	5311
2026-01-24 22:31:15.06	60.38	16.80	-30.1	-33.6	12.4	1.36e-04	0	44	102	1048576	21	5370
2026-01-24 22:31:16.06	60.59	16.85	-30.4	-33.6	12.6	1.02e-04	0	44	102	1048576	21	5222
2026-01-24 22:31:17.06	60.80	16.89	-30.4	-33.7	12.5	1.13e-04	0	44	102	1048576	21	5262
2026-01-24 22:31:18.06	61.00	16.94	-30.3	-33.5	12.7	8.69e-05	0	44	102	1048576	21	5175
2026-01-24 22:31:19.07	61.22	16.98	-30.3	-33.4	12.7	1.70e-04	0	44	102	1048576	21	5144
2026-01-24 22:31:20.07	61.42	17.03	-30.3	-33.4	12.7	5.18e-05	0	44	102	1048576	21	5156
2026-01-24 22:31:21.06	61.63	17.07	-30.4	-33.5	12.6	7.62e-05	0	44	102	1048576	21	5200
2026-01-24 22:31:22.07	61.84	17.11	-30.4	-34.2	12.6	7.85e-05	0	44	102	1048576	20	5559
2026-01-24 22:31:23.07	62.06	17.15	-30.4	-34.2	12.6	1.08e-04	0	44	102	1048576	20	5582
2026-01-24 22:31:24.08	62.27	17.20	-30.3	-33.9	12.8	8.54e-05	0	44	102	1048576	20	5448
2026-01-24 22:31:25.09	62.48	17.24	-30.2	-33.7	12.9	6.40e-05	0	44	102	1048576	20	5358
2026-01-24 22:31:26.10	62.70	17.28	-30.3	-33.8	12.8	5.64e-05	0	44	102	1048576	20	5422
2026-01-24 22:31:27.10	62.91	17.32	-30.4	-34.1	12.6	7.24e-05	0	44	102	1048576	20	5527
2026-01-24 22:31:28.11	63.13	17.37	-30.2	-33.6	13.0	5.11e-05	0	44	102	1048576	20	5319
2026-01-24 22:31:29.12	63.34	17.41	-30.1	-33.4	13.2	2.59e-05	0	44	102	1048576	20	5233
2026-01-24 22:31:30.12	63.56	17.45	-30.1	-33.3	13.2	7.44e-04	0	44	102	1048576	20	5189
2026-01-24 22:31:31.13	63.78	17.49	-30.1	-33.2	13.3	2.28e-05	0	44	102	1048576	20	5158
2026-01-24 22:31:32.13	63.99	17.53	-30.0	-33.1	13.3	2.05e-05	0	44	102	1048576	20	5128
2026-01-24 22:31:33.15	64.22	17.57	-30.2	-33.7	13.1	6.33e-04	0	44	102	1048576	20	5348
2026-01-24 22:31:34.14	64.43	17.61	-30.0	-33.0	13.4	2.21e-05	0	44	102	1048576	20	5069
2026-01-24 22:31:35.15	64.65	17.65	-29.9	-32.8	13.6	9.10e-06	0	44	102	1048576	20	5003
2026-01-24 22:31:36.15	64.87	17.69	-29.9	-32.7	13.6	8.96e-04	0	44	102	1048576	20	4993
2026-01-24 22:31:37.16	65.09	17.73	-29.9	-32.9	13.5	8.80e-04	0	44	102	1048576	20	5037
2026-01-24 22:31:38.17	65.31	17.76	-30.1	-33.4	13.1	1.90e-05	0	44	102	1048576	20	5254
2026-01-24 22:31:39.17	65.53	17.80	-30.2	-33.5	13.0	6.81e-04	0	44	102	1048576	20	5288
2026-01-24 22:31:40.18	65.76	17.84	-30.2	-33.5	13.0	5.55e-04	0	44	102	1048576	20	5284
2026-01-24 22:31:41.19	65.98	17.88	-30.3	-33.7	12.9	5.03e-05	0	44	102	1048576	20	5368
2026-01-24 22:31:42.19	66.20	17.91	-30.3	-33.9	12.8	5.26e-05	0	44	102	1048576	20	5446
2026-01-24 22:31:43.20	66.43	17.95	-30.2	-33.6	12.9	6.10e-04	0	44	102	1048576	20	5330
2026-01-24 22:31:44.20	66.65	17.99	-30.2	-33.7	13.0	4.42e-05	0	44	102	1048576	20	5358
2026-01-24 22:31:45.20	66.87	18.02	-30.2	-33.6	13.0	3.05e-05	0	44	102	1048576	20	5318
2026-01-24 22:31:46.21	67.10	18.06	-30.4	-34.3	12.6	5.08e-04	0	44	102	1048576	20	5595
2026-01-24 22:31:47.22	67.32	18.09	-30.5	-33.9	12.4	1.57e-04	0	44	102	1048576	21	5359
2026-01-24 22:31:48.22	67.55	18.13	-30.3	-33.4	12.7	4.93e-04	0	44	102	1048576	21	5151
2026-01-24 22:31:49.22	67.77	18.16	-30.2	-33.7	13.0	3.67e-04	0	44	102	1048576	20	5374
2026-01-24 22:31:50.23	68.00	18.19	-30.3	-34.0	12.7	4.57e-05	0	44	102	1048576	20	5470
2026-01-24 22:31:51.23	68.23	18.23	-30.2	-33.6	13.0	2.50e-04	0	44	102	1048576	20	5326
2026-01-24 22:31:52.24	68.46	18.26	-30.3	-33.7	13.0	4.50e-05	0	44	102	1048576	20	5375
2026-01-24 22:31:53.24	68.69	18.29	-30.3	-33.9	12.7	6.40e-05	0	44	102	1048576	20	5457
2026-01-24 22:31:54.23	68.91	18.33	-30.2	-33.5	13.0	4.95e-05	0	44	102	1048576	20	5298
2026-01-24 22:31:55.23	69.14	18.36	-30.1	-33.3	13.2	3.28e-05	0	44	102	1048576	20	5213
2026-01-24 22:31:56.24	69.37	18.39	-30.1	-33.4	13.2	2.51e-05	0	44	102	1048576	20	5246
2026-01-24 22:31:57.24	69.60	18.42	-30.3	-33.7	13.0	9.53e-05	0	44	102	1048576	20	5359
2026-01-24 22:31:58.25	69.83	18.45	-30.2	-33.5	13.2	1.84e-04	0	44	102	1048576	20	5281
2026-01-24 22:31:59.25	70.06	18.48	-30.1	-33.4	13.2	1.44e-05	0	44	102	1048576	20	5227
2026-01-24 22:32:00.25	70.29	18.51	-30.2	-33.5	13.2	1.82e-04	0	44	102	1048576	20	5268
2026-01-24 22:32:01.26	70.53	18.54	-30.2	-33.7	13.0	9.99e-05	0	44	102	1048576	20	5362
2026-01-24 22:32:02.27	70.76	18.57	-30.1	-33.2	13.3	1.75e-05	0	44	102	1048576	20	5165
2026-01-24 22:32:03.27	70.99	18.60	-30.0	-32.9	13.5	1.29e-05	0	44	102	1048576	20	5052
2026-01-24 22:32:04.27	71.22	18.63	-30.0	-33.0	13.5	1.60e-05	0	44	102	1048576	20	5081
2026-01-24 22:32:05.28	71.46	18.65	-30.0	-33.0	13.4	1.22e-05	0	44	102	1048576	20	5099
2026-01-24 22:32:06.29	71.69	18.68	-30.1	-33.2	13.3	1.75e-05	0	44	102	1048576	20	5170
2026-01-24 22:32:07.29	71.93	18.71	-30.1	-33.4	13.2	8.39e-05	0	44	102	1048576	20	5224
2026-01-24 22:32:08.30	72.16	18.73	-30.1	-33.3	13.3	2.21e-05	0	44	102	1048576	20	5199
2026-01-24 22:32:09.31	72.40	18.76	-30.1	-33.3	13.3	1.83e-05	0	44	102	1048576	20	5213
2026-01-24 22:32:10.32	72.64	18.79	-30.2	-33.5	13.2	2.44e-05	0	44	102	1048576	20	5279
2026-01-24 22:32:11.32	72.87	18.81	-30.0	-33.0	13.5	1.37e-05	0	44	102	1048576	20	5073
2026-01-24 22:32:12.32	73.11	18.84	-30.0	-33.0	13.4	1.67e-05	0	44	102	1048576	20	5093
2026-01-24 22:32:13.33	73.35	18.86	-30.0	-33.0	13.4	1.75e-05	0	44	102	1048576	20	5087
2026-01-24 22:32:14.34	73.59	18.88	-29.9	-32.7	13.6	7.60e-06	0	44	102	1048576	20	4973
2026-01-24 22:32:15.34	73.82	18.91	-29.9	-32.7	13.7	2.97e-05	0	44	102	1048576	20	4963
2026-01-24 22:32:16.35	74.06	18.93	-30.0	-33.1	13.5	1.14e-05	0	44	102	1048576	20	5108
2026-01-24 22:32:17.35	74.30	18.95	-30.2	-33.6	13.0	3.05e-05	0	44	102	1048576	20	5333
2026-01-24 22:32:18.36	74.54	18.97	-30.3	-34.0	12.8	5.79e-05	0	44	102	1048576	20	5464
2026-01-24 22:32:19.36	74.78	18.99	-30.4	-34.1	12.7	4.80e-05	0	44	102	1048576	20	5540
2026-01-24 22:32:20.37	75.02	19.02	-30.5	-34.0	12.5	1.14e-04	0	44	102	1048576	21	5384
2026-01-24 22:32:21.37	75.26	19.04	-30.4	-33.7	12.7	9.68e-05	0	44	102	1048576	21	5252
2026-01-24 22:32:22.39	75.50	19.06	-30.4	-33.7	12.7	8.46e-05	0	44	102	1048576	21	5246
2026-01-24 22:32:23.39	75.74	19.08	-30.4	-33.7	12.7	8.31e-05	0	44	102	1048576	21	5236
2026-01-24 22:32:24.40	75.98	19.09	-30.5	-33.8	12.6	8.01e-05	0	44	102	1048576	21	5293
2026-01-24 22:32:25.40	76.22	19.11	-30.4	-33.7	12.6	1.23e-04	0	44	102	1048576	21	5259
2026-01-24 22:32:26.40	76.46	19.13	-30.2	-33.2	13.0	4.65e-05	0	44	102	1048576	21	5052
2026-01-24 22:32:27.41	76.70	19.15	-30.1	-32.9	13.2	2.44e-05	0	44	102	1048576	21	4942
2026-01-24 22:32:28.41	76.95	19.17	-30.1	-32.7	13.3	2.05e-05	0	44	102	1048576	21	4890
2026-01-24 22:32:29.41	77.19	19.18	-30.1	-32.9	13.2	2.05e-05	0	44	102	1048576	21	4937
2026-01-24 22:32:30.42	77.43	19.20	-30.3	-33.2	13.0	3.96e-05	0	44	102	1048576	21	5074
2026-01-24 22:32:31.42	77.67	19.21	-30.2	-33.2	13.0	2.74e-05	0	44	102	1048576	21	5055
2026-01-24 22:32:32.43	77.92	19.23	-30.4	-33.5	12.8	5.41e-05	0	44	102	1048576	21	5173
2026-01-24 22:32:33.43	78.16	19.24	-30.4	-33.5	12.8	6.33e-05	0	44	102	1048576	21	5182
2026-01-24 22:32:34.44	78.40	19.26	-30.3	-33.4	12.8	6.25e-05	0	44	102	1048576	21	5149
2026-01-24 22:32:35.45	78.65	19.27	-30.2	-33.2	13.0	4.50e-05	0	44	102	1048576	21	5059
2026-01-24 22:32:36.45	78.89	19.28	-30.2	-33.2	13.0	4.11e-05	0	44	102	1048576	21	5057
2026-01-24 22:32:37.45	79.13	19.30	-30.2	-33.0	13.2	3.50e-05	0	44	102	1048576	21	4989
2026-01-24 22:32:38.45	79.38	19.31	-30.1	-32.8	13.3	1.98e-05	0	44	102	1048576	21	4897
2026-01-24 22:32:39.45	79.62	19.32	-30.1	-32.7	13.3	1.83e-05	0	44	102	1048576	21	4878
2026-01-24 22:32:40.46	79.86	19.33	-30.2	-32.9	13.2	2.89e-05	0	44	102	1048576	21	4949
2026-01-24 22:32:41.46	80.11	19.34	-30.2	-33.2	13.1	2.74e-05	0	44	102	1048576	21	5039
2026-01-24 22:32:42.46	80.35	19.35	-30.3	-33.4	12.9	5.03e-05	0	44	102	1048576	21	5137
2026-01-24 22:32:43.46	80.60	19.36	-30.4	-33.7	12.7	6.48e-05	0	44	102	1048576	21	5261
2026-01-24 22:32:44.46	80.84	19.37	-30.5	-33.9	12.6	8.39e-05	0	44	102	1048576	21	5321
2026-01-24 22:32:45.46	81.08	19.38	-30.6	-34.1	12.4	1.32e-04	0	44	102	1048576	21	5409
2026-01-24 22:32:46.47	81.33	19.39	-30.4	-33.8	12.7	9.46e-05	0	44	102	1048576	21	5283
2026-01-24 22:32:47.47	81.58	19.40	-30.4	-34.1	12.7	7.85e-05	0	44	102	1048576	20	5525
2026-01-24 22:32:48.47	81.82	19.40	-30.4	-34.0	12.8	7.32e-05	0	44	102	1048576	20	5495
2026-01-24 22:32:49.48	82.07	19.41	-30.3	-33.9	12.9	3.96e-05	0	44	102	1048576	20	5415
2026-01-24 22:32:50.48	82.31	19.42	-30.3	-33.9	12.9	5.49e-05	0	44	102	1048576	20	5454
2026-01-24 22:32:51.49	82.56	19.42	-30.3	-33.9	12.9	3.89e-05	0	44	102	1048576	20	5449
2026-01-24 22:32:52.49	82.80	19.43	-30.3	-33.8	12.9	4.57e-05	0	44	102	1048576	20	5398
2026-01-24 22:32:53.50	83.05	19.43	-30.3	-33.9	12.8	7.47e-05	0	44	102	1048576	20	5453
2026-01-24 22:32:54.50	83.30	19.43	-30.3	-33.9	12.8	5.26e-05	0	44	102	1048576	20	5437
2026-01-24 22:32:55.51	83.55	19.44	-30.3	-33.9	12.9	4.11e-05	0	44	102	1048576	20	5456
2026-01-24 22:32:56.52	83.79	19.44	-30.3	-33.9	12.9	5.18e-05	0	44	102	1048576	20	5432
2026-01-24 22:32:57.52	84.04	19.44	-30.2	-33.6	13.0	3.05e-05	0	44	102	1048576	20	5329
2026-01-24 22:32:58.53	84.29	19.44	-30.3	-33.8	13.0	4.19e-05	0	44	102	1048576	20	5403
2026-01-24 22:32:59.54	84.53	19.45	-30.2	-33.7	13.1	4.27e-05	0	44	102	1048576	20	5335
2026-01-24 22:33:00.54	84.78	19.45	-30.1	-33.3	13.3	2.05e-05	0	44	102	1048576	20	5187
2026-01-24 22:33:01.54	85.02	19.45	-30.1	-33.3	13.2	1.14e-05	0	44	102	1048576	20	5202
2026-01-24 22:33:02.55	85.27	19.45	-30.1	-33.3	13.2	1.52e-05	0	44	102	1048576	20	5211
2026-01-24 22:33:03.56	85.52	19.45	-30.2	-33.5	13.1	1.37e-05	0	44	102	1048576	20	5269
2026-01-24 22:33:04.56	85.77	19.44	-30.2	-33.6	13.1	3.73e-05	0	44	102	1048576	20	5309
2026-01-24 22:33:05.57	86.01	19.44	-30.2	-33.5	13.1	2.89e-05	0	44	102	1048576	20	5267
2026-01-24 22:33:06.57	86.26	19.44	-30.2	-33.4	13.2	1.09e-04	0	44	102	1048576	20	5249
2026-01-24 22:33:07.57	86.50	19.44	-30.2	-33.5	13.2	3.20e-05	0	44	102	1048576	20	5287
2026-01-24 22:33:08.58	86.75	19.43	-30.3	-33.8	12.9	3.05e-05	0	44	102	1048576	20	5398
2026-01-24 22:33:09.58	87.00	19.43	-30.3	-34.0	12.8	1.21e-04	0	44	102	1048576	20	5468
2026-01-24 22:33:10.59	87.25	19.43	-30.4	-34.1	12.8	6.33e-05	0	44	102	1048576	20	5524
2026-01-24 22:33:11.59	87.49	19.42	-30.5	-34.3	12.6	1.15e-04	0	44	102	1048576	20	5600
2026-01-24 22:33:12.59	87.74	19.42	-30.5	-33.9	12.5	1.01e-04	0	44	102	1048576	21	5332
2026-01-24 22:33:13.60	87.98	19.41	-30.6	-34.1	12.4	1.26e-04	0	44	102	1048576	21	5391
2026-01-24 22:33:14.60	88.23	19.40	-30.7	-34.4	12.2	2.13e-04	0	44	102	1048576	21	5529
2026-01-24 22:33:15.61	88.48	19.40	-30.7	-34.6	12.1	3.31e-04	0	44	102	1048576	21	5614
2026-01-24 22:33:16.62	88.72	19.39	-30.6	-34.3	12.3	1.81e-04	0	44	102	1048576	21	5506
2026-01-24 22:33:17.61	88.96	19.38	-30.5	-33.9	12.5	1.83e-04	0	44	102	1048576	21	5341
2026-01-24 22:33:18.61	89.21	19.37	-30.4	-33.7	12.7	1.81e-04	0	44	102	1048576	21	5245
2026-01-24 22:33:19.61	89.45	19.36	-30.4	-33.6	12.7	8.08e-05	0	44	102	1048576	21	5215
2026-01-24 22:33:20.62	89.70	19.35	-30.4	-33.6	12.8	1.20e-04	0	44	102	1048576	21	5205
2026-01-24 22:33:21.62	89.94	19.34	-30.3	-33.3	12.9	1.35e-04	0	44	102	1048576	21	5088
2026-01-24 22:33:22.62	90.19	19.33	-30.1	-32.8	13.3	3.05e-05	0	44	102	1048576	21	4903
2026-01-24 22:33:23.62	90.43	19.32	-30.0	-32.6	13.4	7.17e-05	0	44	102	1048576	21	4818
2026-01-24 22:33:24.62	90.67	19.31	-30.0	-32.6	13.4	6.17e-05	0	44	102	1048576	21	4836
2026-01-24 22:33:25.63	90.92	19.30	-30.0	-32.5	13.5	9.90e-06	0	44	102	1048576	21	4794
2026-01-24 22:33:26.63	91.16	19.29	-29.9	-32.3	13.6	3.12e-05	0	44	102	1048576	21	4733
2026-01-24 22:33:27.64	91.41	19.27	-30.0	-32.5	13.5	1.14e-05	0	44	102	1048576	21	4808
2026-01-24 22:33:28.65	91.65	19.26	-30.1	-32.8	13.3	1.22e-05	0	44	102	1048576	21	4906
2026-01-24 22:33:29.65	91.90	19.25	-30.2	-33.0	13.2	2.05e-05	0	44	102	1048576	21	4981
2026-01-24 22:33:30.65	92.14	19.23	-30.2	-33.2	13.0	3.96e-05	0	44	102	1048576	21	5057
2026-01-24 22:33:31.66	92.38	19.22	-30.2	-33.0	13.2	2.21e-05	0	44	102	1048576	21	4968
2026-01-24 22:33:32.67	92.63	19.20	-30.1	-32.8	13.3	2.28e-05	0	44	102	1048576	21	4895
2026-01-24 22:33:33.68	92.87	19.18	-30.1	-32.8	13.3	1.83e-05	0	44	102	1048576	21	4893
2026-01-24 22:33:34.68	93.11	19.17	-30.0	-32.4	13.6	1.75e-05	0	44	102	1048576	21	4759
2026-01-24 22:33:35.68	93.35	19.15	-29.8	-32.1	13.8	1.29e-05	0	44	102	1048576	21	4649
2026-01-24 22:33:36.69	93.60	19.13	-29.9	-32.1	13.7	9.10e-06	0	44	102	1048576	21	4668
2026-01-24 22:33:37.70	93.84	19.12	-29.7	-32.3	13.9	8.30e-06	0	44	102	1048576	20	4840
2026-01-24 22:33:38.71	94.08	19.10	-29.7	-32.2	14.0	0.00e+00	0	44	102	1048576	20	4786
2026-01-24 22:33:39.71	94.32	19.08	-29.6	-31.9	14.2	1.50e-06	0	44	102	1048576	20	4692
2026-01-24 22:33:40.72	94.57	19.06	-29.4	-31.3	14.5	7.00e-07	0	44	102	1048576	20	4517
2026-01-24 22:33:41.71	94.80	19.04	-29.3	-31.2	14.6	7.00e-07	0	44	102	1048576	20	4482
2026-01-24 22:33:42.71	95.04	19.02	-29.5	-31.6	14.4	7.00e-07	0	44	102	1048576	20	4587
2026-01-24 22:33:43.72	95.28	19.00	-29.4	-31.5	14.5	7.00e-07	0	44	102	1048576	20	4553
2026-01-24 22:33:44.72	95.52	18.98	-29.4	-31.4	14.5	2.20e-06	0	44	102	1048576	20	4522
2026-01-24 22:33:45.72	95.76	18.95	-29.5	-31.6	14.3	2.20e-06	0	44	102	1048576	20	4608
2026-01-24 22:33:46.72	96.00	18.93	-29.6	-32.0	14.1	1.50e-06	0	44	102	1048576	20	4726
2026-01-24 22:33:47.72	96.24	18.91	-29.7	-32.3	13.8	3.00e-06	0	44	102	1048576	20	4846
2026-01-24 22:33:48.73	96.48	18.89	-29.8	-32.6	13.7	4.50e-06	0	44	102	1048576	20	4933
2026-01-24 22:33:49.73	96.71	18.86	-29.8	-32.5	13.7	4.50e-06	0	44	102	1048576	20	4915
2026-01-24 22:33:50.73	96.95	18.84	-29.8	-32.6	13.7	6.80e-06	0	44	102	1048576	20	4954
2026-01-24 22:33:51.73	97.19	18.81	-29.8	-32.4	13.8	9.90e-06	0	44	102	1048576	20	4879
2026-01-24 22:33:52.73	97.42	18.79	-29.7	-32.2	14.0	3.00e-06	0	44	102	1048576	20	4798
2026-01-24 22:33:53.74	97.66	18.76	-29.6	-32.1	14.0	7.00e-07	0	44	102	1048576	20	4767
2026-01-24 22:33:54.74	97.89	18.74	-29.6	-32.0	14.0	4.50e-06	0	44	102	1048576	20	4756
2026-01-24 22:33:55.75	98.13	18.71	-29.6	-32.0	14.1	7.00e-07	0	44	102	1048576	20	4748
2026-01-24 22:33:56.75	98.36	18.68	-29.6	-31.9	14.1	3.00e-06	0	44	102	1048576	20	4707
2026-01-24 22:33:57.76	98.60	18.66	-29.5	-31.7	14.2	4.50e-06	0	44	102	1048576	20	4653
2026-01-24 22:33:58.76	98.83	18.63	-29.3	-31.2	14.5	1.50e-06	0	44	102	1048576	20	4471
2026-01-24 22:33:59.76	99.07	18.60	-29.2	-31.4	14.8	0.00e+00	0	44	102	1048576	19	4646
2026-01-24 22:34:00.76	99.30	18.57	-29.1	-31.2	14.9	0.00e+00	0	44	102	1048576	19	4588
2026-01-24 22:34:01.77	99.53	18.54	-29.2	-31.5	14.7	7.00e-07	0	44	102	1048576	19	4662
2026-01-24 22:34:02.77	99.77	18.51	-29.1	-31.3	14.9	0.00e+00	0	44	102	1048576	19	4593
2026-01-24 22:34:03.77	100.00	18.48	-29.2	-31.5	14.8	6.10e-06	0	44	102	1048576	19	4659
2026-01-24 22:34:04.78	100.23	18.45	-29.2	-31.4	14.8	0.00e+00	0	44	102	1048576	19	4638
2026-01-24 22:34:05.78	100.46	18.42	-29.2	-31.5	14.8	2.20e-06	0	44	102	1048576	19	4666
2026-01-24 22:34:06.79	100.69	18.39	-29.4	-31.8	14.5	0.00e+00	0	44	102	1048576	19	4781
2026-01-24 22:34:07.79	100.92	18.36	-29.3	-31.8	14.6	0.00e+00	0	44	102	1048576	19	4769
2026-01-24 22:34:08.79	101.15	18.33	-29.4	-31.9	14.5	0.00e+00	0	44	102	1048576	19	4806
2026-01-24 22:34:09.80	101.38	18.30	-29.3	-31.7	14.6	7.00e-07	0	44	102	1048576	19	4749
2026-01-24 22:34:10.81	101.61	18.26	-29.2	-31.5	14.7	0.00e+00	0	44	102	1048576	19	4684
2026-01-24 22:34:11.81	101.84	18.23	-29.1	-31.1	14.9	0.00e+00	0	44	102	1048576	19	4533
2026-01-24 22:34:12.82	102.07	18.20	-29.1	-31.2	14.9	0.00e+00	0	44	102	1048576	19	4572
2026-01-24 22:34:13.83	102.30	18.16	-29.0	-30.8	15.1	0.00e+00	0	44	102	1048576	19	4462
2026-01-24 22:34:14.84	102.53	18.13	-28.9	-30.6	15.3	0.00e+00	0	44	102	1048576	19	4403
2026-01-24 22:34:15.85	102.76	18.09	-28.9	-30.6	15.3	7.00e-07	0	44	102	1048576	19	4393
2026-01-24 22:34:16.85	102.98	18.06	-28.8	-30.8	15.4	0.00e+00	0	44	102	1048576	18	4562
2026-01-24 22:34:17.86	103.21	18.02	-28.7	-30.8	15.5	0.00e+00	0	44	102	1048576	18	4549
2026-01-24 22:34:18.86	103.43	17.99	-28.8	-31.0	15.3	0.00e+00	0	44	102	1048576	18	4619
2026-01-24 22:34:19.87	103.66	17.95	-28.8	-30.8	15.4	0.00e+00	0	44	102	1048576	18	4570
2026-01-24 22:34:20.87	103.88	17.91	-28.7	-30.8	15.5	0.00e+00	0	44	102	1048576	18	4549
2026-01-24 22:34:21.88	104.10	17.88	-28.8	-30.9	15.4	0.00e+00	0	44	102	1048576	18	4572
2026-01-24 22:34:22.88	104.33	17.84	-28.8	-30.8	15.5	0.00e+00	0	44	102	1048576	18	4545
2026-01-24 22:34:23.88	104.55	17.80	-28.8	-30.8	15.4	2.44e-04	0	44	102	1048576	18	4557
2026-01-24 22:34:24.89	104.77	17.76	-28.9	-31.1	15.2	0.00e+00	0	44	102	1048576	18	4666
2026-01-24 22:34:25.89	104.99	17.73	-28.9	-31.7	15.2	0.00e+00	0	44	102	1048576	17	4958
2026-01-24 22:34:26.90	105.21	17.69	-29.0	-31.5	15.0	0.00e+00	0	44	102	1048576	18	4779
2026-01-24 22:34:27.91	105.44	17.65	-29.3	-32.1	14.7	0.00e+00	0	44	102	1048576	18	4976
2026-01-24 22:34:28.91	105.65	17.61	-29.1	-31.7	14.9	7.00e-07	0	44	102	1048576	18	4852
2026-01-24 22:34:29.92	105.87	17.57	-29.2	-31.9	14.8	0.00e+00	0	44	102	1048576	18	4905
2026-01-24 22:34:30.92	106.09	17.53	-29.2	-31.8	14.8	0.00e+00	0	44	102	1048576	18	4879
2026-01-24 22:34:31.92	106.31	17.49	-29.1	-31.8	14.8	0.00e+00	0	44	102	1048576	18	4865
2026-01-24 22:34:32.93	106.53	17.45	-29.1	-31.6	14.9	0.00e+00	0	44	102	1048576	18	4821
2026-01-24 22:34:33.93	106.74	17.41	-29.2	-31.9	14.8	0.00e+00	0	44	102	1048576	18	4924
2026-01-24 22:34:34.93	106.96	17.36	-29.5	-32.6	14.3	0.00e+00	0	44	102	1048576	18	5151
2026-01-24 22:34:35.93	107.17	17.32	-29.5	-32.1	14.3	0.00e+00	0	44	102	1048576	19	4887
2026-01-24 22:34:36.94	107.39	17.28	-29.6	-32.5	14.1	2.20e-06	0	44	102	1048576	19	4994
2026-01-24 22:34:37.94	107.60	17.24	-29.7	-32.8	13.9	6.79e-05	0	44	102	1048576	19	5109
2026-01-24 22:34:38.94	107.82	17.20	-29.7	-32.6	13.9	4.50e-06	0	44	102	1048576	19	5058
2026-01-24 22:34:39.95	108.03	17.15	-29.7	-32.7	13.9	3.00e-06	0	44	102	1048576	19	5068
2026-01-24 22:34:40.95	108.24	17.11	-29.7	-32.7	13.9	6.48e-05	0	44	102	1048576	19	5098
2026-01-24 22:34:41.95	108.46	17.07	-29.7	-32.6	14.0	6.56e-05	0	44	102	1048576	19	5061
2026-01-24 22:34:42.96	108.67	17.02	-29.8	-33.0	13.8	1.50e-06	0	44	102	1048576	19	5187
2026-01-24 22:34:43.96	108.88	16.98	-29.8	-33.0	13.7	3.81e-05	0	44	102	1048576	19	5187
2026-01-24 22:34:44.97	109.09	16.93	-29.9	-33.4	13.4	3.43e-05	0	44	102	1048576	19	5347
2026-01-24 22:34:45.97	109.30	16.89	-29.9	-33.2	13.5	1.75e-05	0	44	102	1048576	19	5293
2026-01-24 22:34:46.97	109.51	16.84	-29.9	-33.4	13.4	9.10e-06	0	44	102	1048576	19	5350
2026-01-24 22:34:47.98	109.72	16.80	-29.8	-33.0	13.6	9.90e-06	0	44	102	1048576	19	5217
2026-01-24 22:34:48.98	109.92	16.75	-29.8	-33.0	13.7	6.10e-06	0	44	102	1048576	19	5204
2026-01-24 22:34:49.98	110.13	16.71	-29.7	-32.7	13.9	1.14e-05	0	44	102	1048576	19	5093
2026-01-24 22:34:50.98	110.34	16.66	-29.7	-32.7	13.9	3.76e-04	0	44	102	1048576	19	5098
2026-01-24 22:34:51.98	110.54	16.62	-29.8	-33.1	13.6	4.50e-06	0	44	102	1048576	19	5234
2026-01-24 22:34:52.98	110.75	16.57	-29.8	-33.0	13.7	8.35e-04	0	44	102	1048576	19	5214
2026-01-24 22:34:53.98	110.95	16.52	-29.9	-33.4	13.4	9.10e-06	0	44	102	1048576	19	5354
2026-01-24 22:34:54.99	111.16	16.48	-30.1	-33.4	13.0	3.20e-05	0	44	102	1048576	20	5277
2026-01-24 22:34:55.99	111.36	16.43	-30.4	-34.3	12.4	1.07e-03	0	44	102	1048576	20	5622
2026-01-24 22:34:56.99	111.56	16.38	-30.3	-33.9	12.6	1.48e-04	0	44	102	1048576	20	5485
2026-01-24 22:34:57.99	111.76	16.33	-30.5	-34.5	12.3	1.56e-04	0	44	102	1048576	20	5728
2026-01-24 22:34:58.99	111.96	16.28	-30.3	-34.1	12.5	4.29e-04	0	44	102	1048576	20	5533
2026-01-24 22:35:00.00	112.17	16.24	-30.1	-33.5	12.9	1.90e-04	0	44	102	1048576	20	5290
2026-01-24 22:35:01.00	112.37	16.19	-30.0	-33.2	13.1	2.89e-05	0	44	102	1048576	20	5188
2026-01-24 22:35:02.00	112.57	16.14	-30.0	-33.1	13.1	4.42e-05	0	44	102	1048576	20	5178
2026-01-24 22:35:03.01	112.77	16.09	-30.1	-33.4	13.0	5.18e-05	0	44	102	1048576	20	5278
2026-01-24 22:35:04.01	112.96	16.04	-30.0	-33.2	13.1	3.73e-05	0	44	102	1048576	20	5196
2026-01-24 22:35:05.01	113.16	15.99	-30.0	-33.3	13.0	4.04e-05	0	44	102	1048576	20	5255
2026-01-24 22:35:06.01	113.36	15.94	-30.2	-33.6	12.8	6.79e-05	0	44	102	1048576	20	5370
2026-01-24 22:35:07.02	113.56	15.89	-30.1	-33.4	12.9	5.11e-05	0	44	102	1048576	20	5288
2026-01-24 22:35:08.02	113.75	15.84	-30.1	-33.4	12.9	1.68e-04	0	44	102	1048576	20	5285
2026-01-24 22:35:09.02	113.95	15.79	-30.1	-33.5	12.8	1.82e-04	0	44	102	1048576	20	5335
2026-01-24 22:35:10.03	114.14	15.74	-30.3	-33.9	12.6	6.86e-05	0	44	102	1048576	20	5471
2026-01-24 22:35:11.03	114.33	15.69	-30.4	-34.4	12.2	1.75e-04	0	44	102	1048576	20	5682
2026-01-24 22:35:12.04	114.53	15.64	-30.3	-34.1	12.5	2.77e-04	0	44	102	1048576	20	5547
2026-01-24 22:35:13.04	114.72	15.59	-30.3	-34.0	12.5	1.04e-04	0	44	102	1048576	20	5512
2026-01-24 22:35:14.04	114.91	15.54	-30.2	-33.8	12.6	5.37e-04	0	44	102	1048576	20	5460
2026-01-24 22:35:15.04	115.10	15.48	-30.2	-33.6	12.7	8.46e-05	0	44	102	1048576	20	5379
2026-01-24 22:35:16.04	115.29	15.43	-30.3	-34.0	12.5	1.03e-04	0	44	102	1048576	20	5515
2026-01-24 22:35:17.05	115.49	15.38	-30.3	-34.0	12.4	5.99e-04	0	44	102	1048576	20	5549
2026-01-24 22:35:18.05	115.67	15.33	-30.1	-33.5	12.8	8.62e-05	0	44	102	1048576	20	5328
2026-01-24 22:35:19.05	115.86	15.28	-30.0	-33.2	12.9	4.80e-05	0	44	102	1048576	20	5224
2026-01-24 22:35:20.06	116.05	15.22	-30.0	-33.1	13.0	1.85e-04	0	44	102	1048576	20	5188
2026-01-24 22:35:21.06	116.24	15.17	-29.9	-33.0	13.0	1.78e-04	0	44	102	1048576	20	5151
2026-01-24 22:35:22.06	116.43	15.12	-29.9	-33.0	13.1	2.51e-05	0	44	102	1048576	20	5126
2026-01-24 22:35:23.07	116.61	15.07	-30.2	-33.8	12.5	1.36e-04	0	44	102	1048576	20	5441
2026-01-24 22:35:24.07	116.80	15.01	-30.0	-33.2	13.0	1.20e-04	0	44	102	1048576	20	5198
2026-01-24 22:35:25.08	116.98	14.96	-29.9	-32.9	13.2	3.35e-05	0	44	102	1048576	20	5090
2026-01-24 22:35:26.07	117.17	14.91	-29.9	-33.0	13.1	2.36e-05	0	44	102	1048576	20	5114
2026-01-24 22:35:27.08	117.35	14.85	-30.1	-33.6	12.7	3.66e-05	0	44	102	1048576	20	5376
2026-01-24 22:35:28.09	117.54	14.80	-30.3	-34.0	12.4	1.21e-04	0	44	102	1048576	20	5528
2026-01-24 22:35:29.09	117.72	14.74	-30.5	-34.3	11.9	3.06e-04	0	44	102	1048576	21	5541
2026-01-24 22:35:30.09	117.90	14.69	-30.6	-34.7	11.6	5.76e-04	0	44	102	1048576	21	5714
2026-01-24 22:35:31.10	118.08	14.64	-30.7	-34.7	11.5	8.48e-04	0	44	102	1048576	21	5749
2026-01-24 22:35:32.11	118.26	14.58	-30.6	-34.6	11.6	6.73e-04	0	44	102	1048576	21	5680
2026-01-24 22:35:33.11	118.44	14.53	-30.5	-34.4	11.8	6.22e-04	0	44	102	1048576	21	5582
2026-01-24 22:35:34.11	118.62	14.47	-30.3	-33.5	12.4	2.94e-04	0	44	102	1048576	21	5202
2026-01-24 22:35:35.12	118.80	14.42	-30.0	-32.8	12.9	5.72e-05	0	44	102	1048576	21	4939
2026-01-24 22:35:36.13	118.98	14.36	-29.9	-32.5	13.1	2.74e-05	0	44	102	1048576	21	4852
2026-01-24 22:35:37.13	119.16	14.31	-29.9	-32.4	13.1	2.82e-05	0	44	102	1048576	21	4821
2026-01-24 22:35:38.13	119.33	14.25	-30.0	-33.3	12.9	4.42e-05	0	44	102	1048576	20	5244
2026-01-24 22:35:39.14	119.51	14.20	-29.9	-33.1	13.0	3.96e-05	0	44	102	1048576	20	5175
2026-01-24 22:35:40.14	119.69	14.14	-30.1	-33.6	12.6	6.33e-05	0	44	102	1048576	20	5399
2026-01-24 22:35:41.15	119.86	14.09	-30.0	-33.5	12.7	9.79e-04	0	44	102	1048576	20	5356
2026-01-24 22:35:42.16	120.04	14.03	-30.2	-33.9	12.4	1.42e-04	0	44	102	1048576	20	5517
2026-01-24 22:35:43.16	120.21	13.97	-29.9	-33.2	12.8	8.08e-05	0	44	102	1048576	20	5242
2026-01-24 22:35:44.17	120.38	13.92	-29.8	-33.3	13.2	3.66e-05	0	44	102	1048576	19	5382
2026-01-24 22:35:45.18	120.56	13.86	-29.8	-33.3	13.2	2.44e-05	0	44	102	1048576	19	5377
2026-01-24 22:35:46.18	120.73	13.80	-29.7	-33.0	13.4	1.83e-05	0	44	102	1048576	19	5235
2026-01-24 22:35:47.18	120.90	13.75	-29.7	-33.0	13.4	1.22e-05	0	44	102	1048576	19	5231
2026-01-24 22:35:48.18	121.07	13.69	-29.8	-33.1	13.3	1.67e-05	0	44	102	1048576	19	5264
2026-01-24 22:35:49.19	121.24	13.64	-29.8	-33.2	13.3	1.67e-05	0	44	102	1048576	19	5318
2026-01-24 22:35:50.20	121.41	13.58	-30.0	-33.7	13.0	2.44e-05	0	44	102	1048576	19	5499
2026-01-24 22:35:51.21	121.58	13.52	-30.0	-33.2	12.8	5.18e-05	0	44	102	1048576	20	5233
2026-01-24 22:35:52.21	121.75	13.47	-30.1	-33.5	12.6	8.92e-05	0	44	102	1048576	20	5327
2026-01-24 22:35:53.22	121.92	13.41	-29.8	-32.8	13.1	6.17e-05	0	44	102	1048576	20	5077
2026-01-24 22:35:54.23	122.08	13.35	-29.6	-32.2	13.4	2.51e-05	0	44	102	1048576	20	4863
2026-01-24 22:35:55.24	122.25	13.29	-29.5	-31.8	13.7	9.10e-06	0	44	102	1048576	20	4727
2026-01-24 22:35:56.24	122.42	13.24	-29.5	-31.8	13.7	4.50e-06	0	44	102	1048576	20	4721
2026-01-24 22:35:57.25	122.58	13.18	-29.4	-31.8	13.7	8.30e-06	0	44	102	1048576	20	4726
2026-01-24 22:35:58.26	122.75	13.12	-29.4	-31.6	13.8	6.10e-06	0	44	102	1048576	20	4667
2026-01-24 22:35:59.26	122.91	13.06	-29.5	-31.9	13.6	7.60e-06	0	44	102	1048576	20	4752
2026-01-24 22:36:00.26	123.07	13.01	-29.5	-32.1	13.5	9.90e-06	0	44	102	1048576	20	4832
2026-01-24 22:36:01.27	123.24	12.95	-29.7	-32.5	13.3	2.28e-05	0	44	102	1048576	20	4974
2026-01-24 22:36:02.27	123.40	12.89	-29.7	-32.6	13.2	2.36e-05	0	44	102	1048576	20	5006
2026-01-24 22:36:03.28	123.56	12.83	-29.8	-32.8	13.0	3.28e-05	0	44	102	1048576	20	5084
2026-01-24 22:36:04.28	123.72	12.78	-29.8	-32.9	13.0	5.03e-05	0	44	102	1048576	20	5136
2026-01-24 22:36:05.29	123.88	12.72	-29.8	-32.8	13.1	3.43e-05	0	44	102	1048576	20	5075
2026-01-24 22:36:06.29	124.04	12.66	-29.6	-32.4	13.3	2.51e-05	0	44	102	1048576	20	4924
2026-01-24 22:36:07.29	124.20	12.60	-29.5	-32.0	13.5	1.67e-05	0	44	102	1048576	20	4793
2026-01-24 22:36:08.30	124.36	12.54	-29.6	-32.2	13.4	6.56e-05	0	44	102	1048576	20	4858
2026-01-24 22:36:09.31	124.51	12.49	-29.6	-32.3	13.3	2.28e-05	0	44	102	1048576	20	4917
2026-01-24 22:36:10.31	124.67	12.43	-29.6	-32.3	13.3	2.67e-05	0	44	102	1048576	20	4916
2026-01-24 22:36:11.32	124.83	12.37	-29.9	-33.6	12.9	3.79e-04	0	44	102	1048576	19	5486
2026-01-24 22:36:12.33	124.99	12.31	-30.0	-33.7	12.8	5.64e-05	0	44	102	1048576	19	5556
2026-01-24 22:36:13.34	125.14	12.25	-30.1	-33.7	12.4	1.43e-04	0	44	102	1048576	20	5421
2026-01-24 22:36:14.34	125.30	12.19	-30.2	-34.0	12.2	1.62e-04	0	44	102	1048576	20	5565
2026-01-24 22:36:15.34	125.45	12.14	-30.2	-34.0	12.1	3.03e-04	0	44	102	1048576	20	5588
2026-01-24 22:36:16.34	125.60	12.08	-30.0	-33.6	12.4	2.07e-04	0	44	102	1048576	20	5425
2026-01-24 22:36:17.34	125.75	12.02	-29.9	-33.3	12.5	1.40e-04	0	44	102	1048576	20	5330
2026-01-24 22:36:18.34	125.91	11.96	-29.9	-33.4	12.5	1.14e-04	0	44	102	1048576	20	5359
2026-01-24 22:36:19.34	126.06	11.90	-29.9	-33.4	12.5	3.99e-04	0	44	102	1048576	20	5374
2026-01-24 22:36:20.34	126.21	11.85	-29.9	-33.6	12.8	1.01e-04	0	44	102	1048576	19	5545
2026-01-24 22:36:21.35	126.36	11.79	-29.9	-33.6	12.7	6.25e-05	0	44	102	1048576	19	5535
2026-01-24 22:36:22.35	126.51	11.73	-30.0	-34.0	12.5	1.28e-03	0	44	102	1048576	19	5692
2026-01-24 22:36:23.36	126.66	11.67	-29.9	-33.4	12.5	5.57e-04	0	44	102	1048576	20	5340
2026-01-24 22:36:24.36	126.81	11.61	-30.1	-33.6	12.3	1.46e-04	0	44	102	1048576	20	5421
2026-01-24 22:36:25.37	126.96	11.55	-30.1	-33.7	12.2	1.34e-03	0	44	102	1048576	20	5466
2026-01-24 22:36:26.38	127.10	11.49	-30.1	-33.7	12.3	6.64e-04	0	44	102	1048576	20	5458
2026-01-24 22:36:27.38	127.25	11.43	-30.0	-33.5	12.4	1.77e-04	0	44	102	1048576	20	5386
2026-01-24 22:36:28.39	127.40	11.37	-30.0	-33.5	12.4	1.30e-04	0	44	102	1048576	20	5376
2026-01-24 22:36:29.40	127.54	11.32	-30.0	-33.5	12.4	1.72e-04	0	44	102	1048576	20	5371
2026-01-24 22:36:30.40	127.69	11.26	-29.8	-33.0	12.7	9.99e-05	0	44	102	1048576	20	5210
2026-01-24 22:36:31.41	127.83	11.20	-29.8	-33.1	12.6	9.15e-05	0	44	102	1048576	20	5253
2026-01-24 22:36:32.42	127.98	11.14	-29.9	-33.2	12.5	1.38e-04	0	44	102	1048576	20	5263
2026-01-24 22:36:33.42	128.12	11.08	-29.7	-32.8	12.7	8.16e-05	0	44	102	1048576	20	5133
2026-01-24 22:36:34.43	128.27	11.02	-29.9	-33.2	12.5	8.46e-05	0	44	102	1048576	20	5274
2026-01-24 22:36:35.43	128.41	10.96	-30.0	-33.5	12.3	1.88e-04	0	44	102	1048576	20	5394
2026-01-24 22:36:36.43	128.55	10.90	-30.1	-33.8	12.0	2.60e-04	0	44	102	1048576	20	5525
2026-01-24 22:36:37.44	128.69	10.84	-30.2	-34.1	11.9	4.42e-04	0	44	102	1048576	20	5654
2026-01-24 22:36:38.44	128.83	10.79	-30.2	-34.2	11.8	4.13e-04	0	44	102	1048576	20	5675
2026-01-24 22:36:39.45	128.97	10.73	-30.3	-34.3	11.7	4.81e-04	0	44	102	1048576	20	5724
2026-01-24 22:36:40.45	129.11	10.67	-30.2	-34.3	11.8	5.71e-04	0	44	102	1048576	20	5715
2026-01-24 22:36:41.46	129.25	10.61	-30.2	-34.1	11.9	4.20e-04	0	44	102	1048576	20	5633
2026-01-24 22:36:42.46	129.39	10.55	-30.1	-33.9	12.0	3.65e-04	0	44	102	1048576	20	5571
2026-01-24 22:36:43.47	129.53	10.49	-30.0	-33.7	12.1	3.00e-04	0	44	102	1048576	20	5490
2026-01-24 22:36:44.48	129.67	10.43	-30.0	-33.7	12.1	2.52e-04	0	44	102	1048576	20	5519
2026-01-24 22:36:45.48	129.81	10.37	-30.0	-33.7	12.1	2.86e-04	0	44	102	1048576	20	5487
2026-01-24 22:36:46.49	129.94	10.31	-30.0	-33.7	12.1	2.32e-04	0	44	102	1048576	20	5498
2026-01-24 22:36:47.50	130.08	10.25	-30.1	-33.9	11.9	3.14e-04	0	44	102	1048576	20	5570
2026-01-24 22:36:48.49	130.21	10.19	-30.1	-34.0	11.8	3.84e-04	0	44	102	1048576	20	5624
2026-01-24 22:36:49.49	130.35	10.14	-30.1	-34.0	11.9	4.10e-04	0	44	102	1048576	20	5602
2026-01-24 22:36:50.50	130.48	10.08	-30.1	-34.0	11.9	3.69e-04	0	44	102	1048576	20	5596
2026-01-24 22:36:51.50	130.62	10.02	-30.2	-34.1	11.8	5.07e-04	0	44	102	1048576	20	5636
2026-01-24 22:36:52.51	130.75	9.96	-30.2	-34.3	11.6	5.39e-04	0	44	102	1048576	20	5729
2026-01-24 22:36:53.51	130.88	9.90	-30.2	-34.2	11.7	6.28e-04	0	44	102	1048576	20	5684
2026-01-24 22:36:54.51	131.02	9.84	-30.1	-34.0	11.8	4.68e-04	0	44	102	1048576	20	5606
2026-01-24 22:36:55.52	131.15	9.78	-30.1	-33.9	11.9	3.75e-04	0	44	102	1048576	20	5573
2026-01-24 22:36:56.52	131.28	9.72	-30.1	-33.9	11.8	5.41e-04	0	44	102	1048576	20	5589
2026-01-24 22:36:57.53	131.41	9.66	-30.1	-34.1	11.7	4.45e-04	0	44	102	1048576	20	5652
2026-01-24 22:36:58.53	131.54	9.60	-30.1	-34.0	11.7	5.91e-04	0	44	102	1048576	20	5634
2026-01-24 22:36:59.54	131.67	9.55	-30.2	-34.3	11.5	6.71e-04	0	44	102	1048576	20	5753
2026-01-24 22:37:00.55	131.80	9.49	-30.2	-34.3	11.5	7.75e-04	0	44	102	1048576	20	5795
2026-01-24 22:37:01.55	131.93	9.43	-30.3	-34.6	11.3	9.54e-04	0	44	102	1048576	20	5924
2026-01-24 22:37:02.56	132.06	9.37	-30.4	-35.1	11.0	1.78e-03	0	44	102	1048576	20	6137
2026-01-24 22:37:03.56	132.19	9.31	-30.5	-34.8	10.8	2.40e-03	0	44	102	1048576	21	5921
2026-01-24 22:37:04.57	132.31	9.25	-30.6	-35.0	10.6	3.02e-03	0	44	102	1048576	21	6029
2026-01-24 22:37:05.57	132.44	9.19	-30.7	-35.4	10.3	5.21e-03	0	44	102	1048576	21	6193
2026-01-24 22:37:06.57	132.57	9.13	-30.6	-35.0	10.6	3.84e-03	0	44	102	1048576	21	6004
2026-01-24 22:37:07.57	132.69	9.07	-30.5	-34.9	10.7	3.47e-03	0	44	102	1048576	21	5943
2026-01-24 22:37:08.57	132.82	9.02	-30.4	-34.7	10.8	2.83e-03	0	44	102	1048576	21	5855
2026-01-24 22:37:09.58	132.94	8.96	-30.4	-34.6	10.8	2.22e-03	0	44	102	1048576	21	5832
2026-01-24 22:37:10.58	133.07	8.90	-30.4	-35.2	10.7	2.45e-03	0	44	102	1048576	20	6241
2026-01-24 22:37:11.58	133.19	8.84	-30.3	-34.9	10.9	3.54e-03	0	44	102	1048576	20	6096
2026-01-24 22:37:12.59	133.31	8.78	-30.2	-34.5	11.2	1.48e-03	0	44	102	1048576	20	5936
2026-01-24 22:37:13.60	133.44	8.72	-30.1	-34.4	11.3	1.30e-03	0	44	102	1048576	20	5861
2026-01-24 22:37:14.60	133.56	8.66	-30.0	-34.0	11.6	1.17e-03	0	44	102	1048576	20	5668
2026-01-24 22:37:15.59	133.68	8.61	-30.2	-34.5	11.2	1.01e-03	0	44	102	1048576	20	5903
2026-01-24 22:37:16.60	133.80	8.55	-30.2	-34.5	11.2	1.60e-03	0	44	102	1048576	20	5921
2026-01-24 22:37:17.61	133.92	8.49	-30.2	-34.6	11.1	1.39e-03	0	44	102	1048576	20	5966
2026-01-24 22:37:18.61	134.04	8.43	-30.3	-34.8	10.9	1.95e-03	0	44	102	1048576	20	6081
2026-01-24 22:37:19.62	134.16	8.37	-30.2	-34.7	11.0	1.92e-03	0	44	102	1048576	20	6014
2026-01-24 22:37:20.63	134.28	8.31	-30.2	-34.7	10.9	1.99e-03	0	44	102	1048576	20	6063
2026-01-24 22:37:21.63	134.40	8.25	-30.2	-35.0	10.7	2.39e-03	0	44	102	1048576	20	6219
2026-01-24 22:37:22.63	134.52	8.19	-30.1	-34.5	11.0	2.63e-03	0	44	102	1048576	20	6005
2026-01-24 22:37:23.63	134.64	8.14	-30.0	-34.4	11.0	1.62e-03	0	44	102	1048576	20	5979
2026-01-24 22:37:24.64	134.76	8.08	-30.1	-34.6	10.8	2.17e-03	0	44	102	1048576	20	6074
2026-01-24 22:37:25.63	134.87	8.02	-30.1	-34.9	10.7	2.75e-03	0	44	102	1048576	20	6189
2026-01-24 22:37:26.63	134.99	7.96	-30.2	-35.1	10.4	4.63e-03	0	44	102	1048576	20	6328
2026-01-24 22:37:27.64	135.11	7.90	-30.3	-35.2	10.4	3.72e-03	0	44	102	1048576	20	6343
2026-01-24 22:37:28.64	135.22	7.85	-30.3	-35.4	10.3	5.69e-03	0	44	102	1048576	20	6455
2026-01-24 22:37:29.65	135.34	7.79	-30.4	-35.6	10.1	5.99e-03	0	44	102	1048576	20	6528
2026-01-24 22:37:30.66	135.45	7.73	-30.4	-35.6	10.1	7.86e-03	0	44	102	1048576	20	6539
2026-01-24 22:37:31.66	135.57	7.67	-30.5	-35.4	9.9	6.97e-03	0	44	102	1048576	21	6346
2026-01-24 22:37:32.67	135.68	7.61	-30.6	-35.6	9.8	1.02e-02	0	44	102	1048576	21	6404
2026-01-24 22:37:33.67	135.80	7.55	-30.5	-35.5	9.8	9.81e-03	0	44	102	1048576	21	6381
2026-01-24 22:37:34.67	135.91	7.50	-30.2	-35.4	9.6	1.06e-02	0	44	102	1048576	21	6539
2026-01-24 22:37:35.68	136.02	7.44	-30.6	-35.8	9.5	1.35e-02	0	44	102	1048576	21	6547
2026-01-24 22:37:36.68	136.14	7.38	-30.7	-36.2	9.1	1.60e-02	0	44	102	1048576	21	6782
2026-01-24 22:37:37.69	136.25	7.32	-30.6	-36.0	9.3	2.19e-02	0	44	102	1048576	21	6675
2026-01-24 22:37:38.69	136.36	7.26	-30.4	-35.4	9.7	1.42e-02	0	44	102	1048576	21	6380
2026-01-24 22:37:39.69	136.47	7.21	-30.3	-35.1	9.9	8.59e-03	0	44	102	1048576	21	6252
2026-01-24 22:37:40.70	136.58	7.15	-30.1	-35.2	10.1	7.16e-03	0	44	102	1048576	20	6468
2026-01-24 22:37:41.70	136.69	7.09	-30.0	-35.1	10.2	5.97e-03	0	44	102	1048576	20	6409
2026-01-24 22:37:42.70	136.80	7.03	-32.3	-46.9	3.8	9.63e-01	0	44	104	1048576	24	19388
2026-01-24 22:37:43.70	136.91	6.98	-33.2	-47.4	3.8	1.49e+00	0	44	104	1048576	26	18470
2026-01-24 22:37:44.71	137.02	6.92	-33.5	-48.1	3.8	1.49e+00	0	44	104	1048576	26	19407

#Closed at: 2026-01-24 22:37:45
#Recorded file [1 MB]: D:/data/31010_260125_012819.dat