passes_logs/2026/01/24/R2M6_AANII_01/R2M6_AANII_01__20260124_020730_NOAA_20_JPSS-1_rec.log

#Pass ID: 20260124_020730_NOAA 20 (JPSS-1)
#Satellite: NOAA 20 (JPSS-1)
#Configuration: NOAA 20
#almurnet v.1.7.20240730
#Start time: 2026-01-24 02:07:32

#Version: 2.2.20231116
#Station: R2M6_AANII_01
#Location: 30.233357 lon 59.946436 lat
#TLE: 1 43013U 17073A   26022.94240312  .00000200  00000+0  11574-3 0  9998
#TLE: 2 43013  98.7645 323.7982 0001179  28.0279 332.0961 14.19539020423863

#Time	Az	El	Level	Level2	SNR	BER	BlckErr	Temp	State	Recorded	gain1	gain2
2026-01-24 02:07:32.01	10.69	7.12	-32.7	-42.1	4.2	1.43e+00	0	41	0	0	25	10599
2026-01-24 02:07:33.01	10.61	7.19	-32.7	-41.5	4.3	1.40e+00	0	41	104	0	25	9889
2026-01-24 02:07:34.01	10.52	7.26	-32.6	-41.1	5.4	5.37e-01	0	41	0	0	25	9588
2026-01-24 02:07:35.02	10.44	7.32	-32.7	-41.8	5.3	5.49e-01	0	42	102	1048576	24	10326
2026-01-24 02:07:36.02	10.35	7.39	-32.7	-41.2	5.4	5.44e-01	0	41	102	1048576	25	9603
2026-01-24 02:07:37.02	10.26	7.45	-32.7	-41.1	5.5	4.87e-01	0	42	102	1048576	25	9523
2026-01-24 02:07:38.02	10.18	7.52	-32.7	-41.2	5.4	4.86e-01	0	42	102	1048576	25	9623
2026-01-24 02:07:39.03	10.09	7.59	-32.7	-41.2	5.5	4.99e-01	0	42	102	1048576	25	9578
2026-01-24 02:07:40.03	10.00	7.65	-32.8	-42.0	5.0	5.97e-01	0	42	102	1048576	25	10395
2026-01-24 02:07:41.03	9.91	7.72	-32.7	-41.1	5.6	5.88e-01	0	42	102	1048576	25	9455
2026-01-24 02:07:42.03	9.82	7.79	-32.6	-40.3	6.1	3.41e-01	0	42	102	1048576	25	8717
2026-01-24 02:07:43.04	9.73	7.86	-32.4	-39.2	6.9	2.13e-01	0	42	102	1048576	25	7834
2026-01-24 02:07:44.04	9.65	7.92	-32.2	-38.5	7.7	1.29e-01	0	42	102	1048576	24	7481
2026-01-24 02:07:45.05	9.55	7.99	-32.0	-37.6	8.5	5.14e-02	0	42	102	1048576	24	6885
2026-01-24 02:07:46.05	9.46	8.06	-31.8	-36.8	9.1	3.10e-02	0	42	102	1048576	24	6427
2026-01-24 02:07:47.05	9.37	8.12	-31.6	-36.7	9.6	1.62e-02	0	42	102	1048576	23	6444
2026-01-24 02:07:48.06	9.28	8.19	-31.5	-36.2	10.1	8.71e-03	0	42	102	1048576	23	6153
2026-01-24 02:07:49.06	9.19	8.26	-31.4	-35.8	10.3	5.65e-03	0	42	102	1048576	23	5996
2026-01-24 02:07:50.06	9.10	8.33	-31.4	-36.3	10.4	4.77e-03	0	42	102	1048576	22	6315
2026-01-24 02:07:51.06	9.00	8.40	-31.4	-36.1	10.6	3.68e-03	0	42	102	1048576	22	6219
2026-01-24 02:07:52.06	8.91	8.46	-31.3	-36.0	10.6	3.34e-03	0	42	102	1048576	22	6174
2026-01-24 02:07:53.07	8.82	8.53	-31.3	-35.9	10.7	3.48e-03	0	42	102	1048576	22	6098
2026-01-24 02:07:54.07	8.72	8.60	-31.4	-36.1	10.5	3.80e-03	0	42	102	1048576	22	6225
2026-01-24 02:07:55.07	8.63	8.67	-31.3	-35.8	10.8	2.98e-03	0	42	102	1048576	22	6067
2026-01-24 02:07:56.08	8.53	8.74	-31.3	-36.0	10.7	3.30e-03	0	42	102	1048576	22	6146
2026-01-24 02:07:57.09	8.44	8.81	-31.3	-36.0	10.7	2.84e-03	0	42	102	1048576	22	6147
2026-01-24 02:07:58.09	8.34	8.88	-31.3	-36.0	10.7	2.83e-03	0	42	102	1048576	22	6138
2026-01-24 02:07:59.10	8.24	8.94	-31.4	-36.1	10.5	3.99e-03	0	42	102	1048576	22	6233
2026-01-24 02:08:00.10	8.15	9.01	-31.2	-35.7	10.9	2.81e-03	0	42	102	1048576	22	5987
2026-01-24 02:08:01.11	8.05	9.08	-31.2	-35.6	11.0	2.01e-03	0	42	102	1048576	22	5960
2026-01-24 02:08:02.12	7.95	9.15	-31.2	-35.6	11.0	2.42e-03	0	42	102	1048576	22	5938
2026-01-24 02:08:03.13	7.85	9.22	-31.3	-35.9	10.8	2.88e-03	0	42	102	1048576	22	6084
2026-01-24 02:08:04.13	7.75	9.29	-31.2	-35.5	11.0	2.29e-03	0	42	102	1048576	22	5917
2026-01-24 02:08:05.13	7.65	9.36	-31.1	-35.3	11.3	1.80e-03	0	42	102	1048576	22	5796
2026-01-24 02:08:06.13	7.55	9.43	-31.2	-35.5	11.1	1.76e-03	0	42	102	1048576	22	5926
2026-01-24 02:08:07.13	7.45	9.50	-31.3	-35.8	10.9	1.87e-03	0	42	102	1048576	22	6047
2026-01-24 02:08:08.13	7.35	9.57	-31.2	-35.5	11.1	1.90e-03	0	43	102	1048576	22	5914
2026-01-24 02:08:09.13	7.25	9.64	-31.2	-35.6	11.0	2.17e-03	0	43	102	1048576	22	5947
2026-01-24 02:08:10.13	7.15	9.71	-31.2	-35.6	11.1	1.71e-03	0	42	102	1048576	22	5938
2026-01-24 02:08:11.13	7.05	9.78	-31.2	-35.6	11.1	1.94e-03	0	43	102	1048576	22	5920
2026-01-24 02:08:12.14	6.94	9.85	-31.4	-36.0	10.8	2.70e-03	0	43	102	1048576	22	6109
2026-01-24 02:08:13.14	6.84	9.92	-31.3	-35.8	10.9	2.10e-03	0	43	102	1048576	22	6032
2026-01-24 02:08:14.14	6.74	9.99	-31.3	-35.8	10.9	2.02e-03	0	43	102	1048576	22	6044
2026-01-24 02:08:15.15	6.63	10.06	-31.3	-35.8	11.0	2.23e-03	0	43	102	1048576	22	6023
2026-01-24 02:08:16.16	6.53	10.13	-31.2	-35.6	11.1	1.66e-03	0	43	102	1048576	22	5931
2026-01-24 02:08:17.16	6.42	10.20	-31.2	-35.5	11.2	1.66e-03	0	43	102	1048576	22	5879
2026-01-24 02:08:18.17	6.32	10.27	-31.3	-35.6	11.0	1.74e-03	0	43	102	1048576	22	5945
2026-01-24 02:08:19.17	6.21	10.35	-31.3	-35.8	11.0	2.12e-03	0	43	102	1048576	22	6009
2026-01-24 02:08:20.18	6.10	10.42	-31.3	-35.6	11.1	2.42e-03	0	43	102	1048576	22	5939
2026-01-24 02:08:21.18	5.99	10.49	-31.3	-35.7	11.0	2.26e-03	0	43	102	1048576	22	6004
2026-01-24 02:08:22.19	5.88	10.56	-31.3	-35.9	10.9	2.01e-03	0	43	102	1048576	22	6086
2026-01-24 02:08:23.19	5.78	10.63	-31.3	-35.8	10.9	2.91e-03	0	43	102	1048576	22	6037
2026-01-24 02:08:24.19	5.67	10.70	-31.3	-35.8	10.9	2.62e-03	0	43	102	1048576	22	6053
2026-01-24 02:08:25.19	5.56	10.77	-31.3	-35.9	10.9	1.87e-03	0	43	102	1048576	22	6056
2026-01-24 02:08:26.19	5.45	10.85	-31.3	-35.6	11.1	1.60e-03	0	43	102	1048576	22	5933
2026-01-24 02:08:27.20	5.34	10.92	-31.3	-35.7	11.1	2.16e-03	0	43	102	1048576	22	5962
2026-01-24 02:08:28.21	5.22	10.99	-31.3	-35.8	10.9	2.09e-03	0	43	102	1048576	22	6014
2026-01-24 02:08:29.21	5.11	11.06	-31.3	-35.8	11.0	1.98e-03	0	43	102	1048576	22	6031
2026-01-24 02:08:30.21	5.00	11.13	-31.3	-35.8	11.0	2.78e-03	0	43	102	1048576	22	6027
2026-01-24 02:08:31.22	4.89	11.21	-31.2	-35.5	11.2	1.41e-03	0	43	102	1048576	22	5883
2026-01-24 02:08:32.22	4.77	11.28	-31.3	-35.5	11.2	1.48e-03	0	43	102	1048576	22	5900
2026-01-24 02:08:33.23	4.66	11.35	-31.2	-35.4	11.3	1.31e-03	0	43	102	1048576	22	5838
2026-01-24 02:08:34.22	4.54	11.42	-31.2	-35.4	11.3	1.18e-03	0	43	102	1048576	22	5821
2026-01-24 02:08:35.24	4.43	11.50	-31.2	-35.3	11.4	1.59e-03	0	43	102	1048576	22	5789
2026-01-24 02:08:36.24	4.31	11.57	-31.3	-35.7	11.1	1.44e-03	0	43	102	1048576	22	5970
2026-01-24 02:08:37.25	4.19	11.64	-31.2	-35.3	11.4	1.26e-03	0	43	102	1048576	22	5761
2026-01-24 02:08:38.25	4.07	11.72	-31.1	-35.1	11.6	1.00e-03	0	43	102	1048576	22	5673
2026-01-24 02:08:39.25	3.96	11.79	-31.1	-35.0	11.7	6.70e-04	0	43	102	1048576	22	5640
2026-01-24 02:08:40.26	3.84	11.86	-31.1	-35.1	11.6	7.47e-04	0	43	102	1048576	22	5682
2026-01-24 02:08:41.26	3.72	11.94	-31.2	-35.3	11.5	9.75e-04	0	43	102	1048576	22	5781
2026-01-24 02:08:42.26	3.60	12.01	-31.3	-35.5	11.3	1.25e-03	0	43	102	1048576	22	5883
2026-01-24 02:08:43.26	3.48	12.08	-31.2	-35.2	11.5	8.38e-04	0	43	102	1048576	22	5706
2026-01-24 02:08:44.26	3.36	12.15	-31.2	-35.3	11.4	8.78e-04	0	43	102	1048576	22	5782
2026-01-24 02:08:45.26	3.24	12.23	-31.2	-35.4	11.4	1.17e-03	0	43	102	1048576	22	5819
2026-01-24 02:08:46.26	3.12	12.30	-31.3	-35.8	11.1	1.37e-03	0	43	102	1048576	22	5994
2026-01-24 02:08:47.25	2.99	12.37	-31.2	-35.4	11.3	1.06e-03	0	43	102	1048576	22	5831
2026-01-24 02:08:48.26	2.87	12.45	-31.2	-35.2	11.5	8.69e-04	0	43	102	1048576	22	5720
2026-01-24 02:08:49.27	2.74	12.52	-31.1	-35.1	11.6	7.93e-04	0	43	102	1048576	22	5698
2026-01-24 02:08:50.27	2.62	12.60	-31.2	-35.2	11.5	7.64e-04	0	43	102	1048576	22	5729
2026-01-24 02:08:51.27	2.49	12.67	-31.1	-35.1	11.7	6.80e-04	0	43	102	1048576	22	5668
2026-01-24 02:08:52.27	2.37	12.75	-31.1	-35.0	11.7	6.70e-04	0	43	102	1048576	22	5657
2026-01-24 02:08:53.26	2.24	12.82	-31.1	-35.0	11.7	5.39e-04	0	43	102	1048576	22	5651
2026-01-24 02:08:54.26	2.12	12.89	-31.2	-35.3	11.5	6.26e-04	0	43	102	1048576	22	5771
2026-01-24 02:08:55.27	1.99	12.97	-31.3	-35.5	11.3	1.16e-03	0	43	102	1048576	22	5872
2026-01-24 02:08:56.28	1.86	13.04	-31.1	-35.1	11.7	6.86e-04	0	43	102	1048576	22	5677
2026-01-24 02:08:57.28	1.73	13.12	-31.0	-34.7	11.9	4.57e-04	0	43	102	1048576	22	5499
2026-01-24 02:08:58.29	1.60	13.19	-30.9	-34.4	12.1	3.00e-04	0	43	102	1048576	22	5381
2026-01-24 02:08:59.29	1.47	13.27	-30.9	-34.8	12.2	2.34e-04	0	43	102	1048576	21	5637
2026-01-24 02:09:00.29	1.34	13.34	-30.9	-34.7	12.2	1.93e-04	0	43	102	1048576	21	5619
2026-01-24 02:09:01.30	1.20	13.42	-30.9	-34.9	12.1	2.20e-04	0	43	102	1048576	21	5692
2026-01-24 02:09:02.30	1.07	13.49	-30.8	-34.6	12.3	1.80e-04	0	43	102	1048576	21	5558
2026-01-24 02:09:03.30	0.94	13.57	-30.8	-34.7	12.3	2.07e-04	0	43	102	1048576	21	5597
2026-01-24 02:09:04.30	0.80	13.64	-30.9	-34.7	12.2	2.01e-04	0	43	102	1048576	21	5629
2026-01-24 02:09:05.30	0.67	13.72	-30.8	-34.5	12.4	1.59e-04	0	43	102	1048576	21	5536
2026-01-24 02:09:06.31	0.53	13.79	-30.8	-34.4	12.5	1.13e-04	0	43	102	1048576	21	5481
2026-01-24 02:09:07.31	0.40	13.87	-30.7	-34.3	12.4	1.27e-04	0	43	102	1048576	21	5456
2026-01-24 02:09:08.32	0.26	13.94	-30.8	-34.6	12.3	1.27e-04	0	43	102	1048576	21	5557
2026-01-24 02:09:09.33	0.12	14.02	-30.9	-34.9	12.1	2.39e-04	0	43	102	1048576	21	5703
2026-01-24 02:09:10.33	359.98	14.10	-30.8	-34.6	12.4	1.43e-04	0	43	102	1048576	21	5563
2026-01-24 02:09:11.33	359.84	14.17	-30.8	-34.5	12.5	1.38e-04	0	43	102	1048576	21	5521
2026-01-24 02:09:12.34	359.70	14.25	-30.8	-34.4	12.6	1.39e-04	0	43	102	1048576	21	5455
2026-01-24 02:09:13.34	359.56	14.32	-30.8	-34.4	12.6	7.21e-04	0	43	102	1048576	21	5471
2026-01-24 02:09:14.35	359.42	14.40	-30.8	-34.4	12.6	1.26e-04	0	43	102	1048576	21	5478
2026-01-24 02:09:15.35	359.28	14.48	-30.6	-34.0	12.8	8.54e-05	0	43	102	1048576	21	5301
2026-01-24 02:09:16.34	359.14	14.55	-30.6	-33.8	12.9	4.88e-05	0	43	102	1048576	21	5247
2026-01-24 02:09:17.35	358.99	14.63	-30.6	-34.0	12.8	5.18e-05	0	43	102	1048576	21	5304
2026-01-24 02:09:18.35	358.85	14.70	-30.7	-34.2	12.7	6.10e-05	0	43	102	1048576	21	5387
2026-01-24 02:09:19.35	358.70	14.78	-30.7	-34.1	12.8	7.01e-05	0	43	102	1048576	21	5349
2026-01-24 02:09:20.35	358.56	14.86	-30.7	-34.2	12.7	1.39e-03	0	43	102	1048576	21	5368
2026-01-24 02:09:21.35	358.41	14.93	-30.8	-34.5	12.5	9.91e-05	0	43	102	1048576	21	5493
2026-01-24 02:09:22.36	358.26	15.01	-30.8	-34.4	12.6	9.61e-05	0	44	102	1048576	21	5465
2026-01-24 02:09:23.36	358.11	15.08	-30.9	-34.7	12.4	1.39e-03	0	43	102	1048576	21	5576
2026-01-24 02:09:24.37	357.96	15.16	-30.9	-34.4	12.3	2.36e-04	0	44	102	1048576	22	5354
2026-01-24 02:09:25.38	357.81	15.24	-30.8	-34.4	12.6	1.30e-04	0	44	102	1048576	21	5486
2026-01-24 02:09:26.38	357.66	15.31	-30.8	-34.4	12.6	9.61e-05	0	43	102	1048576	21	5451
2026-01-24 02:09:27.39	357.51	15.39	-30.8	-34.5	12.5	9.23e-05	0	43	102	1048576	21	5518
2026-01-24 02:09:28.40	357.36	15.47	-30.9	-34.8	12.4	1.52e-04	0	43	102	1048576	21	5617
2026-01-24 02:09:29.40	357.20	15.54	-30.8	-34.5	12.6	1.23e-04	0	43	102	1048576	21	5488
2026-01-24 02:09:30.40	357.05	15.62	-30.8	-34.4	12.6	8.39e-05	0	44	102	1048576	21	5461
2026-01-24 02:09:31.41	356.90	15.70	-30.8	-34.3	12.7	1.50e-03	0	43	102	1048576	21	5443
2026-01-24 02:09:32.41	356.74	15.77	-30.7	-34.3	12.7	8.01e-05	0	44	102	1048576	21	5407
2026-01-24 02:09:33.42	356.58	15.85	-30.8	-34.6	12.5	9.46e-05	0	43	102	1048576	21	5523
2026-01-24 02:09:34.42	356.43	15.93	-30.9	-34.7	12.4	1.90e-03	0	43	102	1048576	21	5584
2026-01-24 02:09:35.43	356.27	16.01	-30.7	-34.2	12.8	1.82e-03	0	44	102	1048576	21	5381
2026-01-24 02:09:36.41	356.11	16.08	-30.6	-33.9	12.9	4.57e-05	0	43	102	1048576	21	5258
2026-01-24 02:09:37.41	355.95	16.16	-30.7	-34.1	12.8	1.75e-03	0	44	102	1048576	21	5355
2026-01-24 02:09:38.42	355.79	16.23	-30.7	-34.2	12.8	1.78e-03	0	43	102	1048576	21	5372
2026-01-24 02:09:39.43	355.63	16.31	-30.8	-34.4	12.6	9.07e-05	0	44	102	1048576	21	5473
2026-01-24 02:09:40.43	355.47	16.39	-30.8	-34.4	12.6	1.88e-03	0	44	102	1048576	21	5468
2026-01-24 02:09:41.44	355.30	16.47	-30.8	-34.5	12.6	1.91e-03	0	44	102	1048576	21	5498
2026-01-24 02:09:42.45	355.14	16.54	-30.8	-34.5	12.5	1.07e-04	0	44	102	1048576	21	5516
2026-01-24 02:09:43.45	354.97	16.62	-30.9	-34.6	12.5	1.81e-03	0	44	102	1048576	21	5555
2026-01-24 02:09:44.46	354.81	16.70	-30.9	-34.6	12.5	1.77e-03	0	44	102	1048576	21	5559
2026-01-24 02:09:45.47	354.64	16.77	-30.9	-34.7	12.5	1.33e-04	0	43	102	1048576	21	5572
2026-01-24 02:09:46.47	354.47	16.85	-31.0	-34.9	12.3	1.65e-04	0	44	102	1048576	21	5672
2026-01-24 02:09:47.48	354.30	16.93	-31.1	-34.7	12.2	2.03e-03	0	44	102	1048576	22	5469
2026-01-24 02:09:48.48	354.14	17.00	-30.9	-34.2	12.5	1.40e-04	0	44	102	1048576	22	5270
2026-01-24 02:09:49.48	353.97	17.08	-30.8	-34.4	12.7	1.78e-03	0	44	102	1048576	21	5476
2026-01-24 02:09:50.47	353.80	17.16	-30.7	-34.2	12.8	1.70e-03	0	43	102	1048576	21	5376
2026-01-24 02:09:51.48	353.63	17.23	-30.8	-34.3	12.7	7.47e-05	0	43	102	1048576	21	5434
2026-01-24 02:09:52.49	353.45	17.31	-30.8	-34.5	12.6	1.65e-03	0	44	102	1048576	21	5494
2026-01-24 02:09:53.48	353.28	17.39	-30.8	-34.5	12.6	7.40e-05	0	44	102	1048576	21	5512
2026-01-24 02:09:54.49	353.10	17.46	-30.9	-34.8	12.5	1.23e-04	0	44	102	1048576	21	5617
2026-01-24 02:09:55.49	352.93	17.54	-30.9	-34.8	12.4	1.59e-03	0	44	102	1048576	21	5616
2026-01-24 02:09:56.50	352.75	17.62	-30.9	-34.7	12.5	1.30e-04	0	44	102	1048576	21	5569
2026-01-24 02:09:57.51	352.57	17.69	-30.9	-34.7	12.6	9.00e-05	0	44	102	1048576	21	5560
2026-01-24 02:09:58.51	352.40	17.77	-30.8	-34.5	12.6	1.34e-03	0	44	102	1048576	21	5509
2026-01-24 02:09:59.51	352.22	17.85	-30.9	-34.7	12.6	1.43e-03	0	44	102	1048576	21	5552
2026-01-24 02:10:00.52	352.04	17.92	-31.0	-34.9	12.4	1.13e-04	0	44	102	1048576	21	5634
2026-01-24 02:10:01.52	351.86	18.00	-31.0	-34.4	12.4	1.49e-03	0	44	102	1048576	22	5351
2026-01-24 02:10:02.53	351.67	18.08	-30.8	-34.4	12.7	1.34e-03	0	44	102	1048576	21	5464
2026-01-24 02:10:03.53	351.49	18.15	-30.8	-34.4	12.8	7.01e-05	0	44	102	1048576	21	5439
2026-01-24 02:10:04.54	351.31	18.23	-30.8	-34.5	12.7	9.07e-05	0	44	102	1048576	21	5501
2026-01-24 02:10:05.54	351.12	18.31	-30.8	-34.5	12.8	1.05e-03	0	44	102	1048576	21	5482
2026-01-24 02:10:06.55	350.94	18.38	-30.9	-34.6	12.6	8.39e-05	0	44	102	1048576	21	5548
2026-01-24 02:10:07.55	350.75	18.46	-31.0	-34.9	12.5	1.07e-04	0	44	102	1048576	21	5653
2026-01-24 02:10:08.55	350.56	18.53	-31.0	-34.5	12.4	1.51e-04	0	44	102	1048576	22	5380
2026-01-24 02:10:09.55	350.38	18.61	-31.0	-34.4	12.4	1.33e-04	0	44	102	1048576	22	5353
2026-01-24 02:10:10.55	350.19	18.68	-31.0	-34.5	12.4	1.46e-04	0	44	102	1048576	22	5359
2026-01-24 02:10:11.55	350.00	18.76	-31.0	-34.4	12.4	1.43e-04	0	44	102	1048576	22	5360
2026-01-24 02:10:12.56	349.81	18.83	-30.9	-34.3	12.6	1.26e-04	0	44	102	1048576	22	5284
2026-01-24 02:10:13.56	349.61	18.91	-30.8	-34.5	12.7	8.46e-05	0	44	102	1048576	21	5464
2026-01-24 02:10:14.56	349.42	18.98	-30.8	-34.4	12.8	6.10e-05	0	44	102	1048576	21	5432
2026-01-24 02:10:15.57	349.23	19.06	-30.8	-34.3	12.8	6.40e-05	0	44	102	1048576	21	5407
2026-01-24 02:10:16.56	349.03	19.13	-30.8	-34.3	12.9	5.18e-04	0	44	102	1048576	21	5383
2026-01-24 02:10:17.57	348.84	19.21	-30.8	-34.2	12.9	4.42e-05	0	44	102	1048576	21	5383
2026-01-24 02:10:18.57	348.64	19.28	-30.8	-34.4	12.8	3.96e-05	0	44	102	1048576	21	5427
2026-01-24 02:10:19.57	348.44	19.36	-30.8	-34.5	12.7	5.26e-05	0	44	102	1048576	21	5493
2026-01-24 02:10:20.58	348.24	19.43	-30.8	-34.3	12.7	7.85e-05	0	44	102	1048576	21	5426
2026-01-24 02:10:21.58	348.04	19.51	-30.7	-34.1	13.0	4.80e-05	0	44	102	1048576	21	5312
2026-01-24 02:10:22.59	347.84	19.58	-30.6	-33.9	13.1	3.89e-05	0	44	102	1048576	21	5243
2026-01-24 02:10:23.60	347.64	19.66	-30.7	-34.0	13.0	3.81e-05	0	44	102	1048576	21	5285
2026-01-24 02:10:24.61	347.43	19.73	-30.8	-34.3	12.9	3.89e-05	0	44	102	1048576	21	5391
2026-01-24 02:10:25.61	347.23	19.80	-30.7	-34.0	13.0	5.56e-05	0	44	102	1048576	21	5303
2026-01-24 02:10:26.61	347.03	19.88	-30.5	-33.6	13.3	2.28e-05	0	44	102	1048576	21	5143
2026-01-24 02:10:27.61	346.82	19.95	-30.4	-33.4	13.5	1.75e-05	0	44	102	1048576	21	5039
2026-01-24 02:10:28.61	346.61	20.02	-30.4	-33.4	13.4	9.10e-06	0	44	102	1048576	21	5052
2026-01-24 02:10:29.62	346.40	20.10	-30.5	-33.4	13.5	9.10e-06	0	44	102	1048576	21	5053
2026-01-24 02:10:30.63	346.19	20.17	-30.4	-33.4	13.4	1.14e-05	0	44	102	1048576	21	5057
2026-01-24 02:10:31.63	345.98	20.24	-30.5	-33.5	13.4	1.44e-05	0	44	102	1048576	21	5099
2026-01-24 02:10:32.63	345.77	20.31	-30.4	-33.3	13.5	1.52e-05	0	44	102	1048576	21	5030
2026-01-24 02:10:33.63	345.56	20.39	-30.4	-33.2	13.6	1.14e-05	0	44	102	1048576	21	4983
2026-01-24 02:10:34.63	345.35	20.46	-30.3	-33.0	13.7	5.30e-06	0	44	102	1048576	21	4926
2026-01-24 02:10:35.63	345.14	20.53	-30.3	-33.1	13.6	7.60e-06	0	44	102	1048576	21	4950
2026-01-24 02:10:36.64	344.92	20.60	-30.2	-32.8	13.8	9.10e-06	0	44	102	1048576	21	4848
2026-01-24 02:10:37.64	344.71	20.67	-30.2	-32.7	13.9	5.30e-06	0	44	102	1048576	21	4798
2026-01-24 02:10:38.64	344.49	20.74	-30.3	-32.9	13.8	4.50e-06	0	44	102	1048576	21	4883
2026-01-24 02:10:39.64	344.27	20.81	-30.1	-32.5	14.0	5.30e-06	0	44	102	1048576	21	4739
2026-01-24 02:10:40.64	344.05	20.89	-29.8	-31.8	14.5	1.50e-06	0	44	102	1048576	21	4487
2026-01-24 02:10:41.65	343.83	20.96	-29.6	-31.8	14.8	0.00e+00	0	44	102	1048576	20	4594
2026-01-24 02:10:42.65	343.61	21.03	-29.6	-31.7	14.9	0.00e+00	0	44	102	1048576	20	4560
2026-01-24 02:10:43.66	343.39	21.10	-29.8	-32.1	14.7	0.00e+00	0	44	102	1048576	20	4686
2026-01-24 02:10:44.66	343.17	21.17	-29.9	-32.4	14.4	1.50e-06	0	44	102	1048576	20	4798
2026-01-24 02:10:45.67	342.94	21.24	-29.9	-32.3	14.5	1.50e-06	0	44	102	1048576	20	4765
2026-01-24 02:10:46.67	342.72	21.30	-29.8	-32.1	14.6	2.20e-06	0	44	102	1048576	20	4687
2026-01-24 02:10:47.68	342.49	21.37	-29.7	-31.9	14.7	7.00e-07	0	44	102	1048576	20	4651
2026-01-24 02:10:48.68	342.26	21.44	-29.8	-32.1	14.6	0.00e+00	0	44	102	1048576	20	4717
2026-01-24 02:10:49.68	342.03	21.51	-29.8	-32.1	14.6	7.00e-07	0	44	102	1048576	20	4706
2026-01-24 02:10:50.68	341.81	21.58	-29.7	-31.9	14.7	7.00e-07	0	44	102	1048576	20	4650
2026-01-24 02:10:51.69	341.57	21.65	-29.5	-31.5	15.0	0.00e+00	0	44	102	1048576	20	4514
2026-01-24 02:10:52.70	341.34	21.71	-29.5	-31.4	15.1	0.00e+00	0	44	102	1048576	20	4489
2026-01-24 02:10:53.70	341.11	21.78	-29.5	-31.3	15.2	0.00e+00	0	44	102	1048576	20	4432
2026-01-24 02:10:54.71	340.87	21.85	-29.4	-31.2	15.2	1.18e-04	0	44	102	1048576	20	4415
2026-01-24 02:10:55.71	340.64	21.91	-29.4	-31.7	15.3	1.62e-04	0	44	102	1048576	19	4662
2026-01-24 02:10:56.71	340.41	21.98	-29.4	-31.7	15.3	0.00e+00	0	44	102	1048576	19	4676
2026-01-24 02:10:57.72	340.17	22.04	-29.5	-31.8	15.2	2.01e-04	0	44	102	1048576	19	4706
2026-01-24 02:10:58.72	339.93	22.11	-29.6	-32.1	15.1	2.13e-04	0	44	102	1048576	19	4795
2026-01-24 02:10:59.72	339.69	22.17	-29.6	-32.1	15.0	0.00e+00	0	44	102	1048576	19	4811
2026-01-24 02:11:00.72	339.46	22.24	-29.6	-32.0	15.1	0.00e+00	0	44	102	1048576	19	4779
2026-01-24 02:11:01.73	339.21	22.30	-29.7	-32.3	14.9	1.82e-04	0	44	102	1048576	19	4881
2026-01-24 02:11:02.74	338.97	22.37	-29.6	-32.0	15.1	0.00e+00	0	44	102	1048576	19	4763
2026-01-24 02:11:03.74	338.73	22.43	-29.5	-31.9	15.2	0.00e+00	0	44	102	1048576	19	4736
2026-01-24 02:11:04.75	338.48	22.49	-29.5	-31.9	15.2	2.58e-04	0	44	102	1048576	19	4735
2026-01-24 02:11:05.75	338.24	22.56	-29.5	-31.8	15.3	0.00e+00	0	44	102	1048576	19	4704
2026-01-24 02:11:06.76	337.99	22.62	-29.6	-32.0	15.1	9.38e-04	0	44	102	1048576	19	4777
2026-01-24 02:11:07.76	337.75	22.68	-29.7	-32.2	15.0	1.42e-03	0	44	102	1048576	19	4837
2026-01-24 02:11:08.77	337.50	22.74	-29.8	-32.5	14.8	0.00e+00	0	44	102	1048576	19	4939
2026-01-24 02:11:09.77	337.25	22.80	-29.8	-32.6	14.8	1.72e-03	0	44	102	1048576	19	4970
2026-01-24 02:11:10.78	337.00	22.86	-29.8	-32.5	14.8	7.00e-07	0	44	102	1048576	19	4935
2026-01-24 02:11:11.78	336.75	22.92	-29.7	-32.3	14.9	7.00e-07	0	44	102	1048576	19	4874
2026-01-24 02:11:12.78	336.50	22.98	-29.7	-32.2	15.0	1.72e-03	0	44	102	1048576	19	4843
2026-01-24 02:11:13.79	336.24	23.04	-29.6	-32.2	15.0	1.58e-03	0	44	102	1048576	19	4828
2026-01-24 02:11:14.79	335.99	23.10	-29.7	-32.2	15.0	0.00e+00	0	44	102	1048576	19	4845
2026-01-24 02:11:15.80	335.74	23.16	-29.7	-32.4	14.9	1.19e-03	0	44	102	1048576	19	4886
2026-01-24 02:11:16.80	335.48	23.21	-29.8	-32.7	14.7	1.20e-03	0	44	102	1048576	19	5011
2026-01-24 02:11:17.81	335.22	23.27	-29.8	-32.7	14.7	0.00e+00	0	44	102	1048576	19	5009
2026-01-24 02:11:18.81	334.97	23.33	-29.8	-32.6	14.8	1.66e-03	0	44	102	1048576	19	4957
2026-01-24 02:11:19.82	334.71	23.38	-29.8	-32.6	14.7	1.86e-03	0	44	102	1048576	19	4968
2026-01-24 02:11:20.81	334.45	23.44	-30.0	-33.1	14.5	0.00e+00	0	44	102	1048576	19	5129
2026-01-24 02:11:21.82	334.19	23.50	-29.7	-32.4	14.9	1.95e-03	0	44	102	1048576	19	4902
2026-01-24 02:11:22.82	333.93	23.55	-29.7	-32.4	14.9	2.02e-03	0	44	102	1048576	19	4879
2026-01-24 02:11:23.83	333.67	23.60	-29.8	-32.5	14.8	0.00e+00	0	44	102	1048576	19	4923
2026-01-24 02:11:24.83	333.41	23.66	-29.7	-32.4	14.9	0.00e+00	0	44	102	1048576	19	4897
2026-01-24 02:11:25.84	333.14	23.71	-29.8	-32.6	14.8	1.95e-03	0	44	102	1048576	19	4966
2026-01-24 02:11:26.84	332.88	23.76	-29.7	-32.4	14.9	0.00e+00	0	44	102	1048576	19	4893
2026-01-24 02:11:27.84	332.61	23.81	-29.6	-32.1	15.1	2.02e-03	0	44	102	1048576	19	4811
2026-01-24 02:11:28.84	332.35	23.87	-29.6	-32.0	15.2	0.00e+00	0	44	102	1048576	19	4771
2026-01-24 02:11:29.84	332.08	23.92	-29.5	-31.8	15.2	0.00e+00	0	44	102	1048576	19	4700
2026-01-24 02:11:30.84	331.81	23.97	-29.3	-31.9	15.5	1.98e-03	0	44	102	1048576	18	4834
2026-01-24 02:11:31.85	331.54	24.02	-29.4	-32.0	15.4	0.00e+00	0	44	102	1048576	18	4882
2026-01-24 02:11:32.85	331.27	24.06	-29.3	-31.7	15.6	0.00e+00	0	44	102	1048576	18	4778
2026-01-24 02:11:33.84	331.01	24.11	-29.2	-31.5	15.7	1.98e-03	0	44	102	1048576	18	4701
2026-01-24 02:11:34.85	330.73	24.16	-29.1	-31.4	15.8	0.00e+00	0	44	102	1048576	18	4684
2026-01-24 02:11:35.85	330.46	24.21	-29.1	-31.4	15.8	0.00e+00	0	44	102	1048576	18	4693
2026-01-24 02:11:36.85	330.19	24.25	-28.9	-31.0	16.1	1.47e-03	0	44	102	1048576	18	4545
2026-01-24 02:11:37.86	329.91	24.30	-28.9	-31.4	16.1	1.35e-03	0	44	102	1048576	17	4788
2026-01-24 02:11:38.86	329.64	24.34	-28.9	-31.3	16.1	0.00e+00	0	44	102	1048576	17	4772
2026-01-24 02:11:39.86	329.37	24.39	-29.0	-31.2	15.9	0.00e+00	0	44	102	1048576	18	4618
2026-01-24 02:11:40.86	329.09	24.43	-29.3	-31.9	15.5	1.92e-03	0	44	102	1048576	18	4850
2026-01-24 02:11:41.86	328.82	24.48	-29.4	-32.0	15.4	0.00e+00	0	44	102	1048576	18	4882
2026-01-24 02:11:42.87	328.54	24.52	-29.6	-32.0	15.1	0.00e+00	0	44	102	1048576	19	4775
2026-01-24 02:11:43.87	328.26	24.56	-29.7	-32.4	14.9	0.00e+00	0	44	102	1048576	19	4900
2026-01-24 02:11:44.87	327.98	24.60	-29.7	-32.3	15.0	0.00e+00	0	44	102	1048576	19	4854
2026-01-24 02:11:45.87	327.70	24.64	-29.6	-32.1	15.0	0.00e+00	0	44	102	1048576	19	4813
2026-01-24 02:11:46.88	327.42	24.68	-29.7	-32.2	15.0	0.00e+00	0	44	102	1048576	19	4839
2026-01-24 02:11:47.89	327.13	24.72	-29.8	-32.6	14.8	7.00e-07	0	44	102	1048576	19	4958
2026-01-24 02:11:48.89	326.85	24.76	-29.8	-32.5	14.8	0.00e+00	0	44	102	1048576	19	4926
2026-01-24 02:11:49.88	326.57	24.80	-29.7	-32.2	15.0	0.00e+00	0	44	102	1048576	19	4834
2026-01-24 02:11:50.88	326.29	24.83	-29.6	-32.2	15.0	0.00e+00	0	44	102	1048576	19	4823
2026-01-24 02:11:51.89	326.01	24.87	-29.7	-32.3	15.0	0.00e+00	0	44	102	1048576	19	4846
2026-01-24 02:11:52.89	325.72	24.91	-29.8	-32.6	14.8	0.00e+00	0	44	102	1048576	19	4961
2026-01-24 02:11:53.90	325.43	24.94	-29.8	-32.5	14.8	0.00e+00	0	44	102	1048576	19	4939
2026-01-24 02:11:54.90	325.15	24.98	-30.0	-33.0	14.5	0.00e+00	0	44	102	1048576	19	5120
2026-01-24 02:11:55.91	324.86	25.01	-30.1	-32.9	14.2	1.50e-06	0	44	102	1048576	20	4957
2026-01-24 02:11:56.91	324.57	25.04	-30.3	-33.5	13.8	3.00e-06	0	44	102	1048576	20	5177
2026-01-24 02:11:57.92	324.28	25.07	-30.2	-33.3	13.9	7.00e-07	0	44	102	1048576	20	5098
2026-01-24 02:11:58.92	324.00	25.11	-30.1	-33.0	14.1	1.50e-06	0	44	102	1048576	20	4984
2026-01-24 02:11:59.92	323.71	25.14	-30.2	-33.2	14.0	0.00e+00	0	44	102	1048576	20	5067
2026-01-24 02:12:00.93	323.42	25.17	-30.3	-33.4	13.9	4.50e-06	0	44	102	1048576	20	5138
2026-01-24 02:12:01.92	323.13	25.19	-30.3	-33.5	13.8	3.80e-06	0	44	102	1048576	20	5178
2026-01-24 02:12:02.92	322.84	25.22	-30.2	-33.3	13.9	3.80e-06	0	44	102	1048576	20	5097
2026-01-24 02:12:03.92	322.55	25.25	-30.1	-33.0	14.2	7.00e-07	0	44	102	1048576	20	4993
2026-01-24 02:12:04.93	322.26	25.28	-30.2	-33.2	14.0	1.50e-06	0	44	102	1048576	20	5083
2026-01-24 02:12:05.94	321.96	25.30	-30.3	-33.4	13.9	3.00e-06	0	44	102	1048576	20	5160
2026-01-24 02:12:06.94	321.67	25.33	-30.4	-33.7	13.7	2.20e-06	0	44	102	1048576	20	5249
2026-01-24 02:12:07.94	321.38	25.35	-30.4	-33.7	13.7	6.10e-06	0	44	102	1048576	20	5276
2026-01-24 02:12:08.94	321.08	25.38	-30.4	-33.6	13.5	3.80e-06	0	44	102	1048576	20	5230
2026-01-24 02:12:09.94	320.79	25.40	-30.4	-33.7	12.6	3.80e-06	0	44	102	1048576	20	5266
2026-01-24 02:12:10.95	320.49	25.42	-30.2	-33.1	14.1	3.00e-06	0	44	102	1048576	20	5029
2026-01-24 02:12:11.95	320.20	25.44	-30.2	-33.1	14.1	2.06e-03	0	44	102	1048576	20	5040
2026-01-24 02:12:12.96	319.90	25.46	-30.3	-33.3	13.9	7.00e-07	0	44	102	1048576	20	5129
2026-01-24 02:12:13.97	319.61	25.48	-30.3	-33.3	13.9	3.80e-06	0	44	102	1048576	20	5119
2026-01-24 02:12:14.98	319.31	25.50	-30.4	-33.8	13.6	2.20e-06	0	44	102	1048576	20	5297
2026-01-24 02:12:15.98	319.01	25.52	-30.5	-33.8	13.6	2.01e-03	0	44	102	1048576	20	5314
2026-01-24 02:12:16.99	318.71	25.53	-30.6	-33.7	13.4	1.37e-05	0	44	102	1048576	21	5132
2026-01-24 02:12:17.99	318.42	25.55	-30.7	-34.1	13.1	1.37e-05	0	44	102	1048576	21	5315
2026-01-24 02:12:18.99	318.12	25.56	-30.7	-33.9	13.2	1.42e-03	0	44	102	1048576	21	5217
2026-01-24 02:12:19.99	317.82	25.58	-30.9	-34.5	12.9	3.20e-05	0	44	102	1048576	21	5447
2026-01-24 02:12:20.99	317.53	25.59	-30.9	-34.6	12.7	5.03e-05	0	44	102	1048576	21	5500
2026-01-24 02:12:22.00	317.23	25.61	-31.1	-34.5	12.5	6.42e-04	0	44	102	1048576	22	5371
2026-01-24 02:12:23.01	316.93	25.62	-30.9	-34.2	12.7	9.61e-05	0	44	102	1048576	22	5221
2026-01-24 02:12:24.01	316.63	25.63	-30.8	-33.9	12.9	5.26e-05	0	44	102	1048576	22	5103
2026-01-24 02:12:25.02	316.33	25.64	-30.9	-33.9	12.9	4.11e-05	0	44	102	1048576	22	5134
2026-01-24 02:12:26.02	316.03	25.65	-30.9	-34.0	12.8	5.95e-05	0	44	102	1048576	22	5166
2026-01-24 02:12:27.01	315.73	25.66	-30.8	-34.4	12.9	3.78e-04	0	44	102	1048576	21	5432
2026-01-24 02:12:28.02	315.43	25.66	-30.7	-34.0	13.1	4.57e-05	0	44	102	1048576	21	5278
2026-01-24 02:12:29.01	315.14	25.67	-30.6	-33.9	13.2	2.97e-05	0	44	102	1048576	21	5223
2026-01-24 02:12:30.01	314.84	25.68	-30.7	-33.9	13.2	1.24e-03	0	44	102	1048576	21	5240
2026-01-24 02:12:31.01	314.54	25.68	-30.6	-33.9	13.2	7.47e-05	0	44	102	1048576	21	5222
2026-01-24 02:12:32.02	314.24	25.69	-30.7	-34.0	13.2	1.90e-05	0	44	102	1048576	21	5267
2026-01-24 02:12:33.02	313.94	25.69	-30.6	-33.6	13.4	1.02e-03	0	44	102	1048576	21	5116
2026-01-24 02:12:34.03	313.64	25.69	-30.6	-33.6	13.4	1.06e-03	0	44	102	1048576	21	5116
2026-01-24 02:12:35.03	313.34	25.69	-30.6	-33.9	13.3	1.06e-05	0	44	102	1048576	21	5212
2026-01-24 02:12:36.04	313.04	25.69	-30.4	-33.8	13.6	1.53e-03	0	44	102	1048576	20	5295
2026-01-24 02:12:37.04	312.74	25.69	-30.4	-33.8	13.6	1.47e-03	0	44	102	1048576	20	5300
2026-01-24 02:12:38.04	312.44	25.69	-30.5	-33.4	13.5	3.00e-06	0	44	102	1048576	21	5048
2026-01-24 02:12:39.05	312.14	25.69	-30.3	-33.0	13.8	3.41e-04	0	44	102	1048576	21	4888
2026-01-24 02:12:40.05	311.84	25.69	-30.3	-33.0	13.8	2.44e-05	0	44	102	1048576	21	4907
2026-01-24 02:12:41.05	311.54	25.68	-30.5	-33.4	13.6	4.50e-06	0	44	102	1048576	21	5022
2026-01-24 02:12:42.06	311.24	25.68	-30.5	-33.4	13.5	1.61e-04	0	44	102	1048576	21	5059
2026-01-24 02:12:43.06	310.94	25.67	-30.5	-33.5	13.5	3.91e-04	0	44	102	1048576	21	5073
2026-01-24 02:12:44.07	310.63	25.67	-30.2	-32.8	13.9	6.10e-06	0	44	102	1048576	21	4820
2026-01-24 02:12:45.07	310.34	25.66	-30.1	-32.5	14.1	4.28e-04	0	44	102	1048576	21	4708
2026-01-24 02:12:46.07	310.04	25.65	-30.1	-32.9	14.1	3.77e-04	0	44	102	1048576	20	4976
2026-01-24 02:12:47.08	309.74	25.64	-30.0	-32.5	14.4	7.00e-07	0	44	102	1048576	20	4835
2026-01-24 02:12:48.08	309.44	25.64	-29.8	-32.1	14.6	0.00e+00	0	44	102	1048576	20	4703
2026-01-24 02:12:49.09	309.14	25.62	-29.7	-31.8	14.8	7.00e-07	0	44	102	1048576	20	4610
2026-01-24 02:12:50.10	308.84	25.61	-29.7	-31.9	14.8	0.00e+00	0	44	102	1048576	20	4634
2026-01-24 02:12:51.11	308.54	25.60	-29.9	-32.8	14.6	2.86e-04	0	44	102	1048576	19	5039
2026-01-24 02:12:52.11	308.24	25.59	-29.7	-32.4	14.9	3.64e-04	0	44	102	1048576	19	4884
2026-01-24 02:12:53.12	307.94	25.57	-29.6	-32.1	15.0	0.00e+00	0	44	102	1048576	19	4801
2026-01-24 02:12:54.12	307.64	25.56	-29.6	-32.0	15.1	4.94e-04	0	44	102	1048576	19	4761
2026-01-24 02:12:55.12	307.35	25.54	-29.5	-31.8	15.1	3.01e-04	0	44	102	1048576	19	4698
2026-01-24 02:12:56.12	307.05	25.53	-29.5	-31.8	15.2	0.00e+00	0	44	102	1048576	19	4690
2026-01-24 02:12:57.12	306.75	25.51	-29.5	-31.9	15.0	0.00e+00	0	44	102	1048576	19	4731
2026-01-24 02:12:58.13	306.45	25.49	-29.6	-32.0	15.0	1.81e-04	0	44	102	1048576	19	4777
2026-01-24 02:12:59.13	306.16	25.47	-29.4	-31.5	15.4	0.00e+00	0	44	102	1048576	19	4600
2026-01-24 02:13:00.14	305.86	25.45	-29.3	-31.7	15.5	0.00e+00	0	44	102	1048576	18	4788
2026-01-24 02:13:01.15	305.56	25.43	-29.2	-31.6	15.6	1.05e-03	0	44	102	1048576	18	4730
2026-01-24 02:13:02.15	305.27	25.41	-29.1	-31.5	15.7	0.00e+00	0	44	102	1048576	18	4704
2026-01-24 02:13:03.15	304.98	25.39	-29.1	-31.3	15.8	0.00e+00	0	44	102	1048576	18	4643
2026-01-24 02:13:04.15	304.68	25.37	-29.1	-31.2	15.8	0.00e+00	0	44	102	1048576	18	4625
2026-01-24 02:13:05.15	304.39	25.34	-29.0	-31.2	15.8	0.00e+00	0	44	102	1048576	18	4608
2026-01-24 02:13:06.15	304.10	25.32	-29.0	-31.1	15.8	0.00e+00	0	44	102	1048576	18	4591
2026-01-24 02:13:07.15	303.81	25.29	-28.9	-31.4	16.0	0.00e+00	0	44	102	1048576	17	4794
2026-01-24 02:13:08.15	303.51	25.27	-29.1	-31.5	15.7	0.00e+00	0	44	102	1048576	18	4705
2026-01-24 02:13:09.16	303.22	25.24	-29.3	-31.9	15.4	1.92e-03	0	44	102	1048576	18	4839
2026-01-24 02:13:10.16	302.93	25.21	-29.2	-31.5	15.6	0.00e+00	0	44	102	1048576	18	4723
2026-01-24 02:13:11.16	302.64	25.18	-29.1	-31.3	15.7	0.00e+00	0	44	102	1048576	18	4660
2026-01-24 02:13:12.16	302.35	25.16	-29.0	-31.1	15.8	1.58e-03	0	44	102	1048576	18	4603
2026-01-24 02:13:13.17	302.06	25.13	-29.0	-31.1	15.9	0.00e+00	0	44	102	1048576	18	4602
2026-01-24 02:13:14.18	301.77	25.09	-29.1	-31.3	15.8	0.00e+00	0	44	102	1048576	18	4652
2026-01-24 02:13:15.19	301.48	25.06	-29.0	-31.1	15.9	0.00e+00	0	44	102	1048576	18	4583
2026-01-24 02:13:16.19	301.19	25.03	-29.0	-31.2	15.8	2.01e-04	0	44	102	1048576	18	4637
2026-01-24 02:13:17.20	300.90	25.00	-29.1	-31.4	15.7	7.00e-07	0	44	102	1048576	18	4703
2026-01-24 02:13:18.20	300.61	24.96	-28.9	-31.0	15.9	0.00e+00	0	44	102	1048576	18	4556
2026-01-24 02:13:19.21	300.32	24.93	-29.0	-31.0	15.9	0.00e+00	0	44	102	1048576	18	4574
2026-01-24 02:13:20.20	300.04	24.89	-29.0	-31.0	15.9	0.00e+00	0	44	102	1048576	18	4571
2026-01-24 02:13:21.20	299.76	24.86	-29.1	-31.3	15.7	0.00e+00	0	44	102	1048576	18	4649
2026-01-24 02:13:22.20	299.48	24.82	-29.0	-31.1	15.8	0.00e+00	0	44	102	1048576	18	4604
2026-01-24 02:13:23.20	299.19	24.78	-29.1	-31.3	15.7	0.00e+00	0	44	102	1048576	18	4661
2026-01-24 02:13:24.21	298.91	24.75	-29.2	-31.6	15.5	0.00e+00	0	44	102	1048576	18	4761
2026-01-24 02:13:25.21	298.63	24.71	-29.3	-31.8	15.5	0.00e+00	0	44	102	1048576	18	4813
2026-01-24 02:13:26.22	298.34	24.67	-29.4	-32.1	15.2	1.50e-06	0	44	102	1048576	18	4936
2026-01-24 02:13:27.22	298.06	24.63	-29.4	-32.1	15.2	0.00e+00	0	44	102	1048576	18	4928
2026-01-24 02:13:28.23	297.78	24.59	-29.5	-31.9	15.0	0.00e+00	0	44	102	1048576	19	4744
2026-01-24 02:13:29.23	297.50	24.54	-29.6	-32.2	14.9	0.00e+00	0	44	102	1048576	19	4850
2026-01-24 02:13:30.24	297.22	24.50	-29.8	-32.5	14.6	0.00e+00	0	44	102	1048576	19	4956
2026-01-24 02:13:31.24	296.94	24.46	-29.5	-32.0	15.0	0.00e+00	0	44	102	1048576	19	4766
2026-01-24 02:13:32.25	296.66	24.42	-29.4	-31.7	15.2	0.00e+00	0	44	102	1048576	19	4675
2026-01-24 02:13:33.26	296.39	24.37	-29.4	-31.6	15.2	0.00e+00	0	44	102	1048576	19	4658
2026-01-24 02:13:34.26	296.11	24.33	-29.5	-31.9	15.1	0.00e+00	0	44	102	1048576	19	4744
2026-01-24 02:13:35.27	295.83	24.28	-28.7	-31.3	14.7	0.00e+00	0	44	102	1048576	19	4859
2026-01-24 02:13:36.27	295.56	24.23	-30.2	-33.4	14.7	7.00e-07	0	44	102	1048576	19	5187
2026-01-24 02:13:37.28	295.29	24.19	-30.0	-33.1	14.3	2.20e-06	0	44	102	1048576	19	5153
2026-01-24 02:13:38.28	295.01	24.14	-30.0	-33.1	13.2	7.00e-07	0	44	102	1048576	19	5172
2026-01-24 02:13:39.29	294.74	24.09	-30.2	-33.2	13.8	1.50e-06	0	44	102	1048576	20	5096
2026-01-24 02:13:40.29	294.47	24.04	-30.3	-33.6	13.6	9.10e-06	0	44	102	1048576	20	5263
2026-01-24 02:13:41.30	294.20	23.99	-30.3	-33.4	13.7	6.10e-06	0	44	102	1048576	20	5173
2026-01-24 02:13:42.30	293.93	23.94	-30.3	-33.5	13.6	2.20e-06	0	44	102	1048576	20	5203
2026-01-24 02:13:43.31	293.66	23.89	-30.3	-33.6	13.5	1.14e-05	0	44	102	1048576	20	5263
2026-01-24 02:13:44.31	293.39	23.84	-30.2	-33.2	13.8	6.80e-06	0	44	102	1048576	20	5077
2026-01-24 02:13:45.32	293.13	23.79	-30.1	-33.0	13.9	1.50e-06	0	44	102	1048576	20	5016
2026-01-24 02:13:46.31	292.86	23.74	-30.2	-33.1	13.8	3.00e-06	0	44	102	1048576	20	5075
2026-01-24 02:13:47.32	292.60	23.69	-30.2	-33.2	13.8	1.58e-03	0	44	102	1048576	20	5085
2026-01-24 02:13:48.32	292.33	23.63	-30.3	-33.6	13.6	8.30e-06	0	44	102	1048576	20	5249
2026-01-24 02:13:49.32	292.07	23.58	-30.5	-33.5	13.2	2.21e-05	0	44	102	1048576	21	5120
2026-01-24 02:13:50.33	291.81	23.52	-30.3	-33.5	13.6	4.08e-04	0	44	102	1048576	20	5228
2026-01-24 02:13:51.34	291.55	23.47	-30.3	-33.5	13.6	3.00e-06	0	44	102	1048576	20	5211
2026-01-24 02:13:52.35	291.28	23.41	-30.4	-33.9	13.4	1.67e-05	0	44	102	1048576	20	5352
2026-01-24 02:13:53.35	291.03	23.36	-30.4	-33.7	13.5	1.14e-03	0	44	102	1048576	20	5285
2026-01-24 02:13:54.35	290.77	23.30	-30.3	-33.7	13.5	1.35e-03	0	44	102	1048576	20	5269
2026-01-24 02:13:55.36	290.51	23.24	-30.3	-33.6	13.5	1.29e-05	0	44	102	1048576	20	5262
2026-01-24 02:13:56.37	290.25	23.19	-30.3	-33.6	13.5	8.30e-06	0	44	102	1048576	20	5252
2026-01-24 02:13:57.36	290.00	23.13	-30.3	-33.5	13.5	1.69e-03	0	44	102	1048576	20	5222
2026-01-24 02:13:58.37	289.74	23.07	-30.3	-33.7	13.4	1.67e-05	0	44	102	1048576	20	5273
2026-01-24 02:13:59.36	289.49	23.01	-30.2	-33.4	13.6	7.60e-06	0	44	102	1048576	20	5173
2026-01-24 02:14:00.34	289.25	22.95	-30.3	-33.5	13.6	1.58e-03	0	44	102	1048576	20	5228
2026-01-24 02:14:01.33	289.00	22.90	-30.3	-33.6	13.5	9.10e-06	0	44	102	1048576	20	5234
2026-01-24 02:14:02.33	288.75	22.83	-30.3	-33.4	13.6	9.10e-06	0	44	102	1048576	20	5198
2026-01-24 02:14:03.34	288.50	22.77	-30.3	-33.6	13.5	9.90e-06	0	44	102	1048576	20	5259
2026-01-24 02:14:04.35	288.25	22.71	-30.5	-34.0	13.3	2.21e-05	0	44	102	1048576	20	5406
2026-01-24 02:14:05.35	288.00	22.65	-30.5	-33.7	13.1	1.35e-03	0	44	102	1048576	21	5186
2026-01-24 02:14:06.35	287.75	22.59	-30.6	-34.0	12.9	3.12e-05	0	44	102	1048576	21	5301
2026-01-24 02:14:07.36	287.51	22.53	-30.6	-34.0	12.9	6.86e-05	0	44	102	1048576	21	5311
2026-01-24 02:14:08.37	287.26	22.46	-30.5	-33.5	13.2	1.28e-03	0	44	102	1048576	21	5118
2026-01-24 02:14:09.37	287.02	22.40	-30.5	-33.6	13.2	1.36e-03	0	44	102	1048576	21	5137
2026-01-24 02:14:10.38	286.77	22.34	-30.5	-33.6	13.1	2.97e-05	0	44	102	1048576	21	5160
2026-01-24 02:14:11.38	286.53	22.27	-30.4	-33.3	13.3	1.30e-03	0	44	102	1048576	21	5030
2026-01-24 02:14:12.39	286.29	22.21	-30.3	-33.6	13.5	1.33e-03	0	44	102	1048576	20	5240
2026-01-24 02:14:13.39	286.05	22.14	-30.4	-33.7	13.4	1.67e-05	0	44	102	1048576	20	5302
2026-01-24 02:14:14.39	285.81	22.08	-30.4	-33.9	13.3	9.42e-04	0	44	102	1048576	20	5377
2026-01-24 02:14:15.40	285.57	22.01	-30.4	-33.9	13.3	4.72e-04	0	44	102	1048576	20	5384
2026-01-24 02:14:16.40	285.34	21.95	-30.5	-33.6	13.2	1.67e-05	0	44	102	1048576	21	5140
2026-01-24 02:14:17.41	285.10	21.88	-30.5	-33.7	13.0	2.59e-04	0	44	102	1048576	21	5187
2026-01-24 02:14:18.41	284.86	21.81	-30.2	-33.4	13.6	4.67e-04	0	44	102	1048576	20	5195
2026-01-24 02:14:19.41	284.63	21.75	-30.0	-32.8	14.0	1.50e-06	0	44	102	1048576	20	4956
2026-01-24 02:14:20.41	284.40	21.68	-29.9	-32.4	14.2	1.50e-06	0	44	102	1048576	20	4836
2026-01-24 02:14:21.42	284.17	21.61	-29.9	-33.0	14.2	1.74e-03	0	44	102	1048576	19	5145
2026-01-24 02:14:22.42	283.94	21.54	-29.9	-33.0	14.2	7.00e-07	0	44	102	1048576	19	5154
2026-01-24 02:14:23.43	283.70	21.48	-29.9	-33.0	14.2	2.00e-03	0	44	102	1048576	19	5142
2026-01-24 02:14:24.44	283.47	21.41	-29.9	-33.1	14.2	2.02e-03	0	44	102	1048576	19	5168
2026-01-24 02:14:25.44	283.25	21.34	-30.0	-33.1	14.1	2.20e-06	0	44	102	1048576	19	5195
2026-01-24 02:14:26.45	283.02	21.27	-29.9	-32.5	14.1	2.05e-03	0	44	102	1048576	20	4875
2026-01-24 02:14:27.45	282.79	21.20	-29.8	-32.8	14.4	7.00e-07	0	44	102	1048576	19	5066
2026-01-24 02:14:28.45	282.57	21.13	-29.8	-32.6	14.4	0.00e+00	0	44	102	1048576	19	5008
2026-01-24 02:14:29.46	282.35	21.06	-29.7	-32.4	14.5	2.08e-03	0	44	102	1048576	19	4912
2026-01-24 02:14:30.45	282.13	20.99	-29.7	-32.4	14.6	7.00e-07	0	44	102	1048576	19	4932
2026-01-24 02:14:31.45	281.91	20.92	-29.8	-32.8	14.3	7.00e-07	0	44	102	1048576	19	5058
2026-01-24 02:14:32.46	281.68	20.85	-29.9	-33.0	14.2	2.08e-03	0	44	102	1048576	19	5135
2026-01-24 02:14:33.46	281.46	20.78	-29.8	-32.8	14.3	2.11e-03	0	44	102	1048576	19	5061
2026-01-24 02:14:34.46	281.25	20.71	-29.9	-32.9	14.2	0.00e+00	0	44	102	1048576	19	5108
2026-01-24 02:14:35.47	281.03	20.64	-30.0	-33.1	14.1	2.11e-03	0	44	102	1048576	19	5197
2026-01-24 02:14:36.48	280.81	20.56	-30.0	-32.7	13.9	2.05e-03	0	44	102	1048576	20	4946
2026-01-24 02:14:37.48	280.60	20.49	-30.1	-33.2	13.7	6.10e-06	0	44	102	1048576	20	5112
2026-01-24 02:14:38.49	280.38	20.42	-30.1	-33.0	13.7	6.10e-06	0	44	102	1048576	20	5057
2026-01-24 02:14:39.50	280.16	20.35	-29.9	-32.5	14.0	3.54e-04	0	44	102	1048576	20	4883
2026-01-24 02:14:40.50	279.95	20.27	-29.8	-32.2	14.3	7.00e-07	0	44	102	1048576	20	4763
2026-01-24 02:14:41.50	279.74	20.20	-29.8	-32.7	14.3	0.00e+00	0	44	102	1048576	19	5041
2026-01-24 02:14:42.51	279.53	20.13	-29.9	-33.0	14.1	7.00e-07	0	44	102	1048576	19	5145
2026-01-24 02:14:43.51	279.32	20.06	-29.9	-32.5	14.0	3.00e-06	0	44	102	1048576	20	4879
2026-01-24 02:14:44.51	279.11	19.98	-29.8	-32.3	14.2	7.00e-07	0	44	102	1048576	20	4794
2026-01-24 02:14:45.51	278.91	19.91	-29.9	-33.0	14.1	0.00e+00	0	44	102	1048576	19	5148
2026-01-24 02:14:46.51	278.70	19.84	-29.9	-33.1	14.1	3.80e-06	0	44	102	1048576	19	5191
2026-01-24 02:14:47.52	278.49	19.76	-29.9	-33.1	14.1	7.00e-07	0	44	102	1048576	19	5180
2026-01-24 02:14:48.52	278.29	19.69	-29.9	-32.5	14.0	6.10e-06	0	44	102	1048576	20	4869
2026-01-24 02:14:49.52	278.09	19.61	-29.8	-32.4	14.1	3.80e-06	0	44	102	1048576	20	4853
2026-01-24 02:14:50.52	277.89	19.54	-29.8	-32.3	14.2	4.28e-04	0	44	102	1048576	20	4795
2026-01-24 02:14:51.52	277.69	19.47	-29.8	-32.9	14.2	2.20e-06	0	44	102	1048576	19	5104
2026-01-24 02:14:52.53	277.48	19.39	-29.9	-33.0	14.1	7.00e-07	0	44	102	1048576	19	5146
2026-01-24 02:14:53.53	277.29	19.32	-29.9	-33.0	14.1	2.20e-06	0	44	102	1048576	19	5145
2026-01-24 02:14:54.54	277.09	19.24	-29.9	-33.1	14.0	2.20e-06	0	44	102	1048576	19	5187
2026-01-24 02:14:55.55	276.89	19.17	-29.9	-32.5	14.0	4.50e-06	0	44	102	1048576	20	4863
2026-01-24 02:14:56.55	276.69	19.09	-29.7	-32.1	14.2	3.00e-06	0	44	102	1048576	20	4747
2026-01-24 02:14:57.55	276.50	19.02	-29.8	-32.7	14.3	7.00e-07	0	44	102	1048576	19	5042
2026-01-24 02:14:58.56	276.30	18.94	-29.9	-33.1	14.0	1.50e-06	0	44	102	1048576	19	5185
2026-01-24 02:14:59.56	276.11	18.86	-29.9	-32.9	14.1	3.00e-06	0	44	102	1048576	19	5118
2026-01-24 02:15:00.56	275.91	18.79	-29.6	-32.4	14.5	3.00e-06	0	44	102	1048576	19	4927
2026-01-24 02:15:01.57	275.72	18.71	-29.6	-32.3	14.5	7.00e-07	0	44	102	1048576	19	4920
2026-01-24 02:15:02.57	275.53	18.64	-29.6	-32.3	14.5	0.00e+00	0	44	102	1048576	19	4900
2026-01-24 02:15:03.58	275.34	18.56	-29.7	-32.5	14.4	7.00e-07	0	44	102	1048576	19	4978
2026-01-24 02:15:04.58	275.15	18.49	-29.7	-32.4	14.4	7.00e-07	0	44	102	1048576	19	4956
2026-01-24 02:15:05.59	274.96	18.41	-29.5	-32.0	14.7	0.00e+00	0	44	102	1048576	19	4807
2026-01-24 02:15:06.60	274.78	18.33	-29.6	-32.2	14.5	7.00e-07	0	44	102	1048576	19	4866
2026-01-24 02:15:07.60	274.59	18.26	-29.5	-32.1	14.3	8.95e-04	0	44	102	1048576	19	4844
2026-01-24 02:15:08.61	274.40	18.18	-29.5	-32.0	14.6	7.00e-07	0	44	102	1048576	19	4820
2026-01-24 02:15:09.61	274.22	18.10	-29.5	-32.0	14.6	1.50e-06	0	44	102	1048576	19	4817
2026-01-24 02:15:10.61	274.04	18.03	-29.6	-32.2	14.5	0.00e+00	0	44	102	1048576	19	4878
2026-01-24 02:15:11.61	273.86	17.95	-29.4	-32.3	14.7	0.00e+00	0	44	102	1048576	18	5034
2026-01-24 02:15:12.62	273.67	17.87	-29.3	-32.1	14.9	2.20e-06	0	44	102	1048576	18	4962
2026-01-24 02:15:13.62	273.49	17.80	-29.4	-32.2	14.8	0.00e+00	0	44	102	1048576	18	4989
2026-01-24 02:15:14.63	273.31	17.72	-29.5	-32.1	14.6	1.52e-04	0	44	102	1048576	19	4840
2026-01-24 02:15:15.64	273.13	17.64	-29.9	-33.1	13.9	4.50e-06	0	44	102	1048576	19	5196
2026-01-24 02:15:16.64	272.96	17.57	-29.8	-32.4	14.0	3.00e-06	0	44	102	1048576	20	4831
2026-01-24 02:15:17.64	272.78	17.49	-29.7	-32.5	14.3	0.00e+00	0	44	102	1048576	19	4978
2026-01-24 02:15:18.65	272.60	17.41	-29.8	-32.9	14.1	0.00e+00	0	44	102	1048576	19	5122
2026-01-24 02:15:19.65	272.43	17.34	-29.9	-33.1	13.9	5.30e-06	0	44	102	1048576	19	5190
2026-01-24 02:15:20.65	272.26	17.26	-29.9	-33.2	13.9	7.00e-07	0	44	102	1048576	19	5231
2026-01-24 02:15:21.65	272.08	17.18	-29.8	-32.5	13.9	3.80e-06	0	44	102	1048576	20	4879
2026-01-24 02:15:22.66	271.91	17.10	-29.7	-32.7	14.2	3.00e-06	0	44	102	1048576	19	5044
2026-01-24 02:15:23.66	271.74	17.03	-29.7	-32.5	14.3	1.50e-06	0	44	102	1048576	19	4980
2026-01-24 02:15:24.67	271.57	16.95	-29.7	-32.6	14.2	0.00e+00	0	44	102	1048576	19	5017
2026-01-24 02:15:25.68	271.40	16.87	-29.6	-32.2	14.4	1.52e-03	0	44	102	1048576	19	4897
2026-01-24 02:15:26.69	271.23	16.80	-29.3	-32.0	14.9	0.00e+00	0	44	102	1048576	18	4927
2026-01-24 02:15:27.69	271.06	16.72	-29.3	-32.2	14.8	7.00e-07	0	44	102	1048576	18	4982
2026-01-24 02:15:28.70	270.89	16.64	-29.3	-32.2	14.8	1.70e-03	0	44	102	1048576	18	4999
2026-01-24 02:15:29.71	270.73	16.56	-29.5	-32.6	14.5	1.56e-03	0	44	102	1048576	18	5130
2026-01-24 02:15:30.71	270.56	16.49	-29.8	-33.0	13.9	0.00e+00	0	44	102	1048576	19	5179
2026-01-24 02:15:31.71	270.40	16.41	-29.9	-33.1	13.9	1.05e-03	0	44	102	1048576	19	5207
2026-01-24 02:15:32.72	270.23	16.33	-30.0	-32.9	13.6	1.66e-03	0	44	102	1048576	20	5043
2026-01-24 02:15:33.73	270.07	16.25	-30.2	-33.5	13.2	1.44e-05	0	44	102	1048576	20	5271
2026-01-24 02:15:34.73	269.91	16.18	-30.1	-33.3	13.3	2.19e-03	0	44	102	1048576	20	5193
2026-01-24 02:15:35.73	269.75	16.10	-29.8	-33.0	13.9	2.05e-03	0	44	102	1048576	19	5170
2026-01-24 02:15:36.73	269.59	16.02	-29.6	-32.3	14.3	2.20e-06	0	44	102	1048576	19	4922
2026-01-24 02:15:37.74	269.43	15.95	-29.4	-31.8	14.6	0.00e+00	0	44	102	1048576	19	4762
2026-01-24 02:15:38.75	269.27	15.87	-29.3	-32.1	14.8	2.17e-03	0	44	102	1048576	18	4951
2026-01-24 02:15:39.75	269.11	15.79	-29.3	-32.2	14.7	0.00e+00	0	44	102	1048576	18	4991
2026-01-24 02:15:40.76	268.95	15.71	-29.5	-32.2	14.4	2.34e-03	0	44	102	1048576	19	4880
2026-01-24 02:15:41.76	268.80	15.64	-29.9	-33.0	13.9	2.38e-03	0	44	102	1048576	19	5195
2026-01-24 02:15:42.76	268.64	15.56	-29.7	-32.7	14.1	2.00e-04	0	44	102	1048576	19	5054
2026-01-24 02:15:43.76	268.49	15.48	-29.6	-32.3	14.3	2.41e-03	0	44	102	1048576	19	4912
2026-01-24 02:15:44.76	268.34	15.41	-29.4	-32.4	14.6	2.37e-03	0	44	102	1048576	18	5068
2026-01-24 02:15:45.77	268.18	15.33	-29.5	-32.6	14.5	2.26e-04	0	44	102	1048576	18	5131
2026-01-24 02:15:46.78	268.03	15.25	-29.5	-32.1	14.4	2.33e-03	0	44	102	1048576	19	4842
2026-01-24 02:15:47.78	267.88	15.18	-29.4	-32.5	14.5	2.37e-03	0	44	102	1048576	18	5094
2026-01-24 02:15:48.78	267.73	15.10	-29.5	-32.1	14.4	1.96e-04	0	44	102	1048576	19	4859
2026-01-24 02:15:49.79	267.58	15.02	-29.5	-32.2	14.3	2.42e-03	0	44	102	1048576	19	4905
2026-01-24 02:15:50.79	267.43	14.95	-29.5	-32.2	14.3	2.40e-03	0	44	102	1048576	19	4903
2026-01-24 02:15:51.79	267.28	14.87	-29.6	-32.5	14.2	2.20e-06	0	44	102	1048576	19	4988
2026-01-24 02:15:52.79	267.13	14.79	-29.6	-32.4	14.2	2.40e-03	0	44	102	1048576	19	4967
2026-01-24 02:15:53.79	266.99	14.72	-29.8	-32.9	13.9	2.34e-03	0	44	102	1048576	19	5152
2026-01-24 02:15:54.80	266.84	14.64	-29.8	-32.9	13.9	3.00e-06	0	44	102	1048576	19	5164
2026-01-24 02:15:55.80	266.70	14.56	-30.0	-33.4	13.6	2.32e-03	0	44	102	1048576	19	5331
2026-01-24 02:15:56.81	266.55	14.49	-29.9	-33.3	13.6	2.13e-03	0	44	102	1048576	19	5311
2026-01-24 02:15:57.81	266.41	14.41	-30.0	-33.4	13.6	8.30e-06	0	44	102	1048576	19	5320
2026-01-24 02:15:58.82	266.27	14.34	-30.0	-33.4	13.5	9.90e-06	0	44	102	1048576	19	5354
2026-01-24 02:15:59.82	266.12	14.26	-30.0	-33.0	13.4	9.63e-04	0	44	102	1048576	20	5107
2026-01-24 02:16:00.82	265.98	14.18	-30.1	-33.3	13.2	1.90e-05	0	44	102	1048576	20	5221
2026-01-24 02:16:01.82	265.84	14.11	-30.0	-32.9	13.4	1.60e-05	0	44	102	1048576	20	5069
2026-01-24 02:16:02.83	265.70	14.03	-29.8	-32.4	13.7	1.06e-05	0	44	102	1048576	20	4888
2026-01-24 02:16:03.83	265.56	13.96	-29.7	-32.1	13.9	6.10e-06	0	44	102	1048576	20	4773
2026-01-24 02:16:04.84	265.42	13.88	-29.6	-32.0	14.0	3.12e-05	0	44	102	1048576	20	4733
2026-01-24 02:16:05.85	265.29	13.80	-29.6	-32.0	14.0	6.80e-06	0	44	102	1048576	20	4754
2026-01-24 02:16:06.85	265.15	13.73	-29.8	-32.4	13.8	1.50e-06	0	44	102	1048576	20	4871
2026-01-24 02:16:07.86	265.01	13.65	-29.7	-32.3	13.8	8.30e-06	0	44	102	1048576	20	4836
2026-01-24 02:16:08.87	264.88	13.58	-29.7	-32.3	13.8	2.20e-06	0	44	102	1048576	20	4854
2026-01-24 02:16:09.87	264.74	13.50	-29.8	-32.5	13.7	4.50e-06	0	44	102	1048576	20	4924
2026-01-24 02:16:10.87	264.61	13.43	-29.9	-33.3	13.6	1.21e-03	0	44	102	1048576	19	5300
2026-01-24 02:16:11.87	264.47	13.35	-30.0	-33.4	13.5	9.10e-06	0	44	102	1048576	19	5349
2026-01-24 02:16:12.87	264.34	13.28	-30.0	-33.4	13.5	1.14e-05	0	44	102	1048576	19	5341
2026-01-24 02:16:13.87	264.21	13.20	-30.0	-33.5	13.4	9.10e-06	0	44	102	1048576	19	5381
2026-01-24 02:16:14.88	264.08	13.12	-30.0	-33.4	13.4	1.78e-04	0	44	102	1048576	19	5369
2026-01-24 02:16:15.89	263.95	13.05	-30.0	-33.1	13.3	1.67e-05	0	44	102	1048576	20	5135
2026-01-24 02:16:16.89	263.82	12.97	-30.2	-33.5	13.0	2.97e-05	0	44	102	1048576	20	5310
2026-01-24 02:16:17.90	263.69	12.90	-30.0	-33.2	13.2	3.20e-05	0	44	102	1048576	20	5180
2026-01-24 02:16:18.90	263.56	12.82	-30.1	-33.4	13.0	2.97e-05	0	44	102	1048576	20	5271
2026-01-24 02:16:19.91	263.43	12.75	-30.1	-33.4	13.0	2.97e-05	0	44	102	1048576	20	5270
2026-01-24 02:16:20.91	263.30	12.68	-30.3	-33.8	12.7	4.65e-05	0	44	102	1048576	20	5431
2026-01-24 02:16:21.92	263.17	12.60	-30.2	-33.7	12.8	5.56e-05	0	44	102	1048576	20	5366
2026-01-24 02:16:22.93	263.05	12.53	-30.3	-34.1	12.6	8.23e-05	0	44	102	1048576	20	5527
2026-01-24 02:16:23.93	262.92	12.45	-30.3	-33.9	12.7	1.01e-04	0	44	102	1048576	20	5446
2026-01-24 02:16:24.94	262.80	12.38	-30.4	-34.1	12.5	7.78e-05	0	44	102	1048576	20	5552
2026-01-24 02:16:25.94	262.67	12.30	-30.5	-34.5	12.3	1.55e-04	0	44	102	1048576	20	5720
2026-01-24 02:16:26.94	262.55	12.23	-30.3	-33.9	12.6	1.65e-04	0	44	102	1048576	20	5479
2026-01-24 02:16:27.95	262.43	12.15	-29.5	-32.9	12.5	7.93e-05	0	44	102	1048576	20	5293
2026-01-24 02:16:28.95	262.30	12.08	-30.1	-34.0	12.6	4.80e-05	0	44	102	1048576	19	5588
2026-01-24 02:16:29.95	262.18	12.01	-30.0	-33.2	13.0	2.36e-05	0	44	102	1048576	20	5164
2026-01-24 02:16:30.95	262.06	11.93	-30.0	-33.2	12.0	2.67e-05	0	44	102	1048576	20	5181
2026-01-24 02:16:31.96	261.94	11.86	-30.1	-33.3	12.6	3.20e-05	0	44	102	1048576	20	5232
2026-01-24 02:16:32.97	261.82	11.79	-30.2	-33.8	12.7	5.34e-05	0	44	102	1048576	20	5424
2026-01-24 02:16:33.96	261.70	11.71	-30.2	-33.7	12.7	9.30e-05	0	44	102	1048576	20	5385
2026-01-24 02:16:34.97	261.58	11.64	-30.3	-34.1	12.4	8.54e-05	0	44	102	1048576	20	5566
2026-01-24 02:16:35.98	261.47	11.57	-30.3	-33.9	12.5	1.05e-04	0	44	102	1048576	20	5492
2026-01-24 02:16:36.99	261.35	11.49	-30.5	-34.5	12.2	1.65e-04	0	44	102	1048576	20	5716
2026-01-24 02:16:37.99	261.23	11.42	-30.3	-34.0	12.4	1.83e-04	0	44	102	1048576	20	5529
2026-01-24 02:16:39.00	261.11	11.35	-30.4	-34.3	12.3	3.60e-04	0	44	102	1048576	20	5643
2026-01-24 02:16:40.00	261.00	11.27	-30.4	-34.2	12.4	1.53e-04	0	44	102	1048576	20	5605
2026-01-24 02:16:41.00	260.88	11.20	-30.3	-34.1	12.5	1.61e-04	0	44	102	1048576	20	5540
2026-01-24 02:16:42.01	260.77	11.13	-30.3	-34.1	12.4	3.56e-04	0	44	102	1048576	20	5579
2026-01-24 02:16:43.01	260.66	11.06	-30.4	-34.4	12.2	2.14e-04	0	44	102	1048576	20	5694
2026-01-24 02:16:44.02	260.54	10.98	-30.3	-34.0	12.5	1.75e-04	0	44	102	1048576	20	5512
2026-01-24 02:16:45.02	260.43	10.91	-30.2	-33.8	12.6	1.06e-04	0	44	102	1048576	20	5417
2026-01-24 02:16:46.02	260.32	10.84	-30.2	-33.7	12.7	2.45e-03	0	44	102	1048576	20	5374
2026-01-24 02:16:47.02	260.21	10.77	-30.2	-33.7	12.7	1.01e-04	0	44	102	1048576	20	5393
2026-01-24 02:16:48.03	260.09	10.70	-30.3	-34.0	12.4	1.04e-04	0	44	102	1048576	20	5519
2026-01-24 02:16:49.03	259.98	10.62	-30.4	-34.5	12.1	2.50e-03	0	44	102	1048576	20	5729
2026-01-24 02:16:50.03	259.87	10.55	-30.3	-34.2	12.3	2.30e-03	0	44	102	1048576	20	5597
2026-01-24 02:16:51.03	259.77	10.48	-30.3	-34.0	12.4	1.56e-04	0	44	102	1048576	20	5533
2026-01-24 02:16:52.03	259.66	10.41	-30.4	-34.2	12.3	1.18e-03	0	44	102	1048576	20	5613
2026-01-24 02:16:53.04	259.55	10.34	-30.5	-34.6	12.0	6.49e-04	0	44	102	1048576	20	5772
2026-01-24 02:16:54.04	259.44	10.27	-30.6	-34.4	11.8	4.06e-04	0	44	102	1048576	21	5585
2026-01-24 02:16:55.05	259.33	10.20	-30.8	-35.1	11.2	6.96e-04	0	44	102	1048576	21	5918
2026-01-24 02:16:56.05	259.23	10.12	-30.7	-34.9	11.4	1.59e-03	0	44	102	1048576	21	5818
2026-01-24 02:16:57.05	259.12	10.05	-30.9	-35.3	11.1	1.21e-03	0	44	102	1048576	21	6018
2026-01-24 02:16:58.05	259.01	9.98	-30.7	-34.9	11.4	1.39e-03	0	44	102	1048576	21	5835
2026-01-24 02:16:59.06	258.91	9.91	-30.9	-35.3	11.1	3.25e-03	0	44	102	1048576	21	6028
2026-01-24 02:17:00.06	258.80	9.84	-30.9	-35.3	11.1	1.76e-03	0	44	102	1048576	21	6022
2026-01-24 02:17:01.07	258.70	9.77	-30.9	-35.4	11.0	3.69e-03	0	44	102	1048576	21	6043
2026-01-24 02:17:02.07	258.60	9.70	-30.9	-35.6	10.8	4.42e-03	0	44	102	1048576	21	6183
2026-01-24 02:17:03.07	258.49	9.63	-31.1	-35.6	10.5	3.33e-03	0	44	102	1048576	22	6060
2026-01-24 02:17:04.08	258.39	9.56	-31.2	-36.1	10.0	7.81e-03	0	44	102	1048576	22	6340
2026-01-24 02:17:05.08	258.29	9.49	-31.1	-35.8	10.3	6.66e-03	0	44	102	1048576	22	6169
2026-01-24 02:17:06.08	258.19	9.42	-31.3	-36.5	9.7	8.76e-03	0	44	102	1048576	22	6538
2026-01-24 02:17:07.09	258.09	9.35	-31.2	-36.1	10.1	9.10e-03	0	44	102	1048576	22	6314
2026-01-24 02:17:08.10	257.98	9.28	-31.1	-35.8	10.3	8.00e-03	0	44	102	1048576	22	6139
2026-01-24 02:17:09.11	257.88	9.21	-31.0	-35.4	10.6	3.76e-03	0	44	102	1048576	22	5954
2026-01-24 02:17:10.11	257.78	9.14	-31.0	-35.8	10.6	5.06e-03	0	44	102	1048576	21	6257
2026-01-24 02:17:11.12	257.68	9.07	-31.2	-35.9	10.1	5.86e-03	0	44	102	1048576	22	6211
2026-01-24 02:17:12.13	257.59	9.00	-31.3	-36.4	9.8	9.48e-03	0	44	102	1048576	22	6467
2026-01-24 02:17:13.13	257.49	8.93	-31.1	-35.9	10.2	8.76e-03	0	44	102	1048576	22	6202
2026-01-24 02:17:14.13	257.39	8.86	-31.1	-35.6	10.4	7.03e-03	0	44	102	1048576	22	6078
2026-01-24 02:17:15.14	257.29	8.79	-31.0	-35.2	10.7	4.07e-03	0	44	102	1048576	22	5896
2026-01-24 02:17:16.14	257.20	8.72	-30.9	-35.7	10.6	5.17e-03	0	44	102	1048576	21	6225
2026-01-24 02:17:17.14	257.10	8.66	-30.9	-35.6	10.7	4.91e-03	0	44	102	1048576	21	6153
2026-01-24 02:17:18.15	257.00	8.59	-30.9	-35.6	10.6	3.25e-03	0	44	102	1048576	21	6205
2026-01-24 02:17:19.16	256.91	8.52	-30.8	-35.3	10.9	2.36e-03	0	44	102	1048576	21	6038
2026-01-24 02:17:20.17	256.81	8.45	-30.9	-35.6	10.7	5.17e-03	0	44	102	1048576	21	6195
2026-01-24 02:17:21.17	256.72	8.38	-30.7	-35.1	11.0	2.20e-03	0	44	102	1048576	21	5939
2026-01-24 02:17:22.18	256.62	8.31	-30.7	-34.8	11.2	1.31e-03	0	44	102	1048576	21	5817
2026-01-24 02:17:23.18	256.53	8.24	-30.6	-34.7	11.3	1.26e-03	0	44	102	1048576	21	5771
2026-01-24 02:17:24.18	256.44	8.18	-30.7	-34.8	11.2	1.34e-03	0	44	102	1048576	21	5820
2026-01-24 02:17:25.19	256.34	8.11	-30.7	-34.9	11.2	3.67e-03	0	44	102	1048576	21	5844
2026-01-24 02:17:26.19	256.25	8.04	-30.8	-35.2	10.9	1.93e-03	0	44	102	1048576	21	5976
2026-01-24 02:17:27.20	256.16	7.97	-30.7	-35.0	11.0	1.76e-03	0	44	102	1048576	21	5910
2026-01-24 02:17:28.21	256.07	7.90	-30.8	-35.3	10.8	4.42e-03	0	44	102	1048576	21	6042
2026-01-24 02:17:29.21	255.98	7.84	-30.8	-35.3	10.8	2.44e-03	0	44	102	1048576	21	6047
2026-01-24 02:17:30.22	255.89	7.77	-30.8	-35.5	10.6	3.05e-03	0	44	102	1048576	21	6165
2026-01-24 02:17:31.22	255.80	7.70	-30.8	-35.4	10.7	5.47e-03	0	44	102	1048576	21	6129
2026-01-24 02:17:32.22	255.71	7.64	-30.9	-35.7	10.5	3.75e-03	0	44	102	1048576	21	6275
2026-01-24 02:17:33.23	255.62	7.57	-30.9	-35.7	10.5	4.48e-03	0	44	102	1048576	21	6255
2026-01-24 02:17:34.23	255.53	7.50	-30.9	-35.6	10.6	3.82e-03	0	44	102	1048576	21	6204
2026-01-24 02:17:35.24	255.44	7.43	-30.9	-35.6	10.5	5.61e-03	0	44	102	1048576	21	6206
2026-01-24 02:17:36.24	255.35	7.37	-30.9	-35.6	10.5	4.25e-03	0	44	102	1048576	21	6218
2026-01-24 02:17:37.24	255.27	7.30	-30.8	-35.6	10.5	3.49e-03	0	44	102	1048576	21	6196
2026-01-24 02:17:38.25	255.18	7.23	-30.8	-35.5	10.6	3.66e-03	0	44	102	1048576	21	6148
2026-01-24 02:17:39.25	255.09	7.17	-30.8	-35.5	10.6	3.30e-03	0	44	102	1048576	21	6172
2026-01-24 02:17:40.26	255.01	7.10	-31.7	-37.7	8.6	3.64e-03	0	44	102	1048576	23	7185
2026-01-24 02:17:41.27	254.92	7.03	-33.3	-47.7	3.8	1.49e+00	0	44	104	1048576	26	18831
2026-01-24 02:17:42.27	254.83	6.97	-33.6	-47.9	3.8	1.49e+00	0	44	104	1048576	27	18514

#Closed at: 2026-01-24 02:17:42
#Recorded file [1 MB]: D:/data/31010_260124_050733.dat