passes_logs/2026/01/24/R2M6_AANII_01/R2M6_AANII_01__20260124_011701_NOAA_21_JPSS-2_rec.log

#Pass ID: 20260124_011701_NOAA 21 (JPSS-2)
#Satellite: NOAA 21 (JPSS-2)
#Configuration: NOAA 21
#almurnet v.1.7.20240730
#Start time: 2026-01-24 01:17:01

#Version: 2.2.20231116
#Station: R2M6_AANII_01
#Location: 30.233357 lon 59.946436 lat
#TLE: 1 54234U 22150A   26022.90705406  .00000208  00000+0  11937-3 0  9994
#TLE: 2 54234  98.7507 323.7115 0000669 231.3756 128.7360 14.19537879165931

#Time	Az	El	Level	Level2	SNR	BER	BlckErr	Temp	State	Recorded	gain1	gain2
2026-01-24 01:17:01.00	13.86	6.97	-31.5	-37.1	4.4	1.42e+00	0	43	0	0	23	6828
2026-01-24 01:17:02.01	13.81	7.05	-31.7	-37.8	4.4	1.43e+00	0	43	104	0	23	7217
2026-01-24 01:17:03.00	13.77	7.12	-31.7	-36.8	7.1	1.64e-01	0	43	0	0	23	6526
2026-01-24 01:17:04.00	13.72	7.19	-31.5	-36.0	7.7	9.35e-02	0	43	102	1048576	23	6059
2026-01-24 01:17:05.00	13.67	7.27	-31.6	-36.6	7.3	1.11e-01	0	43	102	1048576	23	6362
2026-01-24 01:17:06.01	13.63	7.34	-31.5	-36.0	7.7	8.87e-02	0	43	102	1048576	23	6081
2026-01-24 01:17:07.02	13.58	7.42	-31.3	-36.0	8.1	6.91e-02	0	43	102	1048576	22	6163
2026-01-24 01:17:08.02	13.53	7.49	-31.4	-36.3	7.9	7.70e-02	0	43	102	1048576	22	6334
2026-01-24 01:17:09.02	13.49	7.57	-31.7	-36.7	7.3	1.09e-01	0	43	102	1048576	23	6441
2026-01-24 01:17:10.03	13.44	7.64	-31.4	-35.7	8.0	8.11e-02	0	43	102	1048576	23	5884
2026-01-24 01:17:11.04	13.39	7.72	-31.0	-35.0	8.9	3.42e-02	0	43	102	1048576	22	5660
2026-01-24 01:17:12.05	13.34	7.80	-30.7	-34.3	9.7	1.94e-02	0	43	102	1048576	21	5492
2026-01-24 01:17:13.06	13.29	7.87	-30.4	-33.4	10.4	6.14e-03	0	43	102	1048576	21	5098
2026-01-24 01:17:14.07	13.24	7.95	-30.0	-32.8	11.2	2.19e-03	0	43	102	1048576	20	4994
2026-01-24 01:17:15.07	13.20	8.03	-29.8	-32.7	11.6	8.51e-04	0	43	102	1048576	19	5046
2026-01-24 01:17:16.07	13.15	8.10	-29.5	-31.9	12.2	2.67e-04	0	43	102	1048576	19	4775
2026-01-24 01:17:17.07	13.10	8.18	-29.3	-31.9	12.5	1.02e-04	0	43	102	1048576	18	4860
2026-01-24 01:17:18.07	13.05	8.26	-29.4	-32.3	12.3	1.99e-04	0	43	102	1048576	18	5010
2026-01-24 01:17:19.08	13.00	8.33	-29.2	-31.6	12.7	1.08e-04	0	43	102	1048576	18	4783
2026-01-24 01:17:20.08	12.95	8.41	-29.1	-31.5	12.8	6.94e-05	0	43	102	1048576	18	4728
2026-01-24 01:17:21.09	12.90	8.49	-29.1	-31.5	12.8	4.95e-05	0	43	102	1048576	18	4722
2026-01-24 01:17:22.09	12.84	8.57	-29.1	-31.5	12.8	4.04e-05	0	43	102	1048576	18	4733
2026-01-24 01:17:23.09	12.79	8.65	-29.2	-31.8	12.7	9.00e-05	0	43	102	1048576	18	4821
2026-01-24 01:17:24.10	12.74	8.72	-29.1	-31.5	12.8	5.03e-05	0	43	102	1048576	18	4739
2026-01-24 01:17:25.10	12.69	8.80	-29.0	-31.1	13.1	2.51e-05	0	43	102	1048576	18	4606
2026-01-24 01:17:26.10	12.64	8.88	-28.9	-31.6	13.1	2.05e-05	0	43	102	1048576	17	4867
2026-01-24 01:17:27.10	12.59	8.96	-28.9	-31.4	13.2	1.37e-05	0	43	102	1048576	17	4817
2026-01-24 01:17:28.11	12.53	9.04	-29.1	-31.4	12.9	4.11e-05	0	43	102	1048576	18	4710
2026-01-24 01:17:29.11	12.48	9.12	-29.4	-32.1	12.5	9.46e-05	0	43	102	1048576	18	4914
2026-01-24 01:17:30.12	12.43	9.20	-29.0	-31.2	13.0	5.03e-05	0	43	102	1048576	18	4641
2026-01-24 01:17:31.12	12.37	9.28	-28.9	-30.9	13.2	2.36e-05	0	43	102	1048576	18	4551
2026-01-24 01:17:32.12	12.32	9.36	-28.6	-30.8	13.6	1.14e-05	0	43	102	1048576	17	4610
2026-01-24 01:17:33.12	12.26	9.44	-28.6	-30.6	13.7	9.90e-06	0	43	102	1048576	17	4570
2026-01-24 01:17:34.13	12.21	9.52	-28.5	-30.5	13.8	4.50e-06	0	43	102	1048576	17	4532
2026-01-24 01:17:35.13	12.16	9.60	-28.6	-30.6	13.8	5.30e-06	0	43	102	1048576	17	4544
2026-01-24 01:17:36.14	12.10	9.68	-28.6	-30.7	13.7	5.30e-06	0	43	102	1048576	17	4576
2026-01-24 01:17:37.14	12.04	9.76	-28.5	-30.5	13.8	3.00e-06	0	43	102	1048576	17	4513
2026-01-24 01:17:38.15	11.99	9.85	-28.5	-30.4	13.9	2.20e-06	0	43	102	1048576	17	4496
2026-01-24 01:17:39.15	11.93	9.93	-28.5	-30.9	13.9	4.50e-06	0	43	102	1048576	16	4754
2026-01-24 01:17:40.16	11.87	10.01	-28.5	-30.8	14.0	3.00e-06	0	43	102	1048576	16	4723
2026-01-24 01:17:41.16	11.82	10.09	-28.4	-30.7	14.0	7.00e-07	0	43	102	1048576	16	4698
2026-01-24 01:17:42.16	11.76	10.18	-28.5	-30.9	13.9	4.50e-06	0	43	102	1048576	16	4761
2026-01-24 01:17:43.17	11.70	10.26	-28.7	-30.9	13.6	2.20e-06	0	43	102	1048576	17	4630
2026-01-24 01:17:44.17	11.64	10.34	-28.9	-31.4	13.3	2.13e-05	0	43	102	1048576	17	4820
2026-01-24 01:17:45.17	11.59	10.43	-28.6	-30.6	13.7	6.10e-06	0	43	102	1048576	17	4557
2026-01-24 01:17:46.18	11.53	10.51	-28.4	-30.8	14.0	1.52e-03	0	43	102	1048576	16	4715
2026-01-24 01:17:47.18	11.47	10.59	-28.3	-30.5	14.1	2.20e-06	0	43	102	1048576	16	4645
2026-01-24 01:17:48.19	11.41	10.68	-28.3	-30.6	14.1	3.00e-06	0	43	102	1048576	16	4649
2026-01-24 01:17:49.20	11.35	10.76	-28.5	-30.4	13.9	3.80e-06	0	43	102	1048576	17	4494
2026-01-24 01:17:50.20	11.29	10.85	-28.3	-30.3	14.3	3.00e-06	0	43	102	1048576	16	4575
2026-01-24 01:17:51.21	11.23	10.93	-28.2	-30.1	14.4	1.78e-03	0	43	102	1048576	16	4505
2026-01-24 01:17:52.21	11.17	11.02	-28.2	-30.3	14.3	1.92e-03	0	43	102	1048576	16	4557
2026-01-24 01:17:53.21	11.11	11.10	-28.2	-30.2	14.3	7.00e-07	0	43	102	1048576	16	4545
2026-01-24 01:17:54.21	11.04	11.19	-28.2	-30.3	14.3	2.20e-06	0	43	102	1048576	16	4569
2026-01-24 01:17:55.22	10.98	11.28	-28.3	-30.4	14.3	1.87e-03	0	43	102	1048576	16	4580
2026-01-24 01:17:56.23	10.92	11.36	-28.1	-30.0	14.5	0.00e+00	0	43	102	1048576	16	4475
2026-01-24 01:17:57.23	10.86	11.45	-28.0	-30.3	14.5	1.85e-03	0	43	102	1048576	15	4687
2026-01-24 01:17:58.23	10.79	11.53	-27.9	-30.1	14.5	1.86e-03	0	43	102	1048576	15	4636
2026-01-24 01:17:59.23	10.73	11.62	-28.2	-30.2	14.4	0.00e+00	0	43	102	1048576	16	4527
2026-01-24 01:18:00.24	10.67	11.71	-28.3	-30.5	14.2	1.91e-03	0	43	102	1048576	16	4634
2026-01-24 01:18:01.24	10.60	11.80	-28.2	-30.2	14.4	1.99e-03	0	43	102	1048576	16	4546
2026-01-24 01:18:02.24	10.54	11.88	-28.3	-30.5	14.2	7.00e-07	0	43	102	1048576	16	4640
2026-01-24 01:18:03.25	10.47	11.97	-27.5	-29.3	14.5	2.08e-03	0	43	102	1048576	16	4469
2026-01-24 01:18:04.25	10.40	12.06	-27.8	-29.9	12.7	1.93e-03	0	44	102	1048576	15	4564
2026-01-24 01:18:05.25	10.34	12.15	-27.8	-29.9	12.6	0.00e+00	0	44	102	1048576	15	4550
2026-01-24 01:18:06.25	10.27	12.24	-27.8	-29.8	14.8	1.94e-03	0	43	102	1048576	15	4540
2026-01-24 01:18:07.26	10.21	12.33	-28.0	-30.2	14.5	2.16e-03	0	43	102	1048576	15	4653
2026-01-24 01:18:08.26	10.14	12.42	-28.2	-30.3	14.4	1.50e-06	0	43	102	1048576	16	4552
2026-01-24 01:18:09.26	10.07	12.51	-28.1	-30.0	14.6	0.00e+00	0	43	102	1048576	16	4469
2026-01-24 01:18:10.27	10.00	12.60	-27.8	-29.9	14.8	4.16e-03	0	44	102	1048576	15	4555
2026-01-24 01:18:11.27	9.93	12.69	-27.8	-29.8	14.8	4.03e-03	0	43	102	1048576	15	4545
2026-01-24 01:18:12.27	9.86	12.78	-27.8	-29.9	14.8	1.96e-03	0	43	102	1048576	15	4570
2026-01-24 01:18:13.27	9.79	12.87	-27.9	-30.1	14.6	1.72e-03	0	43	102	1048576	15	4622
2026-01-24 01:18:14.28	9.72	12.96	-27.8	-29.9	14.8	3.69e-03	0	44	102	1048576	15	4558
2026-01-24 01:18:15.28	9.65	13.05	-27.8	-29.8	14.8	2.38e-04	0	43	102	1048576	15	4544
2026-01-24 01:18:16.29	9.58	13.15	-27.8	-29.9	14.8	3.69e-03	0	44	102	1048576	15	4564
2026-01-24 01:18:17.29	9.51	13.24	-27.9	-29.9	14.8	1.50e-06	0	43	102	1048576	15	4576
2026-01-24 01:18:18.30	9.44	13.33	-27.9	-30.0	14.7	1.91e-04	0	43	102	1048576	15	4588
2026-01-24 01:18:19.30	9.37	13.42	-27.8	-29.9	14.8	4.09e-03	0	43	102	1048576	15	4562
2026-01-24 01:18:20.31	9.29	13.52	-27.9	-29.9	14.8	4.00e-03	0	44	102	1048576	15	4568
2026-01-24 01:18:21.31	9.22	13.61	-27.8	-29.9	14.8	2.97e-04	0	43	102	1048576	15	4564
2026-01-24 01:18:22.31	9.15	13.70	-28.1	-29.9	14.7	4.02e-03	0	44	102	1048576	16	4444
2026-01-24 01:18:23.31	9.07	13.80	-27.8	-29.8	14.9	0.00e+00	0	44	102	1048576	15	4521
2026-01-24 01:18:24.32	9.00	13.89	-27.8	-29.8	14.9	2.94e-04	0	44	102	1048576	15	4526
2026-01-24 01:18:25.33	8.92	13.99	-27.8	-29.9	14.9	3.70e-03	0	43	102	1048576	15	4558
2026-01-24 01:18:26.33	8.85	14.08	-27.9	-30.1	14.7	4.11e-03	0	43	102	1048576	15	4617
2026-01-24 01:18:27.33	8.77	14.18	-27.8	-29.8	14.9	2.75e-04	0	43	102	1048576	15	4540
2026-01-24 01:18:28.34	8.69	14.27	-27.8	-29.9	14.9	4.21e-03	0	44	102	1048576	15	4559
2026-01-24 01:18:29.34	8.61	14.37	-27.9	-29.9	14.8	4.11e-03	0	43	102	1048576	15	4568
2026-01-24 01:18:30.35	8.54	14.47	-27.8	-29.7	15.0	2.60e-04	0	44	102	1048576	15	4482
2026-01-24 01:18:31.35	8.46	14.56	-27.8	-29.7	15.0	4.08e-03	0	44	102	1048576	15	4487
2026-01-24 01:18:32.35	8.38	14.66	-27.8	-29.7	15.0	3.81e-03	0	44	102	1048576	15	4502
2026-01-24 01:18:33.36	8.30	14.76	-27.7	-29.6	15.0	0.00e+00	0	43	102	1048576	15	4479
2026-01-24 01:18:34.36	8.22	14.86	-27.9	-29.9	14.8	0.00e+00	0	44	102	1048576	15	4565
2026-01-24 01:18:35.37	8.14	14.95	-27.7	-29.5	15.1	4.15e-03	0	44	102	1048576	15	4446
2026-01-24 01:18:36.38	8.06	15.05	-27.7	-29.5	15.1	3.13e-04	0	43	102	1048576	15	4451
2026-01-24 01:18:37.39	7.97	15.15	-27.7	-29.6	15.1	4.12e-03	0	43	102	1048576	15	4462
2026-01-24 01:18:38.39	7.89	15.25	-27.7	-29.6	15.1	0.00e+00	0	44	102	1048576	15	4467
2026-01-24 01:18:39.40	7.81	15.35	-27.9	-29.9	14.9	0.00e+00	0	44	102	1048576	15	4562
2026-01-24 01:18:40.40	7.73	15.45	-27.9	-30.0	14.8	0.00e+00	0	44	102	1048576	15	4596
2026-01-24 01:18:41.41	7.64	15.55	-27.9	-30.0	14.9	0.00e+00	0	44	102	1048576	15	4575
2026-01-24 01:18:42.41	7.56	15.65	-28.2	-30.0	14.7	1.98e-04	0	44	102	1048576	16	4472
2026-01-24 01:18:43.41	7.47	15.75	-28.2	-30.1	14.7	7.00e-07	0	44	102	1048576	16	4499
2026-01-24 01:18:44.41	7.39	15.85	-28.2	-30.1	14.7	7.00e-07	0	44	102	1048576	16	4481
2026-01-24 01:18:45.41	7.30	15.95	-28.2	-30.2	14.7	0.00e+00	0	44	102	1048576	16	4505
2026-01-24 01:18:46.42	7.21	16.06	-28.3	-30.3	14.6	0.00e+00	0	44	102	1048576	16	4541
2026-01-24 01:18:47.42	7.12	16.16	-28.3	-30.4	14.5	3.83e-03	0	44	102	1048576	16	4592
2026-01-24 01:18:48.43	7.04	16.26	-28.2	-30.1	14.7	0.00e+00	0	44	102	1048576	16	4496
2026-01-24 01:18:49.43	6.95	16.36	-28.1	-30.0	14.8	0.00e+00	0	44	102	1048576	16	4455
2026-01-24 01:18:50.43	6.86	16.47	-28.1	-30.0	14.8	7.00e-07	0	44	102	1048576	16	4466
2026-01-24 01:18:51.43	6.77	16.57	-28.2	-30.0	14.8	0.00e+00	0	44	102	1048576	16	4472
2026-01-24 01:18:52.44	6.68	16.67	-28.1	-30.0	14.8	7.00e-07	0	44	102	1048576	16	4456
2026-01-24 01:18:53.44	6.58	16.78	-28.1	-30.0	14.8	0.00e+00	0	44	102	1048576	16	4452
2026-01-24 01:18:54.45	6.49	16.88	-28.1	-29.9	14.9	0.00e+00	0	44	102	1048576	16	4419
2026-01-24 01:18:55.45	6.40	16.99	-27.9	-30.0	14.9	0.00e+00	0	44	102	1048576	15	4567
2026-01-24 01:18:56.46	6.30	17.10	-27.9	-30.0	14.9	0.00e+00	0	44	102	1048576	15	4581
2026-01-24 01:18:57.46	6.21	17.20	-27.9	-29.9	15.0	0.00e+00	0	44	102	1048576	15	4555
2026-01-24 01:18:58.46	6.12	17.31	-27.8	-29.7	15.1	0.00e+00	0	44	102	1048576	15	4477
2026-01-24 01:18:59.47	6.02	17.41	-27.8	-29.8	15.1	0.00e+00	0	44	102	1048576	15	4508
2026-01-24 01:19:00.47	5.92	17.52	-27.8	-29.8	15.1	0.00e+00	0	44	102	1048576	15	4511
2026-01-24 01:19:01.47	5.83	17.63	-27.8	-29.7	15.1	0.00e+00	0	44	102	1048576	15	4487
2026-01-24 01:19:02.47	5.73	17.73	-27.8	-29.7	15.1	0.00e+00	0	44	102	1048576	15	4477
2026-01-24 01:19:03.48	5.63	17.84	-27.7	-29.6	15.1	0.00e+00	0	44	102	1048576	15	4492
2026-01-24 01:19:04.48	5.53	17.95	-27.9	-29.9	15.0	0.00e+00	0	44	102	1048576	15	4549
2026-01-24 01:19:05.48	5.43	18.06	-27.9	-29.9	14.3	7.00e-07	0	44	102	1048576	15	4554
2026-01-24 01:19:06.48	5.33	18.17	-27.9	-30.1	14.6	0.00e+00	0	44	102	1048576	15	4596
2026-01-24 01:19:07.48	5.23	18.28	-28.2	-30.0	14.8	0.00e+00	0	44	102	1048576	16	4464
2026-01-24 01:19:08.49	5.13	18.39	-28.2	-30.1	14.8	0.00e+00	0	43	102	1048576	16	4481
2026-01-24 01:19:09.50	5.02	18.50	-28.2	-30.2	14.7	1.79e-03	0	44	102	1048576	16	4511
2026-01-24 01:19:10.51	4.92	18.61	-28.3	-30.4	14.7	0.00e+00	0	44	102	1048576	16	4565
2026-01-24 01:19:11.51	4.81	18.72	-28.3	-30.4	14.6	0.00e+00	0	44	102	1048576	16	4584
2026-01-24 01:19:12.52	4.71	18.84	-28.3	-30.4	14.6	0.00e+00	0	44	102	1048576	16	4572
2026-01-24 01:19:13.52	4.60	18.95	-28.4	-30.6	14.6	0.00e+00	0	44	102	1048576	16	4632
2026-01-24 01:19:14.52	4.50	19.06	-28.4	-30.1	14.5	5.61e-04	0	44	102	1048576	17	4368
2026-01-24 01:19:15.53	4.39	19.17	-28.3	-30.2	14.8	4.36e-04	0	43	102	1048576	16	4524
2026-01-24 01:19:16.53	4.28	19.29	-28.3	-30.3	14.8	0.00e+00	0	44	102	1048576	16	4537
2026-01-24 01:19:17.53	4.17	19.40	-28.4	-30.5	14.6	0.00e+00	0	43	102	1048576	16	4610
2026-01-24 01:19:18.53	4.06	19.51	-28.3	-30.4	14.7	1.65e-04	0	44	102	1048576	16	4582
2026-01-24 01:19:19.53	3.95	19.63	-28.2	-30.1	14.9	0.00e+00	0	44	102	1048576	16	4496
2026-01-24 01:19:20.53	3.84	19.74	-28.2	-30.0	14.9	3.00e-04	0	44	102	1048576	16	4456
2026-01-24 01:19:21.54	3.72	19.86	-28.2	-30.0	14.9	0.00e+00	0	44	102	1048576	16	4454
2026-01-24 01:19:22.55	3.61	19.97	-28.1	-29.9	15.0	0.00e+00	0	43	102	1048576	16	4409
2026-01-24 01:19:23.55	3.49	20.09	-27.9	-29.9	15.1	2.74e-05	0	44	102	1048576	15	4544
2026-01-24 01:19:24.56	3.38	20.21	-28.0	-29.7	15.1	0.00e+00	0	44	102	1048576	16	4357
2026-01-24 01:19:25.56	3.26	20.32	-27.7	-29.6	15.3	0.00e+00	0	44	102	1048576	15	4443
2026-01-24 01:19:26.56	3.14	20.44	-27.7	-29.5	15.4	0.00e+00	0	43	102	1048576	15	4426
2026-01-24 01:19:27.57	3.03	20.56	-27.7	-29.4	15.4	0.00e+00	0	43	102	1048576	15	4400
2026-01-24 01:19:28.57	2.91	20.68	-27.6	-29.3	15.5	0.00e+00	0	43	102	1048576	15	4364
2026-01-24 01:19:29.57	2.79	20.80	-27.7	-29.4	15.4	0.00e+00	0	44	102	1048576	15	4406
2026-01-24 01:19:30.57	2.67	20.91	-27.6	-29.3	15.4	0.00e+00	0	43	102	1048576	15	4379
2026-01-24 01:19:31.57	2.54	21.03	-27.5	-29.1	15.6	0.00e+00	0	44	102	1048576	15	4310
2026-01-24 01:19:32.57	2.42	21.15	-27.5	-29.1	15.6	0.00e+00	0	43	102	1048576	15	4322
2026-01-24 01:19:33.57	2.30	21.27	-27.6	-29.3	15.4	0.00e+00	0	44	102	1048576	15	4385
2026-01-24 01:19:34.57	2.17	21.39	-27.5	-29.2	15.5	0.00e+00	0	44	102	1048576	15	4334
2026-01-24 01:19:35.57	2.05	21.51	-27.4	-28.8	15.8	0.00e+00	0	43	102	1048576	15	4223
2026-01-24 01:19:36.57	1.92	21.64	-27.3	-28.5	15.9	0.00e+00	0	43	102	1048576	15	4154
2026-01-24 01:19:37.58	1.79	21.76	-27.2	-28.8	16.1	0.00e+00	0	43	102	1048576	14	4335
2026-01-24 01:19:38.58	1.66	21.88	-27.1	-28.5	16.2	0.00e+00	0	44	102	1048576	14	4271
2026-01-24 01:19:39.58	1.53	22.00	-26.9	-28.2	16.3	3.80e-06	0	44	102	1048576	14	4180
2026-01-24 01:19:40.59	1.40	22.13	-26.8	-28.5	16.4	0.00e+00	0	43	102	1048576	13	4375
2026-01-24 01:19:41.60	1.27	22.25	-26.8	-28.4	16.5	0.00e+00	0	44	102	1048576	13	4371
2026-01-24 01:19:42.60	1.13	22.38	-26.9	-28.6	16.4	0.00e+00	0	44	102	1048576	13	4398
2026-01-24 01:19:43.61	1.00	22.50	-26.8	-28.4	16.5	0.00e+00	0	44	102	1048576	13	4354
2026-01-24 01:19:44.62	0.86	22.63	-26.7	-28.3	16.6	6.33e-05	0	44	102	1048576	13	4309
2026-01-24 01:19:45.62	0.72	22.75	-26.8	-28.5	16.4	1.33e-04	0	44	102	1048576	13	4375
2026-01-24 01:19:46.62	0.59	22.88	-26.8	-28.4	16.5	0.00e+00	0	44	102	1048576	13	4337
2026-01-24 01:19:47.63	0.45	23.01	-26.6	-28.1	16.7	0.00e+00	0	44	102	1048576	13	4250
2026-01-24 01:19:48.64	0.31	23.13	-26.6	-28.1	16.7	3.59e-03	0	44	102	1048576	13	4253
2026-01-24 01:19:49.64	0.16	23.26	-26.6	-28.0	16.7	3.91e-03	0	44	102	1048576	13	4245
2026-01-24 01:19:50.64	0.02	23.39	-26.7	-28.2	16.6	7.00e-07	0	44	102	1048576	13	4294
2026-01-24 01:19:51.64	359.88	23.52	-26.7	-28.2	16.7	0.00e+00	0	44	102	1048576	13	4283
2026-01-24 01:19:52.65	359.73	23.65	-26.7	-28.3	16.6	0.00e+00	0	44	102	1048576	13	4324
2026-01-24 01:19:53.65	359.59	23.77	-26.8	-28.4	16.6	1.94e-04	0	44	102	1048576	13	4343
2026-01-24 01:19:54.65	359.44	23.90	-26.8	-28.6	16.5	3.47e-03	0	44	102	1048576	13	4384
2026-01-24 01:19:55.65	359.29	24.03	-26.8	-28.5	16.5	3.88e-03	0	44	102	1048576	13	4380
2026-01-24 01:19:56.66	359.14	24.16	-26.9	-28.6	16.4	1.26e-04	0	44	102	1048576	13	4407
2026-01-24 01:19:57.66	358.99	24.29	-26.9	-28.6	16.4	0.00e+00	0	44	102	1048576	13	4413
2026-01-24 01:19:58.67	358.84	24.43	-26.9	-28.6	16.4	3.68e-03	0	44	102	1048576	13	4402
2026-01-24 01:19:59.67	358.68	24.56	-27.0	-28.9	16.3	1.34e-04	0	44	102	1048576	13	4474
2026-01-24 01:20:00.67	358.53	24.69	-27.2	-28.9	16.0	3.78e-03	0	44	102	1048576	14	4364
2026-01-24 01:20:01.68	358.37	24.82	-27.1	-28.6	16.1	3.44e-03	0	44	102	1048576	14	4293
2026-01-24 01:20:02.68	358.21	24.96	-26.8	-28.0	16.5	0.00e+00	0	44	102	1048576	14	4124
2026-01-24 01:20:03.69	358.05	25.09	-26.8	-28.5	16.5	3.51e-03	0	44	102	1048576	13	4368
2026-01-24 01:20:04.70	357.89	25.22	-26.9	-28.6	16.5	3.97e-03	0	44	102	1048576	13	4389
2026-01-24 01:20:05.70	357.73	25.36	-27.1	-28.5	16.2	2.50e-04	0	44	102	1048576	14	4264
2026-01-24 01:20:06.70	357.56	25.49	-27.3	-29.1	15.9	4.02e-03	0	44	102	1048576	14	4429
2026-01-24 01:20:07.70	357.40	25.63	-27.3	-29.0	16.0	3.75e-03	0	44	102	1048576	14	4385
2026-01-24 01:20:08.70	357.23	25.76	-27.1	-28.6	16.2	0.00e+00	0	44	102	1048576	14	4278
2026-01-24 01:20:09.71	357.06	25.90	-27.0	-28.4	16.3	3.79e-03	0	44	102	1048576	14	4233
2026-01-24 01:20:10.71	356.90	26.04	-27.0	-28.5	16.3	3.41e-03	0	44	102	1048576	14	4243
2026-01-24 01:20:11.71	356.73	26.17	-27.2	-28.8	16.1	3.07e-04	0	44	102	1048576	14	4350
2026-01-24 01:20:12.71	356.55	26.31	-27.1	-28.7	16.2	0.00e+00	0	44	102	1048576	14	4311
2026-01-24 01:20:13.72	356.38	26.45	-27.2	-28.9	16.1	0.00e+00	0	44	102	1048576	14	4355
2026-01-24 01:20:14.73	356.20	26.59	-27.3	-29.0	16.1	2.12e-04	0	44	102	1048576	14	4380
2026-01-24 01:20:15.73	356.03	26.72	-27.3	-29.0	16.0	3.52e-03	0	44	102	1048576	14	4402
2026-01-24 01:20:16.74	355.85	26.86	-27.3	-28.9	16.1	3.06e-03	0	44	102	1048576	14	4369
2026-01-24 01:20:17.74	355.67	27.00	-27.2	-28.8	16.1	0.00e+00	0	44	102	1048576	14	4340
2026-01-24 01:20:18.75	355.48	27.14	-27.2	-28.9	16.1	0.00e+00	0	44	102	1048576	14	4357
2026-01-24 01:20:19.75	355.30	27.28	-27.2	-28.9	16.1	0.00e+00	0	44	102	1048576	14	4354
2026-01-24 01:20:20.75	355.11	27.42	-27.1	-28.7	16.2	1.04e-04	0	44	102	1048576	14	4298
2026-01-24 01:20:21.76	354.93	27.56	-27.3	-29.0	16.0	2.46e-03	0	44	102	1048576	14	4390
2026-01-24 01:20:22.76	354.74	27.71	-27.3	-29.0	16.0	0.00e+00	0	44	102	1048576	14	4391
2026-01-24 01:20:23.77	354.55	27.85	-27.4	-29.3	15.8	0.00e+00	0	44	102	1048576	14	4478
2026-01-24 01:20:24.77	354.36	27.99	-27.5	-29.0	15.8	0.00e+00	0	44	102	1048576	15	4290
2026-01-24 01:20:25.77	354.16	28.13	-27.5	-29.4	15.8	0.00e+00	0	44	102	1048576	14	4515
2026-01-24 01:20:26.78	353.97	28.27	-27.5	-29.0	15.8	2.65e-04	0	44	102	1048576	15	4272
2026-01-24 01:20:27.77	353.77	28.42	-27.4	-28.8	15.9	0.00e+00	0	44	102	1048576	15	4226
2026-01-24 01:20:28.78	353.57	28.56	-27.4	-29.3	15.9	0.00e+00	0	44	102	1048576	14	4458
2026-01-24 01:20:29.78	353.37	28.70	-27.3	-29.0	16.1	2.97e-05	0	44	102	1048576	14	4394
2026-01-24 01:20:30.79	353.17	28.85	-27.3	-29.1	16.0	0.00e+00	0	44	102	1048576	14	4402
2026-01-24 01:20:31.79	352.96	28.99	-27.3	-29.0	16.0	2.25e-03	0	44	102	1048576	14	4397
2026-01-24 01:20:32.80	352.76	29.14	-27.4	-29.3	15.9	0.00e+00	0	44	102	1048576	14	4461
2026-01-24 01:20:33.81	352.55	29.28	-27.4	-28.8	15.9	0.00e+00	0	44	102	1048576	15	4223
2026-01-24 01:20:34.81	352.34	29.43	-27.7	-29.3	15.6	0.00e+00	0	44	102	1048576	15	4374
2026-01-24 01:20:35.81	352.12	29.57	-27.6	-29.3	15.6	0.00e+00	0	44	102	1048576	15	4352
2026-01-24 01:20:36.81	351.91	29.72	-27.8	-29.7	15.4	0.00e+00	0	44	102	1048576	15	4487
2026-01-24 01:20:37.82	351.69	29.87	-27.8	-29.7	15.4	5.68e-04	0	44	102	1048576	15	4473
2026-01-24 01:20:38.82	351.48	30.01	-28.0	-30.0	15.2	7.00e-07	0	44	102	1048576	15	4579
2026-01-24 01:20:39.82	351.26	30.16	-27.9	-29.9	15.3	7.00e-07	0	44	102	1048576	15	4550
2026-01-24 01:20:40.83	351.03	30.31	-28.0	-30.1	15.2	0.00e+00	0	44	102	1048576	15	4602
2026-01-24 01:20:41.82	350.81	30.45	-28.1	-29.8	15.3	7.62e-05	0	44	102	1048576	16	4384
2026-01-24 01:20:42.83	350.58	30.60	-27.9	-29.9	15.3	7.00e-07	0	44	102	1048576	15	4543
2026-01-24 01:20:43.84	350.35	30.75	-27.8	-29.8	15.4	0.00e+00	0	44	102	1048576	15	4505
2026-01-24 01:20:44.84	350.12	30.90	-27.9	-29.8	15.3	0.00e+00	0	44	102	1048576	15	4516
2026-01-24 01:20:45.84	349.89	31.05	-27.8	-29.7	15.4	0.00e+00	0	44	102	1048576	15	4481
2026-01-24 01:20:46.84	349.66	31.19	-27.9	-29.9	15.3	9.12e-04	0	44	102	1048576	15	4546
2026-01-24 01:20:47.85	349.42	31.34	-27.8	-29.8	15.4	1.09e-03	0	44	102	1048576	15	4505
2026-01-24 01:20:48.85	349.18	31.49	-27.7	-29.5	15.6	0.00e+00	0	44	102	1048576	15	4406
2026-01-24 01:20:49.85	348.94	31.64	-27.9	-29.9	15.3	1.31e-03	0	44	102	1048576	15	4535
2026-01-24 01:20:50.86	348.69	31.79	-27.7	-29.5	15.5	0.00e+00	0	44	102	1048576	15	4421
2026-01-24 01:20:51.87	348.45	31.94	-27.6	-29.2	15.7	0.00e+00	0	44	102	1048576	15	4331
2026-01-24 01:20:52.88	348.20	32.09	-27.7	-29.3	15.6	1.91e-03	0	44	102	1048576	15	4372
2026-01-24 01:20:53.88	347.95	32.24	-27.8	-29.6	15.4	1.80e-03	0	44	102	1048576	15	4453
2026-01-24 01:20:54.89	347.69	32.39	-27.8	-29.7	15.4	3.81e-05	0	44	102	1048576	15	4469
2026-01-24 01:20:55.89	347.44	32.54	-27.7	-29.5	15.5	0.00e+00	0	44	102	1048576	15	4424
2026-01-24 01:20:56.89	347.18	32.69	-27.7	-29.4	15.6	8.07e-04	0	44	102	1048576	15	4392
2026-01-24 01:20:57.90	346.92	32.84	-27.9	-29.8	15.4	0.00e+00	0	44	102	1048576	15	4499
2026-01-24 01:20:58.90	346.66	32.99	-27.7	-29.5	15.5	7.15e-04	0	44	102	1048576	15	4427
2026-01-24 01:20:59.90	346.39	33.14	-27.7	-29.5	15.6	7.62e-04	0	44	102	1048576	15	4412
2026-01-24 01:21:00.90	346.12	33.29	-27.8	-29.6	15.5	4.95e-05	0	44	102	1048576	15	4443
2026-01-24 01:21:01.91	345.85	33.44	-27.6	-29.1	15.8	7.73e-04	0	44	102	1048576	15	4305
2026-01-24 01:21:02.91	345.58	33.59	-27.4	-29.2	16.0	7.16e-04	0	44	102	1048576	14	4438
2026-01-24 01:21:03.92	345.30	33.74	-27.5	-29.1	15.8	0.00e+00	0	44	102	1048576	15	4301
2026-01-24 01:21:04.93	345.02	33.90	-27.9	-29.8	15.4	6.53e-04	0	44	102	1048576	15	4509
2026-01-24 01:21:05.93	344.74	34.05	-27.9	-29.8	15.4	0.00e+00	0	44	102	1048576	15	4491
2026-01-24 01:21:06.94	344.46	34.20	-28.4	-30.5	14.9	7.00e-07	0	44	102	1048576	16	4569
2026-01-24 01:21:07.94	344.17	34.35	-28.7	-30.6	14.5	2.18e-04	0	44	102	1048576	17	4503
2026-01-24 01:21:08.94	343.88	34.50	-28.8	-31.0	14.3	1.21e-04	0	44	102	1048576	17	4627
2026-01-24 01:21:09.94	343.59	34.65	-28.9	-31.2	14.2	7.00e-07	0	44	102	1048576	17	4698
2026-01-24 01:21:10.95	343.30	34.80	-28.9	-31.2	14.1	1.50e-06	0	44	102	1048576	17	4696
2026-01-24 01:21:11.96	343.00	34.95	-29.1	-31.1	14.0	7.00e-07	0	44	102	1048576	18	4542
2026-01-24 01:21:12.97	342.70	35.10	-29.3	-31.6	13.7	4.50e-06	0	44	102	1048576	18	4682
2026-01-24 01:21:13.97	342.40	35.25	-29.0	-30.9	14.1	3.33e-04	0	44	102	1048576	18	4471
2026-01-24 01:21:14.98	342.09	35.40	-29.3	-31.7	13.6	2.64e-04	0	44	102	1048576	18	4717
2026-01-24 01:21:15.99	341.78	35.55	-29.1	-31.2	14.0	6.79e-05	0	44	102	1048576	18	4552
2026-01-24 01:21:16.98	341.47	35.69	-28.8	-30.6	14.3	7.00e-07	0	44	102	1048576	18	4386
2026-01-24 01:21:17.98	341.16	35.84	-27.8	-29.9	13.6	1.36e-04	0	44	102	1048576	17	4561
2026-01-24 01:21:18.98	340.84	35.99	-28.9	-31.1	12.6	3.30e-03	0	44	102	1048576	17	4647
2026-01-24 01:21:19.98	340.53	36.13	-28.8	-30.9	14.4	0.00e+00	0	44	102	1048576	17	4586
2026-01-24 01:21:20.99	340.20	36.28	-28.8	-30.9	14.3	2.20e-06	0	44	102	1048576	17	4583
2026-01-24 01:21:22.00	339.87	36.43	-28.8	-30.9	14.3	7.00e-07	0	44	102	1048576	17	4621
2026-01-24 01:21:23.00	339.55	36.58	-28.8	-30.8	14.4	7.00e-07	0	44	102	1048576	17	4559
2026-01-24 01:21:24.01	339.21	36.72	-29.0	-31.0	14.1	3.42e-03	0	44	102	1048576	18	4491
2026-01-24 01:21:25.01	338.88	36.87	-29.1	-31.1	14.0	3.75e-03	0	44	102	1048576	18	4525
2026-01-24 01:21:26.02	338.54	37.01	-29.2	-31.3	13.9	3.80e-06	0	44	102	1048576	18	4594
2026-01-24 01:21:27.03	338.20	37.16	-29.3	-31.6	13.7	9.10e-06	0	44	102	1048576	18	4708
2026-01-24 01:21:28.03	337.85	37.30	-29.4	-31.8	13.6	4.50e-06	0	44	102	1048576	18	4767
2026-01-24 01:21:29.03	337.51	37.45	-29.3	-31.6	13.7	6.10e-06	0	44	102	1048576	18	4698
2026-01-24 01:21:30.04	337.16	37.59	-29.3	-31.5	13.7	3.19e-03	0	44	102	1048576	18	4676
2026-01-24 01:21:31.04	336.81	37.73	-29.4	-31.8	13.6	8.54e-05	0	44	102	1048576	18	4776
2026-01-24 01:21:32.05	336.45	37.88	-29.3	-31.6	13.7	8.30e-06	0	44	102	1048576	18	4703
2026-01-24 01:21:33.05	336.09	38.02	-29.3	-31.7	13.7	2.13e-05	0	44	102	1048576	18	4715
2026-01-24 01:21:34.05	335.73	38.16	-29.5	-32.0	13.5	3.27e-03	0	44	102	1048576	18	4834
2026-01-24 01:21:35.06	335.36	38.30	-29.5	-31.6	13.4	1.29e-05	0	44	102	1048576	19	4571
2026-01-24 01:21:36.06	334.99	38.43	-29.5	-31.6	13.4	3.21e-03	0	44	102	1048576	19	4590
2026-01-24 01:21:37.06	334.62	38.57	-29.5	-31.6	13.4	2.59e-03	0	44	102	1048576	19	4584
2026-01-24 01:21:38.06	334.25	38.71	-29.1	-30.7	14.0	4.50e-06	0	44	102	1048576	19	4305
2026-01-24 01:21:39.07	333.87	38.85	-29.0	-31.0	14.1	9.07e-04	0	44	102	1048576	18	4499
2026-01-24 01:21:40.08	333.48	38.98	-28.9	-30.7	14.2	3.75e-04	0	44	102	1048576	18	4422
2026-01-24 01:21:41.08	333.10	39.12	-28.8	-31.0	14.2	2.20e-06	0	44	102	1048576	17	4632
2026-01-24 01:21:42.09	332.71	39.25	-28.9	-31.2	14.2	2.19e-04	0	44	102	1048576	17	4698
2026-01-24 01:21:43.09	332.32	39.38	-28.9	-31.1	14.3	3.05e-04	0	44	102	1048576	17	4666
2026-01-24 01:21:44.09	331.93	39.51	-29.0	-31.3	14.1	7.00e-07	0	44	102	1048576	17	4705
2026-01-24 01:21:45.09	331.53	39.64	-29.0	-30.9	14.1	4.64e-04	0	44	102	1048576	18	4485
2026-01-24 01:21:46.10	331.13	39.77	-29.4	-31.9	13.5	5.35e-04	0	44	102	1048576	18	4802
2026-01-24 01:21:47.10	330.73	39.90	-29.6	-31.7	13.3	6.40e-05	0	44	102	1048576	19	4625
2026-01-24 01:21:48.10	330.32	40.03	-29.8	-32.2	13.0	4.11e-05	0	44	102	1048576	19	4790
2026-01-24 01:21:49.09	329.92	40.15	-29.6	-31.9	13.2	1.50e-03	0	44	102	1048576	19	4691
2026-01-24 01:21:50.10	329.50	40.28	-29.7	-32.0	13.2	3.58e-05	0	44	102	1048576	19	4709
2026-01-24 01:21:51.11	329.08	40.40	-29.7	-32.2	13.0	2.27e-03	0	44	102	1048576	19	4759
2026-01-24 01:21:52.11	328.66	40.52	-29.8	-32.3	13.0	2.55e-03	0	44	102	1048576	19	4805
2026-01-24 01:21:53.11	328.24	40.64	-29.6	-31.8	13.2	2.59e-05	0	44	102	1048576	19	4660
2026-01-24 01:21:54.12	327.81	40.76	-29.5	-31.5	13.4	4.42e-05	0	44	102	1048576	19	4563
2026-01-24 01:21:55.12	327.38	40.88	-29.5	-31.6	13.4	3.85e-03	0	44	102	1048576	19	4585
2026-01-24 01:21:56.12	326.95	41.00	-29.2	-31.3	13.9	5.30e-06	0	44	102	1048576	18	4592
2026-01-24 01:21:57.12	326.52	41.11	-29.2	-31.3	13.9	3.85e-03	0	44	102	1048576	18	4584
2026-01-24 01:21:58.13	326.08	41.22	-29.3	-31.6	13.7	9.10e-06	0	44	102	1048576	18	4689
2026-01-24 01:21:59.14	325.63	41.34	-29.2	-31.3	13.8	6.10e-06	0	44	102	1048576	18	4604
2026-01-24 01:22:00.14	325.19	41.45	-29.0	-30.8	14.1	7.00e-07	0	44	102	1048576	18	4454
2026-01-24 01:22:01.15	324.74	41.56	-28.9	-31.1	14.2	3.51e-03	0	44	102	1048576	17	4652
2026-01-24 01:22:02.14	324.29	41.66	-29.0	-31.3	14.1	3.00e-06	0	44	102	1048576	17	4721
2026-01-24 01:22:03.14	323.84	41.77	-29.1	-31.2	13.9	2.20e-06	0	44	102	1048576	18	4570
2026-01-24 01:22:04.15	323.38	41.87	-29.4	-31.8	13.6	9.90e-06	0	44	102	1048576	18	4752
2026-01-24 01:22:05.15	322.92	41.97	-29.6	-31.8	13.2	1.98e-05	0	44	102	1048576	19	4639
2026-01-24 01:22:06.16	322.46	42.07	-29.5	-31.6	13.3	1.83e-05	0	44	102	1048576	19	4590
2026-01-24 01:22:07.17	321.99	42.17	-29.5	-31.6	13.3	1.90e-05	0	44	102	1048576	19	4603
2026-01-24 01:22:08.17	321.52	42.27	-29.5	-31.7	13.2	1.22e-05	0	44	102	1048576	19	4622
2026-01-24 01:22:09.18	321.05	42.36	-29.7	-32.1	13.1	1.78e-04	0	44	102	1048576	19	4741
2026-01-24 01:22:10.18	320.57	42.45	-29.8	-32.3	13.0	3.50e-05	0	44	102	1048576	19	4804
2026-01-24 01:22:11.19	320.09	42.54	-29.9	-32.7	12.7	6.81e-04	0	44	102	1048576	19	4937
2026-01-24 01:22:12.20	319.61	42.63	-29.7	-32.1	13.1	4.27e-05	0	44	102	1048576	19	4729
2026-01-24 01:22:13.20	319.13	42.72	-29.6	-31.9	13.2	2.05e-05	0	44	102	1048576	19	4687
2026-01-24 01:22:14.20	318.65	42.80	-29.7	-32.0	13.1	3.05e-05	0	44	102	1048576	19	4702
2026-01-24 01:22:15.20	318.16	42.88	-29.2	-30.8	13.7	1.44e-05	0	44	102	1048576	19	4353
2026-01-24 01:22:16.20	317.67	42.96	-28.9	-30.7	14.2	9.84e-05	0	44	102	1048576	18	4425
2026-01-24 01:22:17.21	317.18	43.04	-29.2	-31.4	13.8	6.80e-06	0	44	102	1048576	18	4630
2026-01-24 01:22:18.21	316.69	43.11	-29.4	-31.8	13.5	1.52e-05	0	44	102	1048576	18	4769
2026-01-24 01:22:19.22	316.19	43.19	-29.7	-32.0	13.1	2.67e-05	0	44	102	1048576	19	4715
2026-01-24 01:22:20.22	315.69	43.26	-29.9	-32.5	12.8	3.13e-04	0	44	102	1048576	19	4881
2026-01-24 01:22:21.22	315.19	43.33	-29.9	-32.0	12.7	9.91e-05	0	44	102	1048576	20	4607
2026-01-24 01:22:22.23	314.68	43.39	-29.7	-32.0	13.1	5.10e-04	0	44	102	1048576	19	4702
2026-01-24 01:22:23.24	314.17	43.46	-29.7	-32.1	13.1	5.68e-04	0	44	102	1048576	19	4730
2026-01-24 01:22:24.24	313.67	43.52	-29.8	-32.4	12.8	4.34e-05	0	44	102	1048576	19	4851
2026-01-24 01:22:25.24	313.16	43.58	-29.8	-32.4	12.9	5.88e-04	0	44	102	1048576	19	4828
2026-01-24 01:22:26.25	312.65	43.63	-29.7	-32.1	13.0	5.82e-04	0	44	102	1048576	19	4757
2026-01-24 01:22:27.25	312.13	43.69	-29.6	-31.9	13.1	2.51e-05	0	44	102	1048576	19	4676
2026-01-24 01:22:28.25	311.62	43.74	-29.6	-31.8	13.2	3.30e-04	0	44	102	1048576	19	4657
2026-01-24 01:22:29.25	311.11	43.79	-29.8	-32.3	13.0	3.17e-04	0	44	102	1048576	19	4806
2026-01-24 01:22:30.25	310.59	43.83	-29.4	-31.4	13.5	2.21e-05	0	44	102	1048576	19	4533
2026-01-24 01:22:31.26	310.07	43.87	-29.3	-31.6	13.7	2.55e-04	0	44	102	1048576	18	4695
2026-01-24 01:22:32.26	309.55	43.92	-29.3	-31.6	13.7	3.04e-04	0	44	102	1048576	18	4697
2026-01-24 01:22:33.27	309.02	43.95	-29.2	-31.4	13.8	1.14e-05	0	44	102	1048576	18	4622
2026-01-24 01:22:34.27	308.50	43.99	-29.5	-32.0	13.4	1.44e-05	0	44	102	1048576	18	4833
2026-01-24 01:22:35.27	307.98	44.02	-29.7	-32.2	13.0	4.27e-05	0	44	102	1048576	19	4776
2026-01-24 01:22:36.28	307.45	44.05	-30.0	-32.4	12.4	8.69e-05	0	44	102	1048576	20	4752
2026-01-24 01:22:37.29	306.92	44.08	-30.2	-33.0	12.1	5.23e-04	0	44	102	1048576	20	4945
2026-01-24 01:22:38.29	306.40	44.11	-30.2	-32.8	12.2	2.84e-04	0	44	102	1048576	20	4888
2026-01-24 01:22:39.29	305.87	44.13	-29.8	-31.8	12.9	6.48e-05	0	44	102	1048576	20	4535
2026-01-24 01:22:40.29	305.34	44.15	-29.8	-32.4	12.9	4.65e-05	0	44	102	1048576	19	4855
2026-01-24 01:22:41.30	304.81	44.16	-29.8	-32.2	12.9	4.80e-05	0	44	102	1048576	19	4786
2026-01-24 01:22:42.30	304.28	44.18	-29.7	-32.1	13.1	2.44e-05	0	44	102	1048576	19	4735
2026-01-24 01:22:43.30	303.75	44.19	-29.7	-32.1	13.0	7.40e-05	0	44	102	1048576	19	4755
2026-01-24 01:22:44.30	303.22	44.20	-29.2	-31.0	13.7	1.60e-05	0	44	102	1048576	19	4387
2026-01-24 01:22:45.31	302.69	44.20	-28.9	-30.7	14.2	3.00e-06	0	44	102	1048576	18	4413
2026-01-24 01:22:46.31	302.16	44.21	-29.1	-31.1	13.9	1.50e-06	0	44	102	1048576	18	4552
2026-01-24 01:22:47.32	301.62	44.21	-29.1	-31.2	13.8	1.91e-04	0	44	102	1048576	18	4573
2026-01-24 01:22:48.32	301.09	44.21	-29.0	-30.9	14.1	1.50e-06	0	44	102	1048576	18	4470
2026-01-24 01:22:49.33	300.56	44.20	-29.0	-30.9	14.1	0.00e+00	0	44	102	1048576	18	4481
2026-01-24 01:22:50.33	300.03	44.19	-29.0	-30.9	14.1	3.80e-06	0	44	102	1048576	18	4462
2026-01-24 01:22:51.34	299.50	44.18	-29.3	-31.5	13.8	4.50e-06	0	44	102	1048576	18	4664
2026-01-24 01:22:52.35	298.96	44.17	-29.4	-31.9	13.5	1.06e-05	0	44	102	1048576	18	4808
2026-01-24 01:22:53.35	298.44	44.15	-29.4	-31.8	13.5	1.29e-05	0	44	102	1048576	18	4755
2026-01-24 01:22:54.35	297.91	44.13	-28.7	-31.1	12.3	1.67e-05	0	44	102	1048576	19	4745
2026-01-24 01:22:55.35	297.38	44.11	-29.9	-32.5	12.8	7.78e-05	0	44	102	1048576	19	4889
2026-01-24 01:22:56.35	296.86	44.09	-29.8	-32.2	12.0	3.66e-05	0	44	102	1048576	19	4793
2026-01-24 01:22:57.36	296.32	44.06	-29.8	-32.5	12.7	4.80e-05	0	44	102	1048576	19	4868
2026-01-24 01:22:58.36	295.80	44.03	-29.8	-32.0	12.7	7.93e-05	0	44	102	1048576	20	4609
2026-01-24 01:22:59.37	295.27	44.00	-29.7	-32.1	13.0	1.64e-03	0	44	102	1048576	19	4750
2026-01-24 01:23:00.37	294.75	43.96	-29.9	-32.2	12.5	1.73e-04	0	44	102	1048576	20	4688
2026-01-24 01:23:01.37	294.23	43.93	-30.0	-32.3	12.5	1.15e-04	0	44	102	1048576	20	4701
2026-01-24 01:23:02.38	293.70	43.89	-29.8	-32.5	12.8	6.40e-05	0	44	102	1048576	19	4864
2026-01-24 01:23:03.39	293.18	43.84	-29.9	-32.6	12.7	6.86e-05	0	44	102	1048576	19	4899
2026-01-24 01:23:04.39	292.66	43.80	-29.7	-32.2	12.9	5.11e-05	0	44	102	1048576	19	4771
2026-01-24 01:23:05.39	292.15	43.75	-29.9	-32.7	12.6	5.49e-05	0	44	102	1048576	19	4955
2026-01-24 01:23:06.38	291.64	43.70	-30.0	-32.5	12.4	1.87e-04	0	44	102	1048576	20	4765
2026-01-24 01:23:07.38	291.13	43.65	-30.0	-32.3	12.5	1.33e-04	0	44	102	1048576	20	4713
2026-01-24 01:23:08.39	290.61	43.59	-30.2	-32.9	12.1	2.75e-04	0	44	102	1048576	20	4920
2026-01-24 01:23:09.39	290.10	43.53	-30.1	-32.5	12.3	1.05e-03	0	44	102	1048576	20	4788
2026-01-24 01:23:10.40	289.59	43.47	-29.4	-30.9	13.4	3.35e-05	0	44	102	1048576	20	4280
2026-01-24 01:23:11.40	289.09	43.41	-29.3	-31.2	13.5	1.37e-05	0	44	102	1048576	19	4476
2026-01-24 01:23:12.39	288.59	43.34	-29.5	-31.6	13.3	1.83e-05	0	44	102	1048576	19	4596
2026-01-24 01:23:13.39	288.09	43.28	-29.7	-32.1	13.0	3.81e-05	0	44	102	1048576	19	4753
2026-01-24 01:23:14.40	287.58	43.21	-30.2	-32.9	12.2	3.97e-04	0	44	102	1048576	20	4918
2026-01-24 01:23:15.40	287.09	43.13	-30.4	-32.9	11.8	1.24e-03	0	44	102	1048576	21	4816
2026-01-24 01:23:16.40	286.59	43.06	-30.1	-32.6	12.3	2.49e-04	0	44	102	1048576	20	4825
2026-01-24 01:23:17.40	286.10	42.98	-29.9	-32.7	12.6	2.88e-04	0	44	102	1048576	19	4939
2026-01-24 01:23:18.41	285.61	42.90	-29.6	-31.9	13.1	2.55e-03	0	44	102	1048576	19	4689
2026-01-24 01:23:19.42	285.11	42.82	-29.5	-31.5	13.3	2.28e-05	0	44	102	1048576	19	4574
2026-01-24 01:23:20.42	284.63	42.74	-29.4	-32.0	13.4	2.74e-03	0	44	102	1048576	18	4827
2026-01-24 01:23:21.43	284.14	42.65	-29.5	-31.7	13.2	1.73e-03	0	44	102	1048576	19	4640
2026-01-24 01:23:22.43	283.66	42.57	-29.7	-32.2	12.9	3.81e-05	0	44	102	1048576	19	4773
2026-01-24 01:23:23.43	283.19	42.48	-29.9	-32.2	12.5	3.94e-04	0	44	102	1048576	20	4695
2026-01-24 01:23:24.44	282.71	42.38	-29.9	-32.7	12.6	7.64e-04	0	44	102	1048576	19	4936
2026-01-24 01:23:25.44	282.24	42.29	-29.6	-31.9	13.0	3.66e-05	0	44	102	1048576	19	4699
2026-01-24 01:23:26.43	281.77	42.20	-29.2	-31.3	13.7	2.52e-03	0	44	102	1048576	18	4612
2026-01-24 01:23:27.44	281.30	42.10	-28.8	-31.2	14.0	2.61e-03	0	44	102	1048576	17	4709
2026-01-24 01:23:28.45	280.83	42.00	-29.1	-31.2	13.8	2.20e-06	0	44	102	1048576	18	4571
2026-01-24 01:23:29.45	280.37	41.90	-29.8	-32.3	12.8	3.13e-03	0	44	102	1048576	19	4828
2026-01-24 01:23:30.46	279.91	41.79	-30.3	-33.3	11.8	4.11e-03	0	44	102	1048576	20	5068
2026-01-24 01:23:31.46	279.46	41.69	-30.4	-33.5	11.7	4.65e-04	0	44	102	1048576	20	5132
2026-01-24 01:23:32.46	279.01	41.58	-30.3	-33.3	11.8	6.68e-04	0	44	102	1048576	20	5056
2026-01-24 01:23:33.47	278.55	41.47	-30.1	-32.6	12.2	2.36e-04	0	44	102	1048576	20	4823
2026-01-24 01:23:34.47	278.11	41.36	-29.9	-32.1	12.5	3.35e-04	0	44	102	1048576	20	4668
2026-01-24 01:23:35.48	277.66	41.25	-30.1	-32.7	12.2	4.05e-03	0	44	102	1048576	20	4844
2026-01-24 01:23:36.49	277.22	41.14	-30.3	-33.2	11.9	3.92e-03	0	44	102	1048576	20	5037
2026-01-24 01:23:37.50	276.78	41.02	-29.2	-31.8	12.1	3.40e-04	0	44	102	1048576	20	4863
2026-01-24 01:23:38.50	276.35	40.91	-30.0	-32.3	12.4	1.55e-04	0	44	102	1048576	20	4722
2026-01-24 01:23:39.51	275.91	40.79	-29.9	-32.5	12.6	8.35e-04	0	44	102	1048576	19	4891
2026-01-24 01:23:40.51	275.49	40.67	-29.5	-31.7	13.1	5.33e-04	0	44	102	1048576	19	4627
2026-01-24 01:23:41.52	275.06	40.55	-29.3	-31.5	13.5	3.58e-03	0	44	102	1048576	18	4688
2026-01-24 01:23:42.53	274.63	40.42	-29.3	-31.6	13.5	8.30e-06	0	44	102	1048576	18	4715
2026-01-24 01:23:43.53	274.22	40.30	-29.4	-32.0	13.2	2.59e-05	0	44	102	1048576	18	4849
2026-01-24 01:23:44.54	273.80	40.18	-29.7	-32.2	12.8	1.38e-04	0	44	102	1048576	19	4789
2026-01-24 01:23:45.53	273.39	40.05	-30.1	-32.8	12.1	1.85e-03	0	44	102	1048576	20	4889
2026-01-24 01:23:46.54	272.98	39.92	-30.2	-32.9	12.0	5.18e-04	0	44	102	1048576	20	4922
2026-01-24 01:23:47.54	272.58	39.80	-29.6	-32.0	12.9	1.01e-04	0	44	102	1048576	19	4723
2026-01-24 01:23:48.55	272.17	39.67	-29.0	-31.0	13.8	7.60e-06	0	44	102	1048576	18	4523
2026-01-24 01:23:49.55	271.77	39.54	-28.7	-30.9	14.1	5.79e-04	0	44	102	1048576	17	4601
2026-01-24 01:23:50.56	271.37	39.40	-28.7	-30.8	14.2	3.00e-06	0	44	102	1048576	17	4571
2026-01-24 01:23:51.56	270.98	39.27	-28.9	-31.3	13.8	9.38e-04	0	44	102	1048576	17	4735
2026-01-24 01:23:52.57	270.59	39.14	-29.8	-32.4	12.6	2.74e-05	0	44	102	1048576	19	4881
2026-01-24 01:23:53.57	270.21	39.00	-30.6	-33.6	11.2	6.19e-04	0	44	102	1048576	21	5073
2026-01-24 01:23:54.58	269.82	38.87	-30.8	-34.3	10.7	4.42e-03	0	44	102	1048576	21	5359
2026-01-24 01:23:55.58	269.44	38.73	-30.5	-33.3	11.3	4.36e-03	0	44	102	1048576	21	4997
2026-01-24 01:23:56.58	269.07	38.59	-29.8	-31.9	12.5	2.06e-04	0	44	102	1048576	20	4597
2026-01-24 01:23:57.58	268.69	38.45	-29.0	-30.9	13.9	2.46e-03	0	44	102	1048576	18	4483
2026-01-24 01:23:58.59	268.32	38.31	-28.5	-30.2	14.5	2.47e-03	0	44	102	1048576	17	4396
2026-01-24 01:23:59.59	267.95	38.18	-28.7	-30.8	14.1	7.00e-07	0	44	102	1048576	17	4582
2026-01-24 01:24:00.59	267.59	38.04	-29.1	-31.3	13.6	2.04e-03	0	44	102	1048576	18	4604
2026-01-24 01:24:01.59	267.23	37.89	-29.5	-31.8	13.0	1.91e-03	0	44	102	1048576	19	4667
2026-01-24 01:24:02.60	266.87	37.75	-30.1	-32.7	12.0	2.52e-04	0	44	102	1048576	20	4869
2026-01-24 01:24:03.60	266.52	37.61	-30.0	-32.4	12.3	3.07e-04	0	44	102	1048576	20	4758
2026-01-24 01:24:04.61	266.16	37.47	-29.1	-30.6	13.7	2.13e-03	0	44	102	1048576	19	4309
2026-01-24 01:24:05.61	265.82	37.32	-28.1	-29.2	15.1	0.00e+00	0	44	102	1048576	17	4121
2026-01-24 01:24:06.61	265.47	37.18	-27.4	-28.9	15.7	2.77e-03	0	44	102	1048576	15	4246
2026-01-24 01:24:07.62	265.13	37.03	-27.4	-29.4	15.6	0.00e+00	0	44	102	1048576	14	4507
2026-01-24 01:24:08.63	264.79	36.89	-27.7	-29.6	15.1	0.00e+00	0	44	102	1048576	15	4447
2026-01-24 01:24:09.64	264.45	36.74	-28.6	-30.6	14.2	1.50e-06	0	44	102	1048576	17	4511
2026-01-24 01:24:10.64	264.12	36.59	-29.4	-32.0	13.1	1.69e-03	0	44	102	1048576	18	4837
2026-01-24 01:24:11.65	263.78	36.44	-29.8	-32.4	12.6	6.86e-05	0	44	102	1048576	19	4860
2026-01-24 01:24:12.65	263.46	36.30	-29.1	-30.8	13.4	6.48e-05	0	44	102	1048576	19	4371
2026-01-24 01:24:13.66	263.13	36.15	-28.0	-29.0	14.9	0.00e+00	0	44	102	1048576	17	4070
2026-01-24 01:24:14.66	262.81	36.00	-26.9	-27.8	16.1	0.00e+00	0	44	102	1048576	15	3961
2026-01-24 01:24:15.66	262.49	35.85	-26.6	-28.0	16.5	6.80e-06	0	44	102	1048576	13	4247
2026-01-24 01:24:16.67	262.18	35.70	-26.7	-28.3	16.5	3.29e-03	0	44	102	1048576	13	4312
2026-01-24 01:24:17.67	261.86	35.55	-27.4	-29.4	15.6	0.00e+00	0	44	102	1048576	14	4503
2026-01-24 01:24:18.67	261.55	35.41	-28.2	-30.1	14.8	3.08e-04	0	44	102	1048576	16	4494
2026-01-24 01:24:19.68	261.25	35.26	-28.8	-31.1	14.0	4.50e-06	0	44	102	1048576	17	4664
2026-01-24 01:24:20.68	260.94	35.11	-29.2	-31.4	13.5	1.06e-05	0	44	102	1048576	18	4681
2026-01-24 01:24:21.69	260.64	34.95	-29.3	-31.7	13.4	1.29e-05	0	44	102	1048576	18	4765
2026-01-24 01:24:22.69	260.34	34.80	-29.0	-31.1	13.7	2.51e-05	0	44	102	1048576	18	4554
2026-01-24 01:24:23.69	260.05	34.66	-28.6	-30.0	14.3	1.50e-06	0	44	102	1048576	18	4254
2026-01-24 01:24:24.70	259.75	34.50	-28.3	-29.8	14.7	0.00e+00	0	44	102	1048576	17	4299
2026-01-24 01:24:25.71	259.46	34.35	-28.1	-29.9	14.9	2.82e-05	0	44	102	1048576	16	4433
2026-01-24 01:24:26.72	259.17	34.20	-27.9	-29.4	15.2	0.00e+00	0	44	102	1048576	16	4285
2026-01-24 01:24:27.72	258.89	34.05	-27.8	-29.8	15.1	1.41e-04	0	44	102	1048576	15	4524
2026-01-24 01:24:28.72	258.61	33.90	-28.5	-30.7	14.4	0.00e+00	0	44	102	1048576	16	4683
2026-01-24 01:24:29.73	258.32	33.75	-28.9	-31.4	13.8	1.75e-05	0	44	102	1048576	17	4778
2026-01-24 01:24:30.73	258.05	33.60	-28.7	-30.4	14.1	1.50e-06	0	44	102	1048576	18	4350
2026-01-24 01:24:31.74	257.77	33.44	-28.2	-29.6	14.8	0.00e+00	0	44	102	1048576	17	4233
2026-01-24 01:24:32.74	257.50	33.29	-27.7	-28.9	15.4	0.00e+00	0	44	102	1048576	16	4160
2026-01-24 01:24:33.75	257.23	33.14	-27.4	-28.9	15.6	0.00e+00	0	44	102	1048576	15	4247
2026-01-24 01:24:34.75	256.96	32.99	-27.6	-29.2	15.4	0.00e+00	0	44	102	1048576	15	4349
2026-01-24 01:24:35.75	256.70	32.84	-26.3	-28.3	14.9	0.00e+00	0	44	102	1048576	14	4492
2026-01-24 01:24:36.75	256.44	32.69	-27.7	-29.4	15.3	2.70e-04	0	44	102	1048576	15	4401
2026-01-24 01:24:37.75	256.18	32.54	-27.8	-29.9	13.8	0.00e+00	0	44	102	1048576	15	4538
2026-01-24 01:24:38.75	255.92	32.39	-27.9	-30.0	14.9	2.68e-03	0	44	102	1048576	15	4584
2026-01-24 01:24:39.75	255.67	32.24	-27.8	-29.8	15.1	0.00e+00	0	44	102	1048576	15	4526
2026-01-24 01:24:40.76	255.42	32.09	-27.8	-29.7	15.1	7.00e-07	0	44	102	1048576	15	4481
2026-01-24 01:24:41.76	255.17	31.94	-27.8	-29.8	15.0	0.00e+00	0	44	102	1048576	15	4536
2026-01-24 01:24:42.76	254.92	31.79	-27.7	-29.5	15.2	5.30e-06	0	44	102	1048576	15	4436
2026-01-24 01:24:43.77	254.67	31.64	-27.5	-29.2	15.4	2.67e-03	0	44	102	1048576	15	4341
2026-01-24 01:24:44.77	254.43	31.49	-27.5	-29.1	15.4	2.52e-03	0	44	102	1048576	15	4326
2026-01-24 01:24:45.77	254.19	31.34	-27.6	-29.3	15.3	9.10e-06	0	44	102	1048576	15	4369
2026-01-24 01:24:46.77	253.95	31.19	-27.7	-29.6	15.1	7.00e-07	0	44	102	1048576	15	4465
2026-01-24 01:24:47.77	253.72	31.04	-27.9	-30.1	14.9	0.00e+00	0	44	102	1048576	15	4612
2026-01-24 01:24:48.77	253.48	30.89	-28.3	-30.3	14.6	3.18e-04	0	44	102	1048576	16	4561
2026-01-24 01:24:49.77	253.25	30.75	-28.5	-30.8	14.3	2.26e-03	0	44	102	1048576	16	4722
2026-01-24 01:24:50.77	253.02	30.60	-28.7	-30.8	14.0	1.50e-06	0	44	102	1048576	17	4592
2026-01-24 01:24:51.78	252.79	30.45	-28.4	-30.1	14.4	1.37e-05	0	44	102	1048576	17	4387
2026-01-24 01:24:52.78	252.57	30.30	-27.6	-29.4	15.2	3.32e-03	0	44	102	1048576	15	4427
2026-01-24 01:24:53.78	252.34	30.15	-27.1	-28.7	15.9	3.79e-03	0	44	102	1048576	14	4307
2026-01-24 01:24:54.78	252.12	30.01	-26.6	-27.5	16.5	0.00e+00	0	44	102	1048576	14	4007
2026-01-24 01:24:55.79	251.90	29.86	-26.3	-27.8	16.9	3.72e-03	0	44	102	1048576	12	4306
2026-01-24 01:24:56.79	251.69	29.71	-26.2	-27.6	17.0	0.00e+00	0	44	102	1048576	12	4247
2026-01-24 01:24:57.80	251.47	29.56	-26.4	-28.2	16.7	3.78e-04	0	44	102	1048576	12	4401
2026-01-24 01:24:58.81	251.25	29.42	-26.6	-28.0	16.5	2.50e-03	0	44	102	1048576	13	4248
2026-01-24 01:24:59.81	251.04	29.27	-26.7	-28.4	16.3	2.32e-03	0	44	102	1048576	13	4342
2026-01-24 01:25:00.81	250.83	29.13	-27.0	-28.9	16.0	0.00e+00	0	44	102	1048576	13	4485
2026-01-24 01:25:01.82	250.62	28.98	-27.1	-28.6	15.9	3.35e-03	0	44	102	1048576	14	4289
2026-01-24 01:25:02.82	250.42	28.83	-26.9	-28.5	15.6	3.80e-03	0	44	102	1048576	14	4330
2026-01-24 01:25:03.82	250.22	28.69	-27.2	-28.9	15.3	3.43e-04	0	44	102	1048576	14	4380
2026-01-24 01:25:04.82	250.01	28.55	-27.0	-28.5	16.0	3.79e-03	0	44	102	1048576	14	4255
2026-01-24 01:25:05.82	249.81	28.40	-27.0	-28.5	16.0	3.44e-03	0	44	102	1048576	14	4260
2026-01-24 01:25:06.82	249.62	28.26	-27.1	-28.7	15.9	3.52e-04	0	44	102	1048576	14	4308
2026-01-24 01:25:07.82	249.42	28.12	-27.1	-28.6	15.9	0.00e+00	0	44	102	1048576	14	4292
2026-01-24 01:25:08.83	249.22	27.97	-27.1	-28.7	15.9	4.12e-03	0	44	102	1048576	14	4315
2026-01-24 01:25:09.83	249.03	27.83	-27.2	-28.9	15.7	1.15e-03	0	44	102	1048576	14	4378
2026-01-24 01:25:10.84	248.84	27.69	-27.2	-28.9	15.8	4.45e-03	0	44	102	1048576	14	4389
2026-01-24 01:25:11.85	248.65	27.54	-27.3	-29.2	15.6	1.72e-03	0	44	102	1048576	14	4474
2026-01-24 01:25:12.85	248.46	27.40	-27.6	-29.3	15.3	1.62e-03	0	44	102	1048576	15	4378
2026-01-24 01:25:13.85	248.27	27.26	-27.9	-30.1	14.8	7.00e-07	0	44	102	1048576	15	4625
2026-01-24 01:25:14.86	248.09	27.12	-27.8	-29.8	14.9	4.38e-03	0	44	102	1048576	15	4537
2026-01-24 01:25:15.87	247.90	26.98	-27.6	-29.3	15.2	2.57e-03	0	44	102	1048576	15	4378
2026-01-24 01:25:16.87	247.72	26.84	-27.4	-29.3	15.5	0.00e+00	0	44	102	1048576	14	4489
2026-01-24 01:25:17.88	247.54	26.70	-27.1	-28.7	15.8	1.67e-04	0	44	102	1048576	14	4331
2026-01-24 01:25:18.89	247.36	26.56	-27.0	-28.5	15.9	0.00e+00	0	44	102	1048576	14	4276
2026-01-24 01:25:19.89	247.18	26.42	-27.1	-28.7	15.8	4.99e-03	0	44	102	1048576	14	4312
2026-01-24 01:25:20.89	247.01	26.28	-26.8	-28.5	16.1	4.73e-03	0	44	102	1048576	13	4395
2026-01-24 01:25:21.90	246.84	26.14	-26.5	-27.9	16.5	1.67e-05	0	44	102	1048576	13	4224
2026-01-24 01:25:22.91	246.66	26.00	-26.3	-28.0	16.7	6.71e-05	0	44	102	1048576	12	4362
2026-01-24 01:25:23.92	246.49	25.87	-26.3	-28.0	16.7	9.09e-04	0	44	102	1048576	12	4362
2026-01-24 01:25:24.92	246.32	25.73	-26.5	-28.3	16.5	6.68e-04	0	44	102	1048576	12	4439
2026-01-24 01:25:25.93	246.15	25.59	-26.4	-27.7	16.6	0.00e+00	0	44	102	1048576	13	4176
2026-01-24 01:25:26.93	245.99	25.46	-26.5	-28.4	16.5	2.56e-03	0	44	102	1048576	12	4458
2026-01-24 01:25:27.94	245.82	25.32	-26.7	-28.2	16.3	2.93e-03	0	44	102	1048576	13	4313
2026-01-24 01:25:28.95	245.66	25.19	-26.9	-28.8	15.9	0.00e+00	0	44	102	1048576	13	4510
2026-01-24 01:25:29.95	245.50	25.05	-27.0	-28.9	15.9	3.33e-03	0	44	102	1048576	13	4504
2026-01-24 01:25:30.96	245.33	24.92	-27.0	-28.6	15.8	0.00e+00	0	44	102	1048576	14	4300
2026-01-24 01:25:31.97	245.17	24.78	-27.1	-28.6	15.8	0.00e+00	0	44	102	1048576	14	4316
2026-01-24 01:25:32.97	245.02	24.65	-27.0	-28.6	15.8	3.25e-03	0	44	102	1048576	14	4299
2026-01-24 01:25:33.98	244.86	24.52	-27.0	-28.6	15.8	3.33e-03	0	44	102	1048576	14	4307
2026-01-24 01:25:34.98	244.70	24.38	-27.2	-29.0	15.6	0.00e+00	0	44	102	1048576	14	4402
2026-01-24 01:25:35.98	244.55	24.25	-27.1	-28.7	15.8	4.86e-04	0	44	102	1048576	14	4324
2026-01-24 01:25:36.99	244.40	24.12	-27.0	-28.5	15.8	0.00e+00	0	44	102	1048576	14	4292
2026-01-24 01:25:37.99	244.25	23.99	-27.1	-28.8	15.7	1.37e-04	0	44	102	1048576	14	4363
2026-01-24 01:25:39.00	244.10	23.86	-27.3	-29.1	15.5	0.00e+00	0	44	102	1048576	14	4457
2026-01-24 01:25:40.01	243.95	23.73	-27.5	-29.6	15.3	1.75e-04	0	44	102	1048576	14	4585
2026-01-24 01:25:41.01	243.80	23.60	-27.4	-29.4	15.3	0.00e+00	0	44	102	1048576	14	4536
2026-01-24 01:25:42.02	243.65	23.47	-27.4	-29.5	15.3	0.00e+00	0	44	102	1048576	14	4567
2026-01-24 01:25:43.02	243.51	23.34	-27.5	-29.2	15.2	0.00e+00	0	44	102	1048576	15	4361
2026-01-24 01:25:44.03	243.36	23.21	-27.7	-29.6	14.9	1.58e-04	0	44	102	1048576	15	4488
2026-01-24 01:25:45.03	243.22	23.08	-27.3	-28.8	15.4	1.75e-05	0	44	102	1048576	15	4245
2026-01-24 01:25:46.04	243.08	22.95	-27.5	-29.6	15.2	0.00e+00	0	44	102	1048576	14	4590
2026-01-24 01:25:47.05	242.94	22.83	-27.3	-29.2	15.4	3.16e-04	0	44	102	1048576	14	4476
2026-01-24 01:25:48.05	242.80	22.70	-27.3	-29.2	15.4	0.00e+00	0	44	102	1048576	14	4491
2026-01-24 01:25:49.05	242.66	22.57	-27.4	-29.3	15.3	0.00e+00	0	44	102	1048576	14	4519
2026-01-24 01:25:50.06	242.52	22.45	-27.4	-29.5	15.2	3.06e-04	0	44	102	1048576	14	4563
2026-01-24 01:25:51.06	242.39	22.32	-27.3	-29.1	15.5	0.00e+00	0	44	102	1048576	14	4457
2026-01-24 01:25:52.06	242.25	22.20	-27.1	-28.6	15.7	0.00e+00	0	44	102	1048576	14	4318
2026-01-24 01:25:53.07	242.12	22.07	-27.0	-28.4	15.8	0.00e+00	0	44	102	1048576	14	4259
2026-01-24 01:25:54.08	241.99	21.95	-27.1	-28.7	15.7	0.00e+00	0	44	102	1048576	14	4326
2026-01-24 01:25:55.08	241.85	21.82	-27.1	-28.7	15.7	0.00e+00	0	44	102	1048576	14	4339
2026-01-24 01:25:56.09	241.72	21.70	-27.2	-28.9	15.6	0.00e+00	0	44	102	1048576	14	4400
2026-01-24 01:25:57.08	241.60	21.58	-27.1	-28.8	15.6	3.11e-04	0	44	102	1048576	14	4364
2026-01-24 01:25:58.09	241.47	21.46	-27.0	-28.6	15.7	0.00e+00	0	44	102	1048576	14	4312
2026-01-24 01:25:59.09	241.34	21.33	-26.9	-28.4	15.8	0.00e+00	0	44	102	1048576	14	4245
2026-01-24 01:26:00.09	241.21	21.21	-27.0	-28.9	15.8	0.00e+00	0	44	102	1048576	13	4516
2026-01-24 01:26:01.09	241.09	21.09	-26.8	-28.6	16.0	0.00e+00	0	44	102	1048576	13	4419
2026-01-24 01:26:02.09	240.97	20.97	-26.8	-28.5	16.0	4.48e-04	0	44	102	1048576	13	4394
2026-01-24 01:26:03.10	240.84	20.85	-26.8	-28.4	16.0	0.00e+00	0	44	102	1048576	13	4376
2026-01-24 01:26:04.10	240.72	20.73	-26.6	-28.2	16.2	0.00e+00	0	44	102	1048576	13	4305
2026-01-24 01:26:05.10	240.60	20.61	-26.5	-28.0	16.3	0.00e+00	0	44	102	1048576	13	4261
2026-01-24 01:26:06.11	240.48	20.49	-26.0	-27.7	16.0	3.62e-04	0	44	102	1048576	13	4360
2026-01-24 01:26:07.11	240.36	20.38	-26.6	-28.2	14.5	4.25e-04	0	44	102	1048576	13	4305
2026-01-24 01:26:08.12	240.24	20.26	-26.8	-28.5	14.8	2.73e-03	0	44	102	1048576	13	4385
2026-01-24 01:26:09.12	240.12	20.14	-26.5	-28.0	16.2	0.00e+00	0	44	102	1048576	13	4247
2026-01-24 01:26:10.13	240.01	20.02	-26.5	-27.9	16.2	0.00e+00	0	44	102	1048576	13	4234
2026-01-24 01:26:11.13	239.89	19.91	-26.5	-27.9	16.2	0.00e+00	0	44	102	1048576	13	4262
2026-01-24 01:26:12.13	239.78	19.79	-26.6	-28.2	16.2	0.00e+00	0	44	102	1048576	13	4311
2026-01-24 01:26:13.13	239.66	19.67	-26.7	-28.3	16.1	3.28e-03	0	44	102	1048576	13	4330
2026-01-24 01:26:14.13	239.55	19.56	-26.6	-28.2	16.1	0.00e+00	0	44	102	1048576	13	4309
2026-01-24 01:26:15.13	239.44	19.44	-26.7	-28.4	16.0	0.00e+00	0	44	102	1048576	13	4354
2026-01-24 01:26:16.13	239.33	19.33	-26.9	-28.8	15.8	0.00e+00	0	44	102	1048576	13	4475
2026-01-24 01:26:17.14	239.22	19.21	-26.8	-28.7	15.8	1.04e-04	0	44	102	1048576	13	4450
2026-01-24 01:26:18.14	239.11	19.10	-27.1	-28.7	15.6	1.50e-04	0	44	102	1048576	14	4340
2026-01-24 01:26:19.15	239.00	18.99	-27.2	-28.9	15.4	3.88e-03	0	44	102	1048576	14	4396
2026-01-24 01:26:20.16	238.89	18.87	-27.2	-28.9	15.5	4.43e-03	0	44	102	1048576	14	4400
2026-01-24 01:26:21.17	238.78	18.76	-27.2	-29.0	15.3	0.00e+00	0	44	102	1048576	14	4441
2026-01-24 01:26:22.17	238.67	18.65	-27.1	-28.8	15.5	0.00e+00	0	44	102	1048576	14	4357
2026-01-24 01:26:23.18	238.57	18.54	-27.2	-28.9	15.4	4.52e-03	0	44	102	1048576	14	4396
2026-01-24 01:26:24.17	238.46	18.43	-27.1	-28.8	15.5	5.74e-04	0	44	102	1048576	14	4377
2026-01-24 01:26:25.18	238.36	18.31	-27.3	-29.1	15.3	4.42e-03	0	44	102	1048576	14	4454
2026-01-24 01:26:26.19	238.26	18.20	-26.6	-28.5	15.5	0.00e+00	0	44	102	1048576	13	4515
2026-01-24 01:26:27.19	238.15	18.09	-26.7	-28.4	14.3	1.85e-03	0	44	102	1048576	13	4385
2026-01-24 01:26:28.19	238.05	17.98	-26.7	-28.3	16.0	4.46e-03	0	44	102	1048576	13	4349
2026-01-24 01:26:29.19	237.95	17.87	-26.7	-28.4	15.9	4.44e-03	0	44	102	1048576	13	4366
2026-01-24 01:26:30.20	237.85	17.76	-26.8	-28.7	15.7	2.14e-03	0	44	102	1048576	13	4449
2026-01-24 01:26:31.20	237.75	17.66	-26.7	-28.3	16.0	4.50e-03	0	44	102	1048576	13	4348
2026-01-24 01:26:32.21	237.65	17.55	-26.7	-28.4	15.9	4.33e-03	0	44	102	1048576	13	4378
2026-01-24 01:26:33.21	237.55	17.44	-26.9	-28.7	15.7	2.55e-03	0	44	102	1048576	13	4460
2026-01-24 01:26:34.22	237.46	17.33	-26.8	-28.6	15.7	4.39e-03	0	44	102	1048576	13	4459
2026-01-24 01:26:35.22	237.36	17.23	-27.0	-28.6	15.5	7.35e-03	0	44	102	1048576	14	4328
2026-01-24 01:26:36.23	237.26	17.12	-27.1	-28.7	15.5	5.94e-03	0	44	102	1048576	14	4347
2026-01-24 01:26:37.23	237.17	17.01	-27.1	-28.8	15.4	0.00e+00	0	44	102	1048576	14	4377
2026-01-24 01:26:38.24	237.07	16.91	-27.1	-28.8	15.4	4.56e-03	0	44	102	1048576	14	4369
2026-01-24 01:26:39.25	236.98	16.80	-27.2	-29.0	15.3	2.01e-03	0	44	102	1048576	14	4443
2026-01-24 01:26:40.26	236.89	16.69	-27.3	-29.2	15.2	4.24e-03	0	44	102	1048576	14	4487
2026-01-24 01:26:41.26	236.79	16.59	-27.4	-29.4	15.0	7.21e-03	0	44	102	1048576	14	4564
2026-01-24 01:26:42.26	236.70	16.48	-27.5	-29.6	14.9	3.28e-03	0	44	102	1048576	14	4608
2026-01-24 01:26:43.27	236.61	16.38	-27.5	-29.3	14.8	0.00e+00	0	44	102	1048576	15	4400
2026-01-24 01:26:44.27	236.52	16.28	-27.6	-29.5	14.7	2.23e-03	0	44	102	1048576	15	4483
2026-01-24 01:26:45.27	236.43	16.17	-27.6	-29.5	14.7	3.53e-03	0	44	102	1048576	15	4480
2026-01-24 01:26:46.27	236.34	16.07	-27.7	-29.7	14.6	0.00e+00	0	44	102	1048576	15	4520
2026-01-24 01:26:47.28	236.25	15.97	-27.6	-29.4	14.7	3.30e-03	0	44	102	1048576	15	4439
2026-01-24 01:26:48.28	236.16	15.87	-27.6	-29.4	14.8	3.30e-03	0	44	102	1048576	15	4427
2026-01-24 01:26:49.28	236.08	15.76	-27.7	-29.7	14.6	7.00e-07	0	44	102	1048576	15	4530
2026-01-24 01:26:50.29	235.99	15.66	-27.6	-29.4	14.7	6.89e-03	0	44	102	1048576	15	4439
2026-01-24 01:26:51.29	235.90	15.56	-27.5	-29.3	14.8	3.07e-03	0	44	102	1048576	15	4409
2026-01-24 01:26:52.30	235.82	15.46	-27.5	-29.3	14.8	0.00e+00	0	44	102	1048576	15	4398
2026-01-24 01:26:53.30	235.73	15.36	-27.3	-29.3	15.0	3.19e-03	0	44	102	1048576	14	4537
2026-01-24 01:26:54.31	235.65	15.26	-27.3	-29.2	15.1	1.30e-04	0	44	102	1048576	14	4504
2026-01-24 01:26:55.32	235.56	15.16	-27.3	-29.2	15.1	7.00e-07	0	44	102	1048576	14	4494
2026-01-24 01:26:56.32	235.48	15.06	-27.2	-29.0	15.2	3.24e-03	0	44	102	1048576	14	4430
2026-01-24 01:26:57.33	235.40	14.96	-27.2	-29.1	15.2	3.09e-03	0	44	102	1048576	14	4448
2026-01-24 01:26:58.33	235.32	14.86	-27.2	-29.1	15.1	0.00e+00	0	44	102	1048576	14	4460
2026-01-24 01:26:59.33	235.23	14.76	-27.2	-29.0	15.2	0.00e+00	0	44	102	1048576	14	4425
2026-01-24 01:27:00.33	235.15	14.67	-27.2	-29.0	15.2	3.14e-04	0	44	102	1048576	14	4430
2026-01-24 01:27:01.34	235.07	14.57	-27.3	-29.1	15.1	6.10e-06	0	44	102	1048576	14	4474
2026-01-24 01:27:02.34	234.99	14.47	-27.2	-29.0	15.2	2.37e-03	0	44	102	1048576	14	4446
2026-01-24 01:27:03.35	234.91	14.37	-27.3	-29.2	15.1	0.00e+00	0	44	102	1048576	14	4493
2026-01-24 01:27:04.35	234.83	14.28	-27.3	-29.2	15.1	0.00e+00	0	44	102	1048576	14	4484
2026-01-24 01:27:05.35	234.76	14.18	-27.3	-29.3	15.0	0.00e+00	0	44	102	1048576	14	4534
2026-01-24 01:27:06.36	234.68	14.08	-27.5	-29.6	14.8	0.00e+00	0	44	102	1048576	14	4620
2026-01-24 01:27:07.37	234.60	13.99	-27.3	-29.3	15.0	0.00e+00	0	44	102	1048576	14	4520
2026-01-24 01:27:08.37	234.52	13.89	-27.3	-29.2	15.0	0.00e+00	0	44	102	1048576	14	4494
2026-01-24 01:27:09.37	234.45	13.80	-27.4	-29.5	14.9	0.00e+00	0	44	102	1048576	14	4569
2026-01-24 01:27:10.38	234.37	13.70	-27.5	-29.2	14.7	7.00e-07	0	44	102	1048576	15	4380
2026-01-24 01:27:11.39	234.30	13.61	-27.5	-29.3	14.7	0.00e+00	0	44	102	1048576	15	4403
2026-01-24 01:27:12.39	234.22	13.51	-27.7	-29.8	14.4	1.50e-06	0	44	102	1048576	15	4558
2026-01-24 01:27:13.40	234.15	13.42	-27.8	-29.9	14.3	2.12e-04	0	44	102	1048576	15	4598
2026-01-24 01:27:14.40	234.07	13.32	-27.6	-29.5	14.6	3.23e-04	0	44	102	1048576	15	4466
2026-01-24 01:27:15.41	234.00	13.23	-27.5	-29.3	14.6	7.00e-07	0	44	102	1048576	15	4429
2026-01-24 01:27:16.42	233.93	13.14	-27.5	-29.3	14.6	0.00e+00	0	44	102	1048576	15	4422
2026-01-24 01:27:17.42	233.85	13.04	-27.5	-29.5	14.5	7.00e-07	0	44	102	1048576	15	4495
2026-01-24 01:27:18.43	233.78	12.95	-27.6	-29.6	14.4	1.72e-04	0	44	102	1048576	15	4527
2026-01-24 01:27:19.43	233.71	12.86	-27.6	-29.4	14.5	3.00e-06	0	44	102	1048576	15	4465
2026-01-24 01:27:20.44	233.64	12.77	-27.6	-29.5	14.5	0.00e+00	0	44	102	1048576	15	4465
2026-01-24 01:27:21.45	233.57	12.68	-27.6	-29.6	14.4	7.00e-07	0	44	102	1048576	15	4513
2026-01-24 01:27:22.45	233.50	12.58	-27.7	-29.7	14.4	1.50e-06	0	44	102	1048576	15	4529
2026-01-24 01:27:23.45	233.43	12.49	-27.7	-29.7	14.3	0.00e+00	0	44	102	1048576	15	4543
2026-01-24 01:27:24.45	233.36	12.40	-27.8	-30.0	14.2	1.50e-06	0	44	102	1048576	15	4643
2026-01-24 01:27:25.46	233.29	12.31	-27.9	-30.1	14.1	5.30e-06	0	44	102	1048576	15	4666
2026-01-24 01:27:26.46	233.22	12.22	-27.8	-29.9	14.2	3.71e-04	0	44	102	1048576	15	4603
2026-01-24 01:27:27.46	233.15	12.13	-27.7	-29.7	14.3	1.29e-05	0	44	102	1048576	15	4556
2026-01-24 01:27:28.46	233.09	12.04	-27.7	-29.7	14.4	3.80e-06	0	44	102	1048576	15	4529
2026-01-24 01:27:29.47	233.02	11.96	-27.8	-30.0	14.2	1.50e-06	0	44	102	1048576	15	4634
2026-01-24 01:27:30.47	232.95	11.87	-27.8	-30.0	14.1	2.95e-04	0	44	102	1048576	15	4651
2026-01-24 01:27:31.48	232.89	11.78	-27.8	-30.0	14.2	1.83e-05	0	44	102	1048576	15	4623
2026-01-24 01:27:32.48	232.82	11.69	-27.9	-30.1	14.1	1.50e-06	0	44	102	1048576	15	4668
2026-01-24 01:27:33.49	232.75	11.60	-27.9	-30.2	14.0	1.50e-06	0	44	102	1048576	15	4687
2026-01-24 01:27:34.49	232.69	11.51	-27.9	-30.1	14.0	5.30e-06	0	44	102	1048576	15	4677
2026-01-24 01:27:35.49	232.63	11.43	-27.8	-30.1	14.1	7.00e-07	0	44	102	1048576	15	4667
2026-01-24 01:27:36.49	232.56	11.34	-27.9	-30.3	13.9	1.06e-04	0	44	102	1048576	15	4720
2026-01-24 01:27:37.49	232.50	11.25	-28.1	-30.3	13.8	4.50e-06	0	44	102	1048576	16	4594
2026-01-24 01:27:38.50	232.43	11.17	-28.3	-30.6	13.6	5.30e-06	0	44	102	1048576	16	4701
2026-01-24 01:27:39.51	232.37	11.08	-27.6	-30.0	13.5	1.23e-04	0	44	102	1048576	16	4772
2026-01-24 01:27:40.51	232.31	10.99	-28.2	-30.3	12.2	2.79e-04	0	44	102	1048576	16	4615
2026-01-24 01:27:41.51	232.25	10.91	-28.1	-30.2	13.8	6.10e-06	0	44	102	1048576	16	4582
2026-01-24 01:27:42.51	232.18	10.82	-28.2	-30.4	13.6	3.80e-06	0	44	102	1048576	16	4627
2026-01-24 01:27:43.52	232.12	10.74	-28.2	-30.4	13.6	1.60e-05	0	44	102	1048576	16	4637
2026-01-24 01:27:44.52	232.06	10.65	-28.3	-30.7	13.5	4.62e-04	0	44	102	1048576	16	4742
2026-01-24 01:27:45.52	232.00	10.57	-28.4	-30.9	13.4	1.52e-05	0	44	102	1048576	16	4800
2026-01-24 01:27:46.53	231.94	10.48	-28.3	-30.6	13.5	1.14e-05	0	44	102	1048576	16	4716
2026-01-24 01:27:47.53	231.88	10.40	-28.4	-30.8	13.4	1.06e-05	0	44	102	1048576	16	4774
2026-01-24 01:27:48.53	231.82	10.32	-28.3	-30.7	13.4	3.63e-03	0	44	102	1048576	16	4750
2026-01-24 01:27:49.54	231.76	10.23	-28.4	-31.0	13.3	1.44e-05	0	44	102	1048576	16	4847
2026-01-24 01:27:50.54	231.70	10.15	-28.5	-30.7	13.2	2.74e-05	0	44	102	1048576	17	4617
2026-01-24 01:27:51.54	231.64	10.06	-28.4	-30.9	13.3	2.28e-05	0	44	102	1048576	16	4799
2026-01-24 01:27:52.55	231.59	9.98	-28.4	-31.0	13.3	3.08e-03	0	44	102	1048576	16	4839
2026-01-24 01:27:53.55	231.53	9.90	-28.5	-31.1	13.2	2.10e-04	0	44	102	1048576	16	4877
2026-01-24 01:27:54.55	231.47	9.82	-28.5	-30.6	13.2	3.18e-03	0	44	102	1048576	17	4611
2026-01-24 01:27:55.55	231.41	9.73	-28.6	-31.0	13.0	3.81e-05	0	44	102	1048576	17	4721
2026-01-24 01:27:56.56	231.36	9.65	-28.6	-30.8	13.1	3.99e-04	0	44	102	1048576	17	4680
2026-01-24 01:27:57.56	231.30	9.57	-28.6	-31.0	12.9	3.56e-03	0	44	102	1048576	17	4734
2026-01-24 01:27:58.55	231.24	9.49	-28.6	-31.0	13.0	3.44e-03	0	44	102	1048576	17	4723
2026-01-24 01:27:59.56	231.19	9.41	-28.6	-31.0	12.9	6.87e-04	0	44	102	1048576	17	4740
2026-01-24 01:28:00.56	231.13	9.33	-28.7	-31.1	12.9	3.90e-03	0	44	102	1048576	17	4762
2026-01-24 01:28:01.57	231.08	9.25	-28.8	-31.3	12.7	7.40e-05	0	44	102	1048576	17	4838
2026-01-24 01:28:02.57	231.02	9.17	-28.7	-31.3	12.7	4.74e-04	0	44	102	1048576	17	4824
2026-01-24 01:28:03.58	230.97	9.09	-28.7	-31.2	12.8	4.01e-03	0	44	102	1048576	17	4787
2026-01-24 01:28:04.58	230.91	9.01	-28.7	-31.3	12.7	4.28e-03	0	44	102	1048576	17	4817
2026-01-24 01:28:05.59	230.86	8.93	-28.9	-31.6	12.5	1.35e-03	0	44	102	1048576	17	4934
2026-01-24 01:28:06.59	230.81	8.85	-28.9	-31.7	12.5	1.82e-04	0	44	102	1048576	17	4955
2026-01-24 01:28:07.60	230.75	8.77	-28.9	-31.6	12.4	4.14e-03	0	44	102	1048576	17	4956
2026-01-24 01:28:08.60	230.70	8.69	-29.1	-31.8	12.1	2.25e-03	0	44	102	1048576	18	4887
2026-01-24 01:28:09.61	230.65	8.61	-29.2	-31.9	11.9	4.56e-03	0	44	102	1048576	18	4938
2026-01-24 01:28:10.61	230.59	8.53	-29.2	-32.0	11.9	6.36e-03	0	44	102	1048576	18	4984
2026-01-24 01:28:11.62	230.54	8.45	-29.2	-32.1	11.8	2.31e-03	0	44	102	1048576	18	5004
2026-01-24 01:28:12.62	230.49	8.37	-29.3	-32.1	11.8	4.50e-03	0	44	102	1048576	18	5020
2026-01-24 01:28:13.62	230.44	8.29	-29.3	-32.2	11.7	6.07e-03	0	44	102	1048576	18	5038
2026-01-24 01:28:14.63	230.39	8.22	-29.3	-32.2	11.7	2.61e-03	0	44	102	1048576	18	5035
2026-01-24 01:28:15.63	230.34	8.14	-29.4	-32.5	11.5	4.28e-03	0	44	102	1048576	18	5155
2026-01-24 01:28:16.63	230.29	8.06	-29.4	-32.7	11.4	2.46e-03	0	44	102	1048576	18	5224
2026-01-24 01:28:17.64	230.23	7.98	-29.5	-32.4	11.2	2.57e-03	0	44	102	1048576	19	5002
2026-01-24 01:28:18.64	230.18	7.91	-29.7	-32.9	10.9	6.01e-03	0	44	102	1048576	19	5226
2026-01-24 01:28:19.64	230.13	7.83	-29.8	-33.1	10.7	9.14e-03	0	44	102	1048576	19	5286
2026-01-24 01:28:20.65	230.08	7.75	-29.5	-32.3	11.3	3.37e-03	0	44	102	1048576	19	4980
2026-01-24 01:28:21.65	230.04	7.68	-29.3	-32.3	11.6	6.64e-04	0	44	102	1048576	18	5076
2026-01-24 01:28:22.66	229.99	7.60	-29.3	-32.3	11.6	6.35e-04	0	44	102	1048576	18	5091
2026-01-24 01:28:23.66	229.94	7.52	-29.4	-32.7	11.3	1.30e-03	0	44	102	1048576	18	5231
2026-01-24 01:28:24.67	229.89	7.45	-29.4	-32.6	11.4	4.94e-03	0	44	102	1048576	18	5200
2026-01-24 01:28:25.67	229.84	7.37	-29.5	-32.8	11.2	6.91e-03	0	44	102	1048576	18	5284
2026-01-24 01:28:26.67	229.79	7.30	-29.5	-32.4	11.1	2.64e-03	0	44	102	1048576	19	5022
2026-01-24 01:28:27.67	229.74	7.22	-29.7	-33.0	10.7	2.79e-03	0	44	102	1048576	19	5251
2026-01-24 01:28:28.68	229.70	7.15	-29.7	-32.9	10.7	3.00e-03	0	44	102	1048576	19	5230
2026-01-24 01:28:29.68	229.65	7.07	-32.9	-44.9	3.8	1.49e+00	0	44	104	1048576	25	14330
2026-01-24 01:28:30.69	229.60	7.00	-33.4	-45.6	3.8	1.49e+00	0	44	104	1048576	26	14627
