passes_logs/2026/01/24/R2M6_AANII_01/R2M6_AANII_01__20260124_160125_FENGYUN_3E_rec.log

#Pass ID: 20260124_160125_FENGYUN 3E
#Satellite: FENGYUN 3E
#Configuration: FENGYUN 3E
#almurnet v.1.7.20240730
#Start time: 2026-01-24 16:01:27

#Version: 2.2.20231116
#Station: R2M6_AANII_01
#Location: 30.233357 lon 59.946436 lat
#TLE: 1 49008U 21062A   26024.23699167 -.00000179  00000+0 -63840-4 0  9992
#TLE: 2 49008  98.7493  29.2570 0002404 119.1229 241.0188 14.19886095236155

#Time	Az	El	Level	Level2	SNR	BER	BlckErr	Temp	State	Recorded	gain1	gain2
2026-01-24 16:01:27.15	206.44	7.14	-28.3	-30.1	5.6	7.54e-01	0	42	0	0	16	4436
2026-01-24 16:01:28.14	206.53	7.20	-29.0	-30.8	5.4	7.63e-01	0	42	104	0	18	4427
2026-01-24 16:01:29.15	206.61	7.27	-29.3	-31.5	9.8	1.08e-02	0	42	0	0	18	4664
2026-01-24 16:01:30.16	206.70	7.34	-28.9	-30.6	10.4	5.59e-03	0	42	0	7340032	18	4365
2026-01-24 16:01:31.15	206.79	7.41	-28.5	-29.6	11.0	2.42e-03	0	42	0	14680064	18	4074
2026-01-24 16:01:32.16	206.87	7.47	-28.2	-29.2	11.6	6.71e-04	0	42	0	22020096	17	4067
2026-01-24 16:01:33.16	206.96	7.54	-27.9	-28.6	12.0	3.90e-04	0	42	102	25165824	17	3899
2026-01-24 16:01:34.16	207.05	7.61	-27.6	-28.4	12.4	1.45e-04	0	42	102	25165824	16	3945
2026-01-24 16:01:35.17	207.14	7.68	-27.1	-27.6	13.0	4.46e-05	0	42	102	25165824	15	3845
2026-01-24 16:01:36.17	207.23	7.74	-27.2	-27.9	12.9	4.80e-05	0	42	102	25165824	15	3923
2026-01-24 16:01:37.17	207.31	7.81	-27.1	-27.7	13.1	2.28e-05	0	42	102	25165824	15	3854
2026-01-24 16:01:38.17	207.40	7.88	-27.1	-27.6	13.1	1.83e-05	0	42	102	25165824	15	3825
2026-01-24 16:01:39.18	207.49	7.95	-27.1	-27.7	13.0	2.17e-05	0	42	102	25165824	15	3867
2026-01-24 16:01:40.18	207.58	8.02	-27.0	-27.9	13.2	9.10e-06	0	42	102	25165824	14	4017
2026-01-24 16:01:41.18	207.67	8.08	-27.3	-28.7	12.8	3.66e-05	0	42	102	25165824	14	4226
2026-01-24 16:01:42.18	207.76	8.15	-26.9	-27.8	13.3	1.60e-05	0	42	102	25165824	14	3978
2026-01-24 16:01:43.18	207.86	8.22	-26.5	-26.9	13.8	6.80e-06	0	42	102	25165824	14	3752
2026-01-24 16:01:44.18	207.95	8.29	-26.3	-26.8	14.2	3.40e-06	0	42	102	25165824	13	3823
2026-01-24 16:01:45.18	208.04	8.36	-26.4	-27.0	14.1	1.10e-06	0	42	102	25165824	13	3885
2026-01-24 16:01:46.18	208.13	8.43	-26.4	-27.2	14.0	3.40e-06	0	42	102	25165824	13	3921
2026-01-24 16:01:47.19	208.23	8.50	-26.5	-27.4	13.9	3.40e-06	0	42	102	25165824	13	3973
2026-01-24 16:01:48.19	208.32	8.57	-26.3	-26.9	14.1	1.10e-06	0	42	102	25165824	13	3852
2026-01-24 16:01:49.20	208.41	8.64	-26.2	-26.7	14.3	2.20e-06	0	42	102	25165824	13	3810
2026-01-24 16:01:50.19	208.51	8.71	-26.5	-27.2	14.0	1.10e-06	0	42	102	25165824	13	3929
2026-01-24 16:01:51.19	208.60	8.78	-26.4	-27.2	14.0	1.10e-06	0	42	102	25165824	13	3921
2026-01-24 16:01:52.19	208.70	8.84	-26.4	-27.1	14.1	1.10e-06	0	42	102	25165824	13	3893
2026-01-24 16:01:53.19	208.79	8.91	-26.3	-26.9	14.2	0.00e+00	0	42	102	25165824	13	3857
2026-01-24 16:01:54.20	208.89	8.99	-26.3	-26.9	14.2	1.10e-06	0	43	102	25165824	13	3860
2026-01-24 16:01:55.21	208.98	9.06	-26.6	-27.4	13.9	4.50e-06	0	42	102	25165824	13	3984
2026-01-24 16:01:56.22	209.08	9.13	-26.4	-27.1	14.1	1.10e-06	0	43	102	25165824	13	3894
2026-01-24 16:01:57.22	209.18	9.20	-26.3	-26.8	14.3	0.00e+00	0	43	102	25165824	13	3836
2026-01-24 16:01:58.23	209.28	9.27	-26.5	-27.2	14.0	4.50e-06	0	42	102	25165824	13	3939
2026-01-24 16:01:59.23	209.38	9.34	-26.4	-27.0	14.2	4.50e-06	0	43	102	25165824	13	3861
2026-01-24 16:02:00.23	209.47	9.41	-26.4	-27.1	14.1	0.00e+00	0	43	102	25165824	13	3893
2026-01-24 16:02:01.24	209.57	9.48	-26.4	-27.0	14.1	1.10e-06	0	43	102	25165824	13	3882
2026-01-24 16:02:02.24	209.67	9.55	-26.2	-26.7	14.4	0.00e+00	0	43	102	25165824	13	3794
2026-01-24 16:02:03.25	209.77	9.62	-26.3	-26.8	14.3	0.00e+00	0	43	102	25165824	13	3831
2026-01-24 16:02:04.25	209.88	9.70	-26.4	-27.0	14.2	1.10e-06	0	43	102	25165824	13	3878
2026-01-24 16:02:05.25	209.98	9.77	-26.1	-26.5	14.5	0.00e+00	0	43	102	25165824	13	3737
2026-01-24 16:02:06.25	210.08	9.84	-26.3	-26.7	14.4	1.10e-06	0	43	102	25165824	13	3808
2026-01-24 16:02:07.25	210.18	9.91	-26.2	-26.6	14.4	0.00e+00	0	43	102	25165824	13	3772
2026-01-24 16:02:08.25	210.28	9.98	-26.3	-26.8	14.3	0.00e+00	0	43	102	25165824	13	3836
2026-01-24 16:02:09.25	210.38	10.05	-26.2	-26.7	14.3	1.10e-06	0	43	102	25165824	13	3814
2026-01-24 16:02:10.24	210.49	10.12	-26.2	-26.6	14.5	1.10e-06	0	43	102	25165824	13	3767
2026-01-24 16:02:11.25	210.59	10.20	-26.1	-26.3	14.6	0.00e+00	0	43	102	25165824	13	3711
2026-01-24 16:02:12.26	210.70	10.27	-26.1	-26.4	14.5	1.10e-06	0	43	102	25165824	13	3738
2026-01-24 16:02:13.27	210.80	10.34	-26.1	-26.4	14.6	0.00e+00	0	43	102	25165824	13	3722
2026-01-24 16:02:14.27	210.91	10.42	-26.1	-26.4	14.6	0.00e+00	0	43	102	25165824	13	3740
2026-01-24 16:02:15.27	211.01	10.49	-26.2	-26.5	14.5	1.10e-06	0	43	102	25165824	13	3758
2026-01-24 16:02:16.28	211.12	10.56	-26.1	-26.5	14.5	0.00e+00	0	43	102	25165824	13	3756
2026-01-24 16:02:17.28	211.23	10.64	-26.2	-26.5	14.5	1.10e-06	0	43	102	25165824	13	3766
2026-01-24 16:02:18.29	211.34	10.71	-26.1	-26.4	14.6	0.00e+00	0	43	102	25165824	13	3723
2026-01-24 16:02:19.30	211.44	10.78	-26.0	-26.2	14.7	0.00e+00	0	43	102	25165824	13	3686
2026-01-24 16:02:20.30	211.55	10.86	-26.1	-26.3	14.7	0.00e+00	0	43	102	25165824	13	3716
2026-01-24 16:02:21.30	211.66	10.93	-26.1	-26.4	14.6	0.00e+00	0	43	102	25165824	13	3732
2026-01-24 16:02:22.31	211.77	11.00	-26.1	-26.3	14.7	1.10e-06	0	43	102	25165824	13	3701
2026-01-24 16:02:23.32	211.88	11.08	-25.9	-26.6	14.8	0.00e+00	0	43	102	25165824	12	3862
2026-01-24 16:02:24.32	211.99	11.15	-25.9	-26.5	14.9	0.00e+00	0	43	102	25165824	12	3842
2026-01-24 16:02:25.32	212.10	11.23	-25.9	-26.5	14.9	0.00e+00	0	43	102	25165824	12	3851
2026-01-24 16:02:26.32	212.22	11.30	-26.0	-26.6	14.8	0.00e+00	0	43	102	25165824	12	3863
2026-01-24 16:02:27.33	212.33	11.38	-26.0	-26.6	14.8	0.00e+00	0	43	102	25165824	12	3878
2026-01-24 16:02:28.33	212.44	11.45	-25.9	-26.4	14.9	0.00e+00	0	43	102	25165824	12	3828
2026-01-24 16:02:29.33	212.55	11.52	-25.9	-26.5	14.9	0.00e+00	0	43	102	25165824	12	3862
2026-01-24 16:02:30.34	212.67	11.60	-26.0	-26.6	14.8	0.00e+00	0	43	102	25165824	12	3878
2026-01-24 16:02:31.35	212.79	11.68	-26.0	-26.7	14.8	0.00e+00	0	43	102	25165824	12	3910
2026-01-24 16:02:32.35	212.90	11.75	-26.0	-26.8	14.7	0.00e+00	0	43	102	25165824	12	3913
2026-01-24 16:02:33.36	213.02	11.83	-26.1	-26.8	14.7	1.10e-06	0	43	102	25165824	12	3931
2026-01-24 16:02:34.36	213.13	11.90	-26.1	-26.9	14.7	2.20e-06	0	43	102	25165824	12	3942
2026-01-24 16:02:35.36	213.25	11.98	-26.0	-26.7	14.8	0.00e+00	0	43	102	25165824	12	3893
2026-01-24 16:02:36.36	213.37	12.05	-26.0	-26.7	14.8	0.00e+00	0	43	102	25165824	12	3893
2026-01-24 16:02:37.37	213.49	12.13	-26.0	-26.8	14.8	0.00e+00	0	43	102	25165824	12	3919
2026-01-24 16:02:38.37	213.60	12.20	-25.8	-26.3	15.1	0.00e+00	0	43	102	25165824	12	3792
2026-01-24 16:02:39.37	213.72	12.28	-25.8	-26.2	15.1	0.00e+00	0	43	102	25165824	12	3782
2026-01-24 16:02:40.38	213.84	12.36	-25.8	-26.2	15.1	0.00e+00	0	43	102	25165824	12	3762
2026-01-24 16:02:41.38	213.96	12.43	-25.6	-25.8	15.3	0.00e+00	0	43	102	25165824	12	3690
2026-01-24 16:02:42.39	214.09	12.51	-25.8	-26.2	15.1	0.00e+00	0	43	102	25165824	12	3774
2026-01-24 16:02:43.38	214.21	12.58	-25.8	-26.1	15.2	0.00e+00	0	43	102	25165824	12	3755
2026-01-24 16:02:44.39	214.33	12.66	-25.8	-26.2	15.1	0.00e+00	0	43	102	25165824	12	3764
2026-01-24 16:02:45.39	214.45	12.74	-25.8	-26.2	15.2	0.00e+00	0	43	102	25165824	12	3764
2026-01-24 16:02:46.40	214.58	12.82	-25.8	-26.1	15.2	0.00e+00	0	43	102	25165824	12	3756
2026-01-24 16:02:47.41	214.70	12.89	-25.8	-26.3	15.1	0.00e+00	0	43	102	25165824	12	3785
2026-01-24 16:02:48.41	214.83	12.97	-25.8	-26.2	15.2	0.00e+00	0	43	102	25165824	12	3772
2026-01-24 16:02:49.42	214.95	13.05	-25.7	-26.1	15.2	0.00e+00	0	43	102	25165824	12	3739
2026-01-24 16:02:50.42	215.08	13.13	-25.7	-26.0	15.3	0.00e+00	0	43	102	25165824	12	3724
2026-01-24 16:02:51.42	215.20	13.20	-25.6	-25.7	15.4	0.00e+00	0	43	102	25165824	12	3653
2026-01-24 16:02:52.43	215.33	13.28	-25.5	-25.5	15.6	0.00e+00	0	43	102	25165824	12	3617
2026-01-24 16:02:53.43	215.46	13.36	-25.6	-25.7	15.5	0.00e+00	0	43	102	25165824	12	3643
2026-01-24 16:02:54.43	215.59	13.44	-25.4	-25.9	15.7	0.00e+00	0	44	102	25165824	11	3790
2026-01-24 16:02:55.43	215.72	13.51	-25.4	-25.8	15.7	0.00e+00	0	44	102	25165824	11	3775
2026-01-24 16:02:56.44	215.85	13.59	-25.5	-25.9	15.7	0.00e+00	0	43	102	25165824	11	3804
2026-01-24 16:02:57.44	215.98	13.67	-25.4	-25.8	15.8	0.00e+00	0	43	102	25165824	11	3768
2026-01-24 16:02:58.45	216.11	13.75	-25.5	-26.1	15.6	0.00e+00	0	43	102	25165824	11	3837
2026-01-24 16:02:59.45	216.24	13.83	-25.5	-26.1	15.6	0.00e+00	0	44	102	25165824	11	3852
2026-01-24 16:03:00.45	216.37	13.91	-25.6	-26.3	15.5	0.00e+00	0	43	102	25165824	11	3889
2026-01-24 16:03:01.46	216.51	13.99	-25.7	-26.4	15.5	0.00e+00	0	44	102	25165824	11	3919
2026-01-24 16:03:02.46	216.64	14.06	-25.8	-26.8	15.2	0.00e+00	0	43	102	25165824	11	4010
2026-01-24 16:03:03.46	216.78	14.14	-25.9	-26.9	15.2	1.10e-06	0	44	102	25165824	11	4044
2026-01-24 16:03:04.46	216.91	14.22	-25.8	-26.6	15.3	0.00e+00	0	44	102	25165824	11	3973
2026-01-24 16:03:05.47	217.05	14.30	-25.9	-26.9	15.2	0.00e+00	0	43	102	25165824	11	4043
2026-01-24 16:03:06.47	217.18	14.38	-25.9	-26.9	15.2	0.00e+00	0	43	102	25165824	11	4040
2026-01-24 16:03:07.46	217.32	14.46	-25.7	-26.5	15.4	0.00e+00	0	44	102	25165824	11	3945
2026-01-24 16:03:08.47	217.46	14.54	-25.7	-26.4	15.5	0.00e+00	0	44	102	25165824	11	3919
2026-01-24 16:03:09.47	217.60	14.62	-25.6	-26.3	15.5	0.00e+00	0	44	102	25165824	11	3899
2026-01-24 16:03:10.48	217.74	14.70	-25.7	-26.6	15.4	0.00e+00	0	44	102	25165824	11	3955
2026-01-24 16:03:11.48	217.88	14.78	-25.8	-26.7	15.3	0.00e+00	0	44	102	25165824	11	3986
2026-01-24 16:03:12.48	218.02	14.86	-25.5	-26.1	15.6	0.00e+00	0	43	102	25165824	11	3853
2026-01-24 16:03:13.48	218.16	14.94	-25.4	-25.9	15.7	0.00e+00	0	44	102	25165824	11	3800
2026-01-24 16:03:14.48	218.30	15.02	-25.2	-25.4	16.1	0.00e+00	0	44	102	25165824	11	3676
2026-01-24 16:03:15.48	218.45	15.10	-25.3	-25.6	16.0	0.00e+00	0	44	102	25165824	11	3721
2026-01-24 16:03:16.48	218.59	15.18	-25.3	-25.5	16.0	0.00e+00	0	44	102	25165824	11	3708
2026-01-24 16:03:17.48	218.73	15.26	-25.1	-25.2	16.1	0.00e+00	0	44	102	25165824	11	3646
2026-01-24 16:03:18.49	218.88	15.34	-25.2	-25.4	16.0	0.00e+00	0	44	102	25165824	11	3687
2026-01-24 16:03:19.49	219.03	15.42	-25.3	-25.7	15.9	0.00e+00	0	44	102	25165824	11	3738
2026-01-24 16:03:20.49	219.17	15.50	-25.3	-25.5	16.0	0.00e+00	0	44	102	25165824	11	3703
2026-01-24 16:03:21.49	219.32	15.58	-24.9	-24.7	16.4	0.00e+00	0	44	102	25165824	11	3519
2026-01-24 16:03:22.50	219.47	15.66	-24.9	-25.1	16.4	0.00e+00	0	44	102	25165824	10	3721
2026-01-24 16:03:23.50	219.62	15.74	-25.1	-25.7	16.2	0.00e+00	0	44	102	25165824	10	3846
2026-01-24 16:03:24.51	219.77	15.82	-25.2	-25.9	16.1	0.00e+00	0	44	102	25165824	10	3889
2026-01-24 16:03:25.50	219.92	15.90	-25.3	-26.0	16.0	0.00e+00	0	44	102	25165824	10	3929
2026-01-24 16:03:26.50	220.07	15.98	-25.3	-26.1	15.9	0.00e+00	0	44	102	25165824	10	3951
2026-01-24 16:03:27.51	220.22	16.07	-25.3	-26.1	16.0	0.00e+00	0	44	102	25165824	10	3951
2026-01-24 16:03:28.51	220.38	16.15	-25.4	-26.3	15.9	0.00e+00	0	44	102	25165824	10	3984
2026-01-24 16:03:29.52	220.53	16.23	-25.4	-26.3	15.9	0.00e+00	0	44	102	25165824	10	3997
2026-01-24 16:03:30.52	220.69	16.31	-25.6	-26.8	15.6	0.00e+00	0	44	102	25165824	10	4113
2026-01-24 16:03:31.52	220.84	16.39	-25.6	-26.1	15.7	1.10e-06	0	44	102	25165824	11	3854
2026-01-24 16:03:32.53	221.00	16.47	-25.2	-25.4	16.1	0.00e+00	0	44	102	25165824	11	3670
2026-01-24 16:03:33.53	221.16	16.55	-24.9	-24.8	16.5	0.00e+00	0	44	102	25165824	11	3545
2026-01-24 16:03:34.53	221.32	16.64	-24.9	-25.2	16.5	1.10e-06	0	44	102	25165824	10	3729
2026-01-24 16:03:35.54	221.48	16.72	-24.8	-25.0	16.6	0.00e+00	0	44	102	25165824	10	3689
2026-01-24 16:03:36.54	221.64	16.80	-24.7	-24.9	16.7	0.00e+00	0	44	102	25165824	10	3655
2026-01-24 16:03:37.55	221.80	16.88	-24.7	-24.8	16.7	1.10e-06	0	44	102	25165824	10	3635
2026-01-24 16:03:38.55	221.96	16.96	-24.7	-24.8	16.7	0.00e+00	0	44	102	25165824	10	3632
2026-01-24 16:03:39.56	222.12	17.05	-24.6	-24.5	16.9	0.00e+00	0	44	102	25165824	10	3580
2026-01-24 16:03:40.57	222.29	17.13	-24.5	-24.4	16.9	0.00e+00	0	44	102	25165824	10	3560
2026-01-24 16:03:41.57	222.45	17.21	-24.5	-24.3	17.0	0.00e+00	0	44	102	25165824	10	3526
2026-01-24 16:03:42.58	222.62	17.29	-24.3	-24.4	17.2	0.00e+00	0	44	102	25165824	9	3648
2026-01-24 16:03:43.58	222.78	17.38	-24.3	-24.5	17.1	0.00e+00	0	44	102	25165824	9	3676
2026-01-24 16:03:44.58	222.95	17.46	-24.6	-25.0	16.9	0.00e+00	0	44	102	25165824	9	3782
2026-01-24 16:03:45.58	223.12	17.54	-24.4	-24.6	17.1	0.00e+00	0	44	102	25165824	9	3690
2026-01-24 16:03:46.58	223.29	17.62	-24.2	-24.2	17.3	0.00e+00	0	44	102	25165824	9	3610
2026-01-24 16:03:47.59	223.46	17.71	-24.3	-24.5	17.2	0.00e+00	0	44	102	25165824	9	3672
2026-01-24 16:03:48.60	223.63	17.79	-24.4	-24.6	17.1	0.00e+00	0	44	102	25165824	9	3694
2026-01-24 16:03:49.61	223.80	17.87	-24.3	-24.5	17.1	0.00e+00	0	44	102	25165824	9	3683
2026-01-24 16:03:50.61	223.97	17.96	-24.4	-24.7	17.1	0.00e+00	0	44	102	25165824	9	3715
2026-01-24 16:03:51.62	224.15	18.04	-24.4	-24.7	17.0	0.00e+00	0	44	102	25165824	9	3723
2026-01-24 16:03:52.63	224.32	18.12	-24.4	-24.6	17.1	0.00e+00	0	44	102	25165824	9	3705
2026-01-24 16:03:53.63	224.50	18.20	-24.4	-24.6	17.1	0.00e+00	0	44	102	25165824	9	3694
2026-01-24 16:03:54.64	224.68	18.29	-24.3	-24.5	17.2	0.00e+00	0	44	102	25165824	9	3675
2026-01-24 16:03:55.64	224.85	18.37	-24.3	-24.5	17.2	0.00e+00	0	44	102	25165824	9	3678
2026-01-24 16:03:56.64	225.03	18.45	-24.3	-24.5	17.2	0.00e+00	0	44	102	25165824	9	3676
2026-01-24 16:03:57.65	225.21	18.54	-24.3	-24.5	17.2	0.00e+00	0	44	102	25165824	9	3662
2026-01-24 16:03:58.65	225.39	18.62	-24.2	-24.2	17.4	0.00e+00	0	44	102	25165824	9	3606
2026-01-24 16:03:59.66	225.57	18.70	-24.1	-24.1	17.4	0.00e+00	0	44	102	25165824	9	3577
2026-01-24 16:04:00.67	225.75	18.78	-24.2	-24.2	17.4	0.00e+00	0	44	102	25165824	9	3614
2026-01-24 16:04:01.66	225.93	18.87	-24.2	-24.2	17.4	0.00e+00	0	44	102	25165824	9	3594
2026-01-24 16:04:02.67	226.12	18.95	-24.2	-24.1	17.4	0.00e+00	0	44	102	25165824	9	3592
2026-01-24 16:04:03.67	226.30	19.03	-24.1	-24.0	17.5	0.00e+00	0	44	102	25165824	9	3557
2026-01-24 16:04:04.67	226.49	19.11	-24.0	-23.9	17.6	0.00e+00	0	44	102	25165824	9	3531
2026-01-24 16:04:05.68	226.68	19.20	-24.0	-23.8	17.6	0.00e+00	0	44	102	25165824	9	3521
2026-01-24 16:04:06.69	226.87	19.28	-24.1	-24.1	17.4	0.00e+00	0	44	102	25165824	9	3579
2026-01-24 16:04:07.69	227.05	19.36	-24.1	-23.9	17.5	0.00e+00	0	44	102	25165824	9	3548
2026-01-24 16:04:08.70	227.24	19.45	-24.0	-23.8	17.6	0.00e+00	0	44	102	25165824	9	3513
2026-01-24 16:04:09.71	227.44	19.53	-24.1	-24.0	17.5	0.00e+00	0	44	102	25165824	9	3568
2026-01-24 16:04:10.71	227.63	19.61	-24.1	-24.0	17.5	0.00e+00	0	44	102	25165824	9	3554
2026-01-24 16:04:11.72	227.82	19.69	-24.0	-23.8	17.6	0.00e+00	0	44	102	25165824	9	3517
2026-01-24 16:04:12.73	228.02	19.78	-24.1	-24.1	17.5	0.00e+00	0	44	102	25165824	9	3584
2026-01-24 16:04:13.73	228.21	19.86	-24.1	-24.0	17.5	0.00e+00	0	44	102	25165824	9	3556
2026-01-24 16:04:14.73	228.41	19.94	-24.1	-23.9	17.6	0.00e+00	0	44	102	25165824	9	3544
2026-01-24 16:04:15.74	228.60	20.03	-24.0	-23.8	17.7	0.00e+00	0	44	102	25165824	9	3513
2026-01-24 16:04:16.74	228.80	20.11	-24.0	-23.8	17.6	0.00e+00	0	44	102	25165824	9	3524
2026-01-24 16:04:17.75	229.00	20.19	-23.9	-24.0	17.8	0.00e+00	0	44	102	25165824	8	3655
2026-01-24 16:04:18.75	229.20	20.27	-23.9	-24.0	17.7	0.00e+00	0	44	102	25165824	8	3668
2026-01-24 16:04:19.76	229.40	20.35	-23.9	-24.1	17.7	0.00e+00	0	44	102	25165824	8	3684
2026-01-24 16:04:20.77	229.61	20.44	-23.9	-24.0	17.7	0.00e+00	0	44	102	25165824	8	3662
2026-01-24 16:04:21.77	229.81	20.52	-23.9	-24.2	17.7	0.00e+00	0	44	102	25165824	8	3696
2026-01-24 16:04:22.77	230.01	20.60	-23.9	-24.1	17.7	0.00e+00	0	44	102	25165824	8	3670
2026-01-24 16:04:23.78	230.22	20.68	-23.7	-23.7	17.9	0.00e+00	0	44	102	25165824	8	3588
2026-01-24 16:04:24.79	230.43	20.76	-23.7	-23.8	17.9	0.00e+00	0	44	102	25165824	8	3605
2026-01-24 16:04:25.79	230.63	20.85	-23.7	-23.5	18.0	0.00e+00	0	44	102	25165824	8	3556
2026-01-24 16:04:26.80	230.84	20.93	-23.6	-23.4	18.1	0.00e+00	0	44	102	25165824	8	3527
2026-01-24 16:04:27.81	231.05	21.01	-23.7	-23.7	18.0	0.00e+00	0	44	102	25165824	8	3588
2026-01-24 16:04:28.81	231.26	21.09	-23.6	-23.5	18.0	0.00e+00	0	44	102	25165824	8	3556
2026-01-24 16:04:29.81	231.48	21.17	-23.7	-23.8	17.9	0.00e+00	0	44	102	25165824	8	3605
2026-01-24 16:04:30.81	231.69	21.25	-23.6	-23.6	18.0	0.00e+00	0	44	102	25165824	8	3565
2026-01-24 16:04:31.82	231.90	21.33	-23.5	-23.2	18.2	0.00e+00	0	44	102	25165824	8	3476
2026-01-24 16:04:32.82	232.12	21.41	-23.6	-23.4	18.1	0.00e+00	0	44	102	25165824	8	3535
2026-01-24 16:04:33.83	232.33	21.49	-23.4	-23.1	18.3	0.00e+00	0	44	102	25165824	8	3465
2026-01-24 16:04:34.83	232.55	21.57	-23.5	-23.2	18.2	0.00e+00	0	44	102	25165824	8	3480
2026-01-24 16:04:35.84	232.77	21.65	-23.5	-23.1	18.3	0.00e+00	0	44	102	25165824	8	3469
2026-01-24 16:04:36.84	232.99	21.73	-23.5	-23.2	18.2	0.00e+00	0	44	102	25165824	8	3493
2026-01-24 16:04:37.85	233.21	21.81	-23.6	-23.4	18.1	0.00e+00	0	44	102	25165824	8	3527
2026-01-24 16:04:38.85	233.43	21.89	-23.5	-23.3	18.2	0.00e+00	0	44	102	25165824	8	3497
2026-01-24 16:04:39.85	233.65	21.97	-23.6	-23.5	18.1	0.00e+00	0	44	102	25165824	8	3557
2026-01-24 16:04:40.86	233.88	22.05	-23.6	-23.5	18.1	0.00e+00	0	44	102	25165824	8	3537
2026-01-24 16:04:41.85	234.10	22.13	-23.5	-23.3	18.2	0.00e+00	0	44	102	25165824	8	3514
2026-01-24 16:04:42.86	234.33	22.21	-23.6	-23.5	18.1	0.00e+00	0	44	102	25165824	8	3544
2026-01-24 16:04:43.87	234.56	22.29	-23.5	-23.2	18.2	0.00e+00	0	44	102	25165824	8	3490
2026-01-24 16:04:44.87	234.78	22.37	-23.5	-23.2	18.2	0.00e+00	0	44	102	25165824	8	3486
2026-01-24 16:04:45.87	235.01	22.45	-23.5	-23.1	18.3	0.00e+00	0	44	102	25165824	8	3470
2026-01-24 16:04:46.88	235.24	22.52	-23.4	-23.4	18.4	0.00e+00	0	44	102	25165824	7	3633
2026-01-24 16:04:47.87	235.47	22.60	-23.4	-23.5	18.3	0.00e+00	0	44	102	25165824	7	3657
2026-01-24 16:04:48.88	235.71	22.68	-23.4	-23.4	18.3	0.00e+00	0	44	102	25165824	7	3634
2026-01-24 16:04:49.88	235.94	22.76	-23.4	-23.6	18.3	0.00e+00	0	44	102	25165824	7	3663
2026-01-24 16:04:50.89	236.18	22.83	-23.4	-23.5	18.3	0.00e+00	0	44	102	25165824	7	3645
2026-01-24 16:04:51.89	236.41	22.91	-23.4	-23.5	18.3	0.00e+00	0	44	102	25165824	7	3649
2026-01-24 16:04:52.89	236.65	22.99	-23.5	-23.8	18.2	0.00e+00	0	44	102	25165824	7	3700
2026-01-24 16:04:53.89	236.89	23.06	-23.4	-23.5	18.4	0.00e+00	0	44	102	25165824	7	3635
2026-01-24 16:04:54.90	237.13	23.14	-23.3	-23.3	18.4	0.00e+00	0	44	102	25165824	7	3598
2026-01-24 16:04:55.90	237.37	23.21	-23.4	-23.6	18.3	0.00e+00	0	44	102	25165824	7	3656
2026-01-24 16:04:56.90	237.61	23.29	-23.4	-23.6	18.3	0.00e+00	0	44	102	25165824	7	3671
2026-01-24 16:04:57.91	237.85	23.36	-23.7	-24.2	18.0	0.00e+00	0	44	102	25165824	7	3811
2026-01-24 16:04:58.91	238.10	23.44	-23.6	-24.0	18.1	0.00e+00	0	44	102	25165824	7	3753
2026-01-24 16:04:59.91	238.34	23.51	-23.5	-23.7	18.2	0.00e+00	0	44	102	25165824	7	3696
2026-01-24 16:05:00.91	238.59	23.59	-23.6	-24.0	18.1	0.00e+00	0	44	102	25165824	7	3747
2026-01-24 16:05:01.92	238.84	23.66	-23.6	-24.0	18.1	0.00e+00	0	44	102	25165824	7	3751
2026-01-24 16:05:02.92	239.08	23.73	-23.4	-23.6	18.3	0.00e+00	0	44	102	25165824	7	3674
2026-01-24 16:05:03.93	239.33	23.81	-23.5	-23.7	18.3	0.00e+00	0	44	102	25165824	7	3695
2026-01-24 16:05:04.93	239.59	23.88	-23.4	-23.5	18.4	0.00e+00	0	44	102	25165824	7	3638
2026-01-24 16:05:05.94	239.84	23.95	-23.4	-23.6	18.3	0.00e+00	0	44	102	25165824	7	3667
2026-01-24 16:05:06.94	240.09	24.02	-23.4	-23.5	18.4	0.00e+00	0	44	102	25165824	7	3648
2026-01-24 16:05:07.94	240.34	24.10	-23.4	-23.5	18.4	0.00e+00	0	44	102	25165824	7	3642
2026-01-24 16:05:08.95	240.60	24.17	-23.3	-23.3	18.5	0.00e+00	0	44	102	25165824	7	3607
2026-01-24 16:05:09.95	240.86	24.24	-23.4	-23.4	18.4	0.00e+00	0	44	102	25165824	7	3628
2026-01-24 16:05:10.96	241.12	24.31	-23.5	-23.8	18.2	0.00e+00	0	44	102	25165824	7	3701
2026-01-24 16:05:11.96	241.37	24.38	-23.3	-23.4	18.4	0.00e+00	0	44	102	25165824	7	3624
2026-01-24 16:05:12.97	241.64	24.45	-23.4	-23.5	18.4	0.00e+00	0	44	102	25165824	7	3646
2026-01-24 16:05:13.98	241.90	24.52	-23.3	-23.2	18.5	0.00e+00	0	44	102	25165824	7	3587
2026-01-24 16:05:14.98	242.16	24.59	-23.2	-23.0	18.6	0.00e+00	0	44	102	25165824	7	3544
2026-01-24 16:05:15.99	242.43	24.66	-23.3	-23.3	18.5	0.00e+00	0	44	102	25165824	7	3602
2026-01-24 16:05:17.00	242.69	24.72	-23.3	-23.2	18.5	0.00e+00	0	44	102	25165824	7	3584
2026-01-24 16:05:18.00	242.96	24.79	-23.3	-23.3	18.5	0.00e+00	0	44	102	25165824	7	3593
2026-01-24 16:05:19.01	243.23	24.86	-23.3	-23.2	18.5	0.00e+00	0	44	102	25165824	7	3583
2026-01-24 16:05:20.01	243.49	24.92	-23.2	-23.1	18.6	0.00e+00	0	44	102	25165824	7	3546
2026-01-24 16:05:21.02	243.76	24.99	-23.3	-23.4	18.5	0.00e+00	0	44	102	25165824	7	3619
2026-01-24 16:05:22.03	244.03	25.06	-23.2	-23.0	18.6	0.00e+00	0	44	102	25165824	7	3546
2026-01-24 16:05:23.03	244.30	25.12	-23.2	-23.1	18.6	0.00e+00	0	44	102	25165824	7	3553
2026-01-24 16:05:24.04	244.58	25.19	-23.3	-23.3	18.5	0.00e+00	0	44	102	25165824	7	3605
2026-01-24 16:05:25.04	244.85	25.25	-23.2	-23.2	18.6	0.00e+00	0	44	102	25165824	7	3578
2026-01-24 16:05:26.05	245.13	25.31	-23.3	-23.4	18.5	0.00e+00	0	44	102	25165824	7	3615
2026-01-24 16:05:27.05	245.40	25.38	-23.3	-23.4	18.5	0.00e+00	0	44	102	25165824	7	3624
2026-01-24 16:05:28.05	245.68	25.44	-23.4	-23.5	18.4	0.00e+00	0	44	102	25165824	7	3649
2026-01-24 16:05:29.06	245.96	25.50	-23.4	-23.4	18.4	0.00e+00	0	44	102	25165824	7	3632
2026-01-24 16:05:30.07	246.24	25.56	-23.4	-23.6	18.4	0.00e+00	0	44	102	25165824	7	3672
2026-01-24 16:05:31.08	246.52	25.62	-23.4	-23.4	18.4	0.00e+00	0	44	102	25165824	7	3626
2026-01-24 16:05:32.09	246.80	25.68	-23.3	-23.3	18.5	0.00e+00	0	44	102	25165824	7	3614
2026-01-24 16:05:33.10	247.08	25.74	-23.3	-23.3	18.5	0.00e+00	0	44	102	25165824	7	3597
2026-01-24 16:05:34.11	247.37	25.80	-23.3	-23.3	18.5	0.00e+00	0	44	102	25165824	7	3596
2026-01-24 16:05:35.11	247.65	25.86	-23.2	-23.0	18.6	0.00e+00	0	44	102	25165824	7	3545
2026-01-24 16:05:36.11	247.94	25.92	-23.3	-23.4	18.5	5.70e-06	0	44	102	25165824	7	3614
2026-01-24 16:05:37.12	248.22	25.97	-23.4	-23.6	18.4	0.00e+00	0	44	102	25165824	7	3666
2026-01-24 16:05:38.12	248.51	26.03	-23.1	-22.9	18.7	0.00e+00	0	44	102	25165824	7	3523
2026-01-24 16:05:39.13	248.80	26.09	-23.1	-23.0	18.7	2.20e-06	0	44	102	25165824	7	3534
2026-01-24 16:05:40.14	249.09	26.14	-23.3	-23.2	18.6	0.00e+00	0	44	102	25165824	7	3583
2026-01-24 16:05:41.14	249.38	26.20	-23.1	-23.0	18.7	0.00e+00	0	44	102	25165824	7	3532
2026-01-24 16:05:42.15	249.67	26.25	-23.0	-22.7	18.8	3.40e-06	0	44	102	25165824	7	3475
2026-01-24 16:05:43.16	249.97	26.30	-23.0	-22.8	18.8	0.00e+00	0	44	102	25165824	7	3485
2026-01-24 16:05:44.15	250.25	26.36	-23.2	-23.1	18.6	0.00e+00	0	44	102	25165824	7	3550
2026-01-24 16:05:45.15	250.55	26.41	-23.4	-23.6	18.4	0.00e+00	0	44	102	25165824	7	3667
2026-01-24 16:05:46.16	250.84	26.46	-23.2	-23.1	18.6	0.00e+00	0	44	102	25165824	7	3553
2026-01-24 16:05:47.16	251.14	26.51	-23.1	-22.8	18.7	0.00e+00	0	44	102	25165824	7	3498
2026-01-24 16:05:48.17	251.44	26.56	-23.1	-22.9	18.7	0.00e+00	0	44	102	25165824	7	3524
2026-01-24 16:05:49.17	251.73	26.61	-23.2	-23.2	18.6	0.00e+00	0	44	102	25165824	7	3571
2026-01-24 16:05:50.18	252.03	26.66	-23.2	-23.1	18.6	0.00e+00	0	44	102	25165824	7	3562
2026-01-24 16:05:51.19	252.33	26.70	-23.4	-23.5	18.5	0.00e+00	0	44	102	25165824	7	3636
2026-01-24 16:05:52.19	252.63	26.75	-23.0	-22.6	18.9	0.00e+00	0	44	102	25165824	7	3461
2026-01-24 16:05:53.20	252.93	26.80	-22.9	-22.9	19.0	0.00e+00	0	44	102	25165824	6	3611
2026-01-24 16:05:54.20	253.24	26.84	-22.9	-22.9	19.0	0.00e+00	0	44	102	25165824	6	3623
2026-01-24 16:05:55.21	253.54	26.89	-23.0	-23.2	18.9	0.00e+00	0	44	102	25165824	6	3676
2026-01-24 16:05:56.21	253.84	26.93	-23.1	-23.3	18.8	0.00e+00	0	44	102	25165824	6	3706
2026-01-24 16:05:57.21	254.14	26.97	-23.3	-23.7	18.6	0.00e+00	0	44	102	25165824	6	3798
2026-01-24 16:05:58.21	254.45	27.02	-23.1	-23.5	18.7	0.00e+00	0	44	102	25165824	6	3740
2026-01-24 16:05:59.22	254.76	27.06	-23.2	-23.7	18.6	0.00e+00	0	44	102	25165824	6	3782
2026-01-24 16:06:00.23	255.06	27.10	-23.3	-23.7	18.6	0.00e+00	0	44	102	25165824	6	3792
2026-01-24 16:06:01.23	255.37	27.14	-23.1	-23.3	18.8	0.00e+00	0	44	102	25165824	6	3708
2026-01-24 16:06:02.23	255.68	27.18	-23.1	-23.3	18.8	0.00e+00	0	44	102	25165824	6	3710
2026-01-24 16:06:03.23	255.98	27.21	-23.1	-23.4	18.7	0.00e+00	0	44	102	25165824	6	3735
2026-01-24 16:06:04.24	256.30	27.25	-23.2	-23.7	18.6	0.00e+00	0	44	102	25165824	6	3780
2026-01-24 16:06:05.25	256.61	27.29	-23.2	-23.5	18.7	0.00e+00	0	44	102	25165824	6	3747
2026-01-24 16:06:06.25	256.92	27.32	-23.1	-23.5	18.7	0.00e+00	0	44	102	25165824	6	3743
2026-01-24 16:06:07.25	257.23	27.36	-23.2	-23.6	18.7	0.00e+00	0	44	102	25165824	6	3780
2026-01-24 16:06:08.25	257.54	27.39	-23.1	-23.3	18.8	0.00e+00	0	44	102	25165824	6	3695
2026-01-24 16:06:09.25	257.85	27.42	-23.0	-23.2	18.9	0.00e+00	0	44	102	25165824	6	3683
2026-01-24 16:06:10.25	258.16	27.46	-23.1	-23.4	18.8	0.00e+00	0	44	102	25165824	6	3728
2026-01-24 16:06:11.26	258.48	27.49	-23.2	-23.7	18.6	0.00e+00	0	44	102	25165824	6	3785
2026-01-24 16:06:12.26	258.79	27.52	-23.2	-23.7	18.7	0.00e+00	0	44	102	25165824	6	3789
2026-01-24 16:06:13.25	259.10	27.55	-23.4	-24.0	18.5	0.00e+00	0	44	102	25165824	6	3854
2026-01-24 16:06:14.26	259.42	27.58	-23.3	-23.8	18.6	0.00e+00	0	44	102	25165824	6	3806
2026-01-24 16:06:15.27	259.74	27.60	-23.4	-24.0	18.5	0.00e+00	0	44	102	25165824	6	3864
2026-01-24 16:06:16.26	260.05	27.63	-23.3	-23.7	18.6	0.00e+00	0	44	102	25165824	6	3798
2026-01-24 16:06:17.26	260.37	27.66	-23.5	-24.1	18.4	0.00e+00	0	44	102	25165824	6	3890
2026-01-24 16:06:18.27	260.69	27.68	-23.5	-24.2	18.4	0.00e+00	0	44	102	25165824	6	3898
2026-01-24 16:06:19.27	261.00	27.71	-23.4	-24.0	18.5	0.00e+00	0	44	102	25165824	6	3858
2026-01-24 16:06:20.27	261.32	27.73	-23.2	-23.6	18.7	0.00e+00	0	44	102	25165824	6	3763
2026-01-24 16:06:21.27	261.64	27.75	-23.2	-23.6	18.7	0.00e+00	0	44	102	25165824	6	3766
2026-01-24 16:06:22.28	261.96	27.77	-23.2	-23.7	18.6	0.00e+00	0	44	102	25165824	6	3790
2026-01-24 16:06:23.29	262.28	27.79	-23.1	-23.4	18.8	0.00e+00	0	44	102	25165824	6	3732
2026-01-24 16:06:24.29	262.60	27.81	-23.2	-23.5	18.7	0.00e+00	0	44	102	25165824	6	3755
2026-01-24 16:06:25.30	262.92	27.83	-23.2	-23.7	18.6	0.00e+00	0	44	102	25165824	6	3795
2026-01-24 16:06:26.30	263.24	27.85	-23.1	-23.5	18.7	0.00e+00	0	44	102	25165824	6	3753
2026-01-24 16:06:27.30	263.56	27.87	-23.1	-23.4	18.8	0.00e+00	0	44	102	25165824	6	3733
2026-01-24 16:06:28.31	263.89	27.88	-23.1	-23.3	18.8	0.00e+00	0	44	102	25165824	6	3711
2026-01-24 16:06:29.31	264.21	27.90	-22.9	-22.9	19.0	0.00e+00	0	44	102	25165824	6	3615
2026-01-24 16:06:30.31	264.53	27.91	-22.9	-23.0	19.0	0.00e+00	0	44	102	25165824	6	3631
2026-01-24 16:06:31.31	264.85	27.92	-23.0	-23.2	18.9	0.00e+00	0	44	102	25165824	6	3683
2026-01-24 16:06:32.31	265.17	27.94	-23.2	-23.5	18.7	0.00e+00	0	44	102	25165824	6	3752
2026-01-24 16:06:33.32	265.50	27.95	-23.2	-23.7	18.6	0.00e+00	0	44	102	25165824	6	3787
2026-01-24 16:06:34.32	265.82	27.96	-23.2	-23.6	18.7	0.00e+00	0	44	102	25165824	6	3759
2026-01-24 16:06:35.32	266.14	27.97	-23.1	-23.5	18.7	0.00e+00	0	44	102	25165824	6	3744
2026-01-24 16:06:36.32	266.46	27.97	-23.2	-23.6	18.7	0.00e+00	0	44	102	25165824	6	3766
2026-01-24 16:06:37.33	266.79	27.98	-23.1	-23.5	18.8	0.00e+00	0	44	102	25165824	6	3735
2026-01-24 16:06:38.34	267.12	27.99	-23.0	-23.2	18.9	3.40e-06	0	44	102	25165824	6	3670
2026-01-24 16:06:39.34	267.44	27.99	-23.0	-23.2	18.9	0.00e+00	0	44	102	25165824	6	3679
2026-01-24 16:06:40.34	267.76	28.00	-23.1	-23.5	18.7	0.00e+00	0	44	102	25165824	6	3736
2026-01-24 16:06:41.35	268.09	28.00	-23.0	-23.2	18.9	2.20e-06	0	44	102	25165824	6	3680
2026-01-24 16:06:42.36	268.41	28.00	-23.1	-23.4	18.8	0.00e+00	0	44	102	25165824	6	3718
2026-01-24 16:06:43.36	268.74	28.00	-23.2	-23.6	18.7	0.00e+00	0	44	102	25165824	6	3760
2026-01-24 16:06:44.37	269.06	28.00	-23.3	-23.8	18.6	0.00e+00	0	44	102	25165824	6	3815
2026-01-24 16:06:45.37	269.38	28.00	-23.3	-23.9	18.5	0.00e+00	0	44	102	25165824	6	3835
2026-01-24 16:06:46.37	269.71	28.00	-23.2	-23.6	18.7	0.00e+00	0	44	102	25165824	6	3766
2026-01-24 16:06:47.38	270.03	28.00	-23.2	-23.5	18.7	0.00e+00	0	44	102	25165824	6	3755
2026-01-24 16:06:48.38	270.36	27.99	-23.1	-23.3	18.8	0.00e+00	0	44	102	25165824	6	3713
2026-01-24 16:06:49.38	270.68	27.99	-23.0	-23.1	18.9	0.00e+00	0	44	102	25165824	6	3660
2026-01-24 16:06:50.38	271.00	27.98	-23.0	-23.2	18.9	0.00e+00	0	44	102	25165824	6	3674
2026-01-24 16:06:51.38	271.32	27.98	-23.2	-23.5	18.7	0.00e+00	0	44	102	25165824	6	3753
2026-01-24 16:06:52.38	271.65	27.97	-23.2	-23.6	18.7	0.00e+00	0	44	102	25165824	6	3777
2026-01-24 16:06:53.38	271.97	27.96	-23.2	-23.6	18.7	0.00e+00	0	44	102	25165824	6	3765
2026-01-24 16:06:54.39	272.29	27.95	-23.2	-23.6	18.7	0.00e+00	0	44	102	25165824	6	3762
2026-01-24 16:06:55.40	272.62	27.94	-23.2	-23.7	18.6	0.00e+00	0	44	102	25165824	6	3787
2026-01-24 16:06:56.40	272.94	27.93	-23.2	-23.6	18.7	1.10e-06	0	44	102	25165824	6	3773
2026-01-24 16:06:57.41	273.26	27.92	-23.0	-23.2	18.9	0.00e+00	0	44	102	25165824	6	3692
2026-01-24 16:06:58.42	273.59	27.91	-23.1	-23.3	18.8	0.00e+00	0	44	102	25165824	6	3702
2026-01-24 16:06:59.41	273.91	27.89	-23.1	-23.4	18.8	0.00e+00	0	44	102	25165824	6	3727
2026-01-24 16:07:00.42	274.23	27.88	-23.2	-23.6	18.6	0.00e+00	0	44	102	25165824	6	3769
2026-01-24 16:07:01.42	274.55	27.86	-23.3	-23.7	18.6	0.00e+00	0	44	102	25165824	6	3797
2026-01-24 16:07:02.43	274.87	27.84	-23.3	-23.8	18.6	0.00e+00	0	44	102	25165824	6	3818
2026-01-24 16:07:03.43	275.19	27.83	-23.4	-24.1	18.4	0.00e+00	0	44	102	25165824	6	3873
2026-01-24 16:07:04.44	275.51	27.81	-23.2	-23.6	18.6	0.00e+00	0	44	102	25165824	6	3768
2026-01-24 16:07:05.44	275.83	27.79	-23.2	-23.6	18.7	0.00e+00	0	44	102	25165824	6	3767
2026-01-24 16:07:06.45	276.15	27.77	-23.1	-23.5	18.7	0.00e+00	0	44	102	25165824	6	3741
2026-01-24 16:07:07.46	276.48	27.74	-23.1	-23.5	18.7	0.00e+00	0	44	102	25165824	6	3739
2026-01-24 16:07:08.46	276.79	27.72	-23.2	-23.6	18.7	0.00e+00	0	44	102	25165824	6	3767
2026-01-24 16:07:09.47	277.11	27.70	-23.2	-23.7	18.6	0.00e+00	0	44	102	25165824	6	3792
2026-01-24 16:07:10.47	277.43	27.67	-23.1	-23.4	18.8	0.00e+00	0	44	102	25165824	6	3715
2026-01-24 16:07:11.47	277.75	27.65	-23.2	-23.5	18.7	0.00e+00	0	44	102	25165824	6	3751
2026-01-24 16:07:12.48	278.06	27.62	-23.2	-23.6	18.7	0.00e+00	0	44	102	25165824	6	3770
2026-01-24 16:07:13.49	278.38	27.60	-23.2	-23.6	18.6	0.00e+00	0	44	102	25165824	6	3780
2026-01-24 16:07:14.49	278.70	27.57	-23.2	-23.5	18.7	0.00e+00	0	44	102	25165824	6	3752
2026-01-24 16:07:15.50	279.01	27.54	-23.3	-23.9	18.5	0.00e+00	0	44	102	25165824	6	3825
2026-01-24 16:07:16.51	279.33	27.51	-23.4	-24.0	18.5	0.00e+00	0	44	102	25165824	6	3849
2026-01-24 16:07:17.51	279.64	27.48	-23.3	-23.7	18.6	0.00e+00	0	44	102	25165824	6	3796
2026-01-24 16:07:18.51	279.96	27.45	-23.2	-23.6	18.7	1.10e-06	0	44	102	25165824	6	3760
2026-01-24 16:07:19.51	280.27	27.41	-23.2	-23.5	18.7	0.00e+00	0	44	102	25165824	6	3751
2026-01-24 16:07:20.51	280.58	27.38	-23.1	-23.4	18.8	0.00e+00	0	44	102	25165824	6	3729
2026-01-24 16:07:21.52	280.89	27.35	-23.0	-23.1	18.9	0.00e+00	0	44	102	25165824	6	3663
2026-01-24 16:07:22.53	281.20	27.31	-23.0	-23.1	18.9	0.00e+00	0	44	102	25165824	6	3664
2026-01-24 16:07:23.53	281.51	27.28	-22.9	-23.0	19.0	0.00e+00	0	44	102	25165824	6	3644
2026-01-24 16:07:24.53	281.82	27.24	-23.0	-23.1	18.9	0.00e+00	0	44	102	25165824	6	3651
2026-01-24 16:07:25.53	282.13	27.20	-23.1	-23.3	18.8	0.00e+00	0	44	102	25165824	6	3710
2026-01-24 16:07:26.53	282.43	27.16	-23.2	-23.5	18.7	0.00e+00	0	44	102	25165824	6	3752
2026-01-24 16:07:27.54	282.74	27.13	-23.1	-23.5	18.7	0.00e+00	0	44	102	25165824	6	3743
2026-01-24 16:07:28.55	283.05	27.09	-23.1	-23.4	18.7	0.00e+00	0	44	102	25165824	6	3735
2026-01-24 16:07:29.55	283.36	27.04	-23.1	-23.4	18.8	0.00e+00	0	44	102	25165824	6	3730
2026-01-24 16:07:30.56	283.66	27.00	-23.3	-23.7	18.6	0.00e+00	0	44	102	25165824	6	3793
2026-01-24 16:07:31.57	283.97	26.96	-23.3	-23.8	18.5	0.00e+00	0	44	102	25165824	6	3819
2026-01-24 16:07:32.57	284.27	26.92	-23.2	-23.6	18.7	0.00e+00	0	44	102	25165824	6	3776
2026-01-24 16:07:33.57	284.57	26.87	-23.2	-23.7	18.6	0.00e+00	0	44	102	25165824	6	3783
2026-01-24 16:07:34.58	284.88	26.83	-23.2	-23.6	18.7	0.00e+00	0	44	102	25165824	6	3772
2026-01-24 16:07:35.58	285.18	26.78	-23.3	-23.8	18.6	0.00e+00	0	44	102	25165824	6	3819
2026-01-24 16:07:36.58	285.47	26.74	-23.5	-24.1	18.4	0.00e+00	0	44	102	25165824	6	3886
2026-01-24 16:07:37.58	285.77	26.69	-23.5	-23.6	18.4	0.00e+00	0	44	102	25165824	7	3667
2026-01-24 16:07:38.59	286.07	26.64	-23.3	-23.3	18.6	0.00e+00	0	44	102	25165824	7	3608
2026-01-24 16:07:39.59	286.37	26.60	-23.3	-23.2	18.6	0.00e+00	0	44	102	25165824	7	3583
2026-01-24 16:07:40.60	286.67	26.55	-23.4	-23.5	18.5	0.00e+00	0	44	102	25165824	7	3635
2026-01-24 16:07:41.60	286.96	26.50	-23.2	-23.2	18.7	0.00e+00	0	44	102	25165824	7	3570
2026-01-24 16:07:42.61	287.26	26.45	-23.1	-22.9	18.8	0.00e+00	0	44	102	25165824	7	3519
2026-01-24 16:07:43.61	287.55	26.40	-23.2	-23.1	18.7	0.00e+00	0	44	102	25165824	7	3551
2026-01-24 16:07:44.62	287.84	26.34	-23.2	-23.0	18.7	0.00e+00	0	44	102	25165824	7	3538
2026-01-24 16:07:45.61	288.13	26.29	-23.0	-22.7	18.9	0.00e+00	0	44	102	25165824	7	3474
2026-01-24 16:07:46.61	288.42	26.24	-23.1	-22.9	18.8	0.00e+00	0	44	102	25165824	7	3521
2026-01-24 16:07:47.61	288.71	26.18	-23.2	-23.2	18.6	0.00e+00	0	44	102	25165824	7	3578
2026-01-24 16:07:48.62	289.00	26.13	-23.4	-23.5	18.5	0.00e+00	0	44	102	25165824	7	3649
2026-01-24 16:07:49.63	289.29	26.07	-23.4	-23.6	18.4	0.00e+00	0	44	102	25165824	7	3666
2026-01-24 16:07:50.64	289.58	26.02	-23.3	-23.2	18.6	0.00e+00	0	44	102	25165824	7	3585
2026-01-24 16:07:51.65	289.87	25.96	-23.3	-23.3	18.6	0.00e+00	0	44	102	25165824	7	3602
2026-01-24 16:07:52.65	290.15	25.91	-23.4	-23.4	18.5	0.00e+00	0	44	102	25165824	7	3626
2026-01-24 16:07:53.66	290.44	25.85	-23.4	-23.6	18.4	0.00e+00	0	44	102	25165824	7	3659
2026-01-24 16:07:54.66	290.72	25.79	-23.4	-23.6	18.4	0.00e+00	0	44	102	25165824	7	3666
2026-01-24 16:07:55.67	291.00	25.73	-23.5	-23.8	18.3	0.00e+00	0	44	102	25165824	7	3717
2026-01-24 16:07:56.68	291.28	25.67	-23.5	-23.8	18.3	0.00e+00	0	44	102	25165824	7	3706
2026-01-24 16:07:57.68	291.56	25.61	-23.5	-23.7	18.3	0.00e+00	0	44	102	25165824	7	3699
2026-01-24 16:07:58.69	291.84	25.55	-23.5	-23.7	18.3	0.00e+00	0	44	102	25165824	7	3695
2026-01-24 16:07:59.69	292.12	25.49	-23.4	-23.4	18.5	0.00e+00	0	44	102	25165824	7	3626
2026-01-24 16:08:00.70	292.40	25.43	-23.2	-23.0	18.7	0.00e+00	0	44	102	25165824	7	3542
2026-01-24 16:08:01.70	292.67	25.37	-23.2	-23.0	18.7	0.00e+00	0	44	102	25165824	7	3543
2026-01-24 16:08:02.71	292.95	25.30	-23.1	-22.9	18.7	0.00e+00	0	44	102	25165824	7	3519
2026-01-24 16:08:03.71	293.22	25.24	-23.3	-23.4	18.5	0.00e+00	0	44	102	25165824	7	3619
2026-01-24 16:08:04.72	293.49	25.17	-23.3	-23.4	18.5	0.00e+00	0	44	102	25165824	7	3626
2026-01-24 16:08:05.73	293.77	25.11	-23.5	-23.7	18.4	0.00e+00	0	44	102	25165824	7	3688
2026-01-24 16:08:06.73	294.04	25.05	-23.5	-23.8	18.3	0.00e+00	0	44	102	25165824	7	3700
2026-01-24 16:08:07.73	294.30	24.98	-23.6	-23.9	18.3	0.00e+00	0	44	102	25165824	7	3728
2026-01-24 16:08:08.74	294.57	24.91	-23.7	-24.1	18.1	1.10e-06	0	44	102	25165824	7	3774
2026-01-24 16:08:09.74	294.84	24.85	-23.6	-24.0	18.2	0.00e+00	0	44	102	25165824	7	3748
2026-01-24 16:08:10.75	295.11	24.78	-23.7	-24.1	18.2	0.00e+00	0	44	102	25165824	7	3767
2026-01-24 16:08:11.75	295.37	24.71	-23.6	-24.0	18.2	0.00e+00	0	44	102	25165824	7	3758
2026-01-24 16:08:12.76	295.63	24.65	-23.7	-24.2	18.1	0.00e+00	0	44	102	25165824	7	3806
2026-01-24 16:08:13.76	295.90	24.58	-23.6	-24.0	18.1	0.00e+00	0	44	102	25165824	7	3763
2026-01-24 16:08:14.76	296.16	24.51	-23.6	-23.9	18.3	0.00e+00	0	44	102	25165824	7	3722
2026-01-24 16:08:15.76	296.41	24.44	-23.6	-24.0	18.2	0.00e+00	0	44	102	25165824	7	3752
2026-01-24 16:08:16.76	296.67	24.37	-23.6	-23.9	18.3	0.00e+00	0	44	102	25165824	7	3739
2026-01-24 16:08:17.77	296.93	24.30	-23.6	-23.9	18.2	0.00e+00	0	44	102	25165824	7	3741
2026-01-24 16:08:18.77	297.19	24.23	-23.6	-23.8	18.3	0.00e+00	0	44	102	25165824	7	3715
2026-01-24 16:08:19.77	297.44	24.16	-23.6	-23.9	18.2	0.00e+00	0	44	102	25165824	7	3738
2026-01-24 16:08:20.77	297.70	24.09	-23.8	-24.4	18.0	0.00e+00	0	44	102	25165824	7	3848
2026-01-24 16:08:21.78	297.95	24.02	-23.7	-24.1	18.2	0.00e+00	0	44	102	25165824	7	3765
2026-01-24 16:08:22.78	298.20	23.95	-23.5	-23.8	18.3	0.00e+00	0	44	102	25165824	7	3709
2026-01-24 16:08:23.78	298.45	23.88	-23.6	-23.8	18.3	0.00e+00	0	44	102	25165824	7	3712
2026-01-24 16:08:24.79	298.70	23.80	-23.6	-24.0	18.2	0.00e+00	0	44	102	25165824	7	3748
2026-01-24 16:08:25.79	298.95	23.73	-23.8	-24.4	18.0	0.00e+00	0	44	102	25165824	7	3836
2026-01-24 16:08:26.80	299.20	23.66	-23.9	-24.5	17.9	0.00e+00	0	44	102	25165824	7	3870
2026-01-24 16:08:27.80	299.45	23.59	-24.0	-24.7	17.8	0.00e+00	0	44	102	25165824	7	3914
2026-01-24 16:08:28.81	299.69	23.51	-23.9	-24.5	17.9	0.00e+00	0	44	102	25165824	7	3868
2026-01-24 16:08:29.82	299.94	23.44	-23.9	-24.5	17.9	0.00e+00	0	44	102	25165824	7	3860
2026-01-24 16:08:30.81	300.18	23.36	-23.9	-24.5	17.9	0.00e+00	0	44	102	25165824	7	3861
2026-01-24 16:08:31.82	300.42	23.29	-24.1	-24.9	17.7	0.00e+00	0	44	102	25165824	7	3960
2026-01-24 16:08:32.83	300.66	23.21	-24.0	-24.7	17.8	0.00e+00	0	44	102	25165824	7	3910
2026-01-24 16:08:33.83	300.90	23.14	-24.0	-24.7	17.8	0.00e+00	0	44	102	25165824	7	3908
2026-01-24 16:08:34.83	301.14	23.06	-24.0	-24.7	17.8	0.00e+00	0	44	102	25165824	7	3925
2026-01-24 16:08:35.83	301.38	22.99	-24.2	-24.6	17.6	0.00e+00	0	44	102	25165824	8	3785
2026-01-24 16:08:36.83	301.61	22.91	-24.4	-25.2	17.3	0.00e+00	0	44	102	25165824	8	3928
2026-01-24 16:08:37.84	301.85	22.83	-24.3	-24.9	17.5	0.00e+00	0	44	102	25165824	8	3855
2026-01-24 16:08:38.85	302.08	22.76	-24.5	-25.3	17.3	0.00e+00	0	44	102	25165824	8	3945
2026-01-24 16:08:39.85	302.32	22.68	-24.4	-25.0	17.4	0.00e+00	0	44	102	25165824	8	3894
2026-01-24 16:08:40.86	302.55	22.60	-24.2	-24.7	17.5	0.00e+00	0	44	102	25165824	8	3814
2026-01-24 16:08:41.86	302.78	22.53	-24.2	-24.6	17.6	0.00e+00	0	44	102	25165824	8	3799
2026-01-24 16:08:42.86	303.01	22.45	-24.3	-24.9	17.5	0.00e+00	0	44	102	25165824	8	3850
2026-01-24 16:08:43.86	303.24	22.37	-24.1	-24.5	17.6	0.00e+00	0	44	102	25165824	8	3775
2026-01-24 16:08:44.87	303.46	22.29	-23.9	-24.1	17.9	0.00e+00	0	44	102	25165824	8	3685
2026-01-24 16:08:45.87	303.69	22.22	-23.9	-24.0	17.9	1.10e-06	0	44	102	25165824	8	3645
2026-01-24 16:08:46.87	303.91	22.14	-23.9	-24.0	17.9	0.00e+00	0	44	102	25165824	8	3658
2026-01-24 16:08:47.88	304.14	22.06	-23.9	-23.9	17.9	0.00e+00	0	44	102	25165824	8	3640
2026-01-24 16:08:48.88	304.36	21.98	-24.0	-24.3	17.8	0.00e+00	0	44	102	25165824	8	3710
2026-01-24 16:08:49.89	304.58	21.90	-24.0	-24.2	17.8	0.00e+00	0	44	102	25165824	8	3702
2026-01-24 16:08:50.89	304.80	21.82	-24.1	-24.5	17.6	0.00e+00	0	44	102	25165824	8	3770
2026-01-24 16:08:51.90	305.02	21.74	-24.3	-24.8	17.5	0.00e+00	0	44	102	25165824	8	3841
2026-01-24 16:08:52.91	305.24	21.66	-24.2	-24.8	17.5	0.00e+00	0	44	102	25165824	8	3828
2026-01-24 16:08:53.92	305.46	21.58	-24.3	-24.8	17.5	0.00e+00	0	44	102	25165824	8	3843
2026-01-24 16:08:54.92	305.68	21.50	-24.4	-25.0	17.4	0.00e+00	0	44	102	25165824	8	3887
2026-01-24 16:08:55.93	305.89	21.42	-24.3	-25.0	17.4	0.00e+00	0	44	102	25165824	8	3884
2026-01-24 16:08:56.92	306.11	21.34	-24.4	-25.1	17.3	0.00e+00	0	44	102	25165824	8	3914
2026-01-24 16:08:57.92	306.32	21.26	-24.6	-25.5	17.2	0.00e+00	0	44	102	25165824	8	3997
2026-01-24 16:08:58.93	306.53	21.18	-24.4	-25.2	17.3	0.00e+00	0	44	102	25165824	8	3935
2026-01-24 16:08:59.93	306.74	21.10	-24.3	-25.0	17.4	0.00e+00	0	44	102	25165824	8	3876
2026-01-24 16:09:00.93	306.95	21.02	-24.4	-25.1	17.4	0.00e+00	0	44	102	25165824	8	3900
2026-01-24 16:09:01.94	307.16	20.94	-24.3	-24.8	17.4	0.00e+00	0	44	102	25165824	8	3840
2026-01-24 16:09:02.95	307.37	20.86	-24.3	-24.9	17.4	0.00e+00	0	44	102	25165824	8	3861
2026-01-24 16:09:03.95	307.57	20.78	-24.5	-25.4	17.1	0.00e+00	0	44	102	25165824	8	3991
2026-01-24 16:09:04.95	307.78	20.70	-24.5	-25.3	17.2	0.00e+00	0	44	102	25165824	8	3950
2026-01-24 16:09:05.95	307.98	20.62	-24.6	-25.5	17.1	0.00e+00	0	44	102	25165824	8	4009
2026-01-24 16:09:06.96	308.19	20.53	-24.5	-25.4	17.1	0.00e+00	0	44	102	25165824	8	3977
2026-01-24 16:09:07.97	308.39	20.45	-24.5	-25.4	17.1	0.00e+00	0	44	102	25165824	8	3972
2026-01-24 16:09:08.97	308.59	20.37	-24.5	-25.4	17.1	0.00e+00	0	44	102	25165824	8	3976
2026-01-24 16:09:09.98	308.79	20.29	-24.6	-25.1	17.0	0.00e+00	0	44	102	25165824	9	3801
2026-01-24 16:09:10.99	308.99	20.21	-24.9	-25.6	16.8	0.00e+00	0	44	102	25165824	9	3925
2026-01-24 16:09:11.99	309.19	20.13	-24.8	-25.5	16.8	0.00e+00	0	44	102	25165824	9	3885
2026-01-24 16:09:13.00	309.39	20.04	-25.2	-25.8	16.4	0.00e+00	0	44	102	25165824	10	3869
2026-01-24 16:09:14.00	309.58	19.96	-25.0	-25.4	16.7	0.00e+00	0	44	102	25165824	10	3757
2026-01-24 16:09:15.01	309.78	19.88	-24.9	-25.1	16.8	0.00e+00	0	44	102	25165824	10	3707
2026-01-24 16:09:16.01	309.97	19.80	-24.9	-25.2	16.7	0.00e+00	0	44	102	25165824	10	3721
2026-01-24 16:09:17.01	310.17	19.72	-25.0	-25.3	16.6	0.00e+00	0	44	102	25165824	10	3754
2026-01-24 16:09:18.02	310.36	19.64	-24.9	-25.2	16.7	0.00e+00	0	44	102	25165824	10	3732
2026-01-24 16:09:19.01	310.55	19.55	-24.9	-25.1	16.7	0.00e+00	0	44	102	25165824	10	3709
2026-01-24 16:09:20.02	310.74	19.47	-25.0	-25.5	16.6	0.00e+00	0	44	102	25165824	10	3786
2026-01-24 16:09:21.03	310.93	19.39	-25.1	-25.6	16.5	0.00e+00	0	44	102	25165824	10	3819
2026-01-24 16:09:22.03	311.12	19.31	-24.8	-25.0	16.8	0.00e+00	0	44	102	25165824	10	3676
2026-01-24 16:09:23.04	311.30	19.22	-24.7	-24.8	16.9	0.00e+00	0	44	102	25165824	10	3624
2026-01-24 16:09:24.05	311.49	19.14	-24.6	-24.7	17.0	0.00e+00	0	44	102	25165824	10	3602
2026-01-24 16:09:25.05	311.68	19.06	-24.6	-24.6	17.0	0.00e+00	0	44	102	25165824	10	3587
2026-01-24 16:09:26.06	311.86	18.98	-24.6	-24.6	17.0	0.00e+00	0	44	102	25165824	10	3591
2026-01-24 16:09:27.06	312.04	18.90	-24.6	-24.6	17.0	0.00e+00	0	44	102	25165824	10	3596
2026-01-24 16:09:28.06	312.22	18.81	-25.0	-25.4	16.6	0.00e+00	0	44	102	25165824	10	3767
2026-01-24 16:09:29.07	312.41	18.73	-24.7	-24.8	16.9	0.00e+00	0	44	102	25165824	10	3631
2026-01-24 16:09:30.07	312.59	18.65	-24.6	-24.6	17.0	0.00e+00	0	44	102	25165824	10	3593
2026-01-24 16:09:31.07	312.77	18.57	-24.7	-24.8	16.9	0.00e+00	0	44	102	25165824	10	3628
2026-01-24 16:09:32.07	312.94	18.49	-25.0	-25.3	16.6	0.00e+00	0	44	102	25165824	10	3752
2026-01-24 16:09:33.08	313.12	18.40	-25.0	-25.4	16.5	0.00e+00	0	44	102	25165824	10	3774
2026-01-24 16:09:34.08	313.30	18.32	-25.2	-25.9	16.3	0.00e+00	0	44	102	25165824	10	3883
2026-01-24 16:09:35.09	313.47	18.24	-25.2	-25.8	16.3	0.00e+00	0	44	102	25165824	10	3867
2026-01-24 16:09:36.09	313.65	18.16	-25.2	-25.9	16.3	0.00e+00	0	44	102	25165824	10	3892
2026-01-24 16:09:37.09	313.82	18.08	-25.1	-25.7	16.4	0.00e+00	0	44	102	25165824	10	3839
2026-01-24 16:09:38.09	313.99	17.99	-25.1	-25.6	16.4	1.10e-06	0	44	102	25165824	10	3822
2026-01-24 16:09:39.09	314.16	17.91	-25.1	-25.6	16.5	0.00e+00	0	44	102	25165824	10	3813
2026-01-24 16:09:40.09	314.34	17.83	-25.2	-25.9	16.3	0.00e+00	0	44	102	25165824	10	3887
2026-01-24 16:09:41.10	314.51	17.75	-25.0	-25.3	16.6	0.00e+00	0	44	102	25165824	10	3751
2026-01-24 16:09:42.11	314.68	17.67	-24.9	-25.1	16.6	1.10e-06	0	44	102	25165824	10	3703
2026-01-24 16:09:43.11	314.84	17.58	-24.9	-25.2	16.6	0.00e+00	0	44	102	25165824	10	3732
2026-01-24 16:09:44.11	315.01	17.50	-24.7	-24.8	16.8	0.00e+00	0	44	102	25165824	10	3642
2026-01-24 16:09:45.12	315.18	17.42	-24.8	-24.9	16.8	0.00e+00	0	44	102	25165824	10	3663
2026-01-24 16:09:46.13	315.35	17.34	-24.8	-25.1	16.7	0.00e+00	0	44	102	25165824	10	3693
2026-01-24 16:09:47.14	315.51	17.26	-25.0	-25.5	16.5	0.00e+00	0	44	102	25165824	10	3784
2026-01-24 16:09:48.15	315.68	17.17	-24.8	-25.0	16.7	0.00e+00	0	44	102	25165824	10	3678
2026-01-24 16:09:49.15	315.84	17.09	-24.7	-24.8	16.8	0.00e+00	0	44	102	25165824	10	3625
2026-01-24 16:09:50.15	316.00	17.01	-24.8	-24.9	16.8	0.00e+00	0	44	102	25165824	10	3663
2026-01-24 16:09:51.15	316.16	16.93	-24.9	-25.1	16.7	0.00e+00	0	44	102	25165824	10	3710
2026-01-24 16:09:52.16	316.32	16.85	-25.0	-25.4	16.5	0.00e+00	0	44	102	25165824	10	3760
2026-01-24 16:09:53.17	316.48	16.77	-25.2	-25.8	16.3	0.00e+00	0	44	102	25165824	10	3860
2026-01-24 16:09:54.17	316.64	16.69	-25.3	-26.1	16.1	0.00e+00	0	44	102	25165824	10	3936
2026-01-24 16:09:55.18	316.80	16.60	-25.6	-26.3	15.7	0.00e+00	0	44	102	25165824	11	3879
2026-01-24 16:09:56.17	316.96	16.52	-25.6	-26.1	15.8	0.00e+00	0	44	102	25165824	11	3836
2026-01-24 16:09:57.17	317.11	16.44	-25.6	-26.2	15.8	0.00e+00	0	44	102	25165824	11	3859
2026-01-24 16:09:58.18	317.27	16.36	-25.6	-26.3	15.8	0.00e+00	0	44	102	25165824	11	3873
2026-01-24 16:09:59.18	317.42	16.28	-25.6	-26.3	15.7	0.00e+00	0	44	102	25165824	11	3881
2026-01-24 16:10:00.18	317.58	16.20	-25.7	-26.5	15.6	0.00e+00	0	44	102	25165824	11	3938
2026-01-24 16:10:01.17	317.73	16.12	-25.8	-26.6	15.6	0.00e+00	0	44	102	25165824	11	3954
2026-01-24 16:10:02.18	317.88	16.04	-25.7	-26.4	15.6	0.00e+00	0	44	102	25165824	11	3916
2026-01-24 16:10:03.18	318.03	15.96	-25.7	-26.4	15.6	0.00e+00	0	44	102	25165824	11	3915
2026-01-24 16:10:04.18	318.18	15.88	-25.7	-26.4	15.6	0.00e+00	0	44	102	25165824	11	3921
2026-01-24 16:10:05.18	318.33	15.80	-25.5	-26.1	15.8	0.00e+00	0	44	102	25165824	11	3827
2026-01-24 16:10:06.18	318.48	15.72	-25.4	-25.7	16.0	0.00e+00	0	44	102	25165824	11	3749
2026-01-24 16:10:07.19	318.63	15.64	-25.3	-25.6	16.1	0.00e+00	0	44	102	25165824	11	3711
2026-01-24 16:10:08.19	318.78	15.56	-25.3	-25.6	16.1	0.00e+00	0	44	102	25165824	11	3715
2026-01-24 16:10:09.19	318.92	15.48	-25.2	-25.3	16.2	0.00e+00	0	44	102	25165824	11	3654
2026-01-24 16:10:10.20	319.07	15.40	-25.4	-25.8	15.9	0.00e+00	0	44	102	25165824	11	3769
2026-01-24 16:10:11.20	319.21	15.32	-25.2	-25.3	16.2	0.00e+00	0	44	102	25165824	11	3659
2026-01-24 16:10:12.20	319.36	15.24	-25.1	-25.1	16.3	0.00e+00	0	44	102	25165824	11	3603
2026-01-24 16:10:13.20	319.50	15.16	-25.2	-25.3	16.2	0.00e+00	0	44	102	25165824	11	3650
2026-01-24 16:10:14.21	319.65	15.08	-25.3	-25.5	16.1	0.00e+00	0	44	102	25165824	11	3695
2026-01-24 16:10:15.21	319.79	15.00	-25.4	-25.7	16.0	0.00e+00	0	44	102	25165824	11	3728
2026-01-24 16:10:16.21	319.93	14.92	-25.5	-26.0	15.8	0.00e+00	0	44	102	25165824	11	3805
2026-01-24 16:10:17.21	320.07	14.84	-25.6	-26.1	15.8	0.00e+00	0	44	102	25165824	11	3848
2026-01-24 16:10:18.22	320.21	14.76	-25.5	-26.1	15.8	0.00e+00	0	44	102	25165824	11	3825
2026-01-24 16:10:19.22	320.35	14.68	-25.6	-26.2	15.7	0.00e+00	0	44	102	25165824	11	3870
2026-01-24 16:10:20.22	320.49	14.60	-25.7	-26.5	15.5	0.00e+00	0	44	102	25165824	11	3938
2026-01-24 16:10:21.22	320.63	14.53	-25.7	-26.5	15.5	0.00e+00	0	44	102	25165824	11	3933
2026-01-24 16:10:22.23	320.76	14.45	-25.8	-26.6	15.5	0.00e+00	0	44	102	25165824	11	3960
2026-01-24 16:10:23.23	320.90	14.37	-25.8	-26.7	15.4	0.00e+00	0	44	102	25165824	11	3983
2026-01-24 16:10:24.23	321.04	14.29	-25.9	-26.8	15.3	0.00e+00	0	44	102	25165824	11	4003
2026-01-24 16:10:25.24	321.17	14.21	-26.0	-27.0	15.2	0.00e+00	0	44	102	25165824	11	4056
2026-01-24 16:10:26.24	321.31	14.13	-26.1	-26.9	14.9	0.00e+00	0	44	102	25165824	12	3932
2026-01-24 16:10:27.24	321.44	14.06	-26.3	-27.3	14.7	1.10e-06	0	44	102	25165824	12	4025
2026-01-24 16:10:28.25	321.57	13.98	-26.0	-26.6	15.1	0.00e+00	0	44	102	25165824	12	3859
2026-01-24 16:10:29.24	321.70	13.90	-26.1	-26.8	14.9	0.00e+00	0	44	102	25165824	12	3916
2026-01-24 16:10:30.25	321.84	13.82	-26.2	-27.1	14.8	0.00e+00	0	44	102	25165824	12	3988
2026-01-24 16:10:31.25	321.97	13.74	-26.0	-26.7	15.0	0.00e+00	0	45	102	25165824	12	3884
2026-01-24 16:10:32.26	322.10	13.67	-25.9	-26.4	15.2	0.00e+00	0	44	102	25165824	12	3821
2026-01-24 16:10:33.26	322.23	13.59	-25.9	-26.4	15.2	0.00e+00	0	44	102	25165824	12	3816
2026-01-24 16:10:34.26	322.36	13.51	-26.0	-26.6	15.1	0.00e+00	0	44	102	25165824	12	3855
2026-01-24 16:10:35.26	322.49	13.43	-25.9	-26.3	15.2	0.00e+00	0	44	102	25165824	12	3791
2026-01-24 16:10:36.26	322.61	13.36	-25.7	-25.9	15.4	0.00e+00	0	44	102	25165824	12	3693
2026-01-24 16:10:37.26	322.74	13.28	-25.6	-25.7	15.6	0.00e+00	0	44	102	25165824	12	3646
2026-01-24 16:10:38.27	322.87	13.20	-25.6	-25.8	15.5	0.00e+00	0	44	102	25165824	12	3665
2026-01-24 16:10:39.27	322.99	13.13	-25.7	-25.9	15.5	0.00e+00	0	44	102	25165824	12	3691
2026-01-24 16:10:40.27	323.12	13.05	-25.6	-25.7	15.5	0.00e+00	0	44	102	25165824	12	3657
2026-01-24 16:10:41.27	323.24	12.97	-25.7	-25.9	15.4	0.00e+00	0	44	102	25165824	12	3694
2026-01-24 16:10:42.28	323.37	12.90	-25.7	-25.9	15.4	0.00e+00	0	44	102	25165824	12	3685
2026-01-24 16:10:43.29	323.49	12.82	-25.7	-26.0	15.4	0.00e+00	0	44	102	25165824	12	3712
2026-01-24 16:10:44.29	323.61	12.74	-25.7	-26.0	15.4	0.00e+00	0	44	102	25165824	12	3718
2026-01-24 16:10:45.30	323.74	12.67	-25.8	-26.2	15.3	0.00e+00	0	44	102	25165824	12	3770
2026-01-24 16:10:46.30	323.86	12.59	-26.0	-26.6	15.1	0.00e+00	0	44	102	25165824	12	3852
2026-01-24 16:10:47.31	323.98	12.52	-25.9	-26.4	15.2	0.00e+00	0	44	102	25165824	12	3806
2026-01-24 16:10:48.31	324.10	12.44	-25.7	-26.0	15.3	0.00e+00	0	44	102	25165824	12	3730
2026-01-24 16:10:49.31	324.22	12.37	-25.8	-26.3	15.2	0.00e+00	0	44	102	25165824	12	3780
2026-01-24 16:10:50.31	324.34	12.29	-25.8	-26.3	15.2	0.00e+00	0	44	102	25165824	12	3788
2026-01-24 16:10:51.32	324.46	12.21	-25.9	-26.5	15.1	0.00e+00	0	44	102	25165824	12	3834
2026-01-24 16:10:52.33	324.58	12.14	-26.0	-26.7	15.0	1.10e-06	0	44	102	25165824	12	3885
2026-01-24 16:10:53.34	324.70	12.06	-25.9	-26.4	15.1	0.00e+00	0	44	102	25165824	12	3811
2026-01-24 16:10:54.34	324.81	11.99	-25.9	-26.4	15.1	0.00e+00	0	44	102	25165824	12	3826
2026-01-24 16:10:55.34	324.93	11.91	-26.0	-26.6	15.0	0.00e+00	0	44	102	25165824	12	3855
2026-01-24 16:10:56.35	325.04	11.84	-25.9	-26.5	15.0	0.00e+00	0	44	102	25165824	12	3849
2026-01-24 16:10:57.35	325.16	11.76	-26.0	-26.6	15.0	0.00e+00	0	44	102	25165824	12	3873
2026-01-24 16:10:58.35	325.27	11.69	-26.0	-26.6	15.0	0.00e+00	0	44	102	25165824	12	3867
2026-01-24 16:10:59.36	325.39	11.62	-26.1	-26.9	14.8	0.00e+00	0	44	102	25165824	12	3934
2026-01-24 16:11:00.37	325.50	11.54	-26.2	-27.2	14.7	0.00e+00	0	44	102	25165824	12	4012
2026-01-24 16:11:01.37	325.62	11.47	-26.1	-26.9	14.8	0.00e+00	0	44	102	25165824	12	3951
2026-01-24 16:11:02.38	325.73	11.39	-26.2	-27.1	14.7	0.00e+00	0	44	102	25165824	12	3999
2026-01-24 16:11:03.38	325.84	11.32	-26.2	-27.1	14.7	1.10e-06	0	44	102	25165824	12	3997
2026-01-24 16:11:04.38	325.95	11.25	-26.2	-27.1	14.7	0.00e+00	0	44	102	25165824	12	4004
2026-01-24 16:11:05.39	326.06	11.17	-26.3	-27.2	14.6	0.00e+00	0	44	102	25165824	12	4019
2026-01-24 16:11:06.39	326.17	11.10	-26.3	-27.4	14.5	0.00e+00	0	44	102	25165824	12	4055
2026-01-24 16:11:07.39	326.28	11.03	-26.3	-27.4	14.5	0.00e+00	0	44	102	25165824	12	4061
2026-01-24 16:11:08.40	326.39	10.95	-26.4	-27.6	14.4	0.00e+00	0	44	102	25165824	12	4111
2026-01-24 16:11:09.40	326.50	10.88	-26.4	-27.5	14.4	0.00e+00	0	44	102	25165824	12	4101
2026-01-24 16:11:10.41	326.61	10.81	-26.5	-27.7	14.3	1.10e-06	0	44	102	25165824	12	4147
2026-01-24 16:11:11.41	326.72	10.73	-26.5	-27.7	14.3	1.10e-06	0	44	102	25165824	12	4154
2026-01-24 16:11:12.42	326.83	10.66	-26.5	-27.8	14.2	1.10e-06	0	44	102	25165824	12	4181
2026-01-24 16:11:13.42	326.93	10.59	-26.6	-27.5	14.1	3.40e-06	0	44	102	25165824	13	3991
2026-01-24 16:11:14.42	327.04	10.52	-26.6	-27.6	14.1	2.20e-06	0	44	102	25165824	13	4002
2026-01-24 16:11:15.42	327.14	10.44	-26.6	-27.6	14.1	0.00e+00	0	45	102	25165824	13	4008
2026-01-24 16:11:16.43	327.25	10.37	-26.7	-27.8	13.9	2.20e-06	0	44	102	25165824	13	4060
2026-01-24 16:11:17.42	327.35	10.30	-26.7	-27.8	13.9	4.50e-06	0	44	102	25165824	13	4066
2026-01-24 16:11:18.43	327.46	10.23	-26.6	-27.6	14.0	3.40e-06	0	44	102	25165824	13	4008
2026-01-24 16:11:19.43	327.56	10.16	-26.5	-27.4	14.1	1.10e-06	0	44	102	25165824	13	3964
2026-01-24 16:11:20.44	327.67	10.09	-26.6	-27.5	14.1	3.40e-06	0	44	102	25165824	13	3987
2026-01-24 16:11:21.44	327.77	10.01	-26.6	-27.6	14.1	3.40e-06	0	44	102	25165824	13	4007
2026-01-24 16:11:22.44	327.87	9.94	-26.6	-27.4	14.2	0.00e+00	0	44	102	25165824	13	3957
2026-01-24 16:11:23.45	327.97	9.87	-26.5	-27.3	14.2	1.10e-06	0	44	102	25165824	13	3935
2026-01-24 16:11:24.45	328.07	9.80	-26.5	-27.2	14.2	3.40e-06	0	44	102	25165824	13	3909
2026-01-24 16:11:25.45	328.17	9.73	-26.5	-27.3	14.2	1.10e-06	0	44	102	25165824	13	3944
2026-01-24 16:11:26.46	328.28	9.66	-26.6	-27.4	14.1	2.20e-06	0	44	102	25165824	13	3964
2026-01-24 16:11:27.46	328.37	9.59	-26.5	-27.2	14.2	2.20e-06	0	44	102	25165824	13	3907
2026-01-24 16:11:28.47	328.48	9.52	-26.6	-27.5	14.0	1.10e-06	0	44	102	25165824	13	3998
2026-01-24 16:11:29.46	328.57	9.45	-26.6	-27.4	14.1	2.20e-06	0	44	102	25165824	13	3962
2026-01-24 16:11:30.47	328.67	9.38	-26.6	-27.6	14.0	2.20e-06	0	44	102	25165824	13	4015
2026-01-24 16:11:31.47	328.77	9.31	-26.8	-28.0	13.8	6.80e-06	0	44	102	25165824	13	4109
2026-01-24 16:11:32.47	328.87	9.24	-26.8	-28.0	13.8	2.20e-06	0	44	102	25165824	13	4114
2026-01-24 16:11:33.47	328.96	9.17	-26.9	-28.2	13.6	3.40e-06	0	44	102	25165824	13	4173
2026-01-24 16:11:34.48	329.06	9.10	-26.7	-27.8	13.8	5.70e-06	0	45	102	25165824	13	4062
2026-01-24 16:11:35.48	329.16	9.03	-26.8	-27.9	13.8	2.20e-06	0	44	102	25165824	13	4096
2026-01-24 16:11:36.48	329.25	8.96	-26.8	-27.9	13.8	5.70e-06	0	44	102	25165824	13	4088
2026-01-24 16:11:37.49	329.35	8.89	-26.9	-28.2	13.6	9.10e-06	0	44	102	25165824	13	4190
2026-01-24 16:11:38.50	329.45	8.82	-26.9	-28.3	13.5	9.10e-06	0	44	102	25165824	13	4199
2026-01-24 16:11:39.50	329.54	8.75	-26.7	-27.8	13.8	1.10e-06	0	44	102	25165824	13	4068
2026-01-24 16:11:40.50	329.63	8.68	-26.8	-27.9	13.7	8.00e-06	0	44	102	25165824	13	4095
2026-01-24 16:11:41.50	329.73	8.61	-26.8	-27.9	13.7	6.80e-06	0	45	102	25165824	13	4093
2026-01-24 16:11:42.50	329.82	8.54	-26.8	-27.9	13.7	5.70e-06	0	44	102	25165824	13	4099
2026-01-24 16:11:43.50	329.91	8.48	-26.7	-27.8	13.7	3.40e-06	0	44	102	25165824	13	4084
2026-01-24 16:11:44.50	330.01	8.41	-26.7	-27.7	13.9	6.80e-06	0	44	102	25165824	13	4035
2026-01-24 16:11:45.51	330.10	8.34	-26.7	-27.7	13.8	3.40e-06	0	44	102	25165824	13	4042
2026-01-24 16:11:46.51	330.19	8.27	-26.7	-27.6	13.9	3.40e-06	0	44	102	25165824	13	4030
2026-01-24 16:11:47.52	330.28	8.20	-26.6	-27.5	13.9	3.40e-06	0	44	102	25165824	13	3998
2026-01-24 16:11:48.52	330.37	8.13	-26.6	-27.5	13.9	2.20e-06	0	44	102	25165824	13	3992
2026-01-24 16:11:49.52	330.46	8.07	-26.6	-27.5	13.9	6.80e-06	0	44	102	25165824	13	3990
2026-01-24 16:11:50.53	330.55	8.00	-26.5	-27.4	14.0	1.10e-06	0	44	102	25165824	13	3969
2026-01-24 16:11:51.53	330.64	7.93	-26.6	-27.5	13.9	4.50e-06	0	44	102	25165824	13	3994
2026-01-24 16:11:52.53	330.73	7.86	-26.7	-27.7	13.8	3.40e-06	0	44	102	25165824	13	4053
2026-01-24 16:11:53.54	330.82	7.80	-26.6	-27.5	13.9	2.20e-06	0	44	102	25165824	13	3989
2026-01-24 16:11:54.54	330.91	7.73	-26.6	-27.5	13.9	0.00e+00	0	44	102	25165824	13	3991
2026-01-24 16:11:55.55	331.00	7.66	-26.7	-27.8	13.7	2.20e-06	0	44	102	25165824	13	4073
2026-01-24 16:11:56.56	331.09	7.59	-26.7	-27.8	13.7	3.40e-06	0	44	102	25165824	13	4085
2026-01-24 16:11:57.57	331.18	7.53	-26.8	-27.9	13.6	8.00e-06	0	44	102	25165824	13	4112
2026-01-24 16:11:58.58	331.26	7.46	-26.7	-27.8	13.7	3.40e-06	0	44	102	25165824	13	4065
2026-01-24 16:11:59.58	331.35	7.39	-26.6	-27.6	13.8	2.20e-06	0	44	102	25165824	13	4024
2026-01-24 16:12:00.58	331.44	7.33	-26.9	-28.2	13.4	1.02e-05	0	45	102	25165824	13	4195
2026-01-24 16:12:01.59	331.52	7.26	-26.9	-28.2	13.4	9.10e-06	0	44	102	25165824	13	4180
2026-01-24 16:12:02.60	331.61	7.19	-26.8	-28.1	13.5	5.70e-06	0	44	102	25165824	13	4155
2026-01-24 16:12:03.60	331.69	7.13	-26.9	-28.3	13.3	6.80e-06	0	44	102	25165824	13	4221
2026-01-24 16:12:04.60	331.78	7.06	-33.1	-42.6	3.8	2.08e-01	0	45	104	25165824	25	10687
2026-01-24 16:12:05.61	331.86	7.00	-33.6	-43.6	3.8	8.47e-01	0	44	104	25165824	26	11379
2026-01-24 16:12:06.61	331.95	6.93	-33.9	-43.6	3.8	8.46e-01	0	44	104	25165824	27	11050
2026-01-24 16:12:07.61	332.03	6.87	-34.0	-43.9	3.8	8.48e-01	0	44	104	25165824	27	11260

#Closed at: 2026-01-24 16:12:07
#Recorded file [25 MB]: D:/data/31010_260124_190129.dat