passes_logs/2026/01/24/R2M6_AANII_01/R2M6_AANII_01__20260124_105733_FENGYUN_3D_rec.log

#Pass ID: 20260124_105733_FENGYUN 3D
#Satellite: FENGYUN 3D
#Configuration: FENGYUN 3D
#almurnet v.1.7.20240730
#Start time: 2026-01-24 10:57:33

#Version: 2.2.20231116
#Station: R2M6_AANII_01
#Location: 30.233357 lon 59.946436 lat
#TLE: 1 43010U 17072A   26023.60174628  .00000324  00000+0  17481-3 0  9994
#TLE: 2 43010  98.9958 355.5514 0002482  93.7422 266.4037 14.19699955424476

#Time	Az	El	Level	Level2	SNR	BER	BlckErr	Temp	State	Recorded	gain1	gain2
2026-01-24 10:57:33.98	116.22	7.03	-30.8	-34.0	5.1	7.99e-01	0	41	0	0	23	5198
2026-01-24 10:57:34.97	116.15	7.10	-30.3	-33.0	5.3	7.89e-01	0	41	104	0	22	4907
2026-01-24 10:57:35.97	116.08	7.17	-30.2	-33.2	9.5	1.60e-02	0	41	0	0	21	5073
2026-01-24 10:57:36.98	116.01	7.24	-30.2	-33.0	9.6	1.02e-02	0	41	102	1048576	21	5009
2026-01-24 10:57:37.98	115.94	7.31	-30.3	-33.3	9.4	1.23e-02	0	41	102	1048576	21	5132
2026-01-24 10:57:38.98	115.87	7.38	-30.1	-32.9	9.7	8.87e-03	0	41	102	1048576	21	4942
2026-01-24 10:57:39.99	115.80	7.46	-30.1	-32.9	9.7	7.97e-03	0	41	102	1048576	21	4947
2026-01-24 10:57:41.00	115.73	7.53	-30.2	-33.0	9.7	8.41e-03	0	41	102	1048576	21	4972
2026-01-24 10:57:42.00	115.66	7.60	-30.2	-33.0	9.7	7.16e-03	0	41	102	1048576	21	5001
2026-01-24 10:57:43.00	115.59	7.67	-29.6	-32.0	10.7	3.39e-03	0	41	102	1048576	20	4718
2026-01-24 10:57:44.00	115.51	7.74	-29.2	-31.4	11.5	9.99e-04	0	41	102	1048576	19	4645
2026-01-24 10:57:45.01	115.44	7.82	-28.7	-30.6	12.4	1.19e-04	0	41	102	1048576	18	4467
2026-01-24 10:57:46.01	115.37	7.89	-28.4	-29.9	12.8	5.60e-05	0	41	102	1048576	18	4271
2026-01-24 10:57:47.01	115.30	7.96	-28.1	-29.7	13.2	1.48e-05	0	41	102	1048576	17	4313
2026-01-24 10:57:48.01	115.22	8.03	-27.9	-29.1	13.6	9.10e-06	0	42	102	1048576	17	4168
2026-01-24 10:57:49.02	115.15	8.11	-27.9	-29.1	13.6	1.02e-05	0	41	102	1048576	17	4157
2026-01-24 10:57:50.02	115.07	8.18	-27.7	-29.3	13.8	1.10e-06	0	42	102	1048576	16	4322
2026-01-24 10:57:51.03	115.00	8.25	-27.7	-29.3	13.8	2.20e-06	0	41	102	1048576	16	4302
2026-01-24 10:57:52.03	114.92	8.33	-27.8	-29.6	13.6	5.70e-06	0	41	102	1048576	16	4392
2026-01-24 10:57:53.03	114.85	8.40	-27.7	-29.2	13.8	2.20e-06	0	42	102	1048576	16	4293
2026-01-24 10:57:54.03	114.77	8.47	-27.6	-29.0	14.0	1.10e-06	0	42	102	1048576	16	4234
2026-01-24 10:57:55.04	114.70	8.55	-27.7	-29.3	13.8	3.40e-06	0	42	102	1048576	16	4315
2026-01-24 10:57:56.04	114.62	8.62	-27.7	-29.3	13.8	4.50e-06	0	42	102	1048576	16	4304
2026-01-24 10:57:57.05	114.54	8.70	-27.4	-28.6	14.2	1.10e-06	0	42	102	1048576	16	4128
2026-01-24 10:57:58.06	114.46	8.77	-27.5	-28.8	14.1	0.00e+00	0	42	102	1048576	16	4181
2026-01-24 10:57:59.06	114.39	8.84	-27.5	-28.7	14.2	3.40e-06	0	42	102	1048576	16	4143
2026-01-24 10:58:00.07	114.31	8.92	-27.4	-28.5	14.3	0.00e+00	0	42	102	1048576	16	4090
2026-01-24 10:58:01.07	114.23	8.99	-27.4	-28.5	14.3	0.00e+00	0	42	102	1048576	16	4099
2026-01-24 10:58:02.08	114.15	9.07	-27.5	-28.7	14.2	0.00e+00	0	42	102	1048576	16	4141
2026-01-24 10:58:03.09	114.07	9.15	-27.4	-28.5	14.3	0.00e+00	0	42	102	1048576	16	4097
2026-01-24 10:58:04.09	113.99	9.22	-27.3	-28.4	14.4	0.00e+00	0	42	102	1048576	16	4065
2026-01-24 10:58:05.09	113.91	9.30	-27.8	-29.4	13.9	2.20e-06	0	42	102	1048576	16	4326
2026-01-24 10:58:06.09	113.83	9.37	-27.4	-28.5	14.3	0.00e+00	0	42	102	1048576	16	4090
2026-01-24 10:58:07.10	113.75	9.45	-27.2	-28.7	14.4	0.00e+00	0	42	102	1048576	15	4249
2026-01-24 10:58:08.10	113.67	9.52	-27.1	-28.3	14.5	0.00e+00	0	42	102	1048576	15	4165
2026-01-24 10:58:09.11	113.58	9.60	-27.2	-28.6	14.4	0.00e+00	0	42	102	1048576	15	4227
2026-01-24 10:58:10.11	113.50	9.68	-27.2	-28.6	14.4	0.00e+00	0	42	102	1048576	15	4225
2026-01-24 10:58:11.11	113.42	9.75	-27.3	-28.7	14.4	0.00e+00	0	42	102	1048576	15	4265
2026-01-24 10:58:12.12	113.33	9.83	-27.3	-28.9	14.2	1.10e-06	0	42	102	1048576	15	4321
2026-01-24 10:58:13.12	113.25	9.91	-27.1	-28.3	14.6	0.00e+00	0	42	102	1048576	15	4157
2026-01-24 10:58:14.13	113.16	9.99	-27.1	-28.3	14.6	1.10e-06	0	42	102	1048576	15	4157
2026-01-24 10:58:15.13	113.08	10.06	-27.1	-28.4	14.6	0.00e+00	0	42	102	1048576	15	4178
2026-01-24 10:58:16.14	112.99	10.14	-27.2	-28.6	14.5	0.00e+00	0	42	102	1048576	15	4220
2026-01-24 10:58:17.15	112.91	10.22	-27.4	-29.0	14.2	0.00e+00	0	42	102	1048576	15	4355
2026-01-24 10:58:18.15	112.82	10.30	-27.1	-28.4	14.6	0.00e+00	0	42	102	1048576	15	4166
2026-01-24 10:58:19.16	112.73	10.38	-27.1	-28.4	14.6	0.00e+00	0	42	102	1048576	15	4165
2026-01-24 10:58:20.16	112.65	10.45	-27.1	-28.4	14.6	0.00e+00	0	42	102	1048576	15	4186
2026-01-24 10:58:21.17	112.56	10.53	-27.1	-28.3	14.6	0.00e+00	0	42	102	1048576	15	4140
2026-01-24 10:58:22.17	112.47	10.61	-27.2	-28.5	14.5	1.10e-06	0	42	102	1048576	15	4205
2026-01-24 10:58:23.18	112.38	10.69	-26.9	-27.9	14.9	1.10e-06	0	42	102	1048576	15	4041
2026-01-24 10:58:24.19	112.29	10.77	-26.9	-28.0	14.8	0.00e+00	0	42	102	1048576	15	4067
2026-01-24 10:58:25.19	112.20	10.85	-26.9	-28.0	14.8	0.00e+00	0	42	102	1048576	15	4075
2026-01-24 10:58:26.20	112.11	10.93	-26.9	-27.9	14.9	0.00e+00	0	42	102	1048576	15	4050
2026-01-24 10:58:27.20	112.02	11.01	-27.0	-28.2	14.7	0.00e+00	0	42	102	1048576	15	4131
2026-01-24 10:58:28.21	111.93	11.09	-27.3	-28.9	14.3	0.00e+00	0	42	102	1048576	15	4304
2026-01-24 10:58:29.21	111.84	11.17	-27.0	-28.1	14.8	0.00e+00	0	42	102	1048576	15	4099
2026-01-24 10:58:30.21	111.74	11.25	-26.8	-27.6	15.1	0.00e+00	0	42	102	1048576	15	3967
2026-01-24 10:58:31.21	111.65	11.33	-26.7	-28.0	15.1	0.00e+00	0	42	102	1048576	14	4181
2026-01-24 10:58:32.22	111.56	11.41	-26.7	-27.9	15.2	0.00e+00	0	42	102	1048576	14	4157
2026-01-24 10:58:33.22	111.46	11.49	-26.8	-28.2	15.0	1.10e-06	0	42	102	1048576	14	4230
2026-01-24 10:58:34.23	111.37	11.57	-26.7	-28.0	15.2	0.00e+00	0	42	102	1048576	14	4176
2026-01-24 10:58:35.23	111.28	11.65	-26.8	-28.1	15.2	0.00e+00	0	42	102	1048576	14	4190
2026-01-24 10:58:36.22	111.18	11.73	-26.9	-28.3	15.0	3.40e-06	0	42	102	1048576	14	4246
2026-01-24 10:58:37.22	111.09	11.81	-26.8	-28.1	15.2	0.00e+00	0	42	102	1048576	14	4190
2026-01-24 10:58:38.22	110.99	11.89	-26.6	-27.6	15.4	0.00e+00	0	43	102	1048576	14	4069
2026-01-24 10:58:39.23	110.89	11.98	-26.6	-27.8	15.3	0.00e+00	0	42	102	1048576	14	4106
2026-01-24 10:58:40.23	110.79	12.06	-26.7	-27.8	15.3	0.00e+00	0	42	102	1048576	14	4121
2026-01-24 10:58:41.23	110.70	12.14	-26.6	-27.8	15.3	0.00e+00	0	43	102	1048576	14	4123
2026-01-24 10:58:42.23	110.60	12.22	-26.5	-27.6	15.5	3.40e-06	0	43	102	1048576	14	4050
2026-01-24 10:58:43.24	110.50	12.31	-26.7	-28.0	15.2	0.00e+00	0	42	102	1048576	14	4176
2026-01-24 10:58:44.24	110.40	12.39	-26.9	-28.4	15.0	0.00e+00	0	43	102	1048576	14	4287
2026-01-24 10:58:45.24	110.30	12.47	-26.7	-27.8	15.3	3.40e-06	0	43	102	1048576	14	4117
2026-01-24 10:58:46.24	110.20	12.55	-26.4	-27.3	15.6	0.00e+00	0	42	102	1048576	14	3996
2026-01-24 10:58:47.25	110.09	12.64	-26.4	-27.3	15.6	0.00e+00	0	42	102	1048576	14	3987
2026-01-24 10:58:48.25	109.99	12.72	-26.5	-27.5	15.6	0.00e+00	0	42	102	1048576	14	4023
2026-01-24 10:58:49.25	109.89	12.81	-26.4	-27.3	15.6	0.00e+00	0	43	102	1048576	14	3994
2026-01-24 10:58:50.25	109.79	12.89	-26.6	-27.6	15.5	0.00e+00	0	42	102	1048576	14	4071
2026-01-24 10:58:51.26	109.68	12.97	-26.3	-27.1	15.8	0.00e+00	0	43	102	1048576	14	3935
2026-01-24 10:58:52.26	109.58	13.06	-26.4	-27.3	15.7	0.00e+00	0	43	102	1048576	14	3998
2026-01-24 10:58:53.26	109.47	13.14	-26.4	-27.1	15.8	0.00e+00	0	43	102	1048576	14	3943
2026-01-24 10:58:54.26	109.37	13.23	-26.4	-27.2	15.8	0.00e+00	0	42	102	1048576	14	3959
2026-01-24 10:58:55.27	109.26	13.31	-26.2	-27.4	15.9	0.00e+00	0	43	102	1048576	13	4120
2026-01-24 10:58:56.27	109.15	13.40	-26.3	-27.4	15.9	0.00e+00	0	43	102	1048576	13	4124
2026-01-24 10:58:57.27	109.05	13.48	-26.2	-27.3	16.0	0.00e+00	0	43	102	1048576	13	4086
2026-01-24 10:58:58.28	108.94	13.57	-26.1	-27.2	16.0	0.00e+00	0	42	102	1048576	13	4059
2026-01-24 10:58:59.29	108.83	13.65	-26.2	-27.2	16.0	0.00e+00	0	42	102	1048576	13	4064
2026-01-24 10:59:00.29	108.72	13.74	-26.0	-27.0	16.1	0.00e+00	0	43	102	1048576	13	4011
2026-01-24 10:59:01.29	108.61	13.83	-26.1	-27.2	16.0	0.00e+00	0	43	102	1048576	13	4066
2026-01-24 10:59:02.30	108.50	13.91	-26.0	-27.0	16.2	0.00e+00	0	43	102	1048576	13	4006
2026-01-24 10:59:03.31	108.38	14.00	-26.0	-26.9	16.2	0.00e+00	0	43	102	1048576	13	3994
2026-01-24 10:59:04.31	108.27	14.09	-26.1	-27.0	16.2	0.00e+00	0	43	102	1048576	13	4013
2026-01-24 10:59:05.32	108.16	14.17	-26.2	-27.3	16.0	0.00e+00	0	43	102	1048576	13	4086
2026-01-24 10:59:06.32	108.04	14.26	-26.0	-27.0	16.2	0.00e+00	0	43	102	1048576	13	4016
2026-01-24 10:59:07.33	107.93	14.35	-26.0	-26.8	16.2	0.00e+00	0	43	102	1048576	13	3972
2026-01-24 10:59:08.33	107.81	14.44	-26.1	-27.0	16.2	0.00e+00	0	43	102	1048576	13	4016
2026-01-24 10:59:09.33	107.70	14.52	-26.2	-27.2	16.1	0.00e+00	0	43	102	1048576	13	4078
2026-01-24 10:59:10.34	107.58	14.61	-26.0	-27.0	16.2	0.00e+00	0	43	102	1048576	13	4009
2026-01-24 10:59:11.34	107.46	14.70	-26.1	-27.0	16.2	0.00e+00	0	43	102	1048576	13	4015
2026-01-24 10:59:12.34	107.35	14.79	-26.0	-26.9	16.3	0.00e+00	0	42	102	1048576	13	3980
2026-01-24 10:59:13.35	107.23	14.88	-26.0	-26.9	16.3	0.00e+00	0	43	102	1048576	13	3985
2026-01-24 10:59:14.35	107.11	14.97	-26.1	-27.0	16.2	0.00e+00	0	43	102	1048576	13	4020
2026-01-24 10:59:15.36	106.99	15.06	-25.9	-26.6	16.4	0.00e+00	0	43	102	1048576	13	3918
2026-01-24 10:59:16.35	106.87	15.14	-25.9	-26.6	16.5	0.00e+00	0	43	102	1048576	13	3906
2026-01-24 10:59:17.35	106.75	15.23	-25.9	-26.6	16.4	2.20e-06	0	43	102	1048576	13	3913
2026-01-24 10:59:18.36	106.62	15.32	-25.7	-26.7	16.6	0.00e+00	0	43	102	1048576	12	4053
2026-01-24 10:59:19.36	106.50	15.41	-25.6	-26.5	16.8	0.00e+00	0	43	102	1048576	12	4000
2026-01-24 10:59:20.37	106.38	15.50	-25.6	-26.5	16.8	0.00e+00	0	43	102	1048576	12	4000
2026-01-24 10:59:21.37	106.25	15.59	-25.6	-26.5	16.8	0.00e+00	0	43	102	1048576	12	4003
2026-01-24 10:59:22.37	106.13	15.68	-25.7	-26.7	16.7	0.00e+00	0	43	102	1048576	12	4045
2026-01-24 10:59:23.38	106.00	15.77	-25.6	-26.5	16.8	0.00e+00	0	43	102	1048576	12	3981
2026-01-24 10:59:24.38	105.87	15.86	-25.7	-26.7	16.7	0.00e+00	0	43	102	1048576	12	4047
2026-01-24 10:59:25.38	105.75	15.96	-25.7	-26.8	16.7	0.00e+00	0	43	102	1048576	12	4065
2026-01-24 10:59:26.39	105.62	16.05	-25.8	-26.9	16.6	0.00e+00	0	43	102	1048576	12	4088
2026-01-24 10:59:27.39	105.49	16.14	-25.8	-26.8	16.6	0.00e+00	0	43	102	1048576	12	4074
2026-01-24 10:59:28.39	105.36	16.23	-25.7	-26.8	16.7	0.00e+00	0	43	102	1048576	12	4068
2026-01-24 10:59:29.40	105.23	16.32	-25.9	-27.1	16.5	0.00e+00	0	43	102	1048576	12	4137
2026-01-24 10:59:30.40	105.10	16.41	-25.9	-27.1	16.5	0.00e+00	0	43	102	1048576	12	4158
2026-01-24 10:59:31.40	104.96	16.50	-25.9	-27.1	16.6	0.00e+00	0	43	102	1048576	12	4138
2026-01-24 10:59:32.41	104.83	16.60	-25.7	-26.8	16.7	0.00e+00	0	43	102	1048576	12	4065
2026-01-24 10:59:33.41	104.70	16.69	-25.6	-26.6	16.8	0.00e+00	0	43	102	1048576	12	4014
2026-01-24 10:59:34.41	104.56	16.78	-25.6	-26.5	16.9	0.00e+00	0	43	102	1048576	12	3982
2026-01-24 10:59:35.42	104.42	16.88	-25.6	-26.5	16.9	0.00e+00	0	43	102	1048576	12	3998
2026-01-24 10:59:36.42	104.29	16.97	-25.6	-26.4	17.0	0.00e+00	0	43	102	1048576	12	3957
2026-01-24 10:59:37.42	104.15	17.06	-25.5	-26.2	17.1	0.00e+00	0	43	102	1048576	12	3919
2026-01-24 10:59:38.43	104.01	17.16	-25.4	-26.1	17.1	0.00e+00	0	43	102	1048576	12	3885
2026-01-24 10:59:39.43	103.87	17.25	-25.4	-26.0	17.2	0.00e+00	0	43	102	1048576	12	3869
2026-01-24 10:59:40.43	103.73	17.34	-25.3	-26.4	17.3	0.00e+00	0	43	102	1048576	11	4063
2026-01-24 10:59:41.43	103.59	17.44	-25.3	-26.3	17.4	0.00e+00	0	43	102	1048576	11	4045
2026-01-24 10:59:42.44	103.45	17.53	-25.3	-26.3	17.4	0.00e+00	0	43	102	1048576	11	4050
2026-01-24 10:59:43.45	103.30	17.63	-25.2	-26.2	17.4	0.00e+00	0	43	102	1048576	11	4017
2026-01-24 10:59:44.45	103.16	17.72	-25.3	-26.2	17.4	0.00e+00	0	43	102	1048576	11	4029
2026-01-24 10:59:45.45	103.02	17.81	-25.3	-26.3	17.4	0.00e+00	0	43	102	1048576	11	4039
2026-01-24 10:59:46.45	102.87	17.91	-25.4	-26.7	17.2	0.00e+00	0	43	102	1048576	11	4136
2026-01-24 10:59:47.46	102.72	18.00	-25.4	-26.6	17.2	0.00e+00	0	43	102	1048576	11	4116
2026-01-24 10:59:48.46	102.58	18.10	-25.4	-26.5	17.3	0.00e+00	0	43	102	1048576	11	4090
2026-01-24 10:59:49.47	102.43	18.19	-25.5	-26.7	17.2	0.00e+00	0	43	102	1048576	11	4153
2026-01-24 10:59:50.47	102.28	18.29	-25.5	-26.8	17.1	0.00e+00	0	43	102	1048576	11	4184
2026-01-24 10:59:51.47	102.13	18.38	-25.3	-26.4	17.3	0.00e+00	0	43	102	1048576	11	4078
2026-01-24 10:59:52.48	101.98	18.48	-25.2	-26.2	17.5	0.00e+00	0	43	102	1048576	11	4016
2026-01-24 10:59:53.49	101.82	18.58	-25.3	-26.3	17.4	0.00e+00	0	43	102	1048576	11	4048
2026-01-24 10:59:54.50	101.67	18.67	-25.3	-26.2	17.4	0.00e+00	0	43	102	1048576	11	4025
2026-01-24 10:59:55.50	101.51	18.77	-25.3	-26.3	17.5	0.00e+00	0	43	102	1048576	11	4035
2026-01-24 10:59:56.50	101.36	18.87	-25.3	-26.2	17.5	0.00e+00	0	43	102	1048576	11	4017
2026-01-24 10:59:57.51	101.20	18.96	-25.0	-25.7	17.8	0.00e+00	0	43	102	1048576	11	3891
2026-01-24 10:59:58.51	101.05	19.06	-24.9	-25.4	17.9	0.00e+00	0	43	102	1048576	11	3829
2026-01-24 10:59:59.51	100.89	19.16	-24.9	-25.4	17.9	0.00e+00	0	43	102	1048576	11	3835
2026-01-24 11:00:00.51	100.73	19.25	-24.9	-25.5	17.9	0.00e+00	0	43	102	1048576	11	3853
2026-01-24 11:00:01.51	100.57	19.35	-24.8	-25.3	18.0	0.00e+00	0	43	102	1048576	11	3808
2026-01-24 11:00:02.51	100.41	19.45	-24.8	-25.3	18.0	0.00e+00	0	43	102	1048576	11	3805
2026-01-24 11:00:03.52	100.24	19.55	-24.8	-25.3	18.0	0.00e+00	0	43	102	1048576	11	3798
2026-01-24 11:00:04.52	100.08	19.64	-24.8	-25.3	18.0	0.00e+00	0	43	102	1048576	11	3799
2026-01-24 11:00:05.52	99.92	19.74	-24.9	-25.5	17.9	0.00e+00	0	43	102	1048576	11	3860
2026-01-24 11:00:06.53	99.75	19.84	-25.1	-25.8	17.7	0.00e+00	0	43	102	1048576	11	3924
2026-01-24 11:00:07.53	99.58	19.94	-25.0	-25.6	17.9	0.00e+00	0	43	102	1048576	11	3863
2026-01-24 11:00:08.53	99.42	20.03	-24.9	-25.5	17.9	0.00e+00	0	43	102	1048576	11	3841
2026-01-24 11:00:09.54	99.25	20.13	-24.9	-25.4	18.0	0.00e+00	0	43	102	1048576	11	3836
2026-01-24 11:00:10.54	99.08	20.23	-24.8	-25.3	18.0	0.00e+00	0	43	102	1048576	11	3803
2026-01-24 11:00:11.55	98.91	20.33	-24.8	-25.7	18.0	0.00e+00	0	43	102	1048576	10	4007
2026-01-24 11:00:12.56	98.73	20.43	-24.8	-25.7	18.1	0.00e+00	0	43	102	1048576	10	3997
2026-01-24 11:00:13.57	98.56	20.53	-24.7	-25.5	18.2	0.00e+00	0	43	102	1048576	10	3950
2026-01-24 11:00:14.57	98.38	20.63	-24.8	-25.8	18.1	0.00e+00	0	43	102	1048576	10	4016
2026-01-24 11:00:15.58	98.21	20.73	-24.9	-26.0	18.0	0.00e+00	0	43	102	1048576	10	4066
2026-01-24 11:00:16.58	98.03	20.83	-24.8	-25.8	18.0	0.00e+00	0	43	102	1048576	10	4042
2026-01-24 11:00:17.59	97.85	20.93	-24.9	-26.0	18.0	0.00e+00	0	43	102	1048576	10	4073
2026-01-24 11:00:18.59	97.67	21.03	-24.9	-26.0	18.0	0.00e+00	0	43	102	1048576	10	4080
2026-01-24 11:00:19.59	97.49	21.12	-25.0	-26.1	17.9	0.00e+00	0	43	102	1048576	10	4096
2026-01-24 11:00:20.59	97.31	21.22	-25.0	-26.1	17.9	0.00e+00	0	43	102	1048576	10	4100
2026-01-24 11:00:21.60	97.13	21.32	-24.9	-26.1	17.9	0.00e+00	0	43	102	1048576	10	4091
2026-01-24 11:00:22.60	96.95	21.42	-24.8	-25.7	18.1	0.00e+00	0	43	102	1048576	10	4015
2026-01-24 11:00:23.60	96.76	21.52	-24.8	-25.7	18.1	0.00e+00	0	43	102	1048576	10	4012
2026-01-24 11:00:24.61	96.57	21.62	-24.8	-25.7	18.1	0.00e+00	0	43	102	1048576	10	4004
2026-01-24 11:00:25.61	96.39	21.72	-24.8	-25.7	18.1	0.00e+00	0	43	102	1048576	10	3996
2026-01-24 11:00:26.62	96.20	21.82	-24.9	-25.9	18.0	0.00e+00	0	43	102	1048576	10	4056
2026-01-24 11:00:27.63	96.01	21.92	-24.8	-25.7	18.2	0.00e+00	0	43	102	1048576	10	3990
2026-01-24 11:00:28.63	95.82	22.02	-24.7	-25.5	18.3	0.00e+00	0	43	102	1048576	10	3941
2026-01-24 11:00:29.64	95.62	22.12	-24.7	-25.6	18.2	0.00e+00	0	43	102	1048576	10	3974
2026-01-24 11:00:30.65	95.43	22.22	-24.7	-25.6	18.2	0.00e+00	0	43	102	1048576	10	3983
2026-01-24 11:00:31.65	95.23	22.32	-24.7	-25.5	18.2	0.00e+00	0	43	102	1048576	10	3966
2026-01-24 11:00:32.65	95.04	22.42	-24.8	-25.7	18.1	0.00e+00	0	43	102	1048576	10	4012
2026-01-24 11:00:33.66	94.84	22.52	-24.7	-25.6	18.2	0.00e+00	0	43	102	1048576	10	3985
2026-01-24 11:00:34.66	94.64	22.62	-24.7	-25.6	18.2	0.00e+00	0	43	102	1048576	10	3976
2026-01-24 11:00:35.67	94.44	22.73	-24.7	-25.4	18.3	0.00e+00	0	43	102	1048576	10	3935
2026-01-24 11:00:36.67	94.24	22.83	-24.6	-25.3	18.3	0.00e+00	0	43	102	1048576	10	3913
2026-01-24 11:00:37.68	94.03	22.93	-24.6	-25.4	18.3	0.00e+00	0	43	102	1048576	10	3928
2026-01-24 11:00:38.68	93.83	23.03	-24.5	-25.1	18.4	0.00e+00	0	43	102	1048576	10	3868
2026-01-24 11:00:39.69	93.62	23.13	-24.5	-25.1	18.5	0.00e+00	0	43	102	1048576	10	3860
2026-01-24 11:00:40.69	93.42	23.23	-24.6	-25.4	18.3	0.00e+00	0	43	102	1048576	10	3932
2026-01-24 11:00:41.70	93.21	23.33	-24.5	-25.1	18.5	0.00e+00	0	43	102	1048576	10	3873
2026-01-24 11:00:42.70	93.00	23.43	-24.4	-25.0	18.6	0.00e+00	0	43	102	1048576	10	3834
2026-01-24 11:00:43.71	92.79	23.53	-24.4	-24.9	18.6	0.00e+00	0	43	102	1048576	10	3811
2026-01-24 11:00:44.71	92.58	23.63	-24.2	-24.9	18.8	0.00e+00	0	43	102	1048576	9	3914
2026-01-24 11:00:45.72	92.36	23.73	-24.1	-24.6	19.0	0.00e+00	0	43	102	1048576	9	3852
2026-01-24 11:00:46.71	92.15	23.83	-24.1	-24.8	18.9	0.00e+00	0	43	102	1048576	9	3898
2026-01-24 11:00:47.72	91.93	23.93	-24.1	-24.8	18.9	0.00e+00	0	43	102	1048576	9	3902
2026-01-24 11:00:48.73	91.71	24.03	-24.3	-25.1	18.8	0.00e+00	0	43	102	1048576	9	3957
2026-01-24 11:00:49.73	91.49	24.13	-24.2	-24.9	18.8	0.00e+00	0	43	102	1048576	9	3926
2026-01-24 11:00:50.73	91.27	24.23	-24.2	-24.9	18.8	0.00e+00	0	43	102	1048576	9	3921
2026-01-24 11:00:51.73	91.05	24.33	-24.3	-25.1	18.7	0.00e+00	0	43	102	1048576	9	3962
2026-01-24 11:00:52.73	90.83	24.43	-24.3	-25.1	18.8	0.00e+00	0	43	102	1048576	9	3972
2026-01-24 11:00:53.72	90.61	24.52	-24.3	-25.1	18.7	0.00e+00	0	43	102	1048576	9	3973
2026-01-24 11:00:54.73	90.38	24.62	-24.1	-24.9	18.9	0.00e+00	0	43	102	1048576	9	3906
2026-01-24 11:00:55.73	90.16	24.72	-24.0	-24.6	19.0	0.00e+00	0	43	102	1048576	9	3853
2026-01-24 11:00:56.74	89.92	24.82	-24.1	-24.7	19.0	0.00e+00	0	43	102	1048576	9	3865
2026-01-24 11:00:57.75	89.69	24.92	-24.0	-24.5	19.1	0.00e+00	0	43	102	1048576	9	3823
2026-01-24 11:00:58.76	89.46	25.02	-23.9	-24.3	19.2	0.00e+00	0	43	102	1048576	9	3771
2026-01-24 11:00:59.77	89.22	25.12	-24.0	-24.5	19.1	0.00e+00	0	43	102	1048576	9	3824
2026-01-24 11:01:00.77	88.99	25.22	-23.9	-24.4	19.1	0.00e+00	0	43	102	1048576	9	3796
2026-01-24 11:01:01.77	88.75	25.32	-23.9	-24.3	19.2	0.00e+00	0	43	102	1048576	9	3783
2026-01-24 11:01:02.78	88.52	25.42	-23.9	-24.4	19.1	0.00e+00	0	43	102	1048576	9	3792
2026-01-24 11:01:03.79	88.27	25.52	-23.8	-24.2	19.2	0.00e+00	0	43	102	1048576	9	3744
2026-01-24 11:01:04.79	88.03	25.61	-23.8	-24.6	19.3	0.00e+00	0	43	102	1048576	8	3959
2026-01-24 11:01:05.80	87.79	25.71	-23.7	-24.5	19.3	1.10e-06	0	43	102	1048576	8	3931
2026-01-24 11:01:06.81	87.54	25.81	-23.9	-24.9	19.2	0.00e+00	0	43	102	1048576	8	4023
2026-01-24 11:01:07.81	87.30	25.91	-23.9	-24.9	19.2	0.00e+00	0	43	102	1048576	8	4015
2026-01-24 11:01:08.82	87.05	26.00	-23.9	-24.9	19.1	0.00e+00	0	43	102	1048576	8	4025
2026-01-24 11:01:09.82	86.80	26.10	-24.1	-25.2	19.0	0.00e+00	0	43	102	1048576	8	4109
2026-01-24 11:01:10.83	86.55	26.20	-24.2	-25.5	18.8	0.00e+00	0	43	102	1048576	8	4167
2026-01-24 11:01:11.83	86.30	26.29	-24.1	-25.3	18.9	0.00e+00	0	43	102	1048576	8	4131
2026-01-24 11:01:12.83	86.05	26.39	-24.0	-25.1	19.0	0.00e+00	0	43	102	1048576	8	4079
2026-01-24 11:01:13.84	85.79	26.49	-24.1	-25.3	19.0	0.00e+00	0	44	102	1048576	8	4117
2026-01-24 11:01:14.83	85.54	26.58	-24.0	-25.0	19.1	0.00e+00	0	43	102	1048576	8	4050
2026-01-24 11:01:15.84	85.28	26.68	-24.0	-25.0	19.1	0.00e+00	0	43	102	1048576	8	4047
2026-01-24 11:01:16.84	85.02	26.77	-24.0	-25.1	19.1	0.00e+00	0	43	102	1048576	8	4063
2026-01-24 11:01:17.84	84.76	26.86	-23.9	-24.7	19.3	0.00e+00	0	43	102	1048576	8	3979
2026-01-24 11:01:18.85	84.50	26.96	-23.8	-24.5	19.4	0.00e+00	0	43	102	1048576	8	3929
2026-01-24 11:01:19.86	84.23	27.05	-23.8	-24.7	19.3	0.00e+00	0	43	102	1048576	8	3972
2026-01-24 11:01:20.86	83.97	27.15	-23.9	-24.8	19.2	0.00e+00	0	43	102	1048576	8	4009
2026-01-24 11:01:21.86	83.70	27.24	-24.0	-25.1	19.1	0.00e+00	0	43	102	1048576	8	4076
2026-01-24 11:01:22.87	83.43	27.33	-24.0	-25.1	19.1	0.00e+00	0	43	102	1048576	8	4078
2026-01-24 11:01:23.87	83.16	27.42	-24.1	-25.2	19.0	0.00e+00	0	43	102	1048576	8	4104
2026-01-24 11:01:24.87	82.89	27.52	-23.8	-24.6	19.4	0.00e+00	0	43	102	1048576	8	3955
2026-01-24 11:01:25.87	82.62	27.61	-23.7	-24.3	19.5	0.00e+00	0	43	102	1048576	8	3877
2026-01-24 11:01:26.87	82.35	27.70	-23.6	-24.3	19.5	0.00e+00	0	43	102	1048576	8	3871
2026-01-24 11:01:27.88	82.07	27.79	-23.6	-24.1	19.6	0.00e+00	0	43	102	1048576	8	3837
2026-01-24 11:01:28.89	81.79	27.88	-23.6	-24.1	19.6	0.00e+00	0	43	102	1048576	8	3843
2026-01-24 11:01:29.90	81.51	27.97	-23.7	-24.4	19.5	0.00e+00	0	43	102	1048576	8	3901
2026-01-24 11:01:30.90	81.23	28.06	-23.7	-24.5	19.4	0.00e+00	0	43	102	1048576	8	3918
2026-01-24 11:01:31.91	80.94	28.15	-23.8	-24.5	19.4	0.00e+00	0	43	102	1048576	8	3935
2026-01-24 11:01:32.91	80.66	28.24	-23.8	-24.6	19.3	0.00e+00	0	43	102	1048576	8	3960
2026-01-24 11:01:33.92	80.37	28.32	-23.8	-24.7	19.3	0.00e+00	0	43	102	1048576	8	3972
2026-01-24 11:01:34.93	80.08	28.41	-23.9	-24.8	19.2	0.00e+00	0	43	102	1048576	8	4004
2026-01-24 11:01:35.93	79.79	28.50	-24.1	-25.2	19.1	0.00e+00	0	43	102	1048576	8	4087
2026-01-24 11:01:36.93	79.50	28.58	-23.9	-24.8	19.2	0.00e+00	0	43	102	1048576	8	3999
2026-01-24 11:01:37.94	79.21	28.67	-23.8	-24.6	19.4	0.00e+00	0	43	102	1048576	8	3953
2026-01-24 11:01:38.94	78.92	28.76	-23.8	-24.6	19.3	0.00e+00	0	43	102	1048576	8	3954
2026-01-24 11:01:39.95	78.62	28.84	-23.8	-24.6	19.3	0.00e+00	0	43	102	1048576	8	3957
2026-01-24 11:01:40.96	78.32	28.92	-24.0	-25.0	19.2	0.00e+00	0	43	102	1048576	8	4050
2026-01-24 11:01:41.96	78.02	29.01	-24.0	-25.0	19.2	0.00e+00	0	43	102	1048576	8	4039
2026-01-24 11:01:42.97	77.72	29.09	-23.8	-24.5	19.4	0.00e+00	0	43	102	1048576	8	3938
2026-01-24 11:01:43.98	77.42	29.17	-23.7	-24.3	19.5	0.00e+00	0	43	102	1048576	8	3882
2026-01-24 11:01:44.98	77.12	29.25	-23.7	-24.3	19.5	0.00e+00	0	43	102	1048576	8	3887
2026-01-24 11:01:45.98	76.81	29.33	-23.5	-24.1	19.6	0.00e+00	0	43	102	1048576	8	3823
2026-01-24 11:01:46.99	76.50	29.41	-23.6	-24.3	19.6	0.00e+00	0	43	102	1048576	8	3869
2026-01-24 11:01:48.00	76.20	29.49	-23.7	-24.3	19.5	0.00e+00	0	43	102	1048576	8	3877
2026-01-24 11:01:49.00	75.89	29.57	-23.7	-24.4	19.5	0.00e+00	0	43	102	1048576	8	3903
2026-01-24 11:01:50.01	75.57	29.65	-23.8	-24.5	19.5	0.00e+00	0	43	102	1048576	8	3922
2026-01-24 11:01:51.01	75.26	29.73	-23.6	-24.1	19.6	0.00e+00	0	43	102	1048576	8	3842
2026-01-24 11:01:52.02	74.95	29.80	-23.5	-24.1	19.7	0.00e+00	0	43	102	1048576	8	3825
2026-01-24 11:01:53.02	74.63	29.88	-23.6	-24.2	19.6	0.00e+00	0	43	102	1048576	8	3863
2026-01-24 11:01:54.03	74.31	29.95	-23.6	-24.2	19.6	0.00e+00	0	43	102	1048576	8	3862
2026-01-24 11:01:55.03	74.00	30.03	-23.2	-23.9	20.0	0.00e+00	0	43	102	1048576	7	3890
2026-01-24 11:01:56.03	73.68	30.10	-23.3	-24.1	19.9	0.00e+00	0	43	102	1048576	7	3942
2026-01-24 11:01:57.03	73.36	30.17	-23.4	-24.2	19.8	0.00e+00	0	43	102	1048576	7	3968
2026-01-24 11:01:58.04	73.03	30.24	-23.5	-24.5	19.7	0.00e+00	0	43	102	1048576	7	4031
2026-01-24 11:01:59.05	72.71	30.32	-23.4	-24.3	19.8	0.00e+00	0	43	102	1048576	7	3986
2026-01-24 11:02:00.05	72.38	30.38	-23.5	-24.4	19.7	0.00e+00	0	43	102	1048576	7	4018
2026-01-24 11:02:01.05	72.06	30.45	-23.2	-23.9	19.9	0.00e+00	0	43	102	1048576	7	3903
2026-01-24 11:02:02.06	71.73	30.52	-23.1	-23.6	20.1	0.00e+00	0	43	102	1048576	7	3818
2026-01-24 11:02:03.06	71.40	30.59	-23.1	-23.6	20.1	0.00e+00	0	43	102	1048576	7	3817
2026-01-24 11:02:04.06	71.07	30.65	-23.3	-24.0	19.9	0.00e+00	0	43	102	1048576	7	3906
2026-01-24 11:02:05.07	70.74	30.72	-23.3	-24.0	20.0	0.00e+00	0	43	102	1048576	7	3908
2026-01-24 11:02:06.08	70.40	30.78	-23.3	-24.2	19.9	1.10e-06	0	44	102	1048576	7	3955
2026-01-24 11:02:07.09	70.06	30.85	-23.3	-24.1	19.9	0.00e+00	0	43	102	1048576	7	3936
2026-01-24 11:02:08.10	69.73	30.91	-23.3	-24.0	19.9	0.00e+00	0	43	102	1048576	7	3916
2026-01-24 11:02:09.10	69.39	30.97	-23.4	-24.3	19.8	2.20e-06	0	43	102	1048576	7	3984
2026-01-24 11:02:10.10	69.05	31.03	-23.2	-23.9	20.0	0.00e+00	0	43	102	1048576	7	3896
2026-01-24 11:02:11.10	68.71	31.09	-23.2	-23.9	20.0	0.00e+00	0	43	102	1048576	7	3879
2026-01-24 11:02:12.10	68.37	31.15	-23.3	-24.0	19.9	0.00e+00	0	43	102	1048576	7	3917
2026-01-24 11:02:13.11	68.03	31.21	-23.2	-23.9	20.0	0.00e+00	0	43	102	1048576	7	3891
2026-01-24 11:02:14.11	67.69	31.26	-23.4	-24.2	19.8	0.00e+00	0	43	102	1048576	7	3968
2026-01-24 11:02:15.11	67.34	31.32	-23.3	-24.0	20.1	1.10e-06	0	43	102	1048576	7	3896
2026-01-24 11:02:16.12	66.99	31.37	-23.2	-23.9	20.2	0.00e+00	0	43	102	1048576	7	3873
2026-01-24 11:02:17.12	66.65	31.42	-23.3	-24.1	20.1	0.00e+00	0	43	102	1048576	7	3915
2026-01-24 11:02:18.12	66.30	31.48	-23.3	-23.9	20.2	0.00e+00	0	43	102	1048576	7	3880
2026-01-24 11:02:19.13	65.95	31.53	-23.3	-23.9	20.2	0.00e+00	0	43	102	1048576	7	3887
2026-01-24 11:02:20.13	65.60	31.58	-23.4	-24.1	20.1	0.00e+00	0	43	102	1048576	7	3925
2026-01-24 11:02:21.14	65.25	31.63	-23.4	-24.2	20.0	0.00e+00	0	43	102	1048576	7	3950
2026-01-24 11:02:22.14	64.90	31.67	-23.1	-23.6	20.3	0.00e+00	0	43	102	1048576	7	3817
2026-01-24 11:02:23.15	64.54	31.72	-23.1	-23.6	20.4	0.00e+00	0	43	102	1048576	7	3806
2026-01-24 11:02:24.15	64.19	31.76	-23.3	-24.0	20.1	0.00e+00	0	43	102	1048576	7	3897
2026-01-24 11:02:25.15	63.83	31.81	-23.2	-23.8	20.2	0.00e+00	0	43	102	1048576	7	3865
2026-01-24 11:02:26.15	63.48	31.85	-23.2	-23.8	20.2	0.00e+00	0	43	102	1048576	7	3853
2026-01-24 11:02:27.16	63.12	31.89	-23.2	-23.8	20.3	0.00e+00	0	43	102	1048576	7	3850
2026-01-24 11:02:28.17	62.76	31.93	-23.3	-23.9	20.2	0.00e+00	0	43	102	1048576	7	3876
2026-01-24 11:02:29.17	62.40	31.97	-23.1	-23.6	20.3	0.00e+00	0	43	102	1048576	7	3801
2026-01-24 11:02:30.18	62.04	32.01	-23.1	-23.6	20.3	0.00e+00	0	43	102	1048576	7	3805
2026-01-24 11:02:31.18	61.68	32.05	-23.2	-23.8	20.2	0.00e+00	0	43	102	1048576	7	3844
2026-01-24 11:02:32.18	61.32	32.08	-23.1	-23.6	20.3	0.00e+00	0	43	102	1048576	7	3812
2026-01-24 11:02:33.19	60.95	32.12	-23.2	-23.9	20.2	0.00e+00	0	43	102	1048576	7	3865
2026-01-24 11:02:34.19	60.59	32.15	-23.2	-23.7	20.3	0.00e+00	0	43	102	1048576	7	3829
2026-01-24 11:02:35.19	60.23	32.18	-23.1	-23.5	20.4	0.00e+00	0	43	102	1048576	7	3785
2026-01-24 11:02:36.19	59.86	32.21	-23.1	-23.6	20.4	0.00e+00	0	43	102	1048576	7	3804
2026-01-24 11:02:37.20	59.50	32.24	-23.2	-23.8	20.2	0.00e+00	0	43	102	1048576	7	3847
2026-01-24 11:02:38.20	59.13	32.27	-23.0	-23.3	20.4	0.00e+00	0	43	102	1048576	7	3744
2026-01-24 11:02:39.21	58.76	32.29	-23.0	-23.4	20.5	0.00e+00	0	43	102	1048576	7	3751
2026-01-24 11:02:40.22	58.39	32.32	-23.2	-23.7	20.3	0.00e+00	0	43	102	1048576	7	3823
2026-01-24 11:02:41.23	58.02	32.34	-23.3	-23.9	20.2	0.00e+00	0	43	102	1048576	7	3883
2026-01-24 11:02:42.23	57.66	32.37	-23.2	-23.8	20.3	0.00e+00	0	43	102	1048576	7	3843
2026-01-24 11:02:43.24	57.29	32.39	-23.1	-23.6	20.3	0.00e+00	0	43	102	1048576	7	3800
2026-01-24 11:02:44.25	56.91	32.41	-23.1	-23.5	20.4	0.00e+00	0	44	102	1048576	7	3779
2026-01-24 11:02:45.25	56.55	32.42	-23.1	-23.6	20.3	0.00e+00	0	43	102	1048576	7	3815
2026-01-24 11:02:46.25	56.18	32.44	-23.3	-23.9	20.2	0.00e+00	0	43	102	1048576	7	3872
2026-01-24 11:02:47.26	55.80	32.46	-23.1	-23.5	20.4	0.00e+00	0	43	102	1048576	7	3781
2026-01-24 11:02:48.26	55.44	32.47	-22.9	-23.2	20.5	0.00e+00	0	43	102	1048576	7	3725
2026-01-24 11:02:49.26	55.07	32.49	-22.9	-23.2	20.5	0.00e+00	0	43	102	1048576	7	3710
2026-01-24 11:02:50.26	54.70	32.50	-22.8	-23.0	20.6	0.00e+00	0	43	102	1048576	7	3684
2026-01-24 11:02:51.27	54.32	32.51	-22.9	-23.1	20.6	0.00e+00	0	43	102	1048576	7	3691
2026-01-24 11:02:52.27	53.95	32.52	-22.8	-23.4	20.7	0.00e+00	0	43	102	1048576	6	3865
2026-01-24 11:02:53.28	53.58	32.52	-22.9	-23.7	20.5	0.00e+00	0	43	102	1048576	6	3936
2026-01-24 11:02:54.28	53.21	32.53	-23.0	-23.8	20.5	0.00e+00	0	43	102	1048576	6	3961
2026-01-24 11:02:55.29	52.83	32.54	-23.0	-23.8	20.5	0.00e+00	0	43	102	1048576	6	3968
2026-01-24 11:02:56.28	52.47	32.54	-22.9	-23.7	20.5	0.00e+00	0	43	102	1048576	6	3949
2026-01-24 11:02:57.29	52.09	32.54	-23.0	-23.8	20.4	0.00e+00	0	43	102	1048576	6	3969
2026-01-24 11:02:58.29	51.72	32.54	-23.2	-24.2	20.3	0.00e+00	0	43	102	1048576	6	4051
2026-01-24 11:02:59.30	51.34	32.54	-23.2	-24.3	20.2	0.00e+00	0	43	102	1048576	6	4092
2026-01-24 11:03:00.30	50.97	32.54	-23.4	-24.3	20.0	0.00e+00	0	43	102	1048576	7	3969
2026-01-24 11:03:01.31	50.60	32.54	-23.2	-23.9	20.2	0.00e+00	0	43	102	1048576	7	3867
2026-01-24 11:03:02.31	50.23	32.53	-23.1	-23.5	20.4	0.00e+00	0	43	102	1048576	7	3783
2026-01-24 11:03:03.31	49.86	32.52	-23.1	-23.5	20.4	0.00e+00	0	43	102	1048576	7	3776
2026-01-24 11:03:04.31	49.49	32.52	-23.1	-23.6	20.3	0.00e+00	0	43	102	1048576	7	3807
2026-01-24 11:03:05.32	49.11	32.51	-23.0	-23.4	20.4	0.00e+00	0	43	102	1048576	7	3765
2026-01-24 11:03:06.32	48.74	32.50	-23.0	-23.4	20.4	0.00e+00	0	43	102	1048576	7	3759
2026-01-24 11:03:07.32	48.37	32.49	-22.9	-23.1	20.6	0.00e+00	0	44	102	1048576	7	3697
2026-01-24 11:03:08.33	48.00	32.47	-22.7	-23.2	20.8	0.00e+00	0	43	102	1048576	6	3815
2026-01-24 11:03:09.33	47.63	32.46	-22.7	-23.3	20.7	0.00e+00	0	43	102	1048576	6	3851
2026-01-24 11:03:10.33	47.26	32.44	-23.0	-23.9	20.4	0.00e+00	0	43	102	1048576	6	3976
2026-01-24 11:03:11.34	46.89	32.43	-23.0	-23.9	20.4	0.00e+00	0	43	102	1048576	6	3993
2026-01-24 11:03:12.35	46.52	32.41	-23.1	-24.1	20.3	0.00e+00	0	43	102	1048576	6	4030
2026-01-24 11:03:13.35	46.15	32.39	-23.0	-23.9	20.4	0.00e+00	0	43	102	1048576	6	3981
2026-01-24 11:03:14.36	45.78	32.37	-23.1	-24.0	20.4	0.00e+00	0	43	102	1048576	6	4014
2026-01-24 11:03:15.36	45.41	32.35	-23.2	-24.2	20.2	0.00e+00	0	43	102	1048576	6	4068
2026-01-24 11:03:16.37	45.04	32.32	-23.2	-24.4	20.2	0.00e+00	0	43	102	1048576	6	4102
2026-01-24 11:03:17.37	44.68	32.30	-23.3	-24.5	20.1	0.00e+00	0	43	102	1048576	6	4132
2026-01-24 11:03:18.38	44.31	32.27	-23.2	-24.3	20.2	0.00e+00	0	43	102	1048576	6	4090
2026-01-24 11:03:19.39	43.94	32.24	-23.2	-24.2	20.3	0.00e+00	0	43	102	1048576	6	4059
2026-01-24 11:03:20.39	43.58	32.22	-23.1	-24.0	20.4	0.00e+00	0	43	102	1048576	6	4018
2026-01-24 11:03:21.40	43.21	32.19	-23.2	-24.3	20.2	0.00e+00	0	43	102	1048576	6	4072
2026-01-24 11:03:22.40	42.85	32.15	-23.2	-24.3	20.2	0.00e+00	0	43	102	1048576	6	4078
2026-01-24 11:03:23.41	42.48	32.12	-23.0	-23.9	20.4	0.00e+00	0	43	102	1048576	6	3990
2026-01-24 11:03:24.41	42.12	32.09	-23.0	-23.8	20.5	0.00e+00	0	43	102	1048576	6	3957
2026-01-24 11:03:25.41	41.76	32.05	-23.0	-23.8	20.5	0.00e+00	0	43	102	1048576	6	3961
2026-01-24 11:03:26.41	41.40	32.02	-22.9	-23.7	20.5	0.00e+00	0	44	102	1048576	6	3928
2026-01-24 11:03:27.42	41.04	31.98	-23.0	-23.9	20.4	0.00e+00	0	43	102	1048576	6	3980
2026-01-24 11:03:28.43	40.68	31.94	-23.2	-24.2	20.3	0.00e+00	0	44	102	1048576	6	4060
2026-01-24 11:03:29.43	40.32	31.90	-23.0	-23.9	20.4	0.00e+00	0	44	102	1048576	6	3977
2026-01-24 11:03:30.44	39.96	31.86	-23.0	-24.0	20.4	0.00e+00	0	43	102	1048576	6	3998
2026-01-24 11:03:31.44	39.61	31.82	-22.9	-23.7	20.5	0.00e+00	0	43	102	1048576	6	3948
2026-01-24 11:03:32.44	39.25	31.77	-22.9	-23.6	20.5	0.00e+00	0	43	102	1048576	6	3926
2026-01-24 11:03:33.44	38.90	31.73	-23.0	-23.9	20.4	0.00e+00	0	43	102	1048576	6	3980
2026-01-24 11:03:34.45	38.55	31.68	-23.1	-24.1	20.3	0.00e+00	0	43	102	1048576	6	4043
2026-01-24 11:03:35.45	38.20	31.63	-23.1	-24.1	20.3	0.00e+00	0	43	102	1048576	6	4029
2026-01-24 11:03:36.45	37.85	31.59	-23.1	-24.0	20.3	0.00e+00	0	43	102	1048576	6	4011
2026-01-24 11:03:37.46	37.49	31.54	-23.1	-24.2	20.3	0.00e+00	0	43	102	1048576	6	4044
2026-01-24 11:03:38.46	37.15	31.49	-23.2	-24.3	20.2	0.00e+00	0	44	102	1048576	6	4080
2026-01-24 11:03:39.46	36.80	31.43	-23.2	-24.3	20.2	0.00e+00	0	43	102	1048576	6	4085
2026-01-24 11:03:40.47	36.45	31.38	-23.0	-23.8	20.5	0.00e+00	0	43	102	1048576	6	3955
2026-01-24 11:03:41.47	36.11	31.33	-22.9	-23.6	20.6	0.00e+00	0	43	102	1048576	6	3905
2026-01-24 11:03:42.47	35.76	31.27	-23.0	-23.8	20.4	0.00e+00	0	43	102	1048576	6	3964
2026-01-24 11:03:43.47	35.42	31.22	-23.2	-24.2	20.2	0.00e+00	0	44	102	1048576	6	4064
2026-01-24 11:03:44.47	35.08	31.16	-23.3	-24.5	20.1	0.00e+00	0	43	102	1048576	6	4124
2026-01-24 11:03:45.48	34.74	31.10	-23.4	-24.8	20.0	0.00e+00	0	43	102	1048576	6	4204
2026-01-24 11:03:46.48	34.40	31.04	-23.3	-24.5	20.1	0.00e+00	0	43	102	1048576	6	4130
2026-01-24 11:03:47.49	34.06	30.98	-23.2	-24.2	20.2	0.00e+00	0	43	102	1048576	6	4059
2026-01-24 11:03:48.49	33.72	30.92	-23.3	-24.4	20.1	0.00e+00	0	43	102	1048576	6	4118
2026-01-24 11:03:49.50	33.38	30.86	-23.4	-24.7	20.0	0.00e+00	0	43	102	1048576	6	4187
2026-01-24 11:03:50.50	33.05	30.80	-23.5	-24.8	19.9	0.00e+00	0	43	102	1048576	6	4214
2026-01-24 11:03:51.51	32.72	30.73	-23.7	-24.8	19.7	0.00e+00	0	43	102	1048576	7	4087
2026-01-24 11:03:52.52	32.38	30.67	-23.7	-24.9	19.6	0.00e+00	0	43	102	1048576	7	4107
2026-01-24 11:03:53.53	32.05	30.60	-23.5	-24.5	19.9	0.00e+00	0	43	102	1048576	7	4023
2026-01-24 11:03:54.53	31.72	30.53	-23.5	-24.4	19.8	0.00e+00	0	44	102	1048576	7	4007
2026-01-24 11:03:55.54	31.39	30.47	-23.6	-24.6	19.8	0.00e+00	0	43	102	1048576	7	4036
2026-01-24 11:03:56.53	31.07	30.40	-23.4	-24.3	19.9	0.00e+00	0	43	102	1048576	7	3966
2026-01-24 11:03:57.53	30.75	30.33	-23.5	-24.4	19.9	0.00e+00	0	43	102	1048576	7	3990
2026-01-24 11:03:58.54	30.42	30.26	-23.5	-24.4	19.9	0.00e+00	0	43	102	1048576	7	3988
2026-01-24 11:03:59.54	30.10	30.19	-23.3	-24.1	20.1	0.00e+00	0	43	102	1048576	7	3911
2026-01-24 11:04:00.54	29.78	30.12	-23.3	-24.1	20.1	0.00e+00	0	43	102	1048576	7	3913
2026-01-24 11:04:01.55	29.46	30.04	-23.4	-24.3	19.9	0.00e+00	0	43	102	1048576	7	3963
2026-01-24 11:04:02.55	29.14	29.97	-23.6	-24.6	19.8	0.00e+00	0	43	102	1048576	7	4048
2026-01-24 11:04:03.56	28.83	29.90	-23.8	-25.0	19.6	0.00e+00	0	43	102	1048576	7	4156
2026-01-24 11:04:04.56	28.51	29.82	-23.7	-24.9	19.6	0.00e+00	0	43	102	1048576	7	4119
2026-01-24 11:04:05.56	28.20	29.75	-23.4	-24.3	19.9	0.00e+00	0	44	102	1048576	7	3972
2026-01-24 11:04:06.57	27.89	29.67	-23.4	-24.1	20.0	0.00e+00	0	43	102	1048576	7	3917
2026-01-24 11:04:07.57	27.58	29.59	-23.3	-24.0	20.0	0.00e+00	0	44	102	1048576	7	3905
2026-01-24 11:04:08.57	27.27	29.51	-23.3	-24.1	20.0	0.00e+00	0	43	102	1048576	7	3917
2026-01-24 11:04:09.57	26.96	29.43	-23.3	-24.1	20.0	0.00e+00	0	43	102	1048576	7	3915
2026-01-24 11:04:10.57	26.66	29.36	-23.3	-24.0	20.0	0.00e+00	0	43	102	1048576	7	3903
2026-01-24 11:04:11.57	26.36	29.28	-23.5	-24.3	19.9	0.00e+00	0	43	102	1048576	7	3979
2026-01-24 11:04:12.57	26.05	29.19	-23.4	-24.3	19.9	0.00e+00	0	43	102	1048576	7	3966
2026-01-24 11:04:13.57	25.75	29.11	-23.3	-23.9	20.1	0.00e+00	0	44	102	1048576	7	3886
2026-01-24 11:04:14.58	25.45	29.03	-23.3	-23.9	20.1	0.00e+00	0	43	102	1048576	7	3876
2026-01-24 11:04:15.58	25.16	28.95	-23.3	-24.0	20.0	0.00e+00	0	43	102	1048576	7	3897
2026-01-24 11:04:16.59	24.86	28.86	-23.5	-24.4	19.8	0.00e+00	0	43	102	1048576	7	4006
2026-01-24 11:04:17.60	24.56	28.78	-23.5	-24.5	19.8	0.00e+00	0	43	102	1048576	7	4014
2026-01-24 11:04:18.60	24.27	28.70	-23.5	-24.5	19.8	0.00e+00	0	43	102	1048576	7	4024
2026-01-24 11:04:19.61	23.97	28.61	-23.7	-24.8	19.7	0.00e+00	0	43	102	1048576	7	4082
2026-01-24 11:04:20.61	23.69	28.52	-23.6	-24.6	19.7	0.00e+00	0	43	102	1048576	7	4033
2026-01-24 11:04:21.62	23.40	28.44	-23.4	-24.3	19.9	0.00e+00	0	43	102	1048576	7	3963
2026-01-24 11:04:22.63	23.11	28.35	-23.4	-24.3	19.9	0.00e+00	0	43	102	1048576	7	3970
2026-01-24 11:04:23.63	22.82	28.26	-23.3	-24.1	20.0	0.00e+00	0	43	102	1048576	7	3924
2026-01-24 11:04:24.64	22.54	28.17	-23.4	-24.2	19.9	0.00e+00	0	43	102	1048576	7	3953
2026-01-24 11:04:25.65	22.25	28.09	-23.4	-24.2	19.9	0.00e+00	0	43	102	1048576	7	3939
2026-01-24 11:04:26.65	21.97	28.00	-23.3	-24.1	20.0	0.00e+00	0	43	102	1048576	7	3920
2026-01-24 11:04:27.65	21.69	27.91	-23.5	-24.3	19.8	0.00e+00	0	43	102	1048576	7	3983
2026-01-24 11:04:28.65	21.42	27.82	-23.4	-24.3	19.8	0.00e+00	0	43	102	1048576	7	3974
2026-01-24 11:04:29.66	21.14	27.73	-23.4	-24.3	19.8	0.00e+00	0	44	102	1048576	7	3973
2026-01-24 11:04:30.67	20.86	27.64	-23.4	-24.3	19.8	0.00e+00	0	43	102	1048576	7	3965
2026-01-24 11:04:31.67	20.59	27.55	-23.5	-24.4	19.8	0.00e+00	0	43	102	1048576	7	3992
2026-01-24 11:04:32.67	20.32	27.45	-23.5	-24.3	19.8	0.00e+00	0	43	102	1048576	7	3979
2026-01-24 11:04:33.68	20.05	27.36	-23.5	-24.4	19.8	0.00e+00	0	43	102	1048576	7	3987
2026-01-24 11:04:34.68	19.78	27.27	-23.5	-24.5	19.7	0.00e+00	0	43	102	1048576	7	4021
2026-01-24 11:04:35.69	19.52	27.18	-23.7	-24.8	19.6	0.00e+00	0	43	102	1048576	7	4094
2026-01-24 11:04:36.70	19.25	27.08	-23.7	-24.8	19.6	0.00e+00	0	43	102	1048576	7	4106
2026-01-24 11:04:37.71	18.98	26.99	-23.7	-24.9	19.5	0.00e+00	0	43	102	1048576	7	4122
2026-01-24 11:04:38.72	18.72	26.90	-23.7	-24.8	19.6	0.00e+00	0	43	102	1048576	7	4098
2026-01-24 11:04:39.72	18.46	26.80	-23.7	-24.8	19.6	0.00e+00	0	43	102	1048576	7	4098
2026-01-24 11:04:40.72	18.20	26.71	-23.8	-25.1	19.4	0.00e+00	0	44	102	1048576	7	4162
2026-01-24 11:04:41.72	17.95	26.61	-23.7	-24.9	19.5	0.00e+00	0	43	102	1048576	7	4114
2026-01-24 11:04:42.73	17.69	26.52	-23.6	-24.6	19.6	0.00e+00	0	43	102	1048576	7	4041
2026-01-24 11:04:43.73	17.44	26.42	-23.5	-24.5	19.7	0.00e+00	0	43	102	1048576	7	4023
2026-01-24 11:04:44.72	17.19	26.33	-23.4	-24.3	19.8	0.00e+00	0	43	102	1048576	7	3968
2026-01-24 11:04:45.73	16.94	26.23	-23.5	-24.4	19.8	0.00e+00	0	43	102	1048576	7	3987
2026-01-24 11:04:46.73	16.69	26.14	-23.4	-24.2	19.8	0.00e+00	0	43	102	1048576	7	3947
2026-01-24 11:04:47.73	16.44	26.04	-23.4	-24.3	19.8	0.00e+00	0	44	102	1048576	7	3968
2026-01-24 11:04:48.74	16.19	25.94	-23.6	-24.7	19.6	0.00e+00	0	43	102	1048576	7	4067
2026-01-24 11:04:49.74	15.95	25.85	-23.8	-25.0	19.4	0.00e+00	0	44	102	1048576	7	4159
2026-01-24 11:04:50.74	15.71	25.75	-23.9	-25.2	19.3	0.00e+00	0	43	102	1048576	7	4199
2026-01-24 11:04:51.75	15.46	25.65	-24.0	-25.4	19.2	0.00e+00	0	43	102	1048576	7	4254
2026-01-24 11:04:52.75	15.22	25.55	-23.9	-25.3	19.3	0.00e+00	0	43	102	1048576	7	4215
2026-01-24 11:04:53.75	14.99	25.46	-23.9	-25.3	19.2	0.00e+00	0	43	102	1048576	7	4231
2026-01-24 11:04:54.76	14.75	25.36	-23.9	-25.2	19.3	0.00e+00	0	43	102	1048576	7	4201
2026-01-24 11:04:55.76	14.51	25.26	-23.9	-25.2	19.3	0.00e+00	0	43	102	1048576	7	4201
2026-01-24 11:04:56.76	14.28	25.16	-23.9	-25.1	19.3	0.00e+00	0	44	102	1048576	7	4175
2026-01-24 11:04:57.76	14.05	25.07	-23.8	-25.1	19.4	0.00e+00	0	43	102	1048576	7	4171
2026-01-24 11:04:58.76	13.82	24.97	-24.0	-25.0	19.2	0.00e+00	0	43	102	1048576	8	4037
2026-01-24 11:04:59.76	13.59	24.87	-24.4	-25.7	18.8	0.00e+00	0	43	102	1048576	8	4218
2026-01-24 11:05:00.77	13.36	24.77	-24.4	-25.3	18.8	0.00e+00	0	44	102	1048576	9	3990
2026-01-24 11:05:01.77	13.13	24.67	-24.1	-24.8	19.0	0.00e+00	0	43	102	1048576	9	3874
2026-01-24 11:05:02.77	12.91	24.57	-24.1	-24.7	19.1	0.00e+00	0	43	102	1048576	9	3852
2026-01-24 11:05:03.78	12.68	24.47	-24.2	-24.8	19.0	0.00e+00	0	43	102	1048576	9	3876
2026-01-24 11:05:04.78	12.46	24.37	-24.2	-24.8	19.0	0.00e+00	0	43	102	1048576	9	3878
2026-01-24 11:05:05.79	12.23	24.27	-24.3	-25.0	18.9	0.00e+00	0	43	102	1048576	9	3916
2026-01-24 11:05:06.79	12.02	24.17	-24.2	-24.9	18.9	0.00e+00	0	43	102	1048576	9	3886
2026-01-24 11:05:07.79	11.80	24.08	-24.0	-24.5	19.1	0.00e+00	0	44	102	1048576	9	3813
2026-01-24 11:05:08.79	11.58	23.98	-24.0	-24.5	19.1	0.00e+00	0	44	102	1048576	9	3813
2026-01-24 11:05:09.79	11.37	23.88	-24.0	-24.5	19.1	0.00e+00	0	44	102	1048576	9	3808
2026-01-24 11:05:10.80	11.15	23.78	-24.2	-24.9	18.9	0.00e+00	0	43	102	1048576	9	3902
2026-01-24 11:05:11.81	10.94	23.68	-24.1	-24.7	19.0	0.00e+00	0	43	102	1048576	9	3853
2026-01-24 11:05:12.81	10.73	23.58	-24.0	-24.5	19.1	0.00e+00	0	43	102	1048576	9	3804
2026-01-24 11:05:13.81	10.52	23.48	-24.0	-24.5	19.1	0.00e+00	0	43	102	1048576	9	3818
2026-01-24 11:05:14.82	10.31	23.38	-24.1	-24.7	19.0	0.00e+00	0	43	102	1048576	9	3843
2026-01-24 11:05:15.83	10.10	23.28	-24.1	-24.6	19.1	0.00e+00	0	43	102	1048576	9	3835
2026-01-24 11:05:16.83	9.89	23.18	-24.1	-24.7	19.0	0.00e+00	0	44	102	1048576	9	3845
2026-01-24 11:05:17.83	9.69	23.08	-24.0	-24.4	19.1	0.00e+00	0	43	102	1048576	9	3787
2026-01-24 11:05:18.84	9.48	22.98	-24.0	-24.5	19.1	0.00e+00	0	43	102	1048576	9	3811
2026-01-24 11:05:19.84	9.28	22.88	-24.0	-24.5	19.1	0.00e+00	0	43	102	1048576	9	3798
2026-01-24 11:05:20.85	9.08	22.78	-24.0	-24.4	19.1	0.00e+00	0	43	102	1048576	9	3780
2026-01-24 11:05:21.86	8.88	22.68	-24.2	-24.8	18.9	0.00e+00	0	43	102	1048576	9	3884
2026-01-24 11:05:22.86	8.68	22.58	-24.1	-24.7	19.0	0.00e+00	0	43	102	1048576	9	3841
2026-01-24 11:05:23.86	8.48	22.48	-24.2	-24.8	18.9	0.00e+00	0	44	102	1048576	9	3877
2026-01-24 11:05:24.87	8.29	22.38	-24.4	-25.2	18.8	0.00e+00	0	43	102	1048576	9	3969
2026-01-24 11:05:25.87	8.09	22.28	-24.2	-24.9	18.9	0.00e+00	0	44	102	1048576	9	3906
2026-01-24 11:05:26.88	7.90	22.18	-24.1	-24.6	19.0	0.00e+00	0	43	102	1048576	9	3833
2026-01-24 11:05:27.89	7.71	22.08	-24.2	-24.9	18.9	0.00e+00	0	43	102	1048576	9	3892
2026-01-24 11:05:28.89	7.52	21.98	-24.1	-24.6	19.0	0.00e+00	0	43	102	1048576	9	3827
2026-01-24 11:05:29.90	7.33	21.88	-24.2	-24.8	18.9	0.00e+00	0	43	102	1048576	9	3875
2026-01-24 11:05:30.90	7.14	21.78	-24.1	-24.8	18.9	0.00e+00	0	43	102	1048576	9	3870
2026-01-24 11:05:31.91	6.95	21.68	-24.2	-24.9	18.9	0.00e+00	0	43	102	1048576	9	3909
2026-01-24 11:05:32.91	6.77	21.58	-24.1	-24.8	18.9	0.00e+00	0	43	102	1048576	9	3871
2026-01-24 11:05:33.92	6.58	21.48	-24.2	-24.8	18.9	0.00e+00	0	44	102	1048576	9	3882
2026-01-24 11:05:34.93	6.40	21.38	-24.4	-25.3	18.7	0.00e+00	0	44	102	1048576	9	3991
2026-01-24 11:05:35.93	6.21	21.28	-24.1	-24.8	18.9	0.00e+00	0	43	102	1048576	9	3870
2026-01-24 11:05:36.94	6.03	21.18	-24.3	-25.2	18.7	0.00e+00	0	43	102	1048576	9	3964
2026-01-24 11:05:37.94	5.85	21.08	-24.2	-24.8	18.9	0.00e+00	0	43	102	1048576	9	3884
2026-01-24 11:05:38.95	5.67	20.98	-24.0	-24.5	19.0	0.00e+00	0	44	102	1048576	9	3805
2026-01-24 11:05:39.95	5.50	20.88	-24.1	-24.6	19.0	0.00e+00	0	43	102	1048576	9	3838
2026-01-24 11:05:40.96	5.32	20.78	-24.1	-24.7	19.0	0.00e+00	0	43	102	1048576	9	3855
2026-01-24 11:05:41.96	5.14	20.69	-24.3	-25.1	18.7	0.00e+00	0	44	102	1048576	9	3946
2026-01-24 11:05:42.97	4.97	20.59	-24.3	-25.1	18.8	0.00e+00	0	43	102	1048576	9	3944
2026-01-24 11:05:43.98	4.80	20.49	-24.4	-25.4	18.6	0.00e+00	0	43	102	1048576	9	4026
2026-01-24 11:05:44.98	4.62	20.39	-24.3	-25.1	18.7	0.00e+00	0	43	102	1048576	9	3954
2026-01-24 11:05:45.99	4.45	20.29	-24.3	-25.1	18.7	0.00e+00	0	43	102	1048576	9	3953
2026-01-24 11:05:47.00	4.28	20.19	-24.4	-25.4	18.6	0.00e+00	0	43	102	1048576	9	4014
2026-01-24 11:05:48.00	4.12	20.10	-24.4	-25.3	18.6	0.00e+00	0	44	102	1048576	9	4003
2026-01-24 11:05:49.00	3.95	20.00	-24.4	-25.3	18.6	0.00e+00	0	44	102	1048576	9	4007
2026-01-24 11:05:50.00	3.78	19.90	-24.4	-25.3	18.6	0.00e+00	0	43	102	1048576	9	4009
2026-01-24 11:05:51.01	3.62	19.80	-24.5	-25.6	18.4	0.00e+00	0	43	102	1048576	9	4068
2026-01-24 11:05:52.00	3.45	19.71	-24.5	-25.5	18.5	0.00e+00	0	43	102	1048576	9	4056
2026-01-24 11:05:53.01	3.29	19.61	-24.6	-25.7	18.4	0.00e+00	0	44	102	1048576	9	4106
2026-01-24 11:05:54.01	3.13	19.51	-24.5	-25.6	18.4	0.00e+00	0	43	102	1048576	9	4080
2026-01-24 11:05:55.01	2.97	19.41	-24.7	-26.0	18.3	0.00e+00	0	44	102	1048576	9	4158
2026-01-24 11:05:56.02	2.81	19.32	-24.8	-26.2	18.1	0.00e+00	0	43	102	1048576	9	4228
2026-01-24 11:05:57.02	2.65	19.22	-24.7	-25.9	18.3	0.00e+00	0	43	102	1048576	9	4142
2026-01-24 11:05:58.02	2.49	19.12	-24.8	-26.2	18.1	0.00e+00	0	44	102	1048576	9	4213
2026-01-24 11:05:59.03	2.34	19.03	-24.7	-26.0	18.2	0.00e+00	0	44	102	1048576	9	4180
2026-01-24 11:06:00.04	2.18	18.93	-24.8	-26.3	18.1	0.00e+00	0	43	102	1048576	9	4236
2026-01-24 11:06:01.04	2.02	18.83	-24.9	-26.4	18.0	0.00e+00	0	44	102	1048576	9	4285
2026-01-24 11:06:02.04	1.87	18.74	-25.0	-26.5	17.9	0.00e+00	0	43	102	1048576	9	4313
2026-01-24 11:06:03.05	1.72	18.64	-25.0	-26.2	17.9	0.00e+00	0	43	102	1048576	10	4101
2026-01-24 11:06:04.05	1.57	18.55	-25.0	-26.0	17.9	0.00e+00	0	43	102	1048576	10	4074
2026-01-24 11:06:05.06	1.41	18.45	-25.0	-26.1	17.9	0.00e+00	0	44	102	1048576	10	4085
2026-01-24 11:06:06.06	1.27	18.36	-25.0	-26.0	17.9	0.00e+00	0	43	102	1048576	10	4064
2026-01-24 11:06:07.06	1.12	18.26	-25.1	-26.3	17.8	0.00e+00	0	43	102	1048576	10	4138
2026-01-24 11:06:08.06	0.97	18.17	-25.1	-26.2	17.8	0.00e+00	0	43	102	1048576	10	4120
2026-01-24 11:06:09.07	0.82	18.07	-25.2	-26.5	17.7	0.00e+00	0	44	102	1048576	10	4187
2026-01-24 11:06:10.07	0.68	17.98	-25.3	-26.7	17.6	0.00e+00	0	44	102	1048576	10	4236
2026-01-24 11:06:11.08	0.53	17.88	-25.3	-26.8	17.5	0.00e+00	0	43	102	1048576	10	4275
2026-01-24 11:06:12.08	0.39	17.79	-25.4	-26.9	17.5	0.00e+00	0	43	102	1048576	10	4277
2026-01-24 11:06:13.08	0.24	17.69	-25.4	-27.1	17.4	0.00e+00	0	44	102	1048576	10	4337
2026-01-24 11:06:14.09	0.10	17.60	-25.4	-26.9	17.5	0.00e+00	0	44	102	1048576	10	4292
2026-01-24 11:06:15.09	359.96	17.51	-25.3	-26.8	17.5	0.00e+00	0	43	102	1048576	10	4261
2026-01-24 11:06:16.10	359.82	17.41	-25.3	-26.6	17.6	0.00e+00	0	43	102	1048576	10	4225
2026-01-24 11:06:17.10	359.68	17.32	-25.5	-26.7	17.3	0.00e+00	0	43	102	1048576	11	4119
2026-01-24 11:06:18.11	359.54	17.22	-25.3	-26.2	17.6	0.00e+00	0	44	102	1048576	11	4002
2026-01-24 11:06:19.12	359.40	17.13	-25.2	-26.0	17.7	0.00e+00	0	44	102	1048576	11	3947
2026-01-24 11:06:20.12	359.26	17.04	-25.2	-26.1	17.6	0.00e+00	0	43	102	1048576	11	3964
2026-01-24 11:06:21.12	359.13	16.95	-25.4	-26.3	17.4	0.00e+00	0	43	102	1048576	11	4038
2026-01-24 11:06:22.12	358.99	16.85	-25.4	-26.4	17.4	0.00e+00	0	43	102	1048576	11	4056
2026-01-24 11:06:23.13	358.86	16.76	-25.4	-26.5	17.3	0.00e+00	0	43	102	1048576	11	4082
2026-01-24 11:06:24.13	358.73	16.67	-25.5	-26.7	17.2	0.00e+00	0	43	102	1048576	11	4128
2026-01-24 11:06:25.14	358.59	16.58	-25.6	-26.9	17.1	0.00e+00	0	43	102	1048576	11	4183
2026-01-24 11:06:26.14	358.46	16.48	-25.6	-27.0	17.1	0.00e+00	0	43	102	1048576	11	4198
2026-01-24 11:06:27.14	358.33	16.39	-25.7	-27.0	17.1	0.00e+00	0	43	102	1048576	11	4207
2026-01-24 11:06:28.15	358.20	16.30	-25.7	-27.1	17.0	0.00e+00	0	44	102	1048576	11	4231
2026-01-24 11:06:29.15	358.07	16.21	-25.6	-27.0	17.1	0.00e+00	0	43	102	1048576	11	4192
2026-01-24 11:06:30.16	357.94	16.12	-25.8	-27.4	16.8	0.00e+00	0	44	102	1048576	11	4300
2026-01-24 11:06:31.16	357.81	16.03	-25.8	-27.3	16.9	0.00e+00	0	44	102	1048576	11	4280
2026-01-24 11:06:32.16	357.69	15.94	-25.9	-27.5	16.8	0.00e+00	0	43	102	1048576	11	4331
2026-01-24 11:06:33.16	357.56	15.85	-25.8	-27.3	16.9	0.00e+00	0	43	102	1048576	11	4280
2026-01-24 11:06:34.17	357.43	15.76	-25.9	-27.5	16.7	0.00e+00	0	43	102	1048576	11	4349
2026-01-24 11:06:35.17	357.31	15.67	-26.0	-27.7	16.7	0.00e+00	0	43	102	1048576	11	4393
2026-01-24 11:06:36.18	357.18	15.58	-26.0	-27.4	16.5	0.00e+00	0	44	102	1048576	12	4191
2026-01-24 11:06:37.18	357.06	15.49	-26.1	-27.6	16.4	0.00e+00	0	43	102	1048576	12	4246
2026-01-24 11:06:38.19	356.94	15.40	-25.9	-27.1	16.6	0.00e+00	0	44	102	1048576	12	4129
2026-01-24 11:06:39.19	356.82	15.31	-25.9	-26.9	16.7	0.00e+00	0	44	102	1048576	12	4083
2026-01-24 11:06:40.19	356.70	15.22	-26.0	-27.2	16.6	0.00e+00	0	44	102	1048576	12	4138
2026-01-24 11:06:41.20	356.58	15.13	-26.0	-27.3	16.5	0.00e+00	0	44	102	1048576	12	4183
2026-01-24 11:06:42.21	356.46	15.04	-25.9	-27.1	16.6	0.00e+00	0	44	102	1048576	12	4117
2026-01-24 11:06:43.21	356.34	14.95	-26.0	-27.3	16.5	0.00e+00	0	43	102	1048576	12	4190
2026-01-24 11:06:44.21	356.22	14.86	-25.9	-27.1	16.6	0.00e+00	0	44	102	1048576	12	4120
2026-01-24 11:06:45.22	356.10	14.78	-25.9	-27.1	16.6	0.00e+00	0	44	102	1048576	12	4123
2026-01-24 11:06:46.22	355.99	14.69	-26.0	-27.2	16.5	0.00e+00	0	44	102	1048576	12	4146
2026-01-24 11:06:47.23	355.87	14.60	-26.1	-27.5	16.3	0.00e+00	0	43	102	1048576	12	4234
2026-01-24 11:06:48.23	355.75	14.51	-26.0	-27.3	16.5	0.00e+00	0	43	102	1048576	12	4175
2026-01-24 11:06:49.23	355.64	14.43	-26.0	-27.2	16.5	0.00e+00	0	44	102	1048576	12	4156
2026-01-24 11:06:50.23	355.53	14.34	-26.0	-27.3	16.4	0.00e+00	0	43	102	1048576	12	4186
2026-01-24 11:06:51.24	355.41	14.25	-25.9	-27.1	16.5	0.00e+00	0	44	102	1048576	12	4129
2026-01-24 11:06:52.24	355.30	14.16	-26.0	-27.3	16.4	0.00e+00	0	44	102	1048576	12	4187
2026-01-24 11:06:53.24	355.19	14.08	-26.1	-27.6	16.3	0.00e+00	0	44	102	1048576	12	4261
2026-01-24 11:06:54.25	355.08	13.99	-25.9	-27.2	16.5	0.00e+00	0	44	102	1048576	12	4145
2026-01-24 11:06:55.25	354.97	13.91	-25.9	-27.2	16.5	0.00e+00	0	44	102	1048576	12	4145
2026-01-24 11:06:56.26	354.86	13.82	-26.0	-27.4	16.4	0.00e+00	0	44	102	1048576	12	4200
2026-01-24 11:06:57.26	354.75	13.73	-26.1	-27.5	16.3	0.00e+00	0	43	102	1048576	12	4225
2026-01-24 11:06:58.26	354.64	13.65	-26.1	-27.6	16.2	0.00e+00	0	43	102	1048576	12	4261
2026-01-24 11:06:59.27	354.53	13.56	-26.1	-27.5	16.3	0.00e+00	0	43	102	1048576	12	4232
2026-01-24 11:07:00.27	354.43	13.48	-26.1	-27.5	16.3	0.00e+00	0	44	102	1048576	12	4223
2026-01-24 11:07:01.27	354.32	13.39	-26.2	-27.7	16.2	0.00e+00	0	44	102	1048576	12	4294
2026-01-24 11:07:02.28	354.21	13.31	-26.2	-27.7	16.1	0.00e+00	0	44	102	1048576	12	4293
2026-01-24 11:07:03.28	354.11	13.22	-26.2	-27.7	16.1	0.00e+00	0	44	102	1048576	12	4295
2026-01-24 11:07:04.28	354.00	13.14	-26.3	-27.9	16.0	0.00e+00	0	43	102	1048576	12	4338
2026-01-24 11:07:05.29	353.90	13.05	-26.3	-27.9	16.0	0.00e+00	0	44	102	1048576	12	4337
2026-01-24 11:07:06.30	353.79	12.97	-26.3	-28.0	16.0	0.00e+00	0	43	102	1048576	12	4368
2026-01-24 11:07:07.29	353.69	12.89	-26.3	-27.9	16.0	0.00e+00	0	44	102	1048576	12	4356
2026-01-24 11:07:08.30	353.59	12.80	-26.4	-28.2	15.8	0.00e+00	0	44	102	1048576	12	4434
2026-01-24 11:07:09.30	353.49	12.72	-26.5	-28.3	15.8	0.00e+00	0	43	102	1048576	12	4461
2026-01-24 11:07:10.31	353.39	12.64	-26.6	-28.2	15.6	0.00e+00	0	43	102	1048576	13	4307
2026-01-24 11:07:11.31	353.29	12.55	-26.8	-28.5	15.4	0.00e+00	0	43	102	1048576	13	4397
2026-01-24 11:07:12.32	353.19	12.47	-26.6	-28.1	15.6	0.00e+00	0	44	102	1048576	13	4277
2026-01-24 11:07:13.32	353.09	12.39	-26.5	-27.8	15.8	0.00e+00	0	43	102	1048576	13	4213
2026-01-24 11:07:14.32	352.99	12.31	-26.4	-27.7	15.8	0.00e+00	0	43	102	1048576	13	4181
2026-01-24 11:07:15.33	352.89	12.22	-26.5	-27.9	15.7	1.10e-06	0	43	102	1048576	13	4243
2026-01-24 11:07:16.33	352.79	12.14	-26.5	-27.9	15.7	0.00e+00	0	44	102	1048576	13	4233
2026-01-24 11:07:17.33	352.70	12.06	-26.5	-28.0	15.7	0.00e+00	0	44	102	1048576	13	4256
2026-01-24 11:07:18.33	352.60	11.98	-26.5	-27.9	15.7	0.00e+00	0	43	102	1048576	13	4226
2026-01-24 11:07:19.33	352.51	11.90	-26.5	-28.0	15.7	0.00e+00	0	44	102	1048576	13	4251
2026-01-24 11:07:20.34	352.41	11.82	-26.6	-28.2	15.6	0.00e+00	0	43	102	1048576	13	4301
2026-01-24 11:07:21.34	352.32	11.73	-26.5	-27.8	15.7	0.00e+00	0	43	102	1048576	13	4204
2026-01-24 11:07:22.35	352.22	11.65	-26.5	-27.8	15.7	0.00e+00	0	43	102	1048576	13	4213
2026-01-24 11:07:23.36	352.13	11.57	-26.5	-28.0	15.6	0.00e+00	0	44	102	1048576	13	4255
2026-01-24 11:07:24.36	352.03	11.49	-26.6	-28.1	15.6	0.00e+00	0	44	102	1048576	13	4290
2026-01-24 11:07:25.37	351.94	11.41	-26.5	-28.0	15.6	0.00e+00	0	43	102	1048576	13	4249
2026-01-24 11:07:26.38	351.85	11.33	-26.6	-28.0	15.6	0.00e+00	0	43	102	1048576	13	4263
2026-01-24 11:07:27.38	351.76	11.25	-26.6	-28.0	15.6	0.00e+00	0	44	102	1048576	13	4271
2026-01-24 11:07:28.38	351.67	11.17	-26.5	-28.0	15.6	0.00e+00	0	43	102	1048576	13	4249
2026-01-24 11:07:29.38	351.57	11.09	-26.5	-28.0	15.6	0.00e+00	0	43	102	1048576	13	4267
2026-01-24 11:07:30.38	351.49	11.01	-26.5	-28.0	15.6	0.00e+00	0	43	102	1048576	13	4248
2026-01-24 11:07:31.39	351.40	10.93	-26.5	-27.9	15.6	0.00e+00	0	44	102	1048576	13	4243
2026-01-24 11:07:32.39	351.31	10.85	-26.6	-28.1	15.5	0.00e+00	0	44	102	1048576	13	4280
2026-01-24 11:07:33.39	351.22	10.78	-26.6	-28.1	15.5	0.00e+00	0	44	102	1048576	13	4302
2026-01-24 11:07:34.40	351.13	10.70	-26.6	-28.2	15.4	1.10e-06	0	44	102	1048576	13	4312
2026-01-24 11:07:35.40	351.04	10.62	-26.7	-28.4	15.3	0.00e+00	0	44	102	1048576	13	4363
2026-01-24 11:07:36.40	350.96	10.54	-26.6	-28.1	15.5	0.00e+00	0	43	102	1048576	13	4277
2026-01-24 11:07:37.41	350.87	10.46	-26.8	-28.5	15.2	0.00e+00	0	43	102	1048576	13	4413
2026-01-24 11:07:38.41	350.78	10.38	-26.8	-28.5	15.3	0.00e+00	0	43	102	1048576	13	4396
2026-01-24 11:07:39.42	350.70	10.31	-26.8	-28.5	15.2	0.00e+00	0	43	102	1048576	13	4415
2026-01-24 11:07:40.42	350.61	10.23	-26.9	-28.9	15.0	0.00e+00	0	43	102	1048576	13	4507
2026-01-24 11:07:41.43	350.53	10.15	-26.9	-28.9	15.0	0.00e+00	0	44	102	1048576	13	4525
2026-01-24 11:07:42.43	350.44	10.07	-27.2	-29.0	14.7	1.10e-06	0	43	102	1048576	14	4438
2026-01-24 11:07:43.44	350.36	10.00	-27.1	-28.9	14.8	0.00e+00	0	44	102	1048576	14	4395
2026-01-24 11:07:44.44	350.28	9.92	-27.0	-28.7	14.9	0.00e+00	0	43	102	1048576	14	4334
2026-01-24 11:07:45.45	350.19	9.84	-27.1	-28.9	14.8	0.00e+00	0	43	102	1048576	14	4395
2026-01-24 11:07:46.45	350.11	9.77	-27.1	-28.9	14.7	0.00e+00	0	43	102	1048576	14	4390
2026-01-24 11:07:47.46	350.03	9.69	-27.2	-29.1	14.6	0.00e+00	0	43	102	1048576	14	4462
2026-01-24 11:07:48.46	349.95	9.61	-27.3	-29.3	14.5	0.00e+00	0	43	102	1048576	14	4522
2026-01-24 11:07:49.46	349.87	9.54	-27.2	-29.1	14.6	0.00e+00	0	43	102	1048576	14	4453
2026-01-24 11:07:50.46	349.79	9.46	-27.2	-29.1	14.6	0.00e+00	0	43	102	1048576	14	4448
2026-01-24 11:07:51.47	349.70	9.39	-27.4	-29.4	14.4	0.00e+00	0	43	102	1048576	14	4556
2026-01-24 11:07:52.47	349.63	9.31	-27.5	-29.1	14.3	1.10e-06	0	43	102	1048576	15	4346
2026-01-24 11:07:53.47	349.55	9.24	-27.2	-28.4	14.7	1.10e-06	0	43	102	1048576	15	4156
2026-01-24 11:07:54.48	349.47	9.16	-27.1	-28.3	14.7	0.00e+00	0	43	102	1048576	15	4136
2026-01-24 11:07:55.49	349.39	9.08	-27.0	-27.9	14.9	0.00e+00	0	44	102	1048576	15	4033
2026-01-24 11:07:56.50	349.31	9.01	-27.1	-28.2	14.8	0.00e+00	0	44	102	1048576	15	4092
2026-01-24 11:07:57.50	349.23	8.93	-27.0	-28.1	14.8	0.00e+00	0	43	102	1048576	15	4087
2026-01-24 11:07:58.51	349.15	8.86	-27.0	-28.0	14.9	0.00e+00	0	43	102	1048576	15	4056
2026-01-24 11:07:59.51	349.08	8.79	-27.0	-28.1	14.8	0.00e+00	0	43	102	1048576	15	4068
2026-01-24 11:08:00.52	349.00	8.71	-27.0	-28.1	14.8	0.00e+00	0	44	102	1048576	15	4085
2026-01-24 11:08:01.52	348.93	8.64	-27.1	-28.3	14.7	0.00e+00	0	43	102	1048576	15	4124
2026-01-24 11:08:02.53	348.85	8.56	-27.1	-28.3	14.7	1.10e-06	0	43	102	1048576	15	4126
2026-01-24 11:08:03.54	348.77	8.49	-27.1	-28.4	14.6	0.00e+00	0	43	102	1048576	15	4146
2026-01-24 11:08:04.54	348.70	8.42	-27.1	-28.2	14.7	0.00e+00	0	43	102	1048576	15	4113
2026-01-24 11:08:05.54	348.63	8.34	-27.0	-28.2	14.7	1.10e-06	0	43	102	1048576	15	4094
2026-01-24 11:08:06.54	348.55	8.27	-27.1	-28.3	14.6	0.00e+00	0	43	102	1048576	15	4130
2026-01-24 11:08:07.55	348.48	8.20	-27.2	-28.4	14.5	0.00e+00	0	44	102	1048576	15	4171
2026-01-24 11:08:08.54	348.41	8.13	-27.2	-28.4	14.5	0.00e+00	0	44	102	1048576	15	4174
2026-01-24 11:08:09.55	348.33	8.05	-27.3	-28.7	14.4	0.00e+00	0	43	102	1048576	15	4239
2026-01-24 11:08:10.55	348.26	7.98	-27.3	-28.8	14.3	0.00e+00	0	44	102	1048576	15	4267
2026-01-24 11:08:11.56	348.19	7.91	-27.4	-29.0	14.2	1.10e-06	0	43	102	1048576	15	4335
2026-01-24 11:08:12.56	348.12	7.84	-27.5	-29.1	14.1	0.00e+00	0	43	102	1048576	15	4368
2026-01-24 11:08:13.57	348.04	7.76	-27.3	-28.9	14.2	1.10e-06	0	44	102	1048576	15	4290
2026-01-24 11:08:14.57	347.97	7.69	-27.4	-29.1	14.1	1.10e-06	0	44	102	1048576	15	4348
2026-01-24 11:08:15.58	347.90	7.62	-27.4	-29.1	14.1	0.00e+00	0	43	102	1048576	15	4351
2026-01-24 11:08:16.58	347.83	7.55	-27.6	-29.4	13.9	1.10e-06	0	43	102	1048576	15	4444
2026-01-24 11:08:17.59	347.76	7.48	-27.6	-29.4	13.9	2.20e-06	0	43	102	1048576	15	4457
2026-01-24 11:08:18.59	347.69	7.41	-27.5	-29.3	13.9	0.00e+00	0	44	102	1048576	15	4421
2026-01-24 11:08:19.60	347.62	7.33	-27.4	-29.0	14.1	1.10e-06	0	43	102	1048576	15	4326
2026-01-24 11:08:20.60	347.56	7.26	-27.3	-28.8	14.2	0.00e+00	0	43	102	1048576	15	4274
2026-01-24 11:08:21.60	347.49	7.19	-27.6	-29.4	13.9	0.00e+00	0	44	102	1048576	15	4446
2026-01-24 11:08:22.60	347.42	7.12	-27.5	-29.1	14.0	2.20e-06	0	44	102	1048576	15	4368
2026-01-24 11:08:23.61	347.35	7.05	-33.4	-44.5	3.8	5.63e-02	0	43	104	1048576	26	12889
2026-01-24 11:08:24.61	347.28	6.98	-33.7	-44.7	3.8	8.46e-01	0	43	104	1048576	27	12808
2026-01-24 11:08:25.62	347.22	6.91	-33.9	-44.8	3.8	8.47e-01	0	43	104	1048576	28	12627

#Closed at: 2026-01-24 11:08:26
#Recorded file [1 MB]: D:/data/31010_260124_135735.dat