passes_logs/2026/01/24/R2M6_AANII_01/R2M6_AANII_01__20260124_014649_SUOMI_NPP_rec.log

#Pass ID: 20260124_014649_SUOMI NPP
#Satellite: SUOMI NPP
#Configuration: NPP
#almurnet v.1.7.20240730
#Start time: 2026-01-24 01:46:52

#Version: 2.2.20231116
#Station: R2M6_AANII_01
#Location: 30.233357 lon 59.946436 lat
#TLE: 1 37849U 11061A   26022.92790088  .00000200  00000+0  11571-3 0  9994
#TLE: 2 37849  98.7820 324.9085 0002258  50.1112 310.0263 14.19528452737839

#Time	Az	El	Level	Level2	SNR	BER	BlckErr	Temp	State	Recorded	gain1	gain2
2026-01-24 01:46:52.22	12.16	7.18	-34.1	-46.6	3.7	1.50e+00	0	44	0	0	28	15106
2026-01-24 01:46:53.22	12.09	7.25	-34.3	-46.4	3.8	1.49e+00	0	44	104	0	29	14467
2026-01-24 01:46:54.22	12.03	7.32	-34.4	-47.0	3.8	1.49e+00	0	44	104	0	28	15354
2026-01-24 01:46:55.23	11.96	7.39	-34.4	-47.0	3.8	1.49e+00	0	44	104	0	28	15393
2026-01-24 01:46:56.23	11.89	7.47	-34.4	-47.0	3.8	1.49e+00	0	44	104	0	28	15412
2026-01-24 01:46:57.23	11.83	7.54	-34.4	-47.1	3.8	1.49e+00	0	44	104	0	28	15462
2026-01-24 01:46:58.24	11.76	7.61	-34.4	-47.0	3.8	1.49e+00	0	44	104	0	28	15376
2026-01-24 01:46:59.25	11.69	7.68	-34.4	-47.0	3.8	1.49e+00	0	44	104	0	28	15430
2026-01-24 01:47:00.25	11.62	7.75	-34.4	-47.0	3.8	1.49e+00	0	44	104	0	28	15342
2026-01-24 01:47:01.26	11.55	7.83	-34.4	-47.0	3.8	1.49e+00	0	44	104	0	28	15355
2026-01-24 01:47:02.26	11.48	7.90	-34.4	-47.0	3.8	1.49e+00	0	44	104	0	28	15377
2026-01-24 01:47:03.26	11.41	7.97	-34.4	-47.0	3.8	1.49e+00	0	44	104	0	28	15369
2026-01-24 01:47:04.26	11.34	8.04	-34.4	-47.0	3.8	1.49e+00	0	44	104	0	28	15383
2026-01-24 01:47:05.26	11.27	8.12	-34.4	-46.9	3.8	1.49e+00	0	44	104	0	28	15303
2026-01-24 01:47:06.27	11.20	8.19	-34.4	-47.0	3.8	1.49e+00	0	44	104	0	28	15358
2026-01-24 01:47:07.27	11.13	8.26	-34.4	-46.9	3.8	1.49e+00	0	44	104	0	28	15302
2026-01-24 01:47:08.28	11.05	8.34	-34.3	-46.9	3.8	1.49e+00	0	44	104	0	28	15265
2026-01-24 01:47:09.29	10.98	8.41	-34.3	-46.9	3.8	1.49e+00	0	44	104	0	28	15313
2026-01-24 01:47:10.29	10.91	8.48	-34.4	-46.9	3.8	1.49e+00	0	44	104	0	28	15332
2026-01-24 01:47:11.30	10.83	8.56	-34.5	-47.2	3.8	1.49e+00	0	44	104	0	28	15567
2026-01-24 01:47:12.30	10.76	8.63	-34.5	-47.2	3.8	1.49e+00	0	44	104	0	28	15539
2026-01-24 01:47:13.30	10.69	8.71	-34.5	-47.2	3.8	1.49e+00	0	44	104	0	28	15528
2026-01-24 01:47:14.31	10.61	8.78	-34.5	-47.2	3.8	1.49e+00	0	44	104	0	28	15555
2026-01-24 01:47:15.31	10.54	8.86	-34.4	-47.1	3.8	1.49e+00	0	44	104	0	28	15495
2026-01-24 01:47:16.31	10.46	8.93	-34.4	-47.0	3.8	1.49e+00	0	44	104	0	28	15437
2026-01-24 01:47:17.32	10.39	9.01	-34.3	-46.9	3.8	1.49e+00	0	44	104	0	28	15364
2026-01-24 01:47:18.32	10.31	9.08	-34.3	-46.9	3.8	1.49e+00	0	44	104	0	28	15321
2026-01-24 01:47:19.32	10.24	9.16	-34.3	-46.8	3.8	1.49e+00	0	44	104	0	28	15230
2026-01-24 01:47:20.32	10.16	9.23	-34.3	-46.8	3.8	1.49e+00	0	44	104	0	28	15220
2026-01-24 01:47:21.33	10.08	9.31	-34.2	-46.7	3.8	1.49e+00	0	44	104	0	28	15142
2026-01-24 01:47:22.32	10.01	9.38	-34.2	-46.6	3.8	1.49e+00	0	44	104	0	28	15063
2026-01-24 01:47:23.33	9.93	9.46	-34.2	-46.5	3.8	1.49e+00	0	44	104	0	28	14941
2026-01-24 01:47:24.34	9.85	9.53	-34.1	-46.4	3.8	1.49e+00	0	44	104	0	28	14901
2026-01-24 01:47:25.34	9.77	9.61	-34.0	-46.2	3.8	1.49e+00	0	44	104	0	28	14728
2026-01-24 01:47:26.35	9.69	9.69	-34.0	-46.7	3.8	1.49e+00	0	44	104	0	27	15569
2026-01-24 01:47:27.36	9.61	9.77	-33.8	-46.1	3.8	1.49e+00	0	44	104	0	27	14809
2026-01-24 01:47:28.37	9.53	9.84	-33.4	-42.9	3.9	1.49e+00	0	44	104	0	27	10784
2026-01-24 01:47:29.37	9.45	9.92	-33.5	-45.3	3.8	1.49e+00	0	44	104	0	27	14024
2026-01-24 01:47:30.38	9.37	10.00	-33.5	-45.6	3.8	1.49e+00	0	44	104	0	27	14467
2026-01-24 01:47:31.38	9.29	10.07	-33.6	-45.8	3.8	1.49e+00	0	44	104	0	27	14756
2026-01-24 01:47:32.39	9.20	10.15	-33.5	-45.7	3.8	1.49e+00	0	44	104	0	27	14592
2026-01-24 01:47:33.39	9.12	10.23	-33.5	-45.1	3.8	1.49e+00	0	44	104	0	27	13622
2026-01-24 01:47:34.40	9.04	10.31	-33.4	-43.9	3.8	1.49e+00	0	44	104	0	27	11987
2026-01-24 01:47:35.40	8.95	10.39	-33.3	-42.8	4.0	1.48e+00	0	44	104	0	26	10785
2026-01-24 01:47:36.41	8.87	10.47	-33.2	-41.3	4.1	1.21e+00	0	44	104	0	26	9216
2026-01-24 01:47:37.42	8.78	10.54	-32.9	-39.6	5.3	1.43e+00	0	44	104	0	26	7734
2026-01-24 01:47:38.42	8.70	10.62	-32.6	-38.3	6.4	4.14e-01	0	44	0	0	25	6928
2026-01-24 01:47:39.43	8.61	10.70	-32.4	-37.4	7.0	1.74e-01	0	44	102	1048576	25	6390
2026-01-24 01:47:40.43	8.53	10.78	-32.3	-37.0	7.7	1.06e-01	0	44	102	1048576	24	6233
2026-01-24 01:47:41.44	8.44	10.86	-32.0	-36.1	8.4	6.60e-02	0	44	102	1048576	24	5770
2026-01-24 01:47:42.44	8.36	10.94	-32.0	-36.0	8.5	4.47e-02	0	44	102	1048576	24	5714
2026-01-24 01:47:43.44	8.27	11.02	-32.0	-35.9	8.6	4.10e-02	0	44	102	1048576	24	5656
2026-01-24 01:47:44.44	8.18	11.10	-31.8	-35.7	9.1	3.19e-02	0	44	102	1048576	23	5631
2026-01-24 01:47:45.45	8.09	11.18	-31.8	-35.6	9.2	1.93e-02	0	44	102	1048576	23	5607
2026-01-24 01:47:46.45	8.00	11.26	-31.8	-35.5	9.3	1.96e-02	0	44	102	1048576	23	5529
2026-01-24 01:47:47.46	7.91	11.34	-31.8	-35.8	9.1	2.56e-02	0	44	102	1048576	23	5670
2026-01-24 01:47:48.47	7.82	11.42	-31.8	-35.6	9.2	2.31e-02	0	44	102	1048576	23	5561
2026-01-24 01:47:49.47	7.73	11.50	-31.8	-35.6	9.3	1.71e-02	0	44	102	1048576	23	5571
2026-01-24 01:47:50.48	7.64	11.59	-32.0	-36.2	8.8	2.30e-02	0	44	102	1048576	23	5888
2026-01-24 01:47:51.48	7.55	11.67	-32.0	-36.0	8.6	4.86e-02	0	44	102	1048576	24	5675
2026-01-24 01:47:52.48	7.46	11.75	-31.7	-34.8	9.5	1.75e-02	0	44	102	1048576	24	5134
2026-01-24 01:47:53.49	7.37	11.83	-31.4	-34.3	10.3	8.35e-03	0	44	102	1048576	23	5006
2026-01-24 01:47:54.49	7.27	11.91	-31.1	-33.7	11.1	6.14e-03	0	44	102	1048576	22	4865
2026-01-24 01:47:55.50	7.18	11.99	-30.9	-33.1	11.5	9.05e-04	0	44	102	1048576	22	4643
2026-01-24 01:47:56.50	7.09	12.08	-30.8	-33.3	11.7	3.97e-04	0	44	102	1048576	21	4808
2026-01-24 01:47:57.50	6.99	12.16	-30.9	-33.5	11.6	1.12e-03	0	44	102	1048576	21	4885
2026-01-24 01:47:58.51	6.90	12.24	-31.0	-33.2	11.5	1.09e-03	0	44	102	1048576	22	4680
2026-01-24 01:47:59.51	6.80	12.32	-31.0	-33.3	11.4	1.22e-03	0	44	102	1048576	22	4702
2026-01-24 01:48:00.52	6.70	12.41	-31.0	-33.4	11.3	1.20e-03	0	44	102	1048576	22	4743
2026-01-24 01:48:01.53	6.61	12.49	-31.2	-33.8	11.1	1.85e-03	0	44	102	1048576	22	4889
2026-01-24 01:48:02.53	6.51	12.58	-31.0	-33.4	11.4	1.13e-03	0	44	102	1048576	22	4714
2026-01-24 01:48:03.54	6.41	12.66	-31.0	-33.4	11.3	8.98e-04	0	44	102	1048576	22	4748
2026-01-24 01:48:04.54	6.31	12.74	-31.2	-33.9	10.9	1.30e-03	0	44	102	1048576	22	4942
2026-01-24 01:48:05.55	6.21	12.83	-31.2	-34.0	11.0	2.74e-03	0	44	102	1048576	22	4946
2026-01-24 01:48:06.56	6.11	12.91	-31.0	-33.2	11.5	1.02e-03	0	44	102	1048576	22	4643
2026-01-24 01:48:07.56	6.01	13.00	-31.0	-33.2	11.5	6.13e-04	0	44	102	1048576	22	4672
2026-01-24 01:48:08.56	5.91	13.08	-30.9	-33.0	11.7	2.68e-03	0	44	102	1048576	22	4588
2026-01-24 01:48:09.57	5.81	13.17	-30.7	-32.8	12.1	3.33e-04	0	44	102	1048576	21	4617
2026-01-24 01:48:10.58	5.71	13.25	-30.5	-32.3	12.5	1.93e-04	0	44	102	1048576	21	4446
2026-01-24 01:48:11.58	5.61	13.34	-30.6	-32.6	12.3	1.37e-03	0	44	102	1048576	21	4526
2026-01-24 01:48:12.58	5.50	13.42	-30.6	-32.6	12.2	2.44e-04	0	44	102	1048576	21	4550
2026-01-24 01:48:13.59	5.40	13.51	-30.6	-32.7	12.2	1.95e-04	0	44	102	1048576	21	4571
2026-01-24 01:48:14.59	5.29	13.59	-30.7	-33.0	12.0	3.57e-04	0	44	102	1048576	21	4676
2026-01-24 01:48:15.59	5.19	13.68	-30.5	-32.4	12.4	1.38e-04	0	44	102	1048576	21	4468
2026-01-24 01:48:16.59	5.08	13.77	-29.6	-31.5	12.5	1.19e-04	0	44	102	1048576	21	4490
2026-01-24 01:48:17.60	4.98	13.85	-30.5	-32.8	12.0	1.20e-04	0	44	102	1048576	20	4718
2026-01-24 01:48:18.60	4.87	13.94	-30.5	-32.4	12.2	1.40e-04	0	44	102	1048576	21	4460
2026-01-24 01:48:19.60	4.76	14.03	-30.5	-32.7	11.3	1.06e-04	0	44	102	1048576	20	4673
2026-01-24 01:48:20.61	4.65	14.11	-30.4	-32.7	12.4	9.23e-05	0	44	102	1048576	20	4659
2026-01-24 01:48:21.61	4.54	14.20	-30.5	-32.2	12.6	1.09e-04	0	44	102	1048576	21	4411
2026-01-24 01:48:22.62	4.43	14.29	-30.6	-32.7	12.2	2.65e-03	0	44	102	1048576	21	4561
2026-01-24 01:48:23.62	4.32	14.38	-30.6	-32.5	12.5	1.26e-04	0	44	102	1048576	21	4485
2026-01-24 01:48:24.61	4.21	14.46	-30.6	-32.5	12.4	8.77e-05	0	44	102	1048576	21	4508
2026-01-24 01:48:25.61	4.10	14.55	-30.6	-32.7	12.3	1.93e-04	0	44	102	1048576	21	4546
2026-01-24 01:48:26.61	3.99	14.64	-30.6	-32.5	12.4	1.78e-04	0	44	102	1048576	21	4492
2026-01-24 01:48:27.61	3.88	14.73	-30.4	-32.6	12.7	8.77e-05	0	44	102	1048576	20	4620
2026-01-24 01:48:28.62	3.76	14.82	-30.4	-32.5	12.8	8.31e-05	0	44	102	1048576	20	4574
2026-01-24 01:48:29.62	3.65	14.91	-30.4	-32.5	12.8	2.52e-03	0	44	102	1048576	20	4565
2026-01-24 01:48:30.62	3.53	15.00	-30.3	-32.2	13.0	5.64e-05	0	44	102	1048576	20	4465
2026-01-24 01:48:31.63	3.42	15.09	-30.3	-32.1	13.1	2.89e-05	0	44	102	1048576	20	4450
2026-01-24 01:48:32.64	3.30	15.18	-30.2	-32.0	13.1	2.72e-03	0	44	102	1048576	20	4409
2026-01-24 01:48:33.64	3.18	15.27	-30.0	-31.3	13.6	2.71e-04	0	44	102	1048576	20	4181
2026-01-24 01:48:34.64	3.07	15.36	-29.8	-31.3	13.8	4.50e-06	0	44	102	1048576	19	4280
2026-01-24 01:48:35.65	2.95	15.45	-29.9	-31.2	13.6	4.50e-06	0	44	102	1048576	20	4167
2026-01-24 01:48:36.66	2.83	15.54	-30.0	-31.4	13.6	3.07e-04	0	44	102	1048576	20	4211
2026-01-24 01:48:37.65	2.71	15.63	-30.0	-31.5	13.6	4.50e-06	0	44	102	1048576	20	4231
2026-01-24 01:48:38.66	2.58	15.72	-30.1	-31.6	13.5	7.60e-06	0	44	102	1048576	20	4269
2026-01-24 01:48:39.66	2.46	15.81	-30.2	-32.0	13.2	2.59e-04	0	44	102	1048576	20	4397
2026-01-24 01:48:40.66	2.34	15.90	-30.2	-31.8	13.3	2.31e-03	0	44	102	1048576	20	4357
2026-01-24 01:48:41.66	2.22	15.99	-30.3	-32.1	13.1	1.22e-05	0	44	102	1048576	20	4444
2026-01-24 01:48:42.66	2.09	16.08	-30.2	-31.8	13.3	2.28e-05	0	44	102	1048576	20	4333
2026-01-24 01:48:43.66	1.97	16.18	-30.2	-31.7	13.4	2.58e-03	0	44	102	1048576	20	4324
2026-01-24 01:48:44.66	1.84	16.27	-30.1	-31.7	13.4	2.51e-03	0	44	102	1048576	20	4314
2026-01-24 01:48:45.66	1.72	16.36	-30.2	-31.7	13.4	1.37e-05	0	44	102	1048576	20	4325
2026-01-24 01:48:46.66	1.59	16.45	-30.4	-32.3	13.0	2.99e-03	0	44	102	1048576	20	4517
2026-01-24 01:48:47.67	1.46	16.55	-30.4	-32.4	13.0	2.40e-03	0	44	102	1048576	20	4547
2026-01-24 01:48:48.67	1.33	16.64	-30.3	-32.0	13.2	1.98e-05	0	44	102	1048576	20	4425
2026-01-24 01:48:49.67	1.20	16.73	-30.2	-32.0	13.2	2.97e-05	0	44	102	1048576	20	4394
2026-01-24 01:48:50.68	1.07	16.82	-30.2	-32.0	13.2	3.40e-03	0	44	102	1048576	20	4394
2026-01-24 01:48:51.68	0.94	16.92	-30.3	-32.3	13.0	2.23e-04	0	44	102	1048576	20	4507
2026-01-24 01:48:52.68	0.81	17.01	-30.3	-32.2	13.1	4.65e-05	0	44	102	1048576	20	4467
2026-01-24 01:48:53.69	0.68	17.11	-30.5	-32.6	12.8	3.87e-03	0	44	102	1048576	20	4609
2026-01-24 01:48:54.70	0.54	17.20	-30.3	-31.8	13.1	2.50e-04	0	44	102	1048576	21	4241
2026-01-24 01:48:55.71	0.40	17.30	-30.2	-32.0	13.2	8.68e-04	0	44	102	1048576	20	4422
2026-01-24 01:48:56.71	0.27	17.39	-30.2	-31.9	13.3	2.72e-03	0	44	102	1048576	20	4369
2026-01-24 01:48:57.72	0.13	17.49	-30.3	-32.2	13.1	2.49e-04	0	44	102	1048576	20	4466
2026-01-24 01:48:58.71	360.00	17.58	-30.3	-32.1	13.2	2.44e-03	0	44	102	1048576	20	4443
2026-01-24 01:48:59.72	359.86	17.68	-30.5	-32.6	12.8	3.43e-05	0	44	102	1048576	20	4616
2026-01-24 01:49:00.72	359.72	17.77	-30.5	-32.2	12.9	2.91e-04	0	44	102	1048576	21	4362
2026-01-24 01:49:01.72	359.58	17.87	-30.4	-32.3	13.1	4.07e-03	0	44	102	1048576	20	4506
2026-01-24 01:49:02.72	359.44	17.96	-30.5	-32.6	12.9	2.53e-03	0	44	102	1048576	20	4592
2026-01-24 01:49:03.72	359.30	18.06	-30.8	-32.9	12.4	2.64e-04	0	44	102	1048576	21	4606
2026-01-24 01:49:04.73	359.15	18.15	-30.6	-32.5	12.7	3.84e-03	0	44	102	1048576	21	4459
2026-01-24 01:49:05.73	359.01	18.25	-30.8	-33.0	12.4	2.41e-03	0	44	102	1048576	21	4637
2026-01-24 01:49:06.74	358.86	18.35	-30.7	-32.6	12.6	3.83e-04	0	44	102	1048576	21	4494
2026-01-24 01:49:07.75	358.72	18.44	-30.7	-32.7	12.6	4.14e-03	0	44	102	1048576	21	4520
2026-01-24 01:49:08.75	358.57	18.54	-30.7	-32.6	12.6	4.43e-03	0	44	102	1048576	21	4498
2026-01-24 01:49:09.76	358.42	18.64	-30.7	-32.6	12.6	2.73e-04	0	44	102	1048576	21	4504
2026-01-24 01:49:10.76	358.27	18.74	-30.7	-32.6	12.6	4.47e-03	0	44	102	1048576	21	4499
2026-01-24 01:49:11.77	358.12	18.83	-30.7	-32.6	12.6	4.21e-03	0	44	102	1048576	21	4508
2026-01-24 01:49:12.77	357.97	18.93	-30.6	-32.4	12.7	2.96e-04	0	44	102	1048576	21	4441
2026-01-24 01:49:13.78	357.82	19.03	-30.6	-32.5	12.7	1.68e-03	0	44	102	1048576	21	4450
2026-01-24 01:49:14.78	357.67	19.13	-30.8	-32.9	12.4	4.46e-03	0	44	102	1048576	21	4606
2026-01-24 01:49:15.79	357.51	19.23	-30.9	-33.2	12.3	6.26e-04	0	44	102	1048576	21	4688
2026-01-24 01:49:16.79	357.36	19.32	-30.9	-33.2	12.1	2.10e-03	0	44	102	1048576	21	4715
2026-01-24 01:49:17.79	357.20	19.42	-30.9	-33.2	12.2	4.77e-03	0	44	102	1048576	21	4712
2026-01-24 01:49:18.80	357.05	19.52	-31.0	-33.5	12.0	5.56e-04	0	44	102	1048576	21	4833
2026-01-24 01:49:19.80	356.89	19.62	-31.0	-33.1	11.9	4.71e-03	0	44	102	1048576	22	4581
2026-01-24 01:49:20.80	356.73	19.72	-30.7	-32.8	12.5	2.02e-03	0	44	102	1048576	21	4555
2026-01-24 01:49:21.81	356.57	19.82	-30.6	-32.3	12.8	3.41e-04	0	44	102	1048576	21	4393
2026-01-24 01:49:22.82	356.41	19.92	-30.5	-32.2	12.9	4.57e-03	0	44	102	1048576	21	4366
2026-01-24 01:49:23.83	356.24	20.02	-30.5	-32.0	13.0	5.34e-05	0	44	102	1048576	21	4299
2026-01-24 01:49:24.83	356.08	20.12	-30.5	-32.7	13.0	2.89e-05	0	44	102	1048576	20	4612
2026-01-24 01:49:25.84	355.92	20.22	-30.4	-32.2	13.2	4.06e-03	0	44	102	1048576	20	4472
2026-01-24 01:49:26.84	355.75	20.32	-30.6	-32.3	12.8	6.71e-05	0	44	102	1048576	21	4406
2026-01-24 01:49:27.83	355.59	20.42	-30.9	-33.4	12.0	1.34e-04	0	44	102	1048576	21	4785
2026-01-24 01:49:28.84	355.42	20.52	-30.7	-32.6	12.6	4.49e-03	0	44	102	1048576	21	4504
2026-01-24 01:49:29.84	355.25	20.62	-30.6	-32.4	12.8	4.26e-03	0	44	102	1048576	21	4426
2026-01-24 01:49:30.85	355.08	20.72	-30.6	-32.5	12.7	9.15e-05	0	44	102	1048576	21	4468
2026-01-24 01:49:31.85	354.91	20.82	-30.6	-32.5	12.7	2.17e-03	0	44	102	1048576	21	4452
2026-01-24 01:49:32.85	354.74	20.92	-30.7	-32.8	12.7	3.91e-03	0	44	102	1048576	21	4555
2026-01-24 01:49:33.85	354.57	21.02	-30.6	-32.3	12.8	6.25e-05	0	44	102	1048576	21	4412
2026-01-24 01:49:34.86	354.39	21.12	-30.6	-32.4	12.8	4.50e-05	0	44	102	1048576	21	4417
2026-01-24 01:49:35.86	354.22	21.22	-30.6	-32.4	12.7	1.87e-03	0	44	102	1048576	21	4441
2026-01-24 01:49:36.86	354.04	21.32	-30.5	-32.0	13.1	2.83e-04	0	44	102	1048576	21	4290
2026-01-24 01:49:37.86	353.86	21.42	-30.5	-32.2	12.9	3.81e-05	0	44	102	1048576	21	4355
2026-01-24 01:49:38.86	353.68	21.52	-30.6	-32.4	12.9	1.74e-03	0	44	102	1048576	21	4406
2026-01-24 01:49:39.86	353.51	21.63	-30.5	-32.1	13.0	2.68e-04	0	44	102	1048576	21	4327
2026-01-24 01:49:40.87	353.32	21.73	-30.7	-32.7	12.8	4.04e-05	0	44	102	1048576	21	4543
2026-01-24 01:49:41.88	353.14	21.83	-30.8	-32.8	12.6	6.56e-05	0	44	102	1048576	21	4564
2026-01-24 01:49:42.89	352.95	21.93	-30.8	-33.0	12.5	1.11e-04	0	44	102	1048576	21	4645
2026-01-24 01:49:43.89	352.77	22.03	-30.7	-32.2	12.6	1.95e-04	0	44	102	1048576	22	4272
2026-01-24 01:49:44.89	352.58	22.14	-30.7	-32.7	12.7	1.07e-04	0	44	102	1048576	21	4506
2026-01-24 01:49:45.90	352.39	22.24	-30.8	-33.1	12.4	1.65e-04	0	44	102	1048576	21	4645
2026-01-24 01:49:46.90	352.21	22.34	-30.8	-32.3	12.6	2.42e-03	0	44	102	1048576	22	4306
2026-01-24 01:49:47.91	352.02	22.44	-30.7	-32.7	12.6	1.12e-04	0	44	102	1048576	21	4541
2026-01-24 01:49:48.91	351.82	22.54	-30.8	-32.9	12.5	1.17e-04	0	44	102	1048576	21	4601
2026-01-24 01:49:49.92	351.63	22.65	-30.9	-32.7	12.3	1.18e-03	0	44	102	1048576	22	4439
2026-01-24 01:49:50.93	351.44	22.75	-31.0	-32.9	12.2	2.82e-04	0	44	102	1048576	22	4518
2026-01-24 01:49:51.94	351.24	22.85	-31.0	-32.9	12.1	4.25e-04	0	44	102	1048576	22	4516
2026-01-24 01:49:52.94	351.04	22.96	-31.1	-33.5	11.8	3.58e-04	0	44	102	1048576	22	4728
2026-01-24 01:49:53.95	350.84	23.06	-31.2	-33.7	11.5	8.26e-04	0	44	102	1048576	22	4811
2026-01-24 01:49:54.95	350.65	23.16	-31.1	-33.5	11.7	1.08e-03	0	44	102	1048576	22	4707
2026-01-24 01:49:55.96	350.44	23.27	-31.0	-33.1	12.0	5.26e-04	0	44	102	1048576	22	4580
2026-01-24 01:49:56.96	350.24	23.37	-31.1	-33.4	11.8	3.54e-04	0	44	102	1048576	22	4690
2026-01-24 01:49:57.97	350.04	23.47	-30.1	-32.5	11.8	3.76e-04	0	44	102	1048576	22	4736
2026-01-24 01:49:58.97	349.83	23.57	-30.7	-32.8	12.0	1.90e-04	0	44	102	1048576	21	4577
2026-01-24 01:49:59.97	349.63	23.68	-30.7	-32.6	12.6	8.85e-05	0	44	102	1048576	21	4484
2026-01-24 01:50:00.98	349.42	23.78	-30.4	-32.3	13.2	2.67e-05	0	44	102	1048576	20	4487
2026-01-24 01:50:01.98	349.21	23.88	-29.7	-31.4	13.5	1.75e-05	0	44	102	1048576	20	4369
2026-01-24 01:50:02.99	349.00	23.98	-30.4	-32.3	13.2	1.44e-05	0	44	102	1048576	20	4478
2026-01-24 01:50:03.98	348.79	24.09	-30.4	-32.4	13.1	1.67e-03	0	44	102	1048576	20	4527
2026-01-24 01:50:04.99	348.58	24.19	-30.9	-33.1	12.2	3.81e-05	0	44	102	1048576	21	4672
2026-01-24 01:50:06.00	348.36	24.29	-30.7	-32.6	12.7	8.08e-05	0	44	102	1048576	21	4483
2026-01-24 01:50:07.00	348.15	24.39	-30.7	-32.6	12.8	5.11e-05	0	44	102	1048576	21	4494
2026-01-24 01:50:08.01	347.93	24.50	-30.8	-32.9	12.5	1.31e-04	0	44	102	1048576	21	4589
2026-01-24 01:50:09.01	347.71	24.60	-30.7	-32.6	12.8	8.46e-05	0	44	102	1048576	21	4468
2026-01-24 01:50:10.01	347.49	24.70	-30.6	-32.4	12.9	4.34e-05	0	44	102	1048576	21	4408
2026-01-24 01:50:11.01	347.27	24.80	-30.4	-32.4	13.2	1.75e-04	0	44	102	1048576	20	4506
2026-01-24 01:50:12.02	347.05	24.91	-30.6	-32.3	13.0	2.97e-05	0	44	102	1048576	21	4387
2026-01-24 01:50:13.02	346.82	25.01	-30.7	-32.6	12.8	7.24e-05	0	44	102	1048576	21	4477
2026-01-24 01:50:14.03	346.59	25.11	-30.7	-32.7	12.7	1.11e-04	0	44	102	1048576	21	4529
2026-01-24 01:50:15.04	346.37	25.21	-30.8	-32.8	12.6	5.95e-05	0	44	102	1048576	21	4555
2026-01-24 01:50:16.04	346.14	25.31	-30.7	-32.7	12.7	1.11e-04	0	44	102	1048576	21	4518
2026-01-24 01:50:17.04	345.91	25.42	-30.8	-32.8	12.6	1.52e-03	0	44	102	1048576	21	4554
2026-01-24 01:50:18.05	345.67	25.52	-30.6	-32.3	13.0	7.17e-05	0	44	102	1048576	21	4370
2026-01-24 01:50:19.05	345.44	25.62	-30.5	-31.9	13.2	2.36e-05	0	44	102	1048576	21	4266
2026-01-24 01:50:20.05	345.21	25.72	-30.4	-32.3	13.3	2.59e-05	0	44	102	1048576	20	4464
2026-01-24 01:50:21.05	344.97	25.82	-30.5	-32.0	13.2	3.28e-05	0	44	102	1048576	21	4276
2026-01-24 01:50:22.06	344.73	25.92	-30.7	-32.6	12.8	2.65e-03	0	44	102	1048576	21	4499
2026-01-24 01:50:23.07	344.49	26.02	-31.0	-33.0	12.2	1.15e-04	0	44	102	1048576	22	4532
2026-01-24 01:50:24.07	344.25	26.13	-30.9	-32.7	12.4	1.14e-04	0	44	102	1048576	22	4430
2026-01-24 01:50:25.07	344.01	26.23	-30.8	-32.9	12.6	2.84e-03	0	44	102	1048576	21	4579
2026-01-24 01:50:26.08	343.76	26.33	-30.8	-32.9	12.6	2.05e-03	0	44	102	1048576	21	4588
2026-01-24 01:50:27.08	343.52	26.43	-30.9	-33.2	12.4	2.11e-04	0	44	102	1048576	21	4690
2026-01-24 01:50:28.08	343.27	26.53	-31.1	-33.1	12.2	4.22e-03	0	44	102	1048576	22	4539
2026-01-24 01:50:29.08	343.02	26.62	-30.9	-32.6	12.6	4.64e-03	0	44	102	1048576	22	4380
2026-01-24 01:50:30.09	342.77	26.72	-31.0	-33.0	12.3	2.20e-04	0	44	102	1048576	22	4527
2026-01-24 01:50:31.10	342.52	26.82	-31.1	-33.2	12.1	4.61e-03	0	44	102	1048576	22	4606
2026-01-24 01:50:32.10	342.26	26.92	-31.0	-32.9	12.3	4.44e-03	0	44	102	1048576	22	4492
2026-01-24 01:50:33.10	342.01	27.02	-30.6	-31.9	13.0	1.17e-04	0	44	102	1048576	22	4164
2026-01-24 01:50:34.11	341.75	27.12	-30.4	-32.3	13.3	4.26e-03	0	44	102	1048576	20	4473
2026-01-24 01:50:35.11	341.49	27.22	-30.3	-31.9	13.5	4.16e-03	0	44	102	1048576	20	4346
2026-01-24 01:50:36.11	341.23	27.32	-30.2	-31.6	13.7	3.80e-06	0	44	102	1048576	20	4259
2026-01-24 01:50:37.11	340.97	27.41	-30.2	-31.6	13.7	2.11e-03	0	44	102	1048576	20	4257
2026-01-24 01:50:38.11	340.71	27.51	-29.7	-30.8	14.6	4.37e-03	0	44	102	1048576	19	4101
2026-01-24 01:50:39.12	340.44	27.61	-29.5	-30.3	14.9	0.00e+00	0	44	102	1048576	19	3958
2026-01-24 01:50:40.12	340.18	27.70	-29.5	-30.4	14.8	4.09e-03	0	44	102	1048576	19	3993
2026-01-24 01:50:41.12	339.91	27.80	-29.8	-31.2	14.3	3.99e-03	0	44	102	1048576	19	4241
2026-01-24 01:50:42.13	339.64	27.90	-30.2	-31.8	13.6	0.00e+00	0	44	102	1048576	20	4334
2026-01-24 01:50:43.13	339.37	27.99	-30.6	-32.4	12.9	4.06e-03	0	44	102	1048576	21	4437
2026-01-24 01:50:44.13	339.10	28.09	-30.6	-32.5	12.9	4.80e-05	0	44	102	1048576	21	4454
2026-01-24 01:50:45.13	338.82	28.18	-30.5	-32.1	13.1	5.64e-05	0	44	102	1048576	21	4339
2026-01-24 01:50:46.14	338.54	28.27	-30.6	-32.4	12.9	3.83e-03	0	44	102	1048576	21	4425
2026-01-24 01:50:47.14	338.27	28.37	-30.4	-31.9	13.2	3.84e-03	0	44	102	1048576	21	4269
2026-01-24 01:50:48.14	337.99	28.46	-30.6	-32.4	12.8	1.17e-04	0	44	102	1048576	21	4442
2026-01-24 01:50:49.14	337.71	28.55	-30.8	-33.1	12.4	3.35e-03	0	44	102	1048576	21	4658
2026-01-24 01:50:50.15	337.42	28.65	-31.3	-33.9	11.5	3.36e-03	0	44	102	1048576	22	4862
2026-01-24 01:50:51.15	337.14	28.74	-31.4	-33.9	11.2	1.94e-03	0	44	102	1048576	23	4766
2026-01-24 01:50:52.16	336.85	28.83	-31.5	-34.2	10.9	4.50e-03	0	44	102	1048576	23	4913
2026-01-24 01:50:53.16	336.56	28.92	-31.6	-34.3	10.9	4.34e-03	0	44	102	1048576	23	4945
2026-01-24 01:50:54.17	336.27	29.01	-31.3	-33.8	11.6	1.57e-03	0	44	102	1048576	22	4822
2026-01-24 01:50:55.17	335.98	29.10	-31.1	-33.2	12.1	3.71e-04	0	44	102	1048576	22	4605
2026-01-24 01:50:56.18	335.69	29.19	-30.9	-32.6	12.5	2.34e-03	0	44	102	1048576	22	4405
2026-01-24 01:50:57.18	335.39	29.28	-30.9	-33.1	12.4	4.72e-04	0	44	102	1048576	21	4669
2026-01-24 01:50:58.19	335.10	29.37	-30.7	-32.8	12.5	1.19e-04	0	44	102	1048576	21	4554
2026-01-24 01:50:59.19	334.80	29.45	-31.1	-33.3	11.9	2.51e-03	0	44	102	1048576	22	4653
2026-01-24 01:51:00.20	334.50	29.54	-31.5	-34.2	10.9	1.20e-03	0	44	102	1048576	23	4907
2026-01-24 01:51:01.20	334.20	29.63	-31.7	-34.9	10.5	3.45e-03	0	44	102	1048576	23	5199
2026-01-24 01:51:02.21	333.89	29.71	-31.9	-35.5	10.0	8.66e-03	0	44	102	1048576	23	5429
2026-01-24 01:51:03.22	333.59	29.80	-31.8	-35.2	10.2	7.65e-03	0	44	102	1048576	23	5305
2026-01-24 01:51:04.23	333.28	29.88	-31.8	-35.1	10.3	7.45e-03	0	44	102	1048576	23	5267
2026-01-24 01:51:05.23	332.97	29.97	-31.7	-34.7	10.6	3.22e-03	0	44	102	1048576	23	5089
2026-01-24 01:51:06.24	332.66	30.05	-31.9	-35.4	10.1	4.27e-03	0	44	102	1048576	23	5394
2026-01-24 01:51:07.24	332.35	30.13	-32.1	-35.6	9.5	1.33e-02	0	44	102	1048576	24	5399
2026-01-24 01:51:08.25	332.04	30.22	-32.3	-36.5	8.9	2.32e-02	0	44	102	1048576	24	5807
2026-01-24 01:51:09.25	331.72	30.30	-32.5	-36.9	8.2	4.89e-02	0	44	102	1048576	25	5923
2026-01-24 01:51:10.25	331.41	30.38	-32.5	-36.6	8.4	4.24e-02	0	44	102	1048576	25	5787
2026-01-24 01:51:11.25	331.09	30.46	-32.4	-36.9	8.5	3.38e-02	0	44	102	1048576	24	6047
2026-01-24 01:51:12.26	330.77	30.53	-32.0	-35.5	9.7	1.78e-02	0	44	102	1048576	24	5333
2026-01-24 01:51:13.26	330.45	30.61	-31.9	-34.8	10.2	9.21e-03	0	44	102	1048576	24	5060
2026-01-24 01:51:14.26	330.13	30.69	-31.6	-34.5	10.9	9.20e-03	0	44	102	1048576	23	4982
2026-01-24 01:51:15.27	329.81	30.76	-31.5	-34.0	11.1	2.09e-03	0	44	102	1048576	23	4806
2026-01-24 01:51:16.27	329.48	30.84	-31.7	-34.6	10.8	1.75e-03	0	44	102	1048576	23	5037
2026-01-24 01:51:17.27	329.16	30.91	-32.0	-35.6	9.9	2.90e-03	0	44	102	1048576	23	5479
2026-01-24 01:51:18.28	328.83	30.99	-32.0	-35.2	9.8	6.94e-03	0	44	102	1048576	24	5230
2026-01-24 01:51:19.29	328.50	31.06	-31.9	-34.9	10.0	1.04e-02	0	44	102	1048576	24	5106
2026-01-24 01:51:20.30	328.16	31.13	-31.6	-34.4	10.7	6.77e-03	0	44	102	1048576	23	4994
2026-01-24 01:51:21.31	327.83	31.20	-31.4	-33.7	11.2	1.51e-03	0	44	102	1048576	23	4721
2026-01-24 01:51:22.32	327.49	31.28	-31.4	-34.4	11.2	7.22e-04	0	44	102	1048576	22	5064
2026-01-24 01:51:23.32	327.16	31.34	-31.5	-34.2	11.0	6.83e-04	0	44	102	1048576	23	4906
2026-01-24 01:51:24.32	326.82	31.41	-31.8	-35.1	10.3	2.50e-03	0	44	102	1048576	23	5277
2026-01-24 01:51:25.33	326.48	31.48	-31.9	-35.0	10.0	1.03e-02	0	44	102	1048576	24	5160
2026-01-24 01:51:26.34	326.14	31.55	-32.1	-35.8	9.3	1.97e-02	0	44	102	1048576	24	5537
2026-01-24 01:51:27.34	325.80	31.61	-31.8	-34.8	10.1	1.53e-02	0	44	102	1048576	24	5074
2026-01-24 01:51:28.35	325.45	31.67	-31.5	-34.3	10.8	3.92e-03	0	44	102	1048576	23	4951
2026-01-24 01:51:29.35	325.11	31.74	-31.3	-33.9	11.5	1.30e-03	0	44	102	1048576	22	4903
2026-01-24 01:51:30.36	324.76	31.80	-31.4	-34.4	10.9	6.09e-04	0	44	102	1048576	22	5090
2026-01-24 01:51:31.36	324.42	31.86	-30.3	-33.0	10.6	8.70e-04	0	44	102	1048576	22	4949
2026-01-24 01:51:32.36	324.07	31.92	-31.4	-33.8	11.3	1.53e-03	0	44	102	1048576	23	4752
2026-01-24 01:51:33.36	323.72	31.98	-31.6	-34.5	9.9	1.92e-03	0	44	102	1048576	23	5022
2026-01-24 01:51:34.36	323.37	32.04	-31.8	-35.1	9.8	3.87e-03	0	44	102	1048576	23	5252
2026-01-24 01:51:35.37	323.02	32.09	-31.5	-34.2	10.9	2.75e-03	0	44	102	1048576	23	4883
2026-01-24 01:51:36.36	322.67	32.15	-31.3	-33.9	11.4	7.12e-04	0	44	102	1048576	22	4875
2026-01-24 01:51:37.37	322.32	32.20	-31.0	-33.2	12.0	5.97e-04	0	44	102	1048576	22	4602
2026-01-24 01:51:38.38	321.96	32.26	-30.8	-32.3	12.6	1.85e-04	0	44	102	1048576	22	4319
2026-01-24 01:51:39.39	321.60	32.31	-31.1	-33.4	11.9	2.81e-04	0	44	102	1048576	22	4689
2026-01-24 01:51:40.39	321.24	32.36	-31.3	-33.9	11.5	4.78e-04	0	44	102	1048576	22	4874
2026-01-24 01:51:41.40	320.88	32.41	-31.3	-34.0	11.5	1.18e-03	0	44	102	1048576	22	4901
2026-01-24 01:51:42.40	320.52	32.46	-31.2	-33.6	11.7	9.46e-04	0	44	102	1048576	22	4774
2026-01-24 01:51:43.41	320.16	32.51	-30.8	-33.0	12.5	2.78e-04	0	44	102	1048576	21	4637
2026-01-24 01:51:44.41	319.80	32.55	-30.5	-32.0	13.1	1.81e-04	0	44	102	1048576	21	4308
2026-01-24 01:51:45.41	319.44	32.60	-30.5	-32.1	13.1	2.92e-03	0	44	102	1048576	21	4329
2026-01-24 01:51:46.42	319.07	32.64	-30.6	-32.5	12.9	3.50e-05	0	44	102	1048576	21	4452
2026-01-24 01:51:47.42	318.71	32.68	-30.8	-33.0	12.6	1.28e-04	0	44	102	1048576	21	4610
2026-01-24 01:51:48.42	318.34	32.72	-31.1	-33.2	12.2	3.70e-03	0	44	102	1048576	22	4590
2026-01-24 01:51:49.42	317.98	32.76	-31.3	-33.8	11.7	3.03e-03	0	44	102	1048576	22	4825
2026-01-24 01:51:50.43	317.61	32.80	-31.2	-33.7	11.7	6.20e-04	0	44	102	1048576	22	4795
2026-01-24 01:51:51.43	317.24	32.84	-31.1	-33.3	12.0	3.36e-03	0	44	102	1048576	22	4642
2026-01-24 01:51:52.44	316.87	32.87	-30.6	-32.4	12.9	2.32e-03	0	44	102	1048576	21	4423
2026-01-24 01:51:53.45	316.50	32.91	-30.3	-32.1	13.4	2.01e-04	0	44	102	1048576	20	4418
2026-01-24 01:51:54.45	316.13	32.94	-30.2	-31.8	13.6	3.00e-06	0	44	102	1048576	20	4326
2026-01-24 01:51:55.46	315.75	32.98	-30.2	-31.7	13.7	3.10e-03	0	44	102	1048576	20	4293
2026-01-24 01:51:56.46	315.38	33.01	-30.0	-31.3	14.0	3.00e-06	0	44	102	1048576	20	4171
2026-01-24 01:51:57.47	315.01	33.04	-29.9	-31.4	14.3	2.05e-03	0	44	102	1048576	19	4284
2026-01-24 01:51:58.47	314.63	33.06	-30.1	-31.4	13.9	3.90e-03	0	44	102	1048576	20	4209
2026-01-24 01:51:59.48	314.26	33.09	-30.6	-32.5	12.9	1.90e-04	0	44	102	1048576	21	4464
2026-01-24 01:52:00.48	313.88	33.11	-31.2	-33.7	11.7	3.30e-03	0	44	102	1048576	22	4793
2026-01-24 01:52:01.49	313.50	33.14	-31.6	-34.5	10.8	3.49e-03	0	44	102	1048576	23	5005
2026-01-24 01:52:02.50	313.12	33.16	-31.3	-33.4	11.6	1.38e-03	0	44	102	1048576	23	4576
2026-01-24 01:52:03.50	312.75	33.18	-30.8	-32.3	12.6	2.76e-03	0	44	102	1048576	22	4303
2026-01-24 01:52:04.50	312.37	33.20	-30.4	-31.7	13.4	2.76e-03	0	44	102	1048576	21	4181
2026-01-24 01:52:05.50	312.00	33.22	-30.5	-32.1	13.2	9.23e-05	0	44	102	1048576	21	4307
2026-01-24 01:52:06.50	311.62	33.24	-30.8	-33.0	12.6	2.83e-03	0	44	102	1048576	21	4608
2026-01-24 01:52:07.51	311.24	33.25	-31.1	-33.1	12.2	3.26e-03	0	44	102	1048576	22	4564
2026-01-24 01:52:08.52	310.86	33.27	-31.2	-33.5	12.1	3.43e-04	0	44	102	1048576	22	4679
2026-01-24 01:52:09.52	310.48	33.28	-31.1	-33.1	12.2	3.88e-03	0	44	102	1048576	22	4548
2026-01-24 01:52:10.53	310.10	33.29	-30.8	-32.8	12.7	4.04e-03	0	44	102	1048576	21	4546
2026-01-24 01:52:11.54	309.72	33.30	-30.3	-31.5	13.6	1.29e-05	0	44	102	1048576	21	4112
2026-01-24 01:52:12.54	309.34	33.31	-30.0	-31.1	14.2	2.02e-03	0	44	102	1048576	20	4102
2026-01-24 01:52:13.54	308.96	33.31	-29.9	-30.9	14.3	4.05e-03	0	44	102	1048576	20	4038
2026-01-24 01:52:14.54	308.58	33.32	-30.3	-31.9	13.7	1.59e-04	0	44	102	1048576	20	4342
2026-01-24 01:52:15.54	308.20	33.32	-30.7	-32.6	12.8	3.35e-05	0	44	102	1048576	21	4469
2026-01-24 01:52:16.54	307.82	33.33	-31.3	-33.9	11.7	4.83e-03	0	44	102	1048576	22	4838
2026-01-24 01:52:17.55	307.44	33.33	-31.5	-34.4	11.3	8.86e-04	0	44	102	1048576	22	5036
2026-01-24 01:52:18.56	307.06	33.33	-31.6	-34.5	10.9	1.84e-03	0	44	102	1048576	23	5003
2026-01-24 01:52:19.56	306.68	33.33	-31.9	-35.3	10.3	6.39e-03	0	44	102	1048576	23	5316
2026-01-24 01:52:20.56	306.30	33.32	-31.7	-34.7	10.7	3.75e-03	0	44	102	1048576	23	5093
2026-01-24 01:52:21.57	305.91	33.32	-31.5	-34.2	11.1	8.31e-03	0	44	102	1048576	23	4873
2026-01-24 01:52:22.57	305.54	33.31	-31.5	-33.9	11.3	1.68e-03	0	44	102	1048576	23	4775
2026-01-24 01:52:23.57	305.16	33.30	-31.5	-34.0	11.1	1.03e-03	0	44	102	1048576	23	4801
2026-01-24 01:52:24.58	304.77	33.30	-31.3	-33.9	11.6	5.37e-03	0	44	102	1048576	22	4868
2026-01-24 01:52:25.58	304.40	33.29	-31.3	-33.9	11.6	7.93e-04	0	44	102	1048576	22	4854
2026-01-24 01:52:26.59	304.01	33.27	-31.2	-33.6	11.8	4.02e-04	0	44	102	1048576	22	4749
2026-01-24 01:52:27.59	303.64	33.26	-30.8	-33.0	12.5	3.96e-03	0	44	102	1048576	21	4625
2026-01-24 01:52:28.60	303.25	33.25	-30.6	-32.4	12.9	7.70e-05	0	44	102	1048576	21	4436
2026-01-24 01:52:29.60	302.88	33.23	-30.5	-32.2	13.0	6.02e-05	0	44	102	1048576	21	4358
2026-01-24 01:52:30.61	302.50	33.21	-30.6	-32.3	13.0	3.05e-04	0	44	102	1048576	21	4389
2026-01-24 01:52:31.61	302.12	33.19	-30.7	-32.6	12.9	2.02e-03	0	44	102	1048576	21	4476
2026-01-24 01:52:32.62	301.74	33.17	-31.1	-33.2	12.0	2.34e-04	0	44	102	1048576	22	4598
2026-01-24 01:52:33.63	301.36	33.15	-31.2	-33.6	11.8	2.94e-04	0	44	102	1048576	22	4767
2026-01-24 01:52:34.63	300.99	33.13	-31.3	-33.9	11.5	1.07e-03	0	44	102	1048576	22	4870
2026-01-24 01:52:35.63	300.61	33.10	-31.0	-32.9	12.3	2.59e-04	0	44	102	1048576	22	4492
2026-01-24 01:52:36.64	300.23	33.08	-30.9	-32.7	12.4	2.66e-04	0	44	102	1048576	22	4412
2026-01-24 01:52:37.64	299.86	33.05	-31.0	-33.0	12.2	6.38e-04	0	44	102	1048576	22	4539
2026-01-24 01:52:38.65	299.48	33.02	-31.4	-34.4	11.2	1.20e-03	0	44	102	1048576	22	5043
2026-01-24 01:52:39.64	299.12	32.99	-31.6	-34.4	10.9	2.54e-03	0	44	102	1048576	23	4959
2026-01-24 01:52:40.65	298.74	32.96	-31.9	-35.2	10.2	3.81e-03	0	44	102	1048576	23	5309
2026-01-24 01:52:41.65	298.37	32.93	-31.8	-35.0	10.4	5.70e-03	0	44	102	1048576	23	5224
2026-01-24 01:52:42.66	298.00	32.90	-31.6	-34.3	10.8	3.32e-03	0	44	102	1048576	23	4942
2026-01-24 01:52:43.66	297.63	32.86	-31.3	-33.3	11.6	2.32e-03	0	44	102	1048576	23	4570
2026-01-24 01:52:44.67	297.26	32.82	-31.0	-33.2	12.0	1.00e-03	0	44	102	1048576	22	4597
2026-01-24 01:52:45.68	296.89	32.79	-30.9	-32.7	12.3	3.30e-04	0	44	102	1048576	22	4450
2026-01-24 01:52:46.68	296.52	32.75	-30.8	-32.9	12.5	9.99e-05	0	44	102	1048576	21	4587
2026-01-24 01:52:47.68	296.15	32.71	-30.1	-32.2	12.1	1.42e-04	0	44	102	1048576	22	4612
2026-01-24 01:52:48.69	295.79	32.66	-30.9	-33.2	12.2	2.36e-04	0	44	102	1048576	21	4679
2026-01-24 01:52:49.69	295.42	32.62	-31.1	-33.2	12.0	3.26e-04	0	44	102	1048576	22	4598
2026-01-24 01:52:50.70	295.05	32.58	-31.3	-33.9	10.9	5.49e-04	0	44	102	1048576	22	4868
2026-01-24 01:52:51.70	294.69	32.53	-31.4	-34.3	10.6	1.63e-03	0	44	102	1048576	22	5021
2026-01-24 01:52:52.70	294.33	32.49	-31.4	-34.4	11.1	1.51e-03	0	44	102	1048576	22	5049
2026-01-24 01:52:53.70	293.97	32.44	-31.4	-34.2	11.1	2.14e-03	0	44	102	1048576	22	4978
2026-01-24 01:52:54.71	293.61	32.39	-31.3	-33.9	11.5	8.65e-04	0	44	102	1048576	22	4893
2026-01-24 01:52:55.71	293.25	32.34	-31.3	-34.0	11.5	1.05e-03	0	44	102	1048576	22	4905
2026-01-24 01:52:56.72	292.89	32.29	-31.4	-34.2	11.3	1.11e-03	0	44	102	1048576	22	5003
2026-01-24 01:52:57.72	292.54	32.23	-31.6	-34.3	10.9	1.19e-03	0	44	102	1048576	23	4946
2026-01-24 01:52:58.73	292.18	32.18	-31.6	-34.5	10.8	1.94e-03	0	44	102	1048576	23	4992
2026-01-24 01:52:59.73	291.83	32.12	-31.9	-35.3	10.2	4.61e-03	0	44	102	1048576	23	5322
2026-01-24 01:53:00.74	291.47	32.07	-31.7	-34.8	10.6	6.46e-03	0	44	102	1048576	23	5136
2026-01-24 01:53:01.75	291.12	32.01	-31.4	-33.8	11.1	2.62e-03	0	44	102	1048576	23	4755
2026-01-24 01:53:02.75	290.77	31.95	-31.3	-34.1	11.3	5.19e-03	0	44	102	1048576	22	4943
2026-01-24 01:53:03.76	290.42	31.89	-31.7	-34.7	10.6	1.55e-03	0	44	102	1048576	23	5081
2026-01-24 01:53:04.76	290.07	31.83	-31.4	-33.9	11.1	4.10e-03	0	44	102	1048576	23	4806
2026-01-24 01:53:05.77	289.72	31.77	-31.5	-34.3	10.9	6.17e-03	0	44	102	1048576	23	4960
2026-01-24 01:53:06.77	289.38	31.71	-31.2	-33.4	12.0	2.48e-03	0	44	102	1048576	22	4645
2026-01-24 01:53:07.78	289.03	31.64	-30.7	-32.0	13.0	1.13e-04	0	44	102	1048576	22	4179
2026-01-24 01:53:08.79	288.69	31.58	-30.5	-31.8	13.4	2.70e-03	0	44	102	1048576	21	4216
2026-01-24 01:53:09.79	288.35	31.51	-30.3	-31.8	13.7	2.91e-03	0	44	102	1048576	20	4300
2026-01-24 01:53:10.80	288.01	31.45	-30.6	-32.1	13.3	1.67e-05	0	44	102	1048576	21	4302
2026-01-24 01:53:11.80	287.67	31.38	-30.8	-32.8	12.7	7.62e-05	0	44	102	1048576	21	4535
2026-01-24 01:53:12.80	287.33	31.31	-30.8	-32.7	12.8	2.49e-03	0	44	102	1048576	21	4477
2026-01-24 01:53:13.81	286.99	31.24	-30.7	-32.4	13.0	1.81e-04	0	44	102	1048576	21	4382
2026-01-24 01:53:14.81	286.66	31.17	-30.6	-32.2	13.1	3.66e-05	0	44	102	1048576	21	4328
2026-01-24 01:53:15.82	286.33	31.10	-30.6	-32.3	13.1	1.98e-03	0	44	102	1048576	21	4352
2026-01-24 01:53:16.83	285.99	31.03	-30.7	-32.6	12.7	1.22e-04	0	44	102	1048576	21	4470
2026-01-24 01:53:17.83	285.67	30.95	-31.1	-33.1	12.2	2.31e-04	0	44	102	1048576	22	4534
2026-01-24 01:53:18.84	285.34	30.88	-31.5	-34.3	11.4	1.23e-03	0	44	102	1048576	22	4970
2026-01-24 01:53:19.84	285.01	30.80	-31.4	-33.6	11.5	1.13e-03	0	44	102	1048576	23	4631
2026-01-24 01:53:20.85	284.68	30.73	-31.4	-33.6	11.5	2.53e-03	0	44	102	1048576	23	4630
2026-01-24 01:53:21.85	284.36	30.65	-31.5	-34.0	11.3	9.86e-04	0	44	102	1048576	23	4757
2026-01-24 01:53:22.86	284.04	30.57	-31.6	-34.1	11.1	2.19e-03	0	44	102	1048576	23	4808
2026-01-24 01:53:23.87	283.71	30.49	-31.7	-34.4	10.9	5.54e-03	0	44	102	1048576	23	4926
2026-01-24 01:53:24.87	283.40	30.42	-31.7	-34.6	10.7	5.34e-03	0	44	102	1048576	23	5007
2026-01-24 01:53:25.87	283.08	30.34	-31.5	-34.0	11.1	1.89e-03	0	44	102	1048576	23	4785
2026-01-24 01:53:26.87	282.76	30.26	-31.4	-33.6	11.5	3.37e-03	0	44	102	1048576	23	4623
2026-01-24 01:53:27.87	282.45	30.18	-31.0	-33.0	12.3	3.02e-03	0	44	102	1048576	22	4502
2026-01-24 01:53:28.87	282.14	30.09	-31.1	-33.1	12.1	3.13e-04	0	44	102	1048576	22	4536
2026-01-24 01:53:29.87	281.83	30.01	-31.0	-32.8	12.3	1.69e-03	0	44	102	1048576	22	4452
2026-01-24 01:53:30.88	281.52	29.93	-31.2	-33.5	11.8	1.52e-03	0	44	102	1048576	22	4675
2026-01-24 01:53:31.88	281.21	29.84	-31.2	-33.6	11.8	4.49e-04	0	44	102	1048576	22	4707
2026-01-24 01:53:32.88	280.91	29.76	-31.4	-33.9	11.5	3.01e-03	0	44	102	1048576	22	4851
2026-01-24 01:53:33.89	280.60	29.67	-31.2	-33.4	11.9	3.30e-03	0	44	102	1048576	22	4652
2026-01-24 01:53:34.90	280.30	29.59	-31.4	-34.2	11.4	6.91e-04	0	44	102	1048576	22	4951
2026-01-24 01:53:35.89	280.00	29.50	-31.2	-32.9	11.9	7.94e-04	0	44	102	1048576	23	4397
2026-01-24 01:53:36.89	279.70	29.41	-30.8	-32.3	12.6	2.92e-03	0	44	102	1048576	22	4281
2026-01-24 01:53:37.89	279.40	29.33	-30.2	-31.1	13.7	8.08e-05	0	44	102	1048576	21	4018
2026-01-24 01:53:38.90	279.10	29.24	-29.8	-30.6	14.4	2.27e-03	0	44	102	1048576	20	3939
2026-01-24 01:53:39.90	278.81	29.15	-29.7	-30.9	14.6	2.17e-03	0	44	102	1048576	19	4121
2026-01-24 01:53:40.91	278.52	29.06	-29.9	-30.8	14.1	2.28e-05	0	44	102	1048576	20	4017
2026-01-24 01:53:41.91	278.23	28.97	-30.1	-31.3	13.9	2.17e-03	0	44	102	1048576	20	4158
2026-01-24 01:53:42.92	277.93	28.88	-30.2	-31.7	13.7	3.80e-06	0	44	102	1048576	20	4260
2026-01-24 01:53:43.92	277.65	28.78	-30.6	-32.2	13.0	2.28e-05	0	44	102	1048576	21	4355
2026-01-24 01:53:44.92	277.36	28.69	-30.9	-33.0	12.4	2.16e-03	0	44	102	1048576	21	4614
2026-01-24 01:53:45.92	277.08	28.60	-31.4	-34.1	11.4	5.66e-04	0	44	102	1048576	22	4902
2026-01-24 01:53:46.92	276.80	28.51	-31.3	-33.5	11.4	7.96e-04	0	44	102	1048576	23	4596
2026-01-24 01:53:47.91	276.52	28.42	-31.0	-33.0	12.1	2.96e-03	0	44	102	1048576	22	4531
2026-01-24 01:53:48.92	276.24	28.32	-30.2	-31.3	13.4	2.35e-03	0	44	102	1048576	21	4073
2026-01-24 01:53:49.93	275.96	28.23	-30.0	-30.6	14.0	5.30e-06	0	44	102	1048576	21	3878
2026-01-24 01:53:50.92	275.68	28.13	-30.2	-31.6	13.7	1.54e-03	0	44	102	1048576	20	4261
2026-01-24 01:53:51.93	275.41	28.04	-30.7	-32.6	12.7	1.20e-03	0	44	102	1048576	21	4499
2026-01-24 01:53:52.93	275.13	27.94	-31.4	-34.1	11.3	6.35e-04	0	44	102	1048576	22	4937
2026-01-24 01:53:53.93	274.86	27.85	-32.0	-35.5	9.9	4.60e-03	0	44	102	1048576	23	5438
2026-01-24 01:53:54.94	274.59	27.75	-31.9	-34.8	10.0	1.03e-02	0	44	102	1048576	24	5045
2026-01-24 01:53:55.94	274.32	27.65	-32.1	-35.6	9.4	1.66e-02	0	44	102	1048576	24	5405
2026-01-24 01:53:56.95	274.05	27.56	-31.8	-34.4	10.4	8.67e-03	0	44	102	1048576	24	4882
2026-01-24 01:53:57.95	273.79	27.46	-31.5	-34.1	11.0	2.76e-03	0	44	102	1048576	23	4825
2026-01-24 01:53:58.95	273.53	27.36	-31.3	-33.4	11.5	1.88e-03	0	44	102	1048576	23	4581
2026-01-24 01:53:59.96	273.26	27.26	-31.3	-33.9	11.5	9.17e-04	0	44	102	1048576	22	4841
2026-01-24 01:54:00.96	273.00	27.17	-30.8	-32.5	12.5	2.47e-04	0	44	102	1048576	22	4345
2026-01-24 01:54:01.97	272.74	27.07	-30.8	-32.4	12.5	1.24e-04	0	44	102	1048576	22	4324
2026-01-24 01:54:02.97	272.49	26.97	-30.8	-32.9	12.4	1.45e-04	0	44	102	1048576	21	4586
2026-01-24 01:54:03.97	272.23	26.87	-30.7	-32.6	12.6	7.70e-05	0	44	102	1048576	21	4499
2026-01-24 01:54:04.98	271.98	26.77	-30.4	-31.7	13.3	6.10e-05	0	44	102	1048576	21	4189
2026-01-24 01:54:05.98	271.73	26.67	-30.3	-31.9	13.5	1.83e-05	0	44	102	1048576	20	4340
2026-01-24 01:54:06.99	271.47	26.57	-30.2	-31.8	13.5	7.60e-06	0	44	102	1048576	20	4312
2026-01-24 01:54:08.00	271.22	26.47	-30.2	-31.8	13.6	1.14e-05	0	44	102	1048576	20	4310
2026-01-24 01:54:09.01	270.97	26.37	-30.0	-31.1	14.0	3.00e-06	0	44	102	1048576	20	4099
2026-01-24 01:54:10.01	270.73	26.27	-29.9	-31.5	14.1	1.50e-06	0	44	102	1048576	19	4309
2026-01-24 01:54:11.02	270.48	26.17	-29.9	-31.0	14.0	7.00e-07	0	44	102	1048576	20	4083
2026-01-24 01:54:12.02	270.24	26.07	-30.2	-31.7	13.6	7.60e-06	0	44	102	1048576	20	4290
2026-01-24 01:54:13.02	270.00	25.97	-30.0	-31.2	13.8	4.50e-06	0	44	102	1048576	20	4145
2026-01-24 01:54:14.03	269.76	25.86	-30.1	-31.4	13.7	6.10e-06	0	44	102	1048576	20	4207
2026-01-24 01:54:15.03	269.52	25.76	-30.3	-31.9	13.5	6.10e-06	0	44	102	1048576	20	4356
2026-01-24 01:54:16.04	269.28	25.66	-30.2	-31.7	13.6	7.60e-06	0	44	102	1048576	20	4284
2026-01-24 01:54:17.05	269.05	25.56	-30.6	-32.5	12.8	3.12e-05	0	44	102	1048576	21	4445
2026-01-24 01:54:18.05	268.81	25.46	-30.4	-31.9	13.1	5.26e-05	0	44	102	1048576	21	4265
2026-01-24 01:54:19.04	268.58	25.36	-30.2	-31.8	13.5	1.67e-05	0	44	102	1048576	20	4313
2026-01-24 01:54:20.05	268.35	25.25	-29.1	-30.3	13.7	2.20e-06	0	44	102	1048576	20	4161
2026-01-24 01:54:21.05	268.12	25.15	-30.0	-31.8	13.4	9.90e-06	0	44	102	1048576	19	4412
2026-01-24 01:54:22.06	267.89	25.05	-29.8	-31.0	13.8	4.50e-06	0	44	102	1048576	20	4145
2026-01-24 01:54:23.07	267.67	24.95	-30.1	-32.1	12.7	6.48e-04	0	44	102	1048576	19	4499
2026-01-24 01:54:24.07	267.44	24.84	-30.1	-31.4	12.9	8.30e-06	0	44	102	1048576	20	4203
2026-01-24 01:54:25.08	267.22	24.74	-30.0	-31.3	13.8	3.00e-06	0	44	102	1048576	20	4167
2026-01-24 01:54:26.09	266.99	24.64	-30.1	-31.4	13.6	2.22e-03	0	44	102	1048576	20	4206
2026-01-24 01:54:27.10	266.77	24.53	-29.8	-31.3	14.2	3.80e-06	0	44	102	1048576	19	4248
2026-01-24 01:54:28.11	266.55	24.43	-29.5	-30.5	14.6	1.50e-06	0	44	102	1048576	19	4035
2026-01-24 01:54:29.11	266.34	24.33	-29.3	-30.3	15.0	0.00e+00	0	44	102	1048576	18	4047
2026-01-24 01:54:30.12	266.12	24.22	-29.1	-30.0	15.2	3.18e-03	0	44	102	1048576	18	3982
2026-01-24 01:54:31.12	265.90	24.12	-28.7	-29.0	15.8	0.00e+00	0	44	102	1048576	18	3706
2026-01-24 01:54:32.12	265.69	24.02	-28.4	-29.3	16.2	0.00e+00	0	44	102	1048576	16	3968
2026-01-24 01:54:33.13	265.48	23.91	-28.3	-29.1	16.4	2.65e-03	0	44	102	1048576	16	3916
2026-01-24 01:54:34.13	265.27	23.81	-28.5	-29.4	16.2	2.28e-05	0	44	102	1048576	16	4001
2026-01-24 01:54:35.13	265.06	23.71	-28.6	-29.3	15.9	0.00e+00	0	44	102	1048576	17	3884
2026-01-24 01:54:36.13	264.85	23.61	-29.1	-30.0	15.3	3.78e-03	0	44	102	1048576	18	3981
2026-01-24 01:54:37.13	264.65	23.50	-29.4	-30.8	14.7	9.99e-05	0	44	102	1048576	18	4202
2026-01-24 01:54:38.14	264.44	23.40	-29.6	-30.7	14.4	7.00e-07	0	44	102	1048576	19	4096
2026-01-24 01:54:39.15	264.24	23.30	-29.5	-30.5	14.6	3.80e-06	0	44	102	1048576	19	4042
2026-01-24 01:54:40.16	264.03	23.19	-29.2	-29.7	15.1	5.79e-05	0	44	102	1048576	19	3811
2026-01-24 01:54:41.16	263.83	23.09	-29.2	-30.1	15.2	4.74e-03	0	44	102	1048576	18	4007
2026-01-24 01:54:42.17	263.63	22.99	-29.3	-30.3	15.0	0.00e+00	0	44	102	1048576	18	4080
2026-01-24 01:54:43.18	263.43	22.88	-29.1	-30.0	15.2	4.03e-04	0	44	102	1048576	18	3987
2026-01-24 01:54:44.18	263.24	22.78	-29.4	-30.7	14.8	4.92e-03	0	44	102	1048576	18	4193
2026-01-24 01:54:45.19	263.04	22.68	-29.4	-30.8	14.7	2.03e-03	0	44	102	1048576	18	4199
2026-01-24 01:54:46.19	262.85	22.57	-29.4	-30.1	14.8	2.46e-04	0	44	102	1048576	19	3929
2026-01-24 01:54:47.20	262.65	22.47	-29.3	-30.4	14.9	4.22e-03	0	44	102	1048576	18	4103
2026-01-24 01:54:48.19	262.46	22.37	-29.3	-30.5	14.9	3.79e-03	0	44	102	1048576	18	4122
2026-01-24 01:54:49.19	262.27	22.27	-29.2	-30.3	15.0	0.00e+00	0	44	102	1048576	18	4052
2026-01-24 01:54:50.20	262.08	22.16	-29.2	-30.2	15.0	3.54e-03	0	44	102	1048576	18	4028
2026-01-24 01:54:51.20	261.90	22.06	-29.4	-30.6	14.8	3.53e-03	0	44	102	1048576	18	4164
2026-01-24 01:54:52.21	261.71	21.96	-29.5	-30.4	14.6	0.00e+00	0	44	102	1048576	19	4008
2026-01-24 01:54:53.22	261.52	21.86	-29.3	-30.5	14.9	3.95e-03	0	44	102	1048576	18	4113
2026-01-24 01:54:54.21	261.34	21.76	-29.2	-30.3	15.0	3.95e-03	0	44	102	1048576	18	4060
2026-01-24 01:54:55.22	261.16	21.65	-29.0	-29.8	15.3	0.00e+00	0	44	102	1048576	18	3938
2026-01-24 01:54:56.22	260.98	21.55	-28.9	-29.9	15.5	1.94e-03	0	44	102	1048576	17	4045
2026-01-24 01:54:57.22	260.80	21.45	-28.9	-30.0	15.4	3.56e-03	0	44	102	1048576	17	4078
2026-01-24 01:54:58.22	260.62	21.35	-28.9	-30.1	15.5	0.00e+00	0	44	102	1048576	17	4098
2026-01-24 01:54:59.23	260.44	21.25	-29.0	-29.8	15.3	3.39e-03	0	44	102	1048576	18	3932
2026-01-24 01:55:00.23	260.26	21.15	-29.1	-29.9	15.2	2.81e-03	0	44	102	1048576	18	3968
2026-01-24 01:55:01.24	260.08	21.04	-29.4	-30.8	14.6	0.00e+00	0	44	102	1048576	18	4224
2026-01-24 01:55:02.24	259.91	20.94	-29.5	-30.6	14.5	2.39e-03	0	44	102	1048576	19	4052
2026-01-24 01:55:03.24	259.74	20.84	-29.7	-30.9	14.3	0.00e+00	0	44	102	1048576	19	4138
2026-01-24 01:55:04.25	259.56	20.74	-29.7	-30.9	14.3	0.00e+00	0	44	102	1048576	19	4163
2026-01-24 01:55:05.25	259.39	20.64	-29.7	-30.9	14.2	3.76e-03	0	44	102	1048576	19	4159
2026-01-24 01:55:06.25	259.22	20.54	-29.4	-30.1	14.8	4.07e-03	0	44	102	1048576	19	3921
2026-01-24 01:55:07.26	259.05	20.44	-29.3	-30.0	14.8	0.00e+00	0	44	102	1048576	19	3884
2026-01-24 01:55:08.27	258.89	20.34	-29.3	-30.5	14.9	4.34e-03	0	44	102	1048576	18	4116
2026-01-24 01:55:09.26	258.72	20.24	-29.0	-29.7	15.3	4.17e-03	0	44	102	1048576	18	3902
2026-01-24 01:55:10.27	258.55	20.14	-29.0	-29.7	15.3	0.00e+00	0	44	102	1048576	18	3899
2026-01-24 01:55:11.27	258.39	20.04	-28.9	-29.9	15.4	4.17e-03	0	44	102	1048576	17	4059
2026-01-24 01:55:12.28	258.23	19.94	-28.8	-29.8	15.5	4.02e-03	0	44	102	1048576	17	4027
2026-01-24 01:55:13.29	258.06	19.84	-28.9	-29.9	15.4	0.00e+00	0	44	102	1048576	17	4067
2026-01-24 01:55:14.29	257.90	19.74	-29.2	-30.1	15.0	3.80e-06	0	44	102	1048576	18	4015
2026-01-24 01:55:15.29	257.74	19.64	-29.4	-30.8	14.6	4.43e-03	0	44	102	1048576	18	4216
2026-01-24 01:55:16.30	257.58	19.54	-29.6	-30.8	14.3	3.05e-04	0	44	102	1048576	19	4121
2026-01-24 01:55:17.31	257.42	19.44	-30.0	-31.7	13.8	7.60e-06	0	44	102	1048576	19	4399
2026-01-24 01:55:18.32	257.26	19.34	-30.0	-31.3	13.6	2.48e-03	0	44	102	1048576	20	4183
2026-01-24 01:55:19.32	257.11	19.24	-30.1	-31.7	13.3	3.73e-04	0	44	102	1048576	20	4328
2026-01-24 01:55:20.32	256.95	19.14	-30.2	-31.9	13.2	1.44e-05	0	44	102	1048576	20	4378
2026-01-24 01:55:21.32	256.80	19.04	-30.2	-31.9	13.2	3.20e-05	0	44	102	1048576	20	4375
2026-01-24 01:55:22.32	256.65	18.95	-29.9	-31.0	13.8	3.64e-04	0	44	102	1048576	20	4095
2026-01-24 01:55:23.32	256.50	18.85	-29.9	-31.7	13.7	3.51e-03	0	44	102	1048576	19	4387
2026-01-24 01:55:24.32	256.35	18.75	-29.7	-31.1	14.1	4.50e-06	0	44	102	1048576	19	4206
2026-01-24 01:55:25.32	256.20	18.65	-29.6	-30.8	14.3	2.20e-06	0	44	102	1048576	19	4121
2026-01-24 01:55:26.33	256.05	18.56	-29.5	-30.5	14.4	2.88e-03	0	44	102	1048576	19	4049
2026-01-24 01:55:27.34	255.90	18.46	-29.6	-30.8	14.2	0.00e+00	0	44	102	1048576	19	4138
2026-01-24 01:55:28.34	255.75	18.36	-29.9	-31.5	13.8	4.50e-06	0	44	102	1048576	19	4328
2026-01-24 01:55:29.34	255.61	18.26	-29.8	-31.2	13.9	2.26e-03	0	44	102	1048576	19	4258
2026-01-24 01:55:30.35	255.46	18.17	-30.0	-31.3	13.5	3.80e-06	0	44	102	1048576	20	4197
2026-01-24 01:55:31.36	255.31	18.07	-30.2	-32.0	13.1	1.83e-05	0	44	102	1048576	20	4408
2026-01-24 01:55:32.37	255.17	17.97	-30.4	-32.4	12.8	6.17e-05	0	44	102	1048576	20	4553
2026-01-24 01:55:33.38	255.03	17.88	-30.1	-31.6	13.3	2.89e-05	0	44	102	1048576	20	4290
2026-01-24 01:55:34.38	254.89	17.78	-30.2	-31.9	13.1	2.36e-05	0	44	102	1048576	20	4395
2026-01-24 01:55:35.38	254.74	17.68	-30.1	-31.6	13.3	2.21e-05	0	44	102	1048576	20	4280
2026-01-24 01:55:36.39	254.60	17.59	-30.0	-31.4	13.4	1.06e-05	0	44	102	1048576	20	4219
2026-01-24 01:55:37.39	254.47	17.49	-30.0	-31.3	13.5	1.22e-05	0	44	102	1048576	20	4196
2026-01-24 01:55:38.40	254.33	17.40	-29.7	-31.1	14.0	4.50e-06	0	44	102	1048576	19	4236
2026-01-24 01:55:39.41	254.19	17.30	-29.7	-31.2	13.9	3.00e-06	0	44	102	1048576	19	4250
2026-01-24 01:55:40.41	254.05	17.21	-29.7	-31.2	13.9	2.20e-06	0	44	102	1048576	19	4248
2026-01-24 01:55:41.41	253.92	17.11	-29.8	-31.2	13.9	2.20e-06	0	44	102	1048576	19	4263
2026-01-24 01:55:42.41	253.78	17.02	-29.6	-30.8	14.2	1.50e-06	0	44	102	1048576	19	4143
2026-01-24 01:55:43.41	253.65	16.92	-29.7	-31.1	14.0	0.00e+00	0	44	102	1048576	19	4219
2026-01-24 01:55:44.42	253.52	16.83	-29.8	-31.4	13.8	6.10e-06	0	44	102	1048576	19	4314
2026-01-24 01:55:45.42	253.39	16.74	-29.7	-31.1	14.0	1.50e-06	0	44	102	1048576	19	4220
2026-01-24 01:55:46.43	253.25	16.64	-29.0	-30.5	13.6	3.80e-06	0	44	102	1048576	19	4270
2026-01-24 01:55:47.43	253.12	16.55	-29.9	-31.5	13.7	3.80e-06	0	44	102	1048576	19	4357
2026-01-24 01:55:48.44	252.99	16.46	-29.8	-31.4	13.8	2.20e-06	0	44	102	1048576	19	4312
2026-01-24 01:55:49.45	252.86	16.36	-29.7	-31.1	13.9	4.50e-06	0	44	102	1048576	19	4219
2026-01-24 01:55:50.45	252.74	16.27	-29.1	-31.0	13.3	1.98e-03	0	44	102	1048576	19	4469
2026-01-24 01:55:51.45	252.61	16.18	-29.8	-30.9	13.3	2.20e-06	0	44	102	1048576	20	4094
2026-01-24 01:55:52.46	252.48	16.08	-29.7	-31.2	12.3	1.50e-06	0	44	102	1048576	19	4273
2026-01-24 01:55:53.47	252.36	15.99	-29.7	-31.0	12.3	3.00e-06	0	44	102	1048576	19	4187
2026-01-24 01:55:54.47	252.23	15.90	-29.5	-30.7	14.0	2.20e-06	0	44	102	1048576	19	4101
2026-01-24 01:55:55.47	252.11	15.81	-29.6	-30.8	13.7	7.00e-07	0	44	102	1048576	19	4147
2026-01-24 01:55:56.47	251.99	15.72	-29.6	-31.0	13.8	3.00e-06	0	44	102	1048576	19	4186
2026-01-24 01:55:57.48	251.86	15.62	-29.8	-31.5	13.6	2.51e-05	0	44	102	1048576	19	4354
2026-01-24 01:55:58.48	251.74	15.53	-29.8	-31.5	13.6	8.30e-06	0	44	102	1048576	19	4345
2026-01-24 01:55:59.49	251.62	15.44	-29.9	-31.8	13.4	1.22e-05	0	44	102	1048576	19	4442
2026-01-24 01:56:00.49	251.50	15.35	-30.1	-31.7	13.1	2.28e-03	0	44	102	1048576	20	4340
2026-01-24 01:56:01.51	251.38	15.26	-30.2	-32.2	12.7	2.19e-04	0	44	102	1048576	20	4500
2026-01-24 01:56:02.51	251.26	15.17	-30.5	-32.9	12.2	1.43e-04	0	44	102	1048576	20	4763
2026-01-24 01:56:03.51	251.14	15.08	-30.7	-33.1	11.7	3.63e-04	0	44	102	1048576	21	4718
2026-01-24 01:56:04.52	251.03	14.99	-31.1	-33.7	11.0	7.19e-03	0	44	102	1048576	22	4858
2026-01-24 01:56:05.52	250.91	14.90	-31.1	-33.7	10.9	3.46e-03	0	44	102	1048576	22	4857
2026-01-24 01:56:06.53	250.79	14.81	-30.8	-33.3	11.6	1.61e-03	0	44	102	1048576	21	4795
2026-01-24 01:56:07.53	250.68	14.72	-30.5	-32.4	12.1	6.13e-03	0	44	102	1048576	21	4499
2026-01-24 01:56:08.54	250.56	14.63	-30.2	-32.0	12.7	1.14e-03	0	44	102	1048576	20	4451
2026-01-24 01:56:09.55	250.45	14.54	-30.0	-31.4	13.2	5.03e-05	0	44	102	1048576	20	4243
2026-01-24 01:56:10.55	250.34	14.45	-29.8	-31.6	13.4	5.64e-03	0	44	102	1048576	19	4386
2026-01-24 01:56:11.55	250.23	14.37	-29.6	-30.9	13.8	5.32e-03	0	44	102	1048576	19	4193
2026-01-24 01:56:12.55	250.11	14.28	-29.4	-30.8	14.2	3.00e-06	0	44	102	1048576	18	4256
2026-01-24 01:56:13.56	250.00	14.19	-29.4	-30.8	14.3	5.30e-06	0	44	102	1048576	18	4249
2026-01-24 01:56:14.56	249.89	14.10	-29.2	-30.4	14.5	4.85e-03	0	44	102	1048576	18	4122
2026-01-24 01:56:15.56	249.78	14.01	-29.3	-30.6	14.4	1.41e-03	0	44	102	1048576	18	4189
2026-01-24 01:56:16.56	249.67	13.93	-29.5	-30.6	14.1	1.34e-03	0	44	102	1048576	19	4105
2026-01-24 01:56:17.57	249.57	13.84	-29.6	-31.1	13.7	5.11e-03	0	44	102	1048576	19	4234
2026-01-24 01:56:18.57	249.46	13.75	-29.9	-31.8	13.3	6.06e-04	0	44	102	1048576	19	4465
2026-01-24 01:56:19.57	249.35	13.67	-30.0	-31.7	12.9	1.46e-03	0	44	102	1048576	20	4352
2026-01-24 01:56:20.57	249.25	13.58	-30.3	-32.5	12.4	7.24e-05	0	44	102	1048576	20	4627
2026-01-24 01:56:21.58	249.14	13.49	-30.4	-32.3	12.1	8.56e-04	0	44	102	1048576	21	4470
2026-01-24 01:56:22.58	249.03	13.41	-30.7	-33.1	11.6	6.26e-03	0	44	102	1048576	21	4744
2026-01-24 01:56:23.59	248.93	13.32	-30.8	-33.5	11.2	2.07e-03	0	44	102	1048576	21	4910
2026-01-24 01:56:24.60	248.83	13.23	-30.8	-33.5	11.3	1.79e-03	0	44	102	1048576	21	4892
2026-01-24 01:56:25.61	248.72	13.15	-30.9	-33.6	11.2	7.35e-03	0	44	102	1048576	21	4960
2026-01-24 01:56:26.61	248.62	13.06	-30.9	-33.7	11.1	8.44e-03	0	44	102	1048576	21	4988
2026-01-24 01:56:27.62	248.52	12.98	-30.9	-33.8	11.0	3.07e-03	0	44	102	1048576	21	5028
2026-01-24 01:56:28.62	248.42	12.89	-30.9	-33.7	11.1	8.29e-03	0	44	102	1048576	21	5003
2026-01-24 01:56:29.63	248.31	12.81	-30.9	-33.7	11.1	8.10e-03	0	44	102	1048576	21	5001
2026-01-24 01:56:30.63	248.21	12.72	-31.0	-33.9	10.9	3.41e-03	0	44	102	1048576	21	5072
2026-01-24 01:56:31.63	248.11	12.64	-30.8	-33.6	11.1	8.62e-03	0	44	102	1048576	21	4964
2026-01-24 01:56:32.64	248.02	12.56	-30.8	-33.5	11.2	7.68e-03	0	44	102	1048576	21	4918
2026-01-24 01:56:33.63	247.92	12.47	-30.8	-33.4	11.3	3.47e-03	0	44	102	1048576	21	4884
2026-01-24 01:56:34.64	247.82	12.39	-30.6	-33.0	11.5	5.58e-03	0	44	102	1048576	21	4735
2026-01-24 01:56:35.64	247.72	12.31	-30.7	-33.3	11.3	6.25e-03	0	44	102	1048576	21	4833
2026-01-24 01:56:36.65	247.63	12.22	-30.8	-33.4	11.2	2.17e-03	0	44	102	1048576	21	4881
2026-01-24 01:56:37.64	247.53	12.14	-30.9	-33.8	11.0	1.73e-03	0	44	102	1048576	21	5028
2026-01-24 01:56:38.65	247.43	12.06	-31.1	-33.9	10.6	6.15e-03	0	44	102	1048576	22	4976
2026-01-24 01:56:39.65	247.34	11.97	-31.0	-33.6	10.8	4.04e-03	0	44	102	1048576	22	4848
2026-01-24 01:56:40.66	247.24	11.89	-30.9	-33.7	11.0	7.23e-03	0	44	102	1048576	21	4977
2026-01-24 01:56:41.66	247.15	11.81	-30.9	-33.9	10.8	4.87e-03	0	44	102	1048576	21	5062
2026-01-24 01:56:42.66	247.06	11.73	-30.9	-34.0	10.8	2.74e-03	0	44	102	1048576	21	5095
2026-01-24 01:56:43.66	246.96	11.65	-30.8	-33.5	11.2	6.38e-03	0	44	102	1048576	21	4922
2026-01-24 01:56:44.67	246.87	11.56	-30.9	-33.8	10.9	1.87e-03	0	44	102	1048576	21	5038
2026-01-24 01:56:45.67	246.78	11.48	-30.8	-33.4	11.2	3.24e-03	0	44	102	1048576	21	4889
2026-01-24 01:56:46.67	246.69	11.40	-30.7	-33.4	11.2	6.91e-03	0	44	102	1048576	21	4873
2026-01-24 01:56:47.67	246.60	11.32	-30.6	-32.8	11.6	8.73e-04	0	44	102	1048576	21	4671
2026-01-24 01:56:48.67	246.51	11.24	-30.6	-32.8	11.6	6.96e-04	0	44	102	1048576	21	4656
2026-01-24 01:56:49.67	246.42	11.16	-30.5	-32.7	11.6	4.24e-03	0	44	102	1048576	21	4639
2026-01-24 01:56:50.68	246.33	11.08	-30.6	-32.9	11.6	6.23e-03	0	44	102	1048576	21	4683
2026-01-24 01:56:51.68	246.24	11.00	-30.4	-32.5	11.8	6.48e-04	0	44	102	1048576	21	4544
2026-01-24 01:56:52.69	246.15	10.92	-30.3	-32.4	12.2	3.56e-03	0	44	102	1048576	20	4616
2026-01-24 01:56:53.69	246.06	10.84	-30.2	-32.2	12.3	5.93e-03	0	44	102	1048576	20	4534
2026-01-24 01:56:54.69	245.98	10.76	-30.1	-31.9	12.6	1.20e-04	0	44	102	1048576	20	4448
2026-01-24 01:56:55.70	245.89	10.68	-30.0	-31.6	12.8	5.87e-05	0	44	102	1048576	20	4335
2026-01-24 01:56:56.70	245.80	10.60	-30.0	-31.8	12.6	2.98e-03	0	44	102	1048576	20	4395
2026-01-24 01:56:57.70	245.72	10.52	-29.9	-31.5	12.8	6.86e-05	0	44	102	1048576	20	4300
2026-01-24 01:56:58.71	245.63	10.44	-29.9	-31.8	13.0	4.11e-05	0	44	102	1048576	19	4507
2026-01-24 01:56:59.71	245.55	10.36	-29.9	-31.9	12.9	3.28e-05	0	44	102	1048576	19	4538
2026-01-24 01:57:00.72	245.46	10.28	-30.0	-32.1	12.8	1.93e-04	0	44	102	1048576	19	4584
2026-01-24 01:57:01.72	245.38	10.21	-29.9	-32.0	12.9	4.50e-05	0	44	102	1048576	19	4551
2026-01-24 01:57:02.73	245.29	10.13	-30.0	-31.7	12.6	6.56e-05	0	44	102	1048576	20	4387
2026-01-24 01:57:03.74	245.21	10.05	-30.2	-32.3	12.3	1.47e-04	0	44	102	1048576	20	4572
2026-01-24 01:57:04.74	245.13	9.97	-30.3	-32.5	12.1	2.48e-04	0	44	102	1048576	20	4672
2026-01-24 01:57:05.74	245.05	9.89	-30.4	-33.0	11.7	4.29e-04	0	44	102	1048576	20	4849
2026-01-24 01:57:06.74	244.96	9.82	-30.5	-32.7	11.6	7.75e-04	0	44	102	1048576	21	4628
2026-01-24 01:57:07.75	244.88	9.74	-30.6	-33.2	11.2	1.15e-03	0	44	102	1048576	21	4825
2026-01-24 01:57:08.75	244.80	9.66	-30.7	-33.4	11.0	1.64e-03	0	44	102	1048576	21	4903
2026-01-24 01:57:09.76	244.72	9.59	-30.8	-33.8	10.7	2.40e-03	0	44	102	1048576	21	5078
2026-01-24 01:57:10.76	244.64	9.51	-30.9	-34.0	10.6	2.82e-03	0	44	102	1048576	21	5138
2026-01-24 01:57:11.77	244.56	9.43	-31.0	-34.3	10.4	4.05e-03	0	44	102	1048576	21	5279
2026-01-24 01:57:12.77	244.48	9.36	-31.0	-33.8	10.4	5.25e-03	0	44	102	1048576	22	4970
2026-01-24 01:57:13.78	244.40	9.28	-31.1	-34.1	10.1	5.49e-03	0	44	102	1048576	22	5120
2026-01-24 01:57:14.78	244.33	9.20	-31.1	-34.4	9.9	7.53e-03	0	44	102	1048576	22	5244
2026-01-24 01:57:15.79	244.25	9.13	-31.1	-34.2	10.0	7.75e-03	0	44	102	1048576	22	5159
2026-01-24 01:57:16.78	244.17	9.05	-31.0	-34.0	10.1	7.60e-03	0	44	102	1048576	22	5091
2026-01-24 01:57:17.79	244.09	8.98	-31.0	-34.0	10.1	7.09e-03	0	44	102	1048576	22	5096
2026-01-24 01:57:18.79	244.02	8.90	-31.1	-34.2	10.0	8.00e-03	0	44	102	1048576	22	5146
2026-01-24 01:57:19.79	243.94	8.83	-31.0	-34.1	10.1	8.62e-03	0	44	102	1048576	22	5135
2026-01-24 01:57:20.79	243.87	8.75	-31.0	-33.9	10.2	8.40e-03	0	44	102	1048576	22	5046
2026-01-24 01:57:21.79	243.79	8.68	-31.0	-34.2	10.0	7.96e-03	0	44	102	1048576	22	5169
2026-01-24 01:57:22.79	243.72	8.60	-31.1	-34.3	9.9	6.09e-03	0	44	102	1048576	22	5213
2026-01-24 01:57:23.79	243.64	8.53	-31.0	-34.0	10.1	6.71e-03	0	44	102	1048576	22	5072
2026-01-24 01:57:24.79	243.57	8.45	-31.0	-34.5	10.0	8.05e-03	0	44	102	1048576	21	5402
2026-01-24 01:57:25.79	243.49	8.38	-30.9	-34.3	10.1	6.75e-03	0	44	102	1048576	21	5346
2026-01-24 01:57:26.80	243.42	8.31	-30.9	-34.2	10.2	5.72e-03	0	44	102	1048576	21	5285
2026-01-24 01:57:27.81	243.35	8.23	-30.8	-34.1	9.9	4.99e-03	0	44	102	1048576	21	5218
2026-01-24 01:57:28.81	243.27	8.16	-30.9	-34.2	9.5	6.81e-03	0	44	102	1048576	21	5271
2026-01-24 01:57:29.81	243.20	8.09	-30.8	-33.9	10.4	5.26e-03	0	44	102	1048576	21	5166
2026-01-24 01:57:30.81	243.13	8.01	-30.7	-33.6	10.4	3.80e-03	0	44	102	1048576	21	5012
2026-01-24 01:57:31.81	243.06	7.94	-30.8	-33.8	10.3	8.21e-03	0	44	102	1048576	21	5086
2026-01-24 01:57:32.81	242.99	7.87	-30.7	-33.5	10.7	3.18e-03	0	44	102	1048576	21	4999
2026-01-24 01:57:33.82	242.92	7.79	-30.6	-33.3	10.8	2.86e-03	0	44	102	1048576	21	4926
2026-01-24 01:57:34.82	242.85	7.72	-30.6	-33.4	10.8	2.06e-03	0	44	102	1048576	21	4950
2026-01-24 01:57:35.82	242.78	7.65	-30.6	-33.3	10.8	2.75e-03	0	44	102	1048576	21	4918
2026-01-24 01:57:36.83	242.71	7.58	-30.6	-33.2	10.9	2.42e-03	0	44	102	1048576	21	4890
2026-01-24 01:57:37.83	242.64	7.51	-30.6	-33.3	10.8	2.46e-03	0	44	102	1048576	21	4918
2026-01-24 01:57:38.84	242.57	7.43	-30.6	-33.3	10.8	2.78e-03	0	44	102	1048576	21	4914
2026-01-24 01:57:39.84	242.50	7.36	-30.7	-33.6	10.5	3.65e-03	0	44	102	1048576	21	5068
2026-01-24 01:57:40.84	242.43	7.29	-30.6	-33.4	10.6	3.09e-03	0	44	102	1048576	21	4981
2026-01-24 01:57:41.85	242.36	7.22	-30.7	-33.7	10.5	4.39e-03	0	44	102	1048576	21	5085
2026-01-24 01:57:42.84	242.30	7.15	-30.8	-34.2	10.1	8.96e-03	0	44	102	1048576	21	5300
2026-01-24 01:57:43.85	242.23	7.08	-33.1	-44.9	3.8	8.23e-01	0	44	104	1048576	26	14081
2026-01-24 01:57:44.85	242.16	7.01	-33.5	-46.2	3.8	1.49e+00	0	44	104	1048576	26	15598
2026-01-24 01:57:45.86	242.09	6.94	-33.8	-46.3	3.8	1.49e+00	0	44	104	1048576	27	15175
2026-01-24 01:57:46.87	242.03	6.86	-33.9	-46.1	3.8	1.49e+00	0	44	104	1048576	28	14595

#Closed at: 2026-01-24 01:57:47
#Recorded file [1 MB]: D:/data/31010_260124_044738.dat