passes_logs/2026/01/24/R2M6_AANII_01/R2M6_AANII_01__20260124_095910_SUOMI_NPP_rec.log

#Pass ID: 20260124_095910_SUOMI NPP
#Satellite: SUOMI NPP
#Configuration: NPP
#almurnet v.1.7.20240730
#Start time: 2026-01-24 09:59:11

#Version: 2.2.20231116
#Station: R2M6_AANII_01
#Location: 30.233357 lon 59.946436 lat
#TLE: 1 37849U 11061A   26023.63275593  .00000212  00000+0  12133-3 0  9990
#TLE: 2 37849  98.7820 325.6074 0002234  48.9695 311.1673 14.19528901737937

#Time	Az	El	Level	Level2	SNR	BER	BlckErr	Temp	State	Recorded	gain1	gain2
2026-01-24 09:59:11.61	147.42	7.07	-29.9	-36.1	5.0	1.30e+00	0	41	0	0	20	7332
2026-01-24 09:59:12.62	147.40	7.15	-30.1	-36.0	4.9	1.34e+00	0	41	104	0	21	7107
2026-01-24 09:59:13.62	147.39	7.22	-30.2	-36.2	7.5	9.59e-02	0	41	0	0	21	7159
2026-01-24 09:59:14.63	147.37	7.30	-30.2	-35.9	7.8	9.19e-02	0	41	102	1048576	21	6897
2026-01-24 09:59:15.64	147.35	7.38	-30.2	-35.6	8.2	5.88e-02	0	41	102	1048576	21	6651
2026-01-24 09:59:16.64	147.33	7.46	-30.2	-34.7	9.0	3.56e-02	0	41	102	1048576	21	6059
2026-01-24 09:59:17.64	147.31	7.54	-30.2	-34.3	9.5	1.85e-02	0	41	102	1048576	21	5753
2026-01-24 09:59:18.64	147.29	7.62	-30.3	-34.1	9.7	1.22e-02	0	41	102	1048576	21	5628
2026-01-24 09:59:19.65	147.27	7.70	-30.2	-34.1	9.8	1.20e-02	0	41	102	1048576	21	5603
2026-01-24 09:59:20.65	147.26	7.78	-30.2	-33.8	10.0	1.15e-02	0	41	102	1048576	21	5454
2026-01-24 09:59:21.65	147.24	7.86	-30.2	-33.5	10.3	6.38e-03	0	41	102	1048576	21	5296
2026-01-24 09:59:22.66	147.22	7.94	-30.1	-33.0	10.8	2.98e-03	0	41	102	1048576	21	5024
2026-01-24 09:59:23.67	147.20	8.02	-30.0	-32.3	11.4	1.64e-03	0	42	102	1048576	21	4722
2026-01-24 09:59:24.67	147.18	8.10	-29.9	-32.1	11.6	7.13e-04	0	41	102	1048576	21	4621
2026-01-24 09:59:25.68	147.16	8.18	-29.8	-31.6	12.0	4.58e-04	0	42	102	1048576	21	4422
2026-01-24 09:59:26.68	147.14	8.26	-29.8	-31.8	12.3	2.55e-04	0	41	102	1048576	20	4521
2026-01-24 09:59:27.69	147.12	8.34	-29.9	-32.0	12.2	2.23e-04	0	42	102	1048576	20	4611
2026-01-24 09:59:28.70	147.10	8.42	-29.9	-31.9	12.4	2.01e-04	0	42	102	1048576	20	4527
2026-01-24 09:59:29.70	147.08	8.51	-30.2	-32.6	11.9	2.11e-04	0	42	102	1048576	20	4774
2026-01-24 09:59:30.70	147.06	8.59	-30.2	-32.6	11.9	3.97e-04	0	42	102	1048576	20	4768
2026-01-24 09:59:31.70	147.04	8.67	-30.0	-31.9	12.4	1.39e-04	0	42	102	1048576	20	4506
2026-01-24 09:59:32.71	147.02	8.75	-30.0	-32.2	12.2	1.61e-04	0	42	102	1048576	20	4626
2026-01-24 09:59:33.71	147.00	8.84	-30.1	-32.2	12.2	3.13e-04	0	42	102	1048576	20	4617
2026-01-24 09:59:34.71	146.98	8.92	-30.1	-32.3	12.3	1.70e-04	0	42	102	1048576	20	4619
2026-01-24 09:59:35.72	146.96	9.00	-30.1	-32.3	12.3	1.19e-04	0	42	102	1048576	20	4626
2026-01-24 09:59:36.72	146.94	9.09	-30.1	-32.2	12.3	1.77e-04	0	42	102	1048576	20	4589
2026-01-24 09:59:37.73	146.92	9.17	-30.2	-32.4	12.2	2.18e-04	0	42	102	1048576	20	4649
2026-01-24 09:59:38.74	146.89	9.26	-30.2	-32.4	12.2	1.89e-04	0	42	102	1048576	20	4641
2026-01-24 09:59:39.74	146.87	9.34	-30.2	-32.3	12.4	1.83e-04	0	42	102	1048576	20	4583
2026-01-24 09:59:40.75	146.85	9.42	-30.2	-32.2	12.3	1.71e-04	0	42	102	1048576	20	4576
2026-01-24 09:59:41.76	146.83	9.51	-30.2	-32.3	12.3	1.90e-04	0	42	102	1048576	20	4615
2026-01-24 09:59:42.77	146.81	9.60	-30.2	-32.3	12.3	1.19e-04	0	42	102	1048576	20	4621
2026-01-24 09:59:43.76	146.79	9.68	-30.1	-32.1	12.5	2.06e-04	0	42	102	1048576	20	4531
2026-01-24 09:59:44.77	146.77	9.77	-29.9	-31.8	12.7	8.85e-05	0	42	102	1048576	20	4446
2026-01-24 09:59:45.78	146.74	9.85	-29.9	-31.8	12.6	1.27e-04	0	42	102	1048576	20	4469
2026-01-24 09:59:46.78	146.72	9.94	-29.9	-31.7	12.6	6.33e-05	0	42	102	1048576	20	4455
2026-01-24 09:59:47.78	146.70	10.03	-29.9	-31.6	12.8	7.17e-05	0	42	102	1048576	20	4384
2026-01-24 09:59:48.79	146.68	10.12	-29.7	-31.2	13.1	3.66e-05	0	42	102	1048576	20	4267
2026-01-24 09:59:49.79	146.65	10.20	-29.9	-31.5	12.9	4.50e-05	0	42	102	1048576	20	4356
2026-01-24 09:59:50.79	146.63	10.29	-29.7	-31.1	13.2	3.20e-05	0	42	102	1048576	20	4214
2026-01-24 09:59:51.79	146.61	10.38	-29.6	-31.0	13.3	1.60e-05	0	42	102	1048576	20	4194
2026-01-24 09:59:52.79	146.58	10.47	-29.6	-30.7	13.4	1.52e-05	0	42	102	1048576	20	4120
2026-01-24 09:59:53.80	146.56	10.56	-29.7	-31.0	13.3	2.05e-05	0	42	102	1048576	20	4189
2026-01-24 09:59:54.81	146.54	10.65	-29.7	-30.9	13.3	2.44e-05	0	42	102	1048576	20	4169
2026-01-24 09:59:55.81	146.51	10.73	-29.5	-30.5	13.6	9.10e-06	0	42	102	1048576	20	4034
2026-01-24 09:59:56.82	146.49	10.83	-29.6	-30.7	13.5	6.80e-06	0	42	102	1048576	20	4115
2026-01-24 09:59:57.82	146.47	10.91	-29.6	-30.9	13.4	2.28e-05	0	42	102	1048576	20	4152
2026-01-24 09:59:58.83	146.44	11.01	-29.7	-31.0	13.3	1.52e-05	0	42	102	1048576	20	4187
2026-01-24 09:59:59.83	146.42	11.10	-29.7	-31.2	13.2	1.60e-05	0	42	102	1048576	20	4247
2026-01-24 10:00:00.84	146.39	11.19	-29.8	-31.2	13.1	2.89e-05	0	43	102	1048576	20	4266
2026-01-24 10:00:01.85	146.37	11.28	-29.9	-31.7	12.8	2.51e-05	0	42	102	1048576	20	4410
2026-01-24 10:00:02.85	146.34	11.37	-29.9	-31.5	12.9	3.73e-05	0	42	102	1048576	20	4347
2026-01-24 10:00:03.86	146.32	11.46	-29.7	-31.1	13.2	2.89e-05	0	42	102	1048576	20	4238
2026-01-24 10:00:04.87	146.29	11.56	-29.7	-31.1	13.2	1.44e-05	0	42	102	1048576	20	4225
2026-01-24 10:00:05.87	146.27	11.65	-29.6	-30.9	13.4	1.37e-05	0	42	102	1048576	20	4161
2026-01-24 10:00:06.88	146.24	11.74	-29.7	-31.0	13.3	1.52e-05	0	42	102	1048576	20	4187
2026-01-24 10:00:07.88	146.22	11.84	-29.6	-30.8	13.4	7.60e-06	0	42	102	1048576	20	4147
2026-01-24 10:00:08.88	146.19	11.93	-29.6	-30.7	13.5	7.60e-06	0	42	102	1048576	20	4113
2026-01-24 10:00:09.89	146.16	12.02	-29.6	-30.8	13.5	1.14e-05	0	43	102	1048576	20	4127
2026-01-24 10:00:10.89	146.14	12.12	-29.8	-31.3	13.1	9.90e-06	0	43	102	1048576	20	4297
2026-01-24 10:00:11.90	146.11	12.21	-29.6	-30.8	13.5	1.14e-05	0	43	102	1048576	20	4140
2026-01-24 10:00:12.91	146.08	12.31	-29.4	-30.5	14.1	3.80e-06	0	43	102	1048576	19	4115
2026-01-24 10:00:13.91	146.06	12.41	-29.3	-30.2	14.3	0.00e+00	0	43	102	1048576	19	4016
2026-01-24 10:00:14.92	146.03	12.50	-29.3	-30.2	14.4	0.00e+00	0	42	102	1048576	19	4017
2026-01-24 10:00:15.92	146.00	12.60	-29.4	-30.5	14.2	7.00e-07	0	43	102	1048576	19	4083
2026-01-24 10:00:16.93	145.97	12.70	-29.4	-30.4	14.3	1.50e-06	0	43	102	1048576	19	4056
2026-01-24 10:00:17.93	145.95	12.79	-29.5	-30.8	14.0	7.00e-07	0	43	102	1048576	19	4165
2026-01-24 10:00:18.94	145.92	12.89	-29.5	-30.7	14.1	5.30e-06	0	43	102	1048576	19	4145
2026-01-24 10:00:19.94	145.89	12.99	-29.7	-31.1	13.9	2.20e-06	0	43	102	1048576	19	4254
2026-01-24 10:00:20.95	145.86	13.09	-29.7	-31.2	13.8	6.80e-06	0	43	102	1048576	19	4281
2026-01-24 10:00:21.95	145.83	13.19	-29.8	-31.5	13.7	4.50e-06	0	43	102	1048576	19	4364
2026-01-24 10:00:22.96	145.81	13.29	-29.7	-31.2	13.8	4.50e-06	0	43	102	1048576	19	4287
2026-01-24 10:00:23.97	145.78	13.39	-29.8	-31.5	13.6	5.30e-06	0	43	102	1048576	19	4384
2026-01-24 10:00:24.97	145.75	13.49	-29.6	-31.2	13.8	5.30e-06	0	43	102	1048576	19	4286
2026-01-24 10:00:25.97	145.72	13.59	-29.5	-30.8	14.1	2.20e-06	0	43	102	1048576	19	4178
2026-01-24 10:00:26.98	145.69	13.69	-29.5	-30.8	14.1	2.20e-06	0	43	102	1048576	19	4206
2026-01-24 10:00:27.99	145.66	13.79	-29.5	-30.7	14.1	3.00e-06	0	43	102	1048576	19	4164
2026-01-24 10:00:29.00	145.63	13.89	-29.3	-30.3	14.4	7.00e-07	0	43	102	1048576	19	4046
2026-01-24 10:00:30.00	145.60	13.99	-29.4	-30.6	14.2	7.00e-07	0	43	102	1048576	19	4140
2026-01-24 10:00:31.01	145.57	14.10	-29.5	-30.9	14.0	0.00e+00	0	43	102	1048576	19	4218
2026-01-24 10:00:32.01	145.54	14.20	-29.5	-30.9	14.1	2.20e-06	0	43	102	1048576	19	4200
2026-01-24 10:00:33.02	145.51	14.30	-29.6	-31.2	13.9	2.20e-06	0	43	102	1048576	19	4293
2026-01-24 10:00:34.03	145.47	14.41	-29.8	-31.5	13.6	4.50e-06	0	43	102	1048576	19	4397
2026-01-24 10:00:35.03	145.44	14.51	-30.0	-32.0	13.3	1.14e-05	0	43	102	1048576	19	4572
2026-01-24 10:00:36.03	145.41	14.61	-29.9	-31.5	13.3	1.98e-05	0	43	102	1048576	20	4286
2026-01-24 10:00:37.03	145.38	14.72	-30.1	-31.8	13.1	1.83e-05	0	43	102	1048576	20	4397
2026-01-24 10:00:38.04	145.35	14.82	-30.1	-32.0	13.0	3.20e-05	0	43	102	1048576	20	4442
2026-01-24 10:00:39.04	145.32	14.93	-30.2	-32.0	13.0	3.05e-05	0	43	102	1048576	20	4442
2026-01-24 10:00:40.04	145.28	15.04	-30.2	-32.2	13.0	3.43e-05	0	43	102	1048576	20	4489
2026-01-24 10:00:41.05	145.25	15.14	-30.1	-31.7	13.2	3.58e-05	0	43	102	1048576	20	4348
2026-01-24 10:00:42.05	145.22	15.25	-30.1	-31.6	13.3	2.74e-05	0	43	102	1048576	20	4311
2026-01-24 10:00:43.05	145.18	15.36	-30.2	-32.0	13.1	2.13e-05	0	43	102	1048576	20	4416
2026-01-24 10:00:44.06	145.15	15.47	-30.0	-31.5	13.4	1.67e-05	0	43	102	1048576	20	4254
2026-01-24 10:00:45.06	145.12	15.57	-29.6	-30.4	14.1	1.06e-05	0	43	102	1048576	20	3930
2026-01-24 10:00:46.06	145.08	15.68	-29.5	-30.1	14.3	3.00e-06	0	43	102	1048576	20	3845
2026-01-24 10:00:47.06	145.05	15.79	-29.5	-30.0	14.4	1.50e-06	0	43	102	1048576	20	3809
2026-01-24 10:00:48.07	145.01	15.90	-29.4	-29.7	14.6	1.50e-06	0	43	102	1048576	20	3742
2026-01-24 10:00:49.07	144.98	16.01	-29.5	-30.1	14.3	7.00e-07	0	43	102	1048576	20	3856
2026-01-24 10:00:50.07	144.94	16.12	-29.5	-30.0	14.4	7.00e-07	0	43	102	1048576	20	3814
2026-01-24 10:00:51.08	144.91	16.24	-29.8	-30.7	13.9	5.30e-06	0	43	102	1048576	20	4032
2026-01-24 10:00:52.08	144.87	16.35	-29.6	-30.2	14.3	3.80e-06	0	43	102	1048576	20	3888
2026-01-24 10:00:53.09	144.84	16.46	-29.5	-30.1	14.4	1.50e-06	0	43	102	1048576	20	3844
2026-01-24 10:00:54.09	144.80	16.57	-29.5	-30.1	14.4	4.50e-06	0	43	102	1048576	20	3852
2026-01-24 10:00:55.09	144.76	16.69	-29.6	-30.3	14.2	0.00e+00	0	43	102	1048576	20	3910
2026-01-24 10:00:56.09	144.73	16.80	-29.6	-30.4	14.2	1.50e-06	0	43	102	1048576	20	3926
2026-01-24 10:00:57.09	144.69	16.92	-29.7	-30.6	14.0	6.80e-06	0	43	102	1048576	20	3997
2026-01-24 10:00:58.10	144.65	17.03	-29.5	-30.1	14.4	1.50e-06	0	43	102	1048576	20	3839
2026-01-24 10:00:59.11	144.61	17.15	-29.5	-29.9	14.5	0.00e+00	0	43	102	1048576	20	3786
2026-01-24 10:01:00.11	144.57	17.26	-29.4	-29.8	14.6	6.10e-06	0	43	102	1048576	20	3773
2026-01-24 10:01:01.11	144.54	17.38	-29.4	-29.7	14.7	0.00e+00	0	43	102	1048576	20	3727
2026-01-24 10:01:02.12	144.50	17.50	-29.5	-29.9	14.5	0.00e+00	0	43	102	1048576	20	3802
2026-01-24 10:01:03.12	144.46	17.62	-29.7	-30.6	14.1	1.50e-06	0	43	102	1048576	20	3991
2026-01-24 10:01:04.13	144.42	17.73	-29.5	-30.1	14.5	7.00e-07	0	43	102	1048576	20	3846
2026-01-24 10:01:05.13	144.38	17.85	-29.6	-30.2	14.4	7.00e-07	0	43	102	1048576	20	3881
2026-01-24 10:01:06.14	144.34	17.97	-29.7	-30.6	14.1	2.20e-06	0	43	102	1048576	20	3988
2026-01-24 10:01:07.14	144.30	18.09	-29.8	-30.8	14.1	0.00e+00	0	43	102	1048576	20	4042
2026-01-24 10:01:08.14	144.26	18.21	-29.9	-31.2	13.9	4.50e-06	0	43	102	1048576	20	4147
2026-01-24 10:01:09.14	144.21	18.33	-29.8	-30.8	14.1	1.50e-06	0	43	102	1048576	20	4040
2026-01-24 10:01:10.14	144.17	18.46	-30.0	-31.2	13.8	6.10e-06	0	43	102	1048576	20	4163
2026-01-24 10:01:11.14	144.13	18.58	-30.0	-31.2	13.9	5.30e-06	0	43	102	1048576	20	4156
2026-01-24 10:01:12.15	144.09	18.70	-29.9	-30.9	14.0	0.00e+00	0	43	102	1048576	20	4077
2026-01-24 10:01:13.15	144.05	18.82	-30.0	-31.2	13.9	3.00e-06	0	43	102	1048576	20	4148
2026-01-24 10:01:14.15	144.00	18.95	-29.8	-30.8	14.1	7.00e-07	0	43	102	1048576	20	4038
2026-01-24 10:01:15.15	143.96	19.07	-29.9	-31.0	14.0	0.00e+00	0	43	102	1048576	20	4093
2026-01-24 10:01:16.16	143.92	19.20	-29.9	-31.0	14.1	2.20e-06	0	43	102	1048576	20	4081
2026-01-24 10:01:17.15	143.87	19.32	-29.8	-30.7	14.2	2.20e-06	0	43	102	1048576	20	4004
2026-01-24 10:01:18.16	143.83	19.45	-29.9	-30.9	14.2	0.00e+00	0	43	102	1048576	20	4058
2026-01-24 10:01:19.17	143.78	19.58	-29.9	-30.9	14.2	3.80e-06	0	43	102	1048576	20	4057
2026-01-24 10:01:20.18	143.74	19.71	-29.9	-30.9	14.2	1.50e-06	0	43	102	1048576	20	4048
2026-01-24 10:01:21.18	143.69	19.84	-30.1	-31.5	13.8	2.20e-06	0	43	102	1048576	20	4232
2026-01-24 10:01:22.19	143.64	19.97	-30.0	-31.3	14.1	1.50e-06	0	43	102	1048576	20	4150
2026-01-24 10:01:23.19	143.60	20.10	-29.9	-31.0	14.2	7.00e-07	0	43	102	1048576	20	4072
2026-01-24 10:01:24.20	143.55	20.23	-29.9	-30.8	14.3	7.00e-07	0	43	102	1048576	20	4024
2026-01-24 10:01:25.20	143.50	20.36	-29.8	-30.6	14.5	7.00e-07	0	43	102	1048576	20	3943
2026-01-24 10:01:26.21	143.45	20.49	-30.0	-31.1	14.1	1.50e-06	0	43	102	1048576	20	4108
2026-01-24 10:01:27.21	143.41	20.62	-29.8	-30.7	14.4	7.00e-07	0	43	102	1048576	20	3983
2026-01-24 10:01:28.21	143.36	20.76	-29.7	-30.3	14.6	0.00e+00	0	43	102	1048576	20	3873
2026-01-24 10:01:29.22	143.31	20.89	-29.8	-30.6	14.5	5.30e-06	0	43	102	1048576	20	3949
2026-01-24 10:01:30.22	143.26	21.02	-29.6	-30.1	14.7	1.50e-06	0	43	102	1048576	20	3825
2026-01-24 10:01:31.23	143.21	21.16	-29.8	-30.7	14.4	0.00e+00	0	43	102	1048576	20	3981
2026-01-24 10:01:32.23	143.16	21.30	-29.9	-30.9	14.3	6.80e-06	0	43	102	1048576	20	4056
2026-01-24 10:01:33.24	143.11	21.43	-29.6	-30.3	14.6	7.00e-07	0	43	102	1048576	20	3874
2026-01-24 10:01:34.24	143.06	21.57	-30.0	-31.1	14.2	1.50e-06	0	43	102	1048576	20	4087
2026-01-24 10:01:35.25	143.00	21.71	-30.0	-31.1	14.1	1.50e-06	0	43	102	1048576	20	4111
2026-01-24 10:01:36.25	142.95	21.85	-30.1	-31.3	14.0	1.50e-06	0	43	102	1048576	20	4169
2026-01-24 10:01:37.25	142.90	21.99	-30.1	-31.5	14.0	1.50e-06	0	43	102	1048576	20	4208
2026-01-24 10:01:38.25	142.84	22.13	-30.0	-31.1	14.2	1.50e-06	0	43	102	1048576	20	4098
2026-01-24 10:01:39.25	142.79	22.27	-30.1	-31.4	14.0	0.00e+00	0	43	102	1048576	20	4174
2026-01-24 10:01:40.25	142.74	22.41	-30.1	-31.5	14.0	2.20e-06	0	43	102	1048576	20	4209
2026-01-24 10:01:41.26	142.68	22.55	-29.8	-30.5	14.6	7.60e-06	0	43	102	1048576	20	3927
2026-01-24 10:01:42.27	142.62	22.70	-30.0	-31.0	14.3	3.00e-06	0	43	102	1048576	20	4072
2026-01-24 10:01:43.27	142.57	22.84	-30.0	-31.0	14.3	2.20e-06	0	43	102	1048576	20	4069
2026-01-24 10:01:44.28	142.51	22.99	-29.8	-30.6	14.6	3.80e-06	0	43	102	1048576	20	3934
2026-01-24 10:01:45.28	142.45	23.13	-29.8	-30.5	14.6	1.50e-06	0	43	102	1048576	20	3930
2026-01-24 10:01:46.28	142.40	23.28	-29.6	-30.0	14.9	0.00e+00	0	43	102	1048576	20	3779
2026-01-24 10:01:47.29	142.34	23.43	-29.6	-30.1	14.8	4.50e-06	0	43	102	1048576	20	3818
2026-01-24 10:01:48.29	142.28	23.57	-29.8	-30.7	14.5	0.00e+00	0	43	102	1048576	20	3967
2026-01-24 10:01:49.29	142.22	23.72	-29.6	-30.0	14.9	7.00e-07	0	43	102	1048576	20	3774
2026-01-24 10:01:50.29	142.16	23.87	-30.0	-31.0	14.3	3.80e-06	0	43	102	1048576	20	4051
2026-01-24 10:01:51.30	142.10	24.02	-30.1	-31.4	14.1	0.00e+00	0	43	102	1048576	20	4178
2026-01-24 10:01:52.31	142.04	24.18	-30.3	-31.8	13.9	7.00e-07	0	43	102	1048576	20	4294
2026-01-24 10:01:53.31	141.97	24.33	-30.5	-32.0	13.4	1.44e-05	0	44	102	1048576	21	4277
2026-01-24 10:01:54.32	141.91	24.48	-30.7	-32.3	13.2	1.67e-05	0	43	102	1048576	21	4374
2026-01-24 10:01:55.32	141.85	24.64	-30.7	-32.5	13.1	1.98e-05	0	43	102	1048576	21	4422
2026-01-24 10:01:56.33	141.78	24.79	-30.8	-32.8	13.0	3.35e-05	0	43	102	1048576	21	4517
2026-01-24 10:01:57.33	141.72	24.95	-30.6	-32.1	13.3	4.34e-05	0	43	102	1048576	21	4296
2026-01-24 10:01:58.33	141.65	25.10	-30.7	-32.4	13.2	2.59e-05	0	43	102	1048576	21	4394
2026-01-24 10:01:59.33	141.59	25.26	-30.7	-32.5	13.1	4.65e-05	0	43	102	1048576	21	4416
2026-01-24 10:02:00.34	141.52	25.42	-30.8	-32.8	12.9	3.89e-05	0	43	102	1048576	21	4529
2026-01-24 10:02:01.34	141.45	25.58	-30.6	-32.3	13.3	2.82e-05	0	43	102	1048576	21	4344
2026-01-24 10:02:02.33	141.39	25.74	-30.9	-33.0	12.8	3.89e-05	0	43	102	1048576	21	4591
2026-01-24 10:02:03.34	141.32	25.90	-31.2	-33.3	12.3	1.79e-04	0	43	102	1048576	22	4601
2026-01-24 10:02:04.34	141.25	26.06	-30.9	-32.6	12.7	1.10e-04	0	44	102	1048576	22	4376
2026-01-24 10:02:05.35	141.18	26.22	-31.0	-32.7	12.7	1.11e-04	0	43	102	1048576	22	4384
2026-01-24 10:02:06.36	141.11	26.39	-31.2	-33.4	12.3	2.98e-04	0	43	102	1048576	22	4614
2026-01-24 10:02:07.37	141.03	26.56	-31.1	-33.0	12.5	2.01e-04	0	43	102	1048576	22	4483
2026-01-24 10:02:08.37	140.96	26.72	-31.3	-33.6	12.1	1.46e-04	0	44	102	1048576	22	4701
2026-01-24 10:02:09.38	140.89	26.89	-31.3	-33.6	12.2	3.11e-04	0	43	102	1048576	22	4686
2026-01-24 10:02:10.38	140.81	27.06	-31.2	-33.3	12.3	2.20e-04	0	43	102	1048576	22	4578
2026-01-24 10:02:11.39	140.74	27.23	-31.1	-32.9	12.6	7.32e-05	0	43	102	1048576	22	4445
2026-01-24 10:02:12.39	140.66	27.40	-31.0	-32.5	12.9	5.49e-05	0	43	102	1048576	22	4322
2026-01-24 10:02:13.39	140.58	27.57	-31.1	-33.0	12.6	7.17e-05	0	43	102	1048576	22	4478
2026-01-24 10:02:14.39	140.51	27.74	-31.4	-33.7	12.1	9.61e-05	0	43	102	1048576	22	4703
2026-01-24 10:02:15.40	140.43	27.91	-31.5	-33.5	11.9	4.03e-04	0	43	102	1048576	23	4564
2026-01-24 10:02:16.41	140.35	28.09	-31.4	-33.4	12.0	2.65e-04	0	43	102	1048576	23	4514
2026-01-24 10:02:17.41	140.27	28.26	-31.3	-32.9	12.4	1.37e-04	0	43	102	1048576	23	4345
2026-01-24 10:02:18.41	140.19	28.44	-31.3	-32.9	12.3	2.04e-04	0	43	102	1048576	23	4342
2026-01-24 10:02:19.41	140.11	28.61	-31.1	-32.4	12.6	1.21e-04	0	43	102	1048576	23	4188
2026-01-24 10:02:20.42	140.02	28.79	-30.9	-31.8	13.1	5.03e-05	0	43	102	1048576	23	4007
2026-01-24 10:02:21.42	139.94	28.97	-30.8	-32.0	13.3	2.82e-05	0	43	102	1048576	22	4139
2026-01-24 10:02:22.43	139.85	29.15	-30.9	-32.3	13.2	3.43e-05	0	43	102	1048576	22	4229
2026-01-24 10:02:23.44	139.77	29.33	-31.0	-32.5	13.1	3.81e-05	0	43	102	1048576	22	4310
2026-01-24 10:02:24.43	139.68	29.51	-31.0	-32.7	12.9	1.98e-05	0	44	102	1048576	22	4358
2026-01-24 10:02:25.43	139.59	29.70	-30.9	-32.4	13.1	3.58e-05	0	44	102	1048576	22	4252
2026-01-24 10:02:26.44	139.50	29.88	-30.9	-32.4	13.0	3.35e-05	0	43	102	1048576	22	4283
2026-01-24 10:02:27.45	139.41	30.07	-31.1	-32.8	12.8	7.01e-05	0	44	102	1048576	22	4393
2026-01-24 10:02:28.45	139.32	30.26	-31.0	-32.7	12.9	4.57e-05	0	43	102	1048576	22	4363
2026-01-24 10:02:29.45	139.23	30.44	-30.9	-32.5	13.1	5.03e-05	0	43	102	1048576	22	4285
2026-01-24 10:02:30.45	139.14	30.63	-31.2	-33.1	12.7	6.33e-05	0	43	102	1048576	22	4507
2026-01-24 10:02:31.46	139.04	30.82	-31.5	-33.4	12.1	3.40e-04	0	44	102	1048576	23	4501
2026-01-24 10:02:32.47	138.95	31.02	-31.3	-32.9	12.4	1.22e-04	0	43	102	1048576	23	4345
2026-01-24 10:02:33.47	138.85	31.21	-31.4	-33.2	12.3	1.58e-04	0	43	102	1048576	23	4426
2026-01-24 10:02:34.48	138.75	31.40	-31.8	-34.4	11.4	6.16e-04	0	43	102	1048576	23	4867
2026-01-24 10:02:35.48	138.65	31.60	-32.2	-35.1	10.5	2.71e-03	0	43	102	1048576	24	5052
2026-01-24 10:02:36.49	138.55	31.80	-32.3	-35.7	10.2	4.49e-03	0	43	102	1048576	24	5285
2026-01-24 10:02:37.50	138.45	31.99	-32.4	-36.1	9.9	5.42e-03	0	43	102	1048576	24	5492
2026-01-24 10:02:38.50	138.34	32.19	-32.4	-35.6	9.8	1.19e-02	0	44	102	1048576	25	5186
2026-01-24 10:02:39.49	138.24	32.39	-32.6	-36.2	9.4	1.41e-02	0	44	102	1048576	25	5427
2026-01-24 10:02:40.50	138.14	32.59	-32.9	-37.3	8.6	2.04e-02	0	44	102	1048576	25	5959
2026-01-24 10:02:41.51	138.03	32.80	-32.9	-37.4	8.5	4.07e-02	0	44	102	1048576	25	6049
2026-01-24 10:02:42.52	137.92	33.00	-32.9	-37.2	8.7	3.02e-02	0	44	102	1048576	25	5919
2026-01-24 10:02:43.52	137.81	33.20	-33.1	-37.8	7.8	7.63e-02	0	44	102	1048576	26	6146
2026-01-24 10:02:44.52	137.70	33.41	-33.1	-37.8	7.8	6.95e-02	0	44	102	1048576	26	6174
2026-01-24 10:02:45.53	137.58	33.62	-33.1	-37.7	7.9	8.11e-02	0	44	102	1048576	26	6114
2026-01-24 10:02:46.53	137.47	33.83	-33.4	-39.1	6.8	1.71e-01	0	44	102	1048576	26	6939
2026-01-24 10:02:47.54	137.35	34.04	-33.3	-38.4	7.2	2.47e-01	0	44	102	1048576	27	6428
2026-01-24 10:02:48.53	137.24	34.25	-33.5	-39.2	6.5	1.72e-01	0	43	102	1048576	27	6920
2026-01-24 10:02:49.54	137.12	34.46	-33.5	-39.4	6.2	2.43e-01	0	44	102	1048576	27	7065
2026-01-24 10:02:50.54	137.00	34.67	-33.3	-38.1	7.1	2.21e-01	0	44	102	1048576	27	6267
2026-01-24 10:02:51.54	136.88	34.89	-33.3	-38.1	7.2	1.69e-01	0	43	102	1048576	27	6251
2026-01-24 10:02:52.54	136.75	35.10	-33.3	-38.0	7.2	1.40e-01	0	43	102	1048576	27	6251
2026-01-24 10:02:53.55	136.63	35.32	-33.3	-38.1	7.2	1.42e-01	0	44	102	1048576	27	6283
2026-01-24 10:02:54.55	136.50	35.54	-33.2	-37.7	7.4	1.21e-01	0	44	102	1048576	27	6037
2026-01-24 10:02:55.55	136.37	35.76	-33.2	-37.7	7.6	8.91e-02	0	44	102	1048576	27	6053
2026-01-24 10:02:56.56	136.24	35.98	-33.2	-37.5	7.7	8.04e-02	0	44	102	1048576	27	5926
2026-01-24 10:02:57.56	136.11	36.21	-33.2	-37.5	7.7	8.36e-02	0	44	102	1048576	27	5914
2026-01-24 10:02:58.57	135.97	36.43	-33.3	-38.2	7.2	9.96e-02	0	44	102	1048576	27	6291
2026-01-24 10:02:59.57	135.84	36.66	-33.1	-37.1	8.1	7.09e-02	0	43	102	1048576	27	5694
2026-01-24 10:03:00.58	135.70	36.89	-32.6	-35.5	9.6	1.70e-02	0	43	102	1048576	26	5054
2026-01-24 10:03:01.58	135.56	37.12	-32.2	-34.6	10.6	1.30e-02	0	44	102	1048576	25	4763
2026-01-24 10:03:02.59	135.42	37.35	-31.7	-33.7	11.7	1.18e-03	0	44	102	1048576	24	4518
2026-01-24 10:03:03.59	135.27	37.58	-31.7	-33.5	11.7	4.17e-04	0	44	102	1048576	24	4466
2026-01-24 10:03:04.59	135.13	37.81	-31.6	-33.4	12.0	7.54e-04	0	44	102	1048576	24	4396
2026-01-24 10:03:05.60	134.98	38.05	-31.7	-33.5	11.9	4.38e-04	0	44	102	1048576	24	4445
2026-01-24 10:03:06.60	134.83	38.28	-32.3	-35.4	10.6	1.39e-03	0	44	102	1048576	24	5154
2026-01-24 10:03:07.60	134.67	38.52	-31.9	-34.3	11.3	1.14e-03	0	43	102	1048576	24	4716
2026-01-24 10:03:08.61	134.52	38.76	-31.7	-33.7	11.8	7.26e-04	0	44	102	1048576	24	4494
2026-01-24 10:03:09.61	134.36	39.00	-31.6	-33.3	12.1	5.28e-04	0	44	102	1048576	24	4372
2026-01-24 10:03:10.61	134.20	39.24	-31.6	-33.3	12.0	3.41e-04	0	44	102	1048576	24	4383
2026-01-24 10:03:11.61	134.04	39.48	-31.8	-33.9	11.6	4.23e-04	0	44	102	1048576	24	4603
2026-01-24 10:03:12.62	133.87	39.73	-32.1	-34.8	11.0	1.27e-03	0	44	102	1048576	24	4939
2026-01-24 10:03:13.63	133.70	39.97	-32.3	-35.5	10.4	3.79e-03	0	44	102	1048576	24	5213
2026-01-24 10:03:14.63	133.53	40.22	-32.2	-35.4	10.5	3.23e-03	0	44	102	1048576	24	5175
2026-01-24 10:03:15.63	133.36	40.47	-32.0	-34.5	11.1	2.98e-03	0	44	102	1048576	24	4807
2026-01-24 10:03:16.64	133.18	40.72	-31.8	-33.8	11.6	9.44e-04	0	43	102	1048576	24	4574
2026-01-24 10:03:17.64	133.01	40.97	-31.7	-33.6	11.8	5.94e-04	0	44	102	1048576	24	4500
2026-01-24 10:03:18.65	132.82	41.22	-31.7	-33.7	11.8	3.80e-04	0	44	102	1048576	24	4522
2026-01-24 10:03:19.65	132.64	41.48	-31.8	-33.9	11.6	4.23e-04	0	44	102	1048576	24	4587
2026-01-24 10:03:20.66	132.45	41.73	-31.4	-33.1	12.5	1.22e-04	0	44	102	1048576	23	4389
2026-01-24 10:03:21.66	132.26	41.99	-31.3	-32.7	12.8	5.49e-05	0	43	102	1048576	23	4264
2026-01-24 10:03:22.67	132.07	42.25	-30.9	-31.6	13.5	6.10e-05	0	44	102	1048576	23	3929
2026-01-24 10:03:23.67	131.87	42.51	-30.8	-31.9	13.7	7.60e-06	0	44	102	1048576	22	4100
2026-01-24 10:03:24.67	131.67	42.77	-30.8	-32.0	13.5	6.80e-06	0	43	102	1048576	22	4127
2026-01-24 10:03:25.68	131.47	43.04	-30.7	-31.7	13.8	7.00e-07	0	44	102	1048576	22	4033
2026-01-24 10:03:26.68	131.26	43.30	-30.6	-31.4	14.0	2.20e-06	0	44	102	1048576	22	3944
2026-01-24 10:03:27.68	131.05	43.56	-30.5	-31.0	14.3	5.30e-06	0	44	102	1048576	22	3822
2026-01-24 10:03:28.69	130.84	43.83	-30.7	-31.6	14.0	1.50e-06	0	43	102	1048576	22	3981
2026-01-24 10:03:29.70	130.62	44.10	-30.8	-31.8	13.8	9.90e-06	0	44	102	1048576	22	4047
2026-01-24 10:03:30.70	130.40	44.37	-30.7	-31.7	13.8	7.60e-06	0	44	102	1048576	22	4027
2026-01-24 10:03:31.71	130.17	44.65	-30.5	-31.0	14.3	2.20e-06	0	44	102	1048576	22	3837
2026-01-24 10:03:32.72	129.94	44.92	-30.5	-31.1	14.3	7.00e-07	0	43	102	1048576	22	3858
2026-01-24 10:03:33.72	129.71	45.19	-30.5	-31.0	14.4	7.60e-06	0	44	102	1048576	22	3827
2026-01-24 10:03:34.72	129.48	45.47	-30.7	-31.7	13.9	6.10e-06	0	44	102	1048576	22	4017
2026-01-24 10:03:35.73	129.23	45.75	-31.2	-32.8	13.2	1.14e-05	0	44	102	1048576	22	4361
2026-01-24 10:03:36.74	128.99	46.03	-30.8	-31.9	13.8	6.10e-06	0	44	102	1048576	22	4079
2026-01-24 10:03:37.74	128.74	46.30	-30.4	-30.7	14.5	1.50e-06	0	43	102	1048576	22	3743
2026-01-24 10:03:38.75	128.48	46.59	-30.3	-31.0	14.6	3.00e-06	0	43	102	1048576	21	3910
2026-01-24 10:03:39.75	128.22	46.87	-30.4	-31.3	14.4	1.50e-06	0	43	102	1048576	21	3990
2026-01-24 10:03:40.76	127.96	47.15	-30.9	-32.6	13.6	6.10e-06	0	43	102	1048576	21	4391
2026-01-24 10:03:41.76	127.69	47.44	-31.1	-32.8	13.1	1.22e-05	0	44	102	1048576	22	4362
2026-01-24 10:03:42.76	127.42	47.72	-31.2	-32.8	13.2	4.65e-05	0	43	102	1048576	22	4361
2026-01-24 10:03:43.77	127.14	48.01	-31.0	-32.3	13.5	9.90e-06	0	43	102	1048576	22	4206
2026-01-24 10:03:44.77	126.85	48.30	-30.9	-32.0	13.7	1.06e-05	0	44	102	1048576	22	4115
2026-01-24 10:03:45.78	126.56	48.59	-30.7	-31.5	13.9	6.80e-06	0	44	102	1048576	22	3970
2026-01-24 10:03:46.78	126.27	48.88	-30.9	-32.2	13.6	3.00e-06	0	44	102	1048576	22	4184
2026-01-24 10:03:47.78	125.97	49.17	-30.7	-31.5	14.0	3.00e-06	0	44	102	1048576	22	3960
2026-01-24 10:03:48.79	125.66	49.46	-30.3	-30.6	14.5	7.00e-07	0	43	102	1048576	22	3723
2026-01-24 10:03:49.79	125.35	49.75	-30.4	-30.8	14.5	0.00e+00	0	43	102	1048576	22	3775
2026-01-24 10:03:50.80	125.03	50.05	-30.2	-30.8	14.7	1.50e-06	0	44	102	1048576	21	3859
2026-01-24 10:03:51.80	124.70	50.34	-29.7	-30.0	15.5	1.50e-06	0	44	102	1048576	20	3732
2026-01-24 10:03:52.81	124.37	50.64	-29.4	-29.9	15.9	0.00e+00	0	44	102	1048576	19	3786
2026-01-24 10:03:53.82	124.03	50.94	-30.0	-30.7	15.1	0.00e+00	0	44	102	1048576	20	3918
2026-01-24 10:03:54.82	123.69	51.24	-30.4	-31.2	14.5	7.00e-07	0	44	102	1048576	21	3977
2026-01-24 10:03:55.82	123.34	51.53	-30.3	-31.0	14.6	0.00e+00	0	44	102	1048576	21	3924
2026-01-24 10:03:56.83	122.97	51.84	-30.0	-30.4	15.0	0.00e+00	0	43	102	1048576	21	3760
2026-01-24 10:03:57.83	122.61	52.13	-30.1	-30.5	14.9	0.00e+00	0	44	102	1048576	21	3791
2026-01-24 10:03:58.84	122.23	52.44	-30.6	-31.8	14.2	1.50e-06	0	44	102	1048576	21	4137
2026-01-24 10:03:59.84	121.85	52.74	-31.1	-32.6	13.3	6.80e-06	0	44	102	1048576	22	4294
2026-01-24 10:04:00.84	121.46	53.04	-31.1	-32.8	13.2	1.37e-05	0	44	102	1048576	22	4369
2026-01-24 10:04:01.85	121.06	53.34	-31.1	-32.8	13.2	2.89e-05	0	44	102	1048576	22	4364
2026-01-24 10:04:02.84	120.66	53.64	-30.9	-32.2	13.6	1.44e-05	0	44	102	1048576	22	4164
2026-01-24 10:04:03.85	120.25	53.94	-30.5	-31.2	14.2	1.50e-06	0	44	102	1048576	22	3888
2026-01-24 10:04:04.85	119.82	54.25	-30.5	-31.1	14.3	1.50e-06	0	44	102	1048576	22	3844
2026-01-24 10:04:05.86	119.39	54.55	-30.7	-31.5	14.1	1.50e-06	0	44	102	1048576	22	3963
2026-01-24 10:04:06.86	118.95	54.85	-30.4	-30.8	14.5	7.00e-07	0	44	102	1048576	22	3777
2026-01-24 10:04:07.86	118.50	55.15	-30.4	-31.4	14.4	0.00e+00	0	44	102	1048576	21	4010
2026-01-24 10:04:08.86	118.04	55.46	-30.5	-31.5	14.4	1.50e-06	0	44	102	1048576	21	4056
2026-01-24 10:04:09.86	117.57	55.76	-30.6	-31.9	14.2	7.00e-07	0	44	102	1048576	21	4174
2026-01-24 10:04:10.86	117.09	56.06	-30.5	-31.7	14.3	1.50e-06	0	44	102	1048576	21	4103
2026-01-24 10:04:11.87	116.59	56.36	-30.4	-31.4	14.4	0.00e+00	0	44	102	1048576	21	4024
2026-01-24 10:04:12.87	116.09	56.66	-30.8	-32.5	13.9	1.50e-06	0	44	102	1048576	21	4340
2026-01-24 10:04:13.88	115.57	56.97	-30.7	-32.0	14.1	7.00e-07	0	44	102	1048576	21	4215
2026-01-24 10:04:14.88	115.05	57.26	-30.7	-32.2	14.0	7.00e-07	0	44	102	1048576	21	4252
2026-01-24 10:04:15.88	114.51	57.56	-30.7	-32.1	14.0	3.00e-06	0	44	102	1048576	21	4228
2026-01-24 10:04:16.89	113.96	57.86	-31.3	-33.3	13.0	8.30e-06	0	44	102	1048576	22	4499
2026-01-24 10:04:17.90	113.39	58.16	-31.6	-33.4	12.5	1.08e-04	0	44	102	1048576	23	4461
2026-01-24 10:04:18.90	112.82	58.46	-30.8	-31.3	14.0	3.00e-06	0	44	102	1048576	23	3829
2026-01-24 10:04:19.91	112.23	58.76	-30.8	-31.8	13.9	3.80e-06	0	44	102	1048576	22	4053
2026-01-24 10:04:20.92	111.62	59.05	-30.6	-31.2	14.4	1.50e-06	0	43	102	1048576	22	3884
2026-01-24 10:04:21.92	111.01	59.34	-31.0	-32.3	13.7	2.20e-06	0	44	102	1048576	22	4187
2026-01-24 10:04:22.93	110.38	59.63	-30.8	-31.8	14.0	9.10e-06	0	44	102	1048576	22	4030
2026-01-24 10:04:23.93	109.74	59.92	-30.5	-31.0	14.5	1.50e-06	0	44	102	1048576	22	3806
2026-01-24 10:04:24.94	109.08	60.21	-30.1	-30.4	15.1	0.00e+00	0	44	102	1048576	21	3743
2026-01-24 10:04:25.94	108.41	60.49	-29.6	-29.8	15.8	0.00e+00	0	44	102	1048576	20	3671
2026-01-24 10:04:26.95	107.71	60.78	-29.5	-29.5	16.0	0.00e+00	0	44	102	1048576	20	3604
2026-01-24 10:04:27.95	107.01	61.05	-29.0	-28.8	16.6	0.00e+00	0	44	102	1048576	19	3530
2026-01-24 10:04:28.96	106.29	61.33	-29.0	-28.9	16.6	0.00e+00	0	44	102	1048576	19	3550
2026-01-24 10:04:29.96	105.56	61.61	-29.6	-30.2	15.9	0.00e+00	0	44	102	1048576	19	3856
2026-01-24 10:04:30.96	104.81	61.87	-29.9	-30.6	15.2	0.00e+00	0	44	102	1048576	20	3891
2026-01-24 10:04:31.97	104.03	62.14	-30.1	-31.0	15.0	0.00e+00	0	44	102	1048576	20	4011
2026-01-24 10:04:32.98	103.24	62.41	-29.8	-30.4	15.5	0.00e+00	0	44	102	1048576	20	3825
2026-01-24 10:04:33.98	102.44	62.67	-30.0	-30.7	15.3	0.00e+00	0	44	102	1048576	20	3910
2026-01-24 10:04:34.98	101.63	62.92	-30.0	-30.8	15.2	0.00e+00	0	43	102	1048576	20	3940
2026-01-24 10:04:35.98	100.79	63.17	-29.6	-29.7	15.8	3.00e-06	0	44	102	1048576	20	3656
2026-01-24 10:04:36.98	99.94	63.42	-30.0	-30.8	15.2	0.00e+00	0	44	102	1048576	20	3942
2026-01-24 10:04:37.99	99.06	63.67	-30.1	-31.0	15.1	7.00e-07	0	44	102	1048576	20	3981
2026-01-24 10:04:39.00	98.16	63.91	-30.6	-31.6	14.4	0.00e+00	0	44	102	1048576	21	4076
2026-01-24 10:04:40.00	97.26	64.14	-30.0	-30.1	15.2	1.50e-06	0	44	102	1048576	21	3677
2026-01-24 10:04:41.00	96.33	64.37	-29.3	-29.5	16.3	0.00e+00	0	44	102	1048576	19	3689
2026-01-24 10:04:42.01	95.38	64.59	-29.0	-28.7	16.8	0.00e+00	0	44	102	1048576	19	3500
2026-01-24 10:04:43.02	94.41	64.81	-29.2	-29.9	16.4	0.00e+00	0	44	102	1048576	18	3881
2026-01-24 10:04:44.02	93.43	65.02	-30.3	-31.5	14.8	0.00e+00	0	44	102	1048576	20	4136
2026-01-24 10:04:45.03	92.42	65.22	-30.9	-32.7	13.8	3.80e-06	0	44	102	1048576	21	4408
2026-01-24 10:04:46.03	91.40	65.42	-30.8	-31.7	14.2	3.80e-06	0	44	102	1048576	22	3992
2026-01-24 10:04:47.03	90.37	65.61	-31.1	-32.5	13.6	6.80e-06	0	44	102	1048576	22	4252
2026-01-24 10:04:48.03	89.31	65.80	-31.7	-33.8	12.4	5.87e-05	0	44	102	1048576	23	4567
2026-01-24 10:04:49.03	88.24	65.97	-31.4	-32.8	13.0	7.55e-05	0	44	102	1048576	23	4235
2026-01-24 10:04:50.02	87.17	66.14	-30.7	-31.6	14.2	9.10e-06	0	44	102	1048576	22	3966
2026-01-24 10:04:51.02	86.06	66.30	-30.5	-31.5	14.5	7.00e-07	0	43	102	1048576	21	4043
2026-01-24 10:04:52.03	84.93	66.46	-30.6	-31.9	14.3	0.00e+00	0	44	102	1048576	21	4180
2026-01-24 10:04:53.04	83.78	66.61	-31.2	-32.9	13.4	1.50e-06	0	44	102	1048576	22	4375
2026-01-24 10:04:54.04	82.63	66.74	-30.8	-31.8	14.0	6.10e-06	0	44	102	1048576	22	4036
2026-01-24 10:04:55.05	81.45	66.87	-30.3	-30.5	14.8	0.00e+00	0	44	102	1048576	22	3692
2026-01-24 10:04:56.06	80.26	66.99	-30.5	-31.5	14.5	1.50e-06	0	44	102	1048576	21	4049
2026-01-24 10:04:57.06	79.07	67.11	-30.6	-31.6	14.4	1.14e-05	0	44	102	1048576	21	4078
2026-01-24 10:04:58.07	77.85	67.21	-30.2	-30.7	14.9	0.00e+00	0	44	102	1048576	21	3830
2026-01-24 10:04:59.07	76.63	67.30	-29.9	-30.1	15.4	0.00e+00	0	44	102	1048576	21	3672
2026-01-24 10:05:00.08	75.40	67.39	-29.8	-29.8	15.5	0.00e+00	0	44	102	1048576	21	3598
2026-01-24 10:05:01.08	74.16	67.46	-30.7	-32.0	14.2	2.20e-06	0	44	102	1048576	21	4178
2026-01-24 10:05:02.09	72.90	67.52	-30.8	-32.4	13.9	2.20e-06	0	44	102	1048576	21	4298
2026-01-24 10:05:03.09	71.65	67.58	-30.8	-32.2	14.0	3.00e-06	0	44	102	1048576	21	4238
2026-01-24 10:05:04.09	70.39	67.62	-31.1	-32.5	13.6	1.50e-06	0	44	102	1048576	22	4237
2026-01-24 10:05:05.10	69.12	67.66	-30.8	-31.7	14.1	0.00e+00	0	44	102	1048576	22	4016
2026-01-24 10:05:06.10	67.85	67.68	-30.9	-31.9	13.9	3.00e-06	0	44	102	1048576	22	4052
2026-01-24 10:05:07.10	66.58	67.69	-31.0	-32.4	13.6	5.30e-06	0	43	102	1048576	22	4195
2026-01-24 10:05:08.11	65.30	67.70	-30.6	-31.3	14.3	1.50e-06	0	44	102	1048576	22	3883
2026-01-24 10:05:09.11	64.03	67.69	-31.1	-32.5	13.6	3.00e-06	0	44	102	1048576	22	4255
2026-01-24 10:05:10.11	62.76	67.67	-30.9	-31.9	14.0	3.80e-06	0	44	102	1048576	22	4073
2026-01-24 10:05:11.12	61.48	67.65	-31.0	-32.2	13.7	1.06e-05	0	44	102	1048576	22	4150
2026-01-24 10:05:12.13	60.21	67.61	-31.3	-33.1	13.2	6.80e-06	0	44	102	1048576	22	4435
2026-01-24 10:05:13.13	58.95	67.56	-32.0	-34.0	11.9	3.17e-04	0	44	102	1048576	24	4579
2026-01-24 10:05:14.13	57.70	67.51	-31.6	-32.8	12.7	2.46e-04	0	44	102	1048576	24	4178
2026-01-24 10:05:15.13	56.46	67.44	-31.3	-32.5	13.3	2.67e-05	0	44	102	1048576	23	4151
2026-01-24 10:05:16.14	55.21	67.36	-32.1	-34.6	11.5	2.39e-04	0	43	102	1048576	24	4754
2026-01-24 10:05:17.14	53.99	67.28	-32.7	-36.1	10.0	4.57e-03	0	44	102	1048576	25	5286
2026-01-24 10:05:18.14	52.78	67.18	-32.7	-35.2	10.3	9.16e-03	0	44	102	1048576	26	4844
2026-01-24 10:05:19.15	51.56	67.08	-32.4	-35.0	10.7	1.22e-03	0	44	102	1048576	25	4821
2026-01-24 10:05:20.14	50.38	66.97	-32.8	-35.9	9.8	9.05e-03	0	44	102	1048576	26	5107
2026-01-24 10:05:21.15	49.20	66.84	-32.2	-34.3	11.3	4.40e-03	0	44	102	1048576	25	4591
2026-01-24 10:05:22.15	48.03	66.71	-32.4	-35.0	10.9	1.19e-03	0	44	102	1048576	25	4841
2026-01-24 10:05:23.16	46.88	66.57	-32.5	-35.1	10.6	5.54e-03	0	44	102	1048576	25	4896
2026-01-24 10:05:24.15	45.75	66.43	-31.0	-32.0	13.5	8.44e-04	0	44	102	1048576	23	4002
2026-01-24 10:05:25.16	44.63	66.27	-30.3	-31.0	14.7	7.00e-07	0	44	102	1048576	21	3915
2026-01-24 10:05:26.16	43.53	66.11	-30.4	-31.4	14.6	7.00e-07	0	44	102	1048576	21	4003
2026-01-24 10:05:27.17	42.44	65.93	-31.1	-32.7	13.5	3.00e-06	0	44	102	1048576	22	4306
2026-01-24 10:05:28.17	41.37	65.76	-31.5	-33.1	12.7	4.19e-05	0	44	102	1048576	23	4371
2026-01-24 10:05:29.18	40.31	65.57	-30.9	-31.5	13.9	2.13e-05	0	44	102	1048576	23	3862
2026-01-24 10:05:30.19	39.27	65.37	-29.6	-29.7	15.8	7.00e-07	0	44	102	1048576	20	3658
2026-01-24 10:05:31.20	38.25	65.17	-29.2	-29.3	16.4	0.00e+00	0	44	102	1048576	19	3643
2026-01-24 10:05:32.20	37.26	64.97	-29.4	-29.8	16.2	1.50e-06	0	44	102	1048576	19	3774
2026-01-24 10:05:33.21	36.27	64.75	-30.3	-31.4	14.8	0.00e+00	0	44	102	1048576	20	4108
2026-01-24 10:05:34.22	35.31	64.54	-29.9	-30.6	15.3	0.00e+00	0	44	102	1048576	20	3874
2026-01-24 10:05:35.22	34.37	64.31	-30.2	-31.1	15.0	6.10e-06	0	44	102	1048576	20	4016
2026-01-24 10:05:36.22	33.45	64.08	-29.7	-30.1	15.6	0.00e+00	0	44	102	1048576	20	3740
2026-01-24 10:05:37.23	32.54	63.85	-29.6	-29.8	15.9	0.00e+00	0	44	102	1048576	20	3683
2026-01-24 10:05:38.23	31.66	63.61	-30.5	-31.6	14.5	0.00e+00	0	44	102	1048576	21	4060
2026-01-24 10:05:39.24	30.79	63.36	-30.6	-31.8	14.3	3.00e-06	0	44	102	1048576	21	4119
2026-01-24 10:05:40.24	29.94	63.12	-30.2	-30.6	15.1	7.00e-07	0	43	102	1048576	21	3787
2026-01-24 10:05:41.23	29.12	62.87	-30.8	-32.3	14.0	6.10e-06	0	44	102	1048576	21	4279
2026-01-24 10:05:42.24	28.30	62.61	-31.4	-33.3	13.1	2.89e-05	0	44	102	1048576	22	4499
2026-01-24 10:05:43.24	27.51	62.35	-30.8	-31.9	14.0	9.90e-06	0	44	102	1048576	22	4052
2026-01-24 10:05:44.25	26.72	62.08	-31.3	-33.1	13.2	4.50e-06	0	44	102	1048576	22	4431
2026-01-24 10:05:45.25	25.96	61.82	-31.9	-34.2	12.0	2.39e-04	0	44	102	1048576	23	4722
2026-01-24 10:05:46.26	25.21	61.55	-31.7	-33.6	12.5	1.98e-04	0	44	102	1048576	23	4500
2026-01-24 10:05:47.26	24.48	61.27	-31.9	-33.9	11.9	6.04e-04	0	44	102	1048576	24	4528
2026-01-24 10:05:48.26	23.77	61.00	-31.6	-32.9	12.6	2.32e-04	0	44	102	1048576	24	4187
2026-01-24 10:05:49.26	23.07	60.72	-31.5	-32.8	12.7	9.30e-05	0	44	102	1048576	24	4180
2026-01-24 10:05:50.26	22.39	60.44	-32.3	-35.3	10.8	4.37e-04	0	44	102	1048576	24	5064
2026-01-24 10:05:51.26	21.73	60.16	-32.3	-34.7	10.9	5.02e-03	0	44	102	1048576	25	4743
2026-01-24 10:05:52.26	21.08	59.87	-31.0	-31.9	13.5	1.58e-04	0	44	102	1048576	23	3982
2026-01-24 10:05:53.27	20.43	59.58	-30.6	-31.4	14.2	7.00e-07	0	44	102	1048576	22	3911
2026-01-24 10:05:54.27	19.81	59.29	-31.3	-33.0	13.2	1.50e-06	0	44	102	1048576	22	4420
2026-01-24 10:05:55.27	19.20	59.00	-30.9	-32.1	13.8	9.90e-06	0	44	102	1048576	22	4132
2026-01-24 10:05:56.27	18.61	58.71	-30.4	-30.8	14.6	3.80e-06	0	44	102	1048576	22	3770
2026-01-24 10:05:57.28	18.02	58.41	-30.1	-30.5	15.0	7.00e-07	0	44	102	1048576	21	3772
2026-01-24 10:05:58.29	17.45	58.12	-29.4	-29.4	15.9	0.00e+00	0	44	102	1048576	20	3578
2026-01-24 10:05:59.29	16.89	57.82	-29.3	-29.5	16.2	0.00e+00	0	44	102	1048576	19	3704
2026-01-24 10:06:00.29	16.34	57.52	-29.4	-29.8	16.0	0.00e+00	0	44	102	1048576	19	3781
2026-01-24 10:06:01.30	15.81	57.22	-29.7	-30.6	15.6	0.00e+00	0	44	102	1048576	19	3980
2026-01-24 10:06:02.30	15.29	56.92	-30.2	-30.7	14.8	0.00e+00	0	44	102	1048576	21	3835
2026-01-24 10:06:03.30	14.78	56.63	-30.8	-32.3	13.9	2.20e-06	0	44	102	1048576	21	4299
2026-01-24 10:06:04.31	14.27	56.32	-31.0	-32.4	13.6	2.20e-06	0	44	102	1048576	22	4236
2026-01-24 10:06:05.31	13.79	56.02	-31.0	-32.4	13.5	3.28e-05	0	43	102	1048576	22	4231
2026-01-24 10:06:06.31	13.31	55.72	-31.0	-32.4	13.5	1.06e-05	0	44	102	1048576	22	4220
2026-01-24 10:06:07.32	12.84	55.42	-31.2	-32.9	13.2	1.98e-05	0	44	102	1048576	22	4380
2026-01-24 10:06:08.32	12.38	55.12	-30.9	-32.0	13.8	1.06e-05	0	44	102	1048576	22	4109
2026-01-24 10:06:09.32	11.93	54.82	-30.1	-30.6	14.9	0.00e+00	0	44	102	1048576	21	3796
2026-01-24 10:06:10.33	11.49	54.51	-30.1	-31.0	15.0	0.00e+00	0	44	102	1048576	20	3999
2026-01-24 10:06:11.34	11.06	54.21	-30.0	-30.8	15.1	0.00e+00	0	44	102	1048576	20	3938
2026-01-24 10:06:12.34	10.64	53.91	-29.6	-29.9	15.6	0.00e+00	0	44	102	1048576	20	3709
2026-01-24 10:06:13.35	10.22	53.61	-29.9	-30.6	15.2	0.00e+00	0	44	102	1048576	20	3899
2026-01-24 10:06:14.36	9.82	53.30	-30.7	-32.2	13.9	0.00e+00	0	44	102	1048576	21	4258
2026-01-24 10:06:15.36	9.42	53.00	-30.9	-32.8	13.5	7.60e-06	0	44	102	1048576	21	4450
2026-01-24 10:06:16.36	9.04	52.70	-31.3	-33.2	12.9	2.51e-05	0	44	102	1048576	22	4495
2026-01-24 10:06:17.36	8.66	52.40	-31.9	-34.3	11.8	1.62e-04	0	44	102	1048576	23	4789
2026-01-24 10:06:18.37	8.29	52.10	-31.7	-33.8	12.1	4.29e-04	0	44	102	1048576	23	4592
2026-01-24 10:06:19.38	7.92	51.80	-31.3	-32.8	12.9	9.30e-05	0	44	102	1048576	23	4253
2026-01-24 10:06:20.38	7.56	51.51	-31.3	-32.6	13.0	2.28e-05	0	44	102	1048576	23	4205
2026-01-24 10:06:21.39	7.21	51.21	-31.7	-33.7	12.2	1.72e-04	0	44	102	1048576	23	4568
2026-01-24 10:06:22.39	6.87	50.91	-31.5	-33.4	12.5	1.01e-04	0	44	102	1048576	23	4438
2026-01-24 10:06:23.40	6.53	50.61	-31.7	-33.8	12.3	1.68e-04	0	44	102	1048576	23	4576
2026-01-24 10:06:24.40	6.20	50.32	-31.5	-33.2	12.6	6.48e-05	0	44	102	1048576	23	4395
2026-01-24 10:06:25.41	5.88	50.02	-32.2	-34.8	11.1	7.37e-04	0	44	102	1048576	24	4891
2026-01-24 10:06:26.41	5.56	49.73	-32.9	-36.9	9.4	8.48e-03	0	44	102	1048576	25	5706
2026-01-24 10:06:27.41	5.25	49.44	-33.3	-37.8	8.1	5.26e-02	0	44	102	1048576	26	6086
2026-01-24 10:06:28.41	4.95	49.15	-33.0	-36.7	8.9	3.65e-02	0	44	102	1048576	26	5485
2026-01-24 10:06:29.42	4.65	48.86	-33.0	-36.6	9.1	2.64e-02	0	44	102	1048576	26	5465
2026-01-24 10:06:30.43	4.35	48.57	-33.3	-37.9	8.1	4.18e-02	0	44	102	1048576	26	6097
2026-01-24 10:06:31.43	4.07	48.28	-33.0	-36.7	8.9	6.24e-02	0	44	102	1048576	26	5529
2026-01-24 10:06:32.44	3.78	47.99	-32.8	-35.9	9.6	1.19e-02	0	44	102	1048576	26	5133
2026-01-24 10:06:33.44	3.51	47.71	-32.8	-35.9	9.5	1.16e-02	0	44	102	1048576	26	5144
2026-01-24 10:06:34.45	3.23	47.42	-32.8	-36.0	9.4	1.94e-02	0	44	102	1048576	26	5183
2026-01-24 10:06:35.46	2.97	47.14	-32.0	-33.8	11.4	2.11e-03	0	44	102	1048576	25	4422
2026-01-24 10:06:36.46	2.70	46.86	-31.2	-32.5	13.0	1.15e-04	0	44	102	1048576	23	4161
2026-01-24 10:06:37.47	2.45	46.57	-30.9	-31.6	13.6	1.44e-05	0	44	102	1048576	23	3898
2026-01-24 10:06:38.47	2.19	46.30	-31.6	-33.6	12.3	1.27e-04	0	44	102	1048576	23	4537
2026-01-24 10:06:39.48	1.94	46.02	-32.0	-34.3	11.4	1.05e-03	0	44	102	1048576	24	4682
2026-01-24 10:06:40.48	1.70	45.74	-31.8	-33.8	11.8	3.68e-04	0	44	102	1048576	24	4499
2026-01-24 10:06:41.48	1.46	45.47	-31.8	-33.6	11.9	4.63e-04	0	44	102	1048576	24	4456
2026-01-24 10:06:42.48	1.23	45.19	-32.1	-34.7	11.1	1.30e-03	0	44	102	1048576	24	4854
2026-01-24 10:06:43.49	0.99	44.92	-32.8	-36.6	9.4	9.55e-03	0	44	102	1048576	25	5560
2026-01-24 10:06:44.49	0.77	44.65	-33.1	-37.2	8.5	3.86e-02	0	44	102	1048576	26	5746
2026-01-24 10:06:45.49	0.55	44.38	-32.8	-36.2	9.2	5.08e-02	0	44	102	1048576	26	5269
2026-01-24 10:06:46.49	0.33	44.11	-32.7	-35.5	9.7	1.51e-02	0	44	102	1048576	26	4989
2026-01-24 10:06:47.49	0.11	43.85	-32.3	-34.3	10.5	4.67e-03	0	44	102	1048576	26	4528
2026-01-24 10:06:48.49	359.90	43.58	-32.2	-34.4	10.9	1.20e-03	0	44	102	1048576	25	4641
2026-01-24 10:06:49.50	359.69	43.31	-32.4	-35.2	10.4	3.40e-03	0	44	102	1048576	25	4964
2026-01-24 10:06:50.50	359.49	43.05	-32.3	-34.9	10.5	4.75e-03	0	44	102	1048576	25	4843
2026-01-24 10:06:51.51	359.28	42.79	-31.9	-33.5	11.5	2.83e-03	0	44	102	1048576	25	4339
2026-01-24 10:06:52.51	359.08	42.53	-31.5	-32.9	12.3	3.04e-04	0	44	102	1048576	24	4221
2026-01-24 10:06:53.51	358.89	42.27	-32.2	-34.9	10.9	1.12e-03	0	44	102	1048576	24	4922
2026-01-24 10:06:54.51	358.70	42.01	-32.3	-35.4	10.5	2.17e-03	0	44	102	1048576	24	5144
2026-01-24 10:06:55.51	358.51	41.76	-32.8	-36.7	9.5	5.84e-03	0	44	102	1048576	25	5620
2026-01-24 10:06:56.52	358.32	41.50	-33.1	-37.2	8.4	2.64e-02	0	44	102	1048576	26	5770
2026-01-24 10:06:57.53	358.14	41.25	-33.2	-37.7	7.9	7.61e-02	0	44	102	1048576	26	6037
2026-01-24 10:06:58.53	357.96	41.00	-32.7	-35.6	9.5	4.94e-02	0	44	102	1048576	26	5061
2026-01-24 10:06:59.54	357.78	40.75	-32.2	-34.7	10.5	1.05e-02	0	44	102	1048576	25	4775
2026-01-24 10:07:00.54	357.61	40.50	-31.9	-33.5	11.5	1.80e-03	0	44	102	1048576	25	4337
2026-01-24 10:07:01.54	357.44	40.25	-32.0	-34.4	11.0	1.37e-03	0	44	102	1048576	24	4766
2026-01-24 10:07:02.54	357.27	40.01	-31.5	-32.8	12.4	3.64e-04	0	43	102	1048576	24	4203
2026-01-24 10:07:03.54	357.10	39.76	-31.5	-33.0	12.1	1.63e-04	0	43	102	1048576	24	4243
2026-01-24 10:07:04.54	356.94	39.52	-31.6	-33.1	12.1	2.85e-04	0	44	102	1048576	24	4292
2026-01-24 10:07:05.54	356.78	39.28	-31.8	-33.6	11.8	3.31e-04	0	44	102	1048576	24	4473
2026-01-24 10:07:06.54	356.62	39.04	-31.6	-33.3	12.0	4.28e-04	0	44	102	1048576	24	4338
2026-01-24 10:07:07.55	356.46	38.80	-32.1	-34.8	10.9	1.19e-03	0	44	102	1048576	24	4915
2026-01-24 10:07:08.56	356.30	38.56	-31.9	-34.1	11.4	1.48e-03	0	44	102	1048576	24	4622
2026-01-24 10:07:09.57	356.15	38.32	-31.9	-33.9	11.5	6.41e-04	0	44	102	1048576	24	4572
2026-01-24 10:07:10.56	356.00	38.09	-31.7	-33.3	11.9	8.42e-04	0	44	102	1048576	24	4375
2026-01-24 10:07:11.57	355.85	37.86	-32.0	-34.4	11.3	3.52e-04	0	44	102	1048576	24	4737
2026-01-24 10:07:12.58	355.71	37.62	-31.7	-33.4	11.8	7.39e-04	0	44	102	1048576	24	4385
2026-01-24 10:07:13.59	355.56	37.39	-31.1	-32.3	12.9	7.70e-05	0	44	102	1048576	23	4128
2026-01-24 10:07:14.59	355.42	37.16	-31.1	-32.3	13.0	3.43e-05	0	44	102	1048576	23	4125
2026-01-24 10:07:15.60	355.28	36.93	-31.1	-32.3	12.9	3.43e-05	0	44	102	1048576	23	4142
2026-01-24 10:07:16.60	355.15	36.71	-30.9	-31.7	13.3	3.05e-05	0	44	102	1048576	23	3951
2026-01-24 10:07:17.60	355.01	36.48	-30.7	-31.7	13.6	1.14e-05	0	44	102	1048576	22	4042
2026-01-24 10:07:18.60	354.88	36.26	-30.9	-32.3	13.3	2.74e-05	0	44	102	1048576	22	4214
2026-01-24 10:07:19.60	354.75	36.04	-30.7	-31.8	13.5	1.14e-05	0	44	102	1048576	22	4063
2026-01-24 10:07:20.60	354.62	35.82	-30.6	-31.4	13.8	6.80e-06	0	44	102	1048576	22	3947
2026-01-24 10:07:21.61	354.49	35.60	-29.9	-30.1	14.9	0.00e+00	0	44	102	1048576	21	3698
2026-01-24 10:07:22.61	354.36	35.38	-29.8	-30.5	15.0	0.00e+00	0	44	102	1048576	20	3880
2026-01-24 10:07:23.61	354.24	35.17	-29.9	-30.5	14.9	0.00e+00	0	44	102	1048576	20	3894
2026-01-24 10:07:24.62	354.11	34.95	-30.5	-31.7	14.0	7.00e-07	0	44	102	1048576	21	4138
2026-01-24 10:07:25.62	353.99	34.74	-31.1	-32.9	12.8	1.90e-05	0	44	102	1048576	22	4432
2026-01-24 10:07:26.62	353.87	34.52	-31.9	-34.6	11.3	5.10e-04	0	44	102	1048576	23	4933
2026-01-24 10:07:27.63	353.75	34.31	-32.3	-35.1	10.2	4.29e-03	0	44	102	1048576	25	4943
2026-01-24 10:07:28.63	353.64	34.10	-32.4	-35.5	9.9	6.97e-03	0	44	102	1048576	25	5126
2026-01-24 10:07:29.63	353.52	33.89	-32.2	-34.7	10.5	5.84e-03	0	44	102	1048576	25	4800
2026-01-24 10:07:30.63	353.41	33.69	-31.8	-33.4	11.4	1.89e-03	0	44	102	1048576	25	4310
2026-01-24 10:07:31.64	353.30	33.48	-31.7	-33.6	11.6	1.06e-03	0	44	102	1048576	24	4462
2026-01-24 10:07:32.64	353.19	33.27	-31.9	-34.1	11.4	1.34e-03	0	44	102	1048576	24	4656
2026-01-24 10:07:33.64	353.08	33.07	-31.7	-33.7	11.6	5.89e-04	0	44	102	1048576	24	4507
2026-01-24 10:07:34.64	352.97	32.87	-31.7	-33.7	11.6	6.92e-04	0	44	102	1048576	24	4508
2026-01-24 10:07:35.64	352.87	32.67	-31.7	-34.2	11.6	9.05e-04	0	44	102	1048576	23	4791
2026-01-24 10:07:36.64	352.76	32.47	-31.4	-33.1	12.4	2.64e-04	0	44	102	1048576	23	4383
2026-01-24 10:07:37.64	352.66	32.27	-31.6	-33.6	12.0	2.59e-04	0	44	102	1048576	23	4575
2026-01-24 10:07:38.64	352.56	32.07	-31.4	-33.3	12.2	4.71e-04	0	44	102	1048576	23	4450
2026-01-24 10:07:39.65	352.45	31.88	-31.3	-33.0	12.4	1.58e-04	0	44	102	1048576	23	4362
2026-01-24 10:07:40.66	352.35	31.68	-31.3	-32.9	12.4	1.05e-04	0	44	102	1048576	23	4324
2026-01-24 10:07:41.66	352.26	31.49	-31.2	-32.7	12.6	1.16e-04	0	44	102	1048576	23	4263
2026-01-24 10:07:42.66	352.16	31.29	-31.6	-33.8	11.8	3.35e-04	0	44	102	1048576	23	4651
2026-01-24 10:07:43.66	352.06	31.10	-31.8	-33.9	11.4	1.11e-03	0	44	102	1048576	24	4592
2026-01-24 10:07:44.67	351.97	30.91	-32.0	-34.5	11.0	1.77e-03	0	44	102	1048576	24	4806
2026-01-24 10:07:45.68	351.87	30.72	-32.2	-35.2	10.4	2.43e-03	0	44	102	1048576	24	5086
2026-01-24 10:07:46.68	351.78	30.53	-32.3	-35.6	10.1	7.47e-03	0	44	102	1048576	24	5267
2026-01-24 10:07:47.69	351.69	30.34	-32.4	-35.3	9.9	1.15e-02	0	44	102	1048576	25	5059
2026-01-24 10:07:48.69	351.60	30.16	-32.7	-36.4	9.1	1.27e-02	0	44	102	1048576	25	5543
2026-01-24 10:07:49.70	351.51	29.97	-32.8	-37.1	8.5	2.04e-02	0	44	102	1048576	25	5905
2026-01-24 10:07:50.70	351.42	29.79	-32.9	-37.3	8.4	4.17e-02	0	44	102	1048576	25	6000
2026-01-24 10:07:51.70	351.33	29.61	-32.9	-37.2	8.4	3.31e-02	0	44	102	1048576	25	5966
2026-01-24 10:07:52.70	351.25	29.43	-32.7	-36.6	8.9	4.03e-02	0	44	102	1048576	25	5645
2026-01-24 10:07:53.70	351.16	29.25	-32.7	-36.6	8.9	2.75e-02	0	44	102	1048576	25	5659
2026-01-24 10:07:54.71	351.08	29.06	-32.8	-37.1	8.6	3.61e-02	0	44	102	1048576	25	5890
2026-01-24 10:07:55.71	350.99	28.89	-32.7	-36.5	9.0	2.65e-02	0	44	102	1048576	25	5618
2026-01-24 10:07:56.71	350.91	28.71	-32.7	-36.4	9.1	2.08e-02	0	44	102	1048576	25	5552
2026-01-24 10:07:57.71	350.83	28.53	-32.6	-36.3	9.1	1.75e-02	0	44	102	1048576	25	5509
2026-01-24 10:07:58.72	350.75	28.36	-32.5	-35.9	9.5	1.61e-02	0	44	102	1048576	25	5302
2026-01-24 10:07:59.72	350.67	28.18	-32.3	-35.1	10.0	1.41e-02	0	44	102	1048576	25	4975
2026-01-24 10:08:00.73	350.59	28.01	-32.2	-34.9	10.1	8.01e-03	0	44	102	1048576	25	4899
2026-01-24 10:08:01.73	350.51	27.84	-32.1	-34.3	10.6	4.07e-03	0	44	102	1048576	25	4681
2026-01-24 10:08:02.74	350.44	27.67	-31.7	-33.7	11.4	2.64e-03	0	44	102	1048576	24	4520
2026-01-24 10:08:03.75	350.36	27.50	-31.7	-33.7	11.4	1.27e-03	0	44	102	1048576	24	4523
2026-01-24 10:08:04.75	350.28	27.33	-31.8	-33.8	11.4	1.08e-03	0	44	102	1048576	24	4569
2026-01-24 10:08:05.76	350.21	27.16	-31.7	-33.8	11.4	1.01e-03	0	44	102	1048576	24	4545
2026-01-24 10:08:06.76	350.14	26.99	-31.6	-33.4	11.6	1.41e-03	0	44	102	1048576	24	4429
2026-01-24 10:08:07.77	350.06	26.82	-31.2	-32.6	12.5	1.33e-04	0	44	102	1048576	23	4239
2026-01-24 10:08:08.77	349.99	26.66	-30.9	-31.7	13.1	3.89e-05	0	44	102	1048576	23	3983
2026-01-24 10:08:09.78	349.92	26.49	-30.9	-31.9	13.0	3.43e-05	0	44	102	1048576	23	4029
2026-01-24 10:08:10.78	349.85	26.33	-30.9	-32.0	12.9	3.58e-05	0	44	102	1048576	23	4056
2026-01-24 10:08:11.79	349.78	26.17	-31.1	-32.5	12.6	6.40e-05	0	44	102	1048576	23	4208
2026-01-24 10:08:12.79	349.71	26.01	-31.4	-33.2	12.1	1.61e-04	0	44	102	1048576	23	4444
2026-01-24 10:08:13.79	349.64	25.85	-31.9	-34.9	10.9	1.19e-03	0	44	102	1048576	23	5076
2026-01-24 10:08:14.80	349.57	25.69	-32.0	-34.6	10.8	2.92e-03	0	44	102	1048576	24	4853
2026-01-24 10:08:15.80	349.51	25.53	-32.1	-34.9	10.5	2.76e-03	0	43	102	1048576	24	4987
2026-01-24 10:08:16.81	349.44	25.37	-32.6	-36.3	9.1	8.08e-03	0	44	102	1048576	25	5539
2026-01-24 10:08:17.82	349.38	25.21	-32.7	-36.7	8.8	2.71e-02	0	44	102	1048576	25	5739
2026-01-24 10:08:18.82	349.31	25.06	-33.1	-37.7	7.6	4.87e-02	0	44	102	1048576	26	6126
2026-01-24 10:08:19.82	349.25	24.90	-33.0	-37.4	7.9	9.00e-02	0	44	102	1048576	26	5951
2026-01-24 10:08:20.82	349.18	24.75	-33.0	-37.4	7.8	7.38e-02	0	44	102	1048576	26	5959
2026-01-24 10:08:21.83	349.12	24.59	-32.9	-37.0	8.3	6.68e-02	0	44	102	1048576	26	5748
2026-01-24 10:08:22.84	349.06	24.44	-32.8	-36.6	8.5	5.42e-02	0	44	102	1048576	26	5574
2026-01-24 10:08:23.84	349.00	24.29	-32.7	-36.0	9.0	2.64e-02	0	44	102	1048576	26	5295
2026-01-24 10:08:24.85	348.94	24.14	-32.6	-35.8	9.0	2.05e-02	0	44	102	1048576	26	5209
2026-01-24 10:08:25.85	348.88	23.99	-32.6	-35.7	9.2	2.47e-02	0	44	102	1048576	26	5161
2026-01-24 10:08:26.86	348.82	23.84	-32.6	-35.8	9.1	1.93e-02	0	44	102	1048576	26	5211
2026-01-24 10:08:27.86	348.76	23.69	-32.6	-35.8	9.0	2.61e-02	0	44	102	1048576	26	5223
2026-01-24 10:08:28.87	348.70	23.54	-32.3	-34.9	9.8	1.40e-02	0	44	102	1048576	26	4823
2026-01-24 10:08:29.87	348.64	23.39	-32.2	-34.9	10.2	6.49e-03	0	44	102	1048576	25	4908
2026-01-24 10:08:30.88	348.58	23.25	-32.1	-34.4	10.4	4.30e-03	0	44	102	1048576	25	4725
2026-01-24 10:08:31.89	348.53	23.10	-32.0	-34.2	10.6	3.89e-03	0	44	102	1048576	25	4658
2026-01-24 10:08:32.89	348.47	22.96	-32.0	-34.2	10.6	4.24e-03	0	44	102	1048576	25	4636
2026-01-24 10:08:33.90	348.41	22.81	-31.9	-34.1	10.7	3.05e-03	0	44	102	1048576	25	4585
2026-01-24 10:08:34.90	348.36	22.67	-32.2	-34.8	10.2	4.69e-03	0	44	102	1048576	25	4869
2026-01-24 10:08:35.91	348.30	22.53	-31.7	-33.9	11.2	4.61e-03	0	44	102	1048576	24	4604
2026-01-24 10:08:36.92	348.25	22.38	-31.4	-33.0	11.8	5.27e-04	0	44	102	1048576	24	4290
2026-01-24 10:08:37.92	348.20	22.24	-31.0	-32.3	12.6	2.40e-04	0	44	102	1048576	23	4167
2026-01-24 10:08:38.93	348.14	22.10	-30.8	-32.1	13.1	4.19e-05	0	44	102	1048576	22	4193
2026-01-24 10:08:39.93	348.09	21.97	-30.7	-31.8	13.3	2.36e-05	0	44	102	1048576	22	4110
2026-01-24 10:08:40.94	348.04	21.83	-30.3	-30.9	13.8	1.50e-06	0	44	102	1048576	22	3835
2026-01-24 10:08:41.93	347.99	21.69	-30.2	-31.1	14.0	1.50e-06	0	44	102	1048576	21	3979
2026-01-24 10:08:42.94	347.94	21.55	-30.4	-31.5	13.8	4.50e-06	0	44	102	1048576	21	4094
2026-01-24 10:08:43.94	347.89	21.42	-30.3	-31.3	13.9	5.30e-06	0	44	102	1048576	21	4047
2026-01-24 10:08:44.95	347.84	21.28	-30.3	-31.3	13.9	2.20e-06	0	44	102	1048576	21	4058
2026-01-24 10:08:45.95	347.79	21.15	-30.4	-31.6	13.7	5.30e-06	0	44	102	1048576	21	4118
2026-01-24 10:08:46.95	347.74	21.01	-30.5	-31.7	13.5	9.10e-06	0	44	102	1048576	21	4177
2026-01-24 10:08:47.96	347.69	20.88	-30.4	-31.5	13.7	6.80e-06	0	44	102	1048576	21	4118
2026-01-24 10:08:48.96	347.64	20.75	-30.7	-32.3	13.2	7.60e-06	0	44	102	1048576	21	4340
2026-01-24 10:08:49.96	347.59	20.61	-30.8	-32.6	13.0	3.20e-05	0	44	102	1048576	21	4440
2026-01-24 10:08:50.97	347.55	20.48	-30.6	-32.3	13.2	2.05e-05	0	44	102	1048576	21	4345
2026-01-24 10:08:51.97	347.50	20.35	-30.9	-33.0	12.7	4.04e-05	0	44	102	1048576	21	4583
2026-01-24 10:08:52.98	347.45	20.22	-31.0	-32.9	12.5	9.99e-05	0	44	102	1048576	22	4440
2026-01-24 10:08:53.98	347.41	20.09	-31.0	-32.7	12.6	6.71e-05	0	44	102	1048576	22	4377
2026-01-24 10:08:54.99	347.36	19.96	-31.1	-32.9	12.4	1.07e-04	0	44	102	1048576	22	4471
2026-01-24 10:08:56.00	347.32	19.83	-31.1	-33.1	12.4	1.40e-04	0	44	102	1048576	22	4536
2026-01-24 10:08:57.00	347.27	19.71	-31.0	-32.9	12.4	1.23e-04	0	44	102	1048576	22	4463
2026-01-24 10:08:58.00	347.23	19.58	-31.1	-33.1	12.3	1.54e-04	0	44	102	1048576	22	4515
2026-01-24 10:08:59.01	347.18	19.45	-31.1	-33.1	12.3	1.96e-04	0	44	102	1048576	22	4515
2026-01-24 10:09:00.01	347.14	19.33	-31.1	-33.1	12.4	1.75e-04	0	44	102	1048576	22	4522
2026-01-24 10:09:01.02	347.10	19.20	-31.1	-33.1	12.3	1.75e-04	0	44	102	1048576	22	4533
2026-01-24 10:09:02.02	347.05	19.08	-31.3	-33.6	11.9	3.62e-04	0	44	102	1048576	22	4697
2026-01-24 10:09:03.02	347.01	18.95	-31.3	-33.8	11.8	3.08e-04	0	44	102	1048576	22	4792
2026-01-24 10:09:04.02	346.97	18.83	-31.5	-33.9	11.4	7.84e-04	0	44	102	1048576	23	4740
2026-01-24 10:09:05.03	346.93	18.71	-31.4	-33.5	11.6	8.41e-04	0	44	102	1048576	23	4602
2026-01-24 10:09:06.03	346.89	18.59	-31.3	-33.3	11.7	5.42e-04	0	44	102	1048576	23	4528
2026-01-24 10:09:07.03	346.85	18.47	-31.6	-34.2	11.1	1.27e-03	0	44	102	1048576	23	4835
2026-01-24 10:09:08.04	346.81	18.34	-31.5	-33.9	11.3	1.16e-03	0	44	102	1048576	23	4746
2026-01-24 10:09:09.05	346.77	18.22	-31.6	-34.1	11.2	1.65e-03	0	44	102	1048576	23	4799
2026-01-24 10:09:10.05	346.73	18.10	-31.6	-34.2	11.1	1.62e-03	0	44	102	1048576	23	4858
2026-01-24 10:09:11.05	346.69	17.99	-31.6	-34.2	11.1	1.66e-03	0	44	102	1048576	23	4836
2026-01-24 10:09:12.06	346.65	17.87	-31.4	-33.4	11.6	1.11e-03	0	44	102	1048576	23	4537
2026-01-24 10:09:13.06	346.61	17.75	-31.3	-33.3	11.7	5.94e-04	0	44	102	1048576	23	4536
2026-01-24 10:09:14.07	346.57	17.63	-31.4	-33.4	11.6	7.00e-04	0	44	102	1048576	23	4571
2026-01-24 10:09:15.07	346.53	17.51	-31.2	-32.8	12.0	3.76e-04	0	44	102	1048576	23	4362
2026-01-24 10:09:16.08	346.49	17.40	-31.1	-32.7	12.1	2.75e-04	0	44	102	1048576	23	4334
2026-01-24 10:09:17.08	346.46	17.28	-31.2	-32.8	12.0	3.42e-04	0	44	102	1048576	23	4350
2026-01-24 10:09:18.08	346.42	17.17	-30.9	-32.1	12.5	1.46e-04	0	44	102	1048576	23	4138
2026-01-24 10:09:19.09	346.38	17.05	-30.7	-32.1	12.8	8.16e-05	0	44	102	1048576	22	4209
2026-01-24 10:09:20.09	346.35	16.94	-30.7	-32.2	12.8	3.73e-05	0	44	102	1048576	22	4231
2026-01-24 10:09:21.10	346.31	16.82	-30.9	-32.7	12.4	1.11e-04	0	44	102	1048576	22	4402
2026-01-24 10:09:22.11	346.27	16.71	-30.7	-32.1	12.8	8.54e-05	0	44	102	1048576	22	4197
2026-01-24 10:09:23.11	346.24	16.60	-30.7	-31.9	13.0	5.95e-05	0	44	102	1048576	22	4154
2026-01-24 10:09:24.12	346.20	16.48	-30.9	-32.7	12.4	1.02e-04	0	44	102	1048576	22	4405
2026-01-24 10:09:25.12	346.17	16.37	-30.9	-32.6	12.5	9.99e-05	0	44	102	1048576	22	4367
2026-01-24 10:09:26.13	346.13	16.26	-30.9	-32.7	12.4	7.32e-05	0	44	102	1048576	22	4401
2026-01-24 10:09:27.14	346.10	16.15	-31.1	-33.1	12.1	2.55e-04	0	44	102	1048576	22	4562
2026-01-24 10:09:28.14	346.06	16.04	-31.2	-33.5	11.8	4.91e-04	0	44	102	1048576	22	4681
2026-01-24 10:09:29.15	346.03	15.93	-31.4	-34.0	11.4	5.79e-04	0	44	102	1048576	22	4886
2026-01-24 10:09:30.15	346.00	15.82	-31.4	-34.2	11.3	8.38e-04	0	44	102	1048576	22	4942
2026-01-24 10:09:31.16	345.96	15.71	-31.7	-34.4	10.7	2.30e-03	0	44	102	1048576	23	4965
2026-01-24 10:09:32.17	345.93	15.60	-31.6	-34.3	10.8	2.22e-03	0	44	102	1048576	23	4913
2026-01-24 10:09:33.17	345.90	15.49	-31.9	-35.2	10.2	3.36e-03	0	44	102	1048576	23	5291
2026-01-24 10:09:34.18	345.86	15.39	-31.8	-34.8	10.4	5.14e-03	0	44	102	1048576	23	5133
2026-01-24 10:09:35.19	345.83	15.28	-31.7	-34.6	10.6	4.22e-03	0	44	102	1048576	23	5044
2026-01-24 10:09:36.19	345.80	15.17	-31.9	-35.1	10.2	7.22e-03	0	44	102	1048576	23	5248
2026-01-24 10:09:37.18	345.77	15.07	-31.8	-35.1	10.2	6.57e-03	0	44	102	1048576	23	5249
2026-01-24 10:09:38.19	345.74	14.96	-31.9	-35.4	10.1	6.23e-03	0	44	102	1048576	23	5383
2026-01-24 10:09:39.19	345.70	14.86	-31.9	-35.5	9.9	9.21e-03	0	44	102	1048576	23	5418
2026-01-24 10:09:40.20	345.67	14.75	-31.8	-35.1	10.1	7.31e-03	0	44	102	1048576	23	5271
2026-01-24 10:09:41.20	345.64	14.65	-31.8	-35.0	10.2	6.23e-03	0	44	102	1048576	23	5209
2026-01-24 10:09:42.21	345.61	14.54	-31.8	-34.9	10.4	4.88e-03	0	44	102	1048576	23	5141
2026-01-24 10:09:43.21	345.58	14.44	-31.6	-34.2	10.8	2.82e-03	0	44	102	1048576	23	4900
2026-01-24 10:09:44.22	345.55	14.34	-31.7	-34.6	10.6	2.30e-03	0	44	102	1048576	23	5032
2026-01-24 10:09:45.22	345.52	14.24	-31.6	-34.4	10.7	2.74e-03	0	44	102	1048576	23	4970
2026-01-24 10:09:46.22	345.49	14.13	-31.5	-34.0	11.0	2.41e-03	0	44	102	1048576	23	4797
2026-01-24 10:09:47.22	345.46	14.03	-31.4	-33.6	11.3	1.72e-03	0	44	102	1048576	23	4654
2026-01-24 10:09:48.23	345.43	13.93	-31.4	-33.7	11.2	1.42e-03	0	44	102	1048576	23	4697
2026-01-24 10:09:49.23	345.40	13.83	-31.3	-33.3	11.5	1.49e-03	0	44	102	1048576	23	4547
2026-01-24 10:09:50.24	345.38	13.73	-31.3	-33.5	11.3	1.19e-03	0	44	102	1048576	23	4625
2026-01-24 10:09:51.24	345.35	13.63	-31.3	-33.5	11.3	1.28e-03	0	44	102	1048576	23	4624
2026-01-24 10:09:52.25	345.32	13.53	-31.4	-33.7	11.2	1.08e-03	0	44	102	1048576	23	4701
2026-01-24 10:09:53.25	345.29	13.43	-31.3	-33.3	11.4	1.04e-03	0	44	102	1048576	23	4566
2026-01-24 10:09:54.26	345.26	13.33	-31.2	-33.2	11.5	9.77e-04	0	43	102	1048576	23	4536
2026-01-24 10:09:55.27	345.23	13.23	-31.3	-33.5	11.3	1.24e-03	0	44	102	1048576	23	4633
2026-01-24 10:09:56.28	345.21	13.13	-31.3	-33.3	11.4	1.37e-03	0	44	102	1048576	23	4550
2026-01-24 10:09:57.28	345.18	13.04	-31.3	-33.5	11.3	1.03e-03	0	44	102	1048576	23	4619
2026-01-24 10:09:58.28	345.15	12.94	-31.6	-34.3	10.7	2.20e-03	0	44	102	1048576	23	4944
2026-01-24 10:09:59.29	345.13	12.84	-31.5	-34.0	10.9	2.44e-03	0	44	102	1048576	23	4825
2026-01-24 10:10:00.29	345.10	12.75	-31.5	-34.1	10.8	1.73e-03	0	44	102	1048576	23	4848
2026-01-24 10:10:01.29	345.07	12.65	-31.6	-34.5	10.5	4.02e-03	0	44	102	1048576	23	5028
2026-01-24 10:10:02.29	345.05	12.56	-31.6	-34.3	10.6	4.85e-03	0	44	102	1048576	23	4948
2026-01-24 10:10:03.30	345.02	12.46	-31.6	-34.6	10.4	3.23e-03	0	44	102	1048576	23	5074
2026-01-24 10:10:04.31	344.99	12.36	-31.8	-35.1	10.0	7.68e-03	0	44	102	1048576	23	5272
2026-01-24 10:10:05.31	344.97	12.27	-31.8	-35.2	9.9	7.95e-03	0	44	102	1048576	23	5340
2026-01-24 10:10:06.31	344.94	12.18	-31.9	-35.4	9.8	9.19e-03	0	44	102	1048576	23	5425
2026-01-24 10:10:07.31	344.92	12.08	-31.8	-35.1	9.9	9.34e-03	0	44	102	1048576	23	5293
2026-01-24 10:10:08.32	344.89	11.99	-31.6	-34.7	10.3	6.18e-03	0	44	102	1048576	23	5112
2026-01-24 10:10:09.32	344.87	11.89	-31.7	-34.7	10.3	5.69e-03	0	44	102	1048576	23	5123
2026-01-24 10:10:10.33	344.84	11.80	-31.5	-34.3	10.6	4.99e-03	0	44	102	1048576	23	4956
2026-01-24 10:10:11.34	344.82	11.71	-31.7	-34.9	10.2	4.71e-03	0	44	102	1048576	23	5181
2026-01-24 10:10:12.35	344.79	11.62	-31.7	-35.0	10.0	8.63e-03	0	44	102	1048576	23	5246
2026-01-24 10:10:13.35	344.77	11.52	-31.6	-34.7	10.3	5.40e-03	0	44	102	1048576	23	5105
2026-01-24 10:10:14.36	344.75	11.43	-31.6	-34.7	10.3	5.78e-03	0	44	102	1048576	23	5104
2026-01-24 10:10:15.36	344.72	11.34	-31.8	-35.1	10.0	8.62e-03	0	44	102	1048576	23	5287
2026-01-24 10:10:16.37	344.70	11.25	-31.7	-35.0	10.0	8.19e-03	0	44	102	1048576	23	5253
2026-01-24 10:10:17.37	344.68	11.16	-31.6	-34.7	10.2	5.90e-03	0	44	102	1048576	23	5105
2026-01-24 10:10:18.38	344.65	11.07	-31.7	-34.8	10.1	6.23e-03	0	44	102	1048576	23	5174
2026-01-24 10:10:19.38	344.63	10.98	-31.7	-34.9	10.0	7.26e-03	0	44	102	1048576	23	5194
2026-01-24 10:10:20.39	344.61	10.89	-31.7	-34.8	10.1	6.05e-03	0	44	102	1048576	23	5182
2026-01-24 10:10:21.39	344.58	10.80	-31.7	-34.8	10.0	6.37e-03	0	44	102	1048576	23	5194
2026-01-24 10:10:22.40	344.56	10.71	-31.7	-34.9	10.0	8.09e-03	0	44	102	1048576	23	5198
2026-01-24 10:10:23.40	344.54	10.62	-31.6	-34.5	10.3	6.49e-03	0	44	102	1048576	23	5047
2026-01-24 10:10:24.41	344.52	10.53	-31.6	-34.7	10.1	5.67e-03	0	44	102	1048576	23	5146
2026-01-24 10:10:25.41	344.49	10.45	-31.7	-34.8	10.0	6.26e-03	0	44	102	1048576	23	5197
2026-01-24 10:10:26.41	344.47	10.36	-31.6	-34.9	10.0	7.56e-03	0	44	102	1048576	23	5206
2026-01-24 10:10:27.41	344.45	10.27	-31.7	-34.9	10.0	8.27e-03	0	44	102	1048576	23	5218
2026-01-24 10:10:28.42	344.43	10.18	-31.6	-34.8	10.0	7.34e-03	0	44	102	1048576	23	5182
2026-01-24 10:10:29.42	344.41	10.10	-31.8	-35.3	9.7	1.07e-02	0	44	102	1048576	23	5399
2026-01-24 10:10:30.43	344.39	10.01	-31.6	-34.6	10.2	9.79e-03	0	44	102	1048576	23	5099
2026-01-24 10:10:31.44	344.36	9.92	-31.6	-34.8	9.9	8.61e-03	0	44	102	1048576	23	5207
2026-01-24 10:10:32.44	344.34	9.84	-31.6	-34.9	9.9	8.62e-03	0	44	102	1048576	23	5238
2026-01-24 10:10:33.45	344.32	9.75	-31.7	-34.9	9.9	7.72e-03	0	44	102	1048576	23	5238
2026-01-24 10:10:34.46	344.30	9.67	-31.7	-35.2	9.7	1.07e-02	0	44	102	1048576	23	5365
2026-01-24 10:10:35.47	344.28	9.58	-31.8	-35.3	9.5	1.19e-02	0	44	102	1048576	23	5438
2026-01-24 10:10:36.47	344.26	9.50	-31.7	-35.1	9.7	1.27e-02	0	44	102	1048576	23	5335
2026-01-24 10:10:37.48	344.24	9.41	-31.8	-35.4	9.4	1.53e-02	0	44	102	1048576	23	5479
2026-01-24 10:10:38.48	344.22	9.33	-31.7	-35.0	9.7	1.06e-02	0	44	102	1048576	23	5297
2026-01-24 10:10:39.47	344.20	9.25	-31.6	-34.6	10.1	7.60e-03	0	44	102	1048576	23	5126
2026-01-24 10:10:40.48	344.18	9.16	-31.6	-35.0	9.8	7.97e-03	0	44	102	1048576	23	5273
2026-01-24 10:10:41.48	344.16	9.08	-31.5	-34.5	10.0	9.86e-03	0	44	102	1048576	23	5089
