passes_logs/2025/01/03/XPeterburg/XPeterburg__20250103_090951_FENGYUN_3F_rec.log

#Pass ID: 20250103_090951_FENGYUN 3F
#Satellite: FENGYUN 3F
#Configuration: FENGYUN 3F
#Start time: 2025-01-03 09:09:45

#Version: 1.5.20200625
#Station: XPeterburg
#Location: 30.318091 lon 59.932769 lat
#TLE: 1 57490U 23111A   24362.10123181  .00000257  00000+0  14143-3 0  9996
#TLE: 2 57490  98.7496  69.2589 0000397 146.4022 213.7180 14.19963369 72649

#Time	Az	El	Level	Level2	SNR	BER	Gain	Gain2
2025-01-03 09:09:45.46	24.90	67.61	-38.7	-41.1	3.3	8385601	94	6555
2025-01-03 09:09:45.66	24.93	67.70	-37.4	-59.9	2.8	6412811	46	65534
2025-01-03 09:09:45.86	24.96	67.79	-38.3	-51.7	3.5	8311740	73	23008
2025-01-03 09:09:46.07	24.99	67.88	-38.7	-41.2	3.3	8402709	94	6612
2025-01-03 09:09:46.27	25.02	67.97	-38.7	-41.1	3.3	8402709	94	6551
2025-01-03 09:09:46.47	25.05	68.06	-38.6	-42.6	3.6	8388278	94	7753
2025-01-03 09:09:46.67	25.07	68.16	-38.7	-42.7	3.6	8425769	94	7819
2025-01-03 09:09:46.87	25.10	68.25	-38.7	-41.5	3.4	8381412	94	6799
2025-01-03 09:09:47.07	25.13	68.34	-38.7	-41.2	3.3	8397216	94	6589
2025-01-03 09:09:47.27	25.16	68.43	-38.9	-42.6	3.6	8391998	95	7527
2025-01-03 09:09:47.47	25.19	68.52	-38.9	-42.6	3.6	8374820	95	7550
2025-01-03 09:09:47.67	25.22	68.61	-38.9	-41.5	3.4	8422050	95	6667
2025-01-03 09:09:47.87	25.25	68.70	-38.9	-41.1	3.3	8422050	95	6362
2025-01-03 09:09:48.08	25.28	68.80	-38.9	-41.1	3.3	8399471	95	6366
2025-01-03 09:09:48.28	25.32	68.89	-38.9	-42.6	3.6	8403133	95	7585
2025-01-03 09:09:48.48	25.35	68.98	-38.9	-41.7	3.4	8441253	95	6836
2025-01-03 09:09:48.68	25.38	69.07	-38.9	-41.1	3.3	8425231	95	6334
2025-01-03 09:09:48.88	25.41	69.16	-38.9	-41.1	3.3	8397583	95	6396
2025-01-03 09:09:49.08	25.44	69.25	-38.9	-42.6	3.6	8400238	95	7578
2025-01-03 09:09:49.28	25.47	69.35	-38.9	-42.0	3.5	8442592	95	7021
2025-01-03 09:09:49.48	25.51	69.44	-38.9	-41.2	3.3	8408214	95	6440
2025-01-03 09:09:49.68	25.54	69.53	-38.9	-41.1	3.3	8408214	95	6362
2025-01-03 09:09:49.88	25.57	69.62	-38.9	-42.5	3.6	8395534	95	7469
2025-01-03 09:09:50.09	25.61	69.72	-39.0	-42.2	3.6	8417713	96	7162
2025-01-03 09:09:50.29	25.64	69.81	-39.0	-41.1	3.4	8387157	96	6312
2025-01-03 09:09:50.49	25.68	69.90	-39.0	-40.8	3.3	8402618	96	6054
2025-01-03 09:09:50.69	25.71	69.99	-38.9	-42.6	3.6	8388015	95	7538
2025-01-03 09:09:50.89	25.75	70.09	-38.9	-42.5	3.6	8375324	95	7465
2025-01-03 09:09:51.09	25.78	70.18	-38.9	-41.6	3.4	8431022	95	6738
2025-01-03 09:09:51.29	25.82	70.27	-38.9	-41.1	3.3	8431022	95	6370
2025-01-03 09:09:51.49	25.85	70.36	-38.9	-41.1	3.3	8399402	95	6347
2025-01-03 09:09:51.69	25.89	70.46	-38.9	-42.5	3.6	8414245	95	7479
2025-01-03 09:09:51.90	25.93	70.55	-38.8	-41.7	3.4	8437374	95	6835
2025-01-03 09:09:52.10	25.97	70.65	-38.9	-41.0	3.3	8421684	95	6325
2025-01-03 09:09:52.30	26.00	70.74	-38.9	-41.1	3.3	8395442	95	6340
2025-01-03 09:09:52.50	26.04	70.83	-38.9	-42.5	3.6	8415424	95	7479
2025-01-03 09:09:52.70	26.08	70.93	-38.9	-42.0	3.5	8447811	95	7022
2025-01-03 09:09:52.90	26.12	71.02	-38.9	-41.1	3.3	8447811	95	6400
2025-01-03 09:09:53.10	26.16	71.11	-38.9	-41.1	3.3	8418354	95	6320
2025-01-03 09:09:53.30	26.20	71.21	-38.9	-42.6	3.6	8394012	95	7539
2025-01-03 09:09:53.50	26.24	71.30	-38.9	-42.3	3.6	8423274	95	7279
2025-01-03 09:09:53.71	26.28	71.40	-38.9	-41.2	3.3	8426834	95	6392
2025-01-03 09:09:53.91	26.32	71.49	-38.9	-41.1	3.3	8402286	95	6357
2025-01-03 09:09:54.11	26.36	71.59	-38.9	-42.5	3.6	8390830	95	7470
2025-01-03 09:09:54.31	26.40	71.68	-38.9	-42.3	3.6	8437397	95	7278
2025-01-03 09:09:54.51	26.44	71.77	-38.9	-41.3	3.4	8432418	95	6533
2025-01-03 09:09:54.71	26.49	71.87	-38.9	-41.1	3.3	8402538	95	6351
2025-01-03 09:09:54.91	26.53	71.96	-38.9	-42.5	3.6	8399036	95	7504
2025-01-03 09:09:55.11	26.57	72.06	-38.9	-42.6	3.6	8399036	95	7523
2025-01-03 09:09:55.31	26.62	72.15	-38.9	-41.5	3.4	8448875	95	6635
2025-01-03 09:09:55.51	26.66	72.24	-38.9	-41.1	3.3	8414382	95	6333
2025-01-03 09:09:55.71	26.71	72.34	-38.9	-41.1	3.3	8386711	95	6361
2025-01-03 09:09:55.91	26.75	72.43	-38.9	-42.6	3.6	8405158	95	7543
2025-01-03 09:09:56.12	26.80	72.53	-38.9	-41.8	3.4	8424144	95	6858
2025-01-03 09:09:56.32	26.85	72.63	-38.9	-41.2	3.3	8414646	95	6399
2025-01-03 09:09:56.52	26.89	72.72	-38.9	-41.2	3.3	8384971	95	6423
2025-01-03 09:09:56.72	26.94	72.81	-38.9	-42.5	3.6	8384971	95	7477
2025-01-03 09:09:56.92	26.99	72.91	-38.9	-42.0	3.5	8425632	95	7061
2025-01-03 09:09:57.12	27.04	73.00	-38.9	-41.1	3.3	8448017	95	6388
2025-01-03 09:09:57.32	27.09	73.10	-38.9	-41.1	3.3	8403476	95	6359
2025-01-03 09:09:57.52	27.14	73.19	-38.9	-42.6	3.6	8381927	95	7530
2025-01-03 09:09:57.72	27.19	73.29	-38.9	-42.3	3.6	8435440	95	7297
2025-01-03 09:09:57.93	27.24	73.39	-38.9	-41.3	3.3	8423995	95	6515
2025-01-03 09:09:58.13	27.29	73.48	-38.9	-41.1	3.3	8396381	95	6386
2025-01-03 09:09:58.33	27.34	73.58	-38.9	-42.6	3.6	8396381	95	7517
2025-01-03 09:09:58.53	27.40	73.67	-38.9	-42.6	3.6	8399826	95	7513
2025-01-03 09:09:58.73	27.45	73.77	-39.0	-41.3	3.4	8375095	96	6425
2025-01-03 09:09:58.93	27.50	73.86	-39.0	-40.8	3.3	8426582	96	6071
2025-01-03 09:09:59.13	27.56	73.96	-39.0	-40.8	3.3	8393016	96	6090
2025-01-03 09:09:59.33	27.61	74.06	-38.9	-42.5	3.6	8351200	95	7520
2025-01-03 09:09:59.53	27.67	74.15	-38.9	-41.8	3.5	8434375	95	6886
2025-01-03 09:09:59.73	27.73	74.25	-38.9	-41.1	3.3	8414531	95	6350
2025-01-03 09:09:59.94	27.79	74.35	-38.9	-41.1	3.3	8394996	95	6358
2025-01-03 09:10:00.14	27.85	74.44	-38.9	-42.6	3.6	8394996	95	7553
2025-01-03 09:10:00.34	27.90	74.54	-38.8	-42.0	3.5	8425209	95	7114
2025-01-03 09:10:00.54	27.96	74.63	-38.8	-41.1	3.3	8384044	95	6429
2025-01-03 09:10:00.74	28.02	74.73	-38.8	-41.0	3.3	8397628	95	6341
2025-01-03 09:10:00.94	28.09	74.83	-38.8	-41.9	3.6	8395648	96	7022
2025-01-03 09:10:01.14	28.15	74.92	-38.8	-41.8	3.6	8375896	96	6965
2025-01-03 09:10:01.34	28.21	75.02	-38.8	-40.7	3.4	8428012	96	6144
2025-01-03 09:10:01.54	28.28	75.11	-38.8	-40.5	3.3	8393405	96	5984
2025-01-03 09:10:01.74	28.34	75.21	-38.8	-41.9	3.6	8393405	96	7026
2025-01-03 09:10:01.95	28.41	75.31	-38.8	-41.9	3.6	8399024	96	7046
2025-01-03 09:10:02.15	28.48	75.41	-38.8	-40.9	3.4	8440349	96	6237
2025-01-03 09:10:02.35	28.54	75.50	-38.8	-40.5	3.3	8418411	96	5981
2025-01-03 09:10:02.55	28.61	75.60	-38.8	-40.5	3.3	8394401	96	5980
2025-01-03 09:10:02.75	28.68	75.70	-38.8	-42.0	3.6	8427154	96	7062
2025-01-03 09:10:02.95	28.75	75.79	-38.8	-41.1	3.4	8437683	96	6405
2025-01-03 09:10:03.15	28.82	75.89	-38.8	-40.6	3.3	8413570	96	6020
2025-01-03 09:10:03.35	28.89	75.99	-38.8	-40.5	3.3	8383586	96	5974
2025-01-03 09:10:03.55	28.97	76.08	-38.8	-41.9	3.6	8383586	96	7021
2025-01-03 09:10:03.76	29.04	76.19	-38.8	-41.1	3.4	8433883	96	6403
2025-01-03 09:10:03.96	29.12	76.28	-38.8	-40.5	3.3	8433883	96	5967
2025-01-03 09:10:04.16	29.20	76.38	-38.8	-40.5	3.3	8400936	96	5943
2025-01-03 09:10:04.36	29.27	76.48	-38.8	-42.0	3.6	8396392	96	7072
2025-01-03 09:10:04.56	29.35	76.57	-38.8	-41.3	3.5	8439388	96	6546
2025-01-03 09:10:04.76	29.43	76.67	-38.8	-40.5	3.3	8437969	96	5971
2025-01-03 09:10:04.96	29.51	76.77	-38.8	-40.5	3.3	8384914	96	5971
2025-01-03 09:10:05.16	29.60	76.86	-38.8	-42.0	3.6	8403648	96	7070
2025-01-03 09:10:05.36	29.68	76.96	-38.8	-41.7	3.6	8441928	96	6865
2025-01-03 09:10:05.56	29.76	77.06	-38.8	-40.7	3.4	8441928	96	6124
2025-01-03 09:10:05.76	29.85	77.15	-38.8	-40.5	3.3	8423423	96	5994
2025-01-03 09:10:05.96	29.94	77.25	-38.8	-41.9	3.6	8386928	96	7017
2025-01-03 09:10:06.17	30.03	77.35	-38.8	-42.0	3.6	8416191	96	7059
2025-01-03 09:10:06.37	30.12	77.45	-38.8	-40.9	3.4	8444515	96	6272
2025-01-03 09:10:06.57	30.21	77.55	-38.8	-40.5	3.3	8409793	96	5949
2025-01-03 09:10:06.77	30.31	77.64	-38.8	-40.5	3.3	8404472	96	5930
2025-01-03 09:10:06.97	30.40	77.74	-38.8	-41.9	3.6	8425964	96	7041
2025-01-03 09:10:07.17	30.50	77.84	-38.8	-41.1	3.4	8425964	96	6369
2025-01-03 09:10:07.37	30.60	77.94	-38.8	-40.5	3.3	8431011	96	5976
2025-01-03 09:10:07.57	30.70	78.03	-38.8	-40.5	3.3	8402812	96	5949
2025-01-03 09:10:07.77	30.80	78.13	-38.8	-41.9	3.6	8402629	96	7000
2025-01-03 09:10:07.97	30.90	78.23	-38.8	-41.4	3.5	8438438	96	6632
2025-01-03 09:10:08.17	31.00	78.33	-38.8	-40.6	3.3	8424568	96	6014
2025-01-03 09:10:08.38	31.12	78.43	-38.8	-40.5	3.3	8398429	96	5958
2025-01-03 09:10:08.58	31.22	78.53	-38.8	-41.9	3.6	8406120	96	7052
2025-01-03 09:10:08.78	31.33	78.62	-38.8	-41.7	3.6	8446117	96	6849
2025-01-03 09:10:08.98	31.45	78.72	-38.8	-40.7	3.4	8446117	96	6113
2025-01-03 09:10:09.18	31.56	78.82	-38.8	-40.4	3.3	8415241	96	5931
2025-01-03 09:10:09.38	31.68	78.92	-38.8	-41.9	3.6	8396633	96	7034
2025-01-03 09:10:09.58	31.79	79.01	-38.8	-41.9	3.6	8417507	96	6995
2025-01-03 09:10:09.78	31.92	79.11	-38.8	-40.9	3.4	8436641	96	6243
2025-01-03 09:10:09.98	32.04	79.21	-38.8	-40.5	3.3	8409748	96	5952
2025-01-03 09:10:10.19	32.17	79.31	-38.8	-40.5	3.3	8399917	96	5973
2025-01-03 09:10:10.39	32.30	79.41	-38.8	-41.9	3.6	8435943	96	7028
2025-01-03 09:10:10.59	32.43	79.51	-38.8	-41.2	3.4	8435943	96	6449
2025-01-03 09:10:10.79	32.56	79.60	-38.8	-40.5	3.3	8440086	96	5975
2025-01-03 09:10:10.99	32.69	79.70	-38.8	-40.5	3.3	8401794	96	5957
2025-01-03 09:10:11.19	32.83	79.80	-38.8	-41.9	3.6	8384937	96	7041
2025-01-03 09:10:11.39	32.97	79.90	-38.8	-41.3	3.5	8447811	96	6584
2025-01-03 09:10:11.59	33.11	79.99	-38.8	-40.5	3.3	8422519	96	6011
2025-01-03 09:10:11.79	33.26	80.09	-38.8	-40.5	3.3	8392650	96	5953
2025-01-03 09:10:11.99	33.41	80.19	-38.8	-41.9	3.6	8405525	96	7018
2025-01-03 09:10:12.19	33.56	80.29	-38.8	-41.7	3.6	8435634	96	6876
2025-01-03 09:10:12.40	33.72	80.39	-38.8	-40.7	3.4	8435634	96	6128
2025-01-03 09:10:12.60	33.88	80.49	-38.8	-40.5	3.3	8416934	96	5960
2025-01-03 09:10:12.80	34.04	80.58	-38.8	-41.9	3.6	8387008	96	7009
2025-01-03 09:10:13.00	34.21	80.68	-38.8	-41.9	3.6	8420528	96	7027
2025-01-03 09:10:13.20	34.37	80.78	-38.8	-41.0	3.4	8442581	96	6295
2025-01-03 09:10:13.40	34.55	80.87	-38.8	-40.5	3.3	8393589	96	5979
2025-01-03 09:10:13.60	34.72	80.97	-38.8	-40.5	3.3	8394104	96	5951
2025-01-03 09:10:13.80	34.90	81.07	-38.8	-41.9	3.6	8435714	96	7008
2025-01-03 09:10:14.00	35.08	81.17	-38.8	-41.2	3.5	8435714	96	6442
2025-01-03 09:10:14.20	35.27	81.26	-38.9	-40.5	3.3	8374706	96	5982
2025-01-03 09:10:14.40	35.46	81.36	-38.9	-40.5	3.3	8408729	96	5927
2025-01-03 09:10:14.61	35.67	81.46	-38.8	-42.0	3.6	8373390	96	7067
2025-01-03 09:10:14.81	35.87	81.56	-38.9	-41.5	3.5	8402732	96	6604
2025-01-03 09:10:15.01	36.08	81.66	-38.9	-40.7	3.3	8373115	96	6064
2025-01-03 09:10:15.21	36.29	81.75	-38.9	-40.7	3.3	8382133	96	6033
2025-01-03 09:10:15.41	36.50	81.85	-38.8	-41.9	3.6	8336277	96	7041
2025-01-03 09:10:15.61	36.72	81.95	-38.8	-41.9	3.6	8455032	96	6998
2025-01-03 09:10:15.81	36.95	82.04	-38.8	-40.8	3.4	8432006	96	6162
2025-01-03 09:10:16.01	37.18	82.14	-38.8	-40.5	3.3	8432006	96	6015
2025-01-03 09:10:16.21	37.42	82.24	-38.8	-41.9	3.6	8391357	96	7013
2025-01-03 09:10:16.41	37.66	82.33	-38.8	-42.0	3.6	8415229	96	7054
2025-01-03 09:10:16.61	37.91	82.43	-38.8	-40.9	3.4	8444961	96	6242
2025-01-03 09:10:16.82	38.18	82.53	-38.8	-40.5	3.3	8406246	96	5992
2025-01-03 09:10:17.02	38.45	82.63	-38.8	-40.5	3.3	8377189	96	5945
2025-01-03 09:10:17.22	38.72	82.72	-38.8	-41.9	3.6	8430164	96	7041
2025-01-03 09:10:17.42	38.99	82.82	-38.8	-41.2	3.4	8449035	96	6432
2025-01-03 09:10:17.62	39.28	82.91	-38.8	-40.5	3.3	8408226	96	5960
2025-01-03 09:10:17.82	39.57	83.01	-38.8	-40.5	3.3	8408226	96	5988
2025-01-03 09:10:18.02	39.87	83.10	-38.8	-41.9	3.6	8397525	96	7029
2025-01-03 09:10:18.22	40.18	83.20	-38.8	-41.3	3.5	8461086	96	6534
2025-01-03 09:10:18.42	40.50	83.29	-38.8	-40.5	3.3	8427429	96	6014
2025-01-03 09:10:18.62	40.83	83.39	-38.8	-40.5	3.3	8400718	96	5974
2025-01-03 09:10:18.82	41.17	83.48	-38.8	-42.0	3.6	8385841	96	7082
2025-01-03 09:10:19.03	41.53	83.58	-38.8	-41.7	3.6	8446346	96	6824
2025-01-03 09:10:19.23	41.89	83.68	-38.8	-40.7	3.4	8431961	96	6105
2025-01-03 09:10:19.43	42.26	83.77	-38.8	-40.5	3.3	8431961	96	5981
2025-01-03 09:10:19.63	42.64	83.86	-38.8	-41.9	3.6	8402355	96	7008
2025-01-03 09:10:19.83	43.03	83.96	-38.8	-41.9	3.6	8420585	96	7027
2025-01-03 09:10:20.03	43.44	84.05	-38.8	-40.9	3.4	8448692	96	6252
2025-01-03 09:10:20.23	43.86	84.14	-38.8	-40.5	3.3	8422119	96	5944
2025-01-03 09:10:20.43	44.29	84.24	-38.8	-40.5	3.3	8388164	96	5951
2025-01-03 09:10:20.63	44.73	84.33	-38.8	-41.9	3.6	8425323	96	7023
2025-01-03 09:10:20.84	45.22	84.42	-38.8	-41.0	3.4	8435623	96	6365
2025-01-03 09:10:21.04	45.69	84.52	-38.8	-40.5	3.3	8435623	96	5964
2025-01-03 09:10:21.24	46.18	84.61	-38.8	-40.5	3.3	8398166	96	5981
2025-01-03 09:10:21.44	46.69	84.70	-38.8	-41.9	3.6	8379329	96	7042
2025-01-03 09:10:21.64	47.22	84.79	-38.9	-41.7	3.5	8435920	96	6767
2025-01-03 09:10:21.84	47.77	84.88	-39.0	-40.9	3.3	8378608	96	6172
2025-01-03 09:10:22.04	48.33	84.97	-38.9	-40.8	3.3	8389011	96	6075
2025-01-03 09:10:22.24	48.92	85.06	-38.8	-42.0	3.6	8341426	96	7071
2025-01-03 09:10:22.44	49.53	85.15	-38.8	-41.9	3.6	8434478	96	7018
2025-01-03 09:10:22.64	50.16	85.23	-38.8	-40.8	3.4	8435371	96	6179
2025-01-03 09:10:22.85	50.84	85.33	-38.8	-40.5	3.3	8435371	96	5965
2025-01-03 09:10:23.05	51.52	85.41	-38.8	-41.9	3.6	8398269	96	7052
2025-01-03 09:10:23.25	52.23	85.50	-38.8	-41.9	3.6	8412860	96	7042
2025-01-03 09:10:23.45	52.96	85.58	-38.8	-40.9	3.4	8446849	96	6239
2025-01-03 09:10:23.65	53.73	85.67	-38.8	-40.4	3.3	8417015	96	5930
2025-01-03 09:10:23.85	54.52	85.75	-38.8	-40.5	3.3	8400398	96	5960
2025-01-03 09:10:24.05	55.34	85.84	-38.8	-41.9	3.6	8427738	96	7032
2025-01-03 09:10:24.25	56.20	85.92	-38.8	-41.1	3.4	8441825	96	6385
2025-01-03 09:10:24.45	57.10	86.00	-38.8	-40.5	3.3	8441825	96	5961
2025-01-03 09:10:24.65	58.03	86.08	-38.8	-40.4	3.3	8382488	96	5929
2025-01-03 09:10:24.86	59.04	86.16	-38.8	-41.8	3.6	8382488	96	6976
2025-01-03 09:10:25.06	60.06	86.24	-38.8	-41.1	3.4	8444950	96	6393
2025-01-03 09:10:25.26	61.11	86.32	-38.8	-40.5	3.3	8431308	96	5968
2025-01-03 09:10:25.46	62.21	86.39	-38.8	-40.4	3.3	8408992	96	5944
2025-01-03 09:10:25.66	63.36	86.47	-38.8	-41.9	3.6	8395133	96	7015
2025-01-03 09:10:25.86	64.55	86.54	-38.8	-41.3	3.5	8448760	96	6563
2025-01-03 09:10:26.06	65.80	86.61	-38.8	-40.5	3.3	8411304	96	5989
2025-01-03 09:10:26.26	67.10	86.68	-38.8	-40.4	3.3	8390785	96	5913
2025-01-03 09:10:26.46	68.45	86.75	-38.8	-41.9	3.6	8390785	96	7014
2025-01-03 09:10:26.66	69.86	86.82	-38.8	-41.6	3.6	8411087	96	6815
2025-01-03 09:10:26.87	71.40	86.88	-38.8	-40.7	3.3	8449745	96	6098
2025-01-03 09:10:27.07	72.94	86.94	-38.8	-40.4	3.3	8413215	96	5950
2025-01-03 09:10:27.27	74.53	87.00	-38.8	-41.8	3.6	8403179	96	6979
2025-01-03 09:10:27.47	76.19	87.06	-38.8	-41.9	3.6	8429626	96	7036
2025-01-03 09:10:27.67	77.91	87.12	-38.8	-40.9	3.4	8432556	96	6251
2025-01-03 09:10:27.87	79.70	87.17	-38.8	-40.5	3.3	8404106	96	5971
2025-01-03 09:10:28.07	81.55	87.22	-38.8	-40.4	3.3	8402023	96	5902
2025-01-03 09:10:28.27	83.47	87.26	-38.8	-41.9	3.6	8402023	96	7053
2025-01-03 09:10:28.48	85.55	87.31	-38.8	-41.1	3.4	8440372	96	6398
2025-01-03 09:10:28.68	87.59	87.35	-38.8	-40.4	3.3	8427280	96	5954
2025-01-03 09:10:28.88	89.70	87.38	-38.8	-40.5	3.3	8394756	96	5945
2025-01-03 09:10:29.08	91.85	87.41	-38.8	-41.9	3.6	8407161	96	7051
2025-01-03 09:10:29.28	94.06	87.44	-39.0	-41.7	3.5	8383312	96	6785
2025-01-03 09:10:29.48	96.32	87.47	-39.0	-40.9	3.3	8412380	96	6152
2025-01-03 09:10:29.68	98.62	87.49	-38.9	-40.7	3.3	8401817	96	6049
2025-01-03 09:10:29.88	100.95	87.50	-38.8	-41.9	3.6	8401817	96	7004
2025-01-03 09:10:30.08	103.30	87.52	-38.8	-41.8	3.6	8348522	96	6973
2025-01-03 09:10:30.28	105.68	87.52	-38.8	-40.8	3.4	8443119	96	6156
2025-01-03 09:10:30.48	108.07	87.53	-38.8	-40.4	3.3	8413204	96	5941
2025-01-03 09:10:30.69	110.58	87.53	-38.8	-41.9	3.6	8391471	96	7045
2025-01-03 09:10:30.89	112.97	87.52	-38.8	-41.9	3.6	8431503	96	7044
2025-01-03 09:10:31.09	115.34	87.51	-38.8	-40.9	3.4	8428688	96	6267
2025-01-03 09:10:31.29	117.69	87.50	-38.8	-40.5	3.3	8414257	96	5964
2025-01-03 09:10:31.49	120.01	87.48	-38.8	-40.4	3.3	8397674	96	5931
2025-01-03 09:10:31.69	122.30	87.46	-38.8	-41.9	3.6	8397674	96	7051
2025-01-03 09:10:31.89	124.54	87.44	-38.8	-41.1	3.5	8434421	96	6424
2025-01-03 09:10:32.09	126.74	87.41	-38.8	-40.5	3.3	8423950	96	5952
2025-01-03 09:10:32.29	128.88	87.37	-38.8	-40.4	3.3	8383289	96	5939
2025-01-03 09:10:32.49	130.97	87.34	-38.8	-41.9	3.6	8404037	96	7010
2025-01-03 09:10:32.69	133.00	87.30	-38.8	-41.3	3.5	8444126	96	6579
2025-01-03 09:10:32.90	135.06	87.25	-38.8	-40.5	3.3	8420734	96	5971
2025-01-03 09:10:33.10	136.96	87.20	-38.8	-40.4	3.3	8390739	96	5939
2025-01-03 09:10:33.30	138.80	87.15	-38.8	-41.9	3.6	8390739	96	7040
2025-01-03 09:10:33.50	140.57	87.10	-38.8	-42.4	3.6	8416385	95	7419
2025-01-03 09:10:33.70	142.27	87.05	-38.8	-41.3	3.4	8379959	95	6564
2025-01-03 09:10:33.90	143.91	86.99	-38.8	-41.0	3.3	8400661	95	6325
2025-01-03 09:10:34.10	145.49	86.93	-38.8	-42.0	3.6	8402057	96	7067
2025-01-03 09:10:34.30	147.01	86.87	-38.8	-41.9	3.6	8374740	96	7035
2025-01-03 09:10:34.50	148.46	86.80	-38.8	-40.9	3.4	8431068	96	6301
2025-01-03 09:10:34.70	149.86	86.73	-38.8	-40.4	3.3	8415573	96	5947
2025-01-03 09:10:34.91	151.27	86.66	-38.8	-40.5	3.3	8403751	96	5984
2025-01-03 09:10:35.11	152.55	86.59	-38.8	-41.9	3.6	8421592	96	7064
2025-01-03 09:10:35.31	153.79	86.52	-38.8	-41.1	3.4	8421592	96	6380
2025-01-03 09:10:35.51	154.97	86.45	-38.8	-40.5	3.3	8440692	96	5959
2025-01-03 09:10:35.71	156.10	86.37	-38.8	-40.5	3.3	8392559	96	5959
2025-01-03 09:10:35.91	157.19	86.30	-38.8	-41.8	3.6	8397182	96	6995
2025-01-03 09:10:36.11	158.23	86.22	-38.8	-42.0	3.5	8442272	95	7126
2025-01-03 09:10:36.31	159.23	86.14	-38.8	-41.2	3.3	8365276	95	6448
2025-01-03 09:10:36.51	160.19	86.06	-38.8	-41.1	3.3	8395751	95	6381
2025-01-03 09:10:36.72	161.16	85.98	-38.8	-41.9	3.6	8345294	96	7018
2025-01-03 09:10:36.92	162.05	85.90	-38.8	-41.8	3.6	8440109	96	6983
2025-01-03 09:10:37.12	162.89	85.81	-38.8	-40.7	3.4	8440109	96	6140
2025-01-03 09:10:37.32	163.71	85.73	-38.8	-40.5	3.3	8418331	96	5950
2025-01-03 09:10:37.52	164.50	85.65	-38.8	-41.9	3.6	8401508	96	7041
2025-01-03 09:10:37.72	165.25	85.56	-38.8	-41.9	3.6	8410469	96	7007
2025-01-03 09:10:37.92	165.98	85.47	-38.8	-40.9	3.4	8430301	96	6238
2025-01-03 09:10:38.12	166.68	85.39	-38.8	-40.5	3.3	8406200	96	5956
2025-01-03 09:10:38.32	167.35	85.30	-38.8	-40.4	3.3	8398040	96	5942
2025-01-03 09:10:38.53	168.03	85.21	-38.8	-41.9	3.6	8447937	96	7057
2025-01-03 09:10:38.73	168.65	85.12	-38.8	-41.0	3.4	8447937	96	6330
2025-01-03 09:10:38.93	169.25	85.03	-38.8	-40.4	3.3	8438987	96	5928
2025-01-03 09:10:39.13	169.84	84.94	-38.8	-40.4	3.3	8396152	96	5934
2025-01-03 09:10:39.33	170.40	84.85	-38.8	-41.9	3.6	8398612	96	7004
2025-01-03 09:10:39.53	170.94	84.76	-38.8	-41.3	3.5	8443256	96	6577
2025-01-03 09:10:39.73	171.46	84.67	-38.8	-40.5	3.3	8428070	96	5983
2025-01-03 09:10:39.93	171.96	84.58	-38.8	-40.5	3.3	8398624	96	5956
2025-01-03 09:10:40.13	172.45	84.49	-38.8	-41.9	3.6	8413478	96	7050
2025-01-03 09:10:40.33	172.92	84.40	-38.8	-41.6	3.6	8437477	96	6817
2025-01-03 09:10:40.54	173.40	84.30	-38.8	-40.6	3.4	8437477	96	6079
2025-01-03 09:10:40.74	173.84	84.21	-38.8	-40.5	3.3	8420814	96	5958
2025-01-03 09:10:40.94	174.27	84.12	-38.8	-42.0	3.6	8398647	96	7081
2025-01-03 09:10:41.14	174.69	84.02	-38.8	-41.9	3.6	8421146	96	7033
2025-01-03 09:10:41.34	175.09	83.93	-38.8	-40.8	3.4	8448635	96	6226
2025-01-03 09:10:41.54	175.48	83.84	-38.8	-40.4	3.3	8408763	96	5907
2025-01-03 09:10:41.74	175.85	83.74	-38.8	-40.5	3.3	8390167	96	5988
2025-01-03 09:10:41.94	176.22	83.65	-38.8	-41.9	3.6	8440784	96	7017
2025-01-03 09:10:42.14	176.58	83.55	-38.8	-41.0	3.4	8440784	96	6358
2025-01-03 09:10:42.35	176.94	83.45	-38.8	-40.4	3.3	8424865	96	5927
2025-01-03 09:10:42.55	177.27	83.36	-38.8	-40.4	3.3	8403350	96	5918
2025-01-03 09:10:42.75	177.60	83.27	-38.8	-41.7	3.6	8401268	96	6924
2025-01-03 09:10:42.95	177.91	83.17	-38.8	-41.9	3.5	8444606	95	6968
2025-01-03 09:10:43.15	178.22	83.08	-38.8	-41.0	3.3	8424053	95	6339
2025-01-03 09:10:43.35	178.52	82.98	-38.8	-40.9	3.3	8388587	95	6278
2025-01-03 09:10:43.55	178.81	82.88	-38.8	-42.4	3.6	8404552	95	7431
2025-01-03 09:10:43.75	179.09	82.79	-38.8	-42.2	3.6	8404552	95	7270
2025-01-03 09:10:43.95	179.37	82.69	-38.8	-41.2	3.3	8452125	95	6436
2025-01-03 09:10:44.15	179.64	82.60	-38.8	-41.0	3.3	8414428	95	6305
2025-01-03 09:10:44.36	179.91	82.50	-38.8	-42.5	3.6	8399379	95	7479
2025-01-03 09:10:44.56	180.17	82.40	-38.8	-42.2	3.6	8413192	95	7260
2025-01-03 09:10:44.76	180.42	82.30	-38.8	-41.2	3.4	8427268	95	6492
2025-01-03 09:10:44.96	180.66	82.21	-38.9	-41.0	3.3	8411235	95	6307
2025-01-03 09:10:45.16	180.89	82.11	-38.9	-42.5	3.6	8389892	95	7512
2025-01-03 09:10:45.36	181.13	82.01	-38.9	-42.5	3.6	8425266	95	7489
2025-01-03 09:10:45.56	181.35	81.92	-38.9	-41.5	3.4	8431755	95	6637
2025-01-03 09:10:45.76	181.57	81.82	-38.8	-41.1	3.3	8392364	95	6353
2025-01-03 09:10:45.97	181.79	81.72	-38.9	-41.1	3.3	8392364	95	6350
2025-01-03 09:10:46.17	182.00	81.62	-38.9	-42.6	3.6	8394790	95	7548
2025-01-03 09:10:46.37	182.21	81.52	-38.9	-41.7	3.4	8451313	95	6783
2025-01-03 09:10:46.57	182.41	81.43	-38.9	-41.0	3.3	8422393	95	6332
2025-01-03 09:10:46.77	182.60	81.33	-38.8	-41.1	3.3	8399105	95	6349
2025-01-03 09:10:46.97	182.79	81.23	-38.8	-42.5	3.6	8396747	95	7530
2025-01-03 09:10:47.17	182.98	81.14	-38.8	-41.9	3.5	8440830	95	6985
2025-01-03 09:10:47.37	183.16	81.04	-38.8	-41.1	3.3	8405731	95	6413
2025-01-03 09:10:47.57	183.34	80.94	-38.9	-41.1	3.3	8405731	95	6351
2025-01-03 09:10:47.77	183.51	80.84	-38.9	-42.5	3.6	8390029	95	7449
2025-01-03 09:10:47.98	183.69	80.74	-38.8	-42.3	3.6	8432018	95	7309
2025-01-03 09:10:48.18	183.86	80.64	-38.9	-41.3	3.3	8441837	95	6480
2025-01-03 09:10:48.38	184.03	80.55	-38.9	-41.1	3.3	8395076	95	6349
2025-01-03 09:10:48.58	184.19	80.45	-38.8	-42.5	3.6	8390819	95	7466
2025-01-03 09:10:48.78	184.34	80.35	-38.8	-42.5	3.6	8442867	95	7465
2025-01-03 09:10:48.98	184.50	80.25	-38.8	-41.4	3.4	8426033	95	6591
2025-01-03 09:10:49.18	184.65	80.16	-38.8	-41.1	3.3	8426033	95	6364
2025-01-03 09:10:49.38	184.79	80.06	-38.8	-41.0	3.3	8385131	95	6349
2025-01-03 09:10:49.58	184.94	79.96	-38.8	-42.4	3.6	8398269	95	7466
2025-01-03 09:10:49.78	185.08	79.86	-38.8	-41.6	3.4	8435794	95	6747
2025-01-03 09:10:49.99	185.23	79.76	-38.8	-41.1	3.3	8424041	95	6364
2025-01-03 09:10:50.19	185.36	79.66	-38.8	-41.0	3.3	8385520	95	6293
2025-01-03 09:10:50.39	185.50	79.57	-38.8	-42.4	3.6	8403511	95	7428
2025-01-03 09:10:50.59	185.63	79.47	-38.8	-41.8	3.5	8449104	95	6960
2025-01-03 09:10:50.79	185.76	79.37	-38.8	-41.1	3.3	8411167	95	6354
2025-01-03 09:10:50.99	185.89	79.27	-38.8	-41.0	3.3	8411167	95	6315
2025-01-03 09:10:51.19	186.01	79.18	-38.8	-42.4	3.6	8396232	95	7431
2025-01-03 09:10:51.39	186.13	79.08	-38.9	-42.3	3.6	8425884	95	7331
2025-01-03 09:10:51.59	186.25	78.98	-38.9	-41.2	3.4	8448738	95	6428
2025-01-03 09:10:51.79	186.37	78.88	-38.8	-41.0	3.3	8412551	95	6335
2025-01-03 09:10:52.00	186.49	78.78	-38.9	-42.5	3.6	8391265	95	7518
2025-01-03 09:10:52.20	186.60	78.68	-38.9	-42.4	3.6	8434444	95	7436
2025-01-03 09:10:52.40	186.72	78.59	-38.8	-41.3	3.4	8376789	95	6621
2025-01-03 09:10:52.60	186.82	78.49	-38.8	-40.9	3.3	8376789	95	6307
2025-01-03 09:10:52.80	186.93	78.39	-38.8	-40.9	3.3	8401004	95	6297
2025-01-03 09:10:53.00	187.04	78.29	-38.8	-41.8	3.6	8321170	96	6995
2025-01-03 09:10:53.20	187.14	78.19	-38.8	-41.2	3.5	8444126	96	6491
2025-01-03 09:10:53.40	187.24	78.10	-38.8	-40.5	3.3	8416889	96	5981
2025-01-03 09:10:53.60	187.35	78.00	-38.8	-40.4	3.3	8401142	96	5949
2025-01-03 09:10:53.80	187.44	77.90	-38.8	-41.8	3.6	8413730	96	7010
2025-01-03 09:10:54.01	187.55	77.80	-38.8	-41.0	3.4	8426158	96	6377
2025-01-03 09:10:54.21	187.64	77.70	-38.8	-40.4	3.3	8423332	96	5934
2025-01-03 09:10:54.41	187.74	77.61	-38.8	-40.4	3.3	8381984	96	5956
2025-01-03 09:10:54.61	187.83	77.51	-38.8	-41.8	3.6	8417392	96	6994
2025-01-03 09:10:54.81	187.92	77.41	-38.8	-41.3	3.5	8417392	96	6563
2025-01-03 09:10:55.01	188.01	77.31	-38.8	-40.5	3.3	8445545	96	6015
2025-01-03 09:10:55.21	188.10	77.22	-38.8	-40.4	3.3	8391071	96	5927
2025-01-03 09:10:55.41	188.19	77.12	-38.8	-41.9	3.6	8380268	96	7072
2025-01-03 09:10:55.61	188.27	77.02	-38.8	-41.6	3.6	8421100	96	6832
2025-01-03 09:10:55.82	188.36	76.92	-38.8	-40.6	3.3	8421535	96	6095
2025-01-03 09:10:56.02	188.44	76.82	-38.8	-40.4	3.3	8393795	96	5932
2025-01-03 09:10:56.22	188.53	76.73	-38.8	-41.9	3.6	8390636	96	7062
2025-01-03 09:10:56.42	188.61	76.63	-38.8	-41.9	3.6	8390636	96	6986
2025-01-03 09:10:56.62	188.69	76.53	-38.8	-40.9	3.4	8438301	96	6288
2025-01-03 09:10:56.82	188.76	76.43	-38.8	-40.5	3.3	8424865	96	5981
2025-01-03 09:10:57.02	188.84	76.34	-38.8	-40.5	3.3	8399768	96	5946
2025-01-03 09:10:57.22	188.92	76.24	-38.8	-41.9	3.6	8412368	96	7029
2025-01-03 09:10:57.42	188.99	76.14	-38.8	-41.1	3.4	8438598	96	6388
2025-01-03 09:10:57.63	189.07	76.04	-38.8	-40.4	3.3	8417758	96	5959
2025-01-03 09:10:57.83	189.14	75.95	-38.8	-40.4	3.3	8390384	96	5925
2025-01-03 09:10:58.03	189.22	75.85	-38.8	-41.8	3.6	8390384	96	6978
2025-01-03 09:10:58.23	189.29	75.75	-38.8	-41.8	3.5	8428550	95	6960
2025-01-03 09:10:58.43	189.36	75.66	-38.8	-41.0	3.3	8445911	95	6332
2025-01-03 09:10:58.63	189.42	75.56	-38.8	-40.9	3.3	8394618	95	6250
2025-01-03 09:10:58.83	189.49	75.46	-38.8	-42.4	3.6	8381092	95	7405
2025-01-03 09:10:59.03	189.56	75.37	-38.8	-42.0	3.6	8420127	95	7176
2025-01-03 09:10:59.23	189.63	75.27	-38.8	-41.0	3.4	8430931	95	6384
2025-01-03 09:10:59.44	189.69	75.17	-38.8	-40.8	3.3	8403144	95	6241
2025-01-03 09:10:59.64	189.76	75.07	-38.7	-42.2	3.6	8402870	95	7322
2025-01-03 09:10:59.84	189.82	74.98	-38.7	-42.1	3.6	8402870	95	7259
2025-01-03 09:11:00.04	189.89	74.88	-38.9	-41.4	3.4	8434215	95	6602
2025-01-03 09:11:00.24	189.95	74.78	-38.8	-40.9	3.3	8377738	95	6238
2025-01-03 09:11:00.44	190.01	74.69	-38.9	-41.0	3.3	8387271	95	6271
2025-01-03 09:11:00.64	190.07	74.59	-38.8	-42.2	3.6	8354324	95	7336
2025-01-03 09:11:00.84	190.13	74.50	-38.8	-41.6	3.5	8436676	95	6805
2025-01-03 09:11:01.04	190.19	74.40	-38.8	-41.0	3.3	8410926	95	6324
2025-01-03 09:11:01.25	190.25	74.30	-38.8	-41.0	3.3	8390819	95	6303
2025-01-03 09:11:01.45	190.30	74.20	-38.8	-42.4	3.6	8390819	95	7436
2025-01-03 09:11:01.65	190.36	74.11	-38.8	-41.9	3.5	8430656	95	6975
2025-01-03 09:11:01.85	190.42	74.01	-38.8	-41.1	3.3	8437889	95	6384
2025-01-03 09:11:02.05	190.47	73.92	-38.8	-41.0	3.3	8406257	95	6321
2025-01-03 09:11:02.25	190.53	73.82	-38.8	-42.5	3.6	8389698	95	7467
2025-01-03 09:11:02.45	190.58	73.72	-38.8	-42.2	3.6	8431995	95	7249
2025-01-03 09:11:02.65	190.63	73.63	-38.8	-41.2	3.3	8434295	95	6456
2025-01-03 09:11:02.85	190.69	73.53	-38.8	-41.0	3.3	8387065	95	6298
2025-01-03 09:11:03.05	190.74	73.44	-38.8	-42.3	3.6	8410629	95	7389
2025-01-03 09:11:03.25	190.79	73.34	-38.9	-42.5	3.6	8390682	95	7434
2025-01-03 09:11:03.46	190.84	73.24	-38.9	-41.4	3.4	8390682	95	6513
2025-01-03 09:11:03.66	190.89	73.15	-38.9	-41.0	3.3	8431789	95	6285
2025-01-03 09:11:03.86	190.94	73.05	-38.7	-42.2	3.6	8389766	95	7335
2025-01-03 09:11:04.06	190.99	72.96	-38.7	-42.1	3.6	8375701	95	7262
2025-01-03 09:11:04.26	191.04	72.86	-38.7	-41.1	3.4	8451255	95	6461
2025-01-03 09:11:04.46	191.09	72.77	-38.7	-40.6	3.3	8416740	95	6115
2025-01-03 09:11:04.66	191.14	72.67	-38.7	-40.6	3.3	8384571	95	6118
2025-01-03 09:11:04.86	191.18	72.58	-38.7	-42.1	3.6	8441905	95	7236
2025-01-03 09:11:05.06	191.23	72.48	-38.7	-41.2	3.4	8426605	95	6582
2025-01-03 09:11:05.26	191.27	72.39	-38.7	-40.6	3.3	8426605	95	6112
2025-01-03 09:11:05.47	191.32	72.29	-38.7	-40.6	3.3	8390693	95	6124
2025-01-03 09:11:05.67	191.37	72.20	-38.7	-42.1	3.6	8393703	95	7279
2025-01-03 09:11:05.87	191.41	72.10	-38.7	-41.5	3.5	8428459	95	6772
2025-01-03 09:11:06.07	191.45	72.01	-38.7	-40.7	3.3	8430061	95	6207
2025-01-03 09:11:06.27	191.50	71.91	-38.7	-40.6	3.3	8398326	95	6131
2025-01-03 09:11:06.47	191.54	71.82	-38.7	-42.1	3.6	8406394	95	7281
2025-01-03 09:11:06.67	191.58	71.73	-38.7	-42.0	3.6	8439949	95	7133
2025-01-03 09:11:06.87	191.62	71.63	-38.7	-40.8	3.4	8439949	95	6282
2025-01-03 09:11:07.07	191.67	71.54	-38.7	-40.7	3.3	8420162	95	6159
2025-01-03 09:11:07.27	191.71	71.44	-38.7	-42.2	3.6	8394664	95	7290
2025-01-03 09:11:07.48	191.75	71.35	-38.8	-42.2	3.6	8411796	95	7330
2025-01-03 09:11:07.68	191.79	71.25	-38.8	-41.2	3.4	8442295	95	6488
2025-01-03 09:11:07.88	191.83	71.16	-38.8	-40.7	3.3	8405353	95	6182
2025-01-03 09:11:08.08	191.87	71.06	-38.8	-40.8	3.3	8397480	95	6185
2025-01-03 09:11:08.28	191.91	70.97	-38.8	-42.3	3.6	8431789	95	7418
2025-01-03 09:11:08.48	191.95	70.88	-38.8	-41.4	3.4	8436275	95	6700
2025-01-03 09:11:08.68	191.98	70.78	-38.8	-40.8	3.3	8436275	95	6228
2025-01-03 09:11:08.88	192.02	70.69	-38.8	-40.8	3.3	8401943	95	6224
2025-01-03 09:11:09.08	192.06	70.60	-38.8	-42.3	3.6	8396598	95	7392
2025-01-03 09:11:09.28	192.10	70.50	-38.8	-41.8	3.5	8442283	95	6911
2025-01-03 09:11:09.49	192.13	70.41	-38.8	-41.0	3.3	8438095	95	6318
2025-01-03 09:11:09.69	192.17	70.31	-38.8	-40.9	3.3	8394081	95	6249
2025-01-03 09:11:09.89	192.21	70.22	-38.8	-42.3	3.6	8399814	95	7411

#Closed at: 2025-01-03 09:11:10