passes_logs/2026/01/06/T1/T1__20260106_230532_NOAA_20_JPSS-1_rec.log

#Pass ID: 20260106_230532_NOAA 20 (JPSS-1)
#Satellite: NOAA 20 (JPSS-1)
#Configuration: NOAA 20
#almurnet v.1.7.20251203
#Start time: 2026-01-06 23:05:32

#Version: 2.0.20230620
#Station: T1
#Location: 37.570604 lon 55.790049 lat
#TLE: 1 43013U 17073A   26006.30790171  .00000126  00000+0  80695-4 0  9991
#TLE: 2 43013  98.7629 307.3394 0001808  51.8724 308.2615 14.19533762421505

#Time	Az	El	Level	Level2	SNR	BER	BlckErr	Temp	State	Recorded	gain1	gain2
2026-01-06 23:05:32.71	20.68	5.04	-48.9	-64.7	3.8	1.49e+00	0	39	0	0	69	22223
2026-01-06 23:05:33.71	20.72	5.11	-48.9	-64.8	3.8	1.49e+00	0	39	104	0	68	23586
2026-01-06 23:05:34.71	20.75	5.18	-48.9	-64.7	3.8	1.49e+00	0	39	104	0	68	23526
2026-01-06 23:05:35.72	20.79	5.25	-48.9	-64.7	3.8	1.49e+00	0	39	104	0	68	23528
2026-01-06 23:05:36.72	20.83	5.32	-48.9	-64.7	3.8	1.49e+00	0	39	104	0	68	23558
2026-01-06 23:05:37.72	20.86	5.39	-48.9	-64.7	3.8	1.49e+00	0	39	104	0	68	23514
2026-01-06 23:05:38.73	20.90	5.46	-48.9	-64.7	3.8	1.49e+00	0	40	104	0	68	23521
2026-01-06 23:05:39.73	20.94	5.53	-48.9	-64.7	3.8	1.49e+00	0	39	104	0	68	23542
2026-01-06 23:05:40.73	20.98	5.60	-48.9	-64.7	3.8	1.49e+00	0	39	104	0	68	23476
2026-01-06 23:05:41.74	21.02	5.67	-48.9	-64.7	3.8	1.49e+00	0	39	104	0	68	23380
2026-01-06 23:05:42.74	21.05	5.74	-48.9	-64.7	3.8	1.49e+00	0	40	104	0	68	23425
2026-01-06 23:05:43.75	21.09	5.81	-48.9	-64.7	3.8	1.49e+00	0	40	104	0	68	23366
2026-01-06 23:05:44.75	21.13	5.88	-48.9	-64.7	3.8	1.49e+00	0	40	104	0	68	23347
2026-01-06 23:05:45.76	21.17	5.96	-48.9	-64.7	3.8	1.49e+00	0	40	104	0	68	23359
2026-01-06 23:05:46.76	21.21	6.03	-48.9	-64.7	3.8	1.49e+00	0	40	104	0	68	23453
2026-01-06 23:05:47.76	21.25	6.10	-48.9	-64.7	3.8	1.49e+00	0	40	104	0	68	23575
2026-01-06 23:05:48.77	21.29	6.17	-48.9	-64.7	3.8	1.49e+00	0	40	104	0	68	23410
2026-01-06 23:05:49.77	21.33	6.24	-48.9	-64.7	3.8	1.49e+00	0	40	104	0	68	23378
2026-01-06 23:05:50.77	21.37	6.32	-48.9	-64.6	3.8	1.49e+00	0	40	104	0	68	23291
2026-01-06 23:05:51.78	21.41	6.39	-48.9	-64.6	3.8	1.49e+00	0	40	104	0	68	23212
2026-01-06 23:05:52.78	21.45	6.46	-48.9	-64.6	3.8	1.49e+00	0	40	104	0	68	23221
2026-01-06 23:05:53.79	21.49	6.54	-48.9	-64.6	3.8	1.49e+00	0	40	104	0	68	23214
2026-01-06 23:05:54.79	21.53	6.61	-48.9	-64.6	3.8	1.49e+00	0	40	104	0	68	23132
2026-01-06 23:05:55.80	21.57	6.68	-48.9	-64.6	3.8	1.49e+00	0	40	104	0	68	23110
2026-01-06 23:05:56.80	21.61	6.76	-48.9	-64.6	3.8	1.49e+00	0	40	104	0	68	23182
2026-01-06 23:05:57.81	21.65	6.83	-48.9	-64.7	3.8	1.49e+00	0	40	104	0	68	23326
2026-01-06 23:05:58.81	21.69	6.91	-48.9	-64.7	3.8	1.49e+00	0	40	104	0	68	23340
2026-01-06 23:05:59.82	21.73	6.98	-48.9	-64.6	3.8	1.49e+00	0	40	104	0	68	23242
2026-01-06 23:06:00.82	21.77	7.05	-48.9	-64.5	3.8	1.49e+00	0	40	104	0	68	22938
2026-01-06 23:06:01.82	21.81	7.13	-48.8	-64.4	3.8	1.49e+00	0	40	104	0	68	22522
2026-01-06 23:06:02.83	21.86	7.20	-48.8	-64.2	3.8	1.49e+00	0	40	104	0	68	22132
2026-01-06 23:06:03.83	21.90	7.28	-48.8	-63.9	3.8	1.49e+00	0	40	104	0	68	21428
2026-01-06 23:06:04.84	21.94	7.36	-48.8	-63.7	3.8	1.49e+00	0	40	104	0	68	20875
2026-01-06 23:06:05.84	21.98	7.43	-48.8	-63.5	3.8	1.49e+00	0	40	104	0	68	20339
2026-01-06 23:06:06.84	22.03	7.51	-48.8	-63.2	3.8	1.49e+00	0	40	104	0	68	19765
2026-01-06 23:06:07.85	22.07	7.58	-48.8	-63.1	3.8	1.49e+00	0	40	104	0	68	19469
2026-01-06 23:06:08.85	22.11	7.66	-48.8	-63.2	3.8	1.49e+00	0	40	104	0	68	19629
2026-01-06 23:06:09.86	22.15	7.74	-48.8	-63.1	3.8	1.49e+00	0	40	104	0	68	19456
2026-01-06 23:06:10.86	22.20	7.81	-48.7	-63.1	3.8	1.49e+00	0	41	104	0	68	19554
2026-01-06 23:06:11.86	22.24	7.89	-48.8	-63.2	3.8	1.49e+00	0	40	104	0	68	19663
2026-01-06 23:06:12.87	22.29	7.97	-48.8	-63.4	3.8	1.49e+00	0	40	104	0	68	20195
2026-01-06 23:06:13.87	22.33	8.04	-48.8	-63.5	3.8	1.49e+00	0	40	104	0	68	20478
2026-01-06 23:06:14.87	22.37	8.12	-48.8	-63.5	3.8	1.49e+00	0	40	104	0	68	20353
2026-01-06 23:06:15.88	22.42	8.20	-48.8	-63.5	3.8	1.49e+00	0	40	104	0	68	20458
2026-01-06 23:06:16.88	22.46	8.28	-48.8	-63.4	3.8	1.49e+00	0	41	104	0	68	20273
2026-01-06 23:06:17.88	22.51	8.35	-48.8	-63.3	3.8	1.49e+00	0	41	104	0	68	19890
2026-01-06 23:06:18.89	22.55	8.43	-48.8	-63.1	3.8	1.49e+00	0	41	104	0	68	19553
2026-01-06 23:06:19.89	22.60	8.51	-48.7	-62.8	3.8	1.49e+00	0	41	104	0	68	18909
2026-01-06 23:06:20.90	22.64	8.59	-48.7	-62.5	3.8	1.49e+00	0	41	104	0	68	18197
2026-01-06 23:06:21.90	22.69	8.67	-48.7	-61.8	3.9	1.48e+00	0	41	104	0	68	16857
2026-01-06 23:06:22.91	22.74	8.75	-48.6	-60.9	4.2	1.42e+00	0	41	0	0	68	15185
2026-01-06 23:06:23.91	22.78	8.83	-48.5	-60.0	4.6	1.11e+00	0	41	0	1048576	68	13692
2026-01-06 23:06:24.91	22.83	8.91	-48.4	-59.0	5.0	8.35e-01	0	41	0	3145728	68	12163
2026-01-06 23:06:25.92	22.87	8.99	-48.3	-58.0	5.6	5.20e-01	0	41	0	4194304	68	10887
2026-01-06 23:06:26.92	22.92	9.07	-48.1	-56.8	6.6	2.52e-01	0	41	0	6291456	68	9428
2026-01-06 23:06:27.93	22.97	9.15	-48.2	-57.5	6.0	2.70e-01	0	41	0	8388608	68	10274
2026-01-06 23:06:28.93	23.02	9.23	-48.7	-61.8	4.0	8.22e-01	0	41	0	9437184	68	16796
2026-01-06 23:06:29.93	23.06	9.31	-47.5	-54.8	8.2	9.46e-01	0	41	0	10485760	67	7972
2026-01-06 23:06:30.94	23.11	9.39	-48.3	-62.9	3.8	1.20e+00	0	41	104	12582912	67	20107
2026-01-06 23:06:31.94	23.16	9.48	-48.1	-56.4	6.9	1.04e+00	0	41	0	12582912	67	9530
2026-01-06 23:06:32.94	23.21	9.56	-48.1	-56.2	7.1	1.28e-01	0	41	0	14680064	67	9328
2026-01-06 23:06:33.94	23.26	9.64	-48.1	-56.1	7.1	1.48e-01	0	41	0	15728640	67	9251
2026-01-06 23:06:34.95	23.30	9.72	-47.8	-54.9	8.3	5.97e-02	0	41	0	17825792	67	8064
2026-01-06 23:06:35.95	23.35	9.81	-47.3	-53.5	9.8	2.28e-02	0	41	0	19922944	66	7236
2026-01-06 23:06:36.95	23.40	9.89	-47.0	-52.6	10.8	7.64e-03	0	41	0	22020096	66	6535
2026-01-06 23:06:37.95	23.45	9.97	-46.6	-51.5	11.9	5.76e-04	0	41	0	24117248	65	6115
2026-01-06 23:06:38.95	23.50	10.05	-46.4	-51.3	12.2	3.42e-04	0	41	0	25165824	64	6281
2026-01-06 23:06:39.95	23.55	10.14	-46.2	-50.8	12.6	8.46e-05	0	41	0	27262976	64	5954
2026-01-06 23:06:40.95	23.60	10.22	-46.2	-50.8	12.6	1.07e-04	0	41	0	29360128	64	5945
2026-01-06 23:06:41.96	23.65	10.31	-46.2	-50.8	12.6	8.62e-05	0	41	0	31457280	64	5928
2026-01-06 23:06:42.96	23.70	10.39	-45.9	-50.0	13.5	2.44e-05	0	41	0	33554432	63	5762
2026-01-06 23:06:43.96	23.75	10.47	-46.0	-50.2	13.4	8.30e-06	0	41	0	34603008	63	5909
2026-01-06 23:06:44.97	23.81	10.56	-45.6	-49.6	13.9	4.50e-06	0	41	0	36700160	63	5512
2026-01-06 23:06:45.97	23.86	10.65	-45.6	-49.6	14.0	4.50e-06	0	41	0	38797312	63	5489
2026-01-06 23:06:46.97	23.91	10.73	-45.4	-49.3	14.3	3.80e-06	0	41	0	40894464	62	5619
2026-01-06 23:06:47.98	23.96	10.82	-45.0	-48.6	15.0	0.00e+00	0	41	0	42991616	62	5178
2026-01-06 23:06:48.98	24.01	10.90	-44.8	-48.2	15.4	0.00e+00	0	42	0	44040192	61	5228
2026-01-06 23:06:49.98	24.07	10.99	-44.8	-48.2	15.4	0.00e+00	0	41	0	46137344	61	5239
2026-01-06 23:06:50.98	24.12	11.08	-44.8	-48.2	15.4	0.00e+00	0	41	0	48234496	61	5243
2026-01-06 23:06:51.98	24.17	11.16	-44.5	-47.7	16.0	0.00e+00	0	41	0	50331648	60	5254
2026-01-06 23:06:52.99	24.23	11.25	-44.5	-47.7	15.9	0.00e+00	0	41	0	52428800	60	5267
2026-01-06 23:06:53.99	24.28	11.34	-44.1	-47.2	16.5	0.00e+00	0	41	0	53477376	60	4934
2026-01-06 23:06:54.99	24.33	11.43	-44.0	-47.1	16.5	0.00e+00	0	41	0	55574528	60	4899
2026-01-06 23:06:56.00	24.39	11.51	-44.0	-46.9	16.7	0.00e+00	0	41	0	57671680	59	5088
2026-01-06 23:06:57.00	24.44	11.60	-43.8	-46.7	16.9	0.00e+00	0	41	0	59768832	59	4980
2026-01-06 23:06:58.00	24.50	11.69	-43.7	-46.6	17.0	0.00e+00	0	41	0	61865984	59	4907
2026-01-06 23:06:59.00	24.55	11.78	-43.7	-46.5	17.1	0.00e+00	0	41	0	62914560	59	4860
2026-01-06 23:07:00.00	24.61	11.87	-43.7	-46.7	17.0	0.00e+00	0	41	0	65011712	59	4930
2026-01-06 23:07:01.01	24.67	11.96	-43.7	-46.6	17.0	0.00e+00	0	41	0	67108864	59	4911
2026-01-06 23:07:02.01	24.72	12.05	-43.6	-46.5	17.1	0.00e+00	0	41	0	69206016	59	4828
2026-01-06 23:07:03.01	24.78	12.14	-43.6	-46.5	17.1	0.00e+00	0	41	0	70254592	59	4860
2026-01-06 23:07:04.01	24.84	12.23	-43.6	-46.4	17.2	0.00e+00	0	41	0	72351744	59	4795
2026-01-06 23:07:05.01	24.89	12.32	-43.5	-46.3	17.3	0.00e+00	0	41	0	74448896	59	4754
2026-01-06 23:07:06.02	24.95	12.41	-43.5	-46.4	17.3	0.00e+00	0	41	0	76546048	59	4767
2026-01-06 23:07:07.02	25.01	12.50	-43.5	-46.3	17.3	0.00e+00	0	41	0	78643200	58	5016
2026-01-06 23:07:08.02	25.07	12.60	-43.4	-46.2	17.4	0.00e+00	0	41	0	79691776	58	4945
2026-01-06 23:07:09.03	25.13	12.69	-43.3	-46.2	17.5	0.00e+00	0	41	0	81788928	58	4940
2026-01-06 23:07:10.03	25.19	12.78	-43.3	-46.1	17.6	0.00e+00	0	41	0	83886080	58	4887
2026-01-06 23:07:11.03	25.24	12.87	-43.3	-46.0	17.6	0.00e+00	0	41	0	85983232	58	4849
2026-01-06 23:07:12.04	25.30	12.97	-43.2	-46.0	17.6	0.00e+00	0	41	0	88080384	58	4847
2026-01-06 23:07:13.04	25.36	13.06	-43.2	-45.9	17.7	0.00e+00	0	41	0	89128960	58	4812
2026-01-06 23:07:14.04	25.43	13.15	-43.2	-46.0	17.6	0.00e+00	0	41	0	91226112	58	4834
2026-01-06 23:07:15.04	25.49	13.25	-43.0	-45.7	18.0	0.00e+00	0	41	0	93323264	58	4668
2026-01-06 23:07:16.05	25.55	13.34	-43.1	-45.8	17.8	0.00e+00	0	41	0	95420416	58	4739
2026-01-06 23:07:17.05	25.61	13.44	-43.2	-45.9	17.8	0.00e+00	0	41	0	97517568	58	4760
2026-01-06 23:07:18.09	25.67	13.54	-43.1	-45.8	17.9	0.00e+00	0	41	0	98566144	58	4715
2026-01-06 23:07:19.09	25.73	13.63	-43.2	-45.8	17.9	0.00e+00	0	41	0	100663296	58	4741
2026-01-06 23:07:20.15	25.80	13.73	-43.1	-45.8	17.9	0.00e+00	0	41	0	102760448	58	4721
2026-01-06 23:07:21.04	25.86	13.82	-43.2	-45.8	17.8	0.00e+00	0	41	0	104857600	58	4742
2026-01-06 23:07:22.19	25.93	13.93	-43.2	-45.8	17.8	0.00e+00	0	41	0	106954752	58	4734
2026-01-06 23:07:23.05	25.98	14.01	-43.1	-45.7	17.9	0.00e+00	0	41	0	108003328	58	4703
2026-01-06 23:07:24.19	26.06	14.12	-43.2	-45.8	17.9	0.00e+00	0	41	0	110100480	58	4730
2026-01-06 23:07:25.05	26.11	14.21	-43.2	-45.8	17.9	0.00e+00	0	41	0	112197632	58	4733
2026-01-06 23:07:26.20	26.19	14.32	-43.1	-45.7	18.0	0.00e+00	0	41	0	114294784	58	4665
2026-01-06 23:07:27.06	26.24	14.40	-43.1	-45.7	18.0	0.00e+00	0	41	0	115343360	58	4653
2026-01-06 23:07:28.20	26.32	14.52	-43.1	-45.7	18.0	0.00e+00	0	41	0	118489088	58	4675
2026-01-06 23:07:29.06	26.37	14.60	-43.1	-45.7	18.0	0.00e+00	0	41	0	119537664	58	4692
2026-01-06 23:07:30.21	26.45	14.72	-43.1	-45.7	17.9	0.00e+00	0	41	0	121634816	58	4705
2026-01-06 23:07:31.07	26.51	14.80	-43.0	-45.6	18.1	0.00e+00	0	41	0	123731968	58	4621
2026-01-06 23:07:32.22	26.59	14.92	-42.9	-45.5	18.1	0.00e+00	0	41	0	125829120	57	4864
2026-01-06 23:07:33.08	26.64	15.00	-42.9	-45.5	18.2	0.00e+00	0	41	0	126877696	57	4827
2026-01-06 23:07:34.22	26.72	15.12	-42.9	-45.5	18.1	0.00e+00	0	41	0	128974848	57	4848
2026-01-06 23:07:35.08	26.78	15.21	-42.9	-45.5	18.1	0.00e+00	0	41	0	131072000	57	4855
2026-01-06 23:07:36.34	26.87	15.33	-42.9	-45.6	18.1	0.00e+00	0	41	0	133169152	57	4892
2026-01-06 23:07:37.08	26.92	15.41	-42.9	-45.5	18.2	0.00e+00	0	41	0	134217728	57	4861
2026-01-06 23:07:38.37	27.01	15.54	-42.8	-45.4	18.3	0.00e+00	0	41	0	137363456	57	4799
2026-01-06 23:07:39.09	27.06	15.62	-42.8	-45.4	18.2	0.00e+00	0	41	0	138412032	57	4806
2026-01-06 23:07:40.38	27.15	15.75	-42.7	-45.4	18.3	0.00e+00	0	41	0	140509184	57	4791
2026-01-06 23:07:41.09	27.20	15.82	-42.8	-45.5	18.2	0.00e+00	0	41	0	142606336	57	4856
2026-01-06 23:07:42.38	27.29	15.96	-42.7	-45.3	18.4	0.00e+00	0	41	0	144703488	57	4755
2026-01-06 23:07:43.09	27.35	16.03	-42.7	-45.4	18.3	0.00e+00	0	41	0	145752064	57	4772
2026-01-06 23:07:44.39	27.44	16.17	-42.7	-45.4	18.3	0.00e+00	0	41	0	147849216	57	4794
2026-01-06 23:07:45.10	27.49	16.24	-42.8	-45.4	18.3	0.00e+00	0	41	0	149946368	57	4800
2026-01-06 23:07:46.39	27.59	16.38	-42.8	-45.4	18.3	0.00e+00	0	41	0	152043520	57	4794
2026-01-06 23:07:47.11	27.64	16.46	-42.7	-45.4	18.4	0.00e+00	0	41	0	153092096	57	4764
2026-01-06 23:07:48.40	27.74	16.59	-42.7	-45.3	18.4	0.00e+00	0	41	0	156237824	57	4743
2026-01-06 23:07:49.12	27.79	16.67	-42.6	-45.2	18.4	0.00e+00	0	41	0	157286400	57	4682
2026-01-06 23:07:50.41	27.89	16.81	-42.7	-45.3	18.5	0.00e+00	0	41	0	159383552	57	4713
2026-01-06 23:07:51.12	27.94	16.88	-42.8	-45.3	18.5	0.00e+00	0	42	0	161480704	57	4723
2026-01-06 23:07:52.41	28.04	17.02	-42.8	-45.3	18.4	0.00e+00	0	42	0	163577856	57	4745
2026-01-06 23:07:53.13	28.10	17.10	-42.8	-45.3	18.4	0.00e+00	0	41	0	164626432	57	4750
2026-01-06 23:07:54.42	28.20	17.24	-42.7	-45.1	18.6	0.00e+00	0	41	0	166723584	57	4642
2026-01-06 23:07:55.13	28.25	17.32	-42.7	-45.2	18.6	0.00e+00	0	41	0	168820736	57	4674
2026-01-06 23:07:56.43	28.36	17.46	-42.7	-45.1	18.6	0.00e+00	0	41	0	170917888	57	4632
2026-01-06 23:07:57.14	28.41	17.54	-42.7	-45.1	18.6	0.00e+00	0	41	0	171966464	57	4636
2026-01-06 23:07:58.78	28.54	17.73	-42.6	-45.0	18.7	0.00e+00	0	42	0	175112192	57	4577
2026-01-06 23:07:59.36	28.59	17.79	-42.6	-45.0	18.8	0.00e+00	0	41	0	176160768	57	4564
2026-01-06 23:08:00.96	28.72	17.97	-42.7	-45.0	18.7	0.00e+00	0	42	0	179306496	57	4596
2026-01-06 23:08:01.53	28.77	18.03	-42.6	-44.9	18.8	0.00e+00	0	42	0	180355072	57	4529
2026-01-06 23:08:03.16	28.90	18.22	-42.7	-45.0	18.7	0.00e+00	0	42	0	183500800	57	4581
2026-01-06 23:08:03.76	28.95	18.29	-42.6	-45.0	18.8	0.00e+00	0	42	0	184549376	57	4549
2026-01-06 23:08:05.34	29.08	18.47	-42.7	-45.0	18.7	0.00e+00	0	42	0	187695104	57	4594
2026-01-06 23:08:05.92	29.13	18.53	-42.7	-45.1	18.7	0.00e+00	0	42	0	188743680	57	4618
2026-01-06 23:08:07.50	29.27	18.72	-42.8	-45.2	18.6	0.00e+00	0	41	0	191889408	57	4658
2026-01-06 23:08:08.11	29.32	18.79	-42.7	-45.1	18.7	0.00e+00	0	41	0	192937984	57	4608
2026-01-06 23:08:09.92	29.48	19.00	-42.7	-45.1	18.6	0.00e+00	0	41	0	196083712	57	4645
2026-01-06 23:08:10.50	29.53	19.06	-42.7	-45.1	18.7	0.00e+00	0	41	0	197132288	57	4649
2026-01-06 23:08:12.09	29.67	19.25	-42.7	-45.2	18.6	0.00e+00	0	42	0	200278016	57	4675
2026-01-06 23:08:12.68	29.72	19.32	-42.8	-45.3	18.5	0.00e+00	0	41	0	201326592	57	4717
2026-01-06 23:08:14.25	29.86	19.51	-42.8	-45.2	18.6	0.00e+00	0	41	0	204472320	57	4681
2026-01-06 23:08:14.86	29.91	19.58	-42.8	-45.2	18.6	0.00e+00	0	42	0	205520896	57	4668
2026-01-06 23:08:16.43	30.06	19.77	-42.8	-45.2	18.6	0.00e+00	0	42	0	208666624	57	4694
2026-01-06 23:08:17.05	30.11	19.84	-42.7	-45.2	18.6	0.00e+00	0	42	0	209715200	57	4664
2026-01-06 23:08:18.62	30.26	20.03	-42.7	-45.1	18.7	0.00e+00	0	41	0	212860928	57	4641
2026-01-06 23:08:19.23	30.32	20.10	-42.7	-45.1	18.7	0.00e+00	0	41	0	213909504	57	4622
2026-01-06 23:08:20.85	30.47	20.30	-42.8	-45.1	18.7	0.00e+00	0	41	0	217055232	57	4649
2026-01-06 23:08:21.42	30.52	20.37	-42.8	-45.2	18.6	0.00e+00	0	42	0	218103808	57	4679
2026-01-06 23:08:23.04	30.68	20.57	-42.9	-45.3	18.6	0.00e+00	0	42	0	221249536	57	4728
2026-01-06 23:08:23.61	30.73	20.64	-43.0	-45.4	18.5	0.00e+00	0	42	0	222298112	57	4780
2026-01-06 23:08:25.24	30.89	20.84	-42.9	-45.4	18.5	0.00e+00	0	42	0	225443840	57	4760
2026-01-06 23:08:25.81	30.95	20.92	-42.9	-45.3	18.5	0.00e+00	0	42	0	226492416	57	4728
2026-01-06 23:08:27.46	31.11	21.12	-43.1	-45.5	18.3	0.00e+00	0	42	0	228589568	57	4851
2026-01-06 23:08:28.03	31.17	21.19	-43.0	-45.4	18.2	0.00e+00	0	41	0	230686720	57	4798
2026-01-06 23:08:29.67	31.33	21.40	-42.9	-45.3	18.5	0.00e+00	0	42	0	232783872	57	4724
2026-01-06 23:08:30.24	31.39	21.47	-42.9	-45.3	18.5	0.00e+00	0	42	0	233832448	57	4726
2026-01-06 23:08:31.82	31.55	21.68	-42.9	-45.3	18.5	0.00e+00	0	41	0	236978176	57	4752
2026-01-06 23:08:32.42	31.61	21.75	-42.8	-45.2	18.6	0.00e+00	0	41	0	238026752	57	4699
2026-01-06 23:08:34.00	31.78	21.96	-42.8	-45.2	18.7	0.00e+00	0	42	0	241172480	57	4676
2026-01-06 23:08:34.61	31.84	22.04	-42.8	-45.2	18.7	0.00e+00	0	42	0	242221056	57	4655
2026-01-06 23:08:36.46	32.04	22.28	-42.8	-45.2	18.6	0.00e+00	0	42	0	246415360	57	4695
2026-01-06 23:08:37.03	32.10	22.35	-42.8	-45.2	18.6	0.00e+00	0	42	0	247463936	57	4697
2026-01-06 23:08:38.63	32.27	22.56	-42.8	-45.2	18.7	0.00e+00	0	42	0	249561088	57	4677
2026-01-06 23:08:39.57	32.37	22.69	-42.8	-45.3	18.6	0.00e+00	0	42	0	251658240	57	4707
2026-01-06 23:08:40.57	32.48	22.82	-42.7	-45.2	18.7	0.00e+00	0	41	0	253755392	57	4657
2026-01-06 23:08:41.58	32.60	22.96	-42.8	-45.3	18.6	0.00e+00	0	42	0	255852544	57	4709
2026-01-06 23:08:42.58	32.71	23.09	-42.8	-45.2	18.6	0.00e+00	0	42	0	257949696	57	4692
2026-01-06 23:08:43.58	32.82	23.23	-42.9	-45.4	18.5	0.00e+00	0	42	0	258998272	57	4790
2026-01-06 23:08:44.70	32.95	23.38	-42.8	-45.3	18.6	0.00e+00	0	42	0	261095424	57	4708
2026-01-06 23:08:45.62	33.05	23.50	-42.9	-45.4	18.5	0.00e+00	0	41	0	263192576	57	4777
2026-01-06 23:08:46.80	33.19	23.66	-42.8	-45.2	18.7	0.00e+00	0	42	0	265289728	57	4675
2026-01-06 23:08:47.66	33.29	23.78	-42.8	-45.2	18.7	0.00e+00	0	42	0	267386880	57	4657
2026-01-06 23:08:49.01	33.45	23.97	-42.7	-45.1	18.8	0.00e+00	0	42	0	269484032	57	4627
2026-01-06 23:08:49.73	33.53	24.07	-42.7	-45.1	18.8	0.00e+00	0	42	0	270532608	57	4603
2026-01-06 23:08:51.01	33.69	24.25	-42.8	-45.2	18.7	0.00e+00	0	42	0	273678336	57	4677
2026-01-06 23:08:51.73	33.78	24.35	-42.8	-45.2	18.7	0.00e+00	0	42	0	274726912	57	4684
2026-01-06 23:08:53.02	33.93	24.53	-42.7	-45.1	18.7	0.00e+00	0	42	0	276824064	57	4631
2026-01-06 23:08:53.74	34.02	24.63	-42.8	-45.2	18.7	0.00e+00	0	42	0	277872640	57	4689
2026-01-06 23:08:55.03	34.18	24.81	-42.9	-45.3	18.6	0.00e+00	0	42	0	281018368	57	4732
2026-01-06 23:08:55.74	34.27	24.91	-42.9	-45.3	18.6	0.00e+00	0	42	0	282066944	57	4745
2026-01-06 23:08:57.04	34.43	25.10	-42.9	-45.3	18.6	0.00e+00	0	42	0	284164096	57	4756
2026-01-06 23:08:57.75	34.53	25.20	-43.1	-45.5	18.4	0.00e+00	0	42	0	286261248	57	4837
2026-01-06 23:08:59.04	34.69	25.39	-43.2	-45.6	18.3	0.00e+00	0	41	0	288358400	57	4926
2026-01-06 23:08:59.76	34.78	25.49	-43.1	-45.6	18.3	0.00e+00	0	42	0	289406976	57	4900
2026-01-06 23:09:01.05	34.95	25.68	-43.2	-45.7	18.2	0.00e+00	0	42	0	292552704	57	4944
2026-01-06 23:09:01.77	35.05	25.79	-43.2	-45.7	18.2	0.00e+00	0	42	0	293601280	57	4948
2026-01-06 23:09:03.06	35.22	25.98	-43.1	-45.6	18.3	0.00e+00	0	42	0	295698432	57	4893
2026-01-06 23:09:03.77	35.32	26.08	-43.2	-45.7	18.3	0.00e+00	0	42	0	296747008	57	4927
2026-01-06 23:09:05.27	35.52	26.30	-43.1	-45.5	18.3	0.00e+00	0	42	0	299892736	57	4869
2026-01-06 23:09:05.99	35.62	26.41	-43.1	-45.6	18.3	0.00e+00	0	42	0	300941312	57	4893
2026-01-06 23:09:07.28	35.80	26.60	-43.3	-45.7	18.2	0.00e+00	0	42	0	304087040	57	4974
2026-01-06 23:09:07.99	35.90	26.71	-43.3	-45.8	18.1	0.00e+00	0	42	0	305135616	57	5015
2026-01-06 23:09:09.28	36.08	26.91	-43.4	-45.9	18.0	0.00e+00	0	42	0	307232768	57	5081
2026-01-06 23:09:10.00	36.18	27.02	-43.5	-46.0	17.9	0.00e+00	0	42	0	309329920	57	5140
2026-01-06 23:09:11.29	36.37	27.21	-44.2	-46.4	17.7	0.00e+00	0	42	0	311427072	58	5090
2026-01-06 23:09:12.07	36.48	27.33	-43.8	-46.4	17.6	0.00e+00	0	42	0	312475648	58	5069
2026-01-06 23:09:13.68	36.72	27.58	-43.8	-46.4	17.6	0.00e+00	0	42	0	315621376	58	5073
2026-01-06 23:09:14.25	36.80	27.67	-43.8	-46.4	17.6	0.00e+00	0	42	0	316669952	58	5062
2026-01-06 23:09:16.11	37.08	27.96	-43.8	-46.4	17.6	0.00e+00	0	42	0	319815680	58	5077
2026-01-06 23:09:16.68	37.17	28.05	-43.8	-46.5	17.5	0.00e+00	0	42	0	321912832	58	5103
2026-01-06 23:09:18.28	37.41	28.30	-43.7	-46.3	17.6	0.00e+00	0	42	0	324009984	58	5024
2026-01-06 23:09:18.85	37.50	28.39	-43.8	-46.4	17.6	0.00e+00	0	42	0	325058560	58	5067
2026-01-06 23:09:20.42	37.74	28.64	-44.1	-46.8	17.2	0.00e+00	0	42	0	328204288	58	5281
2026-01-06 23:09:21.03	37.84	28.73	-44.0	-46.8	17.2	0.00e+00	0	42	0	329252864	58	5280
2026-01-06 23:09:22.60	38.09	28.99	-44.2	-47.0	17.0	0.00e+00	0	42	0	332398592	59	5111
2026-01-06 23:09:23.19	38.19	29.08	-44.2	-47.0	17.0	0.00e+00	0	42	0	333447168	59	5127
2026-01-06 23:09:24.94	38.47	29.36	-44.5	-47.4	16.6	0.00e+00	0	42	0	336592896	59	5376
2026-01-06 23:09:25.51	38.57	29.46	-44.6	-47.5	16.5	0.00e+00	0	42	0	337641472	59	5450
2026-01-06 23:09:27.12	38.84	29.72	-44.7	-47.7	16.4	0.00e+00	0	42	0	340787200	60	5247
2026-01-06 23:09:27.69	38.93	29.81	-44.9	-47.9	16.2	0.00e+00	0	42	0	341835776	60	5385
2026-01-06 23:09:29.28	39.20	30.07	-45.1	-48.2	15.9	0.00e+00	0	42	0	344981504	60	5556
2026-01-06 23:09:29.86	39.30	30.17	-45.1	-48.2	15.9	0.00e+00	0	42	0	346030080	60	5567
2026-01-06 23:09:31.47	39.58	30.44	-45.2	-48.3	15.8	0.00e+00	0	42	0	349175808	60	5632
2026-01-06 23:09:32.04	39.68	30.53	-45.2	-48.4	15.7	0.00e+00	0	42	0	350224384	61	5357
2026-01-06 23:09:33.66	39.97	30.81	-45.2	-48.4	15.6	0.00e+00	0	42	0	353370112	61	5395
2026-01-06 23:09:34.23	40.08	30.90	-45.1	-48.3	15.7	0.00e+00	0	42	0	354418688	61	5314
2026-01-06 23:09:35.95	40.39	31.19	-45.0	-48.1	15.9	0.00e+00	0	42	0	357564416	61	5201
2026-01-06 23:09:36.53	40.50	31.29	-45.0	-48.1	16.0	0.00e+00	0	42	0	358612992	61	5188
2026-01-06 23:09:38.12	40.79	31.56	-45.0	-48.0	16.1	0.00e+00	0	42	0	361758720	61	5130
2026-01-06 23:09:39.14	40.99	31.74	-45.0	-48.1	16.0	0.00e+00	0	42	0	363855872	61	5180
2026-01-06 23:09:40.14	41.18	31.91	-45.1	-48.2	15.9	0.00e+00	0	42	0	364904448	61	5219
2026-01-06 23:09:41.14	41.37	32.08	-45.3	-48.4	15.7	0.00e+00	0	42	0	367001600	61	5389
2026-01-06 23:09:42.16	41.57	32.26	-45.2	-48.3	15.7	0.00e+00	0	42	0	369098752	61	5332
2026-01-06 23:09:43.20	41.77	32.44	-45.0	-48.1	16.0	0.00e+00	0	42	0	371195904	61	5170
2026-01-06 23:09:44.20	41.97	32.62	-44.9	-47.9	16.2	0.00e+00	0	42	0	373293056	61	5086
2026-01-06 23:09:45.27	42.19	32.80	-44.8	-47.7	16.3	0.00e+00	0	42	0	375390208	61	4960
2026-01-06 23:09:46.14	42.37	32.96	-44.6	-47.5	16.6	0.00e+00	0	42	0	376438784	61	4820
2026-01-06 23:09:47.29	42.60	33.16	-44.4	-47.3	16.8	0.00e+00	0	42	0	378535936	60	4984
2026-01-06 23:09:48.15	42.78	33.31	-44.3	-47.0	17.0	0.00e+00	0	42	0	380633088	60	4860
2026-01-06 23:09:49.29	43.02	33.52	-44.4	-47.2	16.9	0.00e+00	0	42	0	382730240	60	4950
2026-01-06 23:09:50.15	43.21	33.67	-44.2	-46.9	17.2	0.00e+00	0	42	0	383778816	60	4787
2026-01-06 23:09:51.30	43.45	33.88	-44.2	-46.9	17.1	0.00e+00	0	42	0	385875968	60	4813
2026-01-06 23:09:52.16	43.64	34.03	-44.2	-46.9	17.2	0.00e+00	0	42	0	387973120	60	4808
2026-01-06 23:09:53.31	43.89	34.24	-44.2	-46.9	17.1	0.00e+00	0	42	0	390070272	60	4811
2026-01-06 23:09:54.17	44.08	34.40	-44.1	-46.9	17.2	0.00e+00	0	42	0	392167424	60	4760
2026-01-06 23:09:55.34	44.35	34.61	-44.2	-47.0	17.1	0.00e+00	0	42	0	394264576	60	4831
2026-01-06 23:09:56.21	44.54	34.77	-43.8	-46.4	17.6	0.00e+00	0	42	0	395313152	59	4809
2026-01-06 23:09:57.35	44.80	34.98	-43.7	-46.3	17.7	0.00e+00	0	42	0	397410304	59	4728
2026-01-06 23:09:58.21	45.00	35.14	-43.6	-46.2	17.8	0.00e+00	0	42	0	399507456	59	4662
2026-01-06 23:09:59.36	45.27	35.35	-43.8	-46.4	17.6	0.00e+00	0	42	0	401604608	59	4772
2026-01-06 23:10:00.22	45.48	35.51	-43.9	-46.5	17.5	0.00e+00	0	42	0	402653184	59	4831
2026-01-06 23:10:01.36	45.75	35.72	-43.7	-46.2	17.8	0.00e+00	0	42	0	404750336	59	4699
2026-01-06 23:10:02.22	45.96	35.88	-43.5	-46.0	18.0	0.00e+00	0	42	0	406847488	59	4557
2026-01-06 23:10:03.37	46.24	36.09	-43.2	-45.6	18.4	0.00e+00	0	42	0	408944640	58	4614
2026-01-06 23:10:04.22	46.45	36.25	-43.0	-45.3	18.6	0.00e+00	0	42	0	411041792	58	4486
2026-01-06 23:10:05.37	46.74	36.47	-42.7	-45.1	18.9	0.00e+00	0	42	0	413138944	57	4609
2026-01-06 23:10:06.23	46.96	36.63	-42.7	-44.9	19.0	0.00e+00	0	42	0	414187520	57	4544
2026-01-06 23:10:07.38	47.26	36.84	-42.9	-45.3	18.7	0.00e+00	0	42	0	416284672	57	4717
2026-01-06 23:10:08.23	47.48	37.00	-43.0	-45.3	18.6	0.00e+00	0	42	0	418381824	57	4745
2026-01-06 23:10:09.38	47.78	37.22	-43.2	-45.6	18.3	0.00e+00	0	42	0	420478976	57	4906
2026-01-06 23:10:10.24	48.01	37.39	-43.2	-45.7	18.3	0.00e+00	0	42	0	421527552	57	4946
2026-01-06 23:10:11.38	48.32	37.60	-43.2	-45.7	18.2	0.00e+00	0	42	0	423624704	57	4960
2026-01-06 23:10:12.25	48.55	37.77	-43.0	-45.4	18.6	0.00e+00	0	42	0	425721856	57	4764
2026-01-06 23:10:13.39	48.87	37.99	-42.7	-45.0	18.9	0.00e+00	0	42	0	427819008	57	4588
2026-01-06 23:10:14.25	49.11	38.15	-42.6	-44.9	19.0	0.00e+00	0	42	0	428867584	57	4540
2026-01-06 23:10:15.60	49.49	38.41	-42.7	-45.0	18.9	0.00e+00	0	42	0	432013312	57	4566
2026-01-06 23:10:16.32	49.69	38.55	-42.8	-45.1	18.9	0.00e+00	0	42	0	433061888	57	4642
2026-01-06 23:10:17.61	50.07	38.80	-42.8	-45.2	18.8	0.00e+00	0	42	0	435159040	57	4674
2026-01-06 23:10:18.33	50.28	38.93	-42.9	-45.3	18.7	0.00e+00	0	42	0	437256192	57	4728
2026-01-06 23:10:19.62	50.66	39.18	-43.0	-45.4	18.6	0.00e+00	0	42	0	439353344	57	4776
2026-01-06 23:10:20.33	50.87	39.32	-43.1	-45.5	18.5	0.00e+00	0	42	0	440401920	57	4849
2026-01-06 23:10:21.62	51.26	39.57	-43.3	-45.7	18.3	0.00e+00	0	42	0	443547648	57	4947
2026-01-06 23:10:22.46	51.52	39.73	-43.5	-46.0	18.0	0.00e+00	0	42	0	444596224	57	5129
2026-01-06 23:10:23.61	51.87	39.96	-43.5	-46.0	18.0	0.00e+00	0	42	0	446693376	57	5123
2026-01-06 23:10:24.47	52.14	40.12	-43.5	-46.0	18.0	0.00e+00	0	42	0	448790528	57	5120
2026-01-06 23:10:25.61	52.51	40.34	-43.4	-45.9	18.0	0.00e+00	0	42	0	450887680	57	5099
2026-01-06 23:10:26.47	52.78	40.51	-43.3	-45.8	18.2	0.00e+00	0	42	0	451936256	57	5016
2026-01-06 23:10:27.62	53.16	40.73	-43.3	-45.7	18.2	0.00e+00	0	42	0	454033408	57	4977
2026-01-06 23:10:28.80	53.55	40.96	-43.3	-45.8	18.2	0.00e+00	0	42	0	456130560	57	5018
2026-01-06 23:10:29.83	53.89	41.16	-43.4	-45.9	18.2	0.00e+00	0	42	0	458227712	57	5045
2026-01-06 23:10:30.83	54.23	41.36	-43.5	-46.0	18.1	0.00e+00	0	42	0	460324864	57	5106
2026-01-06 23:10:31.83	54.57	41.55	-43.7	-46.2	17.8	0.00e+00	0	42	0	462422016	57	5241
2026-01-06 23:10:32.84	54.92	41.75	-43.6	-46.1	17.9	0.00e+00	0	42	0	464519168	58	4914
2026-01-06 23:10:33.84	55.27	41.94	-43.7	-46.3	17.7	0.00e+00	0	42	0	465567744	58	5021
2026-01-06 23:10:34.84	55.62	42.13	-43.8	-46.4	17.8	0.00e+00	0	42	0	467664896	58	5053
2026-01-06 23:10:35.85	55.99	42.33	-43.6	-46.2	17.9	0.00e+00	0	42	0	469762048	58	4929
2026-01-06 23:10:36.85	56.35	42.52	-43.6	-46.1	17.9	0.00e+00	0	42	0	471859200	58	4917
2026-01-06 23:10:37.85	56.72	42.72	-43.6	-46.1	18.0	0.00e+00	0	42	0	473956352	58	4900
2026-01-06 23:10:38.86	57.09	42.91	-43.8	-46.3	17.7	0.00e+00	0	42	0	475004928	58	5030
2026-01-06 23:10:39.86	57.47	43.10	-44.0	-46.7	17.4	0.00e+00	0	42	0	477102080	58	5246
2026-01-06 23:10:40.86	57.85	43.30	-44.0	-46.6	17.4	0.00e+00	0	42	0	479199232	58	5192
2026-01-06 23:10:41.86	58.24	43.49	-43.9	-46.5	17.6	0.00e+00	0	42	0	481296384	58	5116
2026-01-06 23:10:42.87	58.63	43.68	-43.7	-46.2	17.9	0.00e+00	0	42	0	483393536	58	4942
2026-01-06 23:10:43.87	59.03	43.87	-43.2	-45.6	18.4	0.00e+00	0	42	0	484442112	58	4642
2026-01-06 23:10:44.87	59.42	44.06	-43.2	-45.6	18.4	0.00e+00	0	42	0	486539264	58	4642
2026-01-06 23:10:45.87	59.83	44.25	-43.5	-46.0	18.0	0.00e+00	0	42	0	488636416	58	4858
2026-01-06 23:10:46.87	60.24	44.44	-44.0	-46.6	17.5	0.00e+00	0	42	0	490733568	58	5217
2026-01-06 23:10:47.88	60.66	44.63	-44.5	-47.2	16.8	0.00e+00	0	42	0	492830720	59	5276
2026-01-06 23:10:48.88	61.07	44.82	-44.7	-47.6	16.6	0.00e+00	0	42	0	493879296	60	5188
2026-01-06 23:10:49.88	61.50	45.00	-44.7	-47.6	16.6	0.00e+00	0	42	0	495976448	60	5170
2026-01-06 23:10:50.89	61.93	45.19	-44.5	-47.4	16.8	0.00e+00	0	42	0	498073600	60	5047
2026-01-06 23:10:51.89	62.36	45.38	-44.5	-47.4	16.8	0.00e+00	0	42	0	500170752	60	5047
2026-01-06 23:10:52.89	62.80	45.56	-44.3	-47.0	17.2	0.00e+00	0	42	0	502267904	60	4848
2026-01-06 23:10:53.95	63.27	45.75	-44.3	-47.1	17.1	0.00e+00	0	42	0	503316480	60	4875
2026-01-06 23:10:54.82	63.66	45.91	-44.5	-47.3	16.9	0.00e+00	0	42	0	505413632	60	5015
2026-01-06 23:10:56.13	64.26	46.15	-44.7	-47.6	16.5	0.00e+00	0	42	0	507510784	60	5172
2026-01-06 23:10:57.26	64.78	46.35	-44.8	-47.8	16.4	0.00e+00	0	42	0	509607936	60	5304
2026-01-06 23:10:58.11	65.18	46.50	-44.7	-47.5	16.6	0.00e+00	0	42	0	511705088	60	5153
2026-01-06 23:10:59.29	65.73	46.71	-44.5	-47.3	16.8	0.00e+00	0	42	0	513802240	60	5005
2026-01-06 23:11:00.15	66.14	46.86	-44.3	-47.1	17.0	0.00e+00	0	42	0	515899392	60	4880
2026-01-06 23:11:01.34	66.72	47.07	-44.0	-46.7	17.4	0.00e+00	0	42	0	517996544	60	4663
2026-01-06 23:11:02.20	67.14	47.22	-44.0	-46.6	17.5	0.00e+00	0	42	0	519045120	59	4901
2026-01-06 23:11:03.42	67.74	47.43	-44.2	-46.8	17.3	0.00e+00	0	42	0	521142272	59	5034
2026-01-06 23:11:04.28	68.17	47.57	-44.3	-47.0	17.0	0.00e+00	0	42	0	523239424	59	5157
2026-01-06 23:11:05.49	68.78	47.78	-44.5	-47.2	16.8	0.00e+00	0	42	0	525336576	59	5276
2026-01-06 23:11:06.34	69.21	47.92	-44.5	-47.2	16.8	0.00e+00	0	42	0	527433728	59	5273
2026-01-06 23:11:07.49	69.80	48.11	-44.2	-46.9	17.2	0.00e+00	0	42	0	529530880	59	5055
2026-01-06 23:11:08.35	70.25	48.25	-44.2	-46.9	17.2	0.00e+00	0	42	0	530579456	59	5055
2026-01-06 23:11:09.62	70.92	48.45	-43.9	-46.5	17.6	0.00e+00	0	42	0	533725184	59	4824
2026-01-06 23:11:10.34	71.30	48.56	-43.8	-46.3	17.7	0.00e+00	0	42	0	534773760	59	4752
2026-01-06 23:11:11.62	71.99	48.76	-43.8	-46.4	17.7	0.00e+00	0	42	0	536870912	59	4780
2026-01-06 23:11:12.34	72.38	48.87	-43.9	-46.5	17.6	0.00e+00	0	42	0	537919488	59	4831
2026-01-06 23:11:13.63	73.09	49.07	-43.9	-46.5	17.7	0.00e+00	0	42	0	541065216	59	4815
2026-01-06 23:11:14.35	73.49	49.18	-43.4	-45.9	18.2	0.00e+00	0	42	0	542113792	58	4794
2026-01-06 23:11:15.64	74.21	49.37	-43.2	-45.6	18.5	0.00e+00	0	42	0	544210944	58	4610
2026-01-06 23:11:16.50	74.69	49.49	-43.3	-45.8	18.3	0.00e+00	0	42	0	546308096	58	4708
2026-01-06 23:11:17.64	75.34	49.65	-43.7	-46.3	17.8	0.00e+00	0	42	0	548405248	58	5005
2026-01-06 23:11:18.71	75.96	49.80	-44.0	-46.6	17.5	0.00e+00	0	42	0	550502400	58	5181
2026-01-06 23:11:19.74	76.56	49.94	-44.2	-46.9	17.3	0.00e+00	0	42	0	552599552	58	5349
2026-01-06 23:11:20.74	77.14	50.08	-44.0	-46.6	17.4	0.00e+00	0	42	0	553648128	58	5214
2026-01-06 23:11:21.95	77.86	50.23	-43.8	-46.3	17.7	0.00e+00	0	42	0	555745280	58	5013
2026-01-06 23:11:22.84	78.39	50.35	-43.7	-46.3	17.7	0.00e+00	0	42	0	557842432	58	5008
2026-01-06 23:11:23.99	79.09	50.49	-43.7	-46.2	17.8	0.00e+00	0	42	0	559939584	58	4980
2026-01-06 23:11:24.85	79.61	50.60	-44.0	-46.7	17.4	0.00e+00	0	42	0	562036736	58	5230
2026-01-06 23:11:25.99	80.31	50.73	-44.1	-46.9	17.2	0.00e+00	0	42	0	564133888	59	5043
2026-01-06 23:11:26.86	80.84	50.83	-44.2	-47.0	17.1	0.00e+00	0	42	0	565182464	59	5118
2026-01-06 23:11:28.00	81.55	50.96	-43.8	-46.4	17.7	0.00e+00	0	42	0	567279616	59	4777
2026-01-06 23:11:28.86	82.09	51.05	-43.4	-45.9	18.1	0.00e+00	0	42	0	569376768	58	4786
2026-01-06 23:11:30.01	82.82	51.17	-43.2	-45.6	18.4	0.00e+00	0	42	0	571473920	58	4635
2026-01-06 23:11:30.87	83.36	51.26	-43.3	-45.8	18.2	0.00e+00	0	42	0	572522496	58	4746
2026-01-06 23:11:32.02	84.10	51.38	-43.4	-46.0	18.0	0.00e+00	0	42	0	575668224	58	4834
2026-01-06 23:11:32.88	84.65	51.46	-43.5	-46.1	17.9	0.00e+00	0	42	0	576716800	58	4920
2026-01-06 23:11:34.04	85.40	51.57	-43.3	-45.9	18.2	0.00e+00	0	42	0	578813952	58	4776
2026-01-06 23:11:34.90	85.96	51.64	-43.1	-45.6	18.4	0.00e+00	0	42	0	580911104	58	4635
2026-01-06 23:11:36.04	86.71	51.74	-43.2	-45.7	18.3	0.00e+00	0	42	0	583008256	58	4695
2026-01-06 23:11:36.90	87.28	51.81	-43.6	-46.1	17.9	0.00e+00	0	42	0	584056832	58	4901
2026-01-06 23:11:38.05	88.04	51.90	-43.6	-46.2	17.9	0.00e+00	0	42	0	586153984	58	4980
2026-01-06 23:11:38.91	88.61	51.96	-43.2	-45.7	18.3	0.00e+00	0	42	0	588251136	58	4701
2026-01-06 23:11:40.06	89.38	52.04	-42.8	-45.3	18.7	0.00e+00	0	42	0	590348288	57	4718
2026-01-06 23:11:41.04	90.04	52.10	-42.5	-44.8	19.1	0.00e+00	0	42	0	592445440	56	4744
2026-01-06 23:11:42.04	90.72	52.16	-42.7	-45.1	18.9	0.00e+00	0	42	0	593494016	56	4888
2026-01-06 23:11:43.05	91.40	52.22	-42.9	-45.3	18.7	0.00e+00	0	42	0	595591168	56	5012
2026-01-06 23:11:44.05	92.08	52.28	-42.8	-45.1	18.8	0.00e+00	0	42	0	597688320	56	4919
2026-01-06 23:11:45.05	92.77	52.33	-42.7	-45.0	19.0	0.00e+00	0	42	0	599785472	56	4842
2026-01-06 23:11:46.05	93.45	52.37	-42.1	-44.3	19.6	0.00e+00	0	42	0	601882624	56	4488
2026-01-06 23:11:47.05	94.14	52.41	-41.8	-44.0	19.7	0.00e+00	0	42	0	602931200	55	4583
2026-01-06 23:11:48.05	94.83	52.45	-41.9	-44.2	19.6	0.00e+00	0	42	0	605028352	55	4668
2026-01-06 23:11:49.06	95.53	52.48	-42.5	-44.9	19.0	0.00e+00	0	42	0	607125504	55	5057
2026-01-06 23:11:50.06	96.22	52.51	-42.5	-44.8	19.0	0.00e+00	0	42	0	609222656	55	5018
2026-01-06 23:11:51.07	96.92	52.53	-42.3	-44.5	19.3	0.00e+00	0	42	0	611319808	55	4850
2026-01-06 23:11:52.07	97.61	52.55	-42.2	-44.4	19.4	0.00e+00	0	42	0	612368384	55	4783
2026-01-06 23:11:53.07	98.31	52.57	-42.4	-44.7	19.1	0.00e+00	0	42	0	614465536	55	4939
2026-01-06 23:11:54.17	99.08	52.58	-42.3	-44.5	19.2	0.00e+00	0	42	0	616562688	55	4868
2026-01-06 23:11:55.03	99.68	52.59	-42.0	-44.2	19.5	0.00e+00	0	42	0	618659840	55	4690
2026-01-06 23:11:56.17	100.47	52.59	-41.8	-44.0	19.8	0.00e+00	0	42	0	620756992	55	4557
2026-01-06 23:11:57.03	101.07	52.59	-41.8	-44.0	19.8	0.00e+00	0	42	0	621805568	55	4578
2026-01-06 23:11:58.18	101.87	52.58	-42.0	-44.3	19.5	0.00e+00	0	42	0	623902720	55	4710
2026-01-06 23:11:59.04	102.47	52.57	-42.3	-44.6	19.3	0.00e+00	0	42	0	625999872	55	4884
2026-01-06 23:12:00.19	103.27	52.56	-42.4	-44.7	19.2	0.00e+00	0	42	0	628097024	55	4951
2026-01-06 23:12:01.05	103.87	52.54	-42.3	-44.6	19.2	0.00e+00	0	42	0	629145600	55	4890
2026-01-06 23:12:02.19	104.66	52.51	-42.2	-44.5	19.3	0.00e+00	0	42	0	631242752	55	4855
2026-01-06 23:12:03.40	105.50	52.48	-42.4	-44.7	19.1	0.00e+00	0	42	0	634388480	55	4968
2026-01-06 23:12:04.26	106.09	52.45	-42.2	-44.4	19.4	0.00e+00	0	42	0	635437056	55	4810
2026-01-06 23:12:05.41	106.88	52.41	-41.7	-43.8	19.9	0.00e+00	0	42	0	637534208	55	4485
2026-01-06 23:12:06.26	107.47	52.38	-41.6	-43.7	20.1	0.00e+00	0	42	0	639631360	55	4431
2026-01-06 23:12:07.41	108.26	52.32	-41.9	-44.2	19.7	0.00e+00	0	42	0	641728512	55	4661
2026-01-06 23:12:08.27	108.85	52.28	-41.9	-44.1	19.7	0.00e+00	0	42	0	642777088	55	4636
2026-01-06 23:12:09.42	109.63	52.22	-41.9	-44.1	19.6	0.00e+00	0	42	0	644874240	55	4634
2026-01-06 23:12:10.27	110.21	52.17	-41.7	-43.9	19.9	0.00e+00	0	42	0	646971392	55	4523
2026-01-06 23:12:11.42	110.98	52.10	-41.9	-44.1	19.7	0.00e+00	0	42	0	649068544	55	4624
2026-01-06 23:12:12.28	111.56	52.05	-42.0	-44.2	19.6	0.00e+00	0	42	0	651165696	55	4703
2026-01-06 23:12:13.52	112.39	51.96	-43.0	-45.4	18.6	0.00e+00	0	42	0	653262848	56	5057
2026-01-06 23:12:14.37	112.96	51.90	-42.6	-45.0	19.0	0.00e+00	0	42	0	654311424	56	4816
2026-01-06 23:12:15.59	113.77	51.80	-42.3	-44.5	19.4	0.00e+00	0	42	0	656408576	56	4585
2026-01-06 23:12:16.44	114.33	51.74	-42.3	-44.6	19.4	0.00e+00	0	42	0	658505728	56	4600
2026-01-06 23:12:17.59	115.09	51.64	-43.7	-46.1	18.4	0.00e+00	0	42	0	660602880	57	5175
2026-01-06 23:12:18.45	115.65	51.56	-43.6	-46.2	17.8	0.00e+00	0	42	0	662700032	57	5224
2026-01-06 23:12:19.60	116.39	51.46	-43.5	-46.0	18.0	0.00e+00	0	42	0	664797184	58	4849
2026-01-06 23:12:20.45	116.94	51.37	-43.4	-45.9	18.1	0.00e+00	0	42	0	665845760	58	4782
2026-01-06 23:12:21.60	117.68	51.26	-43.9	-46.4	17.5	0.00e+00	0	42	0	667942912	58	5100
2026-01-06 23:12:22.46	118.23	51.17	-44.5	-47.3	16.8	0.00e+00	0	42	0	670040064	59	5299
2026-01-06 23:12:23.60	118.95	51.05	-44.8	-47.8	16.4	0.00e+00	0	42	0	672137216	60	5291
2026-01-06 23:12:24.64	119.60	50.94	-44.4	-47.1	16.9	0.00e+00	0	42	0	674234368	60	4916
2026-01-06 23:12:25.64	120.22	50.82	-43.9	-46.5	17.6	0.00e+00	0	42	0	675282944	59	4830
2026-01-06 23:12:26.85	120.97	50.68	-44.3	-47.0	17.1	0.00e+00	0	42	0	678428672	59	5132
2026-01-06 23:12:27.74	121.51	50.58	-44.7	-47.6	16.5	0.00e+00	0	42	0	679477248	60	5206
2026-01-06 23:12:28.89	122.21	50.43	-45.0	-48.1	16.1	0.00e+00	0	42	0	681574400	60	5491
2026-01-06 23:12:29.81	122.76	50.32	-44.8	-47.7	16.4	0.00e+00	0	42	0	683671552	60	5254
2026-01-06 23:12:30.99	123.47	50.17	-44.4	-47.2	16.9	0.00e+00	0	42	0	685768704	60	4955
2026-01-06 23:12:31.85	123.98	50.05	-44.2	-46.9	17.2	0.00e+00	0	42	0	686817280	60	4790
2026-01-06 23:12:32.99	124.64	49.90	-44.9	-47.9	16.3	0.00e+00	0	42	0	689963008	60	5394
2026-01-06 23:12:33.86	125.15	49.78	-45.6	-49.0	15.2	0.00e+00	0	42	0	691011584	61	5735
2026-01-06 23:12:35.00	125.81	49.62	-45.9	-49.3	14.8	0.00e+00	0	42	0	693108736	62	5639
2026-01-06 23:12:35.86	126.30	49.50	-45.9	-49.4	14.8	0.00e+00	0	42	0	695205888	62	5661
2026-01-06 23:12:37.01	126.95	49.33	-46.4	-50.2	14.0	1.50e-06	0	42	0	697303040	63	5862
2026-01-06 23:12:37.87	127.43	49.20	-46.5	-50.3	13.8	4.50e-06	0	42	0	698351616	63	5990
2026-01-06 23:12:39.01	128.06	49.03	-46.3	-50.1	14.1	1.50e-06	0	42	0	700448768	63	5797
2026-01-06 23:12:39.87	128.53	48.90	-46.2	-49.9	14.2	2.20e-06	0	42	0	702545920	63	5682
2026-01-06 23:12:41.05	129.18	48.72	-46.0	-49.5	14.6	7.00e-07	0	42	0	704643072	63	5458
2026-01-06 23:12:41.91	129.64	48.59	-45.7	-49.1	15.1	0.00e+00	0	42	0	705691648	63	5175
2026-01-06 23:12:43.06	130.25	48.40	-45.9	-49.4	14.7	7.00e-07	0	42	0	708837376	63	5347
2026-01-06 23:12:43.92	130.71	48.26	-46.4	-50.2	13.9	7.00e-07	0	42	0	709885952	63	5917
2026-01-06 23:12:45.06	131.30	48.08	-46.6	-50.5	13.5	9.10e-06	0	42	0	711983104	64	5788
2026-01-06 23:12:45.92	131.75	47.94	-46.4	-50.3	13.8	6.10e-06	0	42	0	714080256	64	5594
2026-01-06 23:12:47.07	132.33	47.75	-45.9	-49.4	14.8	7.00e-07	0	42	0	716177408	63	5345
2026-01-06 23:12:47.93	132.77	47.60	-45.7	-49.1	15.0	0.00e+00	0	42	0	717225984	63	5201
2026-01-06 23:12:49.08	133.34	47.41	-46.2	-49.9	14.3	0.00e+00	0	42	0	719323136	63	5687
2026-01-06 23:12:49.94	133.77	47.26	-46.6	-50.6	13.5	5.30e-06	0	42	0	721420288	63	6184
2026-01-06 23:12:51.08	134.33	47.06	-46.9	-51.3	12.7	4.11e-05	0	42	0	723517440	64	6308
2026-01-06 23:12:51.95	134.75	46.91	-46.7	-50.9	13.2	5.79e-05	0	42	0	724566016	64	6005
2026-01-06 23:12:53.09	135.29	46.71	-45.8	-49.2	14.9	7.00e-07	0	42	0	726663168	63	5238
2026-01-06 23:12:53.95	135.70	46.56	-45.5	-48.7	15.4	7.00e-07	0	42	0	728760320	63	4961
2026-01-06 23:12:55.10	136.24	46.35	-45.5	-48.8	15.3	0.00e+00	0	42	0	730857472	62	5332
2026-01-06 23:12:55.96	136.64	46.20	-45.7	-49.1	15.0	0.00e+00	0	42	0	732954624	62	5466
2026-01-06 23:12:57.10	137.16	45.99	-45.1	-48.2	15.9	0.00e+00	0	42	0	735051776	62	4970
2026-01-06 23:12:58.01	137.57	45.82	-44.7	-47.7	16.5	0.00e+00	0	42	0	736100352	61	4940
2026-01-06 23:12:59.02	138.02	45.64	-44.3	-47.1	17.0	0.00e+00	0	42	0	738197504	60	4886
2026-01-06 23:13:00.03	138.47	45.45	-44.3	-47.1	17.0	0.00e+00	0	42	0	740294656	60	4884
2026-01-06 23:13:01.03	138.91	45.27	-44.2	-47.0	17.2	0.00e+00	0	42	0	742391808	60	4823
2026-01-06 23:13:02.03	139.34	45.08	-44.7	-47.6	16.5	0.00e+00	0	42	0	743440384	60	5193
2026-01-06 23:13:03.03	139.77	44.90	-45.1	-48.2	15.9	0.00e+00	0	42	0	745537536	60	5572
2026-01-06 23:13:04.03	140.19	44.71	-45.2	-48.3	15.8	0.00e+00	0	42	0	747634688	61	5336
2026-01-06 23:13:05.04	140.61	44.52	-44.7	-47.7	16.4	0.00e+00	0	42	0	749731840	61	4941
2026-01-06 23:13:06.04	141.02	44.33	-44.3	-47.1	17.0	0.00e+00	0	42	0	751828992	60	4908
2026-01-06 23:13:07.04	141.43	44.14	-44.1	-46.8	17.3	0.00e+00	0	42	0	752877568	60	4752
2026-01-06 23:13:08.04	141.83	43.95	-44.5	-47.4	16.8	0.00e+00	0	42	0	754974720	60	5081
2026-01-06 23:13:09.04	142.23	43.76	-45.1	-48.3	15.9	0.00e+00	0	42	0	757071872	60	5608
2026-01-06 23:13:10.05	142.63	43.56	-45.7	-49.2	14.9	0.00e+00	0	42	0	759169024	62	5579
2026-01-06 23:13:11.05	143.02	43.37	-45.7	-49.2	14.9	0.00e+00	0	42	0	761266176	62	5536
2026-01-06 23:13:12.05	143.40	43.18	-45.0	-48.1	16.0	0.00e+00	0	42	0	762314752	62	4874
2026-01-06 23:13:13.06	143.78	42.98	-44.7	-47.6	16.5	0.00e+00	0	42	0	764411904	61	4872
2026-01-06 23:13:14.43	144.30	42.72	-44.1	-46.8	17.3	0.00e+00	0	42	0	767557632	60	4733
2026-01-06 23:13:15.18	144.57	42.57	-44.6	-47.4	16.8	0.00e+00	0	42	0	768606208	60	5065
2026-01-06 23:13:16.79	145.16	42.26	-47.0	-51.4	12.7	1.50e-06	0	42	0	771751936	64	6369
2026-01-06 23:13:17.36	145.37	42.15	-47.5	-52.5	11.5	7.70e-05	0	42	0	772800512	65	6807
2026-01-06 23:13:18.94	145.93	41.84	-46.5	-50.4	13.5	7.85e-05	0	42	0	775946240	65	5402
2026-01-06 23:13:19.54	146.14	41.72	-46.0	-49.7	14.3	1.60e-05	0	42	0	776994816	64	5230
2026-01-06 23:13:21.12	146.68	41.41	-45.9	-49.3	14.9	0.00e+00	0	42	0	780140544	63	5309
2026-01-06 23:13:21.72	146.89	41.30	-46.2	-49.8	14.3	0.00e+00	0	42	0	781189120	63	5633
2026-01-06 23:13:23.29	147.42	40.99	-47.6	-52.7	11.2	1.23e-04	0	42	0	783286272	65	7003
2026-01-06 23:13:23.91	147.63	40.87	-48.1	-54.0	9.8	6.53e-03	0	42	0	785383424	66	7692
2026-01-06 23:13:25.49	148.14	40.56	-46.5	-50.9	12.6	1.94e-03	0	42	0	787480576	65	5679
2026-01-06 23:13:26.06	148.33	40.45	-45.7	-49.4	14.1	1.56e-04	0	42	0	788529152	63	5381
2026-01-06 23:13:27.64	148.84	40.14	-44.7	-47.9	15.7	0.00e+00	0	42	0	791674880	61	5076
2026-01-06 23:13:28.55	149.12	39.96	-45.0	-48.2	15.6	0.00e+00	0	42	0	793772032	61	5223
2026-01-06 23:13:29.57	149.44	39.77	-46.4	-50.2	13.9	0.00e+00	0	42	0	795869184	63	5921
2026-01-06 23:13:30.57	149.75	39.57	-48.2	-54.1	9.7	2.16e-03	0	42	0	797966336	66	7783
2026-01-06 23:13:31.57	150.05	39.38	-48.4	-55.0	8.7	4.10e-02	0	42	0	799014912	67	8156
2026-01-06 23:13:32.57	150.35	39.18	-47.0	-51.4	12.4	7.03e-03	0	42	0	801112064	66	5691
2026-01-06 23:13:33.58	150.65	38.99	-46.0	-49.7	14.3	1.50e-06	0	42	0	803209216	64	5223
2026-01-06 23:13:34.58	150.95	38.79	-45.8	-49.3	14.8	0.00e+00	0	42	0	805306368	63	5283
2026-01-06 23:13:35.59	151.24	38.60	-45.7	-48.9	15.1	0.00e+00	0	42	0	806354944	62	5400
2026-01-06 23:13:36.59	151.53	38.40	-46.0	-49.5	14.6	7.00e-07	0	42	0	808452096	62	5771
2026-01-06 23:13:37.60	151.82	38.21	-46.4	-50.1	14.0	1.50e-06	0	42	0	810549248	63	5810
2026-01-06 23:13:38.85	152.17	37.97	-46.6	-50.5	13.6	6.10e-06	0	42	0	812646400	63	6109
2026-01-06 23:13:39.63	152.38	37.82	-46.8	-51.0	13.1	1.29e-05	0	42	0	814743552	64	6064
2026-01-06 23:13:41.24	152.82	37.51	-46.0	-49.6	14.4	3.00e-06	0	42	0	817889280	64	5177
2026-01-06 23:13:41.82	152.98	37.40	-45.6	-49.0	15.1	0.00e+00	0	42	0	818937856	63	5102
2026-01-06 23:13:43.41	153.40	37.10	-44.9	-47.9	16.2	0.00e+00	0	42	0	821035008	61	5095
2026-01-06 23:13:43.99	153.55	36.99	-44.9	-47.9	16.2	0.00e+00	0	42	0	823132160	61	5082
2026-01-06 23:13:45.57	153.97	36.69	-45.1	-48.2	15.9	0.00e+00	0	42	0	825229312	61	5258
2026-01-06 23:13:46.16	154.12	36.57	-45.4	-48.7	15.5	0.00e+00	0	42	0	826277888	61	5559
2026-01-06 23:13:47.73	154.51	36.28	-46.2	-49.9	14.3	7.00e-07	0	42	0	829423616	62	6030
2026-01-06 23:13:48.36	154.67	36.16	-46.2	-49.9	14.2	1.50e-06	0	42	0	830472192	63	5706
2026-01-06 23:13:49.81	155.03	35.89	-45.4	-48.7	15.4	0.00e+00	0	42	0	833617920	62	5243
2026-01-06 23:13:50.53	155.21	35.75	-45.2	-48.3	15.8	0.00e+00	0	42	0	834666496	62	5027
2026-01-06 23:13:51.82	155.52	35.51	-44.9	-47.9	16.1	0.00e+00	0	42	0	837812224	61	5093
2026-01-06 23:13:52.53	155.69	35.38	-44.8	-47.7	16.3	0.00e+00	0	42	0	838860800	61	4968
2026-01-06 23:13:53.82	155.99	35.14	-44.5	-47.3	16.8	0.00e+00	0	42	0	840957952	60	5021
2026-01-06 23:13:54.68	156.19	34.98	-44.5	-47.3	16.8	0.00e+00	0	42	0	843055104	60	5028
2026-01-06 23:13:56.15	156.53	34.71	-45.2	-48.3	15.8	0.00e+00	0	42	0	845152256	60	5634
2026-01-06 23:13:56.86	156.69	34.58	-45.7	-49.1	15.0	0.00e+00	0	42	0	847249408	61	5838
2026-01-06 23:13:58.16	156.99	34.34	-46.1	-49.8	14.3	0.00e+00	0	42	0	849346560	62	5963
2026-01-06 23:13:58.89	157.15	34.21	-45.9	-49.5	14.6	7.00e-07	0	42	0	850395136	62	5783
2026-01-06 23:14:00.18	157.43	33.97	-45.0	-48.1	15.9	0.00e+00	0	42	0	852492288	62	4901
2026-01-06 23:14:00.99	157.61	33.83	-44.8	-47.8	16.2	0.00e+00	0	42	0	854589440	61	5021
2026-01-06 23:14:02.14	157.86	33.62	-44.5	-47.3	16.7	0.00e+00	0	42	0	856686592	60	5010
2026-01-06 23:14:03.23	158.09	33.42	-44.2	-47.0	17.1	0.00e+00	0	42	0	858783744	60	4830
2026-01-06 23:14:04.09	158.27	33.27	-44.7	-47.6	16.6	0.00e+00	0	42	0	859832320	60	5162
2026-01-06 23:14:05.59	158.58	33.00	-45.7	-49.2	14.8	0.00e+00	0	42	0	862978048	62	5579
2026-01-06 23:14:06.31	158.73	32.87	-46.4	-50.4	13.7	0.00e+00	0	42	0	864026624	63	6029
2026-01-06 23:14:07.60	158.99	32.65	-47.0	-51.8	12.2	6.86e-05	0	42	0	867172352	64	6688
2026-01-06 23:14:08.31	159.14	32.52	-46.7	-51.3	12.6	1.68e-04	0	42	0	868220928	64	6315
2026-01-06 23:14:09.60	159.39	32.29	-45.9	-49.7	14.3	1.14e-05	0	42	0	870318080	63	5557
2026-01-06 23:14:10.32	159.53	32.17	-45.4	-48.8	15.2	0.00e+00	0	42	0	872415232	62	5297
2026-01-06 23:14:11.60	159.78	31.94	-44.5	-47.5	16.6	0.00e+00	0	42	0	874512384	61	4825
2026-01-06 23:14:12.32	159.92	31.82	-44.4	-47.3	16.8	0.00e+00	0	42	0	875560960	60	5000
2026-01-06 23:14:13.61	160.17	31.60	-44.5	-47.4	16.6	0.00e+00	0	42	0	877658112	60	5066
2026-01-06 23:14:14.33	160.31	31.47	-44.4	-47.3	16.7	0.00e+00	0	42	0	879755264	60	5027
2026-01-06 23:14:15.62	160.55	31.25	-44.9	-48.0	16.1	0.00e+00	0	42	0	881852416	60	5424
2026-01-06 23:14:16.34	160.68	31.13	-45.3	-48.5	15.5	0.00e+00	0	42	0	882900992	61	5444
2026-01-06 23:14:17.78	160.94	30.88	-45.8	-49.3	14.7	0.00e+00	0	42	0	886046720	62	5652
2026-01-06 23:14:18.50	161.07	30.76	-45.9	-49.5	14.6	0.00e+00	0	42	0	887095296	62	5725
2026-01-06 23:14:19.79	161.30	30.54	-46.0	-49.6	14.5	7.00e-07	0	42	0	890241024	62	5832
2026-01-06 23:14:20.50	161.43	30.42	-45.8	-49.4	14.6	7.00e-07	0	42	0	891289600	62	5693
2026-01-06 23:14:21.79	161.66	30.21	-45.5	-48.9	15.2	0.00e+00	0	42	0	893386752	62	5354
2026-01-06 23:14:22.51	161.78	30.09	-45.2	-48.5	15.6	0.00e+00	0	42	0	894435328	62	5101
2026-01-06 23:14:23.80	162.00	29.87	-44.9	-48.0	16.1	0.00e+00	0	42	0	897581056	61	5126
2026-01-06 23:14:24.52	162.13	29.75	-44.9	-48.0	16.1	0.00e+00	0	42	0	898629632	61	5134
2026-01-06 23:14:25.80	162.34	29.54	-44.7	-47.6	16.4	0.00e+00	0	42	0	900726784	61	4909
2026-01-06 23:14:26.52	162.46	29.42	-44.6	-47.5	16.6	0.00e+00	0	42	0	902823936	61	4844
2026-01-06 23:14:27.81	162.67	29.21	-44.6	-47.5	16.5	0.00e+00	0	42	0	904921088	61	4865
2026-01-06 23:14:28.62	162.81	29.08	-44.4	-47.2	16.9	0.00e+00	0	42	0	905969664	60	4945
2026-01-06 23:14:29.77	162.99	28.89	-44.3	-47.1	16.9	0.00e+00	0	42	0	908066816	60	4904
2026-01-06 23:14:30.63	163.13	28.76	-44.3	-47.1	16.9	0.00e+00	0	42	0	910163968	60	4885
2026-01-06 23:14:31.78	163.31	28.57	-44.3	-47.1	16.9	0.00e+00	0	42	0	912261120	60	4909
2026-01-06 23:14:32.64	163.45	28.43	-44.4	-47.3	16.8	0.00e+00	0	42	0	913309696	60	4987
2026-01-06 23:14:33.78	163.63	28.25	-44.8	-47.7	16.3	0.00e+00	0	42	0	916455424	60	5277
2026-01-06 23:14:34.65	163.76	28.11	-45.0	-48.1	15.9	0.00e+00	0	42	0	917504000	60	5500
2026-01-06 23:14:35.82	163.94	27.93	-45.3	-48.5	15.5	0.00e+00	0	42	0	919601152	61	5451
2026-01-06 23:14:36.68	164.07	27.79	-45.3	-48.6	15.5	0.00e+00	0	42	0	921698304	61	5465
2026-01-06 23:14:37.89	164.25	27.61	-45.1	-48.3	15.7	0.00e+00	0	42	0	923795456	61	5307
2026-01-06 23:14:38.75	164.38	27.47	-44.9	-48.1	15.9	0.00e+00	0	42	0	924844032	61	5176
2026-01-06 23:14:39.90	164.55	27.29	-44.7	-47.7	16.3	0.00e+00	0	42	0	926941184	61	4937
2026-01-06 23:14:40.76	164.67	27.16	-44.5	-47.4	16.6	0.00e+00	0	42	0	929038336	60	5067
2026-01-06 23:14:42.03	164.85	26.97	-44.2	-47.0	17.0	0.00e+00	0	42	0	931135488	60	4820
2026-01-06 23:14:42.75	164.96	26.86	-44.1	-46.8	17.2	0.00e+00	0	42	0	933232640	60	4740
2026-01-06 23:14:44.04	165.14	26.66	-44.1	-46.8	17.1	0.00e+00	0	42	0	935329792	59	5037
2026-01-06 23:14:44.76	165.24	26.55	-44.4	-47.2	16.7	0.00e+00	0	42	0	936378368	59	5261
2026-01-06 23:14:46.05	165.42	26.36	-44.3	-47.1	16.8	0.00e+00	0	42	0	938475520	59	5179
2026-01-06 23:14:46.77	165.52	26.25	-44.5	-47.3	16.6	0.00e+00	0	42	0	940572672	59	5337
2026-01-06 23:14:48.05	165.69	26.06	-44.8	-47.9	16.1	0.00e+00	0	42	0	942669824	60	5364
2026-01-06 23:14:48.77	165.79	25.95	-44.8	-47.9	16.1	0.00e+00	0	42	0	943718400	60	5356
2026-01-06 23:14:50.06	165.96	25.76	-45.0	-48.1	15.9	0.00e+00	0	42	0	946864128	60	5498
2026-01-06 23:14:50.78	166.06	25.65	-45.0	-48.2	15.8	0.00e+00	0	42	0	947912704	60	5549
2026-01-06 23:14:52.08	166.23	25.46	-44.8	-47.9	16.1	0.00e+00	0	42	0	950009856	60	5363
2026-01-06 23:14:52.80	166.32	25.35	-44.8	-47.9	16.1	0.00e+00	0	42	0	952107008	60	5343
2026-01-06 23:14:54.09	166.49	25.17	-44.7	-47.7	16.3	0.00e+00	0	42	0	954204160	60	5262
2026-01-06 23:14:54.81	166.58	25.06	-44.7	-47.7	16.2	0.00e+00	0	42	0	955252736	60	5274
2026-01-06 23:14:56.26	166.76	24.85	-44.7	-47.8	16.2	0.00e+00	0	42	0	958398464	60	5286
2026-01-06 23:14:56.98	166.85	24.75	-44.6	-47.6	16.3	0.00e+00	0	42	0	959447040	60	5209
2026-01-06 23:14:58.27	167.01	24.57	-44.4	-47.4	16.6	0.00e+00	0	42	0	961544192	60	5054
2026-01-06 23:14:58.98	167.10	24.47	-44.3	-47.2	16.7	0.00e+00	0	42	0	963641344	60	4977
2026-01-06 23:15:00.27	167.26	24.28	-44.2	-47.1	16.9	0.00e+00	0	42	0	965738496	60	4889
2026-01-06 23:15:00.98	167.34	24.18	-44.0	-46.7	17.1	0.00e+00	0	42	0	966787072	59	4968
2026-01-06 23:15:02.27	167.50	24.00	-43.7	-46.5	17.3	0.00e+00	0	42	0	969932800	59	4816
2026-01-06 23:15:02.98	167.58	23.90	-43.7	-46.4	17.5	0.00e+00	0	42	0	970981376	59	4775
2026-01-06 23:15:04.28	167.74	23.72	-43.8	-46.5	17.4	0.00e+00	0	42	0	973078528	59	4837
2026-01-06 23:15:05.09	167.83	23.61	-43.8	-46.5	17.4	0.00e+00	0	42	0	975175680	59	4822
2026-01-06 23:15:06.56	168.00	23.41	-44.0	-46.8	17.1	0.00e+00	0	42	0	977272832	59	4994
2026-01-06 23:15:07.27	168.08	23.31	-44.2	-47.0	16.9	0.00e+00	0	42	0	978321408	59	5123
2026-01-06 23:15:08.80	168.26	23.10	-44.5	-47.3	16.5	0.00e+00	0	42	0	981467136	59	5328
2026-01-06 23:15:09.52	168.34	23.00	-44.6	-47.5	16.4	0.00e+00	0	42	0	982515712	59	5450
2026-01-06 23:15:10.85	168.49	22.82	-44.7	-47.8	16.1	0.00e+00	0	42	0	985661440	60	5310
2026-01-06 23:15:11.57	168.57	22.73	-44.8	-47.9	16.0	0.00e+00	0	42	0	986710016	60	5385
2026-01-06 23:15:12.86	168.71	22.55	-44.8	-47.9	16.0	0.00e+00	0	42	0	988807168	60	5386
2026-01-06 23:15:13.58	168.79	22.46	-44.7	-47.8	16.2	0.00e+00	0	42	0	990904320	60	5294
2026-01-06 23:15:14.87	168.93	22.29	-44.5	-47.5	16.4	0.00e+00	0	42	0	993001472	60	5133
2026-01-06 23:15:15.58	169.00	22.19	-44.3	-47.3	16.6	0.00e+00	0	42	0	994050048	60	5002
2026-01-06 23:15:16.87	169.14	22.02	-44.1	-47.0	16.9	0.00e+00	0	42	0	997195776	60	4823
2026-01-06 23:15:17.60	169.22	21.93	-44.1	-46.9	17.0	0.00e+00	0	42	0	998244352	60	4806
2026-01-06 23:15:19.24	169.39	21.72	-43.8	-46.5	17.3	0.00e+00	0	42	0	1001390080	59	4860
2026-01-06 23:15:19.81	169.45	21.64	-43.7	-46.4	17.5	0.00e+00	0	42	0	1002438656	59	4766
2026-01-06 23:15:21.42	169.61	21.43	-43.5	-46.2	17.7	0.00e+00	0	42	0	1005584384	59	4652
2026-01-06 23:15:21.99	169.67	21.36	-43.5	-46.2	17.6	0.00e+00	0	42	0	1006632960	59	4659
2026-01-06 23:15:23.58	169.83	21.16	-43.6	-46.2	17.6	0.00e+00	0	42	0	1009778688	59	4691
2026-01-06 23:15:24.16	169.89	21.08	-43.7	-46.4	17.4	0.00e+00	0	42	0	1010827264	59	4771
2026-01-06 23:15:25.76	170.05	20.88	-43.8	-46.5	17.3	0.00e+00	0	42	0	1013972992	59	4832
2026-01-06 23:15:26.34	170.10	20.81	-43.8	-46.6	17.3	0.00e+00	0	42	0	1015021568	59	4875
2026-01-06 23:15:27.93	170.26	20.61	-43.9	-46.7	17.1	0.00e+00	0	42	0	1017118720	59	4935
2026-01-06 23:15:28.50	170.31	20.54	-44.0	-46.8	17.1	0.00e+00	0	42	0	1018167296	59	4998
2026-01-06 23:15:30.09	170.46	20.34	-43.9	-46.6	17.2	0.00e+00	0	42	0	1021313024	59	4912
2026-01-06 23:15:30.67	170.52	20.27	-43.8	-46.6	17.2	0.00e+00	0	42	0	1022361600	59	4901
2026-01-06 23:15:32.25	170.67	20.07	-43.7	-46.5	17.2	0.00e+00	0	42	0	1025507328	59	4848
2026-01-06 23:15:33.13	170.75	19.97	-43.6	-46.4	17.4	0.00e+00	0	42	0	1027604480	59	4767
2026-01-06 23:15:34.28	170.86	19.83	-43.6	-46.3	17.5	0.00e+00	0	42	0	1029701632	59	4750
2026-01-06 23:15:35.14	170.93	19.72	-43.4	-46.1	17.7	0.00e+00	0	42	0	1030750208	58	4888
2026-01-06 23:15:36.28	171.04	19.59	-43.3	-45.9	17.9	0.00e+00	0	42	0	1032847360	58	4787
2026-01-06 23:15:37.14	171.12	19.48	-43.3	-45.9	17.9	0.00e+00	0	42	0	1034944512	58	4773
2026-01-06 23:15:38.36	171.23	19.34	-43.1	-45.7	18.1	0.00e+00	0	42	0	1037041664	58	4657
2026-01-06 23:15:39.21	171.30	19.23	-43.0	-45.5	18.2	0.00e+00	0	42	0	1039138816	58	4579
2026-01-06 23:15:40.36	171.40	19.10	-42.9	-45.4	18.3	0.00e+00	0	42	0	1041235968	57	4782
2026-01-06 23:15:41.22	171.48	19.00	-42.9	-45.4	18.3	0.00e+00	0	42	0	1042284544	57	4781
2026-01-06 23:15:42.52	171.59	18.84	-42.9	-45.4	18.3	0.00e+00	0	42	0	1044381696	57	4780
2026-01-06 23:15:43.24	171.65	18.76	-43.0	-45.5	18.2	0.00e+00	0	42	0	1046478848	57	4823
2026-01-06 23:15:44.74	171.78	18.58	-42.8	-45.2	18.5	0.00e+00	0	42	0	1048576000	57	4685
2026-01-06 23:15:45.45	171.84	18.50	-42.7	-45.1	18.6	0.00e+00	0	42	0	1050673152	57	4636
2026-01-06 23:15:46.74	171.95	18.35	-42.8	-45.2	18.5	0.00e+00	0	42	0	1052770304	57	4680
2026-01-06 23:15:47.46	172.01	18.27	-42.8	-45.2	18.4	0.00e+00	0	42	0	1053818880	57	4690
2026-01-06 23:15:48.75	172.12	18.12	-42.8	-45.3	18.4	0.00e+00	0	42	0	1056964608	57	4736
2026-01-06 23:15:49.46	172.18	18.04	-42.9	-45.4	18.3	0.00e+00	0	42	0	1058013184	57	4777
2026-01-06 23:15:50.75	172.28	17.89	-42.9	-45.3	18.3	0.00e+00	0	42	0	1060110336	57	4754
2026-01-06 23:15:51.48	172.34	17.81	-43.0	-45.5	18.2	0.00e+00	0	42	0	1061158912	57	4860
2026-01-06 23:15:52.77	172.45	17.67	-43.0	-45.5	18.2	0.00e+00	0	42	0	1064304640	57	4831
2026-01-06 23:15:53.57	172.51	17.58	-43.1	-45.6	18.1	0.00e+00	0	42	0	1065353216	57	4922
2026-01-06 23:15:54.71	172.60	17.45	-43.3	-45.9	17.9	0.00e+00	0	42	0	1067450368	57	5051
2026-01-06 23:15:55.57	172.67	17.35	-43.3	-45.9	17.9	0.00e+00	0	42	0	1069547520	57	5044
2026-01-06 23:15:56.72	172.76	17.23	-43.5	-46.1	17.6	0.00e+00	0	42	0	1071644672	57	5181
2026-01-06 23:15:57.57	172.83	17.13	-43.5	-46.1	17.6	0.00e+00	0	42	0	1072693248	57	5183
2026-01-06 23:15:58.72	172.91	17.01	-43.6	-46.3	17.4	0.00e+00	0	42	0	1074790400	57	5306
2026-01-06 23:15:59.58	172.98	16.91	-43.6	-46.3	17.4	0.00e+00	0	42	0	1076887552	57	5296
2026-01-06 23:16:00.72	173.07	16.79	-43.6	-46.3	17.4	0.00e+00	0	42	0	1078984704	57	5303
2026-01-06 23:16:01.58	173.13	16.69	-43.6	-46.3	17.4	0.00e+00	0	42	0	1081081856	57	5286
2026-01-06 23:16:02.73	173.22	16.57	-43.5	-46.1	17.6	0.00e+00	0	42	0	1083179008	57	5208
2026-01-06 23:16:03.59	173.28	16.48	-43.4	-46.1	17.6	0.00e+00	0	42	0	1084227584	57	5175
2026-01-06 23:16:04.74	173.37	16.35	-43.5	-46.2	17.5	0.00e+00	0	42	0	1086324736	57	5236
2026-01-06 23:16:05.63	173.43	16.26	-43.3	-46.0	17.7	0.00e+00	0	42	0	1088421888	57	5113
2026-01-06 23:16:06.83	173.52	16.13	-43.2	-45.8	17.8	0.00e+00	0	42	0	1090519040	57	5016
2026-01-06 23:16:07.69	173.59	16.04	-43.1	-45.7	17.9	0.00e+00	0	42	0	1091567616	57	4978
2026-01-06 23:16:09.01	173.68	15.90	-43.0	-45.6	18.1	0.00e+00	0	42	0	1094713344	57	4879
2026-01-06 23:16:09.72	173.73	15.83	-42.9	-45.5	18.1	0.00e+00	0	42	0	1095761920	57	4847
2026-01-06 23:16:11.02	173.82	15.69	-43.0	-45.5	18.1	0.00e+00	0	42	0	1097859072	57	4852
2026-01-06 23:16:11.73	173.87	15.62	-43.0	-45.6	18.0	0.00e+00	0	42	0	1099956224	57	4901
2026-01-06 23:16:13.02	173.96	15.48	-42.9	-45.4	18.2	0.00e+00	0	42	0	1102053376	57	4794
2026-01-06 23:16:13.74	174.01	15.41	-42.9	-45.4	18.2	0.00e+00	0	42	0	1103101952	57	4792
2026-01-06 23:16:15.02	174.10	15.28	-42.9	-45.5	18.1	0.00e+00	0	42	0	1106247680	57	4839
2026-01-06 23:16:15.74	174.15	15.20	-43.0	-45.6	17.9	0.00e+00	0	42	0	1107296256	57	4876
2026-01-06 23:16:17.03	174.24	15.07	-43.0	-45.5	18.0	0.00e+00	0	42	0	1109393408	57	4869
2026-01-06 23:16:17.75	174.29	15.00	-42.9	-45.5	18.1	0.00e+00	0	42	0	1110441984	57	4841
2026-01-06 23:16:19.04	174.38	14.87	-43.1	-45.7	17.9	0.00e+00	0	42	0	1113587712	57	4930
2026-01-06 23:16:19.75	174.43	14.79	-43.1	-45.7	17.9	0.00e+00	0	42	0	1114636288	57	4979
2026-01-06 23:16:21.14	174.52	14.65	-43.2	-45.9	17.7	0.00e+00	0	42	0	1117782016	57	5046
2026-01-06 23:16:21.85	174.56	14.58	-43.3	-46.0	17.7	0.00e+00	0	42	0	1118830592	57	5104
2026-01-06 23:16:23.14	174.65	14.45	-43.4	-46.0	17.5	0.00e+00	0	42	0	1120927744	57	5154
2026-01-06 23:16:23.86	174.70	14.38	-43.5	-46.2	17.4	0.00e+00	0	42	0	1121976320	57	5256
2026-01-06 23:16:25.28	174.79	14.24	-43.5	-46.2	17.4	0.00e+00	0	42	0	1125122048	57	5246
2026-01-06 23:16:25.99	174.83	14.17	-43.5	-46.3	17.3	0.00e+00	0	42	0	1126170624	57	5294
2026-01-06 23:16:27.28	174.92	14.04	-43.7	-46.4	17.2	0.00e+00	0	42	0	1128267776	57	5400
2026-01-06 23:16:28.00	174.96	13.97	-43.7	-46.4	17.2	0.00e+00	0	42	0	1130364928	58	5094
2026-01-06 23:16:29.28	175.04	13.85	-43.7	-46.5	17.1	0.00e+00	0	42	0	1132462080	58	5142
2026-01-06 23:16:30.00	175.09	13.78	-43.8	-46.6	17.0	0.00e+00	0	42	0	1133510656	58	5169
2026-01-06 23:16:31.29	175.17	13.65	-43.8	-46.6	17.0	0.00e+00	0	42	0	1136656384	58	5203
2026-01-06 23:16:32.01	175.21	13.58	-43.8	-46.7	16.9	0.00e+00	0	42	0	1137704960	58	5234
2026-01-06 23:16:33.29	175.29	13.46	-43.9	-46.7	16.9	0.00e+00	0	42	0	1139802112	58	5255
2026-01-06 23:16:34.01	175.34	13.39	-43.9	-46.7	16.9	0.00e+00	0	42	0	1140850688	58	5265
2026-01-06 23:16:35.30	175.42	13.27	-43.9	-46.7	16.9	0.00e+00	0	42	0	1143996416	58	5240
2026-01-06 23:16:36.02	175.46	13.20	-43.9	-46.7	16.9	0.00e+00	0	42	0	1145044992	58	5263
2026-01-06 23:16:37.31	175.54	13.08	-43.9	-46.8	16.8	0.00e+00	0	42	0	1147142144	58	5283
2026-01-06 23:16:38.02	175.58	13.01	-43.9	-46.7	16.8	0.00e+00	0	42	0	1149239296	58	5278
2026-01-06 23:16:39.31	175.66	12.89	-43.9	-46.7	16.9	0.00e+00	0	42	0	1151336448	58	5254
2026-01-06 23:16:40.28	175.71	12.80	-44.0	-46.8	16.7	0.00e+00	0	42	0	1153433600	58	5330
2026-01-06 23:16:41.28	175.77	12.71	-43.8	-46.6	16.9	0.00e+00	0	42	0	1155530752	58	5188
2026-01-06 23:16:42.28	175.83	12.61	-43.8	-46.6	16.9	0.00e+00	0	42	0	1156579328	58	5197
2026-01-06 23:16:43.29	175.89	12.52	-43.8	-46.7	16.9	0.00e+00	0	42	0	1158676480	58	5243
2026-01-06 23:16:44.29	175.95	12.43	-43.8	-46.6	16.9	0.00e+00	0	42	0	1160773632	58	5188
2026-01-06 23:16:45.30	176.01	12.33	-43.8	-46.6	16.9	0.00e+00	0	42	0	1162870784	58	5206
2026-01-06 23:16:46.30	176.06	12.24	-43.7	-46.6	16.9	0.00e+00	0	42	0	1163919360	58	5184
2026-01-06 23:16:47.30	176.12	12.15	-43.8	-46.6	16.9	0.00e+00	0	42	0	1166016512	58	5216
2026-01-06 23:16:48.36	176.18	12.05	-43.7	-46.6	16.9	0.00e+00	0	42	0	1168113664	58	5178
2026-01-06 23:16:49.28	176.23	11.97	-43.6	-46.5	17.0	0.00e+00	0	42	0	1170210816	58	5101
2026-01-06 23:16:50.28	176.29	11.88	-43.7	-46.6	16.9	0.00e+00	0	42	0	1172307968	58	5161
2026-01-06 23:16:51.28	176.34	11.79	-43.5	-46.3	17.2	0.00e+00	0	42	0	1173356544	58	5040
2026-01-06 23:16:52.28	176.40	11.70	-43.6	-46.4	17.1	0.00e+00	0	42	0	1175453696	58	5055
2026-01-06 23:16:53.29	176.45	11.61	-43.6	-46.5	17.0	0.00e+00	0	42	0	1177550848	58	5103
2026-01-06 23:16:54.29	176.51	11.52	-43.5	-46.3	17.1	0.00e+00	0	42	0	1179648000	58	5034
2026-01-06 23:16:55.29	176.56	11.43	-43.5	-46.3	17.1	0.00e+00	0	42	0	1181745152	58	5027
2026-01-06 23:16:56.30	176.62	11.34	-43.5	-46.4	17.1	0.00e+00	0	42	0	1182793728	58	5061
2026-01-06 23:16:57.30	176.67	11.25	-43.6	-46.5	16.9	0.00e+00	0	42	0	1184890880	58	5141
2026-01-06 23:16:58.30	176.72	11.17	-43.5	-46.4	17.0	0.00e+00	0	42	0	1186988032	58	5091
2026-01-06 23:16:59.30	176.78	11.08	-43.5	-46.4	17.0	0.00e+00	0	42	0	1189085184	58	5092
2026-01-06 23:17:00.30	176.83	10.99	-43.4	-46.5	16.9	0.00e+00	0	42	0	1191182336	58	5102
2026-01-06 23:17:01.31	176.88	10.90	-43.4	-46.4	17.0	0.00e+00	0	42	0	1192230912	58	5099
2026-01-06 23:17:02.34	176.93	10.81	-43.4	-46.5	16.9	0.00e+00	0	42	0	1194328064	58	5129
2026-01-06 23:17:03.34	176.99	10.73	-43.4	-46.5	17.0	0.00e+00	0	42	0	1196425216	58	5125
2026-01-06 23:17:04.44	177.04	10.63	-43.4	-46.6	16.8	0.00e+00	0	42	0	1198522368	58	5208
2026-01-06 23:17:05.34	177.09	10.55	-43.4	-46.6	16.8	0.00e+00	0	42	0	1200619520	58	5191
2026-01-06 23:17:06.40	177.14	10.46	-43.5	-46.7	16.7	0.00e+00	0	42	0	1202716672	58	5264
2026-01-06 23:17:07.40	177.19	10.38	-43.6	-46.9	16.5	0.00e+00	0	42	0	1203765248	58	5392
2026-01-06 23:17:08.41	177.24	10.29	-43.5	-46.8	16.6	0.00e+00	0	42	0	1205862400	58	5334
2026-01-06 23:17:09.41	177.29	10.21	-43.8	-47.1	16.4	0.00e+00	0	42	0	1207959552	58	5484
2026-01-06 23:17:10.41	177.34	10.12	-43.8	-47.1	16.4	0.00e+00	0	42	0	1210056704	58	5478
2026-01-06 23:17:11.41	177.39	10.04	-43.8	-47.1	16.3	0.00e+00	0	42	0	1211105280	58	5516
2026-01-06 23:17:12.42	177.44	9.95	-43.8	-47.2	16.3	0.00e+00	0	42	0	1213202432	58	5534
2026-01-06 23:17:13.42	177.49	9.87	-43.9	-47.2	16.2	0.00e+00	0	42	0	1215299584	58	5579
2026-01-06 23:17:14.42	177.54	9.79	-44.0	-47.4	16.0	0.00e+00	0	42	0	1217396736	58	5689
2026-01-06 23:17:15.43	177.59	9.70	-44.0	-47.4	16.0	0.00e+00	0	42	0	1219493888	58	5672
2026-01-06 23:17:16.43	177.64	9.62	-44.1	-47.5	15.9	0.00e+00	0	42	0	1220542464	58	5774
2026-01-06 23:17:17.43	177.69	9.54	-44.0	-47.4	16.0	0.00e+00	0	42	0	1222639616	58	5693
2026-01-06 23:17:18.43	177.73	9.45	-44.1	-47.5	15.9	0.00e+00	0	42	0	1224736768	58	5768
2026-01-06 23:17:19.43	177.78	9.37	-44.1	-47.5	15.9	0.00e+00	0	42	0	1226833920	59	5413
2026-01-06 23:17:20.43	177.83	9.29	-44.1	-47.5	15.8	0.00e+00	0	42	0	1228931072	59	5438
2026-01-06 23:17:21.43	177.87	9.21	-44.2	-47.6	15.8	0.00e+00	0	42	0	1229979648	59	5466
2026-01-06 23:17:22.56	177.93	9.11	-44.4	-47.8	15.5	0.00e+00	0	42	0	1232076800	59	5623
