passes_logs/2026/01/06/T1/T1__20260106_001419_NOAA_21_JPSS-2_rec.log

#Pass ID: 20260106_001419_NOAA 21 (JPSS-2)
#Satellite: NOAA 21 (JPSS-2)
#Configuration: NOAA 21
#almurnet v.1.7.20251203
#Start time: 2026-01-06 00:14:20

#Version: 2.0.20230620
#Station: T1
#Location: 37.570604 lon 55.790049 lat
#TLE: 1 54234U 22150A   26005.21525222  .00000150  00000+0  91957-4 0  9992
#TLE: 2 54234  98.7490 306.2339 0001053 341.6032  18.5106 14.19532220163427

#Time	Az	El	Level	Level2	SNR	BER	BlckErr	Temp	State	Recorded	gain1	gain2
2026-01-06 00:14:20.88	12.84	5.06	-50.2	-63.6	3.8	1.49e+00	0	36	0	0	71	17412
2026-01-06 00:14:21.88	12.82	5.13	-50.2	-63.6	3.8	1.49e+00	0	36	104	0	72	16315
2026-01-06 00:14:22.89	12.79	5.21	-50.2	-63.6	3.8	1.49e+00	0	36	104	0	72	16407
2026-01-06 00:14:23.89	12.77	5.28	-50.2	-63.6	3.8	1.49e+00	0	36	104	0	72	16376
2026-01-06 00:14:24.90	12.74	5.35	-50.2	-63.6	3.8	1.49e+00	0	36	104	0	72	16321
2026-01-06 00:14:25.90	12.71	5.42	-50.2	-63.6	3.8	1.49e+00	0	36	104	0	72	16368
2026-01-06 00:14:26.91	12.69	5.49	-50.2	-63.6	3.8	1.49e+00	0	36	104	0	72	16364
2026-01-06 00:14:27.91	12.66	5.56	-50.2	-63.6	3.8	1.49e+00	0	36	104	0	72	16374
2026-01-06 00:14:28.91	12.63	5.63	-50.2	-63.6	3.8	1.49e+00	0	36	104	0	72	16351
2026-01-06 00:14:29.92	12.61	5.71	-50.2	-63.5	3.8	1.49e+00	0	36	104	0	72	16291
2026-01-06 00:14:30.92	12.58	5.78	-50.2	-63.6	3.8	1.49e+00	0	36	104	0	72	16343
2026-01-06 00:14:31.93	12.55	5.85	-50.2	-63.5	3.8	1.49e+00	0	36	104	0	72	16309
2026-01-06 00:14:32.93	12.53	5.92	-50.2	-63.6	3.8	1.49e+00	0	36	104	0	72	16372
2026-01-06 00:14:33.94	12.50	6.00	-50.2	-63.6	3.8	1.49e+00	0	37	104	0	72	16345
2026-01-06 00:14:34.94	12.47	6.07	-50.2	-63.5	3.8	1.49e+00	0	37	104	0	72	16308
2026-01-06 00:14:35.95	12.44	6.14	-50.2	-63.6	3.8	1.49e+00	0	37	104	0	72	16378
2026-01-06 00:14:36.95	12.41	6.22	-50.2	-63.6	3.8	1.49e+00	0	37	104	0	72	16371
2026-01-06 00:14:37.95	12.39	6.29	-50.2	-63.6	3.8	1.49e+00	0	36	104	0	72	16359
2026-01-06 00:14:38.96	12.36	6.36	-50.2	-63.6	3.8	1.49e+00	0	37	104	0	72	16363
2026-01-06 00:14:39.96	12.33	6.44	-50.2	-63.6	3.8	1.49e+00	0	37	104	0	72	16315
2026-01-06 00:14:40.97	12.30	6.51	-50.2	-63.6	3.8	1.49e+00	0	37	104	0	72	16373
2026-01-06 00:14:42.00	12.27	6.59	-50.2	-63.6	3.8	1.49e+00	0	37	104	0	72	16372
2026-01-06 00:14:43.00	12.24	6.66	-50.2	-63.6	3.8	1.49e+00	0	37	104	0	72	16449
2026-01-06 00:14:44.00	12.21	6.74	-50.2	-63.5	3.8	1.49e+00	0	37	104	0	72	16296
2026-01-06 00:14:45.01	12.18	6.81	-50.2	-63.5	3.8	1.49e+00	0	37	104	0	72	16303
2026-01-06 00:14:46.01	12.15	6.89	-50.2	-63.6	3.8	1.49e+00	0	37	104	0	72	16352
2026-01-06 00:14:47.02	12.12	6.96	-50.2	-63.5	3.8	1.49e+00	0	37	104	0	72	16308
2026-01-06 00:14:48.02	12.09	7.04	-50.2	-63.5	3.8	1.49e+00	0	37	104	0	72	16297
2026-01-06 00:14:49.03	12.06	7.12	-50.2	-63.6	3.8	1.49e+00	0	37	104	0	72	16361
2026-01-06 00:14:50.03	12.03	7.19	-50.2	-63.6	3.8	1.49e+00	0	37	104	0	72	16347
2026-01-06 00:14:51.04	12.00	7.27	-50.2	-63.6	3.8	1.49e+00	0	37	104	0	72	16331
2026-01-06 00:14:52.04	11.97	7.35	-50.2	-63.6	3.8	1.49e+00	0	37	104	0	72	16348
2026-01-06 00:14:53.05	11.94	7.42	-50.2	-63.5	3.8	1.49e+00	0	37	104	0	72	16309
2026-01-06 00:14:54.05	11.91	7.50	-50.2	-63.6	3.8	1.49e+00	0	37	104	0	72	16357
2026-01-06 00:14:55.06	11.88	7.58	-50.2	-63.6	3.8	1.49e+00	0	37	104	0	72	16325
2026-01-06 00:14:56.06	11.85	7.65	-50.2	-63.6	3.8	1.49e+00	0	37	104	0	72	16341
2026-01-06 00:14:57.13	11.82	7.74	-50.2	-63.6	3.8	1.49e+00	0	37	104	0	72	16338
2026-01-06 00:14:57.99	11.79	7.80	-50.2	-63.6	3.8	1.49e+00	0	37	104	0	72	16316
2026-01-06 00:14:59.13	11.75	7.89	-50.2	-63.6	3.8	1.49e+00	0	37	104	0	72	16333
2026-01-06 00:15:00.00	11.72	7.96	-50.2	-63.6	3.8	1.49e+00	0	37	104	0	72	16332
2026-01-06 00:15:01.14	11.69	8.05	-50.2	-63.6	3.8	1.49e+00	0	37	104	0	72	16374
2026-01-06 00:15:02.00	11.66	8.12	-50.2	-63.5	3.8	1.49e+00	0	37	104	0	72	16301
2026-01-06 00:15:03.15	11.62	8.21	-50.2	-63.5	3.8	1.49e+00	0	37	104	0	72	16309
2026-01-06 00:15:04.01	11.59	8.28	-50.2	-63.6	3.8	1.49e+00	0	37	104	0	72	16349
2026-01-06 00:15:05.16	11.56	8.37	-50.2	-63.6	3.8	1.49e+00	0	37	104	0	72	16393
2026-01-06 00:15:06.02	11.53	8.44	-50.2	-63.6	3.8	1.49e+00	0	37	104	0	72	16327
2026-01-06 00:15:07.17	11.49	8.53	-50.2	-63.5	3.8	1.49e+00	0	37	104	0	72	16274
2026-01-06 00:15:08.03	11.46	8.60	-50.2	-63.5	3.8	1.49e+00	0	37	104	0	72	16288
2026-01-06 00:15:09.18	11.42	8.69	-50.2	-63.6	3.8	1.49e+00	0	37	104	0	72	16326
2026-01-06 00:15:10.04	11.39	8.76	-50.2	-63.6	3.8	1.49e+00	0	37	104	0	72	16367
2026-01-06 00:15:11.19	11.35	8.85	-50.2	-63.6	3.8	1.49e+00	0	37	104	0	72	16379
2026-01-06 00:15:12.05	11.32	8.92	-50.2	-63.6	3.8	1.49e+00	0	37	104	0	72	16374
2026-01-06 00:15:13.20	11.28	9.01	-50.2	-63.6	3.8	1.49e+00	0	37	104	0	72	16339
2026-01-06 00:15:14.14	11.25	9.09	-50.2	-63.5	3.8	1.49e+00	0	38	104	0	72	16278
2026-01-06 00:15:15.14	11.22	9.17	-50.2	-63.5	3.8	1.49e+00	0	37	104	0	72	16302
2026-01-06 00:15:16.14	11.18	9.25	-50.2	-63.6	3.8	1.49e+00	0	37	104	0	72	16324
2026-01-06 00:15:17.15	11.14	9.34	-50.2	-63.6	3.8	1.49e+00	0	38	104	0	72	16324
2026-01-06 00:15:18.16	11.11	9.42	-50.2	-63.6	3.8	1.49e+00	0	37	104	0	72	16351
2026-01-06 00:15:19.16	11.07	9.50	-50.2	-63.6	3.8	1.49e+00	0	37	104	0	72	16354
2026-01-06 00:15:20.16	11.04	9.59	-50.2	-63.6	3.8	1.49e+00	0	38	104	0	72	16316
2026-01-06 00:15:21.17	11.00	9.67	-50.2	-63.6	3.8	1.49e+00	0	37	104	0	72	16366
2026-01-06 00:15:22.17	10.96	9.75	-50.2	-63.6	3.8	1.49e+00	0	38	104	0	72	16365
2026-01-06 00:15:23.18	10.93	9.84	-50.2	-63.6	3.8	1.49e+00	0	37	104	0	72	16368
2026-01-06 00:15:24.18	10.89	9.92	-50.2	-63.6	3.8	1.49e+00	0	38	104	0	72	16365
2026-01-06 00:15:25.18	10.85	10.01	-50.2	-63.6	3.8	1.49e+00	0	38	104	0	72	16400
2026-01-06 00:15:26.19	10.81	10.09	-50.2	-63.6	3.8	1.49e+00	0	38	104	0	72	16321
2026-01-06 00:15:27.19	10.78	10.18	-50.2	-63.6	3.8	1.49e+00	0	38	104	0	72	16336
2026-01-06 00:15:28.20	10.74	10.26	-50.2	-63.5	3.8	1.49e+00	0	38	104	0	72	16308
2026-01-06 00:15:29.20	10.70	10.35	-50.2	-63.6	3.8	1.49e+00	0	38	104	0	72	16341
2026-01-06 00:15:30.21	10.66	10.44	-50.2	-63.6	3.8	1.49e+00	0	38	104	0	72	16353
2026-01-06 00:15:31.21	10.62	10.52	-50.2	-63.6	3.8	1.49e+00	0	38	104	0	72	16363
2026-01-06 00:15:32.22	10.58	10.61	-50.2	-63.6	3.8	1.49e+00	0	38	104	0	72	16348
2026-01-06 00:15:33.22	10.54	10.70	-50.2	-63.6	3.8	1.49e+00	0	38	104	0	72	16372
2026-01-06 00:15:34.22	10.50	10.78	-50.2	-63.5	3.8	1.49e+00	0	38	104	0	72	16294
2026-01-06 00:15:35.23	10.46	10.87	-50.2	-63.6	3.8	1.49e+00	0	38	104	0	72	16334
2026-01-06 00:15:36.23	10.42	10.96	-50.2	-63.6	3.8	1.49e+00	0	38	104	0	72	16389
2026-01-06 00:15:37.24	10.38	11.05	-50.2	-63.6	3.8	1.49e+00	0	38	104	0	72	16339
2026-01-06 00:15:38.24	10.34	11.14	-50.2	-63.6	3.8	1.49e+00	0	38	104	0	72	16350
2026-01-06 00:15:39.25	10.30	11.23	-50.2	-63.6	3.8	1.49e+00	0	38	104	0	72	16346
2026-01-06 00:15:40.25	10.26	11.32	-50.2	-63.6	3.8	1.49e+00	0	38	104	0	72	16367
2026-01-06 00:15:41.29	10.22	11.41	-50.2	-63.6	3.8	1.49e+00	0	38	104	0	72	16382
2026-01-06 00:15:42.34	10.17	11.50	-50.2	-63.6	3.8	1.49e+00	0	38	104	0	72	16390
2026-01-06 00:15:43.24	10.13	11.58	-50.2	-63.6	3.8	1.49e+00	0	38	104	0	72	16341
2026-01-06 00:15:44.25	10.09	11.67	-50.2	-63.6	3.8	1.49e+00	0	38	104	0	72	16363
2026-01-06 00:15:45.25	10.05	11.76	-50.2	-63.6	3.8	1.49e+00	0	38	104	0	72	16358
2026-01-06 00:15:46.26	10.00	11.86	-50.2	-63.6	3.8	1.49e+00	0	38	104	0	72	16319
2026-01-06 00:15:47.26	9.96	11.95	-50.2	-63.5	3.8	1.49e+00	0	38	104	0	72	16305
2026-01-06 00:15:48.27	9.92	12.04	-50.2	-63.6	3.8	1.49e+00	0	38	104	0	72	16400
2026-01-06 00:15:49.27	9.87	12.13	-50.2	-63.6	3.8	1.49e+00	0	38	104	0	72	16320
2026-01-06 00:15:50.27	9.83	12.22	-50.2	-63.6	3.8	1.49e+00	0	38	104	0	72	16349
2026-01-06 00:15:51.28	9.79	12.32	-50.2	-63.6	3.8	1.49e+00	0	38	104	0	72	16391
2026-01-06 00:15:52.28	9.74	12.41	-50.2	-63.6	3.8	1.49e+00	0	38	104	0	72	16327
2026-01-06 00:15:53.28	9.70	12.50	-50.2	-63.6	3.8	1.49e+00	0	38	104	0	72	16356
2026-01-06 00:15:54.29	9.65	12.60	-50.2	-63.6	3.8	1.49e+00	0	38	104	0	72	16346
2026-01-06 00:15:55.29	9.60	12.69	-50.2	-63.6	3.8	1.49e+00	0	38	104	0	72	16402
2026-01-06 00:15:56.30	9.56	12.78	-50.2	-63.6	3.8	1.49e+00	0	38	104	0	72	16365
2026-01-06 00:15:57.30	9.51	12.88	-50.2	-63.6	3.8	1.49e+00	0	38	104	0	72	16398
2026-01-06 00:15:58.30	9.46	12.97	-50.2	-63.6	3.8	1.49e+00	0	38	104	0	72	16370
2026-01-06 00:15:59.31	9.42	13.07	-50.2	-63.6	3.8	1.49e+00	0	38	104	0	72	16342
2026-01-06 00:16:00.31	9.37	13.16	-50.2	-63.5	3.8	1.49e+00	0	38	104	0	72	16309
2026-01-06 00:16:01.32	9.32	13.26	-50.2	-63.6	3.8	1.49e+00	0	38	104	0	72	16378
2026-01-06 00:16:02.59	9.26	13.38	-50.2	-63.6	3.8	1.49e+00	0	38	104	0	72	16333
2026-01-06 00:16:03.34	9.23	13.46	-50.2	-63.6	3.8	1.49e+00	0	38	104	0	72	16335
2026-01-06 00:16:04.63	9.16	13.58	-50.2	-63.6	3.8	1.49e+00	0	38	104	0	72	16435
2026-01-06 00:16:05.35	9.13	13.65	-50.2	-63.6	3.8	1.49e+00	0	38	104	0	72	16378
2026-01-06 00:16:06.64	9.06	13.78	-50.2	-63.6	3.8	1.49e+00	0	38	104	0	72	16324
2026-01-06 00:16:07.36	9.03	13.85	-50.2	-63.6	3.8	1.49e+00	0	38	104	0	72	16388
2026-01-06 00:16:08.65	8.96	13.97	-50.2	-63.6	3.8	1.49e+00	0	38	104	0	72	16334
2026-01-06 00:16:09.37	8.93	14.05	-50.2	-63.6	3.8	1.49e+00	0	38	104	0	72	16317
2026-01-06 00:16:10.66	8.86	14.17	-50.2	-63.6	3.8	1.49e+00	0	38	104	0	72	16392
2026-01-06 00:16:11.37	8.82	14.24	-50.2	-63.6	3.8	1.49e+00	0	38	104	0	72	16355
2026-01-06 00:16:12.66	8.76	14.37	-50.2	-63.6	3.8	1.49e+00	0	38	104	0	72	16368
2026-01-06 00:16:13.38	8.72	14.45	-50.2	-63.6	3.8	1.49e+00	0	38	104	0	72	16343
2026-01-06 00:16:14.67	8.65	14.57	-50.2	-63.6	3.8	1.49e+00	0	38	104	0	72	16370
2026-01-06 00:16:15.39	8.62	14.65	-50.2	-63.6	3.8	1.49e+00	0	38	104	0	72	16335
2026-01-06 00:16:16.68	8.55	14.78	-50.2	-63.6	3.8	1.49e+00	0	38	104	0	72	16342
2026-01-06 00:16:17.40	8.51	14.85	-50.2	-63.6	3.8	1.49e+00	0	38	104	0	72	16322
2026-01-06 00:16:18.69	8.44	14.98	-50.2	-63.6	3.8	1.49e+00	0	38	104	0	72	16363
2026-01-06 00:16:19.41	8.40	15.06	-50.2	-63.6	3.8	1.49e+00	0	38	104	0	72	16392
2026-01-06 00:16:20.70	8.33	15.19	-50.2	-63.6	3.8	1.49e+00	0	38	104	0	72	16377
2026-01-06 00:16:21.42	8.29	15.27	-50.2	-63.6	3.8	1.49e+00	0	38	104	0	72	16319
2026-01-06 00:16:22.71	8.22	15.40	-50.2	-63.6	3.8	1.49e+00	0	38	104	0	72	16348
2026-01-06 00:16:23.42	8.18	15.47	-50.2	-63.5	3.8	1.49e+00	0	38	104	0	72	16293
2026-01-06 00:16:24.72	8.11	15.61	-50.2	-63.6	3.8	1.49e+00	0	38	104	0	72	16344
2026-01-06 00:16:25.43	8.07	15.68	-50.2	-63.6	3.8	1.49e+00	0	38	104	0	72	16372
2026-01-06 00:16:26.72	7.99	15.82	-50.2	-63.6	3.8	1.49e+00	0	38	104	0	72	16402
2026-01-06 00:16:27.44	7.95	15.90	-50.2	-63.6	3.8	1.49e+00	0	38	104	0	72	16422
2026-01-06 00:16:28.73	7.88	16.03	-50.2	-63.6	3.8	1.49e+00	0	38	104	0	72	16372
2026-01-06 00:16:29.45	7.83	16.11	-50.2	-63.6	3.8	1.49e+00	0	38	104	0	72	16348
2026-01-06 00:16:30.74	7.76	16.25	-50.2	-63.6	3.8	1.49e+00	0	38	104	0	72	16356
2026-01-06 00:16:31.46	7.72	16.33	-50.2	-63.5	3.8	1.49e+00	0	38	104	0	72	16271
2026-01-06 00:16:32.75	7.64	16.47	-50.2	-63.6	3.8	1.49e+00	0	38	104	0	72	16394
2026-01-06 00:16:33.47	7.59	16.55	-50.2	-63.6	3.8	1.49e+00	0	38	104	0	72	16347
2026-01-06 00:16:34.76	7.52	16.69	-50.2	-63.6	3.8	1.49e+00	0	38	104	0	72	16408
2026-01-06 00:16:35.47	7.47	16.76	-50.2	-63.6	3.8	1.49e+00	0	38	104	0	72	16363
2026-01-06 00:16:36.76	7.39	16.91	-50.2	-63.6	3.8	1.49e+00	0	38	104	0	72	16320
2026-01-06 00:16:37.48	7.35	16.99	-50.2	-63.6	3.8	1.49e+00	0	38	104	0	72	16358
2026-01-06 00:16:38.79	7.27	17.13	-50.2	-63.6	3.8	1.49e+00	0	38	104	0	72	16352
2026-01-06 00:16:39.51	7.22	17.21	-50.2	-63.5	3.8	1.49e+00	0	38	104	0	72	16296
2026-01-06 00:16:40.86	7.13	17.36	-50.2	-63.6	3.8	1.49e+00	0	38	104	0	72	16350
2026-01-06 00:16:41.58	7.09	17.44	-50.2	-63.6	3.8	1.49e+00	0	38	104	0	72	16344
2026-01-06 00:16:42.87	7.01	17.59	-50.2	-63.6	3.8	1.49e+00	0	38	104	0	72	16430
2026-01-06 00:16:43.59	6.96	17.67	-50.2	-63.6	3.8	1.49e+00	0	39	104	0	72	16334
2026-01-06 00:16:44.88	6.87	17.82	-50.2	-63.6	3.8	1.49e+00	0	38	104	0	72	16324
2026-01-06 00:16:45.60	6.83	17.90	-50.2	-63.6	3.8	1.49e+00	0	38	104	0	72	16358
2026-01-06 00:16:46.89	6.74	18.05	-50.2	-63.6	3.8	1.49e+00	0	38	104	0	72	16390
2026-01-06 00:16:47.59	6.69	18.13	-50.2	-63.6	3.8	1.49e+00	0	38	104	0	72	16387
2026-01-06 00:16:48.88	6.60	18.28	-50.2	-63.6	3.8	1.49e+00	0	38	104	0	72	16324
2026-01-06 00:16:49.59	6.56	18.36	-50.2	-63.6	3.8	1.49e+00	0	38	104	0	72	16334
2026-01-06 00:16:50.89	6.47	18.51	-50.2	-63.6	3.8	1.49e+00	0	38	104	0	72	16393
2026-01-06 00:16:51.61	6.42	18.60	-50.2	-63.6	3.8	1.49e+00	0	38	104	0	72	16330
2026-01-06 00:16:52.90	6.33	18.75	-50.2	-63.6	3.8	1.49e+00	0	38	104	0	72	16378
2026-01-06 00:16:53.61	6.28	18.83	-50.2	-63.6	3.8	1.49e+00	0	38	104	0	72	16359
2026-01-06 00:16:54.90	6.18	18.99	-50.2	-63.6	3.8	1.49e+00	0	38	104	0	72	16350
2026-01-06 00:16:55.62	6.13	19.07	-50.2	-63.6	3.8	1.49e+00	0	38	104	0	72	16370
2026-01-06 00:16:56.91	6.04	19.23	-50.2	-63.6	3.8	1.49e+00	0	38	104	0	72	16332
2026-01-06 00:16:57.63	5.99	19.32	-50.2	-63.6	3.8	1.49e+00	0	38	104	0	72	16352
2026-01-06 00:16:58.92	5.89	19.47	-50.2	-63.6	3.8	1.49e+00	0	38	104	0	72	16337
2026-01-06 00:16:59.63	5.84	19.56	-50.2	-63.6	3.8	1.49e+00	0	38	104	0	72	16382
2026-01-06 00:17:00.92	5.74	19.72	-50.2	-63.6	3.8	1.49e+00	0	38	104	0	72	16348
2026-01-06 00:17:01.64	5.69	19.80	-50.2	-63.6	3.8	1.49e+00	0	39	104	0	72	16352
2026-01-06 00:17:02.94	5.59	19.96	-50.2	-63.6	3.8	1.49e+00	0	38	104	0	72	16391
2026-01-06 00:17:03.65	5.53	20.05	-50.2	-63.6	3.8	1.49e+00	0	38	104	0	72	16322
2026-01-06 00:17:04.94	5.43	20.21	-50.2	-63.6	3.8	1.49e+00	0	38	104	0	72	16331
2026-01-06 00:17:05.66	5.38	20.30	-50.2	-63.6	3.8	1.49e+00	0	38	104	0	72	16376
2026-01-06 00:17:06.95	5.28	20.47	-50.2	-63.6	3.8	1.49e+00	0	39	104	0	72	16399
2026-01-06 00:17:07.67	5.22	20.56	-50.2	-63.6	3.8	1.49e+00	0	38	104	0	72	16359
2026-01-06 00:17:08.96	5.11	20.72	-50.2	-63.6	3.8	1.49e+00	0	39	104	0	72	16388
2026-01-06 00:17:09.68	5.06	20.81	-50.2	-63.6	3.8	1.49e+00	0	38	104	0	72	16370
2026-01-06 00:17:10.97	4.95	20.98	-50.2	-63.6	3.8	1.49e+00	0	38	104	0	72	16399
2026-01-06 00:17:11.68	4.89	21.07	-50.2	-63.6	3.8	1.49e+00	0	39	104	0	72	16351
2026-01-06 00:17:12.97	4.79	21.23	-50.2	-63.6	3.8	1.49e+00	0	38	104	0	72	16399
2026-01-06 00:17:13.69	4.72	21.33	-50.2	-63.6	3.8	1.49e+00	0	38	104	0	72	16351
2026-01-06 00:17:14.98	4.62	21.50	-50.2	-63.6	3.8	1.49e+00	0	38	104	0	72	16325
2026-01-06 00:17:15.70	4.55	21.59	-50.2	-63.6	3.8	1.49e+00	0	39	104	0	72	16393
2026-01-06 00:17:16.99	4.44	21.76	-50.2	-63.6	3.8	1.49e+00	0	39	104	0	72	16356
2026-01-06 00:17:17.71	4.38	21.86	-50.2	-63.6	3.8	1.49e+00	0	38	104	0	72	16400
2026-01-06 00:17:19.00	4.27	22.03	-50.2	-63.6	3.8	1.49e+00	0	38	104	0	72	16370
2026-01-06 00:17:19.71	4.20	22.12	-50.2	-63.6	3.8	1.49e+00	0	38	104	0	72	16344
2026-01-06 00:17:21.01	4.09	22.30	-50.2	-63.5	3.8	1.49e+00	0	39	104	0	72	16277
2026-01-06 00:17:21.72	4.03	22.39	-50.2	-63.6	3.8	1.49e+00	0	38	104	0	72	16347
2026-01-06 00:17:23.01	3.91	22.57	-50.2	-63.6	3.8	1.49e+00	0	38	104	0	72	16380
2026-01-06 00:17:23.73	3.84	22.66	-50.2	-63.6	3.8	1.49e+00	0	38	104	0	72	16326
2026-01-06 00:17:25.02	3.72	22.84	-50.2	-63.6	3.8	1.49e+00	0	39	104	0	72	16397
2026-01-06 00:17:25.74	3.66	22.94	-50.2	-63.6	3.8	1.49e+00	0	38	104	0	72	16380
2026-01-06 00:17:27.03	3.53	23.12	-50.2	-63.6	3.8	1.49e+00	0	39	104	0	72	16355
2026-01-06 00:17:27.75	3.47	23.22	-50.2	-63.6	3.8	1.49e+00	0	38	104	0	72	16374
2026-01-06 00:17:29.04	3.34	23.40	-50.2	-63.6	3.8	1.49e+00	0	39	104	0	72	16363
2026-01-06 00:17:29.76	3.27	23.50	-50.2	-63.6	3.8	1.49e+00	0	39	104	0	72	16413
2026-01-06 00:17:31.05	3.15	23.68	-50.2	-63.6	3.8	1.49e+00	0	39	104	0	72	16373
2026-01-06 00:17:31.76	3.08	23.78	-50.2	-63.6	3.8	1.49e+00	0	39	104	0	72	16354
2026-01-06 00:17:33.06	2.95	23.96	-50.2	-63.6	3.8	1.49e+00	0	39	104	0	72	16390
2026-01-06 00:17:33.77	2.87	24.06	-50.2	-63.6	3.8	1.49e+00	0	38	104	0	72	16364
2026-01-06 00:17:35.06	2.74	24.25	-50.2	-63.6	3.8	1.49e+00	0	39	104	0	72	16391
2026-01-06 00:17:35.78	2.67	24.35	-50.2	-63.6	3.8	1.49e+00	0	39	104	0	72	16343
2026-01-06 00:17:37.07	2.54	24.54	-50.2	-63.6	3.8	1.49e+00	0	39	104	0	72	16389
2026-01-06 00:17:37.79	2.46	24.64	-50.2	-63.6	3.8	1.49e+00	0	38	104	0	72	16404
2026-01-06 00:17:39.08	2.33	24.83	-50.2	-63.6	3.8	1.49e+00	0	38	104	0	72	16382
2026-01-06 00:17:39.80	2.25	24.94	-50.2	-63.6	3.8	1.49e+00	0	39	104	0	72	16333
2026-01-06 00:17:41.09	2.11	25.13	-50.2	-63.6	3.8	1.49e+00	0	39	104	0	72	16397
2026-01-06 00:17:41.81	2.03	25.23	-50.2	-63.5	3.8	1.49e+00	0	38	104	0	72	16303
2026-01-06 00:17:43.10	1.89	25.43	-50.2	-63.6	3.8	1.49e+00	0	39	104	0	72	16330
2026-01-06 00:17:43.82	1.81	25.53	-50.2	-63.6	3.8	1.49e+00	0	39	104	0	72	16333
2026-01-06 00:17:45.11	1.67	25.73	-50.2	-63.6	3.8	1.49e+00	0	38	104	0	72	16407
2026-01-06 00:17:45.83	1.59	25.84	-50.2	-63.6	3.8	1.49e+00	0	38	104	0	72	16366
2026-01-06 00:17:47.12	1.44	26.03	-50.2	-63.6	3.8	1.49e+00	0	39	104	0	72	16344
2026-01-06 00:17:47.83	1.36	26.14	-50.2	-63.6	3.8	1.49e+00	0	39	104	0	72	16340
2026-01-06 00:17:49.13	1.21	26.34	-50.2	-63.6	3.8	1.49e+00	0	39	104	0	72	16373
2026-01-06 00:17:49.84	1.12	26.45	-50.2	-63.6	3.8	1.49e+00	0	38	104	0	72	16389
2026-01-06 00:17:51.14	0.97	26.65	-50.2	-63.6	3.8	1.49e+00	0	39	104	0	72	16370
2026-01-06 00:17:51.85	0.88	26.76	-50.2	-63.6	3.8	1.49e+00	0	39	104	0	72	16405
2026-01-06 00:17:53.15	0.72	26.97	-50.2	-63.6	3.8	1.49e+00	0	39	104	0	72	16348
2026-01-06 00:17:53.86	0.64	27.08	-50.2	-63.6	3.8	1.49e+00	0	38	104	0	72	16362
2026-01-06 00:17:55.15	0.48	27.28	-50.2	-63.6	3.8	1.49e+00	0	39	104	0	72	16383
2026-01-06 00:17:55.87	0.39	27.39	-50.2	-63.5	3.8	1.49e+00	0	39	104	0	72	16285
2026-01-06 00:17:57.16	0.23	27.60	-50.2	-63.6	3.8	1.49e+00	0	39	104	0	72	16401
2026-01-06 00:17:57.88	0.13	27.72	-50.2	-63.6	3.8	1.49e+00	0	39	104	0	72	16433
2026-01-06 00:17:59.17	359.97	27.92	-50.2	-63.6	3.8	1.49e+00	0	39	104	0	72	16365
2026-01-06 00:17:59.89	359.87	28.04	-50.2	-63.6	3.8	1.49e+00	0	38	104	0	72	16344
2026-01-06 00:18:01.18	359.70	28.25	-50.2	-63.6	3.8	1.49e+00	0	39	104	0	72	16370
2026-01-06 00:18:01.89	359.61	28.37	-50.2	-63.5	3.8	1.49e+00	0	39	104	0	72	16314
2026-01-06 00:18:03.19	359.44	28.58	-50.2	-63.6	3.8	1.49e+00	0	38	104	0	72	16367
2026-01-06 00:18:03.91	359.34	28.70	-50.2	-63.5	3.8	1.49e+00	0	39	104	0	72	16297
2026-01-06 00:18:05.20	359.16	28.91	-50.2	-63.6	3.8	1.49e+00	0	39	104	0	72	16335
2026-01-06 00:18:05.91	359.06	29.03	-50.2	-63.6	3.8	1.49e+00	0	39	104	0	72	16344
2026-01-06 00:18:07.20	358.88	29.25	-50.2	-63.6	3.8	1.49e+00	0	39	104	0	72	16369
2026-01-06 00:18:07.92	358.78	29.37	-50.2	-63.6	3.8	1.49e+00	0	39	104	0	72	16352
2026-01-06 00:18:09.21	358.60	29.58	-50.2	-63.6	3.8	1.49e+00	0	39	104	0	72	16341
2026-01-06 00:18:09.93	358.49	29.71	-50.2	-63.6	3.8	1.49e+00	0	39	104	0	72	16416
2026-01-06 00:18:11.22	358.30	29.93	-50.2	-63.6	3.8	1.49e+00	0	39	104	0	72	16357
2026-01-06 00:18:11.94	358.20	30.05	-50.2	-63.6	3.8	1.49e+00	0	39	104	0	72	16341
2026-01-06 00:18:13.23	358.00	30.27	-50.2	-63.6	3.8	1.49e+00	0	39	104	0	72	16414
2026-01-06 00:18:13.95	357.89	30.40	-50.2	-63.6	3.8	1.49e+00	0	39	104	0	72	16369
2026-01-06 00:18:15.24	357.70	30.62	-50.2	-63.6	3.8	1.49e+00	0	39	104	0	72	16381
2026-01-06 00:18:15.96	357.59	30.75	-50.2	-63.6	3.8	1.49e+00	0	39	104	0	72	16349
2026-01-06 00:18:17.25	357.38	30.97	-50.2	-63.6	3.8	1.49e+00	0	39	104	0	72	16350
2026-01-06 00:18:17.97	357.27	31.10	-50.2	-63.6	3.8	1.49e+00	0	39	104	0	72	16356
2026-01-06 00:18:19.25	357.07	31.33	-50.2	-63.6	3.8	1.49e+00	0	39	104	0	72	16356
2026-01-06 00:18:19.97	356.95	31.45	-50.2	-63.6	3.8	1.49e+00	0	39	104	0	72	16350
2026-01-06 00:18:21.27	356.74	31.69	-50.2	-63.6	3.8	1.49e+00	0	39	104	0	72	16352
2026-01-06 00:18:21.98	356.62	31.81	-50.2	-63.6	3.8	1.49e+00	0	39	104	0	72	16401
2026-01-06 00:18:23.27	356.40	32.05	-50.2	-63.5	3.8	1.49e+00	0	39	104	0	72	16308
2026-01-06 00:18:23.99	356.28	32.18	-50.2	-63.6	3.8	1.49e+00	0	39	104	0	72	16454
2026-01-06 00:18:25.28	356.06	32.41	-50.2	-63.6	3.8	1.49e+00	0	39	104	0	72	16355
2026-01-06 00:18:26.00	355.94	32.54	-50.2	-63.6	3.8	1.49e+00	0	39	104	0	72	16424
2026-01-06 00:18:27.29	355.71	32.78	-50.2	-63.6	3.8	1.49e+00	0	39	104	0	72	16386
2026-01-06 00:18:28.01	355.58	32.91	-50.2	-63.6	3.8	1.49e+00	0	39	104	0	72	16352
2026-01-06 00:18:29.30	355.35	33.15	-50.2	-63.6	3.8	1.49e+00	0	39	104	0	72	16380
2026-01-06 00:18:30.02	355.22	33.29	-50.2	-63.6	3.8	1.49e+00	0	39	104	0	72	16411
2026-01-06 00:18:31.31	354.99	33.53	-50.2	-63.6	3.8	1.49e+00	0	39	104	0	72	16355
2026-01-06 00:18:32.03	354.85	33.66	-50.2	-63.6	3.8	1.49e+00	0	39	104	0	72	16428
2026-01-06 00:18:33.32	354.61	33.91	-50.2	-63.6	3.8	1.49e+00	0	39	104	0	72	16423
2026-01-06 00:18:34.04	354.47	34.04	-50.2	-63.6	3.8	1.49e+00	0	39	104	0	72	16413
2026-01-06 00:18:35.33	354.22	34.29	-50.2	-63.6	3.8	1.49e+00	0	39	104	0	72	16348
2026-01-06 00:18:36.22	354.05	34.46	-50.2	-63.6	3.8	1.49e+00	0	39	104	0	72	16444
2026-01-06 00:18:37.57	353.78	34.72	-50.2	-63.6	3.8	1.49e+00	0	39	104	0	72	16334
2026-01-06 00:18:38.29	353.64	34.86	-50.2	-63.6	3.8	1.49e+00	0	39	104	0	72	16433
2026-01-06 00:18:39.90	353.31	35.17	-50.2	-63.6	3.8	1.49e+00	0	39	104	0	72	16371
2026-01-06 00:18:40.49	353.19	35.28	-50.2	-63.6	3.8	1.49e+00	0	39	104	0	72	16364
2026-01-06 00:18:42.07	352.86	35.59	-50.2	-63.6	3.8	1.49e+00	0	39	104	0	72	16391
2026-01-06 00:18:42.64	352.74	35.70	-50.2	-63.6	3.8	1.49e+00	0	39	104	0	72	16382
2026-01-06 00:18:44.22	352.41	36.02	-50.2	-63.6	3.8	1.49e+00	0	39	104	0	72	16396
2026-01-06 00:18:44.79	352.28	36.13	-50.2	-63.6	3.8	1.49e+00	0	39	104	0	72	16355
2026-01-06 00:18:46.37	351.94	36.44	-50.2	-63.6	3.8	1.49e+00	0	39	104	0	72	16364
2026-01-06 00:18:46.96	351.80	36.56	-50.2	-63.6	3.8	1.49e+00	0	39	104	0	72	16413
2026-01-06 00:18:48.54	351.45	36.88	-50.2	-63.6	3.8	1.49e+00	0	39	104	0	72	16392
2026-01-06 00:18:49.12	351.32	36.99	-50.2	-63.6	3.8	1.49e+00	0	39	104	0	72	16361
2026-01-06 00:18:50.69	350.95	37.31	-50.2	-63.6	3.8	1.49e+00	0	39	104	0	72	16368
2026-01-06 00:18:51.27	350.82	37.43	-50.2	-63.6	3.8	1.49e+00	0	39	104	0	72	16390
2026-01-06 00:18:52.86	350.44	37.75	-50.2	-63.6	3.8	1.49e+00	0	39	104	0	72	16386
2026-01-06 00:18:53.43	350.30	37.87	-50.2	-63.6	3.8	1.49e+00	0	39	104	0	72	16379
2026-01-06 00:18:55.01	349.91	38.19	-50.2	-63.6	3.8	1.49e+00	0	39	104	0	72	16373
2026-01-06 00:18:55.60	349.77	38.31	-50.2	-63.6	3.8	1.49e+00	0	39	104	0	72	16368
2026-01-06 00:18:57.18	349.37	38.64	-50.2	-63.6	3.8	1.49e+00	0	39	104	0	72	16419
2026-01-06 00:18:57.76	349.22	38.76	-50.2	-63.6	3.8	1.49e+00	0	39	104	0	72	16438
2026-01-06 00:18:59.34	348.81	39.08	-50.2	-63.6	3.8	1.49e+00	0	39	104	0	72	16397
2026-01-06 00:18:59.98	348.65	39.22	-50.2	-63.6	3.8	1.49e+00	0	39	104	0	72	16428
2026-01-06 00:19:01.42	348.26	39.52	-50.2	-63.6	3.8	1.49e+00	0	39	104	0	72	16380
2026-01-06 00:19:02.21	348.05	39.68	-50.2	-63.6	3.8	1.49e+00	0	39	104	0	72	16404
2026-01-06 00:19:03.68	347.65	39.99	-50.2	-63.6	3.8	1.49e+00	0	39	104	0	72	16383
2026-01-06 00:19:04.40	347.45	40.14	-50.2	-63.6	3.8	1.49e+00	0	39	104	0	72	16442
2026-01-06 00:19:05.90	347.02	40.46	-50.2	-63.6	3.8	1.49e+00	0	39	104	0	72	16397
2026-01-06 00:19:06.61	346.82	40.61	-50.2	-63.6	3.8	1.49e+00	0	39	104	0	72	16375
2026-01-06 00:19:07.90	346.45	40.88	-50.2	-63.6	3.8	1.49e+00	0	39	104	0	72	16364
2026-01-06 00:19:08.62	346.24	41.03	-50.2	-63.6	3.8	1.49e+00	0	39	104	0	72	16372
2026-01-06 00:19:09.91	345.85	41.31	-50.2	-63.6	3.8	1.49e+00	0	39	104	0	72	16370
2026-01-06 00:19:10.63	345.64	41.46	-50.2	-63.6	3.8	1.49e+00	0	39	104	0	72	16415
2026-01-06 00:19:11.92	345.24	41.74	-50.2	-63.6	3.8	1.49e+00	0	39	104	0	72	16384
2026-01-06 00:19:12.64	345.02	41.89	-50.2	-63.6	3.8	1.49e+00	0	39	104	0	72	16398
2026-01-06 00:19:13.93	344.61	42.17	-50.2	-63.6	3.8	1.49e+00	0	39	104	0	72	16444
2026-01-06 00:19:14.65	344.38	42.32	-50.2	-63.6	3.8	1.49e+00	0	39	104	0	72	16472
2026-01-06 00:19:15.94	343.97	42.60	-50.2	-63.6	3.8	1.49e+00	0	39	104	0	72	16395
2026-01-06 00:19:16.66	343.73	42.75	-50.2	-63.6	3.8	1.49e+00	0	39	104	0	72	16438
2026-01-06 00:19:17.95	343.30	43.03	-50.2	-63.6	3.8	1.49e+00	0	39	104	0	72	16443
2026-01-06 00:19:18.67	343.06	43.18	-50.2	-63.6	3.8	1.49e+00	0	39	104	0	72	16437
2026-01-06 00:19:19.96	342.62	43.46	-50.2	-63.6	3.8	1.49e+00	0	39	104	0	72	16427
2026-01-06 00:19:20.67	342.38	43.61	-50.2	-63.6	3.8	1.49e+00	0	39	104	0	72	16409
2026-01-06 00:19:21.97	341.92	43.89	-50.2	-63.6	3.8	1.49e+00	0	39	104	0	72	16413
2026-01-06 00:19:22.68	341.67	44.04	-50.2	-63.6	3.8	1.49e+00	0	39	104	0	72	16414
2026-01-06 00:19:23.97	341.21	44.32	-50.2	-63.6	3.8	1.49e+00	0	39	104	0	72	16352
2026-01-06 00:19:24.69	340.95	44.48	-50.2	-63.6	3.8	1.49e+00	0	39	104	0	72	16392
2026-01-06 00:19:25.98	340.47	44.75	-50.2	-63.6	3.8	1.49e+00	0	39	104	0	72	16403
2026-01-06 00:19:26.70	340.20	44.91	-50.2	-63.6	3.8	1.49e+00	0	39	104	0	72	16360
2026-01-06 00:19:27.99	339.71	45.18	-50.2	-63.6	3.8	1.49e+00	0	39	104	0	72	16410
2026-01-06 00:19:28.71	339.43	45.34	-50.2	-63.6	3.8	1.49e+00	0	39	104	0	72	16344
2026-01-06 00:19:30.00	338.93	45.61	-50.2	-63.6	3.8	1.49e+00	0	39	104	0	72	16370
2026-01-06 00:19:30.72	338.64	45.77	-50.2	-63.6	3.8	1.49e+00	0	39	104	0	72	16446
2026-01-06 00:19:32.01	338.13	46.04	-50.2	-63.6	3.8	1.49e+00	0	39	104	0	72	16393
2026-01-06 00:19:32.73	337.83	46.19	-50.2	-63.6	3.8	1.49e+00	0	39	104	0	72	16426
2026-01-06 00:19:34.02	337.30	46.47	-50.2	-63.6	3.8	1.49e+00	0	39	104	0	72	16464
2026-01-06 00:19:34.74	337.00	46.62	-50.2	-63.6	3.8	1.49e+00	0	39	104	0	72	16444
2026-01-06 00:19:36.03	336.45	46.89	-50.2	-63.6	3.8	1.49e+00	0	39	104	0	72	16410
2026-01-06 00:19:36.75	336.14	47.04	-50.2	-63.6	3.8	1.49e+00	0	39	104	0	72	16392
2026-01-06 00:19:38.04	335.58	47.31	-50.2	-63.6	3.8	1.49e+00	0	39	104	0	72	16410
2026-01-06 00:19:38.75	335.27	47.46	-50.2	-63.6	3.8	1.49e+00	0	39	104	0	72	16420
2026-01-06 00:19:40.04	334.69	47.73	-50.2	-63.6	3.8	1.49e+00	0	39	104	0	72	16434
2026-01-06 00:19:40.76	334.37	47.88	-50.2	-63.6	3.8	1.49e+00	0	39	104	0	72	16472
2026-01-06 00:19:42.05	333.77	48.14	-50.2	-63.6	3.8	1.49e+00	0	39	104	0	72	16359
2026-01-06 00:19:42.77	333.44	48.29	-50.2	-63.6	3.8	1.49e+00	0	39	104	0	72	16449
2026-01-06 00:19:44.06	332.83	48.55	-50.2	-63.6	3.8	1.49e+00	0	39	104	0	72	16429
2026-01-06 00:19:44.78	332.48	48.70	-50.2	-63.6	3.8	1.49e+00	0	39	104	0	72	16423
2026-01-06 00:19:46.07	331.86	48.95	-50.2	-63.6	3.8	1.49e+00	0	39	104	0	72	16436
2026-01-06 00:19:46.78	331.51	49.10	-50.2	-63.6	3.8	1.49e+00	0	39	104	0	72	16465
2026-01-06 00:19:48.08	330.86	49.35	-50.2	-63.6	3.8	1.49e+00	0	39	104	0	72	16457
2026-01-06 00:19:48.79	330.51	49.49	-50.2	-63.6	3.8	1.49e+00	0	39	104	0	72	16379
2026-01-06 00:19:50.08	329.85	49.75	-50.2	-63.6	3.8	1.49e+00	0	39	104	0	72	16407
2026-01-06 00:19:50.80	329.47	49.88	-50.2	-63.6	3.8	1.49e+00	0	39	104	0	72	16391
2026-01-06 00:19:52.09	328.80	50.13	-50.3	-63.6	3.8	1.49e+00	0	39	104	0	72	16368
2026-01-06 00:19:52.81	328.42	50.27	-50.2	-63.6	3.8	1.49e+00	0	39	104	0	72	16440
2026-01-06 00:19:54.10	327.72	50.51	-50.3	-63.6	3.8	1.49e+00	0	39	104	0	72	16441
2026-01-06 00:19:54.82	327.33	50.65	-50.3	-63.6	3.8	1.49e+00	0	39	104	0	72	16436
2026-01-06 00:19:56.11	326.62	50.88	-50.2	-63.6	3.8	1.49e+00	0	39	104	0	72	16411
2026-01-06 00:19:56.83	326.22	51.01	-50.3	-63.6	3.8	1.49e+00	0	39	104	0	72	16487
2026-01-06 00:19:58.12	325.49	51.25	-50.2	-63.6	3.8	1.49e+00	0	39	104	0	72	16425
2026-01-06 00:19:58.84	325.08	51.37	-50.2	-63.6	3.8	1.49e+00	0	39	104	0	72	16463
2026-01-06 00:20:00.13	324.33	51.60	-50.3	-63.6	3.8	1.49e+00	0	39	104	0	72	16416
2026-01-06 00:20:00.85	323.91	51.72	-50.2	-63.6	3.8	1.49e+00	0	39	104	0	72	16452
2026-01-06 00:20:02.14	323.15	51.94	-50.2	-63.6	3.8	1.49e+00	0	39	104	0	72	16420
2026-01-06 00:20:02.85	322.72	52.06	-50.3	-63.6	3.8	1.49e+00	0	39	104	0	72	16370
2026-01-06 00:20:04.15	321.94	52.28	-50.2	-63.6	3.8	1.49e+00	0	39	104	0	72	16409
2026-01-06 00:20:04.86	321.50	52.39	-50.2	-63.6	3.8	1.49e+00	0	39	104	0	72	16371
2026-01-06 00:20:06.16	320.69	52.60	-50.2	-63.6	3.8	1.49e+00	0	39	104	0	72	16445
2026-01-06 00:20:06.87	320.25	52.71	-50.3	-63.6	3.8	1.49e+00	0	39	104	0	72	16382
2026-01-06 00:20:08.16	319.43	52.91	-50.3	-63.6	3.8	1.49e+00	0	39	104	0	72	16404
2026-01-06 00:20:08.88	318.97	53.01	-50.3	-63.6	3.8	1.49e+00	0	39	104	0	72	16448
2026-01-06 00:20:10.17	318.14	53.20	-50.3	-63.6	3.8	1.49e+00	0	39	104	0	72	16494
2026-01-06 00:20:10.89	317.67	53.31	-50.2	-63.6	3.8	1.49e+00	0	39	104	0	72	16421
2026-01-06 00:20:12.18	316.82	53.49	-50.2	-63.6	3.8	1.49e+00	0	39	104	0	72	16396
2026-01-06 00:20:12.90	316.34	53.58	-50.3	-63.6	3.8	1.49e+00	0	39	104	0	72	16453
2026-01-06 00:20:14.19	315.48	53.75	-50.2	-63.6	3.8	1.49e+00	0	39	104	0	72	16409
2026-01-06 00:20:14.91	314.99	53.85	-50.2	-63.6	3.8	1.49e+00	0	39	104	0	72	16455
2026-01-06 00:20:16.20	314.11	54.01	-50.2	-63.6	3.8	1.49e+00	0	39	104	0	72	16402
2026-01-06 00:20:16.91	313.62	54.09	-50.2	-63.6	3.8	1.49e+00	0	39	104	0	72	16455
2026-01-06 00:20:18.21	312.71	54.25	-50.3	-63.6	3.8	1.49e+00	0	39	104	0	72	16446
2026-01-06 00:20:18.92	312.21	54.33	-50.3	-63.6	3.8	1.49e+00	0	39	104	0	72	16469
2026-01-06 00:20:20.21	311.30	54.47	-50.3	-63.6	3.8	1.49e+00	0	39	104	0	72	16448
2026-01-06 00:20:20.93	310.79	54.54	-50.2	-63.6	3.8	1.49e+00	0	39	104	0	72	16431
2026-01-06 00:20:22.22	309.86	54.67	-50.2	-63.6	3.8	1.49e+00	0	39	104	0	72	16453
2026-01-06 00:20:22.94	309.34	54.74	-50.2	-63.6	3.8	1.49e+00	0	39	104	0	72	16445
2026-01-06 00:20:24.23	308.41	54.86	-50.3	-63.6	3.8	1.49e+00	0	39	104	0	72	16454
2026-01-06 00:20:24.95	307.88	54.92	-50.3	-63.6	3.8	1.49e+00	0	39	104	0	72	16445
2026-01-06 00:20:26.24	306.93	55.03	-50.3	-63.7	3.8	1.49e+00	0	39	104	0	72	16504
2026-01-06 00:20:26.95	306.40	55.08	-50.3	-63.6	3.8	1.49e+00	0	39	104	0	72	16431
2026-01-06 00:20:28.25	305.44	55.18	-50.2	-63.6	3.8	1.49e+00	0	39	104	0	72	16469
2026-01-06 00:20:28.96	304.91	55.23	-50.2	-63.6	3.8	1.49e+00	0	39	104	0	72	16442
2026-01-06 00:20:30.25	303.94	55.31	-50.3	-63.6	3.8	1.49e+00	0	39	104	0	72	16443
2026-01-06 00:20:30.97	303.39	55.35	-50.2	-63.6	3.8	1.49e+00	0	39	104	0	72	16448
2026-01-06 00:20:32.26	302.41	55.42	-50.3	-63.7	3.8	1.49e+00	0	39	104	0	72	16507
2026-01-06 00:20:32.98	301.87	55.46	-50.2	-63.6	3.8	1.49e+00	0	39	104	0	72	16410
2026-01-06 00:20:34.27	300.88	55.51	-50.2	-63.6	3.8	1.49e+00	0	39	104	0	72	16452
2026-01-06 00:20:34.99	300.33	55.54	-50.2	-63.6	3.8	1.49e+00	0	39	104	0	72	16409
2026-01-06 00:20:36.28	299.34	55.59	-50.3	-63.6	3.8	1.49e+00	0	39	104	0	72	16392
2026-01-06 00:20:37.00	298.79	55.61	-50.2	-63.6	3.8	1.49e+00	0	39	104	0	72	16491
2026-01-06 00:20:38.29	297.79	55.64	-50.3	-63.6	3.8	1.49e+00	0	39	104	0	72	16407
2026-01-06 00:20:39.00	297.24	55.65	-50.2	-63.6	3.8	1.49e+00	0	39	104	0	72	16436
2026-01-06 00:20:40.29	296.25	55.67	-50.2	-63.6	3.8	1.49e+00	0	39	104	0	72	16472
2026-01-06 00:20:41.06	295.65	55.67	-50.3	-63.6	3.8	1.49e+00	0	39	104	0	72	16403
2026-01-06 00:20:42.35	294.65	55.68	-50.2	-63.6	3.8	1.49e+00	0	39	104	0	72	16464
2026-01-06 00:20:43.15	294.03	55.68	-50.3	-63.6	3.8	1.49e+00	0	39	104	0	72	16431
2026-01-06 00:20:44.31	293.13	55.67	-50.2	-63.6	3.8	1.49e+00	0	39	104	0	72	16454
2026-01-06 00:20:45.34	292.34	55.65	-50.3	-63.6	3.8	1.49e+00	0	39	104	0	72	16444
2026-01-06 00:20:46.34	291.57	55.64	-50.2	-63.6	3.8	1.49e+00	0	39	104	0	72	16442
2026-01-06 00:20:47.35	290.79	55.61	-50.3	-63.6	3.8	1.49e+00	0	39	104	0	72	16458
2026-01-06 00:20:48.35	290.02	55.58	-50.3	-63.6	3.8	1.49e+00	0	39	104	0	72	16425
2026-01-06 00:20:49.36	289.24	55.55	-50.3	-63.6	3.8	1.49e+00	0	39	104	0	72	16440
2026-01-06 00:20:50.36	288.47	55.51	-50.2	-63.6	3.8	1.49e+00	0	39	104	0	72	16441
2026-01-06 00:20:51.36	287.71	55.47	-50.2	-63.6	3.8	1.49e+00	0	39	104	0	72	16432
2026-01-06 00:20:52.37	286.94	55.42	-50.2	-63.6	3.8	1.49e+00	0	39	104	0	72	16380
2026-01-06 00:20:53.37	286.18	55.36	-50.2	-63.6	3.8	1.49e+00	0	39	104	0	72	16475
2026-01-06 00:20:54.38	285.42	55.31	-50.2	-63.6	3.8	1.49e+00	0	39	104	0	72	16466
2026-01-06 00:20:55.38	284.67	55.24	-50.3	-63.6	3.8	1.49e+00	0	39	104	0	72	16459
2026-01-06 00:20:56.38	283.92	55.17	-50.2	-63.6	3.8	1.49e+00	0	39	104	0	72	16477
2026-01-06 00:20:57.39	283.17	55.10	-50.2	-63.6	3.8	1.49e+00	0	39	104	0	72	16411
2026-01-06 00:20:58.39	282.42	55.02	-50.3	-63.6	3.8	1.49e+00	0	39	104	0	72	16398
2026-01-06 00:20:59.40	281.68	54.94	-50.3	-63.6	3.8	1.49e+00	0	39	104	0	72	16432
2026-01-06 00:21:00.64	280.77	54.83	-50.3	-63.6	3.8	1.49e+00	0	39	104	0	72	16456
2026-01-06 00:21:01.50	280.15	54.75	-50.3	-63.6	3.8	1.49e+00	0	39	104	0	72	16394
2026-01-06 00:21:02.64	279.32	54.64	-50.3	-63.6	3.8	1.49e+00	0	39	104	0	72	16499
2026-01-06 00:21:03.50	278.71	54.55	-50.3	-63.6	3.8	1.49e+00	0	39	104	0	72	16427
2026-01-06 00:21:04.65	277.89	54.43	-50.3	-63.6	3.8	1.49e+00	0	39	104	0	72	16396
2026-01-06 00:21:05.51	277.28	54.34	-50.3	-63.6	3.8	1.49e+00	0	39	104	0	72	16419
2026-01-06 00:21:06.66	276.47	54.21	-50.3	-63.6	3.8	1.49e+00	0	39	104	0	72	16412
2026-01-06 00:21:07.52	275.87	54.11	-50.3	-63.6	3.8	1.49e+00	0	39	104	0	72	16382
2026-01-06 00:21:08.67	275.08	53.97	-50.3	-63.6	3.8	1.49e+00	0	39	104	0	72	16480
2026-01-06 00:21:09.53	274.49	53.86	-50.3	-63.6	3.8	1.49e+00	0	40	104	0	72	16461
2026-01-06 00:21:10.68	273.71	53.71	-50.3	-63.6	3.8	1.49e+00	0	39	104	0	72	16441
2026-01-06 00:21:11.53	273.14	53.60	-50.3	-63.6	3.8	1.49e+00	0	39	104	0	72	16477
2026-01-06 00:21:12.68	272.37	53.44	-50.3	-63.6	3.8	1.49e+00	0	39	104	0	72	16458
2026-01-06 00:21:13.54	271.81	53.32	-50.3	-63.6	3.8	1.49e+00	0	39	104	0	72	16426
2026-01-06 00:21:14.69	271.06	53.15	-50.3	-63.6	3.8	1.49e+00	0	39	104	0	72	16420
2026-01-06 00:21:15.55	270.50	53.03	-50.3	-63.6	3.8	1.49e+00	0	39	104	0	72	16474
2026-01-06 00:21:16.69	269.77	52.86	-50.3	-63.6	3.8	1.49e+00	0	39	104	0	72	16394
2026-01-06 00:21:17.55	269.23	52.73	-50.3	-63.6	3.8	1.49e+00	0	39	104	0	72	16452
2026-01-06 00:21:18.70	268.51	52.55	-50.3	-63.6	3.8	1.49e+00	0	39	104	0	72	16430
2026-01-06 00:21:19.56	267.97	52.41	-50.3	-63.6	3.8	1.49e+00	0	39	104	0	72	16468
2026-01-06 00:21:20.71	267.27	52.22	-50.3	-63.6	3.8	1.49e+00	0	39	104	0	72	16397
2026-01-06 00:21:21.57	266.75	52.08	-50.3	-63.6	3.8	1.49e+00	0	39	104	0	72	16443
2026-01-06 00:21:22.72	266.06	51.89	-50.2	-63.6	3.8	1.49e+00	0	39	104	0	72	16455
2026-01-06 00:21:23.58	265.55	51.74	-50.3	-63.6	3.8	1.49e+00	0	39	104	0	72	16422
2026-01-06 00:21:24.72	264.88	51.54	-50.3	-63.6	3.8	1.49e+00	0	39	104	0	72	16396
2026-01-06 00:21:25.58	264.38	51.39	-50.3	-63.6	3.8	1.49e+00	0	39	104	0	72	16454
2026-01-06 00:21:26.73	263.72	51.19	-50.3	-63.7	3.8	1.49e+00	0	39	104	0	72	16507
2026-01-06 00:21:27.59	263.24	51.03	-50.3	-63.6	3.8	1.49e+00	0	39	104	0	72	16388
2026-01-06 00:21:28.74	262.59	50.82	-50.2	-63.6	3.8	1.49e+00	0	39	104	0	72	16470
2026-01-06 00:21:29.60	262.12	50.66	-50.3	-63.6	3.8	1.49e+00	0	39	104	0	72	16444
2026-01-06 00:21:30.75	261.49	50.45	-50.3	-63.6	3.8	1.49e+00	0	39	104	0	72	16432
2026-01-06 00:21:31.61	261.03	50.28	-50.3	-63.6	3.8	1.49e+00	0	39	104	0	72	16471
2026-01-06 00:21:32.75	260.43	50.07	-50.3	-63.6	3.8	1.49e+00	0	39	104	0	72	16386
2026-01-06 00:21:33.62	259.97	49.90	-50.3	-63.6	3.8	1.49e+00	0	39	104	0	72	16471
2026-01-06 00:21:34.77	259.37	49.68	-50.3	-63.6	3.8	1.49e+00	0	39	104	0	72	16467
2026-01-06 00:21:35.62	258.94	49.51	-50.3	-63.6	3.8	1.49e+00	0	39	104	0	72	16463
2026-01-06 00:21:36.77	258.36	49.28	-50.3	-63.6	3.8	1.49e+00	0	39	104	0	72	16394
2026-01-06 00:21:37.64	257.93	49.11	-50.2	-63.6	3.8	1.49e+00	0	39	104	0	72	16484
2026-01-06 00:21:38.78	257.36	48.88	-50.3	-63.6	3.8	1.49e+00	0	39	104	0	72	16452
2026-01-06 00:21:39.64	256.95	48.71	-50.3	-63.6	3.8	1.49e+00	0	39	104	0	72	16473
2026-01-06 00:21:40.79	256.40	48.47	-50.3	-63.6	3.8	1.49e+00	0	39	104	0	72	16431
2026-01-06 00:21:41.65	255.99	48.30	-50.3	-63.6	3.8	1.49e+00	0	39	104	0	72	16479
2026-01-06 00:21:42.80	255.45	48.06	-50.3	-63.6	3.8	1.49e+00	0	39	104	0	72	16423
2026-01-06 00:21:43.66	255.06	47.88	-50.3	-63.6	3.8	1.49e+00	0	39	104	0	72	16452
2026-01-06 00:21:44.81	254.54	47.65	-50.3	-63.6	3.8	1.49e+00	0	39	104	0	72	16438
2026-01-06 00:21:45.67	254.15	47.47	-50.3	-63.6	3.8	1.49e+00	0	39	104	0	72	16456
2026-01-06 00:21:46.82	253.64	47.23	-50.3	-63.6	3.8	1.49e+00	0	39	104	0	72	16474
2026-01-06 00:21:47.67	253.27	47.05	-50.3	-63.6	3.8	1.49e+00	0	39	104	0	72	16435
2026-01-06 00:21:48.82	252.78	46.81	-50.3	-63.6	3.8	1.49e+00	0	39	104	0	72	16421
2026-01-06 00:21:49.68	252.41	46.62	-50.3	-63.6	3.8	1.49e+00	0	39	104	0	72	16438
2026-01-06 00:21:50.83	251.93	46.38	-50.3	-63.6	3.8	1.49e+00	0	39	104	0	72	16477
2026-01-06 00:21:51.69	251.58	46.20	-50.3	-63.6	3.8	1.49e+00	0	39	104	0	72	16448
2026-01-06 00:21:52.84	251.11	45.95	-50.3	-63.6	3.8	1.49e+00	0	39	104	0	72	16491
2026-01-06 00:21:53.69	250.77	45.77	-50.3	-63.6	3.8	1.49e+00	0	39	104	0	72	16501
2026-01-06 00:21:54.84	250.31	45.52	-50.3	-63.6	3.8	1.49e+00	0	39	104	0	72	16467
2026-01-06 00:21:55.70	249.97	45.34	-50.3	-63.6	3.8	1.49e+00	0	39	104	0	72	16500
2026-01-06 00:21:56.85	249.53	45.09	-50.2	-63.6	3.8	1.49e+00	0	39	104	0	72	16413
2026-01-06 00:21:57.71	249.20	44.91	-50.3	-63.6	3.8	1.49e+00	0	39	104	0	72	16466
2026-01-06 00:21:58.86	248.77	44.66	-50.3	-63.6	3.8	1.49e+00	0	39	104	0	72	16466
2026-01-06 00:21:59.72	248.45	44.48	-50.3	-63.6	3.8	1.49e+00	0	39	104	0	72	16501
2026-01-06 00:22:00.87	248.03	44.23	-50.3	-63.6	3.8	1.49e+00	0	39	104	0	72	16493
2026-01-06 00:22:01.73	247.72	44.04	-50.3	-63.6	3.8	1.49e+00	0	39	104	0	72	16501
2026-01-06 00:22:02.87	247.32	43.80	-50.3	-63.7	3.8	1.49e+00	0	39	104	0	72	16516
2026-01-06 00:22:03.74	247.01	43.61	-50.3	-63.6	3.8	1.49e+00	0	39	104	0	72	16424
2026-01-06 00:22:04.88	246.62	43.36	-50.3	-63.6	3.8	1.49e+00	0	39	104	0	72	16435
2026-01-06 00:22:05.74	246.33	43.18	-50.3	-63.6	3.8	1.49e+00	0	39	104	0	72	16500
2026-01-06 00:22:06.89	245.94	42.93	-50.3	-63.6	3.8	1.49e+00	0	39	104	0	72	16432
2026-01-06 00:22:07.75	245.65	42.74	-50.3	-63.7	3.8	1.49e+00	0	39	104	0	72	16511
2026-01-06 00:22:08.90	245.28	42.50	-50.3	-63.6	3.8	1.49e+00	0	39	104	0	72	16469
2026-01-06 00:22:09.76	245.00	42.31	-50.3	-63.6	3.8	1.49e+00	0	39	104	0	72	16456
2026-01-06 00:22:10.91	244.63	42.06	-50.3	-63.6	3.8	1.49e+00	0	39	104	0	72	16421
2026-01-06 00:22:11.77	244.36	41.88	-50.3	-63.6	3.8	1.49e+00	0	39	104	0	72	16503
2026-01-06 00:22:12.92	244.01	41.63	-50.3	-63.6	3.8	1.49e+00	0	39	104	0	72	16420
2026-01-06 00:22:13.78	243.74	41.45	-50.3	-63.6	3.8	1.49e+00	0	39	104	0	72	16447
2026-01-06 00:22:14.92	243.40	41.21	-50.3	-63.6	3.8	1.49e+00	0	39	104	0	72	16440
2026-01-06 00:22:15.78	243.14	41.02	-50.3	-63.6	3.8	1.49e+00	0	39	104	0	72	16446
2026-01-06 00:22:16.93	242.80	40.78	-50.3	-63.6	3.8	1.49e+00	0	39	104	0	72	16492
2026-01-06 00:22:17.79	242.55	40.59	-50.3	-63.6	3.8	1.49e+00	0	39	104	0	72	16388
2026-01-06 00:22:18.94	242.22	40.35	-50.3	-63.6	3.8	1.49e+00	0	39	104	0	72	16479
2026-01-06 00:22:19.80	241.98	40.17	-50.3	-63.6	3.8	1.49e+00	0	39	104	0	72	16496
2026-01-06 00:22:20.95	241.66	39.93	-50.3	-63.6	3.8	1.49e+00	0	39	104	0	72	16415
2026-01-06 00:22:21.81	241.42	39.74	-50.3	-63.6	3.8	1.49e+00	0	39	104	0	72	16441
2026-01-06 00:22:22.96	241.11	39.50	-50.3	-63.6	3.8	1.49e+00	0	39	104	0	72	16469
2026-01-06 00:22:23.82	240.88	39.32	-50.3	-63.6	3.8	1.49e+00	0	39	104	0	72	16472
2026-01-06 00:22:24.96	240.58	39.08	-50.3	-63.6	3.8	1.49e+00	0	39	104	0	72	16457
2026-01-06 00:22:25.83	240.35	38.90	-50.3	-63.6	3.8	1.49e+00	0	39	104	0	72	16481
2026-01-06 00:22:26.97	240.06	38.67	-50.3	-63.7	3.8	1.49e+00	0	39	104	0	72	16537
2026-01-06 00:22:27.83	239.84	38.49	-50.3	-63.7	3.8	1.49e+00	0	39	104	0	72	16513
2026-01-06 00:22:28.98	239.55	38.25	-50.3	-63.6	3.8	1.49e+00	0	39	104	0	72	16480
2026-01-06 00:22:29.84	239.33	38.07	-50.3	-63.6	3.8	1.49e+00	0	39	104	0	72	16463
2026-01-06 00:22:30.99	239.05	37.84	-50.3	-63.6	3.8	1.49e+00	0	39	104	0	72	16502
2026-01-06 00:22:31.85	238.84	37.66	-50.3	-63.6	3.8	1.49e+00	0	39	104	0	72	16465
2026-01-06 00:22:33.00	238.57	37.43	-50.3	-63.6	3.8	1.49e+00	0	39	104	0	72	16450
2026-01-06 00:22:33.86	238.37	37.25	-50.3	-63.7	3.8	1.49e+00	0	39	104	0	72	16534
2026-01-06 00:22:35.01	238.10	37.02	-50.3	-63.6	3.8	1.49e+00	0	39	104	0	72	16496
2026-01-06 00:22:35.87	237.90	36.84	-50.3	-63.6	3.8	1.49e+00	0	39	104	0	72	16489
2026-01-06 00:22:37.02	237.64	36.61	-50.3	-63.6	3.8	1.49e+00	0	39	104	0	72	16434
2026-01-06 00:22:37.88	237.45	36.44	-50.3	-63.6	3.8	1.49e+00	0	39	104	0	72	16456
2026-01-06 00:22:39.03	237.19	36.21	-50.3	-63.7	3.8	1.49e+00	0	39	104	0	72	16504
2026-01-06 00:22:39.89	237.00	36.04	-50.3	-63.6	3.8	1.49e+00	0	39	104	0	72	16462
2026-01-06 00:22:41.04	236.75	35.81	-50.3	-63.6	3.8	1.49e+00	0	39	104	0	72	16412
2026-01-06 00:22:41.89	236.57	35.64	-50.3	-63.7	3.8	1.49e+00	0	39	104	0	72	16516
2026-01-06 00:22:43.04	236.33	35.42	-50.3	-63.6	3.8	1.49e+00	0	39	104	0	72	16370
2026-01-06 00:22:43.90	236.15	35.25	-50.3	-63.7	3.8	1.49e+00	0	39	104	0	72	16525
2026-01-06 00:22:45.05	235.91	35.02	-50.3	-63.6	3.8	1.49e+00	0	39	104	0	72	16462
2026-01-06 00:22:45.91	235.74	34.86	-50.3	-63.6	3.8	1.49e+00	0	39	104	0	72	16476
2026-01-06 00:22:47.06	235.51	34.63	-50.3	-63.6	3.8	1.49e+00	0	39	104	0	72	16488
2026-01-06 00:22:47.92	235.34	34.47	-50.3	-63.6	3.8	1.49e+00	0	40	104	0	72	16460
2026-01-06 00:22:49.07	235.11	34.25	-50.3	-63.7	3.8	1.49e+00	0	39	104	0	72	16532
2026-01-06 00:22:49.93	234.94	34.08	-50.3	-63.6	3.8	1.49e+00	0	39	104	0	72	16486
2026-01-06 00:22:51.07	234.73	33.86	-50.3	-63.6	3.8	1.49e+00	0	39	104	0	72	16460
2026-01-06 00:22:51.94	234.56	33.70	-50.3	-63.6	3.8	1.49e+00	0	39	104	0	72	16458
2026-01-06 00:22:53.08	234.35	33.48	-50.3	-63.6	3.8	1.49e+00	0	39	104	0	72	16496
2026-01-06 00:22:53.94	234.19	33.32	-50.3	-63.6	3.8	1.49e+00	0	39	104	0	72	16487
2026-01-06 00:22:55.09	233.98	33.11	-50.3	-63.6	3.8	1.49e+00	0	39	104	0	72	16469
2026-01-06 00:22:55.95	233.82	32.95	-50.3	-63.6	3.8	1.49e+00	0	39	104	0	72	16499
2026-01-06 00:22:57.10	233.62	32.73	-50.3	-63.6	3.8	1.49e+00	0	39	104	0	72	16502
2026-01-06 00:22:57.96	233.47	32.57	-50.3	-63.6	3.8	1.49e+00	0	39	104	0	72	16469
2026-01-06 00:22:59.11	233.27	32.36	-50.3	-63.7	3.8	1.49e+00	0	39	104	0	72	16522
2026-01-06 00:22:59.97	233.12	32.21	-50.3	-63.6	3.8	1.49e+00	0	39	104	0	72	16471
2026-01-06 00:23:01.12	232.92	32.00	-50.3	-63.6	3.8	1.49e+00	0	39	104	0	72	16475
2026-01-06 00:23:01.98	232.78	31.84	-50.3	-63.6	3.8	1.49e+00	0	39	104	0	72	16491
2026-01-06 00:23:03.12	232.59	31.63	-50.3	-63.6	3.8	1.49e+00	0	40	104	0	72	16471
2026-01-06 00:23:03.98	232.44	31.48	-50.3	-63.7	3.8	1.49e+00	0	40	104	0	72	16517
2026-01-06 00:23:05.13	232.26	31.27	-50.3	-63.6	3.8	1.49e+00	0	39	104	0	72	16469
2026-01-06 00:23:05.99	232.12	31.12	-50.3	-63.7	3.8	1.49e+00	0	39	104	0	72	16508
2026-01-06 00:23:07.14	231.93	30.92	-50.3	-63.6	3.8	1.49e+00	0	39	104	0	72	16488
2026-01-06 00:23:08.00	231.80	30.76	-50.3	-63.7	3.8	1.49e+00	0	40	104	0	72	16510
2026-01-06 00:23:09.15	231.62	30.56	-50.3	-63.6	3.8	1.49e+00	0	39	104	0	72	16486
2026-01-06 00:23:10.01	231.49	30.41	-50.3	-63.6	3.8	1.49e+00	0	40	104	0	72	16476
2026-01-06 00:23:11.15	231.31	30.21	-50.3	-63.7	3.8	1.49e+00	0	39	104	0	72	16520
2026-01-06 00:23:12.01	231.18	30.06	-50.3	-63.7	3.8	1.49e+00	0	40	104	0	72	16527
2026-01-06 00:23:13.16	231.01	29.87	-50.3	-63.6	3.8	1.49e+00	0	39	104	0	72	16494
2026-01-06 00:23:14.02	230.88	29.72	-50.3	-63.6	3.8	1.49e+00	0	40	104	0	72	16484
2026-01-06 00:23:15.17	230.72	29.52	-50.3	-63.7	3.8	1.49e+00	0	40	104	0	72	16539
2026-01-06 00:23:16.03	230.59	29.38	-50.3	-63.7	3.8	1.49e+00	0	40	104	0	72	16508
2026-01-06 00:23:17.18	230.43	29.18	-50.3	-63.6	3.8	1.49e+00	0	40	104	0	72	16489
2026-01-06 00:23:18.23	230.28	29.01	-50.3	-63.7	3.8	1.49e+00	0	39	104	0	72	16549
2026-01-06 00:23:19.30	230.13	28.83	-50.3	-63.7	3.8	1.49e+00	0	40	104	0	72	16506
2026-01-06 00:23:20.34	229.99	28.65	-50.3	-63.6	3.8	1.49e+00	0	40	104	0	72	16419
2026-01-06 00:23:21.51	229.83	28.46	-50.3	-63.7	3.8	1.49e+00	0	39	104	0	72	16510
2026-01-06 00:23:22.40	229.71	28.31	-50.3	-63.6	3.8	1.49e+00	0	39	104	0	72	16459
2026-01-06 00:23:23.58	229.55	28.12	-50.3	-63.7	3.8	1.49e+00	0	40	104	0	72	16527
2026-01-06 00:23:24.48	229.43	27.97	-50.3	-63.6	3.8	1.49e+00	0	40	104	0	72	16461
2026-01-06 00:23:25.80	229.26	27.76	-50.3	-63.6	3.8	1.49e+00	0	39	104	0	72	16428
2026-01-06 00:23:26.51	229.17	27.64	-50.3	-63.6	3.8	1.49e+00	0	39	104	0	72	16457
2026-01-06 00:23:27.80	229.00	27.44	-50.3	-63.6	3.8	1.49e+00	0	39	104	0	72	16445
2026-01-06 00:23:28.52	228.91	27.32	-50.3	-63.7	3.8	1.49e+00	0	40	104	0	72	16524
2026-01-06 00:23:29.81	228.75	27.12	-50.3	-63.7	3.8	1.49e+00	0	39	104	0	72	16533
2026-01-06 00:23:30.53	228.66	27.00	-50.3	-63.6	3.8	1.49e+00	0	40	104	0	72	16485
2026-01-06 00:23:31.81	228.50	26.80	-50.3	-63.6	3.8	1.49e+00	0	40	104	0	72	16442
2026-01-06 00:23:32.53	228.41	26.69	-50.3	-63.7	3.8	1.49e+00	0	40	104	0	72	16514
2026-01-06 00:23:33.82	228.26	26.49	-50.3	-63.6	3.8	1.49e+00	0	40	104	0	72	16450
2026-01-06 00:23:34.54	228.17	26.37	-50.3	-63.6	3.8	1.49e+00	0	40	104	0	72	16467
2026-01-06 00:23:35.83	228.02	26.17	-50.3	-63.6	3.8	1.49e+00	0	39	104	0	72	16476
2026-01-06 00:23:36.55	227.94	26.06	-50.3	-63.6	3.8	1.49e+00	0	40	104	0	72	16476
2026-01-06 00:23:37.92	227.78	25.85	-50.3	-63.7	3.8	1.49e+00	0	40	104	0	72	16541
2026-01-06 00:23:38.64	227.70	25.74	-50.3	-63.7	3.8	1.49e+00	0	40	104	0	72	16520
2026-01-06 00:23:39.93	227.55	25.55	-50.3	-63.7	3.8	1.49e+00	0	40	104	0	72	16541
2026-01-06 00:23:40.65	227.47	25.44	-50.3	-63.7	3.8	1.49e+00	0	40	104	0	72	16531
2026-01-06 00:23:41.94	227.32	25.25	-50.3	-63.7	3.8	1.49e+00	0	40	104	0	72	16565
2026-01-06 00:23:42.66	227.25	25.14	-50.3	-63.6	3.8	1.49e+00	0	40	104	0	72	16502
2026-01-06 00:23:43.95	227.10	24.95	-50.3	-63.6	3.8	1.49e+00	0	40	104	0	72	16459
2026-01-06 00:23:44.67	227.03	24.84	-50.3	-63.6	3.8	1.49e+00	0	39	104	0	72	16448
2026-01-06 00:23:45.96	226.89	24.65	-50.3	-63.6	3.8	1.49e+00	0	40	104	0	72	16450
2026-01-06 00:23:46.69	226.81	24.54	-50.3	-63.7	3.8	1.49e+00	0	40	104	0	72	16551
2026-01-06 00:23:47.98	226.68	24.36	-50.3	-63.6	3.8	1.49e+00	0	40	104	0	72	16489
2026-01-06 00:23:48.70	226.60	24.25	-50.3	-63.6	3.8	1.49e+00	0	40	104	0	72	16489
2026-01-06 00:23:49.99	226.47	24.07	-50.3	-63.6	3.8	1.49e+00	0	39	104	0	72	16477
2026-01-06 00:23:50.71	226.40	23.96	-50.3	-63.7	3.8	1.49e+00	0	40	104	0	72	16540
2026-01-06 00:23:52.00	226.26	23.78	-50.3	-63.7	3.8	1.49e+00	0	39	104	0	72	16587
2026-01-06 00:23:52.72	226.19	23.67	-50.3	-63.6	3.8	1.49e+00	0	39	104	0	72	16500
2026-01-06 00:23:54.01	226.06	23.49	-50.3	-63.6	3.8	1.49e+00	0	40	104	0	72	16476
2026-01-06 00:23:54.72	226.00	23.39	-50.3	-63.6	3.8	1.49e+00	0	40	104	0	72	16455
2026-01-06 00:23:56.02	225.87	23.21	-50.3	-63.7	3.8	1.49e+00	0	40	104	0	72	16518
2026-01-06 00:23:56.73	225.80	23.11	-50.3	-63.6	3.8	1.49e+00	0	40	104	0	72	16482
2026-01-06 00:23:58.02	225.68	22.93	-50.3	-63.6	3.8	1.49e+00	0	40	104	0	72	16451
2026-01-06 00:23:58.74	225.61	22.83	-50.3	-63.6	3.8	1.49e+00	0	40	104	0	72	16489
2026-01-06 00:24:00.03	225.49	22.65	-50.3	-63.6	3.8	1.49e+00	0	39	104	0	72	16485
2026-01-06 00:24:00.75	225.42	22.56	-50.3	-63.6	3.8	1.49e+00	0	40	104	0	72	16502
2026-01-06 00:24:02.04	225.30	22.38	-50.3	-63.6	3.8	1.49e+00	0	40	104	0	72	16445
2026-01-06 00:24:02.75	225.24	22.28	-50.3	-63.6	3.8	1.49e+00	0	39	104	0	72	16449
2026-01-06 00:24:04.04	225.12	22.11	-50.3	-63.7	3.8	1.49e+00	0	40	104	0	72	16514
2026-01-06 00:24:04.76	225.06	22.01	-50.3	-63.6	3.8	1.49e+00	0	40	104	0	72	16452
2026-01-06 00:24:06.05	224.94	21.84	-50.3	-63.6	3.8	1.49e+00	0	39	104	0	72	16477
2026-01-06 00:24:06.77	224.88	21.74	-50.3	-63.6	3.8	1.49e+00	0	40	104	0	72	16467
2026-01-06 00:24:08.06	224.76	21.57	-50.3	-63.6	3.8	1.49e+00	0	39	104	0	72	16454
2026-01-06 00:24:08.78	224.70	21.48	-50.3	-63.6	3.8	1.49e+00	0	40	104	0	72	16442
2026-01-06 00:24:10.07	224.59	21.31	-50.3	-63.6	3.8	1.49e+00	0	40	104	0	72	16474
2026-01-06 00:24:10.78	224.53	21.22	-50.3	-63.6	3.8	1.49e+00	0	40	104	0	72	16421
2026-01-06 00:24:12.07	224.42	21.05	-50.3	-63.6	3.8	1.49e+00	0	40	104	0	72	16460
2026-01-06 00:24:12.79	224.36	20.96	-50.3	-63.6	3.8	1.49e+00	0	40	104	0	72	16496
2026-01-06 00:24:14.08	224.25	20.79	-50.3	-63.6	3.8	1.49e+00	0	40	104	0	72	16480
2026-01-06 00:24:14.80	224.20	20.70	-50.3	-63.6	3.8	1.49e+00	0	40	104	0	72	16445
2026-01-06 00:24:16.09	224.09	20.53	-50.3	-63.7	3.8	1.49e+00	0	40	104	0	72	16516
2026-01-06 00:24:16.81	224.03	20.44	-50.3	-63.6	3.8	1.49e+00	0	39	104	0	72	16471
2026-01-06 00:24:18.10	223.93	20.28	-50.3	-63.7	3.8	1.49e+00	0	39	104	0	72	16532
2026-01-06 00:24:18.82	223.87	20.19	-50.3	-63.6	3.8	1.49e+00	0	39	104	0	72	16464
2026-01-06 00:24:20.11	223.77	20.03	-50.3	-63.6	3.8	1.49e+00	0	40	104	0	72	16454
2026-01-06 00:24:20.83	223.71	19.94	-50.3	-63.6	3.8	1.49e+00	0	40	104	0	72	16472
2026-01-06 00:24:22.12	223.61	19.78	-50.3	-63.6	3.8	1.49e+00	0	40	104	0	72	16417
2026-01-06 00:24:22.83	223.56	19.69	-50.3	-63.6	3.8	1.49e+00	0	40	104	0	72	16479
2026-01-06 00:24:24.12	223.46	19.53	-50.3	-63.6	3.8	1.49e+00	0	40	104	0	72	16476
2026-01-06 00:24:24.84	223.41	19.44	-50.3	-63.7	3.8	1.49e+00	0	40	104	0	72	16525
2026-01-06 00:24:26.13	223.31	19.28	-50.3	-63.6	3.8	1.49e+00	0	39	104	0	72	16473
2026-01-06 00:24:26.85	223.26	19.20	-50.3	-63.6	3.8	1.49e+00	0	40	104	0	72	16448
2026-01-06 00:24:28.14	223.16	19.04	-50.3	-63.6	3.8	1.49e+00	0	40	104	0	72	16419
2026-01-06 00:24:28.86	223.11	18.95	-50.3	-63.6	3.8	1.49e+00	0	39	104	0	72	16425
2026-01-06 00:24:30.15	223.01	18.80	-50.3	-63.6	3.8	1.49e+00	0	40	104	0	72	16455
2026-01-06 00:24:30.87	222.96	18.71	-50.3	-63.6	3.8	1.49e+00	0	40	104	0	72	16483
2026-01-06 00:24:32.16	222.87	18.56	-50.3	-63.6	3.8	1.49e+00	0	39	104	0	72	16446
2026-01-06 00:24:32.88	222.82	18.47	-50.3	-63.6	3.8	1.49e+00	0	40	104	0	72	16502
2026-01-06 00:24:34.17	222.73	18.32	-50.3	-63.6	3.8	1.49e+00	0	40	104	0	72	16449
2026-01-06 00:24:34.89	222.68	18.24	-50.3	-63.6	3.8	1.49e+00	0	40	104	0	72	16455
2026-01-06 00:24:36.18	222.59	18.09	-50.3	-63.6	3.8	1.49e+00	0	39	104	0	72	16462
2026-01-06 00:24:36.90	222.54	18.00	-50.3	-63.6	3.8	1.49e+00	0	40	104	0	72	16446
2026-01-06 00:24:38.19	222.45	17.85	-50.3	-63.6	3.8	1.49e+00	0	40	104	0	72	16479
2026-01-06 00:24:38.90	222.41	17.77	-50.3	-63.6	3.8	1.49e+00	0	39	104	0	72	16487
2026-01-06 00:24:40.19	222.32	17.63	-50.3	-63.6	3.8	1.49e+00	0	40	104	0	72	16410
2026-01-06 00:24:40.91	222.27	17.54	-50.3	-63.6	3.8	1.49e+00	0	40	104	0	72	16459
2026-01-06 00:24:42.20	222.19	17.40	-50.3	-63.6	3.8	1.49e+00	0	40	104	0	72	16462
2026-01-06 00:24:42.92	222.14	17.31	-50.3	-63.7	3.8	1.49e+00	0	39	104	0	72	16521
2026-01-06 00:24:44.21	222.06	17.17	-50.3	-63.6	3.8	1.49e+00	0	40	104	0	72	16489
2026-01-06 00:24:44.93	222.01	17.09	-50.3	-63.6	3.8	1.49e+00	0	40	104	0	72	16426
2026-01-06 00:24:46.22	221.93	16.94	-50.3	-63.6	3.8	1.49e+00	0	40	104	0	72	16482
2026-01-06 00:24:46.93	221.88	16.87	-50.3	-63.6	3.8	1.49e+00	0	40	104	0	72	16450
2026-01-06 00:24:48.22	221.80	16.72	-50.3	-63.7	3.8	1.49e+00	0	40	104	0	72	16533
2026-01-06 00:24:48.94	221.76	16.64	-50.3	-63.7	3.8	1.49e+00	0	40	104	0	72	16505
2026-01-06 00:24:50.23	221.68	16.50	-50.3	-63.6	3.8	1.49e+00	0	40	104	0	72	16431
2026-01-06 00:24:50.95	221.63	16.42	-50.3	-63.6	3.8	1.49e+00	0	40	104	0	72	16416
2026-01-06 00:24:52.24	221.55	16.28	-50.3	-63.6	3.8	1.49e+00	0	40	104	0	72	16478
2026-01-06 00:24:52.96	221.51	16.20	-50.3	-63.6	3.8	1.49e+00	0	40	104	0	72	16491
2026-01-06 00:24:54.25	221.43	16.06	-50.3	-63.7	3.8	1.49e+00	0	40	104	0	72	16553
2026-01-06 00:24:54.97	221.39	15.99	-50.3	-63.6	3.8	1.49e+00	0	40	104	0	72	16416
2026-01-06 00:24:56.26	221.31	15.85	-50.3	-63.6	3.8	1.49e+00	0	40	104	0	72	16493
2026-01-06 00:24:56.97	221.27	15.77	-50.3	-63.6	3.8	1.49e+00	0	40	104	0	72	16489
2026-01-06 00:24:58.26	221.20	15.64	-50.3	-63.6	3.8	1.49e+00	0	40	104	0	72	16478
2026-01-06 00:24:58.98	221.15	15.56	-50.3	-63.6	3.8	1.49e+00	0	40	104	0	72	16480
2026-01-06 00:25:00.27	221.08	15.42	-50.3	-63.7	3.8	1.49e+00	0	40	104	0	72	16507
2026-01-06 00:25:01.07	221.03	15.34	-50.3	-63.6	3.8	1.49e+00	0	39	104	0	72	16461
2026-01-06 00:25:02.22	220.97	15.22	-50.3	-63.6	3.8	1.49e+00	0	40	104	0	72	16481
2026-01-06 00:25:03.08	220.92	15.13	-50.3	-63.6	3.8	1.49e+00	0	40	104	0	72	16481
2026-01-06 00:25:04.23	220.86	15.01	-50.3	-63.6	3.8	1.49e+00	0	40	104	0	72	16461
2026-01-06 00:25:05.09	220.81	14.92	-50.3	-63.6	3.8	1.49e+00	0	40	104	0	72	16453
2026-01-06 00:25:06.23	220.75	14.80	-50.3	-63.6	3.8	1.49e+00	0	40	104	0	72	16455
2026-01-06 00:25:07.09	220.70	14.72	-50.3	-63.6	3.8	1.49e+00	0	40	104	0	72	16463
2026-01-06 00:25:08.24	220.64	14.60	-50.3	-63.7	3.8	1.49e+00	0	40	104	0	72	16507
2026-01-06 00:25:09.10	220.59	14.51	-50.3	-63.6	3.8	1.49e+00	0	40	104	0	72	16483
2026-01-06 00:25:10.25	220.53	14.39	-50.3	-63.7	3.8	1.49e+00	0	40	104	0	72	16505
2026-01-06 00:25:11.11	220.48	14.31	-50.3	-63.6	3.8	1.49e+00	0	40	104	0	72	16429
2026-01-06 00:25:12.26	220.42	14.19	-50.3	-63.6	3.8	1.49e+00	0	40	104	0	72	16443
2026-01-06 00:25:13.12	220.38	14.11	-50.3	-63.6	3.8	1.49e+00	0	40	104	0	72	16493
2026-01-06 00:25:14.26	220.32	13.99	-50.3	-63.6	3.8	1.49e+00	0	40	104	0	72	16468
2026-01-06 00:25:15.12	220.27	13.91	-50.3	-63.6	3.8	1.49e+00	0	40	104	0	72	16484
2026-01-06 00:25:16.27	220.21	13.79	-50.3	-63.6	3.8	1.49e+00	0	40	104	0	72	16442
2026-01-06 00:25:17.13	220.17	13.71	-50.3	-63.7	3.8	1.49e+00	0	40	104	0	72	16526
2026-01-06 00:25:18.28	220.11	13.60	-50.3	-63.6	3.8	1.49e+00	0	40	104	0	72	16479
2026-01-06 00:25:19.14	220.07	13.51	-50.3	-63.6	3.8	1.49e+00	0	40	104	0	72	16493
2026-01-06 00:25:20.29	220.01	13.40	-50.3	-63.6	3.8	1.49e+00	0	40	104	0	72	16423
2026-01-06 00:25:21.15	219.97	13.32	-50.3	-63.6	3.8	1.49e+00	0	40	104	0	72	16418
2026-01-06 00:25:22.30	219.91	13.20	-50.3	-63.7	3.8	1.49e+00	0	40	104	0	72	16520
2026-01-06 00:25:23.16	219.87	13.12	-50.3	-63.6	3.8	1.49e+00	0	40	104	0	72	16442
2026-01-06 00:25:24.31	219.82	13.01	-50.3	-63.7	3.8	1.49e+00	0	40	104	0	72	16519
2026-01-06 00:25:25.16	219.78	12.93	-50.3	-63.6	3.8	1.49e+00	0	40	104	0	72	16478
2026-01-06 00:25:26.31	219.72	12.82	-50.3	-63.7	3.8	1.49e+00	0	40	104	0	72	16516
2026-01-06 00:25:27.25	219.68	12.73	-50.3	-63.6	3.8	1.49e+00	0	40	104	0	72	16484
2026-01-06 00:25:28.45	219.62	12.62	-50.3	-63.6	3.8	1.49e+00	0	40	104	0	72	16445
2026-01-06 00:25:29.34	219.58	12.53	-50.3	-63.7	3.8	1.49e+00	0	40	104	0	72	16532
2026-01-06 00:25:30.58	219.52	12.42	-50.3	-63.6	3.8	1.49e+00	0	40	104	0	72	16423
2026-01-06 00:25:31.44	219.48	12.34	-50.3	-63.6	3.8	1.49e+00	0	40	104	0	72	16483
2026-01-06 00:25:32.74	219.42	12.22	-50.3	-63.6	3.8	1.49e+00	0	40	104	0	72	16475
2026-01-06 00:25:33.46	219.39	12.15	-50.3	-63.6	3.8	1.49e+00	0	40	104	0	72	16469
2026-01-06 00:25:34.75	219.33	12.03	-50.3	-63.6	3.8	1.49e+00	0	40	104	0	72	16486
2026-01-06 00:25:35.47	219.30	11.96	-50.3	-63.7	3.8	1.49e+00	0	40	104	0	72	16517
2026-01-06 00:25:36.76	219.24	11.84	-50.3	-63.7	3.8	1.49e+00	0	40	104	0	72	16549
2026-01-06 00:25:37.47	219.21	11.78	-50.3	-63.7	3.8	1.49e+00	0	40	104	0	72	16507
2026-01-06 00:25:38.76	219.15	11.66	-50.3	-63.6	3.8	1.49e+00	0	40	104	0	72	16448
2026-01-06 00:25:39.48	219.12	11.60	-50.3	-63.6	3.8	1.49e+00	0	40	104	0	72	16488
2026-01-06 00:25:40.77	219.06	11.48	-50.3	-63.6	3.8	1.49e+00	0	40	104	0	72	16495
2026-01-06 00:25:41.49	219.03	11.42	-50.3	-63.6	3.8	1.49e+00	0	39	104	0	72	16460
2026-01-06 00:25:42.78	218.98	11.30	-50.3	-63.6	3.8	1.49e+00	0	40	104	0	72	16474
2026-01-06 00:25:43.50	218.95	11.23	-50.3	-63.6	3.8	1.49e+00	0	40	104	0	72	16451
2026-01-06 00:25:44.79	218.89	11.12	-50.3	-63.6	3.8	1.49e+00	0	40	104	0	72	16479
2026-01-06 00:25:45.50	218.86	11.06	-50.3	-63.7	3.8	1.49e+00	0	40	104	0	72	16507
2026-01-06 00:25:46.80	218.81	10.94	-50.3	-63.7	3.8	1.49e+00	0	40	104	0	72	16511
2026-01-06 00:25:47.51	218.78	10.88	-50.3	-63.6	3.8	1.49e+00	0	40	104	0	72	16503
2026-01-06 00:25:48.80	218.73	10.77	-50.3	-63.6	3.8	1.49e+00	0	40	104	0	72	16484
2026-01-06 00:25:49.52	218.70	10.70	-50.3	-63.6	3.8	1.49e+00	0	40	104	0	72	16471
2026-01-06 00:25:50.81	218.64	10.59	-50.3	-63.6	3.8	1.49e+00	0	40	104	0	72	16422
2026-01-06 00:25:51.53	218.61	10.53	-50.3	-63.6	3.8	1.49e+00	0	40	104	0	72	16489
2026-01-06 00:25:52.82	218.56	10.41	-50.3	-63.6	3.8	1.49e+00	0	40	104	0	72	16484
2026-01-06 00:25:53.54	218.53	10.35	-50.3	-63.6	3.8	1.49e+00	0	40	104	0	72	16461
2026-01-06 00:25:54.83	218.48	10.24	-50.3	-63.7	3.8	1.49e+00	0	40	104	0	72	16515
2026-01-06 00:25:55.55	218.45	10.18	-50.3	-63.7	3.8	1.49e+00	0	40	104	0	72	16546
2026-01-06 00:25:56.84	218.40	10.07	-50.3	-63.6	3.8	1.49e+00	0	40	104	0	72	16461
2026-01-06 00:25:57.55	218.38	10.01	-50.3	-63.6	3.8	1.49e+00	0	40	104	0	72	16455
2026-01-06 00:25:58.93	218.32	9.89	-50.3	-63.6	3.8	1.49e+00	0	40	104	0	72	16483
2026-01-06 00:25:59.65	218.29	9.83	-50.2	-63.6	3.8	1.49e+00	0	40	104	0	72	16476
2026-01-06 00:26:00.94	218.25	9.72	-50.3	-63.6	3.8	1.49e+00	0	40	104	0	72	16467
2026-01-06 00:26:01.65	218.22	9.66	-50.3	-63.7	3.8	1.49e+00	0	40	104	0	72	16553
2026-01-06 00:26:02.94	218.17	9.55	-50.3	-63.6	3.8	1.49e+00	0	40	104	0	72	16454
2026-01-06 00:26:03.66	218.14	9.49	-50.3	-63.6	3.8	1.49e+00	0	40	104	0	72	16486
2026-01-06 00:26:04.95	218.09	9.38	-50.3	-63.7	3.8	1.49e+00	0	40	104	0	72	16526
2026-01-06 00:26:05.68	218.07	9.32	-50.2	-63.6	3.8	1.49e+00	0	40	104	0	72	16479
2026-01-06 00:26:06.97	218.02	9.22	-50.3	-63.6	3.8	1.49e+00	0	40	104	0	72	16453
2026-01-06 00:26:07.69	217.99	9.16	-50.3	-63.6	3.8	1.49e+00	0	40	104	0	72	16483
2026-01-06 00:26:08.98	217.95	9.05	-50.3	-63.6	3.8	1.49e+00	0	40	104	0	72	16470
2026-01-06 00:26:09.70	217.92	8.99	-50.3	-63.7	3.8	1.49e+00	0	40	104	0	72	16509
2026-01-06 00:26:10.99	217.87	8.89	-50.2	-63.6	3.8	1.49e+00	0	40	104	0	72	16428
2026-01-06 00:26:11.70	217.85	8.83	-50.3	-63.6	3.8	1.49e+00	0	40	104	0	72	16440
2026-01-06 00:26:12.99	217.80	8.72	-50.2	-63.7	3.8	1.49e+00	0	40	104	0	72	16518
2026-01-06 00:26:13.71	217.78	8.66	-50.2	-63.6	3.8	1.49e+00	0	40	104	0	72	16485
2026-01-06 00:26:15.00	217.73	8.56	-50.2	-63.6	3.8	1.49e+00	0	40	104	0	72	16462
2026-01-06 00:26:15.72	217.71	8.50	-50.3	-63.7	3.8	1.49e+00	0	40	104	0	72	16534
2026-01-06 00:26:17.01	217.66	8.40	-50.2	-63.6	3.8	1.49e+00	0	40	104	0	72	16437
2026-01-06 00:26:17.73	217.64	8.34	-50.3	-63.6	3.8	1.49e+00	0	40	104	0	72	16444
2026-01-06 00:26:19.02	217.59	8.24	-50.3	-63.6	3.8	1.49e+00	0	40	104	0	72	16456
2026-01-06 00:26:19.73	217.57	8.18	-50.3	-63.6	3.8	1.49e+00	0	40	104	0	72	16433
2026-01-06 00:26:21.03	217.52	8.08	-50.3	-63.6	3.8	1.49e+00	0	40	104	0	72	16416
2026-01-06 00:26:21.74	217.50	8.02	-50.3	-63.6	3.8	1.49e+00	0	40	104	0	72	16447
2026-01-06 00:26:23.03	217.46	7.92	-50.3	-63.6	3.8	1.49e+00	0	40	104	0	72	16402
2026-01-06 00:26:23.75	217.43	7.86	-50.3	-63.6	3.8	1.49e+00	0	40	104	0	72	16375
2026-01-06 00:26:25.04	217.39	7.76	-50.3	-63.6	3.8	1.49e+00	0	40	104	0	72	16460
2026-01-06 00:26:25.76	217.37	7.71	-50.2	-63.6	3.8	1.49e+00	0	40	104	0	72	16452
2026-01-06 00:26:27.05	217.32	7.61	-50.2	-63.7	3.8	1
