passes_logs/2026/01/06/T1/T1__20260106_113506_FENGYUN_3D_rec.log

#Pass ID: 20260106_113506_FENGYUN 3D
#Satellite: FENGYUN 3D
#Configuration: FENGYUN 3D
#almurnet v.1.7.20251203
#Start time: 2026-01-06 11:35:07

#Version: 2.0.20230620
#Station: T1
#Location: 37.570604 lon 55.790049 lat
#TLE: 1 43010U 17072A   26005.48915933 -.00000051  00000+0 -21983-5 0  9995
#TLE: 2 43010  98.9919 337.1582 0002001 124.6377 235.4988 14.19691925421909

#Time	Az	El	Level	Level2	SNR	BER	BlckErr	Temp	State	Recorded	gain1	gain2
2026-01-06 11:35:07.23	148.55	5.04	-50.8	-62.8	3.8	8.47e-01	0	38	0	0	73	14155
2026-01-06 11:35:08.23	148.54	5.11	-50.8	-62.6	3.8	8.47e-01	0	38	104	0	73	13867
2026-01-06 11:35:09.23	148.52	5.18	-50.8	-62.6	3.8	8.47e-01	0	38	104	0	73	13801
2026-01-06 11:35:10.24	148.50	5.26	-50.8	-62.7	3.8	8.47e-01	0	38	104	0	73	13984
2026-01-06 11:35:11.24	148.48	5.33	-50.8	-62.8	3.8	8.47e-01	0	38	104	0	73	14154
2026-01-06 11:35:12.25	148.46	5.40	-50.8	-62.9	3.8	8.48e-01	0	38	104	0	73	14269
2026-01-06 11:35:13.25	148.44	5.47	-50.8	-63.1	3.8	8.46e-01	0	38	104	0	73	14561
2026-01-06 11:35:14.26	148.42	5.55	-50.8	-63.0	3.8	8.47e-01	0	38	104	0	73	14538
2026-01-06 11:35:15.26	148.41	5.62	-50.8	-63.0	3.8	8.46e-01	0	38	104	0	73	14526
2026-01-06 11:35:16.27	148.39	5.69	-50.8	-62.9	3.8	8.47e-01	0	38	104	0	73	14360
2026-01-06 11:35:17.27	148.37	5.77	-50.8	-62.7	3.8	8.48e-01	0	38	104	0	73	13947
2026-01-06 11:35:18.28	148.35	5.84	-50.8	-62.4	3.8	8.47e-01	0	38	104	0	73	13485
2026-01-06 11:35:19.28	148.33	5.91	-50.7	-62.0	3.8	8.47e-01	0	38	104	0	73	12894
2026-01-06 11:35:20.28	148.31	5.99	-50.7	-61.7	3.8	8.47e-01	0	39	104	0	73	12454
2026-01-06 11:35:21.29	148.29	6.06	-50.6	-61.3	3.8	8.46e-01	0	38	104	0	73	11888
2026-01-06 11:35:22.29	148.27	6.14	-50.6	-61.3	3.8	8.45e-01	0	39	104	0	73	11835
2026-01-06 11:35:23.30	148.25	6.21	-50.6	-61.3	3.8	8.46e-01	0	39	104	0	73	11837
2026-01-06 11:35:24.30	148.23	6.29	-50.6	-61.3	3.8	8.45e-01	0	39	104	0	73	11933
2026-01-06 11:35:25.31	148.21	6.36	-50.6	-61.6	3.8	8.47e-01	0	39	104	0	73	12317
2026-01-06 11:35:26.31	148.19	6.44	-50.7	-62.0	3.8	8.47e-01	0	39	104	0	73	12831
2026-01-06 11:35:27.31	148.17	6.51	-50.7	-62.3	3.8	8.46e-01	0	39	104	0	73	13301
2026-01-06 11:35:28.32	148.15	6.59	-50.7	-62.6	3.8	8.47e-01	0	39	104	0	73	13751
2026-01-06 11:35:29.32	148.13	6.67	-50.8	-62.7	3.8	8.47e-01	0	39	104	0	73	13903
2026-01-06 11:35:30.33	148.11	6.74	-50.7	-62.5	3.8	8.47e-01	0	39	104	0	73	13698
2026-01-06 11:35:31.33	148.09	6.82	-50.7	-62.1	3.8	8.47e-01	0	39	104	0	73	13021
2026-01-06 11:35:32.34	148.07	6.90	-50.6	-61.5	3.8	8.47e-01	0	39	104	0	73	12120
2026-01-06 11:35:33.34	148.05	6.97	-50.5	-60.7	3.8	8.46e-01	0	39	104	0	73	11057
2026-01-06 11:35:34.35	148.03	7.05	-50.4	-59.9	3.9	8.43e-01	0	39	104	0	72	10754
2026-01-06 11:35:35.35	148.01	7.13	-50.3	-59.1	4.3	8.36e-01	0	39	0	0	72	9744
2026-01-06 11:35:36.35	147.98	7.21	-50.1	-58.3	4.5	8.23e-01	0	39	0	0	72	8962
2026-01-06 11:35:37.36	147.96	7.28	-50.0	-57.6	4.9	8.00e-01	0	39	0	0	72	8257
2026-01-06 11:35:38.36	147.94	7.36	-49.8	-56.9	5.3	7.46e-01	0	39	0	0	71	8056
2026-01-06 11:35:39.37	147.92	7.44	-49.6	-56.1	5.9	5.39e-01	0	39	0	2097152	71	7369
2026-01-06 11:35:40.37	147.90	7.52	-49.3	-55.2	6.6	3.16e-01	0	39	0	7340032	70	6985
2026-01-06 11:35:41.37	147.88	7.60	-48.9	-54.2	7.5	1.41e-01	0	39	0	13631488	69	6578
2026-01-06 11:35:42.38	147.85	7.68	-48.5	-53.4	8.3	8.58e-02	0	39	0	18874368	69	6029
2026-01-06 11:35:43.38	147.83	7.76	-48.0	-52.3	9.4	2.63e-02	0	39	0	24117248	68	5654
2026-01-06 11:35:44.38	147.81	7.84	-47.4	-51.4	10.2	1.14e-02	0	39	0	30408704	66	5685
2026-01-06 11:35:45.38	147.79	7.91	-47.0	-50.7	10.8	3.63e-03	0	39	0	35651584	66	5273
2026-01-06 11:35:46.39	147.76	8.00	-46.7	-50.2	11.4	1.66e-03	0	39	0	41943040	65	5243
2026-01-06 11:35:47.39	147.74	8.08	-46.3	-49.5	12.1	5.21e-04	0	40	0	47185920	64	5157
2026-01-06 11:35:48.39	147.72	8.16	-46.1	-49.3	12.3	3.49e-04	0	40	0	52428800	64	5027
2026-01-06 11:35:49.40	147.70	8.24	-46.0	-49.2	12.6	1.56e-04	0	40	0	58720256	63	5236
2026-01-06 11:35:50.40	147.67	8.32	-46.1	-49.3	12.4	1.40e-04	0	40	0	63963136	63	5292
2026-01-06 11:35:51.41	147.65	8.40	-46.3	-49.5	12.2	2.59e-04	0	39	0	70254592	63	5439
2026-01-06 11:35:52.41	147.63	8.48	-46.5	-49.8	11.9	5.45e-04	0	40	0	75497472	63	5631
2026-01-06 11:35:53.41	147.60	8.56	-46.8	-50.4	11.2	1.24e-03	0	40	0	80740352	64	5722
2026-01-06 11:35:54.42	147.58	8.65	-47.3	-51.2	10.4	4.80e-03	0	39	0	87031808	65	5858
2026-01-06 11:35:55.42	147.55	8.73	-47.8	-52.0	9.5	1.40e-02	0	40	0	92274688	66	6126
2026-01-06 11:35:56.42	147.53	8.81	-48.4	-53.2	8.3	5.08e-02	0	40	0	97517568	67	6644
2026-01-06 11:35:57.42	147.51	8.89	-49.0	-54.6	7.1	1.31e-01	0	40	0	103809024	68	7311
2026-01-06 11:35:58.43	147.48	8.98	-49.5	-56.0	5.9	3.09e-01	0	40	0	109051904	69	8141
2026-01-06 11:35:59.43	147.46	9.06	-48.7	-53.7	7.8	6.15e-01	0	40	0	113246208	69	6229
2026-01-06 11:36:00.43	147.43	9.14	-45.1	-47.9	13.9	0.00e+00	0	40	0	118489088	61	5046
2026-01-06 11:36:01.43	147.41	9.23	-48.4	-53.4	8.4	3.70e-03	0	40	0	123731968	67	6777
2026-01-06 11:36:02.43	147.38	9.31	-50.3	-59.9	4.1	8.46e-01	0	40	104	124780544	71	11328
2026-01-06 11:36:03.43	147.36	9.39	-47.4	-51.4	10.1	8.30e-02	0	40	0	127926272	67	5366
2026-01-06 11:36:04.43	147.33	9.48	-43.9	-46.3	15.3	0.00e+00	0	40	0	134217728	59	4754
2026-01-06 11:36:05.44	147.31	9.56	-44.0	-46.5	15.2	0.00e+00	0	40	0	139460608	59	4852
2026-01-06 11:36:06.44	147.28	9.65	-43.9	-46.4	15.3	0.00e+00	0	40	0	145752064	59	4803
2026-01-06 11:36:07.44	147.26	9.74	-43.5	-45.8	15.8	0.00e+00	0	40	0	150994944	58	4755
2026-01-06 11:36:08.44	147.23	9.82	-42.7	-45.0	16.7	0.00e+00	0	40	0	157286400	57	4546
2026-01-06 11:36:09.44	147.21	9.91	-42.0	-44.2	17.4	0.00e+00	0	40	0	162529280	56	4411
2026-01-06 11:36:10.44	147.18	9.99	-41.5	-43.6	17.8	0.00e+00	0	40	0	167772160	55	4366
2026-01-06 11:36:11.44	147.15	10.08	-41.4	-43.5	17.9	0.00e+00	0	40	0	174063616	54	4585
2026-01-06 11:36:12.44	147.13	10.17	-41.4	-43.5	18.0	0.00e+00	0	40	0	179306496	54	4546
2026-01-06 11:36:13.45	147.10	10.26	-41.3	-43.3	18.1	0.00e+00	0	40	0	184549376	54	4490
2026-01-06 11:36:14.45	147.07	10.34	-41.1	-43.2	18.2	0.00e+00	0	40	0	190840832	54	4420
2026-01-06 11:36:15.45	147.05	10.43	-41.2	-43.3	18.1	0.00e+00	0	40	0	196083712	54	4468
2026-01-06 11:36:16.45	147.02	10.52	-41.2	-43.3	18.2	0.00e+00	0	40	0	202375168	54	4447
2026-01-06 11:36:17.46	146.99	10.61	-41.1	-43.2	18.2	0.00e+00	0	40	0	207618048	54	4399
2026-01-06 11:36:18.46	146.96	10.70	-41.0	-43.0	18.4	0.00e+00	0	40	0	212860928	54	4331
2026-01-06 11:36:19.46	146.93	10.79	-41.0	-43.1	18.3	0.00e+00	0	40	0	219152384	54	4360
2026-01-06 11:36:20.47	146.91	10.88	-41.1	-43.1	18.3	0.00e+00	0	40	0	224395264	54	4357
2026-01-06 11:36:21.47	146.88	10.97	-41.1	-43.1	18.4	0.00e+00	0	40	0	229638144	54	4355
2026-01-06 11:36:22.47	146.85	11.06	-41.1	-43.2	18.3	0.00e+00	0	40	0	235929600	54	4398
2026-01-06 11:36:23.48	146.82	11.15	-40.9	-42.9	18.5	0.00e+00	0	40	0	241172480	53	4529
2026-01-06 11:36:24.48	146.79	11.24	-41.0	-43.0	18.4	0.00e+00	0	40	0	246415360	53	4595
2026-01-06 11:36:25.48	146.76	11.33	-40.8	-42.8	18.6	0.00e+00	0	40	0	252706816	53	4479
2026-01-06 11:36:26.48	146.73	11.42	-40.9	-42.9	18.5	0.00e+00	0	40	0	257949696	53	4543
2026-01-06 11:36:27.49	146.71	11.51	-40.8	-42.8	18.6	0.00e+00	0	40	0	264241152	53	4451
2026-01-06 11:36:28.49	146.68	11.60	-40.7	-42.7	18.7	0.00e+00	0	40	0	269484032	53	4430
2026-01-06 11:36:29.49	146.65	11.70	-40.7	-42.7	18.7	0.00e+00	0	40	0	275775488	53	4414
2026-01-06 11:36:30.50	146.62	11.79	-40.6	-42.6	18.8	0.00e+00	0	40	0	281018368	53	4358
2026-01-06 11:36:31.50	146.59	11.88	-40.6	-42.6	18.8	0.00e+00	0	40	0	286261248	53	4366
2026-01-06 11:36:32.50	146.56	11.98	-40.7	-42.7	18.8	0.00e+00	0	40	0	292552704	53	4408
2026-01-06 11:36:33.50	146.52	12.07	-40.7	-42.7	18.7	0.00e+00	0	40	0	297795584	53	4415
2026-01-06 11:36:34.51	146.49	12.17	-40.6	-42.6	18.8	0.00e+00	0	40	0	303038464	53	4358
2026-01-06 11:36:35.51	146.46	12.26	-40.5	-42.4	18.9	0.00e+00	0	40	0	309329920	53	4291
2026-01-06 11:36:36.51	146.43	12.35	-40.4	-42.4	19.0	0.00e+00	0	40	0	314572800	52	4495
2026-01-06 11:36:37.51	146.40	12.45	-40.4	-42.3	19.1	0.00e+00	0	40	0	319815680	52	4486
2026-01-06 11:36:38.51	146.37	12.55	-40.3	-42.3	19.1	0.00e+00	0	40	0	326107136	52	4469
2026-01-06 11:36:39.52	146.34	12.64	-40.4	-42.4	19.0	0.00e+00	0	40	0	331350016	52	4524
2026-01-06 11:36:40.52	146.30	12.74	-40.5	-42.4	19.0	0.00e+00	0	40	0	337641472	52	4543
2026-01-06 11:36:41.52	146.27	12.84	-40.4	-42.4	19.0	0.00e+00	0	40	0	342884352	52	4521
2026-01-06 11:36:42.53	146.24	12.93	-40.3	-42.3	19.1	0.00e+00	0	40	0	348127232	52	4456
2026-01-06 11:36:43.53	146.21	13.03	-40.4	-42.4	19.1	0.00e+00	0	40	0	354418688	52	4508
2026-01-06 11:36:44.53	146.17	13.13	-40.4	-42.3	19.1	0.00e+00	0	40	0	359661568	52	4483
2026-01-06 11:36:45.53	146.14	13.23	-40.3	-42.2	19.1	0.00e+00	0	40	0	364904448	52	4440
2026-01-06 11:36:46.53	146.11	13.33	-40.2	-42.1	19.3	0.00e+00	0	40	0	371195904	52	4378
2026-01-06 11:36:47.53	146.07	13.42	-40.1	-42.0	19.3	0.00e+00	0	40	0	376438784	52	4331
2026-01-06 11:36:48.54	146.04	13.52	-40.0	-42.0	19.4	0.00e+00	0	41	0	382730240	52	4304
2026-01-06 11:36:49.54	146.00	13.62	-40.1	-42.1	19.3	0.00e+00	0	40	0	387973120	52	4358
2026-01-06 11:36:50.54	145.97	13.72	-40.0	-41.9	19.4	0.00e+00	0	40	0	393216000	52	4278
2026-01-06 11:36:51.55	145.94	13.83	-40.0	-41.9	19.4	0.00e+00	0	40	0	399507456	52	4278
2026-01-06 11:36:52.55	145.90	13.93	-39.9	-41.8	19.6	0.00e+00	0	40	0	404750336	51	4473
2026-01-06 11:36:53.55	145.87	14.03	-39.9	-41.8	19.6	0.00e+00	0	40	0	411041792	51	4476
2026-01-06 11:36:54.56	145.83	14.13	-40.0	-41.8	19.6	0.00e+00	0	41	0	416284672	51	4493
2026-01-06 11:36:55.56	145.79	14.23	-39.8	-41.7	19.7	0.00e+00	0	40	0	421527552	51	4405
2026-01-06 11:36:56.56	145.76	14.34	-39.8	-41.7	19.7	0.00e+00	0	40	0	427819008	51	4394
2026-01-06 11:36:57.57	145.72	14.44	-39.8	-41.6	19.7	0.00e+00	0	40	0	433061888	51	4382
2026-01-06 11:36:58.57	145.68	14.54	-39.7	-41.5	19.8	0.00e+00	0	40	0	438304768	51	4338
2026-01-06 11:36:59.57	145.65	14.65	-39.6	-41.5	19.9	0.00e+00	0	41	0	444596224	51	4305
2026-01-06 11:37:00.54	145.61	14.75	-39.7	-41.6	19.8	0.00e+00	0	40	0	449839104	51	4346
2026-01-06 11:37:01.55	145.57	14.85	-39.5	-41.3	20.0	0.00e+00	0	40	0	455081984	50	4489
2026-01-06 11:37:02.55	145.54	14.96	-39.5	-41.4	19.9	0.00e+00	0	41	0	461373440	50	4532
2026-01-06 11:37:03.55	145.50	15.07	-39.5	-41.4	20.0	0.00e+00	0	41	0	466616320	50	4504
2026-01-06 11:37:04.55	145.46	15.17	-39.4	-41.3	20.1	0.00e+00	0	40	0	472907776	50	4456
2026-01-06 11:37:05.55	145.42	15.28	-39.3	-41.2	20.2	0.00e+00	0	41	0	478150656	50	4417
2026-01-06 11:37:06.56	145.38	15.39	-39.3	-41.1	20.2	0.00e+00	0	40	0	483393536	50	4380
2026-01-06 11:37:07.56	145.34	15.49	-39.3	-41.1	20.2	0.00e+00	0	40	0	489684992	50	4371
2026-01-06 11:37:08.56	145.30	15.60	-39.2	-41.0	20.3	0.00e+00	0	41	0	494927872	50	4329
2026-01-06 11:37:09.56	145.26	15.71	-39.2	-41.0	20.3	0.00e+00	0	40	0	500170752	50	4330
2026-01-06 11:37:10.57	145.22	15.82	-39.1	-41.0	20.4	0.00e+00	0	41	0	506462208	50	4301
2026-01-06 11:37:11.56	145.18	15.93	-39.2	-41.1	20.3	0.00e+00	0	41	0	511705088	50	4361
2026-01-06 11:37:12.57	145.14	16.04	-39.1	-41.0	20.4	0.00e+00	0	40	0	516947968	50	4297
2026-01-06 11:37:13.57	145.10	16.15	-39.0	-40.8	20.5	0.00e+00	0	41	0	523239424	50	4239
2026-01-06 11:37:14.58	145.06	16.26	-39.0	-40.9	20.5	0.00e+00	0	41	0	528482304	50	4249
2026-01-06 11:37:15.58	145.02	16.37	-38.9	-40.8	20.5	0.00e+00	0	41	0	534773760	49	4456
2026-01-06 11:37:16.58	144.98	16.48	-39.1	-40.9	20.4	0.00e+00	0	40	0	540016640	49	4535
2026-01-06 11:37:17.58	144.93	16.60	-39.0	-40.8	20.5	0.00e+00	0	40	0	546308096	49	4475
2026-01-06 11:37:18.59	144.89	16.71	-38.9	-40.8	20.5	0.00e+00	0	41	0	551550976	49	4443
2026-01-06 11:37:19.59	144.85	16.82	-38.9	-40.7	20.6	0.00e+00	0	41	0	556793856	49	4415
2026-01-06 11:37:20.59	144.80	16.94	-39.0	-40.9	20.4	0.00e+00	0	41	0	563085312	49	4496
2026-01-06 11:37:21.60	144.76	17.05	-38.8	-40.7	20.6	0.00e+00	0	40	0	568328192	49	4395
2026-01-06 11:37:22.60	144.72	17.17	-38.8	-40.6	20.7	0.00e+00	0	41	0	573571072	49	4367
2026-01-06 11:37:23.60	144.67	17.28	-38.8	-40.6	20.6	0.00e+00	0	41	0	579862528	49	4381
2026-01-06 11:37:24.61	144.63	17.40	-38.8	-40.6	20.7	0.00e+00	0	41	0	585105408	49	4371
2026-01-06 11:37:25.61	144.58	17.52	-38.9	-40.7	20.6	0.00e+00	0	41	0	590348288	49	4408
2026-01-06 11:37:26.61	144.54	17.63	-38.9	-40.7	20.5	0.00e+00	0	40	0	596639744	49	4441
2026-01-06 11:37:27.61	144.49	17.75	-38.9	-40.7	20.6	0.00e+00	0	41	0	601882624	49	4423
2026-01-06 11:37:28.61	144.44	17.87	-39.0	-40.9	20.4	0.00e+00	0	41	0	608174080	49	4506
2026-01-06 11:37:29.62	144.40	17.99	-38.9	-40.7	20.5	0.00e+00	0	41	0	613416960	49	4433
2026-01-06 11:37:30.62	144.35	18.11	-39.0	-40.8	20.4	0.00e+00	0	41	0	618659840	49	4481
2026-01-06 11:37:31.62	144.30	18.23	-39.0	-40.8	20.4	0.00e+00	0	41	0	624951296	49	4484
2026-01-06 11:37:32.62	144.26	18.35	-38.9	-40.8	20.6	0.00e+00	0	41	0	630194176	49	4448
2026-01-06 11:37:33.63	144.21	18.47	-38.7	-40.6	20.7	0.00e+00	0	41	0	635437056	49	4365
2026-01-06 11:37:34.63	144.16	18.59	-38.8	-40.7	20.6	0.00e+00	0	41	0	641728512	49	4418
2026-01-06 11:37:35.63	144.11	18.71	-38.9	-40.8	20.5	0.00e+00	0	41	0	646971392	49	4462
2026-01-06 11:37:36.64	144.06	18.84	-38.8	-40.6	20.6	0.00e+00	0	41	0	653262848	49	4386
2026-01-06 11:37:37.64	144.01	18.96	-38.8	-40.7	20.6	0.00e+00	0	41	0	658505728	49	4402
2026-01-06 11:37:38.64	143.96	19.08	-38.8	-40.7	20.6	0.00e+00	0	41	0	663748608	49	4414
2026-01-06 11:37:39.65	143.91	19.21	-38.8	-40.7	20.6	0.00e+00	0	41	0	670040064	49	4422
2026-01-06 11:37:40.65	143.86	19.34	-38.7	-40.6	20.7	0.00e+00	0	41	0	675282944	49	4365
2026-01-06 11:37:41.65	143.80	19.46	-38.8	-40.6	20.6	0.00e+00	0	41	0	681574400	49	4383
2026-01-06 11:37:42.65	143.75	19.59	-38.7	-40.6	20.7	0.00e+00	0	41	0	686817280	49	4356
2026-01-06 11:37:43.65	143.70	19.71	-38.8	-40.6	20.7	0.00e+00	0	41	0	692060160	49	4375
2026-01-06 11:37:44.65	143.65	19.84	-38.8	-40.6	20.7	0.00e+00	0	41	0	698351616	49	4382
2026-01-06 11:37:45.66	143.59	19.97	-38.8	-40.6	20.6	0.00e+00	0	41	0	703594496	49	4382
2026-01-06 11:37:46.66	143.54	20.10	-38.8	-40.6	20.6	0.00e+00	0	41	0	708837376	49	4382
2026-01-06 11:37:47.66	143.49	20.23	-38.7	-40.5	20.7	0.00e+00	0	41	0	715128832	49	4332
2026-01-06 11:37:48.66	143.43	20.36	-38.7	-40.5	20.7	0.00e+00	0	41	0	720371712	49	4328
2026-01-06 11:37:49.67	143.37	20.49	-38.7	-40.5	20.7	0.00e+00	0	41	0	725614592	49	4321
2026-01-06 11:37:50.66	143.32	20.62	-38.8	-40.6	20.6	0.00e+00	0	41	0	731906048	49	4384
2026-01-06 11:37:51.67	143.26	20.75	-38.6	-40.4	20.8	0.00e+00	0	41	0	737148928	49	4286
2026-01-06 11:37:52.67	143.21	20.89	-38.5	-40.3	20.9	0.00e+00	0	41	0	743440384	49	4233
2026-01-06 11:37:53.67	143.15	21.02	-38.5	-40.3	20.9	0.00e+00	0	41	0	748683264	48	4474
2026-01-06 11:37:54.67	143.09	21.15	-38.5	-40.3	20.9	0.00e+00	0	41	0	753926144	48	4481
2026-01-06 11:37:55.68	143.03	21.29	-38.6	-40.4	20.9	0.00e+00	0	41	0	760217600	48	4517
2026-01-06 11:37:56.68	142.97	21.43	-38.4	-40.2	21.0	0.00e+00	0	41	0	765460480	48	4423
2026-01-06 11:37:57.68	142.91	21.56	-38.4	-40.2	21.0	0.00e+00	0	41	0	771751936	48	4416
2026-01-06 11:37:58.69	142.85	21.70	-38.4	-40.3	21.0	0.00e+00	0	41	0	776994816	48	4448
2026-01-06 11:37:59.69	142.79	21.84	-38.1	-39.9	21.2	0.00e+00	0	41	0	782237696	48	4283
2026-01-06 11:38:00.69	142.73	21.98	-38.0	-39.8	21.3	0.00e+00	0	41	0	788529152	48	4228
2026-01-06 11:38:01.69	142.67	22.11	-38.0	-39.8	21.4	0.00e+00	0	41	0	793772032	48	4213
2026-01-06 11:38:02.69	142.61	22.25	-38.1	-39.9	21.3	0.00e+00	0	41	0	799014912	48	4254
2026-01-06 11:38:03.70	142.54	22.40	-38.0	-39.8	21.4	0.00e+00	0	41	0	805306368	48	4205
2026-01-06 11:38:04.70	142.48	22.54	-37.8	-39.6	21.3	0.00e+00	0	41	0	810549248	47	4388
2026-01-06 11:38:05.70	142.42	22.68	-37.9	-39.7	21.2	0.00e+00	0	41	0	816840704	47	4415
2026-01-06 11:38:06.70	142.35	22.82	-37.9	-39.7	21.2	0.00e+00	0	41	0	822083584	47	4419
2026-01-06 11:38:07.70	142.29	22.96	-37.9	-39.7	21.2	0.00e+00	0	41	0	827326464	47	4426
2026-01-06 11:38:08.70	142.22	23.11	-37.7	-39.5	21.4	0.00e+00	0	41	0	833617920	47	4320
2026-01-06 11:38:09.70	142.15	23.25	-37.7	-39.5	21.4	0.00e+00	0	41	0	838860800	47	4301
2026-01-06 11:38:10.71	142.08	23.40	-37.9	-39.7	21.3	0.00e+00	0	41	0	844103680	47	4401
2026-01-06 11:38:11.70	142.02	23.55	-37.6	-39.3	21.5	0.00e+00	0	41	0	850395136	47	4238
2026-01-06 11:38:12.71	141.95	23.69	-37.6	-39.4	21.5	0.00e+00	0	41	0	855638016	47	4246
2026-01-06 11:38:13.71	141.88	23.84	-37.6	-39.4	21.5	0.00e+00	0	41	0	860880896	47	4248
2026-01-06 11:38:14.71	141.81	23.99	-37.7	-39.5	21.4	0.00e+00	0	41	0	867172352	47	4311
2026-01-06 11:38:15.71	141.74	24.14	-37.7	-39.5	21.4	0.00e+00	0	41	0	872415232	47	4314
2026-01-06 11:38:16.71	141.67	24.29	-37.6	-39.4	21.5	0.00e+00	0	41	0	878706688	47	4278
2026-01-06 11:38:17.72	141.59	24.44	-37.6	-39.4	21.5	0.00e+00	0	41	0	883949568	47	4259
2026-01-06 11:38:18.72	141.52	24.60	-37.6	-39.4	21.5	0.00e+00	0	41	0	889192448	47	4253
2026-01-06 11:38:19.72	141.45	24.75	-37.5	-39.3	21.6	0.00e+00	0	41	0	895483904	47	4203
2026-01-06 11:38:20.72	141.37	24.90	-37.6	-39.3	21.5	0.00e+00	0	41	0	900726784	47	4232
2026-01-06 11:38:21.72	141.30	25.06	-37.6	-39.4	21.6	0.00e+00	0	41	0	905969664	47	4251
2026-01-06 11:38:22.72	141.22	25.21	-37.4	-39.2	21.7	0.00e+00	0	41	0	912261120	46	4405
2026-01-06 11:38:23.72	141.15	25.37	-37.3	-39.1	21.8	0.00e+00	0	41	0	917504000	46	4373
2026-01-06 11:38:24.73	141.07	25.53	-37.2	-39.0	21.8	0.00e+00	0	41	0	923795456	46	4310
2026-01-06 11:38:25.73	140.99	25.69	-37.3	-39.0	21.8	0.00e+00	0	41	0	929038336	46	4327
2026-01-06 11:38:26.73	140.91	25.85	-37.2	-39.0	21.8	0.00e+00	0	41	0	934281216	46	4317
2026-01-06 11:38:27.73	140.83	26.01	-37.3	-39.0	21.8	0.00e+00	0	41	0	940572672	46	4332
2026-01-06 11:38:28.73	140.75	26.17	-37.3	-39.1	21.8	0.00e+00	0	41	0	945815552	46	4350
2026-01-06 11:38:29.73	140.67	26.33	-37.3	-39.1	21.8	0.00e+00	0	41	0	952107008	46	4348
2026-01-06 11:38:30.74	140.59	26.49	-37.4	-39.1	21.7	0.00e+00	0	41	0	957349888	46	4388
2026-01-06 11:38:31.74	140.50	26.66	-37.4	-39.2	21.7	0.00e+00	0	41	0	962592768	46	4398
2026-01-06 11:38:32.74	140.42	26.82	-37.5	-39.2	21.6	0.00e+00	0	41	0	968884224	46	4436
2026-01-06 11:38:33.75	140.33	26.99	-37.4	-39.2	21.7	0.00e+00	0	41	0	974127104	46	4397
2026-01-06 11:38:34.75	140.25	27.15	-37.4	-39.1	21.7	0.00e+00	0	41	0	979369984	46	4383
2026-01-06 11:38:35.75	140.16	27.32	-37.4	-39.1	21.7	0.00e+00	0	41	0	985661440	46	4391
2026-01-06 11:38:36.75	140.07	27.49	-37.3	-39.1	21.7	0.00e+00	0	41	0	990904320	46	4373
2026-01-06 11:38:37.75	139.98	27.66	-37.3	-39.0	21.8	0.00e+00	0	41	0	997195776	46	4334
2026-01-06 11:38:38.76	139.89	27.83	-37.2	-39.0	21.9	0.00e+00	0	41	0	1002438656	46	4311
2026-01-06 11:38:39.75	139.80	28.00	-37.1	-38.9	21.9	0.00e+00	0	41	0	1007681536	46	4269
2026-01-06 11:38:40.75	139.71	28.17	-37.2	-38.9	21.9	0.00e+00	0	41	0	1013972992	46	4272
2026-01-06 11:38:41.75	139.62	28.34	-37.2	-38.9	21.9	0.00e+00	0	41	0	1019215872	46	4284
2026-01-06 11:38:42.75	139.53	28.52	-37.2	-39.0	21.8	0.00e+00	0	41	0	1024458752	46	4317
2026-01-06 11:38:43.75	139.43	28.69	-37.3	-39.1	21.8	0.00e+00	0	41	0	1030750208	46	4357
2026-01-06 11:38:44.75	139.33	28.87	-37.3	-39.1	21.8	0.00e+00	0	41	0	1035993088	46	4363
2026-01-06 11:38:45.75	139.24	29.05	-37.4	-39.2	21.6	0.00e+00	0	41	0	1041235968	46	4420
2026-01-06 11:38:46.76	139.14	29.23	-37.4	-39.2	21.7	0.00e+00	0	41	0	1047527424	46	4400
2026-01-06 11:38:47.76	139.04	29.41	-37.4	-39.2	21.7	0.00e+00	0	41	0	1052770304	46	4419
2026-01-06 11:38:48.76	138.94	29.59	-37.4	-39.2	21.7	0.00e+00	0	41	0	1059061760	46	4407
2026-01-06 11:38:49.77	138.84	29.77	-37.3	-39.1	21.8	0.00e+00	0	41	0	1064304640	46	4352
2026-01-06 11:38:50.77	138.73	29.95	-37.3	-39.1	21.8	0.00e+00	0	41	0	1069547520	46	4361
2026-01-06 11:38:51.77	138.63	30.13	-37.3	-39.1	21.8	0.00e+00	0	41	0	1075838976	46	4350
2026-01-06 11:38:52.77	138.52	30.32	-37.4	-39.1	21.7	0.00e+00	0	41	0	1081081856	46	4387
2026-01-06 11:38:53.77	138.42	30.50	-37.3	-39.0	21.8	0.00e+00	0	41	0	1086324736	46	4330
2026-01-06 11:38:54.77	138.31	30.69	-37.2	-38.9	21.9	0.00e+00	0	41	0	1092616192	46	4287
2026-01-06 11:38:55.78	138.20	30.88	-36.9	-38.6	22.1	0.00e+00	0	41	0	1097859072	45	4388
2026-01-06 11:38:56.78	138.09	31.07	-36.8	-38.6	22.2	0.00e+00	0	41	0	1103101952	45	4345
2026-01-06 11:38:57.78	137.98	31.26	-36.9	-38.6	22.1	0.00e+00	0	41	0	1109393408	45	4379
2026-01-06 11:38:58.79	137.87	31.45	-36.9	-38.7	22.1	0.00e+00	0	41	0	1114636288	45	4417
2026-01-06 11:38:59.79	137.75	31.64	-37.0	-38.8	22.0	0.00e+00	0	41	0	1120927744	45	4480
2026-01-06 11:39:00.78	137.64	31.84	-37.1	-38.9	21.9	0.00e+00	0	41	0	1126170624	45	4518
2026-01-06 11:39:01.79	137.52	32.03	-37.1	-38.9	21.9	0.00e+00	0	41	0	1132462080	45	4534
2026-01-06 11:39:02.79	137.40	32.23	-37.1	-38.9	21.9	0.00e+00	0	41	0	1137704960	45	4532
2026-01-06 11:39:03.80	137.28	32.43	-36.9	-38.7	22.0	0.00e+00	0	41	0	1142947840	45	4412
2026-01-06 11:39:04.80	137.16	32.62	-36.8	-38.6	22.1	0.00e+00	0	41	0	1149239296	45	4351
2026-01-06 11:39:05.80	137.03	32.82	-36.8	-38.6	22.2	0.00e+00	0	41	0	1154482176	45	4347
2026-01-06 11:39:06.80	136.91	33.02	-36.8	-38.5	22.2	0.00e+00	0	41	0	1159725056	45	4320
2026-01-06 11:39:07.81	136.78	33.23	-36.7	-38.5	22.2	0.00e+00	0	41	0	1166016512	45	4295
2026-01-06 11:39:08.81	136.65	33.43	-36.8	-38.5	22.2	0.00e+00	0	41	0	1171259392	45	4333
2026-01-06 11:39:09.81	136.52	33.63	-36.8	-38.6	22.2	0.00e+00	0	41	0	1176502272	45	4346
2026-01-06 11:39:10.82	136.39	33.84	-36.9	-38.7	22.1	0.00e+00	0	41	0	1182793728	45	4412
2026-01-06 11:39:11.82	136.26	34.05	-36.8	-38.6	22.1	0.00e+00	0	41	0	1188036608	45	4374
2026-01-06 11:39:12.82	136.12	34.25	-36.9	-38.6	22.1	0.00e+00	0	41	0	1194328064	45	4386
2026-01-06 11:39:13.83	135.99	34.46	-36.9	-38.7	22.0	0.00e+00	0	41	0	1199570944	45	4420
2026-01-06 11:39:14.83	135.85	34.67	-36.9	-38.7	22.1	0.00e+00	0	41	0	1204813824	45	4409
2026-01-06 11:39:15.83	135.71	34.89	-36.9	-38.7	22.1	0.00e+00	0	41	0	1211105280	45	4405
2026-01-06 11:39:16.83	135.57	35.10	-37.0	-38.8	22.0	0.00e+00	0	41	0	1216348160	45	4484
2026-01-06 11:39:17.83	135.42	35.31	-36.9	-38.7	22.1	0.00e+00	0	41	0	1221591040	45	4407
2026-01-06 11:39:18.83	135.28	35.53	-36.7	-38.5	22.2	0.00e+00	0	41	0	1227882496	45	4318
2026-01-06 11:39:19.84	135.13	35.74	-36.8	-38.5	22.2	0.00e+00	0	41	0	1233125376	45	4328
2026-01-06 11:39:20.84	134.98	35.96	-36.9	-38.6	22.2	0.00e+00	0	41	0	1239416832	45	4362
2026-01-06 11:39:21.85	134.83	36.18	-36.7	-38.4	22.3	0.00e+00	0	41	0	1244659712	45	4276
2026-01-06 11:39:22.85	134.67	36.40	-36.7	-38.5	22.1	0.00e+00	0	41	0	1249902592	45	4306
2026-01-06 11:39:23.85	134.52	36.62	-36.8	-38.5	22.2	0.00e+00	0	41	0	1256194048	45	4338
2026-01-06 11:39:24.85	134.36	36.84	-36.8	-38.5	22.2	0.00e+00	0	41	0	1261436928	45	4340
2026-01-06 11:39:25.86	134.20	37.07	-36.9	-38.6	22.1	0.00e+00	0	41	0	1267728384	45	4381
2026-01-06 11:39:26.85	134.04	37.29	-36.7	-38.5	22.3	0.00e+00	0	41	0	1272971264	45	4307
2026-01-06 11:39:27.86	133.87	37.52	-36.7	-38.4	22.3	0.00e+00	0	41	0	1278214144	45	4290
2026-01-06 11:39:28.86	133.70	37.75	-36.8	-38.6	22.2	0.00e+00	0	41	0	1284505600	45	4362
2026-01-06 11:39:29.86	133.53	37.98	-36.9	-38.6	22.1	0.00e+00	0	41	0	1289748480	45	4383
2026-01-06 11:39:30.86	133.36	38.21	-37.0	-38.8	22.0	0.00e+00	0	41	0	1294991360	45	4453
2026-01-06 11:39:31.86	133.19	38.44	-37.0	-38.7	22.0	0.00e+00	0	41	0	1301282816	45	4434
2026-01-06 11:39:32.86	133.01	38.67	-37.0	-38.7	22.1	0.00e+00	0	41	0	1306525696	45	4430
2026-01-06 11:39:33.87	132.83	38.91	-36.9	-38.7	22.2	0.00e+00	0	41	0	1311768576	45	4408
2026-01-06 11:39:34.87	132.65	39.14	-37.0	-38.8	22.1	0.00e+00	0	41	0	1318060032	45	4462
2026-01-06 11:39:35.87	132.46	39.38	-37.1	-38.8	22.0	0.00e+00	0	41	0	1323302912	45	4475
2026-01-06 11:39:36.88	132.27	39.62	-37.1	-38.8	22.0	0.00e+00	0	41	0	1329594368	45	4481
2026-01-06 11:39:37.88	132.08	39.85	-37.0	-38.8	22.1	0.00e+00	0	41	0	1334837248	45	4469
2026-01-06 11:39:38.89	131.88	40.10	-37.0	-38.8	22.1	0.00e+00	0	41	0	1341128704	45	4463
2026-01-06 11:39:39.89	131.69	40.34	-37.1	-38.8	22.0	0.00e+00	0	41	0	1346371584	45	4484
2026-01-06 11:39:40.89	131.49	40.58	-37.1	-38.8	22.0	0.00e+00	0	41	0	1351614464	45	4466
2026-01-06 11:39:41.90	131.28	40.83	-37.1	-38.9	21.9	0.00e+00	0	41	0	1357905920	45	4508
2026-01-06 11:39:42.90	131.08	41.07	-37.2	-39.0	21.9	0.00e+00	0	41	0	1363148800	45	4549
2026-01-06 11:39:43.90	130.87	41.32	-37.2	-39.0	21.9	0.00e+00	0	41	0	1368391680	45	4562
2026-01-06 11:39:44.90	130.66	41.56	-37.2	-38.9	21.9	0.00e+00	0	41	0	1374683136	45	4541
2026-01-06 11:39:45.91	130.44	41.82	-37.2	-38.9	21.9	0.00e+00	0	41	0	1379926016	45	4523
2026-01-06 11:39:46.91	130.22	42.07	-37.1	-38.9	22.0	0.00e+00	0	41	0	1385168896	45	4504
2026-01-06 11:39:47.91	130.00	42.32	-37.3	-39.1	21.8	0.00e+00	0	41	0	1391460352	45	4601
2026-01-06 11:39:48.92	129.77	42.57	-37.3	-39.1	21.8	0.00e+00	0	41	0	1396703232	45	4621
2026-01-06 11:39:49.92	129.54	42.82	-37.3	-39.1	21.8	0.00e+00	0	41	0	1402994688	45	4633
2026-01-06 11:39:50.92	129.31	43.08	-37.3	-39.1	21.8	0.00e+00	0	41	0	1408237568	45	4639
2026-01-06 11:39:51.93	129.07	43.34	-37.3	-39.1	21.8	0.00e+00	0	41	0	1413480448	45	4603
2026-01-06 11:39:52.92	128.83	43.59	-37.3	-39.1	21.8	0.00e+00	0	41	0	1419771904	45	4599
2026-01-06 11:39:53.93	128.59	43.85	-37.4	-39.2	21.7	0.00e+00	0	41	0	1425014784	45	4671
2026-01-06 11:39:54.93	128.34	44.11	-37.3	-39.1	21.8	0.00e+00	0	41	0	1430257664	45	4614
2026-01-06 11:39:55.93	128.08	44.37	-37.4	-39.1	21.8	0.00e+00	0	41	0	1436549120	45	4640
2026-01-06 11:39:56.93	127.83	44.63	-37.4	-39.1	21.8	0.00e+00	0	41	0	1441792000	45	4647
2026-01-06 11:39:57.93	127.57	44.90	-37.6	-39.3	21.6	0.00e+00	0	41	0	1447034880	45	4753
2026-01-06 11:39:58.93	127.30	45.16	-37.6	-39.4	21.5	0.00e+00	0	41	0	1453326336	45	4804
2026-01-06 11:39:59.94	127.03	45.43	-37.4	-39.2	21.8	0.00e+00	0	41	0	1458569216	45	4655
2026-01-06 11:40:00.94	126.75	45.69	-37.2	-38.9	22.0	0.00e+00	0	41	0	1464860672	45	4524
2026-01-06 11:40:01.95	126.47	45.96	-37.2	-38.9	22.0	0.00e+00	0	41	0	1470103552	45	4542
2026-01-06 11:40:02.95	126.19	46.23	-37.3	-39.1	21.9	0.00e+00	0	41	0	1476395008	45	4619
2026-01-06 11:40:03.95	125.90	46.50	-37.4	-39.1	21.9	0.00e+00	0	41	0	1481637888	45	4635
2026-01-06 11:40:04.94	125.61	46.77	-37.4	-39.1	21.8	0.00e+00	0	41	0	1486880768	45	4645
2026-01-06 11:40:05.95	125.30	47.04	-37.4	-39.2	21.8	0.00e+00	0	41	0	1493172224	45	4663
2026-01-06 11:40:06.95	125.00	47.31	-37.6	-39.4	21.6	0.00e+00	0	41	0	1498415104	45	4796
2026-01-06 11:40:07.95	124.69	47.58	-37.8	-39.6	21.5	0.00e+00	0	41	0	1503657984	46	4604
2026-01-06 11:40:08.95	124.37	47.85	-37.8	-39.5	21.5	0.00e+00	0	41	0	1509949440	46	4595
2026-01-06 11:40:09.95	124.05	48.13	-37.8	-39.5	21.5	0.00e+00	0	41	0	1515192320	46	4589
2026-01-06 11:40:10.95	123.72	48.40	-37.6	-39.4	21.7	0.00e+00	0	41	0	1520435200	46	4499
2026-01-06 11:40:11.95	123.39	48.68	-37.5	-39.2	21.8	0.00e+00	0	41	0	1526726656	46	4414
2026-01-06 11:40:12.96	123.05	48.96	-37.7	-39.4	21.6	0.00e+00	0	41	0	1531969536	46	4539
2026-01-06 11:40:13.96	122.70	49.23	-38.1	-39.9	21.2	0.00e+00	0	41	0	1538260992	46	4798
2026-01-06 11:40:14.96	122.35	49.51	-38.2	-40.0	21.1	0.00e+00	0	41	0	1543503872	47	4591
2026-01-06 11:40:15.96	121.99	49.79	-38.1	-39.9	21.2	0.00e+00	0	41	0	1548746752	47	4529
2026-01-06 11:40:16.97	121.62	50.07	-38.0	-39.8	21.3	0.00e+00	0	41	0	1555038208	47	4479
2026-01-06 11:40:17.97	121.25	50.35	-38.0	-39.8	21.3	0.00e+00	0	41	0	1560281088	47	4474
2026-01-06 11:40:18.97	120.87	50.62	-38.3	-40.1	21.1	0.00e+00	0	41	0	1565523968	47	4624
2026-01-06 11:40:19.98	120.48	50.91	-38.3	-40.1	21.1	0.00e+00	0	41	0	1571815424	47	4616
2026-01-06 11:40:20.98	120.09	51.19	-38.2	-40.0	21.2	0.00e+00	0	41	0	1577058304	47	4547
2026-01-06 11:40:21.98	119.69	51.46	-38.1	-39.9	21.1	0.00e+00	0	41	0	1582301184	47	4524
2026-01-06 11:40:22.98	119.28	51.74	-38.2	-40.0	21.0	0.00e+00	0	41	0	1588592640	47	4553
2026-01-06 11:40:23.98	118.87	52.02	-38.3	-40.1	21.0	0.00e+00	0	41	0	1593835520	47	4611
2026-01-06 11:40:24.99	118.44	52.31	-38.1	-39.9	21.1	0.00e+00	0	41	0	1600126976	47	4515
2026-01-06 11:40:25.99	118.01	52.59	-38.1	-39.8	21.0	0.00e+00	0	41	0	1605369856	47	4492
2026-01-06 11:40:26.99	117.57	52.87	-38.2	-40.0	21.0	0.00e+00	0	41	0	1611661312	47	4555
2026-01-06 11:40:27.99	117.12	53.14	-38.5	-40.3	20.7	0.00e+00	0	41	0	1616904192	47	4728
2026-01-06 11:40:29.00	116.66	53.43	-38.4	-40.2	20.6	0.00e+00	0	41	0	1622147072	47	4662
2026-01-06 11:40:30.00	116.19	53.71	-38.0	-39.8	21.0	0.00e+00	0	41	0	1628438528	47	4476
2026-01-06 11:40:31.00	115.71	53.98	-38.1	-39.8	21.3	0.00e+00	0	41	0	1633681408	47	4491
2026-01-06 11:40:32.00	115.23	54.26	-37.9	-39.6	21.5	0.00e+00	0	41	0	1638924288	47	4385
2026-01-06 11:40:33.00	114.73	54.54	-37.8	-39.6	21.5	0.00e+00	0	41	0	1645215744	47	4342
2026-01-06 11:40:34.01	114.22	54.82	-37.9	-39.7	21.4	0.00e+00	0	41	0	1650458624	47	4414
2026-01-06 11:40:35.01	113.71	55.09	-37.9	-39.7	21.5	0.00e+00	0	41	0	1655701504	47	4402
2026-01-06 11:40:36.01	113.19	55.37	-37.6	-39.4	21.7	0.00e+00	0	41	0	1661992960	47	4255
2026-01-06 11:40:37.01	112.65	55.64	-37.5	-39.3	21.7	0.00e+00	0	41	0	1667235840	47	4210
2026-01-06 11:40:38.02	112.10	55.92	-37.7	-39.5	21.6	0.00e+00	0	41	0	1673527296	47	4328
2026-01-06 11:40:39.02	111.55	56.19	-37.8	-39.6	21.5	0.00e+00	0	41	0	1678770176	47	4377
2026-01-06 11:40:40.02	110.98	56.46	-37.9	-39.7	21.4	0.00e+00	0	41	0	1684013056	47	4393
2026-01-06 11:40:41.03	110.39	56.73	-37.8	-39.6	21.4	0.00e+00	0	41	0	1690304512	47	4389
2026-01-06 11:40:42.03	109.80	56.99	-38.0	-39.9	21.2	0.00e+00	0	41	0	1695547392	47	4506
2026-01-06 11:40:43.03	109.20	57.26	-38.1	-40.0	21.1	0.00e+00	0	41	0	1700790272	47	4559
2026-01-06 11:40:44.03	108.59	57.52	-37.9	-39.7	21.3	0.00e+00	0	41	0	1707081728	47	4433
2026-01-06 11:40:45.03	107.97	57.78	-37.7	-39.5	21.6	0.00e+00	0	41	0	1712324608	47	4319
2026-01-06 11:40:46.03	107.33	58.04	-37.5	-39.3	21.7	0.00e+00	0	41	0	1718616064	47	4213
2026-01-06 11:40:47.03	106.68	58.30	-37.6	-39.4	21.7	0.00e+00	0	41	0	1723858944	47	4263
2026-01-06 11:40:48.04	106.01	58.55	-37.8	-39.6	21.5	0.00e+00	0	41	0	1730150400	47	4386
2026-01-06 11:40:49.04	105.33	58.81	-37.6	-39.4	21.6	0.00e+00	0	41	0	1735393280	47	4270
2026-01-06 11:40:50.04	104.65	59.05	-37.5	-39.3	21.8	0.00e+00	0	41	0	1740636160	47	4200
2026-01-06 11:40:51.04	103.95	59.30	-37.5	-39.3	21.8	0.00e+00	0	41	0	1746927616	47	4204
2026-01-06 11:40:52.05	103.22	59.55	-37.7	-39.5	21.6	0.00e+00	0	41	0	1752170496	47	4308
2026-01-06 11:40:53.05	102.50	59.79	-37.8	-39.6	21.5	0.00e+00	0	41	0	1757413376	47	4358
2026-01-06 11:40:54.05	101.75	60.02	-38.0	-39.8	21.3	0.00e+00	0	41	0	1763704832	47	4450
2026-01-06 11:40:55.06	100.99	60.26	-37.6	-39.4	21.6	0.00e+00	0	41	0	1768947712	47	4246
2026-01-06 11:40:56.06	100.22	60.49	-37.5	-39.2	21.8	0.00e+00	0	41	0	1774190592	46	4422
2026-01-06 11:40:57.06	99.44	60.71	-37.7	-39.4	21.6	0.00e+00	0	41	0	1780482048	46	4539
2026-01-06 11:40:58.06	98.64	60.93	-37.6	-39.4	21.6	0.00e+00	0	41	0	1785724928	46	4522
2026-01-06 11:40:59.06	97.83	61.15	-37.5	-39.3	21.7	0.00e+00	0	41	0	1792016384	46	4442
2026-01-06 11:41:00.06	97.01	61.36	-37.6	-39.4	21.6	0.00e+00	0	41	0	1797259264	46	4510
2026-01-06 11:41:01.07	96.16	61.57	-37.7	-39.5	21.5	0.00e+00	0	41	0	1802502144	46	4581
2026-01-06 11:41:02.07	95.31	61.77	-37.3	-39.1	21.9	0.00e+00	0	41	0	1808793600	46	4362
2026-01-06 11:41:03.07	94.44	61.97	-37.3	-39.0	22.0	0.00e+00	0	41	0	1814036480	46	4326
2026-01-06 11:41:04.07	93.56	62.16	-37.3	-39.1	21.9	0.00e+00	0	41	0	1819279360	46	4347
2026-01-06 11:41:05.08	92.65	62.35	-37.3	-39.1	21.9	0.00e+00	0	41	0	1825570816	46	4354
2026-01-06 11:41:06.08	91.75	62.53	-37.2	-39.0	22.0	0.00e+00	0	41	0	1830813696	46	4325
2026-01-06 11:41:07.08	90.82	62.71	-36.8	-38.5	22.4	0.00e+00	0	41	0	1837105152	45	4337
2026-01-06 11:41:08.08	89.89	62.88	-36.7	-38.4	22.4	0.00e+00	0	41	0	1842348032	45	4279
2026-01-06 11:41:09.08	88.94	63.04	-36.9	-38.6	22.3	0.00e+00	0	41	0	1847590912	45	4383
2026-01-06 11:41:10.08	87.98	63.20	-36.7	-38.4	22.4	0.00e+00	0	41	0	1853882368	45	4277
2026-01-06 11:41:11.09	86.99	63.36	-36.4	-38.1	22.7	0.00e+00	0	41	0	1859125248	44	4355
2026-01-06 11:41:12.09	86.00	63.50	-36.5	-38.3	22.5	0.00e+00	0	41	0	1865416704	44	4445
2026-01-06 11:41:13.09	85.01	63.64	-36.7	-38.4	22.4	0.00e+00	0	41	0	1870659584	44	4525
2026-01-06 11:41:14.10	83.99	63.77	-36.5	-38.2	22.6	0.00e+00	0	41	0	1875902464	44	4420
2026-01-06 11:41:15.10	82.96	63.89	-36.6	-38.3	22.6	0.00e+00	0	41	0	1882193920	44	4459
2026-01-06 11:41:16.10	81.93	64.01	-36.5	-38.2	22.6	0.00e+00	0	41	0	1887436800	44	4441
2026-01-06 11:41:17.10	80.89	64.12	-36.3	-38.0	22.8	0.00e+00	0	41	0	1892679680	44	4313
2026-01-06 11:41:18.10	79.84	64.22	-36.0	-37.7	23.0	0.00e+00	0	41	0	1898971136	44	4149
2026-01-06 11:41:19.10	78.78	64.31	-36.3	-38.0	22.8	0.00e+00	0	41	0	1904214016	44	4313
2026-01-06 11:41:20.11	77.70	64.40	-36.6	-38.4	22.4	0.00e+00	0	41	0	1909456896	44	4506
2026-01-06 11:41:21.11	76.62	64.48	-36.7	-38.4	22.4	0.00e+00	0	41	0	1915748352	44	4514
2026-01-06 11:41:22.11	75.54	64.55	-36.4	-38.1	22.7	0.00e+00	0	41	0	1920991232	44	4367
2026-01-06 11:41:23.11	74.45	64.61	-36.3	-38.0	22.8	0.00e+00	0	41	0	1927282688	44	4318
2026-01-06 11:41:24.12	73.34	64.66	-36.5	-38.2	22.6	0.00e+00	0	41	0	1932525568	44	4403
2026-01-06 11:41:25.12	72.24	64.70	-36.5	-38.3	22.5	0.00e+00	0	41	0	1937768448	44	4445
2026-01-06 11:41:26.13	71.13	64.74	-36.7	-38.4	22.4	0.00e+00	0	41	0	1944059904	44	4532
2026-01-06 11:41:27.13	70.02	64.77	-36.2	-37.8	22.9	0.00e+00	0	41	0	1949302784	44	4238
2026-01-06 11:41:28.13	68.91	64.79	-35.5	-37.1	23.3	0.00e+00	0	41	0	1954545664	43	4132
2026-01-06 11:41:29.13	67.80	64.80	-35.6	-37.3	23.2	0.00e+00	0	41	0	1960837120	42	4484
2026-01-06 11:41:30.13	66.69	64.80	-35.7	-37.4	23.1	0.00e+00	0	41	0	1966080000	42	4527
2026-01-06 11:41:31.13	65.58	64.79	-35.8	-37.5	23.1	0.00e+00	0	41	0	1972371456	42	4564
2026-01-06 11:41:32.13	64.47	64.78	-35.6	-37.3	23.2	0.00e+00	0	41	0	1977614336	42	4464
2026-01-06 11:41:33.13	63.36	64.75	-35.6	-37.3	23.1	0.00e+00	0	41	0	1982857216	42	4484
2026-01-06 11:41:34.13	62.25	64.72	-35.6	-37.3	23.2	0.00e+00	0	41	0	1989148672	42	4459
2026-01-06 11:41:35.13	61.15	64.68	-35.7	-37.3	23.1	0.00e+00	0	41	0	1994391552	42	4486
2026-01-06 11:41:36.13	60.05	64.63	-35.8	-37.5	23.0	0.00e+00	0	41	0	2000683008	42	4553
2026-01-06 11:41:37.14	58.95	64.58	-36.1	-37.8	22.9	0.00e+00	0	42	0	2005925888	42	4725
2026-01-06 11:41:38.14	57.87	64.51	-36.1	-37.8	22.7	0.00e+00	0	41	0	2011168768	42	4740
2026-01-06 11:41:39.14	56.79	64.44	-36.0	-37.7	22.9	0.00e+00	0	41	0	2017460224	43	4438
2026-01-06 11:41:40.14	55.71	64.35	-35.9	-37.6	23.0	0.00e+00	0	41	0	2022703104	43	4366
2026-01-06 11:41:41.15	54.64	64.26	-36.1	-37.8	22.7	0.00e+00	0	41	0	2027945984	43	4486
2026-01-06 11:41:42.15	53.58	64.17	-36.3	-38.0	22.6	0.00e+00	0	41	0	2034237440	43	4583
2026-01-06 11:41:43.15	52.54	64.06	-36.3	-38.1	22.5	0.00e+00	0	41	0	2039480320	43	4605
2026-01-06 11:41:44.16	51.49	63.95	-36.4	-38.1	22.5	0.00e+00	0	41	0	2044723200	43	4641
2026-01-06 11:41:45.15	50.48	63.83	-36.6	-38.3	22.4	0.00e+00	0	41	0	2051014656	43	4737
2026-01-06 11:41:46.16	49.45	63.70	-36.5	-38.2	22.4	0.00e+00	0	41	0	2056257536	43	4694
2026-01-06 11:41:47.16	48.45	63.57	-36.5	-38.1	22.5	0.00e+00	0	41	0	2062548992	43	4651
2026-01-06 11:41:48.16	47.45	63.43	-36.5	-38.2	22.5	0.00e+00	0	41	0	2067791872	43	4672
2026-01-06 11:41:49.16	46.48	63.28	-36.6	-38.3	22.4	0.00e+00	0	41	0	2073034752	43	4730
2026-01-06 11:41:50.16	45.51	63.12	-36.5	-38.2	22.4	0.00e+00	0	41	0	2079326208	43	4703
2026-01-06 11:41:51.16	44.55	62.96	-37.0	-38.7	22.2	0.00e+00	0	41	0	2084569088	44	4703
2026-01-06 11:41:52.16	43.61	62.80	-37.2	-39.0	21.9	0.00e+00	0	41	0	2089811968	45	4579
2026-01-06 11:41:53.17	42.68	62.62	-37.2	-39.0	22.0	0.00e+00	0	41	0	2096103424	45	4546
2026-01-06 11:41:54.17	41.76	62.44	-37.0	-38.8	22.1	0.00e+00	0	41	0	2101346304	45	4463
2026-01-06 11:41:55.17	40.86	62.26	-37.1	-38.8	22.1	0.00e+00	0	41	0	2106589184	45	4475
2026-01-06 11:41:56.18	39.96	62.07	-37.0	-38.8	22.2	0.00e+00	0	41	0	2112880640	45	4455
2026-01-06 11:41:57.18	39.09	61.87	-37.1	-38.8	22.1	0.00e+00	0	41	0	2118123520	45	4487
2026-01-06 11:41:58.18	38.23	61.67	-37.1	-38.8	22.1	0.00e+00	0	41	0	2124414976	45	4490
2026-01-06 11:41:59.18	37.39	61.47	-36.9	-38.6	22.3	0.00e+00	0	41	0	2129657856	45	4376
2026-01-06 11:42:00.18	36.56	61.26	-36.9	-38.6	22.4	0.00e+00	0	41	0	2135949312	45	4349
2026-01-06 11:42:01.19	35.73	61.04	-37.0	-38.7	22.3	0.00e+00	0	41	0	2141192192	45	4434
2026-01-06 11:42:02.19	34.93	60.82	-36.9	-38.7	22.3	0.00e+00	0	41	0	2146435072	45	4400
2026-01-06 11:42:03.19	34.14	60.60	-36.9	-38.6	22.3	0.00e+00	0	41	0	2152726528	45	4371
2026-01-06 11:42:04.19	33.37	60.37	-37.0	-38.8	22.2	0.00e+00	0	41	0	2157969408	45	4449
2026-01-06 11:42:05.20	32.60	60.14	-37.3	-39.1	21.9	0.00e+00	0	41	0	2163212288	45	4614
2026-01-06 11:42:06.20	31.85	59.91	-37.2	-38.9	22.0	0.00e+00	0	41	0	2169503744	45	4524
2026-01-06 11:42:07.20	31.12	59.67	-37.2	-39.0	22.0	0.00e+00	0	41	0	2174746624	45	4563
2026-01-06 11:42:08.20	30.40	59.43	-37.2	-39.0	21.9	0.00e+00	0	41	0	2179989504	45	4549
2026-01-06 11:42:09.20	29.69	59.18	-37.4	-39.2	21.8	0.00e+00	0	41	0	2186280960	45	4658
2026-01-06 11:42:10.20	29.00	58.94	-37.7	-39.4	21.6	0.00e+00	0	41	0	2191523840	45	4814
2026-01-06 11:42:11.21	28.31	58.68	-37.9	-39.7	21.4	0.00e+00	0	41	0	2197815296	46	4670
2026-01-06 11:42:12.21	27.64	58.43	-37.9	-39.7	21.4	0.00e+00	0	41	0	2203058176	46	4676
2026-01-06 11:42:13.21	26.99	58.18	-37.7	-39.5	21.7	0.00e+00	0	41	0	2208301056	46	4566
2026-01-06 11:42:14.21	26.35	57.92	-37.6	-39.3	21.8	0.00e+00	0	41	0	2214592512	46	4459
2026-01-06 11:42:15.20	25.72	57.66	-37.6	-39.4	21.8	0.00e+00	0	41	0	2219835392	46	4503
2026-01-06 11:42:16.21	25.10	57.40	-37.6	-39.3	21.8	0.00e+00	0	41	0	2225078272	46	4489
2026-01-06 11:42:17.21	24.49	57.14	-37.5	-39.3	21.8	0.00e+00	0	41	0	2231369728	46	4451
2026-01-06 11:42:18.21	23.90	56.87	-37.3	-39.0	22.0	0.00e+00	0	41	0	2236612608	46	4339
2026-01-06 11:42:19.21	23.32	56.61	-37.7	-39.5	21.6	0.00e+00	0	41	0	2241855488	46	4568
2026-01-06 11:42:20.22	22.74	56.33	-38.0	-39.8	21.3	0.00e+00	0	41	0	2248146944	46	4745
2026-01-06 11:42:21.22	22.18	56.07	-37.8	-39.6	21.5	0.00e+00	0	41	0	2253389824	46	4610
2026-01-06 11:42:22.23	21.62	55.79	-37.5	-39.3	21.8	0.00e+00	0	41	0	2259681280	46	4446
2026-01-06 11:42:23.23	21.08	55.52	-37.6	-39.3	21.7	0.00e+00	0	41	0	2264924160	46	4481
2026-01-06 11:42:24.23	20.56	55.25	-37.7	-39.5	21.6	0.00e+00	0	41	0	2270167040	46	4563
2026-01-06 11:42:25.23	20.04	54.97	-37.8	-39.6	21.5	0.00e+00	0	41	0	2276458496	46	4620
2026-01-06 11:42:26.24	19.52	54.69	-37.8	-39.6	21.5	0.00e+00	0	41	0	2281701376	46	4644
2026-01-06 11:42:27.24	19.03	54.42	-37.8	-39.6	21.6	0.00e+00	0	41	0	2287992832	46	4634
2026-01-06 11:42:28.24	18.54	54.14	-37.8	-39.6	21.6	0.00e+00	0	42	0	2293235712	46	4615
2026-01-06 11:42:29.25	18.05	53.86	-37.6	-39.4	21.8	0.00e+00	0	41	0	2298478592	46	4494
2026-01-06 11:42:30.25	17.58	53.58	-37.7	-39.5	21.7	0.00e+00	0	41	0	2304770048	46	4566
2026-01-06 11:42:31.25	17.12	53.31	-37.7	-39.5	21.7	0.00e+00	0	41	0	2310012928	46	4546
2026-01-06 11:42:32.25	16.67	53.03	-37.7	-39.5	21.7	0.00e+00	0	41	0	2315255808	46	4552
2026-01-06 11:42:33.25	16.23	52.75	-37.9	-39.6	21.5	0.00e+00	0	41	0	2321547264	46	4651
2026-01-06 11:42:34.26	15.79	52.47	-38.0	-39.8	21.4	0.00e+00	0	42	0	2326790144	46	4730
2026-01-06 11:42:35.26	15.36	52.19	-37.9	-39.7	21.5	0.00e+00	0	41	0	2333081600	46	4687
2026-01-06 11:42:36.27	14.94	51.91	-37.9	-39.7	21.5	0.00e+00	0	41	0	2338324480	46	4699
2026-01-06 11:42:37.27	14.53	51.63	-37.9	-39.6	21.5	0.00e+00	0	41	0	2343567360	46	4642
2026-01-06 11:42:38.27	14.12	51.35	-37.8	-39.5	21.6	0.00e+00	0	41	0	2349858816	46	4584
2026-01-06 11:42:39.28	13.72	51.07	-37.5	-39.3	21.8	0.00e+00	0	41	0	2355101696	46	4457
2026-01-06 11:42:40.28	13.33	50.79	-37.5	-39.2	21.9	0.00e+00	0	41	0	2360344576	46	4406
2026-01-06 11:42:41.28	12.95	50.51	-37.4	-39.2	21.9	0.00e+00	0	41	0	2366636032	46	4410
2026-01-06 11:42:42.29	12.57	50.23	-37.5	-39.3	21.8	0.00e+00	0	42	0	2371878912	46	4458
2026-01-06 11:42:43.29	12.21	49.96	-37.5	-39.3	21.8	0.00e+00	0	41	0	2378170368	46	4464
2026-01-06 11:42:44.29	11.85	49.68	-37.4	-39.2	21.8	0.00e+00	0	41	0	2383413248	46	4403
2026-01-06 11:42:45.29	11.49	49.40	-37.4	-39.1	21.9	0.00e+00	0	41	0	2388656128	46	4382
2026-01-06 11:42:46.29	11.14	49.13	-37.1	-38.9	22.1	0.00e+00	0	41	0	2394947584	46	4249
2026-01-06 11:42:47.30	10.80	48.85	-37.1	-38.8	22.2	0.00e+00	0	41	0	2400190464	46	4218
2026-01-06 11:42:48.30	10.46	48.57	-37.1	-38.8	22.2	0.00e+00	0	41	0	2406481920	46	4209
2026-01-06 11:42:49.30	10.14	48.30	-37.1	-38.8	22.2	0.00e+00	0	41	0	2411724800	46	4206
2026-01-06 11:42:50.30	9.81	48.03	-37.1	-38.8	22.5	0.00e+00	0	41	0	2416967680	46	4217
2026-01-06 11:42:51.31	9.49	47.75	-37.1	-38.8	22.6	0.00e+00	0	41	0	2423259136	46	4213
2026-01-06 11:42:52.31	9.18	47.48	-37.1	-38.8	22.6	0.00e+00	0	41	0	2428502016	46	4203
2026-01-06 11:42:53.31	8.87	47.21	-36.9	-38.5	22.8	0.00e+00	0	41	0	2433744896	45	4317
2026-01-06 11:42:54.32	8.57	46.94	-36.8	-38.5	22.8	0.00e+00	0	41	0	2440036352	45	4305
2026-01-06 11:42:55.32	8.27	46.67	-36.7	-38.3	22.9	0.00e+00	0	41	0	2445279232	45	4236
2026-01-06 11:42:56.32	7.98	46.40	-36.9	-38.6	22.8	0.00e+00	0	41	0	2450522112	45	4354
2026-01-06 11:42:57.33	7.69	46.13	-36.8	-38.5	22.8	0.00e+00	0	41	0	2456813568	45	4316
2026-01-06 11:42:58.33	7.41	45.87	-36.8	-38.4	22.9	0.00e+00	0	42	0	2462056448	45	4266
2026-01-06 11:42:59.34	7.13	45.60	-36.7	-38.3	23.0	0.00e+00	0	41	0	2468347904	45	4212
2026-01-06 11:43:00.34	6.86	45.33	-36.7	-38.4	22.9	0.00e+00	0	41	0	2473590784	45	4253
2026-01-06 11:43:01.35	6.59	45.07	-37.0	-38.7	22.7	0.00e+00	0	42	0	2479882240	45	4418
2026-01-06 11:43:02.35	6.33	44.81	-37.1	-38.9	22.5	0.00e+00	0	41	0	2485125120	45	4495
2026-01-06 11:43:03.35	6.07	44.54	-37.2	-38.9	22.5	0.00e+00	0	41	0	2490368000	45	4519
2026-01-06 11:43:04.36	5.81	44.28	-37.0	-38.7	22.6	0.00e+00	0	41	0	2496659456	45	4420
2026-01-06 11:43:05.36	5.56	44.02	-36.9	-38.6	22.7	0.00e+00	0	41	0	2501902336	45	4366
2026-01-06 11:43:06.36	5.32	43.77	-36.9	-38.6	22.7	0.00e+00	0	41	0	2507145216	45	4371
2026-01-06 11:43:07.37	5.07	43.51	-37.0	-38.7	22.7	0.00e+00	0	42	0	2513436672	45	4392
2026-01-06 11:43:08.37	4.83	43.25	-37.0	-38.6	22.7	0.00e+00	0	41	0	2518679552	45	4384
2026-01-06 11:43:09.37	4.60	43.00	-37.0	-38.7	22.7	0.00e+00	0	41	0	2523922432	45	4400
2026-01-06 11:43:10.38	4.37	42.74	-37.0	-38.6	22.7	0.00e+00	0	41	0	2530213888	45	4381
2026-01-06 11:43:11.38	4.14	42.49	-36.9	-38.6	22.7	0.00e+00	0	41	0	2535456768	45	4355
2026-01-06 11:43:12.38	3.92	42.24	-37.0	-38.6	22.7	0.00e+00	0	41	0	2541748224	45	4384
2026-01-06 11:43:13.39	3.70	41.99	-36.9	-38.5	22.8	0.00e+00	0	42	0	2546991104	45	4334
2026-01-06 11:43:14.39	3.48	41.74	-36.7	-38.4	22.9	0.00e+00	0	42	0	2553282560	45	4273
2026-01-06 11:43:15.39	3.27	41.49	-36.8	-38.5	22.8	0.00e+00	0	42	0	2558525440	45	4299
2026-01-06 11:43:16.40	3.06	41.24	-36.6	-38.2	23.0	0.00e+00	0	41	0	2563768320	45	4182
2026-01-06 11:43:17.40	2.85	41.00	-36.5	-38.2	23.1	0.00e+00	0	42	0	2570059776	45	4161
2026-01-06 11:43:18.40	2.65	40.76	-36.6	-38.2	23.0	0.00e+00	0	42	0	2575302656	45	4187
2026-01-06 11:43:19.40	2.45	40.51	-36.7	-38.3	22.9	0.00e+00	0	42	0	2580545536	45	4235
2026-01-06 11:43:20.41	2.25	40.27	-36.6	-38.3	23.0	0.00e+00	0	41	0	2586836992	45	4209
2026-01-06 11:43:21.41	2.05	40.03	-36.7	-38.3	23.0	0.00e+00	0	42	0	2592079872	45	4230
2026-01-06 11:43:22.41	1.86	39.79	-36.8	-38.5	22.8	0.00e+00	0	41	0	2597322752	45	4293
2026-01-06 11:43:23.42	1.67	39.55	-36.8	-38.5	22.8	0.00e+00	0	42	0	2603614208	45	4307
2026-01-06 11:43:24.42	1.49	39.32	-36.9	-38.6	22.7	0.00e+00	0	42	0	2608857088	45	4377
2026-01-06 11:43:25.42	1.30	39.08	-37.0	-38.7	22.7	0.00e+00	0	41	0	2615148544	45	4393
2026-01-06 11:43:26.42	1.12	38.85	-37.0	-38.7	22.6	0.00e+00	0	41	0	2620391424	45	4412
2026-01-06 11:43:27.43	0.94	38.61	-37.0	-38.6	22.7	0.00e+00	0	42	0	2625634304	45	4383
2026-01-06 11:43:28.43	0.77	38.38	-36.9	-38.6	22.7	0.00e+00	0	42	0	2631925760	45	4369
2026-01-06 11:43:29.43	0.60	38.15	-36.9	-38.5	22.8	0.00e+00	0	42	0	2637168640	45	4330
2026-01-06 11:43:30.44	0.42	37.92	-36.7	-38.4	22.8	0.00e+00	0	42	0	2643460096	45	4280
2026-01-06 11:43:31.44	0.26	37.70	-36.7	-38.4	22.9	0.00e+00	0	41	0	2648702976	45	4247
2026-01-06 11:43:32.44	0.09	37.47	-36.7	-38.4	22.9	0.00e+00	0	41	0	2653945856	45	4262
2026-01-06 11:43:33.45	359.93	37.24	-36.7	-38.4	22.9	0.00e+00	0	41	0	2660237312	45	4247
2026-01-06 11:43:34.45	359.77	37.02	-36.5	-38.2	23.0	0.00e+00	0	42	0	2665480192	45	4174
2026-01-06 11:43:35.45	359.61	36.80	-36.5	-38.2	23.0	0.00e+00	0	42	0	2670723072	45	4175
2026-01-06 11:43:36.45	359.45	36.58	-36.6	-38.2	23.0	0.00e+00	0	42	0	2677014528	45	4180
2026-01-06 11:43:37.45	359.30	36.36	-36.8	-38.4	22.9	0.00e+00	0	41	0	2682257408	45	4270
2026-01-06 11:43:38.46	359.14	36.14	-36.8	-38.5	22.8	0.00e+00	0	42	0	2688548864	45	4294
2026-01-06 11:43:39.46	358.99	35.92	-36.9	-38.5	22.8	0.00e+00	0	41	0	2693791744	45	4330
2026-01-06 11:43:40.46	358.85	35.71	-36.8	-38.5	22.8	0.00e+00	0	41	0	2699034624	45	4316
2026-01-06 11:43:41.47	358.70	35.49	-37.0	-38.6	22.7	0.00e+00	0	42	0	2705326080	45	4391
2026-01-06 11:43:42.47	358.55	35.28	-36.9	-38.6	22.7	0.00e+00	0	41	0	2710568960	45	4346
2026-01-06 11:43:43.47	358.41	35.06	-36.7	-38.3	22.9	0.00e+00	0	42	0	2715811840	45	4230
2026-01-06 11:43:44.48	358.27	34.85	-36.7	-38.3	22.9	0.00e+00	0	41	0	2722103296	45	4213
2026-01-06 11:43:45.48	358.13	34.64	-36.8	-38.4	22.9	0.00e+00	0	41	0	2727346176	45	4266
2026-01-06 11:43:46.48	358.00	34.43	-36.8	-38.4	22.9	0.00e+00	0	41	0	2733637632	45	4275
2026-01-06 11:43:47.49	357.86	34.22	-36.8	-38.5	22.8	0.00e+00	0	42	0	2738880512	45	4307
2026-01-06 11:43:48.49	357.73	34.02	-36.9	-38.6	22.7	0.00e+00	0	41	0	2744123392	45	4350
2026-01-06 11:43:49.49	357.60	33.81	-36.9	-38.7	22.7	0.00e+00	0	41	0	2750414848	45	4398
2026-01-06 11:43:50.49	357.47	33.61	-36.9	-38.6	22.7	0.00e+00	0	42	0	2755657728	45	4379
2026-01-06 11:43:51.50	357.34	33.41	-36.9	-38.6	22.7	0.00e+00	0	41	0	2761949184	45	4347
2026-01-06 11:43:52.50	357.21	33.20	-36.9	-38.6	22.7	0.00e+00	0	42	0	2767192064	45	4371
2026-01-06 11:43:53.50	357.09	33.00	-37.0	-38.6	22.6	0.00e+00	0	42	0	2772434944	45	4385
2026-01-06 11:43:54.51	356.96	32.80	-36.8	-38.5	22.8	0.00e+00	0	42	0	2778726400	45	4320
2026-01-06 11:43:55.51	356.84	32.61	-36.9	-38.5	22.8	0.00e+00	0	41	0	2783969280	45	4335
2026-01-06 11:43:56.51	356.72	32.41	-36.9	-38.5	22.7	0.00e+00	0	42	0	2789212160	45	4322
2026-01-06 11:43:57.52	356.60	32.21	-36.9	-38.6	22.7	0.00e+00	0	42	0	2795503616	45	4350
2026-01-06 11:43:58.52	356.48	32.02	-37.0	-38.7	22.6	0.00e+00	0	41	0	2800746496	45	4397
2026-01-06 11:43:59.52	356.37	31.83	-37.0	-38.7	22.6	0.00e+00	0	41	0	2807037952	45	4393
2026-01-06 11:44:00.52	356.25	31.63	-37.0	-38.6	22.6	0.00e+00	0	42	0	2812280832	45	4381
2026-01-06 11:44:01.53	356.14	31.44	-36.9	-38.5	22.7	0.00e+00	0	41	0	2817523712	45	4332
2026-01-06 11:44:02.53	356.03	31.25	-37.0	-38.6	22.6	0.00e+00	0	42	0	2823815168	45	4370
2026-01-06 11:44:03.53	355.92	31.06	-36.9	-38.6	22.7	0.00e+00	0	41	0	2829058048	45	4345
2026-01-06 11:44:04.54	355.81	30.87	-37.0	-38.7	22.6	0.00e+00	0	42	0	2835349504	45	4409
2026-01-06 11:44:05.54	355.70	30.69	-37.1	-38.8	22.5	0.00e+00	0	41	0	2840592384	45	4442
2026-01-06 11:44:06.54	355.59	30.50	-37.1	-38.7	22.5	0.00e+00	0	41	0	2845835264	45	4440
2026-01-06 11:44:07.54	355.49	30.32	-37.2	-38.9	22.4	0.00e+00	0	41	0	2852126720	45	4501
2026-01-06 11:44:08.55	355.38	30.13	-37.2	-38.9	22.4	0.00e+00	0	41	0	2857369600	45	4544
2026-01-06 11:44:09.55	355.28	29.95	-37.2	-38.9	22.4	0.00e+00	0	42	0	2862612480	45	4514
2026-01-06 11:44:10.55	355.18	29.77	-37.3	-39.0	22.4	0.00e+00	0	41	0	2868903936	45	4564
2026-01-06 11:44:11.55	355.08	29.59	-37.4	-39.1	22.3	0.00e+00	0	42	0	2874146816	45	4616
2026-01-06 11:44:12.56	354.98	29.41	-37.4	-39.1	22.3	0.00e+00	0	41	0	2880438272	45	4607
2026-01-06 11:44:13.56	354.88	29.23	-37.3	-39.0	22.3	0.00e+00	0	42	0	2885681152	45	4557
2026-01-06 11:44:14.56	354.78	29.05	-37.2	-38.9	22.4	0.00e+00	0	42	0	2890924032	45	4531
2026-01-06 11:44:15.56	354.69	28.88	-37.2	-38.9	22.4	0.00e+00	0	42	0	2897215488	45	4496
2026-01-06 11:44:16.57	354.59	28.70	-37.1	-38.8	22.5	0.00e+00	0	42	0	2902458368	45	4456
2026-01-06 11:44:17.57	354.50	28.53	-37.2	-38.8	22.5	0.00e+00	0	42	0	2907701248	45	4487
2026-01-06 11:44:18.57	354.41	28.35	-37.0	-38.7	22.6	0.00e+00	0	42	0	2913992704	45	4412
2026-01-06 11:44:19.58	354.31	28.18	-37.1	-38.7	22.5	0.00e+00	0	41	0	2919235584	45	4424
2026-01-06 11:44:20.58	354.22	28.01	-37.0	-38.7	22.6	0.00e+00	0	42	0	2925527040	45	4406
2026-01-06 11:44:21.59	354.13	27.84	-37.0	-38.7	22.6	0.00e+00	0	42	0	2930769920	45	4405
2026-01-06 11:44:22.59	354.04	27.67	-37.0	-38.7	22.6	0.00e+00	0	42	0	2936012800	45	4406
2026-01-06 11:44:23.60	353.96	27.50	-37.1	-38.8	22.5	0.00e+00	0	42	0	2942304256	45	4451
2026-01-06 11:44:24.60	353.87	27.33	-37.2	-38.9	22.4	0.00e+00	0	42	0	2947547136	45	4502
2026-01-06 11:44:25.60	353.78	27.16	-37.3	-38.9	22.4	0.00e+00	0	42	0	2953838592	45	4542
2026-01-06 11:44:26.61	353.70	27.00	-37.2	-38.9	22.4	0.00e+00	0	42	0	2959081472	45	4528
2026-01-06 11:44:27.61	353.61	26.83	-37.3	-39.0	22.3	0.00e+00	0	41	0	2964324352	45	4593
2026-01-06 11:44:28.61	353.53	26.67	-37.4	-39.1	22.2	0.00e+00	0	42	0	2970615808	45	4640
2026-01-06 11:44:29.61	353.45	26.51	-37.4	-39.1	22.2	0.00e+00	0	42	0	2975858688	45	4632
2026-01-06 11:44:30.62	353.37	26.34	-37.3	-39.0	22.3	0.00e+00	0	42	0	2981101568	45	4594
2026-01-06 11:44:31.62	353.29	26.18	-37.3	-39.0	22.3	0.00e+00	0	42	0	2987393024	45	4564
2026-01-06 11:44:32.62	353.21	26.02	-37.4	-39.1	22.2	0.00e+00	0	42	0	2992635904	45	4623
2026-01-06 11:44:33.62	353.13	25.87	-37.4	-39.1	22.2	0.00e+00	0	42	0	2997878784	45	4630
2026-01-06 11:44:34.63	353.05	25.71	-37.3	-39.0	22.3	0.00e+00	0	41	0	3004170240	45	4552
2026-01-06 11:44:35.63	352.97	25.55	-37.2	-38.9	22.4	0.00e+00	0	42	0	3009413120	45	4523
2026-01-06 11:44:36.63	352.90	25.39	-37.3	-38.9	22.3	0.00e+00	0	41	0	3015704576	45	4544
2026-01-06 11:44:37.64	352.82	25.24	-37.4	-39.1	22.2	0.00e+00	0	41	0	3020947456	45	4618
2026-01-06 11:44:38.64	352.75	25.08	-37.4	-39.1	22.3	0.00e+00	0	41	0	3027238912	45	4607
2026-01-06 11:44:39.64	352.67	24.93	-37.5	-39.1	22.2	0.00e+00	0	42	0	3032481792	45	4636
2026-01-06 11:44:40.64	352.60	24.77	-37.6	-39.3	22.1	0.00e+00	0	42	0	3037724672	45	4724
2026-01-06 11:44:41.65	352.53	24.62	-37.7	-39.4	22.0	0.00e+00	0	41	0	3044016128	45	4777
2026-01-06 11:44:42.65	352.45	24.47	-37.7	-39.5	21.9	0.00e+00	0	42	0	3049259008	46	4562
2026-01-06 11:44:43.66	352.38	24.32	-37.8	-39.6	21.9	0.00e+00	0	41	0	3054501888	46	4617
2026-01-06 11:44:44.66	352.31	24.17	-37.9	-39.7	21.8	0.00e+00	0	42	0	3060793344	46	4668
2026-01-06 11:44:45.66	352.24	24.02	-38.0	-39.8	21.6	0.00e+00	0	42	0	3066036224	46	4733
2026-01-06 11:44:46.67	352.17	23.87	-38.0	-39.8	21.7	0.00e+00	0	42	0	3071279104	46	4739
2026-01-06 11:44:47.67	352.10	23.72	-38.0	-39.8	21.7	0.00e+00	0	41	0	3077570560	46	4726
2026-01-06 11:44:48.67	352.04	23.58	-38.0	-39.8	21.7	0.00e+00	0	42	0	3082813440	46	4709
2026-01-06 11:44:49.68	351.97	23.43	-38.0	-39.7	21.7	0.00e+00	0	41	0	3089104896	46	4699
2026-01-06 11:44:50.68	351.90	23.29	-37.9	-39.6	21.8	0.00e+00	0	42	0	3094347776	46	4650
2026-01-06 11:44:51.68	351.84	23.14	-37.9	-39.6	21.8	0.00e+00	0	42	0	3099590656	46	4625
2026-01-06 11:44:52.69	351.77	23.00	-37.9	-39.6	21.8	0.00e+00	0	42	0	3105882112	46	4647
2026-01-06 11:44:53.69	351.71	22.85	-37.9	-39.6	21.8	0.00e+00	0	42	0	3111124992	46	4620
2026-01-06 11:44:54.69	351.64	22.71	-37.7	-39.4	21.9	0.00e+00	0	42	0	3117416448	46	4544
2026-01-06 11:44:55.69	351.58	22.57	-37.7	-39.4	22.0	0.00e+00	0	42	0	3122659328	46	4534
2026-01-06 11:44:56.70	351.52	22.43	-37.7	-39.4	21.9	0.00e+00	0	42	0	3127902208	46	4533
2026-01-06 11:44:57.70	351.46	22.29	-37.8	-39.6	21.8	0.00e+00	0	42	0	3134193664	46	4606
2026-01-06 11:44:58.70	351.39	22.15	-37.8	-39.5	21.9	0.00e+00	0	42	0	3139436544	46	4585
2026-01-06 11:44:59.71	351.33	22.01	-37.8	-39.5	21.9	0.00e+00	0	42	0	3144679424	46	4583
2026-01-06 11:45:00.71	351.27	21.88	-37.8	-39.6	21.8	0.00e+00	0	42	0	3150970880	46	4602
2026-01-06 11:45:01.72	351.21	21.74	-38.0	-39.8	21.7	0.00e+00	0	42	0	3156213760	46	4711
2026-01-06 11:45:02.72	351.15	21.60	-38.0	-39.7	21.7	0.00e+00	0	42	0	3162505216	46	4705
2026-01-06 11:45:03.72	351.10	21.47	-38.0	-39.7	21.7	0.00e+00	0	42	0	3167748096	46	4698
2026-01-06 11:45:04.72	351.04	21.33	-38.1	-39.9	21.6	0.00e+00	0	41	0	3172990976	46	4765
2026-01-06 11:45:05.73	350.98	21.20	-38.2	-40.0	21.5	0.00e+00	0	42	0	3179282432	47	4557
2026-01-06 11:45:06.73	350.92	21.06	-38.2	-39.9	21.5	0.00e+00	0	42	0	3184525312	47	4515
2026-01-06 11:45:07.73	350.87	20.93	-38.2	-39.9	21.5	0.00e+00	0	42	0	3190816768	47	4539
2026-01-06 11:45:08.74	350.81	20.80	-38.3	-40.0	21.4	0.00e+00	0	42	0	3196059648	47	4598
2026-01-06 11:45:09.74	350.76	20.67	-38.3	-40.1	21.4	0.00e+00	0	42	0	3201302528	47	4619
2026-01-06 11:45:10.74	350.70	20.54	-38.3	-40.1	21.4	0.00e+00	0	42	0	3207593984	47	4617
2026-01-06 11:45:11.75	350.65	20.40	-38.4	-40.1	21.3	0.00e+00	0	42	0	3212836864	47	4651
2026-01-06 11:45:12.75	350.59	20.28	-38.4	-40.1	21.3	0.00e+00	0	42	0	3218079744	47	4623
2026-01-06 11:45:13.75	350.54	20.15	-38.4	-40.1	21.3	0.00e+00	0	42	0	3224371200	47	4647
2026-01-06 11:45:14.76	350.49	20.02	-38.4	-40.2	21.3	0.00e+00	0	42	0	3229614080	47	4672
2026-01-06 11:45:15.76	350.43	19.89	-38.5	-40.3	21.2	0.00e+00	0	42	0	3235905536	47	4716
2026-01-06 11:45:16.76	350.38	19.76	-38.5	-40.2	21.2	0.00e+00	0	42	0	3241148416	47	4695
2026-01-06 11:45:17.76	350.33	19.64	-38.5	-40.3	21.2	0.00e+00	0	41	0	3246391296	47	4708
2026-01-06 11:45:18.77	350.28	19.51	-38.5	-40.3	21.2	0.00e+00	0	42	0	3252682752	47	4745
2026-01-06 11:45:19.77	350.23	19.39	-38.6	-40.3	21.1	0.00e+00	0	42	0	3257925632	47	4757
2026-01-06 11:45:20.77	350.18	19.26	-38.6	-40.5	21.0	0.00e+00	0	42	0	3263168512	47	4819
2026-01-06 11:45:21.77	350.13	19.14	-38.6	-40.4	21.1	0.00e+00	0	42	0	3269459968	47	4805
2026-01-06 11:45:22.78	350.08	19.01	-38.6	-40.5	21.0	0.00e+00	0	42	0	3274702848	47	4827
2026-01-06 11:45:23.78	350.03	18.89	-38.8	-40.6	21.2	0.00e+00	0	42	0	3280994304	48	4638
2026-01-06 11:45:24.79	349.98	18.77	-38.8	-40.7	21.1	0.00e+00	0	42	0	3286237184	48	4669
2026-01-06 11:45:25.79	349.93	18.65	-38.9	-40.7	21.1	0.00e+00	0	42	0	3291480064	48	4692
2026-01-06 11:45:26.80	349.88	18.53	-38.9	-40.8	21.0	0.00e+00	0	42	0	3297771520	48	4758
2026-01-06 11:45:27.80	349.84	18.40	-38.9	-40.8	21.0	0.00e+00	0	42	0	3303014400	48	4741
2026-01-06 11:45:28.80	349.79	18.29	-39.0	-41.0	20.8	0.00e+00	0	42	0	3309305856	48	4821
2026-01-06 11:45:29.81	349.74	18.17	-39.1	-41.0	20.8	0.00e+00	0	42	0	3314548736	48	4856
2026-01-06 11:45:30.81	349.70	18.05	-39.1	-41.1	20.7	0.00e+00	0	42	0	3319791616	48	4890
2026-01-06 11:45:31.81	349.65	17.93	-39.1	-41.1	20.8	0.00e+00	0	42	0	3326083072	49	4601
2026-01-06 11:45:32.82	349.61	17.81	-39.1	-41.0	20.8	0.00e+00	0	42	0	3331325952	49	4587
2026-01-06 11:45:33.82	349.56	17.69	-39.1	-41.0	20.8	0.00e+00	0	41	0	3336568832	49	4594
2026-01-06 11:45:34.82	349.52	17.58	-39.1	-41.0	20.8	0.00e+00	0	42	0	3342860288	49	4597
2026-01-06 11:45:35.83	349.47	17.46	-39.2	-41.1	20.8	0.00e+00	0	42	0	3348103168	49	4604
2026-01-06 11:45:36.83	349.43	17.34	-39.3	-41.2	20.6	0.00e+00	0	41	0	3353346048	49	4670
2026-01-06 11:45:37.84	349.38	17.23	-39.3	-41.1	20.7	0.00e+00	0	42	0	3359637504	49	4632
2026-01-06 11:45:38.84	349.34	17.11	-39.3	-41.2	20.6	0.00e+00	0	42	0	3364880384	49	4682
2026-01-06 11:45:39.84	349.30	17.00	-39.4	-41.3	20.5	0.00e+00	0	42	0	3371171840	49	4732
2026-01-06 11:45:40.84	349.26	16.89	-39.4	-41.2	20.6	0.00e+00	0	42	0	3376414720	49	4688
2026-01-06 11:45:41.85	349.21	16.77	-39.5	-41.4	20.5	0.00e+00	0	42	0	3382706176	49	4763
2026-01-06 11:45:42.85	349.17	16.66	-39.5	-41.4	20.5	0.00e+00	0	42	0	3387949056	49	4766
2026-01-06 11:45:43.85	349.13	16.55	-39.4	-41.3	20.6	0.00e+00	0	42	0	3393191936	49	4716
2026-01-06 11:45:44.86	349.09	16.44	-39.5	-41.4	20.5	0.00e+00	0	42	0	3399483392	49	4770
2026-01-06 11:45:45.86	349.05	16.33	-39.5	-41.4	20.4	0.00e+00	0	42	0	3404726272	49	4805
2026-01-06 11:45:46.86	349.01	16.22	-39.6	-41.5	20.4	0.00e+00	0	42	0	3409969152	49	4845
2026-01-06 11:45:47.86	348.97	16.11	-39.6	-41.5	20.3	0.00e+00	0	42	0	3416260608	49	4856
2026-01-06 11:45:48.87	348.93	16.00	-39.6	-41.5	20.4	0.00e+00	0	41	0	3421503488	49	4842
2026-01-06 11:45:49.87	348.89	15.89	-39.6	-41.5	20.3	0.00e+00	0	42	0	3426746368	49	4863
2026-01-06 11:45:50.88	348.85	15.78	-39.7	-41.6	20.3	0.00e+00	0	42	0	3433037824	50	4608
2026-01-06 11:45:51.88	348.81	15.67	-39.6	-41.5	20.4	0.00e+00	0	42	0	3438280704	50	4581
2026-01-06 11:45:52.88	348.77	15.56	-39.7	-41.6	20.3	0.00e+00	0	42	0	3444572160	50	4643
2026-01-06 11:45:53.89	348.74	15.46	-39.9	-41.8	20.1	0.00e+00	0	42	0	3449815040	50	4718
2026-01-06 11:45:54.89	348.70	15.35	-39.8	-41.7	20.2	0.00e+00	0	42	0	3456106496	50	4671
2026-01-06 11:45:55.89	348.66	15.24	-39.8	-41.7	20.2	0.00e+00	0	42	0	3461349376	50	4668
2026-01-06 11:45:56.90	348.62	15.14	-39.8	-41.7	20.2	0.00e+00	0	42	0	3466592256	50	4687
2026-01-06 11:45:57.90	348.59	15.03	-39.8	-41.7	20.2	0.00e+00	0	42	0	3472883712	50	4690
2026-01-06 11:45:58.90	348.55	14.93	-39.9	-41.8	20.2	0.00e+00	0	42	0	3478126592	50	4715
2026-01-06 11:45:59.91	348.51	14.82	-39.8	-41.7	20.2	0.00e+00	0	42	0	3483369472	50	4671
2026-01-06 11:46:00.91	348.48	14.72	-39.8	-41.7	20.2	0.00e+00	0	42	0	3489660928	50	4676
2026-01-06 11:46:01.91	348.44	14.61	-39.8	-41.6	20.3	0.00e+00	0	42	0	3494903808	50	4637
2026-01-06 11:46:02.92	348.40	14.51	-39.8	-41.6	20.3	0.00e+00	0	42	0	3500146688	50	4638
2026-01-06 11:46:03.92	348.37	14.41	-39.7	-41.6	20.3	0.00e+00	0	42	0	3506438144	50	4618
2026-01-06 11:46:04.92	348.33	14.31	-39.8	-41.7	20.2	0.00e+00	0	41	0	3511681024	50	4679
2026-01-06 11:46:05.93	348.30	14.20	-39.8	-41.7	20.3	0.00e+00	0	42	0	3517972480	50	4658
2026-01-06 11:46:06.93	348.26	14.10	-39.8	-41.7	20.2	0.00e+00	0	42	0	3523215360	50	4682
2026-01-06 11:46:07.94	348.23	14.00	-39.8	-41.7	20.2	0.00e+00	0	42	0	3529506816	50	4691
2026-01-06 11:46:08.94	348.20	13.90	-39.9	-41.8	20.1	0.00e+00	0	42	0	3534749696	50	4730
2026-01-06 11:46:09.94	348.16	13.80	-39.9	-41.9	20.0	0.00e+00	0	42	0	3539992576	50	4781
2026-01-06 11:46:10.95	348.13	13.70	-39.8	-41.7	20.2	0.00e+00	0	42	0	3546284032	50	4705
2026-01-06 11:46:11.95	348.10	13.60	-40.0	-41.9	20.1	0.00e+00	0	42	0	3551526912	50	4778
2026-01-06 11:46:12.96	348.06	13.50	-39.9	-41.8	20.1	0.00e+00	0	42	0	3556769792	50	4719
2026-01-06 11:46:13.96	348.03	13.40	-40.0	-41.9	20.0	0.00e+00	0	42	0	3563061248	50	4783
2026-01-06 11:46:14.97	348.00	13.30	-40.1	-42.0	20.0	0.00e+00	0	42	0	3568304128	50	4829
2026-01-06 11:46:15.96	347.97	13.21	-40.1	-42.0	19.9	0.00e+00	0	42	0	3573547008	50	4826
2026-01-06 11:46:16.97	347.93	13.11	-40.2	-42.0	19.9	0.00e+00	0	42	0	3579838464	51	4586
2026-01-06 11:46:17.97	347.90	13.01	-40.2	-42.1	19.9	0.00e+00	0	42	0	3585081344	51	4602
2026-01-06 11:46:18.97	347.87	12.91	-40.2	-42.1	19.9	0.00e+00	0	42	0	3591372800	51	4615
2026-01-06 11:46:19.97	347.84	12.82	-40.2	-42.0	19.9	0.00e+00	0	42	0	3596615680	51	4595
2026-01-06 11:46:20.98	347.81	12.72	-40.3	-42.2	19.8	0.00e+00	0	42	0	3601858560	51	4655
2026-01-06 11:46:21.98	347.78	12.63	-40.4	-42.3	19.7	0.00e+00	0	42	0	3608150016	51	4717
2026-01-06 11:46:22.98	347.75	12.53	-40.4	-42.4	19.6	0.00e+00	0	42	0	3613392896	51	4767
2026-01-06 11:46:23.99	347.72	12.44	-40.4	-42.3	19.6	0.00e+00	0	42	0	3619684352	51	4759
2026-01-06 11:46:24.99	347.69	12.34	-40.4	-42.4	19.6	0.00e+00	0	42	0	3624927232	51	4785
2026-01-06 11:46:26.00	347.66	12.25	-40.3	-42.4	19.6	0.00e+00	0	42	0	3630170112	51	4774
2026-01-06 11:46:27.00	347.63	12.15	-40.4	-42.5	19.5	0.00e+00	0	42	0	3636461568	51	4864
2026-01-06 11:46:28.00	347.60	12.06	-40.4	-42.6	19.5	0.00e+00	0	42	0	3641704448	51	4883
2026-01-06 11:46:29.01	347.57	11.97	-40.4	-42.6	19.4	0.00e+00	0	42	0	3646947328	51	4905
2026-01-06 11:46:30.01	347.54	11.87	-40.4	-42.6	19.5	0.00e+00	0	42	0	3653238784	51	4876
2026-01-06 11:46:31.01	347.51	11.78	-40.4	-42.6	19.4	0.00e+00	0	42	0	3658481664	51	4891
2026-01-06 11:46:32.01	347.48	11.69	-40.4	-42.6	19.4	0.00e+00	0	42	0	3664773120	51	4920
