passes_logs/2026/01/06/T1/T1__20260106_110745_AQUA_rec.log

#Pass ID: 20260106_110745_AQUA
#Satellite: AQUA
#Configuration: AQUA
#almurnet v.1.7.20251203
#Start time: 2026-01-06 11:07:47

#Version: 2.0.20230620
#Station: T1
#Location: 37.570604 lon 55.790049 lat
#TLE: 1 27424U 02022A   26004.96787593  .00001598  00000+0  32997-3 0  9996
#TLE: 2 27424  98.4069 331.2279 0002002  90.2377   0.6092 14.61798176259425

#Time	Az	El	Level	Level2	SNR	BER	BlckErr	Temp	State	Recorded	gain1	gain2
2026-01-06 11:07:47.08	143.17	5.15	-53.7	-73.9	3.8	7.46e-01	0	36	0	0	79	35695
2026-01-06 11:07:48.08	143.14	5.23	-53.7	-73.3	3.8	7.45e-01	0	36	104	0	77	37472
2026-01-06 11:07:49.08	143.10	5.30	-53.6	-73.1	3.8	7.44e-01	0	36	104	0	77	36643
2026-01-06 11:07:50.09	143.07	5.38	-53.6	-73.0	3.8	7.42e-01	0	36	104	0	77	36207
2026-01-06 11:07:51.09	143.03	5.45	-53.6	-72.6	3.8	7.44e-01	0	36	104	0	77	34809
2026-01-06 11:07:52.09	143.00	5.53	-53.6	-72.4	3.8	7.45e-01	0	36	104	0	77	34079
2026-01-06 11:07:53.10	142.96	5.60	-53.6	-72.1	3.8	7.47e-01	0	36	104	0	77	32920
2026-01-06 11:07:54.10	142.92	5.68	-53.6	-71.7	3.9	7.46e-01	0	36	104	0	77	31133
2026-01-06 11:07:55.11	142.89	5.76	-53.6	-71.0	4.1	7.36e-01	0	37	104	0	77	28911
2026-01-06 11:07:56.11	142.85	5.83	-53.6	-70.6	4.0	7.32e-01	0	36	104	0	77	27638
2026-01-06 11:07:57.12	142.81	5.91	-53.6	-70.2	4.1	7.30e-01	0	36	104	0	77	26408
2026-01-06 11:07:58.12	142.78	5.99	-53.5	-70.0	3.9	7.42e-01	0	36	104	0	77	25633
2026-01-06 11:07:59.12	142.74	6.06	-53.5	-69.8	4.3	7.40e-01	0	37	104	0	77	25030
2026-01-06 11:08:00.13	142.70	6.14	-53.5	-69.0	4.7	7.15e-01	0	37	104	0	77	22950
2026-01-06 11:08:01.13	142.66	6.22	-53.5	-68.9	4.4	7.17e-01	0	37	104	0	77	22640
2026-01-06 11:08:02.14	142.63	6.30	-53.5	-69.5	4.3	7.39e-01	0	37	104	0	77	24382
2026-01-06 11:08:03.14	142.59	6.38	-53.5	-69.1	4.7	7.18e-01	0	37	104	0	77	23271
2026-01-06 11:08:04.15	142.55	6.46	-53.6	-69.7	4.5	7.26e-01	0	37	104	0	77	24713
2026-01-06 11:08:05.15	142.51	6.53	-53.6	-71.1	3.9	7.41e-01	0	37	104	0	77	29093
2026-01-06 11:08:06.15	142.47	6.61	-53.6	-72.1	3.8	7.42e-01	0	37	104	0	77	32682
2026-01-06 11:08:07.16	142.43	6.69	-53.6	-73.0	3.8	7.45e-01	0	37	104	0	77	36255
2026-01-06 11:08:08.16	142.39	6.77	-53.6	-73.3	3.8	7.44e-01	0	37	104	0	77	37590
2026-01-06 11:08:09.17	142.35	6.85	-53.6	-72.4	3.8	7.43e-01	0	37	104	0	77	33720
2026-01-06 11:08:10.17	142.31	6.93	-53.6	-70.2	4.3	7.31e-01	0	37	104	0	77	26282
2026-01-06 11:08:11.18	142.27	7.01	-53.5	-68.3	5.0	7.12e-01	0	37	0	0	77	21205
2026-01-06 11:08:12.18	142.23	7.09	-53.4	-66.4	6.3	6.74e-01	0	37	0	524288	77	17070
2026-01-06 11:08:13.18	142.19	7.17	-53.3	-65.3	7.4	6.56e-01	0	37	0	2621440	77	15009
2026-01-06 11:08:14.19	142.15	7.26	-53.2	-64.2	8.4	6.44e-01	0	37	0	4718592	77	13188
2026-01-06 11:08:15.19	142.11	7.34	-53.0	-63.1	9.6	6.30e-01	0	37	0	6291456	77	11627
2026-01-06 11:08:16.20	142.07	7.42	-52.9	-62.2	10.6	6.23e-01	0	37	0	8388608	77	10471
2026-01-06 11:08:17.20	142.02	7.50	-52.7	-61.0	11.7	6.16e-01	0	37	0	9961472	77	9161
2026-01-06 11:08:18.21	141.98	7.58	-52.4	-59.9	13.0	6.12e-01	0	37	0	12058624	76	8524
2026-01-06 11:08:19.21	141.94	7.66	-52.1	-58.7	14.2	6.08e-01	0	37	0	13631488	76	7446
2026-01-06 11:08:20.21	141.90	7.75	-51.6	-57.5	15.4	6.07e-01	0	37	0	15728640	75	6823
2026-01-06 11:08:21.22	141.85	7.83	-51.1	-56.3	16.5	6.08e-01	0	37	0	17825792	74	6325
2026-01-06 11:08:22.22	141.81	7.91	-50.7	-55.5	17.3	6.05e-01	0	37	0	19398656	73	6088
2026-01-06 11:08:23.23	141.77	8.00	-50.2	-54.6	18.2	6.05e-01	0	37	0	21495808	72	5808
2026-01-06 11:08:24.23	141.72	8.08	-50.1	-54.3	18.5	6.07e-01	0	37	0	23068672	72	5636
2026-01-06 11:08:25.23	141.68	8.17	-49.9	-53.8	19.0	6.05e-01	0	37	0	25165824	71	5655
2026-01-06 11:08:26.24	141.63	8.25	-49.8	-53.8	19.1	6.05e-01	0	37	0	27262976	71	5614
2026-01-06 11:08:27.24	141.59	8.34	-49.9	-54.0	18.9	6.08e-01	0	37	0	28835840	71	5765
2026-01-06 11:08:28.25	141.54	8.42	-50.2	-54.5	18.4	6.08e-01	0	37	0	30932992	71	6118
2026-01-06 11:08:29.25	141.50	8.51	-50.6	-55.2	17.7	6.08e-01	0	37	0	32505856	71	6628
2026-01-06 11:08:30.25	141.45	8.59	-51.0	-56.0	16.9	6.06e-01	0	37	0	34603008	72	6875
2026-01-06 11:08:31.26	141.41	8.68	-51.6	-57.4	15.6	6.08e-01	0	37	0	36700160	73	7563
2026-01-06 11:08:32.27	141.36	8.77	-52.1	-58.9	14.0	6.09e-01	0	37	0	38273024	74	8503
2026-01-06 11:08:33.27	141.31	8.85	-52.5	-60.5	12.4	6.12e-01	0	38	0	40370176	75	9648
2026-01-06 11:08:34.27	141.27	8.94	-53.0	-62.4	10.4	6.21e-01	0	38	0	41943040	76	11395
2026-01-06 11:08:35.28	141.22	9.03	-53.2	-64.0	8.8	6.38e-01	0	38	0	44040192	76	13596
2026-01-06 11:08:36.28	141.17	9.11	-53.3	-64.1	8.6	6.39e-01	0	37	0	46137344	77	13109
2026-01-06 11:08:37.28	141.13	9.20	-53.4	-65.1	7.5	6.52e-01	0	38	0	47710208	77	14638
2026-01-06 11:08:38.29	141.08	9.29	-53.0	-62.1	10.2	6.20e-01	0	37	0	49807360	77	10388
2026-01-06 11:08:39.29	141.03	9.38	-51.5	-57.0	16.4	6.07e-01	0	37	0	51380224	73	7243
2026-01-06 11:08:40.30	140.98	9.47	-53.8	-72.0	3.9	7.43e-01	0	38	104	52428800	78	30643
2026-01-06 11:08:41.30	140.93	9.56	-50.3	-54.7	18.3	6.07e-01	0	38	0	53477376	72	5867
2026-01-06 11:08:42.30	140.88	9.65	-50.2	-54.3	18.6	6.07e-01	0	38	0	55574528	72	5645
2026-01-06 11:08:43.31	140.83	9.74	-50.2	-54.4	18.5	6.06e-01	0	38	0	57147392	72	5714
2026-01-06 11:08:44.31	140.78	9.83	-49.6	-53.3	19.6	6.07e-01	0	38	0	59244544	71	5311
2026-01-06 11:08:45.31	140.73	9.92	-48.9	-52.3	20.6	6.07e-01	0	38	0	60817408	69	5320
2026-01-06 11:08:46.32	140.68	10.01	-48.8	-52.2	20.7	6.06e-01	0	38	0	62914560	69	5240
2026-01-06 11:08:47.32	140.63	10.10	-48.4	-51.6	21.2	6.08e-01	0	38	0	64487424	68	5201
2026-01-06 11:08:48.32	140.58	10.19	-47.8	-50.8	21.9	6.07e-01	0	38	0	66584576	67	5028
2026-01-06 11:08:49.33	140.52	10.29	-47.6	-50.6	22.1	6.07e-01	0	38	0	68681728	67	4875
2026-01-06 11:08:50.33	140.47	10.38	-47.5	-50.4	22.3	6.06e-01	0	38	0	70254592	67	4803
2026-01-06 11:08:51.33	140.42	10.47	-47.3	-50.1	22.5	6.06e-01	0	38	0	72351744	66	4919
2026-01-06 11:08:52.34	140.37	10.56	-47.2	-50.0	22.7	6.06e-01	0	38	0	73924608	66	4870
2026-01-06 11:08:53.34	140.31	10.66	-47.2	-50.0	22.6	6.09e-01	0	38	0	76021760	66	4834
2026-01-06 11:08:54.34	140.26	10.75	-47.2	-50.0	22.6	6.08e-01	0	38	0	78118912	66	4843
2026-01-06 11:08:55.34	140.20	10.85	-47.2	-49.9	22.8	6.08e-01	0	38	0	79691776	66	4787
2026-01-06 11:08:56.35	140.15	10.94	-47.2	-49.9	22.8	6.09e-01	0	38	0	81788928	66	4779
2026-01-06 11:08:57.35	140.09	11.04	-47.1	-49.8	22.9	6.08e-01	0	38	0	83361792	66	4719
2026-01-06 11:08:58.35	140.04	11.13	-47.0	-49.7	23.0	6.08e-01	0	38	0	85458944	66	4655
2026-01-06 11:08:59.35	139.98	11.23	-46.9	-49.6	23.1	6.07e-01	0	38	0	87556096	65	4885
2026-01-06 11:09:00.36	139.93	11.32	-47.0	-49.7	23.0	6.07e-01	0	38	0	89128960	65	4937
2026-01-06 11:09:01.36	139.87	11.42	-46.8	-49.5	23.2	6.05e-01	0	38	0	91226112	65	4818
2026-01-06 11:09:02.36	139.81	11.52	-46.9	-49.5	23.1	6.04e-01	0	38	0	92798976	65	4856
2026-01-06 11:09:03.36	139.76	11.61	-46.8	-49.4	23.2	6.07e-01	0	38	0	94896128	65	4812
2026-01-06 11:09:04.37	139.70	11.71	-46.6	-49.2	23.4	6.06e-01	0	38	0	96468992	65	4691
2026-01-06 11:09:05.37	139.64	11.81	-46.8	-49.4	23.3	6.06e-01	0	38	0	98566144	65	4804
2026-01-06 11:09:06.37	139.58	11.91	-46.7	-49.3	23.3	6.06e-01	0	38	0	100663296	65	4741
2026-01-06 11:09:07.38	139.52	12.01	-46.7	-49.4	23.3	6.08e-01	0	38	0	102236160	65	4773
2026-01-06 11:09:08.38	139.46	12.11	-46.6	-49.2	23.5	6.06e-01	0	38	0	104333312	65	4678
2026-01-06 11:09:09.38	139.40	12.21	-46.7	-49.3	23.4	6.06e-01	0	38	0	105906176	65	4711
2026-01-06 11:09:10.39	139.34	12.31	-46.6	-49.2	23.5	6.06e-01	0	38	0	108003328	65	4678
2026-01-06 11:09:11.39	139.28	12.41	-46.7	-49.3	23.3	6.05e-01	0	38	0	110100480	65	4737
2026-01-06 11:09:12.39	139.22	12.51	-46.6	-49.2	23.4	6.07e-01	0	38	0	111673344	65	4692
2026-01-06 11:09:13.39	139.16	12.61	-46.8	-49.4	23.3	6.06e-01	0	38	0	113770496	65	4792
2026-01-06 11:09:14.40	139.09	12.71	-46.7	-49.4	23.3	6.05e-01	0	38	0	115343360	65	4774
2026-01-06 11:09:15.40	139.03	12.82	-46.9	-49.6	23.1	6.05e-01	0	38	0	117440512	65	4874
2026-01-06 11:09:16.40	138.97	12.92	-46.8	-49.4	23.3	6.07e-01	0	38	0	119013376	65	4795
2026-01-06 11:09:17.41	138.90	13.02	-46.7	-49.3	23.3	6.07e-01	0	38	0	121110528	65	4743
2026-01-06 11:09:18.41	138.84	13.13	-46.6	-49.2	23.5	6.07e-01	0	38	0	123207680	65	4663
2026-01-06 11:09:19.41	138.77	13.23	-46.6	-49.2	23.4	6.07e-01	0	38	0	124780544	65	4682
2026-01-06 11:09:20.41	138.71	13.33	-46.6	-49.2	23.5	6.06e-01	0	38	0	126877696	65	4679
2026-01-06 11:09:21.42	138.64	13.44	-46.6	-49.2	23.5	6.04e-01	0	38	0	128450560	65	4667
2026-01-06 11:09:22.42	138.57	13.55	-46.7	-49.2	23.4	6.05e-01	0	38	0	130547712	65	4701
2026-01-06 11:09:23.43	138.51	13.65	-46.6	-49.2	23.5	6.07e-01	0	38	0	132644864	65	4667
2026-01-06 11:09:24.43	138.44	13.76	-46.6	-49.2	23.4	6.06e-01	0	38	0	134217728	65	4697
2026-01-06 11:09:25.44	138.37	13.87	-46.7	-49.3	23.4	6.08e-01	0	38	0	136314880	65	4719
2026-01-06 11:09:26.44	138.30	13.97	-46.7	-49.3	23.3	6.06e-01	0	38	0	137887744	65	4746
2026-01-06 11:09:27.44	138.23	14.08	-46.4	-49.0	23.7	6.06e-01	0	38	0	139984896	64	4819
2026-01-06 11:09:28.44	138.16	14.19	-46.5	-49.0	23.7	6.07e-01	0	38	0	142082048	64	4847
2026-01-06 11:09:29.45	138.09	14.30	-46.5	-49.1	23.5	6.08e-01	0	38	0	143654912	64	4908
2026-01-06 11:09:30.45	138.02	14.41	-46.3	-48.8	23.8	6.08e-01	0	38	0	145752064	64	4759
2026-01-06 11:09:31.45	137.95	14.52	-46.3	-48.8	23.9	6.06e-01	0	38	0	147324928	64	4731
2026-01-06 11:09:32.46	137.88	14.63	-46.3	-48.8	23.8	6.08e-01	0	38	0	149422080	64	4730
2026-01-06 11:09:33.46	137.80	14.74	-46.3	-48.8	23.9	6.06e-01	0	38	0	150994944	64	4708
2026-01-06 11:09:34.46	137.73	14.85	-46.3	-48.8	23.9	6.07e-01	0	38	0	153092096	64	4727
2026-01-06 11:09:35.47	137.66	14.97	-46.3	-48.8	23.9	6.08e-01	0	38	0	155189248	64	4721
2026-01-06 11:09:36.47	137.58	15.08	-46.3	-48.8	23.9	6.07e-01	0	38	0	156762112	64	4718
2026-01-06 11:09:37.48	137.50	15.19	-46.3	-48.9	23.8	6.05e-01	0	38	0	158859264	64	4775
2026-01-06 11:09:38.48	137.43	15.31	-46.4	-49.0	23.7	6.06e-01	0	38	0	160432128	64	4849
2026-01-06 11:09:39.48	137.35	15.42	-46.4	-49.0	23.7	6.04e-01	0	38	0	162529280	64	4821
2026-01-06 11:09:40.48	137.28	15.54	-46.2	-48.8	23.9	6.07e-01	0	38	0	164626432	64	4720
2026-01-06 11:09:41.49	137.20	15.65	-46.3	-48.9	23.8	6.07e-01	0	38	0	166199296	64	4777
2026-01-06 11:09:42.49	137.12	15.77	-46.3	-48.8	23.8	6.05e-01	0	38	0	168296448	64	4753
2026-01-06 11:09:43.49	137.04	15.88	-46.3	-48.9	23.8	6.07e-01	0	38	0	169869312	64	4800
2026-01-06 11:09:44.50	136.96	16.00	-46.4	-49.0	23.7	6.05e-01	0	38	0	171966464	64	4845
2026-01-06 11:09:45.50	136.88	16.12	-46.4	-49.0	23.7	6.06e-01	0	38	0	174063616	64	4869
2026-01-06 11:09:46.51	136.80	16.24	-46.5	-49.1	23.6	6.08e-01	0	38	0	175636480	64	4905
2026-01-06 11:09:47.51	136.72	16.36	-46.4	-49.0	23.7	6.04e-01	0	38	0	177733632	64	4849
2026-01-06 11:09:48.51	136.63	16.48	-46.5	-49.1	23.6	6.07e-01	0	38	0	179306496	64	4888
2026-01-06 11:09:49.51	136.55	16.60	-46.6	-49.2	23.6	6.07e-01	0	38	0	181403648	64	4935
2026-01-06 11:09:50.52	136.46	16.72	-46.5	-49.0	23.7	6.07e-01	0	38	0	182976512	64	4865
2026-01-06 11:09:51.52	136.38	16.84	-46.3	-48.9	23.8	6.07e-01	0	38	0	185073664	64	4760
2026-01-06 11:09:52.52	136.29	16.96	-46.4	-48.9	23.9	6.07e-01	0	38	0	187170816	64	4761
2026-01-06 11:09:53.53	136.21	17.08	-46.4	-48.9	23.8	6.08e-01	0	38	0	188743680	64	4793
2026-01-06 11:09:54.53	136.12	17.21	-46.6	-49.1	23.7	6.07e-01	0	38	0	190840832	64	4898
2026-01-06 11:09:55.53	136.03	17.33	-46.4	-48.8	23.9	6.06e-01	0	38	0	192937984	64	4758
2026-01-06 11:09:56.54	135.94	17.45	-46.3	-48.7	24.0	6.09e-01	0	38	0	194510848	64	4698
2026-01-06 11:09:57.54	135.85	17.58	-46.3	-48.8	23.9	6.06e-01	0	38	0	196608000	64	4759
2026-01-06 11:09:58.54	135.76	17.70	-46.2	-48.7	24.0	6.07e-01	0	38	0	198180864	64	4660
2026-01-06 11:09:59.55	135.67	17.83	-46.2	-48.7	24.0	6.07e-01	0	38	0	200278016	64	4655
2026-01-06 11:10:00.55	135.58	17.96	-46.2	-48.7	24.0	6.07e-01	0	38	0	201850880	64	4677
2026-01-06 11:10:01.55	135.49	18.09	-46.2	-48.7	24.0	6.07e-01	0	38	0	203948032	64	4679
2026-01-06 11:10:02.55	135.39	18.21	-46.2	-48.7	23.9	6.05e-01	0	38	0	206045184	64	4701
2026-01-06 11:10:03.56	135.30	18.34	-46.3	-48.8	24.0	6.07e-01	0	38	0	207618048	64	4712
2026-01-06 11:10:04.56	135.20	18.47	-46.2	-48.7	23.9	6.09e-01	0	38	0	209715200	64	4696
2026-01-06 11:10:05.57	135.11	18.60	-46.4	-48.9	23.9	6.06e-01	0	38	0	211288064	64	4784
2026-01-06 11:10:06.57	135.01	18.73	-46.4	-49.0	23.8	6.06e-01	0	38	0	213385216	64	4838
2026-01-06 11:10:07.58	134.91	18.87	-46.5	-49.1	23.7	6.07e-01	0	38	0	214958080	64	4907
2026-01-06 11:10:08.58	134.81	19.00	-46.4	-48.9	23.8	6.07e-01	0	38	0	217055232	64	4782
2026-01-06 11:10:09.58	134.71	19.13	-46.3	-48.9	23.9	6.06e-01	0	38	0	219152384	64	4776
2026-01-06 11:10:10.59	134.61	19.27	-46.4	-49.0	23.7	6.06e-01	0	38	0	220725248	64	4847
2026-01-06 11:10:11.59	134.51	19.40	-46.3	-48.9	23.9	6.06e-01	0	38	0	222822400	64	4770
2026-01-06 11:10:12.59	134.41	19.53	-46.4	-49.0	23.8	6.06e-01	0	38	0	224395264	64	4820
2026-01-06 11:10:13.59	134.30	19.67	-46.4	-49.0	23.8	6.08e-01	0	38	0	226492416	64	4847
2026-01-06 11:10:14.60	134.20	19.81	-46.5	-49.1	23.7	6.08e-01	0	38	0	228589568	64	4905
2026-01-06 11:10:15.60	134.09	19.94	-46.5	-49.1	23.7	6.08e-01	0	38	0	230162432	64	4880
2026-01-06 11:10:16.60	133.98	20.08	-46.6	-49.2	23.6	6.07e-01	0	38	0	232259584	64	4951
2026-01-06 11:10:17.61	133.87	20.22	-46.7	-49.2	23.5	6.06e-01	0	38	0	233832448	64	4980
2026-01-06 11:10:18.61	133.77	20.36	-46.6	-49.2	23.7	6.08e-01	0	38	0	235929600	64	4941
2026-01-06 11:10:19.61	133.66	20.50	-46.6	-49.1	23.6	6.07e-01	0	38	0	238026752	64	4917
2026-01-06 11:10:20.62	133.54	20.64	-46.6	-49.1	23.7	6.08e-01	0	38	0	239599616	64	4919
2026-01-06 11:10:21.62	133.43	20.78	-46.7	-49.3	23.5	6.07e-01	0	38	0	241696768	64	5014
2026-01-06 11:10:22.62	133.32	20.92	-46.7	-49.3	23.6	6.06e-01	0	38	0	243269632	64	4987
2026-01-06 11:10:23.63	133.20	21.07	-46.8	-49.3	23.5	6.08e-01	0	38	0	245366784	64	5021
2026-01-06 11:10:24.63	133.09	21.21	-46.8	-49.3	23.5	6.10e-01	0	38	0	247463936	64	5040
2026-01-06 11:10:25.64	132.97	21.36	-46.7	-49.3	23.6	6.07e-01	0	38	0	249036800	64	4988
2026-01-06 11:10:26.64	132.85	21.50	-46.8	-49.4	23.5	6.06e-01	0	38	0	251133952	64	5052
2026-01-06 11:10:27.64	132.73	21.65	-46.7	-49.4	23.5	6.07e-01	0	38	0	252706816	64	5047
2026-01-06 11:10:28.65	132.61	21.80	-46.7	-49.3	23.5	6.08e-01	0	38	0	254803968	64	5038
2026-01-06 11:10:29.65	132.49	21.94	-46.7	-49.3	23.6	6.07e-01	0	38	0	256376832	64	5024
2026-01-06 11:10:30.65	132.37	22.09	-46.7	-49.3	23.6	6.05e-01	0	38	0	258473984	64	4988
2026-01-06 11:10:31.65	132.24	22.24	-46.7	-49.3	23.6	6.06e-01	0	38	0	260571136	64	5007
2026-01-06 11:10:32.66	132.12	22.39	-46.6	-49.2	23.7	6.08e-01	0	38	0	262144000	64	4963
2026-01-06 11:10:33.66	131.99	22.54	-46.7	-49.3	23.6	6.06e-01	0	38	0	264241152	64	4996
2026-01-06 11:10:34.66	131.86	22.69	-46.6	-49.2	23.7	6.07e-01	0	38	0	265814016	64	4962
2026-01-06 11:10:35.67	131.73	22.85	-46.7	-49.3	23.6	6.06e-01	0	38	0	267911168	64	4998
2026-01-06 11:10:36.67	131.60	23.00	-46.6	-49.3	23.6	6.07e-01	0	38	0	269484032	64	4992
2026-01-06 11:10:37.67	131.47	23.16	-46.6	-49.2	23.7	6.08e-01	0	38	0	271581184	64	4961
2026-01-06 11:10:38.68	131.34	23.31	-46.6	-49.2	23.6	6.08e-01	0	38	0	273678336	64	4982
2026-01-06 11:10:39.68	131.20	23.47	-46.7	-49.3	23.6	6.06e-01	0	38	0	275251200	64	4996
2026-01-06 11:10:40.68	131.06	23.62	-46.7	-49.3	23.6	6.07e-01	0	38	0	277348352	64	5026
2026-01-06 11:10:41.69	130.93	23.78	-46.8	-49.3	23.6	6.07e-01	0	38	0	279445504	64	5022
2026-01-06 11:10:42.69	130.79	23.94	-46.9	-49.4	23.5	6.07e-01	0	38	0	281018368	64	5098
2026-01-06 11:10:43.69	130.65	24.10	-47.0	-49.5	23.4	6.07e-01	0	38	0	283115520	64	5152
2026-01-06 11:10:44.69	130.50	24.26	-47.0	-49.6	23.4	6.04e-01	0	38	0	284688384	64	5170
2026-01-06 11:10:45.70	130.36	24.42	-46.9	-49.5	23.4	6.09e-01	0	38	0	286785536	64	5132
2026-01-06 11:10:46.70	130.21	24.59	-46.9	-49.4	23.5	6.06e-01	0	39	0	288358400	64	5089
2026-01-06 11:10:47.70	130.07	24.75	-46.8	-49.4	23.6	6.07e-01	0	38	0	290455552	64	5051
2026-01-06 11:10:48.70	129.92	24.91	-46.6	-49.1	23.8	6.06e-01	0	38	0	292552704	64	4901
2026-01-06 11:10:49.70	129.77	25.08	-46.5	-49.0	23.9	6.08e-01	0	38	0	294125568	64	4867
2026-01-06 11:10:50.71	129.61	25.24	-46.5	-49.0	23.9	6.07e-01	0	38	0	296222720	64	4850
2026-01-06 11:10:51.71	129.46	25.41	-46.5	-49.0	23.9	6.07e-01	0	38	0	297795584	64	4867
2026-01-06 11:10:52.71	129.31	25.58	-46.6	-49.2	23.8	6.08e-01	0	38	0	299892736	64	4964
2026-01-06 11:10:53.72	129.15	25.75	-46.7	-49.4	23.6	6.09e-01	0	38	0	301465600	64	5065
2026-01-06 11:10:54.72	128.99	25.92	-46.8	-49.4	23.6	6.06e-01	0	38	0	303562752	64	5090
2026-01-06 11:10:55.72	128.83	26.09	-46.9	-49.6	23.4	6.04e-01	0	38	0	305659904	64	5186
2026-01-06 11:10:56.73	128.66	26.26	-46.9	-49.5	23.5	6.07e-01	0	38	0	307232768	64	5148
2026-01-06 11:10:57.73	128.50	26.43	-46.9	-49.5	23.5	6.07e-01	0	38	0	309329920	64	5149
2026-01-06 11:10:58.73	128.33	26.60	-46.8	-49.4	23.7	6.05e-01	0	38	0	311427072	64	5044
2026-01-06 11:10:59.73	128.17	26.78	-46.6	-49.1	23.9	6.08e-01	0	38	0	312999936	64	4886
2026-01-06 11:11:00.74	127.99	26.95	-46.6	-49.1	23.9	6.06e-01	0	38	0	315097088	64	4883
2026-01-06 11:11:01.74	127.82	27.13	-46.7	-49.2	23.8	6.07e-01	0	38	0	316669952	64	4957
2026-01-06 11:11:02.74	127.65	27.31	-46.7	-49.2	23.8	6.06e-01	0	38	0	318767104	64	4975
2026-01-06 11:11:03.74	127.47	27.48	-46.6	-49.1	23.9	6.07e-01	0	38	0	320339968	64	4888
2026-01-06 11:11:04.75	127.29	27.66	-46.6	-49.1	23.9	6.07e-01	0	38	0	322437120	64	4889
2026-01-06 11:11:05.75	127.11	27.84	-46.5	-49.0	24.0	6.06e-01	0	38	0	324534272	64	4837
2026-01-06 11:11:06.75	126.93	28.02	-46.5	-49.0	24.0	6.08e-01	0	38	0	326107136	64	4834
2026-01-06 11:11:07.76	126.74	28.21	-46.4	-48.9	24.1	6.07e-01	0	38	0	328204288	64	4770
2026-01-06 11:11:08.76	126.56	28.39	-46.5	-49.0	24.0	6.08e-01	0	39	0	329777152	64	4854
2026-01-06 11:11:09.77	126.36	28.57	-46.5	-49.0	24.1	6.06e-01	0	38	0	331874304	64	4818
2026-01-06 11:11:10.77	126.17	28.76	-46.3	-48.8	24.2	6.08e-01	0	38	0	333447168	64	4708
2026-01-06 11:11:11.77	125.98	28.94	-46.3	-48.7	24.4	6.05e-01	0	38	0	335544320	64	4662
2026-01-06 11:11:12.78	125.78	29.13	-46.2	-48.6	24.4	6.06e-01	0	38	0	337641472	64	4636
2026-01-06 11:11:13.78	125.58	29.32	-46.2	-48.6	24.4	6.09e-01	0	38	0	339214336	64	4608
2026-01-06 11:11:14.79	125.38	29.51	-46.2	-48.6	24.4	6.07e-01	0	38	0	341311488	64	4622
2026-01-06 11:11:15.79	125.18	29.70	-46.3	-48.7	24.3	6.05e-01	0	38	0	343408640	64	4680
2026-01-06 11:11:16.79	124.97	29.89	-46.3	-48.7	24.3	6.07e-01	0	38	0	344981504	64	4682
2026-01-06 11:11:17.80	124.76	30.08	-46.4	-48.8	24.2	6.06e-01	0	38	0	347078656	64	4734
2026-01-06 11:11:18.80	124.55	30.27	-46.4	-48.9	22.3	6.06e-01	0	38	0	348651520	64	4773
2026-01-06 11:11:19.80	124.34	30.46	-46.5	-49.0	24.1	6.08e-01	0	38	0	350748672	64	4820
2026-01-06 11:11:20.80	124.12	30.66	-46.3	-48.8	24.3	6.07e-01	0	38	0	352321536	64	4706
2026-01-06 11:11:21.81	123.90	30.85	-46.3	-48.7	24.3	6.07e-01	0	38	0	354418688	64	4691
2026-01-06 11:11:22.81	123.68	31.05	-46.3	-48.7	24.3	6.08e-01	0	38	0	356515840	64	4684
2026-01-06 11:11:23.82	123.45	31.25	-46.2	-48.6	24.4	6.06e-01	0	38	0	358088704	64	4634
2026-01-06 11:11:24.82	123.22	31.44	-46.5	-49.0	24.1	6.05e-01	0	38	0	360185856	64	4839
2026-01-06 11:11:25.82	122.99	31.64	-46.6	-49.1	24.0	6.07e-01	0	38	0	361758720	64	4883
2026-01-06 11:11:26.83	122.76	31.84	-46.5	-49.0	24.0	6.05e-01	0	38	0	363855872	64	4849
2026-01-06 11:11:27.83	122.52	32.04	-46.5	-49.0	24.0	6.09e-01	0	38	0	365428736	64	4867
2026-01-06 11:11:28.83	122.28	32.25	-46.4	-49.0	24.1	6.05e-01	0	38	0	367525888	64	4815
2026-01-06 11:11:29.84	122.04	32.45	-46.1	-48.6	24.4	6.06e-01	0	38	0	369623040	64	4599
2026-01-06 11:11:30.84	121.79	32.65	-46.2	-48.7	24.3	6.05e-01	0	38	0	371195904	64	4671
2026-01-06 11:11:31.84	121.54	32.86	-46.3	-48.9	24.2	6.07e-01	0	38	0	373293056	64	4760
2026-01-06 11:11:32.85	121.29	33.06	-46.6	-49.2	24.0	6.07e-01	0	38	0	374865920	64	4936
2026-01-06 11:11:33.85	121.03	33.27	-46.7	-49.2	23.9	6.06e-01	0	38	0	376963072	64	4963
2026-01-06 11:11:34.85	120.77	33.47	-46.7	-49.2	23.5	6.07e-01	0	38	0	379060224	64	4968
2026-01-06 11:11:35.86	120.51	33.68	-46.7	-49.2	23.9	6.07e-01	0	38	0	380633088	64	4949
2026-01-06 11:11:36.86	120.24	33.89	-46.8	-49.4	23.8	6.06e-01	0	38	0	382730240	64	5044
2026-01-06 11:11:37.87	119.97	34.10	-46.8	-49.3	23.8	6.06e-01	0	38	0	384303104	64	5020
2026-01-06 11:11:38.87	119.70	34.31	-46.9	-49.4	23.8	6.06e-01	0	38	0	386400256	64	5072
2026-01-06 11:11:39.87	119.42	34.52	-46.9	-49.4	23.7	6.07e-01	0	38	0	388497408	64	5100
2026-01-06 11:11:40.88	119.14	34.73	-47.0	-49.5	23.6	6.06e-01	0	38	0	390070272	64	5158
2026-01-06 11:11:41.88	118.85	34.95	-47.2	-49.8	23.4	6.07e-01	0	38	0	392167424	65	5023
2026-01-06 11:11:42.89	118.56	35.16	-47.3	-49.9	23.2	6.07e-01	0	38	0	393740288	65	5092
2026-01-06 11:11:43.89	118.27	35.37	-47.5	-50.1	23.1	6.07e-01	0	38	0	395837440	65	5210
2026-01-06 11:11:44.89	117.97	35.59	-47.6	-50.2	23.0	6.06e-01	0	38	0	397934592	65	5271
2026-01-06 11:11:45.90	117.67	35.80	-47.6	-50.2	23.0	6.06e-01	0	38	0	399507456	65	5276
2026-01-06 11:11:46.90	117.37	36.02	-47.4	-50.0	23.1	6.03e-01	0	38	0	401604608	65	5151
2026-01-06 11:11:47.90	117.06	36.24	-47.3	-50.0	23.2	6.06e-01	0	38	0	403177472	65	5123
2026-01-06 11:11:48.90	116.74	36.45	-47.5	-50.1	23.1	6.07e-01	0	38	0	405274624	65	5208
2026-01-06 11:11:49.91	116.42	36.67	-48.0	-50.8	22.5	6.08e-01	0	38	0	406847488	66	5332
2026-01-06 11:11:50.91	116.10	36.89	-48.2	-51.0	22.3	6.07e-01	0	38	0	408944640	67	5137
2026-01-06 11:11:51.91	115.78	37.11	-48.2	-51.0	22.3	6.08e-01	0	38	0	411041792	67	5150
2026-01-06 11:11:52.92	115.44	37.33	-47.7	-50.4	22.8	6.08e-01	0	39	0	412614656	67	4804
2026-01-06 11:11:53.92	115.11	37.55	-47.5	-50.3	23.0	6.11e-01	0	38	0	414711808	67	4710
2026-01-06 11:11:54.92	114.77	37.76	-47.7	-50.4	22.9	6.07e-01	0	38	0	416284672	67	4809
2026-01-06 11:11:55.93	114.42	37.99	-48.1	-51.0	22.3	6.05e-01	0	38	0	418381824	67	5153
2026-01-06 11:11:56.93	114.07	38.21	-48.4	-51.4	22.0	6.06e-01	0	39	0	419954688	67	5341
2026-01-06 11:11:57.93	113.72	38.43	-48.3	-51.2	22.2	6.09e-01	0	38	0	422051840	67	5240
2026-01-06 11:11:58.93	113.36	38.65	-48.4	-51.2	22.1	6.06e-01	0	38	0	424148992	67	5271
2026-01-06 11:11:59.94	112.99	38.87	-48.1	-50.9	22.4	6.09e-01	0	38	0	425721856	67	5076
2026-01-06 11:12:00.94	112.62	39.09	-48.1	-50.9	22.3	6.09e-01	0	38	0	427819008	67	5090
2026-01-06 11:12:01.94	112.25	39.31	-48.4	-51.3	22.1	6.06e-01	0	38	0	429916160	67	5290
2026-01-06 11:12:02.95	111.87	39.54	-48.5	-51.5	21.8	6.07e-01	0	38	0	431489024	67	5428
2026-01-06 11:12:03.95	111.48	39.76	-48.1	-50.9	22.4	6.04e-01	0	38	0	433586176	67	5051
2026-01-06 11:12:04.95	111.09	39.98	-47.9	-50.6	22.6	6.07e-01	0	39	0	435159040	67	4918
2026-01-06 11:12:05.95	110.70	40.20	-47.9	-50.6	22.7	6.06e-01	0	38	0	437256192	67	4893
2026-01-06 11:12:06.96	110.29	40.42	-47.9	-50.7	22.7	6.06e-01	0	39	0	438829056	67	4933
2026-01-06 11:12:07.96	109.88	40.64	-48.2	-51.1	22.2	6.07e-01	0	38	0	440926208	67	5192
2026-01-06 11:12:08.97	109.47	40.87	-48.1	-50.9	22.4	6.06e-01	0	38	0	443023360	67	5090
2026-01-06 11:12:09.97	109.05	41.09	-47.8	-50.5	22.7	6.06e-01	0	38	0	444596224	67	4844
2026-01-06 11:12:10.97	108.62	41.31	-47.8	-50.5	22.8	6.07e-01	0	38	0	446693376	67	4840
2026-01-06 11:12:11.98	108.19	41.53	-47.7	-50.4	22.9	6.08e-01	0	38	0	448266240	67	4783
2026-01-06 11:12:12.98	107.75	41.75	-47.9	-50.6	22.6	6.07e-01	0	38	0	450363392	67	4923
2026-01-06 11:12:13.98	107.31	41.97	-47.8	-50.6	22.7	6.09e-01	0	39	0	452460544	67	4883
2026-01-06 11:12:14.98	106.86	42.19	-47.6	-50.3	22.9	6.07e-01	0	38	0	454033408	67	4741
2026-01-06 11:12:15.99	106.40	42.40	-47.5	-50.1	23.1	6.09e-01	0	38	0	456130560	67	4643
2026-01-06 11:12:16.99	105.94	42.62	-47.6	-50.4	22.8	6.08e-01	0	38	0	457703424	66	5064
2026-01-06 11:12:17.99	105.47	42.84	-47.5	-50.2	23.0	6.06e-01	0	38	0	459800576	66	4940
2026-01-06 11:12:19.00	104.99	43.06	-47.4	-50.2	23.1	6.07e-01	0	38	0	461897728	66	4935
2026-01-06 11:12:20.00	104.51	43.27	-47.5	-50.3	22.9	6.08e-01	0	38	0	463470592	66	5038
2026-01-06 11:12:21.00	104.03	43.48	-47.5	-50.2	23.0	6.08e-01	0	38	0	465567744	66	4978
2026-01-06 11:12:22.01	103.53	43.70	-47.3	-49.9	23.2	6.08e-01	0	38	0	467140608	66	4809
2026-01-06 11:12:23.01	103.03	43.91	-47.5	-50.1	23.0	6.08e-01	0	38	0	469237760	66	4911
2026-01-06 11:12:24.02	102.52	44.12	-47.7	-50.4	22.7	6.09e-01	0	38	0	470810624	66	5090
2026-01-06 11:12:25.02	102.00	44.33	-47.3	-50.0	23.2	6.05e-01	0	38	0	472907776	66	4839
2026-01-06 11:12:26.02	101.48	44.54	-47.3	-50.0	23.2	6.05e-01	0	38	0	475004928	66	4819
2026-01-06 11:12:27.03	100.95	44.74	-47.4	-50.0	23.2	6.06e-01	0	38	0	476577792	66	4854
2026-01-06 11:12:28.03	100.41	44.95	-47.5	-50.2	23.1	6.06e-01	0	38	0	478674944	66	4936
2026-01-06 11:12:29.03	99.87	45.15	-47.3	-50.0	23.2	6.05e-01	0	38	0	480247808	66	4836
2026-01-06 11:12:30.04	99.32	45.35	-47.2	-49.9	23.3	6.09e-01	0	38	0	482344960	66	4778
2026-01-06 11:12:31.04	98.76	45.55	-47.5	-50.3	23.0	6.08e-01	0	38	0	484442112	66	4989
2026-01-06 11:12:32.05	98.19	45.75	-47.5	-50.1	23.1	6.08e-01	0	38	0	486014976	66	4909
2026-01-06 11:12:33.05	97.62	45.94	-47.3	-49.9	23.3	6.05e-01	0	38	0	488112128	66	4781
2026-01-06 11:12:34.05	97.04	46.14	-47.3	-49.9	23.3	6.08e-01	0	38	0	489684992	66	4813
2026-01-06 11:12:35.06	96.45	46.33	-47.6	-50.4	22.9	6.06e-01	0	38	0	491782144	66	5054
2026-01-06 11:12:36.06	95.86	46.51	-47.6	-50.3	22.9	6.04e-01	0	38	0	493879296	66	5014
2026-01-06 11:12:37.06	95.26	46.70	-47.4	-50.0	23.2	6.08e-01	0	38	0	495452160	66	4850
2026-01-06 11:12:38.07	94.65	46.88	-47.6	-50.4	22.9	6.07e-01	0	38	0	497549312	66	5067
2026-01-06 11:12:39.07	94.03	47.06	-47.7	-50.6	22.7	6.06e-01	0	38	0	499122176	66	5179
2026-01-06 11:12:40.07	93.41	47.24	-47.9	-50.8	22.6	6.08e-01	0	38	0	501219328	66	5291
2026-01-06 11:12:41.07	92.79	47.41	-47.5	-50.2	23.0	6.05e-01	0	38	0	502792192	66	4979
2026-01-06 11:12:42.08	92.14	47.59	-47.6	-50.3	23.0	6.08e-01	0	38	0	504889344	66	5001
2026-01-06 11:12:43.08	91.50	47.75	-47.7	-50.5	22.8	6.08e-01	0	38	0	506986496	66	5110
2026-01-06 11:12:44.09	90.85	47.92	-47.7	-50.5	22.8	6.07e-01	0	38	0	508559360	66	5132
2026-01-06 11:12:45.09	90.19	48.08	-47.3	-50.0	23.3	6.06e-01	0	38	0	510656512	66	4816
2026-01-06 11:12:46.09	89.53	48.24	-47.7	-50.5	22.8	6.08e-01	0	38	0	512229376	66	5141
2026-01-06 11:12:47.09	88.86	48.39	-47.8	-50.7	22.7	6.10e-01	0	38	0	514326528	66	5220
2026-01-06 11:12:48.10	88.18	48.55	-47.4	-50.2	23.0	6.07e-01	0	39	0	516423680	66	4976
2026-01-06 11:12:49.10	87.49	48.69	-47.3	-50.0	23.1	6.05e-01	0	39	0	517996544	66	4870
2026-01-06 11:12:50.11	86.80	48.84	-47.4	-50.2	23.1	6.07e-01	0	38	0	520093696	66	4963
2026-01-06 11:12:51.11	86.10	48.97	-47.5	-50.4	22.9	6.10e-01	0	38	0	521666560	66	5043
2026-01-06 11:12:52.11	85.40	49.11	-47.5	-50.3	22.9	6.09e-01	0	38	0	523763712	66	5024
2026-01-06 11:12:53.12	84.68	49.24	-47.1	-49.8	23.4	6.06e-01	0	39	0	525336576	66	4726
2026-01-06 11:12:54.12	83.97	49.37	-47.6	-50.4	22.9	6.07e-01	0	38	0	527433728	66	5092
2026-01-06 11:12:55.12	83.25	49.49	-47.4	-50.2	23.1	6.07e-01	0	38	0	529530880	66	4940
2026-01-06 11:12:56.13	82.51	49.61	-47.5	-50.2	23.0	6.06e-01	0	39	0	531103744	66	4980
2026-01-06 11:12:57.13	81.78	49.72	-47.3	-49.9	23.3	6.04e-01	0	38	0	533200896	66	4812
2026-01-06 11:12:58.14	81.04	49.83	-47.3	-50.0	23.3	6.07e-01	0	38	0	535298048	66	4830
2026-01-06 11:12:59.14	80.30	49.93	-47.5	-50.2	23.0	6.08e-01	0	38	0	536870912	66	4958
2026-01-06 11:13:00.14	79.55	50.03	-47.3	-49.9	23.3	6.07e-01	0	38	0	538968064	66	4799
2026-01-06 11:13:01.15	78.79	50.12	-47.2	-49.7	23.5	6.07e-01	0	38	0	540540928	66	4695
2026-01-06 11:13:02.15	78.03	50.21	-47.7	-50.3	23.0	6.10e-01	0	38	0	542638080	66	5039
2026-01-06 11:13:03.15	77.27	50.29	-47.2	-49.7	23.4	6.07e-01	0	38	0	544210944	66	4701
2026-01-06 11:13:04.16	76.50	50.37	-47.0	-49.5	23.7	6.05e-01	0	38	0	546308096	66	4575
2026-01-06 11:13:05.16	75.73	50.44	-47.2	-49.7	23.4	6.06e-01	0	38	0	548405248	65	4978
2026-01-06 11:13:06.17	74.95	50.51	-47.3	-49.9	23.3	6.07e-01	0	38	0	549978112	65	5084
2026-01-06 11:13:07.17	74.17	50.57	-47.1	-49.7	23.6	6.07e-01	0	38	0	552075264	65	4934
2026-01-06 11:13:08.17	73.40	50.63	-47.1	-49.7	23.5	6.07e-01	0	38	0	553648128	65	4949
2026-01-06 11:13:09.18	72.61	50.68	-47.2	-49.7	23.5	6.07e-01	0	38	0	555745280	65	4968
2026-01-06 11:13:10.18	71.82	50.73	-47.3	-49.8	23.4	6.04e-01	0	38	0	557842432	65	5023
2026-01-06 11:13:11.18	71.04	50.76	-47.2	-49.8	23.4	6.07e-01	0	38	0	559415296	65	5011
2026-01-06 11:13:12.19	70.24	50.80	-47.1	-49.7	23.5	6.07e-01	0	38	0	561512448	65	4943
2026-01-06 11:13:13.19	69.45	50.83	-47.3	-49.9	23.3	6.06e-01	0	38	0	563085312	65	5091
2026-01-06 11:13:14.19	68.66	50.85	-47.2	-49.8	23.3	6.05e-01	0	38	0	565182464	65	5020
2026-01-06 11:13:15.20	67.86	50.87	-47.3	-49.9	23.2	6.07e-01	0	38	0	567279616	65	5065
2026-01-06 11:13:16.20	67.07	50.88	-47.0	-49.5	23.7	6.07e-01	0	38	0	568852480	65	4865
2026-01-06 11:13:17.20	66.27	50.88	-47.3	-49.8	23.4	6.06e-01	0	38	0	570949632	65	5030
2026-01-06 11:13:18.21	65.47	50.88	-47.3	-49.9	23.3	6.05e-01	0	38	0	572522496	65	5068
2026-01-06 11:13:19.21	64.68	50.88	-46.7	-49.2	24.0	6.08e-01	0	38	0	574619648	65	4660
2026-01-06 11:13:20.21	63.89	50.86	-47.1	-49.6	23.6	6.07e-01	0	38	0	576192512	65	4913
2026-01-06 11:13:21.22	63.09	50.85	-47.1	-49.6	23.6	6.09e-01	0	38	0	578289664	65	4901
2026-01-06 11:13:22.21	62.30	50.82	-47.2	-49.8	23.4	6.06e-01	0	38	0	580386816	65	4996
2026-01-06 11:13:23.22	61.51	50.79	-47.2	-49.7	23.4	6.06e-01	0	38	0	581959680	65	4959
2026-01-06 11:13:24.22	60.72	50.76	-47.2	-49.8	23.4	6.07e-01	0	39	0	584056832	65	5017
2026-01-06 11:13:25.22	59.93	50.72	-47.5	-50.1	23.2	6.08e-01	0	38	0	585629696	65	5192
2026-01-06 11:13:26.23	59.14	50.67	-46.9	-49.4	23.7	6.07e-01	0	38	0	587726848	65	4813
2026-01-06 11:13:27.23	58.36	50.62	-47.0	-49.5	23.7	6.08e-01	0	39	0	589824000	65	4833
2026-01-06 11:13:28.23	57.58	50.56	-46.9	-49.3	23.9	6.07e-01	0	38	0	591396864	65	4757
2026-01-06 11:13:29.24	56.80	50.50	-47.0	-49.5	23.7	6.07e-01	0	38	0	593494016	65	4859
2026-01-06 11:13:30.24	56.03	50.43	-46.9	-49.4	23.7	6.07e-01	0	38	0	595066880	65	4786
2026-01-06 11:13:31.24	55.26	50.36	-46.9	-49.4	23.8	6.05e-01	0	39	0	597164032	65	4776
2026-01-06 11:13:32.25	54.49	50.28	-47.0	-49.6	23.7	6.05e-01	0	38	0	598736896	65	4873
2026-01-06 11:13:33.25	53.73	50.19	-47.1	-49.6	23.6	6.07e-01	0	38	0	600834048	65	4914
2026-01-06 11:13:34.25	52.98	50.11	-47.1	-49.6	23.6	6.03e-01	0	38	0	602931200	65	4906
2026-01-06 11:13:35.25	52.23	50.01	-46.7	-49.2	24.0	6.07e-01	0	38	0	604504064	65	4681
2026-01-06 11:13:36.26	51.47	49.91	-46.9	-49.4	23.8	6.06e-01	0	38	0	606601216	65	4774
2026-01-06 11:13:37.26	50.73	49.81	-47.2	-49.8	23.4	6.08e-01	0	38	0	608174080	65	5040
2026-01-06 11:13:38.27	49.99	49.70	-47.0	-49.5	23.7	6.08e-01	0	38	0	610271232	65	4828
2026-01-06 11:13:39.27	49.26	49.59	-47.1	-49.6	23.6	6.06e-01	0	38	0	612368384	65	4890
2026-01-06 11:13:40.27	48.54	49.47	-47.0	-49.4	23.7	6.07e-01	0	38	0	613941248	65	4811
2026-01-06 11:13:41.28	47.81	49.35	-47.2	-49.8	23.5	6.08e-01	0	38	0	616038400	65	4996
2026-01-06 11:13:42.28	47.10	49.22	-47.2	-49.8	23.5	6.07e-01	0	38	0	617611264	65	5017
2026-01-06 11:13:43.28	46.39	49.09	-47.1	-49.5	23.7	6.08e-01	0	38	0	619708416	65	4870
2026-01-06 11:13:44.29	45.69	48.95	-47.1	-49.7	23.6	6.07e-01	0	39	0	621805568	65	4935
2026-01-06 11:13:45.29	44.99	48.81	-47.1	-49.7	23.6	6.06e-01	0	38	0	623378432	65	4931
2026-01-06 11:13:46.30	44.30	48.67	-46.7	-49.2	24.0	6.09e-01	0	38	0	625475584	65	4674
2026-01-06 11:13:47.30	43.62	48.52	-47.0	-49.5	23.7	6.08e-01	0	38	0	627048448	65	4849
2026-01-06 11:13:48.30	42.94	48.37	-46.9	-49.5	23.8	6.07e-01	0	38	0	629145600	65	4824
2026-01-06 11:13:49.31	42.27	48.21	-46.9	-49.5	23.8	6.06e-01	0	39	0	630718464	65	4824
2026-01-06 11:13:50.31	41.61	48.06	-47.0	-49.5	23.7	6.08e-01	0	38	0	632815616	65	4857
2026-01-06 11:13:51.32	40.95	47.89	-46.7	-49.2	24.0	6.08e-01	0	38	0	634912768	65	4664
2026-01-06 11:13:52.32	40.30	47.73	-46.9	-49.4	23.8	6.06e-01	0	38	0	636485632	65	4810
2026-01-06 11:13:53.32	39.66	47.56	-46.9	-49.4	23.8	6.06e-01	0	38	0	638582784	65	4784
2026-01-06 11:13:54.32	39.03	47.39	-46.6	-49.1	24.1	6.07e-01	0	38	0	640155648	65	4604
2026-01-06 11:13:55.33	38.40	47.21	-46.7	-49.2	23.9	6.06e-01	0	38	0	642252800	65	4683
2026-01-06 11:13:56.33	37.78	47.04	-46.7	-49.1	24.0	6.09e-01	0	38	0	644349952	65	4646
2026-01-06 11:13:57.34	37.17	46.86	-46.7	-49.3	23.9	6.06e-01	0	39	0	645922816	65	4706
2026-01-06 11:13:58.34	36.56	46.67	-46.5	-49.0	24.2	6.06e-01	0	39	0	648019968	65	4571
2026-01-06 11:13:59.34	35.97	46.49	-46.5	-49.1	24.1	6.05e-01	0	38	0	649592832	65	4601
2026-01-06 11:14:00.35	35.37	46.30	-46.6	-49.1	24.0	6.07e-01	0	39	0	651689984	65	4648
2026-01-06 11:14:01.35	34.79	46.11	-46.5	-49.1	24.1	6.07e-01	0	39	0	653787136	65	4625
2026-01-06 11:14:02.35	34.21	45.92	-46.6	-49.2	24.0	6.07e-01	0	38	0	655360000	65	4685
2026-01-06 11:14:03.35	33.65	45.72	-46.5	-49.1	24.1	6.08e-01	0	39	0	657457152	65	4599
2026-01-06 11:14:04.36	33.08	45.52	-46.8	-49.4	23.8	6.06e-01	0	38	0	659030016	64	5067
2026-01-06 11:14:05.36	32.53	45.33	-46.5	-49.1	24.0	6.06e-01	0	38	0	661127168	64	4906
2026-01-06 11:14:06.36	31.98	45.13	-46.7	-49.4	23.8	6.09e-01	0	38	0	662700032	64	5051
2026-01-06 11:14:07.37	31.44	44.92	-46.7	-49.5	23.7	6.09e-01	0	38	0	664797184	64	5101
2026-01-06 11:14:08.37	30.90	44.72	-46.5	-49.2	24.0	6.07e-01	0	38	0	666894336	64	4940
2026-01-06 11:14:09.38	30.37	44.51	-46.6	-49.2	23.9	6.06e-01	0	38	0	668467200	64	4983
2026-01-06 11:14:10.37	29.86	44.31	-46.5	-49.1	24.0	6.06e-01	0	38	0	670564352	64	4871
2026-01-06 11:14:11.38	29.34	44.10	-46.6	-49.2	24.0	6.06e-01	0	38	0	672137216	64	4935
2026-01-06 11:14:12.38	28.84	43.89	-46.7	-49.3	23.9	6.07e-01	0	39	0	674234368	64	5031
2026-01-06 11:14:13.39	28.33	43.68	-46.5	-49.1	24.1	6.09e-01	0	39	0	676331520	64	4892
2026-01-06 11:14:14.39	27.84	43.46	-46.6	-49.2	24.0	6.06e-01	0	38	0	677904384	64	4949
2026-01-06 11:14:15.40	27.35	43.25	-46.8	-49.4	23.8	6.07e-01	0	38	0	680001536	64	5076
2026-01-06 11:14:16.40	26.88	43.04	-46.8	-49.4	23.7	6.07e-01	0	38	0	681574400	64	5080
2026-01-06 11:14:17.40	26.40	42.82	-47.0	-49.6	23.5	6.06e-01	0	39	0	683671552	64	5202
2026-01-06 11:14:18.40	25.94	42.61	-47.0	-49.7	23.3	6.09e-01	0	39	0	685768704	64	5255
2026-01-06 11:14:19.40	25.48	42.39	-47.0	-49.6	23.5	6.06e-01	0	39	0	687341568	64	5216
2026-01-06 11:14:20.41	25.02	42.17	-47.3	-50.0	23.2	6.06e-01	0	38	0	689438720	65	5130
2026-01-06 11:14:21.41	24.58	41.95	-47.4	-50.1	23.1	6.05e-01	0	39	0	691011584	65	5191
2026-01-06 11:14:22.41	24.14	41.74	-47.4	-50.1	23.1	6.05e-01	0	38	0	693108736	65	5206
2026-01-06 11:14:23.42	23.70	41.51	-47.4	-50.1	23.1	6.05e-01	0	38	0	694681600	65	5206
2026-01-06 11:14:24.42	23.27	41.30	-47.5	-50.2	23.0	6.06e-01	0	38	0	696778752	65	5245
2026-01-06 11:14:25.42	22.85	41.08	-47.6	-50.3	22.9	6.07e-01	0	38	0	698875904	65	5293
2026-01-06 11:14:26.43	22.43	40.85	-47.6	-50.4	22.9	6.10e-01	0	38	0	700448768	65	5356
2026-01-06 11:14:27.43	22.02	40.64	-47.9	-50.7	22.6	6.08e-01	0	39	0	702545920	66	5230
2026-01-06 11:14:28.44	21.61	40.41	-48.0	-50.9	22.4	6.07e-01	0	39	0	704118784	66	5361
2026-01-06 11:14:29.44	21.21	40.19	-47.9	-50.8	22.5	6.08e-01	0	38	0	706215936	66	5297
2026-01-06 11:14:30.45	20.81	39.97	-47.6	-50.4	22.6	6.07e-01	0	38	0	708313088	66	5099
2026-01-06 11:14:31.45	20.42	39.75	-47.8	-50.7	22.5	6.07e-01	0	38	0	709885952	66	5223
2026-01-06 11:14:32.45	20.04	39.53	-48.3	-51.4	21.8	6.07e-01	0	39	0	711983104	67	5376
2026-01-06 11:14:33.45	19.66	39.31	-48.3	-51.4	21.9	6.08e-01	0	38	0	713555968	67	5360
2026-01-06 11:14:34.45	19.29	39.09	-48.2	-51.3	22.0	6.08e-01	0	39	0	715653120	67	5339
2026-01-06 11:14:35.46	18.92	38.87	-48.1	-51.2	22.1	6.07e-01	0	39	0	717750272	67	5228
2026-01-06 11:14:36.46	18.56	38.65	-48.0	-51.0	22.4	6.08e-01	0	38	0	719323136	67	5110
2026-01-06 11:14:37.47	18.20	38.43	-47.8	-50.7	22.6	6.08e-01	0	38	0	721420288	67	4948
2026-01-06 11:14:38.47	17.85	38.21	-48.2	-51.2	22.2	6.05e-01	0	39	0	722993152	67	5229
2026-01-06 11:14:39.47	17.50	37.99	-48.3	-51.3	22.0	6.08e-01	0	39	0	725090304	67	5311
2026-01-06 11:14:40.48	17.15	37.77	-47.8	-50.8	22.5	6.07e-01	0	39	0	726663168	67	5031
2026-01-06 11:14:41.48	16.82	37.55	-47.7	-50.8	22.5	6.06e-01	0	39	0	728760320	67	5005
2026-01-06 11:14:42.48	16.48	37.33	-48.1	-51.5	21.8	6.07e-01	0	38	0	730857472	67	5432
2026-01-06 11:14:43.49	16.15	37.11	-48.1	-51.6	21.7	6.06e-01	0	38	0	732430336	67	5470
2026-01-06 11:14:44.49	15.83	36.89	-47.9	-51.1	22.2	6.07e-01	0	38	0	734527488	67	5187
2026-01-06 11:14:45.50	15.51	36.68	-47.8	-51.1	22.1	6.07e-01	0	39	0	736100352	67	5187
2026-01-06 11:14:46.50	15.19	36.46	-47.8	-51.2	22.0	6.07e-01	0	38	0	738197504	67	5220
2026-01-06 11:14:47.50	14.88	36.25	-47.6	-50.7	22.5	6.08e-01	0	39	0	740294656	67	4950
2026-01-06 11:14:48.51	14.57	36.03	-47.4	-50.3	23.0	6.06e-01	0	38	0	741867520	66	4995
2026-01-06 11:14:49.51	14.27	35.81	-47.6	-50.5	22.8	6.08e-01	0	39	0	743964672	66	5102
2026-01-06 11:14:50.51	13.97	35.60	-47.9	-50.8	22.5	6.06e-01	0	38	0	745537536	66	5295
2026-01-06 11:14:51.51	13.68	35.39	-47.5	-50.2	23.0	6.07e-01	0	38	0	747634688	66	4963
2026-01-06 11:14:52.52	13.38	35.17	-47.3	-50.0	23.2	6.07e-01	0	39	0	749207552	66	4825
2026-01-06 11:14:53.52	13.10	34.96	-47.6	-50.4	22.8	6.07e-01	0	39	0	751304704	66	5065
2026-01-06 11:14:54.52	12.81	34.75	-47.9	-50.8	22.4	6.05e-01	0	39	0	753401856	66	5312
2026-01-06 11:14:55.52	12.53	34.54	-47.2	-49.9	23.2	6.07e-01	0	39	0	754974720	66	4777
2026-01-06 11:14:56.53	12.26	34.33	-46.7	-49.3	23.7	6.08e-01	0	39	0	757071872	65	4746
2026-01-06 11:14:57.53	11.99	34.12	-46.8	-49.6	23.5	6.07e-01	0	39	0	759169024	65	4874
2026-01-06 11:14:58.54	11.71	33.91	-47.0	-50.0	23.1	6.07e-01	0	38	0	760741888	65	5152
2026-01-06 11:14:59.54	11.45	33.71	-46.9	-49.9	23.2	6.08e-01	0	39	0	762839040	65	5048
2026-01-06 11:15:00.54	11.19	33.50	-46.6	-49.5	23.5	6.08e-01	0	39	0	764411904	65	4864
2026-01-06 11:15:01.55	10.93	33.29	-46.6	-49.4	23.7	6.09e-01	0	39	0	766509056	65	4775
2026-01-06 11:15:02.55	10.68	33.09	-46.7	-49.4	22.2	6.09e-01	0	39	0	768081920	65	4772
2026-01-06 11:15:03.55	10.43	32.89	-46.7	-49.3	23.7	6.05e-01	0	38	0	770179072	65	4755
2026-01-06 11:15:04.56	10.18	32.68	-46.6	-49.2	23.8	6.08e-01	0	38	0	772276224	65	4675
2026-01-06 11:15:05.56	9.93	32.48	-46.7	-49.3	23.8	6.06e-01	0	39	0	773849088	65	4720
2026-01-06 11:15:06.56	9.69	32.28	-46.7	-49.3	23.7	6.06e-01	0	39	0	775946240	65	4735
2026-01-06 11:15:07.57	9.45	32.08	-46.8	-49.4	23.6	6.05e-01	0	39	0	777519104	65	4767
2026-01-06 11:15:08.57	9.21	31.88	-46.7	-49.3	23.6	6.06e-01	0	39	0	779616256	65	4710
2026-01-06 11:15:09.57	8.98	31.68	-46.7	-49.3	23.7	6.09e-01	0	38	0	781189120	65	4729
2026-01-06 11:15:10.57	8.75	31.48	-46.7	-49.3	23.6	6.03e-01	0	38	0	783286272	65	4717
2026-01-06 11:15:11.58	8.52	31.28	-46.8	-49.4	23.6	6.08e-01	0	39	0	785383424	65	4768
2026-01-06 11:15:12.58	8.30	31.09	-46.8	-49.4	23.6	6.06e-01	0	39	0	786956288	65	4797
2026-01-06 11:15:13.58	8.08	30.89	-46.5	-49.2	23.8	6.07e-01	0	39	0	789053440	65	4679
2026-01-06 11:15:14.58	7.86	30.70	-46.5	-49.2	23.7	6.07e-01	0	38	0	791150592	65	4669
2026-01-06 11:15:15.59	7.65	30.51	-46.3	-48.9	23.8	6.06e-01	0	39	0	792723456	64	4810
2026-01-06 11:15:16.59	7.43	30.31	-46.2	-48.8	24.1	6.05e-01	0	39	0	794820608	64	4732
2026-01-06 11:15:17.59	7.22	30.12	-46.4	-49.0	23.9	6.09e-01	0	39	0	796393472	64	4857
2026-01-06 11:15:18.60	7.01	29.93	-46.4	-49.0	23.3	6.06e-01	0	39	0	798490624	64	4849
2026-01-06 11:15:19.60	6.81	29.74	-46.4	-49.0	23.9	6.06e-01	0	39	0	800063488	64	4845
2026-01-06 11:15:20.60	6.61	29.55	-46.4	-49.0	23.9	6.06e-01	0	39	0	802160640	64	4843
2026-01-06 11:15:21.61	6.41	29.37	-46.4	-48.9	23.9	6.09e-01	0	38	0	804257792	64	4794
2026-01-06 11:15:22.61	6.21	29.18	-46.5	-49.1	23.9	6.06e-01	0	38	0	805830656	64	4895
2026-01-06 11:15:23.61	6.01	28.99	-46.6	-49.2	23.8	6.06e-01	0	38	0	807927808	64	4973
2026-01-06 11:15:24.62	5.82	28.81	-46.5	-49.1	23.9	6.09e-01	0	38	0	809500672	64	4876
2026-01-06 11:15:25.62	5.63	28.63	-46.5	-49.0	24.0	6.04e-01	0	38	0	811597824	64	4856
2026-01-06 11:15:26.62	5.44	28.44	-46.3	-48.8	24.2	6.05e-01	0	38	0	813170688	64	4706
2026-01-06 11:15:27.63	5.25	28.26	-46.5	-49.0	24.0	6.07e-01	0	38	0	815267840	64	4816
2026-01-06 11:15:28.63	5.07	28.08	-46.7	-49.3	23.7	6.07e-01	0	39	0	817364992	64	5025
2026-01-06 11:15:29.63	4.89	27.90	-46.9	-49.5	23.5	6.06e-01	0	39	0	818937856	64	5150
2026-01-06 11:15:30.64	4.71	27.72	-46.8	-49.4	23.6	6.07e-01	0	39	0	821035008	64	5071
2026-01-06 11:15:31.64	4.53	27.54	-46.7	-49.2	23.9	6.06e-01	0	39	0	822607872	64	4936
2026-01-06 11:15:32.64	4.36	27.37	-46.6	-49.1	23.9	6.05e-01	0	39	0	824705024	64	4900
2026-01-06 11:15:33.65	4.18	27.19	-46.7	-49.2	23.9	6.09e-01	0	39	0	826802176	64	4940
2026-01-06 11:15:34.65	4.01	27.01	-46.7	-49.3	23.5	6.05e-01	0	39	0	828375040	64	5011
2026-01-06 11:15:35.65	3.84	26.84	-46.8	-49.4	23.6	6.06e-01	0	38	0	830472192	64	5072
2026-01-06 11:15:36.65	3.68	26.67	-46.7	-49.4	23.6	6.08e-01	0	38	0	832045056	64	5079
2026-01-06 11:15:37.66	3.51	26.49	-46.7	-49.4	23.8	6.06e-01	0	38	0	834142208	64	5051
2026-01-06 11:15:38.66	3.35	26.32	-46.8	-49.5	23.6	6.06e-01	0	38	0	836239360	64	5131
2026-01-06 11:15:39.67	3.18	26.15	-46.9	-49.7	23.4	6.04e-01	0	39	0	837812224	64	5227
2026-01-06 11:15:40.67	3.02	25.98	-46.9	-49.6	23.5	6.02e-01	0	39	0	839909376	64	5176
2026-01-06 11:15:41.67	2.87	25.81	-46.9	-49.6	23.6	6.03e-01	0	38	0	841482240	64	5177
2026-01-06 11:15:42.67	2.71	25.65	-46.9	-49.6	23.5	6.03e-01	0	39	0	843579392	64	5179
2026-01-06 11:15:43.68	2.55	25.48	-46.7	-49.3	23.7	6.03e-01	0	38	0	845152256	64	5036
2026-01-06 11:15:44.68	2.40	25.31	-46.7	-49.4	23.6	6.03e-01	0	38	0	847249408	64	5097
2026-01-06 11:15:45.69	2.25	25.15	-46.7	-49.6	23.5	6.04e-01	0	39	0	849346560	64	5163
2026-01-06 11:15:46.69	2.10	24.98	-46.8	-49.8	23.4	6.05e-01	0	39	0	850919424	64	5282
2026-01-06 11:15:47.69	1.95	24.82	-46.9	-49.9	23.3	6.02e-01	0	39	0	853016576	64	5342
2026-01-06 11:15:48.70	1.81	24.66	-46.9	-49.9	23.2	6.01e-01	0	38	0	854589440	64	5378
2026-01-06 11:15:49.70	1.66	24.50	-46.9	-49.9	23.2	6.05e-01	0	39	0	856686592	64	5363
2026-01-06 11:15:50.70	1.52	24.34	-47.0	-49.9	23.2	6.04e-01	0	39	0	858783744	64	5392
2026-01-06 11:15:51.71	1.38	24.17	-47.0	-49.8	23.3	6.04e-01	0	39	0	860356608	64	5301
2026-01-06 11:15:52.71	1.24	24.02	-46.9	-49.6	23.5	6.04e-01	0	39	0	862453760	64	5166
2026-01-06 11:15:53.71	1.10	23.86	-46.8	-49.4	23.7	6.06e-01	0	39	0	864026624	64	5094
2026-01-06 11:15:54.72	0.96	23.70	-46.8	-49.4	23.6	6.04e-01	0	38	0	866123776	64	5092
2026-01-06 11:15:55.72	0.82	23.54	-46.8	-49.5	23.5	5.99e-01	0	39	0	867696640	64	5156
2026-01-06 11:15:56.73	0.69	23.39	-46.8	-49.5	23.5	6.04e-01	0	38	0	869793792	64	5157
2026-01-06 11:15:57.73	0.56	23.23	-46.8	-49.7	23.4	6.05e-01	0	39	0	871890944	64	5251
2026-01-06 11:15:58.73	0.43	23.08	-46.7	-49.8	23.3	6.03e-01	0	38	0	873463808	64	5307
2026-01-06 11:15:59.73	0.30	22.93	-46.8	-49.9	23.2	6.02e-01	0	38	0	875560960	64	5367
2026-01-06 11:16:00.74	0.17	22.78	-46.7	-49.7	23.4	6.02e-01	0	39	0	877658112	64	5269
2026-01-06 11:16:01.74	0.04	22.62	-46.8	-49.9	23.2	6.05e-01	0	38	0	879230976	64	5343
2026-01-06 11:16:02.75	359.91	22.47	-47.0	-49.9	23.2	6.03e-01	0	39	0	881328128	64	5387
2026-01-06 11:16:03.75	359.79	22.32	-47.1	-50.0	23.2	6.01e-01	0	38	0	882900992	64	5403
2026-01-06 11:16:04.75	359.67	22.18	-47.3	-50.0	23.1	6.03e-01	0	38	0	884998144	65	5144
2026-01-06 11:16:05.76	359.54	22.03	-47.2	-49.9	23.2	6.02e-01	0	39	0	886571008	65	5081
2026-01-06 11:16:06.76	359.42	21.88	-47.3	-50.0	23.2	6.01e-01	0	39	0	888668160	65	5117
2026-01-06 11:16:07.77	359.30	21.73	-47.0	-49.8	23.3	6.01e-01	0	38	0	890765312	65	5019
2026-01-06 11:16:08.77	359.18	21.59	-46.9	-49.8	23.3	6.02e-01	0	38	0	892338176	65	5038
2026-01-06 11:16:09.77	359.07	21.44	-46.8	-49.7	23.4	6.03e-01	0	38	0	894435328	65	4981
2026-01-06 11:16:10.77	358.95	21.30	-46.9	-49.8	23.2	6.02e-01	0	39	0	896008192	65	5033
2026-01-06 11:16:11.78	358.84	21.16	-47.1	-50.0	23.1	6.01e-01	0	38	0	898105344	65	5129
2026-01-06 11:16:12.78	358.72	21.01	-47.0	-49.9	23.2	6.02e-01	0	38	0	900202496	65	5067
2026-01-06 11:16:13.79	358.61	20.87	-47.1	-49.8	23.3	6.03e-01	0	39	0	901775360	65	5026
2026-01-06 11:16:14.79	358.50	20.73	-47.1	-49.8	23.3	6.02e-01	0	39	0	903872512	65	5029
2026-01-06 11:16:15.80	358.39	20.59	-46.9	-49.7	23.4	6.04e-01	0	39	0	905445376	65	4939
2026-01-06 11:16:16.80	358.28	20.45	-46.9	-49.7	23.5	6.05e-01	0	39	0	907542528	65	4935
2026-01-06 11:16:17.80	358.17	20.31	-46.7	-49.5	23.6	6.03e-01	0	39	0	909639680	65	4848
2026-01-06 11:16:18.81	358.06	20.17	-46.7	-49.6	23.5	6.03e-01	0	39	0	911212544	65	4883
2026-01-06 11:16:19.81	357.96	20.04	-46.7	-49.5	23.5	6.04e-01	0	38	0	913309696	65	4866
2026-01-06 11:16:20.81	357.85	19.90	-46.8	-49.6	23.5	6.03e-01	0	38	0	914882560	65	4885
2026-01-06 11:16:21.82	357.75	19.76	-46.9	-49.6	23.4	6.04e-01	0	38	0	916979712	65	4898
2026-01-06 11:16:22.82	357.65	19.63	-47.0	-49.7	23.4	6.03e-01	0	39	0	918552576	65	4960
2026-01-06 11:16:23.82	357.54	19.49	-46.9	-49.7	23.4	6.02e-01	0	38	0	920649728	65	4935
2026-01-06 11:16:24.83	357.44	19.36	-47.0	-49.8	23.3	6.04e-01	0	38	0	922746880	65	5040
2026-01-06 11:16:25.83	357.34	19.23	-46.9	-49.9	23.2	6.02e-01	0	39	0	924319744	65	5088
2026-01-06 11:16:26.83	357.24	19.09	-46.6	-49.7	23.3	6.03e-01	0	39	0	926416896	65	4979
2026-01-06 11:16:27.84	357.14	18.96	-46.5	-49.8	23.2	6.03e-01	0	39	0	927989760	65	5036
2026-01-06 11:16:28.84	357.05	18.83	-46.5	-49.9	23.1	6.02e-01	0	38	0	930086912	65	5076
2026-01-06 11:16:29.84	356.95	18.70	-46.4	-49.8	23.2	6.03e-01	0	39	0	932184064	64	5293
2026-01-06 11:16:30.85	356.85	18.57	-46.5	-49.8	23.2	6.05e-01	0	38	0	933756928	64	5287
2026-01-06 11:16:31.85	356.76	18.44	-46.6	-49.8	23.2	6.02e-01	0	39	0	935854080	64	5331
2026-01-06 11:16:32.85	356.67	18.31	-46.5	-49.7	23.3	6.02e-01	0	39	0	937426944	64	5231
2026-01-06 11:16:33.86	356.57	18.19	-46.5	-49.6	23.3	6.02e-01	0	39	0	939524096	64	5203
2026-01-06 11:16:34.86	356.48	18.06	-46.6	-49.6	23.3	6.03e-01	0	39	0	941621248	64	5213
2026-01-06 11:16:35.87	356.39	17.93	-46.5	-49.6	23.4	6.01e-01	0	39	0	943194112	64	5188
2026-01-06 11:16:36.87	356.30	17.81	-46.3	-49.5	23.5	6.02e-01	0	38	0	945291264	64	5108
2026-01-06 11:16:37.87	356.21	17.68	-46.4	-49.6	23.3	6.04e-01	0	39	0	946864128	64	5215
2026-01-06 11:16:38.88	356.12	17.56	-46.1	-49.5	23.5	6.04e-01	0	38	0	948961280	64	5146
2026-01-06 11:16:39.88	356.03	17.43	-46.1	-49.5	23.5	6.04e-01	0	39	0	951058432	64	5115
2026-01-06 11:16:40.88	355.95	17.31	-46.2	-49.6	23.3	6.05e-01	0	39	0	952631296	64	5185
2026-01-06 11:16:41.89	355.86	17.19	-46.2	-49.5	23.5	6.01e-01	0	39	0	954728448	64	5102
2026-01-06 11:16:42.89	355.77	17.07	-46.5	-49.5	23.4	6.01e-01	0	38	0	956301312	64	5110
2026-01-06 11:16:43.90	355.69	16.94	-46.7	-49.5	23.4	6.02e-01	0	39	0	958398464	64	5135
2026-01-06 11:16:44.90	355.61	16.82	-46.7	-49.5	23.4	6.04e-01	0	38	0	959971328	64	5117
2026-01-06 11:16:45.91	355.52	16.70	-46.8	-49.5	23.4	6.03e-01	0	38	0	962068480	64	5130
2026-01-06 11:16:46.91	355.44	16.58	-47.0	-49.6	23.3	6.03e-01	0	39	0	964165632	64	5218
2026-01-06 11:16:47.90	355.36	16.47	-47.0	-49.7	23.2	6.03e-01	0	38	0	965738496	64	5257
2026-01-06 11:16:48.90	355.28	16.35	-46.8	-49.4	23.4	6.03e-01	0	39	0	967835648	64	5087
2026-01-06 11:16:49.91	355.20	16.23	-46.7	-49.5	23.4	6.04e-01	0	39	0	969408512	64	5135
2026-01-06 11:16:50.91	355.12	16.11	-46.7	-49.5	23.4	6.03e-01	0	39	0	971505664	64	5153
2026-01-06 11:16:51.91	355.04	16.00	-46.7	-49.6	23.3	6.01e-01	0	38	0	973602816	64	5187
2026-01-06 11:16:52.91	354.96	15.88	-46.6	-49.6	23.4	6.04e-01	0	38	0	975175680	64	5194
2026-01-06 11:16:53.92	354.88	15.76	-46.7	-49.8	23.2	6.02e-01	0	39	0	977272832	64	5280
2026-01-06 11:16:54.92	354.80	15.65	-46.7	-49.7	23.3	6.03e-01	0	39	0	978845696	64	5235
2026-01-06 11:16:55.92	354.73	15.53	-46.9	-49.7	23.1	6.02e-01	0	39	0	980942848	64	5273
2026-01-06 11:16:56.93	354.65	15.42	-46.9	-49.7	23.0	6.01e-01	0	39	0	983040000	64	5254
2026-01-06 11:16:57.93	354.58	15.31	-47.0	-49.8	23.1	6.05e-01	0	38	0	984612864	64	5334
2026-01-06 11:16:58.93	354.50	15.19	-47.1	-50.0	22.9	6.02e-01	0	39	0	986710016	64	5416
2026-01-06 11:16:59.94	354.43	15.08	-47.1	-49.9	23.1	6.03e-01	0	39	0	988282880	64	5356
2026-01-06 11:17:00.94	354.36	14.97	-47.0	-49.8	23.0	6.02e-01	0	39	0	990380032	64	5332
2026-01-06 11:17:01.94	354.28	14.86	-46.9	-49.9	23.0	6.02e-01	0	39	0	991952896	64	5363
2026-01-06 11:17:02.95	354.21	14.75	-46.7	-49.8	23.1	6.04e-01	0	39	0	994050048	64	5281
2026-01-06 11:17:03.95	354.14	14.64	-46.7	-49.7	23.2	6.03e-01	0	39	0	996147200	64	5231
2026-01-06 11:17:04.95	354.07	14.53	-46.7	-49.8	23.1	6.03e-01	0	39	0	997720064	64	5293
2026-01-06 11:17:05.96	354.00	14.42	-46.7	-49.6	23.3	6.03e-01	0	39	0	999817216	64	5185
2026-01-06 11:17:06.96	353.93	14.31	-46.9	-49.7	23.2	6.02e-01	0	39	0	1001390080	64	5220
2026-01-06 11:17:07.96	353.86	14.20	-46.9	-49.6	23.3	6.01e-01	0	39	0	1003487232	64	5217
2026-01-06 11:17:08.97	353.79	14.09	-47.0	-49.7	23.2	6.03e-01	0	39	0	1005584384	64	5253
2026-01-06 11:17:09.97	353.72	13.99	-47.0	-49.8	23.1	6.04e-01	0	39	0	1007157248	64	5293
2026-01-06 11:17:10.98	353.66	13.88	-47.1	-50.0	23.0	6.02e-01	0	39	0	1009254400	64	5416
2026-01-06 11:17:11.98	353.59	13.77	-47.0	-49.9	23.0	6.06e-01	0	38	0	1010827264	64	5344
2026-01-06 11:17:12.99	353.52	13.67	-46.9	-49.7	23.1	5.99e-01	0	39	0	1012924416	64	5248
2026-01-06 11:17:13.99	353.46	13.56	-46.8	-49.8	23.1	6.04e-01	0	38	0	1015021568	64	5290
2026-01-06 11:17:14.99	353.39	13.46	-46.6	-49.7	23.0	6.03e-01	0	38	0	1016594432	64	5245
2026-01-06 11:17:16.00	353.33	13.35	-46.2	-49.8	22.9	6.05e-01	0	39	0	1018691584	64	5329
2026-01-06 11:17:17.00	353.26	13.25	-45.9	-49.9	22.9	6.03e-01	0	39	0	1020264448	63	5681
2026-01-06 11:17:18.01	353.20	13.14	-45.7	-49.9	22.9	6.03e-01	0	39	0	1022361600	63	5672
2026-01-06 11:17:19.01	353.14	13.04	-45.6	-49.8	23.0	6.05e-01	0	39	0	1023934464	63	5628
2026-01-06 11:17:20.01	353.07	12.94	-45.7	-49.9	22.9	6.02e-01	0	38	0	1026031616	63	5711
2026-01-06 11:17:21.02	353.01	12.84	-45.8	-50.0	22.9	6.02e-01	0	39	0	1028128768	63	5761
2026-01-06 11:17:22.02	352.95	12.73	-46.0	-50.1	22.9	6.03e-01	0	39	0	1029701632	63	5793
2026-01-06 11:17:23.03	352.89	12.63	-46.0	-49.9	22.9	6.02e-01	0	38	0	1031798784	63	5708
2026-01-06 11:17:24.03	352.83	12.53	-46.0	-49.9	23.1	6.03e-01	0	38	0	1033371648	63	5666
2026-01-06 11:17:25.03	352.77	12.43	-46.2	-50.0	22.9	6.05e-01	0	39	0	1035468800	63	5749
2026-01-06 11:17:26.03	352.71	12.33	-46.3	-50.0	22.9	6.03e-01	0	39	0	1037565952	63	5760
2026-01-06 11:17:27.04	352.65	12.23	-46.3	-50.0	23.0	6.01e-01	0	39	0	1039138816	63	5726
2026-01-06 11:17:28.05	352.59	12.13	-46.4	-50.0	23.0	6.03e-01	0	39	0	1041235968	63	5741
2026-01-06 11:17:29.05	352.53	12.03	-46.5	-50.1	22.8	6.01e-01	0	39	0	1042808832	63	5827
2026-01-06 11:17:30.05	352.47	11.94	-46.5	-50.1	22.9	6.03e-01	0	38	0	1044905984	63	5806
2026-01-06 11:17:31.06	352.41	11.84	-46.5	-50.2	22.8	6.06e-01	0	39	0	1046478848	63	5870
2026-01-06 11:17:32.06	352.36	11.74	-46.6	-50.4	22.6	6.02e-01	0	38	0	1048576000	63	6014
2026-01-06 11:17:33.06	352.30	11.64	-46.2	-50.2	22.7	6.06e-01	0	38	0	1050673152	63	5900
2026-01-06 11:17:34.07	352.24	11.55	-46.2	-50.3	22.6	6.03e-01	0	39	0	1052246016	63	5967
2026-01-06 11:17:35.07	352.19	11.45	-46.2	-50.4	22.5	6.02e-01	0	39	0	1054343168	63	6024
2026-01-06 11:17:36.08	352.13	11.35	-46.1	-50.5	22.4	6.03e-01	0	38	0	1056440320	63	6103
2026-01-06 11:17:37.08	352.08	11.26	-45.9	-50.5	22.4	6.03e-01	0	39	0	1058013184	63	6128
2026-01-06 11:17:38.08	352.02	11.16	-45.7	-50.5	22.4	6.02e-01	0	39	0	1060110336	63	6073
2026-01-06 11:17:39.09	351.97	11.07	-45.6	-50.5	22.5	6.04e-01	0	39	0	1061683200	63	6069
2026-01-06 11:17:40.09	351.92	10.97	-45.6	-50.5	22.4	6.04e-01	0	39	0	1063780352	63	6105
2026-01-06 11:17:41.09	351.86	10.88	-45.6	-50.6	22.3	5.99e-01	0	39	0	1065353216	63	6171
2026-01-06 11:17:42.09	351.81	10.79	-45.5	-50.5	22.4	6.02e-01	0	38	0	1067450368	63	6125
2026-01-06 11:17:43.09	351.76	10.69	-45.5	-50.5	22.3	6.03e-01	0	39	0	1069547520	63	6120
2026-01-06 11:17:44.10	351.70	10.60	-45.6	-50.5	22.4	6.05e-01	0	39	0	1071120384	63	6072
2026-01-06 11:17:45.10	351.65	10.51	-45.7	-50.5	22.4	6.04e-01	0	39	0	1073217536	63	6113
2026-01-06 11:17:46.10	351.60	10.42	-45.7	-50.4	22.5	6.02e-01	0	39	0	1074790400	63	6026
2026-01-06 11:17:47.10	351.55	10.32	-45.7	-50.5	22.4	6.03e-01	0	39	0	1076887552	63	6062
2026-01-06 11:17:48.11	351.50	10.23	-45.9	-50.4	22.5	6.02e-01	0	39	0	1078460416	63	6024
2026-01-06 11:17:49.11	351.45	10.14	-46.4	-50.5	22.4	6.03e-01	0	39	0	1080557568	63	6077
2026-01-06 11:17:50.11	351.40	10.05	-46.2	-50.3	22.5	6.04e-01	0	39	0	1082654720	63	5987
2026-01-06 11:17:51.11	351.35	9.96	-46.6	-50.5	22.3	6.06e-01	0	39	0	1084227584	63	6109
2026-01-06 11:17:52.12	351.30	9.87	-46.7	-50.6	22.3	6.06e-01	0	39	0	1086324736	64	5802
2026-01-06 11:17:53.12	351.25	9.78	-46.8	-50.6	22.2	6.02e-01	0	39	0	1088421888	64	5845
2026-01-06 11:17:54.12	351.20	9.69	-46.9	-50.6	22.1	6.04e-01	0	39	0	1089994752	64	5816
2026-01-06 11:17:55.13	351.16	9.60	-46.9	-50.7	22.1	6.06e-01	0	39	0	1092091904	64	5874
2026-01-06 11:17:56.13	351.11	9.51	-47.0	-50.7	22.1	6.02e-01	0	39	0	1093664768	64	5894
2026-01-06 11:17:57.14	351.06	9.42	-47.1	-50.7	22.0	6.03e-01	0	39	0	1095761920	64	5914
2026-01-06 11:17:58.14	351.01	9.34	-47.1	-50.7	22.1	6.03e-01	0	39	0	1097334784	64	5907
2026-01-06 11:17:59.14	350.97	9.25	-47.3	-50.9	21.9	6.02e-01	0	39	0	1099431936	65	5718
2026-01-06 11:18:00.15	350.92	9.16	-47.4	-50.8	21.9	6.03e-01	0	38	0	1101529088	65	5651
2026-01-06 11:18:01.15	350.87	9.07	-47.4	-50.8	22.0	6.03e-01	0	39	0	1103101952	65	5655
2026-01-06 11:18:02.15	350.83	8.99	-47.1	-50.7	22.0	6.05e-01	0	39	0	1105199104	65	5585
2026-01-06 11:18:03.16	350.78	8.90	-49.5	-67.4	5.8	6.92e-01	0	39	0	1106771968	71	26879
2026-01-06 11:18:04.16	350.74	8.81	-53.4	-75.5	4.0	7.37e-01	0	38	104	1106771968	77	48592
2026-01-06 11:18:05.16	350.69	8.73	-52.5	-74.5	3.8	7.47e-01	0	39	104	1106771968	76	45679
2026-01-06 11:18:06.17	350.65	8.64	-53.0	-74.8	3.9	7.43e-01	0	38	104	1106771968	76	47220
2026-01-06 11:18:07.17	350.60	8.56	-54.0	-74.6	3.8	7.46e-01	0	39	104	1106771968	78	41453
2026-01-06 11:18:08.18	350.56	8.47	-53.7	-74.8	3.8	7.48e-01	0	39	104	1106771968	78	41946
2026-01-06 11:18:09.18	350.52	8.39	-54.1	-74.8	3.8	7.47e-01	0	39	104	1106771968	79	39789
2026-01-06 11:18:10.19	350.47	8.30	-54.2	-74.7	3.8	7.43e-01	0	39	104	1106771968	80	37358
2026-01-06 11:18:11.19	350.43	8.22	-53.7	-74.9	3.8	7.46e-01	0	39	104	1106771968	78	42496
2026-01-06 11:18:12.19	350.39	8.14	-53.6	-74.9	3.8	7.47e-01	0	39	104	1106771968	78	42564
2026-01-06 11:18:13.20	350.34	8.05	-54.3	-74.9	3.8	7.44e-01	0	39	104	1106771968	79	40201
2026-01-06 11:18:14.20	350.30	7.97	-54.4	-74.9	3.8	7.44e-01	0	39	104	1106771968	79	40207
2026-01-06 11:18:15.21	350.26	7.89	-53.4	-74.9	3.8	7.45e-01	0	39	104	1106771968	78	42716
2026-01-06 11:18:16.21	350.22	7.80	-54.0	-74.8	3.8	7.48e-01	0	39	104	1106771968	80	37795
2026-01-06 11:18:17.22	350.18	7.72	-54.4	-74.9	3.8	7.43e-01	0	39	104	1106771968	79	40281
2026-01-06 11:18:18.22	350.13	7.64	-54.3	-74.8	3.8	7.47e-01	0	39	104	1106771968	80	37776
2026-01-06 11:18:19.23	350.09	7.56	-54.8	-74.9	3.8	7.47e-01	0	39	104	1106771968	80	37965
2026-01-06 11:18:20.23	350.05	7.48	-54.7	-74.8	3.8	7.45e-01	0	39	104	1106771968	80	37741
2026-01-06 11:18:21.23	350.01	7.40	-54.6	-74.9	3.8	7.46e-01	0	39	104	1106771968	80	37940
2026-01-06 11:18:22.24	349.97	7.31	-54.5	-74.8	3.8	7.48e-01	0	39	104	1106771968	80	37775
2026-01-06 11:18:23.24	349.93	7.23	-54.9	-74.9	3.8	7.46e-01	0	39	104	1106771968	80	37887
2026-01-06 11:18:24.25	349.89	7.15	-54.9	-74.9	3.8	7.48e-01	0	39	104	1106771968	80	37883
2026-01-06 11:18:25.25	349.85	7.07	-54.9	-74.9	3.8	7.47e-01	0	39	104	1106771968	80	37922
2026-01-06 11:18:26.25	349.82	6.99	-54.8	-74.9	3.8	7.45e-01	0	39	104	1106771968	80	37973
2026-01-06 11:18:27.26	349.78	6.91	-54.5	-74.9	3.8	7.45e-01	0	39	104	1106771968	80	37857
2026-01-06 11:18:28.27	349.74	6.83	-54.7	-74.8	3.8	7.46e-01	0	39	104	1106771968	80	37733
2026-01-06 11:18:29.27	349.70	6.76	-54.4	-74.8	3.8	7.48e-01	0	39	104	1106771968	80	37614
2026-01-06 11:18:30.27	349.66	6.68	-54.3	-74.8	3.8	7.48e-01	0	39	104	1106771968	80	37739
2026-01-06 11:18:31.28	349.62	6.60	-54.1	-74.8	3.8	7.46e-01	0	39	104	1106771968	80	37758
2026-01-06 11:18:32.28	349.59	6.52	-54.0	-74.9	3.8	7.48e-01	0	39	104	1106771968	79	40048
2026-01-06 11:18:33.29	349.55	6.44	-53.9	-74.8	3.8	7.48e-01	0	39	104	1106771968	79	40031
2026-01-06 11:18:34.29	349.51	6.36	-53.9	-74.9	3.8	7.48e-01	0	39	104	1106771968	79	40092
2026-01-06 11:18:35.30	349.48	6.29	-54.0	-74.8	3.8	7.47e-01	0	39	104	1106771968	79	39992
2026-01-06 11:18:36.30	349.44	6.21	-53.9	-74.8	3.8	7.47e-01	0	39	104	1106771968	79	39927
2026-01-06 11:18:37.31	349.40	6.13	-53.9	-74.8	3.8	7.44e-01	0	39	104	1106771968	79	39996
2026-01-06 11:18:38.31	349.37	6.05	-53.9	-74.8	3.8	7.47e-01	0	39	104	1106771968	79	40017
2026-01-06 11:18:39.31	349.33	5.98	-53.9	-74.8	3.8	7.45e-01	0	39	104	1106771968	79	39958
2026-01-06 11:18:40.32	349.29	5.90	-53.9	-74.8	3.8	7.47e-01	0	39	104	1106771968	79	39951
2026-01-06 11:18:41.32	349.26	5.83	-53.9	-74.8	3.8	7.46e-01	0	39	104	1106771968	79	40017
2026-01-06 11:18:42.32	349.22	5.75	-53.9	-74.8	3.8	7.47e-01	0	39	104	1106771968	79	39915
2026-01-06 11:18:43.33	349.19	5.67	-53.9	-74.8	3.8	7.46e-01	0	39	104	1106771968	79	39898
2026-01-06 11:18:44.33	349.15	5.60	-53.9	-74.8	3.8	7.45e-01	0	39	104	1106771968	79	39901
2026-01-06 11:18:45.34	349.12	5.52	-53.9	-74.8	3.8	7.45e-01	0	39	104	1106771968	79	39889
2026-01-06 11:18:46.34	349.09	5.45	-53.9	-74.8	3.8	7.48e-01	0	39	104	1106771968	79	39976
2026-01-06 11:18:47.35	349.05	5.37	-53.9	-74.8	3.8	7.47e-01	0	39	104	1106771968	79	39838
2026-01-06 11:18:48.35	349.02	5.30	-53.9	-74.8	3.8	7.43e-01	0	39	104	1106771968	79	39772
2026-01-06 11:18:49.36	348.98	5.22	-53.9	-74.8	3.8	7.47e-01	0	39	104	1106771968	79	39989
2026-01-06 11:18:50.36	348.95	5.15	-53.9	-74.8	3.8	7.46e-01	0	39	104	1106771968	79	39982
2026-01-06 11:18:51.36	348.92	5.08	-53.9	-74.8	3.8	7.44e-01	0	39	104	1106771968	79	39988
2026-01-06 11:18:52.37	348.88	5.00	-53.9	-74.8	3.8	7.47e-01	0	39	104	1106771968	79	39945

#Closed at: 2026-01-06 11:18:53
#Recorded file [1106 MB]: D:/Data/31040_260106_140747.dat