passes_logs/2026/01/06/T1/T1__20260106_100450_NOAA_21_JPSS-2_rec.log

#Pass ID: 20260106_100450_NOAA 21 (JPSS-2)
#Satellite: NOAA 21 (JPSS-2)
#Configuration: NOAA 21
#almurnet v.1.7.20251203
#Start time: 2026-01-06 10:04:50

#Version: 2.0.20230620
#Station: T1
#Location: 37.570604 lon 55.790049 lat
#TLE: 1 54234U 22150A   26005.21525222  .00000150  00000+0  91957-4 0  9992
#TLE: 2 54234  98.7490 306.2339 0001053 341.6032  18.5106 14.19532220163427

#Time	Az	El	Level	Level2	SNR	BER	BlckErr	Temp	State	Recorded	gain1	gain2
2026-01-06 10:04:50.41	165.13	4.99	-52.6	-65.9	3.8	1.49e+00	0	40	0	0	77	16108
2026-01-06 10:04:51.41	165.14	5.06	-51.7	-65.6	3.8	1.49e+00	0	40	104	0	74	18407
2026-01-06 10:04:52.41	165.15	5.13	-51.7	-65.6	3.8	1.49e+00	0	40	104	0	74	18349
2026-01-06 10:04:53.41	165.16	5.21	-51.7	-65.5	3.8	1.49e+00	0	41	104	0	74	18140
2026-01-06 10:04:54.41	165.17	5.28	-51.9	-65.6	3.8	1.49e+00	0	41	104	0	74	18502
2026-01-06 10:04:55.42	165.18	5.35	-51.7	-65.4	3.8	1.49e+00	0	40	104	0	74	18046
2026-01-06 10:04:56.42	165.19	5.42	-51.7	-65.4	3.8	1.49e+00	0	40	104	0	74	18049
2026-01-06 10:04:57.42	165.20	5.50	-51.7	-65.5	3.8	1.49e+00	0	41	104	0	74	18183
2026-01-06 10:04:58.42	165.21	5.57	-51.7	-65.5	3.8	1.49e+00	0	41	104	0	74	18300
2026-01-06 10:04:59.43	165.22	5.64	-51.7	-65.6	3.8	1.49e+00	0	41	104	0	74	18322
2026-01-06 10:05:00.43	165.23	5.72	-51.7	-65.7	3.8	1.49e+00	0	41	104	0	74	18534
2026-01-06 10:05:01.43	165.24	5.79	-51.7	-65.6	3.8	1.49e+00	0	41	104	0	74	18452
2026-01-06 10:05:02.43	165.25	5.87	-51.7	-65.5	3.8	1.49e+00	0	41	104	0	74	18203
2026-01-06 10:05:03.43	165.27	5.94	-51.7	-65.3	3.8	1.49e+00	0	41	104	0	74	17862
2026-01-06 10:05:04.43	165.28	6.01	-51.6	-65.1	3.8	1.49e+00	0	41	104	0	74	17460
2026-01-06 10:05:05.44	165.29	6.09	-51.6	-64.8	3.8	1.49e+00	0	41	104	0	74	16867
2026-01-06 10:05:06.44	165.30	6.16	-51.6	-64.6	3.8	1.49e+00	0	41	104	0	74	16330
2026-01-06 10:05:07.44	165.31	6.24	-51.5	-64.3	3.8	1.49e+00	0	41	104	0	74	15787
2026-01-06 10:05:08.44	165.32	6.31	-51.5	-64.0	3.8	1.49e+00	0	41	104	0	74	15364
2026-01-06 10:05:09.45	165.33	6.39	-51.5	-63.6	3.9	1.49e+00	0	41	104	0	74	14588
2026-01-06 10:05:10.45	165.34	6.47	-51.5	-63.7	3.9	1.49e+00	0	41	104	0	74	14841
2026-01-06 10:05:11.45	165.35	6.54	-51.5	-63.9	3.8	1.49e+00	0	41	104	0	74	15153
2026-01-06 10:05:12.45	165.36	6.62	-51.6	-64.1	3.8	1.49e+00	0	41	104	0	74	15470
2026-01-06 10:05:13.45	165.37	6.69	-51.6	-64.3	3.8	1.49e+00	0	41	104	0	74	15818
2026-01-06 10:05:14.45	165.39	6.77	-51.6	-64.6	3.8	1.49e+00	0	41	104	0	74	16391
2026-01-06 10:05:15.45	165.40	6.85	-51.6	-64.9	3.8	1.49e+00	0	41	104	0	74	17070
2026-01-06 10:05:16.46	165.41	6.93	-51.6	-65.2	3.8	1.49e+00	0	41	104	0	74	17507
2026-01-06 10:05:17.46	165.42	7.00	-51.6	-65.3	3.8	1.49e+00	0	41	104	0	74	17737
2026-01-06 10:05:18.46	165.43	7.08	-51.6	-65.3	3.8	1.49e+00	0	41	104	0	74	17804
2026-01-06 10:05:19.46	165.44	7.16	-51.6	-65.2	3.8	1.49e+00	0	41	104	0	74	17549
2026-01-06 10:05:20.46	165.45	7.24	-51.6	-64.9	3.8	1.49e+00	0	41	104	0	74	16986
2026-01-06 10:05:21.46	165.46	7.31	-51.6	-64.5	3.8	1.49e+00	0	41	104	0	74	16272
2026-01-06 10:05:22.46	165.48	7.39	-51.5	-64.0	3.8	1.49e+00	0	41	104	0	74	15354
2026-01-06 10:05:23.47	165.49	7.47	-51.5	-62.9	4.0	1.49e+00	0	41	104	0	74	13552
2026-01-06 10:05:24.47	165.50	7.55	-51.4	-62.0	4.1	1.47e+00	0	41	104	0	74	12211
2026-01-06 10:05:25.47	165.51	7.63	-51.3	-61.8	4.0	1.45e+00	0	41	104	0	74	11847
2026-01-06 10:05:26.48	165.52	7.71	-51.1	-60.1	5.0	1.13e+00	0	42	0	0	74	9813
2026-01-06 10:05:27.48	165.53	7.79	-51.0	-59.2	5.5	5.13e-01	0	41	0	0	73	9347
2026-01-06 10:05:28.48	165.55	7.87	-50.8	-58.4	6.1	3.53e-01	0	42	0	0	73	8540
2026-01-06 10:05:29.48	165.56	7.95	-50.6	-57.6	6.7	2.05e-01	0	42	0	0	73	7803
2026-01-06 10:05:30.49	165.57	8.03	-50.4	-57.1	7.3	1.31e-01	0	42	0	0	72	7740
2026-01-06 10:05:31.49	165.58	8.11	-50.2	-56.3	8.0	8.77e-02	0	41	0	0	72	7114
2026-01-06 10:05:32.49	165.59	8.19	-50.1	-56.0	8.3	5.19e-02	0	42	0	0	72	6819
2026-01-06 10:05:33.49	165.60	8.28	-50.1	-55.9	8.4	4.75e-02	0	42	0	0	72	6782
2026-01-06 10:05:34.49	165.62	8.36	-50.1	-55.9	8.4	4.73e-02	0	42	0	0	72	6794
2026-01-06 10:05:35.50	165.63	8.44	-50.1	-56.1	8.2	5.43e-02	0	42	0	0	72	6903
2026-01-06 10:05:36.49	165.64	8.52	-50.2	-56.5	7.8	6.86e-02	0	42	0	0	72	7226
2026-01-06 10:05:37.50	165.65	8.60	-50.4	-57.1	7.2	1.16e-01	0	42	0	0	72	7805
2026-01-06 10:05:38.50	165.67	8.69	-50.6	-57.9	6.5	1.99e-01	0	42	0	0	72	8538
2026-01-06 10:05:39.50	165.68	8.77	-50.9	-59.0	5.7	3.73e-01	0	42	0	0	72	9613
2026-01-06 10:05:40.51	165.69	8.85	-51.1	-60.1	5.0	6.23e-01	0	42	0	0	72	10950
2026-01-06 10:05:41.51	165.70	8.94	-51.2	-61.3	4.4	1.29e+00	0	42	104	0	73	11903
2026-01-06 10:05:42.52	165.72	9.02	-51.4	-62.7	4.1	1.47e+00	0	42	104	0	73	13891
2026-01-06 10:05:43.52	165.73	9.11	-50.3	-57.4	6.1	1.47e+00	0	42	104	0	72	8041
2026-01-06 10:05:44.53	165.74	9.19	-51.0	-61.0	4.6	2.26e-02	0	42	0	0	72	12232
2026-01-06 10:05:45.53	165.75	9.28	-51.2	-63.0	3.9	1.49e+00	0	42	104	0	73	14495
2026-01-06 10:05:46.53	165.77	9.36	-48.4	-53.0	11.3	2.20e-02	0	42	0	0	69	5746
2026-01-06 10:05:47.54	165.78	9.45	-50.1	-57.4	7.3	1.74e-02	0	42	0	0	70	9000
2026-01-06 10:05:48.54	165.79	9.53	-49.9	-57.0	7.0	1.48e+00	0	42	104	0	71	8119
2026-01-06 10:05:49.54	165.80	9.62	-47.2	-50.9	13.5	1.14e-03	0	42	0	0	65	5663
2026-01-06 10:05:50.55	165.82	9.70	-47.0	-50.6	13.7	4.50e-06	0	42	0	0	65	5503
2026-01-06 10:05:51.55	165.83	9.79	-47.0	-50.6	13.8	1.50e-06	0	42	0	0	65	5505
2026-01-06 10:05:52.55	165.84	9.88	-46.7	-50.0	14.3	7.00e-07	0	42	0	0	65	5136
2026-01-06 10:05:53.56	165.86	9.96	-46.8	-50.1	14.3	0.00e+00	0	42	0	0	64	5490
2026-01-06 10:05:54.56	165.87	10.05	-46.6	-49.8	14.5	1.50e-06	0	42	0	0	64	5329
2026-01-06 10:05:55.56	165.88	10.14	-46.4	-49.5	15.0	0.00e+00	0	42	0	0	64	5110
2026-01-06 10:05:56.56	165.90	10.23	-46.2	-49.2	15.2	0.00e+00	0	42	0	0	64	4938
2026-01-06 10:05:57.57	165.91	10.32	-46.1	-48.9	15.6	7.00e-07	0	42	0	0	63	5068
2026-01-06 10:05:58.57	165.92	10.40	-46.1	-48.8	15.7	0.00e+00	0	42	0	0	63	5019
2026-01-06 10:05:59.57	165.94	10.49	-46.1	-48.9	15.6	0.00e+00	0	42	0	0	63	5052
2026-01-06 10:06:00.57	165.95	10.58	-46.0	-48.6	15.9	0.00e+00	0	42	0	0	63	4899
2026-01-06 10:06:01.58	165.96	10.67	-46.2	-49.0	15.6	0.00e+00	0	42	0	0	63	5101
2026-01-06 10:06:02.58	165.98	10.76	-46.0	-48.7	15.7	0.00e+00	0	42	0	0	63	4943
2026-01-06 10:06:03.58	165.99	10.85	-45.9	-48.5	16.0	0.00e+00	0	42	0	0	63	4835
2026-01-06 10:06:04.59	166.01	10.94	-45.4	-47.7	16.7	0.00e+00	0	42	0	0	62	4696
2026-01-06 10:06:05.59	166.02	11.04	-45.6	-48.0	16.4	0.00e+00	0	42	0	0	62	4865
2026-01-06 10:06:06.59	166.03	11.13	-45.4	-47.7	16.7	1.29e-03	0	42	0	0	62	4693
2026-01-06 10:06:07.60	166.05	11.22	-45.3	-47.6	16.9	0.00e+00	0	42	0	0	62	4615
2026-01-06 10:06:08.60	166.06	11.31	-45.1	-47.3	17.1	0.00e+00	0	42	0	0	61	4727
2026-01-06 10:06:09.60	166.08	11.40	-45.1	-47.3	17.2	1.41e-03	0	42	0	0	61	4711
2026-01-06 10:06:10.60	166.09	11.50	-44.9	-47.0	17.4	0.00e+00	0	42	0	0	61	4564
2026-01-06 10:06:11.61	166.11	11.59	-44.7	-46.8	17.6	0.00e+00	0	42	0	0	61	4447
2026-01-06 10:06:12.61	166.12	11.68	-44.7	-46.8	17.6	0.00e+00	0	42	0	0	61	4483
2026-01-06 10:06:13.61	166.13	11.78	-44.6	-46.6	17.8	0.00e+00	0	42	0	0	61	4371
2026-01-06 10:06:14.62	166.15	11.87	-44.4	-46.4	18.0	0.00e+00	0	42	0	0	60	4513
2026-01-06 10:06:15.62	166.16	11.96	-44.4	-46.3	18.0	0.00e+00	0	42	0	0	60	4490
2026-01-06 10:06:16.62	166.18	12.06	-44.3	-46.3	18.1	0.00e+00	0	42	0	0	60	4476
2026-01-06 10:06:17.63	166.19	12.16	-44.4	-46.4	18.0	0.00e+00	0	42	0	0	60	4501
2026-01-06 10:06:18.63	166.21	12.25	-44.3	-46.3	18.0	0.00e+00	0	42	0	0	60	4478
2026-01-06 10:06:19.63	166.22	12.35	-44.2	-46.2	18.2	0.00e+00	0	42	0	0	60	4396
2026-01-06 10:06:20.64	166.24	12.44	-44.2	-46.1	18.2	0.00e+00	0	42	0	0	60	4390
2026-01-06 10:06:21.64	166.25	12.54	-44.0	-46.0	18.3	0.00e+00	0	42	0	0	60	4311
2026-01-06 10:06:22.64	166.27	12.64	-44.1	-46.1	18.3	0.00e+00	0	42	0	0	60	4361
2026-01-06 10:06:23.64	166.28	12.73	-44.1	-46.1	18.3	0.00e+00	0	42	0	0	60	4359
2026-01-06 10:06:24.64	166.30	12.83	-44.1	-46.1	18.3	0.00e+00	0	42	0	0	60	4367
2026-01-06 10:06:25.65	166.31	12.93	-44.1	-46.1	18.3	0.00e+00	0	42	0	0	60	4347
2026-01-06 10:06:26.65	166.33	13.03	-44.1	-46.0	18.4	0.00e+00	0	42	0	0	60	4329
2026-01-06 10:06:27.65	166.35	13.13	-44.1	-46.0	18.3	0.00e+00	0	42	0	0	60	4322
2026-01-06 10:06:28.66	166.36	13.23	-44.0	-45.9	18.4	0.00e+00	0	42	0	0	60	4274
2026-01-06 10:06:29.66	166.38	13.33	-44.0	-45.9	18.3	0.00e+00	0	42	0	0	59	4545
2026-01-06 10:06:30.66	166.39	13.43	-44.0	-45.9	18.3	0.00e+00	0	42	0	0	59	4538
2026-01-06 10:06:31.66	166.41	13.53	-44.0	-45.9	18.4	0.00e+00	0	42	0	0	59	4516
2026-01-06 10:06:32.67	166.43	13.63	-44.1	-46.0	18.3	0.00e+00	0	42	0	0	59	4559
2026-01-06 10:06:33.67	166.44	13.73	-44.0	-45.9	18.4	0.00e+00	0	42	0	0	59	4538
2026-01-06 10:06:34.67	166.46	13.83	-44.1	-46.0	18.3	0.00e+00	0	42	0	0	59	4571
2026-01-06 10:06:35.68	166.47	13.94	-44.1	-46.0	18.3	0.00e+00	0	43	0	0	59	4569
2026-01-06 10:06:36.68	166.49	14.04	-43.9	-45.8	18.5	0.00e+00	0	42	0	0	59	4474
2026-01-06 10:06:37.68	166.51	14.14	-44.0	-45.9	18.4	0.00e+00	0	42	0	0	59	4523
2026-01-06 10:06:38.68	166.52	14.25	-44.0	-45.9	18.4	0.00e+00	0	42	0	0	59	4498
2026-01-06 10:06:39.69	166.54	14.35	-44.0	-45.9	18.4	0.00e+00	0	42	0	0	59	4504
2026-01-06 10:06:40.69	166.56	14.46	-44.0	-45.9	18.4	0.00e+00	0	42	0	0	59	4529
2026-01-06 10:06:41.69	166.57	14.56	-44.0	-46.0	18.3	0.00e+00	0	42	0	0	59	4552
2026-01-06 10:06:42.70	166.59	14.67	-44.0	-45.9	18.3	0.00e+00	0	42	0	0	59	4544
2026-01-06 10:06:43.70	166.61	14.77	-44.1	-46.0	18.3	0.00e+00	0	42	0	0	59	4564
2026-01-06 10:06:44.70	166.63	14.88	-44.1	-46.0	18.3	0.00e+00	0	42	0	0	59	4549
2026-01-06 10:06:45.71	166.64	14.99	-43.9	-45.8	18.4	0.00e+00	0	42	0	0	59	4471
2026-01-06 10:06:46.71	166.66	15.09	-44.0	-45.8	18.4	0.00e+00	0	42	0	0	59	4489
2026-01-06 10:06:47.71	166.68	15.20	-44.0	-45.9	18.4	0.00e+00	0	42	0	0	59	4495
2026-01-06 10:06:48.72	166.70	15.31	-44.0	-45.9	18.4	0.00e+00	0	42	0	0	59	4518
2026-01-06 10:06:49.72	166.71	15.42	-44.2	-46.1	18.2	0.00e+00	0	42	0	0	59	4621
2026-01-06 10:06:50.72	166.73	15.53	-44.1	-46.0	18.3	0.00e+00	0	42	0	0	59	4589
2026-01-06 10:06:51.73	166.75	15.64	-44.1	-46.0	18.4	0.00e+00	0	42	0	0	59	4563
2026-01-06 10:06:52.73	166.77	15.75	-44.1	-45.9	18.4	0.00e+00	0	42	0	0	59	4541
2026-01-06 10:06:53.74	166.79	15.86	-43.9	-45.8	18.6	0.00e+00	0	42	0	0	59	4462
2026-01-06 10:06:54.74	166.80	15.97	-43.9	-45.8	18.6	0.00e+00	0	42	0	0	59	4452
2026-01-06 10:06:55.74	166.82	16.08	-44.0	-45.9	18.5	0.00e+00	0	42	0	0	59	4513
2026-01-06 10:06:56.74	166.84	16.20	-43.9	-45.8	18.6	0.00e+00	0	42	0	0	59	4472
2026-01-06 10:06:57.75	166.86	16.31	-43.9	-45.8	18.5	0.00e+00	0	42	0	0	59	4472
2026-01-06 10:06:58.75	166.88	16.42	-44.0	-45.9	18.5	0.00e+00	0	42	0	0	59	4520
2026-01-06 10:06:59.75	166.90	16.54	-44.1	-45.9	18.5	0.00e+00	0	42	0	0	59	4537
2026-01-06 10:07:00.76	166.92	16.65	-44.0	-45.9	18.5	0.00e+00	0	42	0	0	59	4519
2026-01-06 10:07:01.76	166.94	16.77	-44.0	-45.9	18.4	0.00e+00	0	42	0	0	59	4531
2026-01-06 10:07:02.76	166.95	16.88	-44.0	-45.9	18.5	0.00e+00	0	42	0	0	59	4515
2026-01-06 10:07:03.76	166.97	17.00	-44.0	-45.9	18.5	0.00e+00	0	42	0	0	59	4514
2026-01-06 10:07:04.76	166.99	17.11	-44.1	-46.0	18.4	0.00e+00	0	42	0	0	59	4552
2026-01-06 10:07:05.77	167.01	17.23	-44.1	-46.0	18.4	0.00e+00	0	42	0	0	59	4575
2026-01-06 10:07:06.77	167.03	17.35	-44.2	-46.1	18.3	0.00e+00	0	42	0	0	59	4619
2026-01-06 10:07:07.77	167.05	17.47	-44.1	-46.0	18.4	0.00e+00	0	42	0	0	59	4588
2026-01-06 10:07:08.78	167.07	17.59	-44.1	-46.0	18.4	0.00e+00	0	42	0	0	59	4558
2026-01-06 10:07:09.78	167.09	17.71	-44.2	-46.1	18.3	0.00e+00	0	42	0	0	59	4605
2026-01-06 10:07:10.79	167.11	17.83	-44.2	-46.1	18.3	0.00e+00	0	42	0	0	59	4638
2026-01-06 10:07:11.79	167.13	17.95	-44.3	-46.2	18.3	0.00e+00	0	42	0	0	59	4654
2026-01-06 10:07:12.79	167.15	18.07	-44.3	-46.2	18.2	0.00e+00	0	42	0	0	59	4704
2026-01-06 10:07:13.80	167.18	18.19	-44.3	-46.2	18.2	0.00e+00	0	42	0	0	59	4687
2026-01-06 10:07:14.80	167.20	18.31	-44.3	-46.2	18.2	0.00e+00	0	42	0	0	59	4705
2026-01-06 10:07:15.81	167.22	18.44	-44.2	-46.1	18.3	0.00e+00	0	42	0	0	59	4627
2026-01-06 10:07:16.81	167.24	18.56	-44.2	-46.1	18.3	0.00e+00	0	42	0	0	59	4620
2026-01-06 10:07:17.81	167.26	18.69	-44.3	-46.2	18.3	0.00e+00	0	42	0	0	59	4653
2026-01-06 10:07:18.81	167.28	18.81	-44.1	-46.0	18.4	0.00e+00	0	42	0	0	59	4576
2026-01-06 10:07:19.82	167.30	18.94	-44.1	-46.0	18.4	0.00e+00	0	42	0	0	59	4584
2026-01-06 10:07:20.82	167.32	19.06	-44.2	-46.1	18.4	0.00e+00	0	42	0	0	59	4611
2026-01-06 10:07:21.82	167.35	19.19	-44.1	-45.9	18.4	0.00e+00	0	42	0	0	59	4543
2026-01-06 10:07:22.83	167.37	19.32	-44.1	-46.0	18.4	0.00e+00	0	42	0	0	59	4560
2026-01-06 10:07:23.83	167.39	19.45	-44.1	-45.9	18.5	0.00e+00	0	42	0	0	59	4543
2026-01-06 10:07:24.83	167.41	19.57	-43.9	-45.8	18.6	0.00e+00	0	42	0	0	59	4446
2026-01-06 10:07:25.84	167.44	19.71	-43.9	-45.7	18.6	0.00e+00	0	42	0	0	59	4429
2026-01-06 10:07:26.84	167.46	19.84	-43.8	-45.7	18.7	0.00e+00	0	42	0	0	59	4396
2026-01-06 10:07:27.84	167.48	19.97	-43.8	-45.6	18.7	0.00e+00	0	42	0	0	59	4383
2026-01-06 10:07:28.85	167.51	20.10	-43.8	-45.6	18.7	0.00e+00	0	42	0	0	59	4363
2026-01-06 10:07:29.85	167.53	20.23	-43.8	-45.6	18.8	0.00e+00	0	42	0	0	59	4366
2026-01-06 10:07:30.85	167.55	20.36	-43.6	-45.4	18.9	0.00e+00	0	42	0	0	59	4270
2026-01-06 10:07:31.86	167.58	20.50	-43.5	-45.3	19.0	0.00e+00	0	42	0	0	59	4234
2026-01-06 10:07:32.86	167.60	20.63	-43.5	-45.3	19.0	0.00e+00	0	42	0	0	59	4233
2026-01-06 10:07:33.86	167.62	20.77	-43.5	-45.3	19.0	0.00e+00	0	42	0	0	59	4232
2026-01-06 10:07:34.87	167.65	20.90	-43.4	-45.2	19.1	0.00e+00	0	42	0	0	58	4433
2026-01-06 10:07:35.87	167.67	21.04	-43.3	-45.1	19.2	0.00e+00	0	42	0	0	58	4359
2026-01-06 10:07:36.87	167.70	21.18	-43.3	-45.1	19.2	0.00e+00	0	42	0	0	58	4364
2026-01-06 10:07:37.88	167.72	21.32	-43.3	-45.0	19.3	0.00e+00	0	42	0	0	58	4336
2026-01-06 10:07:38.88	167.75	21.45	-43.1	-44.8	19.5	0.00e+00	0	42	0	0	58	4229
2026-01-06 10:07:39.88	167.77	21.59	-43.1	-44.8	19.5	0.00e+00	0	42	0	0	58	4217
2026-01-06 10:07:40.88	167.80	21.73	-42.9	-44.6	19.6	0.00e+00	0	42	0	0	57	4380
2026-01-06 10:07:41.89	167.82	21.88	-42.9	-44.6	19.7	0.00e+00	0	42	0	0	57	4371
2026-01-06 10:07:42.89	167.85	22.02	-42.8	-44.5	19.7	0.00e+00	0	42	0	0	57	4311
2026-01-06 10:07:43.89	167.87	22.16	-42.8	-44.5	19.8	0.00e+00	0	42	0	0	57	4304
2026-01-06 10:07:44.89	167.90	22.30	-42.6	-44.3	19.9	0.00e+00	0	42	0	0	57	4230
2026-01-06 10:07:45.90	167.93	22.45	-42.7	-44.4	19.8	0.00e+00	0	42	0	0	57	4270
2026-01-06 10:07:46.90	167.95	22.59	-42.6	-44.3	19.9	0.00e+00	0	42	0	0	57	4227
2026-01-06 10:07:47.90	167.98	22.74	-42.6	-44.3	19.9	0.00e+00	0	42	0	0	57	4212
2026-01-06 10:07:48.91	168.01	22.89	-42.5	-44.2	20.0	0.00e+00	0	42	0	0	57	4153
2026-01-06 10:07:49.91	168.03	23.03	-42.5	-44.1	20.0	0.00e+00	0	42	0	0	57	4144
2026-01-06 10:07:50.91	168.06	23.18	-42.5	-44.2	20.0	0.00e+00	0	42	0	0	57	4147
2026-01-06 10:07:51.91	168.09	23.33	-42.5	-44.2	20.0	0.00e+00	0	42	0	0	56	4416
2026-01-06 10:07:52.92	168.12	23.48	-42.5	-44.1	20.1	0.00e+00	0	42	0	0	56	4387
2026-01-06 10:07:53.92	168.15	23.63	-42.5	-44.2	20.0	0.00e+00	0	42	0	0	56	4392
2026-01-06 10:07:54.92	168.17	23.78	-42.4	-44.1	20.1	0.00e+00	0	42	0	0	56	4356
2026-01-06 10:07:55.93	168.20	23.94	-42.4	-44.1	20.1	0.00e+00	0	42	0	0	56	4351
2026-01-06 10:07:56.93	168.23	24.09	-42.5	-44.1	20.0	0.00e+00	0	42	0	0	56	4389
2026-01-06 10:07:57.93	168.26	24.25	-42.4	-44.1	20.1	0.00e+00	0	42	0	0	56	4361
2026-01-06 10:07:58.93	168.29	24.40	-42.4	-44.1	20.1	0.00e+00	0	42	0	0	56	4370
2026-01-06 10:07:59.94	168.32	24.56	-42.5	-44.1	20.1	0.00e+00	0	42	0	0	56	4387
2026-01-06 10:08:00.94	168.35	24.72	-42.5	-44.2	20.0	0.00e+00	0	42	0	0	56	4410
2026-01-06 10:08:01.94	168.38	24.87	-42.6	-44.3	20.0	0.00e+00	0	42	0	0	56	4454
2026-01-06 10:08:02.95	168.41	25.03	-42.7	-44.4	19.8	0.00e+00	0	42	0	0	56	4521
2026-01-06 10:08:03.95	168.44	25.19	-42.7	-44.4	19.9	0.00e+00	0	42	0	0	56	4528
2026-01-06 10:08:04.95	168.47	25.35	-42.8	-44.5	19.8	0.00e+00	0	43	0	0	56	4554
2026-01-06 10:08:05.95	168.50	25.52	-42.9	-44.6	19.7	0.00e+00	0	42	0	0	56	4619
2026-01-06 10:08:06.96	168.54	25.68	-43.0	-44.7	19.7	0.00e+00	0	42	0	0	56	4669
2026-01-06 10:08:07.96	168.57	25.84	-43.0	-44.8	19.6	0.00e+00	0	42	0	0	56	4716
2026-01-06 10:08:08.96	168.60	26.01	-43.1	-44.8	19.5	0.00e+00	0	42	0	0	56	4758
2026-01-06 10:08:09.96	168.63	26.18	-43.2	-45.0	19.4	0.00e+00	0	42	0	0	57	4558
2026-01-06 10:08:10.97	168.67	26.34	-43.4	-45.1	19.3	0.00e+00	0	42	0	0	57	4646
2026-01-06 10:08:11.97	168.70	26.51	-43.5	-45.2	19.2	0.00e+00	0	42	0	0	57	4689
2026-01-06 10:08:12.97	168.73	26.68	-43.6	-45.4	19.1	0.00e+00	0	42	0	0	57	4768
2026-01-06 10:08:13.98	168.77	26.85	-43.8	-45.6	18.9	0.00e+00	0	42	0	0	58	4609
2026-01-06 10:08:14.98	168.80	27.02	-43.9	-45.7	18.8	0.00e+00	0	42	0	0	58	4698
2026-01-06 10:08:15.98	168.83	27.20	-44.0	-45.9	18.6	0.00e+00	0	42	0	0	58	4770
2026-01-06 10:08:16.99	168.87	27.37	-44.2	-46.0	18.5	0.00e+00	0	42	0	0	58	4864
2026-01-06 10:08:17.99	168.90	27.54	-44.3	-46.2	18.4	0.00e+00	0	42	0	0	59	4653
2026-01-06 10:08:18.99	168.94	27.72	-44.2	-46.1	18.5	0.00e+00	0	42	0	0	59	4605
2026-01-06 10:08:20.00	168.98	27.90	-44.3	-46.1	18.4	0.00e+00	0	42	0	0	59	4647
2026-01-06 10:08:21.00	169.01	28.08	-44.1	-46.0	18.5	0.00e+00	0	42	0	0	59	4570
2026-01-06 10:08:22.00	169.05	28.25	-44.2	-46.1	18.4	0.00e+00	0	42	0	0	59	4611
2026-01-06 10:08:23.01	169.09	28.44	-44.2	-46.0	18.5	0.00e+00	0	42	0	0	59	4598
2026-01-06 10:08:24.01	169.12	28.62	-44.1	-46.0	18.5	0.00e+00	0	42	0	0	59	4551
2026-01-06 10:08:25.01	169.16	28.80	-44.1	-45.9	18.6	0.00e+00	0	42	0	0	59	4513
2026-01-06 10:08:26.02	169.20	28.99	-44.1	-45.9	18.6	0.00e+00	0	42	0	0	59	4512
2026-01-06 10:08:27.02	169.24	29.17	-44.1	-45.9	18.6	0.00e+00	0	42	0	0	59	4518
2026-01-06 10:08:28.03	169.28	29.36	-43.9	-45.7	18.8	0.00e+00	0	42	0	0	59	4403
2026-01-06 10:08:29.03	169.32	29.54	-43.9	-45.7	18.8	0.00e+00	0	42	0	0	59	4423
2026-01-06 10:08:30.03	169.36	29.73	-43.9	-45.7	18.8	0.00e+00	0	42	0	0	59	4401
2026-01-06 10:08:31.03	169.40	29.92	-43.7	-45.5	19.0	0.00e+00	0	42	0	0	59	4312
2026-01-06 10:08:32.04	169.44	30.12	-43.6	-45.4	19.1	0.00e+00	0	42	0	0	59	4254
2026-01-06 10:08:33.04	169.48	30.31	-43.6	-45.4	19.1	0.00e+00	0	42	0	0	59	4247
2026-01-06 10:08:34.04	169.52	30.50	-43.6	-45.4	19.1	0.00e+00	0	42	0	0	59	4255
2026-01-06 10:08:35.05	169.56	30.70	-43.6	-45.4	19.1	0.00e+00	0	42	0	0	59	4255
2026-01-06 10:08:36.05	169.61	30.89	-43.5	-45.3	19.1	0.00e+00	0	42	0	0	59	4228
2026-01-06 10:08:37.05	169.65	31.09	-43.5	-45.3	19.2	0.00e+00	0	42	0	0	59	4218
2026-01-06 10:08:38.06	169.69	31.29	-43.5	-45.3	19.1	0.00e+00	0	42	0	0	59	4226
2026-01-06 10:08:39.06	169.74	31.49	-43.5	-45.3	19.2	0.00e+00	0	42	0	0	59	4205
2026-01-06 10:08:40.06	169.78	31.69	-43.4	-45.2	19.3	0.00e+00	0	42	0	0	58	4395
2026-01-06 10:08:41.06	169.83	31.90	-43.4	-45.1	19.3	0.00e+00	0	42	0	0	58	4368
2026-01-06 10:08:42.07	169.87	32.10	-43.3	-45.0	19.4	0.00e+00	0	42	0	0	58	4334
2026-01-06 10:08:43.07	169.92	32.31	-43.3	-45.0	19.4	0.00e+00	0	42	0	0	58	4311
2026-01-06 10:08:44.07	169.96	32.51	-43.3	-45.0	19.4	0.00e+00	0	42	0	0	58	4323
2026-01-06 10:08:45.08	170.01	32.72	-43.2	-45.0	19.4	0.00e+00	0	42	0	0	58	4300
2026-01-06 10:08:46.08	170.06	32.93	-43.2	-45.0	19.4	0.00e+00	0	42	0	0	58	4299
2026-01-06 10:08:47.08	170.11	33.14	-43.4	-45.1	19.3	0.00e+00	0	42	0	0	58	4373
2026-01-06 10:08:48.08	170.16	33.36	-43.5	-45.2	19.2	0.00e+00	0	42	0	0	58	4427
2026-01-06 10:08:49.08	170.21	33.57	-43.5	-45.3	19.1	0.00e+00	0	42	0	0	58	4456
2026-01-06 10:08:50.09	170.26	33.79	-43.6	-45.4	19.0	0.00e+00	0	42	0	0	58	4511
2026-01-06 10:08:51.09	170.31	34.01	-43.7	-45.5	19.0	0.00e+00	0	42	0	0	58	4566
2026-01-06 10:08:52.10	170.36	34.23	-43.8	-45.6	18.9	0.00e+00	0	42	0	0	58	4637
2026-01-06 10:08:53.10	170.41	34.45	-44.0	-45.8	18.6	0.00e+00	0	42	0	0	58	4752
2026-01-06 10:08:54.10	170.46	34.67	-44.1	-45.9	18.6	0.00e+00	0	42	0	0	58	4803
2026-01-06 10:08:55.11	170.52	34.89	-44.2	-46.1	18.5	0.00e+00	0	42	0	0	59	4610
2026-01-06 10:08:56.11	170.57	35.12	-44.5	-46.3	18.2	0.00e+00	0	42	0	0	59	4759
2026-01-06 10:08:57.12	170.63	35.35	-44.6	-46.4	18.1	0.00e+00	0	42	0	0	59	4800
2026-01-06 10:08:58.12	170.68	35.58	-44.5	-46.4	18.1	0.00e+00	0	42	0	0	59	4795
2026-01-06 10:08:59.12	170.74	35.81	-44.7	-46.6	18.1	0.00e+00	0	42	0	0	60	4600
2026-01-06 10:09:00.13	170.80	36.04	-44.6	-46.5	18.1	0.00e+00	0	42	0	0	60	4597
2026-01-06 10:09:01.13	170.85	36.27	-44.9	-46.9	17.8	0.00e+00	0	42	0	0	60	4785
2026-01-06 10:09:02.13	170.91	36.51	-45.0	-47.0	17.7	0.00e+00	0	42	0	0	60	4828
2026-01-06 10:09:03.13	170.97	36.74	-45.1	-47.1	17.6	0.00e+00	0	42	0	0	60	4903
2026-01-06 10:09:04.13	171.03	36.98	-45.2	-47.2	17.5	0.00e+00	0	42	0	0	61	4697
2026-01-06 10:09:05.14	171.09	37.22	-45.2	-47.2	17.5	0.00e+00	0	42	0	0	61	4669
2026-01-06 10:09:06.14	171.15	37.47	-45.3	-47.3	17.4	0.00e+00	0	42	0	0	61	4735
2026-01-06 10:09:07.15	171.22	37.71	-45.2	-47.3	17.5	0.00e+00	0	42	0	0	61	4727
2026-01-06 10:09:08.15	171.28	37.96	-45.3	-47.3	17.4	0.00e+00	0	42	0	0	61	4738
2026-01-06 10:09:09.15	171.35	38.20	-45.4	-47.5	17.3	0.00e+00	0	42	0	0	61	4819
2026-01-06 10:09:10.16	171.41	38.45	-45.4	-47.5	17.3	0.00e+00	0	42	0	0	61	4824
2026-01-06 10:09:11.16	171.48	38.70	-45.2	-47.2	17.6	0.00e+00	0	42	0	0	61	4665
2026-01-06 10:09:12.16	171.55	38.96	-45.3	-47.3	17.5	0.00e+00	0	42	0	0	61	4735
2026-01-06 10:09:13.16	171.61	39.21	-45.1	-47.1	17.7	0.00e+00	0	42	0	0	61	4631
2026-01-06 10:09:14.17	171.68	39.47	-45.1	-47.0	17.7	0.00e+00	0	42	0	0	61	4577
2026-01-06 10:09:15.17	171.75	39.73	-45.1	-47.1	17.6	0.00e+00	0	42	0	0	61	4636
2026-01-06 10:09:16.18	171.83	39.99	-45.1	-47.1	17.6	0.00e+00	0	42	0	0	61	4622
2026-01-06 10:09:17.18	171.90	40.25	-45.3	-47.3	17.5	0.00e+00	0	42	0	0	61	4718
2026-01-06 10:09:18.18	171.97	40.51	-45.2	-47.2	17.6	0.00e+00	0	42	0	0	61	4662
2026-01-06 10:09:19.19	172.05	40.78	-45.3	-47.3	17.5	0.00e+00	0	42	0	0	61	4749
2026-01-06 10:09:20.19	172.13	41.05	-45.5	-47.5	17.3	0.00e+00	0	42	0	0	61	4844
2026-01-06 10:09:21.19	172.20	41.32	-45.4	-47.4	17.3	0.00e+00	0	42	0	0	61	4791
2026-01-06 10:09:22.20	172.28	41.59	-45.4	-47.5	17.2	0.00e+00	0	42	0	0	61	4821
2026-01-06 10:09:23.20	172.36	41.86	-45.5	-47.6	17.1	0.00e+00	0	42	0	0	61	4882
2026-01-06 10:09:24.21	172.44	42.14	-45.6	-47.7	16.9	0.00e+00	0	42	0	0	61	4946
2026-01-06 10:09:25.20	172.53	42.41	-45.9	-48.0	16.7	0.00e+00	0	42	0	0	62	4854
2026-01-06 10:09:26.21	172.61	42.70	-46.2	-48.4	16.3	0.00e+00	0	42	0	0	63	4795
2026-01-06 10:09:27.21	172.70	42.98	-46.4	-48.7	16.1	0.00e+00	0	42	0	0	63	4955
2026-01-06 10:09:28.21	172.78	43.26	-46.6	-48.8	16.0	0.00e+00	0	42	0	0	63	5034
2026-01-06 10:09:29.22	172.87	43.55	-46.6	-49.0	15.8	0.00e+00	0	42	0	0	63	5101
2026-01-06 10:09:30.22	172.96	43.84	-46.6	-48.9	15.8	0.00e+00	0	42	0	0	64	4800
2026-01-06 10:09:31.22	173.05	44.12	-46.5	-48.9	15.9	0.00e+00	0	42	0	0	64	4760
2026-01-06 10:09:32.23	173.15	44.42	-46.6	-48.9	15.8	0.00e+00	0	42	0	0	64	4795
2026-01-06 10:09:33.23	173.24	44.71	-46.6	-48.9	15.8	0.00e+00	0	42	0	0	64	4775
2026-01-06 10:09:34.23	173.34	45.01	-46.7	-49.0	15.7	0.00e+00	0	42	0	0	64	4861
2026-01-06 10:09:35.23	173.44	45.31	-46.7	-49.0	15.8	0.00e+00	0	42	0	0	64	4859
2026-01-06 10:09:36.24	173.54	45.61	-46.7	-49.1	15.7	0.00e+00	0	42	0	0	64	4910
2026-01-06 10:09:37.24	173.64	45.91	-46.8	-49.2	15.6	0.00e+00	0	42	0	0	64	4967
2026-01-06 10:09:38.25	173.74	46.22	-46.9	-49.4	15.4	0.00e+00	0	42	0	0	64	5066
2026-01-06 10:09:39.25	173.85	46.52	-46.9	-49.4	15.4	0.00e+00	0	42	0	0	64	5060
2026-01-06 10:09:40.25	173.96	46.83	-46.9	-49.3	15.4	0.00e+00	0	42	0	0	64	5031
2026-01-06 10:09:41.25	174.07	47.14	-46.9	-49.3	15.5	0.00e+00	0	42	0	0	64	5014
2026-01-06 10:09:42.26	174.18	47.46	-46.7	-49.1	15.7	0.00e+00	0	42	0	0	64	4874
2026-01-06 10:09:43.26	174.29	47.77	-46.5	-48.8	16.0	0.00e+00	0	42	0	0	64	4734
2026-01-06 10:09:44.26	174.41	48.09	-46.2	-48.4	16.4	0.00e+00	0	42	0	0	64	4529
2026-01-06 10:09:45.27	174.53	48.41	-46.0	-48.1	16.6	0.00e+00	0	42	0	0	63	4645
2026-01-06 10:09:46.27	174.65	48.74	-45.8	-48.0	16.8	0.00e+00	0	42	0	0	63	4570
2026-01-06 10:09:47.27	174.77	49.06	-45.7	-47.8	17.0	0.00e+00	0	42	0	0	63	4457
2026-01-06 10:09:48.28	174.90	49.39	-45.6	-47.7	17.1	0.00e+00	0	42	0	0	63	4412
2026-01-06 10:09:49.28	175.03	49.72	-45.5	-47.5	17.3	0.00e+00	0	42	0	0	63	4332
2026-01-06 10:09:50.28	175.16	50.05	-45.3	-47.3	17.5	0.00e+00	0	42	0	0	62	4464
2026-01-06 10:09:51.29	175.30	50.38	-45.3	-47.3	17.6	0.00e+00	0	42	0	0	62	4444
2026-01-06 10:09:52.29	175.44	50.72	-45.2	-47.2	17.7	0.00e+00	0	42	0	0	62	4411
2026-01-06 10:09:53.29	175.58	51.06	-45.2	-47.2	17.7	0.00e+00	0	42	0	0	62	4417
2026-01-06 10:09:54.30	175.72	51.40	-45.2	-47.2	17.7	0.00e+00	0	42	0	0	62	4394
2026-01-06 10:09:55.30	175.87	51.74	-45.1	-47.0	17.8	0.00e+00	0	42	0	0	62	4324
2026-01-06 10:09:56.30	176.02	52.09	-45.2	-47.2	17.6	0.00e+00	0	42	0	0	62	4426
2026-01-06 10:09:57.30	176.17	52.43	-45.0	-47.0	17.9	0.00e+00	0	42	0	0	62	4299
2026-01-06 10:09:58.31	176.33	52.79	-44.6	-46.4	18.3	0.00e+00	0	42	0	0	61	4281
2026-01-06 10:09:59.31	176.49	53.14	-44.5	-46.4	18.4	0.00e+00	0	42	0	0	61	4253
2026-01-06 10:10:00.31	176.66	53.49	-44.3	-46.1	18.6	0.00e+00	0	42	0	0	60	4374
2026-01-06 10:10:01.31	176.83	53.85	-44.3	-46.2	18.5	0.00e+00	0	42	0	0	60	4411
2026-01-06 10:10:02.32	177.00	54.21	-44.3	-46.1	18.6	0.00e+00	0	42	0	0	60	4386
2026-01-06 10:10:03.32	177.18	54.57	-44.2	-46.1	18.7	0.00e+00	0	42	0	0	60	4342
2026-01-06 10:10:04.32	177.36	54.93	-44.1	-45.9	18.8	0.00e+00	0	42	0	0	60	4275
2026-01-06 10:10:05.33	177.55	55.30	-43.7	-45.5	19.1	0.00e+00	0	42	0	0	59	4319
2026-01-06 10:10:06.33	177.74	55.66	-43.7	-45.6	19.0	0.00e+00	0	42	0	0	59	4345
2026-01-06 10:10:07.33	177.93	56.03	-43.6	-45.4	19.1	0.00e+00	0	42	0	0	59	4273
2026-01-06 10:10:08.34	178.14	56.41	-43.9	-45.7	18.8	0.00e+00	0	42	0	0	59	4407
2026-01-06 10:10:09.34	178.35	56.78	-44.1	-46.0	18.6	0.00e+00	0	42	0	0	59	4564
2026-01-06 10:10:10.34	178.56	57.16	-44.1	-45.9	18.6	0.00e+00	0	42	0	0	59	4526
2026-01-06 10:10:11.35	178.78	57.54	-44.0	-45.9	18.8	0.00e+00	0	42	0	0	59	4501
2026-01-06 10:10:12.35	179.00	57.92	-43.8	-45.6	19.0	0.00e+00	0	42	0	0	59	4363
2026-01-06 10:10:13.35	179.23	58.30	-43.7	-45.4	19.2	0.00e+00	0	42	0	0	59	4280
2026-01-06 10:10:14.36	179.47	58.69	-43.6	-45.4	19.2	0.00e+00	0	42	0	0	59	4245
2026-01-06 10:10:15.36	179.72	59.07	-43.4	-45.1	19.3	0.00e+00	0	42	0	0	58	4361
2026-01-06 10:10:16.36	179.97	59.46	-43.2	-44.9	19.4	0.00e+00	0	42	0	0	58	4279
2026-01-06 10:10:17.37	180.23	59.85	-43.0	-44.7	19.6	0.00e+00	0	42	0	0	57	4394
2026-01-06 10:10:18.37	180.50	60.25	-42.8	-44.5	19.9	0.00e+00	0	42	0	0	57	4299
2026-01-06 10:10:19.37	180.77	60.64	-42.6	-44.3	20.0	0.00e+00	0	42	0	0	57	4219
2026-01-06 10:10:20.38	181.06	61.04	-42.7	-44.4	20.0	0.00e+00	0	42	0	0	57	4249
2026-01-06 10:10:21.38	181.35	61.43	-42.7	-44.4	20.0	0.00e+00	0	42	0	0	57	4247
2026-01-06 10:10:22.38	181.65	61.83	-42.6	-44.3	20.0	0.00e+00	0	42	0	0	57	4198
2026-01-06 10:10:23.39	181.97	62.24	-42.7	-44.3	19.9	0.00e+00	0	42	0	0	57	4225
2026-01-06 10:10:24.39	182.29	62.64	-42.5	-44.2	20.0	0.00e+00	0	42	0	0	57	4157
2026-01-06 10:10:25.39	182.62	63.04	-42.6	-44.3	20.0	0.00e+00	0	42	0	0	56	4448
2026-01-06 10:10:26.40	182.97	63.45	-42.4	-44.0	20.3	0.00e+00	0	42	0	0	56	4328
2026-01-06 10:10:27.40	183.33	63.86	-42.3	-43.9	20.3	0.00e+00	0	42	0	0	56	4264
2026-01-06 10:10:28.40	183.70	64.27	-42.0	-43.6	20.5	0.00e+00	0	42	0	0	56	4140
2026-01-06 10:10:29.40	184.08	64.68	-41.7	-43.3	20.7	0.00e+00	0	42	0	0	55	4217
2026-01-06 10:10:30.40	184.48	65.09	-41.7	-43.3	20.7	0.00e+00	0	42	0	0	55	4221
2026-01-06 10:10:31.41	184.89	65.50	-41.6	-43.2	20.6	0.00e+00	0	42	0	0	55	4186
2026-01-06 10:10:32.41	185.32	65.92	-42.1	-43.7	20.4	0.00e+00	0	42	0	0	55	4412
2026-01-06 10:10:33.41	185.76	66.33	-42.3	-44.0	20.2	0.00e+00	0	42	0	0	55	4569
2026-01-06 10:10:34.41	186.22	66.74	-42.1	-43.8	20.3	0.00e+00	0	42	0	0	55	4469
2026-01-06 10:10:35.42	186.70	67.16	-42.0	-43.6	20.4	0.00e+00	0	42	0	0	55	4386
2026-01-06 10:10:36.42	187.20	67.58	-41.7	-43.3	20.5	0.00e+00	0	42	0	0	55	4242
2026-01-06 10:10:37.42	187.72	67.99	-41.8	-43.4	20.5	0.00e+00	0	42	0	0	55	4273
2026-01-06 10:10:38.42	188.26	68.41	-41.9	-43.5	20.5	0.00e+00	0	42	0	0	55	4302
2026-01-06 10:10:39.43	188.83	68.83	-41.9	-43.5	20.2	0.00e+00	0	42	0	0	55	4328
2026-01-06 10:10:40.43	189.41	69.25	-42.0	-43.6	20.1	0.00e+00	0	42	0	0	55	4389
2026-01-06 10:10:41.43	190.03	69.66	-42.0	-43.6	20.2	0.00e+00	0	42	0	0	55	4365
2026-01-06 10:10:42.44	190.67	70.08	-41.9	-43.5	20.5	0.00e+00	0	42	0	0	55	4318
2026-01-06 10:10:43.44	191.34	70.50	-41.9	-43.5	20.5	0.00e+00	0	42	0	0	55	4302
2026-01-06 10:10:44.44	192.04	70.91	-42.0	-43.6	20.4	0.00e+00	0	42	0	0	55	4354
2026-01-06 10:10:45.45	192.78	71.33	-42.0	-43.6	20.2	0.00e+00	0	42	0	0	55	4364
2026-01-06 10:10:46.45	193.55	71.74	-42.2	-43.9	20.0	0.00e+00	0	42	0	0	55	4523
2026-01-06 10:10:47.45	194.35	72.15	-42.3	-44.0	20.1	0.00e+00	0	42	0	0	55	4579
2026-01-06 10:10:48.45	195.20	72.56	-42.6	-44.3	19.9	0.00e+00	0	42	0	0	55	4738
2026-01-06 10:10:49.46	196.10	72.97	-42.5	-44.2	20.0	0.00e+00	0	42	0	0	55	4705
2026-01-06 10:10:50.46	197.03	73.37	-42.3	-44.0	20.2	0.00e+00	0	42	0	0	55	4591
2026-01-06 10:10:51.46	198.01	73.77	-42.1	-43.7	20.4	0.00e+00	0	42	0	0	55	4429
2026-01-06 10:10:52.46	199.04	74.17	-42.0	-43.7	20.5	0.00e+00	0	42	0	0	55	4395
2026-01-06 10:10:53.47	200.14	74.56	-42.2	-43.8	20.4	0.00e+00	0	42	0	0	55	4490
2026-01-06 10:10:54.47	201.29	74.95	-42.0	-43.6	20.6	0.00e+00	0	42	0	0	55	4356
2026-01-06 10:10:55.47	202.50	75.33	-41.7	-43.3	20.8	0.00e+00	0	42	0	0	55	4212
2026-01-06 10:10:56.48	203.78	75.72	-41.5	-43.1	21.0	0.00e+00	0	42	0	0	55	4122
2026-01-06 10:10:57.48	205.13	76.09	-41.9	-43.5	20.6	0.00e+00	0	42	0	0	55	4337
2026-01-06 10:10:58.48	206.56	76.45	-41.9	-43.6	20.6	0.00e+00	0	42	0	0	55	4344
2026-01-06 10:10:59.49	208.07	76.81	-42.1	-43.7	20.5	0.00e+00	0	42	0	0	55	4403
2026-01-06 10:11:00.49	209.66	77.16	-42.2	-43.8	20.4	0.00e+00	0	42	0	0	55	4479
2026-01-06 10:11:01.49	211.34	77.50	-41.7	-43.3	20.8	0.00e+00	0	42	0	0	55	4209
2026-01-06 10:11:02.49	213.11	77.83	-41.5	-43.1	21.0	0.00e+00	0	42	0	0	55	4116
2026-01-06 10:11:03.50	215.01	78.15	-41.6	-43.1	21.0	0.00e+00	0	42	0	0	55	4136
2026-01-06 10:11:04.49	216.96	78.45	-41.8	-43.4	20.7	0.00e+00	0	42	0	0	55	4272
2026-01-06 10:11:05.50	219.07	78.75	-41.7	-43.3	20.7	0.00e+00	0	42	0	0	55	4239
2026-01-06 10:11:06.50	221.26	79.02	-41.5	-43.1	20.8	0.00e+00	0	42	0	0	55	4141
2026-01-06 10:11:07.51	223.59	79.29	-41.6	-43.1	20.8	0.00e+00	0	42	0	0	54	4386
2026-01-06 10:11:08.51	226.01	79.53	-41.5	-43.1	20.6	0.00e+00	0	42	0	0	54	4357
2026-01-06 10:11:09.51	228.54	79.75	-42.0	-43.6	20.3	0.00e+00	0	42	0	0	54	4631
2026-01-06 10:11:10.51	231.18	79.96	-42.2	-43.9	20.2	0.00e+00	0	42	0	0	55	4522
2026-01-06 10:11:11.52	233.95	80.14	-42.2	-43.9	20.1	0.00e+00	0	42	0	0	55	4529
2026-01-06 10:11:12.52	236.80	80.30	-42.0	-43.6	20.4	0.00e+00	0	42	0	0	55	4365
2026-01-06 10:11:13.52	239.73	80.43	-41.9	-43.5	20.5	0.00e+00	0	42	0	0	55	4316
2026-01-06 10:11:14.53	242.77	80.55	-41.8	-43.4	20.7	0.00e+00	0	42	0	0	55	4247
2026-01-06 10:11:15.53	245.85	80.63	-41.9	-43.5	20.6	0.00e+00	0	42	0	0	55	4323
2026-01-06 10:11:16.53	248.97	80.68	-42.0	-43.6	20.4	0.00e+00	0	42	0	0	55	4376
2026-01-06 10:11:17.54	252.15	80.71	-41.9	-43.5	20.6	0.00e+00	0	42	0	0	55	4312
2026-01-06 10:11:18.54	255.31	80.71	-42.2	-43.8	20.3	0.00e+00	0	42	0	0	55	4486
2026-01-06 10:11:19.54	258.46	80.69	-42.3	-43.9	20.3	0.00e+00	0	42	0	0	55	4542
2026-01-06 10:11:20.55	261.62	80.63	-42.1	-43.8	20.5	0.00e+00	0	42	0	0	55	4448
2026-01-06 10:11:21.55	264.69	80.55	-42.2	-43.8	20.4	0.00e+00	0	42	0	0	55	4464
2026-01-06 10:11:22.55	267.71	80.44	-42.1	-43.7	20.4	0.00e+00	0	42	0	0	55	4424
2026-01-06 10:11:23.55	270.65	80.31	-42.0	-43.6	20.6	0.00e+00	0	42	0	0	55	4362
2026-01-06 10:11:24.56	273.53	80.15	-41.9	-43.5	20.6	0.00e+00	0	42	0	0	55	4303
2026-01-06 10:11:25.56	276.28	79.97	-41.8	-43.4	20.6	0.00e+00	0	42	0	0	55	4289
2026-01-06 10:11:26.56	278.92	79.77	-42.3	-44.0	20.2	0.00e+00	0	42	0	0	55	4569
2026-01-06 10:11:27.57	281.49	79.54	-42.1	-43.8	20.5	0.00e+00	0	42	0	0	55	4447
2026-01-06 10:11:28.57	283.91	79.30	-42.4	-44.1	20.2	0.00e+00	0	42	0	0	55	4612
2026-01-06 10:11:29.57	286.23	79.04	-43.2	-45.0	19.6	0.00e+00	0	42	0	0	57	4564
2026-01-06 10:11:30.58	288.45	78.77	-42.8	-44.5	19.9	0.00e+00	0	42	0	0	57	4339
2026-01-06 10:11:31.58	290.54	78.48	-42.2	-43.8	20.5	0.00e+00	0	42	0	0	56	4227
2026-01-06 10:11:32.58	292.52	78.17	-41.5	-43.1	21.0	0.00e+00	0	42	0	0	55	4106
2026-01-06 10:11:33.59	294.41	77.85	-41.7	-43.3	20.7	0.00e+00	0	42	0	0	54	4474
2026-01-06 10:11:34.59	296.19	77.52	-41.6	-43.2	20.8	0.00e+00	0	42	0	0	54	4420
2026-01-06 10:11:35.59	297.88	77.19	-41.5	-43.1	20.8	0.00e+00	0	42	0	0	54	4372
2026-01-06 10:11:36.60	299.48	76.84	-41.8	-43.4	20.4	0.00e+00	0	42	0	0	54	4544
2026-01-06 10:11:37.60	300.99	76.48	-42.1	-43.7	19.9	0.00e+00	0	42	0	0	54	4691
2026-01-06 10:11:38.60	302.42	76.12	-42.2	-43.9	20.0	0.00e+00	0	42	0	0	55	4497
2026-01-06 10:11:39.61	303.78	75.74	-42.2	-43.9	20.3	0.00e+00	0	42	0	0	55	4516
2026-01-06 10:11:40.61	305.06	75.36	-42.6	-44.3	20.0	0.00e+00	0	42	0	0	55	4731
2026-01-06 10:11:41.61	306.27	74.98	-42.2	-43.9	20.4	0.00e+00	0	42	0	0	55	4510
2026-01-06 10:11:42.62	307.44	74.59	-41.8	-43.4	20.7	0.00e+00	0	42	0	0	55	4271
2026-01-06 10:11:43.62	308.53	74.20	-41.9	-43.5	20.5	0.00e+00	0	42	0	0	55	4331
2026-01-06 10:11:44.62	309.56	73.80	-42.5	-44.2	20.0	0.00e+00	0	42	0	0	55	4655
2026-01-06 10:11:45.62	310.55	73.41	-42.4	-44.0	20.2	0.00e+00	0	42	0	0	55	4596
2026-01-06 10:11:46.62	311.48	73.00	-42.5	-44.2	20.1	0.00e+00	0	42	0	0	55	4682
2026-01-06 10:11:47.63	312.38	72.59	-42.4	-44.1	20.2	0.00e+00	0	42	0	0	55	4615
2026-01-06 10:11:48.63	313.23	72.19	-42.2	-43.9	20.4	0.00e+00	0	42	0	0	55	4507
2026-01-06 10:11:49.63	314.03	71.78	-41.5	-43.1	20.9	0.00e+00	0	42	0	0	55	4123
2026-01-06 10:11:50.64	314.81	71.36	-41.3	-42.8	21.2	0.00e+00	0	42	0	0	54	4242
2026-01-06 10:11:51.64	315.55	70.95	-41.1	-42.6	21.4	0.00e+00	0	42	0	0	54	4130
2026-01-06 10:11:52.64	316.25	70.54	-41.3	-42.8	21.2	0.00e+00	0	42	0	0	54	4230
2026-01-06 10:11:53.65	316.92	70.12	-42.1	-43.7	20.2	0.00e+00	0	42	0	0	54	4690
2026-01-06 10:11:54.65	317.57	69.71	-42.6	-44.3	19.7	0.00e+00	0	42	0	0	55	4729
2026-01-06 10:11:55.65	318.18	69.29	-42.6	-44.3	19.9	0.00e+00	0	42	0	0	56	4453
2026-01-06 10:11:56.65	318.77	68.88	-42.2	-43.8	20.4	0.00e+00	0	42	0	0	56	4218
2026-01-06 10:11:57.66	319.34	68.46	-41.5	-43.1	20.8	0.00e+00	0	42	0	0	55	4122
2026-01-06 10:11:58.66	319.88	68.04	-41.5	-43.1	20.9	0.00e+00	0	42	0	0	54	4346
2026-01-06 10:11:59.66	320.40	67.63	-41.7	-43.3	20.8	0.00e+00	0	42	0	0	54	4448
2026-01-06 10:12:00.66	320.90	67.21	-42.3	-44.0	20.3	0.00e+00	0	42	0	0	55	4554
2026-01-06 10:12:01.67	321.38	66.80	-42.8	-44.5	19.9	0.00e+00	0	42	0	0	56	4584
2026-01-06 10:12:02.67	321.84	66.38	-42.8	-44.5	19.9	0.00e+00	0	42	0	0	56	4552
2026-01-06 10:12:03.67	322.29	65.97	-42.3	-43.9	20.2	0.00e+00	0	42	0	0	56	4276
2026-01-06 10:12:04.67	322.71	65.56	-42.2	-43.8	20.2	0.00e+00	0	42	0	0	56	4222
2026-01-06 10:12:05.68	323.13	65.14	-42.0	-43.7	20.5	0.00e+00	0	42	0	0	56	4154
2026-01-06 10:12:06.68	323.53	64.73	-41.6	-43.2	20.9	0.00e+00	0	42	0	0	55	4157
2026-01-06 10:12:07.68	323.91	64.33	-42.4	-44.1	20.2	0.00e+00	0	42	0	0	55	4629
2026-01-06 10:12:08.69	324.28	63.92	-43.9	-45.7	18.9	0.00e+00	0	42	0	0	58	4696
2026-01-06 10:12:09.69	324.64	63.51	-44.4	-46.4	18.2	0.00e+00	0	42	0	0	59	4764
2026-01-06 10:12:10.69	324.99	63.11	-44.0	-45.9	18.3	0.00e+00	0	42	0	0	59	4522
2026-01-06 10:12:11.70	325.32	62.70	-43.5	-45.3	19.1	0.00e+00	0	42	0	0	59	4201
2026-01-06 10:12:12.70	325.65	62.30	-43.2	-44.9	19.5	0.00e+00	0	42	0	0	58	4258
2026-01-06 10:12:13.70	325.96	61.90	-42.4	-44.1	20.2	0.00e+00	0	42	0	0	56	4350
2026-01-06 10:12:14.70	326.26	61.50	-42.2	-43.8	20.6	0.00e+00	0	42	0	0	56	4212
2026-01-06 10:12:15.71	326.56	61.10	-43.0	-44.7	19.8	0.00e+00	0	42	0	0	56	4668
2026-01-06 10:12:16.71	326.84	60.71	-43.7	-45.5	19.1	0.00e+00	0	42	0	0	58	4593
2026-01-06 10:12:17.71	327.12	60.32	-44.7	-46.7	18.1	0.00e+00	0	42	0	0	60	4675
2026-01-06 10:12:18.72	327.39	59.92	-44.3	-46.2	18.5	0.00e+00	0	42	0	0	60	4423
2026-01-06 10:12:19.72	327.65	59.53	-43.3	-45.0	19.1	0.00e+00	0	42	0	0	58	4318
2026-01-06 10:12:20.72	327.90	59.15	-42.5	-44.1	19.9	0.00e+00	0	42	0	0	57	4121
2026-01-06 10:12:21.73	328.15	58.76	-42.2	-43.9	20.2	0.00e+00	0	42	0	0	56	4244
2026-01-06 10:12:22.73	328.38	58.38	-42.2	-43.8	20.4	0.00e+00	0	42	0	0	56	4197
2026-01-06 10:12:23.73	328.61	58.00	-42.8	-44.5	19.8	0.00e+00	0	42	0	0	56	4579
2026-01-06 10:12:24.74	328.84	57.61	-43.9	-45.7	18.8	0.00e+00	0	42	0	0	58	4697
2026-01-06 10:12:25.74	329.06	57.24	-44.9	-46.8	18.0	0.00e+00	0	42	0	0	60	4734
2026-01-06 10:12:26.74	329.27	56.86	-45.8	-47.9	16.9	0.00e+00	0	42	0	0	62	4808
2026-01-06 10:12:27.75	329.48	56.49	-46.3	-48.6	16.2	0.00e+00	0	42	0	0	63	4913
2026-01-06 10:12:28.75	329.68	56.12	-46.2	-48.5	15.9	0.00e+00	0	42	0	0	63	4852
2026-01-06 10:12:29.75	329.88	55.75	-45.2	-47.3	16.9	0.00e+00	0	42	0	0	62	4446
2026-01-06 10:12:30.76	330.07	55.38	-44.1	-46.0	18.3	0.00e+00	0	42	0	0	60	4295
2026-01-06 10:12:31.76	330.26	55.02	-43.5	-45.2	19.1	0.00e+00	0	42	0	0	58	4402
2026-01-06 10:12:32.76	330.44	54.66	-43.3	-45.0	19.5	0.00e+00	0	42	0	0	58	4296
2026-01-06 10:12:33.76	330.62	54.30	-43.5	-45.2	19.3	0.00e+00	0	42	0	0	58	4437
2026-01-06 10:12:34.76	330.79	53.94	-44.1	-45.9	18.8	0.00e+00	0	42	0	0	58	4807
2026-01-06 10:12:35.77	330.96	53.58	-44.4	-46.3	18.4	0.00e+00	0	42	0	0	59	4735
2026-01-06 10:12:36.77	331.13	53.23	-44.7	-46.7	18.2	0.00e+00	0	42	0	0	60	4659
2026-01-06 10:12:37.77	331.29	52.88	-45.3	-47.3	17.6	0.00e+00	0	42	0	0	61	4741
2026-01-06 10:12:38.78	331.45	52.53	-45.7	-47.9	17.1	0.00e+00	0	42	0	0	62	4760
2026-01-06 10:12:39.78	331.61	52.18	-45.9	-48.1	16.9	0.00e+00	0	42	0	0	62	4887
2026-01-06 10:12:40.78	331.76	51.84	-45.4	-47.5	17.3	0.00e+00	0	42	0	0	62	4564
2026-01-06 10:12:41.78	331.90	51.50	-45.2	-47.2	17.6	0.00e+00	0	42	0	0	62	4406
2026-01-06 10:12:42.79	332.05	51.16	-44.9	-46.9	17.9	0.00e+00	0	42	0	0	61	4494
2026-01-06 10:12:43.79	332.19	50.82	-44.8	-46.7	18.1	0.00e+00	0	42	0	0	61	4404
2026-01-06 10:12:44.80	332.33	50.48	-44.6	-46.5	18.3	0.00e+00	0	42	0	0	61	4308
2026-01-06 10:12:45.80	332.46	50.15	-44.9	-46.8	18.0	0.00e+00	0	42	0	0	61	4467
2026-01-06 10:12:46.80	332.60	49.82	-44.9	-46.8	18.0	0.00e+00	0	42	0	0	61	4466
2026-01-06 10:12:47.81	332.73	49.49	-45.3	-47.3	17.6	0.00e+00	0	42	0	0	61	4738
2026-01-06 10:12:48.81	332.85	49.17	-45.6	-47.6	17.3	0.00e+00	0	42	0	0	61	4915
2026-01-06 10:12:49.81	332.98	48.84	-45.5	-47.5	17.2	0.00e+00	0	42	0	0	61	4851
2026-01-06 10:12:50.82	333.10	48.52	-45.3	-47.4	17.3	0.00e+00	0	42	0	0	61	4765
2026-01-06 10:12:51.82	333.22	48.20	-45.6	-47.6	17.2	0.00e+00	0	42	0	0	61	4924
2026-01-06 10:12:52.82	333.34	47.89	-45.7	-47.8	17.0	0.00e+00	0	42	0	0	62	4748
2026-01-06 10:12:53.82	333.45	47.57	-45.8	-48.0	16.9	0.00e+00	0	42	0	0	62	4826
2026-01-06 10:12:54.83	333.56	47.26	-46.0	-48.2	16.8	0.00e+00	0	42	0	0	62	4946
2026-01-06 10:12:55.83	333.67	46.95	-45.8	-48.0	16.9	0.00e+00	0	42	0	0	62	4825
2026-01-06 10:12:56.83	333.78	46.64	-45.5	-47.7	17.2	0.00e+00	0	42	0	0	62	4688
2026-01-06 10:12:57.83	333.89	46.33	-45.3	-47.4	17.4	0.00e+00	0	42	0	0	62	4533
2026-01-06 10:12:58.84	333.99	46.03	-45.5	-47.6	17.2	0.00e+00	0	42	0	0	62	4646
2026-01-06 10:12:59.84	334.10	45.73	-46.0	-48.2	16.7	0.00e+00	0	42	0	0	62	4975
2026-01-06 10:13:00.84	334.20	45.43	-46.4	-48.7	16.3	0.00e+00	0	42	0	0	63	4968
2026-01-06 10:13:01.85	334.30	45.13	-46.8	-49.2	15.7	0.00e+00	0	42	0	0	64	4949
2026-01-06 10:13:02.85	334.39	44.83	-47.0	-49.5	15.3	0.00e+00	0	42	0	0	64	5113
2026-01-06 10:13:03.85	334.49	44.54	-47.2	-49.7	14.8	0.00e+00	0	42	0	0	65	4973
2026-01-06 10:13:04.86	334.58	44.25	-47.3	-50.0	14.5	7.00e-07	0	42	0	0	65	5108
2026-01-06 10:13:05.86	334.67	43.96	-47.1	-49.6	15.0	0.00e+00	0	42	0	0	65	4916
2026-01-06 10:13:06.87	334.76	43.67	-46.5	-48.9	15.8	0.00e+00	0	42	0	0	65	4521
2026-01-06 10:13:07.87	334.85	43.39	-45.5	-48.1	16.5	0.00e+00	0	42	0	0	63	4627
2026-01-06 10:13:08.87	334.94	43.11	-45.6	-47.8	17.1	0.00e+00	0	41	0	0	63	4487
2026-01-06 10:13:09.87	335.03	42.83	-45.2	-47.4	17.5	0.00e+00	0	42	0	0	62	4519
2026-01-06 10:13:10.88	335.11	42.55	-45.3	-47.4	17.5	0.00e+00	0	42	0	0	62	4539
2026-01-06 10:13:11.88	335.19	42.27	-45.4	-47.5	17.4	0.00e+00	0	42	0	0	62	4575
2026-01-06 10:13:12.89	335.28	41.99	-45.5	-47.6	17.3	0.00e+00	0	42	0	0	62	4607
2026-01-06 10:13:13.89	335.36	41.72	-45.4	-47.5	17.4	0.00e+00	0	42	0	0	62	4548
2026-01-06 10:13:14.89	335.44	41.45	-45.3	-47.3	17.5	0.00e+00	0	42	0	0	62	4476
2026-01-06 10:13:15.90	335.51	41.18	-45.2	-47.2	17.6	0.00e+00	0	42	0	0	62	4411
2026-01-06 10:13:16.90	335.59	40.91	-45.2	-47.2	17.6	0.00e+00	0	42	0	0	62	4437
2026-01-06 10:13:17.90	335.67	40.65	-45.6	-47.7	17.2	0.00e+00	0	42	0	0	62	4656
2026-01-06 10:13:18.90	335.74	40.39	-46.0	-48.2	16.8	0.00e+00	0	42	0	0	62	4947
2026-01-06 10:13:19.90	335.81	40.13	-46.4	-48.7	16.3	0.00e+00	0	42	0	0	63	4977
2026-01-06 10:13:20.91	335.89	39.87	-46.6	-49.0	15.9	0.00e+00	0	42	0	0	63	5154
2026-01-06 10:13:21.91	335.96	39.61	-46.5	-49.0	16.0	0.00e+00	0	42	0	0	63	5148
2026-01-06 10:13:22.91	336.03	39.35	-46.4	-48.9	16.1	0.00e+00	0	42	0	0	63	5060
2026-01-06 10:13:23.92	336.10	39.10	-46.3	-48.7	16.3	0.00e+00	0	42	0	0	63	4974
2026-01-06 10:13:24.92	336.16	38.85	-46.1	-48.5	16.5	0.00e+00	0	42	0	0	63	4817
2026-01-06 10:13:25.92	336.23	38.60	-46.2	-48.4	16.5	0.00e+00	0	42	0	0	63	4807
2026-01-06 10:13:26.92	336.30	38.35	-46.0	-48.2	16.7	0.00e+00	0	42	0	0	63	4690
2026-01-06 10:13:27.93	336.36	38.10	-45.9	-48.0	16.9	0.00e+00	0	42	0	0	63	4570
2026-01-06 10:13:28.93	336.43	37.86	-46.0	-48.1	16.8	0.00e+00	0	42	0	0	63	4610
2026-01-06 10:13:29.94	336.49	37.61	-45.5	-47.6	17.3	0.00e+00	0	42	0	0	63	4346
2026-01-06 10:13:30.94	336.55	37.37	-44.9	-46.8	18.0	0.00e+00	0	42	0	0	61	4488
2026-01-06 10:13:31.94	336.61	37.13	-44.8	-46.7	18.1	0.00e+00	0	42	0	0	61	4430
2026-01-06 10:13:32.95	336.68	36.89	-44.9	-46.8	18.0	0.00e+00	0	42	0	0	61	4481
2026-01-06 10:13:33.95	336.74	36.66	-44.8	-46.7	18.1	0.00e+00	0	42	0	0	61	4422
2026-01-06 10:13:34.95	336.79	36.43	-44.6	-46.6	18.2	0.00e+00	0	42	0	0	61	4349
2026-01-06 10:13:35.95	336.85	36.19	-44.4	-46.4	18.4	0.00e+00	0	42	0	0	60	4511
2026-01-06 10:13:36.95	336.91	35.96	-44.4	-46.4	18.3	0.00e+00	0	41	0	0	60	4532
2026-01-06 10:13:37.96	336.97	35.73	-44.4	-46.5	18.3	0.00e+00	0	42	0	0	60	4546
2026-01-06 10:13:38.96	337.02	35.50	-44.2	-46.2	18.4	0.00e+00	0	42	0	0	60	4429
2026-01-06 10:13:39.96	337.08	35.28	-44.4	-46.4	18.2	0.00e+00	0	42	0	0	60	4543
2026-01-06 10:13:40.97	337.13	35.05	-44.5	-46.6	18.1	0.00e+00	0	42	0	0	60	4604
2026-01-06 10:13:41.97	337.19	34.83	-44.6	-46.7	18.1	0.00e+00	0	41	0	0	60	4662
2026-01-06 10:13:42.97	337.24	34.61	-44.7	-46.8	18.0	0.00e+00	0	42	0	0	60	4714
2026-01-06 10:13:43.98	337.29	34.39	-44.7	-46.7	18.0	0.00e+00	0	42	0	0	60	4689
2026-01-06 10:13:44.98	337.34	34.17	-44.7	-46.7	18.1	0.00e+00	0	42	0	0	60	4653
2026-01-06 10:13:45.99	337.40	33.95	-44.8	-46.7	18.1	0.00e+00	0	42	0	0	60	4700
2026-01-06 10:13:46.99	337.45	33.74	-44.9	-46.8	18.0	0.00e+00	0	42	0	0	60	4749
2026-01-06 10:13:47.99	337.50	33.52	-44.9	-46.9	17.9	0.00e+00	0	42	0	0	60	4768
2026-01-06 10:13:49.00	337.55	33.31	-44.7	-46.6	18.2	0.00e+00	0	42	0	0	60	4627
2026-01-06 10:13:50.00	337.60	33.10	-44.5	-46.4	18.3	0.00e+00	0	42	0	0	60	4530
2026-01-06 10:13:51.01	337.64	32.89	-44.3	-46.2	18.5	0.00e+00	0	42	0	0	60	4400
2026-01-06 10:13:52.01	337.69	32.68	-44.3	-46.2	18.5	0.00e+00	0	42	0	0	60	4404
2026-01-06 10:13:53.01	337.74	32.47	-43.9	-45.8	18.7	0.00e+00	0	42	0	0	59	4456
2026-01-06 10:13:54.02	337.79	32.27	-44.0	-45.8	18.7	0.00e+00	0	42	0	0	59	4466
2026-01-06 10:13:55.02	337.83	32.06	-43.9	-45.8	18.7	0.00e+00	0	42	0	0	59	4457
2026-01-06 10:13:56.03	337.88	31.86	-43.8	-45.7	18.8	0.00e+00	0	42	0	0	59	4399
2026-01-06 10:13:57.03	337.92	31.66	-43.7	-45.6	18.9	0.00e+00	0	42	0	0	59	4358
2026-01-06 10:13:58.04	337.97	31.46	-43.5	-45.4	19.1	0.00e+00	0	42	0	0	59	4262
2026-01-06 10:13:59.04	338.01	31.26	-43.4	-45.3	19.1	0.00e+00	0	42	0	0	58	4465
2026-01-06 10:14:00.04	338.06	31.06	-43.2	-45.0	19.3	0.00e+00	0	42	0	0	58	4336
2026-01-06 10:14:01.05	338.10	30.86	-43.3	-45.1	19.3	0.00e+00	0	42	0	0	58	4353
2026-01-06 10:14:02.05	338.14	30.67	-43.1	-44.9	19.4	0.00e+00	0	42	0	0	58	4243
2026-01-06 10:14:03.05	338.18	30.48	-43.2	-44.9	19.4	0.00e+00	0	42	0	0	58	4291
2026-01-06 10:14:04.06	338.23	30.28	-43.3	-45.1	19.3	0.00e+00	0	42	0	0	58	4368
2026-01-06 10:14:05.06	338.27	30.09	-43.4	-45.2	19.3	0.00e+00	0	42	0	0	58	4400
2026-01-06 10:14:06.07	338.31	29.90	-43.5	-45.3	19.2	0.00e+00	0	42	0	0	58	4442
2026-01-06 10:14:07.07	338.35	29.72	-43.5	-45.4	19.2	0.00e+00	0	42	0	0	58	4494
2026-01-06 10:14:08.07	338.39	29.53	-43.6	-45.4	19.1	0.00e+00	0	42	0	0	58	4539
2026-01-06 10:14:09.07	338.43	29.34	-43.6	-45.4	19.2	0.00e+00	0	42	0	0	58	4521
2026-01-06 10:14:10.08	338.47	29.16	-43.7	-45.6	19.0	0.00e+00	0	42	0	0	58	4610
2026-01-06 10:14:11.08	338.50	28.98	-43.9	-45.7	18.9	0.00e+00	0	42	0	0	58	4679
2026-01-06 10:14:12.09	338.54	28.79	-44.0	-45.9	18.8	0.00e+00	0	42	0	0	58	4766
2026-01-06 10:14:13.09	338.58	28.61	-44.1	-46.0	18.7	0.00e+00	0	42	0	0	58	4842
2026-01-06 10:14:14.09	338.62	28.43	-44.3	-46.2	18.5	0.00e+00	0	42	0	0	59	4673
2026-01-06 10:14:15.09	338.66	28.25	-44.3	-46.1	18.5	0.00e+00	0	42	0	0	59	4644
2026-01-06 10:14:16.10	338.69	28.08	-44.3	-46.3	18.4	0.00e+00	0	42	0	0	59	4711
2026-01-06 10:14:17.10	338.73	27.90	-44.3	-46.2	18.4	0.00e+00	0	42	0	0	59	4687
2026-01-06 10:14:18.10	338.77	27.72	-44.3	-46.2	18.5	0.00e+00	0	42	0	0	59	4685
2026-01-06 10:14:19.10	338.80	27.55	-44.2	-46.1	18.6	0.00e+00	0	42	0	0	59	4632
2026-01-06 10:14:20.10	338.84	27.38	-44.1	-46.0	18.6	0.00e+00	0	42	0	0	59	4563
2026-01-06 10:14:21.11	338.87	27.20	-44.1	-46.0	18.6	0.00e+00	0	42	0	0	59	4588
2026-01-06 10:14:22.11	338.91	27.03	-43.9	-45.8	18.8	0.00e+00	0	42	0	0	59	4458
2026-01-06 10:14:23.11	338.94	26.86	-43.8	-45.7	18.9	0.00e+00	0	42	0	0	59	4395
2026-01-06 10:14:24.12	338.98	26.69	-43.9	-45.7	18.8	0.00e+00	0	42	0	0	59	4433
2026-01-06 10:14:25.12	339.01	26.53	-43.7	-45.6	18.9	0.00e+00	0	42	0	0	59	4346
2026-01-06 10:14:26.12	339.04	26.36	-43.7	-45.6	18.9	0.00e+00	0	42	0	0	59	4345
2026-01-06 10:14:27.12	339.08	26.20	-43.8	-45.6	18.9	0.00e+00	0	42	0	0	59	4375
2026-01-06 10:14:28.13	339.11	26.03	-43.6	-45.4	19.0	0.00e+00	0	42	0	0	59	4279
2026-01-06 10:14:29.13	339.14	25.87	-43.6	-45.5	19.0	0.00e+00	0	42	0	0	59	4298
2026-01-06 10:14:30.13	339.17	25.70	-43.7	-45.6	18.9	0.00e+00	0	41	0	0	59	4354
2026-01-06 10:14:31.14	339.21	25.54	-43.8	-45.7	18.8	0.00e+00	0	42	0	0	59	4404
2026-01-06 10:14:32.14	339.24	25.38	-43.6	-45.5	18.9	0.00e+00	0	42	0	0	59	4303
2026-01-06 10:14:33.14	339.27	25.22	-43.7	-45.6	18.7	0.00e+00	0	41	0	0	59	4389
2026-01-06 10:14:34.14	339.30	25.06	-43.6	-45.5	18.8	0.00e+00	0	41	0	0	59	4333
2026-01-06 10:14:35.15	339.33	24.90	-43.6	-45.5	18.9	0.00e+00	0	42	0	0	59	4307
2026-01-06 10:14:36.15	339.36	24.75	-43.6	-45.5	18.8	0.00e+00	0	41	0	0	59	4337
2026-01-06 10:14:37.16	339.39	24.59	-43.6	-45.5	18.8	0.00e+00	0	42	0	0	59	4335
2026-01-06 10:14:38.16	339.42	24.44	-43.6	-45.5	18.9	0.00e+00	0	42	0	0	59	4336
2026-01-06 10:14:39.16	339.45	24.28	-43.7	-45.6	18.8	0.00e+00	0	42	0	0	59	4363
2026-01-06 10:14:40.17	339.48	24.13	-43.5	-45.4	19.0	0.00e+00	0	41	0	0	59	4270
2026-01-06 10:14:41.17	339.51	23.98	-43.6	-45.4	18.9	0.00e+00	0	41	0	0	59	4286
2026-01-06 10:14:42.17	339.54	23.82	-43.6	-45.4	18.9	0.00e+00	0	42	0	0	59	4284
2026-01-06 10:14:43.18	339.57	23.67	-43.6	-45.4	18.9	0.00e+00	0	42	0	0	59	4270
2026-01-06 10:14:44.18	339.60	23.52	-43.4	-45.2	19.1	0.00e+00	0	42	0	0	58	4435
2026-01-06 10:14:45.18	339.63	23.38	-43.4	-45.2	19.1	0.00e+00	0	42	0	0	58	4411
2026-01-06 10:14:46.19	339.65	23.23	-43.4	-45.2	19.0	0.00e+00	0	41	0	0	58	4413
2026-01-06 10:14:47.19	339.68	23.08	-43.4	-45.3	19.0	0.00e+00	0	41	0	0	58	4450
2026-01-06 10:14:48.20	339.71	22.93	-43.3	-45.2	19.0	0.00e+00	0	42	0	0	58	4414
2026-01-06 10:14:49.20	339.74	22.79	-43.3	-45.2	19.1	0.00e+00	0	42	0	0	58	4396
2026-01-06 10:14:50.20	339.76	22.64	-43.3	-45.2	19.0	0.00e+00	0	41	0	0	58	4438
2026-01-06 10:14:51.21	339.79	22.50	-43.3	-45.2	19.1	0.00e+00	0	42	0	0	58	4408
2026-01-06 10:14:52.21	339.82	22.35	-43.1	-45.1	19.2	0.00e+00	0	42	0	0	58	4356
2026-01-06 10:14:53.21	339.84	22.21	-43.1	-45.1	19.2	0.00e+00	0	42	0	0	58	4364
2026-01-06 10:14:54.21	339.87	22.07	-43.2	-45.1	19.2	0.00e+00	0	42	0	0	58	4385
2026-01-06 10:14:55.22	339.90	21.93	-43.1	-45.0	19.3	0.00e+00	0	42	0	0	58	4338
2026-01-06 10:14:56.22	339.92	21.79	-43.2	-45.1	19.3	0.00e+00	0	41	0	0	58	4371
2026-01-06 10:14:57.22	339.95	21.65	-43.2	-45.1	19.3	0.00e+00	0	42	0	0	58	4366
2026-01-06 10:14:58.23	339.98	21.51	-43.2	-45.1	19.3	0.00e+00	0	41	0	0	58	4346
2026-01-06 10:14:59.23	340.00	21.37	-43.5	-45.3	19.2	0.00e+00	0	42	0	0	58	4452
2026-01-06 10:15:00.23	340.03	21.24	-43.3	-45.1	19.3	0.00e+00	0	42	0	0	58	4360
2026-01-06 10:15:01.24	340.05	21.10	-43.4	-45.2	19.3	0.00e+00	0	42	0	0	58	4418
2026-01-06 10:15:02.24	340.08	20.97	-43.4	-45.2	19.3	0.00e+00	0	42	0	0	58	4399
2026-01-06 10:15:03.24	340.10	20.83	-43.3	-45.1	19.4	0.00e+00	0	41	0	0	58	4354
2026-01-06 10:15:04.24	340.12	20.70	-43.3	-45.1	19.3	0.00e+00	0	41	0	0	58	4374
2026-01-06 10:15:05.25	340.15	20.56	-43.2	-45.0	19.4	0.00e+00	0	42	0	0	58	4327
2026-01-06 10:15:06.25	340.17	20.43	-43.2	-45.1	19.4	0.00e+00	0	41	0	0	58	4343
2026-01-06 10:15:07.25	340.20	20.30	-43.2	-45.1	19.4	0.00e+00	0	41	0	0	58	4357
2026-01-06 10:15:08.26	340.22	20.17	-43.2	-45.1	19.3	0.00e+00	0	42	0	0	58	4378
2026-01-06 10:15:09.26	340.24	20.04	-43.3	-45.2	19.3	0.00e+00	0	41	0	0	58	4403
2026-01-06 10:15:10.26	340.27	19.91	-43.4	-45.3	19.2	0.00e+00	0	42	0	0	58	4456
2026-01-06 10:15:11.26	340.29	19.78	-43.4	-45.3	19.2	0.00e+00	0	42	0	0	58	4478
2026-01-06 10:15:12.27	340.31	19.65	-43.6	-45.5	19.0	0.00e+00	0	41	0	0	58	4557
2026-01-06 10:15:13.27	340.34	19.52	-43.7	-45.5	19.0	0.00e+00	0	42	0	0	58	4582
2026-01-06 10:15:14.27	340.36	19.39	-43.8	-45.6	18.9	0.00e+00	0	42	0	0	58	4646
2026-01-06 10:15:15.27	340.38	19.27	-43.9	-45.8	18.7	0.00e+00	0	41	0	0	58	4719
2026-01-06 10:15:16.28	340.41	19.14	-43.9	-45.8	18.7	0.00e+00	0	41	0	0	58	4742
2026-01-06 10:15:17.28	340.43	19.02	-44.1	-46.0	18.6	0.00e+00	0	41	0	0	58	4837
2026-01-06 10:15:18.28	340.45	18.89	-44.2	-46.1	18.4	0.00e+00	0	41	0	0	59	4639
2026-01-06 10:15:19.29	340.47	18.77	-44.2	-46.1	18.5	0.00e+00	0	41	0	0	59	4608
2026-01-06 10:15:20.29	340.49	18.64	-44.2	-46.1	18.5	0.00e+00	0	42	0	0	59	4626
2026-01-06 10:15:21.29	340.52	18.52	-44.3	-46.2	18.3	0.00e+00	0	42	0	0	59	4701
2026-01-06 10:15:22.30	340.54	18.40	-44.4	-46.3	18.3	0.00e+00	0	41	0	0	59	4733
2026-01-06 10:15:23.30	340.56	18.28	-44.4	-46.3	18.2	0.00e+00	0	41	0	0	59	4756
2026-01-06 10:15:24.30	340.58	18.16	-44.2	-46.2	18.3	0.00e+00	0	41	0	0	59	4684
2026-01-06 10:15:25.30	340.60	18.04	-44.2	-46.2	18.4	0.00e+00	0	41	0	0	59	4662
2026-01-06 10:15:26.30	340.62	17.92	-44.2	-46.2	18.3	0.00e+00	0	41	0	0	59	4695
2026-01-06 10:15:27.31	340.64	17.80	-44.3	-46.3	18.2	0.00e+00	0	42	0	0	59	4747
2026-01-06 10:15:28.31	340.67	17.68	-44.2	-46.3	18.3	0.00e+00	0	41	0	0	59	4712
2026-01-06 10:15:29.31	340.69	17.56	-44.2	-46.3	18.3	0.00e+00	0	41	0	0	59	4716
2026-01-06 10:15:30.32	340.71	17.44	-44.3	-46.3	18.2	0.00e+00	0	42	0	0	59	4743
2026-01-06 10:15:31.32	340.73	17.33	-44.4	-46.4	18.1	0.00e+00	0	41	0	0	59	4810
2026-01-06 10:15:32.32	340.75	17.21	-44.4	-46.4	18.1	0.00e+00	0	41	0	0	59	4810
2026-01-06 10:15:33.33	340.77	17.09	-44.4	-46.5	18.1	0.00e+00	0	42	0	0	59	4824
2026-01-06 10:15:34.33	340.79	16.98	-44.4	-46.4	18.1	0.00e+00	0	41	0	0	59	4783
2026-01-06 10:15:35.33	340.81	16.86	-44.4	-46.4	18.1	0.00e+00	0	42	0	0	59	4785
2026-01-06 10:15:36.34	340.83	16.75	-44.4	-46.4	18.0	0.00e+00	0	41	0	0	59	4813
2026-01-06 10:15:37.34	340.85	16.64	-44.4	-46.5	17.9	0.00e+00	0	41	0	0	59	4857
2026-01-06 10:15:38.35	340.87	16.52	-44.4	-46.5	17.9	0.00e+00	0	41	0	0	59	4850
2026-01-06 10:15:39.35	340.89	16.41	-44.4	-46.6	17.9	0.00e+00	0	41	0	0	59	4883
2026-01-06 10:15:40.35	340.91	16.30	-44.5	-46.7	17.8	0.00e+00	0	42	0	0	59	4953
2026-01-06 10:15:41.36	340.93	16.19	-44.4	-46.6	17.8	0.00e+00	0	42	0	0	59	4905
2026-01-06 10:15:42.36	340.94	16.07	-44.4	-46.6	17.8	0.00e+00	0	41	0	0	59	4914
2026-01-06 10:15:43.36	340.96	15.96	-44.3	-46.5	17.9	0.00e+00	0	41	0	0	59	4839
2026-01-06 10:15:44.37	340.98	15.85	-44.3	-46.5	17.9	0.00e+00	0	42	0	0	59	4856
2026-01-06 10:15:45.37	341.00	15.74	-44.3	-46.6	17.8	0.00e+00	0	41	0	0	59	4879
2026-01-06 10:15:46.37	341.02	15.64	-44.3	-46.5	17.9	0.00e+00	0	42	0	0	59	4851
2026-01-06 10:15:47.38	341.04	15.53	-44.3	-46.5	17.9	0.00e+00	0	41	0	0	59	4840
2026-01-06 10:15:48.38	341.06	15.42	-44.3	-46.5	17.9	0.00e+00	0	42	0	0	59	4857
2026-01-06 10:15:49.38	341.08	15.31	-44.4	-46.6	17.8	0.00e+00	0	41	0	0	59	4897
2026-01-06 10:15:50.38	341.09	15.20	-44.3	-46.5	17.9	0.00e+00	0	41	0	0	59	4816
2026-01-06 10:15:51.39	341.11	15.10	-44.4	-46.5	17.8	0.00e+00	0	41	0	0	59	4857
2026-01-06 10:15:52.39	341.13	14.99	-44.4	-46.5	17.8	0.00e+00	0	41	0	0	59	4850
2026-01-06 10:15:53.40	341.15	14.88	-44.4	-46.5	17.8	0.00e+00	0	41	0	0	59	4856
2026-01-06 10:15:54.40	341.17	14.78	-44.5	-46.6	17.7	0.00e+00	0	42	0	0	59	4903
2026-01-06 10:15:55.40	341.18	14.67	-44.6	-46.6	17.7	0.00e+00	0	41	0	0	59	4922
2026-01-06 10:15:56.41	341.20	14.57	-44.6	-46.6	17.7	0.00e+00	0	41	0	0	59	4922
2026-01-06 10:15:57.41	341.22	14.47	-44.6	-46.6	17.7	0.00e+00	0	41	0	0	59	4922
2026-01-06 10:15:58.41	341.24	14.36	-44.5	-46.6	17.7	0.00e+00	0	41	0	0	59	4908
2026-01-06 10:15:59.41	341.25	14.26	-44.7	-46.8	17.5	0.00e+00	0	41	0	0	59	5011
2026-01-06 10:16:00.42	341.27	14.16	-44.5	-46.6	17.7	0.00e+00	0	41	0	0	59	4925
2026-01-06 10:16:01.43	341.29	14.05	-44.6	-46.7	17.6	0.00e+00	0	41	0	0	59	4963
2026-01-06 10:16:02.43	341.31	13.95	-44.5	-46.7	17.7	0.00e+00	0	42	0	0	59	4948
2026-01-06 10:16:03.43	341.32	13.85	-44.4	-46.6	17.7	0.00e+00	0	41	0	0	59	4914
2026-01-06 10:16:04.43	341.34	13.75	-44.5	-46.8	17.6	0.00e+00	0	41	0	0	59	5008
2026-01-06 10:16:05.43	341.36	13.65	-44.5	-46.8	17.6	0.00e+00	0	41	0	0	59	5028
2026-01-06 10:16:06.44	341.37	13.55	-44.5	-46.8	17.6	0.00e+00	0	42	0	0	59	4996
2026-01-06 10:16:07.44	341.39	13.45	-44.4	-46.8	17.6	0.00e+00	0	41	0	0	59	4985
2026-01-06 10:16:08.45	341.41	13.35	-44.5	-46.9	17.5	0.00e+00	0	42	0	0	59	5048
2026-01-06 10:16:09.45	341.42	13.25	-44.4	-46.7	17.7	0.00e+00	0	41	0	0	59	4982
2026-01-06 10:16:10.45	341.44	13.15	-44.5	-46.9	17.6	0.00e+00	0	42	0	0	59	5054
2026-01-06 10:16:11.45	341.46	13.05	-44.5	-46.9	17.5	0.00e+00	0	41	0	0	59	5065
2026-01-06 10:16:12.46	341.47	12.96	-44.5	-46.8	17.6	0.00e+00	0	42	0	0	59	5034
2026-01-06 10:16:13.46	341.49	12.86	-44.5	-46.8	17.6	0.00e+00	0	42	0	0	59	5005
2026-01-06 10:16:14.46	341.51	12.76	-44.5	-46.7	17.7	0.00e+00	0	42	0	0	59	4957
2026-01-06 10:16:15.47	341.52	12.66	-44.5	-46.7	17.7	0.00e+00	0	41	0	0	59	4936
2026-01-06 10:16:16.47	341.54	12.57	-44.6	-46.7	17.7	0.00e+00	0	42	0	0	59	4979
2026-01-06 10:16:17.47	341.55	12.47	-44.5	-46.6	17.8	0.00e+00	0	42	0	0	59	4893
2026-01-06 10:16:18.48	341.57	12.38	-44.6	-46.7	17.7	0.00e+00	0	41	0	0	59	4941
2026-01-06 10:16:19.48	341.59	12.28	-44.7	-46.8	17.6	0.00e+00	0	41	0	0	59	5010
2026-01-06 10:16:20.48	341.60	12.19	-44.6	-46.7	17.7	0.00e+00	0	41	0	0	59	4972
2026-01-06 10:16:21.49	341.62	12.09	-44.5	-46.6	17.7	0.00e+00	0	41	0	0	59	4921
2026-01-06 10:16:22.49	341.63	12.00	-44.5	-46.6	17.7	0.00e+00	0	41	0	0	59	4921
2026-01-06 10:16:23.49	341.65	11.91	-44.6	-46.7	17.7	0.00e+00	0	41	0	0	59	4952
2026-01-06 10:16:24.49	341.66	11.81	-44.6	-46.7	17.6	0.00e+00	0	41	0	0	59	4973
2026-01-06 10:16:25.49	341.68	11.72	-44.4	-46.6	17.8	0.00e+00	0	41	0	0	59	4879
2026-01-06 10:16:26.49	341.69	11.63	-44.5	-46.6	17.8	0.00e+00	0	42	0	0	59	4903
2026-01-06 10:16:27.50	341.71	11.54	-44.5	-46.7	17.7	0.00e+00	0	41	0	0	59	4935
2026-01-06 10:16:28.50	341.72	11.44	-44.5	-46.7	17.6	0.00e+00	0	41	0	0	59	4949
2026-01-06 10:16:29.50	341.74	11.35	-44.5	-46.7	17.6	0.00e+00	0	41	0	0	59	4954
2026-01-06 10:16:30.51	341.75	11.26	-44.5	-46.7	17.6	0.00e+00	0	42	0	0	59	4964
2026-01-06 10:16:31.51	341.77	11.17	-44.6	-46.9	17.5	0.00e+00	0	41	0	0	59	5066
2026-01-06 10:16:32.52	341.78	11.08	-44.4	-46.6	17.7	0.00e+00	0	41	0	0	59	4909
2026-01-06 10:16:33.52	341.80	10.99	-44.5	-46.7	17.6	0.00e+00	0	42	0	0	59	4978
2026-01-06 10:16:34.52	341.81	10.90	-44.5	-46.7	17.6	0.00e+00	0	41	0	0	59	4958
2026-01-06 10:16:35.52	341.83	10.81	-44.6	-46.9	17.5	0.00e+00	0	42	0	0	59	5049
2026-01-06 10:16:36.53	341.84	10.72	-44.6	-46.8	17.5	0.00e+00	0	41	0	0	59	5041
2026-01-06 10:16:37.53	341.86	10.63	-44.6	-46.9	17.5	0.00e+00	0	41	0	0	60	4792
2026-01-06 10:16:38.53	341.87	10.54	-44.6	-46.9	17.5	0.00e+00	0	41	0	0	60	4777
2026-01-06 10:16:39.54	341.89	10.46	-44.7	-47.0	17.4	0.00e+00	0	41	0	0	60	4837
2026-01-06 10:16:40.54	341.90	10.37	-44.7	-47.1	17.4	0.00e+00	0	41	0	0	60	4879
2026-01-06 10:16:41.54	341.91	10.28	-44.6	-46.9	17.5	0.00e+00	0	41	0	0	60	4778
2026-01-06 10:16:42.55	341.93	10.19	-44.6	-46.9	17.5	0.00e+00	0	41	0	0	60	4810
2026-01-06 10:16:43.55	341.94	10.11	-44.6	-47.0	17.5	0.00e+00	0	41	0	0	60	4821
2026-01-06 10:16:44.55	341.96	10.02	-44.7	-47.2	17.2	0.00e+00	0	41	0	0	60	4941
2026-01-06 10:16:45.56	341.97	9.93	-44.7	-47.1	17.3	0.00e+00	0	41	0	0	60	4918
2026-01-06 10:16:46.56	341.99	9.85	-44.6	-47.1	17.3	0.00e+00	0	42	0	0	60	4892
2026-01-06 10:16:47.55	342.00	9.76	-44.7	-47.2	17.2	0.00e+00	0	41	0	0	60	4967
2026-01-06 10:16:48.55	342.01	9.68	-44.7	-47.3	17.2	0.00e+00	0	42	0	0	60	4997
2026-01-06 10:16:49.55	342.03	9.59	-44.6	-47.2	17.2	0.00e+00	0	41	0	0	60	4943
2026-01-06 10:16:50.55	342.04	9.51	-44.8	-47.5	17.0	0.00e+00	0	41	0	0	60	5109
2026-01-06 10:16:51.56	342.05	9.42	-44.7	-47.4	17.0	0.00e+00	0	41	0	0	60	5087
2026-01-06 10:16:52.56	342.07	9.34	-44.8	-47.5	16.9	0.00e+00	0	41	0	0	60	5156
2026-01-06 10:16:53.56	342.08	9.25	-44.7	-47.5	17.0	0.00e+00	0	41	0	0	60	5108
2026-01-06 10:16:54.56	342.10	9.17	-44.8	-47.6	16.8	0.00e+00	0	41	0	0	60	5193
2026-01-06 10:16:55.57	342.11	9.09	-44.8	-47.7	16.7	0.00e+00	0	41	0	0	60	5230
2026-01-06 10:16:56.57	342.12	9.00	-45.4	-48.4	16.1	0.00e+00	0	41	0	0	61	5384
2026-01-06 10:16:57.58	342.14	8.92	-52.0	-65.3	3.8	1.49e+00	0	41	104	0	74	17695
2026-01-06 10:16:58.58	342.15	8.84	-50.5	-66.0	3.8	1.49e+00	0	41	104	0	72	21639
2026-01-06 10:16:59.58	342.16	8.76	-52.7	-66.2	3.8	1.49e+00	0	41	104	0	76	17486
2026-01-06 10:17:00.59	342.18	8.67	-51.0	-66.2	3.8	1.49e+00	0	41	104	0	73	20903
2026-01-06 10:17:01.59	342.19	8.59	-52.7	-66.2	3.8	1.49e+00	0	41	104	0	75	18638
2026-01-06 10:17:02.60	342.20	8.51	-53.0	-66.3	3.8	1.49e+00	0	41	104	0	76	17757
2026-01-06 10:17:03.60	342.22	8.43	-52.0	-66.3	3.8	1.49e+00	0	41	104	0	75	18879
2026-01-06 10:17:04.61	342.23	8.35	-52.4	-66.4	3.8	1.49e+00	0	41	104	0	76	17899
2026-01-06 10:17:05.61	342.24	8.27	-53.3	-66.4	3.8	1.49e+00	0	41	104	0	77	16975
2026-01-06 10:17:06.61	342.25	8.19	-53.2	-66.4	3.8	1.49e+00	0	41	104	0	77	16968
2026-01-06 10:17:07.62	342.27	8.10	-53.2	-66.4	3.8	1.49e+00	0	41	104	0	77	16996
2026-01-06 10:17:08.62	342.28	8.02	-52.8	-66.4	3.8	1.49e+00	0	41	104	0	77	17074
2026-01-06 10:17:09.62	342.29	7.95	-53.3	-66.4	3.8	1.49e+00	0	41	104	0	77	17067
2026-01-06 10:17:10.63	342.31	7.87	-53.1	-66.4	3.8	1.49e+00	0	41	104	0	77	17053
2026-01-06 10:17:11.63	342.32	7.79	-53.4	-66.4	3.8	1.49e+00	0	41	104	0	77	169
