passes_logs/2026/01/06/T1/T1__20260106_071410_KHAYYAM_rec.log

#Pass ID: 20260106_071410_KHAYYAM
#Satellite: KHAYYAM
#Configuration: KHAYYAM_480M
#almurnet v.1.7.20251203
#Start time: 2026-01-06 07:14:09

#Version: 2.0.20230620
#Station: T1
#Location: 37.570604 lon 55.790049 lat
#TLE: 1 53370U 22096A   26005.50641227  .00007567  00000+0  30852-3 0  9992
#TLE: 2 53370  97.3566 272.6856 0001238  87.7352 272.4028 15.24728297189794

#Time	Az	El	Level	Level2	SNR	BER	BlckErr	Temp	State	Recorded	gain1	gain2
2026-01-06 07:14:09.89	139.63	4.96	-55.3	-59.9	3.6	0.00e+00	0	40	0	0	82	24222
2026-01-06 07:14:10.88	139.57	5.04	-55.3	-59.9	3.7	0.00e+00	0	41	104	0	81	25506
2026-01-06 07:14:11.88	139.51	5.11	-55.3	-59.9	3.7	0.00e+00	0	41	104	0	81	25559
2026-01-06 07:14:12.89	139.45	5.19	-55.3	-59.9	3.7	0.00e+00	0	41	104	0	81	25506
2026-01-06 07:14:13.89	139.38	5.27	-55.3	-59.9	3.7	0.00e+00	0	41	104	0	81	25632
2026-01-06 07:14:14.89	139.32	5.35	-55.3	-59.9	3.7	0.00e+00	0	41	104	0	81	25597
2026-01-06 07:14:15.89	139.26	5.43	-55.3	-59.9	3.7	0.00e+00	0	41	104	0	81	25533
2026-01-06 07:14:16.90	139.19	5.51	-55.3	-59.9	3.7	0.00e+00	0	41	104	0	81	25517
2026-01-06 07:14:17.90	139.13	5.59	-55.2	-59.9	3.7	0.00e+00	0	42	104	0	81	25489
2026-01-06 07:14:18.90	139.07	5.67	-55.2	-59.9	3.7	0.00e+00	0	42	104	0	81	25488
2026-01-06 07:14:19.90	139.00	5.76	-55.2	-59.9	3.7	0.00e+00	0	42	104	0	81	25526
2026-01-06 07:14:20.90	138.94	5.84	-55.3	-59.9	3.7	0.00e+00	0	42	104	0	81	25541
2026-01-06 07:14:21.90	138.87	5.92	-55.2	-59.9	3.7	0.00e+00	0	42	104	0	81	25480
2026-01-06 07:14:22.91	138.80	6.00	-55.2	-59.9	3.7	0.00e+00	0	42	104	0	81	25573
2026-01-06 07:14:23.91	138.74	6.08	-55.2	-59.9	3.7	0.00e+00	0	42	104	0	81	25520
2026-01-06 07:14:24.91	138.67	6.17	-55.2	-59.9	3.7	0.00e+00	0	42	104	0	81	25568
2026-01-06 07:14:25.92	138.60	6.25	-55.2	-59.9	3.7	0.00e+00	0	42	104	0	81	25523
2026-01-06 07:14:26.92	138.53	6.33	-55.2	-59.9	3.7	0.00e+00	0	42	104	0	81	25477
2026-01-06 07:14:27.92	138.46	6.42	-55.2	-59.9	3.7	0.00e+00	0	42	104	0	81	25480
2026-01-06 07:14:28.92	138.40	6.50	-55.2	-59.9	3.7	0.00e+00	0	42	104	0	81	25465
2026-01-06 07:14:29.93	138.32	6.59	-55.2	-59.9	3.7	0.00e+00	0	42	104	0	81	25514
2026-01-06 07:14:30.93	138.25	6.67	-55.3	-59.9	3.7	0.00e+00	0	42	104	0	81	25489
2026-01-06 07:14:31.93	138.18	6.76	-55.2	-59.9	3.7	0.00e+00	0	42	104	0	81	25526
2026-01-06 07:14:32.93	138.11	6.84	-55.2	-59.9	3.7	0.00e+00	0	43	104	0	81	25547
2026-01-06 07:14:33.94	138.04	6.93	-55.2	-59.9	3.7	0.00e+00	0	43	104	0	81	25447
2026-01-06 07:14:34.94	137.97	7.01	-55.2	-59.9	3.7	0.00e+00	0	43	104	0	81	25519
2026-01-06 07:14:35.94	137.89	7.10	-55.2	-59.8	3.7	0.00e+00	0	43	104	0	81	25366
2026-01-06 07:14:36.94	137.82	7.19	-55.2	-59.9	3.7	0.00e+00	0	43	104	0	81	25483
2026-01-06 07:14:37.94	137.75	7.27	-55.2	-59.9	3.7	0.00e+00	0	43	104	0	81	25468
2026-01-06 07:14:38.95	137.67	7.36	-55.3	-59.9	3.7	0.00e+00	0	43	104	0	81	25472
2026-01-06 07:14:39.95	137.60	7.45	-55.2	-59.9	3.7	0.00e+00	0	43	104	0	81	25425
2026-01-06 07:14:40.95	137.52	7.54	-55.2	-59.9	3.7	0.00e+00	0	43	104	0	81	25483
2026-01-06 07:14:41.95	137.44	7.63	-55.2	-59.9	3.7	0.00e+00	0	43	104	0	81	25502
2026-01-06 07:14:42.96	137.36	7.72	-55.2	-59.9	3.7	0.00e+00	0	43	104	0	81	25507
2026-01-06 07:14:43.96	137.29	7.81	-55.2	-59.9	3.7	0.00e+00	0	43	104	0	81	25477
2026-01-06 07:14:44.96	137.21	7.90	-55.3	-59.9	3.7	0.00e+00	0	43	104	0	81	25532
2026-01-06 07:14:45.97	137.13	7.99	-55.2	-59.9	3.7	0.00e+00	0	43	104	0	81	25424
2026-01-06 07:14:46.97	137.05	8.08	-55.2	-59.9	3.7	0.00e+00	0	43	104	0	81	25446
2026-01-06 07:14:47.97	136.97	8.17	-55.2	-59.8	3.7	0.00e+00	0	44	104	0	81	25377
2026-01-06 07:14:48.97	136.89	8.26	-55.2	-59.9	3.7	0.00e+00	0	44	104	0	81	25519
2026-01-06 07:14:49.97	136.81	8.35	-55.2	-59.9	3.7	0.00e+00	0	44	104	0	81	25392
2026-01-06 07:14:50.98	136.72	8.44	-55.2	-59.9	3.7	0.00e+00	0	44	104	0	81	25470
2026-01-06 07:14:51.98	136.64	8.54	-55.2	-59.8	3.7	0.00e+00	0	44	104	0	81	25355
2026-01-06 07:14:52.98	136.56	8.63	-55.2	-59.9	3.7	0.00e+00	0	44	104	0	81	25445
2026-01-06 07:14:53.98	136.47	8.72	-55.2	-59.8	3.7	0.00e+00	0	44	104	0	81	25376
2026-01-06 07:14:54.99	136.39	8.82	-55.2	-59.9	3.7	0.00e+00	0	44	104	0	81	25498
2026-01-06 07:14:55.99	136.30	8.91	-55.2	-59.9	3.7	0.00e+00	0	44	104	0	81	25496
2026-01-06 07:14:56.99	136.21	9.01	-55.2	-59.9	3.7	0.00e+00	0	44	104	0	81	25545
2026-01-06 07:14:57.99	136.13	9.10	-55.2	-59.9	3.7	0.00e+00	0	44	104	0	81	25489
2026-01-06 07:14:58.99	136.04	9.20	-55.2	-59.8	3.7	0.00e+00	0	44	104	0	81	25242
2026-01-06 07:14:59.99	135.95	9.29	-55.3	-59.8	3.7	0.00e+00	0	44	104	0	81	25251
2026-01-06 07:15:00.99	135.86	9.39	-55.3	-60.0	3.7	0.00e+00	0	44	104	0	81	25704
2026-01-06 07:15:01.99	135.77	9.49	-55.2	-59.9	3.7	0.00e+00	0	44	104	0	81	25441
2026-01-06 07:15:02.99	135.68	9.58	-55.4	-60.0	3.7	0.00e+00	0	44	104	0	81	25913
2026-01-06 07:15:03.99	135.59	9.68	-55.2	-59.8	3.7	0.00e+00	0	44	104	0	81	25219
2026-01-06 07:15:04.99	135.49	9.78	-55.5	-59.9	3.7	0.00e+00	0	44	104	0	81	25606
2026-01-06 07:15:06.00	135.40	9.88	-55.2	-59.9	3.7	0.00e+00	0	44	104	0	81	25385
2026-01-06 07:15:07.00	135.31	9.98	-55.5	-60.0	3.7	0.00e+00	0	44	104	0	81	25949
2026-01-06 07:15:08.00	135.21	10.08	-55.4	-59.9	3.7	0.00e+00	0	44	104	0	81	25546
2026-01-06 07:15:09.00	135.11	10.18	-55.5	-59.9	3.7	0.00e+00	0	44	104	0	81	25565
2026-01-06 07:15:10.00	135.02	10.28	-55.4	-59.9	3.7	0.00e+00	0	45	104	0	81	25605
2026-01-06 07:15:11.00	134.92	10.38	-55.4	-59.8	3.7	0.00e+00	0	44	104	0	81	25148
2026-01-06 07:15:12.00	134.82	10.48	-55.5	-60.0	3.7	0.00e+00	0	44	104	0	81	25955
2026-01-06 07:15:13.00	134.72	10.58	-55.5	-59.9	3.7	0.00e+00	0	44	104	0	81	25501
2026-01-06 07:15:14.00	134.62	10.69	-55.5	-59.9	3.7	0.00e+00	0	44	104	0	81	25639
2026-01-06 07:15:15.00	134.52	10.79	-55.4	-59.7	3.7	0.00e+00	0	44	104	0	81	24959
2026-01-06 07:15:16.01	134.42	10.89	-55.5	-60.0	3.7	0.00e+00	0	45	104	0	81	25907
2026-01-06 07:15:17.01	134.32	11.00	-55.4	-59.9	3.7	0.00e+00	0	45	104	0	81	25424
2026-01-06 07:15:18.01	134.21	11.10	-55.4	-59.9	3.7	0.00e+00	0	45	104	0	81	25438
2026-01-06 07:15:19.01	134.11	11.21	-55.6	-60.0	3.7	0.00e+00	0	45	104	0	81	25690
2026-01-06 07:15:20.02	134.00	11.31	-55.6	-60.0	3.7	0.00e+00	0	45	104	0	81	25793
2026-01-06 07:15:21.02	133.89	11.42	-55.4	-60.0	3.7	0.00e+00	0	44	104	0	81	25762
2026-01-06 07:15:22.02	133.79	11.53	-55.4	-59.9	3.7	0.00e+00	0	45	104	0	81	25422
2026-01-06 07:15:23.02	133.68	11.63	-55.5	-60.0	3.7	0.00e+00	0	45	104	0	82	24460
2026-01-06 07:15:24.02	133.57	11.74	-55.4	-60.0	3.7	0.00e+00	0	45	104	0	82	24355
2026-01-06 07:15:25.03	133.46	11.85	-55.3	-60.0	3.7	0.00e+00	0	45	104	0	82	24292
2026-01-06 07:15:26.02	133.35	11.96	-55.5	-60.1	3.7	0.00e+00	0	45	104	0	82	24576
2026-01-06 07:15:27.03	133.23	12.07	-55.3	-60.0	3.7	0.00e+00	0	45	104	0	82	24387
2026-01-06 07:15:28.03	133.12	12.18	-55.3	-59.9	3.7	0.00e+00	0	45	104	0	82	24182
2026-01-06 07:15:29.03	133.00	12.29	-55.4	-59.7	3.7	0.00e+00	0	45	104	0	82	23641
2026-01-06 07:15:30.03	132.89	12.40	-55.3	-60.0	3.7	0.00e+00	0	45	104	0	82	24353
2026-01-06 07:15:31.03	132.77	12.51	-55.5	-60.0	3.7	0.00e+00	0	45	104	0	82	24320
2026-01-06 07:15:32.03	132.65	12.63	-55.4	-59.7	3.7	0.00e+00	0	45	104	0	82	23438
2026-01-06 07:15:33.04	132.53	12.74	-55.3	-59.6	3.7	0.00e+00	0	45	104	0	82	23298
2026-01-06 07:15:34.04	132.41	12.85	-55.4	-59.7	3.7	0.00e+00	0	45	104	0	82	23635
2026-01-06 07:15:35.04	132.29	12.97	-55.5	-59.8	3.7	0.00e+00	0	45	104	0	82	23847
2026-01-06 07:15:36.04	132.17	13.08	-55.1	-59.4	3.7	0.00e+00	0	45	104	0	82	22702
2026-01-06 07:15:37.04	132.04	13.20	-55.3	-59.8	3.7	0.00e+00	0	45	104	0	82	23949
2026-01-06 07:15:38.04	131.92	13.31	-55.3	-59.6	3.7	0.00e+00	0	45	104	0	82	23316
2026-01-06 07:15:39.04	131.79	13.43	-55.4	-59.9	3.7	0.00e+00	0	45	104	0	82	24201
2026-01-06 07:15:40.05	131.66	13.55	-55.2	-59.8	3.7	0.00e+00	0	45	104	0	82	23822
2026-01-06 07:15:41.05	131.54	13.67	-55.2	-59.7	3.7	0.00e+00	0	45	104	0	82	23477
2026-01-06 07:15:42.05	131.41	13.79	-55.3	-59.9	3.7	0.00e+00	0	45	104	0	82	24062
2026-01-06 07:15:43.05	131.27	13.91	-55.2	-59.7	3.7	0.00e+00	0	45	104	0	82	23622
2026-01-06 07:15:44.05	131.14	14.02	-55.4	-59.9	3.7	0.00e+00	0	45	104	0	82	24069
2026-01-06 07:15:45.06	131.01	14.15	-55.2	-59.5	3.7	0.00e+00	0	45	104	0	82	23091
2026-01-06 07:15:46.05	130.87	14.27	-55.2	-59.7	3.7	0.00e+00	0	45	104	0	82	23682
2026-01-06 07:15:47.05	130.74	14.39	-55.2	-59.4	3.7	0.00e+00	0	45	104	0	82	22688
2026-01-06 07:15:48.05	130.60	14.51	-55.2	-59.7	3.7	0.00e+00	0	45	104	0	82	23569
2026-01-06 07:15:49.05	130.46	14.63	-55.4	-59.7	3.7	0.00e+00	0	45	104	0	82	23435
2026-01-06 07:15:50.05	130.32	14.76	-55.3	-59.6	3.7	0.00e+00	0	45	104	0	82	23229
2026-01-06 07:15:51.05	130.18	14.88	-55.6	-59.9	3.7	0.00e+00	0	45	104	0	82	24020
2026-01-06 07:15:52.05	130.03	15.01	-55.4	-59.8	3.7	0.00e+00	0	45	104	0	82	23935
2026-01-06 07:15:53.05	129.89	15.13	-55.5	-59.8	3.7	0.00e+00	0	45	104	0	82	23811
2026-01-06 07:15:54.05	129.74	15.26	-55.6	-60.0	3.7	0.00e+00	0	45	104	0	82	24358
2026-01-06 07:15:55.06	129.59	15.39	-55.6	-60.0	3.7	0.00e+00	0	45	104	0	82	24440
2026-01-06 07:15:56.06	129.44	15.52	-55.6	-60.1	3.7	0.00e+00	0	45	104	0	82	24753
2026-01-06 07:15:57.06	129.29	15.64	-55.4	-59.8	3.7	0.00e+00	0	45	104	0	82	23860
2026-01-06 07:15:58.06	129.14	15.77	-55.7	-60.1	3.7	0.00e+00	0	45	104	0	82	24706
2026-01-06 07:15:59.06	128.98	15.90	-55.6	-60.1	3.7	0.00e+00	0	45	104	0	82	24582
2026-01-06 07:16:00.06	128.83	16.03	-55.4	-59.9	3.7	0.00e+00	0	45	104	0	82	24235
2026-01-06 07:16:01.07	128.67	16.17	-55.3	-59.3	3.7	0.00e+00	0	45	104	0	82	22588
2026-01-06 07:16:02.07	128.51	16.30	-55.6	-60.0	3.7	0.00e+00	0	45	104	0	82	24500
2026-01-06 07:16:03.07	128.35	16.43	-55.2	-59.3	3.7	0.00e+00	0	45	104	0	82	22408
2026-01-06 07:16:04.07	128.19	16.57	-55.1	-58.9	3.7	0.00e+00	0	45	104	0	82	21512
2026-01-06 07:16:05.07	128.02	16.70	-54.9	-58.5	3.7	0.00e+00	0	45	104	0	81	21615
2026-01-06 07:16:06.08	127.85	16.84	-54.7	-58.1	3.7	0.00e+00	0	45	104	0	81	20701
2026-01-06 07:16:07.08	127.68	16.97	-55.8	-60.1	3.7	0.00e+00	0	46	104	0	82	24699
2026-01-06 07:16:08.08	127.51	17.11	-55.3	-59.3	3.7	0.00e+00	0	45	104	0	81	23912
2026-01-06 07:16:09.08	127.34	17.25	-55.6	-59.9	3.7	0.00e+00	0	46	104	0	82	23966
2026-01-06 07:16:10.08	127.17	17.39	-55.4	-59.6	3.7	0.00e+00	0	45	104	0	82	23161
2026-01-06 07:16:11.08	126.99	17.53	-55.7	-60.0	3.7	0.00e+00	0	46	104	0	82	24326
2026-01-06 07:16:12.08	126.82	17.67	-55.6	-59.7	3.7	0.00e+00	0	45	104	0	82	23421
2026-01-06 07:16:13.08	126.64	17.81	-55.5	-59.6	3.7	0.00e+00	0	46	104	0	82	23241
2026-01-06 07:16:14.08	126.46	17.95	-55.5	-59.3	3.7	0.00e+00	0	46	104	0	82	22538
2026-01-06 07:16:15.07	126.27	18.09	-55.2	-58.9	3.7	0.00e+00	0	46	104	0	82	21575
2026-01-06 07:16:16.08	126.09	18.23	-55.0	-58.8	3.7	0.00e+00	0	45	104	0	82	21204
2026-01-06 07:16:17.08	125.90	18.38	-55.4	-59.5	3.7	0.00e+00	0	46	104	0	81	24277
2026-01-06 07:16:18.08	125.71	18.52	-56.0	-60.5	3.7	0.00e+00	0	46	104	0	82	25747
2026-01-06 07:16:19.08	125.52	18.67	-55.4	-59.7	3.7	0.00e+00	0	45	104	0	82	23583
2026-01-06 07:16:20.08	125.32	18.81	-55.6	-59.9	3.7	0.00e+00	0	46	104	0	82	24011
2026-01-06 07:16:21.08	125.13	18.96	-55.3	-59.4	3.7	0.00e+00	0	46	104	0	82	22850
2026-01-06 07:16:22.08	124.93	19.11	-55.3	-59.5	3.7	0.00e+00	0	46	104	0	82	23035
2026-01-06 07:16:23.08	124.73	19.26	-55.3	-59.3	3.7	0.00e+00	0	45	104	0	82	22379
2026-01-06 07:16:24.08	124.53	19.41	-55.2	-58.9	3.7	0.00e+00	0	46	104	0	82	21600
2026-01-06 07:16:25.08	124.32	19.56	-55.1	-58.9	3.7	0.00e+00	0	46	104	0	82	21562
2026-01-06 07:16:26.08	124.11	19.71	-55.5	-59.6	3.7	0.00e+00	0	45	104	0	82	23363
2026-01-06 07:16:27.08	123.90	19.86	-55.9	-60.4	3.7	0.00e+00	0	46	104	0	82	25533
2026-01-06 07:16:28.08	123.69	20.01	-55.6	-59.9	3.7	0.00e+00	0	46	104	0	82	24108
2026-01-06 07:16:29.08	123.48	20.16	-55.3	-59.7	3.7	0.00e+00	0	46	104	0	82	23641
2026-01-06 07:16:30.09	123.26	20.32	-55.2	-59.5	3.7	0.00e+00	0	46	104	0	82	22891
2026-01-06 07:16:31.09	123.04	20.48	-55.1	-59.1	3.7	0.00e+00	0	46	104	0	82	22010
2026-01-06 07:16:32.09	122.82	20.63	-54.8	-58.7	3.7	0.00e+00	0	46	104	0	81	22112
2026-01-06 07:16:33.09	122.59	20.79	-54.8	-58.4	3.7	0.00e+00	0	46	104	0	81	21548
2026-01-06 07:16:34.09	122.36	20.95	-54.9	-58.4	3.7	0.00e+00	0	46	104	0	81	21381
2026-01-06 07:16:35.10	122.13	21.11	-55.3	-59.3	3.7	0.00e+00	0	46	104	0	81	23691
2026-01-06 07:16:36.10	121.90	21.27	-55.5	-59.9	3.7	0.00e+00	0	46	104	0	81	25464
2026-01-06 07:16:37.11	121.66	21.43	-55.8	-59.9	3.7	0.00e+00	0	46	104	0	82	24195
2026-01-06 07:16:38.10	121.42	21.59	-56.0	-60.3	3.7	0.00e+00	0	46	104	0	82	25369
2026-01-06 07:16:39.10	121.18	21.75	-55.9	-60.1	3.7	0.00e+00	0	46	104	0	82	24686
2026-01-06 07:16:40.11	120.93	21.91	-55.9	-60.1	3.7	0.00e+00	0	46	104	0	82	24736
2026-01-06 07:16:41.11	120.69	22.08	-55.8	-60.0	3.7	0.00e+00	0	46	104	0	82	24494
2026-01-06 07:16:42.11	120.44	22.24	-55.7	-59.9	3.7	0.00e+00	0	46	104	0	82	24114
2026-01-06 07:16:43.11	120.18	22.40	-55.8	-60.2	3.7	0.00e+00	0	46	104	0	82	24818
2026-01-06 07:16:44.11	119.92	22.57	-55.9	-60.3	3.7	0.00e+00	0	46	104	0	82	25164
2026-01-06 07:16:45.11	119.66	22.74	-56.1	-60.6	3.7	0.00e+00	0	46	104	0	82	26052
2026-01-06 07:16:46.11	119.40	22.90	-56.2	-60.7	3.7	0.00e+00	0	46	104	0	82	26284
2026-01-06 07:16:47.11	119.14	23.07	-56.1	-60.6	3.7	0.00e+00	0	46	104	0	82	26119
2026-01-06 07:16:48.09	118.87	23.24	-55.8	-60.3	3.7	0.00e+00	0	46	104	0	82	25270
2026-01-06 07:16:49.08	118.60	23.41	-56.1	-60.6	3.7	0.00e+00	0	46	104	0	82	26158
2026-01-06 07:16:50.08	118.33	23.58	-55.9	-60.5	3.7	0.00e+00	0	46	104	0	82	25734
2026-01-06 07:16:51.08	118.05	23.75	-55.8	-60.5	3.7	0.00e+00	0	46	104	0	82	25753
2026-01-06 07:16:52.09	117.76	23.92	-55.7	-60.2	3.7	0.00e+00	0	46	104	0	82	24945
2026-01-06 07:16:53.09	117.47	24.09	-55.8	-60.4	3.7	0.00e+00	0	46	104	0	82	25492
2026-01-06 07:16:54.09	117.18	24.27	-55.8	-60.4	3.7	0.00e+00	0	46	104	0	82	25386
2026-01-06 07:16:55.09	116.89	24.44	-55.9	-60.4	3.7	0.00e+00	0	46	104	0	82	25458
2026-01-06 07:16:56.09	116.59	24.61	-55.9	-60.4	3.7	0.00e+00	0	46	104	0	82	25447
2026-01-06 07:16:57.09	116.29	24.79	-55.8	-60.4	3.7	0.00e+00	0	46	104	0	82	25509
2026-01-06 07:16:58.09	115.99	24.96	-56.0	-60.6	3.7	0.00e+00	0	46	104	0	82	26219
2026-01-06 07:16:59.09	115.68	25.14	-56.1	-60.6	3.7	0.00e+00	0	46	104	0	82	26225
2026-01-06 07:17:00.10	115.36	25.32	-55.9	-60.4	3.7	0.00e+00	0	46	104	0	82	25616
2026-01-06 07:17:01.09	115.05	25.49	-56.1	-60.6	3.7	0.00e+00	0	46	104	0	82	26225
2026-01-06 07:17:02.09	114.73	25.67	-56.0	-60.5	3.7	0.00e+00	0	46	104	0	82	25950
2026-01-06 07:17:03.10	114.40	25.85	-55.9	-60.5	3.7	0.00e+00	0	46	104	0	82	25800
2026-01-06 07:17:04.10	114.07	26.03	-55.7	-60.3	3.7	0.00e+00	0	46	104	0	82	25155
2026-01-06 07:17:05.10	113.74	26.21	-55.6	-60.3	3.7	0.00e+00	0	46	104	0	82	25337
2026-01-06 07:17:06.10	113.40	26.39	-55.7	-60.2	3.7	0.00e+00	0	46	104	0	82	24984
2026-01-06 07:17:07.10	113.06	26.57	-55.8	-60.4	3.7	0.00e+00	0	46	104	0	82	25627
2026-01-06 07:17:08.10	112.71	26.75	-55.6	-60.3	3.7	0.00e+00	0	46	104	0	82	25299
2026-01-06 07:17:09.11	112.36	26.94	-55.7	-60.4	3.7	0.00e+00	0	46	104	0	82	25583
2026-01-06 07:17:10.11	112.00	27.12	-55.5	-60.3	3.7	0.00e+00	0	46	104	0	82	25157
2026-01-06 07:17:11.11	111.65	27.30	-55.6	-60.3	3.7	0.00e+00	0	46	104	0	82	25334
2026-01-06 07:17:12.11	111.28	27.48	-55.9	-60.4	3.7	0.00e+00	0	46	104	0	82	25661
2026-01-06 07:17:13.11	110.91	27.67	-55.7	-60.4	3.7	0.00e+00	0	46	104	0	82	25501
2026-01-06 07:17:14.11	110.54	27.85	-55.7	-60.3	3.7	0.00e+00	0	46	104	0	82	25211
2026-01-06 07:17:15.11	110.16	28.03	-55.8	-60.3	3.7	0.00e+00	0	46	104	0	82	25228
2026-01-06 07:17:16.11	109.78	28.22	-55.8	-60.3	3.7	0.00e+00	0	46	104	0	82	25274
2026-01-06 07:17:17.11	109.39	28.40	-55.7	-60.2	3.7	0.00e+00	0	46	104	0	82	25090
2026-01-06 07:17:18.11	109.00	28.58	-56.0	-60.5	3.7	0.00e+00	0	46	104	0	82	25789
2026-01-06 07:17:19.11	108.60	28.77	-56.0	-60.4	3.7	0.00e+00	0	46	104	0	82	25623
2026-01-06 07:17:20.11	108.20	28.95	-56.0	-60.5	3.7	0.00e+00	0	46	104	0	82	25843
2026-01-06 07:17:21.12	107.79	29.14	-56.1	-60.6	3.7	0.00e+00	0	46	104	0	82	25997
2026-01-06 07:17:22.12	107.38	29.32	-56.0	-60.5	3.7	0.00e+00	0	46	104	0	82	25877
2026-01-06 07:17:23.12	106.96	29.50	-55.8	-60.5	3.7	0.00e+00	0	46	104	0	82	25828
2026-01-06 07:17:24.12	106.54	29.69	-56.0	-60.6	3.7	0.00e+00	0	46	104	0	82	26152
2026-01-06 07:17:25.12	106.11	29.87	-56.0	-60.6	3.7	0.00e+00	0	46	104	0	82	26021
2026-01-06 07:17:26.12	105.68	30.05	-56.0	-60.6	3.7	0.00e+00	0	46	104	0	82	26165
2026-01-06 07:17:27.12	105.24	30.23	-56.0	-60.4	3.7	0.00e+00	0	46	104	0	82	25533
2026-01-06 07:17:28.12	104.79	30.42	-56.0	-60.5	3.7	0.00e+00	0	46	104	0	82	25821
2026-01-06 07:17:29.12	104.34	30.60	-55.9	-60.4	3.7	0.00e+00	0	46	104	0	82	25531
2026-01-06 07:17:30.13	103.88	30.78	-56.0	-60.5	3.7	0.00e+00	0	46	104	0	82	25961
2026-01-06 07:17:31.13	103.42	30.96	-56.1	-60.6	3.7	0.00e+00	0	46	104	0	82	26018
2026-01-06 07:17:32.13	102.96	31.14	-56.2	-60.7	3.7	0.00e+00	0	46	104	0	82	26388
2026-01-06 07:17:33.13	102.48	31.32	-56.1	-60.6	3.7	0.00e+00	0	46	104	0	82	26210
2026-01-06 07:17:34.13	102.01	31.50	-56.1	-60.6	3.7	0.00e+00	0	46	104	0	82	26195
2026-01-06 07:17:35.13	101.52	31.68	-56.0	-60.3	3.7	0.00e+00	0	46	104	0	82	25172
2026-01-06 07:17:36.13	101.03	31.85	-55.8	-60.1	3.7	0.00e+00	0	46	104	0	82	24778
2026-01-06 07:17:37.14	100.53	32.03	-56.0	-60.3	3.7	0.00e+00	0	46	104	0	82	25226
2026-01-06 07:17:38.14	100.03	32.20	-55.6	-60.1	3.7	0.00e+00	0	46	104	0	82	24613
2026-01-06 07:17:39.14	99.53	32.38	-55.7	-60.1	3.7	0.00e+00	0	46	104	0	82	24679
2026-01-06 07:17:40.14	99.02	32.55	-56.0	-60.3	3.7	0.00e+00	0	46	104	0	82	25381
2026-01-06 07:17:41.14	98.50	32.72	-55.8	-60.2	3.7	0.00e+00	0	46	104	0	82	24886
2026-01-06 07:17:42.14	97.97	32.89	-56.1	-60.6	3.7	0.00e+00	0	46	104	0	82	26098
2026-01-06 07:17:43.14	97.44	33.06	-56.1	-60.6	3.7	0.00e+00	0	46	104	0	82	26132
2026-01-06 07:17:44.14	96.91	33.22	-56.0	-60.5	3.7	0.00e+00	0	46	104	0	82	25694
2026-01-06 07:17:45.15	96.36	33.39	-56.0	-60.5	3.7	0.00e+00	0	46	104	0	82	25955
2026-01-06 07:17:46.15	95.81	33.55	-55.8	-60.3	3.7	0.00e+00	0	46	104	0	82	25383
2026-01-06 07:17:47.15	95.26	33.71	-56.0	-60.6	3.7	0.00e+00	0	46	104	0	82	26072
2026-01-06 07:17:48.15	94.70	33.87	-56.1	-60.7	3.7	0.00e+00	0	46	104	0	82	26452
2026-01-06 07:17:49.15	94.14	34.03	-56.1	-60.6	3.7	0.00e+00	0	46	104	0	82	26261
2026-01-06 07:17:50.15	93.56	34.19	-55.8	-60.5	3.7	0.00e+00	0	46	104	0	82	25689
2026-01-06 07:17:51.15	92.99	34.34	-55.6	-60.3	3.7	0.00e+00	0	46	104	0	82	25350
2026-01-06 07:17:52.15	92.41	34.49	-56.0	-60.4	3.7	0.00e+00	0	46	104	0	82	25668
2026-01-06 07:17:53.15	91.82	34.64	-55.9	-60.5	3.7	0.00e+00	0	46	104	0	82	25721
2026-01-06 07:17:54.15	91.22	34.78	-55.8	-60.3	3.7	0.00e+00	0	46	104	0	82	25108
2026-01-06 07:17:55.15	90.62	34.93	-55.8	-60.2	3.7	0.00e+00	0	46	104	0	82	24987
2026-01-06 07:17:56.15	90.02	35.07	-55.7	-60.2	3.7	0.00e+00	0	46	104	0	82	24831
2026-01-06 07:17:57.15	89.41	35.21	-55.8	-60.1	3.7	0.00e+00	0	46	104	0	82	24632
2026-01-06 07:17:58.15	88.79	35.34	-55.9	-60.5	3.7	0.00e+00	0	46	104	0	82	25821
2026-01-06 07:17:59.15	88.17	35.47	-55.7	-60.4	3.7	0.00e+00	0	46	104	0	82	25540
2026-01-06 07:18:00.15	87.54	35.60	-55.3	-60.3	3.7	0.00e+00	0	46	104	0	82	25149
2026-01-06 07:18:01.16	86.91	35.73	-55.4	-60.2	3.7	0.00e+00	0	46	104	0	82	25022
2026-01-06 07:18:02.16	86.27	35.85	-55.5	-60.4	3.7	0.00e+00	0	46	104	0	82	25480
2026-01-06 07:18:03.16	85.63	35.97	-55.4	-60.3	3.7	0.00e+00	0	46	104	0	82	25206
2026-01-06 07:18:04.15	84.99	36.09	-55.5	-60.3	3.7	0.00e+00	0	46	104	0	82	25126
2026-01-06 07:18:05.15	84.33	36.20	-55.4	-60.2	3.7	0.00e+00	0	46	104	0	82	25073
2026-01-06 07:18:06.16	83.67	36.31	-55.6	-60.4	3.7	0.00e+00	0	46	104	0	82	25562
2026-01-06 07:18:07.16	83.01	36.41	-55.3	-60.2	3.7	0.00e+00	0	46	104	0	82	24815
2026-01-06 07:18:08.16	82.34	36.51	-55.3	-60.3	3.7	0.00e+00	0	46	104	0	82	25240
2026-01-06 07:18:09.16	81.67	36.61	-55.2	-60.2	3.7	0.00e+00	0	46	104	0	82	24960
2026-01-06 07:18:10.16	81.00	36.71	-55.7	-60.5	3.7	0.00e+00	0	46	104	0	82	25727
2026-01-06 07:18:11.16	80.32	36.80	-55.8	-60.6	3.7	0.00e+00	0	46	104	0	82	25993
2026-01-06 07:18:12.16	79.64	36.88	-55.9	-60.6	3.7	0.00e+00	0	46	104	0	82	26003
2026-01-06 07:18:13.16	78.95	36.96	-55.9	-60.5	3.7	0.00e+00	0	46	104	0	82	25957
2026-01-06 07:18:14.17	78.26	37.04	-56.1	-60.6	3.7	0.00e+00	0	46	104	0	82	26260
2026-01-06 07:18:15.17	77.57	37.11	-56.2	-60.8	3.7	0.00e+00	0	46	104	0	83	25131
2026-01-06 07:18:16.17	76.87	37.18	-56.0	-60.5	3.7	0.00e+00	0	46	104	0	83	24505
2026-01-06 07:18:17.17	76.17	37.25	-56.0	-60.6	3.7	0.00e+00	0	46	104	0	83	24618
2026-01-06 07:18:18.17	75.47	37.31	-55.9	-60.3	3.7	0.00e+00	0	46	104	0	83	23845
2026-01-06 07:18:19.17	74.77	37.36	-55.7	-60.2	3.7	0.00e+00	0	46	104	0	83	23484
2026-01-06 07:18:20.17	74.06	37.41	-55.8	-60.1	3.7	0.00e+00	0	46	104	0	83	23180
2026-01-06 07:18:21.17	73.35	37.46	-55.8	-60.1	3.7	0.00e+00	0	46	104	0	83	23302
2026-01-06 07:18:22.17	72.64	37.50	-55.9	-60.2	3.7	0.00e+00	0	46	104	0	83	23587
2026-01-06 07:18:23.17	71.93	37.53	-56.1	-60.3	3.7	0.00e+00	0	47	104	0	83	23938
2026-01-06 07:18:24.17	71.22	37.57	-56.3	-60.8	3.7	0.00e+00	0	46	104	0	83	25345
2026-01-06 07:18:25.16	70.51	37.59	-56.3	-60.8	3.7	0.00e+00	0	46	104	0	83	25380
2026-01-06 07:18:26.17	69.78	37.61	-56.1	-60.7	3.7	0.00e+00	0	46	104	0	83	25086
2026-01-06 07:18:27.17	69.07	37.63	-56.2	-60.7	3.7	0.00e+00	0	46	104	0	83	25035
2026-01-06 07:18:28.18	68.34	37.64	-56.1	-60.5	3.7	0.00e+00	0	46	104	0	83	24410
2026-01-06 07:18:29.18	67.62	37.65	-56.1	-60.5	3.7	0.00e+00	0	46	104	0	83	24360
2026-01-06 07:18:30.18	66.91	37.65	-56.2	-60.7	3.7	0.00e+00	0	46	104	0	83	24909
2026-01-06 07:18:31.18	66.19	37.65	-56.2	-60.6	3.7	0.00e+00	0	46	104	0	83	24752
2026-01-06 07:18:32.18	65.47	37.64	-56.3	-60.7	3.7	0.00e+00	0	46	104	0	83	24821
2026-01-06 07:18:33.18	64.75	37.63	-56.3	-60.7	3.7	0.00e+00	0	46	104	0	83	24883
2026-01-06 07:18:34.18	64.03	37.61	-56.1	-60.6	3.7	0.00e+00	0	46	104	0	83	24581
2026-01-06 07:18:35.19	63.31	37.59	-56.1	-60.6	3.7	0.00e+00	0	46	104	0	83	24682
2026-01-06 07:18:36.19	62.60	37.57	-55.8	-60.0	3.7	0.00e+00	0	46	104	0	83	22956
2026-01-06 07:18:37.19	61.88	37.53	-55.9	-60.2	3.7	0.00e+00	0	46	104	0	83	23440
2026-01-06 07:18:38.19	61.17	37.50	-55.9	-60.0	3.7	0.00e+00	0	46	104	0	83	23041
2026-01-06 07:18:39.19	60.46	37.46	-56.1	-60.4	3.7	0.00e+00	0	46	104	0	83	24213
2026-01-06 07:18:40.19	59.75	37.41	-56.1	-60.5	3.7	0.00e+00	0	46	104	0	83	24496
2026-01-06 07:18:41.19	59.05	37.36	-56.1	-60.6	3.7	0.00e+00	0	46	104	0	83	24550
2026-01-06 07:18:42.19	58.34	37.31	-55.9	-60.5	3.7	0.00e+00	0	46	104	0	83	24325
2026-01-06 07:18:43.19	57.64	37.25	-56.1	-60.5	3.7	0.00e+00	0	46	104	0	83	24435
2026-01-06 07:18:44.19	56.95	37.18	-55.8	-59.9	3.7	0.00e+00	0	46	104	0	83	22788
2026-01-06 07:18:45.20	56.24	37.12	-55.9	-60.1	3.7	0.00e+00	0	46	104	0	83	23154
2026-01-06 07:18:46.20	55.55	37.04	-55.6	-59.5	3.7	0.00e+00	0	46	104	0	83	21623
2026-01-06 07:18:47.20	54.87	36.97	-55.9	-60.1	3.7	0.00e+00	0	46	104	0	83	23340
2026-01-06 07:18:48.20	54.18	36.88	-55.8	-60.1	3.7	0.00e+00	0	46	104	0	83	23414
2026-01-06 07:18:49.21	53.49	36.80	-55.7	-60.0	3.7	0.00e+00	0	46	104	0	83	22966
2026-01-06 07:18:50.20	52.82	36.71	-55.8	-60.0	3.7	0.00e+00	0	46	104	0	83	23041
2026-01-06 07:18:51.21	52.14	36.62	-55.9	-60.3	3.7	0.00e+00	0	46	104	0	83	23810
2026-01-06 07:18:52.21	51.47	36.52	-56.0	-60.3	3.7	0.00e+00	0	46	104	0	83	23867
2026-01-06 07:18:53.21	50.81	36.42	-56.0	-60.3	3.7	0.00e+00	0	46	104	0	83	23820
2026-01-06 07:18:54.21	50.15	36.31	-56.1	-60.6	3.7	0.00e+00	0	46	104	0	83	24793
2026-01-06 07:18:55.21	49.50	36.20	-55.9	-60.6	3.7	0.00e+00	0	46	104	0	83	24615
2026-01-06 07:18:56.21	48.84	36.09	-55.9	-60.6	3.7	0.00e+00	0	46	104	0	83	24535
2026-01-06 07:18:57.21	48.20	35.98	-56.0	-60.5	3.7	0.00e+00	0	46	104	0	83	24422
2026-01-06 07:18:58.21	47.56	35.86	-55.3	-59.1	3.7	0.00e+00	0	46	104	0	82	21947
2026-01-06 07:18:59.21	46.92	35.74	-55.5	-59.4	3.7	0.00e+00	0	46	104	0	82	22697
2026-01-06 07:19:00.21	46.29	35.61	-55.4	-59.2	3.7	0.00e+00	0	46	104	0	82	22329
2026-01-06 07:19:01.21	45.67	35.48	-55.8	-60.3	3.6	0.00e+00	0	46	104	0	82	25293
2026-01-06 07:19:02.21	45.05	35.35	-55.8	-60.5	3.7	0.00e+00	0	46	104	0	82	25899
2026-01-06 07:19:03.21	44.43	35.22	-56.0	-60.6	3.7	0.00e+00	0	46	104	0	82	26194
2026-01-06 07:19:04.21	43.82	35.08	-56.0	-60.4	3.7	0.00e+00	0	46	104	0	82	25563
2026-01-06 07:19:05.21	43.22	34.94	-55.6	-59.7	3.7	0.00e+00	0	46	104	0	82	23527
2026-01-06 07:19:06.21	42.62	34.80	-55.7	-59.8	3.7	0.00e+00	0	46	104	0	82	23962
2026-01-06 07:19:07.21	42.03	34.65	-55.6	-59.8	3.7	0.00e+00	0	46	104	0	82	23908
2026-01-06 07:19:08.21	41.44	34.50	-54.9	-58.4	3.7	0.00e+00	0	46	104	0	81	21467
2026-01-06 07:19:09.22	40.86	34.35	-55.1	-58.7	3.7	0.00e+00	0	46	104	0	81	22115
2026-01-06 07:19:10.22	40.28	34.20	-54.7	-58.2	3.7	0.00e+00	0	46	104	0	81	20942
2026-01-06 07:19:11.22	39.71	34.05	-55.2	-59.0	3.7	0.00e+00	0	46	104	0	81	23140
2026-01-06 07:19:12.22	39.15	33.89	-55.4	-59.2	3.7	0.00e+00	0	46	104	0	81	23560
2026-01-06 07:19:13.22	38.59	33.73	-55.3	-59.1	3.7	0.00e+00	0	46	104	0	81	23365
2026-01-06 07:19:14.22	38.04	33.57	-55.5	-59.3	3.7	0.00e+00	0	46	104	0	81	23918
2026-01-06 07:19:15.23	37.49	33.41	-55.8	-59.8	3.7	0.00e+00	0	46	104	0	82	23956
2026-01-06 07:19:16.23	36.95	33.24	-55.8	-59.9	3.7	0.00e+00	0	46	104	0	82	24101
2026-01-06 07:19:17.22	36.42	33.08	-55.5	-59.4	3.7	0.00e+00	0	46	104	0	82	22882
2026-01-06 07:19:18.22	35.89	32.91	-54.2	-57.2	3.7	0.00e+00	0	46	104	0	80	19875
2026-01-06 07:19:19.23	35.36	32.74	-54.0	-56.9	3.7	0.00e+00	0	46	104	0	79	20354
2026-01-06 07:19:20.22	34.85	32.57	-54.6	-57.9	3.7	0.00e+00	0	46	104	0	80	21452
2026-01-06 07:19:21.23	34.34	32.40	-53.9	-56.7	3.7	0.00e+00	0	46	104	0	79	19889
2026-01-06 07:19:22.23	33.83	32.23	-54.5	-58.1	3.7	0.00e+00	0	46	104	0	80	21989
2026-01-06 07:19:23.23	33.33	32.05	-54.8	-58.7	3.7	0.00e+00	0	46	104	0	80	23519
2026-01-06 07:19:24.23	32.84	31.88	-55.3	-59.5	3.7	0.00e+00	0	46	104	0	81	24315
2026-01-06 07:19:25.23	32.35	31.70	-55.5	-59.7	3.7	0.00e+00	0	46	104	0	81	24921
2026-01-06 07:19:26.23	31.87	31.53	-55.1	-58.7	3.7	0.00e+00	0	46	104	0	81	22346
2026-01-06 07:19:27.23	31.40	31.35	-55.8	-60.4	3.7	0.00e+00	0	46	104	0	82	25566
2026-01-06 07:19:28.23	30.93	31.17	-55.7	-60.2	3.7	0.00e+00	0	46	104	0	82	25076
2026-01-06 07:19:29.23	30.46	30.99	-55.7	-60.2	3.7	0.00e+00	0	46	104	0	82	24887
2026-01-06 07:19:30.23	30.00	30.81	-55.5	-59.9	3.7	0.00e+00	0	46	104	0	82	24177
2026-01-06 07:19:31.23	29.55	30.63	-54.9	-59.8	3.7	0.00e+00	0	46	104	0	81	25149
2026-01-06 07:19:32.23	29.10	30.45	-54.5	-59.5	3.7	0.00e+00	0	46	104	0	81	24349
2026-01-06 07:19:33.24	28.65	30.27	-54.2	-59.0	3.7	0.00e+00	0	47	104	0	80	24302
2026-01-06 07:19:34.24	28.22	30.09	-54.6	-59.2	3.7	0.00e+00	0	47	104	0	80	25090
2026-01-06 07:19:35.24	27.78	29.91	-55.2	-59.7	3.7	0.00e+00	0	46	104	0	80	26341
2026-01-06 07:19:36.24	27.36	29.73	-55.8	-60.1	3.7	0.00e+00	0	46	104	0	82	24574
2026-01-06 07:19:37.24	26.94	29.54	-55.8	-60.1	3.7	0.00e+00	0	46	104	0	82	24699
2026-01-06 07:19:38.24	26.52	29.36	-55.8	-60.4	3.7	0.00e+00	0	47	104	0	82	25408
2026-01-06 07:19:39.25	26.11	29.18	-55.0	-59.6	3.7	0.00e+00	0	46	104	0	81	24610
2026-01-06 07:19:40.25	25.70	29.00	-55.2	-59.9	3.7	0.00e+00	0	46	104	0	81	25435
2026-01-06 07:19:41.25	25.30	28.81	-54.8	-59.4	3.7	0.00e+00	0	46	104	0	81	23976
2026-01-06 07:19:42.25	24.90	28.63	-55.7	-60.4	3.7	0.00e+00	0	46	104	0	82	25480
2026-01-06 07:19:43.25	24.51	28.45	-55.5	-60.1	3.7	0.00e+00	0	46	104	0	82	24673
2026-01-06 07:19:44.25	24.13	28.26	-55.3	-59.9	3.7	0.00e+00	0	46	104	0	82	23979
2026-01-06 07:19:45.26	23.74	28.08	-55.7	-60.3	3.7	0.00e+00	0	46	104	0	82	25229
2026-01-06 07:19:46.26	23.37	27.90	-55.8	-60.4	3.7	0.00e+00	0	46	104	0	82	25529
2026-01-06 07:19:47.26	22.99	27.72	-55.9	-60.4	3.7	0.00e+00	0	46	104	0	82	25503
2026-01-06 07:19:48.27	22.62	27.53	-55.8	-60.3	3.7	0.00e+00	0	46	104	0	82	25246
2026-01-06 07:19:49.27	22.26	27.35	-55.7	-60.1	3.7	0.00e+00	0	46	104	0	82	24760
2026-01-06 07:19:50.27	21.90	27.17	-55.7	-60.2	3.7	0.00e+00	0	46	104	0	82	24872
2026-01-06 07:19:51.28	21.55	26.99	-54.4	-58.5	3.7	0.00e+00	0	46	104	0	80	22994
2026-01-06 07:19:52.28	21.20	26.81	-54.1	-58.4	3.7	0.00e+00	0	46	104	0	80	22649
2026-01-06 07:19:53.28	20.85	26.63	-54.0	-58.1	3.7	0.00e+00	0	46	104	0	80	21971
2026-01-06 07:19:54.28	20.51	26.45	-54.6	-59.6	3.7	0.00e+00	0	47	104	0	80	26195
2026-01-06 07:19:55.28	20.18	26.27	-54.7	-59.6	3.7	0.00e+00	0	46	104	0	80	26240
2026-01-06 07:19:56.28	19.85	26.09	-54.1	-58.9	3.7	0.00e+00	0	46	104	0	80	24074
2026-01-06 07:19:57.28	19.52	25.91	-53.9	-58.6	3.7	0.00e+00	0	46	104	0	79	24659
2026-01-06 07:19:58.28	19.20	25.73	-53.4	-56.7	3.7	0.00e+00	0	46	104	0	78	21097
2026-01-06 07:19:59.28	18.88	25.56	-53.7	-57.8	3.7	0.00e+00	0	46	104	0	78	23826
2026-01-06 07:20:00.28	18.56	25.38	-54.3	-58.5	3.7	0.00e+00	0	46	104	0	79	24454
2026-01-06 07:20:01.28	18.25	25.20	-53.5	-56.4	3.7	0.00e+00	0	46	104	0	79	19252
2026-01-06 07:20:02.28	17.94	25.03	-53.3	-56.3	3.7	0.00e+00	0	46	104	0	78	19951
2026-01-06 07:20:03.28	17.64	24.85	-54.2	-57.6	3.7	0.00e+00	0	46	104	0	78	23225
2026-01-06 07:20:04.28	17.34	24.68	-54.6	-58.3	3.7	0.00e+00	0	46	104	0	80	22606
2026-01-06 07:20:05.28	17.04	24.51	-54.9	-58.8	3.7	0.00e+00	0	46	104	0	80	23873
2026-01-06 07:20:06.29	16.75	24.33	-54.9	-59.0	3.7	0.00e+00	0	46	104	0	80	24282
2026-01-06 07:20:07.29	16.46	24.16	-54.5	-59.2	3.7	0.00e+00	0	46	104	0	80	24831
2026-01-06 07:20:08.29	16.17	23.99	-54.5	-59.2	3.7	0.00e+00	0	46	104	0	80	24907
2026-01-06 07:20:09.29	15.89	23.82	-54.2	-58.3	3.7	0.00e+00	0	46	104	0	80	22605
2026-01-06 07:20:10.30	15.61	23.65	-54.4	-59.3	3.7	0.00e+00	0	46	104	0	80	25157
2026-01-06 07:20:11.30	15.34	23.48	-54.2	-58.6	3.7	0.00e+00	0	46	104	0	80	23336
2026-01-06 07:20:12.30	15.07	23.31	-54.3	-59.2	3.7	0.00e+00	0	46	104	0	80	24895
2026-01-06 07:20:13.30	14.80	23.14	-54.4	-59.3	3.7	0.00e+00	0	46	104	0	80	25161
2026-01-06 07:20:14.30	14.53	22.97	-54.5	-58.9	3.7	0.00e+00	0	46	104	0	80	24221
2026-01-06 07:20:15.30	14.27	22.81	-54.4	-58.4	3.7	0.00e+00	0	46	104	0	80	22656
2026-01-06 07:20:16.31	14.01	22.64	-54.3	-58.0	3.7	0.00e+00	0	46	104	0	80	21755
2026-01-06 07:20:17.31	13.75	22.48	-54.5	-58.9	3.7	0.00e+00	0	46	104	0	80	24228
2026-01-06 07:20:18.31	13.50	22.31	-55.3	-60.2	3.7	0.00e+00	0	47	104	0	81	26518
2026-01-06 07:20:19.31	13.25	22.15	-55.2	-59.7	3.7	0.00e+00	0	47	104	0	81	24847
2026-01-06 07:20:20.31	13.01	21.99	-54.8	-59.2	3.7	0.00e+00	0	47	104	0	81	23589
2026-01-06 07:20:21.31	12.76	21.83	-55.0	-59.5	3.7	0.00e+00	0	46	104	0	81	24314
2026-01-06 07:20:22.31	12.52	21.66	-55.4	-59.9	3.7	0.00e+00	0	46	104	0	81	25414
2026-01-06 07:20:23.31	12.28	21.50	-55.7	-60.2	3.7	0.00e+00	0	46	104	0	82	24854
2026-01-06 07:20:24.31	12.05	21.35	-55.8	-60.2	3.7	0.00e+00	0	46	104	0	82	25057
2026-01-06 07:20:25.31	11.82	21.19	-55.8	-60.2	3.7	0.00e+00	0	46	104	0	82	25084
2026-01-06 07:20:26.32	11.59	21.03	-55.4	-59.6	3.7	0.00e+00	0	46	104	0	82	23213
2026-01-06 07:20:27.32	11.36	20.87	-53.3	-57.5	3.7	0.00e+00	0	46	104	0	78	23087
2026-01-06 07:20:28.32	11.14	20.72	-53.4	-57.8	3.7	0.00e+00	0	47	104	0	78	23696
2026-01-06 07:20:29.32	10.91	20.56	-54.4	-59.3	3.7	0.00e+00	0	46	104	0	79	26809
2026-01-06 07:20:30.32	10.70	20.41	-53.8	-58.0	3.7	0.00e+00	0	47	104	0	79	22934
2026-01-06 07:20:31.32	10.48	20.25	-53.9	-58.2	3.7	0.00e+00	0	47	104	0	79	23481
2026-01-06 07:20:32.32	10.27	20.10	-53.8	-58.4	3.7	0.00e+00	0	46	104	0	79	24052
2026-01-06 07:20:33.33	10.05	19.95	-53.4	-58.4	3.7	0.00e+00	0	46	104	0	78	25391
2026-01-06 07:20:34.33	9.84	19.80	-52.7	-58.2	3.7	0.00e+00	0	46	104	0	77	26279
2026-01-06 07:20:35.33	9.64	19.65	-52.5	-58.3	3.7	0.00e+00	0	47	104	0	76	28184
2026-01-06 07:20:36.34	9.43	19.49	-53.2	-58.3	3.7	0.00e+00	0	46	104	0	77	26738
2026-01-06 07:20:37.34	9.23	19.35	-52.2	-58.0	3.7	0.00e+00	0	46	104	0	76	27456
2026-01-06 07:20:38.34	9.03	19.20	-52.6	-58.2	3.7	0.00e+00	0	46	104	0	76	28032
2026-01-06 07:20:39.34	8.83	19.05	-53.4	-58.9	3.7	0.00e+00	0	46	104	0	77	28632
2026-01-06 07:20:40.34	8.64	18.90	-52.4	-58.3	3.7	0.00e+00	0	46	104	0	76	28252
2026-01-06 07:20:41.34	8.45	18.76	-52.7	-58.4	3.7	0.00e+00	0	46	104	0	76	28600
2026-01-06 07:20:42.34	8.26	18.61	-53.6	-59.2	3.7	0.00e+00	0	46	104	0	77	29537
2026-01-06 07:20:43.34	8.07	18.47	-53.8	-58.9	3.7	0.00e+00	0	46	104	0	78	26921
2026-01-06 07:20:44.33	7.88	18.33	-54.0	-58.8	3.7	0.00e+00	0	46	104	0	78	26761
2026-01-06 07:20:45.33	7.70	18.19	-53.7	-58.6	3.7	0.00e+00	0	46	104	0	78	26208
2026-01-06 07:20:46.33	7.52	18.05	-53.2	-58.4	3.7	0.00e+00	0	47	104	0	78	25602
2026-01-06 07:20:47.33	7.34	17.91	-52.5	-57.8	3.7	0.00e+00	0	46	104	0	77	25250
2026-01-06 07:20:48.33	7.16	17.77	-53.3	-58.7	3.7	0.00e+00	0	46	104	0	77	27961
2026-01-06 07:20:49.33	6.98	17.63	-54.8	-59.7	3.7	0.00e+00	0	46	104	0	80	26458
2026-01-06 07:20:50.34	6.80	17.49	-54.8	-59.2	3.7	0.00e+00	0	46	104	0	80	24949
2026-01-06 07:20:51.34	6.63	17.35	-53.6	-58.6	3.7	0.00e+00	0	46	104	0	78	26094
2026-01-06 07:20:52.34	6.46	17.21	-54.3	-59.0	3.7	0.00e+00	0	46	104	0	79	25825
2026-01-06 07:20:53.34	6.29	17.08	-54.7	-59.1	3.7	0.00e+00	0	47	104	0	80	24580
2026-01-06 07:20:54.34	6.13	16.94	-54.8	-58.9	3.7	0.00e+00	0	46	104	0	80	24234
2026-01-06 07:20:55.34	5.96	16.81	-54.5	-58.7	3.7	0.00e+00	0	46	104	0	80	23624
2026-01-06 07:20:56.34	5.80	16.67	-53.6	-58.4	3.7	0.00e+00	0	47	104	0	79	24184
2026-01-06 07:20:57.34	5.64	16.54	-53.5	-58.3	3.7	0.00e+00	0	46	104	0	78	25151
2026-01-06 07:20:58.35	5.47	16.41	-53.9	-58.9	3.7	0.00e+00	0	46	104	0	79	25518
2026-01-06 07:20:59.35	5.32	16.27	-53.2	-58.1	3.7	0.00e+00	0	46	104	0	77	26067
2026-01-06 07:21:00.35	5.16	16.14	-53.6	-58.0	3.7	0.00e+00	0	46	104	0	77	25819
2026-01-06 07:21:01.35	5.00	16.01	-52.6	-57.9	3.7	0.00e+00	0	46	104	0	77	25437
2026-01-06 07:21:02.35	4.85	15.88	-52.4	-58.0	3.7	0.00e+00	0	47	104	0	76	27283
2026-01-06 07:21:03.35	4.70	15.75	-52.6	-58.2	3.7	0.00e+00	0	46	104	0	76	27907
2026-01-06 07:21:04.36	4.55	15.63	-53.7	-59.2	3.7	0.00e+00	0	47	104	0	77	29775
2026-01-06 07:21:05.36	4.40	15.50	-53.7	-58.9	3.7	0.00e+00	0	46	104	0	78	27156
2026-01-06 07:21:06.36	4.25	15.37	-53.4	-58.7	3.7	0.00e+00	0	46	104	0	78	26555
2026-01-06 07:21:07.36	4.11	15.25	-53.8	-59.3	3.7	0.00e+00	0	46	104	0	78	28192
2026-01-06 07:21:08.37	3.96	15.12	-53.2	-58.4	3.7	0.00e+00	0	46	104	0	77	26962
2026-01-06 07:21:09.37	3.82	14.99	-53.5	-58.6	3.7	0.00e+00	0	47	104	0	77	27604
2026-01-06 07:21:10.37	3.68	14.87	-52.9	-58.3	3.7	0.00e+00	0	47	104	0	77	26633
2026-01-06 07:21:11.36	3.54	14.75	-52.8	-58.4	3.7	0.00e+00	0	46	104	0	77	26957
2026-01-06 07:21:12.36	3.40	14.63	-52.9	-58.5	3.7	0.00e+00	0	46	104	0	77	27431
2026-01-06 07:21:13.36	3.26	14.50	-53.2	-58.9	3.7	0.00e+00	0	46	104	0	77	28709
2026-01-06 07:21:14.37	3.13	14.38	-53.2	-59.0	3.7	0.00e+00	0	47	104	0	77	29110
2026-01-06 07:21:15.37	2.99	14.26	-53.0	-58.7	3.7	0.00e+00	0	46	104	0	77	28138
2026-01-06 07:21:16.37	2.86	14.14	-52.1	-57.6	3.7	0.00e+00	0	47	104	0	76	26186
2026-01-06 07:21:17.37	2.73	14.02	-52.2	-57.8	3.7	0.00e+00	0	46	104	0	76	26634
2026-01-06 07:21:18.37	2.60	13.90	-52.1	-57.6	3.7	0.00e+00	0	46	104	0	76	26139
2026-01-06 07:21:19.38	2.47	13.79	-52.6	-58.1	3.7	0.00e+00	0	46	104	0	76	27723
2026-01-06 07:21:20.38	2.34	13.67	-52.9	-58.3	3.7	0.00e+00	0	46	104	0	76	28266
2026-01-06 07:21:21.38	2.21	13.55	-53.3	-58.5	3.7	0.00e+00	0	46	104	0	77	27411
2026-01-06 07:21:22.38	2.09	13.44	-54.2	-59.2	3.7	0.00e+00	0	46	104	0	79	26529
2026-01-06 07:21:23.38	1.96	13.32	-54.5	-59.6	3.7	0.00e+00	0	47	104	0	79	27785
2026-01-06 07:21:24.38	1.84	13.20	-54.2	-58.5	3.7	0.00e+00	0	46	104	0	79	24479
2026-01-06 07:21:25.38	1.72	13.09	-54.7	-59.4	3.7	0.00e+00	0	46	104	0	80	25484
2026-01-06 07:21:26.38	1.60	12.98	-53.2	-57.9	3.7	0.00e+00	0	47	104	0	77	25588
2026-01-06 07:21:27.38	1.48	12.86	-53.9	-58.3	3.7	0.00e+00	0	46	104	0	79	23908
2026-01-06 07:21:28.38	1.36	12.75	-52.8	-57.9	3.6	0.00e+00	0	46	104	0	77	25599
2026-01-06 07:21:29.39	1.24	12.64	-52.8	-58.0	3.7	0.00e+00	0	46	104	0	77	25864
2026-01-06 07:21:30.39	1.13	12.53	-52.9	-58.3	3.7	0.00e+00	0	46	104	0	77	26676
2026-01-06 07:21:31.39	1.01	12.42	-54.1	-59.2	3.7	0.00e+00	0	46	104	0	78	28105
2026-01-06 07:21:32.39	0.90	12.31	-54.2	-59.5	3.7	0.00e+00	0	46	104	0	78	28898
2026-01-06 07:21:33.39	0.78	12.20	-54.2	-59.3	3.7	0.00e+00	0	46	104	0	80	25313
2026-01-06 07:21:34.40	0.67	12.09	-53.3	-58.8	3.7	0.00e+00	0	46	104	0	77	28352
2026-01-06 07:21:35.40	0.56	11.98	-53.4	-59.1	3.7	0.00e+00	0	46	104	0	77	29149
2026-01-06 07:21:36.40	0.45	11.87	-53.9	-58.3	3.7	0.00e+00	0	46	104	0	78	25229
2026-01-06 07:21:37.40	0.34	11.76	-54.1	-58.3	3.7	0.00e+00	0	46	104	0	78	25355
2026-01-06 07:21:38.41	0.23	11.65	-54.0	-58.3	3.7	0.00e+00	0	46	104	0	79	23745
2026-01-06 07:21:39.41	0.13	11.55	-52.8	-57.8	3.7	0.00e+00	0	46	104	0	77	25260
2026-01-06 07:21:40.41	0.02	11.44	-51.7	-57.5	3.7	0.00e+00	0	46	104	0	75	27247
2026-01-06 07:21:41.41	359.92	11.34	-51.6	-57.6	3.7	0.00e+00	0	47	104	0	75	27616
2026-01-06 07:21:42.41	359.81	11.23	-53.6	-59.0	3.7	0.00e+00	0	47	104	0	77	28927
2026-01-06 07:21:43.42	359.71	11.13	-53.7	-59.0	3.7	0.00e+00	0	46	104	0	77	29113
2026-01-06 07:21:44.42	359.61	11.02	-54.2	-59.5	3.7	0.00e+00	0	46	104	0	78	28907
2026-01-06 07:21:45.42	359.51	10.92	-53.3	-59.0	3.7	0.00e+00	0	46	104	0	78	27210
2026-01-06 07:21:46.42	359.41	10.82	-53.7	-59.2	3.7	0.00e+00	0	46	104	0	78	27995
2026-01-06 07:21:47.42	359.31	10.72	-53.9	-59.4	3.7	0.00e+00	0	46	104	0	78	28509
2026-01-06 07:21:48.42	359.21	10.61	-54.0	-59.4	3.7	0.00e+00	0	47	104	0	78	28539
2026-01-06 07:21:49.43	359.11	10.51	-53.6	-59.1	3.7	0.00e+00	0	47	104	0	78	27779
2026-01-06 07:21:50.43	359.01	10.41	-53.3	-58.9	3.7	0.00e+00	0	46	104	0	78	27176
2026-01-06 07:21:51.43	358.92	10.31	-53.5	-59.1	3.7	0.00e+00	0	47	104	0	78	27656
2026-01-06 07:21:52.43	358.82	10.21	-53.9	-58.8	3.7	0.00e+00	0	46	104	0	79	25319
2026-01-06 07:21:53.43	358.73	10.11	-53.4	-58.9	3.7	0.00e+00	0	46	104	0	77	28524
2026-01-06 07:21:54.44	358.63	10.01	-54.3	-59.9	3.7	0.00e+00	0	47	104	0	79	28546
2026-01-06 07:21:55.44	358.54	9.91	-52.9	-57.2	3.7	0.00e+00	0	46	104	0	77	23666
2026-01-06 07:21:56.44	358.45	9.82	-52.9	-57.4	3.7	0.00e+00	0	47	104	0	77	24079
2026-01-06 07:21:57.44	358.36	9.72	-53.2	-57.6	3.7	0.00e+00	0	47	104	0	77	24713
2026-01-06 07:21:58.44	358.27	9.62	-53.3	-57.6	3.7	0.00e+00	0	47	104	0	77	24700
2026-01-06 07:21:59.44	358.18	9.53	-53.7	-58.2	3.7	0.00e+00	0	47	104	0	78	25059
2026-01-06 07:22:00.44	358.09	9.43	-53.6	-57.5	3.7	0.00e+00	0	46	104	0	78	23070
2026-01-06 07:22:01.44	358.00	9.33	-54.0	-58.8	3.6	0.00e+00	0	46	104	0	79	25243
2026-01-06 07:22:02.44	357.92	9.24	-52.9	-56.9	3.7	0.00e+00	0	46	104	0	76	24115
2026-01-06 07:22:03.44	357.83	9.14	-53.2	-57.2	3.7	0.00e+00	0	47	104	0	77	23449
2026-01-06 07:22:04.45	357.74	9.05	-52.2	-57.2	3.7	0.00e+00	0	47	104	0	75	26525
2026-01-06 07:22:05.45	357.66	8.96	-52.7	-58.8	3.7	0.00e+00	0	47	104	0	77	28225
2026-01-06 07:22:06.45	357.57	8.86	-55.3	-60.3	3.7	0.00e+00	0	46	104	0	81	26657
2026-01-06 07:22:07.46	357.49	8.77	-52.7	-58.5	3.7	0.00e+00	0	46	104	0	76	28978
2026-01-06 07:22:08.46	357.41	8.68	-54.9	-59.8	3.7	0.00e+00	0	46	104	
