passes_logs/2026/01/06/T1/T1__20260106_011706_FENGYUN_3G_rec.log

#Pass ID: 20260106_011706_FENGYUN 3G
#Satellite: FENGYUN 3G
#Configuration: FENGYUN 3G
#almurnet v.1.7.20251203
#Start time: 2026-01-06 01:17:07

#Version: 2.0.20230620
#Station: T1
#Location: 37.570604 lon 55.790049 lat
#TLE: 1 56232U 23055A   26005.27063903  .00035143  00000+0  55802-3 0  9994
#TLE: 2 56232  49.9940 106.1098 0004225 341.8364  18.2452 15.52952562154680

#Time	Az	El	Level	Level2	SNR	BER	BlckErr	Temp	State	Recorded	gain1	gain2
2026-01-06 01:17:07.39	213.89	4.82	-50.7	-69.9	3.8	8.47e-01	0	42	0	0	72	33799
2026-01-06 01:17:08.39	213.77	4.89	-50.7	-69.9	3.8	8.39e-01	0	42	104	0	73	32020
2026-01-06 01:17:09.40	213.64	4.95	-50.7	-69.9	3.8	8.46e-01	0	42	104	0	73	31964
2026-01-06 01:17:10.48	213.50	5.03	-50.7	-69.9	3.8	8.46e-01	0	42	104	0	73	31906
2026-01-06 01:17:11.37	213.39	5.09	-50.7	-69.9	3.8	8.46e-01	0	42	104	0	73	31960
2026-01-06 01:17:12.69	213.22	5.18	-50.7	-69.9	3.8	8.47e-01	0	42	104	0	73	31867
2026-01-06 01:17:13.41	213.12	5.23	-50.7	-69.9	3.8	8.48e-01	0	42	104	0	73	32033
2026-01-06 01:17:14.91	212.93	5.33	-50.7	-69.9	3.8	8.47e-01	0	42	104	0	73	31874
2026-01-06 01:17:15.62	212.83	5.38	-50.7	-69.9	3.8	8.47e-01	0	42	104	0	73	31928
2026-01-06 01:17:16.91	212.66	5.47	-50.7	-69.9	3.8	8.47e-01	0	42	104	0	73	31936
2026-01-06 01:17:17.63	212.57	5.51	-50.7	-69.9	3.8	8.47e-01	0	42	104	0	73	31831
2026-01-06 01:17:18.92	212.39	5.60	-50.7	-69.9	3.8	8.47e-01	0	42	104	0	73	31937
2026-01-06 01:17:19.64	212.30	5.65	-50.7	-69.9	3.8	8.47e-01	0	42	104	0	73	31904
2026-01-06 01:17:20.93	212.12	5.74	-50.7	-69.9	3.8	8.47e-01	0	42	104	0	73	31904
2026-01-06 01:17:21.65	212.02	5.79	-50.7	-69.8	3.8	8.47e-01	0	42	104	0	73	31796
2026-01-06 01:17:22.93	211.84	5.88	-50.7	-69.9	3.8	8.47e-01	0	42	104	0	73	31917
2026-01-06 01:17:23.65	211.74	5.93	-50.7	-69.9	3.8	8.47e-01	0	42	104	0	73	31986
2026-01-06 01:17:24.95	211.56	6.02	-50.7	-69.9	3.8	8.48e-01	0	42	104	0	73	31943
2026-01-06 01:17:25.66	211.46	6.07	-50.7	-69.9	3.8	8.48e-01	0	42	104	0	73	32019
2026-01-06 01:17:26.95	211.28	6.16	-50.7	-69.9	3.8	8.48e-01	0	42	104	0	73	32000
2026-01-06 01:17:27.67	211.18	6.21	-50.7	-69.9	3.8	8.48e-01	0	42	104	0	73	31865
2026-01-06 01:17:28.96	210.99	6.31	-50.7	-69.9	3.8	8.47e-01	0	42	104	0	73	31963
2026-01-06 01:17:29.67	210.89	6.36	-50.7	-69.9	3.8	8.47e-01	0	42	104	0	73	31944
2026-01-06 01:17:30.97	210.70	6.45	-50.7	-69.8	3.8	8.47e-01	0	42	104	0	73	31795
2026-01-06 01:17:31.68	210.59	6.50	-50.7	-69.9	3.8	8.47e-01	0	42	104	0	73	31985
2026-01-06 01:17:32.98	210.40	6.59	-50.7	-69.9	3.8	8.47e-01	0	42	104	0	73	32012
2026-01-06 01:17:33.69	210.30	6.64	-50.7	-69.9	3.8	8.47e-01	0	42	104	0	73	31924
2026-01-06 01:17:34.98	210.10	6.73	-50.7	-69.9	3.8	8.47e-01	0	42	104	0	73	31961
2026-01-06 01:17:35.70	209.99	6.79	-50.7	-69.9	3.8	8.48e-01	0	42	104	0	73	31941
2026-01-06 01:17:36.99	209.80	6.88	-50.7	-69.9	3.8	8.48e-01	0	42	104	0	73	31868
2026-01-06 01:17:37.71	209.69	6.93	-50.7	-69.9	3.8	8.48e-01	0	42	104	0	73	31911
2026-01-06 01:17:39.00	209.49	7.02	-50.7	-69.9	3.8	8.46e-01	0	42	104	0	73	31948
2026-01-06 01:17:39.72	209.38	7.08	-50.7	-69.9	3.8	8.47e-01	0	42	104	0	73	31908
2026-01-06 01:17:41.01	209.18	7.17	-50.7	-69.9	3.8	8.46e-01	0	43	104	0	73	31943
2026-01-06 01:17:41.73	209.06	7.22	-50.7	-69.9	3.8	8.46e-01	0	42	104	0	73	31898
2026-01-06 01:17:43.02	208.86	7.32	-50.7	-69.9	3.8	8.48e-01	0	42	104	0	73	32012
2026-01-06 01:17:43.74	208.74	7.37	-50.7	-69.9	3.8	8.48e-01	0	42	104	0	73	31827
2026-01-06 01:17:45.03	208.54	7.46	-50.7	-69.9	3.8	8.46e-01	0	42	104	0	73	32001
2026-01-06 01:17:45.75	208.42	7.52	-50.7	-69.9	3.8	8.47e-01	0	42	104	0	73	31934
2026-01-06 01:17:47.04	208.21	7.61	-50.7	-69.9	3.8	8.48e-01	0	42	104	0	73	31928
2026-01-06 01:17:47.76	208.09	7.66	-50.7	-69.9	3.8	8.48e-01	0	42	104	0	73	32051
2026-01-06 01:17:49.05	207.88	7.76	-50.7	-69.9	3.8	8.47e-01	0	42	104	0	73	31899
2026-01-06 01:17:49.76	207.76	7.81	-50.7	-69.9	3.8	8.46e-01	0	42	104	0	73	31881
2026-01-06 01:17:51.06	207.54	7.91	-50.7	-69.9	3.8	8.48e-01	0	42	104	0	73	31917
2026-01-06 01:17:51.77	207.42	7.96	-50.7	-69.9	3.8	8.48e-01	0	42	104	0	73	31971
2026-01-06 01:17:53.06	207.20	8.06	-50.7	-69.9	3.8	8.47e-01	0	42	104	0	73	31953
2026-01-06 01:17:53.78	207.08	8.11	-50.7	-69.9	3.8	8.47e-01	0	42	104	0	73	31935
2026-01-06 01:17:55.07	206.86	8.21	-50.7	-69.9	3.8	8.46e-01	0	42	104	0	73	31981
2026-01-06 01:17:55.79	206.73	8.26	-50.7	-69.9	3.8	8.46e-01	0	42	104	0	73	31931
2026-01-06 01:17:57.08	206.51	8.36	-50.7	-69.9	3.8	8.45e-01	0	42	104	0	73	31957
2026-01-06 01:17:57.80	206.38	8.41	-50.7	-69.9	3.8	8.45e-01	0	43	104	0	73	31938
2026-01-06 01:17:59.09	206.15	8.51	-50.7	-69.9	3.8	8.47e-01	0	42	104	0	73	31917
2026-01-06 01:17:59.81	206.02	8.56	-50.7	-69.9	3.8	8.46e-01	0	42	104	0	73	31919
2026-01-06 01:18:01.10	205.79	8.66	-50.7	-69.9	3.8	8.46e-01	0	42	104	0	73	31916
2026-01-06 01:18:01.81	205.66	8.71	-50.7	-69.9	3.8	8.47e-01	0	43	104	0	73	31984
2026-01-06 01:18:03.11	205.42	8.81	-50.7	-69.9	3.8	8.46e-01	0	42	104	0	73	31877
2026-01-06 01:18:03.82	205.29	8.87	-50.7	-69.9	3.8	8.46e-01	0	42	104	0	73	31964
2026-01-06 01:18:05.11	205.05	8.97	-50.7	-69.9	3.8	8.46e-01	0	42	104	0	73	31971
2026-01-06 01:18:05.83	204.92	9.02	-50.7	-69.9	3.8	8.48e-01	0	42	104	0	73	31947
2026-01-06 01:18:07.12	204.68	9.12	-50.7	-69.9	3.8	8.47e-01	0	42	104	0	73	31969
2026-01-06 01:18:07.84	204.54	9.17	-50.7	-69.9	3.8	8.47e-01	0	42	104	0	73	31906
2026-01-06 01:18:09.13	204.30	9.27	-50.7	-69.9	3.8	8.47e-01	0	42	104	0	73	31931
2026-01-06 01:18:09.85	204.16	9.33	-50.7	-69.9	3.8	8.47e-01	0	42	104	0	73	31959
2026-01-06 01:18:11.14	203.91	9.43	-50.7	-69.9	3.8	8.47e-01	0	42	104	0	73	31908
2026-01-06 01:18:11.86	203.77	9.48	-50.7	-69.9	3.8	8.48e-01	0	42	104	0	73	31899
2026-01-06 01:18:13.15	203.51	9.58	-50.7	-69.9	3.8	8.47e-01	0	42	104	0	73	31905
2026-01-06 01:18:13.87	203.37	9.64	-50.7	-69.9	3.8	8.47e-01	0	42	104	0	73	31877
2026-01-06 01:18:15.16	203.12	9.74	-50.7	-69.9	3.8	8.46e-01	0	42	104	0	73	31931
2026-01-06 01:18:15.87	202.97	9.79	-50.7	-69.9	3.8	8.48e-01	0	42	104	0	73	31857
2026-01-06 01:18:17.16	202.71	9.89	-50.7	-69.9	3.8	8.48e-01	0	42	104	0	73	31892
2026-01-06 01:18:17.88	202.57	9.95	-50.7	-69.9	3.8	8.46e-01	0	42	104	0	73	31891
2026-01-06 01:18:19.17	202.30	10.05	-50.7	-69.9	3.8	8.46e-01	0	42	104	0	73	31940
2026-01-06 01:18:19.89	202.15	10.10	-50.7	-69.9	3.8	8.46e-01	0	43	104	0	73	31884
2026-01-06 01:18:21.18	201.89	10.20	-50.7	-69.9	3.8	8.47e-01	0	42	104	0	73	31927
2026-01-06 01:18:21.90	201.74	10.26	-50.7	-69.9	3.8	8.46e-01	0	42	104	0	73	31984
2026-01-06 01:18:23.19	201.46	10.36	-50.7	-69.9	3.8	8.47e-01	0	43	104	0	73	31879
2026-01-06 01:18:23.90	201.31	10.42	-50.7	-69.8	3.8	8.47e-01	0	43	104	0	73	31800
2026-01-06 01:18:25.20	201.04	10.52	-50.7	-69.9	3.8	8.48e-01	0	43	104	0	73	31905
2026-01-06 01:18:25.91	200.88	10.57	-50.7	-69.9	3.8	8.48e-01	0	42	104	0	73	31890
2026-01-06 01:18:27.21	200.60	10.67	-50.6	-69.9	3.8	8.47e-01	0	43	104	0	73	31968
2026-01-06 01:18:27.92	200.45	10.73	-50.7	-69.8	3.8	8.48e-01	0	42	104	0	73	31785
2026-01-06 01:18:29.21	200.16	10.83	-50.7	-69.9	3.8	8.46e-01	0	42	104	0	73	31881
2026-01-06 01:18:29.93	200.00	10.89	-50.7	-69.9	3.8	8.46e-01	0	42	104	0	73	31977
2026-01-06 01:18:31.38	199.68	11.00	-50.7	-69.9	3.8	8.47e-01	0	42	104	0	73	31869
2026-01-06 01:18:32.10	199.52	11.06	-50.7	-69.9	3.8	8.46e-01	0	42	104	0	73	31861
2026-01-06 01:18:33.39	199.22	11.16	-50.7	-69.9	3.8	8.47e-01	0	42	104	0	73	31891
2026-01-06 01:18:34.11	199.06	11.22	-50.7	-69.9	3.8	8.47e-01	0	42	104	0	73	31916
2026-01-06 01:18:35.40	198.76	11.32	-50.7	-69.9	3.8	8.46e-01	0	43	104	0	73	31827
2026-01-06 01:18:36.12	198.60	11.37	-50.7	-69.9	3.8	8.46e-01	0	42	104	0	73	31872
2026-01-06 01:18:37.41	198.30	11.47	-50.7	-69.9	3.8	8.48e-01	0	42	104	0	73	31818
2026-01-06 01:18:38.12	198.13	11.53	-50.7	-69.9	3.8	8.46e-01	0	42	104	0	73	31893
2026-01-06 01:18:39.42	197.82	11.63	-50.7	-69.9	3.8	8.46e-01	0	42	104	0	73	31858
2026-01-06 01:18:40.13	197.65	11.69	-50.7	-69.9	3.8	8.46e-01	0	42	104	0	73	31916
2026-01-06 01:18:41.42	197.34	11.79	-50.7	-69.9	3.8	8.46e-01	0	43	104	0	73	31814
2026-01-06 01:18:42.14	197.17	11.85	-50.7	-69.9	3.8	8.46e-01	0	42	104	0	73	31894
2026-01-06 01:18:43.43	196.86	11.95	-50.7	-69.9	3.8	8.46e-01	0	42	104	0	73	31923
2026-01-06 01:18:44.36	196.63	12.02	-50.7	-69.9	3.8	8.47e-01	0	43	104	0	73	31853
2026-01-06 01:18:45.36	196.38	12.10	-50.7	-69.9	3.8	8.47e-01	0	43	104	0	73	31931
2026-01-06 01:18:46.37	196.13	12.18	-50.7	-69.9	3.8	8.47e-01	0	42	104	0	73	31952
2026-01-06 01:18:47.37	195.88	12.26	-50.7	-69.8	3.8	8.47e-01	0	43	104	0	73	31752
2026-01-06 01:18:48.37	195.63	12.34	-50.7	-69.9	3.8	8.47e-01	0	42	104	0	73	31881
2026-01-06 01:18:49.38	195.37	12.41	-50.7	-69.9	3.8	8.47e-01	0	42	104	0	73	31881
2026-01-06 01:18:50.38	195.12	12.49	-50.7	-69.9	3.8	8.47e-01	0	43	104	0	73	31984
2026-01-06 01:18:51.40	194.85	12.57	-50.7	-69.9	3.8	8.47e-01	0	43	104	0	73	31877
2026-01-06 01:18:52.46	194.58	12.65	-50.7	-69.9	3.8	8.46e-01	0	43	104	0	73	31858
2026-01-06 01:18:53.36	194.34	12.73	-50.7	-69.9	3.8	8.46e-01	0	43	104	0	73	31871
2026-01-06 01:18:54.53	194.04	12.82	-50.7	-69.9	3.8	8.47e-01	0	43	104	0	73	31943
2026-01-06 01:18:55.42	193.80	12.89	-50.7	-69.9	3.8	8.47e-01	0	43	104	0	73	31931
2026-01-06 01:18:56.63	193.48	12.98	-50.7	-69.9	3.8	8.46e-01	0	43	104	0	73	32017
2026-01-06 01:18:57.49	193.25	13.05	-50.7	-69.9	3.8	8.46e-01	0	43	104	0	73	31860
2026-01-06 01:18:58.64	192.94	13.13	-50.7	-69.9	3.8	8.47e-01	0	42	104	0	73	31984
2026-01-06 01:18:59.50	192.70	13.20	-50.7	-69.9	3.8	8.47e-01	0	42	104	0	73	31903
2026-01-06 01:19:00.65	192.39	13.29	-50.7	-69.9	3.8	8.47e-01	0	43	104	0	73	31866
2026-01-06 01:19:01.51	192.15	13.36	-50.7	-69.9	3.8	8.48e-01	0	42	104	0	73	31841
2026-01-06 01:19:02.65	191.83	13.44	-50.7	-69.9	3.8	8.47e-01	0	43	104	0	73	32033
2026-01-06 01:19:03.52	191.59	13.51	-50.7	-69.9	3.8	8.47e-01	0	42	104	0	73	31953
2026-01-06 01:19:04.66	191.27	13.60	-50.7	-69.9	3.8	8.48e-01	0	43	104	0	73	31961
2026-01-06 01:19:05.52	191.03	13.66	-50.7	-69.9	3.8	8.47e-01	0	43	104	0	73	31845
2026-01-06 01:19:06.67	190.70	13.75	-50.7	-69.9	3.8	8.47e-01	0	42	104	0	73	31946
2026-01-06 01:19:07.53	190.45	13.81	-50.7	-69.9	3.8	8.47e-01	0	43	104	0	73	31922
2026-01-06 01:19:08.68	190.12	13.90	-50.7	-69.9	3.8	8.46e-01	0	43	104	0	73	31876
2026-01-06 01:19:09.54	189.87	13.97	-50.7	-69.9	3.8	8.46e-01	0	42	104	0	73	31946
2026-01-06 01:19:10.69	189.53	14.05	-50.7	-69.9	3.8	8.47e-01	0	43	104	0	73	31895
2026-01-06 01:19:11.55	189.28	14.12	-50.7	-69.9	3.8	8.47e-01	0	43	104	0	73	31893
2026-01-06 01:19:12.70	188.94	14.20	-50.7	-69.9	3.8	8.47e-01	0	43	104	0	73	31872
2026-01-06 01:19:13.56	188.68	14.26	-50.7	-69.9	3.8	8.47e-01	0	42	104	0	73	31945
2026-01-06 01:19:14.70	188.34	14.35	-50.7	-69.9	3.8	8.46e-01	0	43	104	0	73	31917
2026-01-06 01:19:15.57	188.07	14.41	-50.7	-69.9	3.8	8.46e-01	0	42	104	0	73	31874
2026-01-06 01:19:16.71	187.73	14.50	-50.7	-69.9	3.8	8.46e-01	0	42	104	0	73	31936
2026-01-06 01:19:17.57	187.46	14.56	-50.7	-69.9	3.8	8.47e-01	0	43	104	0	73	31928
2026-01-06 01:19:18.72	187.11	14.64	-50.7	-69.9	3.8	8.47e-01	0	42	104	0	73	32011
2026-01-06 01:19:19.58	186.84	14.70	-50.7	-69.9	3.8	8.47e-01	0	43	104	0	73	31913
2026-01-06 01:19:20.73	186.48	14.79	-50.7	-69.9	3.8	8.46e-01	0	43	104	0	73	31919
2026-01-06 01:19:21.59	186.21	14.85	-50.7	-69.9	3.8	8.48e-01	0	43	104	0	73	31937
2026-01-06 01:19:22.74	185.85	14.93	-50.7	-69.9	3.8	8.48e-01	0	42	104	0	73	31961
2026-01-06 01:19:23.60	185.58	14.99	-50.7	-69.9	3.8	8.46e-01	0	43	104	0	73	31892
2026-01-06 01:19:24.75	185.21	15.07	-50.7	-69.9	3.8	8.47e-01	0	42	104	0	73	31897
2026-01-06 01:19:25.61	184.93	15.13	-50.7	-69.9	3.8	8.47e-01	0	42	104	0	73	32029
2026-01-06 01:19:26.75	184.56	15.21	-50.7	-69.9	3.8	8.47e-01	0	42	104	0	73	31966
2026-01-06 01:19:27.62	184.28	15.27	-50.7	-69.9	3.8	8.47e-01	0	42	104	0	73	31934
2026-01-06 01:19:28.76	183.91	15.34	-50.7	-69.9	3.8	8.47e-01	0	43	104	0	73	31909
2026-01-06 01:19:29.62	183.63	15.40	-50.7	-69.9	3.8	8.47e-01	0	43	104	0	73	31899
2026-01-06 01:19:30.77	183.24	15.48	-50.7	-69.9	3.8	8.47e-01	0	43	104	0	73	31908
2026-01-06 01:19:31.63	182.96	15.54	-50.7	-69.9	3.8	8.46e-01	0	43	104	0	73	31908
2026-01-06 01:19:32.78	182.57	15.61	-50.7	-69.9	3.8	8.46e-01	0	43	104	0	73	31920
2026-01-06 01:19:33.64	182.28	15.67	-50.7	-69.9	3.8	8.47e-01	0	42	104	0	73	31928
2026-01-06 01:19:34.79	181.89	15.74	-50.7	-69.9	3.8	8.47e-01	0	42	104	0	73	31929
2026-01-06 01:19:35.65	181.60	15.80	-50.7	-69.9	3.8	8.47e-01	0	42	104	0	73	31818
2026-01-06 01:19:36.80	181.21	15.87	-50.7	-69.9	3.8	8.48e-01	0	43	104	0	73	31922
2026-01-06 01:19:37.66	180.91	15.93	-50.7	-69.9	3.8	8.48e-01	0	43	104	0	73	31878
2026-01-06 01:19:38.81	180.52	16.00	-50.7	-69.9	3.8	8.48e-01	0	43	104	0	73	31834
2026-01-06 01:19:39.67	180.22	16.05	-50.7	-69.9	3.8	8.47e-01	0	42	104	0	73	31892
2026-01-06 01:19:40.82	179.81	16.12	-50.7	-69.9	3.8	8.47e-01	0	42	104	0	73	31844
2026-01-06 01:19:41.67	179.52	16.17	-50.7	-69.9	3.8	8.47e-01	0	42	104	0	73	31885
2026-01-06 01:19:42.82	179.11	16.24	-50.7	-69.9	3.8	8.48e-01	0	43	104	0	73	31947
2026-01-06 01:19:43.68	178.81	16.29	-50.7	-69.9	3.8	8.46e-01	0	43	104	0	73	31855
2026-01-06 01:19:44.83	178.40	16.36	-50.7	-69.8	3.8	8.47e-01	0	42	104	0	73	31808
2026-01-06 01:19:45.69	178.09	16.41	-50.7	-69.9	3.8	8.47e-01	0	42	104	0	73	31874
2026-01-06 01:19:46.84	177.67	16.47	-50.7	-69.9	3.8	8.47e-01	0	43	104	0	73	31880
2026-01-06 01:19:47.70	177.36	16.52	-50.7	-69.9	3.8	8.47e-01	0	42	104	0	73	31921
2026-01-06 01:19:48.85	176.95	16.58	-50.7	-69.9	3.8	8.47e-01	0	42	104	0	73	31905
2026-01-06 01:19:49.71	176.63	16.63	-50.7	-69.9	3.8	8.47e-01	0	43	104	0	73	31908
2026-01-06 01:19:50.86	176.21	16.69	-50.7	-69.9	3.8	8.46e-01	0	42	104	0	73	31841
2026-01-06 01:19:51.72	175.89	16.74	-50.7	-69.9	3.8	8.46e-01	0	43	104	0	73	31944
2026-01-06 01:19:52.87	175.47	16.80	-50.7	-69.9	3.8	8.47e-01	0	42	104	0	73	31935
2026-01-06 01:19:53.73	175.15	16.84	-50.7	-69.9	3.8	8.46e-01	0	43	104	0	73	31968
2026-01-06 01:19:54.87	174.72	16.90	-50.7	-69.9	3.8	8.46e-01	0	42	104	0	73	32008
2026-01-06 01:19:55.74	174.40	16.94	-50.7	-69.9	3.8	8.47e-01	0	43	104	0	73	31986
2026-01-06 01:19:56.88	173.97	17.00	-50.7	-69.9	3.8	8.47e-01	0	43	104	0	73	31988
2026-01-06 01:19:57.74	173.65	17.04	-50.7	-69.9	3.8	8.47e-01	0	42	104	0	73	31914
2026-01-06 01:19:58.89	173.21	17.09	-50.7	-69.9	3.8	8.46e-01	0	43	104	0	73	31898
2026-01-06 01:19:59.75	172.88	17.13	-50.7	-69.9	3.8	8.47e-01	0	42	104	0	73	31841
2026-01-06 01:20:00.90	172.44	17.18	-50.7	-69.9	3.8	8.47e-01	0	42	104	0	73	31889
2026-01-06 01:20:01.76	172.11	17.22	-50.7	-69.9	3.8	8.47e-01	0	42	104	0	73	32027
2026-01-06 01:20:02.91	171.67	17.27	-50.7	-69.9	3.8	8.47e-01	0	42	104	0	73	31882
2026-01-06 01:20:03.77	171.34	17.31	-50.7	-69.9	3.8	8.47e-01	0	42	104	0	73	32057
2026-01-06 01:20:04.92	170.90	17.35	-50.7	-69.9	3.8	8.47e-01	0	42	104	0	73	32007
2026-01-06 01:20:05.78	170.56	17.39	-50.7	-69.9	3.8	8.47e-01	0	42	104	0	73	31994
2026-01-06 01:20:06.93	170.11	17.43	-50.7	-69.9	3.8	8.48e-01	0	43	104	0	73	32022
2026-01-06 01:20:07.79	169.78	17.46	-50.7	-69.9	3.8	8.48e-01	0	42	104	0	73	31983
2026-01-06 01:20:08.93	169.33	17.50	-50.7	-69.9	3.8	8.47e-01	0	43	104	0	73	31982
2026-01-06 01:20:09.79	168.99	17.53	-50.7	-69.9	3.8	8.49e-01	0	42	104	0	73	32051
2026-01-06 01:20:10.94	168.54	17.57	-50.7	-69.9	3.8	8.47e-01	0	43	104	0	73	32026
2026-01-06 01:20:11.80	168.20	17.60	-50.7	-69.9	3.8	8.47e-01	0	43	104	0	73	31956
2026-01-06 01:20:12.95	167.74	17.64	-50.7	-69.9	3.8	8.46e-01	0	43	104	0	73	32049
2026-01-06 01:20:13.80	167.41	17.67	-50.7	-69.9	3.8	8.46e-01	0	43	104	0	73	32092
2026-01-06 01:20:14.95	166.95	17.70	-50.7	-69.9	3.8	8.47e-01	0	42	104	0	73	31899
2026-01-06 01:20:15.81	166.60	17.73	-50.7	-69.9	3.8	8.47e-01	0	42	104	0	73	32037
2026-01-06 01:20:16.96	166.14	17.76	-50.7	-69.9	3.8	8.46e-01	0	42	104	0	73	31929
2026-01-06 01:20:17.82	165.80	17.78	-50.7	-69.9	3.8	8.46e-01	0	42	104	0	73	32015
2026-01-06 01:20:18.96	165.34	17.81	-50.7	-69.9	3.8	8.47e-01	0	43	104	0	73	32008
2026-01-06 01:20:19.83	164.99	17.83	-50.7	-69.9	3.8	8.46e-01	0	43	104	0	73	31975
2026-01-06 01:20:20.97	164.53	17.86	-50.7	-69.9	3.8	8.46e-01	0	43	104	0	73	32006
2026-01-06 01:20:21.83	164.18	17.87	-50.7	-69.9	3.8	8.47e-01	0	43	104	0	73	31985
2026-01-06 01:20:22.98	163.72	17.90	-50.7	-69.9	3.8	8.47e-01	0	43	104	0	73	31957
2026-01-06 01:20:23.84	163.37	17.91	-50.7	-69.9	3.8	8.47e-01	0	43	104	0	73	31958
2026-01-06 01:20:24.99	162.90	17.94	-50.7	-69.9	3.8	8.47e-01	0	43	104	0	73	32034
2026-01-06 01:20:25.85	162.55	17.95	-50.8	-69.9	3.8	8.48e-01	0	43	104	0	73	32025
2026-01-06 01:20:27.00	162.08	17.97	-50.7	-69.9	3.8	8.46e-01	0	42	104	0	73	31969
2026-01-06 01:20:27.86	161.73	17.98	-50.7	-69.9	3.8	8.46e-01	0	43	104	0	73	32001
2026-01-06 01:20:29.01	161.26	18.00	-50.8	-69.9	3.8	8.47e-01	0	43	104	0	73	31998
2026-01-06 01:20:29.87	160.91	18.01	-50.7	-69.9	3.8	8.46e-01	0	43	104	0	73	31952
2026-01-06 01:20:31.01	160.45	18.02	-50.7	-69.9	3.8	8.46e-01	0	43	104	0	73	31924
2026-01-06 01:20:31.88	160.09	18.03	-50.7	-69.9	3.8	8.46e-01	0	43	104	0	73	32076
2026-01-06 01:20:33.02	159.62	18.04	-50.7	-69.9	3.8	8.47e-01	0	43	104	0	73	32089
2026-01-06 01:20:33.88	159.27	18.04	-50.8	-69.9	3.8	8.47e-01	0	42	104	0	73	31980
2026-01-06 01:20:35.03	158.80	18.05	-50.7	-69.9	3.8	8.46e-01	0	43	104	0	73	32018
2026-01-06 01:20:35.89	158.45	18.05	-50.7	-69.9	3.8	8.47e-01	0	43	104	0	73	32008
2026-01-06 01:20:37.04	157.98	18.05	-50.8	-69.9	3.8	8.47e-01	0	42	104	0	73	32141
2026-01-06 01:20:37.90	157.62	18.06	-50.7	-69.9	3.8	8.47e-01	0	43	104	0	73	32092
2026-01-06 01:20:39.05	157.15	18.06	-50.7	-69.9	3.8	8.47e-01	0	42	104	0	73	32058
2026-01-06 01:20:39.91	156.80	18.06	-50.8	-69.9	3.8	8.47e-01	0	43	104	0	73	31925
2026-01-06 01:20:41.06	156.33	18.05	-50.7	-69.9	3.8	8.47e-01	0	43	104	0	73	32013
2026-01-06 01:20:41.92	155.97	18.05	-50.7	-69.9	3.8	8.46e-01	0	43	104	0	73	31925
2026-01-06 01:20:43.06	155.51	18.05	-50.7	-69.9	3.8	8.46e-01	0	42	104	0	73	32053
2026-01-06 01:20:43.93	155.15	18.04	-50.7	-69.9	3.8	8.46e-01	0	43	104	0	73	31940
2026-01-06 01:20:45.07	154.68	18.03	-50.8	-69.9	3.8	8.45e-01	0	43	104	0	73	31995
2026-01-06 01:20:45.93	154.33	18.03	-50.7	-69.9	3.8	8.47e-01	0	43	104	0	73	32046
2026-01-06 01:20:47.08	153.86	18.02	-50.8	-69.9	3.8	8.47e-01	0	43	104	0	73	32061
2026-01-06 01:20:47.94	153.51	18.01	-50.7	-69.9	3.8	8.47e-01	0	43	104	0	73	32022
2026-01-06 01:20:49.09	153.04	17.99	-50.7	-69.9	3.8	8.47e-01	0	43	104	0	73	32010
2026-01-06 01:20:49.95	152.69	17.98	-50.8	-69.9	3.8	8.47e-01	0	43	104	0	73	32063
2026-01-06 01:20:51.10	152.22	17.96	-50.7	-69.9	3.8	8.48e-01	0	42	104	0	73	32012
2026-01-06 01:20:51.96	151.87	17.95	-50.7	-69.9	3.8	8.48e-01	0	43	104	0	73	32067
2026-01-06 01:20:53.10	151.41	17.93	-50.8	-69.9	3.8	8.48e-01	0	43	104	0	73	32011
2026-01-06 01:20:53.96	151.06	17.92	-50.8	-69.9	3.8	8.46e-01	0	43	104	0	73	32051
2026-01-06 01:20:55.11	150.59	17.89	-50.8	-69.9	3.8	8.48e-01	0	43	104	0	73	32021
2026-01-06 01:20:55.97	150.25	17.88	-50.8	-69.9	3.8	8.48e-01	0	43	104	0	73	32084
2026-01-06 01:20:57.12	149.78	17.85	-50.8	-69.9	3.8	8.47e-01	0	43	104	0	73	32029
2026-01-06 01:20:57.98	149.44	17.83	-50.8	-69.9	3.8	8.46e-01	0	43	104	0	73	32017
2026-01-06 01:20:59.13	148.97	17.80	-50.8	-69.9	3.8	8.48e-01	0	43	104	0	73	32070
2026-01-06 01:20:59.99	148.63	17.78	-50.8	-69.9	3.8	8.48e-01	0	43	104	0	73	32000
2026-01-06 01:21:01.14	148.17	17.75	-50.8	-69.9	3.8	8.47e-01	0	43	104	0	73	32012
2026-01-06 01:21:02.00	147.82	17.73	-50.7	-69.9	3.8	8.46e-01	0	43	104	0	73	32055
2026-01-06 01:21:03.14	147.37	17.69	-50.8	-69.9	3.8	8.46e-01	0	43	104	0	73	32150
2026-01-06 01:21:04.01	147.02	17.67	-50.8	-69.9	3.8	8.47e-01	0	43	104	0	73	32001
2026-01-06 01:21:05.15	146.57	17.63	-50.8	-69.9	3.8	8.47e-01	0	43	104	0	73	32009
2026-01-06 01:21:06.01	146.23	17.60	-50.8	-69.9	3.8	8.47e-01	0	43	104	0	73	31999
2026-01-06 01:21:07.16	145.78	17.57	-50.8	-69.9	3.8	8.48e-01	0	43	104	0	73	32058
2026-01-06 01:21:08.02	145.44	17.54	-50.8	-69.9	3.8	8.48e-01	0	43	104	0	73	32084
2026-01-06 01:21:09.17	144.99	17.50	-50.8	-70.0	3.8	8.48e-01	0	43	104	0	73	32189
2026-01-06 01:21:10.03	144.65	17.46	-50.8	-69.9	3.8	8.47e-01	0	43	104	0	73	32138
2026-01-06 01:21:11.18	144.21	17.42	-50.8	-69.9	3.8	8.47e-01	0	43	104	0	73	32127
2026-01-06 01:21:12.04	143.87	17.39	-50.8	-69.9	3.8	8.47e-01	0	43	104	0	73	32081
2026-01-06 01:21:13.19	143.43	17.34	-50.8	-69.9	3.8	8.46e-01	0	43	104	0	73	32110
2026-01-06 01:21:14.05	143.09	17.31	-50.8	-69.9	3.8	8.47e-01	0	43	104	0	73	32091
2026-01-06 01:21:15.19	142.66	17.26	-50.8	-69.9	3.8	8.47e-01	0	43	104	0	73	32049
2026-01-06 01:21:16.05	142.33	17.22	-50.8	-70.0	3.8	8.47e-01	0	42	104	0	73	32187
2026-01-06 01:21:17.28	141.86	17.17	-50.8	-69.9	3.8	8.46e-01	0	43	104	0	73	31968
2026-01-06 01:21:18.14	141.53	17.13	-50.8	-69.9	3.8	8.47e-01	0	42	104	0	73	32110
2026-01-06 01:21:19.29	141.09	17.08	-50.8	-69.9	3.8	8.47e-01	0	43	104	0	73	32050
2026-01-06 01:21:20.15	140.77	17.04	-50.8	-69.9	3.8	8.47e-01	0	42	104	0	73	32113
2026-01-06 01:21:21.30	140.34	16.98	-50.8	-69.9	3.8	8.48e-01	0	43	104	0	73	32111
2026-01-06 01:21:22.16	140.01	16.94	-50.8	-69.9	3.8	8.48e-01	0	42	104	0	73	32105
2026-01-06 01:21:23.31	139.59	16.89	-50.8	-69.9	3.8	8.46e-01	0	42	104	0	73	32150
2026-01-06 01:21:24.26	139.23	16.84	-50.8	-69.9	3.8	8.46e-01	0	43	104	0	73	32062
2026-01-06 01:21:25.27	138.86	16.79	-50.8	-69.9	3.8	8.47e-01	0	43	104	0	73	32109
2026-01-06 01:21:26.27	138.49	16.73	-50.8	-69.9	3.8	8.47e-01	0	42	104	0	73	32157
2026-01-06 01:21:27.27	138.12	16.68	-50.8	-69.9	3.8	8.46e-01	0	43	104	0	73	32176
2026-01-06 01:21:28.28	137.76	16.63	-50.8	-69.9	3.8	8.48e-01	0	42	104	0	73	32019
2026-01-06 01:21:29.28	137.39	16.57	-50.8	-69.9	3.8	8.48e-01	0	43	104	0	73	32061
2026-01-06 01:21:30.29	137.03	16.52	-50.8	-69.9	3.8	8.47e-01	0	42	104	0	73	32085
2026-01-06 01:21:31.29	136.67	16.46	-50.8	-69.9	3.8	8.47e-01	0	43	104	0	73	32099
2026-01-06 01:21:32.30	136.31	16.40	-50.8	-69.9	3.8	8.47e-01	0	42	104	0	73	32098
2026-01-06 01:21:33.30	135.95	16.35	-50.8	-69.9	3.8	8.47e-01	0	43	104	0	73	32000
2026-01-06 01:21:34.30	135.59	16.29	-50.8	-69.9	3.8	8.46e-01	0	43	104	0	73	32107
2026-01-06 01:21:35.31	135.24	16.23	-50.8	-69.9	3.8	8.46e-01	0	43	104	0	73	32139
2026-01-06 01:21:36.31	134.89	16.17	-50.8	-69.9	3.8	8.47e-01	0	43	104	0	73	32094
2026-01-06 01:21:37.32	134.53	16.11	-50.8	-69.9	3.8	8.47e-01	0	43	104	0	73	32084
2026-01-06 01:21:38.32	134.19	16.05	-50.8	-69.9	3.8	8.47e-01	0	43	104	0	73	32133
2026-01-06 01:21:39.33	133.84	15.99	-50.8	-69.9	3.8	8.47e-01	0	43	104	0	73	32129
2026-01-06 01:21:40.33	133.49	15.92	-50.8	-69.9	3.8	8.47e-01	0	43	104	0	73	32074
2026-01-06 01:21:41.33	133.15	15.86	-50.8	-69.9	3.8	8.47e-01	0	43	104	0	73	32058
2026-01-06 01:21:42.34	132.81	15.80	-50.8	-69.9	3.8	8.47e-01	0	43	104	0	73	32123
2026-01-06 01:21:43.34	132.47	15.73	-50.8	-69.9	3.8	8.47e-01	0	43	104	0	73	32125
2026-01-06 01:21:44.35	132.13	15.67	-50.8	-69.9	3.8	8.47e-01	0	43	104	0	73	32095
2026-01-06 01:21:45.35	131.79	15.60	-50.8	-69.9	3.8	8.47e-01	0	43	104	0	73	32131
2026-01-06 01:21:46.35	131.46	15.54	-50.8	-69.9	3.8	8.47e-01	0	43	104	0	73	32111
2026-01-06 01:21:47.36	131.13	15.47	-50.8	-69.9	3.8	8.47e-01	0	43	104	0	73	32099
2026-01-06 01:21:48.36	130.80	15.40	-50.8	-69.9	3.8	8.47e-01	0	43	104	0	73	32142
2026-01-06 01:21:49.37	130.47	15.33	-50.8	-69.9	3.8	8.46e-01	0	43	104	0	73	32168
2026-01-06 01:21:50.37	130.14	15.27	-50.8	-70.0	3.8	8.47e-01	0	43	104	0	73	32183
2026-01-06 01:21:51.42	129.80	15.19	-50.8	-70.0	3.8	8.47e-01	0	43	104	0	73	32228
2026-01-06 01:21:52.32	129.51	15.13	-50.8	-70.0	3.8	8.46e-01	0	43	104	0	73	32180
2026-01-06 01:21:53.34	129.18	15.06	-50.8	-70.0	3.8	8.46e-01	0	42	104	0	73	32229
2026-01-06 01:21:54.34	128.87	14.99	-50.8	-69.9	3.8	8.46e-01	0	43	104	0	73	32172
2026-01-06 01:21:55.34	128.55	14.92	-50.8	-69.9	3.8	8.47e-01	0	43	104	0	73	32158
2026-01-06 01:21:56.35	128.23	14.85	-50.8	-69.9	3.8	8.47e-01	0	43	104	0	73	32125
2026-01-06 01:21:57.35	127.92	14.78	-50.8	-70.0	3.8	8.47e-01	0	42	104	0	73	32216
2026-01-06 01:21:58.36	127.61	14.71	-50.8	-69.9	3.8	8.47e-01	0	43	104	0	73	32053
2026-01-06 01:21:59.36	127.30	14.64	-50.8	-69.9	3.8	8.47e-01	0	42	104	0	73	32146
2026-01-06 01:22:00.36	126.99	14.56	-50.8	-69.9	3.8	8.46e-01	0	43	104	0	73	32104
2026-01-06 01:22:01.37	126.69	14.49	-50.8	-69.9	3.8	8.46e-01	0	43	104	0	73	32084
2026-01-06 01:22:02.37	126.38	14.42	-50.8	-70.0	3.8	8.47e-01	0	43	104	0	73	32199
2026-01-06 01:22:03.38	126.08	14.34	-50.8	-70.0	3.8	8.47e-01	0	43	104	0	73	32187
2026-01-06 01:22:04.38	125.78	14.27	-50.8	-70.0	3.8	8.47e-01	0	43	104	0	73	32198
2026-01-06 01:22:05.39	125.48	14.20	-50.8	-70.0	3.8	8.46e-01	0	43	104	0	73	32185
2026-01-06 01:22:06.39	125.19	14.12	-50.8	-69.9	3.8	8.46e-01	0	43	104	0	73	32133
2026-01-06 01:22:07.40	124.89	14.05	-50.8	-69.9	3.8	8.46e-01	0	43	104	0	73	32123
2026-01-06 01:22:08.56	124.55	13.96	-50.8	-69.9	3.8	8.48e-01	0	43	104	0	73	32056
2026-01-06 01:22:09.45	124.29	13.90	-50.8	-69.9	3.8	8.47e-01	0	43	104	0	73	32077
2026-01-06 01:22:10.59	123.97	13.81	-50.8	-69.9	3.8	8.47e-01	0	43	104	0	73	32128
2026-01-06 01:22:11.45	123.72	13.75	-50.8	-69.9	3.8	8.47e-01	0	43	104	0	73	32166
2026-01-06 01:22:12.60	123.40	13.66	-50.8	-69.9	3.8	8.47e-01	0	43	104	0	73	32134
2026-01-06 01:22:13.46	123.15	13.59	-50.8	-70.0	3.8	8.46e-01	0	43	104	0	73	32215
2026-01-06 01:22:14.61	122.83	13.51	-50.8	-69.9	3.8	8.46e-01	0	43	104	0	73	32080
2026-01-06 01:22:15.47	122.59	13.44	-50.8	-69.9	3.8	8.46e-01	0	42	104	0	73	32152
2026-01-06 01:22:16.62	122.28	13.35	-50.8	-69.9	3.8	8.47e-01	0	43	104	0	73	32095
2026-01-06 01:22:17.48	122.04	13.29	-50.8	-69.9	3.8	8.47e-01	0	42	104	0	73	32156
2026-01-06 01:22:18.62	121.73	13.20	-50.8	-69.9	3.8	8.47e-01	0	43	104	0	73	32161
2026-01-06 01:22:19.49	121.50	13.13	-50.8	-69.9	3.8	8.46e-01	0	42	104	0	73	32165
2026-01-06 01:22:20.66	121.18	13.04	-50.8	-70.0	3.8	8.48e-01	0	43	104	0	73	32188
2026-01-06 01:22:21.52	120.95	12.98	-50.8	-69.9	3.8	8.48e-01	0	43	104	0	73	32144
2026-01-06 01:22:22.74	120.63	12.88	-50.8	-69.9	3.8	8.47e-01	0	43	104	0	73	32156
2026-01-06 01:22:23.60	120.40	12.82	-50.8	-69.9	3.8	8.47e-01	0	43	104	0	73	32035
2026-01-06 01:22:24.74	120.11	12.73	-50.8	-69.9	3.8	8.47e-01	0	42	104	0	73	32078
2026-01-06 01:22:25.61	119.88	12.66	-50.8	-69.9	3.8	8.46e-01	0	43	104	0	73	32134
2026-01-06 01:22:26.75	119.59	12.57	-50.8	-69.9	3.8	8.47e-01	0	43	104	0	73	32086
2026-01-06 01:22:27.61	119.37	12.51	-50.8	-69.9	3.8	8.47e-01	0	43	104	0	73	32105
2026-01-06 01:22:28.76	119.07	12.42	-50.8	-69.9	3.8	8.46e-01	0	43	104	0	73	32118
2026-01-06 01:22:29.62	118.86	12.35	-50.8	-69.9	3.8	8.48e-01	0	43	104	0	73	32151
2026-01-06 01:22:30.77	118.57	12.26	-50.8	-69.9	3.8	8.48e-01	0	43	104	0	73	32094
2026-01-06 01:22:31.63	118.36	12.19	-50.8	-69.9	3.8	8.47e-01	0	43	104	0	73	32169
2026-01-06 01:22:32.78	118.07	12.10	-50.8	-69.9	3.8	8.47e-01	0	43	104	0	73	32067
2026-01-06 01:22:33.64	117.86	12.04	-50.8	-69.9	3.8	8.47e-01	0	43	104	0	73	32110
2026-01-06 01:22:34.79	117.58	11.95	-50.8	-69.9	3.8	8.48e-01	0	43	104	0	73	32097
2026-01-06 01:22:35.65	117.37	11.88	-50.8	-69.9	3.8	8.47e-01	0	43	104	0	73	32062
2026-01-06 01:22:36.79	117.10	11.79	-50.8	-69.9	3.8	8.47e-01	0	43	104	0	73	32179
2026-01-06 01:22:37.65	116.90	11.72	-50.8	-69.9	3.8	8.47e-01	0	43	104	0	73	32134
2026-01-06 01:22:38.80	116.62	11.63	-50.8	-69.9	3.8	8.46e-01	0	43	104	0	73	32080
2026-01-06 01:22:39.66	116.42	11.57	-50.8	-69.9	3.8	8.47e-01	0	43	104	0	73	32122
2026-01-06 01:22:40.81	116.15	11.48	-50.8	-69.9	3.8	8.47e-01	0	43	104	0	73	32120
2026-01-06 01:22:41.67	115.95	11.41	-50.8	-69.9	3.8	8.48e-01	0	43	104	0	73	32083
2026-01-06 01:22:42.82	115.69	11.32	-50.8	-69.9	3.8	8.47e-01	0	43	104	0	73	32143
2026-01-06 01:22:43.68	115.49	11.25	-50.8	-69.9	3.8	8.47e-01	0	43	104	0	73	32172
2026-01-06 01:22:44.83	115.23	11.16	-50.8	-69.9	3.8	8.47e-01	0	42	104	0	73	32154
2026-01-06 01:22:45.69	115.04	11.09	-50.8	-69.9	3.8	8.47e-01	0	42	104	0	73	32133
2026-01-06 01:22:46.83	114.78	11.01	-50.8	-69.9	3.8	8.47e-01	0	43	104	0	73	32165
2026-01-06 01:22:47.69	114.59	10.94	-50.8	-69.9	3.8	8.48e-01	0	43	104	0	73	32023
2026-01-06 01:22:48.84	114.34	10.85	-50.8	-69.9	3.8	8.47e-01	0	43	104	0	73	32039
2026-01-06 01:22:49.70	114.15	10.78	-50.8	-69.9	3.8	8.47e-01	0	43	104	0	73	32138
2026-01-06 01:22:50.85	113.90	10.69	-50.8	-70.0	3.8	8.47e-01	0	43	104	0	73	32209
2026-01-06 01:22:51.71	113.72	10.63	-50.8	-69.9	3.8	8.48e-01	0	43	104	0	73	32123
2026-01-06 01:22:52.86	113.47	10.54	-50.8	-69.9	3.8	8.47e-01	0	43	104	0	73	32062
2026-01-06 01:22:53.72	113.29	10.47	-50.8	-70.0	3.8	8.47e-01	0	43	104	0	73	32242
2026-01-06 01:22:54.87	113.05	10.38	-50.8	-69.9	3.8	8.46e-01	0	43	104	0	73	32128
2026-01-06 01:22:55.73	112.87	10.31	-50.8	-69.9	3.8	8.46e-01	0	43	104	0	73	32151
2026-01-06 01:22:56.88	112.63	10.22	-50.8	-69.9	3.8	8.46e-01	0	42	104	0	73	32167
2026-01-06 01:22:57.74	112.45	10.16	-50.8	-70.0	3.8	8.47e-01	0	43	104	0	73	32216
2026-01-06 01:22:58.88	112.21	10.07	-50.8	-69.9	3.8	8.47e-01	0	43	104	0	73	32054
2026-01-06 01:22:59.75	112.04	10.00	-50.8	-69.9	3.8	8.47e-01	0	43	104	0	73	32109
2026-01-06 01:23:00.89	111.81	9.91	-50.8	-69.9	3.8	8.47e-01	0	43	104	0	73	32130
2026-01-06 01:23:01.75	111.63	9.85	-50.8	-69.9	3.8	8.47e-01	0	43	104	0	73	32109
2026-01-06 01:23:02.90	111.41	9.76	-50.8	-70.0	3.8	8.47e-01	0	43	104	0	73	32185
2026-01-06 01:23:03.76	111.24	9.69	-50.8	-69.9	3.8	8.47e-01	0	43	104	0	73	32116
2026-01-06 01:23:04.91	111.01	9.61	-50.8	-69.9	3.8	8.47e-01	0	43	104	0	73	32157
2026-01-06 01:23:05.77	110.84	9.54	-50.8	-70.0	3.8	8.47e-01	0	42	104	0	73	32197
2026-01-06 01:23:06.91	110.62	9.45	-50.8	-70.0	3.8	8.48e-01	0	42	104	0	73	32198
2026-01-06 01:23:07.78	110.45	9.39	-50.8	-69.9	3.8	8.47e-01	0	43	104	0	73	32143
2026-01-06 01:23:08.92	110.24	9.30	-50.8	-69.9	3.8	8.47e-01	0	43	104	0	73	32140
2026-01-06 01:23:09.78	110.07	9.23	-50.8	-69.9	3.8	8.47e-01	0	43	104	0	73	32109
2026-01-06 01:23:10.93	109.86	9.15	-50.8	-69.9	3.8	8.46e-01	0	43	104	0	73	32100
2026-01-06 01:23:11.79	109.70	9.08	-50.8	-69.9	3.8	8.47e-01	0	43	104	0	73	32070
2026-01-06 01:23:12.94	109.48	8.99	-50.8	-70.0	3.8	8.47e-01	0	43	104	0	73	32224
2026-01-06 01:23:13.80	109.33	8.93	-50.8	-69.9	3.8	8.47e-01	0	43	104	0	73	32140
2026-01-06 01:23:14.95	109.12	8.84	-50.8	-69.9	3.8	8.47e-01	0	43	104	0	73	32133
2026-01-06 01:23:15.81	108.96	8.78	-50.8	-69.9	3.8	8.47e-01	0	43	104	0	73	32120
2026-01-06 01:23:16.96	108.75	8.69	-50.8	-69.9	3.8	8.48e-01	0	43	104	0	73	32125
2026-01-06 01:23:17.82	108.60	8.63	-50.8	-69.9	3.8	8.46e-01	0	43	104	0	73	32116
2026-01-06 01:23:18.96	108.40	8.54	-50.8	-69.9	3.8	8.47e-01	0	43	104	0	73	32116
2026-01-06 01:23:19.83	108.24	8.47	-50.8	-69.9	3.8	8.47e-01	0	42	104	0	73	32109
2026-01-06 01:23:20.97	108.04	8.39	-50.8	-69.9	3.8	8.49e-01	0	43	104	0	73	32137
2026-01-06 01:23:21.83	107.89	8.33	-50.8	-70.0	3.8	8.46e-01	0	43	104	0	73	32204
2026-01-06 01:23:22.98	107.69	8.24	-50.8	-69.9	3.8	8.46e-01	0	43	104	0	73	32030
2026-01-06 01:23:23.84	107.55	8.18	-50.8	-69.9	3.8	8.47e-01	0	43	104	0	73	32166
2026-01-06 01:23:24.99	107.35	8.09	-50.8	-69.9	3.8	8.47e-01	0	43	104	0	73	32175
2026-01-06 01:23:25.85	107.21	8.03	-50.8	-69.9	3.8	8.47e-01	0	43	104	0	73	32165
2026-01-06 01:23:27.00	107.01	7.94	-50.8	-69.9	3.8	8.48e-01	0	43	104	0	73	32064
2026-01-06 01:23:27.86	106.87	7.88	-50.8	-70.0	3.8	8.47e-01	0	43	104	0	73	32251
2026-01-06 01:23:29.01	106.68	7.79	-50.8	-69.9	3.8	8.47e-01	0	43	104	0	73	32160
2026-01-06 01:23:29.87	106.54	7.73	-50.8	-69.9	3.8	8.47e-01	0	43	104	0	73	32178
2026-01-06 01:23:31.02	106.35	7.65	-50.8	-70.0	3.8	8.47e-01	0	43	104	0	73	32234
2026-01-06 01:23:31.88	106.21	7.58	-50.8	-69.9	3.8	8.47e-01	0	43	104	0	73	32148
2026-01-06 01:23:33.03	106.03	7.50	-50.8	-69.9	3.8	8.48e-01	0	43	104	0	73	32025
2026-01-06 01:23:33.89	105.89	7.44	-50.8	-69.9	3.8	8.46e-01	0	43	104	0	73	32109
2026-01-06 01:23:35.03	105.71	7.35	-50.8	-69.9	3.8	8.47e-01	0	43	104	0	73	32174
2026-01-06 01:23:35.90	105.57	7.29	-50.8	-69.9	3.8	8.47e-01	0	43	104	0	73	32124
2026-01-06 01:23:37.04	105.39	7.21	-50.8	-69.9	3.8	8.48e-01	0	42	104	0	73	32132
2026-01-06 01:23:37.90	105.26	7.15	-50.8	-69.9	3.8	8.46e-01	0	42	104	0	73	32093
2026-01-06 01:23:39.05	105.08	7.06	-50.8	-69.9	3.8	8.46e-01	0	43	104	0	73	32099
2026-01-06 01:23:39.91	104.95	7.00	-50.8	-69.9	3.8	8.49e-01	0	43	104	0	73	32135
2026-01-06 01:23:41.06	104.78	6.92	-50.8	-69.9	3.8	8.47e-01	0	43	104	0	73	32138
2026-01-06 01:23:41.92	104.65	6.86	-50.8	-69.9	3.8	8.47e-01	0	43	104	0	73	32094
2026-01-06 01:23:43.07	104.47	6.78	-50.8	-70.0	3.8	8.47e-01	0	43	104	0	73	32195
2026-01-06 01:23:43.93	104.35	6.71	-50.8	-70.0	3.8	8.48e-01	0	42	104	0	73	32211
2026-01-06 01:23:45.08	104.17	6.63	-50.8	-69.9	3.8	8.48e-01	0	43	104	0	73	32115
2026-01-06 01:23:45.94	104.05	6.57	-50.8	-69.9	3.8	8.46e-01	0	43	104	0	73	32141
2026-01-06 01:23:47.09	103.88	6.49	-50.8	-70.0	3.8	8.46e-01	0	42	104	0	73	32187
2026-01-06 01:23:47.95	103.76	6.43	-50.8	-69.9	3.8	8.46e-01	0	42	104	0	73	32159
2026-01-06 01:23:49.09	103.59	6.35	-50.8	-69.9	3.8	8.47e-01	0	43	104	0	73	32152
2026-01-06 01:23:49.96	103.47	6.29	-50.8	-69.9	3.8	8.46e-01	0	43	104	0	73	32149
2026-01-06 01:23:51.11	103.30	6.21	-50.8	-70.0	3.8	8.47e-01	0	42	104	0	73	32207
2026-01-06 01:23:51.96	103.18	6.15	-50.8	-70.0	3.8	8.47e-01	0	42	104	0	73	32209
2026-01-06 01:23:53.11	103.02	6.07	-50.8	-70.0	3.8	8.47e-01	0	42	104	0	73	32205
2026-01-06 01:23:53.97	102.90	6.01	-50.8	-69.9	3.8	8.47e-01	0	43	104	0	73	32143
2026-01-06 01:23:55.12	102.75	5.93	-50.8	-69.9	3.8	8.47e-01	0	43	104	0	73	32157
2026-01-06 01:23:55.98	102.63	5.87	-50.8	-69.9	3.8	8.46e-01	0	42	104	0	73	32102
2026-01-06 01:23:57.13	102.47	5.79	-50.8	-69.9	3.8	8.46e-01	0	42	104	0	73	32153
2026-01-06 01:23:57.99	102.35	5.73	-50.8	-69.9	3.8	8.46e-01	0	43	104	0	73	32179
2026-01-06 01:23:59.13	102.20	5.65	-50.8	-70.0	3.8	8.47e-01	0	43	104	0	73	32221
2026-01-06 01:24:00.00	102.08	5.59	-50.8	-70.0	3.8	8.47e-01	0	43	104	0	73	32222
2026-01-06 01:24:01.14	101.93	5.51	-50.8	-70.0	3.8	8.47e-01	0	43	104	0	73	32356
2026-01-06 01:24:02.00	101.82	5.45	-50.8	-70.0	3.8	8.47e-01	0	43	104	0	73	32258
2026-01-06 01:24:03.15	101.67	5.38	-50.8	-70.0	3.8	8.46e-01	0	43	104	0	73	32202
2026-01-06 01:24:04.01	101.56	5.32	-50.8	-70.0	3.8	8.46e-01	0	43	104	0	73	32313
2026-01-06 01:24:05.15	101.41	5.24	-50.8	-69.9	3.8	8.47e-01	0	43	104	0	73	32118

#Closed at: 2026-01-06 01:24:06
#Recorded file [0 MB]: D:/Data/31040_260106_041707.dat