passes_logs/2026/01/06/T1/T1__20260106_212634_NOAA_20_JPSS-1_rec.log

#Pass ID: 20260106_212634_NOAA 20 (JPSS-1)
#Satellite: NOAA 20 (JPSS-1)
#Configuration: NOAA 20
#almurnet v.1.7.20251203
#Start time: 2026-01-06 21:26:36

#Version: 2.0.20230620
#Station: T1
#Location: 37.570604 lon 55.790049 lat
#TLE: 1 43013U 17073A   26006.30790171  .00000126  00000+0  80695-4 0  9991
#TLE: 2 43013  98.7629 307.3394 0001808  51.8724 308.2615 14.19533762421505

#Time	Az	El	Level	Level2	SNR	BER	BlckErr	Temp	State	Recorded	gain1	gain2
2026-01-06 21:26:36.78	42.52	5.09	-49.1	-64.5	3.8	1.49e+00	0	39	0	0	70	20372
2026-01-06 21:26:37.78	42.64	5.13	-49.1	-64.5	3.8	1.49e+00	0	39	104	0	69	21533
2026-01-06 21:26:38.79	42.77	5.17	-49.1	-64.4	3.8	1.49e+00	0	40	104	0	69	21437
2026-01-06 21:26:39.79	42.90	5.20	-49.1	-64.4	3.8	1.49e+00	0	39	104	0	69	21469
2026-01-06 21:26:40.79	43.03	5.24	-49.1	-64.4	3.8	1.49e+00	0	40	104	0	69	21446
2026-01-06 21:26:41.79	43.16	5.28	-49.0	-64.5	3.8	1.49e+00	0	40	104	0	69	21520
2026-01-06 21:26:42.79	43.29	5.32	-49.1	-64.4	3.8	1.49e+00	0	40	104	0	69	21484
2026-01-06 21:26:43.79	43.42	5.36	-49.1	-64.5	3.8	1.49e+00	0	40	104	0	69	21514
2026-01-06 21:26:44.80	43.55	5.40	-49.0	-64.4	3.8	1.49e+00	0	40	104	0	69	21484
2026-01-06 21:26:45.80	43.68	5.44	-49.0	-64.5	3.8	1.49e+00	0	40	104	0	69	21518
2026-01-06 21:26:46.80	43.81	5.47	-49.1	-64.5	3.8	1.49e+00	0	40	104	0	69	21507
2026-01-06 21:26:47.81	43.94	5.51	-49.1	-64.4	3.8	1.49e+00	0	40	104	0	69	21471
2026-01-06 21:26:48.81	44.07	5.55	-49.1	-64.4	3.8	1.49e+00	0	40	104	0	69	21496
2026-01-06 21:26:49.81	44.20	5.59	-49.1	-64.5	3.8	1.49e+00	0	40	104	0	69	21522
2026-01-06 21:26:50.82	44.33	5.63	-49.0	-64.4	3.8	1.49e+00	0	40	104	0	69	21433
2026-01-06 21:26:51.82	44.46	5.66	-49.1	-64.5	3.8	1.49e+00	0	40	104	0	69	21512
2026-01-06 21:26:52.82	44.60	5.70	-49.0	-64.4	3.8	1.49e+00	0	40	104	0	69	21491
2026-01-06 21:26:53.82	44.73	5.74	-49.0	-64.4	3.8	1.49e+00	0	40	104	0	69	21376
2026-01-06 21:26:54.83	44.86	5.78	-49.0	-64.4	3.8	1.49e+00	0	40	104	0	69	21405
2026-01-06 21:26:55.83	45.00	5.81	-49.1	-64.4	3.8	1.49e+00	0	40	104	0	69	21459
2026-01-06 21:26:56.83	45.13	5.85	-49.0	-64.5	3.8	1.49e+00	0	40	104	0	69	21528
2026-01-06 21:26:57.84	45.26	5.89	-49.0	-64.4	3.8	1.49e+00	0	40	104	0	69	21468
2026-01-06 21:26:58.84	45.40	5.93	-49.0	-64.5	3.8	1.49e+00	0	40	104	0	69	21553
2026-01-06 21:26:59.84	45.53	5.96	-49.0	-64.4	3.8	1.49e+00	0	40	104	0	69	21495
2026-01-06 21:27:00.84	45.67	6.00	-49.0	-64.4	3.8	1.49e+00	0	40	104	0	69	21500
2026-01-06 21:27:01.84	45.80	6.04	-49.0	-64.4	3.8	1.49e+00	0	40	104	0	69	21442
2026-01-06 21:27:02.85	45.94	6.08	-49.0	-64.4	3.8	1.49e+00	0	40	104	0	69	21482
2026-01-06 21:27:03.85	46.08	6.11	-49.0	-64.4	3.8	1.49e+00	0	40	104	0	69	21422
2026-01-06 21:27:04.85	46.21	6.15	-49.1	-64.4	3.8	1.49e+00	0	40	104	0	69	21466
2026-01-06 21:27:05.85	46.35	6.19	-49.0	-64.4	3.8	1.49e+00	0	40	104	0	69	21475
2026-01-06 21:27:06.86	46.49	6.22	-49.1	-64.4	3.8	1.49e+00	0	41	104	0	69	21431
2026-01-06 21:27:07.86	46.62	6.26	-49.0	-64.4	3.8	1.49e+00	0	40	104	0	69	21454
2026-01-06 21:27:08.86	46.76	6.30	-49.0	-64.5	3.8	1.49e+00	0	40	104	0	69	21525
2026-01-06 21:27:09.87	46.90	6.33	-49.1	-64.4	3.8	1.49e+00	0	40	104	0	69	21458
2026-01-06 21:27:10.87	47.04	6.37	-49.0	-64.4	3.8	1.49e+00	0	41	104	0	69	21429
2026-01-06 21:27:11.87	47.18	6.41	-49.0	-64.4	3.8	1.49e+00	0	40	104	0	69	21422
2026-01-06 21:27:12.87	47.32	6.44	-49.1	-64.4	3.8	1.49e+00	0	40	104	0	69	21482
2026-01-06 21:27:13.88	47.46	6.48	-49.1	-64.5	3.8	1.49e+00	0	41	104	0	69	21528
2026-01-06 21:27:14.88	47.59	6.52	-49.0	-64.4	3.8	1.49e+00	0	41	104	0	69	21504
2026-01-06 21:27:15.88	47.73	6.55	-49.0	-64.4	3.8	1.49e+00	0	41	104	0	69	21444
2026-01-06 21:27:16.89	47.88	6.59	-49.1	-64.4	3.8	1.49e+00	0	41	104	0	69	21477
2026-01-06 21:27:17.89	48.02	6.62	-49.0	-64.5	3.8	1.49e+00	0	41	104	0	69	21521
2026-01-06 21:27:18.89	48.16	6.66	-49.1	-64.4	3.8	1.49e+00	0	41	104	0	69	21448
2026-01-06 21:27:19.89	48.30	6.69	-49.0	-64.4	3.8	1.49e+00	0	41	104	0	69	21449
2026-01-06 21:27:20.90	48.44	6.73	-49.1	-64.4	3.8	1.49e+00	0	41	104	0	69	21418
2026-01-06 21:27:21.90	48.58	6.77	-49.1	-64.4	3.8	1.49e+00	0	41	104	0	69	21425
2026-01-06 21:27:22.90	48.73	6.80	-49.0	-64.4	3.8	1.49e+00	0	41	104	0	69	21457
2026-01-06 21:27:23.91	48.87	6.84	-49.0	-64.4	3.8	1.49e+00	0	41	104	0	69	21487
2026-01-06 21:27:24.91	49.01	6.87	-49.1	-64.4	3.8	1.49e+00	0	41	104	0	69	21498
2026-01-06 21:27:25.91	49.16	6.91	-49.0	-64.4	3.8	1.49e+00	0	41	104	0	69	21473
2026-01-06 21:27:26.91	49.30	6.94	-49.1	-64.5	3.8	1.49e+00	0	41	104	0	69	21588
2026-01-06 21:27:27.91	49.44	6.98	-49.1	-64.4	3.8	1.49e+00	0	41	104	0	69	21479
2026-01-06 21:27:28.92	49.59	7.01	-49.1	-64.5	3.8	1.49e+00	0	41	104	0	69	21510
2026-01-06 21:27:29.92	49.73	7.04	-49.1	-64.4	3.8	1.49e+00	0	41	104	0	69	21464
2026-01-06 21:27:30.92	49.88	7.08	-49.1	-64.4	3.8	1.49e+00	0	41	104	0	69	21489
2026-01-06 21:27:31.92	50.02	7.11	-49.0	-64.4	3.8	1.49e+00	0	41	104	0	69	21393
2026-01-06 21:27:32.93	50.17	7.15	-49.1	-64.4	3.8	1.49e+00	0	41	104	0	69	21423
2026-01-06 21:27:33.93	50.31	7.18	-49.0	-64.4	3.8	1.49e+00	0	41	104	0	69	21473
2026-01-06 21:27:34.93	50.46	7.22	-49.1	-64.4	3.8	1.49e+00	0	41	104	0	69	21439
2026-01-06 21:27:35.94	50.61	7.25	-49.1	-64.4	3.8	1.49e+00	0	41	104	0	69	21458
2026-01-06 21:27:36.94	50.76	7.28	-49.1	-64.4	3.8	1.49e+00	0	41	104	0	69	21464
2026-01-06 21:27:37.94	50.90	7.32	-49.0	-64.4	3.8	1.49e+00	0	41	104	0	69	21450
2026-01-06 21:27:38.95	51.05	7.35	-49.0	-64.4	3.8	1.49e+00	0	41	104	0	69	21466
2026-01-06 21:27:39.95	51.20	7.39	-49.1	-64.4	3.8	1.49e+00	0	41	104	0	69	21478
2026-01-06 21:27:40.95	51.35	7.42	-49.0	-64.4	3.8	1.49e+00	0	41	104	0	69	21494
2026-01-06 21:27:41.95	51.50	7.45	-49.0	-64.4	3.8	1.49e+00	0	41	104	0	69	21470
2026-01-06 21:27:42.96	51.65	7.48	-49.0	-64.4	3.8	1.49e+00	0	41	104	0	69	21439
2026-01-06 21:27:43.96	51.80	7.52	-49.0	-64.4	3.8	1.49e+00	0	41	104	0	69	21382
2026-01-06 21:27:44.96	51.94	7.55	-49.0	-64.5	3.8	1.49e+00	0	41	104	0	69	21511
2026-01-06 21:27:45.97	52.10	7.58	-49.0	-64.4	3.8	1.49e+00	0	41	104	0	69	21416
2026-01-06 21:27:46.96	52.24	7.62	-49.0	-64.4	3.8	1.49e+00	0	41	104	0	69	21434
2026-01-06 21:27:47.97	52.40	7.65	-49.0	-64.4	3.8	1.49e+00	0	41	104	0	69	21333
2026-01-06 21:27:48.97	52.55	7.68	-49.0	-64.4	3.8	1.49e+00	0	41	104	0	69	21333
2026-01-06 21:27:49.97	52.70	7.71	-49.0	-64.4	3.8	1.49e+00	0	41	104	0	69	21343
2026-01-06 21:27:50.98	52.85	7.75	-49.0	-64.4	3.8	1.49e+00	0	41	104	0	69	21341
2026-01-06 21:27:51.98	53.00	7.78	-49.0	-64.4	3.8	1.49e+00	0	41	104	0	69	21321
2026-01-06 21:27:52.98	53.15	7.81	-49.0	-64.4	3.8	1.49e+00	0	41	104	0	69	21320
2026-01-06 21:27:53.99	53.31	7.84	-49.0	-64.4	3.8	1.49e+00	0	41	104	0	69	21350
2026-01-06 21:27:54.99	53.46	7.87	-49.0	-64.4	3.8	1.49e+00	0	41	104	0	69	21348
2026-01-06 21:27:55.99	53.61	7.90	-49.0	-64.4	3.8	1.49e+00	0	41	104	0	69	21331
2026-01-06 21:27:56.99	53.77	7.94	-49.0	-64.3	3.8	1.49e+00	0	41	104	0	69	21246
2026-01-06 21:27:58.00	53.92	7.97	-49.0	-64.4	3.8	1.49e+00	0	41	104	0	69	21277
2026-01-06 21:27:59.00	54.08	8.00	-49.0	-64.4	3.8	1.49e+00	0	41	104	0	69	21403
2026-01-06 21:28:00.00	54.23	8.03	-49.0	-64.4	3.8	1.49e+00	0	41	104	0	69	21307
2026-01-06 21:28:01.01	54.39	8.06	-49.0	-64.4	3.8	1.49e+00	0	41	104	0	69	21337
2026-01-06 21:28:02.01	54.54	8.09	-49.0	-64.4	3.8	1.49e+00	0	41	104	0	69	21390
2026-01-06 21:28:03.01	54.70	8.12	-49.0	-64.4	3.8	1.49e+00	0	41	104	0	69	21436
2026-01-06 21:28:04.01	54.85	8.15	-49.0	-64.4	3.8	1.49e+00	0	42	104	0	69	21266
2026-01-06 21:28:05.01	55.01	8.18	-49.0	-64.4	3.8	1.49e+00	0	41	104	0	69	21388
2026-01-06 21:28:06.02	55.17	8.21	-49.0	-64.4	3.8	1.49e+00	0	41	104	0	69	21353
2026-01-06 21:28:07.02	55.32	8.24	-49.0	-64.4	3.8	1.49e+00	0	41	104	0	69	21331
2026-01-06 21:28:08.02	55.48	8.27	-49.0	-64.3	3.8	1.49e+00	0	41	104	0	69	21250
2026-01-06 21:28:09.03	55.64	8.30	-49.0	-64.4	3.8	1.49e+00	0	42	104	0	69	21308
2026-01-06 21:28:10.03	55.80	8.33	-49.0	-64.3	3.8	1.49e+00	0	41	104	0	69	21218
2026-01-06 21:28:11.03	55.95	8.36	-49.0	-64.3	3.8	1.49e+00	0	41	104	0	69	21209
2026-01-06 21:28:12.03	56.11	8.39	-49.0	-64.3	3.8	1.49e+00	0	41	104	0	69	21123
2026-01-06 21:28:13.04	56.27	8.42	-49.0	-64.3	3.8	1.49e+00	0	41	104	0	69	21056
2026-01-06 21:28:14.04	56.43	8.45	-49.0	-64.2	3.8	1.49e+00	0	41	104	0	69	20980
2026-01-06 21:28:15.04	56.59	8.48	-49.0	-64.2	3.8	1.49e+00	0	41	104	0	69	20948
2026-01-06 21:28:16.04	56.75	8.50	-49.0	-64.3	3.8	1.49e+00	0	41	104	0	69	21041
2026-01-06 21:28:17.04	56.91	8.53	-49.0	-64.3	3.8	1.49e+00	0	41	104	0	69	21113
2026-01-06 21:28:18.05	57.07	8.56	-49.0	-64.3	3.8	1.49e+00	0	41	104	0	69	21186
2026-01-06 21:28:19.05	57.23	8.59	-49.0	-64.3	3.8	1.49e+00	0	42	104	0	69	21249
2026-01-06 21:28:20.05	57.39	8.62	-49.0	-64.3	3.8	1.49e+00	0	41	104	0	69	21226
2026-01-06 21:28:21.06	57.55	8.64	-49.0	-64.3	3.8	1.49e+00	0	41	104	0	69	21216
2026-01-06 21:28:22.06	57.71	8.67	-49.0	-64.4	3.8	1.49e+00	0	42	104	0	69	21441
2026-01-06 21:28:23.07	57.88	8.70	-49.0	-64.4	3.8	1.49e+00	0	42	104	0	69	21325
2026-01-06 21:28:24.07	58.04	8.73	-49.0	-64.3	3.8	1.49e+00	0	41	104	0	69	21235
2026-01-06 21:28:25.07	58.20	8.75	-49.0	-64.3	3.8	1.49e+00	0	41	104	0	69	21228
2026-01-06 21:28:26.08	58.36	8.78	-49.0	-64.3	3.8	1.49e+00	0	41	104	0	69	21211
2026-01-06 21:28:27.08	58.53	8.81	-49.0	-64.3	3.8	1.49e+00	0	41	104	0	69	21218
2026-01-06 21:28:28.08	58.69	8.83	-49.0	-64.3	3.8	1.49e+00	0	41	104	0	69	21026
2026-01-06 21:28:29.09	58.85	8.86	-49.0	-64.0	3.8	1.49e+00	0	41	104	0	69	20394
2026-01-06 21:28:30.09	59.02	8.89	-49.0	-63.6	3.8	1.49e+00	0	42	104	0	69	19609
2026-01-06 21:28:31.09	59.18	8.91	-49.0	-63.4	3.8	1.49e+00	0	41	104	0	69	19022
2026-01-06 21:28:32.10	59.35	8.94	-48.9	-63.3	3.8	1.49e+00	0	41	104	0	69	18819
2026-01-06 21:28:33.10	59.51	8.96	-48.9	-63.0	3.8	1.49e+00	0	42	104	0	69	18190
2026-01-06 21:28:34.11	59.68	8.99	-48.9	-61.7	4.0	1.48e+00	0	41	104	0	69	15593
2026-01-06 21:28:35.11	59.84	9.02	-48.6	-59.3	4.7	1.33e+00	0	41	0	0	69	11892
2026-01-06 21:28:36.11	60.01	9.04	-48.8	-60.8	4.2	8.53e-01	0	42	0	1048576	69	14182
2026-01-06 21:28:37.11	60.17	9.07	-48.9	-63.0	3.8	1.49e+00	0	41	104	1048576	69	18299
2026-01-06 21:28:38.11	60.34	9.09	-47.3	-53.6	9.4	5.34e-01	0	41	0	1048576	66	7292
2026-01-06 21:28:39.12	60.51	9.12	-48.6	-61.5	3.8	3.79e-01	0	42	104	2097152	67	17235
2026-01-06 21:28:40.12	60.67	9.14	-46.3	-51.1	12.0	8.83e-04	0	41	0	2097152	64	6187
2026-01-06 21:28:41.12	60.84	9.16	-46.4	-51.3	11.9	5.53e-04	0	41	0	4194304	64	6328
2026-01-06 21:28:42.12	61.01	9.19	-46.1	-50.6	12.6	2.91e-04	0	42	0	6291456	64	5791
2026-01-06 21:28:43.12	61.17	9.21	-45.7	-49.8	13.5	4.80e-05	0	42	0	8388608	63	5635
2026-01-06 21:28:44.12	61.34	9.24	-45.8	-49.9	13.4	1.37e-05	0	41	0	10485760	63	5676
2026-01-06 21:28:45.12	61.51	9.26	-45.8	-49.9	13.4	1.37e-05	0	42	0	11534336	63	5678
2026-01-06 21:28:46.12	61.68	9.28	-45.8	-49.9	13.4	2.13e-05	0	42	0	13631488	63	5674
2026-01-06 21:28:47.12	61.84	9.30	-45.8	-49.8	13.5	1.44e-05	0	41	0	15728640	63	5632
2026-01-06 21:28:48.12	62.01	9.33	-45.4	-49.1	14.2	7.00e-07	0	42	0	17825792	62	5504
2026-01-06 21:28:49.13	62.18	9.35	-45.1	-48.8	14.6	7.00e-07	0	42	0	19922944	62	5286
2026-01-06 21:28:50.12	62.35	9.37	-45.0	-48.5	14.8	7.00e-07	0	42	0	20971520	62	5142
2026-01-06 21:28:51.12	62.52	9.40	-45.0	-48.5	14.7	0.00e+00	0	42	0	23068672	62	5156
2026-01-06 21:28:52.12	62.69	9.42	-45.1	-48.6	14.6	0.00e+00	0	41	0	25165824	62	5214
2026-01-06 21:28:53.12	62.86	9.44	-44.9	-48.4	14.9	0.00e+00	0	42	0	27262976	61	5360
2026-01-06 21:28:54.12	63.03	9.46	-45.0	-48.5	14.8	0.00e+00	0	41	0	28311552	61	5419
2026-01-06 21:28:55.12	63.20	9.48	-45.0	-48.5	14.7	0.00e+00	0	42	0	30408704	61	5458
2026-01-06 21:28:56.12	63.37	9.50	-45.0	-48.5	14.8	1.50e-06	0	42	0	32505856	61	5409
2026-01-06 21:28:57.12	63.54	9.52	-44.9	-48.4	14.9	0.00e+00	0	42	0	34603008	61	5346
2026-01-06 21:28:58.13	63.71	9.55	-45.0	-48.5	14.8	0.00e+00	0	41	0	36700160	61	5433
2026-01-06 21:28:59.12	63.88	9.57	-44.9	-48.3	14.9	0.00e+00	0	42	0	37748736	61	5339
2026-01-06 21:29:00.13	64.05	9.59	-45.0	-48.4	14.9	1.50e-06	0	42	0	39845888	61	5362
2026-01-06 21:29:01.13	64.23	9.61	-44.9	-48.4	14.9	0.00e+00	0	42	0	41943040	61	5350
2026-01-06 21:29:02.13	64.40	9.63	-45.0	-48.4	14.9	7.00e-07	0	41	0	44040192	61	5368
2026-01-06 21:29:03.13	64.57	9.65	-44.9	-48.4	14.9	0.00e+00	0	42	0	46137344	61	5375
2026-01-06 21:29:04.13	64.74	9.67	-44.9	-48.4	14.9	7.00e-07	0	41	0	47185920	61	5378
2026-01-06 21:29:05.13	64.91	9.69	-45.0	-48.5	14.7	0.00e+00	0	42	0	49283072	61	5464
2026-01-06 21:29:06.13	65.09	9.71	-45.0	-48.5	14.7	0.00e+00	0	42	0	51380224	61	5461
2026-01-06 21:29:07.13	65.26	9.72	-44.9	-48.4	14.9	7.00e-07	0	42	0	53477376	61	5342
2026-01-06 21:29:08.13	65.43	9.74	-45.0	-48.4	14.9	7.00e-07	0	42	0	55574528	61	5380
2026-01-06 21:29:09.13	65.61	9.76	-45.1	-48.5	14.7	0.00e+00	0	42	0	56623104	61	5459
2026-01-06 21:29:10.13	65.78	9.78	-45.1	-48.6	14.7	7.00e-07	0	42	0	58720256	61	5481
2026-01-06 21:29:11.13	65.95	9.80	-45.2	-48.7	14.7	7.00e-07	0	42	0	60817408	61	5569
2026-01-06 21:29:12.14	66.13	9.82	-45.1	-48.6	14.7	0.00e+00	0	41	0	62914560	61	5499
2026-01-06 21:29:13.14	66.30	9.83	-45.2	-48.7	14.6	0.00e+00	0	41	0	65011712	61	5588
2026-01-06 21:29:14.14	66.48	9.85	-45.2	-48.8	14.5	0.00e+00	0	42	0	66060288	61	5622
2026-01-06 21:29:15.14	66.65	9.87	-45.3	-48.9	14.4	0.00e+00	0	41	0	68157440	61	5683
2026-01-06 21:29:16.14	66.83	9.89	-45.2	-48.8	14.5	7.00e-07	0	41	0	70254592	61	5629
2026-01-06 21:29:17.14	67.00	9.90	-45.2	-48.7	14.5	7.00e-07	0	41	0	72351744	61	5589
2026-01-06 21:29:18.13	67.18	9.92	-45.2	-48.8	14.5	0.00e+00	0	42	0	74448896	61	5632
2026-01-06 21:29:19.14	67.35	9.94	-45.2	-48.8	14.5	7.00e-07	0	41	0	75497472	61	5653
2026-01-06 21:29:20.14	67.53	9.95	-45.2	-48.8	14.5	0.00e+00	0	42	0	77594624	61	5615
2026-01-06 21:29:21.14	67.71	9.97	-45.3	-49.0	14.4	0.00e+00	0	41	0	79691776	61	5733
2026-01-06 21:29:22.13	67.88	9.98	-45.3	-49.0	14.3	7.00e-07	0	41	0	81788928	61	5753
2026-01-06 21:29:23.13	68.06	10.00	-45.4	-49.1	14.2	3.80e-06	0	42	0	82837504	61	5848
2026-01-06 21:29:24.13	68.23	10.01	-45.5	-49.3	14.0	0.00e+00	0	41	0	84934656	61	5961
2026-01-06 21:29:25.13	68.41	10.03	-45.5	-49.3	14.0	3.80e-06	0	42	0	87031808	61	5949
2026-01-06 21:29:26.13	68.59	10.04	-45.5	-49.3	14.1	7.00e-07	0	41	0	89128960	61	5931
2026-01-06 21:29:27.13	68.76	10.06	-45.6	-49.4	13.9	4.50e-06	0	41	0	91226112	61	6014
2026-01-06 21:29:28.13	68.94	10.07	-45.5	-49.3	14.0	3.80e-06	0	42	0	92274688	61	5949
2026-01-06 21:29:29.13	69.12	10.09	-45.6	-49.4	14.0	7.00e-07	0	42	0	94371840	61	5996
2026-01-06 21:29:30.13	69.29	10.10	-45.6	-49.4	13.9	0.00e+00	0	42	0	96468992	61	6040
2026-01-06 21:29:31.13	69.47	10.11	-45.6	-49.4	14.0	1.50e-06	0	41	0	98566144	61	6018
2026-01-06 21:29:32.13	69.65	10.13	-45.5	-49.3	14.0	1.50e-06	0	42	0	99614720	61	5977
2026-01-06 21:29:33.13	69.83	10.14	-45.6	-49.4	13.9	3.80e-06	0	42	0	101711872	61	6045
2026-01-06 21:29:34.13	70.01	10.15	-45.5	-49.3	14.1	5.30e-06	0	41	0	103809024	61	5949
2026-01-06 21:29:35.13	70.18	10.17	-45.5	-49.2	14.1	2.20e-06	0	41	0	105906176	61	5887
2026-01-06 21:29:36.13	70.36	10.18	-45.4	-49.0	14.3	1.50e-06	0	42	0	108003328	61	5782
2026-01-06 21:29:37.13	70.54	10.19	-45.4	-49.0	14.3	1.50e-06	0	41	0	109051904	61	5782
2026-01-06 21:29:38.13	70.72	10.20	-45.4	-49.0	14.3	0.00e+00	0	41	0	111149056	61	5750
2026-01-06 21:29:39.13	70.90	10.21	-45.3	-48.9	14.4	1.50e-06	0	42	0	113246208	61	5691
2026-01-06 21:29:40.13	71.08	10.23	-45.4	-49.0	14.4	1.50e-06	0	42	0	115343360	61	5724
2026-01-06 21:29:41.13	71.26	10.24	-45.4	-49.0	14.3	1.50e-06	0	42	0	117440512	61	5788
2026-01-06 21:29:42.14	71.44	10.25	-45.4	-49.1	14.3	2.20e-06	0	41	0	118489088	61	5822
2026-01-06 21:29:43.14	71.62	10.26	-45.5	-49.3	14.1	3.80e-06	0	41	0	120586240	61	5945
2026-01-06 21:29:44.14	71.80	10.27	-45.6	-49.4	13.9	3.00e-06	0	41	0	122683392	61	6029
2026-01-06 21:29:45.15	71.98	10.28	-45.5	-49.2	14.1	3.80e-06	0	41	0	124780544	61	5923
2026-01-06 21:29:46.14	72.16	10.29	-45.5	-49.2	14.2	1.50e-06	0	42	0	126877696	61	5894
2026-01-06 21:29:47.15	72.34	10.30	-45.6	-49.3	14.1	7.00e-07	0	42	0	127926272	61	5952
2026-01-06 21:29:48.15	72.52	10.31	-45.4	-49.1	14.3	0.00e+00	0	41	0	130023424	61	5827
2026-01-06 21:29:49.15	72.70	10.32	-45.4	-49.0	14.4	0.00e+00	0	42	0	132120576	61	5727
2026-01-06 21:29:50.15	72.88	10.33	-45.3	-48.8	14.7	0.00e+00	0	41	0	134217728	61	5597
2026-01-06 21:29:51.15	73.06	10.34	-45.2	-48.6	14.7	0.00e+00	0	41	0	136314880	61	5528
2026-01-06 21:29:52.15	73.24	10.35	-45.1	-48.5	14.9	0.00e+00	0	42	0	137363456	61	5446
2026-01-06 21:29:53.15	73.42	10.35	-45.1	-48.6	14.8	0.00e+00	0	42	0	139460608	61	5487
2026-01-06 21:29:54.15	73.60	10.36	-45.0	-48.4	14.9	7.00e-07	0	41	0	141557760	61	5379
2026-01-06 21:29:55.14	73.78	10.37	-45.0	-48.4	15.0	0.00e+00	0	42	0	143654912	61	5386
2026-01-06 21:29:56.14	73.96	10.38	-45.1	-48.6	14.8	0.00e+00	0	41	0	144703488	61	5469
2026-01-06 21:29:57.14	74.14	10.38	-45.0	-48.5	15.0	0.00e+00	0	42	0	146800640	61	5417
2026-01-06 21:29:58.14	74.32	10.39	-45.1	-48.6	14.8	0.00e+00	0	41	0	148897792	61	5477
2026-01-06 21:29:59.36	74.54	10.40	-45.0	-48.4	15.0	0.00e+00	0	42	0	150994944	61	5397
2026-01-06 21:30:00.22	74.70	10.41	-45.1	-48.6	14.8	0.00e+00	0	41	0	153092096	61	5509
2026-01-06 21:30:01.36	74.91	10.41	-45.0	-48.4	15.0	0.00e+00	0	41	0	155189248	61	5368
2026-01-06 21:30:02.22	75.06	10.42	-45.1	-48.6	14.8	7.00e-07	0	41	0	156237824	61	5494
2026-01-06 21:30:03.36	75.27	10.42	-45.1	-48.6	14.8	0.00e+00	0	41	0	158334976	61	5510
2026-01-06 21:30:04.22	75.42	10.43	-45.2	-48.7	14.7	0.00e+00	0	42	0	160432128	61	5553
2026-01-06 21:30:05.36	75.63	10.44	-45.2	-48.7	14.6	0.00e+00	0	41	0	162529280	61	5586
2026-01-06 21:30:06.22	75.79	10.44	-45.3	-48.9	14.5	0.00e+00	0	41	0	163577856	61	5668
2026-01-06 21:30:07.36	75.99	10.45	-45.2	-48.7	14.6	0.00e+00	0	41	0	165675008	61	5590
2026-01-06 21:30:08.22	76.15	10.45	-45.1	-48.6	14.8	0.00e+00	0	42	0	167772160	61	5467
2026-01-06 21:30:09.43	76.37	10.45	-45.1	-48.5	14.9	0.00e+00	0	41	0	169869312	61	5457
2026-01-06 21:30:10.29	76.53	10.46	-45.0	-48.4	15.0	0.00e+00	0	42	0	171966464	61	5369
2026-01-06 21:30:11.54	76.75	10.46	-44.9	-48.3	15.0	0.00e+00	0	41	0	174063616	61	5338
2026-01-06 21:30:12.29	76.89	10.47	-44.7	-48.1	15.3	0.00e+00	0	42	0	175112192	61	5197
2026-01-06 21:30:13.58	77.13	10.47	-44.6	-47.8	15.6	0.00e+00	0	42	0	178257920	61	5029
2026-01-06 21:30:14.30	77.26	10.47	-44.5	-47.8	15.6	0.00e+00	0	41	0	179306496	61	5002
2026-01-06 21:30:15.59	77.49	10.47	-44.5	-47.8	15.6	0.00e+00	0	41	0	181403648	60	5314
2026-01-06 21:30:16.31	77.62	10.48	-44.4	-47.5	15.9	0.00e+00	0	42	0	182452224	60	5143
2026-01-06 21:30:17.60	77.86	10.48	-44.4	-47.6	15.8	0.00e+00	0	42	0	185597952	60	5167
2026-01-06 21:30:18.31	77.99	10.48	-44.3	-47.4	16.0	0.00e+00	0	42	0	186646528	60	5100
2026-01-06 21:30:19.60	78.22	10.48	-44.4	-47.5	15.9	0.00e+00	0	41	0	188743680	60	5143
2026-01-06 21:30:20.32	78.35	10.48	-44.5	-47.6	15.8	0.00e+00	0	42	0	190840832	60	5179
2026-01-06 21:30:21.61	78.59	10.49	-44.4	-47.5	16.0	0.00e+00	0	41	0	192937984	60	5112
2026-01-06 21:30:22.32	78.72	10.49	-44.4	-47.5	15.9	0.00e+00	0	41	0	193986560	60	5157
2026-01-06 21:30:23.61	78.95	10.49	-44.3	-47.4	16.0	0.00e+00	0	41	0	197132288	60	5071
2026-01-06 21:30:24.33	79.09	10.49	-44.3	-47.4	16.0	0.00e+00	0	42	0	198180864	60	5071
2026-01-06 21:30:25.61	79.32	10.49	-44.1	-47.0	16.4	0.00e+00	0	41	0	200278016	60	4870
2026-01-06 21:30:26.55	79.49	10.49	-44.0	-47.0	16.5	0.00e+00	0	42	0	202375168	60	4820
2026-01-06 21:30:27.56	79.67	10.49	-43.9	-46.8	16.6	0.00e+00	0	41	0	204472320	59	5020
2026-01-06 21:30:28.56	79.86	10.49	-43.8	-46.7	16.7	0.00e+00	0	42	0	205520896	59	4960
2026-01-06 21:30:29.55	80.04	10.49	-43.8	-46.7	16.7	0.00e+00	0	42	0	207618048	59	4965
2026-01-06 21:30:30.56	80.22	10.48	-43.9	-46.8	16.6	0.00e+00	0	41	0	209715200	59	5019
2026-01-06 21:30:31.56	80.40	10.48	-43.9	-46.9	16.5	0.00e+00	0	42	0	211812352	59	5052
2026-01-06 21:30:32.56	80.59	10.48	-44.0	-46.9	16.5	0.00e+00	0	42	0	213909504	59	5064
2026-01-06 21:30:33.57	80.77	10.48	-44.0	-46.9	16.5	0.00e+00	0	41	0	214958080	59	5059
2026-01-06 21:30:34.57	80.95	10.48	-44.0	-47.0	16.4	0.00e+00	0	41	0	217055232	59	5109
2026-01-06 21:30:35.57	81.13	10.47	-44.0	-47.0	16.4	0.00e+00	0	41	0	219152384	59	5119
2026-01-06 21:30:36.57	81.32	10.47	-44.1	-47.1	16.3	0.00e+00	0	42	0	221249536	59	5188
2026-01-06 21:30:37.57	81.50	10.47	-44.1	-47.2	16.2	0.00e+00	0	42	0	222298112	59	5241
2026-01-06 21:30:38.57	81.68	10.47	-44.1	-47.2	16.2	0.00e+00	0	41	0	224395264	59	5239
2026-01-06 21:30:39.57	81.86	10.46	-44.1	-47.2	16.2	0.00e+00	0	41	0	226492416	59	5243
2026-01-06 21:30:40.58	82.05	10.46	-44.0	-47.1	16.3	0.00e+00	0	41	0	228589568	59	5178
2026-01-06 21:30:41.58	82.23	10.45	-44.1	-47.1	16.3	0.00e+00	0	41	0	230686720	59	5188
2026-01-06 21:30:42.58	82.41	10.45	-44.1	-47.2	16.2	0.00e+00	0	42	0	231735296	59	5224
2026-01-06 21:30:43.58	82.59	10.45	-44.1	-47.0	16.3	0.00e+00	0	42	0	233832448	59	5150
2026-01-06 21:30:44.58	82.77	10.44	-44.1	-47.1	16.3	0.00e+00	0	41	0	235929600	59	5172
2026-01-06 21:30:45.58	82.96	10.44	-44.1	-47.1	16.3	0.00e+00	0	41	0	238026752	59	5162
2026-01-06 21:30:46.59	83.14	10.43	-44.2	-47.2	16.2	0.00e+00	0	41	0	240123904	59	5233
2026-01-06 21:30:47.59	83.32	10.43	-44.2	-47.3	16.1	0.00e+00	0	42	0	241172480	59	5293
2026-01-06 21:30:48.59	83.50	10.42	-44.2	-47.2	16.2	0.00e+00	0	42	0	243269632	59	5250
2026-01-06 21:30:49.67	83.70	10.41	-44.3	-47.4	16.0	0.00e+00	0	42	0	245366784	59	5346
2026-01-06 21:30:50.53	83.86	10.41	-44.2	-47.2	16.1	0.00e+00	0	41	0	247463936	59	5266
2026-01-06 21:30:51.67	84.06	10.40	-44.2	-47.3	16.1	0.00e+00	0	41	0	249561088	59	5288
2026-01-06 21:30:52.53	84.22	10.39	-44.2	-47.2	16.2	0.00e+00	0	41	0	250609664	59	5256
2026-01-06 21:30:53.68	84.43	10.39	-44.1	-47.1	16.3	0.00e+00	0	42	0	252706816	59	5188
2026-01-06 21:30:54.53	84.58	10.38	-44.1	-47.1	16.3	0.00e+00	0	41	0	254803968	59	5165
2026-01-06 21:30:55.68	84.79	10.37	-44.1	-47.1	16.3	0.00e+00	0	41	0	256901120	59	5193
2026-01-06 21:30:56.54	84.94	10.36	-44.1	-47.1	16.3	0.00e+00	0	41	0	257949696	59	5211
2026-01-06 21:30:57.68	85.15	10.36	-44.0	-47.0	16.4	0.00e+00	0	41	0	260046848	59	5124
2026-01-06 21:30:58.82	85.36	10.35	-44.1	-47.1	16.2	0.00e+00	0	41	0	262144000	59	5194
2026-01-06 21:30:59.85	85.54	10.34	-44.1	-47.1	16.3	0.00e+00	0	41	0	264241152	59	5188
2026-01-06 21:31:00.85	85.72	10.33	-44.2	-47.3	16.1	0.00e+00	0	41	0	266338304	59	5301
2026-01-06 21:31:01.85	85.90	10.32	-44.1	-47.2	16.2	0.00e+00	0	41	0	268435456	59	5239
2026-01-06 21:31:02.86	86.09	10.31	-44.2	-47.2	16.2	0.00e+00	0	41	0	270532608	59	5270
2026-01-06 21:31:03.86	86.27	10.30	-44.2	-47.3	16.1	0.00e+00	0	41	0	272629760	59	5322
2026-01-06 21:31:04.86	86.45	10.29	-44.1	-47.2	16.2	0.00e+00	0	41	0	273678336	59	5234
2026-01-06 21:31:05.86	86.63	10.28	-44.2	-47.3	16.1	0.00e+00	0	41	0	275775488	59	5318
2026-01-06 21:31:06.86	86.81	10.27	-44.3	-47.4	16.0	0.00e+00	0	41	0	277872640	59	5356
2026-01-06 21:31:07.86	86.99	10.26	-44.4	-47.5	16.0	0.00e+00	0	42	0	279969792	59	5431
2026-01-06 21:31:08.87	87.17	10.25	-44.4	-47.5	15.9	0.00e+00	0	41	0	281018368	59	5420
2026-01-06 21:31:09.93	87.36	10.24	-44.4	-47.5	15.8	0.00e+00	0	41	0	283115520	59	5451
2026-01-06 21:31:10.80	87.51	10.23	-44.3	-47.4	15.9	0.00e+00	0	41	0	285212672	59	5354
2026-01-06 21:31:11.95	87.72	10.21	-44.4	-47.5	15.8	0.00e+00	0	41	0	287309824	59	5463
2026-01-06 21:31:12.80	87.87	10.20	-44.4	-47.5	15.9	0.00e+00	0	41	0	289406976	59	5429
2026-01-06 21:31:13.95	88.08	10.19	-44.3	-47.3	16.0	0.00e+00	0	41	0	291504128	59	5340
2026-01-06 21:31:14.81	88.23	10.18	-44.3	-47.4	16.0	0.00e+00	0	41	0	292552704	59	5370
2026-01-06 21:31:15.95	88.44	10.17	-44.2	-47.3	16.1	0.00e+00	0	41	0	294649856	59	5282
2026-01-06 21:31:16.81	88.59	10.15	-44.1	-47.1	16.2	0.00e+00	0	41	0	296747008	59	5190
2026-01-06 21:31:17.96	88.80	10.14	-44.1	-47.0	16.4	0.00e+00	0	41	0	298844160	59	5127
2026-01-06 21:31:18.82	88.95	10.13	-44.0	-47.0	16.4	0.00e+00	0	41	0	299892736	59	5119
2026-01-06 21:31:19.99	89.16	10.11	-44.1	-47.1	16.3	0.00e+00	0	41	0	301989888	59	5173
2026-01-06 21:31:20.85	89.31	10.10	-44.1	-47.1	16.3	0.00e+00	0	41	0	304087040	59	5185
2026-01-06 21:31:22.00	89.52	10.08	-44.2	-47.2	16.2	0.00e+00	0	41	0	306184192	59	5227
2026-01-06 21:31:22.86	89.67	10.07	-44.2	-47.2	16.1	0.00e+00	0	41	0	307232768	59	5247
2026-01-06 21:31:24.00	89.87	10.06	-44.3	-47.4	16.0	0.00e+00	0	42	0	310378496	59	5348
2026-01-06 21:31:24.86	90.02	10.04	-44.4	-47.5	15.8	0.00e+00	0	41	0	311427072	59	5440
2026-01-06 21:31:26.00	90.22	10.03	-44.3	-47.3	16.0	0.00e+00	0	42	0	313524224	59	5318
2026-01-06 21:31:26.86	90.38	10.01	-44.2	-47.3	16.1	0.00e+00	0	41	0	315621376	59	5284
2026-01-06 21:31:28.00	90.58	10.00	-44.3	-47.3	16.0	0.00e+00	0	42	0	317718528	59	5320
2026-01-06 21:31:28.86	90.73	9.98	-44.3	-47.3	16.0	0.00e+00	0	42	0	318767104	59	5312
2026-01-06 21:31:30.00	90.93	9.96	-44.2	-47.2	16.1	0.00e+00	0	41	0	320864256	59	5243
2026-01-06 21:31:30.86	91.08	9.95	-44.2	-47.2	16.1	0.00e+00	0	41	0	322961408	59	5265
2026-01-06 21:31:32.01	91.29	9.93	-44.1	-47.1	16.2	0.00e+00	0	41	0	325058560	59	5194
2026-01-06 21:31:32.87	91.44	9.92	-44.2	-47.2	16.1	0.00e+00	0	41	0	326107136	59	5258
2026-01-06 21:31:34.11	91.65	9.90	-44.1	-47.2	16.2	0.00e+00	0	41	0	329252864	59	5222
2026-01-06 21:31:34.96	91.80	9.88	-44.1	-47.1	16.2	0.00e+00	0	41	0	330301440	59	5195
2026-01-06 21:31:36.16	92.01	9.86	-44.1	-47.1	16.3	0.00e+00	0	41	0	332398592	59	5165
2026-01-06 21:31:37.43	92.24	9.84	-44.0	-46.9	16.4	0.00e+00	0	41	0	334495744	59	5078
2026-01-06 21:31:38.18	92.37	9.83	-44.0	-47.0	16.4	0.00e+00	0	41	0	336592896	59	5104
2026-01-06 21:31:39.46	92.59	9.80	-44.0	-47.0	16.3	0.00e+00	0	41	0	338690048	59	5134
2026-01-06 21:31:40.18	92.72	9.79	-44.0	-47.0	16.3	0.00e+00	0	41	0	339738624	59	5131
2026-01-06 21:31:41.47	92.94	9.77	-44.0	-46.9	16.4	0.00e+00	0	41	0	342884352	59	5096
2026-01-06 21:31:42.18	93.06	9.75	-44.0	-47.0	16.3	0.00e+00	0	41	0	343932928	59	5104
2026-01-06 21:31:43.47	93.29	9.73	-44.1	-47.0	16.3	0.00e+00	0	41	0	346030080	59	5127
2026-01-06 21:31:44.18	93.41	9.72	-44.0	-47.0	16.3	0.00e+00	0	41	0	348127232	59	5117
2026-01-06 21:31:45.48	93.64	9.69	-44.1	-47.1	16.2	0.00e+00	0	41	0	350224384	59	5193
2026-01-06 21:31:46.19	93.76	9.68	-44.2	-47.2	16.1	0.00e+00	0	42	0	351272960	59	5233
2026-01-06 21:31:47.67	94.02	9.65	-44.3	-47.3	16.0	0.00e+00	0	41	0	354418688	59	5333
2026-01-06 21:31:48.38	94.14	9.63	-44.3	-47.4	15.9	0.00e+00	0	41	0	355467264	59	5348
2026-01-06 21:31:49.73	94.37	9.61	-44.3	-47.4	15.9	0.00e+00	0	41	0	357564416	59	5362
2026-01-06 21:31:50.45	94.50	9.59	-44.3	-47.3	16.0	0.00e+00	0	41	0	359661568	59	5305
2026-01-06 21:31:51.74	94.72	9.57	-44.1	-47.1	16.2	0.00e+00	0	41	0	361758720	59	5187
2026-01-06 21:31:52.45	94.84	9.55	-44.2	-47.3	16.1	0.00e+00	0	41	0	362807296	59	5280
2026-01-06 21:31:53.74	95.06	9.52	-44.2	-47.2	16.0	0.00e+00	0	41	0	365953024	59	5272
2026-01-06 21:31:54.46	95.18	9.51	-44.3	-47.3	15.9	0.00e+00	0	41	0	367001600	59	5331
2026-01-06 21:31:55.74	95.40	9.48	-44.3	-47.4	15.9	0.00e+00	0	41	0	369098752	59	5351
2026-01-06 21:31:56.46	95.53	9.47	-44.3	-47.4	15.9	0.00e+00	0	41	0	371195904	59	5351
2026-01-06 21:31:57.74	95.74	9.44	-44.3	-47.4	15.8	0.00e+00	0	41	0	373293056	59	5390
2026-01-06 21:31:58.48	95.87	9.42	-44.3	-47.3	15.9	0.00e+00	0	41	0	374341632	59	5322
2026-01-06 21:31:59.76	96.09	9.39	-44.3	-47.3	16.0	0.00e+00	0	41	0	376438784	59	5306
2026-01-06 21:32:00.48	96.21	9.38	-44.2	-47.3	16.0	0.00e+00	0	41	0	378535936	59	5304
2026-01-06 21:32:01.76	96.43	9.35	-44.1	-47.2	16.1	0.00e+00	0	41	0	380633088	59	5221
2026-01-06 21:32:02.61	96.57	9.33	-44.0	-47.0	16.2	0.00e+00	0	41	0	382730240	59	5117
2026-01-06 21:32:04.09	96.82	9.30	-43.9	-46.9	16.4	0.00e+00	0	42	0	384827392	59	5046
2026-01-06 21:32:04.80	96.94	9.28	-44.0	-47.0	16.2	0.00e+00	0	41	0	385875968	59	5141
2026-01-06 21:32:06.09	97.16	9.25	-44.1	-47.1	16.1	0.00e+00	0	41	0	389021696	59	5181
2026-01-06 21:32:06.81	97.28	9.23	-44.2	-47.2	16.0	0.00e+00	0	41	0	390070272	59	5264
2026-01-06 21:32:08.36	97.54	9.20	-44.4	-47.5	15.7	0.00e+00	0	41	0	393216000	59	5434
2026-01-06 21:32:09.07	97.66	9.18	-44.4	-47.6	15.6	0.00e+00	0	41	0	394264576	59	5491
2026-01-06 21:32:10.47	97.89	9.14	-44.5	-47.7	15.5	0.00e+00	0	41	0	397410304	59	5583
2026-01-06 21:32:11.18	98.01	9.13	-44.5	-47.7	15.5	0.00e+00	0	41	0	398458880	59	5574
2026-01-06 21:32:12.53	98.24	9.09	-44.5	-47.7	15.5	0.00e+00	0	41	0	400556032	59	5550
2026-01-06 21:32:13.24	98.35	9.08	-44.5	-47.7	15.5	0.00e+00	0	41	0	402653184	59	5553
2026-01-06 21:32:14.54	98.57	9.04	-44.5	-47.6	15.5	0.00e+00	0	41	0	404750336	59	5527
2026-01-06 21:32:15.25	98.69	9.03	-44.4	-47.6	15.6	0.00e+00	0	41	0	405798912	59	5469
2026-01-06 21:32:16.54	98.90	8.99	-45.5	-49.3	14.3	0.00e+00	0	41	0	408944640	61	5929
2026-01-06 21:32:17.26	99.02	8.97	-49.4	-64.1	3.8	2.73e-01	0	41	104	408944640	69	20692
2026-01-06 21:32:18.80	99.27	8.93	-49.8	-65.0	3.8	1.49e+00	0	41	104	408944640	70	21638
2026-01-06 21:32:19.51	99.39	8.92	-49.8	-65.1	3.8	1.49e+00	0	41	104	408944640	70	21938
2026-01-06 21:32:20.88	99.62	8.88	-49.7	-65.2	3.8	1.49e+00	0	42	104	408944640	70	22045
2026-01-06 21:32:21.59	99.73	8.86	-49.5	-65.2	3.8	1.49e+00	0	41	104	408944640	70	22180
2026-01-06 21:32:22.88	99.94	8.83	-49.6	-65.2	3.8	1.49e+00	0	41	104	408944640	70	22157
2026-01-06 21:32:23.60	100.06	8.81	-49.7	-65.3	3.8	1.49e+00	0	41	104	408944640	70	22328
2026-01-06 21:32:24.89	100.27	8.77	-49.7	-65.3	3.8	1.49e+00	0	41	104	408944640	70	22461
2026-01-06 21:32:25.61	100.39	8.75	-49.8	-65.3	3.8	1.49e+00	0	41	104	408944640	70	22331
2026-01-06 21:32:26.90	100.60	8.72	-49.8	-65.4	3.8	1.49e+00	0	41	104	408944640	70	22555
2026-01-06 21:32:27.62	100.72	8.70	-49.9	-65.3	3.8	1.49e+00	0	41	104	408944640	70	22504
2026-01-06 21:32:28.90	100.92	8.66	-49.8	-65.4	3.8	1.49e+00	0	41	104	408944640	70	22561
2026-01-06 21:32:29.62	101.04	8.64	-49.9	-65.4	3.8	1.49e+00	0	41	104	408944640	70	22547
2026-01-06 21:32:30.91	101.25	8.61	-49.9	-65.3	3.8	1.49e+00	0	42	104	408944640	70	22519
2026-01-06 21:32:31.63	101.37	8.59	-49.8	-65.3	3.8	1.49e+00	0	41	104	408944640	70	22482
2026-01-06 21:32:32.92	101.57	8.55	-49.9	-65.4	3.8	1.49e+00	0	41	104	408944640	70	22615
2026-01-06 21:32:33.64	101.69	8.53	-49.9	-65.4	3.8	1.49e+00	0	41	104	408944640	70	22591
2026-01-06 21:32:34.93	101.90	8.49	-49.7	-65.4	3.8	1.49e+00	0	41	104	408944640	70	22567
2026-01-06 21:32:35.65	102.01	8.47	-49.8	-65.4	3.8	1.49e+00	0	41	104	408944640	70	22549
2026-01-06 21:32:36.94	102.22	8.44	-49.7	-65.3	3.8	1.49e+00	0	41	104	408944640	70	22470
2026-01-06 21:32:37.66	102.33	8.42	-49.8	-65.3	3.8	1.49e+00	0	41	104	408944640	70	22509
2026-01-06 21:32:38.95	102.54	8.38	-49.8	-65.3	3.8	1.49e+00	0	41	104	408944640	70	22478
2026-01-06 21:32:39.66	102.65	8.36	-49.8	-65.3	3.8	1.49e+00	0	42	104	408944640	70	22419
2026-01-06 21:32:40.95	102.85	8.32	-49.8	-65.3	3.8	1.49e+00	0	41	104	408944640	70	22412
2026-01-06 21:32:41.67	102.97	8.30	-49.8	-65.3	3.8	1.49e+00	0	41	104	408944640	70	22380
2026-01-06 21:32:42.96	103.17	8.26	-49.8	-65.3	3.8	1.49e+00	0	41	104	408944640	70	22423
2026-01-06 21:32:43.68	103.28	8.24	-49.7	-65.3	3.8	1.49e+00	0	41	104	408944640	70	22506
2026-01-06 21:32:44.97	103.49	8.20	-49.7	-65.3	3.8	1.49e+00	0	41	104	408944640	70	22351
2026-01-06 21:32:45.69	103.60	8.18	-49.7	-65.3	3.8	1.49e+00	0	41	104	408944640	70	22344
2026-01-06 21:32:46.98	103.80	8.14	-49.7	-65.3	3.8	1.49e+00	0	41	104	408944640	70	22388
2026-01-06 21:32:47.70	103.91	8.12	-49.7	-65.3	3.8	1.49e+00	0	41	104	408944640	70	22379
2026-01-06 21:32:48.99	104.12	8.08	-49.7	-65.3	3.8	1.49e+00	0	41	104	408944640	70	22368
2026-01-06 21:32:49.71	104.23	8.05	-49.7	-65.3	3.8	1.49e+00	0	41	104	408944640	70	22337
2026-01-06 21:32:50.99	104.43	8.01	-49.7	-65.3	3.8	1.49e+00	0	41	104	408944640	70	22344
2026-01-06 21:32:51.71	104.54	7.99	-49.7	-65.3	3.8	1.49e+00	0	41	104	408944640	70	22452
2026-01-06 21:32:53.00	104.74	7.95	-49.7	-65.3	3.8	1.49e+00	0	41	104	408944640	70	22435
2026-01-06 21:32:53.72	104.85	7.93	-49.7	-65.3	3.8	1.49e+00	0	41	104	408944640	70	22303
2026-01-06 21:32:55.01	105.05	7.89	-49.7	-65.2	3.8	1.49e+00	0	42	104	408944640	70	22247
2026-01-06 21:32:55.73	105.16	7.87	-49.7	-65.3	3.8	1.49e+00	0	41	104	408944640	70	22305
2026-01-06 21:32:57.02	105.36	7.82	-49.7	-65.3	3.8	1.49e+00	0	41	104	408944640	70	22437
2026-01-06 21:32:57.74	105.47	7.80	-49.7	-65.3	3.8	1.49e+00	0	41	104	408944640	70	22337
2026-01-06 21:32:59.02	105.66	7.76	-49.7	-65.3	3.8	1.49e+00	0	41	104	408944640	70	22429
2026-01-06 21:32:59.74	105.77	7.74	-49.7	-65.3	3.8	1.49e+00	0	41	104	408944640	70	22361
2026-01-06 21:33:01.03	105.97	7.70	-49.7	-65.3	3.8	1.49e+00	0	41	104	408944640	70	22269
2026-01-06 21:33:01.75	106.08	7.67	-49.7	-65.3	3.8	1.49e+00	0	41	104	408944640	70	22430
2026-01-06 21:33:03.04	106.27	7.63	-49.7	-65.3	3.8	1.49e+00	0	41	104	408944640	70	22362
2026-01-06 21:33:03.76	106.38	7.61	-49.7	-65.3	3.8	1.49e+00	0	41	104	408944640	70	22362
2026-01-06 21:33:05.05	106.57	7.56	-49.7	-65.3	3.8	1.49e+00	0	41	104	408944640	70	22343
2026-01-06 21:33:05.77	106.68	7.54	-49.7	-65.3	3.8	1.49e+00	0	41	104	408944640	70	22338
2026-01-06 21:33:07.06	106.88	7.50	-49.7	-65.3	3.8	1.49e+00	0	42	104	408944640	70	22335
2026-01-06 21:33:07.79	106.99	7.47	-49.7	-65.3	3.8	1.49e+00	0	41	104	408944640	70	22284
2026-01-06 21:33:09.08	107.18	7.43	-49.7	-65.3	3.8	1.49e+00	0	41	104	408944640	70	22297
2026-01-06 21:33:09.80	107.29	7.41	-49.7	-65.3	3.8	1.49e+00	0	42	104	408944640	70	22329
2026-01-06 21:33:11.09	107.48	7.36	-49.7	-65.3	3.8	1.49e+00	0	41	104	408944640	70	22363
2026-01-06 21:33:11.80	107.58	7.34	-49.7	-65.3	3.8	1.49e+00	0	41	104	408944640	70	22305
2026-01-06 21:33:13.10	107.78	7.29	-49.7	-65.3	3.8	1.49e+00	0	41	104	408944640	70	22319
2026-01-06 21:33:13.81	107.88	7.27	-49.7	-65.3	3.8	1.49e+00	0	41	104	408944640	70	22361
2026-01-06 21:33:15.10	108.07	7.23	-49.7	-65.3	3.8	1.49e+00	0	41	104	408944640	70	22285
2026-01-06 21:33:15.82	108.18	7.20	-49.7	-65.3	3.8	1.49e+00	0	42	104	408944640	70	22273
2026-01-06 21:33:17.11	108.37	7.16	-49.7	-65.3	3.8	1.49e+00	0	41	104	408944640	70	22323
2026-01-06 21:33:17.83	108.47	7.13	-49.7	-65.3	3.8	1.49e+00	0	41	104	408944640	70	22333
2026-01-06 21:33:19.12	108.66	7.09	-49.7	-65.3	3.8	1.49e+00	0	41	104	408944640	70	22349
2026-01-06 21:33:19.84	108.77	7.06	-49.7	-65.3	3.8	1.49e+00	0	41	104	408944640	70	22420
2026-01-06 21:33:21.13	108.95	7.02	-49.7	-65.3	3.8	1.49e+00	0	41	104	408944640	70	22345
2026-01-06 21:33:21.85	109.06	6.99	-49.7	-65.3	3.8	1.49e+00	0	41	104	408944640	70	22327
2026-01-06 21:33:23.14	109.24	6.95	-49.7	-65.3	3.8	1.49e+00	0	41	104	408944640	70	22335
2026-01-06 21:33:23.86	109.35	6.92	-49.7	-65.3	3.8	1.49e+00	0	41	104	408944640	70	22325
2026-01-06 21:33:25.15	109.53	6.88	-49.7	-65.3	3.8	1.49e+00	0	41	104	408944640	70	22380
2026-01-06 21:33:25.87	109.64	6.85	-49.7	-65.3	3.8	1.49e+00	0	41	104	408944640	70	22325
2026-01-06 21:33:27.16	109.82	6.81	-49.7	-65.3	3.8	1.49e+00	0	41	104	408944640	70	22360
2026-01-06 21:33:27.88	109.93	6.78	-49.7	-65.3	3.8	1.49e+00	0	42	104	408944640	70	22345
2026-01-06 21:33:29.17	110.11	6.74	-49.7	-65.3	3.8	1.49e+00	0	41	104	408944640	70	22386
2026-01-06 21:33:29.88	110.21	6.71	-49.7	-65.3	3.8	1.49e+00	0	41	104	408944640	70	22357
2026-01-06 21:33:31.18	110.39	6.66	-49.7	-65.3	3.8	1.49e+00	0	41	104	408944640	70	22328
2026-01-06 21:33:31.89	110.50	6.64	-49.7	-65.3	3.8	1.49e+00	0	41	104	408944640	70	22270
2026-01-06 21:33:33.19	110.68	6.59	-49.7	-65.3	3.8	1.49e+00	0	41	104	408944640	70	22358
2026-01-06 21:33:33.90	110.78	6.57	-49.7	-65.3	3.8	1.49e+00	0	41	104	408944640	70	22330
2026-01-06 21:33:35.19	110.96	6.52	-49.7	-65.3	3.8	1.49e+00	0	41	104	408944640	70	22509
2026-01-06 21:33:35.91	111.06	6.49	-49.8	-65.3	3.8	1.49e+00	0	41	104	408944640	70	22470
2026-01-06 21:33:37.20	111.24	6.45	-49.7	-65.3	3.8	1.49e+00	0	41	104	408944640	70	22345
2026-01-06 21:33:37.92	111.34	6.42	-49.7	-65.3	3.8	1.49e+00	0	41	104	408944640	70	22355
2026-01-06 21:33:39.21	111.52	6.37	-49.7	-65.3	3.8	1.49e+00	0	41	104	408944640	70	22342
2026-01-06 21:33:39.93	111.62	6.35	-49.7	-65.3	3.8	1.49e+00	0	42	104	408944640	70	22397
2026-01-06 21:33:41.22	111.80	6.30	-49.7	-65.3	3.8	1.49e+00	0	41	104	408944640	70	22432
2026-01-06 21:33:41.94	111.90	6.27	-49.7	-65.3	3.8	1.49e+00	0	41	104	408944640	70	22373
2026-01-06 21:33:43.23	112.08	6.22	-49.8	-65.3	3.8	1.49e+00	0	41	104	408944640	70	22412
2026-01-06 21:33:43.95	112.18	6.20	-49.8	-65.3	3.8	1.49e+00	0	41	104	408944640	70	22449
2026-01-06 21:33:45.24	112.36	6.15	-49.8	-65.3	3.8	1.49e+00	0	41	104	408944640	70	22415
2026-01-06 21:33:45.96	112.45	6.12	-49.8	-65.3	3.8	1.49e+00	0	41	104	408944640	70	22430
2026-01-06 21:33:47.25	112.63	6.07	-49.8	-65.3	3.8	1.49e+00	0	41	104	408944640	70	22413
2026-01-06 21:33:47.96	112.73	6.05	-49.8	-65.3	3.8	1.49e+00	0	41	104	408944640	70	22351
2026-01-06 21:33:49.26	112.90	6.00	-49.7	-65.3	3.8	1.49e+00	0	41	104	408944640	70	22386
2026-01-06 21:33:49.98	113.00	5.97	-49.7	-65.3	3.8	1.49e+00	0	41	104	408944640	70	22366
2026-01-06 21:33:51.26	113.17	5.92	-49.7	-65.3	3.8	1.49e+00	0	41	104	408944640	70	22401
2026-01-06 21:33:51.98	113.27	5.90	-49.8	-65.3	3.8	1.49e+00	0	41	104	408944640	70	22415
2026-01-06 21:33:53.27	113.45	5.85	-49.8	-65.3	3.8	1.49e+00	0	41	104	408944640	70	22466
2026-01-06 21:33:53.99	113.54	5.82	-49.7	-65.3	3.8	1.49e+00	0	41	104	408944640	70	22413
2026-01-06 21:33:55.28	113.71	5.77	-49.8	-65.4	3.8	1.49e+00	0	41	104	408944640	70	22535
2026-01-06 21:33:56.00	113.81	5.75	-49.8	-65.3	3.8	1.49e+00	0	41	104	408944640	70	22455
2026-01-06 21:33:57.29	113.98	5.70	-49.7	-65.3	3.8	1.49e+00	0	41	104	408944640	70	22350
2026-01-06 21:33:58.01	114.08	5.67	-49.7	-65.3	3.8	1.49e+00	0	41	104	408944640	70	22424
2026-01-06 21:33:59.30	114.25	5.62	-49.8	-65.3	3.8	1.49e+00	0	41	104	408944640	70	22373
2026-01-06 21:34:00.02	114.34	5.59	-49.8	-65.3	3.8	1.49e+00	0	41	104	408944640	70	22331
2026-01-06 21:34:01.31	114.52	5.54	-49.7	-65.3	3.8	1.49e+00	0	41	104	408944640	70	22417
2026-01-06 21:34:02.03	114.61	5.51	-49.8	-65.3	3.8	1.49e+00	0	41	104	408944640	70	22503
2026-01-06 21:34:03.32	114.78	5.47	-49.8	-65.4	3.8	1.49e+00	0	41	104	408944640	70	22541
2026-01-06 21:34:04.03	114.87	5.44	-49.8	-65.3	3.8	1.49e+00	0	41	104	408944640	70	22483
2026-01-06 21:34:05.32	115.04	5.39	-49.8	-65.3	3.8	1.49e+00	0	41	104	408944640	70	22512
2026-01-06 21:34:06.04	115.13	5.36	-49.8	-65.3	3.8	1.49e+00	0	41	104	408944640	70	22485
2026-01-06 21:34:07.33	115.30	5.31	-49.8	-65.3	3.8	1.49e+00	0	41	104	408944640	70	22321
2026-01-06 21:34:08.05	115.40	5.28	-49.8	-65.3	3.8	1.49e+00	0	41	104	408944640	70	22400
2026-01-06 21:34:09.34	115.56	5.23	-49.7	-65.3	3.8	1.49e+00	0	41	104	408944640	70	22311
2026-01-06 21:34:10.06	115.65	5.20	-49.8	-65.3	3.8	1.49e+00	0	41	104	408944640	70	22447
2026-01-06 21:34:11.35	115.82	5.15	-49.7	-65.3	3.8	1.49e+00	0	41	104	408944640	70	22344
2026-01-06 21:34:12.07	115.91	5.13	-49.7	-65.3	3.8	1.49e+00	0	41	104	408944640	70	22338
2026-01-06 21:34:13.35	116.08	5.08	-49.7	-65.3	3.8	1.49e+00	0	42	104	408944640	70	22327
2026-01-06 21:34:14.07	116.17	5.05	-49.7	-65.3	3.8	1.49e+00	0	41	104	408944640	70	22291
2026-01-06 21:34:15.36	116.33	5.00	-49.7	-65.3	3.8	1.49e+00	0	41	104	408944640	70	22320

#Closed at: 2026-01-06 21:34:16
#Recorded file [408 MB]: D:/Data/31040_260107_002636.dat