passes_logs/2026/01/06/T1/T1__20260106_150206_FENGYUN_3E_rec.log

#Pass ID: 20260106_150206_FENGYUN 3E
#Satellite: FENGYUN 3E
#Configuration: FENGYUN 3E
#almurnet v.1.7.20251203
#Start time: 2026-01-06 15:02:08

#Version: 2.0.20230620
#Station: T1
#Location: 37.570604 lon 55.790049 lat
#TLE: 1 49008U 21062A   26005.63346808  .00000216  00000+0  12264-3 0  9999
#TLE: 2 49008  98.7472  10.8714 0001569 158.0856 202.0387 14.19884439233512

#Time	Az	El	Level	Level2	SNR	BER	BlckErr	Temp	State	Recorded	gain1	gain2
2026-01-06 15:02:08.43	186.70	5.12	-49.3	-60.8	3.8	8.47e-01	0	37	0	0	68	13949
2026-01-06 15:02:09.42	186.75	5.19	-49.2	-60.2	3.8	8.46e-01	0	37	104	0	68	13004
2026-01-06 15:02:10.43	186.80	5.26	-49.2	-60.0	3.8	8.47e-01	0	37	104	0	68	12682
2026-01-06 15:02:11.43	186.85	5.33	-49.2	-59.9	3.8	8.48e-01	0	38	104	0	68	12634
2026-01-06 15:02:12.44	186.89	5.40	-49.2	-59.9	3.8	8.47e-01	0	38	104	0	68	12632
2026-01-06 15:02:13.44	186.94	5.47	-49.2	-60.0	3.8	8.47e-01	0	38	104	0	68	12701
2026-01-06 15:02:14.45	186.99	5.54	-49.2	-60.0	3.8	8.47e-01	0	38	104	0	68	12793
2026-01-06 15:02:15.45	187.04	5.61	-49.2	-60.1	3.8	8.48e-01	0	38	104	0	68	12848
2026-01-06 15:02:16.45	187.09	5.68	-49.2	-60.1	3.8	8.46e-01	0	38	104	0	68	12828
2026-01-06 15:02:17.46	187.14	5.75	-49.2	-60.0	3.8	8.46e-01	0	38	104	0	68	12749
2026-01-06 15:02:18.46	187.19	5.82	-49.2	-59.9	3.8	8.45e-01	0	38	104	0	68	12557
2026-01-06 15:02:19.47	187.24	5.89	-49.1	-59.6	3.8	8.46e-01	0	38	104	0	68	12138
2026-01-06 15:02:20.47	187.29	5.96	-49.1	-59.4	3.8	8.46e-01	0	38	104	0	68	11836
2026-01-06 15:02:21.48	187.34	6.03	-49.1	-59.1	3.8	8.46e-01	0	38	104	0	68	11511
2026-01-06 15:02:22.48	187.39	6.10	-49.1	-58.9	3.8	8.47e-01	0	38	104	0	68	11286
2026-01-06 15:02:23.49	187.44	6.17	-49.1	-59.0	3.8	8.47e-01	0	38	104	0	68	11412
2026-01-06 15:02:24.49	187.50	6.24	-49.1	-59.0	3.8	8.47e-01	0	38	104	0	68	11327
2026-01-06 15:02:25.49	187.55	6.31	-49.1	-59.3	3.8	8.46e-01	0	38	104	0	68	11817
2026-01-06 15:02:26.50	187.60	6.39	-49.1	-59.7	3.8	8.47e-01	0	38	104	0	68	12311
2026-01-06 15:02:27.50	187.65	6.46	-49.2	-60.0	3.8	8.47e-01	0	38	104	0	68	12667
2026-01-06 15:02:28.51	187.70	6.53	-49.2	-60.2	3.8	8.46e-01	0	38	104	0	68	13107
2026-01-06 15:02:29.51	187.76	6.60	-49.2	-60.1	3.8	8.48e-01	0	38	104	0	68	12952
2026-01-06 15:02:30.52	187.81	6.68	-49.2	-59.8	3.8	8.47e-01	0	38	104	0	68	12425
2026-01-06 15:02:31.52	187.86	6.75	-49.1	-59.3	3.8	8.47e-01	0	38	104	0	68	11782
2026-01-06 15:02:32.53	187.92	6.82	-49.0	-58.7	3.9	8.45e-01	0	38	104	0	68	10927
2026-01-06 15:02:33.53	187.97	6.89	-49.0	-58.3	4.0	8.45e-01	0	38	104	0	68	10420
2026-01-06 15:02:34.53	188.02	6.97	-48.9	-58.1	4.0	8.43e-01	0	38	0	0	68	10205
2026-01-06 15:02:35.54	188.08	7.04	-49.0	-58.8	3.9	8.46e-01	0	38	104	0	68	11036
2026-01-06 15:02:36.54	188.13	7.11	-49.1	-59.7	3.8	8.46e-01	0	38	104	0	68	12320
2026-01-06 15:02:37.55	188.19	7.19	-49.2	-60.5	3.8	8.47e-01	0	38	104	0	68	13511
2026-01-06 15:02:38.55	188.24	7.26	-49.1	-59.9	3.8	8.47e-01	0	38	104	0	68	12625
2026-01-06 15:02:39.56	188.30	7.34	-48.7	-56.7	4.3	8.42e-01	0	38	0	0	68	8734
2026-01-06 15:02:40.56	188.35	7.41	-47.6	-53.1	6.4	3.41e-01	0	39	0	1048576	66	6494
2026-01-06 15:02:41.57	188.41	7.49	-46.4	-50.3	9.2	3.99e-02	0	39	0	8388608	63	5543
2026-01-06 15:02:42.57	188.46	7.56	-45.1	-48.0	11.5	2.49e-03	0	38	0	15728640	61	4781
2026-01-06 15:02:43.57	188.52	7.64	-43.7	-46.0	13.5	3.43e-05	0	39	0	23068672	58	4497
2026-01-06 15:02:44.58	188.58	7.71	-42.0	-43.9	15.4	4.50e-06	0	39	0	30408704	54	4468
2026-01-06 15:02:45.58	188.63	7.79	-41.1	-42.8	16.4	0.00e+00	0	39	0	37748736	53	4184
2026-01-06 15:02:46.58	188.69	7.86	-40.5	-42.1	17.2	0.00e+00	0	39	0	45088768	51	4327
2026-01-06 15:02:47.59	188.75	7.94	-40.0	-41.6	17.6	0.00e+00	0	39	0	52428800	50	4315
2026-01-06 15:02:48.59	188.80	8.01	-39.6	-41.2	18.1	0.00e+00	0	39	0	59768832	50	4108
2026-01-06 15:02:49.60	188.86	8.09	-39.6	-41.1	18.1	0.00e+00	0	39	0	67108864	49	4316
2026-01-06 15:02:50.60	188.92	8.17	-39.8	-41.4	17.8	0.00e+00	0	39	0	74448896	49	4469
2026-01-06 15:02:51.60	188.98	8.24	-40.2	-41.8	17.5	0.00e+00	0	39	0	80740352	49	4659
2026-01-06 15:02:52.61	189.04	8.32	-40.7	-42.3	17.0	0.00e+00	0	39	0	88080384	50	4695
2026-01-06 15:02:53.61	189.10	8.40	-41.3	-43.1	16.3	0.00e+00	0	39	0	95420416	52	4571
2026-01-06 15:02:54.61	189.16	8.48	-42.0	-43.9	15.4	0.00e+00	0	39	0	102760448	53	4753
2026-01-06 15:02:55.62	189.22	8.55	-43.2	-45.4	14.0	1.10e-06	0	39	0	110100480	55	5006
2026-01-06 15:02:56.62	189.28	8.63	-44.4	-46.9	12.6	4.46e-05	0	39	0	117440512	58	5004
2026-01-06 15:02:57.62	189.34	8.71	-45.3	-48.2	11.3	1.00e-03	0	39	0	124780544	59	5505
2026-01-06 15:02:58.63	189.40	8.79	-46.1	-49.7	9.8	7.26e-03	0	39	0	132120576	61	5845
2026-01-06 15:02:59.63	189.46	8.87	-46.8	-51.1	8.4	3.97e-02	0	39	0	139460608	62	6433
2026-01-06 15:03:00.64	189.52	8.94	-47.2	-52.2	7.2	1.08e-01	0	39	0	146800640	64	6553
2026-01-06 15:03:01.64	189.58	9.02	-47.6	-53.1	6.4	2.40e-01	0	39	0	154140672	64	7284
2026-01-06 15:03:02.64	189.64	9.10	-46.3	-50.1	9.4	1.55e-01	0	39	0	160432128	63	5417
2026-01-06 15:03:03.65	189.70	9.18	-47.7	-53.5	6.1	2.99e-02	0	39	0	167772160	64	7618
2026-01-06 15:03:04.65	189.77	9.26	-47.8	-53.8	5.9	3.87e-01	0	39	0	170917888	65	7444
2026-01-06 15:03:05.66	189.83	9.34	-45.8	-49.1	10.4	2.56e-01	0	39	0	175112192	62	5138
2026-01-06 15:03:06.66	189.89	9.42	-48.1	-54.9	5.2	3.72e-01	0	39	0	181403648	65	8413
2026-01-06 15:03:07.66	189.96	9.50	-46.9	-51.2	8.1	6.38e-01	0	39	0	183500800	64	5844
2026-01-06 15:03:08.67	190.02	9.58	-44.2	-46.6	12.9	2.86e-04	0	39	0	190840832	59	4582
2026-01-06 15:03:09.67	190.08	9.66	-42.0	-43.8	15.6	0.00e+00	0	39	0	198180864	54	4435
2026-01-06 15:03:10.68	190.15	9.74	-40.5	-42.2	17.2	0.00e+00	0	39	0	204472320	51	4378
2026-01-06 15:03:11.68	190.21	9.82	-39.5	-41.1	18.2	0.00e+00	0	39	0	212860928	49	4297
2026-01-06 15:03:12.68	190.28	9.91	-39.2	-40.8	18.5	0.00e+00	0	39	0	220200960	49	4162
2026-01-06 15:03:13.68	190.34	9.99	-39.3	-40.8	18.5	0.00e+00	0	39	0	226492416	49	4187
2026-01-06 15:03:14.68	190.41	10.07	-39.2	-40.8	18.5	0.00e+00	0	39	0	233832448	49	4158
2026-01-06 15:03:15.68	190.47	10.15	-39.1	-40.6	18.7	0.00e+00	0	39	0	241172480	48	4318
2026-01-06 15:03:16.68	190.54	10.23	-39.1	-40.7	18.6	0.00e+00	0	39	0	248512512	48	4362
2026-01-06 15:03:17.69	190.61	10.32	-39.1	-40.7	18.6	0.00e+00	0	39	0	255852544	48	4364
2026-01-06 15:03:18.69	190.67	10.40	-38.9	-40.4	18.9	0.00e+00	0	39	0	263192576	48	4226
2026-01-06 15:03:19.69	190.74	10.48	-38.9	-40.4	18.9	0.00e+00	0	39	0	270532608	48	4221
2026-01-06 15:03:20.70	190.81	10.56	-39.0	-40.6	18.7	0.00e+00	0	39	0	277872640	48	4303
2026-01-06 15:03:21.70	190.88	10.65	-38.7	-40.3	19.0	0.00e+00	0	39	0	285212672	48	4153
2026-01-06 15:03:22.70	190.95	10.73	-38.8	-40.4	18.9	0.00e+00	0	39	0	291504128	48	4209
2026-01-06 15:03:23.71	191.02	10.82	-38.9	-40.4	18.9	0.00e+00	0	39	0	298844160	48	4222
2026-01-06 15:03:24.71	191.09	10.90	-38.8	-40.4	18.9	0.00e+00	0	39	0	306184192	48	4201
2026-01-06 15:03:25.71	191.16	10.98	-38.8	-40.3	19.0	0.00e+00	0	39	0	313524224	48	4176
2026-01-06 15:03:26.72	191.23	11.07	-38.7	-40.2	18.7	0.00e+00	0	40	0	320864256	47	4386
2026-01-06 15:03:27.72	191.30	11.15	-38.5	-40.1	18.9	0.00e+00	0	39	0	328204288	47	4305
2026-01-06 15:03:28.72	191.37	11.24	-38.5	-40.0	19.0	0.00e+00	0	39	0	335544320	47	4287
2026-01-06 15:03:29.72	191.44	11.33	-38.5	-40.1	18.9	0.00e+00	0	39	0	342884352	47	4303
2026-01-06 15:03:30.73	191.51	11.41	-38.5	-40.0	18.9	0.00e+00	0	39	0	350224384	47	4282
2026-01-06 15:03:31.73	191.58	11.50	-38.5	-40.1	18.9	0.00e+00	0	39	0	357564416	47	4314
2026-01-06 15:03:32.74	191.66	11.58	-38.4	-39.9	19.1	0.00e+00	0	39	0	364904448	47	4216
2026-01-06 15:03:33.74	191.73	11.67	-38.5	-40.1	19.0	0.00e+00	0	40	0	372244480	47	4294
2026-01-06 15:03:34.75	191.80	11.76	-38.4	-39.9	19.1	0.00e+00	0	40	0	378535936	47	4224
2026-01-06 15:03:35.75	191.88	11.85	-38.4	-40.0	19.0	0.00e+00	0	40	0	385875968	47	4261
2026-01-06 15:03:36.75	191.95	11.93	-38.1	-39.6	19.4	0.00e+00	0	39	0	393216000	47	4054
2026-01-06 15:03:37.75	192.02	12.02	-38.4	-40.0	19.0	0.00e+00	0	39	0	400556032	46	4498
2026-01-06 15:03:38.75	192.10	12.11	-38.3	-39.9	19.1	0.00e+00	0	40	0	407896064	46	4469
2026-01-06 15:03:39.76	192.18	12.20	-38.3	-39.9	19.1	0.00e+00	0	39	0	415236096	46	4457
2026-01-06 15:03:40.76	192.25	12.28	-38.2	-39.8	19.2	0.00e+00	0	39	0	422576128	46	4407
2026-01-06 15:03:41.76	192.33	12.37	-38.2	-39.8	19.2	0.00e+00	0	40	0	429916160	46	4400
2026-01-06 15:03:42.77	192.40	12.46	-38.4	-39.9	19.1	0.00e+00	0	40	0	436207616	46	4491
2026-01-06 15:03:43.77	192.48	12.55	-38.3	-39.9	19.1	0.00e+00	0	39	0	443547648	46	4469
2026-01-06 15:03:44.77	192.56	12.64	-38.2	-39.8	19.2	0.00e+00	0	40	0	450887680	46	4396
2026-01-06 15:03:45.78	192.64	12.73	-38.1	-39.7	19.3	0.00e+00	0	40	0	458227712	46	4353
2026-01-06 15:03:46.78	192.72	12.82	-38.3	-39.9	19.1	0.00e+00	0	40	0	465567744	46	4462
2026-01-06 15:03:47.78	192.80	12.91	-38.2	-39.7	19.3	0.00e+00	0	40	0	472907776	46	4382
2026-01-06 15:03:48.78	192.87	13.00	-38.0	-39.5	19.4	0.00e+00	0	39	0	480247808	46	4265
2026-01-06 15:03:49.78	192.95	13.09	-38.0	-39.6	19.3	0.00e+00	0	40	0	487587840	46	4318
2026-01-06 15:03:50.79	193.04	13.19	-37.9	-39.4	19.5	0.00e+00	0	39	0	494927872	46	4225
2026-01-06 15:03:51.78	193.12	13.28	-37.9	-39.4	19.5	0.00e+00	0	40	0	502267904	46	4231
2026-01-06 15:03:52.79	193.20	13.37	-38.0	-39.6	19.4	0.00e+00	0	40	0	509607936	46	4300
2026-01-06 15:03:53.79	193.28	13.46	-37.9	-39.4	19.5	0.00e+00	0	40	0	516947968	46	4225
2026-01-06 15:03:54.79	193.36	13.55	-37.8	-39.3	19.6	0.00e+00	0	40	0	523239424	46	4178
2026-01-06 15:03:55.79	193.44	13.65	-37.8	-39.3	19.7	0.00e+00	0	40	0	530579456	46	4157
2026-01-06 15:03:56.80	193.53	13.74	-37.8	-39.3	19.7	0.00e+00	0	40	0	537919488	46	4159
2026-01-06 15:03:57.80	193.61	13.83	-37.5	-39.0	19.9	0.00e+00	0	40	0	545259520	45	4260
2026-01-06 15:03:58.80	193.70	13.93	-37.7	-39.1	19.8	0.00e+00	0	40	0	552599552	45	4335
2026-01-06 15:03:59.80	193.78	14.02	-37.8	-39.3	19.7	0.00e+00	0	40	0	559939584	45	4402
2026-01-06 15:04:00.80	193.87	14.11	-37.7	-39.1	19.8	0.00e+00	0	40	0	567279616	45	4333
2026-01-06 15:04:01.80	193.95	14.21	-37.7	-39.1	19.9	0.00e+00	0	40	0	574619648	45	4322
2026-01-06 15:04:02.81	194.04	14.30	-37.8	-39.3	19.7	0.00e+00	0	40	0	580911104	45	4429
2026-01-06 15:04:03.80	194.12	14.40	-37.6	-39.1	19.8	0.00e+00	0	40	0	588251136	45	4314
2026-01-06 15:04:04.81	194.21	14.49	-37.6	-39.0	19.9	0.00e+00	0	40	0	595591168	45	4284
2026-01-06 15:04:05.81	194.30	14.59	-37.6	-39.1	19.9	0.00e+00	0	40	0	602931200	45	4310
2026-01-06 15:04:06.81	194.39	14.69	-37.5	-38.9	20.0	0.00e+00	0	39	0	610271232	45	4237
2026-01-06 15:04:07.82	194.48	14.78	-37.4	-38.9	20.0	0.00e+00	0	40	0	617611264	45	4212
2026-01-06 15:04:08.82	194.57	14.88	-37.6	-39.1	19.9	0.00e+00	0	40	0	624951296	45	4309
2026-01-06 15:04:09.82	194.66	14.98	-37.7	-39.2	19.8	0.00e+00	0	40	0	632291328	45	4360
2026-01-06 15:04:10.82	194.75	15.07	-37.6	-39.0	19.9	0.00e+00	0	40	0	639631360	45	4280
2026-01-06 15:04:11.83	194.84	15.17	-37.6	-39.0	19.9	0.00e+00	0	40	0	646971392	45	4277
2026-01-06 15:04:12.83	194.93	15.27	-37.5	-39.0	20.0	0.00e+00	0	40	0	654311424	45	4250
2026-01-06 15:04:13.83	195.03	15.37	-37.6	-39.0	19.9	0.00e+00	0	40	0	661651456	45	4287
2026-01-06 15:04:14.84	195.12	15.47	-37.6	-39.1	19.9	0.00e+00	0	40	0	667942912	45	4297
2026-01-06 15:04:15.84	195.21	15.57	-37.6	-39.0	20.0	0.00e+00	0	40	0	675282944	45	4276
2026-01-06 15:04:16.84	195.31	15.67	-37.6	-39.1	19.9	0.00e+00	0	40	0	682622976	45	4320
2026-01-06 15:04:17.85	195.40	15.77	-37.4	-38.9	20.1	0.00e+00	0	40	0	689963008	45	4212
2026-01-06 15:04:18.85	195.50	15.87	-37.7	-39.2	19.8	0.00e+00	0	40	0	697303040	45	4383
2026-01-06 15:04:19.85	195.60	15.97	-37.4	-38.8	20.1	0.00e+00	0	40	0	704643072	45	4183
2026-01-06 15:04:20.85	195.69	16.07	-37.5	-39.0	20.0	0.00e+00	0	40	0	711983104	45	4257
2026-01-06 15:04:21.85	195.79	16.17	-37.5	-38.9	20.1	0.00e+00	0	40	0	719323136	45	4222
2026-01-06 15:04:22.85	195.89	16.27	-37.5	-38.9	20.0	0.00e+00	0	40	0	726663168	45	4241
2026-01-06 15:04:23.86	195.99	16.37	-37.4	-38.9	20.1	0.00e+00	0	40	0	732954624	45	4212
2026-01-06 15:04:24.86	196.09	16.48	-37.4	-38.8	20.2	0.00e+00	0	40	0	740294656	44	4404
2026-01-06 15:04:25.86	196.19	16.58	-37.3	-38.7	20.2	0.00e+00	0	40	0	747634688	44	4389
2026-01-06 15:04:26.87	196.29	16.68	-37.4	-38.8	20.2	0.00e+00	0	40	0	754974720	44	4398
2026-01-06 15:04:27.87	196.39	16.79	-37.2	-38.6	20.3	0.00e+00	0	40	0	762314752	44	4322
2026-01-06 15:04:28.87	196.49	16.89	-37.1	-38.6	20.4	0.00e+00	0	40	0	769654784	44	4294
2026-01-06 15:04:29.88	196.59	16.99	-37.0	-38.4	20.4	0.00e+00	0	40	0	776994816	44	4237
2026-01-06 15:04:30.88	196.70	17.10	-36.9	-38.3	20.6	0.00e+00	0	40	0	784334848	44	4179
2026-01-06 15:04:31.88	196.80	17.20	-36.9	-38.3	20.6	0.00e+00	0	40	0	791674880	44	4150
2026-01-06 15:04:32.88	196.91	17.31	-36.8	-38.2	20.7	0.00e+00	0	40	0	799014912	44	4104
2026-01-06 15:04:33.89	197.01	17.41	-36.9	-38.2	20.6	0.00e+00	0	40	0	806354944	44	4143
2026-01-06 15:04:34.89	197.12	17.52	-36.5	-37.9	20.8	0.00e+00	0	40	0	812646400	43	4210
2026-01-06 15:04:35.89	197.22	17.62	-36.5	-37.9	20.8	0.00e+00	0	40	0	819986432	43	4208
2026-01-06 15:04:36.89	197.33	17.73	-36.5	-37.8	20.8	0.00e+00	0	40	0	827326464	43	4189
2026-01-06 15:04:37.90	197.44	17.84	-36.4	-37.8	20.9	0.00e+00	0	40	0	834666496	43	4147
2026-01-06 15:04:38.90	197.55	17.95	-36.4	-37.8	20.8	0.00e+00	0	40	0	842006528	43	4154
2026-01-06 15:04:39.90	197.66	18.05	-36.5	-37.9	20.8	0.00e+00	0	40	0	849346560	43	4195
2026-01-06 15:04:40.90	197.77	18.16	-36.3	-37.6	21.0	0.00e+00	0	40	0	856686592	43	4085
2026-01-06 15:04:41.91	197.88	18.27	-36.3	-37.6	21.0	0.00e+00	0	40	0	864026624	43	4093
2026-01-06 15:04:42.91	198.00	18.38	-36.3	-37.7	20.9	0.00e+00	0	40	0	871366656	43	4105
2026-01-06 15:04:43.91	198.11	18.49	-36.2	-37.5	21.0	0.00e+00	0	40	0	877658112	43	4049
2026-01-06 15:04:44.91	198.22	18.60	-36.5	-37.9	20.8	0.00e+00	0	40	0	884998144	43	4197
2026-01-06 15:04:45.91	198.34	18.71	-36.2	-37.5	21.0	0.00e+00	0	40	0	892338176	42	4291
2026-01-06 15:04:46.91	198.45	18.82	-36.2	-37.5	21.0	0.00e+00	0	40	0	899678208	42	4286
2026-01-06 15:04:47.92	198.57	18.93	-36.3	-37.6	21.0	0.00e+00	0	40	0	907018240	42	4301
2026-01-06 15:04:48.92	198.69	19.04	-36.3	-37.6	21.0	0.00e+00	0	40	0	914358272	42	4308
2026-01-06 15:04:49.92	198.80	19.15	-36.4	-37.7	20.9	0.00e+00	0	40	0	921698304	42	4368
2026-01-06 15:04:50.93	198.92	19.26	-36.4	-37.8	20.8	0.00e+00	0	40	0	929038336	42	4395
2026-01-06 15:04:51.92	199.04	19.37	-36.5	-37.8	20.8	0.00e+00	0	40	0	936378368	42	4424
2026-01-06 15:04:52.92	199.16	19.49	-36.4	-37.7	20.8	0.00e+00	0	40	0	942669824	42	4384
2026-01-06 15:04:53.93	199.28	19.60	-36.5	-37.9	20.7	0.00e+00	0	40	0	950009856	42	4452
2026-01-06 15:04:54.93	199.41	19.71	-36.5	-37.9	20.7	0.00e+00	0	40	0	957349888	42	4448
2026-01-06 15:04:55.93	199.53	19.83	-36.4	-37.8	20.8	0.00e+00	0	40	0	964689920	43	4151
2026-01-06 15:04:56.93	199.65	19.94	-36.3	-37.7	20.9	0.00e+00	0	40	0	972029952	43	4114
2026-01-06 15:04:57.93	199.78	20.06	-36.3	-37.6	21.0	0.00e+00	0	40	0	979369984	43	4088
2026-01-06 15:04:58.94	199.90	20.17	-36.2	-37.6	21.0	0.00e+00	0	40	0	986710016	43	4069
2026-01-06 15:04:59.94	200.03	20.29	-36.3	-37.7	20.9	0.00e+00	0	40	0	994050048	43	4119
2026-01-06 15:05:00.93	200.16	20.40	-36.2	-37.6	21.0	0.00e+00	0	40	0	1001390080	42	4312
2026-01-06 15:05:01.94	200.28	20.52	-36.2	-37.5	21.1	0.00e+00	0	40	0	1008730112	42	4280
2026-01-06 15:05:02.94	200.41	20.63	-36.2	-37.6	21.1	0.00e+00	0	40	0	1016070144	42	4303
2026-01-06 15:05:03.94	200.54	20.75	-36.2	-37.5	20.9	0.00e+00	0	40	0	1022361600	42	4273
2026-01-06 15:05:04.95	200.68	20.87	-36.2	-37.5	21.1	0.00e+00	0	40	0	1029701632	42	4265
2026-01-06 15:05:05.95	200.81	20.99	-35.8	-37.1	21.5	0.00e+00	0	40	0	1037041664	42	4053
2026-01-06 15:05:06.95	200.94	21.10	-36.1	-37.4	21.2	0.00e+00	0	40	0	1044381696	42	4211
2026-01-06 15:05:07.96	201.08	21.22	-36.1	-37.4	21.2	0.00e+00	0	40	0	1051721728	42	4211
2026-01-06 15:05:08.96	201.21	21.34	-36.1	-37.4	21.2	0.00e+00	0	40	0	1059061760	42	4223
2026-01-06 15:05:09.96	201.35	21.46	-36.1	-37.4	21.2	0.00e+00	0	40	0	1066401792	42	4216
2026-01-06 15:05:10.96	201.49	21.58	-36.1	-37.4	21.2	0.00e+00	0	40	0	1073741824	42	4213
2026-01-06 15:05:11.97	201.62	21.70	-36.3	-37.6	21.0	0.00e+00	0	40	0	1081081856	42	4329
2026-01-06 15:05:12.97	201.76	21.82	-36.2	-37.5	21.1	0.00e+00	0	40	0	1087373312	42	4286
2026-01-06 15:05:13.97	201.90	21.94	-36.4	-37.7	20.9	0.00e+00	0	40	0	1094713344	42	4371
2026-01-06 15:05:14.97	202.05	22.07	-36.3	-37.7	21.0	0.00e+00	0	40	0	1102053376	42	4352
2026-01-06 15:05:15.97	202.19	22.19	-36.5	-37.8	20.9	0.00e+00	0	40	0	1109393408	42	4425
2026-01-06 15:05:16.97	202.33	22.31	-36.4	-37.8	20.9	0.00e+00	0	40	0	1116733440	42	4399
2026-01-06 15:05:17.98	202.48	22.43	-36.5	-37.8	20.9	0.00e+00	0	40	0	1124073472	42	4422
2026-01-06 15:05:18.98	202.62	22.56	-36.2	-37.6	21.1	0.00e+00	0	40	0	1131413504	42	4302
2026-01-06 15:05:19.98	202.77	22.68	-36.1	-37.5	21.2	0.00e+00	0	40	0	1138753536	42	4253
2026-01-06 15:05:20.98	202.92	22.80	-36.1	-37.4	21.2	0.00e+00	0	40	0	1146093568	42	4208
2026-01-06 15:05:21.98	203.07	22.93	-36.0	-37.3	21.3	0.00e+00	0	40	0	1153433600	42	4193
2026-01-06 15:05:22.99	203.22	23.05	-36.1	-37.4	21.2	0.00e+00	0	40	0	1160773632	42	4222
2026-01-06 15:05:23.99	203.37	23.18	-36.1	-37.4	21.2	0.00e+00	0	40	0	1168113664	42	4207
2026-01-06 15:05:25.00	203.52	23.30	-36.1	-37.4	21.3	0.00e+00	0	40	0	1174405120	42	4213
2026-01-06 15:05:26.00	203.68	23.43	-36.1	-37.4	21.2	0.00e+00	0	40	0	1181745152	42	4226
2026-01-06 15:05:27.00	203.83	23.55	-35.9	-37.2	21.4	0.00e+00	0	40	0	1189085184	42	4129
2026-01-06 15:05:28.00	203.99	23.68	-36.0	-37.4	21.2	0.00e+00	0	40	0	1196425216	42	4205
2026-01-06 15:05:29.01	204.15	23.81	-36.0	-37.3	21.3	0.00e+00	0	40	0	1203765248	42	4178
2026-01-06 15:05:30.01	204.31	23.94	-36.0	-37.3	21.3	0.00e+00	0	40	0	1211105280	42	4170
2026-01-06 15:05:31.01	204.47	24.06	-36.0	-37.3	21.3	0.00e+00	0	40	0	1218445312	42	4187
2026-01-06 15:05:32.01	204.63	24.19	-36.0	-37.3	21.2	0.00e+00	0	40	0	1225785344	42	4190
2026-01-06 15:05:33.02	204.79	24.32	-35.9	-37.2	21.3	0.00e+00	0	40	0	1232076800	42	4139
2026-01-06 15:05:34.02	204.96	24.45	-36.1	-37.4	21.1	0.00e+00	0	40	0	1239416832	42	4235
2026-01-06 15:05:35.02	205.12	24.58	-36.0	-37.4	21.2	0.00e+00	0	40	0	1246756864	42	4200
2026-01-06 15:05:36.02	205.29	24.71	-35.9	-37.2	21.3	0.00e+00	0	40	0	1254096896	42	4141
2026-01-06 15:05:37.02	205.46	24.84	-36.0	-37.4	21.2	0.00e+00	0	40	0	1261436928	42	4198
2026-01-06 15:05:38.03	205.63	24.97	-35.8	-37.2	21.3	0.00e+00	0	40	0	1268776960	42	4123
2026-01-06 15:05:39.03	205.80	25.10	-35.8	-37.2	21.3	0.00e+00	0	40	0	1276116992	42	4123
2026-01-06 15:05:40.03	205.97	25.23	-35.9	-37.3	21.3	0.00e+00	0	40	0	1283457024	42	4148
2026-01-06 15:05:41.04	206.15	25.37	-35.9	-37.3	21.3	0.00e+00	0	41	0	1290797056	42	4146
2026-01-06 15:05:42.04	206.32	25.50	-35.9	-37.3	21.3	0.00e+00	0	40	0	1298137088	42	4161
2026-01-06 15:05:43.04	206.50	25.63	-35.8	-37.2	21.3	0.00e+00	0	40	0	1305477120	42	4115
2026-01-06 15:05:44.05	206.68	25.76	-35.9	-37.3	21.3	0.00e+00	0	40	0	1312817152	42	4152
2026-01-06 15:05:45.05	206.85	25.90	-35.8	-37.2	21.4	0.00e+00	0	40	0	1319108608	42	4112
2026-01-06 15:05:46.05	207.04	26.03	-35.7	-37.1	21.5	0.00e+00	0	40	0	1326448640	42	4056
2026-01-06 15:05:47.05	207.22	26.16	-35.7	-37.1	21.5	0.00e+00	0	40	0	1333788672	42	4069
2026-01-06 15:05:48.05	207.40	26.30	-35.7	-37.1	21.5	0.00e+00	0	40	0	1341128704	42	4054
2026-01-06 15:05:49.06	207.59	26.43	-35.6	-36.9	21.6	0.00e+00	0	40	0	1348468736	41	4236
2026-01-06 15:05:50.06	207.78	26.57	-35.5	-36.9	21.7	0.00e+00	0	40	0	1355808768	41	4198
2026-01-06 15:05:51.06	207.96	26.70	-35.4	-36.7	21.9	0.00e+00	0	40	0	1363148800	41	4108
2026-01-06 15:05:52.06	208.15	26.84	-35.4	-36.7	21.9	0.00e+00	0	40	0	1370488832	41	4105
2026-01-06 15:05:53.07	208.35	26.98	-35.4	-36.7	21.9	0.00e+00	0	40	0	1376780288	41	4134
2026-01-06 15:05:54.07	208.54	27.11	-35.2	-36.4	22.1	0.00e+00	0	40	0	1384120320	41	3990
2026-01-06 15:05:55.07	208.73	27.25	-35.0	-36.3	22.2	0.00e+00	0	40	0	1391460352	40	4165
2026-01-06 15:05:56.07	208.93	27.39	-35.2	-36.4	22.2	0.00e+00	0	40	0	1398800384	40	4224
2026-01-06 15:05:57.08	209.13	27.53	-35.2	-36.5	22.1	0.00e+00	0	40	0	1406140416	40	4249
2026-01-06 15:05:58.08	209.33	27.66	-35.2	-36.5	22.0	0.00e+00	0	40	0	1413480448	40	4259
2026-01-06 15:05:59.08	209.53	27.80	-35.2	-36.4	22.1	0.00e+00	0	40	0	1420820480	40	4239
2026-01-06 15:06:00.08	209.73	27.94	-35.1	-36.4	22.1	0.00e+00	0	40	0	1428160512	40	4212
2026-01-06 15:06:01.08	209.94	28.08	-35.0	-36.3	22.1	0.00e+00	0	40	0	1435500544	40	4184
2026-01-06 15:06:02.09	210.15	28.22	-35.2	-36.5	22.0	0.00e+00	0	40	0	1442840576	40	4247
2026-01-06 15:06:03.09	210.36	28.36	-35.2	-36.6	21.9	0.00e+00	0	40	0	1450180608	40	4292
2026-01-06 15:06:04.09	210.57	28.50	-35.2	-36.5	21.9	0.00e+00	0	40	0	1457520640	40	4285
2026-01-06 15:06:05.10	210.78	28.64	-35.3	-36.7	21.8	0.00e+00	0	40	0	1463812096	40	4343
2026-01-06 15:06:06.10	210.99	28.78	-35.4	-36.7	21.7	0.00e+00	0	40	0	1471152128	40	4384
2026-01-06 15:06:07.10	211.21	28.92	-35.4	-36.7	21.7	0.00e+00	0	40	0	1478492160	40	4376
2026-01-06 15:06:08.10	211.43	29.06	-35.4	-36.8	21.6	0.00e+00	0	40	0	1485832192	40	4430
2026-01-06 15:06:09.11	211.65	29.20	-35.5	-36.8	21.5	0.00e+00	0	40	0	1493172224	40	4429
2026-01-06 15:06:10.11	211.87	29.34	-35.5	-36.9	21.5	0.00e+00	0	40	0	1500512256	40	4473
2026-01-06 15:06:11.11	212.09	29.49	-35.6	-37.0	21.5	0.00e+00	0	40	0	1507852288	40	4494
2026-01-06 15:06:12.12	212.32	29.63	-35.5	-36.8	21.6	0.00e+00	0	40	0	1515192320	40	4423
2026-01-06 15:06:13.12	212.55	29.77	-35.5	-36.8	21.6	0.00e+00	0	40	0	1522532352	40	4422
2026-01-06 15:06:14.12	212.78	29.91	-35.4	-36.7	21.7	0.00e+00	0	40	0	1528823808	40	4353
2026-01-06 15:06:15.13	213.01	30.06	-35.4	-36.7	21.7	0.00e+00	0	40	0	1536163840	40	4382
2026-01-06 15:06:16.13	213.24	30.20	-35.5	-36.8	21.6	0.00e+00	0	41	0	1543503872	40	4437
2026-01-06 15:06:17.13	213.48	30.34	-35.6	-36.9	21.6	0.00e+00	0	40	0	1550843904	40	4479
2026-01-06 15:06:18.13	213.71	30.48	-35.6	-36.9	21.6	0.00e+00	0	40	0	1558183936	40	4464
2026-01-06 15:06:19.13	213.95	30.63	-35.6	-36.9	21.7	0.00e+00	0	41	0	1565523968	40	4450
2026-01-06 15:06:20.13	214.19	30.77	-35.4	-36.7	21.8	0.00e+00	0	41	0	1572864000	40	4362
2026-01-06 15:06:21.14	214.44	30.92	-35.5	-36.7	21.8	0.00e+00	0	40	0	1580204032	40	4389
2026-01-06 15:06:22.14	214.69	31.06	-35.4	-36.6	21.9	0.00e+00	0	40	0	1587544064	40	4321
2026-01-06 15:06:23.14	214.93	31.20	-35.2	-36.4	22.1	0.00e+00	0	40	0	1594884096	40	4202
2026-01-06 15:06:24.14	215.18	31.35	-35.2	-36.5	22.1	0.00e+00	0	40	0	1602224128	40	4252
2026-01-06 15:06:25.14	215.44	31.49	-35.4	-36.6	22.0	0.00e+00	0	40	0	1608515584	40	4334
2026-01-06 15:06:26.15	215.69	31.64	-35.4	-36.7	21.8	0.00e+00	0	41	0	1615855616	40	4374
2026-01-06 15:06:27.15	215.95	31.78	-35.4	-36.7	21.9	0.00e+00	0	40	0	1623195648	40	4348
2026-01-06 15:06:28.15	216.21	31.92	-35.5	-36.7	21.8	0.00e+00	0	41	0	1630535680	40	4391
2026-01-06 15:06:29.15	216.47	32.07	-35.5	-36.8	21.8	0.00e+00	0	40	0	1637875712	40	4419
2026-01-06 15:06:30.15	216.73	32.21	-35.4	-36.7	21.8	0.00e+00	0	40	0	1645215744	40	4357
2026-01-06 15:06:31.15	217.00	32.36	-35.4	-36.7	21.8	0.00e+00	0	40	0	1652555776	40	4357
2026-01-06 15:06:32.15	217.26	32.50	-35.2	-36.5	22.0	0.00e+00	0	40	0	1659895808	40	4290
2026-01-06 15:06:33.16	217.54	32.65	-35.2	-36.6	22.0	0.00e+00	0	40	0	1667235840	40	4294
2026-01-06 15:06:34.16	217.81	32.79	-35.2	-36.5	22.0	0.00e+00	0	40	0	1673527296	40	4257
2026-01-06 15:06:35.16	218.08	32.94	-35.1	-36.4	22.1	0.00e+00	0	40	0	1680867328	40	4206
2026-01-06 15:06:36.17	218.36	33.08	-35.1	-36.4	22.1	0.00e+00	0	40	0	1688207360	40	4203
2026-01-06 15:06:37.17	218.64	33.23	-35.1	-36.5	22.0	0.00e+00	0	40	0	1695547392	40	4252
2026-01-06 15:06:38.17	218.93	33.37	-35.1	-36.4	22.0	0.00e+00	0	40	0	1702887424	40	4236
2026-01-06 15:06:39.17	219.21	33.52	-35.2	-36.5	22.0	0.00e+00	0	41	0	1710227456	40	4270
2026-01-06 15:06:40.17	219.50	33.66	-35.1	-36.4	22.0	0.00e+00	0	40	0	1717567488	40	4215
2026-01-06 15:06:41.18	219.79	33.80	-35.2	-36.6	21.9	0.00e+00	0	41	0	1724907520	40	4295
2026-01-06 15:06:42.18	220.08	33.95	-35.4	-36.7	21.7	0.00e+00	0	40	0	1732247552	40	4354
2026-01-06 15:06:43.18	220.38	34.09	-35.3	-36.6	21.8	0.00e+00	0	41	0	1739587584	40	4312
2026-01-06 15:06:44.19	220.68	34.24	-35.3	-36.6	21.8	0.00e+00	0	40	0	1746927616	40	4298
2026-01-06 15:06:45.19	220.98	34.38	-35.3	-36.6	21.8	0.00e+00	0	40	0	1754267648	40	4317
2026-01-06 15:06:46.19	221.28	34.52	-35.4	-36.7	21.8	0.00e+00	0	41	0	1760559104	40	4343
2026-01-06 15:06:47.20	221.59	34.67	-35.2	-36.5	21.8	0.00e+00	0	40	0	1767899136	40	4279
2026-01-06 15:06:48.20	221.90	34.81	-35.4	-36.7	21.8	0.00e+00	0	40	0	1775239168	40	4354
2026-01-06 15:06:49.20	222.21	34.95	-35.2	-36.5	21.9	0.00e+00	0	41	0	1782579200	40	4263
2026-01-06 15:06:50.20	222.52	35.09	-35.3	-36.6	21.9	0.00e+00	0	41	0	1789919232	40	4294
2026-01-06 15:06:51.21	222.84	35.24	-35.3	-36.5	22.0	0.00e+00	0	41	0	1797259264	40	4278
2026-01-06 15:06:52.21	223.16	35.38	-35.3	-36.6	22.0	0.00e+00	0	41	0	1804599296	40	4312
2026-01-06 15:06:53.21	223.48	35.52	-35.4	-36.7	21.9	0.00e+00	0	41	0	1811939328	40	4369
2026-01-06 15:06:54.21	223.80	35.66	-35.2	-36.5	22.1	0.00e+00	0	41	0	1818230784	40	4259
2026-01-06 15:06:55.21	224.13	35.80	-35.2	-36.4	22.2	0.00e+00	0	41	0	1825570816	40	4227
2026-01-06 15:06:56.22	224.46	35.94	-35.2	-36.4	22.2	0.00e+00	0	41	0	1832910848	40	4222
2026-01-06 15:06:57.22	224.80	36.08	-35.2	-36.4	22.2	0.00e+00	0	41	0	1840250880	40	4232
2026-01-06 15:06:58.22	225.13	36.22	-35.2	-36.4	22.2	0.00e+00	0	41	0	1847590912	40	4231
2026-01-06 15:06:59.23	225.47	36.36	-35.2	-36.5	22.1	0.00e+00	0	41	0	1854930944	40	4260
2026-01-06 15:07:00.23	225.81	36.50	-35.2	-36.5	22.1	0.00e+00	0	41	0	1862270976	40	4262
2026-01-06 15:07:01.23	226.16	36.64	-35.3	-36.6	22.0	0.00e+00	0	40	0	1869611008	40	4306
2026-01-06 15:07:02.24	226.51	36.77	-35.2	-36.4	22.1	0.00e+00	0	40	0	1876951040	40	4239
2026-01-06 15:07:03.24	226.86	36.91	-35.2	-36.5	22.1	0.00e+00	0	40	0	1884291072	40	4261
2026-01-06 15:07:04.24	227.21	37.05	-35.2	-36.5	22.1	0.00e+00	0	41	0	1891631104	40	4252
2026-01-06 15:07:05.25	227.57	37.18	-35.1	-36.4	22.1	0.00e+00	0	40	0	1898971136	40	4229
2026-01-06 15:07:06.25	227.93	37.32	-35.3	-36.6	21.9	0.00e+00	0	40	0	1905262592	40	4328
2026-01-06 15:07:07.25	228.29	37.45	-35.4	-36.8	21.8	0.00e+00	0	40	0	1912602624	40	4398
2026-01-06 15:07:08.26	228.66	37.59	-35.6	-37.0	21.6	0.00e+00	0	41	0	1919942656	40	4494
2026-01-06 15:07:09.26	229.02	37.72	-35.8	-37.1	21.5	0.00e+00	0	41	0	1927282688	41	4320
2026-01-06 15:07:10.26	229.39	37.85	-35.6	-37.0	21.6	0.00e+00	0	41	0	1934622720	41	4245
2026-01-06 15:07:11.27	229.77	37.98	-35.6	-36.9	21.7	0.00e+00	0	41	0	1941962752	41	4233
2026-01-06 15:07:12.27	230.15	38.11	-35.6	-36.9	21.7	0.00e+00	0	41	0	1949302784	41	4219
2026-01-06 15:07:13.27	230.52	38.24	-35.7	-36.9	21.7	0.00e+00	0	41	0	1956642816	41	4236
2026-01-06 15:07:14.27	230.91	38.37	-35.5	-36.8	21.9	0.00e+00	0	41	0	1963982848	41	4148
2026-01-06 15:07:15.27	231.29	38.49	-35.4	-36.6	22.0	0.00e+00	0	41	0	1970274304	41	4088
2026-01-06 15:07:16.27	231.68	38.62	-35.3	-36.5	22.1	0.00e+00	0	41	0	1977614336	41	4021
2026-01-06 15:07:17.27	232.07	38.74	-35.1	-36.3	22.4	0.00e+00	0	41	0	1984954368	40	4153
2026-01-06 15:07:18.27	232.46	38.87	-35.2	-36.4	22.3	0.00e+00	0	40	0	1992294400	40	4212
2026-01-06 15:07:19.27	232.86	38.99	-35.2	-36.4	22.1	0.00e+00	0	41	0	1999634432	40	4230
2026-01-06 15:07:20.28	233.26	39.11	-35.3	-36.6	22.0	0.00e+00	0	41	0	2006974464	40	4322
2026-01-06 15:07:21.28	233.66	39.23	-35.5	-36.8	21.8	0.00e+00	0	40	0	2014314496	40	4415
2026-01-06 15:07:22.28	234.07	39.35	-35.5	-36.9	21.8	0.00e+00	0	41	0	2021654528	40	4447
2026-01-06 15:07:23.28	234.48	39.47	-35.5	-36.9	21.7	0.00e+00	0	41	0	2028994560	40	4465
2026-01-06 15:07:24.28	234.89	39.59	-35.6	-36.9	21.6	0.00e+00	0	41	0	2036334592	40	4486
2026-01-06 15:07:25.28	235.30	39.71	-35.5	-36.9	21.6	0.00e+00	0	41	0	2043674624	40	4480
2026-01-06 15:07:26.29	235.72	39.82	-35.4	-36.7	21.8	0.00e+00	0	41	0	2049966080	40	4377
2026-01-06 15:07:27.29	236.14	39.93	-35.4	-36.8	21.8	0.00e+00	0	41	0	2057306112	40	4397
2026-01-06 15:07:28.29	236.57	40.05	-35.5	-36.8	21.8	0.00e+00	0	41	0	2064646144	40	4393
2026-01-06 15:07:29.30	237.00	40.16	-35.7	-37.0	21.7	0.00e+00	0	41	0	2071986176	40	4510
2026-01-06 15:07:30.30	237.43	40.27	-35.8	-37.1	21.5	0.00e+00	0	40	0	2079326208	41	4337
2026-01-06 15:07:31.30	237.86	40.38	-35.9	-37.2	21.5	0.00e+00	0	41	0	2086666240	41	4363
2026-01-06 15:07:32.30	238.29	40.48	-35.8	-37.0	21.6	0.00e+00	0	40	0	2094006272	41	4289
2026-01-06 15:07:33.31	238.73	40.59	-35.8	-37.1	21.6	0.00e+00	0	40	0	2101346304	41	4302
2026-01-06 15:07:34.31	239.17	40.69	-35.5	-36.7	21.9	0.00e+00	0	41	0	2108686336	41	4134
2026-01-06 15:07:35.31	239.62	40.79	-35.3	-36.5	22.1	0.00e+00	0	41	0	2114977792	41	4037
2026-01-06 15:07:36.32	240.07	40.89	-35.2	-36.4	22.2	0.00e+00	0	41	0	2122317824	41	3991
2026-01-06 15:07:37.31	240.51	40.99	-35.1	-36.3	22.3	0.00e+00	0	41	0	2129657856	40	4174
2026-01-06 15:07:38.32	240.96	41.09	-35.0	-36.2	22.4	0.00e+00	0	40	0	2136997888	40	4120
2026-01-06 15:07:39.31	241.41	41.18	-35.0	-36.2	22.4	0.00e+00	0	41	0	2144337920	40	4142
2026-01-06 15:07:40.31	241.87	41.27	-35.0	-36.3	22.4	0.00e+00	0	40	0	2151677952	40	4148
2026-01-06 15:07:41.32	242.33	41.37	-35.1	-36.4	22.2	0.00e+00	0	41	0	2159017984	40	4226
2026-01-06 15:07:42.32	242.79	41.46	-35.2	-36.4	22.1	0.00e+00	0	41	0	2166358016	40	4240
2026-01-06 15:07:43.32	243.26	41.54	-35.7	-36.5	22.8	0.00e+00	0	41	0	2172649472	40	4282
2026-01-06 15:07:44.32	243.72	41.63	-35.8	-36.6	22.7	0.00e+00	0	41	0	2179989504	40	4310
2026-01-06 15:07:45.32	244.19	41.71	-35.9	-36.7	22.6	0.00e+00	0	41	0	2187329536	41	4122
2026-01-06 15:07:46.32	244.66	41.80	-35.9	-36.8	22.6	0.00e+00	0	40	0	2194669568	41	4163
2026-01-06 15:07:47.32	245.13	41.88	-36.0	-36.8	22.5	0.00e+00	0	41	0	2202009600	41	4174
2026-01-06 15:07:48.33	245.61	41.96	-36.1	-37.0	22.4	0.00e+00	0	41	0	2209349632	41	4248
2026-01-06 15:07:49.33	246.09	42.03	-36.0	-36.9	22.5	0.00e+00	0	41	0	2216689664	41	4213
2026-01-06 15:07:50.33	246.57	42.11	-36.0	-36.9	22.5	0.00e+00	0	41	0	2224029696	41	4214
2026-01-06 15:07:51.34	247.06	42.18	-36.0	-36.9	22.5	0.00e+00	0	41	0	2231369728	41	4195
2026-01-06 15:07:52.34	247.54	42.25	-35.9	-36.8	22.6	0.00e+00	0	41	0	2238709760	41	4158
2026-01-06 15:07:53.34	248.03	42.32	-36.0	-36.9	22.5	0.00e+00	0	41	0	2246049792	41	4195
2026-01-06 15:07:54.34	248.52	42.38	-35.8	-36.6	22.7	0.00e+00	0	41	0	2253389824	41	4073
2026-01-06 15:07:55.34	249.01	42.44	-35.8	-36.7	22.7	0.00e+00	0	41	0	2259681280	41	4114
2026-01-06 15:07:56.34	249.50	42.51	-35.7	-36.6	22.8	0.00e+00	0	41	0	2267021312	41	4059
2026-01-06 15:07:57.35	250.00	42.57	-35.9	-36.7	22.6	0.00e+00	0	41	0	2274361344	41	4130
2026-01-06 15:07:58.35	250.49	42.62	-36.1	-37.0	22.4	0.00e+00	0	41	0	2281701376	41	4252
2026-01-06 15:07:59.35	250.99	42.68	-36.3	-37.2	22.2	0.00e+00	0	41	0	2289041408	42	4122
2026-01-06 15:08:00.35	251.49	42.73	-36.3	-37.2	22.2	0.00e+00	0	41	0	2296381440	42	4135
2026-01-06 15:08:01.36	252.00	42.78	-36.4	-37.3	22.1	0.00e+00	0	41	0	2303721472	42	4171
2026-01-06 15:08:02.36	252.50	42.83	-36.2	-37.1	22.3	0.00e+00	0	41	0	2311061504	42	4072
2026-01-06 15:08:03.36	253.00	42.87	-36.3	-37.2	22.3	0.00e+00	0	41	0	2318401536	42	4112
2026-01-06 15:08:04.36	253.50	42.91	-36.2	-37.1	22.3	0.00e+00	0	41	0	2324692992	42	4086
2026-01-06 15:08:05.36	254.01	42.95	-36.2	-37.1	22.3	0.00e+00	0	41	0	2332033024	42	4076
2026-01-06 15:08:06.36	254.52	42.99	-36.3	-37.1	22.3	0.00e+00	0	41	0	2339373056	42	4095
2026-01-06 15:08:07.36	255.03	43.03	-36.3	-37.2	22.3	0.00e+00	0	41	0	2346713088	42	4102
2026-01-06 15:08:08.36	255.54	43.06	-36.2	-37.1	22.3	0.00e+00	0	41	0	2354053120	42	4075
2026-01-06 15:08:09.36	256.05	43.09	-36.1	-37.0	22.4	0.00e+00	0	41	0	2361393152	42	4017
2026-01-06 15:08:10.36	256.56	43.12	-35.9	-36.8	22.6	0.00e+00	0	41	0	2368733184	42	3926
2026-01-06 15:08:11.36	257.07	43.15	-36.1	-36.9	22.5	0.00e+00	0	41	0	2376073216	42	3980
2026-01-06 15:08:12.36	257.58	43.17	-36.1	-37.0	22.4	0.00e+00	0	41	0	2382364672	42	4014
2026-01-06 15:08:13.36	258.10	43.19	-36.2	-37.1	22.4	0.00e+00	0	41	0	2389704704	42	4052
2026-01-06 15:08:14.36	258.61	43.21	-36.2	-37.0	22.4	0.00e+00	0	41	0	2397044736	42	4037
2026-01-06 15:08:15.36	259.12	43.22	-36.0	-36.9	22.5	0.00e+00	0	41	0	2404384768	42	3971
2026-01-06 15:08:16.36	259.64	43.24	-36.1	-36.9	22.5	0.00e+00	0	41	0	2411724800	42	3991
2026-01-06 15:08:17.37	260.16	43.25	-36.0	-36.9	22.5	0.00e+00	0	41	0	2419064832	42	3964
2026-01-06 15:08:18.37	260.68	43.25	-35.9	-36.8	22.5	0.00e+00	0	41	0	2426404864	42	3940
2026-01-06 15:08:19.37	261.19	43.26	-36.0	-36.8	22.6	0.00e+00	0	41	0	2433744896	42	3941
2026-01-06 15:08:20.37	261.71	43.26	-36.0	-36.8	22.6	0.00e+00	0	41	0	2441084928	42	3931
2026-01-06 15:08:21.38	262.23	43.26	-36.0	-36.8	22.6	0.00e+00	0	41	0	2447376384	42	3944
2026-01-06 15:08:22.38	262.75	43.26	-36.0	-36.9	22.5	0.00e+00	0	41	0	2454716416	42	3986
2026-01-06 15:08:23.38	263.26	43.26	-36.2	-37.1	22.3	0.00e+00	0	41	0	2463105024	42	4073
2026-01-06 15:08:24.38	263.78	43.25	-36.2	-37.1	22.3	0.00e+00	0	41	0	2469396480	42	4078
2026-01-06 15:08:25.38	264.29	43.24	-36.3	-37.1	22.3	0.00e+00	0	41	0	2476736512	42	4091
2026-01-06 15:08:26.38	264.81	43.23	-36.2	-37.1	22.3	0.00e+00	0	41	0	2484076544	42	4069
2026-01-06 15:08:27.39	265.33	43.21	-36.7	-37.6	22.1	0.00e+00	0	41	0	2491416576	43	4081
2026-01-06 15:08:28.39	265.84	43.20	-36.4	-37.3	22.2	0.00e+00	0	41	0	2498756608	43	3923
2026-01-06 15:08:29.39	266.35	43.18	-36.4	-37.2	22.2	0.00e+00	0	41	0	2506096640	43	3900
2026-01-06 15:08:30.39	266.87	43.15	-36.3	-37.2	22.3	0.00e+00	0	41	0	2513436672	43	3882
2026-01-06 15:08:31.39	267.38	43.13	-36.3	-37.1	22.3	0.00e+00	0	41	0	2520776704	43	3855
2026-01-06 15:08:32.40	267.90	43.10	-36.1	-37.0	22.4	0.00e+00	0	41	0	2528116736	42	4021
2026-01-06 15:08:33.40	268.41	43.07	-36.0	-36.9	22.5	0.00e+00	0	41	0	2534408192	42	3972
2026-01-06 15:08:34.40	268.92	43.04	-36.0	-36.8	22.6	0.00e+00	0	41	0	2541748224	42	3939
2026-01-06 15:08:35.40	269.42	43.00	-35.9	-36.7	22.6	0.00e+00	0	41	0	2549088256	42	3901
2026-01-06 15:08:36.41	269.94	42.97	-35.9	-36.7	22.7	0.00e+00	0	41	0	2556428288	42	3895
2026-01-06 15:08:37.41	270.44	42.93	-36.0	-36.9	22.6	0.00e+00	0	41	0	2563768320	42	3959
2026-01-06 15:08:38.41	270.95	42.88	-36.2	-37.1	22.4	0.00e+00	0	41	0	2571108352	42	4056
2026-01-06 15:08:39.41	271.45	42.84	-36.4	-37.2	22.1	0.00e+00	0	41	0	2578448384	42	4139
2026-01-06 15:08:40.42	271.96	42.79	-36.4	-37.3	22.1	0.00e+00	0	41	0	2585788416	42	4168
2026-01-06 15:08:41.42	272.46	42.74	-36.4	-37.2	22.2	0.00e+00	0	41	0	2592079872	42	4138
2026-01-06 15:08:42.42	272.96	42.69	-36.3	-37.1	22.3	0.00e+00	0	41	0	2599419904	42	4081
2026-01-06 15:08:43.42	273.45	42.64	-36.2	-37.1	22.3	0.00e+00	0	41	0	2606759936	42	4067
2026-01-06 15:08:44.42	273.95	42.58	-36.2	-37.1	22.3	0.00e+00	0	41	0	2614099968	42	4090
2026-01-06 15:08:45.43	274.45	42.52	-36.1	-37.0	22.4	0.00e+00	0	41	0	2621440000	42	4031
2026-01-06 15:08:46.43	274.94	42.46	-36.2	-37.1	22.3	0.00e+00	0	41	0	2628780032	42	4054
2026-01-06 15:08:47.43	275.43	42.40	-36.3	-37.2	22.2	0.00e+00	0	41	0	2636120064	42	4114
2026-01-06 15:08:48.43	275.92	42.34	-36.5	-37.3	22.1	0.00e+00	0	41	0	2643460096	42	4188
2026-01-06 15:08:49.44	276.41	42.27	-36.6	-37.4	22.0	0.00e+00	0	41	0	2650800128	42	4242
2026-01-06 15:08:50.44	276.89	42.20	-36.6	-37.4	22.0	0.00e+00	0	41	0	2658140160	42	4230
2026-01-06 15:08:51.44	277.37	42.13	-36.3	-37.2	22.3	0.00e+00	0	41	0	2665480192	42	4111
2026-01-06 15:08:52.44	277.85	42.06	-36.2	-37.0	22.4	0.00e+00	0	41	0	2672820224	42	4036
2026-01-06 15:08:53.45	278.33	41.98	-36.3	-37.2	22.2	0.00e+00	0	41	0	2679111680	42	4113
2026-01-06 15:08:54.45	278.81	41.90	-36.4	-37.3	22.1	0.00e+00	0	41	0	2686451712	42	4177
2026-01-06 15:08:55.45	279.28	41.82	-36.3	-37.2	22.3	0.00e+00	0	41	0	2693791744	42	4105
2026-01-06 15:08:56.46	279.76	41.74	-36.2	-37.1	22.3	0.00e+00	0	41	0	2701131776	42	4073
2026-01-06 15:08:57.46	280.23	41.66	-36.2	-37.1	22.3	0.00e+00	0	41	0	2708471808	42	4072
2026-01-06 15:08:58.46	280.69	41.57	-35.9	-36.8	22.6	0.00e+00	0	41	0	2715811840	42	3929
2026-01-06 15:08:59.47	281.16	41.49	-35.8	-36.6	22.7	0.00e+00	0	41	0	2723151872	42	3861
2026-01-06 15:09:00.47	281.62	41.40	-35.8	-36.6	22.7	0.00e+00	0	41	0	2730491904	42	3859
2026-01-06 15:09:01.47	282.08	41.31	-35.9	-36.8	22.6	0.00e+00	0	41	0	2736783360	42	3915
2026-01-06 15:09:02.48	282.54	41.21	-36.1	-36.9	22.4	0.00e+00	0	41	0	2745171968	42	3991
2026-01-06 15:09:03.48	282.99	41.12	-36.4	-37.2	22.2	0.00e+00	0	41	0	2752512000	42	4144
2026-01-06 15:09:04.48	283.44	41.02	-36.4	-37.3	22.2	0.00e+00	0	41	0	2758803456	42	4178
2026-01-06 15:09:05.49	283.90	40.92	-36.3	-37.2	22.2	0.00e+00	0	41	0	2766143488	42	4103
2026-01-06 15:09:06.49	284.34	40.83	-36.0	-36.8	22.6	0.00e+00	0	41	0	2773483520	42	3946
2026-01-06 15:09:07.49	284.78	40.72	-35.8	-36.7	22.6	0.00e+00	0	41	0	2780823552	42	3885
2026-01-06 15:09:08.49	285.22	40.62	-35.8	-36.7	22.7	0.00e+00	0	41	0	2788163584	42	3878
2026-01-06 15:09:09.49	285.66	40.52	-35.8	-36.6	22.7	0.00e+00	0	41	0	2795503616	42	3864
2026-01-06 15:09:10.49	286.09	40.41	-35.6	-36.5	22.9	0.00e+00	0	41	0	2802843648	42	3786
2026-01-06 15:09:11.49	286.53	40.31	-35.8	-36.6	22.7	0.00e+00	0	41	0	2810183680	42	3853
2026-01-06 15:09:12.50	286.96	40.20	-35.7	-36.5	22.8	0.00e+00	0	41	0	2817523712	42	3819
2026-01-06 15:09:13.49	287.38	40.09	-35.7	-36.6	22.8	0.00e+00	0	41	0	2823815168	42	3839
2026-01-06 15:09:14.50	287.81	39.98	-35.8	-36.6	22.8	0.00e+00	0	41	0	2831155200	42	3854
2026-01-06 15:09:15.50	288.23	39.86	-35.6	-36.5	22.9	0.00e+00	0	41	0	2838495232	42	3781
2026-01-06 15:09:16.50	288.64	39.75	-35.7	-36.5	22.8	0.00e+00	0	41	0	2845835264	42	3824
2026-01-06 15:09:17.51	289.06	39.63	-35.6	-36.4	22.9	0.00e+00	0	41	0	2853175296	42	3777
2026-01-06 15:09:18.51	289.47	39.52	-35.7	-36.6	22.8	0.00e+00	0	41	0	2860515328	42	3835
2026-01-06 15:09:19.51	289.88	39.40	-35.8	-36.7	22.7	0.00e+00	0	41	0	2867855360	42	3882
2026-01-06 15:09:20.51	290.29	39.28	-35.9	-36.7	22.7	0.00e+00	0	41	0	2875195392	42	3912
2026-01-06 15:09:21.52	290.69	39.16	-36.0	-36.9	22.5	0.00e+00	0	41	0	2882535424	42	3963
2026-01-06 15:09:22.52	291.09	39.04	-36.0	-36.9	22.5	0.00e+00	0	41	0	2888826880	42	3980
2026-01-06 15:09:23.52	291.49	38.92	-36.0	-36.9	22.5	0.00e+00	0	41	0	2896166912	42	3987
2026-01-06 15:09:24.52	291.88	38.79	-36.1	-37.0	22.4	0.00e+00	0	41	0	2903506944	42	4027
2026-01-06 15:09:25.52	292.27	38.67	-36.1	-37.0	22.3	0.00e+00	0	41	0	2910846976	42	4036
2026-01-06 15:09:26.53	292.66	38.54	-36.0	-36.9	22.5	0.00e+00	0	41	0	2918187008	42	3972
2026-01-06 15:09:27.52	293.04	38.42	-36.2	-37.0	22.3	0.00e+00	0	41	0	2925527040	42	4050
2026-01-06 15:09:28.53	293.43	38.29	-36.0	-36.8	22.5	0.00e+00	0	41	0	2932867072	42	3939
2026-01-06 15:09:29.53	293.81	38.16	-35.8	-36.6	22.7	0.00e+00	0	41	0	2940207104	42	3862
2026-01-06 15:09:30.53	294.18	38.03	-35.7	-36.6	22.8	0.00e+00	0	41	0	2947547136	42	3828
2026-01-06 15:09:31.53	294.56	37.91	-35.8	-36.6	22.7	0.00e+00	0	41	0	2954887168	42	3843
2026-01-06 15:09:32.53	294.93	37.77	-35.7	-36.5	22.8	0.00e+00	0	41	0	2962227200	42	3817
2026-01-06 15:09:33.54	295.30	37.64	-35.7	-36.5	22.8	0.00e+00	0	41	0	2968518656	42	3816
2026-01-06 15:09:34.54	295.66	37.51	-35.8	-36.6	22.7	0.00e+00	0	41	0	2975858688	42	3863
2026-01-06 15:09:35.54	296.02	37.38	-35.8	-36.6	22.7	0.00e+00	0	41	0	2983198720	42	3859
2026-01-06 15:09:36.54	296.38	37.24	-35.8	-36.6	22.7	0.00e+00	0	41	0	2990538752	42	3859
2026-01-06 15:09:37.54	296.73	37.11	-35.7	-36.6	22.7	0.00e+00	0	41	0	2997878784	42	3847
2026-01-06 15:09:38.55	297.09	36.97	-35.6	-36.4	22.9	0.00e+00	0	41	0	3005218816	42	3777
2026-01-06 15:09:39.55	297.44	36.84	-35.6	-36.4	22.9	0.00e+00	0	41	0	3012558848	41	3999
2026-01-06 15:09:40.55	297.79	36.70	-35.7	-36.5	22.8	0.00e+00	0	41	0	3019898880	41	4036
2026-01-06 15:09:41.56	298.13	36.56	-35.6	-36.5	22.8	0.00e+00	0	41	0	3027238912	41	4017
2026-01-06 15:09:42.56	298.47	36.43	-35.7	-36.5	22.8	0.00e+00	0	41	0	3033530368	41	4026
2026-01-06 15:09:43.56	298.81	36.29	-35.8	-36.7	22.7	0.00e+00	0	41	0	3040870400	41	4104
2026-01-06 15:09:44.56	299.15	36.15	-35.6	-36.5	22.5	0.00e+00	0	41	0	3048210432	41	4016
2026-01-06 15:09:45.56	299.48	36.01	-35.5	-36.3	22.9	0.00e+00	0	41	0	3055550464	41	3940
2026-01-06 15:09:46.57	299.81	35.87	-35.3	-36.2	23.1	0.00e+00	0	41	0	3062890496	41	3877
2026-01-06 15:09:47.57	300.14	35.73	-35.3	-36.1	23.1	0.00e+00	0	41	0	3070230528	41	3865
2026-01-06 15:09:48.57	300.46	35.59	-35.5	-36.3	22.9	0.00e+00	0	41	0	3077570560	41	3937
2026-01-06 15:09:49.57	300.79	35.45	-35.6	-36.5	22.7	0.00e+00	0	41	0	3084910592	41	4016
2026-01-06 15:09:50.58	301.11	35.31	-35.7	-36.5	22.8	0.00e+00	0	41	0	3091202048	41	4036
2026-01-06 15:09:51.58	301.42	35.17	-35.9	-36.7	22.6	0.00e+00	0	41	0	3099590656	41	4125
2026-01-06 15:09:52.58	301.74	35.03	-36.1	-36.9	22.4	0.00e+00	0	41	0	3106930688	41	4225
2026-01-06 15:09:53.58	302.05	34.89	-35.9	-36.8	22.6	0.00e+00	0	41	0	3113222144	41	4160
2026-01-06 15:09:54.59	302.36	34.75	-35.9	-36.8	22.6	0.00e+00	0	41	0	3120562176	41	4149
2026-01-06 15:09:55.59	302.66	34.60	-35.9	-36.7	22.6	0.00e+00	0	41	0	3127902208	41	4134
2026-01-06 15:09:56.59	302.97	34.46	-35.8	-36.7	22.7	0.00e+00	0	41	0	3135242240	41	4109
2026-01-06 15:09:57.59	303.27	34.32	-35.7	-36.6	22.7	0.00e+00	0	41	0	3142582272	41	4055
2026-01-06 15:09:58.60	303.57	34.17	-35.5	-36.4	22.9	0.00e+00	0	41	0	3149922304	41	3976
2026-01-06 15:09:59.60	303.86	34.03	-35.6	-36.4	22.9	0.00e+00	0	41	0	3157262336	41	3993
2026-01-06 15:10:00.60	304.15	33.89	-35.6	-36.4	22.9	0.00e+00	0	41	0	3164602368	41	3995
2026-01-06 15:10:01.60	304.44	33.75	-35.5	-36.3	22.9	0.00e+00	0	41	0	3171942400	41	3947
2026-01-06 15:10:02.60	304.73	33.60	-35.4	-36.2	23.0	0.00e+00	0	41	0	3178233856	41	3912
2026-01-06 15:10:03.60	305.02	33.46	-35.6	-36.4	22.9	0.00e+00	0	41	0	3185573888	41	3998
2026-01-06 15:10:04.60	305.30	33.32	-35.7	-36.5	22.8	0.00e+00	0	41	0	3192913920	41	4044
2026-01-06 15:10:05.60	305.58	33.17	-35.9	-36.8	22.3	0.00e+00	0	41	0	3200253952	41	4165
2026-01-06 15:10:06.61	305.86	33.03	-36.1	-37.0	22.4	0.00e+00	0	41	0	3207593984	41	4247
2026-01-06 15:10:07.61	306.13	32.88	-36.2	-37.1	22.2	0.00e+00	0	41	0	3214934016	41	4319
2026-01-06 15:10:08.61	306.41	32.74	-36.3	-37.2	22.2	0.00e+00	0	41	0	3222274048	42	4100
2026-01-06 15:10:09.62	306.68	32.60	-36.2	-37.1	22.3	0.00e+00	0	41	0	3229614080	42	4075
2026-01-06 15:10:10.62	306.95	32.45	-36.3	-37.2	22.2	0.00e+00	0	41	0	3236954112	42	4102
2026-01-06 15:10:11.62	307.21	32.31	-36.2	-37.1	22.3	0.00e+00	0	41	0	3243245568	42	4058
2026-01-06 15:10:12.62	307.48	32.17	-36.1	-37.0	22.4	0.00e+00	0	41	0	3250585600	42	4024
2026-01-06 15:10:13.62	307.74	32.02	-35.9	-36.8	22.5	0.00e+00	0	41	0	3257925632	42	3923
2026-01-06 15:10:14.62	308.00	31.88	-35.9	-36.7	22.6	0.00e+00	0	41	0	3265265664	42	3903
2026-01-06 15:10:15.63	308.25	31.73	-36.0	-36.8	22.5	0.00e+00	0	41	0	3272605696	42	3947
2026-01-06 15:10:16.63	308.51	31.59	-35.8	-36.6	22.7	0.00e+00	0	41	0	3279945728	42	3867
2026-01-06 15:10:17.63	308.76	31.45	-35.6	-36.5	22.8	0.00e+00	0	41	0	3287285760	42	3791
2026-01-06 15:10:18.64	309.01	31.30	-35.8	-36.6	22.7	0.00e+00	0	41	0	3294625792	42	3847
2026-01-06 15:10:19.63	309.26	31.16	-35.9	-36.7	22.6	0.00e+00	0	41	0	3301965824	42	3906
2026-01-06 15:10:20.63	309.50	31.02	-36.0	-36.8	22.5	0.00e+00	0	41	0	3309305856	42	3957
2026-01-06 15:10:21.63	309.75	30.88	-36.1	-36.9	22.4	0.00e+00	0	41	0	3316645888	42	4000
2026-01-06 15:10:22.63	309.99	30.73	-36.1	-36.9	22.5	0.00e+00	0	41	0	3322937344	42	3996
2026-01-06 15:10:23.63	310.23	30.59	-36.1	-37.0	22.4	0.00e+00	0	41	0	3330277376	42	4011
2026-01-06 15:10:24.63	310.47	30.45	-36.2	-37.0	22.4	0.00e+00	0	41	0	3337617408	42	4032
2026-01-06 15:10:25.63	310.70	30.31	-36.1	-37.0	22.4	0.00e+00	0	41	0	3344957440	42	4025
2026-01-06 15:10:26.63	310.93	30.17	-36.1	-36.9	22.4	0.00e+00	0	41	0	3352297472	42	3988
2026-01-06 15:10:27.63	311.16	30.02	-36.0	-36.9	22.5	0.00e+00	0	41	0	3359637504	42	3962
2026-01-06 15:10:28.63	311.39	29.88	-36.0	-36.8	22.6	0.00e+00	0	41	0	3366977536	42	3936
2026-01-06 15:10:29.63	311.62	29.74	-36.0	-36.9	22.5	0.00e+00	0	41	0	3374317568	42	3962
2026-01-06 15:10:30.63	311.85	29.60	-36.0	-36.8	22.6	0.00e+00	0	41	0	3381657600	42	3950
2026-01-06 15:10:31.63	312.07	29.46	-36.1	-36.9	22.4	0.00e+00	0	41	0	3387949056	42	3995
2026-01-06 15:10:32.64	312.29	29.32	-36.1	-37.0	22.4	0.00e+00	0	41	0	3395289088	42	4025
2026-01-06 15:10:33.63	312.51	29.18	-36.1	-37.0	22.4	0.00e+00	0	41	0	3402629120	42	4007
2026-01-06 15:10:34.63	312.73	29.04	-36.1	-36.9	22.5	0.00e+00	0	41	0	3409969152	42	3994
2026-01-06 15:10:35.64	312.95	28.90	-36.1	-36.9	22.4	0.00e+00	0	41	0	3417309184	42	3997
2026-01-06 15:10:36.64	313.16	28.76	-36.1	-37.0	22.4	0.00e+00	0	41	0	3424649216	42	4006
2026-01-06 15:10:37.64	313.37	28.62	-36.1	-37.0	22.3	0.00e+00	0	41	0	3431989248	42	4030
2026-01-06 15:10:38.64	313.58	28.48	-36.1	-37.0	22.4	0.00e+00	0	41	0	3439329280	42	4018
2026-01-06 15:10:39.65	313.79	28.34	-36.1	-37.0	22.4	0.00e+00	0	41	0	3446669312	42	4020
2026-01-06 15:10:40.65	314.00	28.20	-36.1	-37.0	22.3	0.00e+00	0	41	0	3452960768	42	4040
2026-01-06 15:10:41.65	314.21	28.07	-36.1	-37.0	22.4	0.00e+00	0	41	0	3460300800	42	4043
2026-01-06 15:10:42.65	314.41	27.93	-36.1	-37.0	22.3	0.00e+00	0	41	0	3467640832	42	4038
2026-01-06 15:10:43.65	314.61	27.79	-36.1	-37.0	22.4	0.00e+00	0	41	0	3474980864	42	4040
2026-01-06 15:10:44.66	314.81	27.65	-36.1	-37.1	22.3	0.00e+00	0	41	0	3482320896	42	4056
2026-01-06 15:10:45.66	315.01	27.52	-36.2	-37.1	22.3	0.00e+00	0	41	0	3489660928	42	4068
2026-01-06 15:10:46.66	315.21	27.38	-36.2	-37.1	22.2	0.00e+00	0	41	0	3497000960	42	4079
2026-01-06 15:10:47.66	315.40	27.24	-36.3	-37.2	22.2	0.00e+00	0	41	0	3504340992	42	4108
2026-01-06 15:10:48.66	315.60	27.11	-36.4	-37.3	22.1	0.00e+00	0	41	0	3510632448	42	4155
2026-01-06 15:10:49.66	315.79	26.97	-36.4	-37.3	22.1	0.00e+00	0	41	0	3517972480	42	4154
2026-01-06 15:10:50.67	315.98	26.84	-36.3	-37.2	22.1	0.00e+00	0	41	0	3525312512	42	4125
2026-01-06 15:10:51.67	316.17	26.70	-36.3	-37.2	22.1	0.00e+00	0	41	0	3532652544	42	4125
2026-01-06 15:10:52.67	316.36	26.57	-36.3	-37.2	22.2	0.00e+00	0	41	0	3539992576	42	4108
2026-01-06 15:10:53.67	316.54	26.44	-36.1	-37.0	22.3	0.00e+00	0	41	0	3547332608	42	4029
2026-01-06 15:10:54.68	316.73	26.30	-36.0	-36.9	22.4	0.00e+00	0	41	0	3554672640	42	3971
2026-01-06 15:10:55.68	316.91	26.17	-36.0	-36.8	22.5	0.00e+00	0	41	0	3562012672	42	3955
2026-01-06 15:10:56.68	317.09	26.03	-36.0	-36.9	22.4	0.00e+00	0	41	0	3569352704	42	3963
2026-01-06 15:10:57.69	317.27	25.90	-35.7	-36.6	22.7	0.00e+00	0	41	0	3576692736	42	3848
2026-01-06 15:10:58.69	317.45	25.77	-35.7	-36.5	22.7	0.00e+00	0	41	0	3584032768	42	3800
2026-01-06 15:10:59.69	317.63	25.64	-35.7	-36.6	22.7	0.00e+00	0	41	0	3591372800	42	3841
2026-01-06 15:11:00.69	317.80	25.51	-35.8	-36.7	22.6	0.00e+00	0	41	0	3597664256	42	3873
2026-01-06 15:11:01.70	317.98	25.37	-35.8	-36.7	22.6	0.00e+00	0	41	0	3605004288	42	3872
2026-01-06 15:11:02.70	318.15	25.24	-35.9	-36.8	22.5	0.00e+00	0	41	0	3612344320	42	3924
2026-01-06 15:11:03.70	318.32	25.11	-36.0	-36.9	22.5	0.00e+00	0	41	0	3619684352	42	3963
2026-01-06 15:11:04.71	318.49	24.98	-36.2	-37.0	22.3	0.00e+00	0	41	0	3627024384	42	4043
2026-01-06 15:11:05.71	318.66	24.85	-36.2	-37.1	22.2	0.00e+00	0	41	0	3634364416	42	4089
2026-01-06 15:11:06.72	318.83	24.72	-36.4	-37.3	22.0	0.00e+00	0	41	0	3641704448	42	4158
2026-01-06 15:11:07.72	319.00	24.59	-36.5	-37.4	22.0	0.00e+00	0	41	0	3649044480	42	4198
2026-01-06 15:11:08.72	319.16	24.47	-36.5	-37.4	22.0	0.00e+00	0	41	0	3655335936	42	4221
2026-01-06 15:11:09.73	319.33	24.34	-36.5	-37.4	22.0	0.00e+00	0	41	0	3662675968	42	4220
2026-01-06 15:11:10.73	319.49	24.21	-36.5	-37.4	22.0	0.00e+00	0	41	0	3671064576	42	4238
2026-01-06 15:11:11.73	319.65	24.08	-36.5	-37.4	22.0	0.00e+00	0	41	0	3677356032	42	4207
2026-01-06 15:11:12.74	319.81	23.95	-36.5	-37.4	22.0	0.00e+00	0	41	0	3684696064	42	4195
2026-01-06 15:11:13.74	319.97	23.83	-36.5	-37.4	22.0	0.00e+00	0	41	0	3692036096	42	4220
2026-01-06 15:11:14.74	320.12	23.70	-36.4	-37.3	22.1	0.00e+00	0	41	0	3699376128	42	4153
2026-01-06 15:11:15.75	320.28	23.58	-36.3	-37.2	22.1	0.00e+00	0	41	0	3706716160	42	4127
2026-01-06 15:11:16.75	320.43	23.45	-36.3	-37.2	22.1	0.00e+00	0	41	0	3714056192	42	4106
2026-01-06 15:11:17.75	320.59	23.33	-36.1	-37.0	22.3	0.00e+00	0	41	0	3721396224	42	4032
2026-01-06 15:11:18.76	320.74	23.20	-36.3	-37.2	22.2	0.00e+00	0	41	0	3728736256	42	4123
2026-01-06 15:11:19.76	320.89	23.08	-36.4	-37.3	21.9	0.00e+00	0	41	0	3736076288	42	4151
2026-01-06 15:11:20.76	321.04	22.95	-36.2	-37.1	22.2	0.00e+00	0	41	0	3742367744	42	4079
2026-01-06 15:11:21.77	321.19	22.83	-36.3	-37.2	22.1	0.00e+00	0	41	0	3749707776	42	4127
2026-01-06 15:11:22.77	321.34	22.71	-36.4	-37.3	22.0	0.00e+00	0	41	0	3757047808	42	4182
2026-01-06 15:11:23.77	321.49	22.58	-36.4	-37.3	22.0	0.00e+00	0	41	0	3764387840	42	4190
2026-01-06 15:11:24.78	321.63	22.46	-36.5	-37.4	22.0	0.00e+00	0	41	0	3771727872	42	4217
2026-01-06 15:11:25.78	321.78	22.34	-36.6	-37.5	21.9	0.00e+00	0	41	0	3779067904	42	4264
2026-01-06 15:11:26.78	321.92	22.22	-36.6	-37.6	21.7	0.00e+00	0	41	0	3786407936	42	4296
2026-01-06 15:11:27.79	322.06	22.10	-36.8	-37.7	21.6	0.00e+00	0	41	0	3793747968	42	4380
2026-01-06 15:11:28.79	322.20	21.98	-36.7	-37.7	21.7	0.00e+00	0	41	0	3801088000	43	4123
2026-01-06 15:11:29.79	322.34	21.86	-36.7	-37.7	21.7	0.00e+00	0	41	0	3808428032	43	4103
2026-01-06 15:11:30.79	322.48	21.74	-36.7	-37.6	21.7	0.00e+00	0	41	0	3815768064	43	4084
2026-01-06 15:11:31.79	322.62	21.62	-36.7	-37.6	21.7	0.00e+00	0	41	0	3823108096	43	4093
2026-01-06 15:11:32.80	322.76	21.50	-36.7	-37.6	21.7	0.00e+00	0	41	0	3829399552	43	4077
2026-01-06 15:11:33.80	322.89	21.38	-36.7	-37.6	21.7	0.00e+00	0	41	0	3836739584	43	4094
2026-01-06 15:11:34.80	323.03	21.26	-36.6	-37.5	21.8	0.00e+00	0	41	0	3844079616	43	4041
2026-01-06 15:11:35.81	323.16	21.15	-36.6	-37.5	21.8	0.00e+00	0	41	0	3851419648	43	4035
2026-01-06 15:11:36.81	323.29	21.03	-36.6	-37.5	21.8	0.00e+00	0	41	0	3858759680	43	4028
2026-01-06 15:11:37.81	323.43	20.91	-36.6	-37.5	21.8	0.00e+00	0	41	0	3866099712	43	4036
2026-01-06 15:11:38.82	323.56	20.79	-36.6	-37.5	21.7	0.00e+00	0	41	0	3873439744	43	4046
2026-01-06 15:11:39.82	323.69	20.68	-36.5	-37.4	21.8	0.00e+00	0	41	0	3880779776	43	3996
2026-01-06 15:11:40.82	323.82	20.56	-36.7	-37.6	21.6	0.00e+00	0	41	0	3887071232	43	4080
2026-01-06 15:11:41.83	323.95	20.45	-36.7	-37.6	21.6	0.00e+00	0	41	0	3895459840	43	4097
2026-01-06 15:11:42.83	324.07	20.33	-36.8	-37.8	21.6	0.00e+00	0	41	0	3902799872	43	4150
2026-01-06 15:11:43.83	324.20	20.22	-36.9	-37.8	21.5	0.00e+00	0	41	0	3909091328	43	4171
2026-01-06 15:11:44.84	324.33	20.10	-37.0	-37.9	21.5	0.00e+00	0	41	0	3916431360	43	4229
2026-01-06 15:11:45.84	324.45	19.99	-37.0	-38.0	21.4	0.00e+00	0	41	0	3923771392	43	4248
2026-01-06 15:11:46.84	324.57	19.88	-37.1	-38.0	21.4	0.00e+00	0	41	0	3931111424	43	4275
2026-01-06 15:11:47.85	324.70	19.76	-37.1	-38.1	21.3	0.00e+00	0	41	0	3938451456	43	4295
2026-01-06 15:11:48.85	324.82	19.65	-37.2	-38.2	21.2	0.00e+00	0	41	0	3945791488	43	4351
2026-01-06 15:11:49.85	324.94	19.54	-37.1	-38.1	21.3	0.00e+00	0	41	0	3953131520	43	4308
2026-01-06 15:11:50.86	325.06	19.43	-37.2	-38.2	21.2	0.00e+00	0	41	0	3960471552	43	4343
2026-01-06 15:11:51.86	325.18	19.32	-37.1	-38.1	21.3	0.00e+00	0	41	0	3967811584	43	4302
2026-01-06 15:11:52.87	325.30	19.20	-37.2	-38.1	21.2	0.00e+00	0	41	0	3974103040	43	4334
2026-01-06 15:11:53.87	325.42	19.09	-37.2	-38.1	21.3	0.00e+00	0	41	0	3981443072	43	4334
2026-01-06 15:11:54.87	325.53	18.98	-37.2	-38.1	21.3	0.00e+00	0	41	0	3988783104	43	4326
2026-01-06 15:11:55.87	325.65	18.87	-37.2	-38.1	21.2	0.00e+00	0	41	0	3996123136	43	4327
2026-01-06 15:11:56.88	325.76	18.76	-37.2	-38.1	21.2	0.00e+00	0	41	0	4003463168	43	4334
2026-01-06 15:11:57.88	325.88	18.66	-37.2	-38.1	21.3	0.00e+00	0	41	0	4010803200	43	4317
2026-01-06 15:11:58.88	325.99	18.55	-37.2	-38.2	21.2	0.00e+00	0	41	0	4018143232	43	4348
2026-01-06 15:11:59.89	326.11	18.44	-37.4	-38.4	21.2	0.00e+00	0	41	0	4025483264	44	4202
2026-01-06 15:12:00.89	326.22	18.33	-37.5	-38.4	21.1	0.00e+00	0	41	0	4032823296	44	4238
2026-01-06 15:12:01.89	326.33	18.22	-37.4	-38.4	21.0	0.00e+00	0	41	0	4040163328	44	4235
2026-01-06 15:12:02.90	326.44	18.11	-37.4	-38.3	21.2	0.00e+00	0	41	0	4047503360	44	4193
2026-01-06 15:12:03.90	326.55	18.01	-37.5	-38.5	21.0	0.00e+00	0	41	0	4053794816	44	4250
2026-01-06 15:12:04.90	326.66	17.90	-37.5	-38.5	21.0	0.00e+00	0	41	0	4061134848	44	4280
2026-01-06 15:12:05.91	326.77	17.80	-37.6	-38.6	20.9	0.00e+00	0	41	0	4068474880	44	4333
2026-01-06 15:12:06.91	326.88	17.69	-37.5	-38.5	21.1	0.00e+00	0	41	0	4075814912	44	4269
2026-01-06 15:12:07.91	326.98	17.58	-37.6	-38.6	20.9	0.00e+00	0	41	0	4083154944	44	4339
2026-01-06 15:12:08.92	327.09	17.48	-37.8	-38.8	20.8	0.00e+00	0	41	0	4090494976	44	4411
2026-01-06 15:12:09.92	327.19	17.37	-37.7	-38.7	20.9	0.00e+00	0	41	0	4097835008	44	4346
2026-01-06 15:12:10.92	327.30	17.27	-37.7	-38.7	20.9	0.00e+00	0	41	0	4105175040	44	4368
2026-01-06 15:12:11.93	327.40	17.17	-37.7	-38.7	20.8	0.00e+00	0	41	0	4112515072	44	4379
2026-01-06 15:12:12.93	327.51	17.06	-37.8	-38.8	20.7	0.00e+00	0	41	0	4119855104	45	4183
2026-01-06 15:12:13.93	327.61	16.96	-37.8	-38.8	20.8	0.00e+00	0	41	0	4127195136	45	4161
2026-01-06 15:12:14.94	327.71	16.86	-37.6	-38.7	20.9	0.00e+00	0	41	0	4134535168	45	4104
2026-01-06 15:12:15.94	327.81	16.75	-37.8	-38.8	20.7	0.00e+00	0	41	0	4140826624	45	4179
2026-01-06 15:12:16.94	327.91	16.65	-37.8	-38.8	20.7	0.00e+00	0	41	0	4148166656	45	4170
2026-01-06 15:12:17.94	328.01	16.55	-37.8	-38.9	20.7	0.00e+00	0	41	0	4155506688	45	4195
2026-01-06 15:12:18.95	328.11	16.45	-37.9	-38.9	20.6	0.00e+00	0	41	0	4162846720	45	4242
2026-01-06 15:12:19.95	328.21	16.35	-37.9	-38.9	20.7	0.00e+00	0	41	0	4170186752	45	4210
2026-01-06 15:12:20.95	328.31	16.25	-38.0	-39.0	20.6	0.00e+00	0	41	0	4177526784	45	4248
2026-01-06 15:12:21.96	328.41	16.15	-38.0	-39.0	20.5	0.00e+00	0	41	0	4184866816	45	4278
2026-01-06 15:12:22.96	328.51	16.05	-38.0	-39.0	20.5	0.00e+00	0	41	0	4192206848	45	4259
2026-01-06 15:12:23.96	328.60	15.95	-38.0	-39.0	20.5	0.00e+00	0	41	0	4199546880	45	4285
2026-01-06 15:12:24.96	328.70	15.85	-38.1	-39.0	20.5	0.00e+00	0	41	0	4205838336	45	4284
2026-01-06 15:12:25.97	328.79	15.75	-38.1	-39.1	20.5	0.00e+00	0	41	0	4213178368	45	4301
2026-01-06 15:12:26.97	328.89	15.65	-38.1	-39.1	20.5	0.00e+00	0	41	0	4220518400	45	4298
2026-01-06 15:12:27.98	328.98	15.55	-38.1	-39.1	20.5	0.00e+00	0	41	0	4227858432	45	4305
2026-01-06 15:12:28.98	329.08	15.45	-38.2	-39.2	20.4	0.00e+00	0	41	0	4235198464	45	4358
2026-01-06 15:12:29.98	329.17	15.35	-38.2	-39.2	20.3	0.00e+00	0	41	0	4242538496	45	4353
2026-01-06 15:12:30.98	329.26	15.26	-38.1	-39.1	20.4	0.00e+00	0	41	0	4249878528	45	4319
2026-01-06 15:12:31.98	329.35	15.16	-38.2	-39.2	20.3	0.00e+00	0	41	0	4257218560	45	4363
2026-01-06 15:12:32.99	329.44	15.06	-38.2	-39.2	20.2	0.00e+00	0	41	0	4264558592	45	4344
2026-01-06 15:12:33.99	329.53	14.97	-38.2	-39.2	20.3	0.00e+00	0	41	0	4271898624	45	4379
2026-01-06 15:12:35.00	329.62	14.87	-38.2	-39.2	20.3	0.00e+00	0	41	0	4279238656	45	4362
2026-01-06 15:12:36.00	329.71	14.77	-38.3	-39.3	20.2	0.00e+00	0	41	0	4285530112	46	4184
2026-01-06 15:12:37.00	329.80	14.68	-38.3	-39.3	20.2	0.00e+00	0	41	0	4292870144	46	4180
2026-01-06 15:12:38.00	329.89	14.58	-38.4	-39.4	20.1	0.00e+00	0	41	0	4300210176	46	4217
2026-01-06 15:12:39.01	329.98	14.49	-38.5	-39.5	20.1	0.00e+00	0	41	0	4307550208	46	4257
2026-01-06 15:12:40.01	330.07	14.39	-38.4	-39.5	20.1	0.00e+00	0	41	0	4314890240	46	4243
2026-01-06 15:12:41.01	330.15	14.30	-38.6	-39.6	20.0	0.00e+00	0	41	0	4322230272	46	4312
2026-01-06 15:12:42.02	330.24	14.21	-38.6	-39.6	19.9	0.00e+00	0	41	0	4329570304	46	4339
2026-01-06 15:12:43.02	330.33	14.11	-38.7	-39.8	19.8	0.00e+00	0	41	0	4336910336	46	4415
2026-01-06 15:12:44.02	330.41	14.02	-38.8	-39.8	19.7	0.00e+00	0	41	0	4344250368	47	4193
2026-01-06 15:12:45.03	330.50	13.93	-38.9	-40.0	19.5	0.00e+00	0	41	0	4351590400	47	4282
2026-01-06 15:12:46.03	330.58	13.83	-38.9	-39.9	19.6	0.00e+00	0	41	0	4358930432	47	4228
2026-01-06 15:12:47.03	330.66	13.74	-38.8	-39.9	19.6	0.00e+00	0	41	0	4366270464	47	4214
2026-01-06 15:12:48.04	330.75	13.65	-39.0	-40.0	19.5	0.00e+00	0	41	0	4372561920	47	4280
2026-01-06 15:12:49.04	330.83	13.56	-39.0	-40.1	19.5	0.00e+00	0	41	0	4379901952	47	4294
2026-01-06 15:12:50.04	330.91	13.47	-39.0	-40.1	19.4	0.00e+00	0	41	0	4387241984	47	4306
2026-01-06 15:12:51.05	330.99	13.37	-39.0	-40.1	19.4	0.00e+00	0	41	0	4394582016	47	4298
2026-01-06 15:12:52.05	331.07	13.28	-39.0	-40.0	19.4	0.00e+00	0	41	0	4401922048	47	4279
2026-01-06 15:12:53.05	331.16	13.19	-39.0	-40.1	19.4	0.00e+00	0	41	0	4409262080	47	4320
2026-01-06 15:12:54.06	331.24	13.10	-39.0	-40.1	19.4	0.00e+00	0	41	0	4416602112	47	4315
2026-01-06 15:12:55.06	331.32	13.01	-39.0	-40.0	19.5	0.00e+00	0	41	0	4423942144	47	4288
2026-01-06 15:12:56.06	331.40	12.92	-39.0	-40.1	19.4	0.00e+00	0	41	0	4431282176	47	4299
2026-01-06 15:12:57.06	331.47	12.83	-39.0	-40.0	19.4	0.00e+00	0	41	0	4437573632	47	4290
2026-01-06 15:12:58.07	331.55	12.74	-39.0	-40.1	19.4	0.00e+00	0	41	0	4444913664	47	4305
2026-01-06 15:12:59.07	331.63	12.65	-39.1	-40.1	19.3	0.00e+00	0	41	0	4452253696	47	4340
2026-01-06 15:13:00.07	331.71	12.57	-39.0	-40.1	19.4	0.00e+00	0	41	0	4459593728	47	4316
2026-01-06 15:13:01.08	331.79	12.48	-39.0	-40.1	19.4	0.00e+00	0	41	0	4466933760	47	4311
2026-01-06 15:13:02.08	331.86	12.39	-39.0	-40.1	19.4	0.00e+00	0	41	0	4474273792	47	4316
2026-01-06 15:13:03.08	331.94	12.30	-39.1	-40.2	19.3	0.00e+00	0	41	0	4481613824	47	4359
2026-01-06 15:13:04.09	332.02	12.21	-39.0	-40.1	19.3	0.00e+00	0	41	0	4488953856	47	4329
2026-01-06 15:13:05.09	332.09	12.13	-39.0	-40.1	19.3	0.00e+00	0	41	0	4496293888	47	4318
2026-01-06 15:13:06.09	332.17	12.04	-39.0	-40.1	19.4	0.00e+00	0	41	0	4503633920	47	4313
2026-01-06 15:13:07.10	332.24	11.95	-39.1	-40.2	19.2	0.00e+00	0	41	0	4510973952	47	4381
2026-01-06 15:13:08.10	332.32	11.87	-39.0	-40.1	19.3	0.00e+00	0	41	0	4517265408	47	4326
2026-01-06 15:13:09.10	332.39	11.78	-39.0	-40.1	19.3	0.00e+00	0	41	0	4524605440	47	4331
2026-01-06 15:13:10.10	332.46	11.69	-39.1	-40.2	19.3	0.00e+00	0	41	0	4531945472	47	4369
2026-01-06 15:13:11.10	332.53	11.61	-39.1	-40.2	19.2	0.00e+00	0	41	0	4539285504	47	4384
2026-01-06 15:13:12.11	332.61	11.52	-39.1	-40.2	19.2	0.00e+00	0	41	0	4546625536	47	4387
2026-01-06 15:13:13.11	332.68	11.44	-39.1	-40.2	19.2	0.00e+00	0	41	0	4553965568	47	4349
2026-01-06 15:13:14.12	332.75	11.35	-39.1	-40.2	19.2	0.00e+00	0	41	0	4561305600	47	4356
2026-01-06 15:13:15.12	332.82	11.27	-39.1	-40.2	19.3	0.00e+00	0	41	0	4568645632	47	4356
2026-01-06 15:13:16.12	332.89	11.18	-39.1	-40.2	19.2	0.00e+00	0	41	0	4575985664	47	4383
2026-01-06 15:13:17.12	332.96	11.10	-39.2	-40.3	19.1	0.00e+00	0	41	0	4582277120	47	4407
2026-01-06 15:13:18.13	333.04	11.01	-39.3	-40.4	19.0	0.00e+00	0	41	0	4590665728	47	4457
2026-01-06 15:13:19.13	333.11	10.93	-39.4	-40.5	19.2	0.00e+00	0	41	0	4598005760	48	4256
2026-01-06 15:13:20.13	333.17	10.85	-39.4	-40.5	19.2	0.00e+00	0	41	0	4604297216	48	4272
2026-01-06 15:13:21.14	333.24	10.76	-39.4	-40.5	19.2	0.00e+00	0	41	0	4611637248	48	4257
2026-01-06 15:13:22.14	333.31	10.68	-39.5	-40.6	19.1	0.00e+00	0	41	0	4618977280	48	4304
2026-01-06 15:13:23.15	333.38	10.60	-39.5	-40.6	19.0	0.00e+00	0	41	0	4626317312	48	4333
2026-01-06 15:13:24.15	333.45	10.52	-39.5	-40.7	19.0	0.00e+00	0	41	0	4633657344	48	4350
2026-01-06 15:13:25.15	333.52	10.43	-39.5	-40.6	19.1	0.00e+00	0	41	0	4640997376	48	4312
2026-01-06 15:13:26.15	333.58	10.35	-39.6	-40.8	18.9	0.00e+00	0	41	0	4648337408	48	4397
2026-01-06 15:13:27.15	333.65	10.27	-39.6	-40.8	18.9	0.00e+00	0	41	0	4655677440	48	4393
2026-01-06 15:13:28.16	333.72	10.19	-39.7	-40.8	18.8	0.00e+00	0	42	0	4661968896	48	4435
2026-01-06 15:13:29.16	333.79	10.11	-39.6	-40.8	18.9	0.00e+00	0	41	0	4669308928	48	4395
2026-01-06 15:13:30.17	333.85	10.03	-39.7	-40.9	18.7	0.00e+00	0	42	0	4676648960	48	4487
2026-01-06 15:13:31.17	333.92	9.95	-39.7	-40.9	18.8	0.00e+00	0	41	0	4683988992	48	4442
