passes_logs/2026/01/06/T1/T1__20260106_132157_FENGYUN_3E_rec.log

#Pass ID: 20260106_132157_FENGYUN 3E
#Satellite: FENGYUN 3E
#Configuration: FENGYUN 3E
#almurnet v.1.7.20251203
#Start time: 2026-01-06 13:21:58

#Version: 2.0.20230620
#Station: T1
#Location: 37.570604 lon 55.790049 lat
#TLE: 1 49008U 21062A   26005.63346808  .00000216  00000+0  12264-3 0  9999
#TLE: 2 49008  98.7472  10.8714 0001569 158.0856 202.0387 14.19884439233512

#Time	Az	El	Level	Level2	SNR	BER	BlckErr	Temp	State	Recorded	gain1	gain2
2026-01-06 13:21:58.32	133.89	5.03	-50.2	-60.9	3.8	8.48e-01	0	41	0	0	71	11948
2026-01-06 13:21:59.32	133.85	5.10	-50.2	-61.0	3.8	8.46e-01	0	41	104	0	71	11968
2026-01-06 13:22:00.33	133.80	5.17	-50.2	-60.9	3.8	8.48e-01	0	41	104	0	71	11947
2026-01-06 13:22:01.33	133.76	5.24	-50.2	-61.0	3.8	8.47e-01	0	41	104	0	71	11981
2026-01-06 13:22:02.34	133.71	5.31	-50.3	-61.0	3.8	8.47e-01	0	41	104	0	71	12000
2026-01-06 13:22:03.34	133.67	5.38	-50.2	-61.0	3.8	8.46e-01	0	41	104	0	71	11967
2026-01-06 13:22:04.35	133.62	5.45	-50.2	-61.0	3.8	8.47e-01	0	41	104	0	71	12017
2026-01-06 13:22:05.35	133.58	5.52	-50.2	-60.9	3.8	8.47e-01	0	41	104	0	71	11952
2026-01-06 13:22:06.35	133.53	5.59	-50.2	-60.9	3.8	8.47e-01	0	41	104	0	71	11855
2026-01-06 13:22:07.36	133.49	5.66	-50.2	-60.7	3.8	8.47e-01	0	41	104	0	71	11648
2026-01-06 13:22:08.36	133.44	5.73	-50.2	-60.6	3.8	8.47e-01	0	41	104	0	71	11434
2026-01-06 13:22:09.37	133.40	5.80	-50.1	-60.3	3.8	8.48e-01	0	41	104	0	71	11077
2026-01-06 13:22:10.37	133.35	5.87	-50.1	-60.1	3.8	8.47e-01	0	41	104	0	71	10822
2026-01-06 13:22:11.38	133.30	5.95	-50.1	-59.9	3.8	8.47e-01	0	42	104	0	70	11174
2026-01-06 13:22:12.38	133.26	6.02	-50.0	-59.4	3.8	8.46e-01	0	42	104	0	70	10629
2026-01-06 13:22:13.39	133.21	6.09	-50.0	-59.2	3.8	8.45e-01	0	42	104	0	70	10349
2026-01-06 13:22:14.39	133.16	6.16	-49.9	-58.9	3.8	8.45e-01	0	42	104	0	70	10009
2026-01-06 13:22:15.39	133.12	6.23	-49.9	-58.8	3.8	8.46e-01	0	42	104	0	70	9852
2026-01-06 13:22:16.40	133.07	6.30	-49.9	-58.6	3.8	8.44e-01	0	42	104	0	70	9668
2026-01-06 13:22:17.40	133.02	6.38	-49.8	-58.4	3.9	8.44e-01	0	42	104	0	70	9462
2026-01-06 13:22:18.41	132.97	6.45	-49.8	-58.3	4.0	8.45e-01	0	42	104	0	70	9385
2026-01-06 13:22:19.41	132.93	6.52	-49.8	-58.6	3.8	8.45e-01	0	42	104	0	70	9714
2026-01-06 13:22:20.42	132.88	6.60	-49.9	-58.9	3.9	8.45e-01	0	42	104	0	70	10027
2026-01-06 13:22:21.42	132.83	6.67	-50.0	-59.5	3.8	8.46e-01	0	42	104	0	70	10675
2026-01-06 13:22:22.43	132.78	6.74	-50.1	-60.0	3.8	8.47e-01	0	42	104	0	70	11401
2026-01-06 13:22:23.43	132.73	6.81	-50.1	-60.6	3.8	8.47e-01	0	42	104	0	70	12203
2026-01-06 13:22:24.43	132.68	6.89	-50.2	-60.9	3.8	8.46e-01	0	42	104	0	70	12559
2026-01-06 13:22:25.44	132.63	6.96	-50.2	-60.8	3.8	8.46e-01	0	42	104	0	70	12473
2026-01-06 13:22:26.44	132.58	7.04	-50.1	-60.2	3.8	8.47e-01	0	42	104	0	70	11674
2026-01-06 13:22:27.45	132.53	7.11	-50.0	-59.2	3.8	8.46e-01	0	42	104	0	70	10380
2026-01-06 13:22:28.45	132.48	7.19	-49.7	-57.9	3.9	8.43e-01	0	42	104	0	70	8882
2026-01-06 13:22:29.45	132.43	7.26	-49.5	-56.6	4.5	8.28e-01	0	42	0	0	69	8153
2026-01-06 13:22:30.46	132.38	7.33	-49.2	-55.7	4.9	7.99e-01	0	42	0	0	69	7352
2026-01-06 13:22:31.46	132.33	7.41	-49.0	-54.8	5.4	7.45e-01	0	42	0	0	68	7026
2026-01-06 13:22:32.47	132.27	7.49	-48.6	-53.7	6.2	3.77e-01	0	42	0	3145728	68	6179
2026-01-06 13:22:33.47	132.22	7.56	-48.0	-52.6	7.0	1.77e-01	0	42	0	10485760	66	6097
2026-01-06 13:22:34.48	132.17	7.64	-47.4	-51.4	8.2	8.74e-02	0	42	0	18874368	65	5604
2026-01-06 13:22:35.48	132.12	7.71	-46.8	-50.2	9.4	1.92e-02	0	42	0	25165824	64	5172
2026-01-06 13:22:36.48	132.06	7.79	-46.0	-48.8	10.9	4.05e-03	0	42	0	32505856	62	4983
2026-01-06 13:22:37.49	132.01	7.86	-45.1	-47.7	12.1	3.78e-04	0	43	0	39845888	61	4611
2026-01-06 13:22:38.49	131.96	7.94	-44.4	-46.6	13.0	8.35e-05	0	42	0	47185920	59	4579
2026-01-06 13:22:39.50	131.90	8.02	-43.6	-45.6	14.0	4.50e-06	0	42	0	54525952	58	4332
2026-01-06 13:22:40.50	131.85	8.09	-42.8	-44.7	15.0	0.00e+00	0	42	0	61865984	56	4352
2026-01-06 13:22:41.51	131.80	8.17	-42.4	-44.2	15.3	0.00e+00	0	42	0	69206016	55	4359
2026-01-06 13:22:42.51	131.74	8.25	-41.9	-43.6	15.9	0.00e+00	0	42	0	76546048	54	4315
2026-01-06 13:22:43.51	131.69	8.33	-41.8	-43.6	15.9	0.00e+00	0	43	0	83886080	54	4301
2026-01-06 13:22:44.52	131.63	8.40	-41.7	-43.4	16.1	0.00e+00	0	42	0	90177536	54	4212
2026-01-06 13:22:45.52	131.58	8.48	-41.9	-43.7	15.8	0.00e+00	0	43	0	97517568	54	4347
2026-01-06 13:22:46.53	131.52	8.56	-42.3	-44.1	15.4	0.00e+00	0	42	0	105906176	54	4575
2026-01-06 13:22:47.53	131.46	8.64	-42.9	-44.8	14.8	0.00e+00	0	43	0	112197632	55	4654
2026-01-06 13:22:48.53	131.41	8.72	-43.8	-45.9	13.7	3.40e-06	0	43	0	119537664	57	4745
2026-01-06 13:22:49.54	131.35	8.80	-44.7	-47.0	12.6	5.60e-05	0	43	0	126877696	58	5096
2026-01-06 13:22:50.54	131.29	8.87	-45.7	-48.5	11.3	1.15e-03	0	43	0	134217728	61	5047
2026-01-06 13:22:51.55	131.23	8.95	-46.7	-50.0	9.7	1.02e-02	0	43	0	141557760	62	5672
2026-01-06 13:22:52.55	131.18	9.03	-47.5	-51.5	8.1	5.56e-02	0	43	0	148897792	64	5994
2026-01-06 13:22:53.55	131.12	9.11	-47.7	-51.9	7.6	1.70e-01	0	43	0	156237824	65	5950
2026-01-06 13:22:54.56	131.06	9.19	-48.2	-52.9	6.8	1.33e-01	0	43	0	163577856	65	6697
2026-01-06 13:22:55.56	131.00	9.27	-48.1	-52.7	6.9	4.69e-01	0	43	0	168820736	67	5838
2026-01-06 13:22:56.56	130.94	9.35	-45.8	-48.6	11.0	4.22e-02	0	43	0	176160768	62	4862
2026-01-06 13:22:57.57	130.88	9.43	-48.2	-53.0	6.9	1.29e-03	0	43	0	183500800	65	6763
2026-01-06 13:22:58.57	130.82	9.51	-48.0	-52.5	6.9	8.44e-01	0	43	104	183500800	67	5664
2026-01-06 13:22:59.57	130.76	9.60	-42.3	-44.0	15.5	0.00e+00	0	43	0	188743680	55	4289
2026-01-06 13:23:00.58	130.70	9.68	-41.2	-42.8	16.8	0.00e+00	0	43	0	196083712	53	4169
2026-01-06 13:23:01.58	130.64	9.76	-40.7	-42.2	17.3	0.00e+00	0	43	0	203423744	52	4142
2026-01-06 13:23:02.58	130.58	9.84	-40.7	-42.2	17.4	0.00e+00	0	43	0	210763776	51	4382
2026-01-06 13:23:03.59	130.52	9.92	-40.5	-42.0	17.6	0.00e+00	0	43	0	218103808	51	4267
2026-01-06 13:23:04.59	130.46	10.00	-40.2	-41.7	17.9	0.00e+00	0	43	0	225443840	51	4101
2026-01-06 13:23:05.59	130.40	10.09	-40.0	-41.5	18.0	0.00e+00	0	43	0	232783872	50	4273
2026-01-06 13:23:06.60	130.33	10.17	-39.9	-41.4	18.1	0.00e+00	0	43	0	239075328	50	4220
2026-01-06 13:23:07.60	130.27	10.25	-39.8	-41.3	18.2	0.00e+00	0	43	0	246415360	50	4176
2026-01-06 13:23:08.60	130.21	10.34	-39.9	-41.4	18.1	0.00e+00	0	43	0	253755392	50	4231
2026-01-06 13:23:09.61	130.14	10.42	-39.7	-41.2	18.4	0.00e+00	0	43	0	261095424	50	4100
2026-01-06 13:23:10.61	130.08	10.50	-39.6	-41.1	18.4	0.00e+00	0	43	0	268435456	49	4313
2026-01-06 13:23:11.61	130.01	10.59	-39.6	-41.1	18.4	0.00e+00	0	43	0	275775488	49	4317
2026-01-06 13:23:12.62	129.95	10.67	-39.6	-41.1	18.5	0.00e+00	0	43	0	283115520	49	4297
2026-01-06 13:23:13.62	129.88	10.75	-39.6	-41.1	18.5	0.00e+00	0	43	0	290455552	49	4293
2026-01-06 13:23:14.62	129.82	10.84	-39.4	-40.9	18.6	0.00e+00	0	43	0	297795584	49	4217
2026-01-06 13:23:15.63	129.75	10.92	-39.5	-41.0	18.5	0.00e+00	0	43	0	305135616	49	4280
2026-01-06 13:23:16.63	129.69	11.01	-39.4	-40.9	18.6	0.00e+00	0	43	0	312475648	49	4225
2026-01-06 13:23:17.63	129.62	11.09	-39.2	-40.6	18.8	0.00e+00	0	43	0	319815680	49	4086
2026-01-06 13:23:18.63	129.55	11.18	-39.4	-40.9	18.6	0.00e+00	0	43	0	326107136	49	4210
2026-01-06 13:23:19.63	129.48	11.27	-39.5	-41.0	18.5	0.00e+00	0	43	0	333447168	49	4254
2026-01-06 13:23:20.64	129.42	11.35	-39.3	-40.9	18.7	0.00e+00	0	43	0	340787200	49	4198
2026-01-06 13:23:21.64	129.35	11.44	-39.4	-40.9	18.6	0.00e+00	0	43	0	348127232	49	4209
2026-01-06 13:23:22.65	129.28	11.53	-39.3	-40.9	18.6	0.00e+00	0	43	0	355467264	49	4197
2026-01-06 13:23:23.65	129.21	11.61	-39.3	-40.8	18.7	0.00e+00	0	43	0	362807296	49	4158
2026-01-06 13:23:24.65	129.14	11.70	-39.3	-40.8	18.8	0.00e+00	0	43	0	370147328	49	4153
2026-01-06 13:23:25.66	129.07	11.79	-39.3	-40.8	18.7	0.00e+00	0	43	0	377487360	49	4165
2026-01-06 13:23:26.66	129.00	11.88	-39.2	-40.7	18.8	0.00e+00	0	43	0	383778816	49	4136
2026-01-06 13:23:27.67	128.93	11.96	-39.1	-40.6	18.9	0.00e+00	0	43	0	391118848	49	4073
2026-01-06 13:23:28.67	128.86	12.05	-39.2	-40.7	18.8	0.00e+00	0	43	0	398458880	48	4374
2026-01-06 13:23:29.67	128.78	12.14	-39.1	-40.5	19.0	0.00e+00	0	43	0	405798912	48	4287
2026-01-06 13:23:30.67	128.71	12.23	-38.9	-40.4	19.1	0.00e+00	0	43	0	413138944	48	4221
2026-01-06 13:23:31.68	128.64	12.32	-38.9	-40.3	19.2	0.00e+00	0	43	0	420478976	48	4175
2026-01-06 13:23:32.68	128.57	12.41	-38.8	-40.2	19.1	0.00e+00	0	43	0	427819008	48	4142
2026-01-06 13:23:33.68	128.49	12.50	-38.9	-40.4	19.2	0.00e+00	0	43	0	435159040	48	4204
2026-01-06 13:23:34.69	128.42	12.59	-38.9	-40.4	19.2	0.00e+00	0	43	0	442499072	48	4207
2026-01-06 13:23:35.69	128.34	12.68	-38.9	-40.3	19.2	0.00e+00	0	43	0	449839104	48	4179
2026-01-06 13:23:36.69	128.27	12.77	-38.7	-40.2	19.3	0.00e+00	0	43	0	457179136	48	4117
2026-01-06 13:23:37.69	128.19	12.86	-38.7	-40.1	19.4	0.00e+00	0	43	0	464519168	48	4072
2026-01-06 13:23:38.70	128.12	12.95	-38.7	-40.2	19.4	0.00e+00	0	43	0	470810624	48	4109
2026-01-06 13:23:39.70	128.04	13.04	-38.7	-40.1	19.4	0.00e+00	0	43	0	478150656	48	4087
2026-01-06 13:23:40.71	127.96	13.13	-38.3	-39.8	19.4	0.00e+00	0	43	0	485490688	47	4174
2026-01-06 13:23:41.71	127.88	13.23	-38.5	-39.9	19.3	0.00e+00	0	43	0	492830720	47	4231
2026-01-06 13:23:42.71	127.81	13.32	-38.6	-40.0	19.2	0.00e+00	0	43	0	500170752	47	4281
2026-01-06 13:23:43.71	127.73	13.41	-38.4	-39.9	19.4	0.00e+00	0	43	0	507510784	47	4205
2026-01-06 13:23:44.71	127.65	13.50	-38.5	-40.0	19.2	0.00e+00	0	43	0	514850816	47	4287
2026-01-06 13:23:45.72	127.57	13.60	-38.5	-40.0	19.2	0.00e+00	0	43	0	522190848	47	4265
2026-01-06 13:23:46.72	127.49	13.69	-38.6	-40.1	19.1	0.00e+00	0	43	0	529530880	47	4311
2026-01-06 13:23:47.72	127.41	13.78	-38.5	-40.0	19.2	0.00e+00	0	43	0	536870912	47	4246
2026-01-06 13:23:48.73	127.33	13.88	-38.5	-40.1	19.2	0.00e+00	0	43	0	544210944	47	4293
2026-01-06 13:23:49.73	127.25	13.97	-38.6	-40.1	19.1	0.00e+00	0	44	0	551550976	46	4555
2026-01-06 13:23:50.73	127.16	14.07	-38.5	-40.0	19.2	0.00e+00	0	43	0	557842432	46	4544
2026-01-06 13:23:51.74	127.08	14.16	-38.6	-40.1	19.1	0.00e+00	0	43	0	565182464	46	4578
2026-01-06 13:23:52.74	127.00	14.26	-38.5	-40.0	19.2	0.00e+00	0	43	0	572522496	46	4539
2026-01-06 13:23:53.75	126.91	14.36	-38.6	-40.2	19.0	0.00e+00	0	43	0	579862528	46	4621
2026-01-06 13:23:54.75	126.83	14.45	-38.7	-40.2	19.0	0.00e+00	0	43	0	587202560	47	4389
2026-01-06 13:23:55.75	126.74	14.55	-38.5	-40.0	19.2	0.00e+00	0	43	0	594542592	47	4259
2026-01-06 13:23:56.76	126.66	14.64	-38.5	-40.0	19.2	0.00e+00	0	43	0	601882624	47	4284
2026-01-06 13:23:57.76	126.57	14.74	-38.4	-40.0	19.2	0.00e+00	0	43	0	609222656	47	4252
2026-01-06 13:23:58.77	126.48	14.84	-38.5	-40.1	19.1	0.00e+00	0	43	0	615514112	47	4335
2026-01-06 13:23:59.77	126.40	14.94	-38.4	-39.9	19.3	0.00e+00	0	43	0	622854144	46	4491
2026-01-06 13:24:00.77	126.31	15.03	-38.5	-40.0	19.2	0.00e+00	0	43	0	630194176	46	4525
2026-01-06 13:24:01.78	126.22	15.13	-38.4	-39.9	19.3	0.00e+00	0	43	0	637534208	46	4471
2026-01-06 13:24:02.78	126.13	15.23	-38.4	-39.9	19.3	0.00e+00	0	43	0	644874240	46	4475
2026-01-06 13:24:03.78	126.04	15.33	-38.2	-39.7	19.5	0.00e+00	0	43	0	652214272	46	4352
2026-01-06 13:24:04.78	125.95	15.43	-38.2	-39.7	19.5	0.00e+00	0	44	0	659554304	46	4361
2026-01-06 13:24:05.79	125.86	15.53	-38.1	-39.6	19.6	0.00e+00	0	43	0	666894336	46	4301
2026-01-06 13:24:06.79	125.77	15.63	-38.1	-39.6	19.6	0.00e+00	0	43	0	674234368	46	4300
2026-01-06 13:24:07.79	125.68	15.73	-38.1	-39.5	19.7	0.00e+00	0	43	0	681574400	46	4285
2026-01-06 13:24:08.79	125.59	15.83	-38.0	-39.5	19.7	0.00e+00	0	44	0	688914432	46	4246
2026-01-06 13:24:09.80	125.49	15.93	-38.1	-39.6	19.6	0.00e+00	0	44	0	696254464	46	4326
2026-01-06 13:24:10.80	125.40	16.03	-38.0	-39.5	19.7	0.00e+00	0	44	0	702545920	46	4259
2026-01-06 13:24:11.80	125.30	16.13	-38.0	-39.5	19.7	0.00e+00	0	43	0	709885952	46	4251
2026-01-06 13:24:12.81	125.21	16.24	-37.9	-39.4	19.8	0.00e+00	0	43	0	717225984	46	4207
2026-01-06 13:24:13.81	125.11	16.34	-38.0	-39.4	19.7	0.00e+00	0	44	0	724566016	46	4240
2026-01-06 13:24:14.81	125.01	16.44	-37.8	-39.3	19.9	0.00e+00	0	44	0	731906048	46	4156
2026-01-06 13:24:15.82	124.92	16.54	-37.9	-39.3	19.9	0.00e+00	0	44	0	739246080	46	4176
2026-01-06 13:24:16.82	124.82	16.65	-37.9	-39.4	19.8	0.00e+00	0	44	0	746586112	46	4199
2026-01-06 13:24:17.82	124.72	16.75	-37.8	-39.3	19.9	0.00e+00	0	43	0	753926144	46	4178
2026-01-06 13:24:18.83	124.62	16.86	-37.9	-39.4	19.8	0.00e+00	0	44	0	761266176	46	4215
2026-01-06 13:24:19.83	124.52	16.96	-37.8	-39.3	19.9	0.00e+00	0	43	0	768606208	46	4158
2026-01-06 13:24:20.83	124.42	17.06	-37.7	-39.2	20.0	0.00e+00	0	43	0	775946240	46	4121
2026-01-06 13:24:21.84	124.32	17.17	-37.8	-39.2	20.0	0.00e+00	0	44	0	783286272	46	4129
2026-01-06 13:24:22.84	124.21	17.27	-37.7	-39.2	20.0	0.00e+00	0	43	0	789577728	46	4103
2026-01-06 13:24:23.84	124.11	17.38	-37.8	-39.2	20.0	0.00e+00	0	44	0	796917760	46	4131
2026-01-06 13:24:24.85	124.01	17.49	-37.8	-39.2	20.0	0.00e+00	0	44	0	804257792	46	4125
2026-01-06 13:24:25.85	123.90	17.59	-37.7	-39.1	20.1	0.00e+00	0	44	0	811597824	45	4321
2026-01-06 13:24:26.86	123.80	17.70	-37.6	-39.0	20.2	0.00e+00	0	43	0	818937856	45	4276
2026-01-06 13:24:27.86	123.69	17.81	-37.7	-39.2	20.0	0.00e+00	0	44	0	826277888	45	4350
2026-01-06 13:24:28.86	123.58	17.92	-37.7	-39.2	20.0	0.00e+00	0	44	0	833617920	45	4353
2026-01-06 13:24:29.86	123.48	18.02	-37.6	-39.0	20.1	0.00e+00	0	44	0	840957952	45	4271
2026-01-06 13:24:30.87	123.37	18.13	-37.4	-38.8	20.3	0.00e+00	0	43	0	847249408	45	4151
2026-01-06 13:24:31.87	123.26	18.24	-37.4	-38.8	20.3	0.00e+00	0	44	0	854589440	45	4158
2026-01-06 13:24:32.87	123.15	18.35	-37.3	-38.7	20.4	0.00e+00	0	43	0	862978048	45	4133
2026-01-06 13:24:33.88	123.04	18.46	-37.2	-38.6	20.5	0.00e+00	0	43	0	869269504	45	4058
2026-01-06 13:24:34.88	122.93	18.57	-37.2	-38.6	20.5	0.00e+00	0	44	0	876609536	45	4077
2026-01-06 13:24:35.88	122.81	18.68	-37.2	-38.6	20.5	0.00e+00	0	44	0	883949568	45	4077
2026-01-06 13:24:36.89	122.70	18.79	-37.2	-38.6	20.5	0.00e+00	0	44	0	891289600	44	4312
2026-01-06 13:24:37.89	122.59	18.90	-37.2	-38.5	20.6	0.00e+00	0	44	0	898629632	44	4281
2026-01-06 13:24:38.89	122.47	19.01	-37.3	-38.7	20.5	0.00e+00	0	44	0	905969664	44	4344
2026-01-06 13:24:39.90	122.35	19.13	-37.0	-38.3	20.8	0.00e+00	0	43	0	913309696	44	4178
2026-01-06 13:24:40.90	122.24	19.24	-37.0	-38.4	20.7	0.00e+00	0	44	0	920649728	44	4208
2026-01-06 13:24:41.90	122.12	19.35	-36.9	-38.2	20.8	0.00e+00	0	44	0	927989760	44	4142
2026-01-06 13:24:42.91	122.00	19.46	-36.8	-38.1	20.9	0.00e+00	0	44	0	934281216	44	4085
2026-01-06 13:24:43.91	121.88	19.58	-36.8	-38.1	20.9	0.00e+00	0	43	0	941621248	44	4093
2026-01-06 13:24:44.92	121.76	19.69	-36.8	-38.1	20.9	0.00e+00	0	44	0	948961280	44	4093
2026-01-06 13:24:45.92	121.64	19.80	-36.8	-38.1	20.9	0.00e+00	0	43	0	956301312	44	4098
2026-01-06 13:24:46.93	121.52	19.92	-36.8	-38.2	20.9	0.00e+00	0	43	0	963641344	44	4120
2026-01-06 13:24:47.93	121.39	20.03	-36.9	-38.2	20.8	0.00e+00	0	44	0	970981376	44	4143
2026-01-06 13:24:48.93	121.27	20.15	-36.8	-38.2	20.9	0.00e+00	0	43	0	978321408	44	4126
2026-01-06 13:24:49.93	121.14	20.26	-36.9	-38.2	20.8	0.00e+00	0	43	0	985661440	44	4135
2026-01-06 13:24:50.94	121.02	20.38	-36.9	-38.3	20.8	0.00e+00	0	44	0	993001472	44	4160
2026-01-06 13:24:51.94	120.89	20.50	-37.0	-38.3	20.7	0.00e+00	0	44	0	1000341504	44	4190
2026-01-06 13:24:52.95	120.76	20.61	-36.9	-38.3	20.7	0.00e+00	0	43	0	1007681536	44	4191
2026-01-06 13:24:53.95	120.63	20.73	-36.8	-38.2	20.8	0.00e+00	0	44	0	1013972992	44	4145
2026-01-06 13:24:54.95	120.50	20.85	-36.8	-38.2	20.8	0.00e+00	0	44	0	1021313024	44	4132
2026-01-06 13:24:55.96	120.37	20.97	-36.8	-38.2	20.9	0.00e+00	0	44	0	1028653056	44	4102
2026-01-06 13:24:56.96	120.24	21.09	-36.4	-37.7	21.1	0.00e+00	0	43	0	1035993088	43	4134
2026-01-06 13:24:57.96	120.11	21.20	-36.5	-37.9	21.0	0.00e+00	0	44	0	1043333120	43	4199
2026-01-06 13:24:58.97	119.97	21.32	-36.4	-37.8	21.1	0.00e+00	0	44	0	1050673152	43	4158
2026-01-06 13:24:59.97	119.84	21.44	-36.5	-37.8	21.0	0.00e+00	0	44	0	1058013184	43	4192
2026-01-06 13:25:00.97	119.70	21.56	-36.5	-37.8	21.1	0.00e+00	0	44	0	1065353216	43	4191
2026-01-06 13:25:01.98	119.56	21.68	-35.9	-37.2	21.7	0.00e+00	0	44	0	1072693248	42	4102
2026-01-06 13:25:02.98	119.43	21.80	-36.1	-37.4	21.4	0.00e+00	0	44	0	1080033280	42	4200
2026-01-06 13:25:03.98	119.29	21.93	-36.1	-37.4	21.5	0.00e+00	0	44	0	1087373312	42	4208
2026-01-06 13:25:04.99	119.15	22.05	-36.3	-37.6	21.4	0.00e+00	0	44	0	1094713344	42	4293
2026-01-06 13:25:05.99	119.00	22.17	-36.1	-37.3	21.5	0.00e+00	0	44	0	1101004800	42	4186
2026-01-06 13:25:06.99	118.86	22.29	-35.9	-37.2	21.6	0.00e+00	0	44	0	1108344832	42	4128
2026-01-06 13:25:07.99	118.72	22.41	-36.0	-37.3	21.5	0.00e+00	0	44	0	1115684864	42	4177
2026-01-06 13:25:09.00	118.57	22.54	-36.1	-37.4	21.5	0.00e+00	0	44	0	1123024896	42	4223
2026-01-06 13:25:10.00	118.43	22.66	-36.1	-37.4	21.5	0.00e+00	0	44	0	1130364928	42	4206
2026-01-06 13:25:11.00	118.28	22.78	-36.1	-37.4	21.4	0.00e+00	0	44	0	1137704960	42	4229
2026-01-06 13:25:12.00	118.13	22.91	-36.2	-37.5	21.4	0.00e+00	0	44	0	1145044992	42	4281
2026-01-06 13:25:13.01	117.98	23.03	-36.2	-37.5	21.4	0.00e+00	0	44	0	1152385024	42	4254
2026-01-06 13:25:14.01	117.83	23.16	-36.2	-37.6	21.3	0.00e+00	0	44	0	1159725056	42	4308
2026-01-06 13:25:15.01	117.68	23.28	-36.4	-37.7	21.2	0.00e+00	0	44	0	1166016512	42	4365
2026-01-06 13:25:16.02	117.52	23.41	-36.3	-37.6	21.2	0.00e+00	0	44	0	1173356544	42	4325
2026-01-06 13:25:17.02	117.37	23.54	-36.3	-37.7	21.2	0.00e+00	0	44	0	1180696576	42	4341
2026-01-06 13:25:18.02	117.21	23.66	-36.2	-37.6	21.3	0.00e+00	0	44	0	1188036608	42	4303
2026-01-06 13:25:19.03	117.05	23.79	-36.3	-37.6	21.3	0.00e+00	0	44	0	1195376640	42	4329
2026-01-06 13:25:20.03	116.90	23.92	-36.5	-37.8	21.1	0.00e+00	0	44	0	1202716672	42	4439
2026-01-06 13:25:21.03	116.74	24.04	-36.3	-37.7	21.2	0.00e+00	0	44	0	1210056704	42	4370
2026-01-06 13:25:22.04	116.57	24.17	-36.3	-37.7	21.2	0.00e+00	0	44	0	1217396736	42	4353
2026-01-06 13:25:23.04	116.41	24.30	-36.1	-37.5	21.4	0.00e+00	0	44	0	1224736768	42	4245
2026-01-06 13:25:24.04	116.25	24.43	-36.3	-37.7	21.2	0.00e+00	0	44	0	1232076800	42	4361
2026-01-06 13:25:25.04	116.08	24.56	-36.2	-37.6	21.3	0.00e+00	0	44	0	1239416832	42	4298
2026-01-06 13:25:26.05	115.91	24.69	-36.3	-37.7	21.2	0.00e+00	0	44	0	1245708288	42	4343
2026-01-06 13:25:27.05	115.75	24.82	-36.3	-37.7	21.2	0.00e+00	0	44	0	1253048320	42	4341
2026-01-06 13:25:28.05	115.58	24.95	-36.1	-37.4	21.5	0.00e+00	0	44	0	1260388352	42	4220
2026-01-06 13:25:29.06	115.41	25.08	-36.1	-37.5	21.4	0.00e+00	0	44	0	1267728384	42	4257
2026-01-06 13:25:30.06	115.23	25.21	-36.1	-37.5	21.4	0.00e+00	0	44	0	1275068416	42	4250
2026-01-06 13:25:31.06	115.06	25.34	-36.0	-37.4	21.5	0.00e+00	0	44	0	1282408448	42	4213
2026-01-06 13:25:32.07	114.88	25.48	-36.0	-37.3	21.5	0.00e+00	0	44	0	1289748480	42	4187
2026-01-06 13:25:33.07	114.71	25.61	-35.9	-37.3	21.6	0.00e+00	0	44	0	1297088512	42	4150
2026-01-06 13:25:34.07	114.53	25.74	-36.1	-37.4	21.4	0.00e+00	0	44	0	1304428544	42	4221
2026-01-06 13:25:35.08	114.35	25.87	-36.0	-37.4	21.5	0.00e+00	0	44	0	1311768576	42	4205
2026-01-06 13:25:36.08	114.17	26.01	-36.1	-37.4	21.5	0.00e+00	0	44	0	1319108608	42	4224
2026-01-06 13:25:37.09	113.98	26.14	-36.1	-37.4	21.5	0.00e+00	0	44	0	1326448640	42	4241
2026-01-06 13:25:38.09	113.80	26.27	-36.2	-37.6	21.3	0.00e+00	0	44	0	1332740096	42	4313
2026-01-06 13:25:39.09	113.61	26.41	-36.3	-37.7	21.2	0.00e+00	0	44	0	1340080128	42	4383
2026-01-06 13:25:40.09	113.43	26.54	-36.3	-37.7	21.2	0.00e+00	0	44	0	1347420160	42	4349
2026-01-06 13:25:41.10	113.24	26.68	-36.5	-37.9	21.1	0.00e+00	0	44	0	1354760192	42	4453
2026-01-06 13:25:42.10	113.04	26.81	-36.4	-37.9	21.1	0.00e+00	0	44	0	1362100224	42	4444
2026-01-06 13:25:43.10	112.85	26.95	-36.8	-37.7	21.8	0.00e+00	0	44	0	1369440256	43	4136
2026-01-06 13:25:44.11	112.66	27.09	-36.9	-37.8	21.8	0.00e+00	0	44	0	1376780288	43	4152
2026-01-06 13:25:45.11	112.46	27.22	-36.8	-37.7	21.9	0.00e+00	0	44	0	1384120320	43	4130
2026-01-06 13:25:46.11	112.26	27.36	-36.8	-37.7	21.9	0.00e+00	0	44	0	1391460352	43	4112
2026-01-06 13:25:47.12	112.06	27.50	-36.8	-37.7	21.9	0.00e+00	0	44	0	1397751808	43	4109
2026-01-06 13:25:48.12	111.86	27.63	-36.8	-37.7	21.9	0.00e+00	0	44	0	1405091840	43	4123
2026-01-06 13:25:49.12	111.66	27.77	-37.0	-37.9	21.6	0.00e+00	0	44	0	1412431872	43	4232
2026-01-06 13:25:50.13	111.45	27.91	-36.7	-37.6	22.0	0.00e+00	0	44	0	1419771904	43	4052
2026-01-06 13:25:51.13	111.25	28.05	-36.5	-37.4	22.1	0.00e+00	0	44	0	1427111936	43	3988
2026-01-06 13:25:52.13	111.04	28.18	-36.5	-37.4	22.2	0.00e+00	0	44	0	1434451968	43	3968
2026-01-06 13:25:53.14	110.83	28.32	-36.6	-37.5	22.1	0.00e+00	0	44	0	1441792000	43	4009
2026-01-06 13:25:54.14	110.62	28.46	-36.8	-37.7	21.9	0.00e+00	0	44	0	1449132032	43	4114
2026-01-06 13:25:55.14	110.41	28.60	-36.5	-37.3	22.2	0.00e+00	0	44	0	1456472064	43	3944
2026-01-06 13:25:56.15	110.19	28.74	-36.4	-37.3	22.3	0.00e+00	0	44	0	1463812096	43	3926
2026-01-06 13:25:57.15	109.97	28.88	-36.3	-37.2	22.3	0.00e+00	0	44	0	1471152128	43	3887
2026-01-06 13:25:58.15	109.75	29.02	-36.3	-37.2	22.4	0.00e+00	0	44	0	1477443584	43	3878
2026-01-06 13:25:59.15	109.53	29.16	-36.1	-37.0	22.5	0.00e+00	0	44	0	1484783616	43	3787
2026-01-06 13:26:00.15	109.31	29.30	-36.1	-37.0	22.5	0.00e+00	0	44	0	1492123648	42	4022
2026-01-06 13:26:01.16	109.08	29.44	-36.1	-36.9	22.5	0.00e+00	0	44	0	1499463680	42	4004
2026-01-06 13:26:02.16	108.86	29.58	-36.2	-37.0	22.5	0.00e+00	0	44	0	1506803712	42	4031
2026-01-06 13:26:03.16	108.63	29.72	-36.1	-37.0	22.5	0.00e+00	0	44	0	1514143744	42	4019
2026-01-06 13:26:04.17	108.39	29.86	-36.1	-36.9	22.6	0.00e+00	0	44	0	1521483776	42	3999
2026-01-06 13:26:05.17	108.16	30.00	-35.9	-36.7	22.7	0.00e+00	0	44	0	1528823808	42	3913
2026-01-06 13:26:06.17	107.93	30.14	-35.9	-36.8	22.7	0.00e+00	0	44	0	1536163840	42	3930
2026-01-06 13:26:07.17	107.69	30.28	-35.9	-36.8	22.7	0.00e+00	0	44	0	1543503872	42	3918
2026-01-06 13:26:08.18	107.45	30.43	-35.9	-36.7	22.7	0.00e+00	0	44	0	1550843904	42	3907
2026-01-06 13:26:09.18	107.21	30.57	-35.8	-36.7	22.8	0.00e+00	0	44	0	1558183936	42	3882
2026-01-06 13:26:10.18	106.96	30.71	-36.0	-36.8	22.7	0.00e+00	0	44	0	1564475392	42	3934
2026-01-06 13:26:11.19	106.72	30.85	-36.0	-36.8	22.7	0.00e+00	0	44	0	1571815424	42	3945
2026-01-06 13:26:12.19	106.47	30.99	-36.1	-37.0	22.6	0.00e+00	0	44	0	1579155456	42	4016
2026-01-06 13:26:13.19	106.22	31.13	-36.1	-37.0	22.6	0.00e+00	0	44	0	1586495488	42	4005
2026-01-06 13:26:14.20	105.97	31.28	-36.0	-36.9	22.6	0.00e+00	0	44	0	1593835520	42	3963
2026-01-06 13:26:15.20	105.71	31.42	-36.1	-37.0	22.6	0.00e+00	0	44	0	1601175552	42	4021
2026-01-06 13:26:16.20	105.45	31.56	-36.1	-37.0	22.6	0.00e+00	0	44	0	1608515584	42	4017
2026-01-06 13:26:17.20	105.20	31.70	-36.3	-37.2	22.4	0.00e+00	0	44	0	1615855616	42	4108
2026-01-06 13:26:18.20	104.94	31.84	-36.3	-37.2	22.4	0.00e+00	0	44	0	1622147072	42	4110
2026-01-06 13:26:19.21	104.67	31.99	-36.3	-37.2	22.4	0.00e+00	0	44	0	1629487104	42	4114
2026-01-06 13:26:20.21	104.40	32.13	-36.3	-37.2	22.4	0.00e+00	0	44	0	1636827136	42	4124
2026-01-06 13:26:21.21	104.14	32.27	-36.3	-37.1	22.4	0.00e+00	0	44	0	1644167168	42	4087
2026-01-06 13:26:22.22	103.86	32.41	-36.3	-37.2	22.4	0.00e+00	0	43	0	1651507200	42	4109
2026-01-06 13:26:23.22	103.59	32.55	-36.5	-37.3	22.3	0.00e+00	0	44	0	1658847232	42	4186
2026-01-06 13:26:24.22	103.31	32.70	-36.5	-37.3	22.2	0.00e+00	0	44	0	1666187264	42	4192
2026-01-06 13:26:25.23	103.03	32.84	-36.3	-37.2	22.4	0.00e+00	0	44	0	1673527296	42	4110
2026-01-06 13:26:26.23	102.75	32.98	-36.2	-37.0	22.5	0.00e+00	0	44	0	1680867328	42	4034
2026-01-06 13:26:27.23	102.47	33.12	-36.0	-36.9	22.7	0.00e+00	0	44	0	1688207360	42	3970
2026-01-06 13:26:28.24	102.18	33.26	-36.0	-36.8	22.7	0.00e+00	0	44	0	1695547392	42	3932
2026-01-06 13:26:29.24	101.90	33.40	-35.8	-36.7	22.9	0.00e+00	0	44	0	1702887424	42	3884
2026-01-06 13:26:30.24	101.61	33.55	-35.9	-36.7	22.8	0.00e+00	0	44	0	1709178880	42	3902
2026-01-06 13:26:31.25	101.31	33.69	-36.0	-36.8	22.7	0.00e+00	0	44	0	1716518912	42	3929
2026-01-06 13:26:32.25	101.02	33.83	-35.9	-36.8	22.7	0.00e+00	0	44	0	1723858944	42	3925
2026-01-06 13:26:33.25	100.72	33.97	-36.0	-36.9	22.7	0.00e+00	0	44	0	1731198976	42	3962
2026-01-06 13:26:34.26	100.42	34.11	-36.1	-37.0	22.6	0.00e+00	0	44	0	1738539008	42	4012
2026-01-06 13:26:35.26	100.11	34.25	-36.2	-37.0	22.5	0.00e+00	0	44	0	1745879040	42	4043
2026-01-06 13:26:36.27	99.80	34.39	-36.2	-37.0	22.5	0.00e+00	0	44	0	1753219072	42	4043
2026-01-06 13:26:37.27	99.50	34.53	-36.2	-37.1	22.5	0.00e+00	0	44	0	1760559104	42	4073
2026-01-06 13:26:38.27	99.19	34.67	-36.1	-36.9	22.7	0.00e+00	0	44	0	1767899136	42	3981
2026-01-06 13:26:39.28	98.87	34.81	-35.9	-36.8	22.8	0.00e+00	0	44	0	1775239168	42	3918
2026-01-06 13:26:40.28	98.55	34.94	-35.9	-36.8	22.8	0.00e+00	0	44	0	1782579200	42	3932
2026-01-06 13:26:41.29	98.23	35.08	-36.0	-36.9	22.7	0.00e+00	0	44	0	1789919232	42	3965
2026-01-06 13:26:42.29	97.91	35.22	-35.9	-36.8	22.7	0.00e+00	0	44	0	1796210688	42	3934
2026-01-06 13:26:43.29	97.59	35.36	-36.1	-36.9	22.6	0.00e+00	0	44	0	1803550720	42	4004
2026-01-06 13:26:44.30	97.26	35.49	-36.1	-37.0	22.6	0.00e+00	0	44	0	1810890752	42	4009
2026-01-06 13:26:45.30	96.93	35.63	-36.3	-37.2	22.4	0.00e+00	0	44	0	1818230784	42	4125
2026-01-06 13:26:46.30	96.59	35.76	-36.2	-37.0	22.5	0.00e+00	0	44	0	1825570816	42	4049
2026-01-06 13:26:47.31	96.26	35.90	-36.2	-37.1	22.5	0.00e+00	0	44	0	1832910848	42	4077
2026-01-06 13:26:48.31	95.92	36.03	-36.2	-37.1	22.5	0.00e+00	0	44	0	1840250880	42	4071
2026-01-06 13:26:49.31	95.58	36.17	-36.3	-37.1	22.5	0.00e+00	0	44	0	1847590912	42	4085
2026-01-06 13:26:50.32	95.23	36.30	-36.3	-37.1	22.5	0.00e+00	0	44	0	1853882368	42	4092
2026-01-06 13:26:51.32	94.88	36.43	-36.4	-37.2	22.3	0.00e+00	0	44	0	1861222400	42	4145
2026-01-06 13:26:52.32	94.53	36.56	-36.2	-37.1	22.5	0.00e+00	0	44	0	1868562432	42	4068
2026-01-06 13:26:53.33	94.18	36.70	-36.2	-37.1	22.5	0.00e+00	0	44	0	1875902464	42	4052
2026-01-06 13:26:54.33	93.82	36.83	-36.3	-37.1	22.5	0.00e+00	0	44	0	1883242496	42	4084
2026-01-06 13:26:55.33	93.47	36.96	-36.2	-37.0	22.6	0.00e+00	0	44	0	1890582528	42	4023
2026-01-06 13:26:56.34	93.10	37.09	-36.2	-37.0	22.6	0.00e+00	0	44	0	1897922560	42	4035
2026-01-06 13:26:57.34	92.74	37.21	-36.0	-36.8	22.7	0.00e+00	0	44	0	1905262592	42	3946
2026-01-06 13:26:58.35	92.37	37.34	-35.9	-36.8	22.8	0.00e+00	0	44	0	1912602624	42	3917
2026-01-06 13:26:59.35	92.00	37.47	-35.9	-36.7	22.8	0.00e+00	0	44	0	1919942656	42	3905
2026-01-06 13:27:00.36	91.62	37.59	-35.9	-36.8	22.8	0.00e+00	0	44	0	1927282688	42	3922
2026-01-06 13:27:01.36	91.25	37.72	-36.1	-37.0	22.6	0.00e+00	0	44	0	1934622720	42	4014
2026-01-06 13:27:02.36	90.87	37.84	-36.2	-37.1	22.4	0.00e+00	0	44	0	1940914176	42	4054
2026-01-06 13:27:03.37	90.48	37.96	-36.6	-37.5	22.2	0.00e+00	0	44	0	1948254208	42	4265
2026-01-06 13:27:04.37	90.10	38.08	-36.7	-37.6	22.0	0.00e+00	0	44	0	1955594240	43	4083
2026-01-06 13:27:05.37	89.71	38.20	-36.7	-37.6	22.1	0.00e+00	0	44	0	1962934272	43	4068
2026-01-06 13:27:06.38	89.32	38.32	-36.6	-37.5	22.2	0.00e+00	0	44	0	1970274304	43	4006
2026-01-06 13:27:07.38	88.93	38.44	-36.4	-37.3	22.3	0.00e+00	0	44	0	1977614336	43	3941
2026-01-06 13:27:08.38	88.53	38.56	-36.4	-37.3	22.4	0.00e+00	0	44	0	1984954368	43	3915
2026-01-06 13:27:09.38	88.14	38.67	-36.2	-37.1	22.5	0.00e+00	0	44	0	1992294400	43	3833
2026-01-06 13:27:10.38	87.74	38.79	-36.2	-37.1	22.5	0.00e+00	0	44	0	1999634432	43	3832
2026-01-06 13:27:11.39	87.33	38.90	-36.2	-37.1	22.5	0.00e+00	0	44	0	2006974464	43	3839
2026-01-06 13:27:12.39	86.92	39.02	-36.1	-37.0	22.6	0.00e+00	0	44	0	2014314496	43	3799
2026-01-06 13:27:13.39	86.51	39.13	-36.2	-37.1	22.5	0.00e+00	0	44	0	2021654528	43	3835
2026-01-06 13:27:14.40	86.10	39.24	-36.2	-37.1	22.5	0.00e+00	0	44	0	2027945984	43	3834
2026-01-06 13:27:15.40	85.68	39.34	-36.4	-37.2	22.4	0.00e+00	0	44	0	2035286016	43	3911
2026-01-06 13:27:16.40	85.26	39.45	-36.5	-37.4	22.3	0.00e+00	0	44	0	2042626048	43	3969
2026-01-06 13:27:17.41	84.84	39.56	-36.5	-37.4	22.3	0.00e+00	0	44	0	2049966080	43	3972
2026-01-06 13:27:18.41	84.42	39.66	-36.5	-37.4	22.2	0.00e+00	0	44	0	2057306112	43	3990
2026-01-06 13:27:19.41	83.99	39.76	-36.7	-37.5	22.1	0.00e+00	0	44	0	2064646144	43	4051
2026-01-06 13:27:20.42	83.56	39.86	-36.7	-37.6	22.0	0.00e+00	0	44	0	2071986176	43	4096
2026-01-06 13:27:21.42	83.13	39.96	-36.7	-37.6	22.1	0.00e+00	0	44	0	2079326208	43	4073
2026-01-06 13:27:22.42	82.69	40.06	-36.6	-37.5	22.2	0.00e+00	0	44	0	2086666240	43	4016
2026-01-06 13:27:23.43	82.25	40.16	-36.7	-37.6	22.1	0.00e+00	0	44	0	2094006272	43	4063
2026-01-06 13:27:24.43	81.82	40.25	-36.5	-37.4	22.3	0.00e+00	0	44	0	2101346304	43	3982
2026-01-06 13:27:25.43	81.37	40.34	-36.5	-37.4	22.2	0.00e+00	0	44	0	2107637760	43	3974
2026-01-06 13:27:26.44	80.93	40.44	-36.3	-37.2	22.4	0.00e+00	0	44	0	2114977792	43	3878
2026-01-06 13:27:27.44	80.48	40.52	-36.1	-37.0	22.6	0.00e+00	0	44	0	2122317824	42	4020
2026-01-06 13:27:28.44	80.03	40.61	-36.2	-37.0	22.6	0.00e+00	0	44	0	2129657856	42	4031
2026-01-06 13:27:29.45	79.58	40.70	-36.2	-37.0	22.6	0.00e+00	0	44	0	2136997888	42	4036
2026-01-06 13:27:30.45	79.12	40.78	-36.2	-37.0	22.6	0.00e+00	0	44	0	2144337920	42	4039
2026-01-06 13:27:31.45	78.67	40.86	-36.4	-37.2	22.4	0.00e+00	0	44	0	2151677952	42	4126
2026-01-06 13:27:32.45	78.21	40.94	-36.2	-37.1	22.5	0.00e+00	0	44	0	2159017984	42	4068
2026-01-06 13:27:33.46	77.74	41.02	-36.4	-37.3	22.4	0.00e+00	0	44	0	2166358016	42	4148
2026-01-06 13:27:34.46	77.28	41.10	-36.4	-37.2	22.4	0.00e+00	0	44	0	2172649472	42	4122
2026-01-06 13:27:35.46	76.82	41.17	-36.4	-37.3	22.4	0.00e+00	0	44	0	2179989504	42	4148
2026-01-06 13:27:36.46	76.35	41.24	-36.4	-37.2	22.4	0.00e+00	0	44	0	2187329536	42	4131
2026-01-06 13:27:37.47	75.88	41.31	-36.3	-37.2	22.5	0.00e+00	0	44	0	2194669568	42	4106
2026-01-06 13:27:38.47	75.40	41.38	-36.3	-37.2	22.5	0.00e+00	0	44	0	2202009600	42	4102
2026-01-06 13:27:39.48	74.93	41.45	-36.3	-37.1	22.5	0.00e+00	0	44	0	2209349632	42	4074
2026-01-06 13:27:40.48	74.45	41.51	-36.5	-37.3	22.4	0.00e+00	0	44	0	2216689664	42	4168
2026-01-06 13:27:41.48	73.98	41.57	-36.5	-37.4	22.3	0.00e+00	0	44	0	2224029696	42	4202
2026-01-06 13:27:42.49	73.49	41.63	-36.7	-37.5	22.1	0.00e+00	0	44	0	2231369728	42	4286
2026-01-06 13:27:43.49	73.01	41.69	-36.6	-37.4	22.2	0.00e+00	0	44	0	2238709760	42	4236
2026-01-06 13:27:44.49	72.53	41.75	-36.5	-37.4	22.3	0.00e+00	0	44	0	2246049792	42	4201
2026-01-06 13:27:45.50	72.04	41.80	-36.4	-37.2	22.4	0.00e+00	0	44	0	2252341248	42	4135
2026-01-06 13:27:46.50	71.56	41.85	-36.4	-37.2	22.4	0.00e+00	0	44	0	2259681280	42	4124
2026-01-06 13:27:47.50	71.07	41.90	-36.5	-37.4	22.3	0.00e+00	0	44	0	2267021312	42	4229
2026-01-06 13:27:48.50	70.58	41.95	-36.1	-37.0	22.6	0.00e+00	0	44	0	2274361344	42	4014
2026-01-06 13:27:49.51	70.09	41.99	-36.0	-36.8	22.8	0.00e+00	0	44	0	2281701376	42	3943
2026-01-06 13:27:50.51	69.60	42.03	-36.0	-36.8	22.8	0.00e+00	0	44	0	2289041408	42	3938
2026-01-06 13:27:51.51	69.11	42.07	-36.1	-36.9	22.7	0.00e+00	0	44	0	2296381440	42	3987
2026-01-06 13:27:52.52	68.61	42.11	-36.1	-36.9	22.7	0.00e+00	0	44	0	2303721472	42	3980
2026-01-06 13:27:53.52	68.12	42.14	-36.0	-36.9	22.7	0.00e+00	0	44	0	2311061504	42	3960
2026-01-06 13:27:54.52	67.62	42.17	-36.0	-36.8	22.7	0.00e+00	0	44	0	2317352960	42	3948
2026-01-06 13:27:55.52	67.12	42.20	-36.1	-36.9	22.7	0.00e+00	0	44	0	2325741568	42	3982
2026-01-06 13:27:56.53	66.62	42.23	-36.2	-37.0	22.6	0.00e+00	0	44	0	2333081600	42	4041
2026-01-06 13:27:57.53	66.12	42.26	-36.4	-37.2	22.4	0.00e+00	0	44	0	2339373056	42	4140
2026-01-06 13:27:58.54	65.62	42.28	-36.5	-37.3	22.4	0.00e+00	0	44	0	2346713088	42	4170
2026-01-06 13:27:59.54	65.12	42.30	-36.2	-37.0	22.6	0.00e+00	0	44	0	2354053120	42	4033
2026-01-06 13:28:00.54	64.62	42.31	-36.3	-37.1	22.5	0.00e+00	0	44	0	2361393152	42	4085
2026-01-06 13:28:01.55	64.12	42.33	-36.1	-37.0	22.6	0.00e+00	0	44	0	2368733184	42	4011
2026-01-06 13:28:02.55	63.62	42.34	-36.1	-37.0	22.7	0.00e+00	0	44	0	2376073216	42	4014
2026-01-06 13:28:03.55	63.12	42.35	-36.1	-36.9	22.7	0.00e+00	0	44	0	2383413248	42	4004
2026-01-06 13:28:04.56	62.61	42.36	-36.2	-37.0	22.6	0.00e+00	0	44	0	2390753280	42	4042
2026-01-06 13:28:05.56	62.11	42.37	-36.3	-37.1	22.5	0.00e+00	0	44	0	2398093312	42	4084
2026-01-06 13:28:06.56	61.61	42.37	-36.3	-37.1	22.5	0.00e+00	0	44	0	2404384768	42	4081
2026-01-06 13:28:07.57	61.10	42.37	-36.2	-37.1	22.5	0.00e+00	0	44	0	2411724800	42	4068
2026-01-06 13:28:08.57	60.60	42.37	-36.1	-37.0	22.6	0.00e+00	0	44	0	2419064832	42	4009
2026-01-06 13:28:09.57	60.10	42.36	-36.1	-36.9	22.7	0.00e+00	0	44	0	2426404864	42	4004
2026-01-06 13:28:10.58	59.59	42.35	-36.1	-36.9	22.7	0.00e+00	0	44	0	2433744896	42	3976
2026-01-06 13:28:11.58	59.09	42.34	-35.9	-36.8	22.8	0.00e+00	0	44	0	2441084928	42	3921
2026-01-06 13:28:12.58	58.59	42.33	-36.0	-36.8	22.8	0.00e+00	0	44	0	2448424960	42	3943
2026-01-06 13:28:13.59	58.09	42.32	-36.0	-36.8	22.8	0.00e+00	0	44	0	2455764992	42	3951
2026-01-06 13:28:14.59	57.59	42.30	-36.1	-36.9	22.7	0.00e+00	0	44	0	2463105024	42	3989
2026-01-06 13:28:15.59	57.09	42.28	-36.2	-37.0	22.6	0.00e+00	0	44	0	2470445056	42	4051
2026-01-06 13:28:16.60	56.59	42.26	-36.3	-37.1	22.5	0.00e+00	0	44	0	2477785088	42	4085
2026-01-06 13:28:17.60	56.09	42.23	-36.3	-37.1	22.5	0.00e+00	0	44	0	2484076544	42	4095
2026-01-06 13:28:18.60	55.59	42.21	-36.5	-37.4	22.3	0.00e+00	0	44	0	2491416576	42	4214
2026-01-06 13:28:19.60	55.10	42.18	-36.5	-37.3	22.3	0.00e+00	0	44	0	2498756608	42	4191
2026-01-06 13:28:20.61	54.60	42.14	-36.5	-37.4	22.3	0.00e+00	0	44	0	2506096640	42	4204
2026-01-06 13:28:21.61	54.10	42.11	-36.7	-37.5	22.2	0.00e+00	0	44	0	2513436672	42	4272
2026-01-06 13:28:22.61	53.61	42.07	-36.4	-37.2	22.4	0.00e+00	0	44	0	2520776704	42	4144
2026-01-06 13:28:23.61	53.12	42.04	-36.3	-37.1	22.6	0.00e+00	0	44	0	2528116736	42	4070
2026-01-06 13:28:24.61	52.63	41.99	-36.4	-37.2	22.4	0.00e+00	0	44	0	2535456768	42	4138
2026-01-06 13:28:25.62	52.13	41.95	-36.4	-37.3	22.4	0.00e+00	0	44	0	2542796800	42	4176
2026-01-06 13:28:26.62	51.65	41.90	-36.5	-37.4	22.3	0.00e+00	0	44	0	2550136832	42	4214
2026-01-06 13:28:27.62	51.16	41.86	-36.5	-37.3	22.4	0.00e+00	0	44	0	2557476864	42	4181
2026-01-06 13:28:28.63	50.67	41.81	-36.2	-37.1	22.6	0.00e+00	0	44	0	2564816896	42	4068
2026-01-06 13:28:29.63	50.19	41.75	-36.2	-37.0	22.6	0.00e+00	0	44	0	2571108352	42	4027
2026-01-06 13:28:30.63	49.71	41.70	-36.2	-37.1	22.5	0.00e+00	0	44	0	2578448384	42	4068
2026-01-06 13:28:31.63	49.23	41.64	-36.2	-37.1	22.6	0.00e+00	0	44	0	2585788416	42	4053
2026-01-06 13:28:32.64	48.74	41.58	-36.3	-37.1	22.5	0.00e+00	0	44	0	2593128448	42	4082
2026-01-06 13:28:33.64	48.27	41.52	-36.3	-37.1	22.5	0.00e+00	0	44	0	2600468480	42	4091
2026-01-06 13:28:34.64	47.79	41.46	-36.2	-37.0	22.6	0.00e+00	0	44	0	2607808512	42	4037
2026-01-06 13:28:35.64	47.32	41.39	-36.0	-36.8	22.7	0.00e+00	0	44	0	2615148544	42	3955
2026-01-06 13:28:36.64	46.85	41.32	-35.9	-36.8	22.8	0.00e+00	0	44	0	2622488576	42	3918
2026-01-06 13:28:37.65	46.38	41.25	-36.0	-36.9	22.8	0.00e+00	0	44	0	2629828608	42	3969
2026-01-06 13:28:38.65	45.91	41.18	-35.9	-36.7	22.9	0.00e+00	0	44	0	2636120064	42	3913
2026-01-06 13:28:39.65	45.45	41.11	-35.9	-36.8	22.8	0.00e+00	0	44	0	2643460096	42	3927
2026-01-06 13:28:40.66	44.98	41.03	-36.0	-36.9	22.8	0.00e+00	0	44	0	2650800128	42	3961
2026-01-06 13:28:41.66	44.52	40.95	-36.1	-36.9	22.7	0.00e+00	0	44	0	2658140160	42	3993
2026-01-06 13:28:42.66	44.06	40.87	-36.1	-37.0	22.7	0.00e+00	0	44	0	2665480192	42	4018
2026-01-06 13:28:43.67	43.60	40.79	-36.1	-37.0	22.7	0.00e+00	0	44	0	2672820224	42	4015
2026-01-06 13:28:44.67	43.15	40.71	-36.0	-36.8	22.8	0.00e+00	0	44	0	2680160256	42	3930
2026-01-06 13:28:45.67	42.70	40.62	-35.9	-36.7	22.9	0.00e+00	0	44	0	2687500288	42	3887
2026-01-06 13:28:46.68	42.25	40.54	-36.0	-36.8	22.8	0.00e+00	0	44	0	2694840320	42	3927
2026-01-06 13:28:47.68	41.80	40.45	-35.7	-36.5	23.0	0.00e+00	0	44	0	2702180352	42	3823
2026-01-06 13:28:48.68	41.36	40.36	-35.9	-36.8	22.8	0.00e+00	0	44	0	2709520384	42	3920
2026-01-06 13:28:49.68	40.92	40.27	-36.0	-36.9	22.7	0.00e+00	0	44	0	2715811840	42	3963
2026-01-06 13:28:50.69	40.47	40.17	-36.1	-37.0	22.7	0.00e+00	0	44	0	2723151872	42	4015
2026-01-06 13:28:51.69	40.04	40.08	-36.2	-37.1	22.6	0.00e+00	0	44	0	2730491904	42	4065
2026-01-06 13:28:52.69	39.61	39.98	-36.1	-37.0	22.7	0.00e+00	0	44	0	2737831936	42	4019
2026-01-06 13:28:53.70	39.17	39.88	-36.0	-36.9	22.7	0.00e+00	0	44	0	2745171968	42	3970
2026-01-06 13:28:54.70	38.74	39.78	-36.1	-37.0	22.6	0.00e+00	0	44	0	2752512000	42	4015
2026-01-06 13:28:55.70	38.32	39.68	-36.2	-37.1	22.6	0.00e+00	0	44	0	2759852032	42	4052
2026-01-06 13:28:56.71	37.89	39.57	-36.2	-37.1	22.5	0.00e+00	0	44	0	2767192064	42	4065
2026-01-06 13:28:57.71	37.47	39.47	-36.5	-37.4	22.3	0.00e+00	0	44	0	2774532096	42	4221
2026-01-06 13:28:58.71	37.06	39.36	-36.4	-37.3	22.3	0.00e+00	0	44	0	2780823552	42	4174
2026-01-06 13:28:59.72	36.64	39.25	-36.4	-37.3	22.3	0.00e+00	0	44	0	2788163584	42	4170
2026-01-06 13:29:00.72	36.23	39.15	-36.5	-37.4	22.2	0.00e+00	0	44	0	2795503616	42	4204
2026-01-06 13:29:01.73	35.81	39.03	-36.2	-37.0	22.5	0.00e+00	0	44	0	2802843648	42	4030
2026-01-06 13:29:02.73	35.41	38.92	-36.1	-36.9	22.7	0.00e+00	0	44	0	2810183680	42	3982
2026-01-06 13:29:03.73	35.01	38.81	-36.3	-37.1	22.5	0.00e+00	0	44	0	2817523712	42	4075
2026-01-06 13:29:04.74	34.60	38.70	-36.3	-37.2	22.4	0.00e+00	0	44	0	2824863744	42	4116
2026-01-06 13:29:05.74	34.20	38.58	-36.4	-37.2	22.3	0.00e+00	0	44	0	2832203776	42	4143
2026-01-06 13:29:06.75	33.81	38.46	-36.2	-37.0	22.5	0.00e+00	0	44	0	2839543808	42	4046
2026-01-06 13:29:07.75	33.41	38.35	-36.1	-36.9	22.6	0.00e+00	0	44	0	2846883840	42	4001
2026-01-06 13:29:08.75	33.03	38.23	-36.1	-37.0	22.6	0.00e+00	0	44	0	2854223872	42	4008
2026-01-06 13:29:09.76	32.64	38.11	-35.9	-36.7	22.8	0.00e+00	0	44	0	2860515328	42	3907
2026-01-06 13:29:10.76	32.25	37.99	-36.0	-36.8	22.7	0.00e+00	0	44	0	2867855360	42	3951
2026-01-06 13:29:11.77	31.87	37.86	-36.0	-36.9	22.7	0.00e+00	0	44	0	2875195392	42	3972
2026-01-06 13:29:12.77	31.49	37.74	-36.2	-37.0	22.6	0.00e+00	0	44	0	2882535424	42	4033
2026-01-06 13:29:13.77	31.12	37.62	-36.4	-37.2	22.4	0.00e+00	0	44	0	2889875456	42	4135
2026-01-06 13:29:14.78	30.74	37.49	-36.4	-37.2	22.4	0.00e+00	0	44	0	2897215488	42	4134
2026-01-06 13:29:15.78	30.37	37.37	-36.2	-37.1	22.5	0.00e+00	0	44	0	2904555520	42	4052
2026-01-06 13:29:16.78	30.01	37.24	-36.1	-37.0	22.6	0.00e+00	0	44	0	2911895552	42	4013
2026-01-06 13:29:17.78	29.65	37.11	-35.9	-36.8	22.7	0.00e+00	0	44	0	2919235584	42	3922
2026-01-06 13:29:18.78	29.29	36.98	-36.0	-36.8	22.7	0.00e+00	0	44	0	2926575616	42	3940
2026-01-06 13:29:19.79	28.92	36.85	-35.9	-36.8	22.8	0.00e+00	0	44	0	2933915648	42	3923
2026-01-06 13:29:20.79	28.57	36.73	-35.9	-36.7	22.8	0.00e+00	0	44	0	2941255680	42	3906
2026-01-06 13:29:21.80	28.22	36.59	-35.9	-36.7	22.8	0.00e+00	0	44	0	2947547136	42	3899
2026-01-06 13:29:22.80	27.87	36.46	-35.8	-36.6	22.8	0.00e+00	0	44	0	2954887168	42	3838
2026-01-06 13:29:23.80	27.52	36.33	-35.8	-36.6	22.9	0.00e+00	0	44	0	2962227200	42	3859
2026-01-06 13:29:24.81	27.18	36.20	-35.9	-36.7	22.8	0.00e+00	0	44	0	2969567232	42	3895
2026-01-06 13:29:25.81	26.83	36.07	-36.0	-36.8	22.8	0.00e+00	0	44	0	2976907264	42	3944
2026-01-06 13:29:26.82	26.49	35.93	-36.1	-36.9	22.7	0.00e+00	0	44	0	2984247296	42	3985
2026-01-06 13:29:27.82	26.16	35.80	-36.1	-36.9	22.7	0.00e+00	0	44	0	2991587328	42	4003
2026-01-06 13:29:28.82	25.83	35.66	-36.1	-37.0	22.6	0.00e+00	0	44	0	2998927360	42	4010
2026-01-06 13:29:29.83	25.50	35.53	-36.1	-36.9	22.7	0.00e+00	0	44	0	3006267392	42	3989
2026-01-06 13:29:30.83	25.17	35.39	-36.0	-36.8	22.7	0.00e+00	0	44	0	3013607424	42	3940
2026-01-06 13:29:31.84	24.84	35.25	-35.8	-36.6	22.9	0.00e+00	0	44	0	3020947456	42	3856
2026-01-06 13:29:32.84	24.52	35.12	-35.8	-36.6	22.9	0.00e+00	0	44	0	3028287488	42	3857
2026-01-06 13:29:33.84	24.20	34.98	-35.7	-36.5	22.7	0.00e+00	0	44	0	3034578944	42	3812
2026-01-06 13:29:34.85	23.89	34.84	-35.8	-36.6	23.0	0.00e+00	0	44	0	3041918976	42	3841
2026-01-06 13:29:35.85	23.57	34.70	-35.8	-36.6	23.0	0.00e+00	0	44	0	3049259008	42	3844
2026-01-06 13:29:36.85	23.26	34.57	-35.9	-36.7	22.8	0.00e+00	0	44	0	3056599040	42	3913
2026-01-06 13:29:37.85	22.96	34.43	-36.1	-37.0	22.6	0.00e+00	0	44	0	3063939072	42	4030
2026-01-06 13:29:38.86	22.65	34.29	-35.9	-36.7	22.8	0.00e+00	0	44	0	3071279104	42	3912
2026-01-06 13:29:39.86	22.35	34.15	-36.0	-36.8	22.7	0.00e+00	0	44	0	3078619136	42	3950
2026-01-06 13:29:40.86	22.05	34.01	-36.0	-36.8	22.7	0.00e+00	0	44	0	3085959168	42	3949
2026-01-06 13:29:41.87	21.75	33.87	-36.0	-36.8	22.7	0.00e+00	0	44	0	3092250624	42	3943
2026-01-06 13:29:42.87	21.45	33.73	-36.0	-36.9	22.7	0.00e+00	0	44	0	3099590656	42	3963
2026-01-06 13:29:43.87	21.16	33.59	-35.8	-36.7	22.7	0.00e+00	0	44	0	3107979264	42	3884
2026-01-06 13:29:44.88	20.87	33.45	-35.9	-36.7	22.8	0.00e+00	0	44	0	3114270720	42	3909
2026-01-06 13:29:45.88	20.58	33.31	-35.9	-36.8	22.8	0.00e+00	0	44	0	3121610752	42	3917
2026-01-06 13:29:46.89	20.29	33.16	-36.0	-36.8	22.8	0.00e+00	0	44	0	3128950784	42	3939
2026-01-06 13:29:47.89	20.01	33.02	-36.0	-36.9	22.7	0.00e+00	0	44	0	3136290816	42	3970
2026-01-06 13:29:48.89	19.73	32.88	-36.1	-36.9	22.7	0.00e+00	0	44	0	3143630848	42	3983
2026-01-06 13:29:49.90	19.45	32.74	-36.0	-36.8	22.8	0.00e+00	0	44	0	3150970880	42	3954
2026-01-06 13:29:50.90	19.18	32.60	-35.8	-36.7	22.9	0.00e+00	0	44	0	3158310912	42	3885
2026-01-06 13:29:51.90	18.91	32.46	-35.9	-36.7	22.9	0.00e+00	0	44	0	3165650944	42	3894
2026-01-06 13:29:52.91	18.64	32.32	-35.8	-36.6	22.9	0.00e+00	0	44	0	3172990976	42	3853
2026-01-06 13:29:53.91	18.37	32.18	-35.6	-36.5	23.0	0.00e+00	0	44	0	3179282432	42	3785
2026-01-06 13:29:54.91	18.10	32.03	-35.7	-36.5	23.0	0.00e+00	0	44	0	3186622464	41	4031
2026-01-06 13:29:55.92	17.84	31.89	-35.7	-36.5	22.9	0.00e+00	0	44	0	3193962496	41	4047
2026-01-06 13:29:56.92	17.58	31.75	-35.9	-36.8	22.7	0.00e+00	0	44	0	3201302528	41	4161
2026-01-06 13:29:57.92	17.32	31.61	-36.1	-36.9	22.6	0.00e+00	0	44	0	3208642560	41	4222
2026-01-06 13:29:58.93	17.06	31.47	-36.2	-37.0	22.6	0.00e+00	0	44	0	3215982592	41	4282
2026-01-06 13:29:59.93	16.81	31.33	-36.2	-37.0	22.5	0.00e+00	0	44	0	3223322624	41	4270
2026-01-06 13:30:00.93	16.56	31.19	-36.3	-37.2	22.4	0.00e+00	0	44	0	3230662656	42	4127
2026-01-06 13:30:01.93	16.31	31.04	-36.4	-37.3	22.3	0.00e+00	0	44	0	3238002688	42	4181
2026-01-06 13:30:02.94	16.06	30.90	-36.5	-37.4	22.3	0.00e+00	0	44	0	3245342720	42	4227
2026-01-06 13:30:03.94	15.81	30.76	-36.5	-37.4	22.2	0.00e+00	0	44	0	3252682752	42	4203
2026-01-06 13:30:04.95	15.57	30.62	-36.3	-37.2	22.3	0.00e+00	0	44	0	3258974208	42	4108
2026-01-06 13:30:05.95	15.33	30.48	-36.3	-37.1	22.5	0.00e+00	0	44	0	3266314240	42	4094
2026-01-06 13:30:06.95	15.09	30.34	-36.2	-37.0	22.5	0.00e+00	0	44	0	3273654272	42	4051
2026-01-06 13:30:07.96	14.85	30.20	-36.1	-36.9	22.7	0.00e+00	0	44	0	3280994304	42	3985
2026-01-06 13:30:08.96	14.62	30.06	-36.1	-36.9	22.7	0.00e+00	0	44	0	3288334336	42	3995
2026-01-06 13:30:09.97	14.38	29.91	-36.0	-36.9	22.7	0.00e+00	0	44	0	3295674368	42	3961
2026-01-06 13:30:10.97	14.16	29.77	-36.1	-36.9	22.7	0.00e+00	0	44	0	3303014400	42	3990
2026-01-06 13:30:11.97	13.93	29.64	-36.0	-36.9	22.7	0.00e+00	0	44	0	3310354432	42	3969
2026-01-06 13:30:12.98	13.70	29.49	-36.0	-36.8	22.8	0.00e+00	0	44	0	3317694464	42	3945
2026-01-06 13:30:13.98	13.48	29.35	-36.1	-36.9	22.7	0.00e+00	0	44	0	3325034496	42	3989
2026-01-06 13:30:14.98	13.25	29.22	-36.1	-37.0	22.6	0.00e+00	0	44	0	3332374528	42	4019
2026-01-06 13:30:15.99	13.03	29.08	-36.2	-37.0	22.5	0.00e+00	0	44	0	3339714560	42	4043
2026-01-06 13:30:16.99	12.81	28.94	-36.3	-37.1	22.5	0.00e+00	0	44	0	3346006016	42	4084
2026-01-06 13:30:18.00	12.59	28.80	-36.4	-37.2	22.4	0.00e+00	0	44	0	3353346048	42	4127
2026-01-06 13:30:19.00	12.38	28.66	-36.4	-37.3	22.3	0.00e+00	0	44	0	3360686080	42	4170
2026-01-06 13:30:20.00	12.17	28.52	-36.4	-37.3	22.3	0.00e+00	0	44	0	3368026112	42	4172
2026-01-06 13:30:21.01	11.96	28.38	-36.4	-37.3	22.3	0.00e+00	0	44	0	3375366144	42	4165
2026-01-06 13:30:22.01	11.75	28.24	-36.4	-37.2	22.4	0.00e+00	0	44	0	3382706176	42	4141
2026-01-06 13:30:23.01	11.54	28.11	-36.4	-37.3	22.3	0.00e+00	0	44	0	3390046208	42	4175
2026-01-06 13:30:24.02	11.33	27.97	-36.5	-37.3	22.3	0.00e+00	0	44	0	3397386240	42	4188
2026-01-06 13:30:25.02	11.13	27.83	-36.6	-37.5	22.1	0.00e+00	0	44	0	3404726272	42	4267
2026-01-06 13:30:26.02	10.93	27.70	-36.7	-37.6	22.0	0.00e+00	0	44	0	3412066304	42	4321
2026-01-06 13:30:27.03	10.73	27.56	-36.7	-37.5	22.1	0.00e+00	0	44	0	3419406336	42	4285
2026-01-06 13:30:28.03	10.53	27.42	-36.6	-37.5	22.1	0.00e+00	0	44	0	3426746368	42	4270
2026-01-06 13:30:29.03	10.33	27.29	-36.6	-37.5	22.1	0.00e+00	0	44	0	3433037824	42	4245
2026-01-06 13:30:30.04	10.14	27.15	-36.5	-37.4	22.2	0.00e+00	0	44	0	3440377856	42	4225
2026-01-06 13:30:31.04	9.94	27.01	-36.5	-37.4	22.2	0.00e+00	0	44	0	3447717888	42	4213
2026-01-06 13:30:32.04	9.75	26.88	-36.5	-37.3	22.3	0.00e+00	0	44	0	3455057920	42	4191
2026-01-06 13:30:33.05	9.56	26.74	-36.5	-37.4	22.3	0.00e+00	0	44	0	3462397952	42	4197
2026-01-06 13:30:34.05	9.37	26.61	-36.5	-37.4	22.3	0.00e+00	0	44	0	3469737984	42	4204
2026-01-06 13:30:35.05	9.18	26.48	-36.6	-37.4	22.2	0.00e+00	0	44	0	3477078016	42	4234
2026-01-06 13:30:36.06	9.00	26.34	-36.6	-37.4	22.2	0.00e+00	0	44	0	3484418048	42	4234
2026-01-06 13:30:37.06	8.81	26.21	-36.5	-37.4	22.2	0.00e+00	0	44	0	3490709504	42	4207
2026-01-06 13:30:38.06	8.63	26.08	-36.6	-37.4	22.2	0.00e+00	0	44	0	3498049536	42	4221
2026-01-06 13:30:39.07	8.45	25.94	-36.6	-37.5	22.2	0.00e+00	0	44	0	3505389568	42	4258
2026-01-06 13:30:40.07	8.27	25.81	-36.7	-37.6	22.1	0.00e+00	0	44	0	3512729600	42	4297
2026-01-06 13:30:41.08	8.09	25.68	-36.8	-37.6	22.0	0.00e+00	0	44	0	3520069632	43	4092
2026-01-06 13:30:42.08	7.92	25.55	-36.8	-37.7	22.0	0.00e+00	0	44	0	3527409664	43	4111
2026-01-06 13:30:43.08	7.74	25.42	-36.7	-37.5	22.1	0.00e+00	0	44	0	3534749696	43	4047
2026-01-06 13:30:44.09	7.57	25.28	-36.5	-37.4	22.2	0.00e+00	0	44	0	3542089728	43	3967
2026-01-06 13:30:45.09	7.40	25.15	-36.4	-37.2	22.3	0.00e+00	0	44	0	3549429760	43	3902
2026-01-06 13:30:46.09	7.23	25.02	-36.3	-37.1	22.4	0.00e+00	0	44	0	3556769792	43	3860
2026-01-06 13:30:47.10	7.06	24.89	-36.2	-37.1	22.4	0.00e+00	0	44	0	3564109824	43	3839
2026-01-06 13:30:48.10	6.89	24.76	-36.2	-37.1	22.5	0.00e+00	0	44	0	3571449856	43	3833
2026-01-06 13:30:49.10	6.73	24.63	-36.3	-37.1	22.5	0.00e+00	0	44	0	3577741312	43	3861
2026-01-06 13:30:50.11	6.56	24.50	-36.4	-37.2	22.3	0.00e+00	0	44	0	3585081344	43	3902
2026-01-06 13:30:51.11	6.40	24.38	-36.5	-37.3	22.2	0.00e+00	0	44	0	3592421376	43	3952
2026-01-06 13:30:52.11	6.24	24.25	-36.7	-37.6	22.1	0.00e+00	0	44	0	3599761408	43	4052
2026-01-06 13:30:53.12	6.07	24.12	-36.7	-37.6	22.0	0.00e+00	0	44	0	3607101440	43	4060
2026-01-06 13:30:54.12	5.91	23.99	-36.7	-37.6	22.0	0.00e+00	0	44	0	3614441472	43	4087
2026-01-06 13:30:55.12	5.76	23.87	-36.7	-37.6	21.9	0.00e+00	0	44	0	3621781504	43	4086
2026-01-06 13:30:56.13	5.60	23.74	-36.7	-37.6	22.0	0.00e+00	0	44	0	3629121536	43	4076
2026-01-06 13:30:57.13	5.44	23.61	-36.7	-37.6	22.0	0.00e+00	0	44	0	3636461568	43	4097
2026-01-06 13:30:58.13	5.29	23.49	-36.7	-37.6	22.0	0.00e+00	0	44	0	3643801600	43	4073
2026-01-06 13:30:59.14	5.14	23.36	-36.8	-37.7	21.9	0.00e+00	0	44	0	3651141632	43	4124
2026-01-06 13:31:00.14	4.99	23.24	-36.7	-37.6	22.0	0.00e+00	0	44	0	3658481664	43	4057
2026-01-06 13:31:01.14	4.84	23.11	-36.7	-37.7	21.9	0.00e+00	0	44	0	3664773120	43	4103
2026-01-06 13:31:02.15	4.69	22.99	-36.7	-37.7	21.9	0.00e+00	0	44	0	3672113152	43	4099
2026-01-06 13:31:03.15	4.54	22.86	-36.6	-37.5	22.0	0.00e+00	0	44	0	3679453184	43	4031
2026-01-06 13:31:04.15	4.39	22.74	-36.7	-37.5	22.0	0.00e+00	0	44	0	3686793216	43	4050
2026-01-06 13:31:05.15	4.25	22.62	-36.5	-37.4	22.1	0.00e+00	0	44	0	3694133248	43	3985
2026-01-06 13:31:06.16	4.10	22.50	-36.5	-37.4	22.1	0.00e+00	0	44	0	3701473280	43	3977
2026-01-06 13:31:07.16	3.96	22.37	-36.5	-37.4	22.1	0.00e+00	0	44	0	3708813312	43	3976
2026-01-06 13:31:08.16	3.82	22.25	-36.5	-37.4	22.2	0.00e+00	0	44	0	3716153344	43	3978
2026-01-06 13:31:09.17	3.67	22.13	-36.6	-37.5	22.1	0.00e+00	0	44	0	3722444800	43	4010
2026-01-06 13:31:10.17	3.54	22.01	-36.6	-37.5	22.1	0.00e+00	0	44	0	3729784832	43	4020
2026-01-06 13:31:11.17	3.40	21.89	-36.8	-37.7	21.9	0.00e+00	0	44	0	3737124864	43	4109
2026-01-06 13:31:12.17	3.26	21.77	-36.8	-37.8	21.8	0.00e+00	0	44	0	3744464896	43	4156
2026-01-06 13:31:13.17	3.12	21.65	-36.9	-37.8	21.8	0.00e+00	0	44	0	3751804928	43	4176
2026-01-06 13:31:14.18	2.99	21.53	-37.0	-37.9	21.7	0.00e+00	0	44	0	3759144960	43	4231
2026-01-06 13:31:15.18	2.85	21.41	-37.1	-38.0	21.6	0.00e+00	0	44	0	3766484992	43	4270
2026-01-06 13:31:16.18	2.72	21.29	-37.2	-38.1	21.5	0.00e+00	0	44	0	3773825024	43	4311
2026-01-06 13:31:17.19	2.59	21.17	-37.4	-38.3	21.2	0.00e+00	0	44	0	3781165056	44	4178
2026-01-06 13:31:18.19	2.46	21.05	-37.4	-38.3	21.5	0.00e+00	0	44	0	3788505088	44	4160
2026-01-06 13:31:19.19	2.33	20.94	-37.4	-38.3	21.4	0.00e+00	0	44	0	3795845120	44	4169
2026-01-06 13:31:20.19	2.20	20.82	-37.4	-38.4	21.4	0.00e+00	0	44	0	3803185152	44	4196
2026-01-06 13:31:21.20	2.07	20.70	-37.5	-38.4	21.3	0.00e+00	0	44	0	3809476608	44	4227
2026-01-06 13:31:22.20	1.94	20.59	-37.6	-38.5	21.3	0.00e+00	0	44	0	3816816640	44	4270
2026-01-06 13:31:23.20	1.82	20.47	-37.6	-38.6	21.2	0.00e+00	0	44	0	3824156672	44	4295
2026-01-06 13:31:24.21	1.69	20.35	-37.7	-38.7	21.1	0.00e+00	0	44	0	3831496704	44	4347
2026-01-06 13:31:25.21	1.57	20.24	-37.8	-38.8	21.0	0.00e+00	0	44	0	3838836736	45	4167
2026-01-06 13:31:26.21	1.44	20.13	-37.9	-38.9	20.9	0.00e+00	0	44	0	3846176768	45	4217
2026-01-06 13:31:27.22	1.32	20.01	-37.7	-38.7	21.1	0.00e+00	0	44	0	3853516800	45	4109
2026-01-06 13:31:28.22	1.20	19.90	-37.7	-38.6	21.2	0.00e+00	0	44	0	3860856832	45	4082
2026-01-06 13:31:29.22	1.08	19.78	-37.6	-38.6	21.2	0.00e+00	0	44	0	3868196864	45	4062
2026-01-06 13:31:30.23	0.96	19.67	-37.6	-38.6	21.2	0.00e+00	0	44	0	3875536896	45	4056
2026-01-06 13:31:31.23	0.84	19.56	-37.5	-38.5	21.3	0.00e+00	0	44	0	3882876928	45	4017
2026-01-06 13:31:32.23	0.72	19.44	-37.4	-38.4	21.4	0.00e+00	0	44	0	3889168384	45	3963
2026-01-06 13:31:33.23	0.60	19.33	-37.4	-38.3	21.4	0.00e+00	0	44	0	3896508416	45	3942
2026-01-06 13:31:34.24	0.49	19.22	-37.3	-38.3	21.5	0.00e+00	0	44	0	3903848448	45	3924
2026-01-06 13:31:35.24	0.37	19.11	-37.2	-38.1	21.6	0.00e+00	0	44	0	3911188480	45	3854
2026-01-06 13:31:36.24	0.26	19.00	-37.2	-38.1	21.7	0.00e+00	0	44	0	3918528512	45	3830
2026-01-06 13:31:37.24	0.15	18.89	-37.3	-38.1	21.5	0.00e+00	0	44	0	3925868544	45	3866
2026-01-06 13:31:38.25	0.03	18.78	-37.2	-38.1	21.6	0.00e+00	0	44	0	3933208576	45	3840
2026-01-06 13:31:39.25	359.92	18.67	-37.2	-38.1	21.6	0.00e+00	0	44	0	3940548608	45	3857
2026-01-06 13:31:40.26	359.81	18.56	-37.3	-38.2	21.5	0.00e+00	0	44	0	3947888640	45	3909
2026-01-06 13:31:41.26	359.70	18.45	-37.4	-38.3	21.4	0.00e+00	0	44	0	3954180096	45	3935
2026-01-06 13:31:42.26	359.59	18.34	-37.4	-38.4	21.3	0.00e+00	0	44	0	3961520128	45	3959
2026-01-06 13:31:43.26	359.48	18.23	-37.5	-38.5	21.2	0.00e+00	0	44	0	3968860160	45	4016
2026-01-06 13:31:44.27	359.37	18.12	-37.6	-38.6	21.1	0.00e+00	0	44	0	3976200192	45	4081
2026-01-06 13:31:45.27	359.27	18.01	-37.6	-38.6	21.1	0.00e+00	0	44	0	3983540224	45	4088
2026-01-06 13:31:46.27	359.16	17.91	-37.7	-38.7	21.0	0.00e+00	0	44	0	3990880256	45	4126
2026-01-06 13:31:47.28	359.05	17.80	-37.8	-38.8	20.9	0.00e+00	0	44	0	3998220288	45	4164
2026-01-06 13:31:48.28	358.95	17.69	-37.9	-38.9	20.9	0.00e+00	0	44	0	4005560320	45	4232
2026-01-06 13:31:49.28	358.85	17.59	-38.0	-39.0	20.8	0.00e+00	0	44	0	4012900352	45	4258
2026-01-06 13:31:50.28	358.74	17.48	-38.0	-39.0	20.8	0.00e+00	0	44	0	4020240384	45	4266
2026-01-06 13:31:51.29	358.64	17.38	-37.9	-38.9	20.9	0.00e+00	0	44	0	4027580416	45	4214
2026-01-06 13:31:52.29	358.54	17.27	-37.9	-38.9	20.9	0.00e+00	0	44	0	4034920448	45	4199
2026-01-06 13:31:53.29	358.44	17.17	-37.9	-38.9	20.8	0.00e+00	0	44	0	4041211904	45	4230
2026-01-06 13:31:54.30	358.34	17.06	-37.8	-38.9	20.9	0.00e+00	0	44	0	4048551936	45	4218
2026-01-06 13:31:55.30	358.24	16.96	-37.8	-38.9	20.9	0.00e+00	0	44	0	4055891968	45	4200
2026-01-06 13:31:56.31	358.14	16.85	-37.9	-38.9	20.8	0.00e+00	0	44	0	4063232000	45	4233
2026-01-06 13:31:57.31	358.04	16.75	-37.8	-38.8	20.9	0.00e+00	0	44	0	4070572032	45	4180
2026-01-06 13:31:58.31	357.94	16.65	-37.8	-38.9	20.9	0.00e+00	0	44	0	4077912064	45	4205
2026-01-06 13:31:59.32	357.85	16.54	-38.0	-39.0	20.7	0.00e+00	0	44	0	4085252096	45	4276
2026-01-06 13:32:00.32	357.75	16.44	-38.1	-39.1	20.7	0.00e+00	0	44	0	4092592128	45	4302
2026-01-06 13:32:01.32	357.66	16.34	-38.1	-39.0	20.7	0.00e+00	0	44	0	4098883584	45	4277
2026-01-06 13:32:02.33	357.56	16.24	-38.1	-39.0	20.7	0.00e+00	0	44	0	4107272192	45	4288
2026-01-06 13:32:03.33	357.47	16.14	-38.2	-39.1	20.6	0.00e+00	0	44	0	4114612224	45	4340
2026-01-06 13:32:04.33	357.37	16.04	-38.2	-39.2	20.5	0.00e+00	0	44	0	4120903680	45	4364
2026-01-06 13:32:05.34	357.28	15.94	-38.4	-39.3	20.4	0.00e+00	0	44	0	4128243712	46	4185
2026-01-06 13:32:06.34	357.19	15.84	-38.4	-39.4	20.4	0.00e+00	0	44	0	4135583744	46	4196
2026-01-06 13:32:07.34	357.10	15.74	-38.4	-39.4	20.3	0.00e+00	0	44	0	4142923776	46	4241
2026-01-06 13:32:08.34	357.01	15.64	-38.6	-39.6	20.2	0.00e+00	0	44	0	4150263808	46	4321
2026-01-06 13:32:09.35	356.92	15.54	-38.5	-39.6	20.2	0.00e+00	0	44	0	4157603840	46	4300
2026-01-06 13:32:10.35	356.83	15.44	-38.6	-39.6	20.2	0.00e+00	0	44	0	4164943872	46	4332
2026-01-06 13:32:11.36	356.74	15.34	-38.7	-39.7	20.0	0.00e+00	0	44	0	4172283904	46	4368
2026-01-06 13:32:12.36	356.65	15.24	-38.7	-39.7	20.0	0.00e+00	0	44	0	4179623936	46	4375
2026-01-06 13:32:13.37	356.56	15.14	-38.7	-39.8	20.0	0.00e+00	0	44	0	4185915392	46	4392
2026-01-06 13:32:14.37	356.48	15.04	-38.8	-39.9	19.9	0.00e+00	0	44	0	4193255424	47	4204
2026-01-06 13:32:15.37	356.39	14.95	-38.9	-39.9	19.8	0.00e+00	0	44	0	4200595456	47	4236
2026-01-06 13:32:16.38	356.30	14.85	-38.8	-39.8	20.0	0.00e+00	0	44	0	4207935488	47	4188
2026-01-06 13:32:17.38	356.22	14.75	-38.8	-39.9	19.9	0.00e+00	0	44	0	4215275520	47	4208
2026-01-06 13:32:18.39	356.13	14.66	-38.8	-39.9	19.9	0.00e+00	0	44	0	4222615552	47	4207
2026-01-06 13:32:19.39	356.05	14.56	-38.9	-39.9	19.9	0.00e+00	0	44	0	4229955584	47	4228
2026-01-06 13:32:20.39	355.96	14.46	-38.9	-40.0	19.8	0.00e+00	0	44	0	4237295616	47	4244
2026-01-06 13:32:21.40	355.88	14.37	-38.9	-40.0	19.8	0.00e+00	0	44	0	4244635648	47	4252
2026-01-06 13:32:22.40	355.80	14.27	-39.0	-40.1	19.7	0.00e+00	0	44	0	4251975680	47	4311
2026-01-06 13:32:23.40	355.72	14.18	-39.0	-40.1	19.7	0.00e+00	0	44	0	4259315712	47	4307
2026-01-06 13:32:24.41	355.64	14.08	-39.1	-40.2	19.6	0.00e+00	0	44	0	4265607168	47	4352
2026-01-06 13:32:25.41	355.55	13.99	-39.1	-40.1	19.6	0.00e+00	0	44	0	4272947200	47	4321
2026-01-06 13:32:26.41	355.47	13.90	-39.1	-40.1	19.6	0.00e+00	0	44	0	4280287232	47	4316
2026-01-06 13:32:27.42	355.39	13.80	-39.2	-40.3	19.5	0.00e+00	0	44	0	4287627264	47	4402
2026-01-06 13:32:28.42	355.32	13.71	-39.2	-40.3	19.5	0.00e+00	0	44	0	4294967296	47	4397
2026-01-06 13:32:29.42	355.24	13.62	-39.2	-40.3	19.5	0.00e+00	0	44	0	4302307328	47	4410
2026-01-06 13:32:30.43	355.16	13.52	-39.2	-40.3	19.5	0.00e+00	0	44	0	4309647360	47	4409
2026-01-06 13:32:31.43	355.08	13.43	-39.2	-40.3	19.4	0.00e+00	0	44	0	4316987392	47	4426
2026-01-06 13:32:32.43	355.00	13.34	-39.4	-40.5	19.5	0.00e+00	0	44	0	4324327424	48	4286
2026-01-06 13:32:33.44	354.93	13.25	-39.3	-40.5	19.6	0.00e+00	0	44	0	4331667456	48	4252
2026-01-06 13:32:34.44	354.85	13.16	-39.4	-40.6	19.4	0.00e+00	0	44	0	4339007488	48	4307
2026-01-06 13:32:35.44	354.77	13.06	-39.4	-40.7	19.4	0.00e+00	0	44	0	4346347520	48	4343
2026-01-06 13:32:36.45	354.70	12.97	-39.2	-40.5	19.6	0.00e+00	0	44	0	4352638976	48	4247
2026-01-06 13:32:37.44	354.62	12.88	-39.1	-40.4	19.5	0.00e+00	0	44	0	4359979008	48	4233
2026-01-06 13:32:38.45	354.55	12.79	-39.1	-40.5	19.6	0.00e+00	0	44	0	4367319040	48	4249
2026-01-06 13:32:39.45	354.48	12.70	-39.2	-40.5	19.5	0.00e+00	0	44	0	4374659072	48	4284
2026-01-06 13:32:40.46	354.40	12.61	-39.2	-40.5	19.5	0.00e+00	0	44	0	4381999104	48	4256
2026-01-06 13:32:41.46	354.33	12.52	-39.2	-40.5	19.5	0.00e+00	0	44	0	4389339136	48	4259
2026-01-06 13:32:42.46	354.26	12.43	-39.3	-40.5	19.5	0.00e+00	0	44	0	4396679168	48	4270
2026-01-06 13:32:43.46	354.19	12.35	-39.3	-40.5	19.4	0.00e+00	0	44	0	4404019200	48	4290
2026-01-06 13:32:44.47	354.11	12.26	-39.3	-40.5	19.5	0.00e+00	0	44	0	4411359232	48	4280
2026-01-06 13:32:45.47	354.04	12.17	-39.4	-40.6	19.4	0.00e+00	0	44	0	4417650688	48	4308
2026-01-06 13:32:46.47	353.97	12.08	-39.5	-40.7	19.3	0.00e+00	0	44	0	4426039296	48	4345
2026-01-06 13:32:47.48	353.90	11.99	-39.5	-40.7	19.3	0.00e+00	0	44	0	4433379328	48	4365
2026-01-06 13:32:48.48	353.83	11.90	-39.7	-40.9	19.2	0.00e+00	0	44	0	4439670784	48	4445
2026-01-06 13:32:49.48	353.76	11.82	-39.5	-40.7	19.3	0.00e+00	0	44	0	4447010816	48	4382
2026-01-06 13:32:50.49	353.69	11.73	-39.5	-40.7	19.3	0.00e+00	0	44	0	4454350848	48	4380
2026-01-06 13:32:51.49	353.63	11.64	-39.6	-40.8	19.2	0.00e+00	0	44	0	4461690880	48	4417
2026-01-06 13:32:52.49	353.56	11.56	-39.7	-40.9	19.1	0.00e+00	0	44	0	4469030912	48	4473
2026-01-06 13:32:53.50	353.49	11.47	-39.6	-40.8	19.2	0.00e+00	0	44	0	4476370944	48	4412
2026-01-06 13:32:54.50	353.42	11.38	-39.7	-41.0	19.0	0.00e+00	0	44	0	4483710976	48	4500
2026-01-06 13:32:55.50	353.36	11.30	-39.7	-41.0	19.0	0.00e+00	0	44	0	4491051008	48	4507
2026-01-06 13:32:56.50	353.29	11.21	-39.7	-41.1	18.9	0.00e+00	0	44	0	4497342464	48	4563
2026-01-06 13:32:57.51	353.22	11.13	-39.6	-41.0	19.0	0.00e+00	0	44	0	4504682496	48	4532
2026-01-06 13:32:58.51	353.16	11.04	-39.6	-41.1	18.9	0.00e+00	0	44	0	4512022528	48	4562
2026-01-06 13:32:59.52	353.09	10.96	-39.7	-41.2	18.8	0.00e+00	0	44	0	4519362560	48	4635
2026-01-06 13:33:00.52	353.03	10.87	-39.7	-41.2	18.8	0.00e+00	0	44	0	4526702592	48	4634
2026-01-06 13:33:01.52	352.97	10.79	-39.7	-41.2	18.8	0.00e+00	0	44	0	4534042624	48	4626
2026-01-06 13:33:02.53	352.90	10.71	-39.8	-41.3	18.6	0.00e+00	0	44	0	4541382656	49	4435
2026-01-06 13:33:03.53	352.84	10.62	-39.7	-41.2	18.7	0.00e+00	0	44	0	4548722688	49	4381
2026-01-06 13:33:04.53	352.77	10.54	-39.8	-41.3	18.7	0.00e+00	0	44	0	4556062720	49	4407
2026-01-06 13:33:05.53	352.71	10.46	-39.9	-41.3	18.6	0.00e+00	0	44	0	4563402752	49	4435
2026-01-06 13:33:06.54	352.65	10.37	-39.9	-41.3	18.7	0.00e+00	0	44	0	4570742784	49	4435
2026-01-06 13:33:07.54	352.59	10.29	-40.0	-41.4	18.6	0.00e+00	0	44	0	4578082816	49	4480
2026-01-06 13:33:08.55	352.53	10.21	-40.0	-41.5	18.5	0.00e+00	0	44	0	4584374272	49	4502
2026-01-06 13:33:09.55	352.46	10.12	-40.2	-41.7	18.3	0.00e+00	0	44	0	4591714304	49	4606
2026-01-06 13:33:10.55	352.40	10.04	-40.1	-41.4	18.5	0.00e+00	0	44	0	4599054336	49	4490
2026-01-06 13:33:11.56	352.34	9.96	-40.3	-41.7	18.3	0.00e+00	0	44	0	4606394368	50	4348
2026-01-06 13:33:12.56	352.28	9.88	-40.2	-41.5	18.5	0.00e+00	0	44	0	4613734400	50	4269
2026-01-06 13:33:13.56	352.22	9.80	-40.4	-41.7	18.3	0.00e+00	0	44	0	4621074432	50	4361
2026-01-06 13:33:14.57	352.16	9.72	-40.3	-41.7	18.3	0.00e+00	0	44	0	4628414464	50	4356
2026-01-06 13:33:15.57	352.10	9.64	-40.3	-41.6	18.4	0.00e+00	0	44	0	4635754496	50	4317
2026-01-06 13:33:16.57	352.05	9.56	-40.4	-41.7	18.2	0.00e+00	0	44	0	4643094528	50	4376
2026-01-06 13:33:17.58	351.99	9.48	-40.5	-41.8	18.2	0.00e+00	0	44	0	4650434560	50	4433
2026-01-06 13:33:18.58	351.93	9.40	-40.4	-41.7	18.3	0.00e+00	0	44	0	4657774592	50	4342
2026-01-06 13:33:19.58	351.87	9.32	-40.4	-41.7	18.2	0.00e+00	0	44	0	4664066048	50	4352
2026-01-06 13:33:20.59	351.81	9.24	-40.4	-41.8	18.2	0.00e+00	0	44	0	4671406080	50	4416
2026-01-06 13:33:21.59	351.76	9.16	-40.4	-41.7	18.2	0.00e+00	0	44	0	4678746112	50	4389
2026-01-06 13:33:22.60	351.70	9.08	-40.5	-41.9	18.0	0.00e+00	0	44	0	4686086144	50	4474
2026-01-06 13:33:23.60	351.64	9.00	-40.8	-42.2	17.8	0.00e+00	0	44	0	4693426176	51	4371
2026-01-06 13:33:24.61	351.59	8.92	-47.7	-60.4	3.8	8.44e-01	0	44	104	4696571904	64	16876
2026-01-06 13:33:25.61	351.53	8.84	-49.5	-61.3	3.8	8.46e-01	0	44	104	4696571904	69	13980
