passes_logs/2026/01/06/T1/T1__20260106_091512_NOAA_20_JPSS-1_rec.log

#Pass ID: 20260106_091512_NOAA 20 (JPSS-1)
#Satellite: NOAA 20 (JPSS-1)
#Configuration: NOAA 20
#almurnet v.1.7.20251203
#Start time: 2026-01-06 09:15:12

#Version: 2.0.20230620
#Station: T1
#Location: 37.570604 lon 55.790049 lat
#TLE: 1 43013U 17073A   26005.46207808  .00000128  00000+0  81791-4 0  9997
#TLE: 2 43013  98.7627 306.5027 0001826  53.0458 307.0885 14.19533487421381

#Time	Az	El	Level	Level2	SNR	BER	BlckErr	Temp	State	Recorded	gain1	gain2
2026-01-06 09:15:12.28	139.18	5.02	-52.5	-67.7	3.8	1.49e+00	0	41	0	0	77	19773
2026-01-06 09:15:13.27	139.15	5.09	-52.5	-67.6	3.8	1.49e+00	0	41	104	0	77	19495
2026-01-06 09:15:14.27	139.11	5.16	-52.5	-67.6	3.8	1.49e+00	0	41	104	0	77	19440
2026-01-06 09:15:15.25	139.08	5.23	-52.5	-67.6	3.8	1.49e+00	0	41	104	0	77	19407
2026-01-06 09:15:16.24	139.04	5.30	-52.5	-67.5	3.8	1.49e+00	0	41	104	0	77	19294
2026-01-06 09:15:17.23	139.01	5.37	-52.5	-67.5	3.8	1.49e+00	0	41	104	0	77	19243
2026-01-06 09:15:18.22	138.97	5.44	-52.5	-67.4	3.8	1.49e+00	0	41	104	0	77	19117
2026-01-06 09:15:19.22	138.94	5.51	-52.5	-67.4	3.8	1.49e+00	0	41	104	0	77	19027
2026-01-06 09:15:20.22	138.90	5.58	-52.5	-67.3	3.8	1.49e+00	0	41	104	0	77	18910
2026-01-06 09:15:21.22	138.87	5.65	-52.5	-67.3	3.8	1.49e+00	0	41	104	0	76	19886
2026-01-06 09:15:22.21	138.83	5.72	-52.5	-67.2	3.8	1.49e+00	0	41	104	0	76	19760
2026-01-06 09:15:23.21	138.79	5.79	-52.5	-67.0	3.8	1.49e+00	0	41	104	0	76	19275
2026-01-06 09:15:24.21	138.76	5.86	-52.5	-66.8	3.8	1.49e+00	0	41	104	0	76	18841
2026-01-06 09:15:25.21	138.72	5.94	-52.4	-66.5	3.8	1.49e+00	0	41	104	0	76	18290
2026-01-06 09:15:26.21	138.68	6.01	-52.4	-66.3	3.8	1.49e+00	0	41	104	0	76	17760
2026-01-06 09:15:27.21	138.65	6.08	-52.4	-66.2	3.8	1.49e+00	0	41	104	0	76	17508
2026-01-06 09:15:28.21	138.61	6.15	-52.4	-66.0	3.8	1.49e+00	0	41	104	0	76	17143
2026-01-06 09:15:29.21	138.57	6.23	-52.4	-66.0	3.8	1.49e+00	0	41	104	0	76	17160
2026-01-06 09:15:30.21	138.53	6.30	-52.4	-66.1	3.8	1.49e+00	0	41	104	0	76	17377
2026-01-06 09:15:31.21	138.49	6.37	-52.4	-66.2	3.8	1.49e+00	0	41	104	0	76	17644
2026-01-06 09:15:32.20	138.46	6.45	-52.5	-66.5	3.8	1.49e+00	0	41	104	0	76	18251
2026-01-06 09:15:33.20	138.42	6.52	-52.5	-66.9	3.8	1.49e+00	0	42	104	0	76	19144
2026-01-06 09:15:34.20	138.38	6.59	-52.5	-67.2	3.8	1.49e+00	0	42	104	0	76	19804
2026-01-06 09:15:35.20	138.34	6.67	-52.5	-67.5	3.8	1.49e+00	0	42	104	0	76	20459
2026-01-06 09:15:36.20	138.30	6.74	-52.5	-67.7	3.8	1.49e+00	0	41	104	0	76	20844
2026-01-06 09:15:37.19	138.26	6.82	-52.5	-67.6	3.8	1.49e+00	0	41	104	0	76	20706
2026-01-06 09:15:38.19	138.22	6.89	-52.5	-67.2	3.8	1.49e+00	0	41	104	0	76	19835
2026-01-06 09:15:39.19	138.18	6.97	-52.4	-66.7	3.8	1.49e+00	0	42	104	0	76	18634
2026-01-06 09:15:40.18	138.14	7.04	-52.4	-66.0	3.8	1.49e+00	0	42	104	0	76	17204
2026-01-06 09:15:41.18	138.10	7.12	-52.4	-65.1	4.0	1.48e+00	0	42	104	0	76	15576
2026-01-06 09:15:42.18	138.06	7.19	-52.3	-64.4	4.1	1.44e+00	0	42	0	0	76	14361
2026-01-06 09:15:43.18	138.02	7.27	-52.2	-63.8	4.3	1.38e+00	0	42	0	0	76	13261
2026-01-06 09:15:44.18	137.98	7.34	-52.2	-63.1	4.5	1.25e+00	0	42	0	1048576	76	12288
2026-01-06 09:15:45.18	137.94	7.42	-52.1	-62.3	4.9	7.93e-01	0	42	0	3145728	76	11266
2026-01-06 09:15:46.18	137.90	7.50	-51.9	-61.3	5.4	6.12e-01	0	42	0	5242880	75	10634
2026-01-06 09:15:47.18	137.86	7.57	-51.7	-60.4	6.1	3.93e-01	0	42	0	7340032	75	9552
2026-01-06 09:15:48.17	137.82	7.65	-51.6	-59.4	7.0	1.89e-01	0	42	0	8388608	75	8504
2026-01-06 09:15:49.16	137.78	7.73	-51.3	-58.3	8.0	8.77e-02	0	42	0	10485760	74	7977
2026-01-06 09:15:50.17	137.73	7.80	-50.9	-57.1	9.2	3.72e-02	0	42	0	12582912	73	7357
2026-01-06 09:15:51.17	137.69	7.88	-50.7	-56.4	10.0	1.38e-02	0	42	0	14680064	73	6746
2026-01-06 09:15:52.17	137.65	7.96	-50.3	-55.5	10.9	3.35e-03	0	42	0	16777216	72	6480
2026-01-06 09:15:53.16	137.61	8.04	-50.0	-54.9	11.6	1.01e-03	0	42	0	17825792	72	5997
2026-01-06 09:15:54.16	137.56	8.11	-49.9	-54.5	12.0	4.55e-04	0	42	0	19922944	71	6068
2026-01-06 09:15:55.16	137.52	8.19	-49.7	-54.3	12.3	2.04e-04	0	42	0	22020096	71	5927
2026-01-06 09:15:56.16	137.47	8.27	-49.8	-54.3	12.2	2.32e-04	0	42	0	24117248	71	5941
2026-01-06 09:15:57.16	137.43	8.35	-49.7	-54.2	12.3	1.65e-04	0	42	0	25165824	71	5900
2026-01-06 09:15:58.16	137.39	8.43	-49.9	-54.5	11.9	2.19e-04	0	42	0	27262976	71	6123
2026-01-06 09:15:59.16	137.34	8.51	-50.1	-55.0	11.5	6.75e-04	0	42	0	29360128	71	6453
2026-01-06 09:16:00.16	137.30	8.59	-50.4	-55.6	10.9	1.64e-03	0	42	0	31457280	71	6915
2026-01-06 09:16:01.15	137.25	8.67	-50.6	-56.4	10.0	4.05e-03	0	42	0	33554432	72	7169
2026-01-06 09:16:02.15	137.21	8.75	-51.0	-57.4	9.0	2.04e-02	0	42	0	34603008	72	8024
2026-01-06 09:16:03.15	137.16	8.83	-51.3	-58.6	7.8	5.22e-02	0	42	0	36700160	73	8691
2026-01-06 09:16:04.14	137.12	8.91	-51.6	-59.7	6.7	1.41e-01	0	42	0	38797312	73	9931
2026-01-06 09:16:05.14	137.07	8.99	-51.9	-61.1	5.6	2.80e-01	0	42	0	40894464	74	10941
2026-01-06 09:16:06.14	137.03	9.07	-52.1	-62.6	4.8	7.17e-01	0	42	0	42991616	74	12974
2026-01-06 09:16:07.14	136.98	9.15	-51.8	-60.5	6.2	2.65e-01	0	42	0	44040192	74	10189
2026-01-06 09:16:08.14	136.93	9.23	-52.3	-64.1	4.2	8.28e-01	0	43	0	46137344	75	14624
2026-01-06 09:16:09.14	136.88	9.31	-51.9	-61.8	5.1	5.83e-01	0	42	0	47185920	75	11221
2026-01-06 09:16:10.14	136.84	9.40	-50.1	-55.1	11.5	3.52e-03	0	42	0	49283072	71	6560
2026-01-06 09:16:11.13	136.79	9.48	-52.5	-67.1	3.8	1.09e+00	0	42	104	50331648	75	20658
2026-01-06 09:16:12.13	136.74	9.56	-50.0	-54.9	11.6	7.62e-01	0	42	0	50331648	71	6364
2026-01-06 09:16:13.13	136.69	9.64	-49.0	-52.8	13.9	1.60e-05	0	42	0	52428800	70	5283
2026-01-06 09:16:14.12	136.65	9.73	-48.0	-51.3	15.4	7.00e-07	0	42	0	54525952	68	5002
2026-01-06 09:16:15.12	136.60	9.81	-47.6	-50.7	15.8	0.00e+00	0	42	0	56623104	67	4962
2026-01-06 09:16:16.11	136.55	9.89	-47.8	-51.0	15.6	0.00e+00	0	43	0	57671680	67	5108
2026-01-06 09:16:17.11	136.50	9.98	-47.8	-51.0	15.5	0.00e+00	0	42	0	59768832	67	5140
2026-01-06 09:16:18.11	136.45	10.06	-47.7	-50.8	15.7	0.00e+00	0	42	0	61865984	67	5031
2026-01-06 09:16:19.10	136.40	10.14	-47.5	-50.5	16.0	0.00e+00	0	42	0	63963136	66	5149
2026-01-06 09:16:20.10	136.35	10.23	-47.4	-50.4	16.1	0.00e+00	0	42	0	65011712	66	5077
2026-01-06 09:16:21.10	136.30	10.31	-47.5	-50.5	16.1	0.00e+00	0	42	0	67108864	66	5124
2026-01-06 09:16:22.10	136.25	10.40	-47.3	-50.2	16.3	0.00e+00	0	43	0	69206016	66	4961
2026-01-06 09:16:23.10	136.20	10.48	-47.2	-50.2	16.4	0.00e+00	0	43	0	71303168	66	4929
2026-01-06 09:16:24.10	136.15	10.57	-47.2	-50.2	16.4	0.00e+00	0	42	0	73400320	66	4931
2026-01-06 09:16:25.11	136.09	10.66	-47.2	-50.1	16.4	0.00e+00	0	43	0	74448896	66	4914
2026-01-06 09:16:26.11	136.04	10.74	-47.2	-50.1	16.5	0.00e+00	0	43	0	76546048	66	4908
2026-01-06 09:16:27.11	135.99	10.83	-47.2	-50.0	16.5	0.00e+00	0	42	0	78643200	66	4854
2026-01-06 09:16:28.11	135.94	10.92	-47.2	-50.1	16.4	0.00e+00	0	42	0	80740352	66	4898
2026-01-06 09:16:29.11	135.88	11.00	-47.2	-50.1	16.5	0.00e+00	0	42	0	82837504	66	4891
2026-01-06 09:16:30.11	135.83	11.09	-47.1	-49.9	16.6	0.00e+00	0	43	0	83886080	66	4793
2026-01-06 09:16:31.11	135.78	11.18	-47.0	-49.8	16.8	0.00e+00	0	43	0	85983232	66	4725
2026-01-06 09:16:32.11	135.72	11.27	-47.1	-49.9	16.7	0.00e+00	0	43	0	88080384	66	4769
2026-01-06 09:16:33.11	135.67	11.35	-46.9	-49.6	16.9	0.00e+00	0	43	0	90177536	65	4905
2026-01-06 09:16:34.11	135.61	11.44	-46.9	-49.6	17.0	0.00e+00	0	43	0	92274688	65	4879
2026-01-06 09:16:35.11	135.56	11.53	-46.8	-49.5	17.1	0.00e+00	0	43	0	93323264	65	4841
2026-01-06 09:16:36.11	135.50	11.62	-46.9	-49.7	16.9	0.00e+00	0	43	0	95420416	65	4929
2026-01-06 09:16:37.11	135.45	11.71	-47.0	-49.8	16.8	0.00e+00	0	43	0	97517568	65	5001
2026-01-06 09:16:38.11	135.39	11.80	-46.8	-49.6	17.0	0.00e+00	0	43	0	99614720	65	4894
2026-01-06 09:16:39.11	135.33	11.89	-47.0	-49.8	16.8	0.00e+00	0	43	0	100663296	65	5016
2026-01-06 09:16:40.11	135.28	11.98	-47.0	-49.8	16.8	0.00e+00	0	43	0	102760448	65	5017
2026-01-06 09:16:41.11	135.22	12.07	-47.0	-49.9	16.8	0.00e+00	0	43	0	104857600	65	5049
2026-01-06 09:16:42.11	135.16	12.16	-47.0	-49.9	16.7	0.00e+00	0	43	0	106954752	65	5047
2026-01-06 09:16:43.10	135.10	12.25	-46.9	-49.6	17.0	0.00e+00	0	43	0	109051904	65	4915
2026-01-06 09:16:44.11	135.04	12.34	-47.0	-49.7	16.9	0.00e+00	0	43	0	110100480	65	4958
2026-01-06 09:16:45.11	134.99	12.44	-46.8	-49.6	17.0	0.00e+00	0	43	0	112197632	65	4880
2026-01-06 09:16:46.11	134.93	12.53	-46.8	-49.5	17.1	0.00e+00	0	43	0	114294784	65	4831
2026-01-06 09:16:47.11	134.87	12.62	-46.7	-49.4	17.2	0.00e+00	0	43	0	116391936	65	4795
2026-01-06 09:16:48.09	134.81	12.71	-46.7	-49.4	17.2	0.00e+00	0	43	0	118489088	65	4769
2026-01-06 09:16:49.09	134.75	12.81	-46.8	-49.5	17.1	0.00e+00	0	43	0	119537664	65	4847
2026-01-06 09:16:50.09	134.69	12.90	-46.7	-49.4	17.3	0.00e+00	0	42	0	121634816	65	4768
2026-01-06 09:16:51.09	134.63	12.99	-46.6	-49.2	17.4	0.00e+00	0	43	0	123731968	65	4682
2026-01-06 09:16:52.08	134.56	13.09	-46.6	-49.2	17.4	0.00e+00	0	43	0	125829120	65	4698
2026-01-06 09:16:53.09	134.50	13.18	-46.6	-49.2	17.4	0.00e+00	0	43	0	127926272	65	4705
2026-01-06 09:16:54.08	134.44	13.28	-46.7	-49.4	17.3	0.00e+00	0	43	0	128974848	65	4764
2026-01-06 09:16:55.08	134.38	13.37	-46.7	-49.4	17.3	0.00e+00	0	43	0	131072000	65	4763
2026-01-06 09:16:56.08	134.31	13.47	-46.8	-49.5	17.2	0.00e+00	0	43	0	133169152	65	4829
2026-01-06 09:16:57.08	134.25	13.56	-46.7	-49.3	17.3	0.00e+00	0	43	0	135266304	65	4759
2026-01-06 09:16:58.08	134.19	13.66	-46.6	-49.3	17.4	0.00e+00	0	43	0	136314880	65	4725
2026-01-06 09:16:59.08	134.12	13.75	-46.5	-49.1	17.5	0.00e+00	0	43	0	138412032	65	4632
2026-01-06 09:17:00.08	134.06	13.85	-46.6	-49.2	17.5	0.00e+00	0	43	0	140509184	65	4679
2026-01-06 09:17:01.08	133.99	13.95	-46.6	-49.3	17.4	0.00e+00	0	43	0	142606336	65	4717
2026-01-06 09:17:02.07	133.93	14.05	-46.6	-49.3	17.4	0.00e+00	0	43	0	144703488	65	4724
2026-01-06 09:17:03.06	133.86	14.14	-46.6	-49.3	17.4	0.00e+00	0	43	0	145752064	65	4712
2026-01-06 09:17:04.06	133.79	14.24	-46.7	-49.3	17.4	0.00e+00	0	43	0	147849216	65	4722
2026-01-06 09:17:05.06	133.73	14.34	-46.6	-49.2	17.5	0.00e+00	0	43	0	149946368	65	4667
2026-01-06 09:17:06.06	133.66	14.44	-46.5	-49.1	17.5	0.00e+00	0	43	0	152043520	65	4650
2026-01-06 09:17:07.06	133.59	14.54	-46.5	-49.0	17.6	0.00e+00	0	43	0	153092096	65	4592
2026-01-06 09:17:08.06	133.52	14.64	-46.5	-49.0	17.6	0.00e+00	0	43	0	155189248	64	4867
2026-01-06 09:17:09.05	133.45	14.74	-46.5	-49.1	17.5	0.00e+00	0	43	0	157286400	64	4924
2026-01-06 09:17:10.05	133.38	14.84	-46.5	-49.1	17.5	0.00e+00	0	43	0	159383552	64	4918
2026-01-06 09:17:11.05	133.31	14.94	-46.6	-49.2	17.5	0.00e+00	0	43	0	161480704	64	4941
2026-01-06 09:17:12.05	133.24	15.04	-46.7	-49.3	17.4	0.00e+00	0	43	0	162529280	64	5026
2026-01-06 09:17:13.04	133.17	15.14	-46.5	-49.2	17.5	0.00e+00	0	43	0	164626432	64	4934
2026-01-06 09:17:14.04	133.10	15.24	-46.5	-49.0	17.6	0.00e+00	0	43	0	166723584	64	4867
2026-01-06 09:17:15.04	133.03	15.34	-46.4	-49.0	17.7	0.00e+00	0	43	0	168820736	64	4842
2026-01-06 09:17:16.04	132.96	15.45	-46.3	-48.8	17.8	0.00e+00	0	43	0	170917888	64	4743
2026-01-06 09:17:17.04	132.88	15.55	-46.3	-48.8	17.8	0.00e+00	0	43	0	171966464	64	4759
2026-01-06 09:17:18.04	132.81	15.65	-46.3	-48.8	17.8	0.00e+00	0	43	0	174063616	64	4749
2026-01-06 09:17:19.04	132.74	15.76	-46.3	-48.9	17.8	0.00e+00	0	43	0	176160768	64	4768
2026-01-06 09:17:20.04	132.66	15.86	-46.4	-49.0	17.7	0.00e+00	0	43	0	178257920	64	4859
2026-01-06 09:17:21.03	132.59	15.97	-46.5	-49.2	17.6	0.00e+00	0	43	0	179306496	64	4928
2026-01-06 09:17:22.03	132.51	16.07	-46.5	-49.1	17.6	0.00e+00	0	43	0	181403648	64	4891
2026-01-06 09:17:23.02	132.44	16.17	-46.5	-49.2	17.6	0.00e+00	0	43	0	183500800	64	4929
2026-01-06 09:17:24.02	132.36	16.28	-46.5	-49.1	17.6	0.00e+00	0	43	0	185597952	64	4879
2026-01-06 09:17:25.02	132.28	16.39	-46.5	-49.1	17.6	0.00e+00	0	43	0	187695104	64	4900
2026-01-06 09:17:26.02	132.20	16.49	-46.3	-48.8	17.9	0.00e+00	0	43	0	188743680	64	4727
2026-01-06 09:17:27.02	132.13	16.60	-46.2	-48.7	17.9	0.00e+00	0	43	0	190840832	64	4700
2026-01-06 09:17:28.01	132.05	16.71	-46.2	-48.7	18.0	0.00e+00	0	43	0	192937984	64	4669
2026-01-06 09:17:29.01	131.97	16.82	-46.3	-48.8	17.9	0.00e+00	0	43	0	195035136	64	4729
2026-01-06 09:17:30.01	131.89	16.92	-46.4	-48.9	17.8	0.00e+00	0	43	0	196083712	64	4799
2026-01-06 09:17:31.01	131.81	17.03	-46.4	-48.9	17.8	0.00e+00	0	43	0	198180864	64	4812
2026-01-06 09:17:32.01	131.73	17.14	-46.5	-49.1	17.6	0.00e+00	0	43	0	200278016	64	4887
2026-01-06 09:17:33.01	131.64	17.25	-46.5	-49.1	17.7	0.00e+00	0	43	0	202375168	64	4876
2026-01-06 09:17:34.00	131.56	17.36	-46.3	-48.9	17.8	0.00e+00	0	43	0	204472320	64	4786
2026-01-06 09:17:35.00	131.48	17.47	-46.3	-48.9	17.8	0.00e+00	0	43	0	205520896	64	4780
2026-01-06 09:17:36.00	131.39	17.58	-46.4	-48.9	17.8	0.00e+00	0	43	0	207618048	64	4790
2026-01-06 09:17:37.00	131.31	17.69	-46.4	-48.9	17.8	0.00e+00	0	43	0	209715200	64	4814
2026-01-06 09:17:37.99	131.22	17.80	-46.5	-49.1	17.7	0.00e+00	0	43	0	211812352	64	4882
2026-01-06 09:17:38.99	131.14	17.92	-46.6	-49.2	17.6	0.00e+00	0	43	0	213909504	64	4931
2026-01-06 09:17:39.98	131.05	18.03	-46.7	-49.3	17.5	0.00e+00	0	43	0	214958080	64	4994
2026-01-06 09:17:40.99	130.97	18.14	-46.7	-49.4	17.4	0.00e+00	0	43	0	217055232	64	5065
2026-01-06 09:17:41.98	130.88	18.25	-46.8	-49.5	17.3	0.00e+00	0	43	0	219152384	64	5102
2026-01-06 09:17:42.98	130.79	18.37	-46.7	-49.3	17.4	0.00e+00	0	43	0	221249536	64	5035
2026-01-06 09:17:43.98	130.70	18.48	-46.6	-49.3	17.4	0.00e+00	0	43	0	223346688	64	5008
2026-01-06 09:17:44.98	130.61	18.60	-46.6	-49.3	17.5	0.00e+00	0	43	0	224395264	64	4987
2026-01-06 09:17:45.98	130.52	18.71	-46.7	-49.4	17.4	0.00e+00	0	43	0	226492416	64	5064
2026-01-06 09:17:46.98	130.43	18.83	-46.8	-49.5	17.3	0.00e+00	0	43	0	228589568	64	5131
2026-01-06 09:17:47.98	130.34	18.95	-46.9	-49.6	17.2	0.00e+00	0	43	0	230686720	64	5174
2026-01-06 09:17:48.97	130.24	19.06	-47.0	-49.7	17.1	0.00e+00	0	43	0	231735296	64	5263
2026-01-06 09:17:49.97	130.15	19.18	-47.0	-49.8	17.0	0.00e+00	0	43	0	233832448	64	5293
2026-01-06 09:17:50.97	130.06	19.30	-47.1	-49.9	16.9	0.00e+00	0	43	0	235929600	64	5346
2026-01-06 09:17:51.97	129.96	19.42	-47.1	-49.8	17.0	0.00e+00	0	43	0	238026752	64	5331
2026-01-06 09:17:52.96	129.87	19.53	-47.0	-49.8	17.0	0.00e+00	0	43	0	240123904	65	4988
2026-01-06 09:17:53.96	129.77	19.65	-47.0	-49.7	17.1	0.00e+00	0	43	0	241172480	65	4938
2026-01-06 09:17:54.95	129.67	19.77	-47.1	-49.8	17.0	0.00e+00	0	43	0	243269632	65	4993
2026-01-06 09:17:55.94	129.58	19.89	-47.0	-49.8	17.0	0.00e+00	0	43	0	245366784	65	4987
2026-01-06 09:17:56.94	129.48	20.01	-47.1	-49.9	16.9	0.00e+00	0	43	0	247463936	65	5054
2026-01-06 09:17:57.93	129.38	20.13	-47.3	-50.0	16.8	0.00e+00	0	43	0	248512512	65	5152
2026-01-06 09:17:58.93	129.28	20.25	-47.3	-50.1	16.7	0.00e+00	0	43	0	250609664	65	5186
2026-01-06 09:17:59.93	129.18	20.37	-47.2	-50.0	16.8	0.00e+00	0	43	0	252706816	65	5120
2026-01-06 09:18:00.92	129.08	20.50	-47.3	-50.1	16.7	0.00e+00	0	43	0	254803968	65	5165
2026-01-06 09:18:01.92	128.97	20.62	-47.2	-49.9	16.9	0.00e+00	0	43	0	256901120	65	5098
2026-01-06 09:18:02.91	128.87	20.74	-47.3	-50.1	16.7	0.00e+00	0	43	0	257949696	65	5182
2026-01-06 09:18:03.91	128.77	20.87	-47.2	-50.0	16.8	0.00e+00	0	43	0	260046848	65	5131
2026-01-06 09:18:04.90	128.66	20.99	-47.2	-50.0	16.8	0.00e+00	0	43	0	262144000	65	5118
2026-01-06 09:18:05.90	128.56	21.11	-47.4	-50.1	16.6	0.00e+00	0	43	0	264241152	65	5217
2026-01-06 09:18:06.89	128.45	21.24	-47.3	-50.1	16.7	0.00e+00	0	43	0	265289728	65	5210
2026-01-06 09:18:07.89	128.34	21.37	-47.3	-50.1	16.7	0.00e+00	0	43	0	267386880	65	5172
2026-01-06 09:18:08.90	128.23	21.49	-47.2	-49.9	16.9	0.00e+00	0	43	0	269484032	65	5058
2026-01-06 09:18:09.89	128.12	21.62	-47.3	-50.0	16.8	0.00e+00	0	43	0	271581184	65	5151
2026-01-06 09:18:10.88	128.01	21.75	-47.3	-50.1	16.7	0.00e+00	0	43	0	273678336	65	5207
2026-01-06 09:18:11.88	127.90	21.87	-47.4	-50.3	16.5	0.00e+00	0	43	0	274726912	65	5316
2026-01-06 09:18:12.88	127.79	22.00	-47.4	-50.4	16.4	0.00e+00	0	43	0	276824064	65	5352
2026-01-06 09:18:13.88	127.67	22.13	-47.5	-50.5	16.4	0.00e+00	0	43	0	278921216	65	5416
2026-01-06 09:18:14.87	127.56	22.26	-47.4	-50.2	16.6	0.00e+00	0	43	0	281018368	65	5271
2026-01-06 09:18:15.86	127.45	22.39	-47.2	-50.1	16.7	0.00e+00	0	43	0	283115520	65	5211
2026-01-06 09:18:16.86	127.33	22.52	-47.1	-50.0	16.9	0.00e+00	0	43	0	284164096	65	5106
2026-01-06 09:18:17.86	127.21	22.65	-47.1	-49.9	16.9	0.00e+00	0	43	0	286261248	65	5061
2026-01-06 09:18:18.87	127.09	22.79	-47.0	-49.9	16.9	0.00e+00	0	43	0	288358400	65	5097
2026-01-06 09:18:19.86	126.97	22.92	-47.2	-50.0	16.8	0.00e+00	0	43	0	290455552	65	5151
2026-01-06 09:18:20.86	126.85	23.05	-47.2	-50.2	16.6	0.00e+00	0	43	0	291504128	65	5246
2026-01-06 09:18:21.86	126.73	23.18	-47.4	-50.3	16.6	0.00e+00	0	43	0	293601280	65	5283
2026-01-06 09:18:22.85	126.61	23.32	-47.3	-50.1	16.7	0.00e+00	0	43	0	295698432	65	5210
2026-01-06 09:18:23.85	126.49	23.45	-47.2	-50.1	16.8	0.00e+00	0	43	0	297795584	65	5178
2026-01-06 09:18:24.85	126.36	23.59	-47.3	-50.0	16.8	0.00e+00	0	43	0	299892736	65	5150
2026-01-06 09:18:25.84	126.24	23.72	-47.2	-50.1	16.8	0.00e+00	0	43	0	300941312	65	5165
2026-01-06 09:18:26.84	126.11	23.86	-47.3	-50.1	16.7	0.00e+00	0	43	0	303038464	65	5173
2026-01-06 09:18:27.83	125.98	24.00	-47.3	-50.1	16.7	0.00e+00	0	43	0	305135616	65	5197
2026-01-06 09:18:28.83	125.85	24.13	-47.3	-50.1	16.8	0.00e+00	0	43	0	307232768	65	5189
2026-01-06 09:18:29.83	125.72	24.27	-47.4	-50.3	16.6	0.00e+00	0	43	0	309329920	65	5282
2026-01-06 09:18:30.82	125.59	24.41	-47.3	-50.1	16.7	0.00e+00	0	43	0	310378496	65	5198
2026-01-06 09:18:31.82	125.46	24.55	-47.4	-50.2	16.6	0.00e+00	0	43	0	312475648	65	5264
2026-01-06 09:18:32.82	125.32	24.69	-47.2	-50.0	16.8	0.00e+00	0	43	0	314572800	65	5110
2026-01-06 09:18:33.81	125.19	24.83	-47.2	-50.0	16.8	0.00e+00	0	43	0	316669952	65	5155
2026-01-06 09:18:34.81	125.05	24.97	-47.2	-50.0	16.8	0.00e+00	0	43	0	317718528	65	5128
2026-01-06 09:18:35.81	124.91	25.11	-47.2	-50.0	16.8	0.00e+00	0	43	0	319815680	65	5153
2026-01-06 09:18:36.81	124.78	25.25	-47.3	-50.1	16.8	0.00e+00	0	43	0	321912832	65	5165
2026-01-06 09:18:37.80	124.64	25.39	-47.4	-50.2	16.6	0.00e+00	0	43	0	324009984	65	5264
2026-01-06 09:18:38.80	124.49	25.54	-47.3	-50.0	16.8	0.00e+00	0	43	0	326107136	65	5150
2026-01-06 09:18:39.80	124.35	25.68	-47.3	-50.0	16.8	0.00e+00	0	43	0	327155712	65	5155
2026-01-06 09:18:40.79	124.21	25.82	-47.3	-50.0	16.8	0.00e+00	0	43	0	329252864	65	5158
2026-01-06 09:18:41.79	124.06	25.97	-47.3	-50.2	16.7	0.00e+00	0	43	0	331350016	65	5223
2026-01-06 09:18:42.78	123.92	26.11	-47.4	-50.2	16.6	0.00e+00	0	43	0	333447168	65	5253
2026-01-06 09:18:43.77	123.77	26.26	-47.4	-50.2	16.7	0.00e+00	0	43	0	334495744	65	5227
2026-01-06 09:18:44.77	123.62	26.40	-47.4	-50.3	16.6	0.00e+00	0	43	0	336592896	65	5283
2026-01-06 09:18:45.77	123.47	26.55	-47.5	-50.3	16.5	0.00e+00	0	43	0	338690048	65	5324
2026-01-06 09:18:46.76	123.32	26.70	-47.4	-50.3	16.6	0.00e+00	0	43	0	340787200	65	5290
2026-01-06 09:18:47.76	123.16	26.85	-47.4	-50.2	16.7	0.00e+00	0	43	0	342884352	65	5258
2026-01-06 09:18:48.76	123.01	27.00	-47.3	-50.1	16.7	0.00e+00	0	43	0	343932928	65	5199
2026-01-06 09:18:49.75	122.85	27.14	-47.2	-49.9	17.0	0.00e+00	0	43	0	346030080	65	5080
2026-01-06 09:18:50.75	122.69	27.29	-47.3	-50.0	16.8	0.00e+00	0	43	0	348127232	65	5157
2026-01-06 09:18:51.75	122.53	27.45	-47.3	-50.1	16.8	0.00e+00	0	43	0	350224384	65	5185
2026-01-06 09:18:52.74	122.37	27.60	-47.4	-50.2	16.7	0.00e+00	0	43	0	351272960	65	5241
2026-01-06 09:18:53.74	122.21	27.75	-47.5	-50.3	16.6	0.00e+00	0	43	0	353370112	65	5310
2026-01-06 09:18:54.73	122.05	27.90	-47.4	-50.2	16.7	0.00e+00	0	43	0	355467264	65	5256
2026-01-06 09:18:55.73	121.88	28.05	-47.5	-50.3	16.6	0.00e+00	0	44	0	357564416	65	5334
2026-01-06 09:18:56.73	121.71	28.21	-47.5	-50.4	16.5	0.00e+00	0	43	0	359661568	65	5368
2026-01-06 09:18:57.73	121.54	28.36	-47.6	-50.4	16.5	0.00e+00	0	43	0	360710144	65	5358
2026-01-06 09:18:58.72	121.37	28.51	-47.6	-50.5	16.4	0.00e+00	0	43	0	362807296	65	5423
2026-01-06 09:18:59.72	121.20	28.67	-47.6	-50.5	16.4	0.00e+00	0	43	0	364904448	66	5121
2026-01-06 09:19:00.72	121.03	28.83	-47.6	-50.4	16.5	0.00e+00	0	43	0	367001600	66	5098
2026-01-06 09:19:01.71	120.85	28.98	-47.6	-50.5	16.5	0.00e+00	0	43	0	369098752	66	5123
2026-01-06 09:19:02.71	120.67	29.14	-47.3	-50.1	16.8	0.00e+00	0	43	0	370147328	66	4919
2026-01-06 09:19:03.70	120.50	29.29	-47.3	-50.2	16.7	0.00e+00	0	43	0	372244480	66	4958
2026-01-06 09:19:04.70	120.31	29.45	-47.3	-50.2	16.7	0.00e+00	0	43	0	374341632	66	4948
2026-01-06 09:19:05.69	120.13	29.61	-47.3	-50.2	16.7	0.00e+00	0	43	0	376438784	66	4935
2026-01-06 09:19:06.69	119.95	29.77	-47.4	-50.3	16.6	0.00e+00	0	43	0	377487360	66	5013
2026-01-06 09:19:07.69	119.76	29.93	-47.5	-50.4	16.5	0.00e+00	0	43	0	379584512	66	5091
2026-01-06 09:19:08.68	119.57	30.09	-47.6	-50.5	16.4	0.00e+00	0	43	0	381681664	66	5150
2026-01-06 09:19:09.68	119.38	30.25	-47.8	-50.8	16.1	0.00e+00	0	43	0	383778816	66	5324
2026-01-06 09:19:10.68	119.19	30.41	-48.1	-51.2	15.8	0.00e+00	0	43	0	385875968	66	5542
2026-01-06 09:19:11.68	119.00	30.57	-48.3	-51.4	15.5	0.00e+00	0	43	0	386924544	67	5389
2026-01-06 09:19:12.67	118.80	30.73	-48.4	-51.6	15.3	0.00e+00	0	43	0	389021696	67	5525
2026-01-06 09:19:13.67	118.60	30.90	-48.4	-51.7	15.3	0.00e+00	0	43	0	391118848	67	5532
2026-01-06 09:19:14.66	118.40	31.06	-48.6	-51.9	15.2	0.00e+00	0	43	0	393216000	67	5659
2026-01-06 09:19:15.66	118.20	31.22	-48.5	-51.8	15.1	0.00e+00	0	43	0	394264576	67	5632
2026-01-06 09:19:16.66	117.99	31.39	-48.6	-51.9	15.1	7.00e-07	0	43	0	396361728	67	5669
2026-01-06 09:19:17.65	117.79	31.55	-48.9	-52.4	14.8	0.00e+00	0	43	0	398458880	68	5657
2026-01-06 09:19:18.65	117.58	31.72	-49.0	-52.5	14.6	0.00e+00	0	43	0	400556032	68	5738
2026-01-06 09:19:19.64	117.37	31.88	-49.1	-52.6	14.5	0.00e+00	0	43	0	402653184	68	5841
2026-01-06 09:19:20.63	117.16	32.05	-48.9	-52.3	14.8	7.00e-07	0	43	0	403701760	68	5650
2026-01-06 09:19:21.63	116.94	32.21	-49.0	-52.5	14.6	0.00e+00	0	43	0	405798912	68	5764
2026-01-06 09:19:22.63	116.73	32.38	-49.0	-52.5	14.6	0.00e+00	0	43	0	407896064	68	5747
2026-01-06 09:19:23.63	116.51	32.55	-48.9	-52.3	14.8	0.00e+00	0	43	0	409993216	68	5623
2026-01-06 09:19:24.62	116.29	32.72	-48.9	-52.4	14.8	7.00e-07	0	43	0	412090368	68	5657
2026-01-06 09:19:25.62	116.06	32.89	-48.9	-52.3	14.8	7.00e-07	0	43	0	413138944	68	5620
2026-01-06 09:19:26.62	115.83	33.05	-48.9	-52.4	14.7	7.00e-07	0	43	0	415236096	68	5698
2026-01-06 09:19:27.61	115.61	33.22	-48.8	-52.2	14.9	0.00e+00	0	43	0	417333248	68	5567
2026-01-06 09:19:28.61	115.37	33.39	-48.9	-52.3	14.8	1.50e-06	0	43	0	419430400	68	5650
2026-01-06 09:19:29.60	115.14	33.56	-49.0	-52.5	14.6	7.00e-07	0	43	0	420478976	68	5751
2026-01-06 09:19:30.60	114.90	33.73	-49.0	-52.5	14.7	0.00e+00	0	43	0	422576128	68	5738
2026-01-06 09:19:31.59	114.67	33.90	-49.1	-52.5	14.6	0.00e+00	0	43	0	424673280	68	5785
2026-01-06 09:19:32.59	114.43	34.08	-49.1	-52.6	14.5	0.00e+00	0	43	0	426770432	68	5797
2026-01-06 09:19:33.58	114.18	34.25	-49.0	-52.5	14.6	0.00e+00	0	43	0	428867584	68	5762
2026-01-06 09:19:34.58	113.94	34.42	-48.9	-52.4	14.8	7.00e-07	0	43	0	429916160	68	5689
2026-01-06 09:19:35.58	113.69	34.59	-48.8	-52.2	15.0	0.00e+00	0	43	0	432013312	68	5545
2026-01-06 09:19:36.57	113.44	34.76	-48.7	-52.1	15.1	0.00e+00	0	43	0	434110464	68	5511
2026-01-06 09:19:37.57	113.18	34.94	-48.6	-51.9	15.2	0.00e+00	0	43	0	436207616	68	5349
2026-01-06 09:19:38.57	112.92	35.11	-48.8	-52.1	15.1	0.00e+00	0	43	0	437256192	68	5505
2026-01-06 09:19:39.56	112.66	35.28	-48.8	-52.2	15.0	0.00e+00	0	43	0	439353344	68	5581
2026-01-06 09:19:40.56	112.40	35.46	-48.7	-52.0	15.1	0.00e+00	0	43	0	441450496	68	5456
2026-01-06 09:19:41.56	112.13	35.63	-48.7	-52.0	15.2	0.00e+00	0	43	0	443547648	68	5446
2026-01-06 09:19:42.55	111.87	35.80	-48.6	-51.8	15.4	0.00e+00	0	43	0	445644800	68	5288
2026-01-06 09:19:43.55	111.59	35.98	-48.5	-51.6	15.6	0.00e+00	0	43	0	446693376	68	5186
2026-01-06 09:19:44.55	111.32	36.16	-48.3	-51.4	15.7	0.00e+00	0	43	0	448790528	68	5076
2026-01-06 09:19:45.54	111.04	36.33	-48.3	-51.4	15.8	0.00e+00	0	43	0	450887680	68	5070
2026-01-06 09:19:46.54	110.76	36.50	-48.3	-51.4	15.8	0.00e+00	0	43	0	452984832	68	5058
2026-01-06 09:19:47.53	110.48	36.68	-48.3	-51.4	15.8	0.00e+00	0	43	0	454033408	68	5074
2026-01-06 09:19:48.52	110.20	36.85	-48.4	-51.5	15.6	0.00e+00	0	43	0	456130560	68	5146
2026-01-06 09:19:49.52	109.91	37.03	-48.2	-51.3	15.9	0.00e+00	0	43	0	458227712	68	4994
2026-01-06 09:19:50.52	109.61	37.20	-48.1	-51.0	16.1	0.00e+00	0	43	0	460324864	68	4864
2026-01-06 09:19:51.52	109.32	37.38	-48.1	-51.2	16.0	0.00e+00	0	43	0	462422016	68	4937
2026-01-06 09:19:52.51	109.02	37.56	-48.3	-51.4	15.8	0.00e+00	0	43	0	463470592	68	5055
2026-01-06 09:19:53.51	108.72	37.73	-48.2	-51.3	15.8	0.00e+00	0	43	0	465567744	68	5026
2026-01-06 09:19:54.50	108.41	37.91	-48.2	-51.2	16.0	0.00e+00	0	43	0	467664896	68	4972
2026-01-06 09:19:55.50	108.10	38.08	-48.0	-50.9	16.2	0.00e+00	0	43	0	469762048	68	4813
2026-01-06 09:19:56.49	107.79	38.26	-47.7	-50.6	16.4	0.00e+00	0	43	0	470810624	67	4904
2026-01-06 09:19:57.49	107.47	38.43	-48.1	-51.1	15.9	0.00e+00	0	44	0	472907776	67	5186
2026-01-06 09:19:58.49	107.15	38.61	-48.2	-51.3	15.7	0.00e+00	0	43	0	475004928	67	5327
2026-01-06 09:19:59.48	106.83	38.78	-48.1	-51.2	15.8	0.00e+00	0	43	0	477102080	67	5258
2026-01-06 09:20:00.48	106.51	38.96	-47.9	-50.9	16.1	0.00e+00	0	43	0	479199232	67	5076
2026-01-06 09:20:01.48	106.18	39.13	-48.0	-51.1	15.9	0.00e+00	0	44	0	480247808	67	5194
2026-01-06 09:20:02.47	105.85	39.31	-48.1	-51.2	15.9	0.00e+00	0	43	0	482344960	67	5223
2026-01-06 09:20:03.47	105.51	39.48	-48.3	-51.4	15.6	0.00e+00	0	43	0	484442112	67	5378
2026-01-06 09:20:04.46	105.17	39.66	-48.4	-51.7	15.4	0.00e+00	0	43	0	486539264	67	5531
2026-01-06 09:20:05.46	104.82	39.83	-48.4	-51.5	15.4	0.00e+00	0	43	0	487587840	67	5453
2026-01-06 09:20:06.46	104.47	40.01	-48.2	-51.3	15.7	0.00e+00	0	43	0	489684992	67	5304
2026-01-06 09:20:07.46	104.12	40.18	-48.0	-51.0	16.0	0.00e+00	0	43	0	491782144	67	5145
2026-01-06 09:20:08.45	103.77	40.35	-47.9	-51.0	16.0	0.00e+00	0	44	0	493879296	67	5107
2026-01-06 09:20:09.45	103.41	40.52	-48.3	-51.5	15.6	0.00e+00	0	43	0	495976448	67	5404
2026-01-06 09:20:10.45	103.04	40.70	-48.6	-51.9	15.1	0.00e+00	0	43	0	497025024	67	5702
2026-01-06 09:20:11.44	102.68	40.87	-48.8	-52.1	15.1	0.00e+00	0	43	0	499122176	68	5504
2026-01-06 09:20:12.44	102.31	41.04	-48.9	-52.3	14.9	0.00e+00	0	43	0	501219328	68	5634
2026-01-06 09:20:13.43	101.93	41.21	-49.0	-52.4	14.8	0.00e+00	0	43	0	503316480	68	5716
2026-01-06 09:20:14.43	101.55	41.38	-48.8	-52.1	15.1	7.00e-07	0	43	0	505413632	68	5506
2026-01-06 09:20:15.43	101.17	41.55	-48.8	-52.2	15.0	7.00e-07	0	43	0	506462208	68	5547
2026-01-06 09:20:16.42	100.79	41.71	-49.0	-52.4	14.7	0.00e+00	0	43	0	508559360	68	5719
2026-01-06 09:20:17.41	100.40	41.88	-49.0	-52.4	14.8	7.00e-07	0	43	0	510656512	68	5680
2026-01-06 09:20:18.41	100.00	42.05	-48.8	-52.1	15.1	0.00e+00	0	43	0	512753664	68	5514
2026-01-06 09:20:19.40	99.60	42.21	-48.7	-52.0	15.2	7.00e-07	0	43	0	513802240	68	5435
2026-01-06 09:20:20.39	99.20	42.38	-48.6	-51.8	15.4	0.00e+00	0	43	0	515899392	68	5286
2026-01-06 09:20:21.39	98.80	42.54	-48.3	-51.5	15.8	0.00e+00	0	43	0	517996544	68	5104
2026-01-06 09:20:22.38	98.39	42.70	-48.2	-51.3	15.9	0.00e+00	0	43	0	520093696	68	5019
2026-01-06 09:20:23.38	97.97	42.87	-47.5	-50.3	16.7	0.00e+00	0	43	0	522190848	67	4741
2026-01-06 09:20:24.38	97.55	43.03	-47.2	-49.9	17.2	0.00e+00	0	43	0	523239424	66	4773
2026-01-06 09:20:25.38	97.12	43.19	-46.9	-49.5	17.4	0.00e+00	0	43	0	525336576	65	4831
2026-01-06 09:20:26.37	96.70	43.35	-46.7	-49.3	17.7	0.00e+00	0	43	0	527433728	65	4725
2026-01-06 09:20:27.37	96.26	43.51	-46.4	-48.8	18.1	0.00e+00	0	43	0	529530880	64	4754
2026-01-06 09:20:28.37	95.82	43.67	-46.2	-48.6	18.3	0.00e+00	0	43	0	531628032	64	4641
2026-01-06 09:20:29.36	95.39	43.82	-46.3	-48.7	18.2	0.00e+00	0	43	0	532676608	64	4682
2026-01-06 09:20:30.36	94.94	43.97	-46.5	-49.0	18.0	0.00e+00	0	44	0	534773760	64	4826
2026-01-06 09:20:31.36	94.49	44.13	-46.5	-49.0	17.9	0.00e+00	0	43	0	536870912	64	4856
2026-01-06 09:20:32.35	94.04	44.28	-46.5	-49.0	17.9	0.00e+00	0	43	0	538968064	64	4862
2026-01-06 09:20:33.35	93.58	44.43	-46.6	-49.1	17.9	0.00e+00	0	43	0	540016640	64	4916
2026-01-06 09:20:34.35	93.11	44.58	-46.7	-49.3	17.7	0.00e+00	0	43	0	542113792	64	5009
2026-01-06 09:20:35.34	92.65	44.72	-46.8	-49.5	17.5	0.00e+00	0	44	0	544210944	64	5112
2026-01-06 09:20:36.34	92.17	44.87	-46.8	-49.4	17.6	0.00e+00	0	44	0	546308096	64	5050
2026-01-06 09:20:37.33	91.70	45.01	-46.5	-49.0	17.9	0.00e+00	0	44	0	548405248	64	4867
2026-01-06 09:20:38.33	91.22	45.16	-46.2	-48.7	18.2	0.00e+00	0	43	0	549453824	64	4653
2026-01-06 09:20:39.33	90.73	45.30	-46.4	-48.9	18.1	0.00e+00	0	44	0	551550976	64	4789
2026-01-06 09:20:40.33	90.24	45.44	-46.6	-49.2	17.8	0.00e+00	0	43	0	553648128	64	4973
2026-01-06 09:20:41.32	89.75	45.57	-47.0	-49.7	17.3	0.00e+00	0	43	0	555745280	64	5264
2026-01-06 09:20:42.31	89.26	45.70	-47.6	-50.6	16.4	0.00e+00	0	43	0	556793856	65	5524
2026-01-06 09:20:43.31	88.75	45.84	-47.8	-50.8	16.2	0.00e+00	0	43	0	558891008	66	5316
2026-01-06 09:20:44.31	88.25	45.97	-47.9	-51.0	16.1	0.00e+00	0	43	0	560988160	66	5446
2026-01-06 09:20:45.31	87.74	46.10	-48.1	-51.3	15.7	0.00e+00	0	43	0	563085312	66	5628
2026-01-06 09:20:46.30	87.22	46.22	-48.1	-51.2	15.9	0.00e+00	0	43	0	565182464	67	5271
2026-01-06 09:20:47.30	86.70	46.35	-48.0	-51.1	15.9	0.00e+00	0	43	0	566231040	67	5201
2026-01-06 09:20:48.30	86.18	46.47	-47.9	-51.0	16.0	0.00e+00	0	43	0	568328192	67	5155
2026-01-06 09:20:49.30	85.65	46.59	-48.0	-51.1	16.0	0.00e+00	0	43	0	570425344	67	5168
2026-01-06 09:20:50.29	85.13	46.71	-48.1	-51.3	15.8	0.00e+00	0	43	0	572522496	67	5288
2026-01-06 09:20:51.29	84.59	46.82	-48.4	-51.7	15.4	0.00e+00	0	43	0	573571072	67	5560
2026-01-06 09:20:52.29	84.05	46.94	-48.8	-52.3	14.9	0.00e+00	0	44	0	575668224	68	5629
2026-01-06 09:20:53.29	83.51	47.05	-49.1	-52.8	14.4	0.00e+00	0	43	0	577765376	68	5927
2026-01-06 09:20:54.29	82.96	47.15	-49.0	-52.5	14.7	0.00e+00	0	43	0	579862528	69	5449
2026-01-06 09:20:55.30	82.40	47.26	-49.0	-52.4	14.8	0.00e+00	0	44	0	581959680	69	5385
2026-01-06 09:20:56.29	81.85	47.36	-49.4	-53.1	14.2	0.00e+00	0	44	0	583008256	69	5807
2026-01-06 09:20:57.29	81.29	47.46	-49.8	-53.8	13.5	7.60e-06	0	43	0	585105408	70	5938
2026-01-06 09:20:58.28	80.74	47.56	-49.7	-53.7	13.6	8.30e-06	0	43	0	587202560	70	5894
2026-01-06 09:20:59.28	80.17	47.65	-49.4	-53.2	14.1	5.30e-06	0	43	0	589299712	70	5540
2026-01-06 09:21:00.28	79.60	47.74	-49.6	-53.4	13.8	4.50e-06	0	43	0	591396864	70	5706
2026-01-06 09:21:01.28	79.03	47.83	-50.0	-54.1	13.2	1.14e-05	0	44	0	592445440	70	6141
2026-01-06 09:21:02.27	78.46	47.92	-49.8	-53.7	13.6	2.36e-05	0	43	0	594542592	70	5872
2026-01-06 09:21:03.27	77.88	48.00	-49.5	-53.2	14.0	3.00e-06	0	43	0	596639744	70	5560
2026-01-06 09:21:04.27	77.30	48.08	-49.5	-53.1	14.1	2.20e-06	0	43	0	598736896	70	5521
2026-01-06 09:21:05.26	76.72	48.16	-49.3	-52.9	14.3	7.00e-07	0	43	0	599785472	70	5365
2026-01-06 09:21:06.26	76.13	48.23	-48.9	-52.2	14.9	0.00e+00	0	43	0	601882624	69	5228
2026-01-06 09:21:07.26	75.54	48.30	-49.0	-52.3	15.1	0.00e+00	0	43	0	603979776	69	5295
2026-01-06 09:21:08.25	74.95	48.37	-49.3	-52.8	14.5	7.00e-07	0	43	0	606076928	69	5611
2026-01-06 09:21:09.25	74.36	48.43	-49.2	-52.7	14.5	1.50e-06	0	43	0	608174080	69	5540
2026-01-06 09:21:10.25	73.76	48.49	-49.1	-52.5	14.7	0.00e+00	0	43	0	609222656	69	5445
2026-01-06 09:21:11.24	73.17	48.55	-48.8	-52.1	15.1	0.00e+00	0	43	0	611319808	69	5214
2026-01-06 09:21:12.24	72.56	48.60	-48.8	-52.1	15.1	0.00e+00	0	43	0	613416960	69	5192
2026-01-06 09:21:13.23	71.97	48.65	-48.8	-52.1	15.1	0.00e+00	0	43	0	615514112	69	5165
2026-01-06 09:21:14.23	71.36	48.70	-48.6	-51.8	15.4	0.00e+00	0	43	0	616562688	69	5024
2026-01-06 09:21:15.23	70.75	48.74	-48.4	-51.4	15.8	0.00e+00	0	43	0	618659840	68	5098
2026-01-06 09:21:16.22	70.15	48.78	-48.3	-51.3	16.0	0.00e+00	0	43	0	620756992	68	4996
2026-01-06 09:21:17.22	69.54	48.82	-48.3	-51.4	15.9	0.00e+00	0	43	0	622854144	68	5086
2026-01-06 09:21:18.22	68.92	48.85	-48.4	-51.4	15.8	0.00e+00	0	43	0	624951296	68	5099
2026-01-06 09:21:19.21	68.32	48.88	-48.4	-51.4	15.8	0.00e+00	0	43	0	625999872	68	5076
2026-01-06 09:21:20.21	67.70	48.91	-48.4	-51.4	15.8	0.00e+00	0	43	0	628097024	68	5060
2026-01-06 09:21:21.21	67.09	48.93	-48.7	-51.9	15.4	0.00e+00	0	43	0	630194176	68	5344
2026-01-06 09:21:22.20	66.48	48.95	-48.5	-51.7	15.6	0.00e+00	0	43	0	632291328	68	5222
2026-01-06 09:21:23.20	65.86	48.97	-48.2	-51.3	16.0	0.00e+00	0	43	0	633339904	68	5000
2026-01-06 09:21:24.20	65.24	48.98	-48.2	-51.1	16.2	0.00e+00	0	43	0	635437056	68	4895
2026-01-06 09:21:25.20	64.62	48.99	-48.3	-51.4	15.9	0.00e+00	0	43	0	637534208	68	5069
2026-01-06 09:21:26.20	64.00	48.99	-48.4	-51.5	15.7	0.00e+00	0	43	0	639631360	68	5139
2026-01-06 09:21:27.20	63.38	48.99	-48.3	-51.4	15.9	0.00e+00	0	43	0	641728512	68	5051
2026-01-06 09:21:28.20	62.77	48.99	-48.6	-51.8	15.6	0.00e+00	0	43	0	642777088	68	5306
2026-01-06 09:21:29.19	62.15	48.99	-48.5	-51.6	15.6	0.00e+00	0	43	0	644874240	68	5182
2026-01-06 09:21:30.20	61.53	48.98	-48.5	-51.6	15.7	0.00e+00	0	43	0	646971392	68	5196
2026-01-06 09:21:31.19	60.92	48.96	-48.5	-51.6	15.7	0.00e+00	0	43	0	649068544	68	5195
2026-01-06 09:21:32.19	60.30	48.95	-48.3	-51.3	16.0	0.00e+00	0	43	0	651165696	68	5024
2026-01-06 09:21:33.18	59.69	48.93	-48.3	-51.4	15.9	0.00e+00	0	44	0	652214272	68	5051
2026-01-06 09:21:34.18	59.08	48.90	-48.2	-51.2	16.1	0.00e+00	0	44	0	654311424	68	4959
2026-01-06 09:21:35.18	58.46	48.88	-48.3	-51.3	16.0	0.00e+00	0	43	0	656408576	68	5030
2026-01-06 09:21:36.18	57.85	48.85	-48.4	-51.5	15.8	0.00e+00	0	44	0	658505728	68	5129
2026-01-06 09:21:37.18	57.24	48.81	-48.4	-51.5	15.8	0.00e+00	0	44	0	660602880	68	5126
2026-01-06 09:21:38.18	56.63	48.77	-48.1	-51.0	16.2	0.00e+00	0	43	0	661651456	68	4828
2026-01-06 09:21:39.18	56.02	48.73	-48.4	-51.4	15.9	0.00e+00	0	44	0	663748608	68	5070
2026-01-06 09:21:40.17	55.42	48.69	-48.3	-51.3	16.0	0.00e+00	0	43	0	665845760	68	4987
2026-01-06 09:21:41.18	54.80	48.64	-48.1	-51.0	16.2	0.00e+00	0	43	0	667942912	68	4847
2026-01-06 09:21:42.17	54.21	48.59	-48.1	-51.1	16.2	0.00e+00	0	43	0	668991488	68	4890
2026-01-06 09:21:43.17	53.61	48.53	-48.6	-51.8	15.5	0.00e+00	0	43	0	671088640	68	5294
2026-01-06 09:21:44.16	53.01	48.48	-48.6	-51.7	15.6	0.00e+00	0	43	0	673185792	68	5246
2026-01-06 09:21:45.16	52.42	48.42	-48.2	-51.2	16.0	0.00e+00	0	43	0	675282944	68	4959
2026-01-06 09:21:46.16	51.82	48.35	-48.1	-51.0	16.2	0.00e+00	0	43	0	677380096	68	4859
2026-01-06 09:21:47.16	51.23	48.28	-48.4	-51.4	15.9	0.00e+00	0	43	0	678428672	68	5085
2026-01-06 09:21:48.16	50.64	48.21	-48.4	-51.4	15.8	0.00e+00	0	43	0	680525824	68	5096
2026-01-06 09:21:49.15	50.06	48.14	-48.3	-51.3	16.0	0.00e+00	0	43	0	682622976	68	4995
2026-01-06 09:21:50.14	49.48	48.06	-48.3	-51.3	16.0	0.00e+00	0	43	0	684720128	68	5027
2026-01-06 09:21:51.15	48.90	47.98	-48.5	-51.6	15.6	0.00e+00	0	44	0	685768704	68	5193
2026-01-06 09:21:52.14	48.33	47.90	-48.4	-51.5	15.8	0.00e+00	0	44	0	687865856	68	5107
2026-01-06 09:21:53.14	47.75	47.81	-48.4	-51.4	15.8	0.00e+00	0	43	0	689963008	68	5089
2026-01-06 09:21:54.14	47.18	47.73	-48.5	-51.7	15.6	0.00e+00	0	44	0	692060160	68	5230
2026-01-06 09:21:55.13	46.62	47.63	-48.7	-51.9	15.3	0.00e+00	0	43	0	694157312	68	5398
2026-01-06 09:21:56.13	46.05	47.54	-48.7	-51.9	15.4	0.00e+00	0	43	0	695205888	68	5373
2026-01-06 09:21:57.13	45.49	47.44	-48.4	-51.5	15.8	0.00e+00	0	44	0	697303040	68	5127
2026-01-06 09:21:58.12	44.94	47.34	-48.6	-51.8	15.5	0.00e+00	0	43	0	699400192	68	5309
2026-01-06 09:21:59.12	44.39	47.24	-48.7	-51.9	15.3	0.00e+00	0	43	0	701497344	68	5401
2026-01-06 09:22:00.12	43.84	47.13	-48.7	-52.0	15.3	0.00e+00	0	43	0	703594496	68	5425
2026-01-06 09:22:01.12	43.29	47.03	-48.8	-52.1	15.2	0.00e+00	0	44	0	704643072	68	5475
2026-01-06 09:22:02.12	42.75	46.91	-48.8	-52.0	15.2	0.00e+00	0	44	0	706740224	68	5463
2026-01-06 09:22:03.12	42.21	46.80	-48.5	-51.7	15.6	0.00e+00	0	44	0	708837376	68	5227
2026-01-06 09:22:04.12	41.68	46.69	-48.4	-51.5	15.8	0.00e+00	0	44	0	710934528	68	5101
2026-01-06 09:22:05.11	41.15	46.57	-48.3	-51.4	15.9	0.00e+00	0	43	0	711983104	68	5060
2026-01-06 09:22:06.11	40.63	46.45	-48.4	-51.5	15.7	0.00e+00	0	43	0	714080256	68	5129
2026-01-06 09:22:07.12	40.10	46.32	-48.2	-51.2	16.1	0.00e+00	0	43	0	716177408	68	4965
2026-01-06 09:22:08.11	39.59	46.20	-48.1	-51.0	16.2	0.00e+00	0	43	0	718274560	68	4825
2026-01-06 09:22:09.12	39.07	46.07	-47.7	-50.6	16.5	0.00e+00	0	43	0	720371712	67	4876
2026-01-06 09:22:10.11	38.56	45.94	-47.5	-50.3	16.7	0.00e+00	0	43	0	721420288	67	4757
2026-01-06 09:22:11.11	38.06	45.81	-47.5	-50.3	16.8	0.00e+00	0	43	0	723517440	66	5000
2026-01-06 09:22:12.11	37.56	45.68	-47.4	-50.2	16.9	0.00e+00	0	43	0	725614592	66	4942
2026-01-06 09:22:13.11	37.06	45.55	-47.5	-50.3	16.8	0.00e+00	0	44	0	727711744	66	4996
2026-01-06 09:22:14.11	36.57	45.41	-47.4	-50.2	16.9	0.00e+00	0	43	0	729808896	66	4948
2026-01-06 09:22:15.11	36.08	45.27	-47.3	-50.0	17.0	0.00e+00	0	43	0	730857472	66	4853
2026-01-06 09:22:16.11	35.60	45.13	-47.3	-50.0	17.1	0.00e+00	0	43	0	732954624	66	4819
2026-01-06 09:22:17.11	35.12	44.99	-47.2	-49.9	17.1	0.00e+00	0	43	0	735051776	66	4786
2026-01-06 09:22:18.11	34.64	44.84	-47.1	-49.8	17.2	0.00e+00	0	44	0	737148928	66	4717
2026-01-06 09:22:19.11	34.17	44.70	-47.0	-49.6	17.4	0.00e+00	0	43	0	738197504	65	4906
2026-01-06 09:22:20.10	33.71	44.55	-46.9	-49.6	17.5	0.00e+00	0	44	0	740294656	65	4877
2026-01-06 09:22:21.10	33.25	44.40	-47.1	-49.7	17.3	0.00e+00	0	44	0	742391808	65	4975
2026-01-06 09:22:22.10	32.79	44.25	-47.1	-49.7	17.3	0.00e+00	0	43	0	744488960	65	4973
2026-01-06 09:22:23.10	32.33	44.10	-46.9	-49.6	17.5	0.00e+00	0	43	0	746586112	65	4871
2026-01-06 09:22:24.09	31.89	43.95	-46.9	-49.6	17.4	0.00e+00	0	43	0	747634688	65	4882
2026-01-06 09:22:25.09	31.44	43.79	-46.9	-49.6	17.4	0.00e+00	0	44	0	749731840	65	4883
2026-01-06 09:22:26.09	31.00	43.64	-47.0	-49.6	17.4	0.00e+00	0	43	0	751828992	65	4891
2026-01-06 09:22:27.09	30.57	43.48	-46.9	-49.6	17.4	0.00e+00	0	43	0	753926144	65	4888
2026-01-06 09:22:28.09	30.14	43.32	-47.2	-49.9	17.1	0.00e+00	0	43	0	756023296	65	5066
2026-01-06 09:22:29.09	29.71	43.16	-47.3	-50.1	17.0	0.00e+00	0	44	0	757071872	65	5182
2026-01-06 09:22:30.09	29.28	43.00	-47.4	-50.2	16.9	0.00e+00	0	43	0	759169024	65	5222
2026-01-06 09:22:31.09	28.87	42.84	-47.3	-50.1	17.0	0.00e+00	0	44	0	761266176	65	5161
2026-01-06 09:22:32.09	28.45	42.68	-47.3	-50.1	16.9	0.00e+00	0	44	0	763363328	65	5188
2026-01-06 09:22:33.08	28.04	42.51	-47.2	-50.0	17.1	0.00e+00	0	43	0	764411904	65	5139
2026-01-06 09:22:34.08	27.64	42.35	-47.2	-49.9	17.1	0.00e+00	0	43	0	766509056	65	5059
2026-01-06 09:22:35.08	27.24	42.18	-47.0	-49.7	17.3	0.00e+00	0	43	0	768606208	65	4976
2026-01-06 09:22:36.08	26.84	42.02	-46.6	-49.2	17.8	0.00e+00	0	43	0	770703360	65	4680
2026-01-06 09:22:37.08	26.44	41.85	-46.6	-49.2	17.8	0.00e+00	0	43	0	772800512	65	4652
2026-01-06 09:22:38.08	26.05	41.68	-46.9	-49.5	17.5	0.00e+00	0	43	0	773849088	65	4836
2026-01-06 09:22:39.08	25.67	41.51	-47.0	-49.6	17.4	0.00e+00	0	43	0	775946240	65	4887
2026-01-06 09:22:40.08	25.29	41.34	-47.1	-49.8	17.2	0.00e+00	0	43	0	778043392	65	5016
2026-01-06 09:22:41.08	24.91	41.18	-47.2	-49.9	17.1	0.00e+00	0	43	0	780140544	65	5078
2026-01-06 09:22:42.08	24.53	41.00	-47.2	-49.9	17.2	0.00e+00	0	43	0	782237696	65	5080
2026-01-06 09:22:43.08	24.17	40.83	-47.1	-49.8	17.3	0.00e+00	0	43	0	783286272	65	4999
2026-01-06 09:22:44.08	23.80	40.66	-47.1	-49.7	17.3	0.00e+00	0	44	0	785383424	65	4978
2026-01-06 09:22:45.08	23.44	40.49	-47.3	-50.1	17.0	0.00e+00	0	43	0	787480576	65	5179
2026-01-06 09:22:46.08	23.08	40.32	-47.6	-50.5	16.6	0.00e+00	0	44	0	789577728	65	5403
2026-01-06 09:22:47.08	22.73	40.15	-47.8	-50.7	16.4	0.00e+00	0	43	0	791674880	66	5256
2026-01-06 09:22:48.08	22.37	39.97	-47.9	-50.9	16.2	0.00e+00	0	44	0	792723456	66	5353
2026-01-06 09:22:49.08	22.03	39.80	-48.1	-51.2	15.9	0.00e+00	0	43	0	794820608	66	5575
2026-01-06 09:22:50.07	21.69	39.63	-48.2	-51.4	15.7	0.00e+00	0	44	0	796917760	67	5344
2026-01-06 09:22:51.07	21.35	39.45	-48.2	-51.4	15.7	0.00e+00	0	43	0	799014912	67	5362
2026-01-06 09:22:52.08	21.01	39.28	-48.2	-51.4	15.7	0.00e+00	0	43	0	800063488	67	5379
2026-01-06 09:22:53.07	20.68	39.10	-48.5	-51.8	15.2	0.00e+00	0	43	0	802160640	67	5633
2026-01-06 09:22:54.07	20.35	38.93	-48.6	-52.1	15.1	7.00e-07	0	43	0	804257792	67	5823
2026-01-06 09:22:55.06	20.03	38.75	-48.7	-52.1	15.1	0.00e+00	0	43	0	806354944	68	5511
2026-01-06 09:22:56.06	19.71	38.58	-48.6	-52.1	15.2	0.00e+00	0	43	0	808452096	68	5477
2026-01-06 09:22:57.07	19.39	38.40	-48.6	-52.0	15.3	0.00e+00	0	44	0	809500672	68	5421
2026-01-06 09:22:58.07	19.07	38.23	-48.8	-52.2	15.1	0.00e+00	0	43	0	811597824	68	5549
2026-01-06 09:22:59.07	18.76	38.05	-49.0	-52.6	14.7	0.00e+00	0	44	0	813694976	68	5790
2026-01-06 09:23:00.07	18.46	37.88	-49.0	-52.6	14.7	0.00e+00	0	43	0	815792128	68	5791
2026-01-06 09:23:01.07	18.15	37.70	-48.9	-52.4	14.9	7.00e-07	0	43	0	817889280	68	5673
2026-01-06 09:23:02.06	17.85	37.53	-48.8	-52.3	14.9	0.00e+00	0	43	0	818937856	68	5601
2026-01-06 09:23:03.06	17.56	37.35	-48.9	-52.5	14.8	0.00e+00	0	43	0	821035008	68	5760
2026-01-06 09:23:04.06	17.26	37.18	-48.9	-52.7	14.5	7.00e-07	0	43	0	823132160	68	5876
2026-01-06 09:23:05.05	16.97	37.00	-49.0	-52.9	14.3	0.00e+00	0	43	0	825229312	68	6028
2026-01-06 09:23:06.05	16.68	36.83	-49.1	-53.0	14.3	7.00e-07	0	43	0	826277888	68	6087
2026-01-06 09:23:07.05	16.40	36.65	-49.3	-53.3	14.0	7.00e-07	0	43	0	828375040	69	5970
2026-01-06 09:23:08.05	16.12	36.48	-49.3	-53.4	13.8	3.80e-06	0	43	0	830472192	69	6028
2026-01-06 09:23:09.05	15.84	36.30	-49.3	-53.4	13.8	6.10e-06	0	43	0	832569344	69	6048
2026-01-06 09:23:10.05	15.56	36.13	-49.3	-53.2	14.1	6.10e-06	0	43	0	834666496	69	5906
2026-01-06 09:23:11.05	15.29	35.95	-49.0	-52.6	14.6	0.00e+00	0	43	0	835715072	69	5518
2026-01-06 09:23:12.05	15.02	35.78	-49.0	-52.6	14.7	0.00e+00	0	44	0	837812224	69	5467
2026-01-06 09:23:13.05	14.75	35.61	-49.2	-52.8	14.4	0.00e+00	0	43	0	839909376	69	5613
2026-01-06 09:23:14.04	14.49	35.43	-49.2	-52.7	14.5	1.50e-06	0	43	0	842006528	69	5583
2026-01-06 09:23:15.04	14.23	35.26	-49.3	-53.0	14.3	7.00e-07	0	43	0	843055104	69	5733
2026-01-06 09:23:16.04	13.97	35.09	-49.4	-53.2	14.1	7.00e-07	0	43	0	845152256	69	5881
2026-01-06 09:23:17.04	13.71	34.91	-49.3	-53.0	14.2	7.00e-07	0	43	0	847249408	69	5760
2026-01-06 09:23:18.03	13.46	34.74	-49.2	-52.8	14.4	7.00e-07	0	44	0	849346560	69	5643
2026-01-06 09:23:19.03	13.21	34.57	-49.2	-52.8	14.4	2.20e-06	0	43	0	851443712	69	5615
2026-01-06 09:23:20.03	12.96	34.40	-48.9	-52.3	14.9	0.00e+00	0	43	0	852492288	69	5337
2026-01-06 09:23:21.03	12.72	34.23	-48.9	-52.3	14.9	0.00e+00	0	43	0	854589440	69	5314
2026-01-06 09:23:22.03	12.48	34.06	-48.8	-52.2	15.0	0.00e+00	0	44	0	856686592	69	5277
2026-01-06 09:23:23.03	12.24	33.88	-48.9	-52.5	14.7	0.00e+00	0	43	0	858783744	69	5458
2026-01-06 09:23:24.02	12.00	33.72	-48.8	-52.4	14.9	7.00e-07	0	43	0	860880896	69	5374
2026-01-06 09:23:25.02	11.77	33.55	-48.7	-52.3	15.0	0.00e+00	0	43	0	861929472	69	5293
2026-01-06 09:23:26.02	11.53	33.38	-48.5	-52.0	15.3	0.00e+00	0	43	0	864026624	69	5110
2026-01-06 09:23:27.02	11.30	33.21	-48.6	-52.0	15.2	0.00e+00	0	44	0	866123776	69	5121
2026-01-06 09:23:28.02	11.08	33.04	-48.6	-51.9	15.3	0.00e+00	0	44	0	868220928	69	5078
2026-01-06 09:23:29.01	10.85	32.87	-48.6	-52.0	15.2	0.00e+00	0	44	0	869269504	69	5114
2026-01-06 09:23:30.01	10.63	32.70	-48.5	-51.8	15.4	0.00e+00	0	43	0	871366656	69	5018
2026-01-06 09:23:31.01	10.41	32.54	-48.6	-51.9	15.4	0.00e+00	0	43	0	873463808	68	5350
2026-01-06 09:23:32.00	10.19	32.37	-48.6	-51.8	15.4	0.00e+00	0	44	0	875560960	68	5297
2026-01-06 09:23:33.00	9.98	32.20	-48.7	-52.0	15.2	0.00e+00	0	44	0	877658112	68	5454
2026-01-06 09:23:33.99	9.76	32.04	-48.8	-52.2	15.1	0.00e+00	0	43	0	878706688	68	5556
2026-01-06 09:23:34.99	9.55	31.87	-48.9	-52.3	14.9	0.00e+00	0	43	0	880803840	68	5636
2026-01-06 09:23:35.99	9.34	31.71	-49.0	-52.4	14.8	0.00e+00	0	43	0	882900992	68	5707
2026-01-06 09:23:36.99	9.14	31.54	-49.0	-52.5	14.7	0.00e+00	0	43	0	884998144	68	5749
2026-01-06 09:23:37.99	8.93	31.38	-49.0	-52.4	14.8	0.00e+00	0	43	0	887095296	68	5712
2026-01-06 09:23:38.99	8.73	31.21	-49.0	-52.5	14.7	0.00e+00	0	43	0	888143872	68	5763
2026-01-06 09:23:39.99	8.53	31.05	-48.9	-52.4	14.8	0.00e+00	0	44	0	890241024	68	5696
2026-01-06 09:23:40.99	8.33	30.89	-48.8	-52.3	14.9	0.00e+00	0	43	0	892338176	68	5610
2026-01-06 09:23:41.98	8.13	30.73	-48.9	-52.4	14.8	0.00e+00	0	44	0	894435328	68	5711
2026-01-06 09:23:42.98	7.94	30.57	-48.8	-52.4	14.9	0.00e+00	0	43	0	895483904	68	5662
2026-01-06 09:23:43.97	7.75	30.41	-48.8	-52.3	14.9	7.00e-07	0	44	0	897581056	68	5653
2026-01-06 09:23:44.97	7.56	30.25	-48.7	-52.2	15.0	7.00e-07	0	44	0	899678208	68	5550
2026-01-06 09:23:45.97	7.37	30.09	-48.7	-52.2	15.1	0.00e+00	0	43	0	901775360	68	5533
2026-01-06 09:23:46.97	7.18	29.93	-48.6	-52.0	15.2	0.00e+00	0	43	0	903872512	68	5438
2026-01-06 09:23:47.97	6.99	29.77	-48.8	-52.2	15.0	0.00e+00	0	43	0	904921088	68	5574
2026-01-06 09:23:48.97	6.81	29.61	-48.8	-52.3	14.9	7.00e-07	0	43	0	907018240	68	5638
2026-01-06 09:23:49.97	6.63	29.45	-48.9	-52.5	14.7	0.00e+00	0	44	0	909115392	68	5738
2026-01-06 09:23:50.96	6.45	29.30	-48.9	-52.4	14.9	0.00e+00	0	43	0	911212544	68	5676
2026-01-06 09:23:51.97	6.27	29.14	-48.8	-52.3	15.0	0.00e+00	0	43	0	913309696	68	5604
2026-01-06 09:23:52.97	6.09	28.98	-48.6	-51.9	15.3	0.00e+00	0	43	0	914358272	68	5349
2026-01-06 09:23:53.96	5.92	28.83	-48.4	-51.6	15.6	0.00e+00	0	43	0	916455424	68	5197
2026-01-06 09:23:54.96	5.75	28.67	-48.2	-51.3	15.9	0.00e+00	0	43	0	918552576	68	5006
2026-01-06 09:23:55.97	5.57	28.52	-48.2	-51.2	16.0	0.00e+00	0	43	0	920649728	68	4970
2026-01-06 09:23:56.96	5.41	28.36	-48.1	-51.2	16.0	0.00e+00	0	43	0	921698304	68	4944
2026-01-06 09:23:57.96	5.24	28.21	-48.1	-51.2	16.0	0.00e+00	0	43	0	923795456	68	4942
2026-01-06 09:23:58.95	5.07	28.06	-48.1	-51.2	16.1	0.00e+00	0	43	0	925892608	68	4934
2026-01-06 09:23:59.95	4.91	27.91	-48.1	-51.1	16.1	0.00e+00	0	43	0	927989760	68	4902
2026-01-06 09:24:00.94	4.75	27.76	-48.1	-51.1	16.1	0.00e+00	0	43	0	930086912	68	4880
2026-01-06 09:24:01.94	4.59	27.61	-48.0	-51.0	16.2	0.00e+00	0	44	0	931135488	68	4851
2026-01-06 09:24:02.94	4.43	27.45	-48.0	-51.0	16.2	0.00e+00	0	44	0	933232640	68	4863
2026-01-06 09:24:03.94	4.27	27.30	-47.7	-50.6	16.4	0.00e+00	0	43	0	935329792	67	4885
2026-01-06 09:24:04.93	4.11	27.16	-47.6	-50.5	16.6	0.00e+00	0	44	0	937426944	67	4829
2026-01-06 09:24:05.93	3.96	27.01	-47.6	-50.6	16.5	0.00e+00	0	43	0	939524096	67	4874
2026-01-06 09:24:06.93	3.80	26.86	-47.7	-50.6	16.4	0.00e+00	0	43	0	940572672	67	4923
2026-01-06 09:24:07.92	3.65	26.71	-47.7	-50.7	16.3	0.00e+00	0	44	0	942669824	67	4966
2026-01-06 09:24:08.92	3.50	26.57	-47.6	-50.6	16.4	0.00e+00	0	44	0	944766976	67	4925
2026-01-06 09:24:09.92	3.35	26.42	-47.6	-50.7	16.4	0.00e+00	0	44	0	946864128	67	4931
2026-01-06 09:24:10.91	3.20	26.28	-47.6	-50.6	16.5	0.00e+00	0	43	0	947912704	67	4878
2026-01-06 09:24:11.91	3.06	26.13	-47.6	-50.6	16.4	0.00e+00	0	44	0	950009856	67	4888
2026-01-06 09:24:12.91	2.91	25.99	-47.6	-50.6	16.4	0.00e+00	0	44	0	952107008	67	4900
2026-01-06 09:24:13.91	2.77	25.84	-47.6	-50.5	16.5	0.00e+00	0	43	0	954204160	67	4862
2026-01-06 09:24:14.91	2.62	25.70	-47.4	-50.3	16.7	0.00e+00	0	43	0	956301312	66	5002
2026-01-06 09:24:15.91	2.48	25.55	-47.4	-50.3	16.8	0.00e+00	0	43	0	957349888	66	4984
2026-01-06 09:24:16.90	2.34	25.41	-47.3	-50.2	16.8	0.00e+00	0	44	0	959447040	66	4967
2026-01-06 09:24:17.90	2.20	25.27	-47.2	-50.0	17.0	0.00e+00	0	43	0	961544192	66	4869
2026-01-06 09:24:18.90	2.07	25.13	-47.1	-50.0	17.0	0.00e+00	0	43	0	963641344	66	4826
2026-01-06 09:24:19.90	1.93	24.99	-47.0	-49.9	17.1	0.00e+00	0	43	0	964689920	66	4811
2026-01-06 09:24:20.89	1.80	24.85	-47.1	-50.0	17.0	0.00e+00	0	43	0	966787072	66	4841
2026-01-06 09:24:21.89	1.66	24.71	-47.2	-50.1	16.9	0.00e+00	0	43	0	968884224	66	4911
2026-01-06 09:24:22.89	1.53	24.57	-47.3	-50.3	16.8	0.00e+00	0	43	0	970981376	66	4988
2026-01-06 09:24:23.89	1.40	24.43	-47.4	-50.4	16.6	0.00e+00	0	43	0	973078528	66	5045
2026-01-06 09:24:24.89	1.27	24.30	-47.5	-50.5	16.5	0.00e+00	0	44	0	974127104	66	5137
2026-01-06 09:24:25.89	1.14	24.16	-47.5	-50.6	16.5	0.00e+00	0	43	0	976224256	66	5166
2026-01-06 09:24:26.88	1.01	24.02	-47.6	-50.7	16.4	0.00e+00	0	43	0	978321408	66	5224
2026-01-06 09:24:27.88	0.88	23.89	-47.5	-50.5	16.5	0.00e+00	0	43	0	980418560	66	5128
2026-01-06 09:24:28.88	0.76	23.75	-47.5	-50.5	16.5	0.00e+00	0	43	0	982515712	66	5116
2026-01-06 09:24:29.88	0.63	23.62	-47.5	-50.4	16.6	0.00e+00	0	43	0	983564288	66	5074
2026-01-06 09:24:30.88	0.51	23.48	-47.5	-50.4	16.6	0.00e+00	0	43	0	985661440	66	5086
2026-01-06 09:24:31.88	0.39	23.35	-47.3	-50.3	16.7	0.00e+00	0	44	0	987758592	66	5014
2026-01-06 09:24:32.87	0.27	23.22	-47.2	-50.1	16.9	0.00e+00	0	43	0	989855744	66	4919
2026-01-06 09:24:33.87	0.15	23.08	-47.2	-50.2	16.8	0.00e+00	0	43	0	990904320	66	4972
2026-01-06 09:24:34.87	0.03	22.95	-47.1	-50.2	16.8	0.00e+00	0	43	0	993001472	66	4939
2026-01-06 09:24:35.86	359.91	22.82	-47.1	-50.1	16.9	0.00e+00	0	43	0	995098624	66	4898
2026-01-06 09:24:36.86	359.79	22.69	-47.1	-50.0	16.9	0.00e+00	0	43	0	997195776	66	4863
2026-01-06 09:24:37.86	359.68	22.56	-47.1	-50.1	16.9	0.00e+00	0	43	0	999292928	66	4878
2026-01-06 09:24:38.85	359.56	22.43	-47.2	-50.2	16.8	0.00e+00	0	43	0	1000341504	66	4939
2026-01-06 09:24:39.86	359.45	22.30	-47.3	-50.2	16.8	0.00e+00	0	43	0	1002438656	66	4957
2026-01-06 09:24:40.86	359.33	22.17	-47.4	-50.2	16.8	0.00e+00	0	43	0	1004535808	66	4948
2026-01-06 09:24:41.85	359.22	22.04	-47.4	-50.3	16.7	0.00e+00	0	43	0	1006632960	66	4990
2026-01-06 09:24:42.85	359.11	21.91	-47.5	-50.4	16.6	0.00e+00	0	43	0	1007681536	66	5062
2026-01-06 09:24:43.85	359.00	21.79	-47.4	-50.3	16.7	0.00e+00	0	43	0	1009778688	66	5007
2026-01-06 09:24:44.84	358.89	21.66	-47.3	-50.3	16.7	0.00e+00	0	44	0	1011875840	66	5015
2026-01-06 09:24:45.84	358.78	21.53	-47.3	-50.3	16.7	0.00e+00	0	43	0	1013972992	66	5013
2026-01-06 09:24:46.83	358.68	21.41	-47.2	-50.3	16.7	0.00e+00	0	43	0	1016070144	66	4985
2026-01-06 09:24:47.83	358.57	21.28	-47.3	-50.4	16.6	0.00e+00	0	44	0	1017118720	66	5055
2026-01-06 09:24:48.83	358.46	21.16	-47.3	-50.3	16.7	0.00e+00	0	43	0	1019215872	66	5010
2026-01-06 09:24:49.83	358.36	21.03	-47.3	-50.3	16.7	0.00e+00	0	43	0	1021313024	66	5007
2026-01-06 09:24:50.83	358.25	20.91	-47.4	-50.3	16.7	0.00e+00	0	43	0	1023410176	66	5036
2026-01-06 09:24:51.82	358.15	20.79	-47.4	-50.4	16.6	0.00e+00	0	43	0	1025507328	66	5050
2026-01-06 09:24:52.82	358.05	20.66	-47.4	-50.3	16.7	0.00e+00	0	44	0	1026555904	66	4998
2026-01-06 09:24:53.82	357.95	20.54	-47.4	-50.3	16.7	0.00e+00	0	43	0	1028653056	66	5018
2026-01-06 09:24:54.82	357.85	20.42	-47.4	-50.3	16.7	0.00e+00	0	43	0	1030750208	66	5013
2026-01-06 09:24:55.82	357.75	20.30	-47.4	-50.4	16.6	0.00e+00	0	43	0	1032847360	66	5076
2026-01-06 09:24:56.82	357.65	20.18	-47.5	-50.5	16.5	0.00e+00	0	43	0	1034944512	66	5113
2026-01-06 09:24:57.82	357.55	20.06	-47.5	-50.5	16.5	0.00e+00	0	43	0	1035993088	66	5141
2026-01-06 09:24:58.82	357.45	19.94	-47.6	-50.6	16.3	0.00e+00	0	43	0	1038090240	66	5208
2026-01-06 09:24:59.82	357.36	19.82	-47.7	-50.7	16.3	0.00e+00	0	43	0	1040187392	66	5235
2026-01-06 09:25:00.81	357.26	19.70	-47.8	-50.9	16.1	0.00e+00	0	44	0	1042284544	66	5377
2026-01-06 09:25:01.82	357.16	19.58	-47.8	-50.9	16.1	0.00e+00	0	44	0	1043333120	66	5369
2026-01-06 09:25:02.82	357.07	19.46	-47.9	-51.0	16.0	0.00e+00	0	43	0	1045430272	66	5445
2026-01-06 09:25:03.81	356.98	19.35	-47.8	-51.0	16.0	0.00e+00	0	43	0	1047527424	66	5426
2026-01-06 09:25:04.81	356.88	19.23	-47.7	-51.0	16.0	0.00e+00	0	43	0	1049624576	66	5442
2026-01-06 09:25:05.81	356.79	19.11	-47.5	-50.9	16.0	0.00e+00	0	44	0	1051721728	66	5383
2026-01-06 09:25:06.81	356.70	19.00	-47.4	-50.8	16.2	0.00e+00	0	43	0	1052770304	66	5293
2026-01-06 09:25:07.81	356.61	18.88	-47.4	-50.8	16.2	0.00e+00	0	43	0	1054867456	66	5299
2026-01-06 09:25:08.81	356.52	18.77	-47.2	-50.6	16.4	0.00e+00	0	43	0	1056964608	66	5164
2026-01-06 09:25:09.81	356.43	18.65	-47.1	-50.5	16.4	0.00e+00	0	43	0	1059061760	66	5118
2026-01-06 09:25:10.81	356.34	18.54	-47.2	-50.4	16.5	0.00e+00	0	44	0	1060110336	66	5085
2026-01-06 09:25:11.80	356.25	18.42	-47.1	-50.3	16.6	0.00e+00	0	43	0	1062207488	66	5010
2026-01-06 09:25:12.81	356.17	18.31	-47.1	-50.2	16.7	0.00e+00	0	43	0	1064304640	66	4952
2026-01-06 09:25:13.81	356.08	18.20	-47.0	-50.1	16.8	0.00e+00	0	43	0	1066401792	66	4893
2026-01-06 09:25:14.81	355.99	18.08	-47.0	-50.0	16.9	0.00e+00	0	43	0	1068498944	66	4867
2026-01-06 09:25:15.81	355.91	17.97	-47.0	-50.1	16.9	0.00e+00	0	43	0	1069547520	66	4875
2026-01-06 09:25:16.81	355.82	17.86	-46.9	-50.1	16.8	0.00e+00	0	44	0	1071644672	65	5170
2026-01-06 09:25:17.81	355.74	17.75	-46.9	-50.1	16.8	0.00e+00	0	43	0	1073741824	65	5203
2026-01-06 09:25:18.81	355.66	17.64	-46.9	-50.2	16.7	0.00e+00	0	43	0	1075838976	65	5247
2026-01-06 09:25:19.82	355.57	17.53	-47.0	-50.3	16.6	0.00e+00	0	43	0	1077936128	65	5309
2026-01-06 09:25:20.81	355.49	17.42	-47.0	-50.4	16.6	0.00e+00	0	44	0	1078984704	65	5341
2026-01-06 09:25:21.82	355.41	17.31	-47.2	-50.5	16.4	0.00e+00	0	44	0	1081081856	65	5405
2026-01-06 09:25:22.82	355.33	17.20	-47.3	-50.5	16.4	0.00e+00	0	44	0	1083179008	65	5407
2026-01-06 09:25:23.82	355.25	17.09	-47.4	-50.5	16.4	0.00e+00	0	44	0	1085276160	65	5458
2026-01-06 09:25:24.82	355.17	16.98	-47.5	-50.6	16.3	0.00e+00	0	44	0	1087373312	65	5508
2026-01-06 09:25:25.82	355.09	16.87	-47.6	-50.7	16.2	0.00e+00	0	44	0	1088421888	65	5585
2026-01-06 09:25:26.82	355.01	16.77	-47.8	-50.9	16.0	0.00e+00	0	44	0	1090519040	66	5366
2026-01-06 09:25:27.81	354.93	16.66	-47.8	-50.9	16.0	0.00e+00	0	43	0	1092616192	66	5400
2026-01-06 09:25:28.81	354.86	16.55	-47.8	-50.9	16.0	0.00e+00	0	44	0	1094713344	66	5364
2026-01-06 09:25:29.81	354.78	16.45	-47.9	-51.1	15.9	7.00e-07	0	44	0	1095761920	66	5475
2026-01-06 09:25:30.81	354.70	16.34	-47.9	-51.1	15.8	0.00e+00	0	44	0	1097859072	66	5507
2026-01-06 09:25:31.80	354.63	16.24	-47.9	-51.2	15.7	0.00e+00	0	44	0	1099956224	66	5565
2026-01-06 09:25:32.80	354.55	16.13	-47.9	-51.3	15.6	0.00e+00	0	43	0	1102053376	66	5647
2026-01-06 09:25:33.80	354.48	16.03	-47.8	-51.3	15.6	0.00e+00	0	44	0	1104150528	66	5622
2026-01-06 09:25:34.80	354.40	15.92	-47.8	-51.3	15.6	0.00e+00	0	43	0	1105199104	66	5624
2026-01-06 09:25:35.80	354.33	15.82	-47.8	-51.3	15.6	0.00e+00	0	43	0	1107296256	66	5626
2026-01-06 09:25:36.80	354.26	15.72	-47.9	-51.3	15.6	0.00e+00	0	44	0	1109393408	66	5639
2026-01-06 09:25:37.80	354.19	15.61	-47.8	-51.2	15.7	0.00e+00	0	44	0	1111490560	66	5564
2026-01-06 09:25:38.80	354.11	15.51	-47.8	-51.1	15.8	0.00e+00	0	44	0	1113587712	66	5507
2026-01-06 09:25:39.80	354.04	15.41	-47.8	-51.2	15.7	0.00e+00	0	44	0	1114636288	66	5552
2026-01-06 09:25:40.79	353.97	15.31	-47.9	-51.3	15.6	0.00e+00	0	43	0	1116733440	66	5598
2026-01-06 09:25:41.79	353.90	15.21	-47.8	-51.1	15.8	0.00e+00	0	43	0	1118830592	66	5514
2026-01-06 09:25:42.80	353.83	15.11	-47.9	-51.2	15.7	0.00e+00	0	43	0	1120927744	66	5563
2026-01-06 09:25:43.80	353.76	15.01	-47.8	-51.2	15.7	0.00e+00	0	43	0	1121976320	66	5537
2026-01-06 09:25:44.79	353.69	14.91	-47.8	-51.2	15.7	0.00e+00	0	43	0	1124073472	66	5577
2026-01-06 09:25:45.79	353.62	14.81	-47.9	-51.3	15.5	0.00e+00	0	44	0	1126170624	66	5648
2026-01-06 09:25:46.79	353.56	14.71	-47.9	-51.4	15.5	0.00e+00	0	43	0	1128267776	66	5661
2026-01-06 09:25:47.79	353.49	14.61	-47.9	-51.3	15.6	0.00e+00	0	43	0	1130364928	66	5641
2026-01-06 09:25:48.79	353.42	14.51	-48.0	-51.4	15.5	0.00e+00	0	43	0	1131413504	66	5714
2026-01-06 09:25:49.78	353.36	14.41	-48.0	-51.4	15.5	0.00e+00	0	43	0	1133510656	66	5671
2026-01-06 09:25:50.78	353.29	14.31	-48.1	-51.4	15.5	0.00e+00	0	44	0	1135607808	66	5693
2026-01-06 09:25:51.78	353.23	14.22	-48.2	-51.5	15.4	7.00e-07	0	43	0	1137704960	66	5741
2026-01-06 09:25:52.78	353.16	14.12	-48.2	-51.6	15.3	0.00e+00	0	43	0	1139802112	67	5484
2026-01-06 09:25:53.78	353.10	14.02	-48.2	-51.6	15.3	0.00e+00	0	43	0	1140850688	67	5467
2026-01-06 09:25:54.78	353.03	13.92	-48.0	-51.4	15.4	0.00e+00	0	43	0	1142947840	67	5396
2026-01-06 09:25:55.78	352.97	13.83	-47.9	-51.3	15.6	0.00e+00	0	43	0	1145044992	67	5323
2026-01-06 09:25:56.78	352.90	13.73	-47.9	-51.4	15.4	0.00e+00	0	43	0	1147142144	67	5395
2026-01-06 09:25:57.78	352.84	13.64	-47.8	-51.3	15.6	0.00e+00	0	43	0	1149239296	67	5302
2026-01-06 09:25:58.78	352.78	13.54	-47.7	-51.2	15.6	0.00e+00	0	43	0	1150287872	67	5275
2026-01-06 09:25:59.77	352.72	13.45	-47.5	-51.1	15.7	0.00e+00	0	44	0	1152385024	67	5193
2026-01-06 09:26:00.77	352.66	13.35	-47.3	-51.1	15.7	0.00e+00	0	44	0	1154482176	66	5517
2026-01-06 09:26:01.77	352.59	13.26	-47.1	-51.0	15.8	0.00e+00	0	43	0	1156579328	66	5440
2026-01-06 09:26:02.77	352.53	13.16	-47.1	-51.1	15.8	0.00e+00	0	44	0	1157627904	66	5480
2026-01-06 09:26:03.77	352.47	13.07	-46.9	-51.1	15.7	0.00e+00	0	43	0	1159725056	65	5808
2026-01-06 09:26:04.77	352.41	12.98	-46.7	-50.8	16.0	0.00e+00	0	44	0	1161822208	65	5617
2026-01-06 09:26:05.77	352.35	12.88	-46.9	-50.9	15.9	0.00e+00	0	43	0	1163919360	65	5706
2026-01-06 09:26:06.77	352.29	12.79	-46.9	-51.0	15.9	0.00e+00	0	44	0	1166016512	65	5738
2026-01-06 09:26:07.77	352.24	12.70	-46.9	-51.0	15.8	0.00e+00	0	43	0	1167065088	65	5729
2026-01-06 09:26:08.77	352.18	12.61	-47.0	-50.9	15.9	0.00e+00	0	43	0	1169162240	65	5708
2026-01-06 09:26:09.77	352.12	12.52	-47.1	-50.9	15.9	0.00e+00	0	43	0	1171259392	65	5708
2026-01-06 09:26:10.77	352.06	12.42	-47.2	-51.0	15.8	0.00e+00	0	44	0	1173356544	65	5775
2026-01-06 09:26:11.77	352.00	12.33	-47.2	-51.0	15.8	0.00e+00	0	43	0	1175453696	65	5763
2026-01-06 09:26:12.77	351.95	12.24	-47.4	-51.2	15.6	0.00e+00	0	43	0	1176502272	65	5870
2026-01-06 09:26:13.77	351.89	12.15	-47.5	-51.2	15.6	0.00e+00	0	43	0	1178599424	65	5894
2026-01-06 09:26:14.76	351.84	12.06	-47.6	-51.4	15.5	0.00e+00	0	44	0	1180696576	65	5994
2026-01-06 09:26:15.77	351.78	11.97	-47.6	-51.4	15.4	0.00e+00	0	44	0	1182793728	65	6026
2026-01-06 09:26:16.76	351.72	11.88	-47.5	-51.3	15.5	0.00e+00	0	44	0	1183842304	65	5981
2026-01-06 09:26:17.76	351.67	11.79	-47.7	-51.7	15.1	0.00e+00	0	43	0	1185939456	66	5898
2026-01-06 09:26:18.76	351.61	11.70	-47.6	-51.6	15.2	7.00e-07	0	44	0	1188036608	66	5846
2026-01-06 09:26:19.76	351.56	11.62	-47.5	-51.7	15.1	0.00e+00	0	43	0	1190133760	66	5861
2026-01-06 09:26:20.76	351.51	11.53	-47.4	-51.7	15.1	0.00e+00	0	43	0	1192230912	66	5878
2026-01-06 09:26:21.76	351.45	11.44	-47.3	-51.8	15.0	0.00e+00	0	44	0	1193279488	66	5941
2026-01-06 09:26:22.76	351.40	11.35	-47.2	-51.9	14.9	0.00e+00	0	43	0	1195376640	66	6039
2026-01-06 09:26:23.76	351.35	11.26	-47.2	-51.9	14.9	0.00e+00	0	43	0	1197473792	66	6035
2026-01-06 09:26:24.75	351.29	11.18	-47.1	-51.8	14.9	1.50e-06	0	44	0	1199570944	66	5985
2026-01-06 09:26:25.75	351.24	11.09	-47.1	-52.0	14.8	0.00e+00	0	44	0	1200619520	66	6067
2026-01-06 09:26:26.75	351.19	11.00	-47.2	-52.1	14.7	0.00e+00	0	43	0	1202716672	66	6156
2026-01-06 09:26:27.75	351.14	10.92	-46.8	-51.7	15.0	0.00e+00	0	43	0	1204813824	65	6235
2026-01-06 09:26:28.75	351.09	10.83	-46.8	-51.7	15.1	0.00e+00	0	44	0	1206910976	65	6205
2026-01-06 09:26:29.75	351.04	10.75	-46.8	-51.7	15.1	0.00e+00	0	44	0	1209008128	65	6211
2026-01-06 09:26:30.75	350.99	10.66	-46.8	-51.6	15.1	0.00e+00	0	43	0	1210056704	65	6180
2026-01-06 09:26:31.75	350.94	10.57	-47.0	-51.6	15.1	0.00e+00	0	43	0	1212153856	65	6183
2026-01-06 09:26:32.75	350.89	10.49	-47.0	-51.7	15.0	0.00e+00	0	43	0	1214251008	65	6213
2026-01-06 09:26:33.75	350.84	10.40	-47.0	-51.4	15.3	0.00e+00	0	43	0	1216348160	65	6052
2026-01-06 09:26:34.76	350.79	10.32	-47.0	-51.4	15.3	0.00e+00	0	43	0	1218445312	65	6038
2026-01-06 09:26:35.75	350.74	10.24	-47.2	-51.5	15.2	0.00e+00	0	44	0	1219493888	65	6101
2026-01-06 09:26:36.75	350.69	10.15	-47.3	-51.4	15.3	0.00e+00	0	43	0	1221591040	65	6056
2026-01-06 09:26:37.75	350.64	10.07	-47.4	-51.5	15.2	0.00e+00	0	44	0	1223688192	65	6130
2026-01-06 09:26:38.75	350.59	9.99	-47.6	-51.6	15.1	0.00e+00	0	43	0	1225785344	65	6159
2026-01-06 09:26:39.75	350.54	9.90	-47.6	-51.6	15.1	0.00e+00	0	44	0	1227882496	65	6172
