passes_logs/2026/01/06/T1/T1__20260106_042909_FENGYUN_3G_rec.log

#Pass ID: 20260106_042909_FENGYUN 3G
#Satellite: FENGYUN 3G
#Configuration: FENGYUN 3G
#almurnet v.1.7.20251203
#Start time: 2026-01-06 04:29:10

#Version: 2.0.20230620
#Station: T1
#Location: 37.570604 lon 55.790049 lat
#TLE: 1 56232U 23055A   26005.27063903  .00035143  00000+0  55802-3 0  9994
#TLE: 2 56232  49.9940 106.1098 0004225 341.8364  18.2452 15.52952562154680

#Time	Az	El	Level	Level2	SNR	BER	BlckErr	Temp	State	Recorded	gain1	gain2
2026-01-06 04:29:10.39	258.66	5.07	-50.6	-69.8	3.8	8.47e-01	0	39	0	0	71	35472
2026-01-06 04:29:11.38	258.56	5.14	-50.6	-69.7	3.8	8.37e-01	0	40	104	0	73	31418
2026-01-06 04:29:12.39	258.45	5.21	-50.6	-69.7	3.8	8.47e-01	0	40	104	0	73	31381
2026-01-06 04:29:13.39	258.35	5.29	-50.6	-69.7	3.8	8.47e-01	0	40	104	0	73	31373
2026-01-06 04:29:14.40	258.24	5.36	-50.6	-69.7	3.8	8.47e-01	0	40	104	0	73	31365
2026-01-06 04:29:15.40	258.13	5.43	-50.6	-69.7	3.8	8.49e-01	0	40	104	0	73	31390
2026-01-06 04:29:16.42	258.02	5.51	-50.6	-69.7	3.8	8.47e-01	0	40	104	0	73	31372
2026-01-06 04:29:17.50	257.91	5.59	-50.6	-69.7	3.8	8.47e-01	0	40	104	0	73	31401
2026-01-06 04:29:18.40	257.81	5.65	-50.6	-69.7	3.8	8.48e-01	0	40	104	0	73	31274
2026-01-06 04:29:19.60	257.67	5.74	-50.6	-69.7	3.8	8.47e-01	0	40	104	0	73	31329
2026-01-06 04:29:20.48	257.58	5.81	-50.5	-69.7	3.8	8.47e-01	0	40	104	0	73	31408
2026-01-06 04:29:21.63	257.45	5.90	-50.6	-69.7	3.8	8.46e-01	0	40	104	0	73	31403
2026-01-06 04:29:22.49	257.35	5.96	-50.6	-69.7	3.8	8.49e-01	0	40	104	0	73	31348
2026-01-06 04:29:23.64	257.22	6.05	-50.6	-69.7	3.8	8.47e-01	0	40	104	0	73	31394
2026-01-06 04:29:24.50	257.12	6.11	-50.5	-69.7	3.8	8.47e-01	0	40	104	0	73	31195
2026-01-06 04:29:25.65	256.99	6.20	-50.6	-69.7	3.8	8.46e-01	0	40	104	0	73	31353
2026-01-06 04:29:26.51	256.89	6.26	-50.5	-69.7	3.8	8.47e-01	0	40	104	0	73	31245
2026-01-06 04:29:27.65	256.76	6.35	-50.6	-69.7	3.8	8.47e-01	0	40	104	0	73	31296
2026-01-06 04:29:28.52	256.65	6.42	-50.6	-69.7	3.8	8.45e-01	0	40	104	0	73	31405
2026-01-06 04:29:29.66	256.52	6.51	-50.6	-69.7	3.8	8.47e-01	0	41	104	0	73	31338
2026-01-06 04:29:30.52	256.41	6.57	-50.6	-69.7	3.8	8.47e-01	0	40	104	0	73	31346
2026-01-06 04:29:31.67	256.28	6.66	-50.6	-69.7	3.8	8.47e-01	0	41	104	0	73	31403
2026-01-06 04:29:32.53	256.17	6.73	-50.6	-69.7	3.8	8.47e-01	0	41	104	0	73	31313
2026-01-06 04:29:33.76	256.02	6.82	-50.6	-69.7	3.8	8.45e-01	0	41	104	0	73	31271
2026-01-06 04:29:34.62	255.91	6.89	-50.6	-69.7	3.8	8.45e-01	0	41	104	0	73	31337
2026-01-06 04:29:35.77	255.77	6.98	-50.6	-69.7	3.8	8.48e-01	0	41	104	0	73	31382
2026-01-06 04:29:36.63	255.66	7.05	-50.6	-69.7	3.8	8.46e-01	0	41	104	0	73	31328
2026-01-06 04:29:37.77	255.52	7.14	-50.6	-69.7	3.8	8.46e-01	0	40	104	0	73	31309
2026-01-06 04:29:38.64	255.41	7.21	-50.5	-69.7	3.8	8.47e-01	0	41	104	0	73	31239
2026-01-06 04:29:39.78	255.26	7.30	-50.6	-69.7	3.8	8.47e-01	0	41	104	0	73	31323
2026-01-06 04:29:40.64	255.15	7.37	-50.5	-69.7	3.8	8.47e-01	0	41	104	0	73	31340
2026-01-06 04:29:41.79	255.00	7.46	-50.6	-69.7	3.8	8.47e-01	0	41	104	0	73	31253
2026-01-06 04:29:42.65	254.89	7.53	-50.6	-69.7	3.8	8.48e-01	0	41	104	0	73	31271
2026-01-06 04:29:43.80	254.74	7.62	-50.6	-69.7	3.8	8.48e-01	0	41	104	0	73	31218
2026-01-06 04:29:44.66	254.62	7.69	-50.6	-69.7	3.8	8.47e-01	0	41	104	0	73	31347
2026-01-06 04:29:45.81	254.47	7.78	-50.5	-69.7	3.8	8.48e-01	0	41	104	0	73	31178
2026-01-06 04:29:46.67	254.35	7.85	-50.6	-69.7	3.8	8.48e-01	0	41	104	0	73	31250
2026-01-06 04:29:47.82	254.19	7.95	-50.6	-69.7	3.8	8.48e-01	0	41	104	0	73	31320
2026-01-06 04:29:48.68	254.08	8.02	-50.6	-69.7	3.8	8.47e-01	0	41	104	0	73	31234
2026-01-06 04:29:49.83	253.92	8.11	-50.6	-69.7	3.8	8.47e-01	0	41	104	0	73	31347
2026-01-06 04:29:50.69	253.80	8.18	-50.6	-69.7	3.8	8.47e-01	0	41	104	0	73	31420
2026-01-06 04:29:51.84	253.63	8.28	-50.6	-69.7	3.8	8.47e-01	0	41	104	0	73	31199
2026-01-06 04:29:52.70	253.51	8.35	-50.5	-69.7	3.8	8.48e-01	0	41	104	0	73	31227
2026-01-06 04:29:53.84	253.35	8.44	-50.6	-69.7	3.8	8.48e-01	0	41	104	0	73	31303
2026-01-06 04:29:54.70	253.22	8.52	-50.6	-69.7	3.8	8.46e-01	0	41	104	0	73	31241
2026-01-06 04:29:55.85	253.06	8.61	-50.6	-69.7	3.8	8.46e-01	0	41	104	0	73	31300
2026-01-06 04:29:56.71	252.93	8.69	-50.6	-69.7	3.8	8.46e-01	0	41	104	0	73	31239
2026-01-06 04:29:57.86	252.76	8.78	-50.5	-69.7	3.8	8.46e-01	0	41	104	0	73	31247
2026-01-06 04:29:58.72	252.63	8.86	-50.5	-69.7	3.8	8.47e-01	0	41	104	0	73	31233
2026-01-06 04:29:59.87	252.46	8.95	-50.6	-69.7	3.8	8.46e-01	0	41	104	0	73	31388
2026-01-06 04:30:00.73	252.33	9.03	-50.5	-69.7	3.8	8.46e-01	0	41	104	0	73	31199
2026-01-06 04:30:01.87	252.16	9.12	-50.5	-69.7	3.8	8.47e-01	0	41	104	0	73	31217
2026-01-06 04:30:02.73	252.02	9.20	-50.5	-69.7	3.8	8.47e-01	0	41	104	0	73	31223
2026-01-06 04:30:03.88	251.85	9.30	-50.5	-69.7	3.8	8.46e-01	0	41	104	0	73	31269
2026-01-06 04:30:04.74	251.71	9.37	-50.5	-69.7	3.8	8.47e-01	0	41	104	0	73	31270
2026-01-06 04:30:05.89	251.53	9.47	-50.5	-69.7	3.8	8.46e-01	0	41	104	0	73	31324
2026-01-06 04:30:06.75	251.39	9.55	-50.5	-69.7	3.8	8.46e-01	0	41	104	0	73	31177
2026-01-06 04:30:07.90	251.21	9.65	-50.5	-69.7	3.8	8.46e-01	0	41	104	0	73	31295
2026-01-06 04:30:08.76	251.07	9.72	-50.5	-69.7	3.8	8.47e-01	0	41	104	0	73	31326
2026-01-06 04:30:09.91	250.88	9.82	-50.5	-69.7	3.8	8.47e-01	0	41	104	0	73	31250
2026-01-06 04:30:10.77	250.74	9.90	-50.5	-69.7	3.8	8.47e-01	0	41	104	0	73	31152
2026-01-06 04:30:11.92	250.55	10.00	-50.5	-69.7	3.8	8.47e-01	0	41	104	0	73	31244
2026-01-06 04:30:12.78	250.41	10.08	-50.5	-69.7	3.8	8.47e-01	0	41	104	0	73	31276
2026-01-06 04:30:13.93	250.21	10.18	-50.5	-69.7	3.8	8.46e-01	0	41	104	0	73	31216
2026-01-06 04:30:14.79	250.07	10.26	-50.5	-69.7	3.8	8.48e-01	0	41	104	0	73	31224
2026-01-06 04:30:15.93	249.87	10.36	-50.5	-69.7	3.8	8.47e-01	0	41	104	0	73	31252
2026-01-06 04:30:16.79	249.72	10.44	-50.5	-69.7	3.8	8.47e-01	0	42	104	0	73	31222
2026-01-06 04:30:17.94	249.52	10.54	-50.5	-69.7	3.8	8.47e-01	0	42	104	0	73	31106
2026-01-06 04:30:18.80	249.37	10.62	-50.5	-69.7	3.8	8.48e-01	0	41	104	0	73	31201
2026-01-06 04:30:19.95	249.17	10.72	-50.5	-69.7	3.8	8.48e-01	0	42	104	0	73	31183
2026-01-06 04:30:20.81	249.02	10.80	-50.5	-69.7	3.8	8.46e-01	0	42	104	0	73	31139
2026-01-06 04:30:21.96	248.81	10.91	-50.5	-69.7	3.8	8.47e-01	0	41	104	0	73	31133
2026-01-06 04:30:22.82	248.65	10.99	-50.5	-69.7	3.8	8.47e-01	0	42	104	0	73	31158
2026-01-06 04:30:23.96	248.44	11.09	-50.5	-69.6	3.8	8.49e-01	0	42	104	0	73	31070
2026-01-06 04:30:24.83	248.28	11.17	-50.5	-69.7	3.8	8.47e-01	0	42	104	0	73	31098
2026-01-06 04:30:25.97	248.07	11.28	-50.5	-69.7	3.8	8.47e-01	0	42	104	0	73	31124
2026-01-06 04:30:26.83	247.91	11.36	-50.5	-69.7	3.8	8.48e-01	0	42	104	0	73	31115
2026-01-06 04:30:27.98	247.69	11.46	-50.5	-69.7	3.8	8.46e-01	0	42	104	0	73	31161
2026-01-06 04:30:28.84	247.53	11.54	-50.5	-69.7	3.8	8.46e-01	0	42	104	0	73	31100
2026-01-06 04:30:29.99	247.31	11.65	-50.5	-69.7	3.8	8.46e-01	0	42	104	0	73	31116
2026-01-06 04:30:30.85	247.14	11.73	-50.5	-69.7	3.8	8.48e-01	0	42	104	0	73	31129
2026-01-06 04:30:32.00	246.92	11.84	-50.5	-69.7	3.8	8.45e-01	0	42	104	0	73	31123
2026-01-06 04:30:32.86	246.75	11.92	-50.5	-69.7	3.8	8.45e-01	0	42	104	0	73	31089
2026-01-06 04:30:34.01	246.52	12.03	-50.5	-69.6	3.8	8.46e-01	0	42	104	0	73	31078
2026-01-06 04:30:34.87	246.34	12.11	-50.5	-69.6	3.8	8.47e-01	0	42	104	0	73	31018
2026-01-06 04:30:36.02	246.11	12.22	-50.5	-69.7	3.8	8.47e-01	0	42	104	0	73	31098
2026-01-06 04:30:36.88	245.93	12.31	-50.5	-69.6	3.8	8.46e-01	0	42	104	0	73	31051
2026-01-06 04:30:38.02	245.70	12.42	-50.5	-69.7	3.8	8.48e-01	0	42	104	0	73	31153
2026-01-06 04:30:38.89	245.52	12.50	-50.5	-69.6	3.8	8.48e-01	0	42	104	0	73	31046
2026-01-06 04:30:40.03	245.28	12.61	-50.5	-69.6	3.8	8.47e-01	0	42	104	0	73	31083
2026-01-06 04:30:40.89	245.10	12.69	-50.5	-69.7	3.8	8.48e-01	0	42	104	0	73	31103
2026-01-06 04:30:42.04	244.85	12.80	-50.5	-69.7	3.8	8.48e-01	0	42	104	0	73	31103
2026-01-06 04:30:42.90	244.67	12.89	-50.5	-69.7	3.8	8.47e-01	0	42	104	0	73	31117
2026-01-06 04:30:44.05	244.42	13.00	-50.5	-69.7	3.8	8.47e-01	0	42	104	0	73	31185
2026-01-06 04:30:44.91	244.23	13.08	-50.5	-69.6	3.8	8.47e-01	0	42	104	0	73	31063
2026-01-06 04:30:46.06	243.97	13.20	-50.5	-69.7	3.8	8.47e-01	0	42	104	0	73	31145
2026-01-06 04:30:46.92	243.78	13.28	-50.5	-69.6	3.8	8.47e-01	0	42	104	0	73	31057
2026-01-06 04:30:48.07	243.52	13.40	-50.5	-69.6	3.8	8.48e-01	0	42	104	0	73	31059
2026-01-06 04:30:48.93	243.33	13.48	-50.5	-69.6	3.8	8.48e-01	0	42	104	0	73	31086
2026-01-06 04:30:50.08	243.06	13.59	-50.5	-69.6	3.8	8.47e-01	0	42	104	0	73	31008
2026-01-06 04:30:50.94	242.87	13.68	-50.5	-69.7	3.8	8.47e-01	0	42	104	0	73	31164
2026-01-06 04:30:52.09	242.60	13.79	-50.5	-69.7	3.8	8.47e-01	0	42	104	0	73	31087
2026-01-06 04:30:52.95	242.40	13.88	-50.5	-69.6	3.8	8.47e-01	0	42	104	0	73	31063
2026-01-06 04:30:54.10	242.12	13.99	-50.5	-69.7	3.8	8.46e-01	0	42	104	0	73	31126
2026-01-06 04:30:54.96	241.92	14.08	-50.5	-69.7	3.8	8.46e-01	0	42	104	0	73	31094
2026-01-06 04:30:56.10	241.64	14.19	-50.5	-69.6	3.8	8.47e-01	0	42	104	0	73	31053
2026-01-06 04:30:56.96	241.43	14.28	-50.5	-69.6	3.8	8.47e-01	0	42	104	0	73	30956
2026-01-06 04:30:58.11	241.15	14.40	-50.5	-69.6	3.8	8.47e-01	0	42	104	0	73	31019
2026-01-06 04:30:58.97	240.94	14.48	-50.5	-69.6	3.8	8.48e-01	0	42	104	0	73	30948
2026-01-06 04:31:00.12	240.65	14.60	-50.5	-69.6	3.8	8.47e-01	0	42	104	0	73	30998
2026-01-06 04:31:00.98	240.43	14.69	-50.5	-69.6	3.8	8.47e-01	0	42	104	0	73	31020
2026-01-06 04:31:02.13	240.14	14.80	-50.5	-69.7	3.8	8.47e-01	0	42	104	0	73	31103
2026-01-06 04:31:02.99	239.92	14.89	-50.5	-69.6	3.8	8.48e-01	0	42	104	0	73	31081
2026-01-06 04:31:04.14	239.62	15.01	-50.5	-69.6	3.8	8.47e-01	0	42	104	0	73	31042
2026-01-06 04:31:05.00	239.40	15.09	-50.5	-69.6	3.8	8.47e-01	0	42	104	0	73	31062
2026-01-06 04:31:06.15	239.10	15.21	-50.5	-69.6	3.8	8.47e-01	0	42	104	0	73	31058
2026-01-06 04:31:07.01	238.87	15.30	-50.5	-69.6	3.8	8.47e-01	0	42	104	0	73	31020
2026-01-06 04:31:08.15	238.56	15.41	-50.5	-69.6	3.8	8.47e-01	0	42	104	0	73	31076
2026-01-06 04:31:09.01	238.33	15.50	-50.5	-69.6	3.8	8.46e-01	0	42	104	0	73	30940
2026-01-06 04:31:10.16	238.02	15.62	-50.5	-69.6	3.8	8.47e-01	0	42	104	0	73	31077
2026-01-06 04:31:11.02	237.78	15.71	-50.5	-69.6	3.8	8.47e-01	0	42	104	0	73	31071
2026-01-06 04:31:12.17	237.46	15.83	-50.5	-69.7	3.8	8.47e-01	0	42	104	0	73	31132
2026-01-06 04:31:13.03	237.22	15.91	-50.5	-69.6	3.8	8.46e-01	0	42	104	0	73	31062
2026-01-06 04:31:14.18	236.90	16.03	-50.5	-69.6	3.8	8.46e-01	0	42	104	0	73	31060
2026-01-06 04:31:15.40	236.55	16.16	-50.5	-69.7	3.8	8.47e-01	0	42	104	0	73	31167
2026-01-06 04:31:16.44	236.25	16.26	-50.5	-69.6	3.8	8.48e-01	0	42	104	0	73	31039
2026-01-06 04:31:17.61	235.91	16.38	-50.5	-69.7	3.8	8.47e-01	0	42	104	0	73	31092
2026-01-06 04:31:18.47	235.66	16.47	-50.5	-69.6	3.8	8.47e-01	0	42	104	0	73	31075
2026-01-06 04:31:19.62	235.32	16.59	-50.5	-69.7	3.8	8.48e-01	0	42	104	0	73	31119
2026-01-06 04:31:20.48	235.06	16.68	-50.5	-69.6	3.8	8.47e-01	0	42	104	0	73	31052
2026-01-06 04:31:21.63	234.72	16.79	-50.5	-69.6	3.8	8.47e-01	0	42	104	0	73	30946
2026-01-06 04:31:22.49	234.45	16.88	-50.5	-69.7	3.8	8.47e-01	0	42	104	0	73	31098
2026-01-06 04:31:23.64	234.10	17.00	-50.5	-69.6	3.8	8.48e-01	0	42	104	0	73	31021
2026-01-06 04:31:24.50	233.84	17.09	-50.5	-69.6	3.8	8.48e-01	0	42	104	0	73	31040
2026-01-06 04:31:25.65	233.48	17.20	-50.5	-69.6	3.8	8.48e-01	0	42	104	0	73	31079
2026-01-06 04:31:26.51	233.21	17.29	-50.5	-69.6	3.8	8.46e-01	0	42	104	0	73	31053
2026-01-06 04:31:27.65	232.85	17.41	-50.5	-69.6	3.8	8.47e-01	0	42	104	0	73	31002
2026-01-06 04:31:28.52	232.57	17.50	-50.5	-69.6	3.8	8.47e-01	0	42	104	0	73	31084
2026-01-06 04:31:29.66	232.20	17.61	-50.5	-69.6	3.8	8.46e-01	0	42	104	0	73	31058
2026-01-06 04:31:30.52	231.93	17.70	-50.5	-69.6	3.8	8.47e-01	0	42	104	0	73	30892
2026-01-06 04:31:31.78	231.51	17.83	-50.5	-69.6	3.8	8.47e-01	0	42	104	0	73	31033
2026-01-06 04:31:32.52	231.27	17.90	-50.5	-69.6	3.8	8.47e-01	0	42	104	0	73	31034
2026-01-06 04:31:33.81	230.84	18.03	-50.5	-69.7	3.8	8.47e-01	0	42	104	0	73	31103
2026-01-06 04:31:34.53	230.60	18.10	-50.5	-69.6	3.8	8.47e-01	0	42	104	0	73	31002
2026-01-06 04:31:35.82	230.16	18.23	-50.5	-69.6	3.8	8.48e-01	0	42	104	0	72	32862
2026-01-06 04:31:36.53	229.92	18.30	-50.5	-69.6	3.8	8.48e-01	0	42	104	0	72	32891
2026-01-06 04:31:37.82	229.48	18.43	-50.5	-69.6	3.8	8.46e-01	0	42	104	0	72	32917
2026-01-06 04:31:38.54	229.23	18.50	-50.5	-69.6	3.8	8.46e-01	0	42	104	0	72	32819
2026-01-06 04:31:39.83	228.78	18.63	-50.5	-69.6	3.8	8.48e-01	0	42	104	0	72	32868
2026-01-06 04:31:40.55	228.52	18.70	-50.5	-69.6	3.8	8.47e-01	0	42	104	0	72	32863
2026-01-06 04:31:41.84	228.06	18.82	-50.5	-69.6	3.8	8.46e-01	0	42	104	0	72	32859
2026-01-06 04:31:42.56	227.81	18.89	-50.5	-69.6	3.8	8.46e-01	0	42	104	0	72	32870
2026-01-06 04:31:43.85	227.34	19.02	-50.5	-69.6	3.8	8.47e-01	0	42	104	0	72	32819
2026-01-06 04:31:44.56	227.08	19.09	-50.5	-69.6	3.8	8.47e-01	0	42	104	0	72	32796
2026-01-06 04:31:45.86	226.61	19.21	-50.5	-69.6	3.8	8.48e-01	0	42	104	0	72	32831
2026-01-06 04:31:46.57	226.34	19.28	-50.5	-69.6	3.8	8.47e-01	0	42	104	0	72	32910
2026-01-06 04:31:47.86	225.87	19.40	-50.5	-69.6	3.8	8.46e-01	0	42	104	0	72	32915
2026-01-06 04:31:48.58	225.60	19.47	-50.5	-69.6	3.8	8.46e-01	0	42	104	0	72	32831
2026-01-06 04:31:49.87	225.11	19.59	-50.5	-69.6	3.8	8.47e-01	0	42	104	0	72	32840
2026-01-06 04:31:50.59	224.83	19.66	-50.5	-69.6	3.8	8.48e-01	0	42	104	0	72	32858
2026-01-06 04:31:51.88	224.34	19.78	-50.5	-69.6	3.8	8.48e-01	0	42	104	0	72	32893
2026-01-06 04:31:52.60	224.06	19.84	-50.5	-69.6	3.8	8.47e-01	0	42	104	0	72	32738
2026-01-06 04:31:53.89	223.56	19.96	-50.5	-69.6	3.8	8.48e-01	0	42	104	0	72	32875
2026-01-06 04:31:54.61	223.28	20.02	-50.5	-69.6	3.8	8.48e-01	0	42	104	0	72	32867
2026-01-06 04:31:55.90	222.77	20.14	-50.5	-69.6	3.8	8.46e-01	0	42	104	0	72	32843
2026-01-06 04:31:56.62	222.48	20.20	-50.5	-69.6	3.8	8.47e-01	0	42	104	0	72	32873
2026-01-06 04:31:57.92	221.96	20.32	-50.5	-69.6	3.8	8.46e-01	0	42	104	0	72	32923
2026-01-06 04:31:58.64	221.68	20.38	-50.5	-69.6	3.8	8.46e-01	0	42	104	0	72	32836
2026-01-06 04:31:59.93	221.15	20.49	-50.5	-69.6	3.8	8.47e-01	0	42	104	0	72	32851
2026-01-06 04:32:00.65	220.86	20.55	-50.5	-69.7	3.8	8.47e-01	0	42	104	0	72	32943
2026-01-06 04:32:01.94	220.33	20.66	-50.5	-69.6	3.8	8.46e-01	0	42	104	0	72	32835
2026-01-06 04:32:02.65	220.03	20.72	-50.5	-69.6	3.8	8.47e-01	0	42	104	0	72	32877
2026-01-06 04:32:03.95	219.49	20.83	-50.5	-69.7	3.8	8.46e-01	0	42	104	0	72	33027
2026-01-06 04:32:04.67	219.19	20.89	-50.5	-69.7	3.8	8.46e-01	0	42	104	0	72	32939
2026-01-06 04:32:05.96	218.65	20.99	-50.5	-69.6	3.8	8.46e-01	0	42	104	0	72	32870
2026-01-06 04:32:06.67	218.35	21.05	-50.5	-69.6	3.8	8.47e-01	0	42	104	0	72	32886
2026-01-06 04:32:07.97	217.79	21.15	-50.5	-69.6	3.8	8.47e-01	0	42	104	0	72	32917
2026-01-06 04:32:08.68	217.49	21.20	-50.5	-69.6	3.8	8.47e-01	0	42	104	0	72	32854
2026-01-06 04:32:09.97	216.93	21.30	-50.5	-69.6	3.8	8.48e-01	0	42	104	0	72	32829
2026-01-06 04:32:10.69	216.62	21.35	-50.5	-69.6	3.8	8.48e-01	0	42	104	0	72	32862
2026-01-06 04:32:11.98	216.05	21.45	-50.5	-69.6	3.8	8.47e-01	0	42	104	0	72	32811
2026-01-06 04:32:12.70	215.74	21.50	-50.5	-69.6	3.8	8.48e-01	0	42	104	0	72	32921
2026-01-06 04:32:13.99	215.17	21.59	-50.5	-69.6	3.8	8.46e-01	0	42	104	0	72	32764
2026-01-06 04:32:14.71	214.85	21.64	-50.5	-69.6	3.8	8.46e-01	0	42	104	0	72	32880
2026-01-06 04:32:16.00	214.27	21.73	-50.5	-69.6	3.8	8.46e-01	0	43	104	0	72	32800
2026-01-06 04:32:16.72	213.95	21.78	-50.5	-69.6	3.8	8.46e-01	0	42	104	0	72	32812
2026-01-06 04:32:18.01	213.37	21.86	-50.5	-69.6	3.8	8.47e-01	0	42	104	0	72	32899
2026-01-06 04:32:18.72	213.04	21.91	-50.5	-69.6	3.8	8.48e-01	0	42	104	0	72	32918
2026-01-06 04:32:20.02	212.45	21.99	-50.5	-69.6	3.8	8.48e-01	0	42	104	0	72	32815
2026-01-06 04:32:20.73	212.13	22.03	-50.5	-69.6	3.8	8.48e-01	0	42	104	0	72	32900
2026-01-06 04:32:22.02	211.53	22.11	-50.5	-69.6	3.8	8.47e-01	0	42	104	0	72	32825
2026-01-06 04:32:22.74	211.20	22.15	-50.5	-69.6	3.8	8.46e-01	0	42	104	0	72	32764
2026-01-06 04:32:24.03	210.60	22.22	-50.5	-69.6	3.8	8.46e-01	0	42	104	0	72	32871
2026-01-06 04:32:24.75	210.27	22.26	-50.5	-69.6	3.8	8.46e-01	0	43	104	0	72	32854
2026-01-06 04:32:26.04	209.66	22.33	-50.5	-69.7	3.8	8.48e-01	0	42	104	0	72	32933
2026-01-06 04:32:26.76	209.32	22.37	-50.5	-69.7	3.8	8.48e-01	0	42	104	0	72	33008
2026-01-06 04:32:28.05	208.71	22.43	-50.5	-69.7	3.8	8.47e-01	0	42	104	0	72	32943
2026-01-06 04:32:28.77	208.37	22.47	-50.5	-69.6	3.8	8.47e-01	0	43	104	0	72	32927
2026-01-06 04:32:30.06	207.76	22.53	-50.5	-69.6	3.8	8.47e-01	0	42	104	0	72	32856
2026-01-06 04:32:30.78	207.42	22.56	-50.5	-69.7	3.8	8.47e-01	0	42	104	0	72	32931
2026-01-06 04:32:32.07	206.80	22.62	-50.5	-69.6	3.8	8.47e-01	0	42	104	0	72	32904
2026-01-06 04:32:32.78	206.46	22.65	-50.5	-69.6	3.8	8.47e-01	0	42	104	0	72	32871
2026-01-06 04:32:34.08	205.83	22.70	-50.5	-69.6	3.8	8.49e-01	0	42	104	0	72	32825
2026-01-06 04:32:34.79	205.49	22.72	-50.5	-69.7	3.8	8.46e-01	0	42	104	0	72	32937
2026-01-06 04:32:36.08	204.87	22.77	-50.5	-69.6	3.8	8.47e-01	0	42	104	0	72	32868
2026-01-06 04:32:36.80	204.52	22.80	-50.5	-69.6	3.8	8.47e-01	0	42	104	0	72	32826
2026-01-06 04:32:38.09	203.89	22.84	-50.5	-69.6	3.8	8.48e-01	0	42	104	0	72	32863
2026-01-06 04:32:38.80	203.54	22.86	-50.5	-69.6	3.8	8.47e-01	0	42	104	0	72	32874
2026-01-06 04:32:40.10	202.91	22.90	-50.5	-69.6	3.8	8.47e-01	0	42	104	0	72	32912
2026-01-06 04:32:40.81	202.56	22.91	-50.5	-69.7	3.8	8.46e-01	0	42	104	0	72	32930
2026-01-06 04:32:42.10	201.92	22.95	-50.5	-69.7	3.8	8.46e-01	0	42	104	0	72	32959
2026-01-06 04:32:42.82	201.57	22.96	-50.5	-69.6	3.8	8.46e-01	0	42	104	0	72	32909
2026-01-06 04:32:44.11	200.93	22.99	-50.5	-69.6	3.8	8.47e-01	0	42	104	0	72	32804
2026-01-06 04:32:44.83	200.58	23.00	-50.5	-69.7	3.8	8.47e-01	0	42	104	0	72	32947
2026-01-06 04:32:46.12	199.94	23.03	-50.5	-69.7	3.8	8.46e-01	0	42	104	0	72	33027
2026-01-06 04:32:46.84	199.58	23.04	-50.5	-69.6	3.8	8.46e-01	0	42	104	0	72	32840
2026-01-06 04:32:48.13	198.95	23.05	-50.5	-69.6	3.8	8.46e-01	0	42	104	0	72	32788
2026-01-06 04:32:48.84	198.59	23.06	-50.5	-69.6	3.8	8.46e-01	0	42	104	0	72	32908
2026-01-06 04:32:50.14	197.95	23.07	-50.5	-69.7	3.8	8.48e-01	0	42	104	0	72	32975
2026-01-06 04:32:50.85	197.60	23.08	-50.5	-69.6	3.8	8.47e-01	0	43	104	0	72	32840
2026-01-06 04:32:52.14	196.96	23.08	-50.5	-69.7	3.8	8.46e-01	0	42	104	0	72	32951
2026-01-06 04:32:52.86	196.60	23.09	-50.5	-69.6	3.8	8.46e-01	0	42	104	0	72	32631
2026-01-06 04:32:54.15	195.96	23.09	-50.5	-69.6	3.8	8.46e-01	0	42	104	0	72	32857
2026-01-06 04:32:54.87	195.60	23.09	-50.5	-69.7	3.8	8.48e-01	0	42	104	0	72	32969
2026-01-06 04:32:56.16	194.96	23.08	-50.5	-69.6	3.8	8.48e-01	0	43	104	0	72	32924
2026-01-06 04:32:56.88	194.60	23.08	-50.5	-69.7	3.8	8.47e-01	0	43	104	0	72	32969
2026-01-06 04:32:58.17	193.96	23.07	-50.5	-69.7	3.8	8.46e-01	0	42	104	0	72	32930
2026-01-06 04:32:58.89	193.60	23.06	-50.5	-69.7	3.8	8.46e-01	0	42	104	0	72	32929
2026-01-06 04:33:00.18	192.96	23.05	-50.5	-69.7	3.8	8.48e-01	0	42	104	0	72	32968
2026-01-06 04:33:00.90	192.61	23.04	-50.5	-69.6	3.8	8.47e-01	0	42	104	0	72	32889
2026-01-06 04:33:02.19	191.97	23.02	-50.5	-69.6	3.8	8.47e-01	0	42	104	0	72	32866
2026-01-06 04:33:02.91	191.61	23.01	-50.5	-69.6	3.8	8.47e-01	0	42	104	0	72	32921
2026-01-06 04:33:04.20	190.98	22.98	-50.5	-69.6	3.8	8.47e-01	0	42	104	0	72	32919
2026-01-06 04:33:04.91	190.63	22.97	-50.5	-69.7	3.8	8.47e-01	0	43	104	0	72	33027
2026-01-06 04:33:06.20	189.99	22.94	-50.5	-69.7	3.8	8.46e-01	0	42	104	0	72	32946
2026-01-06 04:33:06.92	189.64	22.92	-50.5	-69.7	3.8	8.47e-01	0	42	104	0	72	32979
2026-01-06 04:33:08.21	189.01	22.88	-50.5	-69.7	3.8	8.46e-01	0	42	104	0	72	32930
2026-01-06 04:33:08.93	188.65	22.86	-50.5	-69.7	3.8	8.46e-01	0	42	104	0	72	32943
2026-01-06 04:33:10.22	188.03	22.82	-50.5	-69.6	3.8	8.46e-01	0	43	104	0	72	32859
2026-01-06 04:33:10.94	187.67	22.80	-50.5	-69.7	3.8	8.47e-01	0	42	104	0	72	33029
2026-01-06 04:33:12.23	187.05	22.76	-50.5	-69.6	3.8	8.48e-01	0	43	104	0	72	32911
2026-01-06 04:33:12.95	186.70	22.73	-50.5	-69.6	3.8	8.48e-01	0	43	104	0	72	32892
2026-01-06 04:33:14.24	186.08	22.68	-50.5	-69.6	3.8	8.47e-01	0	42	104	0	72	32851
2026-01-06 04:33:14.95	185.74	22.65	-50.5	-69.6	3.8	8.47e-01	0	42	104	0	72	32887
2026-01-06 04:33:16.25	185.11	22.60	-50.5	-69.7	3.8	8.47e-01	0	42	104	0	72	32961
2026-01-06 04:33:16.96	184.77	22.57	-50.5	-69.7	3.8	8.47e-01	0	43	104	0	72	32976
2026-01-06 04:33:18.25	184.16	22.51	-50.5	-69.6	3.8	8.45e-01	0	42	104	0	72	32928
2026-01-06 04:33:18.97	183.81	22.47	-50.5	-69.6	3.8	8.45e-01	0	42	104	0	72	32917
2026-01-06 04:33:20.26	183.20	22.41	-50.5	-69.7	3.8	8.46e-01	0	42	104	0	72	32980
2026-01-06 04:33:20.98	182.86	22.38	-50.5	-69.7	3.8	8.46e-01	0	42	104	0	72	32981
2026-01-06 04:33:22.27	182.26	22.31	-50.5	-69.7	3.8	8.46e-01	0	42	104	0	72	32945
2026-01-06 04:33:23.15	181.85	22.26	-50.5	-69.6	3.8	8.47e-01	0	42	104	0	72	32903
2026-01-06 04:33:24.29	181.32	22.20	-50.5	-69.7	3.8	8.47e-01	0	42	104	0	72	32948
2026-01-06 04:33:25.41	180.80	22.13	-50.5	-69.6	3.8	8.47e-01	0	42	104	0	72	32914
2026-01-06 04:33:26.45	180.32	22.07	-50.5	-69.7	3.8	8.47e-01	0	42	104	0	72	32957
2026-01-06 04:33:27.45	179.86	22.01	-50.5	-69.6	3.8	8.46e-01	0	42	104	0	72	32832
2026-01-06 04:33:28.45	179.40	21.95	-50.5	-69.7	3.8	8.47e-01	0	43	104	0	72	32999
2026-01-06 04:33:29.45	178.95	21.89	-50.5	-69.7	3.8	8.47e-01	0	42	104	0	72	32960
2026-01-06 04:33:30.46	178.49	21.82	-50.5	-69.6	3.8	8.47e-01	0	42	104	0	72	32914
2026-01-06 04:33:31.46	178.04	21.76	-50.5	-69.6	3.8	8.47e-01	0	42	104	0	72	32861
2026-01-06 04:33:32.47	177.59	21.69	-50.5	-69.7	3.8	8.47e-01	0	42	104	0	72	32935
2026-01-06 04:33:33.47	177.14	21.62	-50.5	-69.7	3.8	8.47e-01	0	43	104	0	72	32970
2026-01-06 04:33:34.48	176.69	21.55	-50.5	-69.6	3.8	8.46e-01	0	42	104	0	72	32840
2026-01-06 04:33:35.48	176.25	21.48	-50.5	-69.6	3.8	8.46e-01	0	43	104	0	72	32924
2026-01-06 04:33:36.52	175.80	21.40	-50.5	-69.7	3.8	8.48e-01	0	42	104	0	72	32991
2026-01-06 04:33:37.55	175.35	21.32	-50.5	-69.7	3.8	8.47e-01	0	42	104	0	72	32950
2026-01-06 04:33:38.58	174.90	21.25	-50.5	-69.7	3.8	8.47e-01	0	42	104	0	72	32944
2026-01-06 04:33:39.61	174.46	21.17	-50.5	-69.7	3.8	8.47e-01	0	42	104	0	72	33045
2026-01-06 04:33:40.65	174.01	21.09	-50.5	-69.7	3.8	8.48e-01	0	42	104	0	72	32968
2026-01-06 04:33:41.65	173.59	21.01	-50.5	-69.7	3.8	8.46e-01	0	42	104	0	72	32943
2026-01-06 04:33:42.65	173.16	20.93	-50.5	-69.7	3.8	8.46e-01	0	42	104	0	72	32952
2026-01-06 04:33:43.66	172.74	20.85	-50.5	-69.7	3.8	8.46e-01	0	43	104	0	72	32976
2026-01-06 04:33:44.66	172.32	20.77	-50.5	-69.6	3.8	8.47e-01	0	42	104	0	72	32879
2026-01-06 04:33:45.67	171.90	20.68	-50.5	-69.7	3.8	8.47e-01	0	43	104	0	72	32949
2026-01-06 04:33:46.67	171.49	20.60	-50.5	-69.6	3.8	8.47e-01	0	42	104	0	72	32928
2026-01-06 04:33:47.67	171.08	20.51	-50.5	-69.7	3.8	8.47e-01	0	42	104	0	72	33000
2026-01-06 04:33:48.68	170.67	20.43	-50.5	-69.7	3.8	8.47e-01	0	42	104	0	72	32992
2026-01-06 04:33:49.68	170.27	20.34	-50.5	-69.7	3.8	8.47e-01	0	42	104	0	72	32930
2026-01-06 04:33:50.68	169.86	20.25	-50.5	-69.6	3.8	8.47e-01	0	43	104	0	72	32914
2026-01-06 04:33:51.69	169.46	20.16	-50.5	-69.7	3.8	8.47e-01	0	43	104	0	72	32949
2026-01-06 04:33:52.69	169.07	20.07	-50.5	-69.6	3.8	8.47e-01	0	42	104	0	72	32915
2026-01-06 04:33:53.70	168.67	19.98	-50.5	-69.7	3.8	8.46e-01	0	42	104	0	72	32967
2026-01-06 04:33:54.70	168.28	19.89	-50.5	-69.7	3.8	8.48e-01	0	43	104	0	72	32957
2026-01-06 04:33:55.71	167.89	19.80	-50.5	-69.7	3.8	8.48e-01	0	42	104	0	72	33002
2026-01-06 04:33:56.71	167.50	19.71	-50.5	-69.6	3.8	8.48e-01	0	42	104	0	72	32910
2026-01-06 04:33:57.71	167.12	19.62	-50.5	-69.7	3.8	8.47e-01	0	42	104	0	72	32964
2026-01-06 04:33:58.72	166.74	19.52	-50.5	-69.6	3.8	8.47e-01	0	42	104	0	72	32886
2026-01-06 04:33:59.72	166.36	19.43	-50.5	-69.6	3.8	8.47e-01	0	43	104	0	72	32837
2026-01-06 04:34:00.73	165.99	19.33	-50.5	-69.6	3.8	8.46e-01	0	43	104	0	72	32890
2026-01-06 04:34:01.73	165.62	19.24	-50.5	-69.6	3.8	8.46e-01	0	42	104	0	72	32873
2026-01-06 04:34:02.74	165.25	19.14	-50.5	-69.7	3.8	8.48e-01	0	43	104	0	72	32959
2026-01-06 04:34:03.74	164.88	19.04	-50.5	-69.6	3.8	8.45e-01	0	43	104	0	72	32779
2026-01-06 04:34:04.75	164.52	18.95	-50.5	-69.7	3.8	8.46e-01	0	43	104	0	72	33024
2026-01-06 04:34:05.75	164.16	18.85	-50.5	-69.6	3.8	8.46e-01	0	42	104	0	72	32924
2026-01-06 04:34:06.75	163.80	18.75	-50.5	-69.6	3.8	8.46e-01	0	42	104	0	72	32883
2026-01-06 04:34:07.76	163.44	18.65	-50.5	-69.6	3.8	8.47e-01	0	43	104	0	72	32888
2026-01-06 04:34:08.76	163.09	18.55	-50.5	-69.7	3.8	8.47e-01	0	43	104	0	72	32995
2026-01-06 04:34:09.77	162.74	18.45	-50.5	-69.6	3.8	8.47e-01	0	43	104	0	72	32923
2026-01-06 04:34:10.77	162.40	18.36	-50.5	-69.6	3.8	8.47e-01	0	42	104	0	72	32903
2026-01-06 04:34:11.78	162.05	18.26	-50.5	-69.7	3.8	8.47e-01	0	42	104	0	72	32980
2026-01-06 04:34:12.78	161.71	18.16	-50.5	-69.7	3.8	8.46e-01	0	42	104	0	72	32956
2026-01-06 04:34:13.78	161.37	18.06	-50.5	-69.6	3.8	8.48e-01	0	43	104	0	72	32917
2026-01-06 04:34:14.79	161.04	17.95	-50.5	-69.7	3.8	8.48e-01	0	43	104	0	72	32985
2026-01-06 04:34:15.79	160.70	17.85	-50.5	-69.7	3.8	8.46e-01	0	43	104	0	72	32961
2026-01-06 04:34:16.80	160.37	17.75	-50.5	-69.7	3.8	8.47e-01	0	42	104	0	72	32932
2026-01-06 04:34:17.80	160.05	17.65	-50.5	-69.7	3.8	8.48e-01	0	43	104	0	72	32954
2026-01-06 04:34:18.80	159.72	17.55	-50.5	-69.7	3.8	8.48e-01	0	43	104	0	72	32981
2026-01-06 04:34:19.81	159.40	17.45	-50.5	-69.6	3.8	8.47e-01	0	43	104	0	72	32923
2026-01-06 04:34:20.81	159.08	17.35	-50.5	-69.6	3.8	8.47e-01	0	43	104	0	72	32902
2026-01-06 04:34:21.81	158.77	17.24	-50.5	-69.6	3.8	8.47e-01	0	43	104	0	72	32906
2026-01-06 04:34:22.82	158.45	17.14	-50.5	-69.7	3.8	8.47e-01	0	43	104	0	72	32979
2026-01-06 04:34:23.82	158.14	17.04	-50.5	-69.7	3.8	8.46e-01	0	43	104	0	72	32999
2026-01-06 04:34:24.83	157.83	16.94	-50.5	-69.6	3.8	8.46e-01	0	43	104	0	72	32902
2026-01-06 04:34:25.83	157.53	16.83	-50.5	-69.6	3.8	8.47e-01	0	43	104	0	72	32923
2026-01-06 04:34:26.84	157.22	16.73	-50.5	-69.7	3.8	8.47e-01	0	43	104	0	72	32997
2026-01-06 04:34:27.84	156.92	16.63	-50.5	-69.7	3.8	8.47e-01	0	43	104	0	72	32976
2026-01-06 04:34:28.84	156.62	16.53	-50.5	-69.7	3.8	8.47e-01	0	43	104	0	72	32931
2026-01-06 04:34:29.85	156.33	16.42	-50.5	-69.6	3.8	8.46e-01	0	42	104	0	72	32893
2026-01-06 04:34:30.85	156.03	16.32	-50.5	-69.7	3.8	8.46e-01	0	43	104	0	72	32972
2026-01-06 04:34:31.86	155.74	16.22	-50.5	-69.7	3.8	8.47e-01	0	43	104	0	72	32945
2026-01-06 04:34:32.86	155.45	16.11	-50.5	-69.7	3.8	8.47e-01	0	42	104	0	72	33043
2026-01-06 04:34:33.87	155.17	16.01	-50.5	-69.7	3.8	8.49e-01	0	42	104	0	72	32994
2026-01-06 04:34:34.87	154.88	15.91	-50.5	-69.6	3.8	8.49e-01	0	43	104	0	72	32918
2026-01-06 04:34:35.87	154.60	15.80	-50.5	-69.6	3.8	8.47e-01	0	43	104	0	72	32869
2026-01-06 04:34:36.88	154.32	15.70	-50.5	-69.7	3.8	8.46e-01	0	43	104	0	72	32976
2026-01-06 04:34:37.88	154.05	15.60	-50.5	-69.6	3.8	8.46e-01	0	43	104	0	72	32891
2026-01-06 04:34:38.89	153.77	15.50	-50.5	-69.7	3.8	8.47e-01	0	43	104	0	72	33085
2026-01-06 04:34:39.89	153.50	15.39	-50.5	-69.7	3.8	8.46e-01	0	42	104	0	72	32986
2026-01-06 04:34:40.89	153.24	15.29	-50.5	-69.7	3.8	8.46e-01	0	43	104	0	72	32965
2026-01-06 04:34:41.90	152.97	15.19	-50.5	-69.7	3.8	8.47e-01	0	43	104	0	72	32945
2026-01-06 04:34:42.90	152.71	15.09	-50.5	-69.7	3.8	8.46e-01	0	43	104	0	72	32940
2026-01-06 04:34:43.90	152.44	14.99	-50.5	-69.7	3.8	8.46e-01	0	43	104	0	72	32933
2026-01-06 04:34:44.91	152.18	14.88	-50.5	-69.6	3.8	8.46e-01	0	43	104	0	72	32890
2026-01-06 04:34:45.91	151.93	14.78	-50.5	-69.7	3.8	8.48e-01	0	43	104	0	72	32953
2026-01-06 04:34:46.91	151.67	14.68	-50.5	-69.7	3.8	8.48e-01	0	43	104	0	72	32951
2026-01-06 04:34:47.92	151.42	14.58	-50.5	-69.6	3.8	8.47e-01	0	43	104	0	72	32825
2026-01-06 04:34:48.92	151.17	14.48	-50.5	-69.7	3.8	8.47e-01	0	43	104	0	72	32937
2026-01-06 04:34:49.93	150.92	14.38	-50.5	-69.7	3.8	8.47e-01	0	42	104	0	72	32930
2026-01-06 04:34:50.93	150.67	14.28	-50.5	-69.6	3.8	8.47e-01	0	43	104	0	72	32905
2026-01-06 04:34:51.94	150.43	14.17	-50.5	-69.7	3.8	8.48e-01	0	43	104	0	72	33008
2026-01-06 04:34:52.94	150.19	14.07	-50.5	-69.7	3.8	8.48e-01	0	43	104	0	72	32955
2026-01-06 04:34:53.95	149.94	13.97	-50.5	-69.6	3.8	8.48e-01	0	42	104	0	72	32869
2026-01-06 04:34:54.95	149.71	13.87	-50.5	-69.7	3.8	8.47e-01	0	43	104	0	72	32967
2026-01-06 04:34:55.95	149.47	13.77	-50.5	-69.7	3.8	8.47e-01	0	42	104	0	72	32993
2026-01-06 04:34:56.96	149.24	13.67	-50.5	-69.7	3.8	8.47e-01	0	42	104	0	72	32945
2026-01-06 04:34:57.96	149.01	13.57	-50.5	-69.7	3.8	8.46e-01	0	43	104	0	72	32953
2026-01-06 04:34:58.97	148.78	13.47	-50.5	-69.6	3.8	8.46e-01	0	43	104	0	72	32870
2026-01-06 04:34:59.97	148.55	13.37	-50.5	-69.7	3.8	8.46e-01	0	43	104	0	72	32982
2026-01-06 04:35:00.97	148.32	13.28	-50.5	-69.6	3.8	8.48e-01	0	43	104	0	72	32911
2026-01-06 04:35:01.98	148.10	13.18	-50.5	-69.6	3.8	8.48e-01	0	42	104	0	72	32865
2026-01-06 04:35:02.98	147.88	13.08	-50.5	-69.7	3.8	8.48e-01	0	43	104	0	72	32930
2026-01-06 04:35:03.99	147.66	12.98	-50.5	-69.7	3.8	8.48e-01	0	43	104	0	72	32961
2026-01-06 04:35:04.99	147.44	12.88	-50.5	-69.6	3.8	8.48e-01	0	43	104	0	72	32925
2026-01-06 04:35:06.00	147.22	12.78	-50.5	-69.6	3.8	8.47e-01	0	43	104	0	72	32919
2026-01-06 04:35:07.00	147.01	12.69	-50.5	-69.7	3.8	8.47e-01	0	43	104	0	72	32931
2026-01-06 04:35:08.00	146.80	12.59	-50.5	-69.6	3.8	8.47e-01	0	43	104	0	72	32914
2026-01-06 04:35:09.01	146.58	12.49	-50.5	-69.7	3.8	8.48e-01	0	43	104	0	72	32982
2026-01-06 04:35:10.01	146.38	12.40	-50.5	-69.6	3.8	8.48e-01	0	43	104	0	72	32924
2026-01-06 04:35:11.02	146.17	12.30	-50.5	-69.6	3.8	8.47e-01	0	43	104	0	72	32924
2026-01-06 04:35:12.02	145.96	12.20	-50.5	-69.6	3.8	8.47e-01	0	43	104	0	72	32899
2026-01-06 04:35:13.03	145.76	12.11	-50.5	-69.6	3.8	8.47e-01	0	43	104	0	72	32884
2026-01-06 04:35:14.03	145.56	12.01	-50.5	-69.6	3.8	8.46e-01	0	43	104	0	72	32925
2026-01-06 04:35:15.03	145.36	11.92	-50.5	-69.7	3.8	8.46e-01	0	43	104	0	72	32931
2026-01-06 04:35:16.04	145.16	11.82	-50.5	-69.7	3.8	8.46e-01	0	43	104	0	72	32944
2026-01-06 04:35:17.04	144.96	11.73	-50.5	-69.6	3.8	8.46e-01	0	43	104	0	72	32898
2026-01-06 04:35:18.04	144.77	11.63	-50.5	-69.6	3.8	8.48e-01	0	43	104	0	72	32836
2026-01-06 04:35:19.05	144.57	11.54	-50.5	-69.7	3.8	8.47e-01	0	43	104	0	72	32934
2026-01-06 04:35:20.05	144.38	11.44	-50.5	-69.6	3.8	8.47e-01	0	43	104	0	72	32881
2026-01-06 04:35:21.06	144.19	11.35	-50.5	-69.7	3.8	8.48e-01	0	42	104	0	72	32989
2026-01-06 04:35:22.06	144.00	11.26	-50.5	-69.7	3.8	8.46e-01	0	43	104	0	72	32951
2026-01-06 04:35:23.06	143.82	11.16	-50.5	-69.6	3.8	8.46e-01	0	43	104	0	72	32928
2026-01-06 04:35:24.07	143.63	11.07	-50.5	-69.6	3.8	8.47e-01	0	43	104	0	72	32927
2026-01-06 04:35:25.07	143.45	10.98	-50.5	-69.6	3.8	8.46e-01	0	43	104	0	72	32895
2026-01-06 04:35:26.08	143.26	10.89	-50.5	-69.7	3.8	8.46e-01	0	43	104	0	72	32940
2026-01-06 04:35:27.08	143.08	10.79	-50.5	-69.7	3.8	8.46e-01	0	43	104	0	72	32933
2026-01-06 04:35:28.09	142.90	10.70	-50.5	-69.6	3.8	8.48e-01	0	43	104	0	72	32903
2026-01-06 04:35:29.09	142.73	10.61	-50.5	-69.6	3.8	8.48e-01	0	43	104	0	72	32893
2026-01-06 04:35:30.09	142.55	10.52	-50.5	-69.6	3.8	8.47e-01	0	43	104	0	72	32863
2026-01-06 04:35:31.10	142.38	10.43	-50.5	-69.6	3.8	8.47e-01	0	43	104	0	72	32921
2026-01-06 04:35:32.10	142.20	10.34	-50.5	-69.6	3.8	8.49e-01	0	43	104	0	72	32914
2026-01-06 04:35:33.11	142.03	10.25	-50.5	-69.6	3.8	8.49e-01	0	43	104	0	72	32883
2026-01-06 04:35:34.11	141.86	10.16	-50.5	-69.6	3.8	8.45e-01	0	43	104	0	72	32828
2026-01-06 04:35:35.11	141.69	10.07	-50.5	-69.6	3.8	8.47e-01	0	43	104	0	72	32883
2026-01-06 04:35:36.12	141.52	9.98	-50.5	-69.7	3.8	8.47e-01	0	43	104	0	72	32986
2026-01-06 04:35:37.12	141.36	9.89	-50.5	-69.6	3.8	8.47e-01	0	43	104	0	72	32840
2026-01-06 04:35:38.13	141.19	9.80	-50.5	-69.6	3.8	8.46e-01	0	43	104	0	72	32920
2026-01-06 04:35:39.13	141.03	9.71	-50.5	-69.6	3.8	8.46e-01	0	43	104	0	72	32778
2026-01-06 04:35:40.14	140.86	9.63	-50.5	-69.6	3.8	8.47e-01	0	43	104	0	72	32798
2026-01-06 04:35:41.14	140.70	9.54	-50.5	-69.7	3.8	8.47e-01	0	43	104	0	72	32947
2026-01-06 04:35:42.14	140.55	9.45	-50.5	-69.6	3.8	8.47e-01	0	43	104	0	72	32841
2026-01-06 04:35:43.15	140.39	9.36	-50.5	-69.6	3.8	8.48e-01	0	43	104	0	72	32747
2026-01-06 04:35:44.15	140.23	9.28	-50.5	-69.6	3.8	8.46e-01	0	43	104	0	72	32828
2026-01-06 04:35:45.16	140.07	9.19	-50.5	-69.6	3.8	8.46e-01	0	43	104	0	72	32853
2026-01-06 04:35:46.16	139.92	9.10	-50.4	-69.6	3.8	8.47e-01	0	43	104	0	72	32920
2026-01-06 04:35:47.16	139.77	9.02	-50.5	-69.6	3.8	8.47e-01	0	43	104	0	72	32848
2026-01-06 04:35:48.17	139.61	8.93	-50.5	-69.6	3.8	8.48e-01	0	43	104	0	72	32820
2026-01-06 04:35:49.17	139.46	8.85	-50.4	-69.6	3.8	8.48e-01	0	43	104	0	72	32818
2026-01-06 04:35:50.18	139.31	8.76	-50.5	-69.6	3.8	8.47e-01	0	43	104	0	72	32812
2026-01-06 04:35:51.18	139.16	8.68	-50.5	-69.6	3.8	8.47e-01	0	43	104	0	72	32831
2026-01-06 04:35:52.18	139.02	8.59	-50.5	-69.6	3.8	8.47e-01	0	43	104	0	72	32816
2026-01-06 04:35:53.19	138.87	8.51	-50.5	-69.6	3.8	8.47e-01	0	43	104	0	72	32853
2026-01-06 04:35:54.19	138.73	8.42	-50.4	-69.6	3.8	8.47e-01	0	43	104	0	72	32786
2026-01-06 04:35:55.44	138.55	8.32	-50.4	-69.6	3.8	8.47e-01	0	42	104	0	72	32827
2026-01-06 04:35:56.32	138.42	8.25	-50.5	-69.6	3.8	8.47e-01	0	43	104	0	72	32817
2026-01-06 04:35:57.64	138.24	8.14	-50.4	-69.6	3.8	8.47e-01	0	43	104	0	72	32792
2026-01-06 04:35:58.36	138.14	8.08	-50.4	-69.6	3.8	8.48e-01	0	43	104	0	72	32794
2026-01-06 04:35:59.86	137.93	7.96	-50.4	-69.6	3.8	8.47e-01	0	43	104	0	72	32807
2026-01-06 04:36:00.57	137.83	7.90	-50.4	-69.6	3.8	8.47e-01	0	43	104	0	72	32827
2026-01-06 04:36:01.87	137.66	7.79	-50.5	-69.6	3.8	8.46e-01	0	43	104	0	72	32789
2026-01-06 04:36:02.58	137.56	7.73	-50.4	-69.6	3.8	8.46e-01	0	43	104	0	72	32734
2026-01-06 04:36:03.87	137.39	7.63	-50.4	-69.6	3.8	8.46e-01	0	43	104	0	72	32823
2026-01-06 04:36:04.59	137.29	7.57	-50.4	-69.6	3.8	8.47e-01	0	43	104	0	72	32681
2026-01-06 04:36:05.88	137.12	7.47	-50.4	-69.6	3.8	8.47e-01	0	43	104	0	72	32813
2026-01-06 04:36:06.60	137.03	7.41	-50.4	-69.6	3.8	8.47e-01	0	43	104	0	72	32781
2026-01-06 04:36:07.89	136.86	7.31	-50.4	-69.6	3.8	8.47e-01	0	43	104	0	72	32845
2026-01-06 04:36:08.61	136.77	7.25	-50.4	-69.6	3.8	8.47e-01	0	43	104	0	72	32721
2026-01-06 04:36:09.90	136.60	7.15	-50.4	-69.6	3.8	8.47e-01	0	43	104	0	72	32718
2026-01-06 04:36:10.62	136.51	7.09	-50.4	-69.6	3.8	8.46e-01	0	43	104	0	72	32737
2026-01-06 04:36:11.91	136.35	6.99	-50.4	-69.6	3.
