passes_logs/2026/01/06/T1/T1__20260106_010452_NOAA_20_JPSS-1_rec.log

#Pass ID: 20260106_010452_NOAA 20 (JPSS-1)
#Satellite: NOAA 20 (JPSS-1)
#Configuration: NOAA 20
#almurnet v.1.7.20251203
#Start time: 2026-01-06 01:04:53

#Version: 2.0.20230620
#Station: T1
#Location: 37.570604 lon 55.790049 lat
#TLE: 1 43013U 17073A   26005.46207808  .00000128  00000+0  81791-4 0  9997
#TLE: 2 43013  98.7627 306.5027 0001826  53.0458 307.0885 14.19533487421381

#Time	Az	El	Level	Level2	SNR	BER	BlckErr	Temp	State	Recorded	gain1	gain2
2026-01-06 01:04:53.40	8.07	5.04	-50.5	-66.0	3.8	1.49e+00	0	39	0	0	71	22971
2026-01-06 01:04:54.40	8.01	5.10	-50.4	-66.0	3.8	1.49e+00	0	39	104	0	72	21648
2026-01-06 01:04:55.41	7.94	5.17	-50.4	-66.0	3.8	1.49e+00	0	39	104	0	72	21651
2026-01-06 01:04:56.41	7.87	5.23	-50.4	-66.0	3.8	1.49e+00	0	39	104	0	72	21631
2026-01-06 01:04:57.42	7.80	5.30	-50.4	-66.0	3.8	1.49e+00	0	40	104	0	72	21534
2026-01-06 01:04:58.42	7.73	5.36	-50.4	-66.0	3.8	1.49e+00	0	40	104	0	72	21645
2026-01-06 01:04:59.43	7.66	5.43	-50.4	-66.0	3.8	1.49e+00	0	40	104	0	72	21549
2026-01-06 01:05:00.43	7.59	5.49	-50.4	-66.0	3.8	1.49e+00	0	40	104	0	72	21591
2026-01-06 01:05:01.44	7.52	5.56	-50.4	-66.0	3.8	1.49e+00	0	40	104	0	72	21530
2026-01-06 01:05:02.44	7.45	5.62	-50.4	-66.0	3.8	1.49e+00	0	40	104	0	72	21597
2026-01-06 01:05:03.44	7.38	5.69	-50.4	-66.0	3.8	1.49e+00	0	40	104	0	72	21551
2026-01-06 01:05:04.45	7.31	5.75	-50.4	-66.0	3.8	1.49e+00	0	40	104	0	72	21599
2026-01-06 01:05:05.45	7.24	5.82	-50.4	-66.0	3.8	1.49e+00	0	40	104	0	72	21519
2026-01-06 01:05:06.46	7.17	5.88	-50.4	-66.0	3.8	1.49e+00	0	40	104	0	72	21592
2026-01-06 01:05:07.46	7.10	5.95	-50.4	-66.0	3.8	1.49e+00	0	40	104	0	72	21546
2026-01-06 01:05:08.46	7.03	6.02	-50.4	-66.0	3.8	1.49e+00	0	40	104	0	72	21602
2026-01-06 01:05:09.64	6.94	6.09	-50.4	-66.0	3.8	1.49e+00	0	40	104	0	72	21588
2026-01-06 01:05:10.50	6.88	6.15	-50.4	-66.0	3.8	1.49e+00	0	40	104	0	72	21585
2026-01-06 01:05:11.65	6.80	6.23	-50.4	-66.0	3.8	1.49e+00	0	40	104	0	72	21551
2026-01-06 01:05:12.51	6.73	6.28	-50.4	-66.0	3.8	1.49e+00	0	40	104	0	72	21638
2026-01-06 01:05:13.66	6.65	6.36	-50.4	-66.0	3.8	1.49e+00	0	40	104	0	72	21511
2026-01-06 01:05:14.52	6.58	6.42	-50.4	-66.0	3.8	1.49e+00	0	40	104	0	72	21612
2026-01-06 01:05:15.67	6.50	6.49	-50.4	-66.0	3.8	1.49e+00	0	40	104	0	72	21550
2026-01-06 01:05:16.53	6.43	6.55	-50.4	-65.9	3.8	1.49e+00	0	40	104	0	72	21479
2026-01-06 01:05:17.68	6.35	6.63	-50.4	-66.0	3.8	1.49e+00	0	40	104	0	72	21601
2026-01-06 01:05:18.54	6.28	6.68	-50.4	-66.0	3.8	1.49e+00	0	41	104	0	72	21549
2026-01-06 01:05:19.69	6.20	6.76	-50.4	-66.0	3.8	1.49e+00	0	41	104	0	72	21555
2026-01-06 01:05:20.55	6.13	6.82	-50.4	-66.0	3.8	1.49e+00	0	40	104	0	72	21620
2026-01-06 01:05:21.72	6.04	6.90	-50.4	-66.0	3.8	1.49e+00	0	41	104	0	72	21515
2026-01-06 01:05:22.59	5.98	6.95	-50.4	-66.0	3.8	1.49e+00	0	40	104	0	72	21555
2026-01-06 01:05:23.80	5.88	7.04	-50.4	-66.0	3.8	1.49e+00	0	40	104	0	72	21651
2026-01-06 01:05:24.66	5.81	7.09	-50.4	-66.0	3.8	1.49e+00	0	41	104	0	72	21572
2026-01-06 01:05:25.81	5.73	7.17	-50.4	-66.0	3.8	1.49e+00	0	41	104	0	72	21568
2026-01-06 01:05:26.67	5.66	7.23	-50.4	-66.0	3.8	1.49e+00	0	41	104	0	72	21544
2026-01-06 01:05:27.81	5.57	7.31	-50.4	-66.0	3.8	1.49e+00	0	41	104	0	72	21573
2026-01-06 01:05:28.67	5.50	7.37	-50.4	-66.0	3.8	1.49e+00	0	41	104	0	72	21589
2026-01-06 01:05:29.82	5.41	7.44	-50.4	-66.0	3.8	1.49e+00	0	41	104	0	72	21550
2026-01-06 01:05:30.68	5.34	7.50	-50.4	-65.9	3.8	1.49e+00	0	41	104	0	72	21474
2026-01-06 01:05:31.83	5.25	7.58	-50.4	-66.0	3.8	1.49e+00	0	41	104	0	72	21573
2026-01-06 01:05:32.69	5.18	7.64	-50.4	-65.9	3.8	1.49e+00	0	41	104	0	72	21493
2026-01-06 01:05:33.84	5.08	7.72	-50.4	-66.0	3.8	1.49e+00	0	41	104	0	72	21589
2026-01-06 01:05:34.70	5.01	7.78	-50.4	-66.0	3.8	1.49e+00	0	41	104	0	72	21563
2026-01-06 01:05:35.85	4.92	7.86	-50.4	-66.0	3.8	1.49e+00	0	41	104	0	72	21534
2026-01-06 01:05:36.71	4.85	7.92	-50.4	-66.0	3.8	1.49e+00	0	41	104	0	72	21557
2026-01-06 01:05:37.86	4.75	8.00	-50.4	-66.0	3.8	1.49e+00	0	41	104	0	72	21547
2026-01-06 01:05:38.72	4.68	8.06	-50.4	-65.9	3.8	1.49e+00	0	41	104	0	72	21499
2026-01-06 01:05:39.87	4.59	8.14	-50.4	-66.0	3.8	1.49e+00	0	41	104	0	72	21540
2026-01-06 01:05:40.73	4.51	8.20	-50.4	-66.0	3.8	1.49e+00	0	41	104	0	72	21595
2026-01-06 01:05:41.87	4.42	8.28	-50.4	-66.0	3.8	1.49e+00	0	41	104	0	72	21507
2026-01-06 01:05:42.73	4.35	8.34	-50.4	-66.0	3.8	1.49e+00	0	41	104	0	72	21573
2026-01-06 01:05:43.88	4.25	8.42	-50.4	-66.0	3.8	1.49e+00	0	41	104	0	72	21535
2026-01-06 01:05:44.75	4.17	8.48	-50.4	-66.0	3.8	1.49e+00	0	41	104	0	72	21553
2026-01-06 01:05:45.89	4.07	8.56	-50.4	-65.9	3.8	1.49e+00	0	41	104	0	72	21451
2026-01-06 01:05:46.75	4.00	8.62	-50.4	-65.9	3.8	1.49e+00	0	41	104	0	72	21482
2026-01-06 01:05:47.90	3.90	8.70	-50.4	-66.0	3.8	1.49e+00	0	41	104	0	72	21526
2026-01-06 01:05:48.76	3.83	8.76	-50.4	-65.9	3.8	1.49e+00	0	41	104	0	72	21433
2026-01-06 01:05:49.91	3.72	8.84	-50.4	-65.9	3.8	1.49e+00	0	41	104	0	72	21465
2026-01-06 01:05:50.77	3.65	8.90	-50.4	-66.0	3.8	1.49e+00	0	41	104	0	72	21514
2026-01-06 01:05:51.92	3.55	8.99	-50.4	-65.9	3.8	1.49e+00	0	41	104	0	72	21502
2026-01-06 01:05:52.78	3.47	9.05	-50.4	-65.9	3.8	1.49e+00	0	41	104	0	72	21474
2026-01-06 01:05:53.93	3.37	9.13	-50.4	-65.9	3.8	1.49e+00	0	41	104	0	72	21442
2026-01-06 01:05:54.79	3.29	9.19	-50.4	-65.9	3.8	1.49e+00	0	41	104	0	72	21499
2026-01-06 01:05:55.94	3.18	9.27	-50.4	-66.0	3.8	1.49e+00	0	41	104	0	72	21543
2026-01-06 01:05:56.80	3.11	9.33	-50.4	-65.9	3.8	1.49e+00	0	42	104	0	72	21491
2026-01-06 01:05:57.94	3.00	9.42	-50.4	-66.0	3.8	1.49e+00	0	41	104	0	72	21514
2026-01-06 01:05:58.80	2.92	9.48	-50.4	-66.0	3.8	1.49e+00	0	41	104	0	72	21524
2026-01-06 01:05:59.95	2.82	9.56	-50.4	-65.9	3.8	1.49e+00	0	41	104	0	72	21462
2026-01-06 01:06:00.81	2.74	9.62	-50.4	-65.9	3.8	1.49e+00	0	41	104	0	72	21451
2026-01-06 01:06:01.96	2.63	9.71	-50.4	-66.0	3.8	1.49e+00	0	41	104	0	72	21520
2026-01-06 01:06:02.82	2.55	9.77	-50.4	-66.0	3.8	1.49e+00	0	41	104	0	72	21527
2026-01-06 01:06:03.97	2.44	9.85	-50.4	-66.0	3.8	1.49e+00	0	42	104	0	72	21556
2026-01-06 01:06:04.83	2.36	9.92	-50.4	-65.9	3.8	1.49e+00	0	41	104	0	72	21472
2026-01-06 01:06:05.98	2.25	10.00	-50.4	-65.9	3.8	1.49e+00	0	42	104	0	72	21426
2026-01-06 01:06:06.83	2.17	10.06	-50.4	-66.0	3.8	1.49e+00	0	41	104	0	72	21542
2026-01-06 01:06:07.98	2.06	10.15	-50.4	-66.0	3.8	1.49e+00	0	42	104	0	72	21533
2026-01-06 01:06:08.84	1.97	10.21	-50.4	-65.9	3.8	1.49e+00	0	42	104	0	72	21435
2026-01-06 01:06:09.99	1.86	10.29	-50.4	-65.9	3.8	1.49e+00	0	42	104	0	72	21506
2026-01-06 01:06:10.85	1.78	10.36	-50.4	-65.9	3.8	1.49e+00	0	42	104	0	72	21411
2026-01-06 01:06:12.00	1.66	10.44	-50.4	-66.0	3.8	1.49e+00	0	41	104	0	72	21507
2026-01-06 01:06:12.86	1.58	10.51	-50.4	-65.9	3.8	1.49e+00	0	42	104	0	72	21479
2026-01-06 01:06:14.01	1.46	10.59	-50.4	-65.9	3.8	1.49e+00	0	42	104	0	72	21436
2026-01-06 01:06:14.87	1.38	10.65	-50.4	-65.9	3.8	1.49e+00	0	42	104	0	72	21442
2026-01-06 01:06:16.02	1.26	10.74	-50.4	-65.9	3.8	1.49e+00	0	41	104	0	72	21500
2026-01-06 01:06:16.88	1.17	10.80	-50.4	-66.0	3.8	1.49e+00	0	42	104	0	72	21510
2026-01-06 01:06:18.03	1.06	10.89	-50.4	-65.9	3.8	1.49e+00	0	42	104	0	72	21484
2026-01-06 01:06:18.89	0.97	10.95	-50.4	-65.9	3.8	1.49e+00	0	42	104	0	72	21461
2026-01-06 01:06:20.03	0.85	11.04	-50.4	-65.9	3.8	1.49e+00	0	42	104	0	72	21504
2026-01-06 01:06:20.89	0.76	11.10	-50.4	-66.0	3.8	1.49e+00	0	42	104	0	72	21521
2026-01-06 01:06:22.04	0.64	11.19	-50.4	-66.0	3.8	1.49e+00	0	42	104	0	72	21600
2026-01-06 01:06:22.90	0.55	11.26	-50.4	-65.9	3.8	1.49e+00	0	42	104	0	72	21505
2026-01-06 01:06:24.05	0.43	11.34	-50.4	-65.9	3.8	1.49e+00	0	42	104	0	72	21452
2026-01-06 01:06:24.91	0.34	11.41	-50.4	-66.0	3.8	1.49e+00	0	42	104	0	72	21528
2026-01-06 01:06:26.05	0.22	11.49	-50.4	-65.9	3.8	1.49e+00	0	42	104	0	72	21451
2026-01-06 01:06:26.91	0.13	11.56	-50.4	-65.9	3.8	1.49e+00	0	42	104	0	72	21506
2026-01-06 01:06:28.06	0.01	11.65	-50.4	-65.9	3.8	1.49e+00	0	42	104	0	72	21475
2026-01-06 01:06:28.92	359.91	11.71	-50.4	-65.9	3.8	1.49e+00	0	42	104	0	72	21459
2026-01-06 01:06:30.07	359.79	11.80	-50.4	-65.9	3.8	1.49e+00	0	42	104	0	72	21463
2026-01-06 01:06:30.93	359.70	11.87	-50.4	-65.9	3.8	1.49e+00	0	42	104	0	72	21466
2026-01-06 01:06:32.08	359.57	11.95	-50.4	-65.9	3.8	1.49e+00	0	42	104	0	72	21429
2026-01-06 01:06:32.94	359.47	12.02	-50.4	-66.0	3.8	1.49e+00	0	42	104	0	72	21534
2026-01-06 01:06:34.09	359.35	12.11	-50.4	-65.9	3.8	1.49e+00	0	42	104	0	72	21446
2026-01-06 01:06:34.95	359.25	12.17	-50.4	-66.0	3.8	1.49e+00	0	42	104	0	72	21543
2026-01-06 01:06:36.10	359.12	12.26	-50.4	-65.9	3.8	1.49e+00	0	42	104	0	72	21504
2026-01-06 01:06:36.96	359.03	12.33	-50.4	-65.9	3.8	1.49e+00	0	42	104	0	72	21465
2026-01-06 01:06:38.11	358.90	12.42	-50.4	-66.0	3.8	1.49e+00	0	42	104	0	72	21527
2026-01-06 01:06:38.97	358.80	12.49	-50.4	-66.0	3.8	1.49e+00	0	42	104	0	72	21549
2026-01-06 01:06:40.19	358.66	12.58	-50.4	-66.0	3.8	1.49e+00	0	42	104	0	72	21537
2026-01-06 01:06:41.05	358.56	12.65	-50.4	-66.0	3.8	1.49e+00	0	42	104	0	72	21516
2026-01-06 01:06:42.20	358.43	12.74	-50.4	-66.0	3.8	1.49e+00	0	42	104	0	72	21508
2026-01-06 01:06:43.06	358.33	12.80	-50.4	-65.9	3.8	1.49e+00	0	42	104	0	72	21477
2026-01-06 01:06:44.21	358.19	12.89	-50.4	-65.9	3.8	1.49e+00	0	42	104	0	72	21491
2026-01-06 01:06:45.07	358.09	12.96	-50.4	-66.0	3.8	1.49e+00	0	42	104	0	72	21595
2026-01-06 01:06:46.22	357.95	13.05	-50.4	-65.9	3.8	1.49e+00	0	42	104	0	72	21487
2026-01-06 01:06:47.08	357.85	13.12	-50.4	-65.9	3.8	1.49e+00	0	42	104	0	72	21467
2026-01-06 01:06:48.23	357.71	13.21	-50.4	-65.9	3.8	1.49e+00	0	42	104	0	72	21489
2026-01-06 01:06:49.09	357.61	13.28	-50.4	-65.9	3.8	1.49e+00	0	42	104	0	72	21458
2026-01-06 01:06:50.24	357.47	13.37	-50.4	-66.0	3.8	1.49e+00	0	42	104	0	72	21561
2026-01-06 01:06:51.34	357.34	13.45	-50.4	-66.0	3.8	1.49e+00	0	42	104	0	72	21541
2026-01-06 01:06:52.37	357.21	13.54	-50.4	-66.0	3.8	1.49e+00	0	42	104	0	72	21521
2026-01-06 01:06:53.56	357.07	13.63	-50.4	-66.0	3.8	1.49e+00	0	42	104	0	72	21580
2026-01-06 01:06:54.45	356.96	13.70	-50.4	-66.0	3.8	1.49e+00	0	42	104	0	72	21537
2026-01-06 01:06:55.77	356.79	13.81	-50.4	-65.9	3.8	1.49e+00	0	42	104	0	72	21465
2026-01-06 01:06:56.49	356.70	13.86	-50.4	-66.0	3.8	1.49e+00	0	42	104	0	72	21574
2026-01-06 01:06:57.78	356.54	13.97	-50.4	-66.0	3.8	1.49e+00	0	42	104	0	72	21542
2026-01-06 01:06:58.50	356.45	14.02	-50.4	-66.0	3.8	1.49e+00	0	42	104	0	72	21569
2026-01-06 01:06:59.79	356.28	14.13	-50.4	-65.9	3.8	1.49e+00	0	42	104	0	72	21500
2026-01-06 01:07:00.50	356.19	14.19	-50.4	-66.0	3.8	1.49e+00	0	42	104	0	72	21557
2026-01-06 01:07:01.80	356.02	14.29	-50.4	-66.0	3.8	1.49e+00	0	42	104	0	72	21669
2026-01-06 01:07:02.51	355.93	14.35	-50.4	-66.0	3.8	1.49e+00	0	42	104	0	72	21669
2026-01-06 01:07:03.80	355.76	14.45	-50.4	-66.0	3.8	1.49e+00	0	42	104	0	72	21573
2026-01-06 01:07:04.52	355.67	14.51	-50.4	-66.0	3.8	1.49e+00	0	42	104	0	72	21595
2026-01-06 01:07:05.84	355.50	14.62	-50.4	-66.0	3.8	1.49e+00	0	42	104	0	72	21624
2026-01-06 01:07:06.56	355.40	14.67	-50.4	-66.0	3.8	1.49e+00	0	42	104	0	72	21601
2026-01-06 01:07:07.91	355.22	14.78	-50.4	-66.0	3.8	1.49e+00	0	42	104	0	72	21517
2026-01-06 01:07:08.63	355.12	14.84	-50.4	-66.0	3.8	1.49e+00	0	42	104	0	72	21612
2026-01-06 01:07:09.92	354.95	14.95	-50.4	-66.0	3.8	1.49e+00	0	42	104	0	72	21562
2026-01-06 01:07:10.64	354.85	15.01	-50.4	-66.0	3.8	1.49e+00	0	42	104	0	72	21574
2026-01-06 01:07:11.93	354.68	15.11	-50.4	-66.0	3.8	1.49e+00	0	42	104	0	72	21546
2026-01-06 01:07:12.65	354.58	15.17	-50.4	-66.0	3.8	1.49e+00	0	42	104	0	72	21534
2026-01-06 01:07:13.94	354.40	15.28	-50.4	-66.0	3.8	1.49e+00	0	42	104	0	72	21627
2026-01-06 01:07:14.66	354.30	15.33	-50.4	-66.0	3.8	1.49e+00	0	42	104	0	72	21515
2026-01-06 01:07:15.94	354.12	15.44	-50.4	-66.0	3.8	1.49e+00	0	42	104	0	72	21603
2026-01-06 01:07:16.66	354.02	15.50	-50.4	-66.0	3.8	1.49e+00	0	42	104	0	72	21516
2026-01-06 01:07:17.95	353.84	15.60	-50.4	-66.0	3.8	1.49e+00	0	42	104	0	72	21581
2026-01-06 01:07:18.67	353.74	15.66	-50.4	-66.0	3.8	1.49e+00	0	42	104	0	72	21609
2026-01-06 01:07:19.96	353.55	15.77	-50.4	-66.0	3.8	1.49e+00	0	42	104	0	72	21542
2026-01-06 01:07:20.68	353.45	15.83	-50.4	-66.0	3.8	1.49e+00	0	42	104	0	72	21587
2026-01-06 01:07:21.97	353.26	15.94	-50.4	-65.9	3.8	1.49e+00	0	42	104	0	72	21500
2026-01-06 01:07:22.69	353.16	15.99	-50.4	-66.0	3.8	1.49e+00	0	42	104	0	72	21544
2026-01-06 01:07:23.98	352.97	16.10	-50.4	-66.0	3.8	1.49e+00	0	42	104	0	72	21589
2026-01-06 01:07:24.71	352.86	16.16	-50.4	-66.0	3.8	1.49e+00	0	42	104	0	72	21593
2026-01-06 01:07:26.00	352.67	16.27	-50.4	-66.0	3.8	1.49e+00	0	42	104	0	72	21514
2026-01-06 01:07:26.71	352.57	16.33	-50.4	-66.0	3.8	1.49e+00	0	42	104	0	72	21558
2026-01-06 01:07:28.00	352.37	16.44	-50.4	-66.0	3.8	1.49e+00	0	42	104	0	72	21563
2026-01-06 01:07:28.72	352.27	16.50	-50.4	-66.0	3.8	1.49e+00	0	42	104	0	72	21595
2026-01-06 01:07:30.02	352.07	16.60	-50.5	-66.0	3.8	1.49e+00	0	42	104	0	72	21652
2026-01-06 01:07:30.73	351.96	16.66	-50.4	-66.0	3.8	1.49e+00	0	42	104	0	72	21631
2026-01-06 01:07:32.02	351.76	16.77	-50.4	-66.0	3.8	1.49e+00	0	42	104	0	72	21685
2026-01-06 01:07:32.74	351.65	16.83	-50.4	-66.0	3.8	1.49e+00	0	42	104	0	72	21587
2026-01-06 01:07:34.03	351.45	16.94	-50.4	-66.0	3.8	1.49e+00	0	42	104	0	72	21601
2026-01-06 01:07:34.75	351.34	17.00	-50.4	-66.0	3.8	1.49e+00	0	42	104	0	72	21639
2026-01-06 01:07:36.04	351.14	17.11	-50.4	-66.0	3.8	1.49e+00	0	42	104	0	72	21674
2026-01-06 01:07:36.76	351.03	17.17	-50.4	-66.0	3.8	1.49e+00	0	42	104	0	72	21587
2026-01-06 01:07:38.05	350.82	17.27	-50.5	-66.0	3.8	1.49e+00	0	42	104	0	72	21615
2026-01-06 01:07:38.76	350.71	17.33	-50.4	-66.0	3.8	1.49e+00	0	42	104	0	72	21678
2026-01-06 01:07:40.06	350.50	17.44	-50.4	-66.0	3.8	1.49e+00	0	42	104	0	72	21637
2026-01-06 01:07:40.77	350.39	17.50	-50.4	-66.0	3.8	1.49e+00	0	42	104	0	72	21634
2026-01-06 01:07:42.07	350.18	17.61	-50.5	-66.0	3.8	1.49e+00	0	42	104	0	72	21646
2026-01-06 01:07:42.78	350.06	17.67	-50.5	-66.0	3.8	1.49e+00	0	42	104	0	72	21619
2026-01-06 01:07:44.07	349.85	17.78	-50.5	-66.0	3.8	1.49e+00	0	42	104	0	72	21618
2026-01-06 01:07:44.79	349.73	17.84	-50.5	-66.0	3.8	1.49e+00	0	42	104	0	72	21595
2026-01-06 01:07:46.08	349.52	17.95	-50.5	-66.0	3.8	1.49e+00	0	42	104	0	72	21581
2026-01-06 01:07:46.80	349.40	18.01	-50.5	-66.0	3.8	1.49e+00	0	42	104	0	72	21627
2026-01-06 01:07:48.09	349.19	18.12	-50.4	-66.1	3.8	1.49e+00	0	42	104	0	72	21779
2026-01-06 01:07:48.81	349.06	18.18	-50.5	-66.0	3.8	1.49e+00	0	42	104	0	72	21560
2026-01-06 01:07:50.10	348.85	18.29	-50.5	-66.0	3.8	1.49e+00	0	42	104	0	72	21716
2026-01-06 01:07:50.82	348.72	18.35	-50.4	-66.0	3.8	1.49e+00	0	42	104	0	72	21566
2026-01-06 01:07:52.11	348.50	18.46	-50.5	-66.0	3.8	1.49e+00	0	42	104	0	72	21644
2026-01-06 01:07:52.83	348.38	18.52	-50.4	-66.0	3.8	1.49e+00	0	42	104	0	72	21736
2026-01-06 01:07:54.12	348.16	18.63	-50.4	-66.0	3.8	1.49e+00	0	42	104	0	72	21679
2026-01-06 01:07:54.84	348.03	18.69	-50.5	-66.0	3.8	1.49e+00	0	42	104	0	72	21646
2026-01-06 01:07:56.13	347.80	18.80	-50.5	-66.0	3.8	1.49e+00	0	42	104	0	72	21709
2026-01-06 01:07:56.85	347.68	18.86	-50.5	-66.0	3.8	1.49e+00	0	42	104	0	72	21655
2026-01-06 01:07:58.14	347.45	18.97	-50.4	-66.0	3.8	1.49e+00	0	42	104	0	72	21675
2026-01-06 01:07:58.85	347.32	19.03	-50.5	-66.0	3.8	1.49e+00	0	42	104	0	72	21680
2026-01-06 01:08:00.15	347.09	19.14	-50.4	-66.0	3.8	1.49e+00	0	42	104	0	72	21622
2026-01-06 01:08:00.86	346.96	19.20	-50.5	-66.0	3.8	1.49e+00	0	42	104	0	72	21661
2026-01-06 01:08:02.16	346.73	19.31	-50.5	-66.0	3.8	1.49e+00	0	42	104	0	72	21550
2026-01-06 01:08:02.87	346.60	19.37	-50.5	-66.0	3.8	1.49e+00	0	42	104	0	72	21638
2026-01-06 01:08:04.16	346.36	19.48	-50.5	-66.0	3.8	1.49e+00	0	42	104	0	72	21658
2026-01-06 01:08:04.88	346.23	19.54	-50.5	-66.0	3.8	1.49e+00	0	42	104	0	72	21686
2026-01-06 01:08:06.17	345.99	19.65	-50.5	-66.0	3.8	1.49e+00	0	42	104	0	72	21626
2026-01-06 01:08:06.89	345.85	19.71	-50.4	-66.0	3.8	1.49e+00	0	42	104	0	72	21666
2026-01-06 01:08:08.18	345.61	19.82	-50.5	-66.0	3.8	1.49e+00	0	42	104	0	72	21682
2026-01-06 01:08:08.90	345.48	19.88	-50.4	-66.0	3.8	1.49e+00	0	42	104	0	72	21678
2026-01-06 01:08:10.19	345.23	19.99	-50.5	-66.0	3.8	1.49e+00	0	42	104	0	72	21639
2026-01-06 01:08:10.91	345.09	20.05	-50.5	-66.0	3.8	1.49e+00	0	42	104	0	72	21626
2026-01-06 01:08:12.20	344.85	20.15	-50.5	-66.0	3.8	1.49e+00	0	42	104	0	72	21574
2026-01-06 01:08:12.92	344.71	20.21	-50.5	-66.0	3.8	1.49e+00	0	42	104	0	72	21668
2026-01-06 01:08:14.21	344.46	20.32	-50.5	-66.0	3.8	1.49e+00	0	42	104	0	72	21636
2026-01-06 01:08:14.93	344.32	20.38	-50.4	-66.0	3.8	1.49e+00	0	42	104	0	72	21680
2026-01-06 01:08:16.22	344.07	20.49	-50.5	-66.0	3.8	1.49e+00	0	42	104	0	72	21643
2026-01-06 01:08:16.93	343.93	20.55	-50.5	-66.0	3.8	1.49e+00	0	42	104	0	72	21651
2026-01-06 01:08:18.23	343.67	20.66	-50.4	-66.0	3.8	1.49e+00	0	42	104	0	72	21671
2026-01-06 01:08:18.94	343.53	20.72	-50.4	-66.0	3.8	1.49e+00	0	42	104	0	72	21642
2026-01-06 01:08:20.23	343.27	20.83	-50.5	-66.0	3.8	1.49e+00	0	42	104	0	72	21646
2026-01-06 01:08:20.95	343.12	20.89	-50.5	-66.0	3.8	1.49e+00	0	42	104	0	72	21690
2026-01-06 01:08:22.24	342.86	21.00	-50.5	-66.0	3.8	1.49e+00	0	42	104	0	72	21566
2026-01-06 01:08:22.96	342.71	21.05	-50.4	-66.0	3.8	1.49e+00	0	42	104	0	72	21647
2026-01-06 01:08:24.25	342.45	21.16	-50.5	-66.0	3.8	1.49e+00	0	42	104	0	72	21670
2026-01-06 01:08:24.97	342.30	21.22	-50.5	-66.0	3.8	1.49e+00	0	42	104	0	72	21672
2026-01-06 01:08:26.26	342.04	21.33	-50.5	-66.0	3.8	1.49e+00	0	42	104	0	72	21639
2026-01-06 01:08:26.98	341.89	21.39	-50.5	-66.0	3.8	1.49e+00	0	42	104	0	72	21656
2026-01-06 01:08:28.27	341.61	21.50	-50.4	-66.0	3.8	1.49e+00	0	42	104	0	72	21646
2026-01-06 01:08:28.99	341.46	21.55	-50.5	-66.0	3.8	1.49e+00	0	42	104	0	72	21573
2026-01-06 01:08:30.28	341.19	21.66	-50.5	-66.0	3.8	1.49e+00	0	42	104	0	72	21578
2026-01-06 01:08:30.99	341.04	21.72	-50.5	-66.0	3.8	1.49e+00	0	42	104	0	72	21677
2026-01-06 01:08:32.28	340.76	21.82	-50.5	-66.0	3.8	1.49e+00	0	43	104	0	72	21652
2026-01-06 01:08:33.18	340.57	21.90	-50.5	-66.0	3.8	1.49e+00	0	42	104	0	72	21593
2026-01-06 01:08:34.20	340.35	21.98	-50.5	-66.0	3.8	1.49e+00	0	42	104	0	72	21744
2026-01-06 01:08:35.20	340.13	22.06	-50.5	-66.0	3.8	1.49e+00	0	42	104	0	72	21708
2026-01-06 01:08:36.21	339.91	22.15	-50.5	-66.0	3.8	1.49e+00	0	42	104	0	72	21675
2026-01-06 01:08:37.21	339.69	22.23	-50.5	-66.0	3.8	1.49e+00	0	42	104	0	72	21721
2026-01-06 01:08:38.22	339.47	22.31	-50.5	-66.0	3.8	1.49e+00	0	42	104	0	72	21680
2026-01-06 01:08:39.22	339.24	22.39	-50.4	-66.0	3.8	1.49e+00	0	42	104	0	72	21693
2026-01-06 01:08:40.22	339.02	22.47	-50.5	-66.0	3.8	1.49e+00	0	42	104	0	72	21713
2026-01-06 01:08:41.24	338.79	22.55	-50.5	-66.0	3.8	1.49e+00	0	42	104	0	72	21614
2026-01-06 01:08:42.25	338.56	22.63	-50.5	-66.0	3.8	1.49e+00	0	42	104	0	72	21662
2026-01-06 01:08:43.25	338.34	22.71	-50.5	-66.0	3.8	1.49e+00	0	43	104	0	72	21662
2026-01-06 01:08:44.26	338.11	22.79	-50.5	-66.0	3.8	1.49e+00	0	42	104	0	72	21710
2026-01-06 01:08:45.26	337.88	22.87	-50.5	-66.0	3.8	1.49e+00	0	42	104	0	72	21678
2026-01-06 01:08:46.26	337.65	22.95	-50.5	-66.0	3.8	1.49e+00	0	42	104	0	72	21658
2026-01-06 01:08:47.27	337.41	23.03	-50.5	-66.0	3.8	1.49e+00	0	42	104	0	72	21645
2026-01-06 01:08:48.27	337.18	23.11	-50.5	-66.0	3.8	1.49e+00	0	42	104	0	72	21637
2026-01-06 01:08:49.28	336.94	23.19	-50.5	-66.0	3.8	1.49e+00	0	42	104	0	72	21672
2026-01-06 01:08:50.28	336.71	23.27	-50.5	-66.0	3.8	1.49e+00	0	42	104	0	72	21711
2026-01-06 01:08:51.29	336.47	23.34	-50.5	-66.0	3.8	1.49e+00	0	43	104	0	72	21619
2026-01-06 01:08:52.29	336.23	23.42	-50.5	-66.0	3.8	1.49e+00	0	42	104	0	72	21743
2026-01-06 01:08:53.29	335.99	23.50	-50.5	-66.0	3.8	1.49e+00	0	42	104	0	72	21560
2026-01-06 01:08:54.30	335.75	23.58	-50.5	-66.0	3.8	1.49e+00	0	42	104	0	72	21683
2026-01-06 01:08:55.30	335.51	23.65	-50.4	-66.0	3.8	1.49e+00	0	43	104	0	72	21726
2026-01-06 01:08:56.30	335.27	23.73	-50.5	-66.0	3.8	1.49e+00	0	42	104	0	72	21674
2026-01-06 01:08:57.34	335.01	23.81	-50.5	-66.0	3.8	1.49e+00	0	42	104	0	72	21714
2026-01-06 01:08:58.35	334.77	23.88	-50.5	-66.0	3.8	1.49e+00	0	42	104	0	72	21708
2026-01-06 01:08:59.42	334.50	23.96	-50.5	-66.0	3.8	1.49e+00	0	42	104	0	72	21693
2026-01-06 01:09:00.32	334.28	24.03	-50.5	-66.0	3.8	1.49e+00	0	42	104	0	72	21632
2026-01-06 01:09:01.52	333.98	24.12	-50.5	-66.0	3.8	1.49e+00	0	42	104	0	72	21620
2026-01-06 01:09:02.39	333.76	24.19	-50.5	-66.0	3.8	1.49e+00	0	42	104	0	72	21687
2026-01-06 01:09:03.69	333.44	24.28	-50.5	-66.0	3.8	1.49e+00	0	42	104	0	72	21675
2026-01-06 01:09:04.41	333.26	24.33	-50.5	-66.0	3.8	1.49e+00	0	43	104	0	72	21674
2026-01-06 01:09:05.92	332.87	24.44	-50.5	-66.0	3.8	1.49e+00	0	42	104	0	72	21704
2026-01-06 01:09:06.64	332.69	24.50	-50.5	-66.0	3.8	1.49e+00	0	42	104	0	72	21681
2026-01-06 01:09:07.93	332.36	24.59	-50.5	-66.0	3.8	1.49e+00	0	42	104	0	72	21716
2026-01-06 01:09:08.65	332.17	24.64	-50.5	-66.0	3.8	1.49e+00	0	42	104	0	72	21603
2026-01-06 01:09:09.94	331.84	24.73	-50.5	-66.0	3.8	1.49e+00	0	42	104	0	72	21645
2026-01-06 01:09:10.66	331.65	24.78	-50.5	-66.0	3.8	1.49e+00	0	42	104	0	72	21556
2026-01-06 01:09:11.95	331.32	24.87	-50.5	-66.0	3.8	1.49e+00	0	43	104	0	72	21643
2026-01-06 01:09:12.68	331.13	24.92	-50.5	-66.0	3.8	1.49e+00	0	42	104	0	72	21701
2026-01-06 01:09:13.97	330.79	25.01	-50.5	-66.0	3.8	1.49e+00	0	42	104	0	72	21712
2026-01-06 01:09:14.69	330.60	25.06	-50.5	-66.0	3.8	1.49e+00	0	42	104	0	72	21656
2026-01-06 01:09:15.98	330.25	25.15	-50.5	-66.0	3.8	1.49e+00	0	42	104	0	72	21732
2026-01-06 01:09:16.70	330.06	25.20	-50.5	-66.0	3.8	1.49e+00	0	42	104	0	72	21696
2026-01-06 01:09:17.99	329.72	25.28	-50.5	-66.0	3.8	1.49e+00	0	42	104	0	72	21697
2026-01-06 01:09:18.71	329.52	25.33	-50.5	-66.0	3.8	1.49e+00	0	42	104	0	72	21630
2026-01-06 01:09:20.00	329.17	25.42	-50.5	-66.0	3.8	1.49e+00	0	42	104	0	72	21646
2026-01-06 01:09:20.72	328.98	25.46	-50.5	-66.0	3.8	1.49e+00	0	42	104	0	72	21695
2026-01-06 01:09:22.01	328.63	25.55	-50.5	-66.0	3.8	1.49e+00	0	42	104	0	72	21663
2026-01-06 01:09:22.72	328.43	25.59	-50.5	-66.0	3.8	1.49e+00	0	42	104	0	72	21751
2026-01-06 01:09:24.02	328.07	25.68	-50.5	-66.0	3.8	1.49e+00	0	43	104	0	72	21589
2026-01-06 01:09:24.73	327.88	25.72	-50.5	-66.0	3.8	1.49e+00	0	42	104	0	72	21681
2026-01-06 01:09:26.02	327.52	25.80	-50.5	-66.0	3.8	1.49e+00	0	43	104	0	72	21678
2026-01-06 01:09:26.74	327.32	25.85	-50.5	-66.0	3.8	1.49e+00	0	42	104	0	72	21706
2026-01-06 01:09:28.03	326.96	25.93	-50.5	-66.1	3.8	1.49e+00	0	42	104	0	72	21768
2026-01-06 01:09:28.75	326.76	25.97	-50.5	-66.0	3.8	1.49e+00	0	42	104	0	72	21666
2026-01-06 01:09:30.04	326.40	26.05	-50.5	-66.0	3.8	1.49e+00	0	42	104	0	72	21746
2026-01-06 01:09:30.76	326.19	26.09	-50.5	-66.0	3.8	1.49e+00	0	42	104	0	72	21729
2026-01-06 01:09:32.05	325.83	26.17	-50.5	-66.0	3.8	1.49e+00	0	42	104	0	72	21699
2026-01-06 01:09:32.77	325.62	26.21	-50.5	-66.0	3.8	1.49e+00	0	42	104	0	72	21720
2026-01-06 01:09:34.05	325.26	26.28	-50.5	-66.0	3.8	1.49e+00	0	42	104	0	72	21670
2026-01-06 01:09:34.77	325.05	26.32	-50.5	-66.0	3.8	1.49e+00	0	42	104	0	72	21719
2026-01-06 01:09:36.06	324.68	26.40	-50.5	-66.1	3.8	1.49e+00	0	42	104	0	72	21790
2026-01-06 01:09:36.78	324.47	26.44	-50.5	-66.0	3.8	1.49e+00	0	42	104	0	72	21658
2026-01-06 01:09:38.07	324.10	26.51	-50.5	-66.0	3.8	1.49e+00	0	42	104	0	72	21738
2026-01-06 01:09:38.79	323.89	26.55	-50.5	-66.1	3.8	1.49e+00	0	42	104	0	72	21774
2026-01-06 01:09:40.08	323.51	26.62	-50.5	-66.0	3.8	1.49e+00	0	43	104	0	72	21694
2026-01-06 01:09:40.79	323.30	26.65	-50.5	-66.0	3.8	1.49e+00	0	42	104	0	72	21644
2026-01-06 01:09:42.08	322.92	26.72	-50.5	-66.0	3.8	1.49e+00	0	43	104	0	72	21725
2026-01-06 01:09:42.80	322.71	26.76	-50.5	-66.0	3.8	1.49e+00	0	42	104	0	72	21705
2026-01-06 01:09:44.09	322.33	26.82	-50.5	-66.1	3.8	1.49e+00	0	42	104	0	72	21789
2026-01-06 01:09:44.81	322.12	26.86	-50.5	-66.1	3.8	1.49e+00	0	42	104	0	72	21777
2026-01-06 01:09:46.10	321.73	26.92	-50.5	-66.0	3.8	1.49e+00	0	42	104	0	72	21753
2026-01-06 01:09:46.82	321.52	26.96	-50.5	-66.0	3.8	1.49e+00	0	42	104	0	72	21739
2026-01-06 01:09:48.11	321.13	27.02	-50.5	-66.1	3.8	1.49e+00	0	43	104	0	72	21814
2026-01-06 01:09:48.83	320.91	27.05	-50.5	-66.0	3.8	1.49e+00	0	42	104	0	72	21711
2026-01-06 01:09:50.12	320.53	27.11	-50.5	-66.1	3.8	1.49e+00	0	42	104	0	72	21828
2026-01-06 01:09:50.84	320.31	27.14	-50.5	-66.0	3.8	1.49e+00	0	42	104	0	72	21719
2026-01-06 01:09:52.13	319.92	27.20	-50.5	-66.1	3.8	1.49e+00	0	42	104	0	72	21784
2026-01-06 01:09:52.84	319.70	27.23	-50.5	-66.1	3.8	1.49e+00	0	42	104	0	72	21780
2026-01-06 01:09:54.14	319.30	27.29	-50.5	-66.1	3.8	1.49e+00	0	43	104	0	72	21797
2026-01-06 01:09:54.85	319.09	27.32	-50.5	-66.0	3.8	1.49e+00	0	42	104	0	72	21712
2026-01-06 01:09:56.14	318.69	27.37	-50.5	-66.1	3.8	1.49e+00	0	42	104	0	72	21762
2026-01-06 01:09:56.86	318.47	27.40	-50.5	-66.1	3.8	1.49e+00	0	42	104	0	72	21814
2026-01-06 01:09:58.15	318.07	27.45	-50.5	-66.0	3.8	1.49e+00	0	42	104	0	72	21739
2026-01-06 01:09:58.87	317.85	27.48	-50.5	-66.1	3.8	1.49e+00	0	42	104	0	72	21788
2026-01-06 01:10:00.16	317.45	27.52	-50.5	-66.0	3.8	1.49e+00	0	42	104	0	72	21722
2026-01-06 01:10:00.88	317.23	27.55	-50.5	-66.1	3.8	1.49e+00	0	42	104	0	72	21824
2026-01-06 01:10:02.17	316.83	27.60	-50.5	-66.1	3.8	1.49e+00	0	42	104	0	72	21808
2026-01-06 01:10:02.89	316.60	27.62	-50.5	-66.1	3.8	1.49e+00	0	42	104	0	72	21771
2026-01-06 01:10:04.18	316.20	27.67	-50.5	-66.1	3.8	1.49e+00	0	42	104	0	72	21760
2026-01-06 01:10:04.89	315.98	27.69	-50.5	-66.0	3.8	1.49e+00	0	42	104	0	72	21755
2026-01-06 01:10:06.19	315.57	27.73	-50.5	-66.1	3.8	1.49e+00	0	42	104	0	72	21813
2026-01-06 01:10:06.90	315.35	27.75	-50.5	-66.0	3.8	1.49e+00	0	42	104	0	72	21754
2026-01-06 01:10:08.19	314.94	27.79	-50.5	-66.1	3.8	1.49e+00	0	42	104	0	72	21803
2026-01-06 01:10:08.91	314.71	27.81	-50.5	-66.1	3.8	1.49e+00	0	42	104	0	72	21788
2026-01-06 01:10:10.20	314.31	27.85	-50.5	-66.0	3.8	1.49e+00	0	43	104	0	72	21702
2026-01-06 01:10:10.92	314.08	27.87	-50.5	-66.1	3.8	1.49e+00	0	42	104	0	72	21766
2026-01-06 01:10:12.21	313.67	27.90	-50.5	-66.1	3.8	1.49e+00	0	43	104	0	72	21805
2026-01-06 01:10:12.93	313.44	27.92	-50.5	-66.1	3.8	1.49e+00	0	43	104	0	72	21767
2026-01-06 01:10:14.22	313.03	27.95	-50.5	-66.1	3.8	1.49e+00	0	43	104	0	72	21808
2026-01-06 01:10:15.03	312.77	27.97	-50.5	-66.0	3.8	1.49e+00	0	43	104	0	72	21749
2026-01-06 01:10:16.18	312.41	28.00	-50.5	-66.1	3.8	1.49e+00	0	42	104	0	72	21783
2026-01-06 01:10:17.04	312.13	28.02	-50.5	-66.1	3.8	1.49e+00	0	42	104	0	72	21794
2026-01-06 01:10:18.19	311.76	28.04	-50.5	-66.1	3.8	1.49e+00	0	43	104	0	72	21818
2026-01-06 01:10:19.05	311.49	28.06	-50.5	-66.1	3.8	1.49e+00	0	42	104	0	72	21767
2026-01-06 01:10:20.19	311.12	28.08	-50.5	-66.1	3.8	1.49e+00	0	42	104	0	72	21784
2026-01-06 01:10:21.05	310.85	28.09	-50.5	-66.0	3.8	1.49e+00	0	42	104	0	72	21748
2026-01-06 01:10:22.20	310.48	28.11	-50.5	-66.1	3.8	1.49e+00	0	42	104	0	72	21801
2026-01-06 01:10:23.06	310.20	28.13	-50.5	-66.1	3.8	1.49e+00	0	42	104	0	72	21797
2026-01-06 01:10:24.21	309.83	28.14	-50.5	-66.1	3.8	1.49e+00	0	42	104	0	72	21866
2026-01-06 01:10:25.07	309.55	28.16	-50.5	-66.1	3.8	1.49e+00	0	42	104	0	72	21848
2026-01-06 01:10:26.22	309.18	28.17	-50.5	-66.1	3.8	1.49e+00	0	43	104	0	72	21786
2026-01-06 01:10:27.08	308.90	28.18	-50.5	-66.1	3.8	1.49e+00	0	43	104	0	72	21841
2026-01-06 01:10:28.22	308.53	28.19	-50.5	-66.1	3.8	1.49e+00	0	43	104	0	72	21811
2026-01-06 01:10:29.08	308.25	28.20	-50.5	-66.1	3.8	1.49e+00	0	43	104	0	72	21757
2026-01-06 01:10:30.23	307.88	28.21	-50.5	-66.1	3.8	1.49e+00	0	43	104	0	72	21936
2026-01-06 01:10:31.09	307.60	28.22	-50.5	-66.1	3.8	1.49e+00	0	43	104	0	72	21892
2026-01-06 01:10:32.24	307.23	28.23	-50.5	-66.1	3.8	1.49e+00	0	43	104	0	72	21881
2026-01-06 01:10:33.10	306.95	28.23	-50.5	-66.1	3.8	1.49e+00	0	43	104	0	72	21870
2026-01-06 01:10:34.25	306.58	28.24	-50.5	-66.1	3.8	1.49e+00	0	42	104	0	72	21851
2026-01-06 01:10:35.11	306.30	28.24	-50.5	-66.1	3.8	1.49e+00	0	42	104	0	72	21873
2026-01-06 01:10:36.26	305.93	28.24	-50.5	-66.0	3.8	1.49e+00	0	43	104	0	72	21751
2026-01-06 01:10:37.12	305.65	28.24	-50.5	-66.1	3.8	1.49e+00	0	42	104	0	72	21843
2026-01-06 01:10:38.36	305.25	28.24	-50.6	-66.1	3.8	1.49e+00	0	42	104	0	72	21819
2026-01-06 01:10:39.22	304.97	28.24	-50.5	-66.1	3.8	1.49e+00	0	42	104	0	72	21833
2026-01-06 01:10:40.47	304.56	28.24	-50.5	-66.1	3.8	1.49e+00	0	43	104	0	72	21798
2026-01-06 01:10:41.22	304.32	28.24	-50.5	-66.1	3.8	1.49e+00	0	43	104	0	72	21861
2026-01-06 01:10:42.68	303.84	28.23	-50.5	-66.1	3.8	1.49e+00	0	43	104	0	72	21876
2026-01-06 01:10:43.40	303.61	28.23	-50.6	-66.1	3.8	1.49e+00	0	43	104	0	72	21838
2026-01-06 01:10:44.76	303.17	28.22	-50.5	-66.1	3.8	1.49e+00	0	42	104	0	72	21869
2026-01-06 01:10:45.47	302.94	28.22	-50.6	-66.1	3.8	1.49e+00	0	43	104	0	72	21800
2026-01-06 01:10:46.83	302.50	28.20	-50.5	-66.1	3.8	1.49e+00	0	43	104	0	72	21886
2026-01-06 01:10:47.55	302.27	28.20	-50.5	-66.0	3.8	1.49e+00	0	43	104	0	72	21743
2026-01-06 01:10:48.89	301.83	28.18	-50.5	-66.1	3.8	1.49e+00	0	43	104	0	72	21898
2026-01-06 01:10:49.60	301.60	28.18	-50.5	-66.1	3.8	1.49e+00	0	43	104	0	72	21921
2026-01-06 01:10:50.89	301.19	28.16	-50.5	-66.1	3.8	1.49e+00	0	42	104	0	72	21881
2026-01-06 01:10:51.61	300.95	28.15	-50.5	-66.1	3.8	1.49e+00	0	42	104	0	72	21872
2026-01-06 01:10:52.90	300.54	28.13	-50.5	-66.1	3.8	1.49e+00	0	42	104	0	72	21785
2026-01-06 01:10:53.62	300.31	28.12	-50.5	-66.1	3.8	1.49e+00	0	43	104	0	72	21818
2026-01-06 01:10:54.91	299.89	28.10	-50.5	-66.1	3.8	1.49e+00	0	43	104	0	72	21849
2026-01-06 01:10:55.63	299.66	28.09	-50.5	-66.1	3.8	1.49e+00	0	43	104	0	72	21918
2026-01-06 01:10:56.92	299.24	28.06	-50.5	-66.1	3.8	1.49e+00	0	42	104	0	72	21878
2026-01-06 01:10:57.64	299.01	28.05	-50.6	-66.1	3.8	1.49e+00	0	42	104	0	72	21855
2026-01-06 01:10:58.93	298.60	28.02	-50.5	-66.1	3.8	1.49e+00	0	43	104	0	72	21777
2026-01-06 01:10:59.64	298.37	28.01	-50.5	-66.1	3.8	1.49e+00	0	42	104	0	72	21903
2026-01-06 01:11:00.94	297.96	27.98	-50.5	-66.1	3.8	1.49e+00	0	42	104	0	72	21855
2026-01-06 01:11:01.65	297.73	27.96	-50.5	-66.1	3.8	1.49e+00	0	42	104	0	72	21855
2026-01-06 01:11:02.94	297.32	27.93	-50.6	-66.1	3.8	1.49e+00	0	43	104	0	72	21790
2026-01-06 01:11:03.66	297.09	27.91	-50.5	-66.1	3.8	1.49e+00	0	42	104	0	72	21947
2026-01-06 01:11:04.95	296.68	27.88	-50.5	-66.1	3.8	1.49e+00	0	43	104	0	72	21839
2026-01-06 01:11:05.67	296.45	27.86	-50.5	-66.1	3.8	1.49e+00	0	42	104	0	72	21813
2026-01-06 01:11:06.96	296.04	27.83	-50.5	-66.1	3.8	1.49e+00	0	42	104	0	72	21887
2026-01-06 01:11:07.68	295.82	27.80	-50.5	-66.1	3.8	1.49e+00	0	42	104	0	72	21851
2026-01-06 01:11:08.97	295.41	27.77	-50.5	-66.1	3.8	1.49e+00	0	43	104	0	72	21831
2026-01-06 01:11:09.69	295.18	27.74	-50.5	-66.1	3.8	1.49e+00	0	42	104	0	72	21849
2026-01-06 01:11:10.98	294.78	27.70	-50.5	-66.1	3.8	1.49e+00	0	42	104	0	72	21843
2026-01-06 01:11:11.70	294.55	27.68	-50.5	-66.1	3.8	1.49e+00	0	42	104	0	72	21814
2026-01-06 01:11:12.99	294.15	27.64	-50.5	-66.1	3.8	1.49e+00	0	43	104	0	72	21796
2026-01-06 01:11:13.70	293.92	27.61	-50.5	-66.1	3.8	1.49e+00	0	42	104	0	72	21842
2026-01-06 01:11:15.00	293.52	27.57	-50.6	-66.1	3.8	1.49e+00	0	42	104	0	72	21841
2026-01-06 01:11:15.71	293.30	27.54	-50.5	-66.1	3.8	1.49e+00	0	43	104	0	72	21757
2026-01-06 01:11:17.00	292.90	27.49	-50.5	-66.1	3.8	1.49e+00	0	42	104	0	72	21844
2026-01-06 01:11:17.72	292.68	27.46	-50.6	-66.1	3.8	1.49e+00	0	42	104	0	72	21822
2026-01-06 01:11:19.01	292.28	27.41	-50.5	-66.1	3.8	1.49e+00	0	42	104	0	72	21813
2026-01-06 01:11:19.73	292.06	27.39	-50.5	-66.1	3.8	1.49e+00	0	43	104	0	72	21854
2026-01-06 01:11:21.02	291.66	27.33	-50.5	-66.1	3.8	1.49e+00	0	43	104	0	72	21802
2026-01-06 01:11:21.74	291.44	27.30	-50.5	-66.1	3.8	1.49e+00	0	43	104	0	72	21842
2026-01-06 01:11:23.03	291.04	27.25	-50.5	-66.1	3.8	1.49e+00	0	42	104	0	72	21867
2026-01-06 01:11:23.75	290.82	27.22	-50.5	-66.1	3.8	1.49e+00	0	43	104	0	72	21880
2026-01-06 01:11:25.04	290.43	27.16	-50.5	-66.1	3.8	1.49e+00	0	43	104	0	72	21773
2026-01-06 01:11:25.75	290.22	27.13	-50.5	-66.1	3.8	1.49e+00	0	42	104	0	72	21826
2026-01-06 01:11:27.04	289.83	27.07	-50.5	-66.1	3.8	1.49e+00	0	43	104	0	72	21896
2026-01-06 01:11:27.76	289.61	27.04	-50.5	-66.1	3.8	1.49e+00	0	43	104	0	72	21845
2026-01-06 01:11:29.05	289.22	26.98	-50.5	-66.1	3.8	1.49e+00	0	43	104	0	72	21816
2026-01-06 01:11:29.77	289.01	26.94	-50.6	-66.1	3.8	1.49e+00	0	42	104	0	72	21906
2026-01-06 01:11:31.06	288.62	26.88	-50.5	-66.1	3.8	1.49e+00	0	43	104	0	72	21826
2026-01-06 01:11:31.78	288.41	26.84	-50.6	-66.1	3.8	1.49e+00	0	43	104	0	72	21876
2026-01-06 01:11:33.07	288.02	26.78	-50.5	-66.1	3.8	1.49e+00	0	43	104	0	72	21868
2026-01-06 01:11:33.79	287.81	26.74	-50.5	-66.1	3.8	1.49e+00	0	43	104	0	72	21923
2026-01-06 01:11:35.08	287.43	26.67	-50.5	-66.1	3.8	1.49e+00	0	42	104	0	72	21829
2026-01-06 01:11:35.79	287.22	26.64	-50.6	-66.1	3.8	1.49e+00	0	43	104	0	72	21834
2026-01-06 01:11:37.08	286.84	26.57	-50.5	-66.1	3.8	1.49e+00	0	43	104	0	72	21887
2026-01-06 01:11:37.80	286.63	26.53	-50.6	-66.1	3.8	1.49e+00	0	42	104	0	72	21843
2026-01-06 01:11:39.09	286.26	26.46	-50.5	-66.1	3.8	1.49e+00	0	43	104	0	72	21974
2026-01-06 01:11:39.81	286.05	26.42	-50.5	-66.1	3.8	1.49e+00	0	43	104	0	72	21912
2026-01-06 01:11:41.10	285.68	26.35	-50.6	-66.1	3.8	1.49e+00	0	43	104	0	72	21798
2026-01-06 01:11:41.81	285.47	26.31	-50.6	-66.1	3.8	1.49e+00	0	43	104	0	72	21845
2026-01-06 01:11:43.11	285.10	26.23	-50.5	-66.1	3.8	1.49e+00	0	43	104	0	72	21835
2026-01-06 01:11:43.82	284.90	26.19	-50.6	-66.1	3.8	1.49e+00	0	42	104	0	72	21793
2026-01-06 01:11:45.12	284.53	26.11	-50.5	-66.1	3.8	1.49e+00	0	43	104	0	72	21891
2026-01-06 01:11:45.83	284.32	26.07	-50.5	-66.1	3.8	1.49e+00	0	43	104	0	72	21900
2026-01-06 01:11:47.12	283.96	25.99	-50.5	-66.1	3.8	1.49e+00	0	43	104	0	72	21932
2026-01-06 01:11:47.84	283.76	25.95	-50.5	-66.1	3.8	1.49e+00	0	43	104	0	72	21803
2026-01-06 01:11:49.13	283.40	25.87	-50.5	-66.1	3.8	1.49e+00	0	43	104	0	72	21884
2026-01-06 01:11:49.85	283.19	25.83	-50.5	-66.1	3.8	1.49e+00	0	43	104	0	72	21871
2026-01-06 01:11:51.14	282.84	25.74	-50.5	-66.1	3.8	1.49e+00	0	43	104	0	72	21873
2026-01-06 01:11:51.86	282.64	25.70	-50.5	-66.1	3.8	1.49e+00	0	43	104	0	72	21856
2026-01-06 01:11:53.15	282.28	25.62	-50.5	-66.1	3.8	1.49e+00	0	43	104	0	72	21926
2026-01-06 01:11:53.87	282.08	25.57	-50.5	-66.1	3.8	1.49e+00	0	43	104	0	72	21853
2026-01-06 01:11:55.16	281.73	25.49	-50.5	-66.1	3.8	1.49e+00	0	43	104	0	72	21838
2026-01-06 01:11:56.28	281.42	25.41	-50.5	-66.1	3.8	1.49e+00	0	42	104	0	72	21869
2026-01-06 01:11:57.44	281.11	25.34	-50.5	-66.1	3.8	1.49e+00	0	43	104	0	72	21883
2026-01-06 01:11:58.46	280.83	25.27	-50.5	-66.1	3.8	1.49e+00	0	43	104	0	72	21918
2026-01-06 01:11:59.62	280.52	25.19	-50.6	-66.1	3.8	1.49e+00	0	42	104	0	72	21888
2026-01-06 01:12:00.50	280.29	25.13	-50.5	-66.1	3.8	1.49e+00	0	42	104	0	72	21794
2026-01-06 01:12:01.65	279.98	25.05	-50.5	-66.1	3.8	1.49e+00	0	43	104	0	72	21887
2026-01-06 01:12:02.51	279.75	24.99	-50.5	-66.1	3.8	1.49e+00	0	42	104	0	72	21868
2026-01-06 01:12:03.66	279.45	24.91	-50.5	-66.1	3.8	1.49e+00	0	42	104	0	72	21887
2026-01-06 01:12:04.52	279.22	24.85	-50.5	-66.1	3.8	1.49e+00	0	43	104	0	72	21872
2026-01-06 01:12:05.66	278.92	24.77	-50.5	-66.1	3.8	1.49e+00	0	43	104	0	72	21811
2026-01-06 01:12:06.53	278.70	24.71	-50.5	-66.1	3.8	1.49e+00	0	43	104	0	72	21840
2026-01-06 01:12:07.67	278.40	24.63	-50.5	-66.1	3.8	1.49e+00	0	43	104	0	72	21895
2026-01-06 01:12:08.53	278.18	24.57	-50.6	-66.1	3.8	1.49e+00	0	43	104	0	72	21857
2026-01-06 01:12:09.68	277.88	24.49	-50.5	-66.1	3.8	1.49e+00	0	43	104	0	72	21885
2026-01-06 01:12:10.54	277.66	24.42	-50.6	-66.1	3.8	1.49e+00	0	43	104	0	72	21919
2026-01-06 01:12:11.69	277.37	24.34	-50.6	-66.1	3.8	1.49e+00	0	43	104	0	72	21933
2026-01-06 01:12:12.55	277.15	24.28	-50.6	-66.1	3.8	1.49e+00	0	43	104	0	72	21913
2026-01-06 01:12:13.70	276.86	24.19	-50.6	-66.1	3.8	1.49e+00	0	43	104	0	72	21798
2026-01-06 01:12:14.56	276.65	24.13	-50.6	-66.1	3.8	1.49e+00	0	43	104	0	72	21877
2026-01-06 01:12:15.70	276.36	24.04	-50.5	-66.1	3.8	1.49e+00	0	42	104	0	72	21891
2026-01-06 01:12:16.56	276.15	23.98	-50.6	-66.1	3.8	1.49e+00	0	43	104	0	72	21866
2026-01-06 01:12:17.71	275.87	23.89	-50.5	-66.1	3.8	1.49e+00	0	43	104	0	72	21887
2026-01-06 01:12:18.57	275.65	23.83	-50.6	-66.1	3.8	1.49e+00	0	43	104	0	72	21804
2026-01-06 01:12:19.72	275.37	23.74	-50.6	-66.1	3.8	1.49e+00	0	43	104	0	72	21859
2026-01-06 01:12:20.58	275.16	23.67	-50.6	-66.1	3.8	1.49e+00	0	43	104	0	72	21872
2026-01-06 01:12:21.73	274.88	23.59	-50.5	-66.1	3.8	1.49e+00	0	43	104	0	72	21889
2026-01-06 01:12:22.59	274.68	23.52	-50.6	-66.1	3.8	1.49e+00	0	43	104	0	72	21870
2026-01-06 01:12:23.74	274.40	23.43	-50.6	-66.1	3.8	1.49e+00	0	43	104	0	72	21908
2026-01-06 01:12:24.60	274.19	23.36	-50.6	-66.1	3.8	1.49e+00	0	43	104	0	72	21874
2026-01-06 01:12:25.75	273.92	23.28	-50.5	-66.1	3.8	1.49e+00	0	43	104	0	72	21999
2026-01-06 01:12:26.61	273.72	23.21	-50.6	-66.1	3.8	1.49e+00	0	43	104	0	72	21849
2026-01-06 01:12:27.75	273.45	23.12	-50.5	-66.1	3.8	1.49e+00	0	42	104	0	72	21870
2026-01-06 01:12:28.61	273.25	23.05	-50.5	-66.1	3.8	1.49e+00	0	43	104	0	72	21769
2026-01-06 01:12:29.76	272.98	22.96	-50.5	-66.1	3.8	1.49e+00	0	43	104	0	72	21883
2026-01-06 01:12:30.62	272.78	22.89	-50.6	-66.1	3.8	1.49e+00	0	43	104	0	72	21875
2026-01-06 01:12:31.77	272.51	22.80	-50.5	-66.1	3.8	1.49e+00	0	43	104	0	72	21843
2026-01-06 01:12:32.63	272.32	22.73	-50.5	-66.1	3.8	1.49e+00	0	43	104	0	72	21905
2026-01-06 01:12:33.78	272.05	22.64	-50.5	-66.1	3.8	1.49e+00	0	42	104	0	72	21891
2026-01-06 01:12:34.64	271.86	22.57	-50.5	-66.1	3.8	1.49e+00	0	43	104	0	72	21838
2026-01-06 01:12:35.78	271.60	22.48	-50.5	-66.1	3.8	1.49e+00	0	43	104	0	72	21796
2026-01-06 01:12:36.65	271.41	22.41	-50.5	-66.1	3.8	1.49e+00	0	43	104	0	72	21831
2026-01-06 01:12:37.79	271.15	22.32	-50.5	-66.1	3.8	1.49e+00	0	42	104	0	72	21853
2026-01-06 01:12:38.65	270.96	22.25	-50.5	-66.1	3.8	1.49e+00	0	42	104	0	72	21805
2026-01-06 01:12:39.80	270.70	22.15	-50.5	-66.0	3.8	1.49e+00	0	43	104	0	72	21755
2026-01-06 01:12:40.66	270.52	22.08	-50.5	-66.1	3.8	1.49e+00	0	43	104	0	72	21812
2026-01-06 01:12:41.81	270.26	21.99	-50.5	-66.1	3.8	1.49e+00	0	43	104	0	72	21826
2026-01-06 01:12:42.67	270.08	21.92	-50.5	-66.1	3.8	1.49e+00	0	43	104	0	72	21863
2026-01-06 01:12:43.82	269.83	21.82	-50.5	-66.0	3.8	1.49e+00	0	42	104	0	72	21750
2026-01-06 01:12:44.68	269.64	21.75	-50.5	-66.1	3.8	1.49e+00	0	43	104	0	72	21809
2026-01-06 01:12:45.83	269.40	21.66	-50.5	-66.1	3.8	1.49e+00	0	43	104	0	72	21786
2026-01-06 01:12:46.69	269.21	21.59	-50.5	-66.1	3.8	1.49e+00	0	43	104	0	72	21794
2026-01-06 01:12:47.84	268.97	21.49	-50.5	-66.1	3.8	1.49e+00	0	43	104	0	72	21795
2026-01-06 01:12:48.70	268.79	21.42	-50.5	-66.1	3.8	1.49e+00	0	42	104	0	72	21828
2026-01-06 01:12:49.85	268.55	21.33	-50.5	-66.1	3.8	1.49e+00	0	42	104	0	72	21797
2026-01-06 01:12:50.71	268.37	21.25	-50.5	-66.1	3.8	1.49e+00	0	43	104	0	72	21818
2026-01-06 01:12:51.85	268.13	21.16	-50.5	-66.1	3.8	1.49e+00	0	43	104	0	72	21880
2026-01-06 01:12:52.72	267.95	21.09	-50.5	-66.1	3.8	1.49e+00	0	43	104	0	72	21831
2026-01-06 01:12:53.86	267.72	20.99	-50.5	-66.0	3.8	1.49e+00	0	42	104	0	72	21752
2026-01-06 01:12:54.72	267.54	20.92	-50.5	-66.1	3.8	1.49e+00	0	42	104	0	72	21807
2026-01-06 01:12:55.87	267.31	20.82	-50.5	-66.1	3.8	1.49e+00	0	43	104	0	72	21831
2026-01-06 01:12:56.73	267.13	20.75	-50.5	-66.1	3.8	1.49e+00	0	43	104	0	72	21772
2026-01-06 01:12:57.88	266.90	20.65	-50.5	-66.1	3.8	1.49e+00	0	43	104	0	72	21806
2026-01-06 01:12:58.74	266.73	20.58	-50.5	-66.1	3.8	1.49e+00	0	43	104	0	72	21908
2026-01-06 01:12:59.88	266.51	20.49	-50.5	-66.1	3.8	1.49e+00	0	43	104	0	72	21832
2026-01-06 01:13:00.75	266.33	20.41	-50.5	-66.1	3.8	1.49e+00	0	43	104	0	72	21773
2026-01-06 01:13:01.89	266.11	20.32	-50.5	-66.1	3.8	1.49e+00	0	43	104	0	72	21776
2026-01-06 01:13:02.75	265.94	20.24	-50.5	-66.1	3.8	1.49e+00	0	43	104	0	72	21861
2026-01-06 01:13:03.90	265.72	20.15	-50.5	-66.1	3.8	1.49e+00	0	43	104	0	72	21822
2026-01-06 01:13:04.76	265.55	20.07	-50.5	-66.1	3.8	1.49e+00	0	43	104	0	72	21838
2026-01-06 01:13:05.91	265.33	19.98	-50.5	-66.1	3.8	1.49e+00	0	43	104	0	72	21854
2026-01-06 01:13:06.77	265.17	19.90	-50.5	-66.1	3.8	1.49e+00	0	43	104	0	72	21766
2026-01-06 01:13:07.92	264.95	19.81	-50.5	-66.1	3.8	1.49e+00	0	43	104	0	72	21835
2026-01-06 01:13:08.78	264.79	19.73	-50.5	-66.1	3.8	1.49e+00	0	43	104	0	72	21788
2026-01-06 01:13:09.93	264.57	19.64	-50.5	-66.1	3.8	1.49e+00	0	43	104	0	72	21757
2026-01-06 01:13:10.79	264.41	19.56	-50.5	-66.1	3.8	1.49e+00	0	43	104	0	72	21826
2026-01-06 01:13:11.94	264.20	19.47	-50.5	-66.1	3.8	1.49e+00	0	43	104	0	72	21781
2026-01-06 01:13:12.80	264.04	19.39	-50.5	-66.1	3.8	1.49e+00	0	43	104	0	72	21794
2026-01-06 01:13:13.94	263.83	19.30	-50.5	-66.1	3.8	1.49e+00	0	43	104	0	72	21865
2026-01-06 01:13:14.80	263.67	19.22	-50.5	-66.1	3.8	1.49e+00	0	43	104	0	72	21784
2026-01-06 01:13:15.95	263.46	19.13	-50.5	-66.1	3.8	1.49e+00	0	43	104	0	72	21831
2026-01-06 01:13:16.81	263.31	19.05	-50.5	-66.1	3.8	1.49e+00	0	43	104	0	72	21808
2026-01-06 01:13:17.96	263.10	18.96	-50.5	-66.1	3.8	1.49e+00	0	43	104	0	72	21794
2026-01-06 01:13:18.82	262.95	18.88	-50.5	-66.1	3.8	1.49e+00	0	43	104	0	72	21879
2026-01-06 01:13:19.97	262.74	18.79	-50.5	-66.1	3.8	1.49e+00	0	43	104	0	72	21838
2026-01-06 01:13:20.83	262.59	18.71	-50.5	-66.1	3.8	1.49e+00	0	42	104	0	72	21800
2026-01-06 01:13:21.98	262.39	18.62	-50.5	-66.1	3.8	1.49e+00	0	43	104	0	72	21836
2026-01-06 01:13:22.84	262.24	18.54	-50.5	-66.1	3.8	1.49e+00	0	43	104	0	72	21848
2026-01-06 01:13:23.99	262.04	18.45	-50.5	-66.1	3.8	1.49e+00	0	42	104	0	72	21806
2026-01-06 01:13:24.85	261.89	18.37	-50.5	-66.1	3.8	1.49e+00	0	43	104	0	72	21910
2026-01-06 01:13:25.99	261.70	18.28	-50.5	-66.1	3.8	1.49e+00	0	43	104	0	72	21792
2026-01-06 01:13:26.85	261.55	18.20	-50.5	-66.1	3.8	1.49e+00	0	43	104	0	72	21796
2026-01-06 01:13:28.00	261.35	18.11	-50.5	-66.1	3.8	1.49e+00	0	43	104	0	72	21770
2026-01-06 01:13:28.86	261.21	18.03	-50.5	-66.1	3.8	1.49e+00	0	43	104	0	72	21859
2026-01-06 01:13:30.01	261.02	17.94	-50.5	-66.1	3.8	1.49e+00	0	43	104	0	72	21803
2026-01-06 01:13:30.87	260.87	17.86	-50.5	-66.1	3.8	1.49e+00	0	43	104	0	72	21835
2026-01-06 01:13:32.02	260.68	17.77	-50.5	-66.1	3.8	1.49e+00	0	43	104	0	72	21850
2026-01-06 01:13:32.88	260.54	17.69	-50.5	-66.0	3.8	1.49e+00	0	43	104	0	72	21747
2026-01-06 01:13:34.03	260.35	17.60	-50.5	-66.1	3.8	1.49e+00	0	43	104	0	72	21831
2026-01-06 01:13:34.89	260.21	17.52	-50.5	-66.1	3.8	1.49e+00	0	43	104	0	72	21793
2026-01-06 01:13:36.04	260.03	17.43	-50.5	-66.1	3.8	1.49e+00	0	43	104	0	72	21835
2026-01-06 01:13:36.90	259.89	17.35	-50.5	-66.1	3.8	1.49e+00	0	43	104	0	72	21789
2026-01-06 01:13:38.05	259.70	17.26	-50.5	-66.1	3.8	1.49e+00	0	43	104	0	72	21849
2026-01-06 01:13:38.91	259.57	17.18	-50.5	-66.1	3.8	1.49e+00	0	43	104	0	72	21857
2026-01-06 01:13:40.06	259.38	17.09	-50.5	-66.1	3.8	1.49e+00	0	43	104	0	72	21887
2026-01-06 01:13:40.92	259.25	17.02	-50.5	-66.1	3.8	1.49e+00	0	43	104	0	72	21763
2026-01-06 01:13:42.06	259.07	16.92	-50.5	-66.1	3.8	1.49e+00	0	43	104	0	72	21867
2026-01-06 01:13:42.92	258.94	16.85	-50.5	-66.1	3.8	1.49e+00	0	43	104	0	72	21890
2026-01-06 01:13:44.15	258.74	16.74	-50.6	-66.1	3.8	1.49e+00	0	43	104	0	72	21906
2026-01-06 01:13:45.01	258.61	16.67	-50.5	-66.1	3.8	1.49e+00	0	43	104	0	72	21785
2026-01-06 01:13:46.16	258.44	16.58	-50.5	-66.1	3.8	1.49e+00	0	43	104	0	72	21875
2026-01-06 01:13:47.02	258.30	16.50	-50.5	-66.1	3.8	1.49e+00	0	43	104	0	72	21896
2026-01-06 01:13:48.17	258.13	16.41	-50.5	-66.1	3.8	1.49e+00	0	43	104	0	72	21792
2026-01-06 01:13:49.03	258.00	16.34	-50.5	-66.1	3.8	1.49e+00	0	43	104	0	72	21916
2026-01-06 01:13:50.18	257.83	16.24	-50.6	-66.1	3.8	1.49e+00	0	43	104	0	72	21820
2026-01-06 01:13:51.04	257.70	16.17	-50.5	-66.1	3.8	1.49e+00	0	43	104	0	72	21924
2026-01-06 01:13:52.19	257.53	16.07	-50.5	-66.1	3.8	1.49e+00	0	43	104	0	72	21843
2026-01-06 01:13:53.05	257.40	16.00	-50.5	-66.1	3.8	1.49e+00	0	43	104	0	72	21856
2026-01-06 01:13:54.20	257.24	15.91	-50.5	-66.1	3.8	1.49e+00	0	43	104	0	72	21928
2026-01-06 01:13:55.06	257.11	15.83	-50.5	-66.1	3.8	1.49e+00	0	43	104	0	72	21815
2026-01-06 01:13:56.21	256.94	15.74	-50.5	-66.1	3.8	1.49e+00	0	43	104	0	72	21783
2026-01-06 01:13:57.07	256.82	15.67	-50.5	-66.1	3.8	1.49e+00	0	43	104	0	72	21834
2026-01-06 01:13:58.22	256.66	15.57	-50.5	-66.1	3.8	1.49e+00	0	43	104	0	72	21905
2026-01-06 01:13:59.08	256.53	15.50	-50.6	-66.1	3.8	1.49e+00	0	43	104	0	72	21857
2026-01-06 01:14:00.22	256.37	15.41	-50.5	-66.1	3.8	1.49e+00	0	43	104	0	72	21844
2026-01-06 01:14:01.09	256.25	15.34	-50.5	-66.0	3.8	1.49e+00	0	43	104	0	72	21735
2026-01-06 01:14:02.23	256.09	15.24	-50.5	-66.1	3.8	1.49e+00	0	43	104	0	72	21824
2026-01-06 01:14:03.09	255.97	15.17	-50.5	-66.1	3.8	1.49e+00	0	43	104	0	72	21887
2026-01-06 01:14:04.24	255.81	15.08	-50.5	-66.1	3.8	1.49e+00	0	43	104	0	72	21903
2026-01-06 01:14:05.10	255.69	15.01	-50.5	-66.1	3.8	1.49e+00	0	43	104	0	72	21843
2026-01-06 01:14:06.25	255.54	14.91	-50.5	-66.1	3.8	1.49e+00	0	43	104	0	72	21812
2026-01-06 01:14:07.11	255.42	14.84	-50.5	-66.1	3.8	1.49e+00	0	43	104	0	72	21777
2026-01-06 01:14:08.26	255.26	14.75	-50.5	-66.1	3.8	1.49e+00	0	43	104	0	72	21877
2026-01-06 01:14:09.12	255.15	14.68	-50.5	-66.1	3.8	1.49e+00	0	43	104	0	72	21825
2026-01-06 01:14:10.27	254.99	14.59	-50.5	-66.1	3.8	1.49e+00	0	43	104	0	72	21827
2026-01-06 01:14:11.13	254.88	14.52	-50.5	-66.0	3.8	1.49e+00	0	43	104	0	72	21720
2026-01-06 01:14:12.28	254.73	14.42	-50.5	-66.1	3.8	1.49e+00	0	43	104	0	72	21813
2026-01-06 01:14:13.14	254.61	14.35	-50.5	-66.1	3.8	1.49e+00	0	43	104	0	72	21811
2026-01-06 01:14:14.29	254.46	14.26	-50.5	-66.1	3.8	1.49e+00	0	43	104	0	72	21832
2026-01-06 01:14:15.14	254.35	14.19	-50.5	-66.1	3.8	1.49e+00	0	43	104	0	72	21828
2026-01-06 01:14:16.29	254.20	14.10	-50.5	-66.0	3.8	1.49e+00	0	43	104	0	72	21741
2026-01-06 01:14:17.15	254.09	14.03	-50.5	-66.1	3.8	1.49e+00	0	43	104	0	72	21801
2026-01-06 01:14:18.30	253.95	13.94	-50.5	-66.1	3.8	1.49e+00	0	43	104	0	72	21811
2026-01-06 01:14:19.16	253.84	13.87	-50.5	-66.1	3.8	1.49e+00	0	43	104	0	72	21813
2026-01-06 01:14:20.31	253.69	13.78	-50.5	-66.1	3.8	1.49e+00	0	43	104	0	72	21851
2026-01-06 01:14:21.17	253.58	13.71	-50.5	-66.1	3.8	1.49e+00	0	43	104	0	72	21799
2026-01-06 01:14:22.32	253.44	13.62	-50.5	-66.1	3.8	1.49e+00	0	43	104	0	72	21879
2026-01-06 01:14:23.18	253.33	13.55	-50.5	-66.1	3.8	1.49e+00	0	43	104	0	72	21910
2026-01-06 01:14:24.32	253.19	13.46	-50.5	-66.1	3.8	1.49e+00	0	43	104	0	72	21890
2026-01-06 01:14:25.19	253.08	13.39	-50.5	-66.0	3.8	1.49e+00	0	43	104	0	72	21741
2026-01-06 01:14:26.33	252.94	13.30	-50.5	-66.1	3.8	1.49e+00	0	43	104	0	72	21786
2026-01-06 01:14:27.19	252.84	13.23	-50.5	-66.1	3.8	1.49e+00	0	43	104	0	72	21876
2026-01-06 01:14:28.34	252.70	13.14	-50.5	-66.1	3.8	1.49e+00	0	43	104	0	72	21836
2026-01-06 01:14:29.20	252.60	13.07	-50.5	-66.1	3.8	1.49e+00	0	43	104	0	72	21800
2026-01-06 01:14:30.43	252.45	12.97	-50.5	-66.1	3.8	1.49e+00	0	43	104	0	72	21869
2026-01-06 01:14:31.29	252.35	12.91	-50.5	-66.0	3.8	1.49e+00	0	43	104	0	72	21735
2026-01-06 01:14:32.49	252.20	12.81	-50.5	-66.1	3.8	1.49e+00	0	43	104	0	72	21780
2026-01-06 01:14:33.35	252.10	12.74	-50.5	-66.1	3.8	1.49e+00	0	43	104	0	72	21903
2026-01-06 01:14:34.58	251.96	12.65	-50.5	-66.1	3.8	1.49e+00	0	43	104	0	72	21825
2026-01-06 01:14:35.44	251.86	12.58	-50.5	-66.0	3.8	1.49e+00	0	43	104	0	72	21733
2026-01-06 01:14:36.65	251.72	12.49	-50.5	-66.1	3.8	1.49e+00	0	43	104	0	72	21793
2026-01-06 01:14:37.51	251.62	12.42	-50.5	-66.1	3.8	1.49e+00	0	43	104	0	72	21804
2026-01-06 01:14:38.72	251.48	12.32	-50.5	-66.0	3.8	1.49e+00	0	43	104	0	72	21747
2026-01-06 01:14:39.58	251.38	12.26	-50.5	-66.1	3.8	1.49e+00	0	43	104	0	72	21843
2026-01-06 01:14:40.73	251.25	12.17	-50.5	-66.0	3.8	1.49e+00	0	43	104	0	72	21721
2026-01-06 01:14:41.59	251.16	12.10	-50.5	-66.1	3.8	1.49e+00	0	43	104	0	72	21855
2026-01-06 01:14:42.74	251.03	12.01	-50.5	-66.1	3.8	1.49e+00	0	43	104	0	72	21870
2026-01-06 01:14:43.60	250.93	11.95	-50.5	-66.1	3.8	1.49e+00	0	43	104	0	72	21811
2026-01-06 01:14:44.75	250.80	11.86	-50.5	-66.1	3.8	1.49e+00	0	43	104	0	72	21840
2026-01-06 01:14:45.61	250.71	11.79	-50.5	-66.1	3.8	1.49e+00	0	43	104	0	72	21823
2026-01-06 01:14:46.75	250.58	11.71	-50.5	-66.1	3.8	1.49e+00	0	43	104	0	72	21829
2026-01-06 01:14:47.61	250.49	11.64	-50.5	-66.1	3.8	1.49e+00	0	43	104	0	72	21842
2026-01-06 01:14:48.76	250.36	11.55	-50.5	-66.1	3.8	1.49e+00	0	43	104	0	72	21839
2026-01-06 01:14:49.62	250.27	11.49	-50.5	-66.1	3.8	1.49e+00	0	43	104	0	72	21855
2026-01-06 01:14:50.77	250.15	11.40	-50.5	-66.1	3.8	1.49e+00	0	43	104	0	72	21829
2026-01-06 01:14:51.63	250.06	11.33	-50.5	-66.1	3.8	1.49e+00	0	43	104	0	72	21813
2026-01-06 01:14:52.78	249.93	11.25	-50.5	-66.1	3.8	1.49e+00	0	43	104	0	72	21832
2026-01-06 01:14:53.64	249.84	11.18	-50.5	-66.0	3.8	1.49e+00	0	43	104	0	72	21738
2026-01-06 01:14:54.78	249.72	11.09	-50.5	-66.1	3.8	1.49e+00	0	43	104	0	72	21880
2026-01-06 01:14:55.64	249.63	11.03	-50.5	-66.1	3.8	1.49e+00	0	43	104	0	72	21826
2026-01-06 01:14:56.79	249.51	10.94	-50.5	-66.1	3.8	1.49e+00	0	43	104	0	72	21787
2026-01-06 01:14:57.65	249.42	10.88	-50.5	-66.1	3.8	1.49e+00	0	43	104	0	72	21808
2026-01-06 01:14:58.80	249.31	10.79	-50.5	-66.1	3.8	1.49e+00	0	43	104	0	72	21819
2026-01-06 01:14:59.66	249.22	10.73	-50.5	-66.0	3.8	1.49e+00	0	43	104	0	72	21730
2026-01-06 01:15:00.81	249.10	10.64	-50.5	-66.1	3.8	1.49e+00	0	43	104	0	72	21871
2026-01-06 01:15:01.67	249.01	10.58	-50.5	-66.1	3.8	1.49e+00	0	43	104	0	72	21834
2026-01-06 01:15:02.82	248.90	10.49	-50.5	-66.1	3.8	1.49e+00	0	43	104	0	72	21771
2026-01-06 01:15:03.68	248.81	10.43	-50.5	-66.1	3.8	1.49e+00	0	43	104	0	72	21797
2026-01-06 01:15:04.83	248.70	10.34	-50.5	-66.1	3.8	1.49e+00	0	43	104	0	72	21797
2026-01-06 01:15:05.69	248.61	10.28	-50.5	-66.1	3.8	1.49e+00	0	43	104	0	72	21815
2026-01-06 01:15:06.83	248.50	10.20	-50.5	-66.1	3.8	1.49e+00	0	43	104	0	72	21793
2026-01-06 01:15:07.69	248.41	10.13	-50.5	-66.1	3.8	1.49e+00	0	43	104	0	72	21802
2026-01-06 01:15:08.84	248.30	10.05	-50.5	-66.1	3.8	1.49e+00	0	43	104	0	72	21853
2026-01-06 01:15:09.70	248.22	9.98	-50.5	-66.0	3.8	1.49e+00	0	43	104	0	72	21744
2026-01-06 01:15:10.85	248.11	9.90	-50.5	-66.1	3.8	1.49e+00	0	43	104	0	72	21821
2026-01-06 01:15:11.71	248.02	9.84	-50.5	-66.1	3.8	1.49e+00	0	43	104	0	72	21805
2026-01-06 01:15:12.86	247.91	9.75	-50.5	-66.0	3.8	1.49e+00	0	43	104	0	72	21690
2026-01-06 01:15:13.72	247.83	9.69	-50.5	-66.1	3.8	1.49e+00	0	43	104	0	72	21809
2026-01-06 01:15:14.87	247.72	9.61	-50.5	-66.1	3.8	1.49e+00	0	43	104	0	72	21827
2026-01-06 01:15:15.73	247.64	9.54	-50.5	-66.1	3.8	1.49e+00	0	43	104	0	72	21820
2026-01-06 01:15:16.87	247.53	9.46	-50.5	-66.0	3.8	1.49e+00	0	43	104	0	72	21742
2026-01-06 01:15:17.73	247.45	9.40	-50.5	-66.1	3.8	1.49e+00	0	43	104	0	72	21806
2026-01-06 01:15:18.88	247.35	9.32	-50.5	-66.1	3.8	1.49e+00	0	43	104	0	72	21769
2026-01-06 01:15:19.74	247.27	9.25	-50.5	-66.1	3.8	1.49e+00	0	43	104	0	72	21834
2026-01-06 01:15:20.89	247.16	9.17	-50.5	-66.1	3.8	1.49e+00	0	43	104	0	72	21907
2026-01-06 01:15:21.75	247.08	9.11	-50.5	-66.1	3.8	1.49e+00	0	43	104	0	72	21805
2026-01-06 01:15:22.90	246.98	9.03	-50.5	-66.1	3.8	1.49e+00	0	43	104	0	72	21817
2026-01-06 01:15:23.76	246.90	8.97	-50.5	-66.1	3.8	1.49e+00	0	43	104	0	72	21817
2026-01-06 01:15:24.91	246.80	8.88	-50.5	-66.1	3.8	1.49e+00	0	43	104	0	72	21837
2026-01-06 01:15:25.77	246.72	8.82	-50.5	-66.1	3.8	1.49e+00	0	43	104	0	72	21767
2026-01-06 01:15:26.92	246.62	8.74	-50.5	-66.1	3.8	1.49e+00	0	43	104	0	72	21864
2026-01-06 01:15:27.78	246.54	8.68	-50.5	-66.1	3.8	1.49e+00	0	43	104	0	72	21801
2026-01-06 01:15:28.93	246.44	8.60	-50.5	-66.1	3.8	1.49e+00	0	43	104	0	72	21880
2026-01-06 01:15:29.79	246.36	8.54	-50.5	-66.1	3.8	1.49e+00	0	43	104	0	72	21816
2026-01-06 01:15:30.94	246.26	8.46	-50.5	-66.1	3.8	1.49e+00	0	43	104	0	72	21788
2026-01-06 01:15:31.80	246.19	8.40	-50.5	-66.1	3.8	1.49e+00	0	43	104	0	72	21762
2026-01-06 01:15:32.94	246.09	8.32	-50.5	-66.1	3.8	1.49e+00	0	43	104	0	72	21892
2026-01-06 01:15:33.81	246.02	8.25	-50.5	-66.1	3.8	1.49e+00	0	43	104	0	72	21867
2026-01-06 01:15:34.95	245.92	8.17	-50.5	-66.1	3.8	1.49e+00	0	43	104	0	72	21868
2026-01-06 01:15:35.81	245.84	8.11	-50.5	-66.1	3.8	1.49e+00	0	43	104	0	72	21784
2026-01-06 01:15:36.96	245.75	8.03	-50.5	-66.1	3.8	1.49e+00	0	43	104	0	72	21859
2026-01-06 01:15:37.82	245.67	7.97	-50.5	-66.1	3.8	1.49e+00	0	43	104	0	72	21762
2026-01-06 01:15:38.97	245.58	7.89	-50.5	-66.1	3.8	1.49e+00	0	43	104	0	72	21778
2026-01-06 01:15:39.83	245.51	7.83	-50.5	-66.1	3.8	1.49e+00	0	43	104	0	72	21773
2026-01-06 01:15:40.98	245.41	7.76	-50.5	-66.1	3.8	1.49e+00	0	43	104	0	72	21779
2026-01-06 01:15:41.84	245.34	7.70	-50.5	-66.1	3.8	1.49e+00	0	43	104	0	72	21823
2026-01-06 01:15:42.99	245.24	7.62	-50.5	-66.1	3.8	1.49e+00	0	42	104	0	72	21830
2026-01-06 01:15:43.85	245.17	7.56	-50.5	-66.1	3.8	1.49e+00	0	43	104	0	72	21774
2026-01-06 01:15:45.00	245.08	7.48	-50.5	-66.1	3.8	1.49e+00	0	43	104	0	72	21894
2026-01-06 01:15:45.86	245.01	7.42	-50.5	-66.1	3.8	1.49e+00	0	43	104	0	72	21802
2026-01-06 01:15:47.01	244.92	7.34	-50.5	-66.1	3.8	1.49e+00	0	43	104	0	72	21761
2026-01-06 01:15:47.87	244.85	7.28	-50.5	-66.1	3.8	1.49e+00	0	43	104	0	72	21766
2026-01-06 01:15:49.01	244.76	7.20	-50.5	-66.1	3.8	1.49e+00	0	43	104	0	72	21779
2026-01-06 01:15:49.88	244.69	7.14	-50.5	-66.1	3.8	1.49e+00	0	43	104	0	72	21768
2026-01-06 01:15:51.02	244.60	7.07	-50.5	-66.1	3.8	1.49e+00	0	43	104	0	72	21763
2026-01-06 01:15:51.89	244.53	7.01	-50.5	-66.1	3.8	1.49e+00	0	43	104	0	72	21800
2026-01-06 01:15:53.03	244.44	6.93	-50.5	-66.1	3.8	1.49e+00	0	43	104	0	72	21824
2026-01-06 01:15:53.89	244.37	6.87	-50.5	-66.1	3.8	1.49e+00	0	43	104	0	72	21861
2026-01-06 01:15:55.04	244.28	6.80	-50.5	-66.1	3.8	1.49e+00	0	43	104	0	72	21819
2026-01-06 01:15:55.90	244.22	6.74	-50.5	-66.1	3.8	1.49e+00	0	43	104	0	72	21855
2026-01-06 01:15:57.05	244.13	6.66	-50.5	-66.1	3.8	1.49e+00	0	43	104	0	72	21890
2026-01-06 01:15:57.91	244.06	6.60	-50.5	-66.1	3.8	1.49e+00	0	43	104	0	72	21779
2026-01-06 01:15:59.06	243.97	6.53	-50.5	-66.1	3.8	1.49e+00	0	43	104	0	72	21818
2026-01-06 01:15:59.92	243.91	6.47	-50.5	-66.1	3.8	1.49e+00	0	43	104	0	72	21902
2026-01-06 01:16:01.07	243.82	6.39	-50.5	-66.1	3.8	1.49e+00	0	43	104	0	72	21815
2026-01-06 01:16:01.93	243.76	6.33	-50.5	-66.0	3.8	1.49e+00	0	43	104	0	72	21715
2026-01-06 01:16:03.08	243.67	6.26	-50.5	-66.1	3.8	1.49e+00	0	43	104	0	72	21836
2026-01-06 01:16:03.94	243.61	6.20	-50.5	-66.1	3.8	1.49e+00	0	43	104	0	72	21878
2026-01-06 01:16:05.08	243.52	6.13	-50.5	-66.1	3.8	1.49e+00	0	43	104	0	72	21773
2026-01-06 01:16:05.94	243.46	6.07	-50.5	-66.1	3.8	1.49e+00	0	43	104	0	72	21859
2026-01-06 01:16:07.09	243.37	5.99	-50.5	-66.1	3.8	1.49e+00	0	43	104	0	72	21840
2026-01-06 01:16:07.95	243.31	5.94	-50.5	-66.1	3.8	1.49e+00	0	43	104	0	72	21828
2026-01-06 01:16:09.10	243.23	5.86	-50.5	-66.0	3.8	1.49e+00	0	43	104	0	72	21738
2026-01-06 01:16:09.96	243.16	5.80	-50.5	-66.1	3.8	1.49e+00	0	43	104	0	72	21823
2026-01-06 01:16:11.11	243.08	5.73	-50.5	-66.0	3.8	1.49e+00	0	43	104	0	72	21734
2026-01-06 01:16:11.97	243.02	5.67	-50.5	-66.0	3.8	1.49e+00	0	43	104	0	72	21668
2026-01-06 01:16:13.12	242.94	5.60	-50.5	-66.1	3.8	1.49e+00	0	43	104	0	72	21774
2026-01-06 01:16:13.98	242.88	5.54	-50.5	-66.1	3.8	1.49e+00	0	43	104	0	72	21817
2026-01-06 01:16:15.13	242.80	5.47	-50.5	-66.1	3.8	1.49e+00	0	43	104	0	72	21785
2026-01-06 01:16:15.99	242.73	5.41	-50.5	-66.1	3.8	1.49e+00	0	43	104	0	72	21768
2026-01-06 01:16:17.14	242.65	5.34	-50.5	-66.1	3.8	1.49e+00	0	43	104	0	72	21796
2026-01-06 01:16:18.00	242.59	5.28	-50.5	-66.1	3.8	1.49e+00	0	43	104	0	72	21803
2026-01-06 01:16:19.14	242.51	5.21	-50.5	-66.1	3.8	1.49e+00	0	43	104	0	72	21785
2026-01-06 01:16:20.01	242.45	5.15	-50.5	-66.1	3.8	1.49e+00	0	43	104	0	72	21797
2026-01-06 01:16:21.15	242.38	5.08	-50.5	-66.1	3.8	1.49e+00	0	43	104	0	72	21852
2026-01-06 01:16:22.01	242.32	5.02	-50.5	-66.1	3.8	1.49e+00	0	43	104	0	72	21837
2026-01-06 01:16:23.16	242.24	4.95	-50.5	-66.1	3.8	1.49e+00	0	43	104	0	72	21837

#Closed at: 2026-01-06 01:16:24
#Recorded file [0 MB]: D:/Data/31040_260106_040453.dat