passes_logs/2026/01/06/T1/T1__20260106_103434_SUOMI_NPP_rec.log

#Pass ID: 20260106_103434_SUOMI NPP
#Satellite: SUOMI NPP
#Configuration: NPP
#almurnet v.1.7.20251203
#Start time: 2026-01-06 10:34:34

#Version: 2.0.20230620
#Station: T1
#Location: 37.570604 lon 55.790049 lat
#TLE: 1 37849U 11061A   26004.95404768  .00000136  00000+0  85334-4 0  9991
#TLE: 2 37849  98.7801 307.0898 0002575  80.6707 279.4760 14.19522289735281

#Time	Az	El	Level	Level2	SNR	BER	BlckErr	Temp	State	Recorded	gain1	gain2
2026-01-06 10:34:34.59	178.52	4.99	-52.6	-68.1	3.8	1.49e+00	0	37	0	0	77	20756
2026-01-06 10:34:35.59	178.55	5.06	-51.1	-67.3	3.8	1.49e+00	0	37	104	0	74	22479
2026-01-06 10:34:36.60	178.59	5.13	-51.1	-67.3	3.8	1.49e+00	0	37	104	0	74	22401
2026-01-06 10:34:37.60	178.62	5.20	-51.2	-67.2	3.8	1.49e+00	0	37	104	0	74	22091
2026-01-06 10:34:38.60	178.66	5.27	-51.2	-67.0	3.8	1.49e+00	0	37	104	0	74	21739
2026-01-06 10:34:39.61	178.69	5.34	-51.2	-67.0	3.8	1.49e+00	0	37	104	0	74	21620
2026-01-06 10:34:40.61	178.73	5.42	-51.1	-67.0	3.8	1.49e+00	0	37	104	0	74	21662
2026-01-06 10:34:41.62	178.76	5.49	-51.2	-67.0	3.8	1.49e+00	0	37	104	0	74	21603
2026-01-06 10:34:42.62	178.80	5.56	-51.1	-67.1	3.8	1.49e+00	0	37	104	0	74	21804
2026-01-06 10:34:43.63	178.83	5.63	-51.2	-67.1	3.8	1.49e+00	0	37	104	0	74	21872
2026-01-06 10:34:44.63	178.87	5.70	-51.2	-67.3	3.8	1.49e+00	0	37	104	0	74	22272
2026-01-06 10:34:45.64	178.90	5.78	-51.2	-67.3	3.8	1.49e+00	0	37	104	0	74	22330
2026-01-06 10:34:46.64	178.94	5.85	-51.1	-67.5	3.8	1.49e+00	0	37	104	0	74	22788
2026-01-06 10:34:47.64	178.97	5.92	-51.1	-67.5	3.8	1.49e+00	0	37	104	0	74	22785
2026-01-06 10:34:48.65	179.01	5.99	-51.1	-67.5	3.8	1.49e+00	0	37	104	0	74	22985
2026-01-06 10:34:49.65	179.04	6.07	-51.2	-67.6	3.8	1.49e+00	0	37	104	0	74	23063
2026-01-06 10:34:50.66	179.08	6.14	-51.2	-67.5	3.8	1.49e+00	0	37	104	0	74	22786
2026-01-06 10:34:51.66	179.12	6.21	-51.1	-67.3	3.8	1.49e+00	0	38	104	0	74	22519
2026-01-06 10:34:52.66	179.15	6.29	-51.1	-67.0	3.8	1.49e+00	0	38	104	0	74	21755
2026-01-06 10:34:53.67	179.19	6.36	-51.1	-66.7	3.8	1.49e+00	0	38	104	0	74	21012
2026-01-06 10:34:54.67	179.23	6.43	-51.1	-66.4	3.8	1.49e+00	0	38	104	0	74	20284
2026-01-06 10:34:55.68	179.26	6.51	-51.1	-66.2	3.8	1.49e+00	0	38	104	0	74	19647
2026-01-06 10:34:56.68	179.30	6.58	-51.0	-65.8	3.8	1.49e+00	0	38	104	0	74	18847
2026-01-06 10:34:57.69	179.34	6.66	-51.1	-65.9	3.8	1.48e+00	0	38	104	0	74	19076
2026-01-06 10:34:58.69	179.38	6.73	-51.1	-66.0	3.8	1.49e+00	0	38	104	0	74	19168
2026-01-06 10:34:59.70	179.41	6.81	-51.1	-66.3	3.8	1.49e+00	0	38	104	0	74	19920
2026-01-06 10:35:00.70	179.45	6.88	-51.1	-66.6	3.8	1.49e+00	0	38	104	0	74	20736
2026-01-06 10:35:01.71	179.49	6.96	-51.1	-66.7	3.8	1.49e+00	0	38	104	0	74	20964
2026-01-06 10:35:02.71	179.53	7.04	-51.1	-66.0	3.8	1.49e+00	0	38	104	0	74	19185
2026-01-06 10:35:03.72	179.57	7.11	-51.0	-64.1	4.2	1.48e+00	0	38	104	0	74	15472
2026-01-06 10:35:04.72	179.61	7.19	-50.8	-62.1	5.0	1.04e+00	0	38	0	1048576	73	13003
2026-01-06 10:35:05.72	179.64	7.26	-50.5	-60.1	6.4	3.21e-01	0	38	0	3145728	73	10313
2026-01-06 10:35:06.73	179.68	7.34	-50.1	-58.0	8.3	1.04e-01	0	38	0	5242880	72	8606
2026-01-06 10:35:07.73	179.72	7.42	-49.9	-57.0	9.5	3.42e-02	0	38	0	6291456	71	8109
2026-01-06 10:35:08.74	179.76	7.49	-49.5	-55.8	10.7	3.55e-03	0	38	0	8388608	71	7074
2026-01-06 10:35:09.74	179.80	7.57	-49.1	-54.6	11.9	7.97e-04	0	38	0	10485760	70	6523
2026-01-06 10:35:10.74	179.84	7.65	-48.7	-53.6	12.9	1.06e-04	0	38	0	12582912	69	6140
2026-01-06 10:35:11.75	179.88	7.73	-48.5	-53.3	13.2	3.96e-05	0	38	0	14680064	69	5966
2026-01-06 10:35:12.75	179.92	7.80	-48.2	-52.7	13.9	3.00e-06	0	38	0	15728640	68	5881
2026-01-06 10:35:13.76	179.96	7.88	-48.2	-52.7	13.9	6.10e-06	0	38	0	17825792	68	5860
2026-01-06 10:35:14.76	180.00	7.96	-48.2	-52.7	13.9	4.50e-06	0	38	0	19922944	68	5873
2026-01-06 10:35:15.77	180.04	8.04	-48.5	-53.2	13.4	1.06e-05	0	38	0	22020096	68	6212
2026-01-06 10:35:16.77	180.08	8.12	-48.5	-53.2	13.3	1.14e-05	0	38	0	24117248	68	6220
2026-01-06 10:35:17.78	180.13	8.20	-48.8	-53.8	12.7	3.66e-05	0	38	0	25165824	68	6681
2026-01-06 10:35:18.78	180.17	8.28	-49.2	-54.7	11.8	3.13e-04	0	38	0	27262976	68	7437
2026-01-06 10:35:19.78	180.21	8.36	-49.6	-55.9	10.6	1.88e-03	0	38	0	29360128	69	8020
2026-01-06 10:35:20.79	180.25	8.44	-49.9	-56.9	9.6	5.60e-03	0	38	0	31457280	70	8499
2026-01-06 10:35:21.79	180.29	8.52	-50.2	-58.0	8.4	2.12e-02	0	38	0	32505856	70	9685
2026-01-06 10:35:22.80	180.34	8.60	-50.4	-59.3	7.2	1.08e-01	0	39	0	34603008	71	10641
2026-01-06 10:35:23.80	180.38	8.68	-50.6	-60.7	6.0	2.37e-01	0	38	0	36700160	71	12415
2026-01-06 10:35:24.80	180.42	8.76	-50.8	-62.0	5.1	4.48e-01	0	39	0	38797312	72	13587
2026-01-06 10:35:25.81	180.46	8.84	-50.8	-63.1	4.6	8.62e-01	0	39	0	40894464	72	15407
2026-01-06 10:35:26.81	180.51	8.92	-50.9	-64.0	4.3	1.24e+00	0	39	0	41943040	72	17194
2026-01-06 10:35:27.82	180.55	9.00	-50.9	-64.6	4.1	1.40e+00	0	38	0	41943040	72	18401
2026-01-06 10:35:28.82	180.59	9.09	-51.1	-62.9	4.7	1.02e+00	0	38	0	41943040	72	15186
2026-01-06 10:35:29.82	180.64	9.17	-50.6	-59.4	7.0	4.96e-01	0	38	0	44040192	72	10123
2026-01-06 10:35:30.83	180.68	9.25	-51.0	-66.3	3.8	7.82e-01	0	39	104	45088768	73	21105
2026-01-06 10:35:31.83	180.73	9.33	-51.2	-62.9	4.7	1.49e+00	0	39	104	45088768	73	14252
2026-01-06 10:35:32.83	180.77	9.41	-50.1	-57.3	9.0	2.25e-01	0	39	0	46137344	72	7953
2026-01-06 10:35:33.84	180.82	9.50	-50.0	-56.8	9.8	2.03e-02	0	38	0	48234496	72	7475
2026-01-06 10:35:34.84	180.86	9.58	-50.0	-56.4	10.2	1.11e-02	0	38	0	50331648	71	7576
2026-01-06 10:35:35.84	180.91	9.66	-49.9	-56.2	10.2	4.20e-03	0	39	0	51380224	71	7435
2026-01-06 10:35:36.84	180.95	9.75	-49.9	-55.7	10.9	2.29e-03	0	39	0	53477376	71	7015
2026-01-06 10:35:37.85	181.00	9.83	-49.9	-55.7	10.9	1.57e-03	0	39	0	55574528	71	7007
2026-01-06 10:35:38.85	181.04	9.92	-49.9	-55.4	11.0	1.45e-03	0	39	0	57671680	71	6781
2026-01-06 10:35:39.85	181.09	10.00	-49.9	-55.4	11.0	9.44e-04	0	39	0	59768832	71	6799
2026-01-06 10:35:40.85	181.13	10.09	-49.8	-54.9	11.6	6.41e-04	0	39	0	60817408	71	6360
2026-01-06 10:35:41.85	181.18	10.17	-49.7	-54.6	11.9	3.11e-04	0	39	0	62914560	71	6187
2026-01-06 10:35:42.85	181.23	10.26	-49.5	-54.1	12.5	1.05e-04	0	39	0	65011712	70	6167
2026-01-06 10:35:43.86	181.28	10.34	-49.3	-53.6	13.0	6.17e-05	0	39	0	67108864	70	5798
2026-01-06 10:35:44.86	181.32	10.43	-49.2	-53.4	13.2	2.97e-05	0	39	0	69206016	70	5670
2026-01-06 10:35:45.86	181.37	10.51	-49.0	-53.1	13.5	1.90e-05	0	39	0	70254592	69	5827
2026-01-06 10:35:46.86	181.42	10.60	-49.3	-53.6	13.1	1.37e-05	0	39	0	72351744	69	6148
2026-01-06 10:35:47.86	181.47	10.69	-49.2	-53.5	13.0	2.05e-05	0	39	0	74448896	69	6106
2026-01-06 10:35:48.87	181.52	10.78	-49.2	-53.5	13.0	2.13e-05	0	39	0	76546048	69	6115
2026-01-06 10:35:49.87	181.56	10.86	-49.1	-53.3	13.3	2.44e-05	0	39	0	78643200	69	5959
2026-01-06 10:35:50.87	181.61	10.95	-49.1	-53.3	13.3	8.30e-06	0	39	0	79691776	69	5955
2026-01-06 10:35:51.88	181.66	11.04	-48.7	-52.6	14.0	2.20e-06	0	39	0	81788928	69	5488
2026-01-06 10:35:52.88	181.71	11.13	-48.6	-52.4	14.3	2.20e-06	0	39	0	83886080	69	5379
2026-01-06 10:35:53.88	181.76	11.22	-48.6	-52.4	14.3	3.80e-06	0	39	0	85983232	68	5666
2026-01-06 10:35:54.89	181.81	11.31	-48.5	-52.3	14.3	7.00e-07	0	39	0	88080384	68	5610
2026-01-06 10:35:55.89	181.86	11.39	-48.5	-52.2	14.4	0.00e+00	0	39	0	89128960	68	5572
2026-01-06 10:35:56.89	181.91	11.48	-48.3	-52.0	14.6	0.00e+00	0	39	0	91226112	68	5436
2026-01-06 10:35:57.90	181.97	11.57	-48.0	-51.5	14.9	7.00e-07	0	39	0	93323264	67	5425
2026-01-06 10:35:58.90	182.02	11.66	-47.8	-51.2	15.2	0.00e+00	0	39	0	95420416	67	5261
2026-01-06 10:35:59.90	182.07	11.76	-47.1	-50.2	16.2	0.00e+00	0	39	0	97517568	66	4954
2026-01-06 10:36:00.91	182.12	11.85	-46.8	-49.8	16.6	0.00e+00	0	39	0	98566144	65	5005
2026-01-06 10:36:01.91	182.17	11.94	-46.8	-49.8	16.6	0.00e+00	0	39	0	100663296	65	5024
2026-01-06 10:36:02.91	182.23	12.03	-46.6	-49.5	16.9	0.00e+00	0	39	0	102760448	65	4866
2026-01-06 10:36:03.91	182.28	12.12	-46.6	-49.5	16.9	0.00e+00	0	39	0	104857600	65	4835
2026-01-06 10:36:04.92	182.33	12.21	-46.5	-49.3	17.0	0.00e+00	0	39	0	105906176	65	4747
2026-01-06 10:36:05.92	182.38	12.31	-46.3	-49.1	17.3	0.00e+00	0	39	0	108003328	64	4871
2026-01-06 10:36:06.92	182.44	12.40	-46.4	-49.1	17.3	0.00e+00	0	39	0	110100480	64	4921
2026-01-06 10:36:07.93	182.49	12.49	-46.2	-48.9	17.5	0.00e+00	0	39	0	112197632	64	4763
2026-01-06 10:36:08.93	182.55	12.59	-46.3	-49.0	17.3	0.00e+00	0	39	0	114294784	64	4854
2026-01-06 10:36:09.93	182.60	12.68	-46.4	-49.1	17.3	0.00e+00	0	39	0	115343360	64	4908
2026-01-06 10:36:10.93	182.66	12.77	-46.3	-49.0	17.4	0.00e+00	0	39	0	117440512	64	4826
2026-01-06 10:36:11.93	182.71	12.87	-46.4	-49.1	17.3	0.00e+00	0	39	0	119537664	64	4888
2026-01-06 10:36:12.94	182.77	12.96	-46.4	-49.1	17.2	0.00e+00	0	39	0	121634816	64	4925
2026-01-06 10:36:13.94	182.82	13.06	-46.2	-49.0	17.5	0.00e+00	0	39	0	123731968	64	4819
2026-01-06 10:36:14.94	182.88	13.15	-46.2	-48.9	17.5	0.00e+00	0	39	0	124780544	64	4803
2026-01-06 10:36:15.95	182.94	13.25	-46.2	-48.9	17.5	0.00e+00	0	39	0	126877696	64	4796
2026-01-06 10:36:16.95	183.00	13.35	-46.1	-48.8	17.6	0.00e+00	0	39	0	128974848	64	4740
2026-01-06 10:36:17.95	183.05	13.44	-46.4	-49.1	17.3	0.00e+00	0	39	0	131072000	64	4919
2026-01-06 10:36:18.96	183.11	13.54	-46.3	-49.0	17.3	0.00e+00	0	39	0	133169152	64	4863
2026-01-06 10:36:19.96	183.17	13.64	-46.5	-49.3	17.2	0.00e+00	0	39	0	134217728	64	4994
2026-01-06 10:36:20.96	183.23	13.73	-46.3	-49.0	17.4	0.00e+00	0	39	0	136314880	64	4861
2026-01-06 10:36:21.97	183.29	13.83	-46.2	-48.8	17.6	0.00e+00	0	39	0	138412032	64	4739
2026-01-06 10:36:22.97	183.35	13.93	-46.0	-48.6	17.7	0.00e+00	0	39	0	140509184	64	4643
2026-01-06 10:36:23.97	183.41	14.03	-46.2	-48.9	17.5	0.00e+00	0	39	0	142606336	64	4779
2026-01-06 10:36:24.98	183.47	14.13	-46.0	-48.6	17.8	0.00e+00	0	39	0	143654912	64	4630
2026-01-06 10:36:25.98	183.53	14.23	-46.1	-48.8	17.7	0.00e+00	0	39	0	145752064	63	4999
2026-01-06 10:36:26.98	183.59	14.33	-46.1	-48.7	17.7	0.00e+00	0	39	0	147849216	63	4969
2026-01-06 10:36:27.99	183.65	14.43	-46.0	-48.6	17.9	0.00e+00	0	39	0	149946368	63	4882
2026-01-06 10:36:28.99	183.71	14.53	-46.2	-48.8	17.7	0.00e+00	0	39	0	150994944	63	5002
2026-01-06 10:36:29.99	183.77	14.63	-46.3	-48.9	17.6	0.00e+00	0	39	0	153092096	63	5081
2026-01-06 10:36:31.00	183.84	14.73	-46.2	-48.9	17.6	0.00e+00	0	39	0	155189248	63	5056
2026-01-06 10:36:32.00	183.90	14.84	-46.2	-48.8	17.7	0.00e+00	0	39	0	157286400	63	5008
2026-01-06 10:36:33.00	183.96	14.94	-46.4	-49.1	17.5	0.00e+00	0	39	0	159383552	63	5190
2026-01-06 10:36:34.00	184.03	15.04	-46.3	-49.0	17.5	0.00e+00	0	39	0	161480704	63	5125
2026-01-06 10:36:35.01	184.09	15.14	-46.5	-49.2	17.4	0.00e+00	0	39	0	162529280	63	5248
2026-01-06 10:36:36.01	184.15	15.25	-46.6	-49.4	17.1	0.00e+00	0	39	0	164626432	64	5055
2026-01-06 10:36:37.02	184.22	15.35	-46.7	-49.5	17.0	0.00e+00	0	39	0	166723584	64	5138
2026-01-06 10:36:38.02	184.28	15.46	-46.8	-49.6	16.9	0.00e+00	0	39	0	168820736	64	5187
2026-01-06 10:36:39.02	184.35	15.56	-46.8	-49.6	16.9	0.00e+00	0	39	0	169869312	64	5209
2026-01-06 10:36:40.02	184.42	15.67	-46.7	-49.5	17.1	0.00e+00	0	39	0	171966464	64	5116
2026-01-06 10:36:41.03	184.48	15.77	-46.7	-49.5	17.0	0.00e+00	0	39	0	174063616	64	5110
2026-01-06 10:36:42.03	184.55	15.88	-46.7	-49.5	17.0	0.00e+00	0	39	0	176160768	64	5124
2026-01-06 10:36:43.03	184.62	15.99	-46.6	-49.4	17.1	0.00e+00	0	39	0	178257920	64	5052
2026-01-06 10:36:44.04	184.69	16.09	-46.7	-49.5	17.0	0.00e+00	0	39	0	179306496	64	5105
2026-01-06 10:36:45.04	184.76	16.20	-46.6	-49.3	17.2	0.00e+00	0	39	0	181403648	64	5004
2026-01-06 10:36:46.05	184.82	16.31	-46.5	-49.3	17.3	0.00e+00	0	39	0	183500800	64	4989
2026-01-06 10:36:47.05	184.89	16.42	-46.6	-49.3	17.2	0.00e+00	0	39	0	185597952	64	4989
2026-01-06 10:36:48.05	184.96	16.53	-46.5	-49.2	17.3	0.00e+00	0	39	0	187695104	64	4973
2026-01-06 10:36:49.06	185.04	16.64	-46.5	-49.1	17.3	0.00e+00	0	39	0	188743680	64	4924
2026-01-06 10:36:50.06	185.11	16.74	-46.6	-49.3	17.2	0.00e+00	0	39	0	190840832	64	5031
2026-01-06 10:36:51.06	185.18	16.85	-46.5	-49.3	17.2	0.00e+00	0	39	0	192937984	64	5013
2026-01-06 10:36:52.06	185.25	16.96	-46.7	-49.6	16.9	0.00e+00	0	39	0	195035136	64	5200
2026-01-06 10:36:53.07	185.32	17.08	-46.7	-49.6	17.0	0.00e+00	0	39	0	197132288	64	5168
2026-01-06 10:36:54.07	185.39	17.19	-46.8	-49.7	16.8	0.00e+00	0	39	0	198180864	64	5236
2026-01-06 10:36:55.07	185.47	17.30	-46.9	-49.8	16.8	0.00e+00	0	39	0	200278016	64	5285
2026-01-06 10:36:56.07	185.54	17.41	-46.9	-49.8	16.7	0.00e+00	0	39	0	202375168	64	5310
2026-01-06 10:36:57.08	185.62	17.53	-46.8	-49.6	16.9	0.00e+00	0	39	0	204472320	64	5217
2026-01-06 10:36:58.08	185.69	17.64	-46.9	-49.8	16.7	0.00e+00	0	39	0	206569472	64	5321
2026-01-06 10:36:59.09	185.77	17.75	-46.9	-49.8	16.7	0.00e+00	0	39	0	207618048	64	5320
2026-01-06 10:37:00.08	185.84	17.87	-46.8	-49.7	16.9	0.00e+00	0	39	0	209715200	64	5229
2026-01-06 10:37:01.07	185.92	17.98	-47.0	-49.9	16.7	0.00e+00	0	39	0	211812352	64	5356
2026-01-06 10:37:02.08	186.00	18.10	-46.7	-49.6	17.0	0.00e+00	0	39	0	213909504	64	5163
2026-01-06 10:37:03.08	186.07	18.21	-46.7	-49.5	17.1	0.00e+00	0	39	0	214958080	64	5132
2026-01-06 10:37:04.08	186.15	18.33	-46.8	-49.6	17.0	0.00e+00	0	40	0	217055232	64	5194
2026-01-06 10:37:05.08	186.23	18.44	-46.7	-49.5	17.0	0.00e+00	0	39	0	219152384	64	5137
2026-01-06 10:37:06.09	186.31	18.56	-46.7	-49.4	17.2	0.00e+00	0	39	0	221249536	64	5080
2026-01-06 10:37:07.09	186.39	18.68	-46.7	-49.4	17.1	0.00e+00	0	39	0	223346688	64	5083
2026-01-06 10:37:08.09	186.47	18.80	-46.6	-49.3	17.2	0.00e+00	0	39	0	224395264	64	5039
2026-01-06 10:37:09.10	186.55	18.92	-46.5	-49.2	17.3	0.00e+00	0	39	0	226492416	64	4970
2026-01-06 10:37:10.10	186.64	19.04	-46.5	-49.2	17.4	0.00e+00	0	39	0	228589568	64	4953
2026-01-06 10:37:11.10	186.72	19.16	-46.7	-49.4	17.2	0.00e+00	0	39	0	230686720	64	5068
2026-01-06 10:37:12.10	186.80	19.28	-46.5	-49.1	17.4	0.00e+00	0	39	0	232783872	64	4918
2026-01-06 10:37:13.11	186.89	19.40	-46.4	-49.1	17.5	0.00e+00	0	39	0	233832448	64	4898
2026-01-06 10:37:14.11	186.97	19.52	-46.3	-49.0	17.5	0.00e+00	0	39	0	235929600	64	4829
2026-01-06 10:37:15.12	187.06	19.64	-46.2	-48.7	17.8	0.00e+00	0	39	0	238026752	64	4691
2026-01-06 10:37:16.12	187.14	19.76	-46.0	-48.6	17.9	0.00e+00	0	39	0	240123904	64	4599
2026-01-06 10:37:17.12	187.23	19.89	-46.1	-48.5	18.0	0.00e+00	0	39	0	242221056	63	4870
2026-01-06 10:37:18.12	187.32	20.01	-45.8	-48.2	18.3	0.00e+00	0	39	0	243269632	63	4686
2026-01-06 10:37:19.13	187.40	20.14	-45.5	-47.9	18.6	0.00e+00	0	39	0	245366784	63	4529
2026-01-06 10:37:20.13	187.49	20.26	-45.3	-47.6	18.9	0.00e+00	0	39	0	247463936	62	4616
2026-01-06 10:37:21.13	187.58	20.38	-45.1	-47.4	19.1	0.00e+00	0	39	0	249561088	62	4512
2026-01-06 10:37:22.13	187.67	20.51	-45.1	-47.4	19.1	0.00e+00	0	39	0	251658240	62	4516
2026-01-06 10:37:23.14	187.76	20.64	-44.9	-47.1	19.3	0.00e+00	0	39	0	252706816	61	4623
2026-01-06 10:37:24.14	187.85	20.76	-44.8	-47.1	19.3	0.00e+00	0	39	0	254803968	61	4605
2026-01-06 10:37:25.15	187.95	20.89	-44.7	-46.9	19.4	0.00e+00	0	39	0	256901120	61	4531
2026-01-06 10:37:26.15	188.04	21.02	-44.7	-46.9	19.5	0.00e+00	0	39	0	258998272	61	4542
2026-01-06 10:37:27.15	188.13	21.15	-44.8	-47.0	19.4	0.00e+00	0	39	0	261095424	61	4577
2026-01-06 10:37:28.16	188.23	21.28	-44.9	-47.1	19.3	0.00e+00	0	39	0	262144000	61	4644
2026-01-06 10:37:29.16	188.32	21.41	-44.9	-47.2	19.3	0.00e+00	0	39	0	264241152	61	4676
2026-01-06 10:37:30.16	188.42	21.54	-45.0	-47.3	19.1	0.00e+00	0	39	0	266338304	61	4717
2026-01-06 10:37:31.16	188.51	21.67	-45.0	-47.2	19.2	0.00e+00	0	39	0	268435456	61	4700
2026-01-06 10:37:32.17	188.61	21.80	-44.9	-47.2	19.2	0.00e+00	0	40	0	270532608	61	4684
2026-01-06 10:37:33.17	188.71	21.94	-45.1	-47.4	19.1	0.00e+00	0	39	0	271581184	61	4779
2026-01-06 10:37:34.18	188.81	22.07	-44.9	-47.2	19.3	0.00e+00	0	39	0	273678336	61	4669
2026-01-06 10:37:35.18	188.91	22.20	-44.9	-47.1	19.4	0.00e+00	0	39	0	275775488	61	4625
2026-01-06 10:37:36.19	189.01	22.34	-45.1	-47.4	19.1	0.00e+00	0	39	0	277872640	61	4781
2026-01-06 10:37:37.19	189.11	22.47	-45.1	-47.3	19.2	0.00e+00	0	39	0	278921216	61	4755
2026-01-06 10:37:38.19	189.21	22.61	-45.1	-47.4	19.1	0.00e+00	0	39	0	281018368	61	4790
2026-01-06 10:37:39.20	189.32	22.74	-45.1	-47.3	19.1	0.00e+00	0	39	0	283115520	61	4742
2026-01-06 10:37:40.20	189.42	22.88	-45.1	-47.4	19.1	0.00e+00	0	39	0	285212672	61	4808
2026-01-06 10:37:41.20	189.53	23.02	-45.2	-47.5	19.0	0.00e+00	0	39	0	287309824	61	4859
2026-01-06 10:37:42.21	189.63	23.16	-45.2	-47.5	19.0	0.00e+00	0	39	0	288358400	61	4843
2026-01-06 10:37:43.21	189.74	23.30	-45.2	-47.5	19.0	0.00e+00	0	39	0	290455552	61	4857
2026-01-06 10:37:44.22	189.85	23.44	-45.1	-47.4	19.1	0.00e+00	0	39	0	292552704	61	4806
2026-01-06 10:37:45.22	189.96	23.58	-45.1	-47.5	19.1	0.00e+00	0	39	0	294649856	61	4817
2026-01-06 10:37:46.22	190.07	23.72	-45.3	-47.6	19.0	0.00e+00	0	39	0	296747008	61	4879
2026-01-06 10:37:47.23	190.18	23.86	-45.1	-47.4	19.2	0.00e+00	0	39	0	297795584	61	4763
2026-01-06 10:37:48.23	190.29	24.00	-45.2	-47.5	19.0	0.00e+00	0	39	0	299892736	61	4864
2026-01-06 10:37:49.23	190.40	24.14	-45.1	-47.4	19.2	0.00e+00	0	39	0	301989888	61	4761
2026-01-06 10:37:50.24	190.52	24.29	-45.1	-47.4	19.1	0.00e+00	0	39	0	304087040	61	4790
2026-01-06 10:37:51.24	190.63	24.43	-45.2	-47.5	19.0	0.00e+00	0	39	0	306184192	61	4866
2026-01-06 10:37:52.24	190.74	24.57	-45.0	-47.2	19.3	0.00e+00	0	39	0	307232768	61	4698
2026-01-06 10:37:53.25	190.86	24.72	-45.0	-47.3	19.3	0.00e+00	0	39	0	309329920	61	4712
2026-01-06 10:37:54.25	190.98	24.87	-45.0	-47.3	19.2	0.00e+00	0	39	0	311427072	61	4722
2026-01-06 10:37:55.25	191.10	25.01	-44.9	-47.1	19.4	0.00e+00	0	39	0	313524224	61	4626
2026-01-06 10:37:56.26	191.22	25.16	-44.9	-47.1	19.4	0.00e+00	0	39	0	315621376	61	4619
2026-01-06 10:37:57.26	191.34	25.31	-44.9	-47.1	19.4	0.00e+00	0	39	0	316669952	61	4619
2026-01-06 10:37:58.26	191.46	25.46	-44.7	-46.8	19.7	0.00e+00	0	39	0	318767104	61	4481
2026-01-06 10:37:59.27	191.59	25.61	-44.7	-46.8	19.7	0.00e+00	0	39	0	320864256	61	4478
2026-01-06 10:38:00.27	191.71	25.76	-44.8	-47.1	19.4	0.00e+00	0	39	0	322961408	61	4599
2026-01-06 10:38:01.27	191.83	25.91	-44.9	-47.1	19.4	0.00e+00	0	39	0	325058560	61	4628
2026-01-06 10:38:02.28	191.96	26.06	-45.0	-47.3	19.3	0.00e+00	0	40	0	326107136	61	4713
2026-01-06 10:38:03.28	192.09	26.21	-44.9	-47.2	19.3	0.00e+00	0	39	0	328204288	61	4661
2026-01-06 10:38:04.28	192.22	26.37	-44.9	-47.2	19.4	0.00e+00	0	39	0	330301440	61	4655
2026-01-06 10:38:05.29	192.35	26.52	-44.9	-47.2	19.3	0.00e+00	0	39	0	332398592	61	4663
2026-01-06 10:38:06.29	192.48	26.67	-44.8	-47.0	19.5	0.00e+00	0	39	0	333447168	61	4591
2026-01-06 10:38:07.29	192.61	26.83	-44.7	-46.9	19.6	0.00e+00	0	39	0	335544320	61	4528
2026-01-06 10:38:08.30	192.75	26.99	-44.9	-47.1	19.5	0.00e+00	0	39	0	337641472	61	4601
2026-01-06 10:38:09.30	192.88	27.14	-44.7	-46.9	19.6	0.00e+00	0	39	0	339738624	61	4494
2026-01-06 10:38:10.30	193.02	27.30	-44.8	-47.0	19.5	0.00e+00	0	39	0	341835776	61	4565
2026-01-06 10:38:11.31	193.16	27.46	-44.9	-47.0	19.5	0.00e+00	0	39	0	343932928	61	4597
2026-01-06 10:38:12.31	193.30	27.62	-45.1	-47.3	19.2	0.00e+00	0	39	0	344981504	61	4732
2026-01-06 10:38:13.31	193.44	27.78	-45.1	-47.3	19.2	0.00e+00	0	39	0	347078656	61	4742
2026-01-06 10:38:14.32	193.58	27.94	-45.5	-47.8	18.8	0.00e+00	0	39	0	349175808	61	4984
2026-01-06 10:38:15.32	193.72	28.10	-45.4	-47.7	18.9	0.00e+00	0	39	0	351272960	61	4938
2026-01-06 10:38:16.32	193.87	28.26	-45.8	-48.1	18.5	0.00e+00	0	39	0	352321536	62	4922
2026-01-06 10:38:17.32	194.01	28.42	-45.8	-48.1	18.6	0.00e+00	0	39	0	354418688	62	4904
2026-01-06 10:38:18.33	194.16	28.59	-45.8	-48.1	18.6	0.00e+00	0	39	0	356515840	62	4900
2026-01-06 10:38:19.33	194.31	28.75	-46.1	-48.5	18.3	0.00e+00	0	39	0	358612992	62	5101
2026-01-06 10:38:20.34	194.46	28.92	-46.0	-48.3	18.3	0.00e+00	0	39	0	360710144	62	5033
2026-01-06 10:38:21.34	194.61	29.08	-46.2	-48.6	18.1	0.00e+00	0	39	0	361758720	63	4883
2026-01-06 10:38:22.34	194.77	29.25	-46.4	-48.9	17.8	0.00e+00	0	39	0	363855872	63	5090
2026-01-06 10:38:23.35	194.92	29.42	-46.5	-49.1	17.7	0.00e+00	0	39	0	365953024	63	5169
2026-01-06 10:38:24.35	195.08	29.59	-46.7	-49.3	17.4	0.00e+00	0	39	0	368050176	64	5001
2026-01-06 10:38:25.35	195.24	29.76	-46.7	-49.4	17.4	0.00e+00	0	39	0	370147328	64	5056
2026-01-06 10:38:26.36	195.40	29.93	-47.1	-49.9	16.8	0.00e+00	0	39	0	371195904	64	5365
2026-01-06 10:38:27.36	195.56	30.10	-47.1	-49.9	16.8	0.00e+00	0	39	0	373293056	64	5363
2026-01-06 10:38:28.36	195.72	30.27	-47.3	-50.1	16.6	0.00e+00	0	40	0	375390208	65	5193
2026-01-06 10:38:29.37	195.89	30.44	-47.5	-50.4	16.3	0.00e+00	0	39	0	377487360	65	5379
2026-01-06 10:38:30.37	196.05	30.61	-47.5	-50.5	16.3	0.00e+00	0	39	0	379584512	65	5423
2026-01-06 10:38:31.37	196.22	30.79	-47.8	-50.9	16.0	0.00e+00	0	39	0	380633088	66	5352
2026-01-06 10:38:32.37	196.39	30.96	-47.9	-50.9	15.9	0.00e+00	0	39	0	382730240	66	5382
2026-01-06 10:38:33.38	196.57	31.14	-48.0	-51.1	15.7	0.00e+00	0	39	0	384827392	66	5498
2026-01-06 10:38:34.38	196.74	31.31	-47.9	-50.9	15.9	0.00e+00	0	39	0	386924544	66	5380
2026-01-06 10:38:35.39	196.92	31.49	-48.1	-51.2	15.6	0.00e+00	0	39	0	389021696	67	5252
2026-01-06 10:38:36.38	197.09	31.67	-47.9	-51.0	15.8	0.00e+00	0	39	0	390070272	67	5116
2026-01-06 10:38:37.39	197.27	31.84	-48.2	-51.3	15.5	0.00e+00	0	39	0	392167424	67	5332
2026-01-06 10:38:38.39	197.45	32.02	-48.2	-51.4	15.5	0.00e+00	0	39	0	394264576	67	5374
2026-01-06 10:38:39.39	197.64	32.20	-48.1	-51.3	15.6	0.00e+00	0	39	0	396361728	67	5290
2026-01-06 10:38:40.40	197.82	32.38	-48.0	-51.0	15.8	0.00e+00	0	39	0	398458880	67	5157
2026-01-06 10:38:41.40	198.01	32.57	-48.0	-51.1	15.7	0.00e+00	0	39	0	399507456	67	5183
2026-01-06 10:38:42.41	198.20	32.75	-47.8	-50.7	16.1	0.00e+00	0	39	0	401604608	67	4967
2026-01-06 10:38:43.41	198.39	32.93	-47.6	-50.4	16.4	0.00e+00	0	39	0	403701760	66	5095
2026-01-06 10:38:44.42	198.59	33.12	-47.7	-50.7	16.1	0.00e+00	0	39	0	405798912	66	5257
2026-01-06 10:38:45.42	198.78	33.30	-47.6	-50.5	16.3	0.00e+00	0	39	0	406847488	66	5159
2026-01-06 10:38:46.42	198.98	33.48	-47.6	-50.5	16.3	0.00e+00	0	39	0	408944640	66	5109
2026-01-06 10:38:47.43	199.18	33.67	-47.7	-50.6	16.1	0.00e+00	0	39	0	411041792	66	5210
2026-01-06 10:38:48.43	199.39	33.86	-47.5	-50.3	16.4	0.00e+00	0	39	0	413138944	66	5033
2026-01-06 10:38:49.43	199.59	34.05	-47.4	-50.2	16.6	0.00e+00	0	40	0	415236096	66	4972
2026-01-06 10:38:50.43	199.80	34.23	-47.3	-50.0	16.7	0.00e+00	0	39	0	416284672	66	4851
2026-01-06 10:38:51.43	200.01	34.42	-47.2	-49.9	16.8	0.00e+00	0	39	0	418381824	66	4775
2026-01-06 10:38:52.44	200.22	34.61	-46.8	-49.4	17.3	0.00e+00	0	39	0	420478976	65	4780
2026-01-06 10:38:53.44	200.43	34.80	-47.0	-49.6	17.1	0.00e+00	0	39	0	422576128	65	4913
2026-01-06 10:38:54.45	200.65	34.99	-47.2	-49.9	16.9	0.00e+00	0	39	0	424673280	65	5063
2026-01-06 10:38:55.45	200.87	35.19	-47.4	-50.2	16.5	0.00e+00	0	39	0	425721856	65	5265
2026-01-06 10:38:56.45	201.09	35.38	-47.2	-50.0	16.8	0.00e+00	0	39	0	427819008	65	5110
2026-01-06 10:38:57.45	201.32	35.57	-47.6	-50.5	16.3	0.00e+00	0	39	0	429916160	65	5407
2026-01-06 10:38:58.46	201.54	35.77	-47.5	-50.4	16.4	0.00e+00	0	39	0	432013312	66	5043
2026-01-06 10:38:59.46	201.77	35.96	-47.5	-50.4	16.4	0.00e+00	0	39	0	434110464	66	5083
2026-01-06 10:39:00.46	202.01	36.15	-47.6	-50.5	16.4	0.00e+00	0	39	0	435159040	66	5112
2026-01-06 10:39:01.46	202.24	36.35	-47.5	-50.4	16.4	0.00e+00	0	39	0	437256192	66	5070
2026-01-06 10:39:02.46	202.48	36.55	-47.4	-50.2	16.5	0.00e+00	0	39	0	439353344	66	4960
2026-01-06 10:39:03.46	202.72	36.74	-47.3	-50.1	16.7	0.00e+00	0	39	0	441450496	66	4909
2026-01-06 10:39:04.47	202.96	36.94	-47.2	-50.0	16.7	0.00e+00	0	39	0	443547648	66	4849
2026-01-06 10:39:05.47	203.21	37.14	-47.1	-49.8	17.0	0.00e+00	0	40	0	444596224	66	4706
2026-01-06 10:39:06.47	203.46	37.34	-46.7	-49.2	17.5	0.00e+00	0	40	0	446693376	65	4699
2026-01-06 10:39:07.48	203.71	37.54	-47.0	-49.7	17.0	0.00e+00	0	39	0	448790528	65	4963
2026-01-06 10:39:08.48	203.97	37.74	-47.4	-50.2	16.6	0.00e+00	0	40	0	450887680	65	5258
2026-01-06 10:39:09.48	204.23	37.94	-47.5	-50.4	16.4	0.00e+00	0	39	0	451936256	65	5355
2026-01-06 10:39:10.49	204.49	38.14	-47.7	-50.8	16.1	0.00e+00	0	39	0	454033408	66	5290
2026-01-06 10:39:11.49	204.76	38.34	-47.6	-50.6	16.2	0.00e+00	0	39	0	456130560	66	5215
2026-01-06 10:39:12.49	205.02	38.55	-47.7	-50.7	16.1	0.00e+00	0	39	0	458227712	66	5270
2026-01-06 10:39:13.50	205.30	38.75	-47.4	-50.3	16.5	0.00e+00	0	39	0	460324864	66	5027
2026-01-06 10:39:14.50	205.57	38.95	-47.6	-50.6	16.3	0.00e+00	0	39	0	462422016	66	5195
2026-01-06 10:39:15.50	205.85	39.16	-47.4	-50.3	16.6	0.00e+00	0	39	0	463470592	66	5011
2026-01-06 10:39:16.50	206.13	39.36	-47.4	-50.3	16.5	0.00e+00	0	39	0	465567744	66	5031
2026-01-06 10:39:17.51	206.42	39.57	-47.6	-50.6	16.2	0.00e+00	0	39	0	467664896	66	5167
2026-01-06 10:39:18.51	206.71	39.77	-47.2	-50.1	16.7	0.00e+00	0	39	0	469762048	66	4884
2026-01-06 10:39:19.52	207.00	39.98	-46.8	-49.4	17.4	0.00e+00	0	39	0	470810624	65	4786
2026-01-06 10:39:20.52	207.30	40.18	-46.2	-48.6	18.1	0.00e+00	0	39	0	472907776	64	4641
2026-01-06 10:39:21.52	207.60	40.39	-45.9	-48.3	18.4	0.00e+00	0	39	0	475004928	63	4732
2026-01-06 10:39:22.53	207.90	40.60	-46.2	-48.7	18.1	0.00e+00	0	39	0	477102080	63	4933
2026-01-06 10:39:23.53	208.21	40.80	-46.3	-48.8	18.0	0.00e+00	0	40	0	479199232	63	4999
2026-01-06 10:39:24.53	208.52	41.01	-46.6	-49.2	17.5	0.00e+00	0	40	0	480247808	64	4974
2026-01-06 10:39:25.54	208.84	41.22	-46.9	-49.6	17.2	0.00e+00	0	40	0	482344960	64	5213
2026-01-06 10:39:26.54	209.16	41.43	-47.0	-49.8	17.0	0.00e+00	0	39	0	484442112	64	5290
2026-01-06 10:39:27.54	209.48	41.63	-47.1	-49.9	16.9	0.00e+00	0	40	0	486539264	64	5353
2026-01-06 10:39:28.55	209.81	41.84	-46.7	-49.4	17.4	0.00e+00	0	39	0	488636416	64	5056
2026-01-06 10:39:29.55	210.14	42.05	-46.7	-49.4	17.4	0.00e+00	0	39	0	489684992	64	5043
2026-01-06 10:39:30.55	210.48	42.26	-46.8	-49.5	17.3	0.00e+00	0	39	0	491782144	64	5116
2026-01-06 10:39:31.56	210.82	42.47	-46.9	-49.5	17.2	0.00e+00	0	39	0	493879296	64	5155
2026-01-06 10:39:32.56	211.17	42.68	-47.3	-50.1	16.7	0.00e+00	0	40	0	495976448	65	5175
2026-01-06 10:39:33.56	211.52	42.88	-47.1	-49.9	16.8	0.00e+00	0	40	0	498073600	65	5074
2026-01-06 10:39:34.56	211.87	43.09	-47.1	-49.9	16.9	0.00e+00	0	40	0	499122176	65	5049
2026-01-06 10:39:35.56	212.23	43.30	-47.2	-50.0	16.7	0.00e+00	0	39	0	501219328	65	5147
2026-01-06 10:39:36.57	212.59	43.51	-47.5	-50.4	16.4	0.00e+00	0	40	0	503316480	65	5346
2026-01-06 10:39:37.57	212.96	43.72	-47.6	-50.6	16.3	0.00e+00	0	40	0	505413632	65	5481
2026-01-06 10:39:38.57	213.33	43.92	-47.7	-50.6	16.3	0.00e+00	0	39	0	507510784	66	5174
2026-01-06 10:39:39.57	213.71	44.13	-48.1	-51.2	15.8	0.00e+00	0	39	0	508559360	66	5534
2026-01-06 10:39:40.58	214.09	44.34	-48.5	-51.8	15.1	0.00e+00	0	40	0	510656512	67	5632
2026-01-06 10:39:41.58	214.48	44.55	-48.3	-51.6	15.3	0.00e+00	0	39	0	512753664	67	5466
2026-01-06 10:39:42.58	214.87	44.75	-48.2	-51.4	15.5	0.00e+00	0	40	0	514850816	67	5393
2026-01-06 10:39:43.59	215.27	44.96	-47.8	-50.7	16.0	0.00e+00	0	40	0	515899392	67	4950
2026-01-06 10:39:44.59	215.67	45.17	-48.0	-51.0	15.8	0.00e+00	0	40	0	517996544	67	5129
2026-01-06 10:39:45.59	216.08	45.37	-47.9	-50.8	16.0	0.00e+00	0	40	0	520093696	67	5027
2026-01-06 10:39:46.60	216.50	45.58	-48.5	-51.7	15.2	0.00e+00	0	39	0	522190848	67	5561
2026-01-06 10:39:47.60	216.91	45.78	-49.2	-52.7	14.3	7.00e-07	0	40	0	524288000	69	5580
2026-01-06 10:39:48.60	217.34	45.99	-49.7	-53.8	13.4	8.30e-06	0	39	0	525336576	70	5924
2026-01-06 10:39:49.61	217.77	46.19	-49.6	-53.5	13.6	1.14e-05	0	39	0	527433728	70	5745
2026-01-06 10:39:50.61	218.20	46.39	-49.0	-52.5	14.6	7.60e-06	0	39	0	529530880	70	5118
2026-01-06 10:39:51.61	218.64	46.59	-49.3	-52.8	14.2	7.00e-07	0	39	0	531628032	70	5332
2026-01-06 10:39:52.61	219.09	46.79	-49.1	-52.6	14.5	1.50e-06	0	40	0	533725184	70	5177
2026-01-06 10:39:53.62	219.54	46.99	-49.2	-52.7	14.3	3.00e-06	0	39	0	534773760	70	5261
2026-01-06 10:39:54.62	220.00	47.19	-49.3	-52.9	14.2	7.00e-07	0	39	0	536870912	70	5380
2026-01-06 10:39:55.62	220.46	47.39	-49.3	-53.0	14.1	5.30e-06	0	39	0	538968064	70	5415
2026-01-06 10:39:56.63	220.93	47.59	-49.1	-52.7	14.4	7.00e-07	0	39	0	541065216	70	5224
2026-01-06 10:39:57.63	221.41	47.78	-48.8	-52.2	14.8	1.50e-06	0	39	0	543162368	69	5219
2026-01-06 10:39:58.63	221.88	47.98	-48.1	-51.1	15.9	0.00e+00	0	40	0	544210944	68	4891
2026-01-06 10:39:59.64	222.37	48.17	-47.6	-50.4	16.4	0.00e+00	0	40	0	546308096	67	4780
2026-01-06 10:40:00.64	222.87	48.36	-47.8	-50.6	16.2	0.00e+00	0	39	0	548405248	66	5217
2026-01-06 10:40:01.65	223.37	48.55	-48.1	-51.2	15.7	0.00e+00	0	39	0	550502400	66	5550
2026-01-06 10:40:02.65	223.87	48.74	-48.0	-51.0	15.9	0.00e+00	0	40	0	552599552	67	5122
2026-01-06 10:40:03.65	224.38	48.93	-47.7	-50.6	16.2	0.00e+00	0	39	0	553648128	67	4915
2026-01-06 10:40:04.66	224.90	49.11	-47.3	-50.0	16.7	0.00e+00	0	39	0	555745280	66	4848
2026-01-06 10:40:05.66	225.42	49.30	-47.1	-49.8	17.0	0.00e+00	0	40	0	557842432	66	4746
2026-01-06 10:40:06.66	225.95	49.48	-47.4	-50.3	16.5	0.00e+00	0	39	0	559939584	66	5036
2026-01-06 10:40:07.66	226.49	49.66	-47.7	-50.8	16.1	0.00e+00	0	40	0	562036736	66	5337
2026-01-06 10:40:08.67	227.03	49.84	-47.9	-51.0	15.8	0.00e+00	0	39	0	563085312	66	5443
2026-01-06 10:40:09.67	227.58	50.01	-47.3	-50.2	16.6	0.00e+00	0	40	0	565182464	66	4930
2026-01-06 10:40:10.67	228.13	50.19	-46.9	-49.6	17.2	0.00e+00	0	39	0	567279616	65	4898
2026-01-06 10:40:11.67	228.69	50.36	-46.0	-48.4	18.2	0.00e+00	0	40	0	569376768	64	4540
2026-01-06 10:40:12.67	229.26	50.53	-46.2	-48.7	18.1	0.00e+00	0	39	0	570425344	64	4656
2026-01-06 10:40:13.68	229.84	50.69	-46.4	-49.0	17.9	0.00e+00	0	39	0	572522496	63	5105
2026-01-06 10:40:14.68	230.41	50.86	-46.2	-48.7	18.1	0.00e+00	0	39	0	574619648	63	4933
2026-01-06 10:40:15.68	231.00	51.02	-46.0	-48.4	18.3	0.00e+00	0	39	0	576716800	63	4790
2026-01-06 10:40:16.69	231.60	51.18	-45.6	-47.9	18.8	0.00e+00	0	39	0	578813952	62	4788
2026-01-06 10:40:17.69	232.19	51.34	-45.4	-47.7	19.0	0.00e+00	0	39	0	579862528	62	4676
2026-01-06 10:40:18.69	232.80	51.49	-45.4	-47.7	18.9	0.00e+00	0	39	0	581959680	62	4676
2026-01-06 10:40:19.69	233.41	51.64	-45.2	-47.4	19.2	0.00e+00	0	39	0	584056832	62	4527
2026-01-06 10:40:20.69	234.02	51.79	-45.1	-47.3	19.3	0.00e+00	0	40	0	586153984	62	4486
2026-01-06 10:40:21.70	234.65	51.94	-45.4	-47.7	19.0	0.00e+00	0	39	0	588251136	62	4656
2026-01-06 10:40:22.70	235.28	52.08	-45.7	-47.9	18.7	0.00e+00	0	39	0	589299712	62	4813
2026-01-06 10:40:23.71	235.92	52.22	-45.5	-47.8	18.8	0.00e+00	0	39	0	591396864	62	4728
2026-01-06 10:40:24.71	236.56	52.36	-45.6	-47.9	18.9	0.00e+00	0	39	0	593494016	62	4783
2026-01-06 10:40:25.71	237.20	52.49	-46.0	-48.4	18.4	0.00e+00	0	40	0	595591168	62	5086
2026-01-06 10:40:26.72	237.86	52.62	-46.0	-48.5	18.3	0.00e+00	0	39	0	597688320	63	4849
2026-01-06 10:40:27.72	238.51	52.75	-45.5	-47.8	18.9	0.00e+00	0	39	0	598736896	62	4722
2026-01-06 10:40:28.72	239.18	52.87	-45.3	-47.5	19.2	0.00e+00	0	39	0	600834048	62	4577
2026-01-06 10:40:29.72	239.84	52.99	-46.4	-48.9	17.9	0.00e+00	0	39	0	602931200	63	5093
2026-01-06 10:40:30.73	240.52	53.10	-46.9	-49.6	17.1	0.00e+00	0	39	0	605028352	64	5212
2026-01-06 10:40:31.73	241.20	53.21	-46.8	-49.4	17.3	0.00e+00	0	39	0	607125504	64	5086
2026-01-06 10:40:32.74	241.89	53.32	-46.6	-49.2	17.6	0.00e+00	0	40	0	608174080	64	4969
2026-01-06 10:40:33.74	242.58	53.43	-46.6	-49.1	17.6	0.00e+00	0	39	0	610271232	64	4922
2026-01-06 10:40:34.74	243.27	53.53	-46.0	-48.5	18.2	0.00e+00	0	39	0	612368384	64	4566
2026-01-06 10:40:35.75	243.98	53.62	-45.7	-48.0	18.8	0.00e+00	0	39	0	614465536	63	4561
2026-01-06 10:40:36.75	244.68	53.71	-45.7	-48.1	18.7	0.00e+00	0	39	0	616562688	62	4893
2026-01-06 10:40:37.75	245.38	53.80	-46.7	-49.3	17.4	0.00e+00	0	39	0	617611264	64	5032
2026-01-06 10:40:38.76	246.10	53.88	-47.6	-50.5	16.3	0.00e+00	0	39	0	619708416	65	5447
2026-01-06 10:40:39.76	246.82	53.96	-47.3	-50.0	16.8	0.00e+00	0	39	0	621805568	66	4865
2026-01-06 10:40:40.76	247.53	54.04	-47.3	-50.1	16.8	0.00e+00	0	39	0	623902720	66	4907
2026-01-06 10:40:41.77	248.26	54.11	-46.9	-49.6	17.1	0.00e+00	0	39	0	625999872	65	4906
2026-01-06 10:40:42.77	248.99	54.17	-46.3	-48.8	18.0	0.00e+00	0	39	0	627048448	64	4731
2026-01-06 10:40:43.78	249.72	54.23	-46.0	-48.4	18.1	0.00e+00	0	39	0	629145600	64	4542
2026-01-06 10:40:44.78	250.45	54.29	-46.1	-48.5	18.3	0.00e+00	0	39	0	631242752	63	4817
2026-01-06 10:40:45.78	251.19	54.34	-46.6	-49.2	17.6	0.00e+00	0	39	0	633339904	64	4947
2026-01-06 10:40:46.78	251.92	54.39	-47.5	-50.5	16.4	0.00e+00	0	39	0	634388480	65	5410
2026-01-06 10:40:47.78	252.66	54.43	-47.3	-50.1	16.7	0.00e+00	0	39	0	636485632	65	5218
2026-01-06 10:40:48.78	253.40	54.47	-47.0	-49.8	17.0	0.00e+00	0	39	0	638582784	65	4985
2026-01-06 10:40:49.79	254.15	54.50	-46.3	-48.8	17.8	0.00e+00	0	39	0	640679936	64	4754
2026-01-06 10:40:50.79	254.90	54.53	-46.2	-48.6	18.2	0.00e+00	0	39	0	642777088	63	4918
2026-01-06 10:40:51.79	255.64	54.56	-46.4	-48.8	17.9	0.00e+00	0	39	0	643825664	63	5040
2026-01-06 10:40:52.80	256.40	54.58	-46.6	-49.2	17.7	0.00e+00	0	39	0	645922816	63	5220
2026-01-06 10:40:53.80	257.14	54.59	-46.6	-49.2	17.6	0.00e+00	0	39	0	648019968	64	4937
2026-01-06 10:40:54.80	257.89	54.60	-47.0	-49.6	17.1	0.00e+00	0	39	0	650117120	64	5207
2026-01-06 10:40:55.80	258.64	54.60	-47.4	-50.3	16.5	0.00e+00	0	39	0	652214272	65	5328
2026-01-06 10:40:56.81	259.39	54.60	-46.6	-49.3	17.4	0.00e+00	0	39	0	653262848	65	4728
2026-01-06 10:40:57.81	260.14	54.60	-46.0	-48.5	18.1	0.00e+00	0	39	0	655360000	64	4598
2026-01-06 10:40:58.81	260.89	54.59	-46.2	-48.7	18.1	0.00e+00	0	39	0	657457152	63	4936
2026-01-06 10:40:59.82	261.64	54.57	-46.5	-49.1	17.7	0.00e+00	0	39	0	659554304	64	4887
2026-01-06 10:41:00.82	262.39	54.55	-46.3	-48.7	17.9	0.00e+00	0	39	0	661651456	64	4699
2026-01-06 10:41:01.82	263.14	54.53	-45.4	-47.6	19.1	0.00e+00	0	39	0	662700032	62	4618
2026-01-06 10:41:02.82	263.88	54.50	-45.3	-47.5	19.1	0.00e+00	0	39	0	664797184	62	4588
2026-01-06 10:41:03.83	264.63	54.47	-45.8	-48.1	18.6	0.00e+00	0	39	0	666894336	62	4897
2026-01-06 10:41:04.83	265.37	54.43	-46.3	-48.8	18.1	0.00e+00	0	39	0	668991488	63	4985
2026-01-06 10:41:05.83	266.11	54.38	-45.8	-48.1	18.6	0.00e+00	0	39	0	671088640	63	4617
2026-01-06 10:41:06.83	266.84	54.34	-45.9	-48.2	18.5	0.00e+00	0	39	0	672137216	63	4690
2026-01-06 10:41:07.84	267.58	54.28	-46.3	-48.7	18.1	0.00e+00	0	39	0	674234368	63	4976
2026-01-06 10:41:08.84	268.31	54.23	-46.3	-48.8	18.0	0.00e+00	0	39	0	676331520	63	4997
2026-01-06 10:41:09.84	269.04	54.16	-45.9	-48.2	18.5	0.00e+00	0	39	0	678428672	63	4662
2026-01-06 10:41:10.85	269.77	54.10	-45.7	-48.0	18.7	0.00e+00	0	39	0	680525824	63	4571
2026-01-06 10:41:11.85	270.49	54.03	-45.7	-48.1	18.6	0.00e+00	0	39	0	681574400	63	4612
2026-01-06 10:41:12.85	271.21	53.95	-45.6	-48.0	18.9	0.00e+00	0	40	0	683671552	63	4561
2026-01-06 10:41:13.85	271.92	53.87	-46.3	-48.8	18.1	0.00e+00	0	40	0	685768704	63	5002
2026-01-06 10:41:14.86	272.64	53.79	-46.9	-49.6	17.3	0.00e+00	0	39	0	687865856	64	5166
2026-01-06 10:41:15.86	273.34	53.70	-46.9	-49.6	17.3	0.00e+00	0	39	0	689963008	64	5189
2026-01-06 10:41:16.86	274.04	53.61	-46.5	-49.0	17.7	0.00e+00	0	39	0	691011584	64	4839
2026-01-06 10:41:17.86	274.74	53.51	-46.9	-49.6	17.3	0.00e+00	0	39	0	693108736	64	5161
2026-01-06 10:41:18.87	275.44	53.41	-47.2	-49.9	16.9	0.00e+00	0	39	0	695205888	65	5078
2026-01-06 10:41:19.87	276.12	53.31	-47.3	-50.1	16.8	0.00e+00	0	40	0	697303040	65	5162
2026-01-06 10:41:20.88	276.81	53.20	-47.1	-49.8	17.0	0.00e+00	0	40	0	698351616	65	5008
2026-01-06 10:41:21.87	277.48	53.09	-47.3	-50.1	16.7	0.00e+00	0	39	0	700448768	65	5188
2026-01-06 10:41:22.88	278.16	52.98	-47.0	-49.7	17.1	0.00e+00	0	39	0	702545920	65	4968
2026-01-06 10:41:23.88	278.82	52.86	-46.3	-48.8	17.9	0.00e+00	0	39	0	704643072	64	4754
2026-01-06 10:41:24.89	279.49	52.73	-46.2	-48.7	18.1	0.00e+00	0	40	0	706740224	64	4697
2026-01-06 10:41:25.89	280.15	52.61	-47.1	-49.9	16.9	0.00e+00	0	39	0	707788800	65	5071
2026-01-06 10:41:26.89	280.80	52.48	-47.1	-49.9	16.9	0.00e+00	0	39	0	709885952	65	5051
2026-01-06 10:41:27.90	281.45	52.34	-47.1	-49.9	17.0	0.00e+00	0	39	0	711983104	65	5044
2026-01-06 10:41:28.90	282.08	52.21	-46.7	-49.3	17.5	0.00e+00	0	39	0	714080256	65	4725
2026-01-06 10:41:29.90	282.71	52.07	-46.6	-49.2	17.6	0.00e+00	0	39	0	716177408	65	4652
2026-01-06 10:41:30.91	283.35	51.93	-46.0	-48.3	18.5	0.00e+00	0	39	0	717225984	63	4745
2026-01-06 10:41:31.91	283.97	51.78	-46.0	-48.4	18.4	0.00e+00	0	39	0	719323136	63	4785
2026-01-06 10:41:32.91	284.58	51.63	-46.6	-49.2	17.8	0.00e+00	0	39	0	721420288	63	5224
2026-01-06 10:41:33.92	285.19	51.48	-46.5	-49.0	17.8	0.00e+00	0	40	0	723517440	64	4850
2026-01-06 10:41:34.92	285.79	51.33	-46.3	-48.8	17.9	0.00e+00	0	40	0	725614592	64	4727
2026-01-06 10:41:35.93	286.40	51.17	-45.7	-48.0	18.8	0.00e+00	0	39	0	726663168	63	4550
2026-01-06 10:41:36.93	286.98	51.01	-45.8	-48.1	18.6	0.00e+00	0	39	0	728760320	63	4627
2026-01-06 10:41:37.93	287.57	50.85	-46.0	-48.4	18.4	0.00e+00	0	39	0	730857472	63	4800
2026-01-06 10:41:38.94	288.15	50.68	-45.3	-47.5	19.2	0.00e+00	0	40	0	732954624	62	4563
2026-01-06 10:41:39.94	288.72	50.51	-45.2	-47.4	19.2	0.00e+00	0	39	0	735051776	62	4533
2026-01-06 10:41:40.95	289.29	50.34	-45.4	-47.7	19.0	0.00e+00	0	39	0	736100352	62	4669
2026-01-06 10:41:41.95	289.85	50.17	-45.8	-48.1	18.7	0.00e+00	0	39	0	738197504	62	4888
2026-01-06 10:41:42.95	290.40	50.00	-46.0	-48.3	18.5	0.00e+00	0	40	0	740294656	62	5003
2026-01-06 10:41:43.96	290.95	49.82	-46.9	-49.5	17.4	0.00e+00	0	39	0	742391808	64	5107
2026-01-06 10:41:44.96	291.49	49.65	-47.0	-49.7	17.0	0.00e+00	0	39	0	744488960	65	4931
2026-01-06 10:41:45.96	292.02	49.47	-46.3	-48.8	17.9	0.00e+00	0	39	0	745537536	64	4736
2026-01-06 10:41:46.97	292.55	49.28	-45.3	-47.5	19.2	0.00e+00	0	39	0	747634688	62	4586
2026-01-06 10:41:47.97	293.07	49.10	-45.2	-47.4	19.3	0.00e+00	0	39	0	749731840	61	4767
2026-01-06 10:41:48.97	293.58	48.92	-46.5	-49.0	17.9	0.00e+00	0	39	0	751828992	63	5124
2026-01-06 10:41:49.97	294.09	48.73	-47.4	-50.3	16.6	0.00e+00	0	39	0	752877568	65	5296
2026-01-06 10:41:50.98	294.60	48.54	-47.4	-50.3	16.6	0.00e+00	0	39	0	754974720	66	5027
2026-01-06 10:41:51.98	295.09	48.35	-47.2	-49.9	17.0	0.00e+00	0	39	0	757071872	65	5050
2026-01-06 10:41:52.99	295.59	48.16	-47.5	-50.3	16.5	0.00e+00	0	40	0	759169024	65	5300
2026-01-06 10:41:53.99	296.07	47.97	-48.1	-51.1	15.7	0.00e+00	0	39	0	761266176	67	5207
2026-01-06 10:41:54.99	296.55	47.78	-48.4	-51.5	15.4	0.00e+00	0	39	0	762314752	67	5446
2026-01-06 10:41:56.00	297.03	47.58	-48.8	-52.1	14.9	0.00e+00	0	39	0	764411904	68	5517
2026-01-06 10:41:57.00	297.49	47.38	-48.8	-52.3	14.8	7.00e-07	0	39	0	766509056	69	5290
2026-01-06 10:41:58.00	297.95	47.19	-48.9	-52.5	14.5	0.00e+00	0	39	0	768606208	69	5449
2026-01-06 10:41:59.00	298.41	46.99	-48.9	-52.4	14.8	0.00e+00	0	39	0	770703360	69	5359
2026-01-06 10:42:00.01	298.86	46.79	-49.1	-52.7	14.3	0.00e+00	0	39	0	771751936	69	5575
2026-01-06 10:42:01.01	299.30	46.59	-49.3	-53.1	14.1	1.50e-06	0	39	0	773849088	69	5794
2026-01-06 10:42:02.01	299.74	46.39	-48.9	-52.4	14.7	0.00e+00	0	39	0	775946240	69	5389
2026-01-06 10:42:03.01	300.17	46.19	-47.6	-50.6	16.3	0.00e+00	0	40	0	778043392	67	4881
2026-01-06 10:42:04.01	300.60	45.99	-47.7	-50.7	16.2	0.00e+00	0	39	0	780140544	66	5252
2026-01-06 10:42:05.02	301.02	45.78	-48.5	-51.8	15.1	0.00e+00	0	39	0	781189120	67	5636
2026-01-06 10:42:06.02	301.44	45.58	-50.0	-54.3	12.9	7.00e-07	0	39	0	783286272	70	6290
2026-01-06 10:42:07.02	301.85	45.38	-50.3	-54.8	12.3	6.71e-05	0	39	0	785383424	71	6297
2026-01-06 10:42:08.03	302.26	45.17	-50.3	-54.7	12.3	1.51e-04	0	39	0	787480576	71	6274
2026-01-06 10:42:09.03	302.66	44.97	-50.1	-54.3	13.0	1.15e-04	0	40	0	789577728	71	5934
2026-01-06 10:42:10.03	303.06	44.76	-50.0	-54.1	12.9	3.50e-05	0	39	0	790626304	71	5855
2026-01-06 10:42:11.04	303.45	44.55	-50.4	-54.9	12.3	4.88e-05	0	39	0	792723456	71	6378
2026-01-06 10:42:12.04	303.83	44.35	-51.0	-56.3	10.7	9.21e-04	0	39	0	794820608	72	7094
2026-01-06 10:42:13.04	304.21	44.14	-51.2	-56.8	10.0	5.75e-03	0	39	0	796917760	73	7109
2026-01-06 10:42:14.05	304.59	43.93	-51.2	-56.8	10.2	4.90e-03	0	39	0	799014912	73	7107
2026-01-06 10:42:15.05	304.96	43.73	-51.0	-56.2	10.8	3.94e-03	0	40	0	800063488	73	6628
2026-01-06 10:42:16.05	305.33	43.52	-51.4	-57.3	9.8	2.32e-03	0	40	0	802160640	73	7513
2026-01-06 10:42:17.05	305.69	43.31	-51.5	-57.9	8.9	2.22e-02	0	39	0	804257792	73	8064
2026-01-06 10:42:18.06	306.05	43.11	-51.8	-59.1	7.8	6.62e-02	0	39	0	806354944	74	8722
2026-01-06 10:42:19.06	306.40	42.90	-52.2	-61.2	6.0	2.97e-01	0	39	0	808452096	75	10475
2026-01-06 10:42:20.06	306.75	42.69	-51.3	-57.3	9.5	1.47e-01	0	40	0	809500672	74	7100
2026-01-06 10:42:21.07	307.10	42.48	-50.1	-54.4	12.6	2.85e-04	0	40	0	811597824	72	5677
2026-01-06 10:42:22.07	307.44	42.28	-49.4	-53.1	14.0	9.10e-06	0	39	0	813694976	70	5526
2026-01-06 10:42:23.07	307.77	42.07	-49.2	-52.9	14.2	7.00e-07	0	39	0	815792128	70	5352
2026-01-06 10:42:24.08	308.10	41.86	-50.1	-54.4	12.8	9.90e-06	0	39	0	816840704	70	6368
2026-01-06 10:42:25.08	308.43	41.65	-50.6	-55.5	11.6	4.84e-04	0	39	0	818937856	71	6855
2026-01-06 10:42:26.08	308.75	41.45	-50.3	-55.1	12.0	1.39e-03	0	39	0	821035008	72	6138
2026-01-06 10:42:27.09	309.07	41.24	-49.5	-53.4	13.7	8.77e-05	0	39	0	823132160	71	5361
2026-01-06 10:42:28.09	309.39	41.03	-48.5	-51.7	15.3	0.00e+00	0	39	0	825229312	69	4977
2026-01-06 10:42:29.09	309.70	40.83	-47.7	-50.7	16.2	0.00e+00	0	39	0	826277888	67	4937
2026-01-06 10:42:30.10	310.01	40.62	-47.8	-50.8	16.1	0.00e+00	0	39	0	828375040	67	4990
2026-01-06 10:42:31.10	310.31	40.42	-48.1	-51.1	15.7	0.00e+00	0	39	0	830472192	66	5503
2026-01-06 10:42:32.10	310.61	40.21	-49.9	-54.0	13.1	1.50e-06	0	40	0	832569344	70	6117
2026-01-06 10:42:33.11	310.90	40.01	-50.0	-54.4	12.7	1.94e-04	0	39	0	834666496	71	5999
2026-01-06 10:42:34.11	311.20	39.80	-48.5	-51.8	15.3	1.06e-05	0	39	0	835715072	68	5294
2026-01-06 10:42:35.11	311.48	39.60	-46.9	-49.6	17.1	0.00e+00	0	40	0	837812224	65	4880
2026-01-06 10:42:36.11	311.77	39.40	-46.3	-48.8	17.9	0.00e+00	0	39	0	839909376	64	4751
2026-01-06 10:42:37.11	312.05	39.19	-46.9	-49.6	17.2	0.00e+00	0	40	0	842006528	64	5177
2026-01-06 10:42:38.12	312.33	38.99	-48.2	-51.3	15.5	0.00e+00	0	39	0	844103680	66	5645
2026-01-06 10:42:39.12	312.60	38.79	-49.8	-54.0	13.1	4.50e-06	0	39	0	845152256	70	6098
2026-01-06 10:42:40.13	312.87	38.58	-50.1	-54.7	12.3	3.20e-04	0	39	0	847249408	71	6269
2026-01-06 10:42:41.13	313.14	38.38	-49.3	-53.1	13.9	7.09e-05	0	39	0	849346560	70	5490
2026-01-06 10:42:42.13	313.41	38.18	-48.4	-51.6	15.4	0.00e+00	0	39	0	851443712	68	5191
2026-01-06 10:42:43.14	313.67	37.98	-47.2	-49.9	16.9	0.00e+00	0	40	0	853540864	66	4770
2026-01-06 10:42:44.14	313.93	37.78	-46.0	-48.3	18.3	0.00e+00	0	39	0	854589440	64	4487
2026-01-06 10:42:45.14	314.18	37.58	-46.0	-48.3	18.4	0.00e+00	0	39	0	856686592	63	4754
2026-01-06 10:42:46.15	314.44	37.38	-46.9	-49.5	17.3	0.00e+00	0	39	0	858783744	64	5146
2026-01-06 10:42:47.15	314.68	37.19	-48.2	-51.3	15.7	0.00e+00	0	39	0	860880896	66	5630
2026-01-06 10:42:48.16	314.93	36.99	-49.1	-52.8	14.3	7.00e-07	0	39	0	862978048	69	5622
2026-01-06 10:42:49.16	315.17	36.79	-49.0	-52.7	14.3	3.00e-06	0	39	0	864026624	69	5560
2026-01-06 10:42:50.16	315.41	36.60	-48.2	-51.5	15.5	0.00e+00	0	39	0	866123776	68	5108
2026-01-06 10:42:51.16	315.65	36.40	-47.3	-50.2	16.7	0.00e+00	0	39	0	868220928	66	4931
2026-01-06 10:42:52.17	315.89	36.20	-46.4	-48.9	17.8	0.00e+00	0	40	0	870318080	64	4806
2026-01-06 10:42:53.17	316.12	36.01	-45.8	-48.2	18.5	0.00e+00	0	39	0	871366656	63	4654
2026-01-06 10:42:54.18	316.35	35.82	-45.8	-48.1	18.6	0.00e+00	0	40	0	873463808	62	4922
2026-01-06 10:42:55.18	316.58	35.62	-46.7	-49.3	17.4	0.00e+00	0	39	0	875560960	64	5019
2026-01-06 10:42:56.18	316.80	35.43	-48.0	-51.2	15.8	0.00e+00	0	39	0	877658112	66	5541
2026-01-06 10:42:57.19	317.02	35.24	-48.9	-52.4	14.7	7.00e-07	0	39	0	879755264	68	5716
2026-01-06 10:42:58.19	317.24	35.05	-48.7	-52.1	15.0	7.00e-07	0	39	0	880803840	68	5512
2026-01-06 10:42:59.19	317.46	34.86	-48.4	-51.7	15.4	0.00e+00	0	39	0	882900992	68	5233
2026-01-06 10:43:00.20	317.67	34.67	-47.7	-50.7	16.2	0.00e+00	0	40	0	884998144	67	4938
2026-01-06 10:43:01.20	317.88	34.48	-47.3	-50.1	16.7	0.00e+00	0	40	0	887095296	66	4897
2026-01-06 10:43:02.20	318.09	34.29	-47.4	-50.3	16.6	0.00e+00	0	39	0	889192448	66	4999
2026-01-06 10:43:03.21	318.30	34.11	-47.4	-50.3	16.5	0.00e+00	0	39	0	890241024	66	5029
2026-01-06 10:43:04.21	318.50	33.92	-47.6	-50.9	16.0	0.00e+00	0	39	0	892338176	66	5358
2026-01-06 10:43:05.21	318.71	33.73	-48.1	-51.7	15.2	0.00e+00	0	39	0	894435328	66	5879
2026-01-06 10:43:06.21	318.91	33.55	-48.4	-52.4	14.4	0.00e+00	0	40	0	896532480	67	6027
2026-01-06 10:43:07.22	319.11	33.36	-48.3	-52.3	14.6	0.00e+00	0	39	0	898629632	67	5974
2026-01-06 10:43:08.22	319.30	33.18	-48.6	-52.9	14.1	1.50e-06	0	39	0	899678208	67	6360
2026-01-06 10:43:09.22	319.49	33.00	-48.5	-52.3	14.7	0.00e+00	0	39	0	901775360	68	5634
2026-01-06 10:43:10.23	319.69	32.82	-48.2	-51.6	15.4	0.00e+00	0	39	0	903872512	68	5194
2026-01-06 10:43:11.23	319.88	32.64	-47.6	-50.6	16.2	0.00e+00	0	39	0	905969664	67	4889
2026-01-06 10:43:12.23	320.06	32.46	-46.9	-49.6	17.1	0.00e+00	0	39	0	908066816	65	4924
2026-01-06 10:43:13.24	320.25	32.28	-47.1	-49.8	17.0	0.00e+00	0	39	0	909115392	65	5000
2026-01-06 10:43:14.24	320.43	32.10	-47.1	-49.9	16.9	0.00e+00	0	39	0	911212544	65	5065
2026-01-06 10:43:15.24	320.61	31.92	-47.1	-49.8	16.9	0.00e+00	0	40	0	913309696	65	5017
2026-01-06 10:43:16.24	320.79	31.74	-47.6	-50.5	16.3	0.00e+00	0	39	0	915406848	65	5445
2026-01-06 10:43:17.24	320.97	31.57	-48.1	-51.3	15.6	0.00e+00	0	40	0	916455424	66	5637
2026-01-06 10:43:18.25	321.15	31.39	-48.5	-51.9	14.9	0.00e+00	0	40	0	918552576	67	5700
2026-01-06 10:43:19.25	321.32	31.22	-48.9	-52.7	14.3	7.00e-07	0	40	0	920649728	68	5899
2026-01-06 10:43:20.26	321.49	31.04	-49.1	-53.3	13.7	4.50e-06	0	40	0	922746880	68	6303
2026-01-06 10:43:21.26	321.66	30.87	-48.9	-53.2	13.8	9.90e-06	0	40	0	924844032	68	6221
2026-01-06 10:43:22.26	321.83	30.70	-48.5	-52.6	14.5	1.50e-06	0	39	0	926941184	68	5845
2026-01-06 10:43:23.26	322.00	30.52	-48.2	-52.1	14.9	1.50e-06	0	40	0	927989760	68	5495
2026-01-06 10:43:24.27	322.16	30.35	-47.6	-51.1	15.6	0.00e+00	0	39	0	930086912	67	5199
2026-01-06 10:43:25.27	322.32	30.18	-47.6	-51.1	15.7	0.00e+00	0	39	0	932184064	67	5198
2026-01-06 10:43:26.27	322.49	30.01	-47.5	-50.8	16.0	0.00e+00	0	39	0	934281216	66	5318
2026-01-06 10:43:27.28	322.65	29.84	-47.4	-50.6	16.2	0.00e+00	0	39	0	935329792	66	5168
2026-01-06 10:43:28.28	322.80	29.68	-48.1	-51.4	15.5	0.00e+00	0	40	0	937426944	66	5709
2026-01-06 10:43:29.29	322.96	29.51	-48.1	-51.4	15.4	0.00e+00	0	40	0	939524096	67	5384
2026-01-06 10:43:30.29	323.12	29.34	-48.5	-52.0	14.8	0.00e+00	0	40	0	941621248	67	5766
2026-01-06 10:43:31.30	323.27	29.17	-48.9	-52.5	14.6	1.50e-06	0	40	0	943718400	68	5735
2026-01-06 10:43:32.30	323.42	29.01	-49.1	-52.8	14.3	0.00e+00	0	40	0	944766976	68	5931
2026-01-06 10:43:33.30	323.57	28.85	-49.1	-52.8	14.2	2.20e-06	0	39	0	946864128	68	5983
2026-01-06 10:43:34.31	323.72	28.68	-48.9	-52.6	14.4	1.50e-06	0	40	0	948961280	68	5840
2026-01-06 10:43:35.31	323.87	28.52	-48.9	-52.6	14.5	0.00e+00	0	39	0	951058432	68	5844
2026-01-06 10:43:36.31	324.02	28.36	-48.2	-51.6	15.4	0.00e+00	0	39	0	953155584	68	5197
2026-01-06 10:43:37.31	324.16	28.20	-48.1	-51.5	15.5	0.00e+00	0	40	0	954204160	68	5111
2026-01-06 10:43:38.32	324.31	28.04	-47.3	-50.4	16.4	0.00e+00	0	40	0	956301312	66	5064
2026-01-06 10:43:39.32	324.45	27.88	-46.7	-49.6	17.2	0.00e+00	0	40	0	958398464	65	4893
2026-01-06 10:43:40.33	324.59	27.72	-46.3	-49.1	17.6	0.00e+00	0	40	0	960495616	64	4888
2026-01-06 10:43:41.33	324.73	27.56	-45.5	-48.0	18.6	0.00e+00	0	40	0	962592768	63	4592
2026-01-06 10:43:42.33	324.87	27.40	-45.6	-48.1	18.6	0.00e+00	0	39	0	963641344	62	4894
2026-01-06 10:43:43.34	325.00	27.24	-45.6	-48.1	18.6	0.00e+00	0	39	0	965738496	62	4901
2026-01-06 10:43:44.34	325.14	27.09	-45.7	-48.2	18.5	0.00e+00	0	40	0	967835648	62	4961
2026-01-06 10:43:45.34	325.27	26.93	-46.1	-48.9	17.8	0.00e+00	0	39	0	969932800	63	5052
2026-01-06 10:43:46.34	325.40	26.78	-46.3	-49.2	17.6	0.00e+00	0	40	0	972029952	63	5222
2026-01-06 10:43:47.35	325.54	26.62	-46.5	-49.4	17.4	0.00e+00	0	39	0	973078528	63	5395
2026-01-06 10:43:48.35	325.67	26.47	-46.9	-50.0	16.7	0.00e+00	0	40	0	975175680	64	5461
2026-01-06 10:43:49.35	325.79	26.32	-47.3	-50.6	16.2	0.00e+00	0	40	0	977272832	65	5511
2026-01-06 10:43:50.36	325.92	26.17	-47.7	-51.0	15.7	0.00e+00	0	40	0	979369984	66	5441
2026-01-06 10:43:51.36	326.05	26.02	-47.9	-51.2	15.6	0.00e+00	0	39	0	981467136	66	5555
2026-01-06 10:43:52.36	326.18	25.87	-47.8	-51.1	15.7	0.00e+00	0	40	0	982515712	66	5502
2026-01-06 10:43:53.36	326.30	25.72	-47.7	-50.8	16.0	0.00e+00	0	40	0	984612864	66	5300
2026-01-06 10:43:54.37	326.42	25.57	-47.5	-50.5	16.3	0.00e+00	0	39	0	986710016	66	5147
2026-01-06 10:43:55.37	326.55	25.42	-47.0	-49.8	16.9	0.00e+00	0	40	0	988807168	65	5031
2026-01-06 10:43:56.37	326.67	25.27	-46.7	-49.4	17.2	0.00e+00	0	40	0	989855744	65	4796
2026-01-06 10:43:57.38	326.79	25.13	-46.4	-49.1	17.6	0.00e+00	0	40	0	991952896	64	4881
2026-01-06 10:43:58.38	326.91	24.98	-46.0	-48.6	18.0	0.00e+00	0	39	0	994050048	64	4607
2026-01-06 10:43:59.38	327.02	24.84	-46.0	-48.5	18.2	0.00e+00	0	39	0	996147200	63	4835
2026-01-06 10:44:00.39	327.14	24.69	-46.2	-48.7	18.0	0.00e+00	0	39	0	998244352	63	4964
2026-01-06 10:44:01.39	327.26	24.55	-45.9	-48.5	18.2	0.00e+00	0	39	0	999292928	63	4821
2026-01-06 10:44:02.39	327.37	24.40	-46.1	-48.8	17.9	0.00e+00	0	40	0	1001390080	63	5021
2026-01-06 10:44:03.39	327.48	24.26	-46.2	-49.1	17.7	0.00e+00	0	40	0	1003487232	63	5161
2026-01-06 10:44:04.40	327.60	24.12	-46.3	-49.1	17.6	0.00e+00	0	40	0	1005584384	63	5207
2026-01-06 10:44:05.40	327.71	23.98	-46.6	-49.7	17.0	0.00e+00	0	40	0	1007681536	64	5255
2026-01-06 10:44:06.40	327.82	23.84	-46.7	-49.8	16.9	0.00e+00	0	39	0	1008730112	64	5328
2026-01-06 10:44:07.41	327.93	23.70	-46.8	-49.9	16.8	0.00e+00	0	40	0	1010827264	64	5398
2026-01-06 10:44:08.41	328.04	23.56	-47.3	-50.5	16.2	0.00e+00	0	39	0	1012924416	65	5443
2026-01-06 10:44:09.41	328.15	23.42	-46.9	-49.9	16.8	0.00e+00	0	39	0	1015021568	65	5090
2026-01-06 10:44:10.42	328.26	23.28	-47.0	-50.0	16.7	0.00e+00	0	40	0	1017118720	65	5110
2026-01-06 10:44:11.42	328.36	23.14	-47.2	-50.2	16.5	0.00e+00	0	39	0	1018167296	65	5252
2026-01-06 10:44:12.42	328.47	23.01	-47.3	-50.3	16.4	0.00e+00	0	39	0	1020264448	65	5312
2026-01-06 10:44:13.42	328.57	22.87	-47.4	-50.3	16.4	0.00e+00	0	39	0	1022361600	65	5312
2026-01-06 10:44:14.43	328.68	22.74	-47.2	-50.1	16.6	0.00e+00	0	39	0	1024458752	65	5190
2026-01-06 10:44:15.43	328.78	22.60	-47.0	-49.8	16.8	0.00e+00	0	40	0	1026555904	65	5027
2026-01-06 10:44:16.43	328.88	22.47	-47.0	-49.8	16.9	0.00e+00	0	39	0	1027604480	65	4999
2026-01-06 10:44:17.43	328.98	22.33	-46.5	-49.2	17.4	0.00e+00	0	40	0	1029701632	65	4686
2026-01-06 10:44:18.44	329.08	22.20	-46.3	-48.9	17.7	0.00e+00	0	39	0	1031798784	64	4780
2026-01-06 10:44:19.44	329.18	22.07	-46.4	-49.0	17.6	0.00e+00	0	39	0	1033895936	64	4855
2026-01-06 10:44:20.44	329.28	21.94	-46.2	-48.8	17.8	0.00e+00	0	39	0	1035993088	64	4743
2026-01-06 10:44:21.44	329.38	21.81	-46.2	-48.8	17.9	0.00e+00	0	40	0	1037041664	63	5002
2026-01-06 10:44:22.44	329.47	21.68	-46.2	-48.8	17.9	0.00e+00	0	40	0	1039138816	63	5023
2026-01-06 10:44:23.45	329.57	21.55	-46.3	-49.0	17.7	0.00e+00	0	40	0	1041235968	63	5112
2026-01-06 10:44:24.45	329.67	21.42	-46.4	-49.1	17.6	0.00e+00	0	40	0	1043333120	63	5218
2026-01-06 10:44:25.45	329.76	21.29	-46.6	-49.6	17.2	0.00e+00	0	40	0	1045430272	63	5488
2026-01-06 10:44:26.46	329.85	21.16	-46.4	-49.4	17.2	0.00e+00	0	40	0	1046478848	64	5078
2026-01-06 10:44:27.46	329.95	21.03	-46.8	-50.0	16.7	0.00e+00	0	39	0	1048576000	64	5450
2026-01-06 10:44:28.46	330.04	20.91	-47.0	-50.3	16.4	0.00e+00	0	39	0	1050673152	64	5640
2026-01-06 10:44:29.46	330.13	20.78	-47.2	-50.7	16.1	0.00e+00	0	40	0	1052770304	64	5865
2026-01-06 10:44:30.47	330.22	20.65	-47.4	-51.0	15.7	0.00e+00	0	39	0	1053818880	65	5760
2026-01-06 10:44:31.47	330.31	20.53	-47.4	-51.0	15.8	0.00e+00	0	39	0	1055916032	65	5734
2026-01-06 10:44:32.47	330.40	20.40	-47.3	-50.7	16.0	0.00e+00	0	40	0	1058013184	65	5583
2026-01-06 10:44:33.47	330.49	20.28	-47.3	-50.7	16.0	0.00e+00	0	39	0	1060110336	65	5589
2026-01-06 10:44:34.47	330.58	20.16	-47.2	-50.4	16.3	0.00e+00	0	40	0	1062207488	65	5373
2026-01-06 10:44:35.48	330.67	20.03	-47.2	-50.3	16.4	0.00e+00	0	39	0	1063256064	65	5319
2026-01-06 10:44:36.48	330.75	19.91	-47.1	-50.1	16.6	0.00e+00	0	39	0	1065353216	65	5165
2026-01-06 10:44:37.48	330.84	19.79	-46.8	-49.7	17.0	0.00e+00	0	39	0	1067450368	65	4938
2026-01-06 10:44:38.49	330.93	19.67	-46.8	-49.6	17.0	0.00e+00	0	39	0	1069547520	65	4899
2026-01-06 10:44:39.49	331.01	19.55	-46.5	-49.2	17.4	0.00e+00	0	39	0	1071644672	65	4669
2026-01-06 10:44:40.49	331.10	19.43	-46.3	-48.9	17.7	0.00e+00	0	40	0	1072693248	64	4792
2026-01-06 10:44:41.50	331.18	19.30	-46.4	-49.0	17.6	0.00e+00	0	39	0	1074790400	64	4833
2026-01-06 10:44:42.50	331.26	19.19	-46.2	-48.8	17.8	0.00e+00	0	39	0	1076887552	64	4718
2026-01-06 10:44:43.50	331.35	19.07	-46.4	-48.9	17.7	0.00e+00	0	39	0	1078984704	64	4801
2026-01-06 10:44:44.51	331.43	18.95	-46.3	-48.8	17.7	0.00e+00	0	39	0	1081081856	64	4745
2026-01-06 10:44:45.51	331.51	18.83	-46.2	-48.7	17.8	0.00e+00	0	39	0	1082130432	64	4694
2026-01-06 10:44:46.51	331.59	18.71	-46.4	-49.1	17.6	0.00e+00	0	40	0	1084227584	64	4873
2026-01-06 10:44:47.52	331.67	18.60	-46.5	-49.2	17.4	0.00e+00	0	39	0	1086324736	64	4960
2026-01-06 10:44:48.52	331.75	18.48	-46.6	-49.3	17.3	0.00e+00	0	39	0	1088421888	64	5018
2026-01-06 10:44:49.53	331.83	18.36	-46.8	-49.6	17.0	0.00e+00	0	39	0	1090519040	64	5212
2026-01-06 10:44:50.53	331.91	18.25	-46.8	-49.7	16.9	0.00e+00	0	39	0	1091567616	64	5260
2026-01-06 10:44:51.53	331.99	18.13	-47.0	-50.0	16.6	0.00e+00	0	39	0	1093664768	64	5449
2026-01-06 10:44:52.53	332.06	18.02	-46.7	-49.7	16.9	0.00e+00	0	40	0	1095761920	64	5261
2026-01-06 10:44:53.54	332.14	17.91	-46.7	-49.8	16.8	0.00e+00	0	39	0	1097859072	64	5309
2026-01-06 10:44:54.54	332.22	17.79	-46.8	-50.0	16.7	0.00e+00	0	39	0	1098907648	64	5457
2026-01-06 10:44:55.55	332.29	17.68	-46.6	-49.7	17.0	0.00e+00	0	39	0	1101004800	64	5227
2026-01-06 10:44:56.55	332.37	17.57	-46.5	-49.5	17.1	0.00e+00	0	39	0	1103101952	64	5134
2026-01-06 10:44:57.55	332.44	17.46	-46.5	-49.5	17.1	0.00e+00	0	39	0	1105199104	64	5109
2026-01-06 10:44:58.56	332.52	17.34	-46.6	-49.5	17.1	0.00e+00	0	39	0	1107296256	64	5144
2026-01-06 10:44:59.56	332.59	17.23	-46.5	-49.4	17.2	0.00e+00	0	39	0	1109393408	64	5048
2026-01-06 10:45:00.56	332.66	17.12	-46.0	-48.7	17.8	0.00e+00	0	40	0	1110441984	64	4704
2026-01-06 10:45:01.56	332.74	17.01	-45.9	-48.6	18.0	0.00e+00	0	39	0	1112539136	63	4883
2026-01-06 10:45:02.56	332.81	16.90	-45.8	-48.4	18.2	0.00e+00	0	39	0	1114636288	63	4795
2026-01-06 10:45:03.57	332.88	16.79	-45.6	-48.2	18.3	0.00e+00	0	39	0	1116733440	63	4694
2026-01-06 10:45:04.57	332.95	16.69	-45.5	-48.0	18.5	0.00e+00	0	39	0	1117782016	63	4589
2026-01-06 10:45:05.57	333.02	16.58	-45.5	-48.1	18.5	0.00e+00	0	39	0	1119879168	63	4612
2026-01-06 10:45:06.58	333.09	16.47	-45.4	-48.0	18.5	0.00e+00	0	39	0	1121976320	62	4854
2026-01-06 10:45:07.58	333.16	16.36	-45.4	-48.0	18.5	0.00e+00	0	39	0	1124073472	62	4820
2026-01-06 10:45:08.58	333.23	16.26	-45.2	-47.8	18.7	0.00e+00	0	39	0	1126170624	62	4708
2026-01-06 10:45:09.59	333.30	16.15	-45.2	-47.7	18.8	0.00e+00	0	39	0	1127219200	62	4702
2026-01-06 10:45:10.59	333.37	16.04	-45.3	-47.8	18.7	0.00e+00	0	39	0	1129316352	62	4748
2026-01-06 10:45:11.59	333.44	15.94	-45.4	-48.0	18.5	0.00e+00	0	39	0	1131413504	62	4819
2026-01-06 10:45:12.59	333.50	15.83	-45.6	-48.2	18.4	0.00e+00	0	39	0	1133510656	62	4927
2026-01-06 10:45:13.60	333.57	15.73	-45.5	-48.0	18.5	0.00e+00	0	39	0	1135607808	62	4867
2026-01-06 10:45:14.60	333.64	15.62	-45.7	-48.3	18.3	0.00e+00	0	39	0	1136656384	62	4996
2026-01-06 10:45:15.60	333.70	15.52	-45.8	-48.3	18.2	0.00e+00	0	39	0	1138753536	62	5009
2026-01-06 10:45:16.61	333.77	15.41	-45.8	-48.4	18.2	0.00e+00	0	39	0	1140850688	62	5063
2026-01-06 10:45:17.61	333.83	15.31	-46.1	-48.6	18.0	0.00e+00	0	39	0	1142947840	62	5205
2026-01-06 10:45:18.61	333.90	15.21	-46.3	-48.9	17.7	0.00e+00	0	39	0	1145044992	63	5090
2026-01-06 10:45:19.61	333.96	15.11	-46.4	-49.0	17.6	0.00e+00	0	39	0	1146093568	63	5157
2026-01-06 10:45:20.62	334.03	15.00	-46.6	-49.3	17.4	0.00e+00	0	39	0	1148190720	63	5291
2026-01-06 10:45:21.62	334.09	14.90	-46.7	-49.4	17.1	0.00e+00	0	39	0	1150287872	64	5091
2026-01-06 10:45:22.62	334.15	14.80	-46.9	-49.7	16.8	0.00e+00	0	40	0	1152385024	64	5272
2026-01-06 10:45:23.62	334.22	14.70	-46.9	-49.8	16.8	0.00e+00	0	39	0	1154482176	64	5319
2026-01-06 10:45:24.63	334.28	14.60	-47.0	-50.0	16.6	0.00e+00	0	39	0	1155530752	64	5451
2026-01-06 10:45:25.63	334.34	14.50	-47.2	-50.4	16.3	0.00e+00	0	39	0	1157627904	65	5346
2026-01-06 10:45:26.63	334.40	14.40	-47.4	-50.6	16.0	0.00e+00	0	39	0	1159725056	65	5481
2026-01-06 10:45:27.64	334.46	14.30	-47.5	-50.8	15.8	0.00e+00	0	39	0	1161822208	65	5604
2026-01-06 10:45:28.64	334.52	14.20	-47.7	-51.1	15.5	0.00e+00	0	39	0	1162870784	66	5517
2026-01-06 10:45:29.64	334.59	14.11	-47.8	-51.3	15.3	0.00e+00	0	39	0	1164967936	66	5637
2026-01-06 10:45:30.65	334.65	14.01	-47.9	-51.5	15.1	0.00e+00	0	39	0	1167065088	66	5751
2026-01-06 10:45:31.65	334.71	13.91	-48.0	-51.6	15.0	0.00e+00	0	39	0	1169162240	66	5846
2026-01-06 10:45:32.65	334.76	13.81	-48.0	-51.5	15.1	0.00e+00	0	39	0	1171259392	66	5781
2026-01-06 10:45:33.66	334.82	13.71	-48.1	-51.7	15.0	0.00e+00	0	39	0	1172307968	66	5873
2026-01-06 10:45:34.66	334.88	13.62	-48.1	-51.6	15.0	0.00e+00	0	40	0	1174405120	67	5508
2026-01-06 10:45:35.66	334.94	13.52	-48.0	-51.6	15.0	7.00e-07	0	39	0	1176502272	67	5512
2026-01-06 10:45:36.67	335.00	13.43	-48.1	-51.6	15.0	0.00e+00	0	39	0	1178599424	67	5524
2026-01-06 10:45:37.67	335.06	13.33	-48.0	-51.5	15.2	0.00e+00	0	39	0	1180696576	67	5407
2026-01-06 10:45:38.68	335.11	13.23	-47.9	-51.4	15.2	0.00e+00	0	39	0	1181745152	67	5345
2026-01-06 10:45:39.68	335.17	13.14	-47.8	-51.1	15.5	0.00e+00	0	39	0	1183842304	67	5204
2026-01-06 10:45:40.68	335.23	13.05	-47.5	-50.7	15.8	0.00e+00	0	39	0	1185939456	67	4960
2026-01-06 10:45:41.68	335.28	12.95	-47.6	-50.9	15.7	0.00e+00	0	39	0	1188036608	67	5051
2026-01-06 10:45:42.68	335.34	12.86	-47.5	-50.6	16.0	0.00e+00	0	39	0	1190133760	66	5198
2026-01-06 10:45:43.69	335.40	12.76	-47.5	-50.6	16.0	0.00e+00	0	39	0	1191182336	66	5185
2026-01-06 10:45:44.69	335.45	12.67	-47.1	-50.1	16.4	0.00e+00	0	39	0	1193279488	66	4892
2026-01-06 10:45:45.69	335.51	12.58	-46.9	-49.9	16.6	0.00e+00	0	39	0	1195376640	65	5059
2026-01-06 10:45:46.70	335.56	12.49	-47.0	-50.0	16.5	0.00e+00	0	40	0	1197473792	65	5159
2026-01-06 10:45:47.70	335.61	12.39	-46.8	-49.8	16.7	0.00e+00	0	39	0	1199570944	65	5000
2026-01-06 10:45:48.70	335.67	12.30	-46.5	-49.3	17.1	0.00e+00	0	39	0	1200619520	65	4746
2026-01-06 10:45:49.71	335.72	12.21	-46.6	-49.6	16.9	0.00e+00	0	40	0	1202716672	64	5166
2026-01-06 10:45:50.71	335.78	12.12	-46.5	-49.4	17.1	0.00e+00	0	40	0	1204813824	64	5075
2026-01-06 10:45:51.71	335.83	12.03	-46.2	-49.2	17.2	0.00e+00	0	39	0	1206910976	64	4952
2026-01-06 10:45:52.72	335.88	11.94	-46.1	-49.0	17.4	0.00e+00	0	39	0	1209008128	64	4848
2026-01-06 10:45:53.72	335.93	11.85	-46.1	-49.0	17.4	0.00e+00	0	39	0	1210056704	64	4870
2026-01-06 10:45:54.72	335.99	11.76	-46.1	-49.0	17.4	0.00e+00	0	39	0	1212153856	64	4863
2026-01-06 10:45:55.72	336.04	11.67	-46.1	-49.0	17.4	0.00e+00	0	39	0	1214251008	64	4857
2026-01-06 10:45:56.73	336.09	11.58	-46.1	-49.0	17.4	0.00e+00	0	39	0	1216348160	64	4861
2026-01-06 10:45:57.73	336.14	11.49	-46.1	-48.9	17.6	0.00e+00	0	39	0	1217396736	63	5097
2026-01-06 10:45:58.73	336.19	11.40	-46.0	-48.9	17.6	0.00e+00	0	39	0	1219493888	63	5074
2026-01-06 10:45:59.74	336.24	11.31	-46.0	-48.9	17.6	0.00e+00	0	39	0	1221591040	63	5080
2026-01-06 10:46:00.74	336.29	11.23	-46.0	-48.9	17.6	0.00e+00	0	39	0	1223688192	63	5059
2026-01-06 10:46:01.74	336.34	11.14	-46.0	-48.9	17.6	0.00e+00	0	40	0	1225785344	63	5060
