passes_logs/2026/01/06/T1/T1__20260106_033103_FENGYUN_3E_rec.log

#Pass ID: 20260106_033103_FENGYUN 3E
#Satellite: FENGYUN 3E
#Configuration: FENGYUN 3E
#almurnet v.1.7.20251203
#Start time: 2026-01-06 03:31:05

#Version: 2.0.20230620
#Station: T1
#Location: 37.570604 lon 55.790049 lat
#TLE: 1 49008U 21062A   26005.56299987  .00000339  00000+0  18069-3 0  9991
#TLE: 2 49008  98.7472  10.8019 0001562 158.0357 202.0886 14.19884907233502

#Time	Az	El	Level	Level2	SNR	BER	BlckErr	Temp	State	Recorded	gain1	gain2
2026-01-06 03:31:05.75	19.56	5.14	-50.9	-62.0	3.8	8.46e-01	0	37	0	0	71	13490
2026-01-06 03:31:06.75	19.58	5.21	-50.9	-62.0	3.8	8.46e-01	0	36	104	0	72	12688
2026-01-06 03:31:07.75	19.61	5.28	-50.9	-61.9	3.8	8.47e-01	0	37	104	0	72	12659
2026-01-06 03:31:08.76	19.64	5.35	-50.9	-61.9	3.8	8.47e-01	0	37	104	0	72	12664
2026-01-06 03:31:09.76	19.67	5.42	-50.9	-62.0	3.8	8.48e-01	0	37	104	0	72	12679
2026-01-06 03:31:10.76	19.70	5.49	-50.9	-61.9	3.8	8.47e-01	0	37	104	0	72	12614
2026-01-06 03:31:11.77	19.73	5.57	-50.9	-62.0	3.8	8.47e-01	0	37	104	0	72	12714
2026-01-06 03:31:12.77	19.76	5.64	-50.9	-62.0	3.8	8.48e-01	0	37	104	0	72	12717
2026-01-06 03:31:13.78	19.79	5.71	-50.9	-62.0	3.8	8.46e-01	0	37	104	0	72	12696
2026-01-06 03:31:14.78	19.82	5.78	-50.9	-61.9	3.8	8.47e-01	0	37	104	0	72	12636
2026-01-06 03:31:15.78	19.85	5.85	-50.9	-62.0	3.8	8.47e-01	0	37	104	0	72	12690
2026-01-06 03:31:16.79	19.88	5.93	-50.9	-62.0	3.8	8.48e-01	0	37	104	0	72	12692
2026-01-06 03:31:17.79	19.91	6.00	-50.9	-62.0	3.8	8.47e-01	0	37	104	0	72	12695
2026-01-06 03:31:18.79	19.94	6.07	-50.9	-61.9	3.8	8.46e-01	0	37	104	0	72	12641
2026-01-06 03:31:19.80	19.97	6.14	-50.9	-62.0	3.8	8.46e-01	0	37	104	0	72	12720
2026-01-06 03:31:20.80	20.00	6.22	-50.9	-62.0	3.8	8.46e-01	0	37	104	0	72	12703
2026-01-06 03:31:21.81	20.03	6.29	-50.9	-62.0	3.8	8.47e-01	0	37	104	0	72	12716
2026-01-06 03:31:22.81	20.06	6.36	-50.9	-62.0	3.8	8.46e-01	0	37	104	0	72	12692
2026-01-06 03:31:23.82	20.09	6.44	-50.9	-62.0	3.8	8.46e-01	0	37	104	0	72	12669
2026-01-06 03:31:24.82	20.13	6.51	-50.9	-62.0	3.8	8.47e-01	0	37	104	0	72	12753
2026-01-06 03:31:25.82	20.16	6.59	-50.9	-62.0	3.8	8.48e-01	0	37	104	0	72	12703
2026-01-06 03:31:26.83	20.19	6.66	-50.9	-62.0	3.8	8.47e-01	0	37	104	0	72	12765
2026-01-06 03:31:27.83	20.22	6.74	-50.9	-62.0	3.8	8.48e-01	0	38	104	0	72	12710
2026-01-06 03:31:28.84	20.25	6.81	-50.9	-62.0	3.8	8.46e-01	0	38	104	0	72	12736
2026-01-06 03:31:29.84	20.28	6.89	-50.9	-62.0	3.8	8.46e-01	0	38	104	0	72	12697
2026-01-06 03:31:30.85	20.31	6.96	-50.9	-62.0	3.8	8.48e-01	0	38	104	0	72	12712
2026-01-06 03:31:31.85	20.35	7.04	-50.9	-62.0	3.8	8.47e-01	0	38	104	0	72	12709
2026-01-06 03:31:32.85	20.38	7.11	-50.9	-62.0	3.8	8.46e-01	0	38	104	0	72	12731
2026-01-06 03:31:33.86	20.41	7.19	-50.9	-61.9	3.8	8.47e-01	0	38	104	0	72	12630
2026-01-06 03:31:34.86	20.44	7.27	-50.9	-61.9	3.8	8.48e-01	0	38	104	0	72	12662
2026-01-06 03:31:35.86	20.48	7.34	-50.9	-62.0	3.8	8.48e-01	0	38	104	0	72	12708
2026-01-06 03:31:36.87	20.51	7.42	-50.9	-62.0	3.8	8.47e-01	0	38	104	0	72	12709
2026-01-06 03:31:37.87	20.54	7.49	-50.9	-61.9	3.8	8.48e-01	0	38	104	0	72	12649
2026-01-06 03:31:38.88	20.58	7.57	-50.9	-62.0	3.8	8.47e-01	0	38	104	0	72	12755
2026-01-06 03:31:39.88	20.61	7.65	-50.9	-62.0	3.8	8.47e-01	0	38	104	0	72	12774
2026-01-06 03:31:40.88	20.64	7.73	-50.9	-61.9	3.8	8.47e-01	0	38	104	0	72	12655
2026-01-06 03:31:41.89	20.68	7.81	-50.9	-62.0	3.8	8.46e-01	0	38	104	0	72	12677
2026-01-06 03:31:42.89	20.71	7.88	-50.9	-62.0	3.8	8.47e-01	0	38	104	0	72	12757
2026-01-06 03:31:43.90	20.74	7.96	-50.9	-62.0	3.8	8.47e-01	0	38	104	0	72	12725
2026-01-06 03:31:44.90	20.78	8.04	-50.9	-62.0	3.8	8.46e-01	0	38	104	0	72	12722
2026-01-06 03:31:45.90	20.81	8.12	-50.9	-62.0	3.8	8.48e-01	0	38	104	0	72	12692
2026-01-06 03:31:46.91	20.85	8.20	-50.9	-62.0	3.8	8.46e-01	0	38	104	0	72	12753
2026-01-06 03:31:47.91	20.88	8.28	-50.9	-62.0	3.8	8.46e-01	0	38	104	0	72	12740
2026-01-06 03:31:48.92	20.92	8.36	-50.9	-62.0	3.8	8.46e-01	0	38	104	0	72	12712
2026-01-06 03:31:49.92	20.95	8.44	-50.9	-62.0	3.8	8.47e-01	0	38	104	0	72	12795
2026-01-06 03:31:50.93	20.99	8.52	-50.9	-62.0	3.8	8.47e-01	0	38	104	0	72	12762
2026-01-06 03:31:51.93	21.02	8.60	-50.9	-62.0	3.8	8.47e-01	0	38	104	0	72	12749
2026-01-06 03:31:52.93	21.06	8.68	-50.9	-62.1	3.8	8.47e-01	0	38	104	0	72	12822
2026-01-06 03:31:53.94	21.09	8.76	-50.9	-62.0	3.8	8.46e-01	0	38	104	0	72	12737
2026-01-06 03:31:54.94	21.13	8.84	-50.9	-62.0	3.8	8.46e-01	0	38	104	0	72	12737
2026-01-06 03:31:55.95	21.16	8.92	-50.9	-62.0	3.8	8.46e-01	0	38	104	0	72	12765
2026-01-06 03:31:56.95	21.20	9.00	-50.9	-62.0	3.8	8.47e-01	0	38	104	0	72	12747
2026-01-06 03:31:57.96	21.24	9.08	-50.9	-62.0	3.8	8.47e-01	0	38	104	0	72	12722
2026-01-06 03:31:58.96	21.27	9.17	-50.9	-62.0	3.8	8.48e-01	0	39	104	0	72	12767
2026-01-06 03:31:59.97	21.31	9.25	-50.9	-62.0	3.8	8.47e-01	0	38	104	0	72	12753
2026-01-06 03:32:00.97	21.35	9.33	-50.9	-62.0	3.8	8.48e-01	0	38	104	0	72	12727
2026-01-06 03:32:01.97	21.38	9.41	-50.9	-62.0	3.8	8.47e-01	0	39	104	0	72	12771
2026-01-06 03:32:02.98	21.42	9.50	-50.9	-62.1	3.8	8.47e-01	0	39	104	0	72	12824
2026-01-06 03:32:03.98	21.46	9.58	-50.9	-62.0	3.8	8.47e-01	0	38	104	0	72	12697
2026-01-06 03:32:04.99	21.49	9.66	-50.9	-62.0	3.8	8.48e-01	0	39	104	0	72	12793
2026-01-06 03:32:05.99	21.53	9.75	-50.9	-62.0	3.8	8.46e-01	0	38	104	0	72	12769
2026-01-06 03:32:07.00	21.57	9.83	-50.9	-62.0	3.8	8.46e-01	0	38	104	0	72	12751
2026-01-06 03:32:08.00	21.61	9.92	-50.9	-62.0	3.8	8.46e-01	0	39	104	0	72	12772
2026-01-06 03:32:09.01	21.65	10.00	-50.9	-62.0	3.8	8.46e-01	0	39	104	0	72	12771
2026-01-06 03:32:10.01	21.69	10.09	-50.9	-62.0	3.8	8.47e-01	0	38	104	0	72	12797
2026-01-06 03:32:11.02	21.72	10.17	-50.9	-62.0	3.8	8.47e-01	0	39	104	0	72	12687
2026-01-06 03:32:12.02	21.76	10.26	-50.9	-62.1	3.8	8.47e-01	0	39	104	0	72	12859
2026-01-06 03:32:13.02	21.80	10.34	-50.9	-62.0	3.8	8.47e-01	0	39	104	0	72	12783
2026-01-06 03:32:14.03	21.84	10.43	-50.9	-62.0	3.8	8.47e-01	0	39	104	0	72	12801
2026-01-06 03:32:15.03	21.88	10.51	-50.9	-62.0	3.8	8.45e-01	0	39	104	0	72	12788
2026-01-06 03:32:16.04	21.92	10.60	-50.9	-62.1	3.8	8.46e-01	0	39	104	0	72	12832
2026-01-06 03:32:17.04	21.96	10.69	-50.9	-62.0	3.8	8.47e-01	0	39	104	0	72	12754
2026-01-06 03:32:18.04	22.00	10.78	-50.9	-62.0	3.8	8.47e-01	0	39	104	0	72	12759
2026-01-06 03:32:19.05	22.04	10.86	-50.9	-62.0	3.8	8.47e-01	0	39	104	0	72	12798
2026-01-06 03:32:20.05	22.08	10.95	-50.9	-62.0	3.8	8.45e-01	0	39	104	0	72	12809
2026-01-06 03:32:21.06	22.12	11.04	-50.9	-62.0	3.8	8.48e-01	0	39	104	0	72	12758
2026-01-06 03:32:22.06	22.16	11.13	-50.9	-62.0	3.8	8.46e-01	0	39	104	0	72	12769
2026-01-06 03:32:23.06	22.20	11.22	-50.9	-62.0	3.8	8.49e-01	0	38	104	0	72	12796
2026-01-06 03:32:24.07	22.25	11.31	-50.9	-62.0	3.8	8.48e-01	0	39	104	0	72	12739
2026-01-06 03:32:25.07	22.29	11.40	-50.9	-62.1	3.8	8.47e-01	0	39	104	0	72	12812
2026-01-06 03:32:26.07	22.33	11.49	-50.9	-62.1	3.8	8.48e-01	0	39	104	0	72	12820
2026-01-06 03:32:27.11	22.37	11.58	-50.9	-62.0	3.8	8.47e-01	0	39	104	0	72	12700
2026-01-06 03:32:28.11	22.42	11.67	-50.9	-62.0	3.8	8.47e-01	0	39	104	0	72	12732
2026-01-06 03:32:29.11	22.46	11.76	-50.9	-62.0	3.8	8.47e-01	0	39	104	0	72	12786
2026-01-06 03:32:30.12	22.50	11.85	-50.9	-62.0	3.8	8.47e-01	0	39	104	0	72	12780
2026-01-06 03:32:31.12	22.54	11.94	-50.9	-62.0	3.8	8.46e-01	0	39	104	0	72	12744
2026-01-06 03:32:32.13	22.59	12.03	-50.9	-62.0	3.8	8.47e-01	0	39	104	0	72	12737
2026-01-06 03:32:33.13	22.63	12.13	-50.9	-62.0	3.8	8.48e-01	0	39	104	0	72	12739
2026-01-06 03:32:34.14	22.68	12.22	-50.9	-62.0	3.8	8.46e-01	0	39	104	0	72	12793
2026-01-06 03:32:35.14	22.72	12.31	-50.9	-62.1	3.8	8.47e-01	0	39	104	0	72	12837
2026-01-06 03:32:36.15	22.76	12.41	-50.9	-62.0	3.8	8.46e-01	0	39	104	0	72	12762
2026-01-06 03:32:37.15	22.81	12.50	-50.9	-62.0	3.8	8.48e-01	0	39	104	0	72	12786
2026-01-06 03:32:38.15	22.85	12.59	-50.9	-62.0	3.8	8.46e-01	0	39	104	0	72	12751
2026-01-06 03:32:39.16	22.90	12.69	-50.9	-62.0	3.8	8.46e-01	0	39	104	0	72	12772
2026-01-06 03:32:40.16	22.94	12.78	-50.9	-62.0	3.8	8.47e-01	0	39	104	0	72	12735
2026-01-06 03:32:41.17	22.99	12.88	-50.9	-62.1	3.8	8.46e-01	0	39	104	0	72	12843
2026-01-06 03:32:42.17	23.04	12.97	-50.9	-62.0	3.8	8.47e-01	0	39	104	0	72	12776
2026-01-06 03:32:43.18	23.08	13.07	-50.9	-62.0	3.8	8.47e-01	0	39	104	0	72	12752
2026-01-06 03:32:44.18	23.13	13.16	-50.9	-62.0	3.8	8.47e-01	0	39	104	0	72	12670
2026-01-06 03:32:45.18	23.17	13.26	-50.9	-62.0	3.8	8.48e-01	0	39	104	0	72	12751
2026-01-06 03:32:46.19	23.22	13.36	-50.9	-62.0	3.8	8.46e-01	0	39	104	0	72	12750
2026-01-06 03:32:47.19	23.27	13.45	-50.9	-62.0	3.8	8.45e-01	0	39	104	0	72	12719
2026-01-06 03:32:48.20	23.32	13.55	-50.9	-62.0	3.8	8.46e-01	0	39	104	0	72	12752
2026-01-06 03:32:49.47	23.38	13.68	-50.9	-62.0	3.8	8.46e-01	0	39	104	0	72	12721
2026-01-06 03:32:50.19	23.41	13.75	-50.9	-62.1	3.8	8.47e-01	0	39	104	0	72	12847
2026-01-06 03:32:51.83	23.49	13.91	-50.9	-62.0	3.8	8.47e-01	0	39	104	0	72	12747
2026-01-06 03:32:52.40	23.52	13.96	-50.9	-62.0	3.8	8.47e-01	0	39	104	0	72	12745
2026-01-06 03:32:54.22	23.61	14.14	-50.9	-62.0	3.8	8.48e-01	0	39	104	0	72	12757
2026-01-06 03:32:54.79	23.64	14.20	-50.9	-62.0	3.8	8.48e-01	0	39	104	0	72	12719
2026-01-06 03:32:56.39	23.72	14.36	-50.9	-62.0	3.8	8.46e-01	0	39	104	0	72	12784
2026-01-06 03:32:56.96	23.74	14.42	-50.9	-62.0	3.8	8.47e-01	0	39	104	0	72	12688
2026-01-06 03:32:58.55	23.82	14.58	-50.9	-62.0	3.8	8.47e-01	0	39	104	0	72	12773
2026-01-06 03:32:59.13	23.85	14.64	-50.9	-62.0	3.8	8.47e-01	0	39	104	0	72	12771
2026-01-06 03:33:00.72	23.94	14.80	-50.9	-62.0	3.8	8.47e-01	0	39	104	0	72	12756
2026-01-06 03:33:01.29	23.96	14.86	-50.9	-62.0	3.8	8.47e-01	0	39	104	0	72	12779
2026-01-06 03:33:02.87	24.05	15.02	-50.9	-62.0	3.8	8.46e-01	0	39	104	0	72	12803
2026-01-06 03:33:03.45	24.08	15.08	-50.9	-62.0	3.8	8.47e-01	0	39	104	0	72	12725
2026-01-06 03:33:05.03	24.16	15.24	-50.9	-62.0	3.8	8.47e-01	0	39	104	0	72	12703
2026-01-06 03:33:05.60	24.19	15.30	-50.9	-62.0	3.8	8.47e-01	0	39	104	0	72	12719
2026-01-06 03:33:07.18	24.27	15.47	-50.9	-62.0	3.8	8.46e-01	0	39	104	0	72	12790
2026-01-06 03:33:07.77	24.31	15.53	-50.9	-62.0	3.8	8.47e-01	0	39	104	0	72	12723
2026-01-06 03:33:09.35	24.39	15.70	-50.9	-62.0	3.8	8.47e-01	0	39	104	0	72	12749
2026-01-06 03:33:09.93	24.42	15.76	-50.9	-62.0	3.8	8.47e-01	0	39	104	0	72	12683
2026-01-06 03:33:11.51	24.51	15.93	-50.9	-62.0	3.8	8.46e-01	0	39	104	0	72	12712
2026-01-06 03:33:12.09	24.54	15.99	-50.9	-62.0	3.8	8.46e-01	0	39	104	0	72	12754
2026-01-06 03:33:13.67	24.63	16.16	-50.9	-62.0	3.8	8.46e-01	0	39	104	0	72	12682
2026-01-06 03:33:14.26	24.66	16.22	-50.9	-62.0	3.8	8.46e-01	0	39	104	0	72	12758
2026-01-06 03:33:15.83	24.75	16.39	-50.9	-62.0	3.8	8.47e-01	0	39	104	0	72	12782
2026-01-06 03:33:16.42	24.78	16.46	-50.9	-62.0	3.8	8.46e-01	0	39	104	0	72	12738
2026-01-06 03:33:18.10	24.88	16.64	-50.9	-62.0	3.8	8.46e-01	0	39	104	0	72	12743
2026-01-06 03:33:18.67	24.91	16.71	-50.9	-62.0	3.8	8.47e-01	0	39	104	0	72	12794
2026-01-06 03:33:20.27	25.01	16.88	-50.9	-62.0	3.8	8.47e-01	0	39	104	0	72	12711
2026-01-06 03:33:20.84	25.04	16.95	-50.9	-62.0	3.8	8.47e-01	0	39	104	0	72	12773
2026-01-06 03:33:22.42	25.13	17.12	-50.9	-62.0	3.8	8.47e-01	0	40	104	0	72	12750
2026-01-06 03:33:22.99	25.17	17.19	-50.9	-62.0	3.8	8.48e-01	0	39	104	0	72	12728
2026-01-06 03:33:24.57	25.26	17.36	-50.9	-62.0	3.8	8.47e-01	0	40	104	0	72	12698
2026-01-06 03:33:25.17	25.30	17.43	-50.9	-62.0	3.8	8.48e-01	0	40	104	0	72	12670
2026-01-06 03:33:26.75	25.39	17.61	-50.9	-62.0	3.8	8.46e-01	0	39	104	0	72	12729
2026-01-06 03:33:27.32	25.43	17.68	-50.9	-62.1	3.8	8.46e-01	0	39	104	0	72	12828
2026-01-06 03:33:28.92	25.53	17.86	-50.9	-62.0	3.8	8.48e-01	0	39	104	0	72	12766
2026-01-06 03:33:29.49	25.56	17.93	-50.9	-62.0	3.8	8.46e-01	0	39	104	0	72	12797
2026-01-06 03:33:31.07	25.66	18.11	-50.9	-62.1	3.8	8.47e-01	0	40	104	0	72	12812
2026-01-06 03:33:31.64	25.70	18.18	-50.9	-62.0	3.8	8.47e-01	0	40	104	0	72	12703
2026-01-06 03:33:33.22	25.80	18.36	-50.9	-62.0	3.8	8.47e-01	0	39	104	0	72	12693
2026-01-06 03:33:33.81	25.83	18.43	-50.9	-62.0	3.8	8.46e-01	0	39	104	0	72	12730
2026-01-06 03:33:35.39	25.94	18.62	-50.9	-62.0	3.8	8.47e-01	0	39	104	0	72	12711
2026-01-06 03:33:35.96	25.97	18.68	-50.9	-61.9	3.8	8.47e-01	0	39	104	0	72	12662
2026-01-06 03:33:37.54	26.08	18.87	-50.9	-62.0	3.8	8.46e-01	0	39	104	0	72	12778
2026-01-06 03:33:38.12	26.12	18.94	-50.9	-62.0	3.8	8.46e-01	0	39	104	0	72	12702
2026-01-06 03:33:39.70	26.22	19.13	-50.9	-62.0	3.8	8.46e-01	0	40	104	0	72	12716
2026-01-06 03:33:40.30	26.26	19.21	-50.9	-62.0	3.8	8.47e-01	0	40	104	0	72	12713
2026-01-06 03:33:42.04	26.38	19.42	-50.9	-62.0	3.8	8.47e-01	0	39	104	0	72	12786
2026-01-06 03:33:42.61	26.42	19.49	-50.9	-62.0	3.8	8.47e-01	0	40	104	0	72	12733
2026-01-06 03:33:44.19	26.53	19.68	-50.9	-62.0	3.8	8.47e-01	0	40	104	0	72	12689
2026-01-06 03:33:44.76	26.57	19.75	-50.9	-61.9	3.8	8.48e-01	0	39	104	0	72	12646
2026-01-06 03:33:46.34	26.68	19.95	-50.9	-62.0	3.8	8.47e-01	0	39	104	0	72	12762
2026-01-06 03:33:46.91	26.72	20.02	-50.9	-61.9	3.8	8.47e-01	0	40	104	0	72	12655
2026-01-06 03:33:48.49	26.83	20.22	-50.9	-62.0	3.8	8.47e-01	0	40	104	0	72	12714
2026-01-06 03:33:49.08	26.87	20.29	-50.9	-62.0	3.8	8.46e-01	0	40	104	0	72	12739
2026-01-06 03:33:50.66	26.99	20.49	-50.9	-62.0	3.8	8.46e-01	0	40	104	0	72	12692
2026-01-06 03:33:51.23	27.03	20.57	-50.9	-62.0	3.8	8.47e-01	0	40	104	0	72	12754
2026-01-06 03:33:52.83	27.15	20.77	-50.9	-62.0	3.8	8.46e-01	0	40	104	0	72	12750
2026-01-06 03:33:53.40	27.19	20.85	-50.9	-62.0	3.8	8.47e-01	0	39	104	0	72	12721
2026-01-06 03:33:54.98	27.31	21.05	-50.9	-62.0	3.8	8.48e-01	0	39	104	0	72	12668
2026-01-06 03:33:55.57	27.35	21.13	-50.9	-62.0	3.8	8.48e-01	0	39	104	0	72	12712
2026-01-06 03:33:57.15	27.47	21.34	-50.9	-62.0	3.8	8.47e-01	0	39	104	0	72	12676
2026-01-06 03:33:57.73	27.52	21.41	-50.9	-62.0	3.8	8.47e-01	0	40	104	0	72	12671
2026-01-06 03:33:59.31	27.64	21.62	-50.9	-62.0	3.8	8.47e-01	0	40	104	0	72	12750
2026-01-06 03:33:59.92	27.69	21.70	-50.9	-62.1	3.8	8.47e-01	0	40	104	0	72	12831
2026-01-06 03:34:01.49	27.81	21.91	-50.9	-62.0	3.8	8.47e-01	0	39	104	0	72	12725
2026-01-06 03:34:02.07	27.86	21.99	-50.9	-62.0	3.8	8.47e-01	0	40	104	0	72	12808
2026-01-06 03:34:03.65	27.98	22.20	-50.9	-62.0	3.8	8.47e-01	0	40	104	0	72	12693
2026-01-06 03:34:04.23	28.03	22.28	-50.9	-62.0	3.8	8.48e-01	0	40	104	0	72	12741
2026-01-06 03:34:05.81	28.16	22.50	-50.9	-62.0	3.8	8.47e-01	0	40	104	0	72	12776
2026-01-06 03:34:06.39	28.21	22.58	-50.9	-62.0	3.8	8.46e-01	0	40	104	0	72	12724
2026-01-06 03:34:08.04	28.35	22.81	-50.9	-61.9	3.8	8.49e-01	0	40	104	0	72	12662
2026-01-06 03:34:08.62	28.39	22.89	-50.9	-62.0	3.8	8.47e-01	0	40	104	0	72	12668
2026-01-06 03:34:10.19	28.53	23.11	-50.9	-62.0	3.8	8.46e-01	0	40	104	0	72	12666
2026-01-06 03:34:10.78	28.58	23.19	-50.9	-61.9	3.8	8.47e-01	0	40	104	0	72	12647
2026-01-06 03:34:12.36	28.72	23.41	-50.9	-62.0	3.8	8.46e-01	0	40	104	0	72	12713
2026-01-06 03:34:12.95	28.77	23.50	-50.9	-62.0	3.8	8.47e-01	0	40	104	0	72	12719
2026-01-06 03:34:14.53	28.91	23.72	-50.9	-61.9	3.8	8.48e-01	0	40	104	0	72	12662
2026-01-06 03:34:15.10	28.96	23.80	-50.9	-62.0	3.8	8.46e-01	0	40	104	0	72	12754
2026-01-06 03:34:16.68	29.10	24.03	-50.9	-62.0	3.8	8.47e-01	0	40	104	0	72	12792
2026-01-06 03:34:17.25	29.15	24.11	-50.9	-62.0	3.8	8.48e-01	0	40	104	0	72	12744
2026-01-06 03:34:18.83	29.30	24.35	-50.9	-62.0	3.8	8.48e-01	0	40	104	0	72	12674
2026-01-06 03:34:19.43	29.35	24.43	-50.9	-62.0	3.8	8.46e-01	0	40	104	0	72	12704
2026-01-06 03:34:21.13	29.51	24.68	-50.9	-62.0	3.8	8.47e-01	0	40	104	0	72	12727
2026-01-06 03:34:21.70	29.56	24.77	-50.9	-61.9	3.8	8.46e-01	0	40	104	0	72	12618
2026-01-06 03:34:23.29	29.71	25.01	-50.9	-62.0	3.8	8.46e-01	0	40	104	0	72	12740
2026-01-06 03:34:23.87	29.77	25.09	-50.9	-62.0	3.8	8.46e-01	0	40	104	0	72	12708
2026-01-06 03:34:25.46	29.92	25.33	-50.9	-62.0	3.8	8.47e-01	0	40	104	0	72	12715
2026-01-06 03:34:26.04	29.98	25.42	-50.9	-62.0	3.8	8.47e-01	0	40	104	0	72	12709
2026-01-06 03:34:27.61	30.14	25.66	-50.9	-62.0	3.8	8.47e-01	0	40	104	0	72	12752
2026-01-06 03:34:28.22	30.20	25.76	-50.9	-62.0	3.8	8.47e-01	0	40	104	0	72	12693
2026-01-06 03:34:29.80	30.36	26.00	-50.9	-62.0	3.8	8.47e-01	0	40	104	0	72	12744
2026-01-06 03:34:30.37	30.42	26.09	-50.9	-62.0	3.8	8.47e-01	0	40	104	0	72	12717
2026-01-06 03:34:32.01	30.59	26.35	-50.9	-62.0	3.8	8.47e-01	0	40	104	0	72	12687
2026-01-06 03:34:32.59	30.65	26.44	-50.9	-62.0	3.8	8.47e-01	0	40	104	0	72	12754
2026-01-06 03:34:34.16	30.81	26.69	-50.9	-62.0	3.8	8.47e-01	0	40	104	0	72	12731
2026-01-06 03:34:34.74	30.87	26.78	-50.9	-62.0	3.8	8.47e-01	0	40	104	0	72	12694
2026-01-06 03:34:36.32	31.04	27.03	-50.9	-61.9	3.8	8.47e-01	0	40	104	0	72	12649
2026-01-06 03:34:36.89	31.11	27.12	-50.9	-62.0	3.8	8.45e-01	0	40	104	0	72	12702
2026-01-06 03:34:38.47	31.28	27.38	-50.9	-61.9	3.8	8.47e-01	0	40	104	0	72	12654
2026-01-06 03:34:39.06	31.34	27.47	-50.9	-61.9	3.8	8.47e-01	0	40	104	0	72	12607
2026-01-06 03:34:40.64	31.52	27.73	-50.9	-61.9	3.8	8.47e-01	0	40	104	0	72	12637
2026-01-06 03:34:41.23	31.59	27.83	-50.9	-61.9	3.8	8.47e-01	0	40	104	0	72	12655
2026-01-06 03:34:42.81	31.77	28.09	-50.9	-61.9	3.8	8.47e-01	0	40	104	0	72	12663
2026-01-06 03:34:43.41	31.84	28.19	-50.9	-62.0	3.8	8.46e-01	0	40	104	0	72	12699
2026-01-06 03:34:45.08	32.04	28.47	-50.9	-61.9	3.8	8.48e-01	0	40	104	0	72	12642
2026-01-06 03:34:45.66	32.10	28.57	-50.9	-61.9	3.8	8.47e-01	0	40	104	0	72	12660
2026-01-06 03:34:47.24	32.29	28.84	-50.9	-61.9	3.8	8.46e-01	0	40	104	0	72	12644
2026-01-06 03:34:47.81	32.36	28.93	-50.8	-62.0	3.8	8.47e-01	0	40	104	0	72	12769
2026-01-06 03:34:49.39	32.56	29.21	-50.9	-62.0	3.8	8.46e-01	0	40	104	0	72	12726
2026-01-06 03:34:49.96	32.63	29.30	-50.9	-62.0	3.8	8.46e-01	0	40	104	0	72	12746
2026-01-06 03:34:51.54	32.83	29.58	-50.8	-62.0	3.8	8.46e-01	0	40	104	0	72	12668
2026-01-06 03:34:52.13	32.90	29.68	-50.8	-61.9	3.8	8.46e-01	0	40	104	0	72	12636
2026-01-06 03:34:53.71	33.10	29.96	-50.9	-62.0	3.8	8.47e-01	0	40	104	0	72	12734
2026-01-06 03:34:54.30	33.18	30.06	-50.9	-61.9	3.8	8.47e-01	0	40	104	0	72	12628
2026-01-06 03:34:55.88	33.39	30.34	-50.9	-61.9	3.8	8.47e-01	0	40	104	0	72	12649
2026-01-06 03:34:56.45	33.46	30.44	-50.9	-61.9	3.8	8.47e-01	0	40	104	0	72	12655
2026-01-06 03:34:58.06	33.68	30.73	-50.8	-62.0	3.8	8.45e-01	0	40	104	0	72	12683
2026-01-06 03:34:58.63	33.76	30.84	-50.9	-61.9	3.8	8.47e-01	0	40	104	0	72	12653
2026-01-06 03:35:00.21	33.97	31.12	-50.8	-62.0	3.8	8.47e-01	0	40	104	0	72	12717
2026-01-06 03:35:00.80	34.06	31.23	-50.8	-62.0	3.8	8.47e-01	0	40	104	0	72	12688
2026-01-06 03:35:02.38	34.28	31.52	-50.8	-61.9	3.8	8.46e-01	0	40	104	0	72	12658
2026-01-06 03:35:02.95	34.36	31.63	-50.8	-62.0	3.8	8.47e-01	0	40	104	0	72	12680
2026-01-06 03:35:04.55	34.59	31.93	-50.8	-61.9	3.8	8.47e-01	0	40	104	0	72	12612
2026-01-06 03:35:05.12	34.67	32.03	-50.8	-62.0	3.8	8.47e-01	0	40	104	0	72	12685
2026-01-06 03:35:06.70	34.91	32.33	-50.8	-61.9	3.8	8.47e-01	0	40	104	0	72	12659
2026-01-06 03:35:07.29	35.00	32.44	-50.8	-61.9	3.8	8.46e-01	0	40	104	0	72	12588
2026-01-06 03:35:08.87	35.24	32.74	-50.8	-62.0	3.8	8.47e-01	0	40	104	0	72	12667
2026-01-06 03:35:09.46	35.33	32.85	-50.8	-62.0	3.8	8.47e-01	0	40	104	0	72	12702
2026-01-06 03:35:11.10	35.58	33.17	-50.8	-61.9	3.8	8.46e-01	0	40	104	0	72	12631
2026-01-06 03:35:11.67	35.67	33.28	-50.8	-61.9	3.8	8.46e-01	0	40	104	0	72	12592
2026-01-06 03:35:13.25	35.92	33.59	-50.8	-61.9	3.8	8.46e-01	0	40	104	0	72	12663
2026-01-06 03:35:13.82	36.01	33.70	-50.8	-61.9	3.8	8.46e-01	0	40	104	0	72	12604
2026-01-06 03:35:15.40	36.27	34.01	-50.8	-61.9	3.8	8.47e-01	0	40	104	0	72	12636
2026-01-06 03:35:15.98	36.37	34.13	-50.8	-61.9	3.8	8.47e-01	0	40	104	0	72	12656
2026-01-06 03:35:17.55	36.63	34.44	-50.8	-61.9	3.8	8.47e-01	0	40	104	0	72	12659
2026-01-06 03:35:18.13	36.73	34.55	-50.8	-61.9	3.8	8.47e-01	0	40	104	0	72	12612
2026-01-06 03:35:19.71	37.00	34.87	-50.8	-61.9	3.8	8.47e-01	0	40	104	0	72	12619
2026-01-06 03:35:20.28	37.10	34.99	-50.8	-61.9	3.8	8.46e-01	0	40	104	0	72	12600
2026-01-06 03:35:21.86	37.38	35.31	-50.8	-62.0	3.8	8.47e-01	0	40	104	0	72	12670
2026-01-06 03:35:22.45	37.49	35.43	-50.8	-61.9	3.8	8.47e-01	0	40	104	0	72	12536
2026-01-06 03:35:24.04	37.77	35.76	-50.8	-61.9	3.8	8.46e-01	0	40	104	0	72	12594
2026-01-06 03:35:24.62	37.88	35.88	-50.8	-61.9	3.8	8.48e-01	0	40	104	0	72	12634
2026-01-06 03:35:26.19	38.17	36.20	-50.8	-61.9	3.8	8.47e-01	0	40	104	0	72	12618
2026-01-06 03:35:26.77	38.28	36.32	-50.8	-61.9	3.8	8.47e-01	0	40	104	0	72	12624
2026-01-06 03:35:28.36	38.59	36.66	-50.8	-61.8	3.8	8.46e-01	0	40	104	0	72	12513
2026-01-06 03:35:28.94	38.70	36.78	-50.8	-62.0	3.8	8.48e-01	0	40	104	0	72	12676
2026-01-06 03:35:30.51	39.01	37.12	-50.8	-61.9	3.8	8.49e-01	0	40	104	0	72	12562
2026-01-06 03:35:31.10	39.13	37.24	-50.8	-61.9	3.8	8.46e-01	0	40	104	0	72	12596
2026-01-06 03:35:32.68	39.45	37.58	-50.8	-61.9	3.8	8.46e-01	0	40	104	0	72	12563
2026-01-06 03:35:33.25	39.56	37.70	-50.8	-61.9	3.8	8.47e-01	0	40	104	0	72	12548
2026-01-06 03:35:34.83	39.89	38.05	-50.8	-61.8	3.8	8.46e-01	0	40	104	0	72	12519
2026-01-06 03:35:35.42	40.02	38.17	-50.8	-61.8	3.8	8.46e-01	0	40	104	0	72	12501
2026-01-06 03:35:37.00	40.35	38.52	-50.8	-61.9	3.8	8.47e-01	0	40	104	0	72	12553
2026-01-06 03:35:37.60	40.48	38.65	-50.8	-61.9	3.8	8.47e-01	0	40	104	0	72	12552
2026-01-06 03:35:39.18	40.83	39.00	-50.8	-61.9	3.8	8.47e-01	0	40	104	0	72	12595
2026-01-06 03:35:39.77	40.96	39.13	-50.8	-61.9	3.8	8.46e-01	0	40	104	0	72	12532
2026-01-06 03:35:41.35	41.32	39.48	-50.8	-61.9	3.8	8.47e-01	0	40	104	0	72	12528
2026-01-06 03:35:41.95	41.46	39.62	-50.8	-61.9	3.8	8.46e-01	0	40	104	0	72	12593
2026-01-06 03:35:43.53	41.83	39.98	-50.8	-61.9	3.8	8.47e-01	0	40	104	0	72	12643
2026-01-06 03:35:44.10	41.97	40.10	-50.8	-61.9	3.8	8.46e-01	0	40	104	0	72	12659
2026-01-06 03:35:45.68	42.35	40.46	-50.8	-61.9	3.8	8.47e-01	0	40	104	0	72	12559
2026-01-06 03:35:46.26	42.49	40.60	-50.8	-61.9	3.8	8.47e-01	0	40	104	0	72	12566
2026-01-06 03:35:47.85	42.88	40.96	-50.8	-61.9	3.8	8.46e-01	0	40	104	0	72	12602
2026-01-06 03:35:48.42	43.02	41.09	-50.8	-61.9	3.8	8.47e-01	0	40	104	0	72	12588
2026-01-06 03:35:50.13	43.46	41.49	-50.8	-61.9	3.8	8.47e-01	0	40	104	0	72	12619
2026-01-06 03:35:50.70	43.61	41.62	-50.8	-61.9	3.8	8.46e-01	0	40	104	0	72	12616
2026-01-06 03:35:52.28	44.03	41.99	-50.8	-61.9	3.8	8.47e-01	0	40	104	0	72	12541
2026-01-06 03:35:52.87	44.19	42.13	-50.8	-61.9	3.8	8.46e-01	0	40	104	0	72	12549
2026-01-06 03:35:54.45	44.62	42.50	-50.8	-61.9	3.8	8.46e-01	0	40	104	0	72	12625
2026-01-06 03:35:55.03	44.78	42.63	-50.8	-61.9	3.8	8.46e-01	0	40	104	0	72	12585
2026-01-06 03:35:56.62	45.22	43.01	-50.8	-61.9	3.8	8.47e-01	0	40	104	0	72	12581
2026-01-06 03:35:57.20	45.39	43.15	-50.8	-61.9	3.8	8.48e-01	0	40	104	0	72	12633
2026-01-06 03:35:58.77	45.84	43.52	-50.8	-61.9	3.8	8.48e-01	0	40	104	0	72	12559
2026-01-06 03:35:59.35	46.01	43.66	-50.8	-61.9	3.8	8.47e-01	0	40	104	0	72	12662
2026-01-06 03:36:00.93	46.49	44.04	-50.8	-61.9	3.8	8.48e-01	0	40	104	0	72	12548
2026-01-06 03:36:01.51	46.66	44.18	-50.8	-61.9	3.8	8.47e-01	0	40	104	0	72	12619
2026-01-06 03:36:03.09	47.15	44.56	-50.8	-61.9	3.8	8.48e-01	0	40	104	0	72	12609
2026-01-06 03:36:03.68	47.34	44.70	-50.8	-61.9	3.8	8.48e-01	0	40	104	0	72	12617
2026-01-06 03:36:05.26	47.84	45.08	-50.8	-61.9	3.8	8.48e-01	0	40	104	0	72	12617
2026-01-06 03:36:05.84	48.03	45.22	-50.8	-61.9	3.8	8.47e-01	0	40	104	0	72	12630
2026-01-06 03:36:07.41	48.55	45.60	-50.8	-61.9	3.8	8.48e-01	0	40	104	0	72	12660
2026-01-06 03:36:08.00	48.74	45.75	-50.8	-61.9	3.8	8.46e-01	0	40	104	0	72	12603
2026-01-06 03:36:09.58	49.28	46.13	-50.8	-61.9	3.8	8.48e-01	0	40	104	0	72	12610
2026-01-06 03:36:10.16	49.48	46.28	-50.8	-61.9	3.8	8.47e-01	0	40	104	0	72	12528
2026-01-06 03:36:11.75	50.04	46.67	-50.8	-61.9	3.8	8.47e-01	0	40	104	0	72	12590
2026-01-06 03:36:12.33	50.25	46.81	-50.8	-61.9	3.8	8.47e-01	0	40	104	0	72	12585
2026-01-06 03:36:14.11	50.90	47.24	-50.8	-61.9	3.8	8.48e-01	0	40	104	0	72	12595
2026-01-06 03:36:14.69	51.12	47.39	-50.8	-61.9	3.8	8.47e-01	0	40	104	0	72	12618
2026-01-06 03:36:16.27	51.72	47.77	-50.8	-61.9	3.8	8.47e-01	0	40	104	0	72	12566
2026-01-06 03:36:17.27	52.10	48.02	-50.8	-61.9	3.8	8.46e-01	0	40	104	0	72	12561
2026-01-06 03:36:18.27	52.49	48.27	-50.8	-61.9	3.8	8.47e-01	0	40	104	0	72	12572
2026-01-06 03:36:19.27	52.89	48.51	-50.8	-61.9	3.8	8.48e-01	0	40	104	0	72	12553
2026-01-06 03:36:20.27	53.30	48.76	-50.8	-61.9	3.8	8.45e-01	0	40	104	0	72	12591
2026-01-06 03:36:21.28	53.71	49.01	-50.8	-61.9	3.8	8.47e-01	0	40	104	0	72	12614
2026-01-06 03:36:22.28	54.13	49.25	-50.8	-61.9	3.8	8.47e-01	0	40	104	0	72	12601
2026-01-06 03:36:23.29	54.56	49.50	-50.8	-61.9	3.8	8.48e-01	0	40	104	0	72	12607
2026-01-06 03:36:24.29	54.99	49.74	-50.8	-61.9	3.8	8.47e-01	0	40	104	0	72	12574
2026-01-06 03:36:25.30	55.43	49.99	-50.8	-61.9	3.8	8.46e-01	0	40	104	0	72	12605
2026-01-06 03:36:26.30	55.88	50.24	-50.8	-61.9	3.8	8.47e-01	0	40	104	0	72	12553
2026-01-06 03:36:27.31	56.33	50.48	-50.8	-61.9	3.8	8.48e-01	0	40	104	0	72	12604
2026-01-06 03:36:28.31	56.79	50.72	-50.8	-61.9	3.8	8.46e-01	0	40	104	0	72	12563
2026-01-06 03:36:29.31	57.26	50.97	-50.8	-61.9	3.8	8.48e-01	0	40	104	0	72	12588
2026-01-06 03:36:30.32	57.74	51.21	-50.8	-61.9	3.8	8.48e-01	0	40	104	0	72	12662
2026-01-06 03:36:31.32	58.22	51.45	-50.8	-61.9	3.8	8.46e-01	0	40	104	0	72	12618
2026-01-06 03:36:32.32	58.71	51.69	-50.8	-61.9	3.8	8.46e-01	0	40	104	0	72	12597
2026-01-06 03:36:33.33	59.21	51.93	-50.8	-61.9	3.8	8.46e-01	0	40	104	0	72	12551
2026-01-06 03:36:34.33	59.72	52.17	-50.8	-61.9	3.8	8.46e-01	0	40	104	0	72	12654
2026-01-06 03:36:35.34	60.24	52.41	-50.8	-62.0	3.8	8.48e-01	0	40	104	0	72	12674
2026-01-06 03:36:36.34	60.76	52.65	-50.8	-61.9	3.8	8.46e-01	0	40	104	0	72	12528
2026-01-06 03:36:37.35	61.30	52.88	-50.8	-61.9	3.8	8.48e-01	0	40	104	0	72	12544
2026-01-06 03:36:38.35	61.84	53.11	-50.8	-61.9	3.8	8.47e-01	0	40	104	0	72	12569
2026-01-06 03:36:39.36	62.39	53.35	-50.8	-61.9	3.8	8.47e-01	0	40	104	0	72	12640
2026-01-06 03:36:40.55	63.06	53.62	-50.8	-61.9	3.8	8.48e-01	0	40	104	0	72	12570
2026-01-06 03:36:41.44	63.56	53.82	-50.8	-61.9	3.8	8.45e-01	0	40	104	0	72	12598
2026-01-06 03:36:42.76	64.32	54.12	-50.8	-61.9	3.8	8.46e-01	0	40	104	0	72	12641
2026-01-06 03:36:43.48	64.74	54.28	-50.8	-61.9	3.8	8.47e-01	0	40	104	0	72	12605
2026-01-06 03:36:44.77	65.51	54.57	-50.8	-61.9	3.8	8.46e-01	0	40	104	0	72	12642
2026-01-06 03:36:45.49	65.95	54.73	-50.8	-61.9	3.8	8.46e-01	0	40	104	0	72	12646
2026-01-06 03:36:46.78	66.74	55.01	-50.8	-61.9	3.8	8.47e-01	0	40	104	0	72	12612
2026-01-06 03:36:47.49	67.18	55.16	-50.8	-61.9	3.8	8.46e-01	0	40	104	0	72	12629
2026-01-06 03:36:48.79	68.00	55.44	-50.8	-61.9	3.8	8.47e-01	0	40	104	0	72	12626
2026-01-06 03:36:49.50	68.46	55.59	-50.8	-61.9	3.8	8.47e-01	0	40	104	0	72	12652
2026-01-06 03:36:50.80	69.31	55.86	-50.8	-61.9	3.8	8.47e-01	0	40	104	0	72	12549
2026-01-06 03:36:51.51	69.78	56.00	-50.8	-61.8	3.8	8.47e-01	0	40	104	0	72	12508
2026-01-06 03:36:52.80	70.64	56.26	-50.8	-61.9	3.8	8.46e-01	0	40	104	0	72	12561
2026-01-06 03:36:53.52	71.13	56.40	-50.8	-62.0	3.8	8.47e-01	0	40	104	0	72	12679
2026-01-06 03:36:54.81	72.02	56.65	-50.8	-62.0	3.8	8.45e-01	0	40	104	0	72	12679
2026-01-06 03:36:55.53	72.53	56.79	-50.8	-61.9	3.8	8.46e-01	0	40	104	0	72	12579
2026-01-06 03:36:56.82	73.44	57.04	-50.8	-61.9	3.8	8.47e-01	0	40	104	0	72	12614
2026-01-06 03:36:57.54	73.96	57.17	-50.8	-61.9	3.8	8.47e-01	0	40	104	0	72	12608
2026-01-06 03:36:58.83	74.90	57.40	-50.8	-61.9	3.8	8.46e-01	0	40	104	0	72	12576
2026-01-06 03:36:59.55	75.44	57.53	-50.8	-61.9	3.8	8.48e-01	0	40	104	0	72	12604
2026-01-06 03:37:00.85	76.41	57.75	-50.8	-61.9	3.8	8.47e-01	0	40	104	0	72	12522
2026-01-06 03:37:01.57	76.96	57.88	-50.8	-61.9	3.8	8.47e-01	0	40	104	0	72	12552
2026-01-06 03:37:02.86	77.95	58.09	-50.8	-62.0	3.8	8.47e-01	0	40	104	0	72	12694
2026-01-06 03:37:03.58	78.51	58.20	-50.8	-61.9	3.8	8.48e-01	0	40	104	0	72	12581
2026-01-06 03:37:04.87	79.52	58.40	-50.8	-61.9	3.8	8.46e-01	0	40	104	0	72	12578
2026-01-06 03:37:05.59	80.09	58.51	-50.8	-61.9	3.8	8.46e-01	0	40	104	0	72	12560
2026-01-06 03:37:06.88	81.13	58.70	-50.8	-61.8	3.8	8.47e-01	0	40	104	0	72	12507
2026-01-06 03:37:07.61	81.73	58.80	-50.8	-61.9	3.8	8.46e-01	0	40	104	0	72	12589
2026-01-06 03:37:08.90	82.79	58.98	-50.8	-61.9	3.8	8.47e-01	0	40	104	0	72	12656
2026-01-06 03:37:09.61	83.38	59.07	-50.8	-61.9	3.8	8.47e-01	0	40	104	0	72	12582
2026-01-06 03:37:10.91	84.47	59.24	-50.8	-61.8	3.8	8.47e-01	0	40	104	0	72	12481
2026-01-06 03:37:11.62	85.07	59.32	-50.8	-61.9	3.8	8.47e-01	0	40	104	0	72	12605
2026-01-06 03:37:12.91	86.17	59.47	-50.8	-61.9	3.8	8.48e-01	0	40	104	0	72	12597
2026-01-06 03:37:13.63	86.79	59.55	-50.8	-61.9	3.8	8.46e-01	0	40	104	0	72	12524
2026-01-06 03:37:14.92	87.91	59.68	-50.8	-61.8	3.8	8.46e-01	0	40	104	0	72	12487
2026-01-06 03:37:15.64	88.54	59.76	-50.8	-61.9	3.8	8.47e-01	0	40	104	0	72	12571
2026-01-06 03:37:16.93	89.68	59.87	-50.8	-61.9	3.8	8.46e-01	0	41	104	0	72	12597
2026-01-06 03:37:17.64	90.31	59.94	-50.8	-61.9	3.8	8.46e-01	0	40	104	0	72	12616
2026-01-06 03:37:18.94	91.47	60.04	-50.8	-61.9	3.8	8.47e-01	0	40	104	0	72	12620
2026-01-06 03:37:19.65	92.11	60.09	-50.8	-61.9	3.8	8.47e-01	0	40	104	0	72	12555
2026-01-06 03:37:20.94	93.28	60.18	-50.8	-62.0	3.8	8.47e-01	0	40	104	0	72	12671
2026-01-06 03:37:21.66	93.94	60.22	-50.8	-61.9	3.8	8.46e-01	0	40	104	0	72	12621
2026-01-06 03:37:22.95	95.11	60.29	-50.8	-61.9	3.8	8.47e-01	0	40	104	0	72	12580
2026-01-06 03:37:23.67	95.77	60.33	-50.8	-61.9	3.8	8.46e-01	0	40	104	0	72	12568
2026-01-06 03:37:24.96	96.96	60.38	-50.8	-61.9	3.8	8.48e-01	0	40	104	0	72	12578
2026-01-06 03:37:25.68	97.63	60.41	-50.8	-61.9	3.8	8.48e-01	0	40	104	0	72	12602
2026-01-06 03:37:26.97	98.82	60.45	-50.8	-61.9	3.8	8.46e-01	0	40	104	0	72	12620
2026-01-06 03:37:27.69	99.49	60.46	-50.8	-61.9	3.8	8.47e-01	0	40	104	0	72	12584
2026-01-06 03:37:28.98	100.69	60.48	-50.8	-61.9	3.8	8.46e-01	0	41	104	0	72	12544
2026-01-06 03:37:29.70	101.36	60.49	-50.8	-61.9	3.8	8.46e-01	0	40	104	0	72	12546
2026-01-06 03:37:30.99	102.56	60.49	-50.8	-61.9	3.8	8.46e-01	0	40	104	0	72	12536
2026-01-06 03:37:31.71	103.23	60.49	-50.8	-61.9	3.8	8.47e-01	0	40	104	0	72	12650
2026-01-06 03:37:33.00	104.43	60.48	-50.8	-62.0	3.8	8.47e-01	0	40	104	0	72	12694
2026-01-06 03:37:33.72	105.10	60.46	-50.8	-61.9	3.8	8.47e-01	0	40	104	0	72	12603
2026-01-06 03:37:35.01	106.29	60.43	-50.8	-61.9	3.8	8.47e-01	0	41	104	0	72	12616
2026-01-06 03:37:35.73	106.96	60.41	-50.8	-61.9	3.8	8.47e-01	0	40	104	0	72	12620
2026-01-06 03:37:37.02	108.15	60.36	-50.8	-61.9	3.8	8.47e-01	0	40	104	0	72	12607
2026-01-06 03:37:37.74	108.81	60.33	-50.8	-61.9	3.8	8.46e-01	0	40	104	0	72	12590
2026-01-06 03:37:39.03	109.99	60.26	-50.8	-61.9	3.8	8.47e-01	0	40	104	0	72	12529
2026-01-06 03:37:39.74	110.64	60.22	-50.8	-61.9	3.8	8.46e-01	0	40	104	0	72	12557
2026-01-06 03:37:41.04	111.82	60.14	-50.8	-62.0	3.8	8.47e-01	0	40	104	0	72	12721
2026-01-06 03:37:41.75	112.47	60.09	-50.8	-62.0	3.8	8.47e-01	0	40	104	0	72	12697
2026-01-06 03:37:43.04	113.63	60.00	-50.8	-61.9	3.8	8.47e-01	0	40	104	0	72	12633
2026-01-06 03:37:43.76	114.27	59.94	-50.8	-62.0	3.8	8.46e-01	0	40	104	0	72	12672
2026-01-06 03:37:45.05	115.41	59.82	-50.8	-62.0	3.8	8.47e-01	0	40	104	0	72	12669
2026-01-06 03:37:45.77	116.05	59.76	-50.8	-61.9	3.8	8.46e-01	0	40	104	0	72	12647
2026-01-06 03:37:47.06	117.18	59.63	-50.8	-61.9	3.8	8.47e-01	0	40	104	0	72	12603
2026-01-06 03:37:47.78	117.80	59.55	-50.8	-61.9	3.8	8.46e-01	0	40	104	0	72	12553
2026-01-06 03:37:49.07	118.91	59.41	-50.8	-61.9	3.8	8.47e-01	0	40	104	0	72	12614
2026-01-06 03:37:49.79	119.53	59.32	-50.8	-62.0	3.8	8.47e-01	0	40	104	0	72	12678
2026-01-06 03:37:51.08	120.62	59.16	-50.8	-61.9	3.8	8.46e-01	0	40	104	0	72	12647
2026-01-06 03:37:51.79	121.21	59.07	-50.8	-62.0	3.8	8.47e-01	0	40	104	0	72	12694
2026-01-06 03:37:53.09	122.29	58.90	-50.8	-62.0	3.8	8.47e-01	0	40	104	0	72	12667
2026-01-06 03:37:53.80	122.87	58.80	-50.8	-61.9	3.8	8.47e-01	0	40	104	0	72	12595
2026-01-06 03:37:55.09	123.92	58.62	-50.8	-61.9	3.8	8.48e-01	0	40	104	0	72	12584
2026-01-06 03:37:55.81	124.50	58.51	-50.8	-61.9	3.8	8.46e-01	0	40	104	0	72	12552
2026-01-06 03:37:57.10	125.53	58.31	-50.8	-61.9	3.8	8.47e-01	0	40	104	0	72	12622
2026-01-06 03:37:57.82	126.09	58.20	-50.8	-61.9	3.8	8.47e-01	0	40	104	0	72	12636
2026-01-06 03:37:59.11	127.09	57.99	-50.8	-61.9	3.8	8.47e-01	0	40	104	0	72	12659
2026-01-06 03:37:59.83	127.64	57.87	-50.8	-61.9	3.8	8.45e-01	0	40	104	0	72	12653
2026-01-06 03:38:01.12	128.62	57.65	-50.8	-61.9	3.8	8.46e-01	0	40	104	0	72	12539
2026-01-06 03:38:01.84	129.16	57.53	-50.8	-62.0	3.8	8.47e-01	0	40	104	0	72	12683
2026-01-06 03:38:03.13	130.11	57.30	-50.8	-61.9	3.8	8.47e-01	0	40	104	0	72	12608
2026-01-06 03:38:03.85	130.64	57.17	-50.8	-61.9	3.8	8.47e-01	0	40	104	0	72	12585
2026-01-06 03:38:05.14	131.56	56.93	-50.8	-61.9	3.8	8.47e-01	0	40	104	0	72	12610
2026-01-06 03:38:05.86	132.07	56.79	-50.8	-61.9	3.8	8.48e-01	0	40	104	0	72	12596
2026-01-06 03:38:07.15	132.97	56.54	-50.8	-61.9	3.8	8.45e-01	0	40	104	0	72	12595
2026-01-06 03:38:07.86	133.46	56.40	-50.8	-61.9	3.8	8.47e-01	0	41	104	0	72	12593
2026-01-06 03:38:09.15	134.34	56.14	-50.8	-61.9	3.8	8.46e-01	0	40	104	0	72	12571
2026-01-06 03:38:09.87	134.82	56.00	-50.8	-61.9	3.8	8.47e-01	0	41	104	0	72	12540
2026-01-06 03:38:11.16	135.67	55.73	-50.8	-61.9	3.8	8.47e-01	0	40	104	0	72	12572
2026-01-06 03:38:11.88	136.14	55.58	-50.8	-61.9	3.8	8.46e-01	0	40	104	0	72	12567
2026-01-06 03:38:13.17	136.97	55.31	-50.8	-61.9	3.8	8.46e-01	0	40	104	0	72	12655
2026-01-06 03:38:13.89	137.42	55.15	-50.8	-61.9	3.8	8.46e-01	0	40	104	0	72	12559
2026-01-06 03:38:15.18	138.23	54.87	-50.8	-62.0	3.8	8.46e-01	0	40	104	0	72	12680
2026-01-06 03:38:15.90	138.67	54.72	-50.8	-61.9	3.8	8.47e-01	0	40	104	0	72	12611
2026-01-06 03:38:17.19	139.44	54.43	-50.8	-61.9	3.8	8.46e-01	0	40	104	0	72	12529
2026-01-06 03:38:17.90	139.87	54.27	-50.8	-61.8	3.8	8.46e-01	0	40	104	0	72	12519
2026-01-06 03:38:19.20	140.63	53.98	-50.8	-61.9	3.8	8.47e-01	0	40	104	0	72	12620
2026-01-06 03:38:19.91	141.04	53.82	-50.8	-61.9	3.8	8.47e-01	0	41	104	0	72	12588
2026-01-06 03:38:21.20	141.77	53.52	-50.8	-61.9	3.8	8.47e-01	0	40	104	0	72	12574
2026-01-06 03:38:21.92	142.17	53.36	-50.8	-61.9	3.8	8.47e-01	0	40	104	0	72	12595
2026-01-06 03:38:23.21	142.88	53.06	-50.8	-61.9	3.8	8.46e-01	0	40	104	0	72	12636
2026-01-06 03:38:23.93	143.27	52.89	-50.8	-61.9	3.8	8.47e-01	0	41	104	0	72	12569
2026-01-06 03:38:25.22	143.95	52.59	-50.8	-61.9	3.8	8.46e-01	0	40	104	0	72	12583
2026-01-06 03:38:25.94	144.33	52.42	-50.8	-61.9	3.8	8.47e-01	0	40	104	0	72	12602
2026-01-06 03:38:27.23	144.99	52.11	-50.8	-61.9	3.8	8.46e-01	0	41	104	0	72	12577
2026-01-06 03:38:27.95	145.36	51.94	-50.8	-61.9	3.8	8.47e-01	0	40	104	0	72	12546
2026-01-06 03:38:29.24	146.00	51.63	-50.8	-61.9	3.8	8.45e-01	0	40	104	0	72	12536
2026-01-06 03:38:29.99	146.37	51.45	-50.8	-61.8	3.8	8.47e-01	0	40	104	0	72	12497
2026-01-06 03:38:31.28	146.99	51.14	-50.8	-61.9	3.8	8.46e-01	0	40	104	0	72	12545
2026-01-06 03:38:32.00	147.34	50.96	-50.8	-61.9	3.8	8.47e-01	0	40	104	0	72	12586
2026-01-06 03:38:33.29	147.94	50.65	-50.8	-61.9	3.8	8.46e-01	0	40	104	0	72	12562
2026-01-06 03:38:34.01	148.27	50.47	-50.8	-61.9	3.8	8.46e-01	0	40	104	0	72	12550
2026-01-06 03:38:35.30	148.85	50.16	-50.8	-61.9	3.8	8.46e-01	0	41	104	0	72	12568
2026-01-06 03:38:36.01	149.17	49.98	-50.8	-61.9	3.8	8.46e-01	0	40	104	0	72	12570
2026-01-06 03:38:37.30	149.74	49.66	-50.8	-61.9	3.8	8.47e-01	0	41	104	0	72	12571
2026-01-06 03:38:38.02	150.05	49.49	-50.8	-61.9	3.8	8.46e-01	0	41	104	0	72	12604
2026-01-06 03:38:39.31	150.59	49.17	-50.8	-61.9	3.8	8.46e-01	0	41	104	0	72	12580
2026-01-06 03:38:40.03	150.90	48.99	-50.8	-61.8	3.8	8.47e-01	0	40	104	0	72	12493
2026-01-06 03:38:41.32	151.43	48.67	-50.8	-61.9	3.8	8.47e-01	0	41	104	0	72	12567
2026-01-06 03:38:42.04	151.72	48.50	-50.8	-61.9	3.8	8.46e-01	0	40	104	0	72	12638
2026-01-06 03:38:43.33	152.23	48.18	-50.8	-61.9	3.8	8.46e-01	0	40	104	0	72	12594
2026-01-06 03:38:44.05	152.51	48.00	-50.8	-61.9	3.8	8.47e-01	0	40	104	0	72	12569
2026-01-06 03:38:45.34	153.01	47.68	-50.8	-61.9	3.8	8.46e-01	0	40	104	0	72	12537
2026-01-06 03:38:46.06	153.29	47.50	-50.8	-61.9	3.8	8.47e-01	0	41	104	0	72	12552
2026-01-06 03:38:47.35	153.77	47.18	-50.8	-61.9	3.8	8.48e-01	0	41	104	0	72	12559
2026-01-06 03:38:48.06	154.03	47.01	-50.8	-61.8	3.8	8.47e-01	0	41	104	0	72	12508
2026-01-06 03:38:49.36	154.50	46.69	-50.8	-61.8	3.8	8.46e-01	0	40	104	0	72	12502
2026-01-06 03:38:50.07	154.75	46.51	-50.8	-61.8	3.8	8.47e-01	0	41	104	0	72	12470
2026-01-06 03:38:51.36	155.21	46.20	-50.8	-61.9	3.8	8.47e-01	0	41	104	0	72	12568
2026-01-06 03:38:52.08	155.46	46.02	-50.8	-61.9	3.8	8.46e-01	0	40	104	0	72	12571
2026-01-06 03:38:53.37	155.90	45.70	-50.8	-61.9	3.8	8.46e-01	0	40	104	0	72	12599
2026-01-06 03:38:54.09	156.14	45.53	-50.8	-61.9	3.8	8.45e-01	0	41	104	0	72	12523
2026-01-06 03:38:55.38	156.57	45.21	-50.8	-61.8	3.8	8.49e-01	0	40	104	0	72	12513
2026-01-06 03:38:56.10	156.80	45.04	-50.8	-61.9	3.8	8.46e-01	0	41	104	0	72	12546
2026-01-06 03:38:57.39	157.21	44.72	-50.8	-61.9	3.8	8.46e-01	0	40	104	0	72	12556
2026-01-06 03:38:58.15	157.45	44.54	-50.8	-61.8	3.8	8.46e-01	0	40	104	0	72	12450
2026-01-06 03:38:59.44	157.85	44.22	-50.8	-61.8	3.8	8.48e-01	0	41	104	0	72	12519
2026-01-06 03:39:00.22	158.09	44.04	-50.8	-61.9	3.8	8.46e-01	0	41	104	0	72	12590
2026-01-06 03:39:01.52	158.48	43.72	-50.8	-61.8	3.8	8.46e-01	0	40	104	0	72	12465
2026-01-06 03:39:02.31	158.72	43.53	-50.8	-61.9	3.8	8.46e-01	0	41	104	0	72	12550
2026-01-06 03:39:03.46	159.06	43.26	-50.8	-61.8	3.8	8.47e-01	0	40	104	0	72	12448
2026-01-06 03:39:04.32	159.30	43.05	-50.8	-61.8	3.8	8.46e-01	0	41	104	0	72	12480
2026-01-06 03:39:05.47	159.63	42.78	-50.8	-61.8	3.8	8.48e-01	0	41	104	0	72	12504
2026-01-06 03:39:06.33	159.87	42.57	-50.8	-61.9	3.8	8.47e-01	0	41	104	0	72	12533
2026-01-06 03:39:07.48	160.19	42.30	-50.8	-61.9	3.8	8.46e-01	0	41	104	0	72	12536
2026-01-06 03:39:08.34	160.42	42.10	-50.8	-61.9	3.8	8.48e-01	0	41	104	0	72	12552
2026-01-06 03:39:09.48	160.73	41.83	-50.8	-61.8	3.8	8.48e-01	0	40	104	0	72	12517
2026-01-06 03:39:10.35	160.96	41.63	-50.8	-61.9	3.8	8.47e-01	0	41	104	0	72	12560
2026-01-06 03:39:11.49	161.25	41.36	-50.8	-61.8	3.8	8.46e-01	0	41	104	0	72	12479
2026-01-06 03:39:12.35	161.47	41.16	-50.8	-61.9	3.8	8.47e-01	0	41	104	0	72	12560
2026-01-06 03:39:13.50	161.77	40.89	-50.8	-61.9	3.8	8.46e-01	0	40	104	0	72	12574
2026-01-06 03:39:14.36	161.98	40.70	-50.8	-61.8	3.8	8.47e-01	0	40	104	0	72	12511
2026-01-06 03:39:15.72	162.31	40.38	-50.8	-61.8	3.8	8.47e-01	0	40	104	0	72	12505
2026-01-06 03:39:16.43	162.49	40.22	-50.8	-61.9	3.8	8.46e-01	0	41	104	0	72	12649
2026-01-06 03:39:17.93	162.84	39.88	-50.8	-61.9	3.8	8.47e-01	0	40	104	0	72	12525
2026-01-06 03:39:18.65	163.01	39.72	-50.8	-61.8	3.8	8.46e-01	0	40	104	0	72	12514
2026-01-06 03:39:19.94	163.31	39.42	-50.8	-61.8	3.8	8.45e-01	0	41	104	0	72	12516
2026-01-06 03:39:20.66	163.48	39.26	-50.8	-61.8	3.8	8.48e-01	0	41	104	0	72	12512
2026-01-06 03:39:21.95	163.77	38.97	-50.8	-61.9	3.8	8.47e-01	0	40	104	0	72	12551
2026-01-06 03:39:22.67	163.93	38.81	-50.8	-61.8	3.8	8.47e-01	0	41	104	0	72	12501
2026-01-06 03:39:23.96	164.21	38.53	-50.8	-61.9	3.8	8.48e-01	0	41	104	0	72	12564
2026-01-06 03:39:24.67	164.36	38.37	-50.8	-61.9	3.8	8.46e-01	0	41	104	0	72	12566
2026-01-06 03:39:25.96	164.64	38.09	-50.8	-61.9	3.8	8.47e-01	0	40	104	0	72	12571
2026-01-06 03:39:26.68	164.79	37.93	-50.8	-61.9	3.8	8.46e-01	0	41	104	0	72	12590
2026-01-06 03:39:27.97	165.06	37.65	-50.8	-61.8	3.8	8.47e-01	0	41	104	0	72	12467
2026-01-06 03:39:28.69	165.21	37.49	-50.8	-61.9	3.8	8.46e-01	0	41	104	0	72	12563
2026-01-06 03:39:29.98	165.47	37.21	-50.8	-61.9	3.8	8.47e-01	0	40	104	0	72	12595
2026-01-06 03:39:30.70	165.61	37.06	-50.8	-61.9	3.8	8.47e-01	0	41	104	0	72	12547
2026-01-06 03:39:31.99	165.87	36.78	-50.8	-61.8	3.8	8.47e-01	0	41	104	0	72	12487
2026-01-06 03:39:32.71	166.01	36.63	-50.8	-61.9	3.8	8.47e-01	0	41	104	0	72	12565
2026-01-06 03:39:34.00	166.26	36.36	-50.8	-61.8	3.8	8.46e-01	0	41	104	0	72	12490
2026-01-06 03:39:34.72	166.39	36.20	-50.8	-61.8	3.8	8.47e-01	0	40	104	0	72	12490
2026-01-06 03:39:36.01	166.64	35.93	-50.8	-61.8	3.8	8.47e-01	0	41	104	0	72	12457
2026-01-06 03:39:36.73	166.77	35.78	-50.8	-61.9	3.8	8.47e-01	0	41	104	0	72	12605
2026-01-06 03:39:38.02	167.01	35.51	-50.8	-61.9	3.8	8.46e-01	0	40	104	0	72	12558
2026-01-06 03:39:38.74	167.14	35.37	-50.8	-61.9	3.8	8.46e-01	0	41	104	0	72	12561
2026-01-06 03:39:40.03	167.37	35.10	-50.8	-61.9	3.8	8.47e-01	0	41	104	0	72	12520
2026-01-06 03:39:40.74	167.49	34.96	-50.8	-61.9	3.8	8.48e-01	0	40	104	0	72	12604
2026-01-06 03:39:42.03	167.72	34.69	-50.8	-61.9	3.8	8.47e-01	0	41	104	0	72	12639
2026-01-06 03:39:42.75	167.84	34.55	-50.8	-61.9	3.8	8.46e-01	0	41	104	0	72	12645
2026-01-06 03:39:44.04	168.06	34.29	-50.8	-61.9	3.8	8.47e-01	0	41	104	0	72	12615
2026-01-06 03:39:44.76	168.18	34.14	-50.8	-61.9	3.8	8.45e-01	0	41	104	0	72	12613
2026-01-06 03:39:46.05	168.39	33.89	-50.8	-61.9	3.8	8.45e-01	0	41	104	0	72	12547
2026-01-06 03:39:46.77	168.51	33.74	-50.8	-61.9	3.8	8.48e-01	0	41	104	0	72	12539
2026-01-06 03:39:48.06	168.72	33.49	-50.8	-61.8	3.8	8.46e-01	0	40	104	0	72	12472
2026-01-06 03:39:48.78	168.84	33.35	-50.8	-61.9	3.8	8.46e-01	0	41	104	0	72	12654
2026-01-06 03:39:50.07	169.04	33.10	-50.8	-61.9	3.8	8.47e-01	0	41	104	0	72	12621
2026-01-06 03:39:50.79	169.15	32.96	-50.8	-61.9	3.8	8.47e-01	0	40	104	0	72	12636
2026-01-06 03:39:52.08	169.35	32.71	-50.8	-61.9	3.8	8.46e-01	0	41	104	0	72	12535
2026-01-06 03:39:52.80	169.46	32.57	-50.8	-61.9	3.8	8.48e-01	0	41	104	0	72	12573
2026-01-06 03:39:54.09	169.66	32.32	-50.8	-61.9	3.8	8.46e-01	0	41	104	0	72	12547
2026-01-06 03:39:54.80	169.76	32.19	-50.8	-61.9	3.8	8.46e-01	0	41	104	0	72	12538
2026-01-06 03:39:56.09	169.95	31.94	-50.8	-61.8	3.8	8.47e-01	0	41	104	0	72	12515
2026-01-06 03:39:56.81	170.06	31.81	-50.8	-61.9	3.8	8.47e-01	0	41	104	0	72	12527
2026-01-06 03:39:58.10	170.25	31.57	-50.8	-61.9	3.8	8.47e-01	0	41	104	0	72	12585
2026-01-06 03:39:58.82	170.35	31.43	-50.8	-61.9	3.8	8.47e-01	0	41	104	0	72	12605
2026-01-06 03:40:00.11	170.53	31.19	-50.8	-61.8	3.8	8.46e-01	0	40	104	0	72	12519
2026-01-06 03:40:00.83	170.63	31.06	-50.8	-61.8	3.8	8.47e-01	0	41	104	0	72	12496
2026-01-06 03:40:02.12	170.81	30.82	-50.8	-61.9	3.8	8.47e-01	0	41	104	0	72	12542
2026-01-06 03:40:02.84	170.91	30.69	-50.8	-61.9	3.8	8.48e-01	0	41	104	0	72	12559
2026-01-06 03:40:04.13	171.08	30.46	-50.8	-61.8	3.8	8.47e-01	0	40	104	0	72	12494
2026-01-06 03:40:04.84	171.18	30.33	-50.8	-61.9	3.8	8.47e-01	0	41	104	0	72	12534
2026-01-06 03:40:06.13	171.35	30.10	-50.8	-61.9	3.8	8.47e-01	0	41	104	0	72	12634
2026-01-06 03:40:06.85	171.44	29.97	-50.8	-61.9	3.8	8.47e-01	0	41	104	0	72	12556
2026-01-06 03:40:08.15	171.61	29.74	-50.8	-61.9	3.8	8.46e-01	0	41	104	0	72	12592
2026-01-06 03:40:08.86	171.70	29.62	-50.8	-61.8	3.8	8.46e-01	0	40	104	0	72	12506
2026-01-06 03:40:10.15	171.86	29.39	-50.8	-61.9	3.8	8.47e-01	0	41	104	0	72	12595
2026-01-06 03:40:10.87	171.95	29.26	-50.8	-61.9	3.8	8.46e-01	0	41	104	0	72	12556
2026-01-06 03:40:12.16	172.11	29.04	-50.8	-61.8	3.8	8.48e-01	0	41	104	0	72	12492
2026-01-06 03:40:12.88	172.20	28.92	-50.8	-61.9	3.8	8.47e-01	0	41	104	0	72	12577
2026-01-06 03:40:14.17	172.36	28.69	-50.8	-61.8	3.8	8.47e-01	0	41	104	0	72	12471
2026-01-06 03:40:14.89	172.45	28.57	-50.8	-61.9	3.8	8.46e-01	0	41	104	0	72	12551
2026-01-06 03:40:16.18	172.60	28.35	-50.8	-61.9	3.8	8.47e-01	0	41	104	0	72	12579
2026-01-06 03:40:16.89	172.68	28.23	-50.8	-61.9	3.8	8.47e-01	0	41	104	0	72	12542
2026-01-06 03:40:18.18	172.83	28.01	-50.8	-61.9	3.8	8.46e-01	0	40	104	0	72	12525
2026-01-06 03:40:18.90	172.92	27.89	-50.8	-61.9	3.8	8.47e-01	0	41	104	0	72	12550
2026-01-06 03:40:20.19	173.06	27.68	-50.8	-61.9	3.8	8.47e-01	0	41	104	0	72	12655
2026-01-06 03:40:20.91	173.14	27.56	-50.8	-61.9	3.8	8.47e-01	0	41	104	0	72	12575
2026-01-06 03:40:22.20	173.29	27.35	-50.8	-61.9	3.8	8.47e-01	0	41	104	0	72	12588
2026-01-06 03:40:22.92	173.37	27.23	-50.8	-61.9	3.8	8.47e-01	0	41	104	0	72	12628
2026-01-06 03:40:24.21	173.51	27.02	-50.8	-61.9	3.8	8.47e-01	0	41	104	0	72	12599
2026-01-06 03:40:24.92	173.59	26.91	-50.8	-61.9	3.8	8.47e-01	0	41	104	0	72	12561
2026-01-06 03:40:26.22	173.73	26.70	-50.8	-61.9	3.8	8.46e-01	0	41	104	0	72	12537
2026-01-06 03:40:26.93	173.80	26.58	-50.8	-61.9	3.8	8.46e-01	0	41	104	0	72	12564
2026-01-06 03:40:28.22	173.94	26.38	-50.8	-61.9	3.8	8.48e-01	0	41	104	0	72	12530
2026-01-06 03:40:28.94	174.01	26.26	-50.8	-61.9	3.8	8.47e-01	0	41	104	0	72	12534
2026-01-06 03:40:30.23	174.15	26.06	-50.8	-61.8	3.8	8.46e-01	0	41	104	0	72	12508
2026-01-06 03:40:30.95	174.22	25.95	-50.8	-61.9	3.8	8.47e-01	0	40	104	0	72	12521
2026-01-06 03:40:32.24	174.35	25.75	-50.8	-61.9	3.8	8.47e-01	0	41	104	0	72	12575
2026-01-06 03:40:32.96	174.42	25.63	-50.8	-61.8	3.8	8.47e-01	0	41	104	0	72	12498
2026-01-06 03:40:34.25	174.55	25.43	-50.8	-61.9	3.8	8.47e-01	0	41	104	0	72	12522
2026-01-06 03:40:34.96	174.62	25.33	-50.8	-61.9	3.8	8.47e-01	0	41	104	0	72	12603
2026-01-06 03:40:36.25	174.75	25.13	-50.8	-61.9	3.8	8.48e-01	0	41	104	0	72	12609
2026-01-06 03:40:36.97	174.82	25.02	-50.8	-61.9	3.8	8.47e-01	0	41	104	0	72	12550
2026-01-06 03:40:38.26	174.94	24.82	-50.8	-61.9	3.8	8.47e-01	0	41	104	0	72	12554
2026-01-06 03:40:38.98	175.01	24.72	-50.8	-61.9	3.8	8.47e-01	0	41	104	0	72	12565
2026-01-06 03:40:40.27	175.13	24.52	-50.8	-61.9	3.8	8.48e-01	0	41	104	0	72	12542
2026-01-06 03:40:40.99	175.20	24.42	-50.8	-61.9	3.8	8.46e-01	0	41	104	0	72	12522
2026-01-06 03:40:42.28	175.32	24.23	-50.8	-61.8	3.8	8.46e-01	0	41	104	0	72	12486
2026-01-06 03:40:42.99	175.38	24.12	-50.8	-61.9	3.8	8.47e-01	0	41	104	0	72	12551
2026-01-06 03:40:44.29	175.50	23.93	-50.8	-61.9	3.8	8.46e-01	0	41	104	0	72	12544
2026-01-06 03:40:45.00	175.57	23.83	-50.8	-61.8	3.8	8.46e-01	0	41	104	0	72	12495
2026-01-06 03:40:46.31	175.68	23.64	-50.7	-61.9	3.8	8.48e-01	0	41	104	0	72	12520
2026-01-06 03:40:47.03	175.75	23.53	-50.8	-61.8	3.8	8.46e-01	0	41	104	0	72	12457
2026-01-06 03:40:48.32	175.86	23.35	-50.8	-61.8	3.8	8.47e-01	0	41	104	0	72	12491
2026-01-06 03:40:49.04	175.92	23.24	-50.8	-61.9	3.8	8.46e-01	0	41	104	0	72	12564
2026-01-06 03:40:50.33	176.03	23.06	-50.8	-61.9	3.8	8.46e-01	0	41	104	0	72	12535
2026-01-06 03:40:51.04	176.09	22.96	-50.8	-61.8	3.8	8.48e-01	0	41	104	0	72	12445
2026-01-06 03:40:52.34	176.20	22.78	-50.7	-61.8	3.8	8.46e-01	0	41	104	0	72	12491
2026-01-06 03:40:53.05	176.26	22.68	-50.7	-61.8	3.8	8.45e-01	0	41	104	0	72	12498
2026-01-06 03:40:54.34	176.37	22.50	-50.7	-61.8	3.8	8.46e-01	0	41	104	0	72	12511
2026-01-06 03:40:55.08	176.43	22.40	-50.8	-61.9	3.8	8.47e-01	0	41	104	0	72	12554
2026-01-06 03:40:56.37	176.54	22.22	-50.8	-61.8	3.8	8.48e-01	0	41	104	0	72	12513
2026-01-06 03:40:57.13	176.60	22.12	-50.8	-61.8	3.8	8.47e-01	0	41	104	0	72	12498
2026-01-06 03:40:58.43	176.70	21.94	-50.8	-61.8	3.8	8.46e-01	0	41	104	0	72	12479
2026-01-06 03:40:59.22	176.77	21.83	-50.7	-61.8	3.8	8.47e-01	0	41	104	0	72	12442
2026-01-06 03:41:00.37	176.86	21.68	-50.7	-61.8	3.8	8.46e-01	0	41	104	0	72	12468
2026-01-06 03:41:01.44	176.94	21.53	-50.7	-61.9	3.8	8.48e-01	0	41	104	0	72	12541
2026-01-06 03:41:02.48	177.02	21.39	-50.7	-61.8	3.8	8.47e-01	0	41	104	0	72	12481
2026-01-06 03:41:03.47	177.10	21.26	-50.7	-61.8	3.8	8.46e-01	0	41	104	0	72	12511
2026-01-06 03:41:04.48	177.17	21.13	-50.7	-61.8	3.8	8.47e-01	0	41	104	0	72	12505
2026-01-06 03:41:05.48	177.25	21.00	-50.7	-61.8	3.8	8.47e-01	0	41	104	0	72	12509
2026-01-06 03:41:06.48	177.32	20.86	-50.7	-61.9	3.8	8.47e-01	0	41	104	0	72	12565
2026-01-06 03:41:07.49	177.40	20.73	-50.7	-61.9	3.8	8.46e-01	0	41	104	0	72	12531
2026-01-06 03:41:08.49	177.47	20.60	-50.7	-61.8	3.8	8.48e-01	0	41	104	0	72	12434
2026-01-06 03:41:09.50	177.55	20.47	-50.7	-61.8	3.8	8.47e-01	0	41	104	0	72	12480
2026-01-06 03:41:10.50	177.62	20.34	-50.7	-61.9	3.8	8.46e-01	0	41	104	0	72	12552
2026-01-06 03:41:11.51	177.69	20.22	-50.7	-61.8	3.8	8.46e-01	0	41	104	0	72	12503
2026-01-06 03:41:12.51	177.77	20.09	-50.7	-61.8	3.8	8.47e-01	0	41	104	0	72	12519
2026-01-06 03:41:13.52	177.84	19.96	-50.7	-61.8	3.8	8.45e-01	0	41	104	0	72	12502
2026-01-06 03:41:14.52	177.91	19.83	-50.7	-61.8	3.8	8.48e-01	0	41	104	0	72	12426
2026-01-06 03:41:15.53	177.98	19.71	-50.7	-61.8	3.8	8.47e-01	0	41	104	0	72	12443
2026-01-06 03:41:16.53	178.05	19.58	-50.7	-61.8	3.8	8.48e-01	0	41	104	0	72	12404
2026-01-06 03:41:17.53	178.12	19.46	-50.7	-61.8	3.8	8.46e-01	0	41	104	0	72	12462
2026-01-06 03:41:18.54	178.18	19.33	-50.7	-61.8	3.8	8.47e-01	0	41	104	0	72	12436
2026-01-06 03:41:19.54	178.25	19.21	-50.7	-61.8	3.8	8.46e-01	0	41	104	0	72	12512
2026-01-06 03:41:20.55	178.32	19.09	-50.7	-61.8	3.8	8.47e-01	0	41	104	0	72	12509
2026-01-06 03:41:21.55	178.39	18.96	-50.7	-61.8	3.8	8.47e-01	0	41	104	0	72	12419
2026-01-06 03:41:22.56	178.45	18.84	-50.7	-61.8	3.8	8.47e-01	0	41	104	0	72	12450
2026-01-06 03:41:23.56	178.52	18.72	-50.7	-61.8	3.8	8.47e-01	0	41	104	0	72	12410
2026-01-06 03:41:24.56	178.58	18.60	-50.7	-61.8	3.8	8.47e-01	0	41	104	0	72	12471
2026-01-06 03:41:25.57	178.65	18.48	-50.7	-61.9	3.8	8.46e-01	0	41	104	0	72	12546
2026-01-06 03:41:26.57	178.71	18.36	-50.7	-61.8	3.8	8.47e-01	0	41	104	0	72	12518
2026-01-06 03:41:27.58	178.78	18.24	-50.7	-61.8	3.8	8.48e-01	0	41	104	0	72	12475
2026-01-06 03:41:28.58	178.84	18.12	-50.7	-61.9	3.8	8.48e-01	0	41	104	0	72	12523
2026-01-06 03:41:29.59	178.91	18.00	-50.7	-61.8	3.8	8.46e-01	0	41	104	0	72	12468
2026-01-06 03:41:30.59	178.97	17.89	-50.7	-61.8	3.8	8.47e-01	0	41	104	0	72	12435
2026-01-06 03:41:31.59	179.03	17.77	-50.7	-61.8	3.8	8.47e-01	0	41	104	0	72	12456
2026-01-06 03:41:32.60	179.09	17.65	-50.7	-61.9	3.8	8.47e-01	0	41	104	0	72	12524
2026-01-06 03:41:33.60	179.15	17.54	-50.7	-61.8	3.8	8.48e-01	0	41	104	0	72	12441
2026-01-06 03:41:34.60	179.21	17.42	-50.7	-61.8	3.8	8.47e-01	0	41	104	0	72	12483
2026-01-06 03:41:35.61	179.27	17.31	-50.7	-61.8	3.8	8.48e-01	0	41	104	0	72	12500
2026-01-06 03:41:36.61	179.33	17.19	-50.7	-61.8	3.8	8.47e-01	0	41	104	0	72	12495
2026-01-06 03:41:37.62	179.39	17.08	-50.7	-61.9	3.8	8.47e-01	0	41	104	0	72	12527
2026-01-06 03:41:38.62	179.45	16.97	-50.7	-61.8	3.8	8.47e-01	0	41	104	0	72	12491
2026-01-06 03:41:39.63	179.51	16.85	-50.7	-61.8	3.8	8.46e-01	0	41	104	0	72	12441
2026-01-06 03:41:40.63	179.57	16.74	-50.7	-61.8	3.8	8.47e-01	0	41	104	0	72	12442
2026-01-06 03:41:41.63	179.63	16.63	-50.7	-61.8	3.8	8.48e-01	0	41	104	0	72	12488
2026-01-06 03:41:42.64	179.68	16.52	-50.7	-61.8	3.8	8.48e-01	0	41	104	0	72	12498
2026-01-06 03:41:43.64	179.74	16.41	-50.7	-61.8	3.8	8.46e-01	0	41	104	0	72	12503
2026-01-06 03:41:44.65	179.80	16.30	-50.7	-61.8	3.8	8.46e-01	0	41	104	0	72	12470
2026-01-06 03:41:45.65	179.85	16.19	-50.7	-61.9	3.8	8.48e-01	0	41	104	0	72	12549
2026-01-06 03:41:46.66	179.91	16.08	-50.7	-61.8	3.8	8.47e-01	0	41	104	0	72	12469
2026-01-06 03:41:47.66	179.97	15.97	-50.7	-61.8	3.8	8.47e-01	0	41	104	0	72	12454
2026-01-06 03:41:48.66	180.02	15.86	-50.7	-61.8	3.8	8.47e-01	0	41	104	0	72	12470
2026-01-06 03:41:49.67	180.08	15.75	-50.7	-61.8	3.8	8.47e-01	0	41	104	0	72	12447
2026-01-06 03:41:50.67	180.13	15.64	-50.7	-61.8	3.8	8.47e-01	0	41	104	0	72	12476
2026-01-06 03:41:51.68	180.18	15.54	-50.7	-61.8	3.8	8.48e-01	0	41	104	0	72	12487
2026-01-06 03:41:52.68	180.24	15.43	-50.7	-61.9	3.8	8.47e-01	0	41	104	0	72	12528
2026-01-06 03:41:53.69	180.29	15.32	-50.7	-61.8	3.8	8.46e-01	0	41	104	0	72	12433
2026-01-06 03:41:54.69	180.34	15.22	-50.7	-61.8	3.8	8.46e-01	0	41	104	0	72	12491
2026-01-06 03:41:55.70	180.40	15.11	-50.7	-61.8	3.8	8.46e-01	0	41	104	0	72	12414
2026-01-06 03:41:56.70	180.45	15.01	-50.7	-61.8	3.8	8.47e-01	0	41	104	0	72	12449
2026-01-06 03:41:57.70	180.50	14.90	-50.7	-61.8	3.8	8.46e-01	0	41	104	0	72	12433
2026-01-06 03:41:58.71	180.55	14.80	-50.7	-61.8	3.8	8.47e-01	0	41	104	0	72	12492
2026-01-06 03:41:59.71	180.60	14.70	-50.7	-61.8	3.8	8.48e-01	0	41	104	0	72	12473
2026-01-06 03:42:00.72	180.66	14.59	-50.7	-61.8	3.8	8.47e-01	0	41	104	0	72	12430
2026-01-06 03:42:01.94	180.72	14.47	-50.7	-61.8	3.8	8.47e-01	0	41	104	0	72	12516
2026-01-06 03:42:02.81	180.76	14.38	-50.7	-61.8	3.8	8.48e-01	0	41	104	0	72	12496
2026-01-06 03:42:03.95	180.82	14.26	-50.7	-61.8	3.8	8.48e-01	0	41	104	0	72	12512
2026-01-06 03:42:04.81	180.86	14.18	-50.7	-61.9	3.8	8.46e-01	0	41	104	0	72	12539
2026-01-06 03:42:05.96	180.92	14.06	-50.7	-61.8	3.8	8.48e-01	0	41	104	0	72	12448
2026-01-06 03:42:06.82	180.96	13.97	-50.7	-61.8	3.8	8.48e-01	0	41	104	0	72	12488
2026-01-06 03:42:07.97	181.01	13.86	-50.7	-61.8	3.8	8.47e-01	0	41	104	0	72	12433
2026-01-06 03:42:08.83	181.05	13.77	-50.7	-61.8	3.8	8.47e-01	0	41	104	0	72	12483
2026-01-06 03:42:09.98	181.11	13.66	-50.7	-61.8	3.8	8.46e-01	0	41	104	0	72	12432
2026-01-06 03:42:10.84	181.15	13.57	-50.7	-61.8	3.8	8.47e-01	0	41	104	0	72	12410
2026-01-06 03:42:11.99	181.20	13.46	-50.7	-61.8	3.8	8.47e-01	0	41	104	0	72	12466
2026-01-06 03:42:12.84	181.24	13.38	-50.7	-61.8	3.8	8.46e-01	0	41	104	0	72	12494
2026-01-06 03:42:13.99	181.30	13.26	-50.7	-61.8	3.8	8.47e-01	0	41	104	0	72	12484
2026-01-06 03:42:14.85	181.34	13.18	-50.7	-61.9	3.8	8.47e-01	0	41	104	0	72	12521
2026-01-06 03:42:16.00	181.39	13.07	-50.7	-61.8	3.8	8.48e-01	0	41	104	0	72	12454
2026-01-06 03:42:16.94	181.43	12.98	-50.7	-61.8	3.8	8.46e-01	0	41	104	0	72	12499
2026-01-06 03:42:17.94	181.48	12.88	-50.7	-61.8	3.8	8.45e-01	0	41	104	0	72	12472
2026-01-06 03:42:18.95	181.52	12.79	-50.7	-61.9	3.8	8.47e-01	0	41	104	0	72	12540
2026-01-06 03:42:19.95	181.57	12.69	-50.7	-61.8	3.8	8.47e-01	0	41	104	0	72	12423
2026-01-06 03:42:20.95	181.61	12.60	-50.7	-61.8	3.8	8.46e-01	0	41	104	0	72	12465
2026-01-06 03:42:21.96	181.66	12.50	-50.7	-61.9	3.8	8.47e-01	0	41	104	0	72	12531
2026-01-06 03:42:22.96	181.70	12.41	-50.7	-61.8	3.8	8.47e-01	0	41	104	0	72	12470
2026-01-06 03:42:23.96	181.75	12.31	-50.7	-61.8	3.8	8.46e-01	0	41	104	0	72	12452
2026-01-06 03:42:24.97	181.79	12.22	-50.7	-61.8	3.8	8.47e-01	0	41	104	0	72	12489
2026-01-06 03:42:25.97	181.83	12.12	-50.7	-61.8	3.8	8.46e-01	0	41	104	0	72	12486
2026-01-06 03:42:26.98	181.88	12.03	-50.7	-61.8	3.8	8.48e-01	0	41	104	0	72	12471
2026-01-06 03:42:27.98	181.92	11.94	-50.7	-61.8	3.8	8.46e-01	0	41	104	0	72	12519
2026-01-06 03:42:28.99	181.96	11.84	-50.7	-61.8	3.8	8.45e-01	0	41	104	0	72	12461
2026-01-06 03:42:29.99	182.01	11.75	-50.7	-61.8	3.8	8.47e-01	0	41	104	0	72	12502
2026-01-06 03:42:30.99	182.05	11.66	-50.7	-61.8	3.8	8.46e-01	0	41	104	0	72	12466
2026-01-06 03:42:32.00	182.09	11.57	-50.7	-61.8	3.8	8.47e-01	0	41	104	0	72	12451
2026-01-06 03:42:33.00	182.13	11.48	-50.7	-61.8	3.8	8.47e-01	0	41	104	0	72	12517
2026-01-06 03:42:34.01	182.17	11.39	-50.8	-61.8	3.8	8.46e-01	0	41	104	0	72	12476
2026-01-06 03:42:35.01	182.22	11.30	-50.7	-61.8	3.8	8.47e-01	0	41	104	0	72	12480
2026-01-06 03:42:36.02	182.26	11.21	-50.7	-61.8	3.8	8.46e-01	0	41	104	0	72	12458
2026-01-06 03:42:37.02	182.30	11.12	-50.7	-61.9	3.8	8.47e-01	0	41	104	0	72	12530
2026-01-06 03:42:38.02	182.34	11.03	-50.7	-61.8	3.8	8.47e-01	0	41	104	0	72	12469
2026-01-06 03:42:39.03	182.38	10.94	-50.7	-61.8	3.8	8.47e-01	0	41	104	0	72	12437
2026-01-06 03:42:40.03	182.42	10.85	-50.7	-61.8	3.8	8.47e-01	0	41	104	0	72	12468
2026-01-06 03:42:41.04	182.46	10.76	-50.7	-61.8	3.8	8.47e-01	0	41	104	0	72	12483
2026-01-06 03:42:42.04	182.50	10.67	-50.7	-61.8	3.8	8.47e-01	0	41	104	0	72	12471
2026-01-06 03:42:43.04	182.54	10.58	-50.8	-61.8	3.8	8.47e-01	0	41	104	0	72	12465
2026-01-06 03:42:44.05	182.58	10.50	-50.8	-61.9	3.8	8.47e-01	0	41	104	0	72	12520
2026-01-06 03:42:45.06	182.62	10.41	-50.7	-61.9	3.8	8.47e-01	0	41	104	0	72	12595
2026-01-06 03:42:46.06	182.65	10.32	-50.7	-61.8	3.8	8.47e-01	0	41	104	0	72	12488
2026-01-06 03:42:47.06	182.69	10.23	-50.7	-61.8	3.8	8.48e-01	0	41	104	0	72	12435
2026-01-06 03:42:48.07	182.73	10.15	-50.7	-61.9	3.8	8.46e-01	0	41	104	0	72	12526
2026-01-06 03:42:49.07	182.77	10.06	-50.7	-61.8	3.8	8.46e-01	0	41	104	0	72	12468
2026-01-06 03:42:50.08	182.81	9.97	-50.8	-61.8	3.8	8.47e-01	0	41	104	0	72	12489
2026-01-06 03:42:51.08	182.85	9.89	-50.8	-61.8	3.8	8.47e-01	0	41	104	0	72	12483
2026-01-06 03:42:52.08	182.88	9.80	-50.7	-61.9	3.8	8.47e-01	0	41	104	0	72	12555
2026-01-06 03:42:53.09	182.92	9.72	-50.8	-61.9	3.8	8.47e-01	0	41	104	0	72	12602
2026-01-06 03:42:54.09	182.96	9.63	-50.7	-61.8	3.8	8.47e-01	0	41	104	0	72	12478
2026-01-06 03:42:55.09	182.99	9.55	-50.8	-61.9	3.8	8.46e-01	0	41	104	0	72	12527
2026-01-06 03:42:56.10	183.03	9.46	-50.8	-61.9	3.8	8.47e-01	0	41	104	0	72	12531
2026-01-06 03:42:57.10	183.07	9.38	-50.7	-61.8	3.8	8.48e-01	0	41	104	0	72	12497
2026-01-06 03:42:58.10	183.10	9.30	-50.8	-61.9	3.8	8.47e-01	0	41	104	0	72	12524
2026-01-06 03:42:59.11	183.14	9.21	-50.8	-61.9	3.8	8.48e-01	0	41	104	0	72	12542
2026-01-06 03:43:00.11	183.18	9.13	-50.8	-61.9	3.8	8.46e-01	0	41	104	0	72	12535
2026-01-06 03:43:01.12	183.21	9.05	-50.8	-61.8	3.8	8.47e-01	0	41	104	0	72	12508
2026-01-06 03:43:02.12	183.25	8.96	-50.8	-61.8	3.8	8.46e-01	0	41	104	0	72	12496
2026-01-06 03:43:03.13	183.28	8.88	-50.7	-61.8	3.8	8.47e-01	0	41	104	0	72	12497
2026-01-06 03:43:04.13	183.32	8.80	-50.8	-61.9	3.8	8.48e-01	0	41	104	0	72	12547
2026-01-06 03:43:05.13	183.35	8.72	-50.8	-61.8	3.8	8.48e-01	0	41	104	0	72	12466
2026-01-06 03:43:06.14	183.39	8.64	-50.8	-61.8	3.8	8.48e-01	0	41	104	0	72	12467
2026-01-06 03:43:07.14	183.42	8.56	-50.8	-61.8	3.8	8.47e-01	0	41	104	0	72	12462
2026-01-06 03:43:08.15	183.46	8.47	-50.8	-61.9	3.8	8.47e-01	0	41	104	0	72	12527
2026-01-06 03:43:09.15	183.49	8.39	-50.8	-61.8	3.8	8.47e-01	0	41	104	0	72	12519
2026-01-06 03:43:10.15	183.53	8.31	-50.8	-61.8	3.8	8.46e-01	0	41	104	0	72	12447
2026-01-06 03:43:11.16	183.56	8.23	-50.8	-61.9	3.8	8.48e-01	0	41	104	0	72	12544
2026-01-06 03:43:12.16	183.59	8.15	-50.8	-61.9	3.8	8.47e-01	0	41	104	0	72	12548
2026-01-06 03:43:13.17	183.63	8.07	-50.8	-61.8	3.8	8.46e-01	0	41	104	0	72	12480
2026-01-06 03:43:14.17	183.66	7.99	-50.8	-61.8	3.8	8.46e-01	0	41	104	0	72	12507
2026-01-06 03:43:15.17	183.69	7.91	-50.8	-61.9	3.8	8.46e-01	0	41	104	0	72	12529
2026-01-06 03:43:16.17	183.73	7.84	-50.7	-61.8	3.8	8.46e-01	0	41	104	0	72	12497
2026-01-06 03:43:17.18	183.76	7.76	-50.8	-61.9	3.8	8.47e-01	0	41	104	0	72	12604
2026-01-06 03:43:18.18	183.79	7.68	-50.8	-61.9	3.8	8.47e-01	0	41	104	0	72	12557
2026-01-06 03:43:19.19	183.83	7.60	-50.8	-61.9	3.8	8.47e-01	0	41	104	0	72	12522
2026-01-06 03:43:20.19	183.86	7.52	-50.8	-61.8	3.8	8.47e-01	0	41	104	0	72	12464
2026-01-06 03:43:21.19	183.89	7.44	-50.8	-61.8	3.8	8.46e-01	0	41	104	0	72	12474
2026-01-06 03:43:22.19	183.92	7.37	-50.8	-61.8	3.8	8.46e-01	0	41	104	0	72	12457
2026-01-06 03:43:23.20	183.96	7.29	-50.8	-61.9	3.8	8.48e-01	0	41	104	0	72	12534
2026-01-06 03:43:24.20	183.99	7.21	-50.8	-61.9	3.8	8.46e-01	0	41	104	0	72	12535
2026-01-06 03:43:25.20	184.02	7.13	-50.8	-61.8	3.8	8.46e-01	0	41	104	0	72	12459
2026-01-06 03:43:26.21	184.05	7.06	-50.8	-61.9	3.8	8.46e-01	0	41	104	0	72	12526
2026-01-06 03:43:27.24	184.08	6.98	-50.8	-61.9	3.8	8.46e-01	0	41	104	0	72	12528
2026-01-06 03:43:28.27	184.12	6.90	-50.7	-61.9	3.8	8.47e-01	0	41	104	0	72	12562
2026-01-06 03:43:29.31	184.15	6.82	-50.8	-61.9	3.8	8.47e-01	0	41	104	0	72	12574
2026-01-06 03:43:30.34	184.18	6.74	-50.8	-61.9	3.8	8.47e-01	0	41	104	0	72	12549
2026-01-06 03:43:31.39	184.21	6.66	-50.8	-61.8	3.8	8.47e-01	0	41	104	0	72	12455
2026-01-06 03:43:32.28	184.24	6.60	-50.8	-61.9	3.8	8.47e-01	0	41	104	0	72	12608
2026-01-06 03:43:33.48	184.28	6.51	-50.8	-61.9	3.8	8.47e-01	0	41	104	0	72	12533
2026-01-06 03:43:34.34	184.30	6.44	-50.8	-61.8	3.8	8.48e-01	0	41	104	0	72	12473
2026-01-06 03:43:35.68	184.34	6.34	-50.8	-61.9	3.8	8.46e-01	0	41	104	0	72	12521
2026-01-06 03:43:36.40	184.36	6.29	-50.8	-61.9	3.8	8.47e-01	0	41	104	0	72	12536
2026-01-06 03:43:37.89	184.41	6.18	-50.8	-61.9	3.8	8.46e-01	0	41	104	0	72	12603
2026-01-06 03:43:38.61	184.43	6.13	-50.8	-61.8	3.8	8.47e-01	0	41	104	0	72	12465
2026-01-06 03:43:39.90	184.47	6.03	-50.8	-61.9	3.8	8.47e-01	0	41	104	0	72	12575
2026-01-06 03:43:40.62	184.49	5.98	-50.8	-61.8	3.8	8.48e-01	0	41	104	0	72	12483
2026-01-06 03:43:41.91	184.53	5.88	-50.8	-61.9	3.8	8.47e-01	0	41	104	0	72	12539
2026-01-06 03:43:42.63	184.55	5.83	-50.8	-61.9	3.8	8.47e-01	0	41	104	0	72	12550
2026-01-06 03:43:43.92	184.58	5.74	-50.8	-61.8	3.8	8.47e-01	0	41	104	0	72	12506
2026-01-06 03:43:44.64	184.61	5.69	-50.8	-61.9	3.8	8.47e-01	0	41	104	0	72	12557
2026-01-06 03:43:45.93	184.64	5.59	-50.8	-61.9	3.8	8.48e-01	0	41	104	0	72	12575
2026-01-06 03:43:46.65	184.66	5.54	-50.8	-61.8	3.8	8.47e-01	0	41	104	0	72	12448
