passes_logs/2026/01/06/T1/T1__20260106_224453_SUOMI_NPP_rec.log

#Pass ID: 20260106_224453_SUOMI NPP
#Satellite: SUOMI NPP
#Configuration: NPP
#almurnet v.1.7.20251203
#Start time: 2026-01-06 22:44:54

#Version: 2.0.20230620
#Station: T1
#Location: 37.570604 lon 55.790049 lat
#TLE: 1 37849U 11061A   26005.94084933  .00000134  00000+0  84554-4 0  9990
#TLE: 2 37849  98.7803 308.0679 0002567  79.1029 281.0436 14.19522657735426

#Time	Az	El	Level	Level2	SNR	BER	BlckErr	Temp	State	Recorded	gain1	gain2
2026-01-06 22:44:54.87	24.40	5.09	-48.8	-64.5	3.8	1.49e+00	0	37	0	0	69	21724
2026-01-06 22:44:55.87	24.46	5.16	-48.8	-64.5	3.8	1.49e+00	0	37	104	0	68	22978
2026-01-06 22:44:56.87	24.52	5.22	-48.8	-64.5	3.8	1.49e+00	0	37	104	0	68	22996
2026-01-06 22:44:57.87	24.58	5.29	-48.8	-64.6	3.8	1.49e+00	0	37	104	0	68	23113
2026-01-06 22:44:58.88	24.64	5.35	-48.8	-64.5	3.8	1.49e+00	0	37	104	0	68	23016
2026-01-06 22:44:59.88	24.70	5.42	-48.8	-64.6	3.8	1.49e+00	0	37	104	0	68	23113
2026-01-06 22:45:00.89	24.76	5.49	-48.8	-64.6	3.8	1.49e+00	0	37	104	0	68	23097
2026-01-06 22:45:01.89	24.82	5.55	-48.8	-64.6	3.8	1.49e+00	0	37	104	0	68	23069
2026-01-06 22:45:02.90	24.89	5.62	-48.8	-64.5	3.8	1.49e+00	0	38	104	0	68	22964
2026-01-06 22:45:03.90	24.95	5.69	-48.8	-64.5	3.8	1.49e+00	0	37	104	0	68	22965
2026-01-06 22:45:04.90	25.01	5.76	-48.8	-64.5	3.8	1.49e+00	0	38	104	0	68	22927
2026-01-06 22:45:05.91	25.07	5.82	-48.8	-64.5	3.8	1.49e+00	0	37	104	0	68	23001
2026-01-06 22:45:06.91	25.14	5.89	-48.8	-64.5	3.8	1.49e+00	0	38	104	0	68	22991
2026-01-06 22:45:07.92	25.20	5.96	-48.8	-64.5	3.8	1.49e+00	0	38	104	0	68	22911
2026-01-06 22:45:08.92	25.26	6.03	-48.8	-64.5	3.8	1.49e+00	0	38	104	0	68	22925
2026-01-06 22:45:09.93	25.33	6.09	-48.8	-64.5	3.8	1.49e+00	0	38	104	0	68	22866
2026-01-06 22:45:10.93	25.39	6.16	-48.8	-64.5	3.8	1.49e+00	0	38	104	0	68	23006
2026-01-06 22:45:11.93	25.46	6.23	-48.8	-64.6	3.8	1.49e+00	0	38	104	0	68	23085
2026-01-06 22:45:12.94	25.52	6.30	-48.8	-64.6	3.8	1.49e+00	0	38	104	0	68	23085
2026-01-06 22:45:13.94	25.59	6.37	-48.8	-64.6	3.8	1.49e+00	0	38	104	0	68	23114
2026-01-06 22:45:14.95	25.65	6.44	-48.8	-64.6	3.8	1.49e+00	0	38	104	0	68	23099
2026-01-06 22:45:15.95	25.72	6.50	-48.8	-64.6	3.8	1.49e+00	0	38	104	0	68	23137
2026-01-06 22:45:16.95	25.79	6.57	-48.8	-64.6	3.8	1.49e+00	0	38	104	0	68	23194
2026-01-06 22:45:17.96	25.85	6.64	-48.8	-64.6	3.8	1.49e+00	0	38	104	0	68	23105
2026-01-06 22:45:18.96	25.92	6.71	-48.8	-64.6	3.8	1.49e+00	0	38	104	0	68	23124
2026-01-06 22:45:19.97	25.99	6.78	-48.8	-64.6	3.8	1.49e+00	0	38	104	0	68	23118
2026-01-06 22:45:20.97	26.05	6.85	-48.8	-64.5	3.8	1.49e+00	0	38	104	0	68	22877
2026-01-06 22:45:21.98	26.12	6.92	-48.8	-64.5	3.8	1.49e+00	0	38	104	0	68	22794
2026-01-06 22:45:22.98	26.19	6.99	-48.8	-64.4	3.8	1.49e+00	0	38	104	0	68	22633
2026-01-06 22:45:23.99	26.26	7.06	-48.8	-64.4	3.8	1.49e+00	0	38	104	0	68	22620
2026-01-06 22:45:24.99	26.33	7.13	-48.8	-64.4	3.8	1.49e+00	0	38	104	0	68	22593
2026-01-06 22:45:25.99	26.39	7.20	-48.8	-64.4	3.8	1.49e+00	0	38	104	0	68	22692
2026-01-06 22:45:27.00	26.46	7.27	-48.8	-64.5	3.8	1.49e+00	0	38	104	0	68	22857
2026-01-06 22:45:28.01	26.53	7.34	-48.8	-64.5	3.8	1.49e+00	0	38	104	0	68	22924
2026-01-06 22:45:29.01	26.60	7.41	-48.8	-64.6	3.8	1.49e+00	0	38	104	0	68	23056
2026-01-06 22:45:30.01	26.67	7.48	-48.8	-64.6	3.8	1.49e+00	0	38	104	0	68	23149
2026-01-06 22:45:31.02	26.74	7.56	-48.8	-64.5	3.8	1.49e+00	0	38	104	0	68	22982
2026-01-06 22:45:32.02	26.81	7.63	-48.8	-64.4	3.8	1.49e+00	0	38	104	0	68	22732
2026-01-06 22:45:33.03	26.89	7.70	-48.8	-64.4	3.8	1.49e+00	0	38	104	0	68	22524
2026-01-06 22:45:34.03	26.96	7.77	-48.8	-64.2	3.8	1.49e+00	0	38	104	0	68	22262
2026-01-06 22:45:35.03	27.03	7.84	-48.8	-64.2	3.8	1.49e+00	0	38	104	0	68	22238
2026-01-06 22:45:36.04	27.10	7.91	-48.8	-64.2	3.8	1.49e+00	0	39	104	0	68	22235
2026-01-06 22:45:37.04	27.17	7.99	-48.8	-64.3	3.8	1.49e+00	0	38	104	0	68	22295
2026-01-06 22:45:38.05	27.25	8.06	-48.8	-64.3	3.8	1.49e+00	0	39	104	0	68	22430
2026-01-06 22:45:39.05	27.32	8.13	-48.8	-64.3	3.8	1.49e+00	0	38	104	0	68	22393
2026-01-06 22:45:40.06	27.39	8.20	-48.8	-64.2	3.8	1.49e+00	0	39	104	0	68	22185
2026-01-06 22:45:41.06	27.47	8.28	-48.8	-64.1	3.8	1.49e+00	0	39	104	0	68	21785
2026-01-06 22:45:42.06	27.54	8.35	-48.8	-63.8	3.8	1.49e+00	0	39	104	0	68	21257
2026-01-06 22:45:43.07	27.61	8.42	-48.8	-63.6	3.8	1.49e+00	0	39	104	0	68	20697
2026-01-06 22:45:44.07	27.69	8.50	-48.8	-63.5	3.8	1.49e+00	0	39	104	0	68	20460
2026-01-06 22:45:45.08	27.76	8.57	-48.7	-63.2	3.8	1.49e+00	0	39	104	0	68	19636
2026-01-06 22:45:46.08	27.84	8.64	-48.7	-62.9	3.8	1.49e+00	0	39	104	0	68	19082
2026-01-06 22:45:47.09	27.92	8.72	-48.7	-62.5	3.8	1.49e+00	0	39	104	0	68	18298
2026-01-06 22:45:48.09	27.99	8.79	-48.7	-61.6	4.1	1.48e+00	0	39	104	0	68	16433
2026-01-06 22:45:49.09	28.07	8.87	-48.6	-60.4	4.4	1.34e+00	0	39	0	0	68	14243
2026-01-06 22:45:50.10	28.15	8.94	-48.4	-58.9	5.1	7.97e-01	0	39	0	2097152	68	12037
2026-01-06 22:45:51.10	28.22	9.01	-48.2	-57.3	6.1	4.63e-01	0	39	0	3145728	68	9985
2026-01-06 22:45:52.11	28.30	9.09	-48.3	-57.5	6.0	3.21e-01	0	39	0	5242880	68	10257
2026-01-06 22:45:53.14	28.38	9.17	-48.7	-61.9	3.9	1.43e+00	0	39	104	6291456	68	16963
2026-01-06 22:45:54.17	28.46	9.24	-47.4	-54.3	8.9	1.83e-01	0	39	0	7340032	66	7903
2026-01-06 22:45:55.17	28.54	9.32	-48.7	-61.2	3.9	5.83e-01	0	39	104	8388608	68	15582
2026-01-06 22:45:56.25	28.62	9.40	-45.1	-48.8	14.5	2.13e-05	0	39	0	9437184	62	5328
2026-01-06 22:45:57.15	28.70	9.47	-44.9	-48.6	14.7	1.50e-06	0	39	0	10485760	61	5514
2026-01-06 22:45:58.29	28.79	9.55	-44.9	-48.6	14.8	0.00e+00	0	39	0	12582912	61	5477
2026-01-06 22:45:59.15	28.86	9.62	-44.8	-48.4	15.0	0.00e+00	0	39	0	14680064	61	5342
2026-01-06 22:46:00.30	28.95	9.71	-44.7	-48.2	15.1	0.00e+00	0	39	0	16777216	61	5226
2026-01-06 22:46:01.16	29.02	9.77	-44.6	-48.0	15.3	0.00e+00	0	39	0	17825792	61	5140
2026-01-06 22:46:02.30	29.11	9.86	-44.5	-47.8	15.5	0.00e+00	0	39	0	20971520	60	5310
2026-01-06 22:46:03.16	29.18	9.93	-44.4	-47.7	15.6	0.00e+00	0	39	0	22020096	60	5268
2026-01-06 22:46:04.31	29.28	10.01	-44.5	-47.8	15.5	0.00e+00	0	39	0	24117248	60	5331
2026-01-06 22:46:05.17	29.35	10.08	-44.2	-47.4	15.8	0.00e+00	0	39	0	26214400	60	5082
2026-01-06 22:46:06.32	29.44	10.17	-44.0	-47.1	16.2	0.00e+00	0	39	0	28311552	60	4889
2026-01-06 22:46:07.18	29.51	10.24	-44.0	-47.1	16.3	0.00e+00	0	39	0	29360128	59	5169
2026-01-06 22:46:08.32	29.61	10.32	-43.8	-46.8	16.5	0.00e+00	0	39	0	31457280	59	5003
2026-01-06 22:46:09.18	29.68	10.39	-43.8	-46.7	16.6	0.00e+00	0	39	0	33554432	59	4936
2026-01-06 22:46:10.33	29.78	10.48	-43.7	-46.6	16.7	0.00e+00	0	39	0	35651584	59	4907
2026-01-06 22:46:11.19	29.85	10.55	-43.6	-46.4	16.9	0.00e+00	0	39	0	36700160	59	4785
2026-01-06 22:46:12.33	29.95	10.64	-43.5	-46.3	17.0	0.00e+00	0	39	0	39845888	58	5026
2026-01-06 22:46:13.20	30.02	10.71	-43.5	-46.2	17.1	0.00e+00	0	39	0	40894464	58	4955
2026-01-06 22:46:14.34	30.12	10.80	-43.3	-46.0	17.3	0.00e+00	0	39	0	42991616	58	4831
2026-01-06 22:46:15.20	30.20	10.86	-43.3	-46.1	17.3	0.00e+00	0	39	0	45088768	58	4874
2026-01-06 22:46:16.35	30.30	10.95	-43.2	-45.8	17.5	0.00e+00	0	39	0	47185920	58	4735
2026-01-06 22:46:17.21	30.37	11.02	-43.2	-45.9	17.4	0.00e+00	0	39	0	48234496	58	4761
2026-01-06 22:46:18.35	30.47	11.11	-43.5	-46.2	17.2	0.00e+00	0	39	0	50331648	58	4945
2026-01-06 22:46:19.21	30.55	11.18	-43.4	-46.1	17.2	0.00e+00	0	39	0	52428800	58	4923
2026-01-06 22:46:20.36	30.65	11.27	-43.4	-46.1	17.3	0.00e+00	0	39	0	54525952	58	4900
2026-01-06 22:46:21.22	30.73	11.34	-43.4	-46.2	17.2	0.00e+00	0	39	0	55574528	58	4945
2026-01-06 22:46:22.36	30.83	11.43	-43.5	-46.2	17.2	0.00e+00	0	39	0	57671680	58	4956
2026-01-06 22:46:23.22	30.91	11.50	-43.5	-46.3	17.1	0.00e+00	0	39	0	59768832	58	5001
2026-01-06 22:46:24.36	31.01	11.60	-43.5	-46.3	17.0	0.00e+00	0	39	0	61865984	58	5035
2026-01-06 22:46:25.22	31.09	11.67	-43.6	-46.5	16.9	0.00e+00	0	39	0	63963136	58	5116
2026-01-06 22:46:26.37	31.20	11.76	-43.7	-46.6	16.8	0.00e+00	0	39	0	66060288	58	5177
2026-01-06 22:46:27.23	31.28	11.83	-43.6	-46.5	16.9	0.00e+00	0	39	0	67108864	58	5129
2026-01-06 22:46:28.38	31.38	11.92	-43.7	-46.6	16.8	0.00e+00	0	39	0	69206016	58	5165
2026-01-06 22:46:29.24	31.46	11.99	-43.7	-46.6	16.8	0.00e+00	0	39	0	71303168	58	5166
2026-01-06 22:46:30.38	31.57	12.09	-43.6	-46.4	17.0	0.00e+00	0	39	0	73400320	58	5087
2026-01-06 22:46:31.25	31.65	12.16	-43.6	-46.6	16.8	0.00e+00	0	39	0	74448896	58	5162
2026-01-06 22:46:32.39	31.76	12.25	-43.6	-46.6	16.8	0.00e+00	0	39	0	76546048	58	5168
2026-01-06 22:46:33.25	31.84	12.32	-43.4	-46.3	17.1	0.00e+00	0	39	0	78643200	58	5018
2026-01-06 22:46:34.40	31.95	12.42	-43.4	-46.2	17.2	0.00e+00	0	39	0	80740352	58	4975
2026-01-06 22:46:35.25	32.04	12.49	-43.4	-46.3	17.1	0.00e+00	0	39	0	81788928	58	5034
2026-01-06 22:46:36.40	32.15	12.59	-43.3	-46.1	17.3	0.00e+00	0	39	0	84934656	58	4881
2026-01-06 22:46:37.26	32.23	12.66	-43.2	-45.9	17.5	0.00e+00	0	39	0	85983232	58	4795
2026-01-06 22:46:38.40	32.34	12.75	-43.2	-45.9	17.5	0.00e+00	0	39	0	88080384	58	4799
2026-01-06 22:46:39.26	32.43	12.83	-43.1	-45.8	17.6	0.00e+00	0	39	0	90177536	58	4738
2026-01-06 22:46:40.40	32.54	12.92	-43.2	-45.8	17.6	0.00e+00	0	39	0	92274688	58	4752
2026-01-06 22:46:41.26	32.63	12.99	-43.1	-45.7	17.6	0.00e+00	0	39	0	93323264	58	4678
2026-01-06 22:46:42.41	32.74	13.09	-43.1	-45.6	17.8	0.00e+00	0	40	0	95420416	58	4650
2026-01-06 22:46:43.27	32.83	13.16	-43.0	-45.6	17.8	0.00e+00	0	39	0	97517568	57	4887
2026-01-06 22:46:44.41	32.94	13.26	-42.9	-45.4	18.0	0.00e+00	0	39	0	99614720	57	4799
2026-01-06 22:46:45.32	33.04	13.34	-42.9	-45.4	18.0	0.00e+00	0	39	0	101711872	57	4779
2026-01-06 22:46:46.53	33.16	13.44	-43.1	-45.6	17.8	0.00e+00	0	39	0	103809024	57	4916
2026-01-06 22:46:47.39	33.25	13.52	-43.1	-45.6	17.8	0.00e+00	0	40	0	104857600	57	4909
2026-01-06 22:46:48.52	33.37	13.61	-42.9	-45.4	18.0	0.00e+00	0	39	0	106954752	57	4811
2026-01-06 22:46:49.38	33.45	13.69	-42.9	-45.4	18.0	0.00e+00	0	39	0	109051904	57	4782
2026-01-06 22:46:50.52	33.57	13.79	-42.9	-45.4	17.9	0.00e+00	0	40	0	111149056	57	4793
2026-01-06 22:46:51.39	33.67	13.86	-42.8	-45.3	18.0	0.00e+00	0	39	0	112197632	57	4757
2026-01-06 22:46:52.53	33.79	13.96	-43.1	-45.6	17.8	0.00e+00	0	39	0	114294784	57	4909
2026-01-06 22:46:53.39	33.88	14.04	-43.0	-45.6	17.8	0.00e+00	0	40	0	116391936	57	4892
2026-01-06 22:46:54.53	34.00	14.13	-43.1	-45.7	17.7	0.00e+00	0	39	0	118489088	57	4970
2026-01-06 22:46:55.39	34.09	14.21	-43.2	-45.8	17.6	0.00e+00	0	39	0	119537664	57	5032
2026-01-06 22:46:56.54	34.22	14.31	-43.5	-46.2	17.3	0.00e+00	0	39	0	122683392	57	5263
2026-01-06 22:46:57.40	34.31	14.39	-43.5	-46.2	17.3	0.00e+00	0	39	0	123731968	57	5267
2026-01-06 22:46:58.54	34.44	14.49	-43.5	-46.2	17.2	0.00e+00	0	40	0	125829120	57	5276
2026-01-06 22:46:59.40	34.53	14.56	-43.7	-46.5	17.0	0.00e+00	0	40	0	127926272	58	5124
2026-01-06 22:47:00.55	34.66	14.67	-43.6	-46.3	17.2	0.00e+00	0	40	0	130023424	58	5009
2026-01-06 22:47:01.41	34.75	14.74	-43.7	-46.5	17.1	0.00e+00	0	40	0	131072000	58	5120
2026-01-06 22:47:02.55	34.88	14.84	-43.7	-46.5	17.1	0.00e+00	0	40	0	133169152	58	5121
2026-01-06 22:47:03.41	34.98	14.92	-43.5	-46.3	17.3	0.00e+00	0	40	0	135266304	58	4987
2026-01-06 22:47:04.56	35.11	15.02	-43.6	-46.4	17.1	0.00e+00	0	40	0	137363456	58	5050
2026-01-06 22:47:05.42	35.21	15.10	-43.7	-46.5	17.1	0.00e+00	0	40	0	138412032	58	5123
2026-01-06 22:47:06.56	35.34	15.20	-43.6	-46.4	17.1	0.00e+00	0	40	0	141557760	58	5070
2026-01-06 22:47:07.42	35.44	15.28	-43.4	-46.1	17.4	0.00e+00	0	39	0	142606336	58	4920
2026-01-06 22:47:08.57	35.57	15.39	-43.5	-46.3	17.3	0.00e+00	0	40	0	144703488	58	5008
2026-01-06 22:47:09.43	35.67	15.46	-43.5	-46.2	17.3	0.00e+00	0	40	0	146800640	58	4972
2026-01-06 22:47:10.58	35.81	15.57	-43.5	-46.3	17.2	0.00e+00	0	40	0	148897792	58	5011
2026-01-06 22:47:11.44	35.91	15.65	-43.5	-46.3	17.3	0.00e+00	0	40	0	149946368	58	5016
2026-01-06 22:47:12.58	36.04	15.75	-43.8	-46.6	17.0	0.00e+00	0	40	0	152043520	58	5177
2026-01-06 22:47:13.44	36.15	15.83	-43.6	-46.4	17.2	0.00e+00	0	40	0	154140672	58	5044
2026-01-06 22:47:14.59	36.29	15.94	-43.8	-46.5	17.0	0.00e+00	0	40	0	156237824	58	5144
2026-01-06 22:47:15.45	36.39	16.02	-43.9	-46.7	16.9	0.00e+00	0	40	0	157286400	58	5232
2026-01-06 22:47:16.59	36.53	16.12	-43.8	-46.6	17.0	0.00e+00	0	40	0	159383552	58	5172
2026-01-06 22:47:17.45	36.63	16.20	-43.9	-46.7	16.9	0.00e+00	0	40	0	161480704	58	5272
2026-01-06 22:47:18.59	36.77	16.31	-43.9	-46.6	16.9	0.00e+00	0	40	0	163577856	58	5217
2026-01-06 22:47:19.45	36.88	16.39	-43.9	-46.6	16.9	0.00e+00	0	40	0	165675008	58	5210
2026-01-06 22:47:20.60	37.02	16.49	-44.1	-46.9	16.7	0.00e+00	0	40	0	167772160	58	5372
2026-01-06 22:47:21.46	37.13	16.57	-43.9	-46.7	16.9	0.00e+00	0	40	0	168820736	58	5248
2026-01-06 22:47:22.60	37.28	16.68	-43.9	-46.7	16.9	0.00e+00	0	40	0	170917888	58	5221
2026-01-06 22:47:23.46	37.39	16.76	-43.8	-46.6	17.0	0.00e+00	0	40	0	173015040	58	5205
2026-01-06 22:47:24.61	37.53	16.87	-43.9	-46.7	16.9	0.00e+00	0	40	0	175112192	58	5270
2026-01-06 22:47:25.72	37.67	16.98	-43.7	-46.4	17.2	0.00e+00	0	40	0	177209344	58	5061
2026-01-06 22:47:26.58	37.79	17.06	-43.9	-46.7	16.9	0.00e+00	0	40	0	178257920	58	5226
2026-01-06 22:47:28.08	37.98	17.20	-43.8	-46.5	17.1	0.00e+00	0	40	0	181403648	58	5116
2026-01-06 22:47:28.79	38.07	17.27	-43.8	-46.6	17.0	0.00e+00	0	40	0	182452224	58	5178
2026-01-06 22:47:30.29	38.27	17.41	-44.0	-46.8	16.8	0.00e+00	0	40	0	185597952	58	5315
2026-01-06 22:47:31.01	38.37	17.48	-43.8	-46.5	17.2	0.00e+00	0	40	0	186646528	58	5124
2026-01-06 22:47:32.30	38.54	17.60	-43.8	-46.5	17.1	0.00e+00	0	40	0	188743680	58	5117
2026-01-06 22:47:33.01	38.64	17.67	-43.9	-46.7	16.9	0.00e+00	0	40	0	190840832	58	5232
2026-01-06 22:47:34.30	38.81	17.80	-43.9	-46.7	16.9	0.00e+00	0	40	0	192937984	58	5223
2026-01-06 22:47:35.02	38.91	17.87	-43.9	-46.7	17.0	0.00e+00	0	40	0	193986560	58	5221
2026-01-06 22:47:36.31	39.09	17.99	-44.1	-46.9	16.8	0.00e+00	0	40	0	197132288	58	5346
2026-01-06 22:47:37.02	39.18	18.06	-44.0	-46.8	16.9	0.00e+00	0	40	0	198180864	58	5304
2026-01-06 22:47:38.31	39.36	18.19	-44.1	-46.8	16.8	0.00e+00	0	40	0	200278016	58	5331
2026-01-06 22:47:39.03	39.46	18.26	-44.1	-46.9	16.7	0.00e+00	0	40	0	202375168	58	5402
2026-01-06 22:47:40.32	39.65	18.38	-44.0	-46.8	16.9	0.00e+00	0	40	0	204472320	58	5304
2026-01-06 22:47:41.04	39.75	18.45	-44.0	-46.8	16.8	0.00e+00	0	40	0	205520896	58	5313
2026-01-06 22:47:42.32	39.93	18.58	-44.0	-46.7	16.9	0.00e+00	0	40	0	207618048	59	4969
2026-01-06 22:47:43.04	40.03	18.65	-44.1	-46.8	16.8	0.00e+00	0	40	0	209715200	59	5031
2026-01-06 22:47:44.36	40.22	18.78	-43.9	-46.7	17.0	0.00e+00	0	40	0	211812352	59	4929
2026-01-06 22:47:45.08	40.33	18.85	-44.1	-46.9	16.8	0.00e+00	0	40	0	212860928	59	5056
2026-01-06 22:47:46.43	40.53	18.99	-44.0	-46.8	16.9	0.00e+00	0	40	0	216006656	59	4999
2026-01-06 22:47:47.14	40.63	19.06	-44.1	-46.9	16.8	0.00e+00	0	40	0	217055232	59	5058
2026-01-06 22:47:48.44	40.82	19.19	-44.3	-47.2	16.5	0.00e+00	0	40	0	219152384	59	5226
2026-01-06 22:47:49.15	40.93	19.26	-44.2	-47.1	16.5	0.00e+00	0	40	0	221249536	59	5200
2026-01-06 22:47:50.57	41.14	19.40	-44.2	-47.0	16.7	0.00e+00	0	40	0	223346688	59	5117
2026-01-06 22:47:51.56	41.29	19.50	-44.1	-46.9	16.7	0.00e+00	0	40	0	225443840	59	5075
2026-01-06 22:47:52.56	41.44	19.60	-43.8	-46.5	17.1	0.00e+00	0	40	0	227540992	59	4868
2026-01-06 22:47:53.90	41.65	19.74	-43.7	-46.4	17.2	0.00e+00	0	40	0	229638144	59	4768
2026-01-06 22:47:54.67	41.77	19.81	-43.6	-46.3	17.3	0.00e+00	0	40	0	231735296	59	4717
2026-01-06 22:47:56.28	42.02	19.98	-43.4	-46.0	17.6	0.00e+00	0	40	0	233832448	58	4849
2026-01-06 22:47:56.85	42.11	20.04	-43.4	-45.9	17.7	0.00e+00	0	40	0	234881024	58	4814
2026-01-06 22:47:58.43	42.36	20.20	-43.4	-45.9	17.7	0.00e+00	0	40	0	238026752	58	4807
2026-01-06 22:47:59.03	42.45	20.26	-43.3	-45.8	17.7	0.00e+00	0	40	0	239075328	58	4758
2026-01-06 22:48:00.60	42.70	20.42	-43.4	-45.9	17.7	0.00e+00	0	40	0	242221056	58	4805
2026-01-06 22:48:01.18	42.80	20.48	-43.4	-45.9	17.7	0.00e+00	0	40	0	243269632	58	4802
2026-01-06 22:48:02.83	43.06	20.65	-43.5	-46.1	17.6	0.00e+00	0	40	0	246415360	58	4900
2026-01-06 22:48:03.41	43.16	20.71	-43.6	-46.2	17.4	0.00e+00	0	40	0	247463936	58	4952
2026-01-06 22:48:05.02	43.42	20.87	-43.3	-45.9	17.7	0.00e+00	0	40	0	250609664	58	4801
2026-01-06 22:48:05.60	43.52	20.93	-43.1	-45.6	18.0	0.00e+00	0	40	0	251658240	58	4651
2026-01-06 22:48:07.52	43.84	21.13	-42.8	-45.2	18.4	0.00e+00	0	40	0	255852544	57	4685
2026-01-06 22:48:08.10	43.94	21.19	-42.7	-45.1	18.5	0.00e+00	0	40	0	255852544	57	4634
2026-01-06 22:48:09.67	44.20	21.36	-42.7	-45.1	18.5	0.00e+00	0	40	0	258998272	57	4627
2026-01-06 22:48:10.26	44.30	21.42	-42.6	-45.0	18.6	0.00e+00	0	40	0	260046848	57	4552
2026-01-06 22:48:11.84	44.58	21.58	-42.5	-44.8	18.7	0.00e+00	0	40	0	263192576	57	4488
2026-01-06 22:48:12.41	44.68	21.64	-42.5	-44.9	18.7	0.00e+00	0	40	0	264241152	56	4766
2026-01-06 22:48:14.02	44.96	21.81	-42.8	-45.2	18.4	0.00e+00	0	40	0	267386880	56	4963
2026-01-06 22:48:14.59	45.06	21.87	-42.7	-45.1	18.4	0.00e+00	0	40	0	268435456	56	4914
2026-01-06 22:48:16.34	45.37	22.06	-42.6	-45.0	18.6	0.00e+00	0	40	0	271581184	56	4840
2026-01-06 22:48:16.92	45.47	22.12	-42.6	-45.0	18.6	0.00e+00	0	40	0	272629760	56	4827
2026-01-06 22:48:18.51	45.76	22.29	-42.7	-45.0	18.5	0.00e+00	0	40	0	275775488	56	4863
2026-01-06 22:48:19.08	45.86	22.35	-42.5	-44.8	18.8	0.00e+00	0	40	0	276824064	56	4751
2026-01-06 22:48:20.67	46.15	22.51	-42.6	-44.9	18.7	0.00e+00	0	40	0	279969792	56	4808
2026-01-06 22:48:21.52	46.31	22.61	-42.4	-44.8	18.8	0.00e+00	0	40	0	282066944	56	4714
2026-01-06 22:48:22.66	46.52	22.73	-42.5	-44.8	18.8	0.00e+00	0	40	0	284164096	56	4756
2026-01-06 22:48:23.52	46.68	22.82	-42.5	-44.8	18.8	0.00e+00	0	40	0	285212672	56	4727
2026-01-06 22:48:24.67	46.89	22.94	-42.4	-44.7	18.9	0.00e+00	0	40	0	287309824	56	4693
2026-01-06 22:48:25.53	47.06	23.03	-42.4	-44.8	18.9	0.00e+00	0	40	0	289406976	56	4706
2026-01-06 22:48:26.67	47.27	23.15	-42.3	-44.6	19.0	0.00e+00	0	40	0	291504128	56	4608
2026-01-06 22:48:27.53	47.44	23.25	-42.3	-44.6	19.0	0.00e+00	0	40	0	292552704	56	4625
2026-01-06 22:48:28.68	47.66	23.37	-42.3	-44.6	19.0	0.00e+00	0	40	0	294649856	56	4636
2026-01-06 22:48:29.62	47.84	23.47	-42.4	-44.6	19.0	0.00e+00	0	40	0	296747008	56	4648
2026-01-06 22:48:30.62	48.04	23.58	-42.3	-44.6	19.0	0.00e+00	0	40	0	298844160	56	4603
2026-01-06 22:48:31.63	48.24	23.69	-42.1	-44.3	19.2	0.00e+00	0	40	0	300941312	56	4493
2026-01-06 22:48:32.63	48.43	23.79	-41.7	-43.9	19.5	0.00e+00	0	40	0	301989888	55	4528
2026-01-06 22:48:33.90	48.69	23.93	-41.8	-44.0	19.4	0.00e+00	0	40	0	305135616	55	4566
2026-01-06 22:48:34.67	48.84	24.01	-41.8	-44.0	19.4	0.00e+00	0	40	0	306184192	55	4562
2026-01-06 22:48:36.27	49.17	24.19	-41.5	-43.6	19.7	0.00e+00	0	40	0	309329920	54	4630
2026-01-06 22:48:36.85	49.28	24.25	-41.6	-43.8	19.6	0.00e+00	0	40	0	310378496	54	4711
2026-01-06 22:48:38.42	49.61	24.42	-41.7	-43.8	19.6	0.00e+00	0	40	0	313524224	54	4753
2026-01-06 22:48:39.03	49.73	24.48	-41.8	-44.0	19.4	0.00e+00	0	40	0	314572800	54	4835
2026-01-06 22:48:40.60	50.06	24.65	-42.0	-44.3	19.2	0.00e+00	0	40	0	317718528	54	5005
2026-01-06 22:48:41.21	50.19	24.72	-42.0	-44.2	19.2	0.00e+00	0	40	0	318767104	54	4978
2026-01-06 22:48:42.80	50.52	24.89	-42.3	-44.6	18.9	0.00e+00	0	40	0	321912832	55	4884
2026-01-06 22:48:43.37	50.65	24.96	-42.3	-44.6	18.9	0.00e+00	0	40	0	322961408	55	4902
2026-01-06 22:48:44.98	50.99	25.13	-42.1	-44.4	19.1	0.00e+00	0	40	0	325058560	55	4771
2026-01-06 22:48:45.55	51.12	25.19	-42.2	-44.5	18.9	0.00e+00	0	40	0	327155712	55	4834
2026-01-06 22:48:47.17	51.47	25.37	-42.2	-44.6	18.9	0.00e+00	0	40	0	329252864	55	4874
2026-01-06 22:48:48.03	51.66	25.46	-42.3	-44.6	18.9	0.00e+00	0	40	0	331350016	55	4914
2026-01-06 22:48:49.18	51.91	25.59	-42.3	-44.6	18.9	0.00e+00	0	40	0	333447168	55	4895
2026-01-06 22:48:50.04	52.10	25.68	-42.1	-44.4	19.1	0.00e+00	0	40	0	335544320	55	4774
2026-01-06 22:48:51.19	52.36	25.80	-42.3	-44.6	18.9	0.00e+00	0	40	0	337641472	55	4918
2026-01-06 22:48:52.05	52.56	25.90	-42.2	-44.5	19.0	0.00e+00	0	40	0	338690048	55	4856
2026-01-06 22:48:53.20	52.82	26.02	-42.3	-44.6	18.9	0.00e+00	0	40	0	340787200	55	4898
2026-01-06 22:48:54.06	53.01	26.12	-42.4	-44.7	18.8	0.00e+00	0	40	0	342884352	55	4982
2026-01-06 22:48:55.20	53.28	26.24	-42.4	-44.7	18.8	0.00e+00	0	40	0	344981504	55	4978
2026-01-06 22:48:56.06	53.48	26.33	-42.5	-44.8	18.7	0.00e+00	0	40	0	346030080	55	5026
2026-01-06 22:48:57.21	53.74	26.46	-42.7	-45.1	18.6	0.00e+00	0	40	0	348127232	56	4875
2026-01-06 22:48:58.07	53.95	26.55	-42.7	-45.1	18.6	0.00e+00	0	40	0	350224384	56	4911
2026-01-06 22:48:59.21	54.22	26.67	-42.5	-44.9	18.8	0.00e+00	0	40	0	352321536	56	4764
2026-01-06 22:49:00.07	54.42	26.77	-42.8	-45.2	18.5	0.00e+00	0	40	0	353370112	56	4936
2026-01-06 22:49:01.22	54.70	26.89	-42.9	-45.3	18.4	0.00e+00	0	40	0	356515840	56	5019
2026-01-06 22:49:02.08	54.90	26.98	-42.9	-45.3	18.3	0.00e+00	0	40	0	357564416	56	5030
2026-01-06 22:49:03.57	55.27	27.14	-43.4	-45.9	17.9	0.00e+00	0	40	0	360710144	57	5071
2026-01-06 22:49:04.28	55.44	27.22	-43.4	-45.9	17.8	0.00e+00	0	40	0	361758720	57	5088
2026-01-06 22:49:05.58	55.76	27.36	-43.6	-46.2	17.6	0.00e+00	0	40	0	363855872	57	5233
2026-01-06 22:49:06.29	55.94	27.44	-43.5	-46.0	17.7	0.00e+00	0	40	0	365953024	57	5157
2026-01-06 22:49:07.58	56.26	27.58	-43.7	-46.2	17.6	0.00e+00	0	40	0	368050176	58	4982
2026-01-06 22:49:08.30	56.44	27.65	-43.8	-46.5	17.3	0.00e+00	0	40	0	369098752	58	5106
2026-01-06 22:49:09.59	56.77	27.79	-43.8	-46.5	17.3	0.00e+00	0	40	0	371195904	58	5109
2026-01-06 22:49:10.30	56.95	27.87	-43.9	-46.5	17.3	0.00e+00	0	40	0	373293056	58	5150
2026-01-06 22:49:11.59	57.28	28.00	-44.0	-46.7	17.1	0.00e+00	0	40	0	375390208	58	5260
2026-01-06 22:49:12.48	57.51	28.10	-43.9	-46.5	17.3	0.00e+00	0	40	0	377487360	58	5140
2026-01-06 22:49:13.49	57.78	28.21	-44.0	-46.7	17.1	0.00e+00	0	40	0	378535936	58	5267
2026-01-06 22:49:14.49	58.04	28.31	-44.1	-46.8	17.0	0.00e+00	0	40	0	380633088	59	5016
2026-01-06 22:49:15.50	58.30	28.42	-44.2	-47.0	16.8	0.00e+00	0	40	0	382730240	59	5153
2026-01-06 22:49:16.50	58.57	28.52	-44.6	-47.5	16.4	0.00e+00	0	40	0	384827392	59	5443
2026-01-06 22:49:17.50	58.84	28.63	-44.8	-47.9	16.1	0.00e+00	0	40	0	386924544	60	5351
2026-01-06 22:49:18.51	59.11	28.74	-44.9	-47.9	16.0	0.00e+00	0	40	0	387973120	60	5390
2026-01-06 22:49:19.51	59.38	28.84	-45.2	-48.3	15.5	0.00e+00	0	40	0	390070272	61	5335
2026-01-06 22:49:20.51	59.65	28.94	-45.2	-48.4	15.5	0.00e+00	0	40	0	392167424	61	5386
2026-01-06 22:49:21.51	59.92	29.05	-45.4	-48.7	15.3	0.00e+00	0	40	0	394264576	61	5536
2026-01-06 22:49:22.52	60.20	29.15	-45.5	-48.8	15.1	0.00e+00	0	40	0	396361728	61	5600
2026-01-06 22:49:23.52	60.48	29.26	-45.0	-48.1	15.7	0.00e+00	0	40	0	397410304	61	5218
2026-01-06 22:49:24.52	60.76	29.36	-45.3	-48.5	15.3	0.00e+00	0	40	0	399507456	61	5455
2026-01-06 22:49:25.53	61.04	29.46	-45.2	-48.5	15.4	0.00e+00	0	40	0	401604608	61	5432
2026-01-06 22:49:26.52	61.32	29.57	-45.3	-48.6	15.3	0.00e+00	0	40	0	403701760	61	5501
2026-01-06 22:49:27.53	61.61	29.67	-45.6	-49.0	15.0	0.00e+00	0	40	0	405798912	61	5730
2026-01-06 22:49:28.53	61.90	29.77	-45.5	-48.9	15.1	0.00e+00	0	40	0	406847488	62	5373
2026-01-06 22:49:29.54	62.19	29.87	-45.6	-48.9	15.0	0.00e+00	0	40	0	408944640	62	5378
2026-01-06 22:49:30.54	62.48	29.97	-45.6	-49.0	14.9	1.50e-06	0	40	0	411041792	62	5450
2026-01-06 22:49:31.54	62.77	30.07	-46.0	-49.5	14.4	0.00e+00	0	40	0	413138944	62	5785
2026-01-06 22:49:32.55	63.07	30.17	-46.3	-50.1	13.8	0.00e+00	0	40	0	415236096	63	5854
2026-01-06 22:49:33.55	63.36	30.27	-46.5	-50.4	13.5	9.90e-06	0	40	0	416284672	63	6037
2026-01-06 22:49:34.55	63.66	30.37	-46.5	-50.5	13.4	1.29e-05	0	40	0	418381824	63	6100
2026-01-06 22:49:35.56	63.96	30.47	-46.6	-50.6	13.3	1.90e-05	0	40	0	420478976	64	5797
2026-01-06 22:49:36.56	64.26	30.57	-46.3	-50.1	13.8	9.10e-06	0	40	0	422576128	64	5495
2026-01-06 22:49:37.56	64.57	30.67	-46.2	-49.9	14.0	2.20e-06	0	40	0	424673280	63	5714
2026-01-06 22:49:38.56	64.87	30.77	-46.3	-50.1	13.8	3.80e-06	0	40	0	425721856	63	5817
2026-01-06 22:49:39.57	65.18	30.86	-46.5	-50.4	13.5	7.60e-06	0	40	0	427819008	63	6023
2026-01-06 22:49:40.57	65.49	30.96	-46.5	-50.5	13.6	8.30e-06	0	40	0	429916160	63	6096
2026-01-06 22:49:41.57	65.80	31.05	-46.7	-50.9	12.9	2.05e-05	0	40	0	432013312	64	6041
2026-01-06 22:49:42.57	66.11	31.15	-46.6	-50.7	13.2	2.13e-05	0	40	0	433061888	64	5875
2026-01-06 22:49:43.93	66.54	31.28	-46.5	-50.6	13.3	1.67e-05	0	40	0	436207616	64	5795
2026-01-06 22:49:44.67	66.77	31.34	-46.4	-50.3	13.6	9.10e-06	0	40	0	437256192	64	5602
2026-01-06 22:49:45.96	67.18	31.46	-46.3	-50.1	13.8	5.30e-06	0	40	0	440401920	64	5478
2026-01-06 22:49:46.68	67.41	31.53	-46.2	-49.9	14.0	7.00e-07	0	40	0	441450496	64	5387
2026-01-06 22:49:47.97	67.83	31.65	-45.5	-48.7	15.2	7.00e-07	0	40	0	443547648	62	5270
2026-01-06 22:49:48.68	68.05	31.71	-45.2	-48.3	15.6	0.00e+00	0	40	0	444596224	62	5023
2026-01-06 22:49:49.97	68.47	31.83	-44.8	-47.8	16.2	7.00e-07	0	40	0	447741952	61	5020
2026-01-06 22:49:50.68	68.71	31.89	-45.0	-48.1	15.9	0.00e+00	0	40	0	448790528	61	5168
2026-01-06 22:49:51.97	69.13	32.01	-45.6	-48.9	15.1	0.00e+00	0	40	0	450887680	61	5684
2026-01-06 22:49:52.69	69.37	32.07	-45.9	-49.5	14.5	0.00e+00	0	40	0	452984832	62	5746
2026-01-06 22:49:53.98	69.79	32.18	-46.5	-50.4	13.6	5.30e-06	0	40	0	455081984	63	6055
2026-01-06 22:49:54.69	70.03	32.24	-46.6	-50.7	13.3	9.10e-06	0	40	0	456130560	63	6224
2026-01-06 22:49:56.15	70.52	32.37	-46.2	-49.8	14.3	4.50e-06	0	40	0	459276288	63	5656
2026-01-06 22:49:56.87	70.76	32.43	-45.7	-49.2	14.8	2.20e-06	0	40	0	460324864	63	5219
2026-01-06 22:49:58.23	71.23	32.54	-45.2	-48.4	15.6	0.00e+00	0	40	0	462422016	62	5063
2026-01-06 22:49:58.94	71.47	32.60	-44.8	-47.8	16.1	0.00e+00	0	40	0	464519168	61	5030
2026-01-06 22:50:00.23	71.91	32.70	-44.7	-47.7	16.3	0.00e+00	0	40	0	466616320	61	4954
2026-01-06 22:50:00.94	72.15	32.76	-45.0	-48.1	15.9	0.00e+00	0	40	0	467664896	60	5485
2026-01-06 22:50:02.23	72.60	32.86	-45.8	-49.2	14.8	0.00e+00	0	40	0	470810624	62	5531
2026-01-06 22:50:02.95	72.85	32.92	-46.1	-49.7	14.3	1.50e-06	0	40	0	471859200	62	5915
2026-01-06 22:50:04.24	73.30	33.02	-46.4	-50.3	13.8	9.90e-06	0	40	0	473956352	63	5925
2026-01-06 22:50:04.95	73.55	33.08	-46.6	-50.7	13.2	4.50e-06	0	40	0	476053504	64	5876
2026-01-06 22:50:06.24	74.01	33.17	-46.1	-49.9	14.1	2.20e-06	0	40	0	478150656	64	5349
2026-01-06 22:50:06.96	74.26	33.23	-46.1	-49.8	14.2	1.50e-06	0	40	0	479199232	64	5314
2026-01-06 22:50:08.24	74.72	33.32	-46.2	-50.0	13.9	3.80e-06	0	40	0	481296384	63	5775
2026-01-06 22:50:09.09	75.02	33.38	-46.3	-50.1	14.0	2.20e-06	0	40	0	483393536	63	5798
2026-01-06 22:50:10.24	75.43	33.47	-46.2	-50.0	14.0	2.20e-06	0	40	0	485490688	63	5745
2026-01-06 22:50:11.10	75.74	33.53	-46.3	-50.2	13.8	2.20e-06	0	40	0	486539264	63	5867
2026-01-06 22:50:12.24	76.16	33.61	-46.7	-51.0	13.0	1.98e-05	0	40	0	488636416	64	6073
2026-01-06 22:50:13.10	76.47	33.67	-47.2	-51.8	12.0	2.86e-04	0	40	0	490733568	65	6338
2026-01-06 22:50:14.71	77.06	33.77	-47.9	-53.4	10.4	3.66e-03	0	40	0	493879296	66	7160
2026-01-06 22:50:15.28	77.27	33.81	-47.9	-53.4	10.4	4.32e-03	0	40	0	494927872	66	7178
2026-01-06 22:50:16.86	77.85	33.91	-47.2	-51.8	12.1	8.48e-04	0	40	0	498073600	66	5935
2026-01-06 22:50:17.50	78.09	33.96	-47.0	-51.3	12.6	1.82e-04	0	40	0	499122176	65	5929
2026-01-06 22:50:18.94	78.63	34.04	-47.0	-51.3	12.6	1.35e-04	0	40	0	501219328	65	5962
2026-01-06 22:50:19.65	78.89	34.09	-47.1	-51.7	12.2	1.72e-04	0	40	0	503316480	65	6244
2026-01-06 22:50:21.05	79.42	34.17	-47.4	-52.3	11.4	6.62e-04	0	40	0	505413632	65	6703
2026-01-06 22:50:21.77	79.69	34.21	-47.0	-51.5	12.4	6.95e-04	0	40	0	507510784	65	6091
2026-01-06 22:50:23.12	80.20	34.29	-46.2	-50.1	13.8	2.67e-05	0	40	0	509607936	64	5481
2026-01-06 22:50:23.84	80.47	34.33	-46.0	-49.6	14.4	7.00e-07	0	40	0	510656512	63	5511
2026-01-06 22:50:25.13	80.96	34.40	-46.2	-50.0	14.0	0.00e+00	0	40	0	513802240	63	5743
2026-01-06 22:50:26.18	81.36	34.46	-46.6	-50.7	13.3	8.30e-06	0	40	0	514850816	63	6266
2026-01-06 22:50:27.05	81.69	34.50	-46.9	-51.5	12.4	7.01e-05	0	40	0	516947968	64	6457
2026-01-06 22:50:28.20	82.14	34.56	-46.4	-50.5	13.4	3.96e-05	0	40	0	519045120	64	5765
2026-01-06 22:50:29.06	82.47	34.60	-46.0	-49.8	14.3	5.30e-06	0	40	0	521142272	63	5605
2026-01-06 22:50:30.20	82.91	34.65	-45.5	-49.0	15.0	0.00e+00	0	40	0	523239424	62	5452
2026-01-06 22:50:31.06	83.24	34.69	-45.7	-49.3	14.6	0.00e+00	0	40	0	524288000	62	5624
2026-01-06 22:50:32.31	83.73	34.75	-45.6	-49.2	14.9	0.00e+00	0	40	0	526385152	62	5529
2026-01-06 22:50:33.05	84.02	34.78	-45.7	-49.3	14.7	7.00e-07	0	40	0	528482304	62	5614
2026-01-06 22:50:34.53	84.60	34.84	-45.8	-49.4	14.6	7.00e-07	0	40	0	530579456	62	5698
2026-01-06 22:50:35.24	84.87	34.87	-45.9	-49.5	14.5	0.00e+00	0	40	0	532676608	62	5770
2026-01-06 22:50:36.53	85.38	34.92	-45.9	-49.6	14.4	0.00e+00	0	40	0	534773760	62	5837
2026-01-06 22:50:37.25	85.66	34.95	-46.0	-49.8	14.3	1.50e-06	0	40	0	535822336	62	5932
2026-01-06 22:50:38.67	86.23	35.00	-46.1	-50.0	13.9	7.00e-07	0	40	0	538968064	63	5788
2026-01-06 22:50:39.38	86.51	35.03	-46.3	-50.4	13.6	6.10e-06	0	40	0	540016640	63	6008
2026-01-06 22:50:40.74	87.05	35.07	-46.6	-51.1	12.8	2.28e-05	0	40	0	542113792	64	6186
2026-01-06 22:50:41.45	87.33	35.09	-46.8	-51.3	12.6	5.34e-05	0	40	0	544210944	64	6328
2026-01-06 22:50:42.74	87.84	35.13	-46.8	-51.5	12.4	2.72e-04	0	40	0	546308096	64	6429
2026-01-06 22:50:43.46	88.13	35.15	-46.7	-51.1	12.8	8.54e-05	0	40	0	547356672	64	6186
2026-01-06 22:50:44.75	88.64	35.19	-46.1	-50.1	13.9	6.10e-06	0	40	0	550502400	64	5505
2026-01-06 22:50:45.46	88.93	35.20	-46.3	-50.3	13.7	4.50e-06	0	40	0	551550976	64	5615
2026-01-06 22:50:46.76	89.45	35.23	-46.5	-50.6	13.4	8.30e-06	0	41	0	553648128	64	5793
2026-01-06 22:50:47.47	89.74	35.25	-46.6	-50.7	13.3	3.12e-05	0	40	0	555745280	64	5914
2026-01-06 22:50:48.75	90.25	35.28	-46.8	-51.0	13.0	4.04e-05	0	40	0	557842432	64	6074
2026-01-06 22:50:49.47	90.54	35.29	-46.7	-50.9	13.0	3.35e-05	0	40	0	558891008	64	6004
2026-01-06 22:50:50.76	91.06	35.31	-46.8	-51.1	12.8	5.03e-05	0	40	0	560988160	64	6188
2026-01-06 22:50:51.62	91.41	35.33	-46.8	-51.2	12.8	8.23e-05	0	40	0	563085312	64	6225
2026-01-06 22:50:53.09	92.00	35.35	-47.3	-52.2	11.6	2.28e-04	0	40	0	566231040	65	6645
2026-01-06 22:50:53.80	92.29	35.36	-47.6	-52.7	11.1	1.01e-03	0	40	0	567279616	65	7032
2026-01-06 22:50:55.10	92.81	35.37	-47.9	-53.7	10.3	6.09e-03	0	40	0	569376768	66	7391
2026-01-06 22:50:55.81	93.10	35.38	-47.8	-53.5	10.3	6.41e-03	0	40	0	570425344	66	7227
2026-01-06 22:50:57.10	93.62	35.39	-47.4	-52.4	11.4	2.91e-03	0	41	0	573571072	66	6418
2026-01-06 22:50:57.86	93.93	35.39	-47.1	-51.8	12.2	7.09e-04	0	40	0	574619648	66	5927
2026-01-06 22:50:59.15	94.45	35.40	-46.1	-49.9	14.0	5.30e-06	0	40	0	576716800	64	5359
2026-01-06 22:50:59.95	94.78	35.40	-45.6	-49.0	14.9	7.00e-07	0	41	0	578813952	63	5151
2026-01-06 22:51:01.09	95.24	35.40	-45.5	-48.8	15.2	0.00e+00	0	40	0	580911104	63	5020
2026-01-06 22:51:02.19	95.69	35.40	-45.4	-48.6	15.3	0.00e+00	0	40	0	583008256	62	5205
2026-01-06 22:51:03.05	96.03	35.40	-45.5	-48.8	15.3	0.00e+00	0	40	0	584056832	62	5282
2026-01-06 22:51:04.58	96.65	35.39	-45.5	-48.7	15.3	0.00e+00	0	40	0	587202560	62	5269
2026-01-06 22:51:05.30	96.95	35.39	-45.9	-49.5	14.6	0.00e+00	0	40	0	588251136	62	5725
2026-01-06 22:51:06.59	97.47	35.38	-46.8	-51.3	12.7	1.67e-05	0	41	0	591396864	64	6279
2026-01-06 22:51:07.31	97.76	35.37	-47.7	-53.1	10.8	9.31e-04	0	41	0	592445440	66	6904
2026-01-06 22:51:08.60	98.28	35.36	-47.9	-53.5	10.3	8.16e-03	0	41	0	594542592	67	6803
2026-01-06 22:51:09.31	98.57	35.35	-47.4	-52.2	11.5	3.57e-03	0	40	0	596639744	66	6235
2026-01-06 22:51:10.60	99.09	35.33	-46.2	-50.0	13.9	2.59e-05	0	40	0	598736896	64	5446
2026-01-06 22:51:11.31	99.38	35.32	-46.0	-49.5	14.4	1.50e-06	0	40	0	599785472	63	5453
2026-01-06 22:51:12.60	99.90	35.30	-46.1	-49.7	14.3	0.00e+00	0	40	0	601882624	63	5542
2026-01-06 22:51:13.49	100.26	35.28	-46.1	-49.8	14.2	0.00e+00	0	40	0	603979776	63	5599
2026-01-06 22:51:14.64	100.72	35.26	-46.0	-49.5	14.5	1.50e-06	0	40	0	606076928	63	5460
2026-01-06 22:51:15.71	101.15	35.24	-45.6	-48.9	15.0	0.00e+00	0	40	0	608174080	63	5099
2026-01-06 22:51:16.74	101.56	35.21	-46.0	-49.5	14.5	0.00e+00	0	41	0	610271232	63	5444
2026-01-06 22:51:17.90	102.03	35.19	-46.9	-51.3	12.6	2.82e-05	0	40	0	612368384	64	6322
2026-01-06 22:51:18.80	102.39	35.16	-47.8	-53.3	10.5	9.55e-04	0	40	0	613416960	66	7058
2026-01-06 22:51:19.82	102.80	35.13	-48.2	-54.2	9.6	8.27e-03	0	40	0	615514112	66	7879
2026-01-06 22:51:20.81	103.19	35.10	-47.6	-52.7	11.1	5.66e-03	0	40	0	617611264	66	6615
2026-01-06 22:51:21.82	103.59	35.07	-46.9	-51.1	12.8	2.01e-04	0	40	0	619708416	65	5851
2026-01-06 22:51:22.82	103.99	35.04	-46.7	-50.7	13.2	4.34e-05	0	41	0	621805568	65	5548
2026-01-06 22:51:23.82	104.39	35.01	-47.0	-51.2	12.7	4.27e-05	0	40	0	623902720	65	5897
2026-01-06 22:51:24.82	104.78	34.97	-47.5	-52.3	11.6	4.00e-04	0	40	0	624951296	65	6676
2026-01-06 22:51:25.83	105.18	34.93	-47.5	-52.4	11.4	9.79e-04	0	40	0	627048448	66	6361
2026-01-06 22:51:26.83	105.58	34.90	-47.0	-51.3	12.6	2.17e-04	0	41	0	629145600	66	5608
2026-01-06 22:51:27.86	105.98	34.85	-46.6	-50.7	13.2	2.13e-05	0	40	0	631242752	65	5534
2026-01-06 22:51:28.93	106.40	34.81	-46.9	-51.3	12.5	1.67e-05	0	41	0	633339904	65	5931
2026-01-06 22:51:29.83	106.75	34.77	-47.5	-52.6	11.3	3.33e-04	0	41	0	634388480	65	6883
2026-01-06 22:51:30.83	107.14	34.73	-47.5	-52.5	11.3	1.45e-03	0	40	0	636485632	66	6471
2026-01-06 22:51:31.84	107.53	34.68	-47.0	-51.4	12.4	3.95e-04	0	40	0	638582784	66	5719
2026-01-06 22:51:32.84	107.92	34.64	-46.7	-50.9	13.0	6.25e-05	0	41	0	640679936	65	5665
2026-01-06 22:51:33.84	108.31	34.59	-47.1	-51.5	12.5	3.89e-05	0	41	0	641728512	65	6096
2026-01-06 22:51:34.85	108.70	34.54	-47.4	-52.2	11.7	1.56e-04	0	40	0	643825664	65	6584
2026-01-06 22:51:35.85	109.08	34.49	-47.8	-53.0	10.8	1.55e-03	0	40	0	645922816	66	6865
2026-01-06 22:51:36.85	109.47	34.43	-48.1	-54.0	9.8	3.29e-03	0	40	0	648019968	66	7694
2026-01-06 22:51:37.85	109.85	34.38	-47.5	-52.3	11.6	2.92e-03	0	40	0	650117120	66	6347
2026-01-06 22:51:38.85	110.23	34.33	-47.2	-51.8	12.1	3.19e-04	0	40	0	651165696	66	5969
2026-01-06 22:51:39.86	110.61	34.27	-47.0	-51.4	12.4	1.23e-04	0	40	0	653262848	65	6055
2026-01-06 22:51:40.94	111.02	34.21	-47.5	-52.3	11.6	2.90e-04	0	40	0	655360000	65	6682
2026-01-06 22:51:41.83	111.36	34.16	-47.1	-51.4	12.5	2.17e-04	0	40	0	657457152	65	6057
2026-01-06 22:51:42.98	111.79	34.09	-46.5	-50.4	13.6	2.13e-05	0	40	0	659554304	64	5657
2026-01-06 22:51:43.84	112.11	34.03	-45.8	-49.3	14.7	7.00e-07	0	40	0	660602880	63	5281
2026-01-06 22:51:44.98	112.54	33.96	-45.2	-48.3	15.6	0.00e+00	0	40	0	662700032	62	5039
2026-01-06 22:51:45.84	112.86	33.91	-45.3	-48.6	15.4	0.00e+00	0	40	0	664797184	62	5189
2026-01-06 22:51:46.98	113.28	33.84	-45.3	-48.5	15.5	0.00e+00	0	40	0	666894336	62	5134
2026-01-06 22:51:47.84	113.60	33.78	-45.1	-48.3	15.7	7.00e-07	0	40	0	667942912	62	5022
2026-01-06 22:51:48.99	114.02	33.70	-44.8	-47.9	16.1	0.00e+00	0	41	0	670040064	61	5051
2026-01-06 22:51:49.85	114.33	33.64	-44.6	-47.5	16.4	0.00e+00	0	40	0	672137216	61	4845
2026-01-06 22:51:50.99	114.75	33.56	-44.9	-47.9	16.0	0.00e+00	0	40	0	674234368	61	5054
2026-01-06 22:51:51.85	115.06	33.50	-45.6	-48.9	15.1	0.00e+00	0	41	0	676331520	61	5693
2026-01-06 22:51:53.00	115.47	33.42	-45.8	-49.3	14.6	0.00e+00	0	41	0	678428672	62	5640
2026-01-06 22:51:53.85	115.78	33.36	-45.8	-49.3	14.7	1.50e-06	0	40	0	679477248	63	5313
2026-01-06 22:51:55.10	116.23	33.27	-45.3	-48.6	15.4	0.00e+00	0	41	0	681574400	62	5197
2026-01-06 22:51:56.37	116.68	33.17	-45.1	-48.2	15.8	0.00e+00	0	40	0	684720128	62	4969
2026-01-06 22:51:57.09	116.93	33.12	-45.3	-48.5	15.4	0.00e+00	0	41	0	685768704	62	5157
2026-01-06 22:51:58.37	117.38	33.02	-46.0	-49.6	14.4	0.00e+00	0	40	0	687865856	62	5810
2026-01-06 22:51:59.09	117.64	32.96	-46.3	-50.1	13.8	3.00e-06	0	40	0	689963008	63	5809
2026-01-06 22:52:00.46	118.12	32.85	-46.0	-49.7	14.3	2.20e-06	0	40	0	692060160	63	5546
2026-01-06 22:52:01.18	118.37	32.80	-45.5	-48.8	15.2	7.00e-07	0	41	0	693108736	62	5320
2026-01-06 22:52:02.47	118.81	32.69	-44.3	-47.1	16.9	0.00e+00	0	40	0	696254464	60	4880
2026-01-06 22:52:03.19	119.06	32.63	-44.0	-46.6	17.2	0.00e+00	0	40	0	697303040	60	4643
2026-01-06 22:52:04.60	119.54	32.52	-44.7	-47.6	16.3	0.00e+00	0	40	0	699400192	60	5209
2026-01-06 22:52:05.32	119.79	32.46	-45.0	-48.0	15.9	0.00e+00	0	41	0	701497344	60	5460
2026-01-06 22:52:06.72	120.26	32.34	-45.1	-48.2	15.7	0.00e+00	0	41	0	703594496	61	5278
2026-01-06 22:52:07.43	120.50	32.28	-44.6	-47.6	16.3	0.00e+00	0	40	0	704643072	61	4888
2026-01-06 22:52:08.72	120.93	32.17	-44.4	-47.3	16.7	0.00e+00	0	40	0	707788800	60	4987
2026-01-06 22:52:09.44	121.17	32.10	-44.8	-47.9	16.0	0.00e+00	0	40	0	708837376	60	5392
2026-01-06 22:52:10.73	121.60	31.99	-45.5	-49.0	14.9	0.00e+00	0	40	0	710934528	61	5776
2026-01-06 22:52:11.45	121.84	31.93	-46.0	-49.9	14.1	7.00e-07	0	40	0	713031680	62	6026
2026-01-06 22:52:12.73	122.26	31.81	-45.3	-48.7	15.3	7.00e-07	0	41	0	715128832	62	5262
2026-01-06 22:52:13.45	122.49	31.75	-44.2	-47.0	16.8	0.00e+00	0	40	0	716177408	60	4854
2026-01-06 22:52:14.74	122.91	31.63	-43.2	-45.6	18.2	0.00e+00	0	41	0	719323136	58	4630
2026-01-06 22:52:15.46	123.14	31.56	-43.1	-45.5	18.3	0.00e+00	0	41	0	720371712	57	4828
2026-01-06 22:52:16.75	123.56	31.45	-43.7	-46.2	17.6	0.00e+00	0	40	0	722468864	57	5263
2026-01-06 22:52:17.51	123.80	31.37	-44.2	-47.0	16.8	0.00e+00	0	40	0	724566016	59	5132
2026-01-06 22:52:18.80	124.21	31.25	-44.7	-47.7	16.2	0.00e+00	0	40	0	726663168	60	5219
2026-01-06 22:52:19.60	124.46	31.18	-44.4	-47.2	16.7	0.00e+00	0	40	0	727711744	60	4966
2026-01-06 22:52:20.74	124.82	31.07	-43.4	-45.9	17.8	0.00e+00	0	41	0	729808896	58	4809
2026-01-06 22:52:21.79	125.14	30.97	-42.8	-45.2	18.6	0.00e+00	0	40	0	731906048	57	4653
2026-01-06 22:52:22.84	125.47	30.87	-43.3	-45.8	18.0	0.00e+00	0	41	0	734003200	57	4997
2026-01-06 22:52:23.89	125.79	30.77	-43.7	-46.2	17.6	0.00e+00	0	41	0	736100352	58	4981
2026-01-06 22:52:24.77	126.06	30.68	-44.2	-47.0	16.8	0.00e+00	0	40	0	738197504	59	5137
2026-01-06 22:52:25.92	126.41	30.57	-44.1	-46.8	17.0	0.00e+00	0	40	0	740294656	59	5035
2026-01-06 22:52:26.77	126.67	30.49	-43.4	-45.9	17.9	0.00e+00	0	41	0	741343232	58	4811
2026-01-06 22:52:27.92	127.01	30.37	-42.6	-45.0	18.7	0.00e+00	0	41	0	743440384	57	4557
2026-01-06 22:52:28.78	127.27	30.29	-42.7	-45.0	18.7	0.00e+00	0	40	0	745537536	57	4593
2026-01-06 22:52:29.93	127.61	30.17	-43.3	-45.8	17.9	0.00e+00	0	40	0	747634688	57	5031
2026-01-06 22:52:30.79	127.87	30.08	-44.1	-46.9	17.0	0.00e+00	0	40	0	748683264	58	5347
2026-01-06 22:52:31.94	128.20	29.97	-44.8	-47.9	16.1	0.00e+00	0	40	0	750780416	60	5377
2026-01-06 22:52:32.79	128.45	29.88	-44.5	-47.4	16.5	0.00e+00	0	40	0	752877568	60	5080
2026-01-06 22:52:33.94	128.78	29.77	-43.3	-45.8	17.9	0.00e+00	0	41	0	754974720	58	4756
2026-01-06 22:52:34.80	129.03	29.68	-42.7	-45.1	18.6	0.00e+00	0	40	0	756023296	57	4626
2026-01-06 22:52:36.09	129.40	29.55	-43.0	-45.5	18.3	0.00e+00	0	41	0	759169024	57	4828
2026-01-06 22:52:36.81	129.61	29.47	-43.8	-46.5	17.4	0.00e+00	0	41	0	760217600	58	5125
2026-01-06 22:52:38.10	129.97	29.34	-44.5	-47.4	16.5	0.00e+00	0	40	0	762314752	59	5361
2026-01-06 22:52:38.82	130.17	29.26	-44.6	-47.6	16.3	0.00e+00	0	40	0	764411904	60	5184
2026-01-06 22:52:40.11	130.53	29.13	-43.5	-46.2	17.5	0.00e+00	0	40	0	766509056	59	4678
2026-01-06 22:52:40.82	130.73	29.05	-42.8	-45.3	18.5	0.00e+00	0	40	0	767557632	57	4715
2026-01-06 22:52:42.11	131.08	28.92	-42.5	-44.9	18.8	0.00e+00	0	41	0	770703360	57	4530
2026-01-06 22:52:42.83	131.28	28.84	-42.7	-45.2	18.5	0.00e+00	0	40	0	771751936	57	4662
2026-01-06 22:52:44.12	131.63	28.71	-44.1	-46.9	17.0	0.00e+00	0	41	0	773849088	58	5357
2026-01-06 22:52:44.83	131.82	28.63	-44.6	-47.5	16.3	0.00e+00	0	40	0	774897664	59	5433
2026-01-06 22:52:46.12	132.17	28.50	-44.5	-47.5	16.4	0.00e+00	0	41	0	778043392	60	5111
2026-01-06 22:52:47.19	132.45	28.38	-43.9	-46.6	17.2	0.00e+00	0	41	0	780140544	59	4915
2026-01-06 22:52:48.05	132.68	28.29	-43.3	-45.8	17.9	0.00e+00	0	40	0	781189120	58	4749
2026-01-06 22:52:49.19	132.98	28.17	-43.0	-45.4	18.3	0.00e+00	0	41	0	783286272	58	4523
2026-01-06 22:52:50.06	133.21	28.08	-42.8	-45.1	18.6	0.00e+00	0	40	0	785383424	57	4634
2026-01-06 22:52:51.20	133.50	27.95	-43.2	-45.7	18.1	0.00e+00	0	40	0	787480576	57	4940
2026-01-06 22:52:52.06	133.72	27.86	-43.4	-45.9	17.8	0.00e+00	0	41	0	788529152	57	5077
2026-01-06 22:52:53.21	134.02	27.74	-42.9	-45.2	18.4	0.00e+00	0	41	0	790626304	57	4703
2026-01-06 22:52:54.07	134.24	27.65	-42.4	-44.7	19.0	0.00e+00	0	41	0	792723456	56	4652
2026-01-06 22:52:55.39	134.57	27.50	-41.7	-43.9	19.5	0.00e+00	0	40	0	794820608	55	4542
2026-01-06 22:52:56.11	134.75	27.43	-41.7	-43.9	19.5	0.00e+00	0	40	0	796917760	55	4514
2026-01-06 22:52:57.39	135.07	27.29	-42.6	-45.0	18.6	0.00e+00	0	41	0	799014912	55	5119
2026-01-06 22:52:58.11	135.25	27.21	-43.6	-46.2	17.6	0.00e+00	0	41	0	800063488	57	5274
2026-01-06 22:52:59.40	135.57	27.07	-44.5	-47.5	16.4	0.00e+00	0	41	0	802160640	59	5411
2026-01-06 22:53:00.11	135.74	26.99	-44.6	-47.6	16.3	0.00e+00	0	41	0	804257792	60	5203
2026-01-06 22:53:01.74	136.13	26.81	-43.5	-46.1	17.6	0.00e+00	0	40	0	807403520	59	4616
2026-01-06 22:53:02.32	136.27	26.75	-43.0	-45.4	18.3	0.00e+00	0	40	0	808452096	58	4530
2026-01-06 22:53:04.16	136.71	26.55	-42.8	-45.2	18.5	0.00e+00	0	40	0	811597824	57	4663
2026-01-06 22:53:04.73	136.85	26.49	-43.0	-45.5	18.3	0.00e+00	0	41	0	812646400	57	4832
2026-01-06 22:53:06.35	137.23	26.31	-43.3	-45.8	17.9	0.00e+00	0	40	0	815792128	57	5037
2026-01-06 22:53:06.92	137.36	26.25	-43.2	-45.7	18.0	0.00e+00	0	41	0	816840704	57	4982
2026-01-06 22:53:08.53	137.73	26.07	-42.3	-44.6	19.0	0.00e+00	0	41	0	819986432	56	4651
2026-01-06 22:53:09.10	137.86	26.01	-41.8	-44.0	19.4	0.00e+00	0	41	0	821035008	55	4565
2026-01-06 22:53:10.92	138.28	25.81	-41.3	-43.4	20.0	0.00e+00	0	40	0	824180736	54	4496
2026-01-06 22:53:11.49	138.41	25.75	-41.2	-43.2	20.1	0.00e+00	0	41	0	825229312	54	4435
2026-01-06 22:53:13.10	138.77	25.57	-41.7	-43.9	19.6	0.00e+00	0	41	0	828375040	54	4774
2026-01-06 22:53:13.67	138.90	25.51	-41.9	-44.1	19.3	0.00e+00	0	41	0	829423616	54	4921
2026-01-06 22:53:15.26	139.25	25.34	-42.4	-44.7	18.7	0.00e+00	0	41	0	832569344	55	4975
2026-01-06 22:53:15.83	139.37	25.28	-42.6	-45.0	18.5	0.00e+00	0	40	0	833617920	55	5131
2026-01-06 22:53:17.43	139.72	25.10	-42.8	-45.2	18.4	0.00e+00	0	40	0	836763648	56	4975
2026-01-06 22:53:18.00	139.85	25.04	-42.7	-45.1	18.6	0.00e+00	0	41	0	837812224	56	4876
2026-01-06 22:53:19.67	140.20	24.86	-42.7	-45.0	18.6	0.00e+00	0	40	0	840957952	56	4855
2026-01-06 22:53:20.24	140.33	24.79	-42.6	-44.9	18.7	0.00e+00	0	40	0	842006528	56	4799
2026-01-06 22:53:21.83	140.66	24.62	-42.9	-45.3	18.4	0.00e+00	0	41	0	845152256	56	5028
2026-01-06 22:53:22.40	140.78	24.56	-43.1	-45.5	18.2	0.00e+00	0	41	0	846200832	56	5137
2026-01-06 22:53:24.00	141.12	24.38	-43.2	-45.7	18.0	0.00e+00	0	41	0	848297984	57	4954
2026-01-06 22:53:24.57	141.23	24.32	-42.9	-45.3	18.3	0.00e+00	0	40	0	849346560	57	4750
2026-01-06 22:53:26.15	141.56	24.15	-42.4	-44.7	18.9	0.00e+00	0	40	0	852492288	56	4676
2026-01-06 22:53:26.77	141.69	24.08	-41.7	-44.0	19.4	0.00e+00	0	41	0	853540864	55	4546
2026-01-06 22:53:28.34	142.00	23.91	-41.0	-43.1	20.2	0.00e+00	0	41	0	856686592	54	4375
2026-01-06 22:53:28.97	142.13	23.84	-41.0	-43.2	20.2	0.00e+00	0	40	0	857735168	54	4396
2026-01-06 22:53:30.42	142.42	23.69	-40.9	-43.0	20.3	0.00e+00	0	41	0	860880896	53	4556
2026-01-06 22:53:31.14	142.56	23.61	-41.0	-43.2	20.1	0.00e+00	0	40	0	861929472	53	4655
2026-01-06 22:53:32.57	142.84	23.45	-41.6	-43.9	19.5	0.00e+00	0	41	0	865075200	53	5058
2026-01-06 22:53:33.28	142.98	23.38	-41.8	-44.1	19.4	0.00e+00	0	41	0	866123776	54	4872
2026-01-06 22:53:34.58	143.23	23.24	-41.9	-44.2	19.2	0.00e+00	0	41	0	868220928	54	4956
2026-01-06 22:53:35.29	143.37	23.16	-42.0	-44.3	19.1	0.00e+00	0	40	0	870318080	54	5006
2026-01-06 22:53:36.58	143.62	23.02	-41.7	-44.0	19.4	0.00e+00	0	41	0	872415232	54	4821
2026-01-06 22:53:37.68	143.83	22.90	-41.6	-43.7	19.6	0.00e+00	0	41	0	874512384	54	4689
2026-01-06 22:53:38.54	143.99	22.81	-41.4	-43.5	19.8	0.00e+00	0	40	0	875560960	54	4584
2026-01-06 22:53:39.69	144.20	22.69	-41.3	-43.4	19.9	0.00e+00	0	41	0	877658112	54	4510
2026-01-06 22:53:40.55	144.36	22.59	-41.4	-43.5	19.8	0.00e+00	0	40	0	879755264	54	4579
2026-01-06 22:53:41.69	144.57	22.47	-41.5	-43.6	19.7	0.00e+00	0	41	0	881852416	54	4644
2026-01-06 22:53:42.55	144.73	22.38	-41.7	-43.9	19.5	0.00e+00	0	41	0	883949568	54	4790
2026-01-06 22:53:43.70	144.94	22.26	-42.0	-44.2	19.2	0.00e+00	0	40	0	886046720	54	4977
2026-01-06 22:53:44.55	145.10	22.17	-42.1	-44.4	19.0	0.00e+00	0	41	0	887095296	54	5085
2026-01-06 22:53:45.70	145.30	22.04	-42.0	-44.3	19.1	0.00e+00	0	40	0	889192448	54	5040
2026-01-06 22:53:46.56	145.46	21.95	-41.9	-44.3	19.1	0.00e+00	0	41	0	891289600	54	5000
2026-01-06 22:53:47.70	145.66	21.83	-41.9	-44.2	19.2	0.00e+00	0	41	0	893386752	54	4974
2026-01-06 22:53:48.69	145.83	21.73	-41.8	-44.1	19.3	0.00e+00	0	41	0	895483904	54	4902
2026-01-06 22:53:49.87	146.04	21.60	-41.6	-43.9	19.4	0.00e+00	0	40	0	897581056	54	4807
2026-01-06 22:53:50.73	146.19	21.51	-41.5	-43.8	19.5	0.00e+00	0	41	0	898629632	54	4744
2026-01-06 22:53:52.08	146.42	21.37	-41.6	-43.9	19.5	0.00e+00	0	40	0	901775360	54	4771
2026-01-06 22:53:52.80	146.54	21.29	-41.6	-43.9	19.5	0.00e+00	0	41	0	902823936	54	4776
2026-01-06 22:53:54.09	146.76	21.16	-41.6	-43.8	19.5	0.00e+00	0	41	0	904921088	54	4759
2026-01-06 22:53:54.81	146.89	21.08	-41.9	-44.2	19.2	0.00e+00	0	41	0	907018240	54	4971
2026-01-06 22:53:56.09	147.10	20.95	-41.9	-44.2	19.2	0.00e+00	0	41	0	909115392	54	4964
2026-01-06 22:53:56.81	147.22	20.87	-41.9	-44.2	19.2	0.00e+00	0	41	0	910163968	54	4955
2026-01-06 22:53:58.10	147.44	20.74	-42.2	-44.6	18.8	0.00e+00	0	40	0	912261120	55	4903
2026-01-06 22:53:59.01	147.58	20.65	-42.0	-44.4	19.0	0.00e+00	0	41	0	914358272	55	4778
2026-01-06 22:54:00.01	147.75	20.54	-42.1	-44.5	18.9	0.00e+00	0	41	0	916455424	55	4830
2026-01-06 22:54:01.01	147.91	20.44	-42.0	-44.3	19.0	0.00e+00	0	41	0	918552576	55	4751
2026-01-06 22:54:02.01	148.07	20.33	-41.9	-44.2	19.2	0.00e+00	0	41	0	919601152	55	4655
2026-01-06 22:54:03.01	148.23	20.23	-42.0	-44.3	19.1	0.00e+00	0	40	0	921698304	55	4742
2026-01-06 22:54:04.01	148.39	20.13	-42.0	-44.3	19.1	0.00e+00	0	41	0	923795456	55	4716
2026-01-06 22:54:05.02	148.55	20.02	-41.9	-44.2	19.1	0.00e+00	0	41	0	925892608	55	4667
2026-01-06 22:54:06.02	148.71	19.92	-42.2	-44.5	18.9	0.00e+00	0	41	0	927989760	55	4859
2026-01-06 22:54:07.02	148.87	19.82	-42.0	-44.3	19.1	0.00e+00	0	40	0	929038336	55	4730
2026-01-06 22:54:08.02	149.02	19.72	-42.1	-44.4	19.0	0.00e+00	0	40	0	931135488	55	4793
2026-01-06 22:54:09.02	149.17	19.62	-42.2	-44.5	18.9	0.00e+00	0	41	0	933232640	55	4854
2026-01-06 22:54:10.02	149.33	19.51	-42.2	-44.5	18.9	0.00e+00	0	40	0	935329792	55	4842
2026-01-06 22:54:11.03	149.48	19.41	-42.6	-45.0	18.4	0.00e+00	0	41	0	936378368	55	5152
2026-01-06 22:54:12.03	149.63	19.31	-42.9	-45.4	18.3	0.00e+00	0	41	0	938475520	56	5047
2026-01-06 22:54:13.03	149.78	19.21	-43.1	-45.5	18.1	0.00e+00	0	41	0	940572672	56	5147
2026-01-06 22:54:14.03	149.93	19.11	-43.6	-46.3	17.3	0.00e+00	0	41	0	942669824	57	5284
2026-01-06 22:54:15.04	150.08	19.01	-43.6	-46.2	17.4	0.00e+00	0	41	0	944766976	58	4951
2026-01-06 22:54:16.04	150.23	18.91	-43.9	-46.6	17.1	0.00e+00	0	41	0	945815552	58	5206
2026-01-06 22:54:17.04	150.38	18.81	-43.7	-46.3	17.3	0.00e+00	0	41	0	947912704	58	5032
2026-01-06 22:54:18.04	150.52	18.71	-43.6	-46.2	17.4	0.00e+00	0	41	0	950009856	58	4973
2026-01-06 22:54:19.04	150.67	18.61	-43.7	-46.4	17.2	0.00e+00	0	41	0	952107008	58	5072
2026-01-06 22:54:20.04	150.81	18.51	-43.6	-46.3	17.4	0.00e+00	0	41	0	954204160	58	5013
2026-01-06 22:54:21.05	150.95	18.41	-43.7	-46.4	17.3	0.00e+00	0	41	0	955252736	58	5044
2026-01-06 22:54:22.05	151.10	18.31	-43.9	-46.6	17.1	0.00e+00	0	41	0	957349888	58	5187
2026-01-06 22:54:23.34	151.28	18.18	-43.9	-46.7	17.0	0.00e+00	0	41	0	959447040	58	5231
2026-01-06 22:54:24.09	151.38	18.11	-44.1	-47.0	16.7	0.00e+00	0	41	0	961544192	58	5415
2026-01-06 22:54:25.38	151.56	17.98	-44.4	-47.4	16.3	0.00e+00	0	41	0	963641344	59	5389
2026-01-06 22:54:26.16	151.67	17.90	-44.5	-47.6	16.1	0.00e+00	0	41	0	965738496	59	5501
2026-01-06 22:54:27.76	151.89	17.75	-44.5	-47.5	16.2	0.00e+00	0	41	0	967835648	59	5446
2026-01-06 22:54:28.34	151.97	17.69	-44.4	-47.5	16.2	0.00e+00	0	41	0	968884224	59	5406
2026-01-06 22:54:29.92	152.18	17.54	-44.1	-46.9	16.7	0.00e+00	0	41	0	972029952	59	5078
2026-01-06 22:54:30.53	152.26	17.48	-43.9	-46.7	16.9	0.00e+00	0	41	0	973078528	59	4938
2026-01-06 22:54:32.11	152.47	17.32	-43.7	-46.4	17.2	0.00e+00	0	40	0	976224256	59	4773
2026-01-06 22:54:32.77	152.56	17.26	-43.5	-46.1	17.5	0.00e+00	0	41	0	977272832	58	4922
2026-01-06 22:54:34.20	152.75	17.12	-43.3	-45.9	17.7	0.00e+00	0	41	0	980418560	58	4779
2026-01-06 22:54:34.92	152.84	17.05	-43.2	-45.8	17.7	0.00e+00	0	40	0	981467136	58	4756
2026-01-06 22:54:36.20	153.01	16.93	-43.2	-45.8	17.4	0.00e+00	0	41	0	984612864	58	4716
2026-01-06 22:54:36.92	153.10	16.86	-43.1	-45.6	17.9	0.00e+00	0	40	0	985661440	58	4644
2026-01-06 22:54:38.21	153.27	16.74	-43.2	-45.8	17.8	0.00e+00	0	41	0	987758592	58	4714
2026-01-06 22:54:38.93	153.36	16.67	-43.4	-46.1	17.5	0.00e+00	0	41	0	988807168	58	4908
2026-01-06 22:54:40.22	153.52	16.55	-43.5	-46.2	17.4	0.00e+00	0	41	0	991952896	58	4968
2026-01-06 22:54:40.93	153.61	16.48	-43.5	-46.2	17.4	0.00e+00	0	41	0	993001472	58	4956
2026-01-06 22:54:42.22	153.78	16.36	-43.6	-46.3	17.2	0.00e+00	0	41	0	995098624	58	5024
2026-01-06 22:54:42.94	153.87	16.29	-43.6	-46.3	17.2	0.00e+00	0	41	0	997195776	58	5037
2026-01-06 22:54:44.23	154.02	16.17	-43.6	-46.4	17.2	0.00e+00	0	41	0	999292928	58	5060
2026-01-06 22:54:44.95	154.11	16.10	-43.5	-46.2	17.3	0.00e+00	0	40	0	1000341504	58	4977
2026-01-06 22:54:46.23	154.27	15.99	-43.4	-46.1	17.5	0.00e+00	0	41	0	1002438656	58	4884
2026-01-06 22:54:46.98	154.36	15.92	-43.4	-46.0	17.5	0.00e+00	0	41	0	1004535808	58	4870
2026-01-06 22:54:48.27	154.52	15.80	-43.3	-46.0	17.6	0.00e+00	0	41	0	1006632960	58	4820
2026-01-06 22:54:49.05	154.61	15.72	-43.2	-45.8	17.8	0.00e+00	0	41	0	1007681536	58	4721
2026-01-06 22:54:50.34	154.76	15.60	-43.1	-45.7	17.8	0.00e+00	0	41	0	1010827264	58	4693
2026-01-06 22:54:51.15	154.86	15.53	-43.2	-45.8	17.7	0.00e+00	0	41	0	1011875840	58	4750
2026-01-06 22:54:52.61	155.03	15.40	-43.4	-46.1	17.4	0.00e+00	0	41	0	1015021568	58	4907
2026-01-06 22:54:53.73	155.16	15.29	-43.5	-46.2	17.4	0.00e+00	0	41	0	1017118720	58	4948
2026-01-06 22:54:54.91	155.30	15.19	-43.5	-46.3	17.2	0.00e+00	0	41	0	1019215872	58	5019
2026-01-06 22:54:55.77	155.40	15.11	-43.3	-46.1	17.4	0.00e+00	0	41	0	1021313024	58	4883
2026-01-06 22:54:56.91	155.53	15.00	-43.4	-46.2	17.4	0.00e+00	0	41	0	1023410176	58	4952
2026-01-06 22:54:57.77	155.63	14.93	-43.6	-46.4	17.1	0.00e+00	0	41	0	1024458752	58	5092
2026-01-06 22:54:58.92	155.76	14.82	-43.6	-46.4	17.2	0.00e+00	0	41	0	1026555904	58	5071
2026-01-06 22:54:59.78	155.86	14.74	-43.6	-46.3	17.3	0.00e+00	0	41	0	1028653056	58	5014
2026-01-06 22:55:00.92	155.98	14.64	-43.4	-46.0	17.4	0.00e+00	0	41	0	1030750208	58	4870
2026-01-06 22:55:01.78	156.08	14.56	-43.4	-46.2	17.4	0.00e+00	0	41	0	1031798784	58	4930
2026-01-06 22:55:02.99	156.21	14.46	-43.4	-46.1	17.4	0.00e+00	0	41	0	1033895936	58	4903
2026-01-06 22:55:03.85	156.31	14.38	-43.2	-45.9	17.6	0.00e+00	0	41	0	1035993088	58	4778
2026-01-06 22:55:04.99	156.43	14.28	-43.3	-46.0	14.2	0.00e+00	0	41	0	1038090240	58	4850
2026-01-06 22:55:05.85	156.53	14.20	-43.3	-45.9	17.6	0.00e+00	0	41	0	1040187392	58	4796
2026-01-06 22:55:07.12	156.66	14.09	-43.3	-45.9	17.5	0.00e+00	0	41	0	1042284544	58	4797
2026-01-06 22:55:07.83	156.74	14.03	-43.3	-46.0	17.5	0.00e+00	0	41	0	1043333120	58	4815
2026-01-06 22:55:09.12	156.88	13.91	-43.4	-46.0	17.4	0.00e+00	0	41	0	1045430272	58	4867
2026-01-06 22:55:09.84	156.95	13.85	-43.7	-46.4	17.1	0.00e+00	0	41	0	1047527424	58	5061
2026-01-06 22:55:11.13	157.09	13.74	-44.1	-46.9	16.6	2.82e-04	0	41	0	1049624576	58	5402
2026-01-06 22:55:11.87	157.17	13.67	-44.0	-46.8	16.7	0.00e+00	0	41	0	1050673152	58	5305
2026-01-06 22:55:13.15	157.30	13.56	-44.1	-47.0	16.5	0.00e+00	0	41	0	1053818880	59	5135
2026-01-06 22:55:13.95	157.38	13.49	-44.3	-47.2	16.4	8.28e-04	0	41	0	1054867456	59	5230
2026-01-06 22:55:15.09	157.50	13.39	-44.5	-47.5	16.0	0.00e+00	0	41	0	1056964608	59	5431
2026-01-06 22:55:16.22	157.62	13.30	-44.8	-48.0	15.6	0.00e+00	0	41	0	1059061760	60	5453
2026-01-06 22:55:17.08	157.71	13.22	-44.9	-48.1	15.4	7.24e-03	0	41	0	1061158912	60	5525
2026-01-06 22:55:18.22	157.82	13.12	-45.2	-48.7	14.9	0.00e+00	0	41	0	1063256064	61	5541
2026-01-06 22:55:19.08	157.91	13.05	-45.1	-48.6	15.0	0.00e+00	0	41	0	1064304640	61	5465
2026-01-06 22:55:20.23	158.02	12.95	-45.0	-48.4	15.2	0.00e+00	0	41	0	1066401792	61	5394
2026-01-06 22:55:21.09	158.11	12.88	-45.0	-48.4	15.2	0.00e+00	0	41	0	1068498944	61	5347
2026-01-06 22:55:22.23	158.22	12.78	-45.0	-48.3	15.2	0.00e+00	0	41	0	1070596096	61	5311
2026-01-06 22:55:23.10	158.31	12.71	-44.8	-48.0	15.5	0.00e+00	0	41	0	1071644672	61	5152
2026-01-06 22:55:24.30	158.43	12.61	-44.7	-47.9	15.6	0.00e+00	0	41	0	1074790400	61	5080
2026-01-06 22:55:25.16	158.51	12.53	-44.6	-47.7	15.7	0.00e+00	0	41	0	1075838976	61	4964
2026-01-06 22:55:26.31	158.62	12.44	-44.6	-47.7	15.8	0.00e+00	0	41	0	1077936128	61	4964
2026-01-06 22:55:27.17	158.70	12.36	-44.5	-47.6	16.0	0.00e+00	0	41	0	1080033280	60	5170
2026-01-06 22:55:28.48	158.83	12.25	-44.0	-46.9	16.6	5.63e-03	0	41	0	1082130432	60	4787
2026-01-06 22:55:29.19	158.90	12.20	-44.0	-46.8	16.6	0.00e+00	0	41	0	1083179008	60	4759
2026-01-06 22:55:30.69	159.04	12.07	-43.7	-46.4	17.0	0.00e+00	0	41	0	1086324736	59	4775
2026-01-06 22:55:31.41	159.11	12.01	-43.7	-46.5	17.0	2.51e-05	0	41	0	1087373312	59	4842
2026-01-06 22:55:32.74	159.23	11.90	-43.7	-46.4	17.0	0.00e+00	0	41	0	1090519040	59	4797
2026-01-06 22:55:33.46	159.30	11.84	-43.7	-46.4	17.0	0.00e+00	0	41	0	1091567616	59	4798
2026-01-06 22:55:34.75	159.42	11.74	-43.7	-46.6	16.9	0.00e+00	0	41	0	1093664768	59	4872
2026-01-06 22:55:35.47	159.49	11.68	-43.7	-46.5	17.0	0.00e+00	0	41	0	1094713344	59	4824
2026-01-06 22:55:36.75	159.60	11.57	-43.7	-46.4	17.0	0.00e+00	0	41	0	1097859072	59	4799
2026-01-06 22:55:37.47	159.67	11.51	-43.6	-46.4	17.1	0.00e+00	0	41	0	1098907648	59	4762
2026-01-06 22:55:38.76	159.79	11.41	-43.7	-46.5	17.0	0.00e+00	0	41	0	1101004800	59	4824
2026-01-06 22:55:39.48	159.85	11.35	-43.7	-46.5	16.9	0.00e+00	0	41	0	1103101952	59	4870
2026-01-06 22:55:40.77	159.97	11.24	-43.7	-46.6	16.9	0.00e+00	0	41	0	1105199104	59	4877
2026-01-06 22:55:41.60	160.04	11.18	-43.6	-46.4	17.0	0.00e+00	0	41	0	1106247680	59	4766
2026-01-06 22:55:42.74	160.14	11.09	-43.7	-46.5	17.0	0.00e+00	0	41	0	1108344832	59	4820
2026-01-06 22:55:43.81	160.24	11.00	-43.7	-46.5	17.0	0.00e+00	0	41	0	1110441984	59	4819
2026-01-06 22:55:44.85	160.33	10.92	-43.8	-46.7	16.7	0.00e+00	0	41	0	1112539136	59	4966
2026-01-06 22:55:46.00	160.43	10.82	-43.9	-46.8	16.6	0.00e+00	0	41	0	1114636288	59	5003
2026-01-06 22:55:46.86	160.50	10.76	-44.0	-46.9	16.3	0.00e+00	0	41	0	1116733440	59	5090
2026-01-06 22:55:48.00	160.60	10.66	-44.1	-47.0	16.4	0.00e+00	0	41	0	1118830592	59	5114
2026-01-06 22:55:48.86	160.67	10.60	-44.0	-46.9	16.5	0.00e+00	0	41	0	1119879168	59	5046
2026-01-06 22:55:50.01	160.77	10.51	-44.0	-46.9	16.5	0.00e+00	0	41	0	1123024896	59	5060
2026-01-06 22:55:50.87	160.85	10.44	-44.1	-47.1	16.3	0.00e+00	0	41	0	1124073472	59	5170
2026-01-06 22:55:52.01	160.94	10.35	-44.2	-47.2	16.2	0.00e+00	0	41	0	1126170624	59	5254
2026-01-06 22:55:52.86	161.01	10.28	-44.4	-47.4	16.0	0.00e+00	0	41	0	1128267776	59	5379
2026-01-06 22:55:54.01	161.11	10.19	-44.4	-47.5	15.9	0.00e+00	0	41	0	1130364928	59	5433
2026-01-06 22:55:54.86	161.18	10.12	-44.4	-47.4	16.0	0.00e+00	0	41	0	1131413504	59	5376
2026-01-06 22:55:56.01	161.28	10.03	-44.5	-47.7	15.8	0.00e+00	0	41	0	1133510656	59	5536
2026-01-06 22:55:56.87	161.35	9.97	-44.6	-47.7	15.7	0.00e+00	0	41	0	1135607808	59	5546
2026-01-06 22:55:58.11	161.45	9.87	-44.6	-47.7	15.7	0.00e+00	0	41	0	1137704960	59	5579
2026-01-06 22:55:58.96	161.52	9.81	-44.7	-48.0	15.4	0.00e+00	0	41	0	1139802112	60	5429
2026-01-06 22:56:00.11	161.61	9.72	-44.8	-48.0	15.4	0.00e+00	0	41	0	1141899264	60	5449
2026-01-06 22:56:00.97	161.68	9.65	-44.6	-47.8	15.6	0.00e+00	0	41	0	1142947840	60	5338
2026-01-06 22:56:02.11	161.77	9.56	-44.7	-48.0	15.4	0.00e+00	0	41	0	1145044992	60	5440
2026-01-06 22:56:02.98	161.84	9.50	-44.7	-48.0	15.4	0.00e+00	0	41	0	1147142144	60	5460
2026-01-06 22:56:04.12	161.93	9.41	-44.8	-48.1	15.3	0.00e+00	0	41	0	1149239296	60	5502
2026-01-06 22:56:04.98	162.00	9.34	-44.8	-48.2	15.2	0.00e+00	0	41	0	1150287872	60	5576
2026-01-06 22:56:06.12	162.09	9.26	-44.8	-48.2	15.2	6.81e-04	0	41	0	1152385024	60	5548
2026-01-06 22:56:06.98	162.16	9.19	-45.0	-48.4	15.0	7.00e-07	0	41	0	1154482176	60	5677
2026-01-06 22:56:08.13	162.25	9.10	-44.8	-48.1	15.3	0.00e+00	0	41	0	1156579328	60	5493
2026-01-06 22:56:08.99	162.31	9.04	-44.8	-48.1	15.2	0.00e+00	0	41	0	1157627904	60	5527
2026-01-06 22:56:10.14	162.40	8.95	-49.3	-62.7	3.9	1.04e-04	0	41	104	1159725056	69	17505
2026-01-06 22:56:11.00	162.47	8.89	-49.5	-64.5	3.8	1.49e+00	0	41	104	1159725056	69	21624
2026-01-06 22:56:12.15	162.56	8.80	-49.7	-65.1	3.8	1.49e+00	0	41	104	1159725056	70	21765
2026-01-06 22:56:13.02	162.62	8.74	-49.8	-65.2	3.8	1.49e+00	0	41	104	1159725056	70	22026
2026-01-06 22:56:14.17	162.71	8.65	-50.0	-65.2	3.8	1.49e+00	0	41	104	1159725056	70	22239
2026-01-06 22:56:15.08	162.78	8.58	-50.0	-65.3	3.8	1.49e+00	0	41	104	1159725056	70	22459
2026-01-06 22:56:16.08	162.85	8.51	-49.9	-65.4	3.8	1.49e+00	0	41	104	1159725056	70	22661
2026-01-06 22:56:17.09	162.93	8.43	-50.1	-65.4	3.8	1.49e+00	0	41	104	1159725056	70	22651
2026-01-06 22:56:18.09	163.00	8.36	-50.2	-65.4	3.8	1.49e+00	0	41	104	1159725056	71	21419
2026-01-06 22:56:19.10	163.08	8.29	-50.2	-65.5	3.8	1.49e+00	0	41	104	1159725056	71	21539
2026-01-06 22:56:20.10	163.15	8.21	-50.3	-65.5	3.8	1.49e+00	0	41	104	1159725056	71	21638
2026-01-06 22:56:21.10	163.22	8.14	-50.3	-65.5	3.8	1.49e+00	0	41	104	1159725056	71	21633
2026-01-06 22:56:22.11	163.30	8.07	-50.3	-65.5	3.8	1.49e+00	0	41	104	1159725056	71	21638
2026-01-06 22:56:23.11	163.37	7.99	-50.3	-65.5	3.8	1.49e+00	0	41	104	1159725056	71	21651
2026-01-06 22:56:24.12	163.44	7.92	-50.4	-65.5	3.8	1.49e+00	0	41	104	1159725056	71	21579
2026-01-06 22:56:25.12	163.51	7.85	-50.3	-65.5	3.8	1.49e+00	0	41	104	1159725056	71	21638
2026-01-06 22:56:26.12	163.59	7.77	-50.3	-65.5	3.8	1.49e+00	0	41	104	1159725056	71	21602
2026-01-06 22:56:27.13	163.66	7.70	-50.1	-65.5	3.8	1.49e+00	0	41	104	1159725056	71	21626
2026-01-06 22:56:28.21	163.73	7.62	-50.0	-65.5	3.8	1.49e+00	0	41	104	1159725056	71	21671
2026-01-06 22:56:29.11	163.80	7.56	-50.3	-65.5	3.8	1.49e+00	0	41	104	1159725056	71	21537
2026-01-06 22:56:30.13	163.87	7.49	-50.2	-65.5	3.8	1.49e+00	0	41	104	1159725056	71	21564
2026-01-06 22:56:31.13	163.94	7.41	-50.2	-65.5	3.8	1.49e+00	0	41	104	1159725056	71	21573
2026-01-06 22:56:32.36	164.02	7.33	-50.2	-65.5	3.8	1.49e+00	0	41	104	1159725056	71	21597
2026-01-06 22:56:33.23	164.08	7.26	-50.1	-65.5	3.8	1.49e+00	0	41	104	1159725056	71	21547
2026-01-06 22:56:34.59	164.18	7.17	-50.1	-65.5	3.8	1.49e+00	0	41	104	1159725056	71	21552
2026-01-06 22:56:35.31	164.23	7.12	-49.7	-65.5	3.8	1.49e+00	0	41	104	1159725056	71	21534
2026-01-06 22:56:36.80	164.33	7.01	-49.9	-65.4	3.8	1.49e+00	0	41	104	1159725056	71	21487
2026-01-06 22:56:37.52	164.38	6.96	-49.9	-65.5	3.8	1.49e+00	0	41	104	1159725056	71	21538
2026-01-06 22:56:38.81	164.46	6.87	-49.8	-65.4	3.8	1.49e+00	0	41	104	1159725056	71	21452
2026-01-06 22:56:39.53	164.51	6.82	-49.9	-65.4	3.8	1.49e+00	0	41	104	1159725056	71	21489
2026-01-06 22:56:40.82	164.60	6.73	-49.9	-65.4	3.8	1.49e+00	0	41	104	1159725056	71	21471
2026-01-06 22:56:41.54	164.64	6.68	-49.8	-65.5	3.8	1.49e+00	0	41	104	1159725056	71	21532
2026-01-06 22:56:42.83	164.73	6.59	-49.9	-65.5	3.8	1.49e+00	0	41	104	1159725056	71	21528
2026-01-06 22:56:43.55	164.78	6.54	-49.9	-65.4	3.8	1.49e+00	0	41	104	1159725056	71	21494
2026-01-06 22:56:44.84	164.86	6.45	-49.9	-65.5	3.8	1.49e+00	0	41	104	1159725056	71	21555
