passes_logs/2026/01/06/T1/T1__20260106_200815_KHAYYAM_rec.log

#Pass ID: 20260106_200815_KHAYYAM
#Satellite: KHAYYAM
#Configuration: KHAYYAM_480M
#almurnet v.1.7.20251203
#Start time: 2026-01-06 20:08:15

#Version: 2.0.20230620
#Station: T1
#Location: 37.570604 lon 55.790049 lat
#TLE: 1 53370U 22096A   26005.63766736  .00008095  00000+0  32978-3 0  9997
#TLE: 2 53370  97.3565 272.8146 0001238  87.7645 272.3734 15.24731212189819

#Time	Az	El	Level	Level2	SNR	BER	BlckErr	Temp	State	Recorded	gain1	gain2
2026-01-06 20:08:15.17	33.56	5.02	-49.4	-51.9	3.9	0.00e+00	0	45	0	0	70	19052
2026-01-06 20:08:16.17	33.69	5.09	-49.4	-51.8	3.8	0.00e+00	0	45	104	0	69	19970
2026-01-06 20:08:17.17	33.81	5.15	-49.3	-51.7	3.8	0.00e+00	0	45	104	0	69	19872
2026-01-06 20:08:18.18	33.94	5.22	-49.3	-51.7	3.8	0.00e+00	0	45	104	0	69	19850
2026-01-06 20:08:19.18	34.07	5.28	-49.3	-51.7	3.8	0.00e+00	0	45	104	0	69	19811
2026-01-06 20:08:20.18	34.20	5.35	-49.3	-51.8	3.8	0.00e+00	0	45	104	0	69	19981
2026-01-06 20:08:21.19	34.33	5.42	-49.4	-51.8	3.8	0.00e+00	0	45	104	0	69	20108
2026-01-06 20:08:22.19	34.46	5.48	-49.3	-51.8	3.8	0.00e+00	0	45	104	0	69	19961
2026-01-06 20:08:23.20	34.59	5.55	-49.3	-51.7	3.8	0.00e+00	0	45	104	0	69	19841
2026-01-06 20:08:24.20	34.72	5.62	-49.4	-51.8	3.8	0.00e+00	0	46	104	0	69	20082
2026-01-06 20:08:25.21	34.85	5.68	-49.4	-51.9	3.8	0.00e+00	0	46	104	0	69	20245
2026-01-06 20:08:26.21	34.98	5.75	-49.4	-51.8	3.8	0.00e+00	0	46	104	0	69	20068
2026-01-06 20:08:27.22	35.12	5.82	-49.4	-51.8	3.8	0.00e+00	0	46	104	0	69	20056
2026-01-06 20:08:28.22	35.25	5.88	-49.4	-51.8	3.8	0.00e+00	0	46	104	0	69	20070
2026-01-06 20:08:29.23	35.39	5.95	-49.4	-51.8	3.8	0.00e+00	0	46	104	0	69	20019
2026-01-06 20:08:30.23	35.52	6.02	-49.4	-51.8	3.8	0.00e+00	0	46	104	0	69	20086
2026-01-06 20:08:31.23	35.66	6.09	-49.4	-51.8	3.8	0.00e+00	0	46	104	0	69	20080
2026-01-06 20:08:32.23	35.79	6.15	-49.3	-51.8	3.8	0.00e+00	0	46	104	0	69	19992
2026-01-06 20:08:33.24	35.93	6.22	-49.3	-51.7	3.8	0.00e+00	0	46	104	0	69	19839
2026-01-06 20:08:34.24	36.07	6.29	-49.3	-51.7	3.8	0.00e+00	0	46	104	0	69	19923
2026-01-06 20:08:35.25	36.21	6.36	-49.4	-51.8	3.8	0.00e+00	0	46	104	0	69	19999
2026-01-06 20:08:36.25	36.35	6.43	-49.3	-51.7	3.8	0.00e+00	0	47	104	0	69	19903
2026-01-06 20:08:37.26	36.49	6.49	-49.3	-51.8	3.8	0.00e+00	0	46	104	0	69	19958
2026-01-06 20:08:38.26	36.64	6.56	-49.4	-51.8	3.8	0.00e+00	0	47	104	0	69	19968
2026-01-06 20:08:39.27	36.78	6.63	-49.4	-51.8	3.8	0.00e+00	0	47	104	0	69	20040
2026-01-06 20:08:40.27	36.92	6.70	-49.4	-51.8	3.8	0.00e+00	0	47	104	0	69	20034
2026-01-06 20:08:41.28	37.07	6.77	-49.4	-51.8	3.8	0.00e+00	0	47	104	0	69	20141
2026-01-06 20:08:42.28	37.21	6.84	-49.4	-51.8	3.8	0.00e+00	0	47	104	0	69	20157
2026-01-06 20:08:43.28	37.36	6.91	-49.4	-51.8	3.8	0.00e+00	0	47	104	0	69	20044
2026-01-06 20:08:44.29	37.51	6.98	-49.4	-51.8	3.8	0.00e+00	0	47	104	0	69	20051
2026-01-06 20:08:45.29	37.66	7.05	-49.4	-51.8	3.8	0.00e+00	0	47	104	0	69	20078
2026-01-06 20:08:46.30	37.80	7.11	-49.4	-51.9	3.8	0.00e+00	0	47	104	0	69	20167
2026-01-06 20:08:47.30	37.95	7.18	-49.4	-51.8	3.8	0.00e+00	0	47	104	0	69	20026
2026-01-06 20:08:48.31	38.11	7.25	-49.4	-51.8	3.8	0.00e+00	0	47	104	0	69	20019
2026-01-06 20:08:49.31	38.26	7.32	-49.4	-51.8	3.8	0.00e+00	0	47	104	0	69	20100
2026-01-06 20:08:50.31	38.41	7.39	-49.4	-51.8	3.8	0.00e+00	0	47	104	0	69	19975
2026-01-06 20:08:51.32	38.56	7.46	-49.4	-51.8	3.8	0.00e+00	0	47	104	0	69	20016
2026-01-06 20:08:52.32	38.72	7.53	-49.3	-51.7	3.8	0.00e+00	0	48	104	0	69	19867
2026-01-06 20:08:53.33	38.87	7.60	-49.5	-52.0	3.8	0.00e+00	0	48	104	0	69	20476
2026-01-06 20:08:54.33	39.03	7.67	-49.4	-51.9	3.8	0.00e+00	0	48	104	0	69	20248
2026-01-06 20:08:55.33	39.18	7.74	-49.4	-51.9	3.8	0.00e+00	0	48	104	0	69	20228
2026-01-06 20:08:56.34	39.34	7.82	-49.4	-51.8	3.8	0.00e+00	0	48	104	0	69	20122
2026-01-06 20:08:57.34	39.50	7.89	-49.4	-51.8	3.8	0.00e+00	0	48	104	0	69	20086
2026-01-06 20:08:58.35	39.66	7.96	-49.4	-51.9	3.8	0.00e+00	0	48	104	0	69	20213
2026-01-06 20:08:59.35	39.82	8.03	-49.3	-51.8	3.8	0.00e+00	0	48	104	0	69	19987
2026-01-06 20:09:00.36	39.99	8.10	-49.3	-51.7	3.8	0.00e+00	0	48	104	0	69	19865
2026-01-06 20:09:01.36	40.15	8.17	-49.4	-51.8	3.8	0.00e+00	0	48	104	0	69	20149
2026-01-06 20:09:02.36	40.31	8.24	-49.4	-51.8	3.8	0.00e+00	0	48	104	0	69	20134
2026-01-06 20:09:03.37	40.48	8.31	-49.4	-51.8	3.8	0.00e+00	0	48	104	0	69	20085
2026-01-06 20:09:04.37	40.64	8.38	-49.3	-51.7	3.8	0.00e+00	0	48	104	0	69	19886
2026-01-06 20:09:05.38	40.81	8.45	-49.3	-51.7	3.8	0.00e+00	0	48	104	0	69	19722
2026-01-06 20:09:06.38	40.98	8.53	-49.3	-51.8	3.8	0.00e+00	0	48	104	0	69	19943
2026-01-06 20:09:07.38	41.14	8.60	-49.3	-51.7	3.9	0.00e+00	0	48	104	0	69	19873
2026-01-06 20:09:08.39	41.32	8.67	-49.3	-51.7	3.8	0.00e+00	0	48	104	0	69	19882
2026-01-06 20:09:09.39	41.49	8.74	-49.3	-51.8	3.8	0.00e+00	0	48	104	0	69	19937
2026-01-06 20:09:10.40	41.66	8.81	-49.3	-51.7	3.8	0.00e+00	0	48	104	0	69	19861
2026-01-06 20:09:11.40	41.83	8.89	-49.2	-51.6	3.9	0.00e+00	0	48	104	0	69	19543
2026-01-06 20:09:12.41	42.01	8.96	-49.3	-51.8	3.8	0.00e+00	0	48	104	0	69	19940
2026-01-06 20:09:13.41	42.18	9.03	-49.9	-52.5	3.8	0.00e+00	0	48	104	0	70	20569
2026-01-06 20:09:14.42	42.36	9.10	-50.6	-53.6	3.7	0.00e+00	0	48	104	0	73	19589
2026-01-06 20:09:15.47	42.54	9.18	-48.4	-50.7	3.7	0.00e+00	0	48	104	0	67	19823
2026-01-06 20:09:16.36	42.70	9.24	-51.6	-55.2	3.7	0.00e+00	0	48	104	0	75	20979
2026-01-06 20:09:17.66	42.93	9.34	-48.4	-50.6	3.7	0.00e+00	0	48	104	0	68	18457
2026-01-06 20:09:18.38	43.06	9.39	-48.6	-50.9	3.7	0.00e+00	0	48	104	0	67	20391
2026-01-06 20:09:19.66	43.29	9.48	-48.9	-51.1	3.9	0.00e+00	0	48	104	0	69	18450
2026-01-06 20:09:20.38	43.42	9.53	-48.3	-50.3	4.0	0.00e+00	0	49	104	0	68	17921
2026-01-06 20:09:21.67	43.66	9.63	-48.6	-50.8	4.0	0.00e+00	0	49	104	0	68	18958
2026-01-06 20:09:22.38	43.79	9.68	-49.6	-52.1	3.8	0.00e+00	0	49	104	0	69	20764
2026-01-06 20:09:23.67	44.03	9.77	-50.6	-53.7	3.7	0.00e+00	0	49	104	0	72	20992
2026-01-06 20:09:24.49	44.18	9.83	-50.5	-53.3	3.7	0.00e+00	0	49	104	0	72	20130
2026-01-06 20:09:25.63	44.40	9.91	-48.9	-51.2	4.0	0.00e+00	0	49	104	0	69	18630
2026-01-06 20:09:26.70	44.60	9.99	-50.7	-53.8	3.7	0.00e+00	0	49	104	0	72	21116
2026-01-06 20:09:27.74	44.80	10.07	-50.7	-53.7	3.7	0.00e+00	0	49	104	0	72	21055
2026-01-06 20:09:28.74	44.99	10.14	-51.3	-54.7	3.7	0.00e+00	0	49	104	0	73	22120
2026-01-06 20:09:29.74	45.18	10.21	-51.5	-55.0	3.7	0.00e+00	0	49	104	0	73	22994
2026-01-06 20:09:30.74	45.37	10.29	-51.3	-54.7	3.7	0.00e+00	0	49	104	0	73	22236
2026-01-06 20:09:31.75	45.57	10.36	-51.2	-54.3	3.7	0.00e+00	0	49	104	0	73	21125
2026-01-06 20:09:32.75	45.76	10.44	-52.2	-56.1	3.7	0.00e+00	0	49	104	0	74	24631
2026-01-06 20:09:33.75	45.96	10.51	-52.3	-56.2	3.7	0.00e+00	0	49	104	0	75	23597
2026-01-06 20:09:34.75	46.16	10.58	-51.5	-55.1	3.7	0.00e+00	0	49	104	0	75	20670
2026-01-06 20:09:35.76	46.36	10.66	-52.3	-56.3	3.7	0.00e+00	0	49	104	0	76	22514
2026-01-06 20:09:36.76	46.56	10.73	-50.9	-54.0	3.7	0.00e+00	0	49	104	0	73	20548
2026-01-06 20:09:37.76	46.76	10.80	-51.0	-54.3	3.7	0.00e+00	0	49	104	0	73	21260
2026-01-06 20:09:38.77	46.97	10.88	-51.5	-55.0	3.7	0.00e+00	0	49	104	0	73	23075
2026-01-06 20:09:39.77	47.17	10.95	-52.0	-55.7	3.7	0.00e+00	0	49	104	0	74	23675
2026-01-06 20:09:40.77	47.38	11.02	-51.8	-55.7	3.7	0.00e+00	0	49	104	0	74	23552
2026-01-06 20:09:41.85	47.60	11.10	-51.8	-55.7	3.7	0.00e+00	0	49	104	0	74	23547
2026-01-06 20:09:42.71	47.78	11.17	-51.1	-54.3	3.7	0.00e+00	0	49	104	0	74	20004
2026-01-06 20:09:44.08	48.07	11.27	-52.0	-55.9	3.7	0.00e+00	0	49	104	0	74	24199
2026-01-06 20:09:44.80	48.22	11.32	-50.5	-53.3	3.7	0.00e+00	0	49	104	0	73	18982
2026-01-06 20:09:46.26	48.53	11.43	-52.1	-56.0	3.7	0.00e+00	0	49	104	0	74	24346
2026-01-06 20:09:46.98	48.68	11.48	-52.0	-55.9	3.7	0.00e+00	0	49	104	0	74	24068
2026-01-06 20:09:48.26	48.96	11.57	-50.9	-54.0	3.7	0.00e+00	0	49	104	0	73	20547
2026-01-06 20:09:48.98	49.11	11.63	-50.8	-53.8	3.7	0.00e+00	0	49	104	0	73	20088
2026-01-06 20:09:50.27	49.39	11.72	-51.8	-55.5	3.7	0.00e+00	0	49	104	0	74	22996
2026-01-06 20:09:50.99	49.55	11.77	-51.7	-55.3	3.7	0.00e+00	0	49	104	0	74	22470
2026-01-06 20:09:52.28	49.84	11.87	-52.2	-56.2	3.7	0.00e+00	0	50	104	0	75	23524
2026-01-06 20:09:52.99	49.99	11.92	-52.0	-55.7	3.7	0.00e+00	0	49	104	0	75	22200
2026-01-06 20:09:54.28	50.28	12.01	-52.1	-55.9	3.7	0.00e+00	0	50	104	0	75	22829
2026-01-06 20:09:55.00	50.44	12.07	-52.0	-55.7	3.7	0.00e+00	0	49	104	0	75	22361
2026-01-06 20:09:56.29	50.73	12.16	-52.6	-56.7	3.7	0.00e+00	0	50	104	0	75	24839
2026-01-06 20:09:57.01	50.90	12.21	-52.7	-56.9	3.6	0.00e+00	0	50	104	0	76	24129
2026-01-06 20:09:58.29	51.19	12.31	-52.7	-56.8	3.7	0.00e+00	0	49	104	0	76	23918
2026-01-06 20:09:59.01	51.35	12.36	-52.7	-56.8	3.7	0.00e+00	0	50	104	0	76	23745
2026-01-06 20:10:00.30	51.65	12.45	-52.7	-56.8	3.7	0.00e+00	0	50	104	0	76	23816
2026-01-06 20:10:01.02	51.82	12.51	-52.5	-56.6	3.7	0.00e+00	0	50	104	0	76	23164
2026-01-06 20:10:02.31	52.12	12.60	-52.5	-56.6	3.7	0.00e+00	0	49	104	0	76	23208
2026-01-06 20:10:03.02	52.29	12.65	-52.5	-56.5	3.7	0.00e+00	0	50	104	0	76	23003
2026-01-06 20:10:04.31	52.59	12.75	-52.5	-56.7	3.7	0.00e+00	0	50	104	0	76	23530
2026-01-06 20:10:05.03	52.76	12.80	-52.7	-57.2	3.7	0.00e+00	0	50	104	0	76	25060
2026-01-06 20:10:06.32	53.07	12.89	-52.3	-56.5	3.7	0.00e+00	0	50	104	0	76	23081
2026-01-06 20:10:07.03	53.24	12.94	-52.6	-56.9	3.7	0.00e+00	0	50	104	0	76	24096
2026-01-06 20:10:08.32	53.56	13.04	-52.3	-56.4	3.7	0.00e+00	0	50	104	0	76	22846
2026-01-06 20:10:09.04	53.73	13.09	-52.3	-56.4	3.7	0.00e+00	0	50	104	0	76	22678
2026-01-06 20:10:10.33	54.05	13.18	-52.4	-56.4	3.7	0.00e+00	0	50	104	0	76	22723
2026-01-06 20:10:11.05	54.22	13.23	-52.5	-56.5	3.7	0.00e+00	0	50	104	0	76	23050
2026-01-06 20:10:12.34	54.54	13.32	-52.5	-56.4	3.7	0.00e+00	0	50	104	0	76	22824
2026-01-06 20:10:13.05	54.72	13.38	-52.6	-56.8	3.7	0.00e+00	0	50	104	0	76	23889
2026-01-06 20:10:14.35	55.05	13.47	-52.7	-57.3	3.7	0.00e+00	0	50	104	0	76	25172
2026-01-06 20:10:15.06	55.23	13.52	-52.5	-56.8	3.7	0.00e+00	0	50	104	0	76	23919
2026-01-06 20:10:16.48	55.59	13.62	-52.7	-57.3	3.7	0.00e+00	0	50	104	0	76	25335
2026-01-06 20:10:17.19	55.77	13.67	-52.8	-57.4	3.7	0.00e+00	0	50	104	0	76	25437
2026-01-06 20:10:18.49	56.10	13.76	-53.1	-57.6	3.7	0.00e+00	0	50	104	0	76	26085
2026-01-06 20:10:19.20	56.28	13.81	-53.0	-57.6	3.7	0.00e+00	0	50	104	0	76	26029
2026-01-06 20:10:20.49	56.62	13.90	-53.0	-57.4	3.7	0.00e+00	0	50	104	0	76	25559
2026-01-06 20:10:21.21	56.81	13.95	-52.9	-57.5	3.7	0.00e+00	0	50	104	0	76	25891
2026-01-06 20:10:22.50	57.15	14.04	-52.6	-57.4	3.7	0.00e+00	0	50	104	0	76	25394
2026-01-06 20:10:23.21	57.33	14.09	-52.5	-57.0	3.7	0.00e+00	0	50	104	0	76	24394
2026-01-06 20:10:24.50	57.68	14.18	-52.6	-57.3	3.7	0.00e+00	0	50	104	0	76	25248
2026-01-06 20:10:25.22	57.87	14.23	-52.5	-56.9	3.7	0.00e+00	0	50	104	0	76	24061
2026-01-06 20:10:26.51	58.21	14.32	-53.1	-57.6	3.7	0.00e+00	0	50	104	0	76	26238
2026-01-06 20:10:27.23	58.41	14.37	-53.2	-57.6	3.7	0.00e+00	0	50	104	0	77	24776
2026-01-06 20:10:28.52	58.76	14.46	-53.2	-57.7	3.7	0.00e+00	0	50	104	0	77	24968
2026-01-06 20:10:29.23	58.95	14.51	-52.9	-57.2	3.7	0.00e+00	0	50	104	0	77	23647
2026-01-06 20:10:30.52	59.31	14.59	-52.5	-56.6	3.7	0.00e+00	0	50	104	0	76	23227
2026-01-06 20:10:31.24	59.50	14.64	-52.2	-56.3	3.7	0.00e+00	0	50	104	0	76	22599
2026-01-06 20:10:32.53	59.86	14.73	-52.3	-56.6	3.7	0.00e+00	0	50	104	0	76	23409
2026-01-06 20:10:33.24	60.06	14.78	-52.3	-56.7	3.7	0.00e+00	0	50	104	0	76	23421
2026-01-06 20:10:34.68	60.46	14.87	-52.9	-57.4	3.7	0.00e+00	0	50	104	0	76	25401
2026-01-06 20:10:35.39	60.66	14.92	-52.8	-57.4	3.7	0.00e+00	0	50	104	0	76	25480
2026-01-06 20:10:36.77	61.06	15.01	-52.9	-57.5	3.7	0.00e+00	0	50	104	0	76	25938
2026-01-06 20:10:37.48	61.26	15.06	-52.8	-57.4	3.7	0.00e+00	0	50	104	0	76	25668
2026-01-06 20:10:38.77	61.63	15.14	-52.5	-57.2	3.7	0.00e+00	0	50	104	0	76	24982
2026-01-06 20:10:39.49	61.84	15.19	-52.5	-57.3	3.7	0.00e+00	0	50	104	0	76	25131
2026-01-06 20:10:40.77	62.21	15.27	-52.6	-57.4	3.7	0.00e+00	0	50	104	0	76	25578
2026-01-06 20:10:41.49	62.42	15.32	-52.9	-57.6	3.7	0.00e+00	0	50	104	0	76	26094
2026-01-06 20:10:42.78	62.79	15.40	-53.0	-57.7	3.7	0.00e+00	0	50	104	0	76	26342
2026-01-06 20:10:43.50	63.00	15.44	-53.0	-57.4	3.7	0.00e+00	0	50	104	0	76	25677
2026-01-06 20:10:44.79	63.39	15.52	-52.9	-57.4	3.7	0.00e+00	0	50	104	0	76	25627
2026-01-06 20:10:45.51	63.60	15.57	-52.9	-57.6	3.7	0.00e+00	0	50	104	0	76	26221
2026-01-06 20:10:46.80	63.98	15.65	-52.8	-57.2	3.7	0.00e+00	0	50	104	0	76	25044
2026-01-06 20:10:47.52	64.20	15.69	-52.7	-57.1	3.7	0.00e+00	0	50	104	0	76	24794
2026-01-06 20:10:48.81	64.59	15.77	-52.7	-57.0	3.7	0.00e+00	0	50	104	0	76	24453
2026-01-06 20:10:49.52	64.80	15.82	-53.1	-57.5	3.7	0.00e+00	0	50	104	0	76	25715
2026-01-06 20:10:50.81	65.20	15.89	-52.9	-57.2	3.7	0.00e+00	0	50	104	0	77	23662
2026-01-06 20:10:51.53	65.42	15.94	-53.0	-57.4	3.7	0.00e+00	0	50	104	0	77	24040
2026-01-06 20:10:52.82	65.81	16.01	-52.8	-57.0	3.7	0.00e+00	0	50	104	0	77	22968
2026-01-06 20:10:53.53	66.03	16.05	-52.8	-57.1	3.7	0.00e+00	0	50	104	0	77	23322
2026-01-06 20:10:54.82	66.43	16.13	-52.9	-57.3	3.7	0.00e+00	0	50	104	0	77	23859
2026-01-06 20:10:55.54	66.66	16.17	-53.0	-57.5	3.7	0.00e+00	0	50	104	0	77	24482
2026-01-06 20:10:56.83	67.06	16.24	-53.1	-57.6	3.7	0.00e+00	0	50	104	0	77	24742
2026-01-06 20:10:57.58	67.29	16.29	-53.1	-57.6	3.7	0.00e+00	0	50	104	0	77	24678
2026-01-06 20:10:59.18	67.80	16.38	-53.1	-57.5	3.7	0.00e+00	0	50	104	0	77	24395
2026-01-06 20:11:00.01	68.06	16.42	-53.1	-57.5	3.7	0.00e+00	0	50	104	0	77	24503
2026-01-06 20:11:01.16	68.43	16.48	-52.8	-56.8	3.7	0.00e+00	0	50	104	0	77	22384
2026-01-06 20:11:02.37	68.82	16.55	-52.9	-57.0	3.7	0.00e+00	0	50	104	0	77	23149
2026-01-06 20:11:03.23	69.09	16.59	-52.7	-56.7	3.7	0.00e+00	0	50	104	0	77	22231
2026-01-06 20:11:04.37	69.46	16.65	-53.1	-57.6	3.7	0.00e+00	0	50	104	0	77	24704
2026-01-06 20:11:05.23	69.74	16.70	-53.0	-57.5	3.7	0.00e+00	0	51	104	0	77	24427
2026-01-06 20:11:06.38	70.12	16.76	-52.8	-57.1	3.7	0.00e+00	0	50	104	0	77	23325
2026-01-06 20:11:07.24	70.40	16.80	-52.7	-57.0	3.7	0.00e+00	0	50	104	0	77	22993
2026-01-06 20:11:08.38	70.77	16.86	-53.0	-57.5	3.7	0.00e+00	0	50	104	0	77	24378
2026-01-06 20:11:09.25	71.06	16.90	-53.1	-57.6	3.7	0.00e+00	0	50	104	0	77	24595
2026-01-06 20:11:10.42	71.44	16.96	-53.3	-57.8	3.7	0.00e+00	0	50	104	0	77	25211
2026-01-06 20:11:11.28	71.73	17.00	-53.2	-57.6	3.7	0.00e+00	0	50	104	0	77	24721
2026-01-06 20:11:12.49	72.13	17.06	-53.2	-57.6	3.7	0.00e+00	0	50	104	0	77	24745
2026-01-06 20:11:13.35	72.42	17.10	-53.2	-57.7	3.7	0.00e+00	0	50	104	0	77	24918
2026-01-06 20:11:14.50	72.81	17.15	-53.0	-57.4	3.7	0.00e+00	0	50	104	0	77	24153
2026-01-06 20:11:15.36	73.10	17.19	-52.9	-57.2	3.7	0.00e+00	0	50	104	0	77	23550
2026-01-06 20:11:16.50	73.48	17.24	-53.0	-57.3	3.7	0.00e+00	0	50	104	0	77	23931
2026-01-06 20:11:17.36	73.77	17.28	-53.1	-57.5	3.7	0.00e+00	0	50	104	0	77	24243
2026-01-06 20:11:18.51	74.17	17.33	-53.2	-57.6	3.7	0.00e+00	0	50	104	0	77	24667
2026-01-06 20:11:19.37	74.46	17.36	-53.1	-57.7	3.7	0.00e+00	0	50	104	0	77	24808
2026-01-06 20:11:20.52	74.85	17.41	-53.2	-57.7	3.7	0.00e+00	0	50	104	0	77	24809
2026-01-06 20:11:21.38	75.15	17.44	-53.1	-57.6	3.7	0.00e+00	0	50	104	0	77	24738
2026-01-06 20:11:22.53	75.55	17.49	-53.0	-57.6	3.7	0.00e+00	0	50	104	0	77	24539
2026-01-06 20:11:23.39	75.84	17.52	-52.8	-57.5	3.7	0.00e+00	0	50	104	0	77	24328
2026-01-06 20:11:24.53	76.24	17.57	-52.7	-57.4	3.7	0.00e+00	0	50	104	0	77	23987
2026-01-06 20:11:25.39	76.54	17.60	-52.7	-57.3	3.7	0.00e+00	0	50	104	0	77	23780
2026-01-06 20:11:26.54	76.94	17.64	-53.1	-57.6	3.7	0.00e+00	0	50	104	0	77	24555
2026-01-06 20:11:27.40	77.24	17.67	-53.2	-57.7	3.7	0.00e+00	0	50	104	0	77	24896
2026-01-06 20:11:28.55	77.65	17.71	-53.0	-57.5	3.7	0.00e+00	0	50	104	0	77	24433
2026-01-06 20:11:29.41	77.95	17.74	-53.0	-57.5	3.7	0.00e+00	0	50	104	0	77	24262
2026-01-06 20:11:30.56	78.35	17.78	-53.0	-57.6	3.7	0.00e+00	0	50	104	0	77	24795
2026-01-06 20:11:31.42	78.66	17.81	-53.0	-57.5	3.7	0.00e+00	0	50	104	0	77	24356
2026-01-06 20:11:32.56	79.06	17.84	-53.0	-57.5	3.7	0.00e+00	0	51	104	0	77	24266
2026-01-06 20:11:33.42	79.37	17.87	-53.0	-57.6	3.7	0.00e+00	0	51	104	0	77	24616
2026-01-06 20:11:34.57	79.78	17.90	-52.7	-57.1	3.7	0.00e+00	0	50	104	0	77	23264
2026-01-06 20:11:35.43	80.08	17.93	-52.5	-57.1	3.7	0.00e+00	0	50	104	0	77	23301
2026-01-06 20:11:36.57	80.49	17.96	-52.3	-57.0	3.7	0.00e+00	0	50	104	0	76	24372
2026-01-06 20:11:37.43	80.80	17.98	-52.2	-57.0	3.7	0.00e+00	0	50	104	0	76	24245
2026-01-06 20:11:38.58	81.21	18.01	-52.3	-57.1	3.7	0.00e+00	0	50	104	0	76	24782
2026-01-06 20:11:39.44	81.52	18.03	-52.7	-57.5	3.7	0.00e+00	0	50	104	0	76	25761
2026-01-06 20:11:40.58	81.93	18.06	-53.0	-57.7	3.7	0.00e+00	0	50	104	0	76	26446
2026-01-06 20:11:41.44	82.25	18.08	-52.8	-57.5	3.7	0.00e+00	0	50	104	0	76	25805
2026-01-06 20:11:42.62	82.67	18.10	-52.2	-57.0	3.7	0.00e+00	0	50	104	0	76	24338
2026-01-06 20:11:43.48	82.98	18.12	-52.3	-57.0	3.7	0.00e+00	0	51	104	0	76	24498
2026-01-06 20:11:44.62	83.40	18.14	-52.2	-57.0	3.7	0.00e+00	0	50	104	0	76	24322
2026-01-06 20:11:45.48	83.71	18.16	-52.3	-56.9	3.7	0.00e+00	0	51	104	0	76	24240
2026-01-06 20:11:46.63	84.13	18.18	-52.2	-56.8	3.7	0.00e+00	0	50	104	0	76	23788
2026-01-06 20:11:47.49	84.44	18.19	-52.1	-56.7	3.7	0.00e+00	0	50	104	0	76	23636
2026-01-06 20:11:48.64	84.86	18.21	-52.0	-56.4	3.7	0.00e+00	0	51	104	0	76	22789
2026-01-06 20:11:49.60	85.21	18.23	-52.0	-56.4	3.7	0.00e+00	0	51	104	0	75	24049
2026-01-06 20:11:50.78	85.65	18.24	-52.4	-57.2	3.7	0.00e+00	0	51	104	0	75	26428
2026-01-06 20:11:51.65	85.96	18.25	-52.2	-57.0	3.7	0.00e+00	0	51	104	0	75	25883
2026-01-06 20:11:52.98	86.45	18.27	-52.3	-56.6	3.7	0.00e+00	0	50	104	0	75	24777
2026-01-06 20:11:53.69	86.71	18.28	-52.2	-56.3	3.7	0.00e+00	0	51	104	0	75	23922
2026-01-06 20:11:55.23	87.28	18.29	-52.2	-56.1	3.7	0.00e+00	0	51	104	0	75	23398
2026-01-06 20:11:55.95	87.54	18.30	-52.3	-56.3	3.7	0.00e+00	0	50	104	0	75	23741
2026-01-06 20:11:57.24	88.02	18.31	-52.3	-56.5	3.7	0.00e+00	0	50	104	0	75	24335
2026-01-06 20:11:57.95	88.28	18.31	-52.4	-56.8	3.7	0.00e+00	0	50	104	0	75	25128
2026-01-06 20:11:59.24	88.76	18.32	-52.2	-56.7	3.7	0.00e+00	0	51	104	0	75	25031
2026-01-06 20:11:59.96	89.02	18.32	-52.2	-56.6	3.7	0.00e+00	0	50	104	0	75	24579
2026-01-06 20:12:01.25	89.50	18.32	-52.5	-56.9	3.7	0.00e+00	0	51	104	0	75	25389
2026-01-06 20:12:01.96	89.76	18.32	-52.8	-57.1	3.7	0.00e+00	0	50	104	0	76	24699
2026-01-06 20:12:03.26	90.24	18.33	-52.8	-57.4	3.7	0.00e+00	0	50	104	0	76	25588
2026-01-06 20:12:03.97	90.50	18.33	-53.0	-57.6	3.7	0.00e+00	0	50	104	0	76	26036
2026-01-06 20:12:05.26	90.98	18.32	-52.7	-57.2	3.7	0.00e+00	0	50	104	0	76	24895
2026-01-06 20:12:05.98	91.24	18.32	-52.8	-57.1	3.7	0.00e+00	0	50	104	0	76	24723
2026-01-06 20:12:07.26	91.71	18.32	-52.9	-57.2	3.7	0.00e+00	0	51	104	0	76	25055
2026-01-06 20:12:07.98	91.98	18.32	-52.9	-57.3	3.7	0.00e+00	0	51	104	0	76	25156
2026-01-06 20:12:09.27	92.45	18.31	-53.0	-57.3	3.7	0.00e+00	0	50	104	0	76	25277
2026-01-06 20:12:09.99	92.72	18.30	-53.2	-57.6	3.7	0.00e+00	0	50	104	0	76	26050
2026-01-06 20:12:11.28	93.19	18.29	-53.2	-57.8	3.7	0.00e+00	0	50	104	0	76	26791
2026-01-06 20:12:12.00	93.46	18.29	-53.1	-57.6	3.7	0.00e+00	0	51	104	0	77	24733
2026-01-06 20:12:13.29	93.93	18.28	-53.1	-57.7	3.7	0.00e+00	0	51	104	0	77	24964
2026-01-06 20:12:14.00	94.19	18.27	-53.0	-57.4	3.7	0.00e+00	0	50	104	0	77	23981
2026-01-06 20:12:15.29	94.67	18.25	-53.1	-57.4	3.7	0.00e+00	0	51	104	0	77	24137
2026-01-06 20:12:16.06	94.95	18.24	-53.2	-57.7	3.7	0.00e+00	0	51	104	0	77	24908
2026-01-06 20:12:17.67	95.54	18.22	-53.2	-57.7	3.7	0.00e+00	0	50	104	0	77	24970
2026-01-06 20:12:18.24	95.75	18.21	-53.2	-57.8	3.7	0.00e+00	0	50	104	0	77	25232
2026-01-06 20:12:20.01	96.40	18.19	-53.2	-57.7	3.7	0.00e+00	0	51	104	0	77	25004
2026-01-06 20:12:20.58	96.60	18.18	-53.2	-57.7	3.7	0.00e+00	0	51	104	0	77	25037
2026-01-06 20:12:22.18	97.19	18.15	-53.2	-57.8	3.7	0.00e+00	0	51	104	0	77	25102
2026-01-06 20:12:22.75	97.40	18.14	-53.3	-57.7	3.7	0.00e+00	0	50	104	0	77	25088
2026-01-06 20:12:24.35	97.98	18.10	-53.2	-57.7	3.7	0.00e+00	0	50	104	0	77	25018
2026-01-06 20:12:24.92	98.18	18.09	-53.3	-57.8	3.7	0.00e+00	0	51	104	0	77	25238
2026-01-06 20:12:26.52	98.76	18.06	-53.3	-57.7	3.7	0.00e+00	0	51	104	0	77	25031
2026-01-06 20:12:27.09	98.97	18.04	-53.2	-57.7	3.7	0.00e+00	0	51	104	0	77	25006
2026-01-06 20:12:28.67	99.54	18.00	-53.3	-57.7	3.7	0.00e+00	0	50	104	0	77	25071
2026-01-06 20:12:29.24	99.75	17.99	-53.3	-57.7	3.7	0.00e+00	0	51	104	0	77	25082
2026-01-06 20:12:30.94	100.36	17.94	-53.4	-57.8	3.7	0.00e+00	0	51	104	0	77	25364
2026-01-06 20:12:31.52	100.56	17.93	-53.4	-57.8	3.7	0.00e+00	0	51	104	0	77	25376
2026-01-06 20:12:33.09	101.13	17.88	-53.4	-57.8	3.7	0.00e+00	0	51	104	0	77	25263
2026-01-06 20:12:33.68	101.34	17.87	-53.3	-57.8	3.7	0.00e+00	0	51	104	0	77	25207
2026-01-06 20:12:35.25	101.90	17.82	-53.3	-57.8	3.7	0.00e+00	0	51	104	0	77	25129
2026-01-06 20:12:35.83	102.10	17.80	-53.3	-57.9	3.7	0.00e+00	0	51	104	0	77	25459
2026-01-06 20:12:37.41	102.66	17.75	-53.3	-57.8	3.7	0.00e+00	0	51	104	0	77	25329
2026-01-06 20:12:38.04	102.88	17.73	-53.2	-57.7	3.7	0.00e+00	0	50	104	0	77	24883
2026-01-06 20:12:39.48	103.39	17.68	-53.3	-57.9	3.7	0.00e+00	0	51	104	0	77	25544
2026-01-06 20:12:40.20	103.64	17.65	-53.3	-57.9	3.7	0.00e+00	0	50	104	0	77	25491
2026-01-06 20:12:41.49	104.10	17.60	-53.4	-57.9	3.7	0.00e+00	0	51	104	0	77	25442
2026-01-06 20:12:42.21	104.35	17.58	-53.3	-57.9	3.7	0.00e+00	0	51	104	0	77	25440
2026-01-06 20:12:43.61	104.84	17.52	-53.2	-57.8	3.7	0.00e+00	0	51	104	0	77	25187
2026-01-06 20:12:44.33	105.09	17.50	-53.2	-57.7	3.7	0.00e+00	0	51	104	0	77	24939
2026-01-06 20:12:45.62	105.53	17.44	-53.2	-57.6	3.7	0.00e+00	0	51	104	0	77	24750
2026-01-06 20:12:46.34	105.78	17.42	-53.1	-57.6	3.7	0.00e+00	0	51	104	0	77	24541
2026-01-06 20:12:47.78	106.28	17.36	-52.9	-57.6	3.7	0.00e+00	0	51	104	0	77	24760
2026-01-06 20:12:48.50	106.52	17.33	-53.0	-57.6	3.7	0.00e+00	0	50	104	0	77	24767
2026-01-06 20:12:49.79	106.96	17.27	-52.8	-57.6	3.7	0.00e+00	0	51	104	0	77	24536
2026-01-06 20:12:50.50	107.21	17.24	-52.9	-57.6	3.7	0.00e+00	0	51	104	0	77	24711
2026-01-06 20:12:51.79	107.64	17.18	-53.2	-57.8	3.7	0.00e+00	0	50	104	0	77	25149
2026-01-06 20:12:52.51	107.89	17.15	-53.2	-57.7	3.7	0.00e+00	0	51	104	0	77	25086
2026-01-06 20:12:53.80	108.32	17.09	-53.2	-57.8	3.7	0.00e+00	0	51	104	0	77	25170
2026-01-06 20:12:54.52	108.56	17.06	-53.2	-57.8	3.7	0.00e+00	0	51	104	0	77	25125
2026-01-06 20:12:55.81	109.00	16.99	-53.1	-57.6	3.7	0.00e+00	0	51	104	0	77	24559
2026-01-06 20:12:56.52	109.23	16.96	-53.1	-57.5	3.7	0.00e+00	0	51	104	0	77	24432
2026-01-06 20:12:57.81	109.66	16.90	-53.2	-57.7	3.7	0.00e+00	0	50	104	0	77	25038
2026-01-06 20:12:58.53	109.90	16.86	-53.2	-57.7	3.7	0.00e+00	0	51	104	0	77	24856
2026-01-06 20:12:59.82	110.33	16.80	-53.1	-57.7	3.7	0.00e+00	0	50	104	0	77	24964
2026-01-06 20:13:00.54	110.56	16.76	-53.1	-57.7	3.7	0.00e+00	0	51	104	0	77	25048
2026-01-06 20:13:01.83	110.98	16.69	-53.1	-57.8	3.7	0.00e+00	0	51	104	0	77	25139
2026-01-06 20:13:02.54	111.22	16.66	-53.0	-57.7	3.7	0.00e+00	0	51	104	0	77	24941
2026-01-06 20:13:03.83	111.63	16.59	-52.9	-57.6	3.7	0.00e+00	0	50	104	0	77	24590
2026-01-06 20:13:04.55	111.87	16.55	-52.9	-57.6	3.7	0.00e+00	0	51	104	0	77	24564
2026-01-06 20:13:05.84	112.28	16.48	-52.9	-57.6	3.7	0.00e+00	0	51	104	0	77	24557
2026-01-06 20:13:06.55	112.51	16.44	-53.1	-57.7	3.7	0.00e+00	0	51	104	0	77	24833
2026-01-06 20:13:07.84	112.92	16.37	-53.3	-57.7	3.7	0.00e+00	0	51	104	0	77	24916
2026-01-06 20:13:08.56	113.15	16.33	-53.3	-57.7	3.7	0.00e+00	0	51	104	0	77	24886
2026-01-06 20:13:09.85	113.56	16.26	-53.3	-57.7	3.7	0.00e+00	0	50	104	0	77	25057
2026-01-06 20:13:10.58	113.79	16.21	-53.4	-57.8	3.7	0.00e+00	0	51	104	0	77	25283
2026-01-06 20:13:12.18	114.29	16.12	-53.3	-57.7	3.7	0.00e+00	0	51	104	0	77	25022
2026-01-06 20:13:13.01	114.55	16.07	-53.4	-57.8	3.7	0.00e+00	0	51	104	0	77	25277
2026-01-06 20:13:14.16	114.91	16.00	-53.3	-57.7	3.7	0.00e+00	0	51	104	0	77	24829
2026-01-06 20:13:15.37	115.28	15.93	-53.2	-57.6	3.7	0.00e+00	0	51	104	0	77	24632
2026-01-06 20:13:16.23	115.55	15.88	-53.3	-57.6	3.7	0.00e+00	0	51	104	0	77	24799
2026-01-06 20:13:17.37	115.89	15.81	-53.2	-57.6	3.7	0.00e+00	0	51	104	0	77	24656
2026-01-06 20:13:18.23	116.16	15.76	-53.3	-57.7	3.7	0.00e+00	0	51	104	0	77	24826
2026-01-06 20:13:19.38	116.50	15.69	-53.2	-57.7	3.7	0.00e+00	0	51	104	0	77	24860
2026-01-06 20:13:20.24	116.76	15.64	-53.0	-57.5	3.7	0.00e+00	0	51	104	0	77	24342
2026-01-06 20:13:21.39	117.11	15.56	-53.0	-57.5	3.7	0.00e+00	0	51	104	0	77	24365
2026-01-06 20:13:22.25	117.37	15.51	-52.9	-57.4	3.7	0.00e+00	0	51	104	0	77	24206
2026-01-06 20:13:23.40	117.71	15.44	-52.8	-57.4	3.7	0.00e+00	0	51	104	0	77	24164
2026-01-06 20:13:24.25	117.96	15.38	-53.0	-57.6	3.7	0.00e+00	0	51	104	0	77	24679
2026-01-06 20:13:25.53	118.34	15.30	-53.0	-57.6	3.7	0.00e+00	0	51	104	0	77	24604
2026-01-06 20:13:26.26	118.55	15.25	-53.1	-57.6	3.7	0.00e+00	0	51	104	0	77	24744
2026-01-06 20:13:27.55	118.92	15.17	-53.1	-57.6	3.7	0.00e+00	0	51	104	0	77	24713
2026-01-06 20:13:28.27	119.13	15.12	-53.1	-57.5	3.7	0.00e+00	0	51	104	0	77	24449
2026-01-06 20:13:29.56	119.51	15.04	-53.1	-57.5	3.7	0.00e+00	0	51	104	0	77	24501
2026-01-06 20:13:30.27	119.71	14.99	-53.1	-57.5	3.7	0.00e+00	0	51	104	0	77	24410
2026-01-06 20:13:31.56	120.08	14.91	-53.0	-57.4	3.7	0.00e+00	0	51	104	0	77	24235
2026-01-06 20:13:32.28	120.28	14.86	-53.1	-57.5	3.7	0.00e+00	0	50	104	0	77	24455
2026-01-06 20:13:33.57	120.65	14.77	-53.0	-57.5	3.7	0.00e+00	0	51	104	0	77	24387
2026-01-06 20:13:34.29	120.85	14.72	-53.0	-57.5	3.7	0.00e+00	0	51	104	0	77	24437
2026-01-06 20:13:35.58	121.21	14.64	-53.0	-57.5	3.7	0.00e+00	0	51	104	0	77	24448
2026-01-06 20:13:36.29	121.41	14.59	-53.0	-57.4	3.7	0.00e+00	0	51	104	0	77	24219
2026-01-06 20:13:37.58	121.76	14.50	-52.9	-57.3	3.7	0.00e+00	0	51	104	0	77	23902
2026-01-06 20:13:38.30	121.96	14.45	-52.9	-57.3	3.7	0.00e+00	0	51	104	0	77	23876
2026-01-06 20:13:39.70	122.34	14.35	-53.1	-57.6	3.7	0.00e+00	0	51	104	0	77	24547
2026-01-06 20:13:40.42	122.54	14.30	-53.1	-57.5	3.7	0.00e+00	0	51	104	0	77	24450
2026-01-06 20:13:41.79	122.91	14.21	-53.1	-57.6	3.7	0.00e+00	0	51	104	0	77	24567
2026-01-06 20:13:42.50	123.10	14.16	-53.2	-57.6	3.7	0.00e+00	0	51	104	0	77	24694
2026-01-06 20:13:43.79	123.44	14.07	-53.1	-57.4	3.7	0.00e+00	0	51	104	0	77	24199
2026-01-06 20:13:44.51	123.63	14.02	-53.1	-57.5	3.7	0.00e+00	0	51	104	0	77	24451
2026-01-06 20:13:45.80	123.98	13.93	-53.1	-57.5	3.7	0.00e+00	0	51	104	0	77	24440
2026-01-06 20:13:46.51	124.16	13.88	-53.1	-57.4	3.7	0.00e+00	0	51	104	0	77	24164
2026-01-06 20:13:47.80	124.50	13.78	-53.1	-57.5	3.7	0.00e+00	0	51	104	0	77	24405
2026-01-06 20:13:48.52	124.69	13.73	-53.0	-57.5	3.7	0.00e+00	0	51	104	0	77	24265
2026-01-06 20:13:49.81	125.02	13.64	-53.0	-57.5	3.7	0.00e+00	0	51	104	0	77	24284
2026-01-06 20:13:50.53	125.20	13.59	-53.1	-57.6	3.7	0.00e+00	0	51	104	0	77	24789
2026-01-06 20:13:51.82	125.53	13.50	-53.0	-57.3	3.7	0.00e+00	0	51	104	0	77	23805
2026-01-06 20:13:52.66	125.75	13.44	-53.1	-57.4	3.7	0.00e+00	0	51	104	0	77	24185
2026-01-06 20:13:54.12	126.11	13.33	-52.9	-57.2	3.7	0.00e+00	0	51	104	0	77	23433
2026-01-06 20:13:54.84	126.30	13.28	-52.9	-57.0	3.7	0.00e+00	0	51	104	0	77	22995
2026-01-06 20:13:56.13	126.62	13.19	-52.6	-56.9	3.7	0.00e+00	0	51	104	0	77	22761
2026-01-06 20:13:56.84	126.79	13.14	-52.8	-56.9	3.7	0.00e+00	0	51	104	0	77	22750
2026-01-06 20:13:58.14	127.11	13.04	-52.6	-57.0	3.7	0.00e+00	0	51	104	0	77	23039
2026-01-06 20:13:58.90	127.30	12.99	-52.4	-56.9	3.7	0.00e+00	0	51	104	0	76	24082
2026-01-06 20:14:00.19	127.61	12.89	-52.3	-57.0	3.7	0.00e+00	0	51	104	0	76	24248
2026-01-06 20:14:00.99	127.81	12.83	-52.1	-56.7	3.7	0.00e+00	0	51	104	0	76	23563
2026-01-06 20:14:02.14	128.08	12.75	-52.3	-57.0	3.7	0.00e+00	0	51	104	0	76	24368
2026-01-06 20:14:03.00	128.29	12.69	-52.5	-57.0	3.7	0.00e+00	0	51	104	0	76	24281
2026-01-06 20:14:04.15	128.56	12.60	-52.7	-57.0	3.7	0.00e+00	0	51	104	0	76	24297
2026-01-06 20:14:05.01	128.76	12.54	-52.5	-56.9	3.7	0.00e+00	0	51	104	0	76	24215
2026-01-06 20:14:06.16	129.03	12.45	-52.7	-57.0	3.7	0.00e+00	0	51	104	0	76	24267
2026-01-06 20:14:07.02	129.24	12.39	-52.6	-56.8	3.7	0.00e+00	0	51	104	0	76	23715
2026-01-06 20:14:08.16	129.50	12.31	-52.7	-57.0	3.7	0.00e+00	0	51	104	0	76	24489
2026-01-06 20:14:09.02	129.70	12.24	-52.6	-56.8	3.7	0.00e+00	0	51	104	0	76	23907
2026-01-06 20:14:10.17	129.96	12.16	-52.6	-57.1	3.7	0.00e+00	0	51	104	0	76	24689
2026-01-06 20:14:11.03	130.16	12.10	-52.7	-57.2	3.7	0.00e+00	0	51	104	0	76	24946
2026-01-06 20:14:12.18	130.42	12.01	-52.5	-57.1	3.7	0.00e+00	0	51	104	0	76	24708
2026-01-06 20:14:13.12	130.63	11.94	-52.7	-57.1	3.7	0.00e+00	0	51	104	0	76	24773
2026-01-06 20:14:14.29	130.89	11.85	-52.5	-57.0	3.7	0.00e+00	0	51	104	0	76	24513
2026-01-06 20:14:15.15	131.08	11.79	-52.2	-56.9	3.7	0.00e+00	0	51	104	0	76	24040
2026-01-06 20:14:16.51	131.38	11.69	-52.4	-57.0	3.7	0.00e+00	0	51	104	0	76	24389
2026-01-06 20:14:17.22	131.54	11.64	-52.3	-56.9	3.7	0.00e+00	0	51	104	0	76	24198
2026-01-06 20:14:18.51	131.82	11.54	-52.6	-57.2	3.7	0.00e+00	0	51	104	0	76	24835
2026-01-06 20:14:19.23	131.98	11.49	-52.7	-57.0	3.7	0.00e+00	0	51	104	0	76	24427
2026-01-06 20:14:20.52	132.25	11.39	-52.8	-57.2	3.7	0.00e+00	0	51	104	0	76	25051
2026-01-06 20:14:21.23	132.41	11.34	-52.7	-57.2	3.7	0.00e+00	0	51	104	0	76	24834
2026-01-06 20:14:22.53	132.68	11.24	-52.8	-57.2	3.7	0.00e+00	0	51	104	0	76	24993
2026-01-06 20:14:23.24	132.83	11.19	-52.7	-57.3	3.7	0.00e+00	0	51	104	0	76	25141
2026-01-06 20:14:24.53	133.11	11.09	-52.7	-57.3	3.7	0.00e+00	0	51	104	0	76	25165
2026-01-06 20:14:25.25	133.26	11.04	-52.7	-57.2	3.7	0.00e+00	0	51	104	0	76	25015
2026-01-06 20:14:26.53	133.52	10.95	-52.9	-57.3	3.7	0.00e+00	0	51	104	0	76	25312
2026-01-06 20:14:27.25	133.67	10.89	-52.9	-57.3	3.7	0.00e+00	0	51	104	0	76	25380
2026-01-06 20:14:28.55	133.94	10.80	-52.9	-57.3	3.7	0.00e+00	0	51	104	0	76	25368
2026-01-06 20:14:29.26	134.08	10.74	-52.9	-57.3	3.7	0.00e+00	0	51	104	0	76	25203
2026-01-06 20:14:30.55	134.34	10.65	-52.8	-57.3	3.7	0.00e+00	0	51	104	0	76	25175
2026-01-06 20:14:31.27	134.49	10.59	-52.7	-57.1	3.7	0.00e+00	0	51	104	0	76	24585
2026-01-06 20:14:32.67	134.77	10.49	-52.7	-57.2	3.7	0.00e+00	0	51	104	0	76	25028
2026-01-06 20:14:33.39	134.91	10.44	-52.7	-57.2	3.7	0.00e+00	0	51	104	0	76	25076
2026-01-06 20:14:34.75	135.18	10.34	-52.8	-57.2	3.7	0.00e+00	0	51	104	0	76	24937
2026-01-06 20:14:35.46	135.32	10.28	-52.9	-57.3	3.7	0.00e+00	0	51	104	0	76	25306
2026-01-06 20:14:36.75	135.57	10.19	-52.8	-57.3	3.7	0.00e+00	0	51	104	0	76	25261
2026-01-06 20:14:37.47	135.71	10.14	-52.8	-57.3	3.7	0.00e+00	0	51	104	0	76	25208
2026-01-06 20:14:38.76	135.96	10.04	-52.8	-57.3	3.7	0.00e+00	0	50	104	0	76	25249
2026-01-06 20:14:39.47	136.10	9.99	-52.7	-57.2	3.7	0.00e+00	0	51	104	0	76	25009
2026-01-06 20:14:40.76	136.34	9.89	-52.7	-57.2	3.7	0.00e+00	0	51	104	0	76	25058
2026-01-06 20:14:41.48	136.48	9.84	-52.6	-57.1	3.7	0.00e+00	0	51	104	0	76	24750
2026-01-06 20:14:42.77	136.72	9.75	-52.9	-57.4	3.7	0.00e+00	0	51	104	0	76	25545
2026-01-06 20:14:43.55	136.87	9.69	-52.8	-57.3	3.7	0.00e+00	0	51	104	0	76	25265
2026-01-06 20:14:44.84	137.11	9.59	-52.7	-57.2	3.6	0.00e+00	0	51	104	0	76	24978
2026-01-06 20:14:45.59	137.25	9.54	-52.7	-57.2	3.7	0.00e+00	0	51	104	0	76	24861
2026-01-06 20:14:47.18	137.54	9.42	-52.9	-57.4	3.7	0.00e+00	0	51	104	0	76	25444
2026-01-06 20:14:47.76	137.64	9.38	-52.6	-57.1	3.7	0.00e+00	0	51	104	0	76	24693
2026-01-06 20:14:49.35	137.93	9.26	-52.7	-57.1	3.7	0.00e+00	0	51	104	0	76	24668
2026-01-06 20:14:50.07	138.06	9.21	-52.4	-56.9	3.7	0.00e+00	0	51	104	0	76	24097
2026-01-06 20:14:51.35	138.29	9.12	-52.5	-57.1	3.7	0.00e+00	0	51	104	0	76	24617
2026-01-06 20:14:52.07	138.42	9.07	-52.5	-57.1	3.7	0.00e+00	0	51	104	0	76	24547
2026-01-06 20:14:53.36	138.65	8.97	-52.9	-57.4	3.7	0.00e+00	0	51	104	0	76	25548
2026-01-06 20:14:54.08	138.77	8.92	-53.0	-57.4	3.7	0.00e+00	0	51	104	0	76	25624
2026-01-06 20:14:55.37	139.00	8.83	-52.9	-57.0	3.7	0.00e+00	0	51	104	0	76	24443
2026-01-06 20:14:56.09	139.12	8.77	-53.2	-57.5	3.7	0.00e+00	0	51	104	0	77	24470
2026-01-06 20:14:57.38	139.34	8.68	-53.4	-57.8	3.7	0.00e+00	0	51	104	0	77	25189
2026-01-06 20:14:58.10	139.47	8.63	-52.8	-57.7	3.7	0.00e+00	0	51	104	0	77	24957
2026-01-06 20:14:59.39	139.69	8.53	-53.6	-58.0	3.7	0.00e+00	0	50	104	0	77	25927
2026-01-06 20:15:00.11	139.81	8.48	-53.5	-57.8	3.7	0.00e+00	0	51	104	0	77	25194
2026-01-06 20:15:01.40	140.03	8.39	-53.5	-57.8	3.7	0.00e+00	0	51	104	0	77	25353
2026-01-06 20:15:02.12	140.15	8.34	-53.5	-58.0	3.7	0.00e+00	0	51	104	0	77	25715
2026-01-06 20:15:03.41	140.36	8.25	-53.2	-57.7	3.7	0.00e+00	0	51	104	0	77	25023
2026-01-06 20:15:04.12	140.48	8.19	-53.7	-58.1	3.7	0.00e+00	0	51	104	0	78	24774
2026-01-06 20:15:05.56	140.71	8.09	-53.3	-57.4	3.7	0.00e+00	0	51	104	0	78	22655
2026-01-06 20:15:06.27	140.83	8.04	-52.7	-57.3	3.7	0.00e+00	0	51	104	0	77	23951
2026-01-06 20:15:07.64	141.05	7.94	-53.5	-58.0	3.7	0.00e+00	0	51	104	0	78	24515
2026-01-06 20:15:08.36	141.17	7.89	-53.2	-57.7	3.7	0.00e+00	0	51	104	0	78	23476
2026-01-06 20:15:09.71	141.38	7.79	-53.4	-57.9	3.7	0.00e+00	0	51	104	0	78	24122
2026-01-06 20:15:10.43	141.50	7.74	-53.3	-57.7	3.7	0.00e+00	0	51	104	0	77	24892
2026-01-06 20:15:11.79	141.71	7.65	-52.2	-56.8	3.7	0.00e+00	0	51	104	0	76	23840
2026-01-06 20:15:12.50	141.83	7.60	-52.6	-57.2	3.7	0.00e+00	0	51	104	0	76	25046
2026-01-06 20:15:13.86	142.04	7.50	-52.6	-57.3	3.7	0.00e+00	0	51	104	0	76	25207
2026-01-06 20:15:14.58	142.15	7.45	-52.6	-57.3	3.7	0.00e+00	0	51	104	0	76	25257
2026-01-06 20:15:15.87	142.35	7.36	-52.6	-57.3	3.7	0.00e+00	0	51	104	0	76	25233
2026-01-06 20:15:16.58	142.46	7.31	-52.5	-57.3	3.7	0.00e+00	0	51	104	0	76	25122
2026-01-06 20:15:17.87	142.65	7.22	-52.5	-57.2	3.7	0.00e+00	0	51	104	0	76	25092
2026-01-06 20:15:18.59	142.76	7.17	-52.5	-57.3	3.7	0.00e+00	0	51	104	0	76	25212
2026-01-06 20:15:19.89	142.96	7.08	-52.6	-57.3	3.7	0.00e+00	0	51	104	0	76	25124
2026-01-06 20:15:20.60	143.06	7.03	-52.5	-57.2	3.7	0.00e+00	0	51	104	0	76	25019
2026-01-06 20:15:21.89	143.26	6.94	-52.5	-57.2	3.7	0.00e+00	0	51	104	0	76	25057
2026-01-06 20:15:22.61	143.36	6.89	-52.5	-57.3	3.7	0.00e+00	0	51	104	0	76	25140
2026-01-06 20:15:23.90	143.55	6.80	-52.5	-57.3	3.7	0.00e+00	0	51	104	0	76	25127
2026-01-06 20:15:24.62	143.66	6.75	-52.5	-57.3	3.7	0.00e+00	0	51	104	0	76	25220
2026-01-06 20:15:25.91	143.85	6.66	-52.5	-57.2	3.7	0.00e+00	0	51	104	0	76	25093
2026-01-06 20:15:26.63	143.95	6.61	-52.5	-57.3	3.7	0.00e+00	0	51	104	0	76	25203
2026-01-06 20:15:27.92	144.14	6.52	-52.5	-57.3	3.7	0.00e+00	0	51	104	0	76	25111
2026-01-06 20:15:28.64	144.24	6.47	-52.5	-57.2	3.7	0.00e+00	0	51	104	0	76	25038
2026-01-06 20:15:29.93	144.42	6.38	-52.5	-57.2	3.7	0.00e+00	0	51	104	0	76	25092
2026-01-06 20:15:30.65	144.52	6.33	-52.5	-57.2	3.7	0.00e+00	0	51	104	0	76	25041
2026-01-06 20:15:31.94	144.70	6.24	-52.5	-57.2	3.7	0.00e+00	0	51	104	0	76	24976
2026-01-06 20:15:32.65	144.80	6.19	-52.5	-57.2	3.7	0.00e+00	0	51	104	0	76	25063
2026-01-06 20:15:33.95	144.98	6.11	-52.5	-57.3	3.7	0.00e+00	0	51	104	0	76	25174
2026-01-06 20:15:34.66	145.08	6.06	-52.5	-57.3	3.7	0.00e+00	0	51	104	0	76	25132
2026-01-06 20:15:35.95	145.26	5.97	-52.5	-57.3	3.7	0.00e+00	0	51	104	0	76	25117
2026-01-06 20:15:36.67	145.36	5.92	-52.5	-57.2	3.7	0.00e+00	0	51	104	0	76	24967
2026-01-06 20:15:37.97	145.53	5.83	-52.5	-57.2	3.7	0.00e+00	0	51	104	0	76	25033
2026-01-06 20:15:38.68	145.63	5.78	-52.5	-57.3	3.7	0.00e+00	0	51	104	0	76	25128
2026-01-06 20:15:39.97	145.80	5.70	-52.5	-57.3	3.7	0.00e+00	0	51	104	0	76	25162
2026-01-06 20:15:40.69	145.90	5.65	-52.5	-57.3	3.7	0.00e+00	0	51	104	0	76	25110
2026-01-06 20:15:41.98	146.07	5.56	-52.5	-57.3	3.7	0.00e+00	0	51	104	0	76	25113
2026-01-06 20:15:42.69	146.16	5.51	-52.5	-57.2	3.7	0.00e+00	0	51	104	0	76	25060
2026-01-06 20:15:43.98	146.33	5.43	-52.5	-57.2	3.7	0.00e+00	0	51	104	0	76	25085
2026-01-06 20:15:44.70	146.42	5.38	-52.5	-57.2	3.7	0.00e+00	0	51	104	0	76	25087
2026-01-06 20:15:45.99	146.59	5.29	-52.5	-57.2	3.7	0.00e+00	0	51	104	0	76	25069
2026-01-06 20:15:46.71	146.68	5.24	-52.5	-57.2	3.7	0.00e+00	0	51	104	0	76	25077
2026-01-06 20:15:48.00	146.85	5.16	-52.5	-57.2	3.7	0.00e+00	0	51	104	0	76	24972
2026-01-06 20:15:48.71	146.94	5.11	-52.5	-57.3	3.6	0.00e+00	0	51	104	0	76	25114
2026-01-06 20:15:50.00	147.10	5.03	-52.5	-57.2	3.7	0.00e+00	0	51	104	0	76	25090
2026-01-06 20:15:50.72	147.19	4.98	-52.5	-57.2	3.7	0.00e+00	0	51	104	0	76	24976

#Closed at: 2026-01-06 20:15:52
#Recorded file [0 MB]: D:/Data/31040_260106_230815.dat