passes_logs/2026/01/06/T1/T1__20260106_082559_NOAA_21_JPSS-2_rec.log

#Pass ID: 20260106_082559_NOAA 21 (JPSS-2)
#Satellite: NOAA 21 (JPSS-2)
#Configuration: NOAA 21
#almurnet v.1.7.20251203
#Start time: 2026-01-06 08:25:59

#Version: 2.0.20230620
#Station: T1
#Location: 37.570604 lon 55.790049 lat
#TLE: 1 54234U 22150A   26005.21525222  .00000150  00000+0  91957-4 0  9992
#TLE: 2 54234  98.7490 306.2339 0001053 341.6032  18.5106 14.19532220163427

#Time	Az	El	Level	Level2	SNR	BER	BlckErr	Temp	State	Recorded	gain1	gain2
2026-01-06 08:25:59.16	113.05	5.00	-52.2	-65.2	3.8	1.49e+00	0	40	0	0	76	15753
2026-01-06 08:26:00.16	112.98	5.06	-52.2	-65.2	3.8	1.49e+00	0	40	104	0	76	15734
2026-01-06 08:26:01.16	112.90	5.12	-52.2	-65.3	3.8	1.49e+00	0	40	104	0	76	15775
2026-01-06 08:26:02.16	112.82	5.19	-52.2	-65.2	3.8	1.49e+00	0	40	104	0	76	15730
2026-01-06 08:26:03.16	112.75	5.25	-52.2	-65.3	3.8	1.49e+00	0	40	104	0	76	15785
2026-01-06 08:26:04.16	112.67	5.31	-52.2	-65.3	3.8	1.49e+00	0	40	104	0	76	15775
2026-01-06 08:26:05.16	112.59	5.38	-52.2	-65.3	3.8	1.49e+00	0	40	104	0	76	15820
2026-01-06 08:26:06.16	112.52	5.44	-52.2	-65.2	3.8	1.49e+00	0	40	104	0	76	15734
2026-01-06 08:26:07.16	112.44	5.50	-52.2	-65.2	3.8	1.49e+00	0	40	104	0	76	15699
2026-01-06 08:26:08.16	112.36	5.56	-52.2	-65.2	3.8	1.49e+00	0	40	104	0	76	15702
2026-01-06 08:26:09.16	112.28	5.63	-52.2	-65.2	3.8	1.49e+00	0	40	104	0	76	15707
2026-01-06 08:26:10.17	112.20	5.69	-52.2	-65.2	3.8	1.49e+00	0	40	104	0	76	15651
2026-01-06 08:26:11.17	112.12	5.76	-52.2	-65.1	3.8	1.49e+00	0	40	104	0	76	15571
2026-01-06 08:26:12.17	112.05	5.82	-52.2	-65.1	3.8	1.49e+00	0	40	104	0	76	15580
2026-01-06 08:26:13.17	111.97	5.88	-52.2	-65.2	3.8	1.49e+00	0	40	104	0	76	15662
2026-01-06 08:26:14.18	111.88	5.95	-52.2	-65.1	3.8	1.49e+00	0	40	104	0	76	15577
2026-01-06 08:26:15.18	111.80	6.01	-52.2	-65.2	3.8	1.49e+00	0	40	104	0	76	15598
2026-01-06 08:26:16.18	111.72	6.08	-52.2	-65.1	3.8	1.49e+00	0	40	104	0	76	15526
2026-01-06 08:26:17.18	111.64	6.14	-52.2	-65.1	3.8	1.49e+00	0	40	104	0	76	15510
2026-01-06 08:26:18.18	111.56	6.20	-52.2	-65.1	3.8	1.49e+00	0	40	104	0	76	15490
2026-01-06 08:26:19.18	111.48	6.27	-52.2	-65.1	3.8	1.49e+00	0	40	104	0	76	15536
2026-01-06 08:26:20.19	111.40	6.33	-52.2	-65.1	3.8	1.49e+00	0	40	104	0	76	15484
2026-01-06 08:26:21.19	111.31	6.40	-52.2	-65.1	3.8	1.49e+00	0	40	104	0	76	15512
2026-01-06 08:26:22.19	111.23	6.46	-52.2	-65.2	3.8	1.49e+00	0	41	104	0	76	15632
2026-01-06 08:26:23.19	111.15	6.53	-52.2	-65.2	3.8	1.49e+00	0	40	104	0	76	15613
2026-01-06 08:26:24.19	111.06	6.59	-52.2	-65.2	3.8	1.49e+00	0	41	104	0	76	15703
2026-01-06 08:26:25.19	110.98	6.66	-52.2	-65.2	3.8	1.49e+00	0	41	104	0	76	15659
2026-01-06 08:26:26.20	110.89	6.72	-52.2	-65.1	3.8	1.49e+00	0	41	104	0	76	15519
2026-01-06 08:26:27.19	110.81	6.79	-52.1	-65.0	3.8	1.49e+00	0	41	104	0	76	15377
2026-01-06 08:26:28.20	110.72	6.85	-52.1	-64.9	3.8	1.49e+00	0	41	104	0	76	15222
2026-01-06 08:26:29.20	110.64	6.92	-52.1	-64.9	3.8	1.49e+00	0	41	104	0	76	15094
2026-01-06 08:26:30.20	110.55	6.98	-52.1	-64.8	3.8	1.49e+00	0	41	104	0	76	14960
2026-01-06 08:26:31.20	110.46	7.05	-52.1	-64.8	3.8	1.49e+00	0	41	104	0	76	14919
2026-01-06 08:26:32.21	110.38	7.12	-52.1	-64.8	3.8	1.49e+00	0	41	104	0	76	14981
2026-01-06 08:26:33.21	110.29	7.18	-52.1	-64.8	3.8	1.49e+00	0	41	104	0	76	15016
2026-01-06 08:26:34.21	110.20	7.25	-52.1	-64.8	3.8	1.49e+00	0	41	104	0	76	15022
2026-01-06 08:26:35.22	110.11	7.31	-52.1	-64.8	3.8	1.49e+00	0	41	104	0	76	15047
2026-01-06 08:26:36.22	110.02	7.38	-52.1	-64.8	3.8	1.49e+00	0	41	104	0	76	14934
2026-01-06 08:26:37.22	109.93	7.45	-52.1	-64.5	3.8	1.49e+00	0	41	104	0	76	14532
2026-01-06 08:26:38.23	109.84	7.51	-52.0	-64.2	3.8	1.49e+00	0	41	104	0	76	14015
2026-01-06 08:26:39.23	109.75	7.58	-52.0	-63.9	3.8	1.49e+00	0	41	104	0	76	13466
2026-01-06 08:26:40.23	109.66	7.65	-51.9	-63.6	3.8	1.49e+00	0	41	104	0	75	13834
2026-01-06 08:26:41.24	109.57	7.71	-51.9	-63.5	3.8	1.49e+00	0	41	104	0	75	13694
2026-01-06 08:26:42.24	109.48	7.78	-51.9	-63.5	3.8	1.49e+00	0	41	104	0	75	13687
2026-01-06 08:26:43.24	109.39	7.85	-51.9	-63.1	3.9	1.49e+00	0	41	104	0	75	13035
2026-01-06 08:26:44.24	109.30	7.91	-51.6	-60.9	4.4	1.46e+00	0	41	104	0	75	10136
2026-01-06 08:26:45.24	109.20	7.98	-51.1	-58.1	5.8	6.10e-01	0	41	0	0	74	7773
2026-01-06 08:26:46.25	109.11	8.05	-50.1	-55.4	8.3	1.05e-01	0	41	0	0	72	6390
2026-01-06 08:26:47.25	109.02	8.12	-49.1	-53.2	10.6	7.23e-03	0	41	0	0	70	5543
2026-01-06 08:26:48.25	108.92	8.18	-47.8	-50.9	12.8	1.58e-04	0	41	0	0	67	5089
2026-01-06 08:26:49.26	108.83	8.25	-46.7	-49.4	14.3	0.00e+00	0	41	0	0	65	4797
2026-01-06 08:26:50.26	108.73	8.32	-45.8	-48.2	15.5	0.00e+00	0	41	0	0	63	4698
2026-01-06 08:26:51.26	108.64	8.39	-45.4	-47.7	16.0	0.00e+00	0	41	0	0	62	4694
2026-01-06 08:26:52.27	108.54	8.46	-45.1	-47.3	16.5	0.00e+00	0	41	0	0	62	4456
2026-01-06 08:26:53.27	108.45	8.52	-45.0	-47.2	16.6	0.00e+00	0	41	0	0	62	4419
2026-01-06 08:26:54.27	108.35	8.59	-45.2	-47.4	16.3	0.00e+00	0	41	0	0	62	4539
2026-01-06 08:26:55.27	108.25	8.66	-45.7	-48.0	15.8	0.00e+00	0	41	0	0	62	4863
2026-01-06 08:26:56.27	108.15	8.73	-46.5	-49.1	14.7	0.00e+00	0	41	0	0	63	5185
2026-01-06 08:26:57.27	108.06	8.80	-47.4	-50.4	13.3	1.50e-06	0	41	0	0	65	5398
2026-01-06 08:26:58.27	107.96	8.87	-48.4	-52.1	11.6	2.62e-04	0	41	0	0	67	5797
2026-01-06 08:26:59.28	107.86	8.93	-49.8	-54.5	9.3	9.20e-03	0	41	0	0	70	6485
2026-01-06 08:27:00.28	107.76	9.00	-50.7	-56.9	6.9	1.21e-01	0	42	0	0	72	7578
2026-01-06 08:27:01.28	107.66	9.07	-51.2	-58.8	5.4	5.22e-01	0	42	0	0	73	8891
2026-01-06 08:27:02.29	107.56	9.14	-51.1	-58.2	5.9	2.65e-01	0	41	0	0	73	8291
2026-01-06 08:27:03.28	107.46	9.21	-51.2	-58.6	5.5	4.71e-01	0	41	0	0	73	8726
2026-01-06 08:27:04.29	107.36	9.28	-51.2	-60.5	4.5	1.48e+00	0	42	104	0	74	10219
2026-01-06 08:27:05.29	107.25	9.35	-48.9	-52.7	11.3	1.61e-04	0	42	0	0	68	5921
2026-01-06 08:27:06.29	107.15	9.42	-51.8	-62.9	3.9	1.49e+00	0	41	104	0	74	13480
2026-01-06 08:27:07.29	107.05	9.49	-47.8	-51.0	12.9	9.73e-04	0	41	0	0	67	5116
2026-01-06 08:27:08.30	106.95	9.56	-47.3	-50.5	13.3	7.24e-05	0	42	0	0	66	5152
2026-01-06 08:27:09.30	106.84	9.63	-46.6	-49.3	14.5	3.00e-06	0	42	0	0	65	4743
2026-01-06 08:27:10.30	106.74	9.70	-46.0	-48.6	15.3	0.00e+00	0	42	0	0	63	4893
2026-01-06 08:27:11.30	106.63	9.77	-45.7	-48.1	15.7	0.00e+00	0	42	0	0	63	4648
2026-01-06 08:27:12.29	106.53	9.84	-45.2	-47.4	16.4	0.00e+00	0	41	0	0	62	4516
2026-01-06 08:27:13.30	106.42	9.91	-44.7	-46.9	16.9	0.00e+00	0	41	0	0	61	4517
2026-01-06 08:27:14.30	106.32	9.98	-44.4	-46.5	17.3	0.00e+00	0	42	0	0	60	4548
2026-01-06 08:27:15.30	106.21	10.05	-44.2	-46.2	17.6	0.00e+00	0	42	0	0	60	4410
2026-01-06 08:27:16.29	106.10	10.12	-44.3	-46.3	17.5	0.00e+00	0	42	0	0	60	4453
2026-01-06 08:27:17.30	105.99	10.19	-44.3	-46.3	17.5	0.00e+00	0	42	0	0	60	4478
2026-01-06 08:27:18.29	105.89	10.26	-44.2	-46.2	17.6	0.00e+00	0	42	0	0	60	4434
2026-01-06 08:27:19.30	105.78	10.33	-44.2	-46.1	17.7	0.00e+00	0	42	0	0	60	4385
2026-01-06 08:27:20.30	105.67	10.40	-44.2	-46.2	17.6	0.00e+00	0	42	0	0	60	4395
2026-01-06 08:27:21.30	105.56	10.47	-44.2	-46.1	17.6	0.00e+00	0	42	0	0	60	4386
2026-01-06 08:27:22.30	105.45	10.54	-44.1	-46.0	17.8	0.00e+00	0	42	0	0	60	4326
2026-01-06 08:27:23.30	105.33	10.61	-44.1	-46.1	17.7	0.00e+00	0	42	0	0	60	4349
2026-01-06 08:27:24.30	105.22	10.68	-44.2	-46.2	17.6	0.00e+00	0	42	0	0	60	4400
2026-01-06 08:27:25.30	105.11	10.76	-44.2	-46.2	17.6	0.00e+00	0	42	0	0	60	4421
2026-01-06 08:27:26.31	105.00	10.83	-44.2	-46.2	17.6	0.00e+00	0	42	0	0	60	4412
2026-01-06 08:27:27.30	104.88	10.90	-44.2	-46.2	17.7	0.00e+00	0	42	0	0	60	4409
2026-01-06 08:27:28.30	104.77	10.97	-44.1	-46.1	17.7	0.00e+00	0	42	0	0	60	4367
2026-01-06 08:27:29.31	104.66	11.04	-44.1	-46.1	17.8	0.00e+00	0	42	0	0	60	4350
2026-01-06 08:27:30.30	104.54	11.11	-44.0	-45.9	17.9	0.00e+00	0	42	0	0	60	4291
2026-01-06 08:27:31.31	104.42	11.19	-44.0	-45.9	17.8	0.00e+00	0	42	0	0	59	4531
2026-01-06 08:27:32.31	104.31	11.26	-44.0	-46.0	17.8	0.00e+00	0	42	0	0	59	4551
2026-01-06 08:27:33.31	104.19	11.33	-43.9	-45.8	18.0	0.00e+00	0	42	0	0	59	4469
2026-01-06 08:27:34.31	104.07	11.40	-43.9	-45.9	17.9	0.00e+00	0	42	0	0	59	4508
2026-01-06 08:27:35.31	103.96	11.47	-43.8	-45.7	18.1	0.00e+00	0	42	0	0	59	4425
2026-01-06 08:27:36.31	103.84	11.55	-43.8	-45.7	18.1	0.00e+00	0	42	0	0	59	4399
2026-01-06 08:27:37.31	103.72	11.62	-43.7	-45.6	18.2	0.00e+00	0	42	0	0	59	4374
2026-01-06 08:27:38.31	103.60	11.69	-43.7	-45.6	18.1	0.00e+00	0	42	0	0	59	4366
2026-01-06 08:27:39.31	103.48	11.76	-43.7	-45.6	18.1	0.00e+00	0	42	0	0	59	4365
2026-01-06 08:27:40.31	103.36	11.84	-43.7	-45.6	18.1	0.00e+00	0	42	0	0	59	4372
2026-01-06 08:27:41.31	103.24	11.91	-43.7	-45.6	18.1	0.00e+00	0	42	0	0	59	4386
2026-01-06 08:27:42.31	103.11	11.98	-43.8	-45.7	18.0	0.00e+00	0	42	0	0	59	4411
2026-01-06 08:27:43.31	102.99	12.06	-43.7	-45.6	18.1	0.00e+00	0	42	0	0	59	4390
2026-01-06 08:27:44.32	102.87	12.13	-43.8	-45.7	18.1	0.00e+00	0	42	0	0	59	4401
2026-01-06 08:27:45.32	102.74	12.20	-43.8	-45.8	18.0	0.00e+00	0	42	0	0	59	4445
2026-01-06 08:27:46.32	102.62	12.28	-43.8	-45.7	18.1	0.00e+00	0	42	0	0	59	4426
2026-01-06 08:27:47.32	102.49	12.35	-43.9	-45.8	18.0	0.00e+00	0	42	0	0	59	4481
2026-01-06 08:27:48.32	102.37	12.42	-43.8	-45.6	18.1	0.00e+00	0	42	0	0	59	4389
2026-01-06 08:27:49.32	102.24	12.50	-43.7	-45.6	18.2	0.00e+00	0	42	0	0	59	4364
2026-01-06 08:27:50.33	102.11	12.57	-43.7	-45.6	18.2	0.00e+00	0	42	0	0	59	4373
2026-01-06 08:27:51.32	101.98	12.64	-43.7	-45.6	18.2	0.00e+00	0	42	0	0	59	4359
2026-01-06 08:27:52.33	101.86	12.72	-43.7	-45.6	18.2	0.00e+00	0	42	0	0	59	4372
2026-01-06 08:27:53.33	101.73	12.79	-43.7	-45.5	18.2	0.00e+00	0	42	0	0	59	4330
2026-01-06 08:27:54.32	101.60	12.87	-43.6	-45.5	18.3	0.00e+00	0	42	0	0	59	4299
2026-01-06 08:27:55.33	101.47	12.94	-43.5	-45.4	18.3	0.00e+00	0	42	0	0	59	4269
2026-01-06 08:27:56.33	101.33	13.01	-43.5	-45.4	18.4	0.00e+00	0	42	0	0	58	4501
2026-01-06 08:27:57.33	101.20	13.09	-43.7	-45.6	18.2	0.00e+00	0	42	0	0	58	4614
2026-01-06 08:27:58.33	101.07	13.16	-43.6	-45.4	18.3	0.00e+00	0	42	0	0	58	4532
2026-01-06 08:27:59.33	100.94	13.24	-43.5	-45.3	18.4	0.00e+00	0	42	0	0	58	4478
2026-01-06 08:28:00.33	100.80	13.31	-43.5	-45.4	18.4	0.00e+00	0	42	0	0	58	4504
2026-01-06 08:28:01.33	100.67	13.39	-43.5	-45.4	18.4	0.00e+00	0	42	0	0	58	4502
2026-01-06 08:28:02.33	100.53	13.46	-43.5	-45.4	18.4	0.00e+00	0	42	0	0	58	4513
2026-01-06 08:28:03.33	100.40	13.53	-43.6	-45.4	18.3	0.00e+00	0	42	0	0	58	4544
2026-01-06 08:28:04.33	100.26	13.61	-43.5	-45.3	18.5	0.00e+00	0	42	0	0	58	4460
2026-01-06 08:28:05.33	100.12	13.68	-43.5	-45.4	18.4	0.00e+00	0	42	0	0	58	4500
2026-01-06 08:28:06.34	99.98	13.76	-43.5	-45.3	18.5	0.00e+00	0	42	0	0	58	4477
2026-01-06 08:28:07.34	99.85	13.83	-43.5	-45.3	18.5	0.00e+00	0	42	0	0	58	4471
2026-01-06 08:28:08.34	99.71	13.91	-43.5	-45.4	18.4	0.00e+00	0	42	0	0	58	4509
2026-01-06 08:28:09.34	99.57	13.98	-43.6	-45.4	18.3	0.00e+00	0	42	0	0	58	4539
2026-01-06 08:28:10.34	99.42	14.06	-43.5	-45.3	18.4	0.00e+00	0	42	0	0	58	4471
2026-01-06 08:28:11.34	99.28	14.13	-43.6	-45.5	18.3	0.00e+00	0	42	0	0	58	4556
2026-01-06 08:28:12.34	99.14	14.21	-43.5	-45.4	18.4	0.00e+00	0	42	0	0	58	4511
2026-01-06 08:28:13.34	99.00	14.28	-43.6	-45.5	18.3	0.00e+00	0	42	0	0	58	4560
2026-01-06 08:28:14.34	98.85	14.36	-43.6	-45.5	18.3	0.00e+00	0	42	0	0	58	4580
2026-01-06 08:28:15.34	98.71	14.43	-43.6	-45.5	18.3	0.00e+00	0	42	0	0	58	4577
2026-01-06 08:28:16.35	98.56	14.51	-43.8	-45.7	18.1	0.00e+00	0	42	0	0	58	4659
2026-01-06 08:28:17.35	98.42	14.59	-43.7	-45.6	18.3	0.00e+00	0	42	0	0	58	4601
2026-01-06 08:28:18.35	98.27	14.66	-43.7	-45.6	18.2	0.00e+00	0	42	0	0	58	4627
2026-01-06 08:28:19.35	98.12	14.74	-43.8	-45.7	18.1	0.00e+00	0	42	0	0	58	4678
2026-01-06 08:28:20.35	97.97	14.81	-43.7	-45.6	18.2	0.00e+00	0	42	0	0	58	4627
2026-01-06 08:28:21.35	97.82	14.89	-43.7	-45.6	18.2	0.00e+00	0	42	0	0	58	4616
2026-01-06 08:28:22.35	97.68	14.96	-43.7	-45.6	18.2	0.00e+00	0	42	0	0	58	4614
2026-01-06 08:28:23.35	97.52	15.04	-43.8	-45.7	18.2	0.00e+00	0	42	0	0	58	4652
2026-01-06 08:28:24.35	97.37	15.11	-43.7	-45.6	18.2	0.00e+00	0	42	0	0	58	4632
2026-01-06 08:28:25.35	97.22	15.19	-43.8	-45.7	18.2	0.00e+00	0	42	0	0	58	4664
2026-01-06 08:28:26.35	97.07	15.27	-43.8	-45.7	18.2	0.00e+00	0	42	0	0	58	4668
2026-01-06 08:28:27.35	96.91	15.34	-43.9	-45.8	18.1	0.00e+00	0	42	0	0	58	4728
2026-01-06 08:28:28.35	96.76	15.42	-43.8	-45.7	18.2	0.00e+00	0	42	0	0	58	4670
2026-01-06 08:28:29.35	96.60	15.49	-43.8	-45.7	18.2	0.00e+00	0	42	0	0	58	4672
2026-01-06 08:28:30.35	96.45	15.57	-43.9	-45.7	18.1	0.00e+00	0	42	0	0	58	4700
2026-01-06 08:28:31.35	96.29	15.65	-43.8	-45.6	18.2	0.00e+00	0	42	0	0	58	4635
2026-01-06 08:28:32.35	96.13	15.72	-43.7	-45.6	18.3	0.00e+00	0	42	0	0	58	4621
2026-01-06 08:28:33.35	95.98	15.80	-43.6	-45.5	18.4	0.00e+00	0	42	0	0	58	4571
2026-01-06 08:28:34.35	95.82	15.87	-43.7	-45.6	18.2	0.00e+00	0	42	0	0	58	4608
2026-01-06 08:28:35.36	95.65	15.95	-43.8	-45.7	18.1	0.00e+00	0	42	0	0	58	4696
2026-01-06 08:28:36.36	95.49	16.03	-43.7	-45.6	18.3	0.00e+00	0	42	0	0	58	4618
2026-01-06 08:28:37.36	95.33	16.10	-43.8	-45.7	18.1	0.00e+00	0	42	0	0	58	4678
2026-01-06 08:28:38.36	95.17	16.18	-43.8	-45.7	18.2	0.00e+00	0	42	0	0	58	4676
2026-01-06 08:28:39.36	95.01	16.25	-43.7	-45.6	18.3	0.00e+00	0	42	0	0	58	4616
2026-01-06 08:28:40.36	94.84	16.33	-43.7	-45.6	18.3	0.00e+00	0	42	0	0	58	4614
2026-01-06 08:28:41.37	94.67	16.41	-43.6	-45.4	18.4	0.00e+00	0	42	0	0	58	4539
2026-01-06 08:28:42.37	94.51	16.48	-43.4	-45.3	18.6	0.00e+00	0	42	0	0	58	4459
2026-01-06 08:28:43.37	94.34	16.56	-43.4	-45.3	18.6	0.00e+00	0	42	0	0	58	4443
2026-01-06 08:28:44.37	94.17	16.63	-43.5	-45.3	18.5	0.00e+00	0	42	0	0	58	4474
2026-01-06 08:28:45.37	94.01	16.71	-43.5	-45.3	18.5	0.00e+00	0	42	0	0	58	4481
2026-01-06 08:28:46.38	93.83	16.79	-43.4	-45.3	18.5	0.00e+00	0	42	0	0	58	4448
2026-01-06 08:28:47.38	93.66	16.86	-43.5	-45.4	18.4	0.00e+00	0	42	0	0	58	4503
2026-01-06 08:28:48.38	93.49	16.94	-43.4	-45.3	18.5	0.00e+00	0	42	0	0	58	4450
2026-01-06 08:28:49.38	93.32	17.01	-43.5	-45.3	18.5	0.00e+00	0	42	0	0	58	4478
2026-01-06 08:28:50.38	93.15	17.09	-43.4	-45.2	18.6	0.00e+00	0	43	0	0	58	4404
2026-01-06 08:28:51.37	92.98	17.16	-43.2	-45.0	18.8	0.00e+00	0	42	0	0	58	4329
2026-01-06 08:28:52.38	92.80	17.24	-43.2	-45.0	18.8	0.00e+00	0	42	0	0	58	4320
2026-01-06 08:28:53.38	92.62	17.32	-43.2	-45.0	18.8	0.00e+00	0	42	0	0	58	4325
2026-01-06 08:28:54.38	92.45	17.39	-43.2	-45.0	18.8	0.00e+00	0	42	0	0	58	4315
2026-01-06 08:28:55.38	92.27	17.47	-43.2	-45.0	18.8	0.00e+00	0	42	0	0	58	4326
2026-01-06 08:28:56.39	92.09	17.54	-43.3	-45.1	18.7	0.00e+00	0	42	0	0	58	4382
2026-01-06 08:28:57.38	91.91	17.62	-43.2	-45.0	18.8	0.00e+00	0	42	0	0	58	4325
2026-01-06 08:28:58.39	91.73	17.69	-43.2	-45.1	18.8	0.00e+00	0	42	0	0	58	4351
2026-01-06 08:28:59.38	91.55	17.77	-43.3	-45.1	18.7	0.00e+00	0	42	0	0	58	4389
2026-01-06 08:29:00.38	91.37	17.84	-43.4	-45.2	18.7	0.00e+00	0	42	0	0	58	4424
2026-01-06 08:29:01.38	91.19	17.92	-43.3	-45.2	18.7	0.00e+00	0	42	0	0	58	4401
2026-01-06 08:29:02.39	91.00	17.99	-43.2	-45.0	18.9	0.00e+00	0	42	0	0	58	4336
2026-01-06 08:29:03.38	90.82	18.07	-43.0	-44.8	19.0	0.00e+00	0	42	0	0	58	4223
2026-01-06 08:29:04.38	90.63	18.14	-43.0	-44.8	19.0	0.00e+00	0	42	0	0	58	4238
2026-01-06 08:29:05.38	90.45	18.22	-42.9	-44.7	19.1	0.00e+00	0	42	0	0	57	4417
2026-01-06 08:29:06.38	90.26	18.29	-42.8	-44.6	19.2	0.00e+00	0	42	0	0	57	4341
2026-01-06 08:29:07.38	90.07	18.37	-42.9	-44.6	19.2	0.00e+00	0	42	0	0	57	4389
2026-01-06 08:29:08.38	89.88	18.44	-42.9	-44.7	19.1	0.00e+00	0	42	0	0	57	4415
2026-01-06 08:29:09.39	89.69	18.52	-42.9	-44.7	19.1	0.00e+00	0	42	0	0	57	4436
2026-01-06 08:29:10.39	89.50	18.59	-43.0	-44.8	19.1	0.00e+00	0	42	0	0	57	4452
2026-01-06 08:29:11.39	89.31	18.67	-43.0	-44.8	19.0	0.00e+00	0	42	0	0	57	4484
2026-01-06 08:29:12.39	89.11	18.74	-43.0	-44.8	19.0	0.00e+00	0	42	0	0	57	4474
2026-01-06 08:29:13.39	88.92	18.81	-42.9	-44.8	19.1	0.00e+00	0	42	0	0	57	4446
2026-01-06 08:29:14.39	88.73	18.89	-43.0	-44.8	19.0	0.00e+00	0	42	0	0	57	4460
2026-01-06 08:29:15.39	88.53	18.96	-43.0	-44.8	18.9	0.00e+00	0	42	0	0	57	4471
2026-01-06 08:29:16.40	88.33	19.04	-43.1	-44.9	18.9	0.00e+00	0	42	0	0	57	4527
2026-01-06 08:29:17.40	88.13	19.11	-43.0	-44.8	18.9	0.00e+00	0	42	0	0	57	4491
2026-01-06 08:29:18.40	87.93	19.18	-43.1	-44.9	18.8	0.00e+00	0	42	0	0	57	4538
2026-01-06 08:29:19.40	87.73	19.26	-43.1	-45.0	18.8	0.00e+00	0	42	0	0	57	4554
2026-01-06 08:29:20.40	87.53	19.33	-43.1	-45.0	18.9	0.00e+00	0	42	0	0	57	4547
2026-01-06 08:29:21.40	87.33	19.40	-43.1	-45.0	18.9	0.00e+00	0	42	0	0	57	4560
2026-01-06 08:29:22.40	87.13	19.47	-43.1	-44.9	18.9	0.00e+00	0	42	0	0	57	4540
2026-01-06 08:29:23.40	86.93	19.55	-43.0	-44.9	18.9	0.00e+00	0	42	0	0	57	4508
2026-01-06 08:29:24.41	86.72	19.62	-43.1	-44.9	18.9	0.00e+00	0	42	0	0	57	4530
2026-01-06 08:29:25.40	86.52	19.69	-43.0	-44.9	18.9	0.00e+00	0	42	0	0	57	4510
2026-01-06 08:29:26.40	86.31	19.76	-43.1	-44.9	18.9	0.00e+00	0	42	0	0	57	4529
2026-01-06 08:29:27.40	86.10	19.84	-43.0	-44.9	18.9	0.00e+00	0	42	0	0	57	4499
2026-01-06 08:29:28.41	85.89	19.91	-43.0	-44.8	19.0	0.00e+00	0	42	0	0	57	4477
2026-01-06 08:29:29.41	85.68	19.98	-42.9	-44.7	19.1	0.00e+00	0	42	0	0	57	4439
2026-01-06 08:29:30.41	85.47	20.05	-42.9	-44.8	19.1	0.00e+00	0	42	0	0	57	4444
2026-01-06 08:29:31.41	85.26	20.12	-42.9	-44.7	19.1	0.00e+00	0	42	0	0	57	4414
2026-01-06 08:29:32.41	85.05	20.19	-42.9	-44.7	19.1	0.00e+00	0	42	0	0	57	4437
2026-01-06 08:29:33.41	84.83	20.26	-43.0	-44.8	19.0	0.00e+00	0	42	0	0	57	4478
2026-01-06 08:29:34.41	84.62	20.33	-43.0	-44.9	18.9	0.00e+00	0	42	0	0	57	4503
2026-01-06 08:29:35.41	84.40	20.40	-43.1	-45.0	18.8	0.00e+00	0	42	0	0	57	4548
2026-01-06 08:29:36.41	84.19	20.47	-43.0	-44.9	18.9	0.00e+00	0	42	0	0	57	4507
2026-01-06 08:29:37.41	83.97	20.54	-43.0	-44.8	19.0	0.00e+00	0	43	0	0	57	4475
2026-01-06 08:29:38.41	83.75	20.61	-42.9	-44.7	19.1	0.00e+00	0	42	0	0	57	4426
2026-01-06 08:29:39.41	83.53	20.68	-42.9	-44.7	19.1	0.00e+00	0	42	0	0	57	4409
2026-01-06 08:29:40.41	83.31	20.75	-42.8	-44.6	19.2	0.00e+00	0	42	0	0	57	4382
2026-01-06 08:29:41.41	83.09	20.82	-42.8	-44.6	19.2	0.00e+00	0	42	0	0	57	4380
2026-01-06 08:29:42.41	82.87	20.89	-42.9	-44.6	19.1	0.00e+00	0	42	0	0	57	4390
2026-01-06 08:29:43.41	82.65	20.96	-42.9	-44.7	19.1	0.00e+00	0	42	0	0	57	4401
2026-01-06 08:29:44.41	82.42	21.02	-42.9	-44.7	19.0	0.00e+00	0	42	0	0	57	4441
2026-01-06 08:29:45.41	82.20	21.09	-42.9	-44.7	19.1	0.00e+00	0	42	0	0	57	4407
2026-01-06 08:29:46.41	81.97	21.16	-42.9	-44.8	19.1	0.00e+00	0	43	0	0	57	4446
2026-01-06 08:29:47.41	81.74	21.23	-43.0	-44.8	19.0	0.00e+00	0	42	0	0	57	4461
2026-01-06 08:29:48.41	81.52	21.29	-42.9	-44.7	19.1	0.00e+00	0	43	0	0	57	4421
2026-01-06 08:29:49.41	81.29	21.36	-43.0	-44.8	19.1	0.00e+00	0	42	0	0	57	4456
2026-01-06 08:29:50.41	81.06	21.43	-43.0	-44.8	19.1	0.00e+00	0	42	0	0	57	4459
2026-01-06 08:29:51.42	80.82	21.49	-43.0	-44.8	19.1	0.00e+00	0	42	0	0	57	4452
2026-01-06 08:29:52.42	80.59	21.56	-43.0	-44.7	19.1	0.00e+00	0	43	0	0	57	4433
2026-01-06 08:29:53.42	80.36	21.62	-42.9	-44.6	19.2	0.00e+00	0	42	0	0	57	4373
2026-01-06 08:29:54.42	80.12	21.69	-42.9	-44.6	19.2	0.00e+00	0	42	0	0	57	4383
2026-01-06 08:29:55.42	79.89	21.75	-42.8	-44.6	19.3	0.00e+00	0	42	0	0	57	4345
2026-01-06 08:29:56.42	79.65	21.82	-42.6	-44.3	19.5	0.00e+00	0	42	0	0	57	4217
2026-01-06 08:29:57.42	79.42	21.88	-42.5	-44.2	19.6	0.00e+00	0	42	0	0	56	4415
2026-01-06 08:29:58.42	79.18	21.94	-42.6	-44.3	19.5	0.00e+00	0	42	0	0	56	4456
2026-01-06 08:29:59.42	78.94	22.01	-42.5	-44.2	19.5	0.00e+00	0	42	0	0	56	4435
2026-01-06 08:30:00.42	78.70	22.07	-42.6	-44.3	19.4	0.00e+00	0	42	0	0	56	4474
2026-01-06 08:30:01.42	78.46	22.13	-42.6	-44.4	19.4	0.00e+00	0	42	0	0	56	4503
2026-01-06 08:30:02.42	78.22	22.19	-42.7	-44.4	19.3	0.00e+00	0	43	0	0	56	4537
2026-01-06 08:30:03.42	77.97	22.25	-42.7	-44.4	19.4	0.00e+00	0	42	0	0	56	4533
2026-01-06 08:30:04.42	77.73	22.31	-42.7	-44.4	19.4	0.00e+00	0	42	0	0	56	4521
2026-01-06 08:30:05.43	77.48	22.38	-42.7	-44.4	19.3	0.00e+00	0	42	0	0	56	4535
2026-01-06 08:30:06.43	77.24	22.44	-42.7	-44.4	19.3	0.00e+00	0	42	0	0	56	4534
2026-01-06 08:30:07.43	76.99	22.50	-42.8	-44.6	19.1	0.00e+00	0	42	0	0	56	4603
2026-01-06 08:30:08.43	76.74	22.55	-42.9	-44.6	19.2	0.00e+00	0	43	0	0	56	4642
2026-01-06 08:30:09.43	76.49	22.61	-42.7	-44.4	19.4	0.00e+00	0	43	0	0	56	4537
2026-01-06 08:30:10.43	76.24	22.67	-42.7	-44.5	19.4	0.00e+00	0	43	0	0	56	4572
2026-01-06 08:30:11.43	75.99	22.73	-42.7	-44.4	19.4	0.00e+00	0	43	0	0	56	4521
2026-01-06 08:30:12.43	75.74	22.79	-42.7	-44.5	19.4	0.00e+00	0	42	0	0	56	4563
2026-01-06 08:30:13.43	75.49	22.84	-42.8	-44.5	19.3	0.00e+00	0	42	0	0	56	4587
2026-01-06 08:30:14.43	75.24	22.90	-42.8	-44.5	19.4	0.00e+00	0	43	0	0	56	4573
2026-01-06 08:30:15.42	74.98	22.96	-42.7	-44.4	19.5	0.00e+00	0	42	0	0	56	4543
2026-01-06 08:30:16.42	74.73	23.01	-42.6	-44.4	19.5	0.00e+00	0	42	0	0	56	4494
2026-01-06 08:30:17.43	74.47	23.07	-42.5	-44.2	19.6	0.00e+00	0	42	0	0	56	4415
2026-01-06 08:30:18.43	74.21	23.12	-42.5	-44.2	19.6	0.00e+00	0	43	0	0	56	4428
2026-01-06 08:30:19.43	73.96	23.18	-42.5	-44.2	19.6	0.00e+00	0	43	0	0	56	4421
2026-01-06 08:30:20.43	73.70	23.23	-42.5	-44.2	19.6	0.00e+00	0	43	0	0	56	4403
2026-01-06 08:30:21.43	73.44	23.28	-42.4	-44.1	19.7	0.00e+00	0	43	0	0	56	4354
2026-01-06 08:30:22.43	73.18	23.34	-42.5	-44.2	19.5	0.00e+00	0	42	0	0	56	4437
2026-01-06 08:30:23.44	72.91	23.39	-42.6	-44.3	19.5	0.00e+00	0	43	0	0	56	4467
2026-01-06 08:30:24.44	72.65	23.44	-42.8	-44.5	19.3	0.00e+00	0	42	0	0	56	4574
2026-01-06 08:30:25.44	72.39	23.49	-42.8	-44.5	19.3	0.00e+00	0	43	0	0	56	4593
2026-01-06 08:30:26.43	72.13	23.54	-42.9	-44.6	19.2	0.00e+00	0	42	0	0	56	4644
2026-01-06 08:30:27.43	71.86	23.59	-42.9	-44.6	19.2	0.00e+00	0	42	0	0	56	4651
2026-01-06 08:30:28.43	71.60	23.64	-42.9	-44.7	19.2	0.00e+00	0	43	0	0	56	4653
2026-01-06 08:30:29.44	71.33	23.69	-43.0	-44.7	19.1	0.00e+00	0	42	0	0	56	4699
2026-01-06 08:30:30.44	71.06	23.74	-42.9	-44.7	19.2	0.00e+00	0	42	0	0	56	4654
2026-01-06 08:30:31.44	70.79	23.78	-42.7	-44.5	19.4	0.00e+00	0	42	0	0	56	4558
2026-01-06 08:30:32.44	70.52	23.83	-42.7	-44.4	19.4	0.00e+00	0	42	0	0	56	4541
2026-01-06 08:30:33.44	70.25	23.88	-42.7	-44.4	19.4	0.00e+00	0	42	0	0	56	4532
2026-01-06 08:30:34.44	69.98	23.92	-42.7	-44.5	19.4	0.00e+00	0	42	0	0	56	4558
2026-01-06 08:30:35.44	69.71	23.97	-42.8	-44.6	19.3	0.00e+00	0	43	0	0	56	4604
2026-01-06 08:30:36.44	69.44	24.01	-42.8	-44.6	19.2	0.00e+00	0	42	0	0	56	4624
2026-01-06 08:30:37.44	69.17	24.06	-42.8	-44.6	19.3	0.00e+00	0	43	0	0	56	4614
2026-01-06 08:30:38.44	68.89	24.10	-42.7	-44.4	19.4	0.00e+00	0	43	0	0	56	4521
2026-01-06 08:30:39.44	68.62	24.14	-42.6	-44.4	19.5	0.00e+00	0	43	0	0	56	4505
2026-01-06 08:30:40.44	68.34	24.18	-42.6	-44.3	19.6	0.00e+00	0	43	0	0	56	4452
2026-01-06 08:30:41.44	68.07	24.23	-42.7	-44.4	19.5	0.00e+00	0	43	0	0	56	4515
2026-01-06 08:30:42.44	67.79	24.27	-42.6	-44.4	19.5	0.00e+00	0	42	0	0	56	4504
2026-01-06 08:30:43.44	67.51	24.31	-42.6	-44.3	19.6	0.00e+00	0	42	0	0	56	4454
2026-01-06 08:30:44.44	67.24	24.34	-42.6	-44.3	19.5	0.00e+00	0	43	0	0	56	4453
2026-01-06 08:30:45.45	66.96	24.38	-42.6	-44.4	19.4	0.00e+00	0	42	0	0	56	4508
2026-01-06 08:30:46.45	66.68	24.42	-42.6	-44.4	19.4	0.00e+00	0	43	0	0	56	4505
2026-01-06 08:30:47.45	66.40	24.46	-42.6	-44.3	19.4	0.00e+00	0	42	0	0	56	4491
2026-01-06 08:30:48.45	66.12	24.50	-42.8	-44.5	19.3	0.00e+00	0	43	0	0	56	4572
2026-01-06 08:30:49.45	65.83	24.53	-42.7	-44.5	19.3	0.00e+00	0	43	0	0	56	4568
2026-01-06 08:30:50.45	65.55	24.57	-42.8	-44.5	19.3	0.00e+00	0	42	0	0	56	4598
2026-01-06 08:30:51.45	65.27	24.60	-42.8	-44.6	19.3	0.00e+00	0	43	0	0	56	4604
2026-01-06 08:30:52.45	64.99	24.63	-42.8	-44.5	19.4	0.00e+00	0	43	0	0	56	4575
2026-01-06 08:30:53.45	64.70	24.67	-42.7	-44.4	19.4	0.00e+00	0	43	0	0	56	4545
2026-01-06 08:30:54.45	64.42	24.70	-42.7	-44.4	19.5	0.00e+00	0	43	0	0	56	4512
2026-01-06 08:30:55.46	64.13	24.73	-42.7	-44.4	19.5	0.00e+00	0	42	0	0	56	4521
2026-01-06 08:30:56.46	63.85	24.76	-42.7	-44.4	19.4	0.00e+00	0	43	0	0	56	4542
2026-01-06 08:30:57.46	63.56	24.79	-42.8	-44.5	19.4	0.00e+00	0	43	0	0	56	4577
2026-01-06 08:30:58.46	63.27	24.82	-42.8	-44.5	19.4	0.00e+00	0	43	0	0	56	4589
2026-01-06 08:30:59.46	62.99	24.85	-42.6	-44.4	19.5	0.00e+00	0	43	0	0	56	4494
2026-01-06 08:31:00.46	62.70	24.88	-42.4	-44.1	19.7	0.00e+00	0	43	0	0	56	4378
2026-01-06 08:31:01.46	62.41	24.90	-42.4	-44.1	19.7	0.00e+00	0	42	0	0	56	4381
2026-01-06 08:31:02.47	62.12	24.93	-42.3	-44.0	19.8	0.00e+00	0	43	0	0	56	4336
2026-01-06 08:31:03.46	61.83	24.96	-42.3	-44.0	19.8	0.00e+00	0	43	0	0	56	4317
2026-01-06 08:31:04.47	61.54	24.98	-42.3	-44.0	19.8	0.00e+00	0	43	0	0	56	4324
2026-01-06 08:31:05.47	61.25	25.01	-42.2	-43.9	20.0	0.00e+00	0	42	0	0	56	4262
2026-01-06 08:31:06.47	60.96	25.03	-42.1	-43.8	20.0	0.00e+00	0	42	0	0	56	4226
2026-01-06 08:31:07.47	60.67	25.05	-42.2	-43.9	19.9	0.00e+00	0	42	0	0	56	4275
2026-01-06 08:31:08.46	60.38	25.07	-42.3	-44.0	19.8	0.00e+00	0	43	0	0	56	4325
2026-01-06 08:31:09.46	60.09	25.09	-42.4	-44.1	19.7	0.00e+00	0	43	0	0	56	4383
2026-01-06 08:31:10.46	59.80	25.11	-42.5	-44.2	19.7	0.00e+00	0	42	0	0	56	4413
2026-01-06 08:31:11.46	59.51	25.13	-42.5	-44.2	19.7	0.00e+00	0	43	0	0	56	4414
2026-01-06 08:31:12.46	59.22	25.15	-42.6	-44.3	19.6	0.00e+00	0	43	0	0	56	4465
2026-01-06 08:31:13.46	58.92	25.17	-42.6	-44.3	19.6	0.00e+00	0	43	0	0	56	4474
2026-01-06 08:31:14.46	58.63	25.19	-42.6	-44.3	19.6	0.00e+00	0	43	0	0	56	4485
2026-01-06 08:31:15.46	58.34	25.20	-42.5	-44.2	19.7	0.00e+00	0	43	0	0	56	4406
2026-01-06 08:31:16.46	58.04	25.22	-42.3	-44.0	19.8	0.00e+00	0	43	0	0	56	4308
2026-01-06 08:31:17.46	57.75	25.23	-42.4	-44.1	19.7	0.00e+00	0	43	0	0	56	4342
2026-01-06 08:31:18.46	57.45	25.24	-42.4	-44.1	19.7	0.00e+00	0	43	0	0	56	4348
2026-01-06 08:31:19.46	57.16	25.26	-42.5	-44.1	19.6	0.00e+00	0	43	0	0	56	4389
2026-01-06 08:31:20.46	56.86	25.27	-42.5	-44.3	19.6	0.00e+00	0	43	0	0	56	4447
2026-01-06 08:31:21.46	56.57	25.28	-42.6	-44.3	19.5	0.00e+00	0	42	0	0	56	4476
2026-01-06 08:31:22.46	56.27	25.29	-42.6	-44.3	19.6	0.00e+00	0	43	0	0	56	4466
2026-01-06 08:31:23.45	55.98	25.30	-42.6	-44.4	19.5	0.00e+00	0	43	0	0	56	4495
2026-01-06 08:31:24.45	55.69	25.31	-42.6	-44.3	19.6	0.00e+00	0	42	0	0	56	4480
2026-01-06 08:31:25.45	55.39	25.32	-42.6	-44.4	19.5	0.00e+00	0	42	0	0	56	4499
2026-01-06 08:31:26.45	55.10	25.32	-42.6	-44.3	19.6	0.00e+00	0	43	0	0	56	4468
2026-01-06 08:31:27.45	54.80	25.33	-42.5	-44.2	19.6	0.00e+00	0	42	0	0	56	4421
2026-01-06 08:31:28.45	54.50	25.33	-42.5	-44.2	19.7	0.00e+00	0	43	0	0	56	4404
2026-01-06 08:31:29.46	54.20	25.34	-42.5	-44.2	19.7	0.00e+00	0	43	0	0	56	4424
2026-01-06 08:31:30.46	53.91	25.34	-42.4	-44.1	19.7	0.00e+00	0	43	0	0	56	4388
2026-01-06 08:31:31.46	53.61	25.35	-42.4	-44.2	19.7	0.00e+00	0	43	0	0	56	4403
2026-01-06 08:31:32.46	53.32	25.35	-42.6	-44.3	19.6	0.00e+00	0	42	0	0	56	4471
2026-01-06 08:31:33.46	53.02	25.35	-42.6	-44.3	19.5	0.00e+00	0	43	0	0	56	4482
2026-01-06 08:31:34.47	52.72	25.35	-42.7	-44.5	19.4	0.00e+00	0	43	0	0	56	4565
2026-01-06 08:31:35.47	52.42	25.35	-42.8	-44.5	19.4	0.00e+00	0	43	0	0	56	4592
2026-01-06 08:31:36.46	52.13	25.35	-42.7	-44.4	19.5	0.00e+00	0	43	0	0	56	4522
2026-01-06 08:31:37.46	51.83	25.34	-42.5	-44.2	19.6	0.00e+00	0	43	0	0	56	4429
2026-01-06 08:31:38.47	51.54	25.34	-42.6	-44.3	19.6	0.00e+00	0	43	0	0	56	4465
2026-01-06 08:31:39.47	51.24	25.34	-42.6	-44.3	19.5	0.00e+00	0	43	0	0	56	4471
2026-01-06 08:31:40.47	50.94	25.33	-42.5	-44.2	19.6	0.00e+00	0	43	0	0	56	4427
2026-01-06 08:31:41.47	50.65	25.33	-42.4	-44.1	19.7	0.00e+00	0	43	0	0	56	4383
2026-01-06 08:31:42.47	50.35	25.32	-42.5	-44.2	19.6	0.00e+00	0	43	0	0	56	4398
2026-01-06 08:31:43.47	50.06	25.31	-42.5	-44.3	19.6	0.00e+00	0	42	0	0	56	4447
2026-01-06 08:31:44.47	49.76	25.31	-42.5	-44.2	19.6	0.00e+00	0	42	0	0	56	4421
2026-01-06 08:31:45.47	49.47	25.30	-42.4	-44.1	19.8	0.00e+00	0	43	0	0	56	4382
2026-01-06 08:31:46.47	49.17	25.29	-42.5	-44.2	19.7	0.00e+00	0	43	0	0	56	4417
2026-01-06 08:31:47.47	48.88	25.28	-42.6	-44.3	19.6	0.00e+00	0	42	0	0	56	4463
2026-01-06 08:31:48.48	48.58	25.26	-42.6	-44.3	19.6	0.00e+00	0	43	0	0	56	4476
2026-01-06 08:31:49.47	48.29	25.25	-42.6	-44.3	19.6	0.00e+00	0	42	0	0	56	4477
2026-01-06 08:31:50.48	47.99	25.24	-42.6	-44.4	19.5	0.00e+00	0	42	0	0	56	4497
2026-01-06 08:31:51.48	47.70	25.23	-42.6	-44.3	19.6	0.00e+00	0	43	0	0	56	4455
2026-01-06 08:31:52.48	47.40	25.21	-42.4	-44.1	19.7	0.00e+00	0	42	0	0	56	4364
2026-01-06 08:31:53.48	47.11	25.20	-42.4	-44.1	19.7	0.00e+00	0	43	0	0	56	4387
2026-01-06 08:31:54.48	46.82	25.18	-42.5	-44.2	19.6	0.00e+00	0	42	0	0	56	4430
2026-01-06 08:31:55.47	46.53	25.16	-42.6	-44.4	19.5	0.00e+00	0	42	0	0	56	4503
2026-01-06 08:31:56.48	46.23	25.14	-42.8	-44.5	19.4	0.00e+00	0	43	0	0	56	4578
2026-01-06 08:31:57.48	45.94	25.13	-42.8	-44.6	19.3	0.00e+00	0	43	0	0	56	4628
2026-01-06 08:31:58.47	45.65	25.11	-42.8	-44.6	19.3	0.00e+00	0	43	0	0	56	4625
2026-01-06 08:31:59.47	45.36	25.09	-42.7	-44.5	19.4	0.00e+00	0	42	0	0	56	4566
2026-01-06 08:32:00.47	45.07	25.06	-42.8	-44.5	19.4	0.00e+00	0	42	0	0	56	4580
2026-01-06 08:32:01.47	44.78	25.04	-42.7	-44.4	19.5	0.00e+00	0	42	0	0	56	4527
2026-01-06 08:32:02.47	44.49	25.02	-42.5	-44.3	19.6	0.00e+00	0	43	0	0	56	4448
2026-01-06 08:32:03.47	44.20	25.00	-42.5	-44.2	19.6	0.00e+00	0	43	0	0	56	4420
2026-01-06 08:32:04.48	43.90	24.97	-42.5	-44.2	19.6	0.00e+00	0	43	0	0	56	4427
2026-01-06 08:32:05.48	43.62	24.95	-42.5	-44.3	19.6	0.00e+00	0	43	0	0	56	4449
2026-01-06 08:32:06.48	43.33	24.92	-42.7	-44.4	19.4	0.00e+00	0	43	0	0	56	4535
2026-01-06 08:32:07.48	43.04	24.90	-42.8	-44.5	19.4	0.00e+00	0	43	0	0	56	4576
2026-01-06 08:32:08.48	42.75	24.87	-42.8	-44.5	19.4	0.00e+00	0	43	0	0	56	4597
2026-01-06 08:32:09.48	42.47	24.84	-42.9	-44.7	19.2	0.00e+00	0	43	0	0	56	4675
2026-01-06 08:32:10.49	42.18	24.81	-43.0	-44.8	19.1	0.00e+00	0	43	0	0	56	4723
2026-01-06 08:32:11.49	41.89	24.78	-43.1	-44.9	18.9	0.00e+00	0	42	0	0	56	4779
2026-01-06 08:32:12.49	41.61	24.75	-43.1	-44.9	18.9	0.00e+00	0	43	0	0	57	4520
2026-01-06 08:32:13.49	41.32	24.72	-43.1	-44.9	18.9	0.00e+00	0	43	0	0	57	4532
2026-01-06 08:32:14.49	41.04	24.69	-43.0	-44.8	19.1	0.00e+00	0	43	0	0	57	4465
2026-01-06 08:32:15.49	40.75	24.66	-42.9	-44.7	19.1	0.00e+00	0	43	0	0	57	4417
2026-01-06 08:32:16.68	40.42	24.62	-42.7	-44.5	19.3	0.00e+00	0	43	0	0	57	4305
2026-01-06 08:32:17.54	40.17	24.59	-42.7	-44.4	19.4	0.00e+00	0	43	0	0	57	4283
2026-01-06 08:32:18.68	39.85	24.55	-42.5	-44.3	19.5	0.00e+00	0	43	0	0	57	4206
2026-01-06 08:32:19.54	39.61	24.52	-42.6	-44.3	19.4	0.00e+00	0	43	0	0	57	4230
2026-01-06 08:32:20.68	39.29	24.48	-42.6	-44.3	19.4	0.00e+00	0	42	0	0	57	4227
2026-01-06 08:32:21.54	39.05	24.44	-42.5	-44.2	19.5	0.00e+00	0	43	0	0	57	4182
2026-01-06 08:32:22.69	38.73	24.40	-42.6	-44.3	19.4	0.00e+00	0	43	0	0	57	4227
2026-01-06 08:32:23.55	38.49	24.37	-42.6	-44.4	19.4	0.00e+00	0	42	0	0	57	4250
2026-01-06 08:32:24.69	38.18	24.32	-42.6	-44.3	19.4	0.00e+00	0	43	0	0	57	4221
2026-01-06 08:32:25.56	37.93	24.29	-42.6	-44.4	19.4	0.00e+00	0	42	0	0	57	4245
2026-01-06 08:32:26.70	37.62	24.24	-42.6	-44.4	19.5	0.00e+00	0	43	0	0	57	4249
2026-01-06 08:32:27.56	37.38	24.21	-42.6	-44.3	19.5	0.00e+00	0	43	0	0	57	4214
2026-01-06 08:32:28.71	37.07	24.16	-42.6	-44.3	19.4	0.00e+00	0	43	0	0	57	4229
2026-01-06 08:32:29.57	36.83	24.13	-42.6	-44.3	19.4	0.00e+00	0	43	0	0	57	4233
2026-01-06 08:32:30.71	36.52	24.08	-42.5	-44.2	19.4	0.00e+00	0	43	0	0	57	4176
2026-01-06 08:32:31.57	36.29	24.04	-42.5	-44.2	19.4	0.00e+00	0	43	0	0	57	4182
2026-01-06 08:32:32.72	35.97	23.99	-42.5	-44.2	19.4	0.00e+00	0	43	0	0	56	4439
2026-01-06 08:32:33.58	35.74	23.95	-42.4	-44.1	19.5	0.00e+00	0	43	0	0	56	4379
2026-01-06 08:32:34.72	35.43	23.90	-42.3	-44.0	19.6	0.00e+00	0	43	0	0	56	4340
2026-01-06 08:32:35.59	35.20	23.86	-42.4	-44.1	19.5	0.00e+00	0	43	0	0	56	4371
2026-01-06 08:32:36.73	34.89	23.81	-42.5	-44.3	19.5	0.00e+00	0	43	0	0	56	4451
2026-01-06 08:32:37.59	34.66	23.77	-42.6	-44.4	19.4	0.00e+00	0	43	0	0	56	4503
2026-01-06 08:32:39.10	34.26	23.69	-42.8	-44.6	19.4	0.00e+00	0	43	0	0	56	4603
2026-01-06 08:32:39.82	34.07	23.66	-42.8	-44.6	19.3	0.00e+00	0	43	0	0	56	4610
2026-01-06 08:32:41.11	33.73	23.59	-43.0	-44.8	19.2	0.00e+00	0	43	0	0	56	4710
2026-01-06 08:32:41.83	33.54	23.56	-42.9	-44.7	19.2	0.00e+00	0	43	0	0	56	4656
2026-01-06 08:32:43.12	33.20	23.49	-42.8	-44.5	19.3	0.00e+00	0	42	0	0	56	4595
2026-01-06 08:32:43.83	33.01	23.46	-42.8	-44.5	19.3	0.00e+00	0	42	0	0	56	4594
2026-01-06 08:32:45.12	32.67	23.39	-42.7	-44.4	19.4	0.00e+00	0	43	0	0	56	4532
2026-01-06 08:32:45.96	32.45	23.35	-42.7	-44.4	19.4	0.00e+00	0	42	0	0	56	4523
2026-01-06 08:32:47.11	32.16	23.29	-42.7	-44.4	19.4	0.00e+00	0	43	0	0	56	4530
2026-01-06 08:32:48.21	31.87	23.23	-42.8	-44.6	19.2	0.00e+00	0	43	0	0	56	4612
2026-01-06 08:32:49.24	31.61	23.18	-42.8	-44.6	19.3	0.00e+00	0	43	0	0	56	4603
2026-01-06 08:32:50.24	31.35	23.12	-42.6	-44.4	19.4	0.00e+00	0	43	0	0	56	4528
2026-01-06 08:32:51.45	31.04	23.06	-42.6	-44.3	19.5	0.00e+00	0	43	0	0	56	4470
2026-01-06 08:32:52.34	30.81	23.01	-42.6	-44.3	19.5	0.00e+00	0	43	0	0	56	4482
2026-01-06 08:32:53.48	30.52	22.94	-42.6	-44.3	19.5	0.00e+00	0	43	0	0	56	4476
2026-01-06 08:32:54.34	30.31	22.90	-42.6	-44.3	19.5	0.00e+00	0	43	0	0	56	4468
2026-01-06 08:32:55.49	30.02	22.83	-42.5	-44.3	19.5	0.00e+00	0	42	0	0	56	4452
2026-01-06 08:32:56.35	29.80	22.78	-42.5	-44.2	19.6	0.00e+00	0	43	0	0	56	4400
2026-01-06 08:32:57.49	29.51	22.72	-42.5	-44.2	19.5	0.00e+00	0	43	0	0	56	4414
2026-01-06 08:32:58.35	29.30	22.67	-42.6	-44.4	19.3	0.00e+00	0	42	0	0	56	4504
2026-01-06 08:32:59.50	29.01	22.60	-42.7	-44.4	19.3	0.00e+00	0	43	0	0	56	4536
2026-01-06 08:33:00.36	28.80	22.55	-42.7	-44.5	19.2	0.00e+00	0	43	0	0	56	4553
2026-01-06 08:33:01.51	28.52	22.48	-42.8	-44.5	19.2	0.00e+00	0	43	0	0	56	4591
2026-01-06 08:33:02.37	28.31	22.43	-42.7	-44.5	19.2	0.00e+00	0	43	0	0	56	4594
2026-01-06 08:33:03.54	28.02	22.36	-42.8	-44.6	19.2	0.00e+00	0	43	0	0	56	4636
2026-01-06 08:33:04.40	27.81	22.31	-42.9	-44.7	19.1	0.00e+00	0	43	0	0	56	4683
2026-01-06 08:33:05.55	27.53	22.24	-42.8	-44.6	19.2	0.00e+00	0	42	0	0	56	4641
2026-01-06 08:33:06.41	27.32	22.18	-42.8	-44.6	19.3	0.00e+00	0	43	0	0	56	4636
2026-01-06 08:33:07.56	27.05	22.11	-43.0	-44.8	19.1	0.00e+00	0	42	0	0	56	4738
2026-01-06 08:33:08.42	26.84	22.06	-43.0	-44.9	19.0	0.00e+00	0	43	0	0	56	4768
2026-01-06 08:33:09.56	26.57	21.99	-42.7	-44.5	19.3	0.00e+00	0	43	0	0	56	4562
2026-01-06 08:33:10.43	26.36	21.93	-42.6	-44.3	19.5	0.00e+00	0	43	0	0	56	4475
2026-01-06 08:33:11.58	26.09	21.86	-42.4	-44.1	19.6	0.00e+00	0	42	0	0	56	4389
2026-01-06 08:33:12.43	25.89	21.81	-42.2	-43.9	19.8	0.00e+00	0	42	0	0	56	4275
2026-01-06 08:33:13.58	25.62	21.73	-42.1	-43.9	19.9	0.00e+00	0	43	0	0	56	4245
2026-01-06 08:33:14.44	25.42	21.68	-42.1	-43.9	19.8	0.00e+00	0	43	0	0	56	4270
2026-01-06 08:33:15.58	25.15	21.60	-42.1	-43.9	19.8	0.00e+00	0	43	0	0	56	4266
2026-01-06 08:33:16.44	24.95	21.55	-42.3	-44.1	19.7	0.00e+00	0	43	0	0	56	4344
2026-01-06 08:33:17.59	24.69	21.47	-42.5	-44.3	19.5	0.00e+00	0	43	0	0	56	4450
2026-01-06 08:33:18.45	24.49	21.42	-42.6	-44.4	19.4	0.00e+00	0	42	0	0	56	4520
2026-01-06 08:33:19.59	24.23	21.34	-42.6	-44.4	19.4	0.00e+00	0	43	0	0	56	4540
2026-01-06 08:33:20.45	24.04	21.29	-42.5	-44.3	19.5	0.00e+00	0	43	0	0	56	4490
2026-01-06 08:33:21.60	23.77	21.21	-42.5	-44.3	19.5	0.00e+00	0	42	0	0	56	4465
2026-01-06 08:33:22.46	23.58	21.15	-42.4	-44.3	19.5	0.00e+00	0	43	0	0	56	4447
2026-01-06 08:33:23.60	23.32	21.07	-42.3	-44.1	19.7	0.00e+00	0	43	0	0	56	4380
2026-01-06 08:33:24.60	23.10	21.01	-42.3	-44.1	19.7	0.00e+00	0	43	0	0	56	4379
2026-01-06 08:33:25.76	22.84	20.93	-42.4	-44.2	19.6	0.00e+00	0	43	0	0	56	4397
2026-01-06 08:33:26.62	22.65	20.87	-42.4	-44.1	19.6	0.00e+00	0	43	0	0	56	4369
2026-01-06 08:33:27.77	22.40	20.79	-42.4	-44.1	19.6	0.00e+00	0	43	0	0	56	4376
2026-01-06 08:33:28.63	22.21	20.73	-42.4	-44.1	19.6	0.00e+00	0	43	0	0	56	4381
2026-01-06 08:33:30.10	21.89	20.63	-42.3	-44.0	19.6	0.00e+00	0	43	0	0	56	4327
2026-01-06 08:33:30.81	21.73	20.58	-42.3	-44.1	19.6	0.00e+00	0	43	0	0	56	4354
2026-01-06 08:33:32.10	21.45	20.49	-42.2	-43.9	19.8	0.00e+00	0	43	0	0	56	4285
2026-01-06 08:33:32.81	21.30	20.44	-42.2	-43.9	19.8	0.00e+00	0	43	0	0	56	4276
2026-01-06 08:33:34.10	21.02	20.35	-42.4	-44.1	19.7	0.00e+00	0	43	0	0	56	4371
2026-01-06 08:33:34.82	20.87	20.30	-42.5	-44.2	19.6	0.00e+00	0	42	0	0	56	4427
2026-01-06 08:33:36.11	20.60	20.21	-42.7	-44.5	19.3	0.00e+00	0	43	0	0	56	4582
2026-01-06 08:33:36.82	20.45	20.16	-42.9	-44.7	19.2	0.00e+00	0	43	0	0	56	4668
2026-01-06 08:33:38.11	20.17	20.07	-43.0	-44.9	19.0	0.00e+00	0	43	0	0	56	4778
2026-01-06 08:33:38.82	20.03	20.02	-43.1	-44.9	18.9	0.00e+00	0	43	0	0	56	4811
2026-01-06 08:33:40.11	19.76	19.93	-43.0	-44.9	19.0	0.00e+00	0	43	0	0	56	4779
2026-01-06 08:33:40.83	19.61	19.88	-43.0	-44.8	19.0	0.00e+00	0	43	0	0	56	4732
2026-01-06 08:33:42.15	19.33	19.78	-43.0	-44.8	19.0	0.00e+00	0	43	0	0	56	4733
2026-01-06 08:33:42.86	19.19	19.73	-42.8	-44.6	19.2	0.00e+00	0	43	0	0	56	4610
2026-01-06 08:33:44.16	18.92	19.64	-42.6	-44.4	19.4	0.00e+00	0	43	0	0	56	4532
2026-01-06 08:33:45.22	18.71	19.56	-42.7	-44.5	19.3	0.00e+00	0	43	0	0	56	4579
2026-01-06 08:33:46.08	18.53	19.50	-42.9	-44.7	19.1	0.00e+00	0	43	0	0	56	4671
2026-01-06 08:33:47.22	18.30	19.42	-42.8	-44.6	19.2	0.00e+00	0	43	0	0	56	4638
2026-01-06 08:33:48.08	18.13	19.36	-42.8	-44.6	19.2	0.00e+00	0	43	0	0	56	4638
2026-01-06 08:33:49.29	17.89	19.27	-42.8	-44.6	19.1	0.00e+00	0	43	0	0	56	4646
2026-01-06 08:33:50.15	17.72	19.20	-42.8	-44.6	19.1	0.00e+00	0	43	0	0	56	4626
2026-01-06 08:33:51.30	17.49	19.12	-42.8	-44.6	19.2	0.00e+00	0	43	0	0	56	4640
2026-01-06 08:33:52.16	17.32	19.06	-42.8	-44.6	19.2	0.00e+00	0	42	0	0	56	4623
2026-01-06 08:33:53.43	17.07	18.96	-42.8	-44.6	19.2	0.00e+00	0	43	0	0	56	4605
2026-01-06 08:33:54.15	16.93	18.91	-42.9	-44.7	19.1	0.00e+00	0	43	0	0	56	4676
2026-01-06 08:33:55.44	16.68	18.82	-43.0	-44.8	19.1	0.00e+00	0	43	0	0	56	4750
2026-01-06 08:33:56.16	16.54	18.76	-43.1	-44.9	19.0	0.00e+00	0	43	0	0	56	4806
2026-01-06 08:33:57.44	16.30	18.67	-43.3	-45.2	18.8	0.00e+00	0	43	0	0	57	4656
2026-01-06 08:33:58.16	16.16	18.62	-43.5	-45.3	18.7	0.00e+00	0	42	0	0	57	4731
2026-01-06 08:33:59.45	15.92	18.52	-43.6	-45.5	18.5	0.00e+00	0	43	0	0	57	4835
2026-01-06 08:34:00.16	15.78	18.47	-43.7	-45.6	18.4	0.00e+00	0	43	0	0	58	4630
2026-01-06 08:34:01.45	15.54	18.37	-43.7	-45.6	18.4	0.00e+00	0	43	0	0	58	4620
2026-01-06 08:34:02.16	15.41	18.32	-43.7	-45.6	18.4	0.00e+00	0	43	0	0	58	4632
2026-01-06 08:34:03.47	15.16	18.22	-43.7	-45.5	18.4	0.00e+00	0	43	0	0	58	4598
2026-01-06 08:34:04.18	15.03	18.17	-43.6	-45.5	18.5	0.00e+00	0	43	0	0	58	4572
2026-01-06 08:34:05.47	14.79	18.07	-43.6	-45.5	18.4	0.00e+00	0	43	0	0	58	4581
2026-01-06 08:34:06.19	14.66	18.02	-43.7	-45.5	18.4	0.00e+00	0	43	0	0	58	4598
2026-01-06 08:34:07.48	14.43	17.92	-43.5	-45.4	18.6	0.00e+00	0	43	0	0	58	4519
2026-01-06 08:34:08.19	14.30	17.87	-43.6	-45.5	18.5	0.00e+00	0	43	0	0	58	4594
2026-01-06 08:34:09.48	14.07	17.77	-43.6	-45.6	18.4	0.00e+00	0	43	0	0	58	4602
2026-01-06 08:34:10.20	13.94	17.72	-43.6	-45.6	18.4	0.00e+00	0	43	0	0	58	4622
2026-01-06 08:34:11.49	13.71	17.62	-43.7	-45.7	18.4	0.00e+00	0	43	0	0	58	4659
2026-01-06 08:34:12.21	13.58	17.57	-43.6	-45.6	18.4	0.00e+00	0	43	0	0	58	4625
2026-01-06 08:34:13.85	13.29	17.45	-43.6	-45.6	18.4	0.00e+00	0	43	0	0	58	4602
2026-01-06 08:34:14.42	13.19	17.40	-43.4	-45.4	18.6	0.00e+00	0	43	0	0	58	4534
2026-01-06 08:34:16.01	12.91	17.28	-43.5	-45.5	18.5	0.00e+00	0	43	0	0	58	4573
2026-01-06 08:34:16.58	12.81	17.24	-43.4	-45.4	18.6	0.00e+00	0	43	0	0	58	4503
2026-01-06 08:34:18.19	12.53	17.12	-43.4	-45.5	18.6	0.00e+00	0	43	0	0	58	4550
2026-01-06 08:34:18.78	12.43	17.07	-43.3	-45.4	18.6	0.00e+00	0	43	0	0	58	4544
2026-01-06 08:34:20.35	12.16	16.96	-43.3	-45.4	18.6	0.00e+00	0	43	0	0	58	4532
2026-01-06 08:34:20.94	12.06	16.91	-43.3	-45.4	18.6	0.00e+00	0	43	0	0	58	4542
2026-01-06 08:34:22.52	11.79	16.79	-43.2	-45.2	18.8	0.00e+00	0	43	0	0	58	4437
2026-01-06 08:34:23.12	11.69	16.75	-43.2	-45.2	18.9	0.00e+00	0	43	0	0	58	4412
2026-01-06 08:34:24.70	11.43	16.63	-43.1	-45.0	19.0	0.00e+00	0	43	0	0	58	4317
2026-01-06 08:34:25.53	11.29	16.57	-43.1	-45.1	19.0	0.00e+00	0	43	0	0	58	4344
2026-01-06 08:34:26.67	11.10	16.48	-43.2	-45.1	18.9	0.00e+00	0	43	0	0	58	4374
2026-01-06 08:34:27.53	10.96	16.41	-43.3	-45.2	18.9	0.00e+00	0	43	0	0	58	4430
2026-01-06 08:34:28.69	10.77	16.33	-43.3	-45.3	18.8	0.00e+00	0	43	0	0	58	4442
2026-01-06 08:34:29.55	10.63	16.26	-43.3	-45.3	18.9	0.00e+00	0	43	0	0	58	4461
2026-01-06 08:34:30.70	10.44	16.17	-43.4	-45.4	18.7	0.00e+00	0	43	0	0	58	4501
2026-01-06 08:34:31.56	10.31	16.11	-43.5	-45.5	18.6	0.00e+00	0	43	0	0	58	4563
2026-01-06 08:34:32.70	10.12	16.02	-43.7	-45.7	18.4	0.00e+00	0	43	0	0	58	4671
2026-01-06 08:34:33.61	9.98	15.96	-43.8	-45.8	18.4	0.00e+00	0	43	0	0	58	4721
2026-01-06 08:34:34.81	9.79	15.86	-43.9	-45.9	18.2	0.00e+00	0	43	0	0	58	4806
2026-01-06 08:34:35.67	9.65	15.80	-43.8	-45.8	18.3	0.00e+00	0	42	0	0	58	4742
2026-01-06 08:34:37.01	9.44	15.70	-43.8	-45.7	18.4	0.00e+00	0	43	0	0	58	4676
2026-01-06 08:34:37.72	9.33	15.64	-43.8	-45.7	18.4	0.00e+00	0	43	0	0	58	4680
2026-01-06 08:34:39.01	9.13	15.55	-43.7	-45.6	18.5	0.00e+00	0	43	0	0	58	4601
2026-01-06 08:34:39.73	9.02	15.49	-43.6	-45.6	18.5	0.00e+00	0	43	0	0	58	4601
2026-01-06 08:34:41.02	8.82	15.40	-43.5	-45.4	18.7	0.00e+00	0	43	0	0	58	4537
2026-01-06 08:34:41.74	8.71	15.34	-43.5	-45.5	18.6	0.00e+00	0	42	0	0	58	4572
2026-01-06 08:34:43.02	8.52	15.25	-43.6	-45.6	18.5	0.00e+00	0	43	0	0	58	4640
2026-01-06 08:34:43.73	8.41	15.19	-43.7	-45.8	18.4	0.00e+00	0	43	0	0	58	4735
2026-01-06 08:34:45.02	8.21	15.09	-43.9	-46.0	18.2	0.00e+00	0	43	0	0	58	4854
2026-01-06 08:34:45.74	8.11	15.04	-44.1	-46.2	18.1	0.00e+00	0	43	0	0	58	4932
2026-01-06 08:34:47.03	7.91	14.94	-44.2	-46.3	18.0	0.00e+00	0	43	0	0	59	4719
2026-01-06 08:34:47.75	7.81	14.89	-44.2	-46.3	17.9	0.00e+00	0	43	0	0	59	4719
2026-01-06 08:34:49.03	7.62	14.79	-44.2	-46.3	17.9	0.00e+00	0	43	0	0	59	4708
2026-01-06 08:34:49.75	7.51	14.74	-44.2	-46.3	17.8	0.00e+00	0	43	0	0	59	4748
2026-01-06 08:34:51.04	7.32	14.64	-44.1	-46.2	17.8	0.00e+00	0	43	0	0	59	4672
2026-01-06 08:34:51.76	7.22	14.59	-43.9	-46.1	17.9	0.00e+00	0	43	0	0	59	4635
2026-01-06 08:34:53.05	7.03	14.49	-43.6	-45.8	18.2	0.00e+00	0	42	0	0	59	4463
2026-01-06 08:34:53.76	6.93	14.44	-43.5	-45.8	18.2	0.00e+00	0	43	0	0	59	4457
2026-01-06 08:34:55.05	6.75	14.34	-43.6	-45.8	18.2	0.00e+00	0	43	0	0	59	4471
2026-01-06 08:34:55.77	6.64	14.29	-43.6	-45.8	18.3	0.00e+00	0	43	0	0	59	4454
2026-01-06 08:34:57.06	6.46	14.19	-43.7	-45.8	18.3	0.00e+00	0	43	0	0	59	4466
2026-01-06 08:34:57.77	6.36	14.14	-43.8	-45.9	18.3	0.00e+00	0	43	0	0	59	4494
2026-01-06 08:34:59.06	6.18	14.04	-44.1	-46.2	18.1	0.00e+00	0	43	0	0	59	4659
2026-01-06 08:34:59.78	6.08	13.99	-44.2	-46.3	17.9	0.00e+00	0	43	0	0	59	4729
2026-01-06 08:35:01.16	5.89	13.89	-44.4	-46.6	17.6	0.00e+00	0	43	0	0	59	4902
2026-01-06 08:35:01.88	5.79	13.83	-44.5	-46.7	17.6	0.00e+00	0	43	0	0	59	4937
2026-01-06 08:35:03.17	5.61	13.74	-44.6	-46.8	17.4	0.00e+00	0	43	0	0	59	5034
2026-01-06 08:35:03.88	5.52	13.68	-44.6	-46.9	17.4	0.00e+00	0	43	0	0	59	5044
2026-01-06 08:35:05.29	5.33	13.58	-44.6	-46.9	17.3	0.00e+00	0	43	0	0	60	4802
2026-01-06 08:35:06.00	5.23	13.53	-44.6	-46.9	17.4	0.00e+00	0	43	0	0	60	4766
2026-01-06 08:35:07.29	5.06	13.43	-44.4	-46.7	17.5	0.00e+00	0	43	0	0	60	4671
2026-01-06 08:35:08.01	4.96	13.38	-44.4	-46.7	17.5	0.00e+00	0	43	0	0	60	4664
2026-01-06 08:35:09.30	4.79	13.28	-44.2	-46.5	17.7	0.00e+00	0	43	0	0	60	4584
2026-01-06 08:35:10.02	4.69	13.23	-44.1	-46.4	17.8	0.00e+00	0	43	0	0	60	4496
2026-01-06 08:35:11.31	4.52	13.13	-43.9	-46.1	18.0	0.00e+00	0	43	0	0	59	4606
2026-01-06 08:35:12.02	4.43	13.08	-43.9	-46.0	18.0	0.00e+00	0	43	0	0	59	4589
2026-01-06 08:35:13.31	4.26	12.98	-44.0	-46.2	18.0	0.00e+00	0	42	0	0	59	4665
2026-01-06 08:35:14.03	4.17	12.93	-44.2	-46.3	17.8	0.00e+00	0	43	0	0	59	4743
2026-01-06 08:35:15.32	4.00	12.84	-44.2	-46.3	17.9	0.00e+00	0	43	0	0	59	4726
2026-01-06 08:35:16.03	3.91	12.78	-44.2	-46.3	17.8	0.00e+00	0	43	0	0	59	4753
2026-01-06 08:35:17.32	3.75	12.69	-44.4	-46.5	17.7	0.00e+00	0	43	0	0	59	4855
2026-01-06 08:35:18.04	3.66	12.64	-44.6	-46.7	17.5	0.00e+00	0	43	0	0	59	4965
2026-01-06 08:35:19.32	3.50	12.54	-44.7	-46.9	17.4	0.00e+00	0	43	0	0	60	4761
2026-01-06 08:35:20.04	3.41	12.49	-44.6	-46.8	17.5	0.00e+00	0	43	0	0	60	4737
2026-01-06 08:35:21.33	3.24	12.40	-44.5	-46.7	17.5	0.00e+00	0	43	0	0	60	4666
2026-01-06 08:35:22.04	3.16	12.34	-44.4	-46.6	17.6	0.00e+00	0	43	0	0	60	4634
2026-01-06 08:35:23.34	3.00	12.25	-44.3	-46.6	17.6	0.00e+00	0	43	0	0	60	4603
2026-01-06 08:35:24.05	2.91	12.20	-44.3	-46.5	17.6	0.00e+00	0	43	0	0	60	4589
2026-01-06 08:35:25.34	2.75	12.10	-44.0	-46.3	17.8	0.00e+00	0	43	0	0	60	4453
2026-01-06 08:35:26.06	2.66	12.05	-44.0	-46.2	17.9	0.00e+00	0	42	0	0	60	4427
2026-01-06 08:35:27.35	2.51	11.96	-44.0	-46.2	17.9	0.00e+00	0	43	0	0	59	4663
2026-01-06 08:35:28.06	2.42	11.91	-43.8	-45.9	18.1	0.00e+00	0	43	0	0	59	4537
2026-01-06 08:35:29.35	2.27	11.81	-43.6	-45.6	18.4	0.00e+00	0	43	0	0	59	4364
2026-01-06 08:35:30.07	2.18	11.76	-43.6	-45.5	18.5	0.00e+00	0	43	0	0	59	4323
2026-01-06 08:35:31.36	2.03	11.67	-43.8	-45.8	18.3	0.00e+00	0	43	0	0	59	4449
2026-01-06 08:35:32.08	1.94	11.62	-43.8	-45.7	18.3	0.00e+00	0	43	0	0	59	4411
2026-01-06 08:35:33.36	1.79	11.52	-43.8	-45.9	18.2	0.00e+00	0	43	0	0	59	4495
2026-01-06 08:35:34.08	1.71	11.47	-43.8	-45.9	18.2	0.00e+00	0	43	0	0	59	4512
2026-01-06 08:35:35.58	1.53	11.36	-44.0	-46.4	17.7	0.00e+00	0	43	0	0	59	4775
2026-01-06 08:35:36.30	1.45	11.31	-44.0	-46.4	17.7	0.00e+00	0	43	0	0	59	4801
2026-01-06 08:35:37.65	1.30	11.22	-44.3	-46.7	17.4	0.00e+00	0	43	0	0	59	4953
2026-01-06 08:35:38.36	1.21	11.17	-44.4	-46.8	17.3	0.00e+00	0	43	0	0	59	5027
2026-01-06 08:35:39.65	1.07	11.07	-44.6	-46.9	17.2	0.00e+00	0	43	0	0	59	5098
2026-01-06 08:35:40.37	0.99	11.02	-44.7	-47.0	17.1	0.00e+00	0	43	0	0	59	5131
2026-01-06 08:35:41.66	0.84	10.93	-44.8	-47.1	17.0	0.00e+00	0	43	0	0	60	4918
2026-01-06 08:35:42.37	0.76	10.88	-44.8	-47.2	16.9	0.00e+00	0	43	0	0	60	4938
2026-01-06 08:35:43.66	0.62	10.79	-44.6	-46.9	17.1	0.00e+00	0	43	0	0	60	4785
2026-01-06 08:35:44.38	0.54	10.74	-44.5	-46.7	17.3	0.00e+00	0	43	0	0	60	4701
2026-01-06 08:35:45.67	0.39	10.65	-44.2	-46.4	17.5	0.00e+00	0	43	0	0	60	4520
2026-01-06 08:35:46.39	0.32	10.59	-44.2	-46.4	17.6	0.00e+00	0	43	0	0	60	4508
2026-01-06 08:35:47.68	0.17	10.50	-44.4	-46.6	17.4	0.00e+00	0	43	0	0	60	4614
2026-01-06 08:35:48.39	0.10	10.45	-44.2	-46.4	17.6	0.00e+00	0	43	0	0	60	4518
2026-01-06 08:35:49.68	359.96	10.36	-44.1	-46.2	17.8	0.00e+00	0	43	0	0	60	4412
2026-01-06 08:35:50.61	359.86	10.30	-44.1	-46.2	17.9	0.00e+00	0	43	0	0	60	4401
2026-01-06 08:35:51.61	359.75	10.23	-44.2	-46.3	17.8	0.00e+00	0	43	0	0	60	4443
2026-01-06 08:35:52.95	359.61	10.13	-44.2	-46.2	17.9	0.00e+00	0	43	0	0	60	4441
2026-01-06 08:35:53.68	359.53	10.08	-44.2	-46.3	17.8	0.00e+00	0	43	0	0	60	4493
2026-01-06 08:35:55.27	359.36	9.97	-44.4	-46.5	17.6	0.00e+00	0	43	0	0	60	4596
2026-01-06 08:35:55.84	359.30	9.93	-44.5	-46.7	17.5	0.00e+00	0	43	0	0	60	4653
2026-01-06 08:35:57.42	359.14	9.82	-44.6	-46.8	17.4	0.00e+00	0	43	0	0	60	4726
2026-01-06 08:35:58.04	359.07	9.78	-44.8	-46.9	17.2	0.00e+00	0	43	0	0	60	4814
2026-01-06 08:35:59.62	358.91	9.67	-44.9	-47.1	17.0	0.00e+00	0	43	0	0	60	4922
2026-01-06 08:36:00.21	358.85	9.63	-45.0	-47.2	17.0	0.00e+00	0	43	0	0	60	4949
2026-01-06 08:36:01.78	358.69	9.52	-45.2	-47.4	16.8	0.00e+00	0	43	0	0	60	5062
2026-01-06 08:36:02.36	358.63	9.48	-45.1	-47.3	16.8	0.00e+00	0	43	0	0	60	5031
2026-01-06 08:36:03.93	358.47	9.37	-45.1	-47.3	16.8	0.00e+00	0	43	0	0	60	5025
2026-01-06 08:36:04.52	358.41	9.33	-45.1	-47.4	16.7	0.00e+00	0	43	0	0	60	5052
2026-01-06 08:36:06.10	358.26	9.22	-45.1	-47.4	16.6	0.00e+00	0	43	0	0	61	4800
2026-01-06 08:36:06.71	358.19	9.18	-45.0	-47.3	16.7	0.00e+00	0	43	0	0	61	4725
2026-01-06 08:36:08.56	358.01	9.05	-44.7	-47.1	16.9	0.00e+00	0	42	0	0	61	4621
2026-01-06 08:36:09.14	357.95	9.01	-44.6	-47.1	16.8	0.00e+00	0	43	0	0	61	4637
2026-01-06 08:36:10.73	357.80	8.90	-51.0	-65.1	3.8	1.49e+00	0	43	104	0	74	17384
2026-01-06 08:36:11.30	357.74	8.86	-52.0	-65.7	3.8	1.49e+00	0	43	104	0	75	17570
2026-01-06 08:36:12.88	357.59	8.76	-51.8	-65.8	3.8	1.49e+00	0	43	104	0	74	18890
2026-01-06 08:36:13.47	357.53	8.72	-52.5	-65.8	3.8	1.49e+00	0	43	104	0	75	17825
2026-01-06 08:36:15.05	357.38	8.61	-52.0	-65.9	3.8	1.49e+00	0	43	104	0	75	18062
2026-01-06 08:36:15.62	357.33	8.57	-52.4	-65.9	3.8	1.49e+00	0	43	104	0	75	18078
2026-01-06 08:36:17.20	357.18	8.46	-52.8	-66.0	3.8	1.49e+00	0	43	104	0	76	17200
2026-01-06 08:36:17.98	357.11	8.41	-52.7	-66.0	3.8	1.49e+00	0	43	104	0	76	17247
2026-01-06 08:36:19.27	356.99	8.32	-52.7	-66.0	3.8	1.49e+00	0	43	104	0	76	17264
2026-01-06 08:36:20.16	356.90	8.26	-52.6	-66.1	3.8	1.49e+00	0	43	104	0	76	17324
2026-01-06 08:36:21.50	356.78	8.17	-52.6	-66.1	3.8	1.49e+00	0	43	104	0	76	17314
2026-01-06 08:36:22.24	356.71	8.13	-52.8	-66.1	3.8	1.49e+00	0	43	104	0	76	17351
2026-01-06 08:36:23.85	356.56	8.02	-52.7	-66.1	3.8	1.49e+00	0	43	104	0	76	17338
2026-01-06 08:36:24.42	356.51	7.98	-52.9	-66.1	3.8	1.49e+00	0	43	104	0	76	17366
2026-01-06 08:36:26.00	356.37	7.87	-52.9	-66.1	3.8	1.49e+00	0	43	104	0	76	17382
2026-01-06 08:36:26.57	356.32	7.84	-53.0	-66.1	3.8	1.49e+00	0	43	104	0	76	17382
2026-01-06 08:36:28.15	356.17	7.73	-53.1	-66.1	3.8	1.49e+00	0	43	104	0	76	17355
2026-01-06 08:36:28.82	356.11	7.69	-53.0	-66.1	3.8	1.49e+00	0	43	104	0	76	17393
2026-01-06 08:36:30.26	355.99	7.59	-53.0	-66.1	3.8	1.49e+00	0	43	104	0	76	17387
2026-01-06 08:36:31.04	355.92	7.54	-53.0	-66.1	3.8	1.49e+00	0	43	104	0	76	17348
2026-01-06 08:36:32.20	355.81	7.46	-53.0	-66.1	3.8	1.49e+00	0	43	104	0	76	17432
2026-01-06 08:36:33.24	355.72	7.39	-53.1	-66.1	3.8	1.49e+00	0	43	104	0	76	17400
2026-01-06 08:36:34.23	355.64	7.33	-53.0	-66.1	3.8	1.49e+00	0	43	104	0	76	17353
2026-01-06 08:36:35.24	355.55	7.26	-53.0	-66.1	3.8	1.49e+00	0	43	104	0	76	17350
2026-01-06 08:36:36.24	355.46	7.20	-53.0	-66.1	3.8	1.49e+00	0	43	104	0	76	17324
2026-01-06 08:36:37.25	355.38	7.13	-53.0	-66.1	3.8	1.49e+00	0	43	104	0	76	17385
2026-01-06 08:36:38.25	355.29	7.07	-53.0	-66.1	3.8	1.49e+00	0	43	104	0	76	17307
2026-01-06 08:36:39.29	355.20	7.00	-52.7	-66.1	3.8	1.49e+00	0	43	104	0	76	17310
2026-01-06 08:36:40.36	355.11	6.93	-52.7	-66.0	3.8	1.49e+00	0	43	104	0	76	17226
2026-01-06 08:36:41.22	355.04	6.87	-52.7	-66.1	3.8	1.49e+00	0	43	104	0	76	17300
2026-01-06 08:36:42.37	354.94	6.80	-52.7	-66.0	3.8	1.49e+00	0	43	104	0	76	17224
2026-01-06 08:36:43.23	354.87	6.74	-52.7	-66.1	3.8	1.49e+00	0	43	104	0	76	17318
2026-01-06 08:36:44.38	354.78	6.67	-52.7	-66.1	3.8	1.49e+00	0	43	104	0	76	17292
2026-01-06 08:36:45.24	354.70	6.61	-52.7	-66.1	3.8	1.49e+00	0	43	104	0	76	17326
2026-01-06 08:36:46.39	354.61	6.54	-52.7	-66.1	3.8	1.49e+00	0	43	104	0	76	17331
2026-01-06 08:36:47.25	354.54	6.48	-52.8	-66.0	3.8	1.49e+00	0	43	104	0	76	17274
2026-01-06 08:36:48.40	354.45	6.41	-52.7	-66.0	3.8	1.49e+00	0	43	104	0	76	17252
2026-01-06 08:36:49.26	354.38	6.35	-52.7	-66.1	3.8	1.49e+00	0	43	104	0	76	17328
2026-01-06 08:36:50.41	354.28	6.28	-52.7	-66.1	3.8	1.49e+00	0	43	104	0	76	17298
2026-01-06 08:36:51.27	354.21	6.22	-52.8	-66.1	3.8	1.49e+00	0	43	104	0	76	17353
2026-01-06 08:36:52.41	354.12	6.15	-52.7	-66.1	3.8	1.49e+00	0	43	104	0	76	17295
2026-01-06 08:36:53.28	354.05	6.10	-52.7	-66.0	3.8	1.49e+00	0	43	104	0	76	17258
2026-01-06 08:36:54.42	353.96	6.02	-52.7	-66.0	3.8	1.49e+00	0	43	104	0	76	17244
2026-01-06 08:36:55.28	353.89	5.97	-52.7	-66.0	3.8	1.49e+00	0	43	104	0	76	17269
2026-01-06 08:36:56.43	353.80	5.90	-52.7	-66.1	3.8	1.49e+00	0	43	104	0	76	17311
2026-01-06 08:36:57.29	353.74	5.84	-52.7	-66.0	3.8	1.49e+00	0	43	104	0	76	17262
2026-01-06 08:36:58.44	353.65	5.77	-52.7	-66.1	3.8	1.49e+00	0	43	104	0	76	17306
2026-01-06 08:36:59.30	353.58	5.71	-52.7	-66.0	3.8	1.49e+00	0	43	104	0	76	17274
2026-01-06 08:37:00.42	353.49	5.64	-52.7	-66.1	3.8	1.49e+00	0	43	104	0	76	17297
2026-01-06 08:37:01.28	353.43	5.59	-52.7	-66.1	3.8	1.49e+00	0	43	104	0	76	17340
2026-01-06 08:37:02.43	353.34	5.52	-52.8	-66.0	3.8	1.49e+00	0	43	104	0	76	17255
2026-01-06 08:37:03.29	353.27	5.46	-52.7	-66.0	3.8	1.49e+00	0	43	104	0	76	17243
2026-01-06 08:37:04.44	353.19	5.39	-52.8	-66.1	3.8	1.49e+00	0	43	104	0	76	17305
2026-01-06 08:37:05.30	353.12	5.34	-52.8	-66.1	3.8	1.49e+00	0	43	104	0	76	17301
2026-01-06 08:37:06.45	353.03	5.26	-52.8	-66.1	3.8	1.49e+00	0	43	104	0	76	17304
2026-01-06 08:37:07.31	352.97	5.21	-52.8	-66.1	3.8	1.49e+00	0	43	104	0	76	17329
2026-01-06 08:37:08.46	352.88	5.14	-52.8	-66.1	3.8	1.49e+00	0	43	104	0	76	17364
2026-01-06 08:37:09.32	352.82	5.09	-52.8	-66.1	3.8	1.49e+00	0	43	104	0	76	17353
2026-01-06 08:37:10.46	352.74	5.02	-52.8	-66.1	3.8	1.49e+00	0	43	104	0	76	17330
2026-01-06 08:37:11.32	352.67	4.96	-52.8	-66.1	3.8	1.49e+00	0	43	104	0	76	17366

#Closed at: 2026-01-06 08:37:12
#Recorded file [0 MB]: D:/Data/31040_260106_112559.dat