passes_logs/2026/01/06/T1/T1__20260106_073753_NOAA_20_JPSS-1_rec.log

#Pass ID: 20260106_073753_NOAA 20 (JPSS-1)
#Satellite: NOAA 20 (JPSS-1)
#Configuration: NOAA 20
#almurnet v.1.7.20251203
#Start time: 2026-01-06 07:37:54

#Version: 2.0.20230620
#Station: T1
#Location: 37.570604 lon 55.790049 lat
#TLE: 1 43013U 17073A   26005.46207808  .00000128  00000+0  81791-4 0  9997
#TLE: 2 43013  98.7627 306.5027 0001826  53.0458 307.0885 14.19533487421381

#Time	Az	El	Level	Level2	SNR	BER	BlckErr	Temp	State	Recorded	gain1	gain2
2026-01-06 07:37:54.09	85.84	5.03	-52.4	-67.5	3.8	1.49e+00	0	37	0	0	76	20347
2026-01-06 07:37:55.08	85.73	5.07	-52.3	-67.5	3.8	1.49e+00	0	37	104	0	76	20310
2026-01-06 07:37:56.08	85.62	5.12	-52.3	-67.5	3.8	1.49e+00	0	37	104	0	76	20308
2026-01-06 07:37:57.08	85.51	5.17	-52.3	-67.5	3.8	1.49e+00	0	37	104	0	76	20430
2026-01-06 07:37:58.08	85.40	5.22	-52.3	-67.5	3.8	1.49e+00	0	37	104	0	76	20355
2026-01-06 07:37:59.08	85.29	5.27	-52.3	-67.4	3.8	1.49e+00	0	37	104	0	76	20268
2026-01-06 07:38:00.08	85.18	5.32	-52.3	-67.5	3.8	1.49e+00	0	37	104	0	76	20324
2026-01-06 07:38:01.08	85.06	5.37	-52.3	-67.4	3.8	1.49e+00	0	38	104	0	76	20177
2026-01-06 07:38:02.08	84.95	5.42	-52.3	-67.4	3.8	1.49e+00	0	38	104	0	76	20283
2026-01-06 07:38:03.08	84.84	5.47	-52.3	-67.5	3.8	1.49e+00	0	38	104	0	76	20304
2026-01-06 07:38:04.08	84.72	5.52	-52.3	-67.4	3.8	1.49e+00	0	38	104	0	76	20301
2026-01-06 07:38:05.08	84.61	5.57	-52.3	-67.4	3.8	1.49e+00	0	38	104	0	76	20301
2026-01-06 07:38:06.08	84.50	5.62	-52.3	-67.5	3.8	1.49e+00	0	38	104	0	76	20417
2026-01-06 07:38:07.08	84.38	5.67	-52.3	-67.5	3.8	1.49e+00	0	38	104	0	76	20429
2026-01-06 07:38:08.08	84.27	5.72	-52.3	-67.5	3.8	1.49e+00	0	38	104	0	76	20331
2026-01-06 07:38:09.08	84.15	5.77	-52.3	-67.5	3.8	1.49e+00	0	38	104	0	76	20369
2026-01-06 07:38:10.08	84.04	5.82	-52.3	-67.5	3.8	1.49e+00	0	38	104	0	76	20414
2026-01-06 07:38:11.08	83.92	5.86	-52.3	-67.5	3.8	1.49e+00	0	38	104	0	76	20389
2026-01-06 07:38:12.08	83.80	5.91	-52.3	-67.5	3.8	1.49e+00	0	38	104	0	76	20407
2026-01-06 07:38:13.08	83.69	5.96	-52.3	-67.5	3.8	1.49e+00	0	38	104	0	76	20437
2026-01-06 07:38:14.08	83.57	6.01	-52.3	-67.5	3.8	1.49e+00	0	38	104	0	76	20319
2026-01-06 07:38:15.08	83.45	6.06	-52.3	-67.5	3.8	1.49e+00	0	38	104	0	76	20392
2026-01-06 07:38:16.07	83.33	6.11	-52.3	-67.5	3.8	1.49e+00	0	38	104	0	76	20304
2026-01-06 07:38:17.07	83.21	6.16	-52.3	-67.4	3.8	1.49e+00	0	38	104	0	76	20200
2026-01-06 07:38:18.07	83.09	6.21	-52.3	-67.4	3.8	1.49e+00	0	38	104	0	76	20265
2026-01-06 07:38:19.06	82.98	6.26	-52.3	-67.4	3.8	1.49e+00	0	38	104	0	76	20161
2026-01-06 07:38:20.07	82.86	6.31	-52.3	-67.4	3.8	1.49e+00	0	38	104	0	76	20189
2026-01-06 07:38:21.06	82.74	6.36	-52.3	-67.4	3.8	1.49e+00	0	38	104	0	76	20123
2026-01-06 07:38:22.06	82.62	6.40	-52.3	-67.4	3.8	1.49e+00	0	38	104	0	76	20158
2026-01-06 07:38:23.06	82.49	6.45	-52.3	-67.4	3.8	1.49e+00	0	38	104	0	76	20190
2026-01-06 07:38:24.07	82.37	6.50	-52.3	-67.4	3.8	1.49e+00	0	38	104	0	76	20161
2026-01-06 07:38:25.07	82.25	6.55	-52.3	-67.3	3.8	1.49e+00	0	38	104	0	76	20047
2026-01-06 07:38:26.07	82.13	6.60	-52.3	-67.3	3.8	1.49e+00	0	38	104	0	76	20064
2026-01-06 07:38:27.07	82.00	6.65	-52.3	-67.3	3.8	1.49e+00	0	38	104	0	76	20058
2026-01-06 07:38:28.07	81.88	6.70	-52.3	-67.4	3.8	1.49e+00	0	39	104	0	76	20142
2026-01-06 07:38:29.07	81.76	6.75	-52.3	-67.4	3.8	1.49e+00	0	38	104	0	76	20089
2026-01-06 07:38:30.06	81.63	6.80	-52.3	-67.4	3.8	1.49e+00	0	38	104	0	76	20151
2026-01-06 07:38:31.06	81.51	6.84	-52.3	-67.4	3.8	1.49e+00	0	38	104	0	76	20219
2026-01-06 07:38:32.06	81.39	6.89	-52.3	-67.4	3.8	1.49e+00	0	39	104	0	76	20255
2026-01-06 07:38:33.06	81.26	6.94	-52.3	-67.4	3.8	1.49e+00	0	39	104	0	76	20219
2026-01-06 07:38:34.06	81.13	6.99	-52.3	-67.4	3.8	1.49e+00	0	39	104	0	76	20239
2026-01-06 07:38:35.06	81.01	7.04	-52.3	-67.4	3.8	1.49e+00	0	39	104	0	76	20233
2026-01-06 07:38:36.06	80.88	7.09	-52.3	-67.4	3.8	1.49e+00	0	38	104	0	76	20180
2026-01-06 07:38:37.05	80.76	7.14	-52.3	-67.3	3.8	1.49e+00	0	38	104	0	76	19874
2026-01-06 07:38:38.05	80.63	7.18	-52.3	-67.1	3.8	1.49e+00	0	39	104	0	76	19603
2026-01-06 07:38:39.05	80.50	7.23	-52.3	-67.0	3.8	1.49e+00	0	39	104	0	76	19311
2026-01-06 07:38:40.04	80.37	7.28	-52.3	-66.9	3.8	1.49e+00	0	39	104	0	76	19046
2026-01-06 07:38:41.04	80.24	7.33	-52.3	-66.8	3.8	1.49e+00	0	39	104	0	76	18931
2026-01-06 07:38:42.04	80.11	7.38	-52.3	-66.9	3.8	1.49e+00	0	39	104	0	76	18978
2026-01-06 07:38:43.03	79.99	7.43	-52.3	-67.0	3.8	1.49e+00	0	39	104	0	76	19326
2026-01-06 07:38:44.04	79.85	7.47	-52.3	-67.2	3.8	1.49e+00	0	39	104	0	76	19703
2026-01-06 07:38:45.03	79.73	7.52	-52.3	-67.3	3.8	1.49e+00	0	39	104	0	76	19897
2026-01-06 07:38:46.03	79.59	7.57	-52.3	-67.3	3.8	1.49e+00	0	39	104	0	76	19987
2026-01-06 07:38:47.03	79.46	7.62	-52.3	-67.3	3.8	1.49e+00	0	39	104	0	76	20051
2026-01-06 07:38:48.03	79.33	7.67	-52.3	-67.3	3.8	1.49e+00	0	39	104	0	76	19906
2026-01-06 07:38:49.02	79.20	7.71	-52.3	-67.1	3.8	1.49e+00	0	39	104	0	76	19552
2026-01-06 07:38:50.02	79.07	7.76	-52.3	-66.9	3.8	1.49e+00	0	39	104	0	76	19053
2026-01-06 07:38:51.02	78.93	7.81	-52.3	-66.7	3.8	1.49e+00	0	39	104	0	76	18725
2026-01-06 07:38:52.02	78.80	7.86	-52.3	-66.7	3.8	1.49e+00	0	39	104	0	76	18549
2026-01-06 07:38:53.01	78.67	7.91	-52.3	-66.8	3.8	1.49e+00	0	39	104	0	76	18740
2026-01-06 07:38:54.01	78.53	7.95	-52.3	-66.9	3.8	1.49e+00	0	39	104	0	76	18989
2026-01-06 07:38:55.01	78.40	8.00	-52.3	-67.1	3.8	1.49e+00	0	39	104	0	76	19523
2026-01-06 07:38:56.01	78.26	8.05	-52.3	-67.2	3.8	1.49e+00	0	39	104	0	76	19797
2026-01-06 07:38:57.01	78.13	8.10	-52.3	-67.3	3.8	1.49e+00	0	39	104	0	76	19858
2026-01-06 07:38:58.00	77.99	8.14	-52.3	-67.1	3.8	1.49e+00	0	39	104	0	76	19602
2026-01-06 07:38:59.00	77.86	8.19	-52.3	-66.7	3.8	1.49e+00	0	39	104	0	76	18571
2026-01-06 07:39:00.00	77.72	8.24	-52.2	-66.0	3.8	1.49e+00	0	39	104	0	76	17242
2026-01-06 07:39:00.99	77.58	8.28	-52.2	-65.5	3.8	1.49e+00	0	39	104	0	76	16266
2026-01-06 07:39:01.98	77.45	8.33	-52.2	-65.5	3.8	1.49e+00	0	39	104	0	76	16167
2026-01-06 07:39:02.98	77.31	8.38	-52.2	-66.2	3.8	1.49e+00	0	39	104	0	76	17496
2026-01-06 07:39:03.98	77.17	8.43	-52.3	-66.6	3.8	1.49e+00	0	39	104	0	76	18469
2026-01-06 07:39:04.98	77.03	8.47	-52.1	-64.7	4.0	1.48e+00	0	39	104	0	76	14832
2026-01-06 07:39:05.98	76.89	8.52	-51.6	-60.7	5.7	8.26e-01	0	39	0	1048576	75	9833
2026-01-06 07:39:06.98	76.75	8.57	-50.7	-57.0	9.0	1.33e-01	0	39	0	2097152	73	7215
2026-01-06 07:39:07.97	76.61	8.61	-49.8	-54.6	11.6	7.60e-03	0	39	0	4194304	71	6163
2026-01-06 07:39:08.97	76.47	8.66	-48.8	-52.8	13.5	4.88e-05	0	39	0	6291456	69	5597
2026-01-06 07:39:09.97	76.33	8.71	-48.2	-51.7	14.6	2.20e-06	0	39	0	8388608	68	5256
2026-01-06 07:39:10.96	76.18	8.75	-48.0	-51.3	15.0	0.00e+00	0	39	0	10485760	68	5021
2026-01-06 07:39:11.96	76.04	8.80	-47.9	-51.4	14.8	0.00e+00	0	39	0	11534336	67	5346
2026-01-06 07:39:12.96	75.90	8.85	-48.5	-52.2	13.9	7.00e-07	0	39	0	13631488	67	5884
2026-01-06 07:39:13.96	75.76	8.89	-49.4	-53.8	12.5	1.90e-05	0	39	0	15728640	69	6312
2026-01-06 07:39:14.95	75.61	8.94	-50.3	-55.7	10.6	5.20e-04	0	39	0	17825792	71	6963
2026-01-06 07:39:15.95	75.47	8.98	-51.1	-58.3	7.8	3.48e-02	0	39	0	19922944	72	8931
2026-01-06 07:39:16.95	75.32	9.03	-51.8	-61.4	5.3	2.64e-01	0	39	0	20971520	74	11325
2026-01-06 07:39:17.95	75.18	9.08	-52.4	-65.7	3.8	3.07e-01	0	39	104	23068672	75	17590
2026-01-06 07:39:18.94	75.03	9.12	-50.0	-55.0	11.4	4.77e-03	0	39	0	23068672	71	6471
2026-01-06 07:39:19.94	74.89	9.17	-52.2	-65.6	3.8	8.13e-01	0	39	104	25165824	75	17292
2026-01-06 07:39:20.94	74.74	9.21	-50.3	-55.7	10.5	1.09e+00	0	39	0	25165824	72	6571
2026-01-06 07:39:21.94	74.59	9.26	-51.4	-60.3	6.2	1.89e-03	0	40	0	27262976	73	10551
2026-01-06 07:39:22.94	74.44	9.30	-50.0	-55.0	11.3	1.66e-02	0	40	0	28311552	71	6469
2026-01-06 07:39:23.93	74.30	9.35	-49.9	-54.8	11.4	1.65e-03	0	40	0	30408704	71	6330
2026-01-06 07:39:24.93	74.15	9.39	-49.3	-53.6	12.8	2.68e-04	0	39	0	32505856	70	5789
2026-01-06 07:39:25.93	74.00	9.44	-48.7	-52.5	13.8	1.14e-05	0	39	0	34603008	69	5434
2026-01-06 07:39:26.92	73.85	9.48	-48.3	-51.8	14.6	0.00e+00	0	39	0	36700160	68	5295
2026-01-06 07:39:27.92	73.70	9.53	-47.8	-51.1	15.1	0.00e+00	0	40	0	37748736	67	5165
2026-01-06 07:39:28.91	73.55	9.57	-47.4	-50.5	15.7	0.00e+00	0	39	0	39845888	66	5155
2026-01-06 07:39:29.91	73.40	9.62	-47.2	-50.2	16.0	0.00e+00	0	40	0	41943040	66	4964
2026-01-06 07:39:30.91	73.25	9.66	-47.0	-50.0	16.2	0.00e+00	0	40	0	44040192	66	4827
2026-01-06 07:39:31.90	73.10	9.71	-47.0	-49.9	16.3	0.00e+00	0	40	0	46137344	66	4811
2026-01-06 07:39:32.90	72.95	9.75	-46.9	-49.8	16.3	0.00e+00	0	39	0	47185920	65	5011
2026-01-06 07:39:33.90	72.79	9.80	-46.9	-49.8	16.3	0.00e+00	0	39	0	49283072	65	5041
2026-01-06 07:39:34.90	72.64	9.84	-46.9	-49.8	16.4	0.00e+00	0	39	0	51380224	65	5034
2026-01-06 07:39:35.89	72.49	9.88	-46.9	-49.9	16.3	0.00e+00	0	39	0	53477376	65	5055
2026-01-06 07:39:36.89	72.33	9.93	-46.9	-49.8	16.2	0.00e+00	0	40	0	54525952	65	5040
2026-01-06 07:39:37.88	72.18	9.97	-46.9	-49.8	16.3	0.00e+00	0	39	0	56623104	65	5037
2026-01-06 07:39:38.88	72.03	10.01	-46.8	-49.7	16.5	0.00e+00	0	39	0	58720256	65	4961
2026-01-06 07:39:39.88	71.87	10.06	-46.8	-49.7	16.5	0.00e+00	0	39	0	60817408	65	4965
2026-01-06 07:39:40.88	71.71	10.10	-46.9	-49.8	16.4	0.00e+00	0	39	0	62914560	65	5019
2026-01-06 07:39:41.88	71.56	10.14	-46.9	-49.8	16.4	0.00e+00	0	40	0	63963136	65	5026
2026-01-06 07:39:42.87	71.40	10.19	-46.9	-49.8	16.4	0.00e+00	0	40	0	66060288	65	5006
2026-01-06 07:39:43.87	71.24	10.23	-46.9	-49.8	16.4	0.00e+00	0	39	0	68157440	65	5015
2026-01-06 07:39:44.87	71.09	10.27	-46.8	-49.7	16.5	0.00e+00	0	40	0	70254592	65	4929
2026-01-06 07:39:45.87	70.93	10.32	-46.7	-49.5	16.8	0.00e+00	0	40	0	71303168	65	4816
2026-01-06 07:39:46.87	70.77	10.36	-46.7	-49.6	16.7	0.00e+00	0	39	0	73400320	65	4881
2026-01-06 07:39:47.87	70.61	10.40	-46.6	-49.4	16.8	0.00e+00	0	39	0	75497472	65	4791
2026-01-06 07:39:48.86	70.45	10.44	-46.5	-49.3	16.9	0.00e+00	0	40	0	77594624	65	4718
2026-01-06 07:39:49.86	70.29	10.49	-46.5	-49.2	17.0	0.00e+00	0	40	0	79691776	65	4702
2026-01-06 07:39:50.85	70.13	10.53	-46.5	-49.3	17.0	0.00e+00	0	40	0	80740352	65	4716
2026-01-06 07:39:51.85	69.97	10.57	-46.5	-49.3	16.9	0.00e+00	0	40	0	82837504	65	4753
2026-01-06 07:39:52.85	69.81	10.61	-46.4	-49.1	17.0	0.00e+00	0	40	0	84934656	64	4924
2026-01-06 07:39:53.85	69.65	10.65	-46.5	-49.3	16.9	0.00e+00	0	39	0	87031808	64	4986
2026-01-06 07:39:54.85	69.48	10.69	-46.5	-49.3	16.9	0.00e+00	0	40	0	89128960	64	5022
2026-01-06 07:39:55.84	69.32	10.74	-46.5	-49.2	17.0	0.00e+00	0	40	0	90177536	64	4979
2026-01-06 07:39:56.84	69.16	10.78	-46.5	-49.3	16.9	0.00e+00	0	40	0	92274688	64	4992
2026-01-06 07:39:57.83	69.00	10.82	-46.6	-49.3	16.9	0.00e+00	0	40	0	94371840	64	5012
2026-01-06 07:39:58.83	68.83	10.86	-46.6	-49.4	16.8	0.00e+00	0	40	0	96468992	64	5063
2026-01-06 07:39:59.83	68.67	10.90	-46.8	-49.6	16.7	0.00e+00	0	40	0	97517568	64	5190
2026-01-06 07:40:00.83	68.50	10.94	-46.8	-49.6	16.6	0.00e+00	0	40	0	99614720	64	5204
2026-01-06 07:40:01.82	68.34	10.98	-46.8	-49.6	16.7	0.00e+00	0	40	0	101711872	64	5179
2026-01-06 07:40:02.82	68.17	11.02	-46.7	-49.5	16.7	0.00e+00	0	40	0	103809024	64	5145
2026-01-06 07:40:03.82	68.00	11.06	-46.7	-49.6	16.7	0.00e+00	0	40	0	105906176	64	5191
2026-01-06 07:40:04.81	67.84	11.10	-46.8	-49.7	16.6	0.00e+00	0	40	0	106954752	64	5226
2026-01-06 07:40:05.81	67.67	11.14	-46.9	-49.9	16.4	0.00e+00	0	40	0	109051904	64	5342
2026-01-06 07:40:06.80	67.50	11.18	-46.8	-49.8	16.5	0.00e+00	0	40	0	111149056	64	5287
2026-01-06 07:40:07.80	67.33	11.22	-46.8	-49.6	16.6	0.00e+00	0	40	0	113246208	64	5202
2026-01-06 07:40:08.79	67.17	11.26	-46.9	-49.8	16.5	0.00e+00	0	40	0	114294784	64	5321
2026-01-06 07:40:09.79	67.00	11.30	-46.8	-49.7	16.6	0.00e+00	0	40	0	116391936	64	5258
2026-01-06 07:40:10.79	66.83	11.33	-47.0	-49.9	16.4	0.00e+00	0	40	0	118489088	64	5352
2026-01-06 07:40:11.78	66.66	11.37	-47.0	-49.9	16.3	0.00e+00	0	40	0	120586240	64	5393
2026-01-06 07:40:12.78	66.49	11.41	-47.1	-50.0	16.3	0.00e+00	0	40	0	122683392	64	5442
2026-01-06 07:40:13.78	66.32	11.45	-47.1	-50.0	16.2	0.00e+00	0	40	0	123731968	64	5457
2026-01-06 07:40:14.78	66.14	11.49	-47.0	-49.9	16.4	0.00e+00	0	40	0	125829120	64	5352
2026-01-06 07:40:15.78	65.97	11.53	-46.9	-49.8	16.5	0.00e+00	0	40	0	127926272	64	5336
2026-01-06 07:40:16.77	65.80	11.56	-47.0	-49.9	16.4	0.00e+00	0	40	0	130023424	64	5353
2026-01-06 07:40:17.77	65.63	11.60	-46.9	-49.8	16.5	0.00e+00	0	40	0	131072000	64	5305
2026-01-06 07:40:18.76	65.46	11.64	-46.8	-49.7	16.6	0.00e+00	0	40	0	133169152	64	5226
2026-01-06 07:40:19.76	65.28	11.67	-46.8	-49.7	16.5	0.00e+00	0	40	0	135266304	64	5264
2026-01-06 07:40:20.76	65.11	11.71	-46.7	-49.5	16.7	0.00e+00	0	40	0	137363456	64	5142
2026-01-06 07:40:21.75	64.93	11.75	-46.8	-49.6	16.6	0.00e+00	0	40	0	139460608	64	5218
2026-01-06 07:40:22.75	64.76	11.78	-46.9	-49.8	16.5	0.00e+00	0	40	0	140509184	64	5318
2026-01-06 07:40:23.75	64.58	11.82	-46.9	-49.8	16.5	0.00e+00	0	40	0	142606336	64	5291
2026-01-06 07:40:24.74	64.41	11.86	-46.9	-49.8	16.5	0.00e+00	0	40	0	144703488	64	5295
2026-01-06 07:40:25.73	64.23	11.89	-46.9	-49.8	16.5	0.00e+00	0	40	0	146800640	64	5294
2026-01-06 07:40:26.73	64.06	11.93	-46.8	-49.6	16.6	0.00e+00	0	40	0	147849216	64	5208
2026-01-06 07:40:27.73	63.88	11.96	-46.9	-49.7	16.6	0.00e+00	0	40	0	149946368	64	5258
2026-01-06 07:40:28.73	63.70	12.00	-46.9	-49.7	16.6	0.00e+00	0	40	0	152043520	64	5276
2026-01-06 07:40:29.73	63.52	12.03	-46.8	-49.7	16.6	0.00e+00	0	40	0	154140672	64	5259
2026-01-06 07:40:30.73	63.34	12.07	-46.8	-49.7	16.6	0.00e+00	0	40	0	156237824	64	5220
2026-01-06 07:40:31.72	63.17	12.10	-46.7	-49.5	16.8	0.00e+00	0	40	0	157286400	64	5140
2026-01-06 07:40:32.72	62.99	12.14	-46.7	-49.5	16.7	0.00e+00	0	40	0	159383552	64	5146
2026-01-06 07:40:33.72	62.81	12.17	-46.7	-49.5	16.7	0.00e+00	0	40	0	161480704	64	5155
2026-01-06 07:40:34.72	62.62	12.20	-46.7	-49.5	16.8	0.00e+00	0	40	0	163577856	64	5117
2026-01-06 07:40:35.71	62.45	12.24	-46.7	-49.5	16.8	0.00e+00	0	40	0	165675008	64	5129
2026-01-06 07:40:36.71	62.26	12.27	-46.6	-49.4	16.9	0.00e+00	0	40	0	166723584	64	5075
2026-01-06 07:40:37.71	62.08	12.30	-46.6	-49.4	16.9	0.00e+00	0	40	0	168820736	64	5056
2026-01-06 07:40:38.70	61.90	12.34	-46.7	-49.5	16.8	0.00e+00	0	40	0	170917888	64	5124
2026-01-06 07:40:39.70	61.72	12.37	-46.7	-49.6	16.7	0.00e+00	0	40	0	173015040	64	5167
2026-01-06 07:40:40.70	61.54	12.40	-46.7	-49.5	16.8	0.00e+00	0	40	0	175112192	64	5139
2026-01-06 07:40:41.70	61.35	12.43	-46.7	-49.5	16.8	0.00e+00	0	40	0	176160768	64	5116
2026-01-06 07:40:42.69	61.17	12.47	-46.7	-49.5	16.8	0.00e+00	0	40	0	178257920	64	5152
2026-01-06 07:40:43.69	60.99	12.50	-46.5	-49.3	17.0	0.00e+00	0	40	0	180355072	64	5003
2026-01-06 07:40:44.69	60.80	12.53	-46.5	-49.3	17.0	0.00e+00	0	40	0	182452224	64	5007
2026-01-06 07:40:45.68	60.62	12.56	-46.6	-49.5	16.8	0.00e+00	0	40	0	183500800	64	5116
2026-01-06 07:40:46.68	60.43	12.59	-46.6	-49.3	17.0	0.00e+00	0	40	0	185597952	64	5038
2026-01-06 07:40:47.68	60.25	12.62	-46.6	-49.4	17.0	0.00e+00	0	40	0	187695104	64	5053
2026-01-06 07:40:48.68	60.06	12.65	-46.6	-49.3	17.0	0.00e+00	0	40	0	189792256	64	5019
2026-01-06 07:40:49.68	59.88	12.68	-46.5	-49.2	17.1	0.00e+00	0	40	0	191889408	64	4964
2026-01-06 07:40:50.67	59.69	12.71	-46.6	-49.3	17.0	0.00e+00	0	40	0	192937984	64	5013
2026-01-06 07:40:51.67	59.50	12.74	-46.6	-49.3	17.0	0.00e+00	0	40	0	195035136	64	5036
2026-01-06 07:40:52.68	59.31	12.77	-46.6	-49.4	16.9	0.00e+00	0	40	0	197132288	64	5066
2026-01-06 07:40:53.67	59.13	12.80	-46.7	-49.4	16.9	0.00e+00	0	40	0	199229440	64	5091
2026-01-06 07:40:54.67	58.94	12.83	-46.7	-49.4	16.9	0.00e+00	0	40	0	200278016	64	5086
2026-01-06 07:40:55.67	58.75	12.86	-46.5	-49.3	17.0	0.00e+00	0	40	0	202375168	64	5009
2026-01-06 07:40:56.67	58.56	12.89	-46.5	-49.2	17.1	0.00e+00	0	40	0	204472320	64	4956
2026-01-06 07:40:57.67	58.37	12.91	-46.5	-49.2	17.2	0.00e+00	0	40	0	206569472	64	4938
2026-01-06 07:40:58.66	58.18	12.94	-46.5	-49.2	17.1	0.00e+00	0	40	0	208666624	64	4962
2026-01-06 07:40:59.66	57.99	12.97	-46.5	-49.2	17.1	0.00e+00	0	40	0	209715200	64	4982
2026-01-06 07:41:00.66	57.80	13.00	-46.6	-49.4	17.0	0.00e+00	0	40	0	211812352	64	5050
2026-01-06 07:41:01.66	57.61	13.02	-46.5	-49.3	17.1	0.00e+00	0	40	0	213909504	64	4991
2026-01-06 07:41:02.65	57.42	13.05	-46.7	-49.4	16.9	0.00e+00	0	40	0	216006656	64	5086
2026-01-06 07:41:03.65	57.23	13.08	-46.7	-49.5	16.9	0.00e+00	0	40	0	218103808	64	5109
2026-01-06 07:41:04.65	57.04	13.10	-46.8	-49.6	16.7	0.00e+00	0	40	0	219152384	64	5206
2026-01-06 07:41:05.65	56.85	13.13	-46.8	-49.5	16.8	0.00e+00	0	40	0	221249536	64	5157
2026-01-06 07:41:06.64	56.65	13.15	-46.7	-49.5	16.8	0.00e+00	0	40	0	223346688	64	5143
2026-01-06 07:41:07.64	56.46	13.18	-46.8	-49.6	16.7	0.00e+00	0	40	0	225443840	64	5210
2026-01-06 07:41:08.63	56.27	13.20	-46.8	-49.6	16.7	0.00e+00	0	40	0	226492416	64	5216
2026-01-06 07:41:09.64	56.07	13.23	-46.9	-49.9	16.5	0.00e+00	0	40	0	228589568	64	5343
2026-01-06 07:41:10.63	55.88	13.25	-47.0	-49.9	16.5	0.00e+00	0	40	0	230686720	64	5345
2026-01-06 07:41:11.63	55.69	13.28	-46.9	-49.7	16.7	0.00e+00	0	40	0	232783872	64	5243
2026-01-06 07:41:12.63	55.49	13.30	-46.9	-49.7	16.7	0.00e+00	0	40	0	234881024	64	5253
2026-01-06 07:41:13.63	55.30	13.32	-46.9	-49.7	16.6	0.00e+00	0	40	0	235929600	64	5275
2026-01-06 07:41:14.63	55.10	13.35	-47.0	-49.9	16.5	0.00e+00	0	40	0	238026752	64	5342
2026-01-06 07:41:15.62	54.91	13.37	-47.0	-49.9	16.5	0.00e+00	0	40	0	240123904	64	5356
2026-01-06 07:41:16.62	54.71	13.39	-47.0	-49.8	16.5	0.00e+00	0	40	0	242221056	64	5320
2026-01-06 07:41:17.62	54.52	13.41	-46.9	-49.8	16.5	0.00e+00	0	40	0	244318208	64	5315
2026-01-06 07:41:18.62	54.32	13.44	-46.8	-49.6	16.7	0.00e+00	0	40	0	245366784	64	5196
2026-01-06 07:41:19.61	54.13	13.46	-46.8	-49.7	16.7	0.00e+00	0	40	0	247463936	64	5228
2026-01-06 07:41:20.61	53.93	13.48	-47.0	-49.9	16.5	0.00e+00	0	40	0	249561088	64	5353
2026-01-06 07:41:21.61	53.73	13.50	-47.0	-49.9	16.4	0.00e+00	0	40	0	251658240	64	5380
2026-01-06 07:41:22.61	53.54	13.52	-47.0	-49.9	16.4	0.00e+00	0	40	0	252706816	64	5375
2026-01-06 07:41:23.61	53.34	13.54	-47.0	-49.9	16.5	0.00e+00	0	40	0	254803968	64	5365
2026-01-06 07:41:24.61	53.14	13.56	-46.9	-49.8	16.5	0.00e+00	0	40	0	256901120	64	5313
2026-01-06 07:41:25.61	52.94	13.58	-47.0	-49.8	16.5	0.00e+00	0	40	0	258998272	64	5322
2026-01-06 07:41:26.60	52.74	13.60	-46.8	-49.6	16.7	0.00e+00	0	40	0	261095424	64	5207
2026-01-06 07:41:27.60	52.55	13.62	-46.8	-49.7	16.7	0.00e+00	0	40	0	262144000	64	5219
2026-01-06 07:41:28.60	52.35	13.64	-46.8	-49.6	16.8	0.00e+00	0	40	0	264241152	64	5161
2026-01-06 07:41:29.60	52.15	13.66	-46.8	-49.6	16.7	0.00e+00	0	40	0	266338304	64	5205
2026-01-06 07:41:30.60	51.95	13.67	-46.8	-49.6	16.8	0.00e+00	0	40	0	268435456	64	5172
2026-01-06 07:41:31.60	51.75	13.69	-46.8	-49.6	16.8	0.00e+00	0	40	0	270532608	64	5161
2026-01-06 07:41:32.60	51.55	13.71	-46.7	-49.5	16.8	0.00e+00	0	40	0	271581184	64	5141
2026-01-06 07:41:33.59	51.35	13.73	-46.8	-49.6	16.8	0.00e+00	0	40	0	273678336	64	5165
2026-01-06 07:41:34.59	51.15	13.74	-46.7	-49.4	16.9	0.00e+00	0	40	0	275775488	64	5092
2026-01-06 07:41:35.59	50.95	13.76	-46.5	-49.2	17.1	0.00e+00	0	40	0	277872640	64	4959
2026-01-06 07:41:36.59	50.75	13.78	-46.4	-49.1	17.2	0.00e+00	0	40	0	278921216	64	4906
2026-01-06 07:41:37.58	50.55	13.79	-46.4	-49.1	17.3	0.00e+00	0	40	0	281018368	64	4895
2026-01-06 07:41:38.58	50.35	13.81	-46.4	-49.1	17.2	0.00e+00	0	40	0	283115520	64	4905
2026-01-06 07:41:39.57	50.15	13.82	-46.5	-49.1	17.2	0.00e+00	0	40	0	285212672	64	4915
2026-01-06 07:41:40.57	49.94	13.84	-46.6	-49.3	17.0	0.00e+00	0	40	0	287309824	64	5025
2026-01-06 07:41:41.57	49.74	13.85	-46.6	-49.3	17.1	0.00e+00	0	40	0	288358400	64	5000
2026-01-06 07:41:42.57	49.54	13.86	-46.6	-49.4	16.9	0.00e+00	0	40	0	290455552	64	5064
2026-01-06 07:41:43.56	49.34	13.88	-46.6	-49.3	17.0	0.00e+00	0	40	0	292552704	64	5032
2026-01-06 07:41:44.56	49.14	13.89	-46.6	-49.4	17.0	0.00e+00	0	40	0	294649856	64	5051
2026-01-06 07:41:45.56	48.93	13.90	-46.7	-49.5	16.9	0.00e+00	0	40	0	295698432	64	5110
2026-01-06 07:41:46.55	48.73	13.92	-46.8	-49.6	16.8	0.00e+00	0	40	0	297795584	64	5161
2026-01-06 07:41:47.55	48.53	13.93	-46.7	-49.5	16.8	0.00e+00	0	40	0	299892736	64	5140
2026-01-06 07:41:48.54	48.33	13.94	-46.7	-49.5	16.9	0.00e+00	0	40	0	301989888	64	5112
2026-01-06 07:41:49.54	48.13	13.95	-46.8	-49.5	16.8	0.00e+00	0	40	0	304087040	64	5152
2026-01-06 07:41:50.53	47.92	13.96	-46.6	-49.3	17.1	0.00e+00	0	40	0	305135616	64	4989
2026-01-06 07:41:51.53	47.72	13.97	-46.6	-49.3	17.1	0.00e+00	0	40	0	307232768	64	5003
2026-01-06 07:41:52.53	47.52	13.98	-46.6	-49.3	17.1	0.00e+00	0	40	0	309329920	64	4987
2026-01-06 07:41:53.52	47.31	14.00	-46.7	-49.4	17.0	0.00e+00	0	40	0	311427072	64	5071
2026-01-06 07:41:54.52	47.11	14.00	-46.7	-49.4	17.0	0.00e+00	0	40	0	312475648	64	5083
2026-01-06 07:41:55.52	46.91	14.01	-46.6	-49.4	17.0	0.00e+00	0	40	0	314572800	64	5056
2026-01-06 07:41:56.52	46.70	14.02	-46.6	-49.4	17.0	0.00e+00	0	40	0	316669952	64	5050
2026-01-06 07:41:57.52	46.50	14.03	-46.4	-49.1	17.3	0.00e+00	0	40	0	318767104	64	4919
2026-01-06 07:41:58.51	46.29	14.04	-46.4	-49.1	17.2	0.00e+00	0	40	0	320864256	64	4913
2026-01-06 07:41:59.51	46.09	14.05	-46.5	-49.2	17.2	0.00e+00	0	40	0	321912832	64	4960
2026-01-06 07:42:00.50	45.89	14.06	-46.5	-49.2	17.1	0.00e+00	0	40	0	324009984	64	4972
2026-01-06 07:42:01.50	45.68	14.06	-46.5	-49.2	17.1	0.00e+00	0	40	0	326107136	64	4974
2026-01-06 07:42:02.50	45.48	14.07	-46.4	-49.1	17.2	0.00e+00	0	40	0	328204288	64	4903
2026-01-06 07:42:03.49	45.27	14.08	-46.5	-49.2	17.2	0.00e+00	0	40	0	330301440	64	4942
2026-01-06 07:42:04.49	45.07	14.08	-46.3	-49.0	17.3	0.00e+00	0	40	0	331350016	64	4854
2026-01-06 07:42:05.49	44.86	14.09	-46.4	-49.1	17.3	0.00e+00	0	40	0	333447168	64	4871
2026-01-06 07:42:06.49	44.66	14.09	-46.4	-49.1	17.3	0.00e+00	0	40	0	335544320	64	4880
2026-01-06 07:42:07.49	44.45	14.10	-46.4	-49.2	17.2	0.00e+00	0	40	0	337641472	64	4948
2026-01-06 07:42:08.48	44.25	14.10	-46.5	-49.2	17.1	0.00e+00	0	40	0	338690048	64	4955
2026-01-06 07:42:09.48	44.04	14.11	-46.5	-49.2	17.2	0.00e+00	0	40	0	340787200	64	4950
2026-01-06 07:42:10.48	43.84	14.11	-46.5	-49.2	17.1	0.00e+00	0	40	0	342884352	64	4964
2026-01-06 07:42:11.48	43.63	14.12	-46.5	-49.2	17.1	0.00e+00	0	40	0	344981504	64	4978
2026-01-06 07:42:12.48	43.43	14.12	-46.5	-49.2	17.1	0.00e+00	0	40	0	347078656	64	4973
2026-01-06 07:42:13.48	43.22	14.12	-46.5	-49.1	17.2	0.00e+00	0	40	0	348127232	64	4909
2026-01-06 07:42:14.47	43.02	14.13	-46.5	-49.1	17.2	0.00e+00	0	40	0	350224384	64	4911
2026-01-06 07:42:15.47	42.81	14.13	-46.5	-49.1	17.2	0.00e+00	0	40	0	352321536	64	4922
2026-01-06 07:42:16.47	42.61	14.13	-46.5	-49.2	17.2	0.00e+00	0	40	0	354418688	64	4954
2026-01-06 07:42:17.46	42.40	14.13	-46.6	-49.3	17.1	0.00e+00	0	40	0	356515840	64	5012
2026-01-06 07:42:18.46	42.20	14.13	-46.6	-49.4	17.0	0.00e+00	0	40	0	357564416	64	5059
2026-01-06 07:42:19.46	41.99	14.13	-46.5	-49.1	17.2	0.00e+00	0	40	0	359661568	64	4923
2026-01-06 07:42:20.45	41.79	14.13	-46.4	-49.1	17.2	0.00e+00	0	40	0	361758720	64	4908
2026-01-06 07:42:21.45	41.58	14.13	-46.3	-48.9	17.4	0.00e+00	0	40	0	363855872	64	4806
2026-01-06 07:42:22.45	41.37	14.13	-46.3	-49.0	17.4	0.00e+00	0	40	0	364904448	64	4829
2026-01-06 07:42:23.46	41.17	14.13	-46.4	-49.1	17.2	0.00e+00	0	40	0	367001600	64	4912
2026-01-06 07:42:24.45	40.96	14.13	-46.5	-49.3	17.1	0.00e+00	0	40	0	369098752	64	4989
2026-01-06 07:42:25.45	40.76	14.13	-46.7	-49.5	16.9	0.00e+00	0	40	0	371195904	64	5122
2026-01-06 07:42:26.45	40.55	14.13	-46.8	-49.6	16.8	0.00e+00	0	40	0	373293056	64	5179
2026-01-06 07:42:27.45	40.34	14.13	-46.8	-49.6	16.8	0.00e+00	0	40	0	374341632	64	5197
2026-01-06 07:42:28.45	40.14	14.12	-46.7	-49.5	16.8	0.00e+00	0	40	0	376438784	64	5153
2026-01-06 07:42:29.44	39.94	14.12	-46.6	-49.4	16.9	0.00e+00	0	40	0	378535936	64	5082
2026-01-06 07:42:30.44	39.73	14.12	-46.7	-49.6	16.8	0.00e+00	0	40	0	380633088	64	5166
2026-01-06 07:42:31.44	39.52	14.11	-46.8	-49.6	16.7	0.00e+00	0	40	0	382730240	64	5206
2026-01-06 07:42:32.44	39.32	14.11	-46.9	-49.8	16.6	0.00e+00	0	40	0	383778816	64	5286
2026-01-06 07:42:33.44	39.11	14.10	-46.9	-49.8	16.6	0.00e+00	0	40	0	385875968	64	5282
2026-01-06 07:42:34.43	38.91	14.10	-47.0	-49.9	16.5	0.00e+00	0	40	0	387973120	64	5371
2026-01-06 07:42:35.43	38.70	14.09	-47.0	-49.9	16.5	0.00e+00	0	40	0	390070272	64	5397
2026-01-06 07:42:36.43	38.50	14.09	-46.9	-49.7	16.6	0.00e+00	0	40	0	391118848	64	5277
2026-01-06 07:42:37.43	38.29	14.08	-46.8	-49.6	16.7	0.00e+00	0	40	0	393216000	64	5217
2026-01-06 07:42:38.43	38.09	14.08	-46.8	-49.6	16.7	0.00e+00	0	40	0	395313152	64	5180
2026-01-06 07:42:39.43	37.88	14.07	-46.8	-49.6	16.7	0.00e+00	0	40	0	397410304	64	5211
2026-01-06 07:42:40.43	37.68	14.06	-46.8	-49.6	16.7	0.00e+00	0	40	0	399507456	64	5212
2026-01-06 07:42:41.42	37.48	14.06	-46.8	-49.7	16.7	0.00e+00	0	40	0	400556032	64	5244
2026-01-06 07:42:42.42	37.27	14.05	-46.9	-49.8	16.5	0.00e+00	0	40	0	402653184	64	5331
2026-01-06 07:42:43.42	37.07	14.04	-46.9	-49.9	16.4	0.00e+00	0	40	0	404750336	64	5372
2026-01-06 07:42:44.42	36.86	14.03	-46.9	-50.0	16.4	0.00e+00	0	40	0	406847488	64	5417
2026-01-06 07:42:45.41	36.66	14.02	-47.0	-50.1	16.3	0.00e+00	0	40	0	408944640	64	5492
2026-01-06 07:42:46.41	36.46	14.01	-46.8	-49.8	16.5	0.00e+00	0	40	0	409993216	64	5319
2026-01-06 07:42:47.41	36.25	14.01	-46.7	-49.7	16.7	0.00e+00	0	40	0	412090368	64	5224
2026-01-06 07:42:48.41	36.05	14.00	-46.7	-49.7	16.7	0.00e+00	0	40	0	414187520	64	5227
2026-01-06 07:42:49.40	35.85	13.99	-46.6	-49.5	16.8	0.00e+00	0	40	0	416284672	64	5158
2026-01-06 07:42:50.40	35.64	13.97	-46.6	-49.5	16.8	0.00e+00	0	40	0	417333248	64	5130
2026-01-06 07:42:51.40	35.44	13.96	-46.6	-49.4	16.9	0.00e+00	0	40	0	419430400	64	5088
2026-01-06 07:42:52.39	35.24	13.95	-46.6	-49.5	16.9	0.00e+00	0	40	0	421527552	64	5102
2026-01-06 07:42:53.39	35.03	13.94	-46.6	-49.5	16.8	0.00e+00	0	40	0	423624704	64	5152
2026-01-06 07:42:54.39	34.83	13.93	-46.7	-49.6	16.7	0.00e+00	0	40	0	425721856	64	5213
2026-01-06 07:42:55.39	34.63	13.92	-46.7	-49.6	16.8	0.00e+00	0	40	0	426770432	64	5176
2026-01-06 07:42:56.39	34.43	13.90	-46.8	-49.7	16.7	0.00e+00	0	40	0	428867584	64	5241
2026-01-06 07:42:57.39	34.22	13.89	-46.8	-49.6	16.7	0.00e+00	0	40	0	430964736	64	5193
2026-01-06 07:42:58.39	34.02	13.88	-46.7	-49.5	16.8	0.00e+00	0	40	0	433061888	64	5151
2026-01-06 07:42:59.39	33.82	13.86	-46.6	-49.4	17.0	0.00e+00	0	40	0	435159040	64	5076
2026-01-06 07:43:00.39	33.62	13.85	-46.6	-49.4	17.0	0.00e+00	0	40	0	436207616	64	5051
2026-01-06 07:43:01.39	33.41	13.84	-46.5	-49.3	17.0	0.00e+00	0	40	0	438304768	64	5007
2026-01-06 07:43:02.38	33.22	13.82	-46.5	-49.3	17.1	0.00e+00	0	40	0	440401920	64	4997
2026-01-06 07:43:03.38	33.01	13.81	-46.5	-49.2	17.1	0.00e+00	0	40	0	442499072	64	4972
2026-01-06 07:43:04.38	32.81	13.79	-46.5	-49.3	17.1	0.00e+00	0	40	0	443547648	64	4992
2026-01-06 07:43:05.37	32.61	13.78	-46.5	-49.2	17.1	0.00e+00	0	40	0	445644800	64	4963
2026-01-06 07:43:06.37	32.41	13.76	-46.6	-49.4	17.0	0.00e+00	0	40	0	447741952	64	5063
2026-01-06 07:43:07.37	32.21	13.74	-46.6	-49.4	16.9	0.00e+00	0	40	0	449839104	64	5079
2026-01-06 07:43:08.37	32.01	13.73	-46.6	-49.5	16.9	0.00e+00	0	40	0	451936256	64	5125
2026-01-06 07:43:09.37	31.81	13.71	-46.6	-49.4	16.9	0.00e+00	0	40	0	452984832	64	5078
2026-01-06 07:43:10.37	31.61	13.69	-46.5	-49.3	17.0	0.00e+00	0	40	0	455081984	64	5029
2026-01-06 07:43:11.36	31.42	13.67	-46.5	-49.3	17.0	0.00e+00	0	40	0	457179136	64	5023
2026-01-06 07:43:12.36	31.22	13.66	-46.5	-49.3	17.0	0.00e+00	0	40	0	459276288	64	5010
2026-01-06 07:43:13.35	31.02	13.64	-46.6	-49.4	17.0	0.00e+00	0	40	0	460324864	64	5046
2026-01-06 07:43:14.35	30.82	13.62	-46.7	-49.5	16.9	0.00e+00	0	40	0	462422016	64	5110
2026-01-06 07:43:15.36	30.62	13.60	-46.7	-49.5	16.8	0.00e+00	0	40	0	464519168	64	5144
2026-01-06 07:43:16.35	30.42	13.58	-46.7	-49.5	16.8	0.00e+00	0	40	0	466616320	64	5151
2026-01-06 07:43:17.35	30.23	13.56	-46.8	-49.7	16.7	0.00e+00	0	40	0	468713472	64	5233
2026-01-06 07:43:18.35	30.03	13.54	-46.8	-49.7	16.6	0.00e+00	0	40	0	469762048	64	5270
2026-01-06 07:43:19.35	29.83	13.52	-46.9	-49.8	16.5	0.00e+00	0	40	0	471859200	64	5322
2026-01-06 07:43:20.35	29.63	13.50	-46.8	-49.7	16.6	0.00e+00	0	40	0	473956352	64	5241
2026-01-06 07:43:21.35	29.44	13.48	-46.6	-49.5	16.9	0.00e+00	0	40	0	476053504	64	5103
2026-01-06 07:43:22.35	29.24	13.46	-46.6	-49.4	16.8	0.00e+00	0	40	0	478150656	64	5096
2026-01-06 07:43:23.34	29.05	13.44	-46.6	-49.5	16.8	0.00e+00	0	40	0	479199232	64	5122
2026-01-06 07:43:24.34	28.85	13.42	-46.5	-49.4	16.8	0.00e+00	0	40	0	481296384	64	5095
2026-01-06 07:43:25.34	28.65	13.39	-46.6	-49.5	16.8	0.00e+00	0	40	0	483393536	64	5129
2026-01-06 07:43:26.34	28.46	13.37	-46.6	-49.6	16.7	0.00e+00	0	40	0	485490688	64	5189
2026-01-06 07:43:27.34	28.26	13.35	-46.7	-49.7	16.7	0.00e+00	0	40	0	487587840	64	5238
2026-01-06 07:43:28.34	28.07	13.32	-46.7	-49.7	16.6	0.00e+00	0	40	0	488636416	64	5245
2026-01-06 07:43:29.34	27.87	13.30	-46.8	-49.8	16.6	0.00e+00	0	40	0	490733568	64	5285
2026-01-06 07:43:30.33	27.68	13.28	-46.8	-49.9	16.5	0.00e+00	0	40	0	492830720	64	5341
2026-01-06 07:43:31.33	27.49	13.25	-46.8	-49.8	16.5	0.00e+00	0	40	0	494927872	64	5330
2026-01-06 07:43:32.32	27.30	13.23	-46.7	-49.6	16.7	0.00e+00	0	40	0	495976448	64	5215
2026-01-06 07:43:33.32	27.10	13.20	-46.7	-49.5	16.8	0.00e+00	0	41	0	498073600	64	5158
2026-01-06 07:43:34.32	26.91	13.18	-46.6	-49.4	16.9	0.00e+00	0	40	0	500170752	64	5096
2026-01-06 07:43:35.32	26.72	13.15	-46.6	-49.5	16.9	0.00e+00	0	40	0	502267904	64	5107
2026-01-06 07:43:36.31	26.53	13.13	-46.6	-49.5	16.8	0.00e+00	0	40	0	504365056	64	5138
2026-01-06 07:43:37.31	26.34	13.10	-46.7	-49.6	16.7	0.00e+00	0	40	0	505413632	64	5216
2026-01-06 07:43:38.31	26.14	13.08	-46.7	-49.6	16.7	0.00e+00	0	40	0	507510784	64	5192
2026-01-06 07:43:39.31	25.95	13.05	-46.6	-49.5	16.8	0.00e+00	0	40	0	509607936	64	5138
2026-01-06 07:43:40.31	25.76	13.02	-46.6	-49.7	16.6	0.00e+00	0	40	0	511705088	64	5227
2026-01-06 07:43:41.31	25.57	13.00	-46.6	-49.7	16.6	0.00e+00	0	40	0	512753664	64	5240
2026-01-06 07:43:42.30	25.38	12.97	-46.5	-49.5	16.8	0.00e+00	0	40	0	514850816	64	5137
2026-01-06 07:43:43.30	25.19	12.94	-46.4	-49.5	16.8	0.00e+00	0	40	0	516947968	64	5118
2026-01-06 07:43:44.30	25.00	12.92	-46.4	-49.4	16.9	0.00e+00	0	40	0	519045120	64	5056
2026-01-06 07:43:45.30	24.82	12.89	-46.3	-49.3	17.0	0.00e+00	0	40	0	521142272	64	5006
2026-01-06 07:43:46.29	24.63	12.86	-46.5	-49.4	16.9	0.00e+00	0	41	0	522190848	64	5077
2026-01-06 07:43:47.29	24.44	12.83	-46.4	-49.4	16.9	0.00e+00	0	41	0	524288000	64	5045
2026-01-06 07:43:48.29	24.25	12.80	-46.4	-49.2	17.1	0.00e+00	0	40	0	526385152	64	4979
2026-01-06 07:43:49.29	24.06	12.77	-46.5	-49.3	17.0	0.00e+00	0	40	0	528482304	64	4988
2026-01-06 07:43:50.29	23.88	12.74	-46.5	-49.3	16.9	0.00e+00	0	40	0	529530880	64	5030
2026-01-06 07:43:51.28	23.69	12.71	-46.4	-49.2	17.1	0.00e+00	0	41	0	531628032	64	4969
2026-01-06 07:43:52.28	23.51	12.68	-46.4	-49.2	17.0	0.00e+00	0	41	0	533725184	64	4951
2026-01-06 07:43:53.28	23.32	12.65	-46.5	-49.3	17.1	0.00e+00	0	40	0	535822336	64	4984
2026-01-06 07:43:54.28	23.13	12.62	-46.4	-49.1	17.2	0.00e+00	0	40	0	537919488	64	4874
2026-01-06 07:43:55.27	22.95	12.59	-46.3	-49.0	17.3	0.00e+00	0	41	0	538968064	64	4847
2026-01-06 07:43:56.27	22.77	12.56	-46.2	-48.9	17.3	0.00e+00	0	41	0	541065216	64	4795
2026-01-06 07:43:57.27	22.58	12.53	-46.3	-49.0	17.3	0.00e+00	0	41	0	543162368	64	4860
2026-01-06 07:43:58.27	22.40	12.50	-46.3	-49.0	17.3	0.00e+00	0	41	0	545259520	64	4853
2026-01-06 07:43:59.26	22.22	12.47	-46.3	-49.1	17.2	0.00e+00	0	40	0	547356672	64	4893
2026-01-06 07:44:00.26	22.03	12.44	-46.3	-49.2	17.1	0.00e+00	0	40	0	548405248	64	4954
2026-01-06 07:44:01.26	21.85	12.40	-46.3	-49.3	17.0	0.00e+00	0	40	0	550502400	64	5001
2026-01-06 07:44:02.26	21.67	12.37	-46.3	-49.3	17.0	0.00e+00	0	41	0	552599552	64	4997
2026-01-06 07:44:03.25	21.49	12.34	-46.2	-49.3	17.0	0.00e+00	0	41	0	554696704	64	5012
2026-01-06 07:44:04.25	21.31	12.31	-46.1	-49.2	17.1	0.00e+00	0	41	0	556793856	64	4970
2026-01-06 07:44:05.24	21.13	12.27	-46.1	-49.2	17.0	0.00e+00	0	40	0	557842432	64	4980
2026-01-06 07:44:06.24	20.95	12.24	-46.0	-49.2	17.1	0.00e+00	0	40	0	559939584	64	4949
2026-01-06 07:44:07.24	20.77	12.21	-46.0	-49.2	17.1	0.00e+00	0	41	0	562036736	64	4972
2026-01-06 07:44:08.23	20.59	12.17	-45.9	-49.2	17.2	0.00e+00	0	40	0	564133888	63	5252
2026-01-06 07:44:09.23	20.41	12.14	-45.8	-49.0	17.3	0.00e+00	0	40	0	565182464	63	5125
2026-01-06 07:44:10.23	20.23	12.11	-45.8	-49.0	17.4	0.00e+00	0	40	0	567279616	63	5112
2026-01-06 07:44:11.22	20.05	12.07	-45.8	-48.9	17.4	0.00e+00	0	41	0	569376768	63	5083
2026-01-06 07:44:12.22	19.87	12.04	-45.8	-49.0	17.4	0.00e+00	0	41	0	571473920	63	5101
2026-01-06 07:44:13.21	19.70	12.00	-45.9	-49.1	17.3	0.00e+00	0	40	0	573571072	63	5175
2026-01-06 07:44:14.21	19.52	11.97	-46.0	-49.1	17.3	0.00e+00	0	41	0	574619648	63	5183
2026-01-06 07:44:15.21	19.34	11.93	-46.2	-49.2	17.2	0.00e+00	0	40	0	576716800	63	5237
2026-01-06 07:44:16.21	19.17	11.90	-46.2	-49.2	17.2	0.00e+00	0	40	0	578813952	63	5248
2026-01-06 07:44:17.21	18.99	11.86	-46.3	-49.3	17.1	0.00e+00	0	40	0	580911104	63	5282
2026-01-06 07:44:18.21	18.82	11.82	-46.4	-49.4	17.0	0.00e+00	0	40	0	581959680	63	5354
2026-01-06 07:44:19.21	18.64	11.79	-46.4	-49.3	17.0	0.00e+00	0	41	0	584056832	63	5339
2026-01-06 07:44:20.20	18.47	11.75	-46.5	-49.4	17.0	0.00e+00	0	41	0	586153984	63	5359
2026-01-06 07:44:21.20	18.29	11.71	-46.6	-49.5	16.9	0.00e+00	0	41	0	588251136	63	5435
2026-01-06 07:44:22.19	18.12	11.68	-46.6	-49.5	16.8	0.00e+00	0	41	0	590348288	64	5145
2026-01-06 07:44:23.19	17.95	11.64	-46.7	-49.7	16.6	0.00e+00	0	40	0	591396864	64	5224
2026-01-06 07:44:24.19	17.78	11.60	-46.9	-49.8	16.5	0.00e+00	0	41	0	593494016	64	5323
2026-01-06 07:44:25.19	17.60	11.57	-46.9	-49.8	16.5	0.00e+00	0	40	0	595591168	64	5336
2026-01-06 07:44:26.19	17.43	11.53	-47.0	-50.0	16.3	0.00e+00	0	41	0	597688320	64	5462
2026-01-06 07:44:27.18	17.26	11.49	-47.0	-50.0	16.3	0.00e+00	0	41	0	598736896	64	5449
2026-01-06 07:44:28.18	17.09	11.45	-46.9	-50.0	16.3	0.00e+00	0	41	0	600834048	64	5455
2026-01-06 07:44:29.17	16.92	11.42	-46.9	-50.2	16.2	0.00e+00	0	41	0	602931200	64	5537
2026-01-06 07:44:30.17	16.75	11.38	-46.9	-50.2	16.1	0.00e+00	0	40	0	605028352	64	5555
2026-01-06 07:44:31.17	16.58	11.34	-46.9	-50.2	16.1	0.00e+00	0	40	0	607125504	64	5582
2026-01-06 07:44:32.17	16.41	11.30	-46.9	-50.4	15.9	0.00e+00	0	40	0	608174080	64	5657
2026-01-06 07:44:33.16	16.24	11.26	-46.9	-50.5	15.9	0.00e+00	0	40	0	610271232	64	5726
2026-01-06 07:44:34.16	16.08	11.22	-47.0	-50.5	15.8	0.00e+00	0	40	0	612368384	64	5781
2026-01-06 07:44:35.16	15.91	11.18	-46.9	-50.6	15.8	0.00e+00	0	41	0	614465536	64	5797
2026-01-06 07:44:36.16	15.74	11.14	-46.9	-50.5	15.8	0.00e+00	0	40	0	616562688	64	5779
2026-01-06 07:44:37.16	15.57	11.10	-46.9	-50.6	15.8	0.00e+00	0	41	0	617611264	64	5799
2026-01-06 07:44:38.15	15.41	11.06	-47.0	-50.7	15.6	0.00e+00	0	40	0	619708416	64	5879
2026-01-06 07:44:39.15	15.24	11.02	-47.0	-50.8	15.5	0.00e+00	0	40	0	621805568	64	5947
2026-01-06 07:44:40.15	15.08	10.98	-47.2	-51.0	15.3	0.00e+00	0	40	0	623902720	65	5765
2026-01-06 07:44:41.14	14.91	10.94	-47.2	-51.1	15.2	0.00e+00	0	41	0	624951296	65	5813
2026-01-06 07:44:42.14	14.75	10.90	-47.2	-51.0	15.3	0.00e+00	0	41	0	627048448	65	5787
2026-01-06 07:44:43.14	14.58	10.86	-47.3	-51.1	15.3	0.00e+00	0	41	0	629145600	65	5800
2026-01-06 07:44:44.14	14.42	10.82	-47.4	-51.2	15.1	0.00e+00	0	40	0	631242752	65	5910
2026-01-06 07:44:45.13	14.26	10.78	-47.4	-51.3	15.0	0.00e+00	0	41	0	633339904	65	5966
2026-01-06 07:44:46.13	14.10	10.74	-47.5	-51.3	15.0	0.00e+00	0	40	0	634388480	65	5954
2026-01-06 07:44:47.13	13.93	10.70	-47.8	-51.5	14.8	0.00e+00	0	40	0	636485632	66	5745
2026-01-06 07:44:48.13	13.77	10.66	-47.8	-51.6	14.7	0.00e+00	0	41	0	638582784	66	5810
2026-01-06 07:44:49.12	13.61	10.62	-47.9	-51.6	14.7	1.50e-06	0	41	0	640679936	66	5838
2026-01-06 07:44:50.12	13.45	10.58	-47.9	-51.6	14.8	0.00e+00	0	41	0	641728512	66	5798
2026-01-06 07:44:51.12	13.29	10.53	-48.0	-51.7	14.6	0.00e+00	0	41	0	643825664	66	5918
2026-01-06 07:44:52.12	13.13	10.49	-47.9	-51.7	14.6	7.00e-07	0	41	0	645922816	66	5892
2026-01-06 07:44:53.11	12.97	10.45	-48.0	-51.8	14.5	1.50e-06	0	41	0	648019968	66	5959
2026-01-06 07:44:54.11	12.81	10.41	-48.0	-51.8	14.5	0.00e+00	0	40	0	650117120	66	5962
2026-01-06 07:44:55.11	12.65	10.37	-48.1	-51.9	14.4	0.00e+00	0	41	0	651165696	66	6049
2026-01-06 07:44:56.11	12.50	10.32	-48.1	-52.0	14.3	7.00e-07	0	41	0	653262848	66	6118
2026-01-06 07:44:57.10	12.34	10.28	-48.2	-52.2	14.1	0.00e+00	0	40	0	655360000	67	5922
2026-01-06 07:44:58.10	12.18	10.24	-48.2	-52.5	13.9	7.00e-07	0	41	0	657457152	67	6065
2026-01-06 07:44:59.10	12.03	10.19	-48.2	-52.6	13.7	7.60e-06	0	40	0	659554304	67	6144
2026-01-06 07:45:00.10	11.87	10.15	-48.1	-52.5	13.8	2.20e-06	0	40	0	660602880	67	6098
2026-01-06 07:45:01.10	11.71	10.11	-48.0	-52.6	13.8	2.20e-06	0	41	0	662700032	67	6147
2026-01-06 07:45:02.09	11.56	10.07	-47.9	-52.6	13.7	7.60e-06	0	41	0	664797184	67	6159
2026-01-06 07:45:03.09	11.40	10.02	-47.7	-52.6	13.7	6.10e-06	0	40	0	666894336	67	6165
2026-01-06 07:45:04.09	11.25	9.98	-47.6	-52.5	13.8	5.30e-06	0	41	0	668991488	67	6088
2026-01-06 07:45:05.09	11.10	9.93	-47.5	-52.5	13.8	3.80e-06	0	41	0	670040064	67	6124
2026-01-06 07:45:06.09	10.94	9.89	-47.4	-52.5	13.8	3.80e-06	0	41	0	672137216	67	6117
2026-01-06 07:45:07.09	10.79	9.85	-47.4	-52.7	13.6	6.80e-06	0	41	0	674234368	66	6641
2026-01-06 07:45:08.08	10.64	9.80	-47.3	-52.7	13.6	5.30e-06	0	41	0	676331520	66	6580
2026-01-06 07:45:09.09	10.49	9.76	-47.2	-52.6	13.7	5.30e-06	0	41	0	677380096	66	6544
2026-01-06 07:45:10.08	10.34	9.71	-47.0	-52.6	13.7	4.50e-06	0	41	0	679477248	66	6565
2026-01-06 07:45:11.08	10.18	9.67	-46.9	-52.7	13.6	1.37e-05	0	41	0	681574400	65	7008
2026-01-06 07:45:12.08	10.03	9.63	-46.9	-52.7	13.6	8.30e-06	0	41	0	683671552	65	6993
2026-01-06 07:45:13.07	9.88	9.58	-46.9	-52.8	13.5	6.10e-06	0	41	0	685768704	65	7060
2026-01-06 07:45:14.07	9.73	9.54	-47.0	-52.8	13.5	9.10e-06	0	41	0	686817280	65	7052
2026-01-06 07:45:15.07	9.59	9.49	-47.1	-52.9	13.4	1.37e-05	0	41	0	688914432	65	7173
2026-01-06 07:45:16.07	9.44	9.45	-47.1	-52.8	13.5	1.22e-05	0	41	0	691011584	65	7065
2026-01-06 07:45:17.06	9.29	9.40	-47.3	-52.9	13.4	9.90e-06	0	41	0	693108736	65	7161
2026-01-06 07:45:18.07	9.14	9.36	-47.4	-52.8	13.5	9.90e-06	0	41	0	694157312	65	7050
2026-01-06 07:45:19.07	8.99	9.31	-47.6	-52.8	13.4	1.06e-05	0	41	0	696254464	65	7120
2026-01-06 07:45:20.06	8.85	9.27	-47.6	-52.8	13.5	1.37e-05	0	41	0	698351616	65	7048
2026-01-06 07:45:21.06	8.70	9.22	-47.8	-52.9	13.4	1.06e-05	0	41	0	700448768	66	6775
2026-01-06 07:45:22.06	8.56	9.18	-47.8	-52.9	13.3	1.67e-05	0	41	0	702545920	66	6798
2026-01-06 07:45:23.06	8.41	9.13	-47.8	-52.7	13.6	8.30e-06	0	41	0	703594496	66	6601
2026-01-06 07:45:24.05	8.27	9.08	-47.9	-52.9	13.4	1.44e-05	0	41	0	705691648	66	6758
2026-01-06 07:45:25.05	8.12	9.04	-48.0	-52.9	13.4	1.83e-05	0	40	0	707788800	66	6735
2026-01-06 07:45:26.05	7.98	8.99	-50.2	-64.8	4.1	1.44e-05	0	41	0	709885952	71	19914
2026-01-06 07:45:27.05	7.83	8.95	-50.6	-67.8	3.8	1.49e+00	0	41	104	709885952	72	26532
2026-01-06 07:45:28.04	7.69	8.90	-51.8	-67.9	3.8	1.49e+00	0	41	104	709885952	74	23946
2026-01-06 07:45:29.04	7.55	8.85	-51.9	-68.0	3.8	1.49e+00	0	41	104	709885952	74	24180
2026-01-06 07:45:30.04	7.41	8.81	-52.8	-68.0	3.8	1.49e+00	0	41	104	709885952	76	21705
2026-01-06 07:45:31.04	7.27	8.76	-52.6	-68.0	3.8	1.49e+00	0	41	104	709885952	76	21735
2026-01-06 07:45:32.04	7.12	8.72	-52.8	-68.2	3.8	1.49e+00	0	41	104	709885952	76	22060
2026-01-06 07:45:33.04	6.98	8.67	-52.6	-68.2	3.8	1.49e+00	0	41	104	709885952	76	22055
2026-01-06 07:45:34.04	6.84	8.62	-52.9	-68.2	3.8	1.49e+00	0	41	104	709885952	76	22148
2026-01-06 07:45:35.03	6.70	8.58	-52.5	-68.2	3.8	1.49e+00	0	41	104	709885952	76	22149
2026-01-06 07:45:36.03	6.56	8.53	-52.9	-68.2	3.8	1.49e+00	0	41	104	709885952	76	22210
2026-01-06 07:45:37.03	6.43	8.48	-53.0	-68.3	3.8	1.49e+00	0	41	104	709885952	76	22359
2026-01-06 07:45:38.03	6.29	8.44	-52.9	-68.3	3.8	1.49e+00	0	41	104	709885952	76	22298
2026-01-06 07:45:39.03	6.15	8.39	-53.1	-68.3	3.8	1.49e+00	0	41	104	709885952	76	22335
2026-01-06 07:45:40.03	6.01	8.34	-52.9	-68.3	3.8	1.49e+00	0	41	104	709885952	76	22288
2026-01-06 07:45:41.02	5.88	8.30	-53.0	-68.3	3.8	1.49e+00	0	41	104	709885952	76	22328
2026-01-06 07:45:42.02	5.74	8.25	-53.1	-68.3	3.8	1.49e+00	0	41	104	709885952	76	22317
2026-01-06 07:45:43.02	5.60	8.20	-53.0	-68.2	3.8	1.49e+00	0	41	104	709885952	77	21011
2026-01-06 07:45:44.02	5.47	8.15	-52.9	-68.3	3.8	1.49e+00	0	41	104	709885952	77	21045
2026-01-06 07:45:45.02	5.33	8.11	-53.0	-68.3	3.8	1.49e+00	0	40	104	709885952	77	21061
2026-01-06 07:45:46.01	5.20	8.06	-53.0	-68.3	3.8	1.49e+00	0	41	104	709885952	77	21021
2026-01-06 07:45:47.01	5.06	8.01	-53.1	-68.2	3.8	1.49e+00	0	41	104	709885952	77	21017
2026-01-06 07:45:48.01	4.93	7.96	-53.1	-68.2	3.8	1.49e+00	0	41	104	709885952	77	20978
2026-01-06 07:45:49.01	4.80	7.92	-53.1	-68.2	3.8	1.49e+00	0	41	104	709885952	77	20960
2026-01-06 07:45:50.00	4.66	7.87	-53.0	-68.2	3.8	1.49e+00	0	41	104	709885952	77	20976
2026-01-06 07:45:51.01	4.53	7.82	-53.1	-68.2	3.8	1.49e+00	0	41	104	709885952	77	20973
2026-01-06 07:45:52.00	4.40	7.77	-53.0	-68.2	3.8	1.49e+00	0	41	104	709885952	77	21001
2026-01-06 07:45:53.00	4.27	7.73	-52.7	-68.2	3.8	1.49e+00	0	41	104	709885952	77	20866
2026-01-06 07:45:54.00	4.14	7.68	-52.7	-68.2	3.8	1.49e+00	0	41	104	709885952	77	20880
2026-01-06 07:45:55.00	4.00	7.63	-52.7	-68.2	3.8	1.49e+00	0	41	104	709885952	77	20844
2026-01-06 07:45:55.99	3.88	7.58	-52.8	-68.2	3.8	1.49e+00	0	41	104	709885952	77	20939
2026-01-06 07:45:56.99	3.75	7.53	-52.7	-68.2	3.8	1.49e+00	0	41	104	709885952	77	20885
2026-01-06 07:45:57.99	3.62	7.49	-52.7	-68.2	3.8	1.49e+00	0	41	104	709885952	77	20836
2026-01-06 07:45:58.99	3.49	7.44	-52.7	-68.2	3.8	1.49e+00	0	41	104	709885952	77	20841
2026-01-06 07:45:59.98	3.36	7.39	-52.7	-68.2	3.8	1.49e+00	0	41	104	709885952	77	20868
2026-01-06 07:46:00.98	3.23	7.34	-52.7	-68.2	3.8	1.49e+00	0	41	104	709885952	77	20796
2026-01-06 07:46:01.98	3.10	7.29	-52.7	-68.2	3.8	1.49e+00	0	41	104	709885952	77	20809
2026-01-06 07:46:02.98	2.98	7.25	-52.7	-68.2	3.8	1.49e+00	0	41	104	709885952	77	20856
2026-01-06 07:46:03.97	2.85	7.20	-52.7	-68.2	3.8	1.49e+00	0	41	104	709885952	77	20892
2026-01-06 07:46:04.97	2.72	7.15	-52.7	-68.2	3.8	1.49e+00	0	41	104	709885952	77	20843
2026-01-06 07:46:05.97	2.60	7.10	-52.7	-68.2	3.8	1.49e+00	0	41	104	709885952	77	20973
2026-01-06 07:46:06.97	2.47	7.05	-52.7	-68.2	3.8	1.49e+00	0	41	104	709885952	77	20910
2026-01-06 07:46:07.97	2.35	7.00	-52.7	-68.2	3.8	1.49e+00	0	41	104	709885952	77	20820
2026-01-06 07:46:08.96	2.22	6.96	-52.7	-68.2	3.8	1.49e+00	0	41	104	709885952	77	20870
2026-01-06 07:46:09.96	2.10	6.91	-52.7	-68.2	3.8	1.49e+00	0	41	104	709885952	77	20839
2026-01-06 07:46:10.96	1.97	6.86	-52.7	-68.2	3.8	1.49e+00	0	41	104	709885952	77	20885
2026-01-06 07:46:11.95	1.85	6.81	-52.7	-68.2	3.8	1.49e+00	0	41	104	709885952	77	20911
2026-01-06 07:46:12.96	1.73	6.76	-52.7	-68.2	3.8	1.49e+00	0	41	104	709885952	77	20848
2026-01-06 07:46:13.95	1.61	6.71	-52.7	-68.2	3.8	1.49e+00	0	41	104	709885952	77	20897
2026-01-06 07:46:14.95	1.48	6.66	-52.7	-68.2	3.8	1.49e+00	0	41	104	709885952	77	20835
2026-01-06 07:46:15.95	1.36	6.62	-52.7	-68.2	3.8	1.49e+00	0	41	104	709885952	77	20792
2026-01-06 07:46:16.94	1.24	6.57	-52.7	-68.2	3.8	1.49e+00	0	41	104	709885952	77	20883
2026-01-06 07:46:17.94	1.12	6.52	-52.7	-68.2	3.8	1.49e+00	0	41	104	709885952	77	20867
2026-01-06 07:46:18.94	1.00	6.47	-52.7	-68.2	3.8	1.49e+00	0	41	104	709885952	77	20838
2026-01-06 07:46:19.94	0.88	6.42	-52.7	-68.2	3.8	1.49e+00	0	41	104	709885952	77	20800
2026-01-06 07:46:20.94	0.76	6.37	-52.7	-68.2	3.8	1.49e+00	0	41	104	709885952	77	20865
2026-01-06 07:46:21.94	0.64	6.32	-52.7	-68.2	3.8	1.49e+00	0	41	104	709885952	77	20845
2026-01-06 07:46:22.93	0.52	6.27	-52.7	-68.2	3.8	1.49e+00	0	41	104	709885952	77	20790
2026-01-06 07:46:23.93	0.40	6.22	-52.7	-68.2	3.8	1.49e+00	0	41	104	709885952	77	20808
2026-01-06 07:46:24.93	0.29	6.18	-52.7	-68.2	3.8	1.49e+00	0	41	104	709885952	77	20828
2026-01-06 07:46:25.92	0.17	6.13	-52.7	-68.1	3.8	1.49e+00	0	41	104	709885952	77	20723
2026-01-06 07:46:26.92	0.05	6.08	-52.7	-68.2	3.8	1.49e+00	0	41	104	709885952	77	20832
2026-01-06 07:46:27.92	359.93	6.03	-52.7	-68.2	3.8	1.49e+00	0	41	104	709885952	77	20816
2026-01-06 07:46:28.92	359.82	5.98	-52.7	-68.2	3.8	1.49e+00	0	41	104	709885952	77	20809
2026-01-06 07:46:29.92	359.70	5.93	-52.7	-68.2	3.8	1.49e+00	0	41	104	709885952	77	20811
2026-01-06 07:46:30.92	359.59	5.88	-52.7	-68.2	3.8	1.49e+00	0	41	104	709885952	77	20809
2026-01-06 07:46:31.91	359.47	5.83	-52.7	-68.2	3.8	1.49e+00	0	41	104	709885952	77	20874
2026-01-06 07:46:32.91	359.36	5.78	-52.7	-68.2	3.8	1.49e+00	0	41	104	709885952	77	20940
2026-01-06 07:46:33.91	359.24	5.73	-52.7	-68.2	3.8	1.49e+00	0	41	104	709885952	77	20913
2026-01-06 07:46:34.91	359.13	5.69	-52.7	-68.2	3.8	1.49e+00	0	41	104	709885952	77	20842
2026-01-06 07:46:35.91	359.02	5.64	-52.7	-68.1	3.8	1.49e+00	0	41	104	709885952	77	20767
2026-01-06 07:46:36.91	358.90	5.59	-52.7	-68.2	3.8	1.49e+00	0	41	104	709885952	77	20919
2026-01-06 07:46:37.90	358.79	5.54	-52.7	-68.2	3.8	1.49e+00	0	41	104	709885952	77	20819
2026-01-06 07:46:38.90	358.68	5.49	-52.7	-68.1	3.8	1.49e+00	0	41	104	709885952	77	20738
2026-01-06 07:46:39.90	358.57	5.44	-52.7	-68.2	3.8	1.49e+00	0	41	104	709885952	77	20844
2026-01-06 07:46:40.89	358.45	5.39	-52.7	-68.2	3.8	1.49e+00	0	41	104	709885952	77	20822
2026-01-06 07:46:41.89	358.34	5.34	-52.7	-68.1	3.8	1.49e+00	0	41	104	709885952	77	20733
2026-01-06 07:46:42.89	358.23	5.29	-52.7	-68.2	3.8	1.49e+00	0	41	104	709885952	77	20874
2026-01-06 07:46:43.89	358.12	5.24	-52.7	-68.2	3.8	1.49e+00	0	41	104	709885952	77	20865
2026-01-06 07:46:44.88	358.01	5.19	-52.7	-68.2	3.8	1.49e+00	0	41	104	709885952	77	20841
2026-01-06 07:46:45.88	357.90	5.14	-52.7	-68.2	3.8	1.49e+00	0	41	104	709885952	77	20862
2026-01-06 07:46:46.88	357.79	5.10	-52.8	-68.2	3.8	1.49e+00	0	41	104	709885952	77	20881
2026-01-06 07:46:47.86	357.69	5.05	-52.7	-68.2	3.8	1.49e+00	0	41	104	709885952	77	20865
2026-01-06 07:46:48.85	357.58	5.00	-52.7	-68.2	3.8	1.49e+00	0	41	104	709885952	77	20899

#Closed at: 2026-01-06 07:46:49
#Recorded file [709 MB]: D:/Data/31040_260106_103754.dat