passes_logs/2026/01/06/T1/T1__20260106_084806_KHAYYAM_rec.log

#Pass ID: 20260106_084806_KHAYYAM
#Satellite: KHAYYAM
#Configuration: KHAYYAM_480M
#almurnet v.1.7.20251203
#Start time: 2026-01-06 08:48:07

#Version: 2.0.20230620
#Station: T1
#Location: 37.570604 lon 55.790049 lat
#TLE: 1 53370U 22096A   26005.50641227  .00007567  00000+0  30852-3 0  9992
#TLE: 2 53370  97.3566 272.6856 0001238  87.7352 272.4028 15.24728297189794

#Time	Az	El	Level	Level2	SNR	BER	BlckErr	Temp	State	Recorded	gain1	gain2
2026-01-06 08:48:07.72	201.33	5.11	-54.6	-59.4	3.5	0.00e+00	0	45	0	0	81	24074
2026-01-06 08:48:08.71	201.43	5.18	-54.6	-59.3	3.7	0.00e+00	0	46	104	0	80	25379
2026-01-06 08:48:09.72	201.53	5.26	-54.6	-59.4	3.7	0.00e+00	0	45	104	0	80	25403
2026-01-06 08:48:10.72	201.63	5.33	-54.6	-59.4	3.7	0.00e+00	0	46	104	0	80	25420
2026-01-06 08:48:11.72	201.73	5.40	-54.6	-59.4	3.7	0.00e+00	0	46	104	0	80	25469
2026-01-06 08:48:12.72	201.84	5.48	-54.6	-59.4	3.7	0.00e+00	0	46	104	0	80	25500
2026-01-06 08:48:13.72	201.94	5.55	-54.6	-59.3	3.7	0.00e+00	0	46	104	0	80	25375
2026-01-06 08:48:14.72	202.04	5.62	-54.6	-59.4	3.7	0.00e+00	0	46	104	0	80	25550
2026-01-06 08:48:15.73	202.15	5.70	-54.6	-59.4	3.7	0.00e+00	0	46	104	0	80	25536
2026-01-06 08:48:16.73	202.25	5.77	-54.6	-59.4	3.6	0.00e+00	0	46	104	0	80	25489
2026-01-06 08:48:17.73	202.36	5.85	-54.6	-59.4	3.7	0.00e+00	0	46	104	0	80	25579
2026-01-06 08:48:18.73	202.47	5.92	-54.6	-59.4	3.7	0.00e+00	0	46	104	0	80	25527
2026-01-06 08:48:19.73	202.57	6.00	-54.6	-59.4	3.7	0.00e+00	0	46	104	0	80	25458
2026-01-06 08:48:20.74	202.68	6.08	-54.6	-59.4	3.7	0.00e+00	0	46	104	0	80	25467
2026-01-06 08:48:21.74	202.79	6.15	-54.6	-59.4	3.7	0.00e+00	0	46	104	0	80	25519
2026-01-06 08:48:22.74	202.90	6.23	-54.6	-59.4	3.7	0.00e+00	0	47	104	0	80	25545
2026-01-06 08:48:23.74	203.01	6.30	-54.6	-59.4	3.7	0.00e+00	0	47	104	0	80	25523
2026-01-06 08:48:24.75	203.12	6.38	-54.6	-59.4	3.7	0.00e+00	0	47	104	0	80	25618
2026-01-06 08:48:25.75	203.23	6.46	-54.6	-59.4	3.7	0.00e+00	0	47	104	0	80	25571
2026-01-06 08:48:26.75	203.35	6.53	-54.6	-59.4	3.7	0.00e+00	0	47	104	0	80	25621
2026-01-06 08:48:27.75	203.46	6.61	-54.6	-59.4	3.7	0.00e+00	0	47	104	0	80	25628
2026-01-06 08:48:28.76	203.57	6.69	-54.6	-59.4	3.7	0.00e+00	0	47	104	0	80	25534
2026-01-06 08:48:29.76	203.69	6.77	-54.6	-59.4	3.7	0.00e+00	0	47	104	0	80	25558
2026-01-06 08:48:30.76	203.80	6.85	-54.6	-59.4	3.7	0.00e+00	0	47	104	0	80	25486
2026-01-06 08:48:31.77	203.92	6.92	-54.6	-59.4	3.7	0.00e+00	0	47	104	0	80	25547
2026-01-06 08:48:32.77	204.04	7.00	-54.6	-59.4	3.7	0.00e+00	0	47	104	0	80	25459
2026-01-06 08:48:33.77	204.16	7.08	-54.6	-59.4	3.7	0.00e+00	0	47	104	0	80	25462
2026-01-06 08:48:34.77	204.27	7.16	-54.6	-59.4	3.7	0.00e+00	0	47	104	0	80	25467
2026-01-06 08:48:35.76	204.39	7.24	-54.6	-59.4	3.7	0.00e+00	0	48	104	0	80	25490
2026-01-06 08:48:36.76	204.51	7.32	-54.6	-59.4	3.7	0.00e+00	0	48	104	0	80	25506
2026-01-06 08:48:37.76	204.63	7.40	-54.6	-59.4	3.7	0.00e+00	0	47	104	0	80	25440
2026-01-06 08:48:38.76	204.75	7.48	-54.6	-59.4	3.7	0.00e+00	0	48	104	0	80	25527
2026-01-06 08:48:39.76	204.88	7.56	-54.6	-59.4	3.7	0.00e+00	0	48	104	0	80	25472
2026-01-06 08:48:40.76	205.00	7.64	-54.6	-59.4	3.7	0.00e+00	0	48	104	0	80	25565
2026-01-06 08:48:41.76	205.12	7.72	-54.6	-59.4	3.7	0.00e+00	0	48	104	0	80	25472
2026-01-06 08:48:42.76	205.25	7.80	-54.6	-59.4	3.7	0.00e+00	0	48	104	0	80	25475
2026-01-06 08:48:43.77	205.38	7.88	-54.6	-59.4	3.7	0.00e+00	0	48	104	0	80	25526
2026-01-06 08:48:44.76	205.50	7.96	-54.6	-59.4	3.7	0.00e+00	0	48	104	0	80	25545
2026-01-06 08:48:45.76	205.63	8.04	-54.6	-59.4	3.7	0.00e+00	0	48	104	0	80	25526
2026-01-06 08:48:46.76	205.76	8.13	-54.6	-59.4	3.7	0.00e+00	0	48	104	0	80	25588
2026-01-06 08:48:47.76	205.89	8.21	-54.6	-59.4	3.7	0.00e+00	0	48	104	0	80	25603
2026-01-06 08:48:48.76	206.02	8.29	-54.6	-59.4	3.7	0.00e+00	0	48	104	0	80	25426
2026-01-06 08:48:49.76	206.15	8.37	-54.6	-59.4	3.7	0.00e+00	0	48	104	0	80	25517
2026-01-06 08:48:50.76	206.28	8.46	-54.6	-59.4	3.7	0.00e+00	0	48	104	0	80	25612
2026-01-06 08:48:51.77	206.41	8.54	-54.6	-59.4	3.7	0.00e+00	0	48	104	0	80	25510
2026-01-06 08:48:52.76	206.54	8.62	-54.6	-59.4	3.7	0.00e+00	0	48	104	0	80	25455
2026-01-06 08:48:53.76	206.68	8.71	-54.6	-59.4	3.7	0.00e+00	0	48	104	0	80	25542
2026-01-06 08:48:54.76	206.81	8.79	-54.6	-59.4	3.7	0.00e+00	0	48	104	0	80	25524
2026-01-06 08:48:55.76	206.95	8.87	-54.6	-59.4	3.7	0.00e+00	0	48	104	0	80	25533
2026-01-06 08:48:56.76	207.09	8.96	-54.6	-59.4	3.7	0.00e+00	0	48	104	0	80	25508
2026-01-06 08:48:57.77	207.23	9.04	-54.6	-59.4	3.7	0.00e+00	0	48	104	0	80	25461
2026-01-06 08:48:58.77	207.37	9.13	-54.8	-59.5	3.7	0.00e+00	0	48	104	0	80	25940
2026-01-06 08:48:59.77	207.51	9.21	-55.1	-59.8	3.7	0.00e+00	0	48	104	0	80	26653
2026-01-06 08:49:00.77	207.65	9.30	-54.5	-59.3	3.7	0.00e+00	0	48	104	0	80	25233
2026-01-06 08:49:01.77	207.79	9.39	-54.7	-59.4	3.7	0.00e+00	0	49	104	0	80	25575
2026-01-06 08:49:02.77	207.94	9.47	-55.4	-60.1	3.7	0.00e+00	0	49	104	0	81	26014
2026-01-06 08:49:03.76	208.08	9.56	-55.2	-59.9	3.7	0.00e+00	0	49	104	0	81	25475
2026-01-06 08:49:04.76	208.22	9.64	-55.2	-59.8	3.7	0.00e+00	0	49	104	0	81	25242
2026-01-06 08:49:05.76	208.37	9.73	-55.3	-59.8	3.7	0.00e+00	0	49	104	0	81	25379
2026-01-06 08:49:06.76	208.52	9.82	-55.4	-60.0	3.6	0.00e+00	0	49	104	0	81	25699
2026-01-06 08:49:07.77	208.67	9.91	-55.6	-60.2	3.7	0.00e+00	0	49	104	0	81	26317
2026-01-06 08:49:08.77	208.82	9.99	-55.5	-60.1	3.7	0.00e+00	0	49	104	0	81	26144
2026-01-06 08:49:09.77	208.97	10.08	-55.5	-60.0	3.7	0.00e+00	0	49	104	0	81	25953
2026-01-06 08:49:10.77	209.12	10.17	-44.0	-45.0	13.0	1.23e-01	0	50	0	25165824	60	15426
2026-01-06 08:49:11.77	209.27	10.26	-52.4	-54.6	4.8	1.32e-02	2380	50	0	83886080	75	19676
2026-01-06 08:49:12.77	209.43	10.35	-45.2	-46.2	11.9	0.00e+00	0	50	0	134217728	62	15820
2026-01-06 08:49:13.77	209.58	10.44	-42.5	-43.6	14.3	4.23e-05	0	50	0	192937984	57	15475
2026-01-06 08:49:14.77	209.74	10.53	-40.0	-40.9	16.3	8.40e-06	0	50	0	251658240	51	16172
2026-01-06 08:49:15.78	209.90	10.62	-38.6	-39.5	17.4	0.00e+00	0	50	0	310378496	49	15368
2026-01-06 08:49:16.78	210.06	10.71	-37.5	-38.4	17.0	0.00e+00	0	50	0	369098752	47	15212
2026-01-06 08:49:17.78	210.22	10.80	-37.4	-38.3	17.0	0.00e+00	0	50	0	436207616	46	15912
2026-01-06 08:49:18.78	210.38	10.89	-37.3	-38.2	17.0	0.00e+00	0	50	0	494927872	46	15805
2026-01-06 08:49:19.78	210.54	10.98	-37.2	-38.1	17.1	0.00e+00	0	50	0	553648128	46	15605
2026-01-06 08:49:20.78	210.71	11.07	-37.2	-38.0	17.1	0.00e+00	0	50	0	612368384	46	15473
2026-01-06 08:49:21.78	210.87	11.16	-37.0	-37.9	17.3	0.00e+00	0	50	0	671088640	46	15230
2026-01-06 08:49:22.78	211.04	11.25	-36.9	-37.8	17.3	0.00e+00	0	50	0	729808896	45	15995
2026-01-06 08:49:23.78	211.20	11.34	-36.9	-37.8	17.4	0.00e+00	0	50	0	788529152	45	15961
2026-01-06 08:49:24.78	211.37	11.44	-36.8	-37.7	17.5	0.00e+00	0	50	0	855638016	45	15661
2026-01-06 08:49:25.78	211.54	11.53	-36.8	-37.7	17.6	0.00e+00	0	50	0	914358272	45	15701
2026-01-06 08:49:26.78	211.71	11.62	-36.8	-37.7	17.6	0.00e+00	0	50	0	973078528	45	15763
2026-01-06 08:49:27.78	211.88	11.71	-36.8	-37.7	17.6	0.00e+00	0	50	0	1031798784	45	15692
2026-01-06 08:49:28.78	212.06	11.81	-36.7	-37.6	17.6	0.00e+00	0	50	0	1090519040	45	15547
2026-01-06 08:49:29.78	212.23	11.90	-36.8	-37.7	17.4	0.00e+00	0	50	0	1149239296	45	15714
2026-01-06 08:49:30.77	212.41	11.99	-36.8	-37.7	17.4	0.00e+00	0	50	0	1216348160	45	15722
2026-01-06 08:49:31.77	212.59	12.09	-36.6	-37.5	17.6	0.00e+00	0	50	0	1275068416	45	15363
2026-01-06 08:49:32.77	212.76	12.18	-36.8	-37.7	17.3	0.00e+00	0	50	0	1333788672	45	15703
2026-01-06 08:49:33.77	212.95	12.28	-36.7	-37.6	17.3	0.00e+00	0	50	0	1392508928	45	15595
2026-01-06 08:49:34.77	213.13	12.37	-36.5	-37.4	17.3	0.00e+00	0	50	0	1451229184	45	15152
2026-01-06 08:49:35.77	213.31	12.47	-36.4	-37.3	17.4	0.00e+00	0	50	0	1509949440	44	15860
2026-01-06 08:49:36.77	213.49	12.56	-36.3	-37.2	17.5	0.00e+00	0	50	0	1568669696	44	15723
2026-01-06 08:49:37.77	213.68	12.66	-36.4	-37.3	17.6	0.00e+00	0	50	0	1627389952	44	15897
2026-01-06 08:49:38.77	213.87	12.75	-36.2	-37.1	17.7	0.00e+00	0	51	0	1686110208	44	15633
2026-01-06 08:49:39.77	214.06	12.85	-36.2	-37.1	17.7	0.00e+00	0	51	0	1753219072	44	15595
2026-01-06 08:49:40.77	214.25	12.95	-36.2	-37.1	17.8	0.00e+00	0	50	0	1811939328	44	15504
2026-01-06 08:49:41.77	214.44	13.04	-36.1	-37.0	17.9	0.00e+00	0	51	0	1870659584	44	15322
2026-01-06 08:49:42.77	214.63	13.14	-36.0	-36.9	17.9	0.00e+00	0	51	0	1929379840	44	15226
2026-01-06 08:49:43.77	214.83	13.24	-36.0	-36.9	17.7	0.00e+00	0	51	0	1996488704	44	15204
2026-01-06 08:49:44.77	215.02	13.33	-36.0	-36.9	17.7	0.00e+00	0	51	0	2055208960	44	15166
2026-01-06 08:49:45.77	215.22	13.43	-36.1	-37.0	17.6	0.00e+00	0	51	0	2113929216	44	15430
2026-01-06 08:49:46.77	215.42	13.53	-35.9	-36.8	17.6	0.00e+00	0	51	0	2172649472	43	15876
2026-01-06 08:49:47.77	215.62	13.63	-35.7	-36.6	17.7	0.00e+00	0	51	0	2231369728	43	15611
2026-01-06 08:49:48.77	215.82	13.73	-35.7	-36.6	17.7	0.00e+00	0	51	0	2290089984	43	15594
2026-01-06 08:49:49.77	216.03	13.83	-35.6	-36.5	17.8	0.00e+00	0	51	0	2348810240	43	15428
2026-01-06 08:49:50.77	216.23	13.92	-35.6	-36.5	17.9	0.00e+00	0	51	0	2415919104	43	15317
2026-01-06 08:49:51.77	216.44	14.02	-35.7	-36.6	17.8	0.00e+00	0	51	0	2474639360	43	15502
2026-01-06 08:49:52.78	216.65	14.12	-35.6	-36.5	17.9	0.00e+00	0	51	0	2533359616	43	15435
2026-01-06 08:49:53.77	216.86	14.22	-35.5	-36.4	17.7	0.00e+00	0	51	0	2592079872	42	16107
2026-01-06 08:49:54.77	217.07	14.32	-35.7	-36.6	17.7	0.00e+00	0	51	0	2650800128	42	16408
2026-01-06 08:49:55.77	217.29	14.42	-35.5	-36.4	17.9	0.00e+00	0	51	0	2709520384	42	16103
2026-01-06 08:49:56.77	217.50	14.52	-35.4	-36.3	18.0	0.00e+00	0	51	0	2768240640	42	15892
2026-01-06 08:49:57.76	217.72	14.62	-35.4	-36.3	18.0	0.00e+00	0	51	0	2826960896	42	15858
2026-01-06 08:49:58.77	217.94	14.72	-35.2	-36.1	18.1	0.00e+00	0	51	0	2885681152	42	15540
2026-01-06 08:49:59.76	218.16	14.82	-35.3	-36.2	18.1	0.00e+00	0	51	0	2952790016	42	15723
2026-01-06 08:50:00.77	218.38	14.93	-35.2	-36.1	18.2	0.00e+00	0	51	0	3011510272	42	15478
2026-01-06 08:50:01.76	218.61	15.03	-35.2	-36.1	18.1	0.00e+00	0	51	0	3070230528	42	15490
2026-01-06 08:50:02.76	218.83	15.13	-35.2	-36.1	18.0	0.00e+00	0	51	0	3128950784	42	15578
2026-01-06 08:50:03.76	219.06	15.23	-35.0	-35.9	18.1	0.00e+00	0	51	0	3187671040	42	15277
2026-01-06 08:50:04.76	219.29	15.33	-35.0	-35.9	18.2	0.00e+00	0	51	0	3246391296	42	15145
2026-01-06 08:50:05.76	219.52	15.43	-34.9	-35.8	18.2	0.00e+00	0	51	0	3313500160	41	15917
2026-01-06 08:50:06.75	219.75	15.53	-35.0	-35.8	18.3	0.00e+00	0	51	0	3372220416	41	16004
2026-01-06 08:50:07.75	219.99	15.64	-34.9	-35.7	18.4	0.00e+00	0	51	0	3430940672	41	15821
2026-01-06 08:50:08.75	220.22	15.74	-34.7	-35.6	18.3	0.00e+00	0	51	0	3489660928	41	15634
2026-01-06 08:50:09.75	220.46	15.84	-34.8	-35.7	18.3	0.00e+00	0	51	0	3548381184	41	15728
2026-01-06 08:50:10.75	220.70	15.94	-34.9	-35.8	18.2	0.00e+00	0	51	0	3607101440	41	15846
2026-01-06 08:50:11.75	220.95	16.05	-34.8	-35.6	18.2	0.00e+00	0	51	0	3665821696	41	15651
2026-01-06 08:50:12.74	221.19	16.15	-34.7	-35.5	18.4	0.00e+00	0	51	0	3732930560	41	15449
2026-01-06 08:50:13.74	221.44	16.25	-34.5	-35.4	18.6	0.00e+00	0	51	0	3791650816	41	15269
2026-01-06 08:50:14.74	221.68	16.36	-34.5	-35.4	18.5	0.00e+00	0	51	0	3850371072	41	15238
2026-01-06 08:50:15.73	221.93	16.46	-34.6	-35.5	18.3	0.00e+00	0	51	0	3909091328	41	15313
2026-01-06 08:50:16.73	222.19	16.56	-34.5	-35.4	18.4	0.00e+00	0	51	0	3967811584	41	15147
2026-01-06 08:50:17.73	222.44	16.66	-34.5	-35.4	18.3	0.00e+00	0	51	0	4026531840	41	15173
2026-01-06 08:50:18.73	222.70	16.77	-34.4	-35.2	18.5	0.00e+00	0	51	0	4093640704	40	15825
2026-01-06 08:50:19.72	222.95	16.87	-34.4	-35.3	18.6	0.00e+00	0	51	0	4152360960	40	15886
2026-01-06 08:50:20.72	223.21	16.98	-34.2	-35.1	18.7	0.00e+00	0	51	0	4202692608	40	15497
2026-01-06 08:50:21.72	223.48	17.08	-34.3	-35.2	18.5	0.00e+00	0	51	0	4269801472	40	15768
2026-01-06 08:50:22.72	223.74	17.18	-34.4	-35.3	18.5	0.00e+00	0	51	0	4328521728	40	15875
2026-01-06 08:50:23.71	224.01	17.29	-34.0	-34.9	18.7	0.00e+00	0	51	0	4387241984	40	15250
2026-01-06 08:50:24.71	224.28	17.39	-34.1	-35.0	18.7	0.00e+00	0	52	0	4445962240	40	15379
2026-01-06 08:50:25.72	224.55	17.50	-34.1	-35.0	18.8	0.00e+00	0	51	0	4504682496	40	15307
2026-01-06 08:50:26.72	224.82	17.60	-34.0	-34.9	18.8	0.00e+00	0	51	0	4563402752	40	15171
2026-01-06 08:50:27.72	225.10	17.70	-34.0	-34.9	18.8	0.00e+00	0	51	0	4630511616	39	16142
2026-01-06 08:50:28.72	225.38	17.81	-34.0	-34.9	18.8	0.00e+00	0	51	0	4689231872	39	16069
2026-01-06 08:50:29.72	225.66	17.91	-34.1	-35.0	18.8	0.00e+00	0	52	0	4747952128	39	16222
2026-01-06 08:50:30.72	225.94	18.02	-33.9	-34.8	18.9	0.00e+00	0	52	0	4806672384	39	15919
2026-01-06 08:50:31.72	226.22	18.12	-33.9	-34.8	18.9	0.00e+00	0	51	0	4873781248	39	15974
2026-01-06 08:50:32.72	226.51	18.22	-33.8	-34.7	18.8	0.00e+00	0	52	0	4932501504	39	15711
2026-01-06 08:50:33.72	226.80	18.33	-33.8	-34.7	18.8	0.00e+00	0	52	0	4991221760	39	15791
2026-01-06 08:50:34.72	227.09	18.43	-33.8	-34.7	18.9	0.00e+00	0	52	0	5049942016	39	15720
2026-01-06 08:50:35.72	227.38	18.54	-33.9	-34.8	18.9	0.00e+00	0	52	0	5108662272	39	15834
2026-01-06 08:50:36.72	227.68	18.64	-33.6	-34.5	19.0	0.00e+00	0	51	0	5167382528	39	15312
2026-01-06 08:50:37.72	227.98	18.74	-33.8	-34.7	18.8	0.00e+00	0	52	0	5226102784	39	15719
2026-01-06 08:50:38.72	228.28	18.85	-33.7	-34.5	18.9	0.00e+00	0	52	0	5293211648	39	15433
2026-01-06 08:50:39.72	228.58	18.95	-33.7	-34.6	18.9	0.00e+00	0	52	0	5351931904	39	15572
2026-01-06 08:50:40.72	228.89	19.05	-33.5	-34.4	19.1	0.00e+00	0	52	0	5410652160	39	15176
2026-01-06 08:50:41.72	229.19	19.16	-33.4	-34.3	19.2	0.00e+00	0	52	0	5469372416	38	15917
2026-01-06 08:50:42.72	229.50	19.26	-33.5	-34.4	18.9	0.00e+00	0	52	0	5528092672	38	16105
2026-01-06 08:50:43.71	229.81	19.36	-33.5	-34.4	18.9	0.00e+00	0	52	0	5586812928	38	16162
2026-01-06 08:50:44.71	230.13	19.46	-33.3	-34.2	19.1	0.00e+00	0	52	0	5645533184	38	15785
2026-01-06 08:50:45.71	230.44	19.56	-33.3	-34.2	19.2	0.00e+00	0	52	0	5704253440	38	15700
2026-01-06 08:50:46.71	230.76	19.67	-33.4	-34.3	19.2	0.00e+00	0	52	0	5762973696	38	15872
2026-01-06 08:50:47.71	231.09	19.77	-33.4	-34.3	19.0	0.00e+00	0	51	0	5830082560	38	15889
2026-01-06 08:50:48.71	231.41	19.87	-33.2	-34.1	19.2	0.00e+00	0	52	0	5888802816	38	15601
2026-01-06 08:50:49.71	231.74	19.97	-33.2	-34.1	19.3	0.00e+00	0	52	0	5947523072	38	15568
2026-01-06 08:50:50.70	232.06	20.07	-33.2	-34.1	19.3	0.00e+00	0	52	0	6006243328	38	15558
2026-01-06 08:50:51.70	232.39	20.17	-33.3	-34.2	19.1	0.00e+00	0	52	0	6064963584	38	15666
2026-01-06 08:50:52.71	232.73	20.27	-33.1	-33.9	19.4	0.00e+00	0	52	0	6123683840	38	15293
2026-01-06 08:50:53.70	233.06	20.37	-33.0	-33.9	19.4	0.00e+00	0	52	0	6190792704	38	15180
2026-01-06 08:50:54.71	233.41	20.47	-33.1	-34.0	19.3	0.00e+00	0	52	0	6249512960	38	15342
2026-01-06 08:50:55.70	233.74	20.57	-33.2	-34.1	19.1	0.00e+00	0	52	0	6308233216	38	15514
2026-01-06 08:50:56.70	234.09	20.67	-32.9	-33.8	19.2	0.00e+00	0	52	0	6366953472	37	15911
2026-01-06 08:50:57.70	234.43	20.76	-32.9	-33.8	19.3	0.00e+00	0	52	0	6425673728	37	15848
2026-01-06 08:50:58.70	234.78	20.86	-32.9	-33.7	19.4	0.00e+00	0	52	0	6484393984	37	15815
2026-01-06 08:50:59.70	235.13	20.96	-32.8	-33.6	19.3	0.00e+00	0	52	0	6543114240	37	15634
2026-01-06 08:51:00.70	235.49	21.05	-32.8	-33.6	19.4	0.00e+00	0	52	0	6610223104	37	15651
2026-01-06 08:51:01.70	235.84	21.15	-32.8	-33.6	19.4	0.00e+00	0	52	0	6668943360	37	15611
2026-01-06 08:51:02.70	236.20	21.25	-32.8	-33.7	19.4	0.00e+00	0	52	0	6727663616	37	15712
2026-01-06 08:51:03.71	236.57	21.34	-32.6	-33.5	19.5	0.00e+00	0	52	0	6786383872	37	15403
2026-01-06 08:51:04.70	236.93	21.43	-32.7	-33.5	19.5	0.00e+00	0	52	0	6845104128	37	15441
2026-01-06 08:51:05.70	237.29	21.53	-32.7	-33.6	19.5	0.00e+00	0	52	0	6903824384	37	15494
2026-01-06 08:51:06.70	237.66	21.62	-32.7	-33.6	19.5	0.00e+00	0	52	0	6962544640	37	15525
2026-01-06 08:51:07.69	238.03	21.71	-32.5	-33.4	19.4	0.00e+00	0	52	0	7029653504	37	15231
2026-01-06 08:51:08.69	238.40	21.80	-32.6	-33.4	19.4	0.00e+00	0	52	0	7088373760	37	15266
2026-01-06 08:51:09.69	238.78	21.89	-32.6	-33.4	19.5	0.00e+00	0	52	0	7147094016	37	15283
2026-01-06 08:51:10.69	239.15	21.98	-32.5	-33.3	19.4	0.00e+00	0	52	0	7205814272	36	15973
2026-01-06 08:51:11.69	239.53	22.07	-32.4	-33.3	19.4	0.00e+00	0	52	0	7264534528	36	15889
2026-01-06 08:51:12.69	239.92	22.16	-32.5	-33.4	19.4	0.00e+00	0	52	0	7323254784	36	16024
2026-01-06 08:51:13.69	240.30	22.25	-32.4	-33.3	19.5	0.00e+00	0	52	0	7390363648	36	15883
2026-01-06 08:51:14.68	240.69	22.34	-32.3	-33.2	19.5	0.00e+00	0	52	0	7449083904	36	15747
2026-01-06 08:51:15.68	241.08	22.42	-32.3	-33.1	19.6	0.00e+00	0	52	0	7507804160	36	15626
2026-01-06 08:51:16.68	241.47	22.51	-32.3	-33.2	19.6	0.00e+00	0	52	0	7566524416	36	15726
2026-01-06 08:51:17.68	241.87	22.59	-32.2	-33.1	19.6	0.00e+00	0	52	0	7625244672	36	15522
2026-01-06 08:51:18.68	242.26	22.67	-32.2	-33.1	19.6	0.00e+00	0	52	0	7683964928	36	15491
2026-01-06 08:51:19.67	242.66	22.76	-32.3	-33.2	19.7	0.00e+00	0	52	0	7742685184	36	15696
2026-01-06 08:51:20.67	243.06	22.84	-32.6	-33.4	19.5	0.00e+00	0	52	0	7809794048	36	16146
2026-01-06 08:51:21.67	243.47	22.92	-32.4	-33.2	19.7	0.00e+00	0	52	0	7868514304	36	15812
2026-01-06 08:51:22.67	243.87	23.00	-32.4	-33.2	19.7	0.00e+00	0	52	0	7927234560	36	15828
2026-01-06 08:51:23.67	244.28	23.08	-32.3	-33.2	19.7	0.00e+00	0	52	0	7985954816	36	15753
2026-01-06 08:51:24.67	244.69	23.15	-32.3	-33.1	19.8	0.00e+00	0	52	0	8044675072	36	15620
2026-01-06 08:51:25.67	245.11	23.23	-32.1	-33.0	19.9	0.00e+00	0	52	0	8103395328	36	15365
2026-01-06 08:51:26.66	245.52	23.30	-32.1	-33.0	19.9	0.00e+00	0	52	0	8162115584	36	15363
2026-01-06 08:51:27.66	245.93	23.38	-30.7	-31.6	19.5	0.00e+00	0	52	0	8220835840	33	15518
2026-01-06 08:51:28.66	246.35	23.45	-30.8	-31.6	19.5	0.00e+00	0	52	0	8279556096	33	15625
2026-01-06 08:51:29.65	246.77	23.52	-30.9	-31.8	19.4	0.00e+00	0	52	0	8346664960	33	15841
2026-01-06 08:51:30.65	247.20	23.59	-30.6	-31.5	19.5	0.00e+00	0	52	0	8405385216	33	15346
2026-01-06 08:51:31.65	247.62	23.66	-30.6	-31.5	19.5	0.00e+00	0	52	0	8464105472	33	15389
2026-01-06 08:51:32.65	248.05	23.73	-30.8	-31.7	19.4	0.00e+00	0	52	0	8522825728	33	15667
2026-01-06 08:51:33.64	248.48	23.79	-30.8	-31.6	19.2	0.00e+00	0	52	0	8581545984	33	15593
2026-01-06 08:51:34.64	248.91	23.86	-30.7	-31.6	19.3	0.00e+00	0	52	0	8640266240	33	15579
2026-01-06 08:51:35.64	249.34	23.92	-30.8	-31.6	19.4	0.00e+00	0	52	0	8707375104	33	15621
2026-01-06 08:51:36.64	249.78	23.98	-31.0	-31.9	19.2	0.00e+00	0	52	0	8766095360	33	16075
2026-01-06 08:51:37.64	250.22	24.04	-30.8	-31.6	19.5	0.00e+00	0	52	0	8824815616	33	15598
2026-01-06 08:51:38.64	250.66	24.10	-30.7	-31.6	19.5	0.00e+00	0	52	0	8883535872	33	15533
2026-01-06 08:51:39.64	251.10	24.16	-30.9	-31.8	19.3	0.00e+00	0	52	0	8942256128	33	15840
2026-01-06 08:51:40.64	251.54	24.22	-30.7	-31.5	19.6	0.00e+00	0	52	0	9000976384	33	15412
2026-01-06 08:51:41.64	251.99	24.27	-30.5	-31.4	19.7	0.00e+00	0	52	0	9059696640	33	15167
2026-01-06 08:51:42.64	252.44	24.33	-30.7	-31.6	19.4	0.00e+00	0	52	0	9126805504	33	15508
2026-01-06 08:51:43.64	252.88	24.38	-30.3	-31.2	19.7	0.00e+00	0	52	0	9185525760	32	15690
2026-01-06 08:51:44.63	253.33	24.43	-30.4	-31.2	19.6	0.00e+00	0	52	0	9244246016	32	15783
2026-01-06 08:51:45.64	253.79	24.48	-30.5	-31.4	19.4	0.00e+00	0	52	0	9302966272	32	16039
2026-01-06 08:51:46.64	254.24	24.53	-30.5	-31.4	19.4	0.00e+00	0	52	0	9361686528	32	16084
2026-01-06 08:51:47.64	254.69	24.57	-30.3	-31.2	19.7	0.00e+00	0	52	0	9420406784	32	15693
2026-01-06 08:51:48.63	255.15	24.62	-30.4	-31.3	19.5	0.00e+00	0	52	0	9487515648	32	15906
2026-01-06 08:51:49.63	255.60	24.66	-30.6	-31.4	19.5	0.00e+00	0	52	0	9546235904	32	16101
2026-01-06 08:51:50.63	256.06	24.70	-30.3	-31.2	19.7	0.00e+00	0	52	0	9604956160	32	15697
2026-01-06 08:51:51.63	256.52	24.74	-30.4	-31.3	19.5	0.00e+00	0	52	0	9663676416	32	15862
2026-01-06 08:51:52.63	256.98	24.78	-30.6	-31.5	19.5	0.00e+00	0	52	0	9722396672	32	16211
2026-01-06 08:51:53.63	257.45	24.81	-30.2	-31.1	19.8	0.00e+00	0	52	0	9781116928	32	15546
2026-01-06 08:51:54.63	257.91	24.85	-30.5	-31.3	19.6	0.00e+00	0	52	0	9839837184	32	15944
2026-01-06 08:51:55.62	258.37	24.88	-30.5	-31.4	19.5	0.00e+00	0	52	0	9906946048	32	16119
2026-01-06 08:51:56.62	258.84	24.91	-30.3	-31.1	19.7	0.00e+00	0	52	0	9965666304	32	15634
2026-01-06 08:51:57.62	259.30	24.94	-30.5	-31.3	19.6	0.00e+00	0	52	0	10024386560	32	15947
2026-01-06 08:51:58.62	259.77	24.96	-30.4	-31.3	19.7	0.00e+00	0	52	0	10083106816	32	15892
2026-01-06 08:51:59.62	260.24	24.99	-30.5	-31.4	19.5	0.00e+00	0	52	0	10141827072	32	16022
2026-01-06 08:52:00.62	260.71	25.01	-30.3	-31.1	19.7	0.00e+00	0	52	0	10200547328	32	15608
2026-01-06 08:52:01.62	261.18	25.03	-30.4	-31.2	19.6	0.00e+00	0	52	0	10267656192	32	15823
2026-01-06 08:52:02.62	261.65	25.05	-56.3	-60.8	3.7	0.00e+00	0	52	104	10317987840	79	31750
2026-01-06 08:52:03.61	262.11	25.07	-56.3	-60.8	3.7	0.00e+00	0	52	104	10317987840	83	25374
2026-01-06 08:52:04.61	262.58	25.09	-56.0	-60.7	3.7	0.00e+00	0	52	104	10317987840	83	24990
2026-01-06 08:52:05.60	263.05	25.10	-55.7	-60.5	3.7	0.00e+00	0	52	104	10317987840	83	24310
2026-01-06 08:52:06.61	263.53	25.11	-55.7	-60.5	3.7	0.00e+00	0	52	104	10317987840	83	24267
2026-01-06 08:52:07.60	264.00	25.12	-55.7	-60.5	3.7	0.00e+00	0	51	104	10317987840	83	24390
2026-01-06 08:52:08.60	264.47	25.13	-55.6	-60.5	3.7	0.00e+00	0	52	104	10317987840	83	24361
2026-01-06 08:52:09.61	264.95	25.14	-55.8	-60.4	3.7	0.00e+00	0	51	104	10317987840	83	23993
2026-01-06 08:52:10.60	265.42	25.14	-56.1	-60.6	3.7	0.00e+00	0	51	104	10317987840	83	24723
2026-01-06 08:52:11.60	265.89	25.15	-56.2	-60.7	3.7	0.00e+00	0	51	104	10317987840	83	24981
2026-01-06 08:52:12.61	266.37	25.15	-56.2	-60.7	3.7	0.00e+00	0	51	104	10317987840	83	25061
2026-01-06 08:52:13.61	266.84	25.15	-56.0	-60.8	3.7	0.00e+00	0	52	104	10317987840	83	25255
2026-01-06 08:52:14.60	267.31	25.14	-55.9	-60.7	3.7	0.00e+00	0	52	104	10317987840	83	24886
2026-01-06 08:52:15.60	267.78	25.14	-56.0	-60.7	3.7	0.00e+00	0	51	104	10317987840	83	25024
2026-01-06 08:52:16.60	268.26	25.13	-56.1	-60.8	3.7	0.00e+00	0	51	104	10317987840	83	25299
2026-01-06 08:52:17.60	268.73	25.12	-56.0	-60.7	3.7	0.00e+00	0	51	104	10317987840	83	25016
2026-01-06 08:52:18.60	269.20	25.11	-56.0	-60.8	3.7	0.00e+00	0	51	104	10317987840	83	25179
2026-01-06 08:52:19.59	269.67	25.10	-55.8	-60.6	3.7	0.00e+00	0	52	104	10317987840	83	24795
2026-01-06 08:52:20.59	270.14	25.09	-55.8	-60.7	3.7	0.00e+00	0	52	104	10317987840	83	24884
2026-01-06 08:52:21.59	270.61	25.07	-55.7	-60.5	3.7	0.00e+00	0	52	104	10317987840	83	24470
2026-01-06 08:52:22.59	271.08	25.05	-56.1	-60.8	3.7	0.00e+00	0	52	104	10317987840	83	25202
2026-01-06 08:52:23.58	271.55	25.03	-56.2	-60.8	3.7	0.00e+00	0	52	104	10317987840	83	25256
2026-01-06 08:52:24.59	272.02	25.01	-56.1	-60.8	3.7	0.00e+00	0	51	104	10317987840	83	25200
2026-01-06 08:52:25.58	272.48	24.99	-56.1	-60.8	3.7	0.00e+00	0	51	104	10317987840	83	25330
2026-01-06 08:52:26.58	272.95	24.97	-56.4	-60.9	3.7	0.00e+00	0	51	104	10317987840	83	25644
2026-01-06 08:52:27.58	273.42	24.94	-56.3	-60.9	3.7	0.00e+00	0	51	104	10317987840	83	25450
2026-01-06 08:52:28.58	273.88	24.91	-56.2	-60.9	3.7	0.00e+00	0	51	104	10317987840	83	25396
2026-01-06 08:52:29.58	274.35	24.88	-56.1	-60.8	3.7	0.00e+00	0	51	104	10317987840	83	25320
2026-01-06 08:52:30.57	274.81	24.85	-56.3	-60.9	3.7	0.00e+00	0	51	104	10317987840	83	25599
2026-01-06 08:52:31.57	275.27	24.81	-56.3	-61.0	3.7	0.00e+00	0	51	104	10317987840	83	25680
2026-01-06 08:52:32.57	275.73	24.78	-56.3	-60.9	3.7	0.00e+00	0	51	104	10317987840	83	25614
2026-01-06 08:52:33.57	276.19	24.74	-56.2	-60.9	3.7	0.00e+00	0	51	104	10317987840	83	25579
2026-01-06 08:52:34.57	276.65	24.70	-56.3	-61.0	3.7	0.00e+00	0	51	104	10317987840	83	25719
2026-01-06 08:52:35.57	277.11	24.66	-56.3	-61.0	3.7	0.00e+00	0	51	104	10317987840	83	25820
2026-01-06 08:52:36.57	277.57	24.62	-56.3	-60.8	3.7	0.00e+00	0	51	104	10317987840	83	25282
2026-01-06 08:52:37.57	278.02	24.58	-56.3	-60.8	3.7	0.00e+00	0	51	104	10317987840	83	25095
2026-01-06 08:52:38.56	278.47	24.53	-56.0	-60.5	3.7	0.00e+00	0	51	104	10317987840	83	24464
2026-01-06 08:52:39.56	278.92	24.48	-56.0	-60.6	3.7	0.00e+00	0	51	104	10317987840	83	24600
2026-01-06 08:52:40.56	279.37	24.44	-56.0	-60.7	3.7	0.00e+00	0	51	104	10317987840	83	24946
2026-01-06 08:52:41.56	279.82	24.39	-56.2	-60.9	3.7	0.00e+00	0	51	104	10317987840	83	25482
2026-01-06 08:52:42.56	280.27	24.33	-56.5	-61.0	3.7	0.00e+00	0	51	104	10317987840	83	25967
2026-01-06 08:52:43.56	280.72	24.28	-56.5	-61.0	3.7	0.00e+00	0	51	104	10317987840	83	25952
2026-01-06 08:52:44.56	281.16	24.23	-56.5	-61.0	3.7	0.00e+00	0	51	104	10317987840	83	25905
2026-01-06 08:52:45.56	281.60	24.17	-56.4	-61.0	3.7	0.00e+00	0	51	104	10317987840	83	25815
2026-01-06 08:52:46.56	282.04	24.11	-56.5	-61.1	3.7	0.00e+00	0	51	104	10317987840	83	26196
2026-01-06 08:52:47.55	282.48	24.05	-56.5	-61.1	3.7	0.00e+00	0	51	104	10317987840	83	26063
2026-01-06 08:52:48.56	282.92	23.99	-56.5	-61.0	3.7	0.00e+00	0	51	104	10317987840	83	25852
2026-01-06 08:52:49.56	283.35	23.93	-56.5	-61.1	3.7	0.00e+00	0	51	104	10317987840	83	26048
2026-01-06 08:52:50.56	283.79	23.87	-56.2	-60.9	3.7	0.00e+00	0	51	104	10317987840	83	25463
2026-01-06 08:52:51.56	284.22	23.80	-56.2	-60.9	3.7	0.00e+00	0	51	104	10317987840	83	25460
2026-01-06 08:52:52.56	284.65	23.74	-56.3	-60.9	3.7	0.00e+00	0	51	104	10317987840	83	25555
2026-01-06 08:52:53.55	285.07	23.67	-56.4	-60.9	3.7	0.00e+00	0	51	104	10317987840	83	25675
2026-01-06 08:52:54.55	285.50	23.60	-56.3	-60.7	3.7	0.00e+00	0	51	104	10317987840	83	25087
2026-01-06 08:52:55.55	285.92	23.53	-56.3	-60.7	3.7	0.00e+00	0	51	104	10317987840	83	24934
2026-01-06 08:52:56.55	286.34	23.46	-56.2	-60.7	3.7	0.00e+00	0	51	104	10317987840	83	25061
2026-01-06 08:52:57.55	286.76	23.39	-56.2	-60.8	3.7	0.00e+00	0	51	104	10317987840	83	25174
2026-01-06 08:52:58.55	287.17	23.31	-56.2	-60.9	3.7	0.00e+00	0	51	104	10317987840	83	25624
2026-01-06 08:52:59.54	287.58	23.24	-56.2	-61.0	3.7	0.00e+00	0	51	104	10317987840	83	25702
2026-01-06 08:53:00.54	288.00	23.17	-56.1	-60.9	3.7	0.00e+00	0	51	104	10317987840	83	25595
2026-01-06 08:53:01.54	288.41	23.09	-56.2	-60.7	3.7	0.00e+00	0	51	104	10317987840	83	25037
2026-01-06 08:53:02.54	288.81	23.01	-56.2	-60.8	3.7	0.00e+00	0	51	104	10317987840	83	25114
2026-01-06 08:53:03.54	289.22	22.93	-56.4	-60.8	3.7	0.00e+00	0	51	104	10317987840	83	25234
2026-01-06 08:53:04.54	289.62	22.85	-56.4	-60.8	3.7	0.00e+00	0	51	104	10317987840	83	25328
2026-01-06 08:53:05.54	290.02	22.77	-56.2	-60.6	3.7	0.00e+00	0	51	104	10317987840	83	24570
2026-01-06 08:53:06.53	290.42	22.69	-56.0	-60.4	3.7	0.00e+00	0	51	104	10317987840	83	24074
2026-01-06 08:53:07.53	290.81	22.61	-56.0	-60.5	3.7	0.00e+00	0	51	104	10317987840	83	24274
2026-01-06 08:53:08.53	291.20	22.52	-55.9	-60.5	3.7	0.00e+00	0	51	104	10317987840	83	24376
2026-01-06 08:53:09.53	291.60	22.44	-56.1	-60.8	3.7	0.00e+00	0	51	104	10317987840	83	25095
2026-01-06 08:53:10.52	291.98	22.36	-56.1	-60.6	3.7	0.00e+00	0	51	104	10317987840	83	24777
2026-01-06 08:53:11.53	292.37	22.27	-56.2	-60.6	3.7	0.00e+00	0	51	104	10317987840	83	24606
2026-01-06 08:53:12.52	292.75	22.18	-56.2	-60.5	3.7	0.00e+00	0	51	104	10317987840	83	24464
2026-01-06 08:53:13.52	293.13	22.09	-56.2	-60.5	3.7	0.00e+00	0	51	104	10317987840	83	24286
2026-01-06 08:53:14.52	293.51	22.01	-56.3	-60.6	3.7	0.00e+00	0	51	104	10317987840	83	24791
2026-01-06 08:53:15.52	293.89	21.92	-56.2	-60.7	3.7	0.00e+00	0	51	104	10317987840	83	24834
2026-01-06 08:53:16.52	294.26	21.83	-56.1	-60.5	3.7	0.00e+00	0	51	104	10317987840	83	24317
2026-01-06 08:53:17.52	294.63	21.74	-56.3	-60.6	3.7	0.00e+00	0	51	104	10317987840	83	24788
2026-01-06 08:53:18.52	295.00	21.64	-56.4	-60.7	3.7	0.00e+00	0	51	104	10317987840	83	25023
2026-01-06 08:53:19.52	295.37	21.55	-56.3	-60.7	3.7	0.00e+00	0	51	104	10317987840	83	24948
2026-01-06 08:53:20.52	295.73	21.46	-56.4	-60.9	3.7	0.00e+00	0	51	104	10317987840	83	25483
2026-01-06 08:53:21.51	296.09	21.37	-56.4	-60.9	3.7	0.00e+00	0	51	104	10317987840	83	25559
2026-01-06 08:53:22.51	296.45	21.27	-56.4	-60.9	3.7	0.00e+00	0	51	104	10317987840	83	25442
2026-01-06 08:53:23.51	296.81	21.18	-56.3	-60.8	3.7	0.00e+00	0	51	104	10317987840	83	25141
2026-01-06 08:53:24.51	297.16	21.08	-56.3	-60.7	3.7	0.00e+00	0	51	104	10317987840	83	25016
2026-01-06 08:53:25.50	297.51	20.99	-56.1	-60.7	3.7	0.00e+00	0	51	104	10317987840	83	24865
2026-01-06 08:53:26.50	297.86	20.89	-56.0	-60.5	3.7	0.00e+00	0	51	104	10317987840	83	24445
2026-01-06 08:53:27.50	298.21	20.80	-56.0	-60.5	3.7	0.00e+00	0	51	104	10317987840	83	24298
2026-01-06 08:53:28.49	298.55	20.70	-56.2	-60.6	3.7	0.00e+00	0	51	104	10317987840	83	24711
2026-01-06 08:53:29.49	298.89	20.60	-56.3	-60.9	3.7	0.00e+00	0	51	104	10317987840	83	25416
2026-01-06 08:53:30.49	299.23	20.50	-56.3	-60.7	3.7	0.00e+00	0	51	104	10317987840	83	24929
2026-01-06 08:53:31.48	299.56	20.41	-56.3	-60.7	3.7	0.00e+00	0	51	104	10317987840	83	24900
2026-01-06 08:53:32.48	299.90	20.31	-56.1	-60.4	3.7	0.00e+00	0	51	104	10317987840	83	24005
2026-01-06 08:53:33.48	300.23	20.21	-56.2	-60.5	3.7	0.00e+00	0	51	104	10317987840	83	24498
2026-01-06 08:53:34.48	300.56	20.11	-56.2	-60.6	3.7	0.00e+00	0	51	104	10317987840	83	24582
2026-01-06 08:53:35.48	300.89	20.01	-56.2	-60.5	3.7	0.00e+00	0	51	104	10317987840	83	24354
2026-01-06 08:53:36.48	301.21	19.91	-56.2	-60.7	3.7	0.00e+00	0	51	104	10317987840	83	24936
2026-01-06 08:53:37.48	301.54	19.81	-56.1	-60.3	3.7	0.00e+00	0	51	104	10317987840	83	23900
2026-01-06 08:53:38.47	301.85	19.71	-55.9	-60.2	3.7	0.00e+00	0	51	104	10317987840	83	23577
2026-01-06 08:53:39.47	302.17	19.61	-56.0	-60.3	3.7	0.00e+00	0	51	104	10317987840	83	23869
2026-01-06 08:53:40.47	302.49	19.51	-56.0	-60.2	3.7	0.00e+00	0	51	104	10317987840	83	23578
2026-01-06 08:53:41.46	302.80	19.41	-55.9	-59.9	3.7	0.00e+00	0	51	104	10317987840	83	22730
2026-01-06 08:53:42.46	303.11	19.31	-55.8	-59.7	3.7	0.00e+00	0	51	104	10317987840	83	22113
2026-01-06 08:53:43.46	303.42	19.20	-55.8	-59.7	3.7	0.00e+00	0	51	104	10317987840	83	22311
2026-01-06 08:53:44.45	303.72	19.10	-56.0	-60.2	3.7	0.00e+00	0	51	104	10317987840	83	23458
2026-01-06 08:53:45.45	304.02	19.00	-56.2	-60.6	3.7	0.00e+00	0	51	104	10317987840	83	24550
2026-01-06 08:53:46.45	304.32	18.90	-56.3	-60.7	3.7	0.00e+00	0	51	104	10317987840	83	25006
2026-01-06 08:53:47.45	304.62	18.80	-56.3	-60.6	3.7	0.00e+00	0	51	104	10317987840	83	24775
2026-01-06 08:53:48.45	304.92	18.69	-56.2	-60.7	3.7	0.00e+00	0	51	104	10317987840	83	24818
2026-01-06 08:53:49.44	305.21	18.59	-55.9	-60.1	3.7	0.00e+00	0	51	104	10317987840	83	23300
2026-01-06 08:53:50.44	305.50	18.49	-56.0	-60.3	3.7	0.00e+00	0	51	104	10317987840	83	23786
2026-01-06 08:53:51.44	305.79	18.39	-56.0	-60.3	3.7	0.00e+00	0	51	104	10317987840	83	23935
2026-01-06 08:53:52.44	306.08	18.28	-56.0	-60.6	3.7	0.00e+00	0	51	104	10317987840	83	24608
2026-01-06 08:53:53.44	306.37	18.18	-56.0	-60.7	3.7	0.00e+00	0	51	104	10317987840	83	24852
2026-01-06 08:53:54.44	306.65	18.08	-56.0	-60.6	3.7	0.00e+00	0	51	104	10317987840	83	24654
2026-01-06 08:53:55.45	306.93	17.97	-56.0	-60.5	3.7	0.00e+00	0	51	104	10317987840	83	24424
2026-01-06 08:53:56.44	307.21	17.87	-56.1	-60.8	3.7	0.00e+00	0	51	104	10317987840	83	25289
2026-01-06 08:53:57.44	307.49	17.77	-56.2	-60.8	3.7	0.00e+00	0	51	104	10317987840	83	25181
2026-01-06 08:53:58.44	307.76	17.66	-56.2	-60.8	3.7	0.00e+00	0	51	104	10317987840	83	25330
2026-01-06 08:53:59.44	308.03	17.56	-56.2	-60.9	3.7	0.00e+00	0	51	104	10317987840	83	25387
2026-01-06 08:54:00.43	308.30	17.46	-56.1	-60.7	3.7	0.00e+00	0	51	104	10317987840	83	25067
2026-01-06 08:54:01.43	308.57	17.36	-56.1	-60.5	3.7	0.00e+00	0	51	104	10317987840	83	24441
2026-01-06 08:54:02.43	308.84	17.25	-56.0	-60.4	3.7	0.00e+00	0	51	104	10317987840	83	24014
2026-01-06 08:54:03.43	309.10	17.15	-56.1	-60.4	3.7	0.00e+00	0	51	104	10317987840	83	24171
2026-01-06 08:54:04.43	309.36	17.05	-55.9	-60.4	3.7	0.00e+00	0	51	104	10317987840	83	24233
2026-01-06 08:54:05.42	309.62	16.94	-55.4	-60.2	3.7	0.00e+00	0	51	104	10317987840	82	25008
2026-01-06 08:54:06.42	309.88	16.84	-55.2	-60.1	3.7	0.00e+00	0	51	104	10317987840	82	24648
2026-01-06 08:54:07.42	310.13	16.74	-55.3	-60.2	3.7	0.00e+00	0	51	104	10317987840	82	24856
2026-01-06 08:54:08.43	310.39	16.63	-54.9	-60.0	3.7	0.00e+00	0	51	104	10317987840	81	25858
2026-01-06 08:54:09.42	310.64	16.53	-55.2	-60.1	3.7	0.00e+00	0	51	104	10317987840	81	26105
2026-01-06 08:54:10.42	310.89	16.43	-55.1	-59.9	3.7	0.00e+00	0	51	104	10317987840	81	25622
2026-01-06 08:54:11.42	311.14	16.33	-55.0	-59.9	3.7	0.00e+00	0	51	104	10317987840	81	25587
2026-01-06 08:54:12.42	311.38	16.23	-55.2	-59.9	3.7	0.00e+00	0	51	104	10317987840	81	25426
2026-01-06 08:54:13.41	311.62	16.12	-55.5	-60.1	3.7	0.00e+00	0	51	104	10317987840	81	26051
2026-01-06 08:54:14.41	311.87	16.02	-55.8	-60.4	3.7	0.00e+00	0	51	104	10317987840	82	25498
2026-01-06 08:54:15.41	312.11	15.92	-55.8	-60.3	3.7	0.00e+00	0	51	104	10317987840	82	25346
2026-01-06 08:54:16.41	312.34	15.82	-56.1	-60.7	3.7	0.00e+00	0	51	104	10317987840	83	24909
2026-01-06 08:54:17.41	312.58	15.72	-56.1	-60.7	3.7	0.00e+00	0	51	104	10317987840	83	25090
2026-01-06 08:54:18.41	312.81	15.62	-56.0	-60.8	3.7	0.00e+00	0	51	104	10317987840	83	25121
2026-01-06 08:54:19.42	313.05	15.51	-56.1	-60.8	3.7	0.00e+00	0	51	104	10317987840	83	25209
2026-01-06 08:54:20.41	313.28	15.41	-55.8	-60.6	3.7	0.00e+00	0	51	104	10317987840	83	24655
2026-01-06 08:54:21.41	313.51	15.31	-55.8	-60.6	3.7	0.00e+00	0	51	104	10317987840	83	24648
2026-01-06 08:54:22.41	313.73	15.21	-55.5	-60.4	3.7	0.00e+00	0	51	104	10317987840	82	25652
2026-01-06 08:54:23.41	313.96	15.11	-55.7	-60.5	3.7	0.00e+00	0	51	104	10317987840	82	25960
2026-01-06 08:54:24.41	314.18	15.01	-54.7	-59.9	3.7	0.00e+00	0	51	104	10317987840	81	25435
2026-01-06 08:54:25.41	314.40	14.91	-54.9	-60.0	3.7	0.00e+00	0	51	104	10317987840	81	25784
2026-01-06 08:54:26.41	314.62	14.81	-54.5	-59.7	3.7	0.00e+00	0	51	104	10317987840	80	26521
2026-01-06 08:54:27.40	314.84	14.71	-54.5	-59.7	3.7	0.00e+00	0	51	104	10317987840	80	26467
2026-01-06 08:54:28.40	315.06	14.61	-54.6	-59.8	3.7	0.00e+00	0	51	104	10317987840	80	26792
2026-01-06 08:54:29.40	315.27	14.51	-55.0	-60.0	3.7	0.00e+00	0	51	104	10317987840	80	27239
2026-01-06 08:54:30.40	315.49	14.41	-55.3	-60.1	3.7	0.00e+00	0	51	104	10317987840	81	26256
2026-01-06 08:54:31.40	315.70	14.32	-55.1	-60.1	3.7	0.00e+00	0	51	104	10317987840	81	26078
2026-01-06 08:54:32.40	315.91	14.22	-55.8	-60.5	3.7	0.00e+00	0	51	104	10317987840	82	25732
2026-01-06 08:54:33.40	316.12	14.12	-55.7	-60.5	3.7	0.00e+00	0	51	104	10317987840	82	25814
2026-01-06 08:54:34.40	316.32	14.02	-55.4	-60.4	3.7	0.00e+00	0	51	104	10317987840	82	25551
2026-01-06 08:54:35.40	316.53	13.92	-55.7	-60.6	3.7	0.00e+00	0	51	104	10317987840	82	25998
2026-01-06 08:54:36.40	316.73	13.82	-55.6	-60.4	3.6	0.00e+00	0	51	104	10317987840	82	25623
2026-01-06 08:54:37.40	316.93	13.73	-55.1	-60.2	3.7	0.00e+00	0	51	104	10317987840	82	25052
2026-01-06 08:54:38.39	317.13	13.63	-55.5	-60.4	3.7	0.00e+00	0	51	104	10317987840	82	25492
2026-01-06 08:54:39.39	317.33	13.53	-55.4	-60.3	3.7	0.00e+00	0	51	104	10317987840	82	25362
2026-01-06 08:54:40.39	317.53	13.44	-55.9	-60.5	3.7	0.00e+00	0	51	104	10317987840	82	25684
2026-01-06 08:54:41.39	317.72	13.34	-56.1	-60.7	3.7	0.00e+00	0	51	104	10317987840	82	26432
2026-01-06 08:54:42.39	317.92	13.24	-56.1	-60.8	3.7	0.00e+00	0	51	104	10317987840	83	25142
2026-01-06 08:54:43.39	318.11	13.15	-56.1	-60.7	3.7	0.00e+00	0	51	104	10317987840	83	25061
2026-01-06 08:54:44.38	318.30	13.05	-55.9	-60.6	3.7	0.00e+00	0	51	104	10317987840	83	24672
2026-01-06 08:54:45.38	318.49	12.96	-55.8	-60.5	3.7	0.00e+00	0	51	104	10317987840	83	24508
2026-01-06 08:54:46.38	318.68	12.86	-55.9	-60.6	3.7	0.00e+00	0	51	104	10317987840	83	24623
2026-01-06 08:54:47.37	318.86	12.77	-55.9	-60.6	3.7	0.00e+00	0	51	104	10317987840	83	24716
2026-01-06 08:54:48.37	319.05	12.67	-55.7	-60.5	3.7	0.00e+00	0	51	104	10317987840	83	24336
2026-01-06 08:54:49.37	319.23	12.58	-55.6	-60.5	3.7	0.00e+00	0	51	104	10317987840	83	24475
2026-01-06 08:54:50.37	319.41	12.48	-55.4	-60.4	3.7	0.00e+00	0	51	104	10317987840	82	25452
2026-01-06 08:54:51.36	319.59	12.39	-55.6	-60.5	3.7	0.00e+00	0	51	104	10317987840	82	25741
2026-01-06 08:54:52.36	319.77	12.30	-55.1	-60.2	3.6	0.00e+00	0	51	104	10317987840	82	24893
2026-01-06 08:54:53.36	319.95	12.20	-55.0	-60.1	3.7	0.00e+00	0	51	104	10317987840	82	24676
2026-01-06 08:54:54.36	320.13	12.11	-54.1	-59.5	3.7	0.00e+00	0	51	104	10317987840	79	27494
2026-01-06 08:54:55.36	320.31	12.02	-54.6	-59.8	3.7	0.00e+00	0	51	104	10317987840	80	26742
2026-01-06 08:54:56.36	320.48	11.92	-53.7	-59.3	3.7	0.00e+00	0	51	104	10317987840	79	26674
2026-01-06 08:54:57.36	320.65	11.83	-54.1	-59.6	3.7	0.00e+00	0	51	104	10317987840	79	27774
2026-01-06 08:54:58.36	320.83	11.74	-53.9	-59.5	3.7	0.00e+00	0	51	104	10317987840	79	27273
2026-01-06 08:54:59.36	321.00	11.65	-53.7	-59.3	3.7	0.00e+00	0	51	104	10317987840	79	26787
2026-01-06 08:55:00.36	321.17	11.56	-54.2	-59.7	3.7	0.00e+00	0	51	104	10317987840	79	27966
2026-01-06 08:55:01.36	321.33	11.47	-54.2	-59.7	3.7	0.00e+00	0	51	104	10317987840	79	27993
2026-01-06 08:55:02.35	321.50	11.37	-53.9	-59.5	3.7	0.00e+00	0	51	104	10317987840	79	27445
2026-01-06 08:55:03.35	321.67	11.28	-54.2	-59.7	3.7	0.00e+00	0	51	104	10317987840	79	27890
2026-01-06 08:55:04.35	321.83	11.19	-54.0	-59.6	3.7	0.00e+00	0	51	104	10317987840	79	27529
2026-01-06 08:55:05.35	321.99	11.10	-53.6	-59.3	3.7	0.00e+00	0	51	104	10317987840	79	26680
2026-01-06 08:55:06.35	322.16	11.01	-54.0	-59.4	3.7	0.00e+00	0	51	104	10317987840	79	27154
2026-01-06 08:55:07.35	322.32	10.92	-53.6	-59.2	3.7	0.00e+00	0	51	104	10317987840	79	26490
2026-01-06 08:55:08.34	322.48	10.83	-54.6	-60.0	3.7	0.00e+00	0	51	104	10317987840	79	28826
2026-01-06 08:55:09.34	322.63	10.75	-54.7	-59.9	3.7	0.00e+00	0	51	104	10317987840	80	27107
2026-01-06 08:55:10.34	322.79	10.66	-55.6	-60.4	3.7	0.00e+00	0	51	104	10317987840	81	27007
2026-01-06 08:55:11.34	322.95	10.57	-54.7	-59.8	3.7	0.00e+00	0	51	104	10317987840	81	25334
2026-01-06 08:55:12.34	323.10	10.48	-55.2	-60.1	3.7	0.00e+00	0	51	104	10317987840	81	26167
2026-01-06 08:55:13.34	323.26	10.39	-55.3	-60.2	3.7	0.00e+00	0	51	104	10317987840	81	26455
2026-01-06 08:55:14.33	323.41	10.30	-55.6	-60.4	3.7	0.00e+00	0	51	104	10317987840	81	27034
2026-01-06 08:55:15.33	323.56	10.22	-55.6	-60.4	3.7	0.00e+00	0	51	104	10317987840	81	27124
2026-01-06 08:55:16.33	323.71	10.13	-55.2	-60.2	3.7	0.00e+00	0	51	104	10317987840	81	26517
2026-01-06 08:55:17.33	323.86	10.04	-54.2	-59.6	3.7	0.00e+00	0	51	104	10317987840	80	26187
2026-01-06 08:55:18.33	324.01	9.96	-54.0	-59.5	3.7	0.00e+00	0	51	104	10317987840	79	27493
2026-01-06 08:55:19.33	324.16	9.87	-54.0	-59.6	3.7	0.00e+00	0	51	104	10317987840	79	27567
2026-01-06 08:55:20.33	324.30	9.78	-53.9	-59.5	3.7	0.00e+00	0	51	104	10317987840	79	27228
2026-01-06 08:55:21.32	324.45	9.70	-53.5	-59.2	3.7	0.00e+00	0	51	104	10317987840	78	28099
2026-01-06 08:55:22.32	324.59	9.61	-53.9	-59.4	3.7	0.00e+00	0	51	104	10317987840	78	28778
2026-01-06 08:55:23.32	324.74	9.53	-53.2	-59.0	3.7	0.00e+00	0	51	104	10317987840	78	27426
2026-01-06 08:55:24.32	324.88	9.44	-53.4	-59.1	3.7	0.00e+00	0	51	104	10317987840	78	27754
2026-01-06 08:55:25.33	325.02	9.36	-53.2	-59.0	3.7	0.00e+00	0	51	104	10317987840	78	27283
2026-01-06 08:55:26.33	325.16	9.27	-53.2	-59.0	3.7	0.00e+00	0	51	104	10317987840	78	27406
2026-01-06 08:55:27.32	325.30	9.19	-53.0	-58.8	3.7	0.00e+00	0	51	104	10317987840	77	28256
2026-01-06 08:55:28.32	325.44	9.10	-53.6	-59.3	3.7	0.00e+00	0	51	104	10317987840	77	29945
2026-01-06 08:55:29.32	325.58	9.02	-53.2	-58.9	3.7	0.00e+00	0	51	104	10317987840	77	28507
2026-01-06 08:55:30.32	325.71	8.94	-54.0	-59.5	3.7	0.00e+00	0	51	104	10317987840	78	29044
2026-01-06 08:55:31.33	325.85	8.85	-54.3	-59.6	3.7	0.00e+00	0	51	104	10317987840	80	26022
2026-01-06 08:55:32.33	325.98	8.77	-54.3	-59.7	3.7	0.00e+00	0	51	104	10317987840	80	26477
2026-01-06 08:55:33.32	326.12	8.69	-55.6	-60.4	3.7	0.00e+00	0	51	104	10317987840	81	27191
2026-01-06 08:55:34.32	326.25	8.60	-55.5	-60.1	3.7	0.00e+00	0	51	104	10317987840	82	24665
2026-01-06 08:55:35.32	326.38	8.52	-54.2	-59.5	3.7	0.00e+00	0	51	104	10317987840	80	25799
2026-01-06 08:55:36.31	326.51	8.44	-56.5	-60.9	3.7	0.00e+00	0	51	104	10317987840	83	25643
2026-01-06 08:55:37.31	326.64	8.36	-56.5	-61.0	3.7	0.00e+00	0	51	104	10317987840	83	25750
2026-01-06 08:55:38.31	326.77	8.28	-55.9	-60.7	3.7	0.00e+00	0	51	104	10317987840	83	25017
2026-01-06 08:55:39.31	326.90	8.20	-56.3	-60.9	3.7	0.00e+00	0	51	104	10317987840	83	25524
2026-01-06 08:55:40.31	327.03	8.12	-56.1	-60.6	3.7	0.00e+00	0	51	104	10317987840	83	24565
2026-01-06 08:55:41.31	327.15	8.03	-56.2	-60.9	3.7	0.00e+00	0	51	104	10317987840	83	25420
2026-01-06 08:55:42.31	327.28	7.95	-56.3	-61.0	3.7	0.00e+00	0	51	104	10317987840	83	25752
2026-01-06 08:55:43.31	327.40	7.87	-56.7	-61.2	3.7	0.00e+00	0	51	104	10317987840	84	25040
2026-01-06 08:55:44.31	327.53	7.79	-56.8	-61.2	3.7	0.00e+00	0	51	104	10317987840	84	24981
2026-01-06 08:55:45.31	327.65	7.71	-56.7	-61.0	3.7	0.00e+00	0	51	104	10317987840	84	24276
2026-01-06 08:55:46.31	327.77	7.63	-56.3	-60.7	3.7	0.00e+00	0	51	104	10317987840	84	23429
2026-01-06 08:55:47.31	327.90	7.55	-56.5	-60.9	3.7	0.00e+00	0	51	104	10317987840	84	23974
2026-01-06 08:55:48.31	328.02	7.48	-56.3	-60.7	3.7	0.00e+00	0	51	104	10317987840	84	23462
2026-01-06 08:55:49.31	328.14	7.40	-56.0	-60.4	3.7	0.00e+00	0	51	104	10317987840	84	22785
2026-01-06 08:55:50.31	328.26	7.32	-56.4	-60.7	3.7	0.00e+00	0	51	104	10317987840	84	23520
2026-01-06 08:55:51.30	328.37	7.24	-55.7	-60.4	3.7	0.00e+00	0	52	104	10317987840	83	24097
2026-01-06 08:55:52.31	328.49	7.16	-55.8	-60.4	3.7	0.00e+00	0	51	104	10317987840	83	24160
2026-01-06 08:55:53.31	328.61	7.08	-55.8	-60.4	3.7	0.00e+00	0	51	104	10317987840	83	24156
2026-01-06 08:55:54.31	328.73	7.01	-55.8	-60.4	3.7	0.00e+00	0	51	104	10317987840	83	24180
2026-01-06 08:55:55.31	328.84	6.93	-55.7	-60.4	3.7	0.00e+00	0	51	104	10317987840	83	24171
2026-01-06 08:55:56.31	328.96	6.85	-55.7	-60.4	3.7	0.00e+00	0	51	104	10317987840	83	24128
2026-01-06 08:55:57.32	329.07	6.77	-55.7	-60.4	3.7	0.00e+00	0	51	104	10317987840	83	24172
2026-01-06 08:55:58.32	329.19	6.70	-55.7	-60.4	3.7	0.00e+00	0	51	104	10317987840	83	24118
2026-01-06 08:55:59.32	329.30	6.62	-55.7	-60.4	3.7	0.00e+00	0	51	104	10317987840	83	24171
2026-01-06 08:56:00.32	329.41	6.55	-55.7	-60.4	3.7	0.00e+00	0	51	104	10317987840	83	24136
2026-01-06 08:56:01.31	329.52	6.47	-55.8	-60.4	3.7	0.00e+00	0	51	104	10317987840	83	24166
2026-01-06 08:56:02.31	329.63	6.39	-55.8	-60.4	3.7	0.00e+00	0	51	104	10317987840	83	24137
2026-01-06 08:56:03.31	329.74	6.32	-55.7	-60.4	3.7	0.00e+00	0	51	104	10317987840	83	24132
2026-01-06 08:56:04.31	329.85	6.24	-55.8	-60.4	3.7	0.00e+00	0	51	104	10317987840	83	24221
2026-01-06 08:56:05.31	329.96	6.17	-55.8	-60.4	3.7	0.00e+00	0	51	104	10317987840	83	24146
2026-01-06 08:56:06.31	330.06	6.09	-55.7	-60.4	3.7	0.00e+00	0	51	104	10317987840	83	24123
2026-01-06 08:56:07.31	330.17	6.02	-55.7	-60.4	3.7	0.00e+00	0	51	104	10317987840	83	24166
2026-01-06 08:56:08.31	330.28	5.94	-55.7	-60.4	3.7	0.00e+00	0	51	104	10317987840	83	24135
2026-01-06 08:56:09.31	330.38	5.87	-55.8	-60.4	3.7	0.00e+00	0	51	104	10317987840	83	24155
2026-01-06 08:56:10.30	330.49	5.80	-55.7	-60.4	3.7	0.00e+00	0	51	104	10317987840	83	24075
2026-01-06 08:56:11.30	330.59	5.72	-55.7	-60.4	3.7	0.00e+00	0	51	104	10317987840	83	24118
2026-01-06 08:56:12.30	330.70	5.65	-55.7	-60.4	3.7	0.00e+00	0	51	104	10317987840	83	24152
2026-01-06 08:56:13.30	330.80	5.58	-55.8	-60.4	3.7	0.00e+00	0	51	104	10317987840	83	24081
2026-01-06 08:56:14.30	330.90	5.50	-55.7	-60.4	3.7	0.00e+00	0	51	104	10317987840	83	24091
2026-01-06 08:56:15.30	331.00	5.43	-55.8	-60.4	3.7	0.00e+00	0	51	104	10317987840	83	24099
2026-01-06 08:56:16.29	331.10	5.36	-55.8	-60.4	3.7	0.00e+00	0	51	104	10317987840	83	24104
2026-01-06 08:56:17.29	331.20	5.29	-55.8	-60.4	3.7	0.00e+00	0	51	104	10317987840	83	24187
2026-01-06 08:56:18.28	331.30	5.21	-55.8	-60.4	3.7	0.00e+00	0	51	104	10317987840	83	24137
2026-01-06 08:56:19.28	331.40	5.14	-55.7	-60.4	3.7	0.00e+00	0	51	104	10317987840	83	24196
2026-01-06 08:56:20.28	331.50	5.07	-55.7	-60.4	3.7	0.00e+00	0	51	104	10317987840	83	24031
2026-01-06 08:56:21.28	331.60	5.00	-55.8	-60.4	3.7	0.00e+00	0	51	104	10317987840	83	24168

#Closed at: 2026-01-06 08:56:22
#Recorded file [10317 MB]: D:/Data/31040_260106_114807.dat