passes_logs/2026/01/06/T1/T1__20260106_214127_KHAYYAM_rec.log

#Pass ID: 20260106_214127_KHAYYAM
#Satellite: KHAYYAM
#Configuration: KHAYYAM_480M
#almurnet v.1.7.20251203
#Start time: 2026-01-06 21:41:29

#Version: 2.0.20230620
#Station: T1
#Location: 37.570604 lon 55.790049 lat
#TLE: 1 53370U 22096A   26005.63766736  .00008095  00000+0  32978-3 0  9997
#TLE: 2 53370  97.3565 272.8146 0001238  87.7645 272.3734 15.24731212189819

#Time	Az	El	Level	Level2	SNR	BER	BlckErr	Temp	State	Recorded	gain1	gain2
2026-01-06 21:41:29.39	9.06	5.14	-49.7	-55.5	3.4	0.00e+00	0	43	0	0	70	29112
2026-01-06 21:41:30.39	9.02	5.22	-49.7	-55.5	3.7	0.00e+00	0	43	104	0	69	30667
2026-01-06 21:41:31.40	8.99	5.31	-49.7	-55.5	3.7	0.00e+00	0	43	104	0	70	29108
2026-01-06 21:41:32.40	8.95	5.39	-49.7	-55.6	3.7	0.00e+00	0	43	104	0	70	29242
2026-01-06 21:41:33.40	8.92	5.47	-49.7	-55.5	3.7	0.00e+00	0	43	104	0	70	28999
2026-01-06 21:41:34.41	8.88	5.55	-49.7	-55.5	3.7	0.00e+00	0	43	104	0	70	28995
2026-01-06 21:41:35.41	8.85	5.63	-49.7	-55.5	3.7	0.00e+00	0	43	104	0	70	29026
2026-01-06 21:41:36.42	8.81	5.72	-49.7	-55.5	3.7	0.00e+00	0	43	104	0	70	28949
2026-01-06 21:41:37.42	8.78	5.80	-49.7	-55.5	3.7	0.00e+00	0	44	104	0	70	29035
2026-01-06 21:41:38.43	8.74	5.88	-49.7	-55.5	3.7	0.00e+00	0	44	104	0	70	28930
2026-01-06 21:41:39.43	8.70	5.97	-49.6	-55.5	3.7	0.00e+00	0	44	104	0	70	28914
2026-01-06 21:41:40.43	8.67	6.05	-49.7	-55.5	3.7	0.00e+00	0	44	104	0	70	28972
2026-01-06 21:41:41.44	8.63	6.14	-49.7	-55.5	3.7	0.00e+00	0	44	104	0	70	28949
2026-01-06 21:41:42.44	8.59	6.22	-49.7	-55.5	3.7	0.00e+00	0	44	104	0	70	29065
2026-01-06 21:41:43.45	8.55	6.31	-49.6	-55.5	3.7	0.00e+00	0	44	104	0	70	28889
2026-01-06 21:41:44.45	8.52	6.39	-49.7	-55.5	3.7	0.00e+00	0	44	104	0	70	28959
2026-01-06 21:41:45.45	8.48	6.48	-49.7	-55.5	3.7	0.00e+00	0	44	104	0	70	29010
2026-01-06 21:41:46.46	8.44	6.56	-49.7	-55.5	3.7	0.00e+00	0	44	104	0	70	29088
2026-01-06 21:41:47.47	8.40	6.65	-49.7	-55.5	3.7	0.00e+00	0	44	104	0	70	28843
2026-01-06 21:41:48.47	8.36	6.74	-49.7	-55.5	3.7	0.00e+00	0	44	104	0	70	29073
2026-01-06 21:41:49.47	8.32	6.82	-49.7	-55.5	3.7	0.00e+00	0	45	104	0	70	29031
2026-01-06 21:41:50.48	8.28	6.91	-49.6	-55.5	3.7	0.00e+00	0	45	104	0	70	28877
2026-01-06 21:41:51.48	8.24	7.00	-49.6	-55.5	3.7	0.00e+00	0	45	104	0	70	28873
2026-01-06 21:41:52.49	8.20	7.09	-49.6	-55.5	3.7	0.00e+00	0	45	104	0	70	28965
2026-01-06 21:41:53.49	8.16	7.18	-49.6	-55.5	3.7	0.00e+00	0	45	104	0	70	28933
2026-01-06 21:41:54.49	8.12	7.27	-49.6	-55.5	3.7	0.00e+00	0	45	104	0	70	28852
2026-01-06 21:41:55.50	8.07	7.36	-49.7	-55.5	3.7	0.00e+00	0	45	104	0	70	28967
2026-01-06 21:41:56.50	8.03	7.45	-49.7	-55.5	3.7	0.00e+00	0	45	104	0	70	28929
2026-01-06 21:41:57.51	7.99	7.54	-49.7	-55.6	3.7	0.00e+00	0	45	104	0	70	29200
2026-01-06 21:41:58.51	7.95	7.63	-49.7	-55.5	3.7	0.00e+00	0	45	104	0	70	29084
2026-01-06 21:41:59.52	7.90	7.72	-49.7	-55.5	3.7	0.00e+00	0	45	104	0	70	29035
2026-01-06 21:42:00.52	7.86	7.82	-49.7	-55.5	3.7	0.00e+00	0	45	104	0	70	29023
2026-01-06 21:42:01.52	7.82	7.91	-49.7	-55.5	3.7	0.00e+00	0	45	104	0	70	29034
2026-01-06 21:42:02.53	7.77	8.00	-49.7	-55.5	3.7	0.00e+00	0	45	104	0	70	28998
2026-01-06 21:42:03.53	7.73	8.09	-49.7	-55.5	3.7	0.00e+00	0	45	104	0	70	28861
2026-01-06 21:42:04.54	7.68	8.19	-49.7	-55.5	3.7	0.00e+00	0	46	104	0	70	29022
2026-01-06 21:42:05.54	7.64	8.28	-49.7	-55.5	3.7	0.00e+00	0	45	104	0	70	29015
2026-01-06 21:42:06.54	7.59	8.38	-49.7	-55.5	3.7	0.00e+00	0	46	104	0	70	28979
2026-01-06 21:42:07.55	7.54	8.47	-49.7	-55.5	3.7	0.00e+00	0	45	104	0	70	29043
2026-01-06 21:42:08.55	7.50	8.57	-49.7	-55.5	3.7	0.00e+00	0	46	104	0	70	29104
2026-01-06 21:42:09.56	7.45	8.67	-49.7	-55.5	3.7	0.00e+00	0	46	104	0	70	29028
2026-01-06 21:42:10.56	7.40	8.76	-49.7	-55.5	3.7	0.00e+00	0	45	104	0	70	29068
2026-01-06 21:42:11.56	7.35	8.86	-49.7	-55.5	3.7	0.00e+00	0	46	104	0	70	29083
2026-01-06 21:42:12.57	7.30	8.96	-49.7	-55.5	3.7	0.00e+00	0	46	104	0	70	29061
2026-01-06 21:42:13.57	7.25	9.05	-49.7	-55.6	3.7	0.00e+00	0	46	104	0	70	29247
2026-01-06 21:42:14.58	7.21	9.15	-49.7	-55.6	3.7	0.00e+00	0	46	104	0	70	29304
2026-01-06 21:42:15.58	7.16	9.25	-49.6	-55.3	3.7	0.00e+00	0	46	104	0	70	28245
2026-01-06 21:42:16.74	7.10	9.37	-49.9	-55.3	3.7	0.00e+00	0	46	104	0	70	28162
2026-01-06 21:42:17.63	7.05	9.46	-49.9	-55.5	3.7	0.00e+00	0	46	104	0	70	28880
2026-01-06 21:42:18.78	6.99	9.57	-49.5	-55.2	3.7	0.00e+00	0	46	104	0	70	27854
2026-01-06 21:42:19.70	6.95	9.67	-49.2	-54.9	3.7	0.00e+00	0	46	104	0	70	27161
2026-01-06 21:42:20.88	6.88	9.79	-49.5	-55.2	3.7	0.00e+00	0	46	104	0	70	28120
2026-01-06 21:42:21.74	6.84	9.87	-49.5	-55.3	3.7	0.00e+00	0	46	104	0	70	28330
2026-01-06 21:42:23.10	6.77	10.01	-49.7	-55.6	3.7	0.00e+00	0	46	104	0	70	29262
2026-01-06 21:42:24.22	6.71	10.13	-49.9	-55.8	3.7	0.00e+00	0	46	104	0	70	30022
2026-01-06 21:42:25.08	6.66	10.22	-49.7	-55.3	3.7	0.00e+00	0	46	104	0	70	28201
2026-01-06 21:42:26.23	6.60	10.34	-50.1	-55.4	3.7	0.00e+00	0	46	104	0	70	28608
2026-01-06 21:42:27.09	6.55	10.43	-50.6	-56.4	3.7	0.00e+00	0	46	104	0	71	30447
2026-01-06 21:42:28.24	6.48	10.55	-50.0	-55.7	3.7	0.00e+00	0	46	104	0	71	27915
2026-01-06 21:42:29.10	6.44	10.64	-50.0	-55.5	3.7	0.00e+00	0	46	104	0	71	27251
2026-01-06 21:42:30.32	6.37	10.77	-50.2	-55.7	3.7	0.00e+00	0	46	104	0	71	28076
2026-01-06 21:42:31.18	6.32	10.87	-50.3	-56.0	3.7	0.00e+00	0	46	104	0	71	28870
2026-01-06 21:42:32.33	6.25	10.99	-50.3	-56.1	3.7	0.00e+00	0	46	104	0	71	29217
2026-01-06 21:42:33.19	6.20	11.08	-50.4	-56.2	3.7	0.00e+00	0	46	104	0	71	29532
2026-01-06 21:42:34.48	6.12	11.22	-50.7	-56.3	3.7	0.00e+00	0	46	104	0	72	28464
2026-01-06 21:42:35.20	6.08	11.30	-50.5	-56.1	3.7	0.00e+00	0	46	104	0	72	27746
2026-01-06 21:42:36.49	6.00	11.45	-50.7	-56.2	3.7	0.00e+00	0	47	104	0	72	27942
2026-01-06 21:42:37.20	5.96	11.53	-50.1	-56.0	3.7	0.00e+00	0	47	104	0	71	29045
2026-01-06 21:42:38.50	5.88	11.67	-50.7	-56.1	3.7	0.00e+00	0	47	104	0	71	29467
2026-01-06 21:42:39.23	5.83	11.75	-50.8	-56.2	3.7	0.00e+00	0	47	104	0	72	28015
2026-01-06 21:42:40.52	5.75	11.90	-50.5	-56.2	3.7	0.00e+00	0	47	104	0	72	27867
2026-01-06 21:42:41.23	5.71	11.98	-50.7	-56.2	3.7	0.00e+00	0	46	104	0	72	28140
2026-01-06 21:42:42.52	5.62	12.13	-50.7	-56.3	3.7	0.00e+00	0	47	104	0	72	28244
2026-01-06 21:42:43.24	5.58	12.21	-50.7	-56.2	3.7	0.00e+00	0	47	104	0	72	28125
2026-01-06 21:42:44.53	5.49	12.36	-50.5	-56.2	3.7	0.00e+00	0	47	104	0	72	27969
2026-01-06 21:42:45.25	5.44	12.45	-50.1	-56.0	3.7	0.00e+00	0	47	104	0	71	28944
2026-01-06 21:42:46.54	5.36	12.60	-50.7	-56.1	3.7	0.00e+00	0	47	104	0	72	27560
2026-01-06 21:42:47.25	5.31	12.68	-50.6	-55.9	3.7	0.00e+00	0	47	104	0	72	27159
2026-01-06 21:42:48.54	5.22	12.84	-50.0	-55.7	3.7	0.00e+00	0	47	104	0	72	26315
2026-01-06 21:42:49.26	5.17	12.92	-50.1	-55.4	3.7	0.00e+00	0	47	104	0	71	27082
2026-01-06 21:42:50.55	5.08	13.08	-50.2	-55.5	3.7	0.00e+00	0	47	104	0	72	25792
2026-01-06 21:42:51.26	5.03	13.16	-49.9	-55.4	3.7	0.00e+00	0	47	104	0	71	27147
2026-01-06 21:42:52.55	4.94	13.32	-50.1	-55.6	3.7	0.00e+00	0	47	104	0	71	27605
2026-01-06 21:42:53.27	4.89	13.41	-50.2	-55.5	3.7	0.00e+00	0	47	104	0	71	27412
2026-01-06 21:42:54.56	4.79	13.57	-50.6	-55.9	3.7	0.00e+00	0	47	104	0	71	28535
2026-01-06 21:42:55.27	4.74	13.66	-50.7	-55.9	3.7	0.00e+00	0	47	104	0	72	27091
2026-01-06 21:42:56.56	4.65	13.82	-50.0	-55.2	3.7	0.00e+00	0	47	104	0	72	25090
2026-01-06 21:42:57.28	4.59	13.91	-50.3	-55.5	3.7	0.00e+00	0	47	104	0	72	25941
2026-01-06 21:42:58.57	4.49	14.07	-50.0	-55.3	3.7	0.00e+00	0	47	104	0	72	25123
2026-01-06 21:42:59.28	4.44	14.16	-50.1	-55.3	3.7	0.00e+00	0	47	104	0	71	26786
2026-01-06 21:43:00.57	4.34	14.33	-50.2	-55.7	3.7	0.00e+00	0	47	104	0	71	27880
2026-01-06 21:43:01.29	4.28	14.42	-50.5	-55.7	3.7	0.00e+00	0	47	104	0	71	27957
2026-01-06 21:43:02.68	4.17	14.61	-50.3	-55.7	3.7	0.00e+00	0	47	104	0	72	26399
2026-01-06 21:43:03.39	4.11	14.70	-50.2	-55.6	3.7	0.00e+00	0	47	104	0	72	26038
2026-01-06 21:43:04.75	4.00	14.88	-50.3	-55.7	3.7	0.00e+00	0	47	104	0	72	26333
2026-01-06 21:43:05.47	3.94	14.97	-50.5	-55.7	3.7	0.00e+00	0	47	104	0	72	26568
2026-01-06 21:43:06.75	3.84	15.15	-50.7	-56.0	3.7	0.00e+00	0	47	104	0	72	27388
2026-01-06 21:43:07.47	3.78	15.24	-50.8	-56.2	3.7	0.00e+00	0	47	104	0	72	28064
2026-01-06 21:43:08.76	3.67	15.42	-50.4	-56.0	3.7	0.00e+00	0	47	104	0	72	27270
2026-01-06 21:43:09.47	3.61	15.52	-50.7	-55.8	3.7	0.00e+00	0	47	104	0	72	26827
2026-01-06 21:43:10.77	3.49	15.69	-51.0	-55.5	3.7	0.00e+00	0	47	104	0	72	25785
2026-01-06 21:43:11.48	3.43	15.79	-51.1	-55.9	3.7	0.00e+00	0	47	104	0	72	26962
2026-01-06 21:43:12.77	3.32	15.97	-51.6	-56.4	3.7	0.00e+00	0	47	104	0	73	27006
2026-01-06 21:43:13.49	3.25	16.08	-51.2	-55.7	3.7	0.00e+00	0	47	104	0	74	23542
2026-01-06 21:43:14.78	3.13	16.26	-50.8	-55.2	3.7	0.00e+00	0	47	104	0	73	23629
2026-01-06 21:43:15.49	3.07	16.36	-51.5	-56.1	3.7	0.00e+00	0	47	104	0	73	26236
2026-01-06 21:43:16.78	2.95	16.55	-51.8	-56.7	3.7	0.00e+00	0	47	104	0	74	26355
2026-01-06 21:43:17.50	2.88	16.65	-51.8	-56.6	3.7	0.00e+00	0	47	104	0	74	25984
2026-01-06 21:43:18.79	2.76	16.84	-51.6	-56.2	3.7	0.00e+00	0	47	104	0	74	25084
2026-01-06 21:43:19.50	2.69	16.94	-51.3	-56.0	3.7	0.00e+00	0	47	104	0	74	24473
2026-01-06 21:43:20.79	2.56	17.13	-50.5	-55.5	3.7	0.00e+00	0	47	104	0	73	24312
2026-01-06 21:43:21.51	2.49	17.24	-50.4	-55.3	3.7	0.00e+00	0	47	104	0	72	25106
2026-01-06 21:43:22.80	2.36	17.44	-51.3	-55.2	3.7	0.00e+00	0	47	104	0	73	23445
2026-01-06 21:43:23.52	2.29	17.54	-51.7	-56.6	3.7	0.00e+00	0	47	104	0	74	26086
2026-01-06 21:43:24.81	2.16	17.74	-50.6	-55.0	3.7	0.00e+00	0	47	104	0	73	23140
2026-01-06 21:43:25.52	2.08	17.85	-50.6	-55.1	3.7	0.00e+00	0	47	104	0	73	23323
2026-01-06 21:43:26.81	1.95	18.05	-51.1	-56.1	3.7	0.00e+00	0	47	104	0	73	26113
2026-01-06 21:43:27.61	1.86	18.18	-51.1	-56.2	3.7	0.00e+00	0	47	104	0	73	26506
2026-01-06 21:43:29.09	1.70	18.41	-50.9	-55.9	3.7	0.00e+00	0	47	104	0	73	25552
2026-01-06 21:43:29.81	1.62	18.52	-50.9	-55.8	3.7	0.00e+00	0	47	104	0	73	25353
2026-01-06 21:43:31.09	1.48	18.73	-51.2	-56.4	3.7	0.00e+00	0	47	104	0	73	26906
2026-01-06 21:43:31.81	1.40	18.84	-52.2	-57.2	3.7	0.00e+00	0	47	104	0	75	26504
2026-01-06 21:43:33.10	1.25	19.05	-52.2	-56.8	3.7	0.00e+00	0	47	104	0	75	25176
2026-01-06 21:43:33.81	1.17	19.17	-51.0	-56.3	3.7	0.00e+00	0	47	104	0	74	25293
2026-01-06 21:43:35.11	1.02	19.38	-52.1	-57.0	3.7	0.00e+00	0	48	104	0	74	27495
2026-01-06 21:43:35.89	0.93	19.51	-52.2	-57.2	3.7	0.00e+00	0	47	104	0	75	26404
2026-01-06 21:43:37.17	0.77	19.73	-52.3	-57.3	3.7	0.00e+00	0	47	104	0	75	26638
2026-01-06 21:43:37.97	0.67	19.86	-52.1	-57.1	3.7	0.00e+00	0	47	104	0	75	26162
2026-01-06 21:43:39.12	0.53	20.06	-51.9	-56.9	3.7	0.00e+00	0	47	104	0	75	25640
2026-01-06 21:43:40.22	0.39	20.25	-51.9	-56.8	3.7	0.00e+00	0	47	104	0	75	25122
2026-01-06 21:43:41.25	0.26	20.43	-52.0	-56.8	3.7	0.00e+00	0	47	104	0	75	25102
2026-01-06 21:43:42.25	0.14	20.60	-52.3	-57.0	3.7	0.00e+00	0	47	104	0	75	25754
2026-01-06 21:43:43.46	359.98	20.82	-51.7	-56.6	3.7	0.00e+00	0	47	104	0	75	24705
2026-01-06 21:43:44.35	359.86	20.98	-52.4	-57.1	3.7	0.00e+00	0	47	104	0	75	25995
2026-01-06 21:43:45.43	359.71	21.17	-52.5	-57.1	3.7	0.00e+00	0	47	104	0	75	26190
2026-01-06 21:43:46.29	359.60	21.33	-52.5	-57.1	3.7	0.00e+00	0	47	104	0	75	26081
2026-01-06 21:43:47.44	359.44	21.54	-52.4	-57.1	3.7	0.00e+00	0	47	104	0	75	26070
2026-01-06 21:43:48.30	359.32	21.69	-52.1	-57.1	3.7	0.00e+00	0	47	104	0	75	26047
2026-01-06 21:43:49.45	359.16	21.91	-52.1	-57.1	3.7	0.00e+00	0	47	104	0	75	26071
2026-01-06 21:43:50.31	359.03	22.07	-51.4	-56.6	3.7	0.00e+00	0	47	104	0	74	26020
2026-01-06 21:43:51.45	358.87	22.28	-51.5	-56.4	3.7	0.00e+00	0	47	104	0	74	25424
2026-01-06 21:43:52.31	358.74	22.45	-51.3	-56.5	3.7	0.00e+00	0	47	104	0	74	25737
2026-01-06 21:43:53.46	358.57	22.67	-52.0	-56.7	3.7	0.00e+00	0	47	104	0	74	26553
2026-01-06 21:43:54.32	358.44	22.83	-52.3	-57.2	3.7	0.00e+00	0	47	104	0	75	26313
2026-01-06 21:43:55.46	358.26	23.06	-52.6	-57.3	3.7	0.00e+00	0	47	104	0	75	26880
2026-01-06 21:43:56.33	358.12	23.23	-52.6	-57.3	3.7	0.00e+00	0	47	104	0	75	26684
2026-01-06 21:43:57.58	357.92	23.48	-52.7	-57.3	3.7	0.00e+00	0	47	104	0	75	26642
2026-01-06 21:43:58.34	357.80	23.63	-52.7	-57.3	3.7	0.00e+00	0	48	104	0	76	25329
2026-01-06 21:43:59.64	357.59	23.89	-52.9	-57.5	3.7	0.00e+00	0	47	104	0	76	25939
2026-01-06 21:44:00.35	357.47	24.04	-52.8	-57.5	3.7	0.00e+00	0	47	104	0	76	25816
2026-01-06 21:44:01.64	357.25	24.30	-52.8	-57.6	3.7	0.00e+00	0	47	104	0	76	26067
2026-01-06 21:44:02.36	357.13	24.45	-52.5	-57.3	3.7	0.00e+00	0	47	104	0	76	25223
2026-01-06 21:44:03.64	356.91	24.72	-52.2	-57.1	3.7	0.00e+00	0	47	104	0	76	24644
2026-01-06 21:44:04.36	356.78	24.87	-52.0	-57.0	3.7	0.00e+00	0	48	104	0	76	24439
2026-01-06 21:44:05.65	356.55	25.14	-52.2	-57.0	3.7	0.00e+00	0	47	104	0	76	24459
2026-01-06 21:44:06.37	356.42	25.30	-52.2	-57.0	3.7	0.00e+00	0	48	104	0	76	24309
2026-01-06 21:44:07.66	356.18	25.58	-52.4	-57.0	3.7	0.00e+00	0	47	104	0	76	24292
2026-01-06 21:44:08.58	356.00	25.78	-52.3	-56.9	3.7	0.00e+00	0	48	104	0	76	24108
2026-01-06 21:44:09.90	355.75	26.07	-52.8	-57.3	3.7	0.00e+00	0	48	104	0	76	25361
2026-01-06 21:44:10.62	355.61	26.23	-52.8	-57.6	3.7	0.00e+00	0	47	104	0	76	26088
2026-01-06 21:44:12.26	355.28	26.60	-52.7	-57.3	3.7	0.00e+00	0	47	104	0	76	25212
2026-01-06 21:44:12.83	355.17	26.73	-53.0	-57.6	3.7	0.00e+00	0	48	104	0	76	26133
2026-01-06 21:44:14.41	354.84	27.09	-52.4	-57.3	3.7	0.00e+00	0	47	104	0	76	25098
2026-01-06 21:44:14.98	354.73	27.22	-52.8	-57.5	3.7	0.00e+00	0	47	104	0	76	25750
2026-01-06 21:44:16.56	354.39	27.59	-52.4	-57.2	3.7	0.00e+00	0	47	104	0	76	24985
2026-01-06 21:44:17.13	354.27	27.72	-52.4	-57.3	3.7	0.00e+00	0	48	104	0	76	25277
2026-01-06 21:44:18.80	353.90	28.12	-52.5	-57.1	3.7	0.00e+00	0	48	104	0	76	24616
2026-01-06 21:44:19.37	353.77	28.26	-52.7	-57.2	3.7	0.00e+00	0	48	104	0	76	24884
2026-01-06 21:44:20.95	353.41	28.64	-53.0	-57.4	3.7	0.00e+00	0	48	104	0	76	25623
2026-01-06 21:44:21.57	353.26	28.79	-52.8	-57.5	3.7	0.00e+00	0	48	104	0	76	25687
2026-01-06 21:44:23.14	352.89	29.18	-52.9	-57.5	3.7	0.00e+00	0	47	104	0	76	25761
2026-01-06 21:44:23.72	352.75	29.32	-52.3	-57.2	3.7	0.00e+00	0	48	104	0	76	24949
2026-01-06 21:44:25.30	352.36	29.72	-52.4	-57.1	3.7	0.00e+00	0	48	104	0	76	24764
2026-01-06 21:44:26.07	352.17	29.92	-53.1	-57.6	3.7	0.00e+00	0	48	104	0	76	26085
2026-01-06 21:44:27.36	351.84	30.25	-52.5	-56.9	3.7	0.00e+00	0	48	104	0	76	24177
2026-01-06 21:44:28.08	351.65	30.43	-52.9	-57.1	3.7	0.00e+00	0	48	104	0	76	24751
2026-01-06 21:44:29.37	351.31	30.77	-52.7	-56.9	3.7	0.00e+00	0	47	104	0	76	24085
2026-01-06 21:44:30.08	351.11	30.96	-52.9	-57.3	3.7	0.00e+00	0	48	104	0	76	25202
2026-01-06 21:44:31.37	350.76	31.30	-52.6	-57.4	3.7	0.00e+00	0	48	104	0	76	25574
2026-01-06 21:44:32.09	350.56	31.49	-52.4	-57.3	3.7	0.00e+00	0	48	104	0	76	25252
2026-01-06 21:44:33.47	350.16	31.86	-52.3	-57.0	3.7	0.00e+00	0	48	104	0	76	24364
2026-01-06 21:44:34.19	349.95	32.06	-52.1	-56.8	3.7	0.00e+00	0	48	104	0	76	23866
2026-01-06 21:44:35.48	349.57	32.41	-51.6	-56.6	3.7	0.00e+00	0	48	104	0	75	24587
2026-01-06 21:44:36.20	349.36	32.61	-51.3	-56.4	3.7	0.00e+00	0	48	104	0	74	25408
2026-01-06 21:44:37.49	348.96	32.97	-51.6	-56.6	3.7	0.00e+00	0	48	104	0	74	26184
2026-01-06 21:44:38.21	348.73	33.17	-51.3	-56.4	3.7	0.00e+00	0	48	104	0	74	25616
2026-01-06 21:44:39.67	348.27	33.58	-52.4	-57.2	3.7	0.00e+00	0	47	104	0	75	26313
2026-01-06 21:44:40.39	348.03	33.79	-52.5	-57.3	3.7	0.00e+00	0	48	104	0	75	26596
2026-01-06 21:44:41.74	347.58	34.17	-52.5	-57.4	3.7	0.00e+00	0	48	104	0	75	26914
2026-01-06 21:44:42.45	347.34	34.38	-52.4	-57.3	3.7	0.00e+00	0	48	104	0	75	26792
2026-01-06 21:44:43.74	346.89	34.76	-52.5	-57.3	3.7	0.00e+00	0	48	104	0	75	26751
2026-01-06 21:44:44.46	346.64	34.97	-52.5	-57.2	3.7	0.00e+00	0	48	104	0	75	26485
2026-01-06 21:44:45.75	346.18	35.35	-52.4	-57.4	3.7	0.00e+00	0	48	104	0	75	27072
2026-01-06 21:44:46.47	345.91	35.56	-52.4	-57.4	3.7	0.00e+00	0	48	104	0	75	26944
2026-01-06 21:44:47.75	345.43	35.94	-51.8	-57.1	3.7	0.00e+00	0	48	104	0	75	26008
2026-01-06 21:44:48.48	345.15	36.16	-51.7	-56.8	3.7	0.00e+00	0	48	104	0	75	25181
2026-01-06 21:44:49.77	344.65	36.56	-51.1	-56.6	3.7	0.00e+00	0	48	104	0	74	26147
2026-01-06 21:44:50.49	344.37	36.77	-51.1	-56.6	3.7	0.00e+00	0	48	104	0	74	26203
2026-01-06 21:44:51.77	343.85	37.17	-51.0	-56.5	3.7	0.00e+00	0	48	104	0	74	25883
2026-01-06 21:44:52.49	343.55	37.39	-51.1	-56.6	3.7	0.00e+00	0	48	104	0	74	26015
2026-01-06 21:44:53.78	343.00	37.79	-51.9	-56.9	3.7	0.00e+00	0	48	104	0	74	27106
2026-01-06 21:44:54.66	342.62	38.06	-52.5	-57.2	3.7	0.00e+00	0	48	104	0	75	26527
2026-01-06 21:44:56.11	341.98	38.52	-53.0	-57.6	3.7	0.00e+00	0	48	104	0	76	26161
2026-01-06 21:44:57.24	341.47	38.88	-53.2	-57.8	3.7	0.00e+00	0	48	104	0	77	25250
2026-01-06 21:44:58.10	341.07	39.15	-52.0	-57.1	3.7	0.00e+00	0	48	104	0	76	24692
2026-01-06 21:44:59.26	340.52	39.52	-51.7	-56.8	3.7	0.00e+00	0	48	104	0	75	25354
2026-01-06 21:45:00.12	340.11	39.79	-51.7	-56.9	3.7	0.00e+00	0	48	104	0	75	25613
2026-01-06 21:45:01.33	339.51	40.18	-52.3	-57.3	3.7	0.00e+00	0	47	104	0	75	26824
2026-01-06 21:45:02.19	339.08	40.46	-52.5	-57.5	3.7	0.00e+00	0	48	104	0	75	27225
2026-01-06 21:45:03.33	338.49	40.82	-52.4	-57.3	3.7	0.00e+00	0	48	104	0	75	26758
2026-01-06 21:45:04.19	338.04	41.10	-52.3	-57.1	3.7	0.00e+00	0	47	104	0	75	26248
2026-01-06 21:45:05.34	337.42	41.47	-52.2	-57.1	3.7	0.00e+00	0	48	104	0	75	26054
2026-01-06 21:45:06.20	336.95	41.75	-52.1	-57.3	3.7	0.00e+00	0	48	104	0	75	26661
2026-01-06 21:45:07.34	336.31	42.12	-52.1	-57.2	3.7	0.00e+00	0	48	104	0	75	26510
2026-01-06 21:45:08.20	335.82	42.40	-52.3	-57.3	3.7	0.00e+00	0	47	104	0	75	26858
2026-01-06 21:45:09.35	335.14	42.78	-52.2	-57.2	3.7	0.00e+00	0	47	104	0	75	26392
2026-01-06 21:45:10.21	334.63	43.06	-52.8	-57.5	3.7	0.00e+00	0	48	104	0	76	25789
2026-01-06 21:45:11.36	333.93	43.43	-52.8	-57.5	3.7	0.00e+00	0	48	104	0	76	25852
2026-01-06 21:45:12.22	333.39	43.71	-53.2	-57.8	3.7	0.00e+00	0	48	104	0	76	26622
2026-01-06 21:45:13.37	332.66	44.08	-53.0	-57.6	3.7	0.00e+00	0	48	104	0	77	24569
2026-01-06 21:45:14.23	332.10	44.36	-52.7	-57.4	3.7	0.00e+00	0	48	104	0	77	24160
2026-01-06 21:45:15.44	331.29	44.75	-52.7	-57.5	3.7	0.00e+00	0	48	104	0	77	24322
2026-01-06 21:45:16.30	330.71	45.02	-52.6	-57.5	3.7	0.00e+00	0	48	104	0	76	25913
2026-01-06 21:45:17.44	329.92	45.38	-52.8	-57.4	3.7	0.00e+00	0	48	104	0	76	25650
2026-01-06 21:45:18.30	329.31	45.66	-53.0	-57.5	3.7	0.00e+00	0	48	104	0	76	25908
2026-01-06 21:45:19.45	328.48	46.02	-52.9	-57.5	3.7	0.00e+00	0	48	104	0	76	25754
2026-01-06 21:45:20.31	327.84	46.29	-52.6	-57.4	3.7	0.00e+00	0	48	104	0	76	25562
2026-01-06 21:45:21.46	326.97	46.64	-52.5	-57.4	3.7	0.00e+00	0	48	104	0	76	25503
2026-01-06 21:45:22.32	326.31	46.91	-52.4	-57.3	3.7	0.00e+00	0	48	104	0	76	25210
2026-01-06 21:45:23.46	325.42	47.25	-52.5	-57.3	3.7	0.00e+00	0	48	104	0	76	25379
2026-01-06 21:45:24.32	324.73	47.51	-53.2	-57.7	3.7	0.00e+00	0	48	104	0	77	24945
2026-01-06 21:45:25.47	323.79	47.85	-53.2	-57.7	3.7	0.00e+00	0	48	104	0	77	24972
2026-01-06 21:45:26.33	323.07	48.11	-53.0	-57.5	3.7	0.00e+00	0	48	104	0	77	24486
2026-01-06 21:45:27.47	322.10	48.43	-53.0	-57.5	3.7	0.00e+00	0	48	104	0	77	24312
2026-01-06 21:45:28.34	321.35	48.68	-52.8	-57.4	3.7	0.00e+00	0	48	104	0	77	24008
2026-01-06 21:45:29.48	320.34	49.00	-52.4	-57.1	3.7	0.00e+00	0	48	104	0	76	24701
2026-01-06 21:45:30.34	319.56	49.23	-52.5	-57.1	3.7	0.00e+00	0	48	104	0	76	24625
2026-01-06 21:45:31.57	318.44	49.56	-52.6	-57.2	3.7	0.00e+00	0	48	104	0	76	24912
2026-01-06 21:45:32.43	317.63	49.79	-52.4	-56.9	3.7	0.00e+00	0	48	104	0	76	24201
2026-01-06 21:45:33.58	316.54	50.08	-52.0	-56.6	3.7	0.00e+00	0	48	104	0	76	23258
2026-01-06 21:45:34.44	315.70	50.29	-52.3	-56.9	3.7	0.00e+00	0	48	104	0	76	23965
2026-01-06 21:45:35.58	314.58	50.57	-52.3	-57.0	3.7	0.00e+00	0	48	104	0	76	24382
2026-01-06 21:45:36.51	313.65	50.78	-52.1	-56.9	3.7	0.00e+00	0	48	104	0	76	24085
2026-01-06 21:45:37.51	312.64	51.01	-52.7	-57.4	3.6	0.00e+00	0	48	104	0	76	25528
2026-01-06 21:45:38.51	311.60	51.23	-53.0	-57.7	3.7	0.00e+00	0	48	104	0	76	26318
2026-01-06 21:45:39.52	310.55	51.44	-52.5	-57.4	3.7	0.00e+00	0	48	104	0	76	25448
2026-01-06 21:45:40.52	309.48	51.64	-52.5	-57.2	3.7	0.00e+00	0	47	104	0	76	24925
2026-01-06 21:45:41.52	308.41	51.83	-52.5	-57.2	3.7	0.00e+00	0	48	104	0	76	24916
2026-01-06 21:45:42.53	307.31	52.01	-53.0	-57.4	3.7	0.00e+00	0	47	104	0	76	25657
2026-01-06 21:45:43.53	306.20	52.18	-53.1	-57.6	3.7	0.00e+00	0	48	104	0	76	26005
2026-01-06 21:45:44.54	305.07	52.34	-53.0	-57.5	3.7	0.00e+00	0	48	104	0	76	25775
2026-01-06 21:45:45.54	303.95	52.49	-52.6	-57.3	3.7	0.00e+00	0	48	104	0	76	25258
2026-01-06 21:45:46.54	302.81	52.63	-52.8	-57.2	3.7	0.00e+00	0	48	104	0	76	24991
2026-01-06 21:45:47.55	301.64	52.76	-53.1	-57.3	3.7	0.00e+00	0	48	104	0	76	25147
2026-01-06 21:45:48.55	300.48	52.87	-53.0	-57.4	3.7	0.00e+00	0	48	104	0	76	25645
2026-01-06 21:45:49.56	299.30	52.98	-52.9	-57.3	3.7	0.00e+00	0	48	104	0	76	25188
2026-01-06 21:45:50.56	298.12	53.07	-53.1	-57.5	3.7	0.00e+00	0	48	104	0	76	25701
2026-01-06 21:45:51.56	296.94	53.15	-53.1	-57.3	3.7	0.00e+00	0	48	104	0	76	25250
2026-01-06 21:45:52.57	295.73	53.22	-52.9	-57.0	3.7	0.00e+00	0	48	104	0	76	24372
2026-01-06 21:45:53.57	294.54	53.28	-53.2	-57.5	3.7	0.00e+00	0	48	104	0	77	24395
2026-01-06 21:45:54.58	293.32	53.32	-53.3	-57.5	3.7	0.00e+00	0	48	104	0	77	24258
2026-01-06 21:45:55.58	292.12	53.35	-53.2	-57.5	3.7	0.00e+00	0	47	104	0	77	24277
2026-01-06 21:45:56.58	290.91	53.37	-53.1	-57.5	3.7	0.00e+00	0	48	104	0	77	24476
2026-01-06 21:45:57.58	289.71	53.37	-53.1	-57.6	3.7	0.00e+00	0	48	104	0	77	24585
2026-01-06 21:45:58.59	288.49	53.37	-53.3	-57.8	3.7	0.00e+00	0	48	104	0	77	25166
2026-01-06 21:45:59.59	287.28	53.34	-53.2	-57.5	3.7	0.00e+00	0	48	104	0	77	24501
2026-01-06 21:46:00.59	286.08	53.31	-53.3	-57.6	3.7	0.00e+00	0	48	104	0	77	24733
2026-01-06 21:46:01.60	284.86	53.27	-53.2	-57.7	3.7	0.00e+00	0	48	104	0	77	25032
2026-01-06 21:46:02.60	283.67	53.21	-52.9	-57.6	3.7	0.00e+00	0	48	104	0	77	24633
2026-01-06 21:46:03.60	282.48	53.14	-53.0	-57.7	3.7	0.00e+00	0	48	104	0	77	24937
2026-01-06 21:46:04.69	281.19	53.05	-53.1	-57.7	3.7	0.00e+00	0	48	104	0	77	24980
2026-01-06 21:46:05.55	280.17	52.96	-53.1	-57.7	3.7	0.00e+00	0	48	104	0	77	24885
2026-01-06 21:46:06.69	278.84	52.84	-53.2	-57.7	3.7	0.00e+00	0	48	104	0	77	25046
2026-01-06 21:46:07.65	277.73	52.73	-53.1	-57.7	3.7	0.00e+00	0	48	104	0	77	25030
2026-01-06 21:46:08.84	276.36	52.57	-53.2	-57.7	3.7	0.00e+00	0	48	104	0	77	25062
2026-01-06 21:46:09.73	275.35	52.44	-53.2	-57.8	3.7	0.00e+00	0	48	104	0	77	25291
2026-01-06 21:46:10.88	274.05	52.27	-53.1	-57.7	3.7	0.00e+00	0	48	104	0	77	24949
2026-01-06 21:46:11.80	273.03	52.12	-52.9	-57.5	3.7	0.00e+00	0	48	104	0	77	24394
2026-01-06 21:46:12.98	271.73	51.91	-52.9	-57.5	3.7	0.00e+00	0	48	104	0	77	24445
2026-01-06 21:46:13.84	270.80	51.75	-53.3	-57.8	3.6	0.00e+00	0	48	104	0	77	25244
2026-01-06 21:46:14.99	269.57	51.52	-53.3	-57.7	3.7	0.00e+00	0	48	104	0	77	25005
2026-01-06 21:46:15.84	268.67	51.35	-53.0	-57.6	3.7	0.00e+00	0	48	104	0	77	24723
2026-01-06 21:46:16.99	267.47	51.11	-53.0	-57.6	3.7	0.00e+00	0	48	104	0	77	24614
2026-01-06 21:46:17.85	266.59	50.92	-53.2	-57.9	3.7	0.00e+00	0	48	104	0	77	25385
2026-01-06 21:46:19.00	265.43	50.65	-53.0	-57.7	3.7	0.00e+00	0	48	104	0	77	24965
2026-01-06 21:46:19.85	264.58	50.45	-53.2	-57.8	3.7	0.00e+00	0	48	104	0	77	25224
2026-01-06 21:46:21.00	263.46	50.17	-53.2	-57.7	3.7	0.00e+00	0	48	104	0	77	25019
2026-01-06 21:46:21.86	262.63	49.95	-52.4	-57.3	3.7	0.00e+00	0	48	104	0	76	25222
2026-01-06 21:46:23.00	261.55	49.66	-52.1	-57.2	3.7	0.00e+00	0	48	104	0	76	25019
2026-01-06 21:46:23.86	260.75	49.43	-53.0	-57.7	3.7	0.00e+00	0	48	104	0	76	26359
2026-01-06 21:46:25.01	259.70	49.12	-52.8	-57.6	3.7	0.00e+00	0	48	104	0	76	26117
2026-01-06 21:46:25.87	258.93	48.88	-53.0	-57.7	3.7	0.00e+00	0	48	104	0	77	24921
2026-01-06 21:46:27.02	257.92	48.56	-52.8	-57.4	3.7	0.00e+00	0	48	104	0	77	24121
2026-01-06 21:46:27.88	257.18	48.31	-52.9	-57.4	3.6	0.00e+00	0	48	104	0	77	24005
2026-01-06 21:46:29.03	256.21	47.97	-53.0	-57.5	3.7	0.00e+00	0	48	104	0	77	24311
2026-01-06 21:46:29.89	255.49	47.72	-53.0	-57.4	3.7	0.00e+00	0	48	104	0	77	24074
2026-01-06 21:46:31.03	254.57	47.38	-53.2	-57.6	3.7	0.00e+00	0	48	104	0	77	24792
2026-01-06 21:46:31.89	253.88	47.12	-53.2	-57.6	3.7	0.00e+00	0	48	104	0	77	24671
2026-01-06 21:46:33.04	252.98	46.77	-53.1	-57.5	3.7	0.00e+00	0	48	104	0	77	24349
2026-01-06 21:46:33.90	252.32	46.50	-53.1	-57.5	3.7	0.00e+00	0	48	104	0	77	24391
2026-01-06 21:46:35.12	251.41	46.12	-53.2	-57.5	3.7	0.00e+00	0	48	104	0	77	24361
2026-01-06 21:46:36.40	250.47	45.72	-53.3	-57.9	3.7	0.00e+00	0	48	104	0	77	25431
2026-01-06 21:46:37.13	249.95	45.48	-53.0	-57.7	3.7	0.00e+00	0	47	104	0	77	24990
2026-01-06 21:46:38.42	249.05	45.07	-53.0	-57.7	3.7	0.00e+00	0	48	104	0	77	25067
2026-01-06 21:46:39.14	248.56	44.84	-53.0	-57.6	3.7	0.00e+00	0	48	104	0	77	24613
2026-01-06 21:46:40.48	247.66	44.41	-53.1	-57.6	3.7	0.00e+00	0	48	104	0	77	24714
2026-01-06 21:46:41.19	247.19	44.18	-52.9	-57.5	3.7	0.00e+00	0	48	104	0	77	24483
2026-01-06 21:46:42.48	246.36	43.76	-52.9	-57.5	3.7	0.00e+00	0	48	104	0	77	24476
2026-01-06 21:46:43.20	245.91	43.53	-53.1	-57.7	3.7	0.00e+00	0	48	104	0	77	24822
2026-01-06 21:46:44.63	245.03	43.06	-53.2	-57.6	3.7	0.00e+00	0	48	104	0	77	24729
2026-01-06 21:46:45.35	244.59	42.82	-53.0	-57.6	3.7	0.00e+00	0	48	104	0	77	24589
2026-01-06 21:46:46.64	243.83	42.40	-52.8	-57.5	3.7	0.00e+00	0	48	104	0	77	24292
2026-01-06 21:46:47.36	243.42	42.17	-52.8	-57.6	3.7	0.00e+00	0	48	104	0	77	24560
2026-01-06 21:46:48.76	242.63	41.71	-53.0	-57.6	3.7	0.00e+00	0	48	104	0	77	24694
2026-01-06 21:46:49.47	242.24	41.48	-53.0	-57.6	3.7	0.00e+00	0	48	104	0	77	24685
2026-01-06 21:46:50.76	241.54	41.06	-53.2	-57.7	3.7	0.00e+00	0	48	104	0	77	24824
2026-01-06 21:46:51.48	241.16	40.83	-53.2	-57.6	3.7	0.00e+00	0	48	104	0	77	24758
2026-01-06 21:46:52.77	240.50	40.41	-53.2	-57.7	3.7	0.00e+00	0	48	104	0	77	25072
2026-01-06 21:46:53.49	240.13	40.18	-53.2	-57.7	3.7	0.00e+00	0	48	104	0	77	25053
2026-01-06 21:46:54.78	239.49	39.76	-53.1	-57.7	3.7	0.00e+00	0	48	104	0	77	24968
2026-01-06 21:46:55.49	239.15	39.53	-53.2	-57.7	3.7	0.00e+00	0	48	104	0	77	24896
2026-01-06 21:46:56.78	238.53	39.12	-53.2	-57.7	3.7	0.00e+00	0	48	104	0	77	24902
2026-01-06 21:46:57.50	238.20	38.89	-53.2	-57.7	3.7	0.00e+00	0	48	104	0	77	24954
2026-01-06 21:46:58.79	237.61	38.48	-53.2	-57.6	3.7	0.00e+00	0	48	104	0	77	24603
2026-01-06 21:46:59.50	237.29	38.26	-53.0	-57.2	3.7	0.00e+00	0	48	104	0	77	23679
2026-01-06 21:47:00.80	236.72	37.85	-53.0	-57.5	3.7	0.00e+00	0	48	104	0	77	24316
2026-01-06 21:47:01.51	236.42	37.63	-52.9	-57.3	3.7	0.00e+00	0	48	104	0	77	23853
2026-01-06 21:47:02.80	235.87	37.23	-52.7	-57.4	3.7	0.00e+00	0	48	104	0	77	24183
2026-01-06 21:47:03.52	235.58	37.00	-52.4	-57.3	3.7	0.00e+00	0	48	104	0	76	25098
2026-01-06 21:47:04.80	235.06	36.61	-52.5	-57.3	3.7	0.00e+00	0	48	104	0	76	25290
2026-01-06 21:47:05.52	234.78	36.39	-52.4	-57.3	3.7	0.00e+00	0	48	104	0	76	25353
2026-01-06 21:47:06.81	234.28	36.00	-52.3	-57.3	3.7	0.00e+00	0	48	104	0	76	25130
2026-01-06 21:47:07.53	234.00	35.78	-52.4	-57.5	3.7	0.00e+00	0	48	104	0	76	25705
2026-01-06 21:47:08.82	233.52	35.39	-52.4	-57.2	3.7	0.00e+00	0	48	104	0	76	25010
2026-01-06 21:47:09.54	233.26	35.18	-52.5	-57.1	3.7	0.00e+00	0	48	104	0	76	24606
2026-01-06 21:47:10.83	232.79	34.80	-52.5	-57.2	3.7	0.00e+00	0	48	104	0	76	24891
2026-01-06 21:47:11.62	232.52	34.56	-52.9	-57.3	3.7	0.00e+00	0	48	104	0	76	25332
2026-01-06 21:47:13.08	232.02	34.14	-52.7	-57.2	3.7	0.00e+00	0	47	104	0	76	24972
2026-01-06 21:47:13.80	231.77	33.93	-52.6	-57.3	3.7	0.00e+00	0	48	104	0	76	25235
2026-01-06 21:47:15.09	231.35	33.56	-52.8	-57.4	3.7	0.00e+00	0	48	104	0	76	25566
2026-01-06 21:47:15.81	231.11	33.35	-52.7	-57.3	3.7	0.00e+00	0	48	104	0	76	25349
2026-01-06 21:47:17.09	230.71	32.99	-52.7	-57.5	3.7	0.00e+00	0	48	104	0	76	25975
2026-01-06 21:47:17.81	230.48	32.79	-53.0	-57.7	3.7	0.00e+00	0	48	104	0	76	26302
2026-01-06 21:47:19.10	230.09	32.43	-53.0	-57.7	3.7	0.00e+00	0	48	104	0	76	26472
2026-01-06 21:47:19.82	229.87	32.23	-53.0	-57.7	3.7	0.00e+00	0	48	104	0	76	26343
2026-01-06 21:47:21.11	229.49	31.88	-53.1	-57.7	3.6	0.00e+00	0	48	104	0	76	26366
2026-01-06 21:47:22.00	229.23	31.64	-52.8	-57.6	3.7	0.00e+00	0	48	104	0	76	26017
2026-01-06 21:47:23.14	228.91	31.33	-52.9	-57.6	3.7	0.00e+00	0	48	104	0	76	26160
2026-01-06 21:47:24.24	228.60	31.03	-52.8	-57.6	3.7	0.00e+00	0	48	104	0	76	26014
2026-01-06 21:47:25.29	228.31	30.76	-52.8	-57.5	3.7	0.00e+00	0	48	104	0	76	25780
2026-01-06 21:47:26.36	228.03	30.47	-53.0	-57.6	3.7	0.00e+00	0	48	104	0	76	26080
2026-01-06 21:47:27.22	227.80	30.25	-53.0	-57.6	3.7	0.00e+00	0	48	104	0	76	26036
2026-01-06 21:47:28.68	227.42	29.87	-53.1	-57.6	3.7	0.00e+00	0	48	104	0	76	26231
2026-01-06 21:47:29.40	227.24	29.69	-53.0	-57.5	3.7	0.00e+00	0	48	104	0	76	25839
2026-01-06 21:47:30.69	226.92	29.36	-53.1	-57.6	3.7	0.00e+00	0	48	104	0	76	26138
2026-01-06 21:47:31.40	226.75	29.18	-53.1	-57.6	3.7	0.00e+00	0	48	104	0	76	26246
2026-01-06 21:47:32.69	226.43	28.86	-53.0	-57.4	3.7	0.00e+00	0	48	104	0	76	25441
2026-01-06 21:47:33.41	226.26	28.69	-52.9	-57.2	3.7	0.00e+00	0	48	104	0	76	24998
2026-01-06 21:47:34.70	225.96	28.37	-52.8	-57.3	3.7	0.00e+00	0	48	104	0	76	25108
2026-01-06 21:47:35.56	225.77	28.16	-52.8	-57.2	3.7	0.00e+00	0	48	104	0	76	24928
2026-01-06 21:47:36.71	225.51	27.88	-52.9	-57.3	3.7	0.00e+00	0	48	104	0	76	25168
2026-01-06 21:47:37.57	225.32	27.68	-53.0	-57.4	3.7	0.00e+00	0	48	104	0	76	25620
2026-01-06 21:47:38.72	225.07	27.41	-53.0	-57.4	3.7	0.00e+00	0	48	104	0	76	25435
2026-01-06 21:47:39.58	224.89	27.21	-53.1	-57.5	3.7	0.00e+00	0	48	104	0	76	25771
2026-01-06 21:47:40.72	224.65	26.94	-52.8	-57.2	3.7	0.00e+00	0	48	104	0	76	25060
2026-01-06 21:47:41.58	224.47	26.74	-52.6	-57.1	3.7	0.00e+00	0	48	104	0	76	24565
2026-01-06 21:47:42.73	224.23	26.48	-52.8	-57.2	3.7	0.00e+00	0	48	104	0	76	24896
2026-01-06 21:47:43.59	224.06	26.28	-52.7	-57.1	3.7	0.00e+00	0	48	104	0	76	24551
2026-01-06 21:47:44.74	223.84	26.03	-52.5	-57.3	3.7	0.00e+00	0	48	104	0	76	25129
2026-01-06 21:47:45.60	223.67	25.83	-52.7	-57.5	3.7	0.00e+00	0	48	104	0	76	25787
2026-01-06 21:47:46.74	223.45	25.58	-52.7	-57.4	3.7	0.00e+00	0	48	104	0	76	25441
2026-01-06 21:47:47.60	223.29	25.40	-52.8	-57.5	3.7	0.00e+00	0	48	104	0	76	25844
2026-01-06 21:47:48.99	223.03	25.09	-53.0	-57.6	3.7	0.00e+00	0	48	104	0	76	26249
2026-01-06 21:47:49.70	222.90	24.94	-53.1	-57.7	3.7	0.00e+00	0	48	104	0	76	26348
2026-01-06 21:47:50.99	222.67	24.67	-53.0	-57.7	3.7	0.00e+00	0	48	104	0	76	26390
2026-01-06 21:47:51.71	222.55	24.51	-53.0	-57.7	3.7	0.00e+00	0	48	104	0	76	26333
2026-01-06 21:47:53.00	222.32	24.25	-53.0	-57.5	3.7	0.00e+00	0	48	104	0	76	25960
2026-01-06 21:47:53.72	222.20	24.10	-52.9	-57.4	3.7	0.00e+00	0	48	104	0	76	25490
2026-01-06 21:47:55.00	221.98	23.83	-53.0	-57.5	3.7	0.00e+00	0	48	104	0	76	25706
2026-01-06 21:47:55.72	221.86	23.69	-52.9	-57.3	3.7	0.00e+00	0	48	104	0	76	25215
2026-01-06 21:47:57.01	221.65	23.42	-52.9	-57.4	3.7	0.00e+00	0	48	104	0	76	25599
2026-01-06 21:47:57.72	221.54	23.28	-52.8	-57.2	3.7	0.00e+00	0	48	104	0	76	25040
2026-01-06 21:47:59.01	221.33	23.03	-52.8	-57.2	3.7	0.00e+00	0	48	104	0	76	24918
2026-01-06 21:47:59.73	221.22	22.88	-52.7	-57.1	3.7	0.00e+00	0	48	104	0	76	24654
2026-01-06 21:48:01.02	221.02	22.63	-52.7	-57.1	3.7	0.00e+00	0	48	104	0	76	24526
2026-01-06 21:48:01.73	220.91	22.49	-52.7	-57.1	3.7	0.00e+00	0	48	104	0	76	24700
2026-01-06 21:48:03.21	220.69	22.21	-52.7	-57.1	3.7	0.00e+00	0	48	104	0	76	24527
2026-01-06 21:48:03.93	220.58	22.07	-52.7	-57.0	3.7	0.00e+00	0	48	104	0	76	24439
2026-01-06 21:48:05.27	220.39	21.82	-52.9	-57.3	3.7	0.00e+00	0	48	104	0	76	25195
2026-01-06 21:48:06.25	220.25	21.64	-52.7	-57.3	3.7	0.00e+00	0	48	104	0	76	25349
2026-01-06 21:48:07.25	220.11	21.45	-52.8	-57.3	3.7	0.00e+00	0	48	104	0	76	25131
2026-01-06 21:48:08.26	219.97	21.27	-52.6	-57.3	3.7	0.00e+00	0	48	104	0	76	25157
2026-01-06 21:48:09.26	219.83	21.08	-52.6	-57.1	3.7	0.00e+00	0	48	104	0	76	24757
2026-01-06 21:48:10.26	219.69	20.90	-52.5	-57.1	3.7	0.00e+00	0	48	104	0	76	24657
2026-01-06 21:48:11.27	219.56	20.72	-52.6	-57.1	3.7	0.00e+00	0	48	104	0	76	24782
2026-01-06 21:48:12.27	219.43	20.55	-52.6	-57.1	3.7	0.00e+00	0	48	104	0	76	24635
2026-01-06 21:48:13.27	219.30	20.37	-52.5	-57.1	3.7	0.00e+00	0	48	104	0	76	24792
2026-01-06 21:48:14.28	219.17	20.19	-52.6	-57.2	3.7	0.00e+00	0	48	104	0	76	25007
2026-01-06 21:48:15.34	219.03	20.01	-52.6	-57.2	3.7	0.00e+00	0	48	104	0	76	24911
2026-01-06 21:48:16.22	218.92	19.86	-52.8	-57.3	3.7	0.00e+00	0	48	104	0	76	25193
2026-01-06 21:48:17.53	218.76	19.63	-52.7	-57.0	3.7	0.00e+00	0	48	104	0	76	24447
2026-01-06 21:48:18.24	218.68	19.51	-52.8	-57.2	3.7	0.00e+00	0	48	104	0	76	24851
2026-01-06 21:48:19.53	218.52	19.30	-52.8	-57.2	3.7	0.00e+00	0	48	104	0	76	24845
2026-01-06 21:48:20.25	218.44	19.18	-52.7	-57.1	3.7	0.00e+00	0	48	104	0	76	24645
2026-01-06 21:48:21.54	218.29	18.96	-52.7	-57.3	3.7	0.00e+00	0	48	104	0	76	25096
2026-01-06 21:48:22.25	218.20	18.85	-52.6	-57.1	3.7	0.00e+00	0	48	104	0	76	24741
2026-01-06 21:48:23.54	218.06	18.64	-52.5	-57.0	3.7	0.00e+00	0	48	104	0	76	24398
2026-01-06 21:48:24.26	217.98	18.52	-52.5	-57.0	3.7	0.00e+00	0	48	104	0	76	24311
2026-01-06 21:48:25.55	217.83	18.31	-52.4	-57.0	3.7	0.00e+00	0	48	104	0	76	24503
2026-01-06 21:48:26.26	217.75	18.20	-52.4	-57.1	3.7	0.00e+00	0	48	104	0	76	24559
2026-01-06 21:48:27.56	217.61	18.00	-52.4	-57.1	3.7	0.00e+00	0	48	104	0	76	24536
2026-01-06 21:48:28.27	217.54	17.89	-52.3	-57.0	3.7	0.00e+00	0	48	104	0	76	24321
2026-01-06 21:48:29.56	217.40	17.69	-52.4	-57.1	3.7	0.00e+00	0	48	104	0	76	24796
2026-01-06 21:48:30.28	217.33	17.57	-52.5	-57.2	3.7	0.00e+00	0	48	104	0	76	24878
2026-01-06 21:48:31.56	217.19	17.38	-52.5	-57.1	3.7	0.00e+00	0	48	104	0	76	24683
2026-01-06 21:48:32.28	217.12	17.27	-52.5	-57.1	3.7	0.00e+00	0	48	104	0	76	24801
2026-01-06 21:48:33.57	216.99	17.07	-52.3	-57.2	3.7	0.00e+00	0	48	104	0	76	24898
2026-01-06 21:48:34.28	216.92	16.97	-52.2	-57.1	3.7	0.00e+00	0	48	104	0	76	24616
2026-01-06 21:48:35.57	216.79	16.78	-52.3	-57.1	3.7	0.00e+00	0	48	104	0	76	24657
2026-01-06 21:48:36.29	216.72	16.67	-52.2	-57.0	3.7	0.00e+00	0	48	104	0	76	24504
2026-01-06 21:48:37.58	216.60	16.48	-52.2	-56.8	3.6	0.00e+00	0	48	104	0	76	23708
2026-01-06 21:48:38.30	216.53	16.38	-52.2	-56.8	3.7	0.00e+00	0	48	104	0	76	23801
2026-01-06 21:48:39.59	216.41	16.19	-52.1	-56.9	3.7	0.00e+00	0	48	104	0	76	23981
2026-01-06 21:48:40.49	216.33	16.06	-52.2	-56.8	3.7	0.00e+00	0	48	104	0	76	23733
2026-01-06 21:48:41.50	216.23	15.92	-52.2	-56.7	3.7	0.00e+00	0	48	104	0	76	23574
2026-01-06 21:48:42.50	216.14	15.78	-52.3	-56.8	3.7	0.00e+00	0	48	104	0	76	23736
2026-01-06 21:48:43.50	216.05	15.64	-52.3	-56.8	3.7	0.00e+00	0	48	104	0	76	23895
2026-01-06 21:48:44.51	215.96	15.50	-52.4	-56.9	3.7	0.00e+00	0	48	104	0	76	23970
2026-01-06 21:48:45.51	215.88	15.36	-52.2	-56.7	3.7	0.00e+00	0	48	104	0	76	23565
2026-01-06 21:48:46.52	215.79	15.22	-52.3	-56.8	3.7	0.00e+00	0	48	104	0	76	23854
2026-01-06 21:48:47.52	215.70	15.08	-52.4	-56.9	3.7	0.00e+00	0	48	104	0	76	24089
2026-01-06 21:48:48.52	215.62	14.95	-52.3	-56.8	3.7	0.00e+00	0	48	104	0	76	23845
2026-01-06 21:48:49.52	215.54	14.81	-52.4	-56.8	3.7	0.00e+00	0	48	104	0	76	23768
2026-01-06 21:48:50.52	215.45	14.68	-52.4	-56.9	3.7	0.00e+00	0	48	104	0	76	24064
2026-01-06 21:48:51.53	215.37	14.55	-52.4	-56.9	3.7	0.00e+00	0	48	104	0	76	24001
2026-01-06 21:48:52.53	215.29	14.42	-52.5	-56.9	3.7	0.00e+00	0	48	104	0	76	24082
2026-01-06 21:48:53.53	215.21	14.28	-52.6	-57.0	3.7	0.00e+00	0	48	104	0	76	24338
2026-01-06 21:48:54.53	215.13	14.15	-52.6	-56.9	3.7	0.00e+00	0	48	104	0	76	24218
2026-01-06 21:48:55.53	215.05	14.03	-52.6	-56.9	3.7	0.00e+00	0	48	104	0	76	24215
2026-01-06 21:48:56.54	214.97	13.90	-52.4	-56.9	3.7	0.00e+00	0	48	104	0	76	24155
2026-01-06 21:48:57.54	214.90	13.77	-52.4	-57.0	3.7	0.00e+00	0	48	104	0	76	24278
2026-01-06 21:48:58.54	214.82	13.64	-52.4	-56.9	3.7	0.00e+00	0	48	104	0	76	24219
2026-01-06 21:48:59.54	214.75	13.52	-52.3	-56.9	3.7	0.00e+00	0	48	104	0	76	24024
2026-01-06 21:49:00.55	214.67	13.39	-52.3	-57.0	3.7	0.00e+00	0	48	104	0	76	24276
2026-01-06 21:49:01.55	214.60	13.27	-52.2	-56.9	3.7	0.00e+00	0	48	104	0	76	24039
2026-01-06 21:49:02.55	214.52	13.14	-52.3	-56.9	3.7	0.00e+00	0	48	104	0	76	24098
2026-01-06 21:49:03.56	214.45	13.02	-52.2	-56.9	3.7	0.00e+00	0	48	104	0	76	24127
2026-01-06 21:49:04.56	214.38	12.90	-52.2	-56.9	3.7	0.00e+00	0	48	104	0	75	25395
2026-01-06 21:49:05.56	214.31	12.78	-52.2	-56.7	3.7	0.00e+00	0	48	104	0	75	25063
2026-01-06 21:49:06.57	214.24	12.66	-52.1	-56.8	3.7	0.00e+00	0	48	104	0	75	25335
2026-01-06 21:49:07.57	214.17	12.54	-52.0	-56.8	3.7	0.00e+00	0	48	104	0	75	25236
2026-01-06 21:49:08.57	214.10	12.42	-52.2	-56.7	3.7	0.00e+00	0	48	104	0	75	24917
2026-01-06 21:49:09.58	214.03	12.30	-52.0	-56.6	3.7	0.00e+00	0	48	104	0	75	24751
2026-01-06 21:49:10.58	213.97	12.18	-52.2	-56.7	3.7	0.00e+00	0	48	104	0	75	24865
2026-01-06 21:49:11.58	213.90	12.06	-52.1	-56.7	3.7	0.00e+00	0	48	104	0	75	24837
2026-01-06 21:49:12.59	213.83	11.95	-52.0	-56.7	3.7	0.00e+00	0	48	104	0	75	24992
2026-01-06 21:49:13.59	213.77	11.83	-52.1	-56.8	3.7	0.00e+00	0	48	104	0	75	25317
2026-01-06 21:49:14.59	213.70	11.72	-52.1	-56.8	3.7	0.00e+00	0	48	104	0	75	25173
2026-01-06 21:49:15.60	213.64	11.60	-52.1	-56.8	3.7	0.00e+00	0	48	104	0	75	25226
2026-01-06 21:49:16.60	213.58	11.49	-52.1	-56.9	3.7	0.00e+00	0	48	104	0	75	25393
2026-01-06 21:49:17.60	213.51	11.38	-52.0	-56.8	3.7	0.00e+00	0	48	104	0	75	25349
2026-01-06 21:49:18.69	213.45	11.26	-52.0	-56.8	3.7	0.00e+00	0	48	104	0	75	25341
2026-01-06 21:49:19.54	213.40	11.16	-52.2	-56.9	3.7	0.00e+00	0	48	104	0	75	25569
2026-01-06 21:49:20.69	213.33	11.03	-52.0	-56.9	3.7	0.00e+00	0	48	104	0	75	25471
2026-01-06 21:49:21.65	213.27	10.93	-52.1	-56.9	3.7	0.00e+00	0	48	104	0	75	25624
2026-01-06 21:49:22.81	213.20	10.80	-52.1	-56.9	3.7	0.00e+00	0	48	104	0	75	25535
2026-01-06 21:49:23.71	213.15	10.70	-52.1	-56.9	3.7	0.00e+00	0	48	104	0	75	25503
2026-01-06 21:49:24.89	213.08	10.58	-52.2	-56.9	3.7	0.00e+00	0	48	104	0	75	25616
2026-01-06 21:49:25.77	213.03	10.48	-52.2	-56.8	3.7	0.00e+00	0	48	104	0	75	25341
2026-01-06 21:49:27.10	212.95	10.34	-52.1	-57.0	3.7	0.00e+00	0	48	104	0	75	25747
2026-01-06 21:49:27.82	212.91	10.27	-52.2	-56.9	3.7	0.00e+00	0	48	104	0	75	25637
2026-01-06 21:49:29.11	212.84	10.13	-52.1	-56.8	3.7	0.00e+00	0	48	104	0	75	25098
2026-01-06 21:49:29.83	212.80	10.05	-51.7	-56.5	3.7	0.00e+00	0	48	104	0	75	24489
2026-01-06 21:49:31.11	212.73	9.92	-52.2	-57.0	3.7	0.00e+00	0	48	104	0	75	25775
2026-01-06 21:49:31.83	212.69	9.85	-51.9	-56.5	3.7	0.00e+00	0	48	104	0	75	24384
2026-01-06 21:49:33.12	212.62	9.71	-51.6	-56.5	3.7	0.00e+00	0	48	104	0	75	24320
2026-01-06 21:49:33.83	212.58	9.64	-51.7	-56.5	3.7	0.00e+00	0	48	104	0	75	24264
2026-01-06 21:49:35.12	212.51	9.51	-52.0	-56.6	3.7	0.00e+00	0	48	104	0	75	24750
2026-01-06 21:49:35.84	212.47	9.44	-51.9	-56.6	3.7	0.00e+00	0	48	104	0	75	24694
2026-01-06 21:49:37.13	212.41	9.31	-51.8	-56.5	3.7	0.00e+00	0	48	104	0	75	24521
2026-01-06 21:49:37.85	212.37	9.23	-51.9	-56.5	3.7	0.00e+00	0	48	104	0	75	24288
2026-01-06 21:49:39.14	212.30	9.10	-51.6	-56.5	3.7	0.00e+00	0	48	104	0	75	24465
2026-01-06 21:49:39.86	212.27	9.03	-51.9	-56.6	3.7	0.00e+00	0	48	104	0	75	24655
2026-01-06 21:49:41.26	212.20	8.89	-52.1	-57.0	3.7	0.00e+00	0	48	104	0	75	25750
2026-01-06 21:49:41.98	212.16	8.82	-52.4	-57.0	3.7	0.00e+00	0	48	104	0	75	25694
2026-01-06 21:49:43.27	212.10	8.70	-52.5	-57.2	3.7	0.00e+00	0	48	104	0	75	26477
2026-01-06 21:49:43.98	212.06	8.63	-52.8	-57.3	3.7	0.00e+00	0	48	104	0	76	25221
2026-01-06 21:49:45.28	212.00	8.50	-53.0	-57.6	3.7	0.00e+00	0	48	104	0	76	26037
2026-01-06 21:49:46.00	211.96	8.43	-52.8	-57.3	3.7	0.00e+00	0	48	104	0	76	25163
2026-01-06 21:49:47.29	211.90	8.31	-53.3	-57.7	3.7	0.00e+00	0	48	104	0	77	25072
2026-01-06 21:49:48.00	211.87	8.24	-53.1	-57.9	3.7	0.00e+00	0	48	104	0	77	25441
2026-01-06 21:49:49.29	211.81	8.12	-53.1	-57.6	3.7	0.00e+00	0	48	104	0	77	24542
2026-01-06 21:49:50.01	211.78	8.05	-53.4	-57.7	3.7	0.00e+00	0	48	104	0	77	25073
2026-01-06 21:49:51.30	211.72	7.93	-52.5	-57.1	3.7	0.00e+00	0	48	104	0	76	24544
2026-01-06 21:49:52.02	211.68	7.86	-53.4	-57.9	3.7	0.00e+00	0	48	104	0	77	25620
2026-01-06 21:49:53.31	211.63	7.74	-53.1	-57.6	3.7	0.00e+00	0	48	104	0	77	24780
2026-01-06 21:49:54.04	211.59	7.68	-52.6	-57.4	3.7	0.00e+00	0	48	104	0	77	24177
2026-01-06 21:49:55.33	211.54	7.56	-53.4	-57.9	3.7	0.00e+00	0	48	104	0	77	25403
2026-01-06 21:49:56.13	211.50	7.48	-53.3	-57.9	3.7	0.00e+00	0	48	104	0	77	25484
2026-01-06 21:49:57.60	211.44	7.35	-53.2	-57.9	3.7	0.00e+00	0	48	104	0	77	25396
2026-01-06 21:49:58.31	211.41	7.29	-52.7	-57.2	3.7	0.00e+00	0	48	104	0	77	23576
2026-01-06 21:49:59.80	211.34	7.15	-52.7	-57.6	3.7	0.00e+00	0	48	104	0	76	26119
2026-01-06 21:50:00.51	211.31	7.09	-52.6	-57.3	3.7	0.00e+00	0	47	104	0	76	25302
2026-01-06 21:50:01.80	211.26	6.97	-52.4	-57.0	3.7	0.00e+00	0	48	104	0	76	24458
2026-01-06 21:50:02.52	211.23	6.91	-52.4	-57.1	3.7	0.00e+00	0	48	104	0	76	24545
2026-01-06 21:50:03.81	211.17	6.79	-52.3	-57.0	3.7	0.00e+00	0	48	104	0	76	24435
2026-01-06 21:50:04.53	211.14	6.73	-52.3	-57.0	3.7	0.00e+00	0	48	104	0	76	24369
2026-01-06 21:50:05.82	211.09	6.62	-52.3	-57.0	3.7	0.00e+00	0	48	104	0	76	24396
2026-01-06 21:50:06.54	211.06	6.56	-52.3	-57.0	3.7	0.00e+00	0	48	104	0	76	24350
2026-01-06 21:50:07.83	211.01	6.44	-52.3	-57.0	3.7	0.00e+00	0	48	104	0	76	24426
2026-01-06 21:50:08.55	210.98	6.38	-52.3	-57.0	3.7	0.00e+00	0	48	104	0	76	24450
2026-01-06 21:50:09.84	210.93	6.27	-52.3	-57.0	3.7	0.00e+00	0	48	104	0	76	24409
2026-01-06 21:50:10.56	210.90	6.21	-52.3	-57.0	3.7	0.00e+00	0	48	104	0	76	24405
2026-01-06 21:50:11.85	210.85	6.10	-52.3	-57.0	3.7	0.00e+00	0	48	104	0	76	24399
2026-01-06 21:50:12.56	210.83	6.04	-52.3	-57.1	3.7	0.00e+00	0	48	104	0	76	24584
2026-01-06 21:50:13.85	210.78	5.93	-52.4	-57.1	3.7	0.00e+00	0	48	104	0	76	24535
2026-01-06 21:50:14.57	210.75	5.87	-52.3	-57.0	3.7	0.00e+00	0	48	104	0	76	24413
2026-01-06 21:50:15.86	210.70	5.76	-52.3	-57.0	3.7	0.00e+00	0	48	104	0	76	24468
2026-01-06 21:50:16.58	210.67	5.70	-52.3	-57.0	3.7	0.00e+00	0	48	104	0	76	24501
2026-01-06 21:50:17.87	210.63	5.59	-52.3	-57.0	3.7	0.00e+00	0	48	104	0	76	24414
2026-01-06 21:50:18.59	210.60	5.53	-52.3	-57.0	3.7	0.00e+00	0	48	104	0	76	24385
2026-01-06 21:50:19.88	210.55	5.43	-52.4	-57.0	3.7	0.00e+00	0	48	104	0	76	24474
2026-01-06 21:50:20.59	210.53	5.37	-52.4	-57.1	3.7	0.00e+00	0	48	104	0	76	24529
2026-01-06 21:50:21.89	210.48	5.26	-52.3	-57.0	3.7	0.00e+00	0	48	104	0	76	24471
2026-01-06 21:50:22.60	210.45	5.20	-52.3	-57.0	3.7	0.00e+00	0	48	104	0	76	24430
2026-01-06 21:50:23.90	210.41	5.10	-52.3	-57.0	3.7	0.00e+00	0	48	104	0	76	24449
2026-01-06 21:50:24.61	210.38	5.04	-52.4	-57.0	3.7	0.00e+00	0	48	104	0	76	24441
2026-01-06 21:50:25.90	210.34	4.94	-52.3	-57.0	3.7	0.00e+00	0	48	104	0	76	24393

#Closed at: 2026-01-06 21:50:26
#Recorded file [0 MB]: D:/Data/31040_260107_004129.dat