passes_logs/2026/01/06/T1/T1__20260106_014430_FENGYUN_3D_rec.log

#Pass ID: 20260106_014430_FENGYUN 3D
#Satellite: FENGYUN 3D
#Configuration: FENGYUN 3D
#almurnet v.1.7.20251203
#Start time: 2026-01-06 01:44:30

#Version: 2.0.20230620
#Station: T1
#Location: 37.570604 lon 55.790049 lat
#TLE: 1 43010U 17072A   26005.48915933 -.00000051  00000+0 -21983-5 0  9995
#TLE: 2 43010  98.9919 337.1582 0002001 124.6377 235.4988 14.19691925421909

#Time	Az	El	Level	Level2	SNR	BER	BlckErr	Temp	State	Recorded	gain1	gain2
2026-01-06 01:44:30.99	16.86	5.07	-50.4	-62.9	3.8	8.46e-01	0	40	0	0	71	15951
2026-01-06 01:44:31.98	16.86	5.14	-50.3	-62.8	3.8	8.47e-01	0	40	104	0	72	15009
2026-01-06 01:44:32.99	16.86	5.21	-50.3	-62.8	3.8	8.47e-01	0	40	104	0	72	14995
2026-01-06 01:44:33.99	16.87	5.28	-50.3	-62.8	3.8	8.46e-01	0	40	104	0	72	15019
2026-01-06 01:44:35.00	16.87	5.35	-50.3	-62.8	3.8	8.46e-01	0	41	104	0	72	14978
2026-01-06 01:44:36.00	16.88	5.43	-50.3	-62.8	3.8	8.47e-01	0	41	104	0	72	15026
2026-01-06 01:44:37.01	16.88	5.50	-50.3	-62.8	3.8	8.47e-01	0	41	104	0	72	15037
2026-01-06 01:44:38.01	16.89	5.57	-50.4	-62.8	3.8	8.48e-01	0	40	104	0	72	15011
2026-01-06 01:44:39.02	16.89	5.65	-50.4	-62.8	3.8	8.47e-01	0	41	104	0	72	15004
2026-01-06 01:44:40.02	16.90	5.72	-50.3	-62.8	3.8	8.48e-01	0	41	104	0	72	15010
2026-01-06 01:44:41.03	16.90	5.79	-50.3	-62.8	3.8	8.46e-01	0	41	104	0	72	15039
2026-01-06 01:44:42.03	16.91	5.87	-50.3	-62.8	3.8	8.47e-01	0	41	104	0	72	15025
2026-01-06 01:44:43.03	16.91	5.94	-50.4	-62.8	3.8	8.47e-01	0	41	104	0	72	14992
2026-01-06 01:44:44.03	16.92	6.01	-50.3	-62.8	3.8	8.47e-01	0	41	104	0	72	15034
2026-01-06 01:44:45.04	16.92	6.09	-50.3	-62.8	3.8	8.47e-01	0	41	104	0	72	15027
2026-01-06 01:44:46.04	16.93	6.16	-50.3	-62.8	3.8	8.46e-01	0	41	104	0	72	14970
2026-01-06 01:44:47.05	16.93	6.24	-50.4	-62.8	3.8	8.47e-01	0	41	104	0	72	15021
2026-01-06 01:44:48.05	16.93	6.31	-50.3	-62.8	3.8	8.48e-01	0	41	104	0	72	14968
2026-01-06 01:44:49.06	16.94	6.39	-50.4	-62.8	3.8	8.47e-01	0	41	104	0	72	15029
2026-01-06 01:44:50.06	16.94	6.46	-50.4	-62.9	3.8	8.46e-01	0	41	104	0	72	15063
2026-01-06 01:44:51.07	16.95	6.54	-50.3	-62.8	3.8	8.47e-01	0	41	104	0	72	15003
2026-01-06 01:44:52.07	16.95	6.61	-50.3	-62.8	3.8	8.47e-01	0	41	104	0	72	15016
2026-01-06 01:44:53.07	16.96	6.69	-50.4	-62.8	3.8	8.47e-01	0	41	104	0	72	15018
2026-01-06 01:44:54.08	16.96	6.77	-50.3	-62.8	3.8	8.48e-01	0	41	104	0	72	14944
2026-01-06 01:44:55.08	16.97	6.84	-50.4	-62.8	3.8	8.48e-01	0	41	104	0	72	14983
2026-01-06 01:44:56.09	16.97	6.92	-50.4	-62.8	3.8	8.47e-01	0	41	104	0	72	14988
2026-01-06 01:44:57.09	16.98	7.00	-50.4	-62.8	3.8	8.46e-01	0	41	104	0	72	15010
2026-01-06 01:44:58.09	16.98	7.07	-50.3	-62.9	3.8	8.47e-01	0	41	104	0	72	15068
2026-01-06 01:44:59.10	16.99	7.15	-50.3	-62.8	3.8	8.47e-01	0	42	104	0	72	14978
2026-01-06 01:45:00.10	16.99	7.23	-50.4	-62.8	3.8	8.48e-01	0	42	104	0	72	14992
2026-01-06 01:45:01.11	17.00	7.31	-50.4	-62.8	3.8	8.47e-01	0	42	104	0	72	14968
2026-01-06 01:45:02.11	17.00	7.39	-50.4	-62.9	3.8	8.47e-01	0	42	104	0	72	15052
2026-01-06 01:45:03.12	17.00	7.46	-50.4	-62.8	3.8	8.47e-01	0	42	104	0	72	14979
2026-01-06 01:45:04.12	17.01	7.54	-50.4	-62.8	3.8	8.47e-01	0	41	104	0	72	15023
2026-01-06 01:45:05.12	17.01	7.62	-50.4	-62.8	3.8	8.47e-01	0	42	104	0	72	15049
2026-01-06 01:45:06.13	17.02	7.70	-50.4	-62.8	3.8	8.46e-01	0	42	104	0	72	14986
2026-01-06 01:45:07.13	17.02	7.78	-50.4	-62.8	3.8	8.48e-01	0	42	104	0	72	14998
2026-01-06 01:45:08.14	17.03	7.86	-50.4	-62.8	3.8	8.46e-01	0	42	104	0	72	15043
2026-01-06 01:45:09.14	17.03	7.94	-50.4	-62.8	3.8	8.47e-01	0	42	104	0	72	15008
2026-01-06 01:45:10.14	17.04	8.02	-50.3	-62.9	3.8	8.47e-01	0	42	104	0	72	15078
2026-01-06 01:45:11.14	17.04	8.10	-50.4	-62.8	3.8	8.47e-01	0	42	104	0	72	14997
2026-01-06 01:45:12.15	17.05	8.18	-50.3	-62.8	3.8	8.46e-01	0	42	104	0	72	15033
2026-01-06 01:45:13.15	17.05	8.26	-50.4	-62.8	3.8	8.48e-01	0	42	104	0	72	15022
2026-01-06 01:45:14.15	17.06	8.34	-50.4	-62.8	3.8	8.47e-01	0	42	104	0	72	15029
2026-01-06 01:45:15.46	17.06	8.45	-50.4	-62.8	3.8	8.46e-01	0	42	104	0	72	15022
2026-01-06 01:45:16.18	17.07	8.51	-50.4	-62.8	3.8	8.50e-01	0	42	104	0	72	14980
2026-01-06 01:45:17.46	17.07	8.61	-50.4	-62.8	3.8	8.46e-01	0	42	104	0	72	15017
2026-01-06 01:45:18.18	17.08	8.67	-50.4	-62.8	3.8	8.47e-01	0	42	104	0	72	15016
2026-01-06 01:45:19.47	17.08	8.78	-50.4	-62.8	3.8	8.46e-01	0	42	104	0	72	15017
2026-01-06 01:45:20.19	17.08	8.84	-50.4	-62.9	3.8	8.47e-01	0	42	104	0	72	15110
2026-01-06 01:45:21.48	17.09	8.94	-50.4	-62.8	3.8	8.46e-01	0	42	104	0	72	15039
2026-01-06 01:45:22.20	17.09	9.00	-50.4	-62.8	3.8	8.49e-01	0	42	104	0	72	15019
2026-01-06 01:45:23.49	17.10	9.11	-50.4	-62.8	3.8	8.46e-01	0	42	104	0	72	15034
2026-01-06 01:45:24.21	17.10	9.17	-50.4	-62.8	3.8	8.47e-01	0	42	104	0	72	15013
2026-01-06 01:45:25.58	17.11	9.28	-50.4	-62.8	3.8	8.46e-01	0	42	104	0	72	14999
2026-01-06 01:45:26.30	17.11	9.35	-50.4	-62.8	3.8	8.47e-01	0	42	104	0	72	15027
2026-01-06 01:45:27.67	17.12	9.46	-50.4	-62.9	3.8	8.47e-01	0	42	104	0	72	15097
2026-01-06 01:45:28.38	17.12	9.52	-50.4	-62.8	3.8	8.47e-01	0	42	104	0	72	15045
2026-01-06 01:45:29.72	17.13	9.63	-50.4	-62.8	3.8	8.48e-01	0	42	104	0	72	15048
2026-01-06 01:45:30.44	17.13	9.70	-50.4	-62.8	3.8	8.47e-01	0	42	104	0	72	15020
2026-01-06 01:45:31.84	17.14	9.82	-50.4	-62.8	3.8	8.48e-01	0	42	104	0	72	15043
2026-01-06 01:45:32.55	17.14	9.88	-50.4	-62.8	3.8	8.46e-01	0	42	104	0	72	14974
2026-01-06 01:45:33.91	17.15	9.99	-50.4	-62.9	3.8	8.47e-01	0	42	104	0	72	15056
2026-01-06 01:45:34.62	17.15	10.06	-50.4	-62.8	3.8	8.47e-01	0	42	104	0	72	15031
2026-01-06 01:45:35.91	17.16	10.17	-50.4	-62.8	3.8	8.48e-01	0	42	104	0	72	14997
2026-01-06 01:45:36.63	17.16	10.23	-50.4	-62.9	3.8	8.47e-01	0	42	104	0	72	15059
2026-01-06 01:45:37.92	17.17	10.34	-50.4	-62.8	3.8	8.46e-01	0	42	104	0	72	15023
2026-01-06 01:45:38.64	17.17	10.41	-50.4	-62.8	3.8	8.48e-01	0	42	104	0	72	15038
2026-01-06 01:45:39.93	17.18	10.52	-50.4	-62.8	3.8	8.48e-01	0	42	104	0	72	15035
2026-01-06 01:45:40.64	17.18	10.58	-50.4	-62.8	3.8	8.46e-01	0	42	104	0	72	15018
2026-01-06 01:45:41.93	17.19	10.70	-50.4	-62.8	3.8	8.46e-01	0	42	104	0	72	14997
2026-01-06 01:45:42.65	17.19	10.76	-50.4	-62.8	3.8	8.47e-01	0	42	104	0	72	15010
2026-01-06 01:45:43.94	17.20	10.88	-50.4	-62.8	3.8	8.47e-01	0	42	104	0	72	15048
2026-01-06 01:45:44.66	17.20	10.94	-50.4	-62.9	3.8	8.46e-01	0	42	104	0	72	15060
2026-01-06 01:45:45.95	17.21	11.06	-50.4	-62.8	3.8	8.46e-01	0	42	104	0	72	15047
2026-01-06 01:45:46.66	17.21	11.12	-50.4	-62.8	3.8	8.47e-01	0	42	104	0	72	15000
2026-01-06 01:45:47.96	17.22	11.24	-50.4	-62.8	3.8	8.47e-01	0	42	104	0	72	15029
2026-01-06 01:45:48.67	17.22	11.31	-50.4	-62.9	3.8	8.47e-01	0	42	104	0	72	15081
2026-01-06 01:45:49.96	17.23	11.42	-50.4	-62.8	3.8	8.45e-01	0	42	104	0	72	14959
2026-01-06 01:45:50.68	17.23	11.49	-50.4	-62.9	3.8	8.46e-01	0	43	104	0	72	15055
2026-01-06 01:45:51.97	17.24	11.61	-50.4	-62.8	3.8	8.48e-01	0	43	104	0	72	15024
2026-01-06 01:45:52.69	17.24	11.68	-50.4	-62.8	3.8	8.47e-01	0	43	104	0	72	14970
2026-01-06 01:45:53.98	17.25	11.80	-50.4	-62.9	3.8	8.48e-01	0	43	104	0	72	15057
2026-01-06 01:45:54.70	17.25	11.86	-50.4	-62.9	3.8	8.48e-01	0	42	104	0	72	15100
2026-01-06 01:45:55.99	17.26	11.98	-50.4	-62.9	3.8	8.47e-01	0	42	104	0	72	15082
2026-01-06 01:45:56.71	17.26	12.05	-50.4	-62.8	3.8	8.46e-01	0	42	104	0	72	15028
2026-01-06 01:45:58.00	17.26	12.17	-50.4	-62.9	3.8	8.47e-01	0	42	104	0	72	15063
2026-01-06 01:45:58.71	17.27	12.24	-50.4	-62.8	3.8	8.47e-01	0	42	104	0	72	15025
2026-01-06 01:46:00.00	17.27	12.36	-50.4	-62.8	3.8	8.47e-01	0	43	104	0	72	15040
2026-01-06 01:46:00.72	17.28	12.43	-50.4	-62.9	3.8	8.48e-01	0	42	104	0	72	15096
2026-01-06 01:46:02.01	17.28	12.56	-50.4	-62.9	3.8	8.47e-01	0	43	104	0	72	15058
2026-01-06 01:46:02.73	17.29	12.63	-50.4	-62.8	3.8	8.47e-01	0	43	104	0	72	15006
2026-01-06 01:46:04.02	17.29	12.75	-50.4	-62.8	3.8	8.46e-01	0	43	104	0	72	14997
2026-01-06 01:46:04.74	17.30	12.82	-50.4	-62.8	3.8	8.46e-01	0	43	104	0	72	15029
2026-01-06 01:46:06.03	17.30	12.95	-50.4	-62.8	3.8	8.48e-01	0	43	104	0	72	15002
2026-01-06 01:46:06.75	17.31	13.02	-50.4	-62.8	3.8	8.46e-01	0	43	104	0	72	15015
2026-01-06 01:46:08.04	17.31	13.14	-50.4	-62.8	3.8	8.47e-01	0	43	104	0	72	14991
2026-01-06 01:46:08.75	17.32	13.21	-50.3	-62.8	3.8	8.47e-01	0	43	104	0	72	15033
2026-01-06 01:46:10.05	17.32	13.34	-50.3	-62.8	3.8	8.47e-01	0	43	104	0	72	15004
2026-01-06 01:46:10.76	17.33	13.41	-50.4	-62.9	3.8	8.47e-01	0	43	104	0	72	15065
2026-01-06 01:46:12.05	17.33	13.54	-50.4	-62.8	3.8	8.47e-01	0	43	104	0	72	15034
2026-01-06 01:46:12.77	17.34	13.61	-50.4	-62.8	3.8	8.47e-01	0	43	104	0	72	14981
2026-01-06 01:46:14.06	17.34	13.74	-50.4	-62.8	3.8	8.47e-01	0	43	104	0	72	15012
2026-01-06 01:46:14.78	17.35	13.82	-50.4	-62.8	3.8	8.46e-01	0	43	104	0	72	14974
2026-01-06 01:46:16.08	17.35	13.95	-50.4	-62.8	3.8	8.46e-01	0	43	104	0	72	15027
2026-01-06 01:46:16.80	17.36	14.02	-50.4	-62.8	3.8	8.48e-01	0	43	104	0	72	15045
2026-01-06 01:46:18.09	17.36	14.15	-50.4	-62.8	3.8	8.46e-01	0	43	104	0	72	14959
2026-01-06 01:46:18.81	17.37	14.23	-50.4	-62.8	3.8	8.47e-01	0	43	104	0	72	15026
2026-01-06 01:46:20.10	17.37	14.36	-50.4	-62.8	3.8	8.46e-01	0	43	104	0	72	15010
2026-01-06 01:46:20.82	17.38	14.43	-50.4	-62.8	3.8	8.46e-01	0	43	104	0	72	15004
2026-01-06 01:46:22.11	17.38	14.57	-50.4	-62.8	3.8	8.48e-01	0	43	104	0	72	15040
2026-01-06 01:46:22.82	17.39	14.64	-50.4	-62.8	3.8	8.47e-01	0	43	104	0	72	15010
2026-01-06 01:46:24.11	17.39	14.78	-50.4	-62.8	3.8	8.47e-01	0	43	104	0	72	15038
2026-01-06 01:46:24.83	17.40	14.85	-50.4	-62.8	3.8	8.47e-01	0	43	104	0	72	15027
2026-01-06 01:46:26.12	17.40	14.99	-50.4	-62.9	3.8	8.48e-01	0	43	104	0	72	15094
2026-01-06 01:46:26.84	17.41	15.07	-50.4	-62.8	3.8	8.47e-01	0	43	104	0	72	14995
2026-01-06 01:46:28.13	17.41	15.21	-50.4	-62.8	3.8	8.47e-01	0	43	104	0	72	14973
2026-01-06 01:46:28.84	17.42	15.28	-50.4	-62.9	3.8	8.46e-01	0	43	104	0	72	15086
2026-01-06 01:46:30.14	17.42	15.42	-50.4	-62.8	3.8	8.48e-01	0	43	104	0	72	15018
2026-01-06 01:46:30.85	17.43	15.50	-50.4	-62.8	3.8	8.47e-01	0	43	104	0	72	15019
2026-01-06 01:46:32.14	17.43	15.64	-50.4	-62.9	3.8	8.46e-01	0	43	104	0	72	15113
2026-01-06 01:46:32.86	17.44	15.72	-50.4	-62.8	3.8	8.46e-01	0	43	104	0	72	14976
2026-01-06 01:46:34.15	17.44	15.86	-50.4	-62.8	3.8	8.47e-01	0	43	104	0	72	14994
2026-01-06 01:46:34.87	17.45	15.94	-50.4	-62.8	3.8	8.47e-01	0	43	104	0	72	15005
2026-01-06 01:46:36.16	17.45	16.08	-50.4	-62.8	3.8	8.47e-01	0	43	104	0	72	15013
2026-01-06 01:46:36.88	17.46	16.16	-50.3	-62.8	3.8	8.47e-01	0	43	104	0	72	15032
2026-01-06 01:46:38.17	17.46	16.31	-50.3	-62.8	3.8	8.46e-01	0	43	104	0	72	15010
2026-01-06 01:46:38.89	17.47	16.39	-50.4	-62.8	3.8	8.48e-01	0	43	104	0	72	15044
2026-01-06 01:46:40.18	17.47	16.53	-50.4	-62.8	3.8	8.47e-01	0	43	104	0	72	15030
2026-01-06 01:46:40.94	17.48	16.62	-50.4	-62.8	3.8	8.46e-01	0	43	104	0	72	15030
2026-01-06 01:46:42.23	17.48	16.77	-50.4	-62.8	3.8	8.46e-01	0	43	104	0	72	15000
2026-01-06 01:46:43.03	17.49	16.86	-50.4	-62.8	3.8	8.48e-01	0	43	104	0	72	15041
2026-01-06 01:46:44.18	17.49	16.99	-50.4	-62.8	3.8	8.48e-01	0	43	104	0	72	15048
2026-01-06 01:46:45.04	17.50	17.09	-50.4	-62.9	3.8	8.47e-01	0	43	104	0	72	15108
2026-01-06 01:46:46.19	17.50	17.22	-50.4	-62.8	3.8	8.47e-01	0	43	104	0	72	15051
2026-01-06 01:46:47.04	17.51	17.32	-50.4	-62.9	3.8	8.47e-01	0	43	104	0	72	15055
2026-01-06 01:46:48.17	17.51	17.46	-50.4	-62.9	3.8	8.47e-01	0	43	104	0	72	15062
2026-01-06 01:46:49.03	17.52	17.56	-50.4	-62.9	3.8	8.48e-01	0	43	104	0	72	15056
2026-01-06 01:46:50.17	17.52	17.69	-50.4	-62.8	3.8	8.47e-01	0	43	104	0	72	15033
2026-01-06 01:46:51.03	17.53	17.79	-50.4	-62.9	3.8	8.47e-01	0	43	104	0	72	15058
2026-01-06 01:46:52.18	17.54	17.93	-50.4	-62.8	3.8	8.47e-01	0	43	104	0	72	15033
2026-01-06 01:46:53.04	17.54	18.04	-50.4	-62.8	3.8	8.47e-01	0	43	104	0	72	14997
2026-01-06 01:46:54.19	17.55	18.17	-50.4	-62.8	3.8	8.47e-01	0	43	104	0	72	15040
2026-01-06 01:46:55.05	17.55	18.28	-50.4	-62.8	3.8	8.46e-01	0	43	104	0	72	15029
2026-01-06 01:46:56.20	17.56	18.42	-50.4	-62.9	3.8	8.47e-01	0	43	104	0	72	15098
2026-01-06 01:46:57.06	17.56	18.52	-50.4	-62.8	3.8	8.47e-01	0	43	104	0	72	15029
2026-01-06 01:46:58.20	17.57	18.66	-50.4	-62.8	3.8	8.47e-01	0	43	104	0	72	14997
2026-01-06 01:46:59.06	17.57	18.77	-50.4	-62.8	3.8	8.47e-01	0	43	104	0	72	15038
2026-01-06 01:47:00.21	17.58	18.91	-50.4	-62.9	3.8	8.46e-01	0	43	104	0	72	15075
2026-01-06 01:47:01.07	17.58	19.02	-50.4	-62.8	3.8	8.47e-01	0	43	104	0	72	15035
2026-01-06 01:47:02.22	17.59	19.17	-50.4	-62.8	3.8	8.49e-01	0	43	104	0	72	15009
2026-01-06 01:47:03.08	17.59	19.28	-50.4	-62.9	3.8	8.47e-01	0	43	104	0	72	15072
2026-01-06 01:47:04.23	17.60	19.42	-50.4	-62.8	3.8	8.46e-01	0	43	104	0	72	15024
2026-01-06 01:47:05.09	17.60	19.53	-50.4	-62.8	3.8	8.47e-01	0	43	104	0	72	15038
2026-01-06 01:47:06.24	17.61	19.68	-50.4	-62.9	3.8	8.47e-01	0	43	104	0	72	15076
2026-01-06 01:47:07.10	17.61	19.79	-50.4	-62.9	3.8	8.47e-01	0	43	104	0	72	15066
2026-01-06 01:47:08.25	17.62	19.94	-50.4	-62.8	3.8	8.47e-01	0	43	104	0	72	15040
2026-01-06 01:47:09.11	17.62	20.05	-50.4	-62.9	3.8	8.47e-01	0	43	104	0	72	15149
2026-01-06 01:47:10.26	17.63	20.20	-50.4	-62.9	3.8	8.47e-01	0	43	104	0	72	15085
2026-01-06 01:47:11.11	17.63	20.31	-50.4	-62.8	3.8	8.47e-01	0	43	104	0	72	15032
2026-01-06 01:47:12.26	17.64	20.47	-50.4	-62.9	3.8	8.45e-01	0	43	104	0	72	15059
2026-01-06 01:47:13.24	17.65	20.60	-50.4	-62.9	3.8	8.47e-01	0	43	104	0	72	15057
2026-01-06 01:47:14.24	17.65	20.73	-50.4	-62.9	3.8	8.47e-01	0	43	104	0	72	15100
2026-01-06 01:47:15.24	17.66	20.87	-50.4	-62.8	3.8	8.47e-01	0	43	104	0	72	15021
2026-01-06 01:47:16.25	17.66	21.00	-50.4	-62.9	3.8	8.47e-01	0	43	104	0	72	15074
2026-01-06 01:47:17.25	17.67	21.14	-50.4	-62.9	3.8	8.47e-01	0	43	104	0	72	15054
2026-01-06 01:47:18.25	17.67	21.28	-50.4	-62.9	3.8	8.48e-01	0	43	104	0	72	15057
2026-01-06 01:47:19.26	17.68	21.41	-50.4	-62.9	3.8	8.48e-01	0	43	104	0	72	15090
2026-01-06 01:47:20.26	17.68	21.55	-50.4	-62.9	3.8	8.48e-01	0	43	104	0	72	15091
2026-01-06 01:47:21.26	17.69	21.69	-50.4	-62.9	3.8	8.47e-01	0	43	104	0	72	15101
2026-01-06 01:47:22.27	17.70	21.83	-50.4	-62.9	3.8	8.47e-01	0	43	104	0	72	15086
2026-01-06 01:47:23.27	17.70	21.97	-50.4	-62.8	3.8	8.47e-01	0	43	104	0	72	15001
2026-01-06 01:47:24.28	17.71	22.12	-50.4	-62.8	3.8	8.47e-01	0	43	104	0	72	15047
2026-01-06 01:47:25.28	17.71	22.26	-50.4	-62.9	3.8	8.46e-01	0	43	104	0	72	15083
2026-01-06 01:47:26.28	17.72	22.40	-50.4	-62.9	3.8	8.48e-01	0	43	104	0	72	15117
2026-01-06 01:47:27.29	17.72	22.55	-50.4	-62.9	3.8	8.45e-01	0	43	104	0	72	15116
2026-01-06 01:47:28.29	17.73	22.69	-50.4	-62.8	3.8	8.47e-01	0	43	104	0	72	15039
2026-01-06 01:47:29.29	17.73	22.84	-50.4	-62.9	3.8	8.47e-01	0	43	104	0	72	15083
2026-01-06 01:47:30.30	17.74	22.99	-50.4	-62.9	3.8	8.47e-01	0	43	104	0	72	15094
2026-01-06 01:47:31.30	17.75	23.13	-50.4	-62.9	3.8	8.47e-01	0	43	104	0	72	15072
2026-01-06 01:47:32.31	17.75	23.28	-50.4	-62.8	3.8	8.47e-01	0	43	104	0	72	15045
2026-01-06 01:47:33.31	17.76	23.43	-50.4	-62.9	3.8	8.46e-01	0	43	104	0	72	15131
2026-01-06 01:47:34.32	17.76	23.58	-50.4	-62.9	3.8	8.47e-01	0	43	104	0	72	15093
2026-01-06 01:47:35.32	17.77	23.74	-50.4	-62.9	3.8	8.46e-01	0	43	104	0	72	15103
2026-01-06 01:47:36.34	17.77	23.89	-50.4	-62.9	3.8	8.47e-01	0	43	104	0	72	15173
2026-01-06 01:47:37.37	17.78	24.05	-50.4	-62.9	3.8	8.47e-01	0	43	104	0	72	15079
2026-01-06 01:47:38.39	17.79	24.20	-50.4	-62.9	3.8	8.46e-01	0	43	104	0	72	15097
2026-01-06 01:47:39.42	17.79	24.36	-50.4	-62.8	3.8	8.47e-01	0	43	104	0	72	15051
2026-01-06 01:47:40.45	17.80	24.52	-50.4	-62.9	3.8	8.47e-01	0	43	104	0	72	15065
2026-01-06 01:47:41.50	17.80	24.69	-50.4	-62.8	3.8	8.48e-01	0	43	104	0	72	15040
2026-01-06 01:47:42.40	17.81	24.83	-50.4	-62.8	3.8	8.48e-01	0	43	104	0	72	15047
2026-01-06 01:47:43.59	17.82	25.02	-50.4	-62.9	3.8	8.48e-01	0	43	104	0	72	15087
2026-01-06 01:47:44.47	17.82	25.16	-50.4	-62.9	3.8	8.47e-01	0	43	104	0	72	15125
2026-01-06 01:47:45.79	17.83	25.37	-50.4	-62.9	3.8	8.48e-01	0	43	104	0	72	15064
2026-01-06 01:47:46.51	17.83	25.48	-50.4	-62.9	3.8	8.47e-01	0	43	104	0	72	15127
2026-01-06 01:47:47.80	17.84	25.69	-50.4	-62.9	3.8	8.46e-01	0	43	104	0	72	15091
2026-01-06 01:47:48.51	17.85	25.81	-50.4	-62.9	3.8	8.48e-01	0	43	104	0	72	15079
2026-01-06 01:47:49.81	17.85	26.02	-50.4	-62.9	3.8	8.47e-01	0	43	104	0	72	15099
2026-01-06 01:47:50.52	17.86	26.14	-50.4	-62.9	3.8	8.46e-01	0	44	104	0	72	15121
2026-01-06 01:47:51.81	17.87	26.36	-50.4	-62.9	3.8	8.47e-01	0	43	104	0	72	15098
2026-01-06 01:47:52.53	17.87	26.48	-50.4	-62.8	3.8	8.47e-01	0	43	104	0	72	15051
2026-01-06 01:47:53.82	17.88	26.69	-50.4	-62.9	3.8	8.47e-01	0	43	104	0	72	15065
2026-01-06 01:47:54.54	17.88	26.82	-50.4	-62.9	3.8	8.46e-01	0	43	104	0	72	15087
2026-01-06 01:47:55.83	17.89	27.04	-50.4	-62.9	3.8	8.47e-01	0	43	104	0	72	15113
2026-01-06 01:47:56.55	17.89	27.16	-50.4	-62.9	3.8	8.47e-01	0	43	104	0	72	15099
2026-01-06 01:47:57.84	17.90	27.38	-50.4	-62.9	3.8	8.47e-01	0	43	104	0	72	15106
2026-01-06 01:47:58.56	17.91	27.51	-50.4	-62.8	3.8	8.47e-01	0	43	104	0	72	15037
2026-01-06 01:47:59.85	17.92	27.73	-50.4	-62.9	3.8	8.47e-01	0	43	104	0	72	15089
2026-01-06 01:48:00.56	17.92	27.86	-50.4	-62.9	3.8	8.47e-01	0	43	104	0	72	15079
2026-01-06 01:48:01.86	17.93	28.09	-50.4	-62.8	3.8	8.48e-01	0	43	104	0	72	15047
2026-01-06 01:48:02.57	17.93	28.22	-50.4	-62.8	3.8	8.47e-01	0	43	104	0	72	15012
2026-01-06 01:48:03.86	17.94	28.45	-50.4	-62.9	3.8	8.48e-01	0	43	104	0	72	15076
2026-01-06 01:48:04.58	17.94	28.58	-50.4	-62.9	3.8	8.47e-01	0	43	104	0	72	15088
2026-01-06 01:48:05.87	17.95	28.81	-50.4	-62.8	3.8	8.47e-01	0	43	104	0	72	15029
2026-01-06 01:48:06.59	17.96	28.95	-50.4	-62.9	3.8	8.47e-01	0	43	104	0	72	15055
2026-01-06 01:48:07.88	17.97	29.18	-50.4	-62.9	3.8	8.48e-01	0	43	104	0	72	15133
2026-01-06 01:48:08.60	17.97	29.32	-50.4	-62.8	3.8	8.48e-01	0	43	104	0	72	15049
2026-01-06 01:48:09.89	17.98	29.56	-50.4	-62.9	3.8	8.47e-01	0	43	104	0	72	15133
2026-01-06 01:48:10.60	17.98	29.69	-50.4	-62.9	3.8	8.46e-01	0	43	104	0	72	15059
2026-01-06 01:48:11.89	17.99	29.94	-50.4	-62.9	3.8	8.48e-01	0	43	104	0	72	15103
2026-01-06 01:48:12.61	18.00	30.07	-50.4	-62.9	3.8	8.47e-01	0	43	104	0	72	15111
2026-01-06 01:48:13.90	18.01	30.32	-50.4	-62.9	3.8	8.47e-01	0	43	104	0	72	15076
2026-01-06 01:48:14.62	18.01	30.46	-50.4	-62.8	3.8	8.47e-01	0	43	104	0	72	15040
2026-01-06 01:48:15.91	18.02	30.71	-50.4	-62.9	3.8	8.47e-01	0	43	104	0	72	15108
2026-01-06 01:48:16.63	18.02	30.85	-50.4	-62.9	3.8	8.47e-01	0	43	104	0	72	15084
2026-01-06 01:48:17.92	18.03	31.11	-50.4	-62.9	3.8	8.47e-01	0	43	104	0	72	15061
2026-01-06 01:48:18.64	18.04	31.25	-50.4	-62.9	3.8	8.47e-01	0	43	104	0	72	15065
2026-01-06 01:48:19.93	18.05	31.51	-50.4	-62.9	3.8	8.47e-01	0	43	104	0	72	15070
2026-01-06 01:48:20.65	18.05	31.65	-50.4	-62.9	3.8	8.46e-01	0	43	104	0	72	15052
2026-01-06 01:48:21.94	18.06	31.91	-50.4	-62.8	3.8	8.46e-01	0	43	104	0	72	15049
2026-01-06 01:48:22.66	18.07	32.06	-50.4	-62.8	3.8	8.47e-01	0	43	104	0	72	15051
2026-01-06 01:48:23.95	18.07	32.33	-50.4	-62.9	3.8	8.47e-01	0	43	104	0	72	15097
2026-01-06 01:48:24.66	18.08	32.47	-50.4	-62.9	3.8	8.47e-01	0	43	104	0	72	15084
2026-01-06 01:48:25.96	18.09	32.75	-50.4	-62.9	3.8	8.48e-01	0	43	104	0	72	15088
2026-01-06 01:48:26.67	18.09	32.89	-50.4	-62.9	3.8	8.47e-01	0	43	104	0	72	15129
2026-01-06 01:48:27.96	18.10	33.17	-50.4	-62.9	3.8	8.46e-01	0	43	104	0	72	15096
2026-01-06 01:48:28.68	18.11	33.32	-50.4	-62.9	3.8	8.47e-01	0	43	104	0	72	15114
2026-01-06 01:48:29.97	18.12	33.60	-50.4	-62.9	3.8	8.47e-01	0	43	104	0	72	15121
2026-01-06 01:48:30.69	18.12	33.75	-50.4	-62.9	3.8	8.46e-01	0	43	104	0	72	15083
2026-01-06 01:48:31.98	18.13	34.03	-50.4	-62.9	3.8	8.47e-01	0	43	104	0	72	15064
2026-01-06 01:48:32.70	18.14	34.19	-50.4	-62.9	3.8	8.47e-01	0	43	104	0	72	15095
2026-01-06 01:48:33.99	18.15	34.48	-50.4	-62.9	3.8	8.47e-01	0	43	104	0	72	15084
2026-01-06 01:48:34.71	18.15	34.64	-50.4	-62.9	3.8	8.47e-01	0	43	104	0	72	15059
2026-01-06 01:48:36.00	18.16	34.92	-50.4	-62.8	3.8	8.47e-01	0	43	104	0	72	15045
2026-01-06 01:48:36.71	18.17	35.09	-50.4	-62.9	3.8	8.47e-01	0	43	104	0	72	15058
2026-01-06 01:48:38.00	18.18	35.38	-50.4	-62.9	3.8	8.47e-01	0	43	104	0	72	15126
2026-01-06 01:48:38.72	18.18	35.54	-50.4	-62.8	3.8	8.47e-01	0	43	104	0	72	15004
2026-01-06 01:48:40.01	18.19	35.84	-50.4	-62.9	3.8	8.47e-01	0	43	104	0	72	15087
2026-01-06 01:48:40.73	18.20	36.01	-50.4	-62.9	3.8	8.47e-01	0	43	104	0	72	15069
2026-01-06 01:48:42.01	18.21	36.31	-50.4	-62.8	3.8	8.46e-01	0	43	104	0	72	15032
2026-01-06 01:48:42.73	18.21	36.48	-50.4	-62.9	3.8	8.46e-01	0	43	104	0	72	15058
2026-01-06 01:48:44.02	18.23	36.78	-50.4	-62.9	3.8	8.47e-01	0	43	104	0	72	15120
2026-01-06 01:48:44.74	18.23	36.95	-50.4	-62.9	3.8	8.48e-01	0	43	104	0	72	15070
2026-01-06 01:48:46.03	18.24	37.27	-50.4	-62.9	3.8	8.47e-01	0	43	104	0	72	15056
2026-01-06 01:48:46.76	18.25	37.44	-50.4	-62.9	3.8	8.47e-01	0	43	104	0	72	15104
2026-01-06 01:48:48.05	18.26	37.76	-50.4	-62.8	3.8	8.48e-01	0	43	104	0	72	15021
2026-01-06 01:48:48.77	18.26	37.94	-50.4	-62.9	3.8	8.47e-01	0	43	104	0	72	15098
2026-01-06 01:48:50.06	18.27	38.26	-50.4	-62.9	3.8	8.46e-01	0	43	104	0	72	15078
2026-01-06 01:48:50.77	18.28	38.43	-50.4	-62.9	3.8	8.47e-01	0	43	104	0	72	15135
2026-01-06 01:48:52.06	18.29	38.76	-50.4	-62.8	3.8	8.48e-01	0	43	104	0	72	15008
2026-01-06 01:48:52.78	18.30	38.94	-50.4	-62.9	3.8	8.48e-01	0	43	104	0	72	15074
2026-01-06 01:48:54.07	18.31	39.27	-50.4	-62.9	3.8	8.47e-01	0	43	104	0	72	15091
2026-01-06 01:48:54.79	18.32	39.46	-50.4	-62.9	3.8	8.46e-01	0	43	104	0	72	15093
2026-01-06 01:48:56.08	18.33	39.79	-50.4	-62.9	3.8	8.45e-01	0	43	104	0	72	15126
2026-01-06 01:48:56.79	18.33	39.98	-50.4	-62.9	3.8	8.45e-01	0	43	104	0	72	15110
2026-01-06 01:48:58.09	18.35	40.32	-50.4	-62.8	3.8	8.47e-01	0	43	104	0	72	15049
2026-01-06 01:48:58.80	18.35	40.51	-50.4	-62.8	3.8	8.47e-01	0	44	104	0	72	15014
2026-01-06 01:49:00.09	18.36	40.85	-50.4	-62.9	3.8	8.46e-01	0	43	104	0	72	15057
2026-01-06 01:49:00.81	18.37	41.05	-50.4	-62.9	3.8	8.46e-01	0	43	104	0	72	15128
2026-01-06 01:49:02.10	18.38	41.40	-50.4	-62.9	3.8	8.49e-01	0	43	104	0	72	15071
2026-01-06 01:49:02.81	18.39	41.59	-50.4	-62.9	3.8	8.46e-01	0	43	104	0	72	15056
2026-01-06 01:49:04.11	18.40	41.95	-50.4	-62.9	3.8	8.47e-01	0	43	104	0	72	15087
2026-01-06 01:49:04.82	18.41	42.15	-50.4	-62.9	3.8	8.48e-01	0	43	104	0	72	15075
2026-01-06 01:49:06.11	18.42	42.51	-50.4	-62.9	3.8	8.47e-01	0	43	104	0	72	15104
2026-01-06 01:49:06.83	18.43	42.71	-50.4	-62.9	3.8	8.46e-01	0	43	104	0	72	15100
2026-01-06 01:49:08.12	18.44	43.08	-50.4	-62.9	3.8	8.47e-01	0	43	104	0	72	15053
2026-01-06 01:49:08.83	18.45	43.28	-50.4	-62.9	3.8	8.46e-01	0	43	104	0	72	15069
2026-01-06 01:49:10.12	18.46	43.65	-50.4	-62.9	3.8	8.48e-01	0	43	104	0	72	15112
2026-01-06 01:49:10.84	18.47	43.86	-50.4	-62.8	3.8	8.47e-01	0	43	104	0	72	15042
2026-01-06 01:49:12.13	18.48	44.24	-50.4	-62.8	3.8	8.48e-01	0	43	104	0	72	15051
2026-01-06 01:49:12.85	18.49	44.45	-50.4	-62.8	3.8	8.48e-01	0	43	104	0	72	15049
2026-01-06 01:49:14.14	18.50	44.84	-50.4	-62.9	3.8	8.46e-01	0	43	104	0	72	15110
2026-01-06 01:49:14.86	18.51	45.05	-50.4	-62.9	3.8	8.47e-01	0	43	104	0	72	15068
2026-01-06 01:49:16.15	18.53	45.44	-50.4	-62.9	3.8	8.48e-01	0	43	104	0	72	15159
2026-01-06 01:49:16.91	18.53	45.67	-50.4	-62.9	3.8	8.46e-01	0	43	104	0	72	15119
2026-01-06 01:49:18.20	18.55	46.07	-50.4	-62.8	3.8	8.48e-01	0	43	104	0	72	15037
2026-01-06 01:49:18.97	18.56	46.31	-50.4	-62.9	3.8	8.47e-01	0	43	104	0	72	15092
2026-01-06 01:49:20.26	18.57	46.71	-50.4	-62.9	3.8	8.46e-01	0	43	104	0	72	15058
2026-01-06 01:49:21.04	18.58	46.95	-50.4	-62.9	3.8	8.46e-01	0	43	104	0	72	15069
2026-01-06 01:49:22.33	18.60	47.36	-50.4	-62.9	3.8	8.47e-01	0	43	104	0	72	15103
2026-01-06 01:49:23.13	18.61	47.62	-50.4	-62.9	3.8	8.46e-01	0	43	104	0	72	15075
2026-01-06 01:49:24.27	18.62	47.98	-50.4	-62.9	3.8	8.48e-01	0	43	104	0	72	15125
2026-01-06 01:49:25.14	18.63	48.26	-50.4	-62.9	3.8	8.47e-01	0	43	104	0	72	15079
2026-01-06 01:49:26.28	18.65	48.64	-50.4	-62.9	3.8	8.48e-01	0	43	104	0	72	15066
2026-01-06 01:49:27.14	18.66	48.92	-50.4	-62.9	3.8	8.46e-01	0	43	104	0	72	15066
2026-01-06 01:49:28.29	18.67	49.30	-50.4	-62.8	3.8	8.47e-01	0	43	104	0	72	15011
2026-01-06 01:49:29.15	18.68	49.59	-50.4	-62.9	3.8	8.48e-01	0	43	104	0	72	15140
2026-01-06 01:49:30.30	18.70	49.97	-50.4	-62.8	3.8	8.46e-01	0	43	104	0	72	15046
2026-01-06 01:49:31.16	18.71	50.26	-50.4	-62.9	3.8	8.47e-01	0	43	104	0	72	15089
2026-01-06 01:49:32.31	18.73	50.66	-50.4	-62.8	3.8	8.48e-01	0	43	104	0	72	15014
2026-01-06 01:49:33.17	18.74	50.95	-50.4	-62.8	3.8	8.47e-01	0	43	104	0	72	15047
2026-01-06 01:49:34.32	18.76	51.35	-50.4	-62.9	3.8	8.48e-01	0	43	104	0	72	15121
2026-01-06 01:49:35.18	18.77	51.65	-50.4	-62.9	3.8	8.47e-01	0	43	104	0	72	15157
2026-01-06 01:49:36.33	18.79	52.05	-50.4	-62.9	3.8	8.47e-01	0	43	104	0	72	15058
2026-01-06 01:49:37.19	18.80	52.36	-50.4	-62.9	3.8	8.46e-01	0	43	104	0	72	15069
2026-01-06 01:49:38.34	18.82	52.77	-50.4	-62.9	3.8	8.47e-01	0	43	104	0	72	15088
2026-01-06 01:49:39.20	18.83	53.08	-50.4	-62.9	3.8	8.47e-01	0	43	104	0	72	15097
2026-01-06 01:49:40.35	18.85	53.49	-50.4	-62.9	3.8	8.47e-01	0	43	104	0	72	15076
2026-01-06 01:49:41.21	18.86	53.81	-50.4	-62.9	3.8	8.46e-01	0	43	104	0	72	15067
2026-01-06 01:49:42.35	18.88	54.23	-50.4	-62.9	3.8	8.46e-01	0	43	104	0	72	15088
2026-01-06 01:49:43.21	18.90	54.54	-50.4	-62.9	3.8	8.47e-01	0	43	104	0	72	15079
2026-01-06 01:49:44.36	18.92	54.97	-50.4	-62.9	3.8	8.47e-01	0	43	104	0	72	15074
2026-01-06 01:49:45.22	18.93	55.30	-50.4	-62.9	3.8	8.46e-01	0	43	104	0	72	15125
2026-01-06 01:49:46.37	18.95	55.73	-50.4	-62.9	3.8	8.47e-01	0	43	104	0	72	15062
2026-01-06 01:49:47.23	18.97	56.06	-50.4	-62.9	3.8	8.47e-01	0	43	104	0	72	15113
2026-01-06 01:49:48.37	18.99	56.49	-50.4	-62.9	3.8	8.47e-01	0	43	104	0	72	15094
2026-01-06 01:49:49.23	19.01	56.83	-50.4	-62.9	3.8	8.49e-01	0	43	104	0	72	15131
2026-01-06 01:49:50.38	19.03	57.27	-50.4	-62.9	3.8	8.47e-01	0	43	104	0	72	15071
2026-01-06 01:49:51.30	19.05	57.63	-50.4	-62.9	3.8	8.47e-01	0	43	104	0	72	15162
2026-01-06 01:49:52.31	19.07	58.03	-50.4	-62.9	3.8	8.47e-01	0	43	104	0	72	15120
2026-01-06 01:49:53.31	19.09	58.43	-50.4	-62.9	3.8	8.48e-01	0	43	104	0	72	15084
2026-01-06 01:49:54.32	19.12	58.83	-50.4	-62.9	3.8	8.47e-01	0	43	104	0	72	15072
2026-01-06 01:49:55.32	19.14	59.23	-50.4	-62.9	3.8	8.47e-01	0	44	104	0	72	15094
2026-01-06 01:49:56.32	19.16	59.64	-50.4	-62.9	3.8	8.47e-01	0	43	104	0	72	15114
2026-01-06 01:49:57.33	19.19	60.05	-50.4	-62.8	3.8	8.46e-01	0	43	104	0	72	15042
2026-01-06 01:49:58.33	19.21	60.46	-50.4	-62.9	3.8	8.47e-01	0	43	104	0	72	15114
2026-01-06 01:49:59.34	19.24	60.88	-50.4	-62.9	3.8	8.47e-01	0	43	104	0	72	15087
2026-01-06 01:50:00.34	19.26	61.29	-50.4	-62.9	3.8	8.46e-01	0	43	104	0	72	15094
2026-01-06 01:50:01.35	19.29	61.71	-50.4	-62.9	3.8	8.46e-01	0	43	104	0	72	15052
2026-01-06 01:50:02.35	19.32	62.13	-50.4	-62.8	3.8	8.48e-01	0	43	104	0	72	15042
2026-01-06 01:50:03.35	19.34	62.56	-50.4	-62.9	3.8	8.46e-01	0	44	104	0	72	15114
2026-01-06 01:50:04.36	19.37	62.99	-50.4	-62.9	3.8	8.47e-01	0	44	104	0	72	15064
2026-01-06 01:50:05.36	19.40	63.42	-50.4	-62.9	3.8	8.48e-01	0	43	104	0	72	15120
2026-01-06 01:50:06.36	19.43	63.85	-50.4	-62.8	3.8	8.47e-01	0	43	104	0	72	15051
2026-01-06 01:50:07.37	19.47	64.29	-50.4	-62.9	3.8	8.47e-01	0	43	104	0	72	15059
2026-01-06 01:50:08.37	19.50	64.72	-50.4	-62.9	3.8	8.48e-01	0	43	104	0	72	15108
2026-01-06 01:50:09.37	19.53	65.16	-50.4	-62.9	3.8	8.47e-01	0	43	104	0	72	15061
2026-01-06 01:50:10.38	19.57	65.61	-50.4	-62.9	3.8	8.47e-01	0	43	104	0	72	15095
2026-01-06 01:50:11.38	19.61	66.05	-50.4	-62.9	3.8	8.47e-01	0	43	104	0	72	15106
2026-01-06 01:50:12.39	19.65	66.50	-50.4	-62.9	3.8	8.46e-01	0	43	104	0	72	15073
2026-01-06 01:50:13.39	19.69	66.95	-50.4	-62.9	3.8	8.47e-01	0	43	104	0	72	15098
2026-01-06 01:50:14.40	19.73	67.41	-50.4	-62.8	3.8	8.47e-01	0	43	104	0	72	15051
2026-01-06 01:50:15.40	19.77	67.86	-50.4	-62.9	3.8	8.46e-01	0	43	104	0	72	15111
2026-01-06 01:50:16.46	19.82	68.34	-50.4	-62.9	3.8	8.46e-01	0	43	104	0	72	15091
2026-01-06 01:50:17.36	19.86	68.76	-50.4	-62.8	3.8	8.48e-01	0	43	104	0	72	15045
2026-01-06 01:50:18.55	19.92	69.30	-50.4	-62.9	3.8	8.48e-01	0	43	104	0	72	15104
2026-01-06 01:50:19.43	19.96	69.71	-50.4	-62.9	3.8	8.47e-01	0	43	104	0	72	15069
2026-01-06 01:50:20.75	20.04	70.33	-50.4	-62.8	3.8	8.48e-01	0	43	104	0	72	15036
2026-01-06 01:50:21.47	20.08	70.66	-50.4	-62.9	3.8	8.46e-01	0	43	104	0	72	15080
2026-01-06 01:50:22.76	20.15	71.27	-50.4	-62.9	3.8	8.47e-01	0	43	104	0	72	15057
2026-01-06 01:50:23.48	20.20	71.61	-50.4	-62.8	3.8	8.47e-01	0	43	104	0	72	15032
2026-01-06 01:50:24.77	20.28	72.22	-50.4	-62.9	3.8	8.47e-01	0	43	104	0	72	15081
2026-01-06 01:50:25.49	20.33	72.57	-50.4	-62.9	3.8	8.48e-01	0	43	104	0	72	15064
2026-01-06 01:50:26.78	20.43	73.19	-50.4	-62.9	3.8	8.46e-01	0	43	104	0	72	15084
2026-01-06 01:50:27.49	20.48	73.53	-50.4	-62.8	3.8	8.47e-01	0	43	104	0	72	15025
2026-01-06 01:50:28.78	20.59	74.15	-50.4	-62.9	3.8	8.47e-01	0	43	104	0	72	15079
2026-01-06 01:50:29.50	20.65	74.50	-50.4	-62.9	3.8	8.47e-01	0	43	104	0	72	15061
2026-01-06 01:50:30.79	20.77	75.13	-50.4	-62.8	3.8	8.46e-01	0	43	104	0	72	15037
2026-01-06 01:50:31.51	20.85	75.48	-50.4	-62.9	3.8	8.47e-01	0	43	104	0	72	15056
2026-01-06 01:50:32.80	20.98	76.11	-50.4	-62.8	3.8	8.47e-01	0	43	104	0	72	14951
2026-01-06 01:50:33.52	21.07	76.46	-50.4	-62.8	3.8	8.46e-01	0	43	104	0	72	14961
2026-01-06 01:50:34.81	21.23	77.10	-50.4	-62.9	3.8	8.47e-01	0	43	104	0	72	15057
2026-01-06 01:50:35.53	21.32	77.46	-50.4	-62.8	3.8	8.47e-01	0	43	104	0	72	14962
2026-01-06 01:50:36.82	21.51	78.10	-50.4	-62.8	3.8	8.46e-01	0	44	104	0	72	14969
2026-01-06 01:50:37.53	21.62	78.45	-50.4	-62.7	3.8	8.47e-01	0	43	104	0	72	14871
2026-01-06 01:50:38.82	21.84	79.10	-50.4	-62.7	3.8	8.48e-01	0	43	104	0	72	14731
2026-01-06 01:50:39.54	21.98	79.46	-50.4	-62.8	3.8	8.47e-01	0	43	104	0	72	14883
2026-01-06 01:50:40.83	22.24	80.10	-50.4	-62.6	3.8	8.46e-01	0	44	104	0	72	14690
2026-01-06 01:50:41.55	22.41	80.47	-50.4	-62.7	3.8	8.47e-01	0	43	104	0	72	14787
2026-01-06 01:50:42.84	22.74	81.12	-50.4	-62.8	3.8	8.47e-01	0	43	104	0	72	14984
2026-01-06 01:50:43.56	22.94	81.48	-50.4	-62.9	3.8	8.48e-01	0	44	104	0	72	15060
2026-01-06 01:50:44.85	23.36	82.13	-50.4	-62.7	3.8	8.48e-01	0	44	104	0	72	14760
2026-01-06 01:50:45.57	23.62	82.50	-50.4	-62.3	3.8	8.46e-01	0	43	104	0	72	14112
2026-01-06 01:50:46.86	24.17	83.15	-50.3	-62.4	3.8	8.47e-01	0	43	104	0	72	14233
2026-01-06 01:50:47.57	24.51	83.51	-50.3	-62.2	3.8	8.47e-01	0	43	104	0	72	13972
2026-01-06 01:50:48.86	25.25	84.17	-50.3	-62.2	3.8	8.48e-01	0	43	104	0	72	13976
2026-01-06 01:50:49.58	25.74	84.53	-50.4	-62.5	3.8	8.47e-01	0	43	104	0	72	14458
2026-01-06 01:50:50.87	26.80	85.19	-50.4	-62.7	3.8	8.46e-01	0	43	104	0	72	14793
2026-01-06 01:50:51.59	27.53	85.56	-50.4	-62.4	3.8	8.47e-01	0	43	104	0	72	14273
2026-01-06 01:50:52.88	29.18	86.21	-50.0	-59.4	4.2	8.38e-01	0	43	0	0	71	10702
2026-01-06 01:50:53.60	30.38	86.57	-50.3	-61.8	3.8	8.45e-01	0	43	104	0	71	14197
2026-01-06 01:50:54.89	33.31	87.22	-50.2	-60.8	3.8	8.46e-01	0	43	104	0	71	12588
2026-01-06 01:50:55.61	35.62	87.58	-49.9	-58.8	4.3	8.32e-01	0	43	0	0	71	10019
2026-01-06 01:50:56.90	42.03	88.20	-49.9	-58.7	4.0	8.46e-01	0	43	104	0	71	9860
2026-01-06 01:50:57.61	47.83	88.53	-48.6	-54.0	7.5	1.65e-01	0	43	0	1048576	69	6469
2026-01-06 01:50:58.91	68.40	89.05	-48.1	-53.1	8.4	8.52e-02	0	43	0	8388608	68	6169
2026-01-06 01:50:59.62	89.96	89.23	-46.2	-49.7	11.7	1.61e-02	0	43	0	12582912	64	5231
2026-01-06 01:51:00.91	138.48	89.15	-38.6	-40.5	20.5	0.00e+00	0	43	0	19922944	49	4296
2026-01-06 01:51:01.62	155.55	88.92	-35.6	-37.3	22.5	0.00e+00	0	43	0	24117248	43	4240
2026-01-06 01:51:02.91	171.59	88.37	-40.3	-42.3	19.0	0.00e+00	0	43	0	30408704	51	4738
2026-01-06 01:51:03.63	176.42	88.03	-49.7	-57.5	5.0	1.81e-03	0	43	0	34603008	69	9710
2026-01-06 01:51:04.92	181.86	87.40	-49.4	-56.6	5.5	2.82e-01	0	43	0	37748736	69	8682
2026-01-06 01:51:05.63	183.85	87.04	-50.1	-60.4	3.8	8.44e-01	0	43	104	37748736	71	12071
2026-01-06 01:51:06.92	186.47	86.39	-49.8	-58.3	4.5	7.75e-01	0	43	0	37748736	71	9463
2026-01-06 01:51:07.64	187.56	86.03	-50.0	-59.5	4.1	8.41e-01	0	44	0	37748736	71	10900
2026-01-06 01:51:08.93	189.08	85.38	-50.2	-60.8	3.8	8.32e-01	0	44	104	37748736	71	12619
2026-01-06 01:51:09.64	189.75	85.01	-50.4	-62.5	3.8	8.46e-01	0	44	104	37748736	71	15392
2026-01-06 01:51:10.93	190.74	84.36	-50.2	-60.8	3.8	8.45e-01	0	43	104	37748736	71	12630
2026-01-06 01:51:11.65	191.20	83.99	-50.1	-60.0	3.9	8.44e-01	0	43	104	37748736	71	11488
2026-01-06 01:51:12.94	191.89	83.34	-50.3	-61.7	3.8	8.45e-01	0	43	104	37748736	71	13909
2026-01-06 01:51:13.65	192.22	82.97	-50.4	-62.1	3.8	8.46e-01	0	43	104	37748736	71	14660
2026-01-06 01:51:14.94	192.74	82.32	-50.4	-62.0	3.8	8.47e-01	0	44	104	37748736	71	14396
2026-01-06 01:51:15.66	192.99	81.95	-50.4	-62.2	3.8	8.47e-01	0	43	104	37748736	71	14728
2026-01-06 01:51:16.95	193.39	81.30	-50.4	-62.4	3.8	8.47e-01	0	43	104	37748736	71	15113
2026-01-06 01:51:17.67	193.59	80.94	-50.4	-62.9	3.8	8.47e-01	0	43	104	37748736	71	15976
2026-01-06 01:51:18.96	193.90	80.29	-50.4	-62.9	3.8	8.46e-01	0	43	104	37748736	71	16014
2026-01-06 01:51:19.67	194.06	79.93	-50.4	-62.9	3.8	8.46e-01	0	43	104	37748736	71	16015
2026-01-06 01:51:20.96	194.32	79.28	-50.4	-62.9	3.8	8.48e-01	0	43	104	37748736	71	16061
2026-01-06 01:51:21.68	194.45	78.92	-50.4	-62.9	3.8	8.47e-01	0	43	104	37748736	71	15973
2026-01-06 01:51:22.97	194.67	78.28	-50.4	-62.9	3.8	8.47e-01	0	44	104	37748736	71	16108
2026-01-06 01:51:23.69	194.78	77.92	-50.4	-62.9	3.8	8.47e-01	0	43	104	37748736	71	16051
2026-01-06 01:51:24.98	194.96	77.28	-50.5	-62.9	3.8	8.48e-01	0	44	104	37748736	71	16071
2026-01-06 01:51:25.70	195.05	76.92	-50.4	-62.9	3.8	8.46e-01	0	43	104	37748736	71	16075
2026-01-06 01:51:26.98	195.21	76.29	-50.4	-62.9	3.8	8.48e-01	0	44	104	37748736	71	16020
2026-01-06 01:51:27.70	195.29	75.93	-50.4	-62.9	3.8	8.46e-01	0	43	104	37748736	71	16042
2026-01-06 01:51:28.99	195.42	75.30	-50.5	-62.9	3.8	8.46e-01	0	43	104	37748736	71	16074
2026-01-06 01:51:29.71	195.49	74.95	-50.5	-62.9	3.8	8.47e-01	0	43	104	37748736	71	16030
2026-01-06 01:51:31.00	195.61	74.32	-50.5	-62.9	3.8	8.48e-01	0	44	104	37748736	71	16049
2026-01-06 01:51:31.72	195.67	73.97	-50.5	-62.9	3.8	8.47e-01	0	44	104	37748736	71	16089
2026-01-06 01:51:33.00	195.77	73.35	-50.5	-62.9	3.8	8.48e-01	0	43	104	37748736	71	16052
2026-01-06 01:51:33.72	195.83	73.01	-50.4	-62.9	3.8	8.47e-01	0	44	104	37748736	71	15949
2026-01-06 01:51:35.01	195.92	72.39	-50.4	-62.9	3.8	8.47e-01	0	43	104	37748736	71	16026
2026-01-06 01:51:35.73	195.97	72.05	-50.5	-62.9	3.8	8.45e-01	0	44	104	37748736	71	16070
2026-01-06 01:51:37.02	196.06	71.43	-50.5	-62.9	3.8	8.46e-01	0	44	104	37748736	71	16053
2026-01-06 01:51:37.74	196.10	71.09	-50.5	-62.9	3.8	8.46e-01	0	44	104	37748736	71	16066
2026-01-06 01:51:39.03	196.18	70.49	-50.5	-63.0	3.8	8.48e-01	0	44	104	37748736	71	16157
2026-01-06 01:51:39.75	196.22	70.15	-50.4	-63.0	3.8	8.47e-01	0	44	104	37748736	71	16130
2026-01-06 01:51:41.04	196.28	69.55	-50.5	-62.9	3.8	8.47e-01	0	43	104	37748736	71	16061
2026-01-06 01:51:41.75	196.32	69.22	-50.5	-62.9	3.8	8.47e-01	0	44	104	37748736	71	16083
2026-01-06 01:51:43.04	196.38	68.62	-50.5	-62.9	3.8	8.47e-01	0	43	104	37748736	71	16077
2026-01-06 01:51:43.76	196.42	68.29	-50.4	-62.9	3.8	8.47e-01	0	43	104	37748736	71	15986
2026-01-06 01:51:45.05	196.47	67.70	-50.5	-62.9	3.8	8.47e-01	0	43	104	37748736	71	16081
2026-01-06 01:51:45.77	196.50	67.37	-50.5	-62.9	3.8	8.47e-01	0	43	104	37748736	71	16013
2026-01-06 01:51:47.06	196.56	66.79	-50.5	-62.9	3.8	8.46e-01	0	44	104	37748736	71	16041
2026-01-06 01:51:47.78	196.59	66.47	-50.4	-62.9	3.8	8.47e-01	0	44	104	37748736	71	16021
2026-01-06 01:51:49.07	196.63	65.89	-50.5	-62.9	3.8	8.47e-01	0	43	104	37748736	71	16014
2026-01-06 01:51:49.79	196.66	65.57	-50.5	-62.9	3.8	8.46e-01	0	43	104	37748736	71	16095
2026-01-06 01:51:51.07	196.71	65.00	-50.5	-62.9	3.8	8.47e-01	0	44	104	37748736	71	16059
2026-01-06 01:51:51.79	196.73	64.69	-50.5	-63.0	3.8	8.47e-01	0	43	104	37748736	71	16158
2026-01-06 01:51:53.08	196.77	64.12	-50.5	-62.9	3.8	8.47e-01	0	44	104	37748736	71	16121
2026-01-06 01:51:53.80	196.80	63.81	-50.5	-63.0	3.8	8.45e-01	0	44	104	37748736	71	16141
2026-01-06 01:51:55.09	196.84	63.25	-50.5	-62.9	3.8	8.45e-01	0	43	104	37748736	71	16037
2026-01-06 01:51:55.81	196.86	62.94	-50.5	-62.9	3.8	8.47e-01	0	43	104	37748736	71	16056
2026-01-06 01:51:57.10	196.89	62.39	-50.5	-62.9	3.8	8.47e-01	0	43	104	37748736	71	16091
2026-01-06 01:51:57.82	196.91	62.09	-50.4	-62.9	3.8	8.47e-01	0	43	104	37748736	71	16041
2026-01-06 01:51:59.11	196.95	61.54	-50.5	-62.9	3.8	8.47e-01	0	43	104	37748736	71	16038
2026-01-06 01:51:59.83	196.97	61.24	-50.5	-62.9	3.8	8.47e-01	0	44	104	37748736	71	15995
2026-01-06 01:52:01.12	197.00	60.71	-50.5	-62.9	3.8	8.47e-01	0	43	104	37748736	71	16061
2026-01-06 01:52:01.83	197.02	60.41	-50.5	-63.0	3.8	8.47e-01	0	44	104	37748736	71	16136
2026-01-06 01:52:03.12	197.05	59.88	-50.5	-62.9	3.8	8.47e-01	0	43	104	37748736	71	16080
2026-01-06 01:52:03.84	197.07	59.59	-50.5	-62.9	3.8	8.46e-01	0	43	104	37748736	71	16089
2026-01-06 01:52:05.13	197.10	59.07	-50.5	-63.0	3.8	8.47e-01	0	43	104	37748736	71	16133
2026-01-06 01:52:05.85	197.11	58.78	-50.5	-62.9	3.8	8.48e-01	0	44	104	37748736	71	16116
2026-01-06 01:52:07.14	197.14	58.26	-50.5	-62.9	3.8	8.48e-01	0	44	104	37748736	71	16022
2026-01-06 01:52:07.86	197.16	57.97	-50.5	-63.0	3.8	8.47e-01	0	44	104	37748736	71	16142
2026-01-06 01:52:09.15	197.18	57.46	-50.5	-62.9	3.8	8.46e-01	0	44	104	37748736	71	16110
2026-01-06 01:52:09.87	197.20	57.18	-50.5	-62.9	3.8	8.46e-01	0	44	104	37748736	71	16082
2026-01-06 01:52:11.16	197.22	56.68	-50.5	-62.9	3.8	8.46e-01	0	44	104	37748736	71	16102
2026-01-06 01:52:11.87	197.24	56.40	-50.5	-62.9	3.8	8.48e-01	0	44	104	37748736	71	16096
2026-01-06 01:52:13.16	197.26	55.91	-50.5	-62.9	3.8	8.47e-01	0	43	104	37748736	71	16083
2026-01-06 01:52:13.88	197.27	55.63	-50.5	-63.0	3.8	8.46e-01	0	43	104	37748736	71	16137
2026-01-06 01:52:15.17	197.30	55.15	-50.5	-62.9	3.8	8.48e-01	0	43	104	37748736	71	16065
2026-01-06 01:52:15.89	197.31	54.88	-50.5	-63.0	3.8	8.48e-01	0	43	104	37748736	71	16136
2026-01-06 01:52:17.18	197.33	54.39	-50.5	-62.9	3.8	8.47e-01	0	44	104	37748736	71	16109
2026-01-06 01:52:17.89	197.34	54.13	-50.5	-62.9	3.8	8.47e-01	0	44	104	37748736	71	16109
2026-01-06 01:52:19.18	197.36	53.66	-50.5	-62.9	3.8	8.48e-01	0	44	104	37748736	71	16106
2026-01-06 01:52:20.03	197.38	53.35	-50.5	-63.0	3.8	8.46e-01	0	43	104	37748736	71	16134
2026-01-06 01:52:21.17	197.40	52.93	-50.5	-62.9	3.8	8.47e-01	0	44	104	37748736	71	16085
2026-01-06 01:52:22.03	197.41	52.62	-50.5	-62.9	3.8	8.47e-01	0	44	104	37748736	71	16065
2026-01-06 01:52:23.18	197.43	52.21	-50.5	-62.9	3.8	8.47e-01	0	44	104	37748736	71	16111
2026-01-06 01:52:24.04	197.44	51.91	-50.5	-63.0	3.8	8.48e-01	0	44	104	37748736	71	16149
2026-01-06 01:52:25.19	197.46	51.50	-50.5	-62.9	3.8	8.46e-01	0	44	104	37748736	71	16048
2026-01-06 01:52:26.05	197.47	51.20	-50.5	-62.9	3.8	8.46e-01	0	43	104	37748736	71	16092
2026-01-06 01:52:27.20	197.49	50.80	-50.5	-62.9	3.8	8.46e-01	0	43	104	37748736	71	16060
2026-01-06 01:52:28.06	197.50	50.51	-50.5	-62.9	3.8	8.47e-01	0	43	104	37748736	71	16111
2026-01-06 01:52:29.20	197.51	50.12	-50.5	-62.9	3.8	8.47e-01	0	43	104	37748736	71	16070
2026-01-06 01:52:30.07	197.52	49.82	-50.5	-62.9	3.8	8.47e-01	0	43	104	37748736	71	16041
2026-01-06 01:52:31.21	197.54	49.44	-50.5	-62.9	3.8	8.47e-01	0	44	104	37748736	71	16082
2026-01-06 01:52:32.07	197.55	49.15	-50.5	-63.0	3.8	8.47e-01	0	43	104	37748736	71	16180
2026-01-06 01:52:33.22	197.57	48.77	-50.5	-63.0	3.8	8.47e-01	0	43	104	37748736	71	16139
2026-01-06 01:52:34.20	197.58	48.44	-50.5	-62.9	3.8	8.48e-01	0	44	104	37748736	71	16090
2026-01-06 01:52:35.21	197.59	48.11	-50.5	-62.9	3.8	8.46e-01	0	44	104	37748736	71	16089
2026-01-06 01:52:36.21	197.60	47.79	-50.5	-63.0	3.8	8.47e-01	0	44	104	37748736	71	16200
2026-01-06 01:52:37.21	197.61	47.47	-50.5	-63.0	3.8	8.46e-01	0	44	104	37748736	71	16131
2026-01-06 01:52:38.22	197.63	47.15	-50.5	-62.9	3.8	8.47e-01	0	44	104	37748736	71	16126
2026-01-06 01:52:39.22	197.64	46.83	-50.5	-62.9	3.8	8.47e-01	0	44	104	37748736	71	16099
2026-01-06 01:52:40.23	197.65	46.51	-50.5	-62.9	3.8	8.46e-01	0	44	104	37748736	71	16101
2026-01-06 01:52:41.23	197.66	46.20	-50.5	-62.9	3.8	8.47e-01	0	44	104	37748736	71	16038
2026-01-06 01:52:42.23	197.67	45.89	-50.5	-62.9	3.8	8.47e-01	0	43	104	37748736	71	16117
2026-01-06 01:52:43.24	197.68	45.58	-50.5	-62.9	3.8	8.47e-01	0	44	104	37748736	71	16126
2026-01-06 01:52:44.24	197.69	45.27	-50.5	-63.0	3.8	8.45e-01	0	43	104	37748736	71	16139
2026-01-06 01:52:45.25	197.70	44.97	-50.5	-63.0	3.8	8.48e-01	0	44	104	37748736	71	16157
2026-01-06 01:52:46.31	197.72	44.65	-50.5	-63.0	3.8	8.47e-01	0	43	104	37748736	71	16138
2026-01-06 01:52:47.22	197.73	44.38	-50.5	-63.0	3.8	8.47e-01	0	43	104	37748736	71	16172
2026-01-06 01:52:48.44	197.74	44.02	-50.5	-63.0	3.8	8.47e-01	0	44	104	37748736	71	16148
2026-01-06 01:52:49.30	197.75	43.76	-50.5	-62.9	3.8	8.46e-01	0	44	104	37748736	71	16100
2026-01-06 01:52:50.45	197.76	43.43	-50.5	-62.9	3.8	8.48e-01	0	43	104	37748736	71	16112
2026-01-06 01:52:51.31	197.77	43.18	-50.5	-63.0	3.8	8.47e-01	0	44	104	37748736	71	16133
2026-01-06 01:52:52.45	197.78	42.85	-50.5	-63.0	3.8	8.46e-01	0	43	104	37748736	71	16149
2026-01-06 01:52:53.31	197.79	42.61	-50.5	-62.9	3.8	8.46e-01	0	43	104	37748736	71	16105
2026-01-06 01:52:54.46	197.80	42.28	-50.5	-63.0	3.8	8.46e-01	0	43	104	37748736	71	16179
2026-01-06 01:52:55.32	197.81	42.04	-50.5	-63.0	3.8	8.48e-01	0	43	104	37748736	71	16140
2026-01-06 01:52:56.47	197.82	41.72	-50.5	-62.9	3.8	8.48e-01	0	43	104	37748736	71	16108
2026-01-06 01:52:57.33	197.82	41.49	-50.5	-62.9	3.8	8.47e-01	0	44	104	37748736	71	16122
2026-01-06 01:52:58.48	197.83	41.17	-50.5	-63.0	3.8	8.47e-01	0	43	104	37748736	71	16130
2026-01-06 01:52:59.34	197.84	40.94	-50.5	-63.0	3.8	8.46e-01	0	43	104	37748736	71	16136
2026-01-06 01:53:00.49	197.85	40.63	-50.5	-63.0	3.8	8.48e-01	0	43	104	37748736	71	16154
2026-01-06 01:53:01.35	197.86	40.39	-50.5	-63.0	3.8	8.46e-01	0	44	104	37748736	71	16144
2026-01-06 01:53:02.50	197.87	40.09	-50.5	-63.0	3.8	8.47e-01	0	43	104	37748736	71	16208
2026-01-06 01:53:03.36	197.88	39.86	-50.5	-63.0	3.8	8.46e-01	0	43	104	37748736	71	16129
2026-01-06 01:53:04.51	197.89	39.56	-50.5	-63.0	3.8	8.47e-01	0	44	104	37748736	71	16153
2026-01-06 01:53:05.37	197.89	39.34	-50.5	-63.0	3.8	8.47e-01	0	44	104	37748736	71	16133
2026-01-06 01:53:06.51	197.90	39.04	-50.5	-63.0	3.8	8.48e-01	0	43	104	37748736	71	16141
2026-01-06 01:53:07.37	197.91	38.82	-50.5	-63.0	3.8	8.48e-01	0	43	104	37748736	71	16159
2026-01-06 01:53:08.52	197.92	38.53	-50.5	-63.0	3.8	8.48e-01	0	44	104	37748736	71	16164
2026-01-06 01:53:09.38	197.93	38.31	-50.5	-62.9	3.8	8.47e-01	0	43	104	37748736	71	16118
2026-01-06 01:53:10.53	197.94	38.03	-50.5	-62.9	3.8	8.47e-01	0	43	104	37748736	71	16091
2026-01-06 01:53:11.39	197.94	37.81	-50.5	-63.0	3.8	8.46e-01	0	44	104	37748736	71	16152
2026-01-06 01:53:12.54	197.95	37.53	-50.5	-63.0	3.8	8.47e-01	0	44	104	37748736	71	16164
2026-01-06 01:53:13.40	197.96	37.32	-50.5	-63.0	3.8	8.46e-01	0	43	104	37748736	71	16202
2026-01-06 01:53:14.55	197.97	37.04	-50.5	-63.0	3.8	8.46e-01	0	44	104	37748736	71	16199
2026-01-06 01:53:15.40	197.98	36.83	-50.5	-63.0	3.8	8.46e-01	0	43	104	37748736	71	16149
2026-01-06 01:53:16.60	197.98	36.54	-50.5	-63.0	3.8	8.47e-01	0	44	104	37748736	71	16167
2026-01-06 01:53:17.46	197.99	36.34	-50.5	-63.0	3.8	8.47e-01	0	44	104	37748736	71	16157
2026-01-06 01:53:18.70	198.00	36.05	-50.5	-63.0	3.8	8.46e-01	0	43	104	37748736	71	16213
2026-01-06 01:53:19.56	198.01	35.85	-50.5	-63.0	3.8	8.47e-01	0	43	104	37748736	71	16192
2026-01-06 01:53:20.78	198.02	35.56	-50.5	-63.0	3.8	8.47e-01	0	43	104	37748736	71	16200
2026-01-06 01:53:21.64	198.02	35.36	-50.5	-63.0	3.8	8.46e-01	0	44	104	37748736	71	16150
2026-01-06 01:53:22.79	198.03	35.10	-50.5	-63.0	3.8	8.46e-01	0	43	104	37748736	71	16169
2026-01-06 01:53:23.65	198.04	34.91	-50.5	-63.0	3.8	8.47e-01	0	44	104	37748736	71	16195
2026-01-06 01:53:24.80	198.04	34.65	-50.5	-62.9	3.8	8.47e-01	0	43	104	37748736	71	16115
2026-01-06 01:53:25.66	198.05	34.45	-50.5	-63.0	3.8	8.48e-01	0	44	104	37748736	71	16171
2026-01-06 01:53:26.81	198.06	34.20	-50.5	-63.0	3.8	8.47e-01	0	43	104	37748736	71	16151
2026-01-06 01:53:27.67	198.07	34.01	-50.5	-63.0	3.8	8.47e-01	0	43	104	37748736	71	16157
2026-01-06 01:53:28.82	198.07	33.76	-50.5	-63.0	3.8	8.47e-01	0	43	104	37748736	71	16192
2026-01-06 01:53:29.68	198.08	33.57	-50.5	-62.9	3.8	8.47e-01	0	44	104	37748736	71	16090
2026-01-06 01:53:30.82	198.09	33.32	-50.5	-63.0	3.8	8.47e-01	0	43	104	37748736	71	16190
2026-01-06 01:53:31.69	198.09	33.14	-50.5	-63.0	3.8	8.46e-01	0	43	104	37748736	71	16143
2026-01-06 01:53:32.83	198.10	32.89	-50.5	-63.0	3.8	8.47e-01	0	44	104	37748736	71	16196
2026-01-06 01:53:33.69	198.11	32.71	-50.5	-63.0	3.8	8.47e-01	0	44	104	37748736	71	16174
2026-01-06 01:53:34.84	198.11	32.47	-50.5	-63.0	3.8	8.47e-01	0	43	104	37748736	71	16133
2026-01-06 01:53:35.70	198.12	32.29	-50.5	-63.0	3.8	8.46e-01	0	44	104	37748736	71	16197
2026-01-06 01:53:36.85	198.13	32.05	-50.5	-63.0	3.8	8.46e-01	0	43	104	37748736	71	16177
2026-01-06 01:53:37.71	198.13	31.87	-50.5	-63.0	3.8	8.46e-01	0	43	104	37748736	71	16174
2026-01-06 01:53:38.86	198.14	31.64	-50.5	-63.0	3.8	8.47e-01	0	44	104	37748736	71	16145
2026-01-06 01:53:39.72	198.15	31.46	-50.5	-63.0	3.8	8.46e-01	0	43	104	37748736	71	16149
2026-01-06 01:53:40.87	198.15	31.23	-50.5	-62.9	3.8	8.45e-01	0	44	104	37748736	71	16101
2026-01-06 01:53:41.73	198.16	31.06	-50.5	-63.0	3.8	8.46e-01	0	44	104	37748736	71	16189
2026-01-06 01:53:42.88	198.17	30.83	-50.5	-63.0	3.8	8.46e-01	0	43	104	37748736	71	16210
2026-01-06 01:53:43.74	198.17	30.66	-50.5	-63.0	3.8	8.47e-01	0	43	104	37748736	71	16225
2026-01-06 01:53:44.89	198.18	30.44	-50.5	-63.0	3.8	8.46e-01	0	44	104	37748736	71	16152
2026-01-06 01:53:45.75	198.18	30.27	-50.5	-63.0	3.8	8.46e-01	0	44	104	37748736	71	16158
2026-01-06 01:53:46.89	198.19	30.05	-50.5	-63.0	3.8	8.47e-01	0	44	104	37748736	71	16224
2026-01-06 01:53:47.76	198.20	29.88	-50.5	-63.0	3.8	8.47e-01	0	44	104	37748736	71	16201
2026-01-06 01:53:48.90	198.20	29.66	-50.5	-63.0	3.8	8.48e-01	0	44	104	37748736	71	16153
2026-01-06 01:53:49.76	198.21	29.50	-50.5	-62.9	3.8	8.47e-01	0	44	104	37748736	71	16100
2026-01-06 01:53:50.91	198.21	29.29	-50.5	-62.9	3.8	8.47e-01	0	44	104	37748736	71	16114
2026-01-06 01:53:51.77	198.22	29.12	-50.5	-63.0	3.8	8.47e-01	0	43	104	37748736	71	16130
2026-01-06 01:53:52.92	198.23	28.91	-50.5	-63.0	3.8	8.48e-01	0	44	104	37748736	71	16208
2026-01-06 01:53:53.78	198.23	28.75	-50.5	-63.0	3.8	8.47e-01	0	44	104	37748736	71	16156
2026-01-06 01:53:54.93	198.24	28.54	-50.5	-62.9	3.8	8.46e-01	0	44	104	37748736	71	16091
2026-01-06 01:53:55.79	198.24	28.38	-50.5	-62.9	3.8	8.47e-01	0	44	104	37748736	71	16112
2026-01-06 01:53:56.94	198.25	28.18	-50.5	-63.0	3.8	8.47e-01	0	43	104	37748736	71	16142
2026-01-06 01:53:57.80	198.26	28.02	-50.5	-62.9	3.8	8.46e-01	0	44	104	37748736	71	16106
2026-01-06 01:53:58.95	198.26	27.82	-50.5	-63.0	3.8	8.46e-01	0	44	104	37748736	71	16186
2026-01-06 01:53:59.81	198.27	27.66	-50.5	-62.9	3.8	8.47e-01	0	44	104	37748736	71	16108
2026-01-06 01:54:00.95	198.27	27.46	-50.5	-63.0	3.8	8.47e-01	0	44	104	37748736	71	16160
2026-01-06 01:54:01.81	198.28	27.31	-50.5	-63.0	3.8	8.48e-01	0	44	104	37748736	71	16143
2026-01-06 01:54:02.96	198.28	27.11	-50.5	-63.0	3.8	8.47e-01	0	44	104	37748736	71	16168
2026-01-06 01:54:03.82	198.29	26.96	-50.5	-63.0	3.8	8.47e-01	0	43	104	37748736	71	16149
2026-01-06 01:54:04.97	198.30	26.77	-50.5	-62.9	3.8	8.47e-01	0	43	104	37748736	71	16126
2026-01-06 01:54:05.83	198.30	26.62	-50.5	-62.9	3.8	8.47e-01	0	44	104	37748736	71	16099
2026-01-06 01:54:06.98	198.31	26.42	-50.5	-62.9	3.8	8.49e-01	0	44	104	37748736	71	16047
2026-01-06 01:54:07.84	198.31	26.28	-50.5	-62.9	3.8	8.47e-01	0	44	104	37748736	71	16120
2026-01-06 01:54:08.99	198.32	26.09	-50.5	-62.9	3.8	8.48e-01	0	44	104	37748736	71	16091
2026-01-06 01:54:09.85	198.32	25.94	-50.5	-63.0	3.8	8.46e-01	0	44	104	37748736	71	16187
2026-01-06 01:54:11.00	198.33	25.75	-50.5	-62.9	3.8	8.48e-01	0	44	104	37748736	71	16126
2026-01-06 01:54:11.86	198.33	25.61	-50.5	-62.9	3.8	8.48e-01	0	43	104	37748736	71	16046
2026-01-06 01:54:13.00	198.34	25.43	-50.5	-62.9	3.8	8.46e-01	0	43	104	37748736	71	16057
2026-01-06 01:54:13.86	198.34	25.29	-50.5	-62.9	3.8	8.48e-01	0	44	104	37748736	71	16061
2026-01-06 01:54:15.01	198.35	25.10	-50.5	-63.0	3.8	8.46e-01	0	44	104	37748736	71	16129
2026-01-06 01:54:15.87	198.35	24.96	-50.5	-62.9	3.8	8.47e-01	0	44	104	37748736	71	16108
2026-01-06 01:54:17.02	198.36	24.78	-50.5	-62.9	3.8	8.47e-01	0	44	104	37748736	71	16076
2026-01-06 01:54:17.88	198.37	24.64	-50.5	-62.9	3.8	8.47e-01	0	44	104	37748736	71	16080
2026-01-06 01:54:19.03	198.37	24.46	-50.5	-62.9	3.8	8.47e-01	0	44	104	37748736	71	16083
2026-01-06 01:54:19.89	198.38	24.33	-50.5	-62.9	3.8	8.47e-01	0	43	104	37748736	71	16068
2026-01-06 01:54:21.04	198.38	24.15	-50.5	-63.0	3.8	8.47e-01	0	44	104	37748736	71	16199
2026-01-06 01:54:21.90	198.39	24.01	-50.5	-62.9	3.8	8.47e-01	0	43	104	37748736	71	16119
2026-01-06 01:54:23.05	198.39	23.84	-50.5	-62.9	3.8	8.47e-01	0	44	104	37748736	71	16072
2026-01-06 01:54:23.91	198.40	23.71	-50.5	-62.9	3.8	8.45e-01	0	43	104	37748736	71	16085
2026-01-06 01:54:25.05	198.40	23.53	-50.5	-62.9	3.8	8.48e-01	0	43	104	37748736	71	16047
2026-01-06 01:54:25.92	198.41	23.40	-50.5	-62.9	3.8	8.47e-01	0	44	104	37748736	71	16054
2026-01-06 01:54:27.06	198.41	23.23	-50.5	-62.9	3.8	8.47e-01	0	44	104	37748736	71	16102
2026-01-06 01:54:27.92	198.42	23.10	-50.5	-62.9	3.8	8.47e-01	0	44	104	37748736	71	16082
2026-01-06 01:54:29.07	198.42	22.93	-50.5	-62.9	3.8	8.47e-01	0	44	104	37748736	71	16023
2026-01-06 01:54:29.93	198.43	22.80	-50.5	-62.9	3.8	8.47e-01	0	44	104	37748736	71	16125
2026-01-06 01:54:31.08	198.43	22.63	-50.5	-63.0	3.8	8.47e-01	0	44	104	37748736	71	16141
2026-01-06 01:54:31.94	198.44	22.51	-50.5	-62.9	3.8	8.47e-01	0	43	104	37748736	71	16080
2026-01-06 01:54:33.09	198.44	22.34	-50.5	-62.9	3.8	8.46e-01	0	43	104	37748736	71	16083
2026-01-06 01:54:33.95	198.45	22.22	-50.5	-62.9	3.8	8.48e-01	0	43	104	37748736	71	16092
2026-01-06 01:54:35.21	198.45	22.04	-50.5	-62.9	3.8	8.46e-01	0	44	104	37748736	71	16048
2026-01-06 01:54:35.93	198.46	21.94	-50.5	-62.9	3.8	8.47e-01	0	43	104	37748736	71	16064
2026-01-06 01:54:37.22	198.46	21.75	-50.5	-62.9	3.8	8.47e-01	0	43	104	37748736	71	16062
2026-01-06 01:54:37.93	198.47	21.65	-50.5	-62.9	3.8	8.46e-01	0	43	104	37748736	71	16037
2026-01-06 01:54:39.23	198.47	21.47	-50.4	-62.9	3.8	8.47e-01	0	44	104	37748736	71	16076
2026-01-06 01:54:39.94	198.48	21.37	-50.5	-62.9	3.8	8.47e-01	0	43	104	37748736	71	16096
2026-01-06 01:54:41.24	198.48	21.19	-50.4	-62.9	3.8	8.47e-01	0	44	104	37748736	71	16026
2026-01-06 01:54:41.95	198.49	21.09	-50.4	-62.9	3.8	8.47e-01	0	43	104	37748736	71	16120
2026-01-06 01:54:43.24	198.49	20.92	-50.5	-62.9	3.8	8.45e-01	0	43	104	37748736	71	16049
2026-01-06 01:54:43.96	198.49	20.82	-50.5	-62.9	3.8	8.47e-01	0	43	104	37748736	71	16071
2026-01-06 01:54:45.25	198.50	20.64	-50.5	-62.9	3.8	8.46e-01	0	44	104	37748736	71	16103
2026-01-06 01:54:45.97	198.50	20.55	-50.4	-62.9	3.8	8.46e-01	0	44	104	37748736	71	16038
2026-01-06 01:54:47.26	198.51	20.37	-50.4	-62.9	3.8	8.46e-01	0	43	104	37748736	71	16040
2026-01-06 01:54:47.98	198.51	20.28	-50.5	-62.9	3.8	8.47e-01	0	44	104	37748736	71	16098
2026-01-06 01:54:49.27	198.52	20.10	-50.5	-62.9	3.8	8.46e-01	0	44	104	37748736	71	16037
2026-01-06 01:54:49.98	198.52	20.01	-50.5	-63.0	3.8	8.47e-01	0	44	104	37748736	71	16176
2026-01-06 01:54:51.28	198.53	19.84	-50.5	-62.9	3.8	8.46e-01	0	44	104	37748736	71	16061
2026-01-06 01:54:51.99	198.53	19.75	-50.4	-62.9	3.8	8.47e-01	0	44	104	37748736	71	16064
2026-01-06 01:54:53.28	198.54	19.58	-50.5	-62.9	3.8	8.47e-01	0	43	104	37748736	71	16071
2026-01-06 01:54:54.03	198.54	19.48	-50.5	-62.9	3.8	8.48e-01	0	43	104	37748736	71	16052
2026-01-06 01:54:55.32	198.55	19.32	-50.5	-62.9	3.8	8.47e-01	0	43	104	37748736	71	16079
2026-01-06 01:54:56.14	198.55	19.21	-50.5	-62.9	3.8	8.47e-01	0	43	104	37748736	71	16076
2026-01-06 01:54:57.28	198.56	19.07	-50.5	-62.9	3.8	8.47e-01	0	43	104	37748736	71	15999
2026-01-06 01:54:58.37	198.56	18.93	-50.5	-62.9	3.8	8.46e-01	0	44	104	37748736	71	16093
2026-01-06 01:54:59.40	198.57	18.80	-50.5	-62.9	3.8	8.48e-01	0	44	104	37748736	71	15992
2026-01-06 01:55:00.58	198.57	18.65	-50.5	-62.9	3.8	8.48e-01	0	43	104	37748736	71	16102
2026-01-06 01:55:01.47	198.58	18.54	-50.5	-62.9	3.8	8.47e-01	0	43	104	37748736	71	16058
2026-01-06 01:55:02.79	198.58	18.38	-50.5	-62.9	3.8	8.46e-01	0	43	104	37748736	71	16106
2026-01-06 01:55:03.50	198.58	18.29	-50.4	-62.9	3.8	8.47e-01	0	43	104	37748736	71	16082
2026-01-06 01:55:04.79	198.59	18.13	-50.4	-62.9	3.8	8.47e-01	0	43	104	37748736	71	16076
2026-01-06 01:55:05.51	198.59	18.04	-50.4	-62.9	3.8	8.47e-01	0	43	104	37748736	71	16033
2026-01-06 01:55:06.80	198.60	17.89	-50.4	-62.9	3.8	8.47e-01	0	44	104	37748736	71	16026
2026-01-06 01:55:07.52	198.60	17.80	-50.4	-62.9	3.8	8.47e-01	0	44	104	37748736	71	16087
2026-01-06 01:55:08.81	198.61	17.65	-50.4	-62.9	3.8	8.46e-01	0	44	104	37748736	71	16019
2026-01-06 01:55:09.53	198.61	17.56	-50.4	-62.9	3.8	8.47e-01	0	43	104	37748736	71	16072
2026-01-06 01:55:10.82	198.62	17.41	-50.4	-62.9	3.8	8.48e-01	0	44	104	37748736	71	16034
2026-01-06 01:55:11.54	198.62	17.32	-50.4	-62.9	3.8	8.47e-01	0	43	104	37748736	71	16019
2026-01-06 01:55:12.83	198.63	17.17	-50.4	-62.9	3.8	8.47e-01	0	43	104	37748736	71	16050
2026-01-06 01:55:13.55	198.63	17.08	-50.4	-62.9	3.8	8.47e-01	0	43	104	37748736	71	16059
2026-01-06 01:55:14.84	198.63	16.93	-50.4	-62.9	3.8	8.47e-01	0	43	104	37748736	71	16100
2026-01-06 01:55:15.55	198.64	16.85	-50.4	-62.9	3.8	8.47e-01	0	43	104	37748736	71	16044
2026-01-06 01:55:16.84	198.64	16.70	-50.4	-62.9	3.8	8.47e-01	0	43	104	37748736	71	16038
2026-01-06 01:55:17.56	198.65	16.62	-50.4	-62.9	3.8	8.48e-01	0	43	104	37748736	71	16078
2026-01-06 01:55:18.85	198.65	16.47	-50.4	-62.9	3.8	8.46e-01	0	43	104	37748736	71	16060
2026-01-06 01:55:19.57	198.65	16.39	-50.4	-62.9	3.8	8.46e-01	0	43	104	37748736	71	16001
2026-01-06 01:55:20.86	198.66	16.24	-50.4	-62.9	3.8	8.47e-01	0	43	104	37748736	71	16049
2026-01-06 01:55:21.58	198.66	16.16	-50.4	-62.9	3.8	8.46e-01	0	44	104	37748736	71	16036
2026-01-06 01:55:22.87	198.67	16.02	-50.4	-62.9	3.8	8.47e-01	0	43	104	37748736	71	16046
2026-01-06 01:55:23.59	198.67	15.94	-50.4	-62.9	3.8	8.48e-01	0	44	104	37748736	71	16064
2026-01-06 01:55:24.88	198.68	15.79	-50.4	-62.9	3.8	8.46e-01	0	44	104	37748736	71	16070
2026-01-06 01:55:25.61	198.68	15.71	-50.4	-62.9	3.8	8.47e-01	0	44	104	37748736	71	16035
2026-01-06 01:55:26.90	198.69	15.57	-50.4	-62.9	3.8	8.46e-01	0	43	104	37748736	71	16002
2026-01-06 01:55:27.61	198.69	15.49	-50.4	-62.9	3.8	8.47e-01	0	43	104	37748736	71	16034
2026-01-06 01:55:28.90	198.69	15.35	-50.4	-62.9	3.8	8.48e-01	0	43	104	37748736	71	16082
2026-01-06 01:55:29.62	198.70	15.27	-50.4	-62.9	3.8	8.47e-01	0	43	104	37748736	71	16025
2026-01-06 01:55:30.91	198.70	15.13	-50.4	-62.9	3.8	8.47e-01	0	44	104	37748736	71	16021
2026-01-06 01:55:31.63	198.71	15.05	-50.4	-62.9	3.8	8.47e-01	0	44	104	37748736	71	16010
2026-01-06 01:55:32.92	198.71	14.92	-50.4	-62.9	3.8	8.46e-01	0	44	104	37748736	71	16016
2026-01-06 01:55:33.64	198.71	14.84	-50.4	-62.9	3.8	8.47e-01	0	43	104	37748736	71	16072
2026-01-06 01:55:34.93	198.72	14.70	-50.4	-62.9	3.8	8.47e-01	0	43	104	37748736	71	16001
2026-01-06 01:55:35.65	198.72	14.63	-50.4	-62.9	3.8	8.47e-01	0	44	104	37748736	71	16055
2026-01-06 01:55:36.94	198.73	14.49	-50.4	-62.9	3.8	8.47e-01	0	43	104	37748736	71	16099
2026-01-06 01:55:37.65	198.73	14.41	-50.4	-62.9	3.8	8.47e-01	0	44	104	37748736	71	16081
2026-01-06 01:55:38.94	198.74	14.28	-50.4	-62.9	3.8	8.47e-01	0	44	104	37748736	71	16031
2026-01-06 01:55:39.66	198.74	14.20	-50.4	-62.9	3.8	8.46e-01	0	43	104	37748736	71	16024
2026-01-06 01:55:40.95	198.74	14.07	-50.4	-62.8	3.8	8.47e-01	0	44	104	37748736	71	15942
2026-01-06 01:55:41.67	198.75	14.00	-50.4	-62.9	3.8	8.47e-01	0	43	104	37748736	71	16027
2026-01-06 01:55:42.96	198.75	13.86	-50.4	-62.9	3.8	8.47e-01	0	44	104	37748736	71	15944
2026-01-06 01:55:43.68	198.75	13.79	-50.4	-62.8	3.8	8.47e-01	0	44	104	37748736	71	15900
2026-01-06 01:55:44.97	198.76	13.66	-50.4	-62.9	3.8	8.47e-01	0	44	104	37748736	71	16022
2026-01-06 01:55:45.69	198.76	13.59	-50.4	-62.9	3.8	8.46e-01	0	43	104	37748736	71	15985
2026-01-06 01:55:46.98	198.77	13.46	-50.4	-62.9	3.8	8.47e-01	0	44	104	37748736	71	16020
2026-01-06 01:55:47.69	198.77	13.38	-50.4	-62.9	3.8	8.47e-01	0	44	104	37748736	71	16048
2026-01-06 01:55:48.99	198.78	13.25	-50.4	-62.9	3.8	8.47e-01	0	44	104	37748736	71	16001
2026-01-06 01:55:49.70	198.78	13.18	-50.4	-62.8	3.8	8.47e-01	0	44	104	37748736	71	15923
2026-01-06 01:55:50.99	198.78	13.05	-50.4	-62.8	3.8	8.48e-01	0	44	104	37748736	71	15871
2026-01-06 01:55:51.71	198.79	12.98	-50.4	-62.9	3.8	8.48e-01	0	43	104	37748736	71	15964
2026-01-06 01:55:53.00	198.79	12.86	-50.4	-62.9	3.8	8.47e-01	0	43	104	37748736	71	16039
2026-01-06 01:55:53.72	198.80	12.79	-50.4	-62.9	3.8	8.47e-01	0	43	104	37748736	71	16004
2026-01-06 01:55:55.01	198.80	12.66	-50.4	-62.9	3.8	8.46e-01	0	44	104	37748736	71	16014
2026-01-06 01:55:55.73	198.80	12.59	-50.4	-62.9	3.8	8.46e-01	0	44	104	37748736	71	15986
2026-01-06 01:55:57.02	198.81	12.46	-50.4	-62.9	3.8	8.46e-01	0	44	104	37748736	71	16001
2026-01-06 01:55:57.73	198.81	12.40	-50.4	-62.9	3.8	8.46e-01	0	44	104	37748736	71	16109
2026-01-06 01:55:59.02	198.82	12.27	-50.4	-62.9	3.8	8.47e-01	0	44	104	37748736	71	15998
2026-01-06 01:55:59.74	198.82	12.20	-50.4	-62.9	3.8	8.46e-01	0	43	104	37748736	71	16042
2026-01-06 01:56:01.03	198.82	12.08	-50.4	-62.9	3.8	8.48e-01	0	44	104	37748736	71	16034
2026-01-06 01:56:01.75	198.83	12.01	-50.4	-62.9	3.8	8.48e-01	0	44	104	37748736	71	16000
2026-01-06 01:56:03.04	198.83	11.89	-50.4	-62.9	3.8	8.45e-01	0	44	104	37748736	71	16013
2026-01-06 01:56:03.76	198.83	11.82	-50.4	-62.9	3.8	8.46e-01	0	44	104	37748736	71	16032
2026-01-06 01:56:05.04	198.84	11.70	-50.4	-62.9	3.8	8.47e-01	0	44	104	37748736	71	16028
2026-01-06 01:56:05.76	198.84	11.63	-50.4	-62.9	3.8	8.47e-01	0	44	104	37748736	71	16022
2026-01-06 01:56:07.05	198.85	11.51	-50.4	-62.9	3.8	8.48e-01	0	44	104	37748736	71	16014
2026-01-06 01:56:07.77	198.85	11.45	-50.4	-62.9	3.8	8.46e-01	0	44	104	37748736	71	16066
2026-01-06 01:56:09.06	198.85	11.33	-50.4	-62.9	3.8	8.47e-01	0	44	104	37748736	71	16010
2026-01-06 01:56:09.78	198.86	11.26	-50.4	-62.9	3.8	8.47e-01	0	44	104	37748736	71	16030
2026-01-06 01:56:11.07	198.86	11.14	-50.4	-62.9	3.8	8.47e-01	0	44	104	37748736	71	16047
2026-01-06 01:56:11.78	198.87	11.08	-50.4	-62.9	3.8	8.47e-01	0	44	104	37748736	71	16035
2026-01-06 01:56:13.08	198.87	10.96	-50.4	-62.8	3.8	8.47e-01	0	44	104	37748736	71	15926
2026-01-06 01:56:13.79	198.87	10.89	-50.4	-62.9	3.8	8.47e-01	0	44	104	37748736	71	15948
2026-01-06 01:56:15.08	198.88	10.78	-50.4	-62.9	3.8	8.47e-01	0	44	104	37748736	71	16027
2026-01-06 01:56:15.80	198.88	10.71	-50.4	-62.9	3.8	8.46e-01	0	44	104	37748736	71	15962
2026-01-06 01:56:17.09	198.89	10.60	-50.4	-62.9	3.8	8.47e-01	0	44	104	37748736	71	16028
2026-01-06 01:56:17.81	198.89	10.53	-50.4	-62.9	3.8	8.47e-01	0	43	104	37748736	71	16032
2026-01-06 01:56:19.10	198.89	10.42	-50.4	-62.9	3.8	8.46e-01	0	43	104	37748736	71	16045
2026-01-06 01:56:19.81	198.90	10.35	-50.4	-62.9	3.8	8.47e-01	0	43	104	37748736	71	16043
2026-01-06 01:56:21.10	198.90	10.24	-50.4	-62.9	3.8	8.47e-01	0	44	104	37748736	71	16006
2026-01-06 01:56:21.82	198.90	10.18	-50.4	-62.9	3.8	8.48e-01	0	44	104	37748736	71	16084
2026-01-06 01:56:23.11	198.91	10.06	-50.4	-62.9	3.8	8.47e-01	0	44	104	37748736	71	16014
2026-01-06 01:56:23.83	198.91	10.00	-50.4	-62.9	3.8	8.47e-01	0	44	104	37748736	71	15972
2026-01-06 01:56:25.12	198.92	9.89	-50.4	-62.9	3.8	8.47e-01	0	44	104	37748736	71	16030
2026-01-06 01:56:25.84	198.92	9.82	-50.4	-62.9	3.8	8.48e-01	0	44	104	37748736	71	16006
2026-01-06 01:56:27.13	198.92	9.71	-50.4	-62.9	3.8	8.47e-01	0	44	104	37748736	71	16027
