passes_logs/2026/01/06/T1/T1__20260106_051133_FENGYUN_3E_rec.log

#Pass ID: 20260106_051133_FENGYUN 3E
#Satellite: FENGYUN 3E
#Configuration: FENGYUN 3E
#almurnet v.1.7.20251203
#Start time: 2026-01-06 05:11:34

#Version: 2.0.20230620
#Station: T1
#Location: 37.570604 lon 55.790049 lat
#TLE: 1 49008U 21062A   26005.56299987  .00000339  00000+0  18069-3 0  9991
#TLE: 2 49008  98.7472  10.8019 0001562 158.0357 202.0886 14.19884907233502

#Time	Az	El	Level	Level2	SNR	BER	BlckErr	Temp	State	Recorded	gain1	gain2
2026-01-06 05:11:34.33	8.94	5.06	-50.9	-61.9	3.8	8.47e-01	0	41	0	0	71	13377
2026-01-06 05:11:35.33	8.88	5.13	-50.8	-61.9	3.8	8.47e-01	0	41	104	0	72	12591
2026-01-06 05:11:36.33	8.82	5.20	-50.8	-61.9	3.8	8.48e-01	0	41	104	0	72	12652
2026-01-06 05:11:37.34	8.76	5.26	-50.8	-61.9	3.8	8.47e-01	0	41	104	0	72	12555
2026-01-06 05:11:38.34	8.70	5.33	-50.8	-61.8	3.8	8.47e-01	0	41	104	0	72	12516
2026-01-06 05:11:39.35	8.64	5.39	-50.8	-61.9	3.8	8.48e-01	0	41	104	0	72	12659
2026-01-06 05:11:40.35	8.58	5.46	-50.8	-61.9	3.8	8.47e-01	0	41	104	0	72	12595
2026-01-06 05:11:41.39	8.51	5.53	-50.8	-61.9	3.8	8.47e-01	0	41	104	0	72	12561
2026-01-06 05:11:42.45	8.45	5.60	-50.8	-61.9	3.8	8.47e-01	0	41	104	0	72	12546
2026-01-06 05:11:43.35	8.39	5.66	-50.8	-61.9	3.8	8.47e-01	0	41	104	0	72	12585
2026-01-06 05:11:44.40	8.33	5.73	-50.8	-61.9	3.8	8.46e-01	0	41	104	0	72	12522
2026-01-06 05:11:45.27	8.27	5.79	-50.8	-61.9	3.8	8.46e-01	0	41	104	0	72	12547
2026-01-06 05:11:46.42	8.20	5.87	-50.8	-61.8	3.8	8.46e-01	0	41	104	0	72	12476
2026-01-06 05:11:47.28	8.15	5.92	-50.8	-61.9	3.8	8.47e-01	0	41	104	0	72	12526
2026-01-06 05:11:48.43	8.07	6.00	-50.8	-61.9	3.8	8.47e-01	0	41	104	0	72	12535
2026-01-06 05:11:49.29	8.02	6.06	-50.8	-61.9	3.8	8.48e-01	0	41	104	0	72	12566
2026-01-06 05:11:50.43	7.95	6.14	-50.8	-61.9	3.8	8.47e-01	0	41	104	0	72	12568
2026-01-06 05:11:51.30	7.89	6.20	-50.8	-61.8	3.8	8.45e-01	0	42	104	0	72	12440
2026-01-06 05:11:52.44	7.82	6.27	-50.8	-61.9	3.8	8.46e-01	0	42	104	0	72	12547
2026-01-06 05:11:53.30	7.76	6.33	-50.8	-61.9	3.8	8.49e-01	0	42	104	0	72	12587
2026-01-06 05:11:54.45	7.68	6.41	-50.8	-61.9	3.8	8.47e-01	0	42	104	0	72	12644
2026-01-06 05:11:55.31	7.63	6.47	-50.8	-61.9	3.8	8.47e-01	0	42	104	0	72	12607
2026-01-06 05:11:56.46	7.55	6.55	-50.8	-61.9	3.8	8.47e-01	0	42	104	0	72	12523
2026-01-06 05:11:57.32	7.50	6.61	-50.8	-61.9	3.8	8.46e-01	0	42	104	0	72	12617
2026-01-06 05:11:58.66	7.41	6.70	-50.8	-61.9	3.8	8.47e-01	0	42	104	0	72	12551
2026-01-06 05:11:59.38	7.36	6.75	-50.8	-61.9	3.8	8.47e-01	0	42	104	0	72	12594
2026-01-06 05:12:00.88	7.26	6.85	-50.8	-61.9	3.8	8.47e-01	0	42	104	0	72	12545
2026-01-06 05:12:01.59	7.21	6.90	-50.8	-61.9	3.8	8.46e-01	0	42	104	0	72	12620
2026-01-06 05:12:02.88	7.12	6.99	-50.8	-61.9	3.8	8.47e-01	0	42	104	0	72	12542
2026-01-06 05:12:03.60	7.07	7.04	-50.8	-61.9	3.8	8.47e-01	0	42	104	0	72	12597
2026-01-06 05:12:05.02	6.97	7.14	-50.8	-61.8	3.8	8.47e-01	0	42	104	0	72	12518
2026-01-06 05:12:05.73	6.93	7.19	-50.8	-61.8	3.8	8.45e-01	0	42	104	0	72	12477
2026-01-06 05:12:07.03	6.83	7.28	-50.8	-61.9	3.8	8.47e-01	0	42	104	0	72	12558
2026-01-06 05:12:07.74	6.79	7.33	-50.8	-61.9	3.8	8.47e-01	0	42	104	0	72	12528
2026-01-06 05:12:09.04	6.69	7.42	-50.8	-61.8	3.8	8.47e-01	0	42	104	0	72	12500
2026-01-06 05:12:09.75	6.64	7.47	-50.8	-61.9	3.8	8.46e-01	0	42	104	0	72	12531
2026-01-06 05:12:11.04	6.55	7.56	-50.8	-61.9	3.8	8.47e-01	0	42	104	0	72	12581
2026-01-06 05:12:11.76	6.50	7.62	-50.8	-61.9	3.8	8.47e-01	0	42	104	0	72	12582
2026-01-06 05:12:13.05	6.41	7.71	-50.8	-61.9	3.8	8.46e-01	0	42	104	0	72	12654
2026-01-06 05:12:13.77	6.36	7.76	-50.8	-61.9	3.8	8.48e-01	0	42	104	0	72	12639
2026-01-06 05:12:15.06	6.26	7.85	-50.8	-61.9	3.8	8.46e-01	0	42	104	0	72	12604
2026-01-06 05:12:15.78	6.21	7.90	-50.8	-61.8	3.8	8.47e-01	0	42	104	0	72	12519
2026-01-06 05:12:17.07	6.12	7.99	-50.8	-61.9	3.8	8.46e-01	0	42	104	0	72	12571
2026-01-06 05:12:17.79	6.06	8.05	-50.8	-61.9	3.8	8.46e-01	0	42	104	0	72	12583
2026-01-06 05:12:19.08	5.97	8.14	-50.8	-61.9	3.8	8.47e-01	0	42	104	0	72	12614
2026-01-06 05:12:19.80	5.91	8.19	-50.8	-61.9	3.8	8.48e-01	0	42	104	0	72	12607
2026-01-06 05:12:21.09	5.82	8.28	-50.8	-61.9	3.8	8.48e-01	0	42	104	0	72	12560
2026-01-06 05:12:21.81	5.76	8.34	-50.8	-61.9	3.8	8.47e-01	0	42	104	0	72	12655
2026-01-06 05:12:23.10	5.67	8.43	-50.8	-61.9	3.8	8.47e-01	0	42	104	0	72	12553
2026-01-06 05:12:23.81	5.61	8.48	-50.8	-61.9	3.8	8.47e-01	0	42	104	0	72	12642
2026-01-06 05:12:25.11	5.51	8.58	-50.8	-61.9	3.8	8.46e-01	0	42	104	0	72	12617
2026-01-06 05:12:25.82	5.46	8.63	-50.8	-61.9	3.8	8.47e-01	0	43	104	0	72	12571
2026-01-06 05:12:27.11	5.36	8.72	-50.8	-61.9	3.8	8.47e-01	0	42	104	0	72	12637
2026-01-06 05:12:27.83	5.30	8.77	-50.8	-61.9	3.8	8.47e-01	0	43	104	0	72	12586
2026-01-06 05:12:29.12	5.20	8.87	-50.8	-61.8	3.8	8.47e-01	0	43	104	0	72	12512
2026-01-06 05:12:29.84	5.15	8.92	-50.8	-61.9	3.8	8.47e-01	0	43	104	0	72	12561
2026-01-06 05:12:31.13	5.05	9.02	-50.8	-61.9	3.8	8.46e-01	0	43	104	0	72	12640
2026-01-06 05:12:31.85	4.99	9.07	-50.8	-61.9	3.8	8.47e-01	0	43	104	0	72	12550
2026-01-06 05:12:33.14	4.89	9.17	-50.8	-61.9	3.8	8.46e-01	0	42	104	0	72	12581
2026-01-06 05:12:33.86	4.83	9.22	-50.8	-61.9	3.8	8.46e-01	0	43	104	0	72	12582
2026-01-06 05:12:35.15	4.72	9.32	-50.8	-61.9	3.8	8.47e-01	0	43	104	0	72	12525
2026-01-06 05:12:35.86	4.67	9.37	-50.8	-61.9	3.8	8.45e-01	0	43	104	0	72	12619
2026-01-06 05:12:37.16	4.56	9.47	-50.8	-61.9	3.8	8.48e-01	0	43	104	0	72	12568
2026-01-06 05:12:37.87	4.50	9.52	-50.8	-61.9	3.8	8.47e-01	0	43	104	0	72	12544
2026-01-06 05:12:39.16	4.40	9.62	-50.8	-61.9	3.8	8.49e-01	0	43	104	0	72	12572
2026-01-06 05:12:39.88	4.34	9.67	-50.8	-61.9	3.8	8.46e-01	0	43	104	0	72	12645
2026-01-06 05:12:41.17	4.23	9.77	-50.8	-61.9	3.8	8.47e-01	0	43	104	0	72	12587
2026-01-06 05:12:41.89	4.17	9.82	-50.8	-61.9	3.8	8.47e-01	0	43	104	0	72	12619
2026-01-06 05:12:43.18	4.06	9.92	-50.8	-61.8	3.8	8.47e-01	0	43	104	0	72	12501
2026-01-06 05:12:43.90	4.00	9.98	-50.8	-61.9	3.8	8.47e-01	0	43	104	0	72	12579
2026-01-06 05:12:45.19	3.89	10.07	-50.8	-61.9	3.8	8.46e-01	0	43	104	0	72	12609
2026-01-06 05:12:46.07	3.82	10.14	-50.8	-61.9	3.8	8.46e-01	0	43	104	0	72	12596
2026-01-06 05:12:47.21	3.72	10.23	-50.8	-61.9	3.8	8.46e-01	0	43	104	0	72	12554
2026-01-06 05:12:48.32	3.62	10.31	-50.8	-61.9	3.8	8.47e-01	0	43	104	0	72	12574
2026-01-06 05:12:49.35	3.53	10.39	-50.8	-61.9	3.8	8.48e-01	0	43	104	0	72	12522
2026-01-06 05:12:50.53	3.43	10.49	-50.8	-61.9	3.8	8.47e-01	0	43	104	0	72	12655
2026-01-06 05:12:51.42	3.35	10.55	-50.8	-61.8	3.8	8.48e-01	0	43	104	0	72	12505
2026-01-06 05:12:52.62	3.24	10.65	-50.8	-61.9	3.8	8.47e-01	0	43	104	0	72	12557
2026-01-06 05:12:53.49	3.17	10.71	-50.8	-61.9	3.8	8.47e-01	0	43	104	0	72	12662
2026-01-06 05:12:54.81	3.05	10.82	-50.8	-61.9	3.8	8.48e-01	0	43	104	0	72	12566
2026-01-06 05:12:55.53	2.98	10.87	-50.8	-61.9	3.8	8.46e-01	0	43	104	0	72	12586
2026-01-06 05:12:56.82	2.87	10.97	-50.8	-61.9	3.8	8.47e-01	0	43	104	0	72	12521
2026-01-06 05:12:57.54	2.80	11.03	-50.8	-61.8	3.8	8.47e-01	0	43	104	0	72	12505
2026-01-06 05:12:58.83	2.68	11.13	-50.8	-62.0	3.8	8.48e-01	0	43	104	0	72	12701
2026-01-06 05:12:59.55	2.62	11.19	-50.8	-61.8	3.8	8.47e-01	0	43	104	0	72	12487
2026-01-06 05:13:00.84	2.50	11.29	-50.8	-61.9	3.8	8.46e-01	0	43	104	0	72	12590
2026-01-06 05:13:01.56	2.43	11.35	-50.8	-61.9	3.8	8.47e-01	0	43	104	0	72	12548
2026-01-06 05:13:02.85	2.31	11.45	-50.8	-61.9	3.8	8.46e-01	0	43	104	0	72	12558
2026-01-06 05:13:03.56	2.24	11.51	-50.8	-61.9	3.8	8.46e-01	0	43	104	0	72	12552
2026-01-06 05:13:04.85	2.12	11.61	-50.8	-61.9	3.8	8.47e-01	0	43	104	0	72	12552
2026-01-06 05:13:05.57	2.05	11.67	-50.8	-61.9	3.8	8.47e-01	0	43	104	0	72	12564
2026-01-06 05:13:06.86	1.93	11.77	-50.8	-61.9	3.8	8.47e-01	0	43	104	0	72	12621
2026-01-06 05:13:07.58	1.86	11.83	-50.8	-61.9	3.8	8.46e-01	0	43	104	0	72	12616
2026-01-06 05:13:08.87	1.73	11.93	-50.8	-61.9	3.8	8.47e-01	0	43	104	0	72	12591
2026-01-06 05:13:09.59	1.66	11.99	-50.8	-61.9	3.8	8.46e-01	0	43	104	0	72	12559
2026-01-06 05:13:10.88	1.54	12.09	-50.8	-61.9	3.8	8.47e-01	0	43	104	0	72	12579
2026-01-06 05:13:11.60	1.46	12.15	-50.8	-61.9	3.8	8.45e-01	0	43	104	0	72	12571
2026-01-06 05:13:12.89	1.34	12.26	-50.8	-61.9	3.8	8.47e-01	0	43	104	0	72	12648
2026-01-06 05:13:13.61	1.27	12.32	-50.8	-61.9	3.8	8.47e-01	0	43	104	0	72	12590
2026-01-06 05:13:14.90	1.14	12.42	-50.8	-61.9	3.8	8.46e-01	0	43	104	0	72	12600
2026-01-06 05:13:15.62	1.06	12.48	-50.8	-61.9	3.8	8.47e-01	0	43	104	0	72	12553
2026-01-06 05:13:16.91	0.93	12.59	-50.8	-61.9	3.8	8.46e-01	0	43	104	0	72	12596
2026-01-06 05:13:17.62	0.86	12.64	-50.8	-61.9	3.8	8.46e-01	0	43	104	0	72	12573
2026-01-06 05:13:18.91	0.73	12.75	-50.8	-61.9	3.8	8.48e-01	0	43	104	0	72	12547
2026-01-06 05:13:19.63	0.65	12.81	-50.8	-61.8	3.8	8.46e-01	0	43	104	0	72	12511
2026-01-06 05:13:20.92	0.52	12.92	-50.8	-61.9	3.8	8.47e-01	0	43	104	0	72	12647
2026-01-06 05:13:21.64	0.44	12.98	-50.8	-61.9	3.8	8.48e-01	0	43	104	0	72	12575
2026-01-06 05:13:22.93	0.31	13.08	-50.8	-61.9	3.8	8.47e-01	0	43	104	0	72	12644
2026-01-06 05:13:23.66	0.23	13.14	-50.8	-61.9	3.8	8.47e-01	0	43	104	0	72	12558
2026-01-06 05:13:24.95	0.09	13.25	-50.8	-61.9	3.8	8.48e-01	0	43	104	0	72	12616
2026-01-06 05:13:25.67	0.02	13.31	-50.8	-61.9	3.8	8.47e-01	0	43	104	0	72	12619
2026-01-06 05:13:26.96	359.88	13.42	-50.8	-61.9	3.8	8.46e-01	0	43	104	0	72	12589
2026-01-06 05:13:27.68	359.80	13.48	-50.8	-61.9	3.8	8.47e-01	0	43	104	0	72	12565
2026-01-06 05:13:28.97	359.66	13.59	-50.8	-61.9	3.8	8.47e-01	0	43	104	0	72	12579
2026-01-06 05:13:29.69	359.58	13.65	-50.8	-61.9	3.8	8.47e-01	0	43	104	0	72	12617
2026-01-06 05:13:30.98	359.44	13.76	-50.8	-61.9	3.8	8.46e-01	0	43	104	0	72	12552
2026-01-06 05:13:31.70	359.36	13.82	-50.8	-61.9	3.8	8.46e-01	0	43	104	0	72	12646
2026-01-06 05:13:32.99	359.21	13.93	-50.8	-61.9	3.8	8.46e-01	0	43	104	0	72	12634
2026-01-06 05:13:33.70	359.13	13.99	-50.8	-61.9	3.8	8.46e-01	0	43	104	0	72	12637
2026-01-06 05:13:35.00	358.99	14.10	-50.8	-61.9	3.8	8.46e-01	0	43	104	0	72	12546
2026-01-06 05:13:35.71	358.91	14.16	-50.8	-61.9	3.8	8.47e-01	0	43	104	0	72	12656
2026-01-06 05:13:37.00	358.76	14.27	-50.8	-61.9	3.8	8.47e-01	0	43	104	0	72	12583
2026-01-06 05:13:37.72	358.68	14.33	-50.8	-61.9	3.8	8.47e-01	0	43	104	0	72	12633
2026-01-06 05:13:39.01	358.53	14.45	-50.8	-61.9	3.8	8.45e-01	0	43	104	0	72	12611
2026-01-06 05:13:39.73	358.44	14.51	-50.8	-61.9	3.8	8.48e-01	0	43	104	0	72	12627
2026-01-06 05:13:41.02	358.29	14.62	-50.8	-61.9	3.8	8.47e-01	0	43	104	0	72	12609
2026-01-06 05:13:41.74	358.21	14.68	-50.8	-61.9	3.8	8.47e-01	0	43	104	0	72	12618
2026-01-06 05:13:43.03	358.06	14.79	-50.8	-61.9	3.8	8.47e-01	0	43	104	0	72	12555
2026-01-06 05:13:43.75	357.97	14.86	-50.8	-61.9	3.8	8.48e-01	0	43	104	0	72	12607
2026-01-06 05:13:45.04	357.82	14.97	-50.8	-61.9	3.8	8.47e-01	0	43	104	0	72	12598
2026-01-06 05:13:45.76	357.73	15.03	-50.8	-61.9	3.8	8.47e-01	0	43	104	0	72	12633
2026-01-06 05:13:47.05	357.57	15.14	-50.8	-62.0	3.8	8.46e-01	0	43	104	0	72	12668
2026-01-06 05:13:47.76	357.49	15.21	-50.8	-62.0	3.8	8.47e-01	0	43	104	0	72	12712
2026-01-06 05:13:49.06	357.33	15.32	-50.8	-61.9	3.8	8.47e-01	0	43	104	0	72	12650
2026-01-06 05:13:49.78	357.24	15.38	-50.8	-61.9	3.8	8.46e-01	0	43	104	0	72	12625
2026-01-06 05:13:51.07	357.08	15.50	-50.8	-61.9	3.8	8.47e-01	0	43	104	0	72	12586
2026-01-06 05:13:51.78	356.99	15.56	-50.8	-61.9	3.8	8.47e-01	0	43	104	0	72	12563
2026-01-06 05:13:53.08	356.82	15.68	-50.8	-61.9	3.8	8.46e-01	0	43	104	0	72	12556
2026-01-06 05:13:53.79	356.73	15.74	-50.8	-62.0	3.8	8.46e-01	0	44	104	0	72	12769
2026-01-06 05:13:55.08	356.57	15.85	-50.8	-61.9	3.8	8.48e-01	0	43	104	0	72	12662
2026-01-06 05:13:55.80	356.48	15.92	-50.8	-61.9	3.8	8.46e-01	0	43	104	0	72	12529
2026-01-06 05:13:57.09	356.31	16.03	-50.8	-61.9	3.8	8.47e-01	0	44	104	0	72	12603
2026-01-06 05:13:57.81	356.22	16.10	-50.8	-61.9	3.8	8.47e-01	0	43	104	0	72	12622
2026-01-06 05:13:59.10	356.05	16.21	-50.8	-61.9	3.8	8.47e-01	0	43	104	0	72	12660
2026-01-06 05:13:59.82	355.95	16.28	-50.8	-61.9	3.8	8.47e-01	0	44	104	0	72	12579
2026-01-06 05:14:01.11	355.78	16.39	-50.8	-61.9	3.8	8.48e-01	0	43	104	0	72	12589
2026-01-06 05:14:01.83	355.69	16.46	-50.9	-62.0	3.8	8.46e-01	0	43	104	0	72	12728
2026-01-06 05:14:03.12	355.52	16.58	-50.9	-61.9	3.8	8.46e-01	0	43	104	0	72	12652
2026-01-06 05:14:03.83	355.42	16.64	-50.8	-62.0	3.8	8.46e-01	0	44	104	0	72	12705
2026-01-06 05:14:05.13	355.24	16.76	-50.8	-61.9	3.8	8.47e-01	0	43	104	0	72	12610
2026-01-06 05:14:05.84	355.15	16.82	-50.9	-61.9	3.8	8.48e-01	0	43	104	0	72	12622
2026-01-06 05:14:07.13	354.97	16.94	-50.8	-61.9	3.8	8.47e-01	0	43	104	0	72	12640
2026-01-06 05:14:07.85	354.87	17.01	-50.8	-61.9	3.8	8.47e-01	0	44	104	0	72	12605
2026-01-06 05:14:09.14	354.69	17.12	-50.9	-62.0	3.8	8.46e-01	0	44	104	0	72	12678
2026-01-06 05:14:09.86	354.59	17.19	-50.8	-61.9	3.8	8.47e-01	0	43	104	0	72	12636
2026-01-06 05:14:11.15	354.41	17.31	-50.8	-61.9	3.8	8.48e-01	0	44	104	0	72	12656
2026-01-06 05:14:11.87	354.31	17.38	-50.8	-61.9	3.8	8.48e-01	0	43	104	0	72	12628
2026-01-06 05:14:13.16	354.12	17.49	-50.8	-61.9	3.8	8.46e-01	0	43	104	0	72	12652
2026-01-06 05:14:13.88	354.02	17.56	-50.9	-62.0	3.8	8.47e-01	0	44	104	0	72	12678
2026-01-06 05:14:15.17	353.83	17.68	-50.8	-61.9	3.8	8.46e-01	0	44	104	0	72	12600
2026-01-06 05:14:15.89	353.73	17.75	-50.8	-61.9	3.8	8.46e-01	0	44	104	0	72	12584
2026-01-06 05:14:17.18	353.54	17.87	-50.8	-61.9	3.8	8.47e-01	0	43	104	0	72	12639
2026-01-06 05:14:17.89	353.44	17.93	-50.8	-61.9	3.8	8.46e-01	0	43	104	0	72	12563
2026-01-06 05:14:19.19	353.24	18.05	-50.8	-62.0	3.8	8.47e-01	0	44	104	0	72	12676
2026-01-06 05:14:19.90	353.14	18.12	-50.9	-62.0	3.8	8.47e-01	0	44	104	0	72	12674
2026-01-06 05:14:21.19	352.95	18.24	-50.8	-61.9	3.8	8.47e-01	0	44	104	0	72	12617
2026-01-06 05:14:21.91	352.84	18.31	-50.9	-61.9	3.8	8.48e-01	0	44	104	0	72	12655
2026-01-06 05:14:23.20	352.64	18.43	-50.8	-61.9	3.8	8.46e-01	0	43	104	0	72	12613
2026-01-06 05:14:23.92	352.53	18.50	-50.8	-62.0	3.8	8.47e-01	0	44	104	0	72	12718
2026-01-06 05:14:25.21	352.33	18.62	-50.8	-61.9	3.8	8.47e-01	0	43	104	0	72	12614
2026-01-06 05:14:25.93	352.22	18.68	-50.8	-62.0	3.8	8.46e-01	0	43	104	0	72	12709
2026-01-06 05:14:27.22	352.02	18.81	-50.9	-61.9	3.8	8.46e-01	0	43	104	0	72	12632
2026-01-06 05:14:27.94	351.91	18.87	-50.9	-61.9	3.8	8.46e-01	0	44	104	0	72	12625
2026-01-06 05:14:29.23	351.70	19.00	-50.8	-61.9	3.8	8.47e-01	0	43	104	0	72	12586
2026-01-06 05:14:30.11	351.57	19.08	-50.8	-61.9	3.8	8.46e-01	0	43	104	0	72	12584
2026-01-06 05:14:31.26	351.38	19.19	-50.9	-61.9	3.8	8.46e-01	0	43	104	0	72	12559
2026-01-06 05:14:32.31	351.21	19.29	-50.9	-61.9	3.8	8.46e-01	0	43	104	0	72	12621
2026-01-06 05:14:33.39	351.04	19.39	-50.9	-61.9	3.8	8.47e-01	0	44	104	0	72	12645
2026-01-06 05:14:34.41	350.87	19.49	-50.9	-61.9	3.8	8.46e-01	0	43	104	0	72	12663
2026-01-06 05:14:35.57	350.68	19.60	-50.8	-61.9	3.8	8.47e-01	0	43	104	0	72	12612
2026-01-06 05:14:36.48	350.53	19.69	-50.8	-61.9	3.8	8.47e-01	0	44	104	0	72	12580
2026-01-06 05:14:37.50	350.36	19.78	-50.9	-61.9	3.8	8.46e-01	0	43	104	0	72	12596
2026-01-06 05:14:38.51	350.19	19.88	-50.8	-61.9	3.8	8.47e-01	0	43	104	0	72	12600
2026-01-06 05:14:39.51	350.02	19.98	-50.8	-62.0	3.8	8.47e-01	0	44	104	0	72	12669
2026-01-06 05:14:40.51	349.85	20.07	-50.8	-61.9	3.8	8.47e-01	0	43	104	0	72	12624
2026-01-06 05:14:41.52	349.68	20.17	-50.9	-62.0	3.8	8.47e-01	0	44	104	0	72	12704
2026-01-06 05:14:42.52	349.51	20.26	-50.8	-62.0	3.8	8.47e-01	0	44	104	0	72	12703
2026-01-06 05:14:43.53	349.34	20.36	-50.8	-61.9	3.8	8.48e-01	0	44	104	0	72	12603
2026-01-06 05:14:44.53	349.16	20.46	-50.8	-61.9	3.8	8.47e-01	0	43	104	0	72	12645
2026-01-06 05:14:45.53	348.99	20.55	-50.8	-61.9	3.8	8.47e-01	0	43	104	0	72	12597
2026-01-06 05:14:46.54	348.81	20.65	-50.8	-62.0	3.8	8.47e-01	0	43	104	0	72	12722
2026-01-06 05:14:47.54	348.63	20.75	-50.8	-61.9	3.8	8.46e-01	0	44	104	0	72	12644
2026-01-06 05:14:48.63	348.44	20.85	-50.8	-61.9	3.8	8.46e-01	0	43	104	0	72	12633
2026-01-06 05:14:49.49	348.28	20.94	-50.8	-62.0	3.8	8.46e-01	0	44	104	0	72	12683
2026-01-06 05:14:50.63	348.08	21.05	-50.8	-61.9	3.8	8.47e-01	0	43	104	0	72	12599
2026-01-06 05:14:51.49	347.92	21.13	-50.8	-61.9	3.8	8.46e-01	0	44	104	0	72	12606
2026-01-06 05:14:52.64	347.71	21.24	-50.8	-61.9	3.8	8.46e-01	0	43	104	0	72	12649
2026-01-06 05:14:53.50	347.55	21.33	-50.8	-61.9	3.8	8.47e-01	0	44	104	0	72	12650
2026-01-06 05:14:54.65	347.34	21.44	-50.8	-61.9	3.8	8.47e-01	0	44	104	0	72	12634
2026-01-06 05:14:55.51	347.18	21.52	-50.8	-61.9	3.8	8.45e-01	0	44	104	0	72	12574
2026-01-06 05:14:56.66	346.96	21.63	-50.8	-61.9	3.8	8.46e-01	0	44	104	0	72	12616
2026-01-06 05:14:57.52	346.80	21.72	-50.8	-61.9	3.8	8.47e-01	0	44	104	0	72	12592
2026-01-06 05:14:58.67	346.58	21.83	-50.8	-62.0	3.8	8.46e-01	0	44	104	0	72	12699
2026-01-06 05:14:59.53	346.41	21.91	-50.8	-61.9	3.8	8.47e-01	0	43	104	0	72	12559
2026-01-06 05:15:00.68	346.19	22.02	-50.8	-61.9	3.8	8.48e-01	0	43	104	0	72	12584
2026-01-06 05:15:01.54	346.03	22.11	-50.8	-61.9	3.8	8.47e-01	0	44	104	0	72	12590
2026-01-06 05:15:02.69	345.80	22.22	-50.8	-61.9	3.8	8.48e-01	0	44	104	0	72	12589
2026-01-06 05:15:03.55	345.63	22.30	-50.8	-62.0	3.8	8.46e-01	0	44	104	0	72	12675
2026-01-06 05:15:04.70	345.40	22.41	-50.8	-61.9	3.8	8.47e-01	0	44	104	0	72	12607
2026-01-06 05:15:05.55	345.24	22.50	-50.8	-61.9	3.8	8.46e-01	0	43	104	0	72	12644
2026-01-06 05:15:06.70	345.00	22.61	-50.8	-61.9	3.8	8.46e-01	0	44	104	0	72	12658
2026-01-06 05:15:07.56	344.83	22.69	-50.8	-61.9	3.8	8.48e-01	0	44	104	0	72	12614
2026-01-06 05:15:08.71	344.60	22.80	-50.8	-61.9	3.8	8.47e-01	0	44	104	0	72	12658
2026-01-06 05:15:09.57	344.42	22.89	-50.8	-61.9	3.8	8.46e-01	0	44	104	0	72	12616
2026-01-06 05:15:10.72	344.19	23.00	-50.8	-61.9	3.8	8.47e-01	0	44	104	0	72	12618
2026-01-06 05:15:11.58	344.01	23.08	-50.8	-61.9	3.8	8.46e-01	0	44	104	0	72	12619
2026-01-06 05:15:12.73	343.77	23.20	-50.8	-61.9	3.8	8.47e-01	0	44	104	0	72	12625
2026-01-06 05:15:13.59	343.59	23.28	-50.8	-61.9	3.8	8.47e-01	0	44	104	0	72	12603
2026-01-06 05:15:14.73	343.35	23.39	-50.8	-61.9	3.8	8.46e-01	0	43	104	0	72	12659
2026-01-06 05:15:15.59	343.17	23.47	-50.8	-61.9	3.8	8.47e-01	0	44	104	0	72	12557
2026-01-06 05:15:16.74	342.92	23.58	-50.8	-61.9	3.8	8.47e-01	0	44	104	0	72	12662
2026-01-06 05:15:17.60	342.74	23.67	-50.8	-61.9	3.8	8.46e-01	0	44	104	0	72	12565
2026-01-06 05:15:18.75	342.49	23.78	-50.8	-61.9	3.8	8.45e-01	0	44	104	0	72	12664
2026-01-06 05:15:19.61	342.30	23.86	-50.8	-61.9	3.8	8.47e-01	0	44	104	0	72	12617
2026-01-06 05:15:20.76	342.05	23.97	-50.8	-61.9	3.8	8.46e-01	0	43	104	0	72	12631
2026-01-06 05:15:21.62	341.86	24.06	-50.8	-61.9	3.8	8.48e-01	0	44	104	0	72	12647
2026-01-06 05:15:22.77	341.60	24.17	-50.8	-61.9	3.8	8.46e-01	0	44	104	0	72	12610
2026-01-06 05:15:23.63	341.41	24.25	-50.8	-61.9	3.8	8.49e-01	0	44	104	0	72	12649
2026-01-06 05:15:24.78	341.15	24.36	-50.8	-61.9	3.8	8.48e-01	0	43	104	0	72	12601
2026-01-06 05:15:25.64	340.96	24.44	-50.8	-61.9	3.8	8.46e-01	0	44	104	0	72	12642
2026-01-06 05:15:26.78	340.70	24.55	-50.8	-61.9	3.8	8.46e-01	0	44	104	0	72	12575
2026-01-06 05:15:27.65	340.50	24.64	-50.8	-61.9	3.8	8.47e-01	0	44	104	0	72	12609
2026-01-06 05:15:28.80	340.24	24.75	-50.8	-61.9	3.8	8.47e-01	0	43	104	0	72	12611
2026-01-06 05:15:29.66	340.04	24.83	-50.8	-61.9	3.8	8.47e-01	0	43	104	0	72	12526
2026-01-06 05:15:30.80	339.77	24.94	-50.8	-61.9	3.8	8.48e-01	0	44	104	0	72	12600
2026-01-06 05:15:31.66	339.57	25.02	-50.8	-61.9	3.8	8.47e-01	0	43	104	0	72	12623
2026-01-06 05:15:32.81	339.30	25.13	-50.8	-61.9	3.8	8.46e-01	0	44	104	0	72	12584
2026-01-06 05:15:33.67	339.10	25.21	-50.8	-61.9	3.8	8.46e-01	0	44	104	0	72	12594
2026-01-06 05:15:34.82	338.82	25.32	-50.8	-61.9	3.8	8.47e-01	0	44	104	0	72	12602
2026-01-06 05:15:35.68	338.61	25.40	-50.8	-61.9	3.8	8.47e-01	0	43	104	0	72	12576
2026-01-06 05:15:36.83	338.34	25.51	-50.8	-61.9	3.8	8.46e-01	0	44	104	0	72	12548
2026-01-06 05:15:37.69	338.13	25.59	-50.8	-62.0	3.8	8.47e-01	0	44	104	0	72	12671
2026-01-06 05:15:38.84	337.85	25.70	-50.8	-61.9	3.8	8.47e-01	0	44	104	0	72	12542
2026-01-06 05:15:39.70	337.63	25.78	-50.8	-61.9	3.8	8.48e-01	0	43	104	0	72	12593
2026-01-06 05:15:40.85	337.35	25.88	-50.8	-61.8	3.8	8.46e-01	0	44	104	0	72	12515
2026-01-06 05:15:41.71	337.14	25.96	-50.8	-62.0	3.8	8.46e-01	0	43	104	0	72	12678
2026-01-06 05:15:42.85	336.85	26.07	-50.8	-61.9	3.8	8.47e-01	0	43	104	0	72	12622
2026-01-06 05:15:43.71	336.63	26.15	-50.8	-61.9	3.8	8.47e-01	0	43	104	0	72	12579
2026-01-06 05:15:44.86	336.34	26.25	-50.8	-61.9	3.8	8.46e-01	0	44	104	0	72	12622
2026-01-06 05:15:45.72	336.12	26.33	-50.8	-61.9	3.8	8.47e-01	0	44	104	0	72	12646
2026-01-06 05:15:46.87	335.83	26.44	-50.8	-61.9	3.8	8.47e-01	0	44	104	0	72	12631
2026-01-06 05:15:47.73	335.61	26.52	-50.8	-61.9	3.8	8.47e-01	0	43	104	0	72	12612
2026-01-06 05:15:48.88	335.31	26.62	-50.8	-61.8	3.8	8.47e-01	0	44	104	0	72	12519
2026-01-06 05:15:49.74	335.08	26.70	-50.8	-61.9	3.8	8.47e-01	0	44	104	0	72	12641
2026-01-06 05:15:50.89	334.78	26.80	-50.8	-61.9	3.8	8.47e-01	0	44	104	0	72	12620
2026-01-06 05:15:51.75	334.55	26.88	-50.8	-61.9	3.8	8.47e-01	0	44	104	0	72	12635
2026-01-06 05:15:52.90	334.25	26.98	-50.8	-61.9	3.8	8.48e-01	0	44	104	0	72	12604
2026-01-06 05:15:53.76	334.02	27.06	-50.8	-61.9	3.8	8.48e-01	0	44	104	0	72	12561
2026-01-06 05:15:54.91	333.71	27.16	-50.8	-61.9	3.8	8.47e-01	0	44	104	0	72	12598
2026-01-06 05:15:55.77	333.48	27.23	-50.8	-61.9	3.8	8.47e-01	0	44	104	0	72	12619
2026-01-06 05:15:56.91	333.17	27.33	-50.8	-61.9	3.8	8.47e-01	0	44	104	0	72	12566
2026-01-06 05:15:57.78	332.93	27.41	-50.8	-61.9	3.8	8.47e-01	0	44	104	0	72	12613
2026-01-06 05:15:58.92	332.62	27.51	-50.8	-61.9	3.8	8.47e-01	0	44	104	0	72	12629
2026-01-06 05:15:59.78	332.38	27.58	-50.8	-61.9	3.8	8.46e-01	0	44	104	0	72	12654
2026-01-06 05:16:00.93	332.06	27.68	-50.8	-61.9	3.8	8.46e-01	0	44	104	0	72	12526
2026-01-06 05:16:01.79	331.82	27.76	-50.8	-61.9	3.8	8.47e-01	0	44	104	0	72	12632
2026-01-06 05:16:02.94	331.50	27.85	-50.8	-61.9	3.8	8.47e-01	0	44	104	0	72	12572
2026-01-06 05:16:03.80	331.25	27.93	-50.8	-61.9	3.8	8.47e-01	0	44	104	0	72	12603
2026-01-06 05:16:04.95	330.93	28.02	-50.8	-61.9	3.8	8.46e-01	0	43	104	0	72	12604
2026-01-06 05:16:05.81	330.68	28.09	-50.8	-61.9	3.8	8.47e-01	0	44	104	0	72	12595
2026-01-06 05:16:06.96	330.35	28.19	-50.8	-61.9	3.8	8.47e-01	0	44	104	0	72	12551
2026-01-06 05:16:07.82	330.11	28.26	-50.8	-61.9	3.8	8.47e-01	0	44	104	0	72	12664
2026-01-06 05:16:08.97	329.77	28.35	-50.8	-61.9	3.8	8.48e-01	0	44	104	0	72	12635
2026-01-06 05:16:09.83	329.52	28.42	-50.8	-61.9	3.8	8.47e-01	0	44	104	0	72	12577
2026-01-06 05:16:10.98	329.18	28.51	-50.8	-61.9	3.8	8.46e-01	0	44	104	0	72	12591
2026-01-06 05:16:11.84	328.93	28.58	-50.8	-61.9	3.8	8.47e-01	0	44	104	0	72	12578
2026-01-06 05:16:12.99	328.59	28.67	-50.8	-61.9	3.8	8.47e-01	0	44	104	0	72	12537
2026-01-06 05:16:13.85	328.34	28.74	-50.8	-61.8	3.8	8.47e-01	0	44	104	0	72	12517
2026-01-06 05:16:14.99	328.00	28.83	-50.8	-61.9	3.8	8.46e-01	0	44	104	0	72	12536
2026-01-06 05:16:15.86	327.73	28.90	-50.8	-61.9	3.8	8.47e-01	0	44	104	0	72	12546
2026-01-06 05:16:17.00	327.39	28.98	-50.8	-61.9	3.8	8.47e-01	0	43	104	0	72	12567
2026-01-06 05:16:17.86	327.13	29.05	-50.8	-61.9	3.8	8.47e-01	0	44	104	0	72	12577
2026-01-06 05:16:19.01	326.78	29.14	-50.8	-61.8	3.8	8.48e-01	0	44	104	0	72	12481
2026-01-06 05:16:19.87	326.52	29.20	-50.8	-61.9	3.8	8.47e-01	0	44	104	0	72	12573
2026-01-06 05:16:21.02	326.16	29.29	-50.8	-61.9	3.8	8.46e-01	0	44	104	0	72	12624
2026-01-06 05:16:21.88	325.90	29.35	-50.8	-61.9	3.8	8.47e-01	0	44	104	0	72	12623
2026-01-06 05:16:23.03	325.54	29.43	-50.8	-61.9	3.8	8.46e-01	0	44	104	0	72	12552
2026-01-06 05:16:23.89	325.27	29.49	-50.8	-61.9	3.8	8.47e-01	0	44	104	0	72	12664
2026-01-06 05:16:25.04	324.91	29.57	-50.8	-61.9	3.8	8.47e-01	0	44	104	0	72	12568
2026-01-06 05:16:25.90	324.64	29.63	-50.8	-61.9	3.8	8.46e-01	0	44	104	0	72	12549
2026-01-06 05:16:27.05	324.28	29.71	-50.8	-61.9	3.8	8.46e-01	0	44	104	0	72	12534
2026-01-06 05:16:27.91	324.01	29.77	-50.8	-61.9	3.8	8.47e-01	0	44	104	0	72	12598
2026-01-06 05:16:29.06	323.64	29.85	-50.8	-61.9	3.8	8.46e-01	0	44	104	0	72	12601
2026-01-06 05:16:29.92	323.36	29.91	-50.8	-61.9	3.8	8.47e-01	0	44	104	0	72	12567
2026-01-06 05:16:31.06	323.00	29.98	-50.8	-61.9	3.8	8.46e-01	0	44	104	0	72	12626
2026-01-06 05:16:31.93	322.72	30.04	-50.8	-61.9	3.8	8.47e-01	0	44	104	0	72	12579
2026-01-06 05:16:33.07	322.35	30.11	-50.8	-61.8	3.8	8.47e-01	0	44	104	0	72	12499
2026-01-06 05:16:33.94	322.07	30.17	-50.8	-61.9	3.8	8.47e-01	0	44	104	0	72	12601
2026-01-06 05:16:35.08	321.69	30.24	-50.8	-61.9	3.8	8.47e-01	0	44	104	0	72	12614
2026-01-06 05:16:35.94	321.41	30.29	-50.8	-61.9	3.8	8.47e-01	0	44	104	0	72	12557
2026-01-06 05:16:37.09	321.03	30.36	-50.8	-61.9	3.8	8.47e-01	0	44	104	0	72	12613
2026-01-06 05:16:37.95	320.75	30.41	-50.8	-61.9	3.8	8.48e-01	0	44	104	0	72	12612
2026-01-06 05:16:39.10	320.37	30.48	-50.8	-61.9	3.8	8.48e-01	0	44	104	0	72	12634
2026-01-06 05:16:39.96	320.08	30.53	-50.8	-61.9	3.8	8.46e-01	0	44	104	0	72	12585
2026-01-06 05:16:41.11	319.70	30.59	-50.8	-61.9	3.8	8.47e-01	0	43	104	0	72	12547
2026-01-06 05:16:41.97	319.41	30.64	-50.8	-61.9	3.8	8.45e-01	0	44	104	0	72	12590
2026-01-06 05:16:43.12	319.02	30.70	-50.8	-61.9	3.8	8.47e-01	0	44	104	0	72	12538
2026-01-06 05:16:43.98	318.73	30.75	-50.8	-61.9	3.8	8.47e-01	0	43	104	0	72	12556
2026-01-06 05:16:45.12	318.35	30.81	-50.8	-61.9	3.8	8.47e-01	0	44	104	0	72	12582
2026-01-06 05:16:45.98	318.05	30.85	-50.8	-61.9	3.8	8.47e-01	0	44	104	0	72	12538
2026-01-06 05:16:47.13	317.66	30.91	-50.8	-61.9	3.8	8.47e-01	0	43	104	0	72	12551
2026-01-06 05:16:47.97	317.38	30.95	-50.8	-61.9	3.8	8.47e-01	0	43	104	0	72	12581
2026-01-06 05:16:49.12	316.98	31.01	-50.8	-61.9	3.8	8.47e-01	0	44	104	0	72	12598
2026-01-06 05:16:49.98	316.69	31.05	-50.8	-61.9	3.8	8.47e-01	0	44	104	0	72	12570
2026-01-06 05:16:51.13	316.29	31.10	-50.8	-61.9	3.8	8.47e-01	0	43	104	0	72	12539
2026-01-06 05:16:52.21	315.91	31.15	-50.8	-61.9	3.8	8.47e-01	0	44	104	0	72	12534
2026-01-06 05:16:53.07	315.62	31.18	-50.8	-61.8	3.8	8.47e-01	0	43	104	0	72	12488
2026-01-06 05:16:54.22	315.22	31.23	-50.8	-61.9	3.8	8.47e-01	0	44	104	0	72	12620
2026-01-06 05:16:55.08	314.92	31.27	-50.8	-61.9	3.8	8.47e-01	0	44	104	0	72	12562
2026-01-06 05:16:56.23	314.51	31.32	-50.8	-61.9	3.8	8.47e-01	0	44	104	0	72	12612
2026-01-06 05:16:57.09	314.21	31.35	-50.8	-61.9	3.8	8.47e-01	0	44	104	0	72	12602
2026-01-06 05:16:58.24	313.81	31.39	-50.8	-61.9	3.8	8.47e-01	0	44	104	0	72	12545
2026-01-06 05:16:59.10	313.51	31.42	-50.8	-61.9	3.8	8.47e-01	0	44	104	0	72	12594
2026-01-06 05:17:00.24	313.10	31.46	-50.8	-61.8	3.8	8.48e-01	0	44	104	0	72	12474
2026-01-06 05:17:01.10	312.80	31.49	-50.8	-61.8	3.8	8.46e-01	0	44	104	0	72	12500
2026-01-06 05:17:02.25	312.39	31.53	-50.8	-61.9	3.8	8.47e-01	0	43	104	0	72	12618
2026-01-06 05:17:03.17	312.06	31.56	-50.8	-61.9	3.8	8.46e-01	0	44	104	0	72	12580
2026-01-06 05:17:04.18	311.71	31.59	-50.8	-61.8	3.8	8.48e-01	0	43	104	0	72	12454
2026-01-06 05:17:05.18	311.35	31.62	-50.8	-61.8	3.8	8.47e-01	0	43	104	0	72	12474
2026-01-06 05:17:06.19	310.99	31.65	-50.8	-61.8	3.8	8.46e-01	0	44	104	0	72	12508
2026-01-06 05:17:07.19	310.63	31.68	-50.8	-61.9	3.8	8.47e-01	0	44	104	0	72	12574
2026-01-06 05:17:08.20	310.27	31.70	-50.8	-61.9	3.8	8.47e-01	0	44	104	0	72	12593
2026-01-06 05:17:09.20	309.91	31.73	-50.8	-61.9	3.8	8.46e-01	0	44	104	0	72	12585
2026-01-06 05:17:10.20	309.55	31.75	-50.8	-61.9	3.8	8.45e-01	0	44	104	0	72	12601
2026-01-06 05:17:11.21	309.18	31.77	-50.8	-61.8	3.8	8.48e-01	0	44	104	0	72	12507
2026-01-06 05:17:12.21	308.82	31.80	-50.8	-61.9	3.8	8.48e-01	0	44	104	0	72	12582
2026-01-06 05:17:13.22	308.46	31.82	-50.8	-61.9	3.8	8.47e-01	0	44	104	0	72	12609
2026-01-06 05:17:14.22	308.10	31.83	-50.8	-61.9	3.8	8.47e-01	0	44	104	0	72	12528
2026-01-06 05:17:15.23	307.73	31.85	-50.8	-61.9	3.8	8.46e-01	0	44	104	0	72	12578
2026-01-06 05:17:16.23	307.37	31.87	-50.8	-61.9	3.8	8.48e-01	0	44	104	0	72	12635
2026-01-06 05:17:17.24	307.00	31.88	-50.8	-61.9	3.8	8.47e-01	0	44	104	0	72	12621
2026-01-06 05:17:18.24	306.64	31.89	-50.8	-61.8	3.8	8.47e-01	0	44	104	0	72	12511
2026-01-06 05:17:19.24	306.28	31.91	-50.8	-61.8	3.8	8.47e-01	0	44	104	0	72	12485
2026-01-06 05:17:20.25	305.91	31.92	-50.8	-61.8	3.8	8.47e-01	0	44	104	0	72	12503
2026-01-06 05:17:21.25	305.55	31.93	-50.8	-61.9	3.8	8.46e-01	0	44	104	0	72	12582
2026-01-06 05:17:22.26	305.18	31.93	-50.8	-61.9	3.8	8.46e-01	0	44	104	0	72	12542
2026-01-06 05:17:23.26	304.81	31.94	-50.8	-61.9	3.8	8.47e-01	0	44	104	0	72	12564
2026-01-06 05:17:24.26	304.45	31.95	-50.8	-61.9	3.8	8.46e-01	0	44	104	0	72	12598
2026-01-06 05:17:25.27	304.08	31.95	-50.8	-61.9	3.8	8.47e-01	0	44	104	0	72	12622
2026-01-06 05:17:26.27	303.72	31.95	-50.8	-61.9	3.8	8.48e-01	0	44	104	0	72	12577
2026-01-06 05:17:27.28	303.35	31.95	-50.8	-61.8	3.8	8.45e-01	0	44	104	0	72	12490
2026-01-06 05:17:28.28	302.98	31.95	-50.8	-61.9	3.8	8.45e-01	0	44	104	0	72	12621
2026-01-06 05:17:29.29	302.62	31.95	-50.8	-61.9	3.8	8.47e-01	0	44	104	0	72	12624
2026-01-06 05:17:30.34	302.23	31.95	-50.8	-61.9	3.8	8.47e-01	0	44	104	0	72	12585
2026-01-06 05:17:31.26	301.90	31.95	-50.8	-61.9	3.8	8.47e-01	0	44	104	0	72	12530
2026-01-06 05:17:32.43	301.47	31.94	-50.8	-61.9	3.8	8.46e-01	0	44	104	0	72	12632
2026-01-06 05:17:33.32	301.15	31.93	-50.8	-61.9	3.8	8.47e-01	0	44	104	0	72	12568
2026-01-06 05:17:34.64	300.67	31.92	-50.8	-61.8	3.8	8.47e-01	0	44	104	0	72	12486
2026-01-06 05:17:35.36	300.40	31.92	-50.8	-61.8	3.8	8.46e-01	0	44	104	0	72	12505
2026-01-06 05:17:36.85	299.86	31.90	-50.8	-61.9	3.8	8.47e-01	0	44	104	0	72	12554
2026-01-06 05:17:37.57	299.60	31.89	-50.8	-61.9	3.8	8.47e-01	0	44	104	0	72	12553
2026-01-06 05:17:38.92	299.11	31.87	-50.8	-61.9	3.8	8.48e-01	0	44	104	0	72	12551
2026-01-06 05:17:39.64	298.85	31.86	-50.8	-61.9	3.8	8.45e-01	0	44	104	0	72	12634
2026-01-06 05:17:40.93	298.38	31.84	-50.8	-61.9	3.8	8.47e-01	0	44	104	0	72	12660
2026-01-06 05:17:41.65	298.12	31.83	-50.8	-61.8	3.8	8.47e-01	0	44	104	0	72	12470
2026-01-06 05:17:42.94	297.65	31.80	-50.8	-61.9	3.8	8.48e-01	0	43	104	0	72	12580
2026-01-06 05:17:43.66	297.39	31.79	-50.8	-61.9	3.8	8.48e-01	0	44	104	0	72	12635
2026-01-06 05:17:44.95	296.93	31.76	-50.8	-61.9	3.8	8.46e-01	0	44	104	0	72	12595
2026-01-06 05:17:45.66	296.67	31.75	-50.8	-61.9	3.8	8.47e-01	0	44	104	0	72	12584
2026-01-06 05:17:46.96	296.21	31.71	-50.8	-61.9	3.8	8.46e-01	0	44	104	0	72	12540
2026-01-06 05:17:47.67	295.95	31.70	-50.8	-61.9	3.8	8.47e-01	0	44	104	0	72	12545
2026-01-06 05:17:48.96	295.49	31.66	-50.8	-61.9	3.8	8.48e-01	0	44	104	0	72	12565
2026-01-06 05:17:49.68	295.23	31.64	-50.8	-61.8	3.8	8.48e-01	0	44	104	0	72	12517
2026-01-06 05:17:50.97	294.77	31.61	-50.8	-61.9	3.8	8.47e-01	0	44	104	0	72	12532
2026-01-06 05:17:51.70	294.51	31.58	-50.8	-61.9	3.8	8.46e-01	0	44	104	0	72	12590
2026-01-06 05:17:53.01	294.04	31.54	-50.8	-61.9	3.8	8.47e-01	0	44	104	0	72	12599
2026-01-06 05:17:53.73	293.79	31.52	-50.8	-61.9	3.8	8.47e-01	0	44	104	0	72	12599
2026-01-06 05:17:55.02	293.33	31.48	-50.8	-61.9	3.8	8.47e-01	0	44	104	0	72	12621
2026-01-06 05:17:55.73	293.08	31.45	-50.8	-61.9	3.8	8.46e-01	0	44	104	0	72	12540
2026-01-06 05:17:57.03	292.62	31.40	-50.8	-61.9	3.8	8.48e-01	0	44	104	0	72	12609
2026-01-06 05:17:57.74	292.37	31.38	-50.8	-61.9	3.8	8.47e-01	0	44	104	0	72	12611
2026-01-06 05:17:59.04	291.91	31.33	-50.8	-61.9	3.8	8.46e-01	0	44	104	0	72	12568
2026-01-06 05:17:59.75	291.66	31.30	-50.8	-61.9	3.8	8.48e-01	0	44	104	0	72	12552
2026-01-06 05:18:01.04	291.21	31.25	-50.8	-61.9	3.8	8.48e-01	0	44	104	0	72	12605
2026-01-06 05:18:01.76	290.96	31.22	-50.8	-61.9	3.8	8.46e-01	0	44	104	0	72	12624
2026-01-06 05:18:03.05	290.51	31.16	-50.8	-61.9	3.8	8.47e-01	0	44	104	0	72	12551
2026-01-06 05:18:03.77	290.26	31.13	-50.8	-61.9	3.8	8.48e-01	0	44	104	0	72	12557
2026-01-06 05:18:05.06	289.81	31.07	-50.8	-61.9	3.8	8.47e-01	0	44	104	0	72	12560
2026-01-06 05:18:05.78	289.57	31.04	-50.8	-61.9	3.8	8.46e-01	0	44	104	0	72	12583
2026-01-06 05:18:07.07	289.12	30.97	-50.8	-61.9	3.8	8.47e-01	0	44	104	0	72	12581
2026-01-06 05:18:07.79	288.87	30.94	-50.8	-61.9	3.8	8.48e-01	0	44	104	0	72	12587
2026-01-06 05:18:09.08	288.43	30.87	-50.8	-61.9	3.8	8.46e-01	0	44	104	0	72	12584
2026-01-06 05:18:09.79	288.19	30.84	-50.8	-61.9	3.8	8.47e-01	0	44	104	0	72	12575
2026-01-06 05:18:11.09	287.75	30.77	-50.8	-61.9	3.8	8.46e-01	0	44	104	0	72	12538
2026-01-06 05:18:11.80	287.51	30.73	-50.8	-61.9	3.8	8.47e-01	0	44	104	0	72	12591
2026-01-06 05:18:13.09	287.07	30.66	-50.8	-61.9	3.8	8.47e-01	0	44	104	0	72	12572
2026-01-06 05:18:13.81	286.83	30.62	-50.8	-61.9	3.8	8.47e-01	0	44	104	0	72	12610
2026-01-06 05:18:15.10	286.40	30.55	-50.8	-61.9	3.8	8.47e-01	0	44	104	0	72	12596
2026-01-06 05:18:15.82	286.16	30.51	-50.8	-62.0	3.8	8.46e-01	0	44	104	0	72	12711
2026-01-06 05:18:17.11	285.73	30.44	-50.8	-61.9	3.8	8.47e-01	0	44	104	0	72	12552
2026-01-06 05:18:17.83	285.49	30.39	-50.8	-61.9	3.8	8.48e-01	0	44	104	0	72	12584
2026-01-06 05:18:19.12	285.06	30.32	-50.8	-62.0	3.8	8.48e-01	0	44	104	0	72	12701
2026-01-06 05:18:19.84	284.83	30.27	-50.8	-61.9	3.8	8.47e-01	0	44	104	0	72	12601
2026-01-06 05:18:21.13	284.40	30.19	-50.8	-61.9	3.8	8.46e-01	0	44	104	0	72	12633
2026-01-06 05:18:21.84	284.17	30.15	-50.8	-61.9	3.8	8.47e-01	0	44	104	0	72	12588
2026-01-06 05:18:23.15	283.74	30.06	-50.8	-61.9	3.8	8.47e-01	0	44	104	0	72	12608
2026-01-06 05:18:23.87	283.51	30.02	-50.8	-61.9	3.8	8.47e-01	0	44	104	0	72	12589
2026-01-06 05:18:25.16	283.09	29.93	-50.8	-61.9	3.8	8.46e-01	0	44	104	0	72	12569
2026-01-06 05:18:25.88	282.86	29.89	-50.8	-61.9	3.8	8.47e-01	0	44	104	0	72	12599
2026-01-06 05:18:27.17	282.45	29.80	-50.8	-61.9	3.8	8.45e-01	0	44	104	0	72	12610
2026-01-06 05:18:27.89	282.22	29.75	-50.8	-61.9	3.8	8.48e-01	0	44	104	0	72	12547
2026-01-06 05:18:29.18	281.81	29.66	-50.8	-61.9	3.8	8.46e-01	0	44	104	0	72	12569
2026-01-06 05:18:29.90	281.58	29.61	-50.8	-61.9	3.8	8.48e-01	0	44	104	0	72	12545
2026-01-06 05:18:31.19	281.18	29.52	-50.8	-61.9	3.8	8.47e-01	0	44	104	0	72	12614
2026-01-06 05:18:31.90	280.95	29.47	-50.8	-61.9	3.8	8.47e-01	0	44	104	0	72	12603
2026-01-06 05:18:33.20	280.55	29.38	-50.8	-61.9	3.8	8.47e-01	0	44	104	0	72	12618
2026-01-06 05:18:33.91	280.33	29.33	-50.8	-61.9	3.8	8.46e-01	0	44	104	0	72	12595
2026-01-06 05:18:35.20	279.93	29.23	-50.8	-61.9	3.8	8.47e-01	0	44	104	0	72	12627
2026-01-06 05:18:35.92	279.71	29.18	-50.8	-61.9	3.8	8.46e-01	0	44	104	0	72	12522
2026-01-06 05:18:37.21	279.31	29.08	-50.8	-61.9	3.8	8.47e-01	0	44	104	0	72	12562
2026-01-06 05:18:37.93	279.09	29.03	-50.8	-61.9	3.8	8.47e-01	0	44	104	0	72	12541
2026-01-06 05:18:39.22	278.70	28.93	-50.8	-61.9	3.8	8.47e-01	0	44	104	0	72	12609
2026-01-06 05:18:39.94	278.48	28.87	-50.8	-61.9	3.8	8.48e-01	0	44	104	0	72	12582
2026-01-06 05:18:41.23	278.10	28.77	-50.8	-61.9	3.8	8.46e-01	0	44	104	0	72	12605
2026-01-06 05:18:41.95	277.88	28.71	-50.8	-61.9	3.8	8.49e-01	0	44	104	0	72	12644
2026-01-06 05:18:43.24	277.50	28.61	-50.8	-61.9	3.8	8.47e-01	0	44	104	0	72	12609
2026-01-06 05:18:43.96	277.28	28.56	-50.8	-61.9	3.8	8.45e-01	0	44	104	0	72	12585
2026-01-06 05:18:45.25	276.90	28.45	-50.8	-61.9	3.8	8.48e-01	0	44	104	0	72	12607
2026-01-06 05:18:45.96	276.69	28.39	-50.8	-61.9	3.8	8.47e-01	0	44	104	0	72	12618
2026-01-06 05:18:47.26	276.32	28.29	-50.8	-61.9	3.8	8.47e-01	0	44	104	0	72	12642
2026-01-06 05:18:48.05	276.09	28.22	-50.8	-62.0	3.8	8.47e-01	0	44	104	0	72	12678
2026-01-06 05:18:49.20	275.75	28.13	-50.8	-62.0	3.8	8.47e-01	0	44	104	0	72	12686
2026-01-06 05:18:50.06	275.51	28.06	-50.8	-61.9	3.8	8.47e-01	0	44	104	0	72	12646
2026-01-06 05:18:51.21	275.18	27.96	-50.8	-61.9	3.8	8.47e-01	0	44	104	0	72	12625
2026-01-06 05:18:52.07	274.93	27.89	-50.8	-61.9	3.8	8.46e-01	0	44	104	0	72	12584
2026-01-06 05:18:53.22	274.61	27.79	-50.8	-61.9	3.8	8.47e-01	0	44	104	0	72	12585
2026-01-06 05:18:54.08	274.37	27.72	-50.8	-61.9	3.8	8.47e-01	0	44	104	0	72	12638
2026-01-06 05:18:55.22	274.05	27.62	-50.8	-61.9	3.8	8.46e-01	0	44	104	0	72	12566
2026-01-06 05:18:56.08	273.81	27.54	-50.8	-61.9	3.8	8.48e-01	0	44	104	0	72	12569
2026-01-06 05:18:57.23	273.49	27.45	-50.8	-61.9	3.8	8.47e-01	0	44	104	0	72	12659
2026-01-06 05:18:58.09	273.25	27.37	-50.8	-61.9	3.8	8.46e-01	0	44	104	0	72	12610
2026-01-06 05:18:59.24	272.94	27.27	-50.8	-61.9	3.8	8.48e-01	0	44	104	0	72	12591
2026-01-06 05:19:00.10	272.71	27.19	-50.8	-61.9	3.8	8.47e-01	0	44	104	0	72	12531
2026-01-06 05:19:01.25	272.39	27.09	-50.8	-61.9	3.8	8.47e-01	0	44	104	0	72	12614
2026-01-06 05:19:02.11	272.16	27.01	-50.8	-61.9	3.8	8.46e-01	0	44	104	0	72	12589
2026-01-06 05:19:03.26	271.86	26.91	-50.8	-61.9	3.8	8.46e-01	0	44	104	0	72	12594
2026-01-06 05:19:04.12	271.63	26.83	-50.8	-61.9	3.8	8.46e-01	0	44	104	0	72	12611
2026-01-06 05:19:05.27	271.32	26.73	-50.8	-61.9	3.8	8.48e-01	0	44	104	0	72	12605
2026-01-06 05:19:06.13	271.10	26.65	-50.8	-61.9	3.8	8.46e-01	0	44	104	0	72	12662
2026-01-06 05:19:07.75	270.67	26.51	-50.8	-61.9	3.8	8.47e-01	0	44	104	0	72	12600
2026-01-06 05:19:08.33	270.52	26.45	-50.8	-62.0	3.8	8.46e-01	0	44	104	0	72	12702
2026-01-06 05:19:09.90	270.12	26.31	-50.8	-62.0	3.8	8.46e-01	0	44	104	0	72	12679
2026-01-06 05:19:10.49	269.97	26.25	-50.8	-61.9	3.8	8.47e-01	0	44	104	0	72	12626
2026-01-06 05:19:12.07	269.56	26.11	-50.8	-61.9	3.8	8.48e-01	0	44	104	0	72	12605
2026-01-06 05:19:12.66	269.42	26.05	-50.8	-61.9	3.8	8.46e-01	0	44	104	0	72	12603
2026-01-06 05:19:14.24	269.02	25.91	-50.8	-61.9	3.8	8.48e-01	0	44	104	0	72	12641
2026-01-06 05:19:14.81	268.88	25.85	-50.8	-61.9	3.8	8.47e-01	0	44	104	0	72	12617
2026-01-06 05:19:16.39	268.48	25.71	-50.8	-61.9	3.8	8.47e-01	0	44	104	0	72	12615
2026-01-06 05:19:17.07	268.32	25.64	-50.8	-61.9	3.8	8.47e-01	0	44	104	0	72	12602
2026-01-06 05:19:18.51	267.96	25.51	-50.8	-62.0	3.8	8.46e-01	0	44	104	0	72	12670
2026-01-06 05:19:19.27	267.78	25.43	-50.8	-61.9	3.8	8.46e-01	0	44	104	0	72	12627
2026-01-06 05:19:20.56	267.47	25.31	-50.8	-61.9	3.8	8.47e-01	0	44	104	0	72	12640
2026-01-06 05:19:21.28	267.29	25.24	-50.8	-62.0	3.8	8.47e-01	0	44	104	0	72	12712
2026-01-06 05:19:22.57	266.98	25.12	-50.8	-61.9	3.8	8.48e-01	0	44	104	0	72	12647
2026-01-06 05:19:23.29	266.81	25.05	-50.8	-61.9	3.8	8.47e-01	0	44	104	0	72	12616
2026-01-06 05:19:24.58	266.51	24.93	-50.8	-61.9	3.8	8.47e-01	0	44	104	0	72	12584
2026-01-06 05:19:25.29	266.34	24.86	-50.8	-61.9	3.8	8.46e-01	0	44	104	0	72	12617
2026-01-06 05:19:26.59	266.04	24.74	-50.8	-61.9	3.8	8.46e-01	0	43	104	0	72	12562
2026-01-06 05:19:27.31	265.87	24.67	-50.8	-61.9	3.8	8.47e-01	0	44	104	0	72	12640
2026-01-06 05:19:28.60	265.58	24.54	-50.8	-61.9	3.8	8.47e-01	0	44	104	0	72	12638
2026-01-06 05:19:29.31	265.41	24.48	-50.8	-61.9	3.8	8.47e-01	0	44	104	0	72	12640
2026-01-06 05:19:30.61	265.12	24.35	-50.8	-61.9	3.8	8.47e-01	0	44	104	0	72	12652
2026-01-06 05:19:31.32	264.96	24.28	-50.8	-61.9	3.8	8.46e-01	0	44	104	0	72	12615
2026-01-06 05:19:32.61	264.67	24.16	-50.8	-61.9	3.8	8.47e-01	0	44	104	0	72	12583
2026-01-06 05:19:33.33	264.51	24.09	-50.8	-61.9	3.8	8.47e-01	0	44	104	0	72	12562
2026-01-06 05:19:34.62	264.22	23.96	-50.8	-61.9	3.8	8.47e-01	0	44	104	0	72	12615
2026-01-06 05:19:35.34	264.06	23.89	-50.8	-61.9	3.8	8.46e-01	0	44	104	0	72	12603
2026-01-06 05:19:36.63	263.78	23.77	-50.8	-61.9	3.8	8.47e-01	0	44	104	0	72	12639
2026-01-06 05:19:37.35	263.62	23.70	-50.8	-61.9	3.8	8.47e-01	0	44	104	0	72	12609
2026-01-06 05:19:38.64	263.34	23.57	-50.8	-61.9	3.8	8.47e-01	0	44	104	0	72	12583
2026-01-06 05:19:39.36	263.19	23.50	-50.8	-61.9	3.8	8.47e-01	0	44	104	0	72	12613
2026-01-06 05:19:40.70	262.90	23.37	-50.8	-61.9	3.8	8.46e-01	0	44	104	0	72	12526
2026-01-06 05:19:41.41	262.75	23.30	-50.8	-61.9	3.8	8.48e-01	0	44	104	0	72	12659
2026-01-06 05:19:42.75	262.47	23.17	-50.8	-61.9	3.8	8.47e-01	0	44	104	0	72	12608
2026-01-06 05:19:43.47	262.32	23.10	-50.8	-61.9	3.8	8.47e-01	0	44	104	0	72	12565
2026-01-06 05:19:44.84	262.03	22.97	-50.8	-61.9	3.8	8.46e-01	0	44	104	0	72	12586
2026-01-06 05:19:45.56	261.88	22.90	-50.8	-61.8	3.8	8.47e-01	0	44	104	0	72	12481
2026-01-06 05:19:46.91	261.60	22.76	-50.8	-61.9	3.8	8.47e-01	0	44	104	0	72	12578
2026-01-06 05:19:47.63	261.46	22.69	-50.8	-61.9	3.8	8.46e-01	0	44	104	0	72	12579
2026-01-06 05:19:48.92	261.20	22.57	-50.8	-61.9	3.8	8.47e-01	0	44	104	0	72	12656
2026-01-06 05:19:49.64	261.05	22.50	-50.8	-61.9	3.8	8.47e-01	0	44	104	0	72	12550
2026-01-06 05:19:50.93	260.79	22.37	-50.8	-61.9	3.8	8.47e-01	0	44	104	0	72	12610
2026-01-06 05:19:51.65	260.65	22.30	-50.8	-61.9	3.8	8.46e-01	0	44	104	0	72	12628
2026-01-06 05:19:52.94	260.39	22.17	-50.8	-61.9	3.8	8.47e-01	0	44	104	0	72	12604
2026-01-06 05:19:53.65	260.25	22.10	-50.8	-61.9	3.8	8.46e-01	0	44	104	0	72	12628
2026-01-06 05:19:54.95	260.00	21.98	-50.8	-61.9	3.8	8.46e-01	0	44	104	0	72	12639
2026-01-06 05:19:55.66	259.86	21.91	-50.8	-61.9	3.8	8.47e-01	0	44	104	0	72	12521
2026-01-06 05:19:56.95	259.61	21.78	-50.8	-61.9	3.8	8.46e-01	0	44	104	0	72	12627
2026-01-06 05:19:57.67	259.48	21.71	-50.8	-61.9	3.8	8.46e-01	0	44	104	0	72	12625
2026-01-06 05:19:58.96	259.23	21.59	-50.8	-61.9	3.8	8.46e-01	0	44	104	0	72	12624
2026-01-06 05:19:59.68	259.09	21.51	-50.8	-61.9	3.8	8.47e-01	0	44	104	0	72	12619
2026-01-06 05:20:00.97	258.85	21.39	-50.8	-61.9	3.8	8.47e-01	0	44	104	0	72	12521
2026-01-06 05:20:01.69	258.72	21.32	-50.8	-61.9	3.8	8.46e-01	0	44	104	0	72	12603
2026-01-06 05:20:02.98	258.48	21.19	-50.8	-61.9	3.8	8.48e-01	0	44	104	0	72	12646
2026-01-06 05:20:03.70	258.34	21.12	-50.8	-61.9	3.8	8.47e-01	0	44	104	0	72	12574
2026-01-06 05:20:04.99	258.11	21.00	-50.8	-61.9	3.8	8.46e-01	0	44	104	0	72	12615
2026-01-06 05:20:05.71	257.98	20.93	-50.8	-61.9	3.8	8.47e-01	0	44	104	0	72	12608
2026-01-06 05:20:07.00	257.74	20.80	-50.8	-61.9	3.8	8.45e-01	0	44	104	0	72	12656
2026-01-06 05:20:07.71	257.62	20.73	-50.8	-62.0	3.8	8.46e-01	0	44	104	0	72	12668
2026-01-06 05:20:09.00	257.39	20.61	-50.8	-61.9	3.8	8.47e-01	0	44	104	0	72	12562
2026-01-06 05:20:09.72	257.26	20.54	-50.8	-61.9	3.8	8.46e-01	0	44	104	0	72	12605
2026-01-06 05:20:11.01	257.03	20.41	-50.8	-61.9	3.8	8.46e-01	0	44	104	0	72	12586
2026-01-06 05:20:11.73	256.90	20.34	-50.8	-61.9	3.8	8.47e-01	0	44	104	0	72	12571
2026-01-06 05:20:13.02	256.68	20.22	-50.8	-61.9	3.8	8.47e-01	0	44	104	0	72	12578
2026-01-06 05:20:13.74	256.56	20.15	-50.8	-61.9	3.8	8.47e-01	0	44	104	0	72	12625
2026-01-06 05:20:15.03	256.33	20.02	-50.8	-61.9	3.8	8.47e-01	0	44	104	0	72	12533
2026-01-06 05:20:15.75	256.21	19.96	-50.8	-61.9	3.8	8.46e-01	0	44	104	0	72	12575
2026-01-06 05:20:17.04	255.99	19.83	-50.8	-61.9	3.8	8.46e-01	0	44	104	0	72	12567
2026-01-06 05:20:17.76	255.87	19.76	-50.8	-61.9	3.8	8.47e-01	0	44	104	0	72	12574
2026-01-06 05:20:19.05	255.65	19.64	-50.8	-61.9	3.8	8.46e-01	0	44	104	0	72	12561
2026-01-06 05:20:19.76	255.54	19.57	-50.8	-62.0	3.8	8.46e-01	0	44	104	0	72	12671
2026-01-06 05:20:21.05	255.32	19.45	-50.8	-61.9	3.8	8.47e-01	0	44	104	0	72	12556
2026-01-06 05:20:21.77	255.20	19.38	-50.8	-61.9	3.8	8.48e-01	0	44	104	0	72	12602
2026-01-06 05:20:23.06	254.99	19.25	-50.8	-61.9	3.8	8.46e-01	0	44	104	0	72	12602
2026-01-06 05:20:23.78	254.88	19.18	-50.8	-61.9	3.8	8.48e-01	0	44	104	0	72	12587
2026-01-06 05:20:25.07	254.67	19.06	-50.8	-61.9	3.8	8.46e-01	0	44	104	0	72	12549
2026-01-06 05:20:25.79	254.55	18.99	-50.8	-61.9	3.8	8.47e-01	0	44	104	0	72	12645
2026-01-06 05:20:27.08	254.35	18.87	-50.8	-61.9	3.8	8.46e-01	0	44	104	0	72	12577
2026-01-06 05:20:27.80	254.23	18.80	-50.8	-61.9	3.8	8.48e-01	0	44	104	0	72	12612
2026-01-06 05:20:29.09	254.03	18.68	-50.8	-61.9	3.8	8.45e-01	0	44	104	0	72	12618
2026-01-06 05:20:29.81	253.92	18.61	-50.8	-61.9	3.8	8.47e-01	0	44	104	0	72	12558
2026-01-06 05:20:31.10	253.72	18.49	-50.8	-61.9	3.8	8.48e-01	0	44	104	0	72	12559
2026-01-06 05:20:31.82	253.61	18.42	-50.8	-61.9	3.8	8.47e-01	0	44	104	0	72	12627
2026-01-06 05:20:33.11	253.41	18.30	-50.8	-61.9	3.8	8.47e-01	0	44	104	0	72	12553
2026-01-06 05:20:33.83	253.30	18.23	-50.8	-61.9	3.8	8.47e-01	0	44	104	0	72	12523
2026-01-06 05:20:35.12	253.10	18.11	-50.8	-61.9	3.8	8.46e-01	0	44	104	0	72	12533
2026-01-06 05:20:35.83	253.00	18.04	-50.8	-61.9	3.8	8.46e-01	0	44	104	0	72	12610
2026-01-06 05:20:37.12	252.80	17.92	-50.8	-61.9	3.8	8.47e-01	0	44	104	0	72	12615
2026-01-06 05:20:37.84	252.70	17.86	-50.8	-61.9	3.8	8.48e-01	0	44	104	0	72	12593
2026-01-06 05:20:39.13	252.51	17.74	-50.8	-61.9	3.8	8.47e-01	0	44	104	0	72	12599
2026-01-06 05:20:39.85	252.40	17.67	-50.8	-61.9	3.8	8.47e-01	0	44	104	0	72	12620
2026-01-06 05:20:41.14	252.21	17.55	-50.8	-61.9	3.8	8.46e-01	0	44	104	0	72	12606
2026-01-06 05:20:41.86	252.11	17.48	-50.8	-62.0	3.8	8.46e-01	0	44	104	0	72	12685
2026-01-06 05:20:43.15	251.92	17.36	-50.8	-61.9	3.8	8.47e-01	0	44	104	0	72	12619
2026-01-06 05:20:43.87	251.82	17.30	-50.8	-61.9	3.8	8.47e-01	0	44	104	0	72	12625
2026-01-06 05:20:45.16	251.64	17.18	-50.8	-61.9	3.8	8.47e-01	0	44	104	0	72	12601
2026-01-06 05:20:45.88	251.54	17.11	-50.8	-61.9	3.8	8.47e-01	0	44	104	0	72	12579
2026-01-06 05:20:47.17	251.35	16.99	-50.8	-61.9	3.8	8.47e-01	0	44	104	0	72	12552
2026-01-06 05:20:47.89	251.25	16.93	-50.8	-61.9	3.8	8.47e-01	0	44	104	0	72	12565
2026-01-06 05:20:49.18	251.07	16.81	-50.8	-61.9	3.8	8.48e-01	0	44	104	0	72	12560
2026-01-06 05:20:49.90	250.98	16.74	-50.8	-61.9	3.8	8.47e-01	0	44	104	0	72	12586
2026-01-06 05:20:51.19	250.80	16.62	-50.8	-61.9	3.8	8.47e-01	0	44	104	0	72	12568
2026-01-06 05:20:51.91	250.70	16.56	-50.8	-61.9	3.8	8.47e-01	0	44	104	0	72	12604
2026-01-06 05:20:53.20	250.53	16.44	-50.8	-61.9	3.8	8.47e-01	0	44	104	0	72	12606
2026-01-06 05:20:53.92	250.43	16.38	-50.8	-61.9	3.8	8.48e-01	0	44	104	0	72	12564
2026-01-06 05:20:55.21	250.26	16.26	-50.8	-61.9	3.8	8.47e-01	0	44	104	0	72	12545
2026-01-06 05:20:55.92	250.16	16.19	-50.8	-61.9	3.8	8.48e-01	0	44	104	0	72	12562
2026-01-06 05:20:57.22	249.99	16.08	-50.8	-61.9	3.8	8.46e-01	0	44	104	0	72	12567
2026-01-06 05:20:57.93	249.90	16.01	-50.8	-61.9	3.8	8.47e-01	0	44	104	0	72	12531
2026-01-06 05:20:59.22	249.73	15.90	-50.8	-61.9	3.8	8.47e-01	0	44	104	0	72	12596
2026-01-06 05:20:59.94	249.64	15.83	-50.8	-61.9	3.8	8.48e-01	0	44	104	0	72	12579
2026-01-06 05:21:01.23	249.47	15.72	-50.8	-61.9	3.8	8.46e-01	0	44	104	0	72	12610
2026-01-06 05:21:01.95	249.38	15.65	-50.8	-61.9	3.8	8.47e-01	0	44	104	0	72	12548
2026-01-06 05:21:03.24	249.21	15.54	-50.8	-61.9	3.8	8.47e-01	0	44	104	0	72	12521
2026-01-06 05:21:03.96	249.12	15.47	-50.8	-61.9	3.8	8.47e-01	0	44	104	0	72	12595
2026-01-06 05:21:05.25	248.96	15.36	-50.8	-61.9	3.8	8.46e-01	0	44	104	0	72	12655
2026-01-06 05:21:05.97	248.87	15.30	-50.8	-61.9	3.8	8.47e-01	0	44	104	0	72	12569
2026-01-06 05:21:07.26	248.71	15.18	-50.8	-61.9	3.8	8.46e-01	0	44	104	0	72	12588
2026-01-06 05:21:07.98	248.62	15.12	-50.8	-61.9	3.8	8.46e-01	0	44	104	0	72	12563
2026-01-06 05:21:09.27	248.46	15.00	-50.8	-61.9	3.8	8.46e-01	0	44	104	0	72	12564
2026-01-06 05:21:09.99	248.37	14.94	-50.8	-61.9	3.8	8.46e-01	0	44	104	0	72	12555
2026-01-06 05:21:11.28	248.22	14.83	-50.8	-61.8	3.8	8.47e-01	0	44	104	0	72	12511
2026-01-06 05:21:12.00	248.13	14.77	-50.8	-61.9	3.8	8.48e-01	0	44	104	0	72	12600
2026-01-06 05:21:13.29	247.98	14.65	-50.8	-61.9	3.8	8.47e-01	0	44	104	0	72	12619
2026-01-06 05:21:14.15	247.87	14.58	-50.8	-61.9	3.8	8.47e-01	0	44	104	0	72	12563
2026-01-06 05:21:15.29	247.74	14.48	-50.8	-61.9	3.8	8.46e-01	0	44	104	0	72	12585
2026-01-06 05:21:16.39	247.61	14.38	-50.8	-61.9	3.8	8.48e-01	0	44	104	0	72	12637
2026-01-06 05:21:17.43	247.49	14.29	-50.8	-61.9	3.8	8.46e-01	0	44	104	0	72	12577
2026-01-06 05:21:18.60	247.35	14.19	-50.8	-61.9	3.8	8.47e-01	0	44	104	0	72	12571
2026-01-06 05:21:19.46	247.25	14.12	-50.8	-61.8	3.8	8.45e-01	0	44	104	0	72	12516
2026-01-06 05:21:20.61	247.12	14.02	-50.8	-61.9	3.8	8.47e-01	0	44	104	0	72	12603
2026-01-06 05:21:21.47	247.02	13.95	-50.8	-61.9	3.8	8.47e-01	0	44	104	0	72	12612
2026-01-06 05:21:22.62	246.89	13.85	-50.8	-61.9	3.8	8.48e-01	0	44	104	0	72	12591
2026-01-06 05:21:23.48	246.80	13.77	-50.8	-61.9	3.8	8.46e-01	0	44	104	0	72	12622
2026-01-06 05:21:24.63	246.67	13.68	-50.8	-61.9	3.8	8.47e-01	0	44	104	0	72	12619
2026-01-06 05:21:25.48	246.57	13.60	-50.8	-61.9	3.8	8.47e-01	0	44	104	0	72	12548
2026-01-06 05:21:26.63	246.45	13.51	-50.8	-61.9	3.8	8.47e-01	0	44	104	0	72	12545
2026-01-06 05:21:27.49	246.35	13.43	-50.8	-61.9	3.8	8.47e-01	0	44	104	0	72	12530
2026-01-06 05:21:28.64	246.23	13.34	-50.8	-61.9	3.8	8.47e-01	0	44	104	0	72	12588
2026-01-06 05:21:29.50	246.13	13.26	-50.8	-61.9	3.8	8.47e-01	0	44	104	0	72	12544
2026-01-06 05:21:30.65	246.01	13.17	-50.8	-61.9	3.8	8.47e-01	0	44	104	0	72	12601
2026-01-06 05:21:31.51	245.91	13.10	-50.8	-61.9	3.8	8.47e-01	0	44	104	0	72	12581
2026-01-06 05:21:32.66	245.79	13.00	-50.8	-61.9	3.8	8.48e-01	0	44	104	0	72	12633
2026-01-06 05:21:33.52	245.70	12.93	-50.8	-61.9	3.8	8.47e-01	0	44	104	0	72	12652
2026-01-06 05:21:34.67	245.58	12.83	-50.8	-61.9	3.8	8.48e-01	0	44	104	0	72	12593
2026-01-06 05:21:35.53	245.49	12.76	-50.8	-61.9	3.8	8.46e-01	0	44	104	0	72	12520
2026-01-06 05:21:36.68	245.37	12.66	-50.8	-61.9	3.8	8.48e-01	0	44	104	0	72	12547
2026-01-06 05:21:37.54	245.28	12.59	-50.8	-62.0	3.8	8.46e-01	0	44	104	0	72	12683
2026-01-06 05:21:38.69	245.16	12.50	-50.8	-62.0	3.8	8.46e-01	0	44	104	0	72	12696
2026-01-06 05:21:39.55	245.07	12.43	-50.8	-61.9	3.8	8.45e-01	0	44	104	0	72	12566
2026-01-06 05:21:40.69	244.96	12.33	-50.8	-61.9	3.8	8.46e-01	0	44	104	0	72	12614
2026-01-06 05:21:41.55	244.87	12.26	-50.8	-61.9	3.8	8.46e-01	0	44	104	0	72	12614
2026-01-06 05:21:42.70	244.75	12.17	-50.8	-61.8	3.8	8.47e-01	0	44	104	0	72	12516
2026-01-06 05:21:43.56	244.67	12.10	-50.8	-61.9	3.8	8.47e-01	0	44	104	0	72	12545
2026-01-06 05:21:44.71	244.55	12.01	-50.8	-61.9	3.8	8.47e-01	0	44	104	0	72	12586
2026-01-06 05:21:45.57	244.47	11.94	-50.8	-61.8	3.8	8.47e-01	0	44	104	0	72	12506
2026-01-06 05:21:46.72	244.35	11.84	-50.8	-61.9	3.8	8.48e-01	0	44	104	0	72	12553
2026-01-06 05:21:47.58	244.27	11.77	-50.8	-61.9	3.8	8.47e-01	0	44	104	0	72	12566
2026-01-06 05:21:48.73	244.16	11.68	-50.8	-61.9	3.8	8.46e-01	0	44	104	0	72	12528
2026-01-06 05:21:49.59	244.07	11.61	-50.8	-61.9	3.8	8.46e-01	0	44	104	0	72	12600
2026-01-06 05:21:50.73	243.96	11.52	-50.8	-61.9	3.8	8.47e-01	0	44	104	0	72	12552
2026-01-06 05:21:51.60	243.88	11.45	-50.8	-61.9	3.8	8.46e-01	0	44	104	0	72	12649
2026-01-06 05:21:52.74	243.77	11.36	-50.8	-61.9	3.8	8.47e-01	0	44	104	0	72	12611
2026-01-06 05:21:53.60	243.69	11.29	-50.8	-62.0	3.8	8.46e-01	0	44	104	0	72	12689
2026-01-06 05:21:54.75	243.58	11.20	-50.8	-61.9	3.8	8.47e-01	0	44	104	0	72	12538
2026-01-06 05:21:55.61	243.50	11.13	-50.8	-61.9	3.8	8.46e-01	0	44	104	0	72	12598
2026-01-06 05:21:56.76	243.39	11.04	-50.8	-61.9	3.8	8.46e-01	0	44	104	0	72	12536
2026-01-06 05:21:57.62	243.31	10.97	-50.8	-61.9	3.8	8.47e-01	0	44	104	0	72	12621
2026-01-06 05:21:58.77	243.21	10.88	-50.8	-61.9	3.8	8.46e-01	0	44	104	0	72	12550
2026-01-06 05:21:59.63	243.13	10.81	-50.8	-61.9	3.8	8.47e-01	0	44	104	0	72	12537
2026-01-06 05:22:00.78	243.02	10.72	-50.8	-61.9	3.8	8.48e-01	0	44	104	0	72	12604
2026-01-06 05:22:01.64	242.95	10.66	-50.8	-61.9	3.8	8.47e-01	0	44	104	0	72	12605
2026-01-06 05:22:02.79	242.84	10.57	-50.8	-61.9	3.8	8.46e-01	0	44	104	0	72	12652
2026-01-06 05:22:03.65	242.76	10.50	-50.8	-61.9	3.8	8.47e-01	0	44	104	0	72	12624
2026-01-06 05:22:04.79	242.66	10.41	-50.8	-61.9	3.8	8.48e-01	0	44	104	0	72	12615
2026-01-06 05:22:05.65	242.59	10.34	-50.8	-61.9	3.8	8.47e-01	0	44	104	0	72	12533
2026-01-06 05:22:06.80	242.48	10.26	-50.8	-61.9	3.8	8.46e-01	0	44	104	0	72	12592
2026-01-06 05:22:07.66	242.41	10.19	-50.8	-61.9	3.8	8.47e-01	0	44	104	0	72	12564
2026-01-06 05:22:08.81	242.31	10.10	-50.8	-61.9	3.8	8.46e-01	0	44	104	0	72	12575
2026-01-06 05:22:09.86	242.22	10.02	-50.8	-61.9	3.8	8.48e-01	0	44	104	0	72	12597
2026-01-06 05:22:10.72	242.14	9.95	-50.8	-61.9	3.8	8.47e-01	0	44	104	0	72	12577
2026-01-06 05:22:11.87	242.04	9.87	-50.8	-61.9	3.8	8.46e-01	0	44	104	0	72	12595
2026-01-06 05:22:12.73	241.97	9.80	-50.8	-61.9	3.8	8.46e-01	0	44	104	0	72	12586
2026-01-06 05:22:13.88	241.87	9.71	-50.8	-61.9	3.8	8.48e-01	0	44	104	0	72	12642
2026-01-06 05:22:14.74	241.80	9.65	-50.8	-61.9	3.8	8.48e-01	0	44	104	0	72	12533
2026-01-06 05:22:15.89	241.70	9.56	-50.8	-61.9	3.8	8.48e-01	0	44	104	0	72	12576
2026-01-06 05:22:16.75	241.63	9.49	-50.8	-61.9	3.8	8.48e-01	0	44	104	0	72	12595
2026-01-06 05:22:17.90	241.54	9.41	-50.8	-61.9	3.8	8.47e-01	0	44	104	0	72	12587
2026-01-06 05:22:18.76	241.47	9.34	-50.8	-61.9	3.8	8.48e-01	0	44	104	0	72	12600
2026-01-06 05:22:19.90	241.37	9.26	-50.8	-61.9	3.8	8.46e-01	0	44	104	0	72	12586
2026-01-06 05:22:20.77	241.30	9.19	-50.8	-61.9	3.8	8.47e-01	0	44	104	0	72	12613
2026-01-06 05:22:21.91	241.21	9.11	-50.8	-62.0	3.8	8.47e-01	0	44	104	0	72	12674
2026-01-06 05:22:22.77	241.14	9.04	-50.8	-61.9	3.8	8.47e-01	0	44	104	0	72	12593
2026-01-06 05:22:23.92	241.05	8.96	-50.8	-61.9	3.8	8.47e-01	0	44	104	0	72	12609
2026-01-06 05:22:24.78	240.98	8.89	-50.8	-61.9	3.8	8.47e-01	0	44	104	0	72	12590
2026-01-06 05:22:25.93	240.88	8.81	-50.8	-61.9	3.8	8.48e-01	0	44	104	0	72	12598
2026-01-06 05:22:26.79	240.82	8.74	-50.8	-61.9	3.8	8.47e-01	0	44	104	0	72	12567
2026-01-06 05:22:27.94	240.73	8.66	-50.8	-61.9	3.8	8.47e-01	0	44	104	0	72	12637
2026-01-06 05:22:28.80	240.66	8.60	-50.8	-61.9	3.8	8.47e-01	0	44	104	0	72	12627
2026-01-06 05:22:29.95	240.57	8.51	-50.8	-61.9	3.8	8.46e-01	0	44	104	0	72	12597
2026-01-06 05:22:30.81	240.50	8.45	-50.8	-61.9	3.8	8.46e-01	0	44	104	0	72	12661
2026-01-06 05:22:31.96	240.41	8.37	-50.8	-61.9	3.8	8.47e-01	0	44	104	0	72	12588
2026-01-06 05:22:32.82	240.35	8.30	-50.8	-61.9	3.8	8.46e-01	0	44	104	0	72	12583
2026-01-06 05:22:33.97	240.26	8.22	-50.8	-61.9	3.8	8.47e-01	0	44	104	0	72	12592
2026-01-06 05:22:34.82	240.19	8.16	-50.8	-61.9	3.8	8.46e-01	0	44	104	0	72	12621
2026-01-06 05:22:35.97	240.11	8.07	-50.8	-61.9	3.8	8.46e-01	0	44	104	0	72	12570
2026-01-06 05:22:36.84	240.04	8.01	-50.8	-61.9	3.8	8.46e-01	0	44	104	0	72	12594
2026-01-06 05:22:37.98	239.96	7.93	-50.8	-62.0	3.8	8.46e-01	0	44	104	0	72	12666
2026-01-06 05:22:38.84	239.89	7.87	-50.8	-61.9	3.8	8.46e-01	0	44	104	0	72	12601
2026-01-06 05:22:40.31	239.78	7.76	-50.8	-61.9	3.8	8.46e-01	0	44	104	0	72	12602
2026-01-06 05:22:41.03	239.73	7.71	-50.8	-61.9	3.8	8.46e-01	0	44	104	0	72	12610
2026-01-06 05:22:42.32	239.64	7.62	-50.8	-62.0	3.8	8.47e-01	0	44	104	0	72	12697
2026-01-06 05:22:43.04	239.58	7.57	-50.8	-61.9	3.8	8.47e-01	0	44	104	0	72	12583
2026-01-06 05:22:44.33	239.49	7.47	-50.8	-61.9	3.8	8.46e-01	0	44	104	0	72	12651
2026-01-06 05:22:45.04	239.44	7.42	-50.8	-61.9	3.8	8.47e-01	0	44	104	0	72	12583
2026-01-06 05:22:46.34	239.34	7.33	-50.8	-61.9	3.8	8.46e-01	0	44	104	0	72	12617
2026-01-06 05:22:47.05	239.29	7.28	-50.8	-61.9	3.8	8.47e-01	0	44	104	0	72	12648
2026-01-06 05:22:48.35	239.20	7.19	-50.8	-61.9	3.8	8.47e-01	0	44	104	0	72	12557
2026-01-06 05:22:49.06	239.15	7.14	-50.8	-61.9	3.8	8.47e-01	0	44	104	0	72	12627
2026-01-06 05:22:50.35	239.06	7.05	-50.8	-61.9	3.8	8.47e-01	0	44	104	0	72	12526
2026-01-06 05:22:51.07	239.01	7.00	-50.8	-61.9	3.8	8.47e-01	0	44	104	0	72	12545
2026-01-06 05:22:52.36	238.92	6.91	-50.8	-61.9	3.8	8.47e-01	0	44	104	0	72	12564
2026-01-06 05:22:53.08	238.87	6.86	-50.8	-61.9	3.8	8.47e-01	0	44	104	0	72	12596
2026-01-06 05:22:54.37	238.78	6.77	-50.8	-61.9	3.8	8.47e-01	0	44	104	0	72	12606
2026-01-06 05:22:55.09	238.73	6.72	-50.8	-61.9	3.8	8.47e-01	0	44	104	0	72	12615
2026-01-06 05:22:56.38	238.64	6.63	-50.8	-61.9	3.8	8.46e-01	0	44	104	0	72	12609
2026-01-06 05:22:57.09	238.59	6.58	-50.8	-61.9	3.8	8.47e-01	0	44	104	0	72	12560
2026-01-06 05:22:58.38	238.51	6.49	-50.8	-61.9	3.8	8.47e-01	0	44	104	0	72	12563
2026-01-06 05:22:59.10	238.46	6.44	-50.8	-61.9	3.8	8.46e-01	0	44	104	0	72	12600
2026-01-06 05:23:00.38	238.37	6.35	-50.8	-61.9	3.8	8.47e-01	0	44	104	0	72	12658
2026-01-06 05:23:01.23	238.32	6.30	-50.8	-61.9	3.8	8.47e-01	0	44	104	0	72	12566
2026-01-06 05:23:02.38	238.24	6.22	-50.8	-61.9	3.8	8.47e-01	0	44	104	0	72	12606
2026-01-06 05:23:03.45	238.17	6.14	-50.8	-61.9	3.8	8.47e-01	0	44	104	0	72	12604
2026-01-06 05:23:04.48	238.10	6.07	-50.8	-61.9	3.8	8.47e-01	0	44	104	0	72	12622
2026-01-06 05:23:05.48	238.04	6.01	-50.8	-62.0	3.8	8.46e-01	0	44	104	0	72	12691
2026-01-06 05:23:06.48	237.97	5.94	-50.8	-61.9	3.8	8.45e-01	0	44	104	0	72	12567
2026-01-06 05:23:07.49	237.91	5.87	-50.8	-61.9	3.8	8.46e-01	0	44	104	0	72	12573
2026-01-06 05:23:08.49	237.84	5.80	-50.8	-62.0	3.8	8.46e-01	0	44	104	0	72	12690
2026-01-06 05:23:09.49	237.78	5.73	-50.8	-61.9	3.8	8.48e-01	0	44	104	0	72	12661
2026-01-06 05:23:10.50	237.71	5.67	-50.8	-61.9	3.8	8.47e-01	0	44	104	0	72	12617
2026-01-06 05:23:11.50	237.65	5.60	-50.8	-61.9	3.8	8.45e-01	0	44	104	0	72	12621
2026-01-06 05:23:12.51	237.59	5.53	-50.8	-61.8	3.8	8.47e-01	0	44	104	0	72	12503
2026-01-06 05:23:13.51	237.52	5.46	-50.8	-61.9	3.8	8.48e-01	0	44	104	0	72	12619
2026-01-06 05:23:14.53	237.46	5.40	-50.8	-61.9	3.8	8.47e-01	0	44	104	0	72	12623
2026-01-06 05:23:15.59	237.39	5.33	-50.8	-61.9	3.8	8.47e-01	0	44	104	0	72	12591
2026-01-06 05:23:16.49	237.34	5.27	-50.8	-61.9	3.8	8.47e-01	0	44	104	0	72	12530
2026-01-06 05:23:17.51	237.28	5.20	-50.8	-61.9	3.8	8.46e-01	0	44	104	0	72	12628
2026-01-06 05:23:18.52	237.21	5.13	-50.8	-61.9	3.8	8.47e-01	0	44	104	0	72	12612
2026-01-06 05:23:19.52	237.15	5.07	-50.8	-61.9	3.8	8.46e-01	0	44	104	0	72	12641
2026-01-06 05:23:20.53	237.09	5.00	-50.8	-61.9	3.8	8.47e-01	0	44	104	0	72	12623

#Closed at: 2026-01-06 05:23:21
#Recorded file [0 MB]: D:/Data/31040_260106_081134.dat