passes_logs/2026/01/06/T1/T1__20260106_124544_AQUA_rec.log

#Pass ID: 20260106_124544_AQUA
#Satellite: AQUA
#Configuration: AQUA
#almurnet v.1.7.20251203
#Start time: 2026-01-06 12:45:45

#Version: 2.0.20230620
#Station: T1
#Location: 37.570604 lon 55.790049 lat
#TLE: 1 27424U 02022A   26004.96787593  .00001598  00000+0  32997-3 0  9996
#TLE: 2 27424  98.4069 331.2279 0002002  90.2377   0.6092 14.61798176259425

#Time	Az	El	Level	Level2	SNR	BER	BlckErr	Temp	State	Recorded	gain1	gain2
2026-01-06 12:45:45.02	199.25	5.01	-50.4	-71.9	3.8	7.43e-01	0	40	0	0	72	42805
2026-01-06 12:45:46.02	199.33	5.08	-50.4	-71.5	3.8	7.46e-01	0	40	104	0	71	42947
2026-01-06 12:45:47.03	199.41	5.15	-50.5	-71.3	3.8	7.49e-01	0	40	104	0	71	42183
2026-01-06 12:45:48.03	199.48	5.22	-50.5	-71.2	3.8	7.48e-01	0	40	104	0	71	41581
2026-01-06 12:45:49.03	199.56	5.28	-50.5	-71.3	3.8	7.45e-01	0	40	104	0	71	42011
2026-01-06 12:45:50.04	199.64	5.35	-50.5	-71.4	3.8	7.46e-01	0	41	104	0	71	42517
2026-01-06 12:45:51.04	199.72	5.42	-50.5	-71.5	3.8	7.43e-01	0	41	104	0	71	43148
2026-01-06 12:45:52.05	199.80	5.49	-50.5	-71.5	3.8	7.45e-01	0	41	104	0	71	43240
2026-01-06 12:45:53.05	199.88	5.56	-50.4	-71.6	3.8	7.51e-01	0	41	104	0	71	43664
2026-01-06 12:45:54.06	199.96	5.63	-50.4	-71.6	3.8	7.46e-01	0	41	104	0	71	43506
2026-01-06 12:45:55.06	200.04	5.70	-50.4	-71.6	3.8	7.45e-01	0	41	104	0	71	43693
2026-01-06 12:45:56.07	200.13	5.77	-50.4	-71.7	3.8	7.45e-01	0	41	104	0	71	44158
2026-01-06 12:45:57.07	200.21	5.84	-50.4	-71.8	3.8	7.46e-01	0	41	104	0	71	44798
2026-01-06 12:45:58.07	200.29	5.91	-50.4	-72.0	3.8	7.44e-01	0	41	104	0	71	45585
2026-01-06 12:45:59.08	200.37	5.98	-50.4	-71.9	3.8	7.47e-01	0	41	104	0	71	45405
2026-01-06 12:46:00.08	200.46	6.05	-50.4	-71.6	3.8	7.50e-01	0	41	104	0	71	43626
2026-01-06 12:46:01.08	200.54	6.12	-50.4	-70.8	3.8	7.42e-01	0	41	104	0	71	39896
2026-01-06 12:46:02.09	200.62	6.19	-50.4	-70.1	3.8	7.45e-01	0	41	104	0	71	36875
2026-01-06 12:46:03.10	200.71	6.26	-50.4	-69.6	3.8	7.39e-01	0	41	104	0	71	34550
2026-01-06 12:46:04.10	200.79	6.33	-50.4	-69.7	3.8	7.42e-01	0	41	104	0	71	35113
2026-01-06 12:46:05.10	200.88	6.40	-50.4	-69.5	4.0	7.40e-01	0	41	104	0	71	34182
2026-01-06 12:46:06.11	200.96	6.47	-50.4	-70.3	3.8	7.42e-01	0	41	104	0	71	37655
2026-01-06 12:46:07.11	201.05	6.54	-50.4	-70.8	3.8	7.44e-01	0	41	104	0	71	40022
2026-01-06 12:46:08.12	201.14	6.61	-50.4	-70.9	3.8	7.48e-01	0	41	104	0	71	40229
2026-01-06 12:46:09.12	201.22	6.68	-50.4	-70.5	3.8	7.45e-01	0	41	104	0	71	38619
2026-01-06 12:46:10.12	201.31	6.76	-50.4	-69.7	3.9	7.42e-01	0	41	104	0	71	35087
2026-01-06 12:46:11.13	201.40	6.83	-50.4	-68.9	3.9	7.36e-01	0	41	104	0	71	32144
2026-01-06 12:46:12.14	201.49	6.90	-50.4	-68.6	3.8	7.44e-01	0	41	104	0	71	31048
2026-01-06 12:46:13.14	201.58	6.97	-50.4	-68.1	4.3	7.29e-01	0	41	104	0	71	29293
2026-01-06 12:46:14.14	201.67	7.04	-50.3	-68.6	4.2	7.37e-01	0	41	104	0	71	31076
2026-01-06 12:46:15.15	201.76	7.12	-50.3	-69.8	3.9	7.45e-01	0	41	104	0	71	35349
2026-01-06 12:46:16.15	201.85	7.19	-50.3	-70.8	3.8	7.48e-01	0	41	104	0	71	39959
2026-01-06 12:46:17.16	201.94	7.26	-50.4	-71.0	3.8	7.48e-01	0	41	104	0	71	40595
2026-01-06 12:46:18.16	202.03	7.34	-50.3	-69.8	3.8	7.47e-01	0	41	104	0	71	35411
2026-01-06 12:46:19.16	202.12	7.41	-50.3	-67.4	4.5	7.24e-01	0	41	104	0	71	26993
2026-01-06 12:46:20.17	202.21	7.48	-50.2	-66.0	5.2	7.07e-01	0	42	0	0	71	22987
2026-01-06 12:46:21.17	202.31	7.56	-50.3	-65.8	5.4	7.00e-01	0	42	0	0	71	22295
2026-01-06 12:46:22.18	202.40	7.63	-50.3	-67.3	3.9	7.40e-01	0	41	104	524288	71	26712
2026-01-06 12:46:23.18	202.49	7.70	-50.4	-69.8	3.9	7.45e-01	0	42	104	524288	71	35565
2026-01-06 12:46:24.19	202.59	7.78	-50.4	-70.4	3.9	7.45e-01	0	42	104	524288	71	37861
2026-01-06 12:46:25.19	202.68	7.85	-50.2	-64.1	6.3	6.73e-01	0	41	0	524288	71	18328
2026-01-06 12:46:26.20	202.78	7.93	-49.6	-58.9	11.8	6.15e-01	0	42	0	2621440	71	10095
2026-01-06 12:46:27.20	202.87	8.00	-48.8	-55.5	15.2	6.08e-01	0	42	0	4194304	69	7693
2026-01-06 12:46:28.21	202.97	8.08	-47.9	-53.2	17.4	6.09e-01	0	41	0	6291456	67	6592
2026-01-06 12:46:29.21	203.07	8.15	-47.1	-51.6	19.0	6.05e-01	0	42	0	7864320	66	5839
2026-01-06 12:46:30.21	203.16	8.23	-46.4	-50.4	20.1	6.07e-01	0	42	0	9961472	64	5703
2026-01-06 12:46:31.22	203.26	8.30	-46.1	-50.0	20.6	6.07e-01	0	42	0	11534336	64	5418
2026-01-06 12:46:32.22	203.36	8.38	-46.1	-49.8	20.9	6.07e-01	0	42	0	13631488	63	5631
2026-01-06 12:46:33.23	203.46	8.45	-46.3	-50.2	20.4	6.04e-01	0	42	0	15728640	63	5917
2026-01-06 12:46:34.23	203.56	8.53	-46.7	-50.9	19.8	6.08e-01	0	42	0	17301504	64	6005
2026-01-06 12:46:35.24	203.66	8.61	-47.3	-52.0	18.7	6.07e-01	0	42	0	19398656	65	6470
2026-01-06 12:46:36.24	203.76	8.68	-48.0	-53.6	17.1	6.07e-01	0	42	0	21495808	66	7367
2026-01-06 12:46:37.24	203.86	8.76	-48.7	-55.3	15.4	6.06e-01	0	42	0	23068672	67	8402
2026-01-06 12:46:38.25	203.96	8.84	-49.3	-57.6	13.3	6.10e-01	0	42	0	25165824	69	9771
2026-01-06 12:46:39.25	204.06	8.91	-49.7	-59.4	11.3	6.17e-01	0	42	0	26738688	69	11970
2026-01-06 12:46:40.26	204.17	8.99	-49.9	-60.8	9.8	6.26e-01	0	42	0	28835840	70	13346
2026-01-06 12:46:41.26	204.27	9.07	-50.0	-61.6	8.8	6.35e-01	0	42	0	30408704	70	14678
2026-01-06 12:46:42.27	204.37	9.15	-49.3	-57.5	13.4	6.10e-01	0	42	0	32505856	70	9086
2026-01-06 12:46:43.27	204.48	9.22	-49.7	-58.9	12.2	6.14e-01	0	42	0	34603008	70	10703
2026-01-06 12:46:44.27	204.58	9.30	-50.1	-63.7	6.8	6.65e-01	0	42	0	36175872	71	17647
2026-01-06 12:46:45.28	204.69	9.38	-50.0	-61.2	9.1	6.33e-01	0	42	0	38273024	71	13240
2026-01-06 12:46:46.28	204.79	9.46	-49.3	-56.4	14.6	6.07e-01	0	42	0	39845888	69	8539
2026-01-06 12:46:47.28	204.90	9.54	-49.2	-56.0	14.8	6.07e-01	0	42	0	41943040	69	8097
2026-01-06 12:46:48.29	205.01	9.61	-49.2	-55.9	15.1	6.08e-01	0	42	0	44040192	69	8024
2026-01-06 12:46:49.29	205.12	9.69	-49.0	-55.4	15.5	6.07e-01	0	42	0	45613056	69	7560
2026-01-06 12:46:50.29	205.22	9.77	-48.7	-54.6	16.2	6.07e-01	0	42	0	47710208	69	6928
2026-01-06 12:46:51.30	205.33	9.85	-48.2	-53.5	17.3	6.06e-01	0	42	0	49283072	68	6445
2026-01-06 12:46:52.30	205.44	9.93	-47.6	-52.3	18.4	6.07e-01	0	42	0	51380224	67	5934
2026-01-06 12:46:53.30	205.55	10.01	-47.2	-51.4	19.3	6.09e-01	0	42	0	53477376	66	5707
2026-01-06 12:46:54.30	205.66	10.09	-46.7	-50.6	20.1	6.08e-01	0	42	0	55050240	65	5472
2026-01-06 12:46:55.30	205.78	10.17	-46.0	-49.5	21.2	6.07e-01	0	42	0	57147392	64	5120
2026-01-06 12:46:56.31	205.89	10.25	-46.0	-49.4	21.4	6.09e-01	0	42	0	58720256	63	5372
2026-01-06 12:46:57.31	206.00	10.33	-45.9	-49.3	21.4	6.08e-01	0	42	0	60817408	63	5303
2026-01-06 12:46:58.31	206.11	10.41	-45.7	-48.9	21.8	6.08e-01	0	42	0	62390272	63	5080
2026-01-06 12:46:59.31	206.23	10.49	-45.4	-48.5	22.3	6.06e-01	0	42	0	64487424	62	5101
2026-01-06 12:47:00.32	206.34	10.57	-45.2	-48.3	22.5	6.07e-01	0	42	0	66584576	62	4987
2026-01-06 12:47:01.32	206.46	10.65	-45.1	-48.1	22.4	6.07e-01	0	42	0	68157440	62	4924
2026-01-06 12:47:02.32	206.58	10.74	-45.2	-48.2	22.5	6.06e-01	0	42	0	70254592	62	4968
2026-01-06 12:47:03.33	206.69	10.82	-45.2	-48.3	22.5	6.08e-01	0	42	0	71827456	62	4998
2026-01-06 12:47:04.33	206.81	10.90	-45.2	-48.2	22.5	6.07e-01	0	42	0	73924608	62	4961
2026-01-06 12:47:05.34	206.93	10.98	-45.2	-48.2	22.6	6.07e-01	0	42	0	76021760	62	4934
2026-01-06 12:47:06.34	207.05	11.06	-45.2	-48.0	22.7	6.06e-01	0	42	0	77594624	62	4866
2026-01-06 12:47:07.34	207.17	11.15	-45.2	-48.1	22.7	6.08e-01	0	42	0	79691776	62	4875
2026-01-06 12:47:08.35	207.29	11.23	-45.3	-48.1	22.6	6.06e-01	0	42	0	81264640	62	4907
2026-01-06 12:47:09.35	207.41	11.31	-45.2	-48.1	22.7	6.08e-01	0	43	0	83361792	62	4884
2026-01-06 12:47:10.36	207.53	11.40	-45.2	-48.0	22.7	6.06e-01	0	42	0	84934656	62	4852
2026-01-06 12:47:11.36	207.65	11.48	-45.3	-48.1	22.7	6.08e-01	0	42	0	87031808	62	4882
2026-01-06 12:47:12.37	207.78	11.56	-45.1	-47.9	22.8	6.06e-01	0	42	0	89128960	62	4793
2026-01-06 12:47:13.37	207.90	11.65	-45.1	-47.9	22.8	6.07e-01	0	42	0	90701824	62	4802
2026-01-06 12:47:14.37	208.03	11.73	-45.3	-48.1	22.6	6.08e-01	0	42	0	92798976	62	4911
2026-01-06 12:47:15.38	208.15	11.81	-45.2	-48.0	22.7	6.08e-01	0	42	0	94371840	62	4830
2026-01-06 12:47:16.38	208.28	11.90	-45.2	-48.0	22.7	6.05e-01	0	42	0	96468992	62	4852
2026-01-06 12:47:17.38	208.41	11.98	-45.2	-48.1	22.7	6.07e-01	0	42	0	98566144	62	4878
2026-01-06 12:47:18.39	208.53	12.07	-45.1	-47.9	22.9	6.06e-01	0	42	0	100139008	62	4781
2026-01-06 12:47:19.39	208.66	12.15	-45.0	-47.8	22.9	6.07e-01	0	42	0	102236160	62	4725
2026-01-06 12:47:20.39	208.79	12.24	-45.0	-47.8	22.9	6.06e-01	0	42	0	103809024	61	5012
2026-01-06 12:47:21.40	208.92	12.32	-45.1	-47.9	22.8	6.06e-01	0	42	0	105906176	61	5073
2026-01-06 12:47:22.40	209.05	12.41	-45.1	-47.9	22.9	6.06e-01	0	43	0	108003328	61	5070
2026-01-06 12:47:23.41	209.19	12.49	-45.1	-47.8	22.9	6.07e-01	0	42	0	109576192	61	5034
2026-01-06 12:47:24.41	209.32	12.58	-44.9	-47.6	23.1	6.07e-01	0	42	0	111673344	61	4918
2026-01-06 12:47:25.41	209.45	12.67	-44.8	-47.5	23.2	6.06e-01	0	42	0	113246208	61	4861
2026-01-06 12:47:26.41	209.58	12.75	-44.8	-47.5	23.2	6.06e-01	0	43	0	115343360	61	4859
2026-01-06 12:47:27.42	209.72	12.84	-44.9	-47.6	23.1	6.07e-01	0	43	0	116916224	61	4926
2026-01-06 12:47:28.42	209.86	12.93	-45.0	-47.8	23.0	6.08e-01	0	42	0	119013376	61	4995
2026-01-06 12:47:29.42	209.99	13.01	-45.0	-47.7	23.0	6.05e-01	0	42	0	121110528	61	4958
2026-01-06 12:47:30.43	210.13	13.10	-45.0	-47.8	23.0	6.07e-01	0	42	0	122683392	61	4998
2026-01-06 12:47:31.43	210.27	13.19	-45.1	-47.8	22.9	6.06e-01	0	42	0	124780544	61	5010
2026-01-06 12:47:32.44	210.41	13.28	-44.9	-47.6	23.1	6.09e-01	0	42	0	126877696	61	4900
2026-01-06 12:47:33.44	210.55	13.36	-44.9	-47.5	23.2	6.07e-01	0	42	0	128450560	61	4865
2026-01-06 12:47:34.44	210.69	13.45	-44.8	-47.4	23.3	6.06e-01	0	42	0	130547712	61	4804
2026-01-06 12:47:35.44	210.83	13.54	-44.9	-47.5	23.2	6.07e-01	0	43	0	132120576	61	4857
2026-01-06 12:47:36.44	210.97	13.63	-44.9	-47.6	23.1	6.08e-01	0	42	0	134217728	61	4886
2026-01-06 12:47:37.45	211.12	13.72	-44.9	-47.6	23.1	6.08e-01	0	43	0	135790592	61	4920
2026-01-06 12:47:38.45	211.26	13.80	-44.9	-47.6	23.1	6.07e-01	0	43	0	137887744	61	4918
2026-01-06 12:47:39.46	211.41	13.89	-44.9	-47.6	23.1	6.08e-01	0	42	0	139984896	61	4914
2026-01-06 12:47:40.46	211.55	13.98	-44.9	-47.6	23.1	6.08e-01	0	42	0	141557760	61	4911
2026-01-06 12:47:41.46	211.70	14.07	-44.7	-47.4	23.3	6.08e-01	0	42	0	143654912	61	4772
2026-01-06 12:47:42.46	211.85	14.16	-44.8	-47.5	23.2	6.07e-01	0	43	0	145227776	61	4866
2026-01-06 12:47:43.47	212.00	14.25	-44.7	-47.4	23.3	6.08e-01	0	42	0	147324928	61	4798
2026-01-06 12:47:44.47	212.15	14.34	-44.7	-47.4	23.3	6.09e-01	0	43	0	148897792	61	4803
2026-01-06 12:47:45.47	212.30	14.43	-44.6	-47.3	23.4	6.05e-01	0	42	0	150994944	61	4758
2026-01-06 12:47:46.48	212.45	14.52	-44.6	-47.4	23.3	6.07e-01	0	43	0	153092096	61	4775
2026-01-06 12:47:47.48	212.60	14.61	-44.6	-47.3	23.4	6.07e-01	0	43	0	154664960	61	4741
2026-01-06 12:47:48.48	212.76	14.70	-44.6	-47.4	23.3	6.07e-01	0	42	0	156762112	61	4771
2026-01-06 12:47:49.48	212.91	14.79	-44.7	-47.5	23.3	6.06e-01	0	42	0	158334976	61	4816
2026-01-06 12:47:50.48	213.07	14.88	-44.7	-47.5	23.2	6.05e-01	0	42	0	160432128	61	4817
2026-01-06 12:47:51.49	213.22	14.98	-44.8	-47.6	23.2	6.07e-01	0	43	0	162529280	61	4878
2026-01-06 12:47:52.49	213.38	15.07	-44.7	-47.4	23.3	6.08e-01	0	42	0	164102144	61	4775
2026-01-06 12:47:53.50	213.54	15.16	-44.8	-47.4	23.3	6.06e-01	0	43	0	166199296	61	4813
2026-01-06 12:47:54.50	213.70	15.25	-44.7	-47.4	23.4	6.07e-01	0	42	0	167772160	61	4780
2026-01-06 12:47:55.50	213.86	15.34	-44.7	-47.3	23.4	6.06e-01	0	43	0	169869312	61	4743
2026-01-06 12:47:56.51	214.02	15.44	-44.8	-47.4	23.3	6.07e-01	0	43	0	171966464	61	4795
2026-01-06 12:47:57.51	214.19	15.53	-44.6	-47.3	23.4	6.07e-01	0	43	0	173539328	61	4706
2026-01-06 12:47:58.51	214.35	15.62	-44.6	-47.2	23.5	6.07e-01	0	42	0	175636480	61	4702
2026-01-06 12:47:59.51	214.51	15.71	-44.6	-47.2	23.5	6.06e-01	0	42	0	177209344	61	4658
2026-01-06 12:48:00.51	214.68	15.81	-44.6	-47.2	23.5	6.07e-01	0	43	0	179306496	61	4700
2026-01-06 12:48:01.52	214.85	15.90	-44.7	-47.3	23.4	6.06e-01	0	43	0	180879360	61	4731
2026-01-06 12:48:02.52	215.02	15.99	-44.6	-47.3	23.4	6.05e-01	0	43	0	182976512	61	4718
2026-01-06 12:48:03.52	215.18	16.09	-44.5	-47.1	23.6	6.06e-01	0	43	0	185073664	60	4926
2026-01-06 12:48:04.53	215.36	16.18	-44.5	-47.3	23.4	6.07e-01	0	42	0	186646528	60	5003
2026-01-06 12:48:05.53	215.53	16.27	-44.5	-47.2	23.5	6.08e-01	0	43	0	188743680	60	4976
2026-01-06 12:48:06.53	215.70	16.37	-44.5	-47.2	23.5	6.07e-01	0	43	0	190316544	60	4935
2026-01-06 12:48:07.54	215.87	16.46	-44.4	-47.1	23.6	6.06e-01	0	42	0	192413696	60	4913
2026-01-06 12:48:08.54	216.05	16.56	-44.3	-46.9	23.7	6.07e-01	0	43	0	194510848	60	4813
2026-01-06 12:48:09.55	216.23	16.65	-44.4	-47.0	23.7	6.05e-01	0	43	0	196083712	60	4860
2026-01-06 12:48:10.55	216.40	16.75	-44.4	-47.1	23.7	6.07e-01	0	43	0	198180864	60	4873
2026-01-06 12:48:11.56	216.58	16.84	-44.5	-47.2	23.5	6.06e-01	0	43	0	199753728	60	4932
2026-01-06 12:48:12.56	216.76	16.94	-44.4	-47.0	23.7	6.04e-01	0	43	0	201850880	60	4856
2026-01-06 12:48:13.56	216.94	17.03	-44.5	-47.1	23.6	6.06e-01	0	42	0	203948032	60	4904
2026-01-06 12:48:14.57	217.12	17.13	-44.4	-47.0	23.6	6.05e-01	0	43	0	205520896	60	4858
2026-01-06 12:48:15.57	217.31	17.22	-44.5	-47.1	23.6	6.06e-01	0	43	0	207618048	60	4891
2026-01-06 12:48:16.57	217.49	17.32	-44.5	-47.1	23.6	6.06e-01	0	43	0	209190912	60	4875
2026-01-06 12:48:17.58	217.68	17.41	-44.6	-47.2	23.5	6.09e-01	0	43	0	211288064	60	4943
2026-01-06 12:48:18.58	217.86	17.51	-44.5	-47.1	23.6	6.07e-01	0	43	0	213385216	60	4899
2026-01-06 12:48:19.58	218.05	17.61	-44.3	-46.8	23.8	6.06e-01	0	43	0	214958080	60	4758
2026-01-06 12:48:20.59	218.24	17.70	-44.3	-46.8	23.8	6.08e-01	0	43	0	217055232	60	4758
2026-01-06 12:48:21.59	218.43	17.80	-44.2	-46.7	23.9	6.06e-01	0	43	0	218628096	60	4703
2026-01-06 12:48:22.59	218.62	17.89	-44.4	-47.0	23.3	6.05e-01	0	43	0	220725248	60	4859
2026-01-06 12:48:23.60	218.82	17.99	-44.4	-47.1	23.6	6.06e-01	0	43	0	222298112	60	4882
2026-01-06 12:48:24.60	219.01	18.09	-44.3	-46.9	23.8	6.07e-01	0	43	0	224395264	60	4783
2026-01-06 12:48:25.60	219.21	18.18	-44.3	-46.9	23.7	6.07e-01	0	43	0	226492416	60	4807
2026-01-06 12:48:26.61	219.40	18.28	-44.3	-46.9	23.8	6.07e-01	0	42	0	228065280	60	4798
2026-01-06 12:48:27.61	219.60	18.38	-44.4	-47.0	23.7	6.06e-01	0	43	0	230162432	60	4841
2026-01-06 12:48:28.61	219.80	18.48	-44.4	-47.0	23.6	6.07e-01	0	43	0	231735296	60	4863
2026-01-06 12:48:29.62	220.00	18.57	-44.3	-46.9	23.8	6.06e-01	0	43	0	233832448	60	4810
2026-01-06 12:48:30.62	220.20	18.67	-44.3	-46.9	23.8	6.06e-01	0	43	0	235405312	60	4792
2026-01-06 12:48:31.62	220.41	18.77	-44.3	-46.9	23.7	6.06e-01	0	43	0	237502464	60	4798
2026-01-06 12:48:32.62	220.61	18.86	-44.4	-47.0	23.7	6.09e-01	0	43	0	239599616	60	4834
2026-01-06 12:48:33.63	220.82	18.96	-44.3	-46.9	23.8	6.07e-01	0	43	0	241172480	60	4789
2026-01-06 12:48:34.63	221.02	19.06	-44.3	-46.9	23.8	6.06e-01	0	43	0	243269632	60	4762
2026-01-06 12:48:35.64	221.23	19.16	-44.3	-46.8	23.9	6.07e-01	0	43	0	245366784	60	4740
2026-01-06 12:48:36.64	221.44	19.25	-44.4	-47.0	23.7	6.05e-01	0	43	0	246939648	60	4818
2026-01-06 12:48:37.64	221.66	19.35	-44.5	-47.1	23.6	6.08e-01	0	43	0	249036800	60	4902
2026-01-06 12:48:38.64	221.87	19.45	-44.4	-47.0	23.7	6.05e-01	0	43	0	250609664	60	4859
2026-01-06 12:48:39.65	222.08	19.55	-44.4	-47.0	23.6	6.06e-01	0	43	0	252706816	60	4863
2026-01-06 12:48:40.65	222.30	19.65	-44.3	-46.9	23.8	6.06e-01	0	43	0	254279680	60	4785
2026-01-06 12:48:41.65	222.52	19.74	-44.4	-47.0	23.7	6.06e-01	0	43	0	256376832	60	4840
2026-01-06 12:48:42.66	222.74	19.84	-44.4	-47.0	23.7	6.05e-01	0	43	0	258473984	60	4826
2026-01-06 12:48:43.66	222.96	19.94	-44.5	-47.0	23.6	6.07e-01	0	43	0	260046848	60	4867
2026-01-06 12:48:44.66	223.18	20.04	-44.5	-47.0	23.7	6.07e-01	0	43	0	262144000	60	4844
2026-01-06 12:48:45.66	223.40	20.13	-44.6	-47.2	23.5	6.05e-01	0	43	0	263716864	60	4941
2026-01-06 12:48:46.66	223.62	20.23	-44.5	-47.1	23.6	6.07e-01	0	43	0	265814016	60	4885
2026-01-06 12:48:47.67	223.85	20.33	-44.6	-47.2	23.5	6.06e-01	0	43	0	267386880	60	4977
2026-01-06 12:48:48.67	224.08	20.43	-44.6	-47.3	23.5	6.07e-01	0	43	0	269484032	60	4988
2026-01-06 12:48:49.68	224.31	20.53	-44.4	-47.0	23.7	6.08e-01	0	43	0	271581184	60	4834
2026-01-06 12:48:50.68	224.54	20.62	-44.6	-47.1	23.5	6.09e-01	0	43	0	273154048	60	4926
2026-01-06 12:48:51.68	224.77	20.72	-44.4	-47.0	23.7	6.06e-01	0	42	0	275251200	60	4843
2026-01-06 12:48:52.69	225.00	20.82	-44.4	-47.0	23.7	6.05e-01	0	43	0	277348352	60	4843
2026-01-06 12:48:53.69	225.24	20.92	-44.4	-47.0	23.7	6.08e-01	0	43	0	278921216	60	4834
2026-01-06 12:48:54.69	225.47	21.02	-44.5	-47.1	23.6	6.06e-01	0	43	0	281018368	60	4896
2026-01-06 12:48:55.69	225.71	21.11	-44.5	-47.1	23.6	6.07e-01	0	43	0	282591232	60	4923
2026-01-06 12:48:56.70	225.95	21.21	-44.5	-47.0	23.6	6.07e-01	0	43	0	284688384	60	4864
2026-01-06 12:48:57.70	226.19	21.31	-44.6	-47.2	23.5	6.07e-01	0	43	0	286261248	60	4951
2026-01-06 12:48:58.70	226.44	21.41	-44.6	-47.2	23.6	6.06e-01	0	43	0	288358400	60	4928
2026-01-06 12:48:59.71	226.68	21.50	-44.5	-47.1	23.6	6.06e-01	0	43	0	290455552	60	4897
2026-01-06 12:49:00.71	226.93	21.60	-44.5	-47.2	23.5	6.07e-01	0	43	0	292028416	60	4936
2026-01-06 12:49:01.71	227.17	21.70	-44.6	-47.2	23.5	6.07e-01	0	43	0	294125568	60	4962
2026-01-06 12:49:02.71	227.42	21.79	-44.5	-47.1	23.6	6.07e-01	0	43	0	295698432	60	4878
2026-01-06 12:49:03.71	227.67	21.89	-44.5	-47.0	23.7	6.08e-01	0	43	0	297795584	60	4870
2026-01-06 12:49:04.71	227.92	21.99	-44.6	-47.3	23.5	6.05e-01	0	43	0	299368448	60	4985
2026-01-06 12:49:05.72	228.18	22.08	-44.5	-47.1	23.6	6.08e-01	0	43	0	301465600	60	4905
2026-01-06 12:49:06.72	228.43	22.18	-44.4	-47.0	23.7	6.07e-01	0	43	0	303562752	60	4869
2026-01-06 12:49:07.72	228.69	22.28	-44.4	-47.0	23.6	6.06e-01	0	43	0	305135616	60	4854
2026-01-06 12:49:08.73	228.95	22.37	-44.5	-47.1	23.6	6.07e-01	0	43	0	307232768	60	4924
2026-01-06 12:49:09.73	229.21	22.47	-44.5	-47.2	23.6	6.06e-01	0	43	0	308805632	60	4943
2026-01-06 12:49:10.73	229.47	22.56	-44.5	-47.1	23.6	6.07e-01	0	43	0	310902784	60	4904
2026-01-06 12:49:11.74	229.74	22.66	-44.7	-47.4	23.4	6.09e-01	0	43	0	312999936	60	5066
2026-01-06 12:49:12.74	230.00	22.76	-44.8	-47.4	23.3	6.07e-01	0	43	0	314572800	60	5100
2026-01-06 12:49:13.74	230.27	22.85	-44.5	-47.2	23.6	6.07e-01	0	43	0	316669952	60	4941
2026-01-06 12:49:14.75	230.54	22.95	-44.6	-47.2	23.5	6.08e-01	0	43	0	318242816	60	4944
2026-01-06 12:49:15.75	230.81	23.04	-44.8	-47.4	23.3	6.08e-01	0	43	0	320339968	60	5085
2026-01-06 12:49:16.76	231.08	23.14	-44.6	-47.2	23.5	6.08e-01	0	43	0	322437120	60	4975
2026-01-06 12:49:17.76	231.36	23.23	-44.6	-47.2	23.5	6.06e-01	0	43	0	324009984	60	4969
2026-01-06 12:49:18.76	231.63	23.32	-44.7	-47.3	23.4	6.06e-01	0	43	0	326107136	60	5029
2026-01-06 12:49:19.77	231.91	23.42	-44.6	-47.2	23.5	6.07e-01	0	43	0	327680000	60	4977
2026-01-06 12:49:20.77	232.19	23.51	-44.6	-47.2	23.5	6.06e-01	0	43	0	329777152	60	4955
2026-01-06 12:49:21.77	232.47	23.60	-44.6	-47.2	23.5	6.07e-01	0	43	0	331350016	60	4961
2026-01-06 12:49:22.78	232.75	23.70	-44.5	-47.2	23.5	6.07e-01	0	43	0	333447168	60	4953
2026-01-06 12:49:23.78	233.04	23.79	-44.6	-47.3	23.4	6.07e-01	0	43	0	335544320	60	4998
2026-01-06 12:49:24.79	233.33	23.88	-44.5	-47.2	23.5	6.05e-01	0	43	0	337117184	60	4960
2026-01-06 12:49:25.79	233.61	23.97	-44.6	-47.3	23.5	6.08e-01	0	43	0	339214336	60	4998
2026-01-06 12:49:26.79	233.90	24.06	-44.7	-47.4	23.4	6.06e-01	0	43	0	340787200	60	5057
2026-01-06 12:49:27.80	234.19	24.15	-44.6	-47.3	23.5	6.06e-01	0	43	0	342884352	60	4988
2026-01-06 12:49:28.80	234.49	24.24	-44.6	-47.3	23.4	6.06e-01	0	43	0	344981504	60	5017
2026-01-06 12:49:29.80	234.78	24.33	-44.7	-47.4	23.3	6.07e-01	0	43	0	346554368	60	5098
2026-01-06 12:49:30.80	235.07	24.42	-44.7	-47.4	23.4	6.05e-01	0	43	0	348651520	60	5059
2026-01-06 12:49:31.81	235.37	24.51	-44.6	-47.3	23.5	6.08e-01	0	43	0	350224384	60	5005
2026-01-06 12:49:32.81	235.67	24.60	-44.7	-47.3	23.4	6.07e-01	0	43	0	352321536	60	5036
2026-01-06 12:49:33.81	235.97	24.69	-44.8	-47.5	23.3	6.07e-01	0	43	0	354418688	60	5122
2026-01-06 12:49:34.82	236.28	24.78	-44.8	-47.4	23.3	6.10e-01	0	43	0	355991552	60	5084
2026-01-06 12:49:35.82	236.58	24.86	-44.8	-47.4	23.3	6.07e-01	0	43	0	358088704	60	5093
2026-01-06 12:49:36.82	236.89	24.95	-44.7	-47.3	23.4	6.07e-01	0	43	0	359661568	60	5011
2026-01-06 12:49:37.83	237.20	25.04	-44.5	-47.1	23.6	6.06e-01	0	43	0	361758720	60	4910
2026-01-06 12:49:38.83	237.51	25.12	-44.6	-47.3	23.5	6.06e-01	0	43	0	363855872	60	4989
2026-01-06 12:49:39.83	237.82	25.21	-44.7	-47.4	23.3	6.06e-01	0	43	0	365428736	60	5089
2026-01-06 12:49:40.83	238.13	25.29	-44.8	-47.5	23.3	6.07e-01	0	43	0	367525888	60	5116
2026-01-06 12:49:41.84	238.45	25.38	-44.6	-47.2	23.5	6.06e-01	0	43	0	369098752	60	4981
2026-01-06 12:49:42.84	238.76	25.46	-44.6	-47.2	23.6	6.05e-01	0	43	0	371195904	60	4948
2026-01-06 12:49:43.84	239.08	25.54	-44.7	-47.4	23.4	6.08e-01	0	43	0	372768768	60	5053
2026-01-06 12:49:44.84	239.40	25.62	-44.8	-47.4	23.4	6.07e-01	0	43	0	374865920	60	5046
2026-01-06 12:49:45.85	239.73	25.71	-44.6	-47.2	23.5	6.06e-01	0	43	0	376963072	60	4959
2026-01-06 12:49:46.85	240.05	25.79	-44.7	-47.3	23.4	6.08e-01	0	43	0	378535936	60	5002
2026-01-06 12:49:47.86	240.38	25.87	-44.7	-47.4	23.4	6.08e-01	0	43	0	380633088	60	5058
2026-01-06 12:49:48.86	240.70	25.95	-44.6	-47.3	23.5	6.06e-01	0	43	0	382205952	60	4984
2026-01-06 12:49:49.86	241.03	26.02	-44.6	-47.2	23.6	6.06e-01	0	43	0	384303104	60	4951
2026-01-06 12:49:50.87	241.36	26.10	-44.8	-47.4	23.4	6.06e-01	0	43	0	385875968	60	5060
2026-01-06 12:49:51.87	241.69	26.18	-44.8	-47.4	23.4	6.07e-01	0	43	0	387973120	60	5069
2026-01-06 12:49:52.87	242.03	26.26	-44.8	-47.4	23.4	6.07e-01	0	43	0	390070272	60	5061
2026-01-06 12:49:53.87	242.36	26.33	-44.8	-47.4	23.3	6.06e-01	0	43	0	391643136	60	5087
2026-01-06 12:49:54.88	242.70	26.41	-44.9	-47.6	23.2	6.06e-01	0	43	0	393740288	60	5172
2026-01-06 12:49:55.88	243.04	26.48	-44.6	-47.2	23.6	6.08e-01	0	43	0	395837440	60	4942
2026-01-06 12:49:56.88	243.38	26.55	-44.6	-47.1	23.6	6.05e-01	0	43	0	397410304	60	4914
2026-01-06 12:49:57.89	243.72	26.63	-44.7	-47.3	23.4	6.08e-01	0	43	0	399507456	60	5017
2026-01-06 12:49:58.89	244.06	26.70	-44.7	-47.4	23.4	6.06e-01	0	43	0	401080320	60	5046
2026-01-06 12:49:59.89	244.40	26.77	-44.8	-47.4	23.3	6.08e-01	0	43	0	403177472	60	5098
2026-01-06 12:50:00.89	244.75	26.84	-44.6	-47.2	23.6	6.06e-01	0	43	0	404750336	60	4935
2026-01-06 12:50:01.90	245.10	26.91	-44.8	-47.4	23.3	6.06e-01	0	43	0	406847488	60	5087
2026-01-06 12:50:02.90	245.45	26.98	-44.6	-47.2	23.5	6.08e-01	0	43	0	408944640	60	4967
2026-01-06 12:50:03.91	245.80	27.05	-44.5	-47.1	23.6	6.05e-01	0	43	0	410517504	60	4900
2026-01-06 12:50:04.91	246.15	27.11	-44.6	-47.3	23.5	6.07e-01	0	43	0	412614656	60	5011
2026-01-06 12:50:05.91	246.51	27.18	-44.7	-47.3	23.4	6.07e-01	0	43	0	414187520	60	5023
2026-01-06 12:50:06.92	246.86	27.24	-44.7	-47.4	23.4	6.07e-01	0	43	0	416284672	60	5066
2026-01-06 12:50:07.92	247.22	27.30	-44.7	-47.3	23.5	6.09e-01	0	43	0	417857536	60	5008
2026-01-06 12:50:08.92	247.58	27.37	-44.7	-47.3	23.4	6.05e-01	0	43	0	419954688	60	5033
2026-01-06 12:50:09.92	247.94	27.43	-44.6	-47.3	23.5	6.07e-01	0	43	0	422051840	60	5013
2026-01-06 12:50:10.93	248.30	27.49	-44.6	-47.3	23.5	6.04e-01	0	43	0	423624704	60	5000
2026-01-06 12:50:11.93	248.66	27.55	-44.5	-47.2	23.5	6.05e-01	0	43	0	425721856	60	4974
2026-01-06 12:50:12.94	249.03	27.61	-44.6	-47.3	23.5	6.07e-01	0	43	0	427819008	60	4986
2026-01-06 12:50:13.94	249.39	27.66	-44.6	-47.3	23.5	6.07e-01	0	43	0	429391872	60	4998
2026-01-06 12:50:14.95	249.76	27.72	-44.6	-47.2	23.5	6.07e-01	0	43	0	431489024	60	4965
2026-01-06 12:50:15.95	250.13	27.78	-44.3	-46.9	23.8	6.09e-01	0	43	0	433061888	60	4780
2026-01-06 12:50:16.95	250.49	27.83	-44.3	-46.9	23.8	6.07e-01	0	43	0	435159040	60	4804
2026-01-06 12:50:17.96	250.87	27.88	-44.5	-47.1	23.6	6.08e-01	0	43	0	436731904	60	4924
2026-01-06 12:50:18.96	251.24	27.93	-44.4	-47.1	23.6	6.07e-01	0	43	0	438829056	60	4901
2026-01-06 12:50:19.96	251.61	27.98	-44.3	-46.9	23.8	6.06e-01	0	43	0	440926208	60	4795
2026-01-06 12:50:20.97	251.99	28.03	-44.4	-47.0	23.7	6.08e-01	0	43	0	442499072	60	4862
2026-01-06 12:50:21.97	252.36	28.08	-44.4	-47.1	23.6	6.07e-01	0	43	0	444596224	60	4919
2026-01-06 12:50:22.97	252.73	28.13	-44.4	-47.1	23.7	6.07e-01	0	43	0	446169088	60	4899
2026-01-06 12:50:23.98	253.11	28.18	-44.3	-47.1	23.7	6.06e-01	0	43	0	448266240	60	4877
2026-01-06 12:50:24.98	253.49	28.22	-44.3	-46.9	23.8	6.08e-01	0	43	0	450363392	60	4800
2026-01-06 12:50:25.98	253.87	28.26	-44.3	-47.0	23.7	6.06e-01	0	43	0	451936256	60	4833
2026-01-06 12:50:26.98	254.25	28.31	-44.2	-46.8	23.9	6.07e-01	0	43	0	454033408	60	4743
2026-01-06 12:50:27.99	254.63	28.35	-44.2	-46.9	23.8	6.07e-01	0	43	0	455606272	60	4807
2026-01-06 12:50:28.99	255.01	28.39	-44.2	-46.9	23.8	6.08e-01	0	43	0	457703424	60	4806
2026-01-06 12:50:30.00	255.40	28.42	-44.2	-46.9	23.8	6.06e-01	0	43	0	459276288	60	4808
2026-01-06 12:50:31.00	255.78	28.46	-44.1	-46.8	23.9	6.07e-01	0	43	0	461373440	60	4724
2026-01-06 12:50:32.00	256.17	28.50	-44.1	-46.8	23.9	6.07e-01	0	43	0	463470592	60	4743
2026-01-06 12:50:33.01	256.56	28.53	-44.0	-46.7	24.0	6.06e-01	0	43	0	465043456	60	4675
2026-01-06 12:50:34.01	256.94	28.56	-44.1	-46.8	23.9	6.08e-01	0	43	0	467140608	60	4720
2026-01-06 12:50:35.01	257.33	28.60	-44.3	-46.9	23.8	6.06e-01	0	43	0	468713472	60	4791
2026-01-06 12:50:36.02	257.72	28.63	-44.1	-46.6	24.0	6.08e-01	0	43	0	470810624	60	4648
2026-01-06 12:50:37.02	258.11	28.66	-44.0	-46.5	24.1	6.07e-01	0	43	0	472907776	60	4596
2026-01-06 12:50:38.02	258.50	28.68	-44.2	-46.8	23.9	6.07e-01	0	43	0	474480640	60	4732
2026-01-06 12:50:39.03	258.89	28.71	-44.1	-46.7	24.0	6.05e-01	0	43	0	476577792	60	4656
2026-01-06 12:50:40.03	259.28	28.74	-44.2	-46.8	23.9	6.08e-01	0	43	0	478150656	60	4723
2026-01-06 12:50:41.03	259.67	28.76	-44.2	-46.7	24.0	6.09e-01	0	43	0	480247808	60	4679
2026-01-06 12:50:42.04	260.06	28.78	-44.1	-46.7	24.0	6.10e-01	0	43	0	482344960	60	4665
2026-01-06 12:50:43.04	260.46	28.80	-44.1	-46.7	24.0	6.09e-01	0	43	0	483917824	60	4688
2026-01-06 12:50:44.04	260.85	28.82	-44.1	-46.7	24.0	6.05e-01	0	43	0	486014976	60	4667
2026-01-06 12:50:45.04	261.24	28.84	-44.0	-46.6	24.1	6.07e-01	0	43	0	487587840	60	4602
2026-01-06 12:50:46.05	261.64	28.86	-44.2	-46.8	23.9	6.09e-01	0	43	0	489684992	60	4708
2026-01-06 12:50:47.05	262.03	28.87	-44.1	-46.7	24.0	6.07e-01	0	43	0	491257856	60	4660
2026-01-06 12:50:48.05	262.42	28.89	-44.1	-46.7	24.1	6.07e-01	0	43	0	493355008	59	4935
2026-01-06 12:50:49.06	262.82	28.90	-44.2	-46.8	24.0	6.06e-01	0	43	0	495452160	59	5005
2026-01-06 12:50:50.06	263.22	28.91	-44.1	-46.8	24.0	6.06e-01	0	43	0	497025024	59	4987
2026-01-06 12:50:51.06	263.61	28.92	-44.0	-46.6	24.1	6.07e-01	0	43	0	499122176	59	4910
2026-01-06 12:50:52.06	264.01	28.93	-44.1	-46.7	24.0	6.07e-01	0	43	0	500695040	59	4945
2026-01-06 12:50:53.07	264.40	28.94	-44.2	-46.8	24.0	6.07e-01	0	43	0	502792192	59	5003
2026-01-06 12:50:54.07	264.80	28.94	-44.3	-46.9	23.9	6.08e-01	0	43	0	504365056	59	5056
2026-01-06 12:50:55.07	265.19	28.94	-44.2	-46.6	24.1	6.07e-01	0	43	0	506462208	59	4925
2026-01-06 12:50:56.08	265.59	28.95	-44.0	-46.5	24.3	6.07e-01	0	43	0	508559360	59	4854
2026-01-06 12:50:57.08	265.99	28.95	-44.3	-46.9	23.9	6.08e-01	0	43	0	510132224	59	5078
2026-01-06 12:50:58.08	266.38	28.95	-44.2	-46.8	24.0	6.06e-01	0	43	0	512229376	59	5011
2026-01-06 12:50:59.08	266.78	28.95	-44.2	-46.7	24.1	6.08e-01	0	43	0	514326528	59	4939
2026-01-06 12:51:00.08	267.17	28.94	-44.2	-46.7	24.1	6.06e-01	0	43	0	515899392	59	4964
2026-01-06 12:51:01.09	267.57	28.94	-44.2	-46.7	24.0	6.07e-01	0	43	0	517996544	59	4946
2026-01-06 12:51:02.09	267.97	28.93	-44.2	-46.7	24.0	6.05e-01	0	43	0	519569408	59	4957
2026-01-06 12:51:03.09	268.36	28.93	-44.2	-46.8	24.0	6.07e-01	0	43	0	521666560	59	4984
2026-01-06 12:51:04.10	268.76	28.92	-44.2	-46.7	24.0	6.08e-01	0	43	0	523239424	59	4965
2026-01-06 12:51:05.10	269.16	28.91	-44.2	-46.7	24.0	6.08e-01	0	43	0	525336576	59	4969
2026-01-06 12:51:06.10	269.55	28.89	-44.0	-46.5	24.3	6.05e-01	0	43	0	527433728	59	4837
2026-01-06 12:51:07.11	269.95	28.88	-44.3	-46.8	23.9	6.06e-01	0	43	0	529006592	59	5040
2026-01-06 12:51:08.11	270.34	28.87	-44.0	-46.5	24.2	6.05e-01	0	43	0	531103744	59	4843
2026-01-06 12:51:09.11	270.73	28.85	-44.0	-46.5	24.2	6.07e-01	0	43	0	532676608	59	4865
2026-01-06 12:51:10.12	271.13	28.83	-43.9	-46.4	24.3	6.03e-01	0	43	0	534773760	59	4777
2026-01-06 12:51:11.12	271.52	28.82	-44.0	-46.5	24.3	6.07e-01	0	43	0	536346624	59	4860
2026-01-06 12:51:12.12	271.91	28.80	-44.0	-46.5	24.2	6.05e-01	0	43	0	538443776	59	4855
2026-01-06 12:51:13.12	272.30	28.77	-43.9	-46.4	24.3	6.07e-01	0	43	0	540540928	59	4798
2026-01-06 12:51:14.13	272.70	28.75	-44.1	-46.6	24.2	6.08e-01	0	43	0	542113792	59	4891
2026-01-06 12:51:15.13	273.09	28.73	-44.1	-46.6	24.2	6.07e-01	0	43	0	544210944	59	4878
2026-01-06 12:51:16.13	273.48	28.70	-44.0	-46.4	24.3	6.07e-01	0	43	0	546308096	59	4804
2026-01-06 12:51:17.14	273.87	28.67	-44.1	-46.6	24.1	6.07e-01	0	43	0	547880960	59	4903
2026-01-06 12:51:18.14	274.26	28.65	-44.0	-46.5	24.3	6.07e-01	0	43	0	549978112	59	4822
2026-01-06 12:51:19.14	274.65	28.62	-44.0	-46.4	24.3	6.07e-01	0	43	0	551550976	59	4804
2026-01-06 12:51:20.14	275.03	28.59	-43.9	-46.4	24.4	6.09e-01	0	43	0	553648128	59	4764
2026-01-06 12:51:21.14	275.42	28.55	-44.0	-46.4	24.3	6.06e-01	0	43	0	555220992	59	4813
2026-01-06 12:51:22.15	275.81	28.52	-44.0	-46.5	24.2	6.08e-01	0	43	0	557318144	59	4855
2026-01-06 12:51:23.15	276.19	28.48	-43.8	-46.3	24.4	6.05e-01	0	43	0	559415296	59	4737
2026-01-06 12:51:24.15	276.57	28.45	-43.9	-46.3	24.4	6.07e-01	0	43	0	560988160	59	4759
2026-01-06 12:51:25.16	276.96	28.41	-44.0	-46.4	24.3	6.05e-01	0	43	0	563085312	59	4786
2026-01-06 12:51:26.16	277.34	28.37	-43.9	-46.4	24.4	6.08e-01	0	43	0	564658176	59	4769
2026-01-06 12:51:27.17	277.72	28.33	-44.1	-46.6	24.2	6.07e-01	0	43	0	566755328	59	4882
2026-01-06 12:51:28.17	278.10	28.29	-44.0	-46.5	24.3	6.07e-01	0	43	0	568328192	59	4836
2026-01-06 12:51:29.17	278.48	28.25	-44.2	-46.7	24.1	6.06e-01	0	43	0	570425344	59	4942
2026-01-06 12:51:30.18	278.86	28.20	-44.0	-46.4	24.3	6.06e-01	0	43	0	572522496	59	4808
2026-01-06 12:51:31.18	279.24	28.16	-44.1	-46.6	24.1	6.06e-01	0	43	0	574095360	59	4920
2026-01-06 12:51:32.18	279.61	28.11	-44.1	-46.5	24.2	6.05e-01	0	43	0	576192512	59	4852
2026-01-06 12:51:33.18	279.99	28.07	-44.0	-46.4	24.3	6.08e-01	0	43	0	578289664	59	4779
2026-01-06 12:51:34.19	280.36	28.02	-44.0	-46.4	24.4	6.07e-01	0	43	0	579862528	59	4778
2026-01-06 12:51:35.19	280.73	27.97	-44.0	-46.4	24.3	6.07e-01	0	43	0	581959680	59	4811
2026-01-06 12:51:36.20	281.11	27.92	-44.1	-46.5	24.2	6.07e-01	0	43	0	583532544	59	4844
2026-01-06 12:51:37.20	281.48	27.86	-44.1	-46.5	24.2	6.05e-01	0	43	0	585629696	59	4856
2026-01-06 12:51:38.20	281.84	27.81	-44.2	-46.7	24.0	6.05e-01	0	43	0	587202560	59	4929
2026-01-06 12:51:39.21	282.21	27.76	-44.1	-46.6	24.2	6.07e-01	0	43	0	589299712	59	4884
2026-01-06 12:51:40.21	282.58	27.70	-44.1	-46.5	24.2	6.06e-01	0	43	0	591396864	59	4854
2026-01-06 12:51:41.22	282.95	27.65	-44.2	-46.7	24.1	6.06e-01	0	43	0	592969728	59	4948
2026-01-06 12:51:42.22	283.31	27.59	-44.0	-46.4	24.3	6.06e-01	0	43	0	595066880	59	4795
2026-01-06 12:51:43.23	283.67	27.53	-44.1	-46.6	24.2	6.07e-01	0	43	0	596639744	59	4890
2026-01-06 12:51:44.23	284.03	27.47	-44.1	-46.6	24.1	6.07e-01	0	43	0	598736896	59	4916
2026-01-06 12:51:45.23	284.39	27.41	-43.9	-46.4	24.4	6.05e-01	0	43	0	600834048	59	4766
2026-01-06 12:51:46.23	284.75	27.35	-44.0	-46.4	24.3	6.07e-01	0	43	0	602406912	59	4808
2026-01-06 12:51:47.24	285.11	27.29	-44.0	-46.4	24.3	6.08e-01	0	43	0	604504064	59	4813
2026-01-06 12:51:48.24	285.46	27.22	-44.1	-46.6	24.2	6.06e-01	0	43	0	606076928	59	4878
2026-01-06 12:51:49.24	285.82	27.16	-44.0	-46.5	24.3	6.07e-01	0	43	0	608174080	59	4823
2026-01-06 12:51:50.25	286.17	27.09	-44.0	-46.4	24.3	6.06e-01	0	43	0	609746944	59	4795
2026-01-06 12:51:51.25	286.52	27.03	-44.0	-46.4	24.2	6.07e-01	0	43	0	611844096	59	4805
2026-01-06 12:51:52.26	286.87	26.96	-44.0	-46.4	24.3	6.07e-01	0	43	0	613941248	59	4799
2026-01-06 12:51:53.26	287.22	26.89	-44.1	-46.6	24.2	6.06e-01	0	43	0	615514112	59	4884
2026-01-06 12:51:54.26	287.56	26.82	-44.2	-46.7	24.1	6.06e-01	0	43	0	617611264	59	4929
2026-01-06 12:51:55.27	287.91	26.75	-44.0	-46.5	24.2	6.05e-01	0	43	0	619184128	59	4835
2026-01-06 12:51:56.27	288.25	26.68	-43.9	-46.3	24.3	6.07e-01	0	43	0	621281280	59	4754
2026-01-06 12:51:57.27	288.59	26.61	-43.9	-46.3	24.4	6.08e-01	0	43	0	623378432	59	4718
2026-01-06 12:51:58.28	288.94	26.54	-44.0	-46.5	24.3	6.07e-01	0	43	0	624951296	59	4821
2026-01-06 12:51:59.28	289.27	26.46	-44.1	-46.6	24.2	6.08e-01	0	43	0	627048448	59	4872
2026-01-06 12:52:00.29	289.61	26.39	-44.2	-46.7	24.1	6.08e-01	0	43	0	628621312	59	4931
2026-01-06 12:52:01.29	289.95	26.31	-44.3	-46.7	24.0	6.08e-01	0	43	0	630718464	59	4983
2026-01-06 12:52:02.29	290.28	26.24	-44.2	-46.7	24.0	6.07e-01	0	43	0	632815616	59	4962
2026-01-06 12:52:03.29	290.61	26.16	-44.0	-46.5	24.2	6.06e-01	0	43	0	634388480	59	4843
2026-01-06 12:52:04.30	290.94	26.08	-44.1	-46.7	24.1	6.07e-01	0	43	0	636485632	59	4941
2026-01-06 12:52:05.30	291.27	26.01	-44.1	-46.7	24.0	6.06e-01	0	43	0	638058496	59	4971
2026-01-06 12:52:06.31	291.60	25.93	-43.9	-46.4	24.3	6.07e-01	0	43	0	640155648	59	4794
2026-01-06 12:52:07.31	291.92	25.85	-44.1	-46.6	24.1	6.06e-01	0	43	0	641728512	59	4911
2026-01-06 12:52:08.31	292.24	25.77	-44.1	-46.6	24.1	6.05e-01	0	43	0	643825664	59	4918
2026-01-06 12:52:09.31	292.57	25.69	-44.0	-46.5	24.1	6.06e-01	0	43	0	645922816	59	4859
2026-01-06 12:52:10.32	292.89	25.61	-44.1	-46.6	24.1	6.06e-01	0	43	0	647495680	59	4907
2026-01-06 12:52:11.32	293.20	25.53	-44.1	-46.6	24.2	6.08e-01	0	43	0	649592832	59	4891
2026-01-06 12:52:12.32	293.52	25.44	-44.1	-46.6	24.1	6.04e-01	0	43	0	651165696	59	4908
2026-01-06 12:52:13.33	293.84	25.36	-44.1	-46.6	24.2	6.08e-01	0	43	0	653262848	59	4884
2026-01-06 12:52:14.33	294.15	25.28	-44.1	-46.6	24.1	6.08e-01	0	43	0	654835712	59	4883
2026-01-06 12:52:15.33	294.46	25.19	-44.1	-46.6	24.1	6.04e-01	0	43	0	656932864	59	4880
2026-01-06 12:52:16.33	294.77	25.11	-44.1	-46.5	24.1	6.06e-01	0	43	0	659030016	59	4870
2026-01-06 12:52:17.34	295.08	25.02	-44.1	-46.7	24.1	6.05e-01	0	43	0	660602880	59	4936
2026-01-06 12:52:18.34	295.39	24.94	-44.1	-46.6	24.1	6.05e-01	0	43	0	662700032	59	4888
2026-01-06 12:52:19.34	295.69	24.85	-43.9	-46.4	24.3	6.04e-01	0	43	0	664797184	59	4789
2026-01-06 12:52:20.35	295.99	24.76	-44.1	-46.6	24.1	6.07e-01	0	43	0	666370048	59	4899
2026-01-06 12:52:21.35	296.29	24.68	-44.1	-46.5	24.1	6.07e-01	0	43	0	668467200	59	4852
2026-01-06 12:52:22.36	296.60	24.59	-44.2	-46.7	24.1	6.06e-01	0	43	0	670040064	59	4952
2026-01-06 12:52:23.36	296.89	24.50	-44.3	-46.8	23.9	6.05e-01	0	43	0	672137216	59	5018
2026-01-06 12:52:24.36	297.19	24.41	-44.4	-46.9	23.8	6.05e-01	0	43	0	673710080	59	5065
2026-01-06 12:52:25.37	297.48	24.32	-44.4	-46.9	23.8	6.09e-01	0	43	0	675807232	59	5095
2026-01-06 12:52:26.37	297.78	24.23	-44.0	-46.5	24.2	6.07e-01	0	43	0	677904384	59	4867
2026-01-06 12:52:27.37	298.07	24.14	-44.0	-46.5	24.2	6.07e-01	0	43	0	679477248	59	4852
2026-01-06 12:52:28.38	298.36	24.05	-43.9	-46.4	24.3	6.06e-01	0	43	0	681574400	59	4797
2026-01-06 12:52:29.38	298.64	23.96	-44.0	-46.5	24.2	6.06e-01	0	43	0	683147264	59	4868
2026-01-06 12:52:30.38	298.93	23.87	-44.2	-46.7	24.0	6.05e-01	0	43	0	685244416	59	4978
2026-01-06 12:52:31.39	299.22	23.78	-44.4	-46.9	23.8	6.07e-01	0	43	0	687341568	59	5082
2026-01-06 12:52:32.39	299.50	23.69	-44.3	-46.8	23.9	6.07e-01	0	43	0	688914432	59	5020
2026-01-06 12:52:33.39	299.78	23.60	-44.2	-46.7	24.1	6.06e-01	0	43	0	691011584	59	4928
2026-01-06 12:52:34.40	300.06	23.50	-44.2	-46.7	24.1	6.06e-01	0	43	0	692584448	59	4936
2026-01-06 12:52:35.40	300.33	23.41	-44.1	-46.6	24.2	6.07e-01	0	43	0	694681600	59	4872
2026-01-06 12:52:36.41	300.61	23.32	-44.1	-46.6	24.2	6.05e-01	0	43	0	696778752	59	4871
2026-01-06 12:52:37.41	300.88	23.22	-44.3	-46.8	24.0	6.04e-01	0	43	0	698351616	59	5001
2026-01-06 12:52:38.41	301.16	23.13	-44.1	-46.6	24.1	6.03e-01	0	43	0	700448768	59	4886
2026-01-06 12:52:39.42	301.43	23.04	-44.1	-46.5	24.1	6.06e-01	0	43	0	702021632	59	4870
2026-01-06 12:52:40.42	301.70	22.94	-44.0	-46.4	24.3	6.05e-01	0	43	0	704118784	59	4811
2026-01-06 12:52:41.42	301.96	22.85	-44.2	-46.7	23.9	6.04e-01	0	43	0	705691648	59	4958
2026-01-06 12:52:42.43	302.23	22.75	-44.3	-46.8	23.9	6.06e-01	0	43	0	707788800	59	4999
2026-01-06 12:52:43.43	302.49	22.66	-44.3	-46.8	23.9	6.07e-01	0	43	0	709885952	59	5000
2026-01-06 12:52:44.43	302.75	22.56	-44.2	-46.6	24.1	6.06e-01	0	43	0	711458816	59	4921
2026-01-06 12:52:45.44	303.02	22.47	-44.0	-46.5	24.2	6.06e-01	0	43	0	713555968	59	4820
2026-01-06 12:52:46.44	303.27	22.37	-44.0	-46.4	24.3	6.08e-01	0	43	0	715128832	59	4794
2026-01-06 12:52:47.44	303.53	22.28	-44.0	-46.5	24.2	6.07e-01	0	43	0	717225984	59	4838
2026-01-06 12:52:48.44	303.79	22.18	-44.2	-46.7	24.0	6.08e-01	0	43	0	719323136	59	4950
2026-01-06 12:52:49.45	304.04	22.09	-44.1	-46.6	24.1	6.06e-01	0	43	0	720896000	59	4914
2026-01-06 12:52:50.45	304.29	21.99	-44.0	-46.5	24.2	6.07e-01	0	43	0	722993152	59	4846
2026-01-06 12:52:51.45	304.54	21.90	-44.1	-46.5	24.2	6.05e-01	0	43	0	724566016	59	4855
2026-01-06 12:52:52.46	304.79	21.80	-44.1	-46.5	24.1	6.08e-01	0	43	0	726663168	59	4867
2026-01-06 12:52:53.46	305.04	21.70	-44.2	-46.8	23.9	6.08e-01	0	43	0	728236032	59	4989
2026-01-06 12:52:54.46	305.29	21.61	-44.1	-46.7	24.0	6.06e-01	0	43	0	730333184	59	4949
2026-01-06 12:52:55.47	305.53	21.51	-44.1	-46.7	24.0	6.08e-01	0	43	0	732430336	59	4953
2026-01-06 12:52:56.47	305.78	21.41	-44.0	-46.5	24.1	6.07e-01	0	43	0	734003200	59	4864
2026-01-06 12:52:57.47	306.02	21.32	-44.0	-46.5	24.2	6.03e-01	0	43	0	736100352	59	4825
2026-01-06 12:52:58.48	306.26	21.22	-44.0	-46.4	24.2	6.07e-01	0	43	0	738197504	59	4812
2026-01-06 12:52:59.48	306.49	21.12	-44.2	-46.7	24.0	6.08e-01	0	43	0	739770368	59	4974
2026-01-06 12:53:00.48	306.73	21.03	-44.1	-46.7	24.0	6.08e-01	0	43	0	741867520	59	4930
2026-01-06 12:53:01.49	306.97	20.93	-44.2	-46.8	23.9	6.07e-01	0	43	0	743440384	59	5003
2026-01-06 12:53:02.49	307.20	20.83	-44.2	-46.8	23.8	6.06e-01	0	43	0	745537536	59	5001
2026-01-06 12:53:03.49	307.43	20.74	-44.4	-47.0	23.7	6.06e-01	0	43	0	747110400	59	5111
2026-01-06 12:53:04.50	307.66	20.64	-44.0	-46.5	24.2	6.07e-01	0	43	0	749207552	59	4824
2026-01-06 12:53:05.50	307.89	20.54	-44.0	-46.5	24.1	6.06e-01	0	43	0	751304704	59	4867
2026-01-06 12:53:06.50	308.12	20.44	-44.1	-46.6	24.0	6.09e-01	0	43	0	752877568	59	4920
2026-01-06 12:53:07.50	308.34	20.35	-43.9	-46.4	24.2	6.07e-01	0	43	0	754974720	59	4796
2026-01-06 12:53:08.50	308.57	20.25	-43.8	-46.3	24.4	6.07e-01	0	43	0	756547584	59	4706
2026-01-06 12:53:09.51	308.79	20.15	-43.9	-46.4	24.3	6.06e-01	0	43	0	758644736	59	4763
2026-01-06 12:53:10.51	309.01	20.06	-44.1	-46.5	24.1	6.06e-01	0	43	0	760217600	59	4862
2026-01-06 12:53:11.51	309.23	19.96	-43.9	-46.4	24.2	6.05e-01	0	43	0	762314752	59	4795
2026-01-06 12:53:12.52	309.45	19.86	-43.9	-46.5	24.2	6.08e-01	0	43	0	764411904	59	4829
2026-01-06 12:53:13.52	309.67	19.76	-43.8	-46.4	24.3	6.08e-01	0	43	0	765984768	59	4778
2026-01-06 12:53:14.52	309.89	19.67	-43.6	-46.3	24.3	6.07e-01	0	43	0	768081920	59	4711
2026-01-06 12:53:15.53	310.10	19.57	-43.6	-46.3	24.3	6.06e-01	0	43	0	770179072	59	4722
2026-01-06 12:53:16.53	310.31	19.47	-43.6	-46.3	24.3	6.07e-01	0	43	0	771751936	59	4753
2026-01-06 12:53:17.53	310.53	19.38	-43.7	-46.5	24.2	6.08e-01	0	43	0	773849088	59	4824
2026-01-06 12:53:18.54	310.74	19.28	-43.7	-46.4	24.2	6.04e-01	0	43	0	775421952	59	4811
2026-01-06 12:53:19.54	310.95	19.18	-43.6	-46.3	24.3	6.07e-01	0	43	0	777519104	59	4729
2026-01-06 12:53:20.54	311.15	19.09	-43.7	-46.3	24.3	6.07e-01	0	43	0	779091968	59	4722
2026-01-06 12:53:21.54	311.36	18.99	-43.7	-46.3	24.3	6.06e-01	0	43	0	781189120	59	4738
2026-01-06 12:53:22.55	311.56	18.89	-43.8	-46.4	24.3	6.05e-01	0	43	0	783286272	59	4776
2026-01-06 12:53:23.55	311.77	18.80	-44.1	-46.6	24.1	6.06e-01	0	43	0	784859136	59	4900
2026-01-06 12:53:24.55	311.97	18.70	-44.1	-46.6	24.1	6.07e-01	0	43	0	786956288	59	4896
2026-01-06 12:53:25.55	312.17	18.60	-43.9	-46.4	24.2	6.05e-01	0	43	0	788529152	59	4770
2026-01-06 12:53:26.55	312.37	18.51	-43.9	-46.4	24.2	6.05e-01	0	43	0	790626304	59	4798
2026-01-06 12:53:27.56	312.57	18.41	-43.9	-46.3	24.3	6.07e-01	0	43	0	792199168	59	4759
2026-01-06 12:53:28.56	312.76	18.32	-43.8	-46.3	24.3	6.10e-01	0	43	0	794296320	59	4734
2026-01-06 12:53:29.56	312.96	18.22	-43.8	-46.3	24.3	6.05e-01	0	43	0	796393472	59	4746
2026-01-06 12:53:30.57	313.16	18.12	-43.8	-46.3	24.3	6.05e-01	0	43	0	797966336	59	4706
2026-01-06 12:53:31.57	313.35	18.03	-43.7	-46.2	24.3	6.07e-01	0	43	0	800063488	59	4697
2026-01-06 12:53:32.57	313.54	17.93	-43.7	-46.3	24.3	6.08e-01	0	43	0	801636352	59	4718
2026-01-06 12:53:33.57	313.73	17.84	-43.7	-46.3	24.3	6.07e-01	0	43	0	803733504	59	4729
2026-01-06 12:53:34.57	313.92	17.74	-43.6	-46.3	24.3	6.05e-01	0	43	0	805306368	59	4723
2026-01-06 12:53:35.57	314.11	17.65	-43.6	-46.3	24.3	6.07e-01	0	43	0	807403520	59	4736
2026-01-06 12:53:36.57	314.29	17.55	-43.7	-46.4	24.2	6.07e-01	0	43	0	809500672	59	4801
2026-01-06 12:53:37.57	314.48	17.46	-43.7	-46.4	24.2	6.08e-01	0	43	0	811073536	59	4777
2026-01-06 12:53:38.57	314.66	17.36	-43.8	-46.5	24.1	6.06e-01	0	43	0	813170688	59	4825
2026-01-06 12:53:39.58	314.85	17.27	-43.8	-46.4	24.1	6.06e-01	0	43	0	814743552	59	4809
2026-01-06 12:53:40.58	315.03	17.17	-43.7	-46.3	24.3	6.07e-01	0	43	0	816840704	59	4742
2026-01-06 12:53:41.58	315.21	17.08	-43.8	-46.4	24.1	6.06e-01	0	43	0	818937856	59	4814
2026-01-06 12:53:42.59	315.39	16.98	-43.8	-46.3	24.2	6.06e-01	0	43	0	820510720	59	4756
2026-01-06 12:53:43.59	315.57	16.89	-43.7	-46.3	24.3	6.07e-01	0	43	0	822607872	59	4722
2026-01-06 12:53:44.59	315.75	16.80	-43.8	-46.4	24.2	6.07e-01	0	43	0	824180736	59	4760
2026-01-06 12:53:45.59	315.92	16.70	-43.9	-46.4	24.2	6.09e-01	0	43	0	826277888	59	4809
2026-01-06 12:53:46.60	316.10	16.61	-43.9	-46.4	24.2	6.05e-01	0	43	0	828375040	59	4766
2026-01-06 12:53:47.60	316.27	16.52	-43.8	-46.4	24.2	6.07e-01	0	43	0	829947904	59	4760
2026-01-06 12:53:48.60	316.44	16.42	-43.7	-46.3	24.3	6.08e-01	0	43	0	832045056	59	4713
2026-01-06 12:53:49.61	316.62	16.33	-43.8	-46.4	24.1	6.06e-01	0	43	0	833617920	59	4792
2026-01-06 12:53:50.61	316.79	16.24	-43.7	-46.4	24.2	6.04e-01	0	43	0	835715072	59	4787
2026-01-06 12:53:51.61	316.96	16.14	-43.7	-46.4	24.2	6.05e-01	0	43	0	837287936	59	4760
2026-01-06 12:53:52.61	317.12	16.05	-43.7	-46.4	24.2	6.08e-01	0	43	0	839385088	59	4764
2026-01-06 12:53:53.61	317.29	15.96	-43.8	-46.4	24.2	6.08e-01	0	43	0	841482240	59	4770
2026-01-06 12:53:54.62	317.46	15.87	-43.7	-46.3	24.3	6.07e-01	0	43	0	843055104	59	4725
2026-01-06 12:53:55.62	317.62	15.77	-43.8	-46.4	24.2	6.06e-01	0	43	0	845152256	59	4768
2026-01-06 12:53:56.62	317.79	15.68	-43.9	-46.5	24.1	6.06e-01	0	43	0	846725120	59	4845
2026-01-06 12:53:57.62	317.95	15.59	-44.0	-46.6	24.0	6.07e-01	0	43	0	848822272	59	4900
2026-01-06 12:53:58.62	318.11	15.50	-44.1	-46.7	23.3	6.06e-01	0	43	0	850395136	59	4953
2026-01-06 12:53:59.63	318.27	15.41	-43.9	-46.5	24.0	6.09e-01	0	43	0	852492288	59	4866
2026-01-06 12:54:00.63	318.43	15.32	-43.7	-46.3	24.2	6.07e-01	0	43	0	854589440	59	4707
2026-01-06 12:54:01.63	318.59	15.23	-43.7	-46.3	24.2	6.06e-01	0	43	0	856162304	59	4749
2026-01-06 12:54:02.63	318.75	15.13	-43.7	-46.4	24.2	6.07e-01	0	43	0	858259456	59	4767
2026-01-06 12:54:03.63	318.91	15.04	-43.7	-46.4	24.1	6.06e-01	0	43	0	860356608	59	4802
2026-01-06 12:54:04.64	319.06	14.95	-43.8	-46.6	24.0	6.08e-01	0	43	0	861929472	59	4892
2026-01-06 12:54:05.64	319.22	14.86	-43.7	-46.5	24.0	6.08e-01	0	43	0	864026624	59	4825
2026-01-06 12:54:06.64	319.37	14.77	-43.7	-46.5	24.1	6.08e-01	0	43	0	865599488	59	4827
2026-01-06 12:54:07.64	319.53	14.68	-43.8	-46.5	24.0	6.06e-01	0	43	0	867696640	59	4837
2026-01-06 12:54:08.65	319.68	14.59	-43.8	-46.6	24.0	6.08e-01	0	43	0	869269504	59	4880
2026-01-06 12:54:09.65	319.83	14.50	-43.9	-46.6	23.9	6.10e-01	0	43	0	871366656	59	4897
2026-01-06 12:54:10.65	319.98	14.41	-43.8	-46.4	24.1	6.07e-01	0	43	0	873463808	59	4802
2026-01-06 12:54:11.65	320.13	14.33	-44.0	-46.6	23.9	6.06e-01	0	43	0	875036672	59	4913
2026-01-06 12:54:12.66	320.28	14.24	-43.9	-46.5	24.0	6.01e-01	0	43	0	877133824	59	4865
2026-01-06 12:54:13.66	320.43	14.15	-43.9	-46.6	23.9	6.02e-01	0	43	0	878706688	59	4901
2026-01-06 12:54:14.66	320.57	14.06	-43.9	-46.6	23.9	6.04e-01	0	43	0	880803840	59	4914
2026-01-06 12:54:15.66	320.72	13.97	-43.6	-46.4	24.1	6.03e-01	0	43	0	882376704	59	4774
2026-01-06 12:54:16.66	320.86	13.88	-43.6	-46.4	24.1	6.03e-01	0	43	0	884473856	59	4766
2026-01-06 12:54:17.66	321.01	13.80	-43.6	-46.4	24.0	6.04e-01	0	43	0	886571008	59	4803
2026-01-06 12:54:18.67	321.15	13.71	-43.5	-46.4	24.1	6.05e-01	0	43	0	888143872	59	4761
2026-01-06 12:54:19.67	321.29	13.62	-43.7	-46.6	23.9	6.03e-01	0	43	0	890241024	59	4879
2026-01-06 12:54:20.67	321.43	13.53	-43.7	-46.6	24.0	6.05e-01	0	43	0	891813888	59	4878
2026-01-06 12:54:21.68	321.57	13.44	-43.8	-46.7	23.8	6.05e-01	0	43	0	893911040	59	4965
2026-01-06 12:54:22.68	321.71	13.36	-44.0	-47.0	23.6	6.03e-01	0	43	0	896008192	59	5138
2026-01-06 12:54:23.68	321.85	13.27	-43.9	-46.8	23.7	6.05e-01	0	43	0	897581056	59	5035
2026-01-06 12:54:24.69	321.99	13.18	-44.2	-47.1	23.4	6.04e-01	0	43	0	899678208	59	5161
2026-01-06 12:54:25.69	322.13	13.10	-44.2	-46.9	23.6	6.04e-01	0	43	0	901251072	59	5100
2026-01-06 12:54:26.69	322.26	13.01	-44.1	-46.8	23.7	6.06e-01	0	43	0	903348224	59	4985
2026-01-06 12:54:27.69	322.40	12.93	-44.2	-46.9	23.6	6.03e-01	0	43	0	905445376	59	5071
2026-01-06 12:54:28.70	322.53	12.84	-44.3	-46.9	23.6	6.04e-01	0	43	0	907018240	59	5089
2026-01-06 12:54:29.70	322.67	12.75	-44.4	-47.0	23.5	6.03e-01	0	43	0	909115392	59	5106
2026-01-06 12:54:30.70	322.80	12.67	-44.4	-47.0	23.5	6.03e-01	0	43	0	910688256	59	5143
2026-01-06 12:54:31.70	322.93	12.58	-44.4	-47.0	23.5	6.04e-01	0	43	0	912785408	59	5158
2026-01-06 12:54:32.70	323.06	12.50	-44.2	-46.9	23.5	6.05e-01	0	43	0	914358272	59	5083
2026-01-06 12:54:33.71	323.20	12.41	-44.1	-46.9	23.6	6.06e-01	0	43	0	916455424	59	5079
2026-01-06 12:54:34.71	323.32	12.33	-43.9	-46.8	23.6	6.02e-01	0	43	0	918552576	59	5040
2026-01-06 12:54:35.71	323.45	12.25	-43.9	-46.9	23.6	6.01e-01	0	43	0	920125440	59	5064
2026-01-06 12:54:36.72	323.58	12.16	-43.8	-46.8	23.6	6.02e-01	0	43	0	922222592	59	5033
2026-01-06 12:54:37.72	323.71	12.08	-43.8	-46.9	23.5	6.05e-01	0	43	0	923795456	59	5089
2026-01-06 12:54:38.72	323.84	11.99	-43.8	-47.0	23.5	6.02e-01	0	43	0	925892608	59	5105
2026-01-06 12:54:39.72	323.96	11.91	-43.8	-46.9	23.5	6.04e-01	0	43	0	927465472	59	5068
2026-01-06 12:54:40.72	324.09	11.83	-43.8	-47.0	23.5	6.03e-01	0	43	0	929562624	59	5111
2026-01-06 12:54:41.72	324.21	11.75	-43.8	-46.9	23.5	6.03e-01	0	43	0	931659776	59	5085
2026-01-06 12:54:42.72	324.34	11.66	-43.9	-47.0	23.5	6.03e-01	0	43	0	933232640	59	5125
2026-01-06 12:54:43.73	324.46	11.58	-43.9	-47.0	23.4	6.03e-01	0	43	0	935329792	59	5154
2026-01-06 12:54:44.73	324.58	11.50	-43.8	-46.9	23.5	6.01e-01	0	43	0	937426944	59	5085
2026-01-06 12:54:45.73	324.70	11.41	-43.9	-47.1	23.4	6.02e-01	0	43	0	938999808	59	5176
2026-01-06 12:54:46.73	324.82	11.33	-43.9	-47.2	23.3	6.03e-01	0	43	0	941096960	59	5229
2026-01-06 12:54:47.74	324.95	11.25	-44.0	-47.3	23.2	6.03e-01	0	43	0	942669824	59	5294
2026-01-06 12:54:48.74	325.06	11.17	-43.9	-47.3	23.2	6.04e-01	0	43	0	944766976	59	5296
2026-01-06 12:54:49.74	325.18	11.09	-43.9	-47.3	23.2	6.05e-01	0	43	0	946339840	59	5282
2026-01-06 12:54:50.74	325.30	11.01	-43.9	-47.3	23.2	6.03e-01	0	43	0	948436992	59	5281
2026-01-06 12:54:51.74	325.42	10.93	-43.8	-47.2	23.3	6.03e-01	0	43	0	950534144	59	5249
2026-01-06 12:54:52.75	325.54	10.84	-43.9	-47.3	23.2	6.03e-01	0	43	0	952107008	59	5308
2026-01-06 12:54:53.75	325.65	10.76	-43.9	-47.3	23.2	6.04e-01	0	43	0	954204160	59	5282
2026-01-06 12:54:54.75	325.77	10.68	-44.0	-47.3	23.1	6.03e-01	0	43	0	955777024	59	5315
2026-01-06 12:54:55.75	325.88	10.60	-44.1	-47.4	23.1	6.03e-01	0	43	0	957874176	59	5372
2026-01-06 12:54:56.76	326.00	10.52	-44.1	-47.3	23.1	6.03e-01	0	43	0	959447040	59	5321
2026-01-06 12:54:57.76	326.11	10.44	-44.1	-47.2	23.2	6.06e-01	0	43	0	961544192	59	5277
2026-01-06 12:54:58.76	326.22	10.36	-44.2	-47.4	23.1	6.02e-01	0	43	0	963641344	59	5356
2026-01-06 12:54:59.76	326.34	10.28	-44.2	-47.3	23.1	6.03e-01	0	43	0	965214208	59	5305
2026-01-06 12:55:00.77	326.45	10.20	-44.3	-47.4	23.1	6.01e-01	0	43	0	967311360	59	5351
2026-01-06 12:55:01.77	326.56	10.13	-44.5	-47.5	23.0	6.05e-01	0	43	0	968884224	59	5440
2026-01-06 12:55:02.77	326.67	10.05	-44.6	-47.6	22.9	6.02e-01	0	43	0	970981376	59	5466
2026-01-06 12:55:03.77	326.78	9.97	-44.6	-47.5	22.9	6.03e-01	0	43	0	972554240	60	5130
2026-01-06 12:55:04.78	326.89	9.89	-44.5	-47.3	23.0	6.04e-01	0	43	0	974651392	60	5017
2026-01-06 12:55:05.78	327.00	9.81	-44.6	-47.4	22.9	6.05e-01	0	43	0	976748544	60	5093
2026-01-06 12:55:06.78	327.10	9.73	-44.5	-47.3	23.0	6.02e-01	0	43	0	978321408	60	5013
2026-01-06 12:55:07.78	327.21	9.66	-44.7	-47.7	22.7	6.01e-01	0	43	0	980418560	60	5230
2026-01-06 12:55:08.79	327.32	9.58	-44.8	-47.8	22.6	6.04e-01	0	43	0	982515712	60	5281
2026-01-06 12:55:09.78	327.42	9.50	-44.8	-47.7	22.7	6.04e-01	0	43	0	984088576	60	5247
2026-01-06 12:55:10.79	327.53	9.42	-44.6	-47.5	22.8	6.04e-01	0	43	0	986185728	60	5128
2026-01-06 12:55:11.79	327.64	9.35	-44.6	-47.6	22.7	6.01e-01	0	43	0	987758592	60	5194
2026-01-06 12:55:12.79	327.74	9.27	-44.5	-47.5	22.8	6.05e-01	0	43	0	989855744	60	5127
2026-01-06 12:55:13.79	327.84	9.19	-44.4	-47.4	22.9	6.03e-01	0	43	0	991428608	60	5090
2026-01-06 12:55:14.80	327.95	9.12	-44.7	-47.7	22.6	6.03e-01	0	43	0	993525760	60	5259
2026-01-06 12:55:15.80	328.05	9.04	-44.7	-47.7	22.6	6.06e-01	0	43	0	995622912	60	5242
2026-01-06 12:55:16.81	328.15	8.96	-49.6	-57.3	14.9	6.04e-01	0	43	0	997195776	69	9397
2026-01-06 12:55:17.81	328.25	8.89	-48.8	-71.1	3.8	7.48e-01	0	43	104	997720064	69	45983
2026-01-06 12:55:18.81	328.36	8.81	-51.4	-71.7	3.8	7.45e-01	0	43	104	997720064	73	39165
2026-01-06 12:55:19.82	328.46	8.73	-51.4	-72.0	3.8	7.45e-01	0	43	104	997720064	73	40763
2026-01-06 12:55:20.82	328.56	8.66	-51.0	-72.1	3.9	7.45e-01	0	43	104	997720064	72	43487
2026-01-06 12:55:21.82	328.66	8.58	-50.9	-72.1	3.8	7.46e-01	0	43	104	997720064	73	41335
2026-01-06 12:55:22.82	328.75	8.51	-51.5	-72.1	3.8	7.44e-01	0	43	104	997720064	73	41364
2026-01-06 12:55:23.83	328.85	8.43	-51.3	-72.5	3.9	7.45e-01	0	43	104	997720064	73	43299
2026-01-06 12:55:24.83	328.95	8.36	-51.5	-72.2	3.8	7.49e-01	0	43	104	997720064	74	39499
2026-01-06 12:55:25.83	329.05	8.28	-51.9	-72.3	3.8	7.43e-01	0	43	104	997720064	74	39735
2026-01-06 12:55:26.83	329.15	8.21	-51.7	-72.3	3.8	7.48e-01	0	43	104	997720064	74	39616
2026-01-06 12:55:27.84	329.24	8.14	-51.9	-72.3	3.8	7.42e-01	0	43	104	997720064	74	39714
2026-01-06 12:55:28.84	329.34	8.06	-52.0	-72.3	3.8	7.46e-01	0	43	104	997720064	74	39728
2026-01-06 12:55:29.84	329.43	7.99	-51.9	-72.3	3.8	7.42e-01	0	43	104	997720064	74	39721
2026-01-06 12:55:30.85	329.53	7.91	-52.2	-72.4	3.8	7.42e-01	0	43	104	997720064	75	37950
2026-01-06 12:55:31.85	329.62	7.84	-52.4	-72.3	3.8	7.43e-01	0	43	104	997720064	75	37594
2026-01-06 12:55:32.86	329.72	7.77	-52.3	-72.3	3.8	7.45e-01	0	43	104	997720064	75	37614
2026-01-06 12:55:33.86	329.81	7.69	-52.3	-72.3	3.8	7.44e-01	0	43	104	997720064	75	37570
2026-01-06 12:55:34.87	329.90	7.62	-51.9	-72.3	3.8	7.47e-01	0	43	104	997720064	75	37533
2026-01-06 12:55:35.87	330.00	7.55	-52.0	-72.3	3.8	7.46e-01	0	43	104	997720064	75	37420
2026-01-06 12:55:36.87	330.09	7.48	-52.1	-72.3	3.8	7.46e-01	0	43	104	997720064	75	37389
2026-01-06 12:55:37.88	330.18	7.40	-51.8	-72.3	3.8	7.46e-01	0	43	104	997720064	75	37410
2026-01-06 12:55:38.88	330.27	7.33	-51.3	-72.2	3.8	7.46e-01	0	43	104	997720064	74	39563
2026-01-06 12:55:39.89	330.36	7.26	-51.2	-72.2	3.8	7.45e-01	0	43	104	997720064	74	39523
2026-01-06 12:55:40.89	330.45	7.19	-51.2	-72.2	3.8	7.47e-01	0	43	104	997720064	74	39450
2026-01-06 12:55:41.90	330.54	7.11	-51.2	-72.2	3.8	7.44e-01	0	43	104	997720064	74	39465
2026-01-06 12:55:42.90	330.63	7.04	-51.2	-72.2	3.8	7.43e-01	0	43	104	997720064	74	39457
2026-01-06 12:55:43.91	330.72	6.97	-51.2	-72.2	3.8	7.46e-01	0	43	104	997720064	74	39523
2026-01-06 12:55:44.91	330.81	6.90	-51.2	-72.2	3.8	7.47e-01	0	43	104	997720064	74	39480
2026-01-06 12:55:45.91	330.90	6.83	-51.3	-72.2	3.8	7.46e-01	0	43	104	997720064	74	39454
2026-01-06 12:55:46.92	330.99	6.76	-51.3	-72.2	3.8	7.46e-01	0	43	104	997720064	74	39489
2026-01-06 12:55:47.92	331.07	6.69	-51.3	-72.2	3.8	7.49e-01	0	43	104	997720064	74	39470
2026-01-06 12:55:48.93	331.16	6.62	-51.2	-72.2	3.8	7.48e-01	0	43	104	997720064	74	39431
2026-01-06 12:55:49.93	331.25	6.55	-51.2	-72.2	3.8	7.45e-01	0	43	104	997720064	74	39466
2026-01-06 12:55:50.94	331.33	6.48	-51.2	-72.2	3.8	7.45e-01	0	43	104	997720064	74	39481
2026-01-06 12:55:51.94	331.42	6.41	-51.2	-72.2	3.8	7.48e-01	0	43	104	997720064	74	39511
2026-01-06 12:55:52.95	331.50	6.34	-51.2	-72.2	3.8	7.46e-01	0	43	104	997720064	74	39383
2026-01-06 12:55:53.95	331.59	6.27	-51.3	-72.2	3.8	7.47e-01	0	43	104	997720064	74	39453
2026-01-06 12:55:54.95	331.67	6.20	-51.3	-72.2	3.8	7.45e-01	0	43	104	997720064	74	39522
2026-01-06 12:55:55.96	331.75	6.13	-51.3	-72.2	3.8	7.44e-01	0	43	104	997720064	74	39491
2026-01-06 12:55:56.96	331.84	6.06	-51.3	-72.2	3.8	7.46e-01	0	43	104	997720064	74	39497
2026-01-06 12:55:57.97	331.92	5.99	-51.3	-72.2	3.8	7.44e-01	0	43	104	997720064	74	39462
2026-01-06 12:55:58.97	332.00	5.92	-51.3	-72.2	3.8	7.44e-01	0	43	104	997720064	74	39465
2026-01-06 12:55:59.97	332.09	5.85	-51.3	-72.2	3.8	7.47e-01	0	43	104	997720064	74	39434
2026-01-06 12:56:00.98	332.17	5.78	-51.3	-72.2	3.8	7.46e-01	0	43	104	997720064	74	39499
2026-01-06 12:56:01.99	332.25	5.71	-51.3	-72.2	3.8	7.47e-01	0	43	104	997720064	74	39473
2026-01-06 12:56:02.99	332.33	5.64	-51.2	-72.2	3.8	7.48e-01	0	44	104	997720064	74	39392
2026-01-06 12:56:03.99	332.41	5.58	-51.2	-72.2	3.8	7.44e-01	0	43	104	997720064	74	39450
2026-01-06 12:56:05.00	332.49	5.51	-51.2	-72.2	3.8	7.42e-01	0	43	104	997720064	74	39437
2026-01-06 12:56:06.00	332.57	5.44	-51.3	-72.2	3.8	7.45e-01	0	44	104	997720064	74	39533
2026-01-06 12:56:07.01	332.65	5.37	-51.3	-72.2	3.8	7.46e-01	0	43	104	997720064	74	39580
2026-01-06 12:56:08.01	332.73	5.31	-51.3	-72.2	3.8	7.45e-01	0	43	104	997720064	74	39499
2026-01-06 12:56:09.01	332.81	5.24	-51.3	-72.2	3.8	7.46e-01	0	43	104	997720064	74	39473
2026-01-06 12:56:10.02	332.89	5.17	-51.3	-72.2	3.8	7.46e-01	0	43	104	997720064	74	39455
2026-01-06 12:56:11.02	332.96	5.10	-51.3	-72.2	3.8	7.45e-01	0	43	104	997720064	74	39428
2026-01-06 12:56:12.03	333.04	5.04	-51.3	-72.2	3.8	7.46e-01	0	43	104	997720064	74	39463
2026-01-06 12:56:13.03	333.12	4.97	-51.3	-72.2	3.8	7.46e-01	0	43	104	997720064	74	39394

#Closed at: 2026-01-06 12:56:14
#Recorded file [997 MB]: D:/Data/31040_260106_154545.dat