passes_logs/2026/01/06/T1/T1__20260106_235529_NOAA_21_JPSS-2_rec.log

#Pass ID: 20260106_235529_NOAA 21 (JPSS-2)
#Satellite: NOAA 21 (JPSS-2)
#Configuration: NOAA 21
#almurnet v.1.7.20251203
#Start time: 2026-01-06 23:55:29

#Version: 2.0.20230620
#Station: T1
#Location: 37.570604 lon 55.790049 lat
#TLE: 1 54234U 22150A   26005.56767909  .00000152  00000+0  92756-4 0  9990
#TLE: 2 54234  98.7490 306.5820 0001036 340.2747  19.8389 14.19532370163472

#Time	Az	El	Level	Level2	SNR	BER	BlckErr	Temp	State	Recorded	gain1	gain2
2026-01-06 23:55:29.57	14.78	4.98	-48.1	-62.5	3.8	1.49e+00	0	40	0	0	68	18153
2026-01-06 23:55:30.57	14.77	5.05	-47.9	-62.1	3.8	1.49e+00	0	40	104	0	66	19491
2026-01-06 23:55:31.58	14.76	5.12	-47.9	-62.1	3.8	1.49e+00	0	40	104	0	66	19529
2026-01-06 23:55:32.58	14.76	5.19	-47.9	-62.1	3.8	1.49e+00	0	40	104	0	66	19574
2026-01-06 23:55:33.59	14.75	5.27	-47.9	-62.2	3.8	1.49e+00	0	40	104	0	66	19703
2026-01-06 23:55:34.59	14.74	5.34	-47.9	-62.2	3.8	1.49e+00	0	40	104	0	66	19728
2026-01-06 23:55:35.60	14.73	5.41	-47.9	-62.2	3.8	1.49e+00	0	40	104	0	66	19740
2026-01-06 23:55:36.60	14.72	5.48	-47.9	-62.2	3.8	1.49e+00	0	40	104	0	66	19800
2026-01-06 23:55:37.60	14.71	5.55	-47.9	-62.3	3.8	1.49e+00	0	40	104	0	66	19893
2026-01-06 23:55:38.61	14.70	5.63	-47.9	-62.3	3.8	1.49e+00	0	41	104	0	66	19920
2026-01-06 23:55:39.61	14.69	5.70	-47.9	-62.3	3.8	1.49e+00	0	40	104	0	66	19880
2026-01-06 23:55:40.61	14.68	5.77	-47.9	-62.3	3.8	1.49e+00	0	40	104	0	66	19862
2026-01-06 23:55:41.62	14.67	5.85	-47.9	-62.2	3.8	1.49e+00	0	40	104	0	66	19721
2026-01-06 23:55:42.62	14.66	5.92	-47.9	-62.2	3.8	1.49e+00	0	41	104	0	66	19822
2026-01-06 23:55:43.63	14.65	5.99	-47.9	-62.2	3.8	1.49e+00	0	41	104	0	66	19766
2026-01-06 23:55:44.63	14.64	6.07	-47.9	-62.2	3.8	1.49e+00	0	41	104	0	66	19653
2026-01-06 23:55:45.64	14.63	6.14	-47.9	-62.2	3.8	1.49e+00	0	41	104	0	66	19693
2026-01-06 23:55:46.64	14.62	6.22	-47.9	-62.2	3.8	1.49e+00	0	41	104	0	66	19725
2026-01-06 23:55:47.65	14.61	6.29	-47.9	-62.2	3.8	1.49e+00	0	41	104	0	66	19701
2026-01-06 23:55:48.65	14.60	6.37	-47.9	-62.2	3.8	1.49e+00	0	41	104	0	66	19759
2026-01-06 23:55:49.65	14.59	6.44	-47.9	-62.2	3.8	1.49e+00	0	41	104	0	66	19755
2026-01-06 23:55:50.66	14.58	6.52	-47.9	-62.2	3.8	1.49e+00	0	41	104	0	66	19618
2026-01-06 23:55:51.66	14.57	6.59	-47.9	-62.1	3.8	1.49e+00	0	41	104	0	66	19461
2026-01-06 23:55:52.66	14.56	6.67	-47.8	-62.1	3.8	1.49e+00	0	41	104	0	66	19393
2026-01-06 23:55:53.66	14.55	6.74	-47.9	-61.9	3.8	1.49e+00	0	41	104	0	66	19067
2026-01-06 23:55:54.67	14.54	6.82	-47.8	-61.8	3.8	1.49e+00	0	41	104	0	66	18767
2026-01-06 23:55:55.67	14.53	6.90	-47.8	-61.7	3.8	1.49e+00	0	41	104	0	66	18611
2026-01-06 23:55:56.68	14.52	6.97	-47.8	-61.5	3.8	1.49e+00	0	41	104	0	66	18198
2026-01-06 23:55:57.68	14.51	7.05	-47.8	-61.4	3.8	1.49e+00	0	41	104	0	66	18012
2026-01-06 23:55:58.68	14.49	7.13	-47.8	-61.3	3.8	1.49e+00	0	41	104	0	66	17766
2026-01-06 23:55:59.69	14.48	7.21	-47.8	-61.2	3.8	1.49e+00	0	41	104	0	66	17570
2026-01-06 23:56:00.69	14.47	7.28	-47.8	-61.1	3.8	1.49e+00	0	41	104	0	66	17402
2026-01-06 23:56:01.70	14.46	7.36	-47.8	-61.0	3.8	1.49e+00	0	41	104	0	66	17112
2026-01-06 23:56:02.70	14.45	7.44	-47.8	-60.7	3.8	1.49e+00	0	41	104	0	66	16629
2026-01-06 23:56:03.70	14.44	7.52	-47.7	-60.5	3.8	1.49e+00	0	41	104	0	66	16130
2026-01-06 23:56:04.71	14.43	7.60	-47.7	-60.1	3.9	1.48e+00	0	41	104	0	66	15444
2026-01-06 23:56:05.71	14.41	7.67	-47.6	-59.3	4.1	1.48e+00	0	41	104	0	66	14121
2026-01-06 23:56:06.72	14.40	7.75	-47.6	-58.8	4.2	1.46e+00	0	41	104	0	66	13348
2026-01-06 23:56:07.72	14.39	7.83	-47.6	-58.3	4.3	1.45e+00	0	41	104	0	66	12656
2026-01-06 23:56:08.73	14.38	7.91	-47.5	-57.5	4.6	1.12e+00	0	41	104	0	66	11504
2026-01-06 23:56:09.73	14.37	7.99	-47.4	-57.2	4.6	9.83e-01	0	41	104	0	66	11114
2026-01-06 23:56:10.73	14.36	8.07	-47.3	-56.4	5.2	6.33e-01	0	41	0	0	66	10117
2026-01-06 23:56:11.74	14.34	8.15	-47.2	-55.8	5.5	5.02e-01	0	41	0	0	66	9485
2026-01-06 23:56:12.74	14.33	8.23	-47.1	-55.3	5.9	3.67e-01	0	41	0	0	66	8881
2026-01-06 23:56:13.75	14.32	8.31	-46.9	-54.3	6.7	2.29e-01	0	42	0	0	65	8454
2026-01-06 23:56:14.75	14.31	8.40	-46.7	-53.7	7.2	1.40e-01	0	42	0	0	65	7892
2026-01-06 23:56:15.76	14.29	8.48	-46.5	-53.1	7.8	9.86e-02	0	42	0	0	65	7333
2026-01-06 23:56:16.76	14.28	8.56	-46.5	-52.8	8.1	6.43e-02	0	42	0	0	64	7525
2026-01-06 23:56:17.76	14.27	8.64	-46.3	-52.3	8.6	4.09e-02	0	42	0	0	64	7099
2026-01-06 23:56:18.77	14.26	8.72	-46.1	-51.8	9.1	2.52e-02	0	42	0	0	64	6706
2026-01-06 23:56:19.77	14.24	8.80	-46.1	-51.8	9.1	2.50e-02	0	42	0	0	64	6677
2026-01-06 23:56:20.78	14.23	8.89	-46.0	-51.5	9.4	1.55e-02	0	42	0	0	64	6470
2026-01-06 23:56:21.78	14.22	8.97	-46.0	-51.3	9.7	1.16e-02	0	42	0	0	63	6692
2026-01-06 23:56:22.78	14.20	9.05	-46.1	-51.5	9.5	1.41e-02	0	42	0	0	63	6841
2026-01-06 23:56:23.79	14.19	9.14	-46.5	-52.7	8.3	2.25e-02	0	42	0	0	63	7886
2026-01-06 23:56:24.79	14.18	9.22	-47.5	-59.5	3.9	4.77e-01	0	42	104	0	65	15290
2026-01-06 23:56:25.79	14.16	9.30	-43.7	-46.8	14.3	7.33e-02	0	42	0	0	59	5003
2026-01-06 23:56:26.80	14.15	9.39	-44.0	-47.1	14.1	7.00e-07	0	42	0	0	58	5505
2026-01-06 23:56:27.86	14.14	9.48	-45.1	-49.1	12.1	5.30e-06	0	42	0	0	60	6194
2026-01-06 23:56:28.76	14.12	9.55	-43.3	-46.1	15.0	1.49e-04	0	42	0	0	58	4887
2026-01-06 23:56:30.00	14.11	9.66	-43.0	-45.6	15.5	0.00e+00	0	42	0	0	57	4888
2026-01-06 23:56:30.85	14.09	9.73	-42.6	-45.1	16.0	0.00e+00	0	42	0	0	57	4614
2026-01-06 23:56:32.00	14.08	9.83	-42.7	-45.2	16.0	0.00e+00	0	42	0	0	56	4946
2026-01-06 23:56:32.86	14.07	9.90	-42.4	-44.8	16.3	0.00e+00	0	42	0	0	56	4723
2026-01-06 23:56:34.01	14.05	10.00	-41.8	-44.1	16.9	0.00e+00	0	42	0	0	55	4604
2026-01-06 23:56:34.87	14.04	10.08	-41.8	-44.1	16.8	0.00e+00	0	42	0	0	55	4647
2026-01-06 23:56:36.01	14.02	10.18	-41.6	-43.9	17.1	0.00e+00	0	42	0	0	55	4498
2026-01-06 23:56:36.87	14.01	10.25	-41.4	-43.7	17.2	0.00e+00	0	42	0	0	54	4679
2026-01-06 23:56:38.01	13.99	10.35	-41.5	-43.7	17.2	0.00e+00	0	42	0	0	54	4699
2026-01-06 23:56:38.87	13.98	10.43	-41.3	-43.5	17.5	0.00e+00	0	42	0	0	54	4557
2026-01-06 23:56:40.02	13.96	10.53	-41.1	-43.3	17.6	0.00e+00	0	42	0	0	54	4444
2026-01-06 23:56:40.88	13.95	10.60	-41.1	-43.2	17.8	0.00e+00	0	42	0	0	54	4397
2026-01-06 23:56:42.12	13.93	10.71	-40.9	-43.0	17.9	0.00e+00	0	42	0	0	53	4586
2026-01-06 23:56:42.97	13.92	10.79	-41.0	-43.1	17.8	0.00e+00	0	42	0	0	53	4623
2026-01-06 23:56:44.12	13.90	10.89	-40.9	-43.0	18.0	0.00e+00	0	42	0	0	53	4555
2026-01-06 23:56:44.97	13.89	10.97	-40.8	-42.8	18.1	0.00e+00	0	42	0	0	53	4472
2026-01-06 23:56:46.12	13.87	11.07	-40.9	-43.0	18.0	0.00e+00	0	42	0	0	53	4563
2026-01-06 23:56:46.98	13.86	11.15	-40.8	-42.9	18.1	0.00e+00	0	42	0	0	53	4512
2026-01-06 23:56:48.12	13.84	11.25	-40.8	-42.8	18.1	0.00e+00	0	42	0	0	53	4483
2026-01-06 23:56:48.98	13.82	11.33	-40.8	-42.8	18.1	0.00e+00	0	42	0	0	53	4478
2026-01-06 23:56:50.13	13.80	11.43	-40.7	-42.8	18.2	0.00e+00	0	42	0	0	53	4453
2026-01-06 23:56:50.99	13.79	11.51	-40.7	-42.8	18.2	0.00e+00	0	42	0	0	53	4448
2026-01-06 23:56:52.13	13.77	11.62	-40.6	-42.6	18.3	0.00e+00	0	42	0	0	53	4386
2026-01-06 23:56:53.25	13.75	11.72	-40.7	-42.7	18.2	0.00e+00	0	42	0	0	53	4439
2026-01-06 23:56:54.30	13.74	11.82	-40.7	-42.7	18.3	0.00e+00	0	42	0	0	53	4424
2026-01-06 23:56:55.37	13.72	11.92	-40.7	-42.6	18.4	0.00e+00	0	42	0	0	53	4391
2026-01-06 23:56:56.23	13.70	12.00	-40.6	-42.6	18.4	0.00e+00	0	42	0	0	53	4381
2026-01-06 23:56:57.69	13.68	12.13	-40.6	-42.6	18.4	0.00e+00	0	42	0	0	53	4383
2026-01-06 23:56:58.41	13.67	12.20	-40.7	-42.7	18.3	0.00e+00	0	42	0	0	53	4418
2026-01-06 23:56:59.70	13.64	12.32	-40.6	-42.7	18.4	0.00e+00	0	42	0	0	53	4393
2026-01-06 23:57:00.41	13.63	12.39	-40.7	-42.7	18.4	0.00e+00	0	42	0	0	53	4409
2026-01-06 23:57:01.70	13.61	12.51	-40.7	-42.7	18.3	0.00e+00	0	42	0	0	53	4411
2026-01-06 23:57:02.42	13.60	12.58	-40.6	-42.6	18.4	0.00e+00	0	42	0	0	53	4378
2026-01-06 23:57:03.71	13.57	12.71	-40.5	-42.5	18.5	0.00e+00	0	42	0	0	53	4323
2026-01-06 23:57:04.57	13.56	12.79	-40.5	-42.5	18.5	0.00e+00	0	42	0	0	53	4321
2026-01-06 23:57:05.71	13.54	12.90	-40.5	-42.6	18.5	0.00e+00	0	42	0	0	53	4344
2026-01-06 23:57:06.57	13.52	12.98	-40.5	-42.5	18.4	0.00e+00	0	42	0	0	53	4335
2026-01-06 23:57:07.72	13.50	13.09	-40.5	-42.5	18.5	0.00e+00	0	42	0	0	52	4591
2026-01-06 23:57:08.82	13.48	13.20	-40.5	-42.6	18.5	0.00e+00	0	42	0	0	52	4612
2026-01-06 23:57:09.85	13.46	13.30	-40.6	-42.7	18.4	0.00e+00	0	42	0	0	52	4654
2026-01-06 23:57:10.85	13.44	13.40	-40.5	-42.5	18.5	0.00e+00	0	42	0	0	52	4577
2026-01-06 23:57:11.85	13.42	13.50	-40.7	-42.7	18.3	0.00e+00	0	42	0	0	52	4693
2026-01-06 23:57:12.85	13.40	13.60	-40.4	-42.4	18.6	0.00e+00	0	42	0	0	52	4528
2026-01-06 23:57:13.86	13.38	13.70	-40.3	-42.3	18.7	0.00e+00	0	42	0	0	52	4487
2026-01-06 23:57:14.86	13.36	13.80	-40.3	-42.4	18.7	0.00e+00	0	42	0	0	52	4501
2026-01-06 23:57:15.85	13.34	13.90	-40.3	-42.3	18.7	0.00e+00	0	42	0	0	52	4482
2026-01-06 23:57:16.86	13.32	14.00	-40.2	-42.3	18.8	0.00e+00	0	42	0	0	52	4442
2026-01-06 23:57:17.86	13.30	14.11	-40.2	-42.3	18.7	0.00e+00	0	42	0	0	52	4473
2026-01-06 23:57:18.87	13.28	14.21	-40.3	-42.4	18.7	0.00e+00	0	42	0	0	52	4516
2026-01-06 23:57:19.92	13.26	14.32	-40.3	-42.4	18.6	0.00e+00	0	42	0	0	52	4528
2026-01-06 23:57:20.81	13.24	14.41	-40.4	-42.5	18.6	0.00e+00	0	42	0	0	52	4547
2026-01-06 23:57:22.13	13.22	14.54	-40.2	-42.3	18.8	0.00e+00	0	42	0	0	52	4450
2026-01-06 23:57:22.84	13.20	14.62	-40.2	-42.3	18.8	0.00e+00	0	42	0	0	52	4457
2026-01-06 23:57:24.13	13.17	14.75	-40.2	-42.3	18.8	0.00e+00	0	42	0	0	52	4462
2026-01-06 23:57:24.85	13.16	14.83	-40.0	-42.1	18.9	0.00e+00	0	42	0	0	52	4347
2026-01-06 23:57:26.14	13.13	14.96	-40.1	-42.1	18.9	0.00e+00	0	42	0	0	52	4380
2026-01-06 23:57:26.85	13.11	15.04	-40.1	-42.1	18.9	0.00e+00	0	42	0	0	52	4372
2026-01-06 23:57:28.14	13.09	15.18	-40.1	-42.1	18.9	0.00e+00	0	42	0	0	52	4385
2026-01-06 23:57:28.86	13.07	15.25	-40.1	-42.1	18.9	0.00e+00	0	42	0	0	52	4377
2026-01-06 23:57:30.15	13.04	15.39	-40.1	-42.2	18.8	0.00e+00	0	42	0	0	52	4416
2026-01-06 23:57:30.86	13.03	15.47	-40.2	-42.2	18.8	0.00e+00	0	43	0	0	52	4431
2026-01-06 23:57:32.17	13.00	15.61	-40.2	-42.3	18.8	0.00e+00	0	43	0	0	52	4451
2026-01-06 23:57:32.88	12.98	15.68	-40.3	-42.4	18.7	0.00e+00	0	42	0	0	52	4529
2026-01-06 23:57:34.24	12.95	15.83	-40.3	-42.4	18.7	0.00e+00	0	42	0	0	52	4515
2026-01-06 23:57:34.95	12.93	15.91	-40.3	-42.4	18.6	0.00e+00	0	42	0	0	52	4534
2026-01-06 23:57:36.24	12.90	16.05	-40.3	-42.4	18.7	0.00e+00	0	42	0	0	52	4506
2026-01-06 23:57:36.96	12.88	16.13	-40.1	-42.2	18.8	0.00e+00	0	42	0	0	52	4421
2026-01-06 23:57:38.25	12.85	16.27	-40.2	-42.3	18.8	0.00e+00	0	42	0	0	52	4446
2026-01-06 23:57:38.97	12.84	16.35	-40.3	-42.3	18.7	0.00e+00	0	42	0	0	52	4492
2026-01-06 23:57:40.25	12.81	16.50	-40.4	-42.4	18.6	0.00e+00	0	42	0	0	52	4545
2026-01-06 23:57:40.97	12.79	16.58	-40.4	-42.5	18.6	0.00e+00	0	42	0	0	52	4558
2026-01-06 23:57:42.26	12.76	16.72	-40.3	-42.4	18.7	0.00e+00	0	42	0	0	52	4499
2026-01-06 23:57:42.97	12.74	16.81	-40.5	-42.5	18.6	0.00e+00	0	42	0	0	52	4597
2026-01-06 23:57:44.26	12.71	16.95	-40.4	-42.4	18.7	0.00e+00	0	43	0	0	52	4516
2026-01-06 23:57:44.98	12.69	17.03	-40.4	-42.5	18.6	0.00e+00	0	42	0	0	52	4553
2026-01-06 23:57:46.27	12.65	17.18	-40.4	-42.5	18.6	0.00e+00	0	42	0	0	52	4548
2026-01-06 23:57:47.08	12.63	17.28	-40.4	-42.5	18.6	0.00e+00	0	42	0	0	52	4562
2026-01-06 23:57:48.54	12.60	17.45	-40.5	-42.6	18.5	0.00e+00	0	42	0	0	52	4602
2026-01-06 23:57:49.26	12.58	17.53	-40.6	-42.7	18.4	0.00e+00	0	42	0	0	52	4663
2026-01-06 23:57:50.54	12.54	17.68	-40.6	-42.6	18.5	0.00e+00	0	42	0	0	52	4625
2026-01-06 23:57:51.26	12.52	17.77	-40.6	-42.6	18.5	0.00e+00	0	42	0	0	52	4636
2026-01-06 23:57:52.55	12.49	17.92	-40.6	-42.6	18.5	0.00e+00	0	42	0	0	52	4639
2026-01-06 23:57:53.27	12.47	18.00	-40.7	-42.7	18.4	0.00e+00	0	43	0	0	52	4654
2026-01-06 23:57:54.56	12.43	18.16	-40.6	-42.6	18.5	0.00e+00	0	43	0	0	52	4617
2026-01-06 23:57:55.27	12.41	18.24	-40.7	-42.7	18.4	0.00e+00	0	42	0	0	52	4667
2026-01-06 23:57:56.56	12.38	18.40	-40.6	-42.6	18.5	0.00e+00	0	43	0	0	52	4621
2026-01-06 23:57:57.29	12.36	18.49	-40.7	-42.7	18.4	0.00e+00	0	42	0	0	52	4663
2026-01-06 23:57:58.58	12.32	18.65	-40.7	-42.7	18.5	0.00e+00	0	42	0	0	52	4652
2026-01-06 23:57:59.29	12.30	18.73	-40.7	-42.6	18.5	0.00e+00	0	42	0	0	52	4639
2026-01-06 23:58:00.58	12.26	18.89	-40.7	-42.7	18.4	0.00e+00	0	42	0	0	52	4652
2026-01-06 23:58:01.30	12.24	18.98	-40.8	-42.8	18.3	0.00e+00	0	43	0	0	52	4726
2026-01-06 23:58:02.67	12.20	19.15	-40.8	-42.8	18.4	0.00e+00	0	43	0	0	52	4714
2026-01-06 23:58:03.38	12.18	19.24	-40.8	-42.8	18.4	0.00e+00	0	42	0	0	52	4714
2026-01-06 23:58:04.74	12.14	19.41	-40.5	-42.5	18.6	0.00e+00	0	42	0	0	52	4562
2026-01-06 23:58:05.45	12.12	19.50	-40.5	-42.5	18.6	0.00e+00	0	42	0	0	52	4563
2026-01-06 23:58:06.74	12.08	19.66	-40.6	-42.6	18.5	0.00e+00	0	43	0	0	52	4601
2026-01-06 23:58:07.46	12.05	19.76	-40.5	-42.5	18.6	0.00e+00	0	42	0	0	52	4573
2026-01-06 23:58:08.75	12.01	19.92	-40.3	-42.3	18.8	0.00e+00	0	42	0	0	52	4443
2026-01-06 23:58:09.46	11.99	20.01	-40.3	-42.3	18.8	0.00e+00	0	43	0	0	52	4445
2026-01-06 23:58:10.75	11.95	20.18	-40.2	-42.2	18.9	0.00e+00	0	42	0	0	52	4407
2026-01-06 23:58:11.47	11.93	20.27	-40.2	-42.2	18.9	0.00e+00	0	43	0	0	52	4393
2026-01-06 23:58:12.76	11.88	20.44	-40.2	-42.1	18.8	0.00e+00	0	42	0	0	52	4373
2026-01-06 23:58:13.48	11.86	20.54	-40.2	-42.1	19.0	0.00e+00	0	43	0	0	52	4363
2026-01-06 23:58:14.76	11.82	20.71	-40.2	-42.1	19.0	0.00e+00	0	42	0	0	52	4358
2026-01-06 23:58:15.57	11.79	20.82	-40.0	-41.9	19.2	0.00e+00	0	43	0	0	52	4257
2026-01-06 23:58:16.72	11.75	20.97	-39.9	-41.8	19.3	0.00e+00	0	43	0	0	51	4447
2026-01-06 23:58:17.80	11.72	21.12	-39.9	-41.7	19.4	0.00e+00	0	43	0	0	51	4432
2026-01-06 23:58:18.82	11.68	21.25	-39.9	-41.7	19.3	0.00e+00	0	42	0	0	51	4436
2026-01-06 23:58:20.00	11.64	21.41	-39.8	-41.6	19.5	0.00e+00	0	42	0	0	51	4353
2026-01-06 23:58:20.86	11.61	21.53	-39.6	-41.4	19.6	0.00e+00	0	43	0	0	51	4279
2026-01-06 23:58:22.00	11.57	21.69	-39.6	-41.4	19.7	0.00e+00	0	42	0	0	51	4269
2026-01-06 23:58:22.86	11.54	21.81	-39.6	-41.3	19.7	0.00e+00	0	42	0	0	51	4236
2026-01-06 23:58:24.00	11.50	21.97	-39.5	-41.2	19.9	0.00e+00	0	43	0	0	50	4394
2026-01-06 23:58:24.86	11.46	22.09	-39.4	-41.1	19.9	0.00e+00	0	42	0	0	50	4377
2026-01-06 23:58:26.01	11.42	22.25	-39.5	-41.2	19.8	0.00e+00	0	43	0	0	50	4431
2026-01-06 23:58:26.87	11.39	22.37	-39.3	-41.0	20.0	0.00e+00	0	43	0	0	50	4330
2026-01-06 23:58:28.01	11.35	22.53	-39.4	-41.1	19.9	0.00e+00	0	43	0	0	50	4377
2026-01-06 23:58:28.87	11.31	22.65	-39.5	-41.2	19.9	0.00e+00	0	43	0	0	50	4411
2026-01-06 23:58:30.01	11.27	22.82	-39.3	-40.9	20.1	0.00e+00	0	43	0	0	50	4285
2026-01-06 23:58:30.87	11.24	22.94	-39.2	-40.9	20.1	0.00e+00	0	43	0	0	50	4257
2026-01-06 23:58:32.08	11.19	23.12	-39.2	-40.8	20.2	0.00e+00	0	43	0	0	50	4238
2026-01-06 23:58:32.94	11.15	23.24	-39.1	-40.7	20.3	0.00e+00	0	43	0	0	50	4180
2026-01-06 23:58:34.08	11.11	23.41	-39.1	-40.8	20.2	0.00e+00	0	43	0	0	50	4214
2026-01-06 23:58:34.95	11.07	23.54	-39.2	-40.9	20.1	0.00e+00	0	43	0	0	50	4266
2026-01-06 23:58:36.09	11.02	23.71	-39.0	-40.7	20.3	0.00e+00	0	43	0	0	50	4161
2026-01-06 23:58:36.95	10.99	23.84	-39.1	-40.8	20.2	0.00e+00	0	43	0	0	50	4216
2026-01-06 23:58:38.09	10.94	24.01	-39.1	-40.8	20.3	0.00e+00	0	43	0	0	50	4222
2026-01-06 23:58:39.11	10.90	24.16	-39.2	-40.9	20.2	0.00e+00	0	43	0	0	50	4254
2026-01-06 23:58:40.29	10.85	24.34	-39.1	-40.8	20.2	0.00e+00	0	42	0	0	50	4230
2026-01-06 23:58:41.15	10.81	24.47	-39.1	-40.8	20.3	0.00e+00	0	43	0	0	50	4199
2026-01-06 23:58:42.50	10.75	24.68	-39.2	-40.9	20.3	0.00e+00	0	43	0	0	50	4254
2026-01-06 23:58:43.22	10.72	24.79	-39.3	-41.0	20.1	0.00e+00	0	43	0	0	50	4309
2026-01-06 23:58:44.51	10.66	25.00	-39.3	-41.0	20.2	0.00e+00	0	43	0	0	50	4292
2026-01-06 23:58:45.23	10.63	25.11	-39.4	-41.1	20.0	0.00e+00	0	43	0	0	50	4371
2026-01-06 23:58:46.51	10.57	25.31	-39.5	-41.2	20.0	0.00e+00	0	43	0	0	50	4409
2026-01-06 23:58:47.23	10.54	25.42	-39.5	-41.2	20.0	0.00e+00	0	43	0	0	50	4407
2026-01-06 23:58:48.52	10.48	25.63	-39.6	-41.3	19.9	0.00e+00	0	42	0	0	50	4484
2026-01-06 23:58:49.23	10.44	25.74	-39.7	-41.4	19.8	0.00e+00	0	43	0	0	50	4540
2026-01-06 23:58:50.52	10.38	25.95	-39.8	-41.5	19.7	0.00e+00	0	43	0	0	50	4572
2026-01-06 23:58:51.24	10.35	26.07	-39.9	-41.7	19.5	0.00e+00	0	43	0	0	50	4675
2026-01-06 23:58:52.55	10.28	26.28	-40.1	-41.9	19.4	0.00e+00	0	43	0	0	50	4784
2026-01-06 23:58:53.26	10.25	26.40	-40.2	-42.0	19.3	0.00e+00	0	43	0	0	50	4818
2026-01-06 23:58:54.55	10.18	26.61	-40.3	-42.2	19.1	0.00e+00	0	43	0	0	51	4654
2026-01-06 23:58:55.27	10.15	26.73	-40.4	-42.2	19.1	0.00e+00	0	43	0	0	51	4681
2026-01-06 23:58:56.56	10.08	26.95	-40.5	-42.3	19.0	0.00e+00	0	43	0	0	51	4747
2026-01-06 23:58:57.28	10.04	27.07	-40.6	-42.5	18.9	0.00e+00	0	43	0	0	51	4821
2026-01-06 23:58:58.79	9.96	27.33	-40.7	-42.6	18.7	0.00e+00	0	43	0	0	52	4601
2026-01-06 23:58:59.51	9.92	27.45	-40.8	-42.7	18.5	0.00e+00	0	42	0	0	52	4661
2026-01-06 23:59:00.79	9.86	27.67	-40.9	-42.9	18.4	0.00e+00	0	43	0	0	52	4768
2026-01-06 23:59:01.51	9.82	27.79	-41.0	-42.9	18.3	0.00e+00	0	43	0	0	52	4811
2026-01-06 23:59:02.80	9.75	28.02	-41.1	-43.0	18.2	0.00e+00	0	43	0	0	52	4869
2026-01-06 23:59:03.51	9.71	28.14	-41.1	-43.1	18.1	0.00e+00	0	43	0	0	52	4893
2026-01-06 23:59:04.80	9.63	28.37	-41.1	-43.0	18.2	0.00e+00	0	43	0	0	53	4582
2026-01-06 23:59:05.52	9.59	28.50	-41.1	-43.1	18.0	0.00e+00	0	43	0	0	53	4634
2026-01-06 23:59:06.81	9.52	28.73	-41.1	-43.1	18.1	0.00e+00	0	43	0	0	53	4619
2026-01-06 23:59:07.59	9.47	28.87	-41.1	-43.1	18.0	0.00e+00	0	43	0	0	53	4627
2026-01-06 23:59:08.88	9.40	29.10	-41.1	-43.1	18.1	0.00e+00	0	43	0	0	53	4609
2026-01-06 23:59:09.60	9.35	29.23	-40.9	-42.9	18.2	0.00e+00	0	43	0	0	53	4523
2026-01-06 23:59:10.88	9.28	29.46	-40.8	-42.8	18.3	0.00e+00	0	43	0	0	53	4467
2026-01-06 23:59:11.60	9.23	29.60	-40.7	-42.6	18.5	0.00e+00	0	43	0	0	53	4389
2026-01-06 23:59:12.88	9.15	29.83	-40.7	-42.7	18.5	0.00e+00	0	43	0	0	53	4399
2026-01-06 23:59:13.60	9.11	29.97	-40.6	-42.5	18.7	0.00e+00	0	43	0	0	53	4315
2026-01-06 23:59:14.94	9.02	30.22	-40.6	-42.5	18.6	0.00e+00	0	43	0	0	53	4338
2026-01-06 23:59:15.66	8.98	30.35	-40.5	-42.4	18.8	0.00e+00	0	43	0	0	53	4255
2026-01-06 23:59:16.94	8.89	30.60	-40.2	-42.0	19.1	0.00e+00	0	43	0	0	52	4340
2026-01-06 23:59:17.66	8.84	30.74	-40.1	-41.9	19.3	0.00e+00	0	42	0	0	52	4265
2026-01-06 23:59:19.08	8.75	31.01	-40.2	-42.0	19.2	0.00e+00	0	42	0	0	52	4295
2026-01-06 23:59:19.79	8.70	31.15	-40.0	-41.8	19.5	0.00e+00	0	43	0	0	51	4457
2026-01-06 23:59:21.15	8.61	31.41	-40.2	-42.0	19.4	0.00e+00	0	43	0	0	51	4547
2026-01-06 23:59:21.86	8.56	31.55	-40.0	-41.8	19.5	0.00e+00	0	43	0	0	51	4449
2026-01-06 23:59:23.15	8.47	31.81	-39.7	-41.4	19.8	0.00e+00	0	43	0	0	51	4291
2026-01-06 23:59:23.87	8.42	31.95	-39.6	-41.3	20.0	0.00e+00	0	43	0	0	51	4218
2026-01-06 23:59:25.28	8.31	32.23	-39.7	-41.4	19.9	0.00e+00	0	43	0	0	51	4272
2026-01-06 23:59:26.00	8.26	32.38	-39.7	-41.5	19.9	0.00e+00	0	43	0	0	51	4296
2026-01-06 23:59:27.29	8.16	32.64	-39.9	-41.6	19.7	0.00e+00	0	43	0	0	51	4378
2026-01-06 23:59:28.01	8.11	32.79	-40.0	-41.7	19.6	0.00e+00	0	43	0	0	51	4423
2026-01-06 23:59:29.30	8.01	33.05	-40.2	-42.0	19.4	0.00e+00	0	43	0	0	51	4558
2026-01-06 23:59:30.01	7.96	33.20	-40.3	-42.1	19.3	0.00e+00	0	43	0	0	51	4619
2026-01-06 23:59:31.30	7.86	33.47	-40.4	-42.2	19.1	0.00e+00	0	43	0	0	51	4702
2026-01-06 23:59:32.08	7.79	33.63	-40.4	-42.2	19.2	0.00e+00	0	43	0	0	51	4704
2026-01-06 23:59:33.69	7.66	33.97	-40.6	-42.5	19.0	0.00e+00	0	43	0	0	51	4824
2026-01-06 23:59:34.53	7.59	34.15	-40.6	-42.4	18.9	0.00e+00	0	43	0	0	52	4544
2026-01-06 23:59:35.68	7.50	34.40	-40.7	-42.6	18.8	0.00e+00	0	43	0	0	52	4622
2026-01-06 23:59:36.53	7.43	34.58	-40.8	-42.7	18.7	0.00e+00	0	43	0	0	52	4676
2026-01-06 23:59:37.68	7.33	34.83	-41.0	-43.0	18.3	0.00e+00	0	43	0	0	52	4843
2026-01-06 23:59:38.54	7.25	35.02	-41.1	-43.1	18.3	0.00e+00	0	43	0	0	52	4897
2026-01-06 23:59:39.69	7.15	35.27	-41.3	-43.3	18.0	0.00e+00	0	43	0	0	53	4743
2026-01-06 23:59:40.54	7.08	35.46	-41.4	-43.4	17.9	0.00e+00	0	43	0	0	53	4808
2026-01-06 23:59:41.69	6.97	35.72	-41.6	-43.6	17.7	0.00e+00	0	43	0	0	53	4902
2026-01-06 23:59:42.55	6.89	35.91	-41.6	-43.7	17.6	0.00e+00	0	43	0	0	54	4675
2026-01-06 23:59:43.70	6.79	36.17	-41.5	-43.5	17.8	0.00e+00	0	43	0	0	54	4587
2026-01-06 23:59:44.70	6.69	36.40	-41.6	-43.5	17.8	0.00e+00	0	43	0	0	54	4594
2026-01-06 23:59:45.88	6.58	36.67	-41.7	-43.7	17.7	0.00e+00	0	43	0	0	54	4667
2026-01-06 23:59:46.74	6.49	36.87	-41.6	-43.5	17.8	0.00e+00	0	43	0	0	54	4584
2026-01-06 23:59:48.11	6.36	37.19	-41.6	-43.6	17.7	0.00e+00	0	43	0	0	54	4611
2026-01-06 23:59:48.82	6.29	37.35	-41.7	-43.7	17.6	0.00e+00	0	43	0	0	54	4682
2026-01-06 23:59:50.11	6.15	37.66	-41.8	-43.8	17.6	0.00e+00	0	43	0	0	54	4721
2026-01-06 23:59:50.83	6.08	37.83	-41.8	-43.8	17.6	0.00e+00	0	43	0	0	54	4709
2026-01-06 23:59:52.11	5.94	38.14	-41.8	-43.9	17.6	0.00e+00	0	43	0	0	54	4761
2026-01-06 23:59:52.86	5.86	38.32	-41.9	-43.9	17.6	0.00e+00	0	43	0	0	54	4787
2026-01-06 23:59:54.15	5.72	38.63	-41.8	-43.8	17.7	0.00e+00	0	43	0	0	54	4723
2026-01-06 23:59:54.92	5.64	38.82	-41.7	-43.7	17.8	0.00e+00	0	43	0	0	54	4678
2026-01-06 23:59:56.21	5.49	39.14	-41.6	-43.6	17.9	0.00e+00	0	43	0	0	54	4600
2026-01-06 23:59:56.93	5.41	39.31	-41.5	-43.4	18.0	0.00e+00	0	43	0	0	54	4532
2026-01-06 23:59:58.22	5.26	39.64	-41.4	-43.3	18.0	0.00e+00	0	43	0	0	54	4467
2026-01-06 23:59:58.93	5.18	39.81	-41.3	-43.2	18.1	0.00e+00	0	43	0	0	54	4429
2026-01-07 00:00:00.22	5.02	40.14	-41.2	-43.1	18.2	0.00e+00	0	43	0	0	54	4387
2026-01-07 00:00:00.94	4.94	40.32	-41.3	-43.2	18.1	0.00e+00	0	43	0	0	54	4438
2026-01-07 00:00:02.23	4.78	40.65	-41.3	-43.2	18.2	0.00e+00	0	43	0	0	54	4439
2026-01-07 00:00:02.95	4.69	40.84	-41.5	-43.5	17.9	0.00e+00	0	43	0	0	54	4568
2026-01-07 00:00:04.23	4.52	41.17	-41.6	-43.6	17.8	0.00e+00	0	43	0	0	54	4651
2026-01-07 00:00:04.95	4.43	41.36	-41.8	-43.8	17.6	0.00e+00	0	43	0	0	54	4753
2026-01-07 00:00:06.25	4.26	41.70	-42.0	-44.1	17.4	0.00e+00	0	43	0	0	54	4893
2026-01-07 00:00:06.96	4.16	41.89	-42.1	-44.2	17.2	0.00e+00	0	43	0	0	54	4970
2026-01-07 00:00:08.25	3.99	42.23	-42.2	-44.4	17.1	0.00e+00	0	43	0	0	55	4774
2026-01-07 00:00:08.96	3.89	42.42	-42.4	-44.6	16.9	0.00e+00	0	43	0	0	55	4898
2026-01-07 00:00:10.25	3.70	42.77	-42.5	-44.7	16.7	0.00e+00	0	43	0	0	55	4948
2026-01-07 00:00:10.97	3.60	42.96	-42.8	-45.1	16.5	0.00e+00	0	43	0	0	56	4880
2026-01-07 00:00:12.26	3.41	43.32	-43.0	-45.3	16.3	0.00e+00	0	43	0	0	56	5021
2026-01-07 00:00:12.98	3.30	43.51	-43.3	-45.6	16.1	0.00e+00	0	43	0	0	57	4891
2026-01-07 00:00:14.27	3.11	43.87	-43.3	-45.6	16.1	0.00e+00	0	43	0	0	57	4918
2026-01-07 00:00:14.98	3.00	44.07	-43.3	-45.6	16.2	0.00e+00	0	43	0	0	57	4889
2026-01-07 00:00:16.27	2.80	44.43	-43.0	-45.3	16.5	0.00e+00	0	43	0	0	57	4726
2026-01-07 00:00:16.99	2.68	44.63	-43.0	-45.2	16.6	0.00e+00	0	43	0	0	57	4655
2026-01-07 00:00:18.28	2.47	45.00	-43.0	-45.2	16.5	0.00e+00	0	43	0	0	57	4672
2026-01-07 00:00:19.07	2.34	45.23	-43.2	-45.5	16.2	0.00e+00	0	43	0	0	57	4838
2026-01-07 00:00:20.54	2.09	45.65	-43.0	-45.3	16.4	0.00e+00	0	43	0	0	57	4723
2026-01-07 00:00:21.25	1.97	45.85	-43.0	-45.2	16.4	0.00e+00	0	43	0	0	57	4678
2026-01-07 00:00:22.54	1.74	46.23	-42.9	-45.0	16.6	0.00e+00	0	43	0	0	57	4595
2026-01-07 00:00:23.26	1.61	46.44	-42.5	-44.6	17.0	0.00e+00	0	43	0	0	57	4382
2026-01-07 00:00:24.55	1.37	46.82	-42.4	-44.4	17.2	0.00e+00	0	43	0	0	56	4535
2026-01-07 00:00:25.26	1.24	47.03	-42.3	-44.4	17.3	0.00e+00	0	43	0	0	56	4498
2026-01-07 00:00:26.55	1.00	47.42	-42.0	-44.0	17.6	0.00e+00	0	43	0	0	56	4330
2026-01-07 00:00:27.27	0.86	47.63	-41.8	-43.7	17.7	0.00e+00	0	43	0	0	55	4424
2026-01-07 00:00:28.55	0.60	48.02	-41.6	-43.5	17.8	0.00e+00	0	43	0	0	55	4320
2026-01-07 00:00:29.27	0.46	48.24	-41.5	-43.4	17.8	0.00e+00	0	43	0	0	55	4275
2026-01-07 00:00:30.56	0.19	48.63	-41.8	-43.7	17.6	0.00e+00	0	43	0	0	55	4424
2026-01-07 00:00:31.28	0.04	48.86	-41.5	-43.4	17.8	0.00e+00	0	43	0	0	55	4283
2026-01-07 00:00:32.57	359.76	49.25	-41.5	-43.5	17.9	0.00e+00	0	43	0	0	55	4301
2026-01-07 00:00:33.28	359.61	49.47	-41.4	-43.3	18.1	0.00e+00	0	43	0	0	54	4454
2026-01-07 00:00:34.68	359.29	49.91	-41.5	-43.4	18.0	0.00e+00	0	43	0	0	54	4505
2026-01-07 00:00:35.40	359.13	50.14	-41.5	-43.4	17.9	0.00e+00	0	43	0	0	54	4521
2026-01-07 00:00:36.76	358.81	50.57	-41.6	-43.5	17.8	0.00e+00	0	43	0	0	54	4568
2026-01-07 00:00:37.47	358.64	50.79	-41.7	-43.6	17.8	0.00e+00	0	43	0	0	54	4628
2026-01-07 00:00:38.76	358.32	51.21	-41.6	-43.6	17.8	0.00e+00	0	43	0	0	54	4619
2026-01-07 00:00:39.48	358.14	51.44	-41.5	-43.4	18.0	0.00e+00	0	43	0	0	54	4510
2026-01-07 00:00:40.77	357.81	51.85	-41.4	-43.3	18.1	0.00e+00	0	43	0	0	54	4450
2026-01-07 00:00:41.48	357.63	52.08	-41.3	-43.1	18.2	0.00e+00	0	43	0	0	54	4386
2026-01-07 00:00:42.77	357.28	52.50	-41.3	-43.2	18.3	0.00e+00	0	43	0	0	54	4441
2026-01-07 00:00:43.49	357.09	52.74	-41.5	-43.4	18.1	0.00e+00	0	43	0	0	54	4532
2026-01-07 00:00:44.78	356.72	53.16	-41.7	-43.7	17.8	0.00e+00	0	43	0	0	54	4659
2026-01-07 00:00:45.54	356.51	53.41	-41.7	-43.7	17.8	0.00e+00	0	43	0	0	54	4677
2026-01-07 00:00:46.83	356.13	53.84	-41.2	-43.1	18.5	0.00e+00	0	43	0	0	54	4342
2026-01-07 00:00:47.66	355.88	54.12	-41.0	-42.8	18.7	0.00e+00	0	43	0	0	53	4463
2026-01-07 00:00:49.12	355.43	54.61	-39.9	-42.1	19.1	0.00e+00	0	43	0	0	52	4364
2026-01-07 00:00:49.84	355.20	54.85	-40.4	-42.2	19.1	0.00e+00	0	43	0	0	52	4427
2026-01-07 00:00:51.13	354.78	55.29	-40.3	-42.1	19.2	0.00e+00	0	43	0	0	52	4375
2026-01-07 00:00:51.85	354.54	55.53	-40.2	-42.0	19.3	0.00e+00	0	43	0	0	52	4299
2026-01-07 00:00:53.14	354.10	55.97	-40.1	-41.9	19.5	0.00e+00	0	43	0	0	52	4248
2026-01-07 00:00:53.89	353.84	56.22	-39.9	-41.6	19.8	0.00e+00	0	43	0	0	51	4367
2026-01-07 00:00:55.17	353.38	56.66	-39.5	-41.2	20.2	0.00e+00	0	43	0	0	51	4161
2026-01-07 00:00:55.97	353.09	56.94	-39.2	-40.8	20.4	0.00e+00	0	43	0	0	50	4214
2026-01-07 00:00:57.12	352.66	57.33	-39.0	-40.6	20.5	0.00e+00	0	43	0	0	49	4381
2026-01-07 00:00:58.20	352.24	57.70	-39.4	-41.1	20.2	0.00e+00	0	43	0	0	49	4600
2026-01-07 00:00:59.25	351.82	58.07	-39.8	-41.5	19.8	0.00e+00	0	43	0	0	50	4558
2026-01-07 00:01:00.13	351.46	58.37	-39.9	-41.6	19.8	0.00e+00	0	43	0	0	50	4630
2026-01-07 00:01:01.27	350.98	58.77	-39.8	-41.6	19.8	0.00e+00	0	43	0	0	50	4613
2026-01-07 00:01:02.13	350.61	59.07	-39.9	-41.7	19.7	0.00e+00	0	43	0	0	50	4684
2026-01-07 00:01:03.28	350.10	59.47	-40.0	-41.8	19.7	0.00e+00	0	43	0	0	50	4736
2026-01-07 00:01:04.13	349.71	59.76	-40.0	-41.8	19.7	0.00e+00	0	43	0	0	50	4720
2026-01-07 00:01:05.28	349.18	60.16	-39.7	-41.4	20.0	0.00e+00	0	43	0	0	50	4505
2026-01-07 00:01:06.14	348.76	60.46	-39.6	-41.3	20.1	0.00e+00	0	43	0	0	50	4457
2026-01-07 00:01:07.30	348.19	60.87	-39.3	-41.0	20.3	0.00e+00	0	43	0	0	50	4330
2026-01-07 00:01:08.16	347.75	61.17	-39.3	-41.0	20.4	0.00e+00	0	43	0	0	50	4329
2026-01-07 00:01:09.31	347.15	61.57	-39.3	-40.9	20.5	0.00e+00	0	43	0	0	50	4289
2026-01-07 00:01:10.17	346.69	61.87	-39.2	-40.9	20.6	0.00e+00	0	43	0	0	50	4258
2026-01-07 00:01:11.32	346.05	62.27	-39.1	-40.8	20.5	0.00e+00	0	43	0	0	50	4207
2026-01-07 00:01:12.22	345.54	62.58	-39.0	-40.6	20.5	0.00e+00	0	43	0	0	50	4128
2026-01-07 00:01:13.42	344.84	63.00	-38.7	-40.4	20.7	0.00e+00	0	43	0	0	49	4257
2026-01-07 00:01:14.28	344.31	63.29	-38.8	-40.5	20.7	0.00e+00	0	43	0	0	49	4312
2026-01-07 00:01:15.42	343.60	63.69	-38.9	-40.5	20.8	0.00e+00	0	43	0	0	49	4309
2026-01-07 00:01:16.28	343.05	63.98	-39.0	-40.6	20.7	0.00e+00	0	43	0	0	49	4387
2026-01-07 00:01:17.43	342.29	64.38	-39.1	-40.8	20.5	0.00e+00	0	43	0	0	49	4462
2026-01-07 00:01:18.29	341.70	64.67	-38.9	-40.5	20.7	0.00e+00	0	43	0	0	49	4318
2026-01-07 00:01:19.44	340.90	65.06	-38.8	-40.5	20.8	0.00e+00	0	43	0	0	49	4293
2026-01-07 00:01:20.30	340.27	65.35	-38.8	-40.5	20.8	0.00e+00	0	43	0	0	49	4292
2026-01-07 00:01:21.44	339.42	65.73	-38.6	-40.2	21.1	0.00e+00	0	43	0	0	49	4154
2026-01-07 00:01:22.30	338.76	66.01	-38.6	-40.2	21.1	0.00e+00	0	43	0	0	49	4166
2026-01-07 00:01:23.45	337.85	66.39	-38.7	-40.2	21.1	0.00e+00	0	43	0	0	49	4191
2026-01-07 00:01:24.31	337.14	66.67	-38.6	-40.2	21.1	0.00e+00	0	43	0	0	49	4164
2026-01-07 00:01:25.52	336.12	67.06	-38.7	-40.3	21.0	0.00e+00	0	43	0	0	49	4233
2026-01-07 00:01:26.38	335.37	67.34	-38.8	-40.4	20.9	0.00e+00	0	43	0	0	49	4265
2026-01-07 00:01:27.59	334.28	67.72	-38.9	-40.6	20.7	0.00e+00	0	43	0	0	49	4341
2026-01-07 00:01:28.45	333.48	67.99	-39.2	-40.9	20.5	0.00e+00	0	43	0	0	49	4505
2026-01-07 00:01:29.60	332.38	68.34	-39.3	-41.0	20.4	0.00e+00	0	43	0	0	49	4570
2026-01-07 00:01:30.46	331.53	68.60	-39.3	-41.0	20.4	0.00e+00	0	43	0	0	49	4575
2026-01-07 00:01:31.60	330.37	68.94	-38.9	-40.5	20.8	0.00e+00	0	43	0	0	49	4329
2026-01-07 00:01:32.46	329.46	69.19	-38.7	-40.3	20.9	0.00e+00	0	43	0	0	49	4213
2026-01-07 00:01:33.61	328.22	69.51	-38.6	-40.2	20.8	0.00e+00	0	43	0	0	49	4179
2026-01-07 00:01:34.47	327.26	69.75	-38.7	-40.3	20.8	0.00e+00	0	43	0	0	49	4216
2026-01-07 00:01:35.61	325.95	70.06	-38.6	-40.2	20.9	0.00e+00	0	43	0	0	49	4150
2026-01-07 00:01:36.62	324.76	70.33	-38.6	-40.2	20.7	0.00e+00	0	43	0	0	49	4183
2026-01-07 00:01:37.79	323.33	70.63	-38.9	-40.5	20.5	0.00e+00	0	43	0	0	49	4333
2026-01-07 00:01:38.66	322.23	70.85	-38.8	-40.4	20.7	0.00e+00	0	43	0	0	49	4275
2026-01-07 00:01:39.99	320.51	71.17	-39.3	-41.0	20.3	0.00e+00	0	43	0	0	49	4596
2026-01-07 00:01:40.71	319.55	71.33	-39.5	-41.2	20.1	0.00e+00	0	43	0	0	49	4681
2026-01-07 00:01:42.17	317.55	71.65	-39.0	-40.7	20.5	0.00e+00	0	43	0	0	49	4401
2026-01-07 00:01:43.17	316.14	71.86	-38.6	-40.2	20.8	0.00e+00	0	43	0	0	49	4188
2026-01-07 00:01:44.49	314.23	72.12	-38.7	-40.3	20.8	0.00e+00	0	43	0	0	49	4207
2026-01-07 00:01:45.21	313.16	72.26	-38.8	-40.4	20.8	0.00e+00	0	43	0	0	49	4280
2026-01-07 00:01:46.50	311.20	72.48	-38.9	-40.6	20.6	0.00e+00	0	43	0	0	49	4357
2026-01-07 00:01:47.22	310.09	72.60	-39.1	-40.8	20.4	0.00e+00	0	43	0	0	49	4457
2026-01-07 00:01:48.51	308.05	72.79	-39.5	-41.2	19.9	0.00e+00	0	43	0	0	49	4652
2026-01-07 00:01:49.22	306.91	72.89	-39.7	-41.4	19.7	0.00e+00	0	43	0	0	50	4544
2026-01-07 00:01:50.53	304.77	73.05	-39.7	-41.5	19.8	0.00e+00	0	43	0	0	50	4562
2026-01-07 00:01:51.25	303.58	73.13	-39.6	-41.3	20.1	0.00e+00	0	43	0	0	50	4482
2026-01-07 00:01:52.54	301.42	73.26	-39.5	-41.2	20.2	0.00e+00	0	43	0	0	50	4420
2026-01-07 00:01:53.25	300.21	73.32	-39.4	-41.1	20.3	0.00e+00	0	43	0	0	50	4381
2026-01-07 00:01:54.66	297.79	73.41	-38.8	-40.4	20.8	0.00e+00	0	43	0	0	49	4256
2026-01-07 00:01:55.38	296.55	73.45	-38.6	-40.2	21.1	0.00e+00	0	43	0	0	49	4148
2026-01-07 00:01:56.74	294.18	73.50	-38.4	-39.9	21.2	0.00e+00	0	43	0	0	48	4283
2026-01-07 00:01:57.45	292.94	73.52	-38.6	-40.2	20.9	0.00e+00	0	43	0	0	48	4411
2026-01-07 00:01:58.74	290.68	73.53	-38.7	-40.3	20.6	0.00e+00	0	43	0	0	48	4447
2026-01-07 00:01:59.46	289.42	73.53	-38.9	-40.5	20.3	0.00e+00	0	43	0	0	48	4573
2026-01-07 00:02:00.75	287.17	73.50	-38.5	-40.1	21.0	0.00e+00	0	43	0	0	48	4379
2026-01-07 00:02:01.46	285.93	73.47	-38.5	-40.0	21.0	0.00e+00	0	43	0	0	48	4332
2026-01-07 00:02:02.75	283.70	73.41	-38.5	-40.0	21.2	0.00e+00	0	43	0	0	48	4340
2026-01-07 00:02:03.47	282.46	73.36	-38.4	-40.0	21.2	0.00e+00	0	43	0	0	48	4324
2026-01-07 00:02:04.76	280.26	73.26	-38.6	-40.2	20.9	0.00e+00	0	43	0	0	48	4415
2026-01-07 00:02:05.50	279.01	73.19	-38.5	-40.1	21.0	0.00e+00	0	43	0	0	48	4376
2026-01-07 00:02:06.80	276.85	73.05	-38.5	-40.1	21.1	0.00e+00	0	43	0	0	48	4343
2026-01-07 00:02:07.61	275.52	72.95	-38.5	-40.1	21.1	0.00e+00	0	43	0	0	48	4371
2026-01-07 00:02:09.09	273.14	72.75	-38.8	-40.4	20.9	0.00e+00	0	43	0	0	48	4507
2026-01-07 00:02:09.80	272.02	72.65	-38.7	-40.2	21.0	0.00e+00	0	43	0	0	48	4441
2026-01-07 00:02:11.26	269.76	72.41	-38.6	-40.2	20.9	0.00e+00	0	43	0	0	48	4441
2026-01-07 00:02:11.98	268.67	72.28	-38.6	-40.2	21.1	0.00e+00	0	43	0	0	48	4409
2026-01-07 00:02:13.27	266.76	72.04	-38.3	-39.8	21.3	0.00e+00	0	43	0	0	48	4233
2026-01-07 00:02:13.98	265.73	71.90	-38.2	-39.8	21.2	0.00e+00	0	43	0	0	48	4219
2026-01-07 00:02:15.27	263.91	71.63	-38.6	-40.2	21.0	0.00e+00	0	43	0	0	48	4426
2026-01-07 00:02:15.99	262.91	71.47	-39.0	-40.7	20.5	0.00e+00	0	43	0	0	48	4674
2026-01-07 00:02:17.28	261.18	71.18	-39.1	-40.8	20.4	0.00e+00	0	43	0	0	49	4469
2026-01-07 00:02:18.00	260.24	71.01	-39.0	-40.7	20.5	0.00e+00	0	43	0	0	49	4393
2026-01-07 00:02:19.29	258.59	70.69	-38.8	-40.4	20.8	0.00e+00	0	43	0	0	49	4266
2026-01-07 00:02:20.00	257.71	70.51	-38.6	-40.3	21.0	0.00e+00	0	43	0	0	49	4199
2026-01-07 00:02:21.29	256.16	70.18	-38.9	-40.5	20.9	0.00e+00	0	43	0	0	49	4319
2026-01-07 00:02:22.01	255.32	69.98	-39.0	-40.6	20.8	0.00e+00	0	43	0	0	49	4369
2026-01-07 00:02:23.30	253.85	69.63	-38.8	-40.4	20.8	0.00e+00	0	43	0	0	49	4288
2026-01-07 00:02:24.01	253.06	69.43	-38.7	-40.3	20.9	0.00e+00	0	43	0	0	49	4209
2026-01-07 00:02:25.31	251.67	69.05	-38.2	-39.8	21.1	0.00e+00	0	43	0	0	48	4212
2026-01-07 00:02:26.02	250.93	68.85	-38.4	-40.0	20.9	0.00e+00	0	43	0	0	48	4305
2026-01-07 00:02:27.31	249.63	68.46	-39.3	-41.0	20.4	0.00e+00	0	43	0	0	49	4561
2026-01-07 00:02:28.03	248.93	68.24	-39.8	-41.4	20.0	0.00e+00	0	43	0	0	50	4542
2026-01-07 00:02:29.32	247.70	67.84	-39.2	-40.8	20.4	0.00e+00	0	43	0	0	50	4242
2026-01-07 00:02:30.03	247.05	67.62	-38.8	-40.4	20.6	0.00e+00	0	43	0	0	49	4289
2026-01-07 00:02:31.32	245.90	67.21	-38.6	-40.2	21.0	0.00e+00	0	43	0	0	49	4153
2026-01-07 00:02:32.04	245.27	66.98	-38.5	-40.1	21.2	0.00e+00	0	43	0	0	48	4367
2026-01-07 00:02:33.33	244.19	66.56	-38.5	-40.1	21.2	0.00e+00	0	43	0	0	48	4372
2026-01-07 00:02:34.04	243.61	66.33	-38.9	-40.5	20.8	0.00e+00	0	43	0	0	48	4586
2026-01-07 00:02:35.33	242.60	65.90	-39.8	-41.5	19.9	0.00e+00	0	43	0	0	50	4579
2026-01-07 00:02:36.05	242.04	65.66	-39.7	-41.4	19.9	0.00e+00	0	43	0	0	50	4523
2026-01-07 00:02:37.34	241.09	65.23	-39.4	-41.1	19.8	0.00e+00	0	43	0	0	50	4359
2026-01-07 00:02:38.05	240.58	64.99	-39.0	-40.6	20.4	0.00e+00	0	43	0	0	50	4142
2026-01-07 00:02:39.35	239.67	64.55	-38.8	-40.4	20.8	0.00e+00	0	43	0	0	49	4291
2026-01-07 00:02:40.06	239.19	64.31	-39.2	-40.9	20.5	0.00e+00	0	43	0	0	49	4517
2026-01-07 00:02:41.35	238.34	63.86	-39.8	-41.5	20.0	0.00e+00	0	43	0	0	50	4586
2026-01-07 00:02:42.07	237.88	63.62	-39.9	-41.6	19.8	0.00e+00	0	43	0	0	50	4623
2026-01-07 00:02:43.36	237.08	63.17	-39.6	-41.3	19.6	0.00e+00	0	43	0	0	50	4480
2026-01-07 00:02:44.08	236.64	62.92	-39.3	-41.0	19.9	0.00e+00	0	43	0	0	50	4304
2026-01-07 00:02:45.37	235.89	62.47	-38.7	-40.3	20.7	0.00e+00	0	43	0	0	49	4235
2026-01-07 00:02:46.09	235.48	62.22	-38.2	-39.8	21.3	0.00e+00	0	43	0	0	48	4216
2026-01-07 00:02:47.38	234.77	61.77	-39.0	-40.6	20.7	0.00e+00	0	43	0	0	48	4648
2026-01-07 00:02:48.09	234.39	61.52	-39.6	-41.2	20.2	0.00e+00	0	43	0	0	49	4697
2026-01-07 00:02:49.75	233.53	60.94	-40.2	-42.0	19.4	0.00e+00	0	43	0	0	51	4571
2026-01-07 00:02:50.33	233.24	60.74	-40.2	-42.0	19.4	0.00e+00	0	43	0	0	51	4557
2026-01-07 00:02:51.90	232.47	60.19	-39.2	-40.9	20.4	0.00e+00	0	43	0	0	50	4253
2026-01-07 00:02:52.67	232.11	59.92	-39.1	-40.8	20.5	0.00e+00	0	43	0	0	50	4207
2026-01-07 00:02:53.96	231.51	59.47	-38.6	-40.2	21.1	0.00e+00	0	43	0	0	49	4154
2026-01-07 00:02:54.67	231.20	59.22	-38.6	-40.1	21.2	0.00e+00	0	43	0	0	49	4135
2026-01-07 00:02:55.96	230.64	58.77	-39.5	-41.2	20.2	0.00e+00	0	43	0	0	49	4679
2026-01-07 00:02:56.68	230.33	58.52	-40.3	-42.0	19.5	0.00e+00	0	43	0	0	51	4587
2026-01-07 00:02:57.97	229.80	58.07	-40.7	-42.5	19.0	0.00e+00	0	43	0	0	52	4587
2026-01-07 00:02:58.68	229.51	57.83	-40.0	-41.7	19.3	0.00e+00	0	43	0	0	52	4191
2026-01-07 00:03:00.13	228.95	57.32	-39.4	-41.1	19.8	0.00e+00	0	43	0	0	50	4356
2026-01-07 00:03:00.85	228.67	57.08	-39.1	-40.8	20.3	0.00e+00	0	43	0	0	50	4201
2026-01-07 00:03:02.14	228.19	56.63	-39.1	-40.7	20.5	0.00e+00	0	43	0	0	49	4411
2026-01-07 00:03:02.85	227.94	56.39	-39.3	-41.0	20.2	0.00e+00	0	43	0	0	49	4551
2026-01-07 00:03:04.27	227.44	55.90	-39.7	-41.4	20.0	0.00e+00	0	43	0	0	50	4519
2026-01-07 00:03:04.98	227.19	55.66	-40.1	-41.8	19.6	0.00e+00	0	43	0	0	50	4757
2026-01-07 00:03:06.27	226.76	55.22	-40.7	-42.5	19.0	0.00e+00	0	43	0	0	51	4821
2026-01-07 00:03:06.99	226.53	54.98	-41.2	-43.1	18.2	0.00e+00	0	43	0	0	52	4882
2026-01-07 00:03:08.28	226.12	54.54	-41.6	-43.5	17.5	0.00e+00	0	43	0	0	53	4870
2026-01-07 00:03:08.99	225.89	54.30	-41.2	-43.1	18.1	0.00e+00	0	43	0	0	53	4645
2026-01-07 00:03:10.28	225.50	53.87	-40.7	-42.5	18.6	0.00e+00	0	43	0	0	53	4329
2026-01-07 00:03:11.01	225.28	53.63	-40.8	-42.7	18.5	0.00e+00	0	43	0	0	53	4398
2026-01-07 00:03:12.30	224.91	53.20	-40.7	-42.5	18.8	0.00e+00	0	43	0	0	53	4302
2026-01-07 00:03:13.02	224.71	52.96	-40.7	-42.6	18.8	0.00e+00	0	43	0	0	53	4354
2026-01-07 00:03:14.30	224.35	52.54	-41.2	-43.0	18.4	0.00e+00	0	43	0	0	53	4598
2026-01-07 00:03:15.02	224.16	52.30	-41.0	-42.8	18.7	0.00e+00	0	43	0	0	53	4473
2026-01-07 00:03:16.32	223.81	51.88	-40.7	-42.6	18.9	0.00e+00	0	43	0	0	53	4345
2026-01-07 00:03:17.03	223.63	51.65	-41.0	-42.9	18.6	0.00e+00	0	43	0	0	53	4525
2026-01-07 00:03:18.32	223.30	51.23	-41.3	-43.3	18.2	0.00e+00	0	43	0	0	53	4708
2026-01-07 00:03:19.04	223.12	51.00	-41.3	-43.2	18.2	0.00e+00	0	43	0	0	53	4665
2026-01-07 00:03:20.33	222.81	50.59	-41.1	-42.9	18.1	0.00e+00	0	43	0	0	53	4544
2026-01-07 00:03:21.04	222.64	50.36	-41.2	-43.1	18.0	0.00e+00	0	43	0	0	53	4636
2026-01-07 00:03:22.33	222.34	49.95	-41.4	-43.3	18.1	0.00e+00	0	43	0	0	53	4750
2026-01-07 00:03:23.05	222.18	49.73	-41.6	-43.5	17.9	0.00e+00	0	43	0	0	53	4868
2026-01-07 00:03:24.34	221.89	49.32	-42.3	-44.4	17.2	0.00e+00	0	43	0	0	55	4760
2026-01-07 00:03:25.05	221.73	49.10	-42.5	-44.6	17.0	0.00e+00	0	43	0	0	55	4894
2026-01-07 00:03:26.34	221.46	48.70	-42.6	-44.8	16.8	0.00e+00	0	42	0	0	55	4984
2026-01-07 00:03:27.06	221.31	48.48	-42.4	-44.5	16.9	0.00e+00	0	43	0	0	55	4865
2026-01-07 00:03:28.35	221.04	48.09	-42.5	-44.6	16.9	0.00e+00	0	43	0	0	55	4897
2026-01-07 00:03:29.06	220.90	47.87	-42.9	-45.1	16.6	0.00e+00	0	43	0	0	56	4899
2026-01-07 00:03:30.73	220.57	47.37	-43.6	-46.0	15.8	0.00e+00	0	43	0	0	57	5106
2026-01-07 00:03:31.31	220.46	47.19	-43.6	-45.9	15.8	0.00e+00	0	43	0	0	58	4807
2026-01-07 00:03:32.90	220.16	46.72	-42.6	-44.7	16.8	0.00e+00	0	43	0	0	57	4436
2026-01-07 00:03:33.47	220.05	46.55	-42.3	-44.3	17.1	0.00e+00	0	43	0	0	56	4478
2026-01-07 00:03:35.06	219.77	46.08	-41.7	-43.7	17.7	0.00e+00	0	43	0	0	55	4392
2026-01-07 00:03:35.64	219.66	45.91	-41.3	-43.2	18.2	0.00e+00	0	43	0	0	54	4393
2026-01-07 00:03:37.23	219.39	45.45	-40.8	-42.6	18.8	0.00e+00	0	43	0	0	53	4366
2026-01-07 00:03:37.81	219.29	45.28	-41.0	-42.9	18.6	0.00e+00	0	43	0	0	53	4498
2026-01-07 00:03:39.38	219.03	44.83	-42.6	-44.7	16.9	0.00e+00	0	43	0	0	55	4944
2026-01-07 00:03:39.97	218.93	44.66	-43.3	-45.5	16.2	0.00e+00	0	43	0	0	57	4846
2026-01-07 00:03:41.55	218.68	44.21	-44.0	-46.5	15.2	0.00e+00	0	43	0	0	58	5131
2026-01-07 00:03:42.14	218.58	44.05	-44.1	-46.6	15.0	0.00e+00	0	43	0	0	58	5218
2026-01-07 00:03:43.71	218.34	43.61	-44.0	-46.4	15.3	0.00e+00	0	43	0	0	59	4798
2026-01-07 00:03:44.57	218.21	43.37	-43.4	-45.6	16.1	0.00e+00	0	43	0	0	58	4638
2026-01-07 00:03:45.72	218.04	43.06	-42.8	-44.9	16.8	0.00e+00	0	43	0	0	57	4519
2026-01-07 00:03:46.58	217.92	42.82	-42.6	-44.7	17.0	0.00e+00	0	43	0	0	57	4396
2026-01-07 00:03:47.72	217.75	42.51	-42.5	-44.5	17.1	0.00e+00	0	43	0	0	56	4581
2026-01-07 00:03:48.59	217.63	42.28	-42.1	-44.1	17.5	0.00e+00	0	43	0	0	56	4352
2026-01-07 00:03:49.73	217.47	41.97	-41.9	-43.8	17.4	0.00e+00	0	43	0	0	55	4485
2026-01-07 00:03:50.59	217.36	41.74	-41.5	-43.4	17.8	0.00e+00	0	43	0	0	55	4254
2026-01-07 00:03:51.74	217.20	41.44	-41.0	-42.9	18.4	0.00e+00	0	43	0	0	54	4256
2026-01-07 00:03:52.71	217.07	41.18	-40.7	-42.5	18.8	0.00e+00	0	43	0	0	53	4330
2026-01-07 00:03:53.87	216.93	40.88	-40.9	-42.7	18.6	0.00e+00	0	43	0	0	53	4414
2026-01-07 00:03:54.75	216.81	40.65	-41.1	-42.9	18.5	0.00e+00	0	43	0	0	53	4525
2026-01-07 00:03:55.89	216.67	40.36	-41.4	-43.3	18.2	0.00e+00	0	43	0	0	53	4720
2026-01-07 00:03:56.75	216.57	40.14	-42.0	-44.0	17.6	0.00e+00	0	43	0	0	54	4818
2026-01-07 00:03:57.90	216.43	39.84	-42.9	-45.1	16.5	0.00e+00	0	43	0	0	56	4904
2026-01-07 00:03:58.76	216.32	39.63	-43.4	-45.7	15.9	0.00e+00	0	43	0	0	57	4978
2026-01-07 00:03:59.91	216.19	39.34	-43.6	-46.0	15.7	0.00e+00	0	43	0	0	57	5127
2026-01-07 00:04:00.76	216.09	39.13	-43.3	-45.7	16.0	0.00e+00	0	43	0	0	57	4937
2026-01-07 00:04:01.91	215.96	38.84	-42.6	-44.8	16.9	0.00e+00	0	43	0	0	57	4442
2026-01-07 00:04:02.77	215.86	38.63	-42.3	-44.3	17.3	0.00e+00	0	43	0	0	56	4480
2026-01-07 00:04:03.91	215.74	38.35	-41.6	-43.5	17.8	0.00e+00	0	43	0	0	55	4330
2026-01-07 00:04:04.77	215.65	38.14	-41.3	-43.2	18.1	0.00e+00	0	43	0	0	54	4429
2026-01-07 00:04:06.01	215.51	37.85	-41.0	-42.8	18.4	0.00e+00	0	43	0	0	53	4487
2026-01-07 00:04:06.87	215.42	37.64	-41.0	-42.8	18.5	0.00e+00	0	43	0	0	53	4492
2026-01-07 00:04:08.01	215.30	37.37	-41.0	-42.9	18.5	0.00e+00	0	43	0	0	53	4496
2026-01-07 00:04:08.87	215.22	37.17	-40.9	-42.8	18.6	0.00e+00	0	43	0	0	53	4473
2026-01-07 00:04:10.02	215.10	36.90	-40.8	-42.6	18.7	0.00e+00	0	43	0	0	53	4391
2026-01-07 00:04:10.88	215.02	36.70	-40.6	-42.4	18.9	0.00e+00	0	43	0	0	53	4273
2026-01-07 00:04:12.02	214.91	36.43	-40.7	-42.5	18.8	0.00e+00	0	43	0	0	53	4314
2026-01-07 00:04:12.89	214.82	36.23	-40.6	-42.4	18.9	0.00e+00	0	43	0	0	53	4285
2026-01-07 00:04:14.03	214.71	35.97	-40.7	-42.6	18.8	0.00e+00	0	43	0	0	53	4351
2026-01-07 00:04:14.89	214.63	35.78	-40.7	-42.5	18.8	0.00e+00	0	43	0	0	53	4312
2026-01-07 00:04:16.03	214.53	35.52	-40.6	-42.4	18.9	0.00e+00	0	43	0	0	53	4274
2026-01-07 00:04:16.89	214.45	35.33	-40.5	-42.3	19.0	0.00e+00	0	43	0	0	53	4242
2026-01-07 00:04:18.04	214.35	35.07	-40.7	-42.5	18.8	0.00e+00	0	43	0	0	53	4310
2026-01-07 00:04:18.90	214.27	34.88	-40.8	-42.6	18.7	0.00e+00	0	43	0	0	53	4390
2026-01-07 00:04:20.04	214.17	34.63	-40.8	-42.6	18.7	0.00e+00	0	43	0	0	53	4378
2026-01-07 00:04:20.90	214.10	34.44	-40.7	-42.5	18.8	0.00e+00	0	43	0	0	53	4332
2026-01-07 00:04:22.05	214.00	34.20	-40.7	-42.5	18.8	0.00e+00	0	43	0	0	53	4326
2026-01-07 00:04:22.91	213.93	34.01	-40.7	-42.5	18.8	0.00e+00	0	43	0	0	53	4320
2026-01-07 00:04:24.05	213.84	33.77	-40.5	-42.3	19.0	0.00e+00	0	43	0	0	52	4452
2026-01-07 00:04:24.91	213.77	33.59	-40.4	-42.2	18.9	0.00e+00	0	43	0	0	52	4441
2026-01-07 00:04:26.06	213.67	33.34	-40.8	-42.6	18.6	0.00e+00	0	43	0	0	52	4630
2026-01-07 00:04:26.92	213.61	33.16	-40.9	-42.8	18.5	0.00e+00	0	43	0	0	52	4721
2026-01-07 00:04:28.06	213.52	32.93	-40.9	-42.7	18.6	0.00e+00	0	43	0	0	52	4685
2026-01-07 00:04:28.92	213.45	32.75	-40.8	-42.7	18.7	0.00e+00	0	43	0	0	52	4668
2026-01-07 00:04:30.07	213.36	32.51	-40.5	-42.3	19.0	0.00e+00	0	43	0	0	52	4488
2026-01-07 00:04:30.93	213.30	32.34	-40.4	-42.1	19.2	0.00e+00	0	43	0	0	52	4389
2026-01-07 00:04:32.07	213.21	32.11	-40.3	-42.1	19.2	0.00e+00	0	43	0	0	52	4357
2026-01-07 00:04:32.93	213.15	31.93	-40.3	-42.0	19.3	0.00e+00	0	43	0	0	52	4335
2026-01-07 00:04:34.14	213.06	31.69	-40.2	-42.0	19.3	0.00e+00	0	43	0	0	52	4318
2026-01-07 00:04:35.00	213.00	31.52	-40.2	-42.0	19.3	0.00e+00	0	43	0	0	52	4328
2026-01-07 00:04:36.15	212.92	31.29	-40.2	-42.0	19.4	0.00e+00	0	43	0	0	52	4293
2026-01-07 00:04:37.01	212.86	31.12	-40.3	-42.1	19.2	0.00e+00	0	43	0	0	52	4351
2026-01-07 00:04:38.16	212.78	30.90	-40.4	-42.2	19.0	0.00e+00	0	43	0	0	52	4430
2026-01-07 00:04:39.02	212.72	30.73	-40.4	-42.2	19.0	0.00e+00	0	43	0	0	52	4420
2026-01-07 00:04:40.16	212.65	30.51	-40.5	-42.3	18.9	0.00e+00	0	43	0	0	52	4466
2026-01-07 00:04:41.02	212.59	30.35	-40.6	-42.4	18.7	0.00e+00	0	43	0	0	52	4539
2026-01-07 00:04:42.16	212.52	30.13	-40.7	-42.6	18.6	0.00e+00	0	43	0	0	52	4620
2026-01-07 00:04:43.25	212.45	29.93	-40.8	-42.7	18.5	0.00e+00	0	43	0	0	52	4669
2026-01-07 00:04:44.11	212.39	29.77	-40.8	-42.6	18.6	0.00e+00	0	43	0	0	52	4648
2026-01-07 00:04:45.25	212.32	29.55	-40.7	-42.6	18.7	0.00e+00	0	43	0	0	52	4599
2026-01-07 00:04:46.11	212.27	29.39	-40.5	-42.3	18.9	0.00e+00	0	43	0	0	52	4481
2026-01-07 00:04:47.26	212.20	29.18	-40.3	-42.0	19.2	0.00e+00	0	43	0	0	52	4321
2026-01-07 00:04:48.12	212.14	29.03	-40.3	-42.0	19.2	0.00e+00	0	43	0	0	52	4329
2026-01-07 00:04:49.27	212.08	28.82	-40.0	-41.7	19.5	0.00e+00	0	43	0	0	51	4400
2026-01-07 00:04:50.12	212.02	28.66	-39.9	-41.6	19.6	0.00e+00	0	43	0	0	51	4354
2026-01-07 00:04:51.27	211.96	28.46	-39.6	-41.3	19.8	0.00e+00	0	43	0	0	51	4219
2026-01-07 00:04:52.13	211.91	28.30	-39.5	-41.2	19.9	0.00e+00	0	43	0	0	51	4162
2026-01-07 00:04:53.28	211.84	28.10	-39.5	-41.2	19.9	0.00e+00	0	43	0	0	51	4179
2026-01-07 00:04:54.22	211.79	27.94	-39.3	-41.0	20.1	0.00e+00	0	43	0	0	50	4308
2026-01-07 00:04:55.40	211.72	27.73	-39.2	-40.9	20.2	0.00e+00	0	43	0	0	50	4253
2026-01-07 00:04:56.25	211.68	27.58	-39.2	-40.8	20.4	0.00e+00	0	43	0	0	50	4205
2026-01-07 00:04:57.61	211.60	27.35	-38.9	-40.5	20.5	0.00e+00	0	43	0	0	49	4330
2026-01-07 00:04:58.32	211.56	27.23	-38.9	-40.5	20.6	0.00e+00	0	43	0	0	49	4305
2026-01-07 00:04:59.61	211.50	27.01	-38.9	-40.5	20.6	0.00e+00	0	43	0	0	49	4320
2026-01-07 00:05:00.32	211.46	26.89	-38.9	-40.5	20.6	0.00e+00	0	43	0	0	49	4322
2026-01-07 00:05:01.61	211.39	26.67	-38.9	-40.6	20.5	0.00e+00	0	43	0	0	49	4345
2026-01-07 00:05:02.33	211.35	26.55	-38.9	-40.5	20.6	0.00e+00	0	43	0	0	49	4303
2026-01-07 00:05:03.62	211.29	26.33	-39.0	-40.7	20.4	0.00e+00	0	43	0	0	49	4397
2026-01-07 00:05:04.33	211.25	26.22	-39.1	-40.8	20.3	0.00e+00	0	43	0	0	49	4447
2026-01-07 00:05:05.62	211.19	26.00	-39.3	-41.0	20.1	0.00e+00	0	43	0	0	49	4570
2026-01-07 00:05:06.46	211.15	25.87	-39.5	-41.2	20.0	0.00e+00	0	43	0	0	49	4663
2026-01-07 00:05:07.61	211.09	25.68	-39.5	-41.2	19.9	0.00e+00	0	43	0	0	49	4704
2026-01-07 00:05:08.72	211.04	25.50	-39.6	-41.3	19.9	0.00e+00	0	43	0	0	49	4747
2026-01-07 00:05:09.58	211.00	25.36	-39.7	-41.5	19.7	0.00e+00	0	43	0	0	50	4559
2026-01-07 00:05:10.73	210.94	25.18	-39.8	-41.5	19.6	0.00e+00	0	43	0	0	50	4592
2026-01-07 00:05:11.59	210.90	25.04	-39.8	-41.6	19.6	0.00e+00	0	43	0	0	50	4600
2026-01-07 00:05:12.73	210.85	24.86	-40.0	-41.7	19.5	0.00e+00	0	43	0	0	50	4685
2026-01-07 00:05:13.60	210.81	24.73	-40.1	-41.8	19.4	0.00e+00	0	43	0	0	50	4748
2026-01-07 00:05:14.74	210.76	24.55	-40.2	-42.0	19.3	0.00e+00	0	43	0	0	51	4550
2026-01-07 00:05:15.60	210.72	24.42	-40.2	-42.0	19.2	0.00e+00	0	43	0	0	51	4593
2026-01-07 00:05:16.74	210.67	24.24	-40.4	-42.2	19.1	0.00e+00	0	43	0	0	51	4681
2026-01-07 00:05:17.60	210.63	24.11	-40.4	-42.1	19.1	0.00e+00	0	43	0	0	51	4648
2026-01-07 00:05:18.75	210.58	23.93	-40.3	-42.0	19.2	0.00e+00	0	43	0	0	51	4591
2026-01-07 00:05:19.61	210.54	23.80	-40.3	-42.1	19.2	0.00e+00	0	43	0	0	51	4615
2026-01-07 00:05:20.75	210.50	23.63	-40.3	-42.1	19.2	0.00e+00	0	43	0	0	51	4618
2026-01-07 00:05:21.71	210.46	23.49	-40.3	-42.1	19.2	0.00e+00	0	43	0	0	51	4606
2026-01-07 00:05:22.89	210.41	23.31	-40.3	-42.0	19.3	0.00e+00	0	43	0	0	51	4587
2026-01-07 00:05:23.81	210.37	23.18	-40.3	-42.1	19.2	0.00e+00	0	43	0	0	51	4627
2026-01-07 00:05:24.99	210.32	23.00	-40.3	-42.1	19.2	0.00e+00	0	43	0	0	51	4599
2026-01-07 00:05:25.85	210.29	22.88	-40.4	-42.2	19.1	0.00e+00	0	43	0	0	51	4661
2026-01-07 00:05:26.99	210.24	22.71	-40.2	-42.0	19.3	0.00e+00	0	43	0	0	51	4551
2026-01-07 00:05:27.86	210.21	22.59	-40.2	-42.0	19.3	0.00e+00	0	43	0	0	51	4558
2026-01-07 00:05:29.00	210.16	22.42	-40.0	-41.8	19.5	0.00e+00	0	43	0	0	51	4443
2026-01-07 00:05:29.86	210.13	22.30	-40.0	-41.7	19.5	0.00e+00	0	43	0	0	51	4441
2026-01-07 00:05:31.00	210.09	22.14	-39.9	-41.7	19.5	0.00e+00	0	43	0	0	51	4411
2026-01-07 00:05:31.87	210.05	22.02	-39.9	-41.6	19.6	0.00e+00	0	43	0	0	51	4368
2026-01-07 00:05:33.01	210.01	21.86	-39.9	-41.6	19.5	0.00e+00	0	43	0	0	51	4388
2026-01-07 00:05:33.87	209.98	21.74	-39.9	-41.6	19.5	0.00e+00	0	43	0	0	51	4377
2026-01-07 00:05:35.02	209.94	21.58	-39.9	-41.6	19.6	0.00e+00	0	43	0	0	51	4367
2026-01-07 00:05:35.88	209.90	21.46	-39.9	-41.6	19.5	0.00e+00	0	43	0	0	51	4370
2026-01-07 00:05:37.02	209.86	21.30	-39.9	-41.6	19.5	0.00e+00	0	43	0	0	51	4373
2026-01-07 00:05:37.89	209.83	21.18	-39.8	-41.5	19.6	0.00e+00	0	43	0	0	51	4332
2026-01-07 00:05:39.03	209.79	21.03	-39.8	-41.6	19.6	0.00e+00	0	43	0	0	51	4358
2026-01-07 00:05:39.89	209.76	20.91	-39.9	-41.6	19.5	0.00e+00	0	43	0	0	51	4382
2026-01-07 00:05:41.04	209.72	20.75	-39.9	-41.7	19.4	0.00e+00	0	43	0	0	51	4409
2026-01-07 00:05:41.90	209.69	20.64	-39.9	-41.6	19.5	0.00e+00	0	43	0	0	51	4378
2026-01-07 00:05:43.04	209.65	20.49	-39.8	-41.6	19.5	0.00e+00	0	43	0	0	51	4365
2026-01-07 00:05:43.90	209.62	20.37	-39.8	-41.5	19.6	0.00e+00	0	43	0	0	51	4319
2026-01-07 00:05:45.05	209.58	20.22	-39.8	-41.5	19.6	0.00e+00	0	43	0	0	51	4321
2026-01-07 00:05:45.91	209.56	20.11	-39.7	-41.4	19.6	0.00e+00	0	43	0	0	51	4284
2026-01-07 00:05:47.07	209.52	19.96	-39.7	-41.5	19.6	0.00e+00	0	43	0	0	51	4300
2026-01-07 00:05:47.93	209.49	19.85	-39.8	-41.6	19.5	0.00e+00	0	43	0	0	51	4351
2026-01-07 00:05:49.14	209.45	19.69	-39.7	-41.4	19.6	0.00e+00	0	43	0	0	51	4264
2026-01-07 00:05:50.00	209.42	19.58	-39.7	-41.5	19.6	0.00e+00	0	43	0	0	51	4292
2026-01-07 00:05:51.15	209.39	19.43	-39.7	-41.5	19.5	0.00e+00	0	43	0	0	51	4304
2026-01-07 00:05:52.01	209.36	19.32	-39.7	-41.4	19.6	0.00e+00	0	43	0	0	51	4278
2026-01-07 00:05:53.16	209.32	19.18	-39.8	-41.5	19.5	0.00e+00	0	43	0	0	51	4339
2026-01-07 00:05:54.02	209.30	19.07	-39.8	-41.6	19.4	0.00e+00	0	43	0	0	51	4357
2026-01-07 00:05:55.16	209.26	18.93	-39.8	-41.6	19.5	0.00e+00	0	43	0	0	51	4343
2026-01-07 00:05:56.02	209.24	18.82	-40.0	-41.8	19.3	0.00e+00	0	43	0	0	51	4453
2026-01-07 00:05:57.17	209.20	18.68	-40.0	-41.7	19.3	0.00e+00	0	43	0	0	51	4425
2026-01-07 00:05:58.02	209.18	18.57	-39.9	-41.7	19.3	0.00e+00	0	43	0	0	51	4416
2026-01-07 00:05:59.17	209.14	18.43	-40.0	-41.7	19.3	0.00e+00	0	43	0	0	51	4440
2026-01-07 00:06:00.03	209.12	18.33	-40.1	-41.8	19.2	0.00e+00	0	43	0	0	51	4488
2026-01-07 00:06:01.17	209.08	18.19	-40.1	-41.9	19.2	0.00e+00	0	43	0	0	51	4513
2026-01-07 00:06:02.03	209.06	18.08	-40.2	-41.9	19.1	0.00e+00	0	43	0	0	51	4539
2026-01-07 00:06:03.18	209.03	17.94	-40.2	-42.0	19.1	0.00e+00	0	43	0	0	51	4564
2026-01-07 00:06:04.04	209.00	17.84	-40.3	-42.1	19.0	0.00e+00	0	43	0	0	51	4632
2026-01-07 00:06:05.18	208.97	17.71	-40.4	-42.2	18.9	0.00e+00	0	43	0	0	51	4657
2026-01-07 00:06:06.11	208.94	17.59	-40.3	-42.1	19.0	0.00e+00	0	43	0	0	51	4628
2026-01-07 00:06:07.32	208.91	17.45	-40.3	-42.1	18.9	0.00e+00	0	43	0	0	51	4646
2026-01-07 00:06:08.22	208.89	17.35	-40.4	-42.2	18.9	0.00e+00	0	43	0	0	51	4676
2026-01-07 00:06:09.40	208.86	17.21	-40.5	-42.3	18.8	0.00e+00	0	43	0	0	51	4727
2026-01-07 00:06:10.26	208.83	17.11	-40.6	-42.4	18.7	0.00e+00	0	43	0	0	51	4779
2026-01-07 00:06:11.61	208.80	16.95	-40.5	-42.3	18.8	0.00e+00	0	43	0	0	51	4748
2026-01-07 00:06:12.33	208.78	16.87	-40.6	-42.4	18.7	0.00e+00	0	43	0	0	51	4791
2026-01-07 00:06:13.62	208.74	16.72	-40.6	-42.4	18.7	0.00e+00	0	43	0	0	51	4776
2026-01-07 00:06:14.34	208.73	16.64	-40.6	-42.4	18.7	0.00e+00	0	43	0	0	51	4777
2026-01-07 00:06:15.63	208.69	16.49	-40.5	-42.3	18.8	0.00e+00	0	43	0	0	51	4737
2026-01-07 00:06:16.35	208.67	16.41	-40.6	-42.4	18.7	0.00e+00	0	43	0	0	51	4784
2026-01-07 00:06:17.63	208.64	16.27	-40.6	-42.5	18.7	0.00e+00	0	43	0	0	51	4833
2026-01-07 00:06:18.43	208.62	16.18	-40.5	-42.4	18.8	0.00e+00	0	43	0	0	51	4762
2026-01-07 00:06:19.58	208.59	16.05	-40.6	-42.5	18.7	0.00e+00	0	43	0	0	51	4831
2026-01-07 00:06:20.44	208.57	15.95	-40.7	-42.5	18.6	0.00e+00	0	43	0	0	52	4583
2026-01-07 00:06:21.59	208.54	15.83	-40.6	-42.4	18.7	0.00e+00	0	43	0	0	52	4526
2026-01-07 00:06:22.44	208.52	15.73	-40.6	-42.4	18.7	0.00e+00	0	43	0	0	52	4516
2026-01-07 00:06:23.59	208.50	15.61	-40.5	-42.4	18.7	0.00e+00	0	43	0	0	52	4508
2026-01-07 00:06:24.45	208.48	15.51	-40.6	-42.5	18.6	0.00e+00	0	43	0	0	52	4562
2026-01-07 00:06:25.61	208.45	15.39	-40.6	-42.4	18.6	0.00e+00	0	43	0	0	52	4540
2026-01-07 00:06:26.47	208.43	15.29	-40.6	-42.4	18.6	0.00e+00	0	43	0	0	52	4536
2026-01-07 00:06:27.62	208.40	15.17	-40.7	-42.6	18.4	0.00e+00	0	43	0	0	52	4624
2026-01-07 00:06:28.48	208.38	15.08	-40.6	-42.5	18.6	0.00e+00	0	43	0	0	52	4570
2026-01-07 00:06:29.62	208.36	14.96	-40.7	-42.6	18.5	0.00e+00	0	43	0	0	52	4613
2026-01-07 00:06:30.54	208.33	14.86	-40.7	-42.6	18.5	0.00e+00	0	43	0	0	52	4624
2026-01-07 00:06:31.55	208.31	14.75	-40.9	-42.8	18.3	0.00e+00	0	43	0	0	52	4712
2026-01-07 00:06:32.55	208.29	14.65	-40.8	-42.7	18.4	0.00e+00	0	43	0	0	52	4681
2026-01-07 00:06:33.55	208.27	14.54	-40.9	-42.8	18.3	0.00e+00	0	43	0	0	52	4708
2026-01-07 00:06:34.55	208.24	14.44	-40.8	-42.7	18.3	0.00e+00	0	43	0	0	52	4687
2026-01-07 00:06:35.56	208.22	14.33	-40.9	-42.8	18.3	0.00e+00	0	43	0	0	52	4721
2026-01-07 00:06:36.56	208.20	14.23	-40.9	-42.8	18.2	0.00e+00	0	43	0	0	52	4748
2026-01-07 00:06:37.56	208.18	14.13	-40.9	-42.8	18.2	0.00e+00	0	43	0	0	52	4742
2026-01-07 00:06:38.56	208.16	14.02	-40.9	-42.8	18.2	0.00e+00	0	43	0	0	52	4759
2026-01-07 00:06:39.57	208.14	13.92	-41.0	-42.9	18.2	0.00e+00	0	43	0	0	52	4781
2026-01-07 00:06:40.57	208.12	13.82	-41.1	-43.0	18.0	0.00e+00	0	43	0	0	52	4842
2026-01-07 00:06:41.57	208.10	13.72	-41.0	-42.9	18.1	0.00e+00	0	43	0	0	52	4801
2026-01-07 00:06:42.57	208.07	13.62	-41.1	-43.0	18.0	0.00e+00	0	43	0	0	52	4851
2026-01-07 00:06:43.58	208.05	13.51	-41.1	-43.1	18.0	0.00e+00	0	43	0	0	53	4609
2026-01-07 00:06:44.58	208.03	13.41	-41.2	-43.2	17.8	0.00e+00	0	43	0	0	53	4669
2026-01-07 00:06:45.58	208.01	13.31	-41.0	-42.9	18.1	0.00e+00	0	43	0	0	53	4534
2026-01-07 00:06:46.59	207.99	13.21	-41.0	-42.9	18.1	0.00e+00	0	43	0	0	53	4515
2026-01-07 00:06:47.59	207.97	13.12	-41.0	-42.9	18.1	0.00e+00	0	43	0	0	53	4524
2026-01-07 00:06:48.82	207.95	12.99	-41.0	-43.0	18.0	0.00e+00	0	43	0	0	53	4561
2026-01-07 00:06:49.68	207.93	12.91	-41.1	-43.1	17.9	0.00e+00	0	43	0	0	53	4612
2026-01-07 00:06:51.03	207.91	12.78	-41.1	-43.1	17.9	0.00e+00	0	43	0	0	53	4625
2026-01-07 00:06:51.75	207.89	12.71	-41.0	-43.0	18.0	0.00e+00	0	43	0	0	53	4565
2026-01-07 00:06:53.22	207.86	12.57	-41.0	-42.9	18.0	0.00e+00	0	43	0	0	53	4534
2026-01-07 00:06:53.94	207.85	12.50	-41.1	-43.0	17.9	0.00e+00	0	43	0	0	53	4582
2026-01-07 00:06:55.23	207.83	12.37	-41.0	-43.0	18.0	0.00e+00	0	43	0	0	53	4554
2026-01-07 00:06:56.29	207.81	12.27	-41.0	-43.0	18.0	0.00e+00	0	43	0	0	53	4554
2026-01-07 00:06:57.15	207.79	12.19	-41.1	-43.0	17.9	0.00e+00	0	43	0	0	53	4588
2026-01-07 00:06:58.30	207.77	12.08	-41.0	-42.9	18.0	0.00e+00	0	43	0	0	53	4542
2026-01-07 00:06:59.16	207.75	12.00	-41.1	-43.0	17.9	0.00e+00	0	43	0	0	53	4593
2026-01-07 00:07:00.34	207.73	11.89	-41.1	-43.0	17.9	0.00e+00	0	43	0	0	53	4592
2026-01-07 00:07:01.20	207.72	11.81	-41.1	-43.0	17.8	0.00e+00	0	43	0	0	53	4588
2026-01-07 00:07:02.35	207.70	11.70	-41.1	-43.1	17.9	0.00e+00	0	43	0	0	53	4602
2026-01-07 00:07:03.21	207.68	11.62	-41.1	-43.1	17.8	0.00e+00	0	43	0	0	53	4611
2026-01-07 00:07:04.35	207.66	11.51	-41.1	-43.1	17.8	0.00e+00	0	43	0	0	53	4613
2026-01-07 00:07:05.21	207.65	11.43	-41.1	-43.1	17.8	0.00e+00	0	43	0	0	53	4609
2026-01-07 00:07:06.60	207.62	11.31	-41.2	-43.1	17.7	0.00e+00	0	43	0	0	53	4650
2026-01-07 00:07:07.32	207.61	11.24	-41.2	-43.1	17.7	0.00e+00	0	43	0	0	53	4650
2026-01-07 00:07:08.61	207.59	11.12	-41.1	-43.1	17.7	0.00e+00	0	43	0	0	53	4640
2026-01-07 00:07:09.32	207.58	11.06	-41.1	-43.1	17.7	0.00e+00	0	43	0	0	53	4622
2026-01-07 00:07:10.61	207.55	10.94	-41.2	-43.2	17.6	0.00e+00	0	43	0	0	53	4679
2026-01-07 00:07:11.33	207.54	10.88	-41.2	-43.2	17.6	0.00e+00	0	43	0	0	53	4666
2026-01-07 00:07:12.62	207.52	10.76	-41.2	-43.2	17.6	0.00e+00	0	43	0	0	53	4702
2026-01-07 00:07:13.34	207.51	10.70	-41.2	-43.2	17.6	0.00e+00	0	43	0	0	53	4676
2026-01-07 00:07:14.63	207.49	10.58	-41.2	-43.2	17.6	0.00e+00	0	43	0	0	53	4703
2026-01-07 00:07:15.34	207.48	10.52	-41.1	-43.2	17.6	0.00e+00	0	43	0	0	53	4660
2026-01-07 00:07:16.63	207.46	10.40	-41.2	-43.2	17.5	0.00e+00	0	43	0	0	53	4693
2026-01-07 00:07:17.35	207.44	10.34	-41.2	-43.2	17.5	0.00e+00	0	43	0	0	53	4703
2026-01-07 00:07:18.68	207.42	10.22	-41.2	-43.2	17.6	0.00e+00	0	43	0	0	53	4669
2026-01-07 00:07:19.40	207.41	10.16	-41.2	-43.2	17.6	0.00e+00	0	43	0	0	53	4682
2026-01-07 00:07:20.76	207.39	10.04	-41.2	-43.3	17.5	0.00e+00	0	43	0	0	53	4726
2026-01-07 00:07:21.47	207.38	9.98	-41.3	-43.4	17.4	0.00e+00	0	43	0	0	53	4761
2026-01-07 00:07:22.76	207.36	9.87	-41.4	-43.5	17.3	0.00e+00	0	43	0	0	53	4846
2026-01-07 00:07:23.48	207.35	9.80	-41.3	-43.4	17.4	0.00e+00	0	43	0	0	53	4778
2026-01-07 00:07:24.77	207.33	9.69	-41.3	-43.3	17.4	0.00e+00	0	43	0	0	53	4735
2026-01-07 00:07:25.49	207.32	9.63	-41.3	-43.3	17.5	0.00e+00	0	43	0	0	53	4727
2026-01-07 00:07:26.77	207.30	9.52	-41.4	-43.4	17.3	0.00e+00	0	43	0	0	53	4806
2026-01-07 00:07:27.49	207.29	9.46	-41.2	-43.2	17.5	0.00e+00	0	43	0	0	53	4683
2026-01-07 00:07:28.78	207.27	9.35	-41.1	-43.1	17.6	0.00e+00	0	43	0	0	53	4629
2026-01-07 00:07:29.53	207.26	9.29	-41.4	-43.4	17.3	0.00e+00	0	43	0	0	53	4810
2026-01-07 00:07:30.82	207.24	9.18	-41.5	-43.6	17.2	0.00e+00	0	43	0	0	53	4876
2026-01-07 00:07:31.60	207.23	9.11	-41.5	-43.6	17.1	0.00e+00	0	43	0	0	53	4890
2026-01-07 00:07:32.89	207.21	9.00	-49.1	-61.1	3.9	1.04e-01	0	43	0	0	68	15579
2026-01-07 00:07:33.60	207.20	8.95	-49.6	-62.3	3.8	1.49e+00	0	43	104	0	69	16795
2026-01-07 00:07:34.90	207.18	8.84	-49.7	-62.8	3.8	1.49e+00	0	43	104	0	70	16739
2026-01-07 00:07:35.61	207.17	8.78	-49.8	-62.8	3.8	1.49e+00	0	43	104	0	70	16870
2026-01-07 00:07:36.90	207.15	8.67	-49.9	-62.9	3.8	1.49e+00	0	43	104	0	70	17022
2026-01-07 00:07:37.62	207.14	8.61	-49.9	-63.0	3.8	1.49e+00	0	43	104	0	70	17185
2026-01-07 00:07:38.91	207.12	8.51	-50.0	-63.0	3.8	1.49e+00	0	43	104	0	70	17223
2026-01-07 00:07:39.63	207.11	8.45	-50.1	-63.1	3.8	1.49e+00	0	43	104	0	70	17334
2026-01-07 00:07:40.92	207.10	8.34	-50.0	-63.1	3.8	1.49e+00	0	43	104	0	70	17413
2026-01-07 00:07:41.64	207.09	8.28	-50.2	-63.1	3.8	1.49e+00	0	43	104	0	71	16460
2026-01-07 00:07:42.93	207.07	8.18	-50.1	-63.1	3.8	1.49e+00	0	43	104	0	71	16474
2026-01-07 00:07:43.65	207.06	8.12	-50.1	-63.1	3.8	1.49e+00	0	43	104	0	71	16481
2026-01-07 00:07:44.94	207.04	8.02	-49.8	-63.1	3.8	1.49e+00	0	43	104	0	71	16479
2026-01-07 00:07:45.66	207.03	7.96	-50.2	-63.1	3.8	1.49e+00	0	43	104	0	71	16492
2026-01-07 00:07:46.94	207.02	7.86	-50.1	-63.2	3.8	1.49e+00	0	43	104	0	71	16533
2026-01-07 00:07:47.66	207.01	7.80	-49.9	-63.2	3.8	1.49e+00	0	43	104	0	71	16524
2026-01-07 00:07:48.95	206.99	7.70	-50.2	-63.1	3.8	1.49e+00	0	43	104	0	71	16472
2026-01-07 00:07:49.67	206.98	7.64	-50.2	-63.1	3.8	1.49e+00	0	43	104	0	71	16502
2026-01-07 00:07:50.96	206.97	7.54	-50.2	-63.1	3.8	1.49e+00	0	43	104	0	71	16433
2026-01-07 00:07:51.68	206.96	7.48	-49.9	-63.1	3.8	1.49e+00	0	43	104	0	71	16472
2026-01-07 00:07:52.97	206.94	7.38	-49.7	-63.1	3.8	1.49e+00	0	43	104	0	71	16388
2026-01-07 00:07:53.68	206.93	7.32	-49.8	-63.1	3.8	1.49e+00	0	43	104	0	71	16361
2026-01-07 00:07:54.97	206.91	7.22	-49.8	-63.1	3.8	1.49e+00	0	43	104	0	71	16387
2026-01-07 00:07:55.69	206.91	7.17	-49.8	-63.1	3.8	1.49e+00	0	43	104	0	71	16363
2026-01-07 00:07:56.98	206.89	7.07	-49.8	-63.1	3.8	1.49e+00	0	43	104	0	71	16431
2026-01-07 00:07:57.70	206.88	7.01	-49.8	-63.1	3.8	1.49e+00	0	43	104	0	71	16407
2026-01-07 00:07:58.99	206.87	6.91	-49.8	-63.1	3.8	1.49e+00	0	43	104	0	71	16335
2026-01-07 00:07:59.71	206.86	6.86	-49.8	-63.1	3.8	1.49e+00	0	43	104	0	71	16430
2026-01-07 00:08:01.00	206.84	6.76	-49.8	-63.1	3.8	1.49e+00	0	43	104	0	71	16374
2026-01-07 00:08:01.72	206.83	6.70	-49.8	-63.1	3.8	1.49e+00	0	43	104	0	71	16478
2026-01-07 00:08:03.01	206.82	6.60	-49.8	-63.1	3.8	1.49e+00	0	43	104	0	71	16416
2026-01-07 00:08:03.73	206.81	6.55	-49.8	-63.1	3.8	1.49e+00	0	43	104	0	71	16446
2026-01-07 00:08:05.02	206.79	6.45	-49.8	-63.1	3.8	1.49e+00	0	43	104	0	71	16468
2026-01-07 00:08:05.74	206.79	6.40	-49.8	-63.1	3.8	1.49e+00	0	43	104	0	71	16388
2026-01-07 00:08:07.03	206.77	6.30	-49.8	-63.1	3.8	1.49e+00	0	43	104	0	71	16405
2026-01-07 00:08:07.74	206.76	6.25	-49.8	-63.1	3.8	1.49e+00	0	43	104	0	71	16375
2026-01-07 00:08:09.03	206.75	6.15	-49.8	-63.1	3.8	1.49e+00	0	43	104	0	71	16360
2026-01-07 00:08:09.75	206.74	6.10	-49.8	-63.1	3.8	1.49e+00	0	43	104	0	71	16446
2026-01-07 00:08:11.04	206.73	6.00	-49.8	-63.1	3.8	1.49e+00	0	43	104	0	71	16416
2026-01-07 00:08:11.76	206.72	5.95	-49.8	-63.1	3.8	1.49e+00	0	43	104	0	71	16372
2026-01-07 00:08:13.05	206.70	5.85	-49.8	-63.1	3.8	1.49e+00	0	43	104	0	71	16414
2026-01-07 00:08:13.77	206.70	5.80	-49.8	-63.1	3.8	1.49e+00	0	43	104	0	71	16359
2026-01-07 00:08:15.06	206.68	5.70	-49.7	-63.1	3.8	1.49e+00	0	43	104	0	71	16333
2026-01-07 00:08:15.77	206.67	5.65	-49.8	-63.1	3.8	1.49e+00	0	43	104	0	71	16415
2026-01-07 00:08:17.07	206.66	5.55	-49.8	-63.1	3.8	1.49e+00	0	43	104	0	71	16351
2026-01-07 00:08:17.78	206.65	5.50	-49.7	-63.1	3.8	1.49e+00	0	43	104	0	71	16369
2026-01-07 00:08:19.07	206.64	5.41	-49.8	-63.1	3.8	1.49e+00	0	43	104	0	71	16369
2026-01-07 00:08:19.79	206.63	5.36	-49.7	-63.1	3.8	1.49e+00	0	43	104	0	71	16325
