passes_logs/2026/01/06/T1/T1__20260106_004359_SUOMI_NPP_rec.log

#Pass ID: 20260106_004359_SUOMI NPP
#Satellite: SUOMI NPP
#Configuration: NPP
#almurnet v.1.7.20251203
#Start time: 2026-01-06 00:44:00

#Version: 2.0.20230620
#Station: T1
#Location: 37.570604 lon 55.790049 lat
#TLE: 1 37849U 11061A   26004.95404768  .00000136  00000+0  85334-4 0  9991
#TLE: 2 37849  98.7801 307.0898 0002575  80.6707 279.4760 14.19522289735281

#Time	Az	El	Level	Level2	SNR	BER	BlckErr	Temp	State	Recorded	gain1	gain2
2026-01-06 00:44:00.87	10.44	5.09	-50.7	-66.3	3.8	1.49e+00	0	38	0	0	72	22290
2026-01-06 00:44:01.87	10.39	5.15	-50.7	-66.3	3.8	1.49e+00	0	39	104	0	73	21071
2026-01-06 00:44:02.88	10.35	5.22	-50.7	-66.3	3.8	1.49e+00	0	39	104	0	73	21033
2026-01-06 00:44:03.88	10.30	5.29	-50.7	-66.2	3.8	1.49e+00	0	39	104	0	73	20984
2026-01-06 00:44:04.89	10.25	5.36	-50.7	-66.3	3.8	1.49e+00	0	39	104	0	73	21028
2026-01-06 00:44:05.89	10.20	5.43	-50.7	-66.2	3.8	1.49e+00	0	39	104	0	73	21004
2026-01-06 00:44:06.90	10.15	5.50	-50.7	-66.2	3.8	1.49e+00	0	39	104	0	73	20976
2026-01-06 00:44:07.90	10.11	5.57	-50.7	-66.2	3.8	1.49e+00	0	39	104	0	73	20972
2026-01-06 00:44:08.90	10.06	5.64	-50.7	-66.2	3.8	1.49e+00	0	39	104	0	73	20949
2026-01-06 00:44:09.91	10.01	5.71	-50.7	-66.2	3.8	1.49e+00	0	39	104	0	73	20987
2026-01-06 00:44:10.91	9.96	5.78	-50.7	-66.2	3.8	1.49e+00	0	39	104	0	73	20987
2026-01-06 00:44:11.92	9.91	5.85	-50.7	-66.3	3.8	1.49e+00	0	39	104	0	73	21090
2026-01-06 00:44:12.92	9.86	5.92	-50.7	-66.2	3.8	1.49e+00	0	39	104	0	73	20913
2026-01-06 00:44:13.93	9.81	5.99	-50.7	-66.2	3.8	1.49e+00	0	39	104	0	73	21006
2026-01-06 00:44:14.93	9.76	6.06	-50.7	-66.2	3.8	1.49e+00	0	39	104	0	73	20951
2026-01-06 00:44:15.93	9.71	6.13	-50.7	-66.3	3.8	1.49e+00	0	39	104	0	73	21022
2026-01-06 00:44:16.94	9.66	6.20	-50.7	-66.3	3.8	1.49e+00	0	39	104	0	73	21021
2026-01-06 00:44:17.94	9.61	6.27	-50.7	-66.2	3.8	1.49e+00	0	39	104	0	73	20966
2026-01-06 00:44:18.95	9.55	6.34	-50.7	-66.2	3.8	1.49e+00	0	39	104	0	73	21010
2026-01-06 00:44:19.95	9.50	6.41	-50.7	-66.2	3.8	1.49e+00	0	39	104	0	73	20937
2026-01-06 00:44:20.95	9.45	6.48	-50.7	-66.2	3.8	1.49e+00	0	39	104	0	73	20985
2026-01-06 00:44:21.96	9.40	6.55	-50.7	-66.2	3.8	1.49e+00	0	39	104	0	73	20953
2026-01-06 00:44:22.96	9.35	6.62	-50.7	-66.3	3.8	1.49e+00	0	39	104	0	73	21034
2026-01-06 00:44:23.97	9.29	6.70	-50.7	-66.3	3.8	1.49e+00	0	40	104	0	73	21060
2026-01-06 00:44:24.97	9.24	6.77	-50.7	-66.2	3.8	1.49e+00	0	40	104	0	73	20959
2026-01-06 00:44:25.97	9.19	6.84	-50.7	-66.2	3.8	1.49e+00	0	40	104	0	73	20965
2026-01-06 00:44:26.98	9.13	6.91	-50.7	-66.2	3.8	1.49e+00	0	40	104	0	73	20948
2026-01-06 00:44:27.98	9.08	6.99	-50.7	-66.2	3.8	1.49e+00	0	40	104	0	73	21007
2026-01-06 00:44:28.99	9.02	7.06	-50.7	-66.2	3.8	1.49e+00	0	39	104	0	73	20916
2026-01-06 00:44:29.99	8.97	7.13	-50.7	-66.3	3.8	1.49e+00	0	40	104	0	73	21021
2026-01-06 00:44:31.00	8.91	7.20	-50.7	-66.2	3.8	1.49e+00	0	40	104	0	73	20966
2026-01-06 00:44:32.00	8.86	7.28	-50.7	-66.2	3.8	1.49e+00	0	40	104	0	73	20929
2026-01-06 00:44:33.00	8.80	7.35	-50.7	-66.2	3.8	1.49e+00	0	40	104	0	73	20945
2026-01-06 00:44:34.01	8.75	7.43	-50.7	-66.2	3.8	1.49e+00	0	40	104	0	73	20935
2026-01-06 00:44:35.01	8.69	7.50	-50.7	-66.2	3.8	1.49e+00	0	40	104	0	73	20974
2026-01-06 00:44:36.02	8.63	7.57	-50.7	-66.2	3.8	1.49e+00	0	40	104	0	73	20987
2026-01-06 00:44:37.02	8.58	7.65	-50.7	-66.2	3.8	1.49e+00	0	40	104	0	73	20944
2026-01-06 00:44:38.03	8.52	7.72	-50.7	-66.2	3.8	1.49e+00	0	40	104	0	73	20902
2026-01-06 00:44:39.03	8.46	7.80	-50.7	-66.2	3.8	1.49e+00	0	40	104	0	73	20984
2026-01-06 00:44:40.04	8.41	7.87	-50.7	-66.2	3.8	1.49e+00	0	40	104	0	73	20942
2026-01-06 00:44:41.04	8.35	7.95	-50.7	-66.2	3.8	1.49e+00	0	40	104	0	73	20984
2026-01-06 00:44:42.04	8.29	8.02	-50.7	-66.2	3.8	1.49e+00	0	40	104	0	73	20868
2026-01-06 00:44:43.05	8.23	8.10	-50.7	-66.2	3.8	1.49e+00	0	40	104	0	73	20974
2026-01-06 00:44:44.05	8.17	8.17	-50.7	-66.2	3.8	1.49e+00	0	40	104	0	73	20928
2026-01-06 00:44:45.06	8.11	8.25	-50.7	-66.2	3.8	1.49e+00	0	40	104	0	73	20973
2026-01-06 00:44:46.06	8.05	8.32	-50.7	-66.2	3.8	1.49e+00	0	40	104	0	73	20902
2026-01-06 00:44:47.07	7.99	8.40	-50.7	-66.2	3.8	1.49e+00	0	40	104	0	73	20910
2026-01-06 00:44:48.07	7.93	8.48	-50.7	-66.2	3.8	1.49e+00	0	40	104	0	73	20939
2026-01-06 00:44:49.07	7.87	8.55	-50.7	-66.2	3.8	1.49e+00	0	40	104	0	73	20967
2026-01-06 00:44:50.08	7.81	8.63	-50.7	-66.2	3.8	1.49e+00	0	40	104	0	73	20955
2026-01-06 00:44:51.08	7.75	8.71	-50.7	-66.3	3.8	1.49e+00	0	40	104	0	73	21033
2026-01-06 00:44:52.09	7.69	8.78	-50.7	-66.2	3.8	1.49e+00	0	40	104	0	73	20963
2026-01-06 00:44:53.09	7.63	8.86	-50.7	-66.2	3.8	1.49e+00	0	40	104	0	72	22245
2026-01-06 00:44:54.09	7.56	8.94	-50.7	-66.2	3.8	1.49e+00	0	40	104	0	72	22259
2026-01-06 00:44:55.10	7.50	9.02	-50.7	-66.2	3.8	1.49e+00	0	40	104	0	72	22244
2026-01-06 00:44:56.10	7.44	9.09	-50.7	-66.3	3.8	1.49e+00	0	40	104	0	72	22272
2026-01-06 00:44:57.10	7.37	9.17	-50.7	-66.3	3.8	1.49e+00	0	40	104	0	72	22277
2026-01-06 00:44:58.11	7.31	9.25	-50.7	-66.2	3.8	1.49e+00	0	40	104	0	72	22234
2026-01-06 00:44:59.11	7.25	9.33	-50.7	-66.2	3.8	1.49e+00	0	40	104	0	72	22199
2026-01-06 00:45:00.11	7.18	9.41	-50.7	-66.2	3.8	1.49e+00	0	40	104	0	72	22261
2026-01-06 00:45:01.12	7.12	9.49	-50.7	-66.3	3.8	1.49e+00	0	41	104	0	72	22345
2026-01-06 00:45:02.12	7.05	9.57	-50.7	-66.2	3.8	1.49e+00	0	40	104	0	72	22247
2026-01-06 00:45:03.13	6.99	9.65	-50.7	-66.2	3.8	1.49e+00	0	40	104	0	72	22192
2026-01-06 00:45:04.13	6.92	9.73	-50.7	-66.2	3.8	1.49e+00	0	40	104	0	72	22215
2026-01-06 00:45:05.14	6.85	9.81	-50.7	-66.2	3.8	1.49e+00	0	40	104	0	72	22217
2026-01-06 00:45:06.14	6.79	9.89	-50.7	-66.2	3.8	1.49e+00	0	40	104	0	72	22258
2026-01-06 00:45:07.15	6.72	9.97	-50.7	-66.3	3.8	1.49e+00	0	40	104	0	72	22308
2026-01-06 00:45:08.15	6.65	10.05	-50.7	-66.2	3.8	1.49e+00	0	40	104	0	72	22240
2026-01-06 00:45:09.15	6.58	10.13	-50.7	-66.3	3.8	1.49e+00	0	40	104	0	72	22282
2026-01-06 00:45:10.16	6.52	10.21	-50.7	-66.2	3.8	1.49e+00	0	41	104	0	72	22148
2026-01-06 00:45:11.16	6.45	10.29	-50.7	-66.2	3.8	1.49e+00	0	41	104	0	72	22152
2026-01-06 00:45:12.17	6.38	10.37	-50.7	-66.3	3.8	1.49e+00	0	41	104	0	72	22282
2026-01-06 00:45:13.17	6.31	10.45	-50.7	-66.2	3.8	1.49e+00	0	40	104	0	72	22257
2026-01-06 00:45:14.17	6.24	10.53	-50.7	-66.2	3.8	1.49e+00	0	40	104	0	72	22241
2026-01-06 00:45:15.18	6.17	10.62	-50.7	-66.2	3.8	1.49e+00	0	41	104	0	72	22252
2026-01-06 00:45:16.18	6.10	10.70	-50.7	-66.2	3.8	1.49e+00	0	41	104	0	72	22163
2026-01-06 00:45:17.19	6.02	10.78	-50.7	-66.3	3.8	1.49e+00	0	40	104	0	72	22284
2026-01-06 00:45:18.19	5.95	10.87	-50.7	-66.2	3.8	1.49e+00	0	41	104	0	72	22206
2026-01-06 00:45:19.20	5.88	10.95	-50.7	-66.2	3.8	1.49e+00	0	41	104	0	72	22220
2026-01-06 00:45:20.20	5.81	11.03	-50.7	-66.3	3.8	1.49e+00	0	41	104	0	72	22281
2026-01-06 00:45:21.20	5.74	11.11	-50.7	-66.2	3.8	1.49e+00	0	41	104	0	72	22231
2026-01-06 00:45:22.21	5.66	11.20	-50.7	-66.3	3.8	1.49e+00	0	41	104	0	72	22336
2026-01-06 00:45:23.21	5.59	11.28	-50.7	-66.2	3.8	1.49e+00	0	41	104	0	72	22233
2026-01-06 00:45:24.21	5.51	11.37	-50.7	-66.3	3.8	1.49e+00	0	41	104	0	72	22275
2026-01-06 00:45:25.22	5.44	11.45	-50.7	-66.2	3.8	1.49e+00	0	41	104	0	72	22162
2026-01-06 00:45:26.22	5.36	11.54	-50.7	-66.3	3.8	1.49e+00	0	41	104	0	72	22337
2026-01-06 00:45:27.22	5.29	11.62	-50.7	-66.2	3.8	1.49e+00	0	41	104	0	72	22191
2026-01-06 00:45:28.23	5.21	11.71	-50.7	-66.2	3.8	1.49e+00	0	41	104	0	72	22255
2026-01-06 00:45:29.23	5.14	11.79	-50.7	-66.3	3.8	1.49e+00	0	41	104	0	72	22280
2026-01-06 00:45:30.23	5.06	11.88	-50.7	-66.3	3.8	1.49e+00	0	41	104	0	72	22301
2026-01-06 00:45:31.24	4.98	11.96	-50.7	-66.2	3.8	1.49e+00	0	41	104	0	72	22247
2026-01-06 00:45:32.24	4.90	12.05	-50.7	-66.2	3.8	1.49e+00	0	41	104	0	72	22226
2026-01-06 00:45:33.25	4.82	12.14	-50.7	-66.2	3.8	1.49e+00	0	41	104	0	72	22128
2026-01-06 00:45:34.30	4.74	12.23	-50.7	-66.2	3.8	1.49e+00	0	41	104	0	72	22230
2026-01-06 00:45:35.21	4.67	12.31	-50.7	-66.2	3.8	1.49e+00	0	41	104	0	72	22254
2026-01-06 00:45:36.21	4.59	12.39	-50.7	-66.3	3.8	1.49e+00	0	41	104	0	72	22301
2026-01-06 00:45:37.22	4.51	12.48	-50.7	-66.2	3.8	1.49e+00	0	41	104	0	72	22238
2026-01-06 00:45:38.22	4.43	12.57	-50.7	-66.2	3.8	1.49e+00	0	41	104	0	72	22240
2026-01-06 00:45:39.22	4.35	12.66	-50.7	-66.2	3.8	1.49e+00	0	41	104	0	72	22224
2026-01-06 00:45:40.23	4.27	12.74	-50.7	-66.2	3.8	1.49e+00	0	41	104	0	72	22249
2026-01-06 00:45:41.23	4.18	12.83	-50.7	-66.2	3.8	1.49e+00	0	41	104	0	72	22171
2026-01-06 00:45:42.24	4.10	12.92	-50.7	-66.2	3.8	1.49e+00	0	41	104	0	72	22161
2026-01-06 00:45:43.24	4.02	13.01	-50.7	-66.2	3.8	1.49e+00	0	41	104	0	72	22151
2026-01-06 00:45:44.24	3.93	13.10	-50.7	-66.2	3.8	1.49e+00	0	41	104	0	72	22189
2026-01-06 00:45:45.25	3.85	13.19	-50.7	-66.2	3.8	1.49e+00	0	41	104	0	72	22228
2026-01-06 00:45:46.25	3.76	13.28	-50.7	-66.3	3.8	1.49e+00	0	41	104	0	72	22329
2026-01-06 00:45:47.26	3.68	13.37	-50.7	-66.2	3.8	1.49e+00	0	41	104	0	72	22198
2026-01-06 00:45:48.26	3.59	13.46	-50.7	-66.2	3.8	1.49e+00	0	41	104	0	72	22185
2026-01-06 00:45:49.27	3.50	13.55	-50.7	-66.2	3.8	1.49e+00	0	41	104	0	72	22215
2026-01-06 00:45:50.27	3.42	13.64	-50.7	-66.3	3.8	1.49e+00	0	41	104	0	72	22288
2026-01-06 00:45:51.27	3.33	13.73	-50.7	-66.2	3.8	1.49e+00	0	41	104	0	72	22131
2026-01-06 00:45:52.28	3.24	13.82	-50.7	-66.3	3.8	1.49e+00	0	41	104	0	72	22337
2026-01-06 00:45:53.28	3.15	13.92	-50.7	-66.3	3.8	1.49e+00	0	41	104	0	72	22321
2026-01-06 00:45:54.29	3.06	14.01	-50.7	-66.2	3.8	1.49e+00	0	41	104	0	72	22123
2026-01-06 00:45:55.29	2.97	14.10	-50.7	-66.2	3.8	1.49e+00	0	41	104	0	72	22204
2026-01-06 00:45:56.29	2.88	14.19	-50.7	-66.2	3.8	1.49e+00	0	41	104	0	72	22163
2026-01-06 00:45:57.30	2.79	14.29	-50.7	-66.2	3.8	1.49e+00	0	41	104	0	72	22227
2026-01-06 00:45:58.30	2.70	14.38	-50.7	-66.2	3.8	1.49e+00	0	41	104	0	72	22198
2026-01-06 00:45:59.31	2.60	14.47	-50.7	-66.2	3.8	1.49e+00	0	41	104	0	72	22236
2026-01-06 00:46:00.35	2.51	14.57	-50.7	-66.3	3.8	1.49e+00	0	41	104	0	72	22285
2026-01-06 00:46:01.36	2.41	14.66	-50.7	-66.2	3.8	1.49e+00	0	41	104	0	72	22130
2026-01-06 00:46:02.44	2.31	14.77	-50.7	-66.3	3.8	1.49e+00	0	41	104	0	72	22278
2026-01-06 00:46:03.34	2.23	14.85	-50.7	-66.2	3.8	1.49e+00	0	41	104	0	72	22225
2026-01-06 00:46:04.52	2.11	14.96	-50.7	-66.2	3.8	1.49e+00	0	41	104	0	72	22205
2026-01-06 00:46:05.39	2.03	15.04	-50.7	-66.2	3.8	1.49e+00	0	41	104	0	72	22146
2026-01-06 00:46:06.76	1.90	15.17	-50.7	-66.2	3.8	1.49e+00	0	41	104	0	72	22172
2026-01-06 00:46:07.48	1.83	15.24	-50.7	-66.2	3.8	1.49e+00	0	41	104	0	72	22215
2026-01-06 00:46:08.77	1.70	15.37	-50.7	-66.2	3.8	1.49e+00	0	41	104	0	72	22197
2026-01-06 00:46:09.49	1.63	15.44	-50.7	-66.2	3.8	1.49e+00	0	41	104	0	72	22217
2026-01-06 00:46:10.78	1.50	15.56	-50.7	-66.2	3.8	1.49e+00	0	41	104	0	72	22196
2026-01-06 00:46:11.50	1.43	15.63	-50.7	-66.2	3.8	1.49e+00	0	41	104	0	72	22241
2026-01-06 00:46:12.79	1.30	15.75	-50.7	-66.2	3.8	1.49e+00	0	41	104	0	72	22144
2026-01-06 00:46:13.51	1.23	15.82	-50.7	-66.2	3.8	1.49e+00	0	41	104	0	72	22122
2026-01-06 00:46:14.80	1.10	15.95	-50.7	-66.2	3.8	1.49e+00	0	41	104	0	72	22250
2026-01-06 00:46:15.51	1.02	16.02	-50.7	-66.3	3.8	1.49e+00	0	41	104	0	72	22286
2026-01-06 00:46:16.80	0.89	16.15	-50.7	-66.2	3.8	1.49e+00	0	41	104	0	72	22238
2026-01-06 00:46:17.52	0.81	16.22	-50.7	-66.2	3.8	1.49e+00	0	41	104	0	72	22262
2026-01-06 00:46:18.81	0.68	16.34	-50.7	-66.3	3.8	1.49e+00	0	41	104	0	72	22271
2026-01-06 00:46:19.53	0.60	16.42	-50.7	-66.2	3.8	1.49e+00	0	41	104	0	72	22109
2026-01-06 00:46:20.82	0.47	16.54	-50.7	-66.2	3.8	1.49e+00	0	41	104	0	72	22206
2026-01-06 00:46:21.54	0.39	16.62	-50.7	-66.2	3.8	1.49e+00	0	41	104	0	72	22190
2026-01-06 00:46:22.83	0.25	16.74	-50.7	-66.2	3.8	1.49e+00	0	41	104	0	72	22114
2026-01-06 00:46:23.55	0.17	16.82	-50.7	-66.2	3.8	1.49e+00	0	41	104	0	72	22116
2026-01-06 00:46:24.84	0.03	16.95	-50.7	-66.2	3.8	1.49e+00	0	41	104	0	72	22213
2026-01-06 00:46:25.56	359.95	17.02	-50.7	-66.2	3.8	1.49e+00	0	41	104	0	72	22220
2026-01-06 00:46:26.85	359.81	17.15	-50.7	-66.2	3.8	1.49e+00	0	41	104	0	72	22221
2026-01-06 00:46:27.56	359.73	17.22	-50.7	-66.2	3.8	1.49e+00	0	41	104	0	72	22129
2026-01-06 00:46:28.85	359.58	17.35	-50.7	-66.3	3.8	1.49e+00	0	41	104	0	72	22275
2026-01-06 00:46:29.57	359.50	17.43	-50.7	-66.2	3.8	1.49e+00	0	41	104	0	72	22204
2026-01-06 00:46:30.86	359.36	17.56	-50.7	-66.2	3.8	1.49e+00	0	41	104	0	72	22140
2026-01-06 00:46:31.58	359.27	17.63	-50.7	-66.2	3.8	1.49e+00	0	41	104	0	72	22191
2026-01-06 00:46:32.87	359.12	17.76	-50.7	-66.2	3.8	1.49e+00	0	41	104	0	72	22228
2026-01-06 00:46:33.59	359.04	17.84	-50.7	-66.2	3.8	1.49e+00	0	41	104	0	72	22220
2026-01-06 00:46:34.88	358.89	17.97	-50.7	-66.2	3.8	1.49e+00	0	41	104	0	72	22165
2026-01-06 00:46:35.60	358.80	18.05	-50.7	-66.2	3.8	1.49e+00	0	41	104	0	72	22189
2026-01-06 00:46:36.89	358.65	18.18	-50.7	-66.2	3.8	1.49e+00	0	41	104	0	72	22213
2026-01-06 00:46:37.60	358.57	18.26	-50.7	-66.2	3.8	1.49e+00	0	41	104	0	72	22201
2026-01-06 00:46:38.89	358.41	18.39	-50.7	-66.2	3.8	1.49e+00	0	41	104	0	72	22245
2026-01-06 00:46:39.61	358.32	18.47	-50.7	-66.2	3.8	1.49e+00	0	41	104	0	72	22261
2026-01-06 00:46:40.90	358.16	18.60	-50.7	-66.2	3.8	1.49e+00	0	41	104	0	72	22222
2026-01-06 00:46:41.62	358.08	18.68	-50.7	-66.2	3.8	1.49e+00	0	41	104	0	72	22082
2026-01-06 00:46:42.91	357.92	18.82	-50.7	-66.2	3.8	1.49e+00	0	41	104	0	72	22206
2026-01-06 00:46:43.63	357.83	18.89	-50.7	-66.2	3.8	1.49e+00	0	41	104	0	72	22143
2026-01-06 00:46:44.92	357.66	19.03	-50.7	-66.2	3.8	1.49e+00	0	41	104	0	72	22165
2026-01-06 00:46:45.64	357.57	19.11	-50.7	-66.2	3.8	1.49e+00	0	41	104	0	72	22232
2026-01-06 00:46:46.93	357.41	19.25	-50.7	-66.2	3.8	1.49e+00	0	41	104	0	72	22174
2026-01-06 00:46:47.63	357.32	19.32	-50.7	-66.2	3.8	1.49e+00	0	41	104	0	72	22200
2026-01-06 00:46:48.92	357.15	19.46	-50.7	-66.2	3.8	1.49e+00	0	41	104	0	72	22178
2026-01-06 00:46:49.64	357.06	19.54	-50.7	-66.2	3.8	1.49e+00	0	41	104	0	72	22091
2026-01-06 00:46:50.93	356.89	19.68	-50.7	-66.2	3.8	1.49e+00	0	41	104	0	72	22230
2026-01-06 00:46:51.65	356.79	19.76	-50.7	-66.2	3.8	1.49e+00	0	41	104	0	72	22162
2026-01-06 00:46:52.94	356.62	19.90	-50.7	-66.2	3.8	1.49e+00	0	41	104	0	72	22139
2026-01-06 00:46:53.65	356.52	19.98	-50.7	-66.3	3.8	1.49e+00	0	41	104	0	72	22279
2026-01-06 00:46:54.95	356.35	20.12	-50.7	-66.2	3.8	1.49e+00	0	41	104	0	72	22240
2026-01-06 00:46:55.66	356.25	20.20	-50.7	-66.2	3.8	1.49e+00	0	41	104	0	72	22141
2026-01-06 00:46:56.95	356.07	20.34	-50.7	-66.2	3.8	1.49e+00	0	41	104	0	72	22201
2026-01-06 00:46:57.67	355.97	20.42	-50.7	-66.2	3.8	1.49e+00	0	41	104	0	72	22224
2026-01-06 00:46:58.96	355.79	20.56	-50.7	-66.2	3.8	1.49e+00	0	41	104	0	72	22241
2026-01-06 00:46:59.68	355.69	20.64	-50.7	-66.2	3.8	1.49e+00	0	42	104	0	72	22193
2026-01-06 00:47:00.97	355.51	20.79	-50.7	-66.2	3.8	1.49e+00	0	41	104	0	72	22249
2026-01-06 00:47:01.69	355.41	20.87	-50.7	-66.2	3.8	1.49e+00	0	42	104	0	72	22173
2026-01-06 00:47:02.98	355.22	21.01	-50.7	-66.2	3.8	1.49e+00	0	41	104	0	72	22216
2026-01-06 00:47:03.70	355.12	21.09	-50.7	-66.2	3.8	1.49e+00	0	42	104	0	72	22205
2026-01-06 00:47:04.99	354.93	21.24	-50.7	-66.2	3.8	1.49e+00	0	41	104	0	72	22176
2026-01-06 00:47:05.70	354.82	21.32	-50.7	-66.2	3.8	1.49e+00	0	41	104	0	72	22120
2026-01-06 00:47:07.00	354.63	21.47	-50.7	-66.2	3.8	1.49e+00	0	41	104	0	72	22142
2026-01-06 00:47:07.71	354.53	21.55	-50.7	-66.2	3.8	1.49e+00	0	41	104	0	72	22190
2026-01-06 00:47:09.00	354.33	21.69	-50.7	-66.2	3.8	1.49e+00	0	42	104	0	72	22148
2026-01-06 00:47:09.72	354.22	21.78	-50.7	-66.2	3.8	1.49e+00	0	41	104	0	72	22195
2026-01-06 00:47:11.01	354.03	21.93	-50.7	-66.2	3.8	1.49e+00	0	41	104	0	72	22191
2026-01-06 00:47:11.73	353.92	22.01	-50.7	-66.2	3.8	1.49e+00	0	41	104	0	72	22175
2026-01-06 00:47:13.02	353.72	22.16	-50.7	-66.2	3.8	1.49e+00	0	41	104	0	72	22202
2026-01-06 00:47:13.74	353.60	22.24	-50.7	-66.2	3.8	1.49e+00	0	41	104	0	72	22217
2026-01-06 00:47:15.14	353.38	22.40	-50.7	-66.2	3.8	1.49e+00	0	41	104	0	72	22139
2026-01-06 00:47:15.86	353.27	22.49	-50.7	-66.2	3.8	1.49e+00	0	42	104	0	72	22128
2026-01-06 00:47:17.15	353.06	22.64	-50.7	-66.2	3.8	1.49e+00	0	41	104	0	72	22191
2026-01-06 00:47:17.87	352.95	22.72	-50.7	-66.2	3.8	1.49e+00	0	42	104	0	72	22096
2026-01-06 00:47:19.16	352.74	22.87	-50.7	-66.2	3.8	1.49e+00	0	41	104	0	72	22233
2026-01-06 00:47:19.87	352.62	22.96	-50.7	-66.2	3.8	1.49e+00	0	41	104	0	72	22184
2026-01-06 00:47:21.16	352.41	23.11	-50.7	-66.2	3.8	1.49e+00	0	41	104	0	72	22175
2026-01-06 00:47:21.88	352.29	23.19	-50.7	-66.2	3.8	1.49e+00	0	41	104	0	72	22140
2026-01-06 00:47:23.17	352.07	23.35	-50.7	-66.2	3.8	1.49e+00	0	41	104	0	72	22179
2026-01-06 00:47:23.89	351.95	23.43	-50.7	-66.2	3.8	1.49e+00	0	41	104	0	72	22176
2026-01-06 00:47:25.18	351.73	23.58	-50.7	-66.2	3.8	1.49e+00	0	41	104	0	72	22082
2026-01-06 00:47:25.90	351.61	23.67	-50.6	-66.2	3.8	1.49e+00	0	41	104	0	72	22114
2026-01-06 00:47:27.19	351.38	23.82	-50.7	-66.2	3.8	1.49e+00	0	41	104	0	72	22183
2026-01-06 00:47:27.91	351.26	23.91	-50.7	-66.2	3.8	1.49e+00	0	42	104	0	72	22158
2026-01-06 00:47:29.20	351.03	24.07	-50.7	-66.2	3.8	1.49e+00	0	42	104	0	72	22163
2026-01-06 00:47:29.91	350.91	24.15	-50.6	-66.2	3.8	1.49e+00	0	42	104	0	72	22074
2026-01-06 00:47:31.21	350.67	24.31	-50.7	-66.2	3.8	1.49e+00	0	41	104	0	72	22187
2026-01-06 00:47:31.92	350.55	24.39	-50.7	-66.2	3.8	1.49e+00	0	41	104	0	72	22156
2026-01-06 00:47:33.21	350.31	24.55	-50.7	-66.2	3.8	1.49e+00	0	41	104	0	72	22121
2026-01-06 00:47:33.93	350.18	24.64	-50.7	-66.2	3.8	1.49e+00	0	41	104	0	72	22135
2026-01-06 00:47:35.22	349.94	24.79	-50.7	-66.2	3.8	1.49e+00	0	42	104	0	72	22183
2026-01-06 00:47:35.94	349.81	24.88	-50.7	-66.2	3.8	1.49e+00	0	41	104	0	72	22052
2026-01-06 00:47:37.23	349.57	25.04	-50.7	-66.2	3.8	1.49e+00	0	42	104	0	72	22089
2026-01-06 00:47:37.95	349.43	25.13	-50.7	-66.2	3.8	1.49e+00	0	41	104	0	72	22098
2026-01-06 00:47:39.24	349.19	25.28	-50.7	-66.2	3.8	1.49e+00	0	41	104	0	72	22031
2026-01-06 00:47:40.04	349.04	25.38	-50.7	-66.2	3.8	1.49e+00	0	41	104	0	72	22076
2026-01-06 00:47:41.19	348.81	25.52	-50.6	-66.2	3.8	1.49e+00	0	41	104	0	72	22153
2026-01-06 00:47:42.05	348.65	25.63	-50.6	-66.2	3.8	1.49e+00	0	41	104	0	72	22126
2026-01-06 00:47:43.19	348.42	25.77	-50.6	-66.2	3.8	1.49e+00	0	41	104	0	72	22145
2026-01-06 00:47:44.06	348.25	25.88	-50.6	-66.2	3.8	1.49e+00	0	42	104	0	72	22192
2026-01-06 00:47:45.20	348.02	26.02	-50.6	-66.2	3.8	1.49e+00	0	41	104	0	72	22161
2026-01-06 00:47:46.06	347.85	26.12	-50.6	-66.2	3.8	1.49e+00	0	42	104	0	72	22074
2026-01-06 00:47:47.21	347.62	26.27	-50.6	-66.2	3.8	1.49e+00	0	41	104	0	72	22102
2026-01-06 00:47:48.07	347.44	26.37	-50.6	-66.2	3.8	1.49e+00	0	42	104	0	72	22134
2026-01-06 00:47:49.22	347.21	26.52	-50.6	-66.2	3.8	1.49e+00	0	41	104	0	72	22060
2026-01-06 00:47:50.08	347.03	26.62	-50.6	-66.2	3.8	1.49e+00	0	42	104	0	72	22096
2026-01-06 00:47:51.23	346.79	26.77	-50.6	-66.2	3.8	1.49e+00	0	41	104	0	72	22092
2026-01-06 00:47:52.09	346.61	26.87	-50.6	-66.2	3.8	1.49e+00	0	41	104	0	72	22151
2026-01-06 00:47:53.23	346.36	27.02	-50.6	-66.2	3.8	1.49e+00	0	41	104	0	72	22020
2026-01-06 00:47:54.10	346.18	27.12	-50.6	-66.2	3.8	1.49e+00	0	41	104	0	72	22134
2026-01-06 00:47:55.25	345.93	27.27	-50.6	-66.2	3.8	1.49e+00	0	41	104	0	72	22026
2026-01-06 00:47:56.11	345.74	27.38	-50.6	-66.2	3.8	1.49e+00	0	41	104	0	72	22171
2026-01-06 00:47:57.25	345.49	27.52	-50.6	-66.2	3.8	1.49e+00	0	41	104	0	72	22099
2026-01-06 00:47:58.11	345.30	27.63	-50.6	-66.2	3.8	1.49e+00	0	42	104	0	72	22088
2026-01-06 00:47:59.26	345.05	27.77	-50.6	-66.2	3.8	1.49e+00	0	41	104	0	72	22121
2026-01-06 00:48:00.12	344.85	27.88	-50.6	-66.2	3.8	1.49e+00	0	42	104	0	72	22077
2026-01-06 00:48:01.27	344.59	28.02	-50.6	-66.2	3.8	1.49e+00	0	42	104	0	72	22024
2026-01-06 00:48:02.13	344.40	28.13	-50.6	-66.2	3.8	1.49e+00	0	41	104	0	72	22023
2026-01-06 00:48:03.28	344.13	28.28	-50.6	-66.2	3.8	1.49e+00	0	42	104	0	72	22044
2026-01-06 00:48:04.14	343.93	28.39	-50.6	-66.1	3.8	1.49e+00	0	42	104	0	72	22000
2026-01-06 00:48:05.28	343.67	28.53	-50.6	-66.2	3.8	1.49e+00	0	41	104	0	72	22050
2026-01-06 00:48:06.21	343.45	28.65	-50.6	-66.2	3.8	1.49e+00	0	42	104	0	72	22018
2026-01-06 00:48:07.22	343.21	28.77	-50.6	-66.2	3.8	1.49e+00	0	42	104	0	72	22015
2026-01-06 00:48:08.22	342.97	28.90	-50.6	-66.2	3.8	1.49e+00	0	42	104	0	72	22115
2026-01-06 00:48:09.22	342.73	29.03	-50.6	-66.2	3.8	1.49e+00	0	42	104	0	72	22092
2026-01-06 00:48:10.23	342.48	29.15	-50.6	-66.2	3.8	1.49e+00	0	41	104	0	72	22072
2026-01-06 00:48:11.23	342.24	29.28	-50.6	-66.1	3.8	1.49e+00	0	42	104	0	72	21974
2026-01-06 00:48:12.24	341.99	29.41	-50.6	-66.2	3.8	1.49e+00	0	42	104	0	72	22093
2026-01-06 00:48:13.24	341.74	29.53	-50.6	-66.1	3.8	1.49e+00	0	42	104	0	72	21983
2026-01-06 00:48:14.24	341.49	29.66	-50.6	-66.1	3.8	1.49e+00	0	42	104	0	72	21985
2026-01-06 00:48:15.25	341.23	29.79	-50.6	-66.2	3.8	1.49e+00	0	41	104	0	72	22025
2026-01-06 00:48:16.25	340.98	29.91	-50.6	-66.2	3.8	1.49e+00	0	42	104	0	72	22066
2026-01-06 00:48:17.25	340.72	30.04	-50.6	-66.1	3.8	1.49e+00	0	42	104	0	72	22007
2026-01-06 00:48:18.26	340.46	30.16	-50.6	-66.1	3.8	1.49e+00	0	42	104	0	72	21972
2026-01-06 00:48:19.26	340.20	30.29	-50.6	-66.2	3.8	1.49e+00	0	41	104	0	72	22067
2026-01-06 00:48:20.26	339.93	30.41	-50.6	-66.2	3.8	1.49e+00	0	42	104	0	72	22093
2026-01-06 00:48:21.27	339.66	30.54	-50.6	-66.1	3.8	1.49e+00	0	42	104	0	72	21902
2026-01-06 00:48:22.28	339.39	30.67	-50.6	-66.2	3.8	1.49e+00	0	41	104	0	72	22043
2026-01-06 00:48:23.28	339.12	30.79	-50.6	-66.2	3.8	1.49e+00	0	42	104	0	72	22016
2026-01-06 00:48:24.28	338.85	30.92	-50.6	-66.2	3.8	1.49e+00	0	41	104	0	72	22085
2026-01-06 00:48:25.29	338.58	31.04	-50.6	-66.1	3.8	1.49e+00	0	42	104	0	72	21977
2026-01-06 00:48:26.29	338.30	31.17	-50.6	-66.1	3.8	1.49e+00	0	42	104	0	72	21989
2026-01-06 00:48:27.29	338.02	31.29	-50.6	-66.1	3.8	1.49e+00	0	42	104	0	72	21987
2026-01-06 00:48:28.30	337.74	31.42	-50.6	-66.1	3.8	1.49e+00	0	41	104	0	72	21939
2026-01-06 00:48:29.30	337.46	31.54	-50.6	-66.1	3.8	1.49e+00	0	42	104	0	72	21986
2026-01-06 00:48:30.31	337.17	31.66	-50.6	-66.1	3.8	1.49e+00	0	42	104	0	72	22002
2026-01-06 00:48:31.31	336.88	31.79	-50.6	-66.1	3.8	1.49e+00	0	41	104	0	72	21963
2026-01-06 00:48:32.33	336.59	31.91	-50.6	-66.1	3.8	1.49e+00	0	41	104	0	72	21987
2026-01-06 00:48:33.37	336.28	32.04	-50.6	-66.1	3.8	1.49e+00	0	42	104	0	72	21954
2026-01-06 00:48:34.40	335.98	32.16	-50.6	-66.1	3.8	1.49e+00	0	42	104	0	72	21980
2026-01-06 00:48:35.43	335.68	32.29	-50.6	-66.2	3.8	1.49e+00	0	42	104	0	72	22090
2026-01-06 00:48:36.46	335.37	32.42	-50.6	-66.2	3.8	1.49e+00	0	41	104	0	72	22054
2026-01-06 00:48:37.50	335.06	32.54	-50.6	-66.1	3.8	1.49e+00	0	41	104	0	72	21926
2026-01-06 00:48:38.52	334.75	32.66	-50.6	-66.1	3.8	1.49e+00	0	41	104	0	72	21953
2026-01-06 00:48:39.56	334.43	32.79	-50.6	-66.1	3.8	1.49e+00	0	41	104	0	72	21968
2026-01-06 00:48:40.59	334.11	32.91	-50.6	-66.1	3.8	1.49e+00	0	42	104	0	72	21981
2026-01-06 00:48:41.62	333.79	33.03	-50.6	-66.1	3.8	1.49e+00	0	42	104	0	72	21971
2026-01-06 00:48:42.65	333.47	33.16	-50.6	-66.1	3.8	1.49e+00	0	42	104	0	72	21980
2026-01-06 00:48:43.66	333.15	33.27	-50.6	-66.2	3.8	1.49e+00	0	42	104	0	72	22087
2026-01-06 00:48:44.66	332.83	33.39	-50.6	-66.1	3.8	1.49e+00	0	42	104	0	72	21954
2026-01-06 00:48:45.66	332.52	33.51	-50.6	-66.1	3.8	1.49e+00	0	42	104	0	72	21971
2026-01-06 00:48:46.67	332.19	33.63	-50.6	-66.1	3.8	1.49e+00	0	42	104	0	72	21994
2026-01-06 00:48:47.67	331.87	33.74	-50.6	-66.1	3.8	1.49e+00	0	42	104	0	72	22005
2026-01-06 00:48:48.68	331.54	33.86	-50.6	-66.1	3.8	1.49e+00	0	42	104	0	72	22001
2026-01-06 00:48:49.68	331.21	33.97	-50.6	-66.1	3.8	1.49e+00	0	42	104	0	72	21972
2026-01-06 00:48:50.68	330.88	34.09	-50.6	-66.2	3.8	1.49e+00	0	42	104	0	72	22038
2026-01-06 00:48:51.69	330.54	34.20	-50.6	-66.2	3.8	1.49e+00	0	42	104	0	72	22027
2026-01-06 00:48:52.69	330.20	34.31	-50.6	-66.1	3.8	1.49e+00	0	42	104	0	72	21988
2026-01-06 00:48:53.70	329.86	34.43	-50.6	-66.1	3.8	1.49e+00	0	42	104	0	72	21915
2026-01-06 00:48:54.70	329.52	34.54	-50.6	-66.2	3.8	1.49e+00	0	41	104	0	72	22017
2026-01-06 00:48:55.71	329.18	34.65	-50.6	-66.1	3.8	1.49e+00	0	41	104	0	72	21950
2026-01-06 00:48:56.71	328.83	34.76	-50.6	-66.1	3.8	1.49e+00	0	42	104	0	72	21998
2026-01-06 00:48:57.72	328.48	34.87	-50.6	-66.1	3.8	1.49e+00	0	41	104	0	72	21965
2026-01-06 00:48:58.72	328.13	34.97	-50.6	-66.1	3.8	1.49e+00	0	42	104	0	72	21980
2026-01-06 00:48:59.72	327.78	35.08	-50.6	-66.2	3.8	1.49e+00	0	41	104	0	72	22030
2026-01-06 00:49:00.73	327.42	35.19	-50.6	-66.1	3.8	1.49e+00	0	41	104	0	72	21944
2026-01-06 00:49:01.73	327.06	35.29	-50.6	-66.1	3.8	1.49e+00	0	42	104	0	72	21967
2026-01-06 00:49:02.74	326.70	35.40	-50.6	-66.1	3.8	1.49e+00	0	41	104	0	72	22005
2026-01-06 00:49:03.74	326.34	35.50	-50.6	-66.2	3.8	1.49e+00	0	42	104	0	72	22021
2026-01-06 00:49:04.75	325.97	35.60	-50.6	-66.2	3.8	1.49e+00	0	41	104	0	72	22064
2026-01-06 00:49:05.75	325.60	35.70	-50.6	-66.1	3.8	1.49e+00	0	42	104	0	72	21945
2026-01-06 00:49:06.76	325.23	35.81	-50.6	-66.2	3.8	1.49e+00	0	41	104	0	72	22060
2026-01-06 00:49:07.76	324.86	35.90	-50.6	-66.1	3.8	1.49e+00	0	42	104	0	72	21990
2026-01-06 00:49:08.76	324.49	36.00	-50.6	-66.1	3.8	1.49e+00	0	42	104	0	72	21923
2026-01-06 00:49:09.77	324.11	36.10	-50.6	-66.1	3.8	1.49e+00	0	42	104	0	72	21937
2026-01-06 00:49:10.77	323.73	36.20	-50.6	-66.1	3.8	1.49e+00	0	42	104	0	72	21937
2026-01-06 00:49:11.78	323.35	36.29	-50.6	-66.2	3.8	1.49e+00	0	42	104	0	72	22010
2026-01-06 00:49:12.78	322.96	36.39	-50.6	-66.1	3.8	1.49e+00	0	42	104	0	72	21961
2026-01-06 00:49:13.79	322.58	36.48	-50.6	-66.1	3.8	1.49e+00	0	42	104	0	72	21984
2026-01-06 00:49:14.79	322.19	36.57	-50.6	-66.2	3.8	1.49e+00	0	42	104	0	72	22008
2026-01-06 00:49:15.79	321.80	36.66	-50.6	-66.1	3.8	1.49e+00	0	42	104	0	72	21981
2026-01-06 00:49:16.80	321.41	36.75	-50.6	-66.1	3.8	1.49e+00	0	42	104	0	72	21965
2026-01-06 00:49:17.80	321.01	36.84	-50.6	-66.1	3.8	1.49e+00	0	42	104	0	72	21918
2026-01-06 00:49:18.80	320.62	36.92	-50.6	-66.1	3.8	1.49e+00	0	42	104	0	72	21987
2026-01-06 00:49:19.81	320.22	37.01	-50.6	-66.2	3.8	1.49e+00	0	42	104	0	72	22093
2026-01-06 00:49:20.81	319.82	37.09	-50.6	-66.1	3.8	1.49e+00	0	42	104	0	72	21997
2026-01-06 00:49:21.82	319.41	37.17	-50.6	-66.1	3.8	1.49e+00	0	41	104	0	72	21949
2026-01-06 00:49:22.82	319.01	37.25	-50.6	-66.2	3.8	1.49e+00	0	42	104	0	72	22034
2026-01-06 00:49:23.83	318.60	37.33	-50.6	-66.1	3.8	1.49e+00	0	42	104	0	72	21980
2026-01-06 00:49:24.83	318.19	37.41	-50.6	-66.2	3.8	1.49e+00	0	42	104	0	72	22016
2026-01-06 00:49:25.83	317.78	37.49	-50.6	-66.1	3.8	1.49e+00	0	42	104	0	72	21993
2026-01-06 00:49:26.84	317.37	37.56	-50.6	-66.1	3.8	1.49e+00	0	42	104	0	72	21970
2026-01-06 00:49:27.84	316.95	37.63	-50.6	-66.1	3.8	1.49e+00	0	42	104	0	72	22002
2026-01-06 00:49:28.85	316.54	37.71	-50.6	-66.1	3.8	1.49e+00	0	42	104	0	72	21977
2026-01-06 00:49:29.85	316.12	37.77	-50.6	-66.2	3.8	1.49e+00	0	42	104	0	72	22026
2026-01-06 00:49:31.09	315.60	37.86	-50.6	-66.1	3.8	1.49e+00	0	42	104	0	72	21969
2026-01-06 00:49:31.95	315.24	37.92	-50.6	-66.2	3.8	1.49e+00	0	42	104	0	72	22015
2026-01-06 00:49:33.09	314.76	37.99	-50.6	-66.2	3.8	1.49e+00	0	42	104	0	72	22036
2026-01-06 00:49:33.96	314.39	38.04	-50.6	-66.1	3.8	1.49e+00	0	42	104	0	72	21981
2026-01-06 00:49:35.10	313.90	38.11	-50.6	-66.2	3.8	1.49e+00	0	42	104	0	72	22047
2026-01-06 00:49:35.96	313.53	38.17	-50.6	-66.2	3.8	1.49e+00	0	42	104	0	72	22027
2026-01-06 00:49:37.11	313.04	38.23	-50.6	-66.2	3.8	1.49e+00	0	42	104	0	72	22021
2026-01-06 00:49:37.97	312.67	38.28	-50.6	-66.1	3.8	1.49e+00	0	42	104	0	72	21972
2026-01-06 00:49:39.12	312.17	38.34	-50.6	-66.1	3.8	1.49e+00	0	42	104	0	72	21981
2026-01-06 00:49:39.98	311.80	38.39	-50.6	-66.1	3.8	1.49e+00	0	42	104	0	72	21992
2026-01-06 00:49:41.13	311.30	38.45	-50.6	-66.1	3.8	1.49e+00	0	42	104	0	72	21985
2026-01-06 00:49:41.99	310.93	38.49	-50.6	-66.2	3.8	1.49e+00	0	42	104	0	72	22022
2026-01-06 00:49:43.14	310.42	38.54	-50.6	-66.1	3.8	1.49e+00	0	42	104	0	72	21926
2026-01-06 00:49:44.00	310.05	38.58	-50.6	-66.2	3.8	1.49e+00	0	42	104	0	72	22023
2026-01-06 00:49:45.14	309.55	38.63	-50.6	-66.2	3.8	1.49e+00	0	42	104	0	72	22064
2026-01-06 00:49:46.00	309.17	38.67	-50.6	-66.1	3.8	1.49e+00	0	42	104	0	72	21954
2026-01-06 00:49:47.15	308.66	38.71	-50.6	-66.2	3.8	1.49e+00	0	42	104	0	72	22036
2026-01-06 00:49:48.01	308.28	38.74	-50.6	-66.1	3.8	1.49e+00	0	42	104	0	72	21996
2026-01-06 00:49:49.16	307.77	38.79	-50.6	-66.1	3.8	1.49e+00	0	42	104	0	72	21953
2026-01-06 00:49:50.02	307.38	38.81	-50.6	-66.2	3.8	1.49e+00	0	42	104	0	72	22047
2026-01-06 00:49:51.17	306.87	38.85	-50.6	-66.2	3.8	1.49e+00	0	42	104	0	72	22033
2026-01-06 00:49:52.03	306.49	38.88	-50.6	-66.2	3.8	1.49e+00	0	42	104	0	72	22025
2026-01-06 00:49:53.18	305.97	38.91	-50.6	-66.1	3.8	1.49e+00	0	42	104	0	72	21960
2026-01-06 00:49:54.04	305.58	38.93	-50.6	-66.1	3.8	1.49e+00	0	42	104	0	72	21994
2026-01-06 00:49:55.18	305.07	38.96	-50.6	-66.1	3.8	1.49e+00	0	42	104	0	72	21980
2026-01-06 00:49:56.05	304.68	38.98	-50.6	-66.1	3.8	1.49e+00	0	42	104	0	72	21991
2026-01-06 00:49:57.19	304.17	39.00	-50.6	-66.1	3.8	1.49e+00	0	42	104	0	72	21942
2026-01-06 00:49:58.05	303.78	39.02	-50.6	-66.2	3.8	1.49e+00	0	42	104	0	72	22030
2026-01-06 00:49:59.20	303.26	39.03	-50.6	-66.2	3.8	1.49e+00	0	42	104	0	72	22017
2026-01-06 00:50:00.06	302.87	39.05	-50.6	-66.2	3.8	1.49e+00	0	42	104	0	72	22031
2026-01-06 00:50:01.43	302.25	39.06	-50.6	-66.1	3.8	1.49e+00	0	42	104	0	72	22001
2026-01-06 00:50:02.15	301.93	39.07	-50.6	-66.1	3.8	1.49e+00	0	42	104	0	72	21985
2026-01-06 00:50:03.44	301.34	39.08	-50.6	-66.2	3.8	1.49e+00	0	42	104	0	72	22032
2026-01-06 00:50:04.16	301.02	39.08	-50.6	-66.2	3.8	1.49e+00	0	42	104	0	72	22030
2026-01-06 00:50:05.45	300.43	39.09	-50.6	-66.1	3.8	1.49e+00	0	42	104	0	72	21999
2026-01-06 00:50:06.17	300.10	39.09	-50.6	-66.1	3.8	1.49e+00	0	42	104	0	72	21926
2026-01-06 00:50:07.46	299.52	39.09	-50.6	-66.2	3.8	1.49e+00	0	42	104	0	72	22016
2026-01-06 00:50:08.18	299.19	39.08	-50.6	-66.2	3.8	1.49e+00	0	42	104	0	72	22024
2026-01-06 00:50:09.47	298.61	39.08	-50.6	-66.1	3.8	1.49e+00	0	42	104	0	72	21912
2026-01-06 00:50:10.18	298.29	39.07	-50.6	-66.2	3.8	1.49e+00	0	42	104	0	72	22079
2026-01-06 00:50:11.48	297.70	39.06	-50.6	-66.1	3.8	1.49e+00	0	42	104	0	72	21921
2026-01-06 00:50:12.19	297.38	39.05	-50.6	-66.2	3.8	1.49e+00	0	42	104	0	72	22053
2026-01-06 00:50:13.50	296.78	39.04	-50.6	-66.1	3.8	1.49e+00	0	42	104	0	72	21937
2026-01-06 00:50:14.22	296.46	39.03	-50.6	-66.2	3.8	1.49e+00	0	42	104	0	72	22039
2026-01-06 00:50:15.59	295.84	39.00	-50.6	-66.1	3.8	1.49e+00	0	42	104	0	72	22001
2026-01-06 00:50:16.31	295.52	38.99	-50.6	-66.1	3.8	1.49e+00	0	42	104	0	72	21981
2026-01-06 00:50:17.65	294.91	38.96	-50.6	-66.2	3.8	1.49e+00	0	42	104	0	72	22033
2026-01-06 00:50:18.36	294.59	38.94	-50.6	-66.1	3.8	1.49e+00	0	42	104	0	72	22007
2026-01-06 00:50:19.74	293.97	38.91	-50.6	-66.2	3.8	1.49e+00	0	42	104	0	72	22051
2026-01-06 00:50:20.45	293.66	38.89	-50.6	-66.2	3.8	1.49e+00	0	42	104	0	72	22066
2026-01-06 00:50:21.81	293.05	38.85	-50.6	-66.2	3.8	1.49e+00	0	42	104	0	72	22016
2026-01-06 00:50:22.52	292.73	38.83	-50.6	-66.2	3.8	1.49e+00	0	42	104	0	72	22045
2026-01-06 00:50:23.88	292.12	38.78	-50.6	-66.1	3.8	1.49e+00	0	42	104	0	72	21943
2026-01-06 00:50:24.60	291.80	38.76	-50.6	-66.1	3.8	1.49e+00	0	42	104	0	72	22005
2026-01-06 00:50:25.89	291.23	38.71	-50.6	-66.1	3.8	1.49e+00	0	42	104	0	72	22001
2026-01-06 00:50:26.61	290.91	38.68	-50.6	-66.1	3.8	1.49e+00	0	42	104	0	72	21995
2026-01-06 00:50:27.90	290.34	38.63	-50.6	-66.2	3.8	1.49e+00	0	42	104	0	72	22053
2026-01-06 00:50:28.62	290.03	38.59	-50.6	-66.1	3.8	1.49e+00	0	42	104	0	72	21989
2026-01-06 00:50:29.91	289.46	38.54	-50.6	-66.2	3.8	1.49e+00	0	42	104	0	72	22021
2026-01-06 00:50:30.62	289.15	38.50	-50.6	-66.1	3.8	1.49e+00	0	42	104	0	72	21983
2026-01-06 00:50:31.92	288.58	38.44	-50.6	-66.1	3.8	1.49e+00	0	42	104	0	72	21995
2026-01-06 00:50:32.63	288.27	38.40	-50.6	-66.2	3.8	1.49e+00	0	42	104	0	72	22042
2026-01-06 00:50:33.92	287.71	38.34	-50.6	-66.2	3.8	1.49e+00	0	42	104	0	72	22017
2026-01-06 00:50:34.64	287.40	38.30	-50.6	-66.2	3.8	1.49e+00	0	42	104	0	72	22068
2026-01-06 00:50:35.93	286.84	38.22	-50.6	-66.2	3.8	1.49e+00	0	42	104	0	72	22136
2026-01-06 00:50:36.65	286.54	38.18	-50.6	-66.1	3.8	1.49e+00	0	42	104	0	72	21965
2026-01-06 00:50:37.94	285.98	38.11	-50.6	-66.1	3.8	1.49e+00	0	42	104	0	72	21969
2026-01-06 00:50:38.66	285.68	38.06	-50.6	-66.2	3.8	1.49e+00	0	42	104	0	72	22051
2026-01-06 00:50:39.95	285.13	37.98	-50.6	-66.2	3.8	1.49e+00	0	42	104	0	72	22031
2026-01-06 00:50:40.67	284.82	37.93	-50.6	-66.2	3.8	1.49e+00	0	42	104	0	72	22074
2026-01-06 00:50:41.96	284.28	37.85	-50.6	-66.2	3.8	1.49e+00	0	42	104	0	72	22042
2026-01-06 00:50:42.67	283.98	37.80	-50.6	-66.2	3.8	1.49e+00	0	42	104	0	72	22132
2026-01-06 00:50:43.97	283.44	37.71	-50.6	-66.2	3.8	1.49e+00	0	42	104	0	72	22082
2026-01-06 00:50:44.68	283.14	37.66	-50.6	-66.2	3.8	1.49e+00	0	42	104	0	72	22033
2026-01-06 00:50:45.97	282.61	37.57	-50.6	-66.2	3.8	1.49e+00	0	42	104	0	72	22041
2026-01-06 00:50:46.69	282.31	37.51	-50.6	-66.2	3.8	1.49e+00	0	42	104	0	72	22087
2026-01-06 00:50:47.98	281.78	37.42	-50.6	-66.2	3.8	1.49e+00	0	42	104	0	72	22036
2026-01-06 00:50:48.70	281.49	37.36	-50.6	-66.2	3.8	1.49e+00	0	42	104	0	72	22055
2026-01-06 00:50:49.99	280.96	37.26	-50.6	-66.2	3.8	1.49e+00	0	42	104	0	72	22085
2026-01-06 00:50:50.71	280.67	37.20	-50.6	-66.2	3.8	1.49e+00	0	42	104	0	72	22078
2026-01-06 00:50:52.00	280.15	37.10	-50.6	-66.2	3.8	1.49e+00	0	42	104	0	72	22052
2026-01-06 00:50:52.72	279.86	37.04	-50.6	-66.2	3.8	1.49e+00	0	42	104	0	72	22034
2026-01-06 00:50:54.01	279.35	36.93	-50.6	-66.1	3.8	1.49e+00	0	42	104	0	72	21985
2026-01-06 00:50:54.73	279.06	36.87	-50.6	-66.2	3.8	1.49e+00	0	42	104	0	72	22018
2026-01-06 00:50:56.02	278.56	36.75	-50.6	-66.2	3.8	1.49e+00	0	42	104	0	72	22056
2026-01-06 00:50:56.73	278.28	36.69	-50.6	-66.2	3.8	1.49e+00	0	42	104	0	72	22046
2026-01-06 00:50:58.02	277.77	36.58	-50.6	-66.2	3.8	1.49e+00	0	42	104	0	72	22072
2026-01-06 00:50:58.74	277.49	36.51	-50.6	-66.2	3.8	1.49e+00	0	42	104	0	72	22060
2026-01-06 00:51:00.03	277.00	36.39	-50.6	-66.2	3.8	1.49e+00	0	42	104	0	72	22009
2026-01-06 00:51:00.74	276.72	36.33	-50.6	-66.2	3.8	1.49e+00	0	42	104	0	72	22043
2026-01-06 00:51:02.04	276.23	36.20	-50.6	-66.2	3.8	1.49e+00	0	42	104	0	72	22021
2026-01-06 00:51:02.75	275.96	36.13	-50.6	-66.2	3.8	1.49e+00	0	42	104	0	72	22053
2026-01-06 00:51:04.04	275.47	36.01	-50.6	-66.2	3.8	1.49e+00	0	42	104	0	72	22127
2026-01-06 00:51:04.76	275.20	35.94	-50.6	-66.2	3.8	1.49e+00	0	42	104	0	72	22127
2026-01-06 00:51:06.05	274.72	35.81	-50.6	-66.2	3.8	1.49e+00	0	42	104	0	72	22068
2026-01-06 00:51:06.77	274.46	35.74	-50.6	-66.2	3.8	1.49e+00	0	42	104	0	72	22032
2026-01-06 00:51:08.06	273.98	35.61	-50.6	-66.1	3.8	1.49e+00	0	42	104	0	72	22005
2026-01-06 00:51:08.78	273.72	35.54	-50.6	-66.2	3.8	1.49e+00	0	42	104	0	72	22033
2026-01-06 00:51:10.07	273.25	35.40	-50.6	-66.1	3.8	1.49e+00	0	42	104	0	72	21986
2026-01-06 00:51:10.79	272.99	35.33	-50.6	-66.2	3.8	1.49e+00	0	42	104	0	72	22127
2026-01-06 00:51:12.08	272.53	35.19	-50.6	-66.1	3.8	1.49e+00	0	42	104	0	72	22004
2026-01-06 00:51:12.79	272.27	35.12	-50.6	-66.1	3.8	1.49e+00	0	42	104	0	72	22006
2026-01-06 00:51:14.09	271.81	34.98	-50.6	-66.2	3.8	1.49e+00	0	42	104	0	72	22053
2026-01-06 00:51:14.80	271.57	34.90	-50.6	-66.2	3.8	1.49e+00	0	42	104	0	72	22073
2026-01-06 00:51:16.09	271.11	34.76	-50.6	-66.1	3.8	1.49e+00	0	42	104	0	72	22005
2026-01-06 00:51:16.81	270.87	34.68	-50.6	-66.1	3.8	1.49e+00	0	42	104	0	72	21994
2026-01-06 00:51:18.10	270.42	34.54	-50.6	-66.2	3.8	1.49e+00	0	42	104	0	72	22032
2026-01-06 00:51:18.82	270.17	34.46	-50.6	-66.1	3.8	1.49e+00	0	42	104	0	72	21959
2026-01-06 00:51:20.11	269.74	34.32	-50.6	-66.1	3.8	1.49e+00	0	42	104	0	72	21971
2026-01-06 00:51:20.83	269.49	34.23	-50.6	-66.1	3.8	1.49e+00	0	42	104	0	72	21999
2026-01-06 00:51:22.12	269.06	34.09	-50.6	-66.2	3.8	1.49e+00	0	42	104	0	72	22067
2026-01-06 00:51:22.84	268.82	34.01	-50.6	-66.2	3.8	1.49e+00	0	42	104	0	72	22051
2026-01-06 00:51:24.13	268.39	33.86	-50.6	-66.2	3.8	1.49e+00	0	42	104	0	72	22018
2026-01-06 00:51:24.85	268.16	33.78	-50.6	-66.1	3.8	1.49e+00	0	42	104	0	72	21982
2026-01-06 00:51:26.14	267.74	33.63	-50.6	-66.2	3.8	1.49e+00	0	42	104	0	72	22109
2026-01-06 00:51:26.85	267.51	33.54	-50.6	-66.1	3.8	1.49e+00	0	42	104	0	72	22006
2026-01-06 00:51:28.14	267.09	33.39	-50.6	-66.2	3.8	1.49e+00	0	42	104	0	72	22050
2026-01-06 00:51:28.86	266.86	33.31	-50.6	-66.2	3.8	1.49e+00	0	42	104	0	72	22057
2026-01-06 00:51:30.15	266.46	33.16	-50.6	-66.1	3.8	1.49e+00	0	42	104	0	72	21945
2026-01-06 00:51:30.87	266.23	33.07	-50.6	-66.1	3.8	1.49e+00	0	42	104	0	72	21967
2026-01-06 00:51:32.16	265.83	32.92	-50.6	-66.2	3.8	1.49e+00	0	42	104	0	72	22009
2026-01-06 00:51:32.88	265.61	32.83	-50.6	-66.1	3.8	1.49e+00	0	42	104	0	72	21973
2026-01-06 00:51:34.17	265.21	32.68	-50.6	-66.1	3.8	1.49e+00	0	42	104	0	72	21970
2026-01-06 00:51:34.89	264.99	32.59	-50.6	-66.1	3.8	1.49e+00	0	42	104	0	72	21932
2026-01-06 00:51:36.18	264.60	32.43	-50.6	-66.2	3.8	1.49e+00	0	42	104	0	72	22033
2026-01-06 00:51:36.89	264.39	32.35	-50.6	-66.1	3.8	1.49e+00	0	42	104	0	72	21977
2026-01-06 00:51:38.19	264.00	32.19	-50.6	-66.1	3.8	1.49e+00	0	42	104	0	72	21962
2026-01-06 00:51:38.90	263.79	32.10	-50.5	-66.2	3.8	1.49e+00	0	42	104	0	72	22043
2026-01-06 00:51:40.20	263.41	31.94	-50.6	-66.2	3.8	1.49e+00	0	42	104	0	72	22081
2026-01-06 00:51:40.91	263.20	31.85	-50.6	-66.1	3.8	1.49e+00	0	42	104	0	72	21971
2026-01-06 00:51:42.20	262.83	31.70	-50.6	-66.1	3.8	1.49e+00	0	42	104	0	72	21969
2026-01-06 00:51:42.92	262.62	31.61	-50.6	-66.1	3.8	1.49e+00	0	42	104	0	72	21970
2026-01-06 00:51:44.21	262.25	31.45	-50.6	-66.1	3.8	1.49e+00	0	42	104	0	72	22004
2026-01-06 00:51:44.93	262.05	31.36	-50.6	-66.1	3.8	1.49e+00	0	42	104	0	72	21923
2026-01-06 00:51:46.22	261.69	31.20	-50.6	-66.1	3.8	1.49e+00	0	42	104	0	72	21931
2026-01-06 00:51:46.94	261.49	31.11	-50.6	-66.1	3.8	1.49e+00	0	42	104	0	72	21983
2026-01-06 00:51:48.23	261.13	30.95	-50.6	-66.2	3.8	1.49e+00	0	42	104	0	72	22011
2026-01-06 00:51:48.95	260.93	30.86	-50.6	-66.2	3.8	1.49e+00	0	42	104	0	72	22021
2026-01-06 00:51:50.24	260.58	30.69	-50.6	-66.2	3.8	1.49e+00	0	42	104	0	72	22036
2026-01-06 00:51:50.96	260.39	30.60	-50.6	-66.1	3.8	1.49e+00	0	42	104	0	72	21917
2026-01-06 00:51:52.25	260.04	30.44	-50.6	-66.2	3.8	1.49e+00	0	42	104	0	72	22021
2026-01-06 00:51:52.96	259.85	30.35	-50.6	-66.1	3.8	1.49e+00	0	42	104	0	72	21940
2026-01-06 00:51:54.25	259.51	30.19	-50.6	-66.2	3.8	1.49e+00	0	42	104	0	72	22087
2026-01-06 00:51:54.97	259.33	30.10	-50.6	-66.1	3.8	1.49e+00	0	42	104	0	72	21968
2026-01-06 00:51:56.26	258.99	29.94	-50.6	-66.2	3.8	1.49e+00	0	42	104	0	72	22034
2026-01-06 00:51:56.98	258.81	29.85	-50.6	-66.1	3.8	1.49e+00	0	42	104	0	72	22002
2026-01-06 00:51:58.27	258.48	29.68	-50.6	-66.2	3.8	1.49e+00	0	42	104	0	72	22040
2026-01-06 00:51:58.99	258.29	29.59	-50.6	-66.2	3.8	1.49e+00	0	42	104	0	72	22038
2026-01-06 00:52:00.28	257.97	29.43	-50.6	-66.1	3.8	1.49e+00	0	42	104	0	72	21962
2026-01-06 00:52:01.00	257.79	29.34	-50.6	-66.1	3.8	1.49e+00	0	42	104	0	72	21972
2026-01-06 00:52:02.29	257.47	29.17	-50.6	-66.2	3.8	1.49e+00	0	42	104	0	72	22046
2026-01-06 00:52:03.01	257.30	29.08	-50.6	-66.1	3.8	1.49e+00	0	42	104	0	72	21940
2026-01-06 00:52:04.30	256.98	28.92	-50.6	-66.1	3.8	1.49e+00	0	42	104	0	72	21994
2026-01-06 00:52:05.02	256.81	28.83	-50.6	-66.2	3.8	1.49e+00	0	42	104	0	72	22046
2026-01-06 00:52:06.31	256.50	28.67	-50.6	-66.1	3.8	1.49e+00	0	42	104	0	72	21993
2026-01-06 00:52:07.02	256.33	28.58	-50.6	-66.2	3.8	1.49e+00	0	42	104	0	72	22034
2026-01-06 00:52:08.31	256.03	28.41	-50.6	-66.2	3.8	1.49e+00	0	42	104	0	72	22097
2026-01-06 00:52:09.03	255.86	28.32	-50.6	-66.1	3.8	1.49e+00	0	42	104	0	72	21935
2026-01-06 00:52:10.32	255.56	28.16	-50.6	-66.2	3.8	1.49e+00	0	42	104	0	72	22026
2026-01-06 00:52:11.04	255.39	28.07	-50.6	-66.1	3.8	1.49e+00	0	42	104	0	72	21987
2026-01-06 00:52:12.33	255.10	27.90	-50.6	-66.2	3.8	1.49e+00	0	42	104	0	72	22048
2026-01-06 00:52:13.05	254.94	27.81	-50.6	-66.2	3.8	1.49e+00	0	42	104	0	72	22040
2026-01-06 00:52:14.34	254.65	27.65	-50.6	-66.1	3.8	1.49e+00	0	42	104	0	72	21985
2026-01-06 00:52:15.06	254.48	27.56	-50.6	-66.2	3.8	1.49e+00	0	42	104	0	72	22063
2026-01-06 00:52:16.35	254.20	27.40	-50.6	-66.1	3.8	1.49e+00	0	42	104	0	72	22001
2026-01-06 00:52:17.13	254.03	27.30	-50.6	-66.1	3.8	1.49e+00	0	42	104	0	72	21973
2026-01-06 00:52:18.31	253.77	27.15	-50.6	-66.2	3.8	1.49e+00	0	42	104	0	72	22043
2026-01-06 00:52:19.33	253.55	27.02	-50.6	-66.1	3.8	1.49e+00	0	42	104	0	72	21965
2026-01-06 00:52:20.54	253.29	26.87	-50.6	-66.1	3.8	1.49e+00	0	42	104	0	72	21957
2026-01-06 00:52:21.43	253.10	26.76	-50.6	-66.2	3.8	1.49e+00	0	42	104	0	72	22039
2026-01-06 00:52:22.73	252.83	26.60	-50.6	-66.2	3.8	1.49e+00	0	42	104	0	72	22090
2026-01-06 00:52:23.45	252.68	26.51	-50.6	-66.2	3.8	1.49e+00	0	42	104	0	72	22044
2026-01-06 00:52:24.74	252.41	26.35	-50.6	-66.2	3.8	1.49e+00	0	42	104	0	72	22017
2026-01-06 00:52:25.46	252.27	26.26	-50.6	-66.1	3.8	1.49e+00	0	42	104	0	72	21961
2026-01-06 00:52:26.75	252.00	26.09	-50.6	-66.2	3.8	1.49e+00	0	42	104	0	72	22022
2026-01-06 00:52:27.47	251.86	26.01	-50.6	-66.1	3.8	1.49e+00	0	42	104	0	72	21951
2026-01-06 00:52:28.76	251.60	25.85	-50.6	-66.2	3.8	1.49e+00	0	42	104	0	72	22017
2026-01-06 00:52:29.48	251.46	25.76	-50.6	-66.2	3.8	1.49e+00	0	42	104	0	72	22034
2026-01-06 00:52:30.76	251.20	25.60	-50.6	-66.2	3.8	1.49e+00	0	42	104	0	72	22023
2026-01-06 00:52:31.48	251.06	25.51	-50.6	-66.2	3.8	1.49e+00	0	42	104	0	72	22042
2026-01-06 00:52:32.79	250.81	25.35	-50.6	-66.1	3.8	1.49e+00	0	42	104	0	72	21953
2026-01-06 00:52:33.50	250.67	25.26	-50.6	-66.2	3.8	1.49e+00	0	42	104	0	72	22073
2026-01-06 00:52:34.86	250.41	25.09	-50.6	-66.2	3.8	1.49e+00	0	42	104	0	72	22036
2026-01-06 00:52:35.58	250.28	25.00	-50.6	-66.2	3.8	1.49e+00	0	42	104	0	72	22020
2026-01-06 00:52:36.87	250.03	24.85	-50.6	-66.1	3.8	1.49e+00	0	42	104	0	72	21929
2026-01-06 00:52:37.59	249.90	24.76	-50.6	-66.2	3.8	1.49e+00	0	42	104	0	72	22048
2026-01-06 00:52:38.88	249.66	24.60	-50.6	-66.2	3.8	1.49e+00	0	42	104	0	72	22065
2026-01-06 00:52:39.60	249.53	24.51	-50.6	-66.1	3.8	1.49e+00	0	42	104	0	72	21996
2026-01-06 00:52:40.89	249.29	24.36	-50.6	-66.2	3.8	1.49e+00	0	42	104	0	72	22021
2026-01-06 00:52:41.60	249.16	24.27	-50.6	-66.2	3.8	1.49e+00	0	42	104	0	72	22069
2026-01-06 00:52:42.89	248.93	24.11	-50.6	-66.1	3.8	1.49e+00	0	42	104	0	72	21977
2026-01-06 00:52:43.61	248.80	24.03	-50.6	-66.1	3.8	1.49e+00	0	42	104	0	72	21946
2026-01-06 00:52:44.90	248.58	23.87	-50.6	-66.2	3.8	1.49e+00	0	42	104	0	72	22021
2026-01-06 00:52:45.62	248.45	23.79	-50.6	-66.1	3.8	1.49e+00	0	42	104	0	72	21997
2026-01-06 00:52:46.91	248.23	23.63	-50.6	-66.1	3.8	1.49e+00	0	42	104	0	72	21922
2026-01-06 00:52:47.63	248.10	23.54	-50.6	-66.1	3.8	1.49e+00	0	42	104	0	72	21968
2026-01-06 00:52:48.92	247.88	23.39	-50.6	-66.2	3.8	1.49e+00	0	42	104	0	72	22051
2026-01-06 00:52:49.64	247.76	23.30	-50.6	-66.1	3.8	1.49e+00	0	42	104	0	72	21955
2026-01-06 00:52:50.93	247.54	23.15	-50.6	-66.2	3.8	1.49e+00	0	42	104	0	72	22029
2026-01-06 00:52:51.65	247.42	23.07	-50.6	-66.2	3.8	1.49e+00	0	42	104	0	72	22074
2026-01-06 00:52:52.94	247.21	22.91	-50.6	-66.1	3.8	1.49e+00	0	42	104	0	72	21930
2026-01-06 00:52:53.66	247.09	22.83	-50.6	-66.1	3.8	1.49e+00	0	42	104	0	72	21982
2026-01-06 00:52:54.95	246.88	22.68	-50.6	-66.2	3.8	1.49e+00	0	42	104	0	72	22010
2026-01-06 00:52:55.66	246.76	22.59	-50.6	-66.2	3.8	1.49e+00	0	42	104	0	72	22044
2026-01-06 00:52:56.95	246.55	22.44	-50.6	-66.2	3.8	1.49e+00	0	42	104	0	72	22045
2026-01-06 00:52:57.67	246.44	22.36	-50.6	-66.2	3.8	1.49e+00	0	42	104	0	72	22052
2026-01-06 00:52:58.96	246.23	22.21	-50.6	-66.1	3.8	1.49e+00	0	42	104	0	72	21985
2026-01-06 00:52:59.68	246.12	22.12	-50.6	-66.2	3.8	1.49e+00	0	42	104	0	72	22009
2026-01-06 00:53:00.97	245.92	21.97	-50.6	-66.1	3.8	1.49e+00	0	42	104	0	72	21987
2026-01-06 00:53:01.69	245.81	21.89	-50.6	-66.2	3.8	1.49e+00	0	42	104	0	72	22014
2026-01-06 00:53:02.98	245.61	21.74	-50.6	-66.1	3.8	1.49e+00	0	42	104	0	72	21976
2026-01-06 00:53:03.69	245.50	21.66	-50.6	-66.2	3.8	1.49e+00	0	42	104	0	72	22025
2026-01-06 00:53:04.99	245.30	21.51	-50.6	-66.1	3.8	1.49e+00	0	42	104	0	72	21998
2026-01-06 00:53:05.70	245.20	21.43	-50.6	-66.2	3.8	1.49e+00	0	42	104	0	72	22033
2026-01-06 00:53:06.99	245.01	21.28	-50.6	-66.1	3.8	1.49e+00	0	42	104	0	72	21992
2026-01-06 00:53:07.71	244.90	21.20	-50.6	-66.2	3.8	1.49e+00	0	42	104	0	72	22015
2026-01-06 00:53:09.00	244.71	21.05	-50.6	-66.1	3.8	1.49e+00	0	42	104	0	72	21981
2026-01-06 00:53:09.72	244.60	20.97	-50.6	-66.2	3.8	1.49e+00	0	42	104	0	72	22020
2026-01-06 00:53:11.01	244.42	20.83	-50.6	-66.2	3.8	1.49e+00	0	42	104	0	72	22014
2026-01-06 00:53:11.73	244.31	20.75	-50.6	-66.2	3.8	1.49e+00	0	42	104	0	72	22047
2026-01-06 00:53:13.02	244.13	20.60	-50.6	-66.2	3.8	1.49e+00	0	42	104	0	72	22029
2026-01-06 00:53:13.74	244.03	20.52	-50.6	-66.2	3.8	1.49e+00	0	42	104	0	72	22064
2026-01-06 00:53:15.03	243.85	20.38	-50.6	-66.2	3.8	1.49e+00	0	42	104	0	72	22029
2026-01-06 00:53:15.74	243.75	20.30	-50.6	-66.2	3.8	1.49e+00	0	42	104	0	72	22011
2026-01-06 00:53:17.03	243.57	20.16	-50.6	-66.1	3.8	1.49e+00	0	42	104	0	72	22005
2026-01-06 00:53:17.75	243.47	20.08	-50.6	-66.2	3.8	1.49e+00	0	42	104	0	72	22019
2026-01-06 00:53:19.04	243.29	19.93	-50.6	-66.1	3.8	1.49e+00	0	42	104	0	72	22007
2026-01-06 00:53:19.75	243.20	19.86	-50.6	-66.2	3.8	1.49e+00	0	42	104	0	72	22047
2026-01-06 00:53:21.05	243.02	19.71	-50.6	-66.2	3.8	1.49e+00	0	42	104	0	72	22060
2026-01-06 00:53:21.76	242.93	19.63	-50.6	-66.2	3.8	1.49e+00	0	42	104	0	72	22036
2026-01-06 00:53:23.05	242.76	19.49	-50.6	-66.2	3.8	1.49e+00	0	42	104	0	72	22008
2026-01-06 00:53:23.77	242.66	19.42	-50.6	-66.2	3.8	1.49e+00	0	42	104	0	72	22010
2026-01-06 00:53:25.06	242.49	19.28	-50.6	-66.2	3.8	1.49e+00	0	42	104	0	72	22009
2026-01-06 00:53:25.78	242.40	19.20	-50.6	-66.1	3.8	1.49e+00	0	42	104	0	72	21980
2026-01-06 00:53:27.07	242.23	19.06	-50.6	-66.1	3.8	1.49e+00	0	42	104	0	72	21926
2026-01-06 00:53:27.79	242.14	18.98	-50.6	-66.1	3.8	1.49e+00	0	42	104	0	72	21956
2026-01-06 00:53:29.08	241.98	18.84	-50.6	-66.1	3.8	1.49e+00	0	42	104	0	72	21996
2026-01-06 00:53:29.80	241.89	18.77	-50.6	-66.2	3.8	1.49e+00	0	42	104	0	72	22033
2026-01-06 00:53:31.09	241.72	18.63	-50.6	-66.1	3.8	1.49e+00	0	42	104	0	72	22004
2026-01-06 00:53:31.80	241.64	18.55	-50.6	-66.2	3.8	1.49e+00	0	42	104	0	72	22013
2026-01-06 00:53:33.10	241.48	18.42	-50.6	-66.1	3.8	1.49e+00	0	42	104	0	72	21893
2026-01-06 00:53:33.81	241.39	18.34	-50.6	-66.1	3.8	1.49e+00	0	42	104	0	72	21986
2026-01-06 00:53:35.10	241.23	18.20	-50.6	-66.2	3.8	1.49e+00	0	42	104	0	72	22046
2026-01-06 00:53:35.82	241.15	18.13	-50.6	-66.2	3.8	1.49e+00	0	42	104	0	72	22052
2026-01-06 00:53:37.11	240.99	17.99	-50.6	-66.2	3.8	1.49e+00	0	42	104	0	72	22009
2026-01-06 00:53:37.83	240.90	17.92	-50.6	-66.1	3.8	1.49e+00	0	42	104	0	72	21956
2026-01-06 00:53:39.12	240.75	17.79	-50.6	-66.2	3.8	1.49e+00	0	42	104	0	72	22095
2026-01-06 00:53:39.83	240.67	17.71	-50.6	-66.1	3.8	1.49e+00	0	42	104	0	72	21965
2026-01-06 00:53:41.12	240.52	17.58	-50.6	-66.1	3.8	1.49e+00	0	42	104	0	72	21999
2026-01-06 00:53:41.84	240.43	17.50	-50.6	-66.1	3.8	1.49e+00	0	42	104	0	72	21954
2026-01-06 00:53:43.13	240.29	17.37	-50.6	-66.2	3.8	1.49e+00	0	42	104	0	72	22031
2026-01-06 00:53:43.85	240.20	17.30	-50.6	-66.2	3.8	1.49e+00	0	42	104	0	72	22049
2026-01-06 00:53:45.14	240.06	17.17	-50.6	-66.1	3.8	1.49e+00	0	42	104	0	72	22006
2026-01-06 00:53:45.86	239.98	17.09	-50.6	-66.1	3.8	1.49e+00	0	42	104	0	72	21990
2026-01-06 00:53:47.15	239.83	16.96	-50.6	-66.2	3.8	1.49e+00	0	42	104	0	72	22018
2026-01-06 00:53:47.87	239.75	16.89	-50.6	-66.1	3.8	1.49e+00	0	42	104	0	72	22005
2026-01-06 00:53:49.16	239.61	16.76	-50.6	-66.1	3.8	1.49e+00	0	42	104	0	72	22001
2026-01-06 00:53:49.87	239.53	16.69	-50.6	-66.2	3.8	1.49e+00	0	42	104	0	72	22034
2026-01-06 00:53:51.17	239.39	16.56	-50.6	-66.1	3.8	1.49e+00	0	42	104	0	72	21994
2026-01-06 00:53:51.88	239.31	16.49	-50.6	-66.1	3.8	1.49e+00	0	42	104	0	72	21970
2026-01-06 00:53:53.17	239.18	16.36	-50.6	-66.2	3.8	1.49e+00	0	42	104	0	72	22046
2026-01-06 00:53:53.89	239.10	16.29	-50.6	-66.2	3.8	1.49e+00	0	42	104	0	72	22059
2026-01-06 00:53:55.18	238.96	16.16	-50.6	-66.2	3.8	1.49e+00	0	42	104	0	72	22015
2026-01-06 00:53:55.90	238.89	16.09	-50.6	-66.2	3.8	1.49e+00	0	42	104	0	72	22026
2026-01-06 00:53:57.19	238.75	15.96	-50.6	-66.1	3.8	1.49e+00	0	42	104	0	72	21942
2026-01-06 00:53:57.91	238.68	15.89	-50.6	-66.2	3.8	1.49e+00	0	42	104	0	72	22011
2026-01-06 00:53:59.20	238.54	15.76	-50.6	-66.1	3.8	1.49e+00	0	42	104	0	72	21955
2026-01-06 00:53:59.92	238.47	15.69	-50.6	-66.1	3.8	1.49e+00	0	42	104	0	72	21984
2026-01-06 00:54:01.21	238.34	15.57	-50.6	-66.1	3.8	1.49e+00	0	42	104	0	72	22003
2026-01-06 00:54:02.13	238.25	15.48	-50.6	-66.1	3.8	1.49e+00	0	42	104	0	72	21980
2026-01-06 00:54:03.14	238.14	15.38	-50.6	-66.1	3.8	1.49e+00	0	42	104	0	72	21992
2026-01-06 00:54:04.14	238.04	15.28	-50.6	-66.1	3.8	1.49e+00	0	42	104	0	72	21922
2026-01-06 00:54:05.15	237.94	15.19	-50.6	-66.1	3.8	1.49e+00	0	42	104	0	72	21955
2026-01-06 00:54:06.15	237.85	15.09	-50.6	-66.2	3.8	1.49e+00	0	42	104	0	72	22039
2026-01-06 00:54:07.15	237.75	15.00	-50.6	-66.1	3.8	1.49e+00	0	42	104	0	72	21929
2026-01-06 00:54:08.16	237.65	14.90	-50.6	-66.1	3.8	1.49e+00	0	42	104	0	72	21997
2026-01-06 00:54:09.16	237.55	14.80	-50.6	-66.1	3.8	1.49e+00	0	42	104	0	72	21961
2026-01-06 00:54:10.17	237.46	14.71	-50.6	-66.1	3.8	1.49e+00	0	42	104	0	72	21941
2026-01-06 00:54:11.17	237.36	14.61	-50.6	-66.1	3.8	1.49e+00	0	42	104	0	72	21959
2026-01-06 00:54:12.17	237.27	14.52	-50.6	-66.1	3.8	1.49e+00	0	42	104	0	72	21931
2026-01-06 00:54:13.18	237.17	14.43	-50.6	-66.1	3.8	1.49e+00	0	42	104	0	72	21928
2026-01-06 00:54:14.18	237.08	14.33	-50.6	-66.1	3.8	1.49e+00	0	42	104	0	72	21958
2026-01-06 00:54:15.19	236.99	14.24	-50.6	-66.2	3.8	1.49e+00	0	42	104	0	72	22046
2026-01-06 00:54:16.19	236.89	14.15	-50.6	-66.1	3.8	1.49e+00	0	42	104	0	72	21955
2026-01-06 00:54:17.19	236.80	14.05	-50.6	-66.1	3.8	1.49e+00	0	42	104	0	72	21866
2026-01-06 00:54:18.51	236.68	13.93	-50.6	-66.1	3.8	1.49e+00	0	42	104	0	72	21998
2026-01-06 00:54:19.23	236.62	13.86	-50.5	-66.1	3.8	1.49e+00	0	42	104	0	72	21898
2026-01-06 00:54:20.52	236.50	13.75	-50.6	-66.1	3.8	1.49e+00	0	42	104	0	72	21925
2026-01-06 00:54:21.24	236.44	13.68	-50.6	-66.1	3.8	1.49e+00	0	42	104	0	72	21917
2026-01-06 00:54:22.53	236.32	13.56	-50.6	-66.1	3.8	1.49e+00	0	42	104	0	72	21931
2026-01-06 00:54:23.25	236.26	13.50	-50.6	-66.1	3.8	1.49e+00	0	42	104	0	72	21939
2026-01-06 00:54:24.54	236.15	13.38	-50.6	-66.1	3.8	1.49e+00	0	42	104	0	72	21965
2026-01-06 00:54:25.26	236.08	13.32	-50.6	-66.1	3.8	1.49e+00	0	42	104	0	72	21979
2026-01-06 00:54:26.55	235.97	13.20	-50.6	-66.1	3.8	1.49e+00	0	42	104	0	72	21884
2026-01-06 00:54:27.27	235.91	13.13	-50.6	-66.1	3.8	1.49e+00	0	42	104	0	72	21845
2026-01-06 00:54:28.72	235.79	13.00	-50.6	-66.1	3.8	1.49e+00	0	42	104	0	72	21903
2026-01-06 00:54:29.44	235.73	12.94	-50.6	-66.1	3.8	1.49e+00	0	42	104	0	72	21870
2026-01-06 00:54:30.78	235.61	12.82	-50.6	-66.1	3.8	1.49e+00	0	42	104	0	72	21983
2026-01-06 00:54:31.49	235.55	12.76	-50.6	-66.1	3.8	1.49e+00	0	42	104	0	72	21883
2026-01-06 00:54:32.89	235.44	12.63	-50.6	-66.2	3.8	1.49e+00	0	42	104	0	72	22012
2026-01-06 00:54:33.61	235.38	12.57	-50.6	-66.1	3.8	1.49e+00	0	42	104	0	72	22005
2026-01-06 00:54:34.90	235.27	12.46	-50.6	-66.1	3.8	1.49e+00	0	42	104	0	72	21875
2026-01-06 00:54:35.62	235.21	12.39	-50.6	-66.1	3.8	1.49e+00	0	42	104	0	72	21955
2026-01-06 00:54:36.91	235.11	12.28	-50.6	-66.1	3.8	1.49e+00	0	42	104	0	72	21907
2026-01-06 00:54:37.63	235.05	12.22	-50.6	-66.1	3.8	1.49e+00	0	42	104	0	72	21915
2026-01-06 00:54:38.92	234.95	12.11	-50.6	-66.1	3.8	1.49e+00	0	42	104	0	72	21868
2026-01-06 00:54:39.64	234.89	12.04	-50.6	-66.1	3.8	1.49e+00	0	42	104	0	72	21898
2026-01-06 00:54:40.93	234.79	11.93	-50.6	-66.1	3.8	1.49e+00	0	42	104	0	72	21828
2026-01-06 00:54:41.65	234.73	11.87	-50.6	-66.1	3.8	1.49e+00	0	42	104	0	72	21988
2026-01-06 00:54:42.94	234.63	11.76	-50.6	-66.1	3.8	1.49e+00	0	42	104	0	72	21854
2026-01-06 00:54:43.65	234.58	11.70	-50.6	-66.1	3.8	1.49e+00	0	42	104	0	72	21911
2026-01-06 00:54:44.95	234.48	11.59	-50.6	-66.1	3.8	1.49e+00	0	42	104	0	72	21860
2026-01-06 00:54:45.66	234.42	11.53	-50.6	-66.1	3.8	1.49e+00	0	42	104	0	72	21910
2026-01-06 00:54:46.95	234.32	11.42	-50.6	-66.1	3.8	1.49e+00	0	42	104	0	72	21854
2026-01-06 00:54:47.67	234.27	11.36	-50.6	-66.1	3.8	1.49e+00	0	42	104	0	72	21913
2026-01-06 00:54:49.09	234.16	11.24	-50.6	-66.1	3.8	1.49e+00	0	42	104	0	72	21889
2026-01-06 00:54:49.80	234.11	11.18	-50.6	-66.1	3.8	1.49e+00	0	42	104	0	72	21915
2026-01-06 00:54:51.10	234.01	11.07	-50.6	-66.1	3.8	1.49e+00	0	42	104	0	72	21909
2026-01-06 00:54:51.81	233.96	11.01	-50.6	-66.1	3.8	1.49e+00	0	42	104	0	72	21888
2026-01-06 00:54:53.10	233.86	10.90	-50.6	-66.1	3.8	1.49e+00	0	42	104	0	72	21965
2026-01-06 00:54:53.82	233.81	10.84	-50.6	-66.1	3.8	1.49e+00	0	42	104	0	72	21948
2026-01-06 00:54:55.11	233.72	10.74	-50.6	-66.1	3.8	1.49e+00	0	42	104	0	72	21967
2026-01-06 00:54:55.83	233.67	10.68	-50.6	-66.1	3.8	1.49e+00	0	42	104	0	72	21934
2026-01-06 00:54:57.12	233.57	10.57	-50.6	-66.1	3.8	1.49e+00	0	42	104	0	72	21935
2026-01-06 00:54:57.84	233.52	10.51	-50.6	-66.1	3.8	1.49e+00	0	42	104	0	72	21978
2026-01-06 00:54:59.13	233.43	10.40	-50.6	-66.1	3.8	1.49e+00	0	42	104	0	72	21890
2026-01-06 00:54:59.85	233.38	10.35	-50.6	-66.1	3.8	1.49e+00	0	42	104	0	72	21878
2026-01-06 00:55:01.14	233.29	10.24	-50.6	-66.1	3.8	1.49e+00	0	42	104	0	72	21945
2026-01-06 00:55:01.86	233.24	10.18	-50.6	-66.1	3.8	1.49e+00	0	42	104	0	72	21927
2026-01-06 00:55:03.15	233.15	10.08	-50.6	-66.1	3.8	1.49e+00	0	42	104	0	72	21837
2026-01-06 00:55:03.86	233.10	10.02	-50.6	-66.1	3.8	1.49e+00	0	42	104	0	72	21901
2026-01-06 00:55:05.15	233.01	9.92	-50.6	-66.1	3.8	1.49e+00	0	42	104	0	72	21969
2026-01-06 00:55:05.87	232.96	9.86	-50.6	-66.1	3.8	1.49e+00	0	42	104	0	72	21916
2026-01-06 00:55:07.16	232.87	9.75	-50.6	-66.1	3.8	1.49e+00	0	42	104	0	72	21913
2026-01-06 00:55:07.88	232.83	9.70	-50.6	-66.1	3.8	1.49e+00	0	42	104	0	72	21901
2026-01-06 00:55:09.17	232.74	9.59	-50.6	-66.1	3.8	1.49e+00	0	42	104	0	72	21948
2026-01-06 00:55:09.89	232.69	9.54	-50.6	-66.1	3.8	1.49e+00	0	42	104	0	72	22002
2026-01-06 00:55:11.18	232.61	9.43	-50.6	-66.1	3.8	1.49e+00	0	42	104	0	72	21961
2026-01-06 00:55:11.89	232.56	9.38	-50.6	-66.1	3.8	1.49e+00	0	42	104	0	72	21861
2026-01-06 00:55:13.18	232.47	9.28	-50.6	-66.1	3.8	1.49e+00	0	42	104	0	72	21918
2026-01-06 00:55:13.90	232.43	9.22	-50.6	-66.1	3.8	1.49e+00	0	42	104	0	72	21931
2026-01-06 00:55:15.19	232.34	9.12	-50.6	-66.1	3.8	1.49e+00	0	42	104	0	72	21964
2026-01-06 00:55:15.91	232.30	9.06	-50.6	-66.1	3.8	1.49e+00	0	42	104	0	72	21978
2026-01-06 00:55:17.20	232.21	8.96	-50.6	-66.1	3.8	1.49e+00	0	42	104	0	72	21921
2026-01-06 00:55:18.12	232.16	8.89	-50.6	-66.1	3.8	1.49e+00	0	42	104	0	72	21916
2026-01-06 00:55:19.12	232.09	8.81	-50.6	-66.1	3.8	1.49e+00	0	42	104	0	72	21917
2026-01-06 00:55:20.13	232.03	8.73	-50.6	-66.1	3.8	1.49e+00	0	42	104	0	72	21922
2026-01-06 00:55:21.14	231.97	8.66	-50.6	-66.1	3.8	1.49e+00	0	42	104	0	72	22005
2026-01-06 00:55:22.14	231.90	8.58	-50.6	-66.1	3.8	1.49e+00	0	42	104	0	72	21884
2026-01-06 00:55:23.14	231.84	8.50	-50.6	-66.1	3.8	1.49e+00	0	42	104	0	72	21992
2026-01-06 00:55:24.15	231.78	8.43	-50.6	-66.1	3.8	1.49e+00	0	42	104	0	72	21913
2026-01-06 00:55:25.15	231.72	8.35	-50.6	-66.1	3.8	1.49e+00	0	42	104	0	72	21986
2026-01-06 00:55:26.16	231.66	8.27	-50.6	-66.1	3.8	1.49e+00	0	42	104	0	72	21947
2026-01-06 00:55:27.16	231.60	8.20	-50.6	-66.2	3.8	1.49e+00	0	42	104	0	72	22013
2026-01-06 00:55:28.16	231.54	8.12	-50.6	-66.1	3.8	1.49e+00	0	42	104	0	72	21929
2026-01-06 00:55:29.17	231.47	8.04	-50.6	-66.1	3.8	1.49e+00	0	42	104	0	72	21915
2026-01-06 00:55:30.17	231.41	7.97	-50.6	-66.1	3.8	1.49e+00	0	42	104	0	72	21977
2026-01-06 00:55:31.18	231.35	7.89	-50.6	-66.1	3.8	1.49e+00	0	42	104	0	72	21943
2026-01-06 00:55:32.18	231.30	7.82	-50.6	-66.1	3.8	1.49e+00	0	42	104	0	72	21922
2026-01-06 00:55:33.19	231.24	7.74	-50.6	-66.1	3.8	1.49e+00	0	42	104	0	72	21972
2026-01-06 00:55:34.19	231.18	7.67	-50.6	-66.1	3.8	1.49e+00	0	42	104	0	72	21996
2026-01-06 00:55:35.19	231.12	7.59	-50.6	-66.1	3.8	1.49e+00	0	42	104	0	72	21920
2026-01-06 00:55:36.20	231.06	7.52	-50.6	-66.1	3.8	1.49e+00	0	42	104	0	72	22005
2026-01-06 00:55:37.20	231.00	7.44	-50.6	-66.1	3.8	1.49e+00	0	42	104	0	72	21967
2026-01-06 00:55:38.20	230.95	7.37	-50.6	-66.1	3.8	1.49e+00	0	42	104	0	72	21944
2026-01-06 00:55:39.21	230.89	7.30	-50.6	-66.1	3.8	1.49e+00	0	42	104	0	72	21908
2026-01-06 00:55:40.21	230.83	7.22	-50.6	-66.1	3.8	1.49e+00	0	42	104	0	72	21841
2026-01-06 00:55:41.22	230.78	7.15	-50.6	-66.1	3.8	1.49e+00	0	42	104	0	72	21901
2026-01-06 00:55:42.22	230.72	7.08	-50.6	-66.1	3.8	1.49e+00	0	42	104	0	72	21996
2026-01-06 00:55:43.23	230.66	7.00	-50.6	-66.1	3.8	1.49e+00	0	42	104	0	72	21917
2026-01-06 00:55:44.37	230.60	6.92	-50.6	-66.1	3.8	1.49e+00	0	42	104	0	72	21954
2026-01-06 00:55:45.28	230.55	6.85	-50.6	-66.1	3.8	1.49e+00	0	42	104	0	72	21966
2026-01-06 00:55:46.48	230.48	6.77	-50.6	-66.1	3.8	1.49e+00	0	42	104	0	72	21863
2026-01-06 00:55:47.37	230.44	6.70	-50.6	-66.1	3.8	1.49e+00	0	42	104	0	72	21866
2026-01-06 00:55:48.69	230.36	6.61	-50.6	-66.1	3.8	1.49e+00	0	42	104	0	72	21933
2026-01-06 00:55:49.40	230.33	6.56	-50.6	-66.1	3.8	1.49e+00	0	42	104	0	72	21919
2026-01-06 00:55:50.90	230.25	6.45	-50.6	-66.1	3.8	1.49e+00	0	42	104	0	72	21958
2026-01-06 00:55:51.62	230.21	6.40	-50.6	-66.1	3.8	1.49e+00	0	42	104	0	72	21919
2026-01-06 00:55:52.91	230.14	6.30	-50.6	-66.1	3.8	1.49e+00	0	42	104	0	72	21913
2026-01-06 00:55:53.62	230.10	6.25	-50.6	-66.2	3.8	1.49e+00	0	42	104	0	72	22029
2026-01-06 00:55:54.91	230.03	6.16	-50.6	-66.1	3.8	1.49e+00	0	42	104	0	72	21976
2026-01-06 00:55:55.63	230.00	6.11	-50.6	-66.1	3.8	1.49e+00	0	42	104	0	72	21953
2026-01-06 00:55:56.92	229.93	6.02	-50.6	-66.1	3.8	1.49e+00	0	42	104	0	72	21914
2026-01-06 00:55:57.64	229.89	5.97	-50.6	-66.1	3.8	1.49e+00	0	42	104	0	72	21931
2026-01-06 00:55:58.93	229.83	5.88	-50.6	-66.1	3.8	1.49e+00	0	42	104	0	72	21952
2026-01-06 00:55:59.64	229.79	5.83	-50.6	-66.1	3.8	1.49e+00	0	42	104	0	72	21966
2026-01-06 00:56:00.94	229.72	5.74	-50.6	-66.1	3.8	1.49e+00	0	42	104	0	72	21993
2026-01-06 00:56:01.65	229.69	5.69	-50.6	-66.1	3.8	1.49e+00	0	42	104	0	72	21930
2026-01-06 00:56:02.95	229.62	5.60	-50.6	-66.1	3.8	1.49e+00	0	42	104	0	72	21894
2026-01-06 00:56:03.66	229.59	5.55	-50.6	-66.1	3.8	1.49e+00	0	42	104	0	72	21935
2026-01-06 00:56:04.95	229.52	5.46	-50.6	-66.1	3.8	1.49e+00	0	42	104	0	72	21991
2026-01-06 00:56:05.67	229.49	5.41	-50.6	-66.1	3.8	1.49e+00	0	42	104	0	72	21960
2026-01-06 00:56:06.96	229.42	5.32	-50.6	-66.1	3.8	1.49e+00	0	42	104	0	72	21952
2026-01-06 00:56:07.68	229.39	5.27	-50.6	-66.1	3.8	1.49e+00	0	42	104	0	72	21962
2026-01-06 00:56:08.97	229.32	5.18	-50.6	-66.1	3.8	1.49e+00	0	42	104	0	72	21964
2026-01-06 00:56:09.69	229.29	5.13	-50.6	-66.1	3.8	1.49e+00	0	42	104	0	72	21981
2026-01-06 00:56:10.98	229.23	5.05	-50.6	-66.1	3.8	1.49e+00	0	42	104	0	72	21946
2026-01-06 00:56:11.69	229.19	5.00	-50.6	-66.1	3.8	1.49e+00	0	42	104	0	72	21967

#Closed at: 2026-01-06 00:56:12
#Recorded file [0 MB]: D:/Data/31040_260106_034400.dat