passes_logs/2026/01/06/T1/T1__20260106_031155_AQUA_rec.log

#Pass ID: 20260106_031155_AQUA
#Satellite: AQUA
#Configuration: AQUA
#almurnet v.1.7.20251203
#Start time: 2026-01-06 03:11:56

#Version: 2.0.20230620
#Station: T1
#Location: 37.570604 lon 55.790049 lat
#TLE: 1 27424U 02022A   26004.96787593  .00001598  00000+0  32997-3 0  9996
#TLE: 2 27424  98.4069 331.2279 0002002  90.2377   0.6092 14.61798176259425

#Time	Az	El	Level	Level2	SNR	BER	BlckErr	Temp	State	Recorded	gain1	gain2
2026-01-06 03:11:56.93	0.06	5.07	-51.1	-72.1	3.8	7.46e-01	0	36	0	0	72	43623
2026-01-06 03:11:57.92	359.95	5.13	-51.1	-72.1	3.8	7.52e-01	0	36	104	0	72	43614
2026-01-06 03:11:58.93	359.83	5.18	-51.1	-72.1	3.8	7.46e-01	0	37	104	0	72	43607
2026-01-06 03:11:59.93	359.72	5.24	-51.1	-72.1	3.8	7.48e-01	0	37	104	0	72	43616
2026-01-06 03:12:01.03	359.60	5.30	-51.1	-72.1	3.8	7.44e-01	0	37	104	0	72	43629
2026-01-06 03:12:01.89	359.50	5.35	-51.1	-72.1	3.8	7.45e-01	0	37	104	0	72	43613
2026-01-06 03:12:03.04	359.37	5.42	-51.1	-72.1	3.8	7.46e-01	0	37	104	0	72	43523
2026-01-06 03:12:03.90	359.27	5.47	-51.1	-72.1	3.8	7.43e-01	0	37	104	0	72	43711
2026-01-06 03:12:05.05	359.14	5.53	-51.1	-72.1	3.8	7.44e-01	0	37	104	0	72	43681
2026-01-06 03:12:05.91	359.04	5.58	-51.1	-72.1	3.8	7.44e-01	0	37	104	0	72	43586
2026-01-06 03:12:07.06	358.91	5.65	-51.1	-72.1	3.8	7.44e-01	0	37	104	0	72	43600
2026-01-06 03:12:07.92	358.81	5.70	-51.1	-72.1	3.8	7.48e-01	0	37	104	0	72	43662
2026-01-06 03:12:09.07	358.68	5.77	-51.1	-72.1	3.8	7.43e-01	0	37	104	0	72	43737
2026-01-06 03:12:09.92	358.58	5.81	-51.1	-72.1	3.8	7.43e-01	0	37	104	0	72	43638
2026-01-06 03:12:11.07	358.44	5.88	-51.2	-72.1	3.8	7.45e-01	0	37	104	0	72	43673
2026-01-06 03:12:11.93	358.34	5.93	-51.2	-72.1	3.8	7.45e-01	0	37	104	0	72	43696
2026-01-06 03:12:13.08	358.21	6.00	-51.1	-72.1	3.8	7.47e-01	0	37	104	0	72	43620
2026-01-06 03:12:13.94	358.10	6.05	-51.1	-72.1	3.8	7.48e-01	0	37	104	0	72	43579
2026-01-06 03:12:15.09	357.97	6.11	-51.1	-72.1	3.8	7.45e-01	0	37	104	0	72	43573
2026-01-06 03:12:15.95	357.86	6.16	-51.1	-72.1	3.8	7.47e-01	0	37	104	0	72	43686
2026-01-06 03:12:17.10	357.73	6.23	-51.1	-72.1	3.8	7.44e-01	0	37	104	0	72	43619
2026-01-06 03:12:17.96	357.62	6.28	-51.1	-72.1	3.8	7.50e-01	0	37	104	0	72	43636
2026-01-06 03:12:19.10	357.48	6.34	-51.1	-72.1	3.8	7.42e-01	0	37	104	0	72	43618
2026-01-06 03:12:19.97	357.38	6.40	-51.1	-72.1	3.8	7.45e-01	0	37	104	0	72	43665
2026-01-06 03:12:21.11	357.24	6.46	-51.2	-72.1	3.8	7.44e-01	0	37	104	0	72	43623
2026-01-06 03:12:21.97	357.13	6.51	-51.1	-72.1	3.8	7.46e-01	0	37	104	0	72	43723
2026-01-06 03:12:23.12	356.99	6.58	-51.1	-72.1	3.8	7.46e-01	0	37	104	0	72	43655
2026-01-06 03:12:23.99	356.88	6.63	-51.1	-72.1	3.8	7.43e-01	0	37	104	0	72	43662
2026-01-06 03:12:25.13	356.74	6.69	-51.1	-72.1	3.8	7.45e-01	0	38	104	0	72	43674
2026-01-06 03:12:25.99	356.63	6.74	-51.1	-72.1	3.8	7.44e-01	0	37	104	0	72	43592
2026-01-06 03:12:27.14	356.49	6.81	-51.1	-72.1	3.8	7.44e-01	0	37	104	0	72	43568
2026-01-06 03:12:28.00	356.38	6.86	-51.1	-72.1	3.8	7.47e-01	0	38	104	0	72	43577
2026-01-06 03:12:29.15	356.23	6.93	-51.1	-72.1	3.8	7.44e-01	0	37	104	0	72	43571
2026-01-06 03:12:30.01	356.12	6.98	-51.1	-72.1	3.8	7.46e-01	0	38	104	0	72	43630
2026-01-06 03:12:31.16	355.97	7.04	-51.1	-72.1	3.8	7.46e-01	0	38	104	0	72	43533
2026-01-06 03:12:32.02	355.86	7.09	-51.1	-72.1	3.8	7.44e-01	0	38	104	0	72	43544
2026-01-06 03:12:33.17	355.71	7.16	-51.1	-72.1	3.8	7.48e-01	0	38	104	0	72	43593
2026-01-06 03:12:34.03	355.60	7.21	-51.1	-72.1	3.8	7.46e-01	0	38	104	0	72	43562
2026-01-06 03:12:35.18	355.45	7.28	-51.1	-72.1	3.8	7.43e-01	0	38	104	0	72	43572
2026-01-06 03:12:36.04	355.34	7.33	-51.1	-72.1	3.8	7.45e-01	0	38	104	0	72	43608
2026-01-06 03:12:37.18	355.19	7.40	-51.1	-72.1	3.8	7.45e-01	0	38	104	0	72	43654
2026-01-06 03:12:38.04	355.08	7.45	-51.1	-72.1	3.8	7.46e-01	0	38	104	0	72	43656
2026-01-06 03:12:39.19	354.92	7.51	-51.2	-72.1	3.8	7.46e-01	0	38	104	0	72	43650
2026-01-06 03:12:40.45	354.75	7.59	-51.1	-72.1	3.8	7.45e-01	0	38	104	0	72	43604
2026-01-06 03:12:41.35	354.63	7.64	-51.1	-72.1	3.8	7.47e-01	0	38	104	0	72	43613
2026-01-06 03:12:42.38	354.50	7.70	-51.1	-72.1	3.8	7.48e-01	0	38	104	0	72	43615
2026-01-06 03:12:43.38	354.36	7.76	-51.1	-72.1	3.8	7.43e-01	0	38	104	0	72	43586
2026-01-06 03:12:44.39	354.22	7.82	-51.1	-72.1	3.8	7.48e-01	0	38	104	0	72	43671
2026-01-06 03:12:45.39	354.09	7.87	-51.1	-72.1	3.8	7.44e-01	0	38	104	0	72	43561
2026-01-06 03:12:46.39	353.95	7.93	-51.2	-72.1	3.8	7.47e-01	0	38	104	0	72	43612
2026-01-06 03:12:47.40	353.81	7.99	-51.1	-72.1	3.8	7.47e-01	0	38	104	0	72	43543
2026-01-06 03:12:48.40	353.67	8.05	-51.1	-72.1	3.8	7.46e-01	0	38	104	0	72	43629
2026-01-06 03:12:49.41	353.53	8.11	-51.1	-72.1	3.8	7.47e-01	0	38	104	0	72	43602
2026-01-06 03:12:50.48	353.38	8.17	-51.1	-72.1	3.8	7.43e-01	0	38	104	0	72	43574
2026-01-06 03:12:51.37	353.26	8.22	-51.1	-72.1	3.8	7.49e-01	0	38	104	0	72	43694
2026-01-06 03:12:52.51	353.09	8.29	-51.2	-72.1	3.8	7.47e-01	0	38	104	0	72	43670
2026-01-06 03:12:53.43	352.96	8.34	-51.1	-72.1	3.8	7.45e-01	0	38	104	0	72	43604
2026-01-06 03:12:54.60	352.80	8.41	-51.1	-72.1	3.8	7.45e-01	0	38	104	0	72	43663
2026-01-06 03:12:55.46	352.67	8.46	-51.2	-72.1	3.8	7.45e-01	0	38	104	0	72	43709
2026-01-06 03:12:56.61	352.51	8.53	-51.1	-72.1	3.8	7.46e-01	0	38	104	0	72	43544
2026-01-06 03:12:57.47	352.39	8.58	-51.2	-72.1	3.8	7.47e-01	0	38	104	0	72	43612
2026-01-06 03:12:58.61	352.22	8.64	-51.2	-72.1	3.8	7.45e-01	0	38	104	0	72	43656
2026-01-06 03:12:59.48	352.09	8.70	-51.2	-72.1	3.8	7.48e-01	0	38	104	0	72	43657
2026-01-06 03:13:00.62	351.93	8.76	-51.1	-72.1	3.8	7.46e-01	0	38	104	0	72	43583
2026-01-06 03:13:01.48	351.80	8.81	-51.2	-72.1	3.8	7.47e-01	0	38	104	0	72	43661
2026-01-06 03:13:02.63	351.63	8.88	-51.2	-72.1	3.8	7.47e-01	0	38	104	0	72	43661
2026-01-06 03:13:03.49	351.50	8.93	-51.1	-72.1	3.8	7.47e-01	0	38	104	0	72	43641
2026-01-06 03:13:04.64	351.33	9.00	-51.2	-72.1	3.8	7.46e-01	0	38	104	0	72	43694
2026-01-06 03:13:05.50	351.20	9.05	-51.1	-72.1	3.8	7.44e-01	0	38	104	0	72	43520
2026-01-06 03:13:06.65	351.03	9.11	-51.2	-72.1	3.8	7.45e-01	0	38	104	0	72	43634
2026-01-06 03:13:07.51	350.90	9.16	-51.2	-72.1	3.8	7.49e-01	0	38	104	0	72	43672
2026-01-06 03:13:08.66	350.73	9.23	-51.1	-72.1	3.8	7.44e-01	0	38	104	0	72	43685
2026-01-06 03:13:09.52	350.60	9.28	-51.2	-72.1	3.8	7.46e-01	0	38	104	0	72	43705
2026-01-06 03:13:10.67	350.42	9.35	-51.2	-72.1	3.8	7.48e-01	0	38	104	0	72	43630
2026-01-06 03:13:11.53	350.29	9.40	-51.1	-72.1	3.8	7.46e-01	0	38	104	0	72	43529
2026-01-06 03:13:12.67	350.11	9.46	-51.2	-72.1	3.8	7.47e-01	0	38	104	0	72	43637
2026-01-06 03:13:13.53	349.98	9.51	-51.2	-72.1	3.8	7.48e-01	0	38	104	0	72	43681
2026-01-06 03:13:14.68	349.80	9.58	-51.2	-72.1	3.8	7.50e-01	0	38	104	0	72	43740
2026-01-06 03:13:15.54	349.67	9.63	-51.1	-72.1	3.8	7.48e-01	0	38	104	0	72	43718
2026-01-06 03:13:16.69	349.48	9.69	-51.2	-72.1	3.8	7.41e-01	0	39	104	0	72	43661
2026-01-06 03:13:17.55	349.35	9.74	-51.2	-72.1	3.8	7.48e-01	0	38	104	0	72	43657
2026-01-06 03:13:18.78	349.15	9.81	-51.1	-72.1	3.8	7.46e-01	0	38	104	0	72	43646
2026-01-06 03:13:19.64	349.02	9.86	-51.1	-72.1	3.8	7.43e-01	0	38	104	0	72	43611
2026-01-06 03:13:20.79	348.83	9.93	-51.2	-72.1	3.8	7.48e-01	0	38	104	0	72	43690
2026-01-06 03:13:21.65	348.70	9.98	-51.2	-72.1	3.8	7.44e-01	0	39	104	0	72	43652
2026-01-06 03:13:22.80	348.51	10.05	-51.2	-72.1	3.8	7.45e-01	0	39	104	0	72	43708
2026-01-06 03:13:23.66	348.37	10.10	-51.1	-72.1	3.8	7.47e-01	0	38	104	0	72	43702
2026-01-06 03:13:24.80	348.19	10.16	-51.2	-72.1	3.8	7.46e-01	0	38	104	0	72	43650
2026-01-06 03:13:25.66	348.05	10.21	-51.2	-72.1	3.8	7.45e-01	0	38	104	0	73	41207
2026-01-06 03:13:26.81	347.86	10.28	-51.2	-72.1	3.8	7.47e-01	0	38	104	0	73	41204
2026-01-06 03:13:27.67	347.71	10.32	-51.2	-72.1	3.8	7.47e-01	0	38	104	0	73	41232
2026-01-06 03:13:28.82	347.52	10.39	-51.2	-72.1	3.8	7.46e-01	0	39	104	0	73	41141
2026-01-06 03:13:29.68	347.38	10.44	-51.2	-72.1	3.8	7.47e-01	0	38	104	0	73	41252
2026-01-06 03:13:30.83	347.19	10.50	-51.2	-72.1	3.8	7.48e-01	0	39	104	0	73	41215
2026-01-06 03:13:31.69	347.05	10.55	-51.2	-72.1	3.8	7.45e-01	0	38	104	0	73	41205
2026-01-06 03:13:32.84	346.85	10.62	-51.2	-72.1	3.8	7.41e-01	0	38	104	0	73	41270
2026-01-06 03:13:33.70	346.71	10.67	-51.2	-72.1	3.8	7.46e-01	0	38	104	0	73	41207
2026-01-06 03:13:34.84	346.51	10.73	-51.2	-72.1	3.8	7.49e-01	0	39	104	0	73	41204
2026-01-06 03:13:35.71	346.36	10.78	-51.2	-72.1	3.8	7.45e-01	0	38	104	0	73	41250
2026-01-06 03:13:36.85	346.17	10.85	-51.2	-72.1	3.8	7.45e-01	0	39	104	0	73	41190
2026-01-06 03:13:37.71	346.02	10.89	-51.1	-72.1	3.8	7.47e-01	0	39	104	0	73	41275
2026-01-06 03:13:38.86	345.82	10.96	-51.1	-72.1	3.8	7.48e-01	0	38	104	0	73	41236
2026-01-06 03:13:39.72	345.67	11.01	-51.2	-72.1	3.8	7.44e-01	0	38	104	0	73	41225
2026-01-06 03:13:40.87	345.47	11.07	-51.2	-72.1	3.8	7.45e-01	0	39	104	0	73	41212
2026-01-06 03:13:41.73	345.32	11.12	-51.1	-72.1	3.8	7.48e-01	0	38	104	0	73	41195
2026-01-06 03:13:42.88	345.12	11.18	-51.2	-72.1	3.8	7.50e-01	0	39	104	0	73	41278
2026-01-06 03:13:43.74	344.97	11.23	-51.2	-72.1	3.8	7.46e-01	0	39	104	0	73	41244
2026-01-06 03:13:44.89	344.77	11.30	-51.2	-72.1	3.8	7.49e-01	0	38	104	0	73	41311
2026-01-06 03:13:45.75	344.61	11.34	-51.2	-72.1	3.8	7.46e-01	0	39	104	0	73	41264
2026-01-06 03:13:46.90	344.41	11.41	-51.2	-72.1	3.8	7.47e-01	0	38	104	0	73	41220
2026-01-06 03:13:47.76	344.25	11.45	-51.2	-72.1	3.8	7.48e-01	0	39	104	0	73	41265
2026-01-06 03:13:48.90	344.05	11.52	-51.2	-72.1	3.8	7.44e-01	0	39	104	0	73	41249
2026-01-06 03:13:49.76	343.89	11.56	-51.2	-72.1	3.8	7.43e-01	0	39	104	0	73	41301
2026-01-06 03:13:50.91	343.68	11.63	-51.2	-72.1	3.8	7.45e-01	0	39	104	0	73	41265
2026-01-06 03:13:51.77	343.53	11.67	-51.2	-72.1	3.8	7.49e-01	0	39	104	0	73	41230
2026-01-06 03:13:52.92	343.32	11.74	-51.2	-72.1	3.8	7.50e-01	0	39	104	0	73	41216
2026-01-06 03:13:53.78	343.16	11.78	-51.2	-72.1	3.8	7.48e-01	0	39	104	0	73	41242
2026-01-06 03:13:54.93	342.95	11.85	-51.2	-72.1	3.8	7.49e-01	0	39	104	0	73	41210
2026-01-06 03:13:55.79	342.79	11.89	-51.2	-72.1	3.8	7.46e-01	0	39	104	0	73	41308
2026-01-06 03:13:56.94	342.57	11.96	-51.2	-72.1	3.8	7.46e-01	0	39	104	0	73	41255
2026-01-06 03:13:57.79	342.41	12.00	-51.2	-72.1	3.8	7.47e-01	0	38	104	0	73	41231
2026-01-06 03:13:58.94	342.20	12.06	-51.2	-72.1	3.8	7.46e-01	0	39	104	0	73	41266
2026-01-06 03:13:59.80	342.04	12.11	-51.2	-72.1	3.8	7.46e-01	0	38	104	0	73	41211
2026-01-06 03:14:00.95	341.82	12.17	-51.2	-72.1	3.8	7.45e-01	0	39	104	0	73	41220
2026-01-06 03:14:01.81	341.65	12.22	-51.2	-72.1	3.8	7.43e-01	0	38	104	0	73	41292
2026-01-06 03:14:02.96	341.44	12.28	-51.2	-72.1	3.8	7.47e-01	0	39	104	0	73	41163
2026-01-06 03:14:03.82	341.27	12.32	-51.2	-72.1	3.8	7.45e-01	0	39	104	0	73	41236
2026-01-06 03:14:04.97	341.05	12.38	-51.2	-72.1	3.8	7.44e-01	0	39	104	0	73	41285
2026-01-06 03:14:05.83	340.88	12.43	-51.2	-72.1	3.8	7.44e-01	0	39	104	0	73	41258
2026-01-06 03:14:06.97	340.66	12.49	-51.2	-72.1	3.8	7.46e-01	0	39	104	0	73	41307
2026-01-06 03:14:07.84	340.49	12.53	-51.2	-72.1	3.8	7.46e-01	0	39	104	0	73	41332
2026-01-06 03:14:08.98	340.27	12.59	-51.2	-72.1	3.8	7.46e-01	0	39	104	0	73	41282
2026-01-06 03:14:09.84	340.10	12.64	-51.2	-72.1	3.8	7.47e-01	0	39	104	0	73	41297
2026-01-06 03:14:10.99	339.88	12.70	-51.2	-72.1	3.8	7.46e-01	0	39	104	0	73	41331
2026-01-06 03:14:11.85	339.71	12.74	-51.2	-72.1	3.8	7.47e-01	0	39	104	0	73	41375
2026-01-06 03:14:13.00	339.48	12.80	-51.2	-72.1	3.8	7.42e-01	0	39	104	0	73	41264
2026-01-06 03:14:13.86	339.31	12.84	-51.2	-72.1	3.8	7.44e-01	0	39	104	0	73	41331
2026-01-06 03:14:15.01	339.08	12.90	-51.2	-72.1	3.8	7.47e-01	0	39	104	0	73	41241
2026-01-06 03:14:15.87	338.91	12.95	-51.2	-72.1	3.8	7.44e-01	0	39	104	0	73	41298
2026-01-06 03:14:17.02	338.67	13.00	-51.2	-72.1	3.8	7.45e-01	0	39	104	0	73	41247
2026-01-06 03:14:17.88	338.50	13.05	-51.2	-72.1	3.8	7.46e-01	0	39	104	0	73	41258
2026-01-06 03:14:19.02	338.27	13.11	-51.2	-72.1	3.8	7.48e-01	0	39	104	0	73	41284
2026-01-06 03:14:19.88	338.09	13.15	-51.2	-72.1	3.8	7.49e-01	0	39	104	0	73	41239
2026-01-06 03:14:21.03	337.86	13.20	-51.2	-72.1	3.8	7.44e-01	0	39	104	0	73	41326
2026-01-06 03:14:21.89	337.68	13.25	-51.2	-72.1	3.8	7.45e-01	0	39	104	0	73	41289
2026-01-06 03:14:23.04	337.45	13.30	-51.2	-72.1	3.8	7.44e-01	0	39	104	0	73	41306
2026-01-06 03:14:23.90	337.27	13.35	-51.2	-72.1	3.8	7.45e-01	0	39	104	0	73	41306
2026-01-06 03:14:25.05	337.03	13.40	-51.2	-72.1	3.8	7.47e-01	0	39	104	0	73	41327
2026-01-06 03:14:25.91	336.85	13.44	-51.2	-72.1	3.8	7.45e-01	0	39	104	0	73	41202
2026-01-06 03:14:27.06	336.61	13.50	-51.2	-72.1	3.8	7.46e-01	0	39	104	0	73	41333
2026-01-06 03:14:27.92	336.43	13.54	-51.2	-72.1	3.8	7.46e-01	0	39	104	0	73	41296
2026-01-06 03:14:29.07	336.19	13.59	-51.2	-72.1	3.8	7.47e-01	0	39	104	0	73	41368
2026-01-06 03:14:29.93	336.01	13.64	-51.2	-72.1	3.8	7.47e-01	0	39	104	0	73	41343
2026-01-06 03:14:31.07	335.77	13.69	-51.2	-72.1	3.8	7.46e-01	0	39	104	0	73	41255
2026-01-06 03:14:31.94	335.58	13.73	-51.2	-72.1	3.8	7.44e-01	0	39	104	0	73	41314
2026-01-06 03:14:33.08	335.34	13.78	-51.2	-72.1	3.8	7.44e-01	0	39	104	0	73	41339
2026-01-06 03:14:33.94	335.16	13.82	-51.2	-72.1	3.8	7.46e-01	0	39	104	0	73	41401
2026-01-06 03:14:35.09	334.91	13.88	-51.2	-72.1	3.8	7.45e-01	0	39	104	0	73	41321
2026-01-06 03:14:35.95	334.72	13.91	-51.2	-72.1	3.8	7.44e-01	0	39	104	0	73	41358
2026-01-06 03:14:37.10	334.48	13.97	-51.2	-72.1	3.8	7.45e-01	0	39	104	0	73	41302
2026-01-06 03:14:37.96	334.29	14.01	-51.2	-72.1	3.8	7.41e-01	0	39	104	0	73	41344
2026-01-06 03:14:39.11	334.04	14.06	-51.2	-72.1	3.8	7.43e-01	0	39	104	0	73	41379
2026-01-06 03:14:39.97	333.85	14.10	-51.2	-72.1	3.8	7.48e-01	0	39	104	0	73	41440
2026-01-06 03:14:41.12	333.60	14.15	-51.2	-72.1	3.8	7.47e-01	0	39	104	0	73	41367
2026-01-06 03:14:41.98	333.41	14.18	-51.2	-72.1	3.8	7.45e-01	0	39	104	0	73	41327
2026-01-06 03:14:43.13	333.16	14.23	-51.2	-72.1	3.8	7.45e-01	0	39	104	0	73	41369
2026-01-06 03:14:43.99	332.97	14.27	-51.2	-72.1	3.8	7.46e-01	0	39	104	0	73	41421
2026-01-06 03:14:45.14	332.71	14.32	-51.2	-72.1	3.8	7.46e-01	0	39	104	0	73	41329
2026-01-06 03:14:45.99	332.52	14.36	-51.2	-72.1	3.8	7.43e-01	0	39	104	0	73	41316
2026-01-06 03:14:47.14	332.27	14.41	-51.2	-72.1	3.8	7.46e-01	0	39	104	0	73	41360
2026-01-06 03:14:48.00	332.07	14.44	-51.2	-72.1	3.8	7.47e-01	0	39	104	0	73	41363
2026-01-06 03:14:49.15	331.82	14.49	-51.2	-72.1	3.8	7.46e-01	0	39	104	0	73	41396
2026-01-06 03:14:50.01	331.62	14.53	-51.2	-72.1	3.8	7.47e-01	0	39	104	0	73	41379
2026-01-06 03:14:51.16	331.36	14.57	-51.2	-72.1	3.8	7.48e-01	0	39	104	0	73	41413
2026-01-06 03:14:52.02	331.17	14.61	-51.2	-72.1	3.8	7.47e-01	0	39	104	0	73	41427
2026-01-06 03:14:53.17	330.91	14.65	-51.2	-72.1	3.8	7.44e-01	0	39	104	0	73	41332
2026-01-06 03:14:54.03	330.71	14.69	-51.2	-72.1	3.8	7.45e-01	0	39	104	0	73	41325
2026-01-06 03:14:55.17	330.45	14.73	-51.2	-72.1	3.8	7.48e-01	0	39	104	0	73	41363
2026-01-06 03:14:56.03	330.25	14.77	-51.2	-72.1	3.8	7.46e-01	0	39	104	0	73	41362
2026-01-06 03:14:57.18	329.99	14.81	-51.2	-72.1	3.8	7.47e-01	0	39	104	0	73	41405
2026-01-06 03:14:58.04	329.79	14.84	-51.2	-72.1	3.8	7.45e-01	0	39	104	0	73	41406
2026-01-06 03:14:59.19	329.52	14.89	-51.2	-72.1	3.8	7.45e-01	0	39	104	0	73	41391
2026-01-06 03:15:00.05	329.32	14.92	-51.2	-72.1	3.8	7.47e-01	0	39	104	0	73	41432
2026-01-06 03:15:01.19	329.06	14.96	-51.2	-72.1	3.8	7.44e-01	0	39	104	0	73	41324
2026-01-06 03:15:02.05	328.86	14.99	-51.2	-72.1	3.8	7.48e-01	0	39	104	0	73	41338
2026-01-06 03:15:03.20	328.59	15.04	-51.2	-72.1	3.8	7.48e-01	0	39	104	0	73	41413
2026-01-06 03:15:04.06	328.39	15.07	-51.2	-72.1	3.8	7.43e-01	0	39	104	0	73	41424
2026-01-06 03:15:05.21	328.12	15.11	-51.2	-72.1	3.8	7.46e-01	0	39	104	0	73	41361
2026-01-06 03:15:06.07	327.91	15.14	-51.2	-72.1	3.8	7.49e-01	0	39	104	0	73	41344
2026-01-06 03:15:07.22	327.64	15.18	-51.2	-72.1	3.8	7.46e-01	0	39	104	0	73	41372
2026-01-06 03:15:08.08	327.44	15.21	-51.2	-72.1	3.8	7.46e-01	0	39	104	0	73	41411
2026-01-06 03:15:09.23	327.17	15.25	-51.2	-72.1	3.8	7.48e-01	0	39	104	0	73	41353
2026-01-06 03:15:10.09	326.96	15.28	-51.2	-72.1	3.8	7.45e-01	0	39	104	0	73	41391
2026-01-06 03:15:11.23	326.69	15.32	-51.2	-72.1	3.8	7.48e-01	0	39	104	0	73	41346
2026-01-06 03:15:12.10	326.48	15.34	-51.2	-72.1	3.8	7.42e-01	0	39	104	0	73	41353
2026-01-06 03:15:13.24	326.21	15.38	-51.2	-72.1	3.8	7.46e-01	0	39	104	0	73	41434
2026-01-06 03:15:14.10	326.00	15.41	-51.2	-72.1	3.8	7.45e-01	0	39	104	0	73	41356
2026-01-06 03:15:15.25	325.72	15.44	-51.2	-72.1	3.8	7.51e-01	0	39	104	0	73	41400
2026-01-06 03:15:16.11	325.52	15.47	-51.2	-72.1	3.8	7.46e-01	0	39	104	0	73	41356
2026-01-06 03:15:17.26	325.24	15.51	-51.2	-72.1	3.8	7.46e-01	0	39	104	0	73	41412
2026-01-06 03:15:18.17	325.02	15.53	-51.2	-72.1	3.8	7.48e-01	0	39	104	0	73	41426
2026-01-06 03:15:19.17	324.77	15.56	-51.2	-72.2	3.8	7.47e-01	0	39	104	0	73	41530
2026-01-06 03:15:20.17	324.53	15.59	-51.2	-72.1	3.8	7.46e-01	0	39	104	0	73	41418
2026-01-06 03:15:21.18	324.28	15.62	-51.2	-72.1	3.8	7.48e-01	0	39	104	0	73	41416
2026-01-06 03:15:22.18	324.04	15.65	-51.2	-72.1	3.8	7.43e-01	0	39	104	0	73	41436
2026-01-06 03:15:23.19	323.79	15.68	-51.2	-72.2	3.8	7.46e-01	0	39	104	0	73	41511
2026-01-06 03:15:24.19	323.55	15.71	-51.2	-72.1	3.8	7.47e-01	0	39	104	0	73	41398
2026-01-06 03:15:25.19	323.30	15.73	-51.2	-72.1	3.8	7.43e-01	0	39	104	0	73	41406
2026-01-06 03:15:26.20	323.05	15.76	-51.2	-72.1	3.8	7.45e-01	0	39	104	0	73	41333
2026-01-06 03:15:27.20	322.81	15.79	-51.2	-72.1	3.8	7.48e-01	0	39	104	0	73	41392
2026-01-06 03:15:28.21	322.56	15.81	-51.2	-72.1	3.8	7.48e-01	0	39	104	0	73	41436
2026-01-06 03:15:29.21	322.31	15.84	-51.2	-72.1	3.8	7.47e-01	0	39	104	0	73	41448
2026-01-06 03:15:30.22	322.06	15.86	-51.2	-72.1	3.8	7.49e-01	0	39	104	0	73	41449
2026-01-06 03:15:31.22	321.81	15.88	-51.2	-72.1	3.8	7.45e-01	0	39	104	0	73	41413
2026-01-06 03:15:32.22	321.56	15.91	-51.2	-72.1	3.8	7.47e-01	0	39	104	0	73	41431
2026-01-06 03:15:33.23	321.31	15.93	-51.2	-72.1	3.8	7.48e-01	0	39	104	0	73	41446
2026-01-06 03:15:34.23	321.06	15.95	-51.2	-72.2	3.8	7.46e-01	0	39	104	0	73	41528
2026-01-06 03:15:35.23	320.81	15.98	-51.2	-72.2	3.8	7.45e-01	0	39	104	0	73	41485
2026-01-06 03:15:36.24	320.55	16.00	-51.2	-72.1	3.8	7.48e-01	0	39	104	0	73	41384
2026-01-06 03:15:37.24	320.30	16.02	-51.2	-72.1	3.8	7.47e-01	0	39	104	0	73	41398
2026-01-06 03:15:38.25	320.05	16.04	-51.2	-72.2	3.8	7.43e-01	0	39	104	0	73	41529
2026-01-06 03:15:39.25	319.79	16.06	-51.2	-72.2	3.8	7.47e-01	0	39	104	0	73	41467
2026-01-06 03:15:40.25	319.54	16.08	-51.2	-72.2	3.8	7.46e-01	0	39	104	0	73	41463
2026-01-06 03:15:41.26	319.29	16.10	-51.2	-72.2	3.8	7.47e-01	0	39	104	0	73	41488
2026-01-06 03:15:42.26	319.03	16.12	-51.2	-72.2	3.8	7.44e-01	0	39	104	0	73	41472
2026-01-06 03:15:43.30	318.77	16.14	-51.2	-72.1	3.8	7.47e-01	0	39	104	0	73	41416
2026-01-06 03:15:44.35	318.50	16.15	-51.2	-72.1	3.8	7.45e-01	0	39	104	0	73	41425
2026-01-06 03:15:45.28	318.27	16.17	-51.2	-72.2	3.8	7.48e-01	0	39	104	0	73	41469
2026-01-06 03:15:46.42	317.98	16.19	-51.2	-72.2	3.8	7.46e-01	0	39	104	0	73	41504
2026-01-06 03:15:47.31	317.75	16.20	-51.2	-72.1	3.8	7.45e-01	0	39	104	0	73	41448
2026-01-06 03:15:48.31	317.50	16.22	-51.2	-72.2	3.8	7.44e-01	0	39	104	0	73	41473
2026-01-06 03:15:49.32	317.24	16.23	-51.2	-72.1	3.8	7.42e-01	0	39	104	0	73	41426
2026-01-06 03:15:50.32	316.98	16.25	-51.2	-72.2	3.8	7.48e-01	0	39	104	0	73	41474
2026-01-06 03:15:51.33	316.72	16.26	-51.2	-72.1	3.8	7.43e-01	0	39	104	0	73	41425
2026-01-06 03:15:52.33	316.47	16.27	-51.2	-72.1	3.8	7.45e-01	0	39	104	0	73	41400
2026-01-06 03:15:53.33	316.21	16.29	-51.2	-72.1	3.8	7.42e-01	0	39	104	0	73	41430
2026-01-06 03:15:54.34	315.95	16.30	-51.2	-72.2	3.8	7.43e-01	0	39	104	0	73	41499
2026-01-06 03:15:55.34	315.70	16.31	-51.2	-72.1	3.8	7.47e-01	0	39	104	0	73	41446
2026-01-06 03:15:56.35	315.44	16.32	-51.2	-72.2	3.8	7.47e-01	0	39	104	0	73	41480
2026-01-06 03:15:57.35	315.18	16.33	-51.2	-72.2	3.8	7.45e-01	0	39	104	0	73	41493
2026-01-06 03:15:58.35	314.92	16.34	-51.2	-72.2	3.8	7.44e-01	0	39	104	0	73	41458
2026-01-06 03:15:59.36	314.66	16.35	-51.2	-72.1	3.8	7.51e-01	0	39	104	0	73	41414
2026-01-06 03:16:00.36	314.40	16.36	-51.2	-72.2	3.8	7.45e-01	0	39	104	0	73	41534
2026-01-06 03:16:01.36	314.15	16.37	-51.2	-72.1	3.8	7.44e-01	0	39	104	0	73	41410
2026-01-06 03:16:02.37	313.89	16.37	-51.2	-72.2	3.8	7.45e-01	0	39	104	0	73	41477
2026-01-06 03:16:03.37	313.63	16.38	-51.2	-72.1	3.8	7.48e-01	0	39	104	0	73	41441
2026-01-06 03:16:04.38	313.37	16.39	-51.2	-72.2	3.8	7.47e-01	0	39	104	0	73	41540
2026-01-06 03:16:05.38	313.11	16.39	-51.2	-72.2	3.8	7.45e-01	0	39	104	0	73	41459
2026-01-06 03:16:06.39	312.85	16.40	-51.2	-72.2	3.8	7.45e-01	0	39	104	0	73	41518
2026-01-06 03:16:07.39	312.59	16.40	-51.2	-72.2	3.8	7.42e-01	0	39	104	0	73	41516
2026-01-06 03:16:08.39	312.33	16.41	-51.2	-72.2	3.8	7.44e-01	0	39	104	0	73	41528
2026-01-06 03:16:09.40	312.07	16.41	-51.2	-72.2	3.8	7.47e-01	0	39	104	0	73	41509
2026-01-06 03:16:10.40	311.81	16.41	-51.2	-72.2	3.8	7.44e-01	0	39	104	0	73	41538
2026-01-06 03:16:11.40	311.55	16.42	-51.2	-72.1	3.8	7.43e-01	0	39	104	0	73	41444
2026-01-06 03:16:12.41	311.29	16.42	-51.2	-72.2	3.8	7.45e-01	0	39	104	0	73	41479
2026-01-06 03:16:13.47	311.02	16.42	-51.2	-72.2	3.8	7.45e-01	0	39	104	0	73	41475
2026-01-06 03:16:14.37	310.78	16.42	-51.2	-72.1	3.8	7.43e-01	0	39	104	0	73	41414
2026-01-06 03:16:15.56	310.47	16.42	-51.2	-72.1	3.8	7.48e-01	0	39	104	0	73	41454
2026-01-06 03:16:16.44	310.25	16.42	-51.2	-72.2	3.8	7.44e-01	0	39	104	0	73	41461
2026-01-06 03:16:17.76	309.90	16.42	-51.2	-72.2	3.8	7.46e-01	0	39	104	0	73	41609
2026-01-06 03:16:18.48	309.72	16.42	-51.2	-72.1	3.8	7.45e-01	0	39	104	0	73	41444
2026-01-06 03:16:19.77	309.38	16.41	-51.2	-72.1	3.8	7.46e-01	0	39	104	0	73	41437
2026-01-06 03:16:20.49	309.20	16.41	-51.2	-72.2	3.8	7.46e-01	0	39	104	0	73	41491
2026-01-06 03:16:21.78	308.86	16.41	-51.2	-72.1	3.8	7.47e-01	0	39	104	0	73	41430
2026-01-06 03:16:22.49	308.68	16.41	-51.2	-72.2	3.8	7.47e-01	0	39	104	0	73	41515
2026-01-06 03:16:23.79	308.34	16.40	-51.2	-72.1	3.8	7.46e-01	0	39	104	0	73	41435
2026-01-06 03:16:24.50	308.16	16.40	-51.2	-72.1	3.8	7.46e-01	0	39	104	0	73	41430
2026-01-06 03:16:25.79	307.83	16.39	-51.2	-72.2	3.8	7.47e-01	0	39	104	0	73	41487
2026-01-06 03:16:26.51	307.64	16.38	-51.2	-72.2	3.8	7.46e-01	0	39	104	0	73	41458
2026-01-06 03:16:27.80	307.31	16.38	-51.2	-72.2	3.8	7.45e-01	0	39	104	0	73	41455
2026-01-06 03:16:28.52	307.12	16.37	-51.2	-72.2	3.8	7.46e-01	0	39	104	0	73	41522
2026-01-06 03:16:29.81	306.79	16.36	-51.2	-72.2	3.8	7.48e-01	0	39	104	0	73	41483
2026-01-06 03:16:30.53	306.60	16.35	-51.2	-72.2	3.8	7.45e-01	0	39	104	0	73	41517
2026-01-06 03:16:31.82	306.27	16.34	-51.2	-72.2	3.8	7.49e-01	0	39	104	0	73	41478
2026-01-06 03:16:32.53	306.09	16.34	-51.2	-72.2	3.8	7.46e-01	0	39	104	0	73	41470
2026-01-06 03:16:33.82	305.75	16.32	-51.2	-72.1	3.8	7.46e-01	0	39	104	0	73	41444
2026-01-06 03:16:34.54	305.57	16.32	-51.2	-72.1	3.8	7.47e-01	0	39	104	0	73	41428
2026-01-06 03:16:35.83	305.24	16.30	-51.2	-72.2	3.8	7.49e-01	0	39	104	0	73	41463
2026-01-06 03:16:36.55	305.05	16.29	-51.2	-72.2	3.8	7.46e-01	0	39	104	0	73	41518
2026-01-06 03:16:37.84	304.72	16.28	-51.2	-72.1	3.8	7.45e-01	0	39	104	0	73	41399
2026-01-06 03:16:38.56	304.54	16.27	-51.2	-72.1	3.8	7.48e-01	0	39	104	0	73	41391
2026-01-06 03:16:39.85	304.21	16.25	-51.2	-72.2	3.8	7.44e-01	0	39	104	0	73	41510
2026-01-06 03:16:40.57	304.02	16.24	-51.2	-72.2	3.8	7.49e-01	0	39	104	0	73	41487
2026-01-06 03:16:41.86	303.69	16.22	-51.2	-72.2	3.8	7.43e-01	0	39	104	0	73	41485
2026-01-06 03:16:42.57	303.51	16.21	-51.2	-72.1	3.8	7.46e-01	0	39	104	0	73	41442
2026-01-06 03:16:43.86	303.18	16.19	-51.2	-72.2	3.8	7.43e-01	0	39	104	0	73	41507
2026-01-06 03:16:44.58	303.00	16.18	-51.2	-72.2	3.8	7.48e-01	0	39	104	0	73	41466
2026-01-06 03:16:45.87	302.67	16.16	-51.2	-72.1	3.8	7.45e-01	0	39	104	0	73	41357
2026-01-06 03:16:46.59	302.49	16.15	-51.2	-72.1	3.8	7.47e-01	0	39	104	0	73	41416
2026-01-06 03:16:47.86	302.16	16.12	-51.2	-72.2	3.8	7.47e-01	0	39	104	0	73	41456
2026-01-06 03:16:48.58	301.98	16.11	-51.2	-72.2	3.8	7.45e-01	0	39	104	0	73	41457
2026-01-06 03:16:49.87	301.66	16.09	-51.2	-72.1	3.8	7.46e-01	0	39	104	0	73	41452
2026-01-06 03:16:50.59	301.47	16.07	-51.2	-72.1	3.8	7.47e-01	0	39	104	0	73	41445
2026-01-06 03:16:51.88	301.15	16.05	-51.2	-72.1	3.8	7.45e-01	0	39	104	0	73	41451
2026-01-06 03:16:52.60	300.97	16.03	-51.2	-72.2	3.8	7.46e-01	0	39	104	0	73	41488
2026-01-06 03:16:53.89	300.64	16.01	-51.2	-72.1	3.8	7.48e-01	0	39	104	0	73	41397
2026-01-06 03:16:54.61	300.46	15.99	-51.2	-72.1	3.8	7.47e-01	0	39	104	0	73	41433
2026-01-06 03:16:55.90	300.14	15.96	-51.2	-72.1	3.8	7.45e-01	0	39	104	0	73	41408
2026-01-06 03:16:56.62	299.95	15.95	-51.2	-72.2	3.8	7.47e-01	0	39	104	0	73	41480
2026-01-06 03:16:57.91	299.63	15.92	-51.2	-72.2	3.8	7.46e-01	0	39	104	0	73	41471
2026-01-06 03:16:58.62	299.45	15.90	-51.2	-72.2	3.8	7.48e-01	0	39	104	0	73	41518
2026-01-06 03:16:59.92	299.13	15.87	-51.2	-72.1	3.8	7.46e-01	0	39	104	0	73	41428
2026-01-06 03:17:00.63	298.95	15.85	-51.2	-72.1	3.8	7.47e-01	0	39	104	0	73	41402
2026-01-06 03:17:01.92	298.63	15.82	-51.2	-72.1	3.8	7.44e-01	0	39	104	0	73	41445
2026-01-06 03:17:02.64	298.45	15.80	-51.2	-72.1	3.8	7.47e-01	0	39	104	0	73	41412
2026-01-06 03:17:03.93	298.13	15.77	-51.2	-72.2	3.8	7.44e-01	0	39	104	0	73	41478
2026-01-06 03:17:04.65	297.96	15.75	-51.2	-72.2	3.8	7.48e-01	0	39	104	0	73	41485
2026-01-06 03:17:05.94	297.64	15.72	-51.2	-72.2	3.8	7.50e-01	0	39	104	0	73	41476
2026-01-06 03:17:06.66	297.46	15.70	-51.2	-72.2	3.8	7.46e-01	0	39	104	0	73	41484
2026-01-06 03:17:07.95	297.14	15.66	-51.2	-72.2	3.8	7.40e-01	0	39	104	0	73	41486
2026-01-06 03:17:08.67	296.97	15.64	-51.2	-72.1	3.8	7.45e-01	0	39	104	0	73	41435
2026-01-06 03:17:09.96	296.65	15.60	-51.2	-72.1	3.8	7.47e-01	0	39	104	0	73	41423
2026-01-06 03:17:10.67	296.48	15.58	-51.2	-72.1	3.8	7.48e-01	0	39	104	0	73	41365
2026-01-06 03:17:11.97	296.16	15.54	-51.2	-72.1	3.8	7.49e-01	0	39	104	0	73	41304
2026-01-06 03:17:12.68	295.99	15.52	-51.2	-72.1	3.8	7.45e-01	0	39	104	0	73	41310
2026-01-06 03:17:13.97	295.67	15.48	-51.2	-72.1	3.8	7.45e-01	0	39	104	0	73	41428
2026-01-06 03:17:14.69	295.50	15.46	-51.2	-72.1	3.8	7.45e-01	0	39	104	0	73	41362
2026-01-06 03:17:15.99	295.19	15.42	-51.2	-72.1	3.8	7.45e-01	0	39	104	0	73	41398
2026-01-06 03:17:16.70	295.01	15.40	-51.2	-72.1	3.8	7.47e-01	0	39	104	0	73	41385
2026-01-06 03:17:17.99	294.70	15.36	-51.2	-72.1	3.8	7.48e-01	0	39	104	0	73	41454
2026-01-06 03:17:18.73	294.53	15.33	-51.2	-72.2	3.8	7.49e-01	0	39	104	0	73	41490
2026-01-06 03:17:20.02	294.22	15.29	-51.2	-72.1	3.8	7.47e-01	0	39	104	0	73	41370
2026-01-06 03:17:20.73	294.05	15.27	-51.2	-72.1	3.8	7.45e-01	0	39	104	0	73	41379
2026-01-06 03:17:22.03	293.74	15.22	-51.2	-72.1	3.8	7.46e-01	0	39	104	0	73	41398
2026-01-06 03:17:22.74	293.57	15.20	-51.2	-72.1	3.8	7.46e-01	0	39	104	0	73	41364
2026-01-06 03:17:24.03	293.26	15.15	-51.2	-72.1	3.8	7.46e-01	0	39	104	0	73	41373
2026-01-06 03:17:24.75	293.09	15.13	-51.2	-72.1	3.8	7.46e-01	0	39	104	0	73	41403
2026-01-06 03:17:26.04	292.79	15.08	-51.2	-72.1	3.8	7.45e-01	0	39	104	0	73	41391
2026-01-06 03:17:26.76	292.62	15.06	-51.2	-72.1	3.8	7.42e-01	0	39	104	0	73	41375
2026-01-06 03:17:28.05	292.31	15.01	-51.2	-72.1	3.8	7.47e-01	0	39	104	0	73	41367
2026-01-06 03:17:28.77	292.15	14.98	-51.2	-72.1	3.8	7.44e-01	0	39	104	0	73	41395
2026-01-06 03:17:30.06	291.84	14.93	-51.2	-72.1	3.8	7.43e-01	0	39	104	0	73	41318
2026-01-06 03:17:30.78	291.68	14.91	-51.2	-72.1	3.8	7.46e-01	0	39	104	0	73	41358
2026-01-06 03:17:32.06	291.38	14.86	-51.2	-72.1	3.8	7.43e-01	0	39	104	0	73	41322
2026-01-06 03:17:32.78	291.21	14.83	-51.2	-72.1	3.8	7.40e-01	0	39	104	0	73	41258
2026-01-06 03:17:34.07	290.92	14.78	-51.2	-72.1	3.8	7.47e-01	0	39	104	0	73	41371
2026-01-06 03:17:34.79	290.75	14.75	-51.2	-72.1	3.8	7.48e-01	0	39	104	0	73	41359
2026-01-06 03:17:36.08	290.45	14.70	-51.2	-72.1	3.8	7.47e-01	0	39	104	0	73	41312
2026-01-06 03:17:36.80	290.29	14.67	-51.2	-72.1	3.8	7.49e-01	0	39	104	0	73	41356
2026-01-06 03:17:38.09	289.99	14.62	-51.2	-72.1	3.8	7.45e-01	0	39	104	0	73	41218
2026-01-06 03:17:38.81	289.83	14.59	-51.2	-72.1	3.8	7.46e-01	0	39	104	0	73	41390
2026-01-06 03:17:40.10	289.54	14.54	-51.2	-72.1	3.8	7.46e-01	0	39	104	0	73	41381
2026-01-06 03:17:40.82	289.37	14.51	-51.2	-72.1	3.8	7.47e-01	0	39	104	0	73	41327
2026-01-06 03:17:42.11	289.08	14.46	-51.2	-72.1	3.8	7.46e-01	0	39	104	0	73	41288
2026-01-06 03:17:42.82	288.92	14.43	-51.2	-72.1	3.8	7.46e-01	0	39	104	0	73	41320
2026-01-06 03:17:44.11	288.63	14.37	-51.2	-72.1	3.8	7.45e-01	0	39	104	0	73	41318
2026-01-06 03:17:44.83	288.47	14.34	-51.2	-72.1	3.8	7.44e-01	0	39	104	0	73	41317
2026-01-06 03:17:46.12	288.18	14.29	-51.2	-72.1	3.8	7.47e-01	0	39	104	0	73	41268
2026-01-06 03:17:46.84	288.02	14.25	-51.2	-72.1	3.8	7.45e-01	0	39	104	0	73	41228
2026-01-06 03:17:48.13	287.74	14.20	-51.2	-72.1	3.8	7.47e-01	0	39	104	0	73	41332
2026-01-06 03:17:48.91	287.57	14.16	-51.2	-72.1	3.8	7.46e-01	0	39	104	0	73	41269
2026-01-06 03:17:50.20	287.28	14.11	-51.2	-72.1	3.8	7.47e-01	0	39	104	0	73	41266
2026-01-06 03:17:50.92	287.12	14.07	-51.2	-72.1	3.8	7.42e-01	0	39	104	0	73	41308
2026-01-06 03:17:52.21	286.84	14.02	-51.2	-72.1	3.8	7.45e-01	0	39	104	0	73	41366
2026-01-06 03:17:52.92	286.69	13.98	-51.2	-72.1	3.8	7.46e-01	0	39	104	0	73	41301
2026-01-06 03:17:54.22	286.40	13.93	-51.2	-72.1	3.8	7.44e-01	0	39	104	0	73	41234
2026-01-06 03:17:54.93	286.25	13.89	-51.2	-72.1	3.8	7.48e-01	0	39	104	0	73	41269
2026-01-06 03:17:56.22	285.97	13.83	-51.2	-72.1	3.8	7.48e-01	0	39	104	0	73	41248
2026-01-06 03:17:56.94	285.82	13.80	-51.2	-72.1	3.8	7.44e-01	0	39	104	0	73	41331
2026-01-06 03:17:58.23	285.54	13.74	-51.2	-72.1	3.8	7.46e-01	0	39	104	0	73	41249
2026-01-06 03:17:58.95	285.39	13.71	-51.2	-72.1	3.8	7.44e-01	0	39	104	0	73	41248
2026-01-06 03:18:00.24	285.11	13.65	-51.2	-72.1	3.8	7.46e-01	0	39	104	0	73	41202
2026-01-06 03:18:00.96	284.96	13.61	-51.2	-72.1	3.8	7.48e-01	0	39	104	0	73	41257
2026-01-06 03:18:02.25	284.69	13.55	-51.2	-72.1	3.8	7.48e-01	0	39	104	0	73	41257
2026-01-06 03:18:02.97	284.54	13.52	-51.2	-72.1	3.8	7.46e-01	0	39	104	0	73	41323
2026-01-06 03:18:04.56	284.20	13.44	-51.2	-72.1	3.8	7.44e-01	0	39	104	0	73	41277
2026-01-06 03:18:05.13	284.08	13.41	-51.2	-72.1	3.8	7.45e-01	0	39	104	0	73	41284
2026-01-06 03:18:06.71	283.75	13.33	-51.2	-72.1	3.8	7.47e-01	0	39	104	0	73	41251
2026-01-06 03:18:07.29	283.63	13.31	-51.2	-72.1	3.8	7.44e-01	0	39	104	0	73	41187
2026-01-06 03:18:08.88	283.30	13.23	-51.2	-72.1	3.8	7.48e-01	0	39	104	0	73	41207
2026-01-06 03:18:09.46	283.19	13.20	-51.2	-72.1	3.8	7.46e-01	0	39	104	0	73	41214
2026-01-06 03:18:11.03	282.86	13.12	-51.2	-72.1	3.8	7.45e-01	0	39	104	0	73	41247
2026-01-06 03:18:11.61	282.74	13.09	-51.2	-72.1	3.8	7.48e-01	0	39	104	0	73	41214
2026-01-06 03:18:13.19	282.42	13.01	-51.2	-72.1	3.8	7.45e-01	0	39	104	0	73	41287
2026-01-06 03:18:13.84	282.29	12.98	-51.2	-72.1	3.8	7.46e-01	0	39	104	0	73	41254
2026-01-06 03:18:15.27	282.00	12.91	-51.2	-72.1	3.8	7.42e-01	0	39	104	0	73	41203
2026-01-06 03:18:16.02	281.85	12.87	-51.2	-72.1	3.8	7.49e-01	0	39	104	0	73	41284
2026-01-06 03:18:17.31	281.59	12.80	-51.2	-72.1	3.8	7.48e-01	0	39	104	0	73	41280
2026-01-06 03:18:18.12	281.43	12.76	-51.2	-72.1	3.8	7.48e-01	0	39	104	0	73	41250
2026-01-06 03:18:19.27	281.20	12.70	-51.2	-72.1	3.8	7.46e-01	0	39	104	0	73	41214
2026-01-06 03:18:20.13	281.03	12.66	-51.2	-72.1	3.8	7.49e-01	0	39	104	0	73	41268
2026-01-06 03:18:21.28	280.81	12.60	-51.2	-72.1	3.8	7.48e-01	0	39	104	0	73	41185
2026-01-06 03:18:22.14	280.64	12.55	-51.2	-72.1	3.8	7.46e-01	0	39	104	0	73	41182
2026-01-06 03:18:23.29	280.41	12.49	-51.2	-72.1	3.8	7.43e-01	0	39	104	0	73	41297
2026-01-06 03:18:24.15	280.24	12.45	-51.2	-72.1	3.8	7.46e-01	0	39	104	0	73	41189
2026-01-06 03:18:25.30	280.02	12.39	-51.2	-72.1	3.8	7.46e-01	0	39	104	0	73	41321
2026-01-06 03:18:26.16	279.86	12.34	-51.2	-72.1	3.8	7.45e-01	0	39	104	0	73	41287
2026-01-06 03:18:27.30	279.64	12.28	-51.2	-72.1	3.8	7.46e-01	0	39	104	0	73	41292
2026-01-06 03:18:28.16	279.47	12.23	-51.2	-72.1	3.8	7.47e-01	0	39	104	0	73	41341
2026-01-06 03:18:29.31	279.25	12.17	-51.2	-72.1	3.8	7.45e-01	0	39	104	0	73	41275
2026-01-06 03:18:30.17	279.09	12.13	-51.2	-72.1	3.8	7.48e-01	0	39	104	0	73	41348
2026-01-06 03:18:31.32	278.87	12.07	-51.2	-72.1	3.8	7.47e-01	0	39	104	0	73	41180
2026-01-06 03:18:32.18	278.71	12.02	-51.2	-72.1	3.8	7.45e-01	0	39	104	0	73	41247
2026-01-06 03:18:33.33	278.49	11.96	-51.2	-72.1	3.8	7.49e-01	0	39	104	0	73	41229
2026-01-06 03:18:34.40	278.29	11.90	-51.2	-72.1	3.8	7.48e-01	0	39	104	0	73	41302
2026-01-06 03:18:35.26	278.13	11.85	-51.2	-72.1	3.8	7.44e-01	0	39	104	0	73	41261
2026-01-06 03:18:36.41	277.92	11.79	-51.2	-72.1	3.8	7.44e-01	0	39	104	0	73	41271
2026-01-06 03:18:37.27	277.76	11.74	-51.2	-72.1	3.8	7.45e-01	0	39	104	0	73	41312
2026-01-06 03:18:38.42	277.54	11.68	-51.2	-72.1	3.8	7.48e-01	0	39	104	0	73	41228
2026-01-06 03:18:39.28	277.39	11.63	-51.2	-72.1	3.8	7.49e-01	0	39	104	0	73	41231
2026-01-06 03:18:40.44	277.17	11.57	-51.2	-72.1	3.8	7.45e-01	0	39	104	0	73	41300
2026-01-06 03:18:41.30	277.02	11.52	-51.2	-72.1	3.8	7.44e-01	0	39	104	0	73	41319
2026-01-06 03:18:42.53	276.79	11.45	-51.2	-72.1	3.8	7.48e-01	0	39	104	0	73	41252
2026-01-06 03:18:43.39	276.64	11.41	-51.2	-72.1	3.8	7.45e-01	0	39	104	0	73	41287
2026-01-06 03:18:44.61	276.42	11.34	-51.2	-72.1	3.8	7.47e-01	0	39	104	0	73	41273
2026-01-06 03:18:45.48	276.26	11.29	-51.2	-72.1	3.8	7.45e-01	0	39	104	0	73	41216
2026-01-06 03:18:46.69	276.05	11.22	-51.2	-72.1	3.8	7.49e-01	0	39	104	0	73	41220
2026-01-06 03:18:47.55	275.90	11.17	-51.2	-72.1	3.8	7.49e-01	0	39	104	0	73	41243
2026-01-06 03:18:48.76	275.68	11.11	-51.2	-72.1	3.8	7.47e-01	0	39	104	0	73	41240
2026-01-06 03:18:49.62	275.53	11.06	-51.2	-72.1	3.8	7.44e-01	0	39	104	0	73	41230
2026-01-06 03:18:50.77	275.33	10.99	-51.2	-72.1	3.8	7.42e-01	0	39	104	0	73	41251
2026-01-06 03:18:51.63	275.18	10.94	-51.2	-72.1	3.8	7.47e-01	0	39	104	0	73	41308
2026-01-06 03:18:52.78	274.98	10.88	-51.2	-72.1	3.8	7.47e-01	0	39	104	0	73	41266
2026-01-06 03:18:53.64	274.83	10.83	-51.2	-72.1	3.8	7.46e-01	0	39	104	0	73	41360
2026-01-06 03:18:54.78	274.63	10.77	-51.2	-72.1	3.8	7.45e-01	0	39	104	0	73	41266
2026-01-06 03:18:55.65	274.48	10.72	-51.2	-72.1	3.8	7.44e-01	0	39	104	0	73	41294
2026-01-06 03:18:56.79	274.29	10.65	-51.2	-72.1	3.8	7.44e-01	0	39	104	0	73	41341
2026-01-06 03:18:57.65	274.14	10.60	-51.2	-72.1	3.8	7.48e-01	0	39	104	0	73	41297
2026-01-06 03:18:58.80	273.95	10.54	-51.2	-72.1	3.8	7.46e-01	0	39	104	0	73	41329
2026-01-06 03:18:59.66	273.80	10.49	-51.2	-72.1	3.8	7.46e-01	0	39	104	0	73	41314
2026-01-06 03:19:00.81	273.61	10.42	-51.2	-72.1	3.8	7.45e-01	0	39	104	0	73	41268
2026-01-06 03:19:01.67	273.47	10.37	-51.2	-72.1	3.8	7.46e-01	0	39	104	0	73	41427
2026-01-06 03:19:02.82	273.27	10.31	-51.2	-72.1	3.8	7.45e-01	0	39	104	0	73	41314
2026-01-06 03:19:03.68	273.13	10.26	-51.2	-72.1	3.8	7.46e-01	0	39	104	0	73	41336
2026-01-06 03:19:04.83	272.94	10.19	-51.2	-72.1	3.8	7.47e-01	0	39	104	0	73	41338
2026-01-06 03:19:05.69	272.80	10.14	-51.2	-72.1	3.8	7.42e-01	0	39	104	0	73	41274
2026-01-06 03:19:06.83	272.61	10.08	-51.2	-72.1	3.8	7.48e-01	0	39	104	0	73	41351
2026-01-06 03:19:07.70	272.47	10.03	-51.2	-72.1	3.8	7.46e-01	0	39	104	0	73	41342
2026-01-06 03:19:08.84	272.29	9.96	-51.2	-72.1	3.8	7.46e-01	0	39	104	0	73	41352
2026-01-06 03:19:09.70	272.15	9.91	-51.2	-72.1	3.8	7.47e-01	0	39	104	0	73	41341
2026-01-06 03:19:10.85	271.96	9.85	-51.2	-72.1	3.8	7.45e-01	0	39	104	0	73	41256
2026-01-06 03:19:11.71	271.83	9.80	-51.2	-72.1	3.8	7.42e-01	0	39	104	0	73	41439
2026-01-06 03:19:12.86	271.64	9.73	-51.2	-72.1	3.8	7.46e-01	0	39	104	0	73	41271
2026-01-06 03:19:13.72	271.51	9.68	-51.2	-72.1	3.8	7.43e-01	0	39	104	0	73	41371
2026-01-06 03:19:14.87	271.32	9.61	-51.2	-72.1	3.8	7.51e-01	0	39	104	0	73	41388
2026-01-06 03:19:15.73	271.19	9.56	-51.2	-72.1	3.8	7.46e-01	0	39	104	0	73	41325
2026-01-06 03:19:16.88	271.01	9.50	-51.2	-72.2	3.8	7.48e-01	0	39	104	0	73	41464
2026-01-06 03:19:17.74	270.87	9.45	-51.2	-72.1	3.8	7.47e-01	0	39	104	0	73	41349
2026-01-06 03:19:18.88	270.70	9.38	-51.2	-72.1	3.8	7.48e-01	0	39	104	0	73	41383
2026-01-06 03:19:19.74	270.56	9.33	-51.2	-72.1	3.8	7.45e-01	0	39	104	0	73	41377
2026-01-06 03:19:20.89	270.39	9.26	-51.2	-72.1	3.8	7.45e-01	0	39	104	0	73	41417
2026-01-06 03:19:21.75	270.25	9.21	-51.2	-72.1	3.8	7.47e-01	0	39	104	0	73	41445
2026-01-06 03:19:22.90	270.08	9.15	-51.2	-72.1	3.8	7.43e-01	0	39	104	0	73	41361
2026-01-06 03:19:23.76	269.95	9.10	-51.2	-72.1	3.8	7.47e-01	0	39	104	0	73	41322
2026-01-06 03:19:24.91	269.77	9.03	-51.2	-72.1	3.8	7.48e-01	0	39	104	0	73	41249
2026-01-06 03:19:25.77	269.64	8.98	-51.2	-72.1	3.8	7.46e-01	0	39	104	0	73	41449
2026-01-06 03:19:26.92	269.47	8.91	-51.2	-72.1	3.8	7.45e-01	0	39	104	0	73	41354
2026-01-06 03:19:27.78	269.34	8.86	-51.2	-72.1	3.8	7.45e-01	0	39	104	0	73	41391
2026-01-06 03:19:28.93	269.17	8.79	-51.2	-72.1	3.8	7.47e-01	0	39	104	0	73	41394
2026-01-06 03:19:29.79	269.05	8.74	-51.2	-72.1	3.8	7.46e-01	0	39	104	0	73	41252
2026-01-06 03:19:30.93	268.88	8.68	-51.2	-72.1	3.8	7.42e-01	0	39	104	0	73	41321
2026-01-06 03:19:31.80	268.75	8.63	-51.2	-72.1	3.8	7.43e-01	0	39	104	0	73	41380
2026-01-06 03:19:32.94	268.58	8.56	-51.2	-72.1	3.8	7.49e-01	0	39	104	0	73	41386
2026-01-06 03:19:33.80	268.46	8.51	-51.2	-72.1	3.8	7.46e-01	0	39	104	0	73	41414
2026-01-06 03:19:34.95	268.29	8.44	-51.2	-72.1	3.8	7.45e-01	0	39	104	0	73	41382
2026-01-06 03:19:35.81	268.17	8.39	-51.2	-72.1	3.8	7.44e-01	0	39	104	0	73	41428
2026-01-06 03:19:36.96	268.00	8.32	-51.2	-72.1	3.8	7.49e-01	0	39	104	0	73	41358
2026-01-06 03:19:37.82	267.88	8.27	-51.2	-72.1	3.8	7.44e-01	0	39	104	0	73	41369
2026-01-06 03:19:38.97	267.72	8.21	-51.2	-72.1	3.8	7.48e-01	0	39	104	0	73	41421
2026-01-06 03:19:39.83	267.59	8.16	-51.2	-72.1	3.8	7.47e-01	0	39	104	0	73	41421
2026-01-06 03:19:40.98	267.43	8.09	-51.2	-72.1	3.8	7.48e-01	0	39	104	0	73	41381
2026-01-06 03:19:41.84	267.31	8.04	-51.2	-72.1	3.8	7.48e-01	0	39	104	0	73	41366
2026-01-06 03:19:42.98	267.15	7.97	-51.2	-72.1	3.8	7.46e-01	0	39	104	0	73	41369
2026-01-06 03:19:43.84	267.03	7.92	-51.2	-72.2	3.8	7.48e-01	0	39	104	0	73	41479
2026-01-06 03:19:44.99	266.87	7.85	-51.2	-72.1	3.8	7.46e-01	0	39	104	0	73	41374
2026-01-06 03:19:45.85	266.75	7.80	-51.2	-72.1	3.8	7.47e-01	0	39	104	0	73	41403
2026-01-06 03:19:47.00	266.60	7.74	-51.2	-72.1	3.8	7.45e-01	0	39	104	0	73	41410
2026-01-06 03:19:47.86	266.48	7.69	-51.2	-72.1	3.8	7.47e-01	0	39	104	0	73	41339
2026-01-06 03:19:49.01	266.32	7.62	-51.2	-72.1	3.8	7.45e-01	0	39	104	0	73	41414
2026-01-06 03:19:49.87	266.21	7.57	-51.2	-72.2	3.8	7.47e-01	0	39	104	0	73	41500
2026-01-06 03:19:51.02	266.05	7.50	-51.2	-72.1	3.8	7.45e-01	0	39	104	0	73	41356
2026-01-06 03:19:51.88	265.94	7.45	-51.2	-72.1	3.8	7.48e-01	0	39	104	0	73	41404
2026-01-06 03:19:53.02	265.78	7.38	-51.2	-72.1	3.8	7.45e-01	0	39	104	0	73	41418
2026-01-06 03:19:53.88	265.67	7.33	-51.2	-72.1	3.8	7.46e-01	0	39	104	0	73	41424
2026-01-06 03:19:55.03	265.52	7.27	-51.2	-72.1	3.8	7.47e-01	0	39	104	0	73	41438
2026-01-06 03:19:55.89	265.40	7.22	-51.2	-72.1	3.8	7.46e-01	0	39	104	0	73	41390
2026-01-06 03:19:57.04	265.25	7.15	-51.2	-72.1	3.8	7.47e-01	0	39	104	0	73	41380
2026-01-06 03:19:57.90	265.14	7.10	-51.2	-72.1	3.8	7.47e-01	0	39	104	0	73	41396
2026-01-06 03:19:59.05	264.99	7.03	-51.2	-72.1	3.8	7.49e-01	0	39	104	0	73	41393
202