passes_logs/2026/01/06/T1/T1__20260106_025245_FENGYUN_3G_rec.log

#Pass ID: 20260106_025245_FENGYUN 3G
#Satellite: FENGYUN 3G
#Configuration: FENGYUN 3G
#almurnet v.1.7.20251203
#Start time: 2026-01-06 02:52:47

#Version: 2.0.20230620
#Station: T1
#Location: 37.570604 lon 55.790049 lat
#TLE: 1 56232U 23055A   26005.27063903  .00035143  00000+0  55802-3 0  9994
#TLE: 2 56232  49.9940 106.1098 0004225 341.8364  18.2452 15.52952562154680

#Time	Az	El	Level	Level2	SNR	BER	BlckErr	Temp	State	Recorded	gain1	gain2
2026-01-06 02:52:47.73	245.15	4.85	-50.3	-69.5	3.8	8.48e-01	0	37	0	0	71	34212
2026-01-06 02:52:48.73	245.07	4.93	-50.3	-69.4	3.8	8.39e-01	0	37	104	0	72	32055
2026-01-06 02:52:49.73	244.98	5.00	-50.2	-69.4	3.8	8.47e-01	0	37	104	0	72	32103
2026-01-06 02:52:50.73	244.90	5.08	-50.3	-69.4	3.8	8.47e-01	0	37	104	0	72	32167
2026-01-06 02:52:51.74	244.82	5.16	-50.2	-69.4	3.8	8.47e-01	0	37	104	0	72	32090
2026-01-06 02:52:52.74	244.74	5.23	-50.2	-69.4	3.8	8.48e-01	0	37	104	0	72	32097
2026-01-06 02:52:53.75	244.65	5.31	-50.2	-69.4	3.8	8.46e-01	0	37	104	0	72	31971
2026-01-06 02:52:54.75	244.57	5.39	-50.3	-69.4	3.8	8.46e-01	0	38	104	0	72	32074
2026-01-06 02:52:55.75	244.48	5.47	-50.2	-69.4	3.8	8.46e-01	0	37	104	0	72	32078
2026-01-06 02:52:56.76	244.39	5.54	-50.2	-69.4	3.8	8.47e-01	0	38	104	0	72	32091
2026-01-06 02:52:57.76	244.31	5.62	-50.2	-69.4	3.8	8.47e-01	0	37	104	0	72	32138
2026-01-06 02:52:58.76	244.22	5.70	-50.2	-69.4	3.8	8.47e-01	0	38	104	0	72	32058
2026-01-06 02:52:59.77	244.13	5.78	-50.2	-69.4	3.8	8.46e-01	0	38	104	0	72	32045
2026-01-06 02:53:00.77	244.04	5.86	-50.2	-69.4	3.8	8.46e-01	0	38	104	0	72	32038
2026-01-06 02:53:01.78	243.95	5.94	-50.2	-69.4	3.8	8.49e-01	0	38	104	0	72	32021
2026-01-06 02:53:02.78	243.86	6.02	-50.3	-69.4	3.8	8.47e-01	0	38	104	0	72	32114
2026-01-06 02:53:03.78	243.77	6.10	-50.2	-69.4	3.8	8.46e-01	0	38	104	0	72	32080
2026-01-06 02:53:04.79	243.68	6.18	-50.2	-69.4	3.8	8.46e-01	0	38	104	0	72	32071
2026-01-06 02:53:05.79	243.59	6.26	-50.2	-69.4	3.8	8.46e-01	0	38	104	0	72	32078
2026-01-06 02:53:06.80	243.49	6.34	-50.2	-69.4	3.8	8.47e-01	0	38	104	0	72	32091
2026-01-06 02:53:07.80	243.40	6.42	-50.2	-69.4	3.8	8.47e-01	0	38	104	0	72	32000
2026-01-06 02:53:08.81	243.30	6.50	-50.2	-69.4	3.8	8.47e-01	0	38	104	0	72	31998
2026-01-06 02:53:09.81	243.21	6.58	-50.3	-69.4	3.8	8.47e-01	0	38	104	0	72	32102
2026-01-06 02:53:10.81	243.11	6.67	-50.2	-69.4	3.8	8.47e-01	0	38	104	0	72	32105
2026-01-06 02:53:11.82	243.02	6.75	-50.2	-69.4	3.8	8.47e-01	0	38	104	0	72	32045
2026-01-06 02:53:12.82	242.92	6.83	-50.3	-69.4	3.8	8.47e-01	0	38	104	0	72	32091
2026-01-06 02:53:13.83	242.82	6.92	-50.3	-69.4	3.8	8.47e-01	0	38	104	0	72	32056
2026-01-06 02:53:14.83	242.72	7.00	-50.2	-69.4	3.8	8.47e-01	0	38	104	0	72	32160
2026-01-06 02:53:15.84	242.62	7.08	-50.2	-69.4	3.8	8.47e-01	0	38	104	0	72	32144
2026-01-06 02:53:16.84	242.52	7.17	-50.2	-69.4	3.8	8.47e-01	0	38	104	0	72	32120
2026-01-06 02:53:17.85	242.42	7.25	-50.3	-69.4	3.8	8.47e-01	0	38	104	0	72	32097
2026-01-06 02:53:18.85	242.31	7.34	-50.2	-69.4	3.8	8.48e-01	0	38	104	0	72	32048
2026-01-06 02:53:19.85	242.21	7.42	-50.2	-69.4	3.8	8.46e-01	0	38	104	0	72	32017
2026-01-06 02:53:20.86	242.11	7.51	-50.2	-69.4	3.8	8.46e-01	0	38	104	0	72	32114
2026-01-06 02:53:21.86	242.00	7.60	-50.2	-69.4	3.8	8.47e-01	0	38	104	0	72	32076
2026-01-06 02:53:22.87	241.89	7.68	-50.2	-69.4	3.8	8.47e-01	0	38	104	0	72	32074
2026-01-06 02:53:23.87	241.79	7.77	-50.2	-69.4	3.8	8.47e-01	0	38	104	0	72	32156
2026-01-06 02:53:24.87	241.68	7.86	-50.2	-69.4	3.8	8.47e-01	0	38	104	0	72	32016
2026-01-06 02:53:25.88	241.57	7.94	-50.2	-69.4	3.8	8.47e-01	0	38	104	0	72	32063
2026-01-06 02:53:26.88	241.46	8.03	-50.3	-69.4	3.8	8.47e-01	0	38	104	0	72	32046
2026-01-06 02:53:27.88	241.35	8.12	-50.3	-69.4	3.8	8.47e-01	0	38	104	0	72	32070
2026-01-06 02:53:28.89	241.24	8.21	-50.2	-69.4	3.8	8.47e-01	0	38	104	0	72	32081
2026-01-06 02:53:29.89	241.13	8.30	-50.2	-69.4	3.8	8.47e-01	0	38	104	0	72	32072
2026-01-06 02:53:30.89	241.01	8.39	-50.3	-69.4	3.8	8.47e-01	0	38	104	0	72	32034
2026-01-06 02:53:31.90	240.90	8.48	-50.3	-69.4	3.8	8.47e-01	0	38	104	0	72	32031
2026-01-06 02:53:32.90	240.78	8.57	-50.3	-69.4	3.8	8.47e-01	0	38	104	0	72	32081
2026-01-06 02:53:33.91	240.66	8.66	-50.3	-69.4	3.8	8.47e-01	0	39	104	0	72	32062
2026-01-06 02:53:34.91	240.55	8.75	-50.2	-69.5	3.8	8.47e-01	0	39	104	0	72	32221
2026-01-06 02:53:35.92	240.43	8.84	-50.2	-69.4	3.8	8.47e-01	0	39	104	0	72	32038
2026-01-06 02:53:36.92	240.31	8.93	-50.2	-69.4	3.8	8.47e-01	0	38	104	0	72	32069
2026-01-06 02:53:37.93	240.19	9.03	-50.3	-69.4	3.8	8.47e-01	0	39	104	0	72	32174
2026-01-06 02:53:38.93	240.07	9.12	-50.2	-69.4	3.8	8.47e-01	0	38	104	0	72	32091
2026-01-06 02:53:39.93	239.94	9.21	-50.3	-69.4	3.8	8.47e-01	0	38	104	0	72	32089
2026-01-06 02:53:40.94	239.82	9.31	-50.2	-69.5	3.8	8.48e-01	0	39	104	0	72	32180
2026-01-06 02:53:41.94	239.69	9.40	-50.2	-69.4	3.8	8.47e-01	0	38	104	0	72	32052
2026-01-06 02:53:42.95	239.57	9.50	-50.3	-69.4	3.8	8.47e-01	0	38	104	0	72	32139
2026-01-06 02:53:43.95	239.44	9.59	-50.3	-69.4	3.8	8.47e-01	0	39	104	0	72	32097
2026-01-06 02:53:44.96	239.31	9.69	-50.2	-69.4	3.8	8.46e-01	0	39	104	0	72	32043
2026-01-06 02:53:45.96	239.18	9.78	-50.3	-69.4	3.8	8.47e-01	0	39	104	0	72	32094
2026-01-06 02:53:46.97	239.05	9.88	-50.3	-69.4	3.8	8.47e-01	0	39	104	0	72	32159
2026-01-06 02:53:47.97	238.92	9.98	-50.2	-69.4	3.8	8.47e-01	0	39	104	0	72	32175
2026-01-06 02:53:48.97	238.79	10.07	-50.2	-69.4	3.8	8.48e-01	0	39	104	0	72	32040
2026-01-06 02:53:49.98	238.65	10.17	-50.3	-69.4	3.8	8.48e-01	0	39	104	0	72	32131
2026-01-06 02:53:50.98	238.52	10.27	-50.3	-69.4	3.8	8.46e-01	0	39	104	0	72	32125
2026-01-06 02:53:51.99	238.38	10.37	-50.3	-69.4	3.8	8.46e-01	0	39	104	0	72	32093
2026-01-06 02:53:52.99	238.24	10.47	-50.2	-69.4	3.8	8.46e-01	0	39	104	0	72	32121
2026-01-06 02:53:53.99	238.10	10.57	-50.3	-69.4	3.8	8.48e-01	0	39	104	0	72	32113
2026-01-06 02:53:55.00	237.96	10.67	-50.3	-69.4	3.8	8.47e-01	0	39	104	0	72	32130
2026-01-06 02:53:56.00	237.82	10.77	-50.2	-69.4	3.8	8.47e-01	0	39	104	0	72	32099
2026-01-06 02:53:57.01	237.68	10.87	-50.3	-69.4	3.8	8.47e-01	0	39	104	0	72	32108
2026-01-06 02:53:58.01	237.53	10.97	-50.3	-69.4	3.8	8.48e-01	0	39	104	0	72	32058
2026-01-06 02:53:59.01	237.39	11.07	-50.3	-69.4	3.8	8.48e-01	0	39	104	0	72	32126
2026-01-06 02:54:00.02	237.24	11.18	-50.3	-69.4	3.8	8.47e-01	0	39	104	0	72	32131
2026-01-06 02:54:01.02	237.09	11.28	-50.3	-69.4	3.8	8.46e-01	0	39	104	0	72	32133
2026-01-06 02:54:02.03	236.94	11.38	-50.3	-69.5	3.8	8.47e-01	0	39	104	0	72	32227
2026-01-06 02:54:03.03	236.79	11.49	-50.2	-69.4	3.8	8.47e-01	0	39	104	0	72	32130
2026-01-06 02:54:04.03	236.64	11.59	-50.3	-69.4	3.8	8.47e-01	0	39	104	0	72	32164
2026-01-06 02:54:05.04	236.48	11.70	-50.2	-69.4	3.8	8.47e-01	0	39	104	0	72	32117
2026-01-06 02:54:06.05	236.32	11.80	-50.2	-69.4	3.8	8.47e-01	0	39	104	0	72	32076
2026-01-06 02:54:07.05	236.17	11.91	-50.3	-69.4	3.8	8.47e-01	0	39	104	0	72	32112
2026-01-06 02:54:08.05	236.01	12.01	-50.3	-69.4	3.8	8.47e-01	0	39	104	0	72	32063
2026-01-06 02:54:09.06	235.85	12.12	-50.3	-69.5	3.8	8.47e-01	0	39	104	0	72	32224
2026-01-06 02:54:10.06	235.69	12.23	-50.3	-69.4	3.8	8.47e-01	0	39	104	0	72	32116
2026-01-06 02:54:11.07	235.52	12.34	-50.3	-69.5	3.8	8.47e-01	0	39	104	0	72	32221
2026-01-06 02:54:12.07	235.36	12.45	-50.3	-69.4	3.8	8.47e-01	0	39	104	0	72	32068
2026-01-06 02:54:13.07	235.19	12.55	-50.3	-69.4	3.8	8.47e-01	0	39	104	0	72	32124
2026-01-06 02:54:14.08	235.02	12.66	-50.3	-69.4	3.8	8.47e-01	0	39	104	0	72	32132
2026-01-06 02:54:15.08	234.85	12.77	-50.3	-69.4	3.8	8.48e-01	0	39	104	0	72	32135
2026-01-06 02:54:16.09	234.68	12.89	-50.3	-69.4	3.8	8.48e-01	0	39	104	0	72	32035
2026-01-06 02:54:17.09	234.51	13.00	-50.3	-69.4	3.8	8.48e-01	0	39	104	0	72	32156
2026-01-06 02:54:18.09	234.33	13.11	-50.3	-69.4	3.8	8.46e-01	0	39	104	0	72	32101
2026-01-06 02:54:19.09	234.15	13.22	-50.2	-69.4	3.8	8.46e-01	0	39	104	0	72	32053
2026-01-06 02:54:20.10	233.97	13.33	-50.3	-69.4	3.8	8.48e-01	0	39	104	0	72	32092
2026-01-06 02:54:21.11	233.79	13.45	-50.3	-69.4	3.8	8.46e-01	0	39	104	0	72	32145
2026-01-06 02:54:22.11	233.61	13.56	-50.3	-69.4	3.8	8.46e-01	0	39	104	0	72	32179
2026-01-06 02:54:23.11	233.43	13.67	-50.3	-69.4	3.8	8.46e-01	0	39	104	0	72	32104
2026-01-06 02:54:24.12	233.24	13.79	-50.3	-69.4	3.8	8.47e-01	0	39	104	0	72	32120
2026-01-06 02:54:25.12	233.05	13.91	-50.3	-69.5	3.8	8.47e-01	0	39	104	0	72	32185
2026-01-06 02:54:26.13	232.86	14.02	-50.3	-69.4	3.8	8.45e-01	0	39	104	0	72	32145
2026-01-06 02:54:27.13	232.67	14.14	-50.3	-69.4	3.8	8.47e-01	0	39	104	0	72	32119
2026-01-06 02:54:28.13	232.48	14.26	-50.3	-69.4	3.8	8.47e-01	0	39	104	0	72	32169
2026-01-06 02:54:29.14	232.28	14.37	-50.3	-69.4	3.8	8.46e-01	0	39	104	0	72	32044
2026-01-06 02:54:30.14	232.08	14.49	-50.3	-69.4	3.8	8.48e-01	0	39	104	0	72	32143
2026-01-06 02:54:31.15	231.88	14.61	-50.2	-69.4	3.8	8.46e-01	0	39	104	0	72	32093
2026-01-06 02:54:32.15	231.68	14.73	-50.3	-69.5	3.8	8.46e-01	0	39	104	0	72	32183
2026-01-06 02:54:33.16	231.48	14.85	-50.3	-69.5	3.8	8.47e-01	0	39	104	0	72	32206
2026-01-06 02:54:34.16	231.27	14.97	-50.3	-69.4	3.8	8.47e-01	0	39	104	0	72	32168
2026-01-06 02:54:35.17	231.06	15.09	-50.3	-69.5	3.8	8.47e-01	0	39	104	0	72	32198
2026-01-06 02:54:36.17	230.85	15.21	-50.3	-69.4	3.8	8.47e-01	0	39	104	0	72	32071
2026-01-06 02:54:37.17	230.64	15.34	-50.3	-69.4	3.8	8.47e-01	0	39	104	0	72	32079
2026-01-06 02:54:38.18	230.42	15.46	-50.3	-69.4	3.8	8.47e-01	0	39	104	0	72	32089
2026-01-06 02:54:39.18	230.21	15.58	-50.3	-69.4	3.8	8.46e-01	0	39	104	0	72	32149
2026-01-06 02:54:40.19	229.99	15.71	-50.3	-69.4	3.8	8.47e-01	0	39	104	0	72	32091
2026-01-06 02:54:41.19	229.77	15.83	-50.3	-69.4	3.8	8.47e-01	0	39	104	0	72	32005
2026-01-06 02:54:42.20	229.54	15.96	-50.3	-69.4	3.8	8.47e-01	0	39	104	0	72	32129
2026-01-06 02:54:43.20	229.32	16.08	-50.3	-69.4	3.8	8.48e-01	0	39	104	0	72	32162
2026-01-06 02:54:44.20	229.09	16.21	-50.3	-69.4	3.8	8.48e-01	0	39	104	0	72	32088
2026-01-06 02:54:45.21	228.86	16.34	-50.3	-69.4	3.8	8.48e-01	0	39	104	0	72	32132
2026-01-06 02:54:46.21	228.62	16.46	-50.3	-69.4	3.8	8.47e-01	0	39	104	0	72	32130
2026-01-06 02:54:47.21	228.39	16.59	-50.3	-69.4	3.8	8.47e-01	0	39	104	0	72	32117
2026-01-06 02:54:48.22	228.15	16.72	-50.3	-69.4	3.8	8.47e-01	0	39	104	0	72	32080
2026-01-06 02:54:49.22	227.91	16.85	-50.3	-69.4	3.8	8.47e-01	0	39	104	0	72	32168
2026-01-06 02:54:50.23	227.66	16.98	-50.3	-69.5	3.8	8.47e-01	0	39	104	0	72	32224
2026-01-06 02:54:51.23	227.41	17.11	-50.3	-69.4	3.8	8.47e-01	0	39	104	0	72	32103
2026-01-06 02:54:52.23	227.17	17.24	-50.3	-69.4	3.8	8.47e-01	0	39	104	0	72	32144
2026-01-06 02:54:53.24	226.91	17.37	-50.3	-69.4	3.8	8.47e-01	0	39	104	0	72	32143
2026-01-06 02:54:54.24	226.66	17.50	-50.3	-69.4	3.8	8.47e-01	0	39	104	0	72	32000
2026-01-06 02:54:55.25	226.40	17.63	-50.3	-69.4	3.8	8.47e-01	0	39	104	0	72	32113
2026-01-06 02:54:56.25	226.14	17.76	-50.3	-69.4	3.8	8.48e-01	0	39	104	0	72	32148
2026-01-06 02:54:57.26	225.88	17.90	-50.3	-69.4	3.8	8.48e-01	0	39	104	0	72	32144
2026-01-06 02:54:58.26	225.61	18.03	-50.3	-69.4	3.8	8.47e-01	0	39	104	0	72	32161
2026-01-06 02:54:59.27	225.34	18.16	-50.3	-69.5	3.8	8.47e-01	0	39	104	0	72	32202
2026-01-06 02:55:00.27	225.07	18.30	-50.3	-69.4	3.8	8.47e-01	0	39	104	0	72	32163
2026-01-06 02:55:01.27	224.80	18.43	-50.3	-69.5	3.8	8.47e-01	0	39	104	0	72	32181
2026-01-06 02:55:02.28	224.52	18.57	-50.3	-69.4	3.8	8.47e-01	0	39	104	0	72	32179
2026-01-06 02:55:03.60	224.15	18.75	-50.3	-69.4	3.8	8.46e-01	0	39	104	0	72	32120
2026-01-06 02:55:04.35	223.93	18.85	-50.3	-69.4	3.8	8.46e-01	0	39	104	0	72	32125
2026-01-06 02:55:05.64	223.56	19.02	-50.3	-69.4	3.8	8.48e-01	0	39	104	0	72	32065
2026-01-06 02:55:06.36	223.35	19.12	-50.3	-69.4	3.8	8.46e-01	0	39	104	0	72	32137
2026-01-06 02:55:07.65	222.98	19.30	-50.3	-69.5	3.8	8.47e-01	0	39	104	0	72	32222
2026-01-06 02:55:08.37	222.76	19.40	-50.3	-69.4	3.8	8.47e-01	0	39	104	0	72	32143
2026-01-06 02:55:09.66	222.38	19.57	-50.3	-69.4	3.8	8.47e-01	0	39	104	0	72	32141
2026-01-06 02:55:10.38	222.16	19.67	-50.3	-69.4	3.8	8.47e-01	0	39	104	0	72	32116
2026-01-06 02:55:11.70	221.75	19.86	-50.3	-69.5	3.8	8.48e-01	0	39	104	0	72	32207
2026-01-06 02:55:12.42	221.53	19.96	-50.3	-69.4	3.8	8.47e-01	0	39	104	0	72	32137
2026-01-06 02:55:13.76	221.11	20.14	-50.3	-69.4	3.8	8.46e-01	0	39	104	0	72	32133
2026-01-06 02:55:14.47	220.89	20.24	-50.3	-69.4	3.8	8.46e-01	0	39	104	0	72	32156
2026-01-06 02:55:15.84	220.45	20.43	-50.3	-69.5	3.8	8.48e-01	0	39	104	0	72	32265
2026-01-06 02:55:16.56	220.21	20.53	-50.3	-69.4	3.8	8.47e-01	0	39	104	0	72	32141
2026-01-06 02:55:17.92	219.77	20.72	-50.3	-69.4	3.8	8.47e-01	0	39	104	0	72	32142
2026-01-06 02:55:18.63	219.53	20.82	-50.3	-69.5	3.8	8.47e-01	0	39	104	0	72	32242
2026-01-06 02:55:19.93	219.10	21.01	-50.3	-69.4	3.8	8.46e-01	0	39	104	0	72	32118
2026-01-06 02:55:20.64	218.86	21.11	-50.3	-69.4	3.8	8.46e-01	0	39	104	0	72	32174
2026-01-06 02:55:21.93	218.41	21.29	-50.3	-69.4	3.8	8.46e-01	0	39	104	0	72	32144
2026-01-06 02:55:22.65	218.16	21.39	-50.3	-69.5	3.8	8.47e-01	0	39	104	0	72	32186
2026-01-06 02:55:23.94	217.71	21.57	-50.3	-69.4	3.8	8.47e-01	0	39	104	0	72	32086
2026-01-06 02:55:24.66	217.46	21.67	-50.3	-69.4	3.8	8.47e-01	0	39	104	0	72	32117
2026-01-06 02:55:25.95	217.00	21.85	-50.3	-69.4	3.8	8.47e-01	0	39	104	0	72	32170
2026-01-06 02:55:26.67	216.74	21.96	-50.3	-69.5	3.8	8.47e-01	0	40	104	0	72	32200
2026-01-06 02:55:27.96	216.26	22.14	-50.3	-69.4	3.8	8.47e-01	0	39	104	0	72	32135
2026-01-06 02:55:28.68	216.00	22.24	-50.3	-69.4	3.8	8.47e-01	0	39	104	0	72	32067
2026-01-06 02:55:29.97	215.52	22.42	-50.3	-69.4	3.8	8.45e-01	0	39	104	0	72	32089
2026-01-06 02:55:30.68	215.25	22.52	-50.3	-69.4	3.8	8.45e-01	0	40	104	0	72	32031
2026-01-06 02:55:31.98	214.75	22.70	-50.3	-69.4	3.8	8.48e-01	0	39	104	0	72	31837
2026-01-06 02:55:32.69	214.48	22.80	-50.3	-69.4	3.8	8.47e-01	0	39	104	0	72	31911
2026-01-06 02:55:33.99	213.97	22.99	-50.3	-69.4	3.8	8.47e-01	0	39	104	0	72	32043
2026-01-06 02:55:34.70	213.69	23.08	-50.3	-69.4	3.8	8.47e-01	0	39	104	0	72	32176
2026-01-06 02:55:36.00	213.17	23.27	-50.3	-69.4	3.8	8.47e-01	0	39	104	0	72	31953
2026-01-06 02:55:36.71	212.89	23.37	-50.3	-69.4	3.8	8.47e-01	0	39	104	0	72	32058
2026-01-06 02:55:38.00	212.36	23.55	-50.3	-69.4	3.8	8.47e-01	0	39	104	0	72	32131
2026-01-06 02:55:38.72	212.06	23.65	-50.3	-69.4	3.8	8.48e-01	0	39	104	0	72	32165
2026-01-06 02:55:40.01	211.53	23.82	-50.3	-69.4	3.8	8.47e-01	0	39	104	0	72	31930
2026-01-06 02:55:40.73	211.23	23.92	-50.3	-69.4	3.8	8.47e-01	0	39	104	0	72	32070
2026-01-06 02:55:42.02	210.68	24.10	-50.3	-69.4	3.8	8.47e-01	0	39	104	0	72	32063
2026-01-06 02:55:42.73	210.38	24.20	-50.3	-69.4	3.8	8.45e-01	0	40	104	0	72	32136
2026-01-06 02:55:44.03	209.81	24.37	-50.3	-69.4	3.8	8.47e-01	0	39	104	0	72	32015
2026-01-06 02:55:44.75	209.50	24.47	-50.3	-69.4	3.8	8.47e-01	0	39	104	0	72	32126
2026-01-06 02:55:46.03	208.93	24.64	-50.3	-69.4	3.8	8.46e-01	0	39	104	0	72	32169
2026-01-06 02:55:46.75	208.61	24.74	-50.3	-69.4	3.8	8.46e-01	0	39	104	0	72	32154
2026-01-06 02:55:48.04	208.03	24.91	-50.3	-69.5	3.8	8.47e-01	0	39	104	0	72	32220
2026-01-06 02:55:48.76	207.70	25.01	-50.3	-69.4	3.8	8.47e-01	0	39	104	0	72	32119
2026-01-06 02:55:50.05	207.11	25.18	-50.3	-69.4	3.8	8.47e-01	0	40	104	0	72	32145
2026-01-06 02:55:50.77	206.78	25.27	-50.3	-69.5	3.8	8.47e-01	0	39	104	0	72	32220
2026-01-06 02:55:52.06	206.17	25.44	-50.3	-69.5	3.8	8.47e-01	0	39	104	0	72	32185
2026-01-06 02:55:52.78	205.83	25.53	-50.3	-69.4	3.8	8.47e-01	0	39	104	0	72	32126
2026-01-06 02:55:54.07	205.22	25.70	-50.3	-69.4	3.8	8.47e-01	0	39	104	0	72	32140
2026-01-06 02:55:54.78	204.88	25.79	-50.3	-69.4	3.8	8.47e-01	0	40	104	0	72	32154
2026-01-06 02:55:56.08	204.24	25.95	-50.3	-69.4	3.8	8.47e-01	0	40	104	0	72	32159
2026-01-06 02:55:56.79	203.90	26.04	-50.3	-69.4	3.8	8.47e-01	0	39	104	0	72	32113
2026-01-06 02:55:58.08	203.26	26.20	-50.3	-69.4	3.8	8.46e-01	0	40	104	0	72	32065
2026-01-06 02:55:58.80	202.90	26.28	-50.3	-69.4	3.8	8.48e-01	0	40	104	0	72	32108
2026-01-06 02:56:00.10	202.24	26.44	-50.3	-69.5	3.8	8.46e-01	0	40	104	0	72	32211
2026-01-06 02:56:00.81	201.88	26.52	-50.3	-69.4	3.8	8.46e-01	0	40	104	0	72	32148
2026-01-06 02:56:02.10	201.22	26.67	-50.3	-69.4	3.8	8.47e-01	0	40	104	0	72	32067
2026-01-06 02:56:02.82	200.85	26.76	-50.3	-69.5	3.8	8.47e-01	0	40	104	0	72	32188
2026-01-06 02:56:04.11	200.18	26.90	-50.3	-69.4	3.8	8.47e-01	0	40	104	0	72	32089
2026-01-06 02:56:04.83	199.80	26.98	-50.3	-69.4	3.8	8.47e-01	0	39	104	0	72	32077
2026-01-06 02:56:06.12	199.12	27.12	-50.3	-69.4	3.8	8.47e-01	0	39	104	0	72	32087
2026-01-06 02:56:06.84	198.73	27.20	-50.3	-69.4	3.8	8.47e-01	0	39	104	0	72	32060
2026-01-06 02:56:08.13	198.04	27.34	-50.3	-69.5	3.8	8.47e-01	0	40	104	0	72	32184
2026-01-06 02:56:08.84	197.66	27.41	-50.3	-69.4	3.8	8.47e-01	0	39	104	0	72	32150
2026-01-06 02:56:10.14	196.95	27.55	-50.3	-69.4	3.8	8.47e-01	0	39	104	0	72	32048
2026-01-06 02:56:10.85	196.56	27.62	-50.3	-69.4	3.8	8.45e-01	0	39	104	0	72	32150
2026-01-06 02:56:12.15	195.84	27.74	-50.3	-69.4	3.8	8.47e-01	0	40	104	0	72	32056
2026-01-06 02:56:12.86	195.44	27.81	-50.3	-69.4	3.8	8.47e-01	0	39	104	0	72	32036
2026-01-06 02:56:14.15	194.72	27.93	-50.3	-69.4	3.8	8.49e-01	0	39	104	0	72	32054
2026-01-06 02:56:14.87	194.31	28.00	-50.3	-69.4	3.8	8.47e-01	0	39	104	0	72	32089
2026-01-06 02:56:16.16	193.58	28.11	-50.3	-69.4	3.8	8.45e-01	0	39	104	0	72	32023
2026-01-06 02:56:16.88	193.17	28.17	-50.3	-69.4	3.8	8.45e-01	0	39	104	0	72	32048
2026-01-06 02:56:18.17	192.43	28.28	-50.3	-69.4	3.8	8.46e-01	0	39	104	0	72	32056
2026-01-06 02:56:18.89	192.01	28.34	-50.3	-69.5	3.8	8.46e-01	0	39	104	0	72	32193
2026-01-06 02:56:20.18	191.26	28.44	-50.3	-69.4	3.8	8.47e-01	0	39	104	0	72	32069
2026-01-06 02:56:20.90	190.84	28.49	-50.3	-69.4	3.8	8.46e-01	0	40	104	0	72	31932
2026-01-06 02:56:22.19	190.08	28.59	-50.3	-69.4	3.8	8.46e-01	0	39	104	0	72	32054
2026-01-06 02:56:22.90	189.66	28.64	-50.3	-69.5	3.8	8.46e-01	0	40	104	0	72	32192
2026-01-06 02:56:24.19	188.90	28.72	-50.3	-69.4	3.8	8.47e-01	0	40	104	0	72	32126
2026-01-06 02:56:24.91	188.47	28.77	-50.3	-69.4	3.8	8.47e-01	0	39	104	0	72	32114
2026-01-06 02:56:26.20	187.69	28.85	-50.3	-69.5	3.8	8.47e-01	0	39	104	0	72	32200
2026-01-06 02:56:26.92	187.26	28.89	-50.3	-69.4	3.8	8.46e-01	0	40	104	0	72	32078
2026-01-06 02:56:28.21	186.48	28.96	-50.3	-69.4	3.8	8.47e-01	0	40	104	0	72	32017
2026-01-06 02:56:28.93	186.04	29.00	-50.3	-69.4	3.8	8.47e-01	0	39	104	0	72	32131
2026-01-06 02:56:30.22	185.26	29.06	-50.3	-69.5	3.8	8.48e-01	0	39	104	0	72	32229
2026-01-06 02:56:30.93	184.83	29.09	-50.3	-69.4	3.8	8.48e-01	0	39	104	0	72	32144
2026-01-06 02:56:32.23	184.03	29.15	-50.3	-69.4	3.8	8.48e-01	0	39	104	0	72	32175
2026-01-06 02:56:32.94	183.60	29.18	-50.3	-69.5	3.8	8.48e-01	0	39	104	0	72	32196
2026-01-06 02:56:34.23	182.80	29.22	-50.3	-69.5	3.8	8.47e-01	0	40	104	0	72	32203
2026-01-06 02:56:34.95	182.36	29.25	-50.3	-69.4	3.8	8.47e-01	0	39	104	0	72	32119
2026-01-06 02:56:36.24	181.56	29.28	-50.3	-69.4	3.8	8.47e-01	0	39	104	0	72	32123
2026-01-06 02:56:36.96	181.11	29.30	-50.3	-69.5	3.8	8.48e-01	0	39	104	0	72	32180
2026-01-06 02:56:38.25	180.31	29.33	-50.3	-69.5	3.8	8.47e-01	0	39	104	0	72	32190
2026-01-06 02:56:38.97	179.87	29.35	-50.3	-69.4	3.8	8.47e-01	0	39	104	0	72	32168
2026-01-06 02:56:40.26	179.06	29.37	-50.3	-69.5	3.8	8.47e-01	0	39	104	0	72	32184
2026-01-06 02:56:40.97	178.62	29.38	-50.3	-69.5	3.8	8.48e-01	0	39	104	0	72	32197
2026-01-06 02:56:42.27	177.81	29.39	-50.3	-69.4	3.8	8.48e-01	0	40	104	0	72	32115
2026-01-06 02:56:42.98	177.37	29.39	-50.3	-69.4	3.8	8.46e-01	0	39	104	0	72	32159
2026-01-06 02:56:44.27	176.56	29.39	-50.3	-69.4	3.8	8.46e-01	0	39	104	0	72	32133
2026-01-06 02:56:44.99	176.11	29.39	-50.3	-69.4	3.8	8.46e-01	0	39	104	0	72	32163
2026-01-06 02:56:46.28	175.31	29.39	-50.3	-69.5	3.8	8.45e-01	0	40	104	0	72	32205
2026-01-06 02:56:47.00	174.86	29.38	-50.3	-69.4	3.8	8.47e-01	0	39	104	0	72	32107
2026-01-06 02:56:48.29	174.06	29.37	-50.3	-69.4	3.8	8.47e-01	0	39	104	0	72	32129
2026-01-06 02:56:49.01	173.61	29.36	-50.3	-69.4	3.8	8.47e-01	0	39	104	0	72	32168
2026-01-06 02:56:50.30	172.81	29.33	-50.3	-69.5	3.8	8.46e-01	0	39	104	0	72	32215
2026-01-06 02:56:51.01	172.37	29.32	-50.3	-69.5	3.8	8.46e-01	0	39	104	0	72	32248
2026-01-06 02:56:52.30	171.57	29.29	-50.3	-69.4	3.8	8.46e-01	0	39	104	0	72	32123
2026-01-06 02:56:53.02	171.12	29.26	-50.3	-69.5	3.8	8.47e-01	0	39	104	0	72	32256
2026-01-06 02:56:54.31	170.33	29.22	-50.3	-69.4	3.8	8.47e-01	0	39	104	0	72	32141
2026-01-06 02:56:55.03	169.88	29.20	-50.3	-69.4	3.8	8.47e-01	0	39	104	0	72	32141
2026-01-06 02:56:56.32	169.09	29.15	-50.3	-69.4	3.8	8.48e-01	0	39	104	0	72	32152
2026-01-06 02:56:57.04	168.65	29.12	-50.3	-69.5	3.8	8.47e-01	0	40	104	0	72	32254
2026-01-06 02:56:58.33	167.86	29.06	-50.3	-69.5	3.8	8.46e-01	0	39	104	0	72	32221
2026-01-06 02:56:59.05	167.42	29.03	-50.3	-69.4	3.8	8.46e-01	0	39	104	0	72	32144
2026-01-06 02:57:00.34	166.64	28.96	-50.3	-69.5	3.8	8.47e-01	0	39	104	0	72	32195
2026-01-06 02:57:01.06	166.21	28.92	-50.3	-69.4	3.8	8.47e-01	0	39	104	0	72	32067
2026-01-06 02:57:02.35	165.43	28.85	-50.3	-69.4	3.8	8.49e-01	0	39	104	0	72	32152
2026-01-06 02:57:03.06	165.00	28.81	-50.3	-69.5	3.8	8.48e-01	0	40	104	0	72	32199
2026-01-06 02:57:04.35	164.24	28.72	-50.3	-69.4	3.8	8.46e-01	0	39	104	0	72	32154
2026-01-06 02:57:05.07	163.81	28.68	-50.3	-69.5	3.8	8.46e-01	0	39	104	0	72	32192
2026-01-06 02:57:06.36	163.05	28.59	-50.3	-69.5	3.8	8.47e-01	0	39	104	0	72	32199
2026-01-06 02:57:07.08	162.62	28.54	-50.3	-69.5	3.8	8.47e-01	0	39	104	0	72	32247
2026-01-06 02:57:08.37	161.87	28.44	-50.3	-69.4	3.8	8.47e-01	0	39	104	0	72	32143
2026-01-06 02:57:09.09	161.45	28.38	-50.3	-69.5	3.8	8.48e-01	0	39	104	0	72	32191
2026-01-06 02:57:10.38	160.70	28.28	-50.3	-69.5	3.8	8.46e-01	0	39	104	0	72	32213
2026-01-06 02:57:11.21	160.22	28.21	-50.3	-69.5	3.8	8.46e-01	0	39	104	0	72	32276
2026-01-06 02:57:12.67	159.39	28.09	-50.3	-69.5	3.8	8.47e-01	0	39	104	0	72	32250
2026-01-06 02:57:13.39	158.98	28.02	-50.3	-69.5	3.8	8.47e-01	0	39	104	0	72	32236
2026-01-06 02:57:14.89	158.14	27.89	-50.3	-69.5	3.8	8.47e-01	0	39	104	0	72	32206
2026-01-06 02:57:15.60	157.74	27.82	-50.3	-69.4	3.8	8.47e-01	0	40	104	0	72	32142
2026-01-06 02:57:16.89	157.02	27.70	-50.3	-69.4	3.8	8.46e-01	0	40	104	0	72	32175
2026-01-06 02:57:17.61	156.62	27.63	-50.3	-69.4	3.8	8.46e-01	0	39	104	0	72	32135
2026-01-06 02:57:18.90	155.92	27.50	-50.3	-69.4	3.8	8.47e-01	0	39	104	0	72	32177
2026-01-06 02:57:19.61	155.53	27.43	-50.3	-69.5	3.8	8.47e-01	0	39	104	0	72	32216
2026-01-06 02:57:20.91	154.83	27.29	-50.3	-69.4	3.8	8.45e-01	0	40	104	0	72	32159
2026-01-06 02:57:21.63	154.44	27.21	-50.3	-69.5	3.8	8.45e-01	0	39	104	0	72	32183
2026-01-06 02:57:22.91	153.76	27.07	-50.3	-69.5	3.8	8.46e-01	0	39	104	0	72	32183
2026-01-06 02:57:23.63	153.38	27.00	-50.3	-69.5	3.8	8.47e-01	0	39	104	0	72	32202
2026-01-06 02:57:24.93	152.70	26.85	-50.3	-69.5	3.8	8.47e-01	0	39	104	0	72	32186
2026-01-06 02:57:25.64	152.33	26.77	-50.3	-69.5	3.8	8.47e-01	0	39	104	0	72	32305
2026-01-06 02:57:26.93	151.67	26.62	-50.3	-69.5	3.8	8.47e-01	0	39	104	0	72	32224
2026-01-06 02:57:27.65	151.30	26.54	-50.3	-69.5	3.8	8.47e-01	0	40	104	0	72	32196
2026-01-06 02:57:28.94	150.65	26.38	-50.3	-69.5	3.8	8.49e-01	0	39	104	0	72	32236
2026-01-06 02:57:29.66	150.29	26.30	-50.3	-69.5	3.8	8.49e-01	0	40	104	0	72	32221
2026-01-06 02:57:30.95	149.64	26.14	-50.3	-69.5	3.8	8.46e-01	0	39	104	0	72	32237
2026-01-06 02:57:31.67	149.29	26.05	-50.3	-69.5	3.8	8.46e-01	0	39	104	0	72	32236
2026-01-06 02:57:32.96	148.66	25.89	-50.3	-69.4	3.8	8.48e-01	0	39	104	0	72	32124
2026-01-06 02:57:33.68	148.31	25.80	-50.3	-69.4	3.8	8.47e-01	0	39	104	0	72	32161
2026-01-06 02:57:34.97	147.69	25.64	-50.3	-69.5	3.8	8.46e-01	0	39	104	0	72	32218
2026-01-06 02:57:35.69	147.35	25.55	-50.3	-69.5	3.8	8.46e-01	0	39	104	0	72	32294
2026-01-06 02:57:36.98	146.74	25.38	-50.3	-69.5	3.8	8.47e-01	0	39	104	0	72	32312
2026-01-06 02:57:37.69	146.41	25.29	-50.3	-69.5	3.8	8.46e-01	0	39	104	0	72	32216
2026-01-06 02:57:38.98	145.81	25.12	-50.3	-69.5	3.8	8.46e-01	0	39	104	0	72	32200
2026-01-06 02:57:39.70	145.48	25.03	-50.3	-69.5	3.8	8.47e-01	0	39	104	0	72	32201
2026-01-06 02:57:40.99	144.90	24.86	-50.3	-69.5	3.8	8.48e-01	0	40	104	0	72	32226
2026-01-06 02:57:41.71	144.58	24.76	-50.3	-69.5	3.8	8.48e-01	0	39	104	0	72	32192
2026-01-06 02:57:43.00	144.00	24.59	-50.3	-69.5	3.8	8.47e-01	0	39	104	0	72	32213
2026-01-06 02:57:43.72	143.69	24.49	-50.3	-69.4	3.8	8.46e-01	0	40	104	0	72	32163
2026-01-06 02:57:45.01	143.12	24.32	-50.3	-69.5	3.8	8.47e-01	0	39	104	0	72	32276
2026-01-06 02:57:45.72	142.82	24.22	-50.3	-69.4	3.8	8.47e-01	0	39	104	0	72	32133
2026-01-06 02:57:47.01	142.27	24.04	-50.3	-69.4	3.8	8.46e-01	0	40	104	0	72	32146
2026-01-06 02:57:47.73	141.96	23.94	-50.3	-69.5	3.8	8.46e-01	0	39	104	0	72	32252
2026-01-06 02:57:49.02	141.42	23.77	-50.3	-69.5	3.8	8.47e-01	0	40	104	0	72	32271
2026-01-06 02:57:49.74	141.12	23.67	-50.3	-69.5	3.8	8.47e-01	0	39	104	0	72	32219
2026-01-06 02:57:51.03	140.60	23.49	-50.3	-69.5	3.8	8.47e-01	0	39	104	0	72	32346
2026-01-06 02:57:51.75	140.30	23.39	-50.3	-69.5	3.8	8.47e-01	0	40	104	0	72	32214
2026-01-06 02:57:53.04	139.79	23.21	-50.2	-69.5	3.8	8.48e-01	0	39	104	0	72	32267
2026-01-06 02:57:53.76	139.50	23.11	-50.3	-69.5	3.8	8.47e-01	0	39	104	0	72	32192
2026-01-06 02:57:55.05	138.99	22.93	-50.3	-69.4	3.8	8.47e-01	0	40	104	0	72	32172
2026-01-06 02:57:55.76	138.72	22.83	-50.3	-69.5	3.8	8.47e-01	0	39	104	0	72	32266
2026-01-06 02:57:57.06	138.22	22.65	-50.3	-69.5	3.8	8.47e-01	0	39	104	0	72	32222
2026-01-06 02:57:57.77	137.95	22.55	-50.3	-69.5	3.8	8.47e-01	0	39	104	0	72	32273
2026-01-06 02:57:59.07	137.46	22.36	-50.3	-69.5	3.8	8.46e-01	0	40	104	0	72	32218
2026-01-06 02:57:59.78	137.19	22.26	-50.3	-69.5	3.8	8.47e-01	0	40	104	0	72	32246
2026-01-06 02:58:01.07	136.72	22.08	-50.3	-69.5	3.8	8.48e-01	0	39	104	0	72	32248
2026-01-06 02:58:01.79	136.46	21.98	-50.3	-69.4	3.8	8.48e-01	0	39	104	0	72	32135
2026-01-06 02:58:03.08	135.99	21.80	-50.3	-69.5	3.8	8.46e-01	0	39	104	0	72	32199
2026-01-06 02:58:03.80	135.74	21.70	-50.3	-69.5	3.8	8.46e-01	0	40	104	0	72	32240
2026-01-06 02:58:05.09	135.28	21.52	-50.3	-69.5	3.8	8.47e-01	0	39	104	0	72	32316
2026-01-06 02:58:05.81	135.03	21.42	-50.3	-69.5	3.8	8.46e-01	0	40	104	0	72	32189
2026-01-06 02:58:07.10	134.58	21.23	-50.3	-69.4	3.8	8.47e-01	0	39	104	0	72	32154
2026-01-06 02:58:07.81	134.34	21.13	-50.3	-69.5	3.8	8.47e-01	0	40	104	0	72	32261
2026-01-06 02:58:09.10	133.91	20.95	-50.3	-69.5	3.8	8.47e-01	0	39	104	0	72	32218
2026-01-06 02:58:09.82	133.67	20.85	-50.3	-69.5	3.8	8.48e-01	0	40	104	0	72	32202
2026-01-06 02:58:11.11	133.24	20.67	-50.3	-69.5	3.8	8.48e-01	0	39	104	0	72	32237
2026-01-06 02:58:11.83	133.00	20.57	-50.3	-69.5	3.8	8.46e-01	0	40	104	0	72	32237
2026-01-06 02:58:13.12	132.59	20.39	-50.3	-69.5	3.8	8.47e-01	0	39	104	0	72	32190
2026-01-06 02:58:13.84	132.36	20.29	-50.3	-69.5	3.8	8.47e-01	0	40	104	0	72	32240
2026-01-06 02:58:15.13	131.95	20.11	-50.3	-69.5	3.8	8.47e-01	0	40	104	0	72	32260
2026-01-06 02:58:15.85	131.72	20.01	-50.3	-69.5	3.8	8.46e-01	0	39	104	0	72	32337
2026-01-06 02:58:17.14	131.33	19.84	-50.3	-69.5	3.8	8.48e-01	0	39	104	0	72	32188
2026-01-06 02:58:17.85	131.11	19.74	-50.3	-69.5	3.8	8.48e-01	0	39	104	0	72	32270
2026-01-06 02:58:19.15	130.71	19.56	-50.3	-69.5	3.8	8.48e-01	0	40	104	0	72	32251
2026-01-06 02:58:19.86	130.50	19.46	-50.3	-69.5	3.8	8.48e-01	0	40	104	0	72	32196
2026-01-06 02:58:21.15	130.12	19.28	-50.3	-69.5	3.8	8.46e-01	0	40	104	0	72	32227
2026-01-06 02:58:21.87	129.91	19.19	-50.3	-69.5	3.8	8.46e-01	0	39	104	0	72	32221
2026-01-06 02:58:23.16	129.54	19.01	-50.3	-69.4	3.8	8.47e-01	0	39	104	0	72	32166
2026-01-06 02:58:24.02	129.29	18.89	-50.3	-69.4	3.8	8.47e-01	0	39	104	0	72	32166
2026-01-06 02:58:25.17	128.96	18.74	-50.3	-69.5	3.8	8.47e-01	0	40	104	0	72	32209
2026-01-06 02:58:26.03	128.72	18.62	-50.3	-69.5	3.8	8.47e-01	0	39	104	0	72	32216
2026-01-06 02:58:27.18	128.41	18.47	-50.3	-69.5	3.8	8.46e-01	0	39	104	0	72	32219
2026-01-06 02:58:28.30	128.10	18.32	-50.3	-69.5	3.8	8.46e-01	0	40	104	0	72	32291
2026-01-06 02:58:29.35	127.82	18.18	-50.3	-69.5	3.8	8.47e-01	0	39	104	0	72	32222
2026-01-06 02:58:30.40	127.53	18.04	-50.3	-69.5	3.8	8.46e-01	0	40	104	0	72	32223
2026-01-06 02:58:31.46	127.25	17.90	-50.3	-69.4	3.8	8.46e-01	0	40	104	0	72	32161
2026-01-06 02:58:32.45	127.00	17.77	-50.3	-69.5	3.8	8.47e-01	0	39	104	0	72	32294
2026-01-06 02:58:33.63	126.69	17.61	-50.3	-69.5	3.8	8.48e-01	0	40	104	0	72	32314
2026-01-06 02:58:34.49	126.47	17.50	-50.3	-69.5	3.8	8.47e-01	0	40	104	0	72	32260
2026-01-06 02:58:35.64	126.18	17.35	-50.3	-69.5	3.8	8.47e-01	0	39	104	0	72	32276
2026-01-06 02:58:36.50	125.97	17.24	-50.3	-69.5	3.8	8.46e-01	0	39	104	0	72	32190
2026-01-06 02:58:37.65	125.68	17.09	-50.3	-69.5	3.8	8.47e-01	0	39	104	0	72	32334
2026-01-06 02:58:38.51	125.47	16.98	-50.3	-69.5	3.8	8.47e-01	0	39	104	0	72	32220
2026-01-06 02:58:39.66	125.19	16.83	-50.3	-69.5	3.8	8.47e-01	0	39	104	0	72	32242
2026-01-06 02:58:40.52	124.99	16.72	-50.3	-69.5	3.8	8.46e-01	0	39	104	0	72	32202
2026-01-06 02:58:41.67	124.71	16.57	-50.3	-69.5	3.8	8.46e-01	0	39	104	0	72	32238
2026-01-06 02:58:42.53	124.51	16.46	-50.3	-69.5	3.8	8.47e-01	0	39	104	0	72	32290
2026-01-06 02:58:43.68	124.25	16.32	-50.3	-69.5	3.8	8.47e-01	0	39	104	0	72	32268
2026-01-06 02:58:44.54	124.05	16.21	-50.3	-69.5	3.8	8.47e-01	0	39	104	0	72	32248
2026-01-06 02:58:45.69	123.79	16.07	-50.3	-69.5	3.8	8.47e-01	0	39	104	0	72	32255
2026-01-06 02:58:46.55	123.60	15.96	-50.3	-69.5	3.8	8.47e-01	0	39	104	0	72	32267
2026-01-06 02:58:47.69	123.34	15.82	-50.3	-69.5	3.8	8.47e-01	0	39	104	0	72	32368
2026-01-06 02:58:48.56	123.15	15.71	-50.3	-69.5	3.8	8.47e-01	0	39	104	0	72	32258
2026-01-06 02:58:49.70	122.90	15.57	-50.3	-69.5	3.8	8.46e-01	0	39	104	0	72	32257
2026-01-06 02:58:50.56	122.72	15.47	-50.3	-69.4	3.8	8.47e-01	0	39	104	0	72	32095
2026-01-06 02:58:51.71	122.47	15.32	-50.3	-69.5	3.8	8.47e-01	0	40	104	0	72	32186
2026-01-06 02:58:52.57	122.29	15.22	-50.3	-69.5	3.8	8.47e-01	0	40	104	0	72	32232
2026-01-06 02:58:53.72	122.05	15.08	-50.3	-69.5	3.8	8.48e-01	0	39	104	0	72	32197
2026-01-06 02:58:54.58	121.87	14.98	-50.3	-69.5	3.8	8.48e-01	0	39	104	0	72	32401
2026-01-06 02:58:55.73	121.64	14.84	-50.3	-69.5	3.8	8.46e-01	0	39	104	0	72	32189
2026-01-06 02:58:56.59	121.46	14.74	-50.3	-69.4	3.8	8.47e-01	0	39	104	0	72	32171
2026-01-06 02:58:57.74	121.23	14.60	-50.3	-69.5	3.8	8.47e-01	0	39	104	0	72	32265
2026-01-06 02:58:58.60	121.06	14.50	-50.3	-69.5	3.8	8.47e-01	0	39	104	0	72	32295
2026-01-06 02:58:59.76	120.84	14.36	-50.3	-69.5	3.8	8.48e-01	0	39	104	0	72	32264
2026-01-06 02:59:00.62	120.67	14.26	-50.3	-69.5	3.8	8.48e-01	0	39	104	0	72	32273
2026-01-06 02:59:01.77	120.45	14.13	-50.3	-69.5	3.8	8.47e-01	0	39	104	0	72	32295
2026-01-06 02:59:02.63	120.28	14.03	-50.3	-69.4	3.8	8.47e-01	0	40	104	0	72	32159
2026-01-06 02:59:03.78	120.07	13.90	-50.3	-69.5	3.8	8.48e-01	0	39	104	0	72	32214
2026-01-06 02:59:04.64	119.91	13.80	-50.3	-69.5	3.8	8.48e-01	0	39	104	0	72	32237
2026-01-06 02:59:05.79	119.70	13.67	-50.3	-69.5	3.8	8.47e-01	0	39	104	0	72	32215
2026-01-06 02:59:06.65	119.54	13.57	-50.3	-69.5	3.8	8.48e-01	0	39	104	0	72	32237
2026-01-06 02:59:07.80	119.33	13.44	-50.3	-69.4	3.8	8.48e-01	0	39	104	0	72	32142
2026-01-06 02:59:08.66	119.18	13.34	-50.3	-69.5	3.8	8.46e-01	0	39	104	0	72	32238
2026-01-06 02:59:09.80	118.97	13.21	-50.3	-69.4	3.8	8.46e-01	0	39	104	0	72	32174
2026-01-06 02:59:10.66	118.82	13.12	-50.3	-69.5	3.8	8.46e-01	0	39	104	0	72	32231
2026-01-06 02:59:11.81	118.62	12.99	-50.3	-69.4	3.8	8.46e-01	0	39	104	0	72	32176
2026-01-06 02:59:12.67	118.48	12.90	-50.3	-69.5	3.8	8.48e-01	0	39	104	0	72	32201
2026-01-06 02:59:13.82	118.28	12.77	-50.3	-69.5	3.8	8.48e-01	0	39	104	0	72	32266
2026-01-06 02:59:14.68	118.13	12.68	-50.3	-69.4	3.8	8.48e-01	0	39	104	0	72	32176
2026-01-06 02:59:15.83	117.94	12.55	-50.3	-69.4	3.8	8.47e-01	0	39	104	0	72	32151
2026-01-06 02:59:16.69	117.80	12.46	-50.3	-69.4	3.8	8.47e-01	0	39	104	0	72	32164
2026-01-06 02:59:17.84	117.61	12.33	-50.3	-69.5	3.8	8.47e-01	0	40	104	0	72	32219
2026-01-06 02:59:18.70	117.47	12.24	-50.3	-69.4	3.8	8.48e-01	0	40	104	0	72	32177
2026-01-06 02:59:19.84	117.29	12.12	-50.3	-69.5	3.8	8.46e-01	0	39	104	0	72	32298
2026-01-06 02:59:20.71	117.15	12.03	-50.3	-69.5	3.8	8.46e-01	0	39	104	0	72	32213
2026-01-06 02:59:21.85	116.97	11.91	-50.3	-69.5	3.8	8.46e-01	0	40	104	0	72	32278
2026-01-06 02:59:22.71	116.84	11.82	-50.3	-69.5	3.8	8.46e-01	0	39	104	0	72	32228
2026-01-06 02:59:23.86	116.66	11.70	-50.3	-69.5	3.8	8.46e-01	0	40	104	0	72	32241
2026-01-06 02:59:24.72	116.53	11.61	-50.3	-69.5	3.8	8.46e-01	0	39	104	0	72	32231
2026-01-06 02:59:25.87	116.35	11.49	-50.3	-69.5	3.8	8.47e-01	0	40	104	0	72	32215
2026-01-06 02:59:26.73	116.22	11.40	-50.3	-69.5	3.8	8.47e-01	0	39	104	0	72	32316
2026-01-06 02:59:27.88	116.05	11.28	-50.3	-69.5	3.8	8.49e-01	0	40	104	0	72	32226
2026-01-06 02:59:28.74	115.92	11.19	-50.3	-69.5	3.8	8.47e-01	0	40	104	0	72	32184
2026-01-06 02:59:29.89	115.76	11.07	-50.3	-69.5	3.8	8.46e-01	0	39	104	0	72	32200
2026-01-06 02:59:30.75	115.63	10.99	-50.3	-69.5	3.8	8.46e-01	0	39	104	0	72	32282
2026-01-06 02:59:31.89	115.47	10.87	-50.3	-69.5	3.8	8.48e-01	0	39	104	0	72	32206
2026-01-06 02:59:32.76	115.35	10.79	-50.3	-69.5	3.8	8.48e-01	0	40	104	0	72	32186
2026-01-06 02:59:33.90	115.18	10.67	-50.3	-69.4	3.8	8.46e-01	0	39	104	0	72	32165
2026-01-06 02:59:34.76	115.06	10.59	-50.3	-69.5	3.8	8.48e-01	0	39	104	0	72	32270
2026-01-06 02:59:35.91	114.91	10.47	-50.3	-69.4	3.8	8.46e-01	0	39	104	0	72	32130
2026-01-06 02:59:36.77	114.79	10.39	-50.3	-69.5	3.8	8.46e-01	0	39	104	0	72	32203
2026-01-06 02:59:37.92	114.63	10.27	-50.3	-69.5	3.8	8.47e-01	0	40	104	0	72	32184
2026-01-06 02:59:38.78	114.52	10.19	-50.3	-69.5	3.8	8.47e-01	0	39	104	0	72	32260
2026-01-06 02:59:39.92	114.36	10.08	-50.3	-69.5	3.8	8.47e-01	0	40	104	0	72	32232
2026-01-06 02:59:40.78	114.25	10.00	-50.3	-69.4	3.8	8.48e-01	0	39	104	0	72	32069
2026-01-06 02:59:41.93	114.10	9.89	-50.3	-69.4	3.8	8.47e-01	0	39	104	0	72	32164
2026-01-06 02:59:42.79	113.99	9.80	-50.3	-69.5	3.8	8.47e-01	0	39	104	0	72	32224
2026-01-06 02:59:43.94	113.84	9.69	-50.3	-69.5	3.8	8.46e-01	0	39	104	0	72	32298
2026-01-06 02:59:44.80	113.73	9.61	-50.3	-69.4	3.8	8.47e-01	0	40	104	0	72	32140
2026-01-06 02:59:45.95	113.59	9.50	-50.3	-69.5	3.8	8.48e-01	0	39	104	0	72	32182
2026-01-06 02:59:46.81	113.48	9.42	-50.3	-69.5	3.8	8.48e-01	0	39	104	0	72	32182
2026-01-06 02:59:47.96	113.34	9.32	-50.3	-69.4	3.8	8.47e-01	0	40	104	0	72	32088
2026-01-06 02:59:48.82	113.23	9.24	-50.3	-69.4	3.8	8.47e-01	0	40	104	0	72	32133
2026-01-06 02:59:49.97	113.09	9.13	-50.3	-69.5	3.8	8.47e-01	0	39	104	0	72	32198
2026-01-06 02:59:50.83	112.99	9.05	-50.3	-69.5	3.8	8.46e-01	0	39	104	0	72	32187
2026-01-06 02:59:51.98	112.85	8.94	-50.3	-69.5	3.8	8.47e-01	0	39	104	0	72	32181
2026-01-06 02:59:52.84	112.75	8.87	-50.3	-69.4	3.8	8.47e-01	0	39	104	0	72	32178
2026-01-06 02:59:53.98	112.61	8.76	-50.3	-69.4	3.8	8.45e-01	0	39	104	0	72	32174
2026-01-06 02:59:54.84	112.51	8.68	-50.3	-69.4	3.8	8.47e-01	0	39	104	0	72	32112
2026-01-06 02:59:55.99	112.38	8.58	-50.3	-69.4	3.8	8.47e-01	0	39	104	0	72	32149
2026-01-06 02:59:56.85	112.28	8.50	-50.3	-69.4	3.8	8.47e-01	0	39	104	0	72	32163
2026-01-06 02:59:58.00	112.15	8.40	-50.3	-69.4	3.8	8.47e-01	0	39	104	0	72	32128
2026-01-06 02:59:58.86	112.05	8.32	-50.3	-69.5	3.8	8.47e-01	0	39	104	0	72	32218
2026-01-06 03:00:00.01	111.92	8.22	-50.3	-69.5	3.8	8.47e-01	0	40	104	0	72	32212
2026-01-06 03:00:00.87	111.83	8.15	-50.3	-69.4	3.8	8.48e-01	0	39	104	0	72	32178
2026-01-06 03:00:02.02	111.70	8.04	-50.3	-69.5	3.8	8.46e-01	0	39	104	0	72	32213
2026-01-06 03:00:02.88	111.61	7.97	-50.3	-69.4	3.8	8.46e-01	0	39	104	0	72	32151
2026-01-06 03:00:04.03	111.48	7.87	-50.3	-69.5	3.8	8.45e-01	0	40	104	0	72	32239
2026-01-06 03:00:04.89	111.39	7.79	-50.3	-69.5	3.8	8.48e-01	0	39	104	0	72	32195
2026-01-06 03:00:06.03	111.27	7.70	-50.3	-69.5	3.8	8.48e-01	0	39	104	0	72	32185
2026-01-06 03:00:06.90	111.18	7.62	-50.3	-69.4	3.8	8.46e-01	0	40	104	0	72	32114
2026-01-06 03:00:08.04	111.06	7.52	-50.3	-69.4	3.8	8.48e-01	0	39	104	0	72	32174
2026-01-06 03:00:08.90	110.97	7.45	-50.3	-69.5	3.8	8.48e-01	0	39	104	0	72	32188
2026-01-06 03:00:10.05	110.85	7.35	-50.3	-69.5	3.8	8.47e-01	0	40	104	0	72	32234
2026-01-06 03:00:10.91	110.77	7.28	-50.3	-69.4	3.8	8.47e-01	0	39	104	0	72	32082
2026-01-06 03:00:12.06	110.65	7.18	-50.3	-69.4	3.8	8.47e-01	0	39	104	0	72	32179
2026-01-06 03:00:12.92	110.56	7.11	-50.3	-69.5	3.8	8.47e-01	0	39	104	0	72	32255
2026-01-06 03:00:14.07	110.45	7.01	-50.3	-69.5	3.8	8.47e-01	0	39	104	0	72	32182
2026-01-06 03:00:14.93	110.36	6.94	-50.3	-69.5	3.8	8.47e-01	0	39	104	0	72	32212
2026-01-06 03:00:16.08	110.25	6.85	-50.3	-69.5	3.8	8.46e-01	0	39	104	0	72	32259
2026-01-06 03:00:16.94	110.17	6.78	-50.3	-69.4	3.8	8.47e-01	0	40	104	0	72	32168
2026-01-06 03:00:18.08	110.06	6.68	-50.3	-69.4	3.8	8.47e-01	0	39	104	0	72	32176
2026-01-06 03:00:18.95	109.97	6.61	-50.3	-69.4	3.8	8.47e-01	0	39	104	0	72	32148
2026-01-06 03:00:20.09	109.87	6.52	-50.3	-69.4	3.8	8.47e-01	0	40	104	0	72	32171
2026-01-06 03:00:20.95	109.79	6.45	-50.3	-69.5	3.8	8.47e-01	0	39	104	0	72	32204
2026-01-06 03:00:22.10	109.68	6.36	-50.3	-69.4	3.8	8.47e-01	0	40	104	0	72	32142
2026-01-06 03:00:22.96	109.60	6.29	-50.3	-69.5	3.8	8.47e-01	0	39	104	0	72	32189
2026-01-06 03:00:24.11	109.49	6.20	-50.3	-69.4	3.8	8.46e-01	0	39	104	0	72	32106
2026-01-06 03:00:24.97	109.41	6.13	-50.3	-69.5	3.8	8.46e-01	0	40	104	0	72	32182
2026-01-06 03:00:26.12	109.31	6.04	-50.3	-69.5	3.8	8.47e-01	0	39	104	0	72	32232
2026-01-06 03:00:26.98	109.23	5.97	-50.3	-69.4	3.8	8.47e-01	0	40	104	0	72	32174
2026-01-06 03:00:28.13	109.13	5.88	-50.3	-69.5	3.8	8.47e-01	0	39	104	0	72	32228
2026-01-06 03:00:28.99	109.06	5.81	-50.3	-69.5	3.8	8.47e-01	0	39	104	0	72	32240
2026-01-06 03:00:30.13	108.96	5.72	-50.3	-69.4	3.8	8.46e-01	0	40	104	0	72	32098
2026-01-06 03:00:31.00	108.88	5.65	-50.3	-69.4	3.8	8.46e-01	0	40	104	0	72	32159
2026-01-06 03:00:32.14	108.78	5.56	-50.3	-69.5	3.8	8.46e-01	0	40	104	0	72	32249
2026-01-06 03:00:33.00	108.71	5.50	-50.3	-69.4	3.8	8.47e-01	0	40	104	0	72	32144
2026-01-06 03:00:34.15	108.61	5.41	-50.3	-69.4	3.8	8.47e-01	0	40	104	0	72	32170
2026-01-06 03:00:35.01	108.54	5.34	-50.3	-69.5	3.8	8.47e-01	0	39	104	0	72	32202
2026-01-06 03:00:36.16	108.44	5.25	-50.3	-69.5	3.8	8.46e-01	0	39	104	0	72	32245

#Closed at: 2026-01-06 03:00:37
#Recorded file [0 MB]: D:/Data/31040_260106_055247.dat