passes_logs/2026/01/06/T1/T1__20260106_221530_NOAA_21_JPSS-2_rec.log

#Pass ID: 20260106_221530_NOAA 21 (JPSS-2)
#Satellite: NOAA 21 (JPSS-2)
#Configuration: NOAA 21
#almurnet v.1.7.20251203
#Start time: 2026-01-06 22:15:30

#Version: 2.0.20230620
#Station: T1
#Location: 37.570604 lon 55.790049 lat
#TLE: 1 54234U 22150A   26005.56767909  .00000152  00000+0  92756-4 0  9990
#TLE: 2 54234  98.7490 306.5820 0001036 340.2747  19.8389 14.19532370163472

#Time	Az	El	Level	Level2	SNR	BER	BlckErr	Temp	State	Recorded	gain1	gain2
2026-01-06 22:15:30.25	28.49	4.97	-48.1	-62.1	3.8	1.49e+00	0	36	0	0	68	17366
2026-01-06 22:15:31.24	28.57	5.03	-47.9	-61.9	3.8	1.49e+00	0	36	104	0	66	19008
2026-01-06 22:15:32.25	28.65	5.09	-47.9	-61.9	3.8	1.49e+00	0	36	104	0	66	19061
2026-01-06 22:15:33.25	28.74	5.15	-47.9	-61.9	3.8	1.49e+00	0	36	104	0	66	19040
2026-01-06 22:15:34.26	28.82	5.21	-47.9	-61.8	3.8	1.49e+00	0	36	104	0	66	18809
2026-01-06 22:15:35.26	28.90	5.27	-48.0	-61.8	3.8	1.49e+00	0	36	104	0	66	18774
2026-01-06 22:15:36.27	28.99	5.33	-48.0	-61.9	3.8	1.49e+00	0	36	104	0	66	19078
2026-01-06 22:15:37.27	29.07	5.39	-47.9	-61.9	3.8	1.49e+00	0	36	104	0	66	19101
2026-01-06 22:15:38.27	29.16	5.45	-48.0	-62.0	3.8	1.49e+00	0	36	104	0	66	19212
2026-01-06 22:15:39.28	29.24	5.51	-48.0	-62.0	3.8	1.49e+00	0	36	104	0	66	19208
2026-01-06 22:15:40.28	29.33	5.57	-47.9	-61.8	3.8	1.49e+00	0	36	104	0	66	18876
2026-01-06 22:15:41.29	29.41	5.63	-47.9	-61.9	3.8	1.49e+00	0	37	104	0	66	19008
2026-01-06 22:15:42.29	29.50	5.70	-47.9	-61.8	3.8	1.49e+00	0	37	104	0	66	18835
2026-01-06 22:15:43.30	29.59	5.76	-47.9	-61.9	3.8	1.49e+00	0	37	104	0	66	18952
2026-01-06 22:15:44.30	29.67	5.82	-47.9	-61.9	3.8	1.49e+00	0	37	104	0	66	18963
2026-01-06 22:15:45.31	29.76	5.88	-47.9	-61.9	3.8	1.49e+00	0	36	104	0	66	19016
2026-01-06 22:15:46.31	29.85	5.94	-47.9	-61.7	3.8	1.49e+00	0	37	104	0	66	18625
2026-01-06 22:15:47.31	29.94	6.00	-47.9	-61.7	3.8	1.49e+00	0	37	104	0	66	18730
2026-01-06 22:15:48.32	30.02	6.06	-47.9	-61.8	3.8	1.49e+00	0	37	104	0	66	18806
2026-01-06 22:15:49.32	30.11	6.12	-47.9	-61.6	3.8	1.49e+00	0	37	104	0	66	18501
2026-01-06 22:15:50.33	30.20	6.19	-47.9	-61.7	3.8	1.49e+00	0	37	104	0	66	18716
2026-01-06 22:15:51.33	30.29	6.25	-47.9	-61.7	3.8	1.49e+00	0	37	104	0	66	18681
2026-01-06 22:15:52.33	30.38	6.31	-47.9	-61.7	3.8	1.49e+00	0	37	104	0	66	18699
2026-01-06 22:15:53.34	30.47	6.37	-47.8	-61.7	3.8	1.49e+00	0	37	104	0	66	18572
2026-01-06 22:15:54.34	30.56	6.43	-47.8	-61.7	3.8	1.49e+00	0	37	104	0	66	18619
2026-01-06 22:15:55.35	30.65	6.49	-47.9	-61.6	3.8	1.49e+00	0	37	104	0	66	18371
2026-01-06 22:15:56.35	30.74	6.56	-47.9	-61.8	3.8	1.49e+00	0	37	104	0	66	18873
2026-01-06 22:15:57.36	30.83	6.62	-47.9	-61.7	3.9	1.49e+00	0	37	104	0	66	18574
2026-01-06 22:15:58.36	30.93	6.68	-47.9	-61.8	3.8	1.49e+00	0	37	104	0	66	18920
2026-01-06 22:15:59.37	31.02	6.74	-47.9	-61.8	3.8	1.49e+00	0	37	104	0	66	18911
2026-01-06 22:16:00.37	31.11	6.81	-47.9	-61.8	3.8	1.49e+00	0	37	104	0	66	18890
2026-01-06 22:16:01.37	31.20	6.87	-47.9	-61.7	3.8	1.49e+00	0	37	104	0	66	18627
2026-01-06 22:16:02.38	31.30	6.93	-47.9	-61.7	3.8	1.49e+00	0	37	104	0	66	18632
2026-01-06 22:16:03.38	31.39	6.99	-47.9	-61.6	3.8	1.49e+00	0	37	104	0	66	18361
2026-01-06 22:16:04.39	31.48	7.06	-47.9	-61.5	3.8	1.49e+00	0	37	104	0	66	18283
2026-01-06 22:16:05.39	31.58	7.12	-47.8	-61.6	3.8	1.49e+00	0	37	104	0	66	18489
2026-01-06 22:16:06.40	31.67	7.18	-47.8	-61.6	3.8	1.49e+00	0	37	104	0	66	18504
2026-01-06 22:16:07.40	31.77	7.24	-47.8	-61.7	3.8	1.49e+00	0	37	104	0	66	18608
2026-01-06 22:16:08.40	31.86	7.31	-47.8	-61.6	3.8	1.49e+00	0	37	104	0	66	18467
2026-01-06 22:16:09.41	31.96	7.37	-47.9	-61.7	3.8	1.49e+00	0	37	104	0	66	18721
2026-01-06 22:16:10.41	32.06	7.43	-47.9	-61.9	3.8	1.49e+00	0	37	104	0	66	19009
2026-01-06 22:16:11.42	32.15	7.50	-47.9	-61.6	3.8	1.49e+00	0	37	104	0	66	18497
2026-01-06 22:16:12.42	32.25	7.56	-47.9	-61.5	3.8	1.49e+00	0	37	104	0	66	18241
2026-01-06 22:16:13.43	32.35	7.63	-47.9	-61.5	3.8	1.49e+00	0	37	104	0	66	18283
2026-01-06 22:16:14.43	32.45	7.69	-47.9	-61.4	3.8	1.49e+00	0	38	104	0	66	17964
2026-01-06 22:16:15.43	32.54	7.75	-47.9	-61.5	3.8	1.49e+00	0	37	104	0	66	18199
2026-01-06 22:16:16.44	32.64	7.82	-47.9	-61.6	3.8	1.49e+00	0	37	104	0	66	18455
2026-01-06 22:16:17.44	32.74	7.88	-47.8	-61.5	3.8	1.49e+00	0	38	104	0	66	18173
2026-01-06 22:16:18.45	32.84	7.94	-47.8	-61.8	3.8	1.49e+00	0	37	104	0	66	18805
2026-01-06 22:16:19.45	32.94	8.01	-47.8	-61.8	3.8	1.49e+00	0	37	104	0	66	18756
2026-01-06 22:16:20.46	33.04	8.07	-47.8	-61.7	3.8	1.49e+00	0	37	104	0	66	18668
2026-01-06 22:16:21.46	33.14	8.14	-47.9	-61.7	3.8	1.49e+00	0	38	104	0	66	18704
2026-01-06 22:16:22.46	33.24	8.20	-47.9	-61.7	3.8	1.49e+00	0	38	104	0	66	18602
2026-01-06 22:16:23.47	33.35	8.27	-47.9	-61.8	3.8	1.49e+00	0	38	104	0	66	18890
2026-01-06 22:16:24.48	33.45	8.33	-47.9	-61.7	3.8	1.49e+00	0	38	104	0	66	18544
2026-01-06 22:16:25.48	33.55	8.40	-47.9	-61.5	3.8	1.49e+00	0	38	104	0	66	18152
2026-01-06 22:16:26.48	33.65	8.46	-47.9	-61.3	3.8	1.49e+00	0	38	104	0	66	17804
2026-01-06 22:16:27.49	33.76	8.53	-47.9	-61.0	3.8	1.49e+00	0	38	104	0	66	17277
2026-01-06 22:16:28.49	33.86	8.59	-47.8	-60.7	3.8	1.49e+00	0	38	104	0	66	16531
2026-01-06 22:16:29.49	33.97	8.66	-47.8	-60.4	3.8	1.49e+00	0	38	104	0	66	16101
2026-01-06 22:16:30.50	34.07	8.72	-47.7	-60.3	3.8	1.49e+00	0	38	104	0	66	15835
2026-01-06 22:16:31.50	34.18	8.79	-47.7	-60.0	3.8	1.49e+00	0	38	104	0	66	15372
2026-01-06 22:16:32.51	34.28	8.85	-47.6	-59.0	4.0	1.48e+00	0	38	104	0	66	13678
2026-01-06 22:16:33.51	34.39	8.92	-47.5	-57.6	4.3	1.45e+00	0	38	104	0	66	11663
2026-01-06 22:16:34.51	34.50	8.98	-47.2	-55.4	5.5	5.78e-01	0	38	0	0	66	9040
2026-01-06 22:16:35.52	34.60	9.05	-47.9	-57.5	4.6	5.66e-01	0	38	0	0	66	11485
2026-01-06 22:16:36.52	34.71	9.11	-48.2	-59.4	3.9	1.48e+00	0	38	104	0	67	13501
2026-01-06 22:16:37.52	34.82	9.18	-47.5	-54.4	6.3	1.45e+00	0	38	0	0	67	7618
2026-01-06 22:16:38.53	34.93	9.24	-47.5	-54.1	6.9	1.95e-02	0	38	0	0	65	8261
2026-01-06 22:16:39.55	35.04	9.31	-46.1	-50.5	10.2	4.43e-01	0	38	0	0	64	5764
2026-01-06 22:16:40.55	35.15	9.38	-43.5	-46.0	15.1	0.00e+00	0	38	0	0	58	4867
2026-01-06 22:16:41.56	35.26	9.44	-43.0	-45.4	15.7	0.00e+00	0	38	0	0	58	4509
2026-01-06 22:16:42.56	35.37	9.51	-42.3	-44.5	16.5	0.00e+00	0	38	0	0	56	4562
2026-01-06 22:16:43.56	35.48	9.58	-41.7	-43.8	17.0	0.00e+00	0	38	0	0	55	4484
2026-01-06 22:16:44.56	35.59	9.64	-41.7	-43.8	17.0	0.00e+00	0	38	0	0	55	4480
2026-01-06 22:16:45.57	35.70	9.71	-41.5	-43.7	17.0	0.00e+00	0	38	0	0	55	4425
2026-01-06 22:16:46.57	35.81	9.78	-41.6	-43.8	16.9	0.00e+00	0	38	0	0	55	4472
2026-01-06 22:16:47.57	35.93	9.84	-41.5	-43.7	17.0	0.00e+00	0	38	0	0	55	4426
2026-01-06 22:16:48.56	36.04	9.91	-41.5	-43.7	17.0	0.00e+00	0	38	0	0	55	4413
2026-01-06 22:16:49.56	36.15	9.97	-41.4	-43.6	17.1	0.00e+00	0	38	0	0	54	4644
2026-01-06 22:16:50.56	36.26	10.04	-41.4	-43.6	17.2	0.00e+00	0	38	0	0	54	4611
2026-01-06 22:16:51.56	36.38	10.11	-41.4	-43.6	17.2	0.00e+00	0	38	0	0	54	4623
2026-01-06 22:16:53.00	36.54	10.20	-41.3	-43.5	17.3	0.00e+00	0	38	0	0	54	4580
2026-01-06 22:16:53.71	36.63	10.25	-41.4	-43.6	17.2	0.00e+00	0	38	0	0	54	4617
2026-01-06 22:16:55.00	36.78	10.34	-41.3	-43.4	17.3	0.00e+00	0	38	0	0	54	4528
2026-01-06 22:16:55.72	36.86	10.39	-41.3	-43.5	17.3	0.00e+00	0	38	0	0	54	4557
2026-01-06 22:16:57.01	37.01	10.47	-41.3	-43.4	17.3	0.00e+00	0	38	0	0	54	4526
2026-01-06 22:16:57.72	37.09	10.52	-41.3	-43.4	17.4	0.00e+00	0	38	0	0	54	4507
2026-01-06 22:16:59.01	37.25	10.61	-41.3	-43.4	17.4	0.00e+00	0	38	0	0	54	4506
2026-01-06 22:16:59.73	37.33	10.66	-41.3	-43.4	17.4	0.00e+00	0	38	0	0	54	4514
2026-01-06 22:17:01.02	37.49	10.74	-41.3	-43.3	17.5	0.00e+00	0	38	0	0	54	4484
2026-01-06 22:17:01.73	37.57	10.79	-41.2	-43.3	17.5	0.00e+00	0	38	0	0	54	4466
2026-01-06 22:17:03.21	37.75	10.89	-41.2	-43.3	17.5	0.00e+00	0	38	0	0	54	4462
2026-01-06 22:17:03.93	37.84	10.94	-41.2	-43.3	17.5	0.00e+00	0	38	0	0	54	4473
2026-01-06 22:17:05.22	37.99	11.03	-41.1	-43.1	17.7	0.00e+00	0	38	0	0	54	4383
2026-01-06 22:17:05.94	38.08	11.08	-41.1	-43.2	17.7	0.00e+00	0	38	0	0	54	4393
2026-01-06 22:17:07.23	38.24	11.16	-41.0	-43.0	17.7	0.00e+00	0	38	0	0	54	4339
2026-01-06 22:17:07.95	38.33	11.21	-40.9	-43.0	17.7	0.00e+00	0	38	0	0	53	4585
2026-01-06 22:17:09.24	38.49	11.30	-40.8	-42.9	17.9	0.00e+00	0	38	0	0	53	4521
2026-01-06 22:17:09.96	38.58	11.35	-40.8	-42.9	17.9	0.00e+00	0	38	0	0	53	4519
2026-01-06 22:17:11.24	38.74	11.44	-41.0	-43.1	17.8	0.00e+00	0	38	0	0	53	4601
2026-01-06 22:17:11.99	38.83	11.49	-41.0	-43.0	17.9	0.00e+00	0	38	0	0	53	4565
2026-01-06 22:17:13.28	38.99	11.58	-40.9	-42.9	18.0	0.00e+00	0	38	0	0	53	4518
2026-01-06 22:17:14.09	39.09	11.63	-40.9	-42.8	18.1	0.00e+00	0	38	0	0	53	4488
2026-01-06 22:17:15.57	39.28	11.73	-40.9	-42.9	18.0	0.00e+00	0	38	0	0	53	4513
2026-01-06 22:17:16.29	39.37	11.78	-40.8	-42.8	18.1	0.00e+00	0	38	0	0	53	4454
2026-01-06 22:17:17.58	39.54	11.87	-40.7	-42.7	18.3	0.00e+00	0	38	0	0	53	4392
2026-01-06 22:17:18.30	39.63	11.92	-40.8	-42.8	18.2	0.00e+00	0	38	0	0	53	4452
2026-01-06 22:17:19.58	39.80	12.01	-40.7	-42.6	18.3	0.00e+00	0	38	0	0	53	4364
2026-01-06 22:17:20.33	39.90	12.06	-40.5	-42.4	18.5	0.00e+00	0	38	0	0	53	4279
2026-01-06 22:17:21.62	40.06	12.15	-40.5	-42.4	18.5	0.00e+00	0	38	0	0	53	4257
2026-01-06 22:17:22.34	40.16	12.20	-40.5	-42.3	18.6	0.00e+00	0	38	0	0	53	4234
2026-01-06 22:17:23.63	40.33	12.29	-40.5	-42.3	18.6	0.00e+00	0	38	0	0	52	4464
2026-01-06 22:17:24.46	40.44	12.35	-40.4	-42.3	18.6	0.00e+00	0	38	0	0	52	4461
2026-01-06 22:17:25.60	40.59	12.43	-40.4	-42.3	18.7	0.00e+00	0	38	0	0	52	4444
2026-01-06 22:17:26.46	40.71	12.48	-40.4	-42.3	18.7	0.00e+00	0	38	0	0	52	4445
2026-01-06 22:17:27.61	40.86	12.56	-40.5	-42.3	18.6	0.00e+00	0	38	0	0	52	4489
2026-01-06 22:17:28.47	40.98	12.62	-40.5	-42.4	18.6	0.00e+00	0	38	0	0	52	4495
2026-01-06 22:17:29.61	41.13	12.70	-40.5	-42.4	18.6	0.00e+00	0	38	0	0	52	4513
2026-01-06 22:17:30.48	41.25	12.76	-40.6	-42.4	18.5	0.00e+00	0	38	0	0	52	4541
2026-01-06 22:17:31.62	41.40	12.84	-40.6	-42.5	18.4	0.00e+00	0	38	0	0	52	4568
2026-01-06 22:17:32.48	41.52	12.90	-40.6	-42.5	18.4	0.00e+00	0	38	0	0	52	4568
2026-01-06 22:17:33.70	41.69	12.99	-40.6	-42.5	18.5	0.00e+00	0	38	0	0	52	4549
2026-01-06 22:17:34.55	41.81	13.05	-40.5	-42.4	18.5	0.00e+00	0	38	0	0	52	4532
2026-01-06 22:17:35.70	41.97	13.13	-40.6	-42.4	18.5	0.00e+00	0	38	0	0	52	4538
2026-01-06 22:17:36.56	42.09	13.19	-40.6	-42.4	18.5	0.00e+00	0	38	0	0	52	4543
2026-01-06 22:17:37.71	42.25	13.27	-40.5	-42.4	18.5	0.00e+00	0	38	0	0	52	4513
2026-01-06 22:17:38.60	42.38	13.33	-40.6	-42.4	18.5	0.00e+00	0	38	0	0	52	4536
2026-01-06 22:17:39.74	42.54	13.41	-40.6	-42.5	18.5	0.00e+00	0	38	0	0	52	4550
2026-01-06 22:17:40.68	42.67	13.48	-40.5	-42.4	18.5	0.00e+00	0	38	0	0	52	4517
2026-01-06 22:17:41.86	42.84	13.56	-40.5	-42.4	18.6	0.00e+00	0	38	0	0	52	4511
2026-01-06 22:17:42.72	42.97	13.62	-40.7	-42.6	18.4	0.00e+00	0	38	0	0	52	4600
2026-01-06 22:17:44.07	43.16	13.71	-40.6	-42.5	18.5	0.00e+00	0	38	0	0	52	4567
2026-01-06 22:17:44.79	43.27	13.76	-40.6	-42.5	18.5	0.00e+00	0	38	0	0	52	4574
2026-01-06 22:17:46.08	43.45	13.85	-40.7	-42.6	18.4	0.00e+00	0	38	0	0	52	4645
2026-01-06 22:17:46.79	43.56	13.90	-40.7	-42.6	18.4	0.00e+00	0	38	0	0	52	4609
2026-01-06 22:17:48.08	43.75	14.00	-40.7	-42.5	18.4	0.00e+00	0	38	0	0	52	4595
2026-01-06 22:17:48.79	43.85	14.05	-40.6	-42.5	18.5	0.00e+00	0	38	0	0	52	4591
2026-01-06 22:17:50.08	44.05	14.14	-40.7	-42.6	18.4	0.00e+00	0	38	0	0	52	4612
2026-01-06 22:17:50.80	44.15	14.19	-40.6	-42.5	18.4	0.00e+00	0	38	0	0	52	4573
2026-01-06 22:17:52.08	44.35	14.28	-40.4	-42.3	18.7	0.00e+00	0	38	0	0	52	4467
2026-01-06 22:17:52.80	44.46	14.33	-40.4	-42.3	18.7	0.00e+00	0	39	0	0	52	4466
2026-01-06 22:17:54.08	44.65	14.42	-40.4	-42.3	18.7	0.00e+00	0	38	0	0	52	4453
2026-01-06 22:17:54.80	44.76	14.47	-40.4	-42.3	18.7	0.00e+00	0	38	0	0	52	4445
2026-01-06 22:17:56.17	44.97	14.57	-40.4	-42.2	18.7	0.00e+00	0	38	0	0	52	4418
2026-01-06 22:17:56.89	45.08	14.62	-40.4	-42.2	18.8	0.00e+00	0	38	0	0	52	4418
2026-01-06 22:17:58.25	45.29	14.71	-40.3	-42.2	18.8	0.00e+00	0	38	0	0	52	4401
2026-01-06 22:17:58.96	45.40	14.76	-40.3	-42.1	18.8	0.00e+00	0	38	0	0	52	4362
2026-01-06 22:18:00.28	45.61	14.86	-40.3	-42.2	18.8	0.00e+00	0	38	0	0	52	4401
2026-01-06 22:18:01.00	45.72	14.91	-40.4	-42.2	18.7	0.00e+00	0	38	0	0	52	4415
2026-01-06 22:18:02.29	45.92	15.00	-40.5	-42.4	18.6	0.00e+00	0	38	0	0	52	4501
2026-01-06 22:18:03.01	46.03	15.05	-40.5	-42.4	18.5	0.00e+00	0	38	0	0	52	4524
2026-01-06 22:18:04.29	46.24	15.14	-40.5	-42.4	18.5	0.00e+00	0	38	0	0	52	4519
2026-01-06 22:18:05.01	46.35	15.19	-40.5	-42.4	18.6	0.00e+00	0	38	0	0	52	4503
2026-01-06 22:18:06.30	46.56	15.28	-40.4	-42.2	18.7	0.00e+00	0	38	0	0	52	4409
2026-01-06 22:18:07.02	46.68	15.33	-40.4	-42.3	18.7	0.00e+00	0	38	0	0	52	4444
2026-01-06 22:18:08.31	46.88	15.42	-40.5	-42.3	18.7	0.00e+00	0	38	0	0	52	4469
2026-01-06 22:18:09.02	47.00	15.47	-40.5	-42.3	18.7	0.00e+00	0	38	0	0	52	4463
2026-01-06 22:18:10.31	47.21	15.56	-40.4	-42.2	18.8	0.00e+00	0	38	0	0	52	4429
2026-01-06 22:18:11.19	47.36	15.63	-40.4	-42.2	18.8	0.00e+00	0	38	0	0	52	4415
2026-01-06 22:18:12.33	47.54	15.71	-40.4	-42.2	18.8	0.00e+00	0	38	0	0	52	4417
2026-01-06 22:18:13.19	47.69	15.77	-40.4	-42.2	18.8	0.00e+00	0	38	0	0	52	4428
2026-01-06 22:18:14.34	47.88	15.85	-40.3	-42.1	18.9	0.00e+00	0	38	0	0	52	4355
2026-01-06 22:18:15.20	48.02	15.91	-40.3	-42.1	18.9	0.00e+00	0	38	0	0	52	4367
2026-01-06 22:18:16.35	48.21	15.99	-40.2	-42.0	19.0	0.00e+00	0	38	0	0	52	4333
2026-01-06 22:18:17.20	48.36	16.05	-40.3	-42.1	18.9	0.00e+00	0	38	0	0	52	4348
2026-01-06 22:18:18.35	48.55	16.13	-40.1	-41.9	19.0	0.00e+00	0	38	0	0	52	4287
2026-01-06 22:18:19.21	48.70	16.19	-40.1	-41.8	19.1	0.00e+00	0	38	0	0	52	4231
2026-01-06 22:18:20.35	48.89	16.27	-40.0	-41.8	19.1	0.00e+00	0	38	0	0	52	4215
2026-01-06 22:18:21.21	49.04	16.33	-40.1	-41.9	19.1	0.00e+00	0	38	0	0	52	4267
2026-01-06 22:18:22.36	49.24	16.41	-40.2	-42.0	19.0	0.00e+00	0	38	0	0	52	4305
2026-01-06 22:18:23.22	49.39	16.47	-40.1	-41.9	19.1	0.00e+00	0	38	0	0	52	4279
2026-01-06 22:18:24.36	49.59	16.55	-40.0	-41.8	19.1	0.00e+00	0	38	0	0	52	4230
2026-01-06 22:18:25.22	49.74	16.61	-40.1	-41.8	19.1	0.00e+00	0	38	0	0	52	4233
2026-01-06 22:18:26.56	49.97	16.71	-40.1	-41.9	19.1	0.00e+00	0	38	0	0	52	4272
2026-01-06 22:18:27.28	50.10	16.76	-40.1	-41.9	19.1	0.00e+00	0	38	0	0	52	4271
2026-01-06 22:18:28.76	50.36	16.86	-40.1	-41.9	19.1	0.00e+00	0	38	0	0	52	4268
2026-01-06 22:18:29.47	50.49	16.91	-40.0	-41.8	19.2	0.00e+00	0	38	0	0	52	4222
2026-01-06 22:18:30.83	50.74	17.01	-40.1	-41.8	19.2	0.00e+00	0	38	0	0	52	4241
2026-01-06 22:18:31.54	50.86	17.06	-40.1	-41.9	19.1	0.00e+00	0	39	0	0	52	4257
2026-01-06 22:18:32.83	51.10	17.15	-40.1	-41.9	19.1	0.00e+00	0	38	0	0	52	4272
2026-01-06 22:18:33.54	51.23	17.19	-40.1	-41.9	19.1	0.00e+00	0	38	0	0	52	4272
2026-01-06 22:18:34.83	51.46	17.28	-40.1	-41.9	19.1	0.00e+00	0	38	0	0	52	4260
2026-01-06 22:18:35.55	51.59	17.33	-40.1	-41.9	19.1	0.00e+00	0	38	0	0	52	4268
2026-01-06 22:18:36.84	51.83	17.42	-40.2	-42.0	19.0	0.00e+00	0	38	0	0	52	4315
2026-01-06 22:18:37.56	51.96	17.47	-40.2	-42.0	19.0	0.00e+00	0	38	0	0	52	4325
2026-01-06 22:18:39.13	52.26	17.58	-40.1	-41.9	19.1	0.00e+00	0	38	0	0	52	4276
2026-01-06 22:18:39.71	52.37	17.62	-40.1	-41.9	19.1	0.00e+00	0	38	0	0	52	4280
2026-01-06 22:18:41.28	52.66	17.73	-40.1	-41.9	19.1	0.00e+00	0	38	0	0	52	4245
2026-01-06 22:18:42.08	52.81	17.79	-40.2	-42.0	19.0	0.00e+00	0	38	0	0	52	4314
2026-01-06 22:18:43.22	53.03	17.86	-40.2	-42.0	19.1	0.00e+00	0	39	0	0	52	4303
2026-01-06 22:18:44.08	53.19	17.92	-40.1	-41.9	19.2	0.00e+00	0	38	0	0	52	4259
2026-01-06 22:18:45.23	53.41	18.00	-40.2	-42.0	19.1	0.00e+00	0	38	0	0	52	4317
2026-01-06 22:18:46.09	53.58	18.06	-40.2	-42.1	19.0	0.00e+00	0	38	0	0	52	4343
2026-01-06 22:18:47.30	53.81	18.14	-40.2	-42.0	19.1	0.00e+00	0	38	0	0	52	4321
2026-01-06 22:18:48.16	53.98	18.20	-40.2	-42.1	19.0	0.00e+00	0	39	0	0	52	4341
2026-01-06 22:18:49.37	54.21	18.29	-40.2	-42.0	19.1	0.00e+00	0	38	0	0	52	4308
2026-01-06 22:18:50.22	54.38	18.34	-40.1	-41.9	19.2	0.00e+00	0	39	0	0	52	4275
2026-01-06 22:18:51.44	54.62	18.43	-40.1	-41.8	19.2	0.00e+00	0	38	0	0	52	4232
2026-01-06 22:18:52.29	54.79	18.48	-40.1	-41.8	19.2	0.00e+00	0	38	0	0	52	4235
2026-01-06 22:18:53.50	55.03	18.57	-40.1	-41.8	19.3	0.00e+00	0	38	0	0	51	4483
2026-01-06 22:18:54.36	55.20	18.62	-40.2	-42.0	19.2	0.00e+00	0	38	0	0	51	4550
2026-01-06 22:18:55.58	55.44	18.71	-40.2	-42.0	19.2	0.00e+00	0	39	0	0	51	4547
2026-01-06 22:18:56.43	55.61	18.76	-40.3	-42.1	19.1	0.00e+00	0	39	0	0	51	4609
2026-01-06 22:18:57.58	55.85	18.84	-40.3	-42.1	19.1	0.00e+00	0	39	0	0	51	4621
2026-01-06 22:18:58.44	56.02	18.90	-40.4	-42.2	19.0	0.00e+00	0	38	0	0	51	4686
2026-01-06 22:18:59.59	56.26	18.97	-40.4	-42.2	18.9	0.00e+00	0	38	0	0	51	4703
2026-01-06 22:19:00.45	56.43	19.03	-40.5	-42.3	18.8	0.00e+00	0	38	0	0	51	4752
2026-01-06 22:19:01.60	56.67	19.11	-40.5	-42.4	18.8	0.00e+00	0	39	0	0	51	4760
2026-01-06 22:19:02.55	56.86	19.17	-40.5	-42.4	18.8	0.00e+00	0	39	0	0	51	4762
2026-01-06 22:19:03.56	57.07	19.24	-40.5	-42.3	18.9	0.00e+00	0	38	0	0	51	4728
2026-01-06 22:19:04.56	57.28	19.30	-40.5	-42.3	18.8	0.00e+00	0	38	0	0	51	4759
2026-01-06 22:19:05.77	57.53	19.38	-40.5	-42.4	18.8	0.00e+00	0	39	0	0	51	4768
2026-01-06 22:19:06.63	57.72	19.44	-40.6	-42.4	18.8	0.00e+00	0	38	0	0	51	4785
2026-01-06 22:19:07.99	58.00	19.52	-40.5	-42.3	18.9	0.00e+00	0	38	0	0	51	4715
2026-01-06 22:19:08.70	58.15	19.57	-40.6	-42.4	18.8	0.00e+00	0	39	0	0	51	4801
2026-01-06 22:19:09.99	58.43	19.65	-40.6	-42.4	18.8	0.00e+00	0	38	0	0	51	4789
2026-01-06 22:19:10.71	58.58	19.70	-40.6	-42.4	18.8	0.00e+00	0	38	0	0	51	4787
2026-01-06 22:19:12.00	58.86	19.78	-40.7	-42.5	18.6	0.00e+00	0	38	0	0	52	4598
2026-01-06 22:19:12.71	59.01	19.83	-40.6	-42.4	18.6	0.00e+00	0	39	0	0	52	4545
2026-01-06 22:19:14.00	59.29	19.91	-40.4	-42.2	18.8	0.00e+00	0	38	0	0	52	4434
2026-01-06 22:19:14.72	59.45	19.96	-40.5	-42.3	18.7	0.00e+00	0	38	0	0	52	4469
2026-01-06 22:19:16.01	59.73	20.04	-40.4	-42.3	18.8	0.00e+00	0	39	0	0	52	4443
2026-01-06 22:19:16.72	59.88	20.08	-40.2	-42.0	19.0	0.00e+00	0	38	0	0	52	4328
2026-01-06 22:19:18.01	60.17	20.16	-40.1	-41.9	19.2	0.00e+00	0	38	0	0	52	4244
2026-01-06 22:19:18.73	60.33	20.21	-40.1	-41.9	19.2	0.00e+00	0	38	0	0	52	4259
2026-01-06 22:19:20.11	60.63	20.29	-40.1	-41.9	19.2	0.00e+00	0	38	0	0	52	4243
2026-01-06 22:19:20.83	60.79	20.34	-40.0	-41.8	19.3	0.00e+00	0	39	0	0	52	4216
2026-01-06 22:19:22.12	61.08	20.42	-40.1	-41.9	19.2	0.00e+00	0	38	0	0	52	4251
2026-01-06 22:19:22.83	61.24	20.46	-40.2	-41.9	19.1	0.00e+00	0	38	0	0	52	4288
2026-01-06 22:19:24.25	61.56	20.55	-40.1	-41.9	19.1	0.00e+00	0	38	0	0	52	4280
2026-01-06 22:19:24.96	61.72	20.59	-40.1	-41.9	19.1	0.00e+00	0	38	0	0	52	4290
2026-01-06 22:19:26.25	62.01	20.67	-40.2	-42.0	19.0	0.00e+00	0	38	0	0	52	4333
2026-01-06 22:19:26.97	62.18	20.71	-40.2	-42.0	19.1	0.00e+00	0	38	0	0	52	4307
2026-01-06 22:19:28.26	62.47	20.79	-40.1	-41.9	19.2	0.00e+00	0	38	0	0	52	4251
2026-01-06 22:19:28.98	62.64	20.83	-40.1	-41.9	19.2	0.00e+00	0	38	0	0	52	4277
2026-01-06 22:19:30.26	62.93	20.91	-40.2	-41.9	19.2	0.00e+00	0	39	0	0	52	4286
2026-01-06 22:19:30.98	63.10	20.95	-40.1	-41.8	19.3	0.00e+00	0	39	0	0	52	4237
2026-01-06 22:19:32.27	63.40	21.03	-40.0	-41.8	19.4	0.00e+00	0	38	0	0	51	4469
2026-01-06 22:19:33.05	63.58	21.07	-40.0	-41.8	19.4	0.00e+00	0	38	0	0	51	4453
2026-01-06 22:19:34.55	63.93	21.16	-39.9	-41.7	19.5	0.00e+00	0	38	0	0	51	4400
2026-01-06 22:19:35.26	64.10	21.20	-39.9	-41.7	19.4	0.00e+00	0	38	0	0	51	4416
2026-01-06 22:19:36.73	64.45	21.28	-39.9	-41.7	19.5	0.00e+00	0	38	0	0	51	4411
2026-01-06 22:19:37.44	64.62	21.32	-39.9	-41.6	19.5	0.00e+00	0	38	0	0	51	4368
2026-01-06 22:19:38.74	64.93	21.40	-39.9	-41.6	19.5	0.00e+00	0	38	0	0	51	4378
2026-01-06 22:19:39.45	65.10	21.43	-39.9	-41.7	19.5	0.00e+00	0	38	0	0	51	4398
2026-01-06 22:19:40.74	65.40	21.51	-39.7	-41.4	19.7	0.00e+00	0	39	0	0	51	4262
2026-01-06 22:19:41.46	65.58	21.55	-39.7	-41.4	19.7	0.00e+00	0	39	0	0	51	4250
2026-01-06 22:19:42.74	65.89	21.62	-39.7	-41.5	19.6	0.00e+00	0	38	0	0	51	4297
2026-01-06 22:19:43.46	66.06	21.66	-39.7	-41.5	19.6	0.00e+00	0	39	0	0	51	4294
2026-01-06 22:19:44.75	66.37	21.72	-39.8	-41.5	19.6	0.00e+00	0	38	0	0	51	4317
2026-01-06 22:19:45.54	66.57	21.77	-39.8	-41.5	19.6	0.00e+00	0	39	0	0	51	4337
2026-01-06 22:19:46.69	66.85	21.83	-39.9	-41.6	19.5	0.00e+00	0	38	0	0	51	4386
2026-01-06 22:19:47.75	67.11	21.88	-39.8	-41.6	19.6	0.00e+00	0	39	0	0	51	4355
2026-01-06 22:19:48.62	67.32	21.93	-39.9	-41.6	19.5	0.00e+00	0	38	0	0	51	4359
2026-01-06 22:19:49.76	67.60	21.99	-39.7	-41.4	19.7	0.00e+00	0	38	0	0	51	4284
2026-01-06 22:19:50.62	67.82	22.03	-39.7	-41.4	19.7	0.00e+00	0	39	0	0	51	4255
2026-01-06 22:19:51.77	68.10	22.09	-39.6	-41.3	19.8	0.00e+00	0	39	0	0	51	4212
2026-01-06 22:19:52.63	68.32	22.13	-39.6	-41.3	19.8	0.00e+00	0	38	0	0	51	4213
2026-01-06 22:19:53.77	68.60	22.19	-39.8	-41.5	19.6	0.00e+00	0	38	0	0	51	4330
2026-01-06 22:19:54.63	68.82	22.23	-40.0	-41.7	19.4	0.00e+00	0	38	0	0	51	4441
2026-01-06 22:19:55.78	69.11	22.29	-40.1	-41.9	19.2	0.00e+00	0	38	0	0	51	4542
2026-01-06 22:19:56.64	69.33	22.33	-40.1	-41.9	19.3	0.00e+00	0	38	0	0	51	4501
2026-01-06 22:19:57.78	69.62	22.39	-39.9	-41.6	19.6	0.00e+00	0	38	0	0	51	4377
2026-01-06 22:19:58.65	69.84	22.43	-39.8	-41.6	19.6	0.00e+00	0	38	0	0	51	4346
2026-01-06 22:20:00.01	70.19	22.49	-39.7	-41.4	19.7	0.00e+00	0	38	0	0	51	4267
2026-01-06 22:20:00.73	70.37	22.53	-39.6	-41.3	19.8	0.00e+00	0	38	0	0	51	4212
2026-01-06 22:20:02.02	70.70	22.59	-39.6	-41.3	19.8	0.00e+00	0	39	0	0	51	4229
2026-01-06 22:20:02.75	70.89	22.62	-39.7	-41.5	19.6	0.00e+00	0	38	0	0	51	4295
2026-01-06 22:20:04.05	71.22	22.68	-39.9	-41.6	19.5	0.00e+00	0	38	0	0	51	4373
2026-01-06 22:20:04.77	71.41	22.71	-39.9	-41.7	19.5	0.00e+00	0	38	0	0	51	4406
2026-01-06 22:20:06.05	71.74	22.77	-39.9	-41.7	19.5	0.00e+00	0	38	0	0	51	4418
2026-01-06 22:20:06.83	71.95	22.80	-40.0	-41.7	19.5	0.00e+00	0	39	0	0	51	4435
2026-01-06 22:20:08.12	72.28	22.86	-39.7	-41.5	19.7	0.00e+00	0	38	0	0	51	4293
2026-01-06 22:20:08.84	72.47	22.89	-39.7	-41.4	19.7	0.00e+00	0	39	0	0	51	4264
2026-01-06 22:20:10.13	72.81	22.94	-39.6	-41.3	19.8	0.00e+00	0	39	0	0	51	4214
2026-01-06 22:20:11.00	73.04	22.98	-39.7	-41.4	19.7	0.00e+00	0	39	0	0	51	4267
2026-01-06 22:20:12.15	73.34	23.02	-39.7	-41.4	19.7	0.00e+00	0	38	0	0	51	4280
2026-01-06 22:20:13.01	73.57	23.06	-39.7	-41.4	19.7	0.00e+00	0	39	0	0	51	4285
2026-01-06 22:20:14.16	73.88	23.10	-39.7	-41.4	19.7	0.00e+00	0	38	0	0	51	4273
2026-01-06 22:20:15.02	74.11	23.14	-39.8	-41.5	19.7	0.00e+00	0	38	0	0	51	4310
2026-01-06 22:20:16.16	74.41	23.18	-39.7	-41.4	19.7	0.00e+00	0	38	0	0	51	4286
2026-01-06 22:20:17.03	74.64	23.21	-39.7	-41.4	19.8	0.00e+00	0	39	0	0	51	4280
2026-01-06 22:20:18.17	74.95	23.26	-39.6	-41.3	19.8	0.00e+00	0	39	0	0	51	4218
2026-01-06 22:20:19.03	75.18	23.29	-39.6	-41.3	19.8	0.00e+00	0	38	0	0	51	4216
2026-01-06 22:20:20.17	75.49	23.33	-39.7	-41.4	19.6	0.00e+00	0	39	0	0	51	4271
2026-01-06 22:20:21.03	75.72	23.36	-39.7	-41.4	19.6	0.00e+00	0	38	0	0	51	4275
2026-01-06 22:20:22.17	76.03	23.40	-39.6	-41.3	19.7	0.00e+00	0	39	0	0	51	4232
2026-01-06 22:20:23.03	76.26	23.43	-39.6	-41.3	19.8	0.00e+00	0	38	0	0	51	4237
2026-01-06 22:20:24.18	76.57	23.47	-39.7	-41.4	19.7	0.00e+00	0	38	0	0	51	4287
2026-01-06 22:20:25.04	76.81	23.50	-39.7	-41.4	19.7	0.00e+00	0	38	0	0	51	4258
2026-01-06 22:20:26.49	77.20	23.54	-39.6	-41.4	19.8	0.00e+00	0	39	0	0	51	4249
2026-01-06 22:20:27.21	77.40	23.57	-39.5	-41.2	19.9	0.00e+00	0	38	0	0	51	4185
2026-01-06 22:20:28.50	77.75	23.61	-39.6	-41.3	19.8	0.00e+00	0	39	0	0	51	4233
2026-01-06 22:20:29.21	77.95	23.63	-39.6	-41.3	19.8	0.00e+00	0	38	0	0	51	4238
2026-01-06 22:20:30.50	78.30	23.67	-39.7	-41.5	19.7	0.00e+00	0	39	0	0	51	4301
2026-01-06 22:20:31.21	78.50	23.69	-39.7	-41.5	19.7	0.00e+00	0	39	0	0	51	4299
2026-01-06 22:20:32.50	78.86	23.73	-39.5	-41.2	19.9	0.00e+00	0	39	0	0	51	4170
2026-01-06 22:20:33.22	79.06	23.75	-39.6	-41.3	19.8	0.00e+00	0	38	0	0	51	4220
2026-01-06 22:20:34.50	79.41	23.78	-39.4	-41.1	20.0	0.00e+00	0	39	0	0	50	4352
2026-01-06 22:20:35.22	79.61	23.80	-39.4	-41.1	20.0	0.00e+00	0	38	0	0	50	4367
2026-01-06 22:20:36.51	79.97	23.83	-39.4	-41.1	20.0	0.00e+00	0	39	0	0	50	4345
2026-01-06 22:20:37.23	80.17	23.85	-39.4	-41.0	20.0	0.00e+00	0	39	0	0	50	4333
2026-01-06 22:20:38.52	80.53	23.88	-39.4	-41.1	19.9	0.00e+00	0	39	0	0	50	4384
2026-01-06 22:20:39.23	80.73	23.90	-39.3	-41.0	20.1	0.00e+00	0	39	0	0	50	4309
2026-01-06 22:20:40.52	81.09	23.93	-39.4	-41.1	20.0	0.00e+00	0	38	0	0	50	4341
2026-01-06 22:20:41.24	81.29	23.95	-39.4	-41.1	19.9	0.00e+00	0	38	0	0	50	4353
2026-01-06 22:20:42.53	81.65	23.97	-39.5	-41.2	19.8	0.00e+00	0	39	0	0	50	4412
2026-01-06 22:20:43.25	81.86	23.99	-39.5	-41.2	19.9	0.00e+00	0	38	0	0	50	4418
2026-01-06 22:20:44.53	82.22	24.02	-39.4	-41.2	19.9	0.00e+00	0	39	0	0	50	4401
2026-01-06 22:20:45.25	82.42	24.03	-39.4	-41.2	19.9	0.00e+00	0	39	0	0	50	4409
2026-01-06 22:20:46.81	82.86	24.06	-39.4	-41.2	19.9	0.00e+00	0	39	0	0	50	4400
2026-01-06 22:20:47.52	83.06	24.07	-39.4	-41.1	19.9	0.00e+00	0	39	0	0	50	4348
2026-01-06 22:20:48.81	83.42	24.09	-39.5	-41.3	19.8	0.00e+00	0	39	0	0	50	4452
2026-01-06 22:20:49.53	83.63	24.11	-39.6	-41.4	19.6	0.00e+00	0	39	0	0	50	4514
2026-01-06 22:20:50.81	83.99	24.13	-39.7	-41.4	19.7	0.00e+00	0	39	0	0	50	4533
2026-01-06 22:20:51.53	84.20	24.14	-39.7	-41.4	19.7	0.00e+00	0	38	0	0	50	4545
2026-01-06 22:20:52.82	84.56	24.16	-39.7	-41.4	19.7	0.00e+00	0	39	0	0	50	4525
2026-01-06 22:20:53.53	84.76	24.17	-39.6	-41.4	19.7	0.00e+00	0	38	0	0	50	4520
2026-01-06 22:20:54.83	85.13	24.18	-39.7	-41.5	19.7	0.00e+00	0	39	0	0	50	4563
2026-01-06 22:20:55.64	85.37	24.19	-39.8	-41.6	19.6	0.00e+00	0	39	0	0	50	4612
2026-01-06 22:20:57.10	85.78	24.21	-39.8	-41.6	19.6	0.00e+00	0	38	0	0	50	4641
2026-01-06 22:20:58.21	86.10	24.22	-39.7	-41.5	19.7	0.00e+00	0	39	0	0	50	4586
2026-01-06 22:20:59.07	86.34	24.23	-39.7	-41.5	19.7	0.00e+00	0	39	0	0	50	4579
2026-01-06 22:21:00.22	86.67	24.24	-39.5	-41.2	19.9	0.00e+00	0	39	0	0	50	4424
2026-01-06 22:21:01.08	86.92	24.25	-39.4	-41.2	20.0	0.00e+00	0	39	0	0	50	4396
2026-01-06 22:21:02.22	87.24	24.26	-39.6	-41.3	19.8	0.00e+00	0	39	0	0	50	4465
2026-01-06 22:21:03.08	87.49	24.26	-39.6	-41.4	19.7	0.00e+00	0	38	0	0	50	4504
2026-01-06 22:21:04.22	87.82	24.27	-39.7	-41.4	19.7	0.00e+00	0	38	0	0	50	4541
2026-01-06 22:21:05.09	88.07	24.28	-39.7	-41.4	19.7	0.00e+00	0	39	0	0	50	4518
2026-01-06 22:21:06.41	88.44	24.28	-39.6	-41.3	19.8	0.00e+00	0	39	0	0	50	4465
2026-01-06 22:21:07.12	88.65	24.28	-39.6	-41.4	19.8	0.00e+00	0	39	0	0	50	4502
2026-01-06 22:21:08.60	89.07	24.29	-39.8	-41.6	19.5	0.00e+00	0	39	0	0	50	4615
2026-01-06 22:21:09.32	89.28	24.29	-39.7	-41.5	19.6	0.00e+00	0	38	0	0	50	4558
2026-01-06 22:21:10.72	89.68	24.29	-39.6	-41.4	19.7	0.00e+00	0	38	0	0	50	4500
2026-01-06 22:21:11.44	89.89	24.29	-39.7	-41.4	19.7	0.00e+00	0	38	0	0	50	4540
2026-01-06 22:21:12.73	90.26	24.29	-39.7	-41.4	19.7	0.00e+00	0	39	0	0	50	4536
2026-01-06 22:21:13.45	90.46	24.29	-39.6	-41.3	19.8	0.00e+00	0	39	0	0	50	4460
2026-01-06 22:21:14.73	90.83	24.29	-39.6	-41.3	19.8	0.00e+00	0	38	0	0	50	4466
2026-01-06 22:21:15.45	91.04	24.29	-39.4	-41.1	20.0	0.00e+00	0	39	0	0	50	4368
2026-01-06 22:21:16.74	91.41	24.29	-39.5	-41.2	19.9	0.00e+00	0	39	0	0	50	4429
2026-01-06 22:21:17.46	91.61	24.28	-39.5	-41.2	19.9	0.00e+00	0	39	0	0	50	4420
2026-01-06 22:21:18.74	91.98	24.28	-39.5	-41.3	19.9	0.00e+00	0	38	0	0	50	4443
2026-01-06 22:21:19.49	92.20	24.27	-39.5	-41.3	19.9	0.00e+00	0	39	0	0	50	4448
2026-01-06 22:21:20.78	92.57	24.27	-39.4	-41.1	20.0	0.00e+00	0	39	0	0	50	4373
2026-01-06 22:21:21.56	92.79	24.26	-39.2	-40.9	20.2	0.00e+00	0	38	0	0	50	4273
2026-01-06 22:21:22.85	93.16	24.25	-39.3	-41.0	20.1	0.00e+00	0	39	0	0	50	4296
2026-01-06 22:21:23.57	93.36	24.25	-39.3	-41.0	20.1	0.00e+00	0	38	0	0	50	4306
2026-01-06 22:21:25.24	93.84	24.23	-39.3	-41.0	20.1	0.00e+00	0	39	0	0	50	4302
2026-01-06 22:21:25.81	94.00	24.22	-39.4	-41.1	20.0	0.00e+00	0	39	0	0	50	4380
2026-01-06 22:21:27.39	94.46	24.21	-39.4	-41.1	20.1	0.00e+00	0	38	0	0	50	4361
2026-01-06 22:21:27.96	94.62	24.20	-39.3	-41.0	20.1	0.00e+00	0	39	0	0	50	4323
2026-01-06 22:21:29.58	95.08	24.18	-39.6	-41.2	19.8	0.00e+00	0	39	0	0	50	4441
2026-01-06 22:21:30.15	95.24	24.17	-39.4	-41.1	19.9	0.00e+00	0	38	0	0	50	4384
2026-01-06 22:21:31.73	95.69	24.15	-39.2	-40.9	20.2	0.00e+00	0	38	0	0	50	4274
2026-01-06 22:21:32.34	95.87	24.14	-39.2	-40.9	20.2	0.00e+00	0	39	0	0	50	4270
2026-01-06 22:21:33.91	96.31	24.12	-39.2	-40.9	20.2	0.00e+00	0	38	0	0	50	4254
2026-01-06 22:21:34.51	96.48	24.11	-39.2	-40.9	20.2	0.00e+00	0	38	0	0	50	4245
2026-01-06 22:21:36.09	96.93	24.08	-39.2	-40.8	20.2	0.00e+00	0	39	0	0	50	4234
2026-01-06 22:21:37.01	97.19	24.07	-39.2	-40.8	20.2	0.00e+00	0	38	0	0	50	4238
2026-01-06 22:21:38.02	97.48	24.05	-39.2	-40.8	20.2	0.00e+00	0	39	0	0	50	4231
2026-01-06 22:21:39.02	97.76	24.03	-39.1	-40.8	20.3	0.00e+00	0	38	0	0	50	4204
2026-01-06 22:21:40.02	98.04	24.01	-39.2	-40.9	20.2	0.00e+00	0	38	0	0	50	4248
2026-01-06 22:21:41.02	98.32	23.99	-39.2	-40.9	20.3	0.00e+00	0	39	0	0	50	4255
2026-01-06 22:21:42.03	98.61	23.97	-39.4	-41.1	20.0	0.00e+00	0	38	0	0	50	4343
2026-01-06 22:21:43.02	98.89	23.94	-39.4	-41.1	20.0	0.00e+00	0	39	0	0	50	4360
2026-01-06 22:21:44.03	99.17	23.92	-39.5	-41.2	19.9	0.00e+00	0	38	0	0	50	4406
2026-01-06 22:21:45.03	99.45	23.90	-39.6	-41.3	19.8	0.00e+00	0	39	0	0	50	4483
2026-01-06 22:21:46.03	99.73	23.87	-39.6	-41.3	19.9	0.00e+00	0	38	0	0	50	4468
2026-01-06 22:21:47.04	100.01	23.85	-39.6	-41.3	19.9	0.00e+00	0	39	0	0	50	4442
2026-01-06 22:21:48.44	100.40	23.81	-39.5	-41.2	20.0	0.00e+00	0	39	0	0	50	4393
2026-01-06 22:21:49.19	100.61	23.79	-39.5	-41.2	19.9	0.00e+00	0	39	0	0	50	4426
2026-01-06 22:21:50.48	100.97	23.76	-39.6	-41.3	19.9	0.00e+00	0	39	0	0	50	4459
2026-01-06 22:21:51.27	101.19	23.74	-39.6	-41.3	19.8	0.00e+00	0	39	0	0	50	4483
2026-01-06 22:21:52.42	101.51	23.70	-39.7	-41.5	19.7	0.00e+00	0	39	0	0	50	4555
2026-01-06 22:21:53.28	101.75	23.68	-39.8	-41.5	19.6	0.00e+00	0	38	0	0	50	4579
2026-01-06 22:21:54.43	102.06	23.65	-39.7	-41.4	19.8	0.00e+00	0	38	0	0	50	4502
2026-01-06 22:21:55.29	102.30	23.62	-39.7	-41.4	19.7	0.00e+00	0	38	0	0	50	4538
2026-01-06 22:21:56.43	102.61	23.58	-39.6	-41.3	19.9	0.00e+00	0	38	0	0	50	4463
2026-01-06 22:21:57.29	102.85	23.56	-39.5	-41.2	19.9	0.00e+00	0	38	0	0	50	4410
2026-01-06 22:21:58.44	103.16	23.52	-39.5	-41.2	20.0	0.00e+00	0	38	0	0	50	4418
2026-01-06 22:21:59.29	103.40	23.49	-39.5	-41.2	20.0	0.00e+00	0	38	0	0	50	4412
2026-01-06 22:22:00.44	103.71	23.45	-39.4	-41.1	20.1	0.00e+00	0	39	0	0	50	4364
2026-01-06 22:22:01.30	103.95	23.42	-39.4	-41.1	20.1	0.00e+00	0	38	0	0	50	4357
2026-01-06 22:22:02.57	104.29	23.38	-39.5	-41.2	20.0	0.00e+00	0	38	0	0	50	4410
2026-01-06 22:22:03.30	104.49	23.35	-39.6	-41.3	19.9	0.00e+00	0	39	0	0	50	4471
2026-01-06 22:22:04.59	104.84	23.31	-39.7	-41.4	19.8	0.00e+00	0	38	0	0	50	4522
2026-01-06 22:22:05.31	105.03	23.28	-39.7	-41.5	19.7	0.00e+00	0	38	0	0	50	4559
2026-01-06 22:22:06.60	105.38	23.23	-39.7	-41.4	19.8	0.00e+00	0	39	0	0	50	4542
2026-01-06 22:22:07.32	105.57	23.21	-39.7	-41.5	19.7	0.00e+00	0	38	0	0	50	4550
2026-01-06 22:22:08.61	105.92	23.16	-39.6	-41.3	19.9	0.00e+00	0	39	0	0	50	4461
2026-01-06 22:22:09.32	106.11	23.13	-39.7	-41.4	19.8	0.00e+00	0	39	0	0	50	4506
2026-01-06 22:22:10.61	106.45	23.08	-39.5	-41.2	19.9	0.00e+00	0	39	0	0	50	4439
2026-01-06 22:22:11.33	106.64	23.05	-39.6	-41.3	19.9	0.00e+00	0	38	0	0	50	4469
2026-01-06 22:22:12.61	106.98	23.00	-39.7	-41.4	19.8	0.00e+00	0	38	0	0	50	4541
2026-01-06 22:22:13.33	107.17	22.97	-39.7	-41.4	19.8	0.00e+00	0	39	0	0	50	4525
2026-01-06 22:22:14.62	107.51	22.91	-39.7	-41.4	19.8	0.00e+00	0	39	0	0	50	4517
2026-01-06 22:22:15.34	107.70	22.88	-39.6	-41.3	19.8	0.00e+00	0	39	0	0	50	4491
2026-01-06 22:22:16.63	108.04	22.83	-39.7	-41.5	19.7	0.00e+00	0	38	0	0	50	4558
2026-01-06 22:22:17.68	108.32	22.78	-39.7	-41.5	19.7	0.00e+00	0	39	0	0	50	4566
2026-01-06 22:22:18.54	108.54	22.75	-39.8	-41.5	19.6	0.00e+00	0	39	0	0	50	4590
2026-01-06 22:22:19.69	108.84	22.69	-39.8	-41.6	19.6	0.00e+00	0	38	0	0	50	4607
2026-01-06 22:22:20.54	109.06	22.66	-39.9	-41.7	19.5	0.00e+00	0	39	0	0	50	4656
2026-01-06 22:22:21.69	109.36	22.60	-39.8	-41.6	19.6	0.00e+00	0	39	0	0	50	4599
2026-01-06 22:22:22.55	109.58	22.56	-39.8	-41.5	19.7	0.00e+00	0	38	0	0	50	4590
2026-01-06 22:22:23.70	109.88	22.51	-39.8	-41.6	19.6	0.00e+00	0	38	0	0	50	4615
2026-01-06 22:22:24.55	110.10	22.47	-39.9	-41.6	19.5	0.00e+00	0	39	0	0	50	4643
2026-01-06 22:22:25.70	110.39	22.42	-40.0	-41.7	19.4	0.00e+00	0	38	0	0	50	4685
2026-01-06 22:22:26.64	110.63	22.37	-40.0	-41.8	19.4	0.00e+00	0	38	0	0	50	4709
2026-01-06 22:22:27.64	110.88	22.32	-39.8	-41.5	19.6	0.00e+00	0	38	0	0	50	4589
2026-01-06 22:22:28.65	111.14	22.27	-39.7	-41.5	19.6	0.00e+00	0	39	0	0	50	4556
2026-01-06 22:22:29.65	111.39	22.22	-39.8	-41.6	19.5	0.00e+00	0	38	0	0	50	4617
2026-01-06 22:22:30.65	111.64	22.17	-39.7	-41.4	19.6	0.00e+00	0	39	0	0	50	4539
2026-01-06 22:22:31.66	111.90	22.12	-39.8	-41.5	19.6	0.00e+00	0	38	0	0	50	4577
2026-01-06 22:22:32.66	112.15	22.07	-39.8	-41.5	19.6	0.00e+00	0	38	0	0	50	4583
2026-01-06 22:22:33.66	112.40	22.02	-39.8	-41.5	19.5	0.00e+00	0	39	0	0	50	4590
2026-01-06 22:22:34.67	112.65	21.97	-39.8	-41.6	19.5	0.00e+00	0	39	0	0	50	4606
2026-01-06 22:22:35.67	112.90	21.92	-39.9	-41.6	19.5	0.00e+00	0	38	0	0	50	4626
2026-01-06 22:22:36.67	113.15	21.86	-39.9	-41.6	19.5	0.00e+00	0	38	0	0	50	4648
2026-01-06 22:22:37.67	113.39	21.81	-39.8	-41.5	19.5	0.00e+00	0	39	0	0	50	4597
2026-01-06 22:22:38.68	113.64	21.76	-39.8	-41.5	19.6	0.00e+00	0	39	0	0	50	4594
2026-01-06 22:22:39.76	113.90	21.70	-39.8	-41.5	19.6	0.00e+00	0	39	0	0	50	4586
2026-01-06 22:22:40.65	114.12	21.65	-39.8	-41.5	19.6	0.00e+00	0	39	0	0	50	4587
2026-01-06 22:22:41.97	114.44	21.58	-39.8	-41.5	19.6	0.00e+00	0	39	0	0	50	4586
2026-01-06 22:22:42.68	114.61	21.54	-39.8	-41.5	19.6	0.00e+00	0	39	0	0	50	4580
2026-01-06 22:22:43.97	114.92	21.47	-39.7	-41.4	19.7	0.00e+00	0	39	0	0	50	4507
2026-01-06 22:22:44.69	115.10	21.43	-39.7	-41.4	19.7	0.00e+00	0	39	0	0	50	4534
2026-01-06 22:22:46.25	115.47	21.34	-40.0	-41.7	19.4	0.00e+00	0	38	0	0	50	4683
2026-01-06 22:22:46.96	115.64	21.30	-39.9	-41.7	19.5	0.00e+00	0	39	0	0	50	4658
2026-01-06 22:22:48.25	115.95	21.22	-40.0	-41.7	19.4	0.00e+00	0	39	0	0	50	4701
2026-01-06 22:22:48.97	116.12	21.18	-39.9	-41.7	19.5	0.00e+00	0	38	0	0	50	4671
2026-01-06 22:22:50.26	116.42	21.11	-39.9	-41.6	19.5	0.00e+00	0	38	0	0	50	4631
2026-01-06 22:22:50.97	116.59	21.07	-39.9	-41.6	19.5	0.00e+00	0	38	0	0	50	4645
2026-01-06 22:22:52.26	116.89	20.99	-39.9	-41.6	19.5	0.00e+00	0	39	0	0	50	4624
2026-01-06 22:22:52.98	117.06	20.95	-39.8	-41.6	19.6	0.00e+00	0	38	0	0	50	4609
2026-01-06 22:22:54.26	117.36	20.87	-39.7	-41.4	19.7	0.00e+00	0	39	0	0	50	4512
2026-01-06 22:22:55.06	117.54	20.83	-39.8	-41.5	19.6	0.00e+00	0	39	0	0	50	4567
2026-01-06 22:22:56.52	117.88	20.74	-39.7	-41.5	19.6	0.00e+00	0	39	0	0	50	4553
2026-01-06 22:22:57.24	118.04	20.69	-39.8	-41.5	19.6	0.00e+00	0	39	0	0	50	4580
2026-01-06 22:22:58.53	118.34	20.62	-40.0	-41.7	19.4	0.00e+00	0	39	0	0	50	4701
2026-01-06 22:22:59.25	118.50	20.57	-40.0	-41.8	19.4	0.00e+00	0	39	0	0	50	4721
2026-01-06 22:23:00.54	118.80	20.49	-40.0	-41.8	19.4	0.00e+00	0	39	0	0	50	4733
2026-01-06 22:23:01.25	118.96	20.45	-40.1	-41.8	19.3	0.00e+00	0	39	0	0	50	4758
2026-01-06 22:23:02.54	119.25	20.37	-40.1	-41.9	19.3	0.00e+00	0	39	0	0	50	4760
2026-01-06 22:23:03.26	119.41	20.32	-40.1	-41.9	19.2	0.00e+00	0	39	0	0	51	4536
2026-01-06 22:23:04.55	119.70	20.24	-39.9	-41.7	19.4	0.00e+00	0	39	0	0	51	4396
2026-01-06 22:23:05.26	119.85	20.20	-40.0	-41.7	19.3	0.00e+00	0	39	0	0	51	4420
2026-01-06 22:23:06.55	120.14	20.12	-39.9	-41.7	19.3	0.00e+00	0	39	0	0	51	4409
2026-01-06 22:23:07.27	120.30	20.07	-39.9	-41.6	19.3	0.00e+00	0	38	0	0	51	4391
2026-01-06 22:23:08.56	120.58	19.99	-39.8	-41.6	19.4	0.00e+00	0	39	0	0	51	4345
2026-01-06 22:23:09.28	120.74	19.95	-39.8	-41.5	19.4	0.00e+00	0	39	0	0	51	4314
2026-01-06 22:23:10.57	121.02	19.86	-39.9	-41.6	19.4	0.00e+00	0	38	0	0	51	4373
2026-01-06 22:23:11.29	121.18	19.82	-39.7	-41.4	19.6	0.00e+00	0	38	0	0	51	4282
2026-01-06 22:23:12.72	121.49	19.72	-39.6	-41.4	19.7	0.00e+00	0	39	0	0	51	4247
2026-01-06 22:23:13.44	121.64	19.68	-39.7	-41.5	19.6	0.00e+00	0	38	0	0	51	4294
2026-01-06 22:23:14.73	121.92	19.59	-39.9	-41.6	19.5	0.00e+00	0	39	0	0	51	4379
2026-01-06 22:23:15.44	122.07	19.55	-39.9	-41.6	19.5	0.00e+00	0	38	0	0	51	4374
2026-01-06 22:23:16.73	122.34	19.46	-39.7	-41.5	19.6	0.00e+00	0	39	0	0	51	4306
2026-01-06 22:23:17.45	122.50	19.42	-39.7	-41.5	19.6	0.00e+00	0	39	0	0	51	4307
2026-01-06 22:23:18.74	122.77	19.33	-39.8	-41.5	19.5	0.00e+00	0	38	0	0	51	4321
2026-01-06 22:23:19.46	122.92	19.28	-39.7	-41.4	19.6	0.00e+00	0	39	0	0	51	4280
2026-01-06 22:23:20.75	123.19	19.20	-39.7	-41.4	19.6	0.00e+00	0	39	0	0	51	4278
2026-01-06 22:23:21.46	123.34	19.15	-39.7	-41.5	19.6	0.00e+00	0	39	0	0	51	4292
2026-01-06 22:23:22.75	123.60	19.07	-39.8	-41.5	19.5	0.00e+00	0	38	0	0	51	4331
2026-01-06 22:23:23.58	123.78	19.01	-39.8	-41.5	19.6	0.00e+00	0	39	0	0	51	4326
2026-01-06 22:23:24.73	124.01	18.93	-39.8	-41.5	19.6	0.00e+00	0	39	0	0	51	4329
2026-01-06 22:23:25.79	124.23	18.86	-39.7	-41.4	19.7	0.00e+00	0	38	0	0	51	4290
2026-01-06 22:23:26.83	124.44	18.79	-39.7	-41.4	19.7	0.00e+00	0	38	0	0	51	4286
2026-01-06 22:23:27.83	124.64	18.72	-39.7	-41.4	19.7	0.00e+00	0	39	0	0	51	4277
2026-01-06 22:23:28.83	124.85	18.66	-39.9	-41.6	19.5	0.00e+00	0	38	0	0	51	4355
2026-01-06 22:23:29.84	125.05	18.59	-39.8	-41.6	19.6	0.00e+00	0	39	0	0	51	4358
2026-01-06 22:23:30.84	125.25	18.52	-39.9	-41.7	19.4	0.00e+00	0	39	0	0	51	4413
2026-01-06 22:23:31.84	125.45	18.45	-39.9	-41.6	19.5	0.00e+00	0	39	0	0	51	4386
2026-01-06 22:23:32.84	125.65	18.38	-40.0	-41.7	19.4	0.00e+00	0	39	0	0	51	4440
2026-01-06 22:23:33.85	125.85	18.31	-40.1	-41.9	19.3	0.00e+00	0	39	0	0	51	4499
2026-01-06 22:23:34.85	126.04	18.25	-40.0	-41.8	19.4	0.00e+00	0	38	0	0	51	4451
2026-01-06 22:23:35.85	126.24	18.18	-40.1	-41.8	19.3	0.00e+00	0	39	0	0	51	4473
2026-01-06 22:23:36.85	126.43	18.11	-40.1	-41.9	19.3	0.00e+00	0	38	0	0	51	4526
2026-01-06 22:23:37.85	126.63	18.04	-40.0	-41.8	19.4	0.00e+00	0	38	0	0	51	4450
2026-01-06 22:23:38.86	126.82	17.97	-40.0	-41.8	19.3	0.00e+00	0	39	0	0	51	4472
2026-01-06 22:23:39.86	127.01	17.90	-40.1	-41.8	19.2	0.00e+00	0	38	0	0	51	4488
2026-01-06 22:23:40.87	127.21	17.83	-40.0	-41.7	19.3	0.00e+00	0	38	0	0	51	4434
2026-01-06 22:23:41.87	127.40	17.76	-40.0	-41.8	19.3	0.00e+00	0	38	0	0	51	4457
2026-01-06 22:23:42.87	127.59	17.69	-40.0	-41.8	19.3	0.00e+00	0	39	0	0	51	4442
2026-01-06 22:23:43.88	127.78	17.62	-40.0	-41.7	19.4	0.00e+00	0	38	0	0	51	4438
2026-01-06 22:23:44.88	127.97	17.55	-40.0	-41.8	19.3	0.00e+00	0	39	0	0	51	4475
2026-01-06 22:23:45.88	128.15	17.48	-40.0	-41.8	19.3	0.00e+00	0	38	0	0	51	4465
2026-01-06 22:23:46.89	128.34	17.41	-40.1	-41.9	19.3	0.00e+00	0	38	0	0	51	4499
2026-01-06 22:23:47.89	128.53	17.34	-40.0	-41.8	19.3	0.00e+00	0	38	0	0	51	4471
2026-01-06 22:23:48.89	128.71	17.27	-40.1	-41.9	19.2	0.00e+00	0	38	0	0	51	4499
2026-01-06 22:23:49.89	128.90	17.20	-40.2	-42.0	19.1	0.00e+00	0	39	0	0	51	4564
2026-01-06 22:23:50.90	129.08	17.13	-40.1	-41.9	19.2	0.00e+00	0	38	0	0	51	4524
2026-01-06 22:23:51.93	129.27	17.06	-40.1	-41.9	19.2	0.00e+00	0	38	0	0	51	4515
2026-01-06 22:23:52.96	129.46	16.99	-40.2	-41.9	19.2	0.00e+00	0	38	0	0	51	4534
2026-01-06 22:23:53.96	129.64	16.91	-40.1	-41.9	19.2	0.00e+00	0	38	0	0	51	4529
2026-01-06 22:23:54.96	129.82	16.84	-40.1	-41.9	19.1	0.00e+00	0	38	0	0	51	4538
2026-01-06 22:23:55.97	130.00	16.77	-40.3	-42.1	19.0	0.00e+00	0	38	0	0	51	4620
2026-01-06 22:23:56.97	130.17	16.70	-40.2	-42.0	19.0	0.00e+00	0	38	0	0	51	4566
2026-01-06 22:23:57.97	130.35	16.63	-40.2	-42.0	19.0	0.00e+00	0	39	0	0	51	4589
2026-01-06 22:23:58.98	130.53	16.56	-40.4	-42.2	18.8	0.00e+00	0	39	0	0	51	4657
2026-01-06 22:23:59.98	130.71	16.49	-40.4	-42.3	18.7	0.00e+00	0	39	0	0	51	4722
2026-01-06 22:24:00.98	130.88	16.42	-40.5	-42.3	18.7	0.00e+00	0	39	0	0	51	4754
2026-01-06 22:24:01.98	131.05	16.35	-40.5	-42.3	18.7	0.00e+00	0	38	0	0	51	4748
2026-01-06 22:24:02.98	131.23	16.28	-40.5	-42.3	18.7	0.00e+00	0	38	0	0	51	4759
2026-01-06 22:24:03.98	131.40	16.21	-40.6	-42.5	18.5	0.00e+00	0	38	0	0	51	4827
2026-01-06 22:24:04.99	131.57	16.13	-40.6	-42.5	18.5	0.00e+00	0	39	0	0	51	4823
2026-01-06 22:24:05.99	131.74	16.06	-40.6	-42.5	18.5	0.00e+00	0	38	0	0	51	4836
2026-01-06 22:24:06.99	131.91	15.99	-40.7	-42.6	18.4	0.00e+00	0	39	0	0	52	4600
2026-01-06 22:24:08.00	132.08	15.92	-40.5	-42.4	18.5	0.00e+00	0	38	0	0	52	4522
2026-01-06 22:24:09.00	132.25	15.85	-40.5	-42.4	18.6	0.00e+00	0	38	0	0	52	4519
2026-01-06 22:24:10.00	132.42	15.78	-40.6	-42.5	18.5	0.00e+00	0	39	0	0	52	4569
2026-01-06 22:24:11.00	132.59	15.71	-40.7	-42.6	18.4	0.00e+00	0	38	0	0	52	4602
2026-01-06 22:24:12.01	132.76	15.63	-40.7	-42.6	18.3	0.00e+00	0	38	0	0	52	4618
2026-01-06 22:24:13.01	132.92	15.56	-40.7	-42.6	18.3	0.00e+00	0	39	0	0	52	4617
2026-01-06 22:24:14.01	133.09	15.49	-40.7	-42.5	18.4	0.00e+00	0	38	0	0	52	4595
2026-01-06 22:24:15.02	133.25	15.42	-40.7	-42.6	18.3	0.00e+00	0	38	0	0	52	4632
2026-01-06 22:24:16.02	133.41	15.35	-40.7	-42.6	18.4	0.00e+00	0	38	0	0	52	4628
2026-01-06 22:24:17.02	133.58	15.28	-40.6	-42.5	18.5	0.00e+00	0	39	0	0	52	4574
2026-01-06 22:24:18.03	133.74	15.21	-40.5	-42.3	18.7	0.00e+00	0	38	0	0	52	4458
2026-01-06 22:24:19.03	133.90	15.13	-40.5	-42.3	18.7	0.00e+00	0	38	0	0	52	4470
2026-01-06 22:24:20.03	134.06	15.06	-40.5	-42.3	18.7	0.00e+00	0	38	0	0	52	4473
2026-01-06 22:24:21.03	134.22	14.99	-40.4	-42.2	18.8	0.00e+00	0	39	0	0	52	4425
2026-01-06 22:24:22.03	134.38	14.92	-40.5	-42.3	18.7	0.00e+00	0	39	0	0	52	4464
2026-01-06 22:24:23.03	134.54	14.85	-40.5	-42.3	18.6	0.00e+00	0	39	0	0	52	4481
2026-01-06 22:24:24.04	134.70	14.78	-40.5	-42.4	18.5	0.00e+00	0	38	0	0	52	4505
2026-01-06 22:24:25.04	134.85	14.71	-40.7	-42.5	18.4	0.00e+00	0	39	0	0	52	4587
2026-01-06 22:24:26.04	135.01	14.63	-40.8	-42.6	18.3	0.00e+00	0	39	0	0	52	4649
2026-01-06 22:24:27.32	135.21	14.54	-41.0	-42.9	18.1	0.00e+00	0	39	0	0	52	4782
2026-01-06 22:24:28.03	135.31	14.49	-41.1	-43.1	17.9	0.00e+00	0	39	0	0	52	4871
2026-01-06 22:24:29.33	135.51	14.40	-41.0	-43.0	18.0	0.00e+00	0	39	0	0	52	4821
2026-01-06 22:24:30.18	135.64	14.34	-41.1	-43.0	17.9	0.00e+00	0	39	0	0	52	4860
2026-01-06 22:24:31.33	135.82	14.26	-41.1	-43.0	17.9	0.00e+00	0	39	0	0	52	4850
2026-01-06 22:24:32.19	135.95	14.20	-41.0	-42.9	18.1	0.00e+00	0	38	0	0	52	4786
2026-01-06 22:24:33.34	136.12	14.11	-41.0	-42.9	18.0	0.00e+00	0	39	0	0	52	4810
2026-01-06 22:24:34.20	136.25	14.05	-40.9	-42.9	18.0	0.00e+00	0	39	0	0	52	4771
2026-01-06 22:24:35.34	136.42	13.97	-41.0	-42.9	18.0	0.00e+00	0	39	0	0	52	4805
2026-01-06 22:24:36.20	136.55	13.91	-41.0	-42.9	18.0	0.00e+00	0	39	0	0	52	4811
2026-01-06 22:24:37.38	136.72	13.83	-40.8	-42.8	18.2	0.00e+00	0	38	0	0	52	4707
2026-01-06 22:24:38.24	136.85	13.77	-40.8	-42.7	18.2	0.00e+00	0	39	0	0	52	4666
2026-01-06 22:24:39.39	137.02	13.68	-40.9	-42.8	18.2	0.00e+00	0	39	0	0	52	4712
2026-01-06 22:24:40.25	137.14	13.62	-40.8	-42.6	18.3	0.00e+00	0	39	0	0	52	4649
2026-01-06 22:24:41.53	137.33	13.53	-40.8	-42.7	18.3	0.00e+00	0	39	0	0	52	4655
2026-01-06 22:24:42.24	137.43	13.48	-40.8	-42.8	18.2	0.00e+00	0	39	0	0	52	4707
2026-01-06 22:24:43.53	137.62	13.39	-40.9	-42.8	18.1	0.00e+00	0	38	0	0	52	4718
2026-01-06 22:24:44.25	137.72	13.34	-41.0	-42.9	18.0	0.00e+00	0	38	0	0	52	4805
2026-01-06 22:24:45.54	137.90	13.25	-41.1	-43.0	17.9	0.00e+00	0	39	0	0	52	4869
2026-01-06 22:24:46.26	138.00	13.20	-41.1	-43.1	17.8	0.00e+00	0	38	0	0	52	4908
2026-01-06 22:24:47.55	138.19	13.11	-41.3	-43.2	17.7	0.00e+00	0	38	0	0	53	4705
2026-01-06 22:24:48.26	138.29	13.06	-41.2	-43.2	17.8	0.00e+00	0	39	0	0	53	4672
2026-01-06 22:24:49.55	138.47	12.97	-41.2	-43.2	17.8	0.00e+00	0	39	0	0	53	4671
2026-01-06 22:24:50.27	138.57	12.92	-41.2	-43.1	17.8	0.00e+00	0	39	0	0	53	4641
2026-01-06 22:24:51.57	138.75	12.82	-41.1	-43.1	17.8	0.00e+00	0	39	0	0	53	4607
2026-01-06 22:24:52.55	138.88	12.76	-41.2	-43.2	17.7	0.00e+00	0	39	0	0	53	4655
2026-01-06 22:24:53.55	139.02	12.69	-41.1	-43.1	17.8	0.00e+00	0	39	0	0	53	4624
2026-01-06 22:24:54.55	139.15	12.61	-41.2	-43.2	17.7	0.00e+00	0	39	0	0	53	4692
2026-01-06 22:24:55.56	139.29	12.54	-41.3	-43.2	17.6	0.00e+00	0	38	0	0	53	4703
2026-01-06 22:24:56.56	139.43	12.47	-41.2	-43.2	17.7	0.00e+00	0	38	0	0	53	4669
2026-01-06 22:24:57.56	139.56	12.40	-41.2	-43.2	17.6	0.00e+00	0	38	0	0	53	4657
2026-01-06 22:24:58.57	139.70	12.33	-41.1	-43.1	17.7	0.00e+00	0	39	0	0	53	4631
2026-01-06 22:24:59.57	139.83	12.26	-41.2	-43.2	17.6	0.00e+00	0	39	0	0	53	4662
2026-01-06 22:25:00.57	139.96	12.19	-41.2	-43.2	17.6	0.00e+00	0	38	0	0	53	4658
2026-01-06 22:25:01.58	140.10	12.12	-41.2	-43.2	17.6	0.00e+00	0	38	0	0	53	4659
2026-01-06 22:25:02.58	140.23	12.05	-41.2	-43.2	17.6	0.00e+00	0	39	0	0	53	4680
2026-01-06 22:25:03.74	140.38	11.97	-41.3	-43.3	17.5	0.00e+00	0	39	0	0	53	4720
2026-01-06 22:25:04.63	140.50	11.91	-41.3	-43.3	17.5	0.00e+00	0	39	0	0	53	4747
2026-01-06 22:25:05.77	140.64	11.83	-41.3	-43.3	17.5	0.00e+00	0	39	0	0	53	4753
2026-01-06 22:25:06.63	140.75	11.77	-41.3	-43.3	17.5	0.00e+00	0	39	0	0	53	4750
2026-01-06 22:25:07.78	140.90	11.69	-41.3	-43.4	17.5	0.00e+00	0	39	0	0	53	4761
2026-01-06 22:25:08.80	141.03	11.62	-41.3	-43.3	17.6	0.00e+00	0	39	0	0	53	4723
2026-01-06 22:25:09.98	141.18	11.54	-41.4	-43.4	17.4	0.00e+00	0	39	0	0	53	4805
2026-01-06 22:25:10.84	141.29	11.48	-41.4	-43.5	17.4	0.00e+00	0	39	0	0	53	4824
2026-01-06 22:25:11.99	141.44	11.40	-41.3	-43.3	17.5	0.00e+00	0	39	0	0	53	4747
2026-01-06 22:25:12.85	141.54	11.34	-41.4	-43.4	17.4	0.00e+00	0	38	0	0	53	4795
2026-01-06 22:25:13.99	141.69	11.26	-41.4	-43.5	17.4	0.00e+00	0	38	0	0	53	4832
2026-01-06 22:25:14.85	141.79	11.20	-41.4	-43.4	17.4	0.00e+00	0	39	0	0	53	4812
2026-01-06 22:25:16.00	141.94	11.12	-41.5	-43.5	17.3	0.00e+00	0	39	0	0	53	4861
2026-01-06 22:25:16.85	142.04	11.07	-41.4	-43.5	17.3	0.00e+00	0	39	0	0	53	4840
2026-01-06 22:25:18.00	142.18	10.99	-41.5	-43.6	17.3	0.00e+00	0	38	0	0	53	4884
2026-01-06 22:25:18.86	142.29	10.93	-41.6	-43.6	17.2	0.00e+00	0	39	0	0	53	4915
2026-01-06 22:25:20.01	142.43	10.85	-41.5	-43.6	17.3	0.00e+00	0	39	0	0	53	4887
2026-01-06 22:25:20.87	142.53	10.79	-41.5	-43.5	17.4	0.00e+00	0	39	0	0	53	4848
2026-01-06 22:25:22.01	142.67	10.71	-41.5	-43.6	17.2	0.00e+00	0	39	0	0	53	4890
2026-01-06 22:25:22.87	142.77	10.65	-41.4	-43.5	17.4	0.00e+00	0	39	0	0	53	4820
2026-01-06 22:25:24.02	142.91	10.58	-41.4	-43.5	17.3	0.00e+00	0	39	0	0	53	4818
2026-01-06 22:25:24.87	143.01	10.52	-41.3	-43.4	17.4	0.00e+00	0	39	0	0	53	4768
2026-01-06 22:25:26.02	143.14	10.44	-41.3	-43.4	17.4	0.00e+00	0	39	0	0	53	4771
2026-01-06 22:25:26.88	143.24	10.38	-41.4	-43.5	17.3	0.00e+00	0	38	0	0	53	4833
2026-01-06 22:25:28.03	143.38	10.30	-41.4	-43.5	17.2	0.00e+00	0	39	0	0	53	4851
2026-01-06 22:25:28.89	143.48	10.24	-41.5	-43.6	17.1	0.00e+00	0	39	0	0	53	4896
2026-01-06 22:25:30.03	143.61	10.17	-41.6	-43.8	17.0	0.00e+00	0	38	0	0	53	4990
2026-01-06 22:25:30.89	143.71	10.11	-41.7	-43.8	17.0	0.00e+00	0	39	0	0	53	5019
2026-01-06 22:25:32.04	143.84	10.03	-41.7	-43.9	16.9	0.00e+00	0	39	0	0	54	4771
2026-01-06 22:25:32.90	143.94	9.97	-41.8	-44.0	16.8	0.00e+00	0	39	0	0	54	4818
2026-01-06 22:25:34.07	144.08	9.89	-41.9	-44.1	16.7	0.00e+00	0	38	0	0	54	4897
2026-01-06 22:25:34.94	144.17	9.84	-41.9	-44.1	16.7	0.00e+00	0	39	0	0	54	4879
2026-01-06 22:25:36.08	144.30	9.76	-42.0	-44.2	16.5	0.00e+00	0	38	0	0	54	4969
2026-01-06 22:25:36.94	144.40	9.70	-42.0	-44.2	16.6	0.00e+00	0	39	0	0	54	4952
2026-01-06 22:25:38.09	144.53	9.62	-42.0	-44.2	16.6	0.00e+00	0	38	0	0	54	4953
2026-01-06 22:25:39.00	144.63	9.56	-42.0	-44.2	16.6	0.00e+00	0	38	0	0	54	4936
2026-01-06 22:25:40.02	144.74	9.50	-42.0	-44.2	16.5	0.00e+00	0	39	0	0	54	4958
2026-01-06 22:25:41.02	144.85	9.43	-41.9	-44.1	16.7	0.00e+00	0	38	0	0	54	4887
2026-01-06 22:25:42.02	144.96	9.36	-41.9	-44.1	16.6	0.00e+00	0	39	0	0	54	4907
2026-01-06 22:25:43.02	145.07	9.30	-41.9	-44.1	16.6	0.00e+00	0	38	0	0	54	4889
2026-01-06 22:25:44.02	145.18	9.23	-41.9	-44.2	16.5	0.00e+00	0	38	0	0	54	4935
2026-01-06 22:25:45.03	145.29	9.16	-41.9	-44.2	16.5	0.00e+00	0	39	0	0	54	4940
2026-01-06 22:25:46.03	145.40	9.10	-41.9	-44.1	16.6	0.00e+00	0	39	0	0	54	4905
2026-01-06 22:25:47.03	145.51	9.03	-41.9	-44.1	16.6	0.00e+00	0	39	0	0	54	4907
2026-01-06 22:25:48.04	145.62	8.96	-49.0	-60.3	3.9	3.97e-03	0	38	104	0	68	14146
2026-01-06 22:25:49.04	145.72	8.90	-49.4	-62.6	3.8	1.49e+00	0	39	104	0	69	17336
2026-01-06 22:25:50.04	145.83	8.83	-49.7	-62.8	3.8	1.49e+00	0	39	104	0	69	17714
2026-01-06 22:25:51.05	145.94	8.76	-49.7	-62.9	3.8	1.49e+00	0	39	104	0	70	16912
2026-01-06 22:25:52.05	146.04	8.70	-49.9	-62.9	3.8	1.49e+00	0	39	104	0	70	17036
2026-01-06 22:25:53.06	146.15	8.63	-50.0	-63.0	3.8	1.49e+00	0	39	104	0	70	17246
2026-01-06 22:25:54.06	146.25	8.57	-50.0	-63.1	3.8	1.49e+00	0	39	104	0	70	17293
2026-01-06 22:25:55.07	146.36	8.50	-49.8	-63.1	3.8	1.49e+00	0	39	104	0	70	17286
2026-01-06 22:25:56.07	146.46	8.44	-50.0	-63.1	3.8	1.49e+00	0	39	104	0	70	17455
2026-01-06 22:25:57.07	146.56	8.37	-50.1	-63.1	3.8	1.49e+00	0	39	104	0	70	17449
2026-01-06 22:25:58.08	146.67	8.30	-50.1	-63.2	3.8	1.49e+00	0	39	104	0	70	17498
2026-01-06 22:25:59.08	146.77	8.24	-50.2	-63.2	3.8	1.49e+00	0	39	104	0	70	17550
2026-01-06 22:26:00.09	146.87	8.17	-49.8	-63.2	3.8	1.49e+00	0	39	104	0	71	16534
2026-01-06 22:26:01.09	146.97	8.11	-50.1	-63.2	3.8	1.49e+00	0	39	104	0	71	16633
2026-01-06 22:26:02.09	147.08	8.04	-50.2	-63.2	3.8	1.49e+00	0	39	104	0	71	16536
2026-01-06 22:26:03.10	147.18	7.98	-49.9	-63.2	3.8	1.49e+00	0	39	104	0	71	16610
2026-01-06 22:26:04.10	147.28	7.91	-50.2	-63.2	3.8	1.49e+00	0	39	104	0	71	16559
2026-01-06 22:26:05.11	147.38	7.85	-50.1	-63.2	3.8	1.49e+00	0	39	104	0	71	16555
2026-01-06 22:26:06.11	147.48	7.78	-50.1	-63.2	3.8	1.49e+00	0	39	104	0	71	16587
2026-01-06 22:26:07.12	147.58	7.72	-50.0	-63.2	3.8	1.49e+00	0	39	104	0	71	16550
2026-01-06 22:26:08.12	147.67	7.65	-49.6	-63.2	3.8	1.49e+00	0	39	104	0	71	16572
2026-01-06 22:26:09.33	147.79	7.58	-49.8	-63.2	3.8	1.49e+00	0	38	104	0	71	16565
2026-01-06 22:26:10.24	147.88	7.52	-49.8	-63.2	3.8	1.49e+00	0	39	104	0	71	16557
2026-01-06 22:26:11.25	147.98	7.45	-49.8	-63.1	3.8	1.49e+00	0	39	104	0	71	16493
2026-01-06 22:26:12.25	148.08	7.39	-49.8	-63.2	3.8	1.49e+00	0	39	104	0	71	16511
2026-01-06 22:26:13.26	148.17	7.33	-49.8	-63.1	3.8	1.49e+00	0	39	104	0	71	16457
2026-01-06 22:26:14.26	148.27	7.26	-49.8	-63.1	3.8	1.49e+00	0	39	104	0	71	16471
2026-01-06 22:26:15.27	148.37	7.20	-49.8	-63.2	3.8	1.49e+00	0	38	104	0	71	16560
2026-01-06 22:26:16.27	148.46	7.13	-49.8	-63.1	3.8	1.49e+00	0	39	104	0	71	16476
2026-01-06 22:26:17.27	148.56	7.07	-49.8	-63.1	3.8	1.49e+00	0	39	104	0	71	16480
2026-01-06 22:26:18.28	148.65	7.01	-49.8	-63.1	3.8	1.49e+00	0	39	104	0	71	16436
2026-01-06 22:26:19.28	148.74	6.94	-49.8	-63.1	3.8	1.49e+00	0	39	104	0	71	16484
2026-01-06 22:26:20.28	148.84	6.88	-49.7	-63.1	3.8	1.49e+00	0	39	104	0	71	16499
2026-01-06 22:26:21.29	148.93	6.82	-49.8	-63.1	3.8	1.49e+00	0	38	104	0	71	16427
2026-01-06 22:26:22.29	149.02	6.75	-49.7	-63.1	3.8	1.49e+00	0	38	104	0	71	16446
2026-01-06 22:26:23.29	149.12	6.69	-49.7	-63.1	3.8	1.49e+00	0	38	104	0	71	16467
2026-01-06 22:26:24.30	149.21	6.63	-49.7	-63.1	3.8	1.49e+00	0	39	104	0	71	16424
2026-01-06 22:26:25.30	149.30	6.56	-49.7	-63.1	3.8	1.49e+00	0	39	104	0	71	16445
2026-01-06 22:26:26.30	149.39	6.50	-49.7	-63.1	3.8	1.49e+00	0	38	104	0	71	16433
2026-01-06 22:26:27.31	149.48	6.44	-49.7	-63.1	3.8	1.49e+00	0	38	104	0	71	16484
2026-01-06 22:26:28.31	149.57	6.38	-49.7	-63.2	3.8	1.49e+00	0	39	104	0	71	16514
2026-01-06 22:26:29.31	149.66	6.31	-49.7	-63.2	3.8	1.49e+00	0	39	104	0	71	16527
2026-01-06 22:26:30.32	149.75	6.25	-49.7	-63.1	3.8	1.49e+00	0	39	104	0	71	16486
2026-01-06 22:26:31.32	149.84	6.19	-49.8	-63.1	3.8	1.49e+00	0	39	104	0	71	16492
2026-01-06 22:26:32.33	149.93	6.13	-49.8	-63.2	3.8	1.49e+00	0	39	104	0	71	16504
2026-01-06 22:26:33.33	150.02	6.06	-49.8	-63.1	3.8	1.49e+00	0	39	104	0	71	16420
2026-01-06 22:26:34.33	150.11	6.00	-49.7	-63.1	3.8	1.49e+00	0	38	104	0	71	16501
2026-01-06 22:26:35.34	150.20	5.94	-49.7	-63.1	3.8	1.49e+00	0	38	104	0	71	16438
2026-01-06 22:26:36.34	150.29	5.88	-49.7	-63.1	3.8	1.49e+00	0	39	104	0	71	16423
2026-01-06 22:26:37.35	150.37	5.82	-49.8	-63.1	3.8	1.49e+00	0	39	104	0	71	16449
2026-01-06 22:26:38.35	150.46	5.75	-49.8	-63.2	3.8	1.49e+00	0	39	104	0	71	16527
2026-01-06 22:26:39.35	150.55	5.69	-49.7	-63.1	3.8	1.49e+00	0	39	104	0	71	16440
2026-01-06 22:26:40.35	150.63	5.63	-49.8	-63.1	3.8	1.49e+00	0	39	104	0	71	16381
2026-01-06 22:26:41.36	150.72	5.57	-49.8	-63.1	3.8	1.49e+00	0	39	104	0	71	16501
2026-01-06 22:26:42.36	150.80	5.51	-49.7	-63.1	3.8	1.49e+00	0	39	104	0	71	16459
2026-01-06 22:26:43.37	150.89	5.45	-49.8	-63.1	3.8	1.49e+00	0	39	104	0	71	16472
2026-01-06 22:26:44.37	150.98	5.39	-49.7	-63.1	3.8	1.49e+00	0	39	104	0	71	16490
2026-01-06 22:26:45.38	151.06	5.32	-49.8	-63.1	3.8	1.49e+00	0	39	104	0	71	16496
2026-01-06 22:26:46.38	151.14	5.26	-49.7	-63.1	3.8	1.49e+00	0	39	104	0	71	16457
2026-01-06 22:26:47.38	151.23	5.20	-49.7	-63.1	3.8	1.49e+00	0	39	104	0	71	16480
2026-01-06 22:26:48.39	151.31	5.14	-49.7	-63.1	3.8	1.49e+00	0	39	104	0	71	16451
2026-01-06 22:26:49.39	151.40	5.08	-49.7	-63.1	3.8	1.49e+00	0	39	104	0	71	16486
2026-01-06 22:26:50.40	151.48	5.02	-49.8	-63.1	3.8	1.49e+00	0	39	104	0	71	16499
2026-01-06 22:26:51.40	151.56	4.96	-49.7	-63.1	3.8	1.49e+00	0	39	104	0	71	16450

#Closed at: 2026-01-06 22:26:52
#Recorded file [0 MB]: D:/Data/31040_260107_011530.dat