passes_logs/2025/01/14/LEX_Murmansk/LEX_Murmansk__20250114_193951_NOAA_18_rec.log

#Pass ID: 20250114_193951_NOAA 18
#Satellite: NOAA 18
#Configuration: NOAA 18
#Start time: 2025-01-14 19:39:46.616139

#LorettStation: 1.0.0 05.05.2024
#Station: LEX_Murmansk
#Location: 33.156738 lon 68.926811 lat
#TLE: 1 28654U 05018A   25014.17177243  .00000313  00000+0  18955-3 0  9990
#TLE: 2 28654  98.8569  95.2344 0014326 181.4762 178.6370 14.13485757 13061

#Time	Az	El	Level	SNR
2025-01-14 19:39:58.739150	177.0	16.3	-91.8	6.8
2025-01-14 19:39:59.901858	177.1	16.4	-92.1	6.6
2025-01-14 19:40:01.055246	177.2	16.5	-92.1	6.2
2025-01-14 19:40:02.214408	177.2	16.6	-92.1	5.3
2025-01-14 19:40:03.368822	177.3	16.8	-92.3	4.8
2025-01-14 19:40:04.528495	177.4	16.9	-92.3	6.3
2025-01-14 19:40:05.686616	177.4	17.0	-92.2	5.6
2025-01-14 19:40:06.844128	177.5	17.1	-92.5	5.4
2025-01-14 19:40:07.999547	177.6	17.3	-92.2	4.0
2025-01-14 19:40:09.161254	177.7	17.4	-92.2	5.3
2025-01-14 19:40:10.320218	177.7	17.5	-92.1	3.6
2025-01-14 19:40:11.479151	177.8	17.7	-92.3	4.4
2025-01-14 19:40:12.640868	177.9	17.8	-92.5	4.6
2025-01-14 19:40:13.798269	177.9	17.9	-92.3	4.7
2025-01-14 19:40:14.958026	178.0	18.1	-92.2	5.6
2025-01-14 19:40:16.122213	178.1	18.2	-92.1	4.5
2025-01-14 19:40:17.286645	178.2	18.3	-92.0	5.7
2025-01-14 19:40:18.447314	178.2	18.5	-92.2	7.6
2025-01-14 19:40:19.614335	178.3	18.6	-92.4	8.1
2025-01-14 19:40:20.777918	178.4	18.7	-92.6	9.2
2025-01-14 19:40:21.939984	178.5	18.9	-92.6	10.2
2025-01-14 19:40:23.102603	178.5	19.0	-92.4	10.3
2025-01-14 19:40:24.270232	178.6	19.1	-92.5	10.7
2025-01-14 19:40:25.431382	178.7	19.3	-92.3	10.9
2025-01-14 19:40:26.591352	178.8	19.4	-92.3	6.7
2025-01-14 19:40:27.753860	178.9	19.6	-92.3	12.1
2025-01-14 19:40:28.914412	179.0	19.7	-92.4	7.6
2025-01-14 19:40:30.073065	179.0	19.8	-92.4	5.4
2025-01-14 19:40:31.235515	179.1	20.0	-92.4	13.5
2025-01-14 19:40:32.392134	179.2	20.1	-92.4	13.5
2025-01-14 19:40:33.554066	179.3	20.3	-92.1	13.9
2025-01-14 19:40:34.716648	179.4	20.4	-92.2	12.9
2025-01-14 19:40:35.874202	179.5	20.6	-92.5	13.6
2025-01-14 19:40:37.034207	179.5	20.7	-92.3	8.5
2025-01-14 19:40:38.199223	179.6	20.8	-92.3	8.0
2025-01-14 19:40:39.357051	179.7	21.0	-92.1	11.8
2025-01-14 19:40:40.511207	179.8	21.1	-92.5	9.0
2025-01-14 19:40:41.631560	179.9	21.3	-92.2	8.1
2025-01-14 19:40:42.751985	180.0	21.4	-92.5	5.8
2025-01-14 19:40:43.874200	180.1	21.6	-92.2	5.0
2025-01-14 19:40:44.996221	180.2	21.7	-92.2	4.2
2025-01-14 19:40:46.116534	180.2	21.9	-92.5	3.9
2025-01-14 19:40:47.236973	180.3	22.0	-92.3	5.5
2025-01-14 19:40:48.357931	180.4	22.2	-92.6	9.0
2025-01-14 19:40:49.484842	180.5	22.3	-92.2	10.2
2025-01-14 19:40:50.635563	180.6	22.5	-92.7	12.3
2025-01-14 19:40:51.793805	180.7	22.6	-92.4	11.7
2025-01-14 19:40:52.954312	180.8	22.8	-92.3	8.3
2025-01-14 19:40:54.116165	180.9	22.9	-92.3	10.6
2025-01-14 19:40:55.280844	181.0	23.1	-92.5	12.9
2025-01-14 19:40:56.445112	181.1	23.3	-92.7	11.7
2025-01-14 19:40:57.614917	181.2	23.4	-92.7	13.5
2025-01-14 19:40:58.772283	181.3	23.6	-92.7	12.1
2025-01-14 19:40:59.932861	181.4	23.7	-92.5	6.7
2025-01-14 19:41:01.100990	181.5	23.9	-92.6	6.8
2025-01-14 19:41:02.257836	181.6	24.1	-92.8	10.0
2025-01-14 19:41:03.418147	181.7	24.2	-92.6	6.7
2025-01-14 19:41:04.576007	181.8	24.4	-92.7	9.7
2025-01-14 19:41:05.736444	182.0	24.6	-92.5	11.6
2025-01-14 19:41:06.905284	182.1	24.7	-92.5	14.1
2025-01-14 19:41:08.061943	182.2	24.9	-92.4	12.2
2025-01-14 19:41:09.223166	182.3	25.1	-92.2	10.6
2025-01-14 19:41:10.382265	182.4	25.2	-92.7	10.4
2025-01-14 19:41:11.536429	182.5	25.4	-92.5	7.3
2025-01-14 19:41:12.687374	182.6	25.6	-92.6	9.1
2025-01-14 19:41:13.827678	182.7	25.8	-92.7	10.2
2025-01-14 19:41:14.961957	182.9	25.9	-92.8	10.8
2025-01-14 19:41:16.120286	183.0	26.1	-92.6	10.2
2025-01-14 19:41:17.271385	183.1	26.3	-92.5	11.9
2025-01-14 19:41:18.430761	183.2	26.5	-92.9	6.5
2025-01-14 19:41:19.588802	183.3	26.6	-92.5	5.1
2025-01-14 19:41:20.745761	183.5	26.8	-92.4	9.7
2025-01-14 19:41:21.901715	183.6	27.0	-92.3	6.9
2025-01-14 19:41:23.065496	183.7	27.2	-92.2	10.1
2025-01-14 19:41:24.226937	183.9	27.4	-92.1	10.2
2025-01-14 19:41:25.384679	184.0	27.5	-92.1	7.8
2025-01-14 19:41:26.551336	184.1	27.7	-92.4	8.9
2025-01-14 19:41:27.707207	184.3	27.9	-92.8	7.6
2025-01-14 19:41:28.872463	184.4	28.1	-92.7	10.2
2025-01-14 19:41:30.034274	184.5	28.3	-92.2	11.1
2025-01-14 19:41:31.191488	184.7	28.5	-92.2	11.9
2025-01-14 19:41:32.344872	184.8	28.7	-92.4	12.0
2025-01-14 19:41:33.505416	184.9	28.9	-92.5	10.6
2025-01-14 19:41:34.666032	185.1	29.1	-92.4	11.2
2025-01-14 19:41:35.831135	185.2	29.2	-92.3	9.7
2025-01-14 19:41:36.998207	185.4	29.4	-92.4	6.0
2025-01-14 19:41:38.154041	185.5	29.6	-92.4	9.6
2025-01-14 19:41:39.315984	185.7	29.8	-92.5	9.2
2025-01-14 19:41:40.473296	185.8	30.0	-92.4	9.9
2025-01-14 19:41:41.631360	186.0	30.2	-92.3	11.1
2025-01-14 19:41:42.794084	186.1	30.4	-92.2	9.7
2025-01-14 19:41:43.957442	186.3	30.6	-92.2	9.5
2025-01-14 19:41:45.120131	186.5	30.8	-92.1	7.2
2025-01-14 19:41:46.287171	186.6	31.0	-92.1	9.2
2025-01-14 19:41:47.444313	186.8	31.3	-92.4	9.8
2025-01-14 19:41:48.604010	186.9	31.5	-92.4	9.5
2025-01-14 19:41:49.748196	187.1	31.7	-92.5	9.6
2025-01-14 19:41:50.868214	187.3	31.9	-92.6	9.5
2025-01-14 19:41:51.990585	187.4	32.1	-92.4	7.9
2025-01-14 19:41:53.111408	187.6	32.3	-92.4	7.4
2025-01-14 19:41:54.232584	187.8	32.5	-92.4	10.8
2025-01-14 19:41:55.353963	187.9	32.7	-92.4	11.9
2025-01-14 19:41:56.475402	188.1	32.9	-92.2	4.7
2025-01-14 19:41:57.601176	188.3	33.1	-92.3	8.8
2025-01-14 19:41:58.722962	188.5	33.3	-92.4	11.9
2025-01-14 19:41:59.864516	188.7	33.5	-92.5	12.2
2025-01-14 19:42:01.023922	188.8	33.7	-92.6	14.0
2025-01-14 19:42:02.176570	189.0	34.0	-92.4	12.2
2025-01-14 19:42:03.331964	189.2	34.2	-92.1	13.4
2025-01-14 19:42:04.484518	189.4	34.4	-92.3	11.4
2025-01-14 19:42:05.648435	189.6	34.6	-92.1	12.5
2025-01-14 19:42:06.809840	189.8	34.9	-92.2	9.7
2025-01-14 19:42:07.970886	190.0	35.1	-92.2	10.2
2025-01-14 19:42:09.127625	190.2	35.3	-92.4	13.1
2025-01-14 19:42:10.295260	190.4	35.5	-92.5	10.9
2025-01-14 19:42:11.421977	190.7	35.8	-92.7	7.8
2025-01-14 19:42:12.568206	190.9	36.0	-92.4	9.7
2025-01-14 19:42:13.729143	191.1	36.2	-92.6	13.4
2025-01-14 19:42:14.868248	191.3	36.5	-92.5	11.1
2025-01-14 19:42:16.029277	191.5	36.7	-92.4	7.4
2025-01-14 19:42:17.175284	191.8	36.9	-92.6	14.2
2025-01-14 19:42:18.333696	192.0	37.2	-92.6	14.4
2025-01-14 19:42:19.491029	192.2	37.4	-92.3	18.4
2025-01-14 19:42:20.646083	192.5	37.6	-92.5	16.2
2025-01-14 19:42:21.809270	192.7	37.9	-92.6	16.6
2025-01-14 19:42:22.976630	192.9	38.1	-92.6	11.4
2025-01-14 19:42:24.135743	193.2	38.4	-92.7	13.4
2025-01-14 19:42:25.288011	193.4	38.6	-92.3	13.2
2025-01-14 19:42:26.445174	193.7	38.9	-92.6	11.5
2025-01-14 19:42:27.604665	194.0	39.1	-92.7	9.8
2025-01-14 19:42:28.734485	194.2	39.4	-92.3	10.4
2025-01-14 19:42:29.873426	194.5	39.6	-92.2	15.2
2025-01-14 19:42:31.038843	194.7	39.9	-92.4	11.2
2025-01-14 19:42:32.184957	195.0	40.1	-92.2	14.2
2025-01-14 19:42:33.341532	195.3	40.4	-92.2	13.3
2025-01-14 19:42:34.488288	195.6	40.6	-92.5	8.1
2025-01-14 19:42:35.637521	195.9	40.9	-92.6	11.4
2025-01-14 19:42:36.797194	196.2	41.1	-92.7	15.2
2025-01-14 19:42:37.949876	196.5	41.4	-92.3	13.7
2025-01-14 19:42:39.116288	196.8	41.6	-92.0	16.5
2025-01-14 19:42:40.279615	197.1	41.9	-92.4	18.1
2025-01-14 19:42:41.441451	197.4	42.1	-92.5	17.8
2025-01-14 19:42:42.594297	197.7	42.4	-92.4	17.7
2025-01-14 19:42:43.755130	198.0	42.7	-92.1	17.4
2025-01-14 19:42:44.916383	198.3	42.9	-92.3	13.6
2025-01-14 19:42:46.082843	198.7	43.2	-92.5	15.5
2025-01-14 19:42:47.247367	199.0	43.5	-92.2	16.8
2025-01-14 19:42:48.390673	199.4	43.7	-92.0	17.1
2025-01-14 19:42:49.558017	199.7	44.0	-92.4	18.4
2025-01-14 19:42:50.715951	200.1	44.2	-92.5	17.7
2025-01-14 19:42:51.871067	200.4	44.5	-92.4	17.5
2025-01-14 19:42:53.032038	200.8	44.8	-92.3	15.6
2025-01-14 19:42:54.194808	201.2	45.0	-92.4	18.2
2025-01-14 19:42:55.352183	201.5	45.3	-92.6	19.9
2025-01-14 19:42:56.511515	201.9	45.6	-92.8	10.9
2025-01-14 19:42:57.674357	202.3	45.9	-92.6	18.4
2025-01-14 19:42:58.828398	202.7	46.1	-92.5	18.8
2025-01-14 19:42:59.989835	203.1	46.4	-92.7	14.6
2025-01-14 19:43:01.148397	203.5	46.7	-92.4	19.1
2025-01-14 19:43:02.306318	203.9	46.9	-92.4	18.8
2025-01-14 19:43:03.465665	204.4	47.2	-92.0	16.3
2025-01-14 19:43:04.630502	204.8	47.5	-92.4	18.7
2025-01-14 19:43:05.794330	205.2	47.7	-92.4	19.5
2025-01-14 19:43:06.951396	205.7	48.0	-92.5	13.5
2025-01-14 19:43:08.120544	206.2	48.3	-92.4	17.0
2025-01-14 19:43:09.241107	206.6	48.5	-92.5	19.7
2025-01-14 19:43:10.361157	207.1	48.8	-92.5	19.5
2025-01-14 19:43:11.485380	207.5	49.1	-92.4	14.1
2025-01-14 19:43:12.606892	208.0	49.3	-92.5	18.7
2025-01-14 19:43:13.726839	208.5	49.6	-92.3	19.0
2025-01-14 19:43:14.847307	209.0	49.8	-92.4	18.0
2025-01-14 19:43:15.967228	209.5	50.1	-92.6	17.0
2025-01-14 19:43:17.091427	210.0	50.3	-92.3	14.7
2025-01-14 19:43:18.245930	210.5	50.6	-92.5	17.6
2025-01-14 19:43:19.410736	211.0	50.9	-92.2	11.0
2025-01-14 19:43:20.562197	211.6	51.1	-92.2	12.9
2025-01-14 19:43:21.722130	212.1	51.4	-92.5	15.8
2025-01-14 19:43:22.887491	212.7	51.6	-92.2	12.3
2025-01-14 19:43:24.044739	213.3	51.9	-92.2	10.6
2025-01-14 19:43:25.200625	213.9	52.2	-92.3	19.3
2025-01-14 19:43:26.356119	214.5	52.4	-92.4	22.5
2025-01-14 19:43:27.516095	215.1	52.7	-92.4	20.3
2025-01-14 19:43:28.673152	215.7	52.9	-92.5	22.5
2025-01-14 19:43:29.834410	216.3	53.2	-92.3	19.5
2025-01-14 19:43:30.998657	217.0	53.4	-92.3	21.3
2025-01-14 19:43:32.158181	217.6	53.6	-92.3	20.1
2025-01-14 19:43:33.317959	218.3	53.9	-92.6	23.5
2025-01-14 19:43:34.477547	218.9	54.1	-92.6	20.6
2025-01-14 19:43:35.602268	219.6	54.3	-92.3	20.0
2025-01-14 19:43:36.750900	220.3	54.6	-92.3	25.2
2025-01-14 19:43:37.902457	221.0	54.8	-92.6	17.1
2025-01-14 19:43:39.068380	221.7	55.0	-92.5	19.8
2025-01-14 19:43:40.216536	222.4	55.2	-92.3	24.3
2025-01-14 19:43:41.376048	223.2	55.5	-92.5	24.9
2025-01-14 19:43:42.523950	223.9	55.7	-92.3	23.7
2025-01-14 19:43:43.686492	224.7	55.9	-92.3	25.0
2025-01-14 19:43:44.843997	225.4	56.1	-92.6	26.2
2025-01-14 19:43:46.012277	226.2	56.3	-92.5	26.5
2025-01-14 19:43:47.170968	227.0	56.5	-92.5	24.6
2025-01-14 19:43:48.327258	227.8	56.7	-91.8	23.6
2025-01-14 19:43:49.488785	228.6	56.9	-92.3	20.3
2025-01-14 19:43:50.654259	229.5	57.1	-92.5	24.0
2025-01-14 19:43:51.810963	230.3	57.2	-92.5	23.4
2025-01-14 19:43:52.973657	231.2	57.4	-92.7	15.8
2025-01-14 19:43:54.137345	232.0	57.6	-92.6	18.7
2025-01-14 19:43:55.307653	232.9	57.7	-92.3	22.4
2025-01-14 19:43:56.463402	233.8	57.9	-92.4	13.1
2025-01-14 19:43:57.632072	234.7	58.0	-92.4	16.9
2025-01-14 19:43:58.795850	235.6	58.2	-92.2	24.5
2025-01-14 19:43:59.953791	236.5	58.3	-92.1	14.9
2025-01-14 19:44:01.114320	237.4	58.5	-92.3	16.7
2025-01-14 19:44:02.269622	238.3	58.6	-92.1	21.8
2025-01-14 19:44:03.423665	239.3	58.7	-92.2	17.4
2025-01-14 19:44:04.588825	240.2	58.8	-92.2	22.1
2025-01-14 19:44:05.752083	241.2	58.9	-92.6	23.0
2025-01-14 19:44:06.909357	242.1	59.0	-92.7	22.1
2025-01-14 19:44:08.071829	243.1	59.1	-92.8	22.1
2025-01-14 19:44:09.230093	244.1	59.2	-92.3	22.2
2025-01-14 19:44:10.390762	245.0	59.3	-92.7	18.5
2025-01-14 19:44:11.544182	246.0	59.3	-92.9	17.6
2025-01-14 19:44:12.705287	247.0	59.4	-92.6	13.1
2025-01-14 19:44:13.873430	248.0	59.4	-92.9	13.0
2025-01-14 19:44:15.035389	249.0	59.5	-92.8	13.3
2025-01-14 19:44:16.200000	250.0	59.5	-92.6	21.3
2025-01-14 19:44:17.371819	251.0	59.5	-92.6	16.3
2025-01-14 19:44:18.537498	252.0	59.6	-92.6	13.1
2025-01-14 19:44:19.692968	253.0	59.6	-92.4	22.1
2025-01-14 19:44:20.855395	254.0	59.6	-92.6	20.3
2025-01-14 19:44:22.018776	255.0	59.6	-92.7	11.4
2025-01-14 19:44:23.181982	256.0	59.6	-92.9	18.0
2025-01-14 19:44:24.336400	257.0	59.5	-92.4	16.2
2025-01-14 19:44:25.497614	258.0	59.5	-92.3	11.6
2025-01-14 19:44:26.654209	259.0	59.5	-92.6	14.8
2025-01-14 19:44:27.819710	260.0	59.4	-92.8	22.4
2025-01-14 19:44:28.980674	261.0	59.4	-92.8	14.9
2025-01-14 19:44:30.131666	262.0	59.3	-92.3	14.2
2025-01-14 19:44:31.289459	263.0	59.3	-92.5	8.3
2025-01-14 19:44:32.420929	263.9	59.2	-92.6	14.6
2025-01-14 19:44:33.541890	264.9	59.1	-92.7	15.8
2025-01-14 19:44:34.662313	265.8	59.0	-92.6	14.6
2025-01-14 19:44:35.782908	266.7	58.9	-92.8	15.2
2025-01-14 19:44:36.902736	267.7	58.8	-92.6	9.6
2025-01-14 19:44:38.023752	268.6	58.7	-92.7	14.2
2025-01-14 19:44:39.143769	269.5	58.6	-92.7	21.2
2025-01-14 19:44:40.269038	270.4	58.5	-92.6	17.7
2025-01-14 19:44:41.401896	271.3	58.4	-92.6	14.1
2025-01-14 19:44:42.556340	272.2	58.3	-92.8	16.1
2025-01-14 19:44:43.715968	273.1	58.1	-92.5	17.6
2025-01-14 19:44:44.872260	274.0	58.0	-92.4	17.4
2025-01-14 19:44:46.025880	274.9	57.8	-92.8	10.2
2025-01-14 19:44:47.188158	275.8	57.7	-92.6	15.3
2025-01-14 19:44:48.352014	276.6	57.5	-92.5	25.0
2025-01-14 19:44:49.515635	277.5	57.3	-92.5	14.9
2025-01-14 19:44:50.678634	278.3	57.2	-92.3	18.7
2025-01-14 19:44:51.841695	279.2	57.0	-92.2	19.9
2025-01-14 19:44:52.990497	280.0	56.8	-92.5	14.6
2025-01-14 19:44:54.131396	280.8	56.6	-92.6	15.0
2025-01-14 19:44:55.263986	281.6	56.4	-92.5	9.2
2025-01-14 19:44:56.407477	282.4	56.2	-92.4	12.9
2025-01-14 19:44:57.541058	283.1	56.0	-92.5	12.6
2025-01-14 19:44:58.703756	283.9	55.8	-92.5	16.8
2025-01-14 19:44:59.849074	284.6	55.6	-92.5	14.0
2025-01-14 19:45:00.998936	285.4	55.4	-92.4	17.7
2025-01-14 19:45:02.144453	286.1	55.2	-92.3	16.0
2025-01-14 19:45:03.298355	286.8	55.0	-92.6	15.4
2025-01-14 19:45:04.451792	287.5	54.7	-92.5	15.3
2025-01-14 19:45:05.613731	288.2	54.5	-92.4	13.0
2025-01-14 19:45:06.773448	288.9	54.3	-92.5	18.9
2025-01-14 19:45:07.930590	289.6	54.0	-92.6	17.0
2025-01-14 19:45:09.086397	290.3	53.8	-92.6	14.0
2025-01-14 19:45:10.242467	290.9	53.6	-92.2	14.6
2025-01-14 19:45:11.404561	291.6	53.3	-92.3	14.7
2025-01-14 19:45:12.567324	292.2	53.1	-92.7	12.6
2025-01-14 19:45:13.728567	292.8	52.8	-92.6	15.4
2025-01-14 19:45:14.894028	293.4	52.6	-92.6	14.6
2025-01-14 19:45:16.058928	294.0	52.3	-92.5	12.6
2025-01-14 19:45:17.221293	294.6	52.1	-92.3	14.3
2025-01-14 19:45:18.375826	295.2	51.8	-92.3	13.6
2025-01-14 19:45:19.538828	295.8	51.5	-92.3	10.1
2025-01-14 19:45:20.699575	296.4	51.3	-92.5	17.6
2025-01-14 19:45:21.858549	296.9	51.0	-92.1	17.4
2025-01-14 19:45:23.012254	297.5	50.8	-92.5	8.3
2025-01-14 19:45:24.173490	298.0	50.5	-92.4	16.4
2025-01-14 19:45:25.340181	298.5	50.2	-92.4	15.3
2025-01-14 19:45:26.500324	299.0	50.0	-92.5	7.7
2025-01-14 19:45:27.665267	299.6	49.7	-92.4	17.0
2025-01-14 19:45:28.826061	300.1	49.4	-92.3	18.7
2025-01-14 19:45:29.988559	300.5	49.2	-92.3	10.5
2025-01-14 19:45:31.149038	301.0	48.9	-92.2	15.3
2025-01-14 19:45:32.308494	301.5	48.6	-92.3	16.5
2025-01-14 19:45:33.463297	302.0	48.4	-92.4	14.1
2025-01-14 19:45:34.624061	302.4	48.1	-92.4	12.8
2025-01-14 19:45:35.787513	302.9	47.8	-92.3	18.4
2025-01-14 19:45:36.957740	303.3	47.6	-92.6	13.5
2025-01-14 19:45:38.124828	303.8	47.3	-92.4	13.2
2025-01-14 19:45:39.284954	304.2	47.0	-92.2	16.6
2025-01-14 19:45:40.448817	304.6	46.8	-92.4	13.2
2025-01-14 19:45:41.606812	305.0	46.5	-92.4	8.8
2025-01-14 19:45:42.769491	305.4	46.2	-92.4	18.3
2025-01-14 19:45:43.931727	305.8	45.9	-92.4	11.9
2025-01-14 19:45:45.095995	306.2	45.7	-92.2	19.9
2025-01-14 19:45:46.259365	306.6	45.4	-92.1	15.0
2025-01-14 19:45:47.418028	307.0	45.1	-92.3	15.8
2025-01-14 19:45:48.574649	307.4	44.9	-92.4	18.9
2025-01-14 19:45:49.729988	307.7	44.6	-92.4	22.2
2025-01-14 19:45:50.885584	308.1	44.3	-92.2	19.3
2025-01-14 19:45:52.007460	308.5	44.1	-92.4	15.7
2025-01-14 19:45:53.128806	308.8	43.8	-92.0	17.0
2025-01-14 19:45:54.248715	309.1	43.6	-92.2	10.1
2025-01-14 19:45:55.369127	309.5	43.3	-92.7	10.5
2025-01-14 19:45:56.490229	309.8	43.1	-92.3	7.9
2025-01-14 19:45:57.610842	310.1	42.8	-92.5	5.9
2025-01-14 19:45:58.731026	310.4	42.6	-92.2	21.6
2025-01-14 19:45:59.855091	310.7	42.3	-92.3	19.5
2025-01-14 19:46:01.000559	311.0	42.0	-92.5	12.0
2025-01-14 19:46:02.166166	311.3	41.8	-92.1	16.5
2025-01-14 19:46:03.315110	311.6	41.5	-92.4	19.7
2025-01-14 19:46:04.476557	311.9	41.3	-92.8	8.4
2025-01-14 19:46:05.622085	312.2	41.0	-92.5	11.0
2025-01-14 19:46:06.790002	312.5	40.8	-92.6	21.0
2025-01-14 19:46:07.946053	312.8	40.5	-92.5	17.2
2025-01-14 19:46:09.109357	313.1	40.3	-92.5	11.4
2025-01-14 19:46:10.263044	313.4	40.0	-92.2	19.9
2025-01-14 19:46:11.424695	313.7	39.8	-92.6	18.8
2025-01-14 19:46:12.584436	313.9	39.5	-92.4	18.1
2025-01-14 19:46:13.747419	314.2	39.3	-92.7	4.3
2025-01-14 19:46:14.909988	314.5	39.0	-92.4	17.6
2025-01-14 19:46:16.076083	314.7	38.8	-92.7	5.8
2025-01-14 19:46:17.235850	315.0	38.5	-92.3	11.6
2025-01-14 19:46:18.398606	315.2	38.3	-92.1	11.4
2025-01-14 19:46:19.559099	315.5	38.0	-92.3	9.9
2025-01-14 19:46:20.718713	315.7	37.8	-92.6	14.7
2025-01-14 19:46:21.883272	316.0	37.5	-92.6	8.4
2025-01-14 19:46:23.045314	316.2	37.3	-92.6	6.5
2025-01-14 19:46:24.211200	316.4	37.1	-92.7	8.8
2025-01-14 19:46:25.364413	316.7	36.8	-92.4	7.7
2025-01-14 19:46:26.532705	316.9	36.6	-92.6	6.3
2025-01-14 19:46:27.693525	317.1	36.4	-92.8	9.3
2025-01-14 19:46:28.853914	317.3	36.1	-92.6	12.3
2025-01-14 19:46:30.018457	317.5	35.9	-92.5	10.0
2025-01-14 19:46:31.183136	317.8	35.7	-92.5	10.4
2025-01-14 19:46:32.343693	318.0	35.4	-92.4	8.6
2025-01-14 19:46:33.510326	318.2	35.2	-92.4	14.3
2025-01-14 19:46:34.666952	318.4	35.0	-92.3	13.6
2025-01-14 19:46:35.822634	318.6	34.7	-92.5	13.2
2025-01-14 19:46:36.980519	318.8	34.5	-92.4	13.3
2025-01-14 19:46:38.141980	319.0	34.3	-92.4	12.5
2025-01-14 19:46:39.308231	319.2	34.1	-92.1	16.5
2025-01-14 19:46:40.468349	319.4	33.8	-92.2	9.5
2025-01-14 19:46:41.627388	319.6	33.6	-92.3	12.6
2025-01-14 19:46:42.791357	319.8	33.4	-92.6	18.6
2025-01-14 19:46:43.949072	319.9	33.2	-92.3	13.5
2025-01-14 19:46:45.106355	320.1	33.0	-92.1	9.4
2025-01-14 19:46:46.249218	320.3	32.8	-92.3	18.6
2025-01-14 19:46:47.370828	320.5	32.6	-92.2	12.3
2025-01-14 19:46:48.490648	320.6	32.3	-92.4	6.0
2025-01-14 19:46:49.613069	320.8	32.1	-92.4	12.6
2025-01-14 19:46:50.733513	321.0	31.9	-92.3	16.7
2025-01-14 19:46:51.853927	321.1	31.7	-92.3	14.3
2025-01-14 19:46:52.974423	321.3	31.5	-92.6	14.9
2025-01-14 19:46:54.095325	321.5	31.3	-92.3	7.0
2025-01-14 19:46:55.215388	321.6	31.1	-92.4	19.4
2025-01-14 19:46:56.376992	321.8	30.9	-92.4	11.7
2025-01-14 19:46:57.545101	321.9	30.7	-92.3	13.0
2025-01-14 19:46:58.698614	322.1	30.5	-92.3	15.3
2025-01-14 19:46:59.838472	322.3	30.3	-92.5	7.5
2025-01-14 19:47:00.992973	322.4	30.1	-92.5	5.7
2025-01-14 19:47:02.116993	322.6	29.9	-92.2	7.5
2025-01-14 19:47:03.278847	322.7	29.7	-92.3	20.4
2025-01-14 19:47:04.421493	322.9	29.5	-92.2	8.7
2025-01-14 19:47:05.577051	323.0	29.4	-92.2	6.3
2025-01-14 19:47:06.734360	323.2	29.2	-92.2	12.2
2025-01-14 19:47:07.884442	323.3	29.0	-92.4	8.8
2025-01-14 19:47:09.034211	323.4	28.8	-92.4	14.2
2025-01-14 19:47:10.197537	323.6	28.6	-92.3	8.7
2025-01-14 19:47:11.353328	323.7	28.4	-92.3	17.7
2025-01-14 19:47:12.478141	323.8	28.2	-92.4	11.4
2025-01-14 19:47:13.617352	324.0	28.0	-92.2	11.6
2025-01-14 19:47:14.764531	324.1	27.8	-92.6	7.3
2025-01-14 19:47:15.918531	324.2	27.7	-92.4	11.0
2025-01-14 19:47:17.062329	324.4	27.5	-92.3	9.1
2025-01-14 19:47:18.226755	324.5	27.3	-92.5	17.4
2025-01-14 19:47:19.388027	324.6	27.1	-92.5	11.8
2025-01-14 19:47:20.546349	324.8	26.9	-92.4	7.6
2025-01-14 19:47:21.698102	324.9	26.7	-92.3	16.3
2025-01-14 19:47:22.861072	325.0	26.6	-92.4	12.9
2025-01-14 19:47:24.019245	325.1	26.4	-92.2	12.7
2025-01-14 19:47:25.176949	325.3	26.2	-92.1	17.0
2025-01-14 19:47:26.339831	325.4	26.0	-92.2	17.6
2025-01-14 19:47:27.504077	325.5	25.9	-92.8	4.4
2025-01-14 19:47:28.665914	325.6	25.7	-92.4	13.2
2025-01-14 19:47:29.828894	325.7	25.5	-92.5	13.7
2025-01-14 19:47:30.990594	325.9	25.3	-92.5	5.9
2025-01-14 19:47:32.151275	326.0	25.2	-92.5	5.5
2025-01-14 19:47:33.309872	326.1	25.0	-92.2	10.7
2025-01-14 19:47:34.470763	326.2	24.8	-92.3	6.2
2025-01-14 19:47:35.630030	326.3	24.7	-92.0	9.8
2025-01-14 19:47:36.797068	326.4	24.5	-92.4	10.9
2025-01-14 19:47:37.961951	326.5	24.3	-92.2	9.5
2025-01-14 19:47:39.135936	326.6	24.2	-92.1	7.7
2025-01-14 19:47:40.300071	326.7	24.0	-91.8	18.1
2025-01-14 19:47:41.467202	326.9	23.8	-91.6	8.8
2025-01-14 19:47:42.628883	327.0	23.7	-91.6	13.6
2025-01-14 19:47:43.787845	327.1	23.5	-91.8	5.8
2025-01-14 19:47:44.948299	327.2	23.3	-92.0	13.8
2025-01-14 19:47:46.115425	327.3	23.2	-91.9	5.5
2025-01-14 19:47:47.278697	327.4	23.0	-92.2	7.2
2025-01-14 19:47:48.440941	327.5	22.9	-92.4	8.9
2025-01-14 19:47:49.597542	327.6	22.7	-92.3	9.3
2025-01-14 19:47:50.761225	327.7	22.6	-92.2	13.9
2025-01-14 19:47:51.923373	327.8	22.4	-92.2	6.8
2025-01-14 19:47:53.083427	327.9	22.2	-92.4	8.4
2025-01-14 19:47:54.243717	328.0	22.1	-92.6	9.0
2025-01-14 19:47:55.402058	328.0	21.9	-92.6	8.9
2025-01-14 19:47:56.563327	328.1	21.8	-92.7	6.8
2025-01-14 19:47:57.723566	328.2	21.6	-92.4	8.9
2025-01-14 19:47:58.880100	328.3	21.5	-92.6	9.8
2025-01-14 19:48:00.042847	328.4	21.3	-92.5	7.9
2025-01-14 19:48:01.200200	328.5	21.2	-92.3	6.0
2025-01-14 19:48:02.360253	328.6	21.0	-92.3	6.5
2025-01-14 19:48:03.514582	328.7	20.9	-92.5	4.4
2025-01-14 19:48:04.672264	328.8	20.7	-92.1	10.4
2025-01-14 19:48:05.837289	328.9	20.6	-92.7	7.1
2025-01-14 19:48:06.994446	328.9	20.4	-92.4	3.8
2025-01-14 19:48:08.155967	329.0	20.3	-92.6	5.0
2025-01-14 19:48:09.323949	329.1	20.2	-92.5	4.9
2025-01-14 19:48:10.479851	329.2	20.0	-92.7	4.5
2025-01-14 19:48:11.644352	329.3	19.9	-92.6	4.4
2025-01-14 19:48:12.810416	329.4	19.7	-92.4	5.4
2025-01-14 19:48:13.966754	329.4	19.6	-92.5	2.4
2025-01-14 19:48:15.128976	329.5	19.5	-92.1	3.6
2025-01-14 19:48:16.292252	329.6	19.3	-92.1	5.3
2025-01-14 19:48:17.453925	329.7	19.2	-92.2	4.8
2025-01-14 19:48:18.619002	329.8	19.0	-92.6	5.9
2025-01-14 19:48:19.779751	329.8	18.9	-92.6	7.2
2025-01-14 19:48:20.943892	329.9	18.8	-92.4	4.5
2025-01-14 19:48:22.102388	330.0	18.6	-92.2	3.3
2025-01-14 19:48:23.259480	330.1	18.5	-92.5	3.4
2025-01-14 19:48:24.434331	330.2	18.4	-92.5	3.1
2025-01-14 19:48:25.598146	330.2	18.2	-92.7	4.0
2025-01-14 19:48:26.764242	330.3	18.1	-92.2	9.3
2025-01-14 19:48:27.928188	330.4	18.0	-92.2	5.3
2025-01-14 19:48:29.085267	330.5	17.8	-92.5	4.4
2025-01-14 19:48:30.248444	330.5	17.7	-92.5	5.6
2025-01-14 19:48:31.405587	330.6	17.6	-92.3	3.3
2025-01-14 19:48:32.567220	330.7	17.4	-92.3	5.2
2025-01-14 19:48:33.729751	330.7	17.3	-92.6	6.5
2025-01-14 19:48:34.885612	330.8	17.2	-92.4	2.4
2025-01-14 19:48:36.044503	330.9	17.1	-92.4	2.7
2025-01-14 19:48:37.204746	331.0	16.9	-92.4	4.2
2025-01-14 19:48:38.363354	331.0	16.8	-92.4	5.2
2025-01-14 19:48:39.530023	331.1	16.7	-92.7	4.9
2025-01-14 19:48:40.680436	331.2	16.5	-92.5	5.9
2025-01-14 19:48:41.832202	331.2	16.4	-92.8	5.8
2025-01-14 19:48:42.959029	331.3	16.3	-92.6	2.9
2025-01-14 19:48:44.080621	331.4	16.2	-92.4	3.7
2025-01-14 19:48:45.200272	331.4	16.1	-92.4	3.2
2025-01-14 19:48:46.321889	331.5	15.9	-92.3	3.2
2025-01-14 19:48:47.441881	331.6	15.8	-92.6	3.9
2025-01-14 19:48:48.561779	331.6	15.7	-92.7	4.9
2025-01-14 19:48:49.682243	331.7	15.6	-92.5	3.6
2025-01-14 19:48:50.803491	331.7	15.5	-92.5	7.2
2025-01-14 19:48:51.941493	331.8	15.4	-92.5	4.2
2025-01-14 19:48:53.103083	331.9	15.2	-92.7	5.5
2025-01-14 19:48:54.262396	331.9	15.1	-92.5	5.7
2025-01-14 19:48:55.424751	332.0	15.0	-92.9	4.8
2025-01-14 19:48:56.582763	332.0	14.9	-92.7	7.9
2025-01-14 19:48:57.740469	332.1	14.8	-92.7	3.4
2025-01-14 19:48:58.906115	332.2	14.7	-92.6	2.8
2025-01-14 19:49:00.070031	332.2	14.5	-92.3	3.1
#Closed at: 2025-01-14 19:39:51.536088