passes_logs/2025/01/14/LEX_Murmansk/LEX_Murmansk__20250114_173340_NOAA_19_rec.log

#Pass ID: 20250114_173340_NOAA 19
#Satellite: NOAA 19
#Configuration: NOAA 19
#Start time: 2025-01-14 17:33:35.546625

#LorettStation: 1.0.0 05.05.2024
#Station: LEX_Murmansk
#Location: 33.156738 lon 68.926811 lat
#TLE: 1 33591U 09005A   25014.15453959  .00000276  00000+0  17122-3 0  9998
#TLE: 2 33591  99.0198  77.9105 0014501  59.8090 300.4516 14.13258688821422

#Time	Az	El	Level	SNR
2025-01-14 17:33:47.801049	147.5	16.3	-89.9	4.4
2025-01-14 17:33:48.968008	147.5	16.5	-89.4	4.3
2025-01-14 17:33:50.134188	147.5	16.6	-89.6	2.5
2025-01-14 17:33:51.302009	147.5	16.7	-90.2	5.1
2025-01-14 17:33:52.467047	147.5	16.9	-90.1	3.9
2025-01-14 17:33:53.630315	147.5	17.0	-89.6	2.6
2025-01-14 17:33:54.800041	147.5	17.1	-89.3	3.5
2025-01-14 17:33:55.964670	147.5	17.3	-89.5	3.1
2025-01-14 17:33:57.128529	147.5	17.4	-90.1	3.2
2025-01-14 17:33:58.292335	147.4	17.5	-90.0	3.3
2025-01-14 17:33:59.455756	147.4	17.7	-90.2	4.0
2025-01-14 17:34:00.619689	147.4	17.8	-89.8	7.2
2025-01-14 17:34:01.777259	147.4	18.0	-89.9	4.7
2025-01-14 17:34:02.938754	147.4	18.1	-89.4	2.9
2025-01-14 17:34:04.103117	147.4	18.2	-89.4	4.0
2025-01-14 17:34:05.271031	147.4	18.4	-89.9	4.8
2025-01-14 17:34:06.432449	147.4	18.5	-89.9	3.8
2025-01-14 17:34:07.596828	147.4	18.7	-90.2	6.0
2025-01-14 17:34:08.757510	147.4	18.8	-90.1	4.1
2025-01-14 17:34:09.919394	147.4	19.0	-90.2	4.0
2025-01-14 17:34:11.079477	147.4	19.1	-90.2	2.0
2025-01-14 17:34:12.242891	147.3	19.2	-90.3	4.0
2025-01-14 17:34:13.409791	147.3	19.4	-90.3	3.1
2025-01-14 17:34:14.574632	147.3	19.5	-90.2	4.2
2025-01-14 17:34:15.741768	147.3	19.7	-90.0	5.7
2025-01-14 17:34:16.905222	147.3	19.8	-90.2	6.5
2025-01-14 17:34:18.065647	147.3	20.0	-89.3	4.7
2025-01-14 17:34:19.228926	147.3	20.1	-89.3	5.0
2025-01-14 17:34:20.393985	147.3	20.3	-89.5	4.9
2025-01-14 17:34:21.558758	147.3	20.5	-89.8	5.5
2025-01-14 17:34:22.723781	147.2	20.6	-89.5	5.9
2025-01-14 17:34:23.886970	147.2	20.8	-89.8	6.4
2025-01-14 17:34:25.042846	147.2	20.9	-90.3	3.0
2025-01-14 17:34:26.207779	147.2	21.1	-89.7	0.9
2025-01-14 17:34:27.366941	147.2	21.2	-89.4	4.0
2025-01-14 17:34:28.532979	147.2	21.4	-89.1	1.6
2025-01-14 17:34:29.694627	147.2	21.6	-90.0	3.9
2025-01-14 17:34:30.859275	147.2	21.7	-90.1	6.6
2025-01-14 17:34:32.024035	147.2	21.9	-90.4	7.8
2025-01-14 17:34:33.191603	147.1	22.0	-89.6	6.1
2025-01-14 17:34:34.356961	147.1	22.2	-89.5	6.1
2025-01-14 17:34:35.520181	147.1	22.4	-89.5	3.3
2025-01-14 17:34:36.687022	147.1	22.5	-89.6	4.7
2025-01-14 17:34:37.850513	147.1	22.7	-89.7	3.2
2025-01-14 17:34:39.016324	147.1	22.9	-89.7	5.8
2025-01-14 17:34:40.170783	147.1	23.0	-89.6	5.1
2025-01-14 17:34:41.330539	147.1	23.2	-89.8	5.6
2025-01-14 17:34:42.495572	147.0	23.4	-89.9	2.8
2025-01-14 17:34:43.661757	147.0	23.6	-89.5	0.2
2025-01-14 17:34:44.827588	147.0	23.7	-89.7	2.7
2025-01-14 17:34:45.991244	147.0	23.9	-89.9	2.9
2025-01-14 17:34:47.158379	147.0	24.1	-89.9	7.4
2025-01-14 17:34:48.319533	147.0	24.3	-90.2	9.3
2025-01-14 17:34:49.484148	147.0	24.4	-90.6	6.8
2025-01-14 17:34:50.647359	146.9	24.6	-90.6	6.5
2025-01-14 17:34:51.820368	146.9	24.8	-89.8	6.9
2025-01-14 17:34:52.981624	146.9	25.0	-90.1	5.5
2025-01-14 17:34:54.157857	146.9	25.2	-89.9	6.6
2025-01-14 17:34:55.319620	146.9	25.4	-90.1	7.0
2025-01-14 17:34:56.481504	146.9	25.6	-90.2	6.1
2025-01-14 17:34:57.640810	146.8	25.7	-90.0	3.1
2025-01-14 17:34:58.805781	146.8	25.9	-90.1	4.2
2025-01-14 17:34:59.970144	146.8	26.1	-90.2	1.8
2025-01-14 17:35:01.128891	146.8	26.3	-90.2	4.3
2025-01-14 17:35:02.293687	146.8	26.5	-90.4	5.9
2025-01-14 17:35:03.462642	146.8	26.7	-90.2	6.6
2025-01-14 17:35:04.628966	146.7	26.9	-90.3	9.3
2025-01-14 17:35:05.804831	146.7	27.1	-90.7	8.5
2025-01-14 17:35:06.967675	146.7	27.3	-90.6	4.1
2025-01-14 17:35:08.135864	146.7	27.5	-90.4	5.4
2025-01-14 17:35:09.304144	146.7	27.7	-90.1	5.6
2025-01-14 17:35:10.470829	146.6	27.9	-90.4	6.2
2025-01-14 17:35:11.638991	146.6	28.1	-90.6	7.2
2025-01-14 17:35:12.796653	146.6	28.3	-90.2	3.7
2025-01-14 17:35:13.960161	146.6	28.5	-90.5	3.3
2025-01-14 17:35:15.114896	146.6	28.7	-90.6	3.0
2025-01-14 17:35:16.268737	146.5	28.9	-90.8	1.4
2025-01-14 17:35:17.395599	146.5	29.1	-90.4	2.4
2025-01-14 17:35:18.516827	146.5	29.4	-90.0	2.8
2025-01-14 17:35:19.637073	146.5	29.6	-90.0	4.8
2025-01-14 17:35:20.760029	146.5	29.8	-89.6	6.2
2025-01-14 17:35:21.881179	146.4	30.0	-89.9	6.5
2025-01-14 17:35:23.001798	146.4	30.2	-89.9	6.8
2025-01-14 17:35:24.122623	146.4	30.4	-89.8	5.1
2025-01-14 17:35:25.245130	146.4	30.6	-89.7	5.4
2025-01-14 17:35:26.379946	146.3	30.8	-90.1	7.8
2025-01-14 17:35:27.542209	146.3	31.1	-90.3	6.2
2025-01-14 17:35:28.705860	146.3	31.3	-90.9	6.5
2025-01-14 17:35:29.869217	146.3	31.5	-90.9	7.2
2025-01-14 17:35:31.026179	146.2	31.8	-89.9	4.3
2025-01-14 17:35:32.180530	146.2	32.0	-91.0	4.7
2025-01-14 17:35:33.337217	146.2	32.2	-91.0	1.0
2025-01-14 17:35:34.496426	146.2	32.5	-90.2	0.1
2025-01-14 17:35:35.664483	146.1	32.7	-90.3	3.8
2025-01-14 17:35:36.828184	146.1	33.0	-90.3	5.5
2025-01-14 17:35:37.996414	146.1	33.2	-90.3	8.2
2025-01-14 17:35:39.160028	146.1	33.4	-90.9	8.5
2025-01-14 17:35:40.327759	146.0	33.7	-90.5	6.9
2025-01-14 17:35:41.486837	146.0	33.9	-90.4	4.0
2025-01-14 17:35:42.646528	146.0	34.2	-90.6	5.2
2025-01-14 17:35:43.830610	145.9	34.5	-90.5	9.7
2025-01-14 17:35:44.995378	145.9	34.7	-90.7	10.5
2025-01-14 17:35:46.158587	145.9	35.0	-90.7	13.4
2025-01-14 17:35:47.320527	145.8	35.2	-90.7	10.0
2025-01-14 17:35:48.480357	145.8	35.5	-90.0	5.0
2025-01-14 17:35:49.640402	145.8	35.8	-90.0	3.2
2025-01-14 17:35:50.795480	145.7	36.0	-90.3	4.4
2025-01-14 17:35:51.959389	145.7	36.3	-90.4	3.9
2025-01-14 17:35:53.117818	145.7	36.6	-90.5	7.6
2025-01-14 17:35:54.277389	145.6	36.8	-90.3	9.9
2025-01-14 17:35:55.438659	145.6	37.1	-90.8	12.7
2025-01-14 17:35:56.597550	145.6	37.4	-90.6	13.2
2025-01-14 17:35:57.753801	145.5	37.7	-90.5	13.8
2025-01-14 17:35:58.916708	145.5	37.9	-90.6	8.5
2025-01-14 17:36:00.038800	145.4	38.2	-90.7	5.8
2025-01-14 17:36:01.187779	145.4	38.5	-90.6	5.7
2025-01-14 17:36:02.336610	145.4	38.8	-90.7	11.4
2025-01-14 17:36:03.472259	145.3	39.1	-90.6	13.2
2025-01-14 17:36:04.613937	145.3	39.4	-90.4	12.3
2025-01-14 17:36:05.772179	145.2	39.7	-90.2	11.1
2025-01-14 17:36:06.914435	145.2	40.0	-90.0	7.8
2025-01-14 17:36:08.067308	145.1	40.3	-89.9	4.0
2025-01-14 17:36:09.219717	145.1	40.6	-90.4	5.7
2025-01-14 17:36:10.388773	145.0	40.9	-90.4	6.1
2025-01-14 17:36:11.545186	145.0	41.2	-90.0	4.4
2025-01-14 17:36:12.705382	144.9	41.5	-89.9	10.4
2025-01-14 17:36:13.865846	144.9	41.8	-90.1	12.3
2025-01-14 17:36:15.030557	144.8	42.1	-90.0	14.9
2025-01-14 17:36:16.195383	144.8	42.4	-90.0	13.3
2025-01-14 17:36:17.361336	144.7	42.8	-90.2	11.2
2025-01-14 17:36:18.527028	144.7	43.1	-90.2	6.7
2025-01-14 17:36:19.686329	144.6	43.4	-90.4	8.6
2025-01-14 17:36:20.853896	144.6	43.7	-90.1	13.3
2025-01-14 17:36:22.011785	144.5	44.1	-89.9	14.9
2025-01-14 17:36:23.183377	144.4	44.4	-90.0	17.5
2025-01-14 17:36:24.348340	144.4	44.8	-90.3	10.6
2025-01-14 17:36:25.511821	144.3	45.1	-90.3	6.7
2025-01-14 17:36:26.681717	144.3	45.4	-90.8	7.0
2025-01-14 17:36:27.839511	144.2	45.8	-90.8	5.0
2025-01-14 17:36:29.007358	144.1	46.1	-90.3	3.8
2025-01-14 17:36:30.170415	144.0	46.5	-90.5	2.5
2025-01-14 17:36:31.329408	144.0	46.9	-90.4	4.2
2025-01-14 17:36:32.488997	143.9	47.2	-90.3	4.7
2025-01-14 17:36:33.657138	143.8	47.6	-90.4	3.6
2025-01-14 17:36:34.819304	143.8	47.9	-90.1	1.3
2025-01-14 17:36:35.983178	143.7	48.3	-90.3	5.5
2025-01-14 17:36:37.145496	143.6	48.7	-90.3	6.9
2025-01-14 17:36:38.309103	143.5	49.1	-90.4	5.8
2025-01-14 17:36:39.477356	143.4	49.4	-90.1	3.1
2025-01-14 17:36:40.638019	143.3	49.8	-90.3	4.0
2025-01-14 17:36:41.792851	143.2	50.2	-90.7	11.0
2025-01-14 17:36:42.952721	143.2	50.6	-90.7	6.6
2025-01-14 17:36:44.114933	143.1	51.0	-90.2	10.7
2025-01-14 17:36:45.276431	143.0	51.4	-90.5	8.3
2025-01-14 17:36:46.445213	142.9	51.8	-90.6	5.8
2025-01-14 17:36:47.607684	142.8	52.2	-90.6	3.7
2025-01-14 17:36:48.778125	142.7	52.6	-90.7	4.9
2025-01-14 17:36:49.943454	142.5	53.0	-91.0	3.9
2025-01-14 17:36:51.105057	142.4	53.4	-90.6	2.6
2025-01-14 17:36:52.276292	142.3	53.8	-90.7	9.0
2025-01-14 17:36:53.437043	142.2	54.2	-90.2	6.0
2025-01-14 17:36:54.600061	142.1	54.7	-90.1	9.4
2025-01-14 17:36:55.762580	142.0	55.1	-89.9	15.3
2025-01-14 17:36:56.926789	141.8	55.5	-90.5	17.8
2025-01-14 17:36:58.083220	141.7	55.9	-90.7	12.8
2025-01-14 17:36:59.248327	141.5	56.4	-90.8	11.0
2025-01-14 17:37:00.416011	141.4	56.8	-90.0	8.7
2025-01-14 17:37:01.575119	141.3	57.3	-89.7	4.0
2025-01-14 17:37:02.741508	141.1	57.7	-90.4	7.1
2025-01-14 17:37:03.904705	140.9	58.1	-90.5	6.5
2025-01-14 17:37:05.064949	140.8	58.6	-90.2	16.0
2025-01-14 17:37:06.231365	140.6	59.0	-90.3	19.5
2025-01-14 17:37:07.392188	140.4	59.5	-90.5	18.5
2025-01-14 17:37:08.556962	140.3	60.0	-90.4	13.4
2025-01-14 17:37:09.714650	140.1	60.4	-90.8	10.2
2025-01-14 17:37:10.881844	139.9	60.9	-90.3	9.8
2025-01-14 17:37:12.040904	139.7	61.4	-90.3	4.3
2025-01-14 17:37:13.201408	139.5	61.8	-90.1	5.3
2025-01-14 17:37:14.367011	139.2	62.3	-89.9	6.4
2025-01-14 17:37:15.534976	139.0	62.8	-89.5	4.3
2025-01-14 17:37:16.696388	138.8	63.3	-89.9	6.4
2025-01-14 17:37:17.858396	138.5	63.7	-90.3	6.5
2025-01-14 17:37:19.017567	138.3	64.2	-90.2	6.2
2025-01-14 17:37:20.181999	138.0	64.7	-90.8	7.4
2025-01-14 17:37:21.345300	137.7	65.2	-90.3	7.6
2025-01-14 17:37:22.504758	137.4	65.7	-90.7	10.7
2025-01-14 17:37:23.666757	137.1	66.2	-90.5	9.9
2025-01-14 17:37:24.828485	136.8	66.7	-91.1	11.3
2025-01-14 17:37:25.993424	136.4	67.2	-90.9	4.6
2025-01-14 17:37:27.160807	136.1	67.7	-90.5	9.5
2025-01-14 17:37:28.324360	135.7	68.2	-90.5	11.0
2025-01-14 17:37:29.488763	135.3	68.7	-90.4	9.9
2025-01-14 17:37:30.654030	134.9	69.2	-90.5	14.1
2025-01-14 17:37:31.813927	134.5	69.7	-90.7	10.4
2025-01-14 17:37:32.975717	134.0	70.2	-90.8	15.3
2025-01-14 17:37:34.139504	133.5	70.7	-90.9	19.5
2025-01-14 17:37:35.298990	133.0	71.2	-90.8	18.1
2025-01-14 17:37:36.463329	132.4	71.8	-90.8	17.0
2025-01-14 17:37:37.626690	131.9	72.3	-91.0	14.1
2025-01-14 17:37:38.794757	131.2	72.8	-90.7	8.6
2025-01-14 17:37:39.957397	130.6	73.3	-89.9	8.3
2025-01-14 17:37:41.122999	129.9	73.8	-90.5	9.7
2025-01-14 17:37:42.283614	129.1	74.3	-90.9	9.6
2025-01-14 17:37:43.444484	128.3	74.9	-90.7	4.1
2025-01-14 17:37:44.611863	127.4	75.4	-90.8	9.1
2025-01-14 17:37:45.775102	126.5	75.9	-90.8	8.5
2025-01-14 17:37:46.938425	125.5	76.4	-90.7	2.3
2025-01-14 17:37:48.097829	124.4	76.9	-90.1	4.1
2025-01-14 17:37:49.264306	123.2	77.4	-90.7	11.4
2025-01-14 17:37:50.423986	122.0	77.9	-90.8	11.5
2025-01-14 17:37:51.587249	120.6	78.4	-90.2	10.0
2025-01-14 17:37:52.748286	119.0	78.9	-90.5	18.4
2025-01-14 17:37:53.923548	117.4	79.4	-90.6	16.1
2025-01-14 17:37:55.089489	115.5	79.9	-91.0	17.8
2025-01-14 17:37:56.253696	113.5	80.3	-90.7	17.4
2025-01-14 17:37:57.419921	111.3	80.8	-90.3	19.8
2025-01-14 17:37:58.586294	108.9	81.2	-90.4	18.9
2025-01-14 17:37:59.754788	106.2	81.6	-90.7	19.4
2025-01-14 17:38:00.912528	103.2	82.0	-90.6	14.6
2025-01-14 17:38:02.080654	99.9	82.4	-90.7	13.7
2025-01-14 17:38:03.222206	96.4	82.8	-90.6	15.5
2025-01-14 17:38:04.342982	92.5	83.1	-90.5	18.3
2025-01-14 17:38:05.471836	88.3	83.4	-90.4	11.7
2025-01-14 17:38:06.592459	83.8	83.6	-90.6	9.1
2025-01-14 17:38:07.714004	79.0	83.8	-90.6	13.2
2025-01-14 17:38:08.835521	73.9	83.9	-90.6	13.9
2025-01-14 17:38:09.956558	68.6	84.0	-90.7	8.6
2025-01-14 17:38:11.078769	63.1	84.1	-90.5	9.2
2025-01-14 17:38:12.200241	57.6	84.1	-90.8	13.0
2025-01-14 17:38:13.349239	52.1	84.0	-90.6	14.5
2025-01-14 17:38:14.503841	46.6	83.9	-90.8	10.9
2025-01-14 17:38:15.657723	41.5	83.7	-90.6	14.6
2025-01-14 17:38:16.814001	36.6	83.5	-90.3	15.7
2025-01-14 17:38:17.968206	32.1	83.3	-90.5	13.8
2025-01-14 17:38:19.130134	27.9	83.0	-90.4	16.1
2025-01-14 17:38:20.574425	23.2	82.5	-90.8	15.4
2025-01-14 17:38:21.742316	19.8	82.2	-90.8	18.3
2025-01-14 17:38:22.901559	16.7	81.8	-90.9	17.5
2025-01-14 17:38:24.065375	13.9	81.4	-91.0	17.5
2025-01-14 17:38:25.230162	11.4	80.9	-91.0	17.5
2025-01-14 17:38:26.393970	9.1	80.5	-90.5	14.6
2025-01-14 17:38:27.553278	7.1	80.0	-90.8	18.1
2025-01-14 17:38:28.717065	5.2	79.5	-90.4	19.9
2025-01-14 17:38:29.878779	3.5	79.1	-90.3	17.2
2025-01-14 17:38:31.050129	1.9	78.6	-90.2	17.3
2025-01-14 17:38:32.208216	0.5	78.1	-90.3	17.4
2025-01-14 17:38:33.375483	359.1	77.6	-90.5	15.9
2025-01-14 17:38:34.539374	357.9	77.1	-90.5	16.4
2025-01-14 17:38:35.694847	356.8	76.6	-90.7	16.9
2025-01-14 17:38:36.858558	355.8	76.1	-90.4	11.5
2025-01-14 17:38:38.019742	354.8	75.6	-90.0	12.5
2025-01-14 17:38:39.183741	353.9	75.1	-90.0	9.8
2025-01-14 17:38:40.309709	353.1	74.6	-91.0	9.5
2025-01-14 17:38:41.456187	352.4	74.0	-90.9	11.9
2025-01-14 17:38:42.614131	351.7	73.5	-91.0	11.1
2025-01-14 17:38:43.763308	351.0	73.0	-90.5	15.4
2025-01-14 17:38:44.914620	350.4	72.5	-90.9	10.9
2025-01-14 17:38:46.068472	349.8	72.0	-90.3	14.0
2025-01-14 17:38:47.224769	349.2	71.5	-90.6	12.5
2025-01-14 17:38:48.385553	348.7	71.0	-89.9	12.2
2025-01-14 17:38:49.549424	348.2	70.5	-90.2	10.2
2025-01-14 17:38:50.711051	347.7	70.0	-89.9	11.6
2025-01-14 17:38:51.871459	347.3	69.4	-89.6	11.0
2025-01-14 17:38:53.028242	346.8	68.9	-89.7	8.8
2025-01-14 17:38:54.185823	346.4	68.4	-90.1	8.8
2025-01-14 17:38:55.347221	346.0	67.9	-90.4	11.2
2025-01-14 17:38:56.528123	345.7	67.4	-90.5	8.0
2025-01-14 17:38:57.692775	345.3	66.9	-91.0	11.8
2025-01-14 17:38:58.857241	345.0	66.4	-90.8	13.5
2025-01-14 17:39:00.017429	344.7	65.9	-90.8	9.7
2025-01-14 17:39:01.176223	344.4	65.4	-90.5	9.7
2025-01-14 17:39:02.340170	344.1	65.0	-89.7	5.1
2025-01-14 17:39:03.501553	343.8	64.5	-89.8	5.2
2025-01-14 17:39:04.664137	343.6	64.0	-90.5	5.5
2025-01-14 17:39:05.573861	343.4	63.6	-89.5	6.8
2025-01-14 17:39:06.741426	343.1	63.1	-90.2	2.7
2025-01-14 17:39:07.904493	342.9	62.6	-90.1	7.5
2025-01-14 17:39:09.065872	342.7	62.2	-90.3	8.3
2025-01-14 17:39:10.231814	342.4	61.7	-90.8	3.9
2025-01-14 17:39:11.390682	342.2	61.2	-90.7	3.7
2025-01-14 17:39:12.551069	342.0	60.8	-90.5	4.6
2025-01-14 17:39:13.710234	341.8	60.3	-91.0	4.8
2025-01-14 17:39:14.873031	341.6	59.8	-90.9	5.8
2025-01-14 17:39:16.034065	341.5	59.4	-91.0	6.8
2025-01-14 17:39:17.195718	341.3	58.9	-90.8	3.3
2025-01-14 17:39:18.359324	341.1	58.5	-91.0	5.3
2025-01-14 17:39:19.527485	341.0	58.0	-90.8	6.7
2025-01-14 17:39:20.686419	340.8	57.6	-90.9	5.7
2025-01-14 17:39:21.852694	340.7	57.2	-90.9	5.4
2025-01-14 17:39:23.010532	340.5	56.7	-91.3	9.1
2025-01-14 17:39:24.170964	340.4	56.3	-91.0	9.9
2025-01-14 17:39:25.338486	340.2	55.9	-90.8	13.6
2025-01-14 17:39:26.498143	340.1	55.4	-90.8	14.6
2025-01-14 17:39:27.666261	340.0	55.0	-90.8	13.7
2025-01-14 17:39:28.831243	339.8	54.6	-90.8	10.9
2025-01-14 17:39:29.993761	339.7	54.2	-90.9	11.6
2025-01-14 17:39:31.156305	339.6	53.7	-90.6	11.8
2025-01-14 17:39:32.315502	339.5	53.3	-90.1	15.5
2025-01-14 17:39:33.479218	339.4	52.9	-90.5	14.2
2025-01-14 17:39:34.630432	339.3	52.5	-90.3	11.4
2025-01-14 17:39:35.757899	339.2	52.1	-90.8	12.3
2025-01-14 17:39:36.878934	339.1	51.7	-90.2	11.7
2025-01-14 17:39:37.999937	339.0	51.4	-90.9	9.7
2025-01-14 17:39:39.122097	338.9	51.0	-90.5	11.3
2025-01-14 17:39:40.243128	338.8	50.6	-90.4	7.5
2025-01-14 17:39:41.364293	338.7	50.2	-90.5	8.4
2025-01-14 17:39:42.484191	338.6	49.9	-90.3	7.5
2025-01-14 17:39:43.607073	338.5	49.5	-90.8	7.2
2025-01-14 17:39:44.749504	338.5	49.1	-90.5	3.2
2025-01-14 17:39:45.897987	338.4	48.8	-90.6	6.3
2025-01-14 17:39:47.055690	338.3	48.4	-90.8	7.5
2025-01-14 17:39:48.213273	338.2	48.0	-91.2	4.3
2025-01-14 17:39:49.377054	338.1	47.7	-91.0	10.8
2025-01-14 17:39:50.532736	338.1	47.3	-90.9	14.1
2025-01-14 17:39:51.693390	338.0	46.9	-90.7	12.9
2025-01-14 17:39:52.849822	337.9	46.6	-90.5	13.6
2025-01-14 17:39:54.015862	337.9	46.2	-90.9	15.3
2025-01-14 17:39:55.171519	337.8	45.9	-90.9	12.3
2025-01-14 17:39:56.328166	337.7	45.5	-90.7	11.5
2025-01-14 17:39:57.489804	337.7	45.2	-90.8	12.1
2025-01-14 17:39:58.659338	337.6	44.9	-90.6	11.7
2025-01-14 17:39:59.819046	337.5	44.5	-90.4	8.7
2025-01-14 17:40:00.988979	337.5	44.2	-90.9	11.0
2025-01-14 17:40:02.146890	337.4	43.8	-90.7	8.6
2025-01-14 17:40:03.309818	337.4	43.5	-91.0	4.3
2025-01-14 17:40:04.469475	337.3	43.2	-90.6	6.2
2025-01-14 17:40:05.632556	337.2	42.9	-91.1	9.2
2025-01-14 17:40:06.800814	337.2	42.5	-90.9	5.0
2025-01-14 17:40:07.962274	337.1	42.2	-90.8	8.7
2025-01-14 17:40:09.130213	337.1	41.9	-90.3	12.5
2025-01-14 17:40:10.291629	337.0	41.6	-91.0	12.5
2025-01-14 17:40:11.449109	337.0	41.3	-90.6	13.4
2025-01-14 17:40:12.609161	336.9	41.0	-90.8	15.1
2025-01-14 17:40:13.771095	336.9	40.7	-90.7	15.3
2025-01-14 17:40:14.934705	336.8	40.4	-90.9	15.6
2025-01-14 17:40:16.097428	336.8	40.1	-91.1	15.0
2025-01-14 17:40:17.254774	336.7	39.8	-90.7	13.7
2025-01-14 17:40:18.416417	336.7	39.5	-90.5	11.1
2025-01-14 17:40:19.582262	336.7	39.2	-90.9	11.8
2025-01-14 17:40:20.740245	336.6	38.9	-90.8	5.5
2025-01-14 17:40:21.906329	336.6	38.6	-90.9	8.2
2025-01-14 17:40:23.066257	336.5	38.3	-90.6	8.2
2025-01-14 17:40:24.231116	336.5	38.0	-91.1	4.5
2025-01-14 17:40:25.394729	336.5	37.7	-91.4	6.7
2025-01-14 17:40:26.554179	336.4	37.5	-90.8	8.4
2025-01-14 17:40:27.716987	336.4	37.2	-91.0	9.0
2025-01-14 17:40:28.880263	336.3	36.9	-90.6	7.5
2025-01-14 17:40:30.047682	336.3	36.6	-90.9	10.4
2025-01-14 17:40:31.212610	336.3	36.4	-90.8	8.5
2025-01-14 17:40:32.364715	336.2	36.1	-90.9	11.5
2025-01-14 17:40:33.520797	336.2	35.8	-90.8	11.6
2025-01-14 17:40:34.666480	336.2	35.6	-90.7	9.9
2025-01-14 17:40:35.796755	336.1	35.3	-90.5	7.6
2025-01-14 17:40:36.918204	336.1	35.1	-90.7	7.8
2025-01-14 17:40:38.038701	336.1	34.8	-90.8	7.4
2025-01-14 17:40:39.158363	336.0	34.6	-90.8	4.7
2025-01-14 17:40:40.279580	336.0	34.3	-90.6	5.1
2025-01-14 17:40:41.401208	336.0	34.1	-91.0	6.6
2025-01-14 17:40:42.521840	336.0	33.9	-90.4	5.7
2025-01-14 17:40:43.646215	335.9	33.6	-90.5	8.2
2025-01-14 17:40:44.782055	335.9	33.4	-90.6	6.5
2025-01-14 17:40:45.949061	335.9	33.1	-90.7	9.7
2025-01-14 17:40:47.111598	335.8	32.9	-91.0	13.0
2025-01-14 17:40:48.281207	335.8	32.6	-91.0	11.9
2025-01-14 17:40:49.431741	335.8	32.4	-90.8	9.6
2025-01-14 17:40:50.592238	335.8	32.2	-90.8	10.2
2025-01-14 17:40:51.760061	335.7	31.9	-90.6	5.6
2025-01-14 17:40:52.914464	335.7	31.7	-90.7	6.7
2025-01-14 17:40:54.078139	335.7	31.5	-90.7	6.0
2025-01-14 17:40:55.238828	335.7	31.3	-90.6	1.1
2025-01-14 17:40:56.404299	335.6	31.0	-90.7	7.3
2025-01-14 17:40:57.565066	335.6	30.8	-90.8	5.1
2025-01-14 17:40:58.729273	335.6	30.6	-91.0	5.6
2025-01-14 17:40:59.901040	335.6	30.4	-90.6	6.1
2025-01-14 17:41:01.058287	335.5	30.1	-90.8	7.8
2025-01-14 17:41:02.221038	335.5	29.9	-90.7	11.0
2025-01-14 17:41:03.388734	335.5	29.7	-90.9	8.8
2025-01-14 17:41:04.550411	335.5	29.5	-91.2	13.6
2025-01-14 17:41:05.713834	335.5	29.3	-91.1	11.2
2025-01-14 17:41:06.876257	335.4	29.1	-90.9	7.3
2025-01-14 17:41:08.033727	335.4	28.8	-91.4	7.6
2025-01-14 17:41:09.200258	335.4	28.6	-91.3	4.6
2025-01-14 17:41:10.361184	335.4	28.4	-91.2	3.6
2025-01-14 17:41:11.528045	335.4	28.2	-91.3	5.2
2025-01-14 17:41:12.684181	335.3	28.0	-91.2	2.3
2025-01-14 17:41:13.844721	335.3	27.8	-90.9	4.0
2025-01-14 17:41:15.007373	335.3	27.6	-90.8	4.3
2025-01-14 17:41:16.160815	335.3	27.4	-91.2	6.3
2025-01-14 17:41:17.308595	335.3	27.2	-90.9	6.5
2025-01-14 17:41:18.440568	335.3	27.0	-90.9	5.3
2025-01-14 17:41:19.597616	335.2	26.8	-90.7	11.0
2025-01-14 17:41:20.743298	335.2	26.6	-90.9	10.0
2025-01-14 17:41:21.901283	335.2	26.5	-90.7	8.9
2025-01-14 17:41:23.049282	335.2	26.3	-90.9	5.6
2025-01-14 17:41:24.197592	335.2	26.1	-91.0	4.6
2025-01-14 17:41:25.348716	335.2	25.9	-91.1	3.1
2025-01-14 17:41:26.477374	335.1	25.7	-90.6	5.0
2025-01-14 17:41:27.636736	335.1	25.5	-90.9	8.2
2025-01-14 17:41:28.787685	335.1	25.3	-90.7	5.2
2025-01-14 17:41:29.941245	335.1	25.2	-90.3	7.3
2025-01-14 17:41:31.106132	335.1	25.0	-90.9	10.5
2025-01-14 17:41:32.262225	335.1	24.8	-91.0	11.0
2025-01-14 17:41:33.416345	335.0	24.6	-90.5	5.4
2025-01-14 17:41:34.575279	335.0	24.4	-90.4	8.0
2025-01-14 17:41:35.745089	335.0	24.3	-90.5	4.8
2025-01-14 17:41:36.905885	335.0	24.1	-90.3	4.0
2025-01-14 17:41:38.064439	335.0	23.9	-90.4	2.9
2025-01-14 17:41:39.221469	335.0	23.7	-90.3	2.6
2025-01-14 17:41:40.382392	335.0	23.6	-90.6	2.0
2025-01-14 17:41:41.543493	334.9	23.4	-90.6	3.4
2025-01-14 17:41:42.704749	334.9	23.2	-90.9	4.0
2025-01-14 17:41:43.867921	334.9	23.0	-90.8	4.5
2025-01-14 17:41:45.026908	334.9	22.9	-90.3	4.9
2025-01-14 17:41:46.191149	334.9	22.7	-90.3	5.6
2025-01-14 17:41:47.349762	334.9	22.5	-90.6	4.6
2025-01-14 17:41:48.517292	334.9	22.4	-90.7	4.0
2025-01-14 17:41:49.675903	334.9	22.2	-91.2	4.7
2025-01-14 17:41:50.842649	334.8	22.1	-90.9	0.8
2025-01-14 17:41:52.007505	334.8	21.9	-90.9	3.8
2025-01-14 17:41:53.175884	334.8	21.7	-91.0	3.5
2025-01-14 17:41:54.338763	334.8	21.6	-91.3	3.9
2025-01-14 17:41:55.497333	334.8	21.4	-91.1	4.4
2025-01-14 17:41:56.659733	334.8	21.3	-90.8	2.6
2025-01-14 17:41:57.825792	334.8	21.1	-90.7	4.0
2025-01-14 17:41:58.981456	334.8	20.9	-91.2	6.7
2025-01-14 17:42:00.137954	334.8	20.8	-91.2	6.7
2025-01-14 17:42:01.304740	334.8	20.6	-91.1	6.1
2025-01-14 17:42:02.467836	334.7	20.5	-91.0	3.9
2025-01-14 17:42:03.630056	334.7	20.3	-90.8	4.3
2025-01-14 17:42:04.793635	334.7	20.2	-90.5	1.0
2025-01-14 17:42:05.957984	334.7	20.0	-90.4	2.2
2025-01-14 17:42:07.123069	334.7	19.9	-90.6	1.2
2025-01-14 17:42:08.285414	334.7	19.7	-90.6	2.3
2025-01-14 17:42:09.442524	334.7	19.6	-91.0	1.9
2025-01-14 17:42:10.608584	334.7	19.4	-90.7	2.5
2025-01-14 17:42:11.774390	334.7	19.3	-91.0	0.3
2025-01-14 17:42:12.930295	334.7	19.1	-90.7	3.1
2025-01-14 17:42:14.095014	334.6	19.0	-90.5	2.8
2025-01-14 17:42:15.256472	334.6	18.8	-90.7	2.7
2025-01-14 17:42:16.416553	334.6	18.7	-91.5	4.0
2025-01-14 17:42:17.580430	334.6	18.6	-91.1	4.0
2025-01-14 17:42:18.744620	334.6	18.4	-91.1	1.6
2025-01-14 17:42:19.908103	334.6	18.3	-91.1	3.0
2025-01-14 17:42:21.067389	334.6	18.1	-90.8	3.3
2025-01-14 17:42:22.235792	334.6	18.0	-90.9	2.8
2025-01-14 17:42:23.391659	334.6	17.9	-90.8	2.6
2025-01-14 17:42:24.558818	334.6	17.7	-90.8	1.1
2025-01-14 17:42:25.720452	334.6	17.6	-90.5	3.5
2025-01-14 17:42:26.882113	334.6	17.5	-91.4	3.5
2025-01-14 17:42:28.045208	334.6	17.3	-91.2	1.9
2025-01-14 17:42:29.201914	334.5	17.2	-90.7	0.1
2025-01-14 17:42:30.364184	334.5	17.1	-90.7	2.3
2025-01-14 17:42:31.528986	334.5	16.9	-90.6	0.1
2025-01-14 17:42:32.694170	334.5	16.8	-90.4	0.5
2025-01-14 17:42:33.854402	334.5	16.7	-90.6	2.3
2025-01-14 17:42:35.016763	334.5	16.5	-90.3	2.8
2025-01-14 17:42:36.153209	334.5	16.4	-90.7	3.6
2025-01-14 17:42:37.279230	334.5	16.3	-90.5	2.9
2025-01-14 17:42:38.442060	334.5	16.1	-90.8	1.9
2025-01-14 17:42:39.600541	334.5	16.0	-90.8	1.9
2025-01-14 17:42:40.760622	334.5	15.9	-90.9	3.2
2025-01-14 17:42:41.921960	334.5	15.8	-91.2	2.5
2025-01-14 17:42:43.074200	334.5	15.6	-90.6	1.6
2025-01-14 17:42:44.224709	334.5	15.5	-90.7	2.6
2025-01-14 17:42:45.389335	334.5	15.4	-90.3	1.3
2025-01-14 17:42:46.540074	334.4	15.3	-90.7	0.6
2025-01-14 17:42:47.704102	334.4	15.1	-90.8	1.8
2025-01-14 17:42:48.868612	334.4	15.0	-90.5	1.4
2025-01-14 17:42:50.033102	334.4	14.9	-90.7	2.2
2025-01-14 17:42:51.196147	334.4	14.8	-90.8	1.8
2025-01-14 17:42:52.361666	334.4	14.7	-90.6	3.2
2025-01-14 17:42:53.520530	334.4	14.5	-90.8	0.3
#Closed at: 2025-01-14 17:33:40.587467