passes_logs/2025/01/14/LEX_Murmansk/LEX_Murmansk__20250114_175909_NOAA_18_rec.log

#Pass ID: 20250114_175909_NOAA 18
#Satellite: NOAA 18
#Configuration: NOAA 18
#Start time: 2025-01-14 17:59:04.693741

#LorettStation: 1.0.0 05.05.2024
#Station: LEX_Murmansk
#Location: 33.156738 lon 68.926811 lat
#TLE: 1 28654U 05018A   25014.17177243  .00000313  00000+0  18955-3 0  9990
#TLE: 2 28654  98.8569  95.2344 0014326 181.4762 178.6370 14.13485757 13061

#Time	Az	El	Level	SNR
2025-01-14 17:59:16.871856	125.2	16.3	-91.4	9.4
2025-01-14 17:59:18.029450	125.1	16.4	-92.1	9.9
2025-01-14 17:59:19.183827	125.0	16.5	-92.0	13.1
2025-01-14 17:59:20.336596	125.0	16.6	-91.5	11.7
2025-01-14 17:59:21.489152	124.9	16.8	-91.6	9.1
2025-01-14 17:59:22.643853	124.8	16.9	-91.7	9.7
2025-01-14 17:59:23.803027	124.8	17.0	-91.7	10.9
2025-01-14 17:59:24.975865	124.7	17.2	-91.9	6.7
2025-01-14 17:59:26.122364	124.6	17.3	-91.8	4.8
2025-01-14 17:59:27.273509	124.6	17.4	-92.1	7.4
2025-01-14 17:59:28.434646	124.5	17.5	-92.1	5.4
2025-01-14 17:59:29.587530	124.4	17.7	-91.7	4.6
2025-01-14 17:59:30.741329	124.4	17.8	-91.7	9.4
2025-01-14 17:59:31.900798	124.3	17.9	-92.1	10.1
2025-01-14 17:59:33.072591	124.2	18.1	-92.0	12.9
2025-01-14 17:59:34.236629	124.2	18.2	-91.9	11.4
2025-01-14 17:59:35.380203	124.1	18.3	-91.3	11.9
2025-01-14 17:59:36.540293	124.0	18.5	-91.6	13.7
2025-01-14 17:59:37.691681	124.0	18.6	-91.4	14.4
2025-01-14 17:59:38.848347	123.9	18.7	-91.0	17.1
2025-01-14 17:59:40.002876	123.8	18.9	-90.9	15.3
2025-01-14 17:59:41.162406	123.7	19.0	-90.8	14.4
2025-01-14 17:59:42.314255	123.7	19.1	-90.7	13.9
2025-01-14 17:59:43.473079	123.6	19.3	-91.3	7.1
2025-01-14 17:59:44.619273	123.5	19.4	-91.4	5.3
2025-01-14 17:59:45.776755	123.4	19.6	-91.3	10.9
2025-01-14 17:59:46.933879	123.4	19.7	-91.4	8.3
2025-01-14 17:59:48.087857	123.3	19.8	-91.5	12.5
2025-01-14 17:59:49.234545	123.2	20.0	-90.9	11.0
2025-01-14 17:59:50.397485	123.1	20.1	-91.1	13.3
2025-01-14 17:59:51.554285	123.0	20.3	-91.7	12.3
2025-01-14 17:59:52.707243	123.0	20.4	-91.7	15.8
2025-01-14 17:59:53.864174	122.9	20.6	-92.1	16.5
2025-01-14 17:59:55.015297	122.8	20.7	-91.9	15.3
2025-01-14 17:59:56.169399	122.7	20.9	-92.0	15.7
2025-01-14 17:59:57.314080	122.6	21.0	-91.7	13.8
2025-01-14 17:59:58.465316	122.5	21.1	-92.1	11.4
2025-01-14 17:59:59.622729	122.5	21.3	-92.0	7.7
2025-01-14 18:00:00.774078	122.4	21.4	-91.9	12.9
2025-01-14 18:00:01.933053	122.3	21.6	-92.2	5.5
2025-01-14 18:00:03.083469	122.2	21.7	-92.3	9.1
2025-01-14 18:00:04.240077	122.1	21.9	-92.0	14.0
2025-01-14 18:00:05.396793	122.0	22.0	-91.8	11.4
2025-01-14 18:00:06.551182	121.9	22.2	-91.9	15.2
2025-01-14 18:00:07.704609	121.8	22.4	-91.9	14.4
2025-01-14 18:00:08.870464	121.7	22.5	-91.9	14.2
2025-01-14 18:00:10.022791	121.6	22.7	-91.8	11.6
2025-01-14 18:00:11.149743	121.5	22.8	-91.9	11.6
2025-01-14 18:00:12.270180	121.4	23.0	-91.7	12.7
2025-01-14 18:00:13.391188	121.4	23.1	-91.8	11.8
2025-01-14 18:00:14.512018	121.3	23.3	-92.1	8.8
2025-01-14 18:00:15.632270	121.2	23.4	-91.8	7.0
2025-01-14 18:00:16.752583	121.1	23.6	-92.3	12.5
2025-01-14 18:00:17.877136	121.0	23.8	-92.2	9.8
2025-01-14 18:00:19.002715	120.9	23.9	-92.5	4.4
2025-01-14 18:00:20.141132	120.8	24.1	-92.3	8.8
2025-01-14 18:00:21.291058	120.7	24.2	-92.4	12.0
2025-01-14 18:00:22.446697	120.6	24.4	-92.1	12.3
2025-01-14 18:00:23.598418	120.4	24.6	-92.0	9.5
2025-01-14 18:00:24.737098	120.3	24.7	-92.2	11.0
2025-01-14 18:00:25.866088	120.2	24.9	-91.9	8.7
2025-01-14 18:00:27.015607	120.1	25.1	-92.2	6.9
2025-01-14 18:00:28.156989	120.0	25.2	-92.0	7.0
2025-01-14 18:00:29.307050	119.9	25.4	-92.0	6.4
2025-01-14 18:00:30.452022	119.8	25.6	-92.5	8.1
2025-01-14 18:00:31.598550	119.7	25.7	-92.0	10.4
2025-01-14 18:00:32.757595	119.6	25.9	-91.8	10.8
2025-01-14 18:00:33.917504	119.4	26.1	-92.1	5.3
2025-01-14 18:00:35.067595	119.3	26.3	-92.1	6.2
2025-01-14 18:00:36.224962	119.2	26.4	-92.1	9.7
2025-01-14 18:00:37.383780	119.1	26.6	-92.1	8.5
2025-01-14 18:00:38.539302	118.9	26.8	-92.5	10.8
2025-01-14 18:00:39.694923	118.8	27.0	-92.4	10.3
2025-01-14 18:00:40.845498	118.7	27.2	-92.3	10.2
2025-01-14 18:00:41.994369	118.6	27.3	-92.2	8.6
2025-01-14 18:00:43.154464	118.4	27.5	-92.5	8.2
2025-01-14 18:00:44.307813	118.3	27.7	-91.8	5.5
2025-01-14 18:00:45.464066	118.2	27.9	-92.0	5.4
2025-01-14 18:00:46.617544	118.0	28.1	-92.2	10.6
2025-01-14 18:00:47.766432	117.9	28.3	-92.3	9.2
2025-01-14 18:00:48.911250	117.8	28.5	-92.1	9.5
2025-01-14 18:00:50.070018	117.6	28.6	-92.2	7.4
2025-01-14 18:00:51.223145	117.5	28.8	-91.7	9.8
2025-01-14 18:00:52.377166	117.3	29.0	-91.9	10.1
2025-01-14 18:00:53.531094	117.2	29.2	-92.3	6.3
2025-01-14 18:00:54.687637	117.1	29.4	-92.2	11.0
2025-01-14 18:00:55.835685	116.9	29.6	-92.3	12.1
2025-01-14 18:00:56.989072	116.8	29.8	-92.3	11.8
2025-01-14 18:00:58.143387	116.6	30.0	-92.6	11.9
2025-01-14 18:00:59.292030	116.5	30.2	-92.0	14.2
2025-01-14 18:01:00.446802	116.3	30.4	-92.3	8.1
2025-01-14 18:01:01.609037	116.1	30.6	-92.1	10.0
2025-01-14 18:01:02.763446	116.0	30.8	-92.1	9.8
2025-01-14 18:01:03.920285	115.8	31.0	-92.5	9.7
2025-01-14 18:01:05.080330	115.7	31.2	-92.5	7.3
2025-01-14 18:01:06.237878	115.5	31.4	-92.2	8.5
2025-01-14 18:01:07.399105	115.3	31.6	-92.1	6.7
2025-01-14 18:01:08.556233	115.2	31.8	-92.4	5.9
2025-01-14 18:01:09.708985	115.0	32.0	-92.1	12.7
2025-01-14 18:01:10.863774	114.8	32.2	-92.4	13.4
2025-01-14 18:01:12.017569	114.6	32.5	-92.3	8.1
2025-01-14 18:01:13.166143	114.5	32.7	-92.0	14.2
2025-01-14 18:01:14.314530	114.3	32.9	-92.1	15.2
2025-01-14 18:01:15.436565	114.1	33.1	-92.1	15.0
2025-01-14 18:01:16.556350	113.9	33.3	-92.1	13.3
2025-01-14 18:01:17.676846	113.7	33.5	-92.1	12.0
2025-01-14 18:01:18.796913	113.5	33.7	-92.2	11.5
2025-01-14 18:01:19.917929	113.4	33.9	-92.3	10.7
2025-01-14 18:01:21.038431	113.2	34.1	-92.4	10.7
2025-01-14 18:01:22.161388	113.0	34.4	-92.2	14.7
2025-01-14 18:01:23.282540	112.8	34.6	-91.9	13.5
2025-01-14 18:01:24.429164	112.6	34.8	-91.6	15.4
2025-01-14 18:01:25.577713	112.4	35.0	-91.2	13.5
2025-01-14 18:01:26.731836	112.2	35.2	-91.3	14.5
2025-01-14 18:01:27.882371	111.9	35.5	-91.4	13.4
2025-01-14 18:01:29.031598	111.7	35.7	-91.4	8.3
2025-01-14 18:01:30.183353	111.5	35.9	-91.5	12.8
2025-01-14 18:01:31.336323	111.3	36.1	-92.2	12.5
2025-01-14 18:01:32.496996	111.1	36.4	-91.9	11.0
2025-01-14 18:01:33.665854	110.8	36.6	-92.0	12.5
2025-01-14 18:01:34.814735	110.6	36.8	-91.4	13.9
2025-01-14 18:01:35.968158	110.4	37.1	-91.2	8.9
2025-01-14 18:01:37.121093	110.1	37.3	-91.3	9.7
2025-01-14 18:01:38.578074	109.8	37.6	-91.3	8.6
2025-01-14 18:01:39.730624	109.6	37.9	-91.4	15.3
2025-01-14 18:01:40.885790	109.3	38.1	-90.9	14.1
2025-01-14 18:01:42.066995	109.1	38.3	-91.0	8.7
2025-01-14 18:01:43.218145	108.8	38.6	-91.1	11.7
2025-01-14 18:01:44.377105	108.5	38.8	-90.9	10.5
2025-01-14 18:01:45.531344	108.3	39.1	-91.2	8.7
2025-01-14 18:01:46.687351	108.0	39.3	-91.0	12.5
2025-01-14 18:01:47.846262	107.7	39.6	-91.5	11.7
2025-01-14 18:01:49.004576	107.4	39.8	-91.6	5.3
2025-01-14 18:01:50.155771	107.2	40.0	-91.2	9.5
2025-01-14 18:01:51.318318	106.9	40.3	-92.2	13.0
2025-01-14 18:01:52.465306	106.6	40.5	-92.0	5.8
2025-01-14 18:01:53.617178	106.3	40.8	-92.3	8.4
2025-01-14 18:01:54.777237	106.0	41.0	-92.2	11.5
2025-01-14 18:01:55.930298	105.7	41.3	-92.2	11.4
2025-01-14 18:01:57.077454	105.4	41.5	-92.3	16.7
2025-01-14 18:01:58.224860	105.1	41.8	-92.2	8.3
2025-01-14 18:01:59.388392	104.7	42.0	-92.4	11.7
2025-01-14 18:02:00.541117	104.4	42.3	-92.1	9.6
2025-01-14 18:02:01.688132	104.1	42.6	-92.5	15.1
2025-01-14 18:02:02.838526	103.8	42.8	-92.3	18.9
2025-01-14 18:02:03.993835	103.4	43.1	-92.2	15.0
2025-01-14 18:02:05.138656	103.1	43.3	-91.8	20.0
2025-01-14 18:02:06.287208	102.7	43.6	-92.4	14.1
2025-01-14 18:02:07.441229	102.4	43.8	-92.6	11.2
2025-01-14 18:02:08.599850	102.0	44.1	-92.4	11.0
2025-01-14 18:02:09.758815	101.6	44.3	-92.4	8.1
2025-01-14 18:02:10.896858	101.3	44.6	-92.3	6.8
2025-01-14 18:02:12.057419	100.9	44.9	-92.1	3.9
2025-01-14 18:02:13.215288	100.5	45.1	-92.0	10.3
2025-01-14 18:02:14.370185	100.1	45.4	-92.0	7.1
2025-01-14 18:02:15.524915	99.7	45.6	-92.0	15.2
2025-01-14 18:02:16.680768	99.3	45.9	-92.2	16.2
2025-01-14 18:02:17.825827	98.9	46.2	-92.3	5.7
2025-01-14 18:02:18.946497	98.4	46.4	-92.0	11.9
2025-01-14 18:02:20.067690	98.0	46.7	-92.3	5.8
2025-01-14 18:02:21.188049	97.6	46.9	-92.0	12.0
2025-01-14 18:02:22.308822	97.2	47.2	-92.1	16.3
2025-01-14 18:02:23.429643	96.7	47.4	-91.9	8.4
2025-01-14 18:02:24.549737	96.3	47.7	-91.9	7.7
2025-01-14 18:02:25.670126	95.8	47.9	-92.3	13.7
2025-01-14 18:02:26.794594	95.4	48.2	-92.2	12.9
2025-01-14 18:02:27.932313	94.9	48.4	-92.2	10.8
2025-01-14 18:02:29.076585	94.4	48.7	-92.6	8.3
2025-01-14 18:02:30.221814	93.9	48.9	-92.0	15.5
2025-01-14 18:02:31.365198	93.4	49.2	-92.5	17.5
2025-01-14 18:02:32.514893	92.9	49.4	-92.2	8.9
2025-01-14 18:02:33.669409	92.4	49.7	-92.2	7.9
2025-01-14 18:02:34.819320	91.9	49.9	-92.0	10.2
2025-01-14 18:02:35.971576	91.3	50.2	-92.1	8.8
2025-01-14 18:02:37.122362	90.8	50.4	-92.1	9.4
2025-01-14 18:02:38.266445	90.2	50.7	-92.5	12.3
2025-01-14 18:02:39.420050	89.7	50.9	-92.0	7.2
2025-01-14 18:02:40.578720	89.1	51.1	-92.3	3.8
2025-01-14 18:02:41.732956	88.5	51.4	-92.0	11.1
2025-01-14 18:02:42.886621	87.9	51.6	-92.2	14.0
2025-01-14 18:02:44.037387	87.3	51.9	-92.3	13.1
2025-01-14 18:02:45.192411	86.7	52.1	-92.7	13.2
2025-01-14 18:02:46.347290	86.1	52.3	-92.7	13.5
2025-01-14 18:02:47.496331	85.5	52.6	-92.3	16.0
2025-01-14 18:02:48.645998	84.8	52.8	-92.2	14.9
2025-01-14 18:02:49.797742	84.2	53.0	-92.4	15.2
2025-01-14 18:02:50.955969	83.5	53.2	-92.7	9.1
2025-01-14 18:02:52.104645	82.8	53.4	-92.5	12.4
2025-01-14 18:02:53.252050	82.2	53.7	-92.3	19.9
2025-01-14 18:02:54.404440	81.5	53.9	-91.9	13.9
2025-01-14 18:02:55.560635	80.8	54.1	-92.4	10.2
2025-01-14 18:02:56.720827	80.0	54.3	-92.2	8.1
2025-01-14 18:02:57.880193	79.3	54.5	-92.1	11.4
2025-01-14 18:02:59.033121	78.6	54.7	-92.2	19.0
2025-01-14 18:03:00.185708	77.8	54.9	-92.0	19.5
2025-01-14 18:03:01.334070	77.1	55.1	-92.3	18.4
2025-01-14 18:03:02.480257	76.3	55.2	-92.5	17.0
2025-01-14 18:03:03.635430	75.6	55.4	-92.4	15.6
2025-01-14 18:03:04.792601	74.8	55.6	-92.1	19.5
2025-01-14 18:03:05.939938	74.0	55.8	-92.4	13.3
2025-01-14 18:03:07.092768	73.2	55.9	-92.3	13.0
2025-01-14 18:03:08.244195	72.4	56.1	-92.1	18.7
2025-01-14 18:03:09.402920	71.5	56.2	-92.2	10.8
2025-01-14 18:03:10.560790	70.7	56.4	-92.0	8.9
2025-01-14 18:03:11.721417	69.9	56.5	-92.2	14.7
2025-01-14 18:03:12.871559	69.0	56.7	-92.2	15.2
2025-01-14 18:03:14.028214	68.2	56.8	-92.6	10.5
2025-01-14 18:03:15.176024	67.3	56.9	-92.2	16.3
2025-01-14 18:03:16.332938	66.4	57.1	-92.8	17.4
2025-01-14 18:03:17.489723	65.5	57.2	-92.7	14.6
2025-01-14 18:03:18.641926	64.7	57.3	-92.2	17.1
2025-01-14 18:03:19.791833	63.8	57.4	-92.2	19.4
2025-01-14 18:03:20.945532	62.9	57.5	-92.4	15.0
2025-01-14 18:03:22.112493	62.0	57.6	-92.2	16.6
2025-01-14 18:03:23.274038	61.0	57.6	-92.2	18.5
2025-01-14 18:03:24.431763	60.1	57.7	-92.2	14.7
2025-01-14 18:03:25.590060	59.2	57.8	-92.2	17.0
2025-01-14 18:03:26.743623	58.3	57.9	-92.4	17.0
2025-01-14 18:03:27.906078	57.3	57.9	-92.1	16.2
2025-01-14 18:03:29.060419	56.4	58.0	-92.3	13.3
2025-01-14 18:03:30.213450	55.5	58.0	-92.3	20.1
2025-01-14 18:03:31.371863	54.5	58.0	-92.4	21.2
2025-01-14 18:03:32.521152	53.6	58.0	-92.5	13.5
2025-01-14 18:03:33.678019	52.6	58.1	-92.4	16.5
2025-01-14 18:03:34.834285	51.7	58.1	-91.8	18.8
2025-01-14 18:03:35.987220	50.7	58.1	-92.2	11.9
2025-01-14 18:03:37.141374	49.8	58.1	-92.1	12.4
2025-01-14 18:03:38.293009	48.8	58.1	-92.3	17.9
2025-01-14 18:03:39.437847	47.9	58.0	-92.2	12.1
2025-01-14 18:03:40.591265	47.0	58.0	-92.2	12.4
2025-01-14 18:03:41.746704	46.0	58.0	-92.1	16.4
2025-01-14 18:03:42.907557	45.1	57.9	-92.0	11.0
2025-01-14 18:03:44.067210	44.2	57.9	-91.9	11.8
2025-01-14 18:03:45.222336	43.2	57.8	-91.9	16.7
2025-01-14 18:03:46.373123	42.3	57.8	-92.1	10.6
2025-01-14 18:03:47.523214	41.4	57.7	-92.3	12.6
2025-01-14 18:03:48.667851	40.5	57.6	-92.4	15.7
2025-01-14 18:03:49.826205	39.6	57.5	-92.0	13.8
2025-01-14 18:03:50.980903	38.6	57.5	-92.1	11.9
2025-01-14 18:03:52.135285	37.8	57.4	-92.4	12.2
2025-01-14 18:03:53.293220	36.9	57.3	-92.2	14.1
2025-01-14 18:03:54.441153	36.0	57.1	-92.6	10.2
2025-01-14 18:03:55.604468	35.1	57.0	-92.6	6.8
2025-01-14 18:03:56.754484	34.2	56.9	-92.5	13.5
2025-01-14 18:03:57.904082	33.4	56.8	-92.3	8.5
2025-01-14 18:03:59.058057	32.5	56.6	-92.1	10.4
2025-01-14 18:04:00.212857	31.7	56.5	-92.2	8.9
2025-01-14 18:04:01.368793	30.8	56.4	-92.0	6.6
2025-01-14 18:04:02.521332	30.0	56.2	-92.3	5.6
2025-01-14 18:04:03.672380	29.2	56.1	-92.2	14.0
2025-01-14 18:04:04.820673	28.4	55.9	-92.0	6.7
2025-01-14 18:04:05.962894	27.6	55.7	-92.2	5.3
2025-01-14 18:04:07.089846	26.8	55.6	-92.3	2.9
2025-01-14 18:04:08.211596	26.0	55.4	-92.5	4.7
2025-01-14 18:04:09.331593	25.3	55.2	-92.1	4.8
2025-01-14 18:04:10.452262	24.6	55.0	-92.5	7.4
2025-01-14 18:04:11.573709	23.8	54.9	-92.2	7.3
2025-01-14 18:04:12.696079	23.1	54.7	-92.2	15.8
2025-01-14 18:04:13.817161	22.4	54.5	-91.9	17.2
2025-01-14 18:04:14.937862	21.7	54.3	-92.3	15.6
2025-01-14 18:04:16.076191	21.0	54.1	-92.3	14.4
2025-01-14 18:04:17.223108	20.3	53.9	-92.0	15.6
2025-01-14 18:04:18.377941	19.6	53.7	-92.1	10.5
2025-01-14 18:04:19.538525	18.9	53.4	-92.1	14.1
2025-01-14 18:04:20.682534	18.2	53.2	-92.3	18.1
2025-01-14 18:04:21.833939	17.6	53.0	-92.4	16.0
2025-01-14 18:04:22.988636	16.9	52.8	-92.4	14.5
2025-01-14 18:04:24.159662	16.3	52.6	-92.3	14.2
2025-01-14 18:04:25.314768	15.6	52.3	-92.5	12.9
2025-01-14 18:04:26.475168	15.0	52.1	-92.5	14.0
2025-01-14 18:04:27.629926	14.4	51.9	-92.7	14.3
2025-01-14 18:04:28.784348	13.8	51.6	-92.4	16.1
2025-01-14 18:04:29.939746	13.2	51.4	-92.3	12.1
2025-01-14 18:04:31.094698	12.6	51.1	-92.1	12.9
2025-01-14 18:04:32.245664	12.0	50.9	-92.3	18.4
2025-01-14 18:04:33.402624	11.5	50.6	-92.3	16.9
2025-01-14 18:04:34.550612	10.9	50.4	-92.4	13.5
2025-01-14 18:04:35.699675	10.4	50.2	-92.5	17.7
2025-01-14 18:04:36.857889	9.8	49.9	-92.3	17.8
2025-01-14 18:04:38.010712	9.3	49.7	-91.6	10.9
2025-01-14 18:04:39.171559	8.8	49.4	-91.5	18.7
2025-01-14 18:04:40.332200	8.3	49.2	-91.4	19.8
2025-01-14 18:04:41.486079	7.8	48.9	-91.7	9.7
2025-01-14 18:04:42.637512	7.3	48.6	-91.5	11.9
2025-01-14 18:04:43.796891	6.8	48.4	-92.3	16.4
2025-01-14 18:04:44.947877	6.3	48.1	-92.1	8.9
2025-01-14 18:04:46.105613	5.8	47.9	-92.3	9.9
2025-01-14 18:04:47.254811	5.4	47.6	-91.8	14.9
2025-01-14 18:04:48.406600	4.9	47.4	-92.2	9.7
2025-01-14 18:04:49.561098	4.5	47.1	-92.1	11.5
2025-01-14 18:04:50.717118	4.0	46.8	-92.1	15.0
2025-01-14 18:04:51.871904	3.6	46.6	-92.2	16.5
2025-01-14 18:04:53.024775	3.2	46.3	-92.1	13.6
2025-01-14 18:04:54.182107	2.7	46.1	-92.2	17.9
2025-01-14 18:04:55.338647	2.3	45.8	-92.1	16.9
2025-01-14 18:04:56.498564	1.9	45.5	-92.3	18.0
2025-01-14 18:04:57.649062	1.5	45.3	-92.4	18.5
2025-01-14 18:04:58.804879	1.1	45.0	-92.1	18.6
2025-01-14 18:04:59.966967	0.7	44.8	-92.0	19.0
2025-01-14 18:05:01.117295	0.4	44.5	-92.1	19.9
2025-01-14 18:05:02.280036	360.0	44.2	-92.1	20.0
2025-01-14 18:05:03.437493	359.6	44.0	-91.8	20.9
2025-01-14 18:05:04.590272	359.3	43.7	-92.3	22.7
2025-01-14 18:05:05.739486	358.9	43.5	-91.9	21.7
2025-01-14 18:05:06.893409	358.5	43.2	-92.0	18.8
2025-01-14 18:05:08.045592	358.2	43.0	-91.8	16.8
2025-01-14 18:05:09.199701	357.9	42.7	-92.2	20.7
2025-01-14 18:05:10.359893	357.5	42.5	-92.2	21.4
2025-01-14 18:05:11.519059	357.2	42.2	-91.9	16.0
2025-01-14 18:05:12.673507	356.9	41.9	-92.0	20.7
2025-01-14 18:05:13.825006	356.6	41.7	-92.0	21.9
2025-01-14 18:05:14.986181	356.2	41.4	-92.1	12.2
2025-01-14 18:05:16.146052	355.9	41.2	-91.9	17.7
2025-01-14 18:05:17.298736	355.6	40.9	-92.0	20.1
2025-01-14 18:05:18.454750	355.3	40.7	-92.3	13.2
2025-01-14 18:05:19.617898	355.0	40.4	-92.2	14.6
2025-01-14 18:05:20.779246	354.7	40.2	-91.9	20.3
2025-01-14 18:05:21.941687	354.5	39.9	-92.2	15.7
2025-01-14 18:05:23.103280	354.2	39.7	-92.0	16.3
2025-01-14 18:05:24.262310	353.9	39.4	-91.9	17.4
2025-01-14 18:05:25.423229	353.6	39.2	-92.0	20.9
2025-01-14 18:05:26.583891	353.4	38.9	-92.4	20.5
2025-01-14 18:05:27.738209	353.1	38.7	-92.0	20.4
2025-01-14 18:05:28.896209	352.8	38.5	-92.4	20.4
2025-01-14 18:05:30.050858	352.6	38.2	-92.3	18.1
2025-01-14 18:05:31.209851	352.3	38.0	-92.2	19.0
2025-01-14 18:05:32.365164	352.1	37.7	-92.3	15.9
2025-01-14 18:05:33.519624	351.8	37.5	-92.5	11.5
2025-01-14 18:05:34.675584	351.6	37.3	-92.3	16.2
2025-01-14 18:05:35.835240	351.3	37.0	-92.4	16.2
2025-01-14 18:05:36.992193	351.1	36.8	-92.6	8.1
2025-01-14 18:05:38.150318	350.9	36.6	-92.6	14.8
2025-01-14 18:05:39.280528	350.6	36.3	-92.2	16.8
2025-01-14 18:05:40.401979	350.4	36.1	-92.3	13.2
2025-01-14 18:05:41.522926	350.2	35.9	-92.2	9.9
2025-01-14 18:05:42.643523	350.0	35.7	-92.4	14.7
2025-01-14 18:05:43.763987	349.8	35.4	-92.4	15.9
2025-01-14 18:05:44.884338	349.6	35.2	-92.2	14.1
2025-01-14 18:05:46.005046	349.4	35.0	-92.1	14.0
2025-01-14 18:05:47.130329	349.2	34.8	-92.2	15.8
2025-01-14 18:05:48.251070	349.0	34.6	-91.8	16.0
2025-01-14 18:05:49.402092	348.8	34.4	-92.4	16.9
2025-01-14 18:05:50.561676	348.6	34.1	-92.6	16.1
2025-01-14 18:05:51.714198	348.4	33.9	-92.4	17.6
2025-01-14 18:05:52.850681	348.2	33.7	-92.2	15.6
2025-01-14 18:05:54.011982	348.0	33.5	-92.3	9.3
2025-01-14 18:05:55.164922	347.8	33.3	-92.4	10.5
2025-01-14 18:05:56.318082	347.6	33.0	-92.3	13.5
2025-01-14 18:05:57.465874	347.4	32.8	-92.4	9.7
2025-01-14 18:05:58.614175	347.3	32.6	-91.9	9.1
2025-01-14 18:05:59.768041	347.1	32.4	-92.4	15.3
2025-01-14 18:06:00.924267	346.9	32.2	-92.3	10.0
2025-01-14 18:06:02.051053	346.7	32.0	-92.1	14.0
2025-01-14 18:06:03.189657	346.6	31.8	-92.5	13.6
2025-01-14 18:06:04.338240	346.4	31.6	-92.1	13.7
2025-01-14 18:06:05.480305	346.2	31.4	-92.5	15.2
2025-01-14 18:06:06.633343	346.1	31.2	-92.6	16.5
2025-01-14 18:06:07.782987	345.9	31.0	-92.1	15.3
2025-01-14 18:06:08.931890	345.8	30.8	-91.9	13.2
2025-01-14 18:06:10.086960	345.6	30.6	-92.1	13.3
2025-01-14 18:06:11.225213	345.4	30.4	-92.2	15.0
2025-01-14 18:06:12.364915	345.3	30.2	-92.4	15.3
2025-01-14 18:06:13.512369	345.1	30.0	-92.3	6.9
2025-01-14 18:06:14.647995	345.0	29.8	-92.5	8.5
2025-01-14 18:06:15.789167	344.8	29.6	-92.3	13.6
2025-01-14 18:06:16.941150	344.7	29.4	-92.1	8.9
2025-01-14 18:06:18.088503	344.5	29.2	-92.4	8.8
2025-01-14 18:06:19.238963	344.4	29.0	-92.0	14.2
2025-01-14 18:06:20.394610	344.3	28.8	-92.4	9.8
2025-01-14 18:06:21.547703	344.1	28.6	-92.6	8.6
2025-01-14 18:06:22.703418	344.0	28.4	-92.8	7.8
2025-01-14 18:06:23.866032	343.8	28.2	-92.6	9.0
2025-01-14 18:06:25.016898	343.7	28.1	-92.1	6.5
2025-01-14 18:06:26.170085	343.6	27.9	-92.5	6.1
2025-01-14 18:06:27.326384	343.4	27.7	-92.0	10.5
2025-01-14 18:06:28.482088	343.3	27.5	-91.9	10.1
2025-01-14 18:06:29.634334	343.2	27.3	-92.6	7.8
2025-01-14 18:06:30.787915	343.1	27.1	-92.3	10.2
2025-01-14 18:06:31.937542	342.9	27.0	-92.4	3.6
2025-01-14 18:06:33.096152	342.8	26.8	-92.4	4.3
2025-01-14 18:06:34.251598	342.7	26.6	-92.5	6.9
2025-01-14 18:06:35.407721	342.6	26.4	-92.3	4.6
2025-01-14 18:06:36.565214	342.4	26.2	-92.4	5.6
2025-01-14 18:06:37.710760	342.3	26.1	-92.5	8.3
2025-01-14 18:06:38.861387	342.2	25.9	-92.6	7.0
2025-01-14 18:06:40.017859	342.1	25.7	-92.5	8.2
2025-01-14 18:06:41.172696	342.0	25.5	-92.2	8.1
2025-01-14 18:06:42.331380	341.9	25.4	-92.4	13.0
2025-01-14 18:06:43.492016	341.7	25.2	-92.6	9.0
2025-01-14 18:06:44.646673	341.6	25.0	-92.1	5.5
2025-01-14 18:06:45.814022	341.5	24.9	-92.6	9.2
2025-01-14 18:06:46.964280	341.4	24.7	-92.5	4.4
2025-01-14 18:06:48.126466	341.3	24.5	-92.4	6.2
2025-01-14 18:06:49.276532	341.2	24.4	-92.4	4.3
2025-01-14 18:06:50.434209	341.1	24.2	-92.2	6.0
2025-01-14 18:06:51.591854	341.0	24.0	-92.4	3.8
2025-01-14 18:06:52.746981	340.9	23.9	-92.3	5.8
2025-01-14 18:06:53.911156	340.8	23.7	-92.0	6.2
2025-01-14 18:06:55.063381	340.7	23.5	-92.2	11.1
2025-01-14 18:06:56.212551	340.6	23.4	-92.5	9.8
2025-01-14 18:06:57.372002	340.5	23.2	-92.6	14.5
2025-01-14 18:06:58.524929	340.4	23.1	-92.6	8.3
2025-01-14 18:06:59.681725	340.3	22.9	-92.8	10.0
2025-01-14 18:07:00.839582	340.2	22.7	-92.6	6.7
2025-01-14 18:07:01.998391	340.1	22.6	-92.3	4.5
2025-01-14 18:07:03.154524	340.0	22.4	-92.4	5.4
2025-01-14 18:07:04.312433	339.9	22.3	-92.3	10.9
2025-01-14 18:07:05.461476	339.8	22.1	-92.0	9.0
2025-01-14 18:07:06.614382	339.7	22.0	-92.5	10.0
2025-01-14 18:07:07.773013	339.6	21.8	-92.5	11.5
2025-01-14 18:07:08.927014	339.5	21.7	-92.5	10.1
2025-01-14 18:07:10.079490	339.5	21.5	-92.3	12.0
2025-01-14 18:07:11.230347	339.4	21.4	-92.3	12.8
2025-01-14 18:07:12.390093	339.3	21.2	-92.6	13.1
2025-01-14 18:07:13.542159	339.2	21.1	-92.1	9.8
2025-01-14 18:07:14.705796	339.1	20.9	-92.1	11.1
2025-01-14 18:07:15.858965	339.0	20.8	-92.4	10.6
2025-01-14 18:07:17.017039	338.9	20.6	-92.2	5.8
2025-01-14 18:07:18.169871	338.9	20.5	-92.3	8.8
2025-01-14 18:07:19.319101	338.8	20.3	-92.1	11.6
2025-01-14 18:07:20.472017	338.7	20.2	-92.4	6.2
2025-01-14 18:07:21.629270	338.6	20.1	-92.6	5.4
2025-01-14 18:07:22.781461	338.5	19.9	-92.0	8.5
2025-01-14 18:07:23.932303	338.5	19.8	-92.3	9.4
2025-01-14 18:07:25.083842	338.4	19.6	-92.2	5.6
2025-01-14 18:07:26.222109	338.3	19.5	-92.0	4.2
2025-01-14 18:07:27.342999	338.2	19.4	-92.0	8.2
2025-01-14 18:07:28.463538	338.2	19.2	-92.3	6.2
2025-01-14 18:07:29.584880	338.1	19.1	-92.2	5.5
2025-01-14 18:07:30.704216	338.0	19.0	-92.6	4.6
2025-01-14 18:07:31.825642	337.9	18.8	-92.1	7.0
2025-01-14 18:07:32.946452	337.9	18.7	-92.1	4.3
2025-01-14 18:07:34.067805	337.8	18.6	-92.4	5.0
2025-01-14 18:07:35.191112	337.7	18.4	-92.1	5.9
2025-01-14 18:07:36.324154	337.7	18.3	-91.6	3.5
2025-01-14 18:07:37.451081	337.6	18.2	-91.7	5.3
2025-01-14 18:07:38.605409	337.5	18.0	-91.5	5.7
2025-01-14 18:07:39.740561	337.5	17.9	-91.2	8.0
2025-01-14 18:07:40.894952	337.4	17.8	-91.5	7.4
2025-01-14 18:07:42.049586	337.3	17.6	-91.7	5.2
2025-01-14 18:07:43.194088	337.3	17.5	-92.2	3.2
2025-01-14 18:07:44.317162	337.2	17.4	-92.5	5.4
2025-01-14 18:07:45.469624	337.1	17.3	-92.6	4.7
2025-01-14 18:07:46.622360	337.1	17.1	-91.9	4.2
2025-01-14 18:07:47.772138	337.0	17.0	-92.4	5.6
2025-01-14 18:07:48.921952	336.9	16.9	-92.4	4.1
2025-01-14 18:07:50.076338	336.9	16.7	-92.2	5.5
2025-01-14 18:07:51.229509	336.8	16.6	-92.3	5.1
2025-01-14 18:07:52.379588	336.7	16.5	-92.1	4.7
2025-01-14 18:07:53.532534	336.7	16.4	-92.1	3.0
2025-01-14 18:07:54.677883	336.6	16.2	-92.5	4.4
2025-01-14 18:07:55.799995	336.6	16.1	-92.5	2.9
2025-01-14 18:07:56.955592	336.5	16.0	-92.7	4.2
2025-01-14 18:07:58.096231	336.4	15.9	-92.4	4.4
2025-01-14 18:07:59.240140	336.4	15.8	-92.5	2.9
2025-01-14 18:08:00.391529	336.3	15.6	-92.4	4.3
2025-01-14 18:08:01.537858	336.3	15.5	-92.4	4.9
2025-01-14 18:08:02.688505	336.2	15.4	-92.1	3.0
2025-01-14 18:08:03.831156	336.1	15.3	-92.5	4.3
2025-01-14 18:08:04.980672	336.1	15.2	-92.5	5.4
2025-01-14 18:08:06.137763	336.0	15.0	-91.8	3.9
2025-01-14 18:08:07.290055	336.0	14.9	-92.4	4.1
2025-01-14 18:08:08.439705	335.9	14.8	-92.5	3.7
2025-01-14 18:08:09.595417	335.9	14.7	-92.8	3.7
2025-01-14 18:08:10.745192	335.8	14.6	-92.6	4.5
#Closed at: 2025-01-14 17:59:09.668117