passes_logs/2026/01/03/R2.0S_Moscow/R2.0S_Moscow__20260103_024042_FENGYUN_3D_rec.log

#Pass ID: 20260103_024042_FENGYUN 3D
#Satellite: FENGYUN 3D
#Configuration: FENGYUN 3D
#almurnet v.1.7.20251203
#Start time: 2026-01-03 02:40:44

#Version: 2.2.20231116
#Station: R2.0S_Moscow
#Location: 37.707566 lon 55.798166 lat
#TLE: 1 43010U 17072A   26002.31768531  .00000715  00000+0  35975-3 0  9993
#TLE: 2 43010  98.9910 333.9388 0001871 131.0716 229.0622 14.19693418421454

#Time	Az	El	Level	Level2	SNR	BER	BlckErr	Temp	State	Recorded	gain1	gain2
2026-01-03 02:40:44.20	12.86	2.12	-39.9	-51.6	3.8	8.47e-01	0	48	0	0	51	13755
2026-01-03 02:40:45.20	12.83	2.18	-39.9	-51.6	3.8	8.46e-01	0	48	104	0	51	13778
2026-01-03 02:40:46.21	12.79	2.25	-39.9	-51.6	3.8	8.46e-01	0	48	104	0	51	13772
2026-01-03 02:40:47.22	12.75	2.31	-39.9	-51.6	3.8	8.46e-01	0	48	104	0	51	13745
2026-01-03 02:40:48.23	12.72	2.37	-39.9	-51.6	3.8	8.46e-01	0	48	104	0	51	13728
2026-01-03 02:40:49.25	12.68	2.44	-39.9	-51.6	3.8	8.46e-01	0	49	104	0	51	13769
2026-01-03 02:40:50.26	12.64	2.50	-39.9	-51.5	3.8	8.46e-01	0	49	104	0	51	13712
2026-01-03 02:40:51.27	12.60	2.56	-39.9	-51.6	3.8	8.46e-01	0	49	104	0	51	13787
2026-01-03 02:40:52.28	12.56	2.63	-39.9	-51.6	3.8	8.46e-01	0	49	104	0	51	13733
2026-01-03 02:40:53.29	12.52	2.69	-39.9	-51.6	3.8	8.45e-01	0	49	104	0	51	13758
2026-01-03 02:40:54.30	12.49	2.75	-39.9	-51.6	3.8	8.47e-01	0	49	104	0	51	13766
2026-01-03 02:40:55.31	12.45	2.82	-39.9	-51.6	3.8	8.45e-01	0	49	104	0	51	13763
2026-01-03 02:40:56.32	12.41	2.88	-39.9	-51.6	3.8	8.46e-01	0	49	104	0	51	13780
2026-01-03 02:40:57.33	12.37	2.94	-39.9	-51.6	3.8	8.46e-01	0	49	104	0	51	13747
2026-01-03 02:40:58.34	12.33	3.01	-39.9	-51.6	3.8	8.46e-01	0	49	104	0	51	13775
2026-01-03 02:40:59.35	12.29	3.07	-39.9	-51.6	3.8	8.47e-01	0	49	104	0	51	13728
2026-01-03 02:41:00.36	12.25	3.14	-39.9	-51.6	3.8	8.46e-01	0	49	104	0	51	13760
2026-01-03 02:41:01.37	12.21	3.20	-39.9	-51.6	3.8	8.46e-01	0	49	104	0	51	13763
2026-01-03 02:41:02.39	12.17	3.27	-39.9	-51.6	3.8	8.45e-01	0	49	104	0	51	13749
2026-01-03 02:41:03.40	12.13	3.33	-39.9	-51.6	3.8	8.47e-01	0	50	104	0	51	13752
2026-01-03 02:41:04.41	12.09	3.40	-39.9	-51.6	3.8	8.46e-01	0	50	104	0	51	13752
2026-01-03 02:41:05.42	12.05	3.46	-39.9	-51.6	3.8	8.46e-01	0	50	104	0	51	13744
2026-01-03 02:41:06.43	12.01	3.53	-39.9	-51.5	3.8	8.47e-01	0	50	104	0	51	13725
2026-01-03 02:41:07.44	11.96	3.59	-39.9	-51.5	3.8	8.46e-01	0	50	104	0	51	13721
2026-01-03 02:41:08.45	11.92	3.66	-39.9	-51.6	3.8	8.46e-01	0	50	104	0	51	13734
2026-01-03 02:41:09.46	11.88	3.72	-39.9	-51.6	3.8	8.46e-01	0	50	104	0	51	13731
2026-01-03 02:41:10.47	11.84	3.79	-39.9	-51.5	3.8	8.46e-01	0	50	104	0	51	13716
2026-01-03 02:41:11.48	11.80	3.85	-39.9	-51.5	3.8	8.47e-01	0	50	104	0	51	13712
2026-01-03 02:41:12.50	11.75	3.92	-39.9	-51.6	3.8	8.46e-01	0	50	104	0	51	13730
2026-01-03 02:41:13.51	11.71	3.99	-39.9	-51.5	3.8	8.46e-01	0	50	104	0	51	13712
2026-01-03 02:41:14.52	11.67	4.05	-39.9	-51.5	3.8	8.46e-01	0	51	104	0	51	13664
2026-01-03 02:41:15.53	11.63	4.12	-39.9	-51.5	3.8	8.47e-01	0	50	104	0	51	13697
2026-01-03 02:41:16.54	11.58	4.19	-39.9	-51.5	3.8	8.46e-01	0	51	104	0	51	13675
2026-01-03 02:41:17.55	11.54	4.25	-39.9	-51.5	3.8	8.47e-01	0	50	104	0	51	13706
2026-01-03 02:41:18.56	11.50	4.32	-39.9	-51.5	3.8	8.47e-01	0	51	104	0	51	13675
2026-01-03 02:41:19.57	11.45	4.39	-39.9	-51.6	3.8	8.47e-01	0	51	104	0	51	13763
2026-01-03 02:41:20.58	11.41	4.45	-39.9	-51.6	3.8	8.45e-01	0	51	104	0	51	13760
2026-01-03 02:41:21.59	11.36	4.52	-39.9	-51.5	3.8	8.46e-01	0	51	104	0	51	13712
2026-01-03 02:41:22.61	11.32	4.59	-39.9	-51.6	3.8	8.45e-01	0	51	104	0	51	13727
2026-01-03 02:41:23.62	11.27	4.66	-39.9	-51.5	3.8	8.47e-01	0	51	104	0	51	13724
2026-01-03 02:41:24.63	11.23	4.72	-39.9	-51.5	3.8	8.47e-01	0	51	104	0	51	13720
2026-01-03 02:41:25.64	11.18	4.79	-39.9	-51.5	3.8	8.47e-01	0	51	104	0	51	13716
2026-01-03 02:41:26.65	11.14	4.86	-39.9	-51.5	3.8	8.45e-01	0	51	104	0	51	13716
2026-01-03 02:41:27.66	11.09	4.93	-39.9	-51.6	3.8	8.47e-01	0	51	104	0	51	13745
2026-01-03 02:41:28.67	11.05	5.00	-39.9	-51.6	3.8	8.45e-01	0	51	104	0	51	13757
2026-01-03 02:41:29.69	11.00	5.07	-39.9	-51.6	3.8	8.46e-01	0	51	104	0	51	13753
2026-01-03 02:41:30.70	10.95	5.13	-39.9	-51.5	3.8	8.46e-01	0	51	104	0	51	13719
2026-01-03 02:41:31.70	10.91	5.20	-39.9	-51.6	3.8	8.46e-01	0	51	104	0	51	13761
2026-01-03 02:41:32.72	10.86	5.27	-39.9	-51.6	3.8	8.46e-01	0	51	104	0	51	13771
2026-01-03 02:41:33.73	10.81	5.34	-39.9	-51.5	3.8	8.45e-01	0	52	104	0	51	13715
2026-01-03 02:41:34.74	10.77	5.41	-39.9	-51.6	3.8	8.46e-01	0	52	104	0	51	13748
2026-01-03 02:41:35.75	10.72	5.48	-39.9	-51.5	3.8	8.46e-01	0	52	104	0	51	13713
2026-01-03 02:41:36.76	10.67	5.55	-39.9	-51.6	3.8	8.46e-01	0	52	104	0	51	13745
2026-01-03 02:41:37.77	10.62	5.62	-39.9	-51.5	3.8	8.47e-01	0	52	104	0	51	13724
2026-01-03 02:41:38.78	10.58	5.69	-39.9	-51.6	3.8	8.46e-01	0	52	104	0	51	13788
2026-01-03 02:41:39.79	10.53	5.76	-39.9	-51.5	3.8	8.47e-01	0	52	104	0	51	13722
2026-01-03 02:41:40.80	10.48	5.83	-39.9	-51.6	3.8	8.46e-01	0	52	104	0	51	13752
2026-01-03 02:41:41.81	10.43	5.90	-39.9	-51.6	3.8	8.45e-01	0	52	104	0	51	13730
2026-01-03 02:41:42.83	10.38	5.97	-39.9	-51.5	3.8	8.47e-01	0	52	104	0	51	13711
2026-01-03 02:41:43.84	10.33	6.04	-39.9	-51.6	3.8	8.45e-01	0	52	104	0	51	13759
2026-01-03 02:41:44.85	10.28	6.11	-39.9	-51.6	3.8	8.46e-01	0	52	104	0	51	13733
2026-01-03 02:41:45.86	10.23	6.19	-39.9	-51.6	3.8	8.46e-01	0	52	104	0	51	13741
2026-01-03 02:41:46.87	10.18	6.26	-39.9	-51.5	3.8	8.46e-01	0	52	104	0	51	13719
2026-01-03 02:41:47.88	10.13	6.33	-39.9	-51.6	3.8	8.45e-01	0	52	104	0	51	13736
2026-01-03 02:41:48.89	10.08	6.40	-39.9	-51.5	3.8	8.45e-01	0	52	104	0	51	13686
2026-01-03 02:41:49.90	10.03	6.47	-39.9	-51.6	3.8	8.45e-01	0	52	104	0	51	13730
2026-01-03 02:41:50.91	9.98	6.54	-39.9	-51.6	3.8	8.46e-01	0	52	104	0	51	13766
2026-01-03 02:41:51.93	9.92	6.62	-39.9	-51.6	3.8	8.46e-01	0	53	104	0	51	13739
2026-01-03 02:41:52.94	9.87	6.69	-39.9	-51.6	3.8	8.46e-01	0	52	104	0	51	13751
2026-01-03 02:41:53.95	9.82	6.76	-39.9	-51.5	3.8	8.46e-01	0	52	104	0	51	13712
2026-01-03 02:41:54.96	9.77	6.84	-39.9	-51.5	3.8	8.47e-01	0	52	104	0	51	13718
2026-01-03 02:41:55.97	9.71	6.91	-39.9	-51.5	3.8	8.45e-01	0	53	104	0	51	13713
2026-01-03 02:41:56.98	9.66	6.98	-39.9	-51.6	3.8	8.46e-01	0	53	104	0	51	13734
2026-01-03 02:41:57.99	9.61	7.06	-39.9	-51.5	3.8	8.46e-01	0	53	104	0	51	13695
2026-01-03 02:41:59.00	9.55	7.13	-39.9	-51.6	3.8	8.46e-01	0	53	104	0	51	13768
2026-01-03 02:42:00.01	9.50	7.20	-39.9	-51.6	3.8	8.45e-01	0	53	104	0	51	13738
2026-01-03 02:42:01.03	9.44	7.28	-39.9	-51.6	3.8	8.44e-01	0	53	104	0	51	13751
2026-01-03 02:42:02.04	9.39	7.35	-39.9	-51.6	3.8	8.45e-01	0	53	104	0	51	13800
2026-01-03 02:42:03.05	9.34	7.43	-39.9	-51.6	3.8	8.46e-01	0	53	104	0	51	13731
2026-01-03 02:42:04.06	9.28	7.50	-39.9	-51.6	3.8	8.46e-01	0	53	104	0	51	13743
2026-01-03 02:42:05.07	9.22	7.57	-39.9	-51.6	3.8	8.46e-01	0	53	104	0	51	13742
2026-01-03 02:42:06.08	9.17	7.65	-39.9	-51.6	3.8	8.45e-01	0	53	104	0	51	13728
2026-01-03 02:42:07.09	9.11	7.72	-39.9	-51.5	3.8	8.46e-01	0	53	104	0	51	13722
2026-01-03 02:42:08.10	9.06	7.80	-39.9	-51.6	3.8	8.45e-01	0	53	104	0	51	13752
2026-01-03 02:42:09.11	9.00	7.88	-39.9	-51.5	3.8	8.46e-01	0	53	104	0	51	13723
2026-01-03 02:42:10.13	8.94	7.95	-39.9	-51.5	3.8	8.46e-01	0	53	104	0	51	13706
2026-01-03 02:42:11.14	8.88	8.03	-39.9	-51.5	3.8	8.45e-01	0	53	104	0	51	13703
2026-01-03 02:42:12.15	8.83	8.10	-39.9	-51.5	3.8	8.45e-01	0	53	104	0	51	13626
2026-01-03 02:42:13.16	8.77	8.18	-39.9	-51.5	3.8	8.44e-01	0	53	104	0	51	13641
2026-01-03 02:42:14.17	8.71	8.26	-39.8	-51.5	3.8	8.46e-01	0	53	104	0	51	13701
2026-01-03 02:42:15.18	8.65	8.33	-39.9	-51.5	3.8	8.46e-01	0	53	104	0	51	13640
2026-01-03 02:42:16.19	8.59	8.41	-39.8	-51.4	3.8	8.46e-01	0	53	104	0	51	13569
2026-01-03 02:42:17.20	8.53	8.49	-39.9	-51.5	3.8	8.46e-01	0	53	104	0	51	13593
2026-01-03 02:42:18.21	8.47	8.56	-39.8	-51.4	3.8	8.46e-01	0	53	104	0	51	13547
2026-01-03 02:42:19.22	8.41	8.64	-39.9	-51.4	3.8	8.45e-01	0	54	104	0	51	13539
2026-01-03 02:42:20.23	8.35	8.72	-39.9	-51.6	3.8	8.45e-01	0	54	104	0	51	13793
2026-01-03 02:42:21.23	8.29	8.80	-39.9	-51.4	3.8	8.47e-01	0	54	104	0	51	13524
2026-01-03 02:42:22.24	8.23	8.87	-39.9	-51.6	3.8	8.46e-01	0	54	104	0	51	13777
2026-01-03 02:42:23.25	8.17	8.95	-39.8	-51.4	3.8	8.45e-01	0	54	104	0	51	13505
2026-01-03 02:42:24.26	8.11	9.03	-39.8	-51.4	3.8	8.47e-01	0	54	104	0	51	13517
2026-01-03 02:42:25.27	8.05	9.11	-39.8	-51.4	3.8	8.47e-01	0	54	104	0	51	13544
2026-01-03 02:42:26.28	7.98	9.19	-39.8	-51.4	3.8	8.45e-01	0	54	104	0	51	13429
2026-01-03 02:42:27.29	7.92	9.27	-39.8	-51.4	3.8	8.47e-01	0	54	104	0	51	13543
2026-01-03 02:42:28.30	7.86	9.35	-39.9	-51.5	3.8	8.46e-01	0	54	104	0	51	13602
2026-01-03 02:42:29.31	7.80	9.43	-39.9	-51.4	3.8	8.46e-01	0	54	104	0	51	13536
2026-01-03 02:42:30.32	7.73	9.51	-39.8	-51.4	3.8	8.45e-01	0	54	104	0	51	13541
2026-01-03 02:42:31.33	7.67	9.59	-39.8	-51.5	3.8	8.47e-01	0	54	104	0	51	13588
2026-01-03 02:42:32.34	7.60	9.67	-39.8	-51.4	3.8	8.46e-01	0	54	104	0	51	13429
2026-01-03 02:42:33.35	7.54	9.75	-39.8	-51.4	3.8	8.46e-01	0	54	104	0	51	13492
2026-01-03 02:42:34.36	7.47	9.83	-39.8	-51.4	3.8	8.47e-01	0	54	104	0	51	13433
2026-01-03 02:42:35.37	7.41	9.91	-39.9	-51.5	3.8	8.46e-01	0	54	104	0	51	13621
2026-01-03 02:42:36.38	7.34	9.99	-39.8	-51.4	3.8	8.47e-01	0	54	104	0	51	13470
2026-01-03 02:42:37.39	7.27	10.07	-39.9	-51.5	3.8	8.46e-01	0	54	104	0	51	13662
2026-01-03 02:42:38.40	7.21	10.15	-39.8	-51.4	3.8	8.46e-01	0	54	104	0	51	13505
2026-01-03 02:42:39.41	7.14	10.24	-39.9	-51.5	3.8	8.45e-01	0	54	104	0	51	13664
2026-01-03 02:42:40.41	7.07	10.32	-39.8	-51.4	3.8	8.46e-01	0	54	104	0	51	13484
2026-01-03 02:42:41.42	7.00	10.40	-40.0	-51.6	3.8	8.45e-01	0	54	104	0	51	13736
2026-01-03 02:42:42.43	6.93	10.48	-39.8	-51.5	3.8	8.46e-01	0	54	104	0	51	13587
2026-01-03 02:42:43.44	6.87	10.56	-40.1	-51.7	3.8	8.46e-01	0	54	104	0	51	13930
2026-01-03 02:42:44.45	6.80	10.65	-39.9	-51.5	3.8	8.46e-01	0	54	104	0	51	13624
2026-01-03 02:42:45.46	6.73	10.73	-40.1	-51.6	3.8	8.46e-01	0	54	104	0	51	13869
2026-01-03 02:42:46.47	6.66	10.81	-40.0	-51.5	3.8	8.46e-01	0	54	104	0	51	13628
2026-01-03 02:42:47.48	6.59	10.90	-40.1	-51.3	3.8	8.45e-01	0	55	104	0	51	13349
2026-01-03 02:42:48.49	6.51	10.98	-40.1	-51.6	3.8	8.46e-01	0	54	104	0	51	13740
2026-01-03 02:42:49.50	6.44	11.07	-40.6	-49.2	4.2	8.43e-01	0	54	0	0	51	10459
2026-01-03 02:42:50.51	6.37	11.15	-40.5	-49.1	4.2	8.36e-01	0	54	0	0	51	10355
2026-01-03 02:42:51.52	6.30	11.24	-40.5	-49.1	4.1	8.39e-01	0	55	0	0	51	10402
2026-01-03 02:42:52.53	6.23	11.32	-40.7	-49.2	4.2	8.38e-01	0	55	0	0	51	10415
2026-01-03 02:42:53.54	6.15	11.41	-40.7	-48.6	4.4	8.33e-01	0	55	0	0	52	9216
2026-01-03 02:42:54.55	6.08	11.49	-40.7	-47.6	5.0	7.90e-01	0	55	0	0	52	8262
2026-01-03 02:42:55.56	6.00	11.58	-40.6	-46.3	6.1	5.59e-01	0	55	0	2097152	52	7086
2026-01-03 02:42:56.57	5.93	11.66	-40.4	-45.0	7.5	1.47e-01	0	55	0	7340032	52	6114
2026-01-03 02:42:57.58	5.85	11.75	-40.1	-43.9	9.0	4.82e-02	0	55	0	12582912	52	5386
2026-01-03 02:42:58.59	5.78	11.84	-40.0	-43.3	10.2	9.99e-03	0	55	0	18874368	51	5312
2026-01-03 02:42:59.60	5.70	11.92	-39.8	-42.8	10.9	3.71e-03	0	55	0	24117248	51	5040
2026-01-03 02:43:00.61	5.63	12.01	-39.2	-41.9	12.0	7.36e-04	0	55	0	30408704	50	4779
2026-01-03 02:43:01.62	5.55	12.10	-38.5	-40.9	12.9	1.58e-04	0	55	0	35651584	49	4512
2026-01-03 02:43:02.63	5.47	12.18	-37.6	-39.7	14.1	1.60e-05	0	55	0	40894464	47	4398
2026-01-03 02:43:03.64	5.39	12.27	-36.5	-38.3	15.4	0.00e+00	0	55	0	47185920	45	4215
2026-01-03 02:43:04.65	5.32	12.36	-35.1	-36.7	16.7	0.00e+00	0	55	0	52428800	42	4163
2026-01-03 02:43:05.66	5.24	12.45	-34.3	-35.7	17.6	0.00e+00	0	55	0	58720256	40	4172
2026-01-03 02:43:06.67	5.16	12.54	-34.0	-35.3	17.9	0.00e+00	0	55	0	63963136	39	4239
2026-01-03 02:43:07.68	5.08	12.63	-34.0	-35.4	17.9	0.00e+00	0	55	0	69206016	39	4268
2026-01-03 02:43:08.69	5.00	12.72	-34.2	-35.7	17.6	0.00e+00	0	55	0	75497472	39	4394
2026-01-03 02:43:09.70	4.92	12.80	-34.7	-36.2	17.1	0.00e+00	0	55	0	80740352	40	4419
2026-01-03 02:43:10.71	4.83	12.89	-35.2	-36.8	16.4	0.00e+00	0	55	0	87031808	41	4477
2026-01-03 02:43:11.73	4.75	12.99	-35.6	-37.3	16.0	0.00e+00	0	55	0	92274688	41	4734
2026-01-03 02:43:12.74	4.67	13.08	-35.8	-37.5	15.8	0.00e+00	0	55	0	98566144	42	4597
2026-01-03 02:43:13.75	4.59	13.17	-35.9	-37.6	15.8	0.00e+00	0	55	0	103809024	42	4638
2026-01-03 02:43:14.76	4.50	13.26	-35.9	-37.5	16.2	0.00e+00	0	55	0	110100480	42	4597
2026-01-03 02:43:15.76	4.42	13.35	-35.7	-37.3	16.5	0.00e+00	0	55	0	115343360	42	4456
2026-01-03 02:43:16.78	4.33	13.44	-35.4	-37.0	16.8	0.00e+00	0	55	0	120586240	42	4292
2026-01-03 02:43:17.79	4.25	13.53	-35.1	-36.6	17.1	0.00e+00	0	55	0	126877696	42	4131
2026-01-03 02:43:18.79	4.16	13.62	-34.8	-36.2	17.4	0.00e+00	0	55	0	132120576	41	4162
2026-01-03 02:43:19.80	4.08	13.71	-34.3	-35.7	18.0	0.00e+00	0	55	0	138412032	40	4153
2026-01-03 02:43:20.81	3.99	13.81	-34.2	-35.5	18.3	0.00e+00	0	55	0	143654912	40	4079
2026-01-03 02:43:21.83	3.90	13.90	-34.3	-35.6	18.4	0.00e+00	0	55	0	148897792	40	4107
2026-01-03 02:43:22.83	3.81	13.99	-34.7	-36.0	18.1	0.00e+00	0	55	0	155189248	40	4338
2026-01-03 02:43:23.85	3.72	14.09	-35.2	-36.7	17.6	0.00e+00	0	55	0	160432128	40	4652
2026-01-03 02:43:24.86	3.64	14.18	-35.6	-37.0	17.3	0.00e+00	0	55	0	166723584	41	4592
2026-01-03 02:43:25.87	3.55	14.27	-35.4	-36.8	17.6	0.00e+00	0	56	0	171966464	41	4452
2026-01-03 02:43:26.88	3.46	14.37	-34.9	-36.2	18.2	0.00e+00	0	55	0	177209344	41	4191
2026-01-03 02:43:27.89	3.36	14.46	-34.7	-36.0	18.5	0.00e+00	0	55	0	183500800	41	4074
2026-01-03 02:43:28.90	3.27	14.56	-34.6	-35.9	18.6	0.00e+00	0	55	0	188743680	41	4042
2026-01-03 02:43:29.91	3.18	14.65	-34.6	-35.9	18.6	0.00e+00	0	55	0	195035136	41	4037
2026-01-03 02:43:30.92	3.09	14.75	-34.6	-35.9	18.6	0.00e+00	0	55	0	200278016	41	4039
2026-01-03 02:43:31.93	2.99	14.84	-34.6	-35.9	18.6	0.00e+00	0	55	0	206569472	41	4027
2026-01-03 02:43:32.94	2.90	14.94	-34.5	-35.8	18.7	0.00e+00	0	55	0	211812352	41	3992
2026-01-03 02:43:33.95	2.81	15.03	-34.5	-35.7	18.8	0.00e+00	0	55	0	218103808	41	3947
2026-01-03 02:43:34.96	2.71	15.13	-34.4	-35.6	18.9	0.00e+00	0	55	0	223346688	40	4123
2026-01-03 02:43:35.97	2.61	15.23	-34.4	-35.6	18.9	0.00e+00	0	55	0	228589568	40	4124
2026-01-03 02:43:36.98	2.52	15.33	-34.4	-35.6	19.0	0.00e+00	0	55	0	234881024	40	4134
2026-01-03 02:43:37.99	2.42	15.42	-34.3	-35.5	19.0	0.00e+00	0	55	0	240123904	40	4091
2026-01-03 02:43:39.00	2.32	15.52	-34.2	-35.5	19.1	0.00e+00	0	55	0	246415360	40	4055
2026-01-03 02:43:40.02	2.22	15.62	-34.3	-35.5	19.1	0.00e+00	0	55	0	251658240	40	4063
2026-01-03 02:43:41.02	2.12	15.72	-34.2	-35.4	19.1	0.00e+00	0	56	0	256901120	40	4051
2026-01-03 02:43:42.03	2.02	15.82	-34.2	-35.4	19.2	0.00e+00	0	55	0	263192576	40	4027
2026-01-03 02:43:43.04	1.92	15.91	-34.1	-35.3	19.2	0.00e+00	0	55	0	268435456	40	3999
2026-01-03 02:43:44.05	1.82	16.01	-34.1	-35.3	19.3	0.00e+00	0	56	0	273678336	40	3979
2026-01-03 02:43:45.06	1.72	16.11	-34.1	-35.3	19.3	0.00e+00	0	56	0	279969792	40	3974
2026-01-03 02:43:46.07	1.62	16.21	-34.1	-35.3	19.3	0.00e+00	0	56	0	285212672	40	3976
2026-01-03 02:43:47.08	1.51	16.31	-34.1	-35.3	19.3	0.00e+00	0	56	0	291504128	40	3968
2026-01-03 02:43:48.09	1.41	16.41	-34.1	-35.3	19.3	0.00e+00	0	56	0	296747008	40	3978
2026-01-03 02:43:49.10	1.30	16.51	-34.1	-35.3	19.2	0.00e+00	0	56	0	303038464	40	4002
2026-01-03 02:43:50.11	1.20	16.62	-34.2	-35.4	19.2	0.00e+00	0	56	0	308281344	40	4031
2026-01-03 02:43:51.12	1.09	16.72	-34.2	-35.5	19.1	0.00e+00	0	56	0	314572800	40	4063
2026-01-03 02:43:52.13	0.98	16.82	-34.2	-35.5	19.1	0.00e+00	0	56	0	319815680	40	4063
2026-01-03 02:43:53.14	0.88	16.92	-34.3	-35.5	19.1	0.00e+00	0	56	0	325058560	40	4085
2026-01-03 02:43:54.15	0.77	17.02	-34.3	-35.5	19.1	0.00e+00	0	56	0	331350016	40	4089
2026-01-03 02:43:55.16	0.66	17.13	-34.3	-35.5	19.1	0.00e+00	0	56	0	336592896	40	4085
2026-01-03 02:43:56.17	0.55	17.23	-34.2	-35.5	19.2	0.00e+00	0	56	0	342884352	40	4053
2026-01-03 02:43:57.18	0.44	17.33	-34.1	-35.3	19.3	0.00e+00	0	56	0	348127232	40	3990
2026-01-03 02:43:58.19	0.33	17.44	-34.1	-35.3	19.4	0.00e+00	0	56	0	353370112	40	3968
2026-01-03 02:43:59.20	0.21	17.54	-34.0	-35.2	19.5	0.00e+00	0	56	0	359661568	39	4167
2026-01-03 02:44:00.21	0.10	17.65	-33.9	-35.1	19.6	0.00e+00	0	56	0	364904448	39	4124
2026-01-03 02:44:01.22	359.99	17.75	-33.9	-35.0	19.7	0.00e+00	0	56	0	371195904	39	4090
2026-01-03 02:44:02.23	359.87	17.85	-33.7	-34.9	19.8	0.00e+00	0	56	0	376438784	39	4029
2026-01-03 02:44:03.24	359.75	17.96	-33.7	-34.9	19.8	0.00e+00	0	56	0	381681664	39	4014
2026-01-03 02:44:04.25	359.64	18.07	-33.6	-34.8	19.9	0.00e+00	0	56	0	387973120	39	3962
2026-01-03 02:44:05.26	359.52	18.17	-33.6	-34.7	20.0	0.00e+00	0	56	0	393216000	39	3956
2026-01-03 02:44:06.26	359.40	18.28	-33.6	-34.7	19.9	0.00e+00	0	56	0	399507456	39	3958
2026-01-03 02:44:07.27	359.28	18.38	-33.6	-34.8	19.9	0.00e+00	0	56	0	404750336	39	3961
2026-01-03 02:44:08.28	359.16	18.49	-33.6	-34.8	20.0	0.00e+00	0	56	0	411041792	39	3965
2026-01-03 02:44:09.29	359.04	18.60	-33.6	-34.8	19.9	0.00e+00	0	56	0	416284672	39	3969
2026-01-03 02:44:10.30	358.92	18.71	-33.6	-34.7	20.0	0.00e+00	0	56	0	422576128	39	3951
2026-01-03 02:44:11.31	358.80	18.81	-33.6	-34.7	20.0	0.00e+00	0	56	0	427819008	39	3937
2026-01-03 02:44:12.32	358.67	18.92	-33.6	-34.7	20.0	0.00e+00	0	56	0	433061888	39	3957
2026-01-03 02:44:13.33	358.55	19.03	-33.6	-34.7	20.0	0.00e+00	0	56	0	439353344	39	3945
2026-01-03 02:44:14.34	358.42	19.14	-33.6	-34.7	20.0	0.00e+00	0	56	0	444596224	39	3940
2026-01-03 02:44:15.35	358.30	19.25	-33.5	-34.6	20.1	0.00e+00	0	56	0	449839104	39	3898
2026-01-03 02:44:16.36	358.17	19.36	-33.4	-34.6	20.2	0.00e+00	0	56	0	456130560	38	4112
2026-01-03 02:44:17.37	358.04	19.47	-33.4	-34.6	20.2	0.00e+00	0	56	0	461373440	38	4105
2026-01-03 02:44:18.38	357.91	19.58	-33.5	-34.7	20.1	0.00e+00	0	56	0	467664896	38	4154
2026-01-03 02:44:19.39	357.78	19.69	-33.6	-34.8	20.0	0.00e+00	0	56	0	472907776	38	4197
2026-01-03 02:44:20.40	357.65	19.80	-33.6	-34.8	19.9	0.00e+00	0	56	0	478150656	38	4216
2026-01-03 02:44:21.41	357.52	19.91	-33.6	-34.7	20.0	0.00e+00	0	56	0	484442112	38	4183
2026-01-03 02:44:22.41	357.39	20.02	-33.5	-34.6	20.1	0.00e+00	0	56	0	489684992	38	4138
2026-01-03 02:44:23.42	357.25	20.14	-33.4	-34.5	20.2	0.00e+00	0	56	0	495976448	38	4081
2026-01-03 02:44:24.43	357.12	20.25	-33.3	-34.4	20.3	0.00e+00	0	56	0	501219328	38	4037
2026-01-03 02:44:25.44	356.98	20.36	-33.3	-34.4	20.3	0.00e+00	0	56	0	507510784	38	4021
2026-01-03 02:44:26.45	356.85	20.47	-33.1	-34.2	20.5	0.00e+00	0	56	0	512753664	38	3938
2026-01-03 02:44:27.46	356.71	20.59	-33.0	-34.1	20.5	0.00e+00	0	56	0	519045120	38	3903
2026-01-03 02:44:28.47	356.57	20.70	-33.0	-34.1	20.5	0.00e+00	0	56	0	524288000	38	3894
2026-01-03 02:44:29.48	356.43	20.81	-32.9	-34.0	20.6	0.00e+00	0	56	0	529530880	37	4064
2026-01-03 02:44:30.49	356.29	20.93	-32.7	-33.8	20.7	0.00e+00	0	56	0	535822336	37	3987
2026-01-03 02:44:31.50	356.14	21.04	-32.6	-33.7	20.8	0.00e+00	0	56	0	541065216	37	3940
2026-01-03 02:44:32.51	356.00	21.16	-32.6	-33.7	20.8	0.00e+00	0	56	0	547356672	37	3953
2026-01-03 02:44:33.52	355.86	21.27	-32.7	-33.8	20.8	0.00e+00	0	56	0	552599552	37	3999
2026-01-03 02:44:34.53	355.71	21.39	-32.9	-34.0	20.6	0.00e+00	0	56	0	557842432	37	4080
2026-01-03 02:44:35.54	355.56	21.51	-33.1	-34.2	20.5	0.00e+00	0	56	0	564133888	37	4170
2026-01-03 02:44:36.55	355.41	21.62	-33.2	-34.4	20.3	0.00e+00	0	56	0	569376768	37	4250
2026-01-03 02:44:37.56	355.27	21.74	-33.3	-34.4	20.3	0.00e+00	0	56	0	575668224	37	4275
2026-01-03 02:44:38.57	355.11	21.86	-33.2	-34.3	20.4	0.00e+00	0	56	0	580911104	37	4220
2026-01-03 02:44:39.58	354.96	21.97	-33.1	-34.2	20.5	0.00e+00	0	56	0	586153984	37	4167
2026-01-03 02:44:40.59	354.81	22.09	-33.0	-34.1	20.7	0.00e+00	0	56	0	592445440	37	4108
2026-01-03 02:44:41.60	354.66	22.21	-32.7	-33.8	20.9	0.00e+00	0	56	0	597688320	37	3991
2026-01-03 02:44:42.61	354.50	22.33	-32.7	-33.8	21.0	0.00e+00	0	56	0	603979776	37	3966
2026-01-03 02:44:43.62	354.35	22.45	-32.7	-33.7	21.0	0.00e+00	0	56	0	609222656	37	3948
2026-01-03 02:44:44.64	354.19	22.57	-32.7	-33.8	21.0	0.00e+00	0	56	0	615514112	37	3971
2026-01-03 02:44:45.65	354.03	22.69	-32.7	-33.8	21.0	0.00e+00	0	56	0	620756992	37	3978
2026-01-03 02:44:46.65	353.87	22.80	-32.6	-33.7	21.0	0.00e+00	0	56	0	627048448	37	3944
2026-01-03 02:44:47.66	353.71	22.92	-32.6	-33.7	21.1	0.00e+00	0	56	0	632291328	37	3920
2026-01-03 02:44:48.68	353.54	23.05	-32.5	-33.6	21.2	0.00e+00	0	56	0	637534208	37	3883
2026-01-03 02:44:49.69	353.38	23.17	-32.5	-33.6	21.2	0.00e+00	0	56	0	643825664	37	3892
2026-01-03 02:44:50.70	353.21	23.29	-32.6	-33.6	21.1	0.00e+00	0	56	0	649068544	37	3913
2026-01-03 02:44:51.70	353.05	23.41	-32.6	-33.6	21.2	0.00e+00	0	56	0	655360000	37	3900
2026-01-03 02:44:52.71	352.88	23.53	-32.5	-33.6	21.2	0.00e+00	0	56	0	660602880	37	3872
2026-01-03 02:44:53.72	352.71	23.65	-32.5	-33.6	21.3	0.00e+00	0	56	0	665845760	36	4100
2026-01-03 02:44:54.73	352.54	23.77	-32.5	-33.5	21.3	0.00e+00	0	56	0	672137216	36	4077
2026-01-03 02:44:55.74	352.37	23.90	-32.5	-33.5	21.3	0.00e+00	0	56	0	677380096	36	4083
2026-01-03 02:44:56.75	352.20	24.02	-32.5	-33.5	21.3	0.00e+00	0	56	0	683671552	36	4081
2026-01-03 02:44:57.76	352.02	24.14	-32.5	-33.6	21.2	0.00e+00	0	56	0	688914432	36	4112
2026-01-03 02:44:58.77	351.85	24.26	-32.6	-33.6	21.2	0.00e+00	0	56	0	694157312	36	4134
2026-01-03 02:44:59.78	351.67	24.39	-32.6	-33.7	21.1	0.00e+00	0	56	0	700448768	36	4163
2026-01-03 02:45:00.79	351.49	24.51	-32.6	-33.7	21.2	0.00e+00	0	56	0	705691648	36	4163
2026-01-03 02:45:01.80	351.31	24.64	-32.6	-33.7	21.1	0.00e+00	0	56	0	711983104	36	4182
2026-01-03 02:45:02.81	351.13	24.76	-32.6	-33.7	21.1	0.00e+00	0	56	0	717225984	36	4172
2026-01-03 02:45:03.82	350.94	24.88	-32.6	-33.6	21.2	0.00e+00	0	57	0	723517440	36	4144
2026-01-03 02:45:04.83	350.76	25.01	-32.5	-33.6	21.2	0.00e+00	0	56	0	728760320	36	4124
2026-01-03 02:45:05.84	350.57	25.13	-32.4	-33.4	21.4	0.00e+00	0	57	0	734003200	36	4031
2026-01-03 02:45:06.85	350.39	25.26	-32.3	-33.4	21.4	0.00e+00	0	56	0	740294656	36	4010
2026-01-03 02:45:07.86	350.20	25.39	-32.2	-33.2	21.5	0.00e+00	0	57	0	745537536	36	3955
2026-01-03 02:45:08.87	350.01	25.51	-32.1	-33.2	21.6	0.00e+00	0	56	0	751828992	36	3924
2026-01-03 02:45:09.88	349.81	25.64	-32.1	-33.2	21.6	0.00e+00	0	56	0	757071872	36	3922
2026-01-03 02:45:10.89	349.62	25.76	-32.1	-33.1	21.7	0.00e+00	0	57	0	762314752	36	3907
2026-01-03 02:45:11.90	349.42	25.89	-32.0	-33.0	21.8	0.00e+00	0	56	0	768606208	36	3866
2026-01-03 02:45:12.90	349.23	26.02	-32.0	-33.1	21.7	0.00e+00	0	57	0	773849088	36	3878
2026-01-03 02:45:13.91	349.03	26.14	-32.1	-33.1	21.7	0.00e+00	0	56	0	780140544	36	3894
2026-01-03 02:45:14.92	348.83	26.27	-32.1	-33.2	21.7	0.00e+00	0	56	0	785383424	36	3918
2026-01-03 02:45:15.93	348.63	26.40	-32.2	-33.2	21.6	0.00e+00	0	56	0	790626304	36	3956
2026-01-03 02:45:16.94	348.42	26.53	-32.2	-33.3	21.6	0.00e+00	0	56	0	796917760	36	3962
2026-01-03 02:45:17.95	348.22	26.65	-32.2	-33.3	21.6	0.00e+00	0	56	0	802160640	36	3977
2026-01-03 02:45:18.96	348.01	26.78	-32.2	-33.3	21.6	0.00e+00	0	56	0	808452096	36	3962
2026-01-03 02:45:19.97	347.80	26.91	-32.1	-33.2	21.7	0.00e+00	0	57	0	813694976	36	3922
2026-01-03 02:45:20.98	347.59	27.04	-32.1	-33.1	21.7	0.00e+00	0	57	0	819986432	36	3898
2026-01-03 02:45:21.99	347.38	27.17	-31.4	-32.4	21.7	0.00e+00	0	57	0	825229312	34	4032
2026-01-03 02:45:23.00	347.17	27.30	-31.4	-32.4	21.8	0.00e+00	0	56	0	831520768	34	4023
2026-01-03 02:45:24.01	346.95	27.43	-31.4	-32.4	21.7	0.00e+00	0	57	0	836763648	34	4033
2026-01-03 02:45:25.02	346.73	27.56	-31.4	-32.5	21.7	0.00e+00	0	57	0	842006528	34	4063
2026-01-03 02:45:26.03	346.52	27.69	-31.5	-32.6	21.6	0.00e+00	0	56	0	848297984	34	4099
2026-01-03 02:45:27.04	346.29	27.81	-31.6	-32.6	21.5	0.00e+00	0	57	0	853540864	34	4138
2026-01-03 02:45:28.05	346.07	27.94	-31.7	-32.8	21.4	0.00e+00	0	57	0	858783744	34	4194
2026-01-03 02:45:29.06	345.85	28.07	-31.8	-32.8	21.4	0.00e+00	0	57	0	865075200	34	4226
2026-01-03 02:45:30.06	345.62	28.20	-31.8	-32.8	21.4	0.00e+00	0	56	0	870318080	34	4220
2026-01-03 02:45:31.07	345.39	28.33	-31.7	-32.7	21.5	0.00e+00	0	57	0	876609536	34	4168
2026-01-03 02:45:32.09	345.16	28.46	-31.6	-32.6	21.6	0.00e+00	0	57	0	881852416	34	4136
2026-01-03 02:45:33.10	344.93	28.59	-31.5	-32.6	21.6	0.00e+00	0	57	0	887095296	34	4107
2026-01-03 02:45:34.11	344.70	28.72	-31.5	-32.6	21.7	0.00e+00	0	57	0	893386752	34	4099
2026-01-03 02:45:35.12	344.46	28.85	-31.5	-32.5	21.7	0.00e+00	0	57	0	898629632	34	4089
2026-01-03 02:45:36.13	344.22	28.99	-31.5	-32.5	21.7	0.00e+00	0	57	0	904921088	34	4096
2026-01-03 02:45:37.14	343.98	29.12	-31.5	-32.6	21.6	0.00e+00	0	57	0	910163968	34	4110
2026-01-03 02:45:38.15	343.74	29.25	-31.6	-32.6	21.6	0.00e+00	0	57	0	916455424	34	4125
2026-01-03 02:45:39.16	343.50	29.38	-31.6	-32.6	21.6	0.00e+00	0	57	0	921698304	34	4139
2026-01-03 02:45:40.17	343.25	29.51	-31.6	-32.7	21.6	0.00e+00	0	57	0	927989760	34	4160
2026-01-03 02:45:41.18	343.00	29.64	-31.6	-32.7	21.6	0.00e+00	0	57	0	933232640	34	4154
2026-01-03 02:45:42.19	342.75	29.77	-31.5	-32.6	21.7	0.00e+00	0	57	0	938475520	34	4108
2026-01-03 02:45:43.20	342.50	29.90	-31.4	-32.5	21.8	0.00e+00	0	57	0	944766976	34	4055
2026-01-03 02:45:44.21	342.25	30.03	-31.3	-32.3	21.9	0.00e+00	0	57	0	950009856	34	3997
2026-01-03 02:45:45.21	341.99	30.16	-31.3	-32.3	22.0	0.00e+00	0	57	0	956301312	34	3975
2026-01-03 02:45:46.22	341.73	30.29	-31.3	-32.3	21.9	0.00e+00	0	57	0	961544192	34	3983
2026-01-03 02:45:47.23	341.47	30.42	-31.3	-32.3	21.9	0.00e+00	0	57	0	966787072	34	4001
2026-01-03 02:45:48.24	341.21	30.55	-31.3	-32.3	22.0	0.00e+00	0	57	0	973078528	34	3977
2026-01-03 02:45:49.25	340.95	30.68	-31.2	-32.2	22.0	0.00e+00	0	57	0	978321408	34	3957
2026-01-03 02:45:50.26	340.68	30.81	-31.2	-32.2	22.0	0.00e+00	0	57	0	984612864	34	3958
2026-01-03 02:45:51.27	340.41	30.94	-31.3	-32.3	22.0	0.00e+00	0	57	0	989855744	34	3979
2026-01-03 02:45:52.28	340.14	31.07	-31.3	-32.4	21.9	0.00e+00	0	57	0	995098624	34	4013
2026-01-03 02:45:53.29	339.86	31.20	-31.4	-32.4	21.9	0.00e+00	0	57	0	1001390080	34	4021
2026-01-03 02:45:54.30	339.59	31.33	-31.2	-32.3	22.0	0.00e+00	0	57	0	1006632960	34	3971
2026-01-03 02:45:55.31	339.31	31.46	-31.1	-32.2	22.1	0.00e+00	0	57	0	1012924416	34	3917
2026-01-03 02:45:56.32	339.03	31.59	-31.1	-32.2	22.1	0.00e+00	0	57	0	1018167296	34	3918
2026-01-03 02:45:57.33	338.75	31.71	-31.2	-32.2	22.1	0.00e+00	0	57	0	1024458752	34	3944
2026-01-03 02:45:58.34	338.46	31.84	-31.2	-32.3	22.0	0.00e+00	0	57	0	1029701632	34	3964
2026-01-03 02:45:59.35	338.18	31.97	-31.2	-32.2	22.0	0.00e+00	0	57	0	1034944512	34	3953
2026-01-03 02:46:00.36	337.89	32.10	-31.2	-32.2	22.1	0.00e+00	0	57	0	1041235968	34	3924
2026-01-03 02:46:01.37	337.60	32.23	-31.1	-32.1	22.1	0.00e+00	0	57	0	1046478848	34	3912
2026-01-03 02:46:02.38	337.30	32.35	-31.2	-32.2	22.1	0.00e+00	0	57	0	1052770304	34	3933
2026-01-03 02:46:03.38	337.01	32.48	-31.2	-32.2	22.1	0.00e+00	0	57	0	1058013184	34	3955
2026-01-03 02:46:04.39	336.71	32.61	-31.2	-32.2	22.1	0.00e+00	0	57	0	1063256064	34	3936
2026-01-03 02:46:05.40	336.41	32.73	-31.1	-32.1	22.1	0.00e+00	0	57	0	1069547520	34	3910
2026-01-03 02:46:06.41	336.10	32.86	-31.1	-32.1	22.2	0.00e+00	0	57	0	1074790400	34	3897
2026-01-03 02:46:07.42	335.80	32.98	-31.1	-32.1	22.2	0.00e+00	0	57	0	1081081856	34	3908
2026-01-03 02:46:08.43	335.49	33.11	-31.2	-32.2	22.1	0.00e+00	0	57	0	1086324736	34	3931
2026-01-03 02:46:09.44	335.18	33.23	-31.1	-32.1	22.2	0.00e+00	0	57	0	1091567616	34	3894
2026-01-03 02:46:10.45	334.87	33.36	-31.0	-32.0	22.3	0.00e+00	0	57	0	1097859072	34	3853
2026-01-03 02:46:11.46	334.55	33.48	-30.9	-31.8	22.4	0.00e+00	0	57	0	1103101952	33	4002
2026-01-03 02:46:12.46	334.24	33.61	-30.8	-31.8	22.5	0.00e+00	0	57	0	1109393408	33	3979
2026-01-03 02:46:13.47	333.92	33.73	-30.8	-31.8	22.4	0.00e+00	0	57	0	1114636288	33	3992
2026-01-03 02:46:14.48	333.59	33.85	-30.9	-31.9	22.4	0.00e+00	0	57	0	1120927744	33	4014
2026-01-03 02:46:15.49	333.27	33.97	-30.9	-31.9	22.3	0.00e+00	0	57	0	1126170624	33	4041
2026-01-03 02:46:16.51	332.94	34.09	-30.9	-31.9	22.4	0.00e+00	0	57	0	1132462080	33	4019
2026-01-03 02:46:17.52	332.61	34.22	-30.8	-31.8	22.4	0.00e+00	0	57	0	1137704960	33	3996
2026-01-03 02:46:18.53	332.28	34.34	-30.8	-31.8	22.5	0.00e+00	0	57	0	1142947840	33	3965
2026-01-03 02:46:19.54	331.94	34.45	-30.8	-31.7	22.5	0.00e+00	0	57	0	1149239296	33	3958
2026-01-03 02:46:20.55	331.60	34.57	-30.8	-31.8	22.5	0.00e+00	0	57	0	1154482176	33	3972
2026-01-03 02:46:21.56	331.26	34.69	-30.9	-31.9	22.4	0.00e+00	0	57	0	1160773632	33	4033
2026-01-03 02:46:22.57	330.92	34.81	-30.9	-31.9	22.3	0.00e+00	0	57	0	1166016512	33	4035
2026-01-03 02:46:23.58	330.58	34.93	-30.9	-31.9	22.3	0.00e+00	0	57	0	1171259392	33	4050
2026-01-03 02:46:24.59	330.23	35.04	-30.9	-31.9	22.4	0.00e+00	0	57	0	1177550848	33	4019
2026-01-03 02:46:25.60	329.88	35.16	-30.8	-31.8	22.4	0.00e+00	0	57	0	1182793728	33	3988
2026-01-03 02:46:26.61	329.53	35.27	-30.7	-31.7	22.5	0.00e+00	0	57	0	1189085184	33	3945
2026-01-03 02:46:27.62	329.17	35.38	-30.7	-31.7	22.5	0.00e+00	0	57	0	1194328064	33	3940
2026-01-03 02:46:28.62	328.82	35.49	-30.7	-31.7	22.5	0.00e+00	0	57	0	1199570944	33	3924
2026-01-03 02:46:29.63	328.46	35.61	-30.7	-31.7	22.5	0.00e+00	0	57	0	1205862400	33	3953
2026-01-03 02:46:30.64	328.09	35.72	-30.8	-31.8	22.4	0.00e+00	0	57	0	1211105280	33	3994
2026-01-03 02:46:31.65	327.73	35.83	-31.0	-32.0	22.3	0.00e+00	0	57	0	1217396736	33	4057
2026-01-03 02:46:32.66	327.36	35.94	-30.9	-31.9	22.3	0.00e+00	0	57	0	1222639616	33	4050
2026-01-03 02:46:33.67	326.99	36.04	-30.8	-31.8	22.4	0.00e+00	0	57	0	1228931072	33	3997
2026-01-03 02:46:34.68	326.62	36.15	-30.9	-31.9	22.4	0.00e+00	0	57	0	1234173952	33	4007
2026-01-03 02:46:35.69	326.24	36.26	-30.9	-31.9	22.3	0.00e+00	0	57	0	1239416832	33	4049
2026-01-03 02:46:36.70	325.87	36.36	-31.0	-32.0	22.2	0.00e+00	0	57	0	1245708288	33	4093
2026-01-03 02:46:37.71	325.49	36.46	-30.9	-31.9	22.3	0.00e+00	0	57	0	1250951168	33	4051
2026-01-03 02:46:38.72	325.10	36.57	-30.8	-31.8	22.4	0.00e+00	0	57	0	1257242624	33	3993
2026-01-03 02:46:39.73	324.72	36.67	-30.7	-31.7	22.6	0.00e+00	0	57	0	1262485504	33	3919
2026-01-03 02:46:40.74	324.33	36.77	-30.6	-31.6	22.7	0.00e+00	0	57	0	1267728384	33	3871
2026-01-03 02:46:41.75	323.94	36.87	-30.7	-31.6	22.6	0.00e+00	0	57	0	1274019840	33	3909
2026-01-03 02:46:42.76	323.55	36.97	-30.9	-31.9	22.4	0.00e+00	0	57	0	1279262720	33	4014
2026-01-03 02:46:43.78	323.15	37.06	-31.0	-32.0	22.3	0.00e+00	0	57	0	1285554176	33	4070
2026-01-03 02:46:44.78	322.76	37.16	-30.9	-31.9	22.4	0.00e+00	0	57	0	1290797056	33	4023
2026-01-03 02:46:45.79	322.36	37.25	-30.8	-31.8	22.5	0.00e+00	0	57	0	1296039936	33	3981
2026-01-03 02:46:46.80	321.96	37.34	-30.9	-31.9	22.4	0.00e+00	0	57	0	1302331392	33	4014
2026-01-03 02:46:47.81	321.56	37.43	-30.9	-31.8	22.4	0.00e+00	0	57	0	1307574272	33	4003
2026-01-03 02:46:48.82	321.15	37.52	-30.8	-31.8	22.5	0.00e+00	0	57	0	1313865728	33	3968
2026-01-03 02:46:49.83	320.74	37.61	-30.9	-31.8	22.4	0.00e+00	0	57	0	1319108608	33	4001
2026-01-03 02:46:50.84	320.33	37.70	-31.0	-32.0	22.2	0.00e+00	0	57	0	1325400064	33	4093
2026-01-03 02:46:51.85	319.92	37.79	-31.2	-32.2	22.1	0.00e+00	0	57	0	1330642944	33	4176
2026-01-03 02:46:52.86	319.51	37.87	-31.1	-32.1	22.2	0.00e+00	0	57	0	1336934400	33	4104
2026-01-03 02:46:53.86	319.09	37.95	-30.9	-31.8	22.4	0.00e+00	0	57	0	1342177280	33	4001
2026-01-03 02:46:54.87	318.68	38.03	-30.8	-31.7	22.5	0.00e+00	0	57	0	1347420160	33	3954
2026-01-03 02:46:55.88	318.26	38.11	-30.7	-31.7	22.6	0.00e+00	0	57	0	1353711616	33	3927
2026-01-03 02:46:56.90	317.83	38.19	-30.6	-31.6	22.6	0.00e+00	0	57	0	1358954496	33	3902
2026-01-03 02:46:57.91	317.40	38.27	-30.6	-31.5	22.7	0.00e+00	0	57	0	1365245952	33	3865
2026-01-03 02:46:58.92	316.98	38.34	-30.6	-31.6	22.7	0.00e+00	0	57	0	1370488832	33	3873
2026-01-03 02:46:59.93	316.55	38.41	-30.6	-31.6	22.6	0.00e+00	0	57	0	1375731712	33	3895
2026-01-03 02:47:00.94	316.12	38.49	-30.7	-31.7	22.6	0.00e+00	0	57	0	1382023168	33	3920
2026-01-03 02:47:01.94	315.69	38.56	-30.8	-31.8	22.5	0.00e+00	0	57	0	1387266048	33	3984
2026-01-03 02:47:02.96	315.25	38.62	-30.9	-31.9	22.4	0.00e+00	0	57	0	1393557504	33	4016
2026-01-03 02:47:03.97	314.81	38.69	-30.9	-31.9	22.4	0.00e+00	0	57	0	1398800384	33	4034
2026-01-03 02:47:04.97	314.38	38.75	-30.8	-31.8	22.4	0.00e+00	0	57	0	1404043264	33	3997
2026-01-03 02:47:05.98	313.94	38.82	-30.7	-31.7	22.5	0.00e+00	0	57	0	1410334720	33	3943
2026-01-03 02:47:07.00	313.49	38.88	-30.8	-31.8	22.5	0.00e+00	0	57	0	1415577600	33	3975
2026-01-03 02:47:08.01	313.05	38.94	-30.8	-31.8	22.4	0.00e+00	0	57	0	1421869056	33	4003
2026-01-03 02:47:09.01	312.61	38.99	-30.8	-31.8	22.5	0.00e+00	0	57	0	1427111936	33	3982
2026-01-03 02:47:10.03	312.16	39.05	-30.7	-31.7	22.5	0.00e+00	0	57	0	1433403392	33	3927
2026-01-03 02:47:11.04	311.71	39.10	-30.7	-31.6	22.6	0.00e+00	0	57	0	1438646272	33	3904
2026-01-03 02:47:12.05	311.26	39.15	-30.8	-31.8	22.5	0.00e+00	0	57	0	1443889152	33	3963
2026-01-03 02:47:13.06	310.81	39.20	-30.9	-31.9	22.3	0.00e+00	0	57	0	1450180608	33	4049
2026-01-03 02:47:14.07	310.36	39.25	-30.9	-31.9	22.4	0.00e+00	0	57	0	1455423488	33	4031
2026-01-03 02:47:15.08	309.90	39.30	-30.8	-31.7	22.5	0.00e+00	0	57	0	1461714944	33	3951
2026-01-03 02:47:16.09	309.45	39.34	-30.6	-31.6	22.6	0.00e+00	0	57	0	1466957824	33	3891
2026-01-03 02:47:17.10	308.99	39.38	-30.7	-31.6	22.6	0.00e+00	0	57	0	1472200704	33	3907
2026-01-03 02:47:18.11	308.54	39.42	-30.7	-31.6	22.6	0.00e+00	0	57	0	1478492160	33	3912
2026-01-03 02:47:19.12	308.08	39.46	-30.5	-31.4	22.7	0.00e+00	0	57	0	1483735040	32	4043
2026-01-03 02:47:20.13	307.62	39.49	-30.4	-31.3	22.9	0.00e+00	0	57	0	1490026496	32	3989
2026-01-03 02:47:21.14	307.16	39.53	-30.5	-31.5	22.7	0.00e+00	0	57	0	1495269376	32	4081
2026-01-03 02:47:22.15	306.70	39.56	-30.7	-31.7	22.5	0.00e+00	0	57	0	1500512256	32	4180
2026-01-03 02:47:23.16	306.23	39.59	-30.9	-32.0	22.3	0.00e+00	0	57	0	1506803712	32	4300
2026-01-03 02:47:24.17	305.77	39.61	-30.9	-31.9	22.4	0.00e+00	0	57	0	1512046592	32	4274
2026-01-03 02:47:25.18	305.31	39.64	-30.7	-31.7	22.5	0.00e+00	0	57	0	1518338048	32	4172
2026-01-03 02:47:26.19	304.84	39.66	-30.7	-31.6	22.6	0.00e+00	0	57	0	1523580928	32	4138
2026-01-03 02:47:27.20	304.38	39.68	-30.7	-31.7	22.5	0.00e+00	0	57	0	1529872384	32	4181
2026-01-03 02:47:28.21	303.91	39.70	-30.8	-31.8	22.5	0.00e+00	0	57	0	1535115264	32	4205
2026-01-03 02:47:29.22	303.45	39.72	-30.6	-31.6	22.6	0.00e+00	0	57	0	1541406720	32	4115
2026-01-03 02:47:30.23	302.98	39.73	-30.5	-31.5	22.8	0.00e+00	0	57	0	1546649600	32	4054
2026-01-03 02:47:31.24	302.51	39.74	-30.6	-31.6	22.7	0.00e+00	0	57	0	1551892480	32	4104
2026-01-03 02:47:32.25	302.05	39.75	-30.8	-31.8	22.4	0.00e+00	0	57	0	1558183936	32	4239
2026-01-03 02:47:33.25	301.58	39.76	-30.8	-31.8	22.5	0.00e+00	0	57	0	1563426816	32	4206
2026-01-03 02:47:34.26	301.12	39.77	-30.5	-31.5	22.7	0.00e+00	0	57	0	1569718272	32	4076
2026-01-03 02:47:35.28	300.64	39.77	-30.5	-31.5	22.8	0.00e+00	0	57	0	1574961152	32	4054
2026-01-03 02:47:36.29	300.18	39.77	-30.6	-31.6	22.6	0.00e+00	0	57	0	1580204032	32	4134
2026-01-03 02:47:37.30	299.71	39.77	-30.7	-31.7	22.6	0.00e+00	0	57	0	1586495488	32	4153
2026-01-03 02:47:38.31	299.24	39.77	-30.4	-31.4	22.8	0.00e+00	0	57	0	1591738368	32	4028
2026-01-03 02:47:39.32	298.77	39.76	-30.3	-31.3	22.9	0.00e+00	0	57	0	1598029824	32	3966
2026-01-03 02:47:40.33	298.30	39.76	-30.4	-31.4	22.8	0.00e+00	0	57	0	1603272704	32	4027
2026-01-03 02:47:41.34	297.84	39.75	-30.5	-31.5	22.8	0.00e+00	0	57	0	1608515584	32	4054
2026-01-03 02:47:42.35	297.37	39.73	-30.4	-31.4	22.9	0.00e+00	0	57	0	1614807040	32	4008
2026-01-03 02:47:43.36	296.90	39.72	-30.4	-31.4	22.8	0.00e+00	0	57	0	1620049920	32	4039
2026-01-03 02:47:44.37	296.44	39.71	-30.6	-31.5	22.7	0.00e+00	0	57	0	1626341376	32	4098
2026-01-03 02:47:45.38	295.97	39.69	-30.6	-31.6	22.6	0.00e+00	0	57	0	1631584256	32	4125
2026-01-03 02:47:46.39	295.50	39.67	-30.5	-31.5	22.7	0.00e+00	0	57	0	1637875712	32	4052
2026-01-03 02:47:47.40	295.04	39.64	-30.3	-31.3	22.9	0.00e+00	0	57	0	1643118592	32	3986
2026-01-03 02:47:48.41	294.58	39.62	-30.4	-31.3	22.9	0.00e+00	0	57	0	1649410048	32	3990
2026-01-03 02:47:49.42	294.11	39.59	-30.4	-31.4	22.8	0.00e+00	0	57	0	1654652928	32	4021
2026-01-03 02:47:50.43	293.65	39.56	-30.4	-31.4	22.8	0.00e+00	0	57	0	1659895808	32	4029
2026-01-03 02:47:51.44	293.19	39.53	-30.4	-31.4	22.8	0.00e+00	0	57	0	1666187264	32	4011
2026-01-03 02:47:52.45	292.73	39.50	-30.2	-31.2	23.0	0.00e+00	0	57	0	1671430144	32	3930
2026-01-03 02:47:53.46	292.27	39.47	-30.0	-31.0	23.2	0.00e+00	0	57	0	1677721600	32	3841
2026-01-03 02:47:54.48	291.80	39.43	-30.1	-31.0	23.1	0.00e+00	0	57	0	1682964480	32	3864
2026-01-03 02:47:55.48	291.35	39.39	-30.3	-31.2	23.0	0.00e+00	0	57	0	1688207360	32	3945
2026-01-03 02:47:56.50	290.89	39.35	-30.4	-31.3	22.9	0.00e+00	0	57	0	1694498816	32	3996
2026-01-03 02:47:57.51	290.43	39.30	-30.2	-31.2	23.0	0.00e+00	0	57	0	1699741696	32	3938
2026-01-03 02:47:58.52	289.98	39.26	-30.2	-31.1	23.0	0.00e+00	0	57	0	1706033152	32	3907
2026-01-03 02:47:59.53	289.53	39.21	-30.2	-31.2	23.0	0.00e+00	0	58	0	1711276032	32	3942
2026-01-03 02:48:00.54	289.07	39.16	-30.3	-31.3	22.9	0.00e+00	0	58	0	1716518912	32	3973
2026-01-03 02:48:01.55	288.62	39.11	-30.2	-31.2	23.0	0.00e+00	0	57	0	1722810368	32	3917
2026-01-03 02:48:02.56	288.17	39.06	-30.3	-31.2	23.0	0.00e+00	0	57	0	1728053248	32	3942
2026-01-03 02:48:03.57	287.73	39.00	-30.4	-31.4	22.8	0.00e+00	0	58	0	1734344704	32	4021
2026-01-03 02:48:04.58	287.28	38.95	-30.6	-31.6	22.6	0.00e+00	0	57	0	1739587584	32	4112
2026-01-03 02:48:05.59	286.84	38.89	-30.6	-31.6	22.6	0.00e+00	0	57	0	1745879040	32	4101
2026-01-03 02:48:06.60	286.39	38.83	-30.4	-31.4	22.8	0.00e+00	0	57	0	1751121920	32	4017
2026-01-03 02:48:07.61	285.95	38.77	-30.3	-31.2	22.9	0.00e+00	0	57	0	1757413376	32	3956
2026-01-03 02:48:08.62	285.51	38.70	-30.2	-31.1	23.0	0.00e+00	0	57	0	1762656256	32	3906
2026-01-03 02:48:09.63	285.08	38.64	-30.2	-31.1	23.0	0.00e+00	0	57	0	1767899136	32	3909
2026-01-03 02:48:10.63	284.65	38.57	-30.2	-31.1	23.0	0.00e+00	0	57	0	1774190592	32	3912
2026-01-03 02:48:11.64	284.21	38.50	-30.2	-31.1	23.0	0.00e+00	0	58	0	1779433472	32	3908
2026-01-03 02:48:12.65	283.78	38.43	-30.0	-31.0	23.2	0.00e+00	0	57	0	1785724928	32	3842
2026-01-03 02:48:13.66	283.35	38.36	-29.8	-30.7	23.2	0.00e+00	0	57	0	1790967808	31	3955
2026-01-03 02:48:14.67	282.92	38.28	-29.9	-30.8	23.2	0.00e+00	0	57	0	1796210688	31	3987
2026-01-03 02:48:15.68	282.49	38.21	-30.1	-31.1	22.9	0.00e+00	0	57	0	1802502144	31	4118
2026-01-03 02:48:16.69	282.07	38.13	-30.2	-31.2	22.8	0.00e+00	0	57	0	1807745024	31	4168
2026-01-03 02:48:17.70	281.65	38.05	-30.0	-31.0	22.9	0.00e+00	0	57	0	1812987904	31	4081
2026-01-03 02:48:18.71	281.23	37.97	-29.9	-30.9	23.1	0.00e+00	0	57	0	1819279360	31	4013
2026-01-03 02:48:19.72	280.81	37.88	-30.0	-30.9	23.0	0.00e+00	0	57	0	1824522240	31	4045
2026-01-03 02:48:20.73	280.39	37.80	-30.1	-31.1	22.9	0.00e+00	0	57	0	1830813696	31	4134
2026-01-03 02:48:21.74	279.98	37.72	-30.2	-31.2	22.8	0.00e+00	0	57	0	1836056576	31	4148
2026-01-03 02:48:22.75	279.57	37.63	-30.1	-31.1	22.9	0.00e+00	0	57	0	1842348032	31	4113
2026-01-03 02:48:23.76	279.16	37.54	-30.1	-31.0	22.9	0.00e+00	0	57	0	1847590912	31	4088
2026-01-03 02:48:24.77	278.75	37.45	-30.1	-31.0	22.9	0.00e+00	0	57	0	1853882368	31	4098
2026-01-03 02:48:25.78	278.35	37.36	-30.1	-31.1	22.9	0.00e+00	0	57	0	1859125248	31	4107
2026-01-03 02:48:26.79	277.94	37.27	-30.0	-31.0	23.0	0.00e+00	0	57	0	1864368128	31	4069
2026-01-03 02:48:27.80	277.54	37.17	-30.0	-30.9	23.0	0.00e+00	0	57	0	1870659584	31	4041
2026-01-03 02:48:28.81	277.15	37.08	-30.0	-30.9	23.0	0.00e+00	0	57	0	1875902464	31	4045
2026-01-03 02:48:29.82	276.75	36.98	-30.0	-30.9	23.0	0.00e+00	0	57	0	1882193920	31	4039
2026-01-03 02:48:30.83	276.36	36.88	-30.0	-31.0	23.0	0.00e+00	0	57	0	1887436800	31	4060
2026-01-03 02:48:31.84	275.97	36.78	-30.1	-31.0	23.0	0.00e+00	0	57	0	1892679680	31	4082
2026-01-03 02:48:32.85	275.58	36.68	-30.2	-31.1	22.9	0.00e+00	0	57	0	1898971136	31	4134
2026-01-03 02:48:33.86	275.19	36.58	-30.2	-31.1	22.9	0.00e+00	0	58	0	1904214016	31	4139
2026-01-03 02:48:34.87	274.81	36.48	-30.1	-31.1	22.9	0.00e+00	0	57	0	1910505472	31	4100
2026-01-03 02:48:35.88	274.43	36.38	-30.1	-31.0	22.9	0.00e+00	0	57	0	1915748352	31	4095
2026-01-03 02:48:36.89	274.05	36.27	-30.2	-31.2	22.8	0.00e+00	0	57	0	1920991232	31	4181
2026-01-03 02:48:37.90	273.67	36.16	-30.4	-31.4	22.6	0.00e+00	0	57	0	1927282688	31	4256
2026-01-03 02:48:38.91	273.30	36.06	-30.5	-31.5	22.5	0.00e+00	0	58	0	1932525568	31	4309
2026-01-03 02:48:39.92	272.93	35.95	-30.4	-31.4	22.6	0.00e+00	0	58	0	1938817024	31	4273
2026-01-03 02:48:40.94	272.55	35.84	-30.4	-31.3	22.7	0.00e+00	0	57	0	1944059904	31	4232
2026-01-03 02:48:41.95	272.19	35.73	-30.4	-31.3	22.7	0.00e+00	0	57	0	1950351360	31	4226
2026-01-03 02:48:42.95	271.83	35.62	-30.4	-31.4	22.7	0.00e+00	0	57	0	1955594240	31	4245
2026-01-03 02:48:43.96	271.46	35.51	-30.2	-31.2	22.8	0.00e+00	0	57	0	1961885696	31	4174
2026-01-03 02:48:44.97	271.10	35.40	-30.1	-31.0	22.9	0.00e+00	0	57	0	1967128576	31	4094
2026-01-03 02:48:45.98	270.75	35.28	-30.1	-31.1	22.9	0.00e+00	0	58	0	1972371456	31	4101
2026-01-03 02:48:46.99	270.39	35.17	-30.1	-31.1	22.8	0.00e+00	0	57	0	1978662912	31	4127
2026-01-03 02:48:48.00	270.04	35.05	-30.1	-31.1	22.9	0.00e+00	0	57	0	1983905792	31	4108
2026-01-03 02:48:49.01	269.69	34.94	-30.0	-31.0	23.0	0.00e+00	0	57	0	1990197248	31	4055
2026-01-03 02:48:50.02	269.35	34.82	-30.0	-31.0	23.0	0.00e+00	0	57	0	1995440128	31	4061
2026-01-03 02:48:51.02	269.01	34.70	-30.2	-31.1	22.9	0.00e+00	0	58	0	2000683008	31	4138
2026-01-03 02:48:52.03	268.66	34.58	-30.3	-31.2	22.8	0.00e+00	0	57	0	2006974464	31	4187
2026-01-03 02:48:53.04	268.32	34.47	-30.2	-31.2	22.8	0.00e+00	0	57	0	2012217344	31	4181
2026-01-03 02:48:54.05	267.99	34.35	-30.2	-31.1	22.8	0.00e+00	0	57	0	2018508800	31	4145
2026-01-03 02:48:55.06	267.65	34.23	-30.1	-31.1	22.9	0.00e+00	0	57	0	2023751680	31	4129
2026-01-03 02:48:56.07	267.32	34.10	-30.2	-31.2	22.8	0.00e+00	0	57	0	2028994560	31	4171
2026-01-03 02:48:57.08	266.99	33.98	-30.3	-31.3	22.7	0.00e+00	0	58	0	2035286016	31	4218
2026-01-03 02:48:58.09	266.67	33.86	-30.3	-31.3	22.7	0.00e+00	0	57	0	2040528896	31	4197
2026-01-03 02:48:59.10	266.34	33.74	-30.2	-31.2	22.8	0.00e+00	0	57	0	2046820352	31	4155
2026-01-03 02:49:00.11	266.02	33.61	-30.1	-31.1	22.9	0.00e+00	0	57	0	2052063232	31	4117
2026-01-03 02:49:01.12	265.70	33.49	-30.2	-31.2	22.8	0.00e+00	0	57	0	2058354688	31	4154
2026-01-03 02:49:02.13	265.38	33.37	-30.2	-31.2	22.8	0.00e+00	0	57	0	2063597568	31	4171
2026-01-03 02:49:03.14	265.07	33.24	-30.1	-31.1	22.9	0.00e+00	0	57	0	2068840448	31	4112
2026-01-03 02:49:04.15	264.76	33.12	-30.0	-31.0	23.0	0.00e+00	0	57	0	2075131904	31	4056
2026-01-03 02:49:05.16	264.45	32.99	-30.0	-31.0	23.0	0.00e+00	0	57	0	2080374784	31	4077
2026-01-03 02:49:06.17	264.14	32.86	-30.2	-31.2	22.8	0.00e+00	0	57	0	2086666240	31	4169
2026-01-03 02:49:07.18	263.83	32.74	-30.4	-31.4	22.6	0.00e+00	0	57	0	2091909120	31	4254
2026-01-03 02:49:08.19	263.53	32.61	-30.5	-31.5	22.5	0.00e+00	0	57	0	2097152000	31	4308
2026-01-03 02:49:09.20	263.23	32.48	-30.5	-31.5	22.5	0.00e+00	0	58	0	2103443456	31	4304
2026-01-03 02:49:10.21	262.93	32.36	-30.4	-31.4	22.6	0.00e+00	0	58	0	2108686336	31	4253
2026-01-03 02:49:11.22	262.64	32.23	-30.4	-31.3	22.7	0.00e+00	0	57	0	2114977792	31	4239
2026-01-03 02:49:12.23	262.34	32.10	-30.4	-31.4	22.6	0.00e+00	0	57	0	2120220672	31	4244
2026-01-03 02:49:13.24	262.05	31.97	-30.3	-31.3	22.7	0.00e+00	0	57	0	2125463552	31	4219
2026-01-03 02:49:14.25	261.76	31.84	-30.2	-31.2	22.8	0.00e+00	0	58	0	2131755008	31	4175
2026-01-03 02:49:15.26	261.48	31.71	-30.1	-31.1	22.9	0.00e+00	0	57	0	2136997888	31	4106
2026-01-03 02:49:16.27	261.19	31.58	-30.1	-31.1	22.9	0.00e+00	0	57	0	2143289344	31	4101
2026-01-03 02:49:17.27	260.91	31.46	-30.2	-31.2	22.8	0.00e+00	0	57	0	2148532224	31	4146
2026-01-03 02:49:18.28	260.63	31.33	-30.3	-31.3	22.7	0.00e+00	0	57	0	2154823680	31	4198
2026-01-03 02:49:19.30	260.35	31.20	-30.3	-31.2	22.7	0.00e+00	0	57	0	2160066560	31	4192
2026-01-03 02:49:20.31	260.08	31.07	-30.2	-31.1	22.8	0.00e+00	0	57	0	2166358016	31	4142
2026-01-03 02:49:21.32	259.81	30.93	-30.2	-31.1	22.8	0.00e+00	0	57	0	2171600896	31	4135
2026-01-03 02:49:22.33	259.54	30.80	-30.2	-31.1	22.8	0.00e+00	0	58	0	2176843776	31	4143
2026-01-03 02:49:23.34	259.27	30.67	-30.3	-31.2	22.7	0.00e+00	0	57	0	2183135232	31	4185
2026-01-03 02:49:24.35	259.00	30.54	-30.4	-31.4	22.6	0.00e+00	0	57	0	2188378112	31	4243
2026-01-03 02:49:25.36	258.74	30.41	-30.4	-31.3	22.6	0.00e+00	0	57	0	2194669568	31	4242
2026-01-03 02:49:26.37	258.48	30.28	-30.3	-31.3	22.7	0.00e+00	0	57	0	2199912448	31	4212
2026-01-03 02:49:27.38	258.22	30.15	-30.3	-31.2	22.7	0.00e+00	0	58	0	2205155328	31	4185
2026-01-03 02:49:28.39	257.96	30.02	-30.3	-31.2	22.7	0.00e+00	0	57	0	2211446784	31	4191
2026-01-03 02:49:29.40	257.70	29.89	-30.4	-31.4	22.6	0.00e+00	0	57	0	2216689664	31	4264
2026-01-03 02:49:30.41	257.45	29.76	-30.5	-31.5	22.5	0.00e+00	0	57	0	2222981120	31	4313
2026-01-03 02:49:31.42	257.20	29.63	-30.5	-31.5	22.5	0.00e+00	0	58	0	2228224000	31	4334
2026-01-03 02:49:32.42	256.95	29.50	-30.5	-31.5	22.5	0.00e+00	0	57	0	2233466880	31	4323
2026-01-03 02:49:33.43	256.70	29.37	-30.4	-31.4	22.6	0.00e+00	0	58	0	2239758336	31	4279
2026-01-03 02:49:34.44	256.46	29.23	-30.4	-31.4	22.6	0.00e+00	0	58	0	2245001216	31	4281
2026-01-03 02:49:35.45	256.21	29.10	-30.5	-31.5	22.5	0.00e+00	0	58	0	2251292672	31	4316
2026-01-03 02:49:36.46	255.97	28.97	-30.6	-31.5	22.4	0.00e+00	0	57	0	2256535552	31	4340
2026-01-03 02:49:37.47	255.73	28.84	-30.6	-31.6	22.4	0.00e+00	0	58	0	2262827008	31	4352
2026-01-03 02:49:38.48	255.49	28.71	-30.6	-31.6	22.4	0.00e+00	0	57	0	2268069888	31	4349
2026-01-03 02:49:39.49	255.26	28.58	-30.6	-31.6	22.4	0.00e+00	0	58	0	2273312768	31	4356
2026-01-03 02:49:40.50	255.03	28.45	-30.6	-31.6	22.4	0.00e+00	0	57	0	2279604224	31	4362
2026-01-03 02:49:41.51	254.79	28.32	-30.6	-31.6	22.4	0.00e+00	0	57	0	2284847104	31	4357
2026-01-03 02:49:42.52	254.56	28.19	-30.6	-31.6	22.4	0.00e+00	0	57	0	2291138560	31	4365
2026-01-03 02:49:43.53	254.34	28.06	-30.6	-31.6	22.4	0.00e+00	0	58	0	2296381440	31	4384
2026-01-03 02:49:44.54	254.11	27.93	-30.6	-31.6	22.4	0.00e+00	0	57	0	2301624320	31	4358
2026-01-03 02:49:45.55	253.89	27.80	-30.5	-31.5	22.4	0.00e+00	0	57	0	2307915776	31	4329
2026-01-03 02:49:46.57	253.66	27.67	-30.6	-31.5	22.4	0.00e+00	0	58	0	2313158656	31	4336
2026-01-03 02:49:47.58	253.44	27.54	-30.6	-31.6	22.4	0.00e+00	0	57	0	2319450112	31	4350
2026-01-03 02:49:48.58	253.22	27.41	-30.7	-31.7	22.3	0.00e+00	0	58	0	2324692992	31	4419
2026-01-03 02:49:49.59	253.01	27.28	-31.0	-32.0	22.2	0.00e+00	0	57	0	2329935872	32	4296
2026-01-03 02:49:50.60	252.79	27.15	-31.0	-32.0	22.2	0.00e+00	0	58	0	2336227328	32	4318
2026-01-03 02:49:51.61	252.58	27.02	-31.0	-32.0	22.2	0.00e+00	0	58	0	2341470208	32	4319
2026-01-03 02:49:52.62	252.37	26.89	-30.9	-31.9	22.2	0.00e+00	0	58	0	2347761664	32	4283
2026-01-03 02:49:53.63	252.16	26.76	-30.9	-31.9	22.2	0.00e+00	0	58	0	2353004544	32	4291
2026-01-03 02:49:54.65	251.95	26.63	-30.9	-31.9	22.2	0.00e+00	0	57	0	2359296000	32	4289
2026-01-03 02:49:55.65	251.74	26.50	-31.0	-32.0	22.2	0.00e+00	0	58	0	2364538880	32	4314
2026-01-03 02:49:56.67	251.53	26.37	-31.0	-32.0	22.1	0.00e+00	0	57	0	2370830336	32	4336
2026-01-03 02:49:57.68	251.33	26.24	-31.1	-32.1	22.0	0.00e+00	0	58	0	2376073216	32	4364
2026-01-03 02:49:58.69	251.13	26.12	-31.1	-32.1	22.0	0.00e+00	0	58	0	2381316096	32	4389
2026-01-03 02:49:59.70	250.93	25.99	-31.2	-32.2	22.0	0.00e+00	0	57	0	2387607552	32	4413
2026-01-03 02:50:00.71	250.73	25.86	-31.2	-32.2	21.9	0.00e+00	0	58	0	2392850432	33	4191
2026-01-03 02:50:01.72	250.53	25.73	-31.3	-32.3	21.9	0.00e+00	0	57	0	2399141888	33	4217
2026-01-03 02:50:02.73	250.34	25.61	-31.4	-32.4	21.8	0.00e+00	0	57	0	2404384768	33	4256
2026-01-03 02:50:03.74	250.15	25.48	-31.4	-32.4	21.8	0.00e+00	0	58	0	2409627648	33	4270
2026-01-03 02:50:04.75	249.95	25.35	-31.4	-32.4	21.7	0.00e+00	0	57	0	2415919104	33	4285
2026-01-03 02:50:05.76	249.76	25.23	-31.4	-32.4	21.7	0.00e+00	0	58	0	2421161984	33	4277
2026-01-03 02:50:06.77	249.57	25.10	-31.4	-32.4	21.7	0.00e+00	0	58	0	2427453440	33	4277
2026-01-03 02:50:07.77	249.39	24.98	-31.4	-32.4	21.7	0.00e+00	0	57	0	2432696320	33	4277
2026-01-03 02:50:08.78	249.20	24.85	-31.4	-32.4	21.8	0.00e+00	0	58	0	2437939200	33	4265
2026-01-03 02:50:09.79	249.02	24.72	-31.4	-32.4	21.7	0.00e+00	0	58	0	2444230656	33	4262
2026-01-03 02:50:10.81	248.83	24.60	-31.4	-32.4	21.7	0.00e+00	0	58	0	2449473536	33	4287
2026-01-03 02:50:11.82	248.65	24.47	-31.5	-32.5	21.7	0.00e+00	0	58	0	2455764992	33	4309
2026-01-03 02:50:12.83	248.47	24.35	-31.5	-32.5	21.6	0.00e+00	0	58	0	2461007872	33	4308
2026-01-03 02:50:13.84	248.29	24.23	-31.5	-32.5	21.7	0.00e+00	0	58	0	2467299328	33	4314
2026-01-03 02:50:14.85	248.12	24.10	-31.4	-32.5	21.7	0.00e+00	0	58	0	2472542208	33	4304
2026-01-03 02:50:15.86	247.94	23.98	-31.4	-32.4	21.7	0.00e+00	0	58	0	2478833664	33	4276
2026-01-03 02:50:16.87	247.77	23.85	-31.4	-32.4	21.7	0.00e+00	0	57	0	2484076544	33	4260
2026-01-03 02:50:17.88	247.59	23.73	-31.3	-32.4	21.8	0.00e+00	0	58	0	2489319424	33	4243
2026-01-03 02:50:18.89	247.42	23.61	-31.3	-32.3	21.8	0.00e+00	0	58	0	2495610880	33	4227
2026-01-03 02:50:19.90	247.25	23.49	-31.3	-32.3	21.8	0.00e+00	0	57	0	2500853760	33	4218
2026-01-03 02:50:20.91	247.08	23.36	-31.3	-32.3	21.8	0.00e+00	0	58	0	2507145216	33	4205
2026-01-03 02:50:21.92	246.91	23.24	-31.3	-32.3	21.8	0.00e+00	0	57	0	2512388096	33	4204
2026-01-03 02:50:22.93	246.75	23.12	-31.3	-32.3	21.8	0.00e+00	0	58	0	2517630976	33	4221
2026-01-03 02:50:23.94	246.58	23.00	-31.3	-32.3	21.8	0.00e+00	0	58	0	2523922432	33	4214
2026-01-03 02:50:24.95	246.42	22.88	-31.3	-32.3	21.8	0.00e+00	0	57	0	2529165312	33	4242
2026-01-03 02:50:25.96	246.26	22.76	-31.4	-32.4	21.7	0.00e+00	0	58	0	2535456768	33	4263
2026-01-03 02:50:26.97	246.09	22.64	-31.4	-32.4	21.7	0.00e+00	0	58	0	2540699648	33	4291
2026-01-03 02:50:27.98	245.93	22.52	-31.5	-32.5	21.6	0.00e+00	0	57	0	2545942528	33	4337
2026-01-03 02:50:28.99	245.78	22.40	-31.6	-32.6	21.5	0.00e+00	0	57	0	2552233984	33	4386
2026-01-03 02:50:30.00	245.62	22.28	-31.7	-32.7	21.4	0.00e+00	0	58	0	2557476864	33	4423
2026-01-03 02:50:31.01	245.46	22.16	-31.7	-32.8	21.4	0.00e+00	0	58	0	2563768320	34	4213
2026-01-03 02:50:32.02	245.31	22.04	-31.8	-32.8	21.3	0.00e+00	0	58	0	2569011200	34	4235
2026-01-03 02:50:33.03	245.15	21.92	-31.8	-32.9	21.3	0.00e+00	0	58	0	2575302656	34	4249
2026-01-03 02:50:34.04	245.00	21.81	-31.8	-32.8	21.3	0.00e+00	0	58	0	2580545536	34	4240
2026-01-03 02:50:35.05	244.85	21.69	-31.7	-32.8	21.3	0.00e+00	0	58	0	2585788416	34	4208
2026-01-03 02:50:36.06	244.70	21.57	-31.7	-32.7	21.4	0.00e+00	0	58	0	2592079872	34	4193
2026-01-03 02:50:37.07	244.55	21.45	-31.6	-32.7	21.5	0.00e+00	0	58	0	2597322752	34	4152
2026-01-03 02:50:38.08	244.40	21.34	-31.6	-32.6	21.5	0.00e+00	0	57	0	2603614208	34	4142
2026-01-03 02:50:39.08	244.26	21.22	-31.6	-32.6	21.5	0.00e+00	0	58	0	2608857088	34	4127
2026-01-03 02:50:40.09	244.11	21.11	-31.6	-32.7	21.5	0.00e+00	0	58	0	2614099968	34	4148
2026-01-03 02:50:41.11	243.96	20.99	-31.6	-32.7	21.4	0.00e+00	0	58	0	2620391424	34	4157
2026-01-03 02:50:42.12	243.82	20.87	-31.6	-32.7	21.4	0.00e+00	0	58	0	2625634304	34	4153
2026-01-03 02:50:43.13	243.68	20.76	-31.7	-32.8	21.4	0.00e+00	0	57	0	2631925760	34	4199
2026-01-03 02:50:44.14	243.54	20.64	-31.7	-32.8	21.3	0.00e+00	0	58	0	2637168640	34	4212
2026-01-03 02:50:45.15	243.40	20.53	-31.7	-32.8	21.3	0.00e+00	0	58	0	2642411520	34	4208
2026-01-03 02:50:46.16	243.26	20.42	-31.7	-32.8	21.3	0.00e+00	0	58	0	2648702976	34	4210
2026-01-03 02:50:47.17	243.12	20.30	-31.8	-32.9	21.2	0.00e+00	0	58	0	2653945856	34	4252
2026-01-03 02:50:48.18	242.98	20.19	-31.8	-32.9	21.2	0.00e+00	0	58	0	2660237312	34	4259
2026-01-03 02:50:49.19	242.84	20.08	-31.9	-32.9	21.2	0.00e+00	0	58	0	2665480192	34	4280
2026-01-03 02:50:50.20	242.71	19.96	-31.9	-32.9	21.2	0.00e+00	0	58	0	2671771648	34	4283
2026-01-03 02:50:51.20	242.58	19.85	-31.9	-33.0	21.1	0.00e+00	0	58	0	2677014528	34	4307
2026-01-03 02:50:52.21	242.44	19.74	-32.0	-33.0	21.1	0.00e+00	0	58	0	2683305984	34	4332
2026-01-03 02:50:53.22	242.31	19.63	-32.0	-33.0	21.1	0.00e+00	0	58	0	2688548864	34	4323
2026-01-03 02:50:54.23	242.18	19.52	-32.0	-33.0	21.1	0.00e+00	0	58	0	2693791744	34	4335
2026-01-03 02:50:55.24	242.05	19.41	-32.0	-33.1	21.0	0.00e+00	0	57	0	2700083200	34	4350
2026-01-03 02:50:56.25	241.92	19.30	-32.0	-33.1	21.0	0.00e+00	0	58	0	2705326080	34	4364
2026-01-03 02:50:57.26	241.79	19.18	-32.1	-33.1	21.0	0.00e+00	0	58	0	2711617536	34	4377
2026-01-03 02:50:58.27	241.66	19.07	-32.1	-33.1	21.0	0.00e+00	0	58	0	2716860416	34	4390
2026-01-03 02:50:59.28	241.54	18.97	-32.1	-33.2	21.0	0.00e+00	0	58	0	2722103296	34	4403
2026-01-03 02:51:00.29	241.41	18.86	-32.1	-33.2	20.9	0.00e+00	0	58	0	2728394752	34	4421
2026-01-03 02:51:01.30	241.29	18.75	-32.1	-33.2	20.9	0.00e+00	0	58	0	2733637632	34	4423
2026-01-03 02:51:02.31	241.16	18.64	-32.2	-33.2	20.9	0.00e+00	0	58	0	2739929088	34	4433
2026-01-03 02:51:03.31	241.04	18.53	-32.2	-33.3	20.8	0.00e+00	0	58	0	2745171968	34	4464
2026-01-03 02:51:04.33	240.92	18.42	-32.2	-33.3	20.8	0.00e+00	0	58	0	2750414848	35	4226
2026-01-03 02:51:05.34	240.80	18.32	-32.3	-33.4	20.7	0.00e+00	0	57	0	2756706304	35	4245
2026-01-03 02:51:06.35	240.68	18.21	-32.3	-33.4	20.7	0.00e+00	0	58	0	2761949184	35	4252
2026-01-03 02:51:07.35	240.56	18.10	-32.3	-33.4	20.6	0.00e+00	0	57	0	2768240640	35	4277
2026-01-03 02:51:08.36	240.44	18.00	-32.3	-33.4	20.7	0.00e+00	0	58	0	2773483520	35	4274
2026-01-03 02:51:09.37	240.32	17.89	-32.4	-33.5	20.6	0.00e+00	0	58	0	2779774976	35	4309
2026-01-03 02:51:10.38	240.20	17.78	-32.4	-33.5	20.5	0.00e+00	0	58	0	2785017856	35	4321
2026-01-03 02:51:11.39	240.09	17.68	-32.4	-33.6	20.5	0.00e+00	0	58	0	2790260736	35	4341
2026-01-03 02:51:12.40	239.97	17.57	-32.5	-33.6	20.5	0.00e+00	0	58	0	2796552192	35	4383
2026-01-03 02:51:13.41	239.86	17.47	-32.6	-33.7	20.4	0.00e+00	0	58	0	2801795072	35	4406
2026-01-03 02:51:14.43	239.74	17.36	-32.6	-33.7	20.4	0.00e+00	0	58	0	2808086528	35	4414
2026-01-03 02:51:15.44	239.63	17.26	-32.6	-33.7	20.4	0.00e+00	0	58	0	2813329408	35	4418
2026-01-03 02:51:16.44	239.52	17.15	-32.6	-33.7	20.3	0.00e+00	0	57	0	2818572288	35	4428
2026-01-03 02:51:17.46	239.41	17.05	-32.6	-33.7	20.3	0.00e+00	0	57	0	2824863744	35	4441
2026-01-03 02:51:18.47	239.30	16.95	-32.6	-33.7	20.3	0.00e+00	0	58	0	2830106624	35	4433
2026-01-03 02:51:19.48	239.19	16.84	-32.6	-33.7	20.3	0.00e+00	0	58	0	2836398080	35	4441
2026-01-03 02:51:20.49	239.08	16.74	-32.6	-33.7	20.3	0.00e+00	0	58	0	2841640960	35	4424
2026-01-03 02:51:21.50	238.97	16.64	-32.6	-33.7	20.3	0.00e+00	0	58	0	2846883840	35	4432
2026-01-03 02:51:22.51	238.86	16.54	-32.7	-33.8	20.3	0.00e+00	0	58	0	2853175296	35	4445
2026-01-03 02:51:23.52	238.76	16.44	-32.7	-33.8	20.3	0.00e+00	0	58	0	2858418176	35	4448
2026-01-03 02:51:24.53	238.65	16.33	-32.7	-33.8	20.3	0.00e+00	0	58	0	2864709632	35	4451
2026-01-03 02:51:25.54	238.54	16.23	-32.7	-33.8	20.2	0.00e+00	0	58	0	2869952512	35	4463
2026-01-03 02:51:26.55	238.44	16.13	-32.7	-33.8	20.2	0.00e+00	0	58	0	2876243968	35	4472
2026-01-03 02:51:27.56	238.34	16.03	-33.3	-34.4	20.3	0.00e+00	0	58	0	2881486848	37	4290
2026-01-03 02:51:28.57	238.23	15.93	-33.4	-34.5	20.3	0.00e+00	0	58	0	2887778304	37	4328
2026-01-03 02:51:29.58	238.13	15.83	-33.4	-34.6	20.2	0.00e+00	0	58	0	2893021184	37	4345
2026-01-03 02:51:30.59	238.03	15.73	-33.5	-34.6	20.1	0.00e+00	0	58	0	2898264064	37	4388
2026-01-03 02:51:31.60	237.93	15.63	-33.6	-34.7	20.1	0.00e+00	0	58	0	2904555520	37	4412
2026-01-03 02:51:32.61	237.83	15.54	-33.6	-34.8	20.0	0.00e+00	0	58	0	2909798400	37	4444
2026-01-03 02:51:33.62	237.73	15.44	-33.7	-34.8	20.0	0.00e+00	0	57	0	2916089856	37	4477
2026-01-03 02:51:34.63	237.63	15.34	-33.7	-34.9	19.9	0.00e+00	0	58	0	2921332736	38	4274
2026-01-03 02:51:35.64	237.53	15.24	-33.8	-34.9	19.8	0.00e+00	0	58	0	2926575616	38	4284
2026-01-03 02:51:36.65	237.43	15.14	-33.8	-35.0	19.8	0.00e+00	0	58	0	2932867072	38	4303
2026-01-03 02:51:37.66	237.34	15.05	-33.9	-35.0	19.7	0.00e+00	0	58	0	2938109952	38	4328
2026-01-03 02:51:38.67	237.24	14.95	-33.9	-35.0	19.7	0.00e+00	0	58	0	2944401408	38	4340
2026-01-03 02:51:39.67	237.14	14.85	-33.9	-35.1	19.7	0.00e+00	0	57	0	2949644288	38	4354
2026-01-03 02:51:40.69	237.05	14.76	-33.9	-35.1	19.7	0.00e+00	0	58	0	2954887168	38	4364
2026-01-03 02:51:41.70	236.95	14.66	-33.9	-35.1	19.7	0.00e+00	0	58	0	2961178624	38	4356
2026-01-03 02:51:42.71	236.86	14.56	-33.9	-35.0	19.7	0.00e+00	0	58	0	2966421504	38	4338
2026-01-03 02:51:43.72	236.77	14.47	-33.9	-35.1	19.6	0.00e+00	0	58	0	2972712960	38	4375
2026-01-03 02:51:44.73	236.67	14.37	-33.9	-35.1	19.6	0.00e+00	0	58	0	2977955840	38	4366
2026-01-03 02:51:45.74	236.58	14.28	-34.0	-35.1	19.6	0.00e+00	0	58	0	2984247296	38	4374
2026-01-03 02:51:46.75	236.49	14.18	-34.0	-35.1	19.6	0.00e+00	0	58	0	2989490176	38	4381
2026-01-03 02:51:47.76	236.40	14.09	-34.0	-35.1	19.6	0.00e+00	0	58	0	2995781632	38	4389
2026-01-03 02:51:48.77	236.31	14.00	-34.0	-35.1	19.6	0.00e+00	0	58	0	3001024512	38	4389
2026-01-03 02:51:49.78	236.22	13.90	-34.0	-35.2	19.6	0.00e+00	0	57	0	3006267392	38	4401
2026-01-03 02:51:50.79	236.13	13.81	-34.0	-35.2	19.5	0.00e+00	0	58	0	3012558848	38	4421
2026-01-03 02:51:51.80	236.04	13.72	-34.0	-35.2	19.6	0.00e+00	0	58	0	3017801728	38	4416
2026-01-03 02:51:52.81	235.95	13.62	-34.1	-35.2	19.5	0.00e+00	0	58	0	3024093184	38	4432
2026-01-03 02:51:53.82	235.87	13.53	-34.1	-35.2	19.5	0.00e+00	0	58	0	3029336064	38	4441
2026-01-03 02:51:54.83	235.78	13.44	-34.1	-35.3	19.5	0.00e+00	0	58	0	3034578944	38	4444
2026-01-03 02:51:55.84	235.69	13.35	-34.1	-35.3	19.4	0.00e+00	0	57	0	3040870400	38	4472
2026-01-03 02:51:56.85	235.61	13.25	-34.2	-35.4	19.3	0.00e+00	0	58	0	3046113280	38	4509
2026-01-03 02:51:57.86	235.52	13.16	-34.2	-35.4	19.3	0.00e+00	0	58	0	3052404736	39	4268
2026-01-03 02:51:58.88	235.44	13.07	-34.2	-35.4	19.3	0.00e+00	0	58	0	3057647616	39	4274
2026-01-03 02:51:59.88	235.35	12.98	-34.2	-35.4	19.3	0.00e+00	0	58	0	3062890496	39	4290
2026-01-03 02:52:00.89	235.27	12.89	-34.3	-35.5	19.2	0.00e+00	0	58	0	3069181952	39	4310
2026-01-03 02:52:01.91	235.19	12.80	-34.3	-35.6	19.1	0.00e+00	0	58	0	3074424832	39	4342
2026-01-03 02:52:02.92	235.10	12.71	-34.4	-35.6	19.1	0.00e+00	0	57	0	3080716288	39	4375
2026-01-03 02:52:03.93	235.02	12.62	-34.4	-35.7	19.1	0.00e+00	0	58	0	3085959168	39	4401
2026-01-03 02:52:04.94	234.94	12.53	-34.5	-35.7	19.0	0.00e+00	0	58	0	3092250624	39	4425
2026-01-03 02:52:05.95	234.86	12.44	-34.5	-35.8	18.9	0.00e+00	0	58	0	3097493504	39	4447
2026-01-03 02:52:06.96	234.78	12.35	-34.6	-35.8	18.9	0.00e+00	0	58	0	3103784960	39	4471
2026-01-03 02:52:07.97	234.70	12.26	-34.6	-35.8	18.9	0.00e+00	0	57	0	3109027840	39	4483
2026-01-03 02:52:08.98	234.62	12.17	-34.6	-35.9	18.8	0.00e+00	0	57	0	3114270720	39	4502
2026-01-03 02:52:09.99	234.54	12.09	-34.6	-35.9	18.8	0.00e+00	0	58	0	3120562176	39	4505
2026-01-03 02:52:11.00	234.46	12.00	-34.7	-35.9	18.7	0.00e+00	0	58	0	3125805056	39	4538
2026-01-03 02:52:12.01	234.38	11.91	-34.7	-35.9	18.7	0.00e+00	0	58	0	3132096512	39	4530
2026-01-03 02:52:13.02	234.31	11.82	-34.7	-36.0	18.7	0.00e+00	0	58	0	3137339392	39	4547
2026-01-03 02:52:14.03	234.23	11.74	-34.7	-35.9	18.7	0.00e+00	0	57	0	3142582272	39	4540
2026-01-03 02:52:15.04	234.15	11.65	-34.6	-35.9	18.7	0.00e+00	0	57	0	3148873728	40	4265
2026-01-03 02:52:16.05	234.08	11.56	-34.6	-35.9	18.7	0.00e+00	0	58	0	3154116608	40	4273
2026-01-03 02:52:17.05	234.00	11.48	-34.6	-35.9	18.7	0.00e+00	0	58	0	3160408064	40	4259
2026-01-03 02:52:18.06	233.93	11.39	-34.6	-35.9	18.7	0.00e+00	0	57	0	3165650944	40	4251
2026-01-03 02:52:19.08	233.85	11.31	-34.6	-35.8	18.7	0.00e+00	0	57	0	3170893824	40	4239
2026-01-03 02:52:20.09	233.78	11.22	-34.6	-35.8	18.7	0.00e+00	0	57	0	3177185280	40	4221
2026-01-03 02:52:21.10	233.70	11.13	-34.6	-35.8	18.7	0.00e+00	0	58	0	3182428160	40	4216
2026-01-03 02:52:22.11	233.63	11.05	-34.6	-35.8	18.7	0.00e+00	0	58	0	3188719616	40	4221
2026-01-03 02:52:23.12	233.56	10.96	-34.6	-35.8	18.7	0.00e+00	0	58	0	3193962496	40	4236
2026-01-03 02:52:24.13	233.48	10.88	-34.6	-35.8	18.7	0.00e+00	0	58	0	3200253952	40	4240
