passes_logs/2026/01/03/R2.0S_Moscow/R2.0S_Moscow__20260103_081118_SUOMI_NPP_rec.log

#Pass ID: 20260103_081118_SUOMI NPP
#Satellite: SUOMI NPP
#Configuration: NPP
#almurnet v.1.7.20251203
#Start time: 2026-01-03 08:11:20

#Version: 2.2.20231116
#Station: R2.0S_Moscow
#Location: 37.707566 lon 55.798166 lat
#TLE: 1 37849U 11061A   26001.07732418  .00000182  00000+0  10735-3 0  9990
#TLE: 2 37849  98.7795 303.2470 0002580  87.2016 272.9455 14.19520779734739

#Time	Az	El	Level	Level2	SNR	BER	BlckErr	Temp	State	Recorded	gain1	gain2
2026-01-03 08:11:20.07	107.49	2.09	-33.1	-47.4	3.9	1.50e+00	0	47	0	0	33	23986
2026-01-03 08:11:21.07	107.42	2.15	-32.2	-49.2	4.2	1.50e+00	0	47	104	0	38	22099
2026-01-03 08:11:22.08	107.35	2.20	-29.0	-47.6	4.1	1.50e+00	0	47	0	0	37	19545
2026-01-03 08:11:23.09	107.28	2.26	-33.4	-47.2	4.1	1.50e+00	0	47	104	0	37	18621
2026-01-03 08:11:24.10	107.20	2.31	-23.3	-37.7	4.1	1.50e+00	0	47	104	0	18	18623
2026-01-03 08:11:25.11	107.13	2.37	-34.1	-48.9	4.2	1.50e+00	0	48	104	0	37	22563
2026-01-03 08:11:26.12	107.05	2.42	-34.8	-48.2	4.0	1.50e+00	0	48	0	0	36	22044
2026-01-03 08:11:27.14	106.98	2.48	-32.1	-46.8	3.9	1.50e+00	0	48	104	0	36	18790
2026-01-03 08:11:28.15	106.90	2.54	-24.9	-39.4	3.6	1.50e+00	0	48	104	0	29	12055
2026-01-03 08:11:29.16	106.83	2.59	-30.8	-47.8	3.9	1.50e+00	0	48	104	0	23	44435
2026-01-03 08:11:30.17	106.75	2.65	-33.1	-48.7	4.2	1.50e+00	0	48	0	0	38	20970
2026-01-03 08:11:31.18	106.68	2.71	-31.4	-45.5	3.9	1.50e+00	0	48	104	0	33	19331
2026-01-03 08:11:32.19	106.60	2.76	-32.5	-48.8	4.2	1.50e+00	0	48	0	0	39	20047
2026-01-03 08:11:33.20	106.52	2.82	-33.8	-47.6	4.2	1.50e+00	0	48	104	0	36	20683
2026-01-03 08:11:34.22	106.45	2.87	-32.2	-48.2	4.1	1.50e+00	0	48	0	0	39	18675
2026-01-03 08:11:35.23	106.37	2.93	-34.0	-48.7	4.1	1.50e+00	0	48	104	0	37	22143
2026-01-03 08:11:36.24	106.29	2.99	-31.9	-47.9	4.0	1.50e+00	0	48	104	0	36	21398
2026-01-03 08:11:37.25	106.21	3.04	-32.4	-47.5	4.3	1.50e+00	0	49	104	0	36	20466
2026-01-03 08:11:38.26	106.14	3.10	-33.6	-47.9	4.2	1.50e+00	0	48	104	0	34	23989
2026-01-03 08:11:39.27	106.06	3.16	-25.1	-43.9	4.3	1.50e+00	0	49	104	0	35	14252
2026-01-03 08:11:40.28	105.98	3.21	-27.2	-44.5	4.6	1.50e+00	0	49	104	0	28	22913
2026-01-03 08:11:41.29	105.90	3.27	-32.0	-45.1	3.5	1.50e+00	0	49	104	0	28	24547
2026-01-03 08:11:42.30	105.82	3.33	-27.6	-43.9	3.6	1.50e+00	0	49	104	0	25	25398
2026-01-03 08:11:43.31	105.74	3.39	-29.7	-48.6	4.0	1.50e+00	0	49	104	0	27	38843
2026-01-03 08:11:44.32	105.66	3.44	-34.0	-48.8	4.2	1.50e+00	0	49	104	0	37	22376
2026-01-03 08:11:45.34	105.58	3.50	-34.6	-49.6	4.2	1.50e+00	0	49	104	0	37	24656
2026-01-03 08:11:46.35	105.50	3.56	-34.6	-49.3	4.1	1.50e+00	0	49	104	0	38	22450
2026-01-03 08:11:47.36	105.42	3.61	-32.6	-47.3	4.2	1.50e+00	0	49	104	0	34	22265
2026-01-03 08:11:48.37	105.34	3.67	-34.0	-47.6	4.1	1.50e+00	0	49	0	0	34	23187
2026-01-03 08:11:49.38	105.26	3.73	-34.0	-48.3	4.2	1.50e+00	0	49	0	0	36	22304
2026-01-03 08:11:50.39	105.17	3.79	-32.5	-48.0	4.2	1.50e+00	0	49	104	0	37	20465
2026-01-03 08:11:51.40	105.09	3.84	-34.0	-49.5	4.2	1.50e+00	0	50	104	0	39	21628
2026-01-03 08:11:52.41	105.01	3.90	-32.9	-48.4	4.2	1.50e+00	0	50	104	0	36	22695
2026-01-03 08:11:53.42	104.93	3.96	-31.7	-48.1	4.1	1.50e+00	0	49	104	0	36	21906
2026-01-03 08:11:54.44	104.84	4.02	-30.6	-47.7	4.1	1.50e+00	0	49	0	0	35	22108
2026-01-03 08:11:55.45	104.76	4.08	-30.3	-45.4	3.9	1.50e+00	0	50	104	0	35	16997
2026-01-03 08:11:56.46	104.68	4.13	-34.6	-49.6	4.2	1.50e+00	0	50	104	0	39	21793
2026-01-03 08:11:57.47	104.59	4.19	-33.2	-48.9	4.3	1.50e+00	0	50	104	0	37	22641
2026-01-03 08:11:58.48	104.51	4.25	-26.8	-41.7	3.8	1.50e+00	0	50	104	0	32	13221
2026-01-03 08:11:59.49	104.42	4.31	-33.6	-46.7	4.2	1.50e+00	0	50	0	0	34	20831
2026-01-03 08:12:00.49	104.34	4.36	-31.2	-46.7	3.9	1.50e+00	0	50	104	0	33	22060
2026-01-03 08:12:01.50	104.25	4.42	-31.9	-49.1	4.2	1.50e+00	0	50	104	0	39	20679
2026-01-03 08:12:02.51	104.17	4.48	-32.4	-47.4	4.2	1.50e+00	0	50	104	0	34	22746
2026-01-03 08:12:03.52	104.08	4.54	-32.8	-48.3	4.3	1.50e+00	0	50	104	0	37	21132
2026-01-03 08:12:04.53	103.99	4.60	-33.2	-49.5	4.3	1.50e+00	0	50	104	0	38	22788
2026-01-03 08:12:05.54	103.91	4.66	-33.7	-48.9	4.3	1.50e+00	0	50	104	0	37	22710
2026-01-03 08:12:06.55	103.82	4.71	-33.0	-48.4	4.2	1.50e+00	0	51	104	0	36	22551
2026-01-03 08:12:07.56	103.73	4.77	-27.0	-41.1	4.1	1.50e+00	0	50	104	0	34	10989
2026-01-03 08:12:08.58	103.64	4.83	-33.4	-48.4	4.2	1.50e+00	0	50	104	0	38	20265
2026-01-03 08:12:09.59	103.55	4.89	-31.2	-44.7	3.9	1.50e+00	0	50	104	0	32	18597
2026-01-03 08:12:10.60	103.47	4.95	-34.0	-50.2	4.2	1.50e+00	0	50	104	0	39	23353
2026-01-03 08:12:11.61	103.38	5.01	-32.7	-48.6	4.1	1.50e+00	0	51	104	0	37	21852
2026-01-03 08:12:12.62	103.29	5.07	-34.9	-49.4	4.2	1.50e+00	0	50	104	0	37	23860
2026-01-03 08:12:13.63	103.20	5.13	-33.1	-48.7	4.3	1.50e+00	0	51	104	0	36	23412
2026-01-03 08:12:14.64	103.11	5.19	-32.6	-49.0	4.1	1.50e+00	0	51	104	0	37	23018
2026-01-03 08:12:15.65	103.02	5.24	-34.4	-49.3	4.1	1.50e+00	0	51	104	0	38	22280
2026-01-03 08:12:16.66	102.92	5.30	-32.6	-48.3	4.3	1.50e+00	0	51	104	0	35	23711
2026-01-03 08:12:17.67	102.83	5.36	-29.5	-43.1	3.8	1.50e+00	0	51	0	0	31	16362
2026-01-03 08:12:18.69	102.74	5.42	-32.3	-45.6	4.0	1.50e+00	0	51	104	0	33	19614
2026-01-03 08:12:19.70	102.65	5.48	-33.0	-48.7	4.0	1.50e+00	0	51	104	0	35	24796
2026-01-03 08:12:20.71	102.56	5.54	-33.9	-44.4	3.7	1.50e+00	0	51	104	0	26	25373
2026-01-03 08:12:21.72	102.46	5.60	-33.3	-46.0	4.4	1.51e+00	0	51	104	0	33	20510
2026-01-03 08:12:22.73	102.37	5.66	-33.0	-48.2	4.4	1.50e+00	0	51	104	0	33	26261
2026-01-03 08:12:23.74	102.28	5.72	-30.4	-47.6	4.0	1.50e+00	0	51	104	0	32	25897
2026-01-03 08:12:24.75	102.18	5.78	-27.4	-39.2	4.0	1.50e+00	0	51	104	0	32	9888
2026-01-03 08:12:25.76	102.09	5.84	-27.5	-40.9	4.0	1.50e+00	0	51	104	0	31	12800
2026-01-03 08:12:26.77	101.99	5.90	-32.7	-45.9	3.7	1.50e+00	0	51	104	0	31	22646
2026-01-03 08:12:27.78	101.90	5.96	-25.4	-40.3	4.4	1.50e+00	0	51	104	0	37	8450
2026-01-03 08:12:28.80	101.80	6.02	-26.7	-40.7	3.6	1.50e+00	0	51	104	0	31	12513
2026-01-03 08:12:29.81	101.70	6.08	-34.9	-49.0	4.0	1.50e+00	0	51	104	0	33	28903
2026-01-03 08:12:30.82	101.61	6.14	-31.1	-47.1	4.1	1.50e+00	0	51	104	0	28	31043
2026-01-03 08:12:31.83	101.51	6.20	-18.9	-36.8	5.1	1.50e+00	0	51	104	0	17	17868
2026-01-03 08:12:32.84	101.41	6.26	-23.0	-37.5	3.8	1.50e+00	0	51	104	0	17	19361
2026-01-03 08:12:33.85	101.32	6.32	-33.4	-49.9	4.2	1.50e+00	0	51	0	0	40	21372
2026-01-03 08:12:34.86	101.22	6.38	-31.5	-47.9	3.6	1.50e+00	0	51	104	0	32	26961
2026-01-03 08:12:35.87	101.12	6.44	-34.3	-49.2	4.4	1.50e+00	0	52	104	0	39	20932
2026-01-03 08:12:36.88	101.02	6.50	-33.6	-49.1	4.3	1.50e+00	0	52	104	0	37	23149
2026-01-03 08:12:37.90	100.92	6.56	-34.7	-49.0	4.2	1.50e+00	0	52	104	0	37	22951
2026-01-03 08:12:38.91	100.82	6.62	-33.7	-48.9	4.2	1.50e+00	0	52	104	0	37	22565
2026-01-03 08:12:39.92	100.72	6.68	-34.4	-49.4	4.2	1.50e+00	0	52	104	0	38	22613
2026-01-03 08:12:40.93	100.62	6.75	-32.2	-44.0	4.4	1.50e+00	0	52	104	0	24	27273
2026-01-03 08:12:41.94	100.52	6.81	-27.1	-40.5	3.7	1.50e+00	0	52	104	0	17	27259
2026-01-03 08:12:42.95	100.42	6.87	-23.4	-38.1	3.8	1.50e+00	0	52	104	0	27	11591
2026-01-03 08:12:43.96	100.31	6.93	-32.1	-43.9	3.8	1.50e+00	0	52	104	0	29	20101
2026-01-03 08:12:44.97	100.21	6.99	-34.1	-49.0	4.3	1.50e+00	0	52	104	0	38	21661
2026-01-03 08:12:45.98	100.11	7.05	-34.9	-48.5	3.8	1.50e+00	0	52	104	0	37	21725
2026-01-03 08:12:46.99	100.01	7.11	-30.5	-47.8	4.0	1.50e+00	0	52	104	0	35	22300
2026-01-03 08:12:48.01	99.90	7.17	-34.7	-47.1	4.1	1.51e+00	0	52	104	0	36	19521
2026-01-03 08:12:49.01	99.80	7.23	-33.7	-48.2	4.2	1.50e+00	0	52	104	0	33	26338
2026-01-03 08:12:50.03	99.69	7.29	-33.0	-48.7	4.1	1.50e+00	0	52	104	0	31	31111
2026-01-03 08:12:51.04	99.59	7.36	-29.9	-46.0	4.0	1.51e+00	0	52	104	0	29	25611
2026-01-03 08:12:52.05	99.48	7.42	-33.2	-49.3	4.3	1.50e+00	0	52	104	0	38	22292
2026-01-03 08:12:53.06	99.37	7.48	-33.3	-48.8	4.2	1.50e+00	0	52	104	0	37	22350
2026-01-03 08:12:54.07	99.27	7.54	-34.6	-49.2	4.1	1.50e+00	0	52	104	0	36	24754
2026-01-03 08:12:55.08	99.16	7.60	-32.2	-45.6	4.3	1.50e+00	0	52	104	0	31	21931
2026-01-03 08:12:56.09	99.05	7.66	-33.8	-47.2	4.2	1.50e+00	0	52	104	0	38	17490
2026-01-03 08:12:57.10	98.95	7.73	-34.3	-48.3	4.5	1.50e+00	0	53	104	0	37	21256
2026-01-03 08:12:58.12	98.84	7.79	-34.2	-48.1	4.3	1.50e+00	0	52	104	0	37	20554
2026-01-03 08:12:59.13	98.73	7.85	-34.0	-46.4	4.4	1.49e+00	0	53	104	0	34	20239
2026-01-03 08:13:00.14	98.62	7.91	-29.9	-45.9	4.2	1.49e+00	0	53	104	0	36	17065
2026-01-03 08:13:01.15	98.51	7.97	-32.1	-45.3	4.4	1.47e+00	0	52	104	0	33	18791
2026-01-03 08:13:02.16	98.40	8.03	-29.3	-43.8	4.3	1.45e+00	0	52	104	0	29	19957
2026-01-03 08:13:03.17	98.29	8.10	-39.9	-54.8	4.1	1.50e+00	0	52	104	0	47	25025
2026-01-03 08:13:04.18	98.18	8.16	-35.3	-46.3	4.5	1.50e+00	0	53	104	0	40	14181
2026-01-03 08:13:05.19	98.06	8.22	-35.5	-46.1	4.5	1.46e+00	0	53	104	0	36	17349
2026-01-03 08:13:06.20	97.95	8.28	-32.6	-46.9	4.4	1.43e+00	0	53	104	0	34	21482
2026-01-03 08:13:07.21	97.84	8.34	-36.9	-47.6	4.7	1.12e+00	0	53	0	0	43	13769
2026-01-03 08:13:08.22	97.73	8.41	-35.5	-48.4	4.6	1.01e+00	0	53	0	1048576	41	17080
2026-01-03 08:13:09.23	97.61	8.47	-34.8	-47.7	4.8	1.16e+00	0	53	104	2097152	40	16544
2026-01-03 08:13:10.24	97.50	8.53	-34.9	-46.9	4.7	1.41e+00	0	53	104	2097152	41	14216
2026-01-03 08:13:11.25	97.38	8.59	-35.3	-46.7	4.6	1.45e+00	0	53	104	2097152	41	13975
2026-01-03 08:13:12.26	97.27	8.66	-28.1	-44.4	4.6	1.45e+00	0	53	104	2097152	40	11389
2026-01-03 08:13:13.26	97.15	8.72	-36.0	-49.7	4.3	1.50e+00	0	53	104	2097152	42	18636
2026-01-03 08:13:14.27	97.04	8.78	-35.6	-49.9	4.2	1.49e+00	0	53	104	2097152	45	15986
2026-01-03 08:13:15.28	96.92	8.84	-37.4	-51.3	4.1	1.50e+00	0	53	104	2097152	44	19849
2026-01-03 08:13:16.29	96.80	8.91	-37.0	-50.6	4.1	1.50e+00	0	53	104	2097152	43	19496
2026-01-03 08:13:17.30	96.69	8.97	-38.3	-52.4	4.3	1.50e+00	0	53	104	2097152	45	21320
2026-01-03 08:13:18.31	96.57	9.03	-29.2	-45.7	3.9	1.50e+00	0	53	104	2097152	32	20988
2026-01-03 08:13:19.32	96.45	9.09	-39.5	-54.0	4.3	1.50e+00	0	53	104	2097152	47	22805
2026-01-03 08:13:20.33	96.33	9.16	-40.0	-52.4	4.3	1.50e+00	0	53	104	2097152	50	15955
2026-01-03 08:13:21.34	96.21	9.22	-29.4	-44.3	4.1	1.50e+00	0	53	104	2097152	31	18927
2026-01-03 08:13:22.35	96.09	9.28	-39.3	-53.0	3.9	1.50e+00	0	53	104	2097152	49	18236
2026-01-03 08:13:23.36	95.97	9.34	-36.0	-51.5	4.3	1.50e+00	0	53	104	2097152	46	18216
2026-01-03 08:13:24.37	95.85	9.41	-39.7	-53.1	4.1	1.50e+00	0	53	104	2097152	47	20724
2026-01-03 08:13:25.38	95.73	9.47	-41.6	-54.9	3.9	1.49e+00	0	53	104	2097152	53	17894
2026-01-03 08:13:26.39	95.60	9.53	-41.7	-52.5	4.4	1.48e+00	0	53	0	2097152	54	12888
2026-01-03 08:13:27.40	95.48	9.60	-42.0	-50.8	5.1	8.33e-01	0	53	0	3145728	54	10541
2026-01-03 08:13:28.41	95.36	9.66	-41.9	-51.4	5.0	6.75e-01	0	53	0	5242880	55	10772
2026-01-03 08:13:29.42	95.23	9.72	-42.4	-52.2	4.7	9.34e-01	0	54	0	7340032	55	11793
2026-01-03 08:13:30.43	95.11	9.78	-42.2	-51.7	5.0	8.04e-01	0	53	0	8388608	55	11131
2026-01-03 08:13:31.44	94.98	9.85	-42.3	-51.1	5.5	5.40e-01	0	53	0	10485760	55	10298
2026-01-03 08:13:32.45	94.86	9.91	-41.8	-51.1	5.4	5.57e-01	0	53	0	12582912	55	10325
2026-01-03 08:13:33.46	94.73	9.97	-42.0	-50.2	6.0	4.60e-01	0	54	0	14680064	55	9319
2026-01-03 08:13:34.47	94.61	10.04	-41.8	-49.7	6.3	2.57e-01	0	53	0	16777216	55	8833
2026-01-03 08:13:35.48	94.48	10.10	-41.6	-49.1	6.6	2.54e-01	0	54	0	17825792	55	8230
2026-01-03 08:13:36.49	94.35	10.16	-41.0	-47.1	8.5	1.29e-01	0	54	0	19922944	54	6924
2026-01-03 08:13:37.50	94.22	10.23	-40.3	-45.4	10.1	1.12e-02	0	54	0	22020096	52	6377
2026-01-03 08:13:38.51	94.09	10.29	-40.1	-45.1	10.4	4.14e-03	0	54	0	24117248	51	6499
2026-01-03 08:13:39.52	93.96	10.35	-40.2	-45.3	10.3	5.67e-03	0	54	0	26214400	51	6653
2026-01-03 08:13:40.53	93.83	10.42	-40.2	-45.1	10.5	4.31e-03	0	54	0	28311552	51	6568
2026-01-03 08:13:41.54	93.70	10.48	-40.2	-45.0	10.6	4.10e-03	0	54	0	29360128	51	6490
2026-01-03 08:13:42.54	93.57	10.54	-40.5	-45.7	9.9	5.96e-03	0	54	0	31457280	51	7033
2026-01-03 08:13:43.55	93.44	10.61	-40.6	-46.3	9.2	1.73e-02	0	54	0	33554432	52	7046
2026-01-03 08:13:44.56	93.31	10.67	-40.4	-45.7	9.8	1.63e-02	0	54	0	35651584	52	6634
2026-01-03 08:13:45.57	93.18	10.73	-40.5	-45.9	9.7	7.49e-03	0	54	0	37748736	52	6748
2026-01-03 08:13:46.58	93.04	10.80	-40.6	-46.0	9.7	1.35e-02	0	54	0	38797312	52	6806
2026-01-03 08:13:47.59	92.91	10.86	-40.9	-47.0	8.6	2.81e-02	0	54	0	40894464	52	7689
2026-01-03 08:13:48.60	92.77	10.92	-40.6	-46.1	9.5	3.09e-02	0	54	0	42991616	52	6952
2026-01-03 08:13:49.61	92.64	10.99	-39.9	-43.9	12.0	5.15e-03	0	54	0	45088768	51	5705
2026-01-03 08:13:50.62	92.50	11.05	-39.6	-43.4	12.6	8.31e-05	0	54	0	47185920	51	5345
2026-01-03 08:13:51.63	92.36	11.11	-40.0	-44.3	11.7	2.04e-04	0	54	0	48234496	51	5976
2026-01-03 08:13:52.64	92.23	11.18	-40.4	-45.1	10.9	8.45e-04	0	54	0	50331648	51	6506
2026-01-03 08:13:53.65	92.09	11.24	-40.4	-44.9	11.2	1.99e-03	0	54	0	52428800	51	6355
2026-01-03 08:13:54.66	91.95	11.30	-40.2	-44.4	11.8	7.80e-04	0	54	0	54525952	51	6030
2026-01-03 08:13:55.67	91.81	11.37	-40.1	-44.0	12.1	3.87e-04	0	54	0	56623104	51	5766
2026-01-03 08:13:56.68	91.67	11.43	-39.9	-43.5	12.8	6.79e-05	0	54	0	57671680	51	5411
2026-01-03 08:13:57.69	91.53	11.49	-40.2	-44.2	12.0	1.66e-04	0	54	0	59768832	51	5859
2026-01-03 08:13:58.70	91.39	11.56	-40.3	-44.4	11.7	5.97e-04	0	54	0	61865984	51	6056
2026-01-03 08:13:59.71	91.25	11.62	-39.9	-43.8	12.3	2.23e-04	0	54	0	63963136	51	5599
2026-01-03 08:14:00.72	91.11	11.68	-39.5	-43.0	12.9	4.11e-05	0	54	0	66060288	50	5446
2026-01-03 08:14:01.73	90.97	11.75	-39.5	-43.2	12.7	6.48e-05	0	54	0	67108864	50	5554
2026-01-03 08:14:02.74	90.82	11.81	-40.0	-44.4	11.1	2.41e-04	0	54	0	69206016	50	6392
2026-01-03 08:14:03.74	90.68	11.87	-40.5	-46.1	9.2	1.02e-02	0	54	0	71303168	51	7323
2026-01-03 08:14:04.75	90.53	11.94	-40.8	-48.2	6.8	7.79e-02	0	54	0	73400320	52	8855
2026-01-03 08:14:05.76	90.39	12.00	-41.0	-50.2	5.2	3.26e-01	0	54	0	75497472	52	11132
2026-01-03 08:14:06.77	90.24	12.06	-41.1	-52.4	4.2	1.24e+00	0	54	0	76546048	52	14244
2026-01-03 08:14:07.78	90.10	12.13	-41.1	-53.9	3.8	1.47e+00	0	54	104	76546048	52	16986
2026-01-03 08:14:08.79	89.95	12.19	-41.0	-54.5	3.8	1.49e+00	0	54	104	76546048	52	18242
2026-01-03 08:14:09.80	89.80	12.25	-41.0	-54.9	3.8	1.49e+00	0	55	104	76546048	52	19051
2026-01-03 08:14:10.81	89.65	12.32	-41.0	-55.2	3.8	1.49e+00	0	54	104	76546048	52	19729
2026-01-03 08:14:11.82	89.50	12.38	-41.0	-55.5	3.8	1.49e+00	0	54	104	76546048	52	20352
2026-01-03 08:14:12.83	89.35	12.44	-40.9	-55.4	3.8	1.49e+00	0	55	104	76546048	52	20176
2026-01-03 08:14:13.84	89.20	12.51	-40.7	-55.4	3.8	1.49e+00	0	54	104	76546048	52	20102
2026-01-03 08:14:14.85	89.05	12.57	-41.0	-55.4	3.8	1.49e+00	0	55	104	76546048	52	20294
2026-01-03 08:14:15.86	88.90	12.63	-41.4	-55.7	3.8	1.49e+00	0	54	104	76546048	53	19782
2026-01-03 08:14:16.87	88.75	12.70	-40.6	-55.3	3.8	1.49e+00	0	55	104	76546048	53	18850
2026-01-03 08:14:17.88	88.60	12.76	-40.6	-55.3	3.8	1.49e+00	0	54	104	76546048	53	18735
2026-01-03 08:14:18.89	88.44	12.82	-40.6	-55.2	3.8	1.49e+00	0	55	104	76546048	53	18640
2026-01-03 08:14:19.90	88.29	12.89	-40.6	-55.2	3.8	1.49e+00	0	55	104	76546048	53	18661
2026-01-03 08:14:20.91	88.13	12.95	-40.6	-55.2	3.8	1.49e+00	0	55	104	76546048	53	18551
2026-01-03 08:14:21.92	87.98	13.01	-40.5	-55.1	3.8	1.49e+00	0	55	104	76546048	53	18376
2026-01-03 08:14:22.93	87.82	13.07	-41.7	-55.2	3.8	1.49e+00	0	55	104	76546048	53	18535
2026-01-03 08:14:23.94	87.66	13.14	-40.8	-55.1	3.8	1.49e+00	0	55	104	76546048	53	18394
2026-01-03 08:14:24.95	87.51	13.20	-40.6	-55.1	3.8	1.49e+00	0	55	104	76546048	53	18460
2026-01-03 08:14:25.96	87.35	13.26	-40.7	-54.8	3.8	1.49e+00	0	55	104	76546048	53	17881
2026-01-03 08:14:26.97	87.19	13.32	-40.6	-54.9	3.8	1.49e+00	0	55	104	76546048	53	17927
2026-01-03 08:14:27.98	87.03	13.39	-41.9	-54.9	3.8	1.49e+00	0	55	104	76546048	54	17083
2026-01-03 08:14:28.99	86.87	13.45	-40.5	-55.0	3.8	1.49e+00	0	55	104	76546048	53	18303
2026-01-03 08:14:30.00	86.71	13.51	-41.0	-53.6	3.8	1.49e+00	0	55	104	76546048	53	15508
2026-01-03 08:14:31.01	86.55	13.57	-41.1	-53.2	3.9	1.48e+00	0	54	104	76546048	53	14726
2026-01-03 08:14:32.02	86.38	13.64	-41.1	-52.7	4.1	1.43e+00	0	55	0	76546048	53	14025
2026-01-03 08:14:33.03	86.22	13.70	-41.0	-52.7	4.1	1.45e+00	0	55	0	76546048	53	13907
2026-01-03 08:14:34.04	86.06	13.76	-41.0	-52.7	4.0	1.47e+00	0	55	0	76546048	53	13901
2026-01-03 08:14:35.05	85.89	13.82	-40.9	-52.3	4.1	1.43e+00	0	55	0	76546048	53	13274
2026-01-03 08:14:36.06	85.73	13.89	-40.8	-51.5	4.3	1.37e+00	0	55	0	76546048	53	12218
2026-01-03 08:14:37.07	85.56	13.95	-40.6	-50.4	4.8	1.02e+00	0	55	0	77594624	53	10766
2026-01-03 08:14:38.07	85.40	14.01	-40.5	-49.8	5.0	7.81e-01	0	55	0	79691776	53	10032
2026-01-03 08:14:39.09	85.23	14.07	-40.4	-49.4	5.2	6.24e-01	0	55	0	81788928	52	10149
2026-01-03 08:14:40.10	85.06	14.13	-40.3	-49.0	5.5	4.97e-01	0	55	0	83886080	52	9684
2026-01-03 08:14:41.11	84.89	14.19	-40.3	-48.4	6.0	4.10e-01	0	55	0	85983232	52	9047
2026-01-03 08:14:42.12	84.72	14.26	-40.3	-47.8	6.6	2.38e-01	0	55	0	87031808	52	8419
2026-01-03 08:14:43.13	84.55	14.32	-40.1	-46.9	7.4	1.69e-01	0	55	0	89128960	52	7596
2026-01-03 08:14:44.14	84.38	14.38	-40.0	-46.2	8.2	8.22e-02	0	55	0	91226112	51	7381
2026-01-03 08:14:45.14	84.21	14.44	-39.9	-46.1	8.4	4.71e-02	0	55	0	93323264	51	7301
2026-01-03 08:14:46.16	84.04	14.50	-39.8	-45.6	8.9	3.08e-02	0	55	0	95420416	51	6949
2026-01-03 08:14:47.17	83.86	14.56	-39.9	-45.5	9.0	2.56e-02	0	55	0	96468992	51	6868
2026-01-03 08:14:48.18	83.69	14.62	-39.9	-45.7	8.9	2.88e-02	0	55	0	98566144	51	7018
2026-01-03 08:14:49.18	83.52	14.68	-40.0	-45.7	8.9	2.57e-02	0	55	0	100663296	51	7037
2026-01-03 08:14:50.20	83.34	14.74	-40.1	-45.8	8.9	2.56e-02	0	55	0	102760448	51	7101
2026-01-03 08:14:51.21	83.16	14.80	-40.1	-45.7	9.2	2.48e-02	0	55	0	104857600	51	6985
2026-01-03 08:14:52.22	82.99	14.86	-40.1	-45.4	9.5	1.93e-02	0	55	0	105906176	51	6795
2026-01-03 08:14:53.22	82.81	14.92	-40.0	-45.0	10.0	9.99e-03	0	55	0	108003328	51	6462
2026-01-03 08:14:54.23	82.63	14.98	-39.9	-44.7	10.3	6.06e-03	0	55	0	110100480	51	6254
2026-01-03 08:14:55.24	82.45	15.04	-39.8	-44.6	10.4	4.33e-03	0	55	0	112197632	51	6159
2026-01-03 08:14:56.25	82.27	15.10	-39.7	-44.3	10.9	2.92e-03	0	55	0	114294784	51	5953
2026-01-03 08:14:57.26	82.09	15.16	-39.8	-44.5	10.7	2.60e-03	0	55	0	115343360	51	6107
2026-01-03 08:14:58.28	81.91	15.22	-39.8	-44.4	10.9	2.40e-03	0	55	0	117440512	51	6001
2026-01-03 08:14:59.29	81.73	15.28	-39.9	-44.4	10.9	1.93e-03	0	55	0	119537664	51	6012
2026-01-03 08:15:00.29	81.55	15.34	-39.8	-44.4	10.9	2.40e-03	0	55	0	121634816	51	6005
2026-01-03 08:15:01.30	81.37	15.40	-39.8	-44.3	10.9	2.05e-03	0	55	0	123731968	51	5947
2026-01-03 08:15:02.31	81.18	15.46	-39.8	-44.2	11.1	1.54e-03	0	55	0	124780544	51	5891
2026-01-03 08:15:03.32	81.00	15.52	-39.7	-44.2	11.1	1.52e-03	0	55	0	126877696	51	5858
2026-01-03 08:15:04.33	80.81	15.58	-39.7	-44.1	11.3	1.32e-03	0	55	0	128974848	51	5800
2026-01-03 08:15:05.34	80.62	15.64	-39.8	-44.2	11.2	1.48e-03	0	55	0	131072000	51	5856
2026-01-03 08:15:06.35	80.44	15.70	-39.8	-44.2	11.2	1.10e-03	0	55	0	133169152	51	5860
2026-01-03 08:15:07.36	80.25	15.75	-39.8	-44.1	11.2	1.04e-03	0	55	0	135266304	51	5852
2026-01-03 08:15:08.37	80.06	15.81	-39.9	-44.5	10.9	2.05e-03	0	55	0	136314880	51	6095
2026-01-03 08:15:09.38	79.87	15.87	-40.1	-45.0	10.3	3.54e-03	0	55	0	138412032	51	6482
2026-01-03 08:15:10.39	79.68	15.93	-40.1	-44.9	10.4	4.25e-03	0	55	0	140509184	51	6383
2026-01-03 08:15:11.40	79.49	15.98	-40.0	-44.7	10.6	3.93e-03	0	55	0	142606336	51	6242
2026-01-03 08:15:12.41	79.30	16.04	-40.0	-44.6	10.7	6.00e-03	0	55	0	144703488	51	6198
2026-01-03 08:15:13.42	79.11	16.10	-39.9	-44.6	10.7	3.29e-03	0	55	0	145752064	51	6151
2026-01-03 08:15:14.43	78.92	16.16	-39.9	-44.5	10.7	3.12e-03	0	55	0	147849216	51	6114
2026-01-03 08:15:15.44	78.72	16.21	-39.8	-44.5	10.8	3.41e-03	0	55	0	149946368	51	6096
2026-01-03 08:15:16.45	78.53	16.27	-39.8	-44.5	10.7	2.92e-03	0	55	0	152043520	51	6131
2026-01-03 08:15:17.46	78.33	16.33	-39.8	-44.4	10.8	2.88e-03	0	55	0	154140672	51	6033
2026-01-03 08:15:18.46	78.14	16.38	-39.6	-44.1	11.0	1.88e-03	0	55	0	155189248	51	5819
2026-01-03 08:15:19.48	77.94	16.44	-39.5	-43.8	11.4	1.38e-03	0	55	0	157286400	50	5959
2026-01-03 08:15:20.49	77.74	16.49	-39.4	-43.7	11.4	9.44e-04	0	55	0	159383552	50	5905
2026-01-03 08:15:21.50	77.55	16.55	-39.5	-43.9	11.2	1.35e-03	0	55	0	161480704	50	6031
2026-01-03 08:15:22.51	77.35	16.60	-39.5	-44.1	11.0	1.67e-03	0	55	0	163577856	50	6155
2026-01-03 08:15:23.52	77.15	16.66	-39.6	-44.2	10.8	1.78e-03	0	55	0	164626432	50	6238
2026-01-03 08:15:24.53	76.95	16.71	-39.6	-44.3	10.7	2.62e-03	0	55	0	166723584	50	6305
2026-01-03 08:15:25.54	76.75	16.77	-39.6	-44.2	10.7	2.89e-03	0	55	0	168820736	50	6263
2026-01-03 08:15:26.55	76.55	16.82	-39.7	-44.6	10.4	3.74e-03	0	55	0	170917888	50	6507
2026-01-03 08:15:27.56	76.34	16.88	-39.7	-44.7	10.2	6.11e-03	0	56	0	173015040	50	6581
2026-01-03 08:15:28.57	76.14	16.93	-39.6	-44.8	10.1	7.37e-03	0	56	0	174063616	50	6683
2026-01-03 08:15:29.58	75.94	16.98	-39.6	-44.7	10.1	7.21e-03	0	55	0	176160768	50	6600
2026-01-03 08:15:30.59	75.73	17.04	-39.6	-44.7	10.0	6.44e-03	0	56	0	178257920	50	6644
2026-01-03 08:15:31.60	75.53	17.09	-39.6	-44.6	10.2	7.10e-03	0	55	0	180355072	50	6549
2026-01-03 08:15:32.61	75.32	17.14	-39.6	-44.7	10.1	6.00e-03	0	55	0	182452224	50	6574
2026-01-03 08:15:33.62	75.11	17.20	-39.6	-44.6	10.1	6.66e-03	0	55	0	184549376	50	6538
2026-01-03 08:15:34.63	74.91	17.25	-39.6	-44.8	10.0	6.52e-03	0	55	0	185597952	50	6656
2026-01-03 08:15:35.64	74.70	17.30	-39.6	-44.7	10.0	7.62e-03	0	56	0	187695104	50	6613
2026-01-03 08:15:36.65	74.49	17.35	-39.5	-44.4	10.3	6.46e-03	0	55	0	189792256	50	6402
2026-01-03 08:15:37.66	74.28	17.40	-39.4	-44.2	10.5	4.17e-03	0	56	0	191889408	50	6258
2026-01-03 08:15:38.67	74.07	17.45	-39.3	-44.0	10.7	3.67e-03	0	55	0	193986560	50	6114
2026-01-03 08:15:39.68	73.86	17.51	-39.2	-43.8	10.9	2.47e-03	0	55	0	195035136	50	5974
2026-01-03 08:15:40.69	73.65	17.56	-39.2	-43.6	11.2	1.63e-03	0	56	0	197132288	50	5807
2026-01-03 08:15:41.70	73.43	17.61	-39.1	-43.4	11.3	1.03e-03	0	56	0	199229440	50	5703
2026-01-03 08:15:42.70	73.22	17.66	-39.1	-43.4	11.4	1.13e-03	0	55	0	201326592	50	5703
2026-01-03 08:15:43.72	73.01	17.71	-39.1	-43.6	11.2	1.41e-03	0	56	0	203423744	50	5814
2026-01-03 08:15:44.73	72.79	17.76	-39.1	-43.4	11.3	1.23e-03	0	56	0	204472320	50	5714
2026-01-03 08:15:45.74	72.58	17.80	-39.0	-43.4	11.4	1.12e-03	0	56	0	206569472	50	5661
2026-01-03 08:15:46.75	72.36	17.85	-39.1	-43.5	11.3	9.71e-04	0	56	0	208666624	50	5757
2026-01-03 08:15:47.76	72.15	17.90	-39.2	-43.5	11.3	9.59e-04	0	55	0	210763776	50	5759
2026-01-03 08:15:48.77	71.93	17.95	-39.1	-43.4	11.5	9.09e-04	0	56	0	212860928	50	5688
2026-01-03 08:15:49.77	71.71	18.00	-39.2	-43.4	11.5	8.77e-04	0	56	0	213909504	50	5718
2026-01-03 08:15:50.78	71.49	18.04	-39.2	-43.5	11.6	5.99e-04	0	56	0	216006656	50	5726
2026-01-03 08:15:51.79	71.27	18.09	-39.3	-43.5	11.7	5.33e-04	0	56	0	218103808	50	5757
2026-01-03 08:15:52.80	71.05	18.14	-39.3	-43.4	12.0	6.28e-04	0	56	0	220200960	50	5668
2026-01-03 08:15:53.81	70.83	18.18	-39.4	-43.3	12.3	2.03e-04	0	56	0	222298112	50	5596
2026-01-03 08:15:54.82	70.61	18.23	-39.4	-43.3	12.5	1.32e-04	0	55	0	223346688	50	5613
2026-01-03 08:15:55.83	70.39	18.28	-39.3	-42.9	13.0	8.92e-05	0	56	0	225443840	50	5371
2026-01-03 08:15:56.84	70.17	18.32	-39.3	-42.7	13.3	3.35e-05	0	56	0	227540992	50	5261
2026-01-03 08:15:57.85	69.94	18.37	-39.2	-42.6	13.6	6.80e-06	0	56	0	229638144	50	5171
2026-01-03 08:15:58.86	69.72	18.41	-39.1	-42.3	14.1	3.00e-06	0	56	0	231735296	50	4992
2026-01-03 08:15:59.87	69.49	18.45	-39.0	-42.1	14.4	7.00e-07	0	56	0	232783872	50	4877
2026-01-03 08:16:00.88	69.27	18.50	-38.8	-41.6	14.9	0.00e+00	0	56	0	234881024	49	4913
2026-01-03 08:16:01.89	69.04	18.54	-38.6	-41.2	15.5	0.00e+00	0	56	0	236978176	49	4681
2026-01-03 08:16:02.90	68.82	18.59	-38.6	-41.1	15.8	0.00e+00	0	56	0	239075328	49	4623
2026-01-03 08:16:03.91	68.59	18.63	-38.4	-40.8	16.3	0.00e+00	0	56	0	241172480	48	4720
2026-01-03 08:16:04.92	68.36	18.67	-38.3	-40.6	16.6	0.00e+00	0	56	0	242221056	48	4640
2026-01-03 08:16:05.93	68.13	18.71	-37.8	-39.9	17.2	0.00e+00	0	56	0	244318208	47	4525
2026-01-03 08:16:06.93	67.91	18.75	-37.7	-39.8	17.5	0.00e+00	0	56	0	246415360	47	4455
2026-01-03 08:16:07.94	67.68	18.79	-37.8	-39.8	17.5	0.00e+00	0	56	0	248512512	47	4481
2026-01-03 08:16:08.95	67.44	18.83	-37.8	-39.8	17.6	0.00e+00	0	56	0	250609664	47	4449
2026-01-03 08:16:09.97	67.21	18.87	-37.8	-39.8	17.6	0.00e+00	0	56	0	251658240	47	4485
2026-01-03 08:16:10.97	66.98	18.91	-37.8	-39.8	17.7	0.00e+00	0	56	0	253755392	47	4459
2026-01-03 08:16:11.98	66.75	18.95	-37.7	-39.7	17.8	0.00e+00	0	56	0	255852544	47	4423
2026-01-03 08:16:12.99	66.52	18.99	-37.5	-39.3	18.2	0.00e+00	0	56	0	257949696	46	4481
2026-01-03 08:16:14.00	66.28	19.03	-37.7	-39.6	17.9	0.00e+00	0	56	0	260046848	46	4620
2026-01-03 08:16:15.01	66.05	19.07	-37.6	-39.5	18.0	0.00e+00	0	56	0	261095424	46	4592
2026-01-03 08:16:16.02	65.81	19.11	-37.7	-39.6	18.0	0.00e+00	0	56	0	263192576	46	4626
2026-01-03 08:16:17.03	65.58	19.14	-37.9	-39.8	17.8	0.00e+00	0	56	0	265289728	46	4741
2026-01-03 08:16:18.05	65.34	19.18	-37.9	-39.9	17.7	0.00e+00	0	56	0	267386880	46	4776
2026-01-03 08:16:19.06	65.10	19.22	-38.2	-40.3	17.4	0.00e+00	0	56	0	269484032	46	5000
2026-01-03 08:16:20.07	64.87	19.25	-38.3	-40.4	17.2	0.00e+00	0	56	0	270532608	47	4793
2026-01-03 08:16:21.08	64.63	19.29	-38.4	-40.6	17.0	0.00e+00	0	56	0	272629760	47	4921
2026-01-03 08:16:22.09	64.39	19.32	-38.3	-40.5	17.2	0.00e+00	0	56	0	274726912	47	4819
2026-01-03 08:16:23.09	64.16	19.36	-38.4	-40.6	17.0	0.00e+00	0	56	0	276824064	47	4905
2026-01-03 08:16:24.11	63.91	19.39	-38.5	-40.8	16.9	0.00e+00	0	56	0	278921216	47	4989
2026-01-03 08:16:25.12	63.67	19.43	-38.8	-41.0	16.7	0.00e+00	0	56	0	281018368	48	4839
2026-01-03 08:16:26.13	63.43	19.46	-39.0	-41.3	16.6	0.00e+00	0	56	0	282066944	48	5028
2026-01-03 08:16:27.14	63.19	19.49	-39.0	-41.3	16.4	0.00e+00	0	56	0	284164096	48	5037
2026-01-03 08:16:28.15	62.95	19.52	-39.2	-41.6	16.1	0.00e+00	0	56	0	286261248	49	4907
2026-01-03 08:16:29.16	62.71	19.55	-39.3	-41.8	16.0	0.00e+00	0	56	0	288358400	49	4995
2026-01-03 08:16:30.17	62.47	19.59	-39.4	-41.9	15.9	0.00e+00	0	56	0	290455552	49	5073
2026-01-03 08:16:31.17	62.23	19.62	-39.4	-41.9	15.8	0.00e+00	0	56	0	291504128	49	5089
2026-01-03 08:16:32.18	61.99	19.65	-39.4	-42.0	15.8	0.00e+00	0	56	0	293601280	49	5141
2026-01-03 08:16:33.19	61.74	19.67	-39.3	-41.7	15.9	0.00e+00	0	56	0	295698432	49	4978
2026-01-03 08:16:34.20	61.50	19.70	-39.1	-41.4	16.4	0.00e+00	0	56	0	297795584	49	4801
2026-01-03 08:16:35.21	61.25	19.73	-39.0	-41.3	16.5	0.00e+00	0	56	0	299892736	49	4728
2026-01-03 08:16:36.22	61.01	19.76	-38.9	-41.2	16.6	0.00e+00	0	56	0	300941312	49	4653
2026-01-03 08:16:37.23	60.76	19.79	-38.7	-40.9	16.8	0.00e+00	0	56	0	303038464	49	4536
2026-01-03 08:16:38.24	60.52	19.81	-39.0	-41.3	16.5	0.00e+00	0	56	0	305135616	49	4741
2026-01-03 08:16:39.25	60.27	19.84	-39.1	-41.5	16.3	0.00e+00	0	56	0	307232768	49	4858
2026-01-03 08:16:40.26	60.02	19.87	-39.2	-41.7	16.1	0.00e+00	0	56	0	309329920	49	4941
2026-01-03 08:16:41.27	59.78	19.89	-39.3	-41.8	16.0	0.00e+00	0	56	0	310378496	49	5027
2026-01-03 08:16:42.28	59.53	19.92	-39.4	-42.0	15.8	0.00e+00	0	56	0	312475648	49	5103
2026-01-03 08:16:43.29	59.28	19.94	-39.3	-41.8	15.9	0.00e+00	0	56	0	314572800	49	5025
2026-01-03 08:16:44.30	59.03	19.97	-39.3	-41.8	15.9	0.00e+00	0	56	0	316669952	49	5025
2026-01-03 08:16:45.31	58.78	19.99	-39.2	-41.8	16.0	0.00e+00	0	56	0	318767104	49	4989
2026-01-03 08:16:46.32	58.53	20.01	-39.1	-41.6	16.2	0.00e+00	0	56	0	319815680	49	4908
2026-01-03 08:16:47.33	58.29	20.03	-39.2	-41.7	16.1	0.00e+00	0	56	0	321912832	49	4947
2026-01-03 08:16:48.34	58.04	20.06	-39.4	-42.0	15.8	0.00e+00	0	56	0	324009984	49	5107
2026-01-03 08:16:49.35	57.79	20.08	-39.6	-42.3	15.5	0.00e+00	0	56	0	326107136	49	5287
2026-01-03 08:16:50.36	57.53	20.10	-39.7	-42.5	15.3	0.00e+00	0	56	0	328204288	50	5115
2026-01-03 08:16:51.37	57.28	20.12	-39.7	-42.5	15.3	0.00e+00	0	56	0	330301440	50	5113
2026-01-03 08:16:52.38	57.03	20.14	-39.6	-42.4	15.4	0.00e+00	0	56	0	331350016	50	5063
2026-01-03 08:16:53.39	56.78	20.15	-39.4	-42.0	15.7	0.00e+00	0	56	0	333447168	50	4853
2026-01-03 08:16:54.40	56.53	20.17	-39.4	-41.9	15.9	0.00e+00	0	56	0	335544320	50	4807
2026-01-03 08:16:55.41	56.28	20.19	-39.2	-41.7	16.1	0.00e+00	0	56	0	337641472	50	4681
2026-01-03 08:16:56.42	56.03	20.21	-39.2	-41.7	16.1	0.00e+00	0	56	0	339738624	50	4660
2026-01-03 08:16:57.43	55.77	20.22	-39.1	-41.7	16.1	0.00e+00	0	56	0	340787200	50	4655
2026-01-03 08:16:58.44	55.52	20.24	-39.1	-41.6	16.1	0.00e+00	0	56	0	342884352	49	4917
2026-01-03 08:16:59.46	55.26	20.26	-39.2	-41.7	16.0	0.00e+00	0	56	0	344981504	49	4982
2026-01-03 08:17:00.47	55.01	20.27	-39.4	-42.0	15.7	0.00e+00	0	56	0	347078656	49	5159
2026-01-03 08:17:01.48	54.76	20.28	-39.5	-42.3	15.4	0.00e+00	0	56	0	349175808	49	5338
2026-01-03 08:17:02.48	54.51	20.30	-39.6	-42.4	15.3	0.00e+00	0	56	0	350224384	49	5382
2026-01-03 08:17:03.50	54.25	20.31	-39.6	-42.4	15.5	0.00e+00	0	56	0	352321536	49	5351
2026-01-03 08:17:04.51	53.99	20.32	-39.4	-42.1	15.6	0.00e+00	0	56	0	354418688	49	5213
2026-01-03 08:17:05.52	53.74	20.34	-39.4	-42.1	15.6	0.00e+00	0	56	0	356515840	49	5215
2026-01-03 08:17:06.52	53.49	20.35	-39.3	-41.9	15.8	0.00e+00	0	56	0	358612992	49	5090
2026-01-03 08:17:07.54	53.23	20.36	-39.2	-41.8	15.9	0.00e+00	0	56	0	359661568	49	5016
2026-01-03 08:17:08.55	52.98	20.37	-39.1	-41.6	16.0	0.00e+00	0	56	0	361758720	49	4924
2026-01-03 08:17:09.55	52.72	20.38	-39.2	-41.8	16.0	0.00e+00	0	56	0	363855872	49	4988
2026-01-03 08:17:10.56	52.47	20.39	-39.2	-41.7	16.0	0.00e+00	0	56	0	365953024	49	4972
2026-01-03 08:17:11.57	52.21	20.39	-39.1	-41.6	16.2	0.00e+00	0	56	0	368050176	49	4918
2026-01-03 08:17:12.58	51.96	20.40	-39.1	-41.7	16.1	0.00e+00	0	56	0	369098752	49	4936
2026-01-03 08:17:13.59	51.70	20.41	-39.1	-41.6	16.1	0.00e+00	0	56	0	371195904	49	4902
2026-01-03 08:17:14.60	51.45	20.42	-38.9	-41.3	16.4	0.00e+00	0	56	0	373293056	49	4734
2026-01-03 08:17:15.61	51.19	20.42	-38.7	-41.1	16.6	0.00e+00	0	56	0	375390208	49	4602
2026-01-03 08:17:16.62	50.93	20.43	-38.6	-40.9	16.8	0.00e+00	0	56	0	377487360	49	4509
2026-01-03 08:17:17.63	50.68	20.43	-38.6	-40.8	16.8	0.00e+00	0	56	0	378535936	48	4750
2026-01-03 08:17:18.64	50.42	20.44	-38.7	-41.0	16.7	0.00e+00	0	56	0	380633088	48	4839
2026-01-03 08:17:19.65	50.17	20.44	-38.7	-41.0	16.7	0.00e+00	0	56	0	382730240	48	4824
2026-01-03 08:17:20.66	49.91	20.44	-38.8	-41.2	16.6	0.00e+00	0	56	0	384827392	48	4941
2026-01-03 08:17:21.67	49.65	20.44	-38.8	-41.2	16.6	0.00e+00	0	56	0	386924544	48	4960
2026-01-03 08:17:22.68	49.40	20.45	-39.0	-41.5	16.3	0.00e+00	0	56	0	389021696	48	5119
2026-01-03 08:17:23.69	49.14	20.45	-39.1	-41.6	16.2	0.00e+00	0	56	0	390070272	48	5182
2026-01-03 08:17:24.70	48.88	20.45	-39.3	-41.9	15.9	0.00e+00	0	56	0	392167424	49	5078
2026-01-03 08:17:25.71	48.63	20.45	-39.5	-42.2	15.6	0.00e+00	0	56	0	394264576	49	5242
2026-01-03 08:17:26.72	48.37	20.45	-39.6	-42.4	15.4	0.00e+00	0	56	0	396361728	49	5398
2026-01-03 08:17:27.72	48.12	20.45	-39.7	-42.5	15.3	0.00e+00	0	56	0	398458880	50	5121
2026-01-03 08:17:28.73	47.86	20.44	-39.8	-42.6	15.3	0.00e+00	0	56	0	399507456	50	5179
2026-01-03 08:17:29.74	47.60	20.44	-39.6	-42.4	15.4	0.00e+00	0	56	0	401604608	50	5071
2026-01-03 08:17:30.75	47.35	20.44	-39.4	-42.0	15.8	0.00e+00	0	56	0	403701760	50	4863
2026-01-03 08:17:31.76	47.09	20.43	-39.1	-41.6	16.2	0.00e+00	0	56	0	405798912	50	4622
2026-01-03 08:17:32.78	46.83	20.43	-38.9	-41.2	16.6	0.00e+00	0	56	0	407896064	49	4682
2026-01-03 08:17:33.79	46.58	20.43	-38.7	-40.9	16.9	0.00e+00	0	56	0	408944640	49	4519
2026-01-03 08:17:34.80	46.32	20.42	-38.4	-40.5	17.2	0.00e+00	0	56	0	411041792	48	4584
2026-01-03 08:17:35.80	46.07	20.41	-38.3	-40.4	17.4	0.00e+00	0	56	0	413138944	48	4517
2026-01-03 08:17:36.81	45.81	20.41	-38.1	-40.1	17.6	0.00e+00	0	56	0	415236096	48	4386
2026-01-03 08:17:37.82	45.56	20.40	-38.1	-40.2	17.6	0.00e+00	0	56	0	417333248	48	4401
2026-01-03 08:17:38.83	45.30	20.39	-38.1	-40.2	17.6	0.00e+00	0	56	0	418381824	48	4395
2026-01-03 08:17:39.84	45.05	20.38	-38.2	-40.2	17.5	0.00e+00	0	56	0	420478976	48	4430
2026-01-03 08:17:40.85	44.79	20.37	-38.2	-40.2	17.5	0.00e+00	0	56	0	422576128	48	4395
2026-01-03 08:17:41.86	44.54	20.37	-37.9	-39.9	17.8	0.00e+00	0	56	0	424673280	47	4517
2026-01-03 08:17:42.87	44.28	20.35	-37.7	-39.6	18.1	0.00e+00	0	56	0	426770432	47	4363
2026-01-03 08:17:43.88	44.03	20.34	-37.7	-39.6	18.0	0.00e+00	0	56	0	427819008	47	4381
2026-01-03 08:17:44.89	43.77	20.33	-37.8	-39.7	18.0	0.00e+00	0	56	0	429916160	47	4411
2026-01-03 08:17:45.90	43.52	20.32	-37.8	-39.8	17.9	0.00e+00	0	56	0	432013312	47	4464
2026-01-03 08:17:46.92	43.26	20.31	-38.2	-40.3	17.4	0.00e+00	0	56	0	434110464	47	4715
2026-01-03 08:17:47.92	43.01	20.29	-38.1	-40.1	17.6	0.00e+00	0	56	0	436207616	47	4631
2026-01-03 08:17:48.93	42.76	20.28	-38.0	-40.1	17.6	0.00e+00	0	56	0	437256192	47	4606
2026-01-03 08:17:49.94	42.50	20.27	-37.8	-39.8	17.9	0.00e+00	0	56	0	439353344	47	4474
2026-01-03 08:17:50.95	42.25	20.25	-37.8	-39.7	18.0	0.00e+00	0	56	0	441450496	47	4417
2026-01-03 08:17:51.96	42.00	20.24	-37.9	-39.8	17.9	0.00e+00	0	56	0	443547648	47	4483
2026-01-03 08:17:52.97	41.75	20.22	-37.8	-39.8	18.0	0.00e+00	0	56	0	445644800	47	4446
2026-01-03 08:17:53.98	41.49	20.20	-37.9	-39.9	17.8	0.00e+00	0	56	0	446693376	47	4519
2026-01-03 08:17:54.99	41.24	20.19	-37.8	-39.7	18.1	0.00e+00	0	56	0	448790528	47	4416
2026-01-03 08:17:56.00	40.99	20.17	-37.9	-39.8	17.9	0.00e+00	0	56	0	450887680	47	4472
2026-01-03 08:17:57.01	40.74	20.15	-38.0	-39.9	17.8	0.00e+00	0	56	0	452984832	47	4541
2026-01-03 08:17:58.02	40.49	20.13	-38.1	-40.2	17.6	0.00e+00	0	56	0	455081984	47	4659
2026-01-03 08:17:59.03	40.24	20.11	-38.1	-40.1	17.6	0.00e+00	0	56	0	457179136	47	4608
2026-01-03 08:18:00.04	39.99	20.09	-38.2	-40.3	17.5	0.00e+00	0	56	0	458227712	47	4719
2026-01-03 08:18:01.05	39.74	20.07	-38.1	-40.0	17.8	0.00e+00	0	56	0	460324864	47	4585
2026-01-03 08:18:02.06	39.49	20.05	-38.1	-40.0	17.7	0.00e+00	0	56	0	462422016	47	4588
2026-01-03 08:18:03.07	39.24	20.03	-38.1	-40.0	17.7	0.00e+00	0	56	0	464519168	47	4592
2026-01-03 08:18:04.08	38.99	20.01	-38.1	-40.1	17.6	0.00e+00	0	56	0	466616320	47	4614
2026-01-03 08:18:05.09	38.74	19.98	-38.0	-40.0	17.8	0.00e+00	0	56	0	467664896	47	4588
2026-01-03 08:18:06.10	38.49	19.96	-38.1	-40.1	17.7	0.00e+00	0	56	0	469762048	47	4605
2026-01-03 08:18:07.10	38.25	19.94	-38.0	-40.0	17.8	0.00e+00	0	56	0	471859200	47	4565
2026-01-03 08:18:08.12	38.00	19.91	-38.0	-40.0	17.8	0.00e+00	0	56	0	473956352	47	4553
2026-01-03 08:18:09.12	37.75	19.89	-38.1	-40.1	17.6	0.00e+00	0	56	0	476053504	47	4649
2026-01-03 08:18:10.13	37.51	19.86	-38.4	-40.5	17.2	0.00e+00	0	56	0	477102080	47	4855
2026-01-03 08:18:11.14	37.26	19.84	-38.9	-41.2	16.8	0.00e+00	0	56	0	479199232	48	4939
2026-01-03 08:18:12.15	37.01	19.81	-39.2	-41.6	16.4	0.00e+00	0	56	0	481296384	48	5174
2026-01-03 08:18:13.16	36.77	19.78	-39.5	-42.1	15.8	0.00e+00	0	56	0	483393536	49	5163
2026-01-03 08:18:14.17	36.52	19.75	-39.3	-41.8	16.1	0.00e+00	0	56	0	485490688	49	5002
2026-01-03 08:18:15.18	36.28	19.73	-39.4	-41.9	16.1	0.00e+00	0	56	0	486539264	49	5058
2026-01-03 08:18:16.19	36.03	19.70	-39.3	-41.7	16.2	0.00e+00	0	56	0	488636416	49	4942
2026-01-03 08:18:17.21	35.79	19.67	-39.3	-41.8	16.1	0.00e+00	0	56	0	490733568	49	5023
2026-01-03 08:18:18.22	35.55	19.64	-39.0	-41.3	16.4	0.00e+00	0	56	0	492830720	49	4725
2026-01-03 08:18:19.23	35.30	19.61	-39.2	-41.6	16.4	0.00e+00	0	56	0	494927872	49	4878
2026-01-03 08:18:20.24	35.06	19.58	-39.2	-41.6	16.3	0.00e+00	0	56	0	495976448	49	4901
2026-01-03 08:18:21.24	34.82	19.55	-39.3	-41.8	16.1	0.00e+00	0	56	0	498073600	49	5022
2026-01-03 08:18:22.25	34.58	19.51	-39.6	-42.1	15.8	0.00e+00	0	56	0	500170752	49	5215
2026-01-03 08:18:23.26	34.34	19.48	-39.6	-42.2	15.8	0.00e+00	0	56	0	502267904	49	5250
2026-01-03 08:18:24.27	34.10	19.45	-39.6	-42.2	15.7	0.00e+00	0	56	0	504365056	50	4978
2026-01-03 08:18:25.28	33.86	19.42	-39.6	-42.2	15.8	0.00e+00	0	56	0	505413632	50	4927
2026-01-03 08:18:26.29	33.62	19.38	-39.5	-42.1	15.9	0.00e+00	0	56	0	507510784	50	4877
2026-01-03 08:18:27.30	33.38	19.35	-39.7	-42.3	15.7	0.00e+00	0	56	0	509607936	50	5009
2026-01-03 08:18:28.31	33.15	19.32	-39.6	-42.2	15.8	0.00e+00	0	56	0	511705088	50	4932
2026-01-03 08:18:29.32	32.91	19.28	-39.6	-42.1	15.8	0.00e+00	0	56	0	513802240	50	4903
2026-01-03 08:18:30.33	32.67	19.24	-39.6	-42.1	15.9	0.00e+00	0	57	0	514850816	50	4885
2026-01-03 08:18:31.35	32.43	19.21	-39.4	-41.9	16.1	0.00e+00	0	56	0	516947968	50	4782
2026-01-03 08:18:32.35	32.20	19.17	-39.3	-41.7	16.3	0.00e+00	0	56	0	519045120	50	4668
2026-01-03 08:18:33.36	31.96	19.14	-39.0	-41.3	16.6	0.00e+00	0	57	0	521142272	50	4451
2026-01-03 08:18:34.37	31.73	19.10	-39.1	-41.4	16.5	0.00e+00	0	56	0	523239424	50	4519
2026-01-03 08:18:35.38	31.50	19.06	-39.1	-41.5	16.4	0.00e+00	0	56	0	525336576	50	4554
2026-01-03 08:18:36.39	31.26	19.02	-39.2	-41.6	16.3	0.00e+00	0	56	0	526385152	50	4611
2026-01-03 08:18:37.40	31.03	18.98	-39.3	-41.7	16.2	0.00e+00	0	56	0	528482304	50	4655
2026-01-03 08:18:38.41	30.80	18.95	-39.3	-41.8	16.1	0.00e+00	0	56	0	530579456	50	4713
2026-01-03 08:18:39.42	30.57	18.91	-39.2	-41.6	16.3	0.00e+00	0	57	0	532676608	50	4609
2026-01-03 08:18:40.43	30.34	18.87	-39.2	-41.5	16.4	0.00e+00	0	56	0	534773760	50	4590
2026-01-03 08:18:41.44	30.11	18.83	-39.0	-41.3	16.5	0.00e+00	0	56	0	535822336	50	4490
2026-01-03 08:18:42.45	29.88	18.79	-38.9	-41.2	16.7	0.00e+00	0	56	0	537919488	49	4663
2026-01-03 08:18:43.46	29.65	18.74	-38.9	-41.1	16.8	0.00e+00	0	56	0	540016640	49	4628
2026-01-03 08:18:44.47	29.42	18.70	-38.6	-40.8	17.1	0.00e+00	0	57	0	542113792	49	4460
2026-01-03 08:18:45.48	29.19	18.66	-38.4	-40.5	17.3	0.00e+00	0	57	0	544210944	48	4573
2026-01-03 08:18:46.49	28.96	18.62	-38.2	-40.2	17.6	0.00e+00	0	56	0	545259520	48	4439
2026-01-03 08:18:47.50	28.74	18.58	-38.3	-40.3	17.5	0.00e+00	0	56	0	547356672	48	4481
2026-01-03 08:18:48.51	28.51	18.53	-38.2	-40.2	17.6	0.00e+00	0	56	0	549453824	48	4428
2026-01-03 08:18:49.52	28.29	18.49	-38.2	-40.2	17.6	0.00e+00	0	57	0	551550976	48	4433
2026-01-03 08:18:50.53	28.06	18.45	-38.3	-40.4	17.4	0.00e+00	0	56	0	553648128	48	4504
2026-01-03 08:18:51.54	27.84	18.40	-38.4	-40.5	17.4	0.00e+00	0	56	0	554696704	48	4556
2026-01-03 08:18:52.55	27.61	18.36	-38.4	-40.6	17.3	0.00e+00	0	56	0	556793856	48	4600
2026-01-03 08:18:53.56	27.39	18.31	-38.8	-41.1	16.8	0.00e+00	0	57	0	558891008	48	4893
2026-01-03 08:18:54.57	27.17	18.27	-39.3	-41.8	16.1	0.00e+00	0	57	0	560988160	49	4997
2026-01-03 08:18:55.58	26.95	18.22	-39.8	-42.5	15.4	0.00e+00	0	56	0	563085312	50	5113
2026-01-03 08:18:56.59	26.73	18.18	-40.1	-43.0	14.9	0.00e+00	0	56	0	564133888	50	5427
2026-01-03 08:18:57.59	26.51	18.13	-40.1	-43.1	14.8	0.00e+00	0	57	0	566231040	50	5514
2026-01-03 08:18:58.60	26.29	18.08	-40.0	-42.9	15.0	0.00e+00	0	56	0	568328192	50	5376
2026-01-03 08:18:59.62	26.07	18.04	-39.8	-42.6	15.3	0.00e+00	0	56	0	570425344	50	5180
2026-01-03 08:19:00.63	25.85	17.99	-39.7	-42.4	15.4	0.00e+00	0	56	0	572522496	50	5069
2026-01-03 08:19:01.64	25.64	17.94	-39.8	-42.6	15.3	0.00e+00	0	57	0	573571072	50	5182
2026-01-03 08:19:02.65	25.42	17.89	-40.0	-42.9	15.0	0.00e+00	0	56	0	575668224	50	5382
2026-01-03 08:19:03.66	25.20	17.84	-40.5	-43.8	14.1	0.00e+00	0	56	0	577765376	51	5625
2026-01-03 08:19:04.67	24.99	17.80	-40.5	-43.8	14.0	1.50e-06	0	56	0	579862528	51	5621
2026-01-03 08:19:05.68	24.77	17.75	-40.7	-44.2	13.7	4.50e-06	0	56	0	581959680	51	5869
2026-01-03 08:19:06.69	24.56	17.70	-40.4	-43.8	14.0	3.80e-06	0	56	0	583008256	52	5286
2026-01-03 08:19:07.70	24.35	17.65	-40.6	-44.1	13.7	1.50e-06	0	57	0	585105408	52	5506
2026-01-03 08:19:08.70	24.14	17.60	-40.5	-43.9	13.9	6.10e-06	0	56	0	587202560	52	5341
2026-01-03 08:19:09.71	23.93	17.55	-40.1	-43.1	14.7	7.00e-07	0	56	0	589299712	52	4882
2026-01-03 08:19:10.72	23.72	17.50	-39.8	-42.6	15.2	7.00e-07	0	56	0	591396864	51	4876
2026-01-03 08:19:11.73	23.51	17.45	-39.4	-42.1	15.8	0.00e+00	0	56	0	593494016	50	4872
2026-01-03 08:19:12.74	23.30	17.40	-39.0	-41.4	16.4	0.00e+00	0	56	0	594542592	50	4525
2026-01-03 08:19:13.75	23.09	17.34	-38.9	-41.3	16.5	0.00e+00	0	57	0	596639744	49	4739
2026-01-03 08:19:14.76	22.88	17.29	-38.9	-41.2	16.5	0.00e+00	0	56	0	598736896	49	4699
2026-01-03 08:19:15.77	22.67	17.24	-38.7	-41.0	16.8	0.00e+00	0	56	0	600834048	49	4587
2026-01-03 08:19:16.78	22.47	17.19	-38.7	-41.0	16.8	0.00e+00	0	56	0	602931200	49	4573
2026-01-03 08:19:17.79	22.26	17.14	-38.7	-41.0	16.8	0.00e+00	0	56	0	603979776	49	4579
2026-01-03 08:19:18.80	22.06	17.08	-38.8	-41.2	16.6	0.00e+00	0	56	0	606076928	49	4675
2026-01-03 08:19:19.81	21.85	17.03	-38.9	-41.3	16.5	0.00e+00	0	56	0	608174080	49	4725
2026-01-03 08:19:20.82	21.65	16.98	-39.1	-41.6	16.2	0.00e+00	0	56	0	610271232	49	4901
2026-01-03 08:19:21.83	21.45	16.92	-39.3	-41.9	15.9	0.00e+00	0	57	0	612368384	49	5098
2026-01-03 08:19:22.84	21.24	16.87	-39.5	-42.1	15.7	0.00e+00	0	56	0	613416960	49	5217
2026-01-03 08:19:23.85	21.04	16.82	-39.3	-41.8	15.9	0.00e+00	0	56	0	615514112	49	5034
2026-01-03 08:19:24.86	20.84	16.76	-39.1	-41.5	16.3	0.00e+00	0	57	0	617611264	49	4861
2026-01-03 08:19:25.87	20.64	16.71	-38.8	-41.2	16.5	0.00e+00	0	56	0	619708416	49	4689
2026-01-03 08:19:26.88	20.44	16.65	-38.6	-40.9	16.8	0.00e+00	0	57	0	621805568	49	4513
2026-01-03 08:19:27.88	20.25	16.60	-38.6	-40.9	16.8	0.00e+00	0	57	0	622854144	48	4798
2026-01-03 08:19:28.90	20.05	16.54	-38.5	-40.7	17.0	0.00e+00	0	56	0	624951296	48	4689
2026-01-03 08:19:29.90	19.85	16.49	-38.6	-40.9	16.9	0.00e+00	0	57	0	627048448	48	4781
2026-01-03 08:19:30.91	19.66	16.43	-39.1	-41.5	16.2	0.00e+00	0	57	0	629145600	48	5153
2026-01-03 08:19:31.92	19.46	16.38	-39.6	-42.3	15.5	0.00e+00	0	57	0	631242752	49	5298
2026-01-03 08:19:32.93	19.27	16.32	-39.9	-42.9	14.9	0.00e+00	0	57	0	632291328	50	5361
2026-01-03 08:19:33.94	19.07	16.26	-40.2	-43.4	14.4	0.00e+00	0	56	0	634388480	50	5686
2026-01-03 08:19:34.95	18.88	16.21	-40.3	-43.6	14.2	7.00e-07	0	57	0	636485632	51	5465
2026-01-03 08:19:35.96	18.69	16.15	-40.3	-43.5	14.2	1.50e-06	0	56	0	638582784	51	5445
2026-01-03 08:19:36.97	18.49	16.09	-40.3	-43.5	14.2	7.00e-07	0	57	0	640679936	51	5462
2026-01-03 08:19:37.98	18.30	16.04	-40.0	-43.0	14.7	0.00e+00	0	57	0	641728512	51	5132
2026-01-03 08:19:38.99	18.11	15.98	-39.9	-42.8	15.0	7.00e-07	0	57	0	643825664	51	4991
2026-01-03 08:19:40.00	17.92	15.92	-39.7	-42.5	15.2	0.00e+00	0	57	0	645922816	51	4839
2026-01-03 08:19:41.01	17.73	15.87	-39.7	-42.4	15.4	0.00e+00	0	56	0	648019968	51	4798
2026-01-03 08:19:42.02	17.55	15.81	-39.5	-42.1	15.6	0.00e+00	0	57	0	650117120	50	4905
2026-01-03 08:19:43.03	17.36	15.75	-39.6	-42.3	15.4	0.00e+00	0	57	0	651165696	50	5027
2026-01-03 08:19:44.04	17.17	15.69	-39.5	-42.2	15.6	0.00e+00	0	57	0	653262848	50	4934
2026-01-03 08:19:45.05	16.99	15.63	-39.5	-42.2	15.5	0.00e+00	0	56	0	655360000	50	4953
2026-01-03 08:19:46.06	16.80	15.58	-39.6	-42.4	15.4	0.00e+00	0	57	0	657457152	50	5061
2026-01-03 08:19:47.07	16.62	15.52	-39.5	-42.1	15.6	0.00e+00	0	57	0	659554304	50	4924
2026-01-03 08:19:48.07	16.44	15.46	-39.5	-42.1	15.6	0.00e+00	0	57	0	661651456	50	4921
2026-01-03 08:19:49.08	16.25	15.40	-39.5	-42.2	15.6	0.00e+00	0	56	0	662700032	50	4950
2026-01-03 08:19:50.09	16.07	15.34	-39.6	-42.3	15.5	0.00e+00	0	57	0	664797184	50	5006
2026-01-03 08:19:51.10	15.89	15.28	-39.8	-42.7	15.1	0.00e+00	0	56	0	666894336	50	5268
2026-01-03 08:19:52.11	15.71	15.22	-40.0	-43.0	14.8	0.00e+00	0	56	0	668991488	50	5414
2026-01-03 08:19:53.12	15.53	15.16	-40.1	-43.2	14.5	0.00e+00	0	56	0	671088640	50	5573
2026-01-03 08:19:54.13	15.35	15.10	-40.2	-43.3	14.4	1.50e-06	0	57	0	672137216	51	5339
2026-01-03 08:19:55.14	15.17	15.04	-40.1	-43.2	14.6	0.00e+00	0	57	0	674234368	51	5235
2026-01-03 08:19:56.15	14.99	14.98	-40.0	-42.9	14.8	0.00e+00	0	57	0	676331520	51	5075
2026-01-03 08:19:57.16	14.82	14.92	-39.8	-42.6	15.1	0.00e+00	0	56	0	678428672	51	4896
2026-01-03 08:19:58.17	14.64	14.86	-39.6	-42.3	15.4	0.00e+00	0	57	0	680525824	51	4752
2026-01-03 08:19:59.18	14.46	14.80	-39.5	-42.1	15.7	0.00e+00	0	57	0	681574400	50	4910
2026-01-03 08:20:00.19	14.29	14.74	-39.3	-41.9	15.9	0.00e+00	0	57	0	683671552	50	4792
2026-01-03 08:20:01.20	14.12	14.68	-39.4	-42.0	15.7	0.00e+00	0	56	0	685768704	50	4852
2026-01-03 08:20:02.21	13.94	14.62	-39.4	-42.0	15.7	0.00e+00	0	56	0	687865856	50	4833
2026-01-03 08:20:03.22	13.77	14.56	-39.6	-42.3	15.5	0.00e+00	0	57	0	689963008	50	4999
2026-01-03 08:20:04.23	13.60	14.50	-39.6	-42.4	15.4	0.00e+00	0	56	0	691011584	50	5071
2026-01-03 08:20:05.23	13.43	14.44	-39.7	-42.5	15.3	0.00e+00	0	57	0	693108736	50	5114
2026-01-03 08:20:06.24	13.26	14.38	-39.7	-42.5	15.2	0.00e+00	0	57	0	695205888	50	5143
2026-01-03 08:20:07.25	13.09	14.32	-39.7	-42.5	15.2	0.00e+00	0	57	0	697303040	50	5151
2026-01-03 08:20:08.26	12.92	14.26	-39.8	-42.7	15.0	0.00e+00	0	57	0	699400192	50	5249
2026-01-03 08:20:09.27	12.75	14.20	-39.7	-42.5	15.3	0.00e+00	0	57	0	700448768	50	5117
2026-01-03 08:20:10.28	12.58	14.13	-39.6	-42.3	15.4	0.00e+00	0	57	0	702545920	50	5040
2026-01-03 08:20:11.29	12.42	14.07	-39.5	-42.2	15.5	0.00e+00	0	57	0	704643072	50	4938
2026-01-03 08:20:12.30	12.25	14.01	-39.3	-41.9	15.8	0.00e+00	0	57	0	706740224	50	4781
2026-01-03 08:20:13.31	12.08	13.95	-39.1	-41.6	16.0	0.00e+00	0	57	0	708837376	50	4616
2026-01-03 08:20:14.32	11.92	13.89	-39.0	-41.5	16.2	0.00e+00	0	57	0	709885952	50	4553
2026-01-03 08:20:15.34	11.75	13.83	-39.0	-41.4	16.3	0.00e+00	0	57	0	711983104	49	4785
2026-01-03 08:20:16.35	11.59	13.76	-38.9	-41.2	16.4	0.00e+00	0	56	0	714080256	49	4684
2026-01-03 08:20:17.36	11.43	13.70	-39.0	-41.4	16.3	0.00e+00	0	57	0	716177408	49	4777
2026-01-03 08:20:18.36	11.27	13.64	-38.8	-41.1	16.5	0.00e+00	0	57	0	718274560	49	4645
2026-01-03 08:20:19.37	11.11	13.58	-38.8	-41.1	16.5	0.00e+00	0	57	0	719323136	49	4646
2026-01-03 08:20:20.38	10.94	13.52	-38.7	-40.9	16.7	0.00e+00	0	56	0	721420288	49	4514
2026-01-03 08:20:21.39	10.78	13.45	-38.6	-40.7	16.9	0.00e+00	0	57	0	723517440	48	4696
2026-01-03 08:20:22.40	10.63	13.39	-38.2	-40.3	17.3	0.00e+00	0	57	0	725614592	48	4463
2026-01-03 08:20:23.41	10.47	13.33	-38.2	-40.2	17.3	0.00e+00	0	57	0	727711744	48	4408
2026-01-03 08:20:24.42	10.31	13.27	-38.1	-40.2	17.3	0.00e+00	0	57	0	729808896	48	4406
2026-01-03 08:20:25.43	10.15	13.20	-38.1	-40.1	17.4	0.00e+00	0	57	0	730857472	48	4367
2026-01-03 08:20:26.44	10.00	13.14	-38.2	-40.3	17.3	0.00e+00	0	56	0	732954624	48	4443
2026-01-03 08:20:27.45	9.84	13.08	-38.2	-40.3	17.2	0.00e+00	0	57	0	735051776	48	4457
2026-01-03 08:20:28.46	9.68	13.02	-38.5	-40.7	16.9	0.00e+00	0	56	0	737148928	48	4653
2026-01-03 08:20:29.47	9.53	12.95	-38.5	-40.7	16.8	0.00e+00	0	57	0	739246080	48	4701
2026-01-03 08:20:30.48	9.38	12.89	-38.8	-41.1	16.4	0.00e+00	0	57	0	740294656	48	4904
2026-01-03 08:20:31.49	9.22	12.83	-39.0	-41.4	16.0	0.00e+00	0	57	0	742391808	48	5065
2026-01-03 08:20:32.50	9.07	12.76	-38.9	-41.3	16.1	0.00e+00	0	57	0	744488960	48	5018
2026-01-03 08:20:33.51	8.92	12.70	-38.9	-41.4	16.1	0.00e+00	0	57	0	746586112	48	5049
2026-01-03 08:20:34.52	8.77	12.64	-38.8	-41.3	16.1	0.00e+00	0	57	0	748683264	48	4991
2026-01-03 08:20:35.53	8.62	12.58	-38.9	-41.4	16.0	0.00e+00	0	56	0	749731840	48	5048
2026-01-03 08:20:36.54	8.47	12.51	-38.8	-41.2	16.1	0.00e+00	0	57	0	751828992	48	4947
2026-01-03 08:20:37.55	8.32	12.45	-38.5	-40.8	16.5	0.00e+00	0	57	0	753926144	48	4714
2026-01-03 08:20:38.56	8.17	12.39	-38.2	-40.5	16.8	0.00e+00	0	57	0	756023296	48	4553
2026-01-03 08:20:39.57	8.02	12.32	-38.2	-40.3	16.8	0.00e+00	0	57	0	758120448	48	4485
2026-01-03 08:20:40.58	7.87	12.26	-37.9	-40.0	17.0	0.00e+00	0	57	0	759169024	47	4569
2026-01-03 08:20:41.59	7.73	12.20	-37.7	-39.9	17.1	0.00e+00	0	57	0	761266176	47	4496
2026-01-03 08:20:42.60	7.58	12.14	-37.8	-40.0	16.9	0.00e+00	0	57	0	763363328	47	4551
2026-01-03 08:20:43.61	7.44	12.07	-38.1	-40.5	16.3	0.00e+00	0	57	0	765460480	47	4816
2026-01-03 08:20:44.62	7.29	12.01	-38.6	-41.2	15.4	0.00e+00	0	57	0	767557632	47	5268
2026-01-03 08:20:45.63	7.15	11.95	-39.2	-42.2	14.3	0.00e+00	0	57	0	768606208	48	5550
2026-01-03 08:20:46.64	7.00	11.88	-39.8	-43.6	12.6	2.59e-05	0	57	0	770703360	50	5793
2026-01-03 08:20:47.65	6.86	11.82	-40.2	-44.6	11.3	3.68e-04	0	57	0	772800512	50	6528
2026-01-03 08:20:48.66	6.72	11.76	-40.5	-45.8	9.8	6.40e-03	0	57	0	774897664	51	7053
2026-01-03 08:20:49.67	6.58	11.69	-40.7	-47.1	8.1	3.66e-02	0	57	0	776994816	52	7789
2026-01-03 08:20:50.68	6.44	11.63	-40.8	-48.3	6.7	1.16e-01	0	57	0	778043392	52	8951
2026-01-03 08:20:51.69	6.29	11.57	-40.9	-49.9	5.3	3.16e-01	0	57	0	780140544	52	10730
2026-01-03 08:20:52.70	6.16	11.50	-40.8	-51.2	4.5	8.77e-01	0	57	0	782237696	52	12500
2026-01-03 08:20:53.71	6.02	11.44	-40.8	-51.9	4.2	1.31e+00	0	57	0	783286272	52	13514
2026-01-03 08:20:54.71	5.88	11.38	-40.6	-52.3	4.1	1.40e+00	0	57	0	783286272	52	14146
2026-01-03 08:20:55.72	5.74	11.31	-40.5	-52.5	4.0	1.47e+00	0	57	104	783286272	52	14471
2026-01-03 08:20:56.73	5.60	11.25	-40.4	-53.0	3.8	1.49e+00	0	57	104	783286272	52	15389
2026-01-03 08:20:57.74	5.47	11.19	-40.3	-53.4	3.8	1.49e+00	0	57	104	783286272	52	16120
2026-01-03 08:20:58.75	5.33	11.12	-40.2	-53.7	3.8	1.49e+00	0	57	104	783286272	52	16575
2026-01-03 08:20:59.76	5.20	11.06	-40.2	-54.5	3.8	1.49e+00	0	57	104	783286272	52	18156
2026-01-03 08:21:00.77	5.06	11.00	-40.0	-54.5	3.8	1.49e+00	0	57	104	783286272	51	19379
2026-01-03 08:21:01.78	4.93	10.93	-40.2	-54.1	3.8	1.49e+00	0	57	104	783286272	51	18346
2026-01-03 08:21:02.79	4.79	10.87	-39.9	-54.5	3.8	1.49e+00	0	57	104	783286272	51	19370
2026-01-03 08:21:03.80	4.66	10.81	-40.1	-54.6	3.8	1.49e+00	0	57	104	783286272	51	19427
2026-01-03 08:21:04.81	4.53	10.75	-40.2	-54.6	3.8	1.49e+00	0	57	104	783286272	51	19532
2026-01-03 08:21:05.82	4.40	10.68	-40.1	-54.6	3.8	1.49e+00	0	57	104	783286272	51	19577
2026-01-03 08:21:06.83	4.26	10.62	-40.0	-54.6	3.8	1.49e+00	0	57	104	783286272	51	19435
2026-01-03 08:21:07.84	4.13	10.56	-40.1	-54.7	3.8	1.49e+00	0	57	104	783286272	51	19647
2026-01-03 08:21:08.85	4.00	10.49	-39.9	-54.5	3.8	1.49e+00	0	57	104	783286272	51	19362
2026-01-03 08:21:09.86	3.87	10.43	-39.9	-54.6	3.8	1.49e+00	0	57	104	783286272	51	19400
2026-01-03 08:21:10.87	3.74	10.37	-40.0	-54.6	3.8	1.49e+00	0	57	104	783286272	51	19449
2026-01-03 08:21:11.88	3.62	10.30	-39.9	-54.5	3.8	1.49e+00	0	57	104	783286272	51	19279
2026-01-03 08:21:12.89	3.49	10.24	-40.0	-54.6	3.8	1.49e+00	0	57	104	783286272	51	19459
2026-01-03 08:21:13.90	3.36	10.18	-40.0	-54.6	3.8	1.49e+00	0	57	104	783286272	51	19468
2026-01-03 08:21:14.91	3.23	10.11	-39.9	-54.5	3.8	1.49e+00	0	57	104	783286272	51	19229
2026-01-03 08:21:15.92	3.11	10.05	-40.0	-54.5	3.8	1.49e+00	0	57	104	783286272	51	19364
2026-01-03 08:21:16.93	2.98	9.99	-39.8	-54.4	3.8	1.49e+00	0	57	104	783286272	51	19091
2026-01-03 08:21:17.94	2.86	9.93	-39.9	-54.5	3.8	1.49e+00	0	57	104	783286272	51	19358
2026-01-03 08:21:18.95	2.73	9.86	-39.9	-54.5	3.8	1.49e+00	0	57	104	783286272	51	19380
2026-01-03 08:21:19.96	2.61	9.80	-39.9	-54.5	3.8	1.49e+00	0	57	104	783286272	51	19381
2026-01-03 08:21:20.97	2.49	9.74	-39.9	-54.5	3.8	1.49e+00	0	57	104	783286272	51	19267
2026-01-03 08:21:21.98	2.36	9.67	-39.9	-54.5	3.8	1.49e+00	0	57	104	783286272	51	19265
2026-01-03 08:21:22.99	2.24	9.61	-39.9	-54.5	3.8	1.49e+00	0	57	104	783286272	51	19288
2026-01-03 08:21:24.00	2.12	9.55	-39.9	-54.5	3.8	1.49e+00	0	57	104	783286272	51	19256
2026-01-03 08:21:25.01	2.00	9.49	-39.9	-54.6	3.8	1.49e+00	0	57	104	783286272	51	19438
2026-01-03 08:21:26.02	1.88	9.42	-39.5	-54.5	3.8	1.49e+00	0	57	104	783286272	51	19237
2026-01-03 08:21:27.03	1.76	9.36	-39.9	-54.5	3.8	1.49e+00	0	57	104	783286272	51	19241
2026-01-03 08:21:28.04	1.64	9.30	-39.5	-54.5	3.8	1.49e+00	0	57	104	783286272	50	20311
2026-01-03 08:21:29.05	1.52	9.24	-39.9	-54.5	3.8	1.49e+00	0	57	104	783286272	50	20469
2026-01-03 08:21:30.06	1.40	9.17	-39.9	-54.5	3.8	1.49e+00	0	57	104	783286272	50	20424
2026-01-03 08:21:31.07	1.28	9.11	-39.6	-54.5	3.8	1.49e+00	0	57	104	783286272	50	20493
2026-01-03 08:21:32.08	1.16	9.05	-39.8	-54.5	3.8	1.49e+00	0	57	104	783286272	50	20388
2026-01-03 08:21:33.09	1.05	8.99	-39.6	-54.5	3.8	1.49e+00	0	57	104	783286272	50	20345
2026-01-03 08:21:34.10	0.93	8.92	-39.6	-54.6	3.8	1.49e+00	0	57	104	783286272	50	20549
2026-01-03 08:21:35.11	0.81	8.86	-39.7	-54.5	3.8	1.49e+00	0	57	104	783286272	50	20463
2026-01-03 08:21:36.12	0.70	8.80	-39.6	-54.5	3.8	1.49e+00	0	57	104	783286272	50	20513
2026-01-03 08:21:37.13	0.58	8.74	-39.5	-54.5	3.8	1.49e+00	0	57	104	783286272	50	20342
2026-01-03 08:21:38.14	0.47	8.67	-39.7	-54.5	3.8	1.49e+00	0	57	104	783286272	50	20515
2026-01-03 08:21:39.15	0.35	8.61	-39.7	-54.4	3.8	1.49e+00	0	57	104	783286272	50	20242
2026-01-03 08:21:40.16	0.24	8.55	-39.7	-54.6	3.8	1.49e+00	0	57	104	783286272	50	20562
2026-01-03 08:21:41.17	0.13	8.49	-39.6	-54.5	3.8	1.49e+00	0	57	104	783286272	50	20310
2026-01-03 08:21:42.18	0.02	8.43	-39.6	-54.5	3.8	1.49e+00	0	57	104	783286272	50	20534
2026-01-03 08:21:43.19	359.90	8.36	-39.5	-54.5	3.8	1.49e+00	0	57	104	783286272	50	20405
2026-01-03 08:21:44.20	359.79	8.30	-39.5	-54.5	3.8	1.49e+00	0	57	104	783286272	50	20438
2026-01-03 08:21:45.20	359.68	8.24	-39.5	-54.5	3.8	1.49e+00	0	57	104	783286272	50	20498
2026-01-03 08:21:46.21	359.57	8.18	-39.6	-54.6	3.8	1.49e+00	0	57	104	783286272	50	20597
2026-01-03 08:21:47.22	359.46	8.12	-39.4	-54.5	3.8	1.49e+00	0	57	104	783286272	50	20479
2026-01-03 08:21:48.23	359.35	8.06	-39.6	-54.6	3.8	1.49e+00	0	57	104	783286272	50	20554
2026-01-03 08:21:49.24	359.24	7.99	-39.2	-54.5	3.8	1.49e+00	0	57	104	783286272	50	20464
2026-01-03 08:21:50.26	359.13	7.93	-39.9	-54.5	3.8	1.49e+00	0	57	104	783286272	50	20402
2026-01-03 08:21:51.27	359.02	7.87	-44.4	-59.0	3.8	1.49e+00	0	57	104	783286272	59	20344
2026-01-03 08:21:52.28	358.92	7.81	-44.8	-59.5	3.8	1.49e+00	0	57	104	783286272	60	20477
2026-01-03 08:21:53.29	358.81	7.75	-45.0	-59.7	3.8	1.49e+00	0	57	104	783286272	60	20790
2026-01-03 08:21:54.30	358.70	7.69	-45.1	-59.8	3.8	1.49e+00	0	57	104	783286272	60	21024
2026-01-03 08:21:55.31	358.60	7.62	-45.2	-59.8	3.8	1.49e+00	0	57	104	783286272	60	21242
2026-01-03 08:21:56.32	358.49	7.56	-45.2	-59.9	3.8	1.49e+00	0	57	104	783286272	61	20181
2026-01-03 08:21:57.33	358.39	7.50	-45.3	-59.9	3.8	1.49e+00	0	57	104	783286272	61	20199
2026-01-03 08:21:58.34	358.28	7.44	-45.3	-59.9	3.8	1.49e+00	0	57	104	783286272	61	20187
2026-01-03 08:21:59.35	358.18	7.38	-45.3	-59.9	3.8	1.49e+00	0	57	104	783286272	61	20169
2026-01-03 08:22:00.37	358.07	7.32	-45.2	-59.8	3.8	1.49e+00	0	57	104	783286272	61	20008
2026-01-03 08:22:01.38	357.97	7.26	-45.2	-59.8	3.8	1.49e+00	0	57	104	783286272	61	19892
2026-01-03 08:22:02.39	357.87	7.20	-45.2	-59.7	3.8	1.49e+00	0	57	104	783286272	61	19764
2026-01-03 08:22:03.40	357.76	7.14	-45.1	-59.7	3.8	1.49e+00	0	57	104	783286272	61	19717
2026-01-03 08:22:04.41	357.66	7.07	-45.1	-59.7	3.8	1.49e+00	0	57	104	783286272	61	19627
2026-01-03 08:22:05.42	357.56	7.01	-45.1	-59.6	3.8	1.49e+00	0	57	104	783286272	61	19533
2026-01-03 08:22:06.43	357.46	6.95	-45.1	-59.6	3.8	1.49e+00	0	57	104	783286272	61	19542
2026-01-03 08:22:07.44	357.36	6.89	-45.1	-59.6	3.8	1.49e+00	0	57	104	783286272	61	19487
2026-01-03 08:22:08.45	357.26	6.83	-45.1	-59.6	3.8	1.49e+00	0	57	104	783286272	61	19450
2026-01-03 08:22:09.46	357.16	6.77	-45.1	-59.6	3.8	1.49e+00	0	57	104	783286272	61	19488
2026-01-03 08:22:10.48	357.06	6.71	-45.1	-59.6	3.8	1.49e+00	0	57	104	783286272	61	19506
2026-01-03 08:22:11.49	356.96	6.65	-45.1	-59.6	3.8	1.49e+00	0	57	104	783286272	61	19408
2026-01-03 08:22:12.50	356.86	6.59	-45.0	-59.6	3.8	1.49e+00	0	57	104	783286272	61	19421
2026-01-03 08:22:13.51	356.76	6.53	-45.0	-59.6	3.8	1.49e+00	0	57	104	783286272	61	19451
2026-01-03 08:22:14.52	356.66	6.47	-45.0	-59.6	3.8	1.49e+00	0	57	104	783286272	61	19403
2026-01-03 08:22:15.53	356.56	6.41	-45.0	-59.6	3.8	1.49e+00	0	57	104	783286272	61	19418
2026-01-03 08:22:16.54	356.47	6.35	-45.1	-59.6	3.8	1.49e+00	0	57	104	783286272	61	19409
2026-01-03 08:22:17.55	356.37	6.29	-45.0	-59.6	3.8	1.49e+00	0	57	104	783286272	61	19472
2026-01-03 08:22:18.57	356.27	6.23	-45.0	-59.6	3.8	1.49e+00	0	57	104	783286272	61	19399
2026-01-03 08:22:19.57	356.18	6.17	-45.0	-59.6	3.8	1.49e+00	0	57	104	783286272	61	19451
2026-01-03 08:22:20.59	356.08	6.11	-45.0	-59.6	3.8	1.49e+00	0	57	104	783286272	61	19410
2026-01-03 08:22:21.59	355.99	6.05	-45.0	-59.6	3.8	1.49e+00	0	57	104	783286272	61	19442
2026-01-03 08:22:22.61	355.89	5.99	-45.0	-59.6	3.8	1.49e+00	0	57	104	783286272	61	19466
2026-01-03 08:22:23.62	355.80	5.93	-45.0	-59.6	3.8	1.49e+00	0	57	104	783286272	61	19394
2026-01-03 08:22:24.63	355.70	5.87	-45.0	-59.5	3.8	1.49e+00	0	57	104	783286272	61	19379
2026-01-03 08:22:25.64	355.61	5.81	-45.0	-59.6	3.8	1.49e+00	0	57	104	783286272	61	19459
2026-01-03 08:22:26.65	355.52	5.75	-45.0	-59.5	3.8	1.49e+00	0	57	104	783286272	61	19385
2026-01-03 08:22:27.66	355.43	5.69	-45.0	-59.5	3.8	1.49e+00	0	57	104	783286272	61	19350
2026-01-03 08:22:28.68	355.33	5.63	-45.0	-59.5	3.8	1.49e+00	0	57	104	783286272	61	19375
2026-01-03 08:22:29.69	355.24	5.57	-45.0	-59.5	3.8	1.49e+00	0	57	104	783286272	61	19345
2026-01-03 08:22:30.70	355.15	5.51	-45.0	-59.5	3.8	1.49e+00	0	57	104	783286272	61	19384
2026-01-03 08:22:31.71	355.06	5.45	-45.0	-59.5	3.8	1.49e+00	0	57	104	783286272	61	19345
2026-01-03 08:22:32.72	354.97	5.39	-45.0	-59.5	3.8	1.49e+00	0	57	104	783286272	61	19361
2026-01-03 08:22:33.73	354.88	5.33	-45.0	-59.6	3.8	1.49e+00	0	57	104	783286272	61	19401
2026-01-03 08:22:34.74	354.79	5.27	-45.0	-59.5	3.8	1.49e+00	0	57	104	783286272	61	19357
2026-01-03 08:22:35.75	354.70	5.22	-45.0	-59.5	3.8	1.49e+00	0	57	104	783286272	61	19281
2026-01-03 08:22:36.76	354.61	5.16	-45.0	-59.5	3.8	1.49e+00	0	57	104	783286272	61	19317
2026-01-03 08:22:37.77	354.52	5.10	-45.0	-59.5	3.8	1.49e+00	0	57	104	783286272	61	19355
2026-01-03 08:22:38.79	354.43	5.04	-45.0	-59.5	3.8	1.49e+00	0	57	104	783286272	61	19342
2026-01-03 08:22:39.80	354.34	4.98	-45.0	-59.5	3.8	1.49e+00	0	57	104	783286272	61	19362
2026-01-03 08:22:40.81	354.26	4.92	-45.0	-59.5	3.8	1.49e+00	0	57	104	783286272	61	19375
2026-01-03 08:22:41.82	354.17	4.86	-45.0	-59.5	3.8	1.49e+00	0	57	104	783286272	61	19299
2026-01-03 08:22:42.83	354.08	4.80	-45.0	-59.5	3.8	1.49e+00	0	57	104	783286272	61	19380
2026-01-03 08:22:43.84	353.99	4.75	-45.0	-59.5	3.8	1.49e+00	0	57	104	783286272	61	19309
2026-01-03 08:22:44.85	353.91	4.69	-45.0	-59.5	3.8	1.49e+00	0	57	104	783286272	61	19310
2026-01-03 08:22:45.86	353.82	4.63	-45.0	-59.5	3.8	1.49e+00	0	57	104	783286272	61	19374
2026-01-03 08:22:46.87	353.74	4.57	-45.0	-59.5	3.8	1.49e+00	0	57	104	783286272	61	19353
2026-01-03 08:22:47.89	353.65	4.51	-45.0	-59.5	3.8	1.49e+00	0	57	104	783286272	61	19334
2026-01-03 08:22:48.90	353.57	4.45	-45.0	-59.5	3.8	1.49e+00	0	57	104	783286272	61	19250
2026-01-03 08:22:49.91	353.48	4.40	-45.0	-59.6	3.8	1.49e+00	0	57	104	783286272	61	19391
2026-01-03 08:22:50.92	353.40	4.34	-45.0	-59.5	3.8	1.49e+00	0	57	104	783286272	61	19362
2026-01-03 08:22:51.93	353.31	4.28	-45.0	-59.5	3.8	1.49e+00	0	57	104	783286272	61	19323
2026-01-03 08:22:52.94	353.23	4.22	-45.0	-59.5	3.8	1.49e+00	0	57	104	783286272	61	19253
2026-01-03 08:22:53.95	353.15	4.16	-45.0	-59.5	3.8	1.49e+00	0	57	104	783286272	61	19331
2026-01-03 08:22:54.96	353.07	4.11	-45.0	-59.5	3.8	1.49e+00	0	57	104	783286272	61	19283
2026-01-03 08:22:55.97	352.98	4.05	-45.0	-59.5	3.8	1.49e+00	0	57	104	783286272	61	19333
2026-01-03 08:22:56.98	352.90	3.99	-45.0	-59.5	3.8	1.49e+00	0	57	104	783286272	61	19314
2026-01-03 08:22:58.00	352.82	3.93	-45.0	-59.5	3.8	1.49e+00	0	57	104	783286272	61	19347
2026-01-03 08:22:59.01	352.74	3.88	-45.0	-59.5	3.8	1.49e+00	0	57	104	783286272	61	19325
2026-01-03 08:23:00.02	352.66	3.82	-45.0	-59.5	3.8	1.49e+00	0	57	104	783286272	61	19294
2026-01-03 08:23:01.03	352.58	3.76	-45.0	-59.5	3.8	1.49e+00	0	57	104	783286272	61	19334
2026-01-03 08:23:02.04	352.50	3.70	-45.0	-59.5	3.8	1.49e+00	0	57	104	783286272	61	19288
2026-01-03 08:23:03.05	352.42	3.65	-45.0	-59.5	3.8	1.49e+00	0	57	104	783286272	61	19283
2026-01-03 08:23:04.06	352.34	3.59	-45.0	-59.5	3.8	1.49e+00	0	57	104	783286272	61	19384
2026-01-03 08:23:05.07	352.26	3.53	-45.0	-59.5	3.8	1.49e+00	0	57	104	783286272	61	19284
