passes_logs/2026/01/03/R2.0S_Moscow/R2.0S_Moscow__20260103_083122_NOAA_20_JPSS-1_rec.log

#Pass ID: 20260103_083122_NOAA 20 (JPSS-1)
#Satellite: NOAA 20 (JPSS-1)
#Configuration: NOAA 20
#almurnet v.1.7.20251203
#Start time: 2026-01-03 08:31:24

#Version: 2.2.20231116
#Station: R2.0S_Moscow
#Location: 37.707566 lon 55.798166 lat
#TLE: 1 43013U 17073A   26002.21975278  .00000202  00000+0  11669-3 0  9999
#TLE: 2 43013  98.7622 303.2950 0001915  57.9213 302.2149 14.19532512420923

#Time	Az	El	Level	Level2	SNR	BER	BlckErr	Temp	State	Recorded	gain1	gain2
2026-01-03 08:31:24.05	119.67	2.11	-14.9	-29.4	4.0	1.50e+00	0	48	0	0	13	9546
2026-01-03 08:31:25.05	119.61	2.17	-21.5	-38.3	3.7	1.49e+00	0	48	104	0	14	25203
2026-01-03 08:31:26.06	119.56	2.23	-20.5	-36.2	4.0	1.49e+00	0	48	104	0	17	16556
2026-01-03 08:31:27.07	119.50	2.29	-19.5	-35.1	3.7	1.49e+00	0	48	104	0	15	16449
2026-01-03 08:31:28.08	119.44	2.35	-21.1	-38.6	4.1	1.49e+00	0	48	104	0	17	21958
2026-01-03 08:31:29.09	119.38	2.41	-21.0	-39.2	3.9	1.50e+00	0	48	104	0	16	24852
2026-01-03 08:31:30.10	119.32	2.47	-21.4	-39.4	3.7	1.50e+00	0	48	104	0	16	25270
2026-01-03 08:31:31.11	119.26	2.53	-23.6	-39.8	3.8	1.49e+00	0	48	104	0	17	24986
2026-01-03 08:31:32.12	119.20	2.59	-23.4	-39.7	4.0	1.49e+00	0	48	104	0	17	24768
2026-01-03 08:31:33.13	119.14	2.65	-19.9	-35.2	3.9	1.50e+00	0	48	104	0	16	15615
2026-01-03 08:31:34.15	119.08	2.71	-20.5	-38.0	3.7	1.49e+00	0	48	104	0	13	25686
2026-01-03 08:31:35.16	119.02	2.77	-22.9	-37.8	4.0	1.50e+00	0	48	104	0	15	22514
2026-01-03 08:31:36.17	118.96	2.83	-22.6	-35.1	3.7	1.49e+00	0	49	104	0	15	16432
2026-01-03 08:31:37.18	118.90	2.89	-19.1	-35.9	3.7	1.49e+00	0	49	104	0	13	20213
2026-01-03 08:31:38.19	118.84	2.95	-17.6	-33.5	3.4	1.49e+00	0	49	104	0	8	20492
2026-01-03 08:31:39.20	118.78	3.01	-15.8	-30.4	4.1	1.50e+00	0	49	104	0	8	14225
2026-01-03 08:31:40.21	118.72	3.07	-22.8	-38.2	3.9	1.49e+00	0	49	104	0	16	22088
2026-01-03 08:31:41.22	118.66	3.13	-20.9	-33.0	3.7	1.49e+00	0	49	104	0	1	28867
2026-01-03 08:31:42.23	118.60	3.20	-20.7	-32.0	3.7	1.50e+00	0	49	104	0	2	24339
2026-01-03 08:31:43.24	118.53	3.26	-14.4	-29.2	3.5	1.50e+00	0	49	104	0	13	9299
2026-01-03 08:31:44.26	118.47	3.32	-21.3	-38.1	3.6	1.49e+00	0	49	104	0	17	20731
2026-01-03 08:31:45.27	118.41	3.38	-21.4	-35.6	3.8	1.50e+00	0	49	104	0	15	17364
2026-01-03 08:31:46.28	118.34	3.44	-23.1	-36.0	3.7	1.49e+00	0	49	104	0	14	19330
2026-01-03 08:31:47.29	118.28	3.50	-20.2	-37.2	3.5	1.49e+00	0	49	0	0	11	26214
2026-01-03 08:31:48.30	118.22	3.57	-14.6	-28.3	3.8	1.50e+00	0	49	104	0	1	16761
2026-01-03 08:31:49.31	118.15	3.63	-22.6	-38.5	3.4	1.50e+00	0	49	104	0	9	34087
2026-01-03 08:31:50.32	118.09	3.69	-19.9	-34.7	3.9	1.50e+00	0	49	104	0	11	19642
2026-01-03 08:31:51.33	118.02	3.75	-22.6	-38.6	3.7	1.50e+00	0	50	104	0	17	21975
2026-01-03 08:31:52.34	117.96	3.81	-23.1	-36.9	4.1	1.49e+00	0	50	104	0	16	19041
2026-01-03 08:31:53.35	117.89	3.88	-21.6	-39.6	3.6	1.49e+00	0	50	104	0	15	27499
2026-01-03 08:31:54.37	117.83	3.94	-20.7	-37.8	4.0	1.50e+00	0	50	104	0	17	20043
2026-01-03 08:31:55.38	117.76	4.00	-22.2	-34.0	3.8	1.50e+00	0	50	104	0	14	15351
2026-01-03 08:31:56.39	117.70	4.06	-23.1	-37.2	3.6	1.49e+00	0	50	104	0	16	19794
2026-01-03 08:31:57.40	117.63	4.13	-20.2	-37.8	3.8	1.50e+00	0	50	104	0	17	19947
2026-01-03 08:31:58.41	117.56	4.19	-22.4	-38.8	3.8	1.49e+00	0	50	104	0	14	26629
2026-01-03 08:31:59.42	117.50	4.25	-23.4	-38.8	3.8	1.49e+00	0	50	104	0	16	23609
2026-01-03 08:32:00.43	117.43	4.32	-23.0	-39.5	3.9	1.49e+00	0	50	104	0	17	24375
2026-01-03 08:32:01.44	117.36	4.38	-23.2	-39.2	3.9	1.49e+00	0	50	104	0	17	23508
2026-01-03 08:32:02.45	117.30	4.44	-20.8	-36.8	3.7	1.49e+00	0	50	104	0	15	19914
2026-01-03 08:32:03.46	117.23	4.51	-21.2	-38.9	3.8	1.49e+00	0	50	104	0	17	22560
2026-01-03 08:32:04.47	117.16	4.57	-16.8	-33.1	4.2	1.49e+00	0	50	104	0	16	12335
2026-01-03 08:32:05.48	117.09	4.63	-21.7	-38.4	4.1	1.50e+00	0	50	0	0	17	21331
2026-01-03 08:32:06.49	117.02	4.70	-23.0	-37.7	3.8	1.50e+00	0	50	104	0	15	22096
2026-01-03 08:32:07.51	116.95	4.76	-22.8	-36.6	4.0	1.49e+00	0	51	104	0	15	19507
2026-01-03 08:32:08.52	116.88	4.83	-23.1	-38.8	3.7	1.49e+00	0	50	104	0	16	23775
2026-01-03 08:32:09.53	116.81	4.89	-22.8	-39.4	3.8	1.49e+00	0	51	104	0	16	25399
2026-01-03 08:32:10.54	116.74	4.95	-21.7	-39.0	4.0	1.50e+00	0	51	104	0	17	23019
2026-01-03 08:32:11.55	116.67	5.02	-21.0	-38.6	4.0	1.49e+00	0	51	104	0	17	21925
2026-01-03 08:32:12.56	116.60	5.08	-20.1	-35.5	3.8	1.49e+00	0	51	104	0	15	17166
2026-01-03 08:32:13.57	116.53	5.15	-21.1	-38.0	3.9	1.50e+00	0	51	0	0	16	21519
2026-01-03 08:32:14.58	116.46	5.21	-21.5	-34.4	3.6	1.49e+00	0	51	104	0	15	15060
2026-01-03 08:32:15.59	116.39	5.28	-14.1	-29.3	3.7	1.49e+00	0	51	104	0	4	15811
2026-01-03 08:32:16.61	116.31	5.34	-17.5	-33.6	3.8	1.50e+00	0	51	104	0	8	20586
2026-01-03 08:32:17.62	116.24	5.41	-13.7	-29.3	3.9	1.50e+00	0	51	104	0	0	20071
2026-01-03 08:32:18.63	116.17	5.47	-13.2	-29.8	3.9	1.50e+00	0	51	104	0	0	21026
2026-01-03 08:32:19.64	116.10	5.54	-22.2	-38.3	3.5	1.50e+00	0	51	104	0	6	39861
2026-01-03 08:32:20.65	116.02	5.60	-14.9	-30.8	3.9	1.50e+00	0	51	104	0	2	21104
2026-01-03 08:32:21.66	115.95	5.67	-15.1	-29.5	3.5	1.50e+00	0	51	104	0	0	20442
2026-01-03 08:32:22.67	115.87	5.73	-14.5	-29.8	4.0	1.49e+00	0	51	104	0	0	21216
2026-01-03 08:32:23.68	115.80	5.80	-14.1	-29.1	3.9	1.50e+00	0	51	104	0	0	19537
2026-01-03 08:32:24.69	115.72	5.87	-12.6	-29.3	4.0	1.50e+00	0	51	104	0	4	15771
2026-01-03 08:32:25.70	115.65	5.93	-22.1	-32.3	3.7	1.49e+00	0	51	104	0	1	26691
2026-01-03 08:32:26.72	115.57	6.00	-14.5	-29.6	3.9	1.50e+00	0	51	104	0	0	20776
2026-01-03 08:32:27.73	115.50	6.06	-14.0	-31.0	3.9	1.50e+00	0	52	104	0	2	21626
2026-01-03 08:32:28.74	115.42	6.13	-23.2	-38.3	3.3	1.50e+00	0	51	104	0	7	37677
2026-01-03 08:32:29.75	115.34	6.20	-21.0	-37.3	3.7	1.50e+00	0	52	104	0	10	28166
2026-01-03 08:32:30.76	115.27	6.26	-22.7	-39.6	3.9	1.50e+00	0	52	104	0	16	26109
2026-01-03 08:32:31.77	115.19	6.33	-15.8	-30.5	3.7	1.50e+00	0	52	104	0	11	12137
2026-01-03 08:32:32.78	115.11	6.40	-17.7	-32.9	3.5	1.50e+00	0	52	104	0	6	21505
2026-01-03 08:32:33.79	115.03	6.46	-17.4	-32.7	3.6	1.50e+00	0	52	104	0	6	20841
2026-01-03 08:32:34.80	114.96	6.53	-22.8	-40.1	4.0	1.50e+00	0	52	104	0	15	29243
2026-01-03 08:32:35.81	114.88	6.60	-23.3	-40.7	4.0	1.50e+00	0	52	104	0	17	27902
2026-01-03 08:32:36.83	114.80	6.67	-21.9	-36.7	3.7	1.50e+00	0	52	104	0	13	22065
2026-01-03 08:32:37.84	114.72	6.73	-23.2	-40.3	3.9	1.50e+00	0	52	104	0	18	25084
2026-01-03 08:32:38.85	114.64	6.80	-22.4	-38.6	3.9	1.50e+00	0	52	104	0	16	23143
2026-01-03 08:32:39.86	114.56	6.87	-21.3	-36.5	3.7	1.50e+00	0	52	104	0	11	24279
2026-01-03 08:32:40.87	114.48	6.94	-21.8	-37.1	3.9	1.50e+00	0	52	0	0	14	21967
2026-01-03 08:32:41.88	114.39	7.00	-19.7	-37.4	3.8	1.50e+00	0	52	104	0	16	20150
2026-01-03 08:32:42.89	114.31	7.07	-19.6	-34.4	3.7	1.49e+00	0	52	104	0	15	15165
2026-01-03 08:32:43.90	114.23	7.14	-21.0	-37.3	3.9	1.50e+00	0	52	104	0	13	23634
2026-01-03 08:32:44.91	114.15	7.21	-22.7	-38.9	3.8	1.50e+00	0	52	104	0	17	22701
2026-01-03 08:32:45.92	114.07	7.28	-16.9	-33.7	3.8	1.50e+00	0	52	104	0	10	18539
2026-01-03 08:32:46.93	113.98	7.35	-18.5	-33.8	3.7	1.50e+00	0	52	104	0	7	22342
2026-01-03 08:32:47.95	113.90	7.42	-20.4	-36.4	4.0	1.49e+00	0	52	104	0	13	21501
2026-01-03 08:32:48.96	113.81	7.48	-21.2	-35.7	3.9	1.50e+00	0	52	104	0	14	18568
2026-01-03 08:32:49.97	113.73	7.55	-20.7	-37.2	4.0	1.50e+00	0	52	104	0	14	22236
2026-01-03 08:32:50.98	113.65	7.62	-22.6	-38.1	3.9	1.50e+00	0	52	104	0	16	21956
2026-01-03 08:32:51.99	113.56	7.69	-20.3	-37.4	4.1	1.50e+00	0	52	104	0	17	19098
2026-01-03 08:32:53.00	113.48	7.76	-23.4	-37.5	3.8	1.50e+00	0	53	104	0	14	22854
2026-01-03 08:32:54.01	113.39	7.83	-22.8	-39.0	4.4	1.50e+00	0	52	104	0	17	22827
2026-01-03 08:32:55.02	113.30	7.90	-23.1	-38.0	4.6	1.49e+00	0	53	104	0	17	20315
2026-01-03 08:32:56.04	113.22	7.97	-23.2	-38.0	4.4	1.48e+00	0	53	104	0	17	20363
2026-01-03 08:32:57.05	113.13	8.04	-20.4	-37.2	4.8	1.47e+00	0	53	104	0	17	18567
2026-01-03 08:32:58.06	113.04	8.11	-43.2	-57.8	3.8	1.50e+00	0	53	104	0	56	21123
2026-01-03 08:32:59.07	112.95	8.18	-26.0	-41.1	4.5	1.48e+00	0	53	104	0	25	18379
2026-01-03 08:33:00.08	112.86	8.25	-19.9	-36.3	4.1	1.46e+00	0	53	104	0	15	18834
2026-01-03 08:33:01.09	112.77	8.32	-23.3	-38.2	4.0	1.50e+00	0	53	104	0	17	20966
2026-01-03 08:33:02.10	112.68	8.39	-20.9	-35.6	4.1	1.50e+00	0	53	104	0	16	16452
2026-01-03 08:33:03.11	112.60	8.46	-23.7	-39.0	4.4	1.49e+00	0	53	104	0	19	20315
2026-01-03 08:33:04.12	112.50	8.53	-24.9	-40.6	4.7	1.47e+00	0	53	104	0	21	21840
2026-01-03 08:33:05.13	112.41	8.60	-24.3	-37.7	3.9	1.47e+00	0	53	104	0	15	22051
2026-01-03 08:33:06.14	112.32	8.68	-25.6	-41.5	4.5	1.49e+00	0	53	104	0	23	21719
2026-01-03 08:33:07.15	112.23	8.75	-24.1	-40.7	4.6	1.48e+00	0	53	104	0	24	18703
2026-01-03 08:33:08.16	112.14	8.82	-24.9	-41.0	4.4	1.47e+00	0	53	104	0	24	19179
2026-01-03 08:33:09.17	112.05	8.89	-26.6	-41.8	4.7	1.45e+00	0	53	104	0	26	18939
2026-01-03 08:33:10.18	111.95	8.96	-27.2	-43.1	5.0	1.45e+00	0	53	104	0	29	18484
2026-01-03 08:33:11.19	111.86	9.03	-28.7	-43.2	4.8	1.46e+00	0	53	104	0	30	17603
2026-01-03 08:33:12.20	111.77	9.10	-27.0	-43.8	4.5	1.44e+00	0	53	104	0	28	21173
2026-01-03 08:33:13.21	111.67	9.18	-30.7	-44.1	5.0	1.40e+00	0	53	104	0	33	16412
2026-01-03 08:33:14.22	111.58	9.25	-31.7	-45.1	4.5	1.40e+00	0	53	104	0	25	29034
2026-01-03 08:33:15.23	111.48	9.32	-28.3	-42.6	4.4	1.48e+00	0	53	0	0	27	19477
2026-01-03 08:33:16.24	111.38	9.39	-33.7	-47.6	4.9	1.46e+00	0	53	104	0	39	17348
2026-01-03 08:33:17.25	111.29	9.47	-33.1	-46.7	4.8	1.39e+00	0	53	104	0	43	12518
2026-01-03 08:33:18.26	111.19	9.54	-35.6	-48.3	4.7	1.38e+00	0	53	104	0	44	14145
2026-01-03 08:33:19.27	111.09	9.61	-36.8	-48.2	4.8	1.36e+00	0	53	104	0	46	12448
2026-01-03 08:33:20.28	111.00	9.68	-37.1	-47.3	6.1	4.66e-01	33	53	0	0	45	11843
2026-01-03 08:33:21.29	110.90	9.76	-36.9	-47.9	6.7	4.15e-01	27	53	0	2097152	49	10116
2026-01-03 08:33:22.30	110.80	9.83	-40.4	-48.1	7.4	3.54e-01	3	53	0	4194304	52	8691
2026-01-03 08:33:23.31	110.70	9.90	-35.1	-46.5	5.1	2.13e-01	40	53	0	6291456	40	14539
2026-01-03 08:33:24.32	110.60	9.98	-38.6	-48.4	7.4	2.19e-01	5	53	0	7340032	50	10116
2026-01-03 08:33:25.33	110.50	10.05	-41.0	-47.8	7.6	1.71e-01	5	54	0	9437184	52	8423
2026-01-03 08:33:26.34	110.40	10.12	-40.7	-46.8	9.1	7.76e-02	0	53	0	11534336	52	7510
2026-01-03 08:33:27.35	110.30	10.20	-39.1	-47.0	8.8	9.07e-02	0	54	0	13631488	52	7691
2026-01-03 08:33:28.36	110.19	10.27	-40.3	-46.6	10.2	9.03e-02	0	54	0	15728640	51	7728
2026-01-03 08:33:29.37	110.09	10.35	-41.1	-46.4	10.6	2.84e-02	0	54	0	16777216	53	6764
2026-01-03 08:33:30.38	109.99	10.42	-41.0	-46.1	10.7	2.99e-02	0	54	0	18874368	53	6523
2026-01-03 08:33:31.39	109.88	10.49	-41.1	-46.0	11.1	1.64e-02	0	54	0	20971520	53	6453
2026-01-03 08:33:32.40	109.78	10.57	-40.5	-45.0	12.2	5.34e-03	0	54	0	23068672	52	6073
2026-01-03 08:33:33.41	109.68	10.64	-40.5	-44.6	12.4	2.91e-03	0	53	0	25165824	52	5833
2026-01-03 08:33:34.42	109.57	10.72	-40.8	-44.4	12.9	1.56e-03	0	54	0	26214400	52	5670
2026-01-03 08:33:35.43	109.46	10.79	-40.9	-44.5	12.8	8.42e-04	0	54	0	28311552	52	5787
2026-01-03 08:33:36.44	109.36	10.87	-40.9	-44.4	12.9	1.04e-03	0	54	0	30408704	52	5704
2026-01-03 08:33:37.45	109.25	10.94	-40.8	-44.5	12.9	4.84e-04	0	54	0	32505856	52	5751
2026-01-03 08:33:38.46	109.14	11.02	-40.7	-44.3	13.1	1.26e-03	0	54	0	34603008	52	5645
2026-01-03 08:33:39.47	109.04	11.09	-40.8	-44.4	13.0	1.27e-04	0	54	0	35651584	52	5697
2026-01-03 08:33:40.49	108.93	11.17	-40.4	-44.1	13.3	6.48e-05	0	54	0	37748736	52	5518
2026-01-03 08:33:41.49	108.82	11.25	-40.6	-43.7	13.8	2.97e-05	0	54	0	39845888	52	5257
2026-01-03 08:33:42.50	108.71	11.32	-40.6	-43.8	13.7	1.52e-05	0	54	0	41943040	52	5292
2026-01-03 08:33:43.51	108.60	11.40	-40.5	-43.7	13.8	1.67e-05	0	54	0	44040192	52	5238
2026-01-03 08:33:44.53	108.49	11.47	-40.4	-43.5	14.0	9.10e-06	0	54	0	45088768	52	5106
2026-01-03 08:33:45.53	108.38	11.55	-40.3	-43.3	14.2	3.80e-06	0	54	0	47185920	52	5013
2026-01-03 08:33:46.55	108.26	11.63	-40.3	-43.3	14.2	1.44e-05	0	54	0	49283072	52	5007
2026-01-03 08:33:47.56	108.15	11.70	-40.4	-43.4	14.2	3.00e-06	0	54	0	51380224	52	5062
2026-01-03 08:33:48.57	108.04	11.78	-40.4	-43.4	14.1	4.50e-06	0	54	0	53477376	52	5080
2026-01-03 08:33:49.58	107.92	11.86	-40.4	-43.5	14.1	3.00e-06	0	54	0	54525952	52	5108
2026-01-03 08:33:50.59	107.81	11.93	-40.4	-43.5	14.1	7.00e-07	0	54	0	56623104	52	5109
2026-01-03 08:33:51.60	107.69	12.01	-40.4	-43.5	14.1	3.80e-06	0	54	0	58720256	52	5111
2026-01-03 08:33:52.61	107.58	12.09	-40.3	-43.3	14.2	2.59e-05	0	54	0	60817408	52	5023
2026-01-03 08:33:53.62	107.46	12.16	-40.3	-43.2	14.4	7.60e-06	0	54	0	62914560	51	5264
2026-01-03 08:33:54.63	107.34	12.24	-40.3	-43.1	14.5	7.00e-07	0	54	0	65011712	51	5217
2026-01-03 08:33:55.64	107.23	12.32	-40.3	-43.1	14.5	3.00e-06	0	54	0	66060288	51	5215
2026-01-03 08:33:56.65	107.11	12.40	-40.2	-43.2	14.2	4.50e-06	0	54	0	68157440	51	5250
2026-01-03 08:33:57.66	106.99	12.48	-40.3	-43.2	14.4	2.33e-04	0	54	0	70254592	51	5262
2026-01-03 08:33:58.67	106.87	12.55	-40.3	-43.3	14.3	8.30e-06	0	54	0	72351744	51	5329
2026-01-03 08:33:59.68	106.75	12.63	-40.3	-43.3	14.3	3.50e-05	0	54	0	74448896	51	5322
2026-01-03 08:34:00.69	106.63	12.71	-40.2	-43.2	14.5	3.85e-04	0	54	0	75497472	51	5228
2026-01-03 08:34:01.70	106.51	12.79	-40.1	-43.0	14.6	1.98e-05	0	54	0	77594624	51	5145
2026-01-03 08:34:02.71	106.38	12.87	-40.1	-42.9	14.7	1.09e-03	0	54	0	79691776	50	5355
2026-01-03 08:34:03.72	106.26	12.94	-40.2	-43.0	14.6	4.57e-05	0	54	0	81788928	50	5431
2026-01-03 08:34:04.73	106.14	13.02	-40.2	-43.0	14.7	1.19e-03	0	54	0	83886080	50	5406
2026-01-03 08:34:05.74	106.01	13.10	-40.1	-43.0	14.7	3.85e-04	0	54	0	84934656	51	5133
2026-01-03 08:34:06.75	105.89	13.18	-40.2	-43.1	14.5	1.48e-04	0	54	0	87031808	51	5182
2026-01-03 08:34:07.76	105.76	13.26	-40.2	-43.0	14.6	4.19e-05	0	54	0	89128960	51	5149
2026-01-03 08:34:08.77	105.64	13.34	-40.1	-42.9	14.6	9.17e-04	0	54	0	91226112	50	5387
2026-01-03 08:34:09.78	105.51	13.42	-40.0	-42.8	14.8	1.35e-04	0	54	0	93323264	50	5335
2026-01-03 08:34:10.79	105.38	13.50	-40.0	-42.8	14.9	2.59e-05	0	54	0	94371840	50	5314
2026-01-03 08:34:11.80	105.25	13.58	-40.1	-42.8	14.8	1.26e-04	0	54	0	96468992	50	5339
2026-01-03 08:34:12.81	105.13	13.66	-39.7	-42.9	14.5	3.36e-04	0	54	0	98566144	50	5373
2026-01-03 08:34:13.82	105.00	13.74	-40.2	-42.9	14.8	2.84e-03	0	54	0	100663296	50	5394
2026-01-03 08:34:14.83	104.87	13.82	-40.1	-42.9	14.8	9.36e-04	0	54	0	102760448	50	5365
2026-01-03 08:34:15.84	104.73	13.90	-40.1	-42.8	14.8	1.11e-03	0	54	0	103809024	50	5338
2026-01-03 08:34:16.84	104.60	13.98	-40.0	-42.7	15.0	3.70e-04	0	54	0	105906176	50	5236
2026-01-03 08:34:17.85	104.47	14.06	-39.9	-42.6	15.2	7.60e-06	0	54	0	108003328	50	5181
2026-01-03 08:34:18.86	104.34	14.14	-39.9	-42.6	15.2	6.80e-06	0	54	0	110100480	50	5179
2026-01-03 08:34:19.87	104.20	14.22	-40.0	-42.6	15.1	2.20e-06	0	55	0	112197632	50	5189
2026-01-03 08:34:20.88	104.07	14.30	-39.9	-42.5	15.2	3.51e-04	0	55	0	113246208	50	5152
2026-01-03 08:34:21.89	103.93	14.38	-39.9	-42.5	15.3	1.44e-05	0	54	0	115343360	50	5101
2026-01-03 08:34:22.90	103.80	14.46	-39.8	-42.3	15.4	2.67e-05	0	54	0	117440512	50	5037
2026-01-03 08:34:23.91	103.66	14.54	-39.9	-42.5	15.3	3.12e-05	0	54	0	119537664	50	5138
2026-01-03 08:34:24.92	103.52	14.62	-39.9	-42.5	15.2	1.52e-04	0	55	0	121634816	50	5148
2026-01-03 08:34:25.93	103.38	14.70	-40.0	-42.6	15.1	3.00e-06	0	54	0	122683392	50	5195
2026-01-03 08:34:26.94	103.24	14.78	-39.8	-42.4	15.4	6.10e-06	0	55	0	124780544	50	5059
2026-01-03 08:34:27.95	103.10	14.86	-39.8	-42.4	15.4	1.50e-06	0	54	0	126877696	50	5086
2026-01-03 08:34:28.96	102.96	14.94	-39.8	-42.4	15.4	6.80e-06	0	55	0	128974848	50	5057
2026-01-03 08:34:29.97	102.82	15.03	-39.8	-42.4	15.4	0.00e+00	0	55	0	131072000	50	5055
2026-01-03 08:34:30.98	102.68	15.11	-39.9	-42.5	15.3	2.20e-06	0	55	0	133169152	50	5132
2026-01-03 08:34:31.99	102.54	15.19	-39.9	-42.6	15.2	0.00e+00	0	55	0	134217728	50	5195
2026-01-03 08:34:33.00	102.39	15.27	-39.9	-42.5	15.3	0.00e+00	0	55	0	136314880	50	5101
2026-01-03 08:34:34.01	102.25	15.35	-39.7	-42.2	15.5	0.00e+00	0	54	0	138412032	50	4983
2026-01-03 08:34:35.02	102.10	15.43	-39.6	-42.1	15.8	0.00e+00	0	55	0	140509184	50	4871
2026-01-03 08:34:36.03	101.96	15.52	-39.7	-42.3	15.6	0.00e+00	0	55	0	142606336	50	4986
2026-01-03 08:34:37.04	101.81	15.60	-39.8	-42.3	15.5	0.00e+00	0	55	0	143654912	50	5015
2026-01-03 08:34:38.05	101.66	15.68	-39.8	-42.3	15.5	0.00e+00	0	55	0	145752064	50	4998
2026-01-03 08:34:39.06	101.51	15.76	-39.7	-42.2	15.6	0.00e+00	0	55	0	147849216	50	4934
2026-01-03 08:34:40.07	101.36	15.84	-39.6	-42.1	15.7	0.00e+00	0	55	0	149946368	50	4902
2026-01-03 08:34:41.07	101.21	15.93	-39.6	-42.1	15.8	0.00e+00	0	55	0	152043520	50	4875
2026-01-03 08:34:42.08	101.06	16.01	-39.7	-42.2	15.7	0.00e+00	0	55	0	153092096	50	4946
2026-01-03 08:34:43.09	100.91	16.09	-39.7	-42.1	15.7	0.00e+00	0	55	0	155189248	50	4918
2026-01-03 08:34:44.10	100.76	16.17	-39.7	-42.2	15.7	0.00e+00	0	55	0	157286400	50	4936
2026-01-03 08:34:45.11	100.60	16.26	-39.8	-42.3	15.6	0.00e+00	0	55	0	159383552	50	4991
2026-01-03 08:34:46.12	100.45	16.34	-39.8	-42.3	15.6	0.00e+00	0	55	0	161480704	50	4990
2026-01-03 08:34:47.13	100.29	16.42	-39.7	-42.2	15.7	0.00e+00	0	55	0	162529280	50	4939
2026-01-03 08:34:48.14	100.14	16.50	-39.8	-42.3	15.6	0.00e+00	0	55	0	164626432	50	5013
2026-01-03 08:34:49.15	99.98	16.59	-39.9	-42.4	15.4	0.00e+00	0	55	0	166723584	50	5100
2026-01-03 08:34:50.16	99.82	16.67	-39.9	-42.4	15.5	0.00e+00	0	55	0	168820736	50	5087
2026-01-03 08:34:51.17	99.66	16.75	-40.0	-42.6	15.3	0.00e+00	0	55	0	170917888	50	5190
2026-01-03 08:34:52.18	99.50	16.84	-40.0	-42.6	15.3	0.00e+00	0	55	0	171966464	50	5196
2026-01-03 08:34:53.19	99.34	16.92	-40.0	-42.6	15.3	0.00e+00	0	55	0	174063616	50	5179
2026-01-03 08:34:54.20	99.18	17.00	-39.9	-42.4	15.5	0.00e+00	0	55	0	176160768	50	5084
2026-01-03 08:34:55.21	99.02	17.09	-39.9	-42.5	15.4	0.00e+00	0	55	0	178257920	50	5131
2026-01-03 08:34:56.22	98.85	17.17	-40.0	-42.5	15.4	0.00e+00	0	55	0	180355072	50	5138
2026-01-03 08:34:57.23	98.69	17.25	-39.9	-42.4	15.5	0.00e+00	0	55	0	181403648	50	5045
2026-01-03 08:34:58.24	98.52	17.34	-39.9	-42.5	15.5	0.00e+00	0	55	0	183500800	50	5113
2026-01-03 08:34:59.25	98.36	17.42	-40.0	-42.5	15.4	0.00e+00	0	55	0	185597952	50	5146
2026-01-03 08:35:00.26	98.19	17.50	-40.0	-42.5	15.4	0.00e+00	0	55	0	187695104	50	5155
2026-01-03 08:35:01.27	98.02	17.59	-40.0	-42.5	15.4	0.00e+00	0	55	0	189792256	50	5150
2026-01-03 08:35:02.28	97.85	17.67	-40.1	-42.7	15.2	0.00e+00	0	55	0	190840832	50	5227
2026-01-03 08:35:03.29	97.68	17.75	-40.0	-42.6	15.3	0.00e+00	0	55	0	192937984	50	5170
2026-01-03 08:35:04.30	97.51	17.84	-40.1	-42.7	15.2	0.00e+00	0	55	0	195035136	50	5223
2026-01-03 08:35:05.31	97.34	17.92	-40.0	-42.6	15.3	7.00e-07	0	55	0	197132288	50	5187
2026-01-03 08:35:06.31	97.17	18.00	-40.0	-42.6	15.4	0.00e+00	0	55	0	199229440	50	5161
2026-01-03 08:35:07.32	96.99	18.09	-39.9	-42.5	15.5	0.00e+00	0	55	0	201326592	50	5105
2026-01-03 08:35:08.33	96.82	18.17	-39.9	-42.3	15.6	0.00e+00	0	55	0	202375168	50	5035
2026-01-03 08:35:09.34	96.64	18.25	-39.9	-42.4	15.5	0.00e+00	0	55	0	204472320	50	5059
2026-01-03 08:35:10.35	96.46	18.34	-39.9	-42.4	15.5	0.00e+00	0	55	0	206569472	50	5093
2026-01-03 08:35:11.36	96.29	18.42	-39.9	-42.5	15.5	0.00e+00	0	55	0	208666624	50	5110
2026-01-03 08:35:12.37	96.11	18.50	-39.9	-42.5	15.5	0.00e+00	0	55	0	210763776	50	5108
2026-01-03 08:35:13.38	95.93	18.59	-40.0	-42.6	15.4	0.00e+00	0	55	0	211812352	50	5176
2026-01-03 08:35:14.39	95.75	18.67	-40.1	-42.8	15.2	0.00e+00	0	55	0	213909504	50	5291
2026-01-03 08:35:15.40	95.56	18.76	-40.2	-42.9	15.0	0.00e+00	0	55	0	216006656	51	5070
2026-01-03 08:35:16.41	95.38	18.84	-40.2	-42.8	15.1	0.00e+00	0	55	0	218103808	51	5033
2026-01-03 08:35:17.42	95.20	18.92	-40.2	-42.8	15.2	0.00e+00	0	55	0	220200960	51	5007
2026-01-03 08:35:18.43	95.01	19.01	-40.1	-42.7	15.3	0.00e+00	0	55	0	221249536	51	4930
2026-01-03 08:35:19.44	94.83	19.09	-40.1	-42.7	15.3	0.00e+00	0	55	0	223346688	51	4936
2026-01-03 08:35:20.45	94.64	19.17	-40.0	-42.5	15.5	0.00e+00	0	55	0	225443840	51	4853
2026-01-03 08:35:21.46	94.45	19.26	-40.0	-42.5	15.5	0.00e+00	0	55	0	227540992	51	4832
2026-01-03 08:35:22.47	94.26	19.34	-39.8	-42.3	15.7	0.00e+00	0	55	0	229638144	51	4727
2026-01-03 08:35:23.48	94.07	19.42	-39.9	-42.3	15.6	0.00e+00	0	55	0	230686720	51	4756
2026-01-03 08:35:24.49	93.88	19.51	-39.9	-42.3	15.6	0.00e+00	0	55	0	232783872	51	4759
2026-01-03 08:35:25.50	93.69	19.59	-39.8	-42.3	15.7	0.00e+00	0	55	0	234881024	51	4728
2026-01-03 08:35:26.51	93.50	19.67	-39.8	-42.2	15.8	0.00e+00	0	55	0	236978176	51	4670
2026-01-03 08:35:27.52	93.30	19.76	-39.8	-42.2	15.7	0.00e+00	0	55	0	239075328	51	4687
2026-01-03 08:35:28.53	93.11	19.84	-39.8	-42.2	15.8	0.00e+00	0	55	0	240123904	51	4679
2026-01-03 08:35:29.54	92.91	19.92	-39.8	-42.2	15.8	0.00e+00	0	55	0	242221056	51	4675
2026-01-03 08:35:30.55	92.71	20.00	-39.7	-42.1	15.8	0.00e+00	0	55	0	244318208	51	4641
2026-01-03 08:35:31.56	92.51	20.09	-39.6	-42.0	16.0	0.00e+00	0	56	0	246415360	51	4567
2026-01-03 08:35:32.57	92.31	20.17	-39.6	-42.0	15.9	0.00e+00	0	56	0	248512512	51	4575
2026-01-03 08:35:33.58	92.11	20.25	-39.6	-42.0	15.9	0.00e+00	0	56	0	249561088	51	4556
2026-01-03 08:35:34.59	91.91	20.33	-39.6	-42.0	15.9	0.00e+00	0	55	0	251658240	51	4574
2026-01-03 08:35:35.60	91.71	20.42	-39.6	-42.0	15.8	0.00e+00	0	55	0	253755392	51	4576
2026-01-03 08:35:36.61	91.50	20.50	-39.5	-41.9	15.9	0.00e+00	0	56	0	255852544	51	4505
2026-01-03 08:35:37.62	91.30	20.58	-39.5	-41.9	15.9	0.00e+00	0	55	0	257949696	50	4766
2026-01-03 08:35:38.63	91.09	20.66	-39.4	-41.8	15.9	0.00e+00	0	55	0	258998272	50	4732
2026-01-03 08:35:39.64	90.89	20.75	-39.4	-41.7	15.9	0.00e+00	0	56	0	261095424	50	4696
2026-01-03 08:35:40.64	90.68	20.83	-39.4	-41.8	15.8	0.00e+00	0	56	0	263192576	50	4728
2026-01-03 08:35:41.65	90.47	20.91	-39.3	-41.8	15.8	0.00e+00	0	55	0	265289728	50	4723
2026-01-03 08:35:42.66	90.26	20.99	-39.3	-41.8	15.7	0.00e+00	0	56	0	267386880	50	4720
2026-01-03 08:35:43.67	90.05	21.07	-39.2	-41.7	15.8	0.00e+00	0	55	0	269484032	50	4664
2026-01-03 08:35:44.68	89.83	21.15	-39.3	-41.8	15.6	0.00e+00	0	55	0	270532608	50	4720
2026-01-03 08:35:45.69	89.62	21.23	-39.2	-41.6	15.7	0.00e+00	0	55	0	272629760	50	4647
2026-01-03 08:35:46.70	89.40	21.31	-39.0	-41.5	15.8	0.00e+00	0	55	0	274726912	50	4549
2026-01-03 08:35:47.71	89.19	21.39	-38.9	-41.3	15.9	0.00e+00	0	55	0	276824064	49	4745
2026-01-03 08:35:48.72	88.97	21.47	-38.7	-41.0	16.2	0.00e+00	0	56	0	278921216	49	4592
2026-01-03 08:35:49.73	88.75	21.55	-38.8	-41.1	16.2	0.00e+00	0	56	0	279969792	49	4614
2026-01-03 08:35:50.74	88.53	21.63	-38.7	-41.1	16.1	0.00e+00	0	55	0	282066944	49	4619
2026-01-03 08:35:51.75	88.31	21.71	-38.6	-40.9	16.3	0.00e+00	0	56	0	284164096	49	4512
2026-01-03 08:35:52.76	88.09	21.79	-38.6	-40.9	16.3	0.00e+00	0	55	0	286261248	49	4509
2026-01-03 08:35:53.77	87.87	21.87	-38.7	-41.0	16.2	0.00e+00	0	55	0	288358400	49	4559
2026-01-03 08:35:54.78	87.64	21.95	-38.7	-41.0	16.2	0.00e+00	0	56	0	289406976	49	4555
2026-01-03 08:35:55.79	87.42	22.03	-38.7	-41.0	16.2	0.00e+00	0	56	0	291504128	49	4576
2026-01-03 08:35:56.80	87.19	22.11	-38.8	-41.1	16.2	0.00e+00	0	56	0	293601280	49	4612
2026-01-03 08:35:57.81	86.96	22.19	-38.8	-41.1	16.2	0.00e+00	0	55	0	295698432	49	4628
2026-01-03 08:35:58.82	86.73	22.27	-38.7	-41.0	16.4	0.00e+00	0	55	0	297795584	49	4548
2026-01-03 08:35:59.83	86.50	22.35	-38.6	-40.9	16.5	0.00e+00	0	56	0	298844160	49	4512
2026-01-03 08:36:00.84	86.27	22.42	-38.6	-40.8	16.6	0.00e+00	0	56	0	300941312	49	4483
2026-01-03 08:36:01.85	86.04	22.50	-38.6	-40.8	16.6	0.00e+00	0	56	0	303038464	49	4460
2026-01-03 08:36:02.86	85.81	22.58	-38.5	-40.7	16.8	0.00e+00	0	55	0	305135616	49	4404
2026-01-03 08:36:03.87	85.57	22.66	-38.6	-40.7	16.8	0.00e+00	0	56	0	307232768	49	4409
2026-01-03 08:36:04.88	85.33	22.73	-38.5	-40.6	16.9	0.00e+00	0	56	0	308281344	49	4373
2026-01-03 08:36:05.89	85.10	22.81	-38.5	-40.6	17.0	0.00e+00	0	56	0	310378496	48	4615
2026-01-03 08:36:06.90	84.86	22.88	-38.5	-40.6	17.0	0.00e+00	0	55	0	312475648	48	4642
2026-01-03 08:36:07.91	84.62	22.96	-38.4	-40.5	17.2	0.00e+00	0	56	0	314572800	48	4560
2026-01-03 08:36:08.92	84.38	23.04	-38.4	-40.5	17.2	0.00e+00	0	55	0	316669952	48	4561
2026-01-03 08:36:09.92	84.14	23.11	-38.3	-40.3	17.3	0.00e+00	0	56	0	317718528	48	4491
2026-01-03 08:36:10.93	83.90	23.18	-38.4	-40.4	17.4	0.00e+00	0	56	0	319815680	48	4494
2026-01-03 08:36:11.94	83.65	23.26	-38.3	-40.2	17.6	0.00e+00	0	55	0	321912832	48	4411
2026-01-03 08:36:12.94	83.41	23.33	-38.3	-40.2	17.6	0.00e+00	0	56	0	324009984	48	4402
2026-01-03 08:36:13.95	83.16	23.41	-38.4	-40.3	17.6	0.00e+00	0	55	0	326107136	48	4468
2026-01-03 08:36:14.96	82.92	23.48	-38.5	-40.5	17.4	0.00e+00	0	56	0	327155712	48	4551
2026-01-03 08:36:15.97	82.67	23.55	-38.5	-40.5	17.4	0.00e+00	0	56	0	329252864	48	4589
2026-01-03 08:36:16.98	82.42	23.63	-38.5	-40.5	17.5	0.00e+00	0	56	0	331350016	48	4554
2026-01-03 08:36:17.99	82.17	23.70	-38.6	-40.6	17.3	0.00e+00	0	56	0	333447168	48	4637
2026-01-03 08:36:19.00	81.91	23.77	-38.6	-40.5	17.4	0.00e+00	0	56	0	335544320	48	4593
2026-01-03 08:36:20.01	81.66	23.84	-38.7	-40.7	17.3	0.00e+00	0	56	0	337641472	48	4668
2026-01-03 08:36:21.02	81.41	23.91	-38.8	-40.8	17.2	0.00e+00	0	56	0	338690048	48	4720
2026-01-03 08:36:22.03	81.15	23.98	-38.8	-40.8	17.2	0.00e+00	0	56	0	340787200	48	4729
2026-01-03 08:36:23.04	80.89	24.05	-38.7	-40.7	17.3	0.00e+00	0	56	0	342884352	48	4696
2026-01-03 08:36:24.05	80.64	24.12	-38.8	-40.8	17.2	0.00e+00	0	56	0	344981504	48	4727
2026-01-03 08:36:25.06	80.38	24.19	-38.7	-40.7	17.3	0.00e+00	0	56	0	347078656	48	4701
2026-01-03 08:36:26.07	80.12	24.26	-38.6	-40.6	17.4	0.00e+00	0	56	0	348127232	48	4608
2026-01-03 08:36:27.08	79.85	24.33	-38.6	-40.5	17.5	0.00e+00	0	56	0	350224384	48	4574
2026-01-03 08:36:28.09	79.59	24.40	-38.5	-40.4	17.6	0.00e+00	0	56	0	352321536	48	4540
2026-01-03 08:36:29.10	79.33	24.46	-38.5	-40.4	17.7	0.00e+00	0	56	0	354418688	48	4501
2026-01-03 08:36:30.11	79.06	24.53	-38.5	-40.4	17.6	0.00e+00	0	56	0	356515840	48	4520
2026-01-03 08:36:31.12	78.80	24.60	-38.5	-40.5	17.6	0.00e+00	0	56	0	357564416	48	4552
2026-01-03 08:36:32.13	78.53	24.66	-38.5	-40.4	17.6	0.00e+00	0	56	0	359661568	48	4522
2026-01-03 08:36:33.14	78.26	24.73	-38.5	-40.4	17.7	0.00e+00	0	56	0	361758720	48	4530
2026-01-03 08:36:34.15	77.99	24.79	-38.4	-40.3	17.7	0.00e+00	0	56	0	363855872	48	4481
2026-01-03 08:36:35.16	77.72	24.86	-38.4	-40.3	17.8	0.00e+00	0	56	0	365953024	48	4452
2026-01-03 08:36:36.17	77.45	24.92	-38.3	-40.2	17.8	0.00e+00	0	56	0	367001600	48	4430
2026-01-03 08:36:37.18	77.18	24.98	-38.5	-40.4	17.7	0.00e+00	0	56	0	369098752	48	4522
2026-01-03 08:36:38.19	76.90	25.05	-38.3	-40.2	17.8	0.00e+00	0	56	0	371195904	48	4426
2026-01-03 08:36:39.21	76.63	25.11	-38.3	-40.2	17.9	0.00e+00	0	56	0	373293056	48	4419
2026-01-03 08:36:40.21	76.35	25.17	-38.4	-40.2	17.9	0.00e+00	0	56	0	375390208	48	4431
2026-01-03 08:36:41.23	76.07	25.23	-38.4	-40.3	17.8	0.00e+00	0	56	0	376438784	48	4462
2026-01-03 08:36:42.24	75.80	25.29	-38.3	-40.2	17.9	0.00e+00	0	56	0	378535936	48	4422
2026-01-03 08:36:43.25	75.52	25.35	-38.3	-40.1	18.0	0.00e+00	0	56	0	380633088	48	4389
2026-01-03 08:36:44.25	75.24	25.41	-38.4	-40.2	17.9	0.00e+00	0	56	0	382730240	48	4427
2026-01-03 08:36:45.26	74.96	25.47	-38.3	-40.2	17.9	0.00e+00	0	56	0	384827392	48	4417
2026-01-03 08:36:46.28	74.67	25.53	-38.3	-40.1	18.0	0.00e+00	0	56	0	385875968	48	4377
2026-01-03 08:36:47.29	74.39	25.59	-38.4	-40.2	17.9	0.00e+00	0	56	0	387973120	48	4429
2026-01-03 08:36:48.30	74.11	25.64	-38.5	-40.4	17.7	0.00e+00	0	56	0	390070272	48	4520
2026-01-03 08:36:49.31	73.82	25.70	-38.6	-40.5	17.6	0.00e+00	0	56	0	392167424	48	4573
2026-01-03 08:36:50.32	73.53	25.75	-38.7	-40.6	17.5	0.00e+00	0	56	0	394264576	48	4650
2026-01-03 08:36:51.33	73.25	25.81	-38.6	-40.6	17.5	0.00e+00	0	56	0	395313152	48	4610
2026-01-03 08:36:52.34	72.96	25.86	-38.7	-40.7	17.4	0.00e+00	0	56	0	397410304	48	4684
2026-01-03 08:36:53.35	72.67	25.91	-38.8	-40.8	17.3	0.00e+00	0	56	0	399507456	48	4742
2026-01-03 08:36:54.36	72.38	25.97	-39.0	-41.1	17.1	0.00e+00	0	56	0	401604608	48	4877
2026-01-03 08:36:55.37	72.09	26.02	-39.0	-41.1	17.0	0.00e+00	0	56	0	403701760	48	4923
2026-01-03 08:36:56.38	71.80	26.07	-39.1	-41.2	17.0	0.00e+00	0	56	0	405798912	48	4947
2026-01-03 08:36:57.39	71.50	26.12	-39.1	-41.3	16.9	0.00e+00	0	56	0	406847488	48	4989
2026-01-03 08:36:58.40	71.21	26.17	-39.1	-41.2	16.9	0.00e+00	0	56	0	408944640	48	4962
2026-01-03 08:36:59.41	70.91	26.22	-39.1	-41.2	17.0	0.00e+00	0	56	0	411041792	48	4976
2026-01-03 08:37:00.42	70.62	26.27	-39.2	-41.3	16.8	0.00e+00	0	56	0	413138944	48	5023
2026-01-03 08:37:01.43	70.32	26.31	-39.3	-41.5	16.6	0.00e+00	0	56	0	415236096	49	4841
2026-01-03 08:37:02.44	70.02	26.36	-39.4	-41.6	16.5	0.00e+00	0	56	0	416284672	49	4916
2026-01-03 08:37:03.45	69.72	26.41	-39.5	-41.7	16.5	0.00e+00	0	56	0	418381824	49	4946
2026-01-03 08:37:04.46	69.43	26.45	-39.4	-41.7	16.5	0.00e+00	0	56	0	420478976	49	4933
2026-01-03 08:37:05.47	69.13	26.50	-39.4	-41.7	16.5	0.00e+00	0	56	0	422576128	49	4939
2026-01-03 08:37:06.48	68.82	26.54	-39.5	-41.7	16.4	0.00e+00	0	56	0	424673280	49	4976
2026-01-03 08:37:07.49	68.52	26.58	-39.7	-42.0	16.2	0.00e+00	0	56	0	425721856	50	4860
2026-01-03 08:37:08.50	68.22	26.62	-39.7	-42.0	16.2	0.00e+00	0	56	0	427819008	50	4829
2026-01-03 08:37:09.51	67.92	26.67	-39.8	-42.1	16.2	0.00e+00	0	56	0	429916160	50	4887
2026-01-03 08:37:10.52	67.61	26.71	-39.7	-42.1	16.2	0.00e+00	0	56	0	432013312	50	4875
2026-01-03 08:37:11.53	67.31	26.75	-39.8	-42.1	16.1	0.00e+00	0	56	0	434110464	50	4916
2026-01-03 08:37:12.54	67.00	26.78	-39.9	-42.2	16.0	0.00e+00	0	56	0	435159040	50	4964
2026-01-03 08:37:13.55	66.70	26.82	-39.9	-42.2	15.9	0.00e+00	0	56	0	437256192	50	4982
2026-01-03 08:37:14.56	66.39	26.86	-39.9	-42.3	16.0	0.00e+00	0	56	0	439353344	50	4986
2026-01-03 08:37:15.57	66.08	26.89	-39.8	-42.1	16.2	0.00e+00	0	56	0	441450496	50	4893
2026-01-03 08:37:16.57	65.78	26.93	-39.9	-42.3	16.0	0.00e+00	0	56	0	443547648	50	4994
2026-01-03 08:37:17.58	65.47	26.96	-39.9	-42.2	16.0	0.00e+00	0	56	0	444596224	50	4978
2026-01-03 08:37:18.59	65.16	27.00	-39.9	-42.2	16.1	0.00e+00	0	56	0	446693376	50	4968
2026-01-03 08:37:19.60	64.85	27.03	-40.0	-42.3	15.9	0.00e+00	0	56	0	448790528	50	5036
2026-01-03 08:37:20.61	64.53	27.06	-40.0	-42.4	15.8	0.00e+00	0	56	0	450887680	50	5071
2026-01-03 08:37:21.62	64.22	27.09	-40.1	-42.5	15.8	0.00e+00	0	56	0	452984832	50	5113
2026-01-03 08:37:22.63	63.91	27.12	-40.0	-42.4	15.8	0.00e+00	0	56	0	454033408	50	5070
2026-01-03 08:37:23.64	63.60	27.15	-39.9	-42.3	15.9	0.00e+00	0	56	0	456130560	50	5015
2026-01-03 08:37:24.65	63.28	27.18	-40.1	-42.5	15.8	0.00e+00	0	56	0	458227712	50	5137
2026-01-03 08:37:25.66	62.97	27.21	-40.2	-42.7	15.6	0.00e+00	0	56	0	460324864	50	5265
2026-01-03 08:37:26.67	62.66	27.23	-40.4	-42.9	15.3	7.00e-07	0	56	0	462422016	51	5099
2026-01-03 08:37:27.68	62.34	27.26	-40.3	-42.8	15.5	0.00e+00	0	56	0	463470592	51	5024
2026-01-03 08:37:28.69	62.03	27.28	-40.2	-42.6	15.7	0.00e+00	0	56	0	465567744	51	4907
2026-01-03 08:37:29.70	61.71	27.30	-40.2	-42.6	15.7	0.00e+00	0	56	0	467664896	51	4926
2026-01-03 08:37:30.71	61.39	27.33	-40.2	-42.7	15.5	0.00e+00	0	56	0	469762048	51	4971
2026-01-03 08:37:31.72	61.08	27.35	-40.3	-42.8	15.5	0.00e+00	0	56	0	471859200	51	5038
2026-01-03 08:37:32.73	60.76	27.37	-40.2	-42.6	15.7	0.00e+00	0	56	0	473956352	51	4919
2026-01-03 08:37:33.74	60.44	27.39	-40.1	-42.6	15.7	0.00e+00	0	56	0	475004928	51	4873
2026-01-03 08:37:34.75	60.12	27.41	-40.2	-42.7	15.6	0.00e+00	0	56	0	477102080	51	4963
2026-01-03 08:37:35.76	59.81	27.42	-40.2	-42.6	15.4	0.00e+00	0	56	0	479199232	51	4915
2026-01-03 08:37:36.77	59.49	27.44	-40.5	-43.1	15.2	0.00e+00	0	56	0	481296384	51	5188
2026-01-03 08:37:37.78	59.17	27.46	-40.4	-42.9	15.3	0.00e+00	0	56	0	483393536	51	5097
2026-01-03 08:37:38.79	58.85	27.47	-40.2	-42.7	15.6	0.00e+00	0	56	0	484442112	51	4945
2026-01-03 08:37:39.80	58.53	27.48	-40.1	-42.5	15.8	0.00e+00	0	56	0	486539264	51	4837
2026-01-03 08:37:40.81	58.21	27.50	-40.0	-42.3	15.9	0.00e+00	0	56	0	488636416	51	4756
2026-01-03 08:37:41.82	57.89	27.51	-39.9	-42.2	16.1	0.00e+00	0	56	0	490733568	51	4670
2026-01-03 08:37:42.83	57.57	27.52	-39.9	-42.3	16.0	0.00e+00	0	56	0	492830720	51	4720
2026-01-03 08:37:43.84	57.25	27.53	-39.8	-42.2	16.2	0.00e+00	0	56	0	493879296	51	4664
2026-01-03 08:37:44.85	56.93	27.54	-39.9	-42.2	16.1	0.00e+00	0	56	0	495976448	51	4687
2026-01-03 08:37:45.86	56.61	27.55	-39.9	-42.2	16.1	0.00e+00	0	56	0	498073600	51	4695
2026-01-03 08:37:46.87	56.29	27.55	-39.9	-42.2	16.2	0.00e+00	0	56	0	500170752	51	4671
2026-01-03 08:37:47.88	55.97	27.56	-39.7	-41.9	16.4	0.00e+00	0	56	0	502267904	51	4509
2026-01-03 08:37:48.89	55.65	27.56	-39.6	-41.8	16.5	0.00e+00	0	56	0	503316480	51	4465
2026-01-03 08:37:49.90	55.32	27.57	-39.5	-41.7	16.6	0.00e+00	0	56	0	505413632	51	4412
2026-01-03 08:37:50.91	55.00	27.57	-39.6	-41.8	16.6	0.00e+00	0	56	0	507510784	51	4443
2026-01-03 08:37:51.92	54.68	27.57	-39.6	-41.9	16.5	0.00e+00	0	56	0	509607936	51	4494
2026-01-03 08:37:52.93	54.36	27.57	-39.6	-41.8	16.5	0.00e+00	0	56	0	511705088	51	4476
2026-01-03 08:37:53.94	54.04	27.57	-39.5	-41.7	16.6	0.00e+00	0	56	0	513802240	51	4426
2026-01-03 08:37:54.94	53.72	27.57	-39.5	-41.7	16.7	0.00e+00	0	56	0	514850816	50	4676
2026-01-03 08:37:55.95	53.40	27.57	-39.5	-41.7	16.7	0.00e+00	0	56	0	516947968	50	4675
2026-01-03 08:37:56.96	53.08	27.57	-39.6	-41.7	16.6	0.00e+00	0	56	0	519045120	50	4703
2026-01-03 08:37:57.97	52.76	27.56	-39.6	-41.8	16.5	0.00e+00	0	56	0	521142272	50	4721
2026-01-03 08:37:58.98	52.44	27.56	-39.5	-41.7	16.7	0.00e+00	0	56	0	522190848	50	4656
2026-01-03 08:38:00.00	52.11	27.55	-39.4	-41.6	16.7	0.00e+00	0	56	0	524288000	50	4610
2026-01-03 08:38:01.00	51.79	27.54	-39.4	-41.5	16.9	0.00e+00	0	56	0	526385152	50	4558
2026-01-03 08:38:02.01	51.47	27.53	-39.4	-41.5	16.9	0.00e+00	0	56	0	528482304	50	4563
2026-01-03 08:38:03.02	51.15	27.53	-39.3	-41.4	17.0	0.00e+00	0	56	0	530579456	50	4504
2026-01-03 08:38:04.03	50.83	27.52	-39.2	-41.2	17.1	0.00e+00	0	56	0	531628032	50	4430
2026-01-03 08:38:05.04	50.51	27.50	-39.0	-41.0	17.3	0.00e+00	0	56	0	533725184	50	4340
2026-01-03 08:38:06.05	50.19	27.49	-39.0	-41.0	17.3	0.00e+00	0	56	0	535822336	50	4313
2026-01-03 08:38:07.06	49.87	27.48	-38.9	-40.9	17.5	0.00e+00	0	56	0	537919488	49	4497
2026-01-03 08:38:08.07	49.55	27.47	-38.8	-40.8	17.6	0.00e+00	0	56	0	540016640	49	4452
2026-01-03 08:38:09.08	49.24	27.45	-38.8	-40.7	17.6	0.00e+00	0	56	0	542113792	49	4412
2026-01-03 08:38:10.09	48.92	27.43	-38.7	-40.6	17.7	0.00e+00	0	56	0	543162368	49	4385
2026-01-03 08:38:11.10	48.60	27.42	-38.7	-40.6	17.7	0.00e+00	0	56	0	545259520	49	4351
2026-01-03 08:38:12.11	48.28	27.40	-38.8	-40.7	17.6	0.00e+00	0	56	0	547356672	49	4421
2026-01-03 08:38:13.12	47.96	27.38	-38.7	-40.6	17.7	0.00e+00	0	56	0	549453824	49	4373
2026-01-03 08:38:14.12	47.65	27.36	-38.7	-40.5	17.8	0.00e+00	0	56	0	551550976	49	4335
2026-01-03 08:38:15.13	47.33	27.34	-38.6	-40.5	17.9	0.00e+00	0	56	0	552599552	49	4300
2026-01-03 08:38:16.14	47.02	27.32	-38.6	-40.5	17.9	0.00e+00	0	56	0	554696704	49	4299
2026-01-03 08:38:17.15	46.70	27.30	-38.6	-40.5	17.8	0.00e+00	0	56	0	556793856	49	4314
2026-01-03 08:38:18.16	46.39	27.27	-38.6	-40.5	17.8	0.00e+00	0	56	0	558891008	49	4334
2026-01-03 08:38:19.17	46.07	27.25	-38.7	-40.6	17.8	0.00e+00	0	56	0	560988160	49	4358
2026-01-03 08:38:20.19	45.75	27.22	-38.9	-40.8	17.5	0.00e+00	0	56	0	562036736	49	4476
2026-01-03 08:38:21.20	45.44	27.20	-38.9	-40.8	17.5	0.00e+00	0	56	0	564133888	49	4488
2026-01-03 08:38:22.21	45.13	27.17	-38.8	-40.8	17.5	0.00e+00	0	56	0	566231040	49	4460
2026-01-03 08:38:23.22	44.81	27.14	-38.9	-40.8	17.5	0.00e+00	0	56	0	568328192	49	4474
2026-01-03 08:38:24.23	44.50	27.11	-38.8	-40.7	17.6	0.00e+00	0	56	0	570425344	49	4436
2026-01-03 08:38:25.24	44.19	27.08	-38.8	-40.7	17.6	0.00e+00	0	56	0	571473920	49	4403
2026-01-03 08:38:26.25	43.88	27.05	-38.7	-40.6	17.7	0.00e+00	0	57	0	573571072	49	4390
2026-01-03 08:38:27.26	43.57	27.02	-38.8	-40.8	17.6	0.00e+00	0	56	0	575668224	49	4444
2026-01-03 08:38:28.27	43.26	26.98	-38.9	-40.8	17.4	0.00e+00	0	56	0	577765376	49	4492
2026-01-03 08:38:29.28	42.95	26.95	-39.0	-41.0	17.4	0.00e+00	0	56	0	579862528	49	4566
2026-01-03 08:38:30.29	42.64	26.92	-38.9	-40.8	17.5	0.00e+00	0	56	0	581959680	49	4485
2026-01-03 08:38:31.30	42.33	26.88	-39.0	-41.0	17.3	0.00e+00	0	56	0	583008256	49	4593
2026-01-03 08:38:32.31	42.03	26.84	-39.1	-41.1	17.2	0.00e+00	0	56	0	585105408	49	4644
2026-01-03 08:38:33.32	41.72	26.81	-39.2	-41.2	17.1	0.00e+00	0	56	0	587202560	49	4692
2026-01-03 08:38:34.33	41.42	26.77	-39.4	-41.5	16.8	0.00e+00	0	56	0	589299712	49	4831
2026-01-03 08:38:35.34	41.11	26.73	-39.3	-41.5	16.9	0.00e+00	0	57	0	591396864	49	4820
2026-01-03 08:38:36.35	40.81	26.69	-39.4	-41.5	16.8	0.00e+00	0	56	0	592445440	49	4870
2026-01-03 08:38:37.35	40.51	26.65	-39.4	-41.6	16.8	0.00e+00	0	56	0	594542592	49	4881
2026-01-03 08:38:38.36	40.20	26.61	-39.4	-41.6	16.8	0.00e+00	0	56	0	596639744	49	4884
2026-01-03 08:38:39.37	39.90	26.57	-39.5	-41.7	16.6	0.00e+00	0	57	0	598736896	49	4947
2026-01-03 08:38:40.38	39.60	26.53	-39.6	-41.8	16.6	0.00e+00	0	57	0	599785472	49	4994
2026-01-03 08:38:41.39	39.30	26.48	-39.7	-42.0	16.4	0.00e+00	0	56	0	601882624	49	5107
2026-01-03 08:38:42.40	39.00	26.44	-39.7	-41.9	16.4	0.00e+00	0	56	0	603979776	50	4804
2026-01-03 08:38:43.41	38.70	26.39	-39.8	-42.0	16.3	0.00e+00	0	56	0	606076928	50	4845
2026-01-03 08:38:44.42	38.41	26.35	-39.9	-42.3	16.1	0.00e+00	0	56	0	608174080	50	4988
2026-01-03 08:38:45.43	38.11	26.30	-40.0	-42.3	16.0	0.00e+00	0	57	0	610271232	50	5005
2026-01-03 08:38:46.44	37.81	26.25	-40.1	-42.4	15.9	0.00e+00	0	56	0	611319808	50	5096
2026-01-03 08:38:47.45	37.52	26.20	-40.0	-42.4	16.0	0.00e+00	0	56	0	613416960	50	5060
2026-01-03 08:38:48.46	37.23	26.15	-40.0	-42.4	15.9	0.00e+00	0	56	0	615514112	50	5076
2026-01-03 08:38:49.47	36.93	26.10	-40.1	-42.5	15.8	0.00e+00	0	56	0	617611264	50	5153
2026-01-03 08:38:50.48	36.64	26.05	-40.1	-42.5	15.8	0.00e+00	0	56	0	619708416	50	5156
2026-01-03 08:38:51.49	36.35	26.00	-40.1	-42.6	15.8	0.00e+00	0	56	0	620756992	50	5164
2026-01-03 08:38:52.50	36.06	25.95	-40.1	-42.5	15.8	0.00e+00	0	56	0	622854144	50	5150
2026-01-03 08:38:53.51	35.77	25.90	-40.2	-42.7	15.7	0.00e+00	0	56	0	624951296	50	5239
2026-01-03 08:38:54.52	35.48	25.84	-40.2	-42.7	15.6	0.00e+00	0	56	0	627048448	51	4957
2026-01-03 08:38:55.53	35.20	25.79	-40.3	-42.9	15.5	0.00e+00	0	56	0	629145600	51	5057
2026-01-03 08:38:56.54	34.91	25.74	-40.4	-43.0	15.4	0.00e+00	0	56	0	630194176	51	5112
2026-01-03 08:38:57.55	34.62	25.68	-40.4	-43.0	15.4	0.00e+00	0	56	0	632291328	51	5105
2026-01-03 08:38:58.56	34.34	25.62	-40.3	-42.8	15.5	0.00e+00	0	56	0	634388480	51	5010
2026-01-03 08:38:59.57	34.06	25.57	-40.2	-42.7	15.7	0.00e+00	0	57	0	636485632	51	4940
2026-01-03 08:39:00.58	33.77	25.51	-40.2	-42.6	15.7	0.00e+00	0	57	0	638582784	51	4918
2026-01-03 08:39:01.59	33.49	25.45	-40.2	-42.6	15.7	0.00e+00	0	57	0	639631360	51	4918
2026-01-03 08:39:02.59	33.22	25.39	-40.1	-42.6	15.8	0.00e+00	0	57	0	641728512	51	4878
2026-01-03 08:39:03.61	32.93	25.33	-40.2	-42.6	15.7	0.00e+00	0	56	0	643825664	51	4922
2026-01-03 08:39:04.62	32.66	25.28	-40.2	-42.6	15.7	0.00e+00	0	56	0	645922816	51	4898
2026-01-03 08:39:05.63	32.38	25.21	-40.1	-42.6	15.8	0.00e+00	0	57	0	648019968	51	4878
2026-01-03 08:39:06.64	32.10	25.15	-40.1	-42.5	15.8	0.00e+00	0	56	0	650117120	51	4870
2026-01-03 08:39:07.64	31.83	25.09	-40.1	-42.6	15.8	0.00e+00	0	56	0	651165696	51	4881
2026-01-03 08:39:08.65	31.56	25.03	-40.1	-42.5	15.9	0.00e+00	0	56	0	653262848	51	4829
2026-01-03 08:39:09.66	31.29	24.97	-40.1	-42.5	15.9	0.00e+00	0	56	0	655360000	51	4825
2026-01-03 08:39:10.67	31.02	24.90	-39.9	-42.3	16.1	0.00e+00	0	57	0	657457152	51	4717
2026-01-03 08:39:11.68	30.75	24.84	-39.9	-42.2	16.1	0.00e+00	0	56	0	658505728	51	4688
2026-01-03 08:39:12.69	30.48	24.78	-39.8	-42.1	16.2	0.00e+00	0	57	0	660602880	51	4647
2026-01-03 08:39:13.70	30.21	24.71	-39.9	-42.2	16.1	0.00e+00	0	57	0	662700032	51	4700
2026-01-03 08:39:14.71	29.94	24.65	-39.9	-42.3	16.1	0.00e+00	0	57	0	664797184	51	4724
2026-01-03 08:39:15.72	29.68	24.58	-39.8	-42.2	16.2	0.00e+00	0	56	0	666894336	51	4652
2026-01-03 08:39:16.73	29.41	24.51	-39.8	-42.1	16.2	0.00e+00	0	57	0	667942912	51	4645
2026-01-03 08:39:17.74	29.15	24.45	-39.9	-42.2	16.2	0.00e+00	0	57	0	670040064	51	4664
2026-01-03 08:39:18.75	28.88	24.38	-39.7	-41.9	16.4	0.00e+00	0	57	0	672137216	51	4525
2026-01-03 08:39:19.76	28.62	24.31	-39.6	-41.8	16.5	0.00e+00	0	56	0	674234368	51	4467
2026-01-03 08:39:20.77	28.36	24.24	-39.5	-41.7	16.6	0.00e+00	0	57	0	676331520	51	4435
2026-01-03 08:39:21.78	28.10	24.18	-39.5	-41.7	16.6	0.00e+00	0	57	0	678428672	51	4420
2026-01-03 08:39:22.79	27.85	24.11	-39.5	-41.6	16.8	0.00e+00	0	56	0	679477248	50	4640
2026-01-03 08:39:23.80	27.59	24.04	-39.4	-41.6	16.7	0.00e+00	0	56	0	681574400	50	4619
2026-01-03 08:39:24.81	27.33	23.97	-39.4	-41.6	16.8	0.00e+00	0	56	0	683671552	50	4615
2026-01-03 08:39:25.82	27.08	23.90	-39.4	-41.5	16.9	0.00e+00	0	56	0	685768704	50	4561
2026-01-03 08:39:26.83	26.83	23.83	-39.2	-41.3	17.0	0.00e+00	0	57	0	687865856	50	4469
2026-01-03 08:39:27.84	26.58	23.75	-39.2	-41.2	17.1	0.00e+00	0	56	0	688914432	50	4440
2026-01-03 08:39:28.85	26.32	23.68	-39.1	-41.1	17.2	0.00e+00	0	57	0	691011584	50	4390
2026-01-03 08:39:29.86	26.07	23.61	-39.1	-41.1	17.2	0.00e+00	0	57	0	693108736	50	4367
2026-01-03 08:39:30.87	25.83	23.54	-39.1	-41.1	17.2	0.00e+00	0	56	0	695205888	50	4377
2026-01-03 08:39:31.88	25.58	23.46	-39.1	-41.1	17.2	0.00e+00	0	57	0	697303040	50	4387
2026-01-03 08:39:32.89	25.33	23.39	-39.1	-41.1	17.2	0.00e+00	0	57	0	698351616	50	4366
2026-01-03 08:39:33.90	25.09	23.32	-38.9	-40.9	17.4	0.00e+00	0	57	0	700448768	49	4522
2026-01-03 08:39:34.91	24.84	23.24	-38.9	-40.9	17.4	0.00e+00	0	56	0	702545920	49	4524
2026-01-03 08:39:35.92	24.60	23.17	-38.8	-40.8	17.5	0.00e+00	0	56	0	704643072	49	4455
2026-01-03 08:39:36.93	24.36	23.10	-38.8	-40.7	17.6	0.00e+00	0	56	0	706740224	49	4430
2026-01-03 08:39:37.94	24.12	23.02	-38.7	-40.6	17.7	0.00e+00	0	56	0	707788800	49	4363
2026-01-03 08:39:38.95	23.88	22.94	-38.7	-40.7	17.6	0.00e+00	0	56	0	709885952	49	4403
2026-01-03 08:39:39.96	23.64	22.87	-38.8	-40.7	17.6	0.00e+00	0	57	0	711983104	49	4415
2026-01-03 08:39:40.97	23.41	22.79	-38.9	-40.8	17.4	0.00e+00	0	56	0	714080256	49	4485
2026-01-03 08:39:41.98	23.17	22.72	-38.9	-40.9	17.4	0.00e+00	0	57	0	716177408	49	4502
2026-01-03 08:39:42.99	22.94	22.64	-38.9	-40.9	17.4	0.00e+00	0	56	0	718274560	49	4519
2026-01-03 08:39:44.00	22.70	22.56	-38.9	-40.9	17.4	0.00e+00	0	56	0	719323136	49	4514
2026-01-03 08:39:45.01	22.47	22.49	-38.8	-40.7	17.5	0.00e+00	0	56	0	721420288	49	4433
2026-01-03 08:39:46.02	22.24	22.41	-38.7	-40.6	17.7	0.00e+00	0	57	0	723517440	49	4370
2026-01-03 08:39:47.03	22.01	22.33	-38.6	-40.6	17.7	0.00e+00	0	57	0	725614592	49	4341
2026-01-03 08:39:48.04	21.78	22.25	-38.6	-40.5	17.8	0.00e+00	0	56	0	726663168	49	4320
2026-01-03 08:39:49.05	21.55	22.18	-38.6	-40.5	17.8	0.00e+00	0	56	0	728760320	49	4330
2026-01-03 08:39:50.06	21.33	22.10	-38.6	-40.5	17.8	0.00e+00	0	57	0	730857472	49	4328
2026-01-03 08:39:51.07	21.10	22.02	-38.6	-40.5	17.8	0.00e+00	0	56	0	732954624	49	4320
2026-01-03 08:39:52.07	20.88	21.94	-38.5	-40.4	17.9	0.00e+00	0	56	0	735051776	49	4262
2026-01-03 08:39:53.09	20.65	21.86	-38.4	-40.3	18.0	0.00e+00	0	56	0	736100352	48	4457
2026-01-03 08:39:54.10	20.43	21.78	-38.4	-40.2	18.0	0.00e+00	0	56	0	738197504	48	4431
2026-01-03 08:39:55.11	20.21	21.70	-38.4	-40.2	18.1	0.00e+00	0	56	0	740294656	48	4413
2026-01-03 08:39:56.12	19.99	21.62	-38.3	-40.1	18.2	0.00e+00	0	56	0	742391808	48	4372
2026-01-03 08:39:57.13	19.78	21.54	-38.2	-40.0	18.2	0.00e+00	0	57	0	744488960	48	4335
2026-01-03 08:39:58.14	19.56	21.46	-38.1	-39.9	18.3	0.00e+00	0	56	0	746586112	48	4277
2026-01-03 08:39:59.15	19.34	21.38	-38.1	-39.9	18.3	0.00e+00	0	56	0	747634688	48	4277
2026-01-03 08:40:00.15	19.13	21.30	-38.1	-39.8	18.4	0.00e+00	0	57	0	749731840	48	4233
2026-01-03 08:40:01.16	18.92	21.22	-38.0	-39.8	18.5	0.00e+00	0	56	0	751828992	48	4209
2026-01-03 08:40:02.17	18.70	21.14	-38.0	-39.7	18.5	0.00e+00	0	57	0	753926144	48	4184
2026-01-03 08:40:03.18	18.49	21.06	-37.9	-39.6	18.5	0.00e+00	0	56	0	756023296	47	4370
2026-01-03 08:40:04.19	18.28	20.98	-37.8	-39.5	18.7	0.00e+00	0	57	0	757071872	47	4306
2026-01-03 08:40:05.20	18.07	20.90	-37.7	-39.4	18.7	0.00e+00	0	57	0	759169024	47	4263
2026-01-03 08:40:06.21	17.86	20.82	-37.6	-39.3	18.9	0.00e+00	0	56	0	761266176	47	4197
2026-01-03 08:40:07.22	17.66	20.74	-37.5	-39.2	18.9	0.00e+00	0	57	0	763363328	47	4150
2026-01-03 08:40:08.23	17.45	20.66	-37.5	-39.2	19.0	0.00e+00	0	57	0	765460480	47	4150
2026-01-03 08:40:09.24	17.25	20.57	-37.6	-39.2	18.9	0.00e+00	0	57	0	766509056	47	4185
2026-01-03 08:40:10.25	17.04	20.49	-37.6	-39.3	18.8	0.00e+00	0	56	0	768606208	47	4217
2026-01-03 08:40:11.26	16.84	20.41	-37.6	-39.3	18.8	0.00e+00	0	57	0	770703360	47	4233
2026-01-03 08:40:12.27	16.64	20.33	-37.7	-39.3	18.8	0.00e+00	0	57	0	772800512	47	4242
2026-01-03 08:40:13.28	16.44	20.25	-37.6	-39.3	18.8	0.00e+00	0	57	0	774897664	47	4233
2026-01-03 08:40:14.29	16.24	20.16	-37.6	-39.3	18.8	0.00e+00	0	57	0	775946240	47	4230
2026-01-03 08:40:15.30	16.04	20.08	-37.6	-39.3	18.8	0.00e+00	0	57	0	778043392	47	4225
2026-01-03 08:40:16.31	15.84	20.00	-37.7	-39.4	18.8	0.00e+00	0	57	0	780140544	47	4246
2026-01-03 08:40:17.32	15.65	19.92	-37.7	-39.4	18.8	0.00e+00	0	57	0	782237696	47	4254
2026-01-03 08:40:18.33	15.45	19.83	-37.7	-39.4	18.7	0.00e+00	0	56	0	784334848	47	4262
2026-01-03 08:40:19.34	15.26	19.75	-37.6	-39.3	18.8	0.00e+00	0	56	0	785383424	47	4209
2026-01-03 08:40:20.35	15.07	19.67	-37.6	-39.3	18.8	0.00e+00	0	56	0	787480576	47	4213
2026-01-03 08:40:21.36	14.87	19.59	-37.7	-39.4	18.7	0.00e+00	0	57	0	789577728	47	4253
2026-01-03 08:40:22.37	14.68	19.50	-37.6	-39.3	18.8	0.00e+00	0	56	0	791674880	47	4237
2026-01-03 08:40:23.37	14.50	19.42	-37.7	-39.4	18.7	0.00e+00	0	57	0	793772032	47	4259
2026-01-03 08:40:24.39	14.30	19.34	-37.7	-39.4	18.7	0.00e+00	0	57	0	794820608	47	4257
2026-01-03 08:40:25.39	14.12	19.26	-37.7	-39.4	18.7	0.00e+00	0	56	0	796917760	47	4271
2026-01-03 08:40:26.41	13.93	19.17	-37.7	-39.5	18.7	0.00e+00	0	57	0	799014912	47	4298
2026-01-03 08:40:27.41	13.75	19.09	-37.8	-39.5	18.6	0.00e+00	0	57	0	801112064	47	4321
2026-01-03 08:40:28.43	13.56	19.01	-37.8	-39.5	18.6	0.00e+00	0	56	0	803209216	47	4304
2026-01-03 08:40:29.43	13.38	18.92	-37.8	-39.5	18.6	0.00e+00	0	57	0	804257792	47	4330
2026-01-03 08:40:30.44	13.20	18.84	-37.9	-39.7	18.4	0.00e+00	0	56	0	806354944	47	4411
2026-01-03 08:40:31.45	13.02	18.76	-37.9	-39.7	18.4	0.00e+00	0	57	0	808452096	47	4413
2026-01-03 08:40:32.46	12.83	18.67	-38.0	-39.8	18.3	0.00e+00	0	56	0	810549248	47	4462
2026-01-03 08:40:33.47	12.66	18.59	-38.1	-39.9	18.2	0.00e+00	0	57	0	812646400	47	4513
2026-01-03 08:40:34.48	12.48	18.51	-38.0	-39.8	18.2	0.00e+00	0	57	0	814743552	47	4492
2026-01-03 08:40:35.49	12.30	18.42	-38.0	-39.8	18.3	0.00e+00	0	57	0	815792128	47	4453
2026-01-03 08:40:36.50	12.12	18.34	-38.1	-39.9	18.2	0.00e+00	0	56	0	817889280	47	4519
2026-01-03 08:40:37.51	11.95	18.26	-38.2	-40.1	18.0	0.00e+00	0	57	0	819986432	47	4610
2026-01-03 08:40:38.52	11.77	18.17	-38.3	-40.2	17.9	0.00e+00	0	56	0	822083584	47	4658
2026-01-03 08:40:39.53	11.60	18.09	-38.4	-40.3	17.8	0.00e+00	0	57	0	824180736	47	4719
2026-01-03 08:40:40.54	11.43	18.01	-38.5	-40.4	17.7	0.00e+00	0	56	0	825229312	47	4786
2026-01-03 08:40:41.55	11.26	17.92	-38.5	-40.5	17.6	0.00e+00	0	57	0	827326464	47	4831
2026-01-03 08:40:42.56	11.08	17.84	-38.6	-40.6	17.5	0.00e+00	0	57	0	829423616	47	4887
2026-01-03 08:40:43.57	10.91	17.76	-38.6	-40.6	17.4	0.00e+00	0	57	0	831520768	47	4923
2026-01-03 08:40:44.58	10.75	17.68	-38.6	-40.6	17.4	0.00e+00	0	57	0	833617920	47	4920
2026-01-03 08:40:45.59	10.58	17.59	-38.7	-40.7	17.4	0.00e+00	0	56	0	834666496	47	4953
2026-01-03 08:40:46.60	10.41	17.51	-38.8	-40.8	17.3	0.00e+00	0	57	0	836763648	48	4753
2026-01-03 08:40:47.61	10.25	17.43	-38.9	-40.9	17.2	0.00e+00	0	57	0	838860800	48	4812
2026-01-03 08:40:48.62	10.08	17.34	-38.9	-40.9	17.2	0.00e+00	0	57	0	840957952	48	4794
2026-01-03 08:40:49.63	9.92	17.26	-38.9	-41.0	17.2	0.00e+00	0	57	0	843055104	48	4840
2026-01-03 08:40:50.64	9.75	17.18	-38.9	-40.9	17.2	0.00e+00	0	56	0	844103680	48	4797
2026-01-03 08:40:51.65	9.59	17.09	-38.9	-40.9	17.2	0.00e+00	0	57	0	846200832	48	4803
2026-01-03 08:40:52.66	9.43	17.01	-38.8	-40.8	17.3	0.00e+00	0	56	0	848297984	48	4749
2026-01-03 08:40:53.67	9.27	16.93	-38.8	-40.9	17.2	0.00e+00	0	57	0	850395136	48	4763
2026-01-03 08:40:54.68	9.11	16.85	-38.7	-40.7	17.4	0.00e+00	0	57	0	852492288	48	4670
2026-01-03 08:40:55.69	8.95	16.76	-38.7	-40.7	17.4	0.00e+00	0	57	0	853540864	48	4694
2026-01-03 08:40:56.70	8.79	16.68	-38.8	-40.9	17.2	0.00e+00	0	57	0	855638016	48	4760
2026-01-03 08:40:57.71	8.64	16.60	-38.8	-40.8	17.2	0.00e+00	0	56	0	857735168	48	4733
2026-01-03 08:40:58.72	8.48	16.52	-38.9	-41.0	17.1	0.00e+00	0	57	0	859832320	48	4837
2026-01-03 08:40:59.73	8.33	16.43	-38.9	-41.0	17.0	0.00e+00	0	57	0	861929472	48	4847
2026-01-03 08:41:00.74	8.17	16.35	-39.0	-41.1	16.9	0.00e+00	0	57	0	864026624	48	4918
2026-01-03 08:41:01.75	8.02	16.27	-39.0	-41.1	16.9	0.00e+00	0	57	0	865075200	48	4873
2026-01-03 08:41:02.76	7.87	16.19	-39.0	-41.2	16.8	0.00e+00	0	56	0	867172352	48	4946
2026-01-03 08:41:03.77	7.71	16.10	-39.1	-41.2	16.8	0.00e+00	0	57	0	869269504	48	4961
2026-01-03 08:41:04.78	7.56	16.02	-39.0	-41.1	16.9	0.00e+00	0	57	0	871366656	48	4909
2026-01-03 08:41:05.78	7.41	15.94	-39.1	-41.3	16.7	0.00e+00	0	57	0	872415232	48	4997
2026-01-03 08:41:06.79	7.26	15.86	-39.1	-41.3	16.7	0.00e+00	0	56	0	874512384	48	5013
2026-01-03 08:41:07.80	7.12	15.78	-39.1	-41.3	16.7	0.00e+00	0	57	0	876609536	48	5003
2026-01-03 08:41:08.81	6.97	15.70	-39.1	-41.3	16.6	0.00e+00	0	57	0	878706688	48	5014
2026-01-03 08:41:09.82	6.82	15.61	-39.1	-41.3	16.6	0.00e+00	0	57	0	880803840	48	5011
2026-01-03 08:41:10.83	6.68	15.53	-39.2	-41.4	16.6	0.00e+00	0	57	0	881852416	48	5056
2026-01-03 08:41:11.84	6.53	15.45	-39.2	-41.4	16.5	0.00e+00	0	57	0	883949568	48	5069
2026-01-03 08:41:12.85	6.39	15.37	-39.2	-41.4	16.5	0.00e+00	0	57	0	886046720	49	4765
2026-01-03 08:41:13.86	6.24	15.29	-39.2	-41.4	16.5	0.00e+00	0	56	0	888143872	49	4775
2026-01-03 08:41:14.87	6.10	15.21	-39.3	-41.5	16.3	0.00e+00	0	57	0	890241024	49	4861
2026-01-03 08:41:15.88	5.96	15.12	-39.2	-41.5	16.3	0.00e+00	0	56	0	892338176	49	4847
2026-01-03 08:41:16.89	5.82	15.04	-39.3	-41.7	16.2	0.00e+00	0	57	0	893386752	49	4944
2026-01-03 08:41:17.90	5.68	14.96	-39.3	-41.5	16.3	0.00e+00	0	57	0	895483904	49	4869
2026-01-03 08:41:18.91	5.54	14.88	-39.4	-41.7	16.2	0.00e+00	0	57	0	897581056	49	4947
2026-01-03 08:41:19.92	5.40	14.80	-39.3	-41.7	16.2	0.00e+00	0	57	0	899678208	49	4928
2026-01-03 08:41:20.93	5.26	14.72	-39.3	-41.6	16.2	0.00e+00	0	56	0	901775360	49	4914
2026-01-03 08:41:21.94	5.12	14.64	-39.4	-41.7	16.1	0.00e+00	0	57	0	902823936	49	4966
2026-01-03 08:41:22.95	4.99	14.56	-39.4	-41.8	16.0	0.00e+00	0	57	0	904921088	49	5020
2026-01-03 08:41:23.95	4.85	14.48	-39.4	-41.8	16.0	0.00e+00	0	57	0	907018240	49	5000
2026-01-03 08:41:24.96	4.72	14.40	-39.4	-41.8	16.0	0.00e+00	0	57	0	909115392	49	4994
2026-01-03 08:41:25.97	4.58	14.32	-39.5	-41.9	15.8	0.00e+00	0	57	0	911212544	49	5086
2026-01-03 08:41:26.98	4.45	14.24	-39.6	-42.2	15.6	0.00e+00	0	57	0	912261120	49	5225
2026-01-03 08:41:27.99	4.32	14.16	-39.8	-42.3	15.4	0.00e+00	0	57	0	914358272	50	5036
2026-01-03 08:41:29.00	4.19	14.08	-39.7	-42.3	15.3	0.00e+00	0	57	0	916455424	50	5030
2026-01-03 08:41:30.01	4.06	14.00	-39.5	-42.0	15.6	0.00e+00	0	57	0	918552576	50	4845
2026-01-03 08:41:31.02	3.93	13.92	-39.3	-41.7	15.9	0.00e+00	0	57	0	920649728	50	4664
2026-01-03 08:41:32.03	3.80	13.84	-39.2	-41.6	16.0	0.00e+00	0	57	0	921698304	50	4610
2026-01-03 08:41:33.04	3.67	13.76	-39.0	-41.4	16.0	0.00e+00	0	57	0	923795456	50	4525
2026-01-03 08:41:34.05	3.54	13.68	-39.0	-41.5	15.6	0.00e+00	0	57	0	925892608	49	4841
2026-01-03 08:41:35.06	3.41	13.60	-39.3	-42.0	14.9	0.00e+00	0	57	0	927989760	49	5157
2026-01-03 08:41:36.07	3.28	13.52	-39.6	-42.8	13.9	1.50e-06	0	57	0	930086912	49	5627
2026-01-03 08:41:37.08	3.16	13.44	-40.0	-43.6	12.9	9.10e-06	0	57	0	931135488	50	5810
2026-01-03 08:41:38.09	3.03	13.37	-40.3	-44.6	11.5	4.27e-04	0	57	0	933232640	51	6160
2026-01-03 08:41:39.10	2.91	13.29	-40.6	-45.6	10.3	2.72e-03	0	57	0	935329792	51	6906
2026-01-03 08:41:40.11	2.78	13.21	-40.6	-46.4	9.0	1.17e-02	0	57	0	937426944	52	7155
2026-01-03 08:41:41.11	2.66	13.13	-40.8	-47.4	7.8	6.68e-02	0	57	0	939524096	52	8044
2026-01-03 08:41:42.13	2.54	13.05	-40.8	-48.6	6.4	1.79e-01	0	57	0	940572672	52	9195
2026-01-03 08:41:43.14	2.41	12.97	-40.8	-49.6	5.5	3.45e-01	0	57	0	942669824	52	10338
2026-01-03 08:41:44.15	2.29	12.89	-40.8	-50.7	4.7	7.63e-01	0	57	0	944766976	52	11761
2026-01-03 08:41:45.16	2.17	12.82	-40.7	-51.7	4.3	1.19e+00	0	57	0	946864128	52	13184
2026-01-03 08:41:46.17	2.05	12.74	-40.6	-52.8	4.0	1.45e+00	0	57	104	946864128	52	15004
2026-01-03 08:41:47.18	1.93	12.66	-40.6	-53.6	3.8	1.49e+00	0	57	104	946864128	52	16377
2026-01-03 08:41:48.19	1.81	12.58	-40.4	-54.0	3.8	1.49e+00	0	57	104	946864128	52	17230
2026-01-03 08:41:49.20	1.69	12.51	-40.4	-54.2	3.8	1.49e+00	0	57	104	946864128	52	17587
2026-01-03 08:41:50.21	1.58	12.43	-40.4	-54.4	3.8	1.49e+00	0	57	104	946864128	52	17959
2026-01-03 08:41:51.22	1.46	12.35	-40.5	-54.4	3.8	1.49e+00	0	57	104	946864128	52	18032
2026-01-03 08:41:52.23	1.34	12.27	-39.9	-54.6	3.8	1.49e+00	0	57	104	946864128	51	19391
2026-01-03 08:41:53.24	1.23	12.20	-39.9	-54.7	3.8	1.49e+00	0	57	104	946864128	51	19624
2026-01-03 08:41:54.25	1.11	12.12	-40.2	-54.8	3.8	1.49e+00	0	57	104	946864128	51	19887
2026-01-03 08:41:55.26	1.00	12.04	-40.0	-54.7	3.8	1.49e+00	0	57	104	946864128	51	19658
2026-01-03 08:41:56.27	0.88	11.97	-40.1	-54.8	3.8	1.49e+00	0	57	104	946864128	51	19868
2026-01-03 08:41:57.28	0.77	11.89	-40.0	-54.7	3.8	1.49e+00	0	57	104	946864128	51	19748
2026-01-03 08:41:58.29	0.66	11.81	-40.0	-54.6	3.8	1.49e+00	0	57	104	946864128	51	19475
2026-01-03 08:41:59.30	0.55	11.74	-39.9	-54.7	3.8	1.49e+00	0	57	104	946864128	51	19762
2026-01-03 08:42:00.31	0.43	11.66	-40.0	-54.6	3.8	1.49e+00	0	57	104	946864128	51	19461
2026-01-03 08:42:01.31	0.33	11.59	-39.9	-54.6	3.8	1.49e+00	0	57	104	946864128	51	19496
2026-01-03 08:42:02.32	0.21	11.51	-40.0	-54.7	3.8	1.49e+00	0	57	104	946864128	51	19678
2026-01-03 08:42:03.34	0.10	11.43	-39.8	-54.6	3.8	1.49e+00	0	57	104	946864128	51	19392
2026-01-03 08:42:04.35	359.99	11.36	-39.9	-54.7	3.8	1.49e+00	0	57	104	946864128	51	19698
2026-01-03 08:42:05.36	359.89	11.28	-39.9	-54.7	3.8	1.49e+00	0	57	104	946864128	51	19649
2026-01-03 08:42:06.37	359.78	11.21	-39.8	-54.6	3.8	1.49e+00	0	57	104	946864128	51	19426
2026-01-03 08:42:07.38	359.67	11.13	-39.8	-54.6	3.8	1.49e+00	0	57	104	946864128	51	19498
2026-01-03 08:42:08.39	359.56	11.06	-39.6	-54.5	3.8	1.49e+00	0	57	104	946864128	51	19229
2026-01-03 08:42:09.40	359.46	10.98	-39.6	-54.4	3.8	1.49e+00	0	57	104	946864128	51	19150
2026-01-03 08:42:10.41	359.35	10.91	-39.7	-54.5	3.8	1.49e+00	0	57	104	946864128	51	19261
2026-01-03 08:42:11.42	359.25	10.83	-39.6	-54.4	3.8	1.49e+00	0	57	104	946864128	51	19094
2026-01-03 08:42:12.43	359.14	10.76	-39.7	-54.5	3.8	1.49e+00	0	57	104	946864128	51	19349
2026-01-03 08:42:13.44	359.04	10.68	-39.6	-54.4	3.8	1.49e+00	0	57	104	946864128	51	19138
2026-01-03 08:42:14.45	358.94	10.61	-39.5	-54.4	3.8	1.49e+00	0	57	104	946864128	51	19128
2026-01-03 08:42:15.46	358.83	10.53	-39.6	-54.4	3.8	1.49e+00	0	57	104	946864128	51	19129
2026-01-03 08:42:16.47	358.73	10.46	-39.3	-54.5	3.8	1.49e+00	0	57	104	946864128	50	20362
2026-01-03 08:42:17.48	358.63	10.39	-39.4	-54.4	3.8	1.49e+00	0	57	104	946864128	49	21493
2026-01-03 08:42:18.49	358.53	10.31	-39.5	-54.4	3.8	1.49e+00	0	57	104	946864128	49	21436
2026-01-03 08:42:19.50	358.43	10.24	-39.3	-54.4	3.8	1.49e+00	0	57	104	946864128	49	21375
2026-01-03 08:42:20.51	358.33	10.17	-39.7	-54.4	3.8	1.49e+00	0	57	104	946864128	49	21493
2026-01-03 08:42:21.52	358.23	10.09	-39.2	-54.4	3.8	1.49e+00	0	57	104	946864128	50	20301
2026-01-03 08:42:22.53	358.13	10.02	-39.1	-54.5	3.8	1.49e+00	0	57	104	946864128	50	20319
2026-01-03 08:42:23.54	358.03	9.95	-38.8	-54.4	3.8	1.49e+00	0	57	104	946864128	49	21414
2026-01-03 08:42:24.55	357.93	9.87	-38.3	-54.4	3.8	1.49e+00	0	57	104	946864128	48	22686
2026-01-03 08:42:25.57	357.83	9.80	-38.6	-54.4	3.8	1.49e+00	0	57	104	946864128	48	22688
2026-01-03 08:42:26.57	357.73	9.73	-38.4	-54.4	3.8	1.49e+00	0	57	104	946864128	48	22593
2026-01-03 08:42:27.58	357.64	9.66	-38.4	-54.4	3.8	1.49e+00	0	57	104	946864128	48	22613
2026-01-03 08:42:28.59	357.54	9.58	-38.9	-54.4	3.8	1.49e+00	0	57	104	946864128	48	22734
2026-01-03 08:42:29.61	357.45	9.51	-38.3	-54.4	3.8	1.49e+00	0	57	104	946864128	48	22684
2026-01-03 08:42:30.61	357.35	9.44	-38.3	-54.3	3.8	1.49e+00	0	57	104	946864128	48	22520
2026-01-03 08:42:31.63	357.26	9.37	-38.4	-54.4	3.8	1.49e+00	0	57	104	946864128	48	22688
2026-01-03 08:42:32.64	357.16	9.29	-39.2	-54.4	3.8	1.49e+00	0	57	104	946864128	48	22521
2026-01-03 08:42:33.65	357.07	9.22	-38.4	-54.4	3.8	1.49e+00	0	57	104	946864128	48	22617
2026-01-03 08:42:34.65	356.98	9.15	-39.2	-54.3	3.8	1.49e+00	0	57	104	946864128	48	22461
2026-01-03 08:42:35.67	356.88	9.08	-38.6	-54.4	3.8	1.49e+00	0	57	104	946864128	49	21284
2026-01-03 08:42:36.68	356.79	9.01	-38.3	-54.3	3.8	1.49e+00	0	57	104	946864128	48	22367
2026-01-03 08:42:37.69	356.70	8.94	-38.9	-54.3	3.8	1.49e+00	0	57	104	946864128	48	22438
2026-01-03 08:42:38.70	356.61	8.86	-38.9	-54.3	3.8	1.49e+00	0	57	104	946864128	49	21233
2026-01-03 08:42:39.71	356.51	8.79	-39.0	-54.3	3.8	1.49e+00	0	57	104	946864128	49	21170
2026-01-03 08:42:40.72	356.42	8.72	-39.5	-54.5	3.8	1.49e+00	0	57	104	946864128	49	21603
2026-01-03 08:42:41.73	356.33	8.65	-39.3	-54.3	3.8	1.49e+00	0	57	104	946864128	49	21207
2026-01-03 08:42:42.74	356.24	8.58	-39.7	-54.5	3.8	1.49e+00	0	57	104	946864128	49	21726
2026-01-03 08:42:43.75	356.16	8.51	-39.4	-54.4	3.8	1.49e+00	0	57	104	946864128	50	20089
2026-01-03 08:42:44.76	356.07	8.44	-39.4	-54.4	3.8	1.49e+00	0	57	104	946864128	50	20210
2026-01-03 08:42:45.77	355.98	8.37	-39.3	-54.4	3.8	1.49e+00	0	57	104	946864128	50	20232
2026-01-03 08:42:46.78	355.89	8.30	-39.7	-54.6	3.8	1.49e+00	0	57	104	946864128	50	20549
2026-01-03 08:42:47.79	355.80	8.23	-39.5	-54.5	3.8	1.49e+00	0	57	104	946864128	50	20326
2026-01-03 08:42:48.80	355.72	8.16	-40.0	-54.6	3.8	1.49e+00	0	57	104	946864128	50	20613
2026-01-03 08:42:49.81	355.63	8.09	-39.6	-54.5	3.8	1.49e+00	0	57	104	946864128	50	20475
2026-01-03 08:42:50.82	355.54	8.02	-40.0	-54.5	3.8	1.49e+00	0	57	104	946864128	50	20514
2026-01-03 08:42:51.83	355.46	7.95	-39.5	-54.4	3.8	1.49e+00	0	57	104	946864128	50	20287
2026-01-03 08:42:52.84	355.37	7.88	-44.0	-58.6	3.9	1.49e+00	0	57	104	946864128	58	20653
2026-01-03 08:42:53.85	355.29	7.81	-44.7	-59.1	3.8	1.49e+00	0	57	104	946864128	59	20752
2026-01-03 08:42:54.87	355.20	7.74	-44.9	-59.5	3.8	1.49e+00	0	57	104	946864128	60	20413
2026-01-03 08:42:55.88	355.12	7.67	-45.0	-59.7	3.8	1.49e+00	0	57	104	946864128	60	20809
2026-01-03 08:42:56.89	355.04	7.61	-45.1	-59.8	3.8	1.49e+00	0	57	104	946864128	60	21070
2026-01-03 08:42:57.90	354.95	7.54	-45.2	-59.8	3.8	1.49e+00	0	57	104	946864128	60	21087
2026-01-03 08:42:58.91	354.87	7.47	-45.2	-59.8	3.8	1.49e+00	0	57	104	946864128	60	21201
2026-01-03 08:42:59.92	354.79	7.40	-45.2	-59.8	3.8	1.49e+00	0	57	104	946864128	61	20045
2026-01-03 08:43:00.93	354.71	7.33	-45.2	-59.8	3.8	1.49e+00	0	57	104	946864128	61	20004
2026-01-03 08:43:01.94	354.62	7.26	-45.2	-59.8	3.8	1.49e+00	0	57	104	946864128	61	20002
2026-01-03 08:43:02.95	354.54	7.20	-45.2	-59.7	3.8	1.49e+00	0	57	104	946864128	61	19830
2026-01-03 08:43:03.96	354.46	7.13	-45.2	-59.7	3.8	1.49e+00	0	57	104	946864128	61	19796
2026-01-03 08:43:04.98	354.38	7.06	-45.1	-59.7	3.8	1.49e+00	0	57	104	946864128	61	19706
2026-01-03 08:43:05.99	354.30	6.99	-45.1	-59.7	3.8	1.49e+00	0	57	104	946864128	61	19631
2026-01-03 08:43:07.00	354.22	6.92	-45.1	-59.6	3.8	1.49e+00	0	57	104	946864128	61	19553
2026-01-03 08:43:08.01	354.14	6.86	-45.1	-59.6	3.8	1.49e+00	0	57	104	946864128	61	19414
2026-01-03 08:43:09.02	354.06	6.79	-45.1	-59.6	3.8	1.49e+00	0	57	104	946864128	61	19420
