passes_logs/2026/01/03/R2.0S_Moscow/R2.0S_Moscow__20260103_013945_SUOMI_NPP_rec.log

#Pass ID: 20260103_013945_SUOMI NPP
#Satellite: SUOMI NPP
#Configuration: NPP
#almurnet v.1.7.20251203
#Start time: 2026-01-03 01:39:45

#Version: 2.2.20231116
#Station: R2.0S_Moscow
#Location: 37.707566 lon 55.798166 lat
#TLE: 1 37849U 11061A   26001.07732418  .00000182  00000+0  10735-3 0  9990
#TLE: 2 37849  98.7795 303.2470 0002580  87.2016 272.9455 14.19520779734739

#Time	Az	El	Level	Level2	SNR	BER	BlckErr	Temp	State	Recorded	gain1	gain2
2026-01-03 01:39:45.53	9.57	2.00	-39.5	-54.5	3.8	1.49e+00	0	47	0	0	50	20333
2026-01-03 01:39:46.53	9.50	2.06	-39.5	-54.5	3.8	1.49e+00	0	48	104	0	49	21584
2026-01-03 01:39:47.54	9.42	2.11	-39.5	-54.5	3.8	1.49e+00	0	48	104	0	49	21576
2026-01-03 01:39:48.55	9.35	2.17	-39.5	-54.5	3.8	1.49e+00	0	48	104	0	49	21532
2026-01-03 01:39:49.56	9.27	2.22	-39.5	-54.5	3.8	1.49e+00	0	48	104	0	49	21547
2026-01-03 01:39:50.57	9.20	2.28	-39.5	-54.5	3.8	1.49e+00	0	48	104	0	49	21531
2026-01-03 01:39:51.58	9.12	2.33	-39.5	-54.5	3.8	1.49e+00	0	48	104	0	49	21548
2026-01-03 01:39:52.59	9.05	2.39	-39.5	-54.5	3.8	1.49e+00	0	48	104	0	49	21555
2026-01-03 01:39:53.61	8.97	2.44	-39.5	-54.5	3.8	1.49e+00	0	48	104	0	49	21527
2026-01-03 01:39:54.62	8.90	2.50	-39.5	-54.4	3.8	1.49e+00	0	48	104	0	49	21502
2026-01-03 01:39:55.63	8.82	2.55	-39.5	-54.5	3.8	1.49e+00	0	48	104	0	49	21577
2026-01-03 01:39:56.64	8.74	2.61	-39.5	-54.5	3.8	1.49e+00	0	48	104	0	49	21529
2026-01-03 01:39:57.65	8.66	2.66	-39.5	-54.4	3.8	1.49e+00	0	48	104	0	49	21483
2026-01-03 01:39:58.66	8.59	2.72	-39.5	-54.5	3.8	1.49e+00	0	49	104	0	49	21542
2026-01-03 01:39:59.67	8.51	2.77	-39.5	-54.5	3.8	1.49e+00	0	49	104	0	49	21545
2026-01-03 01:40:00.68	8.43	2.83	-39.5	-54.5	3.8	1.49e+00	0	49	104	0	49	21513
2026-01-03 01:40:01.69	8.35	2.88	-39.5	-54.5	3.8	1.49e+00	0	48	104	0	49	21513
2026-01-03 01:40:02.70	8.27	2.94	-39.5	-54.4	3.8	1.49e+00	0	49	104	0	49	21485
2026-01-03 01:40:03.71	8.20	2.99	-39.5	-54.5	3.8	1.49e+00	0	49	104	0	49	21561
2026-01-03 01:40:04.72	8.12	3.05	-39.5	-54.5	3.8	1.49e+00	0	49	104	0	49	21512
2026-01-03 01:40:05.73	8.04	3.10	-39.5	-54.4	3.8	1.49e+00	0	49	104	0	49	21498
2026-01-03 01:40:06.75	7.96	3.16	-39.5	-54.5	3.8	1.49e+00	0	49	104	0	49	21530
2026-01-03 01:40:07.76	7.88	3.22	-39.5	-54.4	3.8	1.49e+00	0	49	104	0	49	21497
2026-01-03 01:40:08.77	7.80	3.27	-39.5	-54.5	3.8	1.49e+00	0	49	104	0	49	21569
2026-01-03 01:40:09.78	7.71	3.33	-39.5	-54.4	3.8	1.49e+00	0	49	104	0	49	21474
2026-01-03 01:40:10.79	7.63	3.38	-39.5	-54.5	3.8	1.49e+00	0	49	104	0	49	21542
2026-01-03 01:40:11.80	7.55	3.44	-39.5	-54.5	3.8	1.49e+00	0	49	104	0	49	21519
2026-01-03 01:40:12.81	7.47	3.49	-39.5	-54.4	3.8	1.49e+00	0	49	104	0	49	21495
2026-01-03 01:40:13.82	7.39	3.55	-39.5	-54.4	3.8	1.49e+00	0	49	104	0	49	21474
2026-01-03 01:40:14.83	7.30	3.61	-39.5	-54.5	3.8	1.49e+00	0	49	104	0	49	21598
2026-01-03 01:40:15.85	7.22	3.66	-39.5	-54.5	3.8	1.49e+00	0	50	104	0	49	21545
2026-01-03 01:40:16.86	7.14	3.72	-39.5	-54.5	3.8	1.49e+00	0	49	104	0	49	21525
2026-01-03 01:40:17.87	7.05	3.78	-39.5	-54.4	3.8	1.49e+00	0	50	104	0	49	21502
2026-01-03 01:40:18.88	6.97	3.83	-39.5	-54.4	3.8	1.49e+00	0	50	104	0	49	21484
2026-01-03 01:40:19.89	6.89	3.89	-39.5	-54.5	3.8	1.49e+00	0	50	104	0	49	21517
2026-01-03 01:40:20.90	6.80	3.95	-39.5	-54.5	3.8	1.49e+00	0	50	104	0	49	21542
2026-01-03 01:40:21.91	6.72	4.00	-39.5	-54.4	3.8	1.49e+00	0	50	104	0	49	21471
2026-01-03 01:40:22.92	6.63	4.06	-39.5	-54.5	3.8	1.49e+00	0	50	104	0	49	21542
2026-01-03 01:40:23.94	6.55	4.12	-39.5	-54.5	3.8	1.49e+00	0	50	104	0	49	21508
2026-01-03 01:40:24.94	6.46	4.17	-39.5	-54.5	3.8	1.49e+00	0	50	104	0	49	21515
2026-01-03 01:40:25.96	6.37	4.23	-39.5	-54.4	3.8	1.49e+00	0	50	104	0	49	21490
2026-01-03 01:40:26.97	6.29	4.29	-39.5	-54.4	3.8	1.49e+00	0	50	104	0	49	21460
2026-01-03 01:40:27.98	6.20	4.34	-39.5	-54.5	3.8	1.49e+00	0	50	104	0	49	21555
2026-01-03 01:40:28.99	6.11	4.40	-39.5	-54.5	3.8	1.49e+00	0	50	104	0	49	21535
2026-01-03 01:40:30.00	6.02	4.46	-39.5	-54.4	3.8	1.49e+00	0	50	104	0	49	21476
2026-01-03 01:40:31.01	5.94	4.51	-39.5	-54.5	3.8	1.49e+00	0	50	104	0	49	21521
2026-01-03 01:40:32.02	5.85	4.57	-39.5	-54.5	3.8	1.49e+00	0	50	104	0	49	21591
2026-01-03 01:40:33.03	5.76	4.63	-39.5	-54.4	3.8	1.49e+00	0	50	104	0	49	21505
2026-01-03 01:40:34.04	5.67	4.68	-39.5	-54.4	3.8	1.49e+00	0	50	104	0	49	21468
2026-01-03 01:40:35.06	5.58	4.74	-39.5	-54.5	3.8	1.49e+00	0	51	104	0	49	21527
2026-01-03 01:40:36.06	5.49	4.80	-39.5	-54.5	3.8	1.49e+00	0	51	104	0	49	21535
2026-01-03 01:40:37.08	5.40	4.86	-39.5	-54.4	3.8	1.49e+00	0	51	104	0	49	21502
2026-01-03 01:40:38.09	5.31	4.91	-39.5	-54.4	3.8	1.49e+00	0	51	104	0	49	21492
2026-01-03 01:40:39.10	5.22	4.97	-39.5	-54.4	3.8	1.49e+00	0	51	104	0	49	21450
2026-01-03 01:40:40.11	5.13	5.03	-39.5	-54.5	3.8	1.49e+00	0	51	104	0	49	21522
2026-01-03 01:40:41.12	5.04	5.09	-39.5	-54.5	3.8	1.49e+00	0	51	104	0	49	21515
2026-01-03 01:40:42.13	4.94	5.14	-39.5	-54.4	3.8	1.49e+00	0	51	104	0	49	21484
2026-01-03 01:40:43.14	4.85	5.20	-39.5	-54.4	3.8	1.49e+00	0	51	104	0	49	21492
2026-01-03 01:40:44.15	4.76	5.26	-39.5	-54.4	3.8	1.49e+00	0	51	104	0	49	21452
2026-01-03 01:40:45.16	4.66	5.32	-39.5	-54.4	3.8	1.49e+00	0	51	104	0	49	21473
2026-01-03 01:40:46.17	4.57	5.38	-39.5	-54.5	3.8	1.49e+00	0	51	104	0	49	21531
2026-01-03 01:40:47.18	4.48	5.43	-39.5	-54.4	3.8	1.49e+00	0	51	104	0	49	21494
2026-01-03 01:40:48.20	4.38	5.49	-39.5	-54.5	3.8	1.49e+00	0	51	104	0	49	21523
2026-01-03 01:40:49.21	4.29	5.55	-39.5	-54.4	3.8	1.49e+00	0	51	104	0	49	21461
2026-01-03 01:40:50.22	4.19	5.61	-39.5	-54.4	3.8	1.49e+00	0	52	104	0	49	21431
2026-01-03 01:40:51.23	4.10	5.67	-39.5	-54.4	3.8	1.49e+00	0	51	104	0	49	21499
2026-01-03 01:40:52.24	4.00	5.72	-39.5	-54.4	3.8	1.49e+00	0	51	104	0	49	21457
2026-01-03 01:40:53.25	3.90	5.78	-39.5	-54.4	3.8	1.49e+00	0	52	104	0	49	21486
2026-01-03 01:40:54.26	3.81	5.84	-39.4	-54.4	3.8	1.49e+00	0	52	104	0	49	21478
2026-01-03 01:40:55.27	3.71	5.90	-39.4	-54.4	3.8	1.49e+00	0	51	104	0	49	21489
2026-01-03 01:40:56.28	3.61	5.96	-39.5	-54.4	3.8	1.49e+00	0	52	104	0	49	21498
2026-01-03 01:40:57.30	3.51	6.02	-39.5	-54.5	3.8	1.49e+00	0	52	104	0	49	21533
2026-01-03 01:40:58.31	3.41	6.08	-39.4	-54.4	3.8	1.49e+00	0	52	104	0	49	21357
2026-01-03 01:40:59.32	3.32	6.13	-39.4	-54.4	3.8	1.49e+00	0	52	104	0	49	21347
2026-01-03 01:41:00.33	3.22	6.19	-39.4	-54.4	3.8	1.49e+00	0	52	104	0	49	21279
2026-01-03 01:41:01.34	3.12	6.25	-39.4	-54.4	3.8	1.49e+00	0	52	104	0	49	21321
2026-01-03 01:41:02.35	3.02	6.31	-39.5	-54.4	3.8	1.49e+00	0	52	104	0	49	21397
2026-01-03 01:41:03.36	2.92	6.37	-39.4	-54.4	3.8	1.49e+00	0	52	104	0	49	21350
2026-01-03 01:41:04.37	2.82	6.43	-39.5	-54.4	3.8	1.49e+00	0	52	104	0	49	21393
2026-01-03 01:41:05.38	2.71	6.49	-39.5	-54.4	3.8	1.49e+00	0	52	104	0	49	21471
2026-01-03 01:41:06.39	2.61	6.54	-39.5	-54.5	3.8	1.49e+00	0	52	104	0	49	21538
2026-01-03 01:41:07.40	2.51	6.60	-39.5	-54.4	3.8	1.49e+00	0	52	104	0	49	21478
2026-01-03 01:41:08.41	2.41	6.66	-39.5	-54.5	3.8	1.49e+00	0	52	104	0	49	21537
2026-01-03 01:41:09.43	2.30	6.72	-39.5	-54.5	3.8	1.49e+00	0	52	104	0	49	21512
2026-01-03 01:41:10.44	2.20	6.78	-39.5	-54.5	3.8	1.49e+00	0	52	104	0	49	21524
2026-01-03 01:41:11.45	2.10	6.84	-39.5	-54.4	3.8	1.49e+00	0	52	104	0	49	21481
2026-01-03 01:41:12.46	1.99	6.90	-39.4	-54.4	3.8	1.49e+00	0	52	104	0	49	21479
2026-01-03 01:41:13.47	1.89	6.96	-39.5	-54.4	3.8	1.49e+00	0	52	104	0	49	21499
2026-01-03 01:41:14.48	1.78	7.02	-39.5	-54.4	3.8	1.49e+00	0	52	104	0	49	21500
2026-01-03 01:41:15.49	1.68	7.08	-39.4	-54.4	3.8	1.49e+00	0	52	104	0	49	21436
2026-01-03 01:41:16.50	1.57	7.14	-39.4	-54.4	3.8	1.49e+00	0	52	104	0	49	21483
2026-01-03 01:41:17.51	1.46	7.20	-39.5	-54.4	3.8	1.49e+00	0	53	104	0	49	21502
2026-01-03 01:41:18.53	1.36	7.26	-39.4	-54.5	3.8	1.49e+00	0	53	104	0	49	21514
2026-01-03 01:41:19.54	1.25	7.32	-39.4	-54.5	3.8	1.49e+00	0	53	104	0	49	21507
2026-01-03 01:41:20.55	1.14	7.37	-39.4	-54.5	3.8	1.49e+00	0	53	104	0	49	21511
2026-01-03 01:41:21.56	1.03	7.43	-39.5	-54.5	3.8	1.49e+00	0	53	104	0	49	21514
2026-01-03 01:41:22.57	0.92	7.49	-39.5	-54.4	3.8	1.49e+00	0	53	104	0	49	21476
2026-01-03 01:41:23.58	0.81	7.55	-39.5	-54.5	3.8	1.49e+00	0	53	104	0	49	21519
2026-01-03 01:41:24.59	0.70	7.61	-39.5	-54.4	3.8	1.49e+00	0	53	104	0	49	21489
2026-01-03 01:41:25.60	0.59	7.67	-39.5	-54.5	3.8	1.49e+00	0	53	104	0	49	21520
2026-01-03 01:41:26.61	0.48	7.73	-39.5	-54.5	3.8	1.49e+00	0	53	104	0	49	21514
2026-01-03 01:41:27.62	0.37	7.79	-39.5	-54.5	3.8	1.49e+00	0	53	104	0	49	21523
2026-01-03 01:41:28.64	0.26	7.85	-39.5	-54.4	3.8	1.49e+00	0	53	104	0	49	21502
2026-01-03 01:41:29.65	0.15	7.91	-39.5	-54.5	3.8	1.49e+00	0	53	104	0	49	21521
2026-01-03 01:41:30.66	0.03	7.97	-39.5	-54.5	3.8	1.49e+00	0	53	104	0	49	21522
2026-01-03 01:41:31.67	359.92	8.03	-39.5	-54.5	3.8	1.49e+00	0	53	104	0	49	21526
2026-01-03 01:41:32.68	359.81	8.09	-39.4	-54.4	3.8	1.49e+00	0	53	104	0	49	21436
2026-01-03 01:41:33.69	359.69	8.15	-39.6	-54.6	3.8	1.49e+00	0	53	104	0	49	21773
2026-01-03 01:41:34.70	359.58	8.21	-39.3	-54.5	3.8	1.49e+00	0	53	104	0	49	21689
2026-01-03 01:41:35.71	359.46	8.27	-39.3	-54.5	3.8	1.49e+00	0	53	104	0	49	21579
2026-01-03 01:41:36.72	359.35	8.33	-39.6	-54.6	3.8	1.49e+00	0	53	104	0	49	21799
2026-01-03 01:41:37.73	359.23	8.39	-39.3	-54.5	3.8	1.49e+00	0	53	104	0	49	21535
2026-01-03 01:41:38.74	359.12	8.45	-39.5	-54.5	3.8	1.49e+00	0	53	104	0	49	21734
2026-01-03 01:41:39.75	359.00	8.51	-39.6	-54.5	3.8	1.49e+00	0	53	104	0	49	21714
2026-01-03 01:41:40.76	358.88	8.57	-38.9	-54.4	3.8	1.49e+00	0	53	104	0	49	21288
2026-01-03 01:41:41.77	358.76	8.63	-39.4	-54.5	3.8	1.49e+00	0	53	104	0	49	21573
2026-01-03 01:41:42.78	358.64	8.69	-38.4	-54.2	3.8	1.49e+00	0	53	104	0	48	22066
2026-01-03 01:41:43.79	358.52	8.75	-38.3	-54.4	3.8	1.49e+00	0	53	104	0	48	22524
2026-01-03 01:41:44.80	358.41	8.81	-39.3	-54.4	3.8	1.49e+00	0	53	104	0	49	21426
2026-01-03 01:41:45.81	358.29	8.87	-38.3	-54.4	3.8	1.49e+00	0	53	104	0	48	22665
2026-01-03 01:41:46.82	358.16	8.93	-39.0	-54.4	3.8	1.49e+00	0	53	104	0	48	22591
2026-01-03 01:41:47.83	358.04	9.00	-39.1	-54.4	3.8	1.49e+00	0	53	104	0	49	21284
2026-01-03 01:41:48.84	357.92	9.06	-37.6	-54.2	3.8	1.49e+00	0	53	104	0	47	23443
2026-01-03 01:41:49.85	357.80	9.12	-38.6	-54.3	3.8	1.49e+00	0	53	104	0	47	23718
2026-01-03 01:41:50.86	357.68	9.18	-37.8	-54.2	3.8	1.49e+00	0	54	104	0	47	23471
2026-01-03 01:41:51.87	357.55	9.24	-38.5	-54.2	3.8	1.49e+00	0	53	104	0	47	23411
2026-01-03 01:41:52.88	357.43	9.30	-38.2	-54.3	3.8	1.49e+00	0	54	104	0	47	23617
2026-01-03 01:41:53.89	357.31	9.36	-38.4	-54.2	3.8	1.49e+00	0	54	104	0	47	23369
2026-01-03 01:41:54.90	357.18	9.42	-38.1	-54.3	3.8	1.49e+00	0	54	104	0	47	23668
2026-01-03 01:41:55.91	357.06	9.48	-38.6	-54.2	3.8	1.49e+00	0	54	104	0	47	23571
2026-01-03 01:41:56.92	356.93	9.54	-39.1	-54.3	3.8	1.49e+00	0	54	104	0	48	22364
2026-01-03 01:41:57.93	356.80	9.60	-38.5	-54.2	3.8	1.49e+00	0	54	104	0	48	22259
2026-01-03 01:41:58.94	356.68	9.66	-39.3	-54.3	3.8	1.49e+00	0	54	104	0	49	21102
2026-01-03 01:41:59.95	356.55	9.72	-38.8	-54.2	3.8	1.49e+00	0	54	104	0	49	20993
2026-01-03 01:42:00.96	356.42	9.78	-38.6	-54.3	3.8	1.49e+00	0	54	104	0	48	22275
2026-01-03 01:42:01.97	356.29	9.84	-39.0	-54.3	3.8	1.49e+00	0	54	104	0	48	22388
2026-01-03 01:42:02.98	356.16	9.90	-38.5	-54.3	3.8	1.49e+00	0	54	104	0	48	22275
2026-01-03 01:42:03.99	356.03	9.96	-39.0	-54.2	3.8	1.49e+00	0	54	104	0	48	22201
2026-01-03 01:42:05.00	355.90	10.02	-39.5	-54.4	3.8	1.49e+00	0	54	104	0	49	21285
2026-01-03 01:42:06.01	355.77	10.08	-39.2	-54.2	3.8	1.49e+00	0	54	104	0	49	20950
2026-01-03 01:42:07.02	355.64	10.15	-39.5	-54.3	3.8	1.49e+00	0	54	104	0	49	21190
2026-01-03 01:42:08.03	355.51	10.21	-39.7	-54.3	3.8	1.49e+00	0	54	104	0	49	21144
2026-01-03 01:42:09.04	355.38	10.27	-38.5	-54.2	3.8	1.49e+00	0	54	104	0	49	20879
2026-01-03 01:42:10.05	355.25	10.33	-39.7	-54.4	3.8	1.49e+00	0	54	104	0	50	20101
2026-01-03 01:42:11.06	355.11	10.39	-38.8	-54.2	3.8	1.49e+00	0	54	104	0	49	20877
2026-01-03 01:42:12.07	354.98	10.45	-39.8	-54.4	3.8	1.49e+00	0	54	104	0	50	20281
2026-01-03 01:42:13.08	354.84	10.51	-39.7	-54.3	3.8	1.49e+00	0	54	104	0	50	19951
2026-01-03 01:42:14.08	354.71	10.57	-39.9	-54.5	3.8	1.49e+00	0	54	104	0	50	20361
2026-01-03 01:42:15.09	354.57	10.63	-39.7	-54.3	3.8	1.49e+00	0	54	104	0	50	19867
2026-01-03 01:42:16.10	354.44	10.69	-39.6	-54.4	3.8	1.49e+00	0	54	104	0	50	20086
2026-01-03 01:42:17.12	354.30	10.75	-39.6	-54.4	3.8	1.49e+00	0	54	104	0	50	20120
2026-01-03 01:42:18.12	354.16	10.81	-39.5	-54.4	3.8	1.49e+00	0	54	104	0	50	20247
2026-01-03 01:42:19.14	354.02	10.87	-39.7	-54.4	3.8	1.49e+00	0	54	104	0	50	20094
2026-01-03 01:42:20.14	353.89	10.93	-39.8	-54.7	3.8	1.49e+00	0	54	104	0	50	20844
2026-01-03 01:42:21.15	353.75	10.99	-39.8	-54.5	3.8	1.49e+00	0	54	104	0	50	20352
2026-01-03 01:42:22.16	353.61	11.05	-39.6	-54.7	3.8	1.49e+00	0	54	104	0	50	20986
2026-01-03 01:42:23.17	353.47	11.11	-39.9	-54.6	3.8	1.49e+00	0	54	104	0	50	20591
2026-01-03 01:42:24.18	353.32	11.17	-39.8	-55.1	3.8	1.49e+00	0	54	104	0	50	21786
2026-01-03 01:42:25.19	353.18	11.23	-39.7	-54.5	3.8	1.49e+00	0	54	104	0	50	20306
2026-01-03 01:42:26.20	353.04	11.30	-39.6	-54.5	3.8	1.49e+00	0	54	104	0	50	20389
2026-01-03 01:42:27.21	352.90	11.36	-39.6	-54.5	3.8	1.49e+00	0	54	104	0	50	20354
2026-01-03 01:42:28.22	352.75	11.42	-39.5	-54.5	3.8	1.49e+00	0	54	104	0	50	20499
2026-01-03 01:42:29.23	352.61	11.48	-39.5	-54.6	3.8	1.49e+00	0	54	104	0	50	20710
2026-01-03 01:42:30.24	352.46	11.54	-39.6	-54.8	3.8	1.49e+00	0	54	104	0	50	21033
2026-01-03 01:42:31.25	352.32	11.60	-40.5	-55.3	3.8	1.49e+00	0	54	104	0	51	21229
2026-01-03 01:42:32.26	352.17	11.66	-39.4	-55.1	3.8	1.49e+00	0	55	104	0	50	21803
2026-01-03 01:42:33.26	352.03	11.72	-40.2	-54.8	3.8	1.49e+00	0	54	104	0	51	19866
2026-01-03 01:42:34.27	351.88	11.78	-40.1	-55.2	3.8	1.49e+00	0	54	104	0	51	20855
2026-01-03 01:42:35.29	351.73	11.84	-40.2	-55.3	3.8	1.49e+00	0	54	104	0	51	21143
2026-01-03 01:42:36.30	351.58	11.90	-40.3	-55.4	3.8	1.49e+00	0	55	104	0	51	21295
2026-01-03 01:42:37.31	351.43	11.96	-40.3	-55.2	3.8	1.49e+00	0	55	104	0	51	21013
2026-01-03 01:42:38.32	351.28	12.02	-40.4	-55.1	3.8	1.49e+00	0	55	104	0	51	20696
2026-01-03 01:42:39.33	351.13	12.08	-40.7	-55.3	3.8	1.49e+00	0	55	104	0	51	21100
2026-01-03 01:42:40.34	350.98	12.14	-40.6	-55.2	3.8	1.49e+00	0	55	104	0	52	19767
2026-01-03 01:42:41.35	350.83	12.20	-40.5	-55.2	3.8	1.49e+00	0	55	104	0	52	19681
2026-01-03 01:42:42.36	350.68	12.26	-40.5	-55.1	3.8	1.49e+00	0	55	104	0	52	19486
2026-01-03 01:42:43.37	350.53	12.32	-40.5	-55.2	3.8	1.49e+00	0	54	104	0	52	19649
2026-01-03 01:42:44.38	350.37	12.38	-40.6	-55.1	3.8	1.49e+00	0	55	104	0	52	19554
2026-01-03 01:42:45.39	350.22	12.44	-40.5	-55.2	3.8	1.49e+00	0	55	104	0	52	19791
2026-01-03 01:42:46.40	350.06	12.50	-40.4	-55.1	3.8	1.49e+00	0	55	104	0	52	19494
2026-01-03 01:42:47.41	349.91	12.56	-40.5	-55.1	3.8	1.49e+00	0	55	104	0	52	19430
2026-01-03 01:42:48.42	349.75	12.61	-40.1	-55.0	3.8	1.49e+00	0	55	104	0	52	19367
2026-01-03 01:42:49.43	349.60	12.67	-40.2	-54.9	3.8	1.49e+00	0	55	104	0	52	19158
2026-01-03 01:42:50.44	349.44	12.73	-40.1	-55.2	3.8	1.49e+00	0	55	104	0	52	19692
2026-01-03 01:42:51.45	349.28	12.79	-40.4	-55.0	3.8	1.49e+00	0	55	104	0	52	19358
2026-01-03 01:42:52.46	349.12	12.85	-40.1	-55.0	3.8	1.49e+00	0	55	104	0	52	19310
2026-01-03 01:42:53.47	348.96	12.91	-40.4	-55.0	3.8	1.49e+00	0	55	104	0	52	19349
2026-01-03 01:42:54.48	348.80	12.97	-40.0	-55.0	3.8	1.49e+00	0	55	104	0	52	19370
2026-01-03 01:42:55.49	348.64	13.03	-40.0	-55.1	3.8	1.49e+00	0	55	104	0	52	19524
2026-01-03 01:42:56.50	348.48	13.09	-40.0	-55.5	3.8	1.49e+00	0	55	104	0	51	21516
2026-01-03 01:42:57.51	348.32	13.15	-40.7	-55.7	3.9	1.49e+00	0	55	104	0	52	20908
2026-01-03 01:42:58.52	348.16	13.21	-41.1	-55.8	3.8	1.49e+00	0	55	104	0	52	21125
2026-01-03 01:42:59.53	347.99	13.26	-41.3	-55.9	3.9	1.49e+00	0	55	104	0	53	20210
2026-01-03 01:43:00.54	347.83	13.32	-41.3	-56.0	3.8	1.49e+00	0	55	104	0	53	20321
2026-01-03 01:43:01.55	347.67	13.38	-41.3	-55.9	3.8	1.49e+00	0	55	104	0	53	20199
2026-01-03 01:43:02.56	347.50	13.44	-41.3	-55.9	3.8	1.49e+00	0	55	104	0	53	20289
2026-01-03 01:43:03.57	347.33	13.50	-41.2	-55.9	3.8	1.49e+00	0	55	104	0	53	20276
2026-01-03 01:43:04.58	347.17	13.56	-41.3	-55.9	3.8	1.49e+00	0	55	104	0	53	20251
2026-01-03 01:43:05.59	347.00	13.61	-41.3	-56.0	3.8	1.49e+00	0	55	104	0	53	20314
2026-01-03 01:43:06.60	346.83	13.67	-41.3	-55.9	3.8	1.49e+00	0	55	104	0	53	20283
2026-01-03 01:43:07.61	346.66	13.73	-41.0	-55.8	3.8	1.49e+00	0	55	104	0	53	20048
2026-01-03 01:43:08.62	346.50	13.79	-41.3	-56.0	3.8	1.49e+00	0	55	104	0	53	20458
2026-01-03 01:43:09.63	346.33	13.84	-41.1	-55.8	3.8	1.49e+00	0	55	104	0	53	20017
2026-01-03 01:43:10.64	346.15	13.90	-41.2	-56.0	3.8	1.49e+00	0	55	104	0	53	20313
2026-01-03 01:43:11.65	345.98	13.96	-41.1	-55.7	3.8	1.49e+00	0	55	104	0	53	19818
2026-01-03 01:43:12.66	345.81	14.02	-40.5	-55.1	3.8	1.49e+00	0	55	104	0	52	19589
2026-01-03 01:43:13.67	345.64	14.07	-40.5	-55.1	3.8	1.49e+00	0	55	104	0	52	19585
2026-01-03 01:43:14.68	345.47	14.13	-40.4	-55.0	3.8	1.49e+00	0	55	104	0	52	19382
2026-01-03 01:43:15.69	345.29	14.19	-40.4	-55.1	3.8	1.49e+00	0	55	104	0	52	19470
2026-01-03 01:43:16.70	345.12	14.24	-40.3	-55.2	3.8	1.49e+00	0	55	104	0	52	19824
2026-01-03 01:43:17.71	344.94	14.30	-40.9	-55.5	3.8	1.49e+00	0	55	104	0	52	20304
2026-01-03 01:43:18.72	344.77	14.36	-40.3	-55.2	3.8	1.49e+00	0	55	104	0	52	19659
2026-01-03 01:43:19.73	344.59	14.41	-40.4	-55.3	3.8	1.49e+00	0	55	104	0	52	19867
2026-01-03 01:43:20.74	344.41	14.47	-40.4	-55.1	3.8	1.49e+00	0	55	104	0	52	19423
2026-01-03 01:43:21.75	344.23	14.53	-40.2	-55.2	3.8	1.49e+00	0	55	104	0	52	19658
2026-01-03 01:43:22.76	344.05	14.58	-40.4	-55.2	3.8	1.49e+00	0	55	104	0	52	19714
2026-01-03 01:43:23.77	343.88	14.64	-40.7	-55.6	3.8	1.49e+00	0	55	104	0	52	20570
2026-01-03 01:43:24.78	343.70	14.69	-40.2	-55.2	3.8	1.49e+00	0	55	104	0	52	19696
2026-01-03 01:43:25.79	343.51	14.75	-40.6	-55.2	3.8	1.49e+00	0	55	104	0	52	19801
2026-01-03 01:43:26.80	343.33	14.80	-40.2	-55.2	3.8	1.49e+00	0	56	104	0	52	19709
2026-01-03 01:43:27.81	343.15	14.86	-40.5	-55.2	3.8	1.49e+00	0	55	104	0	52	19744
2026-01-03 01:43:28.82	342.97	14.91	-40.2	-55.1	3.8	1.49e+00	0	55	104	0	52	19509
2026-01-03 01:43:29.83	342.78	14.97	-40.5	-55.1	3.8	1.49e+00	0	55	104	0	52	19599
2026-01-03 01:43:30.84	342.60	15.02	-40.2	-55.2	3.8	1.49e+00	0	55	104	0	52	19623
2026-01-03 01:43:31.85	342.42	15.08	-40.8	-55.3	3.8	1.49e+00	0	55	104	0	52	20019
2026-01-03 01:43:32.86	342.23	15.13	-40.5	-55.1	3.8	1.49e+00	0	55	104	0	52	19527
2026-01-03 01:43:33.87	342.04	15.19	-40.6	-55.2	3.8	1.49e+00	0	55	104	0	52	19671
2026-01-03 01:43:34.88	341.86	15.24	-40.3	-54.9	3.8	1.49e+00	0	55	104	0	52	19151
2026-01-03 01:43:35.88	341.67	15.29	-40.1	-54.6	3.8	1.49e+00	0	55	104	0	52	18458
2026-01-03 01:43:36.89	341.48	15.35	-40.5	-55.1	3.8	1.49e+00	0	55	104	0	52	19533
2026-01-03 01:43:37.90	341.29	15.40	-40.1	-54.7	3.8	1.49e+00	0	56	104	0	52	18582
2026-01-03 01:43:38.91	341.10	15.45	-40.3	-54.8	3.8	1.49e+00	0	55	104	0	52	18913
2026-01-03 01:43:39.92	340.91	15.50	-40.1	-54.7	3.8	1.49e+00	0	55	104	0	52	18689
2026-01-03 01:43:40.93	340.72	15.56	-40.1	-54.6	3.8	1.49e+00	0	56	104	0	52	18461
2026-01-03 01:43:41.94	340.53	15.61	-40.0	-54.6	3.8	1.49e+00	0	56	104	0	52	18515
2026-01-03 01:43:42.95	340.34	15.66	-40.1	-54.6	3.8	1.49e+00	0	56	104	0	52	18489
2026-01-03 01:43:43.96	340.15	15.71	-41.0	-53.2	3.8	1.49e+00	0	56	104	0	52	15709
2026-01-03 01:43:44.98	339.95	15.77	-40.0	-54.6	3.8	1.49e+00	0	55	104	0	52	18422
2026-01-03 01:43:45.99	339.75	15.82	-41.0	-51.0	4.7	1.43e+00	0	56	104	0	52	12113
2026-01-03 01:43:47.00	339.56	15.87	-41.6	-49.1	6.7	3.54e-01	0	56	0	1048576	53	9268
2026-01-03 01:43:48.01	339.36	15.92	-41.8	-47.8	8.6	8.63e-02	0	56	0	3145728	54	7495
2026-01-03 01:43:49.02	339.17	15.97	-41.8	-47.0	9.9	1.95e-02	0	56	0	4194304	54	6866
2026-01-03 01:43:50.03	338.97	16.02	-41.5	-46.1	11.0	2.49e-03	0	55	0	6291456	54	6182
2026-01-03 01:43:51.04	338.77	16.07	-41.2	-45.4	11.9	7.26e-04	0	56	0	8388608	54	5687
2026-01-03 01:43:52.04	338.58	16.12	-41.3	-45.4	12.0	3.18e-04	0	55	0	10485760	54	5695
2026-01-03 01:43:53.05	338.38	16.17	-41.0	-44.9	12.5	1.77e-04	0	56	0	12582912	54	5360
2026-01-03 01:43:54.06	338.18	16.22	-40.4	-43.8	13.6	2.36e-05	0	56	0	14680064	52	5336
2026-01-03 01:43:55.07	337.98	16.27	-40.0	-43.1	14.4	7.00e-07	0	56	0	15728640	51	5181
2026-01-03 01:43:56.08	337.77	16.32	-39.8	-42.7	14.9	0.00e+00	0	56	0	17825792	51	4940
2026-01-03 01:43:57.09	337.57	16.37	-39.8	-42.7	14.9	7.00e-07	0	55	0	19922944	51	4949
2026-01-03 01:43:58.10	337.37	16.42	-39.3	-41.9	15.6	0.00e+00	0	56	0	22020096	50	4801
2026-01-03 01:43:59.11	337.17	16.47	-38.9	-41.4	16.1	0.00e+00	0	55	0	24117248	49	4771
2026-01-03 01:44:00.12	336.96	16.51	-38.8	-41.2	16.3	0.00e+00	0	56	0	25165824	49	4675
2026-01-03 01:44:01.13	336.76	16.56	-39.2	-41.7	15.8	0.00e+00	0	56	0	27262976	49	4978
2026-01-03 01:44:02.14	336.55	16.61	-39.4	-42.1	15.5	0.00e+00	0	56	0	29360128	49	5169
2026-01-03 01:44:03.15	336.35	16.66	-39.6	-42.3	15.2	0.00e+00	0	56	0	31457280	49	5338
2026-01-03 01:44:04.16	336.14	16.70	-39.7	-42.5	15.1	0.00e+00	0	56	0	33554432	50	5140
2026-01-03 01:44:05.16	335.94	16.75	-39.8	-42.7	15.0	0.00e+00	0	56	0	34603008	50	5230
2026-01-03 01:44:06.17	335.73	16.80	-39.4	-42.0	15.5	0.00e+00	0	56	0	36700160	50	4861
2026-01-03 01:44:07.18	335.52	16.84	-38.9	-41.4	16.2	0.00e+00	0	56	0	38797312	49	4770
2026-01-03 01:44:08.20	335.31	16.89	-38.7	-41.0	16.5	0.00e+00	0	56	0	40894464	49	4593
2026-01-03 01:44:09.20	335.10	16.93	-38.7	-41.0	16.6	0.00e+00	0	56	0	42991616	49	4564
2026-01-03 01:44:10.21	334.89	16.98	-38.6	-40.8	16.6	0.00e+00	0	56	0	44040192	49	4493
2026-01-03 01:44:11.22	334.68	17.02	-38.8	-41.2	16.4	0.00e+00	0	56	0	46137344	49	4659
2026-01-03 01:44:12.23	334.47	17.07	-38.7	-41.1	16.5	0.00e+00	0	56	0	48234496	49	4616
2026-01-03 01:44:13.24	334.25	17.11	-38.7	-41.0	16.5	0.00e+00	0	56	0	50331648	49	4592
2026-01-03 01:44:14.25	334.04	17.16	-38.6	-40.9	16.6	0.00e+00	0	56	0	52428800	49	4504
2026-01-03 01:44:15.25	333.83	17.20	-38.5	-40.7	16.9	0.00e+00	0	56	0	53477376	48	4662
2026-01-03 01:44:16.26	333.62	17.24	-38.2	-40.3	17.3	0.00e+00	0	56	0	55574528	48	4470
2026-01-03 01:44:17.27	333.40	17.28	-38.1	-40.2	17.4	0.00e+00	0	56	0	57671680	48	4394
2026-01-03 01:44:18.28	333.19	17.33	-37.9	-39.9	17.6	0.00e+00	0	56	0	59768832	47	4509
2026-01-03 01:44:19.29	332.97	17.37	-37.7	-39.6	17.9	0.00e+00	0	56	0	61865984	47	4361
2026-01-03 01:44:20.30	332.75	17.41	-37.8	-39.7	17.8	0.00e+00	0	56	0	62914560	47	4428
2026-01-03 01:44:21.31	332.53	17.45	-37.8	-39.8	17.8	0.00e+00	0	56	0	65011712	47	4448
2026-01-03 01:44:22.32	332.32	17.49	-38.0	-40.0	17.5	0.00e+00	0	56	0	67108864	47	4592
2026-01-03 01:44:23.33	332.10	17.53	-38.2	-40.4	17.2	0.00e+00	0	56	0	69206016	47	4765
2026-01-03 01:44:24.34	331.88	17.57	-38.4	-40.6	17.0	0.00e+00	0	56	0	71303168	47	4880
2026-01-03 01:44:25.35	331.66	17.61	-38.4	-40.6	17.0	0.00e+00	0	56	0	72351744	47	4896
2026-01-03 01:44:26.36	331.44	17.65	-38.5	-40.8	16.9	0.00e+00	0	56	0	74448896	47	5004
2026-01-03 01:44:27.37	331.22	17.69	-38.5	-40.7	16.9	0.00e+00	0	56	0	76546048	47	4931
2026-01-03 01:44:28.37	331.00	17.73	-38.4	-40.5	17.0	0.00e+00	0	56	0	78643200	47	4864
2026-01-03 01:44:29.38	330.78	17.77	-38.7	-41.0	16.6	0.00e+00	0	56	0	80740352	47	5106
2026-01-03 01:44:30.39	330.55	17.81	-38.9	-41.2	16.5	0.00e+00	0	56	0	82837504	48	4962
2026-01-03 01:44:31.40	330.33	17.85	-39.2	-41.6	16.1	0.00e+00	0	56	0	83886080	48	5210
2026-01-03 01:44:32.41	330.11	17.88	-39.3	-41.8	15.8	0.00e+00	0	56	0	85983232	49	5022
2026-01-03 01:44:33.42	329.88	17.92	-39.4	-42.0	15.8	0.00e+00	0	56	0	88080384	49	5109
2026-01-03 01:44:34.43	329.66	17.96	-39.3	-41.8	16.0	0.00e+00	0	56	0	90177536	49	4986
2026-01-03 01:44:35.44	329.43	17.99	-39.1	-41.5	16.2	0.00e+00	0	56	0	92274688	49	4822
2026-01-03 01:44:36.45	329.21	18.03	-39.0	-41.4	16.3	0.00e+00	0	56	0	93323264	49	4781
2026-01-03 01:44:37.46	328.98	18.07	-38.7	-40.9	16.8	0.00e+00	0	56	0	95420416	49	4515
2026-01-03 01:44:38.47	328.75	18.10	-38.5	-40.6	17.1	0.00e+00	0	56	0	97517568	48	4616
2026-01-03 01:44:39.48	328.53	18.13	-38.4	-40.6	17.2	0.00e+00	0	56	0	99614720	48	4613
2026-01-03 01:44:40.49	328.30	18.17	-38.1	-40.1	17.6	0.00e+00	0	56	0	101711872	48	4349
2026-01-03 01:44:41.50	328.07	18.20	-37.8	-39.7	17.8	0.00e+00	0	56	0	102760448	47	4434
2026-01-03 01:44:42.51	327.84	18.24	-37.8	-39.7	17.9	0.00e+00	0	56	0	104857600	47	4426
2026-01-03 01:44:43.52	327.61	18.27	-37.7	-39.6	17.9	0.00e+00	0	56	0	106954752	47	4384
2026-01-03 01:44:44.53	327.38	18.30	-37.7	-39.6	18.0	0.00e+00	0	56	0	109051904	47	4345
2026-01-03 01:44:45.53	327.15	18.33	-37.7	-39.6	18.0	0.00e+00	0	56	0	111149056	47	4358
2026-01-03 01:44:46.54	326.92	18.36	-37.6	-39.5	18.1	0.00e+00	0	56	0	112197632	47	4315
2026-01-03 01:44:47.55	326.69	18.40	-37.4	-39.2	18.3	0.00e+00	0	56	0	114294784	46	4405
2026-01-03 01:44:48.56	326.46	18.43	-37.4	-39.3	18.3	0.00e+00	0	56	0	116391936	46	4443
2026-01-03 01:44:49.57	326.22	18.46	-37.4	-39.2	18.4	0.00e+00	0	56	0	118489088	46	4399
2026-01-03 01:44:50.58	325.99	18.49	-37.4	-39.2	18.4	0.00e+00	0	56	0	120586240	46	4415
2026-01-03 01:44:51.59	325.76	18.52	-37.6	-39.4	18.1	0.00e+00	0	56	0	121634816	46	4544
2026-01-03 01:44:52.60	325.52	18.54	-37.7	-39.7	18.0	0.00e+00	0	56	0	123731968	46	4652
2026-01-03 01:44:53.61	325.29	18.57	-38.0	-40.0	17.7	0.00e+00	0	56	0	125829120	46	4841
2026-01-03 01:44:54.62	325.05	18.60	-38.2	-40.2	17.4	0.00e+00	0	56	0	127926272	47	4676
2026-01-03 01:44:55.63	324.82	18.63	-38.3	-40.4	17.3	0.00e+00	0	56	0	130023424	47	4794
2026-01-03 01:44:56.64	324.58	18.65	-38.4	-40.5	17.1	0.00e+00	0	56	0	131072000	47	4850
2026-01-03 01:44:57.65	324.35	18.68	-38.4	-40.5	17.1	0.00e+00	0	56	0	133169152	47	4844
2026-01-03 01:44:58.66	324.11	18.71	-38.3	-40.4	17.2	0.00e+00	0	56	0	135266304	47	4790
2026-01-03 01:44:59.67	323.87	18.73	-38.3	-40.4	17.2	0.00e+00	0	56	0	137363456	47	4777
2026-01-03 01:45:00.68	323.64	18.76	-38.3	-40.4	17.2	0.00e+00	0	56	0	139460608	47	4801
2026-01-03 01:45:01.69	323.40	18.78	-38.5	-40.6	17.0	0.00e+00	0	56	0	140509184	47	4922
2026-01-03 01:45:02.70	323.16	18.81	-38.9	-41.2	16.6	0.00e+00	0	56	0	142606336	48	4929
2026-01-03 01:45:03.71	322.92	18.83	-39.0	-41.3	16.5	0.00e+00	0	56	0	144703488	48	5007
2026-01-03 01:45:04.72	322.68	18.85	-39.3	-41.8	16.0	0.00e+00	0	56	0	146800640	49	4996
2026-01-03 01:45:05.73	322.44	18.88	-39.5	-42.1	15.6	0.00e+00	0	56	0	148897792	49	5179
2026-01-03 01:45:06.74	322.20	18.90	-39.5	-42.1	15.7	0.00e+00	0	56	0	150994944	49	5165
2026-01-03 01:45:07.75	321.96	18.92	-39.4	-41.9	15.8	0.00e+00	0	56	0	152043520	49	5090
2026-01-03 01:45:08.76	321.72	18.94	-39.2	-41.5	16.1	0.00e+00	0	56	0	154140672	49	4860
2026-01-03 01:45:09.77	321.48	18.96	-38.9	-41.2	16.4	0.00e+00	0	56	0	156237824	49	4668
2026-01-03 01:45:10.78	321.24	18.98	-38.6	-40.8	16.9	0.00e+00	0	56	0	158334976	49	4448
2026-01-03 01:45:11.78	321.00	19.00	-38.4	-40.4	17.3	0.00e+00	0	56	0	160432128	48	4527
2026-01-03 01:45:12.79	320.76	19.02	-38.4	-40.5	17.2	0.00e+00	0	56	0	161480704	48	4548
2026-01-03 01:45:13.80	320.52	19.04	-38.5	-40.6	17.2	0.00e+00	0	56	0	163577856	48	4643
2026-01-03 01:45:14.81	320.28	19.06	-38.7	-40.9	16.8	0.00e+00	0	56	0	165675008	48	4794
2026-01-03 01:45:15.82	320.03	19.07	-39.0	-41.4	16.3	0.00e+00	0	56	0	167772160	48	5053
2026-01-03 01:45:16.83	319.79	19.09	-39.2	-41.7	15.9	0.00e+00	0	56	0	169869312	49	4964
2026-01-03 01:45:17.84	319.55	19.11	-39.1	-41.5	16.2	0.00e+00	0	56	0	170917888	49	4850
2026-01-03 01:45:18.85	319.31	19.12	-39.0	-41.4	16.3	0.00e+00	0	56	0	173015040	49	4784
2026-01-03 01:45:19.86	319.06	19.14	-38.7	-41.0	16.7	0.00e+00	0	56	0	175112192	49	4551
2026-01-03 01:45:20.86	318.82	19.15	-38.6	-40.8	16.9	0.00e+00	0	56	0	177209344	49	4490
2026-01-03 01:45:21.87	318.58	19.17	-38.6	-40.9	16.9	0.00e+00	0	56	0	179306496	49	4496
2026-01-03 01:45:22.89	318.33	19.18	-38.8	-41.0	16.6	0.00e+00	0	56	0	180355072	49	4589
2026-01-03 01:45:23.90	318.08	19.19	-39.0	-41.4	16.4	0.00e+00	0	56	0	182452224	49	4767
2026-01-03 01:45:24.91	317.84	19.21	-39.2	-41.7	16.0	0.00e+00	0	56	0	184549376	49	4950
2026-01-03 01:45:25.92	317.60	19.22	-39.7	-42.5	15.3	0.00e+00	0	56	0	186646528	49	5416
2026-01-03 01:45:26.93	317.35	19.23	-39.9	-42.8	14.9	0.00e+00	0	56	0	188743680	50	5313
2026-01-03 01:45:27.94	317.10	19.24	-40.0	-42.9	14.8	0.00e+00	0	56	0	189792256	50	5388
2026-01-03 01:45:28.95	316.86	19.25	-40.1	-43.1	14.6	7.00e-07	0	56	0	191889408	50	5509
2026-01-03 01:45:29.96	316.61	19.26	-40.0	-43.0	14.6	0.00e+00	0	56	0	193986560	50	5410
2026-01-03 01:45:30.97	316.37	19.27	-39.7	-42.5	15.3	0.00e+00	0	56	0	196083712	50	5106
2026-01-03 01:45:31.98	316.12	19.28	-39.4	-42.0	15.7	0.00e+00	0	56	0	198180864	50	4843
2026-01-03 01:45:32.99	315.88	19.29	-39.2	-41.7	16.0	0.00e+00	0	56	0	199229440	50	4671
2026-01-03 01:45:34.00	315.63	19.30	-39.1	-41.6	16.1	0.00e+00	0	56	0	201326592	50	4622
2026-01-03 01:45:35.01	315.38	19.30	-39.1	-41.7	16.1	0.00e+00	0	56	0	203423744	50	4663
2026-01-03 01:45:36.01	315.14	19.31	-39.3	-41.9	15.7	0.00e+00	0	56	0	205520896	50	4810
2026-01-03 01:45:37.02	314.89	19.32	-39.2	-41.8	15.9	0.00e+00	0	56	0	207618048	50	4731
2026-01-03 01:45:38.03	314.65	19.32	-39.3	-42.0	15.7	0.00e+00	0	56	0	208666624	50	4830
2026-01-03 01:45:39.04	314.40	19.33	-39.4	-42.1	15.6	0.00e+00	0	56	0	210763776	50	4873
2026-01-03 01:45:40.05	314.15	19.33	-39.4	-42.1	15.6	0.00e+00	0	56	0	212860928	50	4911
2026-01-03 01:45:41.06	313.90	19.34	-39.5	-42.2	15.5	0.00e+00	0	56	0	214958080	50	4978
2026-01-03 01:45:42.07	313.66	19.34	-39.3	-42.0	15.7	0.00e+00	0	56	0	217055232	50	4820
2026-01-03 01:45:43.08	313.41	19.34	-39.1	-41.7	16.0	0.00e+00	0	56	0	219152384	50	4668
2026-01-03 01:45:44.09	313.16	19.35	-38.8	-41.1	16.5	0.00e+00	0	56	0	220200960	49	4649
2026-01-03 01:45:45.10	312.92	19.35	-38.7	-41.0	16.6	0.00e+00	0	56	0	222298112	49	4595
2026-01-03 01:45:46.11	312.67	19.35	-38.6	-40.9	16.7	0.00e+00	0	56	0	224395264	49	4544
2026-01-03 01:45:47.12	312.42	19.35	-38.8	-41.1	16.6	0.00e+00	0	56	0	226492416	49	4637
2026-01-03 01:45:48.13	312.17	19.35	-38.8	-41.2	16.5	0.00e+00	0	56	0	228589568	49	4653
2026-01-03 01:45:49.14	311.93	19.35	-38.8	-41.1	16.5	0.00e+00	0	56	0	229638144	49	4650
2026-01-03 01:45:50.15	311.68	19.35	-38.9	-41.2	16.4	0.00e+00	0	56	0	231735296	49	4703
2026-01-03 01:45:51.16	311.43	19.35	-38.8	-41.2	16.4	0.00e+00	0	56	0	233832448	49	4679
2026-01-03 01:45:52.17	311.19	19.34	-39.0	-41.5	16.2	0.00e+00	0	56	0	235929600	49	4817
2026-01-03 01:45:53.18	310.94	19.34	-39.1	-41.6	16.0	0.00e+00	0	56	0	238026752	49	4900
2026-01-03 01:45:54.19	310.69	19.34	-39.2	-41.9	15.9	0.00e+00	0	56	0	239075328	49	5043
2026-01-03 01:45:55.20	310.44	19.33	-39.1	-41.6	16.0	0.00e+00	0	56	0	241172480	49	4915
2026-01-03 01:45:56.21	310.20	19.33	-39.1	-41.7	16.0	0.00e+00	0	56	0	243269632	49	4936
2026-01-03 01:45:57.22	309.95	19.33	-39.1	-41.6	16.0	0.00e+00	0	56	0	245366784	49	4874
2026-01-03 01:45:58.23	309.70	19.32	-39.1	-41.6	16.0	0.00e+00	0	56	0	247463936	49	4908
2026-01-03 01:45:59.25	309.45	19.31	-39.0	-41.5	16.2	0.00e+00	0	56	0	248512512	49	4839
2026-01-03 01:46:00.25	309.21	19.31	-39.1	-41.6	16.2	0.00e+00	0	56	0	250609664	49	4877
2026-01-03 01:46:01.26	308.96	19.30	-39.1	-41.5	16.2	0.00e+00	0	56	0	252706816	49	4865
2026-01-03 01:46:02.27	308.72	19.29	-39.2	-41.7	15.9	0.00e+00	0	56	0	254803968	49	4978
2026-01-03 01:46:03.28	308.47	19.28	-39.3	-42.0	15.8	0.00e+00	0	56	0	256901120	49	5102
2026-01-03 01:46:04.29	308.22	19.28	-39.5	-42.2	15.5	0.00e+00	0	56	0	257949696	49	5254
2026-01-03 01:46:05.30	307.98	19.27	-39.6	-42.3	15.3	0.00e+00	0	56	0	260046848	49	5338
2026-01-03 01:46:06.31	307.73	19.26	-39.9	-42.8	14.9	0.00e+00	0	56	0	262144000	50	5325
2026-01-03 01:46:07.33	307.48	19.25	-40.0	-43.0	14.7	1.50e-06	0	56	0	264241152	50	5403
2026-01-03 01:46:08.33	307.24	19.23	-39.7	-42.6	15.2	0.00e+00	0	56	0	266338304	50	5190
2026-01-03 01:46:09.34	306.99	19.22	-39.6	-42.4	15.3	0.00e+00	0	56	0	267386880	50	5067
2026-01-03 01:46:10.35	306.75	19.21	-39.5	-42.1	15.6	0.00e+00	0	56	0	269484032	50	4925
2026-01-03 01:46:11.36	306.50	19.20	-39.3	-41.8	15.9	0.00e+00	0	56	0	271581184	50	4727
2026-01-03 01:46:12.37	306.26	19.19	-38.9	-41.2	16.5	0.00e+00	0	56	0	273678336	49	4675
2026-01-03 01:46:13.38	306.02	19.17	-38.6	-40.8	16.8	0.00e+00	0	56	0	275775488	49	4466
2026-01-03 01:46:14.39	305.77	19.16	-38.3	-40.4	17.3	0.00e+00	0	56	0	276824064	48	4513
2026-01-03 01:46:15.40	305.53	19.14	-38.1	-40.2	17.5	0.00e+00	0	56	0	278921216	48	4396
2026-01-03 01:46:16.41	305.28	19.13	-38.2	-40.3	17.4	0.00e+00	0	56	0	281018368	48	4455
2026-01-03 01:46:17.42	305.04	19.11	-38.2	-40.4	17.3	0.00e+00	0	56	0	283115520	48	4509
2026-01-03 01:46:18.43	304.80	19.10	-38.2	-40.2	17.4	0.00e+00	0	56	0	285212672	48	4437
2026-01-03 01:46:19.44	304.55	19.08	-38.2	-40.3	17.3	0.00e+00	0	56	0	287309824	48	4487
2026-01-03 01:46:20.45	304.31	19.06	-38.2	-40.2	17.4	0.00e+00	0	56	0	288358400	48	4430
2026-01-03 01:46:21.46	304.07	19.04	-38.0	-39.9	17.8	0.00e+00	0	56	0	290455552	47	4514
2026-01-03 01:46:22.47	303.82	19.03	-37.9	-39.7	18.0	0.00e+00	0	56	0	292552704	47	4410
2026-01-03 01:46:23.48	303.58	19.01	-37.9	-39.8	17.9	0.00e+00	0	56	0	294649856	47	4452
2026-01-03 01:46:24.49	303.34	18.99	-38.0	-39.8	17.9	0.00e+00	0	56	0	296747008	47	4475
2026-01-03 01:46:25.50	303.10	18.97	-38.1	-40.0	17.7	0.00e+00	0	56	0	297795584	47	4578
2026-01-03 01:46:26.51	302.86	18.95	-38.2	-40.1	17.6	0.00e+00	0	56	0	299892736	47	4612
2026-01-03 01:46:27.52	302.62	18.93	-38.0	-39.9	17.9	0.00e+00	0	56	0	301989888	47	4510
2026-01-03 01:46:28.53	302.38	18.90	-37.9	-39.7	18.0	0.00e+00	0	56	0	304087040	47	4431
2026-01-03 01:46:29.54	302.14	18.88	-37.9	-39.7	18.0	0.00e+00	0	56	0	306184192	47	4425
2026-01-03 01:46:30.55	301.90	18.86	-37.8	-39.6	18.1	0.00e+00	0	56	0	307232768	47	4387
2026-01-03 01:46:31.56	301.66	18.84	-37.7	-39.5	18.2	0.00e+00	0	56	0	309329920	47	4314
2026-01-03 01:46:32.57	301.42	18.81	-37.7	-39.5	18.2	0.00e+00	0	56	0	311427072	47	4318
2026-01-03 01:46:33.57	301.18	18.79	-37.7	-39.5	18.2	0.00e+00	0	56	0	313524224	47	4312
2026-01-03 01:46:34.58	300.94	18.77	-37.9	-39.7	18.0	0.00e+00	0	56	0	315621376	47	4393
2026-01-03 01:46:35.59	300.71	18.74	-38.0	-39.8	17.9	0.00e+00	0	57	0	316669952	47	4485
2026-01-03 01:46:36.60	300.47	18.72	-38.1	-40.0	17.7	0.00e+00	0	56	0	318767104	47	4582
2026-01-03 01:46:37.61	300.23	18.69	-38.3	-40.3	17.5	0.00e+00	0	56	0	320864256	47	4709
2026-01-03 01:46:38.62	299.99	18.66	-38.3	-40.3	17.5	0.00e+00	0	56	0	322961408	47	4716
2026-01-03 01:46:39.63	299.76	18.64	-38.5	-40.5	17.2	0.00e+00	0	56	0	325058560	47	4826
2026-01-03 01:46:40.64	299.52	18.61	-38.4	-40.4	17.3	0.00e+00	0	57	0	326107136	47	4785
2026-01-03 01:46:41.65	299.29	18.58	-38.6	-40.6	17.2	0.00e+00	0	57	0	328204288	47	4886
2026-01-03 01:46:42.66	299.05	18.55	-38.6	-40.7	17.0	0.00e+00	0	57	0	330301440	47	4944
2026-01-03 01:46:43.66	298.82	18.52	-38.5	-40.6	17.1	0.00e+00	0	57	0	332398592	47	4895
2026-01-03 01:46:44.67	298.59	18.50	-38.5	-40.6	17.1	0.00e+00	0	56	0	334495744	47	4879
2026-01-03 01:46:45.68	298.35	18.47	-38.3	-40.3	17.5	0.00e+00	0	57	0	335544320	47	4722
2026-01-03 01:46:46.69	298.12	18.44	-38.3	-40.3	17.4	0.00e+00	0	56	0	337641472	47	4745
2026-01-03 01:46:47.70	297.89	18.41	-38.4	-40.3	17.4	0.00e+00	0	57	0	339738624	47	4759
2026-01-03 01:46:48.71	297.65	18.37	-38.5	-40.5	17.2	0.00e+00	0	57	0	341835776	47	4834
2026-01-03 01:46:49.72	297.42	18.34	-38.6	-40.7	17.0	0.00e+00	0	56	0	343932928	47	4973
2026-01-03 01:46:50.73	297.19	18.31	-38.9	-41.1	16.8	0.00e+00	0	57	0	344981504	48	4901
2026-01-03 01:46:51.74	296.96	18.28	-39.1	-41.3	16.6	0.00e+00	0	57	0	347078656	48	4990
2026-01-03 01:46:52.75	296.73	18.25	-39.3	-41.5	16.3	0.00e+00	0	57	0	349175808	49	4860
2026-01-03 01:46:53.76	296.50	18.21	-39.6	-42.0	15.9	0.00e+00	0	57	0	351272960	49	5106
2026-01-03 01:46:54.77	296.27	18.18	-39.7	-42.2	15.6	0.00e+00	0	57	0	353370112	50	4945
2026-01-03 01:46:55.78	296.04	18.14	-39.7	-42.1	15.8	0.00e+00	0	57	0	354418688	50	4913
2026-01-03 01:46:56.78	295.82	18.11	-39.7	-42.1	15.8	0.00e+00	0	56	0	356515840	50	4871
2026-01-03 01:46:57.79	295.59	18.08	-39.5	-41.8	16.1	0.00e+00	0	57	0	358612992	50	4738
2026-01-03 01:46:58.80	295.36	18.04	-39.4	-41.6	16.2	0.00e+00	0	57	0	360710144	50	4642
2026-01-03 01:46:59.82	295.13	18.00	-39.5	-41.8	16.0	0.00e+00	0	57	0	362807296	50	4730
2026-01-03 01:47:00.82	294.91	17.97	-39.4	-41.7	16.1	0.00e+00	0	57	0	363855872	50	4667
2026-01-03 01:47:01.83	294.68	17.93	-39.4	-41.8	16.1	0.00e+00	0	57	0	365953024	50	4714
2026-01-03 01:47:02.84	294.46	17.90	-39.4	-41.7	16.1	0.00e+00	0	57	0	368050176	50	4703
2026-01-03 01:47:03.85	294.23	17.86	-39.3	-41.5	16.3	0.00e+00	0	56	0	370147328	50	4578
2026-01-03 01:47:04.86	294.01	17.82	-39.3	-41.5	16.4	0.00e+00	0	56	0	372244480	50	4568
2026-01-03 01:47:05.87	293.78	17.78	-39.2	-41.4	16.4	0.00e+00	0	56	0	373293056	50	4541
2026-01-03 01:47:06.88	293.56	17.74	-39.4	-41.7	16.1	0.00e+00	0	56	0	375390208	50	4675
2026-01-03 01:47:07.89	293.34	17.71	-39.5	-41.8	16.0	0.00e+00	0	57	0	377487360	50	4742
2026-01-03 01:47:08.90	293.12	17.67	-39.6	-41.9	15.9	0.00e+00	0	57	0	379584512	50	4811
2026-01-03 01:47:09.91	292.90	17.63	-39.8	-42.3	15.6	0.00e+00	0	57	0	381681664	50	4992
2026-01-03 01:47:10.92	292.68	17.59	-39.7	-42.2	15.6	0.00e+00	0	57	0	383778816	50	4932
2026-01-03 01:47:11.92	292.46	17.55	-39.5	-41.8	16.0	0.00e+00	0	57	0	384827392	50	4727
2026-01-03 01:47:12.93	292.24	17.51	-39.5	-41.8	16.0	0.00e+00	0	57	0	386924544	50	4721
2026-01-03 01:47:13.94	292.02	17.46	-39.3	-41.5	16.3	0.00e+00	0	57	0	389021696	50	4593
2026-01-03 01:47:14.95	291.80	17.42	-39.2	-41.3	16.4	0.00e+00	0	56	0	391118848	50	4493
2026-01-03 01:47:15.96	291.58	17.38	-39.2	-41.5	16.3	0.00e+00	0	57	0	393216000	50	4553
2026-01-03 01:47:16.97	291.37	17.34	-39.2	-41.5	16.3	0.00e+00	0	57	0	394264576	50	4557
2026-01-03 01:47:17.98	291.15	17.30	-39.3	-41.6	16.2	0.00e+00	0	57	0	396361728	50	4623
2026-01-03 01:47:18.99	290.94	17.25	-39.4	-41.6	16.2	0.00e+00	0	57	0	398458880	50	4642
2026-01-03 01:47:20.00	290.72	17.21	-39.3	-41.6	16.2	0.00e+00	0	57	0	400556032	50	4617
2026-01-03 01:47:21.01	290.51	17.17	-39.2	-41.4	16.3	0.00e+00	0	57	0	402653184	50	4532
2026-01-03 01:47:22.02	290.29	17.12	-39.3	-41.5	16.2	0.00e+00	0	57	0	403701760	50	4597
2026-01-03 01:47:23.03	290.08	17.08	-39.3	-41.5	16.3	0.00e+00	0	57	0	405798912	50	4584
2026-01-03 01:47:24.04	289.87	17.03	-39.3	-41.5	16.3	0.00e+00	0	57	0	407896064	50	4567
2026-01-03 01:47:25.05	289.65	16.99	-39.1	-41.2	16.6	0.00e+00	0	57	0	409993216	50	4423
2026-01-03 01:47:26.06	289.44	16.94	-38.8	-40.9	16.8	0.00e+00	0	57	0	412090368	49	4510
2026-01-03 01:47:27.07	289.23	16.90	-38.7	-40.7	17.1	0.00e+00	0	57	0	413138944	49	4398
2026-01-03 01:47:28.07	289.02	16.85	-38.6	-40.7	17.0	0.00e+00	0	57	0	415236096	49	4393
2026-01-03 01:47:29.08	288.81	16.81	-38.6	-40.5	17.2	0.00e+00	0	57	0	417333248	49	4331
2026-01-03 01:47:30.09	288.61	16.76	-38.5	-40.5	17.2	0.00e+00	0	57	0	419430400	49	4319
2026-01-03 01:47:31.10	288.40	16.71	-38.4	-40.4	17.3	0.00e+00	0	57	0	421527552	48	4519
2026-01-03 01:47:32.11	288.19	16.67	-38.4	-40.4	17.3	0.00e+00	0	56	0	422576128	48	4505
2026-01-03 01:47:33.12	287.98	16.62	-38.5	-40.4	17.2	0.00e+00	0	56	0	424673280	48	4541
2026-01-03 01:47:34.13	287.78	16.57	-38.4	-40.4	17.3	0.00e+00	0	57	0	426770432	48	4526
2026-01-03 01:47:35.14	287.57	16.53	-38.6	-40.6	17.1	0.00e+00	0	57	0	428867584	48	4606
2026-01-03 01:47:36.15	287.37	16.48	-38.9	-41.0	16.7	0.00e+00	0	56	0	430964736	48	4849
2026-01-03 01:47:37.16	287.16	16.43	-39.3	-41.6	16.1	0.00e+00	0	57	0	432013312	49	4911
2026-01-03 01:47:38.17	286.96	16.38	-39.8	-42.3	15.4	0.00e+00	0	56	0	434110464	50	5001
2026-01-03 01:47:39.18	286.76	16.33	-40.0	-42.7	15.1	0.00e+00	0	57	0	436207616	50	5223
2026-01-03 01:47:40.19	286.55	16.28	-40.2	-42.9	14.9	0.00e+00	0	57	0	438304768	50	5348
2026-01-03 01:47:41.20	286.35	16.23	-39.9	-42.5	15.2	0.00e+00	0	57	0	440401920	50	5139
2026-01-03 01:47:42.21	286.15	16.18	-39.9	-42.5	15.2	0.00e+00	0	57	0	441450496	50	5121
2026-01-03 01:47:43.22	285.95	16.13	-39.8	-42.4	15.4	0.00e+00	0	57	0	443547648	50	5057
2026-01-03 01:47:44.23	285.75	16.08	-39.8	-42.3	15.4	0.00e+00	0	57	0	445644800	50	4996
2026-01-03 01:47:45.24	285.55	16.03	-39.7	-42.1	15.6	0.00e+00	0	57	0	447741952	50	4917
2026-01-03 01:47:46.24	285.36	15.98	-40.0	-42.6	15.3	0.00e+00	0	57	0	449839104	50	5162
2026-01-03 01:47:47.25	285.16	15.93	-39.9	-42.5	15.2	0.00e+00	0	57	0	451936256	50	5137
2026-01-03 01:47:48.26	284.96	15.88	-40.0	-42.6	15.1	7.00e-07	0	57	0	452984832	50	5211
2026-01-03 01:47:49.27	284.77	15.83	-40.1	-42.8	14.9	0.00e+00	0	57	0	455081984	51	4996
2026-01-03 01:47:50.28	284.57	15.78	-40.1	-42.8	14.9	0.00e+00	0	57	0	457179136	51	5000
2026-01-03 01:47:51.29	284.37	15.73	-40.2	-43.0	14.7	0.00e+00	0	57	0	459276288	51	5112
2026-01-03 01:47:52.30	284.18	15.67	-40.1	-42.7	15.0	7.00e-07	0	56	0	461373440	51	4962
2026-01-03 01:47:53.31	283.99	15.62	-39.8	-42.3	15.4	0.00e+00	0	57	0	462422016	51	4735
2026-01-03 01:47:54.32	283.79	15.57	-39.2	-41.5	16.2	0.00e+00	0	57	0	464519168	50	4564
2026-01-03 01:47:55.33	283.60	15.52	-39.3	-41.6	16.1	0.00e+00	0	57	0	466616320	50	4626
2026-01-03 01:47:56.33	283.41	15.46	-39.2	-41.4	16.3	0.00e+00	0	57	0	468713472	50	4512
2026-01-03 01:47:57.34	283.22	15.41	-39.4	-41.7	16.0	0.00e+00	0	57	0	470810624	50	4664
2026-01-03 01:47:58.35	283.03	15.36	-39.3	-41.6	16.1	0.00e+00	0	56	0	471859200	50	4610
2026-01-03 01:47:59.36	282.84	15.30	-39.3	-41.6	16.0	0.00e+00	0	57	0	473956352	50	4633
2026-01-03 01:48:00.37	282.65	15.25	-39.4	-41.7	15.9	0.00e+00	0	57	0	476053504	50	4693
2026-01-03 01:48:01.38	282.47	15.20	-39.3	-41.6	16.1	0.00e+00	0	57	0	478150656	50	4615
2026-01-03 01:48:02.39	282.28	15.14	-39.4	-41.7	16.0	0.00e+00	0	57	0	480247808	50	4670
2026-01-03 01:48:03.40	282.09	15.09	-39.3	-41.6	16.0	0.00e+00	0	57	0	481296384	50	4646
2026-01-03 01:48:04.41	281.91	15.03	-39.3	-41.7	16.0	0.00e+00	0	57	0	483393536	50	4661
2026-01-03 01:48:05.42	281.72	14.98	-39.4	-41.7	15.9	0.00e+00	0	57	0	485490688	50	4687
2026-01-03 01:48:06.43	281.54	14.92	-39.8	-42.3	15.3	0.00e+00	0	56	0	487587840	50	4999
2026-01-03 01:48:07.44	281.35	14.87	-40.0	-42.6	15.1	0.00e+00	0	57	0	489684992	50	5205
2026-01-03 01:48:08.45	281.17	14.81	-39.8	-42.4	15.2	0.00e+00	0	57	0	490733568	50	5068
2026-01-03 01:48:09.46	280.99	14.76	-39.8	-42.4	15.3	0.00e+00	0	56	0	492830720	50	5052
2026-01-03 01:48:10.47	280.80	14.70	-39.5	-41.8	15.8	0.00e+00	0	56	0	494927872	50	4754
2026-01-03 01:48:11.47	280.63	14.65	-39.3	-41.6	15.9	0.00e+00	0	57	0	497025024	50	4645
2026-01-03 01:48:12.48	280.44	14.59	-39.2	-41.5	16.1	0.00e+00	0	57	0	499122176	50	4561
2026-01-03 01:48:13.49	280.26	14.54	-39.1	-41.4	16.2	0.00e+00	0	57	0	500170752	50	4507
2026-01-03 01:48:14.50	280.09	14.48	-39.0	-41.2	16.3	0.00e+00	0	57	0	502267904	49	4699
2026-01-03 01:48:15.51	279.91	14.42	-39.3	-41.5	16.0	0.00e+00	0	57	0	504365056	49	4870
2026-01-03 01:48:16.52	279.73	14.37	-39.2	-41.5	16.1	0.00e+00	0	57	0	506462208	49	4839
2026-01-03 01:48:17.53	279.55	14.31	-39.5	-41.9	15.7	0.00e+00	0	57	0	508559360	49	5086
2026-01-03 01:48:18.54	279.38	14.25	-39.8	-42.3	15.3	0.00e+00	0	56	0	509607936	50	5008
2026-01-03 01:48:19.55	279.20	14.20	-40.1	-42.8	14.8	0.00e+00	0	57	0	511705088	50	5330
2026-01-03 01:48:20.56	279.03	14.14	-40.4	-43.3	14.3	7.00e-07	0	57	0	513802240	51	5308
2026-01-03 01:48:21.57	278.85	14.08	-40.6	-43.6	14.0	7.00e-07	0	57	0	515899392	51	5473
2026-01-03 01:48:22.58	278.68	14.03	-40.9	-44.3	13.2	1.44e-05	0	57	0	517996544	52	5616
2026-01-03 01:48:23.59	278.50	13.97	-41.0	-44.4	13.1	2.59e-05	0	57	0	520093696	52	5704
2026-01-03 01:48:24.60	278.33	13.91	-40.9	-44.2	13.2	3.73e-05	0	57	0	521142272	52	5581
2026-01-03 01:48:25.61	278.16	13.85	-40.9	-44.2	13.3	1.83e-05	0	57	0	523239424	52	5582
2026-01-03 01:48:26.62	277.99	13.80	-41.1	-44.6	12.9	1.98e-05	0	57	0	525336576	52	5804
2026-01-03 01:48:27.63	277.82	13.74	-40.7	-43.9	13.6	2.05e-05	0	57	0	527433728	52	5355
2026-01-03 01:48:28.64	277.65	13.68	-40.6	-43.8	13.8	5.30e-06	0	57	0	529530880	52	5281
2026-01-03 01:48:29.65	277.48	13.62	-40.7	-43.8	13.7	1.06e-05	0	57	0	530579456	52	5340
2026-01-03 01:48:30.65	277.31	13.56	-40.6	-43.7	13.8	6.10e-06	0	57	0	532676608	52	5238
2026-01-03 01:48:31.66	277.15	13.51	-40.6	-43.7	13.9	3.00e-06	0	57	0	534773760	52	5219
2026-01-03 01:48:32.68	276.98	13.45	-40.5	-43.6	14.0	3.00e-06	0	57	0	536870912	52	5162
2026-01-03 01:48:33.68	276.81	13.39	-40.3	-43.2	14.2	3.80e-06	0	57	0	538968064	52	4980
2026-01-03 01:48:34.70	276.65	13.33	-40.1	-42.8	14.7	0.00e+00	0	57	0	540016640	52	4747
2026-01-03 01:48:35.71	276.48	13.27	-40.0	-42.8	14.7	1.50e-06	0	57	0	542113792	52	4707
2026-01-03 01:48:36.72	276.32	13.21	-40.0	-42.6	14.9	7.00e-07	0	57	0	544210944	51	4921
2026-01-03 01:48:37.73	276.15	13.15	-40.0	-42.7	14.9	0.00e+00	0	57	0	546308096	51	4940
2026-01-03 01:48:38.74	275.99	13.09	-40.0	-42.7	14.9	0.00e+00	0	57	0	548405248	51	4936
2026-01-03 01:48:39.75	275.83	13.04	-40.1	-42.8	14.8	0.00e+00	0	57	0	549453824	51	5014
2026-01-03 01:48:40.76	275.67	12.98	-40.2	-43.1	14.5	7.00e-07	0	57	0	551550976	51	5164
2026-01-03 01:48:41.77	275.50	12.92	-40.3	-43.2	14.3	0.00e+00	0	57	0	553648128	51	5251
2026-01-03 01:48:42.78	275.34	12.86	-40.5	-43.5	14.1	7.00e-07	0	57	0	555745280	51	5411
2026-01-03 01:48:43.79	275.18	12.80	-40.3	-43.2	14.3	1.50e-06	0	57	0	557842432	51	5256
2026-01-03 01:48:44.80	275.02	12.74	-40.2	-43.0	14.5	1.50e-06	0	57	0	558891008	51	5129
2026-01-03 01:48:45.81	274.87	12.68	-40.0	-42.7	14.8	0.00e+00	0	57	0	560988160	51	4974
2026-01-03 01:48:46.82	274.71	12.62	-39.8	-42.3	15.2	0.00e+00	0	57	0	563085312	51	4737
2026-01-03 01:48:47.83	274.55	12.56	-39.6	-42.1	15.4	0.00e+00	0	57	0	565182464	51	4610
2026-01-03 01:48:48.84	274.39	12.50	-39.5	-41.9	15.6	0.00e+00	0	57	0	567279616	50	4771
2026-01-03 01:48:49.85	274.24	12.44	-39.4	-41.8	15.7	0.00e+00	0	57	0	568328192	50	4751
2026-01-03 01:48:50.86	274.08	12.38	-39.3	-41.7	15.8	0.00e+00	0	57	0	570425344	50	4683
2026-01-03 01:48:51.87	273.93	12.32	-39.4	-41.8	15.7	0.00e+00	0	57	0	572522496	50	4719
2026-01-03 01:48:52.88	273.78	12.26	-39.4	-41.8	15.6	0.00e+00	0	57	0	574619648	50	4745
2026-01-03 01:48:53.89	273.62	12.20	-39.5	-42.0	15.4	0.00e+00	0	57	0	576716800	50	4854
2026-01-03 01:48:54.90	273.47	12.14	-39.6	-42.1	15.3	0.00e+00	0	57	0	577765376	50	4903
2026-01-03 01:48:55.91	273.32	12.08	-39.6	-42.2	15.3	0.00e+00	0	57	0	579862528	50	4943
2026-01-03 01:48:56.91	273.17	12.02	-39.7	-42.3	15.1	0.00e+00	0	57	0	581959680	50	5030
2026-01-03 01:48:57.92	273.02	11.96	-39.8	-42.5	15.0	0.00e+00	0	57	0	584056832	50	5114
2026-01-03 01:48:58.93	272.87	11.90	-39.9	-42.6	14.8	0.00e+00	0	57	0	586153984	50	5174
2026-01-03 01:48:59.94	272.72	11.84	-40.0	-42.7	14.8	0.00e+00	0	57	0	588251136	50	5231
2026-01-03 01:49:00.95	272.57	11.78	-39.9	-42.7	14.8	0.00e+00	0	57	0	589299712	50	5229
2026-01-03 01:49:01.96	272.42	11.72	-39.8	-42.5	14.9	0.00e+00	0	57	0	591396864	50	5147
2026-01-03 01:49:02.97	272.27	11.66	-39.8	-42.5	14.9	0.00e+00	0	57	0	593494016	50	5126
2026-01-03 01:49:03.98	272.12	11.60	-39.8	-42.5	15.0	0.00e+00	0	57	0	595591168	50	5114
2026-01-03 01:49:04.99	271.98	11.54	-39.7	-42.3	15.1	7.00e-07	0	57	0	597688320	50	5041
2026-01-03 01:49:06.00	271.83	11.48	-39.6	-42.2	15.1	0.00e+00	0	57	0	598736896	50	4983
2026-01-03 01:49:07.01	271.69	11.42	-39.4	-41.9	15.5	0.00e+00	0	57	0	600834048	50	4800
2026-01-03 01:49:08.02	271.54	11.36	-39.4	-41.9	15.5	0.00e+00	0	57	0	602931200	50	4777
2026-01-03 01:49:09.03	271.40	11.30	-39.2	-41.7	15.7	0.00e+00	0	57	0	605028352	50	4667
2026-01-03 01:49:10.04	271.25	11.24	-39.2	-41.6	15.7	0.00e+00	0	57	0	607125504	50	4637
2026-01-03 01:49:11.05	271.11	11.18	-39.1	-41.4	15.9	0.00e+00	0	57	0	608174080	50	4541
2026-01-03 01:49:12.06	270.97	11.12	-38.8	-41.1	16.2	0.00e+00	0	57	0	610271232	49	4627
2026-01-03 01:49:13.07	270.83	11.05	-38.7	-40.9	16.4	0.00e+00	0	57	0	612368384	49	4494
2026-01-03 01:49:14.08	270.69	10.99	-38.6	-40.7	16.6	0.00e+00	0	57	0	614465536	49	4417
2026-01-03 01:49:15.09	270.55	10.93	-38.4	-40.5	16.7	0.00e+00	0	57	0	616562688	48	4594
2026-01-03 01:49:16.10	270.41	10.87	-38.2	-40.3	17.0	0.00e+00	0	57	0	617611264	48	4457
2026-01-03 01:49:17.11	270.27	10.81	-38.1	-40.1	17.2	0.00e+00	0	57	0	619708416	48	4370
2026-01-03 01:49:18.12	270.13	10.75	-38.1	-40.1	17.1	0.00e+00	0	57	0	621805568	48	4382
2026-01-03 01:49:19.12	269.99	10.69	-38.2	-40.2	17.0	0.00e+00	0	57	0	623902720	48	4432
2026-01-03 01:49:20.13	269.85	10.63	-38.4	-40.5	16.8	0.00e+00	0	57	0	625999872	48	4561
2026-01-03 01:49:21.14	269.72	10.57	-38.4	-40.6	16.7	0.00e+00	0	57	0	627048448	48	4611
2026-01-03 01:49:22.15	269.58	10.51	-38.5	-40.7	16.5	0.00e+00	0	57	0	629145600	48	4693
2026-01-03 01:49:23.16	269.44	10.45	-38.6	-40.8	16.4	0.00e+00	0	57	0	631242752	48	4728
2026-01-03 01:49:24.17	269.31	10.39	-38.6	-40.8	16.4	0.00e+00	0	57	0	633339904	48	4736
2026-01-03 01:49:25.18	269.17	10.33	-38.6	-40.8	16.4	0.00e+00	0	57	0	635437056	48	4751
2026-01-03 01:49:26.19	269.04	10.27	-38.6	-40.8	16.3	0.00e+00	0	57	0	636485632	48	4758
2026-01-03 01:49:27.20	268.91	10.20	-38.6	-40.8	16.4	0.00e+00	0	57	0	638582784	48	4721
2026-01-03 01:49:28.21	268.77	10.14	-38.5	-40.7	16.4	0.00e+00	0	57	0	640679936	48	4677
2026-01-03 01:49:29.22	268.64	10.08	-38.6	-40.8	16.3	0.00e+00	0	57	0	642777088	48	4755
2026-01-03 01:49:30.23	268.51	10.02	-38.5	-40.8	16.3	0.00e+00	0	57	0	644874240	48	4715
2026-01-03 01:49:31.24	268.38	9.96	-38.6	-40.9	16.2	0.00e+00	0	57	0	645922816	48	4769
2026-01-03 01:49:32.25	268.25	9.90	-38.7	-41.0	16.0	0.00e+00	0	57	0	648019968	48	4854
2026-01-03 01:49:33.26	268.12	9.84	-38.8	-41.2	15.8	0.00e+00	0	57	0	650117120	48	4957
2026-01-03 01:49:34.27	267.99	9.78	-38.9	-41.4	15.6	0.00e+00	0	57	0	652214272	48	5056
2026-01-03 01:49:35.28	267.86	9.72	-39.0	-41.5	15.4	0.00e+00	0	57	0	654311424	48	5133
2026-01-03 01:49:36.29	267.73	9.66	-39.2	-41.8	15.1	0.00e+00	0	57	0	656408576	48	5311
2026-01-03 01:49:37.30	267.60	9.60	-39.2	-41.9	15.0	0.00e+00	0	57	0	657457152	49	5088
2026-01-03 01:49:38.31	267.47	9.54	-39.4	-42.3	14.6	0.00e+00	0	57	0	659554304	49	5280
2026-01-03 01:49:39.32	267.35	9.48	-39.4	-42.2	14.6	7.00e-07	0	57	0	661651456	49	5240
2026-01-03 01:49:40.33	267.22	9.41	-39.4	-42.3	14.5	0.00e+00	0	57	0	663748608	49	5297
2026-01-03 01:49:41.34	267.09	9.35	-39.5	-42.5	14.3	0.00e+00	0	57	0	665845760	49	5408
2026-01-03 01:49:42.35	266.97	9.29	-39.6	-42.6	14.1	7.00e-07	0	57	0	666894336	49	5515
2026-01-03 01:49:43.36	266.84	9.23	-39.7	-42.9	13.8	1.50e-06	0	57	0	668991488	50	5346
2026-01-03 01:49:44.37	266.72	9.17	-39.7	-42.8	14.0	2.20e-06	0	57	0	671088640	50	5299
2026-01-03 01:49:45.38	266.60	9.11	-39.9	-43.1	13.7	3.80e-06	0	57	0	673185792	50	5489
2026-01-03 01:49:46.39	266.47	9.05	-39.9	-43.0	13.7	8.30e-06	0	57	0	675282944	50	5450
2026-01-03 01:49:47.40	266.35	8.99	-40.1	-43.4	13.3	1.37e-05	0	57	0	676331520	50	5695
2026-01-03 01:49:48.41	266.23	8.93	-40.2	-43.7	13.0	2.59e-05	0	57	0	678428672	50	5889
2026-01-03 01:49:49.42	266.11	8.87	-40.2	-43.8	12.7	2.82e-05	0	57	0	680525824	51	5637
2026-01-03 01:49:50.43	265.99	8.81	-40.3	-43.9	12.6	8.85e-05	0	57	0	682622976	51	5694
2026-01-03 01:49:51.44	265.86	8.75	-40.2	-43.9	12.6	9.46e-05	0	57	0	684720128	51	5659
2026-01-03 01:49:52.45	265.74	8.69	-40.3	-44.1	12.3	1.39e-04	0	57	0	685768704	51	5855
2026-01-03 01:49:53.45	265.63	8.63	-40.3	-44.1	12.3	1.49e-04	0	57	0	687865856	51	5815
2026-01-03 01:49:54.46	265.51	8.57	-40.3	-44.3	12.0	2.17e-04	0	57	0	689963008	51	5934
2026-01-03 01:49:55.47	265.39	8.51	-40.2	-44.1	12.1	3.59e-04	0	57	0	692060160	51	5850
2026-01-03 01:49:56.48	265.27	8.45	-40.3	-44.1	12.1	2.41e-04	0	57	0	694157312	51	5845
2026-01-03 01:49:57.49	265.15	8.39	-40.3	-44.3	12.0	3.06e-04	0	57	0	695205888	51	5943
2026-01-03 01:49:58.50	265.04	8.33	-40.3	-44.3	11.9	3.13e-04	0	57	0	697303040	51	5950
2026-01-03 01:49:59.51	264.92	8.27	-40.3	-44.4	11.7	4.93e-04	0	57	0	699400192	51	6030
2026-01-03 01:50:00.52	264.80	8.21	-40.3	-44.4	11.8	5.35e-04	0	57	0	701497344	51	6008
2026-01-03 01:50:01.53	264.69	8.15	-40.5	-44.6	11.6	6.07e-04	0	57	0	703594496	51	6149
2026-01-03 01:50:02.54	264.57	8.09	-40.5	-44.8	11.5	7.94e-04	0	57	0	704643072	51	6276
2026-01-03 01:50:03.55	264.46	8.03	-41.5	-46.1	11.0	7.12e-04	0	57	0	706740224	53	6525
2026-01-03 01:50:04.56	264.34	7.97	-44.6	-58.9	3.8	1.49e+00	0	57	104	707788800	59	20295
2026-01-03 01:50:05.57	264.23	7.91	-44.7	-59.3	3.8	1.49e+00	0	57	104	707788800	60	19932
2026-01-03 01:50:06.58	264.12	7.85	-44.8	-59.4	3.8	1.49e+00	0	57	104	707788800	60	20206
2026-01-03 01:50:07.59	264.00	7.79	-44.9	-59.5	3.8	1.49e+00	0	57	104	707788800	60	20458
2026-01-03 01:50:08.60	263.89	7.73	-45.0	-59.6	3.8	1.49e+00	0	57	104	707788800	60	20664
2026-01-03 01:50:09.61	263.78	7.67	-45.1	-59.6	3.8	1.49e+00	0	57	104	707788800	60	20738
2026-01-03 01:50:10.63	263.67	7.60	-45.1	-59.7	3.8	1.49e+00	0	57	104	707788800	60	20847
2026-01-03 01:50:11.64	263.55	7.55	-45.1	-59.7	3.8	1.49e+00	0	57	104	707788800	60	20833
2026-01-03 01:50:12.65	263.44	7.49	-45.1	-59.7	3.8	1.49e+00	0	57	104	707788800	60	20850
2026-01-03 01:50:13.66	263.33	7.43	-45.1	-59.6	3.8	1.49e+00	0	57	104	707788800	60	20761
2026-01-03 01:50:14.67	263.22	7.37	-45.1	-59.6	3.8	1.49e+00	0	57	104	707788800	60	20734
2026-01-03 01:50:15.68	263.12	7.31	-45.1	-59.6	3.8	1.49e+00	0	57	104	707788800	60	20705
2026-01-03 01:50:16.69	263.01	7.25	-45.1	-59.6	3.8	1.49e+00	0	57	104	707788800	60	20761
2026-01-03 01:50:17.70	262.90	7.19	-45.1	-59.6	3.8	1.49e+00	0	57	104	707788800	60	20713
2026-01-03 01:50:18.71	262.79	7.13	-45.1	-59.7	3.8	1.49e+00	0	57	104	707788800	60	20850
2026-01-03 01:50:19.72	262.68	7.07	-45.1	-59.7	3.8	1.49e+00	0	57	104	707788800	60	20830
2026-01-03 01:50:20.73	262.58	7.01	-45.1	-59.7	3.8	1.49e+00	0	57	104	707788800	60	20798
2026-01-03 01:50:21.74	262.47	6.95	-45.1	-59.6	3.8	1.49e+00	0	57	104	707788800	60	20704
2026-01-03 01:50:22.75	262.36	6.89	-45.1	-59.6	3.8	1.49e+00	0	57	104	707788800	60	20606
2026-01-03 01:50:23.77	262.26	6.83	-45.1	-59.6	3.8	1.49e+00	0	57	104	707788800	60	20644
2026-01-03 01:50:24.78	262.15	6.77	-45.0	-59.6	3.8	1.49e+00	0	57	104	707788800	60	20552
2026-01-03 01:50:25.79	262.05	6.71	-45.0	-59.6	3.8	1.49e+00	0	57	104	707788800	60	20550
2026-01-03 01:50:26.80	261.94	6.65	-45.1	-59.6	3.8	1.49e+00	0	57	104	707788800	60	20631
2026-01-03 01:50:27.81	261.84	6.59	-45.0	-59.5	3.8	1.49e+00	0	57	104	707788800	60	20423
2026-01-03 01:50:28.82	261.74	6.53	-45.0	-59.5	3.8	1.49e+00	0	57	104	707788800	60	20524
2026-01-03 01:50:29.83	261.63	6.47	-45.0	-59.5	3.8	1.49e+00	0	57	104	707788800	60	20450
2026-01-03 01:50:30.84	261.53	6.42	-45.0	-59.5	3.8	1.49e+00	0	57	104	707788800	60	20449
2026-01-03 01:50:31.85	261.43	6.36	-45.0	-59.5	3.8	1.49e+00	0	57	104	707788800	60	20422
2026-01-03 01:50:32.87	261.33	6.30	-45.0	-59.5	3.8	1.49e+00	0	57	104	707788800	60	20522
2026-01-03 01:50:33.88	261.23	6.24	-45.0	-59.5	3.8	1.49e+00	0	57	104	707788800	60	20492
2026-01-03 01:50:34.89	261.12	6.18	-45.0	-59.6	3.8	1.49e+00	0	57	104	707788800	60	20588
2026-01-03 01:50:35.90	261.02	6.12	-45.0	-59.5	3.8	1.49e+00	0	57	104	707788800	60	20437
2026-01-03 01:50:36.91	260.92	6.06	-45.0	-59.5	3.8	1.49e+00	0	57	104	707788800	60	20464
2026-01-03 01:50:37.92	260.82	6.00	-45.0	-59.5	3.8	1.49e+00	0	57	104	707788800	60	20471
2026-01-03 01:50:38.93	260.73	5.95	-45.0	-59.5	3.8	1.49e+00	0	57	104	707788800	60	20419
2026-01-03 01:50:39.94	260.63	5.89	-45.0	-59.5	3.8	1.49e+00	0	57	104	707788800	60	20475
2026-01-03 01:50:40.95	260.53	5.83	-45.0	-59.5	3.8	1.49e+00	0	57	104	707788800	60	20483
2026-01-03 01:50:41.97	260.43	5.77	-45.0	-59.5	3.8	1.49e+00	0	57	104	707788800	60	20508
2026-01-03 01:50:42.98	260.33	5.71	-45.0	-59.5	3.8	1.49e+00	0	57	104	707788800	60	20474
2026-01-03 01:50:43.99	260.23	5.65	-45.0	-59.5	3.8	1.49e+00	0	57	104	707788800	60	20482
2026-01-03 01:50:45.00	260.14	5.59	-45.0	-59.5	3.8	1.49e+00	0	57	104	707788800	60	20473
2026-01-03 01:50:46.01	260.04	5.54	-45.0	-59.5	3.8	1.49e+00	0	57	104	707788800	60	20410
2026-01-03 01:50:47.02	259.95	5.48	-45.0	-59.5	3.8	1.49e+00	0	57	104	707788800	60	20356
2026-01-03 01:50:48.03	259.85	5.42	-45.0	-59.5	3.8	1.49e+00	0	57	104	707788800	60	20447
2026-01-03 01:50:49.04	259.75	5.36	-45.0	-59.5	3.8	1.49e+00	0	57	104	707788800	60	20397
2026-01-03 01:50:50.05	259.66	5.30	-45.0	-59.5	3.8	1.49e+00	0	57	104	707788800	60	20464
2026-01-03 01:50:51.06	259.57	5.25	-45.0	-59.5	3.8	1.49e+00	0	57	104	707788800	60	20479
2026-01-03 01:50:52.07	259.47	5.19	-45.0	-59.5	3.8	1.49e+00	0	57	104	707788800	60	20398
2026-01-03 01:50:53.09	259.38	5.13	-45.0	-59.5	3.8	1.49e+00	0	57	104	707788800	60	20415
2026-01-03 01:50:54.10	259.28	5.07	-45.0	-59.5	3.8	1.49e+00	0	57	104	707788800	60	20435
2026-01-03 01:50:55.11	259.19	5.01	-45.0	-59.5	3.8	1.49e+00	0	57	104	707788800	60	20332
2026-01-03 01:50:56.12	259.10	4.96	-45.0	-59.5	3.8	1.49e+00	0	57	104	707788800	60	20438
2026-01-03 01:50:57.13	259.01	4.90	-45.0	-59.5	3.8	1.49e+00	0	57	104	707788800	60	20381
2026-01-03 01:50:58.14	258.91	4.84	-45.0	-59.5	3.8	1.49e+00	0	57	104	707788800	60	20347
2026-01-03 01:50:59.15	258.82	4.78	-45.0	-59.5	3.8	1.49e+00	0	57	104	707788800	60	20385
2026-01-03 01:51:00.16	258.73	4.73	-45.0	-59.5	3.8	1.49e+00	0	57	104	707788800	60	20415
2026-01-03 01:51:01.17	258.64	4.67	-45.0	-59.5	3.8	1.49e+00	0	57	104	707788800	60	20468
2026-01-03 01:51:02.18	258.55	4.61	-45.0	-59.5	3.8	1.49e+00	0	57	104	707788800	60	20398
2026-01-03 01:51:03.19	258.46	4.55	-45.0	-59.5	3.8	1.49e+00	0	57	104	707788800	60	20413
2026-01-03 01:51:04.20	258.37	4.50	-45.0	-59.5	3.8	1.49e+00	0	57	104	707788800	60	20383
2026-01-03 01:51:05.22	258.28	4.44	-45.0	-59.5	3.8	1.49e+00	0	57	104	707788800	60	20450
2026-01-03 01:51:06.23	258.19	4.38	-45.0	-59.5	3.8	1.49e+00	0	57	104	707788800	60	20415
2026-01-03 01:51:07.24	258.10	4.33	-45.0	-59.5	3.8	1.49e+00	0	57	104	707788800	60	20387
2026-01-03 01:51:08.25	258.02	4.27	-45.0	-59.5	3.8	1.49e+00	0	57	104	707788800	60	20476
2026-01-03 01:51:09.26	257.93	4.21	-45.0	-59.5	3.8	1.49e+00	0	57	104	707788800	60	20393
2026-01-03 01:51:10.27	257.84	4.15	-45.0	-59.5	3.8	1.49e+00	0	57	104	707788800	60	20394
2026-01-03 01:51:11.28	257.75	4.10	-45.0	-59.5	3.8	1.49e+00	0	57	104	707788800	60	20376
2026-01-03 01:51:12.29	257.67	4.04	-45.0	-59.5	3.8	1.49e+00	0	57	104	707788800	60	20367
2026-01-03 01:51:13.30	257.58	3.98	-45.0	-59.5	3.8	1.49e+00	0	57	104	707788800	60	20402
2026-01-03 01:51:14.32	257.49	3.93	-45.0	-59.5	3.8	1.49e+00	0	57	104	707788800	60	20408
2026-01-03 01:51:15.33	257.41	3.87	-45.0	-59.5	3.8	1.49e+00	0	57	104	707788800	60	20448
2026-01-03 01:51:16.34	257.32	3.81	-45.0	-59.5	3.8	1.49e+00	0	57	104	707788800	60	20377
2026-01-03 01:51:17.35	257.24	3.76	-45.0	-59.5	3.8	1.49e+00	0	57	104	707788800	60	20346
2026-01-03 01:51:18.36	257.15	3.70	-45.0	-59.5	3.8	1.49e+00	0	57	104	707788800	60	20387
2026-01-03 01:51:19.37	257.07	3.64	-45.0	-59.5	3.8	1.49e+00	0	57	104	707788800	60	20405
2026-01-03 01:51:20.38	256.98	3.59	-45.0	-59.5	3.8	1.49e+00	0	57	104	707788800	60	20365
2026-01-03 01:51:21.39	256.90	3.53	-45.0	-59.5	3.8	1.49e+00	0	57	104	707788800	60	20405
2026-01-03 01:51:22.41	256.82	3.48	-45.0	-59.5	3.8	1.49e+00	0	57	104	707788800	60	20358
2026-01-03 01:51:23.42	256.73	3.42	-45.0	-59.5	3.8	1.49e+00	0	57	104	707788800	60	20368
2026-01-03 01:51:24.43	256.65	3.36	-45.0	-59.5	3.8	1.49e+00	0	57	104	707788800	60	20363
2026-01-03 01:51:25.44	256.57	3.31	-45.0	-59.5	3.8	1.49e+00	0	57	104	707788800	60	20488
2026-01-03 01:51:26.45	256.49	3.25	-45.0	-59.5	3.8	1.49e+00	0	57	104	707788800	60	20385
2026-01-03 01:51:27.46	256.40	3.20	-45.0	-59.5	3.8	1.49e+00	0	57	104	707788800	60	20390
2026-01-03 01:51:28.47	256.32	3.14	-45.0	-59.5	3.8	1.49e+00	0	57	104	707788800	60	20360
2026-01-03 01:51:29.48	256.24	3.08	-45.0	-59.5	3.8	1.49e+00	0	57	104	707788800	60	20327
2026-01-03 01:51:30.49	256.16	3.03	-45.0	-59.5	3.8	1.49e+00	0	57	104	707788800	60	20407
2026-01-03 01:51:31.50	256.08	2.97	-45.0	-59.5	3.8	1.49e+00	0	57	104	707788800	60	20456
2026-01-03 01:51:32.51	256.00	2.92	-45.0	-59.5	3.8	1.49e+00	0	57	104	707788800	60	20330
2026-01-03 01:51:33.52	255.92	2.86	-45.0	-59.5	3.8	1.49e+00	0	57	104	707788800	60	20454
2026-01-03 01:51:34.54	255.84	2.81	-45.0	-59.5	3.8	1.49e+00	0	57	104	707788800	60	20330
2026-01-03 01:51:35.55	255.76	2.75	-45.0	-59.5	3.8	1.49e+00	0	57	104	707788800	60	20430
2026-01-03 01:51:36.56	255.68	2.70	-45.0	-59.5	3.8	1.49e+00	0	57	104	707788800	60	20383
