passes_logs/2026/01/03/R2.0S_Moscow/R2.0S_Moscow__20260103_034917_FENGYUN_3G_rec.log

#Pass ID: 20260103_034917_FENGYUN 3G
#Satellite: FENGYUN 3G
#Configuration: FENGYUN 3G
#almurnet v.1.7.20251203
#Start time: 2026-01-03 03:49:19

#Version: 2.2.20231116
#Station: R2.0S_Moscow
#Location: 37.707566 lon 55.798166 lat
#TLE: 1 56232U 23055A   26002.31058000  .00046172  00000+0  73618-3 0  9997
#TLE: 2 56232  49.9934 121.3649 0004156 328.0230  32.0484 15.52711916154221

#Time	Az	El	Level	Level2	SNR	BER	BlckErr	Temp	State	Recorded	gain1	gain2
2026-01-03 03:49:19.41	244.30	2.15	-44.3	-62.4	3.8	8.46e-01	0	48	0	0	60	28522
2026-01-03 03:49:20.41	244.24	2.22	-44.2	-62.4	3.8	8.45e-01	0	48	104	0	60	28469
2026-01-03 03:49:21.42	244.17	2.29	-44.2	-62.4	3.8	8.47e-01	0	48	104	0	60	28418
2026-01-03 03:49:22.43	244.11	2.35	-44.2	-62.3	3.8	8.46e-01	0	48	104	0	60	28233
2026-01-03 03:49:23.44	244.04	2.42	-44.2	-62.4	3.8	8.46e-01	0	48	104	0	60	28405
2026-01-03 03:49:24.45	243.98	2.49	-44.2	-62.3	3.8	8.46e-01	0	48	104	0	60	28305
2026-01-03 03:49:25.46	243.91	2.55	-44.3	-62.4	3.8	8.46e-01	0	48	104	0	60	28511
2026-01-03 03:49:26.47	243.84	2.62	-44.2	-62.4	3.8	8.46e-01	0	48	104	0	60	28505
2026-01-03 03:49:27.49	243.77	2.69	-44.2	-62.4	3.8	8.46e-01	0	48	104	0	60	28536
2026-01-03 03:49:28.50	243.71	2.76	-44.2	-62.4	3.8	8.46e-01	0	48	104	0	60	28517
2026-01-03 03:49:29.51	243.64	2.83	-44.2	-62.4	3.8	8.46e-01	0	48	104	0	60	28468
2026-01-03 03:49:30.52	243.57	2.90	-44.2	-62.4	3.8	8.45e-01	0	48	104	0	60	28370
2026-01-03 03:49:31.53	243.50	2.96	-44.2	-62.3	3.8	8.45e-01	0	49	104	0	60	28192
2026-01-03 03:49:32.54	243.43	3.03	-44.2	-62.3	3.8	8.45e-01	0	49	104	0	60	28248
2026-01-03 03:49:33.55	243.36	3.10	-44.2	-62.2	3.8	8.45e-01	0	49	104	0	60	28020
2026-01-03 03:49:34.56	243.29	3.17	-44.2	-62.2	3.8	8.46e-01	0	49	104	0	60	27828
2026-01-03 03:49:35.57	243.22	3.24	-44.2	-62.1	3.8	8.47e-01	0	49	104	0	60	27651
2026-01-03 03:49:36.58	243.15	3.31	-44.2	-62.1	3.8	8.47e-01	0	49	104	0	60	27519
2026-01-03 03:49:37.60	243.07	3.38	-44.2	-62.0	3.8	8.46e-01	0	49	104	0	60	27363
2026-01-03 03:49:38.61	243.00	3.45	-44.2	-62.0	3.8	8.45e-01	0	49	104	0	60	27359
2026-01-03 03:49:39.62	242.93	3.52	-44.2	-62.0	3.8	8.45e-01	0	49	104	0	60	27388
2026-01-03 03:49:40.63	242.85	3.59	-44.2	-62.0	3.8	8.46e-01	0	49	104	0	60	27229
2026-01-03 03:49:41.64	242.78	3.67	-44.2	-62.1	3.8	8.46e-01	0	49	104	0	60	27444
2026-01-03 03:49:42.65	242.71	3.74	-44.2	-62.0	3.8	8.46e-01	0	49	104	0	60	27313
2026-01-03 03:49:43.66	242.63	3.81	-44.2	-62.0	3.8	8.45e-01	0	49	104	0	60	27349
2026-01-03 03:49:44.67	242.55	3.88	-44.2	-62.2	3.8	8.45e-01	0	50	104	0	60	27726
2026-01-03 03:49:45.69	242.48	3.95	-44.2	-62.2	3.8	8.45e-01	0	49	104	0	60	27719
2026-01-03 03:49:46.69	242.40	4.02	-44.2	-62.2	3.8	8.46e-01	0	49	104	0	60	27828
2026-01-03 03:49:47.71	242.32	4.10	-44.2	-62.3	3.8	8.45e-01	0	50	104	0	60	28120
2026-01-03 03:49:48.72	242.24	4.17	-44.2	-62.3	3.8	8.45e-01	0	50	104	0	60	28266
2026-01-03 03:49:49.73	242.17	4.24	-44.2	-62.4	3.8	8.45e-01	0	50	104	0	60	28369
2026-01-03 03:49:50.74	242.09	4.32	-44.2	-62.4	3.8	8.46e-01	0	50	104	0	60	28480
2026-01-03 03:49:51.75	242.01	4.39	-44.2	-62.4	3.8	8.47e-01	0	50	104	0	60	28575
2026-01-03 03:49:52.76	241.93	4.46	-44.2	-62.4	3.8	8.47e-01	0	50	104	0	60	28472
2026-01-03 03:49:53.77	241.85	4.54	-44.2	-62.4	3.8	8.46e-01	0	50	104	0	60	28484
2026-01-03 03:49:54.78	241.76	4.61	-44.2	-62.4	3.8	8.46e-01	0	50	104	0	60	28402
2026-01-03 03:49:55.79	241.68	4.69	-44.2	-62.4	3.8	8.46e-01	0	50	104	0	60	28447
2026-01-03 03:49:56.80	241.60	4.76	-44.2	-62.4	3.8	8.46e-01	0	50	104	0	60	28495
2026-01-03 03:49:57.82	241.52	4.84	-44.2	-62.4	3.8	8.45e-01	0	50	104	0	60	28556
2026-01-03 03:49:58.83	241.43	4.91	-44.2	-62.4	3.8	8.45e-01	0	50	104	0	60	28468
2026-01-03 03:49:59.84	241.35	4.99	-44.2	-62.4	3.8	8.45e-01	0	50	104	0	60	28362
2026-01-03 03:50:00.85	241.26	5.07	-44.2	-62.2	3.8	8.47e-01	0	50	104	0	60	27928
2026-01-03 03:50:01.86	241.18	5.14	-44.2	-62.1	3.8	8.45e-01	0	50	104	0	60	27541
2026-01-03 03:50:02.87	241.09	5.22	-44.2	-61.9	3.8	8.45e-01	0	51	104	0	60	26876
2026-01-03 03:50:03.88	241.00	5.30	-44.2	-61.7	3.8	8.46e-01	0	51	104	0	60	26430
2026-01-03 03:50:04.89	240.91	5.37	-44.2	-61.6	3.8	8.46e-01	0	50	104	0	60	26057
2026-01-03 03:50:05.90	240.82	5.45	-44.2	-61.6	3.8	8.46e-01	0	50	104	0	60	25903
2026-01-03 03:50:06.91	240.74	5.53	-44.2	-61.6	3.8	8.46e-01	0	51	104	0	60	25911
2026-01-03 03:50:07.93	240.64	5.61	-44.2	-61.7	3.8	8.46e-01	0	51	104	0	60	26458
2026-01-03 03:50:08.94	240.55	5.69	-44.2	-62.0	3.8	8.46e-01	0	51	104	0	60	27297
2026-01-03 03:50:09.95	240.46	5.77	-44.2	-62.2	3.8	8.46e-01	0	51	104	0	60	27773
2026-01-03 03:50:10.96	240.37	5.84	-44.2	-62.3	3.8	8.46e-01	0	51	104	0	60	28240
2026-01-03 03:50:11.97	240.28	5.92	-44.2	-62.3	3.8	8.46e-01	0	51	104	0	60	28351
2026-01-03 03:50:12.98	240.18	6.00	-44.2	-62.2	3.8	8.46e-01	0	51	104	0	60	27805
2026-01-03 03:50:13.99	240.09	6.08	-44.2	-61.9	3.8	8.46e-01	0	51	104	0	60	26955
2026-01-03 03:50:15.00	240.00	6.16	-44.2	-61.6	3.8	8.47e-01	0	51	104	0	60	26080
2026-01-03 03:50:16.01	239.90	6.24	-44.2	-61.3	3.8	8.47e-01	0	51	104	0	60	25194
2026-01-03 03:50:17.03	239.80	6.33	-44.2	-61.0	3.8	8.45e-01	0	51	104	0	60	24296
2026-01-03 03:50:18.04	239.70	6.41	-44.2	-60.9	3.8	8.46e-01	0	51	104	0	60	23904
2026-01-03 03:50:19.05	239.61	6.49	-44.2	-60.6	3.8	8.46e-01	0	51	104	0	60	23156
2026-01-03 03:50:20.06	239.51	6.57	-44.2	-60.4	3.8	8.45e-01	0	51	104	0	60	22595
2026-01-03 03:50:21.07	239.41	6.65	-44.2	-60.1	3.9	8.45e-01	0	51	104	0	60	21869
2026-01-03 03:50:22.08	239.31	6.74	-44.2	-60.1	3.9	8.45e-01	0	52	104	0	60	21856
2026-01-03 03:50:23.09	239.21	6.82	-44.2	-60.6	3.8	8.45e-01	0	52	104	0	60	23196
2026-01-03 03:50:24.10	239.10	6.90	-44.2	-61.5	3.8	8.45e-01	0	51	104	0	60	25831
2026-01-03 03:50:25.11	239.00	6.99	-44.2	-62.4	3.8	8.46e-01	0	51	104	0	60	28468
2026-01-03 03:50:26.12	238.90	7.07	-44.2	-61.4	3.8	8.46e-01	0	52	104	0	60	25281
2026-01-03 03:50:27.14	238.79	7.15	-44.1	-57.4	4.6	8.46e-01	0	52	104	0	60	16098
2026-01-03 03:50:28.15	238.69	7.24	-43.8	-53.5	7.4	6.69e-01	0	52	0	524288	59	10865
2026-01-03 03:50:29.16	238.58	7.32	-43.2	-50.3	10.8	6.69e-01	0	52	0	1572864	58	7921
2026-01-03 03:50:30.17	238.47	7.41	-42.5	-47.9	13.3	4.41e-02	0	52	0	2621440	57	6382
2026-01-03 03:50:31.18	238.37	7.49	-41.5	-45.8	15.3	1.82e-04	0	52	0	3670016	55	5644
2026-01-03 03:50:32.19	238.26	7.58	-40.7	-44.4	16.8	1.82e-04	0	52	0	4718592	53	5350
2026-01-03 03:50:33.20	238.15	7.67	-40.1	-43.4	17.9	0.00e+00	0	52	0	6291456	52	5042
2026-01-03 03:50:34.21	238.04	7.75	-39.6	-42.5	18.8	0.00e+00	0	52	0	7340032	51	4843
2026-01-03 03:50:35.22	237.92	7.84	-39.1	-41.7	19.6	0.00e+00	0	52	0	8388608	50	4665
2026-01-03 03:50:36.24	237.81	7.93	-38.7	-41.2	20.1	0.00e+00	0	52	0	9437184	49	4665
2026-01-03 03:50:37.25	237.70	8.02	-38.8	-41.3	20.0	0.00e+00	0	52	0	10485760	49	4712
2026-01-03 03:50:38.26	237.58	8.11	-38.9	-41.4	19.8	0.00e+00	0	52	0	11534336	49	4798
2026-01-03 03:50:39.27	237.47	8.19	-39.1	-41.7	19.7	0.00e+00	0	52	0	13107200	49	4949
2026-01-03 03:50:40.28	237.35	8.28	-39.6	-42.4	18.6	0.00e+00	0	52	0	14155776	51	4781
2026-01-03 03:50:41.29	237.23	8.37	-40.9	-44.7	15.9	0.00e+00	0	52	0	15204352	54	5241
2026-01-03 03:50:42.30	237.11	8.46	-38.8	-41.2	20.5	0.00e+00	0	52	0	16252928	49	4704
2026-01-03 03:50:43.31	236.99	8.55	-43.1	-50.0	10.1	0.00e+00	0	52	0	17301504	58	7674
2026-01-03 03:50:44.32	236.87	8.64	-37.8	-40.0	21.3	1.53e-02	0	52	0	18350080	47	4588
2026-01-03 03:50:45.33	236.75	8.73	-37.9	-40.1	21.3	1.53e-02	0	52	0	19922944	47	4604
2026-01-03 03:50:46.34	236.63	8.83	-38.1	-40.3	21.0	0.00e+00	0	52	0	20971520	47	4746
2026-01-03 03:50:47.35	236.51	8.92	-37.9	-40.1	21.2	0.00e+00	0	53	0	22020096	47	4649
2026-01-03 03:50:48.35	236.38	9.01	-37.7	-39.9	21.5	0.00e+00	0	52	0	23068672	47	4514
2026-01-03 03:50:49.36	236.26	9.10	-37.9	-40.1	21.3	0.00e+00	0	53	0	24117248	47	4621
2026-01-03 03:50:50.37	236.13	9.20	-37.9	-40.1	21.3	0.00e+00	0	52	0	25165824	47	4624
2026-01-03 03:50:51.38	236.00	9.29	-37.7	-39.8	21.5	0.00e+00	0	53	0	26738688	47	4492
2026-01-03 03:50:52.39	235.87	9.38	-37.5	-39.6	21.8	0.00e+00	0	53	0	27787264	47	4345
2026-01-03 03:50:53.40	235.74	9.48	-37.2	-39.2	22.2	0.00e+00	0	52	0	28835840	46	4411
2026-01-03 03:50:54.41	235.61	9.57	-36.8	-38.7	22.7	0.00e+00	0	53	0	29884416	45	4399
2026-01-03 03:50:55.42	235.48	9.67	-36.7	-38.6	22.8	0.00e+00	0	53	0	30932992	45	4354
2026-01-03 03:50:56.43	235.34	9.76	-36.8	-38.7	22.7	0.00e+00	0	53	0	31981568	45	4424
2026-01-03 03:50:57.44	235.21	9.86	-36.7	-38.6	22.7	0.00e+00	0	53	0	33554432	45	4380
2026-01-03 03:50:58.45	235.07	9.95	-36.5	-38.3	23.0	0.00e+00	0	53	0	34603008	45	4230
2026-01-03 03:50:59.46	234.94	10.05	-36.6	-38.4	22.9	0.00e+00	0	53	0	35651584	45	4260
2026-01-03 03:51:00.47	234.80	10.15	-36.8	-38.7	22.7	0.00e+00	0	53	0	36700160	45	4428
2026-01-03 03:51:01.48	234.66	10.25	-36.8	-38.7	22.7	0.00e+00	0	53	0	37748736	45	4393
2026-01-03 03:51:02.49	234.52	10.35	-36.8	-38.7	22.7	0.00e+00	0	53	0	38797312	45	4403
2026-01-03 03:51:03.50	234.37	10.44	-37.0	-38.9	22.5	0.00e+00	0	53	0	40370176	45	4517
2026-01-03 03:51:04.51	234.23	10.54	-36.9	-38.9	22.5	0.00e+00	0	53	0	41418752	45	4499
2026-01-03 03:51:05.52	234.08	10.64	-36.9	-38.9	22.5	0.00e+00	0	53	0	42467328	45	4512
2026-01-03 03:51:06.53	233.94	10.74	-37.0	-38.9	22.6	0.00e+00	0	53	0	43515904	45	4539
2026-01-03 03:51:07.54	233.79	10.84	-37.1	-39.1	22.4	0.00e+00	0	53	0	44564480	45	4612
2026-01-03 03:51:08.55	233.64	10.94	-37.0	-39.0	22.5	0.00e+00	0	53	0	45613056	45	4548
2026-01-03 03:51:09.55	233.49	11.04	-36.9	-38.9	22.6	0.00e+00	0	53	0	47185920	45	4504
2026-01-03 03:51:10.57	233.34	11.15	-37.0	-38.9	22.5	0.00e+00	0	53	0	48234496	45	4536
2026-01-03 03:51:11.57	233.19	11.25	-36.8	-38.7	22.7	0.00e+00	0	53	0	49283072	45	4429
2026-01-03 03:51:12.58	233.03	11.35	-36.6	-38.5	23.0	0.00e+00	0	53	0	50331648	45	4314
2026-01-03 03:51:13.59	232.87	11.46	-36.5	-38.4	23.1	0.00e+00	0	53	0	51380224	45	4245
2026-01-03 03:51:14.60	232.72	11.56	-36.3	-38.1	23.3	0.00e+00	0	53	0	52428800	44	4372
2026-01-03 03:51:15.61	232.56	11.66	-36.2	-37.9	23.5	0.00e+00	0	53	0	54001664	44	4284
2026-01-03 03:51:16.62	232.40	11.77	-36.3	-38.1	23.4	0.00e+00	0	53	0	55050240	44	4372
2026-01-03 03:51:17.63	232.23	11.87	-36.2	-38.0	23.5	0.00e+00	0	53	0	56098816	44	4306
2026-01-03 03:51:18.64	232.07	11.98	-36.2	-38.0	23.5	0.00e+00	0	53	0	57147392	44	4310
2026-01-03 03:51:19.65	231.90	12.09	-36.6	-38.4	23.1	0.00e+00	0	53	0	58195968	44	4528
2026-01-03 03:51:20.66	231.74	12.19	-36.4	-38.3	23.2	0.00e+00	0	53	0	59244544	44	4448
2026-01-03 03:51:21.67	231.57	12.30	-36.5	-38.3	23.3	0.00e+00	0	53	0	60817408	44	4446
2026-01-03 03:51:22.68	231.40	12.41	-36.5	-38.4	23.1	0.00e+00	0	53	0	61865984	44	4495
2026-01-03 03:51:23.69	231.23	12.52	-36.2	-37.9	23.6	0.00e+00	0	53	0	62914560	44	4276
2026-01-03 03:51:24.70	231.05	12.62	-36.2	-38.0	23.5	0.00e+00	0	53	0	63963136	44	4302
2026-01-03 03:51:25.71	230.88	12.73	-36.1	-37.8	23.7	0.00e+00	0	53	0	65011712	44	4210
2026-01-03 03:51:26.72	230.70	12.84	-35.6	-37.3	24.1	0.00e+00	0	54	0	66060288	43	4195
2026-01-03 03:51:27.73	230.52	12.95	-35.8	-37.6	23.8	0.00e+00	0	53	0	67633152	43	4351
2026-01-03 03:51:28.74	230.34	13.06	-35.7	-37.4	23.9	0.00e+00	0	53	0	68681728	43	4284
2026-01-03 03:51:29.75	230.16	13.18	-35.6	-37.3	24.0	0.00e+00	0	53	0	69730304	43	4216
2026-01-03 03:51:30.76	229.97	13.29	-35.9	-37.6	23.7	0.00e+00	0	54	0	70778880	43	4364
2026-01-03 03:51:31.77	229.79	13.40	-35.7	-37.4	23.9	0.00e+00	0	54	0	71827456	43	4249
2026-01-03 03:51:32.78	229.60	13.51	-35.8	-37.5	23.8	0.00e+00	0	54	0	72876032	43	4316
2026-01-03 03:51:33.79	229.41	13.63	-35.9	-37.6	23.7	0.00e+00	0	54	0	74448896	43	4348
2026-01-03 03:51:34.80	229.22	13.74	-35.7	-37.4	24.0	0.00e+00	0	54	0	75497472	43	4253
2026-01-03 03:51:35.81	229.02	13.85	-35.8	-37.5	23.9	0.00e+00	0	54	0	76546048	43	4317
2026-01-03 03:51:36.83	228.83	13.97	-35.5	-37.2	24.1	0.00e+00	0	54	0	77594624	43	4164
2026-01-03 03:51:37.84	228.63	14.09	-35.7	-37.4	24.0	0.00e+00	0	54	0	78643200	43	4274
2026-01-03 03:51:38.85	228.43	14.20	-35.6	-37.3	24.1	0.00e+00	0	54	0	79691776	43	4205
2026-01-03 03:51:39.86	228.23	14.32	-35.6	-37.3	24.1	0.00e+00	0	54	0	81264640	43	4229
2026-01-03 03:51:40.87	228.02	14.44	-35.7	-37.4	24.0	0.00e+00	0	54	0	82313216	43	4260
2026-01-03 03:51:41.88	227.82	14.55	-35.8	-37.5	23.9	0.00e+00	0	54	0	83361792	43	4318
2026-01-03 03:51:42.89	227.61	14.67	-36.0	-37.8	23.6	0.00e+00	0	54	0	84410368	43	4464
2026-01-03 03:51:43.90	227.40	14.79	-35.8	-37.6	23.9	0.00e+00	0	54	0	85458944	43	4342
2026-01-03 03:51:44.91	227.19	14.91	-35.7	-37.4	24.0	0.00e+00	0	54	0	87031808	43	4259
2026-01-03 03:51:45.92	226.97	15.03	-35.4	-37.1	24.3	0.00e+00	0	54	0	88080384	42	4349
2026-01-03 03:51:46.93	226.76	15.15	-35.2	-36.8	24.6	0.00e+00	0	54	0	89128960	42	4234
2026-01-03 03:51:47.94	226.54	15.27	-34.8	-36.4	25.0	0.00e+00	0	54	0	90177536	41	4258
2026-01-03 03:51:48.95	226.32	15.39	-34.9	-36.5	24.9	0.00e+00	0	54	0	91226112	41	4294
2026-01-03 03:51:49.96	226.10	15.51	-34.8	-36.3	25.1	0.00e+00	0	54	0	92274688	41	4209
2026-01-03 03:51:50.97	225.87	15.63	-35.0	-36.6	24.8	0.00e+00	0	54	0	93847552	41	4377
2026-01-03 03:51:51.98	225.64	15.76	-35.0	-36.6	24.8	0.00e+00	0	54	0	94896128	41	4368
2026-01-03 03:51:52.99	225.41	15.88	-34.7	-36.2	25.2	0.00e+00	0	54	0	95944704	41	4179
2026-01-03 03:51:54.00	225.18	16.00	-34.7	-36.2	25.2	0.00e+00	0	54	0	96993280	41	4184
2026-01-03 03:51:55.01	224.94	16.13	-34.3	-35.8	25.5	0.00e+00	0	54	0	98041856	40	4221
2026-01-03 03:51:56.02	224.71	16.25	-34.4	-35.9	25.5	0.00e+00	0	54	0	99090432	40	4253
2026-01-03 03:51:57.03	224.47	16.38	-34.5	-36.0	25.4	0.00e+00	0	54	0	100139008	40	4335
2026-01-03 03:51:58.04	224.22	16.50	-34.7	-36.3	25.2	0.00e+00	0	54	0	101711872	40	4442
2026-01-03 03:51:59.05	223.98	16.63	-34.8	-36.4	25.1	0.00e+00	0	54	0	102760448	40	4507
2026-01-03 03:52:00.06	223.73	16.76	-34.7	-36.2	25.2	0.00e+00	0	54	0	103809024	40	4430
2026-01-03 03:52:01.07	223.48	16.88	-34.5	-36.1	25.4	0.00e+00	0	54	0	104857600	40	4341
2026-01-03 03:52:02.08	223.23	17.01	-34.3	-35.8	25.6	0.00e+00	0	54	0	105906176	40	4216
2026-01-03 03:52:03.09	222.97	17.14	-34.4	-35.9	25.5	0.00e+00	0	54	0	106954752	40	4243
2026-01-03 03:52:04.10	222.71	17.27	-34.3	-35.8	25.6	0.00e+00	0	54	0	108527616	40	4211
2026-01-03 03:52:05.11	222.45	17.40	-34.4	-35.9	25.5	0.00e+00	0	54	0	109576192	40	4282
2026-01-03 03:52:06.12	222.19	17.52	-34.2	-35.7	25.7	0.00e+00	0	54	0	110624768	40	4187
2026-01-03 03:52:07.13	221.92	17.65	-34.3	-35.8	25.5	0.00e+00	0	54	0	111673344	40	4217
2026-01-03 03:52:08.14	221.65	17.78	-34.1	-35.6	25.7	0.00e+00	0	54	0	112721920	40	4131
2026-01-03 03:52:09.15	221.38	17.92	-34.2	-35.6	25.7	0.00e+00	0	54	0	113770496	40	4135
2026-01-03 03:52:10.16	221.10	18.05	-34.0	-35.5	25.8	0.00e+00	0	54	0	115343360	39	4300
2026-01-03 03:52:11.17	220.82	18.18	-34.1	-35.5	26.0	0.00e+00	0	54	0	116391936	39	4332
2026-01-03 03:52:12.18	220.54	18.31	-34.2	-35.6	25.9	0.00e+00	0	54	0	117440512	39	4381
2026-01-03 03:52:13.18	220.26	18.44	-34.4	-35.9	25.7	0.00e+00	0	54	0	118489088	39	4502
2026-01-03 03:52:14.19	219.97	18.57	-34.4	-36.0	25.6	0.00e+00	0	54	0	119537664	39	4547
2026-01-03 03:52:15.20	219.68	18.71	-34.5	-36.0	25.5	0.00e+00	0	54	0	120586240	39	4593
2026-01-03 03:52:16.21	219.39	18.84	-34.5	-36.0	25.6	0.00e+00	0	54	0	122159104	39	4571
2026-01-03 03:52:17.22	219.09	18.97	-34.4	-35.8	25.8	0.00e+00	0	54	0	123207680	39	4487
2026-01-03 03:52:18.23	218.79	19.11	-34.2	-35.7	25.9	0.00e+00	0	54	0	124256256	39	4392
2026-01-03 03:52:19.24	218.49	19.24	-34.0	-35.4	26.1	0.00e+00	0	54	0	125304832	39	4284
2026-01-03 03:52:20.25	218.18	19.37	-33.8	-35.2	26.3	0.00e+00	0	54	0	126353408	39	4171
2026-01-03 03:52:21.26	217.87	19.51	-33.7	-35.1	26.4	0.00e+00	0	54	0	127401984	39	4135
2026-01-03 03:52:22.27	217.56	19.64	-33.8	-35.2	26.3	0.00e+00	0	54	0	128974848	39	4182
2026-01-03 03:52:23.27	217.25	19.78	-33.8	-35.2	26.3	0.00e+00	0	54	0	130023424	39	4191
2026-01-03 03:52:24.29	216.92	19.92	-33.9	-35.3	26.2	0.00e+00	0	54	0	131072000	39	4233
2026-01-03 03:52:25.30	216.60	20.05	-34.0	-35.5	26.1	0.00e+00	0	54	0	132120576	39	4297
2026-01-03 03:52:26.31	216.27	20.19	-33.8	-35.3	26.2	0.00e+00	0	54	0	133169152	39	4199
2026-01-03 03:52:27.32	215.94	20.32	-33.8	-35.3	26.3	0.00e+00	0	54	0	134742016	39	4205
2026-01-03 03:52:28.33	215.61	20.46	-33.8	-35.2	26.3	0.00e+00	0	55	0	135790592	39	4186
2026-01-03 03:52:29.34	215.27	20.60	-34.1	-35.5	26.0	0.00e+00	0	54	0	136839168	39	4321
2026-01-03 03:52:30.34	214.93	20.73	-34.2	-35.7	25.9	0.00e+00	0	54	0	137887744	39	4432
2026-01-03 03:52:31.35	214.59	20.87	-34.1	-35.6	25.9	0.00e+00	0	55	0	138936320	39	4353
2026-01-03 03:52:32.36	214.24	21.00	-33.9	-35.3	26.2	0.00e+00	0	55	0	139984896	39	4205
2026-01-03 03:52:33.37	213.89	21.14	-33.7	-35.1	26.4	0.00e+00	0	54	0	141033472	39	4100
2026-01-03 03:52:34.38	213.53	21.28	-33.5	-34.9	26.7	0.00e+00	0	54	0	142606336	38	4254
2026-01-03 03:52:35.39	213.17	21.41	-33.7	-35.1	26.4	0.00e+00	0	55	0	143654912	38	4376
2026-01-03 03:52:36.40	212.81	21.55	-33.6	-35.1	26.5	0.00e+00	0	55	0	144703488	38	4343
2026-01-03 03:52:37.41	212.44	21.69	-33.7	-35.1	26.4	0.00e+00	0	55	0	145752064	38	4378
2026-01-03 03:52:38.43	212.07	21.82	-33.6	-35.0	26.5	0.00e+00	0	55	0	146800640	38	4313
2026-01-03 03:52:39.43	211.69	21.96	-33.6	-35.0	26.5	0.00e+00	0	55	0	147849216	38	4338
2026-01-03 03:52:40.44	211.32	22.09	-33.7	-35.1	26.5	0.00e+00	0	55	0	149422080	38	4359
2026-01-03 03:52:41.45	210.93	22.23	-33.7	-35.1	26.4	0.00e+00	0	55	0	150470656	38	4376
2026-01-03 03:52:42.46	210.55	22.37	-33.8	-35.2	26.4	0.00e+00	0	55	0	151519232	38	4424
2026-01-03 03:52:43.47	210.16	22.50	-33.6	-35.0	26.5	0.00e+00	0	55	0	152567808	38	4333
2026-01-03 03:52:44.48	209.76	22.64	-33.4	-34.8	26.8	0.00e+00	0	55	0	153616384	38	4205
2026-01-03 03:52:45.49	209.36	22.77	-33.2	-34.5	27.0	0.00e+00	0	55	0	154664960	38	4096
2026-01-03 03:52:46.50	208.96	22.91	-33.3	-34.7	26.8	0.00e+00	0	55	0	156237824	38	4180
2026-01-03 03:52:47.51	208.55	23.04	-33.3	-34.7	26.9	0.00e+00	0	55	0	157286400	38	4149
2026-01-03 03:52:48.52	208.14	23.17	-33.0	-34.4	27.1	0.00e+00	0	55	0	158334976	38	4026
2026-01-03 03:52:49.53	207.72	23.31	-33.0	-34.3	27.1	0.00e+00	0	55	0	159383552	37	4211
2026-01-03 03:52:50.54	207.31	23.44	-33.1	-34.4	27.0	0.00e+00	0	55	0	160432128	37	4289
2026-01-03 03:52:51.55	206.88	23.57	-32.9	-34.2	27.3	0.00e+00	0	55	0	161480704	37	4169
2026-01-03 03:52:52.56	206.45	23.70	-33.0	-34.4	27.1	0.00e+00	0	55	0	163053568	37	4266
2026-01-03 03:52:53.57	206.02	23.83	-32.9	-34.3	27.2	0.00e+00	0	55	0	164102144	37	4199
2026-01-03 03:52:54.58	205.59	23.96	-32.9	-34.2	27.3	0.00e+00	0	55	0	165150720	37	4193
2026-01-03 03:52:55.59	205.14	24.09	-33.0	-34.4	27.2	0.00e+00	0	55	0	166199296	37	4246
2026-01-03 03:52:56.60	204.70	24.22	-33.2	-34.6	26.9	0.00e+00	0	55	0	167247872	37	4386
2026-01-03 03:52:57.61	204.25	24.35	-33.4	-34.8	26.8	0.00e+00	0	55	0	168820736	37	4453
2026-01-03 03:52:58.62	203.80	24.47	-33.3	-34.7	26.8	0.00e+00	0	55	0	169869312	37	4399
2026-01-03 03:52:59.63	203.34	24.60	-33.4	-34.8	26.7	0.00e+00	0	55	0	170917888	37	4479
2026-01-03 03:53:00.64	202.88	24.73	-33.4	-34.8	26.8	0.00e+00	0	55	0	171966464	37	4446
2026-01-03 03:53:01.65	202.41	24.85	-33.2	-34.6	26.9	0.00e+00	0	55	0	173015040	37	4372
2026-01-03 03:53:02.66	201.94	24.97	-33.1	-34.4	27.1	0.00e+00	0	55	0	174063616	37	4282
2026-01-03 03:53:03.67	201.47	25.09	-33.1	-34.5	27.0	0.00e+00	0	55	0	175636480	37	4319
2026-01-03 03:53:04.68	200.99	25.21	-33.0	-34.3	27.0	0.00e+00	0	55	0	176685056	37	4231
2026-01-03 03:53:05.69	200.51	25.33	-32.6	-33.9	27.5	0.00e+00	0	55	0	177733632	37	4040
2026-01-03 03:53:06.70	200.02	25.45	-32.7	-34.0	27.4	0.00e+00	0	55	0	178782208	37	4076
2026-01-03 03:53:07.71	199.53	25.57	-32.7	-34.1	27.4	0.00e+00	0	55	0	179830784	37	4099
2026-01-03 03:53:08.72	199.03	25.68	-32.5	-33.8	27.6	0.00e+00	0	55	0	180879360	36	4223
2026-01-03 03:53:09.73	198.53	25.80	-32.3	-33.6	27.8	0.00e+00	0	55	0	181927936	36	4144
2026-01-03 03:53:10.74	198.03	25.91	-32.7	-34.0	27.5	0.00e+00	0	55	0	183500800	36	4317
2026-01-03 03:53:11.75	197.52	26.02	-32.7	-34.0	27.4	0.00e+00	0	55	0	184549376	36	4332
2026-01-03 03:53:12.76	197.01	26.13	-32.9	-34.2	27.3	0.00e+00	0	55	0	185597952	36	4439
2026-01-03 03:53:13.77	196.50	26.24	-33.2	-34.5	27.0	0.00e+00	0	55	0	186646528	36	4593
2026-01-03 03:53:14.78	195.98	26.34	-33.1	-34.5	27.0	0.00e+00	0	55	0	187695104	36	4547
2026-01-03 03:53:15.79	195.45	26.45	-32.8	-34.1	27.3	0.00e+00	0	55	0	188743680	36	4381
2026-01-03 03:53:16.80	194.93	26.55	-32.6	-33.9	27.4	0.00e+00	0	55	0	190316544	36	4286
2026-01-03 03:53:17.81	194.39	26.65	-32.4	-33.7	27.5	0.00e+00	0	55	0	191365120	36	4168
2026-01-03 03:53:18.82	193.86	26.75	-32.1	-33.4	27.9	0.00e+00	0	55	0	192413696	36	4034
2026-01-03 03:53:19.82	193.33	26.84	-32.3	-33.6	27.7	0.00e+00	0	55	0	193462272	36	4128
2026-01-03 03:53:20.83	192.78	26.94	-32.6	-33.9	27.4	0.00e+00	0	55	0	194510848	36	4289
2026-01-03 03:53:21.84	192.24	27.03	-32.5	-33.8	27.5	0.00e+00	0	55	0	195559424	36	4213
2026-01-03 03:53:22.85	191.69	27.12	-32.1	-33.4	27.9	0.00e+00	0	55	0	197132288	36	4031
2026-01-03 03:53:23.86	191.14	27.21	-32.2	-33.5	27.9	0.00e+00	0	55	0	198180864	36	4071
2026-01-03 03:53:24.87	190.58	27.29	-32.0	-33.3	28.0	0.00e+00	0	55	0	199229440	36	3986
2026-01-03 03:53:25.88	190.02	27.37	-31.2	-32.5	28.2	0.00e+00	0	55	0	200278016	34	4070
2026-01-03 03:53:26.89	189.46	27.45	-31.6	-32.9	27.9	0.00e+00	0	55	0	201326592	34	4273
2026-01-03 03:53:27.90	188.89	27.53	-31.8	-33.1	27.6	0.00e+00	0	55	0	202375168	34	4367
2026-01-03 03:53:28.91	188.32	27.61	-31.3	-32.6	28.0	0.00e+00	0	55	0	203948032	34	4125
2026-01-03 03:53:29.92	187.75	27.68	-31.6	-32.9	27.6	0.00e+00	0	55	0	204996608	34	4257
2026-01-03 03:53:30.93	187.17	27.75	-32.0	-33.3	27.4	0.00e+00	0	55	0	206045184	34	4489
2026-01-03 03:53:31.94	186.59	27.82	-31.8	-33.2	27.6	0.00e+00	0	55	0	207093760	34	4392
2026-01-03 03:53:32.95	186.01	27.88	-32.2	-33.6	27.1	0.00e+00	0	55	0	208142336	35	4372
2026-01-03 03:53:33.96	185.43	27.95	-32.5	-33.9	26.9	0.00e+00	0	55	0	209715200	35	4545
2026-01-03 03:53:34.97	184.84	28.01	-32.4	-33.8	27.1	0.00e+00	0	55	0	210763776	35	4450
2026-01-03 03:53:35.98	184.26	28.06	-32.1	-33.4	27.4	0.00e+00	0	55	0	211812352	35	4291
2026-01-03 03:53:36.99	183.67	28.12	-32.0	-33.3	27.4	0.00e+00	0	55	0	212860928	35	4224
2026-01-03 03:53:38.00	183.07	28.17	-31.9	-33.2	27.5	0.00e+00	0	55	0	213909504	35	4179
2026-01-03 03:53:39.01	182.48	28.22	-32.1	-33.4	27.4	0.00e+00	0	55	0	214958080	35	4273
2026-01-03 03:53:40.02	181.88	28.26	-32.3	-33.7	27.1	0.00e+00	0	55	0	216530944	35	4421
2026-01-03 03:53:41.03	181.28	28.30	-32.5	-33.9	27.0	0.00e+00	0	55	0	217579520	35	4506
2026-01-03 03:53:42.04	180.68	28.34	-32.2	-33.6	27.2	0.00e+00	0	55	0	218628096	35	4345
2026-01-03 03:53:43.05	180.08	28.38	-31.9	-33.2	27.6	0.00e+00	0	55	0	219676672	35	4176
2026-01-03 03:53:44.06	179.48	28.41	-32.1	-33.5	27.4	0.00e+00	0	55	0	220725248	35	4296
2026-01-03 03:53:45.06	178.88	28.44	-32.2	-33.5	27.3	0.00e+00	0	55	0	221773824	35	4334
2026-01-03 03:53:46.07	178.27	28.47	-32.1	-33.5	27.4	0.00e+00	0	55	0	222822400	35	4308
2026-01-03 03:53:47.08	177.67	28.49	-32.1	-33.4	27.4	0.00e+00	0	55	0	224395264	35	4289
2026-01-03 03:53:48.10	177.05	28.51	-31.6	-32.9	27.9	0.00e+00	0	55	0	225443840	35	4039
2026-01-03 03:53:49.10	176.45	28.53	-31.4	-32.8	28.0	0.00e+00	0	55	0	226492416	34	4195
2026-01-03 03:53:50.11	175.84	28.54	-31.7	-33.1	27.7	0.00e+00	0	55	0	227540992	34	4346
2026-01-03 03:53:51.12	175.23	28.55	-31.7	-33.0	27.7	0.00e+00	0	55	0	228589568	34	4301
2026-01-03 03:53:52.13	174.62	28.56	-31.8	-33.1	27.9	0.00e+00	0	56	0	229638144	34	4352
2026-01-03 03:53:53.14	174.01	28.56	-31.7	-33.0	27.8	0.00e+00	0	55	0	231211008	34	4317
2026-01-03 03:53:54.15	173.40	28.56	-31.6	-32.9	27.9	0.00e+00	0	55	0	232259584	34	4268
2026-01-03 03:53:55.16	172.79	28.56	-31.8	-33.1	27.7	0.00e+00	0	55	0	233308160	34	4386
2026-01-03 03:53:56.17	172.18	28.56	-32.3	-33.7	27.2	0.00e+00	0	55	0	234356736	35	4403
2026-01-03 03:53:57.18	171.57	28.55	-32.1	-33.5	27.4	0.00e+00	0	55	0	235405312	35	4296
2026-01-03 03:53:58.19	170.96	28.53	-32.0	-33.4	27.5	0.00e+00	0	55	0	236453888	35	4249
2026-01-03 03:53:59.20	170.35	28.52	-31.7	-33.1	27.8	0.00e+00	0	56	0	238026752	35	4100
2026-01-03 03:54:00.21	169.74	28.50	-31.6	-33.0	27.8	0.00e+00	0	55	0	239075328	35	4060
2026-01-03 03:54:01.22	169.14	28.48	-32.0	-33.4	27.5	0.00e+00	0	56	0	240123904	35	4264
2026-01-03 03:54:02.23	168.53	28.45	-31.9	-33.3	27.5	0.00e+00	0	55	0	241172480	34	4458
2026-01-03 03:54:03.24	167.93	28.43	-31.9	-33.2	27.7	0.00e+00	0	56	0	242221056	34	4429
2026-01-03 03:54:04.25	167.32	28.39	-31.5	-32.8	28.0	0.00e+00	0	56	0	243269632	34	4242
2026-01-03 03:54:05.26	166.72	28.36	-31.5	-32.8	28.1	0.00e+00	0	56	0	244842496	34	4236
2026-01-03 03:54:06.27	166.12	28.32	-31.6	-32.9	27.9	0.00e+00	0	56	0	245891072	34	4271
2026-01-03 03:54:07.28	165.52	28.28	-31.8	-33.1	27.8	0.00e+00	0	55	0	246939648	34	4369
2026-01-03 03:54:08.29	164.92	28.24	-32.2	-33.6	27.4	0.00e+00	0	56	0	247988224	34	4632
2026-01-03 03:54:09.30	164.33	28.19	-32.5	-33.9	27.1	0.00e+00	0	56	0	249036800	35	4517
2026-01-03 03:54:10.31	163.73	28.14	-32.1	-33.5	27.4	0.00e+00	0	55	0	250609664	35	4318
2026-01-03 03:54:11.32	163.14	28.09	-32.0	-33.4	27.5	0.00e+00	0	56	0	251658240	35	4286
2026-01-03 03:54:12.33	162.55	28.03	-32.0	-33.4	27.5	0.00e+00	0	56	0	252706816	35	4274
2026-01-03 03:54:13.34	161.97	27.98	-32.0	-33.4	27.5	0.00e+00	0	56	0	253755392	35	4273
2026-01-03 03:54:14.35	161.38	27.91	-32.0	-33.3	27.6	0.00e+00	0	55	0	254803968	35	4232
2026-01-03 03:54:15.36	160.80	27.85	-31.7	-33.0	27.9	0.00e+00	0	56	0	255852544	35	4076
2026-01-03 03:54:16.37	160.22	27.78	-31.4	-32.8	28.1	0.00e+00	0	56	0	257425408	34	4195
2026-01-03 03:54:17.38	159.65	27.71	-31.6	-33.0	27.9	0.00e+00	0	56	0	258473984	34	4303
2026-01-03 03:54:18.39	159.07	27.64	-31.8	-33.1	27.8	0.00e+00	0	56	0	259522560	34	4367
2026-01-03 03:54:19.40	158.50	27.57	-31.9	-33.3	27.7	0.00e+00	0	56	0	260571136	34	4471
2026-01-03 03:54:20.41	157.94	27.49	-32.1	-33.5	27.5	0.00e+00	0	56	0	261619712	34	4569
2026-01-03 03:54:21.41	157.38	27.41	-32.2	-33.6	27.3	0.00e+00	0	55	0	262668288	35	4373
2026-01-03 03:54:22.42	156.82	27.33	-32.1	-33.5	27.5	0.00e+00	0	55	0	263716864	35	4299
2026-01-03 03:54:23.44	156.25	27.25	-31.9	-33.2	27.6	0.00e+00	0	56	0	265289728	35	4189
2026-01-03 03:54:24.45	155.70	27.16	-31.9	-33.3	27.6	0.00e+00	0	56	0	266338304	35	4203
2026-01-03 03:54:25.45	155.15	27.07	-31.9	-33.2	27.7	0.00e+00	0	56	0	267386880	35	4183
2026-01-03 03:54:26.46	154.61	26.98	-31.9	-33.3	27.6	0.00e+00	0	56	0	268435456	35	4212
2026-01-03 03:54:27.47	154.06	26.89	-32.0	-33.4	27.6	0.00e+00	0	55	0	269484032	35	4247
2026-01-03 03:54:28.48	153.52	26.79	-31.9	-33.3	27.6	0.00e+00	0	56	0	270532608	35	4205
2026-01-03 03:54:29.49	152.99	26.70	-32.1	-33.5	27.4	0.00e+00	0	56	0	272105472	35	4330
2026-01-03 03:54:30.50	152.46	26.60	-32.0	-33.4	27.5	0.00e+00	0	56	0	273154048	35	4269
2026-01-03 03:54:31.51	151.93	26.50	-32.2	-33.6	27.4	0.00e+00	0	56	0	274202624	35	4387
2026-01-03 03:54:32.52	151.40	26.39	-32.6	-34.0	27.0	0.00e+00	0	56	0	275251200	35	4556
2026-01-03 03:54:33.53	150.88	26.29	-32.4	-33.8	27.2	0.00e+00	0	56	0	276299776	35	4451
2026-01-03 03:54:34.54	150.37	26.18	-32.1	-33.5	27.5	0.00e+00	0	56	0	277348352	35	4301
2026-01-03 03:54:35.55	149.85	26.07	-32.0	-33.3	27.6	0.00e+00	0	56	0	278921216	35	4233
2026-01-03 03:54:36.56	149.34	25.96	-32.2	-33.6	27.3	0.00e+00	0	56	0	279969792	35	4371
2026-01-03 03:54:37.58	148.83	25.85	-32.4	-33.8	27.2	0.00e+00	0	56	0	281018368	35	4457
2026-01-03 03:54:38.58	148.34	25.74	-32.2	-33.6	27.3	0.00e+00	0	56	0	282066944	35	4379
2026-01-03 03:54:39.59	147.84	25.63	-32.1	-33.5	27.5	0.00e+00	0	56	0	283115520	35	4293
2026-01-03 03:54:40.60	147.35	25.51	-31.8	-33.2	27.8	0.00e+00	0	56	0	284164096	35	4170
2026-01-03 03:54:41.62	146.86	25.39	-31.8	-33.2	27.7	0.00e+00	0	56	0	285736960	35	4164
2026-01-03 03:54:42.62	146.38	25.27	-32.0	-33.3	27.6	0.00e+00	0	56	0	286785536	35	4234
2026-01-03 03:54:43.63	145.90	25.15	-32.1	-33.5	27.5	0.00e+00	0	56	0	287834112	35	4305
2026-01-03 03:54:44.64	145.42	25.03	-32.1	-33.4	27.5	0.00e+00	0	56	0	288882688	35	4282
2026-01-03 03:54:45.65	144.95	24.91	-32.4	-33.8	27.2	0.00e+00	0	56	0	289931264	35	4473
2026-01-03 03:54:46.66	144.48	24.79	-32.5	-33.9	27.1	0.00e+00	0	56	0	291504128	35	4526
2026-01-03 03:54:47.67	144.02	24.66	-32.5	-34.0	27.0	0.00e+00	0	56	0	292552704	35	4556
2026-01-03 03:54:48.68	143.56	24.54	-32.3	-33.7	27.2	0.00e+00	0	56	0	293601280	35	4437
2026-01-03 03:54:49.69	143.11	24.41	-32.3	-33.7	27.2	0.00e+00	0	56	0	294649856	35	4423
2026-01-03 03:54:50.70	142.66	24.29	-32.1	-33.5	27.3	0.00e+00	0	56	0	295698432	35	4319
2026-01-03 03:54:51.71	142.21	24.16	-32.2	-33.6	27.3	0.00e+00	0	56	0	296747008	35	4376
2026-01-03 03:54:52.72	141.77	24.03	-32.3	-33.7	27.2	0.00e+00	0	56	0	297795584	35	4432
2026-01-03 03:54:53.73	141.33	23.90	-32.2	-33.6	27.3	0.00e+00	0	56	0	299368448	35	4351
2026-01-03 03:54:54.74	140.90	23.77	-32.2	-33.6	27.3	0.00e+00	0	56	0	300417024	35	4341
2026-01-03 03:54:55.75	140.47	23.64	-32.0	-33.4	27.5	0.00e+00	0	56	0	301465600	35	4270
2026-01-03 03:54:56.76	140.05	23.51	-32.2	-33.5	27.3	0.00e+00	0	56	0	302514176	35	4339
2026-01-03 03:54:57.77	139.63	23.38	-32.5	-33.9	27.0	0.00e+00	0	56	0	303562752	35	4524
2026-01-03 03:54:58.78	139.21	23.24	-32.6	-34.1	26.9	0.00e+00	0	56	0	304611328	35	4613
2026-01-03 03:54:59.79	138.80	23.11	-32.7	-34.1	26.8	0.00e+00	0	56	0	306184192	35	4627
2026-01-03 03:55:00.80	138.39	22.98	-32.7	-34.1	26.8	0.00e+00	0	56	0	307232768	35	4642
2026-01-03 03:55:01.81	137.98	22.84	-32.5	-33.9	27.0	0.00e+00	0	56	0	308281344	35	4513
2026-01-03 03:55:02.82	137.58	22.71	-32.4	-33.8	27.1	0.00e+00	0	56	0	309329920	35	4457
2026-01-03 03:55:03.83	137.19	22.57	-32.4	-33.8	27.0	0.00e+00	0	56	0	310378496	35	4489
2026-01-03 03:55:04.84	136.80	22.44	-32.6	-34.1	26.8	0.00e+00	0	56	0	311427072	35	4605
2026-01-03 03:55:05.85	136.41	22.30	-33.4	-34.8	26.7	0.00e+00	0	56	0	312999936	37	4448
2026-01-03 03:55:06.86	136.02	22.17	-33.7	-35.1	26.3	0.00e+00	0	56	0	314048512	37	4635
2026-01-03 03:55:07.86	135.65	22.03	-33.8	-35.3	26.4	0.00e+00	0	56	0	315097088	38	4446
2026-01-03 03:55:08.87	135.27	21.90	-33.7	-35.2	26.4	0.00e+00	0	56	0	316145664	38	4411
2026-01-03 03:55:09.88	134.90	21.76	-33.7	-35.1	26.4	0.00e+00	0	56	0	317194240	38	4381
2026-01-03 03:55:10.89	134.53	21.63	-33.5	-34.9	26.7	0.00e+00	0	56	0	318242816	38	4252
2026-01-03 03:55:11.90	134.17	21.49	-33.5	-35.0	26.6	0.00e+00	0	56	0	319815680	38	4293
2026-01-03 03:55:12.91	133.81	21.35	-34.0	-35.4	26.1	0.00e+00	0	56	0	320864256	38	4528
2026-01-03 03:55:13.92	133.45	21.22	-34.2	-35.7	25.9	0.00e+00	0	56	0	321912832	39	4420
2026-01-03 03:55:14.93	133.10	21.08	-34.1	-35.5	26.0	0.00e+00	0	56	0	322961408	39	4339
2026-01-03 03:55:15.94	132.75	20.95	-34.0	-35.5	26.0	0.00e+00	0	56	0	324009984	39	4295
2026-01-03 03:55:16.95	132.40	20.81	-33.6	-35.0	26.5	0.00e+00	0	56	0	325058560	39	4089
2026-01-03 03:55:17.96	132.06	20.67	-33.7	-35.2	26.4	0.00e+00	0	56	0	326631424	39	4151
2026-01-03 03:55:18.97	131.72	20.54	-34.1	-35.5	26.1	0.00e+00	0	56	0	327680000	39	4334
2026-01-03 03:55:19.98	131.39	20.40	-34.2	-35.8	25.8	0.00e+00	0	56	0	328728576	39	4445
2026-01-03 03:55:20.99	131.05	20.27	-34.1	-35.6	26.0	0.00e+00	0	56	0	329777152	39	4363
2026-01-03 03:55:22.00	130.73	20.13	-34.0	-35.5	26.0	0.00e+00	0	56	0	330825728	39	4331
2026-01-03 03:55:23.01	130.40	20.00	-33.9	-35.4	26.0	0.00e+00	0	56	0	331874304	39	4264
2026-01-03 03:55:24.02	130.08	19.86	-33.9	-35.3	26.2	0.00e+00	0	56	0	333447168	39	4241
2026-01-03 03:55:25.03	129.76	19.73	-33.9	-35.3	26.2	0.00e+00	0	56	0	334495744	39	4229
2026-01-03 03:55:26.04	129.45	19.59	-34.0	-35.5	26.0	0.00e+00	0	56	0	335544320	39	4322
2026-01-03 03:55:27.05	129.14	19.46	-34.2	-35.7	25.9	0.00e+00	0	56	0	336592896	39	4399
2026-01-03 03:55:28.06	128.83	19.32	-34.3	-35.8	25.7	0.00e+00	0	56	0	337641472	39	4466
2026-01-03 03:55:29.07	128.53	19.19	-34.4	-35.9	25.6	0.00e+00	0	56	0	338690048	39	4508
2026-01-03 03:55:30.08	128.23	19.05	-34.4	-35.9	25.6	0.00e+00	0	56	0	340262912	39	4516
2026-01-03 03:55:31.09	127.93	18.92	-34.4	-36.0	25.6	0.00e+00	0	56	0	341311488	39	4555
2026-01-03 03:55:32.10	127.63	18.79	-34.5	-36.1	25.4	0.00e+00	0	56	0	342360064	39	4609
2026-01-03 03:55:33.10	127.34	18.66	-34.6	-36.2	25.3	0.00e+00	0	56	0	343408640	39	4670
2026-01-03 03:55:34.11	127.06	18.52	-34.5	-36.0	25.5	0.00e+00	0	56	0	344457216	39	4562
2026-01-03 03:55:35.12	126.77	18.39	-34.5	-36.0	25.5	0.00e+00	0	56	0	345505792	39	4587
2026-01-03 03:55:36.14	126.49	18.26	-34.2	-35.7	25.8	0.00e+00	0	56	0	347078656	39	4420
2026-01-03 03:55:37.14	126.21	18.13	-34.2	-35.7	25.8	0.00e+00	0	56	0	348127232	39	4404
2026-01-03 03:55:38.15	125.93	18.00	-34.2	-35.7	25.7	0.00e+00	0	56	0	349175808	39	4421
2026-01-03 03:55:39.16	125.66	17.87	-34.3	-35.8	25.7	0.00e+00	0	56	0	350224384	39	4459
2026-01-03 03:55:40.17	125.39	17.74	-34.3	-35.8	25.6	0.00e+00	0	56	0	351272960	39	4447
2026-01-03 03:55:41.18	125.12	17.61	-34.2	-35.7	25.6	0.00e+00	0	56	0	352321536	39	4432
2026-01-03 03:55:42.19	124.86	17.48	-34.3	-35.8	25.6	0.00e+00	0	56	0	353894400	39	4469
2026-01-03 03:55:43.20	124.59	17.35	-34.5	-36.0	25.4	0.00e+00	0	56	0	354942976	39	4576
2026-01-03 03:55:44.21	124.34	17.22	-34.8	-36.3	25.0	0.00e+00	0	56	0	355991552	40	4483
2026-01-03 03:55:45.22	124.08	17.09	-35.0	-36.7	24.7	0.00e+00	0	56	0	357040128	40	4660
2026-01-03 03:55:46.22	123.83	16.97	-35.1	-36.7	24.6	0.00e+00	0	56	0	358088704	40	4685
2026-01-03 03:55:47.23	123.58	16.84	-34.9	-36.5	24.8	0.00e+00	0	56	0	359137280	40	4554
2026-01-03 03:55:48.24	123.33	16.72	-34.9	-36.5	24.8	0.00e+00	0	56	0	360710144	40	4575
2026-01-03 03:55:49.25	123.08	16.59	-34.9	-36.5	24.8	0.00e+00	0	56	0	361758720	40	4554
2026-01-03 03:55:50.26	122.84	16.46	-34.5	-36.1	25.2	0.00e+00	0	56	0	362807296	40	4343
2026-01-03 03:55:51.27	122.60	16.34	-34.7	-36.2	25.0	0.00e+00	0	56	0	363855872	40	4435
2026-01-03 03:55:52.28	122.36	16.21	-35.1	-36.8	24.5	0.00e+00	0	56	0	364904448	40	4740
2026-01-03 03:55:53.29	122.12	16.09	-35.4	-37.1	24.1	0.00e+00	0	56	0	365953024	41	4647
2026-01-03 03:55:54.30	121.89	15.97	-35.4	-37.1	24.2	0.00e+00	0	56	0	367525888	41	4625
2026-01-03 03:55:55.31	121.66	15.84	-35.2	-36.9	24.3	0.00e+00	0	56	0	368574464	41	4539
2026-01-03 03:55:56.32	121.43	15.72	-35.1	-36.9	24.2	0.00e+00	0	56	0	369623040	41	4504
2026-01-03 03:55:57.33	121.20	15.60	-34.9	-36.7	24.2	0.00e+00	0	56	0	370671616	40	4666
2026-01-03 03:55:58.34	120.98	15.48	-34.6	-36.3	24.7	0.00e+00	0	56	0	371720192	40	4492
2026-01-03 03:55:59.35	120.76	15.36	-34.6	-36.3	24.7	0.00e+00	0	56	0	372768768	39	4754
2026-01-03 03:56:00.36	120.54	15.24	-34.6	-36.3	24.7	0.00e+00	0	56	0	374341632	39	4730
2026-01-03 03:56:01.37	120.32	15.12	-34.7	-36.4	24.7	0.00e+00	0	56	0	375390208	39	4770
2026-01-03 03:56:02.38	120.11	15.00	-33.6	-36.5	24.2	0.00e+00	0	56	0	376438784	40	4550
2026-01-03 03:56:03.38	119.90	14.88	-35.0	-36.8	24.3	0.00e+00	0	56	0	377487360	40	4709
2026-01-03 03:56:04.40	119.69	14.76	-35.4	-37.1	23.6	0.00e+00	0	56	0	378535936	41	4639
2026-01-03 03:56:05.41	119.48	14.64	-35.5	-37.4	23.7	0.00e+00	0	56	0	379584512	41	4763
2026-01-03 03:56:06.42	119.27	14.52	-35.8	-37.7	23.3	0.00e+00	0	56	0	381157376	42	4663
2026-01-03 03:56:07.42	119.07	14.41	-36.0	-37.8	23.3	2.20e-06	0	56	0	382205952	42	4740
2026-01-03 03:56:08.43	118.87	14.29	-35.8	-37.7	22.6	2.20e-06	0	56	0	383254528	42	4693
2026-01-03 03:56:09.44	118.67	14.18	-35.5	-37.5	23.4	0.00e+00	0	56	0	384303104	42	4593
2026-01-03 03:56:10.45	118.47	14.06	-35.5	-37.4	23.4	2.20e-06	0	56	0	385351680	41	4764
2026-01-03 03:56:11.46	118.27	13.94	-35.4	-37.2	23.7	2.20e-06	0	56	0	386400256	41	4673
2026-01-03 03:56:12.47	118.08	13.83	-35.1	-37.1	23.5	4.50e-06	0	56	0	387973120	40	4875
2026-01-03 03:56:13.48	117.89	13.72	-35.0	-37.1	23.3	2.20e-06	0	56	0	389021696	40	4898
2026-01-03 03:56:14.49	117.70	13.60	-35.0	-37.3	20.6	2.20e-06	0	56	0	390070272	40	4986
2026-01-03 03:56:15.50	117.51	13.49	-35.2	-37.3	22.7	1.48e-05	0	56	0	391118848	41	4736
2026-01-03 03:56:16.51	117.32	13.38	-35.1	-37.7	21.0	1.37e-05	0	56	0	392167424	41	4927
2026-01-03 03:56:17.52	117.14	13.27	-35.4	-37.9	21.9	2.74e-05	0	56	0	393216000	41	5057
2026-01-03 03:56:18.53	116.95	13.15	-32.6	-38.0	21.3	2.74e-05	0	56	0	394788864	41	5121
2026-01-03 03:56:19.54	116.77	13.04	-34.5	-38.0	18.9	1.13e-04	0	56	0	395837440	40	5451
2026-01-03 03:56:20.55	116.59	12.93	-33.3	-38.1	19.7	1.85e-04	0	56	0	396886016	41	5196
2026-01-03 03:56:21.56	116.41	12.82	-34.2	-38.1	20.9	1.85e-04	0	56	0	397934592	41	5185
2026-01-03 03:56:22.57	116.24	12.71	-34.7	-38.2	20.4	7.40e-04	0	56	0	398983168	41	5269
2026-01-03 03:56:23.58	116.06	12.61	-34.9	-38.0	19.1	2.21e-04	0	56	0	400031744	41	5119
2026-01-03 03:56:24.59	115.89	12.50	-31.9	-38.1	14.5	2.21e-04	0	56	0	401604608	37	6538
2026-01-03 03:56:25.60	115.72	12.39	-35.3	-38.1	20.6	2.59e-03	0	56	0	402653184	41	5185
2026-01-03 03:56:26.61	115.55	12.28	-35.5	-38.0	20.5	4.71e-04	0	56	0	403701760	40	5412
2026-01-03 03:56:27.62	115.38	12.18	-35.6	-38.3	20.4	4.71e-04	0	56	0	404750336	41	5283
2026-01-03 03:56:28.63	115.22	12.07	-34.2	-38.3	20.1	5.58e-04	0	56	0	405798912	41	5304
2026-01-03 03:56:29.64	115.05	11.96	-34.1	-38.4	18.9	5.74e-04	0	56	0	406847488	40	5709
2026-01-03 03:56:30.65	114.89	11.86	-35.3	-38.8	18.2	7.93e-04	0	56	0	408420352	42	5291
2026-01-03 03:56:31.66	114.73	11.75	-35.5	-39.0	19.0	7.93e-04	0	56	0	409468928	40	6086
2026-01-03 03:56:32.67	114.57	11.65	-35.6	-39.0	18.7	9.88e-04	0	56	0	410517504	41	5777
2026-01-03 03:56:33.68	114.41	11.55	-35.0	-38.7	18.7	1.01e-03	0	56	0	411566080	41	5547
2026-01-03 03:56:34.69	114.25	11.44	-35.3	-38.8	18.5	1.01e-03	0	56	0	412614656	41	5648
2026-01-03 03:56:35.70	114.10	11.34	-35.2	-38.9	18.0	1.07e-03	0	56	0	413663232	40	6027
2026-01-03 03:56:36.71	113.95	11.24	-34.8	-38.7	16.7	1.61e-03	0	56	0	415236096	40	5923
2026-01-03 03:56:37.72	113.79	11.13	-34.4	-38.8	16.7	1.61e-03	0	57	0	416284672	39	6279
2026-01-03 03:56:38.73	113.64	11.03	-34.5	-39.3	16.7	2.74e-03	0	56	0	417333248	39	6664
2026-01-03 03:56:39.74	113.49	10.93	-33.6	-38.2	16.6	5.08e-03	0	56	0	418381824	39	5869
2026-01-03 03:56:40.75	113.34	10.83	-33.8	-38.8	16.6	5.08e-03	0	56	0	419430400	39	6319
2026-01-03 03:56:41.75	113.20	10.73	-32.1	-38.1	16.7	3.59e-03	0	56	0	420478976	37	6497
2026-01-03 03:56:42.76	113.05	10.63	-32.6	-37.5	15.5	5.14e-03	0	56	0	422051840	35	6850
2026-01-03 03:56:43.77	112.91	10.53	-32.9	-37.4	17.1	3.22e-03	0	56	0	423100416	37	6057
2026-01-03 03:56:44.78	112.77	10.44	-33.8	-38.7	16.0	3.22e-03	0	56	0	424148992	38	6628
2026-01-03 03:56:45.79	112.62	10.34	-34.3	-39.8	14.4	1.17e-02	0	56	0	425197568	39	7045
2026-01-03 03:56:46.80	112.48	10.24	-34.5	-40.7	13.4	1.59e-02	0	56	0	426246144	39	7836
2026-01-03 03:56:47.81	112.34	10.14	-34.6	-41.1	13.5	1.59e-02	0	56	0	427294720	39	8230
2026-01-03 03:56:48.82	112.21	10.04	-33.0	-42.0	12.9	2.82e-02	0	56	0	428867584	39	9084
2026-01-03 03:56:49.83	112.07	9.95	-35.4	-43.1	11.1	2.91e-02	0	57	0	429916160	40	9736
2026-01-03 03:56:50.83	111.94	9.85	-36.1	-44.5	11.7	2.91e-02	0	56	0	430964736	43	9670
2026-01-03 03:56:51.84	111.80	9.76	-33.6	-43.2	12.3	9.96e-02	0	56	0	432013312	41	9293
2026-01-03 03:56:52.85	111.67	9.66	-36.0	-44.2	11.2	5.22e-02	0	56	0	433061888	41	10524
2026-01-03 03:56:53.86	111.54	9.57	-35.4	-43.6	12.4	5.31e-02	0	56	0	434110464	43	8749
2026-01-03 03:56:54.87	111.41	9.47	-36.1	-41.1	14.7	5.31e-02	0	57	0	435159040	39	8236
2026-01-03 03:56:55.88	111.28	9.38	-33.8	-39.1	15.4	2.23e-02	0	56	0	436731904	40	6166
2026-01-03 03:56:56.89	111.15	9.29	-34.4	-38.2	16.8	6.68e-03	0	56	0	437780480	39	5879
2026-01-03 03:56:57.90	111.02	9.19	-35.5	-39.4	17.5	6.68e-03	0	56	0	438829056	41	6037
2026-01-03 03:56:58.91	110.90	9.10	-35.6	-39.7	17.0	4.56e-03	0	57	0	439877632	42	5886
2026-01-03 03:56:59.92	110.77	9.01	-34.5	-38.9	16.7	3.68e-03	0	56	0	440926208	40	6017
2026-01-03 03:57:00.93	110.65	8.92	-35.6	-39.0	18.2	3.68e-03	0	56	0	441974784	41	5723
2026-01-03 03:57:01.94	110.52	8.82	-33.3	-39.2	16.8	3.11e-03	0	56	0	443547648	40	6251
2026-01-03 03:57:02.95	110.40	8.73	-35.9	-39.2	18.0	3.50e-03	0	57	0	444596224	42	5575
2026-01-03 03:57:03.95	110.28	8.64	-36.6	-39.5	16.8	3.50e-03	0	56	0	445644800	42	5777
2026-01-03 03:57:04.97	110.16	8.55	-36.4	-39.3	19.3	1.40e-03	0	57	0	446693376	43	5305
2026-01-03 03:57:05.97	110.04	8.46	-36.3	-39.5	18.3	6.33e-04	0	56	0	447741952	43	5441
2026-01-03 03:57:06.98	109.93	8.37	-36.1	-39.8	18.9	4.35e-04	0	56	0	448790528	44	5314
2026-01-03 03:57:07.99	109.81	8.29	-36.5	-40.0	19.5	4.35e-04	0	57	0	450363392	44	5426
2026-01-03 03:57:09.00	109.69	8.20	-36.8	-40.1	17.6	3.95e-04	0	56	0	451411968	44	5476
2026-01-03 03:57:10.01	109.58	8.11	-36.7	-40.0	19.5	5.19e-04	0	57	0	452460544	44	5458
2026-01-03 03:57:11.02	109.46	8.02	-37.0	-40.3	19.5	5.19e-04	0	56	0	453509120	45	5304
2026-01-03 03:57:12.03	109.35	7.93	-44.4	-62.1	3.6	2.55e-04	0	56	104	454033408	59	29021
2026-01-03 03:57:13.04	109.24	7.85	-44.7	-62.8	3.8	6.69e-01	0	57	104	454033408	59	31616
2026-01-03 03:57:14.05	109.13	7.76	-44.9	-63.0	3.8	6.69e-01	0	57	104	454033408	60	30597
2026-01-03 03:57:15.06	109.02	7.67	-45.1	-63.2	3.8	8.46e-01	0	57	104	454033408	60	31214
2026-01-03 03:57:16.07	108.91	7.59	-45.2	-63.4	3.8	8.46e-01	0	57	104	454033408	61	30231
2026-01-03 03:57:17.09	108.80	7.50	-45.4	-63.5	3.8	8.46e-01	0	57	104	454033408	61	30565
2026-01-03 03:57:18.10	108.69	7.41	-45.5	-63.6	3.8	8.46e-01	0	57	104	454033408	61	30940
2026-01-03 03:57:19.11	108.59	7.33	-45.6	-63.7	3.8	8.45e-01	0	57	104	454033408	61	31371
2026-01-03 03:57:20.12	108.48	7.24	-45.6	-63.8	3.8	8.46e-01	0	56	104	454033408	61	31512
2026-01-03 03:57:21.13	108.38	7.16	-45.6	-63.8	3.8	8.46e-01	0	57	104	454033408	61	31632
2026-01-03 03:57:22.14	108.27	7.08	-45.6	-63.8	3.8	8.46e-01	0	57	104	454033408	61	31492
2026-01-03 03:57:23.15	108.17	6.99	-45.5	-63.7	3.8	8.44e-01	0	57	104	454033408	61	31156
2026-01-03 03:57:24.16	108.07	6.91	-45.4	-63.6	3.8	8.44e-01	0	56	104	454033408	61	30958
2026-01-03 03:57:25.17	107.97	6.83	-45.3	-63.6	3.8	8.46e-01	0	56	104	454033408	61	30793
2026-01-03 03:57:26.18	107.86	6.74	-45.3	-63.5	3.8	8.46e-01	0	57	104	454033408	61	30587
2026-01-03 03:57:27.20	107.76	6.66	-45.4	-63.5	3.8	8.46e-01	0	56	104	454033408	61	30714
2026-01-03 03:57:28.21	107.67	6.58	-45.3	-63.5	3.8	8.46e-01	0	57	104	454033408	61	30441
2026-01-03 03:57:29.22	107.57	6.50	-45.3	-63.4	3.8	8.47e-01	0	57	104	454033408	61	30374
2026-01-03 03:57:30.23	107.47	6.42	-45.3	-63.5	3.8	8.47e-01	0	57	104	454033408	61	30412
2026-01-03 03:57:31.24	107.37	6.33	-45.3	-63.5	3.8	8.46e-01	0	57	104	454033408	61	30403
2026-01-03 03:57:32.25	107.28	6.25	-45.3	-63.4	3.8	8.46e-01	0	57	104	454033408	61	30288
2026-01-03 03:57:33.26	107.18	6.17	-45.3	-63.4	3.8	8.45e-01	0	57	104	454033408	61	30309
2026-01-03 03:57:34.27	107.09	6.09	-45.3	-63.4	3.8	8.45e-01	0	57	104	454033408	61	30336
2026-01-03 03:57:35.28	106.99	6.01	-45.3	-63.4	3.8	8.46e-01	0	57	104	454033408	61	30312
2026-01-03 03:57:36.30	106.90	5.93	-45.3	-63.4	3.8	8.46e-01	0	57	104	454033408	61	30316
2026-01-03 03:57:37.31	106.81	5.86	-45.3	-63.4	3.8	8.46e-01	0	57	104	454033408	61	30296
2026-01-03 03:57:38.32	106.72	5.78	-45.3	-63.4	3.8	8.46e-01	0	56	104	454033408	61	30273
2026-01-03 03:57:39.33	106.63	5.70	-45.3	-63.4	3.8	8.47e-01	0	57	104	454033408	61	30275
2026-01-03 03:57:40.34	106.54	5.62	-45.3	-63.4	3.8	8.47e-01	0	56	104	454033408	61	30329
2026-01-03 03:57:41.35	106.45	5.54	-45.3	-63.4	3.8	8.47e-01	0	57	104	454033408	61	30285
2026-01-03 03:57:42.36	106.36	5.46	-45.2	-63.4	3.8	8.47e-01	0	57	104	454033408	61	30278
2026-01-03 03:57:43.37	106.27	5.39	-45.3	-63.4	3.8	8.47e-01	0	57	104	454033408	61	30196
2026-01-03 03:57:44.38	106.18	5.31	-45.2	-63.4	3.8	8.46e-01	0	57	104	454033408	61	30247
2026-01-03 03:57:45.39	106.09	5.23	-45.2	-63.4	3.8	8.45e-01	0	57	104	454033408	61	30258
2026-01-03 03:57:46.40	106.01	5.16	-45.2	-63.4	3.8	8.46e-01	0	57	104	454033408	61	30153
2026-01-03 03:57:47.42	105.92	5.08	-45.2	-63.4	3.8	8.46e-01	0	57	104	454033408	61	30168
2026-01-03 03:57:48.43	105.84	5.00	-45.2	-63.4	3.8	8.46e-01	0	57	104	454033408	61	30192
2026-01-03 03:57:49.44	105.75	4.93	-45.2	-63.4	3.8	8.46e-01	0	57	104	454033408	61	30255
2026-01-03 03:57:50.45	105.67	4.85	-45.2	-63.4	3.8	8.46e-01	0	57	104	454033408	61	30197
2026-01-03 03:57:51.46	105.59	4.78	-45.2	-63.4	3.8	8.47e-01	0	57	104	454033408	61	30222
2026-01-03 03:57:52.47	105.50	4.70	-45.2	-63.4	3.8	8.46e-01	0	57	104	454033408	61	30224
2026-01-03 03:57:53.48	105.42	4.63	-45.2	-63.4	3.8	8.46e-01	0	57	104	454033408	61	30278
2026-01-03 03:57:54.49	105.34	4.55	-45.2	-63.4	3.8	8.47e-01	0	57	104	454033408	61	30198
2026-01-03 03:57:55.51	105.26	4.48	-45.2	-63.4	3.8	8.46e-01	0	57	104	454033408	61	30249
2026-01-03 03:57:56.52	105.18	4.41	-45.2	-63.4	3.8	8.46e-01	0	57	104	454033408	61	30167
2026-01-03 03:57:57.53	105.10	4.33	-45.2	-63.4	3.8	8.46e-01	0	57	104	454033408	61	30173
2026-01-03 03:57:58.54	105.02	4.26	-45.2	-63.4	3.8	8.47e-01	0	57	104	454033408	61	30236
2026-01-03 03:57:59.55	104.94	4.19	-45.2	-63.4	3.8	8.47e-01	0	57	104	454033408	61	30122
2026-01-03 03:58:00.56	104.87	4.11	-45.2	-63.4	3.8	8.47e-01	0	57	104	454033408	61	30218
2026-01-03 03:58:01.57	104.79	4.04	-45.2	-63.4	3.8	8.46e-01	0	57	104	454033408	61	30165
2026-01-03 03:58:02.58	104.71	3.97	-45.2	-63.4	3.8	8.47e-01	0	57	104	454033408	61	30186
2026-01-03 03:58:03.59	104.64	3.90	-45.2	-63.4	3.8	8.47e-01	0	57	104	454033408	61	30134
2026-01-03 03:58:04.60	104.56	3.83	-45.2	-63.4	3.8	8.46e-01	0	57	104	454033408	61	30174
2026-01-03 03:58:05.61	104.49	3.76	-45.2	-63.4	3.8	8.46e-01	0	57	104	454033408	61	30082
2026-01-03 03:58:06.63	104.41	3.68	-45.2	-63.3	3.8	8.46e-01	0	57	104	454033408	61	30030
2026-01-03 03:58:07.64	104.34	3.61	-45.2	-63.4	3.8	8.47e-01	0	57	104	454033408	61	30223
2026-01-03 03:58:08.65	104.27	3.54	-45.2	-63.4	3.8	8.46e-01	0	57	104	454033408	61	30163
2026-01-03 03:58:09.66	104.19	3.47	-45.2	-63.4	3.8	8.46e-01	0	57	104	454033408	61	30190
2026-01-03 03:58:10.67	104.12	3.40	-45.2	-63.4	3.8	8.46e-01	0	57	104	454033408	61	30151
2026-01-03 03:58:11.68	104.05	3.33	-45.2	-63.4	3.8	8.45e-01	0	57	104	454033408	61	30194
2026-01-03 03:58:12.69	103.98	3.26	-45.2	-63.4	3.8	8.46e-01	0	57	104	454033408	61	30206
2026-01-03 03:58:13.70	103.91	3.19	-45.2	-63.4	3.8	8.46e-01	0	57	104	454033408	61	30169
2026-01-03 03:58:14.71	103.84	3.12	-45.2	-63.4	3.8	8.47e-01	0	57	104	454033408	61	30139
2026-01-03 03:58:15.72	103.77	3.05	-45.2	-63.4	3.8	8.47e-01	0	57	104	454033408	61	30130
2026-01-03 03:58:16.74	103.70	2.98	-45.2	-63.4	3.8	8.47e-01	0	57	104	454033408	61	30163
2026-01-03 03:58:17.74	103.63	2.92	-45.2	-63.4	3.8	8.46e-01	0	57	104	454033408	61	30161
2026-01-03 03:58:18.76	103.56	2.85	-45.2	-63.4	3.8	8.46e-01	0	57	104	454033408	61	30142
2026-01-03 03:58:19.77	103.49	2.78	-45.2	-63.4	3.8	8.46e-01	0	57	104	454033408	61	30110
2026-01-03 03:58:20.78	103.42	2.71	-45.2	-63.4	3.8	8.46e-01	0	57	104	454033408	61	30126
2026-01-03 03:58:21.79	103.36	2.64	-45.2	-63.4	3.8	8.46e-01	0	57	104	454033408	61	30112
2026-01-03 03:58:22.80	103.29	2.58	-45.2	-63.4	3.8	8.47e-01	0	57	104	454033408	61	30085
2026-01-03 03:58:23.81	103.23	2.51	-45.2	-63.4	3.8	8.47e-01	0	57	104	454033408	61	30107
2026-01-03 03:58:24.82	103.16	2.44	-45.2	-63.4	3.8	8.46e-01	0	57	104	454033408	61	30087
2026-01-03 03:58:25.83	103.09	2.37	-45.2	-63.4	3.8	8.46e-01	0	57	104	454033408	61	30059
2026-01-03 03:58:26.85	103.03	2.31	-45.2	-63.4	3.8	8.46e-01	0	57	104	454033408	61	30136
2026-01-03 03:58:27.85	102.97	2.24	-45.2	-63.4	3.8	8.46e-01	0	57	104	454033408	61	30155
2026-01-03 03:58:28.87	102.90	2.17	-45.2	-63.4	3.8	8.47e-01	0	57	104	454033408	61	30172
2026-01-03 03:58:29.88	102.84	2.11	-45.2	-63.4	3.8	8.47e-01	0	57	104	454033408	61	30181
2026-01-03 03:58:30.89	102.77	2.04	-45.2	-63.4	3.8	8.47e-01	0	57	104	454033408	61	30133
2026-01-03 03:58:31.90	102.71	1.98	-45.2	-63.3	3.8	8.46e-01	0	57	104	454033408	61	30026

#Closed at: 2026-01-03 03:58:32
#Recorded file [454 MB]: D:/lorett/data/31039_260103_064919.dat