passes_logs/2026/01/03/R2.0S_Moscow/R2.0S_Moscow__20260103_160020_FENGYUN_3E_rec.log

#Pass ID: 20260103_160020_FENGYUN 3E
#Satellite: FENGYUN 3E
#Configuration: FENGYUN 3E
#almurnet v.1.7.20251203
#Start time: 2026-01-03 16:00:20

#Version: 2.2.20231116
#Station: R2.0S_Moscow
#Location: 37.707566 lon 55.798166 lat
#TLE: 1 49008U 21062A   26002.95568549 -.00000227  00000+0 -86494-4 0  9990
#TLE: 2 49008  98.7475   8.2258 0001442 163.3458 196.7766 14.19882681233131

#Time	Az	El	Level	Level2	SNR	BER	BlckErr	Temp	State	Recorded	gain1	gain2
2026-01-03 16:00:20.31	216.23	2.02	-44.5	-55.3	3.8	8.46e-01	0	47	0	0	59	12528
2026-01-03 16:00:21.31	216.31	2.07	-44.4	-55.3	3.8	8.46e-01	0	47	104	0	59	12579
2026-01-03 16:00:22.32	216.39	2.12	-44.4	-55.3	3.8	8.45e-01	0	47	104	0	59	12548
2026-01-03 16:00:23.33	216.48	2.17	-44.4	-55.2	3.8	8.45e-01	0	47	104	0	59	12493
2026-01-03 16:00:24.34	216.56	2.22	-44.4	-55.3	3.8	8.46e-01	0	47	104	0	59	12539
2026-01-03 16:00:25.35	216.65	2.28	-44.4	-55.3	3.8	8.46e-01	0	47	104	0	59	12527
2026-01-03 16:00:26.36	216.73	2.33	-44.4	-55.2	3.8	8.46e-01	0	48	104	0	59	12480
2026-01-03 16:00:27.37	216.82	2.38	-44.4	-55.3	3.8	8.47e-01	0	48	104	0	59	12536
2026-01-03 16:00:28.38	216.90	2.43	-44.4	-55.3	3.8	8.46e-01	0	48	104	0	59	12540
2026-01-03 16:00:29.39	216.99	2.49	-44.4	-55.3	3.8	8.45e-01	0	48	104	0	59	12541
2026-01-03 16:00:30.41	217.08	2.54	-44.4	-55.3	3.8	8.46e-01	0	48	104	0	59	12539
2026-01-03 16:00:31.42	217.16	2.59	-44.4	-55.2	3.8	8.46e-01	0	48	104	0	59	12514
2026-01-03 16:00:32.43	217.25	2.64	-44.4	-55.3	3.8	8.46e-01	0	48	104	0	59	12542
2026-01-03 16:00:33.44	217.34	2.70	-44.5	-55.3	3.8	8.47e-01	0	48	104	0	59	12536
2026-01-03 16:00:34.45	217.43	2.75	-44.4	-55.2	3.8	8.46e-01	0	48	104	0	59	12506
2026-01-03 16:00:35.46	217.52	2.80	-44.4	-55.3	3.8	8.46e-01	0	48	104	0	59	12541
2026-01-03 16:00:36.47	217.60	2.85	-44.4	-55.3	3.8	8.47e-01	0	48	104	0	59	12564
2026-01-03 16:00:37.48	217.69	2.91	-44.4	-55.3	3.8	8.46e-01	0	49	104	0	59	12558
2026-01-03 16:00:38.49	217.78	2.96	-44.4	-55.3	3.8	8.47e-01	0	49	104	0	59	12528
2026-01-03 16:00:39.50	217.87	3.01	-44.4	-55.2	3.8	8.46e-01	0	49	104	0	59	12518
2026-01-03 16:00:40.51	217.96	3.06	-44.4	-55.3	3.8	8.46e-01	0	49	104	0	59	12538
2026-01-03 16:00:41.52	218.05	3.12	-44.4	-55.3	3.8	8.47e-01	0	49	104	0	59	12543
2026-01-03 16:00:42.53	218.14	3.17	-44.4	-55.3	3.8	8.46e-01	0	49	104	0	59	12558
2026-01-03 16:00:43.55	218.23	3.22	-44.4	-55.3	3.8	8.47e-01	0	49	104	0	59	12523
2026-01-03 16:00:44.56	218.32	3.28	-44.4	-55.2	3.8	8.46e-01	0	49	104	0	59	12519
2026-01-03 16:00:45.57	218.41	3.33	-44.4	-55.3	3.8	8.46e-01	0	49	104	0	59	12520
2026-01-03 16:00:46.58	218.50	3.38	-44.4	-55.3	3.8	8.46e-01	0	49	104	0	59	12545
2026-01-03 16:00:47.59	218.60	3.44	-44.4	-55.3	3.8	8.46e-01	0	49	104	0	59	12569
2026-01-03 16:00:48.60	218.69	3.49	-44.4	-55.3	3.8	8.47e-01	0	49	104	0	59	12527
2026-01-03 16:00:49.61	218.78	3.54	-44.4	-55.3	3.8	8.46e-01	0	49	104	0	59	12533
2026-01-03 16:00:50.62	218.87	3.59	-44.4	-55.3	3.8	8.46e-01	0	50	104	0	59	12530
2026-01-03 16:00:51.63	218.97	3.65	-44.5	-55.2	3.8	8.45e-01	0	50	104	0	59	12501
2026-01-03 16:00:52.65	219.06	3.70	-44.5	-55.2	3.8	8.47e-01	0	50	104	0	59	12513
2026-01-03 16:00:53.66	219.15	3.76	-44.5	-55.3	3.8	8.46e-01	0	50	104	0	59	12541
2026-01-03 16:00:54.67	219.25	3.81	-44.5	-55.3	3.8	8.45e-01	0	50	104	0	59	12572
2026-01-03 16:00:55.68	219.34	3.86	-44.5	-55.2	3.8	8.45e-01	0	50	104	0	59	12516
2026-01-03 16:00:56.69	219.44	3.92	-44.4	-55.3	3.8	8.46e-01	0	50	104	0	59	12559
2026-01-03 16:00:57.70	219.53	3.97	-44.4	-55.3	3.8	8.46e-01	0	50	104	0	59	12543
2026-01-03 16:00:58.71	219.63	4.02	-44.5	-55.3	3.8	8.46e-01	0	50	104	0	59	12529
2026-01-03 16:00:59.72	219.72	4.08	-44.4	-55.3	3.8	8.45e-01	0	50	104	0	59	12586
2026-01-03 16:01:00.73	219.82	4.13	-44.4	-55.3	3.8	8.45e-01	0	50	104	0	59	12529
2026-01-03 16:01:01.74	219.92	4.18	-44.4	-55.2	3.8	8.47e-01	0	50	104	0	59	12506
2026-01-03 16:01:02.76	220.01	4.24	-44.4	-55.3	3.8	8.46e-01	0	50	104	0	59	12567
2026-01-03 16:01:03.77	220.11	4.29	-44.4	-55.3	3.8	8.45e-01	0	50	104	0	59	12542
2026-01-03 16:01:04.78	220.21	4.35	-44.5	-55.3	3.8	8.47e-01	0	51	104	0	59	12532
2026-01-03 16:01:05.79	220.31	4.40	-44.4	-55.2	3.8	8.47e-01	0	50	104	0	59	12518
2026-01-03 16:01:06.80	220.40	4.45	-44.5	-55.3	3.8	8.46e-01	0	50	104	0	59	12586
2026-01-03 16:01:07.81	220.50	4.51	-44.4	-55.3	3.8	8.46e-01	0	51	104	0	59	12576
2026-01-03 16:01:08.82	220.60	4.56	-44.5	-55.3	3.8	8.46e-01	0	51	104	0	59	12572
2026-01-03 16:01:09.83	220.70	4.61	-44.5	-55.3	3.8	8.45e-01	0	51	104	0	59	12521
2026-01-03 16:01:10.84	220.80	4.67	-44.4	-55.2	3.8	8.45e-01	0	50	104	0	59	12493
2026-01-03 16:01:11.85	220.90	4.72	-44.4	-55.3	3.8	8.45e-01	0	51	104	0	59	12577
2026-01-03 16:01:12.87	221.00	4.78	-44.4	-55.2	3.8	8.46e-01	0	51	104	0	59	12504
2026-01-03 16:01:13.88	221.10	4.83	-44.4	-55.3	3.8	8.45e-01	0	51	104	0	59	12548
2026-01-03 16:01:14.89	221.20	4.89	-44.4	-55.3	3.8	8.46e-01	0	51	104	0	59	12530
2026-01-03 16:01:15.90	221.30	4.94	-44.5	-55.3	3.8	8.46e-01	0	51	104	0	59	12525
2026-01-03 16:01:16.91	221.41	4.99	-44.4	-55.2	3.8	8.46e-01	0	51	104	0	59	12470
2026-01-03 16:01:17.92	221.51	5.05	-44.5	-55.3	3.8	8.46e-01	0	51	104	0	59	12581
2026-01-03 16:01:18.93	221.61	5.10	-44.5	-55.3	3.8	8.44e-01	0	51	104	0	59	12551
2026-01-03 16:01:19.94	221.71	5.16	-44.4	-55.3	3.8	8.46e-01	0	51	104	0	59	12556
2026-01-03 16:01:20.95	221.82	5.21	-44.4	-55.3	3.8	8.47e-01	0	51	104	0	59	12521
2026-01-03 16:01:21.97	221.92	5.27	-44.4	-55.2	3.8	8.46e-01	0	51	104	0	59	12518
2026-01-03 16:01:22.98	222.02	5.32	-44.4	-55.2	3.8	8.47e-01	0	51	104	0	59	12381
2026-01-03 16:01:23.99	222.13	5.38	-44.4	-55.1	3.8	8.46e-01	0	51	104	0	59	12252
2026-01-03 16:01:25.00	222.23	5.43	-44.4	-55.0	3.8	8.46e-01	0	51	104	0	59	12192
2026-01-03 16:01:26.01	222.34	5.49	-44.4	-54.9	3.8	8.46e-01	0	52	104	0	59	12006
2026-01-03 16:01:27.02	222.44	5.54	-44.4	-54.8	3.8	8.46e-01	0	51	104	0	59	11955
2026-01-03 16:01:28.03	222.55	5.59	-44.4	-54.8	3.8	8.47e-01	0	52	104	0	59	11923
2026-01-03 16:01:29.04	222.66	5.65	-44.4	-54.9	3.8	8.45e-01	0	52	104	0	59	11976
2026-01-03 16:01:30.05	222.76	5.70	-44.4	-55.0	3.8	8.46e-01	0	52	104	0	59	12111
2026-01-03 16:01:31.06	222.87	5.76	-44.4	-55.0	3.8	8.46e-01	0	52	104	0	59	12221
2026-01-03 16:01:32.07	222.98	5.81	-44.4	-55.1	3.8	8.46e-01	0	52	104	0	59	12313
2026-01-03 16:01:33.09	223.08	5.87	-44.4	-55.1	3.8	8.46e-01	0	52	104	0	59	12292
2026-01-03 16:01:34.10	223.19	5.92	-44.4	-55.2	3.8	8.46e-01	0	52	104	0	59	12396
2026-01-03 16:01:35.11	223.30	5.98	-44.5	-55.2	3.8	8.46e-01	0	52	104	0	59	12471
2026-01-03 16:01:36.12	223.41	6.03	-44.5	-55.3	3.8	8.46e-01	0	52	104	0	59	12524
2026-01-03 16:01:37.13	223.52	6.09	-44.5	-55.2	3.8	8.45e-01	0	52	104	0	59	12504
2026-01-03 16:01:38.14	223.63	6.14	-44.5	-55.2	3.8	8.46e-01	0	52	104	0	59	12387
2026-01-03 16:01:39.15	223.74	6.20	-44.4	-55.0	3.8	8.45e-01	0	52	104	0	59	12109
2026-01-03 16:01:40.16	223.85	6.25	-44.4	-54.7	3.8	8.46e-01	0	52	104	0	59	11735
2026-01-03 16:01:41.18	223.96	6.31	-44.4	-54.3	3.8	8.45e-01	0	52	104	0	59	11218
2026-01-03 16:01:42.19	224.07	6.36	-44.3	-53.9	3.8	8.47e-01	0	52	104	0	59	10693
2026-01-03 16:01:43.20	224.18	6.42	-44.2	-53.5	3.8	8.45e-01	0	52	104	0	59	10276
2026-01-03 16:01:44.21	224.30	6.47	-44.1	-52.9	4.0	8.45e-01	0	52	104	0	59	9499
2026-01-03 16:01:45.22	224.41	6.53	-44.1	-52.6	4.0	8.43e-01	0	53	0	0	59	9220
2026-01-03 16:01:46.23	224.52	6.58	-44.1	-52.7	3.8	8.43e-01	0	52	104	0	59	9312
2026-01-03 16:01:47.24	224.64	6.64	-44.1	-52.9	3.9	8.45e-01	0	53	104	0	59	9575
2026-01-03 16:01:48.25	224.75	6.70	-44.1	-52.9	3.8	8.45e-01	0	52	104	0	59	9526
2026-01-03 16:01:49.26	224.86	6.75	-44.2	-53.0	3.8	8.44e-01	0	52	104	0	59	9704
2026-01-03 16:01:50.27	224.98	6.81	-44.2	-53.5	3.8	8.45e-01	0	53	104	0	59	10186
2026-01-03 16:01:51.29	225.09	6.86	-44.2	-53.5	3.8	8.46e-01	0	53	104	0	59	10260
2026-01-03 16:01:52.30	225.21	6.92	-44.2	-53.5	3.8	8.45e-01	0	53	104	0	59	10269
2026-01-03 16:01:53.31	225.33	6.97	-44.2	-53.5	3.8	8.46e-01	0	53	104	0	59	10273
2026-01-03 16:01:54.32	225.44	7.03	-44.2	-53.4	3.8	8.45e-01	0	53	104	0	59	10101
2026-01-03 16:01:55.33	225.56	7.08	-44.2	-53.2	3.9	8.44e-01	0	53	104	0	59	9901
2026-01-03 16:01:56.34	225.68	7.14	-44.2	-53.2	3.8	8.45e-01	0	53	104	0	59	9842
2026-01-03 16:01:57.35	225.79	7.19	-44.2	-53.1	3.8	8.45e-01	0	53	104	0	59	9781
2026-01-03 16:01:58.36	225.91	7.25	-44.1	-52.3	4.0	8.42e-01	0	53	104	0	59	8940
2026-01-03 16:01:59.37	226.03	7.30	-43.9	-51.7	4.2	8.37e-01	0	53	0	0	58	8811
2026-01-03 16:02:00.38	226.15	7.36	-43.7	-50.3	4.7	8.23e-01	0	53	0	0	58	7535
2026-01-03 16:02:01.39	226.27	7.42	-43.2	-48.8	5.5	7.26e-01	0	53	0	0	57	6709
2026-01-03 16:02:02.41	226.39	7.47	-42.7	-47.3	6.7	2.59e-01	0	53	0	5242880	56	5986
2026-01-03 16:02:03.42	226.51	7.53	-41.8	-45.6	8.2	7.29e-02	0	53	0	12582912	54	5500
2026-01-03 16:02:04.43	226.63	7.58	-41.1	-44.2	9.7	1.90e-02	0	53	0	19922944	53	4969
2026-01-03 16:02:05.44	226.75	7.64	-40.5	-43.1	10.9	3.68e-03	0	53	0	27262976	51	4905
2026-01-03 16:02:06.45	226.87	7.69	-39.8	-42.1	12.0	4.85e-04	0	53	0	34603008	50	4621
2026-01-03 16:02:07.46	226.99	7.75	-39.1	-41.2	12.9	7.32e-05	0	53	0	41943040	49	4406
2026-01-03 16:02:08.47	227.12	7.81	-38.7	-40.6	13.5	1.02e-05	0	53	0	49283072	48	4382
2026-01-03 16:02:09.48	227.24	7.86	-38.2	-40.1	13.9	3.40e-06	0	53	0	56623104	47	4342
2026-01-03 16:02:10.50	227.36	7.92	-37.9	-39.7	14.3	3.40e-06	0	53	0	63963136	46	4393
2026-01-03 16:02:11.51	227.49	7.97	-37.8	-39.5	14.5	0.00e+00	0	53	0	71303168	46	4322
2026-01-03 16:02:12.52	227.61	8.03	-37.8	-39.5	14.5	1.10e-06	0	53	0	78643200	46	4331
2026-01-03 16:02:13.53	227.74	8.08	-43.8	-50.3	5.3	1.10e-06	0	53	0	85983232	56	8431
2026-01-03 16:02:14.54	227.86	8.14	-40.7	-44.1	5.2	8.43e-01	0	53	104	85983232	53	4920
2026-01-03 16:02:15.55	227.99	8.20	-37.9	-39.6	14.1	8.02e-01	0	54	104	85983232	46	4356
2026-01-03 16:02:16.56	228.11	8.25	-38.9	-40.8	13.5	1.71e-05	0	53	0	91226112	48	4444
2026-01-03 16:02:17.57	228.24	8.31	-37.5	-39.1	15.0	0.00e+00	0	53	0	99614720	45	4380
2026-01-03 16:02:18.58	228.37	8.36	-38.2	-39.9	14.1	4.57e-05	0	54	0	105906176	47	4286
2026-01-03 16:02:19.59	228.50	8.42	-37.3	-38.9	15.2	0.00e+00	0	54	0	113246208	45	4248
2026-01-03 16:02:20.60	228.62	8.47	-37.4	-39.0	15.1	0.00e+00	0	54	0	120586240	45	4295
2026-01-03 16:02:21.61	228.75	8.53	-37.4	-39.0	15.1	0.00e+00	0	54	0	127926272	45	4331
2026-01-03 16:02:22.62	228.88	8.58	-37.5	-39.1	15.0	0.00e+00	0	54	0	135266304	45	4362
2026-01-03 16:02:23.63	229.01	8.64	-37.6	-39.2	14.9	0.00e+00	0	54	0	142606336	45	4413
2026-01-03 16:02:24.64	229.14	8.70	-37.3	-38.8	15.3	0.00e+00	0	54	0	149946368	45	4234
2026-01-03 16:02:25.65	229.27	8.75	-37.3	-38.9	15.2	0.00e+00	0	54	0	157286400	45	4263
2026-01-03 16:02:26.67	229.40	8.81	-37.2	-38.8	15.3	0.00e+00	0	54	0	164626432	45	4218
2026-01-03 16:02:27.68	229.53	8.86	-37.2	-38.7	15.4	0.00e+00	0	54	0	171966464	45	4189
2026-01-03 16:02:28.69	229.67	8.92	-37.2	-38.8	15.4	0.00e+00	0	54	0	179306496	45	4199
2026-01-03 16:02:29.70	229.80	8.97	-37.3	-38.8	15.4	0.00e+00	0	54	0	186646528	45	4217
2026-01-03 16:02:30.71	229.93	9.03	-37.1	-38.6	15.6	0.00e+00	0	54	0	193986560	45	4111
2026-01-03 16:02:31.72	230.06	9.09	-37.0	-38.5	15.6	0.00e+00	0	54	0	201326592	45	4095
2026-01-03 16:02:32.73	230.20	9.14	-37.0	-38.5	15.7	0.00e+00	0	54	0	208666624	45	4063
2026-01-03 16:02:33.74	230.33	9.20	-37.0	-38.5	15.7	0.00e+00	0	54	0	216006656	44	4314
2026-01-03 16:02:34.75	230.47	9.25	-37.1	-38.6	15.6	0.00e+00	0	54	0	223346688	44	4386
2026-01-03 16:02:35.76	230.60	9.31	-37.1	-38.6	15.6	0.00e+00	0	54	0	229638144	44	4373
2026-01-03 16:02:36.77	230.74	9.36	-37.3	-38.8	15.4	0.00e+00	0	54	0	238026752	44	4470
2026-01-03 16:02:37.78	230.87	9.42	-37.4	-38.9	15.3	0.00e+00	0	54	0	245366784	44	4535
2026-01-03 16:02:38.79	231.01	9.48	-37.2	-38.8	15.4	0.00e+00	0	54	0	251658240	44	4453
2026-01-03 16:02:39.80	231.15	9.53	-37.3	-38.8	15.4	0.00e+00	0	54	0	258998272	44	4480
2026-01-03 16:02:40.81	231.29	9.59	-37.3	-38.9	15.3	1.10e-06	0	54	0	266338304	44	4528
2026-01-03 16:02:41.82	231.42	9.64	-37.4	-38.9	15.3	0.00e+00	0	54	0	273678336	44	4534
2026-01-03 16:02:42.83	231.56	9.70	-37.3	-38.9	15.3	0.00e+00	0	54	0	281018368	44	4508
2026-01-03 16:02:43.84	231.70	9.75	-37.4	-38.9	15.3	0.00e+00	0	54	0	288358400	44	4527
2026-01-03 16:02:44.85	231.84	9.81	-37.3	-38.8	15.4	0.00e+00	0	54	0	295698432	44	4467
2026-01-03 16:02:45.86	231.98	9.86	-37.1	-38.7	15.6	0.00e+00	0	54	0	303038464	44	4394
2026-01-03 16:02:46.87	232.12	9.92	-37.0	-38.5	15.7	0.00e+00	0	54	0	310378496	44	4331
2026-01-03 16:02:47.88	232.26	9.97	-37.0	-38.5	15.8	0.00e+00	0	54	0	317718528	44	4296
2026-01-03 16:02:48.89	232.41	10.03	-36.8	-38.3	16.0	0.00e+00	0	54	0	325058560	44	4196
2026-01-03 16:02:49.90	232.55	10.08	-36.8	-38.2	16.0	0.00e+00	0	54	0	332398592	44	4176
2026-01-03 16:02:50.91	232.69	10.14	-36.8	-38.3	16.0	0.00e+00	0	54	0	339738624	44	4199
2026-01-03 16:02:51.92	232.84	10.19	-37.0	-38.4	15.9	0.00e+00	0	54	0	347078656	44	4275
2026-01-03 16:02:52.92	232.98	10.25	-36.9	-38.4	15.9	0.00e+00	0	55	0	354418688	44	4251
2026-01-03 16:02:53.93	233.12	10.30	-36.9	-38.3	15.9	0.00e+00	0	54	0	361758720	44	4226
2026-01-03 16:02:54.95	233.27	10.36	-36.9	-38.4	15.9	0.00e+00	0	54	0	369098752	44	4267
2026-01-03 16:02:55.96	233.41	10.42	-36.8	-38.2	16.1	0.00e+00	0	54	0	376438784	44	4193
2026-01-03 16:02:56.97	233.56	10.47	-36.8	-38.2	16.1	0.00e+00	0	54	0	383778816	44	4172
2026-01-03 16:02:57.98	233.71	10.53	-36.7	-38.2	16.1	0.00e+00	0	55	0	391118848	44	4151
2026-01-03 16:02:58.99	233.85	10.58	-36.7	-38.1	16.2	0.00e+00	0	54	0	398458880	44	4127
2026-01-03 16:03:00.00	234.00	10.63	-36.7	-38.1	16.2	0.00e+00	0	55	0	404750336	44	4110
2026-01-03 16:03:01.01	234.15	10.69	-36.6	-38.0	16.3	0.00e+00	0	55	0	412090368	44	4062
2026-01-03 16:03:02.02	234.30	10.74	-36.7	-38.1	16.2	0.00e+00	0	54	0	420478976	44	4104
2026-01-03 16:03:03.03	234.45	10.80	-36.6	-37.9	16.4	0.00e+00	0	55	0	426770432	44	4051
2026-01-03 16:03:04.04	234.60	10.85	-36.6	-37.9	16.4	0.00e+00	0	55	0	434110464	44	4036
2026-01-03 16:03:05.05	234.75	10.91	-36.6	-37.9	16.4	0.00e+00	0	54	0	441450496	44	4036
2026-01-03 16:03:06.06	234.90	10.96	-36.5	-37.8	16.4	0.00e+00	0	55	0	448790528	44	4004
2026-01-03 16:03:07.07	235.05	11.02	-36.4	-37.7	16.4	0.00e+00	0	55	0	456130560	43	4172
2026-01-03 16:03:08.08	235.20	11.07	-36.3	-37.7	16.5	0.00e+00	0	55	0	463470592	43	4153
2026-01-03 16:03:09.09	235.36	11.13	-36.4	-37.7	16.4	0.00e+00	0	55	0	470810624	43	4192
2026-01-03 16:03:10.10	235.51	11.18	-36.4	-37.8	16.4	0.00e+00	0	55	0	478150656	43	4199
2026-01-03 16:03:11.11	235.66	11.23	-36.4	-37.8	16.4	0.00e+00	0	55	0	485490688	43	4194
2026-01-03 16:03:12.12	235.82	11.29	-36.3	-37.7	16.5	0.00e+00	0	55	0	492830720	43	4162
2026-01-03 16:03:13.13	235.97	11.34	-36.3	-37.7	16.5	0.00e+00	0	55	0	500170752	43	4171
2026-01-03 16:03:14.14	236.13	11.40	-36.3	-37.7	16.5	0.00e+00	0	55	0	507510784	43	4171
2026-01-03 16:03:15.15	236.28	11.45	-36.4	-37.8	16.4	0.00e+00	0	55	0	514850816	43	4223
2026-01-03 16:03:16.16	236.44	11.51	-36.5	-37.8	16.4	0.00e+00	0	55	0	522190848	43	4238
2026-01-03 16:03:17.17	236.60	11.56	-36.4	-37.8	16.4	0.00e+00	0	55	0	529530880	43	4222
2026-01-03 16:03:18.18	236.75	11.61	-36.6	-37.9	16.3	0.00e+00	0	55	0	536870912	43	4290
2026-01-03 16:03:19.19	236.91	11.67	-36.5	-37.9	16.3	0.00e+00	0	55	0	544210944	43	4271
2026-01-03 16:03:20.20	237.07	11.72	-36.6	-38.0	16.2	0.00e+00	0	55	0	550502400	43	4323
2026-01-03 16:03:21.22	237.23	11.77	-36.4	-37.8	16.4	0.00e+00	0	55	0	558891008	43	4219
2026-01-03 16:03:22.22	237.39	11.83	-36.2	-37.6	16.7	0.00e+00	0	55	0	566231040	43	4106
2026-01-03 16:03:23.23	237.55	11.88	-36.3	-37.6	16.6	0.00e+00	0	55	0	572522496	43	4131
2026-01-03 16:03:24.24	237.71	11.93	-36.3	-37.6	16.6	0.00e+00	0	55	0	579862528	43	4120
2026-01-03 16:03:25.25	237.87	11.99	-36.2	-37.6	16.7	0.00e+00	0	55	0	587202560	43	4107
2026-01-03 16:03:26.26	238.03	12.04	-36.3	-37.6	16.6	0.00e+00	0	55	0	594542592	43	4132
2026-01-03 16:03:27.27	238.20	12.09	-36.2	-37.5	16.8	0.00e+00	0	55	0	601882624	43	4066
2026-01-03 16:03:28.28	238.36	12.15	-36.0	-37.3	16.9	0.00e+00	0	55	0	609222656	43	3990
2026-01-03 16:03:29.29	238.52	12.20	-36.0	-37.3	16.9	0.00e+00	0	55	0	616562688	43	3987
2026-01-03 16:03:30.30	238.69	12.25	-36.1	-37.4	16.9	0.00e+00	0	55	0	623902720	43	4016
2026-01-03 16:03:31.31	238.85	12.30	-36.1	-37.4	16.9	0.00e+00	0	55	0	631242752	43	4027
2026-01-03 16:03:32.32	239.02	12.36	-36.0	-37.3	16.9	0.00e+00	0	55	0	638582784	43	4002
2026-01-03 16:03:33.33	239.18	12.41	-36.1	-37.4	16.9	0.00e+00	0	55	0	645922816	43	4026
2026-01-03 16:03:34.34	239.35	12.46	-36.1	-37.4	16.9	0.00e+00	0	55	0	653262848	43	4021
2026-01-03 16:03:35.35	239.52	12.51	-36.1	-37.5	16.8	0.00e+00	0	55	0	660602880	43	4052
2026-01-03 16:03:36.36	239.69	12.57	-36.0	-37.3	16.9	0.00e+00	0	55	0	667942912	43	4003
2026-01-03 16:03:37.37	239.85	12.62	-36.0	-37.3	17.0	0.00e+00	0	55	0	675282944	43	3990
2026-01-03 16:03:38.38	240.02	12.67	-36.0	-37.3	17.0	0.00e+00	0	55	0	682622976	42	4199
2026-01-03 16:03:39.39	240.19	12.72	-36.0	-37.3	17.0	0.00e+00	0	55	0	689963008	42	4239
2026-01-03 16:03:40.40	240.36	12.77	-36.1	-37.4	16.9	0.00e+00	0	55	0	697303040	42	4246
2026-01-03 16:03:41.41	240.53	12.83	-36.1	-37.4	16.9	0.00e+00	0	55	0	703594496	42	4249
2026-01-03 16:03:42.42	240.70	12.88	-36.0	-37.3	17.0	0.00e+00	0	56	0	711983104	42	4206
2026-01-03 16:03:43.43	240.88	12.93	-36.1	-37.4	16.9	0.00e+00	0	55	0	719323136	42	4256
2026-01-03 16:03:44.44	241.05	12.98	-36.0	-37.3	17.0	0.00e+00	0	55	0	725614592	42	4233
2026-01-03 16:03:45.45	241.22	13.03	-36.0	-37.3	17.1	0.00e+00	0	55	0	732954624	42	4198
2026-01-03 16:03:46.46	241.40	13.08	-36.0	-37.3	17.0	0.00e+00	0	55	0	740294656	42	4235
2026-01-03 16:03:47.46	241.57	13.13	-36.0	-37.4	17.0	0.00e+00	0	55	0	747634688	42	4247
2026-01-03 16:03:48.47	241.74	13.18	-36.1	-37.4	17.0	0.00e+00	0	56	0	754974720	42	4251
2026-01-03 16:03:49.48	241.92	13.23	-36.0	-37.4	17.0	0.00e+00	0	56	0	762314752	42	4247
2026-01-03 16:03:50.49	242.09	13.28	-36.1	-37.4	16.9	0.00e+00	0	55	0	769654784	42	4286
2026-01-03 16:03:51.50	242.27	13.33	-36.1	-37.4	16.9	0.00e+00	0	56	0	776994816	42	4286
2026-01-03 16:03:52.51	242.45	13.38	-36.1	-37.4	17.0	0.00e+00	0	56	0	784334848	42	4250
2026-01-03 16:03:53.52	242.62	13.43	-36.1	-37.4	17.0	0.00e+00	0	56	0	791674880	42	4249
2026-01-03 16:03:54.53	242.80	13.48	-35.9	-37.2	17.1	0.00e+00	0	55	0	799014912	42	4168
2026-01-03 16:03:55.54	242.98	13.53	-35.7	-37.0	17.3	0.00e+00	0	55	0	806354944	42	4075
2026-01-03 16:03:56.55	243.16	13.58	-35.8	-37.0	17.3	0.00e+00	0	55	0	813694976	42	4097
2026-01-03 16:03:57.56	243.34	13.63	-35.8	-37.0	17.3	0.00e+00	0	55	0	821035008	42	4095
2026-01-03 16:03:58.57	243.52	13.68	-35.8	-37.1	17.3	0.00e+00	0	56	0	828375040	42	4111
2026-01-03 16:03:59.58	243.70	13.73	-35.8	-37.1	17.2	0.00e+00	0	55	0	835715072	42	4115
2026-01-03 16:04:00.59	243.88	13.78	-35.9	-37.2	17.2	0.00e+00	0	55	0	843055104	42	4150
2026-01-03 16:04:01.60	244.07	13.83	-35.8	-37.1	17.2	0.00e+00	0	56	0	849346560	42	4140
2026-01-03 16:04:02.61	244.25	13.87	-35.8	-37.0	17.3	0.00e+00	0	55	0	856686592	42	4085
2026-01-03 16:04:03.62	244.43	13.92	-35.7	-37.0	17.4	0.00e+00	0	56	0	865075200	42	4055
2026-01-03 16:04:04.63	244.62	13.97	-35.7	-37.0	17.4	0.00e+00	0	55	0	871366656	42	4056
2026-01-03 16:04:05.63	244.80	14.02	-35.8	-37.0	17.3	0.00e+00	0	56	0	878706688	42	4088
2026-01-03 16:04:06.65	244.99	14.07	-35.7	-36.9	17.4	0.00e+00	0	56	0	886046720	42	4043
2026-01-03 16:04:07.66	245.17	14.11	-35.6	-36.8	17.5	0.00e+00	0	56	0	893386752	42	4004
2026-01-03 16:04:08.67	245.36	14.16	-35.6	-36.9	17.5	0.00e+00	0	56	0	900726784	42	4022
2026-01-03 16:04:09.68	245.55	14.21	-35.7	-36.9	17.4	0.00e+00	0	56	0	908066816	42	4044
2026-01-03 16:04:10.69	245.73	14.26	-35.6	-36.9	17.4	0.00e+00	0	56	0	915406848	42	4013
2026-01-03 16:04:11.70	245.92	14.30	-35.7	-36.9	17.4	0.00e+00	0	56	0	922746880	42	4049
2026-01-03 16:04:12.70	246.11	14.35	-35.7	-36.9	17.4	0.00e+00	0	56	0	930086912	42	4041
2026-01-03 16:04:13.71	246.30	14.40	-35.6	-36.9	17.5	0.00e+00	0	56	0	937426944	42	4007
2026-01-03 16:04:14.73	246.49	14.44	-35.6	-36.8	17.6	0.00e+00	0	56	0	944766976	42	3994
2026-01-03 16:04:15.74	246.68	14.49	-35.6	-36.8	17.6	0.00e+00	0	56	0	952107008	42	3983
2026-01-03 16:04:16.74	246.87	14.53	-35.6	-36.8	17.5	0.00e+00	0	56	0	959447040	42	3993
2026-01-03 16:04:17.76	247.06	14.58	-35.6	-36.8	17.5	0.00e+00	0	56	0	966787072	42	4001
2026-01-03 16:04:18.77	247.25	14.63	-35.6	-36.8	17.5	0.00e+00	0	56	0	974127104	42	4004
2026-01-03 16:04:19.78	247.45	14.67	-35.7	-36.9	17.5	0.00e+00	0	56	0	981467136	42	4028
2026-01-03 16:04:20.79	247.64	14.72	-35.6	-36.9	17.5	0.00e+00	0	56	0	988807168	42	4017
2026-01-03 16:04:21.80	247.83	14.76	-35.6	-36.9	17.5	0.00e+00	0	56	0	996147200	42	4006
2026-01-03 16:04:22.81	248.03	14.80	-35.6	-36.9	17.5	0.00e+00	0	56	0	1002438656	42	4024
2026-01-03 16:04:23.82	248.22	14.85	-35.5	-36.8	17.6	0.00e+00	0	56	0	1010827264	42	3970
2026-01-03 16:04:24.83	248.42	14.89	-35.5	-36.8	17.6	0.00e+00	0	56	0	1018167296	41	4197
2026-01-03 16:04:25.84	248.61	14.94	-35.4	-36.7	17.7	0.00e+00	0	56	0	1024458752	41	4146
2026-01-03 16:04:26.85	248.81	14.98	-35.3	-36.5	17.8	0.00e+00	0	56	0	1031798784	41	4072
2026-01-03 16:04:27.86	249.01	15.02	-35.3	-36.5	17.9	0.00e+00	0	56	0	1040187392	41	4053
2026-01-03 16:04:28.87	249.21	15.07	-35.3	-36.5	17.9	0.00e+00	0	56	0	1046478848	41	4075
2026-01-03 16:04:29.89	249.41	15.11	-35.3	-36.4	17.9	0.00e+00	0	56	0	1053818880	41	4051
2026-01-03 16:04:30.90	249.60	15.15	-35.3	-36.5	17.9	0.00e+00	0	56	0	1061158912	41	4060
2026-01-03 16:04:31.91	249.80	15.19	-35.4	-36.6	17.8	0.00e+00	0	56	0	1068498944	41	4113
2026-01-03 16:04:32.92	250.00	15.24	-35.4	-36.6	17.7	0.00e+00	0	56	0	1075838976	41	4144
2026-01-03 16:04:33.93	250.20	15.28	-35.3	-36.6	17.8	0.00e+00	0	56	0	1083179008	41	4101
2026-01-03 16:04:34.94	250.40	15.32	-35.4	-36.6	17.8	0.00e+00	0	56	0	1090519040	41	4122
2026-01-03 16:04:35.95	250.61	15.36	-35.3	-36.5	17.8	0.00e+00	0	56	0	1097859072	41	4066
2026-01-03 16:04:36.96	250.81	15.40	-35.2	-36.4	17.9	0.00e+00	0	56	0	1105199104	41	4040
2026-01-03 16:04:37.97	251.01	15.44	-35.3	-36.5	17.9	0.00e+00	0	56	0	1112539136	41	4068
2026-01-03 16:04:38.98	251.21	15.48	-35.4	-36.6	17.7	0.00e+00	0	56	0	1119879168	41	4116
2026-01-03 16:04:39.99	251.42	15.52	-35.4	-36.6	17.8	0.00e+00	0	56	0	1127219200	41	4110
2026-01-03 16:04:41.00	251.62	15.56	-35.4	-36.7	17.7	0.00e+00	0	56	0	1134559232	41	4150
2026-01-03 16:04:42.00	251.82	15.60	-35.5	-36.7	17.7	0.00e+00	0	56	0	1141899264	41	4173
2026-01-03 16:04:43.01	252.03	15.64	-35.5	-36.7	17.7	0.00e+00	0	56	0	1149239296	41	4180
2026-01-03 16:04:44.02	252.24	15.68	-35.5	-36.7	17.7	0.00e+00	0	56	0	1156579328	41	4167
2026-01-03 16:04:45.03	252.44	15.72	-35.5	-36.8	17.6	0.00e+00	0	56	0	1163919360	41	4211
2026-01-03 16:04:46.04	252.65	15.76	-35.4	-36.7	17.7	0.00e+00	0	56	0	1171259392	41	4160
2026-01-03 16:04:47.05	252.86	15.80	-35.4	-36.6	17.8	0.00e+00	0	56	0	1177550848	41	4118
2026-01-03 16:04:48.06	253.06	15.84	-35.4	-36.6	17.7	0.00e+00	0	56	0	1184890880	41	4130
2026-01-03 16:04:49.07	253.27	15.87	-35.4	-36.6	17.8	0.00e+00	0	56	0	1192230912	41	4112
2026-01-03 16:04:50.08	253.48	15.91	-35.4	-36.6	17.8	0.00e+00	0	56	0	1199570944	41	4107
2026-01-03 16:04:51.09	253.69	15.95	-35.3	-36.6	17.8	0.00e+00	0	56	0	1206910976	41	4101
2026-01-03 16:04:52.10	253.90	15.98	-35.3	-36.5	17.9	0.00e+00	0	56	0	1214251008	41	4083
2026-01-03 16:04:53.11	254.11	16.02	-35.3	-36.5	17.9	0.00e+00	0	56	0	1221591040	41	4088
2026-01-03 16:04:54.12	254.32	16.06	-35.4	-36.6	17.8	0.00e+00	0	56	0	1228931072	41	4109
2026-01-03 16:04:55.13	254.53	16.09	-35.4	-36.6	17.8	0.00e+00	0	56	0	1236271104	41	4108
2026-01-03 16:04:56.14	254.74	16.13	-35.4	-36.6	17.8	0.00e+00	0	56	0	1243611136	41	4119
2026-01-03 16:04:57.15	254.96	16.16	-35.3	-36.5	17.9	0.00e+00	0	56	0	1250951168	41	4063
2026-01-03 16:04:58.16	255.17	16.20	-35.1	-36.3	18.0	0.00e+00	0	56	0	1258291200	41	3985
2026-01-03 16:04:59.17	255.38	16.23	-35.1	-36.3	18.1	0.00e+00	0	56	0	1265631232	41	3970
2026-01-03 16:05:00.18	255.60	16.27	-35.1	-36.2	18.1	0.00e+00	0	56	0	1272971264	41	3951
2026-01-03 16:05:01.19	255.81	16.30	-35.1	-36.2	18.1	0.00e+00	0	56	0	1280311296	41	3950
2026-01-03 16:05:02.21	256.03	16.34	-35.1	-36.3	18.1	0.00e+00	0	56	0	1287651328	41	3966
2026-01-03 16:05:03.22	256.24	16.37	-35.1	-36.3	18.1	0.00e+00	0	56	0	1294991360	41	3964
2026-01-03 16:05:04.23	256.46	16.40	-35.1	-36.3	18.1	0.00e+00	0	56	0	1302331392	41	3989
2026-01-03 16:05:05.24	256.67	16.43	-35.1	-36.3	18.0	0.00e+00	0	56	0	1309671424	41	3997
2026-01-03 16:05:06.24	256.89	16.47	-35.1	-36.3	18.1	0.00e+00	0	56	0	1317011456	41	3990
2026-01-03 16:05:07.25	257.11	16.50	-35.1	-36.3	18.1	0.00e+00	0	56	0	1323302912	41	3968
2026-01-03 16:05:08.26	257.32	16.53	-35.1	-36.3	18.1	0.00e+00	0	56	0	1331691520	41	3986
2026-01-03 16:05:09.27	257.54	16.56	-35.0	-36.2	18.2	0.00e+00	0	56	0	1339031552	41	3949
2026-01-03 16:05:10.28	257.76	16.59	-35.0	-36.2	18.2	0.00e+00	0	56	0	1345323008	41	3923
2026-01-03 16:05:11.29	257.98	16.62	-35.0	-36.2	18.2	0.00e+00	0	56	0	1352663040	41	3934
2026-01-03 16:05:12.30	258.20	16.65	-35.0	-36.2	18.2	0.00e+00	0	56	0	1360003072	41	3939
2026-01-03 16:05:13.31	258.42	16.68	-35.1	-36.2	18.1	0.00e+00	0	56	0	1367343104	41	3945
2026-01-03 16:05:14.32	258.64	16.71	-35.1	-36.3	18.1	0.00e+00	0	56	0	1374683136	41	3982
2026-01-03 16:05:15.33	258.86	16.74	-35.1	-36.3	18.1	0.00e+00	0	56	0	1382023168	41	3990
2026-01-03 16:05:16.34	259.08	16.77	-35.1	-36.3	18.1	0.00e+00	0	56	0	1389363200	41	3975
2026-01-03 16:05:17.35	259.30	16.80	-35.1	-36.2	18.1	0.00e+00	0	56	0	1396703232	41	3954
2026-01-03 16:05:18.36	259.52	16.82	-35.0	-36.2	18.2	0.00e+00	0	56	0	1404043264	41	3928
2026-01-03 16:05:19.38	259.74	16.85	-35.0	-36.2	18.2	0.00e+00	0	56	0	1411383296	40	4155
2026-01-03 16:05:20.39	259.97	16.88	-35.1	-36.2	18.2	0.00e+00	0	56	0	1418723328	40	4177
2026-01-03 16:05:21.40	260.19	16.91	-35.0	-36.2	18.2	0.00e+00	0	56	0	1426063360	40	4171
2026-01-03 16:05:22.41	260.41	16.93	-34.9	-36.1	18.3	0.00e+00	0	56	0	1433403392	40	4119
2026-01-03 16:05:23.42	260.64	16.96	-35.0	-36.1	18.3	0.00e+00	0	56	0	1440743424	40	4132
2026-01-03 16:05:24.43	260.86	16.98	-35.0	-36.2	18.2	0.00e+00	0	56	0	1448083456	40	4155
2026-01-03 16:05:25.44	261.08	17.01	-34.9	-36.1	18.3	0.00e+00	0	56	0	1455423488	40	4106
2026-01-03 16:05:26.45	261.31	17.03	-35.0	-36.2	18.2	0.00e+00	0	56	0	1462763520	40	4170
2026-01-03 16:05:27.46	261.53	17.06	-35.1	-36.2	18.2	0.00e+00	0	56	0	1470103552	40	4184
2026-01-03 16:05:28.47	261.76	17.08	-35.1	-36.3	18.1	0.00e+00	0	56	0	1477443584	40	4216
2026-01-03 16:05:29.48	261.98	17.11	-35.0	-36.2	18.2	0.00e+00	0	56	0	1484783616	40	4177
2026-01-03 16:05:30.49	262.21	17.13	-35.1	-36.3	18.1	0.00e+00	0	56	0	1492123648	40	4227
2026-01-03 16:05:31.50	262.44	17.15	-35.1	-36.3	18.1	0.00e+00	0	56	0	1498415104	40	4215
2026-01-03 16:05:32.51	262.66	17.17	-35.1	-36.2	18.2	0.00e+00	0	56	0	1505755136	40	4179
2026-01-03 16:05:33.52	262.89	17.20	-35.0	-36.1	18.3	0.00e+00	0	56	0	1514143744	40	4136
2026-01-03 16:05:34.53	263.12	17.22	-35.0	-36.1	18.3	0.00e+00	0	56	0	1520435200	40	4131
2026-01-03 16:05:35.54	263.34	17.24	-35.0	-36.2	18.2	0.00e+00	0	56	0	1527775232	40	4168
2026-01-03 16:05:36.55	263.57	17.26	-35.1	-36.3	18.1	0.00e+00	0	56	0	1535115264	40	4209
2026-01-03 16:05:37.56	263.80	17.28	-35.2	-36.4	18.0	0.00e+00	0	56	0	1542455296	40	4288
2026-01-03 16:05:38.57	264.03	17.30	-35.3	-36.5	17.9	0.00e+00	0	56	0	1549795328	40	4335
2026-01-03 16:05:39.58	264.26	17.32	-35.4	-36.6	17.8	0.00e+00	0	56	0	1557135360	40	4377
2026-01-03 16:05:40.60	264.49	17.34	-35.4	-36.7	17.7	0.00e+00	0	56	0	1564475392	40	4393
2026-01-03 16:05:41.61	264.72	17.36	-35.4	-36.6	17.8	0.00e+00	0	57	0	1571815424	40	4362
2026-01-03 16:05:42.62	264.95	17.37	-35.2	-36.4	18.0	0.00e+00	0	57	0	1579155456	40	4284
2026-01-03 16:05:43.62	265.18	17.39	-35.1	-36.3	18.1	0.00e+00	0	56	0	1586495488	40	4230
2026-01-03 16:05:44.63	265.41	17.41	-35.0	-36.2	18.2	0.00e+00	0	56	0	1593835520	40	4155
2026-01-03 16:05:45.64	265.64	17.43	-34.9	-36.0	18.4	0.00e+00	0	57	0	1601175552	40	4073
2026-01-03 16:05:46.66	265.87	17.44	-34.8	-36.0	18.4	0.00e+00	0	56	0	1608515584	40	4057
2026-01-03 16:05:47.67	266.10	17.46	-34.8	-35.9	18.4	0.00e+00	0	56	0	1615855616	40	4050
2026-01-03 16:05:48.68	266.33	17.47	-34.8	-36.0	18.4	0.00e+00	0	56	0	1623195648	40	4071
2026-01-03 16:05:49.69	266.56	17.49	-34.9	-36.1	18.4	0.00e+00	0	57	0	1630535680	40	4100
2026-01-03 16:05:50.70	266.79	17.50	-34.9	-36.0	18.4	0.00e+00	0	56	0	1637875712	40	4087
2026-01-03 16:05:51.71	267.02	17.52	-35.0	-36.1	18.3	0.00e+00	0	56	0	1645215744	40	4139
2026-01-03 16:05:52.72	267.26	17.53	-35.0	-36.1	18.3	0.00e+00	0	57	0	1652555776	40	4145
2026-01-03 16:05:53.73	267.49	17.55	-35.0	-36.2	18.2	0.00e+00	0	56	0	1659895808	40	4162
2026-01-03 16:05:54.74	267.72	17.56	-35.0	-36.2	18.2	0.00e+00	0	57	0	1666187264	40	4147
2026-01-03 16:05:55.75	267.95	17.57	-35.1	-36.2	18.2	0.00e+00	0	56	0	1673527296	40	4184
2026-01-03 16:05:56.76	268.19	17.58	-35.1	-36.2	18.1	0.00e+00	0	56	0	1681915904	40	4187
2026-01-03 16:05:57.77	268.42	17.59	-35.1	-36.3	18.1	0.00e+00	0	57	0	1688207360	40	4220
2026-01-03 16:05:58.78	268.65	17.61	-35.0	-36.2	18.2	0.00e+00	0	57	0	1695547392	40	4179
2026-01-03 16:05:59.79	268.89	17.62	-35.0	-36.2	18.2	0.00e+00	0	56	0	1702887424	40	4176
2026-01-03 16:06:00.80	269.12	17.63	-35.0	-36.1	18.3	0.00e+00	0	56	0	1710227456	40	4133
2026-01-03 16:06:01.81	269.35	17.64	-35.0	-36.1	18.2	0.00e+00	0	56	0	1717567488	40	4137
2026-01-03 16:06:02.82	269.59	17.65	-35.0	-36.2	18.2	0.00e+00	0	56	0	1724907520	40	4152
2026-01-03 16:06:03.83	269.82	17.65	-35.0	-36.2	18.3	0.00e+00	0	57	0	1732247552	40	4147
2026-01-03 16:06:04.84	270.05	17.66	-34.9	-36.0	18.4	0.00e+00	0	56	0	1739587584	40	4087
2026-01-03 16:06:05.85	270.29	17.67	-34.9	-36.1	18.3	0.00e+00	0	56	0	1746927616	40	4101
2026-01-03 16:06:06.86	270.52	17.68	-34.9	-36.0	18.3	0.00e+00	0	56	0	1754267648	40	4085
2026-01-03 16:06:07.87	270.76	17.69	-34.9	-36.0	18.4	0.00e+00	0	56	0	1761607680	40	4073
2026-01-03 16:06:08.88	270.99	17.69	-34.9	-36.0	18.4	0.00e+00	0	57	0	1768947712	40	4071
2026-01-03 16:06:09.90	271.23	17.70	-34.8	-36.0	18.4	0.00e+00	0	56	0	1776287744	40	4069
2026-01-03 16:06:10.90	271.46	17.70	-34.9	-36.0	18.3	0.00e+00	0	57	0	1783627776	40	4095
2026-01-03 16:06:11.92	271.70	17.71	-34.8	-36.0	18.4	0.00e+00	0	57	0	1790967808	40	4068
2026-01-03 16:06:12.93	271.93	17.71	-34.9	-36.1	18.3	0.00e+00	0	56	0	1798307840	40	4112
2026-01-03 16:06:13.94	272.16	17.72	-35.0	-36.1	18.3	0.00e+00	0	57	0	1805647872	40	4128
2026-01-03 16:06:14.94	272.40	17.72	-35.0	-36.2	18.2	0.00e+00	0	56	0	1812987904	40	4151
2026-01-03 16:06:15.95	272.63	17.72	-35.0	-36.2	18.2	0.00e+00	0	57	0	1819279360	40	4185
2026-01-03 16:06:16.96	272.87	17.73	-35.0	-36.2	18.2	0.00e+00	0	57	0	1827667968	40	4159
2026-01-03 16:06:17.97	273.10	17.73	-35.0	-36.2	18.2	0.00e+00	0	56	0	1835008000	40	4164
2026-01-03 16:06:18.98	273.34	17.73	-35.0	-36.2	18.2	0.00e+00	0	57	0	1841299456	40	4163
2026-01-03 16:06:19.99	273.57	17.73	-35.0	-36.2	18.2	0.00e+00	0	57	0	1848639488	40	4168
2026-01-03 16:06:21.00	273.81	17.73	-35.0	-36.2	18.2	0.00e+00	0	57	0	1857028096	40	4158
2026-01-03 16:06:22.01	274.04	17.74	-35.0	-36.2	18.1	0.00e+00	0	56	0	1863319552	40	4177
2026-01-03 16:06:23.02	274.28	17.74	-35.0	-36.1	18.3	0.00e+00	0	56	0	1870659584	40	4133
2026-01-03 16:06:24.03	274.51	17.73	-34.9	-36.0	18.3	0.00e+00	0	56	0	1877999616	40	4084
2026-01-03 16:06:25.04	274.75	17.73	-34.8	-36.0	18.4	0.00e+00	0	56	0	1885339648	40	4053
2026-01-03 16:06:26.05	274.98	17.73	-34.8	-35.9	18.4	0.00e+00	0	57	0	1892679680	40	4042
2026-01-03 16:06:27.06	275.21	17.73	-34.8	-35.9	18.5	0.00e+00	0	56	0	1900019712	40	4017
2026-01-03 16:06:28.07	275.45	17.73	-34.7	-35.9	18.5	0.00e+00	0	57	0	1907359744	40	4007
2026-01-03 16:06:29.08	275.68	17.73	-34.7	-35.9	18.5	0.00e+00	0	57	0	1914699776	40	4009
2026-01-03 16:06:30.09	275.92	17.72	-34.7	-35.8	18.6	0.00e+00	0	57	0	1922039808	40	3980
2026-01-03 16:06:31.09	276.15	17.72	-34.7	-35.9	18.5	0.00e+00	0	56	0	1929379840	40	4005
2026-01-03 16:06:32.10	276.39	17.71	-34.7	-35.8	18.6	0.00e+00	0	56	0	1936719872	40	3972
2026-01-03 16:06:33.12	276.62	17.71	-34.7	-35.9	18.5	0.00e+00	0	57	0	1944059904	40	4017
2026-01-03 16:06:34.12	276.85	17.71	-34.8	-35.9	18.4	0.00e+00	0	56	0	1951399936	40	4046
2026-01-03 16:06:35.14	277.09	17.70	-34.9	-36.0	18.3	0.00e+00	0	57	0	1958739968	40	4078
2026-01-03 16:06:36.15	277.33	17.69	-34.9	-36.0	18.3	0.00e+00	0	57	0	1965031424	40	4097
2026-01-03 16:06:37.16	277.56	17.69	-35.0	-36.1	18.2	0.00e+00	0	56	0	1973420032	40	4141
2026-01-03 16:06:38.17	277.79	17.68	-35.1	-36.3	18.1	0.00e+00	0	57	0	1980760064	40	4198
2026-01-03 16:06:39.18	278.03	17.67	-35.1	-36.3	18.0	0.00e+00	0	56	0	1987051520	40	4234
2026-01-03 16:06:40.19	278.26	17.67	-35.2	-36.4	17.9	0.00e+00	0	57	0	1994391552	40	4263
2026-01-03 16:06:41.20	278.50	17.66	-35.2	-36.5	17.9	0.00e+00	0	57	0	2001731584	40	4294
2026-01-03 16:06:42.21	278.73	17.65	-35.1	-36.3	18.0	0.00e+00	0	57	0	2009071616	40	4224
2026-01-03 16:06:43.21	278.96	17.64	-35.1	-36.3	18.1	0.00e+00	0	57	0	2016411648	40	4197
2026-01-03 16:06:44.22	279.19	17.63	-35.0	-36.2	18.1	0.00e+00	0	57	0	2023751680	40	4182
2026-01-03 16:06:45.23	279.43	17.62	-35.0	-36.2	18.1	0.00e+00	0	57	0	2031091712	40	4174
2026-01-03 16:06:46.24	279.66	17.61	-35.0	-36.2	18.2	0.00e+00	0	57	0	2038431744	40	4150
2026-01-03 16:06:47.25	279.89	17.60	-35.0	-36.2	18.1	0.00e+00	0	56	0	2045771776	40	4173
2026-01-03 16:06:48.26	280.12	17.59	-35.1	-36.2	18.1	0.00e+00	0	57	0	2053111808	40	4191
2026-01-03 16:06:49.27	280.36	17.58	-35.0	-36.2	18.1	0.00e+00	0	57	0	2060451840	40	4177
2026-01-03 16:06:50.28	280.59	17.56	-35.0	-36.2	18.2	0.00e+00	0	57	0	2067791872	40	4151
2026-01-03 16:06:51.29	280.82	17.55	-35.0	-36.2	18.2	0.00e+00	0	57	0	2075131904	40	4146
2026-01-03 16:06:52.30	281.05	17.54	-35.0	-36.2	18.1	0.00e+00	0	57	0	2082471936	40	4174
2026-01-03 16:06:53.31	281.28	17.52	-34.9	-36.1	18.2	0.00e+00	0	57	0	2089811968	40	4110
2026-01-03 16:06:54.32	281.52	17.51	-35.1	-36.2	18.1	0.00e+00	0	57	0	2097152000	40	4187
2026-01-03 16:06:55.33	281.75	17.50	-35.1	-36.2	18.1	0.00e+00	0	57	0	2104492032	40	4181
2026-01-03 16:06:56.34	281.98	17.48	-35.1	-36.2	18.1	0.00e+00	0	57	0	2111832064	40	4192
2026-01-03 16:06:57.35	282.21	17.46	-35.1	-36.3	18.1	0.00e+00	0	57	0	2118123520	40	4197
2026-01-03 16:06:58.36	282.44	17.45	-35.0	-36.2	18.1	0.00e+00	0	57	0	2126512128	40	4180
2026-01-03 16:06:59.37	282.67	17.43	-35.0	-36.2	18.1	0.00e+00	0	57	0	2133852160	40	4165
2026-01-03 16:07:00.38	282.90	17.42	-35.0	-36.2	18.1	0.00e+00	0	57	0	2140143616	40	4162
2026-01-03 16:07:01.39	283.13	17.40	-35.0	-36.1	18.2	0.00e+00	0	57	0	2147483648	40	4140
2026-01-03 16:07:02.40	283.36	17.38	-34.9	-36.1	18.2	0.00e+00	0	57	0	2155872256	40	4118
2026-01-03 16:07:03.41	283.59	17.36	-35.0	-36.1	18.2	0.00e+00	0	57	0	2162163712	40	4142
2026-01-03 16:07:04.42	283.82	17.35	-35.0	-36.2	18.1	0.00e+00	0	57	0	2169503744	40	4171
2026-01-03 16:07:05.43	284.05	17.33	-35.0	-36.2	18.1	0.00e+00	0	57	0	2176843776	40	4170
2026-01-03 16:07:06.44	284.27	17.31	-35.1	-36.2	18.0	0.00e+00	0	57	0	2184183808	40	4184
2026-01-03 16:07:07.45	284.50	17.29	-35.1	-36.3	18.0	0.00e+00	0	57	0	2191523840	40	4201
2026-01-03 16:07:08.46	284.73	17.27	-35.1	-36.3	18.0	0.00e+00	0	57	0	2198863872	40	4216
2026-01-03 16:07:09.47	284.96	17.25	-35.2	-36.4	17.9	0.00e+00	0	57	0	2206203904	40	4245
2026-01-03 16:07:10.48	285.18	17.23	-35.2	-36.4	17.8	0.00e+00	0	57	0	2213543936	40	4284
2026-01-03 16:07:11.49	285.41	17.20	-35.3	-36.5	17.8	0.00e+00	0	57	0	2220883968	40	4305
2026-01-03 16:07:12.50	285.64	17.18	-35.3	-36.5	17.8	0.00e+00	0	57	0	2228224000	40	4321
2026-01-03 16:07:13.51	285.86	17.16	-35.2	-36.4	17.8	0.00e+00	0	57	0	2235564032	40	4279
2026-01-03 16:07:14.52	286.09	17.14	-35.3	-36.6	17.6	0.00e+00	0	57	0	2242904064	40	4362
2026-01-03 16:07:15.53	286.32	17.12	-35.2	-36.4	17.9	0.00e+00	0	57	0	2250244096	40	4273
2026-01-03 16:07:16.54	286.54	17.09	-35.1	-36.3	18.0	0.00e+00	0	57	0	2257584128	40	4210
2026-01-03 16:07:17.55	286.77	17.07	-35.1	-36.3	18.0	0.00e+00	0	57	0	2264924160	40	4208
2026-01-03 16:07:18.56	286.99	17.04	-35.1	-36.3	18.0	0.00e+00	0	57	0	2272264192	40	4196
2026-01-03 16:07:19.57	287.21	17.02	-35.1	-36.3	18.0	0.00e+00	0	57	0	2279604224	40	4213
2026-01-03 16:07:20.58	287.44	16.99	-35.1	-36.3	17.9	0.00e+00	0	57	0	2285895680	40	4234
2026-01-03 16:07:21.60	287.66	16.97	-35.2	-36.4	17.9	0.00e+00	0	57	0	2293235712	40	4252
2026-01-03 16:07:22.60	287.88	16.94	-35.2	-36.4	17.9	0.00e+00	0	57	0	2301624320	40	4245
2026-01-03 16:07:23.61	288.11	16.92	-35.2	-36.4	17.8	0.00e+00	0	57	0	2307915776	40	4274
2026-01-03 16:07:24.63	288.33	16.89	-35.2	-36.4	17.9	0.00e+00	0	57	0	2315255808	40	4253
2026-01-03 16:07:25.64	288.55	16.86	-35.1	-36.3	17.9	0.00e+00	0	57	0	2322595840	40	4219
2026-01-03 16:07:26.65	288.78	16.84	-35.1	-36.3	17.9	0.00e+00	0	57	0	2329935872	40	4215
2026-01-03 16:07:27.66	289.00	16.81	-35.1	-36.3	17.9	0.00e+00	0	57	0	2337275904	40	4219
2026-01-03 16:07:28.67	289.22	16.78	-35.2	-36.4	17.9	0.00e+00	0	57	0	2344615936	40	4251
2026-01-03 16:07:29.68	289.44	16.75	-35.2	-36.4	17.9	0.00e+00	0	57	0	2351955968	40	4253
2026-01-03 16:07:30.69	289.66	16.72	-35.2	-36.4	17.9	0.00e+00	0	57	0	2359296000	40	4250
2026-01-03 16:07:31.70	289.88	16.70	-35.2	-36.4	17.9	0.00e+00	0	57	0	2366636032	40	4260
2026-01-03 16:07:32.71	290.10	16.67	-35.2	-36.4	17.8	0.00e+00	0	57	0	2373976064	40	4278
2026-01-03 16:07:33.72	290.31	16.64	-35.2	-36.4	17.8	0.00e+00	0	57	0	2381316096	40	4274
2026-01-03 16:07:34.73	290.53	16.61	-35.2	-36.4	17.8	0.00e+00	0	57	0	2388656128	40	4265
2026-01-03 16:07:35.74	290.75	16.58	-35.2	-36.4	17.8	0.00e+00	0	57	0	2395996160	40	4259
2026-01-03 16:07:36.75	290.97	16.54	-35.2	-36.4	17.8	0.00e+00	0	57	0	2403336192	40	4270
2026-01-03 16:07:37.76	291.18	16.51	-35.2	-36.4	17.8	0.00e+00	0	57	0	2410676224	40	4250
2026-01-03 16:07:38.77	291.40	16.48	-35.2	-36.4	17.8	0.00e+00	0	57	0	2418016256	40	4273
2026-01-03 16:07:39.78	291.62	16.45	-35.2	-36.4	17.8	0.00e+00	0	57	0	2425356288	40	4291
2026-01-03 16:07:40.79	291.83	16.42	-35.4	-36.6	17.6	0.00e+00	0	57	0	2432696320	40	4357
2026-01-03 16:07:41.80	292.05	16.39	-35.4	-36.6	17.6	0.00e+00	0	57	0	2440036352	40	4374
2026-01-03 16:07:42.82	292.26	16.35	-35.4	-36.7	17.6	0.00e+00	0	57	0	2447376384	40	4397
2026-01-03 16:07:43.82	292.48	16.32	-35.4	-36.7	17.6	0.00e+00	0	57	0	2454716416	40	4409
2026-01-03 16:07:44.83	292.69	16.29	-35.4	-36.6	17.6	0.00e+00	0	57	0	2461007872	40	4385
2026-01-03 16:07:45.84	292.90	16.25	-35.4	-36.7	17.6	0.00e+00	0	57	0	2468347904	40	4393
2026-01-03 16:07:46.85	293.12	16.22	-35.4	-36.6	17.6	0.00e+00	0	57	0	2476736512	40	4377
2026-01-03 16:07:47.86	293.33	16.18	-35.4	-36.7	17.6	0.00e+00	0	57	0	2483027968	40	4394
2026-01-03 16:07:48.87	293.54	16.15	-35.4	-36.7	17.5	0.00e+00	0	57	0	2490368000	40	4409
2026-01-03 16:07:49.89	293.75	16.11	-35.4	-36.6	17.6	0.00e+00	0	57	0	2497708032	40	4358
2026-01-03 16:07:50.90	293.96	16.08	-35.4	-36.6	17.6	0.00e+00	0	57	0	2505048064	40	4356
2026-01-03 16:07:51.90	294.17	16.04	-35.4	-36.6	17.6	0.00e+00	0	57	0	2512388096	40	4357
2026-01-03 16:07:52.92	294.38	16.00	-35.4	-36.6	17.6	0.00e+00	0	57	0	2519728128	40	4360
2026-01-03 16:07:53.92	294.59	15.97	-35.4	-36.6	17.6	0.00e+00	0	57	0	2527068160	40	4357
2026-01-03 16:07:54.93	294.80	15.93	-35.3	-36.6	17.7	0.00e+00	0	57	0	2534408192	40	4342
2026-01-03 16:07:55.94	295.01	15.90	-35.3	-36.5	17.7	0.00e+00	0	57	0	2541748224	40	4337
2026-01-03 16:07:56.95	295.22	15.86	-35.3	-36.6	17.6	0.00e+00	0	57	0	2549088256	40	4348
2026-01-03 16:07:57.97	295.42	15.82	-35.4	-36.6	17.6	0.00e+00	0	57	0	2556428288	40	4388
2026-01-03 16:07:58.97	295.63	15.78	-35.4	-36.6	17.6	0.00e+00	0	57	0	2563768320	40	4373
2026-01-03 16:07:59.98	295.84	15.74	-35.4	-36.7	17.5	0.00e+00	0	57	0	2571108352	40	4398
2026-01-03 16:08:01.00	296.04	15.71	-35.3	-36.5	17.7	0.00e+00	0	57	0	2578448384	40	4336
2026-01-03 16:08:02.01	296.25	15.67	-35.3	-36.5	17.7	0.00e+00	0	57	0	2585788416	40	4333
2026-01-03 16:08:03.01	296.45	15.63	-35.3	-36.5	17.7	0.00e+00	0	57	0	2593128448	40	4318
2026-01-03 16:08:04.02	296.65	15.59	-35.3	-36.5	17.7	0.00e+00	0	57	0	2600468480	40	4328
2026-01-03 16:08:05.03	296.86	15.55	-35.3	-36.5	17.7	0.00e+00	0	57	0	2606759936	40	4307
2026-01-03 16:08:06.04	297.06	15.51	-35.3	-36.5	17.7	0.00e+00	0	57	0	2614099968	40	4337
2026-01-03 16:08:07.05	297.26	15.47	-35.4	-36.6	17.5	0.00e+00	0	57	0	2622488576	40	4355
2026-01-03 16:08:08.06	297.47	15.43	-35.4	-36.7	17.5	0.00e+00	0	57	0	2628780032	40	4403
2026-01-03 16:08:09.07	297.67	15.39	-35.5	-36.7	17.5	0.00e+00	0	57	0	2636120064	40	4422
2026-01-03 16:08:10.08	297.87	15.35	-35.6	-36.8	17.3	0.00e+00	0	57	0	2643460096	40	4492
2026-01-03 16:08:11.09	298.07	15.31	-35.6	-36.9	17.3	0.00e+00	0	57	0	2650800128	40	4499
2026-01-03 16:08:12.10	298.27	15.26	-35.6	-36.9	17.3	0.00e+00	0	57	0	2658140160	40	4525
2026-01-03 16:08:13.11	298.47	15.22	-35.7	-36.9	17.3	0.00e+00	0	57	0	2665480192	40	4544
2026-01-03 16:08:14.13	298.67	15.18	-35.8	-37.1	17.2	0.00e+00	0	57	0	2672820224	41	4343
2026-01-03 16:08:15.14	298.87	15.14	-35.7	-37.0	17.2	0.00e+00	0	57	0	2680160256	41	4336
2026-01-03 16:08:16.15	299.06	15.10	-35.7	-37.0	17.2	0.00e+00	0	57	0	2687500288	41	4320
2026-01-03 16:08:17.16	299.26	15.05	-35.8	-37.1	17.1	0.00e+00	0	57	0	2694840320	41	4371
2026-01-03 16:08:18.17	299.46	15.01	-35.7	-37.0	17.1	0.00e+00	0	57	0	2702180352	41	4332
2026-01-03 16:08:19.18	299.65	14.97	-35.8	-37.1	17.1	0.00e+00	0	57	0	2709520384	41	4390
2026-01-03 16:08:20.19	299.85	14.92	-35.7	-37.0	17.2	0.00e+00	0	57	0	2716860416	41	4334
2026-01-03 16:08:21.20	300.04	14.88	-35.7	-37.0	17.2	0.00e+00	0	57	0	2724200448	41	4327
2026-01-03 16:08:22.21	300.24	14.84	-35.7	-36.9	17.3	0.00e+00	0	57	0	2731540480	41	4283
2026-01-03 16:08:23.22	300.43	14.79	-35.7	-36.9	17.3	0.00e+00	0	57	0	2738880512	41	4278
2026-01-03 16:08:24.23	300.63	14.75	-35.6	-36.9	17.3	0.00e+00	0	57	0	2746220544	41	4268
2026-01-03 16:08:25.24	300.82	14.70	-35.6	-36.9	17.3	0.00e+00	0	57	0	2753560576	41	4253
2026-01-03 16:08:26.25	301.01	14.66	-35.7	-37.0	17.3	0.00e+00	0	57	0	2760900608	41	4297
2026-01-03 16:08:27.26	301.20	14.61	-35.7	-37.0	17.2	0.00e+00	0	57	0	2768240640	41	4325
2026-01-03 16:08:28.27	301.39	14.57	-35.8	-37.0	17.1	0.00e+00	0	57	0	2775580672	41	4340
2026-01-03 16:08:29.28	301.58	14.52	-35.7	-37.1	16.9	1.71e-05	0	57	0	2781872128	41	4353
2026-01-03 16:08:30.29	301.77	14.48	-35.8	-37.1	16.6	4.57e-04	0	57	0	2789212160	41	4380
2026-01-03 16:08:31.30	301.96	14.43	-35.8	-37.1	16.7	5.22e-04	0	57	0	2797600768	41	4365
2026-01-03 16:08:32.31	302.15	14.39	-35.8	-37.1	16.6	2.56e-04	0	57	0	2803892224	41	4370
2026-01-03 16:08:33.32	302.34	14.34	-35.8	-37.2	16.6	1.27e-03	0	57	0	2811232256	41	4394
2026-01-03 16:08:34.33	302.53	14.29	-35.7	-37.0	16.9	3.54e-05	0	57	0	2818572288	41	4313
2026-01-03 16:08:35.34	302.71	14.25	-35.7	-37.0	16.9	1.02e-05	0	57	0	2825912320	41	4305
2026-01-03 16:08:36.35	302.90	14.20	-35.7	-36.9	17.1	0.00e+00	0	57	0	2833252352	41	4285
2026-01-03 16:08:37.36	303.08	14.15	-35.7	-37.0	17.0	0.00e+00	0	57	0	2840592384	41	4319
2026-01-03 16:08:38.37	303.27	14.11	-35.8	-37.1	17.0	0.00e+00	0	57	0	2847932416	41	4356
2026-01-03 16:08:39.38	303.45	14.06	-35.7	-37.0	17.1	0.00e+00	0	57	0	2855272448	41	4319
2026-01-03 16:08:40.39	303.64	14.01	-35.8	-37.1	17.0	0.00e+00	0	57	0	2862612480	41	4378
2026-01-03 16:08:41.40	303.82	13.96	-35.9	-37.2	17.0	0.00e+00	0	57	0	2869952512	41	4397
2026-01-03 16:08:42.42	304.01	13.92	-35.9	-37.2	17.0	0.00e+00	0	57	0	2877292544	41	4417
2026-01-03 16:08:43.43	304.19	13.87	-36.0	-37.3	16.9	0.00e+00	0	57	0	2884632576	41	4451
2026-01-03 16:08:44.43	304.37	13.82	-36.0	-37.3	16.9	0.00e+00	0	57	0	2891972608	41	4452
2026-01-03 16:08:45.44	304.55	13.77	-36.0	-37.3	16.9	0.00e+00	0	57	0	2899312640	41	4454
2026-01-03 16:08:46.46	304.73	13.72	-36.0	-37.3	16.9	0.00e+00	0	57	0	2906652672	41	4460
2026-01-03 16:08:47.47	304.91	13.67	-36.0	-37.3	16.9	0.00e+00	0	57	0	2913992704	41	4473
2026-01-03 16:08:48.48	305.09	13.62	-36.0	-37.3	16.9	0.00e+00	0	57	0	2921332736	41	4466
2026-01-03 16:08:49.49	305.27	13.58	-36.0	-37.3	16.9	0.00e+00	0	57	0	2927624192	41	4458
2026-01-03 16:08:50.50	305.45	13.53	-36.0	-37.3	16.9	0.00e+00	0	57	0	2934964224	41	4458
2026-01-03 16:08:51.51	305.63	13.48	-35.9	-37.2	17.0	0.00e+00	0	57	0	2943352832	41	4408
2026-01-03 16:08:52.52	305.80	13.43	-35.8	-37.1	17.0	0.00e+00	0	57	0	2949644288	41	4384
2026-01-03 16:08:53.53	305.98	13.38	-35.8	-37.1	17.0	0.00e+00	0	57	0	2956984320	41	4384
2026-01-03 16:08:54.54	306.16	13.33	-35.9	-37.2	17.0	0.00e+00	0	57	0	2964324352	41	4408
2026-01-03 16:08:55.55	306.33	13.28	-35.9	-37.2	17.0	0.00e+00	0	57	0	2971664384	41	4416
2026-01-03 16:08:56.55	306.50	13.23	-36.0	-37.3	16.9	0.00e+00	0	57	0	2979004416	41	4460
2026-01-03 16:08:57.57	306.68	13.18	-36.1	-37.4	16.8	0.00e+00	0	57	0	2986344448	41	4518
2026-01-03 16:08:58.57	306.85	13.13	-36.2	-37.5	16.7	0.00e+00	0	57	0	2993684480	41	4585
2026-01-03 16:08:59.59	307.03	13.08	-36.3	-37.7	16.5	0.00e+00	0	57	0	3001024512	42	4407
2026-01-03 16:09:00.59	307.20	13.03	-36.3	-37.7	16.5	0.00e+00	0	57	0	3008364544	42	4407
2026-01-03 16:09:01.61	307.37	12.98	-36.4	-37.8	16.4	0.00e+00	0	57	0	3015704576	42	4453
2026-01-03 16:09:02.61	307.54	12.93	-36.5	-37.9	16.3	0.00e+00	0	57	0	3023044608	42	4503
2026-01-03 16:09:03.62	307.71	12.88	-36.4	-37.8	16.3	0.00e+00	0	57	0	3030384640	42	4476
2026-01-03 16:09:04.63	307.88	12.83	-36.3	-37.7	16.4	0.00e+00	0	57	0	3037724672	42	4416
2026-01-03 16:09:05.64	308.05	12.77	-36.4	-37.8	16.4	0.00e+00	0	57	0	3045064704	42	4447
2026-01-03 16:09:06.65	308.22	12.72	-36.3	-37.7	16.4	0.00e+00	0	57	0	3052404736	42	4426
2026-01-03 16:09:07.66	308.39	12.67	-36.4	-37.8	16.3	0.00e+00	0	57	0	3059744768	42	4475
2026-01-03 16:09:08.67	308.56	12.62	-36.4	-37.8	16.4	0.00e+00	0	57	0	3067084800	42	4451
2026-01-03 16:09:09.68	308.72	12.57	-36.4	-37.8	16.3	0.00e+00	0	57	0	3074424832	42	4457
2026-01-03 16:09:10.69	308.89	12.52	-36.4	-37.8	16.3	0.00e+00	0	57	0	3080716288	42	4465
2026-01-03 16:09:11.70	309.06	12.47	-36.5	-37.9	16.2	0.00e+00	0	57	0	3089104896	42	4517
2026-01-03 16:09:12.71	309.22	12.41	-36.4	-37.8	16.3	0.00e+00	0	57	0	3096444928	42	4481
2026-01-03 16:09:13.72	309.39	12.36	-36.5	-38.0	16.2	0.00e+00	0	57	0	3102736384	42	4547
2026-01-03 16:09:14.74	309.55	12.31	-36.5	-37.9	16.2	0.00e+00	0	57	0	3110076416	42	4511
2026-01-03 16:09:15.74	309.72	12.26	-36.5	-37.9	16.2	0.00e+00	0	57	0	3117416448	42	4525
2026-01-03 16:09:16.75	309.88	12.20	-36.6	-38.0	16.1	0.00e+00	0	57	0	3124756480	42	4593
2026-01-03 16:09:17.76	310.04	12.15	-36.6	-38.0	16.2	0.00e+00	0	57	0	3132096512	42	4568
2026-01-03 16:09:18.77	310.20	12.10	-36.5	-38.0	16.2	0.00e+00	0	57	0	3139436544	42	4550
2026-01-03 16:09:19.78	310.37	12.05	-36.4	-37.8	16.3	0.00e+00	0	57	0	3146776576	42	4485
2026-01-03 16:09:20.80	310.53	11.99	-36.4	-37.8	16.3	0.00e+00	0	57	0	3154116608	42	4474
2026-01-03 16:09:21.81	310.69	11.94	-36.4	-37.8	16.3	0.00e+00	0	57	0	3161456640	42	4460
2026-01-03 16:09:22.82	310.85	11.89	-36.4	-37.8	16.3	0.00e+00	0	57	0	3168796672	42	4481
2026-01-03 16:09:23.82	311.01	11.84	-36.4	-37.8	16.3	0.00e+00	0	57	0	3176136704	42	4478
2026-01-03 16:09:24.83	311.17	11.78	-36.5	-37.9	16.2	0.00e+00	0	57	0	3183476736	42	4513
2026-01-03 16:09:25.84	311.32	11.73	-36.4	-37.8	16.2	0.00e+00	0	57	0	3190816768	42	4488
2026-01-03 16:09:26.85	311.48	11.68	-36.4	-37.8	16.3	0.00e+00	0	57	0	3198156800	42	4460
2026-01-03 16:09:27.86	311.64	11.62	-36.6	-38.0	16.1	0.00e+00	0	57	0	3205496832	42	4567
2026-01-03 16:09:28.87	311.80	11.57	-36.6	-38.0	16.1	0.00e+00	0	57	0	3212836864	42	4574
2026-01-03 16:09:29.89	311.95	11.52	-36.6	-38.1	16.0	0.00e+00	0	57	0	3220176896	42	4606
2026-01-03 16:09:30.90	312.11	11.46	-36.7	-38.2	15.9	0.00e+00	0	57	0	3226468352	42	4666
2026-01-03 16:09:31.90	312.26	11.41	-36.8	-38.2	15.8	0.00e+00	0	57	0	3234856960	43	4437
2026-01-03 16:09:32.92	312.42	11.36	-36.8	-38.2	15.8	0.00e+00	0	57	0	3242196992	43	4426
2026-01-03 16:09:33.93	312.57	11.30	-36.9	-38.3	15.7	0.00e+00	0	57	0	3248488448	43	4481
2026-01-03 16:09:34.94	312.73	11.25	-36.8	-38.2	15.8	0.00e+00	0	57	0	3255828480	43	4436
2026-01-03 16:09:35.95	312.88	11.19	-36.7	-38.2	15.9	0.00e+00	0	57	0	3263168512	43	4412
2026-01-03 16:09:36.96	313.03	11.14	-36.8	-38.2	15.8	0.00e+00	0	57	0	3270508544	43	4434
2026-01-03 16:09:37.97	313.18	11.09	-36.7	-38.2	15.8	0.00e+00	0	57	0	3277848576	43	4418
2026-01-03 16:09:38.98	313.33	11.03	-36.8	-38.3	15.8	0.00e+00	0	57	0	3285188608	43	4455
2026-01-03 16:09:39.99	313.48	10.98	-36.9	-38.3	15.7	0.00e+00	0	57	0	3292528640	43	4491
2026-01-03 16:09:41.00	313.63	10.93	-36.8	-38.2	15.8	0.00e+00	0	57	0	3299868672	43	4441
2026-01-03 16:09:42.01	313.78	10.87	-36.6	-38.0	16.0	0.00e+00	0	57	0	3307208704	43	4326
2026-01-03 16:09:43.02	313.93	10.82	-36.5	-37.9	16.1	0.00e+00	0	57	0	3314548736	43	4265
2026-01-03 16:09:44.03	314.08	10.76	-36.5	-37.9	16.1	0.00e+00	0	57	0	3321888768	43	4266
2026-01-03 16:09:45.04	314.23	10.71	-36.5	-37.9	16.1	0.00e+00	0	57	0	3329228800	43	4274
2026-01-03 16:09:46.05	314.38	10.65	-36.5	-37.9	16.2	0.00e+00	0	57	0	3336568832	43	4256
2026-01-03 16:09:47.05	314.52	10.60	-36.4	-37.8	16.2	0.00e+00	0	57	0	3343908864	43	4227
2026-01-03 16:09:48.06	314.67	10.55	-36.5	-38.0	16.1	0.00e+00	0	57	0	3351248896	43	4292
2026-01-03 16:09:49.07	314.81	10.49	-36.5	-38.0	16.1	0.00e+00	0	57	0	3358588928	43	4299
2026-01-03 16:09:50.08	314.96	10.44	-36.5	-37.9	16.1	0.00e+00	0	57	0	3365928960	43	4258
2026-01-03 16:09:51.09	315.10	10.38	-36.5	-38.0	16.0	0.00e+00	0	57	0	3373268992	43	4306
2026-01-03 16:09:52.10	315.25	10.33	-36.6	-38.0	16.0	0.00e+00	0	57	0	3380609024	43	4337
2026-01-03 16:09:53.11	315.39	10.27	-36.7	-38.2	15.8	0.00e+00	0	57	0	3387949056	43	4401
2026-01-03 16:09:54.12	315.54	10.22	-36.8	-38.2	15.7	0.00e+00	0	57	0	3395289088	43	4438
2026-01-03 16:09:55.13	315.68	10.16	-36.9	-38.4	15.6	0.00e+00	0	57	0	3401580544	43	4522
2026-01-03 16:09:56.14	315.82	10.11	-36.9	-38.5	15.5	0.00e+00	0	57	0	3408920576	43	4546
2026-01-03 16:09:57.15	315.96	10.06	-37.1	-38.6	15.3	0.00e+00	0	57	0	3417309184	43	4632
2026-01-03 16:09:58.16	316.10	10.00	-37.2	-38.7	15.2	0.00e+00	0	57	0	3423600640	43	4700
2026-01-03 16:09:59.17	316.24	9.95	-37.4	-38.9	15.2	0.00e+00	0	57	0	3430940672	44	4537
2026-01-03 16:10:00.18	316.38	9.89	-37.5	-39.1	15.1	0.00e+00	0	57	0	3438280704	44	4600
2026-01-03 16:10:01.19	316.52	9.84	-37.5	-39.1	15.0	0.00e+00	0	57	0	3445620736	44	4639
2026-01-03 16:10:02.20	316.66	9.78	-37.5	-39.1	15.1	0.00e+00	0	57	0	3452960768	44	4612
2026-01-03 16:10:03.21	316.80	9.73	-37.4	-39.1	15.1	0.00e+00	0	57	0	3460300800	44	4603
2026-01-03 16:10:04.21	316.94	9.67	-37.5	-39.1	15.1	0.00e+00	0	57	0	3467640832	44	4613
2026-01-03 16:10:05.22	317.08	9.62	-37.4	-39.0	15.1	0.00e+00	0	57	0	3474980864	44	4583
2026-01-03 16:10:06.23	317.21	9.56	-37.3	-38.9	15.2	0.00e+00	0	57	0	3482320896	44	4518
2026-01-03 16:10:07.24	317.35	9.51	-37.3	-38.8	15.3	0.00e+00	0	57	0	3489660928	44	4480
2026-01-03 16:10:08.25	317.49	9.45	-37.2	-38.7	15.4	0.00e+00	0	57	0	3497000960	44	4424
2026-01-03 16:10:09.26	317.62	9.40	-37.1	-38.7	15.4	0.00e+00	0	57	0	3504340992	44	4407
2026-01-03 16:10:10.27	317.76	9.34	-37.1	-38.6	15.5	0.00e+00	0	57	0	3511681024	44	4356
2026-01-03 16:10:11.28	317.89	9.29	-37.1	-38.6	15.5	0.00e+00	0	57	0	3519021056	44	4366
2026-01-03 16:10:12.29	318.03	9.23	-37.1	-38.6	15.5	0.00e+00	0	57	0	3525312512	44	4383
2026-01-03 16:10:13.30	318.16	9.18	-37.2	-38.7	15.4	0.00e+00	0	57	0	3533701120	44	4432
2026-01-03 16:10:14.31	318.29	9.12	-37.1	-38.6	15.5	0.00e+00	0	57	0	3541041152	44	4370
2026-01-03 16:10:15.32	318.42	9.07	-36.9	-38.4	15.7	0.00e+00	0	57	0	3547332608	44	4245
2026-01-03 16:10:16.33	318.56	9.01	-36.9	-38.4	15.7	0.00e+00	0	57	0	3554672640	44	4260
2026-01-03 16:10:17.34	318.69	8.96	-36.9	-38.4	15.6	0.00e+00	0	57	0	3562012672	44	4288
2026-01-03 16:10:18.35	318.82	8.90	-37.0	-38.5	15.6	0.00e+00	0	57	0	3569352704	44	4317
2026-01-03 16:10:19.36	318.95	8.85	-37.0	-38.6	15.5	0.00e+00	0	57	0	3576692736	44	4341
2026-01-03 16:10:20.37	319.08	8.79	-37.1	-38.6	15.5	0.00e+00	0	57	0	3584032768	44	4365
2026-01-03 16:10:21.38	319.21	8.74	-37.2	-38.7	15.3	0.00e+00	0	57	0	3591372800	44	4430
2026-01-03 16:10:22.39	319.34	8.68	-37.2	-38.8	15.2	0.00e+00	0	57	0	3598712832	44	4472
2026-01-03 16:10:23.40	319.47	8.63	-37.3	-38.8	15.2	0.00e+00	0	58	0	3606052864	44	4493
2026-01-03 16:10:24.41	319.60	8.57	-37.4	-39.0	15.0	0.00e+00	0	57	0	3613392896	44	4579
2026-01-03 16:10:25.42	319.73	8.52	-37.5	-39.1	14.9	1.10e-06	0	57	0	3620732928	44	4644
2026-01-03 16:10:26.43	319.85	8.46	-37.5	-39.2	14.9	0.00e+00	0	57	0	3628072960	44	4670
2026-01-03 16:10:27.44	319.98	8.41	-37.7	-39.3	14.7	0.00e+00	0	57	0	3635412992	44	4748
2026-01-03 16:10:28.45	320.11	8.35	-37.7	-39.3	14.7	0.00e+00	0	57	0	3642753024	44	4744
2026-01-03 16:10:29.46	320.23	8.30	-37.6	-39.3	14.7	0.00e+00	0	57	0	3650093056	44	4732
2026-01-03 16:10:30.47	320.36	8.24	-37.6	-39.3	14.7	0.00e+00	0	57	0	3657433088	44	4745
2026-01-03 16:10:31.48	320.48	8.19	-37.8	-39.5	14.5	0.00e+00	0	57	0	3664773120	45	4576
2026-01-03 16:10:32.49	320.61	8.13	-37.8	-39.6	14.4	0.00e+00	0	57	0	3672113152	45	4600
2026-01-03 16:10:33.50	320.73	8.08	-37.7	-39.4	14.6	0.00e+00	0	57	0	3678404608	45	4505
2026-01-03 16:10:34.51	320.86	8.02	-39.9	-41.8	12.6	0.00e+00	0	57	0	3686793216	48	5018
2026-01-03 16:10:35.52	320.98	7.97	-44.8	-55.6	3.8	8.46e-01	0	57	104	3686793216	59	13032
2026-01-03 16:10:36.53	321.10	7.91	-45.1	-55.9	3.8	8.46e-01	0	57	104	3686793216	59	13523
2026-01-03 16:10:37.54	321.23	7.86	-45.2	-56.3	3.8	8.47e-01	0	57	104	3686793216	60	13285
2026-01-03 16:10:38.55	321.35	7.80	-45.3	-56.4	3.8	8.46e-01	0	57	104	3686793216	60	13501
2026-01-03 16:10:39.56	321.47	7.75	-45.4	-56.5	3.8	8.46e-01	0	57	104	3686793216	60	13637
2026-01-03 16:10:40.57	321.59	7.69	-45.4	-56.6	3.8	8.46e-01	0	57	104	3686793216	60	13764
2026-01-03 16:10:41.58	321.71	7.64	-45.5	-56.6	3.8	8.46e-01	0	57	104	3686793216	60	13793
2026-01-03 16:10:42.59	321.83	7.58	-45.5	-56.6	3.8	8.46e-01	0	57	104	3686793216	60	13802
2026-01-03 16:10:43.61	321.95	7.53	-45.5	-56.6	3.8	8.46e-01	0	57	104	3686793216	60	13798
2026-01-03 16:10:44.62	322.07	7.47	-45.5	-56.6	3.8	8.46e-01	0	57	104	3686793216	60	13778
2026-01-03 16:10:45.63	322.19	7.42	-45.4	-56.5	3.8	8.46e-01	0	57	104	3686793216	60	13662
2026-01-03 16:10:46.64	322.31	7.36	-45.4	-56.5	3.8	8.46e-01	0	57	104	3686793216	60	13656
2026-01-03 16:10:47.65	322.43	7.31	-45.4	-56.5	3.8	8.46e-01	0	57	104	3686793216	60	13639
2026-01-03 16:10:48.66	322.55	7.25	-45.4	-56.5	3.8	8.46e-01	0	57	104	3686793216	60	13630
2026-01-03 16:10:49.67	322.66	7.20	-45.4	-56.5	3.8	8.47e-01	0	57	104	3686793216	60	13597
2026-01-03 16:10:50.68	322.78	7.14	-45.4	-56.5	3.8	8.47e-01	0	57	104	3686793216	60	13584
2026-01-03 16:10:51.69	322.90	7.09	-45.4	-56.5	3.8	8.46e-01	0	57	104	3686793216	60	13592
2026-01-03 16:10:52.70	323.01	7.03	-45.4	-56.5	3.8	8.45e-01	0	57	104	3686793216	60	13590
2026-01-03 16:10:53.71	323.13	6.98	-45.4	-56.5	3.8	8.46e-01	0	57	104	3686793216	60	13596
2026-01-03 16:10:54.72	323.24	6.92	-45.4	-56.5	3.8	8.47e-01	0	57	104	3686793216	60	13577
2026-01-03 16:10:55.74	323.36	6.87	-45.4	-56.5	3.8	8.46e-01	0	57	104	3686793216	60	13631
2026-01-03 16:10:56.75	323.47	6.81	-45.4	-56.5	3.8	8.45e-01	0	57	104	3686793216	60	13590
2026-01-03 16:10:57.76	323.59	6.76	-45.4	-56.4	3.8	8.46e-01	0	57	104	3686793216	60	13533
2026-01-03 16:10:58.77	323.70	6.71	-45.4	-56.5	3.8	8.46e-01	0	57	104	3686793216	60	13573
2026-01-03 16:10:59.78	323.81	6.65	-45.4	-56.5	3.8	8.47e-01	0	58	104	3686793216	60	13572
2026-01-03 16:11:00.79	323.93	6.60	-45.4	-56.5	3.8	8.45e-01	0	57	104	3686793216	60	13612
2026-01-03 16:11:01.80	324.04	6.54	-45.4	-56.4	3.8	8.46e-01	0	57	104	3686793216	60	13559
2026-01-03 16:11:02.81	324.15	6.49	-45.4	-56.5	3.8	8.47e-01	0	57	104	3686793216	60	13586
2026-01-03 16:11:03.82	324.26	6.43	-45.4	-56.4	3.8	8.45e-01	0	57	104	3686793216	60	13537
2026-01-03 16:11:04.83	324.37	6.38	-45.4	-56.4	3.8	8.46e-01	0	57	104	3686793216	60	13540
2026-01-03 16:11:05.84	324.48	6.32	-45.3	-56.4	3.8	8.47e-01	0	57	104	3686793216	60	13520
2026-01-03 16:11:06.85	324.59	6.27	-45.3	-56.4	3.8	8.46e-01	0	57	104	3686793216	60	13540
2026-01-03 16:11:07.86	324.70	6.21	-45.3	-56.4	3.8	8.46e-01	0	57	104	3686793216	60	13535
2026-01-03 16:11:08.87	324.81	6.16	-45.3	-56.5	3.8	8.46e-01	0	58	104	3686793216	60	13570
2026-01-03 16:11:09.88	324.92	6.11	-45.3	-56.4	3.8	8.46e-01	0	57	104	3686793216	60	13542
2026-01-03 16:11:10.90	325.03	6.05	-45.3	-56.4	3.8	8.45e-01	0	57	104	3686793216	60	13534
2026-01-03 16:11:11.91	325.14	6.00	-45.3	-56.5	3.8	8.47e-01	0	57	104	3686793216	60	13580
2026-01-03 16:11:12.92	325.25	5.94	-45.3	-56.5	3.8	8.45e-01	0	57	104	3686793216	60	13592
2026-01-03 16:11:13.93	325.36	5.89	-45.3	-56.4	3.8	8.45e-01	0	57	104	3686793216	60	13530
2026-01-03 16:11:14.94	325.46	5.83	-45.3	-56.4	3.8	8.46e-01	0	57	104	3686793216	60	13536
2026-01-03 16:11:15.95	325.57	5.78	-45.3	-56.4	3.8	8.47e-01	0	57	104	3686793216	60	13529
2026-01-03 16:11:16.96	325.68	5.73	-45.3	-56.5	3.8	8.45e-01	0	57	104	3686793216	60	13584
2026-01-03 16:11:17.97	325.78	5.67	-45.3	-56.4	3.8	8.46e-01	0	57	104	3686793216	60	13524
2026-01-03 16:11:18.98	325.89	5.62	-45.3	-56.4	3.8	8.46e-01	0	57	104	3686793216	60	13533
2026-01-03 16:11:19.99	325.99	5.56	-45.3	-56.4	3.8	8.46e-01	0	57	104	3686793216	60	13514
2026-01-03 16:11:21.01	326.10	5.51	-45.3	-56.4	3.8	8.47e-01	0	57	104	3686793216	60	13532
2026-01-03 16:11:22.02	326.20	5.46	-44.7	-55.8	3.9	8.47e-01	0	57	104	3686793216	59	13369
2026-01-03 16:11:23.03	326.31	5.40	-45.3	-56.4	3.8	8.46e-01	0	57	104	3686793216	60	13527
2026-01-03 16:11:24.04	326.41	5.35	-45.3	-56.4	3.8	8.46e-01	0	58	104	3686793216	60	13548
2026-01-03 16:11:25.05	326.52	5.29	-45.3	-56.4	3.8	8.46e-01	0	57	104	3686793216	60	13568
2026-01-03 16:11:26.06	326.62	5.24	-45.3	-56.4	3.8	8.46e-01	0	57	104	3686793216	60	13534
2026-01-03 16:11:27.07	326.72	5.19	-45.3	-56.4	3.8	8.47e-01	0	57	104	3686793216	60	13512
2026-01-03 16:11:28.08	326.82	5.13	-45.3	-56.4	3.8	8.46e-01	0	58	104	3686793216	60	13507
2026-01-03 16:11:29.09	326.93	5.08	-45.3	-56.4	3.8	8.47e-01	0	57	104	3686793216	60	13527
2026-01-03 16:11:30.10	327.03	5.03	-45.3	-56.4	3.8	8.46e-01	0	57	104	3686793216	60	13526
2026-01-03 16:11:31.12	327.13	4.97	-45.3	-56.4	3.8	8.45e-01	0	57	104	3686793216	60	13476
2026-01-03 16:11:32.13	327.23	4.92	-45.3	-56.4	3.8	8.46e-01	0	57	104	3686793216	60	13475
2026-01-03 16:11:33.14	327.33	4.86	-45.3	-56.4	3.8	8.46e-01	0	57	104	3686793216	60	13552
2026-01-03 16:11:34.15	327.43	4.81	-45.3	-56.4	3.8	8.46e-01	0	58	104	3686793216	60	13541
2026-01-03 16:11:35.16	327.53	4.76	-45.3	-56.4	3.8	8.45e-01	0	58	104	3686793216	60	13526
2026-01-03 16:11:36.17	327.63	4.70	-45.3	-56.4	3.8	8.46e-01	0	58	104	3686793216	60	13483
2026-01-03 16:11:37.18	327.73	4.65	-45.3	-56.4	3.8	8.48e-01	0	57	104	3686793216	60	13507
2026-01-03 16:11:38.19	327.83	4.60	-45.3	-56.4	3.8	8.46e-01	0	57	104	3686793216	60	13487
2026-01-03 16:11:39.20	327.93	4.54	-45.3	-56.4	3.8	8.46e-01	0	58	104	3686793216	60	13536
2026-01-03 16:11:40.22	328.03	4.49	-45.3	-56.4	3.8	8.45e-01	0	58	104	3686793216	60	13515
2026-01-03 16:11:41.23	328.13	4.44	-45.3	-56.4	3.8	8.45e-01	0	58	104	3686793216	60	13485
2026-01-03 16:11:42.24	328.22	4.38	-45.3	-56.4	3.8	8.45e-01	0	58	104	3686793216	60	13501
2026-01-03 16:11:43.25	328.32	4.33	-45.3	-56.4	3.8	8.47e-01	0	58	104	3686793216	60	13513
2026-01-03 16:11:44.26	328.42	4.28	-45.3	-56.4	3.8	8.47e-01	0	57	104	3686793216	60	13511
2026-01-03 16:11:45.27	328.51	4.22	-45.3	-56.4	3.8	8.46e-01	0	58	104	3686793216	60	13551
2026-01-03 16:11:46.28	328.61	4.17	-45.3	-56.4	3.8	8.45e-01	0	57	104	3686793216	60	13477
2026-01-03 16:11:47.29	328.71	4.12	-45.3	-56.4	3.8	8.46e-01	0	58	104	3686793216	60	13523
2026-01-03 16:11:48.30	328.80	4.07	-45.2	-56.4	3.8	8.45e-01	0	58	104	3686793216	60	13441
2026-01-03 16:11:49.31	328.90	4.01	-45.3	-56.4	3.8	8.46e-01	0	58	104	3686793216	60	13478
2026-01-03 16:11:50.33	328.99	3.96	-45.3	-56.4	3.8	8.46e-01	0	58	104	3686793216	60	13496
2026-01-03 16:11:51.34	329.09	3.91	-45.3	-56.4	3.8	8.47e-01	0	58	104	3686793216	60	13520
2026-01-03 16:11:52.35	329.18	3.85	-45.3	-56.4	3.8	8.46e-01	0	58	104	3686793216	60	13472
2026-01-03 16:11:53.36	329.28	3.80	-45.3	-56.4	3.8	8.46e-01	0	58	104	3686793216	60	13501
