passes_logs/2026/01/03/R2.0S_Moscow/R2.0S_Moscow__20260103_052532_FENGYUN_3G_rec.log

#Pass ID: 20260103_052532_FENGYUN 3G
#Satellite: FENGYUN 3G
#Configuration: FENGYUN 3G
#almurnet v.1.7.20251203
#Start time: 2026-01-03 05:25:31

#Version: 2.2.20231116
#Station: R2.0S_Moscow
#Location: 37.707566 lon 55.798166 lat
#TLE: 1 56232U 23055A   26002.31058000  .00046172  00000+0  73618-3 0  9997
#TLE: 2 56232  49.9934 121.3649 0004156 328.0230  32.0484 15.52711916154221

#Time	Az	El	Level	Level2	SNR	BER	BlckErr	Temp	State	Recorded	gain1	gain2
2026-01-03 05:25:31.91	261.49	1.96	-44.2	-62.4	3.8	8.46e-01	0	47	0	0	60	28392
2026-01-03 05:25:32.91	261.42	2.03	-44.2	-62.3	3.8	8.43e-01	0	47	104	0	60	28286
2026-01-03 05:25:33.92	261.35	2.09	-44.2	-62.3	3.8	8.46e-01	0	47	104	0	60	28190
2026-01-03 05:25:34.93	261.27	2.16	-44.2	-62.3	3.8	8.45e-01	0	47	104	0	60	28258
2026-01-03 05:25:35.94	261.20	2.22	-44.2	-62.3	3.8	8.45e-01	0	47	104	0	60	28165
2026-01-03 05:25:36.95	261.13	2.29	-44.2	-62.3	3.8	8.46e-01	0	47	104	0	60	28083
2026-01-03 05:25:37.96	261.05	2.35	-44.2	-62.3	3.8	8.45e-01	0	47	104	0	60	28209
2026-01-03 05:25:38.97	260.98	2.42	-44.2	-62.3	3.8	8.45e-01	0	48	104	0	60	28211
2026-01-03 05:25:39.99	260.90	2.49	-44.2	-62.3	3.8	8.46e-01	0	48	104	0	60	28102
2026-01-03 05:25:41.00	260.83	2.55	-44.2	-62.3	3.8	8.46e-01	0	48	104	0	60	28037
2026-01-03 05:25:42.01	260.75	2.62	-44.2	-62.2	3.8	8.46e-01	0	48	104	0	60	27989
2026-01-03 05:25:43.02	260.68	2.69	-44.2	-62.2	3.8	8.46e-01	0	48	104	0	60	27984
2026-01-03 05:25:44.03	260.60	2.75	-44.2	-62.3	3.8	8.46e-01	0	48	104	0	60	28086
2026-01-03 05:25:45.04	260.52	2.82	-44.2	-62.3	3.8	8.46e-01	0	48	104	0	60	28166
2026-01-03 05:25:46.05	260.45	2.89	-44.2	-62.3	3.8	8.45e-01	0	48	104	0	60	28221
2026-01-03 05:25:47.06	260.37	2.95	-44.2	-62.3	3.8	8.47e-01	0	48	104	0	60	28241
2026-01-03 05:25:48.08	260.29	3.02	-44.2	-62.3	3.8	8.45e-01	0	48	104	0	60	28273
2026-01-03 05:25:49.09	260.21	3.09	-44.2	-62.3	3.8	8.45e-01	0	48	104	0	60	28287
2026-01-03 05:25:50.10	260.13	3.16	-44.2	-62.4	3.8	8.46e-01	0	48	104	0	60	28352
2026-01-03 05:25:51.11	260.05	3.23	-44.2	-62.3	3.8	8.46e-01	0	48	104	0	60	28315
2026-01-03 05:25:52.12	259.97	3.29	-44.2	-62.4	3.8	8.46e-01	0	49	104	0	60	28372
2026-01-03 05:25:53.13	259.89	3.36	-44.2	-62.3	3.8	8.47e-01	0	49	104	0	60	28303
2026-01-03 05:25:54.14	259.80	3.43	-44.2	-62.3	3.8	8.47e-01	0	48	104	0	60	28325
2026-01-03 05:25:55.16	259.72	3.50	-44.2	-62.3	3.8	8.47e-01	0	49	104	0	60	28327
2026-01-03 05:25:56.17	259.64	3.57	-44.2	-62.3	3.8	8.46e-01	0	49	104	0	60	28258
2026-01-03 05:25:57.18	259.55	3.64	-44.2	-62.3	3.8	8.45e-01	0	49	104	0	60	28081
2026-01-03 05:25:58.19	259.47	3.71	-44.2	-62.2	3.8	8.45e-01	0	49	104	0	60	27899
2026-01-03 05:25:59.20	259.39	3.78	-44.2	-62.2	3.8	8.45e-01	0	49	104	0	60	27816
2026-01-03 05:26:00.21	259.30	3.85	-44.2	-62.1	3.8	8.46e-01	0	49	104	0	60	27583
2026-01-03 05:26:01.22	259.21	3.92	-44.2	-62.0	3.8	8.46e-01	0	49	104	0	60	27284
2026-01-03 05:26:02.23	259.13	3.99	-44.2	-61.9	3.8	8.46e-01	0	49	104	0	60	26904
2026-01-03 05:26:03.24	259.04	4.06	-44.2	-61.8	3.8	8.46e-01	0	49	104	0	60	26591
2026-01-03 05:26:04.25	258.95	4.13	-44.2	-61.6	3.8	8.46e-01	0	49	104	0	60	26101
2026-01-03 05:26:05.27	258.86	4.21	-44.2	-61.5	3.8	8.46e-01	0	49	104	0	60	25620
2026-01-03 05:26:06.28	258.77	4.28	-44.2	-61.4	3.8	8.46e-01	0	49	104	0	60	25320
2026-01-03 05:26:07.29	258.68	4.35	-44.2	-61.4	3.8	8.47e-01	0	50	104	0	60	25431
2026-01-03 05:26:08.30	258.59	4.42	-44.2	-61.7	3.8	8.47e-01	0	49	104	0	60	26408
2026-01-03 05:26:09.31	258.50	4.49	-44.2	-61.9	3.8	8.46e-01	0	49	104	0	60	26821
2026-01-03 05:26:10.32	258.41	4.57	-44.2	-61.9	3.8	8.47e-01	0	50	104	0	60	27036
2026-01-03 05:26:11.33	258.32	4.64	-44.2	-62.1	3.8	8.47e-01	0	50	104	0	60	27619
2026-01-03 05:26:12.34	258.22	4.71	-44.2	-62.2	3.8	8.47e-01	0	50	104	0	60	27715
2026-01-03 05:26:13.35	258.13	4.78	-44.2	-62.2	3.8	8.47e-01	0	50	104	0	60	28014
2026-01-03 05:26:14.36	258.04	4.86	-44.2	-62.3	3.8	8.45e-01	0	50	104	0	60	28123
2026-01-03 05:26:15.38	257.94	4.93	-44.2	-62.3	3.8	8.45e-01	0	50	104	0	60	28277
2026-01-03 05:26:16.39	257.84	5.01	-44.2	-62.3	3.8	8.46e-01	0	50	104	0	60	28031
2026-01-03 05:26:17.40	257.75	5.08	-44.2	-62.2	3.8	8.46e-01	0	50	104	0	60	28015
2026-01-03 05:26:18.41	257.65	5.15	-44.2	-62.2	3.8	8.46e-01	0	50	104	0	60	27812
2026-01-03 05:26:19.42	257.55	5.23	-44.2	-62.1	3.8	8.45e-01	0	50	104	0	60	27433
2026-01-03 05:26:20.43	257.45	5.30	-44.2	-61.9	3.8	8.47e-01	0	50	104	0	60	27046
2026-01-03 05:26:21.44	257.35	5.38	-44.2	-61.6	3.8	8.47e-01	0	50	104	0	60	26074
2026-01-03 05:26:22.45	257.25	5.45	-44.2	-61.4	3.8	8.48e-01	0	50	104	0	60	25280
2026-01-03 05:26:23.46	257.15	5.53	-44.1	-61.2	3.8	8.46e-01	0	50	104	0	60	24941
2026-01-03 05:26:24.47	257.05	5.61	-44.2	-61.2	3.8	8.45e-01	0	50	104	0	60	24804
2026-01-03 05:26:25.49	256.95	5.68	-44.2	-61.1	3.8	8.45e-01	0	50	104	0	60	24620
2026-01-03 05:26:26.50	256.84	5.76	-44.2	-61.3	3.8	8.47e-01	0	51	104	0	60	25126
2026-01-03 05:26:27.51	256.74	5.84	-44.2	-61.6	3.8	8.45e-01	0	51	104	0	60	26040
2026-01-03 05:26:28.52	256.64	5.91	-44.2	-61.9	3.8	8.45e-01	0	51	104	0	60	26907
2026-01-03 05:26:29.53	256.53	5.99	-44.2	-62.1	3.8	8.46e-01	0	50	104	0	60	27590
2026-01-03 05:26:30.54	256.42	6.07	-44.2	-62.2	3.8	8.46e-01	0	51	104	0	60	28015
2026-01-03 05:26:31.55	256.32	6.15	-44.2	-62.2	3.8	8.46e-01	0	51	104	0	60	27936
2026-01-03 05:26:32.56	256.21	6.23	-44.2	-62.1	3.8	8.47e-01	0	51	104	0	60	27428
2026-01-03 05:26:33.57	256.10	6.30	-44.2	-61.7	3.8	8.46e-01	0	51	104	0	60	26409
2026-01-03 05:26:34.58	255.99	6.38	-44.2	-61.4	3.8	8.46e-01	0	51	104	0	60	25542
2026-01-03 05:26:35.60	255.88	6.46	-44.2	-61.1	3.8	8.46e-01	0	51	104	0	60	24604
2026-01-03 05:26:36.61	255.77	6.54	-44.1	-60.8	3.8	8.47e-01	0	51	104	0	60	23725
2026-01-03 05:26:37.62	255.65	6.62	-44.1	-60.6	3.8	8.45e-01	0	51	104	0	60	23048
2026-01-03 05:26:38.63	255.54	6.70	-44.1	-60.2	3.8	8.45e-01	0	51	104	0	60	22178
2026-01-03 05:26:39.64	255.43	6.78	-44.1	-60.2	4.0	8.45e-01	0	51	104	0	60	22148
2026-01-03 05:26:40.65	255.31	6.86	-44.1	-60.4	3.8	8.44e-01	0	51	104	0	60	22695
2026-01-03 05:26:41.66	255.20	6.94	-44.1	-61.0	3.8	8.44e-01	0	51	104	0	60	24169
2026-01-03 05:26:42.67	255.08	7.02	-44.2	-62.0	3.8	8.45e-01	0	51	104	0	60	27119
2026-01-03 05:26:43.68	254.96	7.11	-44.2	-62.2	3.8	8.45e-01	0	51	104	0	60	28007
2026-01-03 05:26:44.69	254.84	7.19	-44.1	-60.0	3.8	8.45e-01	0	51	104	0	60	21708
2026-01-03 05:26:45.70	254.72	7.27	-44.0	-55.9	5.4	8.44e-01	0	51	0	0	59	14357
2026-01-03 05:26:46.71	254.60	7.35	-43.6	-52.2	8.7	6.15e-01	0	51	0	1048576	59	9344
2026-01-03 05:26:47.73	254.48	7.44	-42.9	-49.4	11.7	3.53e-02	0	51	0	2097152	57	7582
2026-01-03 05:26:48.74	254.36	7.52	-42.1	-47.0	14.3	3.53e-02	0	52	0	3145728	56	6063
2026-01-03 05:26:49.75	254.24	7.60	-41.0	-44.8	16.3	8.58e-05	0	51	0	4194304	54	5338
2026-01-03 05:26:50.76	254.11	7.69	-40.2	-43.5	17.7	0.00e+00	0	52	0	5242880	52	5105
2026-01-03 05:26:51.77	253.99	7.77	-39.5	-42.3	18.9	0.00e+00	0	52	0	6291456	51	4748
2026-01-03 05:26:52.78	253.86	7.85	-38.9	-41.4	19.8	0.00e+00	0	52	0	7864320	49	4782
2026-01-03 05:26:53.79	253.73	7.94	-38.7	-41.2	20.0	0.00e+00	0	52	0	8912896	49	4690
2026-01-03 05:26:54.80	253.60	8.02	-38.8	-41.3	20.0	0.00e+00	0	52	0	9961472	49	4721
2026-01-03 05:26:55.81	253.47	8.11	-44.3	-58.2	5.3	0.00e+00	0	52	0	11010048	59	18657
2026-01-03 05:26:56.83	253.34	8.19	-40.4	-43.8	17.3	3.73e-01	0	52	0	11010048	52	5291
2026-01-03 05:26:57.84	253.21	8.28	-43.2	-50.4	12.2	3.73e-01	0	52	0	12058624	56	8992
2026-01-03 05:26:58.85	253.08	8.37	-40.2	-43.4	18.1	2.57e-03	0	52	0	13631488	51	5353
2026-01-03 05:26:59.85	252.95	8.45	-39.4	-42.1	19.8	2.29e-02	0	52	0	14680064	49	5177
2026-01-03 05:27:00.86	252.81	8.54	-38.5	-40.9	20.4	0.00e+00	0	52	0	15728640	49	4526
2026-01-03 05:27:01.87	252.67	8.63	-38.1	-40.3	20.9	0.00e+00	0	52	0	16777216	48	4487
2026-01-03 05:27:02.88	252.54	8.71	-37.8	-39.9	21.3	0.00e+00	0	52	0	17825792	47	4542
2026-01-03 05:27:03.89	252.40	8.80	-37.8	-40.0	21.4	0.00e+00	0	52	0	18874368	47	4558
2026-01-03 05:27:04.90	252.26	8.89	-37.7	-39.9	21.4	0.00e+00	0	52	0	20447232	47	4515
2026-01-03 05:27:05.91	252.12	8.98	-37.5	-39.6	21.7	0.00e+00	0	52	0	21495808	47	4357
2026-01-03 05:27:06.92	251.98	9.07	-37.7	-39.8	21.5	0.00e+00	0	52	0	22544384	47	4463
2026-01-03 05:27:07.93	251.83	9.16	-37.6	-39.7	21.6	0.00e+00	0	52	0	23592960	47	4407
2026-01-03 05:27:08.94	251.69	9.25	-37.3	-39.3	22.0	0.00e+00	0	52	0	24641536	46	4491
2026-01-03 05:27:09.95	251.55	9.34	-37.2	-39.2	22.1	0.00e+00	0	52	0	25690112	46	4424
2026-01-03 05:27:10.96	251.40	9.43	-37.1	-39.1	22.2	0.00e+00	0	52	0	27262976	46	4362
2026-01-03 05:27:11.97	251.25	9.52	-37.0	-39.0	22.3	0.00e+00	0	52	0	28311552	46	4315
2026-01-03 05:27:12.98	251.10	9.61	-37.0	-39.0	22.3	0.00e+00	0	52	0	29360128	46	4319
2026-01-03 05:27:13.99	250.95	9.70	-37.1	-39.1	22.3	0.00e+00	0	52	0	30408704	46	4360
2026-01-03 05:27:15.00	250.80	9.79	-37.3	-39.3	22.0	0.00e+00	0	52	0	31457280	46	4491
2026-01-03 05:27:16.01	250.65	9.88	-37.4	-39.5	21.9	0.00e+00	0	53	0	32505856	46	4549
2026-01-03 05:27:17.02	250.49	9.97	-37.3	-39.3	22.0	0.00e+00	0	53	0	34078720	46	4473
2026-01-03 05:27:18.03	250.34	10.07	-37.3	-39.3	22.1	0.00e+00	0	53	0	35127296	46	4468
2026-01-03 05:27:19.04	250.18	10.16	-37.2	-39.2	22.2	0.00e+00	0	52	0	36175872	46	4427
2026-01-03 05:27:20.05	250.02	10.25	-37.0	-39.0	22.4	0.00e+00	0	52	0	37224448	46	4315
2026-01-03 05:27:21.06	249.86	10.35	-36.7	-38.6	22.7	0.00e+00	0	53	0	38273024	45	4364
2026-01-03 05:27:22.07	249.70	10.44	-36.5	-38.4	23.0	0.00e+00	0	53	0	39321600	45	4255
2026-01-03 05:27:23.08	249.54	10.54	-36.6	-38.4	23.0	0.00e+00	0	53	0	40894464	45	4267
2026-01-03 05:27:24.09	249.37	10.63	-36.4	-38.3	23.1	0.00e+00	0	53	0	41943040	44	4451
2026-01-03 05:27:25.10	249.21	10.73	-36.3	-38.1	23.2	0.00e+00	0	53	0	42991616	44	4391
2026-01-03 05:27:26.11	249.04	10.82	-36.5	-38.4	23.0	0.00e+00	0	53	0	44040192	44	4515
2026-01-03 05:27:27.12	248.87	10.92	-36.6	-38.5	22.9	0.00e+00	0	53	0	45088768	44	4554
2026-01-03 05:27:28.13	248.70	11.01	-36.5	-38.4	23.0	0.00e+00	0	53	0	46137344	44	4514
2026-01-03 05:27:29.14	248.53	11.11	-36.7	-38.6	22.8	0.00e+00	0	53	0	47710208	44	4599
2026-01-03 05:27:30.15	248.36	11.21	-36.6	-38.4	23.0	0.00e+00	0	53	0	48758784	44	4528
2026-01-03 05:27:31.16	248.19	11.31	-36.4	-38.2	23.2	0.00e+00	0	53	0	49807360	44	4435
2026-01-03 05:27:32.17	248.01	11.40	-36.4	-38.2	23.2	0.00e+00	0	53	0	50855936	44	4415
2026-01-03 05:27:33.18	247.83	11.50	-36.4	-38.1	23.3	0.00e+00	0	53	0	51904512	44	4387
2026-01-03 05:27:34.19	247.65	11.60	-36.3	-38.1	23.3	0.00e+00	0	53	0	52953088	44	4378
2026-01-03 05:27:35.20	247.47	11.70	-36.3	-38.1	23.3	0.00e+00	0	53	0	54525952	44	4384
2026-01-03 05:27:36.21	247.29	11.80	-36.4	-38.2	23.3	0.00e+00	0	53	0	55574528	44	4401
2026-01-03 05:27:37.21	247.11	11.90	-36.5	-38.3	23.1	0.00e+00	0	53	0	56623104	44	4486
2026-01-03 05:27:38.22	246.92	12.00	-36.6	-38.5	23.0	0.00e+00	0	53	0	57671680	44	4547
2026-01-03 05:27:39.23	246.74	12.10	-36.6	-38.4	23.0	0.00e+00	0	53	0	58720256	44	4531
2026-01-03 05:27:40.24	246.55	12.20	-36.5	-38.3	23.2	0.00e+00	0	53	0	59768832	44	4453
2026-01-03 05:27:41.25	246.36	12.30	-36.5	-38.3	23.2	0.00e+00	0	53	0	61341696	44	4461
2026-01-03 05:27:42.26	246.16	12.40	-36.3	-38.1	23.3	0.00e+00	0	53	0	62390272	44	4381
2026-01-03 05:27:43.27	245.97	12.50	-36.2	-38.0	23.5	0.00e+00	0	53	0	63438848	44	4296
2026-01-03 05:27:44.28	245.77	12.60	-36.2	-38.0	23.5	0.00e+00	0	53	0	64487424	44	4322
2026-01-03 05:27:45.29	245.58	12.71	-36.0	-37.8	23.6	0.00e+00	0	53	0	65536000	44	4196
2026-01-03 05:27:46.30	245.38	12.81	-35.8	-37.5	23.8	0.00e+00	0	53	0	66584576	43	4303
2026-01-03 05:27:47.31	245.17	12.91	-35.9	-37.7	23.6	0.00e+00	0	53	0	68157440	43	4409
2026-01-03 05:27:48.32	244.97	13.02	-35.8	-37.5	23.7	0.00e+00	0	53	0	69206016	43	4331
2026-01-03 05:27:49.33	244.77	13.12	-35.8	-37.6	23.7	0.00e+00	0	53	0	70254592	43	4344
2026-01-03 05:27:50.34	244.56	13.23	-35.8	-37.5	23.8	0.00e+00	0	53	0	71303168	43	4334
2026-01-03 05:27:51.35	244.35	13.33	-35.7	-37.4	24.0	0.00e+00	0	53	0	72351744	43	4246
2026-01-03 05:27:52.36	244.14	13.44	-35.6	-37.3	24.0	0.00e+00	0	53	0	73400320	43	4228
2026-01-03 05:27:53.38	243.92	13.54	-35.6	-37.2	24.1	0.00e+00	0	54	0	74973184	43	4184
2026-01-03 05:27:54.39	243.71	13.65	-35.6	-37.2	24.1	0.00e+00	0	53	0	76021760	43	4180
2026-01-03 05:27:55.40	243.49	13.75	-35.7	-37.4	23.9	0.00e+00	0	53	0	77070336	43	4288
2026-01-03 05:27:56.40	243.28	13.86	-35.9	-37.6	23.7	0.00e+00	0	53	0	78118912	43	4387
2026-01-03 05:27:57.41	243.06	13.97	-35.9	-37.7	23.7	0.00e+00	0	53	0	79167488	43	4409
2026-01-03 05:27:58.42	242.83	14.07	-36.0	-37.7	23.6	0.00e+00	0	53	0	80216064	43	4421
2026-01-03 05:27:59.43	242.61	14.18	-35.8	-37.5	23.8	0.00e+00	0	53	0	81788928	43	4340
2026-01-03 05:28:00.44	242.38	14.29	-35.7	-37.5	23.9	0.00e+00	0	53	0	82837504	43	4292
2026-01-03 05:28:01.45	242.15	14.40	-35.5	-37.2	24.1	0.00e+00	0	54	0	83886080	43	4175
2026-01-03 05:28:02.46	241.92	14.50	-35.4	-37.0	24.3	0.00e+00	0	54	0	84934656	42	4323
2026-01-03 05:28:03.47	241.69	14.61	-35.3	-36.9	24.4	0.00e+00	0	53	0	85983232	42	4269
2026-01-03 05:28:04.48	241.45	14.72	-35.2	-36.9	24.4	0.00e+00	0	53	0	87031808	42	4253
2026-01-03 05:28:05.49	241.21	14.83	-35.3	-36.9	24.4	0.00e+00	0	54	0	88604672	42	4287
2026-01-03 05:28:06.50	240.97	14.94	-35.1	-36.7	24.5	0.00e+00	0	54	0	89653248	42	4169
2026-01-03 05:28:07.51	240.73	15.05	-35.0	-36.5	24.7	0.00e+00	0	54	0	90701824	41	4337
2026-01-03 05:28:08.52	240.48	15.16	-34.8	-36.4	24.9	0.00e+00	0	54	0	91750400	41	4249
2026-01-03 05:28:09.53	240.24	15.27	-34.7	-36.3	25.0	0.00e+00	0	53	0	92798976	41	4204
2026-01-03 05:28:10.54	239.99	15.38	-34.8	-36.3	25.0	0.00e+00	0	54	0	93847552	41	4235
2026-01-03 05:28:11.55	239.74	15.49	-34.8	-36.3	25.0	0.00e+00	0	54	0	95420416	41	4241
2026-01-03 05:28:12.56	239.48	15.61	-34.8	-36.3	24.9	0.00e+00	0	54	0	96468992	41	4239
2026-01-03 05:28:13.57	239.23	15.72	-34.9	-36.4	24.9	0.00e+00	0	54	0	97517568	41	4274
2026-01-03 05:28:14.58	238.97	15.83	-34.9	-36.4	24.9	0.00e+00	0	54	0	98566144	41	4291
2026-01-03 05:28:15.59	238.70	15.94	-34.8	-36.4	24.9	0.00e+00	0	53	0	99614720	41	4259
2026-01-03 05:28:16.60	238.44	16.05	-34.6	-36.1	25.2	0.00e+00	0	54	0	100663296	41	4136
2026-01-03 05:28:17.61	238.17	16.17	-34.4	-35.9	25.4	0.00e+00	0	54	0	102236160	40	4273
2026-01-03 05:28:18.62	237.90	16.28	-34.4	-35.9	25.4	0.00e+00	0	54	0	103284736	40	4272
2026-01-03 05:28:19.63	237.63	16.39	-34.3	-35.8	25.5	0.00e+00	0	54	0	104333312	40	4214
2026-01-03 05:28:20.64	237.36	16.51	-34.4	-35.9	25.4	0.00e+00	0	54	0	105381888	40	4261
2026-01-03 05:28:21.65	237.08	16.62	-34.4	-35.9	25.4	0.00e+00	0	54	0	106430464	40	4291
2026-01-03 05:28:22.66	236.80	16.73	-34.5	-36.1	25.3	0.00e+00	0	54	0	107479040	40	4358
2026-01-03 05:28:23.67	236.52	16.85	-34.5	-36.0	25.3	0.00e+00	0	54	0	109051904	40	4312
2026-01-03 05:28:24.68	236.24	16.96	-34.4	-35.9	25.5	0.00e+00	0	54	0	110100480	40	4282
2026-01-03 05:28:25.68	235.95	17.07	-34.5	-36.0	25.3	0.00e+00	0	54	0	111149056	40	4336
2026-01-03 05:28:26.69	235.66	17.19	-34.4	-35.9	25.5	0.00e+00	0	54	0	112197632	40	4249
2026-01-03 05:28:27.70	235.37	17.30	-34.2	-35.6	25.7	0.00e+00	0	54	0	113246208	40	4140
2026-01-03 05:28:28.72	235.07	17.42	-34.1	-35.6	25.7	0.00e+00	0	54	0	114294784	40	4121
2026-01-03 05:28:29.73	234.77	17.53	-34.0	-35.5	25.9	0.00e+00	0	54	0	115867648	40	4067
2026-01-03 05:28:30.74	234.47	17.65	-34.1	-35.6	25.8	0.00e+00	0	54	0	116916224	40	4123
2026-01-03 05:28:31.75	234.17	17.76	-34.3	-35.8	25.6	0.00e+00	0	54	0	117964800	40	4212
2026-01-03 05:28:32.76	233.86	17.87	-34.3	-35.8	25.6	0.00e+00	0	54	0	119013376	40	4232
2026-01-03 05:28:33.76	233.55	17.99	-34.2	-35.7	25.7	0.00e+00	0	54	0	120061952	40	4160
2026-01-03 05:28:34.78	233.24	18.10	-34.0	-35.4	25.8	0.00e+00	0	54	0	121110528	40	4046
2026-01-03 05:28:35.79	232.92	18.22	-33.9	-35.3	26.0	0.00e+00	0	54	0	122683392	39	4220
2026-01-03 05:28:36.80	232.60	18.33	-34.0	-35.4	26.0	0.00e+00	0	54	0	123731968	39	4263
2026-01-03 05:28:37.81	232.28	18.45	-34.1	-35.6	25.8	0.00e+00	0	54	0	124780544	39	4346
2026-01-03 05:28:38.82	231.95	18.56	-34.3	-35.8	25.7	0.00e+00	0	54	0	125829120	39	4457
2026-01-03 05:28:39.83	231.63	18.68	-34.1	-35.6	25.8	0.00e+00	0	54	0	126877696	39	4376
2026-01-03 05:28:40.84	231.30	18.79	-33.8	-35.3	26.2	0.00e+00	0	54	0	127926272	39	4197
2026-01-03 05:28:41.85	230.96	18.91	-33.7	-35.1	26.3	0.00e+00	0	54	0	129499136	39	4105
2026-01-03 05:28:42.86	230.63	19.02	-33.6	-35.0	26.3	0.00e+00	0	54	0	130547712	39	4098
2026-01-03 05:28:43.87	230.29	19.13	-33.9	-35.3	26.1	0.00e+00	0	54	0	131596288	39	4239
2026-01-03 05:28:44.88	229.94	19.25	-34.1	-35.5	25.9	0.00e+00	0	54	0	132644864	39	4334
2026-01-03 05:28:45.89	229.60	19.36	-34.3	-35.7	25.7	0.00e+00	0	54	0	133693440	39	4440
2026-01-03 05:28:46.90	229.25	19.48	-34.1	-35.5	25.9	0.00e+00	0	54	0	134742016	39	4329
2026-01-03 05:28:47.91	228.89	19.59	-33.9	-35.3	26.2	0.00e+00	0	54	0	136314880	39	4215
2026-01-03 05:28:48.92	228.54	19.70	-33.8	-35.2	26.3	0.00e+00	0	54	0	137363456	39	4184
2026-01-03 05:28:49.93	228.18	19.81	-33.8	-35.2	26.3	0.00e+00	0	54	0	138412032	39	4177
2026-01-03 05:28:50.94	227.82	19.93	-33.8	-35.3	26.2	0.00e+00	0	54	0	139460608	39	4200
2026-01-03 05:28:51.95	227.45	20.04	-33.9	-35.3	26.1	0.00e+00	0	54	0	140509184	39	4215
2026-01-03 05:28:52.96	227.08	20.15	-33.7	-35.1	26.3	0.00e+00	0	54	0	141557760	39	4131
2026-01-03 05:28:53.97	226.71	20.26	-33.4	-34.8	26.6	0.00e+00	0	54	0	143130624	38	4225
2026-01-03 05:28:54.98	226.34	20.37	-33.5	-34.9	26.5	0.00e+00	0	54	0	144179200	38	4266
2026-01-03 05:28:55.99	225.96	20.48	-33.4	-34.8	26.6	0.00e+00	0	54	0	145227776	38	4219
2026-01-03 05:28:57.00	225.58	20.59	-33.6	-35.0	26.4	0.00e+00	0	54	0	146276352	38	4323
2026-01-03 05:28:58.01	225.19	20.70	-33.6	-35.0	26.5	0.00e+00	0	54	0	147324928	38	4330
2026-01-03 05:28:59.02	224.80	20.81	-33.7	-35.1	26.4	0.00e+00	0	54	0	148373504	38	4359
2026-01-03 05:29:00.02	224.42	20.92	-33.7	-35.1	26.4	0.00e+00	0	54	0	149946368	38	4353
2026-01-03 05:29:01.03	224.02	21.03	-33.7	-35.1	26.4	0.00e+00	0	54	0	150994944	38	4363
2026-01-03 05:29:02.04	223.62	21.13	-33.6	-35.0	26.4	0.00e+00	0	54	0	152043520	38	4338
2026-01-03 05:29:03.05	223.22	21.24	-33.7	-35.1	26.4	0.00e+00	0	54	0	153092096	38	4359
2026-01-03 05:29:04.06	222.82	21.35	-33.6	-35.0	26.5	0.00e+00	0	55	0	154140672	38	4297
2026-01-03 05:29:05.07	222.41	21.45	-33.6	-35.1	26.4	0.00e+00	0	54	0	155189248	38	4343
2026-01-03 05:29:06.08	222.00	21.55	-33.5	-34.9	26.6	0.00e+00	0	54	0	156762112	38	4265
2026-01-03 05:29:07.09	221.58	21.66	-33.2	-34.6	26.8	0.00e+00	0	55	0	157810688	38	4131
2026-01-03 05:29:08.10	221.17	21.76	-33.1	-34.4	27.0	0.00e+00	0	55	0	158859264	38	4045
2026-01-03 05:29:09.11	220.74	21.86	-33.1	-34.5	27.0	0.00e+00	0	55	0	159907840	38	4057
2026-01-03 05:29:10.12	220.32	21.96	-33.2	-34.6	26.9	0.00e+00	0	55	0	160956416	38	4105
2026-01-03 05:29:11.13	219.89	22.06	-33.4	-34.8	26.4	0.00e+00	0	54	0	162004992	38	4229
2026-01-03 05:29:12.14	219.46	22.16	-33.3	-34.7	26.8	0.00e+00	0	54	0	163577856	38	4155
2026-01-03 05:29:13.15	219.03	22.26	-33.5	-34.8	26.6	0.00e+00	0	55	0	164626432	38	4242
2026-01-03 05:29:14.16	218.59	22.36	-33.5	-34.9	26.6	0.00e+00	0	55	0	165675008	38	4265
2026-01-03 05:29:15.17	218.15	22.46	-33.4	-34.8	26.7	0.00e+00	0	55	0	166723584	38	4203
2026-01-03 05:29:16.18	217.71	22.55	-33.4	-34.8	26.7	0.00e+00	0	55	0	167772160	38	4205
2026-01-03 05:29:17.19	217.26	22.64	-33.4	-34.8	26.7	0.00e+00	0	54	0	168820736	38	4198
2026-01-03 05:29:18.20	216.81	22.74	-33.3	-34.7	26.8	0.00e+00	0	55	0	170393600	38	4188
2026-01-03 05:29:19.20	216.36	22.83	-33.2	-34.6	26.9	0.00e+00	0	55	0	171442176	38	4104
2026-01-03 05:29:20.21	215.90	22.92	-33.5	-34.9	26.6	0.00e+00	0	54	0	172490752	38	4276
2026-01-03 05:29:21.22	215.44	23.01	-33.3	-34.7	26.8	0.00e+00	0	55	0	173539328	38	4160
2026-01-03 05:29:22.23	214.98	23.09	-33.0	-34.4	27.0	0.00e+00	0	54	0	174587904	38	4015
2026-01-03 05:29:23.24	214.52	23.18	-33.1	-34.5	27.0	0.00e+00	0	55	0	175636480	37	4306
2026-01-03 05:29:24.25	214.05	23.26	-33.0	-34.4	27.0	0.00e+00	0	55	0	177209344	37	4267
2026-01-03 05:29:25.26	213.57	23.35	-33.0	-34.4	27.0	0.00e+00	0	55	0	178257920	37	4245
2026-01-03 05:29:26.27	213.10	23.43	-32.6	-34.0	27.4	0.00e+00	0	54	0	179306496	37	4053
2026-01-03 05:29:27.28	212.62	23.51	-33.0	-34.4	27.1	0.00e+00	0	55	0	180355072	37	4246
2026-01-03 05:29:28.29	212.14	23.59	-33.3	-34.7	26.8	0.00e+00	0	55	0	181403648	37	4410
2026-01-03 05:29:29.30	211.66	23.67	-32.9	-34.3	27.2	0.00e+00	0	55	0	182452224	37	4208
2026-01-03 05:29:30.31	211.17	23.74	-32.9	-34.2	27.2	0.00e+00	0	55	0	183500800	37	4184
2026-01-03 05:29:31.32	210.68	23.82	-33.1	-34.4	26.9	0.00e+00	0	55	0	185073664	37	4287
2026-01-03 05:29:32.33	210.19	23.89	-33.0	-34.4	27.1	0.00e+00	0	55	0	186122240	37	4261
2026-01-03 05:29:33.34	209.70	23.96	-32.6	-33.9	27.5	0.00e+00	0	55	0	187170816	37	4047
2026-01-03 05:29:34.35	209.20	24.03	-32.5	-33.8	27.6	0.00e+00	0	55	0	188219392	37	3992
2026-01-03 05:29:35.36	208.70	24.09	-32.7	-34.0	27.4	0.00e+00	0	55	0	189267968	37	4078
2026-01-03 05:29:36.36	208.21	24.16	-32.5	-33.8	27.5	0.00e+00	0	55	0	190840832	37	3998
2026-01-03 05:29:37.37	207.70	24.22	-32.5	-33.8	27.5	0.00e+00	0	55	0	191889408	37	3999
2026-01-03 05:29:38.38	207.20	24.28	-32.7	-34.1	27.2	0.00e+00	0	55	0	192937984	37	4109
2026-01-03 05:29:39.39	206.69	24.34	-32.5	-33.8	27.5	0.00e+00	0	55	0	193986560	36	4208
2026-01-03 05:29:40.40	206.18	24.40	-32.4	-33.7	27.7	0.00e+00	0	55	0	195035136	36	4151
2026-01-03 05:29:41.41	205.67	24.46	-32.6	-33.9	27.5	0.00e+00	0	55	0	196083712	36	4271
2026-01-03 05:29:42.42	205.15	24.51	-32.5	-33.8	27.5	0.00e+00	0	55	0	197656576	36	4235
2026-01-03 05:29:43.43	204.63	24.56	-32.4	-33.7	27.6	0.00e+00	0	55	0	198705152	36	4193
2026-01-03 05:29:44.44	204.12	24.61	-32.7	-34.0	27.4	0.00e+00	0	55	0	199753728	36	4338
2026-01-03 05:29:45.45	203.60	24.66	-32.6	-33.9	27.5	0.00e+00	0	55	0	200802304	36	4285
2026-01-03 05:29:46.46	203.07	24.70	-32.3	-33.7	27.7	0.00e+00	0	55	0	201850880	36	4148
2026-01-03 05:29:47.47	202.55	24.74	-32.4	-33.7	27.7	0.00e+00	0	55	0	202899456	36	4169
2026-01-03 05:29:48.48	202.02	24.79	-32.4	-33.7	27.6	0.00e+00	0	55	0	204472320	36	4185
2026-01-03 05:29:49.49	201.50	24.82	-32.3	-33.6	27.7	0.00e+00	0	55	0	205520896	36	4126
2026-01-03 05:29:50.50	200.97	24.86	-32.5	-33.8	27.6	0.00e+00	0	55	0	206569472	36	4228
2026-01-03 05:29:51.52	200.43	24.89	-32.5	-33.8	27.5	0.00e+00	0	55	0	207618048	36	4223
2026-01-03 05:29:52.52	199.91	24.92	-32.4	-33.7	27.7	0.00e+00	0	55	0	208666624	36	4176
2026-01-03 05:29:53.53	199.37	24.95	-32.6	-33.9	27.5	0.00e+00	0	55	0	209715200	36	4289
2026-01-03 05:29:54.54	198.84	24.98	-32.8	-34.2	27.3	0.00e+00	0	55	0	211288064	36	4393
2026-01-03 05:29:55.55	198.31	25.01	-32.7	-34.0	27.4	0.00e+00	0	55	0	212336640	36	4327
2026-01-03 05:29:56.56	197.77	25.03	-33.1	-34.5	27.0	0.00e+00	0	55	0	213385216	36	4553
2026-01-03 05:29:57.57	197.24	25.05	-33.0	-34.4	27.0	0.00e+00	0	55	0	214433792	36	4514
2026-01-03 05:29:58.58	196.70	25.06	-32.8	-34.1	27.3	0.00e+00	0	55	0	215482368	36	4368
2026-01-03 05:29:59.59	196.16	25.08	-32.7	-34.1	27.3	0.00e+00	0	55	0	216530944	36	4348
2026-01-03 05:30:00.60	195.62	25.09	-32.8	-34.1	27.3	0.00e+00	0	55	0	218103808	36	4365
2026-01-03 05:30:01.61	195.08	25.10	-32.6	-33.9	27.4	0.00e+00	0	55	0	219152384	36	4277
2026-01-03 05:30:02.62	194.55	25.11	-32.8	-34.2	27.0	0.00e+00	0	55	0	220200960	36	4394
2026-01-03 05:30:03.63	194.01	25.11	-33.0	-34.3	27.1	0.00e+00	0	55	0	221249536	36	4482
2026-01-03 05:30:04.64	193.47	25.12	-32.8	-34.1	27.2	0.00e+00	0	55	0	222298112	36	4386
2026-01-03 05:30:05.65	192.93	25.12	-32.8	-34.2	27.2	0.00e+00	0	55	0	223346688	36	4412
2026-01-03 05:30:06.66	192.39	25.12	-32.8	-34.1	27.2	0.00e+00	0	55	0	224395264	36	4374
2026-01-03 05:30:07.67	191.85	25.11	-32.5	-33.9	27.5	0.00e+00	0	55	0	225968128	36	4256
2026-01-03 05:30:08.68	191.31	25.10	-32.6	-33.9	27.5	0.00e+00	0	55	0	227016704	36	4270
2026-01-03 05:30:09.69	190.77	25.09	-33.0	-34.4	27.1	0.00e+00	0	55	0	228065280	36	4495
2026-01-03 05:30:10.70	190.23	25.08	-32.8	-34.1	27.3	0.00e+00	0	55	0	229113856	36	4369
2026-01-03 05:30:11.71	189.70	25.07	-32.8	-34.2	27.2	0.00e+00	0	55	0	230162432	36	4414
2026-01-03 05:30:12.72	189.16	25.05	-32.9	-34.2	27.1	0.00e+00	0	55	0	231735296	36	4436
2026-01-03 05:30:13.73	188.62	25.03	-32.5	-33.9	27.5	0.00e+00	0	55	0	232783872	36	4245
2026-01-03 05:30:14.74	188.09	25.01	-32.5	-33.8	27.5	0.00e+00	0	55	0	233832448	36	4204
2026-01-03 05:30:15.75	187.55	24.99	-32.8	-34.1	27.2	0.00e+00	0	55	0	234881024	36	4384
2026-01-03 05:30:16.76	187.02	24.96	-32.7	-34.1	27.3	0.00e+00	0	55	0	235929600	36	4342
2026-01-03 05:30:17.77	186.48	24.93	-32.6	-34.0	27.4	0.00e+00	0	55	0	236978176	36	4295
2026-01-03 05:30:18.78	185.95	24.90	-32.9	-34.3	27.1	0.00e+00	0	55	0	238551040	36	4448
2026-01-03 05:30:19.79	185.42	24.87	-32.7	-34.1	27.3	0.00e+00	0	55	0	239599616	36	4352
2026-01-03 05:30:20.80	184.89	24.83	-32.7	-34.1	27.3	0.00e+00	0	55	0	240648192	36	4348
2026-01-03 05:30:21.81	184.37	24.80	-32.9	-34.2	27.2	0.00e+00	0	55	0	241696768	36	4422
2026-01-03 05:30:22.82	183.84	24.76	-33.0	-34.4	27.0	0.00e+00	0	55	0	242745344	36	4500
2026-01-03 05:30:23.82	183.32	24.72	-33.1	-34.5	27.0	0.00e+00	0	55	0	243793920	36	4572
2026-01-03 05:30:24.83	182.80	24.67	-33.1	-34.5	26.9	0.00e+00	0	55	0	245366784	36	4558
2026-01-03 05:30:25.84	182.28	24.63	-32.7	-34.1	27.2	0.00e+00	0	55	0	246415360	36	4343
2026-01-03 05:30:26.85	181.76	24.58	-32.6	-33.9	27.3	0.00e+00	0	55	0	247463936	36	4286
2026-01-03 05:30:27.86	181.24	24.53	-32.6	-33.9	27.5	0.00e+00	0	55	0	248512512	36	4278
2026-01-03 05:30:28.87	180.72	24.47	-32.9	-34.2	27.1	0.00e+00	0	55	0	249561088	36	4434
2026-01-03 05:30:29.88	180.21	24.42	-32.7	-34.1	27.2	0.00e+00	0	55	0	250609664	36	4362
2026-01-03 05:30:30.89	179.70	24.36	-32.9	-34.2	27.2	0.00e+00	0	55	0	252182528	36	4436
2026-01-03 05:30:31.90	179.19	24.30	-32.9	-34.2	27.1	0.00e+00	0	55	0	253231104	36	4433
2026-01-03 05:30:32.91	178.68	24.24	-32.7	-34.0	27.3	0.00e+00	0	55	0	254279680	36	4331
2026-01-03 05:30:33.92	178.18	24.18	-32.6	-34.0	27.3	0.00e+00	0	55	0	255328256	36	4302
2026-01-03 05:30:34.93	177.68	24.12	-32.7	-34.0	27.3	0.00e+00	0	55	0	256376832	36	4335
2026-01-03 05:30:35.94	177.18	24.05	-32.7	-34.0	27.3	0.00e+00	0	55	0	257425408	36	4314
2026-01-03 05:30:36.95	176.68	23.98	-32.7	-34.0	27.4	0.00e+00	0	55	0	258998272	36	4329
2026-01-03 05:30:37.96	176.18	23.91	-32.6	-34.0	27.3	0.00e+00	0	55	0	260046848	36	4306
2026-01-03 05:30:38.97	175.69	23.84	-32.6	-33.9	27.3	0.00e+00	0	55	0	261095424	36	4275
2026-01-03 05:30:39.98	175.20	23.77	-32.6	-33.9	27.4	0.00e+00	0	55	0	262144000	36	4287
2026-01-03 05:30:40.99	174.72	23.69	-32.9	-34.3	27.1	0.00e+00	0	55	0	263192576	36	4478
2026-01-03 05:30:42.00	174.23	23.61	-33.2	-34.6	26.9	0.00e+00	0	55	0	264241152	37	4379
2026-01-03 05:30:43.00	173.76	23.54	-33.2	-34.7	26.9	0.00e+00	0	55	0	265289728	37	4398
2026-01-03 05:30:44.01	173.28	23.46	-33.0	-34.4	27.0	0.00e+00	0	55	0	266862592	37	4268
2026-01-03 05:30:45.02	172.80	23.37	-32.9	-34.3	27.1	0.00e+00	0	55	0	267911168	37	4204
2026-01-03 05:30:46.03	172.33	23.29	-32.8	-34.2	27.2	0.00e+00	0	55	0	268959744	37	4179
2026-01-03 05:30:47.04	171.86	23.21	-33.0	-34.4	27.1	0.00e+00	0	55	0	270008320	37	4250
2026-01-03 05:30:48.05	171.39	23.12	-32.8	-34.2	27.1	0.00e+00	0	55	0	271056896	37	4162
2026-01-03 05:30:49.06	170.93	23.03	-32.6	-34.0	27.3	0.00e+00	0	56	0	272629760	37	4059
2026-01-03 05:30:50.07	170.47	22.95	-32.7	-34.0	27.4	0.00e+00	0	55	0	273678336	37	4086
2026-01-03 05:30:51.08	170.01	22.86	-33.0	-34.4	27.0	0.00e+00	0	55	0	274726912	37	4271
2026-01-03 05:30:52.09	169.56	22.76	-33.4	-34.8	26.6	0.00e+00	0	55	0	275775488	37	4478
2026-01-03 05:30:53.10	169.10	22.67	-33.5	-35.0	26.5	0.00e+00	0	55	0	276824064	37	4565
2026-01-03 05:30:54.11	168.66	22.58	-33.7	-35.2	26.2	0.00e+00	0	55	0	277872640	38	4424
2026-01-03 05:30:55.12	168.21	22.48	-33.5	-34.9	26.7	0.00e+00	0	55	0	279445504	38	4281
2026-01-03 05:30:56.13	167.77	22.39	-33.6	-35.0	26.6	0.00e+00	0	55	0	280494080	38	4296
2026-01-03 05:30:57.14	167.33	22.29	-33.4	-34.8	26.8	0.00e+00	0	55	0	281542656	38	4223
2026-01-03 05:30:58.15	166.90	22.19	-33.3	-34.7	26.9	0.00e+00	0	55	0	282591232	38	4172
2026-01-03 05:30:59.16	166.46	22.09	-32.9	-34.3	27.1	0.00e+00	0	55	0	283639808	37	4222
2026-01-03 05:31:00.17	166.03	21.99	-32.9	-34.2	27.2	0.00e+00	0	55	0	284688384	37	4186
2026-01-03 05:31:01.18	165.61	21.89	-33.1	-34.4	27.1	0.00e+00	0	55	0	286261248	37	4286
2026-01-03 05:31:02.19	165.19	21.79	-33.5	-34.9	26.6	0.00e+00	0	55	0	287309824	37	4519
2026-01-03 05:31:03.20	164.77	21.69	-34.0	-35.5	26.1	0.00e+00	0	55	0	288358400	38	4578
2026-01-03 05:31:04.21	164.35	21.59	-33.8	-35.2	26.4	0.00e+00	0	55	0	289406976	38	4437
2026-01-03 05:31:05.22	163.94	21.48	-33.6	-35.1	26.5	0.00e+00	0	55	0	290455552	38	4347
2026-01-03 05:31:06.23	163.53	21.38	-33.3	-34.7	26.8	0.00e+00	0	55	0	291504128	38	4183
2026-01-03 05:31:07.24	163.12	21.27	-33.4	-34.8	26.7	0.00e+00	0	55	0	293076992	38	4234
2026-01-03 05:31:08.25	162.72	21.17	-33.4	-34.8	26.7	0.00e+00	0	55	0	294125568	38	4235
2026-01-03 05:31:09.26	162.32	21.06	-33.5	-34.9	26.7	0.00e+00	0	55	0	295174144	38	4265
2026-01-03 05:31:10.27	161.93	20.95	-33.5	-34.9	26.6	0.00e+00	0	55	0	296222720	38	4287
2026-01-03 05:31:11.28	161.53	20.84	-33.5	-34.9	26.7	0.00e+00	0	55	0	297271296	38	4275
2026-01-03 05:31:12.29	161.15	20.73	-33.7	-35.1	26.5	0.00e+00	0	55	0	298319872	38	4378
2026-01-03 05:31:13.29	160.76	20.63	-33.8	-35.3	26.3	0.00e+00	0	55	0	299892736	38	4448
2026-01-03 05:31:14.30	160.38	20.52	-34.0	-35.5	26.1	0.00e+00	0	55	0	300941312	38	4561
2026-01-03 05:31:15.31	160.00	20.41	-34.1	-35.5	26.1	0.00e+00	0	55	0	301989888	38	4593
2026-01-03 05:31:16.32	159.62	20.29	-33.8	-35.3	26.3	0.00e+00	0	55	0	303038464	38	4452
2026-01-03 05:31:17.33	159.25	20.18	-33.8	-35.3	26.3	0.00e+00	0	55	0	304087040	38	4443
2026-01-03 05:31:18.34	158.88	20.07	-33.8	-35.2	26.4	0.00e+00	0	56	0	305135616	38	4418
2026-01-03 05:31:19.35	158.52	19.96	-33.9	-35.3	26.3	0.00e+00	0	56	0	306184192	38	4480
2026-01-03 05:31:20.36	158.15	19.85	-34.0	-35.5	26.2	0.00e+00	0	56	0	307757056	38	4560
2026-01-03 05:31:21.37	157.79	19.74	-34.2	-35.7	25.9	0.00e+00	0	55	0	308805632	38	4654
2026-01-03 05:31:22.38	157.44	19.62	-34.0	-35.5	26.1	0.00e+00	0	55	0	309854208	38	4556
2026-01-03 05:31:23.39	157.08	19.51	-33.8	-35.3	26.3	0.00e+00	0	56	0	310902784	38	4467
2026-01-03 05:31:24.40	156.73	19.40	-34.1	-35.5	26.0	0.00e+00	0	55	0	311951360	38	4592
2026-01-03 05:31:25.40	156.39	19.28	-34.3	-35.8	25.8	0.00e+00	0	55	0	312999936	39	4442
2026-01-03 05:31:26.41	156.04	19.17	-34.3	-35.8	25.8	0.00e+00	0	56	0	314572800	39	4474
2026-01-03 05:31:27.42	155.70	19.06	-34.4	-35.9	25.7	0.00e+00	0	55	0	315621376	39	4542
2026-01-03 05:31:28.43	155.36	18.94	-34.3	-35.8	25.8	0.00e+00	0	56	0	316669952	39	4451
2026-01-03 05:31:29.44	155.03	18.83	-33.8	-35.3	26.3	0.00e+00	0	56	0	317718528	39	4201
2026-01-03 05:31:30.45	154.70	18.71	-33.8	-35.2	26.4	0.00e+00	0	56	0	318767104	39	4163
2026-01-03 05:31:31.46	154.37	18.60	-34.0	-35.5	26.1	0.00e+00	0	56	0	320339968	39	4296
2026-01-03 05:31:32.47	154.04	18.48	-34.3	-35.8	25.8	0.00e+00	0	56	0	321388544	39	4482
2026-01-03 05:31:33.48	153.72	18.37	-34.4	-36.0	25.7	0.00e+00	0	55	0	322437120	39	4553
2026-01-03 05:31:34.49	153.40	18.25	-34.5	-36.0	25.6	0.00e+00	0	56	0	323485696	39	4576
2026-01-03 05:31:35.50	153.08	18.14	-34.5	-36.0	25.6	0.00e+00	0	56	0	324534272	39	4555
2026-01-03 05:31:36.51	152.77	18.02	-34.4	-35.9	25.8	0.00e+00	0	56	0	325582848	39	4504
2026-01-03 05:31:37.52	152.46	17.91	-34.3	-35.8	25.8	0.00e+00	0	55	0	327155712	39	4458
2026-01-03 05:31:38.52	152.15	17.80	-34.4	-35.9	25.7	0.00e+00	0	56	0	328204288	39	4499
2026-01-03 05:31:39.53	151.85	17.68	-34.6	-36.1	25.5	0.00e+00	0	56	0	329252864	39	4641
2026-01-03 05:31:40.54	151.55	17.57	-34.6	-36.2	25.2	0.00e+00	0	55	0	330301440	40	4406
2026-01-03 05:31:41.55	151.25	17.45	-34.5	-36.0	25.5	0.00e+00	0	56	0	331350016	40	4320
2026-01-03 05:31:42.56	150.95	17.34	-34.4	-35.9	25.6	0.00e+00	0	56	0	332398592	40	4266
2026-01-03 05:31:43.57	150.66	17.22	-34.4	-35.9	25.5	0.00e+00	0	56	0	333971456	40	4278
2026-01-03 05:31:44.58	150.36	17.11	-34.5	-36.0	25.4	0.00e+00	0	55	0	335020032	40	4319
2026-01-03 05:31:45.59	150.08	17.00	-34.6	-36.2	25.3	0.00e+00	0	55	0	336068608	40	4413
2026-01-03 05:31:46.60	149.79	16.88	-34.7	-36.3	25.1	0.00e+00	0	56	0	337117184	40	4476
2026-01-03 05:31:47.61	149.51	16.77	-34.8	-36.4	25.0	0.00e+00	0	56	0	338165760	40	4498
2026-01-03 05:31:48.62	149.23	16.65	-34.8	-36.4	25.0	0.00e+00	0	56	0	339214336	40	4528
2026-01-03 05:31:49.63	148.95	16.54	-34.7	-36.3	25.1	0.00e+00	0	56	0	340787200	40	4478
2026-01-03 05:31:50.64	148.67	16.43	-35.0	-36.6	24.8	0.00e+00	0	56	0	341835776	40	4633
2026-01-03 05:31:51.65	148.40	16.31	-35.1	-36.7	24.7	0.00e+00	0	56	0	342884352	40	4693
2026-01-03 05:31:52.65	148.13	16.20	-35.1	-36.7	24.7	0.00e+00	0	56	0	343932928	40	4676
2026-01-03 05:31:53.66	147.87	16.09	-35.1	-36.7	24.8	0.00e+00	0	56	0	344981504	40	4662
2026-01-03 05:31:54.67	147.60	15.98	-34.9	-36.5	24.9	0.00e+00	0	56	0	346030080	40	4564
2026-01-03 05:31:55.68	147.34	15.87	-34.6	-36.2	25.2	0.00e+00	0	56	0	347078656	40	4400
2026-01-03 05:31:56.69	147.08	15.75	-34.4	-35.9	25.5	0.00e+00	0	55	0	348651520	40	4279
2026-01-03 05:31:57.70	146.82	15.64	-34.5	-36.0	25.3	0.00e+00	0	56	0	349700096	40	4335
2026-01-03 05:31:58.71	146.56	15.53	-34.7	-36.3	25.1	0.00e+00	0	55	0	350748672	40	4460
2026-01-03 05:31:59.72	146.31	15.42	-35.1	-36.7	24.7	0.00e+00	0	56	0	351797248	40	4683
2026-01-03 05:32:00.73	146.06	15.31	-35.4	-37.1	24.4	0.00e+00	0	55	0	352845824	41	4599
2026-01-03 05:32:01.74	145.81	15.20	-35.6	-37.3	24.1	0.00e+00	0	56	0	353894400	41	4715
2026-01-03 05:32:02.75	145.57	15.09	-35.5	-37.2	24.2	0.00e+00	0	56	0	355467264	41	4695
2026-01-03 05:32:03.76	145.32	14.98	-35.5	-37.1	24.2	0.00e+00	0	56	0	356515840	41	4650
2026-01-03 05:32:04.77	145.08	14.87	-35.4	-37.0	24.3	0.00e+00	0	56	0	357564416	41	4592
2026-01-03 05:32:05.78	144.84	14.76	-35.4	-37.0	24.3	0.00e+00	0	56	0	358612992	41	4584
2026-01-03 05:32:06.79	144.61	14.65	-35.5	-37.2	24.2	0.00e+00	0	55	0	359661568	41	4655
2026-01-03 05:32:07.80	144.37	14.54	-35.5	-37.2	24.1	0.00e+00	0	56	0	360710144	41	4669
2026-01-03 05:32:08.81	144.14	14.43	-35.5	-37.2	24.1	0.00e+00	0	56	0	362283008	41	4681
2026-01-03 05:32:09.82	143.91	14.32	-35.5	-37.2	24.1	0.00e+00	0	56	0	363331584	41	4677
2026-01-03 05:32:10.83	143.68	14.21	-35.5	-37.2	24.1	0.00e+00	0	56	0	364380160	41	4680
2026-01-03 05:32:11.84	143.46	14.11	-35.5	-37.2	24.1	0.00e+00	0	56	0	365428736	41	4657
2026-01-03 05:32:12.85	143.23	14.00	-35.5	-37.2	24.1	0.00e+00	0	56	0	366477312	41	4689
2026-01-03 05:32:13.86	143.01	13.89	-35.7	-37.4	23.9	0.00e+00	0	56	0	367525888	41	4771
2026-01-03 05:32:14.86	142.79	13.79	-35.9	-37.6	23.7	0.00e+00	0	56	0	369098752	42	4650
2026-01-03 05:32:15.87	142.58	13.68	-36.1	-37.9	23.5	0.00e+00	0	55	0	370147328	42	4760
2026-01-03 05:32:16.88	142.36	13.57	-36.1	-37.9	23.3	0.00e+00	0	56	0	371195904	42	4809
2026-01-03 05:32:17.89	142.15	13.47	-36.1	-37.8	23.4	0.00e+00	0	55	0	372244480	42	4754
2026-01-03 05:32:18.90	141.93	13.36	-35.8	-37.5	23.7	0.00e+00	0	56	0	373293056	42	4595
2026-01-03 05:32:19.91	141.72	13.26	-35.7	-37.5	23.7	0.00e+00	0	56	0	374865920	42	4556
2026-01-03 05:32:20.92	141.52	13.15	-35.9	-37.6	23.6	0.00e+00	0	55	0	375914496	42	4644
2026-01-03 05:32:21.93	141.31	13.05	-36.0	-37.8	23.5	0.00e+00	0	56	0	376963072	42	4726
2026-01-03 05:32:22.94	141.11	12.95	-35.9	-37.7	23.6	0.00e+00	0	55	0	378011648	42	4656
2026-01-03 05:32:23.95	140.90	12.84	-35.9	-37.7	23.5	0.00e+00	0	56	0	379060224	42	4680
2026-01-03 05:32:24.96	140.70	12.74	-36.0	-37.8	23.5	0.00e+00	0	56	0	380108800	42	4724
2026-01-03 05:32:25.97	140.51	12.64	-36.2	-38.0	23.2	0.00e+00	0	56	0	381681664	42	4828
2026-01-03 05:32:26.98	140.31	12.53	-36.4	-38.2	22.9	0.00e+00	0	56	0	382730240	43	4705
2026-01-03 05:32:27.99	140.11	12.43	-36.7	-38.6	22.6	0.00e+00	0	56	0	383778816	43	4896
2026-01-03 05:32:29.00	139.92	12.33	-37.1	-39.1	22.3	0.00e+00	0	56	0	384827392	44	4884
2026-01-03 05:32:30.01	139.73	12.23	-37.0	-39.1	22.3	0.00e+00	0	56	0	385875968	44	4878
2026-01-03 05:32:31.02	139.54	12.13	-36.8	-38.7	22.5	0.00e+00	0	56	0	386924544	44	4704
2026-01-03 05:32:32.03	139.35	12.03	-36.5	-38.4	22.8	0.00e+00	0	56	0	387973120	44	4531
2026-01-03 05:32:33.04	139.17	11.93	-36.4	-38.3	23.0	0.00e+00	0	56	0	389545984	44	4451
2026-01-03 05:32:34.05	138.98	11.83	-35.9	-37.7	22.9	0.00e+00	0	56	0	390594560	42	4661
2026-01-03 05:32:35.05	138.80	11.73	-36.1	-37.9	23.1	4.50e-06	0	56	0	391643136	42	4804
2026-01-03 05:32:36.06	138.62	11.63	-36.1	-38.0	23.0	0.00e+00	0	56	0	392691712	42	4825
2026-01-03 05:32:37.07	138.44	11.53	-36.6	-38.6	22.4	0.00e+00	0	56	0	393740288	43	4882
2026-01-03 05:32:38.08	138.26	11.43	-36.4	-38.4	22.5	0.00e+00	0	56	0	394788864	43	4780
2026-01-03 05:32:39.09	138.08	11.34	-37.1	-39.3	21.8	0.00e+00	0	56	0	396361728	44	4989
2026-01-03 05:32:40.10	137.91	11.24	-37.2	-39.3	21.5	0.00e+00	0	56	0	397410304	45	4750
2026-01-03 05:32:41.11	137.74	11.14	-37.3	-39.4	21.6	3.08e-04	0	56	0	398458880	45	4779
2026-01-03 05:32:42.12	137.56	11.04	-37.8	-40.1	20.8	1.10e-06	0	56	0	399507456	46	4908
2026-01-03 05:32:43.13	137.39	10.95	-37.5	-39.7	21.0	3.40e-06	0	56	0	400556032	45	4972
2026-01-03 05:32:44.14	137.22	10.85	-36.8	-38.8	21.8	3.40e-06	0	56	0	401604608	44	4750
2026-01-03 05:32:45.15	137.06	10.76	-36.5	-38.7	21.6	1.10e-06	0	56	0	403177472	43	4971
2026-01-03 05:32:46.16	136.89	10.66	-37.1	-39.5	20.6	5.40e-04	0	56	0	404226048	44	5113
2026-01-03 05:32:47.17	136.73	10.57	-36.7	-40.8	19.2	5.40e-04	0	56	0	405274624	46	5292
2026-01-03 05:32:48.18	136.56	10.47	-39.3	-42.7	17.2	2.51e-04	0	56	0	406323200	49	5530
2026-01-03 05:32:49.19	136.40	10.38	-40.7	-45.2	14.9	1.24e-03	0	56	0	407371776	51	6582
2026-01-03 05:32:50.20	136.24	10.28	-40.8	-46.7	12.7	1.24e-03	0	56	0	408420352	52	7450
2026-01-03 05:32:51.21	136.08	10.19	-41.1	-49.4	9.9	4.13e-03	0	56	0	409993216	53	9537
2026-01-03 05:32:52.21	135.93	10.10	-41.0	-51.1	7.6	8.33e-02	0	56	0	410517504	53	11652
2026-01-03 05:32:53.22	135.77	10.00	-40.9	-53.8	5.0	8.33e-02	0	56	0	411566080	52	16768
2026-01-03 05:32:54.23	135.61	9.91	-38.5	-54.6	4.7	4.41e-01	0	56	0	411566080	51	19567
2026-01-03 05:32:55.24	135.46	9.82	-35.1	-55.6	4.1	8.03e-01	0	56	104	411566080	47	27678
2026-01-03 05:32:56.25	135.31	9.73	-32.6	-51.3	4.2	8.35e-01	0	56	104	411566080	36	31496
2026-01-03 05:32:57.26	135.16	9.64	-32.7	-53.4	4.4	8.35e-01	0	56	104	411566080	39	34071
2026-01-03 05:32:58.27	135.01	9.55	-36.7	-55.1	4.3	8.30e-01	0	56	104	411566080	43	32769
2026-01-03 05:32:59.28	134.86	9.45	-33.0	-53.2	4.3	8.33e-01	0	56	0	411566080	39	32950
2026-01-03 05:33:00.29	134.71	9.36	-35.0	-56.2	4.1	8.33e-01	0	56	104	411566080	42	39378
2026-01-03 05:33:01.30	134.57	9.27	-26.8	-50.6	4.0	8.36e-01	0	56	104	411566080	27	48819
2026-01-03 05:33:02.31	134.42	9.18	-34.9	-56.6	4.0	8.22e-01	0	56	104	411566080	42	41220
2026-01-03 05:33:03.32	134.28	9.09	-25.3	-48.7	3.8	8.22e-01	0	56	104	411566080	23	49375
2026-01-03 05:33:04.33	134.14	9.01	-25.2	-46.7	3.6	8.23e-01	0	56	104	411566080	21	44316
2026-01-03 05:33:05.34	133.99	8.92	-22.9	-45.3	3.6	8.00e-01	0	56	104	411566080	19	41989
2026-01-03 05:33:06.35	133.85	8.83	-24.7	-46.3	3.5	8.00e-01	0	56	104	411566080	20	44882
2026-01-03 05:33:07.36	133.72	8.74	-24.1	-46.8	3.8	7.93e-01	0	56	104	411566080	22	41951
2026-01-03 05:33:08.37	133.58	8.65	-14.8	-44.1	3.4	8.03e-01	0	56	104	411566080	9	64955
2026-01-03 05:33:09.38	133.44	8.57	-25.6	-46.6	3.5	8.01e-01	0	56	104	411566080	14	65482
2026-01-03 05:33:10.40	133.30	8.48	-26.6	-43.9	3.6	8.01e-01	0	56	104	411566080	14	47834
2026-01-03 05:33:11.41	133.17	8.39	-27.3	-49.2	3.9	7.98e-01	0	56	104	411566080	25	46619
2026-01-03 05:33:12.42	133.04	8.31	-26.6	-48.4	3.9	8.16e-01	0	56	104	411566080	25	42823
2026-01-03 05:33:13.42	132.91	8.22	-24.3	-47.7	4.2	8.16e-01	0	56	104	411566080	22	46672
2026-01-03 05:33:14.43	132.77	8.13	-24.9	-48.3	4.3	8.08e-01	0	56	104	411566080	19	59583
2026-01-03 05:33:15.45	132.64	8.05	-22.4	-44.4	3.8	8.00e-01	0	56	104	411566080	15	48090
2026-01-03 05:33:16.45	132.52	7.96	-19.8	-42.0	3.4	8.00e-01	0	56	104	411566080	12	43203
2026-01-03 05:33:17.47	132.39	7.88	-37.0	-57.3	4.5	7.96e-01	0	56	104	411566080	39	52967
2026-01-03 05:33:18.48	132.26	7.79	-44.9	-62.9	3.8	8.04e-01	0	56	104	411566080	60	30345
2026-01-03 05:33:19.49	132.13	7.71	-45.1	-63.2	3.8	8.46e-01	0	56	104	411566080	60	31407
2026-01-03 05:33:20.50	132.01	7.63	-45.2	-63.4	3.9	8.46e-01	0	56	104	411566080	61	30151
2026-01-03 05:33:21.51	131.89	7.54	-45.3	-63.5	3.8	8.46e-01	0	56	104	411566080	61	30420
2026-01-03 05:33:22.52	131.76	7.46	-45.4	-63.6	3.8	8.46e-01	0	56	104	411566080	61	30859
2026-01-03 05:33:23.53	131.64	7.38	-45.5	-63.7	3.8	8.46e-01	0	56	104	411566080	61	31102
2026-01-03 05:33:24.54	131.52	7.29	-45.5	-63.7	3.8	8.46e-01	0	56	104	411566080	61	31308
2026-01-03 05:33:25.56	131.40	7.21	-45.6	-63.7	3.8	8.46e-01	0	56	104	411566080	61	31444
2026-01-03 05:33:26.57	131.28	7.13	-45.5	-63.7	3.8	8.46e-01	0	56	104	411566080	61	31326
2026-01-03 05:33:27.58	131.16	7.05	-45.4	-63.6	3.8	8.48e-01	0	56	104	411566080	61	31069
2026-01-03 05:33:28.59	131.04	6.97	-45.3	-63.6	3.8	8.47e-01	0	56	104	411566080	61	30748
2026-01-03 05:33:29.60	130.93	6.89	-45.3	-63.5	3.8	8.47e-01	0	56	104	411566080	61	30665
2026-01-03 05:33:30.61	130.81	6.81	-45.3	-63.5	3.8	8.46e-01	0	56	104	411566080	61	30544
2026-01-03 05:33:31.62	130.70	6.73	-45.3	-63.4	3.8	8.46e-01	0	56	104	411566080	61	30368
2026-01-03 05:33:32.63	130.58	6.65	-45.2	-63.4	3.8	8.46e-01	0	56	104	411566080	61	30187
2026-01-03 05:33:33.64	130.47	6.57	-45.3	-63.4	3.8	8.46e-01	0	56	104	411566080	61	30216
2026-01-03 05:33:34.65	130.36	6.49	-45.2	-63.4	3.8	8.46e-01	0	56	104	411566080	61	30159
2026-01-03 05:33:35.66	130.25	6.41	-45.2	-63.4	3.8	8.47e-01	0	56	104	411566080	61	30165
2026-01-03 05:33:36.67	130.14	6.33	-45.2	-63.4	3.8	8.47e-01	0	56	104	411566080	61	30186
2026-01-03 05:33:37.69	130.03	6.25	-45.2	-63.4	3.8	8.46e-01	0	56	104	411566080	61	30123
2026-01-03 05:33:38.70	129.92	6.17	-45.2	-63.4	3.8	8.47e-01	0	56	104	411566080	61	30171
2026-01-03 05:33:39.71	129.81	6.09	-45.2	-63.4	3.8	8.47e-01	0	56	104	411566080	61	30200
2026-01-03 05:33:40.72	129.70	6.01	-45.2	-63.4	3.8	8.46e-01	0	56	104	411566080	61	30090
2026-01-03 05:33:41.73	129.60	5.94	-45.2	-63.4	3.8	8.45e-01	0	56	104	411566080	61	30096
2026-01-03 05:33:42.74	129.49	5.86	-45.2	-63.4	3.8	8.45e-01	0	56	104	411566080	61	30183
2026-01-03 05:33:43.75	129.39	5.78	-45.2	-63.4	3.8	8.46e-01	0	56	104	411566080	61	30126
2026-01-03 05:33:44.76	129.28	5.71	-45.2	-63.4	3.8	8.47e-01	0	56	104	411566080	61	30099
2026-01-03 05:33:45.77	129.18	5.63	-45.2	-63.3	3.8	8.47e-01	0	56	104	411566080	61	30024
2026-01-03 05:33:46.79	129.08	5.55	-45.2	-63.4	3.8	8.47e-01	0	56	104	411566080	61	30050
2026-01-03 05:33:47.80	128.98	5.48	-45.2	-63.4	3.8	8.44e-01	0	56	104	411566080	61	30141
2026-01-03 05:33:48.81	128.88	5.40	-45.2	-63.4	3.8	8.47e-01	0	56	104	411566080	61	30068
2026-01-03 05:33:49.82	128.78	5.33	-45.2	-63.4	3.8	8.47e-01	0	56	104	411566080	61	30100
2026-01-03 05:33:50.83	128.68	5.25	-45.2	-63.4	3.8	8.45e-01	0	56	104	411566080	61	30051
2026-01-03 05:33:51.84	128.58	5.18	-45.2	-63.4	3.8	8.45e-01	0	56	104	411566080	61	30103
2026-01-03 05:33:52.85	128.48	5.10	-45.2	-63.4	3.8	8.45e-01	0	56	104	411566080	61	30116
2026-01-03 05:33:53.86	128.38	5.03	-45.2	-63.3	3.8	8.45e-01	0	56	104	411566080	61	29998
2026-01-03 05:33:54.88	128.29	4.95	-45.2	-63.3	3.8	8.46e-01	0	56	104	411566080	61	30020
2026-01-03 05:33:55.89	128.19	4.88	-45.2	-63.3	3.8	8.47e-01	0	56	104	411566080	61	29987
2026-01-03 05:33:56.90	128.10	4.81	-45.2	-63.3	3.8	8.47e-01	0	56	104	411566080	61	30012
2026-01-03 05:33:57.91	128.00	4.73	-45.2	-63.4	3.8	8.45e-01	0	56	104	411566080	61	30058
2026-01-03 05:33:58.92	127.91	4.66	-45.2	-63.4	3.8	8.45e-01	0	56	104	411566080	61	30034
2026-01-03 05:33:59.93	127.82	4.59	-45.2	-63.4	3.8	8.45e-01	0	56	104	411566080	61	30043
2026-01-03 05:34:00.94	127.72	4.51	-45.2	-63.4	3.8	8.47e-01	0	56	104	411566080	61	30048
2026-01-03 05:34:01.95	127.63	4.44	-45.2	-63.3	3.8	8.47e-01	0	56	104	411566080	61	29980
2026-01-03 05:34:02.96	127.54	4.37	-45.2	-63.3	3.8	8.47e-01	0	56	104	411566080	61	29973
2026-01-03 05:34:03.97	127.45	4.30	-45.2	-63.3	3.8	8.46e-01	0	56	104	411566080	61	30005
2026-01-03 05:34:04.99	127.36	4.22	-45.2	-63.3	3.8	8.46e-01	0	56	104	411566080	61	30029
2026-01-03 05:34:06.00	127.27	4.15	-45.2	-63.4	3.8	8.46e-01	0	56	104	411566080	61	30107
2026-01-03 05:34:07.01	127.18	4.08	-45.2	-63.3	3.8	8.47e-01	0	56	104	411566080	61	29971
2026-01-03 05:34:08.02	127.10	4.01	-45.2	-63.3	3.8	8.46e-01	0	56	104	411566080	61	29946
2026-01-03 05:34:09.03	127.01	3.94	-45.2	-63.3	3.8	8.47e-01	0	56	104	411566080	61	30023
2026-01-03 05:34:10.04	126.92	3.87	-45.2	-63.4	3.8	8.47e-01	0	56	104	411566080	61	30120
2026-01-03 05:34:11.05	126.84	3.80	-45.2	-63.3	3.8	8.46e-01	0	56	104	411566080	61	29962
2026-01-03 05:34:12.06	126.75	3.73	-45.2	-63.3	3.8	8.45e-01	0	56	104	411566080	61	29982
2026-01-03 05:34:13.07	126.67	3.66	-45.2	-63.3	3.8	8.45e-01	0	56	104	411566080	61	29957
2026-01-03 05:34:14.08	126.58	3.59	-45.2	-63.3	3.8	8.47e-01	0	56	104	411566080	61	30005
2026-01-03 05:34:15.09	126.50	3.52	-45.2	-63.3	3.8	8.47e-01	0	56	104	411566080	61	29957
2026-01-03 05:34:16.11	126.41	3.45	-45.2	-63.3	3.8	8.47e-01	0	56	104	411566080	61	29954
2026-01-03 05:34:17.12	126.33	3.38	-45.2	-63.4	3.8	8.46e-01	0	56	104	411566080	61	30057
2026-01-03 05:34:18.13	126.25	3.31	-45.2	-63.3	3.8	8.47e-01	0	56	104	411566080	61	29931
2026-01-03 05:34:19.14	126.17	3.25	-45.2	-63.3	3.8	8.47e-01	0	56	104	411566080	61	30030
2026-01-03 05:34:20.15	126.09	3.18	-45.2	-63.3	3.8	8.46e-01	0	56	104	411566080	61	29966
2026-01-03 05:34:21.16	126.01	3.11	-45.2	-63.3	3.8	8.46e-01	0	56	104	411566080	61	30023
2026-01-03 05:34:22.17	125.93	3.04	-45.2	-63.3	3.8	8.45e-01	0	56	104	411566080	61	30002
2026-01-03 05:34:23.18	125.85	2.97	-45.2	-63.3	3.8	8.45e-01	0	56	104	411566080	61	29946
2026-01-03 05:34:24.19	125.77	2.91	-45.2	-63.3	3.8	8.47e-01	0	56	104	411566080	61	29969
2026-01-03 05:34:25.21	125.69	2.84	-45.2	-63.3	3.8	8.46e-01	0	56	104	411566080	61	30024
2026-01-03 05:34:26.22	125.61	2.77	-45.2	-63.3	3.8	8.46e-01	0	56	104	411566080	61	29929
2026-01-03 05:34:27.23	125.54	2.70	-45.2	-63.3	3.8	8.46e-01	0	57	104	411566080	61	29985
2026-01-03 05:34:28.24	125.46	2.64	-45.2	-63.3	3.8	8.46e-01	0	56	104	411566080	61	29947
2026-01-03 05:34:29.25	125.38	2.57	-45.2	-63.3	3.8	8.46e-01	0	56	104	411566080	61	29933
2026-01-03 05:34:30.26	125.31	2.51	-45.2	-63.3	3.8	8.46e-01	0	57	104	411566080	61	29993
2026-01-03 05:34:31.27	125.23	2.44	-45.2	-63.3	3.8	8.46e-01	0	56	104	411566080	61	29981
2026-01-03 05:34:32.28	125.16	2.37	-45.2	-63.3	3.8	8.46e-01	0	56	104	411566080	61	29846
2026-01-03 05:34:33.30	125.08	2.31	-45.2	-63.3	3.8	8.46e-01	0	57	104	411566080	61	29902
2026-01-03 05:34:34.30	125.01	2.24	-45.2	-63.3	3.8	8.46e-01	0	56	104	411566080	61	29883
2026-01-03 05:34:35.32	124.94	2.18	-45.2	-63.3	3.8	8.47e-01	0	56	104	411566080	61	29921
2026-01-03 05:34:36.33	124.86	2.11	-45.1	-63.3	3.8	8.47e-01	0	56	104	411566080	61	29892
2026-01-03 05:34:37.34	124.79	2.05	-45.2	-63.3	3.8	8.46e-01	0	56	104	411566080	61	29899
2026-01-03 05:34:38.35	124.72	1.98	-45.2	-63.3	3.8	8.45e-01	0	56	104	411566080	61	29962

#Closed at: 2026-01-03 05:34:39
#Recorded file [411 MB]: D:/lorett/data/31039_260103_082531.dat