passes_logs/2026/01/03/R2.0S_Moscow/R2.0S_Moscow__20260103_110106_NOAA_21_JPSS-2_rec.log

#Pass ID: 20260103_110106_NOAA 21 (JPSS-2)
#Satellite: NOAA 21 (JPSS-2)
#Configuration: NOAA-21
#almurnet v.1.7.20251203
#Start time: 2026-01-03 11:02:54

#Version: 2.2.20231116
#Station: R2.0S_Moscow
#Location: 37.707566 lon 55.798166 lat
#TLE: 1 54234U 22150A   26002.25486487  .00000200  00000+0  11573-3 0  9993
#TLE: 2 54234  98.7485 303.3096 0001220 350.9074   9.2080 14.19531212163006

#Time	Az	El	Level	Level2	SNR	BER	BlckErr	Temp	State	Recorded	gain1	gain2
2026-01-03 11:02:54.46	200.48	9.16	-45.9	-64.8	3.8	7.46e-01	0	57	0	0	62	33405
2026-01-03 11:02:55.46	200.56	9.23	-45.1	-57.7	3.8	1.49e+00	0	57	104	0	62	14874
2026-01-03 11:02:56.47	200.65	9.31	-45.1	-57.7	3.8	1.49e+00	0	57	104	0	62	14827
2026-01-03 11:02:57.48	200.73	9.38	-45.1	-57.7	3.8	1.49e+00	0	57	104	0	62	14752
2026-01-03 11:02:58.49	200.82	9.46	-45.1	-57.6	3.8	1.49e+00	0	57	104	0	62	14654
2026-01-03 11:02:59.50	200.90	9.53	-45.0	-57.5	3.8	1.49e+00	0	57	104	0	62	14505
2026-01-03 11:03:00.51	200.99	9.61	-44.9	-57.4	3.8	1.49e+00	0	57	104	0	61	15183
2026-01-03 11:03:01.52	201.07	9.69	-44.8	-57.2	3.8	1.49e+00	0	57	104	0	61	14717
2026-01-03 11:03:02.53	201.16	9.76	-44.7	-57.2	3.8	1.49e+00	0	57	104	0	61	14783
2026-01-03 11:03:03.55	201.25	9.84	-44.5	-56.8	3.8	1.49e+00	0	57	104	0	61	14161
2026-01-03 11:03:04.56	201.34	9.92	-44.4	-56.7	3.8	1.49e+00	0	57	104	0	60	14768
2026-01-03 11:03:05.57	201.42	9.99	-44.4	-56.7	3.8	1.49e+00	0	57	104	0	60	14768
2026-01-03 11:03:06.58	201.51	10.07	-44.4	-56.8	3.8	1.49e+00	0	57	104	0	60	14942
2026-01-03 11:03:07.59	201.60	10.15	-44.5	-56.8	3.8	1.49e+00	0	57	104	0	60	15018
2026-01-03 11:03:08.60	201.69	10.23	-44.5	-56.9	3.8	1.49e+00	0	57	104	0	60	15108
2026-01-03 11:03:09.61	201.78	10.30	-44.5	-57.0	3.8	1.49e+00	0	57	104	0	60	15272
2026-01-03 11:03:10.62	201.87	10.38	-44.5	-57.0	3.8	1.49e+00	0	57	104	0	60	15246
2026-01-03 11:03:11.63	201.96	10.46	-44.4	-56.9	3.8	1.49e+00	0	57	104	0	60	15189
2026-01-03 11:03:12.65	202.06	10.54	-44.5	-56.9	3.8	1.49e+00	0	57	104	0	60	15054
2026-01-03 11:03:13.66	202.15	10.62	-44.4	-56.6	3.8	1.49e+00	0	57	104	0	60	14703
2026-01-03 11:03:14.67	202.24	10.70	-44.4	-56.4	3.8	1.49e+00	0	57	104	0	60	14329
2026-01-03 11:03:15.68	202.33	10.78	-44.4	-56.0	3.8	1.49e+00	0	57	104	0	60	13682
2026-01-03 11:03:16.69	202.43	10.86	-44.3	-55.6	3.8	1.49e+00	0	57	104	0	60	13052
2026-01-03 11:03:17.70	202.52	10.93	-44.3	-55.3	3.8	1.49e+00	0	57	104	0	60	12590
2026-01-03 11:03:18.71	202.62	11.01	-44.2	-54.9	3.9	1.49e+00	0	57	104	0	60	12045
2026-01-03 11:03:19.72	202.71	11.09	-44.2	-54.3	4.0	1.48e+00	0	57	104	0	60	11262
2026-01-03 11:03:20.73	202.81	11.17	-44.2	-54.6	3.8	1.48e+00	0	57	104	0	60	11676
2026-01-03 11:03:21.74	202.90	11.25	-44.2	-54.4	4.0	1.48e+00	0	57	104	0	60	11315
2026-01-03 11:03:22.76	203.00	11.34	-44.2	-55.0	3.8	1.48e+00	0	57	104	0	60	12147
2026-01-03 11:03:23.77	203.10	11.42	-44.3	-55.2	3.8	1.49e+00	0	57	104	0	60	12438
2026-01-03 11:03:24.78	203.19	11.50	-44.3	-55.6	3.8	1.49e+00	0	57	104	0	60	13078
2026-01-03 11:03:25.79	203.29	11.58	-44.3	-56.0	3.8	1.49e+00	0	57	104	0	60	13651
2026-01-03 11:03:26.80	203.39	11.66	-44.4	-56.2	3.8	1.49e+00	0	57	104	0	60	13961
2026-01-03 11:03:27.81	203.49	11.74	-44.4	-56.2	3.8	1.49e+00	0	57	104	0	60	13996
2026-01-03 11:03:28.82	203.59	11.82	-44.4	-56.1	3.8	1.49e+00	0	57	104	0	60	13859
2026-01-03 11:03:29.83	203.69	11.90	-44.3	-56.0	3.8	1.49e+00	0	57	104	0	60	13630
2026-01-03 11:03:30.84	203.79	11.98	-44.3	-55.9	3.8	1.49e+00	0	57	104	0	60	13473
2026-01-03 11:03:31.86	203.89	12.07	-44.3	-55.7	3.8	1.49e+00	0	57	104	0	60	13151
2026-01-03 11:03:32.87	203.99	12.15	-44.3	-55.4	3.8	1.49e+00	0	57	104	0	60	12725
2026-01-03 11:03:33.88	204.10	12.23	-44.2	-54.7	3.8	1.49e+00	0	57	104	0	60	11735
2026-01-03 11:03:34.89	204.20	12.31	-44.0	-53.0	4.3	1.46e+00	0	57	104	0	60	9702
2026-01-03 11:03:35.90	204.30	12.40	-43.8	-51.3	5.0	1.16e+00	0	57	0	0	59	8453
2026-01-03 11:03:36.91	204.41	12.48	-43.4	-49.5	6.2	3.91e-01	0	57	0	3145728	58	7238
2026-01-03 11:03:37.92	204.51	12.56	-42.8	-47.7	7.8	1.22e-01	0	57	0	6291456	57	6243
2026-01-03 11:03:38.93	204.61	12.65	-42.1	-46.2	9.4	2.34e-02	0	57	0	9437184	56	5531
2026-01-03 11:03:39.94	204.72	12.73	-41.2	-44.5	11.0	3.00e-03	0	57	0	12582912	54	5154
2026-01-03 11:03:40.95	204.83	12.82	-40.6	-43.4	12.1	6.10e-04	0	57	0	15728640	53	4807
2026-01-03 11:03:41.96	204.93	12.90	-39.9	-42.4	13.2	5.95e-05	0	57	0	18874368	51	4793
2026-01-03 11:03:42.97	205.04	12.98	-39.4	-41.6	14.1	2.20e-06	0	57	0	22020096	50	4600
2026-01-03 11:03:43.98	205.15	13.07	-38.9	-40.9	14.8	0.00e+00	0	57	0	25165824	49	4507
2026-01-03 11:03:44.99	205.26	13.15	-38.5	-40.4	15.2	0.00e+00	0	57	0	28311552	49	4272
2026-01-03 11:03:46.00	205.37	13.24	-38.3	-40.2	15.5	0.00e+00	0	57	0	31457280	48	4412
2026-01-03 11:03:47.02	205.48	13.32	-38.3	-40.1	15.5	0.00e+00	0	57	0	34603008	48	4370
2026-01-03 11:03:48.03	205.59	13.41	-38.4	-40.3	15.4	0.00e+00	0	57	0	37748736	48	4444
2026-01-03 11:03:49.03	205.70	13.49	-43.4	-49.0	6.6	4.34e-03	0	57	0	40894464	57	7278
2026-01-03 11:03:50.04	205.81	13.58	-43.8	-51.3	5.0	1.61e-02	0	57	0	44040192	58	8950
2026-01-03 11:03:51.05	205.92	13.66	-40.3	-42.9	12.9	1.50e-06	0	57	0	47185920	51	5071
2026-01-03 11:03:52.06	206.03	13.75	-40.0	-42.3	13.3	9.90e-06	0	57	0	50331648	50	5040
2026-01-03 11:03:53.07	206.15	13.84	-41.5	-45.0	10.3	5.65e-04	0	57	0	53477376	53	5785
2026-01-03 11:03:54.08	206.26	13.92	-38.0	-39.8	15.9	0.00e+00	0	57	0	56623104	48	4194
2026-01-03 11:03:55.09	206.38	14.01	-38.0	-39.7	15.9	0.00e+00	0	57	0	59768832	48	4180
2026-01-03 11:03:56.10	206.49	14.10	-37.9	-39.7	15.9	0.00e+00	0	57	0	62914560	47	4414
2026-01-03 11:03:57.11	206.61	14.18	-38.0	-39.7	15.9	0.00e+00	0	57	0	66060288	47	4441
2026-01-03 11:03:58.12	206.73	14.27	-37.9	-39.7	15.9	0.00e+00	0	57	0	69206016	47	4412
2026-01-03 11:03:59.12	206.84	14.36	-37.9	-39.7	15.9	0.00e+00	0	57	0	72351744	47	4413
2026-01-03 11:04:00.13	206.96	14.45	-37.9	-39.7	15.9	0.00e+00	0	57	0	75497472	47	4423
2026-01-03 11:04:01.15	207.08	14.54	-37.9	-39.7	15.9	0.00e+00	0	57	0	78643200	47	4413
2026-01-03 11:04:02.16	207.20	14.62	-37.9	-39.7	15.9	0.00e+00	0	57	0	81788928	47	4415
2026-01-03 11:04:03.17	207.32	14.71	-37.9	-39.7	16.0	0.00e+00	0	57	0	84934656	47	4418
2026-01-03 11:04:04.18	207.44	14.80	-38.0	-39.8	15.9	0.00e+00	0	57	0	88080384	47	4460
2026-01-03 11:04:05.19	207.56	14.89	-38.0	-39.7	15.9	0.00e+00	0	57	0	91226112	47	4436
2026-01-03 11:04:06.20	207.68	14.98	-38.0	-39.7	16.0	0.00e+00	0	57	0	94371840	47	4428
2026-01-03 11:04:07.20	207.81	15.07	-38.0	-39.7	16.0	0.00e+00	0	57	0	97517568	47	4420
2026-01-03 11:04:08.21	207.93	15.16	-38.0	-39.8	15.9	0.00e+00	0	57	0	100663296	47	4479
2026-01-03 11:04:09.23	208.05	15.25	-38.0	-39.8	15.9	0.00e+00	0	57	0	103809024	47	4480
2026-01-03 11:04:10.23	208.18	15.34	-38.0	-39.8	15.9	0.00e+00	0	57	0	106954752	47	4462
2026-01-03 11:04:11.24	208.30	15.43	-38.0	-39.8	16.0	0.00e+00	0	57	0	110100480	47	4459
2026-01-03 11:04:12.25	208.43	15.52	-38.1	-39.9	15.8	0.00e+00	0	57	0	113246208	47	4519
2026-01-03 11:04:13.26	208.56	15.61	-38.2	-40.0	15.8	0.00e+00	0	57	0	116391936	47	4570
2026-01-03 11:04:14.28	208.69	15.70	-38.2	-40.0	15.8	0.00e+00	0	57	0	119537664	47	4554
2026-01-03 11:04:15.28	208.82	15.79	-38.2	-40.0	15.8	0.00e+00	0	57	0	122683392	47	4553
2026-01-03 11:04:16.29	208.95	15.88	-38.2	-40.1	15.7	0.00e+00	0	57	0	125829120	47	4600
2026-01-03 11:04:17.30	209.08	15.97	-38.2	-39.9	15.8	0.00e+00	0	57	0	128974848	47	4544
2026-01-03 11:04:18.31	209.21	16.06	-38.2	-40.0	15.8	0.00e+00	0	57	0	132120576	47	4551
2026-01-03 11:04:19.32	209.34	16.15	-38.2	-40.0	15.8	0.00e+00	0	57	0	135266304	47	4554
2026-01-03 11:04:20.33	209.47	16.24	-38.1	-39.9	15.9	0.00e+00	0	57	0	138412032	47	4534
2026-01-03 11:04:21.34	209.60	16.34	-38.2	-40.0	15.8	0.00e+00	0	57	0	141557760	47	4558
2026-01-03 11:04:22.35	209.74	16.43	-38.2	-40.0	15.8	0.00e+00	0	57	0	144703488	47	4555
2026-01-03 11:04:23.36	209.87	16.52	-38.2	-40.0	15.8	0.00e+00	0	57	0	147849216	47	4557
2026-01-03 11:04:24.37	210.01	16.61	-38.1	-39.9	15.9	0.00e+00	0	57	0	150994944	47	4522
2026-01-03 11:04:25.38	210.15	16.71	-38.2	-40.0	15.8	0.00e+00	0	57	0	154140672	47	4548
2026-01-03 11:04:26.39	210.28	16.80	-38.2	-40.0	15.8	0.00e+00	0	57	0	157286400	47	4589
2026-01-03 11:04:27.40	210.42	16.89	-38.3	-40.1	15.7	0.00e+00	0	57	0	160432128	47	4607
2026-01-03 11:04:28.41	210.56	16.99	-38.1	-39.8	16.0	0.00e+00	0	57	0	163577856	47	4491
2026-01-03 11:04:29.42	210.70	17.08	-38.1	-39.9	15.9	0.00e+00	0	57	0	166723584	47	4498
2026-01-03 11:04:30.43	210.84	17.17	-38.1	-39.9	15.9	0.00e+00	0	57	0	169869312	47	4521
2026-01-03 11:04:31.43	210.98	17.27	-38.1	-39.8	16.0	0.00e+00	0	57	0	173015040	47	4487
2026-01-03 11:04:32.44	211.13	17.36	-38.1	-39.9	16.0	0.00e+00	0	57	0	176160768	47	4500
2026-01-03 11:04:33.45	211.27	17.46	-38.0	-39.7	16.1	0.00e+00	0	57	0	179306496	47	4413
2026-01-03 11:04:34.46	211.41	17.55	-38.0	-39.7	16.1	0.00e+00	0	57	0	182452224	47	4412
2026-01-03 11:04:35.47	211.56	17.65	-38.0	-39.7	16.1	0.00e+00	0	57	0	185597952	47	4422
2026-01-03 11:04:36.48	211.70	17.74	-38.0	-39.7	16.1	0.00e+00	0	57	0	188743680	47	4412
2026-01-03 11:04:37.49	211.85	17.84	-37.9	-39.5	16.3	0.00e+00	0	57	0	191889408	47	4337
2026-01-03 11:04:38.50	212.00	17.93	-37.8	-39.5	16.3	0.00e+00	0	57	0	195035136	47	4321
2026-01-03 11:04:39.51	212.15	18.03	-37.8	-39.5	16.3	0.00e+00	0	57	0	198180864	47	4296
2026-01-03 11:04:40.52	212.30	18.12	-37.8	-39.5	16.3	0.00e+00	0	57	0	201326592	47	4311
2026-01-03 11:04:41.53	212.45	18.22	-37.8	-39.5	16.3	0.00e+00	0	57	0	204472320	47	4328
2026-01-03 11:04:42.54	212.60	18.31	-37.7	-39.4	16.4	0.00e+00	0	57	0	207618048	47	4264
2026-01-03 11:04:43.55	212.75	18.41	-37.8	-39.5	16.4	0.00e+00	0	57	0	210763776	47	4292
2026-01-03 11:04:44.56	212.91	18.51	-37.7	-39.4	16.4	0.00e+00	0	57	0	213909504	47	4271
2026-01-03 11:04:45.57	213.06	18.60	-37.7	-39.3	16.5	0.00e+00	0	57	0	217055232	47	4241
2026-01-03 11:04:46.58	213.22	18.70	-37.6	-39.3	16.6	0.00e+00	0	57	0	220200960	47	4212
2026-01-03 11:04:47.59	213.37	18.80	-37.6	-39.3	16.6	0.00e+00	0	57	0	223346688	47	4203
2026-01-03 11:04:48.60	213.53	18.89	-37.6	-39.3	16.6	0.00e+00	0	57	0	226492416	47	4194
2026-01-03 11:04:49.61	213.69	18.99	-37.6	-39.3	16.6	0.00e+00	0	57	0	229638144	47	4205
2026-01-03 11:04:50.61	213.84	19.09	-37.6	-39.2	16.6	0.00e+00	0	57	0	232783872	47	4178
2026-01-03 11:04:51.62	214.01	19.19	-37.6	-39.3	16.6	0.00e+00	0	57	0	235929600	47	4195
2026-01-03 11:04:52.63	214.17	19.28	-37.7	-39.4	16.5	0.00e+00	0	57	0	239075328	47	4248
2026-01-03 11:04:53.64	214.33	19.38	-37.7	-39.3	16.5	0.00e+00	0	57	0	242221056	47	4231
2026-01-03 11:04:54.65	214.49	19.48	-37.7	-39.3	16.5	0.00e+00	0	57	0	245366784	47	4236
2026-01-03 11:04:55.66	214.66	19.58	-37.7	-39.4	16.5	0.00e+00	0	57	0	248512512	47	4262
2026-01-03 11:04:56.67	214.82	19.68	-37.7	-39.4	16.5	0.00e+00	0	57	0	251658240	47	4248
2026-01-03 11:04:57.68	214.99	19.78	-37.6	-39.2	16.7	0.00e+00	0	57	0	254803968	47	4159
2026-01-03 11:04:58.69	215.15	19.87	-37.6	-39.2	16.7	0.00e+00	0	57	0	257949696	47	4163
2026-01-03 11:04:59.70	215.32	19.97	-37.5	-39.1	16.8	0.00e+00	0	57	0	261095424	46	4373
2026-01-03 11:05:00.71	215.49	20.07	-37.4	-39.0	16.9	0.00e+00	0	57	0	265289728	46	4303
2026-01-03 11:05:01.72	215.66	20.17	-37.3	-38.9	17.0	0.00e+00	0	57	0	267386880	46	4261
2026-01-03 11:05:02.72	215.83	20.27	-37.4	-38.9	16.9	0.00e+00	0	57	0	270532608	46	4272
2026-01-03 11:05:03.74	216.01	20.37	-37.2	-38.8	17.1	0.00e+00	0	57	0	273678336	46	4204
2026-01-03 11:05:04.75	216.18	20.47	-37.3	-38.8	17.1	0.00e+00	0	57	0	276824064	46	4201
2026-01-03 11:05:05.76	216.36	20.57	-37.3	-38.8	17.1	0.00e+00	0	57	0	279969792	46	4210
2026-01-03 11:05:06.77	216.53	20.67	-37.3	-38.8	17.1	0.00e+00	0	57	0	284164096	46	4207
2026-01-03 11:05:07.77	216.71	20.77	-37.3	-38.8	17.1	0.00e+00	0	57	0	287309824	46	4228
2026-01-03 11:05:08.78	216.89	20.87	-37.2	-38.7	17.2	0.00e+00	0	57	0	289406976	46	4167
2026-01-03 11:05:09.79	217.07	20.97	-37.2	-38.8	17.1	0.00e+00	0	57	0	292552704	46	4199
2026-01-03 11:05:10.80	217.25	21.07	-37.2	-38.7	17.2	0.00e+00	0	57	0	295698432	46	4166
2026-01-03 11:05:11.81	217.43	21.17	-37.1	-38.6	17.3	0.00e+00	0	57	0	299892736	46	4117
2026-01-03 11:05:12.82	217.61	21.27	-37.0	-38.5	17.4	0.00e+00	0	57	0	303038464	46	4085
2026-01-03 11:05:13.83	217.79	21.37	-37.0	-38.5	17.4	0.00e+00	0	57	0	306184192	46	4088
2026-01-03 11:05:14.84	217.98	21.47	-36.9	-38.4	17.5	0.00e+00	0	57	0	309329920	45	4262
2026-01-03 11:05:15.85	218.17	21.57	-36.9	-38.4	17.5	0.00e+00	0	57	0	312475648	45	4260
2026-01-03 11:05:16.86	218.35	21.68	-37.0	-38.4	17.4	0.00e+00	0	57	0	315621376	45	4288
2026-01-03 11:05:17.87	218.54	21.78	-36.9	-38.4	17.5	0.00e+00	0	57	0	318767104	45	4246
2026-01-03 11:05:18.88	218.73	21.88	-36.8	-38.3	17.6	0.00e+00	0	57	0	321912832	45	4201
2026-01-03 11:05:19.89	218.92	21.98	-36.7	-38.2	17.7	0.00e+00	0	57	0	325058560	45	4151
2026-01-03 11:05:20.90	219.12	22.08	-36.7	-38.2	17.7	0.00e+00	0	57	0	328204288	45	4150
2026-01-03 11:05:21.91	219.31	22.18	-36.7	-38.1	17.8	0.00e+00	0	57	0	331350016	45	4123
2026-01-03 11:05:22.92	219.50	22.28	-36.6	-38.1	17.8	0.00e+00	0	57	0	334495744	45	4106
2026-01-03 11:05:23.93	219.70	22.39	-36.6	-38.0	17.8	0.00e+00	0	57	0	337641472	45	4095
2026-01-03 11:05:24.94	219.90	22.49	-36.6	-38.1	17.8	0.00e+00	0	57	0	340787200	45	4103
2026-01-03 11:05:25.95	220.10	22.59	-36.6	-38.0	17.9	0.00e+00	0	57	0	343932928	45	4058
2026-01-03 11:05:26.96	220.30	22.69	-36.6	-38.0	17.9	0.00e+00	0	57	0	347078656	45	4077
2026-01-03 11:05:27.97	220.50	22.79	-36.6	-38.0	17.9	0.00e+00	0	57	0	350224384	45	4069
2026-01-03 11:05:28.98	220.70	22.90	-36.6	-38.0	17.9	0.00e+00	0	57	0	353370112	45	4090
2026-01-03 11:05:29.99	220.90	23.00	-36.6	-38.0	17.9	0.00e+00	0	57	0	356515840	45	4087
2026-01-03 11:05:31.00	221.11	23.10	-36.6	-38.0	17.8	0.00e+00	0	57	0	359661568	45	4094
2026-01-03 11:05:32.00	221.31	23.20	-36.6	-38.0	17.8	0.00e+00	0	57	0	362807296	45	4093
2026-01-03 11:05:33.01	221.52	23.30	-36.6	-38.0	17.9	0.00e+00	0	57	0	365953024	45	4070
2026-01-03 11:05:34.02	221.73	23.40	-36.6	-38.0	17.9	0.00e+00	0	57	0	369098752	45	4064
2026-01-03 11:05:35.03	221.94	23.51	-36.7	-38.1	17.8	0.00e+00	0	57	0	372244480	45	4116
2026-01-03 11:05:36.04	222.15	23.61	-36.6	-38.0	17.9	0.00e+00	0	57	0	375390208	45	4085
2026-01-03 11:05:37.05	222.36	23.71	-36.6	-38.0	17.9	0.00e+00	0	57	0	378535936	45	4074
2026-01-03 11:05:38.06	222.58	23.81	-36.6	-38.0	17.9	0.00e+00	0	57	0	381681664	45	4061
2026-01-03 11:05:39.07	222.79	23.92	-36.5	-37.9	18.0	0.00e+00	0	57	0	384827392	45	4033
2026-01-03 11:05:40.08	223.01	24.02	-36.6	-38.0	17.9	0.00e+00	0	57	0	387973120	45	4056
2026-01-03 11:05:41.09	223.23	24.12	-36.6	-38.0	17.9	0.00e+00	0	57	0	391118848	45	4080
2026-01-03 11:05:42.10	223.45	24.22	-36.7	-38.1	17.8	0.00e+00	0	57	0	394264576	45	4137
2026-01-03 11:05:43.11	223.67	24.32	-36.8	-38.2	17.7	0.00e+00	0	57	0	397410304	45	4169
2026-01-03 11:05:44.12	223.89	24.43	-36.8	-38.2	17.7	0.00e+00	0	57	0	400556032	45	4180
2026-01-03 11:05:45.13	224.12	24.53	-36.9	-38.3	17.6	0.00e+00	0	57	0	403701760	45	4241
2026-01-03 11:05:46.14	224.34	24.63	-36.9	-38.3	17.6	0.00e+00	0	57	0	406847488	45	4229
2026-01-03 11:05:47.15	224.57	24.73	-36.9	-38.3	17.6	0.00e+00	0	57	0	409993216	45	4219
2026-01-03 11:05:48.16	224.80	24.83	-36.8	-38.2	17.7	0.00e+00	0	57	0	413138944	45	4192
2026-01-03 11:05:49.17	225.03	24.93	-36.8	-38.2	17.7	0.00e+00	0	57	0	416284672	45	4189
2026-01-03 11:05:50.18	225.26	25.04	-36.8	-38.3	17.7	0.00e+00	0	57	0	419430400	45	4196
2026-01-03 11:05:51.19	225.49	25.14	-36.8	-38.3	17.7	0.00e+00	0	57	0	422576128	45	4201
2026-01-03 11:05:52.20	225.73	25.24	-37.0	-38.4	17.5	0.00e+00	0	57	0	425721856	45	4285
2026-01-03 11:05:53.21	225.96	25.34	-37.1	-38.6	17.4	0.00e+00	0	57	0	428867584	45	4342
2026-01-03 11:05:54.22	226.20	25.44	-37.1	-38.7	17.3	0.00e+00	0	57	0	432013312	45	4392
2026-01-03 11:05:55.23	226.44	25.54	-37.2	-38.7	17.2	0.00e+00	0	57	0	435159040	45	4423
2026-01-03 11:05:56.24	226.68	25.64	-37.3	-38.9	17.1	0.00e+00	0	57	0	438304768	45	4501
2026-01-03 11:05:57.25	226.92	25.74	-37.4	-38.9	17.0	0.00e+00	0	57	0	441450496	45	4545
2026-01-03 11:05:58.26	227.16	25.84	-37.4	-39.0	17.0	0.00e+00	0	57	0	444596224	45	4561
2026-01-03 11:05:59.27	227.41	25.94	-37.4	-39.0	16.9	0.00e+00	0	57	0	447741952	45	4580
2026-01-03 11:06:00.28	227.65	26.04	-37.5	-39.1	16.9	0.00e+00	0	57	0	450887680	45	4610
2026-01-03 11:06:01.29	227.90	26.14	-37.4	-39.0	17.0	0.00e+00	0	57	0	454033408	45	4576
2026-01-03 11:06:02.31	228.15	26.25	-37.4	-38.9	17.0	0.00e+00	0	57	0	457179136	45	4540
2026-01-03 11:06:03.32	228.40	26.35	-37.3	-38.9	17.1	0.00e+00	0	57	0	460324864	45	4503
2026-01-03 11:06:04.33	228.66	26.44	-37.3	-38.8	17.2	0.00e+00	0	57	0	463470592	45	4478
2026-01-03 11:06:05.34	228.91	26.54	-37.3	-38.8	17.2	0.00e+00	0	57	0	466616320	45	4476
2026-01-03 11:06:06.35	229.17	26.64	-37.3	-38.8	17.2	0.00e+00	0	57	0	469762048	45	4485
2026-01-03 11:06:07.36	229.42	26.74	-37.4	-38.9	17.1	0.00e+00	0	57	0	472907776	45	4527
2026-01-03 11:06:08.37	229.68	26.84	-37.3	-38.9	17.1	0.00e+00	0	57	0	476053504	45	4494
2026-01-03 11:06:09.37	229.94	26.94	-37.3	-38.9	17.1	0.00e+00	0	57	0	479199232	45	4494
2026-01-03 11:06:10.38	230.20	27.04	-37.3	-38.9	17.1	0.00e+00	0	57	0	482344960	45	4507
2026-01-03 11:06:11.39	230.46	27.13	-37.4	-39.0	17.0	0.00e+00	0	57	0	485490688	45	4552
2026-01-03 11:06:12.40	230.73	27.23	-37.5	-39.1	16.9	0.00e+00	0	57	0	488636416	45	4614
2026-01-03 11:06:13.41	231.00	27.33	-37.6	-39.1	16.9	0.00e+00	0	57	0	491782144	45	4651
2026-01-03 11:06:14.42	231.26	27.42	-37.7	-39.3	16.7	0.00e+00	0	57	0	494927872	45	4741
2026-01-03 11:06:15.43	231.53	27.52	-37.7	-39.3	16.7	0.00e+00	0	57	0	498073600	45	4723
2026-01-03 11:06:16.44	231.80	27.62	-37.7	-39.3	16.8	0.00e+00	0	57	0	501219328	45	4709
2026-01-03 11:06:17.45	232.08	27.71	-37.5	-39.1	17.0	0.00e+00	0	57	0	504365056	45	4605
2026-01-03 11:06:18.46	232.35	27.81	-37.4	-39.0	17.0	0.00e+00	0	57	0	507510784	45	4562
2026-01-03 11:06:19.47	232.63	27.90	-37.3	-38.9	17.1	0.00e+00	0	57	0	510656512	45	4515
2026-01-03 11:06:20.48	232.90	28.00	-37.4	-38.9	17.1	0.00e+00	0	57	0	513802240	45	4510
2026-01-03 11:06:21.49	233.18	28.09	-37.4	-38.9	17.1	0.00e+00	0	56	0	516947968	45	4528
2026-01-03 11:06:22.51	233.47	28.19	-37.4	-38.9	17.0	0.00e+00	0	57	0	520093696	45	4545
2026-01-03 11:06:23.52	233.75	28.28	-37.5	-39.0	17.0	0.00e+00	0	57	0	523239424	45	4587
2026-01-03 11:06:24.52	234.03	28.37	-37.6	-39.1	16.9	0.00e+00	0	57	0	526385152	45	4641
2026-01-03 11:06:25.53	234.32	28.46	-37.6	-39.2	16.8	0.00e+00	0	57	0	529530880	45	4668
2026-01-03 11:06:26.54	234.60	28.56	-37.6	-39.2	16.8	0.00e+00	0	57	0	532676608	45	4694
2026-01-03 11:06:27.55	234.89	28.65	-37.7	-39.3	16.7	0.00e+00	0	57	0	535822336	45	4719
2026-01-03 11:06:28.56	235.18	28.74	-37.6	-39.2	16.8	0.00e+00	0	57	0	538968064	45	4701
2026-01-03 11:06:29.57	235.48	28.83	-37.7	-39.3	16.8	0.00e+00	0	57	0	542113792	45	4713
2026-01-03 11:06:30.58	235.77	28.92	-37.7	-39.3	16.7	0.00e+00	0	57	0	545259520	46	4466
2026-01-03 11:06:31.59	236.06	29.01	-37.6	-39.2	16.9	0.00e+00	0	57	0	548405248	46	4392
2026-01-03 11:06:32.60	236.36	29.10	-37.5	-39.0	17.0	0.00e+00	0	57	0	551550976	46	4335
2026-01-03 11:06:33.60	236.66	29.19	-37.4	-39.0	17.0	0.00e+00	0	57	0	554696704	46	4299
2026-01-03 11:06:34.61	236.96	29.27	-37.5	-39.1	17.0	0.00e+00	0	57	0	557842432	46	4346
2026-01-03 11:06:35.62	237.26	29.36	-37.5	-39.1	16.9	0.00e+00	0	57	0	560988160	46	4378
2026-01-03 11:06:36.63	237.56	29.45	-37.6	-39.2	16.8	0.00e+00	0	57	0	564133888	46	4428
2026-01-03 11:06:37.64	237.87	29.53	-37.5	-39.1	17.0	0.00e+00	0	57	0	567279616	46	4371
2026-01-03 11:06:38.66	238.18	29.62	-37.5	-39.1	17.0	0.00e+00	0	57	0	570425344	46	4362
2026-01-03 11:06:39.67	238.48	29.71	-37.4	-39.0	17.0	0.00e+00	0	57	0	573571072	46	4302
2026-01-03 11:06:40.68	238.79	29.79	-37.3	-38.8	17.2	0.00e+00	0	57	0	576716800	46	4229
2026-01-03 11:06:41.69	239.11	29.87	-37.3	-38.8	17.2	0.00e+00	0	57	0	579862528	46	4219
2026-01-03 11:06:42.70	239.42	29.96	-37.2	-38.7	17.4	0.00e+00	0	57	0	583008256	46	4158
2026-01-03 11:06:43.71	239.73	30.04	-37.2	-38.7	17.4	0.00e+00	0	57	0	586153984	46	4173
2026-01-03 11:06:44.72	240.05	30.12	-37.2	-38.7	17.3	0.00e+00	0	57	0	589299712	46	4166
2026-01-03 11:06:45.73	240.37	30.20	-37.2	-38.7	17.3	0.00e+00	0	57	0	592445440	46	4175
2026-01-03 11:06:46.74	240.69	30.28	-37.2	-38.7	17.3	0.00e+00	0	57	0	595591168	46	4173
2026-01-03 11:06:47.75	241.01	30.36	-37.2	-38.7	17.3	0.00e+00	0	57	0	599785472	46	4174
2026-01-03 11:06:48.76	241.33	30.44	-37.2	-38.7	17.4	0.00e+00	0	57	0	602931200	46	4149
2026-01-03 11:06:49.77	241.65	30.52	-37.2	-38.7	17.3	0.00e+00	0	57	0	605028352	46	4188
2026-01-03 11:06:50.78	241.98	30.60	-37.3	-38.8	17.2	0.00e+00	0	57	0	608174080	46	4231
2026-01-03 11:06:51.79	242.30	30.67	-37.3	-38.8	17.2	0.00e+00	0	57	0	611319808	46	4221
2026-01-03 11:06:52.80	242.63	30.75	-37.5	-39.1	17.0	0.00e+00	0	57	0	615514112	46	4356
2026-01-03 11:06:53.81	242.96	30.82	-37.6	-39.2	16.9	0.00e+00	0	57	0	618659840	46	4392
2026-01-03 11:06:54.82	243.29	30.90	-37.6	-39.2	16.8	0.00e+00	0	57	0	621805568	46	4401
2026-01-03 11:06:55.83	243.63	30.97	-37.5	-39.1	17.0	0.00e+00	0	57	0	624951296	46	4361
2026-01-03 11:06:56.83	243.96	31.04	-37.4	-38.9	17.1	0.00e+00	0	57	0	628097024	46	4270
2026-01-03 11:06:57.84	244.29	31.11	-37.3	-38.7	17.3	0.00e+00	0	57	0	630194176	46	4192
2026-01-03 11:06:58.85	244.63	31.18	-37.3	-38.8	17.2	0.00e+00	0	57	0	634388480	46	4218
2026-01-03 11:06:59.86	244.97	31.25	-37.5	-39.0	17.0	0.00e+00	0	57	0	637534208	46	4338
2026-01-03 11:07:00.87	245.31	31.32	-37.7	-39.3	16.8	0.00e+00	0	57	0	640679936	46	4472
2026-01-03 11:07:01.88	245.65	31.39	-37.9	-39.6	16.5	0.00e+00	0	57	0	643825664	46	4630
2026-01-03 11:07:02.89	245.99	31.45	-38.0	-39.7	16.4	0.00e+00	0	57	0	646971392	46	4674
2026-01-03 11:07:03.90	246.34	31.52	-37.9	-39.5	16.5	0.00e+00	0	57	0	650117120	46	4596
2026-01-03 11:07:04.91	246.68	31.58	-37.8	-39.4	16.6	0.00e+00	0	57	0	653262848	46	4544
2026-01-03 11:07:05.92	247.03	31.65	-37.7	-39.3	16.8	0.00e+00	0	57	0	656408576	46	4458
2026-01-03 11:07:06.93	247.38	31.71	-37.7	-39.2	16.8	0.00e+00	0	57	0	659554304	46	4437
2026-01-03 11:07:07.94	247.73	31.77	-37.7	-39.3	16.7	0.00e+00	0	57	0	662700032	46	4482
2026-01-03 11:07:08.95	248.08	31.83	-37.9	-39.6	16.4	0.00e+00	0	57	0	665845760	46	4635
2026-01-03 11:07:09.96	248.43	31.89	-37.9	-39.6	16.5	0.00e+00	0	57	0	668991488	46	4621
2026-01-03 11:07:10.97	248.78	31.95	-38.0	-39.6	16.4	0.00e+00	0	57	0	672137216	46	4637
2026-01-03 11:07:11.98	249.14	32.01	-37.9	-39.6	16.5	0.00e+00	0	57	0	675282944	46	4611
2026-01-03 11:07:12.99	249.49	32.06	-37.9	-39.6	16.5	0.00e+00	0	57	0	678428672	46	4610
2026-01-03 11:07:14.00	249.85	32.12	-38.0	-39.7	16.4	0.00e+00	0	57	0	681574400	46	4669
2026-01-03 11:07:15.02	250.21	32.17	-38.1	-39.8	16.3	0.00e+00	0	57	0	684720128	46	4718
2026-01-03 11:07:16.02	250.57	32.23	-38.2	-40.0	16.1	0.00e+00	0	57	0	687865856	47	4554
2026-01-03 11:07:17.04	250.93	32.28	-38.1	-39.8	16.3	0.00e+00	0	57	0	691011584	47	4471
2026-01-03 11:07:18.05	251.29	32.33	-38.0	-39.6	16.4	0.00e+00	0	57	0	694157312	47	4389
2026-01-03 11:07:19.06	251.65	32.38	-37.8	-39.4	16.6	0.00e+00	0	57	0	697303040	47	4266
2026-01-03 11:07:20.07	252.02	32.43	-37.8	-39.4	16.7	0.00e+00	0	57	0	700448768	47	4243
2026-01-03 11:07:21.08	252.38	32.47	-37.8	-39.4	16.7	0.00e+00	0	57	0	703594496	47	4265
2026-01-03 11:07:22.09	252.75	32.52	-37.9	-39.6	16.5	0.00e+00	0	57	0	706740224	47	4341
2026-01-03 11:07:23.10	253.11	32.57	-38.0	-39.6	16.5	0.00e+00	0	57	0	709885952	47	4370
2026-01-03 11:07:24.11	253.48	32.61	-37.9	-39.6	16.5	0.00e+00	0	57	0	713031680	47	4342
2026-01-03 11:07:25.12	253.85	32.65	-37.8	-39.5	16.6	0.00e+00	0	57	0	716177408	47	4293
2026-01-03 11:07:26.13	254.22	32.69	-37.7	-39.3	16.8	0.00e+00	0	57	0	719323136	47	4206
2026-01-03 11:07:27.14	254.59	32.73	-37.5	-39.1	17.0	0.00e+00	0	57	0	722468864	47	4105
2026-01-03 11:07:28.15	254.96	32.77	-37.6	-39.2	16.8	0.00e+00	0	57	0	725614592	47	4171
2026-01-03 11:07:29.16	255.33	32.81	-37.8	-39.4	16.7	0.00e+00	0	57	0	728760320	47	4247
2026-01-03 11:07:30.17	255.71	32.84	-37.8	-39.5	16.6	0.00e+00	0	57	0	731906048	47	4299
2026-01-03 11:07:31.18	256.08	32.88	-37.8	-39.5	16.6	0.00e+00	0	57	0	735051776	47	4297
2026-01-03 11:07:32.19	256.46	32.91	-37.9	-39.5	16.5	0.00e+00	0	57	0	738197504	47	4315
2026-01-03 11:07:33.20	256.83	32.94	-37.8	-39.4	16.6	0.00e+00	0	57	0	741343232	47	4288
2026-01-03 11:07:34.21	257.21	32.98	-38.0	-39.7	16.4	0.00e+00	0	57	0	744488960	47	4414
2026-01-03 11:07:35.22	257.58	33.00	-38.1	-39.8	16.2	0.00e+00	0	57	0	747634688	47	4490
2026-01-03 11:07:36.23	257.96	33.03	-38.2	-39.9	16.2	0.00e+00	0	57	0	750780416	47	4516
2026-01-03 11:07:37.23	258.33	33.06	-38.1	-39.8	16.3	0.00e+00	0	57	0	753926144	47	4478
2026-01-03 11:07:38.24	258.71	33.09	-38.0	-39.6	16.4	0.00e+00	0	57	0	757071872	47	4380
2026-01-03 11:07:39.25	259.09	33.11	-37.9	-39.5	16.5	0.00e+00	0	57	0	760217600	47	4323
2026-01-03 11:07:40.26	259.47	33.13	-37.8	-39.5	16.6	0.00e+00	0	57	0	763363328	47	4304
2026-01-03 11:07:41.27	259.85	33.15	-37.9	-39.5	16.5	0.00e+00	0	57	0	766509056	47	4320
2026-01-03 11:07:42.28	260.23	33.17	-37.8	-39.5	16.6	0.00e+00	0	57	0	769654784	47	4296
2026-01-03 11:07:43.29	260.61	33.19	-37.7	-39.3	16.7	0.00e+00	0	57	0	772800512	47	4229
2026-01-03 11:07:44.30	261.00	33.21	-37.7	-39.3	16.8	0.00e+00	0	57	0	775946240	47	4206
2026-01-03 11:07:45.31	261.38	33.23	-37.8	-39.4	16.7	0.00e+00	0	57	0	779091968	47	4260
2026-01-03 11:07:46.32	261.76	33.24	-37.9	-39.5	16.6	0.00e+00	0	57	0	782237696	47	4306
2026-01-03 11:07:47.33	262.14	33.25	-37.9	-39.6	16.5	0.00e+00	0	57	0	785383424	47	4348
2026-01-03 11:07:48.34	262.52	33.27	-38.1	-39.7	16.4	0.00e+00	0	57	0	788529152	47	4436
2026-01-03 11:07:49.35	262.91	33.28	-38.1	-39.8	16.3	0.00e+00	0	57	0	791674880	47	4485
2026-01-03 11:07:50.36	263.29	33.28	-38.3	-40.0	16.1	0.00e+00	0	57	0	794820608	47	4568
2026-01-03 11:07:51.37	263.67	33.29	-38.4	-40.2	16.0	0.00e+00	0	57	0	797966336	47	4662
2026-01-03 11:07:52.38	264.06	33.30	-38.4	-40.2	15.9	0.00e+00	0	57	0	801112064	47	4658
2026-01-03 11:07:53.39	264.44	33.30	-38.4	-40.2	15.9	0.00e+00	0	57	0	804257792	47	4668
2026-01-03 11:07:54.40	264.82	33.31	-38.2	-39.9	16.2	0.00e+00	0	57	0	807403520	47	4539
2026-01-03 11:07:55.41	265.21	33.31	-38.1	-39.8	16.3	0.00e+00	0	57	0	810549248	47	4465
2026-01-03 11:07:56.42	265.59	33.31	-38.0	-39.7	16.4	0.00e+00	0	57	0	813694976	47	4403
2026-01-03 11:07:57.43	265.98	33.31	-38.0	-39.7	16.4	0.00e+00	0	57	0	816840704	47	4419
2026-01-03 11:07:58.44	266.36	33.31	-37.9	-39.5	16.6	0.00e+00	0	57	0	819986432	47	4317
2026-01-03 11:07:59.45	266.74	33.30	-37.8	-39.4	16.7	0.00e+00	0	57	0	823132160	47	4256
2026-01-03 11:08:00.46	267.13	33.30	-37.9	-39.5	16.5	0.00e+00	0	57	0	826277888	47	4302
2026-01-03 11:08:01.47	267.51	33.29	-38.1	-39.7	16.3	0.00e+00	0	57	0	829423616	47	4437
2026-01-03 11:08:02.48	267.89	33.28	-38.2	-39.9	16.1	0.00e+00	0	57	0	832569344	47	4542
2026-01-03 11:08:03.49	268.28	33.27	-38.4	-40.1	16.0	0.00e+00	0	57	0	835715072	47	4633
2026-01-03 11:08:04.50	268.66	33.26	-38.4	-40.2	15.9	0.00e+00	0	57	0	838860800	47	4697
2026-01-03 11:08:05.51	269.04	33.25	-38.3	-40.0	16.1	0.00e+00	0	57	0	842006528	47	4570
2026-01-03 11:08:06.52	269.42	33.24	-38.2	-39.9	16.2	0.00e+00	0	57	0	845152256	47	4521
2026-01-03 11:08:07.53	269.80	33.22	-38.2	-40.0	16.1	0.00e+00	0	57	0	848297984	47	4556
2026-01-03 11:08:08.54	270.19	33.21	-38.2	-40.0	16.1	0.00e+00	0	57	0	851443712	47	4559
2026-01-03 11:08:09.55	270.57	33.19	-38.1	-39.7	16.3	0.00e+00	0	57	0	854589440	47	4441
2026-01-03 11:08:10.55	270.94	33.17	-38.1	-39.7	16.4	0.00e+00	0	57	0	857735168	47	4429
2026-01-03 11:08:11.57	271.33	33.15	-38.0	-39.7	16.4	0.00e+00	0	57	0	860880896	47	4405
2026-01-03 11:08:12.58	271.71	33.13	-37.9	-39.5	16.6	0.00e+00	0	57	0	864026624	47	4324
2026-01-03 11:08:13.59	272.09	33.11	-37.8	-39.5	16.6	0.00e+00	0	57	0	867172352	47	4296
2026-01-03 11:08:14.60	272.47	33.08	-37.8	-39.5	16.6	0.00e+00	0	57	0	870318080	47	4295
2026-01-03 11:08:15.61	272.84	33.06	-37.7	-39.3	16.7	0.00e+00	0	57	0	873463808	47	4240
2026-01-03 11:08:16.62	273.22	33.03	-37.7	-39.3	16.8	0.00e+00	0	57	0	876609536	47	4202
2026-01-03 11:08:17.63	273.60	33.00	-37.7	-39.3	16.8	0.00e+00	0	57	0	879755264	47	4199
2026-01-03 11:08:18.64	273.97	32.97	-37.7	-39.3	16.8	0.00e+00	0	57	0	882900992	47	4221
2026-01-03 11:08:19.65	274.35	32.94	-37.9	-39.5	16.5	0.00e+00	0	57	0	886046720	47	4339
2026-01-03 11:08:20.66	274.72	32.91	-38.0	-39.7	16.4	0.00e+00	0	57	0	889192448	47	4420
2026-01-03 11:08:21.67	275.10	32.88	-38.0	-39.7	16.4	0.00e+00	0	57	0	892338176	47	4428
2026-01-03 11:08:22.68	275.47	32.84	-38.1	-39.8	16.2	0.00e+00	0	57	0	895483904	47	4490
2026-01-03 11:08:23.69	275.84	32.80	-38.2	-39.9	16.2	0.00e+00	0	57	0	898629632	47	4530
2026-01-03 11:08:24.70	276.21	32.77	-38.1	-39.8	16.3	0.00e+00	0	57	0	901775360	47	4468
2026-01-03 11:08:25.71	276.58	32.73	-38.0	-39.7	16.4	0.00e+00	0	57	0	904921088	47	4416
2026-01-03 11:08:26.72	276.95	32.69	-37.9	-39.6	16.5	0.00e+00	0	57	0	908066816	47	4367
2026-01-03 11:08:27.73	277.32	32.65	-37.9	-39.5	16.6	0.00e+00	0	57	0	911212544	47	4329
2026-01-03 11:08:28.74	277.69	32.61	-37.9	-39.5	16.6	0.00e+00	0	57	0	914358272	47	4305
2026-01-03 11:08:29.75	278.06	32.56	-37.9	-39.5	16.5	0.00e+00	0	57	0	918552576	47	4320
2026-01-03 11:08:30.76	278.42	32.52	-37.9	-39.6	16.5	0.00e+00	0	57	0	921698304	47	4370
2026-01-03 11:08:31.77	278.79	32.47	-37.9	-39.5	16.5	0.00e+00	0	57	0	923795456	47	4332
2026-01-03 11:08:32.78	279.15	32.42	-37.8	-39.4	16.7	0.00e+00	0	57	0	926941184	47	4256
2026-01-03 11:08:33.79	279.51	32.38	-37.8	-39.4	16.6	0.00e+00	0	57	0	930086912	47	4287
2026-01-03 11:08:34.80	279.88	32.33	-37.9	-39.6	16.4	0.00e+00	0	57	0	934281216	47	4355
2026-01-03 11:08:35.81	280.24	32.28	-37.9	-39.5	16.5	0.00e+00	0	57	0	937426944	47	4332
2026-01-03 11:08:36.82	280.60	32.22	-37.9	-39.6	16.5	0.00e+00	0	57	0	940572672	47	4353
2026-01-03 11:08:37.83	280.95	32.17	-38.0	-39.7	16.3	0.00e+00	0	57	0	943718400	47	4434
2026-01-03 11:08:38.84	281.31	32.12	-38.1	-39.8	16.3	0.00e+00	0	57	0	945815552	47	4445
2026-01-03 11:08:39.85	281.67	32.06	-38.0	-39.7	16.4	0.00e+00	0	57	0	950009856	47	4402
2026-01-03 11:08:40.85	282.02	32.01	-38.1	-39.8	16.2	0.00e+00	0	57	0	953155584	47	4479
2026-01-03 11:08:41.86	282.37	31.95	-38.1	-39.8	16.3	0.00e+00	0	57	0	956301312	47	4451
2026-01-03 11:08:42.87	282.72	31.89	-38.0	-39.6	16.4	0.00e+00	0	57	0	959447040	47	4388
2026-01-03 11:08:43.88	283.08	31.83	-37.8	-39.5	16.5	0.00e+00	0	57	0	962592768	47	4310
2026-01-03 11:08:44.89	283.43	31.77	-38.0	-39.6	16.4	0.00e+00	0	57	0	965738496	47	4375
2026-01-03 11:08:45.90	283.77	31.71	-38.0	-39.7	16.3	0.00e+00	0	57	0	968884224	47	4424
2026-01-03 11:08:46.91	284.12	31.65	-38.1	-39.8	16.3	0.00e+00	0	57	0	972029952	47	4443
2026-01-03 11:08:47.92	284.47	31.58	-38.0	-39.6	16.4	0.00e+00	0	57	0	975175680	47	4387
2026-01-03 11:08:48.93	284.81	31.52	-37.9	-39.6	16.5	0.00e+00	0	57	0	978321408	47	4341
2026-01-03 11:08:49.94	285.15	31.45	-37.8	-39.4	16.6	0.00e+00	0	57	0	981467136	47	4268
2026-01-03 11:08:50.95	285.50	31.39	-37.8	-39.4	16.6	0.00e+00	0	57	0	984612864	47	4258
2026-01-03 11:08:51.96	285.84	31.32	-37.9	-39.5	16.5	0.00e+00	0	57	0	987758592	47	4315
2026-01-03 11:08:52.97	286.17	31.25	-37.8	-39.5	16.5	0.00e+00	0	57	0	990904320	47	4298
2026-01-03 11:08:53.98	286.51	31.18	-37.8	-39.4	16.6	0.00e+00	0	57	0	994050048	47	4268
2026-01-03 11:08:54.98	286.84	31.11	-37.7	-39.3	16.7	0.00e+00	0	57	0	997195776	47	4242
2026-01-03 11:08:55.99	287.18	31.04	-37.9	-39.5	16.5	0.00e+00	0	57	0	1000341504	47	4328
2026-01-03 11:08:57.00	287.51	30.97	-37.9	-39.5	16.6	0.00e+00	0	57	0	1003487232	47	4311
2026-01-03 11:08:58.01	287.84	30.90	-37.8	-39.4	16.7	0.00e+00	0	57	0	1006632960	47	4253
2026-01-03 11:08:59.02	288.17	30.82	-37.7	-39.3	16.7	0.00e+00	0	57	0	1009778688	47	4215
2026-01-03 11:09:00.03	288.50	30.75	-37.6	-39.2	16.8	0.00e+00	0	57	0	1012924416	47	4168
2026-01-03 11:09:01.04	288.83	30.67	-37.5	-39.0	17.0	0.00e+00	0	57	0	1016070144	46	4329
2026-01-03 11:09:02.06	289.16	30.60	-37.4	-38.9	17.1	0.00e+00	0	57	0	1019215872	46	4268
2026-01-03 11:09:03.07	289.48	30.52	-37.4	-39.0	17.0	0.00e+00	0	57	0	1022361600	46	4295
2026-01-03 11:09:04.08	289.80	30.44	-37.5	-39.0	17.0	0.00e+00	0	57	0	1025507328	46	4325
2026-01-03 11:09:05.09	290.13	30.37	-37.6	-39.2	16.9	0.00e+00	0	57	0	1028653056	46	4401
2026-01-03 11:09:06.10	290.44	30.29	-37.7	-39.3	16.7	0.00e+00	0	57	0	1031798784	46	4477
2026-01-03 11:09:07.11	290.76	30.21	-37.8	-39.4	16.6	0.00e+00	0	57	0	1034944512	46	4534
2026-01-03 11:09:08.12	291.08	30.13	-37.8	-39.4	16.6	0.00e+00	0	57	0	1038090240	46	4527
2026-01-03 11:09:09.13	291.39	30.05	-37.7	-39.4	16.7	0.00e+00	0	57	0	1041235968	46	4494
2026-01-03 11:09:10.14	291.71	29.96	-37.6	-39.2	16.8	0.00e+00	0	57	0	1044381696	46	4416
2026-01-03 11:09:11.14	292.02	29.88	-37.5	-39.1	16.9	0.00e+00	0	57	0	1047527424	46	4343
2026-01-03 11:09:12.15	292.33	29.80	-37.5	-39.1	16.9	2.67e-05	0	57	0	1050673152	46	4354
2026-01-03 11:09:13.16	292.63	29.71	-37.5	-39.0	17.0	0.00e+00	0	57	0	1053818880	46	4332
2026-01-03 11:09:14.17	292.94	29.63	-37.5	-39.0	17.0	0.00e+00	0	57	0	1056964608	46	4321
2026-01-03 11:09:15.18	293.25	29.55	-37.5	-39.0	17.0	0.00e+00	0	57	0	1060110336	46	4329
2026-01-03 11:09:16.19	293.55	29.46	-37.4	-39.0	17.0	0.00e+00	0	57	0	1063256064	46	4294
2026-01-03 11:09:17.20	293.85	29.37	-37.5	-39.1	16.9	0.00e+00	0	57	0	1066401792	46	4368
2026-01-03 11:09:18.21	294.15	29.29	-37.6	-39.2	16.8	0.00e+00	0	57	0	1069547520	46	4414
2026-01-03 11:09:19.22	294.45	29.20	-37.6	-39.2	16.8	0.00e+00	0	57	0	1072693248	46	4406
2026-01-03 11:09:20.23	294.75	29.11	-37.6	-39.1	16.8	0.00e+00	0	57	0	1075838976	46	4384
2026-01-03 11:09:21.24	295.04	29.02	-37.5	-39.1	16.9	0.00e+00	0	57	0	1078984704	46	4356
2026-01-03 11:09:22.25	295.34	28.93	-37.3	-38.8	17.1	0.00e+00	0	57	0	1082130432	46	4238
2026-01-03 11:09:23.25	295.63	28.84	-37.2	-38.6	17.3	0.00e+00	0	57	0	1085276160	46	4141
2026-01-03 11:09:24.26	295.92	28.75	-37.1	-38.6	17.3	0.00e+00	0	57	0	1088421888	46	4136
2026-01-03 11:09:25.28	296.21	28.66	-37.2	-38.8	17.2	0.00e+00	0	57	0	1091567616	46	4198
2026-01-03 11:09:26.29	296.50	28.57	-37.4	-38.9	17.1	0.00e+00	0	57	0	1094713344	46	4265
2026-01-03 11:09:27.29	296.78	28.48	-37.4	-38.9	17.0	0.00e+00	0	57	0	1097859072	46	4276
2026-01-03 11:09:28.31	297.07	28.39	-37.3	-38.8	17.2	0.00e+00	0	57	0	1101004800	46	4219
2026-01-03 11:09:29.32	297.35	28.30	-37.2	-38.7	17.3	0.00e+00	0	57	0	1104150528	46	4165
2026-01-03 11:09:30.33	297.63	28.20	-37.1	-38.6	17.3	0.00e+00	0	57	0	1107296256	46	4111
2026-01-03 11:09:31.34	297.91	28.11	-37.1	-38.6	17.3	0.00e+00	0	57	0	1110441984	46	4125
2026-01-03 11:09:32.35	298.19	28.02	-37.1	-38.6	17.3	0.00e+00	0	57	0	1113587712	46	4133
2026-01-03 11:09:33.36	298.47	27.92	-37.0	-38.5	17.4	0.00e+00	0	57	0	1116733440	46	4053
2026-01-03 11:09:34.37	298.74	27.83	-36.9	-38.3	17.6	0.00e+00	0	57	0	1119879168	45	4217
2026-01-03 11:09:35.38	299.01	27.73	-36.8	-38.2	17.7	0.00e+00	0	57	0	1123024896	45	4177
2026-01-03 11:09:36.39	299.29	27.64	-36.9	-38.3	17.6	0.00e+00	0	57	0	1126170624	45	4208
2026-01-03 11:09:37.40	299.56	27.54	-36.9	-38.3	17.6	0.00e+00	0	57	0	1129316352	45	4224
2026-01-03 11:09:38.41	299.82	27.45	-36.8	-38.2	17.7	0.00e+00	0	57	0	1132462080	45	4179
2026-01-03 11:09:39.42	300.09	27.35	-36.8	-38.2	17.7	0.00e+00	0	57	0	1135607808	45	4183
2026-01-03 11:09:40.43	300.36	27.26	-36.8	-38.2	17.7	0.00e+00	0	57	0	1138753536	45	4171
2026-01-03 11:09:41.44	300.62	27.16	-36.7	-38.1	17.8	0.00e+00	0	57	0	1141899264	45	4126
2026-01-03 11:09:42.45	300.88	27.06	-36.6	-38.0	17.9	0.00e+00	0	57	0	1145044992	45	4067
2026-01-03 11:09:43.46	301.14	26.96	-36.5	-37.9	17.9	0.00e+00	0	57	0	1148190720	45	4044
2026-01-03 11:09:44.47	301.40	26.87	-36.7	-38.2	17.6	0.00e+00	0	57	0	1151336448	45	4160
2026-01-03 11:09:45.48	301.66	26.77	-36.9	-38.4	17.4	0.00e+00	0	57	0	1154482176	45	4259
2026-01-03 11:09:46.49	301.91	26.67	-37.0	-38.5	17.4	0.00e+00	0	57	0	1157627904	45	4304
2026-01-03 11:09:47.50	302.17	26.57	-36.9	-38.3	17.5	0.00e+00	0	57	0	1160773632	45	4224
2026-01-03 11:09:48.51	302.42	26.47	-36.8	-38.2	17.6	0.00e+00	0	57	0	1163919360	45	4176
2026-01-03 11:09:49.52	302.67	26.38	-36.7	-38.2	17.7	0.00e+00	0	57	0	1167065088	45	4160
2026-01-03 11:09:50.53	302.92	26.28	-36.8	-38.2	17.6	0.00e+00	0	57	0	1170210816	45	4186
2026-01-03 11:09:51.54	303.17	26.18	-36.7	-38.2	17.7	0.00e+00	0	57	0	1173356544	45	4159
2026-01-03 11:09:52.55	303.42	26.08	-36.8	-38.2	17.6	0.00e+00	0	57	0	1176502272	45	4187
2026-01-03 11:09:53.56	303.66	25.98	-36.9	-38.3	17.5	0.00e+00	0	57	0	1179648000	45	4231
2026-01-03 11:09:54.57	303.91	25.88	-36.9	-38.4	17.4	0.00e+00	0	57	0	1182793728	45	4288
2026-01-03 11:09:55.58	304.15	25.78	-37.0	-38.5	17.4	0.00e+00	0	57	0	1185939456	45	4296
2026-01-03 11:09:56.59	304.39	25.68	-37.0	-38.5	17.3	0.00e+00	0	57	0	1189085184	45	4327
2026-01-03 11:09:57.60	304.63	25.58	-37.1	-38.6	17.3	0.00e+00	0	57	0	1192230912	45	4363
2026-01-03 11:09:58.61	304.87	25.48	-37.1	-38.6	17.2	0.00e+00	0	57	0	1195376640	45	4372
2026-01-03 11:09:59.62	305.10	25.38	-37.0	-38.5	17.4	0.00e+00	0	57	0	1198522368	45	4322
2026-01-03 11:10:00.63	305.34	25.28	-36.9	-38.4	17.5	0.00e+00	0	57	0	1201668096	45	4245
2026-01-03 11:10:01.64	305.57	25.18	-36.8	-38.3	17.6	0.00e+00	0	57	0	1204813824	45	4220
2026-01-03 11:10:02.65	305.80	25.08	-36.8	-38.2	17.6	0.00e+00	0	57	0	1207959552	45	4177
2026-01-03 11:10:03.65	306.03	24.98	-36.8	-38.2	17.6	0.00e+00	0	57	0	1211105280	45	4185
2026-01-03 11:10:04.66	306.26	24.88	-36.8	-38.2	17.6	0.00e+00	0	57	0	1214251008	45	4185
2026-01-03 11:10:05.67	306.49	24.78	-36.8	-38.2	17.6	0.00e+00	0	57	0	1217396736	45	4166
2026-01-03 11:10:06.68	306.71	24.68	-36.7	-38.2	17.7	0.00e+00	0	57	0	1220542464	45	4150
2026-01-03 11:10:07.69	306.94	24.58	-36.8	-38.2	17.7	0.00e+00	0	57	0	1223688192	45	4174
2026-01-03 11:10:08.70	307.16	24.47	-36.7	-38.2	17.7	0.00e+00	0	57	0	1226833920	45	4150
2026-01-03 11:10:09.71	307.38	24.37	-36.7	-38.1	17.7	0.00e+00	0	57	0	1229979648	45	4140
2026-01-03 11:10:10.73	307.60	24.27	-36.7	-38.2	17.7	0.00e+00	0	57	0	1233125376	45	4152
2026-01-03 11:10:11.74	307.82	24.17	-36.8	-38.3	17.6	0.00e+00	0	57	0	1236271104	45	4201
2026-01-03 11:10:12.75	308.04	24.07	-36.8	-38.3	17.6	0.00e+00	0	57	0	1239416832	45	4194
2026-01-03 11:10:13.76	308.26	23.97	-36.8	-38.3	17.5	0.00e+00	0	57	0	1242562560	45	4220
2026-01-03 11:10:14.77	308.47	23.87	-36.9	-38.3	17.5	0.00e+00	0	57	0	1245708288	45	4227
2026-01-03 11:10:15.78	308.69	23.76	-36.9	-38.4	17.5	0.00e+00	0	57	0	1248854016	45	4248
2026-01-03 11:10:16.79	308.90	23.66	-37.0	-38.5	17.3	0.00e+00	0	57	0	1251999744	45	4331
2026-01-03 11:10:17.80	309.11	23.56	-37.1	-38.6	17.2	0.00e+00	0	57	0	1256194048	45	4375
2026-01-03 11:10:18.81	309.32	23.46	-37.1	-38.6	17.2	0.00e+00	0	57	0	1259339776	45	4366
2026-01-03 11:10:19.82	309.53	23.36	-37.1	-38.6	17.2	0.00e+00	0	57	0	1261436928	45	4381
2026-01-03 11:10:20.83	309.73	23.26	-37.1	-38.7	17.1	0.00e+00	0	57	0	1264582656	45	4411
2026-01-03 11:10:21.84	309.94	23.16	-37.1	-38.7	17.1	0.00e+00	0	57	0	1267728384	45	4415
2026-01-03 11:10:22.85	310.14	23.06	-37.1	-38.7	17.1	0.00e+00	0	57	0	1271922688	45	4393
2026-01-03 11:10:23.86	310.35	22.95	-37.1	-38.6	17.2	0.00e+00	0	57	0	1275068416	45	4352
2026-01-03 11:10:24.87	310.55	22.85	-37.0	-38.5	17.3	0.00e+00	0	57	0	1278214144	45	4339
2026-01-03 11:10:25.88	310.75	22.75	-37.0	-38.5	17.3	0.00e+00	0	57	0	1281359872	45	4325
2026-01-03 11:10:26.89	310.95	22.65	-37.0	-38.5	17.2	0.00e+00	0	57	0	1284505600	45	4334
2026-01-03 11:10:27.90	311.15	22.55	-37.0	-38.5	17.3	0.00e+00	0	57	0	1287651328	45	4298
2026-01-03 11:10:28.91	311.34	22.45	-37.0	-38.5	17.3	0.00e+00	0	57	0	1290797056	45	4318
2026-01-03 11:10:29.92	311.54	22.35	-37.0	-38.5	17.3	0.00e+00	0	57	0	1293942784	45	4300
2026-01-03 11:10:30.93	311.73	22.25	-37.0	-38.5	17.3	0.00e+00	0	57	0	1297088512	45	4309
2026-01-03 11:10:31.94	311.92	22.15	-36.9	-38.4	17.3	0.00e+00	0	57	0	1300234240	45	4276
2026-01-03 11:10:32.95	312.12	22.05	-36.9	-38.4	17.3	0.00e+00	0	57	0	1303379968	45	4286
2026-01-03 11:10:33.96	312.31	21.95	-36.9	-38.4	17.3	0.00e+00	0	57	0	1306525696	45	4282
2026-01-03 11:10:34.98	312.50	21.85	-36.9	-38.4	17.3	0.00e+00	0	57	0	1309671424	45	4283
2026-01-03 11:10:35.98	312.68	21.75	-36.9	-38.4	17.3	0.00e+00	0	57	0	1312817152	45	4270
2026-01-03 11:10:36.99	312.87	21.65	-36.9	-38.4	17.4	0.00e+00	0	57	0	1315962880	45	4251
2026-01-03 11:10:38.00	313.06	21.55	-36.9	-38.3	17.4	0.00e+00	0	57	0	1319108608	45	4228
2026-01-03 11:10:39.02	313.24	21.44	-36.8	-38.3	17.5	0.00e+00	0	57	0	1322254336	45	4221
2026-01-03 11:10:40.03	313.43	21.34	-36.9	-38.3	17.4	0.00e+00	0	57	0	1325400064	45	4236
2026-01-03 11:10:41.03	313.61	21.25	-36.9	-38.3	17.4	0.00e+00	0	57	0	1328545792	45	4241
2026-01-03 11:10:42.04	313.79	21.15	-36.9	-38.4	17.3	0.00e+00	0	57	0	1331691520	45	4281
2026-01-03 11:10:43.05	313.97	21.05	-37.0	-38.4	17.3	0.00e+00	0	57	0	1334837248	45	4291
2026-01-03 11:10:44.06	314.15	20.95	-37.0	-38.5	17.3	0.00e+00	0	57	0	1337982976	45	4321
2026-01-03 11:10:45.07	314.33	20.85	-37.0	-38.5	17.2	0.00e+00	0	57	0	1341128704	45	4334
2026-01-03 11:10:46.08	314.50	20.75	-37.1	-38.7	17.1	0.00e+00	0	57	0	1344274432	45	4397
2026-01-03 11:10:47.09	314.68	20.65	-37.2	-38.8	17.0	0.00e+00	0	57	0	1347420160	45	4446
2026-01-03 11:10:48.10	314.85	20.55	-37.2	-38.8	17.0	0.00e+00	0	57	0	1350565888	45	4462
2026-01-03 11:10:49.11	315.03	20.45	-37.2	-38.8	17.0	0.00e+00	0	57	0	1353711616	45	4466
2026-01-03 11:10:50.13	315.20	20.35	-37.2	-38.7	17.0	0.00e+00	0	57	0	1356857344	45	4431
2026-01-03 11:10:51.14	315.37	20.25	-37.2	-38.8	17.0	0.00e+00	0	57	0	1360003072	45	4455
2026-01-03 11:10:52.15	315.54	20.16	-37.2	-38.8	17.0	0.00e+00	0	57	0	1363148800	45	4482
2026-01-03 11:10:53.16	315.71	20.06	-37.2	-38.8	16.9	0.00e+00	0	57	0	1366294528	45	4475
2026-01-03 11:10:54.17	315.88	19.96	-37.3	-38.8	16.9	0.00e+00	0	57	0	1369440256	45	4492
2026-01-03 11:10:55.18	316.04	19.86	-37.3	-38.8	16.9	0.00e+00	0	57	0	1372585984	45	4489
2026-01-03 11:10:56.19	316.21	19.76	-37.2	-38.8	17.0	0.00e+00	0	57	0	1375731712	45	4468
2026-01-03 11:10:57.20	316.38	19.67	-37.1	-38.7	17.0	0.00e+00	0	57	0	1378877440	45	4410
2026-01-03 11:10:58.21	316.54	19.57	-37.1	-38.7	17.1	0.00e+00	0	57	0	1382023168	45	4400
2026-01-03 11:10:59.22	316.70	19.47	-37.0	-38.5	17.2	0.00e+00	0	57	0	1385168896	45	4337
2026-01-03 11:11:00.23	316.86	19.37	-37.0	-38.5	17.2	0.00e+00	0	57	0	1388314624	45	4334
2026-01-03 11:11:01.24	317.02	19.28	-37.0	-38.6	17.1	0.00e+00	0	57	0	1391460352	45	4354
2026-01-03 11:11:02.25	317.18	19.18	-37.0	-38.6	17.1	0.00e+00	0	57	0	1394606080	45	4360
2026-01-03 11:11:03.26	317.34	19.08	-37.0	-38.5	17.2	0.00e+00	0	57	0	1397751808	45	4310
2026-01-03 11:11:04.27	317.50	18.99	-37.0	-38.5	17.2	0.00e+00	0	57	0	1400897536	45	4340
2026-01-03 11:11:05.28	317.66	18.89	-37.0	-38.5	17.2	0.00e+00	0	57	0	1404043264	45	4329
2026-01-03 11:11:06.29	317.81	18.79	-37.0	-38.6	17.1	0.00e+00	0	57	0	1407188992	45	4341
2026-01-03 11:11:07.30	317.97	18.70	-37.1	-38.6	17.1	0.00e+00	0	57	0	1410334720	45	4380
2026-01-03 11:11:08.31	318.12	18.60	-37.0	-38.6	17.1	0.00e+00	0	57	0	1413480448	45	4351
2026-01-03 11:11:09.32	318.28	18.51	-37.0	-38.6	17.1	0.00e+00	0	57	0	1416626176	45	4347
2026-01-03 11:11:10.33	318.43	18.41	-37.1	-38.6	17.1	0.00e+00	0	57	0	1419771904	45	4381
2026-01-03 11:11:11.34	318.58	18.32	-37.0	-38.6	17.1	0.00e+00	0	57	0	1422917632	45	4353
2026-01-03 11:11:12.35	318.73	18.22	-37.0	-38.6	17.1	0.00e+00	0	57	0	1426063360	45	4353
2026-01-03 11:11:13.36	318.88	18.13	-37.0	-38.6	17.1	0.00e+00	0	57	0	1429209088	45	4353
2026-01-03 11:11:14.38	319.03	18.03	-37.1	-38.6	17.0	0.00e+00	0	57	0	1432354816	45	4386
2026-01-03 11:11:15.39	319.18	17.94	-37.2	-38.7	16.9	0.00e+00	0	57	0	1435500544	45	4438
2026-01-03 11:11:16.40	319.32	17.84	-37.1	-38.7	16.9	0.00e+00	0	57	0	1438646272	45	4426
2026-01-03 11:11:17.41	319.47	17.75	-37.2	-38.8	16.9	0.00e+00	0	57	0	1441792000	45	4450
2026-01-03 11:11:18.42	319.61	17.65	-37.2	-38.7	16.9	0.00e+00	0	57	0	1444937728	45	4431
2026-01-03 11:11:19.43	319.76	17.56	-37.1	-38.7	17.0	0.00e+00	0	57	0	1448083456	45	4402
2026-01-03 11:11:20.44	319.90	17.47	-37.2	-38.7	16.9	0.00e+00	0	57	0	1451229184	45	4425
2026-01-03 11:11:21.45	320.04	17.37	-37.2	-38.7	16.9	0.00e+00	0	57	0	1454374912	45	4436
2026-01-03 11:11:22.46	320.19	17.28	-37.2	-38.8	16.8	0.00e+00	0	57	0	1457520640	45	4469
2026-01-03 11:11:23.47	320.33	17.19	-37.2	-38.8	16.8	0.00e+00	0	57	0	1460666368	45	4467
2026-01-03 11:11:24.48	320.47	17.09	-37.2	-38.8	16.8	0.00e+00	0	57	0	1463812096	45	4469
2026-01-03 11:11:25.49	320.61	17.00	-37.2	-38.8	16.8	0.00e+00	0	57	0	1466957824	45	4485
2026-01-03 11:11:26.50	320.74	16.91	-37.2	-38.8	16.9	0.00e+00	0	57	0	1470103552	45	4457
2026-01-03 11:11:27.51	320.88	16.82	-37.2	-38.8	16.9	0.00e+00	0	57	0	1473249280	45	4446
2026-01-03 11:11:28.52	321.02	16.72	-37.3	-38.8	16.8	0.00e+00	0	57	0	1476395008	45	4491
2026-01-03 11:11:29.53	321.15	16.63	-37.2	-38.8	16.8	0.00e+00	0	57	0	1479540736	45	4477
2026-01-03 11:11:30.55	321.29	16.54	-37.3	-38.9	16.7	0.00e+00	0	57	0	1482686464	45	4520
2026-01-03 11:11:31.56	321.42	16.45	-37.4	-39.0	16.6	0.00e+00	0	57	0	1485832192	45	4592
2026-01-03 11:11:32.57	321.56	16.36	-37.5	-39.2	16.4	0.00e+00	0	57	0	1488977920	45	4660
2026-01-03 11:11:33.58	321.69	16.27	-37.5	-39.2	16.4	0.00e+00	0	57	0	1492123648	45	4681
2026-01-03 11:11:34.59	321.82	16.17	-37.6	-39.2	16.4	0.00e+00	0	57	0	1495269376	45	4700
2026-01-03 11:11:35.60	321.95	16.08	-37.6	-39.3	16.3	0.00e+00	0	57	0	1498415104	45	4716
2026-01-03 11:11:36.61	322.08	15.99	-37.6	-39.3	16.4	0.00e+00	0	57	0	1501560832	45	4710
2026-01-03 11:11:37.62	322.21	15.90	-37.6	-39.3	16.3	0.00e+00	0	57	0	1504706560	45	4712
2026-01-03 11:11:38.62	322.34	15.81	-37.6	-39.3	16.3	0.00e+00	0	57	0	1507852288	45	4759
2026-01-03 11:11:39.63	322.47	15.72	-37.7	-39.4	16.2	0.00e+00	0	57	0	1510998016	45	4784
2026-01-03 11:11:40.64	322.60	15.63	-37.8	-39.5	16.1	0.00e+00	0	57	0	1514143744	46	4566
2026-01-03 11:11:41.65	322.72	15.55	-37.8	-39.6	16.1	0.00e+00	0	57	0	1517289472	46	4600
2026-01-03 11:11:42.66	322.85	15.46	-37.9	-39.6	16.0	0.00e+00	0	57	0	1520435200	46	4644
2026-01-03 11:11:43.67	322.97	15.37	-37.9	-39.7	15.9	0.00e+00	0	57	0	1523580928	46	4676
2026-01-03 11:11:44.68	323.10	15.28	-37.9	-39.7	15.9	0.00e+00	0	57	0	1526726656	46	4705
2026-01-03 11:11:45.69	323.22	15.19	-38.0	-39.8	15.8	0.00e+00	0	57	0	1529872384	46	4749
2026-01-03 11:11:46.70	323.34	15.10	-38.0	-39.8	15.8	0.00e+00	0	57	0	1533018112	46	4727
2026-01-03 11:11:47.71	323.47	15.01	-38.0	-39.8	15.8	0.00e+00	0	57	0	1536163840	46	4732
2026-01-03 11:11:48.72	323.59	14.93	-38.0	-39.8	15.8	0.00e+00	0	57	0	1539309568	46	4712
2026-01-03 11:11:49.74	323.71	14.84	-37.9	-39.7	15.9	0.00e+00	0	57	0	1542455296	46	4665
2026-01-03 11:11:50.75	323.83	14.75	-38.0	-39.7	15.8	0.00e+00	0	57	0	1546649600	46	4697
2026-01-03 11:11:51.76	323.95	14.66	-38.0	-39.8	15.8	0.00e+00	0	57	0	1549795328	46	4727
2026-01-03 11:11:52.77	324.07	14.57	-38.0	-39.8	15.8	0.00e+00	0	57	0	1552941056	46	4719
2026-01-03 11:11:53.78	324.19	14.49	-38.0	-39.8	15.7	0.00e+00	0	57	0	1555038208	46	4752
2026-01-03 11:11:54.79	324.30	14.40	-38.1	-39.9	15.6	0.00e+00	0	57	0	1558183936	46	4779
2026-01-03 11:11:55.80	324.42	14.31	-38.1	-40.0	15.6	0.00e+00	0	57	0	1562378240	46	4827
2026-01-03 11:11:56.81	324.54	14.23	-38.3	-40.1	15.4	0.00e+00	0	57	0	1565523968	47	4642
2026-01-03 11:11:57.82	324.65	14.14	-38.4	-40.3	15.3	0.00e+00	0	57	0	1568669696	47	4726
2026-01-03 11:11:58.83	324.77	14.06	-38.4	-40.3	15.2	0.00e+00	0	57	0	1571815424	47	4755
2026-01-03 11:11:59.84	324.88	13.97	-38.3	-40.2	15.3	0.00e+00	0	57	0	1574961152	47	4686
2026-01-03 11:12:00.81	324.99	13.89	-38.2	-40.1	15.4	0.00e+00	0	57	0	1577058304	47	4640
2026-01-03 11:12:01.82	325.11	13.80	-38.3	-40.1	15.4	0.00e+00	0	57	0	1580204032	47	4649
2026-01-03 11:12:02.83	325.22	13.72	-38.2	-40.1	15.4	0.00e+00	0	57	0	1583349760	47	4615
2026-01-03 11:12:03.84	325.33	13.63	-38.2	-40.1	15.4	0.00e+00	0	57	0	1586495488	47	4642
2026-01-03 11:12:04.85	325.44	13.55	-38.1	-40.0	15.5	0.00e+00	0	57	0	1590689792	47	4565
2026-01-03 11:12:05.86	325.55	13.46	-38.1	-40.0	15.5	0.00e+00	0	57	0	1593835520	47	4549
2026-01-03 11:12:06.87	325.66	13.38	-38.1	-39.9	15.5	0.00e+00	0	57	0	1596981248	47	4544
2026-01-03 11:12:07.88	325.77	13.29	-38.1	-40.0	15.5	0.00e+00	0	57	0	1600126976	47	4555
2026-01-03 11:12:08.89	325.88	13.21	-38.1	-40.0	15.5	7.00e-07	0	57	0	1602224128	47	4567
2026-01-03 11:12:09.90	325.99	13.13	-38.2	-40.0	15.4	0.00e+00	0	57	0	1606418432	47	4593
2026-01-03 11:12:10.91	326.10	13.04	-38.3	-40.2	15.3	0.00e+00	0	57	0	1609564160	47	4674
2026-01-03 11:12:11.92	326.20	12.96	-38.4	-40.3	15.2	0.00e+00	0	57	0	1612709888	47	4737
2026-01-03 11:12:12.93	326.31	12.88	-38.4	-40.3	15.2	0.00e+00	0	57	0	1615855616	47	4724
2026-01-03 11:12:13.94	326.41	12.79	-38.3	-40.2	15.2	0.00e+00	0	57	0	1619001344	47	4697
2026-01-03 11:12:14.95	326.52	12.71	-38.3	-40.3	15.2	0.00e+00	0	57	0	1622147072	47	4710
2026-01-03 11:12:15.96	326.62	12.63	-38.4	-40.3	15.1	7.00e-07	0	57	0	1625292800	47	4744
2026-01-03 11:12:16.97	326.73	12.55	-38.4	-40.4	15.0	0.00e+00	0	57	0	1628438528	47	4767
2026-01-03 11:12:17.98	326.83	12.46	-38.4	-40.4	15.0	0.00e+00	0	57	0	1631584256	47	4776
2026-01-03 11:12:18.98	326.93	12.38	-38.4	-40.3	15.1	0.00e+00	0	57	0	1634729984	47	4739
2026-01-03 11:12:19.99	327.04	12.30	-38.3	-40.3	15.1	0.00e+00	0	57	0	1637875712	47	4735
2026-01-03 11:12:21.00	327.14	12.22	-38.3	-40.2	15.2	0.00e+00	0	57	0	1641021440	47	4677
2026-01-03 11:12:22.01	327.24	12.14	-38.2	-40.2	15.2	0.00e+00	0	57	0	1644167168	47	4658
2026-01-03 11:12:23.02	327.34	12.06	-38.3	-40.2	15.2	0.00e+00	0	57	0	1647312896	47	4677
2026-01-03 11:12:24.03	327.44	11.98	-38.2	-40.2	15.2	0.00e+00	0	57	0	1650458624	47	4653
2026-01-03 11:12:25.04	327.54	11.89	-38.3	-40.2	15.2	0.00e+00	0	57	0	1653604352	47	4670
2026-01-03 11:12:26.05	327.64	11.81	-38.2	-40.2	15.2	0.00e+00	0	57	0	1656750080	47	4663
2026-01-03 11:12:27.06	327.74	11.73	-38.2	-40.1	15.2	0.00e+00	0	57	0	1659895808	47	4643
2026-01-03 11:12:28.07	327.84	11.65	-38.3	-40.2	15.1	0.00e+00	0	57	0	1663041536	47	4691
2026-01-03 11:12:29.08	327.94	11.57	-38.3	-40.2	15.1	0.00e+00	0	57	0	1666187264	47	4688
2026-01-03 11:12:30.09	328.03	11.49	-38.4	-40.3	15.0	0.00e+00	0	57	0	1669332992	47	4750
2026-01-03 11:12:31.10	328.13	11.41	-38.3	-40.3	15.0	0.00e+00	0	57	0	1672478720	47	4733
2026-01-03 11:12:32.11	328.23	11.33	-38.4	-40.4	14.9	0.00e+00	0	57	0	1675624448	47	4800
2026-01-03 11:12:33.12	328.32	11.26	-38.4	-40.4	14.9	0.00e+00	0	57	0	1678770176	47	4788
2026-01-03 11:12:34.14	328.42	11.18	-38.4	-40.4	14.9	0.00e+00	0	57	0	1681915904	47	4810
2026-01-03 11:12:35.15	328.51	11.10	-38.5	-40.5	14.8	0.00e+00	0	57	0	1685061632	47	4850
2026-01-03 11:12:36.16	328.61	11.02	-38.5	-40.5	14.8	0.00e+00	0	57	0	1688207360	47	4853
2026-01-03 11:12:37.17	328.70	10.94	-38.4	-40.5	14.8	0.00e+00	0	57	0	1691353088	47	4823
2026-01-03 11:12:38.18	328.80	10.86	-38.5	-40.6	14.7	0.00e+00	0	57	0	1694498816	47	4899
2026-01-03 11:12:39.19	328.89	10.78	-38.6	-40.7	14.6	0.00e+00	0	57	0	1697644544	47	4957
2026-01-03 11:12:40.20	328.98	10.70	-38.5	-40.5	14.7	0.00e+00	0	57	0	1700790272	47	4869
2026-01-03 11:12:41.21	329.07	10.63	-38.5	-40.5	14.8	0.00e+00	0	57	0	1703936000	47	4835
2026-01-03 11:12:42.22	329.16	10.55	-38.5	-40.5	14.8	0.00e+00	0	57	0	1707081728	47	4841
2026-01-03 11:12:43.23	329.26	10.47	-38.5	-40.5	14.7	0.00e+00	0	57	0	1710227456	47	4846
2026-01-03 11:12:44.24	329.35	10.39	-38.6	-40.7	14.6	0.00e+00	0	57	0	1713373184	47	4944
2026-01-03 11:12:45.25	329.44	10.32	-38.5	-40.6	14.6	0.00e+00	0	57	0	1716518912	47	4903
2026-01-03 11:12:46.26	329.53	10.24	-38.5	-40.6	14.6	1.50e-06	0	57	0	1719664640	47	4900
2026-01-03 11:12:47.27	329.62	10.16	-38.8	-41.0	14.4	0.00e+00	0	57	0	1722810368	48	4816
2026-01-03 11:12:48.28	329.70	10.09	-38.6	-40.7	14.6	0.00e+00	0	57	0	1725956096	48	4695
2026-01-03 11:12:49.28	329.79	10.01	-38.6	-40.7	14.6	0.00e+00	0	57	0	1729101824	48	4673
2026-01-03 11:12:50.29	329.88	9.94	-38.7	-40.9	14.4	0.00e+00	0	57	0	1732247552	48	4772
2026-01-03 11:12:51.30	329.97	9.86	-38.8	-41.0	14.3	1.50e-06	0	57	0	1735393280	48	4851
2026-01-03 11:12:52.31	330.05	9.78	-38.8	-41.0	14.3	2.20e-06	0	57	0	1738539008	48	4823
2026-01-03 11:12:53.33	330.14	9.71	-38.8	-40.9	14.4	7.00e-07	0	57	0	1741684736	48	4796
2026-01-03 11:12:54.34	330.23	9.63	-38.8	-40.9	14.4	1.50e-06	0	57	0	1744830464	48	4794
2026-01-03 11:12:55.35	330.31	9.56	-38.7	-40.9	14.4	0.00e+00	0	57	0	1747976192	48	4769
2026-01-03 11:12:56.36	330.40	9.48	-38.7	-40.9	14.4	0.00e+00	0	57	0	1751121920	48	4772
2026-01-03 11:12:57.37	330.48	9.41	-38.8	-40.9	14.3	0.00e+00	0	57	0	1754267648	48	4810
2026-01-03 11:12:58.38	330.57	9.33	-38.7	-40.8	14.4	0.00e+00	0	57	0	1757413376	48	4736
2026-01-03 11:12:59.39	330.65	9.26	-38.7	-40.8	14.4	7.00e-07	0	57	0	1760559104	48	4724
2026-01-03 11:13:00.40	330.74	9.18	-38.6	-40.7	14.5	0.00e+00	0	57	0	1763704832	48	4694
2026-01-03 11:13:01.41	330.82	9.11	-38.6	-40.7	14.5	7.00e-07	0	57	0	1766850560	48	4698
2026-01-03 11:13:02.42	330.90	9.04	-38.7	-40.8	14.4	7.00e-07	0	57	0	1769996288	48	4743
2026-01-03 11:13:03.43	330.99	8.96	-38.6	-40.7	14.4	3.80e-06	0	57	0	1773142016	48	4700
2026-01-03 11:13:04.44	331.07	8.89	-38.7	-40.8	14.4	0.00e+00	0	57	0	1776287744	48	4718
2026-01-03 11:13:05.44	331.15	8.82	-38.7	-40.8	14.3	0.00e+00	0	57	0	1779433472	48	4733
2026-01-03 11:13:06.45	331.23	8.74	-38.6	-40.7	14.4	0.00e+00	0	57	0	1782579200	48	4697
2026-01-03 11:13:07.46	331.31	8.67	-38.6	-40.8	14.4	0.00e+00	0	57	0	1785724928	48	4716
2026-01-03 11:13:08.48	331.39	8.59	-38.6	-40.8	14.3	0.00e+00	0	57	0	1788870656	48	4720
2026-01-03 11:13:09.49	331.47	8.52	-38.7	-40.8	14.3	7.00e-07	0	57	0	1792016384	48	4748
2026-01-03 11:13:10.50	331.55	8.45	-38.6	-40.8	14.3	0.00e+00	0	57	0	1795162112	48	4723
2026-01-03 11:13:11.51	331.63	8.38	-38.7	-40.8	14.3	7.00e-07	0	57	0	1798307840	48	4752
2026-01-03 11:13:12.52	331.71	8.30	-38.8	-41.0	14.1	7.00e-07	0	57	0	1801453568	48	4838
2026-01-03 11:13:13.52	331.79	8.23	-38.7	-40.9	14.2	2.20e-06	0	57	0	1804599296	48	4789
2026-01-03 11:13:14.54	331.87	8.16	-38.7	-40.9	14.1	1.50e-06	0	57	0	1807745024	48	4807
2026-01-03 11:13:15.55	331.95	8.09	-38.8	-41.1	14.0	7.00e-07	0	57	0	1810890752	48	4880
2026-01-03 11:13:16.55	332.02	8.02	-41.0	-44.6	10.9	7.00e-07	0	57	0	1814036480	52	5848
2026-01-03 11:13:17.57	332.10	7.95	-44.4	-56.8	3.8	1.49e+00	0	57	104	1815085056	59	15769
2026-01-03 11:13:18.58	332.18	7.87	-44.6	-57.0	3.8	1.49e+00	0	57	104	1815085056	59	16156
2026-01-03 11:13:19.59	332.26	7.80	-44.8	-57.3	3.8	1.49e+00	0	57	104	1815085056	60	15865
2026-01-03 11:13:20.60	332.33	7.73	-44.9	-57.5	3.8	1.49e+00	0	57	104	1815085056	60	16202
2026-01-03 11:13:21.61	332.41	7.66	-45.0	-57.6	3.8	1.49e+00	0	57	104	1815085056	60	16409
2026-01-03 11:13:22.62	332.48	7.59	-45.1	-57.7	3.8	1.49e+00	0	57	104	1815085056	60	16549
2026-01-03 11:13:23.63	332.56	7.52	-45.2	-57.7	3.8	1.49e+00	0	57	104	1815085056	60	16682
2026-01-03 11:13:24.64	332.63	7.45	-45.2	-57.7	3.8	1.49e+00	0	57	104	1815085056	60	16689
2026-01-03 11:13:25.65	332.71	7.38	-45.2	-57.8	3.8	1.49e+00	0	57	104	1815085056	60	16784
2026-01-03 11:13:26.66	332.78	7.31	-45.1	-57.8	3.8	1.49e+00	0	57	104	1815085056	60	16707
2026-01-03 11:13:27.67	332.86	7.24	-45.1	-57.7	3.8	1.49e+00	0	58	104	1815085056	60	16660
2026-01-03 11:13:28.68	332.93	7.17	-45.1	-57.8	3.8	1.49e+00	0	57	104	1815085056	60	16704
2026-01-03 11:13:29.69	333.00	7.10	-45.1	-57.7	3.8	1.49e+00	0	57	104	1815085056	60	16688
2026-01-03 11:13:30.70	333.08	7.03	-45.1	-57.7	3.8	1.49e+00	0	57	104	1815085056	60	16679
2026-01-03 11:13:31.71	333.15	6.96	-45.1	-57.7	3.8	1.49e+00	0	57	104	1815085056	60	16657
2026-01-03 11:13:32.72	333.22	6.89	-45.1	-57.7	3.8	1.49e+00	0	57	104	1815085056	60	16605
2026-01-03 11:13:33.73	333.29	6.82	-45.0	-57.7	3.8	1.49e+00	0	57	104	1815085056	60	16543
2026-01-03 11:13:34.74	333.36	6.75	-45.0	-57.7	3.8	1.49e+00	0	57	104	1815085056	60	16606
2026-01-03 11:13:35.75	333.44	6.68	-45.0	-57.7	3.8	1.49e+00	0	57	104	1815085056	60	16551
2026-01-03 11:13:36.76	333.51	6.62	-45.1	-57.7	3.8	1.49e+00	0	57	104	1815085056	60	16599
2026-01-03 11:13:37.78	333.58	6.55	-44.9	-57.7	3.8	1.49e+00	0	57	104	1815085056	60	16560
2026-01-03 11:13:38.79	333.65	6.48	-44.8	-57.7	3.8	1.49e+00	0	57	104	1815085056	60	16507
2026-01-03 11:13:39.80	333.72	6.41	-45.0	-57.7	3.8	1.49e+00	0	57	104	1815085056	60	16533
2026-01-03 11:13:40.81	333.79	6.34	-45.0	-57.6	3.8	1.49e+00	0	57	104	1815085056	60	16475
2026-01-03 11:13:41.82	333.86	6.27	-45.0	-57.6	3.8	1.49e+00	0	58	104	1815085056	60	16487
2026-01-03 11:13:42.83	333.93	6.21	-45.0	-57.6	3.8	1.49e+00	0	57	104	1815085056	60	16476
2026-01-03 11:13:43.84	334.00	6.14	-45.0	-57.6	3.8	1.49e+00	0	57	104	1815085056	60	16453
2026-01-03 11:13:44.85	334.06	6.07	-45.0	-57.6	3.8	1.49e+00	0	57	104	1815085056	60	16483
2026-01-03 11:13:45.86	334.13	6.00	-45.0	-57.6	3.8	1.49e+00	0	57	104	1815085056	60	16474
2026-01-03 11:13:46.88	334.20	5.94	-45.0	-57.6	3.8	1.49e+00	0	57	104	1815085056	60	16474
2026-01-03 11:13:47.89	334.27	5.87	-45.0	-57.6	3.8	1.49e+00	0	57	104	1815085056	60	16488
2026-01-03 11:13:48.90	334.34	5.80	-45.0	-57.6	3.8	1.49e+00	0	57	104	1815085056	60	16474
2026-01-03 11:13:49.91	334.40	5.74	-44.9	-57.6	3.8	1.49e+00	0	57	104	1815085056	60	16484
2026-01-03 11:13:50.92	334.47	5.67	-45.0	-57.6	3.8	1.49e+00	0	57	104	1815085056	60	16461
2026-01-03 11:13:51.93	334.54	5.60	-45.0	-57.6	3.8	1.49e+00	0	57	104	1815085056	60	16427
2026-01-03 11:13:52.94	334.60	5.54	-45.0	-57.6	3.8	1.49e+00	0	57	104	1815085056	60	16468
2026-01-03 11:13:53.95	334.67	5.47	-45.0	-57.6	3.8	1.49e+00	0	57	104	1815085056	60	16441
2026-01-03 11:13:54.96	334.73	5.40	-45.0	-57.6	3.8	1.49e+00	0	57	104	1815085056	60	16450
2026-01-03 11:13:55.97	334.80	5.34	-45.0	-57.6	3.8	1.49e+00	0	57	104	1815085056	60	16460
2026-01-03 11:13:56.98	334.86	5.27	-45.0	-57.6	3.8	1.49e+00	0	57	104	1815085056	60	16443
2026-01-03 11:13:58.00	334.93	5.21	-45.0	-57.6	3.8	1.49e+00	0	57	104	1815085056	60	16458
2026-01-03 11:13:59.01	334.99	5.14	-45.0	-57.7	3.8	1.49e+00	0	58	104	1815085056	60	16532
2026-01-03 11:14:00.02	335.06	5.08	-45.0	-57.6	3.8	1.49e+00	0	57	104	1815085056	60	16479
2026-01-03 11:14:01.02	335.12	5.01	-45.0	-57.6	3.8	1.49e+00	0	57	104	1815085056	60	16490
2026-01-03 11:14:02.03	335.19	4.95	-45.0	-57.7	3.8	1.49e+00	0	57	104	1815085056	60	16505
2026-01-03 11:14:03.04	335.25	4.88	-45.0	-57.6	3.8	1.49e+00	0	57	104	1815085056	60	16386
2026-01-03 11:14:04.06	335.31	4.82	-45.0	-57.6	3.8	1.49e+00	0	57	104	1815085056	60	16455
2026-01-03 11:14:05.07	335.38	4.75	-45.0	-57.6	3.8	1.49e+00	0	57	104	1815085056	60	16473
2026-01-03 11:14:06.08	335.44	4.69	-45.0	-57.6	3.8	1.49e+00	0	57	104	1815085056	60	16479
2026-01-03 11:14:07.09	335.50	4.62	-45.0	-57.6	3.8	1.49e+00	0	57	104	1815085056	60	16445
2026-01-03 11:14:08.10	335.56	4.56	-45.0	-57.6	3.8	1.49e+00	0	57	104	1815085056	60	16477
2026-01-03 11:14:09.11	335.63	4.49	-45.0	-57.6	3.8	1.49e+00	0	57	104	1815085056	60	16429
2026-01-03 11:14:10.12	335.69	4.43	-45.0	-57.6	3.8	1.49e+00	0	57	104	1815085056	60	16480
2026-01-03 11:14:11.13	335.75	4.37	-45.0	-57.6	3.8	1.49e+00	0	57	104	1815085056	60	16391
2026-01-03 11:14:12.14	335.81	4.30	-45.0	-57.6	3.8	1.49e+00	0	57	104	1815085056	60	16414
2026-01-03 11:14:13.15	335.87	4.24	-45.0	-57.6	3.8	1.49e+00	0	57	104	1815085056	60	16461
2026-01-03 11:14:14.16	335.93	4.17	-45.0	-57.6	3.8	1.49e+00	0	58	104	1815085056	60	16423
2026-01-03 11:14:15.17	335.99	4.11	-44.9	-57.6	3.8	1.49e+00	0	57	104	1815085056	60	16374
2026-01-03 11:14:16.18	336.05	4.05	-45.0	-57.6	3.8	1.49e+00	0	57	104	1815085056	60	16450
2026-01-03 11:14:17.19	336.11	3.98	-45.0	-57.6	3.8	1.49e+00	0	57	104	1815085056	60	16408
2026-01-03 11:14:18.20	336.17	3.92	-44.9	-57.6	3.8	1.49e+00	0	58	104	1815085056	60	16445
2026-01-03 11:14:19.21	336.23	3.86	-45.0	-57.6	3.8	1.49e+00	0	57	104	1815085056	60	16469
2026-01-03 11:14:20.23	336.29	3.80	-45.0	-57.6	3.8	1.49e+00	0	57	104	1815085056	60	16430
2026-01-03 11:14:21.24	336.35	3.73	-45.0	-57.6	3.8	1.49e+00	0	57	104	1815085056	60	16458
2026-01-03 11:14:22.25	336.41	3.67	-45.0	-57.6	3.8	1.49e+00	0	57	104	1815085056	60	16444
2026-01-03 11:14:23.26	336.47	3.61	-45.0	-57.6	3.8	1.49e+00	0	57	104	1815085056	60	16386
