passes_logs/2026/01/03/R2.0S_Moscow/R2.0S_Moscow__20260103_222059_NOAA_20_JPSS-1_rec.log

#Pass ID: 20260103_222059_NOAA 20 (JPSS-1)
#Satellite: NOAA 20 (JPSS-1)
#Configuration: NOAA 20
#almurnet v.1.7.20251203
#Start time: 2026-01-03 22:21:01

#Version: 2.2.20231116
#Station: R2.0S_Moscow
#Location: 37.707566 lon 55.798166 lat
#TLE: 1 43013U 17073A   26003.41800368  .00000169  00000+0  10117-3 0  9998
#TLE: 2 43013  98.7624 304.4804 0001884  56.1176 304.0179 14.19532918421092

#Time	Az	El	Level	Level2	SNR	BER	BlckErr	Temp	State	Recorded	gain1	gain2
2026-01-03 22:21:01.65	23.92	2.13	-41.7	-57.0	3.8	1.49e+00	0	48	0	0	55	20494
2026-01-03 22:21:02.66	23.99	2.18	-41.8	-57.1	3.8	1.49e+00	0	48	104	0	54	21761
2026-01-03 22:21:03.67	24.05	2.24	-41.8	-57.0	3.8	1.49e+00	0	48	104	0	54	21731
2026-01-03 22:21:04.68	24.12	2.30	-41.8	-57.0	3.8	1.49e+00	0	48	104	0	54	21647
2026-01-03 22:21:05.69	24.18	2.36	-41.8	-57.0	3.8	1.49e+00	0	48	104	0	54	21698
2026-01-03 22:21:06.70	24.25	2.41	-41.8	-57.0	3.8	1.49e+00	0	48	104	0	54	21682
2026-01-03 22:21:07.72	24.31	2.47	-41.8	-57.0	3.8	1.49e+00	0	48	104	0	54	21697
2026-01-03 22:21:08.73	24.38	2.53	-41.8	-57.0	3.8	1.49e+00	0	49	104	0	54	21703
2026-01-03 22:21:09.74	24.44	2.59	-41.8	-57.0	3.8	1.49e+00	0	48	104	0	54	21736
2026-01-03 22:21:10.75	24.51	2.65	-41.8	-57.0	3.8	1.49e+00	0	49	104	0	54	21708
2026-01-03 22:21:11.76	24.58	2.71	-41.8	-57.0	3.8	1.49e+00	0	49	104	0	54	21715
2026-01-03 22:21:12.77	24.64	2.76	-41.8	-57.0	3.8	1.49e+00	0	49	104	0	54	21700
2026-01-03 22:21:13.78	24.71	2.82	-41.8	-57.0	3.8	1.49e+00	0	49	104	0	54	21740
2026-01-03 22:21:14.79	24.78	2.88	-41.8	-57.0	3.8	1.49e+00	0	49	104	0	54	21738
2026-01-03 22:21:15.81	24.85	2.94	-41.8	-57.0	3.8	1.49e+00	0	49	104	0	54	21679
2026-01-03 22:21:16.82	24.91	3.00	-41.8	-57.0	3.8	1.49e+00	0	49	104	0	54	21659
2026-01-03 22:21:17.83	24.98	3.06	-41.8	-57.0	3.8	1.49e+00	0	49	104	0	54	21691
2026-01-03 22:21:18.84	25.05	3.12	-41.8	-57.0	3.8	1.49e+00	0	49	104	0	54	21670
2026-01-03 22:21:19.85	25.12	3.17	-41.8	-57.0	3.8	1.49e+00	0	49	104	0	54	21722
2026-01-03 22:21:20.86	25.19	3.23	-41.8	-57.0	3.8	1.49e+00	0	49	104	0	54	21654
2026-01-03 22:21:21.87	25.26	3.29	-41.8	-57.0	3.8	1.49e+00	0	49	104	0	54	21711
2026-01-03 22:21:22.88	25.32	3.35	-41.8	-57.0	3.8	1.49e+00	0	49	104	0	54	21688
2026-01-03 22:21:23.89	25.39	3.41	-41.8	-57.0	3.8	1.49e+00	0	49	104	0	54	21719
2026-01-03 22:21:24.90	25.46	3.47	-41.8	-57.0	3.8	1.49e+00	0	49	104	0	54	21717
2026-01-03 22:21:25.91	25.53	3.53	-41.8	-57.0	3.8	1.49e+00	0	50	104	0	54	21690
2026-01-03 22:21:26.92	25.60	3.59	-41.8	-57.0	3.8	1.49e+00	0	50	104	0	54	21686
2026-01-03 22:21:27.94	25.67	3.65	-41.8	-57.0	3.8	1.49e+00	0	50	104	0	54	21671
2026-01-03 22:21:28.95	25.75	3.71	-41.8	-57.0	3.8	1.49e+00	0	50	104	0	54	21695
2026-01-03 22:21:29.96	25.82	3.77	-41.8	-57.0	3.8	1.49e+00	0	50	104	0	54	21706
2026-01-03 22:21:30.97	25.89	3.83	-41.8	-57.0	3.8	1.49e+00	0	50	104	0	54	21698
2026-01-03 22:21:31.98	25.96	3.89	-41.8	-57.0	3.8	1.49e+00	0	50	104	0	54	21645
2026-01-03 22:21:32.99	26.03	3.95	-41.8	-57.0	3.8	1.49e+00	0	50	104	0	54	21703
2026-01-03 22:21:34.00	26.10	4.01	-41.8	-57.0	3.8	1.49e+00	0	50	104	0	54	21689
2026-01-03 22:21:35.01	26.17	4.07	-41.7	-57.0	3.8	1.49e+00	0	50	104	0	54	21685
2026-01-03 22:21:36.02	26.25	4.13	-41.8	-57.0	3.8	1.49e+00	0	50	104	0	54	21681
2026-01-03 22:21:37.03	26.32	4.19	-41.8	-57.0	3.8	1.49e+00	0	50	104	0	54	21653
2026-01-03 22:21:38.05	26.39	4.25	-41.8	-57.0	3.8	1.49e+00	0	50	104	0	54	21718
2026-01-03 22:21:39.06	26.47	4.31	-41.7	-57.0	3.8	1.49e+00	0	50	104	0	54	21665
2026-01-03 22:21:40.07	26.54	4.37	-41.7	-57.0	3.8	1.49e+00	0	50	104	0	54	21653
2026-01-03 22:21:41.08	26.62	4.44	-41.7	-57.0	3.8	1.49e+00	0	50	104	0	54	21631
2026-01-03 22:21:42.09	26.69	4.50	-41.8	-57.0	3.8	1.49e+00	0	50	104	0	54	21713
2026-01-03 22:21:43.10	26.76	4.56	-41.7	-57.0	3.8	1.49e+00	0	51	104	0	54	21668
2026-01-03 22:21:44.11	26.84	4.62	-41.8	-57.0	3.8	1.49e+00	0	51	104	0	54	21720
2026-01-03 22:21:45.12	26.91	4.68	-41.7	-57.0	3.8	1.49e+00	0	51	104	0	54	21644
2026-01-03 22:21:46.14	26.99	4.74	-41.7	-57.0	3.8	1.49e+00	0	51	104	0	54	21663
2026-01-03 22:21:47.14	27.07	4.80	-41.7	-57.0	3.8	1.49e+00	0	51	104	0	54	21734
2026-01-03 22:21:48.16	27.14	4.87	-41.7	-57.0	3.8	1.49e+00	0	51	104	0	54	21713
2026-01-03 22:21:49.17	27.22	4.93	-41.7	-57.0	3.8	1.49e+00	0	51	104	0	54	21649
2026-01-03 22:21:50.18	27.30	4.99	-41.7	-57.0	3.8	1.49e+00	0	51	104	0	54	21664
2026-01-03 22:21:51.19	27.37	5.05	-41.8	-57.0	3.8	1.49e+00	0	51	104	0	54	21671
2026-01-03 22:21:52.20	27.45	5.11	-41.7	-57.0	3.8	1.49e+00	0	51	104	0	54	21659
2026-01-03 22:21:53.21	27.53	5.18	-41.7	-57.0	3.8	1.49e+00	0	51	104	0	54	21622
2026-01-03 22:21:54.22	27.61	5.24	-41.7	-57.0	3.8	1.49e+00	0	51	104	0	54	21625
2026-01-03 22:21:55.23	27.68	5.30	-41.8	-57.0	3.8	1.49e+00	0	51	104	0	54	21680
2026-01-03 22:21:56.24	27.76	5.36	-41.8	-57.0	3.8	1.49e+00	0	51	104	0	54	21732
2026-01-03 22:21:57.25	27.84	5.43	-41.8	-57.0	3.8	1.49e+00	0	51	104	0	54	21649
2026-01-03 22:21:58.26	27.92	5.49	-41.8	-57.0	3.8	1.49e+00	0	51	104	0	54	21655
2026-01-03 22:21:59.27	28.00	5.55	-41.8	-57.0	3.8	1.49e+00	0	51	104	0	54	21660
2026-01-03 22:22:00.29	28.08	5.61	-41.7	-57.0	3.8	1.49e+00	0	52	104	0	54	21654
2026-01-03 22:22:01.30	28.16	5.68	-41.8	-57.0	3.8	1.49e+00	0	52	104	0	54	21676
2026-01-03 22:22:02.31	28.24	5.74	-41.8	-57.0	3.8	1.49e+00	0	52	104	0	54	21676
2026-01-03 22:22:03.32	28.32	5.80	-41.8	-57.0	3.8	1.49e+00	0	52	104	0	54	21698
2026-01-03 22:22:04.33	28.40	5.87	-41.8	-57.0	3.8	1.49e+00	0	52	104	0	54	21665
2026-01-03 22:22:05.34	28.48	5.93	-41.8	-57.0	3.8	1.49e+00	0	52	104	0	54	21670
2026-01-03 22:22:06.35	28.57	5.99	-41.8	-57.0	3.8	1.49e+00	0	52	104	0	54	21672
2026-01-03 22:22:07.36	28.65	6.06	-41.8	-57.0	3.8	1.49e+00	0	52	104	0	54	21711
2026-01-03 22:22:08.38	28.73	6.12	-41.8	-57.0	3.8	1.49e+00	0	52	104	0	54	21624
2026-01-03 22:22:09.39	28.82	6.19	-41.8	-57.0	3.8	1.49e+00	0	52	104	0	54	21638
2026-01-03 22:22:10.40	28.90	6.25	-41.8	-57.0	3.8	1.49e+00	0	52	104	0	54	21629
2026-01-03 22:22:11.41	28.98	6.32	-41.8	-57.0	3.8	1.49e+00	0	52	104	0	54	21644
2026-01-03 22:22:12.42	29.07	6.38	-41.8	-56.9	3.8	1.49e+00	0	52	104	0	54	21505
2026-01-03 22:22:13.43	29.15	6.44	-41.7	-56.9	3.8	1.49e+00	0	52	104	0	54	21335
2026-01-03 22:22:14.44	29.23	6.51	-41.7	-56.9	3.8	1.49e+00	0	52	104	0	54	21467
2026-01-03 22:22:15.45	29.32	6.57	-41.8	-57.0	3.8	1.49e+00	0	52	104	0	54	21525
2026-01-03 22:22:16.46	29.40	6.64	-41.8	-56.9	3.8	1.49e+00	0	52	104	0	54	21324
2026-01-03 22:22:17.47	29.49	6.70	-41.7	-56.7	3.8	1.49e+00	0	52	104	0	54	20953
2026-01-03 22:22:18.48	29.58	6.77	-41.7	-56.9	3.8	1.49e+00	0	52	104	0	54	21356
2026-01-03 22:22:19.50	29.66	6.83	-41.8	-56.8	3.8	1.49e+00	0	52	104	0	54	21154
2026-01-03 22:22:20.51	29.75	6.90	-41.7	-56.7	3.8	1.49e+00	0	52	104	0	54	20816
2026-01-03 22:22:21.52	29.84	6.96	-41.7	-56.6	3.8	1.49e+00	0	52	104	0	54	20714
2026-01-03 22:22:22.53	29.93	7.03	-41.7	-56.8	3.8	1.49e+00	0	52	104	0	54	21242
2026-01-03 22:22:23.54	30.01	7.09	-41.7	-56.3	3.8	1.49e+00	0	53	104	0	54	19849
2026-01-03 22:22:24.55	30.10	7.16	-41.7	-56.0	3.8	1.49e+00	0	53	104	0	54	19187
2026-01-03 22:22:25.56	30.19	7.23	-41.6	-53.3	4.2	1.48e+00	0	53	0	0	54	14051
2026-01-03 22:22:26.57	30.28	7.29	-41.5	-52.5	4.5	1.18e+00	5	53	0	1048576	54	12913
2026-01-03 22:22:27.58	30.37	7.36	-41.1	-49.8	6.1	5.16e-01	0	53	0	3145728	54	9399
2026-01-03 22:22:28.59	30.46	7.42	-40.8	-48.2	7.5	1.69e-01	0	52	0	4194304	53	8302
2026-01-03 22:22:29.60	30.55	7.49	-40.8	-47.8	7.9	7.92e-02	0	53	0	6291456	53	7927
2026-01-03 22:22:30.62	30.64	7.56	-40.8	-47.8	7.9	7.94e-02	0	53	0	8388608	53	7933
2026-01-03 22:22:31.63	30.73	7.62	-40.7	-47.3	8.4	6.13e-02	0	53	0	10485760	53	7536
2026-01-03 22:22:32.64	30.82	7.69	-40.4	-46.5	9.2	3.56e-02	0	53	0	12582912	52	7217
2026-01-03 22:22:33.65	30.91	7.76	-40.0	-45.3	10.4	7.71e-03	0	53	0	14680064	52	6317
2026-01-03 22:22:34.66	31.01	7.82	-39.9	-44.7	11.1	2.41e-03	0	53	0	15728640	51	6268
2026-01-03 22:22:35.67	31.10	7.89	-39.7	-44.3	11.6	9.97e-04	0	53	0	17825792	51	5972
2026-01-03 22:22:36.68	31.19	7.96	-39.8	-44.6	11.3	9.17e-04	0	53	0	19922944	51	6163
2026-01-03 22:22:37.69	31.28	8.02	-40.1	-45.2	10.7	2.48e-03	0	53	0	22020096	51	6631
2026-01-03 22:22:38.70	31.38	8.09	-42.0	-49.4	7.4	2.84e-03	0	53	0	24117248	54	9064
2026-01-03 22:22:39.71	31.47	8.16	-40.7	-46.1	10.4	1.43e-01	0	53	0	25165824	53	6533
2026-01-03 22:22:40.72	31.57	8.23	-40.6	-47.3	8.5	4.76e-03	0	53	0	27262976	52	7982
2026-01-03 22:22:41.73	31.66	8.29	-40.5	-51.2	4.7	3.32e-01	0	53	0	29360128	52	12451
2026-01-03 22:22:42.74	31.76	8.36	-40.2	-44.4	12.2	1.32e+00	0	53	0	30408704	51	6051
2026-01-03 22:22:43.76	31.85	8.43	-40.3	-44.7	11.8	6.96e-03	0	53	0	32505856	52	5875
2026-01-03 22:22:44.76	31.95	8.50	-40.1	-44.4	12.2	2.49e-04	0	53	0	34603008	52	5671
2026-01-03 22:22:45.77	32.05	8.57	-40.1	-44.3	12.2	3.12e-04	0	53	0	35651584	52	5631
2026-01-03 22:22:46.79	32.14	8.64	-40.0	-44.0	12.6	1.40e-04	0	53	0	37748736	51	5769
2026-01-03 22:22:47.80	32.24	8.70	-40.1	-44.0	12.6	8.85e-05	0	54	0	39845888	51	5785
2026-01-03 22:22:48.81	32.34	8.77	-40.1	-44.0	12.7	7.70e-05	0	53	0	41943040	51	5749
2026-01-03 22:22:49.82	32.44	8.84	-40.3	-44.2	12.6	8.31e-05	0	53	0	44040192	51	5871
2026-01-03 22:22:50.83	32.54	8.91	-40.2	-44.0	12.8	6.25e-05	0	53	0	45088768	51	5724
2026-01-03 22:22:51.84	32.64	8.98	-40.0	-43.7	13.0	5.72e-05	0	53	0	47185920	51	5566
2026-01-03 22:22:52.85	32.74	9.05	-40.0	-43.6	13.1	3.96e-05	0	54	0	49283072	51	5503
2026-01-03 22:22:53.86	32.84	9.12	-40.0	-43.6	13.2	2.21e-05	0	54	0	51380224	51	5515
2026-01-03 22:22:54.87	32.94	9.18	-40.1	-43.8	13.0	3.05e-05	0	54	0	53477376	51	5652
2026-01-03 22:22:55.88	33.04	9.25	-40.0	-43.6	13.3	2.67e-05	0	53	0	54525952	51	5494
2026-01-03 22:22:56.89	33.14	9.32	-40.2	-43.9	13.0	2.82e-05	0	54	0	56623104	51	5675
2026-01-03 22:22:57.90	33.24	9.39	-40.2	-43.9	12.9	4.73e-05	0	54	0	58720256	51	5710
2026-01-03 22:22:58.91	33.34	9.46	-40.1	-43.7	13.2	1.22e-05	0	54	0	60817408	51	5555
2026-01-03 22:22:59.92	33.45	9.53	-40.2	-43.8	13.0	2.89e-05	0	54	0	62914560	51	5651
2026-01-03 22:23:00.93	33.55	9.60	-40.2	-43.7	13.2	3.35e-05	0	54	0	63963136	51	5565
2026-01-03 22:23:01.94	33.66	9.67	-40.2	-43.7	13.2	1.83e-05	0	54	0	66060288	51	5568
2026-01-03 22:23:02.95	33.76	9.74	-40.2	-43.7	13.2	2.36e-05	0	54	0	68157440	51	5582
2026-01-03 22:23:03.96	33.86	9.81	-40.2	-43.7	13.3	9.90e-06	0	54	0	70254592	51	5532
2026-01-03 22:23:04.97	33.97	9.88	-40.2	-43.6	13.4	1.60e-05	0	54	0	72351744	51	5486
2026-01-03 22:23:05.98	34.08	9.95	-40.1	-43.4	13.6	1.06e-05	0	54	0	73400320	51	5388
2026-01-03 22:23:06.99	34.18	10.02	-40.2	-43.6	13.4	1.29e-05	0	54	0	75497472	51	5498
2026-01-03 22:23:08.00	34.29	10.09	-40.1	-43.5	13.5	9.10e-06	0	54	0	77594624	51	5421
2026-01-03 22:23:09.01	34.40	10.17	-40.2	-43.5	13.6	7.60e-06	0	54	0	79691776	51	5411
2026-01-03 22:23:10.02	34.50	10.24	-40.2	-43.5	13.6	1.44e-05	0	54	0	81788928	51	5415
2026-01-03 22:23:11.03	34.61	10.31	-40.3	-43.6	13.6	6.10e-06	0	54	0	82837504	51	5465
2026-01-03 22:23:12.04	34.72	10.38	-40.4	-43.8	13.4	1.52e-05	0	54	0	84934656	51	5594
2026-01-03 22:23:13.05	34.83	10.45	-40.4	-43.8	13.4	1.52e-05	0	54	0	87031808	51	5601
2026-01-03 22:23:14.06	34.94	10.52	-40.6	-44.0	13.1	2.44e-05	0	54	0	89128960	51	5784
2026-01-03 22:23:15.07	35.05	10.59	-40.4	-43.8	13.4	1.75e-05	0	54	0	91226112	51	5593
2026-01-03 22:23:16.08	35.16	10.66	-40.4	-43.8	13.4	1.60e-05	0	54	0	92274688	51	5640
2026-01-03 22:23:17.09	35.27	10.74	-40.4	-43.8	13.4	1.06e-05	0	54	0	94371840	51	5606
2026-01-03 22:23:18.10	35.39	10.81	-40.4	-43.7	13.6	9.90e-06	0	54	0	96468992	51	5549
2026-01-03 22:23:19.11	35.50	10.88	-40.4	-43.6	13.6	8.30e-06	0	54	0	98566144	51	5496
2026-01-03 22:23:20.12	35.61	10.95	-40.4	-43.6	13.6	6.80e-06	0	54	0	100663296	51	5510
2026-01-03 22:23:21.13	35.72	11.02	-40.4	-43.7	13.5	6.80e-06	0	54	0	102760448	51	5567
2026-01-03 22:23:22.14	35.84	11.10	-40.4	-43.6	13.6	1.06e-05	0	54	0	103809024	51	5509
2026-01-03 22:23:23.15	35.95	11.17	-40.4	-43.7	13.6	5.30e-06	0	54	0	105906176	51	5535
2026-01-03 22:23:24.16	36.07	11.24	-40.3	-43.5	13.8	4.50e-06	0	54	0	108003328	51	5405
2026-01-03 22:23:25.17	36.18	11.31	-40.3	-43.5	13.8	8.30e-06	0	54	0	110100480	51	5405
2026-01-03 22:23:26.18	36.30	11.39	-40.3	-43.4	13.8	4.50e-06	0	55	0	112197632	51	5400
2026-01-03 22:23:27.19	36.42	11.46	-40.2	-43.3	14.0	3.80e-06	0	55	0	113246208	51	5313
2026-01-03 22:23:28.20	36.53	11.53	-40.1	-43.2	14.2	1.50e-06	0	55	0	115343360	51	5219
2026-01-03 22:23:29.21	36.65	11.61	-40.1	-43.2	14.1	1.50e-06	0	54	0	117440512	51	5252
2026-01-03 22:23:30.22	36.77	11.68	-40.0	-43.0	14.3	0.00e+00	0	54	0	119537664	51	5152
2026-01-03 22:23:31.23	36.89	11.75	-40.0	-43.0	14.3	2.20e-06	0	54	0	121634816	51	5139
2026-01-03 22:23:32.24	37.01	11.83	-40.0	-43.0	14.3	2.20e-06	0	54	0	122683392	51	5142
2026-01-03 22:23:33.25	37.13	11.90	-40.0	-43.0	14.4	2.20e-06	0	54	0	124780544	51	5140
2026-01-03 22:23:34.26	37.25	11.97	-40.1	-43.0	14.4	2.20e-06	0	55	0	126877696	51	5139
2026-01-03 22:23:35.27	37.37	12.05	-40.1	-43.0	14.3	0.00e+00	0	55	0	128974848	51	5144
2026-01-03 22:23:36.27	37.49	12.12	-40.0	-43.0	14.4	2.20e-06	0	54	0	131072000	51	5117
2026-01-03 22:23:37.29	37.62	12.20	-40.0	-43.0	14.4	0.00e+00	0	54	0	132120576	51	5117
2026-01-03 22:23:38.30	37.74	12.27	-40.0	-43.0	14.5	7.00e-07	0	55	0	134217728	51	5111
2026-01-03 22:23:39.31	37.86	12.34	-40.0	-42.9	14.5	7.00e-07	0	55	0	136314880	51	5074
2026-01-03 22:23:40.32	37.99	12.42	-40.0	-42.8	14.6	0.00e+00	0	55	0	138412032	51	5038
2026-01-03 22:23:41.33	38.11	12.49	-39.9	-42.7	14.7	0.00e+00	0	55	0	140509184	51	4974
2026-01-03 22:23:42.34	38.24	12.57	-40.0	-42.8	14.6	7.00e-07	0	55	0	141557760	51	5023
2026-01-03 22:23:43.35	38.37	12.64	-39.9	-42.7	14.8	0.00e+00	0	55	0	143654912	51	4935
2026-01-03 22:23:44.36	38.49	12.72	-39.9	-42.7	14.8	7.00e-07	0	55	0	145752064	51	4955
2026-01-03 22:23:45.37	38.62	12.79	-39.9	-42.6	14.8	0.00e+00	0	55	0	147849216	51	4916
2026-01-03 22:23:46.38	38.75	12.87	-39.9	-42.7	14.8	0.00e+00	0	55	0	149946368	51	4968
2026-01-03 22:23:47.39	38.88	12.94	-39.9	-42.7	14.8	0.00e+00	0	55	0	150994944	51	4983
2026-01-03 22:23:48.40	39.01	13.02	-40.0	-42.8	14.6	0.00e+00	0	55	0	153092096	51	5033
2026-01-03 22:23:49.41	39.14	13.09	-40.0	-42.9	14.6	0.00e+00	0	55	0	155189248	51	5071
2026-01-03 22:23:50.42	39.27	13.17	-40.0	-42.9	14.6	0.00e+00	0	55	0	157286400	51	5049
2026-01-03 22:23:51.43	39.40	13.24	-40.2	-43.1	14.4	0.00e+00	0	55	0	159383552	51	5188
2026-01-03 22:23:52.44	39.53	13.32	-40.2	-43.1	14.4	7.00e-07	0	55	0	160432128	51	5208
2026-01-03 22:23:53.45	39.66	13.40	-40.2	-43.1	14.4	0.00e+00	0	55	0	162529280	51	5216
2026-01-03 22:23:54.46	39.80	13.47	-40.2	-43.1	14.4	2.20e-06	0	55	0	164626432	51	5204
2026-01-03 22:23:55.47	39.93	13.55	-40.1	-43.0	14.5	1.50e-06	0	55	0	166723584	51	5151
2026-01-03 22:23:56.48	40.06	13.62	-40.1	-43.1	14.5	0.00e+00	0	55	0	168820736	51	5165
2026-01-03 22:23:57.49	40.20	13.70	-40.1	-43.0	14.5	7.00e-07	0	55	0	170917888	51	5152
2026-01-03 22:23:58.50	40.34	13.78	-40.1	-43.0	14.6	1.50e-06	0	55	0	171966464	51	5111
2026-01-03 22:23:59.51	40.47	13.85	-40.0	-42.8	14.7	0.00e+00	0	55	0	174063616	51	5029
2026-01-03 22:24:00.52	40.61	13.93	-40.1	-42.9	14.6	0.00e+00	0	55	0	176160768	51	5080
2026-01-03 22:24:01.53	40.75	14.01	-40.1	-42.9	14.7	0.00e+00	0	55	0	178257920	51	5060
2026-01-03 22:24:02.54	40.89	14.08	-40.0	-42.8	14.8	7.00e-07	0	55	0	180355072	51	5024
2026-01-03 22:24:03.55	41.03	14.16	-40.0	-42.8	14.7	0.00e+00	0	55	0	181403648	51	5026
2026-01-03 22:24:04.56	41.17	14.24	-40.0	-42.8	14.8	0.00e+00	0	55	0	183500800	51	5000
2026-01-03 22:24:05.57	41.31	14.31	-40.0	-42.7	14.9	7.00e-07	0	55	0	185597952	51	4965
2026-01-03 22:24:06.58	41.45	14.39	-40.0	-42.8	14.8	0.00e+00	0	55	0	187695104	51	5018
2026-01-03 22:24:07.58	41.59	14.47	-39.9	-42.7	14.9	0.00e+00	0	55	0	189792256	51	4941
2026-01-03 22:24:08.59	41.73	14.54	-40.0	-42.7	14.9	0.00e+00	0	55	0	190840832	51	4975
2026-01-03 22:24:09.60	41.87	14.62	-39.9	-42.6	15.0	0.00e+00	0	55	0	192937984	51	4912
2026-01-03 22:24:10.61	42.02	14.70	-39.9	-42.6	15.0	7.00e-07	0	55	0	195035136	51	4909
2026-01-03 22:24:11.62	42.16	14.78	-39.9	-42.7	14.9	0.00e+00	0	55	0	197132288	51	4950
2026-01-03 22:24:12.64	42.31	14.85	-39.9	-42.7	15.0	0.00e+00	0	55	0	199229440	51	4934
2026-01-03 22:24:13.65	42.46	14.93	-39.9	-42.6	15.1	0.00e+00	0	55	0	200278016	51	4889
2026-01-03 22:24:14.65	42.60	15.01	-39.9	-42.6	15.0	0.00e+00	0	55	0	202375168	51	4885
2026-01-03 22:24:15.66	42.75	15.09	-39.9	-42.6	15.1	0.00e+00	0	55	0	204472320	51	4895
2026-01-03 22:24:16.67	42.90	15.16	-39.9	-42.7	15.0	0.00e+00	0	55	0	206569472	51	4933
2026-01-03 22:24:17.69	43.05	15.24	-39.8	-42.5	15.1	0.00e+00	0	55	0	208666624	51	4850
2026-01-03 22:24:18.70	43.20	15.32	-39.8	-42.5	15.2	0.00e+00	0	55	0	210763776	51	4838
2026-01-03 22:24:19.71	43.35	15.40	-39.8	-42.5	15.2	0.00e+00	0	55	0	211812352	51	4827
2026-01-03 22:24:20.72	43.50	15.48	-39.8	-42.5	15.1	0.00e+00	0	55	0	213909504	51	4855
2026-01-03 22:24:21.73	43.66	15.55	-39.8	-42.5	15.2	0.00e+00	0	55	0	216006656	51	4831
2026-01-03 22:24:22.74	43.81	15.63	-39.9	-42.6	15.1	0.00e+00	0	55	0	218103808	51	4889
2026-01-03 22:24:23.75	43.97	15.71	-39.8	-42.4	15.2	0.00e+00	0	55	0	220200960	51	4811
2026-01-03 22:24:24.76	44.12	15.79	-39.8	-42.4	15.3	0.00e+00	0	56	0	221249536	51	4799
2026-01-03 22:24:25.77	44.28	15.87	-39.8	-42.4	15.3	0.00e+00	0	55	0	223346688	51	4777
2026-01-03 22:24:26.78	44.43	15.95	-39.6	-42.2	15.5	0.00e+00	0	55	0	225443840	51	4664
2026-01-03 22:24:27.79	44.59	16.02	-39.6	-42.2	15.5	0.00e+00	0	55	0	227540992	51	4660
2026-01-03 22:24:28.80	44.75	16.10	-39.6	-42.1	15.6	0.00e+00	0	55	0	229638144	51	4610
2026-01-03 22:24:29.81	44.91	16.18	-39.6	-42.2	15.5	0.00e+00	0	55	0	230686720	51	4663
2026-01-03 22:24:30.82	45.07	16.26	-39.6	-42.1	15.6	0.00e+00	0	55	0	232783872	51	4610
2026-01-03 22:24:31.83	45.23	16.34	-39.6	-42.2	15.5	0.00e+00	0	55	0	234881024	51	4664
2026-01-03 22:24:32.84	45.39	16.42	-39.5	-42.0	15.7	0.00e+00	0	55	0	236978176	51	4585
2026-01-03 22:24:33.85	45.55	16.50	-39.6	-42.1	15.6	0.00e+00	0	55	0	239075328	51	4606
2026-01-03 22:24:34.86	45.71	16.58	-39.6	-42.1	15.6	0.00e+00	0	56	0	240123904	51	4628
2026-01-03 22:24:35.87	45.88	16.65	-39.6	-42.2	15.6	0.00e+00	0	56	0	242221056	51	4659
2026-01-03 22:24:36.88	46.04	16.73	-39.7	-42.2	15.5	0.00e+00	0	56	0	244318208	51	4675
2026-01-03 22:24:37.89	46.21	16.81	-39.6	-42.2	15.6	0.00e+00	0	56	0	246415360	51	4662
2026-01-03 22:24:38.90	46.37	16.89	-39.7	-42.2	15.5	0.00e+00	0	55	0	248512512	51	4692
2026-01-03 22:24:39.91	46.54	16.97	-39.7	-42.3	15.4	0.00e+00	0	56	0	249561088	51	4734
2026-01-03 22:24:40.92	46.71	17.05	-39.8	-42.3	15.4	0.00e+00	0	56	0	251658240	51	4755
2026-01-03 22:24:41.93	46.88	17.13	-39.8	-42.5	15.2	0.00e+00	0	56	0	253755392	51	4818
2026-01-03 22:24:42.94	47.05	17.21	-39.9	-42.5	15.2	0.00e+00	0	56	0	255852544	51	4858
2026-01-03 22:24:43.95	47.22	17.29	-39.9	-42.5	15.3	0.00e+00	0	56	0	257949696	51	4827
2026-01-03 22:24:44.96	47.39	17.37	-39.9	-42.6	15.2	0.00e+00	0	56	0	258998272	51	4872
2026-01-03 22:24:45.97	47.56	17.44	-39.9	-42.6	15.1	0.00e+00	0	56	0	261095424	51	4896
2026-01-03 22:24:46.98	47.74	17.52	-39.9	-42.6	15.2	0.00e+00	0	56	0	263192576	51	4892
2026-01-03 22:24:47.99	47.91	17.60	-39.9	-42.6	15.2	0.00e+00	0	56	0	265289728	51	4895
2026-01-03 22:24:49.00	48.09	17.68	-39.9	-42.6	15.2	0.00e+00	0	56	0	267386880	51	4882
2026-01-03 22:24:50.01	48.26	17.76	-39.9	-42.6	15.2	0.00e+00	0	56	0	268435456	51	4890
2026-01-03 22:24:51.02	48.44	17.84	-39.9	-42.5	15.2	7.00e-07	0	56	0	270532608	51	4861
2026-01-03 22:24:52.03	48.62	17.92	-39.8	-42.4	15.3	0.00e+00	0	56	0	272629760	51	4799
2026-01-03 22:24:53.04	48.80	18.00	-39.7	-42.3	15.5	0.00e+00	0	55	0	274726912	51	4727
2026-01-03 22:24:54.05	48.97	18.08	-39.6	-42.1	15.7	0.00e+00	0	56	0	276824064	51	4599
2026-01-03 22:24:55.06	49.16	18.16	-39.6	-42.1	15.7	0.00e+00	0	56	0	278921216	51	4610
2026-01-03 22:24:56.07	49.34	18.24	-39.5	-42.0	15.8	0.00e+00	0	56	0	279969792	51	4559
2026-01-03 22:24:57.08	49.52	18.31	-39.5	-41.9	15.9	0.00e+00	0	55	0	282066944	51	4509
2026-01-03 22:24:58.09	49.70	18.39	-39.5	-41.9	15.9	0.00e+00	0	56	0	284164096	50	4813
2026-01-03 22:24:59.10	49.89	18.47	-39.5	-42.0	15.9	0.00e+00	0	56	0	286261248	50	4818
2026-01-03 22:25:00.11	50.07	18.55	-39.5	-41.9	15.9	0.00e+00	0	56	0	288358400	50	4789
2026-01-03 22:25:01.12	50.26	18.63	-39.4	-41.8	16.1	0.00e+00	0	56	0	289406976	50	4710
2026-01-03 22:25:02.13	50.45	18.71	-39.3	-41.7	16.2	0.00e+00	0	56	0	291504128	50	4663
2026-01-03 22:25:03.14	50.63	18.79	-39.3	-41.6	16.2	0.00e+00	0	56	0	293601280	50	4643
2026-01-03 22:25:04.15	50.82	18.87	-39.2	-41.5	16.3	0.00e+00	0	56	0	295698432	50	4587
2026-01-03 22:25:05.16	51.01	18.95	-39.1	-41.4	16.5	0.00e+00	0	56	0	297795584	50	4502
2026-01-03 22:25:06.17	51.20	19.02	-39.0	-41.2	16.6	0.00e+00	0	56	0	298844160	50	4438
2026-01-03 22:25:07.18	51.40	19.10	-38.9	-41.1	16.7	0.00e+00	0	56	0	300941312	49	4634
2026-01-03 22:25:08.19	51.59	19.18	-38.8	-41.0	16.9	0.00e+00	0	56	0	303038464	49	4570
2026-01-03 22:25:09.20	51.78	19.26	-38.9	-41.0	16.8	0.00e+00	0	55	0	305135616	49	4591
2026-01-03 22:25:10.20	51.97	19.34	-38.8	-41.0	16.9	0.00e+00	0	56	0	307232768	49	4568
2026-01-03 22:25:11.21	52.17	19.42	-38.8	-40.9	16.9	0.00e+00	0	56	0	308281344	49	4543
2026-01-03 22:25:12.22	52.37	19.49	-38.9	-41.0	16.8	0.00e+00	0	56	0	310378496	49	4569
2026-01-03 22:25:13.23	52.57	19.57	-38.9	-41.1	16.8	0.00e+00	0	56	0	312475648	49	4599
2026-01-03 22:25:14.24	52.76	19.65	-38.8	-40.9	16.9	0.00e+00	0	56	0	314572800	49	4521
2026-01-03 22:25:15.25	52.96	19.73	-38.8	-40.9	17.0	0.00e+00	0	56	0	316669952	49	4498
2026-01-03 22:25:16.26	53.16	19.81	-38.8	-40.9	16.9	0.00e+00	0	56	0	317718528	49	4513
2026-01-03 22:25:17.27	53.37	19.88	-38.7	-40.7	17.1	0.00e+00	0	56	0	319815680	49	4441
2026-01-03 22:25:18.28	53.57	19.96	-38.6	-40.7	17.1	0.00e+00	0	56	0	321912832	49	4424
2026-01-03 22:25:19.29	53.77	20.04	-38.7	-40.7	17.1	0.00e+00	0	56	0	324009984	49	4436
2026-01-03 22:25:20.30	53.98	20.12	-38.7	-40.8	17.1	0.00e+00	0	56	0	326107136	49	4458
2026-01-03 22:25:21.31	54.18	20.20	-38.7	-40.8	17.0	0.00e+00	0	56	0	327155712	49	4491
2026-01-03 22:25:22.32	54.39	20.27	-38.8	-40.9	16.9	0.00e+00	0	56	0	329252864	49	4524
2026-01-03 22:25:23.33	54.60	20.35	-38.8	-41.0	16.9	0.00e+00	0	56	0	331350016	49	4556
2026-01-03 22:25:24.34	54.81	20.43	-38.9	-41.1	16.8	0.00e+00	0	56	0	333447168	49	4623
2026-01-03 22:25:25.35	55.02	20.50	-38.9	-41.1	16.8	0.00e+00	0	56	0	335544320	49	4604
2026-01-03 22:25:26.36	55.23	20.58	-38.9	-41.1	16.7	0.00e+00	0	56	0	336592896	49	4631
2026-01-03 22:25:27.36	55.44	20.66	-38.9	-41.0	16.8	0.00e+00	0	56	0	338690048	49	4595
2026-01-03 22:25:28.37	55.65	20.73	-38.9	-41.0	16.9	0.00e+00	0	56	0	340787200	49	4581
2026-01-03 22:25:29.38	55.86	20.81	-38.8	-40.9	17.0	0.00e+00	0	56	0	342884352	49	4516
2026-01-03 22:25:30.39	56.08	20.88	-38.9	-41.0	16.9	0.00e+00	0	56	0	344981504	49	4577
2026-01-03 22:25:31.40	56.29	20.96	-38.9	-41.1	16.7	0.00e+00	0	56	0	347078656	49	4606
2026-01-03 22:25:32.41	56.51	21.04	-38.9	-41.1	16.8	0.00e+00	0	56	0	348127232	49	4622
2026-01-03 22:25:33.42	56.73	21.11	-39.0	-41.2	16.7	0.00e+00	0	56	0	350224384	49	4668
2026-01-03 22:25:34.43	56.95	21.19	-39.0	-41.3	16.6	0.00e+00	0	56	0	352321536	49	4706
2026-01-03 22:25:35.44	57.17	21.26	-39.0	-41.3	16.6	0.00e+00	0	56	0	354418688	49	4709
2026-01-03 22:25:36.45	57.39	21.34	-39.1	-41.3	16.6	0.00e+00	0	56	0	356515840	49	4713
2026-01-03 22:25:37.46	57.61	21.41	-39.0	-41.2	16.6	0.00e+00	0	56	0	357564416	49	4674
2026-01-03 22:25:38.47	57.84	21.49	-39.0	-41.2	16.6	0.00e+00	0	56	0	359661568	49	4701
2026-01-03 22:25:39.48	58.06	21.56	-39.1	-41.3	16.6	0.00e+00	0	56	0	361758720	49	4725
2026-01-03 22:25:40.49	58.29	21.64	-39.2	-41.4	16.5	0.00e+00	0	56	0	363855872	49	4805
2026-01-03 22:25:41.50	58.51	21.71	-39.2	-41.5	16.4	0.00e+00	0	56	0	365953024	49	4843
2026-01-03 22:25:42.51	58.74	21.78	-39.3	-41.6	16.3	0.00e+00	0	56	0	367001600	49	4894
2026-01-03 22:25:43.52	58.97	21.86	-39.4	-41.7	16.2	0.00e+00	0	56	0	369098752	49	4975
2026-01-03 22:25:44.53	59.20	21.93	-39.5	-41.8	16.0	0.00e+00	0	56	0	371195904	49	5028
2026-01-03 22:25:45.54	59.43	22.00	-39.5	-41.9	15.9	0.00e+00	0	56	0	373293056	49	5078
2026-01-03 22:25:46.55	59.66	22.08	-39.5	-41.9	15.9	0.00e+00	0	56	0	375390208	49	5094
2026-01-03 22:25:47.56	59.90	22.15	-39.5	-41.9	16.0	0.00e+00	0	56	0	376438784	49	5070
2026-01-03 22:25:48.57	60.13	22.22	-39.6	-42.0	15.9	0.00e+00	0	56	0	378535936	49	5122
2026-01-03 22:25:49.58	60.36	22.29	-39.5	-41.9	16.0	0.00e+00	0	56	0	380633088	49	5046
2026-01-03 22:25:50.59	60.60	22.36	-39.4	-41.7	16.1	0.00e+00	0	56	0	382730240	49	4972
2026-01-03 22:25:51.60	60.84	22.44	-39.4	-41.7	16.2	0.00e+00	0	56	0	384827392	49	4951
2026-01-03 22:25:52.61	61.08	22.51	-39.4	-41.8	16.1	0.00e+00	0	56	0	385875968	49	4997
2026-01-03 22:25:53.62	61.32	22.58	-39.4	-41.8	16.0	0.00e+00	0	56	0	387973120	49	5027
2026-01-03 22:25:54.63	61.56	22.65	-39.5	-41.8	16.0	0.00e+00	0	56	0	390070272	49	5040
2026-01-03 22:25:55.64	61.80	22.72	-39.5	-41.9	16.0	0.00e+00	0	56	0	392167424	49	5065
2026-01-03 22:25:56.65	62.04	22.79	-39.6	-42.0	15.9	0.00e+00	0	56	0	394264576	49	5120
2026-01-03 22:25:57.66	62.28	22.86	-39.6	-42.0	15.9	0.00e+00	0	56	0	395313152	49	5130
2026-01-03 22:25:58.67	62.53	22.93	-39.5	-41.9	16.0	0.00e+00	0	56	0	397410304	49	5056
2026-01-03 22:25:59.68	62.78	22.99	-39.4	-41.8	16.0	0.00e+00	0	56	0	399507456	49	5024
2026-01-03 22:26:00.69	63.02	23.06	-39.4	-41.8	16.1	0.00e+00	0	56	0	401604608	49	4995
2026-01-03 22:26:01.70	63.27	23.13	-39.4	-41.8	16.1	0.00e+00	0	56	0	403701760	49	4992
2026-01-03 22:26:02.71	63.52	23.20	-39.4	-41.8	16.1	0.00e+00	0	56	0	404750336	49	4996
2026-01-03 22:26:03.72	63.77	23.27	-39.5	-41.9	16.0	0.00e+00	0	56	0	406847488	49	5064
2026-01-03 22:26:04.73	64.02	23.33	-39.6	-42.0	15.9	0.00e+00	0	56	0	408944640	49	5137
2026-01-03 22:26:05.74	64.27	23.40	-39.7	-42.2	15.7	0.00e+00	0	56	0	411041792	49	5261
2026-01-03 22:26:06.75	64.53	23.47	-39.8	-42.4	15.5	0.00e+00	0	56	0	413138944	50	5061
2026-01-03 22:26:07.76	64.78	23.53	-40.0	-42.6	15.3	0.00e+00	0	56	0	415236096	50	5185
2026-01-03 22:26:08.77	65.04	23.60	-40.0	-42.7	15.2	0.00e+00	0	56	0	416284672	50	5243
2026-01-03 22:26:09.78	65.29	23.66	-40.2	-42.9	15.0	0.00e+00	0	56	0	418381824	50	5361
2026-01-03 22:26:10.79	65.55	23.73	-40.2	-43.0	14.9	0.00e+00	0	56	0	420478976	51	5108
2026-01-03 22:26:11.80	65.81	23.79	-40.3	-43.1	14.7	0.00e+00	0	56	0	422576128	51	5209
2026-01-03 22:26:12.81	66.07	23.85	-40.3	-43.1	14.7	0.00e+00	0	56	0	424673280	51	5217
2026-01-03 22:26:13.82	66.33	23.92	-40.4	-43.2	14.7	7.00e-07	0	56	0	425721856	51	5270
2026-01-03 22:26:14.83	66.59	23.98	-40.4	-43.2	14.6	0.00e+00	0	56	0	427819008	51	5264
2026-01-03 22:26:15.84	66.85	24.04	-40.4	-43.3	14.6	0.00e+00	0	56	0	429916160	51	5294
2026-01-03 22:26:16.85	67.12	24.10	-40.4	-43.3	14.5	7.00e-07	0	56	0	432013312	51	5326
2026-01-03 22:26:17.86	67.38	24.17	-40.4	-43.3	14.5	0.00e+00	0	56	0	434110464	51	5318
2026-01-03 22:26:18.87	67.65	24.23	-40.5	-43.4	14.4	0.00e+00	0	56	0	435159040	51	5397
2026-01-03 22:26:19.88	67.91	24.29	-40.7	-43.7	14.1	2.20e-06	0	56	0	437256192	51	5584
2026-01-03 22:26:20.89	68.18	24.35	-40.6	-43.7	14.0	3.00e-06	0	56	0	439353344	52	5265
2026-01-03 22:26:21.90	68.45	24.41	-40.8	-44.0	13.8	4.50e-06	0	57	0	441450496	52	5439
2026-01-03 22:26:22.91	68.72	24.46	-40.9	-44.1	13.7	7.60e-06	0	56	0	443547648	52	5485
2026-01-03 22:26:23.92	68.99	24.52	-40.8	-44.1	13.7	8.30e-06	0	56	0	444596224	52	5465
2026-01-03 22:26:24.93	69.26	24.58	-40.7	-43.9	13.9	6.10e-06	0	56	0	446693376	52	5358
2026-01-03 22:26:25.94	69.53	24.64	-40.6	-43.6	14.1	2.20e-06	0	57	0	448790528	52	5208
2026-01-03 22:26:26.95	69.81	24.69	-40.5	-43.6	14.1	3.00e-06	0	56	0	450887680	52	5173
2026-01-03 22:26:27.96	70.08	24.75	-40.4	-43.4	14.4	0.00e+00	0	56	0	452984832	52	5061
2026-01-03 22:26:28.97	70.36	24.81	-40.4	-43.3	14.4	1.50e-06	0	56	0	454033408	52	5034
2026-01-03 22:26:29.98	70.63	24.86	-40.5	-43.5	14.1	1.50e-06	0	56	0	456130560	52	5157
2026-01-03 22:26:30.99	70.91	24.92	-40.7	-43.9	13.8	4.50e-06	0	56	0	458227712	52	5357
2026-01-03 22:26:31.99	71.19	24.97	-41.0	-44.3	13.4	9.90e-06	0	56	0	460324864	52	5652
2026-01-03 22:26:33.00	71.47	25.02	-41.3	-45.0	12.7	4.11e-05	0	56	0	462422016	53	5738
2026-01-03 22:26:34.01	71.75	25.07	-41.5	-45.3	12.4	1.16e-04	0	56	0	463470592	53	5927
2026-01-03 22:26:35.02	72.03	25.13	-41.6	-45.6	12.0	2.09e-04	0	57	0	465567744	53	6167
2026-01-03 22:26:36.03	72.31	25.18	-41.5	-45.4	12.2	2.94e-04	0	57	0	467664896	53	6031
2026-01-03 22:26:37.04	72.59	25.23	-41.4	-45.1	12.5	1.20e-04	0	56	0	469762048	53	5855
2026-01-03 22:26:38.05	72.88	25.28	-41.3	-44.8	12.8	8.77e-05	0	56	0	471859200	53	5649
2026-01-03 22:26:39.06	73.16	25.33	-41.1	-44.6	13.1	3.73e-05	0	56	0	472907776	53	5480
2026-01-03 22:26:40.07	73.45	25.38	-41.1	-44.5	13.1	1.44e-05	0	57	0	475004928	53	5440
2026-01-03 22:26:41.08	73.74	25.43	-41.0	-44.3	13.4	1.67e-05	0	56	0	477102080	53	5310
2026-01-03 22:26:42.09	74.02	25.47	-41.0	-44.4	13.3	1.60e-05	0	56	0	479199232	53	5353
2026-01-03 22:26:43.10	74.31	25.52	-41.1	-44.6	13.1	1.22e-05	0	57	0	481296384	53	5478
2026-01-03 22:26:44.11	74.60	25.57	-41.2	-44.8	12.9	3.58e-05	0	57	0	483393536	53	5597
2026-01-03 22:26:45.12	74.89	25.61	-41.2	-44.8	12.9	3.12e-05	0	57	0	484442112	53	5603
2026-01-03 22:26:46.14	75.18	25.66	-41.2	-44.7	13.0	3.58e-05	0	56	0	486539264	53	5573
2026-01-03 22:26:47.15	75.48	25.70	-41.2	-44.7	13.1	2.82e-05	0	56	0	488636416	53	5537
2026-01-03 22:26:48.16	75.77	25.74	-41.1	-44.6	13.1	2.82e-05	0	57	0	490733568	53	5490
2026-01-03 22:26:49.17	76.06	25.79	-41.0	-44.4	13.3	2.21e-05	0	57	0	492830720	53	5373
2026-01-03 22:26:50.18	76.36	25.83	-41.1	-44.6	13.2	2.36e-05	0	57	0	493879296	53	5469
2026-01-03 22:26:51.19	76.65	25.87	-41.1	-44.6	13.2	2.74e-05	0	56	0	495976448	53	5467
2026-01-03 22:26:52.20	76.95	25.91	-41.0	-44.4	13.3	1.83e-05	0	57	0	498073600	53	5363
2026-01-03 22:26:53.21	77.24	25.95	-41.0	-44.4	13.4	1.29e-05	0	56	0	500170752	53	5382
2026-01-03 22:26:54.22	77.54	25.99	-41.0	-44.3	13.4	1.44e-05	0	56	0	502267904	53	5326
2026-01-03 22:26:55.23	77.84	26.03	-41.0	-44.4	13.3	1.52e-05	0	56	0	503316480	53	5366
2026-01-03 22:26:56.23	78.13	26.07	-41.1	-44.4	13.3	1.44e-05	0	57	0	505413632	53	5401
2026-01-03 22:26:57.24	78.43	26.10	-40.9	-44.2	13.5	2.05e-05	0	57	0	507510784	53	5268
2026-01-03 22:26:58.25	78.73	26.14	-40.8	-44.0	13.8	9.10e-06	0	57	0	509607936	53	5111
2026-01-03 22:26:59.26	79.03	26.17	-40.6	-43.7	14.1	1.50e-06	0	56	0	511705088	53	4950
2026-01-03 22:27:00.27	79.33	26.21	-40.6	-43.6	14.2	3.67e-04	0	57	0	512753664	52	5193
2026-01-03 22:27:01.28	79.63	26.24	-40.3	-43.2	14.6	1.50e-06	0	57	0	514850816	52	4958
2026-01-03 22:27:02.29	79.94	26.28	-40.2	-43.1	14.7	0.00e+00	0	57	0	516947968	52	4874
2026-01-03 22:27:03.30	80.24	26.31	-40.2	-43.0	14.7	7.00e-07	0	57	0	519045120	52	4853
2026-01-03 22:27:04.31	80.54	26.34	-40.4	-43.2	14.5	0.00e+00	0	57	0	521142272	52	4980
2026-01-03 22:27:05.33	80.85	26.37	-40.4	-43.3	14.4	0.00e+00	0	57	0	522190848	52	5017
2026-01-03 22:27:06.34	81.16	26.40	-40.5	-43.5	14.3	7.00e-07	0	57	0	524288000	52	5117
2026-01-03 22:27:07.34	81.46	26.43	-40.6	-43.7	14.1	7.00e-07	0	57	0	526385152	52	5231
2026-01-03 22:27:08.35	81.76	26.46	-40.7	-43.7	14.0	2.20e-06	0	57	0	528482304	52	5264
2026-01-03 22:27:09.36	82.07	26.48	-40.8	-43.9	13.8	2.20e-06	0	57	0	530579456	52	5391
2026-01-03 22:27:10.37	82.38	26.51	-40.8	-43.9	13.8	4.50e-06	0	57	0	531628032	52	5387
2026-01-03 22:27:11.38	82.68	26.54	-40.8	-43.9	13.9	3.80e-06	0	57	0	533725184	52	5365
2026-01-03 22:27:12.39	82.99	26.56	-40.8	-44.0	13.7	9.10e-06	0	57	0	535822336	52	5456
2026-01-03 22:27:13.40	83.30	26.58	-40.9	-44.1	13.6	5.30e-06	0	57	0	537919488	52	5513
2026-01-03 22:27:14.41	83.61	26.61	-40.9	-44.2	13.6	6.80e-06	0	57	0	540016640	52	5542
2026-01-03 22:27:15.42	83.92	26.63	-40.9	-44.1	13.7	9.10e-06	0	56	0	541065216	52	5481
2026-01-03 22:27:16.43	84.23	26.65	-40.8	-43.9	13.9	3.80e-06	0	57	0	543162368	52	5371
2026-01-03 22:27:17.44	84.54	26.67	-40.6	-43.6	14.2	3.00e-06	0	56	0	545259520	52	5202
2026-01-03 22:27:18.45	84.85	26.69	-40.6	-43.6	14.2	7.00e-07	0	57	0	547356672	52	5171
2026-01-03 22:27:19.46	85.16	26.71	-40.5	-43.3	14.4	1.50e-06	0	57	0	549453824	52	5040
2026-01-03 22:27:20.47	85.47	26.73	-40.4	-43.2	14.6	0.00e+00	0	57	0	551550976	52	4967
2026-01-03 22:27:21.48	85.78	26.74	-40.3	-43.1	14.7	7.00e-07	0	57	0	552599552	52	4914
2026-01-03 22:27:22.49	86.09	26.76	-40.3	-43.0	14.8	0.00e+00	0	57	0	554696704	52	4859
2026-01-03 22:27:23.50	86.41	26.78	-40.2	-42.9	14.9	0.00e+00	0	57	0	556793856	52	4782
2026-01-03 22:27:24.51	86.72	26.79	-40.2	-43.0	14.8	0.00e+00	0	57	0	558891008	52	4850
2026-01-03 22:27:25.52	87.03	26.80	-40.2	-43.0	14.8	0.00e+00	0	57	0	560988160	52	4834
2026-01-03 22:27:26.53	87.35	26.82	-40.3	-43.2	14.6	0.00e+00	0	57	0	562036736	52	4933
2026-01-03 22:27:27.54	87.66	26.83	-40.4	-43.3	14.5	7.00e-07	0	57	0	564133888	52	5022
2026-01-03 22:27:28.54	87.97	26.84	-40.4	-43.2	14.6	7.00e-07	0	57	0	566231040	52	4978
2026-01-03 22:27:29.55	88.28	26.85	-40.3	-43.2	14.7	0.00e+00	0	57	0	568328192	52	4939
2026-01-03 22:27:30.56	88.60	26.86	-40.3	-43.0	14.8	2.20e-06	0	57	0	570425344	52	4856
2026-01-03 22:27:31.58	88.91	26.86	-40.1	-42.8	15.0	0.00e+00	0	57	0	571473920	52	4724
2026-01-03 22:27:32.59	89.23	26.87	-40.0	-42.6	15.3	0.00e+00	0	57	0	573571072	51	4899
2026-01-03 22:27:33.60	89.54	26.88	-39.8	-42.3	15.7	0.00e+00	0	57	0	575668224	51	4716
2026-01-03 22:27:34.61	89.86	26.88	-39.8	-42.2	15.6	0.00e+00	0	57	0	577765376	51	4702
2026-01-03 22:27:35.62	90.17	26.89	-39.8	-42.3	15.6	0.00e+00	0	57	0	579862528	51	4724
2026-01-03 22:27:36.63	90.49	26.89	-40.0	-42.5	15.4	0.00e+00	0	57	0	580911104	51	4839
2026-01-03 22:27:37.63	90.80	26.89	-40.1	-42.7	15.2	0.00e+00	0	57	0	583008256	51	4974
2026-01-03 22:27:38.64	91.11	26.90	-40.3	-43.0	15.0	0.00e+00	0	57	0	585105408	51	5119
2026-01-03 22:27:39.65	91.43	26.90	-40.4	-43.2	14.7	0.00e+00	0	57	0	587202560	51	5239
2026-01-03 22:27:40.66	91.74	26.90	-40.3	-43.0	14.9	0.00e+00	0	57	0	589299712	51	5157
2026-01-03 22:27:41.67	92.06	26.90	-40.3	-43.1	14.9	0.00e+00	0	57	0	590348288	51	5161
2026-01-03 22:27:42.68	92.37	26.89	-40.1	-42.7	15.2	0.00e+00	0	57	0	592445440	51	4960
2026-01-03 22:27:43.69	92.69	26.89	-40.1	-42.7	15.3	0.00e+00	0	57	0	594542592	51	4947
2026-01-03 22:27:44.70	93.00	26.89	-40.0	-42.6	15.4	0.00e+00	0	57	0	596639744	51	4901
2026-01-03 22:27:45.71	93.32	26.88	-40.1	-42.7	15.2	0.00e+00	0	57	0	598736896	51	4977
2026-01-03 22:27:46.72	93.63	26.88	-40.4	-43.2	14.7	0.00e+00	0	57	0	599785472	51	5231
2026-01-03 22:27:47.73	93.95	26.87	-40.7	-43.7	14.3	7.00e-07	0	57	0	601882624	51	5554
2026-01-03 22:27:48.74	94.26	26.86	-40.9	-44.1	13.8	3.80e-06	0	57	0	603979776	52	5476
2026-01-03 22:27:49.75	94.57	26.85	-41.1	-44.3	13.5	9.90e-06	0	57	0	606076928	52	5653
2026-01-03 22:27:50.76	94.89	26.84	-41.1	-44.4	13.5	1.37e-05	0	57	0	608174080	52	5670
2026-01-03 22:27:51.77	95.20	26.83	-41.0	-44.3	13.6	9.10e-06	0	57	0	609222656	52	5603
2026-01-03 22:27:52.78	95.52	26.82	-40.9	-44.1	13.8	6.80e-06	0	57	0	611319808	52	5465
2026-01-03 22:27:53.78	95.83	26.81	-40.8	-43.9	14.0	7.60e-06	0	57	0	613416960	52	5362
2026-01-03 22:27:54.80	96.14	26.80	-40.6	-43.5	14.4	1.50e-06	0	57	0	615514112	52	5124
2026-01-03 22:27:55.81	96.45	26.79	-40.3	-43.1	14.7	0.00e+00	0	57	0	617611264	52	4913
2026-01-03 22:27:56.82	96.77	26.77	-40.2	-42.9	14.9	7.00e-07	0	57	0	619708416	52	4797
2026-01-03 22:27:57.83	97.08	26.75	-40.1	-42.7	15.1	0.00e+00	0	57	0	620756992	52	4692
2026-01-03 22:27:58.84	97.39	26.74	-40.3	-43.0	14.9	0.00e+00	0	57	0	622854144	52	4848
2026-01-03 22:27:59.85	97.70	26.72	-40.4	-43.2	14.7	0.00e+00	0	57	0	624951296	52	4962
2026-01-03 22:28:00.86	98.02	26.70	-40.5	-43.4	14.5	1.50e-06	0	57	0	627048448	52	5057
2026-01-03 22:28:01.86	98.32	26.68	-40.5	-43.4	14.5	0.00e+00	0	57	0	629145600	52	5065
2026-01-03 22:28:02.87	98.63	26.66	-40.4	-43.3	14.6	0.00e+00	0	57	0	630194176	52	5001
2026-01-03 22:28:03.89	98.95	26.64	-40.4	-43.3	14.6	0.00e+00	0	57	0	632291328	52	4984
2026-01-03 22:28:04.90	99.26	26.62	-40.3	-43.1	14.8	7.00e-07	0	57	0	634388480	52	4907
2026-01-03 22:28:05.90	99.56	26.60	-40.2	-42.9	15.0	0.00e+00	0	57	0	636485632	52	4786
2026-01-03 22:28:06.91	99.87	26.58	-40.1	-42.8	15.1	0.00e+00	0	57	0	638582784	52	4717
2026-01-03 22:28:07.92	100.18	26.55	-40.1	-42.7	15.2	0.00e+00	0	57	0	639631360	52	4680
2026-01-03 22:28:08.94	100.49	26.53	-40.2	-42.8	15.1	0.00e+00	0	57	0	641728512	52	4735
2026-01-03 22:28:09.94	100.80	26.50	-40.2	-42.9	14.9	0.00e+00	0	57	0	643825664	52	4809
2026-01-03 22:28:10.96	101.11	26.47	-40.3	-43.0	14.9	0.00e+00	0	57	0	645922816	52	4850
2026-01-03 22:28:11.97	101.41	26.45	-40.4	-43.2	14.7	0.00e+00	0	57	0	648019968	52	4929
2026-01-03 22:28:12.97	101.72	26.42	-40.3	-43.1	14.8	0.00e+00	0	57	0	649068544	52	4896
2026-01-03 22:28:13.98	102.02	26.39	-40.4	-43.1	14.7	0.00e+00	0	57	0	651165696	52	4925
2026-01-03 22:28:15.00	102.33	26.36	-40.3	-43.1	14.8	0.00e+00	0	57	0	653262848	52	4886
2026-01-03 22:28:16.01	102.64	26.33	-40.3	-43.1	14.8	0.00e+00	0	57	0	655360000	52	4889
2026-01-03 22:28:17.02	102.94	26.30	-40.2	-42.9	15.0	0.00e+00	0	57	0	657457152	52	4794
2026-01-03 22:28:18.03	103.24	26.26	-40.0	-42.6	15.3	0.00e+00	0	57	0	658505728	52	4628
2026-01-03 22:28:19.04	103.55	26.23	-40.0	-42.5	15.5	0.00e+00	0	57	0	660602880	51	4828
2026-01-03 22:28:20.05	103.85	26.20	-40.0	-42.6	15.4	0.00e+00	0	57	0	662700032	51	4887
2026-01-03 22:28:21.05	104.15	26.16	-40.0	-42.6	15.4	0.00e+00	0	57	0	664797184	51	4910
2026-01-03 22:28:22.06	104.45	26.13	-40.1	-42.7	15.3	0.00e+00	0	57	0	666894336	51	4939
2026-01-03 22:28:23.07	104.75	26.09	-40.0	-42.6	15.4	0.00e+00	0	57	0	667942912	51	4900
2026-01-03 22:28:24.08	105.05	26.05	-39.9	-42.5	15.6	0.00e+00	0	57	0	670040064	51	4818
2026-01-03 22:28:25.09	105.35	26.01	-39.7	-42.1	15.9	0.00e+00	0	57	0	672137216	51	4641
2026-01-03 22:28:26.10	105.64	25.98	-39.6	-42.0	16.0	0.00e+00	0	57	0	674234368	51	4570
2026-01-03 22:28:27.11	105.94	25.94	-39.7	-42.1	15.9	0.00e+00	0	57	0	676331520	51	4639
2026-01-03 22:28:28.12	106.24	25.90	-39.7	-42.1	15.9	0.00e+00	0	57	0	677380096	51	4603
2026-01-03 22:28:29.13	106.53	25.86	-39.7	-42.0	15.9	0.00e+00	0	57	0	679477248	51	4598
2026-01-03 22:28:30.14	106.83	25.81	-39.5	-41.8	16.2	0.00e+00	0	57	0	681574400	50	4711
2026-01-03 22:28:31.15	107.12	25.77	-39.3	-41.5	16.4	0.00e+00	0	57	0	683671552	50	4597
2026-01-03 22:28:32.16	107.42	25.73	-39.3	-41.6	16.4	0.00e+00	0	57	0	685768704	50	4606
2026-01-03 22:28:33.17	107.71	25.68	-39.4	-41.7	16.3	0.00e+00	0	57	0	687865856	50	4692
2026-01-03 22:28:34.18	108.00	25.64	-39.5	-41.9	16.1	0.00e+00	0	57	0	688914432	50	4763
2026-01-03 22:28:35.19	108.29	25.59	-39.6	-42.0	16.0	0.00e+00	0	57	0	691011584	50	4847
2026-01-03 22:28:36.20	108.58	25.55	-39.6	-41.9	16.0	0.00e+00	0	57	0	693108736	50	4811
2026-01-03 22:28:37.21	108.87	25.50	-39.4	-41.6	16.3	0.00e+00	0	57	0	695205888	50	4650
2026-01-03 22:28:38.22	109.16	25.45	-39.2	-41.4	16.6	0.00e+00	0	57	0	697303040	50	4500
2026-01-03 22:28:39.22	109.45	25.41	-39.0	-41.2	16.8	0.00e+00	0	57	0	698351616	50	4415
2026-01-03 22:28:40.23	109.73	25.36	-39.1	-41.3	16.7	0.00e+00	0	57	0	700448768	50	4472
2026-01-03 22:28:41.24	110.02	25.31	-39.3	-41.6	16.4	0.00e+00	0	57	0	702545920	50	4602
2026-01-03 22:28:42.26	110.31	25.26	-39.6	-42.0	16.0	0.00e+00	0	57	0	704643072	50	4845
2026-01-03 22:28:43.26	110.59	25.21	-39.8	-42.2	15.8	0.00e+00	0	57	0	706740224	50	4972
2026-01-03 22:28:44.27	110.87	25.16	-39.7	-42.1	15.9	0.00e+00	0	57	0	707788800	50	4909
2026-01-03 22:28:45.28	111.16	25.11	-39.7	-42.1	15.9	0.00e+00	0	57	0	709885952	50	4896
2026-01-03 22:28:46.29	111.44	25.05	-39.6	-42.0	16.0	0.00e+00	0	57	0	711983104	50	4816
2026-01-03 22:28:47.30	111.72	25.00	-39.5	-41.8	16.2	0.00e+00	0	57	0	714080256	50	4724
2026-01-03 22:28:48.31	112.00	24.95	-39.4	-41.6	16.3	0.00e+00	0	57	0	716177408	50	4642
2026-01-03 22:28:49.32	112.28	24.89	-39.3	-41.6	16.4	0.00e+00	0	57	0	717225984	50	4615
2026-01-03 22:28:50.33	112.56	24.84	-39.4	-41.6	16.3	0.00e+00	0	57	0	719323136	50	4643
2026-01-03 22:28:51.34	112.83	24.78	-39.5	-41.8	16.2	0.00e+00	0	57	0	721420288	50	4719
2026-01-03 22:28:52.35	113.11	24.73	-39.6	-42.0	16.0	0.00e+00	0	57	0	723517440	50	4818
2026-01-03 22:28:53.36	113.39	24.67	-39.7	-42.1	15.9	0.00e+00	0	57	0	725614592	50	4910
2026-01-03 22:28:54.37	113.66	24.61	-39.8	-42.3	15.6	0.00e+00	0	57	0	726663168	50	5015
2026-01-03 22:28:55.38	113.93	24.55	-40.0	-42.5	15.5	0.00e+00	0	57	0	728760320	50	5120
2026-01-03 22:28:56.39	114.21	24.50	-40.1	-42.7	15.3	0.00e+00	0	57	0	730857472	50	5227
2026-01-03 22:28:57.39	114.47	24.44	-40.2	-42.9	15.0	0.00e+00	0	57	0	732954624	51	5084
2026-01-03 22:28:58.40	114.74	24.38	-40.2	-42.9	15.0	0.00e+00	0	57	0	735051776	51	5060
2026-01-03 22:28:59.41	115.01	24.32	-40.1	-42.7	15.2	0.00e+00	0	57	0	736100352	51	4970
2026-01-03 22:29:00.42	115.28	24.26	-40.0	-42.6	15.4	0.00e+00	0	57	0	738197504	51	4885
2026-01-03 22:29:01.43	115.55	24.20	-39.8	-42.3	15.6	0.00e+00	0	57	0	740294656	51	4752
2026-01-03 22:29:02.44	115.82	24.14	-39.8	-42.2	15.7	0.00e+00	0	57	0	742391808	51	4704
2026-01-03 22:29:03.45	116.08	24.07	-39.9	-42.4	15.5	0.00e+00	0	57	0	744488960	51	4808
2026-01-03 22:29:04.46	116.34	24.01	-40.0	-42.6	15.3	0.00e+00	0	57	0	745537536	51	4885
2026-01-03 22:29:05.47	116.61	23.95	-40.0	-42.6	15.3	0.00e+00	0	57	0	747634688	51	4899
2026-01-03 22:29:06.48	116.87	23.89	-40.1	-42.6	15.3	7.00e-07	0	57	0	749731840	51	4923
2026-01-03 22:29:07.49	117.13	23.82	-40.1	-42.8	15.2	0.00e+00	0	57	0	751828992	51	4988
2026-01-03 22:29:08.50	117.39	23.76	-40.1	-42.8	15.2	0.00e+00	0	57	0	753926144	51	5005
2026-01-03 22:29:09.51	117.65	23.69	-40.2	-42.9	15.0	0.00e+00	0	57	0	756023296	51	5065
2026-01-03 22:29:10.52	117.91	23.63	-40.3	-43.0	14.9	7.00e-07	0	57	0	757071872	51	5127
2026-01-03 22:29:11.53	118.17	23.56	-40.3	-43.0	14.9	0.00e+00	0	57	0	759169024	51	5138
2026-01-03 22:29:12.54	118.42	23.50	-40.2	-42.9	15.0	0.00e+00	0	57	0	761266176	51	5097
2026-01-03 22:29:13.55	118.68	23.43	-40.1	-42.7	15.2	0.00e+00	0	57	0	763363328	51	4959
2026-01-03 22:29:14.56	118.93	23.36	-39.8	-42.3	15.7	0.00e+00	0	57	0	765460480	51	4715
2026-01-03 22:29:15.57	119.18	23.30	-39.7	-42.1	15.8	0.00e+00	0	57	0	766509056	51	4634
2026-01-03 22:29:16.58	119.43	23.23	-39.7	-42.1	15.8	0.00e+00	0	57	0	768606208	51	4616
2026-01-03 22:29:17.58	119.68	23.16	-39.7	-42.1	15.9	0.00e+00	0	57	0	770703360	51	4619
2026-01-03 22:29:18.59	119.93	23.09	-39.7	-42.2	15.7	0.00e+00	0	57	0	772800512	51	4675
2026-01-03 22:29:19.60	120.18	23.02	-39.9	-42.4	15.6	0.00e+00	0	57	0	774897664	51	4765
2026-01-03 22:29:20.61	120.43	22.96	-39.9	-42.4	15.5	0.00e+00	0	57	0	775946240	51	4787
2026-01-03 22:29:21.62	120.67	22.89	-39.8	-42.3	15.7	0.00e+00	0	57	0	778043392	51	4707
2026-01-03 22:29:22.63	120.92	22.82	-39.8	-42.3	15.7	0.00e+00	0	57	0	780140544	51	4714
2026-01-03 22:29:23.64	121.16	22.75	-39.8	-42.3	15.6	0.00e+00	0	57	0	782237696	51	4750
2026-01-03 22:29:24.65	121.41	22.68	-40.0	-42.6	15.3	0.00e+00	0	57	0	784334848	51	4905
2026-01-03 22:29:25.66	121.65	22.61	-40.1	-42.7	15.2	0.00e+00	0	57	0	785383424	51	4957
2026-01-03 22:29:26.67	121.89	22.53	-40.1	-42.7	15.2	0.00e+00	0	57	0	787480576	51	4952
2026-01-03 22:29:27.68	122.13	22.46	-39.9	-42.5	15.4	0.00e+00	0	57	0	789577728	51	4827
2026-01-03 22:29:28.69	122.37	22.39	-39.8	-42.3	15.5	0.00e+00	0	57	0	791674880	51	4731
2026-01-03 22:29:29.70	122.61	22.32	-39.6	-41.9	16.0	0.00e+00	0	57	0	793772032	51	4530
2026-01-03 22:29:30.71	122.84	22.25	-39.5	-41.8	16.1	0.00e+00	0	57	0	794820608	50	4751
2026-01-03 22:29:31.72	123.08	22.17	-39.6	-42.0	15.9	0.00e+00	0	57	0	796917760	50	4865
2026-01-03 22:29:32.73	123.31	22.10	-39.7	-42.2	15.7	0.00e+00	0	57	0	799014912	50	4940
2026-01-03 22:29:33.74	123.55	22.03	-39.8	-42.3	15.6	0.00e+00	0	57	0	801112064	50	5034
2026-01-03 22:29:34.75	123.78	21.96	-39.9	-42.4	15.4	0.00e+00	0	57	0	803209216	50	5097
2026-01-03 22:29:35.76	124.01	21.88	-39.7	-42.2	15.7	0.00e+00	0	57	0	804257792	50	4971
2026-01-03 22:29:36.77	124.24	21.81	-39.6	-42.1	15.8	0.00e+00	0	57	0	806354944	50	4901
2026-01-03 22:29:37.78	124.47	21.73	-39.7	-42.2	15.7	0.00e+00	0	57	0	808452096	50	4941
2026-01-03 22:29:38.79	124.70	21.66	-40.0	-42.6	15.4	0.00e+00	0	57	0	810549248	50	5164
2026-01-03 22:29:39.80	124.93	21.59	-40.2	-43.0	14.9	0.00e+00	0	57	0	812646400	51	5108
2026-01-03 22:29:40.81	125.15	21.51	-40.7	-43.7	14.1	0.00e+00	0	57	0	813694976	51	5581
2026-01-03 22:29:41.82	125.38	21.44	-40.9	-44.1	13.7	3.00e-06	0	57	0	815792128	52	5470
2026-01-03 22:29:42.83	125.60	21.36	-40.9	-44.1	13.7	6.10e-06	0	57	0	817889280	52	5495
2026-01-03 22:29:43.84	125.82	21.28	-40.8	-43.9	13.9	6.10e-06	0	57	0	819986432	52	5379
2026-01-03 22:29:44.85	126.05	21.21	-40.5	-43.5	14.3	1.50e-06	0	57	0	822083584	52	5114
2026-01-03 22:29:45.86	126.27	21.13	-40.4	-43.3	14.5	7.00e-07	0	57	0	824180736	52	5011
2026-01-03 22:29:46.86	126.48	21.06	-40.5	-43.4	14.4	2.20e-06	0	57	0	825229312	52	5047
2026-01-03 22:29:47.88	126.70	20.98	-40.6	-43.5	14.3	0.00e+00	0	57	0	827326464	52	5136
2026-01-03 22:29:48.89	126.92	20.90	-40.8	-43.9	13.9	2.20e-06	0	57	0	829423616	52	5386
2026-01-03 22:29:49.90	127.14	20.83	-41.0	-44.2	13.5	7.60e-06	0	57	0	831520768	52	5562
2026-01-03 22:29:50.91	127.35	20.75	-40.9	-44.0	13.7	1.06e-05	0	57	0	833617920	52	5455
2026-01-03 22:29:51.92	127.57	20.67	-40.4	-43.6	14.1	2.20e-06	0	57	0	834666496	52	5185
2026-01-03 22:29:52.93	127.78	20.60	-40.3	-43.1	14.8	9.10e-06	0	57	0	836763648	51	5176
2026-01-03 22:29:53.94	127.99	20.52	-40.2	-42.9	14.9	7.00e-07	0	57	0	838860800	51	5059
2026-01-03 22:29:54.95	128.21	20.44	-40.1	-42.7	15.2	0.00e+00	0	57	0	840957952	51	4949
2026-01-03 22:29:55.96	128.42	20.36	-40.2	-43.0	14.8	0.00e+00	0	57	0	843055104	51	5137
2026-01-03 22:29:56.97	128.63	20.29	-40.4	-43.2	14.6	2.20e-06	0	57	0	844103680	51	5260
2026-01-03 22:29:57.98	128.83	20.21	-40.5	-43.4	14.4	3.00e-06	0	57	0	846200832	51	5400
2026-01-03 22:29:58.99	129.04	20.13	-40.6	-43.5	14.4	2.20e-06	0	57	0	848297984	51	5419
2026-01-03 22:30:00.00	129.25	20.05	-40.3	-43.1	14.7	7.60e-06	0	57	0	850395136	51	5211
2026-01-03 22:30:01.01	129.45	19.97	-40.0	-42.6	15.1	7.00e-07	0	57	0	852492288	51	4922
2026-01-03 22:30:02.02	129.66	19.90	-39.2	-42.2	15.5	2.13e-04	0	57	0	853540864	50	4973
2026-01-03 22:30:03.03	129.86	19.82	-39.5	-42.1	15.5	1.25e-04	0	57	0	855638016	49	5197
2026-01-03 22:30:04.04	130.06	19.74	-39.8	-42.4	15.5	3.68e-04	0	57	0	857735168	50	5051
2026-01-03 22:30:05.05	130.26	19.66	-40.1	-42.7	15.1	2.36e-05	0	57	0	859832320	50	5252
2026-01-03 22:30:06.06	130.46	19.58	-40.5	-43.5	14.2	2.28e-05	0	57	0	861929472	51	5414
2026-01-03 22:30:07.06	130.66	19.50	-40.6	-43.7	14.0	1.95e-04	0	57	0	862978048	52	5266
2026-01-03 22:30:08.08	130.86	19.42	-40.5	-43.8	13.7	1.25e-03	0	57	0	865075200	51	5608
2026-01-03 22:30:09.09	131.06	19.35	-39.0	-43.4	13.4	4.57e-03	0	57	0	867172352	50	5697
2026-01-03 22:30:10.10	131.25	19.27	-40.2	-43.0	14.8	4.11e-05	0	57	0	869269504	51	5145
2026-01-03 22:30:11.10	131.45	19.19	-39.9	-42.8	14.8	9.68e-05	0	57	0	871366656	50	5287
2026-01-03 22:30:12.12	131.64	19.11	-39.8	-42.3	15.5	5.64e-05	0	57	0	872415232	50	5024
2026-01-03 22:30:13.13	131.84	19.03	-39.6	-42.2	15.5	2.82e-05	0	57	0	874512384	50	4977
2026-01-03 22:30:14.14	132.03	18.95	-39.9	-42.5	15.2	4.50e-06	0	57	0	876609536	50	5154
2026-01-03 22:30:15.15	132.22	18.87	-40.2	-43.1	14.4	9.68e-05	0	57	0	878706688	50	5504
2026-01-03 22:30:16.16	132.41	18.79	-40.6	-43.6	14.1	1.33e-04	0	57	0	880803840	51	5468
2026-01-03 22:30:17.17	132.60	18.71	-40.6	-43.7	13.9	5.26e-05	0	57	0	881852416	52	5254
2026-01-03 22:30:18.18	132.79	18.63	-40.7	-43.8	14.0	1.15e-03	0	57	0	883949568	51	5600
2026-01-03 22:30:19.19	132.97	18.55	-40.4	-43.3	13.5	1.78e-04	0	57	0	886046720	51	5321
2026-01-03 22:30:20.20	133.16	18.47	-40.2	-43.1	14.0	8.58e-03	0	57	0	888143872	50	5474
2026-01-03 22:30:21.21	133.35	18.39	-38.8	-42.7	14.2	3.86e-03	0	57	0	890241024	48	5884
2026-01-03 22:30:22.22	133.53	18.31	-34.2	-41.7	13.8	5.84e-03	0	57	0	892338176	49	4964
2026-01-03 22:30:23.22	133.71	18.23	-39.0	-42.4	14.6	6.11e-03	0	57	0	893386752	49	5402
2026-01-03 22:30:24.23	133.89	18.15	-38.9	-42.8	14.9	4.53e-04	0	57	0	895483904	50	5284
2026-01-03 22:30:25.24	134.08	18.07	-40.1	-42.9	14.5	8.24e-04	0	57	0	897581056	50	5360
2026-01-03 22:30:26.25	134.26	17.99	-40.2	-43.0	14.8	4.42e-05	0	57	0	899678208	50	5407
2026-01-03 22:30:27.26	134.44	17.91	-40.1	-42.9	14.4	5.30e-03	0	57	0	901775360	50	5352
2026-01-03 22:30:28.27	134.62	17.84	-40.0	-42.7	15.1	6.71e-04	0	57	0	902823936	50	5232
2026-01-03 22:30:29.28	134.79	17.76	-39.9	-42.5	15.2	1.90e-05	0	57	0	904921088	50	5152
2026-01-03 22:30:30.29	134.97	17.68	-39.6	-42.3	15.2	2.80e-04	0	57	0	907018240	50	5026
2026-01-03 22:30:31.30	135.15	17.60	-39.8	-42.4	15.2	8.24e-03	0	57	0	909115392	50	5094
2026-01-03 22:30:32.31	135.32	17.52	-39.2	-42.5	14.1	7.46e-03	0	57	0	911212544	48	5773
2026-01-03 22:30:33.32	135.50	17.44	-39.3	-42.7	14.5	5.20e-03	0	57	0	912261120	50	5247
2026-01-03 22:30:34.33	135.67	17.36	-40.1	-42.9	14.6	9.38e-03	0	57	0	914358272	50	5369
2026-01-03 22:30:35.34	135.84	17.28	-40.1	-43.0	13.7	6.31e-03	0	57	0	916455424	49	5726
2026-01-03 22:30:36.35	136.01	17.20	-40.2	-43.0	14.6	3.14e-03	0	57	0	918552576	51	5150
2026-01-03 22:30:37.36	136.19	17.12	-40.2	-43.0	14.7	1.06e-02	0	57	0	920649728	50	5428
2026-01-03 22:30:38.37	136.35	17.04	-40.1	-42.8	14.3	5.01e-03	0	57	0	921698304	50	5306
2026-01-03 22:30:39.38	136.52	16.96	-37.7	-42.3	15.2	8.62e-04	0	57	0	923795456	49	5297
2026-01-03 22:30:40.38	136.69	16.88	-39.7	-42.3	14.6	4.48e-03	0	57	0	925892608	48	5631
2026-01-03 22:30:41.39	136.86	16.80	-39.2	-42.3	15.4	9.41e-04	0	57	0	927989760	50	5026
2026-01-03 22:30:42.40	137.02	16.72	-39.6	-42.2	15.4	7.93e-05	0	57	0	930086912	49	5261
2026-01-03 22:30:43.41	137.19	16.64	-39.8	-42.3	15.3	8.30e-06	0	57	0	931135488	50	5021
2026-01-03 22:30:44.42	137.35	16.56	-38.9	-42.4	14.7	7.61e-04	0	57	0	933232640	49	5354
2026-01-03 22:30:45.43	137.52	16.48	-39.8	-42.4	15.1	2.86e-04	0	57	0	935329792	50	5086
2026-01-03 22:30:46.44	137.68	16.40	-39.9	-42.6	15.1	7.85e-05	0	57	0	937426944	50	5161
2026-01-03 22:30:47.45	137.84	16.32	-39.9	-42.5	15.2	5.79e-05	0	57	0	939524096	50	5123
2026-01-03 22:30:48.46	138.01	16.24	-39.8	-42.4	15.2	1.44e-05	0	57	0	940572672	50	5094
2026-01-03 22:30:49.47	138.17	16.16	-39.8	-42.4	15.2	5.41e-05	0	57	0	942669824	50	5082
2026-01-03 22:30:50.49	138.33	16.08	-39.6	-42.3	15.4	3.53e-04	0	57	0	944766976	49	5290
2026-01-03 22:30:51.49	138.49	16.00	-39.6	-42.3	15.2	6.48e-05	0	57	0	946864128	49	5280
2026-01-03 22:30:52.51	138.64	15.92	-39.5	-42.2	15.4	1.60e-05	0	57	0	948961280	50	4976
2026-01-03 22:30:53.52	138.80	15.84	-39.6	-42.2	15.5	1.50e-06	0	57	0	950009856	50	4933
2026-01-03 22:30:54.53	138.96	15.77	-39.7	-42.2	15.4	0.00e+00	0	57	0	952107008	50	4958
2026-01-03 22:30:55.53	139.11	15.69	-39.6	-42.1	15.5	7.00e-07	0	57	0	954204160	50	4921
2026-01-03 22:30:56.54	139.27	15.61	-39.6	-42.1	15.5	0.00e+00	0	57	0	956301312	50	4915
2026-01-03 22:30:57.56	139.42	15.53	-39.7	-42.3	15.3	0.00e+00	0	57	0	958398464	50	5035
2026-01-03 22:30:58.57	139.58	15.45	-39.8	-42.4	15.2	0.00e+00	0	57	0	960495616	50	5076
2026-01-03 22:30:59.58	139.73	15.37	-39.8	-42.6	15.0	1.50e-06	0	57	0	961544192	50	5172
2026-01-03 22:31:00.59	139.88	15.29	-40.0	-42.7	14.9	0.00e+00	0	57	0	963641344	50	5245
2026-01-03 22:31:01.60	140.03	15.21	-40.1	-42.9	14.7	0.00e+00	0	57	0	965738496	50	5369
2026-01-03 22:31:02.61	140.18	15.14	-40.2	-43.1	14.5	7.00e-07	0	57	0	967835648	50	5473
2026-01-03 22:31:03.62	140.33	15.06	-40.2	-43.1	14.5	0.00e+00	0	57	0	969932800	51	5160
2026-01-03 22:31:04.62	140.48	14.98	-40.3	-43.2	14.4	7.00e-07	0	57	0	970981376	51	5221
2026-01-03 22:31:05.63	140.63	14.90	-40.3	-43.2	14.4	3.00e-06	0	57	0	973078528	51	5226
2026-01-03 22:31:06.65	140.78	14.82	-40.3	-43.1	14.4	7.00e-07	0	57	0	975175680	51	5212
2026-01-03 22:31:07.65	140.92	14.74	-40.2	-43.1	14.5	1.50e-06	0	57	0	977272832	51	5194
2026-01-03 22:31:08.66	141.07	14.67	-40.2	-43.1	14.5	0.00e+00	0	57	0	979369984	51	5172
2026-01-03 22:31:09.67	141.21	14.59	-40.1	-43.0	14.6	7.00e-07	0	57	0	980418560	51	5115
2026-01-03 22:31:10.68	141.36	14.51	-40.1	-42.9	14.6	7.00e-07	0	57	0	982515712	51	5097
2026-01-03 22:31:11.69	141.50	14.43	-40.1	-42.9	14.6	0.00e+00	0	57	0	984612864	51	5077
2026-01-03 22:31:12.70	141.64	14.35	-40.1	-42.9	14.6	0.00e+00	0	57	0	986710016	51	5073
2026-01-03 22:31:13.71	141.78	14.28	-40.1	-42.9	14.6	0.00e+00	0	57	0	988807168	51	5082
2026-01-03 22:31:14.72	141.93	14.20	-40.1	-42.9	14.6	0.00e+00	0	57	0	989855744	51	5095
2026-01-03 22:31:15.73	142.07	14.12	-40.1	-43.0	14.5	7.00e-07	0	57	0	991952896	51	5113
2026-01-03 22:31:16.74	142.21	14.04	-40.1	-42.9	14.6	7.00e-07	0	57	0	994050048	51	5098
2026-01-03 22:31:17.75	142.35	13.97	-40.0	-42.7	14.8	7.00e-07	0	57	0	996147200	51	4958
2026-01-03 22:31:18.76	142.48	13.89	-40.0	-42.7	14.8	7.00e-07	0	57	0	998244352	51	4959
2026-01-03 22:31:19.77	142.62	13.81	-40.1	-42.9	14.6	0.00e+00	0	57	0	999292928	51	5046
2026-01-03 22:31:20.78	142.76	13.73	-40.0	-42.8	14.7	1.50e-06	0	57	0	1001390080	51	5039
2026-01-03 22:31:21.79	142.90	13.66	-40.1	-42.9	14.6	0.00e+00	0	57	0	1003487232	51	5087
2026-01-03 22:31:22.80	143.03	13.58	-40.3	-43.2	14.2	2.20e-06	0	57	0	1005584384	51	5279
2026-01-03 22:31:23.81	143.17	13.50	-40.3	-43.3	14.1	1.50e-06	0	57	0	1007681536	51	5339
2026-01-03 22:31:24.82	143.30	13.43	-40.5	-43.6	13.8	2.20e-06	0	57	0	1008730112	51	5525
2026-01-03 22:31:25.83	143.43	13.35	-40.5	-43.7	13.8	6.10e-06	0	57	0	1010827264	51	5545
2026-01-03 22:31:26.84	143.57	13.27	-40.6	-43.8	13.7	4.50e-06	0	57	0	1012924416	51	5635
2026-01-03 22:31:27.85	143.70	13.20	-40.7	-44.0	13.4	4.50e-06	0	57	0	1015021568	52	5439
2026-01-03 22:31:28.86	143.83	13.12	-40.6	-44.0	13.4	1.22e-05	0	57	0	1017118720	52	5414
2026-01-03 22:31:29.87	143.96	13.05	-40.7	-44.1	13.2	1.44e-05	0	57	0	1018167296	52	5500
2026-01-03 22:31:30.88	144.09	12.97	-40.8	-44.2	13.1	2.74e-05	0	57	0	1020264448	52	5582
2026-01-03 22:31:31.89	144.22	12.89	-40.7	-44.1	13.2	2.97e-05	0	57	0	1022361600	52	5521
2026-01-03 22:31:32.90	144.35	12.82	-40.7	-44.1	13.2	1.29e-05	0	57	0	1024458752	52	5509
2026-01-03 22:31:33.90	144.48	12.74	-40.6	-43.9	13.4	1.37e-05	0	57	0	1026555904	52	5400
2026-01-03 22:31:34.91	144.61	12.67	-40.6	-44.0	13.4	1.67e-05	0	57	0	1028653056	52	5422
2026-01-03 22:31:35.92	144.73	12.59	-40.8	-44.1	13.2	1.90e-05	0	57	0	1029701632	52	5523
2026-01-03 22:31:36.93	144.86	12.52	-40.7	-44.1	13.2	2.67e-05	0	57	0	1031798784	52	5514
2026-01-03 22:31:37.94	144.99	12.44	-40.8	-44.3	13.0	2.51e-05	0	57	0	1033895936	52	5613
2026-01-03 22:31:38.95	145.11	12.37	-40.9	-44.4	12.9	5.34e-05	0	57	0	1035993088	52	5669
2026-01-03 22:31:39.96	145.24	12.29	-40.9	-44.5	12.8	5.03e-05	0	57	0	1038090240	52	5735
2026-01-03 22:31:40.97	145.36	12.21	-40.9	-44.6	12.8	6.86e-05	0	57	0	1039138816	52	5790
2026-01-03 22:31:41.98	145.48	12.14	-40.9	-44.5	12.7	8.16e-05	0	57	0	1041235968	52	5768
2026-01-03 22:31:42.99	145.61	12.07	-40.9	-44.6	12.7	6.94e-05	0	57	0	1043333120	52	5809
2026-01-03 22:31:44.00	145.73	11.99	-41.0	-44.7	12.6	1.03e-04	0	57	0	1045430272	52	5876
2026-01-03 22:31:45.01	145.85	11.92	-41.0	-44.7	12.5	8.62e-05	0	57	0	1047527424	52	5899
2026-01-03 22:31:46.02	145.97	11.84	-41.1	-44.9	12.3	1.40e-04	0	57	0	1048576000	52	6047
2026-01-03 22:31:47.03	146.09	11.77	-41.0	-44.7	12.5	1.56e-04	0	57	0	1050673152	52	5893
2026-01-03 22:31:48.03	146.21	11.69	-41.0	-44.7	12.5	1.08e-04	0	57	0	1052770304	52	5904
2026-01-03 22:31:49.04	146.33	11.62	-40.9	-44.6	12.6	1.09e-04	0	57	0	1054867456	52	5822
2026-01-03 22:31:50.06	146.45	11.54	-40.8	-44.3	12.9	5.87e-05	0	57	0	1056964608	52	5630
2026-01-03 22:31:51.06	146.57	11.47	-40.8	-44.2	13.0	4.04e-05	0	57	0	1058013184	52	5586
2026-01-03 22:31:52.07	146.69	11.40	-40.8	-44.3	12.9	4.95e-05	0	57	0	1060110336	52	5652
2026-01-03 22:31:53.08	146.80	11.32	-40.8	-44.3	13.0	4.34e-05	0	57	0	1062207488	52	5612
2026-01-03 22:31:54.09	146.92	11.25	-40.8	-44.3	12.9	4.19e-05	0	57	0	1064304640	52	5623
2026-01-03 22:31:55.10	147.04	11.18	-40.8	-44.4	12.8	5.03e-05	0	57	0	1066401792	52	5660
2026-01-03 22:31:56.11	147.15	11.10	-40.8	-44.3	12.9	4.19e-05	0	57	0	1067450368	52	5626
2026-01-03 22:31:57.12	147.27	11.03	-40.9	-44.5	12.7	7.40e-05	0	57	0	1069547520	52	5774
2026-01-03 22:31:58.13	147.38	10.96	-40.8	-44.4	12.8	7.85e-05	0	57	0	1071644672	52	5678
2026-01-03 22:31:59.14	147.49	10.88	-40.8	-44.3	12.9	4.50e-05	0	57	0	1073741824	52	5643
2026-01-03 22:32:00.15	147.61	10.81	-40.8	-44.4	12.8	5.72e-05	0	57	0	1075838976	52	5682
2026-01-03 22:32:01.16	147.72	10.74	-40.8	-44.5	12.7	6.56e-05	0	57	0	1076887552	52	5729
2026-01-03 22:32:02.17	147.83	10.67	-40.8	-44.4	12.7	5.79e-05	0	57	0	1078984704	52	5702
2026-01-03 22:32:03.18	147.94	10.59	-40.7	-44.3	12.9	5.11e-05	0	57	0	1081081856	52	5596
2026-01-03 22:32:04.19	148.05	10.52	-40.7	-44.2	13.0	5.56e-05	0	57	0	1083179008	52	5573
2026-01-03 22:32:05.20	148.16	10.45	-40.5	-43.9	13.2	4.04e-05	0	57	0	1085276160	52	5387
2026-01-03 22:32:06.21	148.27	10.38	-40.4	-43.7	13.5	1.37e-05	0	57	0	1086324736	52	5251
2026-01-03 22:32:07.22	148.38	10.31	-40.4	-43.7	13.4	1.52e-05	0	57	0	1088421888	52	5277
2026-01-03 22:32:08.23	148.49	10.23	-40.3	-43.5	13.6	1.44e-05	0	57	0	1090519040	52	5148
2026-01-03 22:32:09.24	148.60	10.16	-40.1	-43.2	14.0	3.80e-06	0	57	0	1092616192	52	4938
2026-01-03 22:32:10.25	148.71	10.09	-40.2	-43.3	13.8	1.50e-06	0	57	0	1094713344	52	5033
2026-01-03 22:32:11.26	148.82	10.02	-40.2	-43.3	13.8	9.90e-06	0	57	0	1096810496	52	5023
2026-01-03 22:32:12.27	148.92	9.95	-40.2	-43.4	13.7	8.30e-06	0	57	0	1097859072	52	5055
2026-01-03 22:32:13.28	149.03	9.88	-40.1	-43.3	13.8	6.80e-06	0	57	0	1099956224	52	5018
2026-01-03 22:32:14.29	149.14	9.80	-40.1	-43.3	13.8	3.00e-06	0	57	0	1102053376	52	5003
2026-01-03 22:32:15.30	149.24	9.73	-40.2	-43.4	13.7	6.10e-06	0	57	0	1104150528	52	5050
2026-01-03 22:32:16.30	149.34	9.66	-40.2	-43.4	13.6	6.80e-06	0	57	0	1106247680	52	5092
2026-01-03 22:32:17.31	149.45	9.59	-40.3	-43.6	13.4	5.30e-06	0	57	0	1107296256	52	5207
2026-01-03 22:32:18.33	149.55	9.52	-40.3	-43.6	13.4	1.60e-05	0	57	0	1109393408	52	5213
2026-01-03 22:32:19.34	149.66	9.45	-40.4	-43.8	13.2	1.67e-05	0	57	0	1111490560	52	5289
2026-01-03 22:32:20.34	149.76	9.38	-40.5	-44.0	13.1	1.98e-05	0	57	0	1113587712	52	5416
2026-01-03 22:32:21.35	149.86	9.31	-40.6	-44.1	12.9	3.73e-05	0	57	0	1115684864	52	5514
2026-01-03 22:32:22.36	149.96	9.24	-40.5	-44.0	13.0	4.34e-05	0	57	0	1116733440	52	5405
2026-01-03 22:32:23.37	150.07	9.17	-40.6	-44.1	12.8	2.97e-05	0	57	0	1118830592	52	5497
2026-01-03 22:32:24.38	150.17	9.10	-40.5	-44.1	12.9	5.26e-05	0	57	0	1120927744	52	5494
2026-01-03 22:32:25.39	150.27	9.03	-40.5	-44.0	12.9	4.11e-05	0	57	0	1123024896	52	5444
2026-01-03 22:32:26.40	150.37	8.96	-40.5	-44.0	12.9	5.41e-05	0	57	0	1125122048	52	5427
2026-01-03 22:32:27.41	150.47	8.89	-40.4	-43.9	13.0	3.58e-05	0	57	0	1126170624	52	5361
2026-01-03 22:32:28.42	150.57	8.82	-40.5	-44.1	12.8	5.79e-05	0	57	0	1128267776	52	5477
2026-01-03 22:32:29.43	150.66	8.75	-40.4	-44.0	12.9	5.11e-05	0	57	0	1130364928	52	5418
2026-01-03 22:32:30.44	150.76	8.68	-40.4	-44.0	12.9	4.42e-05	0	57	0	1132462080	52	5417
2026-01-03 22:32:31.45	150.86	8.61	-40.3	-43.8	13.0	3.89e-05	0	57	0	1134559232	52	5317
2026-01-03 22:32:32.46	150.96	8.55	-40.4	-43.9	13.0	3.81e-05	0	57	0	1135607808	52	5343
2026-01-03 22:32:33.47	151.06	8.48	-40.2	-43.7	13.2	2.67e-05	0	57	0	1137704960	52	5229
2026-01-03 22:32:34.48	151.15	8.41	-40.3	-43.8	13.0	3.35e-05	0	57	0	1139802112	52	5317
2026-01-03 22:32:35.49	151.25	8.34	-40.3	-43.8	13.0	4.19e-05	0	57	0	1141899264	52	5301
2026-01-03 22:32:36.49	151.34	8.27	-40.3	-43.9	12.9	3.96e-05	0	57	0	1143996416	52	5343
2026-01-03 22:32:37.50	151.44	8.20	-40.3	-43.9	12.8	6.79e-05	0	57	0	1145044992	52	5392
2026-01-03 22:32:38.51	151.53	8.13	-40.4	-44.0	12.7	6.17e-05	0	57	0	1147142144	52	5446
2026-01-03 22:32:39.53	151.63	8.07	-40.5	-44.3	12.4	8.92e-05	0	57	0	1149239296	52	5604
2026-01-03 22:32:40.54	151.72	8.00	-41.6	-46.5	10.6	1.98e-04	0	57	0	1151336448	53	6876
2026-01-03 22:32:41.55	151.82	7.93	-44.3	-58.6	3.8	1.49e+00	0	57	104	1151336448	59	19395
2026-01-03 22:32:42.56	151.91	7.86	-44.5	-59.0	3.8	1.49e+00	0	57	104	1151336448	59	20366
2026-01-03 22:32:43.57	152.00	7.79	-44.7	-59.2	3.8	1.49e+00	0	57	104	1151336448	59	20886
