passes_logs/2026/01/03/R2.0S_Moscow/R2.0S_Moscow__20260103_115307_NOAA_20_JPSS-1_rec.log

#Pass ID: 20260103_115307_NOAA 20 (JPSS-1)
#Satellite: NOAA 20 (JPSS-1)
#Configuration: NOAA 20
#almurnet v.1.7.20251203
#Start time: 2026-01-03 11:53:07

#Version: 2.2.20231116
#Station: R2.0S_Moscow
#Location: 37.707566 lon 55.798166 lat
#TLE: 1 43013U 17073A   26002.21975278  .00000202  00000+0  11669-3 0  9999
#TLE: 2 43013  98.7622 303.2950 0001915  57.9213 302.2149 14.19532512420923

#Time	Az	El	Level	Level2	SNR	BER	BlckErr	Temp	State	Recorded	gain1	gain2
2026-01-03 11:53:07.51	221.78	2.00	-44.0	-58.6	3.8	1.49e+00	0	47	0	0	59	19532
2026-01-03 11:53:08.50	221.87	2.04	-44.0	-58.7	3.8	1.49e+00	0	47	104	0	59	19619
2026-01-03 11:53:09.52	221.96	2.09	-44.0	-58.7	3.8	1.49e+00	0	48	104	0	59	19631
2026-01-03 11:53:10.53	222.06	2.14	-44.0	-58.6	3.8	1.49e+00	0	48	104	0	59	19541
2026-01-03 11:53:11.54	222.15	2.19	-44.0	-58.6	3.8	1.49e+00	0	48	104	0	59	19576
2026-01-03 11:53:12.55	222.24	2.24	-44.0	-58.6	3.8	1.49e+00	0	48	104	0	59	19544
2026-01-03 11:53:13.56	222.33	2.29	-44.0	-58.6	3.8	1.49e+00	0	48	104	0	59	19526
2026-01-03 11:53:14.57	222.42	2.34	-44.0	-58.6	3.8	1.49e+00	0	48	104	0	59	19555
2026-01-03 11:53:15.58	222.52	2.39	-44.0	-58.6	3.8	1.49e+00	0	48	104	0	59	19578
2026-01-03 11:53:16.59	222.61	2.44	-44.0	-58.6	3.8	1.49e+00	0	48	104	0	59	19537
2026-01-03 11:53:17.61	222.71	2.49	-44.0	-58.6	3.8	1.49e+00	0	48	104	0	59	19567
2026-01-03 11:53:18.62	222.80	2.54	-44.0	-58.6	3.8	1.49e+00	0	48	104	0	59	19593
2026-01-03 11:53:19.63	222.89	2.59	-44.0	-58.6	3.8	1.49e+00	0	48	104	0	59	19567
2026-01-03 11:53:20.64	222.99	2.64	-44.0	-58.6	3.8	1.49e+00	0	48	104	0	59	19560
2026-01-03 11:53:21.65	223.08	2.69	-44.0	-58.6	3.8	1.49e+00	0	49	104	0	59	19539
2026-01-03 11:53:22.66	223.18	2.74	-44.0	-58.6	3.8	1.49e+00	0	49	104	0	59	19567
2026-01-03 11:53:23.67	223.27	2.79	-44.0	-58.6	3.8	1.49e+00	0	49	104	0	59	19571
2026-01-03 11:53:24.68	223.37	2.84	-44.0	-58.6	3.8	1.49e+00	0	49	104	0	59	19599
2026-01-03 11:53:25.69	223.46	2.89	-44.0	-58.6	3.8	1.49e+00	0	49	104	0	59	19587
2026-01-03 11:53:26.70	223.56	2.94	-44.0	-58.6	3.8	1.49e+00	0	49	104	0	59	19541
2026-01-03 11:53:27.72	223.66	2.99	-44.0	-58.6	3.8	1.49e+00	0	49	104	0	59	19566
2026-01-03 11:53:28.73	223.75	3.04	-44.0	-58.6	3.8	1.49e+00	0	49	104	0	59	19603
2026-01-03 11:53:29.74	223.85	3.09	-44.0	-58.6	3.8	1.49e+00	0	49	104	0	59	19570
2026-01-03 11:53:30.75	223.95	3.14	-44.0	-58.6	3.8	1.49e+00	0	49	104	0	59	19569
2026-01-03 11:53:31.76	224.05	3.19	-44.0	-58.6	3.8	1.49e+00	0	49	104	0	59	19463
2026-01-03 11:53:32.77	224.14	3.24	-44.0	-58.6	3.8	1.49e+00	0	49	104	0	59	19569
2026-01-03 11:53:33.78	224.24	3.29	-44.0	-58.6	3.8	1.49e+00	0	49	104	0	59	19506
2026-01-03 11:53:34.79	224.34	3.34	-44.1	-58.6	3.8	1.49e+00	0	50	104	0	59	19562
2026-01-03 11:53:35.80	224.44	3.39	-44.0	-58.6	3.8	1.49e+00	0	50	104	0	59	19572
2026-01-03 11:53:36.81	224.54	3.44	-44.0	-58.6	3.8	1.49e+00	0	50	104	0	59	19554
2026-01-03 11:53:37.82	224.64	3.49	-44.0	-58.6	3.8	1.49e+00	0	50	104	0	59	19549
2026-01-03 11:53:38.84	224.74	3.54	-44.0	-58.6	3.8	1.49e+00	0	50	104	0	59	19605
2026-01-03 11:53:39.85	224.84	3.59	-44.0	-58.6	3.8	1.49e+00	0	50	104	0	59	19550
2026-01-03 11:53:40.86	224.94	3.64	-44.0	-58.6	3.8	1.49e+00	0	50	104	0	59	19562
2026-01-03 11:53:41.87	225.04	3.69	-44.0	-58.6	3.8	1.49e+00	0	50	104	0	59	19564
2026-01-03 11:53:42.88	225.14	3.74	-44.0	-58.6	3.8	1.49e+00	0	50	104	0	59	19582
2026-01-03 11:53:43.89	225.25	3.79	-44.0	-58.6	3.8	1.49e+00	0	50	104	0	59	19523
2026-01-03 11:53:44.90	225.35	3.84	-44.0	-58.6	3.8	1.49e+00	0	50	104	0	59	19545
2026-01-03 11:53:45.91	225.45	3.89	-44.0	-58.6	3.8	1.49e+00	0	50	104	0	59	19586
2026-01-03 11:53:46.93	225.55	3.94	-44.0	-58.6	3.8	1.49e+00	0	50	104	0	59	19520
2026-01-03 11:53:47.94	225.66	3.99	-44.0	-58.6	3.8	1.49e+00	0	50	104	0	59	19542
2026-01-03 11:53:48.95	225.76	4.04	-44.0	-58.6	3.8	1.49e+00	0	50	104	0	59	19537
2026-01-03 11:53:49.96	225.87	4.09	-44.0	-58.6	3.8	1.49e+00	0	50	104	0	59	19537
2026-01-03 11:53:50.97	225.97	4.14	-44.0	-58.6	3.8	1.49e+00	0	50	104	0	59	19610
2026-01-03 11:53:51.98	226.07	4.19	-44.0	-58.6	3.8	1.49e+00	0	51	104	0	59	19537
2026-01-03 11:53:52.99	226.18	4.24	-44.0	-58.6	3.8	1.49e+00	0	51	104	0	59	19543
2026-01-03 11:53:54.00	226.28	4.29	-44.0	-58.6	3.8	1.49e+00	0	51	104	0	59	19589
2026-01-03 11:53:55.01	226.39	4.34	-44.0	-58.6	3.8	1.49e+00	0	51	104	0	59	19585
2026-01-03 11:53:56.03	226.50	4.39	-44.0	-58.7	3.8	1.49e+00	0	51	104	0	59	19615
2026-01-03 11:53:57.04	226.60	4.44	-44.0	-58.6	3.8	1.49e+00	0	51	104	0	59	19541
2026-01-03 11:53:58.05	226.71	4.49	-44.0	-58.6	3.8	1.49e+00	0	51	104	0	59	19538
2026-01-03 11:53:59.06	226.82	4.54	-44.0	-58.6	3.8	1.49e+00	0	51	104	0	59	19546
2026-01-03 11:54:00.07	226.92	4.59	-44.0	-58.6	3.8	1.49e+00	0	51	104	0	59	19520
2026-01-03 11:54:01.08	227.03	4.64	-44.0	-58.6	3.8	1.49e+00	0	51	104	0	59	19527
2026-01-03 11:54:02.09	227.14	4.70	-44.0	-58.6	3.8	1.49e+00	0	51	104	0	59	19533
2026-01-03 11:54:03.10	227.25	4.75	-44.0	-58.6	3.8	1.49e+00	0	51	104	0	59	19511
2026-01-03 11:54:04.11	227.36	4.80	-44.0	-58.6	3.8	1.49e+00	0	51	104	0	59	19609
2026-01-03 11:54:05.12	227.46	4.85	-44.0	-58.6	3.8	1.49e+00	0	51	104	0	59	19570
2026-01-03 11:54:06.13	227.57	4.90	-44.0	-58.6	3.8	1.49e+00	0	51	104	0	59	19546
2026-01-03 11:54:07.15	227.69	4.95	-44.0	-58.6	3.8	1.49e+00	0	51	104	0	59	19527
2026-01-03 11:54:08.16	227.80	5.00	-44.0	-58.6	3.8	1.49e+00	0	51	104	0	59	19524
2026-01-03 11:54:09.17	227.91	5.05	-44.0	-58.6	3.8	1.49e+00	0	51	104	0	59	19539
2026-01-03 11:54:10.18	228.02	5.10	-44.0	-58.6	3.8	1.49e+00	0	52	104	0	59	19534
2026-01-03 11:54:11.19	228.13	5.15	-44.0	-58.6	3.8	1.49e+00	0	51	104	0	59	19484
2026-01-03 11:54:12.20	228.24	5.20	-44.0	-58.6	3.8	1.49e+00	0	51	104	0	59	19455
2026-01-03 11:54:13.21	228.35	5.25	-44.0	-58.6	3.8	1.49e+00	0	52	104	0	59	19445
2026-01-03 11:54:14.22	228.46	5.30	-44.0	-58.5	3.8	1.49e+00	0	52	104	0	59	19362
2026-01-03 11:54:15.23	228.58	5.35	-44.0	-58.6	3.8	1.49e+00	0	52	104	0	59	19390
2026-01-03 11:54:16.24	228.69	5.40	-44.0	-58.6	3.8	1.49e+00	0	52	104	0	59	19473
2026-01-03 11:54:17.26	228.80	5.45	-44.0	-58.6	3.8	1.49e+00	0	52	104	0	59	19501
2026-01-03 11:54:18.27	228.92	5.50	-44.0	-58.6	3.8	1.49e+00	0	52	104	0	59	19528
2026-01-03 11:54:19.28	229.03	5.55	-44.0	-58.6	3.8	1.49e+00	0	52	104	0	59	19570
2026-01-03 11:54:20.29	229.15	5.61	-44.0	-58.6	3.8	1.49e+00	0	52	104	0	59	19492
2026-01-03 11:54:21.30	229.26	5.66	-44.0	-58.6	3.8	1.49e+00	0	52	104	0	59	19427
2026-01-03 11:54:22.31	229.38	5.71	-44.0	-58.5	3.8	1.49e+00	0	52	104	0	59	19297
2026-01-03 11:54:23.32	229.49	5.76	-44.0	-58.5	3.8	1.49e+00	0	52	104	0	59	19185
2026-01-03 11:54:24.33	229.61	5.81	-44.0	-58.4	3.8	1.49e+00	0	52	104	0	59	19066
2026-01-03 11:54:25.35	229.73	5.86	-44.0	-58.4	3.8	1.49e+00	0	52	104	0	59	19026
2026-01-03 11:54:26.35	229.84	5.91	-44.0	-58.4	3.8	1.49e+00	0	52	104	0	59	18970
2026-01-03 11:54:27.37	229.96	5.96	-44.0	-58.4	3.8	1.49e+00	0	52	104	0	59	19017
2026-01-03 11:54:28.38	230.08	6.01	-44.0	-58.4	3.8	1.49e+00	0	52	104	0	59	19016
2026-01-03 11:54:29.39	230.20	6.06	-44.0	-58.4	3.8	1.49e+00	0	52	104	0	59	19120
2026-01-03 11:54:30.40	230.32	6.11	-44.0	-58.5	3.8	1.49e+00	0	52	104	0	59	19243
2026-01-03 11:54:31.41	230.44	6.16	-44.0	-58.5	3.8	1.49e+00	0	53	104	0	59	19259
2026-01-03 11:54:32.42	230.56	6.21	-44.0	-58.6	3.8	1.49e+00	0	52	104	0	59	19439
2026-01-03 11:54:33.43	230.67	6.26	-44.0	-58.6	3.8	1.49e+00	0	52	104	0	59	19433
2026-01-03 11:54:34.44	230.80	6.31	-44.0	-58.6	3.8	1.49e+00	0	52	104	0	59	19453
2026-01-03 11:54:35.45	230.92	6.36	-44.0	-58.5	3.8	1.49e+00	0	52	104	0	59	19354
2026-01-03 11:54:36.46	231.04	6.41	-44.0	-58.4	3.8	1.49e+00	0	53	104	0	59	19160
2026-01-03 11:54:37.48	231.16	6.47	-44.0	-58.3	3.8	1.49e+00	0	52	104	0	59	18768
2026-01-03 11:54:38.49	231.28	6.52	-44.0	-58.0	3.8	1.49e+00	0	53	104	0	59	18219
2026-01-03 11:54:39.50	231.40	6.57	-44.0	-57.7	3.8	1.49e+00	0	53	104	0	59	17648
2026-01-03 11:54:40.51	231.53	6.62	-44.0	-57.5	3.8	1.49e+00	0	52	104	0	59	17172
2026-01-03 11:54:41.52	231.65	6.67	-44.0	-57.3	3.8	1.49e+00	0	53	104	0	59	16697
2026-01-03 11:54:42.53	231.77	6.72	-44.0	-57.1	3.8	1.49e+00	0	53	104	0	59	16501
2026-01-03 11:54:43.54	231.90	6.77	-44.0	-57.0	3.8	1.49e+00	0	53	104	0	59	16286
2026-01-03 11:54:44.55	232.02	6.82	-44.0	-57.2	3.8	1.49e+00	0	53	104	0	59	16546
2026-01-03 11:54:45.56	232.15	6.87	-44.0	-57.4	3.8	1.49e+00	0	53	104	0	59	16909
2026-01-03 11:54:46.58	232.27	6.92	-44.0	-57.6	3.8	1.49e+00	0	53	104	0	59	17374
2026-01-03 11:54:47.59	232.40	6.97	-44.0	-57.9	3.8	1.49e+00	0	53	104	0	59	17992
2026-01-03 11:54:48.60	232.52	7.02	-44.0	-58.1	3.8	1.49e+00	0	53	104	0	59	18410
2026-01-03 11:54:49.61	232.65	7.07	-44.0	-58.2	3.8	1.49e+00	0	53	104	0	59	18523
2026-01-03 11:54:50.62	232.78	7.12	-44.0	-58.1	3.8	1.49e+00	0	53	104	0	59	18449
2026-01-03 11:54:51.63	232.90	7.17	-44.0	-58.1	3.8	1.49e+00	0	53	104	0	59	18347
2026-01-03 11:54:52.64	233.03	7.22	-44.0	-58.0	3.8	1.49e+00	0	53	104	0	59	18127
2026-01-03 11:54:53.65	233.16	7.27	-44.0	-57.8	3.8	1.49e+00	0	53	104	0	59	17853
2026-01-03 11:54:54.66	233.29	7.32	-44.0	-57.6	3.8	1.49e+00	0	53	104	0	59	17412
2026-01-03 11:54:55.68	233.42	7.37	-43.9	-57.1	3.8	1.49e+00	0	53	104	0	59	16450
2026-01-03 11:54:56.69	233.55	7.42	-43.9	-56.2	3.8	1.49e+00	0	53	104	0	59	14748
2026-01-03 11:54:57.70	233.68	7.47	-43.8	-54.7	4.3	1.43e+00	0	53	0	0	59	12491
2026-01-03 11:54:58.71	233.81	7.52	-43.6	-53.1	5.0	8.45e-01	0	53	0	1048576	59	10351
2026-01-03 11:54:59.72	233.94	7.57	-43.4	-51.5	6.0	4.68e-01	0	53	0	3145728	58	9158
2026-01-03 11:55:00.73	234.07	7.62	-43.1	-50.1	7.3	2.19e-01	0	53	0	5242880	58	7739
2026-01-03 11:55:01.74	234.20	7.67	-42.7	-48.7	8.6	5.57e-02	0	53	0	7340032	57	7030
2026-01-03 11:55:02.75	234.33	7.72	-42.3	-47.6	9.7	1.96e-02	0	53	0	8388608	56	6550
2026-01-03 11:55:03.76	234.46	7.77	-42.0	-46.7	10.7	6.29e-03	0	54	0	10485760	56	5873
2026-01-03 11:55:04.77	234.60	7.82	-41.5	-45.8	11.5	1.30e-03	0	54	0	12582912	55	5628
2026-01-03 11:55:05.78	234.73	7.87	-41.3	-45.2	12.1	3.47e-04	0	53	0	14680064	54	5571
2026-01-03 11:55:06.79	234.86	7.92	-41.1	-44.9	12.4	2.06e-04	0	54	0	16777216	54	5383
2026-01-03 11:55:07.81	235.00	7.97	-41.0	-44.8	12.6	1.20e-04	0	53	0	17825792	54	5282
2026-01-03 11:55:08.82	235.13	8.02	-41.1	-44.9	12.5	9.53e-05	0	53	0	19922944	54	5349
2026-01-03 11:55:09.83	235.27	8.07	-41.2	-45.1	12.3	8.62e-05	0	54	0	22020096	53	5835
2026-01-03 11:55:10.84	235.41	8.12	-43.7	-54.7	4.4	3.25e-04	51	53	0	24117248	57	13900
2026-01-03 11:55:11.85	235.54	8.17	-41.5	-45.5	12.0	6.54e-02	0	54	0	24117248	53	6129
2026-01-03 11:55:12.86	235.68	8.22	-42.1	-46.9	10.4	3.15e-03	0	53	0	26214400	55	6420
2026-01-03 11:55:13.87	235.81	8.27	-42.3	-47.5	9.8	1.71e-03	0	54	0	28311552	55	6875
2026-01-03 11:55:14.88	235.95	8.32	-41.1	-44.9	12.6	1.79e-03	0	54	0	30408704	54	5346
2026-01-03 11:55:15.88	236.09	8.37	-41.1	-44.8	12.7	9.23e-05	0	54	0	31457280	54	5298
2026-01-03 11:55:16.89	236.23	8.42	-40.9	-44.4	13.0	5.87e-05	0	54	0	33554432	53	5400
2026-01-03 11:55:17.90	236.37	8.47	-40.9	-44.4	13.0	2.97e-05	0	54	0	35651584	53	5360
2026-01-03 11:55:18.91	236.50	8.52	-40.8	-44.2	13.3	1.37e-05	0	54	0	37748736	53	5236
2026-01-03 11:55:19.92	236.64	8.57	-40.8	-44.2	13.2	1.83e-05	0	54	0	39845888	53	5273
2026-01-03 11:55:20.93	236.78	8.62	-40.8	-44.2	13.2	2.05e-05	0	54	0	40894464	53	5250
2026-01-03 11:55:21.94	236.92	8.67	-40.8	-44.2	13.3	2.28e-05	0	54	0	42991616	53	5224
2026-01-03 11:55:22.95	237.07	8.72	-40.7	-44.1	13.3	6.80e-06	0	54	0	45088768	53	5178
2026-01-03 11:55:23.96	237.21	8.77	-40.7	-44.1	13.4	1.37e-05	0	54	0	47185920	53	5182
2026-01-03 11:55:24.97	237.35	8.82	-40.7	-44.1	13.3	2.13e-05	0	54	0	49283072	53	5207
2026-01-03 11:55:25.98	237.49	8.86	-40.6	-43.9	13.5	1.37e-05	0	54	0	50331648	53	5097
2026-01-03 11:55:26.99	237.63	8.91	-40.7	-44.0	13.5	1.14e-05	0	54	0	52428800	53	5111
2026-01-03 11:55:28.00	237.78	8.96	-40.7	-44.1	13.4	1.22e-05	0	54	0	54525952	53	5160
2026-01-03 11:55:29.01	237.92	9.01	-40.6	-43.9	13.5	1.14e-05	0	54	0	56623104	53	5087
2026-01-03 11:55:30.02	238.07	9.06	-40.5	-43.8	13.7	1.22e-05	0	54	0	58720256	53	4998
2026-01-03 11:55:31.03	238.21	9.11	-40.5	-43.6	13.9	3.00e-06	0	54	0	59768832	53	4909
2026-01-03 11:55:32.04	238.36	9.16	-40.4	-43.5	14.0	2.20e-06	0	54	0	61865984	52	5158
2026-01-03 11:55:33.05	238.50	9.21	-40.4	-43.5	14.1	1.50e-06	0	54	0	63963136	52	5106
2026-01-03 11:55:34.06	238.65	9.26	-40.4	-43.5	14.1	7.00e-07	0	54	0	66060288	52	5126
2026-01-03 11:55:35.07	238.79	9.30	-40.4	-43.5	14.1	7.00e-07	0	54	0	68157440	52	5112
2026-01-03 11:55:36.08	238.94	9.35	-40.4	-43.4	14.1	2.20e-06	0	54	0	69206016	52	5083
2026-01-03 11:55:37.09	239.09	9.40	-40.4	-43.4	14.1	7.00e-07	0	54	0	71303168	52	5083
2026-01-03 11:55:38.09	239.23	9.45	-40.4	-43.4	14.1	2.20e-06	0	54	0	73400320	52	5100
2026-01-03 11:55:39.10	239.38	9.50	-40.3	-43.3	14.3	1.50e-06	0	55	0	75497472	52	5026
2026-01-03 11:55:40.11	239.53	9.54	-40.3	-43.3	14.3	2.20e-06	0	54	0	77594624	52	5019
2026-01-03 11:55:41.13	239.68	9.59	-40.2	-43.2	14.3	1.50e-06	0	54	0	79691776	52	4966
2026-01-03 11:55:42.13	239.83	9.64	-40.3	-43.2	14.3	7.00e-07	0	55	0	80740352	52	4982
2026-01-03 11:55:43.14	239.98	9.69	-40.2	-43.1	14.5	1.50e-06	0	54	0	82837504	52	4918
2026-01-03 11:55:44.15	240.13	9.74	-40.1	-43.0	14.6	7.00e-07	0	55	0	84934656	52	4844
2026-01-03 11:55:45.16	240.28	9.78	-40.1	-43.0	14.6	0.00e+00	0	54	0	87031808	52	4831
2026-01-03 11:55:46.17	240.44	9.83	-40.1	-43.0	14.6	0.00e+00	0	55	0	89128960	52	4837
2026-01-03 11:55:47.18	240.59	9.88	-40.0	-42.9	14.7	0.00e+00	0	55	0	90177536	52	4772
2026-01-03 11:55:48.19	240.74	9.93	-40.0	-42.9	14.7	1.50e-06	0	54	0	92274688	52	4772
2026-01-03 11:55:49.20	240.89	9.97	-40.0	-42.9	14.8	0.00e+00	0	55	0	94371840	52	4760
2026-01-03 11:55:50.21	241.05	10.02	-40.0	-42.9	14.7	7.00e-07	0	55	0	96468992	52	4787
2026-01-03 11:55:51.22	241.20	10.07	-40.1	-42.9	14.7	0.00e+00	0	54	0	98566144	52	4786
2026-01-03 11:55:52.23	241.36	10.12	-40.0	-42.9	14.8	0.00e+00	0	55	0	99614720	52	4767
2026-01-03 11:55:53.24	241.51	10.16	-40.1	-42.9	14.7	0.00e+00	0	55	0	101711872	52	4800
2026-01-03 11:55:54.25	241.67	10.21	-40.1	-43.0	14.7	7.00e-07	0	55	0	103809024	52	4827
2026-01-03 11:55:55.26	241.82	10.26	-40.1	-43.0	14.6	0.00e+00	0	55	0	105906176	52	4847
2026-01-03 11:55:56.27	241.98	10.30	-40.1	-43.0	14.6	0.00e+00	0	55	0	108003328	52	4842
2026-01-03 11:55:57.28	242.14	10.35	-40.2	-43.0	14.6	0.00e+00	0	55	0	109051904	52	4852
2026-01-03 11:55:58.28	242.29	10.40	-40.2	-43.0	14.6	0.00e+00	0	55	0	111149056	52	4869
2026-01-03 11:55:59.29	242.45	10.44	-40.1	-43.0	14.6	0.00e+00	0	55	0	113246208	52	4839
2026-01-03 11:56:00.30	242.61	10.49	-40.1	-42.9	14.7	0.00e+00	0	55	0	115343360	52	4800
2026-01-03 11:56:01.31	242.77	10.53	-40.1	-42.9	14.8	0.00e+00	0	55	0	117440512	52	4764
2026-01-03 11:56:02.32	242.93	10.58	-40.0	-42.8	14.9	0.00e+00	0	55	0	118489088	52	4744
2026-01-03 11:56:03.33	243.09	10.63	-40.1	-42.8	14.8	0.00e+00	0	55	0	120586240	52	4749
2026-01-03 11:56:04.34	243.25	10.67	-40.1	-42.9	14.8	0.00e+00	0	55	0	122683392	52	4765
2026-01-03 11:56:05.35	243.41	10.72	-40.1	-42.9	14.8	7.00e-07	0	55	0	124780544	52	4798
2026-01-03 11:56:06.36	243.57	10.76	-40.1	-43.0	14.7	0.00e+00	0	55	0	126877696	52	4815
2026-01-03 11:56:07.37	243.73	10.81	-40.2	-43.0	14.7	0.00e+00	0	55	0	127926272	52	4850
2026-01-03 11:56:08.38	243.89	10.86	-40.2	-43.1	14.6	0.00e+00	0	55	0	130023424	52	4885
2026-01-03 11:56:09.39	244.06	10.90	-40.2	-43.2	14.5	7.00e-07	0	55	0	132120576	52	4930
2026-01-03 11:56:10.40	244.22	10.95	-40.2	-43.0	14.7	0.00e+00	0	55	0	134217728	52	4861
2026-01-03 11:56:11.41	244.38	10.99	-40.1	-42.9	14.8	0.00e+00	0	55	0	136314880	52	4796
2026-01-03 11:56:12.42	244.55	11.04	-40.1	-42.9	14.8	0.00e+00	0	55	0	137363456	52	4767
2026-01-03 11:56:13.43	244.71	11.08	-40.1	-42.9	14.9	0.00e+00	0	55	0	139460608	52	4763
2026-01-03 11:56:14.44	244.88	11.13	-40.0	-42.8	14.9	0.00e+00	0	55	0	141557760	52	4724
2026-01-03 11:56:15.45	245.05	11.17	-40.0	-42.8	14.9	0.00e+00	0	55	0	143654912	52	4734
2026-01-03 11:56:16.46	245.21	11.21	-40.0	-42.8	14.9	0.00e+00	0	55	0	145752064	52	4733
2026-01-03 11:56:17.47	245.38	11.26	-40.1	-42.9	14.8	0.00e+00	0	55	0	147849216	52	4796
2026-01-03 11:56:18.48	245.55	11.30	-40.2	-43.0	14.7	0.00e+00	0	55	0	148897792	52	4857
2026-01-03 11:56:19.49	245.71	11.35	-40.1	-43.0	14.7	0.00e+00	0	55	0	150994944	52	4821
2026-01-03 11:56:20.50	245.88	11.39	-40.3	-43.1	14.6	0.00e+00	0	55	0	153092096	52	4920
2026-01-03 11:56:21.51	246.05	11.43	-40.2	-43.0	14.6	7.00e-07	0	55	0	155189248	52	4867
2026-01-03 11:56:22.52	246.22	11.48	-40.2	-43.1	14.6	0.00e+00	0	55	0	157286400	52	4900
2026-01-03 11:56:23.53	246.39	11.52	-40.2	-43.0	14.8	0.00e+00	0	55	0	158334976	52	4844
2026-01-03 11:56:24.54	246.56	11.56	-40.2	-43.0	14.7	0.00e+00	0	55	0	160432128	52	4852
2026-01-03 11:56:25.55	246.73	11.61	-40.2	-43.0	14.8	0.00e+00	0	55	0	162529280	52	4836
2026-01-03 11:56:26.56	246.90	11.65	-40.2	-43.1	14.7	0.00e+00	0	55	0	164626432	52	4880
2026-01-03 11:56:27.57	247.07	11.69	-40.3	-43.1	14.7	0.00e+00	0	55	0	166723584	52	4902
2026-01-03 11:56:28.58	247.25	11.74	-40.3	-43.2	14.5	0.00e+00	0	55	0	167772160	52	4957
2026-01-03 11:56:29.59	247.42	11.78	-40.3	-43.2	14.5	0.00e+00	0	55	0	169869312	52	4973
2026-01-03 11:56:30.60	247.59	11.82	-40.4	-43.4	14.4	0.00e+00	0	55	0	171966464	52	5044
2026-01-03 11:56:31.61	247.76	11.86	-40.4	-43.4	14.4	0.00e+00	0	55	0	174063616	52	5054
2026-01-03 11:56:32.62	247.94	11.90	-40.5	-43.5	14.3	7.00e-07	0	55	0	176160768	52	5113
2026-01-03 11:56:33.63	248.11	11.95	-40.5	-43.5	14.3	1.50e-06	0	55	0	177209344	52	5108
2026-01-03 11:56:34.64	248.29	11.99	-40.5	-43.6	14.1	3.80e-06	0	55	0	179306496	52	5176
2026-01-03 11:56:35.65	248.46	12.03	-40.5	-43.6	14.2	2.20e-06	0	55	0	181403648	52	5177
2026-01-03 11:56:36.66	248.64	12.07	-40.5	-43.6	14.2	2.20e-06	0	55	0	183500800	52	5178
2026-01-03 11:56:37.67	248.82	12.11	-40.6	-43.6	14.2	7.00e-07	0	55	0	185597952	52	5185
2026-01-03 11:56:38.68	248.99	12.15	-40.6	-43.7	14.1	7.00e-07	0	55	0	186646528	52	5228
2026-01-03 11:56:39.69	249.17	12.19	-40.6	-43.7	14.1	3.00e-06	0	55	0	188743680	52	5244
2026-01-03 11:56:40.70	249.35	12.23	-40.7	-43.8	14.0	7.00e-07	0	55	0	190840832	52	5296
2026-01-03 11:56:41.71	249.53	12.27	-40.7	-43.8	13.9	1.50e-06	0	55	0	192937984	52	5327
2026-01-03 11:56:42.72	249.71	12.31	-40.8	-44.0	13.8	3.80e-06	0	55	0	195035136	52	5424
2026-01-03 11:56:43.72	249.88	12.35	-40.8	-44.0	13.8	4.50e-06	0	55	0	196083712	52	5434
2026-01-03 11:56:44.73	250.06	12.39	-40.9	-44.2	13.5	7.60e-06	0	55	0	198180864	52	5562
2026-01-03 11:56:45.74	250.24	12.43	-40.9	-44.3	13.5	1.06e-05	0	55	0	200278016	52	5600
2026-01-03 11:56:46.75	250.42	12.47	-41.0	-44.3	13.4	1.44e-05	0	55	0	202375168	52	5656
2026-01-03 11:56:47.76	250.60	12.51	-41.0	-44.3	13.5	1.29e-05	0	55	0	204472320	52	5641
2026-01-03 11:56:48.77	250.79	12.55	-41.0	-44.4	13.4	1.44e-05	0	55	0	205520896	52	5657
2026-01-03 11:56:49.78	250.97	12.59	-40.9	-44.2	13.5	1.75e-05	0	55	0	207618048	52	5576
2026-01-03 11:56:50.79	251.15	12.63	-40.9	-44.2	13.6	6.10e-06	0	55	0	209715200	52	5541
2026-01-03 11:56:51.80	251.33	12.67	-40.9	-44.2	13.6	4.50e-06	0	55	0	211812352	52	5557
2026-01-03 11:56:52.81	251.52	12.71	-40.9	-44.3	13.5	6.80e-06	0	55	0	213909504	52	5594
2026-01-03 11:56:53.82	251.70	12.74	-41.0	-44.3	13.5	1.06e-05	0	55	0	216006656	52	5626
2026-01-03 11:56:54.83	251.89	12.78	-41.0	-44.4	13.4	1.37e-05	0	55	0	217055232	52	5667
2026-01-03 11:56:55.84	252.07	12.82	-41.1	-44.5	13.3	1.67e-05	0	55	0	219152384	52	5754
2026-01-03 11:56:56.84	252.25	12.86	-41.2	-44.7	13.1	2.44e-05	0	55	0	221249536	52	5871
2026-01-03 11:56:57.85	252.44	12.89	-41.2	-44.7	13.1	2.59e-05	0	55	0	223346688	53	5548
2026-01-03 11:56:58.86	252.63	12.93	-41.2	-44.7	13.0	2.28e-05	0	55	0	225443840	53	5585
2026-01-03 11:56:59.87	252.81	12.97	-41.3	-44.8	12.9	4.04e-05	0	56	0	226492416	53	5643
2026-01-03 11:57:00.88	253.00	13.00	-41.3	-44.8	12.9	3.96e-05	0	55	0	228589568	53	5656
2026-01-03 11:57:01.89	253.19	13.04	-41.2	-44.7	13.1	4.19e-05	0	56	0	230686720	53	5537
2026-01-03 11:57:02.90	253.38	13.08	-41.1	-44.5	13.2	2.21e-05	0	56	0	232783872	53	5458
2026-01-03 11:57:03.91	253.56	13.11	-41.1	-44.6	13.2	2.67e-05	0	55	0	234881024	53	5470
2026-01-03 11:57:04.92	253.75	13.15	-41.1	-44.5	13.3	2.13e-05	0	56	0	235929600	53	5453
2026-01-03 11:57:05.93	253.94	13.18	-41.1	-44.5	13.3	1.67e-05	0	56	0	238026752	53	5463
2026-01-03 11:57:06.94	254.13	13.22	-41.1	-44.5	13.2	1.67e-05	0	56	0	240123904	53	5458
2026-01-03 11:57:07.95	254.32	13.25	-41.2	-44.6	13.2	2.21e-05	0	55	0	242221056	53	5495
2026-01-03 11:57:08.96	254.51	13.29	-41.2	-44.7	13.1	2.74e-05	0	56	0	244318208	53	5575
2026-01-03 11:57:09.97	254.70	13.32	-41.2	-44.8	13.0	3.81e-05	0	56	0	245366784	53	5614
2026-01-03 11:57:10.98	254.90	13.36	-41.3	-45.0	12.9	4.19e-05	0	56	0	247463936	53	5730
2026-01-03 11:57:11.99	255.09	13.39	-41.4	-45.0	12.8	5.95e-05	0	55	0	249561088	53	5765
2026-01-03 11:57:13.00	255.28	13.43	-41.5	-45.2	12.6	1.07e-04	0	56	0	251658240	53	5899
2026-01-03 11:57:14.01	255.47	13.46	-41.5	-45.2	12.5	9.84e-05	0	56	0	253755392	53	5915
2026-01-03 11:57:15.01	255.66	13.49	-41.4	-45.2	12.6	1.07e-04	0	55	0	254803968	53	5868
2026-01-03 11:57:16.02	255.86	13.52	-41.4	-45.2	12.6	9.68e-05	0	55	0	256901120	53	5868
2026-01-03 11:57:17.03	256.05	13.56	-41.4	-45.1	12.7	8.23e-05	0	56	0	258998272	53	5809
2026-01-03 11:57:18.05	256.25	13.59	-41.4	-45.1	12.7	7.78e-05	0	56	0	261095424	53	5809
2026-01-03 11:57:19.05	256.44	13.62	-41.3	-44.9	12.9	8.01e-05	0	56	0	263192576	53	5680
2026-01-03 11:57:20.06	256.64	13.65	-41.3	-44.9	12.9	5.26e-05	0	56	0	264241152	53	5686
2026-01-03 11:57:21.07	256.83	13.69	-41.3	-44.8	12.9	5.18e-05	0	56	0	266338304	53	5641
2026-01-03 11:57:22.08	257.03	13.72	-41.2	-44.7	13.1	2.05e-05	0	56	0	268435456	53	5536
2026-01-03 11:57:23.09	257.23	13.75	-41.2	-44.7	13.1	2.67e-05	0	56	0	270532608	53	5571
2026-01-03 11:57:24.10	257.42	13.78	-41.2	-44.7	13.1	4.19e-05	0	56	0	272629760	53	5578
2026-01-03 11:57:25.11	257.62	13.81	-41.2	-44.7	13.1	2.74e-05	0	56	0	273678336	53	5548
2026-01-03 11:57:26.12	257.82	13.84	-41.3	-44.8	13.0	3.43e-05	0	56	0	275775488	53	5616
2026-01-03 11:57:27.13	258.02	13.87	-41.4	-45.0	12.8	4.65e-05	0	56	0	277872640	53	5749
2026-01-03 11:57:28.14	258.21	13.90	-41.4	-45.1	12.7	7.24e-05	0	56	0	279969792	53	5793
2026-01-03 11:57:29.15	258.41	13.93	-41.4	-45.0	12.8	7.32e-05	0	56	0	282066944	53	5738
2026-01-03 11:57:30.16	258.61	13.96	-41.3	-44.9	12.9	5.49e-05	0	56	0	283115520	53	5695
2026-01-03 11:57:31.16	258.81	13.99	-41.2	-44.7	13.1	2.74e-05	0	56	0	285212672	53	5553
2026-01-03 11:57:32.17	259.01	14.02	-41.1	-44.5	13.3	1.75e-05	0	56	0	287309824	53	5434
2026-01-03 11:57:33.18	259.21	14.04	-41.0	-44.3	13.5	1.83e-05	0	56	0	289406976	53	5285
2026-01-03 11:57:34.19	259.41	14.07	-40.8	-44.0	13.8	7.60e-06	0	56	0	291504128	53	5141
2026-01-03 11:57:35.20	259.61	14.10	-40.7	-43.7	14.1	2.20e-06	0	56	0	292552704	53	4981
2026-01-03 11:57:36.21	259.81	14.13	-40.5	-43.5	14.3	1.50e-06	0	56	0	294649856	52	5125
2026-01-03 11:57:37.22	260.01	14.15	-40.3	-43.3	14.6	0.00e+00	0	56	0	296747008	52	4995
2026-01-03 11:57:38.23	260.22	14.18	-40.3	-43.2	14.7	0.00e+00	0	56	0	298844160	52	4927
2026-01-03 11:57:39.24	260.42	14.21	-40.3	-43.1	14.7	0.00e+00	0	56	0	300941312	52	4922
2026-01-03 11:57:40.25	260.62	14.23	-40.3	-43.2	14.7	0.00e+00	0	56	0	301989888	52	4964
2026-01-03 11:57:41.26	260.83	14.26	-40.3	-43.3	14.6	7.00e-07	0	56	0	304087040	52	4998
2026-01-03 11:57:42.27	261.03	14.29	-40.3	-43.3	14.6	7.00e-07	0	56	0	306184192	52	5000
2026-01-03 11:57:43.28	261.23	14.31	-40.4	-43.3	14.5	0.00e+00	0	56	0	308281344	52	5020
2026-01-03 11:57:44.29	261.44	14.34	-40.4	-43.4	14.5	7.00e-07	0	56	0	310378496	52	5051
2026-01-03 11:57:45.30	261.64	14.36	-40.4	-43.3	14.6	0.00e+00	0	56	0	312475648	52	4998
2026-01-03 11:57:46.31	261.85	14.38	-40.3	-43.2	14.6	1.50e-06	0	56	0	313524224	52	4979
2026-01-03 11:57:47.32	262.05	14.41	-40.3	-43.1	14.7	0.00e+00	0	56	0	315621376	52	4926
2026-01-03 11:57:48.33	262.26	14.43	-40.3	-43.1	14.7	0.00e+00	0	56	0	317718528	52	4913
2026-01-03 11:57:49.34	262.46	14.46	-40.2	-43.1	14.8	0.00e+00	0	56	0	319815680	52	4888
2026-01-03 11:57:50.35	262.67	14.48	-40.3	-43.1	14.8	0.00e+00	0	56	0	321912832	52	4891
2026-01-03 11:57:51.36	262.88	14.50	-40.2	-43.1	14.8	0.00e+00	0	56	0	322961408	52	4873
2026-01-03 11:57:52.37	263.08	14.52	-40.2	-43.0	14.9	0.00e+00	0	56	0	325058560	52	4834
2026-01-03 11:57:53.38	263.29	14.55	-40.1	-42.9	14.9	7.00e-07	0	56	0	327155712	52	4791
2026-01-03 11:57:54.39	263.50	14.57	-40.2	-43.0	14.9	0.00e+00	0	56	0	329252864	52	4856
2026-01-03 11:57:55.40	263.70	14.59	-40.3	-43.1	14.7	0.00e+00	0	56	0	331350016	52	4910
2026-01-03 11:57:56.41	263.91	14.61	-40.3	-43.2	14.7	7.00e-07	0	56	0	332398592	52	4937
2026-01-03 11:57:57.42	264.12	14.63	-40.4	-43.4	14.5	0.00e+00	0	56	0	334495744	52	5068
2026-01-03 11:57:58.42	264.33	14.65	-40.5	-43.5	14.3	0.00e+00	0	56	0	336592896	52	5141
2026-01-03 11:57:59.43	264.54	14.67	-40.6	-43.6	14.3	7.00e-07	0	56	0	338690048	52	5192
2026-01-03 11:58:00.44	264.74	14.69	-40.7	-43.7	14.1	3.80e-06	0	56	0	340787200	52	5248
2026-01-03 11:58:01.45	264.95	14.71	-40.8	-43.9	14.0	2.20e-06	0	56	0	341835776	52	5359
2026-01-03 11:58:02.46	265.16	14.73	-40.7	-43.8	14.0	2.20e-06	0	56	0	343932928	52	5338
2026-01-03 11:58:03.47	265.37	14.75	-40.7	-43.9	13.9	1.50e-06	0	56	0	346030080	52	5362
2026-01-03 11:58:04.48	265.58	14.77	-40.8	-43.9	13.9	3.00e-06	0	56	0	348127232	52	5392
2026-01-03 11:58:05.49	265.79	14.79	-40.8	-44.0	13.8	1.50e-06	0	56	0	350224384	52	5443
2026-01-03 11:58:06.50	266.00	14.80	-40.8	-43.9	13.9	6.80e-06	0	56	0	351272960	52	5401
2026-01-03 11:58:07.51	266.21	14.82	-40.8	-43.9	13.9	3.00e-06	0	56	0	353370112	52	5399
2026-01-03 11:58:08.52	266.43	14.84	-40.8	-44.0	13.8	3.80e-06	0	56	0	355467264	52	5458
2026-01-03 11:58:09.53	266.64	14.86	-40.8	-44.0	13.8	3.00e-06	0	56	0	357564416	52	5439
2026-01-03 11:58:10.54	266.85	14.87	-40.8	-44.0	13.8	1.50e-06	0	56	0	359661568	52	5450
2026-01-03 11:58:11.55	267.06	14.89	-40.9	-44.1	13.7	3.00e-06	0	56	0	360710144	52	5506
2026-01-03 11:58:12.56	267.27	14.90	-40.9	-44.1	13.8	3.80e-06	0	56	0	362807296	52	5466
2026-01-03 11:58:13.57	267.48	14.92	-40.9	-44.1	13.7	3.00e-06	0	56	0	364904448	52	5489
2026-01-03 11:58:14.58	267.70	14.93	-40.9	-44.2	13.6	8.30e-06	0	56	0	367001600	52	5568
2026-01-03 11:58:15.58	267.91	14.95	-40.9	-44.1	13.7	6.80e-06	0	56	0	369098752	52	5512
2026-01-03 11:58:16.59	268.12	14.96	-40.9	-44.1	13.7	9.10e-06	0	56	0	370147328	52	5499
2026-01-03 11:58:17.60	268.33	14.98	-40.9	-44.1	13.7	2.20e-06	0	56	0	372244480	52	5493
2026-01-03 11:58:18.61	268.54	14.99	-40.8	-43.9	13.9	1.50e-06	0	56	0	374341632	52	5378
2026-01-03 11:58:19.62	268.76	15.00	-40.8	-43.9	13.9	5.30e-06	0	56	0	376438784	52	5391
2026-01-03 11:58:20.63	268.97	15.02	-40.8	-43.9	13.8	5.30e-06	0	56	0	378535936	52	5402
2026-01-03 11:58:21.64	269.18	15.03	-40.8	-44.0	13.8	4.50e-06	0	56	0	380633088	52	5462
2026-01-03 11:58:22.65	269.40	15.04	-40.8	-44.0	13.8	7.60e-06	0	56	0	381681664	52	5431
2026-01-03 11:58:23.66	269.61	15.05	-40.8	-44.1	13.7	4.50e-06	0	56	0	383778816	52	5468
2026-01-03 11:58:24.67	269.83	15.06	-40.8	-44.1	13.8	6.10e-06	0	56	0	385875968	52	5465
2026-01-03 11:58:25.68	270.04	15.07	-40.8	-44.0	13.8	3.00e-06	0	56	0	387973120	52	5414
2026-01-03 11:58:26.69	270.26	15.08	-40.7	-43.9	13.9	3.80e-06	0	56	0	390070272	52	5368
2026-01-03 11:58:27.70	270.47	15.09	-40.7	-43.8	14.1	1.50e-06	0	56	0	391118848	52	5287
2026-01-03 11:58:28.71	270.68	15.10	-40.6	-43.7	14.1	2.20e-06	0	56	0	393216000	52	5225
2026-01-03 11:58:29.72	270.90	15.11	-40.6	-43.6	14.3	0.00e+00	0	56	0	395313152	52	5173
2026-01-03 11:58:30.73	271.11	15.12	-40.6	-43.7	14.1	2.20e-06	0	56	0	397410304	52	5235
2026-01-03 11:58:31.74	271.33	15.13	-40.6	-43.7	14.1	4.50e-06	0	56	0	399507456	52	5224
2026-01-03 11:58:32.75	271.54	15.14	-40.7	-43.8	14.0	2.20e-06	0	56	0	400556032	52	5281
2026-01-03 11:58:33.76	271.76	15.15	-40.7	-43.8	14.0	7.00e-07	0	56	0	402653184	52	5296
2026-01-03 11:58:34.77	271.97	15.16	-40.6	-43.7	14.1	4.50e-06	0	56	0	404750336	52	5257
2026-01-03 11:58:35.78	272.19	15.16	-40.6	-43.7	14.1	1.50e-06	0	56	0	406847488	52	5250
2026-01-03 11:58:36.79	272.41	15.17	-40.6	-43.6	14.1	3.80e-06	0	56	0	408944640	52	5203
2026-01-03 11:58:37.80	272.62	15.18	-40.6	-43.7	14.1	0.00e+00	0	56	0	409993216	52	5242
2026-01-03 11:58:38.81	272.84	15.18	-40.5	-43.5	14.2	7.00e-07	0	56	0	412090368	52	5155
2026-01-03 11:58:39.82	273.05	15.19	-40.5	-43.6	14.2	3.00e-06	0	56	0	414187520	52	5170
2026-01-03 11:58:40.83	273.27	15.19	-40.6	-43.6	14.2	7.00e-07	0	56	0	416284672	52	5175
2026-01-03 11:58:41.84	273.48	15.20	-40.5	-43.6	14.2	7.00e-07	0	56	0	418381824	52	5173
2026-01-03 11:58:42.85	273.70	15.20	-40.5	-43.5	14.3	7.00e-07	0	56	0	419430400	52	5126
2026-01-03 11:58:43.86	273.92	15.21	-40.5	-43.5	14.3	7.00e-07	0	56	0	421527552	52	5123
2026-01-03 11:58:44.87	274.13	15.21	-40.4	-43.4	14.4	7.00e-07	0	56	0	423624704	52	5080
2026-01-03 11:58:45.88	274.35	15.21	-40.5	-43.6	14.2	7.00e-07	0	56	0	425721856	52	5165
2026-01-03 11:58:46.89	274.57	15.22	-40.5	-43.5	14.3	0.00e+00	0	56	0	427819008	52	5138
2026-01-03 11:58:47.90	274.78	15.22	-40.5	-43.5	14.2	1.50e-06	0	56	0	428867584	52	5158
2026-01-03 11:58:48.91	275.00	15.22	-40.5	-43.5	14.3	7.00e-07	0	56	0	430964736	52	5147
2026-01-03 11:58:49.92	275.21	15.22	-40.5	-43.5	14.3	1.50e-06	0	56	0	433061888	52	5131
2026-01-03 11:58:50.93	275.43	15.23	-40.4	-43.3	14.4	0.00e+00	0	56	0	435159040	52	5033
2026-01-03 11:58:51.94	275.65	15.23	-40.3	-43.2	14.5	7.00e-07	0	56	0	437256192	52	4973
2026-01-03 11:58:52.94	275.86	15.23	-40.3	-43.2	14.5	7.00e-07	0	56	0	438304768	52	4980
2026-01-03 11:58:53.95	276.08	15.23	-40.3	-43.1	14.6	0.00e+00	0	56	0	440401920	52	4915
2026-01-03 11:58:54.96	276.29	15.23	-40.2	-43.1	14.7	0.00e+00	0	56	0	442499072	52	4904
2026-01-03 11:58:55.97	276.51	15.23	-40.2	-43.0	14.7	0.00e+00	0	56	0	444596224	52	4862
2026-01-03 11:58:56.98	276.73	15.23	-40.2	-43.1	14.6	7.00e-07	0	56	0	446693376	52	4897
2026-01-03 11:58:57.99	276.94	15.23	-40.3	-43.1	14.7	0.00e+00	0	56	0	448790528	52	4893
2026-01-03 11:58:59.00	277.16	15.22	-40.2	-43.1	14.7	0.00e+00	0	56	0	449839104	52	4886
2026-01-03 11:59:00.01	277.37	15.22	-40.3	-43.1	14.6	0.00e+00	0	56	0	451936256	52	4912
2026-01-03 11:59:01.02	277.59	15.22	-40.3	-43.2	14.6	7.00e-07	0	56	0	454033408	52	4951
2026-01-03 11:59:02.03	277.81	15.22	-40.3	-43.2	14.5	7.00e-07	0	56	0	456130560	52	4956
2026-01-03 11:59:03.04	278.02	15.21	-40.3	-43.2	14.5	7.00e-07	0	56	0	458227712	52	4969
2026-01-03 11:59:04.05	278.24	15.21	-40.3	-43.1	14.6	0.00e+00	0	56	0	459276288	52	4914
2026-01-03 11:59:05.06	278.45	15.21	-40.2	-43.0	14.8	0.00e+00	0	56	0	461373440	52	4840
2026-01-03 11:59:06.06	278.67	15.20	-40.1	-42.8	14.9	0.00e+00	0	57	0	463470592	52	4753
2026-01-03 11:59:07.07	278.88	15.20	-40.0	-42.7	15.1	0.00e+00	0	56	0	465567744	52	4678
2026-01-03 11:59:08.08	279.10	15.19	-40.0	-42.7	15.1	0.00e+00	0	57	0	467664896	51	4951
2026-01-03 11:59:09.09	279.32	15.19	-40.0	-42.7	15.1	0.00e+00	0	56	0	468713472	51	4975
2026-01-03 11:59:10.10	279.53	15.18	-40.0	-42.7	15.1	0.00e+00	0	56	0	470810624	51	4941
2026-01-03 11:59:11.11	279.75	15.18	-40.1	-42.8	15.0	0.00e+00	0	56	0	472907776	51	5041
2026-01-03 11:59:12.12	279.96	15.17	-40.2	-43.0	14.9	0.00e+00	0	56	0	475004928	51	5103
2026-01-03 11:59:13.13	280.18	15.16	-40.2	-43.0	14.8	0.00e+00	0	56	0	477102080	51	5149
2026-01-03 11:59:14.14	280.39	15.16	-40.2	-43.1	14.8	0.00e+00	0	56	0	478150656	51	5174
2026-01-03 11:59:15.15	280.61	15.15	-40.3	-43.1	14.7	0.00e+00	0	56	0	480247808	51	5185
2026-01-03 11:59:16.16	280.82	15.14	-40.2	-43.0	14.9	0.00e+00	0	56	0	482344960	51	5115
2026-01-03 11:59:17.17	281.04	15.13	-40.1	-42.9	14.9	0.00e+00	0	56	0	484442112	51	5070
2026-01-03 11:59:18.18	281.25	15.12	-40.1	-42.8	15.0	0.00e+00	0	56	0	486539264	51	5009
2026-01-03 11:59:19.19	281.47	15.11	-40.1	-42.8	15.1	0.00e+00	0	56	0	487587840	51	4997
2026-01-03 11:59:20.20	281.68	15.10	-40.0	-42.8	15.1	0.00e+00	0	56	0	489684992	51	4990
2026-01-03 11:59:21.21	281.90	15.09	-40.0	-42.7	15.1	0.00e+00	0	56	0	491782144	51	4953
2026-01-03 11:59:22.22	282.11	15.08	-40.0	-42.7	15.2	0.00e+00	0	56	0	493879296	51	4933
2026-01-03 11:59:23.23	282.32	15.07	-40.0	-42.7	15.1	0.00e+00	0	56	0	495976448	51	4955
2026-01-03 11:59:24.24	282.54	15.06	-40.0	-42.7	15.1	0.00e+00	0	57	0	497025024	51	4967
2026-01-03 11:59:25.25	282.75	15.05	-40.0	-42.7	15.2	0.00e+00	0	56	0	499122176	51	4937
2026-01-03 11:59:26.26	282.97	15.04	-40.0	-42.6	15.2	0.00e+00	0	56	0	501219328	51	4914
2026-01-03 11:59:27.27	283.18	15.03	-40.0	-42.7	15.2	0.00e+00	0	56	0	503316480	51	4941
2026-01-03 11:59:28.28	283.39	15.02	-40.0	-42.6	15.2	0.00e+00	0	56	0	505413632	51	4922
2026-01-03 11:59:29.29	283.61	15.00	-40.0	-42.7	15.1	0.00e+00	0	56	0	506462208	51	4933
2026-01-03 11:59:30.30	283.82	14.99	-40.0	-42.7	15.1	0.00e+00	0	57	0	508559360	51	4982
2026-01-03 11:59:31.31	284.03	14.98	-40.1	-42.9	14.9	0.00e+00	0	56	0	510656512	51	5059
2026-01-03 11:59:32.31	284.24	14.96	-40.1	-42.9	14.9	0.00e+00	0	56	0	512753664	51	5073
2026-01-03 11:59:33.32	284.45	14.95	-40.2	-43.0	14.8	0.00e+00	0	56	0	514850816	51	5146
2026-01-03 11:59:34.33	284.67	14.93	-40.2	-43.1	14.7	0.00e+00	0	56	0	516947968	51	5164
2026-01-03 11:59:35.34	284.88	14.92	-40.2	-43.0	14.8	0.00e+00	0	56	0	517996544	51	5148
2026-01-03 11:59:36.35	285.09	14.90	-40.2	-42.9	14.9	0.00e+00	0	56	0	520093696	51	5094
2026-01-03 11:59:37.36	285.30	14.89	-40.1	-42.8	15.0	0.00e+00	0	56	0	522190848	51	5027
2026-01-03 11:59:38.37	285.51	14.87	-40.1	-42.8	14.9	0.00e+00	0	56	0	524288000	51	5040
2026-01-03 11:59:39.38	285.72	14.86	-40.1	-42.8	15.0	0.00e+00	0	56	0	526385152	51	5023
2026-01-03 11:59:40.39	285.93	14.84	-40.1	-42.9	14.9	0.00e+00	0	56	0	527433728	51	5066
2026-01-03 11:59:41.40	286.14	14.82	-40.2	-43.0	14.8	0.00e+00	0	56	0	529530880	51	5116
2026-01-03 11:59:42.40	286.35	14.80	-40.2	-43.1	14.7	0.00e+00	0	56	0	531628032	51	5164
2026-01-03 11:59:43.41	286.56	14.79	-40.3	-43.2	14.5	0.00e+00	0	56	0	533725184	51	5236
2026-01-03 11:59:44.42	286.77	14.77	-40.3	-43.2	14.6	0.00e+00	0	57	0	535822336	51	5220
2026-01-03 11:59:45.43	286.98	14.75	-40.3	-43.1	14.6	7.00e-07	0	56	0	536870912	51	5204
2026-01-03 11:59:46.44	287.19	14.73	-40.2	-43.0	14.7	7.00e-07	0	57	0	538968064	51	5134
2026-01-03 11:59:47.45	287.40	14.71	-40.0	-42.8	14.9	7.00e-07	0	57	0	541065216	51	5011
2026-01-03 11:59:48.46	287.61	14.69	-39.9	-42.6	15.1	0.00e+00	0	56	0	543162368	51	4893
2026-01-03 11:59:49.47	287.82	14.67	-39.9	-42.6	15.0	0.00e+00	0	56	0	545259520	51	4922
2026-01-03 11:59:50.48	288.02	14.65	-39.9	-42.7	15.0	0.00e+00	0	56	0	546308096	51	4937
2026-01-03 11:59:51.49	288.23	14.63	-40.0	-42.7	15.0	7.00e-07	0	56	0	548405248	51	4979
2026-01-03 11:59:52.50	288.44	14.61	-40.0	-42.8	14.9	0.00e+00	0	57	0	550502400	51	5016
2026-01-03 11:59:53.51	288.65	14.59	-40.1	-42.9	14.8	0.00e+00	0	57	0	552599552	51	5081
2026-01-03 11:59:54.52	288.85	14.57	-40.2	-43.0	14.6	0.00e+00	0	56	0	554696704	51	5146
2026-01-03 11:59:55.53	289.06	14.55	-40.2	-43.1	14.6	0.00e+00	0	57	0	555745280	51	5168
2026-01-03 11:59:56.54	289.27	14.53	-40.3	-43.2	14.5	0.00e+00	0	56	0	557842432	51	5227
2026-01-03 11:59:57.55	289.47	14.50	-40.2	-43.1	14.6	0.00e+00	0	56	0	559939584	51	5171
2026-01-03 11:59:58.56	289.68	14.48	-40.1	-43.0	14.7	7.00e-07	0	57	0	562036736	51	5137
2026-01-03 11:59:59.57	289.89	14.46	-40.1	-42.9	14.7	7.00e-07	0	57	0	564133888	51	5074
2026-01-03 12:00:00.58	290.09	14.43	-40.0	-42.8	14.8	7.00e-07	0	56	0	565182464	51	5017
2026-01-03 12:00:01.59	290.30	14.41	-39.9	-42.7	14.9	0.00e+00	0	57	0	567279616	51	4950
2026-01-03 12:00:02.60	290.50	14.39	-39.9	-42.6	15.1	0.00e+00	0	57	0	569376768	51	4877
2026-01-03 12:00:03.61	290.70	14.36	-39.8	-42.4	15.1	0.00e+00	0	56	0	571473920	51	4811
2026-01-03 12:00:04.62	290.91	14.34	-39.7	-42.4	15.2	0.00e+00	0	57	0	573571072	51	4769
2026-01-03 12:00:05.63	291.11	14.31	-39.6	-42.2	15.3	0.00e+00	0	57	0	574619648	51	4702
2026-01-03 12:00:06.64	291.31	14.29	-39.5	-42.0	15.5	0.00e+00	0	56	0	576716800	51	4574
2026-01-03 12:00:07.65	291.52	14.26	-39.4	-41.9	15.6	7.00e-07	0	56	0	578813952	50	4807
2026-01-03 12:00:08.66	291.72	14.24	-39.4	-41.9	15.6	0.00e+00	0	57	0	580911104	50	4779
2026-01-03 12:00:09.67	291.92	14.21	-39.5	-42.0	15.5	0.00e+00	0	56	0	583008256	50	4857
2026-01-03 12:00:10.68	292.12	14.18	-39.6	-42.2	15.4	0.00e+00	0	57	0	585105408	50	4940
2026-01-03 12:00:11.69	292.33	14.16	-39.6	-42.3	15.2	0.00e+00	0	57	0	586153984	50	4996
2026-01-03 12:00:12.70	292.53	14.13	-39.7	-42.4	15.1	0.00e+00	0	56	0	588251136	50	5083
2026-01-03 12:00:13.71	292.73	14.10	-39.7	-42.4	15.1	0.00e+00	0	57	0	590348288	50	5097
2026-01-03 12:00:14.72	292.93	14.08	-39.8	-42.5	15.0	0.00e+00	0	57	0	592445440	50	5120
2026-01-03 12:00:15.73	293.13	14.05	-39.8	-42.5	14.9	0.00e+00	0	57	0	594542592	50	5150
2026-01-03 12:00:16.74	293.33	14.02	-39.7	-42.4	15.1	0.00e+00	0	56	0	595591168	50	5075
2026-01-03 12:00:17.75	293.53	13.99	-39.7	-42.4	15.1	0.00e+00	0	57	0	597688320	50	5046
2026-01-03 12:00:18.76	293.73	13.96	-39.6	-42.2	15.2	0.00e+00	0	56	0	599785472	50	4970
2026-01-03 12:00:19.77	293.92	13.93	-39.5	-42.0	15.5	0.00e+00	0	57	0	601882624	50	4853
2026-01-03 12:00:20.78	294.12	13.90	-39.3	-41.9	15.6	0.00e+00	0	57	0	603979776	50	4763
2026-01-03 12:00:21.79	294.32	13.87	-39.3	-41.9	15.6	0.00e+00	0	57	0	605028352	50	4760
2026-01-03 12:00:22.79	294.51	13.84	-39.3	-41.8	15.7	0.00e+00	0	57	0	607125504	50	4723
2026-01-03 12:00:23.80	294.71	13.81	-39.3	-41.8	15.7	7.00e-07	0	56	0	609222656	50	4742
2026-01-03 12:00:24.81	294.91	13.78	-39.3	-41.8	15.6	0.00e+00	0	56	0	611319808	50	4745
2026-01-03 12:00:25.82	295.10	13.75	-39.3	-41.8	15.7	0.00e+00	0	56	0	613416960	50	4728
2026-01-03 12:00:26.83	295.30	13.72	-39.3	-41.9	15.6	0.00e+00	0	57	0	614465536	50	4766
2026-01-03 12:00:27.84	295.50	13.69	-39.4	-41.9	15.6	0.00e+00	0	57	0	616562688	50	4786
2026-01-03 12:00:28.85	295.69	13.66	-39.4	-42.0	15.5	0.00e+00	0	57	0	618659840	50	4844
2026-01-03 12:00:29.86	295.88	13.63	-39.5	-42.1	15.4	0.00e+00	0	57	0	620756992	50	4891
2026-01-03 12:00:30.87	296.08	13.60	-39.6	-42.3	15.3	0.00e+00	0	57	0	622854144	50	4987
2026-01-03 12:00:31.88	296.27	13.56	-39.6	-42.3	15.2	0.00e+00	0	57	0	623902720	50	5009
2026-01-03 12:00:32.89	296.47	13.53	-39.7	-42.4	15.1	0.00e+00	0	57	0	625999872	50	5089
2026-01-03 12:00:33.90	296.66	13.50	-39.8	-42.5	15.0	0.00e+00	0	57	0	628097024	50	5135
2026-01-03 12:00:34.91	296.85	13.47	-39.7	-42.5	15.1	7.00e-07	0	57	0	630194176	50	5107
2026-01-03 12:00:35.92	297.04	13.43	-39.8	-42.5	15.0	7.00e-07	0	57	0	632291328	50	5144
2026-01-03 12:00:36.93	297.23	13.40	-39.7	-42.4	15.2	0.00e+00	0	57	0	633339904	50	5057
2026-01-03 12:00:37.94	297.43	13.37	-39.7	-42.3	15.3	0.00e+00	0	57	0	635437056	50	5014
2026-01-03 12:00:38.95	297.62	13.33	-39.6	-42.2	15.4	0.00e+00	0	57	0	637534208	50	4939
2026-01-03 12:00:39.96	297.81	13.30	-39.6	-42.2	15.4	0.00e+00	0	57	0	639631360	50	4962
2026-01-03 12:00:40.97	298.00	13.26	-39.7	-42.3	15.3	0.00e+00	0	57	0	641728512	50	5011
2026-01-03 12:00:41.98	298.19	13.23	-39.7	-42.3	15.3	7.00e-07	0	57	0	642777088	50	5018
2026-01-03 12:00:42.99	298.38	13.19	-39.6	-42.3	15.4	0.00e+00	0	57	0	644874240	50	4986
2026-01-03 12:00:43.99	298.56	13.16	-39.6	-42.2	15.4	0.00e+00	0	57	0	646971392	50	4977
2026-01-03 12:00:45.01	298.75	13.12	-39.7	-42.2	15.4	0.00e+00	0	57	0	649068544	50	4972
2026-01-03 12:00:46.02	298.94	13.09	-39.7	-42.3	15.4	0.00e+00	0	56	0	651165696	50	5004
2026-01-03 12:00:47.03	299.13	13.05	-39.7	-42.3	15.3	0.00e+00	0	57	0	653262848	50	5012
2026-01-03 12:00:48.03	299.31	13.02	-39.8	-42.5	15.2	0.00e+00	0	57	0	654311424	50	5101
2026-01-03 12:00:49.05	299.50	12.98	-39.8	-42.5	15.2	0.00e+00	0	56	0	656408576	50	5122
2026-01-03 12:00:50.06	299.69	12.94	-39.9	-42.6	15.0	0.00e+00	0	57	0	658505728	50	5206
2026-01-03 12:00:51.07	299.87	12.91	-40.1	-42.9	14.8	7.00e-07	0	57	0	660602880	50	5364
2026-01-03 12:00:52.08	300.06	12.87	-40.2	-43.0	14.7	0.00e+00	0	57	0	662700032	50	5433
2026-01-03 12:00:53.09	300.24	12.83	-40.2	-43.1	14.6	0.00e+00	0	57	0	663748608	50	5492
2026-01-03 12:00:54.10	300.42	12.79	-40.2	-43.1	14.6	1.50e-06	0	57	0	665845760	51	5212
2026-01-03 12:00:55.11	300.61	12.76	-40.3	-43.3	14.4	7.00e-07	0	57	0	667942912	51	5285
2026-01-03 12:00:56.12	300.79	12.72	-40.3	-43.3	14.5	7.00e-07	0	56	0	670040064	51	5283
2026-01-03 12:00:57.13	300.97	12.68	-40.3	-43.2	14.4	0.00e+00	0	57	0	672137216	51	5274
2026-01-03 12:00:58.14	301.16	12.64	-40.4	-43.3	14.4	0.00e+00	0	57	0	673185792	51	5320
2026-01-03 12:00:59.15	301.34	12.60	-40.5	-43.5	14.2	1.50e-06	0	57	0	675282944	51	5421
2026-01-03 12:01:00.16	301.52	12.57	-40.4	-43.4	14.3	7.00e-07	0	57	0	677380096	51	5371
2026-01-03 12:01:01.17	301.70	12.53	-40.5	-43.6	14.1	1.50e-06	0	57	0	679477248	51	5486
2026-01-03 12:01:02.18	301.88	12.49	-40.6	-43.7	14.0	3.00e-06	0	57	0	681574400	51	5529
2026-01-03 12:01:03.19	302.06	12.45	-40.6	-43.7	14.0	2.20e-06	0	56	0	682622976	51	5571
2026-01-03 12:01:04.19	302.24	12.41	-40.6	-43.7	13.9	5.30e-06	0	57	0	684720128	51	5583
2026-01-03 12:01:05.20	302.42	12.37	-40.6	-43.7	14.0	2.20e-06	0	57	0	686817280	51	5570
2026-01-03 12:01:06.21	302.60	12.33	-40.5	-43.5	14.1	5.30e-06	0	57	0	688914432	51	5462
2026-01-03 12:01:07.22	302.77	12.29	-40.5	-43.5	14.2	1.50e-06	0	57	0	691011584	51	5446
2026-01-03 12:01:08.23	302.95	12.25	-40.5	-43.5	14.1	1.50e-06	0	57	0	692060160	51	5453
2026-01-03 12:01:09.24	303.13	12.21	-40.5	-43.5	14.2	0.00e+00	0	57	0	694157312	51	5461
2026-01-03 12:01:10.25	303.30	12.17	-40.5	-43.6	14.1	1.50e-06	0	57	0	696254464	51	5491
2026-01-03 12:01:11.26	303.48	12.13	-40.6	-43.8	13.9	7.00e-07	0	57	0	698351616	51	5603
2026-01-03 12:01:12.27	303.66	12.09	-40.7	-44.0	13.6	4.50e-06	0	56	0	700448768	52	5452
2026-01-03 12:01:13.28	303.83	12.05	-40.9	-44.3	13.3	1.22e-05	0	57	0	701497344	52	5602
2026-01-03 12:01:14.29	304.01	12.01	-41.0	-44.5	13.1	2.05e-05	0	57	0	703594496	52	5758
2026-01-03 12:01:15.30	304.18	11.97	-41.1	-44.7	12.8	5.34e-05	0	56	0	705691648	52	5903
2026-01-03 12:01:16.31	304.35	11.92	-41.3	-45.0	12.6	8.46e-05	0	57	0	707788800	53	5750
2026-01-03 12:01:17.32	304.53	11.88	-41.3	-45.2	12.4	1.19e-04	0	56	0	709885952	53	5864
2026-01-03 12:01:18.33	304.70	11.84	-41.4	-45.3	12.2	1.84e-04	0	57	0	710934528	53	5948
2026-01-03 12:01:19.34	304.87	11.80	-41.4	-45.4	12.2	2.36e-04	0	57	0	713031680	53	6015
2026-01-03 12:01:20.35	305.04	11.76	-41.5	-45.5	12.0	2.91e-04	0	56	0	715128832	53	6081
2026-01-03 12:01:21.36	305.22	11.72	-41.6	-45.7	11.8	3.27e-04	0	57	0	717225984	53	6256
2026-01-03 12:01:22.36	305.38	11.67	-41.8	-46.1	11.5	7.61e-04	0	57	0	719323136	54	6157
2026-01-03 12:01:23.37	305.56	11.63	-41.9	-46.3	11.2	1.22e-03	0	57	0	720371712	54	6326
2026-01-03 12:01:24.38	305.72	11.59	-41.9	-46.4	11.0	1.58e-03	0	57	0	722468864	54	6390
2026-01-03 12:01:25.39	305.89	11.54	-41.9	-46.5	11.0	2.07e-03	0	57	0	724566016	54	6442
2026-01-03 12:01:26.40	306.06	11.50	-41.9	-46.3	11.2	1.72e-03	0	57	0	726663168	54	6299
2026-01-03 12:01:27.42	306.23	11.46	-41.7	-46.0	11.5	1.22e-03	0	57	0	728760320	54	6106
2026-01-03 12:01:28.43	306.40	11.42	-41.6	-45.7	11.8	5.24e-04	0	57	0	730857472	54	5874
2026-01-03 12:01:29.43	306.57	11.37	-41.5	-45.5	12.0	4.14e-04	0	57	0	731906048	54	5781
2026-01-03 12:01:30.44	306.73	11.33	-41.4	-45.4	12.1	3.04e-04	0	57	0	734003200	54	5678
2026-01-03 12:01:31.45	306.90	11.29	-41.4	-45.2	12.3	1.74e-04	0	57	0	736100352	54	5575
2026-01-03 12:01:32.46	307.07	11.24	-41.3	-45.0	12.5	1.61e-04	0	57	0	738197504	54	5451
2026-01-03 12:01:33.47	307.23	11.20	-41.3	-45.0	12.5	1.36e-04	0	57	0	740294656	54	5443
2026-01-03 12:01:34.48	307.40	11.15	-41.2	-45.0	12.5	1.18e-04	0	57	0	741343232	54	5411
2026-01-03 12:01:35.49	307.56	11.11	-41.3	-45.1	12.5	1.17e-04	0	57	0	743440384	54	5476
2026-01-03 12:01:36.50	307.73	11.06	-41.4	-45.2	12.3	1.40e-04	0	57	0	745537536	54	5562
2026-01-03 12:01:37.51	307.89	11.02	-41.4	-45.4	12.2	2.59e-04	0	57	0	747634688	54	5661
2026-01-03 12:01:38.52	308.05	10.98	-41.4	-45.4	12.1	2.38e-04	0	57	0	749731840	54	5683
2026-01-03 12:01:39.53	308.22	10.93	-41.5	-45.5	12.0	3.39e-04	0	57	0	750780416	54	5766
2026-01-03 12:01:40.54	308.38	10.89	-41.6	-45.7	11.8	3.89e-04	0	57	0	752877568	54	5859
2026-01-03 12:01:41.55	308.54	10.84	-41.7	-46.0	11.5	6.54e-04	0	57	0	754974720	54	6079
2026-01-03 12:01:42.56	308.70	10.80	-41.8	-46.2	11.2	1.09e-03	0	57	0	757071872	54	6251
2026-01-03 12:01:43.57	308.86	10.75	-41.9	-46.3	11.1	1.29e-03	0	57	0	759169024	54	6316
2026-01-03 12:01:44.58	309.02	10.71	-41.9	-46.4	11.1	1.64e-03	0	57	0	760217600	54	6362
2026-01-03 12:01:45.59	309.18	10.66	-41.8	-46.3	11.2	1.49e-03	0	57	0	762314752	54	6277
2026-01-03 12:01:46.59	309.34	10.62	-41.8	-46.2	11.3	1.47e-03	0	57	0	764411904	54	6203
2026-01-03 12:01:47.60	309.50	10.57	-41.7	-45.9	11.5	8.47e-04	0	57	0	766509056	54	6028
2026-01-03 12:01:48.61	309.66	10.52	-41.6	-45.8	11.6	6.19e-04	0	57	0	768606208	54	5980
2026-01-03 12:01:49.62	309.81	10.48	-41.5	-45.6	11.8	5.19e-04	0	57	0	769654784	54	5851
2026-01-03 12:01:50.63	309.97	10.43	-41.5	-45.5	12.0	3.65e-04	0	57	0	771751936	54	5744
2026-01-03 12:01:51.64	310.13	10.39	-41.5	-45.5	12.0	3.57e-04	0	57	0	773849088	54	5736
2026-01-03 12:01:52.65	310.28	10.34	-41.5	-45.5	11.9	3.54e-04	0	57	0	775946240	54	5788
2026-01-03 12:01:53.66	310.44	10.29	-41.6	-45.7	11.8	3.82e-04	0	57	0	778043392	54	5865
2026-01-03 12:01:54.67	310.59	10.25	-41.5	-45.6	11.8	4.90e-04	0	57	0	779091968	54	5842
2026-01-03 12:01:55.68	310.75	10.20	-41.5	-45.6	11.9	5.48e-04	0	57	0	781189120	54	5803
2026-01-03 12:01:56.69	310.90	10.15	-41.4	-45.4	12.0	3.55e-04	0	57	0	783286272	54	5709
2026-01-03 12:01:57.70	311.06	10.11	-41.4	-45.3	12.2	2.40e-04	0	57	0	785383424	54	5605
2026-01-03 12:01:58.71	311.21	10.06	-41.2	-45.0	12.4	1.72e-04	0	56	0	787480576	54	5423
2026-01-03 12:01:59.72	311.36	10.01	-41.1	-44.7	12.7	9.61e-05	0	57	0	788529152	54	5246
2026-01-03 12:02:00.73	311.52	9.97	-41.0	-44.6	12.9	5.03e-05	0	57	0	790626304	54	5160
2026-01-03 12:02:01.74	311.67	9.92	-40.8	-44.3	13.2	3.35e-05	0	57	0	792723456	53	5308
2026-01-03 12:02:02.75	311.82	9.87	-40.8	-44.2	13.2	2.59e-05	0	57	0	794820608	53	5267
2026-01-03 12:02:03.76	311.97	9.83	-40.7	-44.1	13.3	2.97e-05	0	57	0	796917760	53	5218
2026-01-03 12:02:04.77	312.12	9.78	-40.8	-44.2	13.2	2.05e-05	0	57	0	799014912	53	5262
2026-01-03 12:02:05.78	312.27	9.73	-40.8	-44.3	13.1	3.20e-05	0	57	0	800063488	53	5329
2026-01-03 12:02:06.79	312.42	9.68	-40.9	-44.5	12.9	3.35e-05	0	57	0	802160640	53	5429
2026-01-03 12:02:07.80	312.57	9.64	-41.0	-44.6	12.8	5.41e-05	0	57	0	804257792	53	5489
2026-01-03 12:02:08.81	312.72	9.59	-41.0	-44.7	12.7	4.88e-05	0	57	0	806354944	53	5551
2026-01-03 12:02:09.82	312.87	9.54	-41.1	-44.8	12.5	1.09e-04	0	57	0	808452096	53	5643
2026-01-03 12:02:10.83	313.02	9.49	-41.1	-44.9	12.4	1.52e-04	0	57	0	809500672	53	5701
2026-01-03 12:02:11.84	313.16	9.45	-41.1	-44.9	12.5	1.29e-04	0	57	0	811597824	53	5690
2026-01-03 12:02:12.85	313.31	9.40	-41.1	-44.8	12.4	1.43e-04	0	57	0	813694976	53	5653
2026-01-03 12:02:13.86	313.46	9.35	-41.1	-44.8	12.5	1.08e-04	0	57	0	815792128	53	5652
2026-01-03 12:02:14.87	313.60	9.30	-41.1	-45.0	12.3	1.57e-04	0	57	0	817889280	53	5741
2026-01-03 12:02:15.88	313.75	9.26	-41.1	-44.8	12.5	1.21e-04	0	57	0	818937856	53	5646
2026-01-03 12:02:16.89	313.89	9.21	-41.1	-45.0	12.3	1.50e-04	0	57	0	821035008	53	5747
2026-01-03 12:02:17.90	314.04	9.16	-41.1	-45.0	12.3	1.76e-04	0	57	0	823132160	53	5730
2026-01-03 12:02:18.91	314.18	9.11	-41.1	-44.9	12.4	1.59e-04	0	57	0	825229312	53	5687
2026-01-03 12:02:19.92	314.33	9.06	-41.1	-44.9	12.3	1.66e-04	0	57	0	827326464	53	5722
2026-01-03 12:02:20.93	314.47	9.01	-41.1	-44.8	12.4	1.56e-04	0	57	0	828375040	53	5653
2026-01-03 12:02:21.94	314.61	8.97	-40.9	-44.6	12.6	1.30e-04	0	57	0	830472192	53	5517
2026-01-03 12:02:22.95	314.75	8.92	-40.8	-44.3	13.0	6.48e-05	0	57	0	832569344	53	5334
2026-01-03 12:02:23.96	314.90	8.87	-40.7	-44.2	13.2	2.82e-05	0	57	0	834666496	53	5252
2026-01-03 12:02:24.97	315.04	8.82	-40.7	-44.2	13.1	2.59e-05	0	57	0	836763648	53	5255
2026-01-03 12:02:25.98	315.18	8.77	-40.7	-44.2	13.2	2.67e-05	0	57	0	837812224	53	5235
2026-01-03 12:02:26.99	315.32	8.72	-40.5	-43.9	13.5	9.90e-06	0	57	0	839909376	53	5046
2026-01-03 12:02:28.00	315.46	8.67	-40.5	-43.8	13.6	9.10e-06	0	57	0	842006528	53	5001
2026-01-03 12:02:29.00	315.60	8.63	-40.6	-43.9	13.4	1.22e-05	0	57	0	844103680	53	5086
2026-01-03 12:02:30.01	315.74	8.58	-40.6	-44.0	13.3	1.44e-05	0	57	0	846200832	53	5132
2026-01-03 12:02:31.02	315.87	8.53	-40.6	-44.1	13.2	3.43e-05	0	57	0	847249408	53	5184
2026-01-03 12:02:32.03	316.01	8.48	-40.6	-44.1	13.2	3.12e-05	0	57	0	849346560	53	5163
2026-01-03 12:02:33.04	316.15	8.43	-40.7	-44.1	13.1	1.52e-05	0	57	0	851443712	53	5202
2026-01-03 12:02:34.05	316.29	8.38	-40.8	-44.4	12.9	4.34e-05	0	57	0	853540864	53	5356
2026-01-03 12:02:35.06	316.42	8.33	-40.7	-44.1	13.1	3.89e-05	0	57	0	855638016	53	5218
2026-01-03 12:02:36.07	316.56	8.28	-40.6	-44.1	13.2	2.21e-05	0	57	0	856686592	53	5174
2026-01-03 12:02:37.08	316.70	8.23	-40.6	-44.1	13.2	2.67e-05	0	57	0	858783744	53	5167
2026-01-03 12:02:38.09	316.83	8.19	-40.6	-44.0	13.2	2.82e-05	0	57	0	860880896	53	5153
2026-01-03 12:02:39.10	316.97	8.14	-40.6	-44.0	13.2	2.36e-05	0	57	0	862978048	53	5131
2026-01-03 12:02:40.11	317.10	8.09	-40.6	-44.0	13.2	4.11e-05	0	57	0	865075200	53	5142
2026-01-03 12:02:41.12	317.24	8.04	-40.6	-44.0	13.3	1.75e-05	0	57	0	867172352	53	5101
2026-01-03 12:02:42.13	317.37	7.99	-44.3	-58.2	3.8	4.52e-01	0	57	104	867172352	59	18672
2026-01-03 12:02:43.14	317.50	7.94	-44.6	-59.2	3.8	1.49e+00	0	57	104	867172352	59	20865
2026-01-03 12:02:44.15	317.64	7.89	-44.7	-59.5	3.8	1.49e+00	0	57	104	867172352	60	20429
2026-01-03 12:02:45.16	317.77	7.84	-44.9	-59.6	3.8	1.49e+00	0	57	104	867172352	60	20717
2026-01-03 12:02:46.17	317.90	7.79	-45.0	-59.8	3.8	1.49e+00	0	57	104	867172352	60	21054
2026-01-03 12:02:47.19	318.03	7.74	-45.1	-59.8	3.8	1.49e+00	0	57	104	867172352	60	21242
2026-01-03 12:02:48.20	318.16	7.69	-45.1	-59.9	3.8	1.49e+00	0	57	104	867172352	60	21365
2026-01-03 12:02:49.21	318.30	7.64	-45.1	-59.9	3.8	1.49e+00	0	57	104	867172352	60	21444
2026-01-03 12:02:50.22	318.43	7.59	-45.1	-60.0	3.8	1.49e+00	0	57	104	867172352	60	21510
2026-01-03 12:02:51.23	318.56	7.54	-45.1	-59.9	3.8	1.49e+00	0	57	104	867172352	60	21395
2026-01-03 12:02:52.24	318.68	7.49	-45.1	-59.9	3.8	1.49e+00	0	57	104	867172352	60	21365
2026-01-03 12:02:53.25	318.81	7.44	-45.0	-59.9	3.8	1.49e+00	0	57	104	867172352	60	21383
2026-01-03 12:02:54.26	318.94	7.39	-45.0	-59.9	3.8	1.49e+00	0	57	104	867172352	60	21305
2026-01-03 12:02:55.27	319.07	7.34	-45.0	-59.8	3.8	1.49e+00	0	57	104	867172352	60	21257
2026-01-03 12:02:56.28	319.20	7.30	-45.1	-59.9	3.8	1.49e+00	0	57	104	867172352	60	21329
2026-01-03 12:02:57.29	319.33	7.25	-45.0	-59.9	3.8	1.49e+00	0	57	104	867172352	60	21329
2026-01-03 12:02:58.30	319.45	7.20	-45.0	-59.9	3.8	1.49e+00	0	57	104	867172352	60	21325
2026-01-03 12:02:59.32	319.58	7.15	-45.0	-59.9	3.8	1.49e+00	0	57	104	867172352	60	21304
2026-01-03 12:03:00.33	319.71	7.10	-45.0	-59.9	3.8	1.49e+00	0	57	104	867172352	60	21315
2026-01-03 12:03:01.34	319.83	7.05	-45.0	-59.9	3.8	1.49e+00	0	57	104	867172352	60	21289
2026-01-03 12:03:02.35	319.96	7.00	-45.0	-59.9	3.8	1.49e+00	0	57	104	867172352	60	21339
2026-01-03 12:03:03.36	320.08	6.95	-45.0	-59.9	3.8	1.49e+00	0	57	104	867172352	60	21265
2026-01-03 12:03:04.37	320.21	6.90	-45.0	-59.9	3.8	1.49e+00	0	57	104	867172352	60	21305
2026-01-03 12:03:05.38	320.33	6.85	-45.0	-59.8	3.8	1.49e+00	0	57	104	867172352	60	21237
2026-01-03 12:03:06.40	320.46	6.80	-45.0	-59.9	3.8	1.49e+00	0	57	104	867172352	60	21316
2026-01-03 12:03:07.40	320.58	6.75	-45.0	-59.9	3.8	1.49e+00	0	57	104	867172352	60	21295
2026-01-03 12:03:08.42	320.70	6.70	-44.8	-59.9	3.8	1.49e+00	0	57	104	867172352	60	21278
2026-01-03 12:03:09.43	320.82	6.65	-45.0	-59.8	3.8	1.49e+00	0	57	104	867172352	60	21249
2026-01-03 12:03:10.44	320.95	6.60	-45.0	-59.8	3.8	1.49e+00	0	57	104	867172352	60	21229
2026-01-03 12:03:11.45	321.07	6.55	-45.0	-59.8	3.8	1.49e+00	0	57	104	867172352	60	21248
2026-01-03 12:03:12.46	321.19	6.50	-44.9	-59.9	3.8	1.49e+00	0	57	104	867172352	60	21310
2026-01-03 12:03:13.47	321.31	6.45	-45.0	-59.8	3.8	1.49e+00	0	57	104	867172352	60	21259
2026-01-03 12:03:14.48	321.43	6.40	-45.0	-59.8	3.8	1.49e+00	0	57	104	867172352	60	21209
2026-01-03 12:03:15.50	321.55	6.35	-45.0	-59.8	3.8	1.49e+00	0	57	104	867172352	60	21251
2026-01-03 12:03:16.51	321.67	6.30	-45.0	-59.8	3.8	1.49e+00	0	57	104	867172352	60	21256
2026-01-03 12:03:17.52	321.79	6.25	-44.9	-59.9	3.8	1.49e+00	0	57	104	867172352	60	21292
2026-01-03 12:03:18.53	321.91	6.20	-45.0	-59.8	3.8	1.49e+00	0	57	104	867172352	60	21194
2026-01-03 12:03:19.54	322.03	6.15	-45.0	-59.8	3.8	1.49e+00	0	57	104	867172352	60	21209
2026-01-03 12:03:20.55	322.14	6.10	-44.3	-59.9	3.8	1.49e+00	0	57	104	867172352	60	21291
2026-01-03 12:03:21.56	322.26	6.05	-45.0	-59.9	3.8	1.49e+00	0	57	104	867172352	60	21272
2026-01-03 12:03:22.58	322.38	6.00	-45.0	-59.8	3.8	1.49e+00	0	57	104	867172352	60	21182
2026-01-03 12:03:23.59	322.50	5.95	-45.0	-59.8	3.8	1.49e+00	0	57	104	867172352	60	21260
2026-01-03 12:03:24.60	322.61	5.90	-45.0	-59.9	3.8	1.49e+00	0	57	104	867172352	60	21279
2026-01-03 12:03:25.61	322.73	5.85	-45.0	-59.8	3.8	1.49e+00	0	57	104	867172352	60	21252
2026-01-03 12:03:26.62	322.85	5.80	-45.0	-59.8	3.8	1.49e+00	0	57	104	867172352	60	21159
2026-01-03 12:03:27.63	322.96	5.75	-45.0	-59.8	3.8	1.49e+00	0	57	104	867172352	60	21217
2026-01-03 12:03:28.64	323.08	5.70	-45.0	-59.8	3.8	1.49e+00	0	57	104	867172352	60	21217
2026-01-03 12:03:29.65	323.19	5.65	-45.0	-59.9	3.8	1.49e+00	0	57	104	867172352	60	21261
2026-01-03 12:03:30.66	323.30	5.60	-45.0	-59.8	3.8	1.49e+00	0	57	104	867172352	60	21208
2026-01-03 12:03:31.67	323.42	5.55	-45.0	-59.8	3.8	1.49e+00	0	57	104	867172352	60	21191
2026-01-03 12:03:32.69	323.53	5.50	-45.0	-59.8	3.8	1.49e+00	0	57	104	867172352	60	21203
2026-01-03 12:03:33.70	323.65	5.45	-45.0	-59.8	3.8	1.49e+00	0	57	104	867172352	60	21187
2026-01-03 12:03:34.71	323.76	5.40	-45.0	-59.8	3.8	1.49e+00	0	57	104	867172352	60	21225
2026-01-03 12:03:35.72	323.87	5.35	-45.0	-59.8	3.8	1.49e+00	0	57	104	867172352	60	21173
2026-01-03 12:03:36.73	323.98	5.30	-45.0	-59.8	3.8	1.49e+00	0	57	104	867172352	60	21193
2026-01-03 12:03:37.74	324.09	5.25	-45.0	-59.8	3.8	1.49e+00	0	57	104	867172352	60	21219
2026-01-03 12:03:38.75	324.21	5.20	-45.0	-59.8	3.8	1.49e+00	0	57	104	867172352	60	21201
2026-01-03 12:03:39.76	324.32	5.15	-45.0	-59.8	3.8	1.49e+00	0	57	104	867172352	60	21190
2026-01-03 12:03:40.77	324.43	5.10	-45.0	-59.8	3.8	1.49e+00	0	57	104	867172352	60	21242
2026-01-03 12:03:41.79	324.54	5.05	-45.0	-59.8	3.8	1.49e+00	0	57	104	867172352	60	21241
2026-01-03 12:03:42.80	324.65	5.00	-45.0	-59.8	3.8	1.49e+00	0	57	104	867172352	60	21245
2026-01-03 12:03:43.81	324.76	4.95	-45.0	-59.8	3.8	1.49e+00	0	57	104	867172352	60	21220
2026-01-03 12:03:44.82	324.87	4.90	-45.0	-59.8	3.8	1.49e+00	0	57	104	867172352	60	21209
2026-01-03 12:03:45.83	324.98	4.85	-45.0	-59.8	3.8	1.49e+00	0	57	104	867172352	60	21127
2026-01-03 12:03:46.84	325.08	4.80	-45.0	-59.8	3.8	1.49e+00	0	57	104	867172352	60	21189
2026-01-03 12:03:47.85	325.19	4.75	-45.0	-59.8	3.8	1.49e+00	0	57	104	867172352	60	21218
2026-01-03 12:03:48.86	325.30	4.70	-44.8	-59.8	3.8	1.49e+00	0	57	104	867172352	60	21226
2026-01-03 12:03:49.87	325.41	4.65	-45.0	-59.8	3.8	1.49e+00	0	57	104	867172352	60	21167
2026-01-03 12:03:50.88	325.51	4.60	-45.0	-59.8	3.8	1.49e+00	0	57	104	867172352	60	21257
2026-01-03 12:03:51.90	325.62	4.55	-45.0	-59.8	3.8	1.49e+00	0	57	104	867172352	60	21253
2026-01-03 12:03:52.91	325.73	4.50	-45.0	-59.8	3.8	1.49e+00	0	57	104	867172352	60	21170
2026-01-03 12:03:53.92	325.83	4.45	-45.0	-59.8	3.8	1.49e+00	0	57	104	867172352	60	21206
2026-01-03 12:03:54.93	325.94	4.40	-45.0	-59.9	3.8	1.49e+00	0	57	104	867172352	60	21273
2026-01-03 12:03:55.94	326.04	4.35	-45.0	-59.8	3.8	1.49e+00	0	57	104	867172352	60	21228
2026-01-03 12:03:56.95	326.15	4.30	-44.9	-59.8	3.8	1.49e+00	0	57	104	867172352	60	21244
2026-01-03 12:03:57.96	326.25	4.25	-44.8	-59.8	3.8	1.49e+00	0	57	104	867172352	60	21163
2026-01-03 12:03:58.97	326.36	4.20	-45.0	-59.8	3.8	1.49e+00	0	57	104	867172352	60	21249
2026-01-03 12:03:59.98	326.46	4.15	-45.0	-59.8	3.8	1.49e+00	0	57	104	867172352	60	21176
2026-01-03 12:04:00.99	326.57	4.10	-45.0	-59.9	3.8	1.49e+00	0	57	104	867172352	60	21267
2026-01-03 12:04:02.01	326.67	4.05	-45.0	-59.8	3.8	1.49e+00	0	57	104	867172352	60	21166
2026-01-03 12:04:03.02	326.77	4.00	-45.0	-59.8	3.8	1.49e+00	0	57	104	867172352	60	21234
2026-01-03 12:04:04.03	326.87	3.95	-45.0	-59.8	3.8	1.49e+00	0	57	104	867172352	60	21226
2026-01-03 12:04:05.04	326.98	3.90	-45.0	-59.9	3.8	1.49e+00	0	57	104	867172352	60	21262
2026-01-03 12:04:06.05	327.08	3.85	-45.0	-59.8	3.8	1.49e+00	0	57	104	867172352	60	21240
2026-01-03 12:04:07.06	327.18	3.80	-45.0	-59.8	3.8	1.49e+00	0	57	104	867172352	60	21255
2026-01-03 12:04:08.07	327.28	3.75	-45.0	-59.8	3.8	1.49e+00	0	57	104	867172352	60	21188
2026-01-03 12:04:09.08	327.38	3.71	-44.7	-59.8	3.8	1.49e+00	0	57	104	867172352	60	21155
2026-01-03 12:04:10.09	327.48	3.66	-44.9	-59.8	3.8	1.49e+00	0	57	104	867172352	60	21235
2026-01-03 12:04:11.11	327.58	3.61	-44.7	-59.8	3.8	1.49e+00	0	57	104	867172352	60	21216
2026-01-03 12:04:12.12	327.68	3.56	-45.0	-59.8	3.8	1.49e+00	0	57	104	867172352	60	21229
2026-01-03 12:04:13.13	327.78	3.51	-45.0	-59.8	3.8	1.49e+00	0	57	104	867172352	60	21170
2026-01-03 12:04:14.14	327.88	3.46	-45.0	-59.8	3.8	1.49e+00	0	57	104	867172352	60	21136
2026-01-03 12:04:15.15	327.98	3.41	-45.0	-59.8	3.8	1.49e+00	0	57	104	867172352	60	21191
2026-01-03 12:04:16.16	328.08	3.36	-45.0	-59.8	3.8	1.49e+00	0	57	104	867172352	60	21213
2026-01-03 12:04:17.17	328.18	3.31	-45.0	-59.8	3.8	1.49e+00	0	57	104	867172352	60	21219
2026-01-03 12:04:18.18	328.28	3.26	-45.0	-59.8	3.8	1.49e+00	0	57	104	867172352	60	21194
2026-01-03 12:04:19.19	328.37	3.21	-45.0	-59.8	3.8	1.49e+00	0	57	104	867172352	60	21200
2026-01-03 12:04:20.21	328.47	3.16	-45.0	-59.8	3.8	1.49e+00	0	57	104	867172352	60	21224
2026-01-03 12:04:21.22	328.57	3.11	-45.0	-59.8	3.8	1.49e+00	0	57	104	867172352	60	21240
2026-01-03 12:04:22.23	328.67	3.06	-45.0	-59.8	3.8	1.49e+00	0	57	104	867172352	60	21216
2026-01-03 12:04:23.24	328.76	3.01	-45.0	-59.8	3.8	1.49e+00	0	57	104	867172352	60	21225
2026-01-03 12:04:24.25	328.86	2.96	-45.0	-59.8	3.8	1.49e+00	0	57	104	867172352	60	21237
2026-01-03 12:04:25.26	328.96	2.92	-45.0	-59.8	3.8	1.49e+00	0	57	104	867172352	60	21246
2026-01-03 12:04:26.27	329.05	2.87	-45.0	-59.8	3.8	1.49e+00	0	57	104	867172352	60	21181
2026-01-03 12:04:27.28	329.15	2.82	-45.0	-59.8	3.8	1.49e+00	0	57	104	867172352	60	21210
2026-01-03 12:04:28.29	329.24	2.77	-45.0	-59.8	3.8	1.49e+00	0	57	104	867172352	60	21175
2026-01-03 12:04:29.30	329.34	2.72	-45.0	-59.8	3.8	1.49e+00	0	57	104	867172352	60	21215
2026-01-03 12:04:30.32	329.43	2.67	-45.0	-59.8	3.8	1.49e+00	0	57	104	867172352	60	21194
2026-01-03 12:04:31.33	329.53	2.62	-45.0	-59.8	3.8	1.49e+00	0	57	104	867172352	60	21246
2026-01-03 12:04:32.34	329.62	2.57	-45.0	-59.8	3.8	1.49e+00	0	57	104	867172352	60	21181
2026-01-03 12:04:33.35	329.71	2.52	-45.0	-59.8	3.8	1.49e+00	0	57	104	867172352	60	21175
2026-01-03 12:04:34.36	329.81	2.47	-45.0	-59.8	3.8	1.49e+00	0	57	104	867172352	60	21191
2026-01-03 12:04:35.37	329.90	2.43	-44.1	-59.8	3.8	1.49e+00	0	57	104	867172352	60	21172
2026-01-03 12:04:36.38	329.99	2.38	-45.0	-59.8	3.8	1.49e+00	0	58	104	867172352	60	21228
2026-01-03 12:04:37.39	330.08	2.33	-45.0	-59.8	3.8	1.49e+00	0	57	104	867172352	60	21165
2026-01-03 12:04:38.40	330.18	2.28	-45.0	-59.8	3.8	1.49e+00	0	57	104	867172352	60	21182
2026-01-03 12:04:39.42	330.27	2.23	-45.0	-59.8	3.8	1.49e+00	0	57	104	867172352	60	21151
2026-01-03 12:04:40.43	330.36	2.18	-45.0	-59.8	3.8	1.49e+00	0	57	104	867172352	60	21227
2026-01-03 12:04:41.44	330.45	2.13	-45.0	-59.8	3.8	1.49e+00	0	58	104	867172352	60	21166
2026-01-03 12:04:42.45	330.54	2.08	-45.0	-59.8	3.8	1.49e+00	0	57	104	867172352	60	21170
2026-01-03 12:04:43.46	330.63	2.04	-45.0	-59.8	3.8	1.49e+00	0	57	104	867172352	60	21174
2026-01-03 12:04:44.47	330.72	1.99	-44.9	-59.8	3.8	1.49e+00	0	57	104	867172352	60	21148

#Closed at: 2026-01-03 12:04:45
#Recorded file [867 MB]: D:/lorett/data/31039_260103_145307.dat