passes_logs/2026/01/03/R2.0S_Moscow/R2.0S_Moscow__20260103_231047_NOAA_21_JPSS-2_rec.log

#Pass ID: 20260103_231047_NOAA 21 (JPSS-2)
#Satellite: NOAA 21 (JPSS-2)
#Configuration: NOAA-21
#almurnet v.1.7.20251203
#Start time: 2026-01-03 23:10:49

#Version: 2.2.20231116
#Station: R2.0S_Moscow
#Location: 37.707566 lon 55.798166 lat
#TLE: 1 54234U 22150A   26003.45311712  .00000198  00000+0  11468-3 0  9993
#TLE: 2 54234  98.7487 304.4932 0001159 347.5017  12.6130 14.19531745163172

#Time	Az	El	Level	Level2	SNR	BER	BlckErr	Temp	State	Recorded	gain1	gain2
2026-01-03 23:10:49.81	18.54	2.13	-41.0	-53.8	3.8	1.49e+00	0	48	0	0	54	15008
2026-01-03 23:10:50.82	18.56	2.20	-41.0	-53.9	3.8	1.49e+00	0	48	104	0	53	15962
2026-01-03 23:10:51.83	18.59	2.26	-41.0	-53.9	3.8	1.49e+00	0	48	104	0	53	16010
2026-01-03 23:10:52.84	18.62	2.32	-41.0	-53.9	3.8	1.49e+00	0	48	104	0	53	15949
2026-01-03 23:10:53.85	18.64	2.39	-41.0	-53.9	3.8	1.49e+00	0	48	104	0	53	15965
2026-01-03 23:10:54.86	18.67	2.45	-41.0	-53.9	3.8	1.49e+00	0	48	104	0	53	15976
2026-01-03 23:10:55.88	18.70	2.52	-41.0	-53.9	3.8	1.49e+00	0	48	104	0	53	15959
2026-01-03 23:10:56.89	18.72	2.58	-41.0	-53.9	3.8	1.49e+00	0	48	104	0	53	15993
2026-01-03 23:10:57.90	18.75	2.65	-41.0	-53.8	3.8	1.49e+00	0	48	104	0	53	15927
2026-01-03 23:10:58.91	18.78	2.71	-41.0	-53.9	3.8	1.49e+00	0	49	104	0	53	15965
2026-01-03 23:10:59.92	18.80	2.78	-41.0	-53.8	3.8	1.49e+00	0	48	104	0	53	15916
2026-01-03 23:11:00.93	18.83	2.84	-41.0	-53.9	3.8	1.49e+00	0	49	104	0	53	15974
2026-01-03 23:11:01.94	18.86	2.91	-41.0	-53.9	3.8	1.49e+00	0	49	104	0	53	15948
2026-01-03 23:11:02.96	18.88	2.97	-41.0	-53.9	3.8	1.49e+00	0	49	104	0	53	15969
2026-01-03 23:11:03.97	18.91	3.04	-41.0	-53.8	3.8	1.49e+00	0	49	104	0	53	15921
2026-01-03 23:11:04.98	18.94	3.10	-41.0	-53.8	3.8	1.49e+00	0	49	104	0	53	15935
2026-01-03 23:11:05.99	18.97	3.17	-41.0	-53.9	3.8	1.49e+00	0	49	104	0	53	15949
2026-01-03 23:11:07.00	18.99	3.24	-41.0	-53.8	3.8	1.49e+00	0	49	104	0	53	15888
2026-01-03 23:11:08.01	19.02	3.30	-41.0	-53.9	3.8	1.49e+00	0	49	104	0	53	15970
2026-01-03 23:11:09.02	19.05	3.37	-41.0	-53.8	3.8	1.49e+00	0	49	104	0	53	15924
2026-01-03 23:11:10.03	19.08	3.43	-41.0	-53.8	3.8	1.49e+00	0	49	104	0	53	15924
2026-01-03 23:11:11.04	19.10	3.50	-41.0	-53.8	3.8	1.49e+00	0	49	104	0	53	15938
2026-01-03 23:11:12.05	19.13	3.57	-41.0	-53.8	3.8	1.49e+00	0	49	104	0	53	15940
2026-01-03 23:11:13.07	19.16	3.63	-41.0	-53.9	3.8	1.49e+00	0	49	104	0	53	15950
2026-01-03 23:11:14.08	19.19	3.70	-41.0	-53.8	3.8	1.49e+00	0	50	104	0	53	15935
2026-01-03 23:11:15.09	19.22	3.77	-41.0	-53.9	3.8	1.49e+00	0	50	104	0	53	15959
2026-01-03 23:11:16.10	19.25	3.84	-41.0	-53.8	3.8	1.49e+00	0	50	104	0	53	15912
2026-01-03 23:11:17.11	19.28	3.90	-41.0	-53.9	3.8	1.49e+00	0	50	104	0	53	15957
2026-01-03 23:11:18.12	19.30	3.97	-41.0	-53.9	3.8	1.49e+00	0	50	104	0	53	15961
2026-01-03 23:11:19.13	19.33	4.04	-41.0	-53.8	3.8	1.49e+00	0	50	104	0	53	15911
2026-01-03 23:11:20.14	19.36	4.11	-41.0	-53.9	3.8	1.49e+00	0	50	104	0	53	15946
2026-01-03 23:11:21.16	19.39	4.18	-41.0	-53.9	3.8	1.49e+00	0	50	104	0	53	15977
2026-01-03 23:11:22.17	19.42	4.24	-41.0	-53.9	3.8	1.49e+00	0	50	104	0	53	15952
2026-01-03 23:11:23.18	19.45	4.31	-41.0	-53.8	3.8	1.49e+00	0	50	104	0	53	15926
2026-01-03 23:11:24.19	19.48	4.38	-41.0	-53.9	3.8	1.49e+00	0	50	104	0	53	15962
2026-01-03 23:11:25.20	19.51	4.45	-41.0	-53.8	3.8	1.49e+00	0	50	104	0	53	15936
2026-01-03 23:11:26.21	19.54	4.52	-41.0	-53.8	3.8	1.49e+00	0	50	104	0	53	15932
2026-01-03 23:11:27.22	19.57	4.59	-41.0	-53.8	3.8	1.49e+00	0	50	104	0	53	15940
2026-01-03 23:11:28.23	19.60	4.66	-41.0	-53.9	3.8	1.49e+00	0	51	104	0	53	15962
2026-01-03 23:11:29.24	19.63	4.73	-41.0	-53.9	3.8	1.49e+00	0	51	104	0	53	15960
2026-01-03 23:11:30.25	19.66	4.80	-41.0	-53.9	3.8	1.49e+00	0	51	104	0	53	15948
2026-01-03 23:11:31.26	19.69	4.87	-41.0	-53.9	3.8	1.49e+00	0	51	104	0	53	15945
2026-01-03 23:11:32.27	19.72	4.94	-41.0	-53.9	3.8	1.49e+00	0	51	104	0	53	15958
2026-01-03 23:11:33.29	19.75	5.01	-41.0	-53.9	3.8	1.49e+00	0	51	104	0	53	15996
2026-01-03 23:11:34.30	19.78	5.08	-41.0	-53.8	3.8	1.49e+00	0	51	104	0	53	15936
2026-01-03 23:11:35.31	19.81	5.15	-41.0	-53.8	3.8	1.49e+00	0	51	104	0	53	15889
2026-01-03 23:11:36.32	19.84	5.22	-41.0	-53.9	3.8	1.49e+00	0	51	104	0	53	15947
2026-01-03 23:11:37.33	19.87	5.29	-41.0	-53.8	3.8	1.49e+00	0	51	104	0	53	15906
2026-01-03 23:11:38.34	19.90	5.36	-41.0	-53.8	3.8	1.49e+00	0	51	104	0	53	15877
2026-01-03 23:11:39.35	19.94	5.43	-41.0	-53.8	3.8	1.49e+00	0	51	104	0	53	15936
2026-01-03 23:11:40.36	19.97	5.50	-41.0	-53.8	3.8	1.49e+00	0	51	104	0	53	15905
2026-01-03 23:11:41.37	20.00	5.58	-41.0	-53.8	3.8	1.49e+00	0	51	104	0	53	15925
2026-01-03 23:11:42.38	20.03	5.65	-41.0	-53.8	3.8	1.49e+00	0	51	104	0	53	15873
2026-01-03 23:11:43.40	20.06	5.72	-41.0	-53.8	3.8	1.49e+00	0	51	104	0	53	15933
2026-01-03 23:11:44.41	20.09	5.79	-41.0	-53.8	3.8	1.49e+00	0	51	104	0	53	15908
2026-01-03 23:11:45.42	20.13	5.87	-41.0	-53.9	3.8	1.49e+00	0	51	104	0	53	15966
2026-01-03 23:11:46.43	20.16	5.94	-41.0	-53.8	3.8	1.49e+00	0	51	104	0	53	15910
2026-01-03 23:11:47.44	20.19	6.01	-41.0	-53.8	3.8	1.49e+00	0	51	104	0	53	15939
2026-01-03 23:11:48.45	20.22	6.08	-41.0	-53.8	3.8	1.49e+00	0	51	104	0	53	15915
2026-01-03 23:11:49.46	20.26	6.16	-41.0	-53.8	3.8	1.49e+00	0	51	104	0	53	15870
2026-01-03 23:11:50.47	20.29	6.23	-41.0	-53.8	3.8	1.49e+00	0	52	104	0	53	15882
2026-01-03 23:11:51.49	20.32	6.31	-41.0	-53.9	3.8	1.49e+00	0	52	104	0	53	15945
2026-01-03 23:11:52.50	20.35	6.38	-41.0	-53.8	3.8	1.49e+00	0	52	104	0	53	15864
2026-01-03 23:11:53.51	20.39	6.45	-41.0	-53.8	3.8	1.49e+00	0	52	104	0	53	15909
2026-01-03 23:11:54.52	20.42	6.53	-41.0	-53.8	3.8	1.49e+00	0	52	104	0	53	15943
2026-01-03 23:11:55.53	20.45	6.60	-41.0	-53.8	3.8	1.49e+00	0	52	104	0	53	15927
2026-01-03 23:11:56.54	20.49	6.68	-41.0	-53.8	3.8	1.49e+00	0	52	104	0	53	15910
2026-01-03 23:11:57.55	20.52	6.75	-41.0	-53.8	3.8	1.49e+00	0	52	104	0	53	15908
2026-01-03 23:11:58.56	20.56	6.83	-41.0	-53.8	3.8	1.49e+00	0	52	104	0	53	15929
2026-01-03 23:11:59.57	20.59	6.90	-41.0	-53.8	3.8	1.49e+00	0	52	104	0	53	15890
2026-01-03 23:12:00.56	20.62	6.98	-41.0	-53.8	3.8	1.49e+00	0	52	104	0	53	15848
2026-01-03 23:12:01.57	20.66	7.05	-41.0	-53.7	3.8	1.49e+00	0	52	104	0	53	15754
2026-01-03 23:12:02.58	20.69	7.13	-41.0	-53.7	3.8	1.49e+00	0	52	104	0	53	15640
2026-01-03 23:12:03.59	20.73	7.21	-41.0	-53.6	3.8	1.49e+00	0	52	104	0	53	15467
2026-01-03 23:12:04.60	20.76	7.28	-40.9	-53.5	3.8	1.49e+00	0	52	104	0	53	15233
2026-01-03 23:12:05.62	20.80	7.36	-40.9	-53.2	3.8	1.49e+00	0	52	104	0	53	14793
2026-01-03 23:12:06.63	20.83	7.44	-40.9	-52.7	3.8	1.49e+00	0	52	104	0	53	13924
2026-01-03 23:12:07.64	20.87	7.51	-40.8	-51.8	3.9	1.49e+00	0	52	104	0	53	12647
2026-01-03 23:12:08.65	20.90	7.59	-40.6	-50.6	3.9	1.46e+00	0	52	104	0	53	10985
2026-01-03 23:12:09.66	20.94	7.67	-40.4	-48.4	4.9	1.14e+00	0	53	104	0	52	9006
2026-01-03 23:12:10.67	20.97	7.75	-40.0	-46.7	6.0	3.80e-01	0	53	0	2097152	52	7457
2026-01-03 23:12:11.69	21.01	7.82	-39.7	-45.2	7.4	1.37e-01	0	53	0	5242880	51	6640
2026-01-03 23:12:12.70	21.05	7.90	-39.2	-43.8	8.8	5.14e-02	0	53	0	8388608	50	5979
2026-01-03 23:12:13.70	21.08	7.98	-38.6	-42.6	10.1	1.12e-02	0	52	0	11534336	49	5467
2026-01-03 23:12:14.72	21.12	8.06	-37.8	-40.8	12.3	1.12e-03	0	53	0	14680064	47	5008
2026-01-03 23:12:15.72	21.16	8.14	-39.6	-44.9	7.6	4.23e-03	0	53	0	17825792	49	7193
2026-01-03 23:12:16.73	21.19	8.22	-37.6	-40.2	13.4	9.28e-04	0	53	0	20971520	46	4964
2026-01-03 23:12:17.74	21.23	8.30	-39.9	-43.2	11.3	3.33e-04	0	53	0	24117248	50	5548
2026-01-03 23:12:18.75	21.27	8.38	-38.9	-43.2	9.8	1.42e-04	0	53	0	27262976	48	6238
2026-01-03 23:12:19.76	21.31	8.46	-38.7	-42.0	11.7	1.26e-01	0	53	0	30408704	49	5108
2026-01-03 23:12:20.77	21.34	8.54	-38.9	-41.8	12.3	2.18e-04	0	53	0	33554432	49	5040
2026-01-03 23:12:21.78	21.38	8.62	-38.7	-41.5	12.6	1.61e-04	0	53	0	36700160	49	4851
2026-01-03 23:12:22.79	21.42	8.70	-38.3	-41.0	13.1	4.04e-05	0	53	0	39845888	48	4824
2026-01-03 23:12:23.80	21.46	8.78	-38.3	-40.8	13.4	1.83e-05	0	53	0	42991616	48	4747
2026-01-03 23:12:24.81	21.50	8.86	-38.7	-41.3	13.0	3.28e-05	0	53	0	46137344	48	5024
2026-01-03 23:12:25.82	21.53	8.94	-39.0	-41.7	12.6	7.32e-05	0	53	0	49283072	48	5268
2026-01-03 23:12:26.83	21.57	9.02	-38.6	-41.0	13.4	2.97e-05	0	53	0	52428800	48	4869
2026-01-03 23:12:27.84	21.61	9.11	-38.4	-40.7	13.8	6.10e-06	0	53	0	55574528	48	4691
2026-01-03 23:12:28.85	21.65	9.19	-38.3	-40.6	13.9	3.00e-06	0	53	0	58720256	48	4630
2026-01-03 23:12:29.86	21.69	9.27	-38.5	-40.8	13.7	3.00e-06	0	53	0	61865984	48	4753
2026-01-03 23:12:30.88	21.73	9.35	-38.4	-40.7	13.9	2.20e-06	0	53	0	65011712	48	4685
2026-01-03 23:12:31.88	21.77	9.44	-38.4	-40.7	13.8	6.10e-06	0	53	0	68157440	48	4694
2026-01-03 23:12:32.90	21.81	9.52	-38.6	-40.9	13.7	8.30e-06	0	53	0	71303168	48	4801
2026-01-03 23:12:33.91	21.85	9.60	-38.6	-41.0	13.6	7.60e-06	0	53	0	74448896	48	4842
2026-01-03 23:12:34.92	21.89	9.69	-38.6	-40.9	13.7	3.00e-06	0	53	0	77594624	48	4812
2026-01-03 23:12:35.93	21.93	9.77	-38.4	-40.6	14.1	1.50e-06	0	53	0	80740352	48	4651
2026-01-03 23:12:36.94	21.97	9.86	-38.6	-40.9	13.9	5.30e-06	0	53	0	83886080	48	4765
2026-01-03 23:12:37.95	22.01	9.94	-38.3	-40.5	14.3	0.00e+00	0	53	0	87031808	48	4555
2026-01-03 23:12:38.96	22.05	10.03	-38.3	-40.4	14.3	0.00e+00	0	53	0	90177536	48	4544
2026-01-03 23:12:39.96	22.09	10.11	-38.3	-40.4	14.4	1.50e-06	0	54	0	93323264	48	4538
2026-01-03 23:12:40.97	22.14	10.20	-38.3	-40.4	14.5	7.00e-07	0	53	0	96468992	48	4507
2026-01-03 23:12:41.98	22.18	10.28	-38.4	-40.5	14.4	0.00e+00	0	53	0	99614720	48	4556
2026-01-03 23:12:42.99	22.22	10.37	-38.2	-40.3	14.6	0.00e+00	0	54	0	102760448	48	4479
2026-01-03 23:12:44.00	22.26	10.45	-38.2	-40.2	14.7	0.00e+00	0	54	0	105906176	48	4408
2026-01-03 23:12:45.01	22.30	10.54	-37.8	-39.8	15.0	0.00e+00	0	53	0	110100480	47	4477
2026-01-03 23:12:46.02	22.35	10.63	-37.9	-39.9	14.9	0.00e+00	0	54	0	113246208	47	4532
2026-01-03 23:12:47.03	22.39	10.72	-37.9	-39.8	15.0	0.00e+00	0	54	0	115343360	47	4482
2026-01-03 23:12:48.04	22.43	10.80	-37.9	-39.9	15.0	0.00e+00	0	54	0	118489088	47	4496
2026-01-03 23:12:49.05	22.48	10.89	-37.9	-39.8	15.1	0.00e+00	0	54	0	121634816	47	4465
2026-01-03 23:12:50.06	22.52	10.98	-38.0	-40.0	14.9	0.00e+00	0	54	0	125829120	47	4550
2026-01-03 23:12:51.07	22.56	11.07	-37.9	-39.8	15.1	0.00e+00	0	54	0	128974848	47	4479
2026-01-03 23:12:52.08	22.61	11.16	-37.8	-39.7	15.3	0.00e+00	0	54	0	132120576	47	4406
2026-01-03 23:12:53.09	22.65	11.25	-37.9	-39.8	15.2	0.00e+00	0	54	0	135266304	47	4479
2026-01-03 23:12:54.10	22.70	11.34	-37.9	-39.8	15.2	0.00e+00	0	54	0	138412032	47	4488
2026-01-03 23:12:55.11	22.74	11.42	-37.8	-39.7	15.3	0.00e+00	0	54	0	141557760	47	4435
2026-01-03 23:12:56.12	22.79	11.51	-38.0	-39.9	15.1	0.00e+00	0	54	0	144703488	47	4540
2026-01-03 23:12:57.13	22.83	11.61	-38.0	-40.0	15.1	0.00e+00	0	54	0	147849216	47	4551
2026-01-03 23:12:58.14	22.88	11.70	-37.9	-39.7	15.3	0.00e+00	0	54	0	150994944	47	4436
2026-01-03 23:12:59.15	22.92	11.79	-37.8	-39.7	15.4	0.00e+00	0	54	0	154140672	47	4401
2026-01-03 23:13:00.16	22.97	11.88	-37.7	-39.6	15.5	0.00e+00	0	54	0	157286400	47	4357
2026-01-03 23:13:01.18	23.02	11.97	-37.7	-39.5	15.5	0.00e+00	0	54	0	160432128	47	4318
2026-01-03 23:13:02.18	23.06	12.06	-37.8	-39.6	15.4	0.00e+00	0	54	0	163577856	47	4385
2026-01-03 23:13:03.19	23.11	12.15	-37.8	-39.7	15.4	0.00e+00	0	54	0	166723584	47	4413
2026-01-03 23:13:04.20	23.16	12.25	-37.9	-39.8	15.3	0.00e+00	0	54	0	169869312	47	4443
2026-01-03 23:13:05.21	23.20	12.34	-37.9	-39.7	15.4	0.00e+00	0	54	0	173015040	47	4434
2026-01-03 23:13:06.22	23.25	12.43	-37.8	-39.6	15.5	0.00e+00	0	54	0	176160768	47	4391
2026-01-03 23:13:07.23	23.30	12.53	-37.8	-39.6	15.5	0.00e+00	0	54	0	179306496	47	4379
2026-01-03 23:13:08.24	23.35	12.62	-37.8	-39.6	15.5	0.00e+00	0	54	0	182452224	47	4377
2026-01-03 23:13:09.25	23.40	12.72	-37.8	-39.7	15.5	0.00e+00	0	54	0	185597952	47	4409
2026-01-03 23:13:10.26	23.44	12.81	-37.8	-39.7	15.5	0.00e+00	0	54	0	188743680	47	4409
2026-01-03 23:13:11.27	23.49	12.91	-37.9	-39.8	15.4	0.00e+00	0	54	0	191889408	47	4485
2026-01-03 23:13:12.28	23.54	13.00	-37.9	-39.7	15.5	0.00e+00	0	54	0	195035136	47	4419
2026-01-03 23:13:13.29	23.59	13.10	-37.8	-39.7	15.6	0.00e+00	0	54	0	198180864	47	4396
2026-01-03 23:13:14.30	23.64	13.19	-37.9	-39.8	15.5	0.00e+00	0	54	0	201326592	47	4466
2026-01-03 23:13:15.31	23.69	13.29	-38.0	-39.8	15.4	0.00e+00	0	54	0	204472320	47	4472
2026-01-03 23:13:16.32	23.74	13.39	-37.8	-39.6	15.7	0.00e+00	0	54	0	207618048	47	4374
2026-01-03 23:13:17.33	23.79	13.48	-37.7	-39.5	15.8	0.00e+00	0	55	0	210763776	47	4292
2026-01-03 23:13:18.34	23.85	13.58	-37.6	-39.4	15.9	0.00e+00	0	54	0	213909504	47	4278
2026-01-03 23:13:19.35	23.90	13.68	-37.7	-39.4	15.9	0.00e+00	0	54	0	217055232	47	4280
2026-01-03 23:13:20.36	23.95	13.78	-37.6	-39.3	16.0	0.00e+00	0	54	0	220200960	47	4232
2026-01-03 23:13:21.37	24.00	13.88	-37.7	-39.4	15.8	0.00e+00	0	54	0	223346688	47	4291
2026-01-03 23:13:22.38	24.05	13.98	-37.7	-39.5	15.8	0.00e+00	0	54	0	226492416	47	4326
2026-01-03 23:13:23.39	24.11	14.08	-37.6	-39.3	16.0	0.00e+00	0	54	0	229638144	47	4221
2026-01-03 23:13:24.40	24.16	14.18	-37.5	-39.2	16.1	0.00e+00	0	54	0	232783872	47	4174
2026-01-03 23:13:25.41	24.21	14.28	-37.5	-39.2	16.1	0.00e+00	0	54	0	235929600	46	4422
2026-01-03 23:13:26.42	24.27	14.38	-37.5	-39.2	16.1	0.00e+00	0	54	0	239075328	46	4441
2026-01-03 23:13:27.43	24.32	14.48	-37.6	-39.3	16.0	0.00e+00	0	55	0	242221056	46	4474
2026-01-03 23:13:28.43	24.37	14.58	-37.6	-39.3	16.0	0.00e+00	0	55	0	245366784	46	4465
2026-01-03 23:13:29.44	24.43	14.68	-37.6	-39.4	16.0	0.00e+00	0	54	0	248512512	46	4517
2026-01-03 23:13:30.45	24.48	14.78	-37.7	-39.5	15.9	0.00e+00	0	54	0	251658240	46	4562
2026-01-03 23:13:31.46	24.54	14.89	-37.8	-39.6	15.8	0.00e+00	0	55	0	254803968	46	4610
2026-01-03 23:13:32.47	24.60	14.99	-37.6	-39.4	16.0	0.00e+00	0	55	0	257949696	46	4508
2026-01-03 23:13:33.48	24.65	15.09	-37.6	-39.3	16.1	0.00e+00	0	55	0	261095424	46	4457
2026-01-03 23:13:34.49	24.71	15.20	-37.6	-39.3	16.1	0.00e+00	0	55	0	264241152	46	4477
2026-01-03 23:13:35.50	24.76	15.30	-37.7	-39.5	16.0	0.00e+00	0	55	0	267386880	46	4549
2026-01-03 23:13:36.51	24.82	15.41	-37.7	-39.5	15.9	0.00e+00	0	54	0	270532608	46	4549
2026-01-03 23:13:37.53	24.88	15.51	-37.6	-39.3	16.1	0.00e+00	0	55	0	273678336	46	4480
2026-01-03 23:13:38.54	24.94	15.62	-37.6	-39.3	16.1	0.00e+00	0	55	0	276824064	46	4468
2026-01-03 23:13:39.55	25.00	15.72	-37.7	-39.4	16.0	0.00e+00	0	55	0	279969792	46	4514
2026-01-03 23:13:40.56	25.06	15.83	-37.8	-39.5	16.0	0.00e+00	0	55	0	283115520	46	4570
2026-01-03 23:13:41.57	25.11	15.94	-37.7	-39.4	16.1	0.00e+00	0	55	0	286261248	46	4514
2026-01-03 23:13:42.58	25.17	16.05	-37.6	-39.3	16.1	0.00e+00	0	55	0	289406976	46	4467
2026-01-03 23:13:43.58	25.23	16.15	-37.6	-39.3	16.2	0.00e+00	0	55	0	292552704	46	4460
2026-01-03 23:13:44.59	25.29	16.26	-37.5	-39.2	16.2	0.00e+00	0	55	0	295698432	46	4439
2026-01-03 23:13:45.60	25.35	16.37	-37.6	-39.3	16.1	0.00e+00	0	55	0	298844160	46	4491
2026-01-03 23:13:46.61	25.42	16.48	-37.7	-39.4	16.1	0.00e+00	0	55	0	301989888	46	4518
2026-01-03 23:13:47.62	25.48	16.59	-37.7	-39.4	16.1	0.00e+00	0	55	0	305135616	46	4537
2026-01-03 23:13:48.64	25.54	16.70	-37.7	-39.4	16.0	0.00e+00	0	55	0	308281344	46	4535
2026-01-03 23:13:49.65	25.60	16.81	-37.7	-39.4	16.1	0.00e+00	0	55	0	311427072	46	4517
2026-01-03 23:13:50.66	25.67	16.92	-37.6	-39.4	16.2	0.00e+00	0	55	0	314572800	46	4503
2026-01-03 23:13:51.67	25.73	17.03	-37.6	-39.3	16.3	0.00e+00	0	55	0	317718528	46	4460
2026-01-03 23:13:52.68	25.79	17.15	-37.7	-39.4	16.1	0.00e+00	0	55	0	320864256	46	4536
2026-01-03 23:13:53.69	25.86	17.26	-37.8	-39.5	16.0	0.00e+00	0	55	0	324009984	46	4591
2026-01-03 23:13:54.70	25.92	17.37	-37.9	-39.7	15.8	0.00e+00	0	55	0	327155712	46	4692
2026-01-03 23:13:55.71	25.99	17.49	-37.9	-39.6	15.9	0.00e+00	0	55	0	330301440	46	4646
2026-01-03 23:13:56.72	26.05	17.60	-37.8	-39.6	16.0	0.00e+00	0	55	0	333447168	46	4611
2026-01-03 23:13:57.73	26.12	17.72	-37.8	-39.5	16.1	0.00e+00	0	55	0	336592896	46	4557
2026-01-03 23:13:58.74	26.18	17.83	-37.8	-39.6	16.0	0.00e+00	0	55	0	339738624	46	4599
2026-01-03 23:13:59.75	26.25	17.95	-37.7	-39.4	16.1	0.00e+00	0	55	0	342884352	46	4545
2026-01-03 23:14:00.76	26.32	18.06	-37.8	-39.5	16.1	0.00e+00	0	55	0	346030080	46	4562
2026-01-03 23:14:01.77	26.39	18.18	-37.7	-39.4	16.2	0.00e+00	0	55	0	349175808	46	4522
2026-01-03 23:14:02.78	26.46	18.30	-37.7	-39.4	16.1	0.00e+00	0	55	0	352321536	46	4539
2026-01-03 23:14:03.79	26.52	18.41	-37.8	-39.6	16.0	0.00e+00	0	55	0	355467264	46	4603
2026-01-03 23:14:04.80	26.59	18.53	-37.8	-39.6	16.0	0.00e+00	0	55	0	358612992	46	4613
2026-01-03 23:14:05.81	26.66	18.65	-37.7	-39.4	16.2	0.00e+00	0	55	0	361758720	46	4545
2026-01-03 23:14:06.82	26.73	18.77	-37.8	-39.5	16.1	0.00e+00	0	55	0	364904448	46	4565
2026-01-03 23:14:07.83	26.80	18.89	-37.7	-39.4	16.1	0.00e+00	0	55	0	368050176	46	4536
2026-01-03 23:14:08.84	26.88	19.01	-37.7	-39.4	16.2	0.00e+00	0	55	0	371195904	46	4536
2026-01-03 23:14:09.85	26.95	19.13	-37.8	-39.5	16.1	0.00e+00	0	55	0	374341632	46	4565
2026-01-03 23:14:10.86	27.02	19.25	-37.8	-39.6	16.0	0.00e+00	0	55	0	377487360	46	4618
2026-01-03 23:14:11.87	27.09	19.38	-37.8	-39.6	16.0	0.00e+00	0	55	0	380633088	46	4612
2026-01-03 23:14:12.88	27.17	19.50	-37.8	-39.5	16.1	0.00e+00	0	55	0	383778816	46	4570
2026-01-03 23:14:13.89	27.24	19.62	-37.7	-39.4	16.2	0.00e+00	0	55	0	386924544	46	4529
2026-01-03 23:14:14.90	27.32	19.75	-37.8	-39.4	16.2	0.00e+00	0	56	0	390070272	46	4545
2026-01-03 23:14:15.91	27.39	19.87	-37.7	-39.4	16.3	0.00e+00	0	55	0	393216000	46	4496
2026-01-03 23:14:16.92	27.47	20.00	-37.7	-39.4	16.2	0.00e+00	0	55	0	396361728	46	4534
2026-01-03 23:14:17.93	27.54	20.12	-37.6	-39.3	16.4	0.00e+00	0	55	0	399507456	46	4450
2026-01-03 23:14:18.94	27.62	20.25	-37.6	-39.2	16.4	0.00e+00	0	55	0	402653184	46	4425
2026-01-03 23:14:19.95	27.70	20.37	-37.6	-39.3	16.4	0.00e+00	0	55	0	405798912	46	4448
2026-01-03 23:14:20.96	27.78	20.50	-37.6	-39.2	16.5	0.00e+00	0	56	0	408944640	46	4409
2026-01-03 23:14:21.97	27.86	20.63	-37.3	-38.9	16.8	0.00e+00	0	55	0	412090368	46	4250
2026-01-03 23:14:22.98	27.94	20.76	-37.3	-38.8	16.8	0.00e+00	0	56	0	415236096	46	4240
2026-01-03 23:14:23.99	28.02	20.89	-37.2	-38.7	16.9	0.00e+00	0	55	0	418381824	46	4184
2026-01-03 23:14:25.00	28.10	21.02	-37.2	-38.7	17.0	0.00e+00	0	56	0	421527552	46	4168
2026-01-03 23:14:26.01	28.18	21.15	-37.0	-38.5	17.1	0.00e+00	0	55	0	425721856	46	4097
2026-01-03 23:14:27.02	28.26	21.28	-37.0	-38.5	17.2	0.00e+00	0	56	0	428867584	46	4072
2026-01-03 23:14:28.03	28.34	21.41	-37.1	-38.6	17.1	0.00e+00	0	55	0	430964736	45	4361
2026-01-03 23:14:29.04	28.43	21.54	-36.9	-38.4	17.2	0.00e+00	0	56	0	434110464	45	4286
2026-01-03 23:14:30.05	28.51	21.68	-36.8	-38.2	17.4	0.00e+00	0	56	0	437256192	45	4192
2026-01-03 23:14:31.05	28.60	21.81	-36.7	-38.2	17.5	0.00e+00	0	56	0	440401920	45	4167
2026-01-03 23:14:32.06	28.68	21.94	-36.6	-38.0	17.6	0.00e+00	0	56	0	444596224	45	4088
2026-01-03 23:14:33.07	28.77	22.08	-36.6	-38.0	17.6	0.00e+00	0	56	0	447741952	45	4092
2026-01-03 23:14:34.08	28.86	22.21	-36.5	-37.9	17.7	0.00e+00	0	56	0	450887680	45	4045
2026-01-03 23:14:35.09	28.94	22.35	-36.4	-37.8	17.8	0.00e+00	0	56	0	454033408	44	4237
2026-01-03 23:14:36.10	29.03	22.49	-36.5	-37.9	17.8	0.00e+00	0	56	0	456130560	44	4256
2026-01-03 23:14:37.11	29.12	22.62	-36.4	-37.8	17.9	0.00e+00	0	55	0	460324864	44	4220
2026-01-03 23:14:38.12	29.21	22.76	-36.3	-37.7	18.0	0.00e+00	0	56	0	463470592	44	4167
2026-01-03 23:14:39.13	29.30	22.90	-36.3	-37.6	18.1	0.00e+00	0	56	0	466616320	44	4130
2026-01-03 23:14:40.14	29.39	23.04	-36.2	-37.6	18.1	0.00e+00	0	56	0	469762048	44	4129
2026-01-03 23:14:41.15	29.49	23.18	-36.3	-37.6	18.1	0.00e+00	0	56	0	472907776	44	4144
2026-01-03 23:14:42.17	29.58	23.32	-36.3	-37.7	18.0	0.00e+00	0	56	0	476053504	44	4166
2026-01-03 23:14:43.18	29.67	23.47	-36.3	-37.7	18.1	0.00e+00	0	56	0	479199232	44	4146
2026-01-03 23:14:44.19	29.77	23.61	-36.3	-37.7	18.0	0.00e+00	0	56	0	482344960	44	4182
2026-01-03 23:14:45.20	29.86	23.75	-36.3	-37.7	18.0	0.00e+00	0	56	0	485490688	44	4166
2026-01-03 23:14:46.21	29.96	23.89	-36.4	-37.7	18.0	0.00e+00	0	56	0	488636416	44	4192
2026-01-03 23:14:47.21	30.06	24.04	-36.5	-37.9	17.8	0.00e+00	0	56	0	491782144	44	4251
2026-01-03 23:14:48.22	30.15	24.18	-36.4	-37.8	17.9	0.00e+00	0	56	0	494927872	44	4241
2026-01-03 23:14:49.23	30.25	24.33	-36.5	-37.9	17.8	0.00e+00	0	56	0	498073600	44	4263
2026-01-03 23:14:50.24	30.35	24.48	-36.6	-38.0	17.7	0.00e+00	0	56	0	501219328	44	4318
2026-01-03 23:14:51.25	30.45	24.62	-36.5	-38.0	17.8	0.00e+00	0	56	0	504365056	44	4302
2026-01-03 23:14:52.26	30.56	24.77	-36.6	-38.0	17.7	0.00e+00	0	56	0	507510784	44	4325
2026-01-03 23:14:53.27	30.66	24.92	-36.6	-38.0	17.7	0.00e+00	0	56	0	510656512	44	4336
2026-01-03 23:14:54.28	30.76	25.07	-36.6	-38.1	17.7	0.00e+00	0	56	0	513802240	44	4356
2026-01-03 23:14:55.29	30.87	25.22	-36.7	-38.2	17.6	0.00e+00	0	56	0	516947968	44	4407
2026-01-03 23:14:56.30	30.97	25.37	-36.8	-38.2	17.6	0.00e+00	0	56	0	520093696	44	4419
2026-01-03 23:14:57.31	31.08	25.53	-36.8	-38.3	17.5	0.00e+00	0	56	0	523239424	44	4471
2026-01-03 23:14:58.32	31.19	25.68	-36.9	-38.4	17.4	0.00e+00	0	56	0	526385152	44	4498
2026-01-03 23:14:59.33	31.29	25.83	-36.9	-38.4	17.4	0.00e+00	0	56	0	529530880	44	4532
2026-01-03 23:15:00.34	31.40	25.99	-36.9	-38.4	17.4	0.00e+00	0	56	0	532676608	44	4506
2026-01-03 23:15:01.35	31.51	26.14	-37.0	-38.5	17.3	0.00e+00	0	56	0	535822336	44	4590
2026-01-03 23:15:02.36	31.63	26.30	-37.1	-38.7	17.1	0.00e+00	0	56	0	538968064	44	4659
2026-01-03 23:15:03.37	31.74	26.45	-37.2	-38.8	17.0	0.00e+00	0	56	0	542113792	45	4455
2026-01-03 23:15:04.38	31.85	26.61	-37.3	-38.9	16.9	0.00e+00	0	56	0	545259520	45	4508
2026-01-03 23:15:05.39	31.97	26.77	-37.4	-39.0	16.8	0.00e+00	0	56	0	548405248	45	4573
2026-01-03 23:15:06.40	32.08	26.93	-37.5	-39.1	16.7	0.00e+00	0	56	0	551550976	45	4637
2026-01-03 23:15:07.41	32.20	27.09	-37.5	-39.1	16.7	0.00e+00	0	56	0	554696704	45	4616
2026-01-03 23:15:08.42	32.32	27.25	-37.4	-38.9	16.9	0.00e+00	0	56	0	557842432	45	4540
2026-01-03 23:15:09.43	32.44	27.41	-37.5	-39.1	16.7	0.00e+00	0	56	0	560988160	45	4620
2026-01-03 23:15:10.44	32.56	27.58	-37.5	-39.1	16.7	0.00e+00	0	56	0	564133888	45	4615
2026-01-03 23:15:11.45	32.68	27.74	-37.5	-39.1	16.7	0.00e+00	0	56	0	567279616	45	4634
2026-01-03 23:15:12.46	32.80	27.90	-37.6	-39.2	16.7	0.00e+00	0	56	0	570425344	45	4653
2026-01-03 23:15:13.47	32.93	28.07	-37.6	-39.2	16.7	0.00e+00	0	56	0	573571072	45	4667
2026-01-03 23:15:14.48	33.05	28.23	-37.5	-39.1	16.7	0.00e+00	0	56	0	576716800	45	4626
2026-01-03 23:15:15.48	33.18	28.40	-37.4	-39.0	16.9	0.00e+00	0	56	0	579862528	45	4553
2026-01-03 23:15:16.50	33.31	28.57	-37.4	-39.0	16.8	0.00e+00	0	56	0	583008256	45	4549
2026-01-03 23:15:17.51	33.43	28.74	-37.5	-39.0	16.8	0.00e+00	0	56	0	586153984	45	4593
2026-01-03 23:15:18.52	33.56	28.91	-37.5	-39.1	16.8	0.00e+00	0	56	0	589299712	45	4603
2026-01-03 23:15:19.52	33.70	29.08	-37.4	-39.0	16.9	0.00e+00	0	56	0	592445440	45	4570
2026-01-03 23:15:20.53	33.83	29.25	-37.5	-39.0	16.8	0.00e+00	0	56	0	595591168	45	4596
2026-01-03 23:15:21.55	33.96	29.42	-37.6	-39.2	16.7	0.00e+00	0	56	0	598736896	45	4662
2026-01-03 23:15:22.56	34.10	29.59	-37.6	-39.2	16.7	0.00e+00	0	56	0	601882624	45	4668
2026-01-03 23:15:23.56	34.24	29.77	-37.7	-39.3	16.6	0.00e+00	0	56	0	605028352	45	4728
2026-01-03 23:15:24.57	34.38	29.94	-37.5	-39.1	16.7	0.00e+00	0	56	0	608174080	45	4622
2026-01-03 23:15:25.59	34.52	30.12	-37.5	-39.1	16.8	0.00e+00	0	56	0	611319808	45	4614
2026-01-03 23:15:26.59	34.66	30.29	-37.5	-39.1	16.7	0.00e+00	0	56	0	614465536	45	4638
2026-01-03 23:15:27.61	34.80	30.47	-37.4	-39.0	16.8	0.00e+00	0	56	0	617611264	45	4572
2026-01-03 23:15:28.62	34.95	30.65	-37.2	-38.7	17.1	0.00e+00	0	56	0	620756992	45	4433
2026-01-03 23:15:29.63	35.09	30.83	-37.3	-38.8	17.0	0.00e+00	0	57	0	623902720	45	4465
2026-01-03 23:15:30.64	35.24	31.01	-37.3	-38.8	17.0	0.00e+00	0	56	0	627048448	45	4491
2026-01-03 23:15:31.65	35.39	31.19	-37.3	-38.9	17.0	0.00e+00	0	56	0	630194176	45	4501
2026-01-03 23:15:32.66	35.54	31.38	-37.2	-38.8	17.1	0.00e+00	0	56	0	633339904	45	4464
2026-01-03 23:15:33.67	35.70	31.56	-37.2	-38.7	17.2	0.00e+00	0	56	0	636485632	45	4397
2026-01-03 23:15:34.68	35.85	31.74	-37.2	-38.8	17.1	0.00e+00	0	56	0	639631360	45	4446
2026-01-03 23:15:35.69	36.01	31.93	-37.3	-38.8	17.1	0.00e+00	0	56	0	642777088	45	4478
2026-01-03 23:15:36.70	36.16	32.11	-37.3	-38.9	17.0	0.00e+00	0	56	0	645922816	45	4513
2026-01-03 23:15:37.71	36.32	32.30	-37.4	-38.9	17.0	0.00e+00	0	56	0	649068544	45	4534
2026-01-03 23:15:38.72	36.49	32.49	-37.4	-39.0	16.9	0.00e+00	0	56	0	652214272	45	4559
2026-01-03 23:15:39.73	36.65	32.68	-37.4	-38.9	17.0	0.00e+00	0	56	0	655360000	45	4524
2026-01-03 23:15:40.74	36.82	32.87	-37.4	-39.0	16.9	0.00e+00	0	56	0	658505728	45	4551
2026-01-03 23:15:41.75	36.98	33.06	-37.4	-38.9	17.0	0.00e+00	0	56	0	661651456	45	4527
2026-01-03 23:15:42.76	37.15	33.25	-37.5	-39.0	16.9	0.00e+00	0	56	0	664797184	45	4582
2026-01-03 23:15:43.77	37.32	33.44	-37.6	-39.2	16.7	0.00e+00	0	56	0	667942912	45	4683
2026-01-03 23:15:44.78	37.50	33.64	-37.8	-39.4	16.5	0.00e+00	0	56	0	671088640	46	4527
2026-01-03 23:15:45.79	37.67	33.83	-38.0	-39.7	16.2	0.00e+00	0	56	0	674234368	46	4689
2026-01-03 23:15:46.80	37.85	34.03	-38.3	-40.1	15.9	0.00e+00	0	56	0	677380096	47	4615
2026-01-03 23:15:47.81	38.03	34.22	-38.5	-40.4	15.6	0.00e+00	0	56	0	680525824	47	4760
2026-01-03 23:15:48.82	38.21	34.42	-38.7	-40.5	15.4	0.00e+00	0	56	0	683671552	47	4859
2026-01-03 23:15:49.83	38.39	34.62	-38.9	-40.7	15.3	0.00e+00	0	56	0	686817280	48	4696
2026-01-03 23:15:50.83	38.58	34.81	-38.9	-40.9	15.2	0.00e+00	0	56	0	689963008	48	4761
2026-01-03 23:15:51.84	38.77	35.02	-39.0	-40.9	15.2	0.00e+00	0	56	0	693108736	48	4788
2026-01-03 23:15:52.85	38.96	35.22	-39.1	-41.0	15.1	0.00e+00	0	56	0	696254464	48	4833
2026-01-03 23:15:53.86	39.15	35.42	-39.1	-41.0	15.0	0.00e+00	0	56	0	699400192	48	4847
2026-01-03 23:15:54.87	39.34	35.62	-39.2	-41.1	14.9	7.00e-07	0	57	0	702545920	48	4924
2026-01-03 23:15:55.88	39.54	35.83	-39.1	-41.1	15.0	0.00e+00	0	56	0	705691648	48	4893
2026-01-03 23:15:56.89	39.74	36.03	-39.0	-41.0	15.1	0.00e+00	0	56	0	708837376	48	4827
2026-01-03 23:15:57.90	39.94	36.24	-39.0	-40.9	15.2	0.00e+00	0	56	0	711983104	48	4791
2026-01-03 23:15:58.91	40.15	36.44	-39.0	-40.9	15.2	0.00e+00	0	57	0	715128832	48	4780
2026-01-03 23:15:59.92	40.36	36.65	-39.0	-40.9	15.2	0.00e+00	0	56	0	718274560	48	4765
2026-01-03 23:16:00.93	40.57	36.86	-38.9	-40.8	15.3	0.00e+00	0	56	0	721420288	48	4742
2026-01-03 23:16:01.94	40.78	37.07	-38.9	-40.7	15.3	0.00e+00	0	56	0	724566016	48	4705
2026-01-03 23:16:02.95	40.99	37.28	-38.9	-40.8	15.3	0.00e+00	0	56	0	727711744	48	4713
2026-01-03 23:16:03.96	41.21	37.49	-39.0	-40.9	15.2	0.00e+00	0	57	0	730857472	48	4788
2026-01-03 23:16:04.97	41.43	37.70	-38.8	-40.6	15.4	0.00e+00	0	56	0	734003200	48	4637
2026-01-03 23:16:05.98	41.66	37.92	-38.7	-40.5	15.6	0.00e+00	0	56	0	737148928	48	4557
2026-01-03 23:16:06.99	41.88	38.13	-38.6	-40.3	15.7	0.00e+00	0	57	0	740294656	48	4470
2026-01-03 23:16:08.00	42.11	38.34	-38.5	-40.2	15.8	0.00e+00	0	57	0	743440384	48	4431
2026-01-03 23:16:09.01	42.35	38.56	-38.5	-40.3	15.8	0.00e+00	0	56	0	747634688	48	4456
2026-01-03 23:16:10.02	42.58	38.78	-38.8	-40.7	15.4	0.00e+00	0	57	0	749731840	48	4655
2026-01-03 23:16:11.03	42.82	38.99	-38.9	-40.8	15.3	0.00e+00	0	57	0	752877568	48	4720
2026-01-03 23:16:12.04	43.06	39.21	-39.1	-41.0	15.1	0.00e+00	0	56	0	756023296	48	4837
2026-01-03 23:16:13.05	43.31	39.43	-39.2	-41.2	14.9	0.00e+00	0	57	0	759169024	49	4660
2026-01-03 23:16:14.06	43.56	39.65	-39.2	-41.2	14.8	7.00e-07	0	56	0	763363328	49	4693
2026-01-03 23:16:15.07	43.81	39.87	-39.3	-41.3	14.8	7.00e-07	0	56	0	766509056	49	4713
2026-01-03 23:16:16.08	44.07	40.09	-39.2	-41.2	14.9	0.00e+00	0	57	0	769654784	49	4665
2026-01-03 23:16:17.09	44.32	40.32	-39.1	-41.1	15.0	0.00e+00	0	56	0	771751936	49	4623
2026-01-03 23:16:18.10	44.59	40.54	-39.3	-41.4	14.7	0.00e+00	0	56	0	774897664	49	4768
2026-01-03 23:16:19.11	44.85	40.76	-39.4	-41.4	14.7	0.00e+00	0	57	0	779091968	49	4811
2026-01-03 23:16:20.12	45.12	40.99	-39.4	-41.4	14.7	0.00e+00	0	56	0	782237696	49	4785
2026-01-03 23:16:21.13	45.39	41.21	-39.5	-41.6	14.5	1.50e-06	0	56	0	785383424	49	4873
2026-01-03 23:16:22.14	45.67	41.44	-39.6	-41.7	14.3	1.50e-06	0	57	0	788529152	49	4980
2026-01-03 23:16:23.15	45.95	41.67	-39.6	-41.7	14.4	1.50e-06	0	57	0	791674880	49	4970
2026-01-03 23:16:24.16	46.24	41.89	-39.7	-41.9	14.3	3.00e-06	0	56	0	794820608	49	5043
2026-01-03 23:16:25.17	46.53	42.12	-39.6	-41.7	14.4	7.00e-07	0	56	0	797966336	49	4957
2026-01-03 23:16:26.18	46.82	42.35	-39.5	-41.5	14.6	2.20e-06	0	57	0	801112064	49	4848
2026-01-03 23:16:27.19	47.12	42.58	-39.5	-41.5	14.6	0.00e+00	0	57	0	804257792	49	4839
2026-01-03 23:16:28.20	47.42	42.81	-39.7	-41.8	14.3	7.00e-07	0	57	0	807403520	49	5021
2026-01-03 23:16:29.21	47.72	43.04	-39.8	-42.0	14.1	3.00e-06	0	56	0	810549248	50	4840
2026-01-03 23:16:30.22	48.03	43.27	-39.9	-42.2	13.9	4.50e-06	0	57	0	813694976	50	4946
2026-01-03 23:16:31.23	48.35	43.50	-40.0	-42.2	13.9	4.50e-06	0	57	0	816840704	50	4956
2026-01-03 23:16:32.25	48.67	43.74	-39.9	-42.2	14.0	4.50e-06	0	57	0	819986432	50	4929
2026-01-03 23:16:33.26	48.99	43.97	-39.9	-42.1	14.0	3.00e-06	0	57	0	823132160	50	4877
2026-01-03 23:16:34.27	49.32	44.20	-39.7	-41.9	14.3	7.00e-07	0	57	0	826277888	50	4761
2026-01-03 23:16:35.28	49.65	44.43	-39.7	-41.8	14.4	1.50e-06	0	57	0	829423616	50	4735
2026-01-03 23:16:36.29	49.99	44.67	-39.7	-41.8	14.3	1.50e-06	0	57	0	832569344	50	4749
2026-01-03 23:16:37.30	50.33	44.90	-39.5	-41.6	14.5	7.00e-07	0	57	0	835715072	50	4619
2026-01-03 23:16:38.31	50.68	45.14	-39.4	-41.4	14.8	0.00e+00	0	57	0	838860800	50	4494
2026-01-03 23:16:39.32	51.03	45.37	-39.3	-41.3	14.9	7.00e-07	0	57	0	842006528	50	4451
2026-01-03 23:16:40.33	51.39	45.60	-39.2	-41.2	14.9	0.00e+00	0	57	0	845152256	50	4419
2026-01-03 23:16:41.34	51.76	45.84	-39.2	-41.1	15.0	7.00e-07	0	57	0	848297984	50	4361
2026-01-03 23:16:42.35	52.13	46.07	-39.1	-41.0	15.1	0.00e+00	0	57	0	851443712	50	4323
2026-01-03 23:16:43.36	52.50	46.31	-39.0	-41.0	15.1	0.00e+00	0	57	0	854589440	49	4546
2026-01-03 23:16:44.37	52.88	46.54	-39.1	-41.1	15.0	0.00e+00	0	57	0	857735168	49	4605
2026-01-03 23:16:45.38	53.26	46.78	-39.3	-41.3	14.8	0.00e+00	0	57	0	860880896	49	4737
2026-01-03 23:16:46.39	53.66	47.01	-39.4	-41.4	14.7	0.00e+00	0	57	0	864026624	49	4801
2026-01-03 23:16:47.39	54.05	47.24	-39.4	-41.4	14.7	0.00e+00	0	57	0	867172352	49	4800
2026-01-03 23:16:48.40	54.45	47.48	-39.4	-41.4	14.6	0.00e+00	0	57	0	870318080	49	4801
2026-01-03 23:16:49.41	54.86	47.71	-39.3	-41.2	14.9	0.00e+00	0	57	0	873463808	49	4693
2026-01-03 23:16:50.42	55.28	47.95	-39.1	-41.0	15.2	0.00e+00	0	57	0	876609536	49	4550
2026-01-03 23:16:51.43	55.70	48.18	-39.0	-40.9	15.2	0.00e+00	0	57	0	879755264	49	4505
2026-01-03 23:16:52.45	56.13	48.41	-39.0	-40.9	15.2	0.00e+00	0	57	0	882900992	49	4526
2026-01-03 23:16:53.45	56.56	48.64	-39.0	-40.9	15.2	0.00e+00	0	57	0	886046720	49	4508
2026-01-03 23:16:54.46	57.00	48.88	-38.7	-40.5	15.6	0.00e+00	0	57	0	889192448	49	4334
2026-01-03 23:16:55.47	57.45	49.11	-38.6	-40.4	15.8	0.00e+00	0	57	0	892338176	49	4248
2026-01-03 23:16:56.48	57.90	49.34	-38.4	-40.1	16.0	7.00e-07	0	57	0	895483904	48	4367
2026-01-03 23:16:57.49	58.36	49.57	-38.3	-40.0	16.2	0.00e+00	0	57	0	898629632	48	4293
2026-01-03 23:16:58.50	58.83	49.80	-38.3	-40.0	16.1	0.00e+00	0	57	0	901775360	48	4304
2026-01-03 23:16:59.51	59.31	50.03	-38.4	-40.2	16.0	0.00e+00	0	57	0	904921088	48	4396
2026-01-03 23:17:00.52	59.79	50.25	-38.5	-40.3	15.9	0.00e+00	0	57	0	908066816	48	4445
2026-01-03 23:17:01.53	60.28	50.48	-38.7	-40.4	15.7	0.00e+00	0	57	0	911212544	48	4542
2026-01-03 23:17:02.54	60.77	50.71	-38.8	-40.6	15.6	0.00e+00	0	57	0	914358272	48	4619
2026-01-03 23:17:03.55	61.28	50.93	-38.8	-40.6	15.5	0.00e+00	0	57	0	917504000	48	4638
2026-01-03 23:17:04.56	61.79	51.15	-38.9	-40.8	15.2	0.00e+00	0	57	0	920649728	48	4747
2026-01-03 23:17:05.57	62.31	51.38	-39.1	-41.0	15.1	0.00e+00	0	57	0	923795456	48	4843
2026-01-03 23:17:06.58	62.84	51.60	-38.9	-40.8	15.4	0.00e+00	0	57	0	926941184	48	4732
2026-01-03 23:17:07.59	63.37	51.82	-38.8	-40.7	15.4	0.00e+00	0	57	0	930086912	48	4655
2026-01-03 23:17:08.60	63.91	52.03	-38.9	-40.7	15.4	0.00e+00	0	57	0	933232640	48	4689
2026-01-03 23:17:09.61	64.46	52.25	-38.8	-40.6	15.6	0.00e+00	0	57	0	936378368	48	4600
2026-01-03 23:17:10.62	65.02	52.46	-38.6	-40.3	15.8	0.00e+00	0	57	0	939524096	48	4486
2026-01-03 23:17:11.63	65.59	52.67	-38.4	-40.2	16.0	0.00e+00	0	57	0	942669824	48	4412
2026-01-03 23:17:12.64	66.16	52.88	-38.4	-40.1	16.1	0.00e+00	0	57	0	945815552	48	4380
2026-01-03 23:17:13.65	66.74	53.09	-38.3	-39.9	16.2	0.00e+00	0	57	0	948961280	48	4272
2026-01-03 23:17:14.66	67.34	53.30	-38.0	-39.6	16.5	0.00e+00	0	57	0	952107008	48	4132
2026-01-03 23:17:15.67	67.94	53.50	-37.8	-39.4	16.6	0.00e+00	0	57	0	955252736	47	4276
2026-01-03 23:17:16.68	68.54	53.70	-38.1	-39.7	16.2	0.00e+00	0	57	0	958398464	47	4422
2026-01-03 23:17:17.69	69.16	53.90	-38.3	-40.0	16.0	0.00e+00	0	57	0	961544192	47	4556
2026-01-03 23:17:18.70	69.78	54.10	-38.3	-40.1	15.8	7.00e-07	0	57	0	964689920	47	4626
2026-01-03 23:17:19.71	70.42	54.29	-38.3	-40.0	15.9	0.00e+00	0	57	0	967835648	47	4598
2026-01-03 23:17:20.72	71.06	54.48	-38.1	-39.8	16.2	0.00e+00	0	57	0	970981376	47	4455
2026-01-03 23:17:21.73	71.71	54.67	-38.0	-39.7	16.3	0.00e+00	0	57	0	974127104	47	4425
2026-01-03 23:17:22.74	72.37	54.86	-38.1	-39.8	16.3	0.00e+00	0	57	0	977272832	47	4455
2026-01-03 23:17:23.75	73.03	55.04	-38.1	-39.8	16.3	0.00e+00	0	57	0	980418560	47	4450
2026-01-03 23:17:24.76	73.71	55.22	-38.1	-39.8	16.2	0.00e+00	0	57	0	983564288	47	4464
2026-01-03 23:17:25.77	74.39	55.39	-37.8	-39.4	16.6	0.00e+00	0	57	0	986710016	47	4289
2026-01-03 23:17:26.77	75.08	55.56	-37.4	-38.9	17.1	0.00e+00	0	57	0	989855744	46	4258
2026-01-03 23:17:27.78	75.78	55.73	-37.2	-38.7	17.3	0.00e+00	0	57	0	993001472	46	4166
2026-01-03 23:17:28.79	76.49	55.89	-37.2	-38.7	17.3	0.00e+00	0	57	0	996147200	46	4171
2026-01-03 23:17:29.80	77.21	56.06	-37.4	-38.9	17.1	0.00e+00	0	57	0	999292928	46	4269
2026-01-03 23:17:30.81	77.93	56.21	-37.6	-39.2	16.9	0.00e+00	0	57	0	1002438656	46	4413
2026-01-03 23:17:31.82	78.67	56.37	-37.5	-39.1	17.0	0.00e+00	0	57	0	1005584384	46	4349
2026-01-03 23:17:32.83	79.41	56.51	-37.3	-38.7	17.3	0.00e+00	0	57	0	1008730112	46	4193
2026-01-03 23:17:33.84	80.16	56.66	-36.8	-38.2	17.8	0.00e+00	0	57	0	1011875840	45	4165
2026-01-03 23:17:34.85	80.92	56.80	-36.8	-38.3	17.8	0.00e+00	0	57	0	1015021568	45	4196
2026-01-03 23:17:35.86	81.68	56.94	-37.1	-38.6	17.4	0.00e+00	0	57	0	1018167296	45	4368
2026-01-03 23:17:36.86	82.45	57.07	-37.0	-38.4	17.6	0.00e+00	0	57	0	1021313024	45	4264
2026-01-03 23:17:37.87	83.23	57.19	-36.6	-38.0	18.0	0.00e+00	0	57	0	1024458752	45	4056
2026-01-03 23:17:38.89	84.02	57.32	-36.5	-37.8	18.1	0.00e+00	0	57	0	1027604480	44	4225
2026-01-03 23:17:39.90	84.82	57.43	-36.7	-38.1	17.8	0.00e+00	0	57	0	1030750208	44	4376
2026-01-03 23:17:40.90	85.61	57.54	-36.7	-38.1	17.8	0.00e+00	0	57	0	1033895936	44	4378
2026-01-03 23:17:41.91	86.41	57.65	-36.7	-38.1	18.0	0.00e+00	0	57	0	1037041664	44	4343
2026-01-03 23:17:42.92	87.23	57.75	-37.0	-38.4	17.6	0.00e+00	0	57	0	1040187392	44	4519
2026-01-03 23:17:43.93	88.05	57.85	-37.3	-38.8	17.2	0.00e+00	0	57	0	1043333120	45	4472
2026-01-03 23:17:44.94	88.87	57.94	-37.4	-38.9	17.2	0.00e+00	0	57	0	1046478848	45	4508
2026-01-03 23:17:45.95	89.70	58.03	-37.1	-38.6	17.4	0.00e+00	0	57	0	1049624576	45	4376
2026-01-03 23:17:46.96	90.54	58.11	-37.0	-38.5	17.6	0.00e+00	0	57	0	1052770304	45	4298
2026-01-03 23:17:47.97	91.38	58.18	-36.9	-38.4	17.6	0.00e+00	0	57	0	1055916032	45	4256
2026-01-03 23:17:48.98	92.22	58.25	-36.9	-38.3	17.7	0.00e+00	0	57	0	1059061760	45	4240
2026-01-03 23:17:49.99	93.07	58.31	-36.9	-38.4	17.6	0.00e+00	0	57	0	1062207488	45	4257
2026-01-03 23:17:51.00	93.93	58.37	-36.8	-38.2	17.8	0.00e+00	0	57	0	1065353216	45	4166
2026-01-03 23:17:52.01	94.78	58.42	-36.7	-38.1	17.9	0.00e+00	0	57	0	1068498944	45	4118
2026-01-03 23:17:53.02	95.64	58.47	-36.6	-38.0	18.0	0.00e+00	0	57	0	1071644672	45	4083
2026-01-03 23:17:54.03	96.51	58.51	-36.6	-37.9	18.0	0.00e+00	0	57	0	1074790400	45	4045
2026-01-03 23:17:55.03	97.36	58.55	-36.7	-38.0	17.9	0.00e+00	0	57	0	1077936128	45	4093
2026-01-03 23:17:56.05	98.24	58.57	-36.8	-38.2	17.6	0.00e+00	0	57	0	1081081856	45	4187
2026-01-03 23:17:57.06	99.11	58.60	-37.0	-38.4	17.3	0.00e+00	0	57	0	1085276160	45	4290
2026-01-03 23:17:58.07	99.98	58.61	-36.9	-38.3	17.5	0.00e+00	0	57	0	1088421888	45	4229
2026-01-03 23:17:59.08	100.85	58.62	-36.8	-38.3	17.6	0.00e+00	0	57	0	1090519040	45	4203
2026-01-03 23:18:00.09	101.72	58.63	-36.8	-38.2	17.7	0.00e+00	0	57	0	1093664768	45	4193
2026-01-03 23:18:01.10	102.59	58.62	-36.8	-38.2	17.6	0.00e+00	0	57	0	1096810496	45	4184
2026-01-03 23:18:02.11	103.46	58.62	-36.7	-38.1	17.8	0.00e+00	0	57	0	1101004800	45	4115
2026-01-03 23:18:03.12	104.33	58.60	-36.6	-38.0	17.9	0.00e+00	0	57	0	1104150528	45	4078
2026-01-03 23:18:04.13	105.20	58.58	-36.7	-38.1	17.7	0.00e+00	0	57	0	1107296256	45	4139
2026-01-03 23:18:05.14	106.07	58.56	-37.0	-38.4	17.3	0.00e+00	0	57	0	1110441984	45	4281
2026-01-03 23:18:06.15	106.94	58.52	-37.4	-39.0	16.8	0.00e+00	0	57	0	1112539136	45	4546
2026-01-03 23:18:07.16	107.80	58.49	-37.3	-38.8	17.0	0.00e+00	0	57	0	1115684864	45	4461
2026-01-03 23:18:08.17	108.66	58.44	-36.9	-38.3	17.5	0.00e+00	0	57	0	1119879168	45	4236
2026-01-03 23:18:09.18	109.52	58.39	-37.0	-38.4	17.4	0.00e+00	0	57	0	1123024896	45	4286
2026-01-03 23:18:10.18	110.37	58.34	-37.1	-38.5	17.3	0.00e+00	0	57	0	1126170624	45	4330
2026-01-03 23:18:11.19	111.22	58.28	-37.0	-38.4	17.4	0.00e+00	0	57	0	1129316352	45	4284
2026-01-03 23:18:12.20	112.07	58.21	-37.0	-38.4	17.4	0.00e+00	0	57	0	1132462080	45	4276
2026-01-03 23:18:13.22	112.92	58.14	-37.1	-38.5	17.4	0.00e+00	0	57	0	1135607808	45	4332
2026-01-03 23:18:14.22	113.75	58.06	-37.4	-38.9	17.0	0.00e+00	0	57	0	1138753536	45	4514
2026-01-03 23:18:15.24	114.59	57.97	-37.1	-38.6	17.3	0.00e+00	0	57	0	1141899264	45	4349
2026-01-03 23:18:16.25	115.42	57.88	-36.9	-38.3	17.6	0.00e+00	0	57	0	1145044992	45	4233
2026-01-03 23:18:17.26	116.24	57.79	-37.1	-38.6	17.4	0.00e+00	0	57	0	1148190720	45	4359
2026-01-03 23:18:18.26	117.05	57.69	-37.2	-38.8	17.1	0.00e+00	0	57	0	1151336448	45	4442
2026-01-03 23:18:19.27	117.86	57.58	-37.1	-38.6	17.3	0.00e+00	0	57	0	1154482176	45	4368
2026-01-03 23:18:20.28	118.66	57.47	-37.0	-38.5	17.4	0.00e+00	0	57	0	1157627904	45	4298
2026-01-03 23:18:21.29	119.46	57.36	-36.9	-38.3	17.5	0.00e+00	0	57	0	1160773632	45	4231
2026-01-03 23:18:22.31	120.26	57.24	-37.1	-38.6	17.4	0.00e+00	0	57	0	1163919360	45	4357
2026-01-03 23:18:23.32	121.04	57.11	-37.1	-38.6	17.3	0.00e+00	0	57	0	1167065088	45	4378
2026-01-03 23:18:24.33	121.82	56.98	-37.3	-38.8	17.2	0.00e+00	0	57	0	1170210816	45	4469
2026-01-03 23:18:25.34	122.59	56.85	-37.7	-39.3	16.7	0.00e+00	0	57	0	1173356544	45	4712
2026-01-03 23:18:26.35	123.35	56.71	-37.8	-39.4	16.5	0.00e+00	0	57	0	1176502272	46	4512
2026-01-03 23:18:27.36	124.10	56.56	-37.5	-39.1	16.9	0.00e+00	0	57	0	1179648000	46	4360
2026-01-03 23:18:28.37	124.85	56.42	-37.6	-39.2	16.7	0.00e+00	0	57	0	1182793728	46	4402
2026-01-03 23:18:29.38	125.58	56.26	-37.5	-39.0	16.8	0.00e+00	0	57	0	1185939456	46	4314
2026-01-03 23:18:30.39	126.31	56.11	-37.6	-39.2	16.8	0.00e+00	0	57	0	1189085184	46	4428
2026-01-03 23:18:31.40	127.04	55.95	-37.7	-39.4	16.6	0.00e+00	0	57	0	1192230912	46	4495
2026-01-03 23:18:32.41	127.75	55.78	-38.2	-39.9	16.2	0.00e+00	0	57	0	1195376640	46	4787
2026-01-03 23:18:33.42	128.45	55.62	-38.1	-39.9	16.2	0.00e+00	0	57	0	1198522368	47	4497
2026-01-03 23:18:34.42	129.14	55.45	-37.7	-39.4	16.7	0.00e+00	0	57	0	1201668096	47	4246
2026-01-03 23:18:35.43	129.83	55.27	-37.8	-39.4	16.6	0.00e+00	0	57	0	1204813824	47	4245
2026-01-03 23:18:36.44	130.51	55.10	-37.9	-39.5	16.5	0.00e+00	0	57	0	1207959552	47	4304
2026-01-03 23:18:37.45	131.18	54.91	-38.4	-40.2	15.8	0.00e+00	0	57	0	1211105280	47	4652
2026-01-03 23:18:38.46	131.85	54.73	-38.5	-40.3	15.6	0.00e+00	0	57	0	1214251008	47	4720
2026-01-03 23:18:39.47	132.50	54.54	-38.5	-40.3	15.7	0.00e+00	0	57	0	1217396736	47	4730
2026-01-03 23:18:40.48	133.15	54.35	-38.5	-40.3	15.6	0.00e+00	0	57	0	1220542464	47	4730
2026-01-03 23:18:41.49	133.78	54.16	-38.4	-40.2	15.7	0.00e+00	0	57	0	1223688192	47	4676
2026-01-03 23:18:42.50	134.41	53.96	-38.1	-39.8	16.2	0.00e+00	0	57	0	1226833920	47	4457
2026-01-03 23:18:43.51	135.03	53.76	-37.7	-39.3	16.7	0.00e+00	0	57	0	1229979648	47	4213
2026-01-03 23:18:44.52	135.64	53.56	-37.8	-39.4	16.6	0.00e+00	0	57	0	1233125376	47	4283
2026-01-03 23:18:45.53	136.25	53.36	-38.0	-39.6	16.4	0.00e+00	0	57	0	1236271104	47	4358
2026-01-03 23:18:46.54	136.84	53.15	-38.1	-39.7	16.3	0.00e+00	0	57	0	1239416832	47	4412
2026-01-03 23:18:47.55	137.43	52.95	-38.5	-40.3	15.8	0.00e+00	0	57	0	1242562560	47	4710
2026-01-03 23:18:48.56	138.01	52.73	-38.8	-40.6	15.5	0.00e+00	0	57	0	1245708288	48	4648
2026-01-03 23:18:49.57	138.58	52.52	-38.7	-40.5	15.6	0.00e+00	0	57	0	1248854016	48	4587
2026-01-03 23:18:50.58	139.14	52.31	-38.3	-40.0	16.1	0.00e+00	0	57	0	1251999744	48	4316
2026-01-03 23:18:51.59	139.70	52.09	-38.1	-39.8	16.3	0.00e+00	0	57	0	1255145472	48	4195
2026-01-03 23:18:52.60	140.24	51.88	-38.4	-40.2	15.9	0.00e+00	0	57	0	1258291200	48	4392
2026-01-03 23:18:53.61	140.78	51.66	-38.3	-40.0	16.1	0.00e+00	0	57	0	1261436928	48	4326
2026-01-03 23:18:54.62	141.31	51.44	-38.1	-39.8	16.3	0.00e+00	0	57	0	1264582656	48	4206
2026-01-03 23:18:55.63	141.83	51.21	-38.3	-40.0	16.2	7.00e-07	0	57	0	1267728384	48	4293
2026-01-03 23:18:56.64	142.35	50.99	-38.6	-40.4	15.7	0.00e+00	0	57	0	1270874112	48	4528
2026-01-03 23:18:57.65	142.86	50.76	-38.7	-40.5	15.7	0.00e+00	0	57	0	1274019840	48	4548
2026-01-03 23:18:58.66	143.36	50.54	-38.7	-40.5	15.6	0.00e+00	0	57	0	1277165568	48	4550
2026-01-03 23:18:59.67	143.85	50.31	-38.6	-40.4	15.6	0.00e+00	0	57	0	1280311296	48	4531
2026-01-03 23:19:00.68	144.33	50.08	-38.8	-40.6	15.5	0.00e+00	0	57	0	1283457024	48	4614
2026-01-03 23:19:01.69	144.81	49.85	-38.8	-40.6	15.5	0.00e+00	0	57	0	1286602752	48	4619
2026-01-03 23:19:02.70	145.28	49.62	-38.8	-40.6	15.5	0.00e+00	0	57	0	1289748480	48	4635
2026-01-03 23:19:03.71	145.75	49.39	-39.0	-40.8	15.3	0.00e+00	0	57	0	1292894208	48	4758
2026-01-03 23:19:04.72	146.21	49.16	-39.4	-41.4	14.7	0.00e+00	0	57	0	1296039936	49	4811
2026-01-03 23:19:05.73	146.66	48.93	-39.7	-41.8	14.3	7.00e-07	0	57	0	1299185664	49	5019
2026-01-03 23:19:06.74	147.10	48.70	-40.0	-42.4	13.8	4.50e-06	0	57	0	1302331392	50	5042
2026-01-03 23:19:07.75	147.54	48.46	-40.3	-42.8	13.3	1.83e-05	0	57	0	1305477120	51	4989
2026-01-03 23:19:08.76	147.97	48.23	-40.2	-42.5	13.5	1.29e-05	0	57	0	1308622848	51	4869
2026-01-03 23:19:09.77	148.39	47.99	-40.0	-42.3	13.7	4.50e-06	0	57	0	1311768576	51	4738
2026-01-03 23:19:10.78	148.81	47.76	-39.5	-41.6	14.5	2.20e-06	0	57	0	1314914304	51	4355
2026-01-03 23:19:11.79	149.22	47.53	-39.2	-41.2	14.9	0.00e+00	0	57	0	1318060032	50	4396
2026-01-03 23:19:12.80	149.63	47.29	-39.2	-41.2	14.8	0.00e+00	0	57	0	1321205760	50	4405
2026-01-03 23:19:13.81	150.03	47.05	-39.3	-41.3	14.7	0.00e+00	0	57	0	1324351488	50	4490
2026-01-03 23:19:14.82	150.42	46.82	-39.6	-41.8	14.2	1.50e-06	0	57	0	1327497216	50	4724
2026-01-03 23:19:15.83	150.81	46.58	-39.7	-41.9	14.2	1.50e-06	0	57	0	1330642944	50	4760
2026-01-03 23:19:16.84	151.19	46.35	-39.6	-41.7	14.4	3.00e-06	0	57	0	1333788672	50	4670
2026-01-03 23:19:17.85	151.57	46.11	-39.5	-41.5	14.6	0.00e+00	0	57	0	1336934400	50	4570
2026-01-03 23:19:18.86	151.94	45.88	-39.5	-41.6	14.5	1.50e-06	0	57	0	1340080128	50	4609
2026-01-03 23:19:19.87	152.31	45.64	-39.3	-41.3	14.7	0.00e+00	0	57	0	1343225856	50	4470
2026-01-03 23:19:20.88	152.67	45.40	-38.9	-40.7	15.3	0.00e+00	0	57	0	1346371584	49	4433
2026-01-03 23:19:21.88	153.02	45.17	-39.0	-40.8	15.3	0.00e+00	0	57	0	1349517312	49	4471
2026-01-03 23:19:22.89	153.37	44.94	-39.3	-41.4	14.8	0.00e+00	0	57	0	1352663040	49	4761
2026-01-03 23:19:23.91	153.72	44.70	-39.7	-41.9	14.2	1.50e-06	0	57	0	1355808768	49	5049
2026-01-03 23:19:24.92	154.06	44.46	-39.7	-41.8	14.3	0.00e+00	0	57	0	1358954496	50	4720
2026-01-03 23:19:25.93	154.39	44.23	-39.9	-42.0	14.0	7.00e-07	0	57	0	1362100224	50	4870
2026-01-03 23:19:26.94	154.72	44.00	-40.1	-42.5	13.7	2.20e-06	0	57	0	1365245952	50	5101
2026-01-03 23:19:27.95	155.05	43.76	-40.1	-42.4	13.6	5.30e-06	0	57	0	1368391680	50	5097
2026-01-03 23:19:28.96	155.37	43.53	-40.2	-42.5	13.5	6.80e-06	0	57	0	1371537408	50	5145
2026-01-03 23:19:29.97	155.68	43.30	-40.0	-42.3	13.8	4.50e-06	0	57	0	1374683136	50	5029
2026-01-03 23:19:30.98	156.00	43.07	-39.6	-41.7	14.4	1.50e-06	0	57	0	1377828864	50	4678
2026-01-03 23:19:31.99	156.30	42.83	-39.3	-41.3	14.8	0.00e+00	0	57	0	1380974592	50	4492
2026-01-03 23:19:33.00	156.61	42.60	-39.2	-41.2	14.9	0.00e+00	0	57	0	1384120320	50	4418
2026-01-03 23:19:34.01	156.91	42.37	-38.8	-40.6	15.4	0.00e+00	0	57	0	1387266048	49	4387
2026-01-03 23:19:35.02	157.20	42.14	-38.9	-40.8	15.3	0.00e+00	0	57	0	1390411776	49	4450
2026-01-03 23:19:36.03	157.49	41.91	-39.3	-41.3	14.8	0.00e+00	0	57	0	1393557504	49	4717
2026-01-03 23:19:37.04	157.78	41.68	-39.6	-41.8	14.3	7.00e-07	0	57	0	1396703232	49	4999
2026-01-03 23:19:38.05	158.06	41.46	-39.9	-42.2	13.9	1.50e-06	0	57	0	1399848960	50	4937
2026-01-03 23:19:39.06	158.34	41.23	-40.0	-42.3	13.8	9.10e-06	0	57	0	1404043264	50	5017
2026-01-03 23:19:40.07	158.61	41.00	-39.5	-41.6	14.5	0.00e+00	0	57	0	1406140416	50	4636
2026-01-03 23:19:41.08	158.88	40.78	-39.1	-41.0	15.1	0.00e+00	0	57	0	1409286144	50	4299
2026-01-03 23:19:42.09	159.15	40.55	-38.9	-40.7	15.3	0.00e+00	0	57	0	1412431872	49	4432
2026-01-03 23:19:43.10	159.42	40.33	-38.9	-40.8	15.3	0.00e+00	0	57	0	1415577600	49	4450
2026-01-03 23:19:44.11	159.68	40.10	-39.0	-41.0	15.1	0.00e+00	0	57	0	1418723328	49	4548
2026-01-03 23:19:45.11	159.93	39.88	-39.3	-41.3	14.8	0.00e+00	0	57	0	1422917632	49	4719
2026-01-03 23:19:46.12	160.18	39.66	-39.5	-41.6	14.5	7.00e-07	0	57	0	1426063360	49	4887
2026-01-03 23:19:47.13	160.43	39.44	-39.5	-41.6	14.5	0.00e+00	0	57	0	1428160512	49	4874
2026-01-03 23:19:48.15	160.68	39.22	-39.5	-41.5	14.6	7.00e-07	0	57	0	1431306240	49	4860
2026-01-03 23:19:49.15	160.92	39.00	-39.5	-41.6	14.5	0.00e+00	0	57	0	1434451968	49	4876
2026-01-03 23:19:50.17	161.17	38.78	-39.5	-41.5	14.5	7.00e-07	0	57	0	1438646272	49	4860
2026-01-03 23:19:51.18	161.40	38.56	-39.5	-41.6	14.5	0.00e+00	0	57	0	1441792000	49	4903
2026-01-03 23:19:52.19	161.64	38.34	-39.4	-41.4	14.7	7.00e-07	0	57	0	1444937728	49	4804
2026-01-03 23:19:53.19	161.86	38.13	-39.2	-41.2	14.9	7.00e-07	0	57	0	1448083456	49	4694
2026-01-03 23:19:54.20	162.09	37.91	-39.1	-41.0	15.1	0.00e+00	0	57	0	1451229184	49	4580
2026-01-03 23:19:55.21	162.32	37.70	-38.8	-40.7	15.4	0.00e+00	0	57	0	1454374912	49	4423
2026-01-03 23:19:56.22	162.54	37.48	-38.8	-40.6	15.5	0.00e+00	0	57	0	1457520640	49	4374
2026-01-03 23:19:57.23	162.76	37.27	-38.6	-40.4	15.7	0.00e+00	0	57	0	1460666368	49	4263
2026-01-03 23:19:58.24	162.98	37.06	-38.4	-40.2	15.9	0.00e+00	0	58	0	1463812096	48	4393
2026-01-03 23:19:59.25	163.19	36.85	-38.3	-40.0	16.1	0.00e+00	0	57	0	1466957824	48	4309
2026-01-03 23:20:00.26	163.40	36.64	-38.6	-40.4	15.7	0.00e+00	0	57	0	1470103552	48	4511
2026-01-03 23:20:01.27	163.61	36.43	-38.9	-40.8	15.3	0.00e+00	0	57	0	1473249280	48	4734
2026-01-03 23:20:02.28	163.81	36.22	-39.2	-41.2	14.9	0.00e+00	0	57	0	1476395008	48	4952
2026-01-03 23:20:03.29	164.02	36.01	-39.2	-41.2	14.9	0.00e+00	0	57	0	1479540736	49	4668
2026-01-03 23:20:04.30	164.22	35.81	-39.0	-40.9	15.1	0.00e+00	0	57	0	1482686464	49	4526
2026-01-03 23:20:05.31	164.42	35.60	-38.7	-40.5	15.6	0.00e+00	0	57	0	1485832192	49	4326
2026-01-03 23:20:06.32	164.61	35.40	-38.5	-40.2	15.8	0.00e+00	0	57	0	1488977920	48	4439
2026-01-03 23:20:07.33	164.81	35.19	-38.3	-40.0	16.0	0.00e+00	0	57	0	1492123648	48	4332
2026-01-03 23:20:08.34	165.00	34.99	-38.1	-39.8	16.2	0.00e+00	0	57	0	1495269376	48	4203
2026-01-03 23:20:09.35	165.19	34.79	-37.9	-39.5	16.4	0.00e+00	0	57	0	1498415104	47	4313
2026-01-03 23:20:10.35	165.37	34.59	-38.1	-39.7	16.2	0.00e+00	0	57	0	1501560832	47	4438
2026-01-03 23:20:11.36	165.56	34.39	-38.3	-40.1	15.8	0.00e+00	0	57	0	1504706560	47	4636
2026-01-03 23:20:12.37	165.74	34.19	-38.6	-40.4	15.5	0.00e+00	0	57	0	1507852288	47	4800
2026-01-03 23:20:13.38	165.92	34.00	-38.8	-40.7	15.4	0.00e+00	0	57	0	1510998016	48	4674
2026-01-03 23:20:14.39	166.10	33.80	-38.9	-40.8	15.3	0.00e+00	0	57	0	1514143744	48	4726
2026-01-03 23:20:15.40	166.27	33.60	-38.7	-40.6	15.4	0.00e+00	0	57	0	1517289472	48	4620
2026-01-03 23:20:16.41	166.45	33.41	-38.7	-40.5	15.5	0.00e+00	0	57	0	1520435200	48	4592
2026-01-03 23:20:17.42	166.62	33.21	-38.6	-40.4	15.6	0.00e+00	0	57	0	1523580928	48	4521
2026-01-03 23:20:18.43	166.79	33.02	-38.3	-40.0	16.0	0.00e+00	0	57	0	1526726656	48	4325
2026-01-03 23:20:19.44	166.96	32.83	-38.1	-39.8	16.2	0.00e+00	0	57	0	1529872384	48	4198
2026-01-03 23:20:20.44	167.12	32.64	-38.1	-39.8	16.2	0.00e+00	0	57	0	1533018112	48	4232
2026-01-03 23:20:21.45	167.28	32.45	-37.8	-39.5	16.4	0.00e+00	0	57	0	1536163840	47	4292
2026-01-03 23:20:22.47	167.45	32.26	-37.7	-39.4	16.5	0.00e+00	0	57	0	1539309568	47	4256
2026-01-03 23:20:23.48	167.61	32.07	-37.7	-39.3	16.6	0.00e+00	0	57	0	1542455296	47	4215
2026-01-03 23:20:24.49	167.77	31.88	-37.5	-39.0	16.9	0.00e+00	0	57	0	1545601024	46	4330
2026-01-03 23:20:25.50	167.92	31.70	-37.3	-38.9	17.0	0.00e+00	0	57	0	1548746752	46	4267
2026-01-03 23:20:26.51	168.08	31.51	-37.3	-38.8	17.1	0.00e+00	0	58	0	1551892480	46	4232
2026-01-03 23:20:27.52	168.23	31.33	-37.3	-38.8	17.1	0.00e+00	0	57	0	1555038208	46	4219
2026-01-03 23:20:28.53	168.38	31.14	-37.3	-38.8	17.1	0.00e+00	0	57	0	1558183936	46	4230
2026-01-03 23:20:29.54	168.53	30.96	-37.2	-38.8	17.2	0.00e+00	0	57	0	1561329664	46	4202
2026-01-03 23:20:30.55	168.68	30.78	-37.2	-38.7	17.2	0.00e+00	0	57	0	1564475392	46	4183
2026-01-03 23:20:31.56	168.83	30.60	-37.3	-38.8	17.1	0.00e+00	0	57	0	1567621120	46	4227
2026-01-03 23:20:32.57	168.97	30.42	-37.4	-39.0	16.9	0.00e+00	0	57	0	1570766848	46	4304
2026-01-03 23:20:33.58	169.12	30.24	-37.4	-39.0	16.9	0.00e+00	0	57	0	1573912576	46	4336
2026-01-03 23:20:34.59	169.26	30.06	-37.6	-39.2	16.7	0.00e+00	0	57	0	1577058304	46	4413
2026-01-03 23:20:35.60	169.40	29.89	-37.6	-39.3	16.6	0.00e+00	0	57	0	1580204032	46	4449
2026-01-03 23:20:36.61	169.54	29.71	-37.7	-39.4	16.5	0.00e+00	0	57	0	1583349760	46	4500
2026-01-03 23:20:37.63	169.68	29.53	-37.8	-39.5	16.4	0.00e+00	0	57	0	1586495488	46	4556
2026-01-03 23:20:38.64	169.81	29.36	-37.8	-39.5	16.4	0.00e+00	0	57	0	1589641216	46	4576
2026-01-03 23:20:39.65	169.95	29.19	-37.8	-39.5	16.4	0.00e+00	0	58	0	1592786944	46	4555
2026-01-03 23:20:40.66	170.08	29.01	-37.8	-39.5	16.5	0.00e+00	0	58	0	1595932672	46	4562
2026-01-03 23:20:41.67	170.21	28.84	-37.8	-39.5	16.4	0.00e+00	0	57	0	1599078400	46	4588
2026-01-03 23:20:42.68	170.35	28.67	-37.8	-39.5	16.4	0.00e+00	0	57	0	1602224128	46	4549
2026-01-03 23:20:43.69	170.47	28.50	-37.7	-39.4	16.5	0.00e+00	0	58	0	1605369856	46	4514
2026-01-03 23:20:44.70	170.60	28.33	-37.4	-39.0	16.8	0.00e+00	0	57	0	1608515584	46	4318
2026-01-03 23:20:45.71	170.73	28.16	-37.3	-38.8	17.0	0.00e+00	0	57	0	1611661312	46	4217
2026-01-03 23:20:46.72	170.86	28.00	-37.1	-38.6	17.2	0.00e+00	0	57	0	1614807040	46	4145
2026-01-03 23:20:47.73	170.98	27.83	-37.0	-38.6	17.3	0.00e+00	0	57	0	1617952768	46	4099
2026-01-03 23:20:48.74	171.10	27.67	-37.0	-38.5	17.3	0.00e+00	0	57	0	1621098496	46	4063
2026-01-03 23:20:49.75	171.22	27.50	-37.0	-38.5	17.3	0.00e+00	0	57	0	1624244224	45	4340
2026-01-03 23:20:50.76	171.34	27.34	-37.1	-38.6	17.2	0.00e+00	0	58	0	1627389952	45	4375
2026-01-03 23:20:51.77	171.46	27.17	-37.0	-38.6	17.2	0.00e+00	0	58	0	1630535680	45	4342
2026-01-03 23:20:52.78	171.58	27.01	-37.1	-38.6	17.2	0.00e+00	0	57	0	1633681408	45	4376
2026-01-03 23:20:53.79	171.70	26.85	-37.0	-38.5	17.3	0.00e+00	0	57	0	1636827136	45	4334
2026-01-03 23:20:54.80	171.81	26.69	-37.0	-38.5	17.3	0.00e+00	0	57	0	1639972864	45	4308
2026-01-03 23:20:55.81	171.93	26.53	-36.9	-38.4	17.4	0.00e+00	0	57	0	1643118592	45	4247
2026-01-03 23:20:56.82	172.04	26.37	-36.8	-38.2	17.5	0.00e+00	0	57	0	1646264320	45	4183
2026-01-03 23:20:57.83	172.16	26.21	-36.7	-38.2	17.6	0.00e+00	0	58	0	1649410048	45	4160
2026-01-03 23:20:58.84	172.27	26.06	-36.7	-38.2	17.6	0.00e+00	0	57	0	1652555776	45	4146
2026-01-03 23:20:59.85	172.38	25.90	-36.6	-38.1	17.7	0.00e+00	0	57	0	1655701504	45	4104
2026-01-03 23:21:00.86	172.49	25.75	-36.7	-38.1	17.7	0.00e+00	0	57	0	1658847232	45	4132
2026-01-03 23:21:01.87	172.60	25.59	-36.7	-38.2	17.6	0.00e+00	0	58	0	1661992960	45	4167
2026-01-03 23:21:02.88	172.70	25.44	-36.8	-38.3	17.5	0.00e+00	0	57	0	1665138688	45	4219
2026-01-03 23:21:03.89	172.81	25.28	-37.0	-38.5	17.3	0.00e+00	0	57	0	1668284416	45	4299
2026-01-03 23:21:04.90	172.91	25.13	-37.0	-38.6	17.2	0.00e+00	0	57	0	1671430144	45	4345
2026-01-03 23:21:05.91	173.02	24.98	-37.0	-38.6	17.2	0.00e+00	0	57	0	1674575872	45	4342
2026-01-03 23:21:06.92	173.12	24.83	-37.1	-38.7	17.1	0.00e+00	0	57	0	1677721600	45	4407
2026-01-03 23:21:07.93	173.22	24.68	-37.2	-38.7	17.1	0.00e+00	0	57	0	1680867328	45	4411
2026-01-03 23:21:08.94	173.33	24.53	-37.1	-38.7	17.1	0.00e+00	0	57	0	1684013056	45	4405
2026-01-03 23:21:09.95	173.43	24.38	-37.2	-38.8	17.0	0.00e+00	0	57	0	1687158784	45	4466
2026-01-03 23:21:10.96	173.53	24.23	-37.3	-38.9	16.9	0.00e+00	0	58	0	1690304512	45	4508
2026-01-03 23:21:11.97	173.63	24.09	-37.4	-39.0	16.8	0.00e+00	0	57	0	1693450240	45	4569
2026-01-03 23:21:12.99	173.72	23.94	-37.5	-39.2	16.6	0.00e+00	0	57	0	1696595968	45	4652
2026-01-03 23:21:14.00	173.82	23.79	-37.5	-39.1	16.6	0.00e+00	0	58	0	1699741696	45	4619
2026-01-03 23:21:15.01	173.92	23.65	-37.5	-39.1	16.6	0.00e+00	0	57	0	1702887424	45	4624
2026-01-03 23:21:16.01	174.01	23.51	-37.5	-39.1	16.6	0.00e+00	0	58	0	1706033152	45	4645
2026-01-03 23:21:17.02	174.11	23.36	-37.5	-39.1	16.6	0.00e+00	0	57	0	1709178880	45	4616
2026-01-03 23:21:18.03	174.20	23.22	-37.5	-39.1	16.6	0.00e+00	0	58	0	1712324608	45	4630
2026-01-03 23:21:19.04	174.29	23.08	-37.5	-39.2	16.6	0.00e+00	0	57	0	1715470336	45	4655
2026-01-03 23:21:20.05	174.38	22.94	-37.6	-39.2	16.5	0.00e+00	0	57	0	1718616064	45	4701
2026-01-03 23:21:21.06	174.48	22.80	-37.5	-39.1	16.6	0.00e+00	0	57	0	1721761792	45	4626
2026-01-03 23:21:22.07	174.57	22.66	-37.4	-39.1	16.6	0.00e+00	0	57	0	1724907520	45	4609
2026-01-03 23:21:23.08	174.66	22.52	-37.5	-39.2	16.5	0.00e+00	0	57	0	1728053248	45	4665
2026-01-03 23:21:24.09	174.75	22.38	-37.4	-39.0	16.7	0.00e+00	0	57	0	1731198976	45	4582
2026-01-03 23:21:25.10	174.83	22.24	-37.3	-38.9	16.8	0.00e+00	0	57	0	1734344704	45	4529
2026-01-03 23:21:26.11	174.92	22.10	-37.3	-38.9	16.8	0.00e+00	0	57	0	1738539008	45	4542
2026-01-03 23:21:27.12	175.01	21.97	-37.2	-38.7	17.0	0.00e+00	0	57	0	1741684736	45	4433
2026-01-03 23:21:28.13	175.09	21.83	-37.1	-38.6	17.1	0.00e+00	0	57	0	1743781888	45	4361
2026-01-03 23:21:29.14	175.18	21.70	-37.1	-38.6	17.1	0.00e+00	0	58	0	1746927616	45	4360
2026-01-03 23:21:30.15	175.26	21.56	-37.1	-38.6	17.1	0.00e+00	0	57	0	1750073344	45	4367
2026-01-03 23:21:31.16	175.35	21.43	-36.9	-38.4	17.3	0.00e+00	0	58	0	1754267648	45	4252
2026-01-03 23:21:32.17	175.43	21.30	-36.9	-38.4	17.3	0.00e+00	0	57	0	1757413376	45	4253
2026-01-03 23:21:33.18	175.51	21.16	-36.9	-38.4	17.3	0.00e+00	0	57	0	1760559104	45	4253
2026-01-03 23:21:34.19	175.59	21.03	-36.9	-38.4	17.3	0.00e+00	0	57	0	1763704832	45	4254
2026-01-03 23:21:35.20	175.68	20.90	-36.9	-38.4	17.2	0.00e+00	0	57	0	1766850560	45	4285
2026-01-03 23:21:36.21	175.76	20.77	-37.0	-38.5	17.1	0.00e+00	0	58	0	1768947712	45	4335
2026-01-03 23:21:37.22	175.84	20.64	-37.1	-38.7	16.9	0.00e+00	0	58	0	1773142016	45	4414
2026-01-03 23:21:38.22	175.91	20.51	-37.2	-38.8	16.8	0.00e+00	0	57	0	1776287744	45	4475
2026-01-03 23:21:39.23	175.99	20.38	-37.4	-39.0	16.6	0.00e+00	0	58	0	1779433472	45	4574
2026-01-03 23:21:40.24	176.07	20.25	-37.4	-39.0	16.6	0.00e+00	0	57	0	1782579200	45	4583
2026-01-03 23:21:41.25	176.15	20.13	-37.5	-39.1	16.5	0.00e+00	0	57	0	1785724928	45	4647
2026-01-03 23:21:42.26	176.23	20.00	-37.4	-39.1	16.6	0.00e+00	0	57	0	1788870656	45	4599
2026-01-03 23:21:43.27	176.30	19.87	-37.4	-39.1	16.6	0.00e+00	0	57	0	1792016384	45	4604
2026-01-03 23:21:44.28	176.38	19.75	-37.4	-39.1	16.5	0.00e+00	0	58	0	1795162112	45	4622
2026-01-03 23:21:45.29	176.45	19.62	-37.4	-39.1	16.6	0.00e+00	0	57	0	1798307840	45	4611
2026-01-03 23:21:46.30	176.53	19.50	-37.5	-39.1	16.5	0.00e+00	0	58	0	1801453568	45	4630
2026-01-03 23:21:47.31	176.60	19.37	-37.4	-39.1	16.6	0.00e+00	0	58	0	1804599296	45	4604
2026-01-03 23:21:48.32	176.67	19.25	-37.4	-39.0	16.6	0.00e+00	0	57	0	1807745024	45	4565
2026-01-03 23:21:49.33	176.75	19.13	-37.4	-39.0	16.6	0.00e+00	0	57	0	1810890752	45	4565
2026-01-03 23:21:50.34	176.82	19.00	-37.4	-39.0	16.6	0.00e+00	0	57	0	1814036480	45	4591
2026-01-03 23:21:51.35	176.89	18.88	-37.4	-39.0	16.6	0.00e+00	0	58	0	1817182208	45	4555
2026-01-03 23:21:52.36	176.96	18.76	-37.3	-38.9	16.7	0.00e+00	0	57	0	1820327936	45	4507
2026-01-03 23:21:53.37	177.03	18.64	-37.3	-39.0	16.6	0.00e+00	0	57	0	1823473664	45	4548
2026-01-03 23:21:54.38	177.10	18.52	-37.5	-39.1	16.5	0.00e+00	0	57	0	1826619392	45	4617
2026-01-03 23:21:55.39	177.17	18.40	-37.4	-39.1	16.5	0.00e+00	0	58	0	1829765120	45	4605
2026-01-03 23:21:56.40	177.24	18.28	-37.5	-39.1	16.5	0.00e+00	0	58	0	1832910848	45	4639
2026-01-03 23:21:57.41	177.31	18.16	-37.5	-39.1	16.5	0.00e+00	0	58	0	1836056576	45	4638
2026-01-03 23:21:58.42	177.38	18.05	-37.5	-39.2	16.4	0.00e+00	0	58	0	1839202304	45	4680
2026-01-03 23:21:59.43	177.44	17.93	-37.6	-39.2	16.4	0.00e+00	0	58	0	1842348032	45	4691
2026-01-03 23:22:00.44	177.51	17.81	-37.7	-39.4	16.3	0.00e+00	0	57	0	1845493760	45	4761
2026-01-03 23:22:01.45	177.58	17.70	-37.8	-39.5	16.1	0.00e+00	0	57	0	1848639488	46	4555
2026-01-03 23:22:02.46	177.64	17.58	-37.7	-39.5	16.2	0.00e+00	0	58	0	1851785216	46	4546
2026-01-03 23:22:03.47	177.71	17.46	-37.7	-39.4	16.2	0.00e+00	0	58	0	1854930944	46	4541
2026-01-03 23:22:04.48	177.77	17.35	-37.8	-39.6	16.1	0.00e+00	0	58	0	1858076672	46	4603
2026-01-03 23:22:05.49	177.84	17.24	-37.7	-39.5	16.2	0.00e+00	0	58	0	1861222400	46	4553
2026-01-03 23:22:06.50	177.90	17.12	-37.7	-39.4	16.2	0.00e+00	0	58	0	1864368128	46	4539
2026-01-03 23:22:07.51	177.97	17.01	-37.8	-39.5	16.0	0.00e+00	0	58	0	1867513856	46	4596
2026-01-03 23:22:08.52	178.03	16.90	-37.7	-39.4	16.2	0.00e+00	0	58	0	1870659584	46	4542
2026-01-03 23:22:09.53	178.09	16.78	-37.8	-39.5	16.1	0.00e+00	0	58	0	1873805312	46	4558
2026-01-03 23:22:10.54	178.15	16.67	-37.8	-39.6	16.0	0.00e+00	0	57	0	1876951040	46	4610
2026-01-03 23:22:11.55	178.22	16.56	-37.9	-39.6	16.0	0.00e+00	0	57	0	1880096768	46	4634
2026-01-03 23:22:12.57	178.28	16.45	-38.0	-39.7	15.9	0.00e+00	0	58	0	1883242496	46	4701
2026-01-03 23:22:13.58	178.34	16.34	-37.9	-39.7	15.9	0.00e+00	0	58	0	1886388224	46	4660
2026-01-03 23:22:14.59	178.40	16.23	-37.8	-39.6	16.0	0.00e+00	0	58	0	1889533952	46	4607
2026-01-03 23:22:15.60	178.46	16.12	-37.9	-39.7	15.9	0.00e+00	0	58	0	1892679680	46	4659
2026-01-03 23:22:16.61	178.52	16.01	-37.9	-39.7	15.9	0.00e+00	0	57	0	1895825408	46	4690
2026-01-03 23:22:17.61	178.58	15.90	-37.9	-39.7	15.9	0.00e+00	0	57	0	1898971136	46	4673
2026-01-03 23:22:18.63	178.64	15.79	-38.0	-39.7	15.8	0.00e+00	0	58	0	1902116864	46	4698
2026-01-03 23:22:19.64	178.70	15.68	-37.9	-39.7	15.8	0.00e+00	0	58	0	1905262592	46	4683
2026-01-03 23:22:20.65	178.75	15.58	-37.9	-39.7	15.9	0.00e+00	0	57	0	1908408320	46	4672
2026-01-03 23:22:21.66	178.81	15.47	-37.9	-39.7	15.8	0.00e+00	0	57	0	1911554048	46	4672
2026-01-03 23:22:22.66	178.87	15.36	-37.9	-39.7	15.9	0.00e+00	0	57	0	1914699776	46	4657
2026-01-03 23:22:23.67	178.93	15.26	-37.9	-39.7	15.9	0.00e+00	0	57	0	1917845504	46	4677
2026-01-03 23:22:24.68	178.98	15.15	-38.0	-39.8	15.8	0.00e+00	0	57	0	1920991232	46	4721
2026-01-03 23:22:25.69	179.04	15.05	-38.0	-39.8	15.7	0.00e+00	0	57	0	1924136960	46	4750
2026-01-03 23:22:26.70	179.09	14.94	-38.0	-39.8	15.7	0.00e+00	0	58	0	1927282688	46	4713
2026-01-03 23:22:27.71	179.15	14.84	-37.9	-39.6	15.9	0.00e+00	0	57	0	1930428416	46	4649
2026-01-03 23:22:28.72	179.20	14.74	-37.9	-39.6	15.9	0.00e+00	0	57	0	1933574144	46	4631
