passes_logs/2026/01/03/R2.0S_Moscow/R2.0S_Moscow__20260103_001959_NOAA_20_JPSS-1_rec.log

#Pass ID: 20260103_001959_NOAA 20 (JPSS-1)
#Satellite: NOAA 20 (JPSS-1)
#Configuration: NOAA 20
#almurnet v.1.7.20251203
#Start time: 2026-01-03 00:20:01

#Version: 2.2.20231116
#Station: R2.0S_Moscow
#Location: 37.707566 lon 55.798166 lat
#TLE: 1 43013U 17073A   26002.21975278  .00000202  00000+0  11669-3 0  9999
#TLE: 2 43013  98.7622 303.2950 0001915  57.9213 302.2149 14.19532512420923

#Time	Az	El	Level	Level2	SNR	BER	BlckErr	Temp	State	Recorded	gain1	gain2
2026-01-03 00:20:01.54	13.43	2.13	-40.6	-55.1	3.8	1.49e+00	0	49	0	0	53	18466
2026-01-03 00:20:02.54	13.41	2.20	-40.6	-55.1	3.8	1.49e+00	0	49	104	0	53	18467
2026-01-03 00:20:03.55	13.38	2.26	-40.6	-55.1	3.8	1.49e+00	0	49	104	0	53	18450
2026-01-03 00:20:04.56	13.36	2.33	-40.6	-55.2	3.8	1.49e+00	0	49	104	0	53	18521
2026-01-03 00:20:05.57	13.33	2.39	-40.6	-55.1	3.8	1.49e+00	0	49	104	0	53	18461
2026-01-03 00:20:06.58	13.31	2.45	-40.6	-55.1	3.8	1.49e+00	0	49	104	0	53	18457
2026-01-03 00:20:07.59	13.28	2.52	-40.6	-55.1	3.8	1.49e+00	0	49	104	0	53	18437
2026-01-03 00:20:08.60	13.25	2.58	-40.6	-55.1	3.8	1.49e+00	0	49	104	0	53	18473
2026-01-03 00:20:09.62	13.23	2.65	-40.6	-55.1	3.8	1.49e+00	0	49	104	0	53	18451
2026-01-03 00:20:10.63	13.20	2.71	-40.6	-55.1	3.8	1.49e+00	0	49	104	0	53	18419
2026-01-03 00:20:11.64	13.17	2.78	-40.6	-55.1	3.8	1.49e+00	0	49	104	0	53	18474
2026-01-03 00:20:12.65	13.15	2.84	-40.6	-55.1	3.8	1.49e+00	0	50	104	0	53	18475
2026-01-03 00:20:13.66	13.12	2.91	-40.6	-55.1	3.8	1.49e+00	0	49	104	0	53	18428
2026-01-03 00:20:14.67	13.09	2.97	-40.6	-55.1	3.8	1.49e+00	0	49	104	0	53	18505
2026-01-03 00:20:15.68	13.07	3.04	-40.6	-55.1	3.8	1.49e+00	0	50	104	0	53	18448
2026-01-03 00:20:16.69	13.04	3.10	-40.6	-55.1	3.8	1.49e+00	0	49	104	0	53	18397
2026-01-03 00:20:17.70	13.01	3.17	-40.6	-55.1	3.8	1.49e+00	0	50	104	0	53	18462
2026-01-03 00:20:18.72	12.98	3.24	-40.6	-55.1	3.8	1.49e+00	0	50	104	0	53	18497
2026-01-03 00:20:19.73	12.96	3.30	-40.6	-55.1	3.8	1.49e+00	0	50	104	0	53	18476
2026-01-03 00:20:20.74	12.93	3.37	-40.6	-55.1	3.8	1.49e+00	0	50	104	0	53	18508
2026-01-03 00:20:21.75	12.90	3.44	-40.6	-55.1	3.8	1.49e+00	0	50	104	0	53	18479
2026-01-03 00:20:22.76	12.87	3.50	-40.6	-55.1	3.8	1.49e+00	0	50	104	0	53	18475
2026-01-03 00:20:23.77	12.85	3.57	-40.6	-55.1	3.8	1.49e+00	0	50	104	0	53	18439
2026-01-03 00:20:24.78	12.82	3.64	-40.6	-55.1	3.8	1.49e+00	0	50	104	0	53	18443
2026-01-03 00:20:25.79	12.79	3.70	-40.6	-55.1	3.8	1.49e+00	0	50	104	0	53	18427
2026-01-03 00:20:26.80	12.76	3.77	-40.6	-55.1	3.8	1.49e+00	0	50	104	0	53	18418
2026-01-03 00:20:27.81	12.73	3.84	-40.6	-55.1	3.8	1.49e+00	0	50	104	0	53	18429
2026-01-03 00:20:28.83	12.70	3.91	-40.6	-55.1	3.8	1.49e+00	0	50	104	0	53	18456
2026-01-03 00:20:29.84	12.67	3.97	-40.6	-55.1	3.8	1.49e+00	0	50	104	0	53	18423
2026-01-03 00:20:30.85	12.64	4.04	-40.6	-55.1	3.8	1.49e+00	0	51	104	0	53	18351
2026-01-03 00:20:31.86	12.61	4.11	-40.6	-55.1	3.8	1.49e+00	0	51	104	0	53	18352
2026-01-03 00:20:32.87	12.58	4.18	-40.6	-55.1	3.8	1.49e+00	0	51	104	0	53	18323
2026-01-03 00:20:33.88	12.55	4.25	-40.6	-55.1	3.8	1.49e+00	0	51	104	0	53	18332
2026-01-03 00:20:34.89	12.53	4.31	-40.6	-55.1	3.8	1.49e+00	0	51	104	0	53	18334
2026-01-03 00:20:35.90	12.50	4.38	-40.6	-55.0	3.8	1.49e+00	0	51	104	0	53	18301
2026-01-03 00:20:36.92	12.46	4.45	-40.6	-55.0	3.8	1.49e+00	0	51	104	0	53	18293
2026-01-03 00:20:37.93	12.43	4.52	-40.6	-55.0	3.8	1.49e+00	0	51	104	0	53	18267
2026-01-03 00:20:38.94	12.40	4.59	-40.6	-55.0	3.8	1.49e+00	0	51	104	0	53	18265
2026-01-03 00:20:39.95	12.37	4.66	-40.6	-55.0	3.8	1.49e+00	0	51	104	0	53	18199
2026-01-03 00:20:40.96	12.34	4.73	-40.6	-55.0	3.8	1.49e+00	0	51	104	0	53	18216
2026-01-03 00:20:41.97	12.31	4.80	-40.6	-55.0	3.8	1.49e+00	0	51	104	0	53	18188
2026-01-03 00:20:42.98	12.28	4.87	-40.6	-55.0	3.8	1.49e+00	0	51	104	0	53	18198
2026-01-03 00:20:43.99	12.25	4.94	-40.6	-55.0	3.8	1.49e+00	0	51	104	0	53	18269
2026-01-03 00:20:45.00	12.22	5.01	-40.6	-55.0	3.8	1.49e+00	0	51	104	0	53	18254
2026-01-03 00:20:46.01	12.19	5.08	-40.6	-55.0	3.8	1.49e+00	0	51	104	0	53	18260
2026-01-03 00:20:47.02	12.15	5.15	-40.6	-55.0	3.8	1.49e+00	0	52	104	0	53	18269
2026-01-03 00:20:48.03	12.12	5.22	-40.6	-55.0	3.8	1.49e+00	0	52	104	0	53	18266
2026-01-03 00:20:49.05	12.09	5.29	-40.6	-55.0	3.8	1.49e+00	0	51	104	0	53	18293
2026-01-03 00:20:50.06	12.06	5.36	-40.6	-55.0	3.8	1.49e+00	0	52	104	0	53	18246
2026-01-03 00:20:51.07	12.02	5.43	-40.6	-55.0	3.8	1.49e+00	0	52	104	0	53	18179
2026-01-03 00:20:52.08	11.99	5.51	-40.6	-55.0	3.8	1.49e+00	0	52	104	0	53	18128
2026-01-03 00:20:53.09	11.96	5.58	-40.5	-54.9	3.8	1.49e+00	0	52	104	0	53	18034
2026-01-03 00:20:54.10	11.93	5.65	-40.6	-54.9	3.8	1.49e+00	0	52	104	0	53	17937
2026-01-03 00:20:55.11	11.89	5.72	-40.6	-54.9	3.8	1.49e+00	0	52	104	0	53	17894
2026-01-03 00:20:56.12	11.86	5.79	-40.6	-54.8	3.8	1.49e+00	0	52	104	0	53	17869
2026-01-03 00:20:57.13	11.82	5.87	-40.5	-54.8	3.8	1.49e+00	0	52	104	0	53	17797
2026-01-03 00:20:58.14	11.79	5.94	-40.6	-54.8	3.8	1.49e+00	0	52	104	0	53	17693
2026-01-03 00:20:59.16	11.76	6.01	-40.5	-54.7	3.8	1.49e+00	0	52	104	0	53	17515
2026-01-03 00:21:00.17	11.72	6.09	-40.5	-54.5	3.8	1.49e+00	0	52	104	0	53	17156
2026-01-03 00:21:01.18	11.69	6.16	-40.5	-54.1	3.8	1.49e+00	0	52	104	0	53	16431
2026-01-03 00:21:02.19	11.65	6.23	-40.5	-53.6	3.8	1.49e+00	0	52	104	0	53	15534
2026-01-03 00:21:03.20	11.62	6.31	-40.5	-53.1	3.8	1.49e+00	0	52	104	0	52	15446
2026-01-03 00:21:04.21	11.58	6.38	-40.4	-52.3	4.0	1.48e+00	0	52	104	0	52	14178
2026-01-03 00:21:05.22	11.55	6.45	-40.3	-51.6	4.2	1.43e+00	0	52	0	0	52	13053
2026-01-03 00:21:06.23	11.51	6.53	-40.3	-50.9	4.4	1.34e+00	83	52	0	0	52	11997
2026-01-03 00:21:07.25	11.48	6.60	-40.2	-50.3	4.7	9.72e-01	0	52	0	2097152	52	11170
2026-01-03 00:21:08.26	11.44	6.68	-40.1	-49.7	4.9	8.02e-01	0	52	0	4194304	52	10436
2026-01-03 00:21:09.27	11.40	6.75	-40.1	-49.1	5.2	6.41e-01	0	52	0	6291456	52	9795
2026-01-03 00:21:10.28	11.37	6.83	-40.0	-48.6	5.5	5.30e-01	0	53	0	7340032	52	9280
2026-01-03 00:21:11.29	11.33	6.90	-40.0	-48.3	5.9	3.92e-01	0	53	0	9437184	51	9469
2026-01-03 00:21:12.30	11.30	6.98	-40.0	-48.2	6.0	3.57e-01	0	53	0	11534336	51	9281
2026-01-03 00:21:13.31	11.26	7.05	-40.0	-48.0	6.1	3.27e-01	0	53	0	13631488	51	9070
2026-01-03 00:21:14.32	11.22	7.13	-39.9	-47.8	6.2	2.88e-01	0	53	0	15728640	51	8963
2026-01-03 00:21:15.33	11.18	7.21	-39.9	-47.7	6.3	2.74e-01	0	53	0	16777216	51	8854
2026-01-03 00:21:16.34	11.15	7.28	-39.9	-47.8	6.3	2.76e-01	0	53	0	18874368	51	8877
2026-01-03 00:21:17.35	11.11	7.36	-40.0	-48.0	6.1	3.01e-01	0	53	0	20971520	51	9110
2026-01-03 00:21:18.36	11.07	7.43	-40.0	-48.3	5.9	3.37e-01	0	53	0	23068672	51	9403
2026-01-03 00:21:19.37	11.03	7.51	-40.0	-48.5	5.7	3.81e-01	0	53	0	25165824	51	9683
2026-01-03 00:21:20.39	10.99	7.59	-40.1	-48.9	5.4	4.78e-01	0	53	0	26214400	51	10139
2026-01-03 00:21:21.40	10.96	7.67	-40.2	-49.2	5.3	5.44e-01	0	53	0	28311552	51	10450
2026-01-03 00:21:22.41	10.92	7.74	-40.2	-49.7	4.9	6.53e-01	0	53	0	30408704	51	11136
2026-01-03 00:21:23.42	10.88	7.82	-40.3	-50.3	4.7	8.56e-01	0	53	0	32505856	51	11830
2026-01-03 00:21:24.43	10.84	7.90	-40.4	-50.9	4.5	1.00e+00	42	53	0	34603008	51	12714
2026-01-03 00:21:25.44	10.80	7.98	-40.4	-51.5	4.2	1.28e+00	0	53	0	35651584	51	13669
2026-01-03 00:21:26.45	10.76	8.06	-40.2	-52.7	3.8	1.44e+00	0	53	104	35651584	51	15751
2026-01-03 00:21:27.46	10.72	8.14	-40.0	-53.1	3.8	1.49e+00	0	53	104	35651584	51	16406
2026-01-03 00:21:28.47	10.68	8.21	-40.2	-52.2	3.8	1.49e+00	0	54	104	35651584	51	14863
2026-01-03 00:21:29.48	10.64	8.29	-41.4	-54.0	3.8	1.49e+00	0	53	104	35651584	53	16160
2026-01-03 00:21:30.49	10.60	8.37	-40.2	-52.5	4.0	1.00e+00	0	53	0	35651584	52	14445
2026-01-03 00:21:31.50	10.56	8.45	-40.0	-53.9	3.8	1.49e+00	0	53	104	35651584	51	18039
2026-01-03 00:21:32.51	10.51	8.53	-40.6	-51.6	4.3	1.41e+00	24	53	0	35651584	52	12965
2026-01-03 00:21:33.52	10.47	8.61	-40.7	-51.4	4.4	1.30e+00	52	53	0	36700160	52	12747
2026-01-03 00:21:34.53	10.43	8.69	-40.5	-51.4	4.3	1.31e+00	39	54	0	37748736	52	12722
2026-01-03 00:21:35.54	10.39	8.77	-40.5	-51.5	4.3	1.33e+00	11	54	0	37748736	52	12869
2026-01-03 00:21:36.55	10.35	8.85	-40.5	-51.7	4.2	1.38e+00	0	54	0	37748736	52	13226
2026-01-03 00:21:37.56	10.30	8.94	-40.4	-52.0	4.1	1.41e+00	0	54	0	37748736	52	13678
2026-01-03 00:21:38.57	10.26	9.02	-40.4	-52.4	3.8	1.45e+00	0	54	104	37748736	52	14322
2026-01-03 00:21:39.58	10.22	9.10	-40.4	-52.7	3.8	1.48e+00	0	54	104	37748736	52	14793
2026-01-03 00:21:40.59	10.18	9.18	-40.4	-53.0	3.8	1.49e+00	0	54	104	37748736	52	15388
2026-01-03 00:21:41.60	10.13	9.26	-40.4	-53.4	3.8	1.49e+00	0	54	104	37748736	52	16125
2026-01-03 00:21:42.61	10.09	9.34	-40.4	-53.8	3.8	1.49e+00	0	54	104	37748736	52	16870
2026-01-03 00:21:43.62	10.04	9.43	-41.1	-54.3	3.8	1.49e+00	0	54	104	37748736	52	17736
2026-01-03 00:21:44.63	10.00	9.51	-41.0	-54.6	3.8	1.49e+00	0	54	104	37748736	53	17481
2026-01-03 00:21:45.64	9.95	9.59	-39.8	-54.4	3.8	1.49e+00	0	54	104	37748736	51	18967
2026-01-03 00:21:46.65	9.91	9.68	-39.9	-54.4	3.8	1.49e+00	0	54	104	37748736	51	19109
2026-01-03 00:21:47.66	9.86	9.76	-39.9	-54.4	3.8	1.49e+00	0	54	104	37748736	51	19119
2026-01-03 00:21:48.67	9.82	9.84	-39.9	-54.4	3.8	1.49e+00	0	54	104	37748736	51	18977
2026-01-03 00:21:49.68	9.77	9.93	-39.9	-54.2	3.8	1.49e+00	0	54	104	37748736	51	18674
2026-01-03 00:21:50.69	9.73	10.01	-40.3	-53.4	3.8	1.49e+00	0	54	104	37748736	51	16905
2026-01-03 00:21:51.70	9.68	10.10	-39.8	-54.3	3.8	1.49e+00	0	54	104	37748736	51	18760
2026-01-03 00:21:52.71	9.63	10.18	-40.0	-53.8	3.8	1.49e+00	0	54	104	37748736	51	17709
2026-01-03 00:21:53.72	9.59	10.27	-40.2	-53.2	3.8	1.49e+00	0	54	104	37748736	51	16660
2026-01-03 00:21:54.73	9.54	10.35	-40.3	-54.1	3.8	1.49e+00	0	54	104	37748736	51	18353
2026-01-03 00:21:55.74	9.49	10.44	-40.4	-54.8	3.8	1.49e+00	0	54	104	37748736	51	19972
2026-01-03 00:21:56.75	9.44	10.52	-40.4	-54.8	3.8	1.49e+00	0	54	104	37748736	51	19989
2026-01-03 00:21:57.76	9.40	10.61	-40.1	-53.5	3.8	1.49e+00	0	54	104	37748736	51	17131
2026-01-03 00:21:58.77	9.35	10.70	-40.5	-52.7	4.0	1.49e+00	0	54	104	37748736	51	15660
2026-01-03 00:21:59.78	9.30	10.78	-39.8	-54.2	3.8	1.48e+00	0	54	104	37748736	51	18549
2026-01-03 00:22:00.79	9.25	10.87	-40.8	-50.0	4.2	1.49e+00	0	54	104	37748736	52	10879
2026-01-03 00:22:01.80	9.20	10.96	-40.1	-53.9	3.8	3.43e-01	0	54	104	37748736	52	17035
2026-01-03 00:22:02.81	9.15	11.05	-40.5	-49.6	5.2	1.48e+00	1	54	104	37748736	52	10311
2026-01-03 00:22:03.82	9.10	11.13	-41.0	-47.9	7.2	1.89e-01	0	54	0	38797312	52	8527
2026-01-03 00:22:04.83	9.05	11.22	-41.0	-47.1	8.4	8.51e-02	0	54	0	40894464	52	7803
2026-01-03 00:22:05.84	9.00	11.31	-41.2	-46.7	9.4	2.10e-02	0	54	0	41943040	52	7407
2026-01-03 00:22:06.84	8.95	11.40	-41.0	-45.8	10.5	8.51e-03	0	54	0	44040192	53	6337
2026-01-03 00:22:07.85	8.90	11.49	-40.7	-45.0	11.4	2.59e-03	0	54	0	46137344	53	5769
2026-01-03 00:22:08.86	8.85	11.58	-40.3	-44.1	12.4	2.40e-04	0	54	0	48234496	52	5476
2026-01-03 00:22:09.87	8.79	11.67	-39.9	-43.3	13.3	3.28e-05	0	55	0	50331648	51	5328
2026-01-03 00:22:10.88	8.74	11.76	-39.4	-42.4	14.2	7.60e-06	0	55	0	52428800	50	5081
2026-01-03 00:22:11.89	8.69	11.85	-39.0	-41.8	14.9	0.00e+00	0	54	0	53477376	50	4720
2026-01-03 00:22:12.90	8.64	11.94	-38.6	-41.2	15.5	0.00e+00	0	55	0	55574528	49	4663
2026-01-03 00:22:13.91	8.58	12.03	-38.3	-40.6	16.1	0.00e+00	0	54	0	57671680	48	4646
2026-01-03 00:22:14.92	8.53	12.12	-38.2	-40.5	16.4	0.00e+00	0	55	0	59768832	48	4572
2026-01-03 00:22:15.93	8.47	12.21	-38.2	-40.4	16.6	0.00e+00	0	55	0	61865984	48	4525
2026-01-03 00:22:16.94	8.42	12.31	-38.3	-40.5	16.7	0.00e+00	0	55	0	62914560	48	4580
2026-01-03 00:22:17.95	8.36	12.40	-38.4	-40.6	16.6	0.00e+00	0	54	0	65011712	48	4620
2026-01-03 00:22:18.96	8.31	12.49	-38.5	-40.7	16.5	0.00e+00	0	55	0	67108864	48	4702
2026-01-03 00:22:19.97	8.25	12.58	-38.7	-40.9	16.4	0.00e+00	0	55	0	69206016	48	4799
2026-01-03 00:22:20.98	8.20	12.68	-38.6	-40.8	16.5	0.00e+00	0	55	0	71303168	48	4752
2026-01-03 00:22:21.99	8.14	12.77	-38.6	-40.9	16.5	0.00e+00	0	54	0	72351744	48	4764
2026-01-03 00:22:23.00	8.08	12.87	-38.8	-41.0	16.3	0.00e+00	0	55	0	74448896	48	4868
2026-01-03 00:22:24.01	8.03	12.96	-38.7	-40.9	16.5	0.00e+00	0	55	0	76546048	48	4805
2026-01-03 00:22:25.01	7.97	13.05	-38.6	-40.9	16.6	0.00e+00	0	55	0	78643200	48	4761
2026-01-03 00:22:26.02	7.91	13.15	-38.6	-40.8	16.6	0.00e+00	0	55	0	80740352	48	4738
2026-01-03 00:22:27.03	7.85	13.24	-38.5	-40.7	16.8	0.00e+00	0	55	0	81788928	48	4658
2026-01-03 00:22:28.04	7.79	13.34	-38.5	-40.7	16.8	0.00e+00	0	55	0	83886080	48	4664
2026-01-03 00:22:29.05	7.74	13.44	-38.6	-40.7	16.7	0.00e+00	0	55	0	85983232	48	4698
2026-01-03 00:22:30.06	7.68	13.53	-38.6	-40.8	16.6	0.00e+00	0	55	0	88080384	48	4737
2026-01-03 00:22:31.07	7.62	13.63	-38.7	-40.8	16.6	0.00e+00	0	55	0	90177536	48	4750
2026-01-03 00:22:32.08	7.56	13.73	-38.7	-40.8	16.7	0.00e+00	0	55	0	91226112	48	4754
2026-01-03 00:22:33.09	7.49	13.82	-38.6	-40.8	16.7	0.00e+00	0	55	0	93323264	48	4732
2026-01-03 00:22:34.10	7.43	13.92	-38.6	-40.7	16.8	0.00e+00	0	55	0	95420416	48	4704
2026-01-03 00:22:35.11	7.37	14.02	-38.6	-40.8	16.8	0.00e+00	0	55	0	97517568	48	4714
2026-01-03 00:22:36.12	7.31	14.12	-38.7	-40.8	16.7	0.00e+00	0	55	0	99614720	48	4754
2026-01-03 00:22:37.13	7.25	14.22	-38.6	-40.7	16.9	0.00e+00	0	55	0	100663296	48	4698
2026-01-03 00:22:38.13	7.18	14.31	-38.6	-40.7	17.0	0.00e+00	0	55	0	102760448	48	4664
2026-01-03 00:22:39.14	7.12	14.41	-38.6	-40.6	17.0	0.00e+00	0	55	0	104857600	48	4646
2026-01-03 00:22:40.16	7.06	14.52	-38.5	-40.5	17.1	0.00e+00	0	55	0	106954752	48	4594
2026-01-03 00:22:41.17	6.99	14.62	-38.4	-40.5	17.2	0.00e+00	0	55	0	109051904	48	4552
2026-01-03 00:22:42.18	6.93	14.72	-38.5	-40.5	17.2	0.00e+00	0	55	0	110100480	48	4586
2026-01-03 00:22:43.18	6.86	14.82	-38.5	-40.5	17.2	0.00e+00	0	55	0	112197632	48	4572
2026-01-03 00:22:44.19	6.80	14.92	-38.6	-40.7	17.1	0.00e+00	0	55	0	114294784	48	4661
2026-01-03 00:22:45.20	6.73	15.02	-38.5	-40.6	17.2	0.00e+00	0	55	0	116391936	48	4599
2026-01-03 00:22:46.21	6.66	15.12	-38.6	-40.6	17.1	0.00e+00	0	55	0	118489088	48	4623
2026-01-03 00:22:47.22	6.60	15.22	-38.5	-40.5	17.2	0.00e+00	0	55	0	120586240	48	4576
2026-01-03 00:22:48.23	6.53	15.33	-38.5	-40.5	17.2	0.00e+00	0	55	0	121634816	48	4584
2026-01-03 00:22:49.24	6.46	15.43	-38.6	-40.6	17.2	0.00e+00	0	55	0	123731968	48	4618
2026-01-03 00:22:50.25	6.39	15.54	-38.6	-40.6	17.2	0.00e+00	0	55	0	125829120	48	4617
2026-01-03 00:22:51.26	6.32	15.64	-38.5	-40.5	17.3	0.00e+00	0	55	0	127926272	48	4552
2026-01-03 00:22:52.27	6.25	15.74	-38.6	-40.6	17.1	0.00e+00	0	55	0	130023424	48	4649
2026-01-03 00:22:53.28	6.18	15.85	-38.5	-40.5	17.2	0.00e+00	0	55	0	131072000	48	4587
2026-01-03 00:22:54.29	6.11	15.95	-38.5	-40.5	17.3	0.00e+00	0	55	0	133169152	48	4596
2026-01-03 00:22:55.30	6.04	16.06	-38.6	-40.6	17.2	0.00e+00	0	55	0	135266304	48	4611
2026-01-03 00:22:56.31	5.97	16.17	-38.5	-40.5	17.2	0.00e+00	0	55	0	137363456	48	4586
2026-01-03 00:22:57.32	5.90	16.27	-38.6	-40.6	17.2	0.00e+00	0	55	0	139460608	48	4639
2026-01-03 00:22:58.33	5.82	16.38	-38.6	-40.7	17.1	0.00e+00	0	55	0	140509184	48	4654
2026-01-03 00:22:59.34	5.75	16.49	-38.5	-40.6	17.3	0.00e+00	0	55	0	142606336	48	4599
2026-01-03 00:23:00.35	5.68	16.60	-38.5	-40.5	17.3	0.00e+00	0	55	0	144703488	48	4575
2026-01-03 00:23:01.36	5.60	16.70	-38.6	-40.6	17.2	0.00e+00	0	55	0	146800640	48	4607
2026-01-03 00:23:02.37	5.53	16.81	-38.6	-40.6	17.2	0.00e+00	0	55	0	148897792	48	4623
2026-01-03 00:23:03.38	5.45	16.92	-38.7	-40.7	17.1	0.00e+00	0	55	0	149946368	48	4685
2026-01-03 00:23:04.38	5.37	17.03	-38.7	-40.7	17.1	0.00e+00	0	55	0	152043520	48	4677
2026-01-03 00:23:05.39	5.30	17.14	-38.7	-40.7	17.1	0.00e+00	0	55	0	154140672	48	4701
2026-01-03 00:23:06.40	5.22	17.25	-38.7	-40.7	17.2	0.00e+00	0	55	0	156237824	48	4691
2026-01-03 00:23:07.41	5.14	17.36	-38.7	-40.7	17.1	0.00e+00	0	55	0	158334976	48	4701
2026-01-03 00:23:08.42	5.06	17.47	-38.7	-40.7	17.1	0.00e+00	0	55	0	159383552	48	4686
2026-01-03 00:23:09.43	4.98	17.59	-38.7	-40.7	17.2	0.00e+00	0	56	0	161480704	48	4682
2026-01-03 00:23:10.44	4.90	17.70	-38.7	-40.7	17.2	0.00e+00	0	55	0	163577856	48	4672
2026-01-03 00:23:11.45	4.82	17.81	-38.7	-40.7	17.2	0.00e+00	0	55	0	165675008	48	4667
2026-01-03 00:23:12.46	4.74	17.93	-38.7	-40.8	17.1	0.00e+00	0	56	0	167772160	48	4708
2026-01-03 00:23:13.47	4.66	18.04	-38.7	-40.8	17.1	0.00e+00	0	55	0	168820736	48	4711
2026-01-03 00:23:14.48	4.58	18.15	-38.7	-40.7	17.2	0.00e+00	0	55	0	170917888	48	4690
2026-01-03 00:23:15.49	4.50	18.27	-38.7	-40.8	17.1	0.00e+00	0	56	0	173015040	48	4712
2026-01-03 00:23:16.50	4.41	18.38	-38.7	-40.7	17.2	0.00e+00	0	55	0	175112192	48	4689
2026-01-03 00:23:17.51	4.33	18.50	-38.7	-40.7	17.2	0.00e+00	0	56	0	177209344	48	4685
2026-01-03 00:23:18.52	4.24	18.62	-38.7	-40.7	17.3	0.00e+00	0	55	0	178257920	48	4668
2026-01-03 00:23:19.53	4.16	18.73	-38.6	-40.6	17.3	0.00e+00	0	56	0	180355072	48	4630
2026-01-03 00:23:20.54	4.07	18.85	-38.7	-40.7	17.3	0.00e+00	0	55	0	182452224	48	4661
2026-01-03 00:23:21.55	3.98	18.97	-38.6	-40.6	17.3	0.00e+00	0	56	0	184549376	48	4640
2026-01-03 00:23:22.56	3.89	19.08	-38.8	-40.8	17.2	0.00e+00	0	55	0	186646528	48	4733
2026-01-03 00:23:23.57	3.81	19.20	-38.7	-40.8	17.1	0.00e+00	0	56	0	188743680	48	4708
2026-01-03 00:23:24.58	3.72	19.32	-38.9	-41.0	16.9	0.00e+00	0	56	0	189792256	48	4840
2026-01-03 00:23:25.58	3.63	19.44	-38.9	-41.0	16.9	0.00e+00	0	55	0	191889408	48	4863
2026-01-03 00:23:26.59	3.54	19.56	-39.0	-41.1	16.8	0.00e+00	0	55	0	193986560	48	4881
2026-01-03 00:23:27.60	3.45	19.68	-39.0	-41.1	16.8	0.00e+00	0	56	0	196083712	48	4902
2026-01-03 00:23:28.61	3.35	19.80	-38.9	-41.0	16.9	0.00e+00	0	56	0	198180864	48	4844
2026-01-03 00:23:29.62	3.26	19.92	-38.9	-41.0	16.9	0.00e+00	0	55	0	199229440	48	4859
2026-01-03 00:23:30.63	3.17	20.05	-39.0	-41.2	16.8	0.00e+00	0	56	0	201326592	48	4928
2026-01-03 00:23:31.64	3.07	20.17	-38.9	-41.0	17.0	0.00e+00	0	56	0	203423744	48	4848
2026-01-03 00:23:32.65	2.98	20.29	-39.0	-41.1	16.8	0.00e+00	0	56	0	205520896	48	4913
2026-01-03 00:23:33.65	2.88	20.41	-38.9	-41.0	17.0	0.00e+00	0	55	0	207618048	48	4820
2026-01-03 00:23:34.66	2.78	20.54	-38.9	-41.0	17.0	0.00e+00	0	55	0	208666624	48	4827
2026-01-03 00:23:35.67	2.69	20.66	-39.0	-41.1	16.9	0.00e+00	0	55	0	210763776	48	4874
2026-01-03 00:23:36.68	2.59	20.79	-39.1	-41.2	16.8	0.00e+00	0	56	0	212860928	48	4981
2026-01-03 00:23:37.69	2.49	20.91	-39.1	-41.2	16.8	0.00e+00	0	56	0	214958080	48	4970
2026-01-03 00:23:38.70	2.39	21.04	-39.2	-41.3	16.7	0.00e+00	0	56	0	217055232	48	5036
2026-01-03 00:23:39.71	2.29	21.17	-39.2	-41.4	16.7	0.00e+00	0	56	0	218103808	48	5043
2026-01-03 00:23:40.72	2.18	21.29	-39.3	-41.5	16.5	0.00e+00	0	56	0	220200960	49	4842
2026-01-03 00:23:41.73	2.08	21.42	-39.3	-41.5	16.5	0.00e+00	0	56	0	222298112	49	4845
2026-01-03 00:23:42.74	1.98	21.55	-39.3	-41.6	16.4	0.00e+00	0	56	0	224395264	49	4888
2026-01-03 00:23:43.75	1.87	21.68	-39.4	-41.7	16.3	0.00e+00	0	56	0	226492416	49	4945
2026-01-03 00:23:44.76	1.77	21.81	-39.5	-41.8	16.2	0.00e+00	0	56	0	227540992	49	5000
2026-01-03 00:23:45.77	1.66	21.94	-39.5	-41.8	16.2	0.00e+00	0	56	0	229638144	49	5005
2026-01-03 00:23:46.78	1.55	22.07	-39.6	-42.0	16.0	0.00e+00	0	56	0	231735296	49	5104
2026-01-03 00:23:47.79	1.44	22.20	-39.6	-41.9	16.1	0.00e+00	0	56	0	233832448	49	5085
2026-01-03 00:23:48.80	1.34	22.33	-39.6	-42.0	16.0	0.00e+00	0	56	0	235929600	49	5132
2026-01-03 00:23:49.81	1.23	22.47	-39.7	-42.1	16.0	0.00e+00	0	56	0	236978176	49	5170
2026-01-03 00:23:50.82	1.11	22.60	-39.7	-42.1	15.9	0.00e+00	0	56	0	239075328	49	5183
2026-01-03 00:23:51.83	1.00	22.73	-39.8	-42.2	15.9	0.00e+00	0	56	0	241172480	50	4946
2026-01-03 00:23:52.83	0.89	22.87	-39.7	-42.1	15.9	0.00e+00	0	56	0	243269632	50	4901
2026-01-03 00:23:53.84	0.78	23.00	-39.8	-42.2	15.9	0.00e+00	0	56	0	245366784	50	4931
2026-01-03 00:23:54.85	0.66	23.14	-39.9	-42.3	15.7	0.00e+00	0	56	0	246415360	50	5015
2026-01-03 00:23:55.86	0.54	23.27	-39.8	-42.2	15.8	0.00e+00	0	56	0	248512512	50	4962
2026-01-03 00:23:56.87	0.43	23.41	-39.9	-42.3	15.7	0.00e+00	0	56	0	250609664	50	4996
2026-01-03 00:23:57.88	0.31	23.55	-39.9	-42.4	15.6	0.00e+00	0	56	0	252706816	50	5073
2026-01-03 00:23:58.89	0.19	23.68	-39.9	-42.4	15.6	0.00e+00	0	56	0	254803968	50	5080
2026-01-03 00:23:59.90	0.07	23.82	-40.0	-42.5	15.6	0.00e+00	0	56	0	256901120	50	5135
2026-01-03 00:24:00.91	359.95	23.96	-40.0	-42.5	15.6	0.00e+00	0	56	0	257949696	50	5116
2026-01-03 00:24:01.92	359.82	24.10	-40.1	-42.5	15.5	0.00e+00	0	56	0	260046848	50	5159
2026-01-03 00:24:02.93	359.70	24.24	-40.0	-42.4	15.6	0.00e+00	0	56	0	262144000	50	5095
2026-01-03 00:24:03.94	359.57	24.38	-40.0	-42.4	15.6	0.00e+00	0	56	0	264241152	50	5097
2026-01-03 00:24:04.95	359.45	24.52	-40.1	-42.6	15.4	0.00e+00	0	56	0	266338304	50	5211
2026-01-03 00:24:05.96	359.32	24.66	-40.1	-42.6	15.5	0.00e+00	0	56	0	267386880	50	5190
2026-01-03 00:24:06.96	359.19	24.80	-40.1	-42.7	15.4	0.00e+00	0	56	0	269484032	50	5231
2026-01-03 00:24:07.97	359.06	24.95	-40.1	-42.7	15.5	0.00e+00	0	56	0	271581184	50	5220
2026-01-03 00:24:08.98	358.93	25.09	-40.2	-42.7	15.3	0.00e+00	0	56	0	273678336	51	4976
2026-01-03 00:24:09.99	358.80	25.24	-40.2	-42.8	15.3	0.00e+00	0	56	0	275775488	51	5009
2026-01-03 00:24:11.00	358.67	25.38	-40.3	-42.9	15.2	0.00e+00	0	56	0	276824064	51	5062
2026-01-03 00:24:12.01	358.53	25.53	-40.3	-42.9	15.1	0.00e+00	0	56	0	278921216	51	5094
2026-01-03 00:24:13.02	358.40	25.67	-40.4	-43.1	15.0	0.00e+00	0	56	0	281018368	51	5160
2026-01-03 00:24:14.03	358.26	25.82	-40.5	-43.2	14.9	0.00e+00	0	56	0	283115520	51	5272
2026-01-03 00:24:15.04	358.12	25.97	-40.5	-43.3	14.8	0.00e+00	0	56	0	285212672	51	5292
2026-01-03 00:24:16.05	357.98	26.12	-40.5	-43.2	14.9	0.00e+00	0	56	0	286261248	51	5271
2026-01-03 00:24:17.06	357.84	26.26	-40.6	-43.4	14.7	7.00e-07	0	56	0	288358400	51	5360
2026-01-03 00:24:18.07	357.70	26.41	-40.6	-43.3	14.8	1.50e-06	0	56	0	290455552	51	5326
2026-01-03 00:24:19.08	357.55	26.56	-40.6	-43.4	14.6	0.00e+00	0	56	0	292552704	52	5073
2026-01-03 00:24:20.08	357.41	26.71	-40.5	-43.3	14.7	7.00e-07	0	56	0	294649856	52	5023
2026-01-03 00:24:21.09	357.26	26.86	-40.5	-43.3	14.7	0.00e+00	0	56	0	295698432	52	5028
2026-01-03 00:24:22.10	357.11	27.02	-40.5	-43.3	14.7	0.00e+00	0	56	0	297795584	52	5024
2026-01-03 00:24:23.11	356.96	27.17	-40.6	-43.4	14.6	0.00e+00	0	56	0	299892736	52	5068
2026-01-03 00:24:24.12	356.81	27.32	-40.6	-43.3	14.7	0.00e+00	0	56	0	301989888	52	5038
2026-01-03 00:24:25.13	356.66	27.48	-40.6	-43.3	14.7	7.00e-07	0	56	0	304087040	52	5036
2026-01-03 00:24:26.14	356.50	27.63	-40.5	-43.2	14.8	0.00e+00	0	56	0	305135616	52	4980
2026-01-03 00:24:27.15	356.35	27.78	-40.6	-43.3	14.7	0.00e+00	0	56	0	307232768	52	5037
2026-01-03 00:24:28.16	356.19	27.94	-40.4	-43.0	15.0	0.00e+00	0	56	0	309329920	52	4845
2026-01-03 00:24:29.17	356.03	28.10	-40.4	-43.0	15.1	0.00e+00	0	56	0	311427072	52	4839
2026-01-03 00:24:30.18	355.87	28.25	-40.4	-43.0	15.1	0.00e+00	0	56	0	313524224	52	4833
2026-01-03 00:24:31.19	355.71	28.41	-40.3	-42.9	15.2	0.00e+00	0	56	0	314572800	52	4785
2026-01-03 00:24:32.20	355.55	28.57	-40.3	-42.9	15.2	0.00e+00	0	56	0	316669952	52	4801
2026-01-03 00:24:33.21	355.38	28.73	-40.3	-42.9	15.2	0.00e+00	0	56	0	318767104	52	4783
2026-01-03 00:24:34.22	355.21	28.89	-40.3	-42.9	15.2	0.00e+00	0	56	0	320864256	52	4777
2026-01-03 00:24:35.23	355.04	29.05	-40.3	-43.0	15.1	7.00e-07	0	56	0	322961408	52	4822
2026-01-03 00:24:36.24	354.87	29.21	-40.2	-42.8	15.3	0.00e+00	0	56	0	324009984	52	4710
2026-01-03 00:24:37.25	354.70	29.37	-40.2	-42.7	15.4	0.00e+00	0	56	0	326107136	52	4696
2026-01-03 00:24:38.26	354.53	29.53	-40.2	-42.8	15.3	0.00e+00	0	56	0	328204288	52	4730
2026-01-03 00:24:39.27	354.35	29.69	-40.4	-43.0	15.1	0.00e+00	0	56	0	330301440	52	4855
2026-01-03 00:24:40.28	354.17	29.86	-40.4	-43.1	15.1	0.00e+00	0	56	0	332398592	52	4894
2026-01-03 00:24:41.29	353.99	30.02	-40.5	-43.2	14.9	0.00e+00	0	56	0	333447168	52	4961
2026-01-03 00:24:42.29	353.81	30.18	-40.4	-43.1	15.0	7.00e-07	0	56	0	335544320	52	4910
2026-01-03 00:24:43.30	353.63	30.35	-40.5	-43.2	14.9	7.00e-07	0	56	0	337641472	52	4938
2026-01-03 00:24:44.31	353.45	30.52	-40.5	-43.3	14.9	0.00e+00	0	56	0	339738624	52	4988
2026-01-03 00:24:45.32	353.26	30.68	-40.6	-43.4	14.7	0.00e+00	0	56	0	341835776	52	5053
2026-01-03 00:24:46.33	353.07	30.85	-40.8	-43.6	14.5	7.00e-07	0	56	0	342884352	52	5182
2026-01-03 00:24:47.34	352.88	31.02	-40.8	-43.7	14.4	0.00e+00	0	56	0	344981504	52	5231
2026-01-03 00:24:48.35	352.69	31.18	-40.7	-43.5	14.6	0.00e+00	0	57	0	347078656	52	5133
2026-01-03 00:24:49.36	352.49	31.35	-40.7	-43.6	14.5	0.00e+00	0	57	0	349175808	52	5166
2026-01-03 00:24:50.37	352.29	31.52	-40.8	-43.7	14.5	7.00e-07	0	56	0	351272960	52	5227
2026-01-03 00:24:51.38	352.09	31.69	-40.8	-43.6	14.5	2.20e-06	0	56	0	353370112	52	5199
2026-01-03 00:24:52.39	351.89	31.86	-40.9	-43.8	14.3	1.50e-06	0	56	0	354418688	52	5316
2026-01-03 00:24:53.40	351.69	32.03	-40.9	-43.9	14.2	7.00e-07	0	56	0	356515840	52	5360
2026-01-03 00:24:54.41	351.48	32.21	-40.9	-43.9	14.2	3.00e-06	0	56	0	358612992	52	5370
2026-01-03 00:24:55.41	351.28	32.38	-41.0	-44.0	14.1	1.50e-06	0	56	0	360710144	52	5414
2026-01-03 00:24:56.42	351.07	32.55	-41.0	-43.9	14.2	4.50e-06	0	56	0	362807296	52	5394
2026-01-03 00:24:57.43	350.85	32.72	-41.0	-43.9	14.2	3.00e-06	0	56	0	363855872	52	5362
2026-01-03 00:24:58.44	350.64	32.90	-41.0	-43.9	14.2	7.00e-07	0	56	0	365953024	52	5393
2026-01-03 00:24:59.45	350.42	33.07	-40.9	-43.9	14.3	1.50e-06	0	56	0	368050176	52	5354
2026-01-03 00:25:00.46	350.20	33.25	-41.1	-44.1	14.0	1.50e-06	0	56	0	370147328	52	5504
2026-01-03 00:25:01.47	349.98	33.42	-41.3	-44.4	13.7	6.10e-06	0	56	0	372244480	53	5385
2026-01-03 00:25:02.48	349.75	33.60	-41.3	-44.5	13.6	7.60e-06	0	56	0	373293056	53	5434
2026-01-03 00:25:03.49	349.53	33.78	-41.3	-44.5	13.6	1.60e-05	0	56	0	375390208	53	5453
2026-01-03 00:25:04.50	349.30	33.95	-41.4	-44.6	13.5	6.80e-06	0	56	0	377487360	53	5524
2026-01-03 00:25:05.51	349.06	34.13	-41.3	-44.4	13.7	5.30e-06	0	56	0	379584512	53	5377
2026-01-03 00:25:06.52	348.83	34.31	-41.2	-44.2	13.9	2.20e-06	0	56	0	381681664	53	5268
2026-01-03 00:25:07.53	348.59	34.49	-41.2	-44.4	13.8	5.30e-06	0	56	0	382730240	53	5343
2026-01-03 00:25:08.54	348.35	34.67	-41.1	-44.1	14.0	3.80e-06	0	56	0	384827392	53	5192
2026-01-03 00:25:09.55	348.11	34.84	-41.1	-44.1	14.0	1.50e-06	0	56	0	386924544	53	5194
2026-01-03 00:25:10.56	347.86	35.02	-41.0	-44.0	14.1	4.50e-06	0	56	0	389021696	53	5130
2026-01-03 00:25:11.57	347.62	35.20	-40.8	-43.7	14.5	7.00e-07	0	56	0	391118848	53	4945
2026-01-03 00:25:12.57	347.37	35.38	-40.9	-43.8	14.3	7.00e-07	0	56	0	392167424	53	5021
2026-01-03 00:25:13.58	347.11	35.56	-40.7	-43.4	14.7	1.50e-06	0	56	0	394264576	53	4811
2026-01-03 00:25:14.59	346.86	35.75	-40.7	-43.4	14.8	0.00e+00	0	56	0	396361728	53	4780
2026-01-03 00:25:15.60	346.60	35.93	-40.7	-43.5	14.7	0.00e+00	0	56	0	398458880	53	4836
2026-01-03 00:25:16.61	346.34	36.11	-40.8	-43.6	14.6	0.00e+00	0	56	0	400556032	53	4875
2026-01-03 00:25:17.62	346.07	36.29	-40.6	-43.4	14.8	0.00e+00	0	56	0	401604608	53	4761
2026-01-03 00:25:18.63	345.80	36.48	-40.5	-43.2	15.0	7.00e-07	0	56	0	403701760	53	4670
2026-01-03 00:25:19.64	345.53	36.66	-40.5	-43.2	15.0	0.00e+00	0	56	0	405798912	53	4680
2026-01-03 00:25:20.65	345.25	36.84	-40.4	-43.0	15.2	0.00e+00	0	56	0	407896064	52	4842
2026-01-03 00:25:21.66	344.98	37.03	-40.6	-43.3	14.9	7.00e-07	0	57	0	409993216	52	4998
2026-01-03 00:25:22.67	344.70	37.21	-40.5	-43.1	15.0	0.00e+00	0	56	0	411041792	52	4921
2026-01-03 00:25:23.68	344.41	37.39	-40.4	-43.0	15.2	0.00e+00	0	56	0	413138944	52	4825
2026-01-03 00:25:24.69	344.12	37.58	-40.5	-43.1	15.1	0.00e+00	0	57	0	415236096	52	4875
2026-01-03 00:25:25.70	343.83	37.76	-40.4	-42.9	15.3	0.00e+00	0	57	0	417333248	52	4803
2026-01-03 00:25:26.71	343.54	37.95	-40.6	-43.2	15.0	0.00e+00	0	57	0	419430400	52	4951
2026-01-03 00:25:27.72	343.24	38.13	-40.7	-43.5	14.8	0.00e+00	0	56	0	421527552	52	5120
2026-01-03 00:25:28.73	342.94	38.32	-41.0	-43.9	14.3	7.00e-07	0	57	0	422576128	52	5353
2026-01-03 00:25:29.74	342.64	38.50	-40.9	-43.8	14.4	3.00e-06	0	57	0	424673280	52	5281
2026-01-03 00:25:30.75	342.33	38.69	-40.9	-43.8	14.4	0.00e+00	0	56	0	426770432	52	5312
2026-01-03 00:25:31.76	342.02	38.87	-40.8	-43.6	14.6	3.00e-06	0	57	0	428867584	52	5178
2026-01-03 00:25:32.77	341.70	39.06	-40.8	-43.6	14.7	7.00e-07	0	57	0	430964736	52	5170
2026-01-03 00:25:33.78	341.38	39.24	-41.0	-43.9	14.4	0.00e+00	0	56	0	432013312	52	5347
2026-01-03 00:25:34.78	341.06	39.43	-41.1	-44.0	14.2	1.50e-06	0	57	0	434110464	52	5452
2026-01-03 00:25:35.79	340.74	39.61	-41.1	-44.0	14.1	7.00e-07	0	57	0	436207616	52	5458
2026-01-03 00:25:36.80	340.41	39.80	-41.0	-43.9	14.3	7.00e-07	0	57	0	438304768	52	5351
2026-01-03 00:25:37.81	340.07	39.98	-40.8	-43.6	14.6	1.50e-06	0	57	0	440401920	52	5194
2026-01-03 00:25:38.82	339.73	40.17	-40.8	-43.6	14.6	7.00e-07	0	56	0	441450496	52	5192
2026-01-03 00:25:39.83	339.39	40.35	-40.9	-43.7	14.6	7.00e-07	0	56	0	443547648	52	5246
2026-01-03 00:25:40.84	339.05	40.53	-41.0	-43.9	14.3	7.00e-07	0	56	0	445644800	52	5363
2026-01-03 00:25:41.85	338.70	40.72	-40.7	-43.4	14.9	0.00e+00	0	57	0	447741952	52	5056
2026-01-03 00:25:42.86	338.34	40.90	-40.5	-43.1	15.1	0.00e+00	0	57	0	449839104	52	4912
2026-01-03 00:25:43.87	337.99	41.09	-40.7	-43.4	14.9	0.00e+00	0	57	0	450887680	52	5061
2026-01-03 00:25:44.88	337.62	41.27	-41.2	-44.2	14.0	1.50e-06	0	57	0	452984832	53	5267
2026-01-03 00:25:45.89	337.26	41.45	-41.6	-44.9	13.3	8.30e-06	0	57	0	455081984	53	5709
2026-01-03 00:25:46.90	336.89	41.63	-41.7	-45.0	13.1	4.88e-05	0	57	0	457179136	54	5461
2026-01-03 00:25:47.91	336.51	41.82	-41.7	-45.0	13.2	2.82e-05	0	57	0	459276288	54	5444
2026-01-03 00:25:48.92	336.14	42.00	-41.4	-44.4	13.8	1.29e-05	0	57	0	460324864	54	5093
2026-01-03 00:25:49.93	335.75	42.18	-41.4	-44.6	13.6	5.30e-06	0	57	0	462422016	54	5201
2026-01-03 00:25:50.94	335.36	42.36	-41.4	-44.6	13.6	7.60e-06	0	57	0	464519168	54	5207
2026-01-03 00:25:51.95	334.97	42.54	-41.4	-44.6	13.6	6.10e-06	0	57	0	466616320	54	5208
2026-01-03 00:25:52.96	334.58	42.72	-41.2	-44.2	14.0	2.20e-06	0	57	0	468713472	54	4954
2026-01-03 00:25:53.97	334.18	42.90	-41.1	-44.0	14.2	3.80e-06	0	56	0	469762048	54	4867
2026-01-03 00:25:54.98	333.77	43.07	-41.3	-44.4	13.9	0.00e+00	0	57	0	471859200	54	5051
2026-01-03 00:25:55.99	333.36	43.25	-41.3	-44.3	13.9	7.60e-06	0	57	0	473956352	54	5039
2026-01-03 00:25:57.00	332.95	43.43	-41.4	-44.6	13.6	8.30e-06	0	57	0	476053504	54	5186
2026-01-03 00:25:58.01	332.53	43.60	-41.1	-44.0	14.2	5.30e-06	0	57	0	478150656	54	4851
2026-01-03 00:25:59.02	332.10	43.78	-40.7	-43.4	14.8	7.00e-07	0	57	0	479199232	53	4805
2026-01-03 00:26:00.02	331.68	43.95	-40.7	-43.5	14.8	0.00e+00	0	57	0	481296384	53	4816
2026-01-03 00:26:01.03	331.25	44.12	-40.8	-43.6	14.6	0.00e+00	0	57	0	483393536	53	4912
2026-01-03 00:26:02.04	330.81	44.29	-41.1	-43.9	14.2	7.00e-07	0	57	0	485490688	53	5100
2026-01-03 00:26:03.06	330.36	44.46	-41.2	-44.3	14.0	1.50e-06	0	57	0	487587840	53	5289
2026-01-03 00:26:04.06	329.92	44.63	-41.2	-44.2	14.0	6.10e-06	0	57	0	489684992	53	5251
2026-01-03 00:26:05.07	329.47	44.80	-40.8	-43.6	14.7	7.00e-07	0	57	0	490733568	53	4873
2026-01-03 00:26:06.08	329.01	44.96	-40.6	-43.2	15.1	0.00e+00	0	57	0	492830720	53	4660
2026-01-03 00:26:07.10	328.55	45.13	-40.3	-42.8	15.4	0.00e+00	0	57	0	494927872	52	4731
2026-01-03 00:26:08.10	328.09	45.29	-40.2	-42.6	15.7	0.00e+00	0	57	0	497025024	52	4618
2026-01-03 00:26:09.12	327.61	45.45	-40.3	-42.7	15.6	0.00e+00	0	57	0	499122176	52	4688
2026-01-03 00:26:10.13	327.13	45.61	-40.4	-42.9	15.4	0.00e+00	0	57	0	500170752	52	4767
2026-01-03 00:26:11.13	326.66	45.77	-40.2	-42.6	15.6	0.00e+00	0	57	0	502267904	52	4647
2026-01-03 00:26:12.14	326.17	45.93	-40.2	-42.7	15.6	0.00e+00	0	57	0	504365056	52	4666
2026-01-03 00:26:13.15	325.68	46.08	-40.3	-42.8	15.4	0.00e+00	0	57	0	506462208	52	4729
2026-01-03 00:26:14.16	325.19	46.24	-40.3	-42.8	15.5	0.00e+00	0	57	0	508559360	52	4733
2026-01-03 00:26:15.18	324.68	46.39	-40.3	-42.8	15.4	0.00e+00	0	57	0	509607936	52	4745
2026-01-03 00:26:16.19	324.18	46.54	-40.2	-42.7	15.6	0.00e+00	0	57	0	511705088	52	4665
2026-01-03 00:26:17.20	323.67	46.69	-40.1	-42.5	15.7	0.00e+00	0	57	0	513802240	52	4576
2026-01-03 00:26:18.20	323.16	46.83	-40.2	-42.7	15.6	0.00e+00	0	57	0	515899392	52	4652
2026-01-03 00:26:19.21	322.64	46.98	-40.1	-42.4	15.9	0.00e+00	0	57	0	517996544	51	4808
2026-01-03 00:26:20.22	322.11	47.12	-40.1	-42.4	15.8	0.00e+00	0	57	0	519045120	51	4812
2026-01-03 00:26:21.23	321.58	47.26	-40.0	-42.3	16.1	0.00e+00	0	57	0	521142272	51	4739
2026-01-03 00:26:22.24	321.05	47.39	-40.0	-42.4	16.0	0.00e+00	0	57	0	523239424	51	4765
2026-01-03 00:26:23.25	320.51	47.53	-40.1	-42.4	15.9	0.00e+00	0	57	0	525336576	51	4803
2026-01-03 00:26:24.26	319.97	47.66	-40.4	-42.8	15.5	0.00e+00	0	57	0	527433728	51	5037
2026-01-03 00:26:25.27	319.42	47.79	-40.7	-43.3	15.0	7.00e-07	0	57	0	528482304	51	5319
2026-01-03 00:26:26.28	318.86	47.92	-40.7	-43.4	14.8	0.00e+00	0	57	0	530579456	52	5071
2026-01-03 00:26:27.29	318.31	48.05	-40.8	-43.5	14.7	0.00e+00	0	57	0	532676608	52	5152
2026-01-03 00:26:28.30	317.75	48.17	-40.9	-43.7	14.6	0.00e+00	0	57	0	534773760	52	5235
2026-01-03 00:26:29.31	317.18	48.29	-41.0	-43.9	14.4	1.50e-06	0	57	0	536870912	52	5369
2026-01-03 00:26:30.32	316.61	48.40	-41.3	-44.3	13.9	7.00e-07	0	57	0	537919488	53	5330
2026-01-03 00:26:31.33	316.03	48.52	-41.7	-45.0	13.2	6.10e-06	0	57	0	540016640	53	5785
2026-01-03 00:26:32.34	315.45	48.63	-41.6	-44.9	13.3	1.90e-05	0	57	0	542113792	53	5670
2026-01-03 00:26:33.35	314.87	48.74	-41.6	-45.0	13.2	2.67e-05	0	57	0	544210944	53	5729
2026-01-03 00:26:34.36	314.28	48.85	-41.8	-45.2	12.9	2.82e-05	0	57	0	546308096	54	5587
2026-01-03 00:26:35.37	313.69	48.95	-41.9	-45.5	12.6	9.76e-05	0	57	0	547356672	54	5786
2026-01-03 00:26:36.38	313.10	49.05	-42.1	-45.9	12.3	1.73e-04	0	57	0	549453824	54	6008
2026-01-03 00:26:37.39	312.50	49.14	-42.0	-45.7	12.5	1.35e-04	0	57	0	551550976	54	5861
2026-01-03 00:26:38.40	311.89	49.24	-41.9	-45.5	12.6	6.86e-05	0	57	0	553648128	54	5747
2026-01-03 00:26:39.41	311.29	49.33	-41.7	-45.1	13.1	3.73e-05	0	57	0	555745280	54	5507
2026-01-03 00:26:40.42	310.68	49.41	-41.6	-44.8	13.3	2.28e-05	0	57	0	557842432	54	5338
2026-01-03 00:26:41.43	310.06	49.50	-41.3	-44.4	13.8	1.60e-05	0	57	0	558891008	54	5049
2026-01-03 00:26:42.44	309.45	49.58	-41.0	-43.9	14.3	3.00e-06	0	57	0	560988160	54	4785
2026-01-03 00:26:43.45	308.83	49.65	-41.1	-44.1	14.1	0.00e+00	0	57	0	563085312	53	5196
2026-01-03 00:26:44.45	308.21	49.73	-41.3	-44.4	13.8	1.50e-06	0	57	0	565182464	53	5391
2026-01-03 00:26:45.46	307.58	49.80	-41.5	-44.8	13.4	9.90e-06	0	57	0	567279616	53	5610
2026-01-03 00:26:46.47	306.95	49.86	-41.4	-44.6	13.6	8.30e-06	0	57	0	568328192	53	5472
2026-01-03 00:26:47.48	306.32	49.92	-41.4	-44.5	13.7	2.20e-06	0	57	0	570425344	53	5427
2026-01-03 00:26:48.49	305.69	49.98	-41.0	-43.9	14.3	2.20e-06	0	57	0	572522496	53	5043
2026-01-03 00:26:49.50	305.05	50.04	-40.6	-43.2	14.9	0.00e+00	0	57	0	574619648	53	4687
2026-01-03 00:26:50.51	304.41	50.09	-40.4	-42.9	15.3	0.00e+00	0	57	0	576716800	52	4785
2026-01-03 00:26:51.52	303.77	50.14	-39.9	-42.2	16.1	0.00e+00	0	57	0	577765376	51	4702
2026-01-03 00:26:52.53	303.13	50.18	-39.9	-42.2	16.1	0.00e+00	0	57	0	579862528	51	4680
2026-01-03 00:26:53.54	302.48	50.22	-40.0	-42.4	15.9	0.00e+00	0	57	0	581959680	51	4784
2026-01-03 00:26:54.55	301.84	50.26	-39.9	-42.3	16.1	0.00e+00	0	57	0	584056832	51	4716
2026-01-03 00:26:55.56	301.19	50.29	-39.7	-41.9	16.4	0.00e+00	0	57	0	586153984	51	4504
2026-01-03 00:26:56.57	300.54	50.32	-39.5	-41.7	16.6	0.00e+00	0	57	0	587202560	51	4392
2026-01-03 00:26:57.58	299.89	50.34	-39.4	-41.5	16.7	0.00e+00	0	57	0	589299712	50	4594
2026-01-03 00:26:58.59	299.24	50.36	-39.3	-41.4	16.9	0.00e+00	0	57	0	591396864	50	4518
2026-01-03 00:26:59.60	298.59	50.38	-39.5	-41.7	16.7	0.00e+00	0	57	0	593494016	50	4691
2026-01-03 00:27:00.61	297.93	50.39	-39.5	-41.6	16.7	0.00e+00	0	57	0	595591168	50	4633
2026-01-03 00:27:01.62	297.28	50.40	-39.5	-41.6	16.7	0.00e+00	0	57	0	596639744	50	4644
2026-01-03 00:27:02.62	296.63	50.41	-39.6	-41.7	16.6	0.00e+00	0	57	0	598736896	50	4696
2026-01-03 00:27:03.63	295.98	50.41	-39.5	-41.7	16.6	0.00e+00	0	57	0	600834048	50	4671
2026-01-03 00:27:04.64	295.33	50.40	-39.2	-41.2	17.1	0.00e+00	0	57	0	602931200	50	4423
2026-01-03 00:27:05.65	294.67	50.40	-38.8	-40.7	17.6	0.00e+00	0	57	0	605028352	49	4407
2026-01-03 00:27:06.66	294.02	50.39	-38.7	-40.6	17.7	0.00e+00	0	57	0	606076928	49	4357
2026-01-03 00:27:07.67	293.37	50.37	-38.8	-40.7	17.5	0.00e+00	0	57	0	608174080	49	4439
2026-01-03 00:27:08.68	292.71	50.35	-39.1	-41.1	17.3	0.00e+00	0	57	0	610271232	49	4607
2026-01-03 00:27:09.69	292.06	50.33	-39.5	-41.7	16.6	0.00e+00	0	57	0	612368384	49	4945
2026-01-03 00:27:10.70	291.41	50.30	-40.0	-42.4	15.9	0.00e+00	0	57	0	614465536	50	5053
2026-01-03 00:27:11.71	290.76	50.27	-40.1	-42.4	16.0	0.00e+00	0	57	0	615514112	50	5086
2026-01-03 00:27:12.72	290.12	50.24	-39.8	-42.1	16.2	0.00e+00	0	57	0	617611264	50	4874
2026-01-03 00:27:13.73	289.47	50.20	-39.6	-41.8	16.5	0.00e+00	0	57	0	619708416	50	4713
2026-01-03 00:27:14.74	288.83	50.16	-39.3	-41.4	16.8	0.00e+00	0	57	0	621805568	50	4505
2026-01-03 00:27:15.75	288.18	50.11	-39.5	-41.7	16.7	0.00e+00	0	57	0	623902720	50	4674
2026-01-03 00:27:16.76	287.54	50.06	-39.8	-42.0	16.3	0.00e+00	0	57	0	625999872	50	4854
2026-01-03 00:27:17.77	286.90	50.01	-39.9	-42.2	16.2	0.00e+00	0	57	0	627048448	50	4932
2026-01-03 00:27:18.78	286.27	49.95	-39.8	-42.1	16.2	0.00e+00	0	57	0	629145600	50	4874
2026-01-03 00:27:19.79	285.64	49.89	-39.8	-42.0	16.3	0.00e+00	0	57	0	631242752	50	4850
2026-01-03 00:27:20.80	285.00	49.83	-39.8	-42.1	16.1	0.00e+00	0	57	0	633339904	50	4917
2026-01-03 00:27:21.81	284.38	49.76	-39.8	-42.1	16.2	0.00e+00	0	57	0	635437056	50	4906
2026-01-03 00:27:22.82	283.75	49.69	-39.8	-42.1	16.2	0.00e+00	0	57	0	636485632	50	4884
2026-01-03 00:27:23.83	283.13	49.61	-39.6	-41.8	16.5	0.00e+00	0	57	0	638582784	50	4739
2026-01-03 00:27:24.84	282.51	49.54	-39.7	-41.9	16.4	0.00e+00	0	57	0	640679936	50	4778
2026-01-03 00:27:25.85	281.89	49.45	-39.8	-42.0	16.2	0.00e+00	0	57	0	642777088	50	4857
2026-01-03 00:27:26.86	281.28	49.37	-40.0	-42.4	15.9	0.00e+00	0	57	0	644874240	50	5055
2026-01-03 00:27:27.87	280.67	49.28	-40.1	-42.6	15.7	0.00e+00	0	57	0	645922816	50	5161
2026-01-03 00:27:28.88	280.07	49.19	-40.1	-42.5	15.8	0.00e+00	0	57	0	648019968	50	5115
2026-01-03 00:27:29.89	279.46	49.09	-40.2	-42.6	15.7	0.00e+00	0	57	0	650117120	50	5176
2026-01-03 00:27:30.89	278.87	49.00	-40.3	-42.8	15.6	0.00e+00	0	57	0	652214272	51	4985
2026-01-03 00:27:31.90	278.28	48.89	-40.2	-42.6	15.7	0.00e+00	0	57	0	654311424	51	4881
2026-01-03 00:27:32.91	277.69	48.79	-40.0	-42.3	15.9	0.00e+00	0	57	0	655360000	51	4754
2026-01-03 00:27:33.92	277.10	48.68	-40.1	-42.4	15.9	0.00e+00	0	57	0	657457152	51	4792
2026-01-03 00:27:34.93	276.52	48.57	-40.3	-42.8	15.5	0.00e+00	0	57	0	659554304	51	5016
2026-01-03 00:27:35.94	275.94	48.46	-40.7	-43.4	14.8	7.00e-07	0	57	0	661651456	51	5368
2026-01-03 00:27:36.95	275.37	48.34	-40.9	-43.7	14.4	0.00e+00	0	57	0	663748608	52	5260
2026-01-03 00:27:37.96	274.80	48.22	-41.0	-44.0	14.1	3.00e-06	0	57	0	664797184	52	5432
2026-01-03 00:27:38.97	274.23	48.10	-40.8	-43.6	14.5	7.00e-07	0	57	0	666894336	52	5202
2026-01-03 00:27:39.98	273.67	47.98	-40.7	-43.4	14.8	7.00e-07	0	57	0	668991488	52	5050
2026-01-03 00:27:40.99	273.12	47.85	-40.6	-43.3	14.9	0.00e+00	0	57	0	671088640	52	4993
2026-01-03 00:27:42.00	272.57	47.72	-40.6	-43.3	14.8	7.00e-07	0	57	0	673185792	52	5033
2026-01-03 00:27:43.01	272.02	47.59	-40.7	-43.3	14.8	0.00e+00	0	57	0	674234368	52	5040
2026-01-03 00:27:44.02	271.48	47.46	-40.8	-43.6	14.5	0.00e+00	0	57	0	676331520	52	5176
2026-01-03 00:27:45.03	270.94	47.32	-40.8	-43.6	14.5	7.00e-07	0	57	0	678428672	52	5217
2026-01-03 00:27:46.04	270.41	47.18	-40.8	-43.6	14.6	7.00e-07	0	57	0	680525824	52	5183
2026-01-03 00:27:47.05	269.88	47.04	-40.8	-43.6	14.5	7.00e-07	0	57	0	682622976	52	5202
2026-01-03 00:27:48.06	269.36	46.90	-40.8	-43.7	14.5	7.00e-07	0	57	0	683671552	52	5220
2026-01-03 00:27:49.06	268.84	46.75	-40.9	-43.8	14.4	0.00e+00	0	57	0	685768704	52	5294
2026-01-03 00:27:50.07	268.33	46.61	-40.7	-43.4	14.8	0.00e+00	0	57	0	687865856	52	5066
2026-01-03 00:27:51.08	267.82	46.46	-40.3	-42.9	15.3	0.00e+00	0	57	0	689963008	52	4767
2026-01-03 00:27:52.09	267.32	46.31	-40.1	-42.6	15.6	0.00e+00	0	57	0	692060160	52	4602
2026-01-03 00:27:53.10	266.82	46.15	-40.0	-42.3	15.9	0.00e+00	0	57	0	694157312	51	4734
2026-01-03 00:27:54.12	266.32	46.00	-39.7	-41.9	16.3	0.00e+00	0	57	0	695205888	51	4518
2026-01-03 00:27:55.13	265.83	45.84	-39.7	-42.0	16.3	0.00e+00	0	57	0	697303040	51	4559
2026-01-03 00:27:56.14	265.35	45.68	-40.0	-42.4	15.9	0.00e+00	0	57	0	699400192	51	4761
2026-01-03 00:27:57.15	264.87	45.52	-40.2	-42.7	15.7	0.00e+00	0	57	0	701497344	51	4951
2026-01-03 00:27:58.16	264.39	45.36	-40.4	-42.9	15.3	0.00e+00	0	57	0	703594496	51	5078
2026-01-03 00:27:59.17	263.92	45.20	-40.2	-42.7	15.6	0.00e+00	0	57	0	704643072	51	4957
2026-01-03 00:28:00.18	263.46	45.03	-39.8	-42.1	16.3	0.00e+00	0	57	0	706740224	51	4621
2026-01-03 00:28:01.19	263.00	44.87	-39.4	-41.5	16.7	0.00e+00	0	57	0	708837376	50	4595
2026-01-03 00:28:02.20	262.54	44.70	-39.2	-41.3	17.0	0.00e+00	0	57	0	710934528	50	4460
2026-01-03 00:28:03.21	262.09	44.53	-39.0	-41.0	17.3	0.00e+00	0	57	0	713031680	50	4321
2026-01-03 00:28:04.22	261.65	44.36	-39.2	-41.3	17.0	0.00e+00	0	57	0	714080256	50	4464
2026-01-03 00:28:05.23	261.21	44.19	-39.4	-41.6	16.7	0.00e+00	0	57	0	716177408	50	4603
2026-01-03 00:28:06.24	260.77	44.02	-39.8	-42.0	16.3	0.00e+00	0	57	0	718274560	50	4858
2026-01-03 00:28:07.24	260.34	43.85	-39.7	-42.0	16.3	0.00e+00	0	57	0	720371712	50	4828
2026-01-03 00:28:08.25	259.91	43.67	-39.6	-41.8	16.5	0.00e+00	0	57	0	722468864	50	4744
2026-01-03 00:28:09.26	259.49	43.50	-39.4	-41.5	16.7	0.00e+00	0	57	0	723517440	50	4569
2026-01-03 00:28:10.27	259.08	43.32	-39.3	-41.4	16.9	0.00e+00	0	57	0	725614592	50	4517
2026-01-03 00:28:11.28	258.66	43.14	-39.3	-41.4	16.8	0.00e+00	0	57	0	727711744	50	4531
2026-01-03 00:28:12.29	258.25	42.97	-39.4	-41.6	16.6	0.00e+00	0	57	0	729808896	50	4603
2026-01-03 00:28:13.30	257.85	42.79	-39.5	-41.7	16.5	0.00e+00	0	57	0	731906048	50	4687
2026-01-03 00:28:14.31	257.45	42.61	-39.6	-41.9	16.4	0.00e+00	0	57	0	732954624	50	4778
2026-01-03 00:28:15.32	257.06	42.43	-39.8	-42.1	16.1	0.00e+00	0	57	0	735051776	50	4922
2026-01-03 00:28:16.33	256.66	42.25	-40.0	-42.4	15.9	0.00e+00	0	57	0	737148928	50	5053
2026-01-03 00:28:17.34	256.28	42.07	-39.8	-42.2	16.1	0.00e+00	0	57	0	739246080	50	4937
2026-01-03 00:28:18.35	255.90	41.88	-39.5	-41.7	16.5	0.00e+00	0	57	0	741343232	50	4699
2026-01-03 00:28:19.36	255.52	41.70	-39.3	-41.4	16.8	0.00e+00	0	57	0	742391808	50	4534
2026-01-03 00:28:20.37	255.15	41.52	-39.1	-41.2	17.1	0.00e+00	0	57	0	744488960	50	4403
2026-01-03 00:28:21.38	254.78	41.34	-39.0	-40.9	17.3	0.00e+00	0	57	0	746586112	49	4530
2026-01-03 00:28:22.39	254.41	41.15	-39.1	-41.1	17.2	0.00e+00	0	57	0	748683264	49	4606
2026-01-03 00:28:23.40	254.05	40.97	-39.4	-41.6	16.7	0.00e+00	0	57	0	750780416	49	4887
2026-01-03 00:28:24.41	253.70	40.78	-39.7	-42.0	16.3	0.00e+00	0	57	0	751828992	50	4845
2026-01-03 00:28:25.42	253.34	40.60	-39.7	-42.0	16.3	0.00e+00	0	57	0	753926144	50	4823
2026-01-03 00:28:26.43	252.99	40.41	-39.4	-41.5	16.7	0.00e+00	0	57	0	756023296	50	4582
2026-01-03 00:28:27.44	252.65	40.23	-39.2	-41.3	17.0	0.00e+00	0	57	0	758120448	50	4452
2026-01-03 00:28:28.45	252.31	40.04	-39.1	-41.2	17.1	0.00e+00	0	57	0	760217600	50	4396
2026-01-03 00:28:29.46	251.97	39.86	-39.4	-41.5	16.8	0.00e+00	0	57	0	762314752	50	4586
2026-01-03 00:28:30.47	251.64	39.67	-39.5	-41.7	16.6	0.00e+00	0	57	0	763363328	50	4679
2026-01-03 00:28:31.48	251.31	39.49	-39.7	-42.0	16.3	0.00e+00	0	57	0	765460480	50	4824
2026-01-03 00:28:32.49	250.98	39.30	-40.0	-42.3	16.0	0.00e+00	0	57	0	767557632	50	5014
2026-01-03 00:28:33.50	250.66	39.12	-40.1	-42.5	15.8	0.00e+00	0	57	0	769654784	50	5117
2026-01-03 00:28:34.51	250.35	38.93	-40.0	-42.4	15.8	0.00e+00	0	57	0	771751936	50	5085
2026-01-03 00:28:35.52	250.03	38.74	-40.0	-42.4	15.9	0.00e+00	0	57	0	772800512	50	5069
2026-01-03 00:28:36.53	249.72	38.56	-40.0	-42.4	15.8	0.00e+00	0	57	0	774897664	50	5073
2026-01-03 00:28:37.54	249.41	38.37	-40.2	-42.7	15.5	0.00e+00	0	57	0	776994816	51	4977
2026-01-03 00:28:38.55	249.11	38.19	-40.2	-42.7	15.5	0.00e+00	0	57	0	779091968	51	4971
2026-01-03 00:28:39.56	248.81	38.00	-40.2	-42.7	15.6	0.00e+00	0	57	0	781189120	51	4932
2026-01-03 00:28:40.57	248.51	37.81	-40.2	-42.7	15.5	0.00e+00	0	57	0	782237696	51	4940
2026-01-03 00:28:41.57	248.22	37.63	-40.3	-42.8	15.4	0.00e+00	0	57	0	784334848	51	5028
2026-01-03 00:28:42.58	247.93	37.45	-40.6	-43.2	15.0	0.00e+00	0	57	0	786432000	51	5279
2026-01-03 00:28:43.59	247.64	37.26	-40.8	-43.7	14.4	0.00e+00	0	57	0	788529152	52	5234
2026-01-03 00:28:44.60	247.36	37.08	-40.9	-43.9	14.3	0.00e+00	0	57	0	790626304	52	5353
2026-01-03 00:28:45.61	247.08	36.89	-41.0	-44.0	14.1	3.00e-06	0	57	0	791674880	52	5422
2026-01-03 00:28:46.62	246.80	36.71	-41.0	-43.9	14.2	2.20e-06	0	57	0	793772032	52	5383
2026-01-03 00:28:47.63	246.53	36.52	-41.0	-44.0	14.1	1.50e-06	0	57	0	795869184	52	5440
2026-01-03 00:28:48.64	246.26	36.34	-41.0	-44.0	14.2	7.00e-07	0	57	0	797966336	52	5409
2026-01-03 00:28:49.65	245.99	36.16	-40.9	-43.8	14.4	7.00e-07	0	57	0	800063488	52	5286
2026-01-03 00:28:50.66	245.73	35.97	-40.9	-43.8	14.3	1.50e-06	0	57	0	801112064	52	5340
2026-01-03 00:28:51.66	245.47	35.79	-41.1	-44.2	13.9	7.00e-07	0	57	0	803209216	52	5556
2026-01-03 00:28:52.67	245.21	35.61	-41.2	-44.3	13.8	6.10e-06	0	57	0	805306368	53	5330
2026-01-03 00:28:53.69	244.95	35.43	-41.4	-44.5	13.6	1.37e-05	0	57	0	807403520	53	5463
2026-01-03 00:28:54.69	244.70	35.25	-41.3	-44.5	13.6	1.22e-05	0	57	0	809500672	53	5419
2026-01-03 00:28:55.70	244.45	35.07	-41.2	-44.3	13.8	6.10e-06	0	57	0	810549248	53	5315
2026-01-03 00:28:56.71	244.20	34.88	-41.1	-44.2	13.9	4.50e-06	0	57	0	812646400	53	5220
2026-01-03 00:28:57.72	243.96	34.70	-41.1	-44.2	13.9	4.50e-06	0	57	0	814743552	53	5229
2026-01-03 00:28:58.73	243.71	34.52	-41.0	-43.9	14.2	7.00e-07	0	57	0	816840704	53	5093
2026-01-03 00:28:59.74	243.47	34.34	-41.0	-43.9	14.2	2.20e-06	0	57	0	818937856	53	5067
2026-01-03 00:29:00.75	243.24	34.17	-41.0	-44.0	14.1	2.20e-06	0	57	0	819986432	53	5140
2026-01-03 00:29:01.76	243.00	33.99	-41.2	-44.3	13.7	3.80e-06	0	57	0	822083584	53	5334
2026-01-03 00:29:02.77	242.77	33.81	-41.4	-44.7	13.4	7.60e-06	0	57	0	824180736	53	5549
2026-01-03 00:29:03.78	242.54	33.63	-41.5	-44.8	13.2	1.60e-05	0	57	0	826277888	53	5635
2026-01-03 00:29:04.79	242.32	33.45	-41.5	-44.8	13.3	1.98e-05	0	57	0	828375040	53	5596
2026-01-03 00:29:05.80	242.09	33.28	-41.5	-44.8	13.3	2.28e-05	0	57	0	830472192	53	5604
2026-01-03 00:29:06.81	241.87	33.10	-41.3	-44.6	13.4	1.75e-05	0	57	0	831520768	53	5475
2026-01-03 00:29:07.82	241.65	32.93	-41.3	-44.6	13.5	1.75e-05	0	57	0	833617920	53	5473
2026-01-03 00:29:08.83	241.43	32.75	-41.1	-44.2	13.9	6.80e-06	0	57	0	835715072	53	5242
2026-01-03 00:29:09.84	241.22	32.58	-41.1	-44.1	13.9	0.00e+00	0	57	0	837812224	53	5210
2026-01-03 00:29:10.85	241.01	32.40	-41.1	-44.1	14.0	7.00e-07	0	57	0	839909376	53	5177
2026-01-03 00:29:11.86	240.80	32.23	-41.0	-44.0	14.1	1.50e-06	0	57	0	840957952	53	5125
2026-01-03 00:29:12.86	240.59	32.06	-41.0	-44.0	14.1	1.50e-06	0	57	0	843055104	53	5155
2026-01-03 00:29:13.87	240.38	31.89	-41.2	-44.3	13.8	3.00e-06	0	57	0	845152256	53	5304
2026-01-03 00:29:14.88	240.18	31.72	-41.2	-44.3	13.8	6.80e-06	0	57	0	847249408	53	5315
2026-01-03 00:29:15.89	239.98	31.55	-41.3	-44.5	13.5	7.60e-06	0	57	0	849346560	53	5442
2026-01-03 00:29:16.90	239.78	31.37	-41.3	-44.5	13.6	9.90e-06	0	57	0	850395136	53	5428
2026-01-03 00:29:17.91	239.58	31.20	-41.3	-44.4	13.7	1.06e-05	0	57	0	852492288	53	5375
2026-01-03 00:29:18.92	239.39	31.04	-41.1	-44.2	13.9	2.20e-06	0	57	0	854589440	53	5235
2026-01-03 00:29:19.93	239.20	30.87	-41.1	-44.2	13.9	3.00e-06	0	57	0	856686592	53	5259
2026-01-03 00:29:20.94	239.00	30.70	-41.2	-44.3	13.8	3.80e-06	0	57	0	858783744	53	5303
2026-01-03 00:29:21.96	238.81	30.53	-41.3	-44.4	13.6	9.10e-06	0	57	0	859832320	53	5391
2026-01-03 00:29:22.97	238.63	30.36	-41.2	-44.3	13.8	9.10e-06	0	57	0	861929472	53	5295
2026-01-03 00:29:23.98	238.44	30.20	-41.1	-44.2	13.9	2.20e-06	0	57	0	864026624	53	5222
2026-01-03 00:29:24.98	238.26	30.03	-40.9	-43.7	14.3	1.50e-06	0	57	0	866123776	53	4981
2026-01-03 00:29:25.99	238.08	29.87	-40.6	-43.4	14.7	0.00e+00	0	57	0	868220928	53	4764
2026-01-03 00:29:27.00	237.90	29.70	-40.4	-43.1	15.0	0.00e+00	0	57	0	869269504	52	4901
2026-01-03 00:29:28.01	237.72	29.54	-40.4	-43.1	15.0	0.00e+00	0	57	0	871366656	52	4887
2026-01-03 00:29:29.02	237.55	29.38	-40.5	-43.2	14.9	0.00e+00	0	57	0	873463808	52	4954
2026-01-03 00:29:30.03	237.37	29.22	-40.6	-43.3	14.8	0.00e+00	0	57	0	875560960	52	4995
2026-01-03 00:29:31.04	237.20	29.05	-40.6	-43.4	14.7	0.00e+00	0	57	0	877658112	52	5051
2026-01-03 00:29:32.05	237.03	28.89	-40.6	-43.4	14.7	7.00e-07	0	57	0	878706688	52	5064
2026-01-03 00:29:33.06	236.86	28.73	-40.6	-43.3	14.8	0.00e+00	0	57	0	880803840	52	5025
2026-01-03 00:29:34.07	236.69	28.57	-40.6	-43.3	14.8	7.00e-07	0	57	0	882900992	52	5000
2026-01-03 00:29:35.08	236.53	28.41	-40.5	-43.3	14.8	0.00e+00	0	57	0	884998144	52	4995
2026-01-03 00:29:36.09	236.37	28.25	-40.5	-43.2	14.9	7.00e-07	0	57	0	887095296	52	4949
2026-01-03 00:29:37.10	236.20	28.10	-40.4	-43.0	15.0	0.00e+00	0	57	0	888143872	52	4848
2026-01-03 00:29:38.10	236.04	27.94	-40.3	-42.8	15.2	0.00e+00	0	57	0	890241024	52	4753
2026-01-03 00:29:39.11	235.89	27.78	-40.2	-42.7	15.4	0.00e+00	0	57	0	892338176	52	4683
2026-01-03 00:29:40.12	235.73	27.63	-40.1	-42.6	15.5	0.00e+00	0	57	0	894435328	52	4625
2026-01-03 00:29:41.13	235.57	27.47	-40.1	-42.6	15.5	0.00e+00	0	57	0	896532480	52	4625
2026-01-03 00:29:42.14	235.42	27.32	-40.2	-42.8	15.3	0.00e+00	0	57	0	898629632	52	4709
2026-01-03 00:29:43.15	235.27	27.16	-40.2	-42.7	15.4	0.00e+00	0	57	0	899678208	52	4678
2026-01-03 00:29:44.16	235.11	27.01	-40.2	-42.7	15.4	0.00e+00	0	57	0	901775360	52	4667
2026-01-03 00:29:45.17	234.96	26.86	-40.2	-42.7	15.3	0.00e+00	0	57	0	903872512	52	4689
2026-01-03 00:29:46.18	234.82	26.71	-40.1	-42.6	15.4	0.00e+00	0	57	0	905969664	52	4631
2026-01-03 00:29:47.19	234.67	26.55	-40.0	-42.4	15.7	0.00e+00	0	57	0	908066816	51	4776
2026-01-03 00:29:48.20	234.52	26.40	-40.0	-42.4	15.7	0.00e+00	0	57	0	909115392	51	4798
2026-01-03 00:29:49.21	234.38	26.25	-40.0	-42.4	15.7	0.00e+00	0	57	0	911212544	51	4773
2026-01-03 00:29:50.22	234.24	26.10	-40.0	-42.4	15.7	0.00e+00	0	57	0	913309696	51	4790
2026-01-03 00:29:51.23	234.10	25.96	-40.0	-42.4	15.7	0.00e+00	0	57	0	915406848	51	4795
2026-01-03 00:29:52.24	233.96	25.81	-40.2	-42.7	15.5	0.00e+00	0	57	0	916455424	51	4958
2026-01-03 00:29:53.24	233.82	25.66	-40.3	-42.8	15.3	0.00e+00	0	57	0	918552576	51	5018
2026-01-03 00:29:54.25	233.68	25.51	-40.4	-43.0	15.1	0.00e+00	0	57	0	920649728	51	5126
2026-01-03 00:29:55.26	233.55	25.37	-40.4	-43.1	15.0	0.00e+00	0	57	0	922746880	51	5164
2026-01-03 00:29:56.27	233.41	25.22	-40.4	-43.0	15.1	0.00e+00	0	57	0	924844032	51	5156
2026-01-03 00:29:57.28	233.28	25.08	-40.4	-43.0	15.1	0.00e+00	0	57	0	926941184	51	5128
2026-01-03 00:29:58.29	233.14	24.93	-40.3	-42.9	15.2	7.00e-07	0	57	0	927989760	51	5049
2026-01-03 00:29:59.30	233.01	24.79	-40.2	-42.7	15.4	0.00e+00	0	57	0	930086912	51	4948
2026-01-03 00:30:00.31	232.88	24.64	-40.0	-42.5	15.6	0.00e+00	0	57	0	932184064	51	4827
2026-01-03 00:30:01.32	232.75	24.50	-40.0	-42.4	15.7	0.00e+00	0	57	0	934281216	51	4783
2026-01-03 00:30:02.33	232.63	24.36	-39.9	-42.3	15.8	0.00e+00	0	57	0	936378368	51	4706
2026-01-03 00:30:03.34	232.50	24.22	-39.8	-42.1	16.0	0.00e+00	0	57	0	937426944	51	4632
2026-01-03 00:30:04.35	232.38	24.08	-39.8	-42.1	16.0	0.00e+00	0	57	0	939524096	51	4615
2026-01-03 00:30:05.36	232.25	23.94	-39.8	-42.2	15.9	0.00e+00	0	57	0	941621248	51	4679
2026-01-03 00:30:06.38	232.13	23.80	-39.8	-42.1	16.0	0.00e+00	0	57	0	943718400	51	4634
2026-01-03 00:30:07.39	232.00	23.66	-39.8	-42.2	15.9	0.00e+00	0	57	0	945815552	51	4670
2026-01-03 00:30:08.40	231.88	23.52	-39.8	-42.2	15.9	0.00e+00	0	57	0	946864128	51	4652
2026-01-03 00:30:09.40	231.77	23.38	-39.9	-42.3	15.8	0.00e+00	0	57	0	948961280	51	4709
2026-01-03 00:30:10.41	231.65	23.24	-39.9	-42.3	15.7	0.00e+00	0	57	0	951058432	51	4753
2026-01-03 00:30:11.42	231.53	23.11	-39.9	-42.4	15.7	0.00e+00	0	57	0	953155584	51	4776
2026-01-03 00:30:12.43	231.41	22.97	-39.9	-42.3	15.7	0.00e+00	0	57	0	955252736	51	4748
2026-01-03 00:30:13.44	231.30	22.84	-39.8	-42.1	15.9	0.00e+00	0	57	0	956301312	51	4643
2026-01-03 00:30:14.45	231.18	22.70	-39.7	-42.0	16.1	0.00e+00	0	57	0	958398464	51	4583
2026-01-03 00:30:15.46	231.07	22.57	-39.6	-41.9	16.1	0.00e+00	0	57	0	960495616	51	4545
2026-01-03 00:30:16.47	230.96	22.43	-39.6	-41.9	16.2	0.00e+00	0	57	0	962592768	51	4522
2026-01-03 00:30:17.48	230.85	22.30	-39.6	-41.9	16.2	0.00e+00	0	57	0	964689920	51	4509
2026-01-03 00:30:18.49	230.73	22.17	-39.6	-41.9	16.2	0.00e+00	0	57	0	966787072	51	4502
2026-01-03 00:30:19.50	230.63	22.04	-39.8	-42.1	16.0	0.00e+00	0	57	0	967835648	51	4630
2026-01-03 00:30:20.51	230.52	21.90	-39.7	-42.1	16.0	0.00e+00	0	57	0	969932800	51	4603
2026-01-03 00:30:21.51	230.41	21.77	-39.8	-42.2	15.8	0.00e+00	0	57	0	972029952	51	4699
2026-01-03 00:30:22.52	230.30	21.64	-39.8	-42.2	15.8	0.00e+00	0	57	0	974127104	51	4685
2026-01-03 00:30:23.53	230.20	21.51	-39.8	-42.2	15.9	0.00e+00	0	57	0	975175680	51	4658
2026-01-03 00:30:24.54	230.09	21.39	-39.8	-42.2	15.8	0.00e+00	0	57	0	977272832	51	4698
2026-01-03 00:30:25.55	229.99	21.26	-39.8	-42.2	15.9	0.00e+00	0	57	0	979369984	51	4652
2026-01-03 00:30:26.56	229.88	21.13	-39.8	-42.1	15.9	0.00e+00	0	57	0	981467136	51	4636
2026-01-03 00:30:27.57	229.78	21.00	-39.8	-42.1	15.9	0.00e+00	0	57	0	983564288	51	4646
2026-01-03 00:30:28.58	229.68	20.87	-39.7	-42.1	16.0	0.00e+00	0	57	0	984612864	51	4611
2026-01-03 00:30:29.59	229.58	20.75	-39.7	-42.0	16.0	0.00e+00	0	57	0	986710016	51	4576
2026-01-03 00:30:30.60	229.48	20.62	-39.7	-42.0	16.0	0.00e+00	0	57	0	988807168	51	4580
2026-01-03 00:30:31.61	229.38	20.50	-39.7	-42.0	16.0	0.00e+00	0	57	0	990904320	51	4588
2026-01-03 00:30:32.62	229.28	20.37	-39.8	-42.2	15.9	0.00e+00	0	57	0	993001472	51	4669
2026-01-03 00:30:33.63	229.19	20.25	-39.8	-42.1	15.9	0.00e+00	0	57	0	995098624	51	4644
2026-01-03 00:30:34.64	229.09	20.12	-39.7	-42.1	15.9	0.00e+00	0	57	0	996147200	51	4621
2026-01-03 00:30:35.65	228.99	20.00	-39.8	-42.2	15.9	0.00e+00	0	57	0	998244352	51	4665
2026-01-03 00:30:36.66	228.90	19.88	-39.8	-42.1	15.9	0.00e+00	0	57	0	1000341504	51	4639
2026-01-03 00:30:37.67	228.80	19.75	-39.8	-42.2	15.8	0.00e+00	0	57	0	1002438656	51	4685
2026-01-03 00:30:38.68	228.71	19.63	-39.8	-42.2	15.8	0.00e+00	0	57	0	1004535808	51	4685
2026-01-03 00:30:39.69	228.62	19.51	-39.8	-42.2	15.8	0.00e+00	0	57	0	1005584384	51	4670
2026-01-03 00:30:40.70	228.53	19.39	-39.8	-42.2	15.8	0.00e+00	0	57	0	1007681536	51	4676
2026-01-03 00:30:41.71	228.44	19.27	-39.8	-42.2	15.8	0.00e+00	0	57	0	1009778688	51	4664
2026-01-03 00:30:42.72	228.34	19.15	-39.9	-42.3	15.7	0.00e+00	0	57	0	1011875840	51	4718
2026-01-03 00:30:43.73	228.26	19.03	-39.7	-42.0	16.0	0.00e+00	0	57	0	1013972992	51	4572
2026-01-03 00:30:44.74	228.17	18.91	-39.7	-42.1	16.0	0.00e+00	0	57	0	1015021568	51	4607
2026-01-03 00:30:45.75	228.08	18.80	-39.7	-42.0	16.0	0.00e+00	0	57	0	1017118720	51	4573
2026-01-03 00:30:46.76	227.99	18.68	-39.7	-42.1	15.9	0.00e+00	0	57	0	1019215872	51	4616
2026-01-03 00:30:47.77	227.90	18.56	-39.7	-42.1	15.9	0.00e+00	0	57	0	1021313024	51	4605
2026-01-03 00:30:48.78	227.82	18.44	-39.7	-42.1	15.9	0.00e+00	0	57	0	1023410176	51	4621
2026-01-03 00:30:49.79	227.73	18.33	-39.8	-42.2	15.8	0.00e+00	0	57	0	1024458752	51	4654
2026-01-03 00:30:50.79	227.65	18.21	-39.9	-42.3	15.7	0.00e+00	0	57	0	1026555904	51	4721
2026-01-03 00:30:51.80	227.56	18.10	-39.9	-42.3	15.7	0.00e+00	0	57	0	1028653056	51	4743
2026-01-03 00:30:52.81	227.48	17.98	-40.0	-42.5	15.5	0.00e+00	0	57	0	1030750208	51	4837
2026-01-03 00:30:53.82	227.40	17.87	-40.1	-42.6	15.3	0.00e+00	0	57	0	1032847360	51	4915
2026-01-03 00:30:54.83	227.31	17.75	-40.2	-42.8	15.2	0.00e+00	0	57	0	1033895936	51	4999
2026-01-03 00:30:55.84	227.23	17.64	-40.2	-42.8	15.1	0.00e+00	0	57	0	1035993088	51	5032
2026-01-03 00:30:56.85	227.15	17.53	-40.3	-42.9	15.0	0.00e+00	0	57	0	1038090240	51	5076
2026-01-03 00:30:57.86	227.07	17.42	-40.3	-42.9	15.0	0.00e+00	0	57	0	1040187392	51	5080
2026-01-03 00:30:58.87	226.99	17.30	-40.3	-42.9	15.0	0.00e+00	0	57	0	1042284544	51	5075
2026-01-03 00:30:59.88	226.91	17.19	-40.3	-43.0	14.9	0.00e+00	0	57	0	1043333120	51	5132
2026-01-03 00:31:00.88	226.83	17.08	-40.3	-43.0	15.0	1.50e-06	0	57	0	1045430272	51	5104
2026-01-03 00:31:01.89	226.76	16.97	-40.3	-42.9	15.0	0.00e+00	0	57	0	1047527424	51	5066
2026-01-03 00:31:02.90	226.68	16.86	-40.3	-42.9	15.0	0.00e+00	0	57	0	1049624576	51	5076
2026-01-03 00:31:03.92	226.60	16.75	-40.2	-42.8	15.1	0.00e+00	0	57	0	1051721728	51	5016
2026-01-03 00:31:04.92	226.53	16.64	-40.1	-42.7	15.2	0.00e+00	0	57	0	1052770304	51	4954
2026-01-03 00:31:05.93	226.45	16.53	-40.2	-42.8	15.2	0.00e+00	0	57	0	1054867456	51	5005
2026-01-03 00:31:06.94	226.38	16.42	-40.0	-42.4	15.5	0.00e+00	0	57	0	1056964608	51	4801
2026-01-03 00:31:07.95	226.30	16.32	-40.1	-42.6	15.3	0.00e+00	0	57	0	1059061760	51	4921
2026-01-03 00:31:08.96	226.23	16.21	-40.1	-42.7	15.2	0.00e+00	0	57	0	1061158912	51	4951
2026-01-03 00:31:09.97	226.15	16.10	-40.2	-42.7	15.2	0.00e+00	0	57	0	1063256064	51	4981
2026-01-03 00:31:10.98	226.08	15.99	-40.2	-42.8	15.1	0.00e+00	0	57	0	1064304640	51	5031
2026-01-03 00:31:11.99	226.01	15.89	-40.2	-42.8	15.1	0.00e+00	0	57	0	1066401792	51	5022
2026-01-03 00:31:13.00	225.94	15.78	-40.1	-42.7	15.2	0.00e+00	0	57	0	1068498944	51	4948
2026-01-03 00:31:14.01	225.86	15.68	-40.1	-42.7	15.2	0.00e+00	0	57	0	1070596096	51	4942
2026-01-03 00:31:15.02	225.79	15.57	-40.1	-42.7	15.2	0.00e+00	0	57	0	1072693248	51	4933
2026-01-03 00:31:16.03	225.72	15.47	-40.2	-42.8	15.1	0.00e+00	0	57	0	1073741824	51	5000
2026-01-03 00:31:17.04	225.65	15.36	-40.1	-42.7	15.2	0.00e+00	0	57	0	1075838976	51	4929
2026-01-03 00:31:18.05	225.58	15.26	-40.1	-42.7	15.1	7.00e-07	0	57	0	1077936128	51	4968
2026-01-03 00:31:19.06	225.52	15.15	-40.0	-42.6	15.3	0.00e+00	0	57	0	1080033280	51	4904
2026-01-03 00:31:20.07	225.45	15.05	-40.1	-42.7	15.2	0.00e+00	0	57	0	1082130432	51	4927
2026-01-03 00:31:21.08	225.38	14.95	-40.1	-42.7	15.1	0.00e+00	0	57	0	1083179008	51	4959
2026-01-03 00:31:22.08	225.31	14.85	-40.0	-42.6	15.3	0.00e+00	0	57	0	1085276160	51	4893
2026-01-03 00:31:23.09	225.25	14.75	-40.1	-42.6	15.2	0.00e+00	0	57	0	1087373312	51	4921
2026-01-03 00:31:24.10	225.18	14.64	-40.0	-42.6	15.2	0.00e+00	0	57	0	1089470464	51	4899
2026-01-03 00:31:25.11	225.11	14.54	-40.1	-42.7	15.2	0.00e+00	0	57	0	1091567616	51	4930
2026-01-03 00:31:26.12	225.05	14.44	-40.1	-42.7	15.2	0.00e+00	0	57	0	1092616192	51	4946
2026-01-03 00:31:27.13	224.98	14.34	-40.1	-42.7	15.1	0.00e+00	0	57	0	1094713344	51	4973
2026-01-03 00:31:28.14	224.92	14.24	-40.3	-43.0	14.9	0.00e+00	0	57	0	1096810496	51	5106
2026-01-03 00:31:29.15	224.85	14.14	-40.2	-42.8	15.0	0.00e+00	0	57	0	1098907648	51	5035
2026-01-03 00:31:30.16	224.79	14.04	-40.3	-43.0	14.8	0.00e+00	0	57	0	1101004800	51	5153
2026-01-03 00:31:31.17	224.73	13.94	-40.3	-43.1	14.8	7.00e-07	0	57	0	1102053376	51	5162
2026-01-03 00:31:32.18	224.66	13.84	-40.5	-43.3	14.5	7.00e-07	0	57	0	1104150528	51	5307
2026-01-03 00:31:33.19	224.60	13.75	-40.6	-43.5	14.4	0.00e+00	0	57	0	1106247680	51	5407
2026-01-03 00:31:34.20	224.54	13.65	-40.5	-43.3	14.5	7.00e-07	0	57	0	1108344832	51	5308
2026-01-03 00:31:35.21	224.48	13.55	-40.5	-43.4	14.4	2.20e-06	0	57	0	1110441984	51	5358
2026-01-03 00:31:36.22	224.42	13.45	-40.5	-43.3	14.4	1.50e-06	0	57	0	1111490560	51	5337
2026-01-03 00:31:37.23	224.36	13.36	-40.6	-43.5	14.3	0.00e+00	0	57	0	1113587712	51	5412
2026-01-03 00:31:38.24	224.30	13.26	-40.6	-43.5	14.3	1.50e-06	0	57	0	1115684864	51	5443
2026-01-03 00:31:39.25	224.24	13.16	-40.6	-43.4	14.4	7.00e-07	0	57	0	1117782016	51	5392
2026-01-03 00:31:40.26	224.18	13.07	-40.6	-43.5	14.3	0.00e+00	0	57	0	1119879168	51	5440
2026-01-03 00:31:41.27	224.12	12.97	-40.6	-43.5	14.3	0.00e+00	0	57	0	1120927744	51	5407
