passes_logs/2026/01/03/R2.0S_Moscow/R2.0S_Moscow__20260103_042745_FENGYUN_3E_rec.log

#Pass ID: 20260103_042745_FENGYUN 3E
#Satellite: FENGYUN 3E
#Configuration: FENGYUN 3E
#almurnet v.1.7.20251203
#Start time: 2026-01-03 04:27:47

#Version: 2.2.20231116
#Station: R2.0S_Moscow
#Location: 37.707566 lon 55.798166 lat
#TLE: 1 49008U 21062A   26002.32147302  .00000239  00000+0  13357-3 0  9999
#TLE: 2 49008  98.7477   7.5995 0001398 164.3382 195.7838 14.19884140233041

#Time	Az	El	Level	Level2	SNR	BER	BlckErr	Temp	State	Recorded	gain1	gain2
2026-01-03 04:27:47.62	13.98	2.13	-44.0	-55.1	3.8	8.47e-01	0	48	0	0	58	13035
2026-01-03 04:27:48.62	13.96	2.19	-44.0	-55.1	3.8	8.45e-01	0	48	104	0	59	12245
2026-01-03 04:27:49.63	13.94	2.26	-44.0	-55.1	3.8	8.46e-01	0	48	104	0	59	12272
2026-01-03 04:27:50.64	13.92	2.32	-44.0	-55.1	3.8	8.45e-01	0	48	104	0	59	12282
2026-01-03 04:27:51.65	13.90	2.39	-44.0	-55.1	3.8	8.46e-01	0	48	104	0	59	12271
2026-01-03 04:27:52.66	13.88	2.45	-44.0	-55.1	3.8	8.46e-01	0	48	104	0	59	12302
2026-01-03 04:27:53.68	13.86	2.52	-44.0	-55.1	3.8	8.46e-01	0	49	104	0	59	12274
2026-01-03 04:27:54.69	13.84	2.58	-44.0	-55.1	3.8	8.46e-01	0	49	104	0	59	12275
2026-01-03 04:27:55.70	13.82	2.65	-44.0	-55.1	3.8	8.47e-01	0	49	104	0	59	12245
2026-01-03 04:27:56.71	13.80	2.71	-44.0	-55.1	3.8	8.47e-01	0	49	104	0	59	12271
2026-01-03 04:27:57.72	13.78	2.78	-44.0	-55.1	3.8	8.44e-01	0	49	104	0	59	12264
2026-01-03 04:27:58.73	13.76	2.84	-44.0	-55.1	3.8	8.46e-01	0	49	104	0	59	12241
2026-01-03 04:27:59.74	13.74	2.91	-44.0	-55.1	3.8	8.45e-01	0	49	104	0	59	12261
2026-01-03 04:28:00.75	13.72	2.97	-44.0	-55.1	3.8	8.45e-01	0	49	104	0	59	12294
2026-01-03 04:28:01.76	13.70	3.04	-44.0	-55.1	3.8	8.46e-01	0	49	104	0	59	12247
2026-01-03 04:28:02.77	13.68	3.11	-44.0	-55.1	3.8	8.47e-01	0	49	104	0	59	12283
2026-01-03 04:28:03.78	13.66	3.17	-44.0	-55.0	3.8	8.47e-01	0	49	104	0	59	12217
2026-01-03 04:28:04.80	13.64	3.24	-44.0	-55.1	3.8	8.46e-01	0	49	104	0	59	12269
2026-01-03 04:28:05.80	13.62	3.31	-44.0	-55.0	3.8	8.46e-01	0	49	104	0	59	12221
2026-01-03 04:28:06.81	13.60	3.37	-44.0	-55.1	3.8	8.47e-01	0	49	104	0	59	12278
2026-01-03 04:28:07.83	13.58	3.44	-44.0	-55.0	3.8	8.46e-01	0	49	104	0	59	12200
2026-01-03 04:28:08.84	13.56	3.51	-44.0	-55.0	3.8	8.45e-01	0	50	104	0	59	12176
2026-01-03 04:28:09.85	13.54	3.57	-44.0	-55.0	3.8	8.47e-01	0	50	104	0	59	12214
2026-01-03 04:28:10.86	13.51	3.64	-44.0	-55.0	3.8	8.46e-01	0	50	104	0	59	12125
2026-01-03 04:28:11.87	13.49	3.71	-44.0	-55.0	3.8	8.45e-01	0	50	104	0	59	12167
2026-01-03 04:28:12.88	13.47	3.78	-44.0	-54.9	3.8	8.46e-01	0	50	104	0	59	12089
2026-01-03 04:28:13.89	13.45	3.84	-44.0	-55.0	3.8	8.47e-01	0	50	104	0	59	12103
2026-01-03 04:28:14.91	13.43	3.91	-44.0	-55.0	3.8	8.45e-01	0	50	104	0	59	12121
2026-01-03 04:28:15.92	13.41	3.98	-44.0	-55.0	3.8	8.46e-01	0	50	104	0	59	12124
2026-01-03 04:28:16.93	13.38	4.05	-44.0	-55.0	3.8	8.46e-01	0	50	104	0	59	12103
2026-01-03 04:28:17.94	13.36	4.12	-44.0	-55.0	3.8	8.46e-01	0	50	104	0	59	12129
2026-01-03 04:28:18.95	13.34	4.19	-44.0	-55.0	3.8	8.45e-01	0	50	104	0	59	12204
2026-01-03 04:28:19.96	13.32	4.26	-44.0	-55.0	3.8	8.45e-01	0	50	104	0	59	12204
2026-01-03 04:28:20.97	13.30	4.33	-44.0	-55.0	3.8	8.46e-01	0	50	104	0	59	12200
2026-01-03 04:28:21.98	13.27	4.40	-44.0	-55.0	3.8	8.47e-01	0	50	104	0	59	12151
2026-01-03 04:28:23.00	13.25	4.47	-44.0	-55.0	3.8	8.46e-01	0	50	104	0	59	12118
2026-01-03 04:28:24.01	13.23	4.54	-44.0	-55.0	3.8	8.46e-01	0	51	104	0	59	12114
2026-01-03 04:28:25.02	13.20	4.60	-44.0	-55.0	3.8	8.46e-01	0	51	104	0	59	12159
2026-01-03 04:28:26.03	13.18	4.67	-44.0	-54.9	3.8	8.46e-01	0	51	104	0	59	12073
2026-01-03 04:28:27.04	13.16	4.75	-44.0	-55.0	3.8	8.46e-01	0	51	104	0	59	12120
2026-01-03 04:28:28.05	13.13	4.82	-44.0	-54.9	3.8	8.45e-01	0	51	104	0	59	12008
2026-01-03 04:28:29.06	13.11	4.89	-44.0	-54.9	3.8	8.46e-01	0	51	104	0	59	12094
2026-01-03 04:28:30.07	13.09	4.96	-44.0	-54.9	3.8	8.46e-01	0	51	104	0	59	12046
2026-01-03 04:28:31.08	13.06	5.03	-44.0	-54.9	3.8	8.47e-01	0	51	104	0	59	11970
2026-01-03 04:28:32.10	13.04	5.10	-44.0	-54.8	3.8	8.46e-01	0	51	104	0	59	11849
2026-01-03 04:28:33.11	13.01	5.17	-44.0	-54.6	3.8	8.45e-01	0	51	104	0	58	12354
2026-01-03 04:28:34.12	12.99	5.24	-44.0	-54.6	3.8	8.44e-01	0	51	104	0	58	12262
2026-01-03 04:28:35.13	12.97	5.31	-43.9	-54.4	3.8	8.47e-01	0	51	104	0	58	12024
2026-01-03 04:28:36.14	12.94	5.39	-43.9	-54.2	3.8	8.47e-01	0	51	104	0	58	11809
2026-01-03 04:28:37.15	12.92	5.46	-43.9	-54.1	3.8	8.46e-01	0	51	104	0	58	11675
2026-01-03 04:28:38.16	12.89	5.53	-43.9	-53.9	3.8	8.45e-01	0	52	104	0	58	11355
2026-01-03 04:28:39.17	12.87	5.60	-43.9	-53.8	3.8	8.45e-01	0	51	104	0	58	11192
2026-01-03 04:28:40.18	12.84	5.67	-43.9	-53.8	3.8	8.45e-01	0	51	104	0	58	11193
2026-01-03 04:28:41.20	12.82	5.75	-43.9	-53.9	3.8	8.46e-01	0	51	104	0	58	11310
2026-01-03 04:28:42.21	12.79	5.82	-43.9	-54.0	3.8	8.45e-01	0	52	104	0	58	11503
2026-01-03 04:28:43.22	12.77	5.89	-43.9	-54.2	3.8	8.46e-01	0	51	104	0	58	11780
2026-01-03 04:28:44.23	12.74	5.97	-43.9	-54.3	3.8	8.47e-01	0	51	104	0	58	11944
2026-01-03 04:28:45.24	12.71	6.04	-43.9	-54.3	3.8	8.47e-01	0	52	104	0	58	11908
2026-01-03 04:28:46.25	12.69	6.12	-43.9	-53.9	3.8	8.46e-01	0	52	104	0	58	11323
2026-01-03 04:28:47.26	12.66	6.19	-43.8	-53.0	3.8	8.45e-01	0	52	104	0	58	10280
2026-01-03 04:28:48.27	12.64	6.26	-43.6	-51.8	4.2	8.41e-01	0	52	0	0	58	8893
2026-01-03 04:28:49.28	12.61	6.34	-43.3	-50.3	4.6	8.26e-01	0	52	0	0	57	7970
2026-01-03 04:28:50.29	12.58	6.41	-42.9	-49.0	5.3	7.44e-01	0	52	0	0	56	7206
2026-01-03 04:28:51.30	12.56	6.49	-42.3	-47.3	6.5	2.83e-01	0	52	0	4194304	55	6285
2026-01-03 04:28:52.31	12.53	6.56	-41.8	-46.0	7.7	1.12e-01	0	52	0	11534336	54	5723
2026-01-03 04:28:53.32	12.50	6.64	-41.0	-44.4	9.2	2.63e-02	0	52	0	18874368	53	5087
2026-01-03 04:28:54.34	12.47	6.71	-40.5	-43.5	10.2	9.17e-03	0	52	0	26214400	52	4822
2026-01-03 04:28:55.35	12.45	6.79	-40.0	-42.6	11.1	1.84e-03	0	52	0	33554432	51	4648
2026-01-03 04:28:56.36	12.42	6.87	-39.2	-41.4	12.4	2.23e-04	0	52	0	40894464	49	4544
2026-01-03 04:28:57.37	12.39	6.94	-38.6	-40.7	13.3	3.20e-05	0	52	0	48234496	48	4394
2026-01-03 04:28:58.38	12.36	7.02	-37.9	-39.7	14.1	8.00e-06	0	52	0	55574528	46	4407
2026-01-03 04:28:59.39	12.34	7.09	-37.3	-39.0	14.8	1.10e-06	0	52	0	62914560	45	4293
2026-01-03 04:29:00.41	12.31	7.17	-36.9	-38.5	15.3	0.00e+00	0	52	0	70254592	44	4303
2026-01-03 04:29:01.42	12.28	7.25	-36.2	-37.6	16.0	0.00e+00	0	52	0	77594624	43	4128
2026-01-03 04:29:02.43	12.25	7.33	-35.7	-37.0	16.6	0.00e+00	0	53	0	84934656	42	4097
2026-01-03 04:29:03.44	12.22	7.40	-35.5	-36.8	16.8	0.00e+00	0	52	0	92274688	42	3987
2026-01-03 04:29:04.45	12.19	7.48	-35.3	-36.6	17.1	0.00e+00	0	53	0	99614720	41	4101
2026-01-03 04:29:05.46	12.16	7.56	-35.2	-36.5	17.1	0.00e+00	0	53	0	106954752	41	4082
2026-01-03 04:29:06.47	12.13	7.64	-35.2	-36.5	17.1	0.00e+00	0	53	0	114294784	41	4073
2026-01-03 04:29:07.48	12.10	7.72	-35.2	-36.5	17.1	0.00e+00	0	53	0	121634816	41	4069
2026-01-03 04:29:08.49	12.07	7.79	-35.4	-36.7	16.9	0.00e+00	0	53	0	128974848	41	4151
2026-01-03 04:29:09.50	12.04	7.87	-35.6	-36.9	16.7	0.00e+00	0	53	0	136314880	41	4286
2026-01-03 04:29:10.51	12.01	7.95	-36.1	-37.5	16.1	0.00e+00	0	53	0	143654912	41	4582
2026-01-03 04:29:11.52	11.98	8.03	-36.5	-38.1	15.6	0.00e+00	0	53	0	150994944	42	4602
2026-01-03 04:29:12.54	11.95	8.11	-36.1	-37.6	15.8	0.00e+00	0	53	0	158334976	42	4348
2026-01-03 04:29:13.55	11.92	8.19	-35.4	-36.8	17.0	0.00e+00	0	53	0	165675008	41	4197
2026-01-03 04:29:14.56	11.89	8.27	-36.8	-38.4	15.4	4.50e-06	0	53	0	171966464	44	4280
2026-01-03 04:29:15.57	11.86	8.35	-35.6	-37.1	15.7	3.80e-03	0	53	0	179306496	42	4099
2026-01-03 04:29:16.58	11.83	8.43	-38.3	-40.2	13.8	0.00e+00	0	53	0	187695104	45	4964
2026-01-03 04:29:17.59	11.80	8.51	-38.6	-40.5	13.1	3.15e-01	0	53	104	188743680	48	4325
2026-01-03 04:29:18.60	11.77	8.59	-35.5	-36.8	16.6	0.00e+00	0	53	0	195035136	41	4231
2026-01-03 04:29:19.61	11.74	8.68	-35.4	-36.8	16.5	0.00e+00	0	53	0	202375168	41	4224
2026-01-03 04:29:20.62	11.70	8.76	-35.7	-37.1	16.1	0.00e+00	0	53	0	209715200	41	4377
2026-01-03 04:29:21.63	11.67	8.84	-35.7	-37.2	16.0	0.00e+00	0	53	0	217055232	41	4398
2026-01-03 04:29:22.64	11.64	8.92	-35.9	-37.4	15.6	0.00e+00	0	53	0	224395264	41	4507
2026-01-03 04:29:23.65	11.61	9.00	-36.0	-37.5	15.5	0.00e+00	0	53	0	231735296	41	4591
2026-01-03 04:29:24.66	11.57	9.09	-36.0	-37.6	15.4	0.00e+00	0	54	0	239075328	41	4618
2026-01-03 04:29:25.67	11.54	9.17	-36.1	-37.6	15.5	0.00e+00	0	53	0	246415360	41	4636
2026-01-03 04:29:26.68	11.51	9.25	-36.0	-37.6	15.5	0.00e+00	0	54	0	253755392	41	4602
2026-01-03 04:29:27.69	11.47	9.34	-36.2	-37.8	15.2	0.00e+00	0	54	0	261095424	41	4724
2026-01-03 04:29:28.70	11.44	9.42	-36.0	-37.6	15.4	0.00e+00	0	54	0	268435456	41	4614
2026-01-03 04:29:29.71	11.41	9.50	-36.0	-37.6	15.4	0.00e+00	0	53	0	275775488	41	4625
2026-01-03 04:29:30.72	11.37	9.59	-36.0	-37.6	15.3	0.00e+00	0	53	0	283115520	41	4629
2026-01-03 04:29:31.73	11.34	9.67	-36.0	-37.6	15.5	0.00e+00	0	54	0	290455552	41	4612
2026-01-03 04:29:32.74	11.30	9.76	-36.2	-37.8	15.2	0.00e+00	0	54	0	297795584	41	4719
2026-01-03 04:29:33.75	11.27	9.84	-36.1	-37.7	15.4	0.00e+00	0	54	0	305135616	41	4671
2026-01-03 04:29:34.76	11.23	9.93	-36.3	-37.9	15.1	0.00e+00	0	54	0	312475648	42	4531
2026-01-03 04:29:35.77	11.20	10.01	-36.4	-38.1	14.9	0.00e+00	0	54	0	318767104	42	4610
2026-01-03 04:29:36.78	11.16	10.10	-36.3	-38.0	14.8	0.00e+00	0	54	0	327155712	42	4567
2026-01-03 04:29:37.79	11.13	10.19	-36.5	-38.3	14.4	0.00e+00	0	54	0	334495744	42	4724
2026-01-03 04:29:38.80	11.09	10.27	-36.8	-38.7	13.9	3.40e-06	0	54	0	340787200	43	4672
2026-01-03 04:29:39.80	11.06	10.36	-37.0	-39.0	13.5	4.50e-06	0	54	0	348127232	43	4836
2026-01-03 04:29:40.81	11.02	10.44	-37.4	-39.5	13.0	2.51e-05	0	54	0	355467264	44	4834
2026-01-03 04:29:41.82	10.98	10.53	-37.4	-39.5	13.0	4.34e-05	0	54	0	362807296	44	4859
2026-01-03 04:29:42.83	10.95	10.62	-37.5	-39.7	12.7	5.14e-05	0	54	0	370147328	44	4959
2026-01-03 04:29:43.84	10.91	10.71	-37.7	-39.8	12.7	6.98e-05	0	54	0	377487360	44	5023
2026-01-03 04:29:44.85	10.87	10.80	-37.5	-39.6	12.8	5.14e-05	0	54	0	384827392	44	4924
2026-01-03 04:29:45.86	10.83	10.88	-37.4	-39.5	12.8	6.52e-05	0	54	0	392167424	44	4832
2026-01-03 04:29:46.87	10.80	10.97	-37.2	-39.1	13.6	1.60e-05	0	54	0	399507456	44	4639
2026-01-03 04:29:47.88	10.76	11.06	-37.2	-39.0	14.0	6.80e-06	0	54	0	406847488	44	4571
2026-01-03 04:29:48.89	10.72	11.15	-37.0	-38.8	14.4	1.10e-06	0	54	0	414187520	44	4464
2026-01-03 04:29:49.90	10.68	11.24	-36.8	-38.4	14.8	1.10e-06	0	54	0	421527552	44	4289
2026-01-03 04:29:50.91	10.64	11.33	-36.3	-37.9	15.2	0.00e+00	0	54	0	428867584	43	4260
2026-01-03 04:29:51.92	10.60	11.42	-36.1	-37.7	15.4	0.00e+00	0	54	0	436207616	43	4176
2026-01-03 04:29:52.94	10.56	11.51	-36.1	-37.6	15.7	0.00e+00	0	54	0	443547648	43	4118
2026-01-03 04:29:53.95	10.52	11.61	-35.7	-37.1	16.4	0.00e+00	0	54	0	450887680	42	4126
2026-01-03 04:29:54.96	10.48	11.70	-35.3	-36.6	17.0	0.00e+00	0	54	0	458227712	41	4126
2026-01-03 04:29:55.97	10.44	11.79	-35.1	-36.4	17.3	0.00e+00	0	55	0	464519168	41	4018
2026-01-03 04:29:56.98	10.40	11.88	-34.7	-35.9	17.9	0.00e+00	0	54	0	472907776	40	4028
2026-01-03 04:29:57.99	10.36	11.97	-34.4	-35.6	18.3	0.00e+00	0	54	0	480247808	39	4103
2026-01-03 04:29:59.00	10.32	12.07	-34.2	-35.3	18.6	0.00e+00	0	54	0	486539264	39	3988
2026-01-03 04:30:00.01	10.28	12.16	-34.0	-35.1	18.9	0.00e+00	0	54	0	493879296	39	3901
2026-01-03 04:30:01.02	10.24	12.25	-34.0	-35.1	19.0	0.00e+00	0	54	0	501219328	39	3892
2026-01-03 04:30:02.03	10.20	12.35	-34.1	-35.2	18.9	0.00e+00	0	55	0	508559360	39	3927
2026-01-03 04:30:03.04	10.15	12.44	-34.4	-35.5	18.7	0.00e+00	0	55	0	515899392	39	4072
2026-01-03 04:30:04.05	10.11	12.53	-34.3	-35.5	18.8	0.00e+00	0	54	0	523239424	39	4063
2026-01-03 04:30:05.06	10.07	12.63	-34.3	-35.4	18.9	0.00e+00	0	55	0	530579456	39	4023
2026-01-03 04:30:06.07	10.02	12.72	-34.2	-35.3	19.0	0.00e+00	0	55	0	537919488	39	3997
2026-01-03 04:30:07.08	9.98	12.82	-34.3	-35.4	18.9	0.00e+00	0	55	0	545259520	39	4033
2026-01-03 04:30:08.09	9.94	12.92	-34.1	-35.3	19.1	0.00e+00	0	55	0	552599552	39	3959
2026-01-03 04:30:09.10	9.89	13.01	-34.0	-35.1	19.2	0.00e+00	0	55	0	559939584	39	3907
2026-01-03 04:30:10.11	9.85	13.11	-34.1	-35.2	19.2	0.00e+00	0	55	0	567279616	39	3923
2026-01-03 04:30:11.12	9.80	13.21	-34.1	-35.2	19.2	0.00e+00	0	55	0	574619648	39	3923
2026-01-03 04:30:12.13	9.76	13.30	-34.1	-35.2	19.2	0.00e+00	0	55	0	581959680	39	3925
2026-01-03 04:30:13.14	9.71	13.40	-34.3	-35.4	19.0	0.00e+00	0	54	0	589299712	39	4034
2026-01-03 04:30:14.15	9.67	13.50	-34.2	-35.3	19.1	0.00e+00	0	55	0	596639744	39	3970
2026-01-03 04:30:15.16	9.62	13.60	-34.1	-35.2	19.2	0.00e+00	0	55	0	603979776	39	3927
2026-01-03 04:30:16.17	9.58	13.70	-34.0	-35.1	19.3	0.00e+00	0	55	0	611319808	39	3888
2026-01-03 04:30:17.18	9.53	13.80	-34.0	-35.1	19.3	0.00e+00	0	55	0	618659840	38	4099
2026-01-03 04:30:18.19	9.48	13.90	-33.9	-35.0	19.3	0.00e+00	0	55	0	625999872	38	4079
2026-01-03 04:30:19.20	9.43	14.00	-34.1	-35.2	19.2	0.00e+00	0	55	0	633339904	38	4162
2026-01-03 04:30:20.21	9.39	14.10	-33.9	-35.0	19.4	0.00e+00	0	55	0	639631360	38	4066
2026-01-03 04:30:21.22	9.34	14.20	-33.9	-35.0	19.4	0.00e+00	0	55	0	646971392	38	4071
2026-01-03 04:30:22.23	9.29	14.30	-33.9	-35.0	19.4	0.00e+00	0	55	0	655360000	38	4072
2026-01-03 04:30:23.23	9.24	14.40	-33.9	-35.0	19.4	0.00e+00	0	55	0	661651456	38	4067
2026-01-03 04:30:24.25	9.19	14.50	-34.0	-35.1	19.4	0.00e+00	0	55	0	668991488	38	4110
2026-01-03 04:30:25.26	9.14	14.60	-33.8	-34.9	19.6	0.00e+00	0	55	0	676331520	38	4009
2026-01-03 04:30:26.26	9.09	14.71	-33.8	-34.9	19.6	0.00e+00	0	55	0	683671552	38	4024
2026-01-03 04:30:27.27	9.04	14.81	-33.8	-34.9	19.6	0.00e+00	0	55	0	691011584	38	4022
2026-01-03 04:30:28.28	8.99	14.91	-33.7	-34.8	19.8	0.00e+00	0	55	0	698351616	38	3973
2026-01-03 04:30:29.30	8.94	15.02	-33.8	-34.9	19.7	0.00e+00	0	55	0	705691648	38	4025
2026-01-03 04:30:30.31	8.89	15.12	-33.7	-34.8	19.8	0.00e+00	0	55	0	713031680	38	3979
2026-01-03 04:30:31.31	8.84	15.23	-33.7	-34.8	19.8	0.00e+00	0	55	0	720371712	38	3965
2026-01-03 04:30:32.33	8.79	15.33	-33.7	-34.7	19.8	0.00e+00	0	55	0	727711744	38	3955
2026-01-03 04:30:33.34	8.73	15.44	-33.7	-34.7	19.9	0.00e+00	0	55	0	735051776	38	3932
2026-01-03 04:30:34.35	8.68	15.54	-33.8	-34.8	19.8	0.00e+00	0	55	0	742391808	38	4001
2026-01-03 04:30:35.36	8.63	15.65	-33.7	-34.7	19.9	0.00e+00	0	55	0	749731840	38	3947
2026-01-03 04:30:36.37	8.57	15.76	-33.8	-34.8	19.8	0.00e+00	0	55	0	757071872	38	3995
2026-01-03 04:30:37.38	8.52	15.87	-33.8	-34.8	19.8	0.00e+00	0	55	0	764411904	38	3990
2026-01-03 04:30:38.39	8.46	15.97	-33.8	-34.8	19.8	0.00e+00	0	55	0	771751936	38	3980
2026-01-03 04:30:39.40	8.41	16.08	-33.7	-34.7	19.9	0.00e+00	0	55	0	779091968	38	3941
2026-01-03 04:30:40.41	8.35	16.19	-33.8	-34.9	19.8	0.00e+00	0	55	0	785383424	38	4006
2026-01-03 04:30:41.42	8.30	16.30	-33.8	-34.9	19.8	0.00e+00	0	55	0	793772032	38	4009
2026-01-03 04:30:42.43	8.24	16.41	-33.7	-34.7	19.9	0.00e+00	0	55	0	801112064	38	3952
2026-01-03 04:30:43.44	8.18	16.52	-33.6	-34.7	20.0	0.00e+00	0	55	0	807403520	38	3931
2026-01-03 04:30:44.45	8.13	16.63	-33.6	-34.6	20.0	0.00e+00	0	55	0	814743552	38	3913
2026-01-03 04:30:45.46	8.07	16.74	-33.6	-34.7	20.0	0.00e+00	0	55	0	822083584	38	3925
2026-01-03 04:30:46.47	8.01	16.85	-33.5	-34.6	20.1	0.00e+00	0	55	0	829423616	38	3875
2026-01-03 04:30:47.48	7.95	16.97	-33.5	-34.5	20.2	0.00e+00	0	55	0	836763648	37	4067
2026-01-03 04:30:48.49	7.89	17.08	-33.4	-34.5	20.2	0.00e+00	0	55	0	844103680	37	4055
2026-01-03 04:30:49.50	7.83	17.19	-33.3	-34.3	20.3	0.00e+00	0	55	0	851443712	37	3998
2026-01-03 04:30:50.51	7.77	17.31	-33.3	-34.3	20.3	0.00e+00	0	55	0	858783744	37	3987
2026-01-03 04:30:51.53	7.71	17.42	-33.3	-34.3	20.4	0.00e+00	0	55	0	866123776	37	3987
2026-01-03 04:30:52.53	7.65	17.54	-33.1	-34.1	20.6	0.00e+00	0	55	0	873463808	37	3875
2026-01-03 04:30:53.55	7.59	17.65	-33.1	-34.1	20.5	0.00e+00	0	55	0	880803840	37	3895
2026-01-03 04:30:54.56	7.53	17.77	-33.0	-33.9	20.7	0.00e+00	0	55	0	888143872	37	3821
2026-01-03 04:30:55.57	7.46	17.88	-33.2	-34.1	20.5	0.00e+00	0	55	0	895483904	37	3909
2026-01-03 04:30:56.58	7.40	18.00	-32.9	-33.9	20.8	0.00e+00	0	56	0	902823936	36	4014
2026-01-03 04:30:57.59	7.34	18.12	-33.0	-34.0	20.7	0.00e+00	0	56	0	910163968	36	4057
2026-01-03 04:30:58.60	7.27	18.24	-32.9	-33.9	20.8	0.00e+00	0	56	0	917504000	36	4020
2026-01-03 04:30:59.61	7.21	18.35	-33.0	-33.9	20.7	0.00e+00	0	56	0	924844032	36	4050
2026-01-03 04:31:00.62	7.14	18.47	-32.9	-33.9	20.8	0.00e+00	0	56	0	932184064	36	4015
2026-01-03 04:31:01.63	7.08	18.59	-33.1	-34.1	20.7	0.00e+00	0	56	0	939524096	36	4103
2026-01-03 04:31:02.64	7.01	18.71	-33.0	-34.0	20.7	0.00e+00	0	56	0	946864128	36	4069
2026-01-03 04:31:03.65	6.95	18.83	-33.0	-34.0	20.6	0.00e+00	0	56	0	954204160	36	4087
2026-01-03 04:31:04.66	6.88	18.95	-33.0	-34.0	20.7	0.00e+00	0	56	0	960495616	36	4067
2026-01-03 04:31:05.67	6.81	19.07	-33.0	-34.0	20.7	0.00e+00	0	56	0	967835648	36	4078
2026-01-03 04:31:06.68	6.74	19.20	-33.0	-34.0	20.7	0.00e+00	0	56	0	976224256	36	4068
2026-01-03 04:31:07.69	6.67	19.32	-33.0	-34.0	20.8	0.00e+00	0	56	0	982515712	36	4056
2026-01-03 04:31:08.70	6.60	19.44	-33.1	-34.0	20.7	0.00e+00	0	56	0	989855744	36	4095
2026-01-03 04:31:09.71	6.53	19.57	-33.0	-34.0	20.7	0.00e+00	0	56	0	997195776	36	4093
2026-01-03 04:31:10.72	6.46	19.69	-33.0	-34.0	20.8	0.00e+00	0	55	0	1004535808	36	4067
2026-01-03 04:31:11.73	6.39	19.82	-32.9	-33.9	20.8	0.00e+00	0	55	0	1011875840	36	4032
2026-01-03 04:31:12.74	6.32	19.94	-33.0	-34.0	20.7	0.00e+00	0	56	0	1019215872	36	4081
2026-01-03 04:31:13.75	6.24	20.07	-33.1	-34.1	20.7	0.00e+00	0	55	0	1026555904	36	4118
2026-01-03 04:31:14.76	6.17	20.19	-33.0	-34.0	20.8	0.00e+00	0	55	0	1033895936	36	4077
2026-01-03 04:31:15.77	6.10	20.32	-33.2	-34.1	20.6	0.00e+00	0	56	0	1041235968	36	4137
2026-01-03 04:31:16.79	6.02	20.45	-33.1	-34.1	20.7	0.00e+00	0	56	0	1048576000	36	4112
2026-01-03 04:31:17.79	5.95	20.58	-33.1	-34.1	20.7	0.00e+00	0	56	0	1055916032	36	4131
2026-01-03 04:31:18.81	5.87	20.71	-33.1	-34.1	20.6	0.00e+00	0	56	0	1063256064	36	4119
2026-01-03 04:31:19.82	5.79	20.84	-33.1	-34.1	20.7	0.00e+00	0	56	0	1070596096	36	4122
2026-01-03 04:31:20.83	5.72	20.97	-33.1	-34.1	20.7	0.00e+00	0	56	0	1077936128	36	4109
2026-01-03 04:31:21.83	5.64	21.10	-33.1	-34.0	20.7	0.00e+00	0	56	0	1085276160	36	4093
2026-01-03 04:31:22.84	5.56	21.23	-33.0	-34.0	20.8	0.00e+00	0	56	0	1092616192	36	4064
2026-01-03 04:31:23.85	5.48	21.36	-32.9	-33.9	20.9	0.00e+00	0	56	0	1099956224	36	4029
2026-01-03 04:31:24.86	5.40	21.49	-32.8	-33.8	21.0	0.00e+00	0	56	0	1106247680	36	3962
2026-01-03 04:31:25.87	5.32	21.63	-32.7	-33.7	21.1	0.00e+00	0	56	0	1114636288	36	3934
2026-01-03 04:31:26.88	5.24	21.76	-32.7	-33.6	21.1	0.00e+00	0	56	0	1121976320	36	3912
2026-01-03 04:31:27.89	5.16	21.90	-32.6	-33.5	21.2	0.00e+00	0	56	0	1128267776	36	3850
2026-01-03 04:31:28.90	5.07	22.03	-32.5	-33.5	21.3	0.00e+00	0	56	0	1135607808	36	3827
2026-01-03 04:31:29.91	4.99	22.17	-31.8	-32.8	21.2	0.00e+00	0	56	0	1142947840	34	3960
2026-01-03 04:31:30.92	4.90	22.31	-31.8	-32.7	21.3	0.00e+00	0	56	0	1150287872	34	3939
2026-01-03 04:31:31.93	4.82	22.44	-31.7	-32.7	21.3	0.00e+00	0	56	0	1157627904	34	3918
2026-01-03 04:31:32.94	4.73	22.58	-31.6	-32.6	21.3	0.00e+00	0	56	0	1164967936	34	3878
2026-01-03 04:31:33.95	4.65	22.72	-31.7	-32.6	21.3	0.00e+00	0	56	0	1172307968	34	3890
2026-01-03 04:31:34.96	4.56	22.86	-31.7	-32.6	21.3	0.00e+00	0	56	0	1179648000	34	3883
2026-01-03 04:31:35.97	4.47	23.00	-31.7	-32.6	21.3	0.00e+00	0	56	0	1186988032	34	3900
2026-01-03 04:31:36.98	4.38	23.14	-31.7	-32.6	21.3	0.00e+00	0	56	0	1194328064	34	3894
2026-01-03 04:31:37.99	4.29	23.28	-31.6	-32.6	21.4	0.00e+00	0	56	0	1201668096	34	3870
2026-01-03 04:31:39.00	4.20	23.42	-31.6	-32.5	21.4	0.00e+00	0	56	0	1209008128	34	3863
2026-01-03 04:31:40.01	4.11	23.57	-31.6	-32.5	21.5	0.00e+00	0	56	0	1216348160	34	3836
2026-01-03 04:31:41.02	4.01	23.71	-31.5	-32.4	21.5	0.00e+00	0	56	0	1223688192	33	4022
2026-01-03 04:31:42.03	3.92	23.86	-31.4	-32.3	21.6	0.00e+00	0	56	0	1231028224	33	3992
2026-01-03 04:31:43.04	3.82	24.00	-31.5	-32.4	21.5	0.00e+00	0	56	0	1238368256	33	4019
2026-01-03 04:31:44.04	3.73	24.15	-31.4	-32.4	21.6	0.00e+00	0	56	0	1245708288	33	4007
2026-01-03 04:31:45.05	3.63	24.29	-31.4	-32.3	21.6	0.00e+00	0	56	0	1253048320	33	3985
2026-01-03 04:31:46.06	3.54	24.44	-31.4	-32.4	21.6	0.00e+00	0	56	0	1259339776	33	4011
2026-01-03 04:31:47.07	3.44	24.59	-31.5	-32.5	21.5	0.00e+00	0	56	0	1267728384	33	4059
2026-01-03 04:31:48.08	3.34	24.74	-31.6	-32.5	21.4	0.00e+00	0	56	0	1275068416	33	4094
2026-01-03 04:31:49.09	3.24	24.89	-31.6	-32.5	21.4	0.00e+00	0	56	0	1281359872	33	4096
2026-01-03 04:31:50.10	3.14	25.04	-31.5	-32.4	21.5	0.00e+00	0	56	0	1288699904	33	4043
2026-01-03 04:31:51.11	3.03	25.19	-31.5	-32.4	21.5	0.00e+00	0	56	0	1296039936	33	4037
2026-01-03 04:31:52.12	2.93	25.34	-31.4	-32.3	21.6	0.00e+00	0	56	0	1303379968	33	3995
2026-01-03 04:31:53.13	2.83	25.49	-31.4	-32.3	21.7	0.00e+00	0	56	0	1310720000	33	3968
2026-01-03 04:31:54.14	2.72	25.64	-31.2	-32.1	21.8	0.00e+00	0	56	0	1318060032	33	3887
2026-01-03 04:31:55.15	2.61	25.80	-31.4	-32.3	21.6	0.00e+00	0	56	0	1325400064	33	3976
2026-01-03 04:31:56.16	2.51	25.95	-31.4	-32.3	21.6	0.00e+00	0	56	0	1332740096	33	3996
2026-01-03 04:31:57.17	2.40	26.11	-31.3	-32.3	21.7	0.00e+00	0	56	0	1340080128	33	3966
2026-01-03 04:31:58.18	2.29	26.27	-31.4	-32.3	21.7	0.00e+00	0	56	0	1347420160	33	3972
2026-01-03 04:31:59.19	2.18	26.42	-31.4	-32.4	21.6	0.00e+00	0	56	0	1354760192	33	4008
2026-01-03 04:32:00.20	2.06	26.58	-31.3	-32.3	21.7	0.00e+00	0	56	0	1362100224	33	3961
2026-01-03 04:32:01.21	1.95	26.74	-31.4	-32.3	21.7	0.00e+00	0	56	0	1369440256	33	3999
2026-01-03 04:32:02.22	1.84	26.90	-31.3	-32.3	21.7	0.00e+00	0	56	0	1376780288	33	3962
2026-01-03 04:32:03.23	1.72	27.06	-31.3	-32.2	21.8	0.00e+00	0	56	0	1384120320	33	3945
2026-01-03 04:32:04.24	1.60	27.22	-31.2	-32.1	21.8	0.00e+00	0	56	0	1391460352	33	3902
2026-01-03 04:32:05.25	1.48	27.38	-31.3	-32.2	21.7	0.00e+00	0	56	0	1398800384	33	3958
2026-01-03 04:32:06.26	1.37	27.55	-31.4	-32.3	21.7	0.00e+00	0	56	0	1405091840	33	3976
2026-01-03 04:32:07.27	1.24	27.71	-31.4	-32.3	21.7	0.00e+00	0	56	0	1412431872	33	3984
2026-01-03 04:32:08.28	1.12	27.88	-31.4	-32.3	21.7	0.00e+00	0	56	0	1420820480	33	3992
2026-01-03 04:32:09.29	1.00	28.04	-31.4	-32.4	21.7	0.00e+00	0	56	0	1427111936	33	4012
2026-01-03 04:32:10.30	0.87	28.21	-31.4	-32.4	21.6	0.00e+00	0	56	0	1434451968	33	4006
2026-01-03 04:32:11.31	0.75	28.38	-31.5	-32.4	21.6	0.00e+00	0	56	0	1441792000	33	4031
2026-01-03 04:32:12.32	0.62	28.54	-31.5	-32.4	21.6	0.00e+00	0	56	0	1449132032	33	4026
2026-01-03 04:32:13.32	0.49	28.71	-31.4	-32.4	21.7	0.00e+00	0	56	0	1456472064	33	4014
2026-01-03 04:32:14.33	0.36	28.88	-31.3	-32.2	21.8	0.00e+00	0	56	0	1463812096	33	3951
2026-01-03 04:32:15.34	0.23	29.05	-31.5	-32.5	21.6	0.00e+00	0	56	0	1471152128	33	4063
2026-01-03 04:32:16.35	0.10	29.22	-31.4	-32.3	21.7	0.00e+00	0	56	0	1478492160	33	3972
2026-01-03 04:32:17.36	359.97	29.40	-31.3	-32.2	21.8	0.00e+00	0	56	0	1485832192	33	3950
2026-01-03 04:32:18.37	359.83	29.57	-31.3	-32.2	21.8	0.00e+00	0	56	0	1493172224	33	3931
2026-01-03 04:32:19.38	359.69	29.74	-31.3	-32.2	21.9	0.00e+00	0	56	0	1500512256	33	3928
2026-01-03 04:32:20.39	359.55	29.92	-31.0	-31.9	22.1	0.00e+00	0	56	0	1507852288	33	3819
2026-01-03 04:32:21.40	359.41	30.09	-31.0	-31.9	22.1	0.00e+00	0	56	0	1515192320	32	4037
2026-01-03 04:32:22.41	359.27	30.27	-30.9	-31.8	22.2	0.00e+00	0	56	0	1522532352	32	3986
2026-01-03 04:32:23.42	359.13	30.45	-30.8	-31.7	22.3	0.00e+00	0	56	0	1529872384	32	3948
2026-01-03 04:32:24.43	358.98	30.63	-30.8	-31.7	22.3	0.00e+00	0	56	0	1537212416	32	3928
2026-01-03 04:32:25.44	358.83	30.81	-30.8	-31.7	22.3	0.00e+00	0	56	0	1544552448	32	3926
2026-01-03 04:32:26.45	358.69	30.99	-30.8	-31.7	22.3	0.00e+00	0	56	0	1551892480	32	3914
2026-01-03 04:32:27.46	358.54	31.17	-30.7	-31.6	22.4	0.00e+00	0	56	0	1558183936	32	3872
2026-01-03 04:32:28.47	358.38	31.35	-30.8	-31.6	22.4	0.00e+00	0	56	0	1565523968	32	3908
2026-01-03 04:32:29.48	358.23	31.53	-30.8	-31.7	22.3	0.00e+00	0	57	0	1573912576	32	3935
2026-01-03 04:32:30.49	358.07	31.72	-30.8	-31.6	22.4	0.00e+00	0	56	0	1580204032	32	3905
2026-01-03 04:32:31.50	357.92	31.90	-30.9	-31.7	22.3	0.00e+00	0	56	0	1587544064	32	3950
2026-01-03 04:32:32.51	357.76	32.09	-30.9	-31.8	22.2	0.00e+00	0	56	0	1594884096	32	3994
2026-01-03 04:32:33.52	357.60	32.28	-31.0	-31.9	22.1	0.00e+00	0	56	0	1602224128	32	4037
2026-01-03 04:32:34.53	357.43	32.46	-31.1	-32.0	22.1	0.00e+00	0	56	0	1609564160	32	4063
2026-01-03 04:32:35.54	357.27	32.65	-31.0	-31.9	22.1	0.00e+00	0	57	0	1616904192	32	4032
2026-01-03 04:32:36.55	357.10	32.84	-31.1	-32.0	22.0	0.00e+00	0	57	0	1624244224	32	4097
2026-01-03 04:32:37.56	356.93	33.03	-31.0	-31.9	22.1	0.00e+00	0	56	0	1631584256	32	4035
2026-01-03 04:32:38.56	356.76	33.22	-31.0	-31.9	22.1	0.00e+00	0	56	0	1638924288	32	4034
2026-01-03 04:32:39.57	356.59	33.41	-31.0	-31.9	22.2	0.00e+00	0	57	0	1646264320	32	4024
2026-01-03 04:32:40.58	356.41	33.61	-31.1	-31.9	22.1	0.00e+00	0	56	0	1653604352	32	4047
2026-01-03 04:32:41.59	356.24	33.80	-31.2	-32.1	22.0	0.00e+00	0	57	0	1660944384	32	4103
2026-01-03 04:32:42.60	356.06	34.00	-31.1	-32.0	22.1	0.00e+00	0	56	0	1668284416	32	4056
2026-01-03 04:32:43.61	355.87	34.19	-31.1	-32.0	22.1	0.00e+00	0	57	0	1675624448	32	4061
2026-01-03 04:32:44.62	355.69	34.39	-31.2	-32.1	22.0	0.00e+00	0	57	0	1682964480	32	4114
2026-01-03 04:32:45.64	355.50	34.59	-31.2	-32.1	22.0	0.00e+00	0	57	0	1690304512	32	4130
2026-01-03 04:32:46.64	355.32	34.79	-31.3	-32.2	21.9	0.00e+00	0	57	0	1697644544	32	4160
2026-01-03 04:32:47.65	355.12	34.98	-31.3	-32.2	21.9	0.00e+00	0	57	0	1704984576	32	4161
2026-01-03 04:32:48.66	354.93	35.19	-31.3	-32.3	21.8	0.00e+00	0	56	0	1711276032	32	4206
2026-01-03 04:32:49.67	354.74	35.39	-31.3	-32.3	21.9	0.00e+00	0	56	0	1719664640	32	4197
2026-01-03 04:32:50.68	354.54	35.59	-31.3	-32.2	21.9	0.00e+00	0	57	0	1727004672	32	4161
2026-01-03 04:32:51.69	354.34	35.79	-31.0	-32.0	22.1	0.00e+00	0	57	0	1733296128	32	4052
2026-01-03 04:32:52.71	354.13	36.00	-31.2	-32.1	22.0	0.00e+00	0	57	0	1740636160	32	4100
2026-01-03 04:32:53.72	353.93	36.20	-31.0	-31.9	22.2	0.00e+00	0	57	0	1747976192	32	4034
2026-01-03 04:32:54.73	353.72	36.41	-31.0	-31.9	22.2	0.00e+00	0	57	0	1755316224	32	4012
2026-01-03 04:32:55.74	353.50	36.62	-30.9	-31.8	22.3	0.00e+00	0	57	0	1762656256	32	3965
2026-01-03 04:32:56.75	353.29	36.82	-30.9	-31.8	22.3	0.00e+00	0	56	0	1769996288	32	3981
2026-01-03 04:32:57.76	353.07	37.03	-30.9	-31.8	22.3	0.00e+00	0	56	0	1777336320	32	3969
2026-01-03 04:32:58.77	352.85	37.24	-30.8	-31.7	22.4	0.00e+00	0	57	0	1784676352	32	3939
2026-01-03 04:32:59.78	352.63	37.45	-30.9	-31.8	22.3	0.00e+00	0	57	0	1792016384	32	3972
2026-01-03 04:33:00.79	352.41	37.66	-31.0	-31.9	22.2	0.00e+00	0	57	0	1799356416	32	4032
2026-01-03 04:33:01.80	352.18	37.87	-31.1	-32.0	22.1	0.00e+00	0	56	0	1806696448	32	4054
2026-01-03 04:33:02.80	351.95	38.08	-31.1	-32.0	22.1	0.00e+00	0	57	0	1814036480	32	4084
2026-01-03 04:33:03.81	351.71	38.30	-31.0	-31.9	22.2	0.00e+00	0	57	0	1821376512	32	4039
2026-01-03 04:33:04.82	351.48	38.51	-31.1	-32.0	22.1	0.00e+00	0	57	0	1828716544	32	4060
2026-01-03 04:33:05.83	351.23	38.73	-31.1	-32.0	22.1	0.00e+00	0	57	0	1836056576	32	4058
2026-01-03 04:33:06.84	350.99	38.94	-31.1	-32.0	22.1	0.00e+00	0	57	0	1843396608	32	4089
2026-01-03 04:33:07.85	350.74	39.16	-31.0	-31.9	22.2	0.00e+00	0	57	0	1850736640	32	4018
2026-01-03 04:33:08.86	350.49	39.38	-31.1	-32.0	22.1	0.00e+00	0	57	0	1857028096	32	4078
2026-01-03 04:33:09.87	350.24	39.60	-31.2	-32.1	22.1	0.00e+00	0	57	0	1864368128	32	4101
2026-01-03 04:33:10.88	349.98	39.81	-31.2	-32.1	22.0	0.00e+00	0	57	0	1872756736	32	4135
2026-01-03 04:33:11.89	349.72	40.03	-31.4	-32.3	21.8	0.00e+00	0	57	0	1879048192	32	4216
2026-01-03 04:33:12.90	349.45	40.25	-31.7	-32.6	21.4	0.00e+00	0	57	0	1886388224	33	4145
2026-01-03 04:33:13.91	349.18	40.47	-31.7	-32.6	21.6	0.00e+00	0	57	0	1893728256	33	4122
2026-01-03 04:33:14.92	348.91	40.70	-31.7	-32.6	21.5	0.00e+00	0	57	0	1901068288	33	4142
2026-01-03 04:33:15.93	348.63	40.92	-31.8	-32.8	21.4	0.00e+00	0	57	0	1908408320	33	4194
2026-01-03 04:33:16.94	348.35	41.14	-31.9	-32.8	21.3	0.00e+00	0	57	0	1915748352	33	4232
2026-01-03 04:33:17.94	348.07	41.36	-32.1	-33.1	21.0	0.00e+00	0	57	0	1923088384	33	4377
2026-01-03 04:33:18.95	347.78	41.59	-31.7	-32.6	21.5	0.00e+00	0	57	0	1930428416	34	3909
2026-01-03 04:33:19.96	347.49	41.81	-31.6	-32.6	21.6	0.00e+00	0	57	0	1937768448	34	3876
2026-01-03 04:33:20.97	347.20	42.03	-31.4	-32.3	21.9	0.00e+00	0	57	0	1945108480	33	3969
2026-01-03 04:33:21.98	346.90	42.26	-31.2	-32.1	22.0	0.00e+00	0	57	0	1952448512	33	3893
2026-01-03 04:33:22.99	346.59	42.49	-31.0	-31.9	22.3	0.00e+00	0	57	0	1959788544	32	4034
2026-01-03 04:33:24.00	346.28	42.71	-31.0	-31.8	22.3	0.00e+00	0	57	0	1967128576	32	4003
2026-01-03 04:33:25.01	345.97	42.94	-30.9	-31.8	22.4	0.00e+00	0	57	0	1974468608	32	3973
2026-01-03 04:33:26.02	345.65	43.17	-30.8	-31.6	22.5	0.00e+00	0	57	0	1981808640	32	3910
2026-01-03 04:33:27.03	345.33	43.39	-30.7	-31.6	22.6	0.00e+00	0	57	0	1989148672	32	3874
2026-01-03 04:33:28.04	345.00	43.62	-31.0	-31.9	22.2	0.00e+00	0	57	0	1996488704	32	4038
2026-01-03 04:33:29.05	344.67	43.85	-31.0	-31.9	22.2	0.00e+00	0	57	0	2003828736	32	4045
2026-01-03 04:33:30.06	344.33	44.08	-31.3	-32.2	22.0	0.00e+00	0	57	0	2010120192	32	4183
2026-01-03 04:33:31.07	343.99	44.31	-31.6	-32.5	21.7	0.00e+00	0	57	0	2018508800	32	4315
2026-01-03 04:33:32.09	343.64	44.54	-31.7	-32.6	21.6	0.00e+00	0	57	0	2025848832	33	4144
2026-01-03 04:33:33.10	343.29	44.77	-32.0	-32.9	21.3	0.00e+00	0	57	0	2032140288	34	4029
2026-01-03 04:33:34.11	342.93	44.99	-32.0	-32.9	21.4	0.00e+00	0	57	0	2039480320	34	4039
2026-01-03 04:33:35.12	342.57	45.22	-31.8	-32.7	21.5	0.00e+00	0	57	0	2046820352	34	3947
2026-01-03 04:33:36.13	342.20	45.45	-31.6	-32.6	21.7	0.00e+00	0	57	0	2054160384	34	3873
2026-01-03 04:33:37.14	341.83	45.68	-31.5	-32.5	21.8	0.00e+00	0	57	0	2061500416	34	3833
2026-01-03 04:33:38.15	341.45	45.91	-31.5	-32.4	21.8	0.00e+00	0	57	0	2068840448	33	4027
2026-01-03 04:33:39.16	341.06	46.14	-31.4	-32.3	22.0	0.00e+00	0	57	0	2076180480	32	4199
2026-01-03 04:33:40.17	340.67	46.37	-31.2	-32.1	22.1	0.00e+00	0	57	0	2083520512	32	4118
2026-01-03 04:33:41.18	340.28	46.60	-31.4	-32.3	21.9	0.00e+00	0	57	0	2090860544	32	4236
2026-01-03 04:33:42.19	339.88	46.82	-31.6	-32.5	21.7	0.00e+00	0	57	0	2098200576	32	4316
2026-01-03 04:33:43.20	339.47	47.05	-32.0	-32.9	21.4	0.00e+00	0	57	0	2105540608	33	4271
2026-01-03 04:33:44.22	339.05	47.28	-32.1	-33.0	21.2	0.00e+00	0	57	0	2112880640	33	4331
2026-01-03 04:33:45.23	338.63	47.51	-32.4	-33.3	20.9	0.00e+00	0	57	0	2120220672	34	4237
2026-01-03 04:33:46.24	338.20	47.74	-32.6	-33.6	20.7	0.00e+00	0	57	0	2127560704	34	4357
2026-01-03 04:33:47.25	337.77	47.96	-32.6	-33.6	20.7	0.00e+00	0	57	0	2134900736	34	4350
2026-01-03 04:33:48.25	337.34	48.19	-32.3	-33.2	21.0	0.00e+00	0	57	0	2142240768	34	4182
2026-01-03 04:33:49.26	336.89	48.41	-32.5	-33.5	20.7	0.00e+00	0	57	0	2149580800	34	4306
2026-01-03 04:33:50.27	336.44	48.63	-32.2	-33.1	21.2	0.00e+00	0	57	0	2156920832	35	3895
2026-01-03 04:33:51.28	335.98	48.86	-32.0	-32.9	21.3	0.00e+00	0	57	0	2164260864	34	4019
2026-01-03 04:33:52.29	335.52	49.08	-32.0	-32.9	21.4	0.00e+00	0	57	0	2171600896	34	4027
2026-01-03 04:33:53.30	335.05	49.30	-32.2	-33.1	21.2	0.00e+00	0	57	0	2177892352	34	4124
2026-01-03 04:33:54.31	334.57	49.52	-32.3	-33.2	21.0	0.00e+00	0	57	0	2185232384	34	4184
2026-01-03 04:33:55.32	334.08	49.74	-32.4	-33.4	20.9	0.00e+00	0	57	0	2193620992	34	4245
2026-01-03 04:33:56.33	333.59	49.96	-32.4	-33.3	20.9	0.00e+00	0	57	0	2199912448	34	4242
2026-01-03 04:33:57.34	333.09	50.17	-32.2	-33.2	21.1	0.00e+00	0	57	0	2207252480	34	4150
2026-01-03 04:33:58.35	332.58	50.39	-32.2	-33.1	21.2	0.00e+00	0	57	0	2214592512	34	4113
2026-01-03 04:33:59.36	332.07	50.60	-31.9	-32.8	21.4	0.00e+00	0	57	0	2221932544	34	3993
2026-01-03 04:34:00.37	331.55	50.82	-32.3	-33.3	21.0	0.00e+00	0	57	0	2229272576	34	4205
2026-01-03 04:34:01.38	331.02	51.03	-32.6	-33.6	20.7	0.00e+00	0	57	0	2236612608	34	4356
2026-01-03 04:34:02.39	330.48	51.24	-32.5	-33.5	20.8	0.00e+00	0	57	0	2243952640	34	4322
2026-01-03 04:34:03.40	329.93	51.44	-32.7	-33.6	20.7	0.00e+00	0	57	0	2251292672	35	4140
2026-01-03 04:34:04.41	329.38	51.65	-32.8	-33.8	20.5	0.00e+00	0	57	0	2258632704	35	4198
2026-01-03 04:34:05.41	328.83	51.85	-32.6	-33.6	20.6	0.00e+00	0	57	0	2265972736	35	4128
2026-01-03 04:34:06.42	328.26	52.05	-32.8	-33.7	20.5	0.00e+00	0	57	0	2273312768	35	4191
2026-01-03 04:34:07.43	327.69	52.25	-32.6	-33.6	20.7	0.00e+00	0	57	0	2280652800	35	4129
2026-01-03 04:34:08.44	327.10	52.45	-32.4	-33.4	20.9	0.00e+00	0	57	0	2287992832	35	4012
2026-01-03 04:34:09.45	326.51	52.65	-32.5	-33.5	20.7	0.00e+00	0	57	0	2295332864	35	4077
2026-01-03 04:34:10.46	325.91	52.84	-32.6	-33.6	20.7	0.00e+00	0	57	0	2302672896	35	4123
2026-01-03 04:34:11.47	325.31	53.03	-32.7	-33.6	20.6	0.00e+00	0	57	0	2310012928	35	4145
2026-01-03 04:34:12.48	324.69	53.22	-32.7	-33.7	20.6	0.00e+00	0	57	0	2317352960	35	4174
2026-01-03 04:34:13.49	324.07	53.40	-32.6	-33.6	20.7	0.00e+00	0	57	0	2324692992	35	4111
2026-01-03 04:34:14.50	323.44	53.58	-32.6	-33.6	20.7	0.00e+00	0	57	0	2330984448	35	4100
2026-01-03 04:34:15.51	322.80	53.76	-32.2	-33.2	21.1	0.00e+00	0	57	0	2338324480	35	3917
2026-01-03 04:34:16.52	322.15	53.94	-32.2	-33.2	21.1	0.00e+00	0	57	0	2346713088	35	3924
2026-01-03 04:34:17.53	321.50	54.11	-32.4	-33.4	20.8	0.00e+00	0	57	0	2353004544	35	4030
2026-01-03 04:34:18.54	320.84	54.28	-32.3	-33.2	21.1	0.00e+00	0	57	0	2360344576	35	3928
2026-01-03 04:34:19.55	320.17	54.45	-32.4	-33.3	21.0	0.00e+00	0	57	0	2367684608	35	3981
2026-01-03 04:34:20.56	319.49	54.61	-32.7	-33.7	20.4	0.00e+00	0	57	0	2375024640	35	4172
2026-01-03 04:34:21.58	318.80	54.77	-32.7	-33.7	20.6	0.00e+00	0	57	0	2382364672	35	4167
2026-01-03 04:34:22.58	318.11	54.92	-32.6	-33.6	20.6	0.00e+00	0	57	0	2389704704	35	4133
2026-01-03 04:34:23.60	317.40	55.08	-32.4	-33.4	20.9	0.00e+00	0	57	0	2397044736	35	4010
2026-01-03 04:34:24.61	316.69	55.22	-32.2	-33.1	21.1	0.00e+00	0	57	0	2404384768	35	3893
2026-01-03 04:34:25.62	315.98	55.37	-32.1	-33.0	21.2	0.00e+00	0	57	0	2411724800	35	3862
2026-01-03 04:34:26.63	315.25	55.51	-32.2	-33.1	21.1	0.00e+00	0	57	0	2419064832	34	4127
2026-01-03 04:34:27.64	314.52	55.64	-32.3	-33.3	21.0	0.00e+00	0	57	0	2426404864	34	4222
2026-01-03 04:34:28.65	313.79	55.77	-32.3	-33.3	21.0	0.00e+00	0	57	0	2433744896	34	4201
2026-01-03 04:34:29.66	313.04	55.90	-32.5	-33.5	20.8	0.00e+00	0	57	0	2441084928	34	4314
2026-01-03 04:34:30.67	312.29	56.02	-32.7	-33.7	20.5	0.00e+00	0	57	0	2448424960	35	4167
2026-01-03 04:34:31.68	311.53	56.14	-33.2	-34.2	20.1	0.00e+00	0	57	0	2455764992	35	4405
2026-01-03 04:34:32.69	310.77	56.25	-33.9	-34.9	20.1	0.00e+00	0	57	0	2463105024	37	4276
2026-01-03 04:34:33.70	310.00	56.36	-33.8	-34.8	20.3	0.00e+00	0	57	0	2470445056	37	4221
2026-01-03 04:34:34.71	309.22	56.47	-33.4	-34.3	20.7	0.00e+00	0	57	0	2476736512	37	3997
2026-01-03 04:34:35.72	308.44	56.56	-32.7	-33.6	21.3	0.00e+00	0	57	0	2485125120	36	3906
2026-01-03 04:34:36.73	307.66	56.66	-31.9	-32.8	21.3	0.00e+00	0	57	0	2492465152	34	3959
2026-01-03 04:34:37.74	306.86	56.75	-32.0	-32.9	20.8	1.10e-06	0	57	0	2498756608	34	4028
2026-01-03 04:34:38.75	306.07	56.83	-32.3	-33.2	20.2	0.00e+00	0	57	0	2506096640	34	4169
2026-01-03 04:34:39.76	305.26	56.91	-32.6	-33.5	19.9	0.00e+00	0	57	0	2513436672	34	4337
2026-01-03 04:34:40.77	304.46	56.98	-32.3	-33.3	20.5	0.00e+00	0	57	0	2520776704	34	4209
2026-01-03 04:34:41.78	303.65	57.05	-32.4	-33.4	20.8	0.00e+00	0	57	0	2528116736	34	4269
2026-01-03 04:34:42.79	302.83	57.11	-32.4	-33.3	20.9	0.00e+00	0	57	0	2535456768	34	4238
2026-01-03 04:34:43.80	302.01	57.17	-32.2	-33.2	21.1	0.00e+00	0	57	0	2542796800	34	4154
2026-01-03 04:34:44.81	301.19	57.22	-32.1	-33.0	21.2	0.00e+00	0	57	0	2550136832	34	4089
2026-01-03 04:34:45.82	300.37	57.26	-32.4	-33.3	21.0	0.00e+00	0	57	0	2557476864	34	4222
2026-01-03 04:34:46.83	299.54	57.30	-32.7	-33.6	20.6	0.00e+00	0	57	0	2564816896	34	4390
2026-01-03 04:34:47.84	298.71	57.33	-32.8	-33.8	20.4	0.00e+00	0	57	0	2572156928	35	4227
2026-01-03 04:34:48.85	297.88	57.36	-32.7	-33.7	20.6	0.00e+00	0	57	0	2579496960	35	4157
2026-01-03 04:34:49.86	297.05	57.38	-32.5	-33.5	20.8	0.00e+00	0	57	0	2586836992	35	4060
2026-01-03 04:34:50.87	296.21	57.40	-32.2	-33.1	21.1	0.00e+00	0	57	0	2594177024	35	3906
2026-01-03 04:34:51.88	295.38	57.41	-32.2	-33.1	21.0	0.00e+00	0	57	0	2601517056	35	3891
2026-01-03 04:34:52.89	294.54	57.42	-32.7	-33.7	20.6	0.00e+00	0	57	0	2608857088	35	4153
2026-01-03 04:34:53.90	293.71	57.42	-33.0	-34.0	20.2	0.00e+00	0	57	0	2616197120	35	4324
2026-01-03 04:34:54.91	292.87	57.41	-33.1	-34.2	20.1	0.00e+00	0	57	0	2623537152	35	4393
2026-01-03 04:34:55.92	292.04	57.40	-32.8	-33.8	20.4	0.00e+00	0	57	0	2630877184	35	4236
2026-01-03 04:34:56.93	291.21	57.38	-32.6	-33.5	20.7	0.00e+00	0	57	0	2638217216	35	4096
2026-01-03 04:34:57.94	290.37	57.35	-32.3	-33.3	20.9	0.00e+00	0	57	0	2645557248	35	3973
2026-01-03 04:34:58.95	289.54	57.32	-32.3	-33.2	21.0	0.00e+00	0	57	0	2651848704	35	3957
2026-01-03 04:34:59.96	288.71	57.29	-32.1	-33.1	21.1	0.00e+00	0	57	0	2659188736	35	3878
2026-01-03 04:35:00.97	287.89	57.25	-32.3	-33.2	21.0	0.00e+00	0	57	0	2666528768	35	3936
2026-01-03 04:35:01.98	287.06	57.20	-32.4	-33.4	20.8	0.00e+00	0	57	0	2673868800	35	4021
2026-01-03 04:35:02.99	286.24	57.15	-32.6	-33.6	20.7	0.00e+00	0	57	0	2681208832	35	4105
2026-01-03 04:35:04.00	285.42	57.09	-32.7	-33.7	20.6	0.00e+00	0	57	0	2688548864	35	4153
2026-01-03 04:35:05.01	284.61	57.03	-32.7	-33.7	20.5	0.00e+00	0	57	0	2695888896	35	4181
2026-01-03 04:35:06.02	283.80	56.96	-32.6	-33.6	20.6	0.00e+00	0	57	0	2703228928	35	4130
2026-01-03 04:35:07.03	282.99	56.88	-32.3	-33.3	20.9	0.00e+00	0	57	0	2710568960	35	3979
2026-01-03 04:35:08.04	282.19	56.80	-31.8	-32.7	21.5	0.00e+00	0	57	0	2717908992	34	3949
2026-01-03 04:35:09.05	281.40	56.72	-31.7	-32.6	21.5	0.00e+00	0	57	0	2725249024	34	3902
2026-01-03 04:35:10.06	280.61	56.63	-31.9	-32.8	21.3	0.00e+00	0	57	0	2732589056	34	3998
2026-01-03 04:35:11.07	279.82	56.53	-32.1	-33.0	21.2	0.00e+00	0	57	0	2739929088	34	4071
2026-01-03 04:35:12.08	279.04	56.43	-32.2	-33.1	21.1	0.00e+00	0	57	0	2747269120	34	4136
2026-01-03 04:35:13.09	278.26	56.33	-32.1	-33.0	21.1	0.00e+00	0	57	0	2754609152	34	4079
2026-01-03 04:35:14.10	277.49	56.22	-32.0	-32.9	21.3	0.00e+00	0	57	0	2761949184	34	4043
2026-01-03 04:35:15.11	276.73	56.10	-32.2	-33.2	21.1	0.00e+00	0	57	0	2769289216	34	4162
2026-01-03 04:35:16.13	275.97	55.98	-32.4	-33.4	20.9	0.00e+00	0	57	0	2776629248	34	4245
2026-01-03 04:35:17.14	275.22	55.86	-32.6	-33.6	20.6	0.00e+00	0	57	0	2783969280	35	4108
2026-01-03 04:35:18.15	274.48	55.73	-32.4	-33.4	20.8	0.00e+00	0	57	0	2791309312	35	4029
2026-01-03 04:35:19.16	273.74	55.60	-32.5	-33.4	20.8	0.00e+00	0	57	0	2797600768	35	4051
2026-01-03 04:35:20.17	273.01	55.46	-32.5	-33.4	20.8	0.00e+00	0	57	0	2804940800	35	4041
2026-01-03 04:35:21.18	272.29	55.32	-32.5	-33.5	20.7	0.00e+00	0	57	0	2813329408	35	4091
2026-01-03 04:35:22.19	271.57	55.17	-32.7	-33.7	20.6	0.00e+00	0	57	0	2819620864	35	4153
2026-01-03 04:35:23.20	270.87	55.02	-32.5	-33.5	20.7	0.00e+00	0	57	0	2826960896	35	4085
2026-01-03 04:35:24.21	270.17	54.87	-32.6	-33.6	20.7	0.00e+00	0	57	0	2834300928	35	4105
2026-01-03 04:35:25.22	269.48	54.71	-32.5	-33.4	20.6	0.00e+00	0	57	0	2841640960	35	4047
2026-01-03 04:35:26.23	268.79	54.55	-32.6	-33.6	20.6	0.00e+00	0	57	0	2848980992	35	4126
2026-01-03 04:35:27.24	268.11	54.39	-32.4	-33.4	20.8	0.00e+00	0	57	0	2856321024	35	4021
2026-01-03 04:35:28.25	267.45	54.22	-32.3	-33.2	21.0	0.00e+00	0	57	0	2863661056	35	3942
2026-01-03 04:35:29.26	266.78	54.05	-32.0	-32.9	21.3	0.00e+00	0	57	0	2871001088	34	4030
2026-01-03 04:35:30.26	266.14	53.88	-32.1	-33.0	21.2	0.00e+00	0	57	0	2878341120	34	4071
2026-01-03 04:35:31.27	265.49	53.70	-32.2	-33.1	21.1	0.00e+00	0	57	0	2885681152	34	4130
2026-01-03 04:35:32.28	264.86	53.52	-32.2	-33.2	21.0	0.00e+00	0	57	0	2893021184	34	4152
2026-01-03 04:35:33.30	264.22	53.33	-32.2	-33.2	21.0	0.00e+00	0	57	0	2900361216	34	4154
2026-01-03 04:35:34.31	263.60	53.15	-32.1	-33.1	21.2	0.00e+00	0	57	0	2907701248	34	4099
2026-01-03 04:35:35.32	262.99	52.96	-32.1	-33.0	21.2	0.00e+00	0	57	0	2915041280	34	4088
2026-01-03 04:35:36.33	262.38	52.77	-32.2	-33.1	21.1	0.00e+00	0	57	0	2922381312	34	4132
2026-01-03 04:35:37.34	261.78	52.57	-32.6	-33.6	20.7	0.00e+00	0	57	0	2929721344	34	4350
2026-01-03 04:35:38.34	261.20	52.38	-32.9	-33.9	20.3	0.00e+00	0	57	0	2937061376	35	4274
2026-01-03 04:35:39.35	260.62	52.18	-32.9	-33.9	20.3	0.00e+00	0	58	0	2944401408	35	4269
2026-01-03 04:35:40.36	260.04	51.98	-32.6	-33.6	20.6	0.00e+00	0	57	0	2950692864	35	4133
2026-01-03 04:35:41.37	259.48	51.78	-32.3	-33.3	20.9	0.00e+00	0	57	0	2959081472	35	3968
2026-01-03 04:35:42.38	258.92	51.57	-32.1	-33.1	21.1	0.00e+00	0	57	0	2966421504	35	3869
2026-01-03 04:35:43.39	258.37	51.36	-32.4	-33.4	20.9	0.00e+00	0	58	0	2972712960	35	4014
2026-01-03 04:35:44.40	257.82	51.15	-32.9	-33.9	20.3	0.00e+00	0	57	0	2980052992	35	4272
2026-01-03 04:35:45.41	257.29	50.94	-33.1	-34.2	20.0	0.00e+00	0	57	0	2987393024	35	4405
2026-01-03 04:35:46.42	256.76	50.73	-32.9	-33.9	20.3	0.00e+00	0	58	0	2994733056	35	4291
2026-01-03 04:35:47.43	256.24	50.52	-32.8	-33.8	20.4	0.00e+00	0	57	0	3002073088	35	4200
2026-01-03 04:35:48.44	255.73	50.30	-32.4	-33.3	20.9	0.00e+00	0	57	0	3009413120	35	3980
2026-01-03 04:35:49.45	255.22	50.09	-32.2	-33.1	21.1	0.00e+00	0	57	0	3016753152	35	3898
2026-01-03 04:35:50.46	254.72	49.87	-32.0	-32.9	21.3	0.00e+00	0	57	0	3024093184	35	3806
2026-01-03 04:35:51.47	254.23	49.65	-32.1	-33.0	21.2	0.00e+00	0	57	0	3031433216	34	4066
2026-01-03 04:35:52.48	253.74	49.43	-32.3	-33.3	20.9	0.00e+00	0	57	0	3038773248	34	4216
2026-01-03 04:35:53.49	253.27	49.21	-32.8	-33.8	20.5	0.00e+00	0	57	0	3046113280	35	4216
2026-01-03 04:35:54.50	252.80	48.98	-32.7	-33.8	20.1	0.00e+00	0	57	0	3053453312	35	4196
2026-01-03 04:35:55.51	252.33	48.76	-32.4	-33.4	20.8	0.00e+00	0	57	0	3060793344	35	4027
2026-01-03 04:35:56.52	251.88	48.54	-32.2	-33.1	21.1	0.00e+00	0	57	0	3068133376	35	3889
2026-01-03 04:35:57.54	251.42	48.31	-31.8	-32.7	21.5	0.00e+00	0	57	0	3075473408	34	3932
2026-01-03 04:35:58.55	250.98	48.08	-31.7	-32.6	21.6	0.00e+00	0	57	0	3082813440	34	3894
2026-01-03 04:35:59.56	250.54	47.86	-31.8	-32.7	21.4	0.00e+00	0	57	0	3090153472	34	3934
2026-01-03 04:36:00.57	250.11	47.63	-32.0	-32.9	21.3	0.00e+00	0	57	0	3096444928	34	4023
2026-01-03 04:36:01.58	249.68	47.40	-32.1	-33.1	21.1	0.00e+00	0	57	0	3104833536	34	4111
2026-01-03 04:36:02.59	249.26	47.17	-32.1	-33.0	21.2	0.00e+00	0	57	0	3112173568	34	4079
2026-01-03 04:36:03.60	248.85	46.95	-31.9	-32.9	21.3	0.00e+00	0	57	0	3118465024	34	4012
2026-01-03 04:36:04.61	248.44	46.72	-31.8	-32.8	21.4	0.00e+00	0	57	0	3125805056	34	3976
2026-01-03 04:36:05.62	248.04	46.49	-31.6	-32.5	21.6	0.00e+00	0	57	0	3134193664	34	3849
2026-01-03 04:36:06.63	247.65	46.26	-31.5	-32.4	21.7	0.00e+00	0	57	0	3140485120	33	4022
2026-01-03 04:36:07.64	247.26	46.03	-31.4	-32.3	21.8	0.00e+00	0	57	0	3147825152	33	3987
2026-01-03 04:36:08.65	246.88	45.80	-31.6	-32.5	21.6	0.00e+00	0	57	0	3155165184	33	4077
2026-01-03 04:36:09.65	246.50	45.57	-31.8	-32.7	21.5	0.00e+00	0	58	0	3162505216	33	4167
2026-01-03 04:36:10.66	246.13	45.34	-31.9	-32.8	21.3	0.00e+00	0	57	0	3169845248	33	4239
2026-01-03 04:36:11.67	245.76	45.11	-31.6	-32.5	21.6	0.00e+00	0	57	0	3177185280	33	4093
2026-01-03 04:36:12.68	245.40	44.88	-31.3	-32.2	21.9	0.00e+00	0	57	0	3184525312	33	3939
2026-01-03 04:36:13.69	245.04	44.65	-31.1	-32.0	22.1	0.00e+00	0	57	0	3191865344	33	3826
2026-01-03 04:36:14.70	244.69	44.42	-31.1	-32.0	22.1	0.00e+00	0	57	0	3199205376	33	3841
2026-01-03 04:36:15.71	244.35	44.19	-31.2	-32.1	22.0	0.00e+00	0	57	0	3206545408	33	3888
2026-01-03 04:36:16.72	244.01	43.96	-31.2	-32.1	21.9	0.00e+00	0	57	0	3213885440	33	3910
2026-01-03 04:36:17.73	243.67	43.73	-31.1	-32.0	22.1	0.00e+00	0	57	0	3221225472	33	3841
2026-01-03 04:36:18.74	243.34	43.50	-30.9	-31.8	22.2	0.00e+00	0	57	0	3228565504	32	4001
2026-01-03 04:36:19.75	243.01	43.28	-30.8	-31.7	22.4	0.00e+00	0	57	0	3235905536	32	3936
2026-01-03 04:36:20.77	242.69	43.05	-30.9	-31.8	21.5	0.00e+00	0	57	0	3243245568	32	3980
2026-01-03 04:36:21.77	242.37	42.82	-30.9	-31.8	22.3	0.00e+00	0	57	0	3250585600	32	3962
2026-01-03 04:36:22.79	242.06	42.59	-31.0	-31.9	22.1	0.00e+00	0	57	0	3257925632	32	4047
2026-01-03 04:36:23.80	241.75	42.36	-31.1	-32.0	22.1	0.00e+00	0	57	0	3265265664	32	4095
2026-01-03 04:36:24.81	241.44	42.14	-31.2	-32.2	22.0	0.00e+00	0	57	0	3271557120	32	4147
2026-01-03 04:36:25.82	241.14	41.91	-31.2	-32.1	21.9	0.00e+00	0	57	0	3279945728	32	4132
2026-01-03 04:36:26.83	240.85	41.68	-31.3	-32.2	22.0	0.00e+00	0	58	0	3287285760	32	4162
2026-01-03 04:36:27.84	240.55	41.46	-31.3	-32.2	22.0	0.00e+00	0	57	0	3293577216	32	4157
2026-01-03 04:36:28.85	240.27	41.23	-31.2	-32.1	22.0	0.00e+00	0	57	0	3300917248	32	4103
2026-01-03 04:36:29.86	239.98	41.01	-31.1	-32.0	22.0	0.00e+00	0	57	0	3308257280	32	4097
2026-01-03 04:36:30.87	239.70	40.79	-31.1	-31.9	21.9	0.00e+00	0	57	0	3315597312	32	4051
2026-01-03 04:36:31.88	239.43	40.56	-31.1	-32.0	22.1	0.00e+00	0	58	0	3322937344	32	4072
2026-01-03 04:36:32.89	239.16	40.34	-31.3	-32.2	21.9	0.00e+00	0	57	0	3330277376	32	4160
2026-01-03 04:36:33.90	238.89	40.12	-31.4	-32.3	21.8	0.00e+00	0	57	0	3337617408	32	4221
2026-01-03 04:36:34.91	238.62	39.90	-31.4	-32.3	21.8	0.00e+00	0	57	0	3344957440	32	4216
2026-01-03 04:36:35.92	238.36	39.68	-31.2	-32.2	21.9	0.00e+00	0	58	0	3352297472	32	4149
2026-01-03 04:36:36.93	238.10	39.46	-31.1	-32.0	22.1	0.00e+00	0	57	0	3359637504	32	4062
2026-01-03 04:36:37.94	237.85	39.24	-30.9	-31.8	22.3	0.00e+00	0	57	0	3366977536	32	3995
2026-01-03 04:36:38.95	237.60	39.02	-30.9	-31.8	22.3	0.00e+00	0	57	0	3374317568	32	3976
2026-01-03 04:36:39.96	237.35	38.81	-30.9	-31.8	22.3	0.00e+00	0	57	0	3381657600	32	3986
2026-01-03 04:36:40.97	237.11	38.59	-31.0	-31.9	21.9	0.00e+00	0	57	0	3388997632	32	4042
2026-01-03 04:36:41.98	236.87	38.37	-31.0	-31.9	22.2	0.00e+00	0	57	0	3396337664	32	4018
2026-01-03 04:36:42.99	236.63	38.16	-30.9	-31.8	22.2	0.00e+00	0	57	0	3403677696	32	3993
2026-01-03 04:36:44.00	236.39	37.94	-30.8	-31.7	22.3	0.00e+00	0	57	0	3411017728	32	3938
2026-01-03 04:36:45.01	236.16	37.73	-30.7	-31.6	22.4	0.00e+00	0	57	0	3418357760	32	3895
2026-01-03 04:36:46.02	235.93	37.52	-30.7	-31.6	22.5	0.00e+00	0	57	0	3425697792	32	3873
2026-01-03 04:36:47.03	235.71	37.31	-30.7	-31.6	22.4	0.00e+00	0	58	0	3433037824	32	3906
2026-01-03 04:36:48.04	235.49	37.10	-30.8	-31.7	22.3	0.00e+00	0	57	0	3439329280	32	3921
2026-01-03 04:36:49.06	235.27	36.88	-30.9	-31.8	22.3	0.00e+00	0	57	0	3446669312	32	3966
2026-01-03 04:36:50.07	235.05	36.67	-30.9	-31.8	22.2	0.00e+00	0	58	0	3455057920	32	3994
2026-01-03 04:36:51.08	234.83	36.47	-30.9	-31.8	22.2	0.00e+00	0	57	0	3461349376	32	3996
2026-01-03 04:36:52.09	234.62	36.26	-31.0	-31.9	21.9	0.00e+00	0	57	0	3468689408	32	4016
2026-01-03 04:36:53.10	234.42	36.05	-30.9	-31.8	22.3	0.00e+00	0	57	0	3476029440	32	3972
2026-01-03 04:36:54.11	234.21	35.85	-30.9	-31.8	22.3	0.00e+00	0	57	0	3483369472	32	3974
2026-01-03 04:36:55.12	234.01	35.64	-30.9	-31.8	22.2	0.00e+00	0	57	0	3490709504	32	3971
2026-01-03 04:36:56.13	233.81	35.44	-30.9	-31.8	22.2	0.00e+00	0	57	0	3498049536	32	3991
2026-01-03 04:36:57.14	233.61	35.24	-30.9	-31.8	22.2	0.00e+00	0	57	0	3505389568	32	3990
2026-01-03 04:36:58.15	233.41	35.03	-30.9	-31.8	22.2	0.00e+00	0	57	0	3512729600	32	3984
2026-01-03 04:36:59.16	233.22	34.83	-30.9	-31.8	22.3	0.00e+00	0	57	0	3520069632	32	3971
2026-01-03 04:37:00.17	233.03	34.63	-30.8	-31.7	22.4	0.00e+00	0	57	0	3527409664	32	3932
2026-01-03 04:37:01.18	232.84	34.43	-30.7	-31.6	22.5	0.00e+00	0	58	0	3534749696	32	3879
2026-01-03 04:37:02.19	232.65	34.23	-30.6	-31.5	22.6	0.00e+00	0	58	0	3542089728	32	3840
2026-01-03 04:37:03.20	232.47	34.04	-30.5	-31.4	22.5	0.00e+00	0	57	0	3549429760	32	3816
2026-01-03 04:37:04.21	232.29	33.84	-30.3	-31.2	22.7	0.00e+00	0	58	0	3556769792	31	3918
2026-01-03 04:37:05.21	232.11	33.65	-30.3	-31.2	22.6	0.00e+00	0	57	0	3564109824	31	3922
2026-01-03 04:37:06.22	231.93	33.45	-30.4	-31.3	22.5	0.00e+00	0	57	0	3571449856	31	3968
2026-01-03 04:37:07.23	231.76	33.26	-30.4	-31.3	22.4	0.00e+00	0	58	0	3578789888	31	3985
2026-01-03 04:37:08.24	231.58	33.07	-30.5	-31.4	22.5	0.00e+00	0	57	0	3586129920	31	4029
2026-01-03 04:37:09.25	231.41	32.87	-30.5	-31.4	22.4	0.00e+00	0	58	0	3592421376	31	4046
2026-01-03 04:37:10.26	231.24	32.68	-30.6	-31.5	22.4	0.00e+00	0	58	0	3600809984	31	4061
2026-01-03 04:37:11.27	231.08	32.49	-30.6	-31.5	22.4	0.00e+00	0	58	0	3608150016	31	4069
2026-01-03 04:37:12.29	230.91	32.30	-30.5	-31.4	22.2	0.00e+00	0	58	0	3614441472	31	4027
2026-01-03 04:37:13.30	230.75	32.11	-30.5	-31.4	22.5	0.00e+00	0	58	0	3621781504	31	4016
2026-01-03 04:37:14.31	230.58	31.93	-30.5	-31.4	22.4	0.00e+00	0	58	0	3629121536	31	4005
2026-01-03 04:37:15.32	230.43	31.74	-30.5	-31.3	22.5	0.00e+00	0	57	0	3636461568	31	4003
2026-01-03 04:37:16.33	230.27	31.55	-30.5	-31.4	22.5	0.00e+00	0	57	0	3643801600	31	4006
2026-01-03 04:37:17.33	230.11	31.37	-30.5	-31.4	22.5	0.00e+00	0	57	0	3651141632	31	4017
2026-01-03 04:37:18.35	229.96	31.19	-30.4	-31.3	22.5	0.00e+00	0	57	0	3658481664	31	3993
2026-01-03 04:37:19.36	229.81	31.00	-30.4	-31.3	22.6	0.00e+00	0	58	0	3665821696	31	3963
2026-01-03 04:37:20.37	229.66	30.82	-30.3	-31.2	22.6	0.00e+00	0	58	0	3673161728	31	3935
2026-01-03 04:37:21.38	229.51	30.64	-30.3	-31.1	22.7	0.00e+00	0	57	0	3680501760	31	3909
2026-01-03 04:37:22.38	229.36	30.46	-30.3	-31.1	22.7	0.00e+00	0	58	0	3687841792	31	3900
2026-01-03 04:37:23.40	229.21	30.28	-30.2	-31.1	22.7	0.00e+00	0	57	0	3695181824	31	3886
2026-01-03 04:37:24.41	229.07	30.10	-30.3	-31.1	22.6	0.00e+00	0	58	0	3702521856	31	3913
2026-01-03 04:37:25.42	228.93	29.93	-30.4	-31.2	22.5	0.00e+00	0	57	0	3709861888	31	3954
2026-01-03 04:37:26.43	228.79	29.75	-30.5	-31.3	22.5	0.00e+00	0	58	0	3717201920	31	4004
2026-01-03 04:37:27.44	228.65	29.57	-30.6	-31.5	22.4	0.00e+00	0	57	0	3724541952	31	4060
2026-01-03 04:37:28.45	228.51	29.40	-30.7	-31.6	22.2	0.00e+00	0	57	0	3731881984	31	4108
2026-01-03 04:37:29.46	228.38	29.23	-30.7	-31.6	22.3	0.00e+00	0	58	0	3738173440	31	4110
2026-01-03 04:37:30.47	228.24	29.05	-30.7	-31.6	22.2	0.00e+00	0	57	0	3746562048	31	4127
2026-01-03 04:37:31.48	228.11	28.88	-30.7	-31.6	22.2	0.00e+00	0	57	0	3753902080	31	4110
2026-01-03 04:37:32.49	227.98	28.71	-30.7	-31.6	22.3	0.00e+00	0	58	0	3760193536	31	4102
2026-01-03 04:37:33.50	227.85	28.54	-30.7	-31.6	22.3	0.00e+00	0	57	0	3767533568	31	4102
2026-01-03 04:37:34.51	227.72	28.37	-30.6	-31.5	22.2	0.00e+00	0	58	0	3775922176	31	4076
2026-01-03 04:37:35.52	227.59	28.20	-30.7	-31.6	22.2	0.00e+00	0	58	0	3782213632	31	4110
2026-01-03 04:37:36.53	227.46	28.03	-30.7	-31.6	22.2	0.00e+00	0	57	0	3789553664	31	4138
2026-01-03 04:37:37.54	227.34	27.87	-30.8	-31.7	22.1	0.00e+00	0	58	0	3796893696	31	4160
2026-01-03 04:37:38.55	227.22	27.70	-30.9	-31.8	22.0	0.00e+00	0	57	0	3804233728	31	4208
2026-01-03 04:37:39.56	227.09	27.54	-30.9	-31.8	22.0	0.00e+00	0	58	0	3811573760	31	4239
2026-01-03 04:37:40.57	226.97	27.37	-31.0	-31.9	21.9	0.00e+00	0	57	0	3818913792	31	4262
2026-01-03 04:37:41.58	226.85	27.21	-31.0	-31.9	21.9	0.00e+00	0	57	0	3826253824	31	4269
2026-01-03 04:37:42.59	226.73	27.05	-31.0	-31.9	21.9	0.00e+00	0	58	0	3833593856	31	4273
2026-01-03 04:37:43.60	226.62	26.88	-31.0	-31.9	21.9	0.00e+00	0	57	0	3840933888	31	4270
2026-01-03 04:37:44.61	226.50	26.72	-31.0	-31.9	21.9	0.00e+00	0	57	0	3848273920	31	4273
2026-01-03 04:37:45.62	226.39	26.56	-31.0	-31.9	21.9	0.00e+00	0	57	0	3855613952	31	4286
2026-01-03 04:37:46.63	226.27	26.40	-31.0	-31.9	21.9	0.00e+00	0	57	0	3862953984	31	4291
2026-01-03 04:37:47.64	226.16	26.25	-31.1	-32.0	21.8	0.00e+00	0	58	0	3870294016	31	4328
2026-01-03 04:37:48.65	226.05	26.09	-31.1	-32.1	21.7	0.00e+00	0	58	0	3877634048	31	4345
2026-01-03 04:37:49.66	225.94	25.93	-31.4	-32.3	21.7	0.00e+00	0	58	0	3884974080	32	4230
2026-01-03 04:37:50.67	225.83	25.77	-31.4	-32.4	21.7	0.00e+00	0	57	0	3892314112	32	4250
2026-01-03 04:37:51.68	225.72	25.62	-31.5	-32.4	21.6	0.00e+00	0	58	0	3899654144	32	4290
2026-01-03 04:37:52.69	225.61	25.47	-31.5	-32.5	21.5	0.00e+00	0	58	0	3906994176	32	4301
2026-01-03 04:37:53.70	225.51	25.31	-31.6	-32.5	21.5	0.00e+00	0	57	0	3913285632	32	4324
2026-01-03 04:37:54.71	225.40	25.16	-31.5	-32.5	21.6	0.00e+00	0	57	0	3921674240	32	4294
2026-01-03 04:37:55.72	225.30	25.01	-31.4	-32.4	21.6	0.00e+00	0	58	0	3929014272	32	4245
2026-01-03 04:37:56.73	225.20	24.85	-31.3	-32.3	21.7	0.00e+00	0	58	0	3935305728	32	4194
2026-01-03 04:37:57.74	225.10	24.70	-31.2	-32.2	21.8	0.00e+00	0	57	0	3942645760	32	4150
2026-01-03 04:37:58.75	224.99	24.55	-31.2	-32.1	21.9	0.00e+00	0	57	0	3949985792	32	4103
2026-01-03 04:37:59.76	224.89	24.41	-31.1	-32.0	21.9	0.00e+00	0	58	0	3957325824	32	4065
2026-01-03 04:38:00.77	224.80	24.26	-31.0	-31.9	22.1	0.00e+00	0	58	0	3964665856	32	4015
2026-01-03 04:38:01.78	224.70	24.11	-30.9	-31.8	22.1	0.00e+00	0	57	0	3972005888	32	3998
2026-01-03 04:38:02.79	224.60	23.96	-30.9	-31.8	22.1	0.00e+00	0	57	0	3979345920	32	3960
2026-01-03 04:38:03.80	224.51	23.82	-30.9	-31.8	22.2	0.00e+00	0	58	0	3986685952	32	3960
2026-01-03 04:38:04.81	224.41	23.67	-30.9	-31.8	22.1	0.00e+00	0	58	0	3994025984	32	3970
2026-01-03 04:38:05.82	224.32	23.53	-30.9	-31.8	22.1	0.00e+00	0	58	0	4001366016	32	3985
2026-01-03 04:38:06.83	224.22	23.38	-30.9	-31.8	22.1	0.00e+00	0	58	0	4008706048	32	3994
2026-01-03 04:38:07.84	224.13	23.24	-31.0	-31.9	22.0	0.00e+00	0	58	0	4016046080	32	4035
2026-01-03 04:38:08.86	224.04	23.09	-31.0	-31.9	22.0	0.00e+00	0	58	0	4023386112	32	4046
2026-01-03 04:38:09.87	223.95	22.95	-31.1	-32.0	21.9	0.00e+00	0	58	0	4030726144	32	4093
2026-01-03 04:38:10.88	223.86	22.81	-31.2	-32.1	21.8	0.00e+00	0	58	0	4038066176	32	4129
2026-01-03 04:38:11.89	223.77	22.67	-31.3	-32.2	21.8	0.00e+00	0	58	0	4045406208	32	4155
2026-01-03 04:38:12.90	223.68	22.53	-31.3	-32.2	21.7	0.00e+00	0	58	0	4052746240	32	4176
2026-01-03 04:38:13.91	223.59	22.39	-31.4	-32.3	21.6	0.00e+00	0	58	0	4060086272	32	4225
2026-01-03 04:38:14.92	223.51	22.25	-31.5	-32.4	21.5	0.00e+00	0	58	0	4067426304	32	4267
2026-01-03 04:38:15.93	223.42	22.12	-31.5	-32.5	21.5	0.00e+00	0	58	0	4074766336	32	4309
2026-01-03 04:38:16.94	223.33	21.98	-31.6	-32.5	21.4	0.00e+00	0	58	0	4081057792	32	4326
2026-01-03 04:38:17.95	223.25	21.84	-31.6	-32.6	21.3	0.00e+00	0	58	0	4088397824	32	4356
2026-01-03 04:38:18.96	223.17	21.71	-31.7	-32.6	21.3	0.00e+00	0	58	0	4096786432	32	4388
2026-01-03 04:38:19.97	223.08	21.57	-31.7	-32.7	21.2	0.00e+00	0	58	0	4103077888	33	4148
2026-01-03 04:38:20.98	223.00	21.44	-31.8	-32.7	21.3	0.00e+00	0	58	0	4110417920	33	4172
2026-01-03 04:38:21.99	222.92	21.30	-31.8	-32.7	21.2	0.00e+00	0	58	0	4117757952	33	4168
2026-01-03 04:38:23.00	222.84	21.17	-31.8	-32.8	21.2	0.00e+00	0	58	0	4125097984	33	4202
2026-01-03 04:38:24.01	222.76	21.04	-31.8	-32.8	21.0	0.00e+00	0	58	0	4132438016	33	4218
2026-01-03 04:38:25.02	222.68	20.91	-31.8	-32.7	21.2	0.00e+00	0	58	0	4139778048	33	4182
2026-01-03 04:38:26.03	222.60	20.78	-31.8	-32.8	21.1	0.00e+00	0	58	0	4147118080	33	4198
2026-01-03 04:38:27.04	222.52	20.64	-31.8	-32.8	21.2	0.00e+00	0	58	0	4154458112	33	4201
2026-01-03 04:38:28.05	222.45	20.52	-31.8	-32.8	21.1	0.00e+00	0	58	0	4161798144	33	4201
2026-01-03 04:38:29.06	222.37	20.39	-31.8	-32.7	21.2	0.00e+00	0	58	0	4169138176	33	4185
2026-01-03 04:38:30.07	222.29	20.26	-31.8	-32.8	21.1	0.00e+00	0	58	0	4176478208	33	4206
2026-01-03 04:38:31.08	222.22	20.13	-31.9	-32.8	21.1	0.00e+00	0	58	0	4183818240	33	4220
2026-01-03 04:38:32.09	222.14	20.00	-31.8	-32.8	21.2	0.00e+00	0	58	0	4191158272	33	4203
2026-01-03 04:38:33.10	222.07	19.87	-31.8	-32.8	21.2	0.00e+00	0	58	0	4198498304	33	4201
2026-01-03 04:38:34.11	222.00	19.75	-31.8	-32.7	21.2	0.00e+00	0	58	0	4205838336	33	4190
2026-01-03 04:38:35.12	221.93	19.62	-31.8	-32.8	21.1	0.00e+00	0	58	0	4213178368	33	4207
2026-01-03 04:38:36.13	221.85	19.50	-31.9	-32.8	21.1	0.00e+00	0	58	0	4220518400	33	4238
2026-01-03 04:38:37.15	221.78	19.37	-31.9	-32.8	21.1	0.00e+00	0	58	0	4227858432	33	4236
2026-01-03 04:38:38.16	221.71	19.25	-31.9	-32.8	21.1	0.00e+00	0	57	0	4234149888	33	4234
2026-01-03 04:38:39.17	221.64	19.12	-31.9	-32.9	21.0	0.00e+00	0	58	0	4242538496	33	4250
2026-01-03 04:38:40.18	221.57	19.00	-32.0	-32.9	21.0	0.00e+00	0	57	0	4249878528	33	4291
2026-01-03 04:38:41.19	221.50	18.88	-32.0	-33.0	21.0	0.00e+00	0	58	0	4256169984	33	4294
2026-01-03 04:38:42.20	221.43	18.76	-32.0	-33.0	20.9	0.00e+00	0	58	0	4263510016	33	4306
2026-01-03 04:38:43.20	221.37	18.64	-32.0	-33.0	20.9	0.00e+00	0	57	0	4270850048	33	4317
2026-01-03 04:38:44.21	221.30	18.52	-32.1	-33.1	20.8	0.00e+00	0	58	0	4278190080	33	4359
2026-01-03 04:38:45.22	221.23	18.40	-32.1	-33.1	20.8	0.00e+00	0	57	0	4285530112	33	4375
2026-01-03 04:38:46.23	221.16	18.28	-32.1	-33.1	20.7	0.00e+00	0	58	0	4292870144	33	4364
2026-01-03 04:38:47.24	221.10	18.16	-32.2	-33.1	20.7	0.00e+00	0	58	0	4300210176	33	4391
2026-01-03 04:38:48.26	221.03	18.04	-32.2	-33.2	20.7	0.00e+00	0	58	0	4307550208	34	4171
2026-01-03 04:38:49.27	220.97	17.92	-32.3	-33.3	20.6	0.00e+00	0	58	0	4314890240	34	4214
2026-01-03 04:38:50.28	220.90	17.80	-32.3	-33.3	20.6	0.00e+00	0	58	0	4322230272	34	4213
2026-01-03 04:38:51.29	220.84	17.69	-32.4	-33.3	20.5	0.00e+00	0	58	0	4329570304	34	4240
2026-01-03 04:38:52.30	220.78	17.57	-32.4	-33.4	20.5	0.00e+00	0	58	0	4336910336	34	4246
2026-01-03 04:38:53.31	220.71	17.45	-32.4	-33.4	20.5	0.00e+00	0	57	0	4344250368	34	4279
2026-01-03 04:38:54.32	220.65	17.34	-32.5	-33.5	20.4	0.00e+00	0	58	0	4351590400	34	4328
2026-01-03 04:38:55.33	220.59	17.22	-32.6	-33.6	20.3	0.00e+00	0	58	0	4358930432	34	4363
2026-01-03 04:38:56.33	220.53	17.11	-32.6	-33.6	20.3	0.00e+00	0	57	0	4366270464	34	4370
2026-01-03 04:38:57.34	220.47	17.00	-32.6	-33.6	20.2	0.00e+00	0	58	0	4373610496	34	4391
2026-01-03 04:38:58.36	220.41	16.88	-32.7	-33.7	20.2	0.00e+00	0	58	0	4379901952	34	4407
2026-01-03 04:38:59.36	220.35	16.77	-32.7	-33.7	20.2	0.00e+00	0	58	0	4388290560	35	4177
2026-01-03 04:39:00.37	220.29	16.66	-32.8	-33.8	20.1	0.00e+00	0	58	0	4395630592	35	4197
2026-01-03 04:39:01.38	220.23	16.55	-32.8	-33.8	20.1	0.00e+00	0	57	0	4401922048	35	4236
2026-01-03 04:39:02.39	220.17	16.43	-32.8	-33.8	20.1	0.00e+00	0	58	0	4409262080	35	4239
2026-01-03 04:39:03.40	220.12	16.32	-32.9	-33.9	20.0	0.00e+00	0	58	0	4416602112	35	4261
2026-01-03 04:39:04.41	220.06	16.21	-32.9	-33.9	20.0	0.00e+00	0	58	0	4423942144	35	4263
2026-01-03 04:39:05.42	220.00	16.10	-32.9	-33.9	20.0	0.00e+00	0	58	0	4431282176	35	4278
2026-01-03 04:39:06.43	219.94	15.99	-32.9	-33.9	20.0	0.00e+00	0	58	0	4438622208	35	4275
2026-01-03 04:39:07.44	219.89	15.88	-32.9	-34.0	19.9	0.00e+00	0	57	0	4445962240	35	4304
2026-01-03 04:39:08.45	219.83	15.77	-32.9	-33.9	19.9	0.00e+00	0	58	0	4453302272	35	4274
2026-01-03 04:39:09.46	219.78	15.67	-32.9	-33.9	19.9	0.00e+00	0	58	0	4460642304	35	4290
2026-01-03 04:39:10.47	219.72	15.56	-32.9	-34.0	19.9	0.00e+00	0	58	0	4467982336	35	4307
2026-01-03 04:39:11.48	219.67	15.45	-32.9	-34.0	19.9	0.00e+00	0	58	0	4475322368	35	4296
2026-01-03 04:39:12.49	219.61	15.34	-32.9	-33.9	19.9	0.00e+00	0	57	0	4482662400	35	4280
2026-01-03 04:39:13.50	219.56	15.24	-32.9	-33.9	19.9	0.00e+00	0	58	0	4490002432	35	4288
2026-01-03 04:39:14.51	219.51	15.13	-33.0	-34.0	19.8	0.00e+00	0	58	0	4497342464	35	4318
2026-01-03 04:39:15.52	219.45	15.03	-33.0	-34.0	19.8	0.00e+00	0	58	0	4504682496	35	4316
2026-01-03 04:39:16.53	219.40	14.92	-33.0	-34.0	19.8	0.00e+00	0	58	0	4512022528	35	4310
2026-01-03 04:39:17.54	219.35	14.82	-33.0	-34.0	19.8	0.00e+00	0	58	0	4519362560	35	4313
2026-01-03 04:39:18.55	219.30	14.71	-33.0	-34.0	19.8	0.00e+00	0	58	0	4526702592	35	4340
2026-01-03 04:39:19.56	219.25	14.61	-33.0	-34.0	19.8	0.00e+00	0	57	0	4534042624	35	4312
2026-01-03 04:39:20.57	219.19	14.51	-33.1	-34.1	19.7	0.00e+00	0	58	0	4541382656	35	4363
2026-01-03 04:39:21.58	219.14	14.40	-33.1	-34.1	19.7	0.00e+00	0	57	0	4548722688	35	4386
2026-01-03 04:39:22.59	219.09	14.30	-33.1	-34.2	19.6	0.00e+00	0	57	0	4555014144	35	4405
