passes_logs/2026/01/03/R2.0S_Moscow/R2.0S_Moscow__20260103_010020_FENGYUN_3D_rec.log

#Pass ID: 20260103_010020_FENGYUN 3D
#Satellite: FENGYUN 3D
#Configuration: FENGYUN 3D
#almurnet v.1.7.20251203
#Start time: 2026-01-03 01:00:21

#Version: 2.2.20231116
#Station: R2.0S_Moscow
#Location: 37.707566 lon 55.798166 lat
#TLE: 1 43010U 17072A   26002.31768531  .00000715  00000+0  35975-3 0  9993
#TLE: 2 43010  98.9910 333.9388 0001871 131.0716 229.0622 14.19693418421454

#Time	Az	El	Level	Level2	SNR	BER	BlckErr	Temp	State	Recorded	gain1	gain2
2026-01-03 01:00:21.73	20.27	2.06	-40.7	-52.9	3.8	8.46e-01	0	48	0	0	53	14334
2026-01-03 01:00:22.73	20.31	2.12	-40.7	-52.9	3.8	8.48e-01	0	48	104	0	53	14358
2026-01-03 01:00:23.74	20.34	2.18	-40.7	-52.9	3.8	8.45e-01	0	48	104	0	53	14369
2026-01-03 01:00:24.75	20.38	2.24	-40.7	-52.9	3.8	8.44e-01	0	48	104	0	53	14327
2026-01-03 01:00:25.76	20.42	2.31	-40.7	-52.9	3.8	8.45e-01	0	48	104	0	53	14265
2026-01-03 01:00:26.78	20.46	2.37	-40.7	-52.9	3.8	8.48e-01	0	48	104	0	53	14342
2026-01-03 01:00:27.79	20.49	2.43	-40.7	-52.9	3.8	8.47e-01	0	48	104	0	53	14360
2026-01-03 01:00:28.80	20.53	2.50	-40.7	-52.9	3.8	8.46e-01	0	48	104	0	53	14325
2026-01-03 01:00:29.81	20.57	2.56	-40.7	-53.0	3.8	8.47e-01	0	48	104	0	53	14388
2026-01-03 01:00:30.82	20.61	2.62	-40.7	-52.9	3.8	8.46e-01	0	48	104	0	53	14317
2026-01-03 01:00:31.83	20.65	2.69	-40.7	-52.9	3.8	8.45e-01	0	48	104	0	53	14335
2026-01-03 01:00:32.84	20.68	2.75	-40.7	-52.9	3.8	8.46e-01	0	48	104	0	53	14297
2026-01-03 01:00:33.85	20.72	2.81	-40.7	-52.9	3.8	8.46e-01	0	49	104	0	53	14330
2026-01-03 01:00:34.86	20.76	2.88	-40.7	-52.9	3.8	8.47e-01	0	49	104	0	53	14326
2026-01-03 01:00:35.88	20.80	2.94	-40.7	-53.0	3.8	8.47e-01	0	49	104	0	53	14379
2026-01-03 01:00:36.89	20.84	3.01	-40.7	-52.9	3.8	8.48e-01	0	49	104	0	53	14351
2026-01-03 01:00:37.90	20.88	3.07	-40.7	-52.9	3.8	8.48e-01	0	49	104	0	53	14355
2026-01-03 01:00:38.91	20.92	3.13	-40.7	-52.9	3.8	8.46e-01	0	49	104	0	53	14297
2026-01-03 01:00:39.92	20.96	3.20	-40.7	-52.9	3.8	8.46e-01	0	49	104	0	53	14272
2026-01-03 01:00:40.93	20.99	3.26	-40.7	-52.9	3.8	8.45e-01	0	49	104	0	53	14311
2026-01-03 01:00:41.94	21.03	3.33	-40.7	-52.9	3.8	8.47e-01	0	49	104	0	53	14328
2026-01-03 01:00:42.95	21.07	3.39	-40.7	-52.9	3.8	8.46e-01	0	49	104	0	53	14300
2026-01-03 01:00:43.96	21.11	3.46	-40.7	-52.9	3.8	8.46e-01	0	49	104	0	53	14286
2026-01-03 01:00:44.97	21.15	3.52	-40.7	-52.9	3.8	8.46e-01	0	49	104	0	53	14354
2026-01-03 01:00:45.98	21.19	3.59	-40.7	-52.9	3.8	8.46e-01	0	49	104	0	53	14322
2026-01-03 01:00:46.99	21.23	3.65	-40.7	-52.9	3.8	8.45e-01	0	50	104	0	53	14274
2026-01-03 01:00:48.00	21.27	3.72	-40.7	-52.9	3.8	8.47e-01	0	50	104	0	53	14298
2026-01-03 01:00:49.02	21.32	3.79	-40.7	-52.9	3.8	8.47e-01	0	50	104	0	53	14306
2026-01-03 01:00:50.03	21.36	3.85	-40.7	-52.9	3.8	8.46e-01	0	50	104	0	53	14316
2026-01-03 01:00:51.04	21.40	3.92	-40.7	-52.9	3.8	8.47e-01	0	50	104	0	53	14287
2026-01-03 01:00:52.05	21.44	3.99	-40.7	-52.9	3.8	8.47e-01	0	50	104	0	53	14344
2026-01-03 01:00:53.06	21.48	4.05	-40.7	-52.9	3.8	8.45e-01	0	50	104	0	53	14262
2026-01-03 01:00:54.07	21.52	4.12	-40.7	-52.9	3.8	8.47e-01	0	50	104	0	53	14345
2026-01-03 01:00:55.08	21.56	4.19	-40.7	-52.9	3.8	8.45e-01	0	50	104	0	53	14311
2026-01-03 01:00:56.09	21.61	4.25	-40.7	-52.9	3.8	8.47e-01	0	50	104	0	53	14294
2026-01-03 01:00:57.10	21.65	4.32	-40.7	-52.9	3.8	8.46e-01	0	50	104	0	53	14359
2026-01-03 01:00:58.12	21.69	4.39	-40.7	-52.9	3.8	8.45e-01	0	50	104	0	53	14283
2026-01-03 01:00:59.13	21.73	4.45	-40.7	-52.9	3.8	8.46e-01	0	50	104	0	53	14361
2026-01-03 01:01:00.14	21.77	4.52	-40.7	-52.9	3.8	8.46e-01	0	50	104	0	53	14281
2026-01-03 01:01:01.15	21.82	4.59	-40.7	-52.9	3.8	8.45e-01	0	50	104	0	53	14335
2026-01-03 01:01:02.16	21.86	4.66	-40.7	-52.9	3.8	8.46e-01	0	50	104	0	53	14337
2026-01-03 01:01:03.17	21.90	4.73	-40.7	-52.9	3.8	8.45e-01	0	51	104	0	53	14316
2026-01-03 01:01:04.18	21.95	4.79	-40.7	-52.9	3.8	8.47e-01	0	51	104	0	53	14352
2026-01-03 01:01:05.19	21.99	4.86	-40.7	-52.9	3.8	8.47e-01	0	51	104	0	53	14327
2026-01-03 01:01:06.20	22.03	4.93	-40.7	-52.9	3.8	8.46e-01	0	51	104	0	53	14317
2026-01-03 01:01:07.21	22.08	5.00	-40.7	-52.9	3.8	8.47e-01	0	51	104	0	53	14320
2026-01-03 01:01:08.22	22.12	5.07	-40.7	-52.9	3.8	8.47e-01	0	51	104	0	53	14338
2026-01-03 01:01:09.24	22.17	5.14	-40.7	-52.9	3.8	8.46e-01	0	51	104	0	53	14350
2026-01-03 01:01:10.25	22.21	5.21	-40.7	-52.9	3.8	8.46e-01	0	51	104	0	53	14367
2026-01-03 01:01:11.26	22.25	5.28	-40.7	-52.9	3.8	8.46e-01	0	51	104	0	53	14310
2026-01-03 01:01:12.27	22.30	5.35	-40.7	-52.9	3.8	8.47e-01	0	51	104	0	53	14316
2026-01-03 01:01:13.28	22.34	5.42	-40.7	-52.9	3.8	8.47e-01	0	51	104	0	53	14316
2026-01-03 01:01:14.29	22.39	5.49	-40.7	-52.9	3.8	8.46e-01	0	51	104	0	53	14350
2026-01-03 01:01:15.30	22.43	5.56	-40.7	-52.9	3.8	8.46e-01	0	51	104	0	53	14296
2026-01-03 01:01:16.31	22.48	5.63	-40.7	-52.9	3.8	8.47e-01	0	51	104	0	53	14313
2026-01-03 01:01:17.32	22.53	5.70	-40.7	-52.9	3.8	8.46e-01	0	51	104	0	53	14363
2026-01-03 01:01:18.34	22.57	5.77	-40.7	-52.9	3.8	8.46e-01	0	51	104	0	53	14295
2026-01-03 01:01:19.35	22.62	5.84	-40.7	-52.9	3.8	8.47e-01	0	51	104	0	53	14292
2026-01-03 01:01:20.36	22.66	5.91	-40.7	-52.9	3.8	8.46e-01	0	52	104	0	53	14288
2026-01-03 01:01:21.37	22.71	5.98	-40.7	-52.9	3.8	8.46e-01	0	51	104	0	53	14306
2026-01-03 01:01:22.38	22.76	6.05	-40.7	-52.9	3.8	8.47e-01	0	52	104	0	53	14238
2026-01-03 01:01:23.39	22.80	6.12	-40.7	-52.9	3.8	8.46e-01	0	52	104	0	53	14275
2026-01-03 01:01:24.40	22.85	6.20	-40.7	-52.9	3.8	8.46e-01	0	52	104	0	53	14244
2026-01-03 01:01:25.41	22.90	6.27	-40.7	-52.9	3.8	8.46e-01	0	52	104	0	53	14293
2026-01-03 01:01:26.42	22.95	6.34	-40.7	-52.9	3.8	8.46e-01	0	52	104	0	53	14250
2026-01-03 01:01:27.43	22.99	6.41	-40.7	-52.9	3.8	8.46e-01	0	52	104	0	53	14242
2026-01-03 01:01:28.45	23.04	6.48	-40.7	-52.8	3.8	8.47e-01	0	52	104	0	53	14190
2026-01-03 01:01:29.46	23.09	6.56	-40.7	-52.8	3.8	8.46e-01	0	52	104	0	53	14156
2026-01-03 01:01:30.47	23.14	6.63	-40.7	-52.8	3.8	8.46e-01	0	52	104	0	53	14126
2026-01-03 01:01:31.48	23.19	6.70	-40.7	-52.7	3.8	8.47e-01	0	52	104	0	53	14036
2026-01-03 01:01:32.49	23.24	6.78	-40.7	-52.7	3.8	8.46e-01	0	52	104	0	53	13965
2026-01-03 01:01:33.50	23.29	6.85	-40.7	-52.6	3.8	8.46e-01	0	52	104	0	53	13816
2026-01-03 01:01:34.51	23.33	6.92	-40.7	-52.4	3.8	8.44e-01	0	52	104	0	53	13559
2026-01-03 01:01:35.52	23.38	7.00	-40.6	-52.2	3.8	8.47e-01	0	52	104	0	53	13226
2026-01-03 01:01:36.53	23.43	7.07	-40.7	-52.0	3.8	8.46e-01	0	52	104	0	53	12938
2026-01-03 01:01:37.54	23.48	7.15	-40.6	-51.7	3.8	8.46e-01	0	52	104	0	53	12517
2026-01-03 01:01:38.55	23.53	7.22	-40.6	-51.4	3.8	8.45e-01	0	52	104	0	53	12067
2026-01-03 01:01:39.57	23.58	7.30	-40.5	-50.9	3.9	8.45e-01	0	52	104	0	53	11337
2026-01-03 01:01:40.58	23.64	7.37	-40.4	-50.3	3.9	8.45e-01	0	52	104	0	52	11190
2026-01-03 01:01:41.59	23.69	7.44	-40.3	-49.4	4.2	8.37e-01	0	52	0	0	52	10115
2026-01-03 01:01:42.60	23.74	7.52	-40.2	-48.5	4.5	8.30e-01	0	52	0	0	52	9114
2026-01-03 01:01:43.61	23.79	7.60	-40.0	-47.4	4.9	8.01e-01	0	53	0	0	52	8063
2026-01-03 01:01:44.62	23.84	7.67	-39.8	-46.2	5.7	6.27e-01	0	53	0	1048576	51	7450
2026-01-03 01:01:45.63	23.89	7.75	-39.4	-44.9	6.9	2.60e-01	0	52	0	6291456	50	6766
2026-01-03 01:01:46.64	23.94	7.82	-38.9	-43.6	8.1	8.97e-02	0	53	0	11534336	49	6144
2026-01-03 01:01:47.65	24.00	7.90	-38.3	-42.2	9.5	3.27e-02	0	53	0	17825792	48	5580
2026-01-03 01:01:48.66	24.05	7.98	-37.6	-41.0	10.7	5.15e-03	0	53	0	23068672	47	5128
2026-01-03 01:01:49.67	24.10	8.05	-37.5	-39.6	14.3	2.80e-04	0	53	0	29360128	45	4902
2026-01-03 01:01:50.68	24.16	8.13	-37.3	-40.3	11.9	2.05e-05	0	53	0	34603008	44	5656
2026-01-03 01:01:51.69	24.21	8.21	-35.2	-36.9	15.9	8.34e-02	0	53	0	39845888	42	4289
2026-01-03 01:01:52.70	24.26	8.28	-37.8	-39.8	14.7	1.10e-06	0	53	0	45088768	46	4747
2026-01-03 01:01:53.71	24.32	8.36	-36.4	-38.7	14.2	0.00e+00	0	53	0	50331648	43	4951
2026-01-03 01:01:54.72	24.37	8.44	-36.7	-38.9	14.2	1.80e-02	0	53	0	56623104	45	4511
2026-01-03 01:01:55.73	24.42	8.52	-36.4	-38.3	15.5	0.00e+00	0	53	0	61865984	44	4455
2026-01-03 01:01:56.74	24.48	8.60	-37.1	-39.0	14.8	0.00e+00	0	53	0	68157440	44	4851
2026-01-03 01:01:57.75	24.53	8.67	-37.0	-38.9	15.1	2.20e-06	0	53	0	73400320	45	4503
2026-01-03 01:01:58.76	24.59	8.75	-36.2	-37.9	16.3	0.00e+00	0	53	0	78643200	44	4246
2026-01-03 01:01:59.77	24.65	8.83	-35.6	-37.1	16.9	0.00e+00	0	53	0	84934656	43	4137
2026-01-03 01:02:00.78	24.70	8.91	-35.7	-37.2	16.9	0.00e+00	0	53	0	90177536	43	4193
2026-01-03 01:02:01.79	24.76	8.99	-36.0	-37.5	16.7	0.00e+00	0	53	0	96468992	43	4329
2026-01-03 01:02:02.80	24.81	9.07	-35.8	-37.3	16.9	0.00e+00	0	53	0	101711872	43	4210
2026-01-03 01:02:03.81	24.87	9.15	-35.4	-36.9	17.3	0.00e+00	0	53	0	106954752	42	4259
2026-01-03 01:02:04.82	24.93	9.23	-35.4	-36.8	17.4	0.00e+00	0	53	0	113246208	42	4226
2026-01-03 01:02:05.83	24.98	9.31	-35.3	-36.7	17.5	0.00e+00	0	53	0	118489088	42	4173
2026-01-03 01:02:06.84	25.04	9.39	-35.3	-36.8	17.5	0.00e+00	0	53	0	124780544	42	4200
2026-01-03 01:02:07.85	25.10	9.47	-35.0	-36.4	17.8	0.00e+00	0	53	0	130023424	42	4040
2026-01-03 01:02:08.86	25.16	9.55	-35.0	-36.4	17.8	0.00e+00	0	53	0	136314880	41	4280
2026-01-03 01:02:09.87	25.22	9.63	-35.0	-36.4	17.9	0.00e+00	0	53	0	141557760	41	4255
2026-01-03 01:02:10.89	25.28	9.72	-34.9	-36.2	18.1	0.00e+00	0	54	0	147849216	41	4174
2026-01-03 01:02:11.90	25.33	9.80	-34.9	-36.3	18.0	0.00e+00	0	53	0	153092096	41	4207
2026-01-03 01:02:12.91	25.39	9.88	-34.9	-36.2	18.0	0.00e+00	0	53	0	158334976	41	4190
2026-01-03 01:02:13.92	25.45	9.96	-34.9	-36.2	18.0	0.00e+00	0	54	0	164626432	41	4174
2026-01-03 01:02:14.93	25.51	10.04	-34.8	-36.2	18.1	0.00e+00	0	53	0	169869312	41	4166
2026-01-03 01:02:15.94	25.57	10.13	-34.8	-36.2	18.1	0.00e+00	0	53	0	176160768	41	4163
2026-01-03 01:02:16.95	25.63	10.21	-34.8	-36.1	18.1	0.00e+00	0	53	0	181403648	41	4143
2026-01-03 01:02:17.96	25.70	10.29	-34.9	-36.2	18.1	0.00e+00	0	54	0	186646528	41	4166
2026-01-03 01:02:18.97	25.76	10.38	-34.8	-36.1	18.2	0.00e+00	0	54	0	192937984	41	4127
2026-01-03 01:02:19.98	25.82	10.46	-34.9	-36.2	18.1	0.00e+00	0	54	0	198180864	41	4155
2026-01-03 01:02:20.99	25.88	10.54	-34.8	-36.2	18.1	0.00e+00	0	54	0	204472320	41	4161
2026-01-03 01:02:22.00	25.94	10.63	-34.8	-36.2	18.2	0.00e+00	0	54	0	209715200	41	4158
2026-01-03 01:02:23.01	26.00	10.71	-34.9	-36.2	18.1	0.00e+00	0	53	0	214958080	41	4157
2026-01-03 01:02:24.01	26.07	10.80	-34.9	-36.2	18.2	0.00e+00	0	54	0	221249536	41	4167
2026-01-03 01:02:25.02	26.13	10.88	-34.9	-36.3	18.1	0.00e+00	0	54	0	226492416	41	4207
2026-01-03 01:02:26.03	26.19	10.97	-34.9	-36.3	18.1	0.00e+00	0	54	0	232783872	41	4203
2026-01-03 01:02:27.04	26.26	11.05	-35.0	-36.3	18.0	0.00e+00	0	54	0	238026752	41	4226
2026-01-03 01:02:28.05	26.32	11.14	-35.0	-36.4	18.0	0.00e+00	0	54	0	244318208	41	4247
2026-01-03 01:02:29.06	26.39	11.23	-35.0	-36.3	18.0	0.00e+00	0	54	0	249561088	41	4232
2026-01-03 01:02:30.07	26.45	11.31	-34.9	-36.3	18.1	0.00e+00	0	54	0	254803968	41	4212
2026-01-03 01:02:31.08	26.52	11.40	-35.0	-36.3	18.1	0.00e+00	0	54	0	261095424	41	4219
2026-01-03 01:02:32.09	26.58	11.49	-34.9	-36.2	18.2	0.00e+00	0	54	0	266338304	41	4183
2026-01-03 01:02:33.10	26.65	11.57	-34.9	-36.2	18.2	0.00e+00	0	54	0	272629760	41	4185
2026-01-03 01:02:34.11	26.71	11.66	-34.9	-36.2	18.2	0.00e+00	0	54	0	277872640	41	4166
2026-01-03 01:02:35.12	26.78	11.75	-34.8	-36.2	18.3	0.00e+00	0	54	0	283115520	41	4152
2026-01-03 01:02:36.13	26.85	11.84	-34.8	-36.1	18.3	0.00e+00	0	54	0	289406976	41	4126
2026-01-03 01:02:37.14	26.92	11.92	-34.9	-36.2	18.2	0.00e+00	0	54	0	294649856	41	4192
2026-01-03 01:02:38.15	26.98	12.01	-34.9	-36.2	18.3	0.00e+00	0	54	0	300941312	41	4171
2026-01-03 01:02:39.16	27.05	12.10	-34.9	-36.2	18.3	0.00e+00	0	54	0	306184192	41	4156
2026-01-03 01:02:40.17	27.12	12.19	-34.8	-36.2	18.3	0.00e+00	0	54	0	311427072	41	4155
2026-01-03 01:02:41.18	27.19	12.28	-34.9	-36.2	18.3	0.00e+00	0	54	0	317718528	41	4158
2026-01-03 01:02:42.18	27.26	12.37	-34.9	-36.2	18.3	0.00e+00	0	54	0	322961408	41	4169
2026-01-03 01:02:43.19	27.33	12.46	-34.8	-36.1	18.3	0.00e+00	0	54	0	329252864	41	4141
2026-01-03 01:02:44.20	27.40	12.55	-34.8	-36.2	18.3	0.00e+00	0	54	0	334495744	41	4160
2026-01-03 01:02:45.21	27.47	12.64	-34.8	-36.1	18.3	0.00e+00	0	54	0	340787200	41	4144
2026-01-03 01:02:46.22	27.54	12.73	-34.8	-36.2	18.3	0.00e+00	0	54	0	346030080	41	4147
2026-01-03 01:02:47.23	27.61	12.82	-34.7	-36.1	18.4	0.00e+00	0	54	0	351272960	41	4106
2026-01-03 01:02:48.24	27.68	12.92	-34.7	-36.0	18.5	0.00e+00	0	54	0	357564416	41	4071
2026-01-03 01:02:49.25	27.76	13.01	-34.7	-36.0	18.4	0.00e+00	0	54	0	362807296	41	4066
2026-01-03 01:02:50.26	27.83	13.10	-34.6	-35.9	18.6	0.00e+00	0	55	0	369098752	41	4008
2026-01-03 01:02:51.27	27.90	13.19	-34.5	-35.8	18.6	0.00e+00	0	54	0	374341632	41	3998
2026-01-03 01:02:52.29	27.98	13.29	-34.5	-35.8	18.7	0.00e+00	0	54	0	380633088	41	3978
2026-01-03 01:02:53.30	28.05	13.38	-34.6	-35.8	18.6	0.00e+00	0	54	0	385875968	40	4237
2026-01-03 01:02:54.31	28.12	13.47	-34.4	-35.7	18.8	0.00e+00	0	55	0	391118848	40	4161
2026-01-03 01:02:55.32	28.20	13.57	-34.4	-35.6	18.9	0.00e+00	0	55	0	397410304	40	4138
2026-01-03 01:02:56.33	28.28	13.66	-34.4	-35.6	18.9	0.00e+00	0	54	0	402653184	40	4133
2026-01-03 01:02:57.33	28.35	13.76	-34.4	-35.6	18.9	0.00e+00	0	55	0	408944640	40	4133
2026-01-03 01:02:58.35	28.43	13.85	-34.3	-35.6	19.0	0.00e+00	0	55	0	414187520	40	4100
2026-01-03 01:02:59.36	28.50	13.95	-34.3	-35.5	19.0	0.00e+00	0	54	0	419430400	40	4082
2026-01-03 01:03:00.37	28.58	14.04	-34.2	-35.5	19.1	0.00e+00	0	55	0	425721856	40	4068
2026-01-03 01:03:01.38	28.66	14.14	-34.2	-35.5	19.1	0.00e+00	0	55	0	430964736	40	4057
2026-01-03 01:03:02.39	28.74	14.23	-34.2	-35.5	19.1	0.00e+00	0	55	0	437256192	40	4058
2026-01-03 01:03:03.40	28.82	14.33	-34.2	-35.5	19.1	0.00e+00	0	55	0	442499072	40	4052
2026-01-03 01:03:04.41	28.90	14.43	-34.3	-35.5	19.1	0.00e+00	0	55	0	448790528	40	4075
2026-01-03 01:03:05.42	28.97	14.53	-34.2	-35.4	19.2	0.00e+00	0	55	0	454033408	40	4041
2026-01-03 01:03:06.43	29.05	14.62	-34.2	-35.5	19.2	0.00e+00	0	55	0	459276288	40	4054
2026-01-03 01:03:07.44	29.14	14.72	-34.2	-35.4	19.2	0.00e+00	0	55	0	465567744	40	4023
2026-01-03 01:03:08.45	29.22	14.82	-34.1	-35.3	19.3	0.00e+00	0	55	0	470810624	40	3998
2026-01-03 01:03:09.46	29.30	14.92	-34.1	-35.3	19.3	0.00e+00	0	55	0	477102080	40	3981
2026-01-03 01:03:10.47	29.38	15.02	-34.1	-35.3	19.4	0.00e+00	0	55	0	482344960	40	3966
2026-01-03 01:03:11.48	29.46	15.12	-34.1	-35.3	19.3	0.00e+00	0	54	0	487587840	40	3969
2026-01-03 01:03:12.49	29.55	15.22	-34.0	-35.2	19.5	0.00e+00	0	55	0	493879296	39	4176
2026-01-03 01:03:13.50	29.63	15.32	-34.0	-35.2	19.5	0.00e+00	0	55	0	499122176	39	4170
2026-01-03 01:03:14.51	29.71	15.42	-34.0	-35.2	19.6	0.00e+00	0	55	0	505413632	39	4155
2026-01-03 01:03:15.52	29.80	15.52	-33.9	-35.1	19.6	0.00e+00	0	55	0	510656512	39	4126
2026-01-03 01:03:16.53	29.88	15.62	-34.0	-35.2	19.6	0.00e+00	0	55	0	515899392	39	4147
2026-01-03 01:03:17.54	29.97	15.72	-33.9	-35.1	19.6	0.00e+00	0	55	0	522190848	39	4132
2026-01-03 01:03:18.56	30.06	15.82	-33.9	-35.1	19.6	0.00e+00	0	55	0	527433728	39	4123
2026-01-03 01:03:19.57	30.14	15.93	-33.9	-35.1	19.7	0.00e+00	0	55	0	533725184	39	4121
2026-01-03 01:03:20.58	30.23	16.03	-33.9	-35.1	19.7	0.00e+00	0	55	0	538968064	39	4111
2026-01-03 01:03:21.59	30.32	16.13	-33.8	-35.0	19.7	0.00e+00	0	55	0	545259520	39	4085
2026-01-03 01:03:22.60	30.41	16.23	-33.8	-35.0	19.8	0.00e+00	0	55	0	550502400	39	4052
2026-01-03 01:03:23.61	30.50	16.34	-33.7	-34.9	19.9	0.00e+00	0	55	0	556793856	39	4019
2026-01-03 01:03:24.62	30.59	16.44	-33.7	-34.9	19.9	0.00e+00	0	55	0	562036736	39	4029
2026-01-03 01:03:25.63	30.68	16.55	-33.6	-34.8	20.0	0.00e+00	0	55	0	567279616	39	3986
2026-01-03 01:03:26.64	30.77	16.65	-33.5	-34.7	20.0	0.00e+00	0	55	0	573571072	39	3937
2026-01-03 01:03:27.65	30.86	16.76	-33.5	-34.6	20.1	0.00e+00	0	55	0	578813952	38	4129
2026-01-03 01:03:28.66	30.95	16.86	-33.4	-34.6	20.2	0.00e+00	0	55	0	585105408	38	4103
2026-01-03 01:03:29.67	31.05	16.97	-33.3	-34.5	20.3	0.00e+00	0	55	0	590348288	38	4061
2026-01-03 01:03:30.68	31.14	17.08	-33.3	-34.4	20.3	0.00e+00	0	55	0	595591168	38	4025
2026-01-03 01:03:31.69	31.24	17.18	-33.2	-34.3	20.5	0.00e+00	0	55	0	601882624	38	3966
2026-01-03 01:03:32.70	31.33	17.29	-33.2	-34.3	20.4	0.00e+00	0	55	0	607125504	38	4002
2026-01-03 01:03:33.71	31.43	17.40	-33.2	-34.3	20.4	0.00e+00	0	55	0	613416960	38	3989
2026-01-03 01:03:34.72	31.52	17.51	-33.3	-34.4	20.3	0.00e+00	0	55	0	618659840	38	4022
2026-01-03 01:03:35.73	31.62	17.61	-33.4	-34.5	20.3	0.00e+00	0	55	0	623902720	38	4075
2026-01-03 01:03:36.74	31.72	17.72	-33.4	-34.5	20.2	0.00e+00	0	55	0	630194176	38	4087
2026-01-03 01:03:37.75	31.81	17.83	-33.4	-34.5	20.2	0.00e+00	0	55	0	635437056	38	4085
2026-01-03 01:03:38.76	31.91	17.94	-33.4	-34.5	20.3	0.00e+00	0	55	0	641728512	38	4071
2026-01-03 01:03:39.77	32.01	18.05	-33.3	-34.5	20.3	0.00e+00	0	55	0	646971392	38	4053
2026-01-03 01:03:40.78	32.11	18.16	-33.2	-34.3	20.4	0.00e+00	0	55	0	653262848	38	4001
2026-01-03 01:03:41.79	32.21	18.27	-33.2	-34.3	20.4	0.00e+00	0	55	0	658505728	38	4004
2026-01-03 01:03:42.80	32.32	18.39	-33.3	-34.4	20.4	0.00e+00	0	55	0	664797184	38	4019
2026-01-03 01:03:43.81	32.42	18.50	-33.1	-34.2	20.6	0.00e+00	0	55	0	670040064	38	3948
2026-01-03 01:03:44.82	32.52	18.61	-33.1	-34.2	20.6	0.00e+00	0	55	0	675282944	38	3948
2026-01-03 01:03:45.83	32.62	18.72	-33.1	-34.2	20.6	0.00e+00	0	55	0	681574400	38	3958
2026-01-03 01:03:46.84	32.73	18.84	-33.1	-34.3	20.6	0.00e+00	0	55	0	686817280	38	3960
2026-01-03 01:03:47.86	32.84	18.95	-33.1	-34.3	20.6	0.00e+00	0	55	0	693108736	38	3966
2026-01-03 01:03:48.86	32.94	19.06	-33.2	-34.3	20.5	0.00e+00	0	55	0	698351616	38	3977
2026-01-03 01:03:49.87	33.05	19.18	-33.1	-34.2	20.6	0.00e+00	0	55	0	703594496	38	3957
2026-01-03 01:03:50.88	33.16	19.29	-33.1	-34.2	20.6	0.00e+00	0	55	0	709885952	38	3946
2026-01-03 01:03:51.89	33.26	19.41	-33.1	-34.2	20.7	0.00e+00	0	55	0	715128832	38	3930
2026-01-03 01:03:52.91	33.37	19.53	-33.0	-34.1	20.7	0.00e+00	0	55	0	721420288	38	3899
2026-01-03 01:03:53.92	33.48	19.64	-33.0	-34.1	20.8	0.00e+00	0	55	0	726663168	38	3888
2026-01-03 01:03:54.93	33.59	19.76	-33.0	-34.1	20.8	0.00e+00	0	56	0	731906048	38	3880
2026-01-03 01:03:55.94	33.71	19.88	-33.0	-34.0	20.8	0.00e+00	0	55	0	738197504	37	4095
2026-01-03 01:03:56.95	33.82	19.99	-32.9	-34.0	20.8	0.00e+00	0	55	0	743440384	37	4093
2026-01-03 01:03:57.96	33.93	20.11	-33.0	-34.1	20.8	0.00e+00	0	55	0	749731840	37	4100
2026-01-03 01:03:58.97	34.05	20.23	-33.0	-34.1	20.8	0.00e+00	0	55	0	754974720	37	4102
2026-01-03 01:03:59.97	34.16	20.35	-32.9	-34.0	20.9	0.00e+00	0	55	0	761266176	37	4069
2026-01-03 01:04:00.98	34.28	20.47	-32.8	-33.9	20.9	0.00e+00	0	55	0	766509056	37	4033
2026-01-03 01:04:01.99	34.39	20.59	-32.8	-33.9	21.0	0.00e+00	0	55	0	772800512	37	4008
2026-01-03 01:04:03.01	34.51	20.71	-32.8	-33.9	21.0	0.00e+00	0	55	0	778043392	37	4010
2026-01-03 01:04:04.01	34.63	20.83	-32.8	-33.9	21.0	0.00e+00	0	56	0	783286272	37	4024
2026-01-03 01:04:05.03	34.75	20.95	-32.8	-33.9	21.0	0.00e+00	0	55	0	789577728	37	4032
2026-01-03 01:04:06.04	34.87	21.07	-32.9	-34.0	20.9	0.00e+00	0	55	0	794820608	37	4057
2026-01-03 01:04:07.05	34.99	21.19	-32.9	-34.0	20.9	0.00e+00	0	55	0	801112064	37	4080
2026-01-03 01:04:08.05	35.11	21.32	-32.9	-34.0	20.9	0.00e+00	0	56	0	806354944	37	4062
2026-01-03 01:04:09.07	35.24	21.44	-32.8	-33.9	20.9	0.00e+00	0	55	0	811597824	37	4027
2026-01-03 01:04:10.08	35.36	21.56	-32.8	-33.9	21.0	0.00e+00	0	55	0	817889280	37	4018
2026-01-03 01:04:11.09	35.48	21.69	-32.7	-33.8	21.0	0.00e+00	0	55	0	823132160	37	3985
2026-01-03 01:04:12.10	35.61	21.81	-32.7	-33.8	21.1	0.00e+00	0	55	0	829423616	37	3961
2026-01-03 01:04:13.11	35.74	21.94	-32.6	-33.7	21.1	0.00e+00	0	56	0	834666496	37	3930
2026-01-03 01:04:14.12	35.87	22.06	-32.6	-33.7	21.1	0.00e+00	0	56	0	839909376	37	3935
2026-01-03 01:04:15.13	35.99	22.19	-32.6	-33.7	21.2	0.00e+00	0	56	0	846200832	37	3924
2026-01-03 01:04:16.14	36.12	22.32	-32.6	-33.7	21.2	0.00e+00	0	56	0	851443712	37	3931
2026-01-03 01:04:17.15	36.26	22.44	-32.7	-33.7	21.1	0.00e+00	0	56	0	857735168	37	3956
2026-01-03 01:04:18.16	36.39	22.57	-32.7	-33.7	21.1	0.00e+00	0	55	0	862978048	37	3957
2026-01-03 01:04:19.17	36.52	22.70	-32.7	-33.8	21.1	0.00e+00	0	56	0	869269504	37	3960
2026-01-03 01:04:20.18	36.66	22.83	-32.6	-33.7	21.2	0.00e+00	0	56	0	874512384	37	3930
2026-01-03 01:04:21.19	36.79	22.96	-32.6	-33.6	21.3	0.00e+00	0	56	0	880803840	37	3901
2026-01-03 01:04:22.20	36.93	23.09	-32.5	-33.6	21.3	0.00e+00	0	56	0	886046720	37	3897
2026-01-03 01:04:23.21	37.06	23.22	-32.5	-33.6	21.3	0.00e+00	0	55	0	891289600	37	3881
2026-01-03 01:04:24.22	37.20	23.35	-32.4	-33.5	21.4	0.00e+00	0	56	0	897581056	36	4079
2026-01-03 01:04:25.23	37.34	23.48	-32.3	-33.4	21.5	0.00e+00	0	56	0	902823936	36	4005
2026-01-03 01:04:26.24	37.48	23.61	-32.2	-33.2	21.6	0.00e+00	0	56	0	909115392	36	3947
2026-01-03 01:04:27.25	37.63	23.74	-32.0	-33.1	21.8	0.00e+00	0	56	0	914358272	36	3882
2026-01-03 01:04:28.26	37.77	23.87	-31.4	-32.4	21.8	0.00e+00	0	56	0	919601152	34	4031
2026-01-03 01:04:29.27	37.91	24.01	-31.3	-32.4	21.8	0.00e+00	0	56	0	925892608	34	4009
2026-01-03 01:04:30.28	38.06	24.14	-31.3	-32.3	21.8	0.00e+00	0	56	0	931135488	34	3999
2026-01-03 01:04:31.29	38.20	24.27	-31.4	-32.4	21.8	0.00e+00	0	56	0	937426944	34	4022
2026-01-03 01:04:32.30	38.35	24.41	-31.3	-32.4	21.8	0.00e+00	0	56	0	942669824	34	4009
2026-01-03 01:04:33.31	38.50	24.54	-31.4	-32.4	21.8	0.00e+00	0	56	0	947912704	34	4028
2026-01-03 01:04:34.32	38.65	24.68	-31.4	-32.4	21.8	0.00e+00	0	56	0	954204160	34	4028
2026-01-03 01:04:35.33	38.80	24.82	-31.4	-32.4	21.8	0.00e+00	0	56	0	959447040	34	4030
2026-01-03 01:04:36.34	38.96	24.95	-31.3	-32.3	21.9	0.00e+00	0	56	0	965738496	34	3989
2026-01-03 01:04:37.35	39.11	25.09	-31.3	-32.3	21.9	0.00e+00	0	56	0	970981376	34	3977
2026-01-03 01:04:38.36	39.27	25.23	-31.3	-32.3	21.9	0.00e+00	0	56	0	977272832	34	3996
2026-01-03 01:04:39.37	39.42	25.36	-31.3	-32.4	21.8	0.00e+00	0	56	0	982515712	34	4007
2026-01-03 01:04:40.38	39.58	25.50	-31.3	-32.4	21.8	0.00e+00	0	56	0	987758592	34	4012
2026-01-03 01:04:41.39	39.74	25.64	-31.3	-32.3	21.9	0.00e+00	0	56	0	994050048	34	3996
2026-01-03 01:04:42.40	39.90	25.78	-31.2	-32.2	22.0	0.00e+00	0	56	0	999292928	34	3948
2026-01-03 01:04:43.40	40.06	25.92	-31.1	-32.1	22.1	0.00e+00	0	56	0	1005584384	34	3878
2026-01-03 01:04:44.41	40.23	26.06	-31.0	-32.0	22.2	0.00e+00	0	56	0	1010827264	34	3827
2026-01-03 01:04:45.43	40.39	26.20	-31.0	-32.0	22.2	0.00e+00	0	56	0	1016070144	33	4054
2026-01-03 01:04:46.44	40.56	26.34	-31.0	-32.0	22.2	0.00e+00	0	56	0	1022361600	33	4073
2026-01-03 01:04:47.45	40.73	26.49	-31.0	-32.0	22.2	0.00e+00	0	56	0	1027604480	33	4083
2026-01-03 01:04:48.46	40.90	26.63	-31.0	-32.0	22.2	0.00e+00	0	56	0	1033895936	33	4083
2026-01-03 01:04:49.47	41.07	26.77	-30.9	-32.0	22.2	0.00e+00	0	56	0	1039138816	33	4058
2026-01-03 01:04:50.48	41.24	26.92	-30.9	-31.9	22.2	0.00e+00	0	56	0	1044381696	33	4041
2026-01-03 01:04:51.49	41.42	27.06	-30.8	-31.9	22.3	0.00e+00	0	56	0	1050673152	33	4008
2026-01-03 01:04:52.50	41.59	27.21	-30.9	-31.9	22.3	0.00e+00	0	56	0	1055916032	33	4017
2026-01-03 01:04:53.51	41.77	27.35	-30.9	-31.9	22.2	0.00e+00	0	56	0	1062207488	33	4039
2026-01-03 01:04:54.52	41.95	27.50	-31.0	-32.0	22.2	0.00e+00	0	56	0	1067450368	33	4085
2026-01-03 01:04:55.53	42.13	27.64	-31.0	-32.1	22.1	0.00e+00	0	56	0	1073741824	33	4103
2026-01-03 01:04:56.54	42.31	27.79	-31.0	-32.1	22.1	0.00e+00	0	56	0	1078984704	33	4099
2026-01-03 01:04:57.55	42.49	27.94	-31.1	-32.1	22.1	0.00e+00	0	56	0	1085276160	33	4112
2026-01-03 01:04:58.56	42.68	28.08	-31.0	-32.0	22.2	0.00e+00	0	56	0	1090519040	33	4090
2026-01-03 01:04:59.57	42.87	28.23	-31.0	-32.1	22.1	0.00e+00	0	56	0	1095761920	33	4100
2026-01-03 01:05:00.58	43.06	28.38	-31.0	-32.0	22.2	0.00e+00	0	56	0	1102053376	33	4095
2026-01-03 01:05:01.59	43.25	28.53	-31.0	-32.0	22.2	0.00e+00	0	56	0	1107296256	33	4086
2026-01-03 01:05:02.60	43.44	28.68	-30.9	-32.0	22.2	0.00e+00	0	56	0	1113587712	33	4055
2026-01-03 01:05:03.61	43.63	28.83	-30.9	-31.9	22.4	0.00e+00	0	56	0	1118830592	33	4015
2026-01-03 01:05:04.62	43.83	28.98	-30.8	-31.8	22.4	0.00e+00	0	56	0	1124073472	33	3989
2026-01-03 01:05:05.63	44.02	29.13	-30.8	-31.8	22.4	0.00e+00	0	56	0	1130364928	33	3983
2026-01-03 01:05:06.64	44.22	29.28	-30.8	-31.8	22.4	0.00e+00	0	56	0	1135607808	33	3964
2026-01-03 01:05:07.65	44.43	29.43	-30.8	-31.8	22.4	0.00e+00	0	56	0	1141899264	33	3985
2026-01-03 01:05:08.66	44.63	29.58	-30.9	-31.9	22.3	0.00e+00	0	56	0	1147142144	33	4043
2026-01-03 01:05:09.67	44.83	29.74	-31.1	-32.1	22.1	0.00e+00	0	56	0	1152385024	33	4113
2026-01-03 01:05:10.68	45.04	29.89	-31.2	-32.2	22.0	0.00e+00	0	56	0	1158676480	33	4162
2026-01-03 01:05:11.69	45.25	30.04	-31.2	-32.3	21.9	0.00e+00	0	56	0	1163919360	33	4205
2026-01-03 01:05:12.70	45.46	30.20	-31.0	-32.1	22.1	0.00e+00	0	56	0	1170210816	33	4104
2026-01-03 01:05:13.71	45.67	30.35	-30.9	-31.9	22.2	0.00e+00	0	56	0	1175453696	33	4044
2026-01-03 01:05:14.72	45.89	30.51	-30.9	-31.9	22.3	0.00e+00	0	56	0	1181745152	33	4028
2026-01-03 01:05:15.73	46.10	30.66	-30.7	-31.9	21.5	0.00e+00	0	56	0	1186988032	33	4020
2026-01-03 01:05:16.74	46.32	30.82	-30.7	-31.9	21.5	0.00e+00	0	56	0	1193279488	33	4015
2026-01-03 01:05:17.75	46.54	30.97	-30.6	-31.7	21.6	0.00e+00	0	56	0	1198522368	33	3949
2026-01-03 01:05:18.76	46.77	31.13	-30.5	-31.7	21.7	0.00e+00	0	56	0	1203765248	33	3918
2026-01-03 01:05:19.78	46.99	31.29	-30.5	-31.6	21.7	0.00e+00	0	56	0	1210056704	32	4134
2026-01-03 01:05:20.78	47.22	31.44	-30.5	-31.7	21.7	0.00e+00	0	56	0	1215299584	32	4155
2026-01-03 01:05:21.79	47.45	31.60	-30.6	-31.8	21.6	0.00e+00	0	56	0	1221591040	32	4210
2026-01-03 01:05:22.80	47.68	31.76	-30.7	-31.8	21.5	0.00e+00	0	56	0	1226833920	32	4242
2026-01-03 01:05:23.81	47.91	31.92	-30.7	-31.9	21.4	0.00e+00	0	56	0	1232076800	32	4263
2026-01-03 01:05:24.82	48.15	32.07	-30.7	-31.9	21.5	0.00e+00	0	56	0	1238368256	32	4257
2026-01-03 01:05:25.83	48.39	32.23	-30.7	-31.9	21.5	0.00e+00	0	56	0	1243611136	32	4259
2026-01-03 01:05:26.84	48.63	32.39	-30.6	-31.8	21.5	0.00e+00	0	56	0	1249902592	32	4218
2026-01-03 01:05:27.85	48.87	32.55	-30.5	-31.7	21.6	0.00e+00	0	56	0	1255145472	32	4158
2026-01-03 01:05:28.86	49.12	32.71	-30.5	-31.6	21.7	0.00e+00	0	56	0	1260388352	32	4128
2026-01-03 01:05:29.87	49.37	32.87	-30.5	-31.6	21.7	0.00e+00	0	56	0	1266679808	32	4132
2026-01-03 01:05:30.88	49.62	33.03	-30.5	-31.6	21.7	0.00e+00	0	56	0	1271922688	32	4128
2026-01-03 01:05:31.89	49.87	33.19	-30.5	-31.7	21.7	0.00e+00	0	56	0	1278214144	32	4154
2026-01-03 01:05:32.90	50.12	33.35	-30.6	-31.7	21.6	0.00e+00	0	56	0	1283457024	32	4184
2026-01-03 01:05:33.91	50.38	33.51	-30.6	-31.8	21.5	0.00e+00	0	56	0	1289748480	32	4217
2026-01-03 01:05:34.92	50.64	33.68	-30.7	-31.9	21.4	0.00e+00	0	56	0	1294991360	32	4266
2026-01-03 01:05:35.93	50.90	33.84	-30.8	-32.0	21.4	0.00e+00	0	56	0	1300234240	32	4294
2026-01-03 01:05:36.94	51.17	34.00	-30.8	-31.9	21.5	0.00e+00	0	56	0	1306525696	32	4286
2026-01-03 01:05:37.95	51.44	34.16	-30.7	-31.8	21.5	0.00e+00	0	56	0	1311768576	32	4232
2026-01-03 01:05:38.96	51.71	34.32	-30.6	-31.7	21.6	0.00e+00	0	56	0	1318060032	32	4188
2026-01-03 01:05:39.97	51.98	34.48	-30.5	-31.7	21.6	0.00e+00	0	56	0	1323302912	32	4169
2026-01-03 01:05:40.98	52.26	34.65	-30.6	-31.7	21.6	0.00e+00	0	56	0	1328545792	32	4182
2026-01-03 01:05:41.99	52.54	34.81	-30.6	-31.7	21.6	0.00e+00	0	56	0	1334837248	32	4183
2026-01-03 01:05:43.00	52.82	34.97	-30.5	-31.7	21.6	0.00e+00	0	56	0	1340080128	32	4170
2026-01-03 01:05:44.01	53.10	35.13	-30.5	-31.7	21.6	0.00e+00	0	56	0	1346371584	32	4178
2026-01-03 01:05:45.02	53.39	35.30	-30.6	-31.8	21.6	0.00e+00	0	56	0	1351614464	32	4198
2026-01-03 01:05:46.03	53.68	35.46	-30.5	-31.7	21.6	0.00e+00	0	56	0	1356857344	32	4175
2026-01-03 01:05:47.04	53.97	35.62	-30.4	-31.5	21.8	0.00e+00	0	56	0	1363148800	32	4090
2026-01-03 01:05:48.05	54.27	35.78	-30.2	-31.4	21.9	0.00e+00	0	56	0	1368391680	32	4017
2026-01-03 01:05:49.06	54.56	35.95	-30.1	-31.3	22.0	0.00e+00	0	56	0	1374683136	32	3969
2026-01-03 01:05:50.07	54.87	36.11	-30.1	-31.3	22.0	0.00e+00	0	56	0	1379926016	32	3972
2026-01-03 01:05:51.08	55.17	36.27	-30.4	-31.5	21.8	0.00e+00	0	56	0	1386217472	32	4094
2026-01-03 01:05:52.09	55.48	36.44	-30.6	-31.8	21.5	0.00e+00	0	56	0	1391460352	32	4210
2026-01-03 01:05:53.10	55.79	36.60	-30.6	-31.7	21.5	0.00e+00	0	56	0	1397751808	32	4192
2026-01-03 01:05:54.10	56.10	36.76	-30.4	-31.6	21.7	0.00e+00	0	56	0	1402994688	32	4115
2026-01-03 01:05:55.11	56.41	36.92	-30.3	-31.4	21.9	0.00e+00	0	56	0	1408237568	32	4048
2026-01-03 01:05:56.12	56.73	37.08	-30.2	-31.3	22.0	0.00e+00	0	56	0	1414529024	32	3993
2026-01-03 01:05:57.13	57.06	37.24	-30.2	-31.3	22.1	0.00e+00	0	56	0	1419771904	32	3971
2026-01-03 01:05:58.14	57.38	37.41	-30.1	-31.2	22.2	0.00e+00	0	56	0	1426063360	32	3940
2026-01-03 01:05:59.15	57.71	37.57	-30.1	-31.2	22.2	0.00e+00	0	56	0	1431306240	32	3936
2026-01-03 01:06:00.16	58.05	37.73	-30.2	-31.3	22.1	0.00e+00	0	56	0	1436549120	32	4000
2026-01-03 01:06:01.17	58.38	37.89	-30.4	-31.6	21.8	0.00e+00	0	56	0	1442840576	32	4116
2026-01-03 01:06:02.18	58.72	38.05	-30.5	-31.7	21.7	0.00e+00	0	56	0	1448083456	32	4174
2026-01-03 01:06:03.19	59.06	38.21	-30.6	-31.8	21.6	0.00e+00	0	56	0	1454374912	32	4207
2026-01-03 01:06:04.20	59.41	38.37	-30.5	-31.7	21.7	0.00e+00	0	56	0	1459617792	32	4167
2026-01-03 01:06:05.21	59.76	38.53	-30.4	-31.5	21.9	0.00e+00	0	56	0	1464860672	32	4096
2026-01-03 01:06:06.23	60.11	38.69	-30.4	-31.5	21.9	0.00e+00	0	56	0	1471152128	32	4088
2026-01-03 01:06:07.24	60.47	38.85	-30.4	-31.6	21.9	0.00e+00	0	56	0	1476395008	32	4114
2026-01-03 01:06:08.24	60.82	39.01	-30.5	-31.6	21.8	0.00e+00	0	56	0	1482686464	32	4137
2026-01-03 01:06:09.25	61.19	39.16	-30.5	-31.7	21.7	0.00e+00	0	56	0	1487929344	32	4158
2026-01-03 01:06:10.26	61.55	39.32	-30.7	-31.9	21.6	0.00e+00	0	57	0	1494220800	32	4253
2026-01-03 01:06:11.27	61.92	39.48	-30.6	-31.8	21.6	0.00e+00	0	57	0	1499463680	32	4208
2026-01-03 01:06:12.28	62.30	39.63	-30.6	-31.8	21.6	0.00e+00	0	56	0	1505755136	32	4215
2026-01-03 01:06:13.29	62.67	39.79	-30.5	-31.7	21.7	0.00e+00	0	56	0	1510998016	32	4162
2026-01-03 01:06:14.30	63.05	39.94	-30.5	-31.7	21.8	0.00e+00	0	56	0	1516240896	32	4152
2026-01-03 01:06:15.31	63.44	40.10	-30.6	-31.7	21.7	0.00e+00	0	57	0	1522532352	32	4175
2026-01-03 01:06:16.32	63.83	40.25	-30.5	-31.7	21.8	0.00e+00	0	56	0	1527775232	32	4154
2026-01-03 01:06:17.33	64.22	40.40	-30.5	-31.7	21.8	0.00e+00	0	56	0	1534066688	32	4146
2026-01-03 01:06:18.34	64.61	40.55	-30.6	-31.7	21.7	0.00e+00	0	56	0	1539309568	32	4190
2026-01-03 01:06:19.35	65.01	40.70	-30.5	-31.6	21.8	0.00e+00	0	56	0	1544552448	32	4145
2026-01-03 01:06:20.36	65.41	40.85	-30.5	-31.7	21.8	0.00e+00	0	56	0	1550843904	32	4161
2026-01-03 01:06:21.37	65.82	41.00	-30.6	-31.7	21.7	0.00e+00	0	57	0	1556086784	32	4170
2026-01-03 01:06:22.38	66.23	41.15	-30.6	-31.7	21.7	0.00e+00	0	57	0	1562378240	32	4180
2026-01-03 01:06:23.39	66.64	41.30	-30.6	-31.8	21.7	0.00e+00	0	56	0	1567621120	32	4196
2026-01-03 01:06:24.40	67.06	41.44	-30.6	-31.7	21.7	0.00e+00	0	56	0	1572864000	32	4182
2026-01-03 01:06:25.40	67.48	41.59	-30.5	-31.7	21.8	0.00e+00	0	57	0	1579155456	32	4153
2026-01-03 01:06:26.41	67.90	41.73	-30.5	-31.6	21.8	0.00e+00	0	56	0	1584398336	32	4126
2026-01-03 01:06:27.42	68.33	41.87	-30.5	-31.7	21.8	0.00e+00	0	57	0	1590689792	32	4151
2026-01-03 01:06:28.44	68.77	42.01	-30.7	-31.9	21.6	0.00e+00	0	56	0	1595932672	32	4259
2026-01-03 01:06:29.44	69.20	42.15	-30.8	-32.0	21.5	0.00e+00	0	57	0	1602224128	32	4302
2026-01-03 01:06:30.46	69.64	42.29	-30.7	-31.9	21.6	0.00e+00	0	56	0	1607467008	32	4256
2026-01-03 01:06:31.47	70.09	42.43	-30.6	-31.8	21.6	0.00e+00	0	56	0	1612709888	32	4201
2026-01-03 01:06:32.47	70.53	42.56	-30.7	-31.9	21.6	0.00e+00	0	57	0	1619001344	32	4245
2026-01-03 01:06:33.48	70.98	42.70	-30.6	-31.8	21.6	0.00e+00	0	57	0	1624244224	32	4199
2026-01-03 01:06:34.49	71.43	42.83	-30.5	-31.7	21.7	0.00e+00	0	56	0	1630535680	32	4148
2026-01-03 01:06:35.51	71.90	42.96	-30.5	-31.7	21.7	0.00e+00	0	56	0	1635778560	32	4159
2026-01-03 01:06:36.52	72.36	43.09	-30.8	-32.0	21.5	0.00e+00	0	57	0	1641021440	32	4295
2026-01-03 01:06:37.53	72.82	43.22	-31.0	-32.2	21.3	0.00e+00	0	56	0	1647312896	32	4393
2026-01-03 01:06:38.54	73.29	43.35	-31.0	-32.2	21.4	0.00e+00	0	56	0	1652555776	32	4393
2026-01-03 01:06:39.55	73.77	43.47	-30.9	-32.1	21.4	0.00e+00	0	57	0	1658847232	32	4352
2026-01-03 01:06:40.56	74.24	43.60	-30.8	-31.9	21.5	0.00e+00	0	57	0	1664090112	32	4284
2026-01-03 01:06:41.56	74.72	43.72	-30.7	-31.8	21.7	0.00e+00	0	57	0	1669332992	32	4223
2026-01-03 01:06:42.57	75.20	43.84	-30.6	-31.7	21.8	0.00e+00	0	56	0	1675624448	32	4164
2026-01-03 01:06:43.58	75.69	43.95	-30.6	-31.7	21.8	0.00e+00	0	57	0	1680867328	32	4169
2026-01-03 01:06:44.59	76.18	44.07	-30.6	-31.7	21.8	0.00e+00	0	56	0	1687158784	32	4162
2026-01-03 01:06:45.60	76.68	44.18	-30.8	-31.9	21.6	0.00e+00	0	56	0	1692401664	32	4270
2026-01-03 01:06:46.61	77.18	44.30	-30.9	-32.0	21.5	0.00e+00	0	57	0	1698693120	32	4337
2026-01-03 01:06:47.62	77.68	44.41	-30.9	-32.0	21.5	0.00e+00	0	57	0	1703936000	32	4335
2026-01-03 01:06:48.63	78.18	44.51	-30.9	-32.1	21.5	0.00e+00	0	57	0	1710227456	32	4356
2026-01-03 01:06:49.64	78.69	44.62	-31.0	-32.2	21.4	0.00e+00	0	56	0	1715470336	32	4409
2026-01-03 01:06:50.65	79.20	44.72	-30.9	-32.1	21.5	0.00e+00	0	56	0	1720713216	32	4343
2026-01-03 01:06:51.66	79.72	44.82	-30.8	-31.9	21.6	0.00e+00	0	57	0	1727004672	32	4286
2026-01-03 01:06:52.67	80.24	44.92	-30.7	-31.8	21.7	0.00e+00	0	56	0	1732247552	32	4233
2026-01-03 01:06:53.68	80.76	45.02	-30.7	-31.8	21.7	0.00e+00	0	57	0	1738539008	32	4221
2026-01-03 01:06:54.69	81.28	45.11	-30.8	-31.9	21.7	0.00e+00	0	57	0	1743781888	32	4262
2026-01-03 01:06:55.70	81.81	45.20	-30.8	-32.0	21.6	0.00e+00	0	57	0	1749024768	32	4299
2026-01-03 01:06:56.71	82.34	45.29	-31.0	-32.1	21.5	0.00e+00	0	57	0	1755316224	32	4373
2026-01-03 01:06:57.72	82.87	45.38	-30.9	-32.1	21.5	0.00e+00	0	57	0	1760559104	32	4356
2026-01-03 01:06:58.73	83.41	45.46	-30.8	-31.9	21.7	0.00e+00	0	57	0	1766850560	32	4257
2026-01-03 01:06:59.75	83.96	45.55	-30.7	-31.9	21.8	0.00e+00	0	57	0	1772093440	32	4243
2026-01-03 01:07:00.75	84.49	45.63	-30.7	-31.8	21.8	0.00e+00	0	57	0	1777336320	32	4224
2026-01-03 01:07:01.76	85.04	45.70	-30.7	-31.8	21.9	0.00e+00	0	57	0	1783627776	32	4209
2026-01-03 01:07:02.77	85.58	45.78	-30.7	-31.8	21.9	0.00e+00	0	57	0	1788870656	32	4204
2026-01-03 01:07:03.79	86.14	45.85	-30.9	-32.1	21.6	0.00e+00	0	57	0	1795162112	32	4347
2026-01-03 01:07:04.79	86.69	45.92	-31.0	-32.2	21.4	0.00e+00	0	57	0	1800404992	32	4424
2026-01-03 01:07:05.80	87.24	45.98	-31.0	-32.2	21.4	0.00e+00	0	57	0	1806696448	32	4398
2026-01-03 01:07:06.81	87.80	46.04	-31.0	-32.1	21.4	0.00e+00	0	57	0	1811939328	32	4372
2026-01-03 01:07:07.82	88.36	46.10	-31.0	-32.2	21.4	0.00e+00	0	57	0	1817182208	32	4406
2026-01-03 01:07:08.83	88.92	46.16	-30.9	-32.0	21.5	0.00e+00	0	57	0	1823473664	32	4329
2026-01-03 01:07:09.84	89.48	46.22	-30.8	-31.9	21.7	0.00e+00	0	57	0	1828716544	32	4267
2026-01-03 01:07:10.86	90.05	46.27	-30.9	-32.1	21.6	0.00e+00	0	57	0	1835008000	32	4353
2026-01-03 01:07:11.87	90.62	46.32	-31.0	-32.2	21.5	0.00e+00	0	57	0	1840250880	32	4402
2026-01-03 01:07:12.88	91.19	46.36	-30.9	-32.0	21.7	0.00e+00	0	57	0	1846542336	32	4317
2026-01-03 01:07:13.89	91.76	46.40	-30.6	-31.7	21.9	0.00e+00	0	57	0	1851785216	32	4183
2026-01-03 01:07:14.90	92.33	46.44	-30.6	-31.7	21.9	0.00e+00	0	57	0	1857028096	32	4187
2026-01-03 01:07:15.91	92.90	46.48	-30.9	-32.0	21.6	0.00e+00	0	57	0	1863319552	32	4325
2026-01-03 01:07:16.92	93.48	46.51	-31.0	-32.2	21.4	0.00e+00	0	57	0	1868562432	32	4422
2026-01-03 01:07:17.93	94.05	46.54	-31.0	-32.2	21.4	0.00e+00	0	57	0	1874853888	32	4398
2026-01-03 01:07:18.94	94.63	46.57	-30.9	-32.0	21.5	0.00e+00	0	57	0	1880096768	32	4336
2026-01-03 01:07:19.95	95.21	46.60	-31.0	-32.1	21.5	0.00e+00	0	57	0	1885339648	32	4371
2026-01-03 01:07:20.96	95.79	46.62	-31.1	-32.3	21.4	0.00e+00	0	57	0	1891631104	32	4449
2026-01-03 01:07:21.97	96.37	46.63	-31.0	-32.1	21.5	0.00e+00	0	57	0	1896873984	32	4383
2026-01-03 01:07:22.98	96.95	46.65	-30.8	-31.9	21.8	0.00e+00	0	57	0	1903165440	32	4258
2026-01-03 01:07:23.99	97.53	46.66	-30.6	-31.7	22.0	0.00e+00	0	57	0	1908408320	32	4173
2026-01-03 01:07:24.99	98.10	46.67	-30.8	-31.9	21.8	0.00e+00	0	57	0	1914699776	32	4253
2026-01-03 01:07:26.01	98.69	46.67	-30.9	-32.0	21.7	0.00e+00	0	56	0	1919942656	32	4338
2026-01-03 01:07:27.02	99.27	46.68	-31.0	-32.2	21.5	0.00e+00	0	57	0	1925185536	32	4392
2026-01-03 01:07:28.03	99.85	46.68	-30.9	-32.1	21.6	0.00e+00	0	57	0	1931476992	32	4356
2026-01-03 01:07:29.04	100.43	46.67	-30.8	-32.0	21.7	0.00e+00	0	57	0	1936719872	32	4303
2026-01-03 01:07:30.05	101.01	46.66	-30.8	-31.9	21.7	0.00e+00	0	57	0	1943011328	32	4265
2026-01-03 01:07:31.06	101.59	46.65	-30.8	-32.0	21.6	0.00e+00	0	57	0	1948254208	32	4300
2026-01-03 01:07:32.07	102.17	46.64	-30.8	-31.9	21.7	0.00e+00	0	57	0	1953497088	32	4286
2026-01-03 01:07:33.08	102.75	46.62	-30.8	-31.9	21.7	0.00e+00	0	56	0	1959788544	32	4246
2026-01-03 01:07:34.09	103.33	46.60	-30.9	-32.0	21.6	0.00e+00	0	57	0	1965031424	32	4321
2026-01-03 01:07:35.10	103.91	46.58	-31.0	-32.2	21.4	0.00e+00	0	57	0	1971322880	32	4424
2026-01-03 01:07:36.11	104.49	46.55	-31.0	-32.2	21.5	0.00e+00	0	57	0	1976565760	32	4403
2026-01-03 01:07:37.12	105.06	46.52	-30.9	-32.0	21.6	0.00e+00	0	57	0	1981808640	32	4323
2026-01-03 01:07:38.13	105.64	46.49	-30.9	-32.0	21.6	0.00e+00	0	57	0	1988100096	32	4309
2026-01-03 01:07:39.14	106.21	46.46	-31.0	-32.1	21.5	0.00e+00	0	57	0	1993342976	32	4377
2026-01-03 01:07:40.15	106.78	46.42	-30.9	-32.1	21.5	0.00e+00	0	57	0	1999634432	32	4352
2026-01-03 01:07:41.16	107.36	46.38	-30.8	-32.0	21.6	0.00e+00	0	57	0	2004877312	32	4299
2026-01-03 01:07:42.17	107.93	46.33	-30.7	-31.8	21.8	0.00e+00	0	57	0	2011168768	32	4218
2026-01-03 01:07:43.18	108.49	46.28	-30.6	-31.8	21.8	0.00e+00	0	57	0	2016411648	32	4197
2026-01-03 01:07:44.19	109.06	46.23	-30.7	-31.9	21.8	0.00e+00	0	57	0	2022703104	32	4247
2026-01-03 01:07:45.20	109.62	46.18	-30.8	-31.9	21.7	0.00e+00	0	57	0	2027945984	32	4270
2026-01-03 01:07:46.21	110.19	46.12	-30.8	-32.0	21.6	0.00e+00	0	57	0	2033188864	32	4303
2026-01-03 01:07:47.22	110.75	46.07	-30.9	-32.1	21.5	0.00e+00	0	57	0	2039480320	32	4374
2026-01-03 01:07:48.23	111.31	46.00	-31.1	-32.3	21.3	0.00e+00	0	57	0	2044723200	32	4454
2026-01-03 01:07:49.24	111.86	45.94	-31.1	-32.2	21.4	0.00e+00	0	57	0	2051014656	32	4440
2026-01-03 01:07:50.25	112.42	45.87	-31.0	-32.2	21.4	0.00e+00	0	57	0	2056257536	32	4420
2026-01-03 01:07:51.27	112.97	45.80	-31.0	-32.2	21.4	0.00e+00	0	57	0	2061500416	32	4415
2026-01-03 01:07:52.28	113.52	45.73	-31.0	-32.1	21.5	0.00e+00	0	57	0	2067791872	32	4367
2026-01-03 01:07:53.29	114.07	45.65	-30.8	-31.9	21.6	0.00e+00	0	57	0	2073034752	32	4286
2026-01-03 01:07:54.30	114.61	45.57	-30.8	-31.9	21.6	0.00e+00	0	57	0	2079326208	32	4279
2026-01-03 01:07:55.31	115.15	45.49	-31.0	-32.1	21.5	0.00e+00	0	57	0	2084569088	32	4382
2026-01-03 01:07:56.32	115.69	45.41	-31.2	-32.4	21.2	0.00e+00	0	57	0	2089811968	32	4506
2026-01-03 01:07:57.33	116.23	45.32	-31.2	-32.4	21.2	0.00e+00	0	57	0	2096103424	32	4512
2026-01-03 01:07:58.34	116.76	45.23	-31.1	-32.3	21.3	0.00e+00	0	57	0	2101346304	32	4473
2026-01-03 01:07:59.35	117.29	45.14	-31.1	-32.2	21.3	0.00e+00	0	57	0	2107637760	32	4439
2026-01-03 01:08:00.36	117.82	45.05	-31.0	-32.2	21.4	0.00e+00	0	57	0	2112880640	32	4403
2026-01-03 01:08:01.37	118.34	44.95	-30.9	-32.1	21.5	0.00e+00	0	57	0	2119172096	32	4351
2026-01-03 01:08:02.38	118.86	44.85	-30.8	-32.0	21.6	0.00e+00	0	57	0	2124414976	32	4313
2026-01-03 01:08:03.39	119.38	44.75	-30.9	-32.0	21.6	0.00e+00	0	57	0	2130706432	32	4318
2026-01-03 01:08:04.40	119.89	44.65	-30.8	-32.0	21.6	0.00e+00	0	57	0	2135949312	32	4301
2026-01-03 01:08:05.41	120.40	44.55	-30.9	-32.1	21.5	0.00e+00	0	57	0	2141192192	32	4343
2026-01-03 01:08:06.42	120.91	44.44	-30.9	-32.1	21.6	0.00e+00	0	57	0	2147483648	32	4342
2026-01-03 01:08:07.43	121.41	44.33	-30.8	-31.9	21.7	0.00e+00	0	57	0	2152726528	32	4273
2026-01-03 01:08:08.44	121.92	44.22	-30.8	-31.9	21.6	0.00e+00	0	57	0	2159017984	32	4284
2026-01-03 01:08:09.45	122.41	44.10	-31.1	-32.2	21.4	0.00e+00	0	57	0	2164260864	32	4435
2026-01-03 01:08:10.46	122.91	43.99	-31.3	-32.5	21.1	0.00e+00	0	57	0	2169503744	33	4334
2026-01-03 01:08:11.47	123.40	43.87	-31.4	-32.7	20.9	0.00e+00	0	57	0	2175795200	33	4399
2026-01-03 01:08:12.48	123.88	43.75	-31.2	-32.5	21.0	0.00e+00	0	57	0	2181038080	33	4296
2026-01-03 01:08:13.49	124.36	43.63	-31.1	-32.3	21.2	0.00e+00	0	57	0	2187329536	33	4202
2026-01-03 01:08:14.50	124.84	43.51	-31.0	-32.1	21.3	0.00e+00	0	57	0	2192572416	33	4136
2026-01-03 01:08:15.52	125.32	43.38	-30.9	-32.1	21.4	0.00e+00	0	57	0	2197815296	33	4108
2026-01-03 01:08:16.53	125.80	43.25	-30.9	-32.1	21.4	0.00e+00	0	57	0	2204106752	33	4111
2026-01-03 01:08:17.54	126.26	43.13	-30.8	-32.0	21.5	0.00e+00	0	57	0	2209349632	33	4069
2026-01-03 01:08:18.55	126.73	43.00	-30.7	-31.8	21.6	0.00e+00	0	57	0	2215641088	33	3998
2026-01-03 01:08:19.56	127.19	42.86	-30.7	-31.8	21.7	0.00e+00	0	57	0	2220883968	33	3980
2026-01-03 01:08:20.57	127.65	42.73	-30.8	-31.9	21.7	0.00e+00	0	57	0	2227175424	33	4035
2026-01-03 01:08:21.58	128.10	42.60	-30.9	-32.1	21.5	0.00e+00	0	57	0	2232418304	33	4100
2026-01-03 01:08:22.59	128.55	42.46	-30.9	-32.0	21.5	0.00e+00	0	57	0	2238709760	33	4093
2026-01-03 01:08:23.60	129.00	42.32	-30.8	-32.0	21.5	0.00e+00	0	57	0	2243952640	33	4064
2026-01-03 01:08:24.61	129.44	42.19	-30.8	-31.9	21.6	0.00e+00	0	57	0	2249195520	33	4034
2026-01-03 01:08:25.62	129.88	42.05	-30.7	-31.9	21.6	0.00e+00	0	57	0	2255486976	33	4030
2026-01-03 01:08:26.63	130.31	41.90	-30.7	-31.9	21.6	0.00e+00	0	57	0	2260729856	33	4035
2026-01-03 01:08:27.63	130.74	41.76	-30.8	-31.9	21.5	0.00e+00	0	57	0	2267021312	33	4050
2026-01-03 01:08:28.64	131.16	41.62	-30.8	-32.0	21.5	0.00e+00	0	57	0	2272264192	33	4072
2026-01-03 01:08:29.65	131.59	41.47	-30.8	-31.9	21.6	0.00e+00	0	57	0	2277507072	33	4045
2026-01-03 01:08:30.66	132.01	41.33	-30.7	-31.8	21.7	0.00e+00	0	57	0	2283798528	33	3995
2026-01-03 01:08:31.67	132.42	41.18	-30.6	-31.7	21.8	0.00e+00	0	57	0	2289041408	33	3933
2026-01-03 01:08:32.69	132.84	41.03	-30.5	-31.6	21.9	0.00e+00	0	57	0	2295332864	33	3887
2026-01-03 01:08:33.70	133.25	40.88	-30.6	-31.7	21.7	0.00e+00	0	57	0	2300575744	33	3945
2026-01-03 01:08:34.71	133.65	40.73	-30.7	-31.9	21.6	0.00e+00	0	57	0	2305818624	33	4010
2026-01-03 01:08:35.72	134.05	40.58	-30.8	-32.0	21.4	0.00e+00	0	57	0	2312110080	33	4079
2026-01-03 01:08:36.73	134.45	40.43	-30.8	-32.0	21.4	0.00e+00	0	57	0	2317352960	33	4094
2026-01-03 01:08:37.74	134.84	40.28	-30.8	-32.0	21.4	0.00e+00	0	57	0	2323644416	33	4082
2026-01-03 01:08:38.75	135.23	40.12	-30.8	-32.0	21.4	0.00e+00	0	57	0	2328887296	33	4062
2026-01-03 01:08:39.76	135.62	39.97	-30.8	-31.9	21.5	0.00e+00	0	57	0	2335178752	33	4045
2026-01-03 01:08:40.77	136.00	39.81	-30.7	-31.9	21.5	0.00e+00	0	57	0	2340421632	33	4014
2026-01-03 01:08:41.78	136.38	39.66	-30.6	-31.7	21.7	0.00e+00	0	57	0	2346713088	33	3937
2026-01-03 01:08:42.79	136.76	39.50	-30.5	-31.6	21.8	0.00e+00	0	57	0	2351955968	33	3911
2026-01-03 01:08:43.79	137.13	39.34	-30.5	-31.7	21.7	0.00e+00	0	57	0	2357198848	33	3929
2026-01-03 01:08:44.80	137.49	39.19	-30.6	-31.8	21.7	0.00e+00	0	57	0	2363490304	33	3967
2026-01-03 01:08:45.81	137.86	39.03	-30.6	-31.8	21.7	0.00e+00	0	57	0	2368733184	33	3987
2026-01-03 01:08:46.82	138.22	38.87	-30.6	-31.8	21.7	0.00e+00	0	57	0	2373976064	33	3987
2026-01-03 01:08:47.83	138.58	38.71	-30.6	-31.7	21.7	0.00e+00	0	57	0	2380267520	33	3956
2026-01-03 01:08:48.84	138.93	38.55	-30.6	-31.7	21.8	0.00e+00	0	57	0	2385510400	33	3939
2026-01-03 01:08:49.85	139.28	38.39	-30.6	-31.7	21.8	0.00e+00	0	57	0	2391801856	33	3933
2026-01-03 01:08:50.86	139.63	38.23	-30.5	-31.7	21.8	0.00e+00	0	57	0	2397044736	33	3924
2026-01-03 01:08:51.87	139.98	38.07	-30.5	-31.6	21.9	0.00e+00	0	57	0	2402287616	32	4128
2026-01-03 01:08:52.88	140.32	37.91	-30.5	-31.6	21.8	0.00e+00	0	57	0	2408579072	32	4144
2026-01-03 01:08:53.89	140.65	37.75	-30.6	-31.7	21.8	0.00e+00	0	57	0	2413821952	32	4181
2026-01-03 01:08:54.90	140.99	37.58	-30.6	-31.7	21.7	0.00e+00	0	57	0	2420113408	32	4189
2026-01-03 01:08:55.91	141.32	37.42	-30.6	-31.7	21.7	0.00e+00	0	57	0	2425356288	32	4185
2026-01-03 01:08:56.92	141.65	37.26	-30.5	-31.7	21.7	0.00e+00	0	57	0	2431647744	32	4159
2026-01-03 01:08:57.93	141.97	37.10	-30.5	-31.7	21.7	0.00e+00	0	57	0	2436890624	32	4160
2026-01-03 01:08:58.94	142.29	36.93	-30.6	-31.7	21.7	0.00e+00	0	57	0	2443182080	32	4186
2026-01-03 01:08:59.95	142.61	36.77	-30.6	-31.8	21.6	0.00e+00	0	57	0	2448424960	32	4222
2026-01-03 01:09:00.96	142.93	36.61	-30.7	-31.9	21.5	0.00e+00	0	57	0	2453667840	32	4255
2026-01-03 01:09:01.97	143.24	36.44	-30.7	-31.9	21.5	0.00e+00	0	57	0	2459959296	32	4276
2026-01-03 01:09:02.98	143.55	36.28	-30.8	-31.9	21.5	0.00e+00	0	57	0	2465202176	32	4282
2026-01-03 01:09:03.99	143.86	36.12	-30.7	-31.9	21.6	0.00e+00	0	57	0	2471493632	32	4265
2026-01-03 01:09:05.00	144.16	35.95	-30.7	-31.8	21.6	0.00e+00	0	57	0	2476736512	32	4230
2026-01-03 01:09:06.01	144.46	35.79	-30.6	-31.7	21.8	0.00e+00	0	57	0	2481979392	32	4171
2026-01-03 01:09:07.02	144.76	35.62	-30.5	-31.7	21.8	0.00e+00	0	57	0	2488270848	32	4146
2026-01-03 01:09:08.03	145.05	35.46	-30.5	-31.7	21.7	0.00e+00	0	57	0	2493513728	32	4152
2026-01-03 01:09:09.04	145.34	35.30	-30.6	-31.8	21.6	0.00e+00	0	57	0	2499805184	32	4213
2026-01-03 01:09:10.05	145.63	35.13	-30.8	-32.0	21.4	0.00e+00	0	57	0	2505048064	32	4294
2026-01-03 01:09:11.06	145.92	34.97	-30.9	-32.1	21.3	0.00e+00	0	57	0	2510290944	32	4358
2026-01-03 01:09:12.07	146.20	34.81	-30.8	-32.0	21.3	0.00e+00	0	57	0	2516582400	32	4338
2026-01-03 01:09:13.08	146.48	34.64	-30.7	-31.9	21.4	0.00e+00	0	57	0	2521825280	32	4266
2026-01-03 01:09:14.09	146.76	34.48	-30.6	-31.8	21.5	0.00e+00	0	57	0	2528116736	32	4228
2026-01-03 01:09:15.10	147.03	34.32	-30.6	-31.8	21.5	0.00e+00	0	57	0	2533359616	32	4218
2026-01-03 01:09:16.11	147.30	34.15	-30.7	-31.8	21.5	0.00e+00	0	57	0	2539651072	32	4240
2026-01-03 01:09:17.12	147.57	33.99	-30.7	-31.9	21.4	0.00e+00	0	57	0	2544893952	32	4274
2026-01-03 01:09:18.13	147.84	33.83	-30.7	-31.9	21.4	0.00e+00	0	57	0	2551185408	32	4279
2026-01-03 01:09:19.15	148.11	33.66	-30.7	-31.9	21.5	0.00e+00	0	57	0	2556428288	32	4257
2026-01-03 01:09:20.16	148.37	33.50	-30.6	-31.8	21.5	0.00e+00	0	57	0	2561671168	32	4223
2026-01-03 01:09:21.17	148.63	33.34	-30.6	-31.7	21.6	0.00e+00	0	57	0	2567962624	32	4192
2026-01-03 01:09:22.18	148.88	33.18	-30.6	-31.8	21.5	0.00e+00	0	57	0	2573205504	32	4213
2026-01-03 01:09:23.19	149.14	33.02	-30.7	-31.9	21.4	0.00e+00	0	57	0	2579496960	32	4253
2026-01-03 01:09:24.20	149.39	32.85	-30.8	-32.0	21.3	0.00e+00	0	57	0	2584739840	32	4326
2026-01-03 01:09:25.21	149.64	32.69	-30.9	-32.1	21.2	0.00e+00	0	57	0	2589982720	32	4375
2026-01-03 01:09:26.22	149.88	32.53	-31.0	-32.2	21.1	0.00e+00	0	57	0	2596274176	32	4419
2026-01-03 01:09:27.23	150.13	32.37	-31.0	-32.2	21.1	0.00e+00	0	57	0	2601517056	32	4428
2026-01-03 01:09:28.24	150.37	32.21	-31.0	-32.2	21.1	0.00e+00	0	57	0	2607808512	32	4437
2026-01-03 01:09:29.25	150.61	32.05	-31.0	-32.2	21.2	0.00e+00	0	57	0	2613051392	32	4427
2026-01-03 01:09:30.26	150.85	31.89	-31.0	-32.2	21.2	0.00e+00	0	57	0	2618294272	32	4411
2026-01-03 01:09:31.27	151.08	31.73	-31.0	-32.1	21.3	0.00e+00	0	57	0	2624585728	32	4387
2026-01-03 01:09:32.28	151.31	31.57	-31.0	-32.2	21.2	0.00e+00	0	57	0	2629828608	32	4399
2026-01-03 01:09:33.29	151.54	31.41	-31.0	-32.2	21.2	0.00e+00	0	57	0	2636120064	32	4419
2026-01-03 01:09:34.30	151.77	31.26	-31.0	-32.3	21.1	0.00e+00	0	57	0	2641362944	32	4443
2026-01-03 01:09:35.31	152.00	31.10	-31.1	-32.3	21.1	0.00e+00	0	57	0	2647654400	32	4464
2026-01-03 01:09:36.32	152.22	30.94	-31.1	-32.3	21.1	0.00e+00	0	57	0	2652897280	32	4461
2026-01-03 01:09:37.33	152.45	30.78	-31.0	-32.2	21.2	0.00e+00	0	57	0	2659188736	32	4419
2026-01-03 01:09:38.34	152.66	30.63	-30.9	-32.1	21.2	0.00e+00	0	57	0	2664431616	32	4391
2026-01-03 01:09:39.35	152.88	30.47	-30.9	-32.1	21.3	0.00e+00	0	57	0	2669674496	32	4347
2026-01-03 01:09:40.36	153.10	30.32	-30.9	-32.0	21.3	0.00e+00	0	57	0	2675965952	32	4336
2026-01-03 01:09:41.37	153.31	30.16	-30.8	-32.0	21.3	0.00e+00	0	57	0	2681208832	32	4321
2026-01-03 01:09:42.38	153.52	30.01	-30.9	-32.0	21.3	0.00e+00	0	57	0	2687500288	32	4335
2026-01-03 01:09:43.39	153.73	29.85	-30.9	-32.1	21.2	0.00e+00	0	57	0	2692743168	32	4357
2026-01-03 01:09:44.40	153.94	29.70	-31.0	-32.2	21.1	0.00e+00	0	57	0	2697986048	32	4414
2026-01-03 01:09:45.40	154.14	29.54	-31.1	-32.3	21.1	0.00e+00	0	57	0	2704277504	32	4455
2026-01-03 01:09:46.41	154.35	29.39	-31.2	-32.4	21.0	0.00e+00	0	57	0	2709520384	32	4508
2026-01-03 01:09:47.42	154.55	29.24	-31.2	-32.5	20.9	0.00e+00	0	57	0	2714763264	33	4295
2026-01-03 01:09:48.43	154.75	29.09	-31.3	-32.5	20.8	0.00e+00	0	57	0	2721054720	33	4324
2026-01-03 01:09:49.44	154.95	28.93	-31.3	-32.5	20.8	0.00e+00	0	57	0	2726297600	33	4321
2026-01-03 01:09:50.45	155.15	28.78	-31.2	-32.4	20.9	0.00e+00	0	57	0	2732589056	33	4283
2026-01-03 01:09:51.47	155.34	28.63	-31.1	-32.3	21.0	0.00e+00	0	57	0	2737831936	33	4236
2026-01-03 01:09:52.48	155.53	28.48	-31.0	-32.2	21.1	0.00e+00	0	57	0	2744123392	33	4168
2026-01-03 01:09:53.49	155.73	28.33	-31.0	-32.1	21.2	0.00e+00	0	57	0	2749366272	33	4138
2026-01-03 01:09:54.50	155.92	28.18	-30.9	-32.1	21.3	0.00e+00	0	57	0	2755657728	33	4109
2026-01-03 01:09:55.51	156.10	28.03	-30.9	-32.0	21.3	0.00e+00	0	57	0	2760900608	33	4090
2026-01-03 01:09:56.52	156.29	27.88	-30.8	-32.0	21.4	0.00e+00	0	57	0	2766143488	33	4068
2026-01-03 01:09:57.53	156.47	27.73	-30.8	-32.0	21.3	0.00e+00	0	57	0	2772434944	33	4070
2026-01-03 01:09:58.54	156.66	27.59	-30.8	-32.0	21.3	0.00e+00	0	57	0	2777677824	33	4082
2026-01-03 01:09:59.55	156.84	27.44	-30.8	-32.0	21.4	0.00e+00	0	57	0	2783969280	33	4068
2026-01-03 01:10:00.56	157.02	27.29	-30.9	-32.1	21.3	0.00e+00	0	57	0	2789212160	33	4099
2026-01-03 01:10:01.57	157.19	27.15	-30.9	-32.1	21.3	0.00e+00	0	57	0	2794455040	33	4115
2026-01-03 01:10:02.58	157.37	27.00	-30.9	-32.1	21.2	0.00e+00	0	57	0	2800746496	33	4133
2026-01-03 01:10:03.59	157.54	26.85	-31.0	-32.2	21.2	0.00e+00	0	57	0	2805989376	33	4159
2026-01-03 01:10:04.60	157.72	26.71	-31.0	-32.2	21.1	0.00e+00	0	57	0	2812280832	33	4179
2026-01-03 01:10:05.61	157.89	26.57	-31.1	-32.3	21.1	0.00e+00	0	57	0	2817523712	33	4212
2026-01-03 01:10:06.62	158.06	26.42	-31.1	-32.3	21.0	0.00e+00	0	57	0	2822766592	33	4242
2026-01-03 01:10:07.63	158.23	26.28	-31.2	-32.4	21.0	0.00e+00	0	57	0	2829058048	33	4271
2026-01-03 01:10:08.63	158.39	26.14	-31.2	-32.5	20.9	0.00e+00	0	57	0	2834300928	33	4295
2026-01-03 01:10:09.65	158.56	25.99	-31.2	-32.5	20.9	0.00e+00	0	57	0	2840592384	33	4294
2026-01-03 01:10:10.66	158.73	25.85	-31.2	-32.4	20.9	0.00e+00	0	57	0	2845835264	33	4291
2026-01-03 01:10:11.67	158.89	25.71	-31.2	-32.4	21.0	0.00e+00	0	57	0	2852126720	33	4276
2026-01-03 01:10:12.68	159.05	25.57	-31.2	-32.4	21.0	0.00e+00	0	57	0	2857369600	33	4253
2026-01-03 01:10:13.69	159.21	25.43	-31.2	-32.4	21.0	0.00e+00	0	57	0	2863661056	33	4255
2026-01-03 01:10:14.70	159.37	25.29	-31.1	-32.3	21.0	9.10e-06	0	57	0	2868903936	33	4237
2026-01-03 01:10:15.71	159.53	25.15	-31.2	-32.4	21.0	0.00e+00	0	57	0	2874146816	33	4251
2026-01-03 01:10:16.72	159.68	25.01	-31.1	-32.3	21.1	0.00e+00	0	57	0	2880438272	33	4225
2026-01-03 01:10:17.73	159.84	24.88	-31.1	-32.3	21.0	0.00e+00	0	57	0	2885681152	33	4224
2026-01-03 01:10:18.74	159.99	24.74	-31.1	-32.3	21.1	0.00e+00	0	57	0	2891972608	33	4220
2026-01-03 01:10:19.75	160.14	24.60	-31.2	-32.3	21.0	0.00e+00	0	57	0	2897215488	33	4242
2026-01-03 01:10:20.76	160.29	24.46	-31.2	-32.4	21.0	0.00e+00	0	57	0	2902458368	33	4263
2026-01-03 01:10:21.77	160.44	24.33	-31.2	-32.4	20.9	0.00e+00	0	57	0	2908749824	33	4281
2026-01-03 01:10:22.78	160.59	24.19	-31.3	-32.5	20.9	0.00e+00	0	57	0	2913992704	33	4305
2026-01-03 01:10:23.79	160.74	24.06	-31.3	-32.5	20.9	0.00e+00	0	57	0	2920284160	33	4322
2026-01-03 01:10:24.80	160.88	23.92	-31.4	-32.6	20.8	0.00e+00	0	57	0	2925527040	33	4356
2026-01-03 01:10:25.81	161.03	23.79	-31.4	-32.7	20.7	0.00e+00	0	57	0	2930769920	33	4393
2026-01-03 01:10:26.82	161.17	23.66	-31.5	-32.7	20.7	0.00e+00	0	57	0	2937061376	33	4415
2026-01-03 01:10:27.83	161.31	23.52	-31.5	-32.7	20.6	0.00e+00	0	57	0	2942304256	33	4438
2026-01-03 01:10:28.84	161.45	23.39	-31.6	-32.8	20.6	0.00e+00	0	57	0	2948595712	33	4463
2026-01-03 01:10:29.85	161.59	23.26	-31.6	-32.8	20.6	0.00e+00	0	57	0	2953838592	33	4485
2026-01-03 01:10:30.86	161.73	23.13	-31.7	-32.9	20.5	0.00e+00	0	57	0	2960130048	33	4511
2026-01-03 01:10:31.87	161.87	23.00	-31.7	-33.0	20.5	0.00e+00	0	57	0	2965372928	34	4307
2026-01-03 01:10:32.88	162.01	22.87	-31.8	-33.0	20.4	0.00e+00	0	57	0	2971664384	34	4340
2026-01-03 01:10:33.89	162.14	22.74	-31.9	-33.1	20.3	0.00e+00	0	57	0	2976907264	34	4372
2026-01-03 01:10:34.90	162.28	22.61	-31.9	-33.2	20.3	0.00e+00	0	57	0	2982150144	34	4411
2026-01-03 01:10:35.91	162.41	22.48	-31.9	-33.2	20.2	0.00e+00	0	57	0	2988441600	34	4421
2026-01-03 01:10:36.92	162.54	22.35	-32.0	-33.2	20.2	0.00e+00	0	57	0	2993684480	34	4440
2026-01-03 01:10:37.93	162.67	22.22	-32.0	-33.3	20.1	0.00e+00	0	57	0	2999975936	34	4458
2026-01-03 01:10:38.94	162.80	22.09	-32.0	-33.3	20.1	0.00e+00	0	57	0	3005218816	34	4478
2026-01-03 01:10:39.95	162.93	21.97	-32.0	-33.3	20.1	0.00e+00	0	57	0	3010461696	34	4480
2026-01-03 01:10:40.96	163.06	21.84	-32.0	-33.3	20.1	0.00e+00	0	57	0	3016753152	34	4470
2026-01-03 01:10:41.97	163.19	21.71	-32.1	-33.3	20.1	0.00e+00	0	57	0	3021996032	34	4490
2026-01-03 01:10:42.98	163.31	21.59	-32.0	-33.3	20.1	0.00e+00	0	57	0	3028287488	34	4481
2026-01-03 01:10:43.99	163.44	21.46	-32.0	-33.3	20.1	0.00e+00	0	57	0	3033530368	34	4469
2026-01-03 01:10:45.00	163.56	21.34	-32.0	-33.3	20.1	0.00e+00	0	57	0	3038773248	34	4447
2026-01-03 01:10:46.01	163.68	21.21	-32.0	-33.3	20.1	0.00e+00	0	57	0	3045064704	34	4444
2026-01-03 01:10:47.02	163.81	21.09	-32.0	-33.2	20.2	0.00e+00	0	57	0	3050307584	34	4437
2026-01-03 01:10:48.03	163.93	20.97	-32.0	-33.3	20.1	0.00e+00	0	57	0	3056599040	34	4449
2026-01-03 01:10:49.04	164.05	20.84	-32.0	-33.3	20.1	0.00e+00	0	57	0	3061841920	34	4442
2026-01-03 01:10:50.05	164.17	20.72	-32.0	-33.3	20.1	0.00e+00	0	57	0	3068133376	34	4454
2026-01-03 01:10:51.06	164.29	20.60	-32.0	-33.3	20.1	0.00e+00	0	57	0	3073376256	34	4479
2026-01-03 01:10:52.07	164.40	20.48	-32.1	-33.3	20.0	0.00e+00	0	57	0	3078619136	34	4485
2026-01-03 01:10:53.08	164.52	20.36	-32.1	-33.4	20.0	0.00e+00	0	57	0	3084910592	34	4525
2026-01-03 01:10:54.09	164.64	20.24	-32.2	-33.5	19.9	0.00e+00	0	57	0	3090153472	34	4560
2026-01-03 01:10:55.10	164.75	20.12	-32.2	-33.5	19.9	0.00e+00	0	57	0	3096444928	35	4335
2026-01-03 01:10:56.11	164.86	20.00	-32.3	-33.6	19.8	0.00e+00	0	57	0	3101687808	35	4344
2026-01-03 01:10:57.12	164.98	19.88	-32.3	-33.6	19.8	0.00e+00	0	57	0	3106930688	35	4373
2026-01-03 01:10:58.13	165.09	19.76	-32.3	-33.7	19.8	0.00e+00	0	57	0	3113222144	35	4396
2026-01-03 01:10:59.14	165.20	19.64	-32.4	-33.7	19.7	0.00e+00	0	57	0	3118465024	35	4408
2026-01-03 01:11:00.15	165.31	19.53	-32.4	-33.7	19.7	0.00e+00	0	57	0	3124756480	35	4413
2026-01-03 01:11:01.14	165.42	19.41	-32.4	-33.7	19.7	0.00e+00	0	57	0	3129999360	35	4427
2026-01-03 01:11:02.16	165.53	19.29	-32.4	-33.7	19.7	0.00e+00	0	57	0	3135242240	35	4433
2026-01-03 01:11:03.17	165.64	19.18	-32.4	-33.7	19.7	0.00e+00	0	57	0	3141533696	35	4433
2026-01-03 01:11:04.18	165.75	19.06	-32.5	-33.8	19.7	0.00e+00	0	57	0	3146776576	35	4444
2026-01-03 01:11:05.19	165.85	18.95	-32.5	-33.8	19.7	0.00e+00	0	57	0	3153068032	35	4462
2026-01-03 01:11:06.19	165.96	18.83	-32.5	-33.8	19.6	0.00e+00	0	57	0	3158310912	35	4472
2026-01-03 01:11:07.20	166.06	18.72	-32.6	-33.9	19.6	0.00e+00	0	57	0	3164602368	35	4501
2026-01-03 01:11:08.21	166.17	18.60	-32.6	-33.9	19.6	0.00e+00	0	57	0	3169845248	35	4497
2026-01-03 01:11:09.22	166.27	18.49	-32.6	-33.9	19.6	0.00e+00	0	57	0	3175088128	35	4513
2026-01-03 01:11:10.23	166.37	18.38	-32.6	-33.9	19.6	0.00e+00	0	57	0	3181379584	35	4539
2026-01-03 01:11:11.24	166.47	18.26	-32.7	-34.0	19.5	0.00e+00	0	57	0	3186622464	35	4553
2026-01-03 01:11:12.25	166.58	18.15	-32.7	-34.0	19.5	0.00e+00	0	57	0	3192913920	35	4583
2026-01-03 01:11:13.26	166.68	18.04	-33.4	-34.7	19.6	0.00e+00	0	57	0	3198156800	37	4395
2026-01-03 01:11:14.27	166.78	17.93	-33.4	-34.7	19.6	0.00e+00	0	57	0	3203399680	37	4424
2026-01-03 01:11:15.28	166.88	17.82	-33.5	-34.8	19.5	0.00e+00	0	57	0	3209691136	37	4449
2026-01-03 01:11:16.29	166.97	17.71	-33.5	-34.8	19.5	0.00e+00	0	57	0	3214934016	37	4459
2026-01-03 01:11:17.30	167.07	17.60	-33.5	-34.8	19.5	0.00e+00	0	57	0	3221225472	37	4485
2026-01-03 01:11:18.31	167.17	17.49	-33.5	-34.8	19.5	0.00e+00	0	57	0	3226468352	37	4488
2026-01-03 01:11:19.32	167.27	17.38	-33.6	-34.9	19.4	0.00e+00	0	57	0	3231711232	37	4506
2026-01-03 01:11:20.33	167.36	17.27	-33.6	-34.9	19.4	0.00e+00	0	57	0	3238002688	37	4516
2026-01-03 01:11:21.34	167.46	17.16	-33.6	-34.9	19.4	0.00e+00	0	57	0	3243245568	37	4530
2026-01-03 01:11:22.35	167.55	17.05	-33.6	-34.9	19.4	0.00e+00	0	57	0	3249537024	37	4517
2026-01-03 01:11:23.35	167.65	16.95	-33.6	-35.0	19.3	0.00e+00	0	57	0	3254779904	37	4550
2026-01-03 01:11:24.36	167.74	16.84	-33.7	-35.0	19.3	0.00e+00	0	57	0	3261071360	37	4559
2026-01-03 01:11:25.37	167.83	16.73	-33.7	-35.0	19.3	0.00e+00	0	57	0	3266314240	37	4576
2026-01-03 01:11:26.38	167.92	16.63	-33.8	-35.1	19.2	0.00e+00	0	57	0	3271557120	38	4358
2026-01-03 01:11:27.39	168.01	16.52	-33.8	-35.1	19.2	0.00e+00	0	57	0	3277848576	38	4379
2026-01-03 01:11:28.40	168.11	16.41	-33.8	-35.2	19.1	0.00e+00	0	57	0	3283091456	38	4401
2026-01-03 01:11:29.41	168.20	16.31	-33.9	-35.2	19.1	0.00e+00	0	57	0	3289382912	38	4431
2026-01-03 01:11:30.42	168.29	16.20	-33.9	-35.3	19.0	0.00e+00	0	57	0	3294625792	38	4456
2026-01-03 01:11:31.43	168.37	16.10	-34.0	-35.4	19.0	0.00e+00	0	57	0	3300917248	38	4494
2026-01-03 01:11:32.44	168.46	16.00	-34.1	-35.4	18.9	0.00e+00	0	57	0	3306160128	38	4534
2026-01-03 01:11:33.45	168.55	15.89	-34.1	-35.5	18.8	0.00e+00	0	57	0	3311403008	38	4550
2026-01-03 01:11:34.46	168.64	15.79	-34.1	-35.5	18.8	0.00e+00	0	57	0	3317694464	38	4564
2026-01-03 01:11:35.47	168.72	15.69	-34.2	-35.5	18.7	0.00e+00	0	57	0	3322937344	38	4596
2026-01-03 01:11:36.48	168.81	15.58	-34.2	-35.6	18.7	0.00e+00	0	57	0	3329228800	38	4628
2026-01-03 01:11:37.49	168.90	15.48	-34.2	-35.6	18.7	0.00e+00	0	57	0	3334471680	39	4376
2026-01-03 01:11:38.50	168.98	15.38	-34.3	-35.7	18.6	0.00e+00	0	57	0	3339714560	39	4402
2026-01-03 01:11:39.51	169.06	15.28	-34.3	-35.7	18.5	0.00e+00	0	57	0	3346006016	39	4425
2026-01-03 01:11:40.52	169.15	15.18	-34.3	-35.7	18.5	0.00e+00	0	57	0	3351248896	39	4438
2026-01-03 01:11:41.53	169.23	15.08	-34.3	-35.8	18.5	0.00e+00	0	57	0	3357540352	39	4448
2026-01-03 01:11:42.54	169.31	14.98	-34.4	-35.8	18.5	0.00e+00	0	57	0	3362783232	39	4457
2026-01-03 01:11:43.55	169.40	14.87	-34.3	-35.7	18.5	0.00e+00	0	57	0	3368026112	39	4435
2026-01-03 01:11:44.56	169.48	14.78	-34.4	-35.8	18.4	0.00e+00	0	57	0	3374317568	39	4472
2026-01-03 01:11:45.57	169.56	14.68	-34.4	-35.8	18.4	0.00e+00	0	57	0	3379560448	39	4482
2026-01-03 01:11:46.58	169.64	14.58	-34.4	-35.8	18.4	0.00e+00	0	57	0	3385851904	39	4489
2026-01-03 01:11:47.59	169.72	14.48	-34.4	-35.9	18.4	0.00e+00	0	57	0	3391094784	39	4499
2026-01-03 01:11:48.60	169.80	14.38	-34.4	-35.9	18.4	0.00e+00	0	57	0	3397386240	39	4502
2026-01-03 01:11:49.61	169.88	14.28	-34.5	-35.9	18.3	0.00e+00	0	57	0	3402629120	39	4525
2026-01-03 01:11:50.62	169.96	14.18	-34.5	-35.9	18.3	0.00e+00	0	57	0	3407872000	39	4528
2026-01-03 01:11:51.63	170.04	14.09	-34.5	-36.0	18.3	2.74e-05	0	57	0	3414163456	39	4553
2026-01-03 01:11:52.64	170.11	13.99	-34.5	-36.0	18.3	0.00e+00	0	57	0	3419406336	39	4553
2026-01-03 01:11:53.65	170.19	13.89	-34.6	-36.0	18.3	0.00e+00	0	57	0	3425697792	39	4574
2026-01-03 01:11:54.66	170.27	13.80	-34.6	-36.0	18.2	0.00e+00	0	57	0	3430940672	39	4584
2026-01-03 01:11:55.67	170.34	13.70	-34.6	-36.0	18.2	0.00e+00	0	57	0	3436183552	39	4577
2026-01-03 01:11:56.68	170.42	13.61	-34.6	-36.1	18.2	0.00e+00	0	57	0	3442475008	39	4612
2026-01-03 01:11:57.69	170.49	13.51	-34.7	-36.1	18.1	0.00e+00	0	57	0	3447717888	39	4635
2026-01-03 01:11:58.70	170.57	13.42	-34.7	-36.2	18.1	0.00e+00	0	57	0	3454009344	39	4655
