passes_logs/2026/01/03/R2.0S_Moscow/R2.0S_Moscow__20260103_011620_AQUA_rec.log

#Pass ID: 20260103_011620_AQUA
#Satellite: AQUA
#Configuration: AQUA
#almurnet v.1.7.20251203
#Start time: 2026-01-03 01:23:12

#Version: 2.2.20231116
#Station: R2.0S_Moscow
#Location: 37.707566 lon 55.798166 lat
#TLE: 1 27424U 02022A   25365.92641127  .00002078  00000+0  42628-3 0  9999
#TLE: 2 27424  98.4058 327.1196 0001962  94.7781 340.6230 14.61783896258835

#Time	Az	El	Level	Level2	SNR	BER	BlckErr	Temp	State	Recorded	gain1	gain2
2026-01-03 01:23:12.23	182.87	74.52	-45.0	-57.3	3.8	1.49e+00	0	57	0	0	60	15776
2026-01-03 01:23:13.23	183.40	73.95	-46.1	-64.7	3.8	7.47e-01	0	57	104	0	62	33156
2026-01-03 01:23:14.25	183.89	73.37	-46.1	-64.8	3.8	7.41e-01	0	57	104	0	62	33326
2026-01-03 01:23:15.26	184.35	72.79	-46.1	-64.7	3.8	7.46e-01	0	57	104	0	62	33266
2026-01-03 01:23:16.27	184.78	72.22	-46.1	-64.7	3.8	7.43e-01	0	57	104	0	62	33161
2026-01-03 01:23:17.28	185.18	71.66	-46.1	-64.7	3.8	7.50e-01	0	57	104	0	62	33043
2026-01-03 01:23:18.29	185.55	71.09	-46.1	-64.7	3.8	7.48e-01	0	57	104	0	62	32986
2026-01-03 01:23:19.30	185.90	70.53	-46.1	-64.7	3.8	7.44e-01	0	57	104	0	62	32977
2026-01-03 01:23:20.31	186.23	69.97	-46.1	-64.7	3.8	7.43e-01	0	57	104	0	62	32955
2026-01-03 01:23:21.33	186.54	69.40	-46.1	-64.7	3.8	7.46e-01	0	57	104	0	62	32967
2026-01-03 01:23:22.34	186.84	68.85	-46.1	-64.7	3.8	7.45e-01	0	57	104	0	62	32967
2026-01-03 01:23:23.35	187.12	68.30	-46.1	-64.7	3.8	7.47e-01	0	57	104	0	62	32935
2026-01-03 01:23:24.36	187.38	67.75	-46.1	-64.7	3.8	7.48e-01	0	57	104	0	62	33004
2026-01-03 01:23:25.37	187.63	67.20	-46.1	-64.7	3.8	7.46e-01	0	57	104	0	62	32942
2026-01-03 01:23:26.38	187.87	66.66	-46.0	-64.7	3.8	7.47e-01	0	57	104	0	62	33013
2026-01-03 01:23:27.39	188.09	66.12	-46.0	-64.7	3.8	7.47e-01	0	57	104	0	62	32934
2026-01-03 01:23:28.40	188.30	65.58	-46.0	-64.7	3.8	7.45e-01	0	57	104	0	62	32976
2026-01-03 01:23:29.41	188.51	65.05	-46.1	-64.6	3.8	7.43e-01	0	57	104	0	62	32896
2026-01-03 01:23:30.42	188.70	64.52	-46.0	-64.6	3.8	7.44e-01	0	57	104	0	62	32920
2026-01-03 01:23:31.44	188.89	63.99	-46.1	-64.7	3.8	7.45e-01	0	57	104	0	62	32955
2026-01-03 01:23:32.45	189.07	63.47	-46.1	-64.6	3.8	7.49e-01	0	57	104	0	62	32861
2026-01-03 01:23:33.46	189.24	62.95	-46.0	-64.6	3.8	7.46e-01	0	57	104	0	62	32844
2026-01-03 01:23:34.47	189.41	62.44	-46.0	-64.6	3.8	7.49e-01	0	57	104	0	62	32857
2026-01-03 01:23:35.48	189.56	61.93	-46.0	-64.6	3.8	7.45e-01	0	57	104	0	62	32904
2026-01-03 01:23:36.49	189.71	61.42	-46.0	-64.6	3.8	7.45e-01	0	57	104	0	62	32729
2026-01-03 01:23:37.50	189.86	60.92	-46.0	-64.7	3.8	7.42e-01	0	57	104	0	62	32964
2026-01-03 01:23:38.51	190.00	60.42	-46.0	-64.6	3.8	7.45e-01	0	57	104	0	62	32815
2026-01-03 01:23:39.52	190.13	59.92	-46.0	-64.6	3.8	7.48e-01	0	57	104	0	62	32845
2026-01-03 01:23:40.53	190.26	59.43	-46.0	-64.6	3.8	7.44e-01	0	57	104	0	62	32904
2026-01-03 01:23:41.55	190.39	58.94	-46.0	-64.6	3.8	7.46e-01	0	57	104	0	62	32869
2026-01-03 01:23:42.56	190.51	58.46	-46.0	-64.6	3.8	7.44e-01	0	57	104	0	62	32692
2026-01-03 01:23:43.57	190.62	57.98	-46.0	-64.6	3.8	7.45e-01	0	57	104	0	62	32672
2026-01-03 01:23:44.58	190.73	57.50	-46.0	-64.6	3.8	7.44e-01	0	57	104	0	62	32644
2026-01-03 01:23:45.59	190.84	57.03	-46.0	-64.6	3.8	7.45e-01	0	57	104	0	62	32884
2026-01-03 01:23:46.60	190.95	56.56	-46.0	-64.5	3.8	7.43e-01	0	57	104	0	62	32522
2026-01-03 01:23:47.61	191.05	56.10	-46.0	-64.3	3.8	7.42e-01	0	57	104	0	62	31712
2026-01-03 01:23:48.62	191.15	55.64	-46.0	-64.6	3.8	7.46e-01	0	57	104	0	62	32564
2026-01-03 01:23:49.63	191.24	55.18	-46.0	-64.6	3.8	7.45e-01	0	57	104	0	62	32780
2026-01-03 01:23:50.64	191.33	54.73	-46.0	-64.4	3.8	7.48e-01	0	57	104	0	62	31900
2026-01-03 01:23:51.66	191.42	54.28	-46.0	-63.9	3.8	7.46e-01	0	57	104	0	62	30207
2026-01-03 01:23:52.67	191.51	53.84	-46.0	-64.2	3.8	7.43e-01	0	57	104	0	62	31152
2026-01-03 01:23:53.68	191.59	53.40	-46.0	-64.3	3.8	7.45e-01	0	57	104	0	62	31772
2026-01-03 01:23:54.69	191.68	52.96	-46.0	-63.0	3.8	7.41e-01	0	57	104	0	62	27151
2026-01-03 01:23:55.70	191.75	52.53	-46.0	-62.6	3.8	7.43e-01	0	57	104	0	62	26081
2026-01-03 01:23:56.71	191.83	52.10	-46.0	-62.4	3.8	7.43e-01	0	57	104	0	62	25547
2026-01-03 01:23:57.72	191.91	51.67	-46.0	-63.5	3.8	7.43e-01	0	57	104	0	62	28891
2026-01-03 01:23:58.73	191.98	51.25	-46.0	-64.4	3.8	7.44e-01	0	57	104	0	62	32065
2026-01-03 01:23:59.74	192.05	50.84	-46.0	-62.5	3.9	7.44e-01	0	57	104	0	62	25757
2026-01-03 01:24:00.75	192.12	50.42	-45.9	-61.1	4.2	7.30e-01	0	57	104	0	62	21800
2026-01-03 01:24:01.76	192.19	50.01	-45.9	-61.7	4.1	7.44e-01	0	57	104	0	62	23334
2026-01-03 01:24:02.78	192.25	49.61	-45.9	-61.3	4.0	7.41e-01	0	57	104	0	62	22280
2026-01-03 01:24:03.79	192.32	49.20	-44.1	-49.5	13.7	6.05e-01	0	57	0	1048576	60	6466
2026-01-03 01:24:04.80	192.38	48.81	-41.2	-43.8	19.9	6.02e-01	0	57	0	3145728	54	4745
2026-01-03 01:24:05.81	192.44	48.41	-39.2	-41.1	22.3	6.03e-01	0	57	0	5242880	50	4371
2026-01-03 01:24:06.82	192.50	48.02	-40.0	-42.1	21.9	6.03e-01	0	57	0	6815744	50	4917
2026-01-03 01:24:07.83	192.56	47.63	-41.0	-43.6	20.5	6.04e-01	0	57	0	8912896	52	5180
2026-01-03 01:24:08.84	192.62	47.25	-43.5	-47.7	16.9	6.03e-01	0	57	0	10485760	57	6245
2026-01-03 01:24:09.85	192.67	46.87	-44.8	-51.5	12.5	6.08e-01	0	57	0	12582912	60	8163
2026-01-03 01:24:10.86	192.73	46.49	-40.4	-42.7	21.7	6.03e-01	0	57	0	14680064	51	4937
2026-01-03 01:24:11.87	192.78	46.12	-41.2	-43.9	19.9	6.05e-01	0	57	0	16252928	54	4791
2026-01-03 01:24:12.88	192.83	45.75	-39.2	-41.2	22.6	6.04e-01	0	57	0	18350080	50	4410
2026-01-03 01:24:13.89	192.88	45.39	-38.6	-40.5	23.3	6.06e-01	0	57	0	19922944	49	4308
2026-01-03 01:24:14.90	192.93	45.02	-38.3	-40.1	23.7	6.02e-01	0	57	0	22020096	48	4362
2026-01-03 01:24:15.91	192.98	44.66	-38.4	-40.2	23.6	6.02e-01	0	57	0	24117248	48	4422
2026-01-03 01:24:16.92	193.03	44.31	-38.5	-40.3	23.5	6.02e-01	0	57	0	25690112	48	4479
2026-01-03 01:24:17.93	193.07	43.96	-38.5	-40.2	23.6	6.05e-01	0	57	0	27787264	48	4438
2026-01-03 01:24:18.94	193.12	43.61	-38.5	-40.4	23.4	6.03e-01	0	57	0	29884416	48	4503
2026-01-03 01:24:19.95	193.16	43.26	-38.7	-40.5	23.3	6.03e-01	0	57	0	31457280	48	4591
2026-01-03 01:24:20.96	193.21	42.92	-38.7	-40.6	23.2	6.02e-01	0	57	0	33554432	48	4607
2026-01-03 01:24:21.97	193.25	42.58	-38.8	-40.7	22.7	6.03e-01	0	57	0	35127296	48	4662
2026-01-03 01:24:22.97	193.29	42.25	-38.9	-40.7	23.1	6.02e-01	0	57	0	37224448	48	4703
2026-01-03 01:24:23.99	193.33	41.91	-39.1	-41.0	22.8	6.04e-01	0	57	0	39321600	48	4836
2026-01-03 01:24:25.00	193.37	41.58	-39.3	-41.2	22.5	6.04e-01	0	57	0	40894464	49	4690
2026-01-03 01:24:26.01	193.41	41.25	-39.5	-41.6	22.3	6.04e-01	0	57	0	42991616	49	4885
2026-01-03 01:24:27.01	193.45	40.93	-39.7	-41.9	22.0	6.02e-01	0	57	0	44564480	49	5044
2026-01-03 01:24:28.02	193.49	40.61	-39.8	-42.0	21.9	6.03e-01	0	57	0	46661632	50	4828
2026-01-03 01:24:29.03	193.53	40.29	-39.8	-42.0	21.8	6.05e-01	0	57	0	48234496	50	4815
2026-01-03 01:24:30.04	193.57	39.98	-39.8	-41.9	21.8	6.02e-01	0	57	0	50331648	50	4805
2026-01-03 01:24:31.05	193.60	39.67	-39.6	-41.6	22.1	6.02e-01	0	57	0	52428800	50	4647
2026-01-03 01:24:32.06	193.64	39.36	-39.8	-41.9	21.9	6.02e-01	0	57	0	54001664	50	4781
2026-01-03 01:24:33.07	193.67	39.05	-39.9	-42.1	21.7	6.02e-01	0	57	0	56098816	50	4881
2026-01-03 01:24:34.08	193.71	38.75	-40.1	-42.3	21.6	6.02e-01	0	57	0	58195968	50	5005
2026-01-03 01:24:35.09	193.74	38.45	-40.1	-42.3	21.5	6.05e-01	0	57	0	59768832	50	5025
2026-01-03 01:24:36.10	193.77	38.15	-40.1	-42.3	21.5	6.04e-01	0	57	0	61865984	50	5021
2026-01-03 01:24:37.11	193.81	37.86	-39.8	-42.0	21.8	6.03e-01	0	57	0	63438848	50	4830
2026-01-03 01:24:38.12	193.84	37.56	-39.7	-41.8	22.0	6.02e-01	0	57	0	65536000	50	4740
2026-01-03 01:24:39.12	193.87	37.28	-39.6	-41.7	22.1	6.05e-01	0	57	0	67633152	50	4661
2026-01-03 01:24:40.14	193.90	36.99	-39.6	-41.7	22.1	6.04e-01	0	57	0	69206016	50	4655
2026-01-03 01:24:41.15	193.93	36.70	-39.6	-41.6	22.1	6.02e-01	0	57	0	71303168	50	4643
2026-01-03 01:24:42.16	193.96	36.42	-39.4	-41.4	22.3	6.04e-01	0	57	0	73400320	50	4512
2026-01-03 01:24:43.17	193.99	36.14	-39.2	-41.1	22.6	6.03e-01	0	57	0	74973184	50	4391
2026-01-03 01:24:44.18	194.02	35.87	-39.1	-41.0	22.7	6.04e-01	0	57	0	77070336	50	4327
2026-01-03 01:24:45.19	194.05	35.59	-39.1	-41.0	22.7	6.04e-01	0	57	0	78643200	50	4334
2026-01-03 01:24:46.20	194.08	35.32	-39.1	-41.0	22.8	6.03e-01	0	57	0	80740352	50	4313
2026-01-03 01:24:47.20	194.11	35.05	-39.0	-40.9	22.8	6.03e-01	0	57	0	82837504	50	4278
2026-01-03 01:24:48.21	194.13	34.79	-38.8	-40.7	23.0	6.06e-01	0	57	0	84410368	49	4439
2026-01-03 01:24:49.22	194.16	34.52	-38.7	-40.6	23.1	6.04e-01	0	57	0	86507520	49	4358
2026-01-03 01:24:50.23	194.19	34.26	-38.6	-40.5	23.2	6.04e-01	0	57	0	88080384	49	4299
2026-01-03 01:24:51.24	194.21	34.00	-38.5	-40.4	23.3	6.03e-01	0	57	0	90177536	49	4252
2026-01-03 01:24:52.25	194.24	33.74	-38.6	-40.4	23.3	6.03e-01	0	57	0	92274688	49	4257
2026-01-03 01:24:53.26	194.27	33.49	-38.4	-40.1	23.5	6.03e-01	0	57	0	93847552	48	4386
2026-01-03 01:24:54.27	194.29	33.24	-37.5	-39.2	24.1	6.02e-01	0	57	0	95944704	47	4154
2026-01-03 01:24:55.28	194.32	32.99	-37.2	-38.8	24.4	6.03e-01	0	57	0	97517568	46	4234
2026-01-03 01:24:56.29	194.34	32.74	-37.2	-38.9	24.4	6.03e-01	0	57	0	99614720	46	4246
2026-01-03 01:24:57.30	194.37	32.49	-37.2	-38.9	24.3	6.03e-01	0	57	0	101711872	46	4245
2026-01-03 01:24:58.31	194.39	32.25	-37.2	-38.8	24.4	6.04e-01	0	57	0	103284736	46	4239
2026-01-03 01:24:59.32	194.41	32.00	-37.2	-38.8	24.3	6.04e-01	0	57	0	105381888	46	4238
2026-01-03 01:25:00.33	194.44	31.76	-37.4	-39.1	24.2	6.04e-01	0	57	0	106954752	46	4343
2026-01-03 01:25:01.34	194.46	31.53	-37.4	-39.2	24.1	6.04e-01	0	57	0	109051904	46	4402
2026-01-03 01:25:02.35	194.48	31.29	-37.4	-39.2	24.1	6.03e-01	0	57	0	111149056	46	4400
2026-01-03 01:25:03.36	194.50	31.06	-37.4	-39.1	24.2	6.03e-01	0	57	0	112721920	46	4366
2026-01-03 01:25:04.37	194.53	30.83	-37.4	-39.1	24.2	6.02e-01	0	57	0	114819072	46	4368
2026-01-03 01:25:05.38	194.55	30.60	-37.4	-39.1	24.1	6.04e-01	0	57	0	116391936	46	4390
2026-01-03 01:25:06.38	194.57	30.37	-37.3	-38.9	24.2	6.04e-01	0	57	0	118489088	46	4290
2026-01-03 01:25:07.40	194.59	30.14	-37.2	-38.8	24.4	6.04e-01	0	57	0	120586240	46	4231
2026-01-03 01:25:08.41	194.61	29.92	-37.2	-38.8	24.3	6.03e-01	0	57	0	122159104	46	4231
2026-01-03 01:25:09.42	194.63	29.69	-37.3	-39.0	24.3	6.04e-01	0	57	0	124256256	46	4299
2026-01-03 01:25:10.43	194.65	29.47	-37.4	-39.1	24.1	6.02e-01	0	57	0	126353408	46	4344
2026-01-03 01:25:11.44	194.67	29.26	-37.5	-39.2	24.0	6.02e-01	0	57	0	127926272	46	4413
2026-01-03 01:25:12.45	194.69	29.04	-37.4	-39.1	24.1	6.02e-01	0	57	0	130023424	46	4379
2026-01-03 01:25:13.46	194.71	28.82	-37.5	-39.2	24.0	6.05e-01	0	57	0	131596288	46	4403
2026-01-03 01:25:14.47	194.73	28.61	-37.2	-38.9	24.2	6.03e-01	0	57	0	133693440	46	4266
2026-01-03 01:25:15.48	194.75	28.40	-37.1	-38.8	24.4	6.03e-01	0	57	0	135790592	46	4219
2026-01-03 01:25:16.49	194.77	28.19	-37.2	-38.9	24.3	6.01e-01	0	57	0	137363456	46	4243
2026-01-03 01:25:17.50	194.79	27.98	-37.1	-38.7	24.4	6.03e-01	0	57	0	139460608	46	4192
2026-01-03 01:25:18.50	194.81	27.78	-37.1	-38.8	24.4	6.06e-01	0	57	0	141033472	46	4214
2026-01-03 01:25:19.51	194.83	27.57	-37.1	-38.8	24.4	6.02e-01	0	57	0	143130624	46	4217
2026-01-03 01:25:20.53	194.85	27.37	-37.2	-38.9	24.3	6.05e-01	0	57	0	145227776	46	4273
2026-01-03 01:25:21.54	194.87	27.16	-37.4	-39.1	24.1	6.05e-01	0	57	0	146800640	46	4348
2026-01-03 01:25:22.55	194.88	26.96	-37.5	-39.2	24.0	6.03e-01	0	57	0	148897792	46	4407
2026-01-03 01:25:23.56	194.90	26.77	-37.6	-39.4	23.9	6.05e-01	0	57	0	150994944	46	4494
2026-01-03 01:25:24.57	194.92	26.57	-37.7	-39.5	23.8	6.01e-01	0	57	0	152567808	46	4546
2026-01-03 01:25:25.58	194.94	26.37	-37.8	-39.6	23.7	6.03e-01	0	57	0	154664960	46	4618
2026-01-03 01:25:26.59	194.95	26.18	-37.8	-39.6	23.6	6.04e-01	0	57	0	156237824	46	4630
2026-01-03 01:25:27.60	194.97	25.99	-37.8	-39.6	23.6	6.05e-01	0	57	0	158334976	46	4641
2026-01-03 01:25:28.61	194.99	25.80	-37.8	-39.6	23.6	6.01e-01	0	57	0	160432128	46	4619
2026-01-03 01:25:29.62	195.00	25.61	-37.9	-39.7	23.6	6.02e-01	0	57	0	162004992	46	4666
2026-01-03 01:25:30.63	195.02	25.42	-37.9	-39.7	23.5	6.02e-01	0	57	0	164102144	46	4703
2026-01-03 01:25:31.64	195.04	25.23	-38.0	-39.8	23.4	6.05e-01	0	57	0	166199296	46	4742
2026-01-03 01:25:32.65	195.05	25.05	-38.1	-40.0	23.3	6.02e-01	0	57	0	167772160	46	4819
2026-01-03 01:25:33.65	195.07	24.87	-38.1	-40.0	23.2	6.04e-01	0	57	0	169869312	46	4838
2026-01-03 01:25:34.66	195.09	24.68	-38.2	-40.1	23.1	6.05e-01	0	57	0	171442176	46	4883
2026-01-03 01:25:35.67	195.10	24.50	-38.2	-40.1	23.1	6.03e-01	0	57	0	173539328	47	4648
2026-01-03 01:25:36.69	195.12	24.32	-38.3	-40.2	23.0	6.05e-01	0	57	0	175636480	47	4676
2026-01-03 01:25:37.70	195.13	24.14	-38.3	-40.2	23.0	6.03e-01	0	57	0	177209344	47	4692
2026-01-03 01:25:38.70	195.15	23.97	-38.3	-40.2	23.0	6.04e-01	0	57	0	179306496	47	4667
2026-01-03 01:25:39.72	195.16	23.79	-38.3	-40.2	23.0	6.04e-01	0	57	0	180879360	47	4678
2026-01-03 01:25:40.73	195.18	23.62	-38.3	-40.2	23.0	6.04e-01	0	57	0	182976512	47	4678
2026-01-03 01:25:41.74	195.19	23.44	-38.2	-40.1	23.0	6.03e-01	0	57	0	185073664	47	4632
2026-01-03 01:25:42.75	195.21	23.27	-38.3	-40.1	23.0	6.05e-01	0	57	0	186646528	47	4651
2026-01-03 01:25:43.76	195.22	23.10	-38.2	-40.1	23.0	6.02e-01	0	57	0	188743680	47	4643
2026-01-03 01:25:44.77	195.24	22.93	-38.2	-40.1	23.0	6.04e-01	0	57	0	190316544	47	4631
2026-01-03 01:25:45.78	195.25	22.76	-38.2	-40.1	23.0	6.04e-01	0	57	0	192413696	47	4645
2026-01-03 01:25:46.79	195.27	22.59	-38.2	-40.1	23.0	6.02e-01	0	57	0	194510848	47	4624
2026-01-03 01:25:47.80	195.28	22.43	-38.3	-40.1	23.0	6.04e-01	0	57	0	196083712	47	4640
2026-01-03 01:25:48.81	195.29	22.26	-38.2	-40.0	23.1	6.01e-01	0	57	0	198180864	47	4595
2026-01-03 01:25:49.82	195.31	22.10	-38.2	-40.0	23.1	6.05e-01	0	57	0	199753728	47	4581
2026-01-03 01:25:50.83	195.32	21.94	-38.1	-40.0	23.1	6.03e-01	0	57	0	201850880	47	4577
2026-01-03 01:25:51.84	195.33	21.78	-38.1	-40.0	23.2	6.05e-01	0	57	0	203948032	47	4557
2026-01-03 01:25:52.84	195.35	21.62	-38.1	-39.9	23.2	6.02e-01	0	57	0	205520896	47	4544
2026-01-03 01:25:53.85	195.36	21.46	-38.0	-39.9	23.2	6.04e-01	0	57	0	207618048	47	4509
2026-01-03 01:25:54.86	195.37	21.30	-38.0	-39.9	23.3	6.05e-01	0	57	0	209190912	47	4500
2026-01-03 01:25:55.87	195.39	21.14	-38.1	-39.9	23.2	6.03e-01	0	57	0	211288064	47	4527
2026-01-03 01:25:56.88	195.40	20.99	-38.1	-39.9	23.2	6.03e-01	0	57	0	213385216	47	4540
2026-01-03 01:25:57.89	195.41	20.83	-38.1	-40.0	23.0	6.03e-01	0	57	0	214958080	47	4555
2026-01-03 01:25:58.90	195.43	20.68	-38.2	-40.0	23.1	6.04e-01	0	57	0	217055232	47	4593
2026-01-03 01:25:59.91	195.44	20.53	-38.1	-40.0	23.1	6.03e-01	0	57	0	219152384	47	4579
2026-01-03 01:26:00.92	195.45	20.37	-38.2	-40.1	23.0	6.02e-01	0	57	0	220725248	47	4611
2026-01-03 01:26:01.93	195.46	20.22	-38.2	-40.1	23.1	6.03e-01	0	57	0	222822400	47	4602
2026-01-03 01:26:02.94	195.48	20.07	-38.2	-40.1	23.0	6.04e-01	0	57	0	224395264	47	4624
2026-01-03 01:26:03.95	195.49	19.93	-38.2	-40.1	23.0	6.01e-01	0	57	0	226492416	47	4631
2026-01-03 01:26:04.96	195.50	19.78	-38.2	-40.1	23.0	6.03e-01	0	57	0	228589568	47	4627
2026-01-03 01:26:05.97	195.51	19.63	-38.2	-40.1	23.1	6.05e-01	0	57	0	230162432	47	4599
2026-01-03 01:26:06.98	195.53	19.48	-38.1	-40.0	23.1	6.05e-01	0	57	0	232259584	47	4573
2026-01-03 01:26:07.99	195.54	19.34	-38.1	-40.0	23.1	6.03e-01	0	57	0	234356736	47	4583
2026-01-03 01:26:09.00	195.55	19.20	-38.1	-40.0	23.1	6.02e-01	0	57	0	235929600	47	4573
2026-01-03 01:26:10.01	195.56	19.05	-38.1	-40.0	23.1	6.04e-01	0	57	0	238026752	47	4566
2026-01-03 01:26:11.01	195.57	18.91	-38.1	-40.0	23.1	6.04e-01	0	57	0	239599616	47	4592
2026-01-03 01:26:12.02	195.59	18.77	-38.2	-40.2	23.0	6.03e-01	0	57	0	241696768	47	4653
2026-01-03 01:26:13.03	195.60	18.63	-38.1	-40.0	23.1	6.05e-01	0	57	0	243269632	47	4584
2026-01-03 01:26:14.04	195.61	18.49	-38.1	-40.0	23.1	6.03e-01	0	57	0	245366784	47	4560
2026-01-03 01:26:15.05	195.62	18.35	-38.1	-40.0	23.1	6.05e-01	0	57	0	247463936	47	4567
2026-01-03 01:26:16.06	195.63	18.21	-38.2	-40.1	23.0	6.04e-01	0	57	0	249036800	47	4615
2026-01-03 01:26:17.07	195.64	18.08	-38.2	-40.1	23.0	6.03e-01	0	57	0	251133952	47	4631
2026-01-03 01:26:18.08	195.65	17.94	-38.1	-40.0	23.1	6.02e-01	0	57	0	252706816	47	4575
2026-01-03 01:26:19.09	195.66	17.80	-38.1	-40.0	23.1	6.05e-01	0	57	0	254803968	47	4563
2026-01-03 01:26:20.10	195.68	17.67	-38.2	-40.1	23.0	6.01e-01	0	57	0	256901120	47	4600
2026-01-03 01:26:21.11	195.69	17.54	-38.1	-40.0	23.1	6.05e-01	0	57	0	258473984	47	4560
2026-01-03 01:26:22.12	195.70	17.40	-38.1	-40.0	23.1	6.02e-01	0	57	0	260571136	47	4566
2026-01-03 01:26:23.13	195.71	17.27	-38.2	-40.1	23.0	6.03e-01	0	57	0	262668288	47	4603
2026-01-03 01:26:24.14	195.72	17.14	-38.2	-40.1	23.0	6.06e-01	0	57	0	264241152	47	4615
2026-01-03 01:26:25.15	195.73	17.01	-38.1	-40.0	23.0	6.02e-01	0	57	0	266338304	47	4576
2026-01-03 01:26:26.16	195.74	16.88	-38.1	-40.0	23.0	6.04e-01	0	57	0	267911168	47	4579
2026-01-03 01:26:27.17	195.75	16.75	-38.2	-40.0	23.0	6.05e-01	0	57	0	270008320	47	4594
2026-01-03 01:26:28.17	195.76	16.62	-38.2	-40.1	23.0	6.05e-01	0	57	0	272105472	47	4608
2026-01-03 01:26:29.18	195.77	16.49	-38.2	-40.1	22.9	6.03e-01	0	57	0	273678336	47	4640
2026-01-03 01:26:30.19	195.78	16.37	-38.1	-40.0	23.0	6.02e-01	0	57	0	275775488	47	4566
2026-01-03 01:26:31.20	195.79	16.24	-38.1	-40.0	23.0	6.02e-01	0	57	0	277348352	47	4597
2026-01-03 01:26:32.21	195.80	16.12	-38.2	-40.1	22.9	6.03e-01	0	57	0	279445504	47	4614
2026-01-03 01:26:33.22	195.81	15.99	-38.1	-40.0	23.0	6.02e-01	0	57	0	281542656	47	4575
2026-01-03 01:26:34.23	195.82	15.87	-38.1	-40.0	23.0	6.03e-01	0	57	0	283115520	47	4551
2026-01-03 01:26:35.24	195.83	15.74	-38.1	-40.0	23.0	6.05e-01	0	57	0	285212672	47	4561
2026-01-03 01:26:36.25	195.84	15.62	-38.0	-39.9	23.1	6.04e-01	0	57	0	287309824	47	4500
2026-01-03 01:26:37.26	195.85	15.50	-38.0	-39.8	23.1	6.03e-01	0	57	0	288882688	47	4493
2026-01-03 01:26:38.28	195.86	15.38	-37.9	-39.8	23.1	6.04e-01	0	57	0	290979840	47	4471
2026-01-03 01:26:39.28	195.87	15.26	-37.9	-39.8	23.1	6.04e-01	0	57	0	292552704	47	4467
2026-01-03 01:26:40.30	195.88	15.14	-37.9	-39.8	23.2	6.05e-01	0	57	0	294649856	47	4446
2026-01-03 01:26:41.30	195.89	15.02	-37.9	-39.7	23.2	6.01e-01	0	57	0	296747008	47	4427
2026-01-03 01:26:42.31	195.90	14.90	-37.9	-39.7	23.2	6.02e-01	0	57	0	298319872	47	4438
2026-01-03 01:26:43.32	195.91	14.78	-37.9	-39.8	23.2	6.05e-01	0	57	0	300417024	47	4442
2026-01-03 01:26:44.33	195.92	14.66	-37.9	-39.7	23.2	6.03e-01	0	57	0	301989888	47	4433
2026-01-03 01:26:45.34	195.93	14.55	-38.0	-39.8	23.1	6.03e-01	0	57	0	304087040	47	4474
2026-01-03 01:26:46.35	195.94	14.43	-37.9	-39.8	23.2	6.06e-01	0	57	0	306184192	47	4454
2026-01-03 01:26:47.36	195.95	14.32	-37.9	-39.7	23.3	6.02e-01	0	57	0	307757056	47	4416
2026-01-03 01:26:48.37	195.96	14.20	-37.9	-39.7	23.2	6.05e-01	0	57	0	309854208	47	4410
2026-01-03 01:26:49.38	195.97	14.09	-37.8	-39.7	23.3	6.04e-01	0	57	0	311951360	47	4405
2026-01-03 01:26:50.39	195.98	13.97	-37.8	-39.6	23.3	6.04e-01	0	57	0	313524224	47	4385
2026-01-03 01:26:51.40	195.98	13.86	-37.8	-39.6	23.4	6.04e-01	0	57	0	315621376	47	4351
2026-01-03 01:26:52.41	195.99	13.75	-37.8	-39.6	23.3	6.01e-01	0	57	0	317194240	47	4360
2026-01-03 01:26:53.42	196.00	13.63	-37.8	-39.6	23.3	6.05e-01	0	57	0	319291392	47	4373
2026-01-03 01:26:54.43	196.01	13.52	-37.8	-39.6	23.4	6.04e-01	0	57	0	320864256	47	4348
2026-01-03 01:26:55.44	196.02	13.41	-37.8	-39.6	23.3	6.03e-01	0	57	0	322961408	47	4372
2026-01-03 01:26:56.45	196.03	13.30	-37.8	-39.7	23.2	6.03e-01	0	57	0	325058560	47	4404
2026-01-03 01:26:57.46	196.04	13.19	-37.9	-39.7	23.2	6.03e-01	0	57	0	326631424	47	4408
2026-01-03 01:26:58.47	196.05	13.08	-37.8	-39.6	23.3	6.04e-01	0	57	0	328728576	47	4369
2026-01-03 01:26:59.48	196.06	12.97	-37.8	-39.6	23.3	6.04e-01	0	57	0	330825728	47	4360
2026-01-03 01:27:00.49	196.06	12.87	-37.8	-39.7	23.2	6.05e-01	0	57	0	332398592	47	4400
2026-01-03 01:27:01.50	196.07	12.76	-37.8	-39.7	23.3	6.03e-01	0	57	0	334495744	47	4396
2026-01-03 01:27:02.51	196.08	12.65	-37.9	-39.7	23.2	6.04e-01	0	57	0	336068608	47	4424
2026-01-03 01:27:03.52	196.09	12.54	-37.9	-39.7	23.2	6.01e-01	0	57	0	338165760	47	4414
2026-01-03 01:27:04.53	196.10	12.44	-37.9	-39.8	23.1	6.03e-01	0	57	0	340262912	47	4457
2026-01-03 01:27:05.54	196.11	12.33	-38.0	-39.9	23.0	6.05e-01	0	57	0	341835776	47	4527
2026-01-03 01:27:06.55	196.12	12.23	-38.1	-40.0	22.9	6.04e-01	0	57	0	343932928	47	4553
2026-01-03 01:27:07.56	196.12	12.12	-38.1	-40.0	22.9	6.03e-01	0	57	0	345505792	47	4589
2026-01-03 01:27:08.57	196.13	12.02	-38.2	-40.1	22.8	6.04e-01	0	57	0	347602944	47	4644
2026-01-03 01:27:09.57	196.14	11.92	-38.2	-40.2	22.7	6.03e-01	0	57	0	349700096	47	4677
2026-01-03 01:27:10.58	196.15	11.81	-38.3	-40.3	22.6	6.03e-01	0	57	0	351272960	47	4739
2026-01-03 01:27:11.59	196.16	11.71	-38.2	-40.2	22.6	6.04e-01	0	57	0	353370112	47	4684
2026-01-03 01:27:12.60	196.17	11.61	-38.1	-40.1	22.7	6.03e-01	0	57	0	355467264	47	4626
2026-01-03 01:27:13.61	196.17	11.51	-38.2	-40.2	22.7	6.04e-01	0	57	0	357040128	47	4656
2026-01-03 01:27:14.62	196.18	11.41	-38.3	-40.3	22.6	6.05e-01	0	57	0	359137280	47	4711
2026-01-03 01:27:15.63	196.19	11.31	-38.2	-40.2	22.6	6.02e-01	0	57	0	360710144	47	4679
2026-01-03 01:27:16.64	196.20	11.21	-38.2	-40.2	22.6	6.03e-01	0	57	0	362807296	47	4689
2026-01-03 01:27:17.65	196.21	11.11	-38.3	-40.4	22.5	6.05e-01	0	57	0	364904448	47	4764
2026-01-03 01:27:18.66	196.21	11.01	-38.3	-40.4	22.5	6.02e-01	0	57	0	366477312	47	4760
2026-01-03 01:27:19.66	196.22	10.91	-38.4	-40.4	22.4	6.06e-01	0	57	0	368574464	47	4802
2026-01-03 01:27:20.68	196.23	10.81	-38.5	-40.5	22.3	6.02e-01	0	57	0	370147328	47	4854
2026-01-03 01:27:21.69	196.24	10.71	-38.5	-40.6	22.2	6.04e-01	0	57	0	372244480	47	4899
2026-01-03 01:27:22.70	196.24	10.61	-38.6	-40.7	22.1	6.03e-01	0	57	0	374341632	47	4960
2026-01-03 01:27:23.71	196.25	10.52	-38.7	-40.8	22.0	6.03e-01	0	57	0	375914496	47	5004
2026-01-03 01:27:24.71	196.26	10.42	-39.1	-41.3	21.9	6.04e-01	0	57	0	378011648	48	5000
2026-01-03 01:27:25.72	196.27	10.32	-39.1	-41.3	21.9	6.03e-01	0	57	0	379584512	48	4997
2026-01-03 01:27:26.73	196.28	10.23	-39.2	-41.4	21.8	6.04e-01	0	57	0	381681664	48	5048
2026-01-03 01:27:27.74	196.28	10.13	-39.3	-41.5	21.6	6.02e-01	0	57	0	383778816	49	4854
2026-01-03 01:27:28.75	196.29	10.04	-39.3	-41.5	21.6	6.06e-01	0	57	0	385351680	49	4848
2026-01-03 01:27:29.76	196.30	9.94	-39.3	-41.5	21.6	6.01e-01	0	57	0	387448832	49	4856
2026-01-03 01:27:30.77	196.31	9.85	-39.4	-41.6	21.5	6.01e-01	0	57	0	389021696	49	4905
2026-01-03 01:27:31.78	196.31	9.75	-39.3	-41.6	21.5	6.01e-01	0	57	0	391118848	49	4871
2026-01-03 01:27:32.79	196.32	9.66	-39.1	-41.3	21.8	6.02e-01	0	57	0	393216000	49	4728
2026-01-03 01:27:33.80	196.33	9.57	-39.1	-41.3	21.8	6.04e-01	0	57	0	394788864	49	4711
2026-01-03 01:27:34.81	196.34	9.48	-39.0	-41.2	21.8	6.02e-01	0	57	0	396886016	49	4675
2026-01-03 01:27:35.82	196.34	9.38	-39.0	-41.2	21.9	6.05e-01	0	57	0	398983168	49	4652
2026-01-03 01:27:36.83	196.35	9.29	-39.0	-41.1	21.9	6.03e-01	0	57	0	400556032	49	4623
2026-01-03 01:27:37.83	196.36	9.20	-39.0	-41.2	21.9	6.00e-01	0	57	0	402653184	49	4669
2026-01-03 01:27:38.84	196.36	9.11	-39.1	-41.3	21.7	6.04e-01	0	57	0	404226048	49	4743
2026-01-03 01:27:39.85	196.37	9.02	-39.1	-41.2	21.8	6.03e-01	0	57	0	406323200	49	4699
2026-01-03 01:27:40.86	196.38	8.93	-39.1	-41.3	21.7	6.05e-01	0	57	0	408420352	49	4706
2026-01-03 01:27:41.87	196.39	8.84	-39.1	-41.3	21.7	6.03e-01	0	57	0	409993216	49	4732
2026-01-03 01:27:42.88	196.39	8.75	-39.1	-41.3	21.6	6.05e-01	0	57	0	412090368	49	4738
2026-01-03 01:27:43.89	196.40	8.66	-39.1	-41.3	21.7	6.06e-01	0	57	0	413663232	49	4721
2026-01-03 01:27:44.90	196.41	8.57	-39.1	-41.3	21.7	6.03e-01	0	57	0	415760384	49	4739
2026-01-03 01:27:45.91	196.41	8.48	-39.2	-41.4	21.6	6.06e-01	0	57	0	417857536	49	4781
2026-01-03 01:27:46.92	196.42	8.39	-39.2	-41.4	21.5	6.01e-01	0	57	0	419430400	49	4808
2026-01-03 01:27:47.93	196.43	8.31	-39.2	-41.5	21.5	6.02e-01	0	57	0	421527552	49	4816
2026-01-03 01:27:48.94	196.44	8.22	-39.2	-41.4	21.5	6.04e-01	0	57	0	423624704	49	4798
2026-01-03 01:27:49.95	196.44	8.13	-39.2	-41.4	21.5	6.06e-01	0	57	0	425197568	49	4785
2026-01-03 01:27:50.96	196.45	8.04	-39.2	-41.4	21.4	6.03e-01	0	57	0	427294720	49	4811
2026-01-03 01:27:51.97	196.46	7.96	-45.2	-62.3	3.9	7.47e-01	0	57	104	428343296	60	28304
2026-01-03 01:27:52.98	196.46	7.87	-45.6	-64.0	3.8	7.47e-01	0	57	104	428343296	61	32490
2026-01-03 01:27:53.99	196.47	7.78	-45.8	-64.4	3.8	7.45e-01	0	57	104	428343296	62	31950
2026-01-03 01:27:55.00	196.48	7.70	-45.9	-64.5	3.8	7.43e-01	0	57	104	428343296	62	32496
2026-01-03 01:27:56.01	196.48	7.61	-46.0	-64.6	3.8	7.47e-01	0	57	104	428343296	62	32875
2026-01-03 01:27:57.02	196.49	7.53	-46.1	-64.7	3.8	7.44e-01	0	57	104	428343296	62	33208
2026-01-03 01:27:58.03	196.50	7.44	-46.1	-64.7	3.8	7.43e-01	0	57	104	428343296	62	33222
2026-01-03 01:27:59.04	196.50	7.36	-46.1	-64.7	3.8	7.44e-01	0	57	104	428343296	62	33233
2026-01-03 01:28:00.05	196.51	7.28	-46.1	-64.7	3.8	7.48e-01	0	57	104	428343296	62	33302
2026-01-03 01:28:01.06	196.52	7.19	-46.1	-64.7	3.8	7.46e-01	0	57	104	428343296	62	33157
2026-01-03 01:28:02.07	196.52	7.11	-46.1	-64.7	3.8	7.47e-01	0	57	104	428343296	62	33069
2026-01-03 01:28:03.08	196.53	7.03	-46.0	-64.7	3.8	7.45e-01	0	57	104	428343296	62	32986
2026-01-03 01:28:04.09	196.54	6.94	-46.0	-64.7	3.8	7.46e-01	0	57	104	428343296	62	33034
2026-01-03 01:28:05.11	196.54	6.86	-46.0	-64.7	3.8	7.47e-01	0	57	104	428343296	62	32962
2026-01-03 01:28:06.12	196.55	6.78	-46.1	-64.7	3.8	7.44e-01	0	57	104	428343296	62	33089
2026-01-03 01:28:07.13	196.56	6.70	-46.0	-64.7	3.8	7.47e-01	0	57	104	428343296	62	33015
2026-01-03 01:28:08.14	196.56	6.61	-46.0	-64.6	3.8	7.44e-01	0	57	104	428343296	62	32891
2026-01-03 01:28:09.15	196.57	6.53	-46.0	-64.6	3.8	7.46e-01	0	57	104	428343296	62	32868
2026-01-03 01:28:10.16	196.58	6.45	-46.0	-64.7	3.8	7.40e-01	0	57	104	428343296	62	32956
2026-01-03 01:28:11.17	196.58	6.37	-46.0	-64.7	3.8	7.45e-01	0	57	104	428343296	62	32960
2026-01-03 01:28:12.18	196.59	6.29	-46.0	-64.6	3.8	7.45e-01	0	57	104	428343296	62	32830
2026-01-03 01:28:13.20	196.60	6.21	-46.0	-64.6	3.8	7.46e-01	0	57	104	428343296	62	32853
2026-01-03 01:28:14.20	196.60	6.13	-46.0	-64.6	3.8	7.46e-01	0	57	104	428343296	62	32884
2026-01-03 01:28:15.22	196.61	6.05	-46.0	-64.6	3.8	7.43e-01	0	57	104	428343296	62	32889
2026-01-03 01:28:16.23	196.61	5.97	-46.0	-64.6	3.8	7.44e-01	0	57	104	428343296	62	32837
2026-01-03 01:28:17.24	196.62	5.89	-46.0	-64.6	3.8	7.47e-01	0	57	104	428343296	62	32879
2026-01-03 01:28:18.25	196.63	5.81	-46.0	-64.6	3.8	7.42e-01	0	57	104	428343296	62	32873
2026-01-03 01:28:19.26	196.63	5.73	-46.0	-64.6	3.8	7.44e-01	0	57	104	428343296	62	32781
2026-01-03 01:28:20.27	196.64	5.65	-46.0	-64.6	3.8	7.46e-01	0	57	104	428343296	62	32881
2026-01-03 01:28:21.28	196.65	5.58	-46.0	-64.6	3.8	7.44e-01	0	57	104	428343296	62	32812
2026-01-03 01:28:22.29	196.65	5.50	-46.0	-64.6	3.8	7.46e-01	0	57	104	428343296	62	32799
2026-01-03 01:28:23.31	196.66	5.42	-46.0	-64.6	3.8	7.46e-01	0	57	104	428343296	62	32833
2026-01-03 01:28:24.32	196.66	5.34	-46.0	-64.6	3.8	7.43e-01	0	57	104	428343296	62	32804
2026-01-03 01:28:25.33	196.67	5.27	-46.0	-64.6	3.8	7.48e-01	0	57	104	428343296	62	32804
2026-01-03 01:28:26.34	196.68	5.19	-46.0	-64.6	3.8	7.44e-01	0	57	104	428343296	62	32797
2026-01-03 01:28:27.35	196.68	5.11	-46.0	-64.6	3.8	7.44e-01	0	57	104	428343296	62	32773
2026-01-03 01:28:28.36	196.69	5.04	-46.0	-64.6	3.8	7.43e-01	0	57	104	428343296	62	32745
2026-01-03 01:28:29.37	196.69	4.96	-46.0	-64.6	3.8	7.48e-01	0	57	104	428343296	62	32762
2026-01-03 01:28:30.38	196.70	4.88	-46.0	-64.6	3.8	7.47e-01	0	57	104	428343296	62	32777
2026-01-03 01:28:31.39	196.71	4.81	-46.0	-64.6	3.8	7.44e-01	0	57	104	428343296	62	32797
2026-01-03 01:28:32.40	196.71	4.73	-46.0	-64.6	3.8	7.47e-01	0	57	104	428343296	62	32733
2026-01-03 01:28:33.42	196.72	4.66	-46.0	-64.6	3.8	7.45e-01	0	57	104	428343296	62	32729
2026-01-03 01:28:34.43	196.72	4.58	-46.0	-64.6	3.8	7.44e-01	0	57	104	428343296	62	32746
2026-01-03 01:28:35.44	196.73	4.51	-46.0	-64.6	3.8	7.45e-01	0	57	104	428343296	62	32766
2026-01-03 01:28:36.45	196.74	4.43	-46.0	-64.6	3.8	7.45e-01	0	57	104	428343296	62	32742
2026-01-03 01:28:37.46	196.74	4.36	-46.0	-64.6	3.8	7.44e-01	0	57	104	428343296	62	32772
2026-01-03 01:28:38.47	196.75	4.29	-46.0	-64.6	3.8	7.43e-01	0	57	104	428343296	62	32780
2026-01-03 01:28:39.48	196.75	4.21	-46.0	-64.6	3.8	7.46e-01	0	57	104	428343296	62	32721
2026-01-03 01:28:40.49	196.76	4.14	-46.0	-64.6	3.8	7.46e-01	0	57	104	428343296	62	32766
2026-01-03 01:28:41.50	196.77	4.07	-46.0	-64.6	3.8	7.45e-01	0	57	104	428343296	62	32750
2026-01-03 01:28:42.51	196.77	3.99	-46.0	-64.6	3.8	7.45e-01	0	57	104	428343296	62	32695
2026-01-03 01:28:43.53	196.78	3.92	-46.0	-64.6	3.8	7.48e-01	0	57	104	428343296	62	32706
2026-01-03 01:28:44.54	196.78	3.85	-45.9	-64.6	3.8	7.45e-01	0	57	104	428343296	62	32785
2026-01-03 01:28:45.55	196.79	3.77	-45.9	-64.6	3.8	7.43e-01	0	57	104	428343296	62	32744
2026-01-03 01:28:46.56	196.79	3.70	-45.9	-64.6	3.8	7.43e-01	0	57	104	428343296	62	32736
2026-01-03 01:28:47.57	196.80	3.63	-45.9	-64.6	3.8	7.45e-01	0	57	104	428343296	62	32671
2026-01-03 01:28:48.58	196.81	3.56	-45.9	-64.6	3.8	7.47e-01	0	57	104	428343296	62	32681
2026-01-03 01:28:49.59	196.81	3.49	-45.9	-64.6	3.8	7.47e-01	0	57	104	428343296	62	32693
2026-01-03 01:28:50.60	196.82	3.42	-45.9	-64.6	3.8	7.46e-01	0	57	104	428343296	62	32741
2026-01-03 01:28:51.61	196.82	3.34	-45.9	-64.6	3.8	7.41e-01	0	57	104	428343296	62	32740
2026-01-03 01:28:52.62	196.83	3.27	-45.9	-64.6	3.8	7.46e-01	0	57	104	428343296	62	32758
2026-01-03 01:28:53.64	196.83	3.20	-46.0	-64.6	3.8	7.42e-01	0	57	104	428343296	62	32668
2026-01-03 01:28:54.65	196.84	3.13	-45.9	-64.6	3.8	7.45e-01	0	57	104	428343296	62	32702
2026-01-03 01:28:55.66	196.85	3.06	-45.9	-64.6	3.8	7.46e-01	0	57	104	428343296	62	32661
2026-01-03 01:28:56.67	196.85	2.99	-45.9	-64.6	3.8	7.48e-01	0	57	104	428343296	62	32694
2026-01-03 01:28:57.68	196.86	2.92	-45.9	-64.6	3.8	7.44e-01	0	57	104	428343296	62	32630
2026-01-03 01:28:58.69	196.86	2.85	-45.9	-64.6	3.8	7.47e-01	0	58	104	428343296	62	32672
2026-01-03 01:28:59.70	196.87	2.78	-45.9	-64.6	3.8	7.44e-01	0	57	104	428343296	62	32721
2026-01-03 01:29:00.71	196.87	2.71	-45.9	-64.6	3.8	7.47e-01	0	57	104	428343296	62	32678
2026-01-03 01:29:01.72	196.88	2.64	-45.9	-64.6	3.8	7.45e-01	0	57	104	428343296	62	32653
2026-01-03 01:29:02.73	196.88	2.57	-45.9	-64.6	3.8	7.44e-01	0	57	104	428343296	62	32623
2026-01-03 01:29:03.74	196.89	2.51	-45.9	-64.6	3.8	7.46e-01	0	57	104	428343296	62	32659
2026-01-03 01:29:04.75	196.90	2.44	-45.9	-64.6	3.8	7.45e-01	0	57	104	428343296	62	32641
2026-01-03 01:29:05.76	196.90	2.37	-45.9	-64.6	3.8	7.47e-01	0	57	104	428343296	62	32644
2026-01-03 01:29:06.78	196.91	2.30	-45.9	-64.6	3.8	7.46e-01	0	57	104	428343296	62	32613
2026-01-03 01:29:07.79	196.91	2.23	-45.9	-64.6	3.8	7.47e-01	0	57	104	428343296	62	32626
2026-01-03 01:29:08.80	196.92	2.16	-45.9	-64.6	3.8	7.44e-01	0	57	104	428343296	62	32604
2026-01-03 01:29:09.81	196.92	2.10	-45.9	-64.6	3.8	7.47e-01	0	58	104	428343296	62	32701
2026-01-03 01:29:10.82	196.93	2.03	-45.9	-64.6	3.8	7.48e-01	0	57	104	428343296	62	32639
2026-01-03 01:29:11.83	196.93	1.96	-45.9	-64.6	3.8	7.47e-01	0	57	104	428343296	62	32615
2026-01-03 01:29:12.84	196.94	1.89	-45.9	-64.6	3.8	7.45e-01	0	57	104	428343296	62	32706
2026-01-03 01:29:13.85	196.94	1.83	-45.9	-64.6	3.8	7.46e-01	0	57	104	428343296	62	32595

#Closed at: 2026-01-03 01:29:14
#Recorded file [428 MB]: D:/lorett/data/31039_260103_042312.dat