passes_logs/2026/01/03/R2.0S_Moscow/R2.0S_Moscow__20260103_011007_NOAA_21_JPSS-2_rec.log

#Pass ID: 20260103_011007_NOAA 21 (JPSS-2)
#Satellite: NOAA 21 (JPSS-2)
#Configuration: NOAA-21
#almurnet v.1.7.20251203
#Start time: 2026-01-03 01:14:36

#Version: 2.2.20231116
#Station: R2.0S_Moscow
#Location: 37.707566 lon 55.798166 lat
#TLE: 1 54234U 22150A   26002.25486487  .00000200  00000+0  11573-3 0  9993
#TLE: 2 54234  98.7485 303.3096 0001220 350.9074   9.2080 14.19531212163006

#Time	Az	El	Level	Level2	SNR	BER	BlckErr	Temp	State	Recorded	gain1	gain2
2026-01-03 01:14:36.94	338.84	20.90	-44.9	-56.5	3.8	8.46e-01	0	57	0	0	60	14521
2026-01-03 01:14:37.94	338.62	20.97	-45.2	-57.4	3.8	1.49e+00	0	57	104	0	62	14371
2026-01-03 01:14:38.95	338.40	21.04	-45.2	-57.4	3.8	1.49e+00	0	57	104	0	62	14371
2026-01-03 01:14:39.96	338.18	21.11	-45.1	-57.4	3.8	1.49e+00	0	57	104	0	62	14360
2026-01-03 01:14:40.97	337.96	21.19	-45.1	-57.3	3.8	1.49e+00	0	58	104	0	62	14193
2026-01-03 01:14:41.98	337.73	21.26	-45.0	-57.3	3.8	1.49e+00	0	58	104	0	62	14207
2026-01-03 01:14:42.99	337.51	21.33	-44.9	-57.2	3.8	1.49e+00	0	57	104	0	61	14873
2026-01-03 01:14:44.00	337.28	21.40	-44.9	-57.2	3.8	1.49e+00	0	57	104	0	61	14824
2026-01-03 01:14:45.01	337.05	21.47	-44.9	-57.1	3.8	1.49e+00	0	57	104	0	61	14678
2026-01-03 01:14:46.02	336.83	21.54	-44.9	-57.2	3.8	1.49e+00	0	57	104	0	61	14726
2026-01-03 01:14:47.03	336.60	21.61	-44.9	-57.2	3.8	1.49e+00	0	57	104	0	61	14721
2026-01-03 01:14:48.04	336.37	21.68	-44.9	-57.2	3.8	1.49e+00	0	57	104	0	61	14764
2026-01-03 01:14:49.05	336.14	21.75	-44.9	-57.2	3.8	1.49e+00	0	57	104	0	61	14724
2026-01-03 01:14:50.07	335.90	21.82	-44.9	-57.2	3.8	1.49e+00	0	57	104	0	61	14783
2026-01-03 01:14:51.08	335.67	21.89	-44.9	-57.2	3.8	1.49e+00	0	57	104	0	61	14756
2026-01-03 01:14:52.09	335.43	21.96	-44.9	-57.2	3.8	1.49e+00	0	57	104	0	61	14822
2026-01-03 01:14:53.10	335.20	22.03	-44.9	-57.2	3.8	1.49e+00	0	57	104	0	61	14778
2026-01-03 01:14:54.11	334.96	22.10	-44.9	-57.2	3.8	1.49e+00	0	58	104	0	61	14787
2026-01-03 01:14:55.12	334.73	22.16	-44.9	-57.1	3.8	1.49e+00	0	57	104	0	61	14689
2026-01-03 01:14:56.13	334.49	22.23	-44.8	-57.1	3.8	1.49e+00	0	57	104	0	61	14649
2026-01-03 01:14:57.14	334.25	22.30	-44.8	-57.1	3.8	1.49e+00	0	57	104	0	61	14596
2026-01-03 01:14:58.16	334.01	22.37	-44.8	-57.0	3.8	1.49e+00	0	57	104	0	61	14529
2026-01-03 01:14:59.17	333.76	22.43	-44.8	-57.0	3.8	1.49e+00	0	57	104	0	61	14474
2026-01-03 01:15:00.18	333.52	22.50	-44.8	-57.1	3.8	1.49e+00	0	57	104	0	61	14579
2026-01-03 01:15:01.19	333.28	22.56	-44.8	-57.1	3.8	1.49e+00	0	57	104	0	61	14558
2026-01-03 01:15:02.20	333.03	22.63	-44.8	-57.1	3.8	1.49e+00	0	58	104	0	61	14555
2026-01-03 01:15:03.21	332.79	22.70	-44.8	-57.1	3.8	1.49e+00	0	57	104	0	61	14597
2026-01-03 01:15:04.22	332.54	22.76	-44.9	-57.1	3.8	1.49e+00	0	57	104	0	61	14638
2026-01-03 01:15:05.23	332.29	22.82	-44.8	-57.2	3.8	1.49e+00	0	57	104	0	61	14754
2026-01-03 01:15:06.24	332.04	22.89	-44.9	-57.2	3.8	1.49e+00	0	57	104	0	61	14734
2026-01-03 01:15:07.25	331.79	22.95	-44.8	-57.2	3.8	1.49e+00	0	57	104	0	61	14739
2026-01-03 01:15:08.27	331.54	23.01	-44.8	-57.0	3.8	1.49e+00	0	57	104	0	61	14527
2026-01-03 01:15:09.28	331.29	23.08	-44.8	-56.9	3.8	1.49e+00	0	57	104	0	61	14368
2026-01-03 01:15:10.29	331.04	23.14	-44.8	-56.9	3.8	1.49e+00	0	57	104	0	61	14299
2026-01-03 01:15:11.30	330.78	23.20	-44.8	-56.9	3.8	1.49e+00	0	57	104	0	61	14332
2026-01-03 01:15:12.31	330.53	23.26	-44.8	-57.0	3.8	1.49e+00	0	57	104	0	61	14379
2026-01-03 01:15:13.32	330.27	23.32	-44.8	-56.9	3.8	1.49e+00	0	58	104	0	61	14328
2026-01-03 01:15:14.33	330.01	23.38	-44.8	-56.8	3.8	1.49e+00	0	57	104	0	61	14206
2026-01-03 01:15:15.34	329.76	23.44	-44.8	-56.9	3.8	1.49e+00	0	58	104	0	61	14335
2026-01-03 01:15:16.35	329.50	23.50	-44.8	-57.1	3.8	1.49e+00	0	57	104	0	61	14589
2026-01-03 01:15:17.36	329.24	23.56	-44.8	-57.2	3.8	1.49e+00	0	57	104	0	61	14774
2026-01-03 01:15:18.38	328.97	23.62	-44.8	-57.0	3.8	1.49e+00	0	57	104	0	61	14534
2026-01-03 01:15:19.39	328.71	23.67	-44.8	-57.0	3.8	1.49e+00	0	58	104	0	61	14494
2026-01-03 01:15:20.40	328.45	23.73	-44.8	-56.9	3.8	1.49e+00	0	57	104	0	61	14278
2026-01-03 01:15:21.41	328.18	23.79	-44.8	-56.8	3.8	1.49e+00	0	57	104	0	61	14057
2026-01-03 01:15:22.42	327.92	23.84	-44.8	-56.7	3.8	1.49e+00	0	57	104	0	61	13907
2026-01-03 01:15:23.43	327.65	23.90	-44.8	-57.0	3.8	1.49e+00	0	57	104	0	61	14515
2026-01-03 01:15:24.44	327.39	23.95	-44.7	-55.9	3.8	1.49e+00	0	57	104	0	61	12672
2026-01-03 01:15:25.45	327.12	24.01	-43.8	-50.1	5.9	8.98e-01	0	57	0	0	59	7303
2026-01-03 01:15:26.46	326.85	24.06	-41.7	-45.0	10.6	1.88e-02	0	57	0	3145728	55	5123
2026-01-03 01:15:27.47	326.58	24.11	-39.4	-41.5	14.3	1.29e-05	0	57	0	6291456	51	4327
2026-01-03 01:15:28.48	326.31	24.17	-37.5	-39.1	16.6	0.00e+00	0	58	0	9437184	47	4116
2026-01-03 01:15:29.49	326.04	24.22	-36.3	-37.7	18.0	0.00e+00	0	57	0	12582912	44	4151
2026-01-03 01:15:30.50	325.77	24.27	-36.0	-37.3	18.3	0.00e+00	0	58	0	15728640	44	3990
2026-01-03 01:15:31.52	325.49	24.32	-36.1	-37.5	18.1	0.00e+00	0	57	0	18874368	44	4068
2026-01-03 01:15:32.53	325.22	24.37	-36.6	-38.1	17.7	0.00e+00	0	58	0	22020096	44	4352
2026-01-03 01:15:33.53	324.94	24.42	-36.2	-37.5	18.2	1.50e-06	0	57	0	25165824	44	4075
2026-01-03 01:15:34.54	324.67	24.47	-38.3	-40.0	15.7	7.27e-04	0	57	0	28311552	48	4308
2026-01-03 01:15:35.55	324.39	24.52	-35.9	-37.2	18.3	0.00e+00	0	58	0	31457280	43	4180
2026-01-03 01:15:36.56	324.11	24.57	-38.8	-40.6	15.1	1.52e-05	0	57	0	34603008	49	4366
2026-01-03 01:15:37.57	323.84	24.61	-36.4	-37.8	17.9	0.00e+00	0	58	0	37748736	44	4222
2026-01-03 01:15:38.58	323.56	24.66	-36.2	-37.6	18.0	0.00e+00	0	57	0	40894464	44	4120
2026-01-03 01:15:39.59	323.28	24.70	-35.8	-37.1	18.4	0.00e+00	0	58	0	44040192	43	4110
2026-01-03 01:15:40.60	323.00	24.75	-35.6	-36.9	18.5	0.00e+00	0	57	0	47185920	43	4019
2026-01-03 01:15:41.61	322.71	24.79	-35.5	-36.7	18.7	0.00e+00	0	57	0	50331648	42	4173
2026-01-03 01:15:42.62	322.43	24.84	-35.4	-36.7	18.7	0.00e+00	0	57	0	53477376	42	4160
2026-01-03 01:15:43.63	322.15	24.88	-35.4	-36.6	18.8	0.00e+00	0	57	0	56623104	42	4142
2026-01-03 01:15:44.64	321.86	24.92	-35.4	-36.6	18.8	0.00e+00	0	57	0	59768832	42	4135
2026-01-03 01:15:45.65	321.58	24.96	-35.4	-36.6	18.8	0.00e+00	0	58	0	62914560	42	4131
2026-01-03 01:15:46.66	321.29	25.00	-35.4	-36.6	18.7	0.00e+00	0	57	0	66060288	42	4138
2026-01-03 01:15:47.67	321.01	25.04	-35.4	-36.7	18.7	0.00e+00	0	57	0	69206016	42	4177
2026-01-03 01:15:48.68	320.72	25.08	-35.4	-36.7	18.7	0.00e+00	0	57	0	72351744	42	4150
2026-01-03 01:15:49.69	320.43	25.12	-35.5	-36.7	18.7	0.00e+00	0	57	0	75497472	42	4191
2026-01-03 01:15:50.70	320.14	25.16	-35.5	-36.8	18.6	0.00e+00	0	57	0	78643200	42	4213
2026-01-03 01:15:51.71	319.86	25.20	-35.5	-36.7	18.7	0.00e+00	0	57	0	81788928	42	4187
2026-01-03 01:15:52.71	319.57	25.23	-35.4	-36.7	18.7	0.00e+00	0	57	0	84934656	42	4160
2026-01-03 01:15:53.73	319.28	25.27	-35.4	-36.6	18.8	0.00e+00	0	57	0	88080384	42	4127
2026-01-03 01:15:54.74	318.98	25.30	-35.3	-36.5	18.8	0.00e+00	0	57	0	91226112	42	4085
2026-01-03 01:15:55.75	318.69	25.34	-35.2	-36.4	19.0	0.00e+00	0	57	0	94371840	42	4021
2026-01-03 01:15:56.76	318.40	25.37	-35.1	-36.3	19.1	0.00e+00	0	57	0	97517568	42	3982
2026-01-03 01:15:57.77	318.11	25.40	-35.0	-36.3	19.1	0.00e+00	0	57	0	100663296	42	3964
2026-01-03 01:15:58.78	317.81	25.44	-35.0	-36.2	19.1	0.00e+00	0	57	0	103809024	42	3950
2026-01-03 01:15:59.79	317.52	25.47	-35.0	-36.2	19.2	0.00e+00	0	57	0	106954752	41	4153
2026-01-03 01:16:00.80	317.22	25.50	-34.9	-36.1	19.2	0.00e+00	0	57	0	110100480	41	4137
2026-01-03 01:16:01.81	316.93	25.53	-34.9	-36.1	19.2	0.00e+00	0	57	0	113246208	41	4131
2026-01-03 01:16:02.82	316.63	25.56	-35.0	-36.2	19.2	0.00e+00	0	58	0	116391936	41	4146
2026-01-03 01:16:03.83	316.34	25.58	-35.0	-36.2	19.1	0.00e+00	0	57	0	119537664	41	4162
2026-01-03 01:16:04.84	316.04	25.61	-35.1	-36.4	18.9	0.00e+00	0	57	0	122683392	41	4253
2026-01-03 01:16:05.85	315.74	25.64	-35.3	-36.5	18.8	0.00e+00	0	57	0	125829120	41	4330
2026-01-03 01:16:06.86	315.44	25.66	-35.4	-36.7	18.7	0.00e+00	0	57	0	128974848	41	4415
2026-01-03 01:16:07.87	315.14	25.69	-35.5	-36.8	18.6	0.00e+00	0	57	0	132120576	41	4456
2026-01-03 01:16:08.88	314.85	25.71	-35.4	-36.7	18.7	0.00e+00	0	57	0	135266304	41	4427
2026-01-03 01:16:09.89	314.55	25.73	-35.3	-36.6	18.8	0.00e+00	0	57	0	139460608	41	4353
2026-01-03 01:16:10.90	314.25	25.76	-35.2	-36.5	18.9	0.00e+00	0	57	0	142606336	41	4307
2026-01-03 01:16:11.91	313.95	25.78	-35.3	-36.6	18.8	0.00e+00	0	57	0	145752064	41	4354
2026-01-03 01:16:12.92	313.65	25.80	-35.3	-36.6	18.8	0.00e+00	0	57	0	147849216	41	4353
2026-01-03 01:16:13.93	313.34	25.82	-35.3	-36.6	18.8	0.00e+00	0	57	0	150994944	41	4369
2026-01-03 01:16:14.94	313.04	25.84	-35.4	-36.7	18.7	0.00e+00	0	57	0	155189248	41	4420
2026-01-03 01:16:15.95	312.74	25.85	-35.3	-36.6	18.8	0.00e+00	0	57	0	158334976	41	4366
2026-01-03 01:16:16.96	312.44	25.87	-35.3	-36.5	18.9	0.00e+00	0	57	0	161480704	41	4337
2026-01-03 01:16:17.98	312.13	25.89	-35.2	-36.4	18.9	0.00e+00	0	57	0	164626432	41	4290
2026-01-03 01:16:18.99	311.83	25.90	-35.3	-36.5	18.9	0.00e+00	0	57	0	167772160	41	4334
2026-01-03 01:16:20.00	311.53	25.92	-35.3	-36.5	18.8	0.00e+00	0	57	0	170917888	41	4338
2026-01-03 01:16:21.01	311.22	25.93	-35.3	-36.6	18.8	0.00e+00	0	57	0	174063616	41	4372
2026-01-03 01:16:22.02	310.92	25.94	-35.4	-36.7	18.7	0.00e+00	0	57	0	177209344	41	4400
2026-01-03 01:16:23.03	310.62	25.95	-35.5	-36.8	18.6	0.00e+00	0	57	0	180355072	41	4448
2026-01-03 01:16:24.04	310.31	25.96	-35.6	-36.9	18.5	0.00e+00	0	57	0	183500800	41	4509
2026-01-03 01:16:25.04	310.01	25.97	-35.7	-37.0	18.5	0.00e+00	0	57	0	186646528	41	4570
2026-01-03 01:16:26.05	309.71	25.98	-35.7	-37.0	18.4	0.00e+00	0	57	0	189792256	42	4324
2026-01-03 01:16:27.06	309.40	25.99	-35.8	-37.1	18.3	0.00e+00	0	57	0	192937984	42	4379
2026-01-03 01:16:28.07	309.10	26.00	-35.9	-37.2	18.2	0.00e+00	0	57	0	196083712	42	4427
2026-01-03 01:16:29.08	308.79	26.00	-35.8	-37.1	18.3	0.00e+00	0	57	0	199229440	42	4384
2026-01-03 01:16:30.09	308.49	26.01	-35.6	-36.9	18.6	0.00e+00	0	57	0	202375168	42	4253
2026-01-03 01:16:31.10	308.18	26.01	-35.4	-36.6	18.8	0.00e+00	0	57	0	205520896	42	4136
2026-01-03 01:16:32.11	307.88	26.02	-35.3	-36.6	18.9	0.00e+00	0	57	0	208666624	42	4106
2026-01-03 01:16:33.12	307.57	26.02	-35.4	-36.6	18.8	0.00e+00	0	57	0	211812352	42	4133
2026-01-03 01:16:34.13	307.27	26.02	-35.4	-36.7	18.7	0.00e+00	0	58	0	214958080	42	4183
2026-01-03 01:16:35.14	306.96	26.02	-35.6	-36.9	18.5	0.00e+00	0	57	0	218103808	42	4271
2026-01-03 01:16:36.16	306.65	26.02	-35.7	-37.0	18.4	0.00e+00	0	57	0	221249536	42	4335
2026-01-03 01:16:37.17	306.35	26.02	-35.8	-37.1	18.4	0.00e+00	0	57	0	224395264	42	4357
2026-01-03 01:16:38.18	306.04	26.02	-35.8	-37.1	18.4	0.00e+00	0	57	0	227540992	42	4366
2026-01-03 01:16:39.19	305.74	26.02	-35.6	-36.9	18.6	0.00e+00	0	58	0	230686720	42	4257
2026-01-03 01:16:40.20	305.43	26.02	-35.5	-36.7	18.7	0.00e+00	0	57	0	233832448	42	4183
2026-01-03 01:16:41.20	305.13	26.01	-35.5	-36.8	18.6	0.00e+00	0	58	0	236978176	42	4194
2026-01-03 01:16:42.21	304.82	26.01	-35.4	-36.7	18.7	0.00e+00	0	57	0	240123904	42	4180
2026-01-03 01:16:43.22	304.52	26.00	-35.6	-36.9	18.6	0.00e+00	0	57	0	243269632	42	4253
2026-01-03 01:16:44.23	304.21	25.99	-35.6	-36.9	18.5	0.00e+00	0	57	0	246415360	42	4280
2026-01-03 01:16:45.24	303.91	25.99	-35.6	-36.8	18.6	0.00e+00	0	57	0	249561088	42	4240
2026-01-03 01:16:46.25	303.60	25.98	-35.5	-36.8	18.6	0.00e+00	0	57	0	252706816	42	4221
2026-01-03 01:16:47.26	303.30	25.97	-35.5	-36.8	18.6	0.00e+00	0	57	0	255852544	42	4225
2026-01-03 01:16:48.27	303.00	25.96	-35.6	-37.0	18.5	0.00e+00	0	57	0	258998272	42	4292
2026-01-03 01:16:49.27	302.69	25.95	-35.7	-37.0	18.4	0.00e+00	0	57	0	262144000	42	4316
2026-01-03 01:16:50.29	302.39	25.93	-35.6	-36.9	18.5	0.00e+00	0	57	0	265289728	42	4259
2026-01-03 01:16:51.30	302.08	25.92	-35.4	-36.7	18.7	0.00e+00	0	58	0	268435456	42	4163
2026-01-03 01:16:52.31	301.78	25.91	-35.3	-36.6	18.8	0.00e+00	0	57	0	271581184	42	4114
2026-01-03 01:16:53.32	301.48	25.89	-35.2	-36.5	18.9	0.00e+00	0	57	0	274726912	42	4071
2026-01-03 01:16:54.33	301.18	25.87	-35.2	-36.4	18.9	0.00e+00	0	57	0	277872640	42	4049
2026-01-03 01:16:55.34	300.87	25.86	-35.2	-36.4	19.0	0.00e+00	0	57	0	281018368	42	4046
2026-01-03 01:16:56.35	300.57	25.84	-35.2	-36.5	18.9	0.00e+00	0	57	0	284164096	42	4059
2026-01-03 01:16:57.35	300.27	25.82	-35.2	-36.5	18.9	0.00e+00	0	57	0	287309824	42	4071
2026-01-03 01:16:58.36	299.97	25.80	-35.3	-36.5	18.9	0.00e+00	0	57	0	290455552	42	4092
2026-01-03 01:16:59.37	299.67	25.78	-35.3	-36.6	18.8	0.00e+00	0	57	0	293601280	42	4100
2026-01-03 01:17:00.38	299.37	25.76	-35.3	-36.6	18.8	0.00e+00	0	57	0	296747008	42	4124
2026-01-03 01:17:01.39	299.07	25.74	-35.4	-36.7	18.7	0.00e+00	0	57	0	299892736	42	4167
2026-01-03 01:17:02.40	298.77	25.72	-35.4	-36.7	18.7	0.00e+00	0	57	0	303038464	42	4187
2026-01-03 01:17:03.41	298.47	25.69	-35.6	-36.9	18.6	0.00e+00	0	57	0	306184192	42	4246
2026-01-03 01:17:04.42	298.17	25.67	-35.6	-36.9	18.5	0.00e+00	0	57	0	309329920	42	4257
2026-01-03 01:17:05.43	297.87	25.65	-35.6	-36.9	18.5	0.00e+00	0	57	0	312475648	42	4281
2026-01-03 01:17:06.44	297.57	25.62	-35.6	-36.9	18.5	0.00e+00	0	57	0	315621376	42	4249
2026-01-03 01:17:07.45	297.28	25.59	-35.7	-37.0	18.5	0.00e+00	0	57	0	318767104	42	4297
2026-01-03 01:17:08.46	296.98	25.56	-35.8	-37.1	18.3	0.00e+00	0	57	0	321912832	42	4382
2026-01-03 01:17:09.47	296.68	25.54	-35.9	-37.2	18.2	0.00e+00	0	57	0	325058560	42	4417
2026-01-03 01:17:10.48	296.39	25.51	-35.8	-37.2	18.3	0.00e+00	0	58	0	328204288	42	4398
2026-01-03 01:17:11.49	296.09	25.48	-35.9	-37.2	18.2	0.00e+00	0	57	0	331350016	42	4413
2026-01-03 01:17:12.50	295.80	25.45	-35.9	-37.2	18.2	0.00e+00	0	57	0	334495744	42	4421
2026-01-03 01:17:13.51	295.50	25.41	-35.8	-37.1	18.3	0.00e+00	0	57	0	337641472	42	4359
2026-01-03 01:17:14.52	295.21	25.38	-35.6	-36.9	18.6	0.00e+00	0	57	0	340787200	42	4245
2026-01-03 01:17:15.53	294.91	25.35	-35.4	-36.6	18.8	0.00e+00	0	57	0	343932928	42	4134
2026-01-03 01:17:16.54	294.62	25.32	-35.3	-36.6	18.9	0.00e+00	0	57	0	347078656	42	4106
2026-01-03 01:17:17.55	294.33	25.28	-35.3	-36.5	18.9	0.00e+00	0	57	0	350224384	42	4080
2026-01-03 01:17:18.56	294.04	25.25	-35.2	-36.5	18.9	0.00e+00	0	57	0	353370112	42	4064
2026-01-03 01:17:19.57	293.75	25.21	-35.3	-36.6	18.8	0.00e+00	0	57	0	356515840	42	4100
2026-01-03 01:17:20.58	293.46	25.17	-35.4	-36.6	18.8	0.00e+00	0	57	0	359661568	42	4129
2026-01-03 01:17:21.59	293.17	25.13	-35.4	-36.7	18.7	0.00e+00	0	57	0	362807296	42	4146
2026-01-03 01:17:22.60	292.88	25.10	-35.5	-36.7	18.7	0.00e+00	0	57	0	365953024	42	4185
2026-01-03 01:17:23.61	292.59	25.06	-35.6	-36.9	18.4	0.00e+00	0	57	0	369098752	42	4287
2026-01-03 01:17:24.62	292.30	25.02	-35.8	-37.2	18.2	0.00e+00	0	57	0	372244480	42	4393
2026-01-03 01:17:25.63	292.02	24.98	-35.9	-37.2	18.1	0.00e+00	0	57	0	375390208	42	4428
2026-01-03 01:17:26.64	291.73	24.93	-35.9	-37.3	18.1	0.00e+00	0	57	0	378535936	42	4447
2026-01-03 01:17:27.65	291.45	24.89	-35.8	-37.1	18.2	0.00e+00	0	57	0	381681664	42	4358
2026-01-03 01:17:28.66	291.16	24.85	-35.7	-37.0	18.4	0.00e+00	0	57	0	384827392	42	4305
2026-01-03 01:17:29.67	290.88	24.81	-35.7	-36.9	18.4	0.00e+00	0	57	0	387973120	42	4290
2026-01-03 01:17:30.68	290.60	24.76	-35.5	-36.7	18.6	0.00e+00	0	57	0	391118848	42	4174
2026-01-03 01:17:31.69	290.32	24.72	-35.4	-36.7	18.6	0.00e+00	0	57	0	394264576	42	4174
2026-01-03 01:17:32.70	290.04	24.67	-35.6	-36.9	18.5	0.00e+00	0	57	0	397410304	42	4247
2026-01-03 01:17:33.71	289.76	24.63	-35.5	-36.8	18.6	0.00e+00	0	57	0	400556032	42	4219
2026-01-03 01:17:34.72	289.48	24.58	-35.5	-36.8	18.6	0.00e+00	0	57	0	403701760	42	4205
2026-01-03 01:17:35.73	289.20	24.53	-35.6	-36.9	18.5	0.00e+00	0	57	0	406847488	42	4247
2026-01-03 01:17:36.74	288.92	24.48	-35.6	-36.9	18.5	0.00e+00	0	57	0	409993216	42	4259
2026-01-03 01:17:37.75	288.64	24.43	-35.7	-37.0	18.4	0.00e+00	0	57	0	413138944	42	4326
2026-01-03 01:17:38.77	288.36	24.38	-35.7	-37.0	18.3	0.00e+00	0	57	0	416284672	42	4339
2026-01-03 01:17:39.78	288.09	24.33	-35.5	-36.8	18.6	0.00e+00	0	57	0	419430400	42	4203
2026-01-03 01:17:40.79	287.81	24.28	-35.3	-36.5	18.8	0.00e+00	0	57	0	422576128	42	4080
2026-01-03 01:17:41.80	287.54	24.23	-35.2	-36.5	18.8	0.00e+00	0	57	0	425721856	42	4068
2026-01-03 01:17:42.81	287.27	24.18	-35.3	-36.5	18.7	0.00e+00	0	57	0	428867584	42	4090
2026-01-03 01:17:43.82	287.00	24.13	-35.4	-36.6	18.7	0.00e+00	0	57	0	432013312	42	4145
2026-01-03 01:17:44.83	286.73	24.08	-35.5	-36.7	18.6	0.00e+00	0	57	0	435159040	42	4184
2026-01-03 01:17:45.84	286.46	24.02	-35.5	-36.8	18.5	0.00e+00	0	57	0	438304768	42	4229
2026-01-03 01:17:46.85	286.19	23.97	-35.5	-36.8	18.5	0.00e+00	0	57	0	441450496	42	4201
2026-01-03 01:17:47.86	285.92	23.91	-35.5	-36.8	18.5	0.00e+00	0	57	0	444596224	42	4203
2026-01-03 01:17:48.87	285.65	23.86	-35.5	-36.8	18.5	0.00e+00	0	57	0	447741952	42	4232
2026-01-03 01:17:49.88	285.39	23.80	-35.5	-36.8	18.4	0.00e+00	0	57	0	450887680	42	4236
2026-01-03 01:17:50.89	285.12	23.74	-35.6	-36.9	18.3	0.00e+00	0	57	0	455081984	42	4280
2026-01-03 01:17:51.90	284.86	23.69	-35.7	-37.0	18.3	0.00e+00	0	57	0	458227712	42	4308
2026-01-03 01:17:52.91	284.60	23.63	-35.6	-36.9	18.4	0.00e+00	0	57	0	461373440	42	4271
2026-01-03 01:17:53.92	284.33	23.57	-35.6	-36.8	18.5	0.00e+00	0	57	0	463470592	42	4241
2026-01-03 01:17:54.93	284.07	23.51	-35.6	-36.9	18.4	0.00e+00	0	57	0	466616320	42	4278
2026-01-03 01:17:55.94	283.81	23.45	-35.8	-37.1	18.3	0.00e+00	0	57	0	470810624	42	4358
2026-01-03 01:17:56.95	283.55	23.40	-35.8	-37.1	18.2	0.00e+00	0	57	0	473956352	42	4382
2026-01-03 01:17:57.96	283.30	23.34	-35.8	-37.1	18.2	0.00e+00	0	57	0	477102080	42	4380
2026-01-03 01:17:58.97	283.04	23.27	-35.7	-37.0	18.4	0.00e+00	0	57	0	480247808	42	4298
2026-01-03 01:17:59.98	282.78	23.21	-35.4	-36.7	18.6	0.00e+00	0	57	0	483393536	42	4181
2026-01-03 01:18:00.99	282.53	23.15	-35.5	-36.7	18.6	0.00e+00	0	57	0	486539264	42	4179
2026-01-03 01:18:02.00	282.27	23.09	-35.4	-36.6	18.7	0.00e+00	0	57	0	489684992	42	4135
2026-01-03 01:18:03.01	282.02	23.03	-35.4	-36.7	18.6	0.00e+00	0	57	0	492830720	42	4168
2026-01-03 01:18:04.02	281.77	22.97	-35.5	-36.8	18.5	0.00e+00	0	57	0	495976448	42	4236
2026-01-03 01:18:05.03	281.52	22.90	-35.4	-36.7	18.6	0.00e+00	0	57	0	499122176	42	4167
2026-01-03 01:18:06.04	281.27	22.84	-35.4	-36.7	18.7	0.00e+00	0	57	0	502267904	42	4156
2026-01-03 01:18:07.05	281.02	22.77	-35.5	-36.8	18.6	0.00e+00	0	57	0	505413632	42	4213
2026-01-03 01:18:08.06	280.77	22.71	-35.3	-36.6	18.8	0.00e+00	0	57	0	508559360	42	4121
2026-01-03 01:18:09.07	280.52	22.64	-35.2	-36.4	18.9	0.00e+00	0	57	0	511705088	42	4037
2026-01-03 01:18:10.08	280.28	22.58	-35.1	-36.3	19.0	0.00e+00	0	57	0	514850816	42	3993
2026-01-03 01:18:11.09	280.03	22.51	-34.9	-36.1	19.1	0.00e+00	0	57	0	517996544	41	4140
2026-01-03 01:18:12.10	279.79	22.45	-34.9	-36.1	19.2	0.00e+00	0	57	0	521142272	41	4120
2026-01-03 01:18:13.11	279.55	22.38	-35.0	-36.3	19.0	0.00e+00	0	57	0	524288000	41	4202
2026-01-03 01:18:14.12	279.30	22.31	-35.3	-36.5	18.8	0.00e+00	0	57	0	527433728	41	4330
2026-01-03 01:18:15.13	279.06	22.25	-35.5	-36.8	18.6	0.00e+00	0	57	0	530579456	41	4448
2026-01-03 01:18:16.14	278.82	22.18	-35.6	-36.9	18.4	0.00e+00	0	57	0	533725184	41	4524
2026-01-03 01:18:17.15	278.58	22.11	-35.7	-37.0	18.3	0.00e+00	0	57	0	536870912	41	4590
2026-01-03 01:18:18.17	278.34	22.04	-35.7	-37.0	18.4	0.00e+00	0	57	0	540016640	42	4310
2026-01-03 01:18:19.18	278.11	21.97	-35.5	-36.8	18.6	0.00e+00	0	57	0	543162368	42	4211
2026-01-03 01:18:20.19	277.87	21.90	-35.4	-36.7	18.7	0.00e+00	0	57	0	546308096	42	4148
2026-01-03 01:18:21.20	277.64	21.84	-35.4	-36.7	18.7	0.00e+00	0	57	0	549453824	42	4164
2026-01-03 01:18:22.21	277.40	21.77	-35.2	-36.5	18.8	0.00e+00	0	57	0	552599552	42	4068
2026-01-03 01:18:23.21	277.17	21.70	-35.2	-36.4	18.9	0.00e+00	0	57	0	555745280	42	4042
2026-01-03 01:18:24.22	276.94	21.63	-35.2	-36.4	18.9	0.00e+00	0	57	0	558891008	42	4026
2026-01-03 01:18:25.23	276.71	21.56	-35.2	-36.4	18.9	0.00e+00	0	57	0	562036736	42	4039
2026-01-03 01:18:26.24	276.48	21.48	-35.3	-36.6	18.8	0.00e+00	0	57	0	565182464	42	4100
2026-01-03 01:18:27.25	276.26	21.41	-35.4	-36.7	18.6	0.00e+00	0	57	0	568328192	42	4181
2026-01-03 01:18:28.26	276.03	21.34	-35.5	-36.8	18.5	0.00e+00	0	57	0	571473920	42	4238
2026-01-03 01:18:29.27	275.80	21.27	-35.6	-36.9	18.5	0.00e+00	0	57	0	574619648	42	4252
2026-01-03 01:18:30.28	275.58	21.20	-35.5	-36.8	18.5	0.00e+00	0	57	0	577765376	42	4229
2026-01-03 01:18:31.29	275.35	21.13	-35.6	-36.9	18.4	0.00e+00	0	57	0	580911104	42	4258
2026-01-03 01:18:32.30	275.13	21.05	-35.4	-36.7	18.6	0.00e+00	0	57	0	584056832	42	4182
2026-01-03 01:18:33.31	274.91	20.98	-35.6	-36.9	18.4	0.00e+00	0	57	0	587202560	42	4261
2026-01-03 01:18:34.32	274.69	20.91	-35.7	-37.0	18.4	0.00e+00	0	57	0	590348288	42	4299
2026-01-03 01:18:35.33	274.47	20.83	-35.7	-37.1	18.3	0.00e+00	0	57	0	593494016	42	4341
2026-01-03 01:18:36.34	274.25	20.76	-35.5	-36.8	18.5	0.00e+00	0	57	0	596639744	42	4204
2026-01-03 01:18:37.35	274.03	20.69	-35.4	-36.7	18.6	0.00e+00	0	57	0	599785472	42	4161
2026-01-03 01:18:38.36	273.82	20.61	-35.4	-36.6	18.7	0.00e+00	0	57	0	602931200	42	4138
2026-01-03 01:18:39.37	273.60	20.54	-35.3	-36.6	18.7	0.00e+00	0	57	0	606076928	42	4114
2026-01-03 01:18:40.38	273.39	20.47	-35.2	-36.5	18.8	0.00e+00	0	57	0	609222656	42	4068
2026-01-03 01:18:41.39	273.17	20.39	-35.3	-36.5	18.7	0.00e+00	0	57	0	612368384	42	4085
2026-01-03 01:18:42.40	272.96	20.32	-35.4	-36.7	18.6	0.00e+00	0	57	0	615514112	42	4156
2026-01-03 01:18:43.41	272.75	20.24	-35.6	-36.9	18.3	0.00e+00	0	57	0	618659840	42	4284
2026-01-03 01:18:44.42	272.54	20.17	-35.8	-37.2	18.1	0.00e+00	0	57	0	621805568	42	4416
2026-01-03 01:18:45.43	272.33	20.09	-35.9	-37.3	18.0	0.00e+00	0	57	0	624951296	42	4450
2026-01-03 01:18:46.44	272.12	20.02	-35.8	-37.2	18.1	0.00e+00	0	57	0	628097024	42	4413
2026-01-03 01:18:47.45	271.91	19.94	-35.7	-37.0	18.2	0.00e+00	0	57	0	631242752	42	4340
2026-01-03 01:18:48.46	271.71	19.86	-35.6	-36.9	18.3	0.00e+00	0	57	0	634388480	42	4283
2026-01-03 01:18:49.47	271.50	19.79	-35.6	-36.9	18.3	0.00e+00	0	57	0	637534208	42	4289
2026-01-03 01:18:50.48	271.30	19.71	-35.5	-36.8	18.5	0.00e+00	0	57	0	640679936	42	4219
2026-01-03 01:18:51.48	271.10	19.64	-35.3	-36.6	18.7	0.00e+00	0	57	0	643825664	42	4117
2026-01-03 01:18:52.50	270.89	19.56	-35.2	-36.5	18.8	0.00e+00	0	57	0	646971392	42	4075
2026-01-03 01:18:53.51	270.69	19.48	-35.3	-36.6	18.7	0.00e+00	0	57	0	650117120	42	4101
2026-01-03 01:18:54.52	270.49	19.41	-35.2	-36.4	18.9	0.00e+00	0	57	0	653262848	42	4026
2026-01-03 01:18:55.53	270.29	19.33	-35.2	-36.4	18.8	0.00e+00	0	57	0	656408576	42	4051
2026-01-03 01:18:56.54	270.09	19.25	-35.3	-36.6	18.7	0.00e+00	0	57	0	659554304	42	4108
2026-01-03 01:18:57.55	269.90	19.18	-35.4	-36.7	18.5	0.00e+00	0	57	0	662700032	42	4177
2026-01-03 01:18:58.56	269.70	19.10	-35.5	-36.8	18.3	0.00e+00	0	57	0	665845760	42	4216
2026-01-03 01:18:59.57	269.51	19.02	-35.6	-36.9	18.2	0.00e+00	0	57	0	668991488	42	4254
2026-01-03 01:19:00.58	269.31	18.94	-35.4	-36.7	18.4	0.00e+00	0	57	0	672137216	42	4152
2026-01-03 01:19:01.59	269.12	18.87	-35.3	-36.6	18.5	0.00e+00	0	57	0	675282944	42	4121
2026-01-03 01:19:02.60	268.93	18.79	-35.4	-36.7	18.4	0.00e+00	0	57	0	678428672	42	4186
2026-01-03 01:19:03.61	268.74	18.71	-35.6	-36.9	18.2	0.00e+00	0	57	0	681574400	42	4275
2026-01-03 01:19:04.62	268.55	18.63	-35.8	-37.1	18.1	0.00e+00	0	57	0	684720128	42	4363
2026-01-03 01:19:05.63	268.36	18.56	-35.9	-37.2	18.0	0.00e+00	0	57	0	687865856	42	4439
2026-01-03 01:19:06.64	268.17	18.48	-35.7	-37.1	18.1	0.00e+00	0	57	0	691011584	42	4357
2026-01-03 01:19:07.65	267.98	18.40	-35.6	-36.9	18.3	0.00e+00	0	57	0	694157312	42	4279
2026-01-03 01:19:08.66	267.79	18.32	-35.6	-36.9	18.3	0.00e+00	0	57	0	697303040	42	4266
2026-01-03 01:19:09.67	267.61	18.24	-35.6	-36.9	18.3	0.00e+00	0	57	0	700448768	42	4288
2026-01-03 01:19:10.67	267.43	18.17	-35.6	-36.9	18.3	0.00e+00	0	57	0	703594496	42	4253
2026-01-03 01:19:11.68	267.24	18.09	-35.6	-36.9	18.3	0.00e+00	0	57	0	706740224	42	4285
2026-01-03 01:19:12.70	267.06	18.01	-35.6	-36.9	18.3	0.00e+00	0	57	0	709885952	42	4280
2026-01-03 01:19:13.71	266.88	17.93	-35.8	-37.2	18.1	0.00e+00	0	57	0	713031680	42	4400
2026-01-03 01:19:14.71	266.70	17.85	-36.1	-37.5	17.8	0.00e+00	0	57	0	716177408	42	4558
2026-01-03 01:19:15.72	266.52	17.78	-36.2	-37.6	17.6	0.00e+00	0	57	0	719323136	42	4645
2026-01-03 01:19:16.73	266.34	17.70	-36.2	-37.6	17.6	0.00e+00	0	57	0	722468864	42	4637
2026-01-03 01:19:17.74	266.16	17.62	-36.2	-37.6	17.7	0.00e+00	0	57	0	725614592	43	4346
2026-01-03 01:19:18.75	265.99	17.54	-36.1	-37.5	17.7	0.00e+00	0	57	0	728760320	43	4334
2026-01-03 01:19:19.76	265.81	17.46	-35.9	-37.2	18.0	0.00e+00	0	57	0	731906048	43	4186
2026-01-03 01:19:20.77	265.63	17.38	-35.5	-36.8	18.4	0.00e+00	0	57	0	735051776	43	3990
2026-01-03 01:19:21.78	265.46	17.30	-35.4	-36.6	18.6	0.00e+00	0	57	0	738197504	42	4138
2026-01-03 01:19:22.79	265.29	17.23	-35.4	-36.6	18.5	0.00e+00	0	57	0	741343232	42	4145
2026-01-03 01:19:23.80	265.12	17.15	-35.4	-36.7	18.5	0.00e+00	0	57	0	744488960	42	4159
2026-01-03 01:19:24.81	264.94	17.07	-35.5	-36.8	18.4	0.00e+00	0	57	0	747634688	42	4198
2026-01-03 01:19:25.82	264.77	16.99	-35.6	-37.0	18.2	0.00e+00	0	57	0	750780416	42	4295
2026-01-03 01:19:26.83	264.60	16.91	-35.9	-37.3	17.9	0.00e+00	0	57	0	753926144	42	4466
2026-01-03 01:19:27.84	264.43	16.83	-36.2	-37.7	17.6	0.00e+00	0	57	0	757071872	43	4394
2026-01-03 01:19:28.84	264.27	16.76	-36.4	-37.8	17.4	0.00e+00	0	57	0	760217600	43	4490
2026-01-03 01:19:29.85	264.10	16.68	-36.3	-37.8	17.4	0.00e+00	0	57	0	763363328	43	4468
2026-01-03 01:19:30.86	263.94	16.60	-36.2	-37.7	17.6	0.00e+00	0	57	0	766509056	43	4394
2026-01-03 01:19:31.87	263.77	16.52	-36.1	-37.5	17.7	0.00e+00	0	57	0	769654784	43	4333
2026-01-03 01:19:32.88	263.61	16.44	-35.8	-37.2	18.1	0.00e+00	0	57	0	772800512	43	4154
2026-01-03 01:19:33.89	263.44	16.36	-35.7	-37.0	18.2	0.00e+00	0	57	0	776994816	43	4086
2026-01-03 01:19:34.91	263.28	16.28	-35.7	-37.1	18.1	0.00e+00	0	57	0	779091968	43	4112
2026-01-03 01:19:35.92	263.12	16.20	-35.8	-37.1	18.1	0.00e+00	0	57	0	782237696	43	4129
2026-01-03 01:19:36.93	262.96	16.13	-35.9	-37.3	17.8	0.00e+00	0	57	0	785383424	43	4216
2026-01-03 01:19:37.94	262.80	16.05	-36.2	-37.6	17.6	0.00e+00	0	57	0	788529152	43	4365
2026-01-03 01:19:38.95	262.64	15.97	-36.3	-37.8	17.4	0.00e+00	0	57	0	792723456	43	4457
2026-01-03 01:19:39.96	262.48	15.89	-36.5	-38.0	17.2	0.00e+00	0	57	0	795869184	43	4568
2026-01-03 01:19:40.97	262.32	15.81	-36.5	-38.0	17.2	0.00e+00	0	57	0	799014912	43	4592
2026-01-03 01:19:41.98	262.16	15.73	-36.5	-38.0	17.2	0.00e+00	0	57	0	801112064	43	4575
2026-01-03 01:19:42.99	262.01	15.66	-36.6	-38.1	17.2	0.00e+00	0	57	0	805306368	43	4609
2026-01-03 01:19:44.00	261.85	15.58	-36.6	-38.2	17.1	0.00e+00	0	57	0	808452096	43	4657
2026-01-03 01:19:45.00	261.70	15.50	-36.5	-38.0	17.2	0.00e+00	0	57	0	811597824	43	4560
2026-01-03 01:19:46.01	261.55	15.42	-36.4	-37.9	17.3	0.00e+00	0	57	0	814743552	43	4530
2026-01-03 01:19:47.02	261.40	15.34	-36.5	-37.9	17.2	0.00e+00	0	57	0	817889280	43	4539
2026-01-03 01:19:48.03	261.24	15.27	-36.3	-37.8	17.4	0.00e+00	0	57	0	821035008	43	4460
2026-01-03 01:19:49.04	261.09	15.19	-36.2	-37.7	17.5	0.00e+00	0	57	0	824180736	43	4409
2026-01-03 01:19:50.05	260.94	15.11	-36.3	-37.7	17.4	0.00e+00	0	57	0	827326464	43	4432
2026-01-03 01:19:51.06	260.79	15.03	-36.4	-37.9	17.3	0.00e+00	0	57	0	830472192	43	4529
2026-01-03 01:19:52.07	260.64	14.95	-36.5	-38.0	17.2	0.00e+00	0	57	0	833617920	43	4573
2026-01-03 01:19:53.08	260.50	14.88	-36.6	-38.1	17.1	0.00e+00	0	57	0	836763648	43	4634
2026-01-03 01:19:54.09	260.35	14.80	-37.0	-38.5	16.9	0.00e+00	0	57	0	839909376	44	4578
2026-01-03 01:19:55.10	260.20	14.72	-37.1	-38.7	16.7	0.00e+00	0	57	0	843055104	44	4682
2026-01-03 01:19:56.11	260.06	14.64	-37.1	-38.6	16.7	0.00e+00	0	57	0	846200832	44	4644
2026-01-03 01:19:57.12	259.91	14.56	-37.0	-38.5	16.8	0.00e+00	0	57	0	849346560	44	4595
2026-01-03 01:19:58.13	259.77	14.49	-36.9	-38.5	16.9	0.00e+00	0	57	0	852492288	44	4569
2026-01-03 01:19:59.14	259.63	14.41	-37.0	-38.5	16.8	0.00e+00	0	57	0	855638016	44	4596
2026-01-03 01:20:00.15	259.48	14.33	-36.7	-38.2	17.1	0.00e+00	0	57	0	858783744	44	4439
2026-01-03 01:20:01.16	259.34	14.25	-36.5	-38.0	17.3	0.00e+00	0	57	0	861929472	44	4298
2026-01-03 01:20:02.17	259.20	14.18	-36.4	-37.8	17.5	0.00e+00	0	57	0	865075200	44	4218
2026-01-03 01:20:03.18	259.06	14.10	-36.4	-37.9	17.4	0.00e+00	0	57	0	868220928	44	4253
2026-01-03 01:20:04.19	258.92	14.02	-36.5	-38.0	17.3	0.00e+00	0	57	0	871366656	44	4307
2026-01-03 01:20:05.20	258.78	13.95	-36.4	-37.9	17.4	0.00e+00	0	57	0	874512384	44	4257
2026-01-03 01:20:06.21	258.64	13.87	-36.5	-37.9	17.4	0.00e+00	0	57	0	877658112	44	4283
2026-01-03 01:20:07.22	258.51	13.79	-36.6	-38.1	17.2	0.00e+00	0	57	0	880803840	44	4343
2026-01-03 01:20:08.23	258.37	13.72	-36.7	-38.2	17.1	0.00e+00	0	57	0	883949568	44	4429
2026-01-03 01:20:09.24	258.24	13.64	-36.8	-38.3	16.9	0.00e+00	0	57	0	887095296	44	4491
2026-01-03 01:20:10.25	258.10	13.56	-37.0	-38.5	16.8	0.00e+00	0	57	0	890241024	44	4587
2026-01-03 01:20:11.26	257.97	13.49	-37.1	-38.7	16.6	0.00e+00	0	57	0	893386752	44	4703
2026-01-03 01:20:12.27	257.83	13.41	-37.2	-38.8	16.5	0.00e+00	0	57	0	896532480	45	4489
2026-01-03 01:20:13.28	257.70	13.33	-37.3	-39.0	16.3	0.00e+00	0	57	0	899678208	45	4564
2026-01-03 01:20:14.29	257.57	13.26	-37.3	-38.9	16.3	0.00e+00	0	57	0	902823936	45	4545
2026-01-03 01:20:15.30	257.43	13.18	-37.2	-38.9	16.4	0.00e+00	0	57	0	905969664	45	4499
2026-01-03 01:20:16.31	257.30	13.10	-37.2	-38.8	16.4	0.00e+00	0	57	0	909115392	45	4465
2026-01-03 01:20:17.32	257.17	13.03	-37.2	-38.9	16.4	0.00e+00	0	57	0	912261120	45	4497
2026-01-03 01:20:18.33	257.04	12.95	-37.0	-38.6	16.7	0.00e+00	0	57	0	915406848	45	4347
2026-01-03 01:20:19.34	256.92	12.88	-36.7	-38.2	17.0	0.00e+00	0	57	0	918552576	45	4173
2026-01-03 01:20:20.36	256.79	12.80	-36.6	-38.1	17.2	0.00e+00	0	57	0	921698304	45	4105
2026-01-03 01:20:21.37	256.66	12.72	-36.5	-38.0	17.2	0.00e+00	0	57	0	924844032	45	4076
2026-01-03 01:20:22.38	256.53	12.65	-36.6	-38.1	17.2	0.00e+00	0	57	0	927989760	45	4115
2026-01-03 01:20:23.39	256.41	12.57	-36.7	-38.2	17.0	0.00e+00	0	57	0	931135488	45	4183
2026-01-03 01:20:24.40	256.28	12.50	-36.8	-38.4	16.9	0.00e+00	0	57	0	934281216	45	4244
2026-01-03 01:20:25.41	256.15	12.42	-37.0	-38.5	16.7	0.00e+00	0	57	0	937426944	45	4328
2026-01-03 01:20:26.42	256.03	12.35	-37.0	-38.6	16.7	0.00e+00	0	57	0	940572672	45	4373
2026-01-03 01:20:27.43	255.91	12.27	-37.1	-38.6	16.6	0.00e+00	0	57	0	943718400	45	4390
2026-01-03 01:20:28.44	255.78	12.20	-37.2	-38.8	16.5	0.00e+00	0	57	0	946864128	45	4457
2026-01-03 01:20:29.45	255.66	12.12	-37.2	-38.8	16.4	0.00e+00	0	57	0	950009856	45	4481
2026-01-03 01:20:30.45	255.54	12.05	-37.2	-38.9	16.4	0.00e+00	0	57	0	953155584	45	4507
2026-01-03 01:20:31.46	255.42	11.97	-37.3	-38.9	16.4	0.00e+00	0	57	0	956301312	45	4520
2026-01-03 01:20:32.48	255.30	11.90	-37.2	-38.8	16.4	0.00e+00	0	57	0	959447040	45	4483
2026-01-03 01:20:33.49	255.18	11.82	-37.2	-38.8	16.4	0.00e+00	0	57	0	962592768	45	4463
2026-01-03 01:20:34.50	255.06	11.75	-37.2	-38.8	16.4	0.00e+00	0	57	0	965738496	45	4463
2026-01-03 01:20:35.51	254.94	11.67	-37.1	-38.8	16.4	0.00e+00	0	57	0	968884224	45	4449
2026-01-03 01:20:36.52	254.82	11.60	-37.1	-38.7	16.5	0.00e+00	0	57	0	972029952	45	4429
2026-01-03 01:20:37.53	254.70	11.53	-36.9	-38.4	16.8	0.00e+00	0	57	0	975175680	45	4286
2026-01-03 01:20:38.54	254.59	11.45	-36.8	-38.4	16.8	0.00e+00	0	57	0	978321408	45	4249
2026-01-03 01:20:39.55	254.47	11.38	-36.8	-38.4	16.8	0.00e+00	0	57	0	981467136	45	4252
2026-01-03 01:20:40.56	254.36	11.30	-36.8	-38.4	16.8	0.00e+00	0	57	0	984612864	45	4251
2026-01-03 01:20:41.56	254.24	11.23	-36.9	-38.5	16.7	0.00e+00	0	57	0	987758592	45	4297
2026-01-03 01:20:42.58	254.13	11.16	-37.0	-38.6	16.6	0.00e+00	0	57	0	990904320	45	4357
2026-01-03 01:20:43.59	254.01	11.08	-37.2	-38.8	16.5	0.00e+00	0	57	0	994050048	45	4450
2026-01-03 01:20:44.60	253.90	11.01	-37.3	-39.0	16.3	0.00e+00	0	57	0	997195776	45	4562
2026-01-03 01:20:45.61	253.79	10.94	-37.4	-39.1	16.1	0.00e+00	0	57	0	1000341504	45	4642
2026-01-03 01:20:46.62	253.67	10.86	-37.6	-39.3	16.0	0.00e+00	0	57	0	1003487232	45	4726
2026-01-03 01:20:47.62	253.56	10.79	-37.6	-39.3	15.9	0.00e+00	0	57	0	1006632960	45	4741
2026-01-03 01:20:48.63	253.45	10.72	-37.6	-39.3	15.9	0.00e+00	0	57	0	1009778688	45	4726
2026-01-03 01:20:49.64	253.34	10.65	-37.6	-39.3	15.8	0.00e+00	0	57	0	1012924416	45	4756
2026-01-03 01:20:50.65	253.23	10.57	-37.5	-39.3	15.9	0.00e+00	0	57	0	1016070144	45	4715
2026-01-03 01:20:51.66	253.12	10.50	-37.5	-39.2	15.9	0.00e+00	0	57	0	1019215872	45	4697
2026-01-03 01:20:52.67	253.01	10.43	-37.4	-39.1	16.0	0.00e+00	0	57	0	1022361600	45	4638
2026-01-03 01:20:53.68	252.91	10.36	-37.5	-39.2	15.9	0.00e+00	0	57	0	1025507328	45	4664
2026-01-03 01:20:54.69	252.80	10.28	-37.2	-38.9	16.2	0.00e+00	0	57	0	1028653056	45	4526
2026-01-03 01:20:55.70	252.69	10.21	-37.1	-38.7	16.3	0.00e+00	0	57	0	1031798784	45	4440
2026-01-03 01:20:56.71	252.58	10.14	-37.1	-38.7	16.3	0.00e+00	0	57	0	1034944512	45	4433
2026-01-03 01:20:57.72	252.48	10.07	-37.1	-38.7	16.3	0.00e+00	0	57	0	1038090240	45	4430
2026-01-03 01:20:58.73	252.37	10.00	-37.0	-38.6	16.5	0.00e+00	0	57	0	1041235968	45	4370
2026-01-03 01:20:59.74	252.27	9.92	-36.9	-38.5	16.6	0.00e+00	0	57	0	1044381696	45	4317
2026-01-03 01:21:00.75	252.16	9.85	-36.9	-38.5	16.6	0.00e+00	0	57	0	1047527424	45	4324
2026-01-03 01:21:01.76	252.06	9.78	-37.1	-38.7	16.4	0.00e+00	0	57	0	1050673152	45	4401
2026-01-03 01:21:02.77	251.96	9.71	-37.1	-38.7	16.4	0.00e+00	0	57	0	1053818880	45	4432
2026-01-03 01:21:03.78	251.85	9.64	-37.2	-38.8	16.3	0.00e+00	0	57	0	1056964608	45	4493
2026-01-03 01:21:04.78	251.75	9.57	-37.3	-39.0	16.2	0.00e+00	0	57	0	1060110336	45	4562
2026-01-03 01:21:05.79	251.65	9.50	-37.5	-39.2	15.9	0.00e+00	0	57	0	1063256064	45	4667
2026-01-03 01:21:06.80	251.55	9.43	-37.6	-39.3	15.8	0.00e+00	0	57	0	1066401792	45	4759
2026-01-03 01:21:07.81	251.45	9.36	-37.8	-39.5	15.6	0.00e+00	0	57	0	1069547520	46	4591
2026-01-03 01:21:08.82	251.35	9.29	-37.8	-39.6	15.6	0.00e+00	0	57	0	1072693248	46	4619
2026-01-03 01:21:09.83	251.25	9.21	-37.9	-39.7	15.5	0.00e+00	0	57	0	1075838976	46	4668
2026-01-03 01:21:10.84	251.15	9.14	-37.9	-39.7	15.4	0.00e+00	0	57	0	1078984704	46	4701
2026-01-03 01:21:11.85	251.05	9.07	-38.0	-39.8	15.3	0.00e+00	0	57	0	1082130432	46	4746
2026-01-03 01:21:12.85	250.95	9.00	-38.1	-40.0	15.2	0.00e+00	0	57	0	1085276160	46	4818
2026-01-03 01:21:13.87	250.85	8.93	-37.9	-39.7	15.4	0.00e+00	0	57	0	1088421888	46	4672
2026-01-03 01:21:14.88	250.75	8.86	-37.8	-39.7	15.4	0.00e+00	0	57	0	1091567616	46	4661
2026-01-03 01:21:15.89	250.66	8.79	-37.7	-39.5	15.5	0.00e+00	0	57	0	1094713344	46	4594
2026-01-03 01:21:16.90	250.56	8.72	-37.7	-39.5	15.5	0.00e+00	0	57	0	1097859072	46	4566
2026-01-03 01:21:17.91	250.46	8.65	-37.7	-39.5	15.5	0.00e+00	0	57	0	1101004800	46	4595
2026-01-03 01:21:18.92	250.37	8.59	-37.5	-39.3	15.7	0.00e+00	0	57	0	1104150528	46	4456
2026-01-03 01:21:19.93	250.27	8.52	-37.4	-39.2	15.9	0.00e+00	0	57	0	1107296256	46	4402
2026-01-03 01:21:20.94	250.18	8.45	-37.4	-39.1	15.9	0.00e+00	0	57	0	1111490560	46	4378
2026-01-03 01:21:21.95	250.08	8.38	-37.5	-39.2	15.8	0.00e+00	0	57	0	1114636288	46	4412
2026-01-03 01:21:22.96	249.99	8.31	-37.4	-39.2	15.8	0.00e+00	0	57	0	1116733440	46	4393
2026-01-03 01:21:23.97	249.90	8.24	-37.5	-39.2	15.8	0.00e+00	0	57	0	1119879168	46	4413
2026-01-03 01:21:24.98	249.80	8.17	-37.4	-39.1	15.9	0.00e+00	0	57	0	1123024896	46	4390
2026-01-03 01:21:25.99	249.71	8.10	-37.4	-39.1	16.0	0.00e+00	0	57	0	1127219200	46	4345
2026-01-03 01:21:27.00	249.62	8.03	-37.5	-39.2	15.8	0.00e+00	0	57	0	1130364928	46	4415
2026-01-03 01:21:28.01	249.53	7.97	-44.4	-56.6	3.8	1.00e+00	0	57	104	1131413504	59	15457
2026-01-03 01:21:29.02	249.44	7.90	-44.7	-56.8	3.8	1.49e+00	0	57	104	1131413504	59	15903
2026-01-03 01:21:30.03	249.35	7.83	-44.7	-57.1	3.8	1.49e+00	0	57	104	1131413504	60	15487
2026-01-03 01:21:31.04	249.26	7.76	-44.9	-57.2	3.8	1.49e+00	0	57	104	1131413504	60	15581
2026-01-03 01:21:32.05	249.17	7.69	-44.9	-57.3	3.8	1.49e+00	0	57	104	1131413504	60	15804
2026-01-03 01:21:33.06	249.08	7.62	-45.0	-57.3	3.8	1.49e+00	0	57	104	1131413504	60	15894
2026-01-03 01:21:34.07	248.99	7.56	-45.1	-57.4	3.8	1.49e+00	0	57	104	1131413504	60	16033
2026-01-03 01:21:35.08	248.90	7.49	-45.1	-57.4	3.8	1.49e+00	0	57	104	1131413504	60	16060
2026-01-03 01:21:36.09	248.81	7.42	-45.1	-57.4	3.8	1.49e+00	0	57	104	1131413504	60	16074
2026-01-03 01:21:37.10	248.72	7.35	-45.1	-57.4	3.8	1.49e+00	0	57	104	1131413504	60	16120
2026-01-03 01:21:38.11	248.64	7.29	-45.1	-57.4	3.8	1.49e+00	0	57	104	1131413504	60	16101
2026-01-03 01:21:39.12	248.55	7.22	-45.1	-57.4	3.8	1.49e+00	0	57	104	1131413504	60	15955
2026-01-03 01:21:40.13	248.46	7.15	-45.0	-57.3	3.8	1.49e+00	0	57	104	1131413504	60	15875
2026-01-03 01:21:41.14	248.38	7.09	-45.0	-57.3	3.8	1.49e+00	0	57	104	1131413504	60	15907
2026-01-03 01:21:42.16	248.29	7.02	-45.0	-57.3	3.8	1.49e+00	0	57	104	1131413504	60	15885
2026-01-03 01:21:43.17	248.21	6.95	-45.0	-57.3	3.8	1.49e+00	0	58	104	1131413504	60	15914
2026-01-03 01:21:44.17	248.12	6.89	-45.0	-57.3	3.8	1.49e+00	0	57	104	1131413504	60	15904
2026-01-03 01:21:45.19	248.04	6.82	-45.0	-57.3	3.8	1.49e+00	0	57	104	1131413504	60	15910
2026-01-03 01:21:46.20	247.95	6.75	-45.0	-57.3	3.8	1.49e+00	0	58	104	1131413504	60	15823
2026-01-03 01:21:47.21	247.87	6.69	-45.0	-57.3	3.8	1.49e+00	0	58	104	1131413504	60	15866
2026-01-03 01:21:48.22	247.78	6.62	-45.0	-57.3	3.8	1.49e+00	0	58	104	1131413504	60	15790
2026-01-03 01:21:49.23	247.70	6.55	-45.0	-57.3	3.8	1.49e+00	0	57	104	1131413504	60	15823
2026-01-03 01:21:50.24	247.62	6.49	-45.0	-57.3	3.8	1.49e+00	0	57	104	1131413504	60	15874
2026-01-03 01:21:51.25	247.54	6.42	-45.0	-57.3	3.8	1.49e+00	0	57	104	1131413504	60	15772
2026-01-03 01:21:52.26	247.46	6.36	-45.0	-57.3	3.8	1.49e+00	0	58	104	1131413504	60	15864
2026-01-03 01:21:53.27	247.37	6.29	-45.0	-57.3	3.8	1.49e+00	0	57	104	1131413504	60	15863
2026-01-03 01:21:54.28	247.29	6.23	-45.0	-57.3	3.8	1.49e+00	0	58	104	1131413504	60	15848
2026-01-03 01:21:55.29	247.21	6.16	-45.0	-57.3	3.8	1.49e+00	0	58	104	1131413504	60	15856
2026-01-03 01:21:56.30	247.13	6.09	-45.0	-57.2	3.8	1.49e+00	0	57	104	1131413504	60	15737
2026-01-03 01:21:57.31	247.05	6.03	-45.0	-57.3	3.8	1.49e+00	0	57	104	1131413504	60	15820
2026-01-03 01:21:58.32	246.97	5.96	-45.0	-57.3	3.8	1.49e+00	0	57	104	1131413504	60	15784
2026-01-03 01:21:59.34	246.89	5.90	-45.0	-57.3	3.8	1.49e+00	0	57	104	1131413504	60	15846
2026-01-03 01:22:00.35	246.81	5.83	-45.0	-57.3	3.8	1.49e+00	0	57	104	1131413504	60	15831
2026-01-03 01:22:01.36	246.74	5.77	-45.0	-57.3	3.8	1.49e+00	0	57	104	1131413504	60	15818
2026-01-03 01:22:02.37	246.66	5.71	-45.0	-57.3	3.8	1.49e+00	0	57	104	1131413504	60	15773
2026-01-03 01:22:03.38	246.58	5.64	-45.0	-57.3	3.8	1.49e+00	0	58	104	1131413504	60	15779
2026-01-03 01:22:04.39	246.50	5.58	-45.0	-57.3	3.8	1.49e+00	0	58	104	1131413504	60	15820
2026-01-03 01:22:05.40	246.43	5.51	-45.0	-57.3	3.8	1.49e+00	0	57	104	1131413504	60	15764
2026-01-03 01:22:06.41	246.35	5.45	-45.0	-57.3	3.8	1.49e+00	0	57	104	1131413504	60	15812
2026-01-03 01:22:07.42	246.27	5.38	-45.0	-57.3	3.8	1.49e+00	0	58	104	1131413504	60	15810
2026-01-03 01:22:08.44	246.20	5.32	-45.0	-57.3	3.8	1.49e+00	0	57	104	1131413504	60	15775
2026-01-03 01:22:09.45	246.12	5.26	-45.0	-57.2	3.8	1.49e+00	0	58	104	1131413504	60	15729
2026-01-03 01:22:10.46	246.04	5.19	-45.0	-57.2	3.8	1.49e+00	0	58	104	1131413504	60	15754
2026-01-03 01:22:11.47	245.97	5.13	-45.0	-57.3	3.8	1.49e+00	0	58	104	1131413504	60	15765
2026-01-03 01:22:12.48	245.89	5.06	-45.0	-57.3	3.8	1.49e+00	0	57	104	1131413504	60	15809
2026-01-03 01:22:13.49	245.82	5.00	-45.0	-57.2	3.8	1.49e+00	0	57	104	1131413504	60	15744
2026-01-03 01:22:14.50	245.75	4.94	-45.0	-57.3	3.8	1.49e+00	0	58	104	1131413504	60	15787
2026-01-03 01:22:15.51	245.67	4.87	-45.0	-57.2	3.8	1.49e+00	0	58	104	1131413504	60	15743
2026-01-03 01:22:16.52	245.60	4.81	-45.0	-57.3	3.8	1.49e+00	0	58	104	1131413504	60	15798
2026-01-03 01:22:17.53	245.53	4.75	-45.0	-57.3	3.8	1.49e+00	0	58	104	1131413504	60	15801
2026-01-03 01:22:18.54	245.45	4.69	-45.0	-57.2	3.8	1.49e+00	0	57	104	1131413504	60	15747
2026-01-03 01:22:19.56	245.38	4.62	-44.9	-57.3	3.8	1.49e+00	0	58	104	1131413504	60	15767
2026-01-03 01:22:20.57	245.31	4.56	-45.0	-57.3	3.8	1.49e+00	0	58	104	1131413504	60	15815
2026-01-03 01:22:21.58	245.24	4.50	-45.0	-57.2	3.8	1.49e+00	0	58	104	1131413504	60	15750
2026-01-03 01:22:22.59	245.17	4.43	-45.0	-57.3	3.8	1.49e+00	0	57	104	1131413504	60	15787
2026-01-03 01:22:23.60	245.09	4.37	-45.0	-57.2	3.8	1.49e+00	0	58	104	1131413504	60	15750
2026-01-03 01:22:24.61	245.02	4.31	-45.0	-57.3	3.8	1.49e+00	0	57	104	1131413504	60	15781
2026-01-03 01:22:25.62	244.95	4.25	-45.0	-57.3	3.8	1.49e+00	0	58	104	1131413504	60	15763
2026-01-03 01:22:26.63	244.88	4.19	-45.0	-57.3	3.8	1.49e+00	0	57	104	1131413504	60	15770
2026-01-03 01:22:27.64	244.81	4.12	-45.0	-57.3	3.8	1.49e+00	0	57	104	1131413504	60	15781
2026-01-03 01:22:28.65	244.74	4.06	-45.0	-57.3	3.8	1.49e+00	0	57	104	1131413504	60	15799
2026-01-03 01:22:29.67	244.67	4.00	-45.0	-57.3	3.8	1.49e+00	0	58	104	1131413504	60	15796
2026-01-03 01:22:30.68	244.61	3.94	-45.0	-57.3	3.8	1.49e+00	0	57	104	1131413504	60	15806
2026-01-03 01:22:31.69	244.54	3.88	-45.0	-57.2	3.8	1.49e+00	0	58	104	1131413504	60	15751
2026-01-03 01:22:32.70	244.47	3.81	-45.0	-57.3	3.8	1.49e+00	0	57	104	1131413504	60	15766
2026-01-03 01:22:33.71	244.40	3.75	-45.0	-57.3	3.8	1.49e+00	0	58	104	1131413504	60	15784
2026-01-03 01:22:34.72	244.33	3.69	-45.0	-57.3	3.8	1.49e+00	0	58	104	1131413504	60	15791
2026-01-03 01:22:35.73	244.27	3.63	-45.0	-57.2	3.8	1.49e+00	0	58	104	1131413504	60	15757
2026-01-03 01:22:36.74	244.20	3.57	-45.0	-57.2	3.8	1.49e+00	0	58	104	1131413504	60	15678
2026-01-03 01:22:37.76	244.13	3.51	-45.0	-57.2	3.8	1.49e+00	0	58	104	1131413504	60	15744
2026-01-03 01:22:38.77	244.06	3.45	-45.0	-57.2	3.8	1.49e+00	0	58	104	1131413504	60	15748
2026-01-03 01:22:39.78	244.00	3.39	-44.9	-57.2	3.8	1.49e+00	0	58	104	1131413504	60	15754
2026-01-03 01:22:40.79	243.93	3.33	-44.9	-57.2	3.8	1.49e+00	0	58	104	1131413504	60	15738
2026-01-03 01:22:41.80	243.87	3.27	-45.0	-57.2	3.8	1.49e+00	0	58	104	1131413504	60	15725
2026-01-03 01:22:42.81	243.80	3.21	-45.0	-57.3	3.8	1.49e+00	0	57	104	1131413504	60	15813
2026-01-03 01:22:43.82	243.74	3.15	-45.0	-57.3	3.8	1.49e+00	0	57	104	1131413504	60	15783
2026-01-03 01:22:44.83	243.67	3.08	-44.9	-57.3	3.8	1.49e+00	0	58	104	1131413504	60	15763
2026-01-03 01:22:45.84	243.61	3.02	-45.0	-57.2	3.8	1.49e+00	0	57	104	1131413504	60	15734
2026-01-03 01:22:46.85	243.54	2.96	-45.0	-57.2	3.8	1.49e+00	0	57	104	1131413504	60	15704
2026-01-03 01:22:47.86	243.48	2.90	-44.9	-57.2	3.8	1.49e+00	0	58	104	1131413504	60	15707
2026-01-03 01:22:48.88	243.41	2.84	-45.0	-57.3	3.8	1.49e+00	0	58	104	1131413504	60	15773
2026-01-03 01:22:49.89	243.35	2.78	-45.0	-57.2	3.8	1.49e+00	0	58	104	1131413504	60	15712
2026-01-03 01:22:50.90	243.29	2.72	-44.9	-57.2	3.8	1.49e+00	0	57	104	1131413504	60	15752
2026-01-03 01:22:51.91	243.22	2.67	-44.9	-57.2	3.8	1.49e+00	0	58	104	1131413504	60	15743
2026-01-03 01:22:52.92	243.16	2.61	-45.0	-57.3	3.8	1.49e+00	0	58	104	1131413504	60	15764
2026-01-03 01:22:53.93	243.10	2.55	-45.0	-57.2	3.8	1.49e+00	0	57	104	1131413504	60	15750
2026-01-03 01:22:54.94	243.04	2.49	-44.9	-57.2	3.8	1.49e+00	0	58	104	1131413504	60	15718
2026-01-03 01:22:55.95	242.97	2.43	-45.0	-57.2	3.8	1.49e+00	0	57	104	1131413504	60	15704
2026-01-03 01:22:56.96	242.91	2.37	-45.0	-57.3	3.8	1.49e+00	0	58	104	1131413504	60	15786
2026-01-03 01:22:57.98	242.85	2.31	-45.0	-57.2	3.8	1.49e+00	0	57	104	1131413504	60	15746
2026-01-03 01:22:58.99	242.79	2.25	-44.9	-57.3	3.8	1.49e+00	0	58	104	1131413504	60	15776
2026-01-03 01:23:00.00	242.73	2.19	-45.0	-57.3	3.8	1.49e+00	0	58	104	1131413504	60	15805
2026-01-03 01:23:01.01	242.67	2.13	-45.0	-57.3	3.8	1.49e+00	0	57	104	1131413504	60	15774
2026-01-03 01:23:02.02	242.61	2.07	-45.0	-57.3	3.8	1.49e+00	0	58	104	1131413504	60	15789
2026-01-03 01:23:03.03	242.55	2.02	-45.0	-57.2	3.8	1.49e+00	0	57	104	1131413504	60	15689
2026-01-03 01:23:04.04	242.49	1.96	-45.0	-57.3	3.8	1.49e+00	0	58	104	1131413504	60	15803
2026-01-03 01:23:05.05	242.43	1.90	-44.9	-57.2	3.8	1.49e+00	0	58	104	1131413504	60	15721

#Closed at: 2026-01-03 01:23:05
#Recorded file [1131 MB]: D:/lorett/data/31039_260103_041436.dat