passes_logs/2026/01/03/R2.0S_Moscow/R2.0S_Moscow__20260103_122753_AQUA_rec.log

#Pass ID: 20260103_122753_AQUA
#Satellite: AQUA
#Configuration: AQUA
#almurnet v.1.7.20251203
#Start time: 2026-01-03 12:27:53

#Version: 2.2.20231116
#Station: R2.0S_Moscow
#Location: 37.707566 lon 55.798166 lat
#TLE: 1 27424U 02022A   25365.92641127  .00002078  00000+0  42628-3 0  9999
#TLE: 2 27424  98.4058 327.1196 0001962  94.7781 340.6230 14.61783896258835

#Time	Az	El	Level	Level2	SNR	BER	BlckErr	Temp	State	Recorded	gain1	gain2
2026-01-03 12:27:53.69	187.20	2.02	-44.7	-63.6	3.8	7.44e-01	0	47	0	0	61	30880
2026-01-03 12:27:54.69	187.25	2.08	-44.7	-63.6	3.8	7.47e-01	0	47	104	0	60	32691
2026-01-03 12:27:55.70	187.30	2.14	-44.7	-63.6	3.8	7.46e-01	0	47	104	0	60	32734
2026-01-03 12:27:56.71	187.35	2.21	-44.7	-63.6	3.8	7.46e-01	0	47	104	0	60	32690
2026-01-03 12:27:57.72	187.40	2.27	-44.7	-63.6	3.8	7.48e-01	0	47	104	0	60	32695
2026-01-03 12:27:58.73	187.45	2.34	-44.7	-63.6	3.8	7.47e-01	0	47	104	0	60	32637
2026-01-03 12:27:59.74	187.50	2.40	-44.7	-63.6	3.8	7.43e-01	0	48	104	0	60	32698
2026-01-03 12:28:00.75	187.54	2.47	-44.7	-63.6	3.8	7.46e-01	0	48	104	0	60	32670
2026-01-03 12:28:01.76	187.59	2.53	-44.7	-63.6	3.8	7.46e-01	0	48	104	0	60	32712
2026-01-03 12:28:02.78	187.64	2.60	-44.7	-63.6	3.8	7.49e-01	0	48	104	0	60	32680
2026-01-03 12:28:03.79	187.69	2.67	-44.7	-63.6	3.8	7.43e-01	0	48	104	0	60	32691
2026-01-03 12:28:04.80	187.74	2.73	-44.7	-63.6	3.8	7.46e-01	0	48	104	0	60	32668
2026-01-03 12:28:05.81	187.80	2.80	-44.7	-63.6	3.8	7.43e-01	0	48	104	0	60	32659
2026-01-03 12:28:06.82	187.85	2.86	-44.7	-63.6	3.8	7.47e-01	0	48	104	0	60	32689
2026-01-03 12:28:07.83	187.90	2.93	-44.7	-63.6	3.8	7.44e-01	0	48	104	0	60	32692
2026-01-03 12:28:08.84	187.95	3.00	-44.7	-63.6	3.8	7.43e-01	0	48	104	0	60	32822
2026-01-03 12:28:09.85	188.00	3.06	-44.7	-63.6	3.8	7.43e-01	0	48	104	0	60	32686
2026-01-03 12:28:10.86	188.05	3.13	-44.7	-63.6	3.8	7.45e-01	0	48	104	0	60	32649
2026-01-03 12:28:11.87	188.10	3.20	-44.7	-63.6	3.8	7.43e-01	0	49	104	0	60	32739
2026-01-03 12:28:12.88	188.16	3.26	-44.7	-63.6	3.8	7.44e-01	0	49	104	0	60	32722
2026-01-03 12:28:13.90	188.21	3.33	-44.7	-63.6	3.8	7.44e-01	0	49	104	0	60	32658
2026-01-03 12:28:14.91	188.26	3.40	-44.7	-63.6	3.8	7.44e-01	0	49	104	0	60	32681
2026-01-03 12:28:15.92	188.31	3.47	-44.7	-63.6	3.8	7.45e-01	0	49	104	0	60	32768
2026-01-03 12:28:16.93	188.37	3.53	-44.7	-63.6	3.8	7.47e-01	0	49	104	0	60	32806
2026-01-03 12:28:17.94	188.42	3.60	-44.7	-63.6	3.8	7.48e-01	0	49	104	0	60	32573
2026-01-03 12:28:18.95	188.48	3.67	-44.7	-63.5	3.8	7.42e-01	0	49	104	0	60	32489
2026-01-03 12:28:19.96	188.53	3.74	-44.7	-63.6	3.8	7.44e-01	0	49	104	0	60	32594
2026-01-03 12:28:20.97	188.58	3.81	-44.7	-63.5	3.8	7.49e-01	0	49	104	0	60	32545
2026-01-03 12:28:21.98	188.64	3.87	-44.7	-63.5	3.8	7.47e-01	0	49	104	0	60	32503
2026-01-03 12:28:23.00	188.69	3.94	-44.7	-63.6	3.8	7.47e-01	0	49	104	0	60	32672
2026-01-03 12:28:24.01	188.75	4.01	-44.7	-63.5	3.8	7.45e-01	0	49	104	0	60	32375
2026-01-03 12:28:25.02	188.80	4.08	-44.7	-63.4	3.8	7.45e-01	0	49	104	0	60	31999
2026-01-03 12:28:26.03	188.86	4.15	-44.7	-63.5	3.8	7.45e-01	0	49	104	0	60	32275
2026-01-03 12:28:27.04	188.92	4.22	-44.7	-63.5	3.8	7.46e-01	0	50	104	0	60	32497
2026-01-03 12:28:28.05	188.97	4.29	-44.7	-63.6	3.8	7.42e-01	0	49	104	0	60	32699
2026-01-03 12:28:29.06	189.03	4.36	-44.7	-63.5	3.8	7.44e-01	0	50	104	0	60	32538
2026-01-03 12:28:30.07	189.08	4.43	-44.7	-63.5	3.8	7.44e-01	0	50	104	0	60	32494
2026-01-03 12:28:31.08	189.14	4.50	-44.7	-63.4	3.8	7.46e-01	0	49	104	0	60	31913
2026-01-03 12:28:32.10	189.20	4.57	-44.7	-63.0	3.8	7.47e-01	0	50	104	0	60	30705
2026-01-03 12:28:33.11	189.26	4.64	-44.7	-63.0	3.8	7.43e-01	0	50	104	0	60	30450
2026-01-03 12:28:34.12	189.31	4.71	-44.7	-62.8	3.8	7.46e-01	0	50	104	0	60	29852
2026-01-03 12:28:35.13	189.37	4.78	-44.7	-62.2	3.8	7.46e-01	0	50	104	0	60	27783
2026-01-03 12:28:36.14	189.43	4.85	-44.7	-61.9	3.8	7.44e-01	0	50	104	0	60	26811
2026-01-03 12:28:37.15	189.49	4.93	-44.7	-61.3	3.9	7.41e-01	0	50	104	0	60	25145
2026-01-03 12:28:38.16	189.55	5.00	-44.7	-60.9	3.9	7.42e-01	0	50	104	0	60	24106
2026-01-03 12:28:39.17	189.61	5.07	-44.7	-60.3	4.1	7.37e-01	0	50	104	0	60	22398
2026-01-03 12:28:40.18	189.67	5.14	-44.6	-59.6	4.2	7.31e-01	0	50	104	0	60	20706
2026-01-03 12:28:41.19	189.73	5.21	-44.6	-59.5	4.3	7.45e-01	0	50	104	0	60	20448
2026-01-03 12:28:42.21	189.79	5.29	-44.6	-58.7	4.7	7.18e-01	0	50	104	0	60	18662
2026-01-03 12:28:43.22	189.85	5.36	-44.6	-59.4	4.3	7.41e-01	0	50	104	0	60	20197
2026-01-03 12:28:44.23	189.91	5.43	-44.6	-59.0	4.6	7.22e-01	0	50	104	0	60	19288
2026-01-03 12:28:45.24	189.97	5.50	-44.6	-59.4	4.5	7.39e-01	0	50	104	0	60	20182
2026-01-03 12:28:46.25	190.03	5.58	-44.6	-59.4	4.4	7.42e-01	0	51	104	0	60	20073
2026-01-03 12:28:47.26	190.10	5.65	-44.6	-59.7	4.4	7.29e-01	0	51	104	0	60	20895
2026-01-03 12:28:48.27	190.16	5.72	-44.7	-60.7	4.0	7.38e-01	0	51	104	0	60	23489
2026-01-03 12:28:49.28	190.22	5.80	-44.7	-60.4	4.1	7.38e-01	0	51	104	0	60	22692
2026-01-03 12:28:50.29	190.28	5.87	-44.7	-61.4	3.8	7.42e-01	0	51	104	0	60	25269
2026-01-03 12:28:51.30	190.35	5.94	-44.7	-62.1	3.8	7.47e-01	0	51	104	0	60	27550
2026-01-03 12:28:52.32	190.41	6.02	-44.7	-62.3	3.8	7.46e-01	0	51	104	0	60	28351
2026-01-03 12:28:53.33	190.47	6.09	-44.7	-62.1	3.8	7.44e-01	0	51	104	0	60	27661
2026-01-03 12:28:54.34	190.54	6.17	-44.7	-62.0	3.8	7.42e-01	0	51	104	0	60	27217
2026-01-03 12:28:55.35	190.60	6.24	-44.7	-62.0	3.8	7.42e-01	0	51	104	0	60	27226
2026-01-03 12:28:56.36	190.67	6.32	-44.7	-61.5	3.8	7.41e-01	0	51	104	0	60	25663
2026-01-03 12:28:57.37	190.73	6.39	-44.7	-61.1	4.0	7.42e-01	0	51	104	0	60	24431
2026-01-03 12:28:58.38	190.80	6.47	-44.7	-61.3	3.9	7.41e-01	0	51	104	0	60	24991
2026-01-03 12:28:59.39	190.86	6.55	-44.7	-60.3	4.1	7.36e-01	0	51	104	0	60	22376
2026-01-03 12:29:00.40	190.93	6.62	-44.7	-60.2	3.9	7.40e-01	0	51	104	0	60	22231
2026-01-03 12:29:01.41	191.00	6.70	-44.6	-58.8	4.6	7.22e-01	0	51	104	0	60	18767
2026-01-03 12:29:02.43	191.06	6.78	-44.5	-57.4	5.4	6.96e-01	35	51	0	0	60	15963
2026-01-03 12:29:03.44	191.13	6.85	-44.4	-55.8	6.5	6.72e-01	92	52	0	1048576	60	13388
2026-01-03 12:29:04.45	191.20	6.93	-44.2	-54.2	8.1	6.45e-01	67	51	0	3145728	60	11074
2026-01-03 12:29:05.46	191.27	7.01	-44.0	-52.5	9.9	6.25e-01	0	52	0	4718592	60	9074
2026-01-03 12:29:06.47	191.34	7.08	-44.0	-51.5	11.2	6.17e-01	0	51	0	6815744	59	8597
2026-01-03 12:29:07.48	191.41	7.16	-43.6	-49.9	12.9	6.08e-01	0	51	0	8388608	59	7165
2026-01-03 12:29:08.49	191.47	7.24	-43.2	-48.6	14.2	6.09e-01	0	52	0	10485760	58	6566
2026-01-03 12:29:09.50	191.54	7.32	-42.7	-47.4	15.5	6.04e-01	0	52	0	12582912	57	6006
2026-01-03 12:29:10.51	191.61	7.40	-42.4	-46.7	16.2	6.07e-01	0	52	0	14155776	56	5874
2026-01-03 12:29:11.53	191.69	7.47	-41.8	-45.7	17.1	6.04e-01	0	52	0	16252928	55	5556
2026-01-03 12:29:12.54	191.76	7.55	-41.3	-44.8	18.1	6.10e-01	0	52	0	17825792	54	5280
2026-01-03 12:29:13.55	191.83	7.63	-40.9	-44.1	18.7	6.05e-01	0	52	0	19922944	53	5213
2026-01-03 12:29:14.56	191.90	7.71	-40.9	-44.1	18.8	6.08e-01	0	52	0	22020096	53	5170
2026-01-03 12:29:15.57	191.97	7.79	-40.5	-43.5	19.3	6.08e-01	0	52	0	23592960	53	4838
2026-01-03 12:29:16.58	192.04	7.87	-40.4	-43.3	19.6	6.08e-01	0	52	0	25690112	52	5003
2026-01-03 12:29:17.59	192.12	7.95	-40.5	-43.4	19.5	6.05e-01	0	52	0	27787264	52	5061
2026-01-03 12:29:18.60	192.19	8.03	-40.6	-43.6	19.3	6.03e-01	0	52	0	29360128	52	5161
2026-01-03 12:29:19.61	192.26	8.11	-40.9	-44.0	18.9	6.05e-01	0	52	0	31457280	52	5454
2026-01-03 12:29:20.62	192.34	8.19	-41.5	-45.1	18.0	6.07e-01	0	52	0	33030144	53	5798
2026-01-03 12:29:21.63	192.41	8.27	-41.0	-44.3	19.0	6.06e-01	0	52	0	35127296	52	5599
2026-01-03 12:29:22.64	192.49	8.35	-43.9	-51.4	11.7	6.15e-01	0	52	0	37224448	58	9050
2026-01-03 12:29:23.65	192.56	8.44	-40.4	-43.2	19.9	6.06e-01	0	52	0	38797312	52	4960
2026-01-03 12:29:24.66	192.64	8.52	-40.6	-43.5	19.4	6.05e-01	0	52	0	40894464	53	4867
2026-01-03 12:29:25.67	192.71	8.60	-40.3	-43.1	19.9	6.06e-01	0	52	0	42467328	52	4918
2026-01-03 12:29:26.68	192.79	8.68	-40.3	-43.1	20.0	6.07e-01	0	52	0	44564480	52	4876
2026-01-03 12:29:27.69	192.87	8.77	-40.3	-43.1	19.9	6.08e-01	0	52	0	46661632	52	4889
2026-01-03 12:29:28.70	192.95	8.85	-40.3	-43.0	20.0	6.10e-01	0	52	0	48234496	52	4855
2026-01-03 12:29:29.71	193.02	8.93	-40.2	-42.8	20.2	6.07e-01	0	52	0	50331648	52	4751
2026-01-03 12:29:30.72	193.10	9.01	-40.2	-42.8	20.2	6.07e-01	0	52	0	51904512	52	4755
2026-01-03 12:29:31.72	193.18	9.10	-40.1	-42.7	20.4	6.05e-01	0	52	0	54001664	52	4674
2026-01-03 12:29:32.73	193.26	9.18	-40.1	-42.8	20.3	6.08e-01	0	52	0	56098816	52	4721
2026-01-03 12:29:33.74	193.34	9.27	-40.2	-42.9	20.2	6.07e-01	0	53	0	57671680	52	4773
2026-01-03 12:29:34.75	193.42	9.35	-40.2	-42.8	20.3	6.08e-01	0	52	0	59768832	52	4751
2026-01-03 12:29:35.76	193.50	9.43	-40.1	-42.7	20.5	6.08e-01	0	52	0	61865984	52	4669
2026-01-03 12:29:36.77	193.58	9.52	-40.2	-42.8	20.4	6.08e-01	0	52	0	63438848	52	4724
2026-01-03 12:29:37.78	193.67	9.60	-40.1	-42.6	20.5	6.08e-01	0	53	0	65536000	52	4632
2026-01-03 12:29:38.79	193.75	9.69	-40.1	-42.7	20.5	6.07e-01	0	53	0	67108864	52	4671
2026-01-03 12:29:39.80	193.83	9.78	-40.0	-42.5	20.6	6.06e-01	0	53	0	69206016	52	4595
2026-01-03 12:29:40.81	193.91	9.86	-40.1	-42.7	20.5	6.06e-01	0	52	0	71303168	52	4671
2026-01-03 12:29:41.82	194.00	9.95	-40.1	-42.7	20.5	6.07e-01	0	53	0	72876032	52	4674
2026-01-03 12:29:42.82	194.08	10.03	-40.1	-42.7	20.5	6.07e-01	0	53	0	74973184	52	4684
2026-01-03 12:29:43.83	194.17	10.12	-40.1	-42.6	20.7	6.08e-01	0	53	0	76546048	51	4887
2026-01-03 12:29:44.84	194.25	10.21	-40.2	-42.7	20.6	6.04e-01	0	53	0	78643200	51	4961
2026-01-03 12:29:45.85	194.34	10.30	-40.2	-42.7	20.5	6.10e-01	0	53	0	80740352	51	4977
2026-01-03 12:29:46.86	194.43	10.38	-40.2	-42.7	20.6	6.03e-01	0	53	0	82313216	51	4953
2026-01-03 12:29:47.87	194.51	10.47	-40.1	-42.6	20.7	6.07e-01	0	53	0	84410368	51	4881
2026-01-03 12:29:48.88	194.60	10.56	-40.1	-42.6	20.7	6.05e-01	0	53	0	85983232	51	4903
2026-01-03 12:29:49.89	194.69	10.65	-40.1	-42.6	20.8	6.07e-01	0	53	0	88080384	51	4871
2026-01-03 12:29:50.90	194.78	10.74	-40.1	-42.6	20.7	6.03e-01	0	53	0	90177536	51	4909
2026-01-03 12:29:51.91	194.87	10.83	-40.1	-42.6	20.8	6.06e-01	0	53	0	91750400	51	4884
2026-01-03 12:29:52.92	194.96	10.92	-40.1	-42.6	20.8	6.06e-01	0	53	0	93847552	51	4881
2026-01-03 12:29:53.93	195.05	11.01	-40.0	-42.5	20.9	6.07e-01	0	53	0	95420416	51	4836
2026-01-03 12:29:54.95	195.14	11.10	-40.1	-42.5	20.8	6.07e-01	0	53	0	97517568	51	4869
2026-01-03 12:29:55.95	195.23	11.19	-40.0	-42.5	20.9	6.05e-01	0	53	0	99614720	51	4846
2026-01-03 12:29:56.96	195.32	11.28	-40.0	-42.5	20.9	6.07e-01	0	53	0	101187584	51	4834
2026-01-03 12:29:57.97	195.41	11.37	-39.9	-42.4	21.0	6.05e-01	0	53	0	103284736	51	4764
2026-01-03 12:29:58.98	195.51	11.46	-39.9	-42.4	21.1	6.07e-01	0	53	0	104857600	51	4761
2026-01-03 12:29:59.99	195.60	11.55	-40.0	-42.4	21.0	6.07e-01	0	53	0	106954752	51	4782
2026-01-03 12:30:01.00	195.70	11.65	-40.0	-42.4	21.1	6.07e-01	0	53	0	109051904	51	4779
2026-01-03 12:30:02.01	195.79	11.74	-40.0	-42.4	21.1	6.08e-01	0	53	0	110624768	51	4783
2026-01-03 12:30:03.02	195.89	11.83	-40.0	-42.4	21.1	6.07e-01	0	53	0	112721920	51	4774
2026-01-03 12:30:04.03	195.98	11.92	-39.9	-42.3	21.2	6.03e-01	0	53	0	114819072	51	4721
2026-01-03 12:30:05.04	196.08	12.02	-39.9	-42.3	21.1	6.06e-01	0	53	0	116391936	51	4747
2026-01-03 12:30:06.05	196.18	12.11	-39.8	-42.2	21.3	6.04e-01	0	53	0	118489088	51	4667
2026-01-03 12:30:07.06	196.28	12.21	-39.9	-42.2	21.3	6.05e-01	0	53	0	120061952	51	4696
2026-01-03 12:30:08.07	196.38	12.30	-39.9	-42.2	21.3	6.06e-01	0	53	0	122159104	51	4685
2026-01-03 12:30:09.08	196.48	12.40	-39.8	-42.1	21.4	6.06e-01	0	53	0	124256256	51	4602
2026-01-03 12:30:10.09	196.58	12.49	-39.8	-42.1	21.4	6.08e-01	0	53	0	125829120	51	4604
2026-01-03 12:30:11.10	196.68	12.59	-39.7	-42.0	21.5	6.05e-01	0	53	0	127926272	51	4549
2026-01-03 12:30:12.11	196.78	12.68	-39.6	-41.9	21.6	6.07e-01	0	53	0	130023424	51	4504
2026-01-03 12:30:13.12	196.88	12.78	-39.7	-41.9	21.6	6.06e-01	0	53	0	131596288	51	4535
2026-01-03 12:30:14.13	196.99	12.87	-39.6	-41.9	21.6	6.05e-01	0	54	0	133693440	51	4522
2026-01-03 12:30:15.14	197.09	12.97	-39.7	-41.9	21.6	6.06e-01	0	54	0	135266304	51	4532
2026-01-03 12:30:16.15	197.19	13.07	-39.6	-41.9	21.6	6.08e-01	0	53	0	137363456	51	4516
2026-01-03 12:30:17.16	197.30	13.17	-39.7	-41.9	21.6	6.08e-01	0	53	0	139460608	51	4534
2026-01-03 12:30:18.17	197.41	13.26	-39.7	-41.9	21.6	6.04e-01	0	53	0	141033472	51	4532
2026-01-03 12:30:19.18	197.51	13.36	-39.7	-41.9	21.6	6.05e-01	0	53	0	143130624	51	4521
2026-01-03 12:30:20.19	197.62	13.46	-39.6	-41.8	21.7	6.07e-01	0	54	0	144703488	51	4490
2026-01-03 12:30:21.20	197.73	13.56	-39.6	-41.9	21.7	6.09e-01	0	54	0	146800640	51	4508
2026-01-03 12:30:22.21	197.84	13.66	-39.6	-41.9	21.7	6.06e-01	0	54	0	148897792	51	4503
2026-01-03 12:30:23.22	197.95	13.76	-39.6	-41.9	21.7	6.05e-01	0	54	0	150470656	51	4510
2026-01-03 12:30:24.23	198.06	13.86	-39.6	-41.9	21.7	6.05e-01	0	54	0	152567808	51	4500
2026-01-03 12:30:25.24	198.17	13.96	-39.7	-41.9	21.7	6.07e-01	0	54	0	154140672	51	4515
2026-01-03 12:30:26.25	198.28	14.06	-39.7	-41.9	21.6	6.06e-01	0	54	0	156237824	51	4541
2026-01-03 12:30:27.26	198.39	14.16	-39.7	-41.9	21.6	6.06e-01	0	54	0	158334976	51	4537
2026-01-03 12:30:28.27	198.51	14.26	-39.6	-41.9	21.7	6.07e-01	0	54	0	159907840	51	4499
2026-01-03 12:30:29.28	198.62	14.37	-39.6	-41.8	21.7	6.08e-01	0	54	0	162004992	51	4487
2026-01-03 12:30:30.29	198.74	14.47	-39.6	-41.8	21.8	6.04e-01	0	54	0	163577856	51	4447
2026-01-03 12:30:31.30	198.85	14.57	-39.6	-41.8	21.8	6.09e-01	0	54	0	165675008	51	4449
2026-01-03 12:30:32.31	198.97	14.67	-39.5	-41.7	21.9	6.10e-01	0	54	0	167772160	51	4429
2026-01-03 12:30:33.32	199.09	14.78	-39.6	-41.8	21.9	6.07e-01	0	54	0	169345024	51	4442
2026-01-03 12:30:34.33	199.21	14.88	-39.6	-41.8	21.8	6.05e-01	0	54	0	171442176	51	4442
2026-01-03 12:30:35.34	199.33	14.98	-39.6	-41.7	21.9	6.07e-01	0	54	0	173539328	51	4440
2026-01-03 12:30:36.35	199.45	15.09	-39.5	-41.6	22.0	6.05e-01	0	54	0	175112192	51	4387
2026-01-03 12:30:37.36	199.57	15.19	-39.4	-41.6	22.0	6.08e-01	0	54	0	177209344	50	4617
2026-01-03 12:30:38.36	199.69	15.30	-39.4	-41.5	22.1	6.06e-01	0	54	0	178782208	50	4577
2026-01-03 12:30:39.37	199.81	15.40	-39.3	-41.4	22.2	6.06e-01	0	54	0	180879360	50	4529
2026-01-03 12:30:40.38	199.94	15.51	-39.3	-41.4	22.3	6.07e-01	0	54	0	182976512	50	4518
2026-01-03 12:30:41.39	200.06	15.62	-39.3	-41.4	22.2	6.04e-01	0	54	0	184549376	50	4536
2026-01-03 12:30:42.40	200.19	15.72	-39.3	-41.4	22.3	6.05e-01	0	54	0	186646528	50	4528
2026-01-03 12:30:43.41	200.31	15.83	-39.4	-41.5	22.2	6.07e-01	0	54	0	188219392	50	4570
2026-01-03 12:30:44.42	200.44	15.94	-39.4	-41.5	22.2	6.10e-01	0	54	0	190316544	50	4572
2026-01-03 12:30:45.43	200.57	16.05	-39.4	-41.6	22.1	6.08e-01	0	54	0	192413696	50	4618
2026-01-03 12:30:46.44	200.70	16.16	-39.4	-41.5	22.2	6.04e-01	0	54	0	193986560	50	4594
2026-01-03 12:30:47.45	200.83	16.27	-39.4	-41.5	22.2	6.06e-01	0	54	0	196083712	50	4554
2026-01-03 12:30:48.46	200.96	16.37	-39.4	-41.5	22.2	6.07e-01	0	54	0	198180864	50	4563
2026-01-03 12:30:49.47	201.09	16.48	-39.4	-41.5	22.2	6.07e-01	0	54	0	199753728	50	4556
2026-01-03 12:30:50.48	201.23	16.59	-39.5	-41.6	22.1	6.08e-01	0	54	0	201850880	50	4617
2026-01-03 12:30:51.49	201.36	16.71	-39.5	-41.6	22.1	6.06e-01	0	54	0	203423744	50	4631
2026-01-03 12:30:52.49	201.50	16.81	-39.6	-41.7	22.0	6.06e-01	0	54	0	205520896	50	4697
2026-01-03 12:30:53.50	201.63	16.93	-39.5	-41.7	22.0	6.07e-01	0	54	0	207618048	50	4667
2026-01-03 12:30:54.51	201.77	17.04	-39.5	-41.7	22.0	6.07e-01	0	54	0	209190912	50	4661
2026-01-03 12:30:55.53	201.91	17.15	-39.4	-41.6	22.2	6.07e-01	0	54	0	211288064	50	4602
2026-01-03 12:30:56.53	202.05	17.26	-39.4	-41.5	22.2	6.07e-01	0	54	0	212860928	50	4553
2026-01-03 12:30:57.54	202.19	17.38	-39.3	-41.4	22.3	6.09e-01	0	54	0	214958080	50	4524
2026-01-03 12:30:58.55	202.33	17.49	-39.4	-41.4	22.3	6.04e-01	0	54	0	217055232	50	4541
2026-01-03 12:30:59.56	202.48	17.60	-39.4	-41.5	22.2	6.05e-01	0	54	0	218628096	50	4593
2026-01-03 12:31:00.57	202.62	17.72	-39.5	-41.6	22.2	6.05e-01	0	54	0	220725248	50	4621
2026-01-03 12:31:01.58	202.77	17.83	-39.5	-41.6	22.1	6.06e-01	0	54	0	222298112	50	4636
2026-01-03 12:31:02.59	202.91	17.95	-39.5	-41.6	22.2	6.07e-01	0	54	0	224395264	50	4614
2026-01-03 12:31:03.60	203.06	18.06	-39.4	-41.5	22.2	6.05e-01	0	54	0	226492416	50	4580
2026-01-03 12:31:04.61	203.21	18.18	-39.3	-41.4	22.3	6.05e-01	0	54	0	228065280	50	4536
2026-01-03 12:31:05.62	203.36	18.30	-39.3	-41.4	22.4	6.07e-01	0	54	0	230162432	50	4504
2026-01-03 12:31:06.63	203.51	18.41	-39.3	-41.4	22.4	6.06e-01	0	54	0	231735296	50	4528
2026-01-03 12:31:07.64	203.66	18.53	-39.3	-41.4	22.3	6.06e-01	0	54	0	233832448	50	4530
2026-01-03 12:31:08.65	203.81	18.65	-39.4	-41.5	22.3	6.07e-01	0	54	0	235929600	50	4576
2026-01-03 12:31:09.66	203.97	18.77	-39.5	-41.6	22.2	6.09e-01	0	54	0	237502464	50	4613
2026-01-03 12:31:10.67	204.13	18.89	-39.5	-41.6	22.2	6.06e-01	0	55	0	239599616	50	4622
2026-01-03 12:31:11.68	204.28	19.00	-39.4	-41.5	22.2	6.05e-01	0	54	0	241172480	50	4594
2026-01-03 12:31:12.69	204.44	19.12	-39.4	-41.5	22.3	6.08e-01	0	54	0	243269632	50	4575
2026-01-03 12:31:13.70	204.60	19.24	-39.4	-41.5	22.3	6.07e-01	0	55	0	245366784	50	4567
2026-01-03 12:31:14.71	204.76	19.36	-39.5	-41.6	22.2	6.05e-01	0	54	0	246939648	50	4637
2026-01-03 12:31:15.72	204.93	19.48	-39.6	-41.8	22.0	6.07e-01	0	54	0	249036800	50	4729
2026-01-03 12:31:16.73	205.09	19.61	-39.7	-41.9	21.9	6.05e-01	0	55	0	251133952	50	4790
2026-01-03 12:31:17.74	205.25	19.73	-39.6	-41.7	22.1	6.07e-01	0	54	0	252706816	50	4685
2026-01-03 12:31:18.75	205.42	19.85	-39.5	-41.6	22.2	6.08e-01	0	55	0	254803968	50	4603
2026-01-03 12:31:19.76	205.59	19.97	-39.3	-41.4	22.4	6.08e-01	0	54	0	256376832	50	4514
2026-01-03 12:31:20.77	205.76	20.09	-39.5	-41.5	22.3	6.08e-01	0	54	0	258473984	50	4593
2026-01-03 12:31:21.78	205.93	20.22	-39.5	-41.7	22.2	6.08e-01	0	54	0	260571136	50	4662
2026-01-03 12:31:22.79	206.10	20.34	-39.6	-41.7	22.1	6.07e-01	0	54	0	262144000	50	4689
2026-01-03 12:31:23.80	206.27	20.47	-39.6	-41.7	22.1	6.06e-01	0	55	0	264241152	50	4693
2026-01-03 12:31:24.81	206.45	20.59	-39.5	-41.6	22.3	6.07e-01	0	55	0	266338304	50	4629
2026-01-03 12:31:25.82	206.63	20.72	-39.5	-41.6	22.3	6.04e-01	0	54	0	267911168	50	4601
2026-01-03 12:31:26.83	206.80	20.84	-39.5	-41.6	22.3	6.06e-01	0	55	0	270008320	50	4640
2026-01-03 12:31:27.83	206.98	20.97	-39.6	-41.7	22.2	6.08e-01	0	55	0	271581184	50	4664
2026-01-03 12:31:28.84	207.16	21.09	-39.6	-41.8	22.1	6.05e-01	0	55	0	273678336	50	4725
2026-01-03 12:31:29.85	207.34	21.22	-39.6	-41.7	22.1	6.06e-01	0	55	0	275775488	50	4705
2026-01-03 12:31:30.86	207.53	21.35	-39.6	-41.7	22.2	6.07e-01	0	55	0	277348352	50	4688
2026-01-03 12:31:31.87	207.71	21.47	-39.6	-41.7	22.1	6.06e-01	0	55	0	279445504	50	4691
2026-01-03 12:31:32.88	207.90	21.60	-39.6	-41.7	22.2	6.05e-01	0	55	0	281018368	50	4665
2026-01-03 12:31:33.89	208.09	21.73	-39.5	-41.6	22.2	6.07e-01	0	55	0	283115520	50	4651
2026-01-03 12:31:34.90	208.28	21.86	-39.6	-41.7	22.2	6.07e-01	0	54	0	285212672	50	4671
2026-01-03 12:31:35.91	208.47	21.99	-39.5	-41.6	22.3	6.09e-01	0	55	0	286785536	50	4633
2026-01-03 12:31:36.92	208.66	22.12	-39.6	-41.7	22.3	6.03e-01	0	55	0	288882688	50	4655
2026-01-03 12:31:37.93	208.86	22.25	-39.5	-41.6	22.3	6.06e-01	0	55	0	290455552	50	4636
2026-01-03 12:31:38.94	209.06	22.38	-39.6	-41.7	22.3	6.06e-01	0	55	0	292552704	50	4659
2026-01-03 12:31:39.95	209.26	22.51	-39.5	-41.6	22.3	6.06e-01	0	55	0	294649856	50	4635
2026-01-03 12:31:40.96	209.46	22.64	-39.6	-41.6	22.3	6.08e-01	0	55	0	296222720	50	4647
2026-01-03 12:31:41.97	209.66	22.77	-39.5	-41.6	22.3	6.08e-01	0	55	0	298319872	50	4637
2026-01-03 12:31:42.98	209.86	22.90	-39.5	-41.6	22.3	6.04e-01	0	55	0	299892736	50	4640
2026-01-03 12:31:43.99	210.07	23.04	-39.6	-41.7	22.3	6.08e-01	0	55	0	301989888	50	4659
2026-01-03 12:31:45.00	210.27	23.17	-39.5	-41.6	22.4	6.07e-01	0	55	0	304087040	50	4612
2026-01-03 12:31:46.01	210.48	23.30	-39.6	-41.7	22.3	6.08e-01	0	55	0	305659904	50	4658
2026-01-03 12:31:47.01	210.69	23.43	-39.6	-41.7	22.2	6.07e-01	0	55	0	307757056	50	4688
2026-01-03 12:31:48.02	210.91	23.57	-39.6	-41.7	22.3	6.06e-01	0	55	0	309329920	50	4679
2026-01-03 12:31:49.03	211.12	23.70	-39.6	-41.6	22.3	6.08e-01	0	55	0	311427072	50	4643
2026-01-03 12:31:50.04	211.34	23.84	-39.5	-41.6	22.4	6.07e-01	0	55	0	313524224	50	4600
2026-01-03 12:31:51.05	211.56	23.97	-39.5	-41.6	22.4	6.06e-01	0	55	0	315097088	50	4635
2026-01-03 12:31:52.06	211.78	24.11	-39.6	-41.8	22.2	6.07e-01	0	55	0	317194240	50	4710
2026-01-03 12:31:53.07	212.00	24.24	-39.6	-41.7	22.3	6.06e-01	0	55	0	319291392	50	4675
2026-01-03 12:31:54.08	212.22	24.38	-39.6	-41.7	22.3	6.04e-01	0	55	0	320864256	50	4665
2026-01-03 12:31:55.09	212.45	24.51	-39.6	-41.7	22.2	6.08e-01	0	55	0	322961408	50	4695
2026-01-03 12:31:56.10	212.68	24.65	-39.7	-41.9	22.1	6.06e-01	0	55	0	324534272	50	4770
2026-01-03 12:31:57.11	212.91	24.79	-39.7	-41.8	22.2	6.06e-01	0	55	0	326631424	50	4734
2026-01-03 12:31:58.12	213.14	24.92	-39.7	-41.8	22.2	6.05e-01	0	55	0	328728576	50	4725
2026-01-03 12:31:59.13	213.38	25.06	-39.6	-41.7	22.3	6.05e-01	0	55	0	330301440	50	4688
2026-01-03 12:32:00.14	213.61	25.20	-39.6	-41.7	22.3	6.06e-01	0	55	0	332398592	50	4656
2026-01-03 12:32:01.15	213.85	25.34	-39.6	-41.7	22.3	6.05e-01	0	55	0	334495744	50	4666
2026-01-03 12:32:02.16	214.09	25.48	-39.7	-41.8	22.2	6.07e-01	0	55	0	336068608	50	4744
2026-01-03 12:32:03.17	214.33	25.61	-39.7	-41.8	22.1	6.08e-01	0	55	0	338165760	50	4757
2026-01-03 12:32:04.17	214.58	25.75	-39.6	-41.7	22.2	6.04e-01	0	55	0	339738624	50	4687
2026-01-03 12:32:05.18	214.82	25.89	-39.7	-41.8	22.2	6.06e-01	0	55	0	341835776	50	4716
2026-01-03 12:32:06.19	215.07	26.03	-39.8	-41.9	22.1	6.03e-01	0	55	0	343932928	50	4780
2026-01-03 12:32:07.20	215.33	26.17	-39.8	-41.9	22.1	6.06e-01	0	55	0	345505792	50	4792
2026-01-03 12:32:08.21	215.58	26.31	-39.7	-41.8	22.2	6.06e-01	0	55	0	347602944	50	4754
2026-01-03 12:32:09.22	215.84	26.45	-39.5	-41.6	22.4	6.09e-01	0	55	0	349175808	50	4625
2026-01-03 12:32:10.23	216.10	26.59	-39.5	-41.5	22.4	6.06e-01	0	55	0	351272960	50	4597
2026-01-03 12:32:11.24	216.36	26.73	-39.6	-41.7	22.3	6.06e-01	0	55	0	353370112	50	4674
2026-01-03 12:32:12.25	216.62	26.87	-39.7	-41.8	22.2	6.09e-01	0	55	0	354942976	50	4747
2026-01-03 12:32:13.26	216.89	27.01	-39.6	-41.7	22.3	6.08e-01	0	55	0	357040128	50	4691
2026-01-03 12:32:14.27	217.15	27.15	-39.6	-41.7	22.3	6.06e-01	0	55	0	358612992	50	4686
2026-01-03 12:32:15.28	217.42	27.29	-39.6	-41.7	22.3	6.07e-01	0	55	0	360710144	50	4696
2026-01-03 12:32:16.30	217.70	27.43	-39.6	-41.7	22.3	6.08e-01	0	55	0	362807296	50	4683
2026-01-03 12:32:17.30	217.97	27.57	-39.6	-41.8	22.2	6.05e-01	0	55	0	364380160	50	4709
2026-01-03 12:32:18.31	218.25	27.72	-39.5	-41.6	22.4	6.07e-01	0	55	0	366477312	50	4599
2026-01-03 12:32:19.32	218.53	27.86	-39.5	-41.5	22.5	6.04e-01	0	55	0	368050176	50	4581
2026-01-03 12:32:20.33	218.82	28.00	-39.6	-41.7	22.3	6.08e-01	0	55	0	370147328	50	4660
2026-01-03 12:32:21.34	219.10	28.14	-39.6	-41.7	22.3	6.05e-01	0	55	0	372244480	50	4675
2026-01-03 12:32:22.35	219.39	28.28	-39.6	-41.6	22.4	6.06e-01	0	55	0	373817344	50	4640
2026-01-03 12:32:23.36	219.68	28.42	-39.7	-41.8	22.2	6.07e-01	0	55	0	375914496	50	4724
2026-01-03 12:32:24.37	219.97	28.56	-39.7	-41.8	22.2	6.09e-01	0	55	0	377487360	50	4713
2026-01-03 12:32:25.38	220.27	28.71	-39.6	-41.7	22.4	6.08e-01	0	55	0	379584512	50	4664
2026-01-03 12:32:26.39	220.57	28.85	-39.5	-41.6	22.5	6.06e-01	0	55	0	381681664	50	4600
2026-01-03 12:32:27.40	220.87	28.99	-39.6	-41.7	22.4	6.04e-01	0	55	0	383254528	50	4654
2026-01-03 12:32:28.41	221.17	29.13	-39.5	-41.6	22.4	6.07e-01	0	55	0	385351680	50	4611
2026-01-03 12:32:29.42	221.48	29.27	-39.6	-41.6	22.4	6.07e-01	0	55	0	387448832	50	4644
2026-01-03 12:32:30.43	221.79	29.41	-39.7	-41.7	22.3	6.06e-01	0	55	0	389021696	50	4703
2026-01-03 12:32:31.43	222.10	29.55	-39.7	-41.8	22.2	6.07e-01	0	55	0	391118848	50	4739
2026-01-03 12:32:32.44	222.41	29.69	-39.6	-41.7	22.3	6.06e-01	0	55	0	392691712	50	4681
2026-01-03 12:32:33.45	222.73	29.83	-39.5	-41.6	22.4	6.05e-01	0	55	0	394788864	50	4608
2026-01-03 12:32:34.46	223.05	29.97	-39.6	-41.7	22.4	6.07e-01	0	55	0	396886016	50	4674
2026-01-03 12:32:35.47	223.38	30.11	-39.6	-41.7	22.4	6.06e-01	0	55	0	398458880	50	4655
2026-01-03 12:32:36.48	223.70	30.25	-39.4	-41.4	22.6	6.08e-01	0	55	0	400556032	50	4537
2026-01-03 12:32:37.49	224.03	30.39	-39.6	-41.6	22.4	6.08e-01	0	55	0	402653184	50	4643
2026-01-03 12:32:38.50	224.37	30.53	-39.7	-41.8	22.3	6.06e-01	0	55	0	404226048	50	4721
2026-01-03 12:32:39.51	224.70	30.67	-39.7	-41.8	22.3	6.07e-01	0	55	0	406323200	50	4706
2026-01-03 12:32:40.52	225.04	30.81	-39.5	-41.6	22.4	6.06e-01	0	55	0	407896064	50	4625
2026-01-03 12:32:41.53	225.38	30.95	-39.4	-41.4	22.7	6.07e-01	0	55	0	409993216	50	4515
2026-01-03 12:32:42.54	225.72	31.09	-39.7	-41.8	22.3	6.06e-01	0	55	0	412090368	50	4713
2026-01-03 12:32:43.55	226.07	31.23	-39.7	-41.9	22.2	6.06e-01	0	55	0	413663232	50	4761
2026-01-03 12:32:44.56	226.42	31.36	-39.7	-41.8	22.2	6.07e-01	0	56	0	415760384	50	4757
2026-01-03 12:32:45.57	226.77	31.50	-39.7	-41.9	22.2	6.07e-01	0	56	0	417333248	50	4769
2026-01-03 12:32:46.58	227.13	31.64	-39.8	-41.9	22.2	6.06e-01	0	55	0	419430400	50	4779
2026-01-03 12:32:47.59	227.49	31.77	-39.7	-41.8	22.3	6.07e-01	0	55	0	421527552	50	4711
2026-01-03 12:32:48.60	227.85	31.91	-39.6	-41.6	22.4	6.07e-01	0	55	0	423100416	50	4640
2026-01-03 12:32:49.61	228.22	32.04	-39.7	-41.8	22.2	6.05e-01	0	55	0	425197568	50	4750
2026-01-03 12:32:50.62	228.59	32.18	-39.8	-42.0	22.1	6.07e-01	0	55	0	426770432	50	4837
2026-01-03 12:32:51.63	228.96	32.31	-39.7	-41.8	22.3	6.06e-01	0	55	0	428867584	50	4735
2026-01-03 12:32:52.64	229.33	32.44	-39.7	-41.8	22.2	6.06e-01	0	55	0	430964736	50	4744
2026-01-03 12:32:53.65	229.71	32.58	-39.6	-41.6	22.5	6.07e-01	0	55	0	432537600	50	4626
2026-01-03 12:32:54.66	230.09	32.71	-39.6	-41.7	22.4	6.04e-01	0	55	0	434634752	50	4655
2026-01-03 12:32:55.67	230.47	32.84	-39.7	-41.8	22.2	6.07e-01	0	55	0	436207616	50	4749
2026-01-03 12:32:56.68	230.86	32.97	-39.8	-41.9	22.1	6.05e-01	0	55	0	438304768	50	4795
2026-01-03 12:32:57.69	231.25	33.10	-39.6	-41.7	22.4	6.08e-01	0	55	0	440401920	50	4683
2026-01-03 12:32:58.70	231.64	33.22	-39.6	-41.6	22.4	6.06e-01	0	55	0	441974784	50	4627
2026-01-03 12:32:59.71	232.04	33.35	-39.6	-41.7	22.4	6.03e-01	0	55	0	444071936	50	4676
2026-01-03 12:33:00.72	232.44	33.48	-39.6	-41.6	22.4	6.04e-01	0	56	0	445644800	50	4641
2026-01-03 12:33:01.73	232.84	33.60	-39.7	-41.8	22.3	6.06e-01	0	55	0	447741952	50	4732
2026-01-03 12:33:02.74	233.25	33.73	-39.8	-41.9	22.2	6.06e-01	0	55	0	449839104	50	4781
2026-01-03 12:33:03.75	233.66	33.85	-39.8	-41.9	22.2	6.07e-01	0	56	0	451411968	50	4794
2026-01-03 12:33:04.76	234.07	33.97	-39.7	-41.7	22.4	6.07e-01	0	55	0	453509120	50	4698
2026-01-03 12:33:05.77	234.48	34.10	-39.8	-41.9	22.2	6.07e-01	0	55	0	455606272	50	4793
2026-01-03 12:33:06.78	234.90	34.22	-39.8	-41.9	22.1	6.08e-01	0	56	0	457179136	50	4789
2026-01-03 12:33:07.79	235.32	34.33	-39.7	-41.7	22.4	6.06e-01	0	55	0	459276288	50	4699
2026-01-03 12:33:08.80	235.75	34.45	-39.8	-41.9	22.2	6.06e-01	0	56	0	460849152	50	4771
2026-01-03 12:33:09.81	236.18	34.57	-39.9	-42.1	22.0	6.08e-01	0	56	0	462946304	50	4875
2026-01-03 12:33:10.82	236.61	34.68	-39.7	-41.7	22.3	6.07e-01	0	55	0	465043456	50	4699
2026-01-03 12:33:11.83	237.04	34.80	-39.6	-41.7	22.4	6.05e-01	0	56	0	466616320	50	4691
2026-01-03 12:33:12.84	237.48	34.91	-39.8	-41.9	22.1	6.06e-01	0	56	0	468713472	50	4805
2026-01-03 12:33:13.85	237.92	35.02	-39.7	-41.8	22.2	6.06e-01	0	56	0	470810624	50	4756
2026-01-03 12:33:14.86	238.36	35.13	-39.9	-42.0	22.1	6.09e-01	0	56	0	472383488	50	4848
2026-01-03 12:33:15.87	238.81	35.24	-39.7	-41.8	22.3	6.06e-01	0	56	0	474480640	50	4738
2026-01-03 12:33:16.88	239.25	35.35	-39.7	-41.8	22.3	6.06e-01	0	56	0	476053504	50	4740
2026-01-03 12:33:17.89	239.71	35.45	-39.7	-41.9	22.2	6.06e-01	0	56	0	478150656	50	4762
2026-01-03 12:33:18.90	240.16	35.56	-39.8	-41.9	22.2	6.05e-01	0	55	0	480247808	50	4807
2026-01-03 12:33:19.90	240.61	35.66	-39.7	-41.8	22.3	6.06e-01	0	56	0	481820672	50	4749
2026-01-03 12:33:20.91	241.08	35.76	-39.8	-41.9	22.2	6.05e-01	0	56	0	483917824	50	4807
2026-01-03 12:33:21.92	241.54	35.86	-39.7	-41.7	22.3	6.09e-01	0	56	0	485490688	50	4698
2026-01-03 12:33:22.93	242.00	35.95	-39.8	-42.0	22.1	6.06e-01	0	56	0	487587840	50	4823
2026-01-03 12:33:23.94	242.47	36.05	-39.8	-41.9	22.1	6.07e-01	0	55	0	489684992	50	4808
2026-01-03 12:33:24.95	242.95	36.14	-39.7	-41.9	22.2	6.06e-01	0	56	0	491257856	50	4760
2026-01-03 12:33:25.96	243.42	36.23	-39.7	-41.8	22.3	6.06e-01	0	56	0	493355008	50	4726
2026-01-03 12:33:26.97	243.90	36.32	-39.6	-41.6	22.5	6.06e-01	0	56	0	494927872	50	4632
2026-01-03 12:33:27.98	244.38	36.41	-39.9	-42.1	22.1	6.07e-01	0	56	0	497025024	50	4872
2026-01-03 12:33:28.99	244.86	36.50	-39.9	-42.0	22.1	6.06e-01	0	56	0	499122176	50	4864
2026-01-03 12:33:30.00	245.34	36.58	-39.7	-41.8	22.2	6.06e-01	0	56	0	500695040	50	4724
2026-01-03 12:33:31.01	245.83	36.66	-39.6	-41.7	22.4	6.07e-01	0	56	0	502792192	50	4667
2026-01-03 12:33:32.02	246.32	36.74	-39.7	-41.7	22.3	6.05e-01	0	56	0	504365056	50	4704
2026-01-03 12:33:33.02	246.81	36.82	-39.7	-41.8	22.3	6.06e-01	0	56	0	506462208	50	4731
2026-01-03 12:33:34.03	247.30	36.90	-39.8	-42.0	22.1	6.08e-01	0	56	0	508559360	50	4819
2026-01-03 12:33:35.04	247.80	36.97	-39.6	-41.7	22.4	6.07e-01	0	56	0	510132224	50	4673
2026-01-03 12:33:36.05	248.30	37.04	-39.6	-41.6	22.5	6.07e-01	0	56	0	512229376	50	4649
2026-01-03 12:33:37.06	248.80	37.11	-39.8	-41.9	22.2	6.05e-01	0	56	0	513802240	50	4779
2026-01-03 12:33:38.08	249.31	37.18	-39.8	-41.9	22.2	6.09e-01	0	56	0	515899392	50	4784
2026-01-03 12:33:39.09	249.81	37.24	-39.7	-41.7	22.3	6.06e-01	0	56	0	517996544	50	4698
2026-01-03 12:33:40.10	250.32	37.30	-39.7	-41.8	22.3	6.07e-01	0	56	0	519569408	50	4726
2026-01-03 12:33:41.10	250.82	37.36	-39.6	-41.7	22.4	6.08e-01	0	56	0	521666560	50	4663
2026-01-03 12:33:42.12	251.34	37.42	-39.8	-41.9	22.2	6.05e-01	0	56	0	523763712	50	4771
2026-01-03 12:33:43.13	251.85	37.48	-39.8	-41.9	22.2	6.06e-01	0	56	0	525336576	50	4803
2026-01-03 12:33:44.14	252.37	37.53	-39.5	-41.5	22.5	6.08e-01	0	56	0	527433728	50	4594
2026-01-03 12:33:45.15	252.88	37.58	-39.6	-41.7	22.5	6.06e-01	0	56	0	529006592	50	4658
2026-01-03 12:33:46.16	253.40	37.63	-39.6	-41.6	22.4	6.06e-01	0	56	0	531103744	50	4651
2026-01-03 12:33:47.17	253.92	37.67	-39.6	-41.6	22.5	6.05e-01	0	56	0	533200896	50	4627
2026-01-03 12:33:48.18	254.44	37.72	-39.5	-41.6	22.5	6.06e-01	0	56	0	534773760	50	4599
2026-01-03 12:33:49.19	254.96	37.76	-39.7	-41.7	22.4	6.07e-01	0	56	0	536870912	50	4700
2026-01-03 12:33:50.20	255.49	37.80	-39.6	-41.6	22.5	6.04e-01	0	56	0	538968064	50	4628
2026-01-03 12:33:51.20	256.00	37.83	-39.6	-41.6	22.5	6.05e-01	0	56	0	540540928	50	4624
2026-01-03 12:33:52.21	256.53	37.86	-39.6	-41.7	22.5	6.06e-01	0	56	0	542638080	50	4657
2026-01-03 12:33:53.22	257.06	37.89	-39.6	-41.6	22.5	6.05e-01	0	56	0	544210944	50	4638
2026-01-03 12:33:54.23	257.58	37.92	-39.6	-41.7	22.4	6.07e-01	0	56	0	546308096	50	4671
2026-01-03 12:33:55.24	258.11	37.95	-39.6	-41.6	22.5	6.04e-01	0	56	0	548405248	50	4645
2026-01-03 12:33:56.25	258.64	37.97	-39.6	-41.6	22.5	6.08e-01	0	56	0	549978112	50	4630
2026-01-03 12:33:57.26	259.17	37.99	-39.6	-41.7	22.4	6.07e-01	0	56	0	552075264	50	4677
2026-01-03 12:33:58.27	259.70	38.01	-39.6	-41.6	22.5	6.05e-01	0	56	0	553648128	50	4635
2026-01-03 12:33:59.28	260.23	38.02	-39.7	-41.7	22.4	6.05e-01	0	56	0	555745280	50	4700
2026-01-03 12:34:00.29	260.76	38.03	-39.5	-41.5	22.6	6.06e-01	0	56	0	557318144	50	4585
2026-01-03 12:34:01.30	261.29	38.04	-39.6	-41.6	22.5	6.05e-01	0	56	0	559415296	50	4641
2026-01-03 12:34:02.31	261.83	38.05	-39.6	-41.7	22.4	6.07e-01	0	56	0	561512448	50	4686
2026-01-03 12:34:03.32	262.36	38.05	-39.5	-41.5	22.5	6.07e-01	0	56	0	563085312	50	4590
2026-01-03 12:34:04.33	262.89	38.05	-39.7	-41.8	22.3	6.05e-01	0	56	0	565182464	50	4719
2026-01-03 12:34:05.34	263.42	38.05	-39.6	-41.7	22.4	6.07e-01	0	56	0	567279616	50	4659
2026-01-03 12:34:06.35	263.95	38.05	-39.5	-41.5	22.6	6.05e-01	0	56	0	568852480	50	4563
2026-01-03 12:34:07.36	264.48	38.04	-39.7	-41.8	22.3	6.06e-01	0	56	0	570949632	50	4732
2026-01-03 12:34:08.36	265.01	38.03	-39.5	-41.5	22.6	6.07e-01	0	56	0	572522496	50	4570
2026-01-03 12:34:09.37	265.54	38.02	-39.6	-41.6	22.5	6.05e-01	0	56	0	574619648	50	4619
2026-01-03 12:34:10.38	266.07	38.00	-39.7	-41.8	22.3	6.06e-01	0	56	0	576716800	50	4733
2026-01-03 12:34:11.39	266.60	37.98	-39.5	-41.6	22.5	6.07e-01	0	56	0	578289664	50	4617
2026-01-03 12:34:12.40	267.13	37.96	-39.5	-41.6	22.6	6.06e-01	0	56	0	580386816	50	4600
2026-01-03 12:34:13.41	267.66	37.94	-39.6	-41.6	22.5	6.10e-01	0	56	0	581959680	50	4626
2026-01-03 12:34:14.42	268.19	37.92	-39.5	-41.6	22.5	6.10e-01	0	56	0	584056832	50	4599
2026-01-03 12:34:15.43	268.71	37.89	-39.6	-41.7	22.4	6.05e-01	0	56	0	586153984	50	4702
2026-01-03 12:34:16.44	269.24	37.86	-39.5	-41.6	22.5	6.07e-01	0	56	0	587726848	50	4623
2026-01-03 12:34:17.45	269.76	37.82	-39.5	-41.5	22.6	6.04e-01	0	56	0	589824000	50	4594
2026-01-03 12:34:18.46	270.29	37.79	-39.7	-41.8	22.3	6.05e-01	0	56	0	591921152	50	4714
2026-01-03 12:34:19.47	270.81	37.75	-39.7	-41.8	22.3	6.05e-01	0	56	0	593494016	50	4726
2026-01-03 12:34:20.48	271.33	37.71	-39.5	-41.6	22.5	6.05e-01	0	56	0	595591168	50	4603
2026-01-03 12:34:21.49	271.85	37.66	-39.6	-41.7	22.4	6.07e-01	0	56	0	597164032	50	4674
2026-01-03 12:34:22.50	272.37	37.62	-39.6	-41.6	22.4	6.08e-01	0	56	0	599261184	50	4650
2026-01-03 12:34:23.51	272.89	37.57	-39.7	-41.8	22.3	6.06e-01	0	56	0	601358336	50	4726
2026-01-03 12:34:24.52	273.40	37.52	-39.4	-41.4	22.6	6.09e-01	0	56	0	602931200	50	4538
2026-01-03 12:34:25.53	273.91	37.46	-39.4	-41.4	22.7	6.06e-01	0	56	0	605028352	50	4532
2026-01-03 12:34:26.54	274.43	37.41	-39.7	-41.8	22.3	6.06e-01	0	56	0	606601216	50	4758
2026-01-03 12:34:27.55	274.93	37.35	-39.7	-41.8	22.3	6.05e-01	0	56	0	608698368	50	4713
2026-01-03 12:34:28.56	275.44	37.29	-39.4	-41.4	22.7	6.07e-01	0	56	0	610795520	50	4497
2026-01-03 12:34:29.57	275.95	37.23	-39.4	-41.4	22.7	6.04e-01	0	56	0	612368384	50	4525
2026-01-03 12:34:30.58	276.45	37.16	-39.6	-41.6	21.2	6.04e-01	0	56	0	614465536	50	4629
2026-01-03 12:34:31.59	276.95	37.10	-39.6	-41.7	22.4	6.08e-01	0	56	0	616038400	50	4672
2026-01-03 12:34:32.60	277.45	37.03	-39.6	-41.7	22.4	6.07e-01	0	56	0	618135552	50	4690
2026-01-03 12:34:33.61	277.95	36.95	-39.3	-41.3	22.8	6.05e-01	0	56	0	620232704	50	4453
2026-01-03 12:34:34.62	278.45	36.88	-39.5	-41.5	22.6	6.08e-01	0	56	0	621805568	50	4566
2026-01-03 12:34:35.63	278.94	36.80	-39.7	-41.8	22.3	6.06e-01	0	56	0	623902720	50	4738
2026-01-03 12:34:36.63	279.43	36.73	-39.6	-41.7	22.4	6.06e-01	0	56	0	625475584	50	4665
2026-01-03 12:34:37.64	279.91	36.65	-39.3	-41.4	22.7	6.08e-01	0	56	0	627572736	50	4494
2026-01-03 12:34:38.65	280.40	36.57	-39.4	-41.4	22.7	6.06e-01	0	56	0	629669888	50	4532
2026-01-03 12:34:39.66	280.88	36.48	-39.4	-41.4	22.7	6.06e-01	0	56	0	631242752	50	4521
2026-01-03 12:34:40.67	281.36	36.39	-39.3	-41.3	22.8	6.07e-01	0	56	0	633339904	50	4471
2026-01-03 12:34:41.68	281.84	36.31	-39.6	-41.6	22.4	6.05e-01	0	56	0	635437056	50	4644
2026-01-03 12:34:42.69	282.32	36.22	-39.4	-41.4	22.6	6.07e-01	0	56	0	637009920	50	4523
2026-01-03 12:34:43.70	282.79	36.13	-39.3	-41.3	22.8	6.05e-01	0	56	0	639107072	50	4455
2026-01-03 12:34:44.71	283.26	36.03	-39.3	-41.2	22.8	6.04e-01	0	56	0	640679936	50	4432
2026-01-03 12:34:45.72	283.73	35.94	-39.2	-41.2	22.8	6.07e-01	0	56	0	642777088	50	4420
2026-01-03 12:34:46.73	284.19	35.84	-39.2	-41.1	22.9	6.06e-01	0	56	0	644874240	50	4385
2026-01-03 12:34:47.74	284.65	35.74	-39.2	-41.2	22.9	6.04e-01	0	56	0	646447104	50	4416
2026-01-03 12:34:48.75	285.11	35.64	-39.2	-41.2	22.9	6.09e-01	0	56	0	648544256	50	4412
2026-01-03 12:34:49.76	285.57	35.54	-39.2	-41.1	22.9	6.08e-01	0	56	0	650117120	50	4385
2026-01-03 12:34:50.77	286.02	35.43	-39.0	-40.9	23.1	6.07e-01	0	56	0	652214272	50	4286
2026-01-03 12:34:51.78	286.47	35.33	-39.2	-41.1	22.9	6.05e-01	0	56	0	654311424	50	4373
2026-01-03 12:34:52.78	286.91	35.22	-39.1	-41.0	23.0	6.07e-01	0	56	0	655884288	50	4337
2026-01-03 12:34:53.79	287.36	35.12	-39.1	-41.0	23.0	6.05e-01	0	56	0	657981440	50	4326
2026-01-03 12:34:54.80	287.80	35.01	-39.1	-41.0	23.1	6.05e-01	0	56	0	660078592	50	4311
2026-01-03 12:34:55.81	288.23	34.89	-39.2	-41.2	22.9	6.08e-01	0	56	0	661651456	50	4421
2026-01-03 12:34:56.82	288.67	34.78	-39.0	-40.9	23.0	6.05e-01	0	56	0	663748608	50	4288
2026-01-03 12:34:57.83	289.10	34.67	-38.8	-40.7	23.3	6.03e-01	0	56	0	665321472	49	4425
2026-01-03 12:34:58.84	289.53	34.55	-39.0	-40.9	23.1	6.06e-01	0	56	0	667418624	49	4540
2026-01-03 12:34:59.85	289.95	34.44	-39.0	-40.9	23.0	6.06e-01	0	56	0	669515776	49	4527
2026-01-03 12:35:00.86	290.38	34.32	-38.9	-40.7	23.3	6.07e-01	0	56	0	671088640	49	4433
2026-01-03 12:35:01.87	290.80	34.20	-38.8	-40.7	23.3	6.07e-01	0	56	0	673185792	49	4416
2026-01-03 12:35:02.88	291.21	34.08	-39.0	-40.9	23.1	6.06e-01	0	56	0	674758656	49	4529
2026-01-03 12:35:03.89	291.63	33.96	-38.8	-40.7	23.3	6.03e-01	0	56	0	676855808	49	4420
2026-01-03 12:35:04.90	292.04	33.84	-38.8	-40.7	23.3	6.06e-01	0	56	0	678952960	49	4433
2026-01-03 12:35:05.91	292.44	33.72	-38.9	-40.9	23.1	6.05e-01	0	56	0	680525824	49	4499
2026-01-03 12:35:06.92	292.85	33.59	-38.6	-40.5	23.5	6.07e-01	0	56	0	682622976	49	4311
2026-01-03 12:35:07.93	293.25	33.47	-38.6	-40.4	23.5	6.05e-01	0	56	0	684195840	49	4274
2026-01-03 12:35:08.94	293.65	33.34	-38.7	-40.6	23.4	6.06e-01	0	56	0	686292992	49	4346
2026-01-03 12:35:09.95	294.04	33.21	-38.9	-40.8	23.2	6.06e-01	0	56	0	688390144	49	4446
2026-01-03 12:35:10.96	294.43	33.09	-38.8	-40.7	23.3	6.05e-01	0	56	0	689963008	49	4394
2026-01-03 12:35:11.97	294.82	32.96	-38.7	-40.5	23.5	6.06e-01	0	56	0	692060160	49	4315
2026-01-03 12:35:12.98	295.20	32.83	-38.6	-40.4	23.5	6.07e-01	0	56	0	693633024	49	4275
2026-01-03 12:35:13.99	295.59	32.70	-38.6	-40.4	23.6	6.06e-01	0	56	0	695730176	49	4251
2026-01-03 12:35:15.00	295.97	32.57	-38.6	-40.4	23.6	6.08e-01	0	56	0	697827328	49	4275
2026-01-03 12:35:16.01	296.34	32.44	-38.6	-40.5	23.5	6.08e-01	0	56	0	699400192	49	4298
2026-01-03 12:35:17.02	296.71	32.30	-38.8	-40.6	23.3	6.05e-01	0	56	0	701497344	49	4382
2026-01-03 12:35:18.03	297.08	32.17	-38.7	-40.6	23.3	6.06e-01	0	56	0	703070208	49	4382
2026-01-03 12:35:19.03	297.45	32.04	-38.6	-40.4	23.5	6.07e-01	0	56	0	705167360	49	4290
2026-01-03 12:35:20.04	297.81	31.91	-38.6	-40.4	23.5	6.03e-01	0	56	0	707264512	49	4264
2026-01-03 12:35:21.05	298.17	31.77	-38.6	-40.5	23.4	6.07e-01	0	56	0	708837376	49	4303
2026-01-03 12:35:22.06	298.53	31.64	-38.6	-40.5	23.5	6.05e-01	0	56	0	710934528	49	4296
2026-01-03 12:35:23.07	298.88	31.50	-38.7	-40.6	23.3	6.08e-01	0	56	0	713031680	49	4358
2026-01-03 12:35:24.08	299.23	31.36	-38.7	-40.6	23.3	6.03e-01	0	56	0	714604544	49	4353
2026-01-03 12:35:25.09	299.58	31.23	-38.7	-40.5	23.4	6.03e-01	0	56	0	716701696	49	4315
2026-01-03 12:35:26.10	299.93	31.09	-38.7	-40.6	23.2	6.06e-01	0	56	0	718274560	49	4374
2026-01-03 12:35:27.11	300.27	30.95	-38.7	-40.6	23.2	6.06e-01	0	56	0	720371712	49	4363
2026-01-03 12:35:28.12	300.61	30.82	-38.6	-40.4	23.4	6.04e-01	0	56	0	722468864	49	4261
2026-01-03 12:35:29.13	300.94	30.68	-38.6	-40.5	23.4	6.07e-01	0	56	0	724041728	49	4292
2026-01-03 12:35:30.14	301.28	30.54	-38.7	-40.5	23.3	6.05e-01	0	56	0	726138880	49	4329
2026-01-03 12:35:31.15	301.61	30.40	-38.7	-40.6	23.2	6.05e-01	0	56	0	728236032	49	4371
2026-01-03 12:35:32.16	301.94	30.26	-38.8	-40.7	23.1	6.05e-01	0	56	0	729808896	49	4415
2026-01-03 12:35:33.17	302.26	30.12	-38.8	-40.7	23.2	6.08e-01	0	56	0	731906048	49	4393
2026-01-03 12:35:34.18	302.58	29.98	-38.7	-40.6	23.3	6.05e-01	0	56	0	733478912	49	4351
2026-01-03 12:35:35.19	302.90	29.84	-38.8	-40.7	23.2	6.08e-01	0	56	0	735576064	49	4426
2026-01-03 12:35:36.20	303.22	29.70	-38.9	-40.9	23.0	6.05e-01	0	56	0	737673216	49	4512
2026-01-03 12:35:37.21	303.53	29.56	-38.8	-40.7	23.2	6.05e-01	0	56	0	739246080	49	4427
2026-01-03 12:35:38.22	303.84	29.42	-38.7	-40.6	23.3	6.06e-01	0	56	0	741343232	49	4349
2026-01-03 12:35:39.23	304.15	29.28	-38.8	-40.7	23.2	6.06e-01	0	56	0	742916096	49	4434
2026-01-03 12:35:40.24	304.46	29.14	-39.0	-41.0	23.0	6.07e-01	0	56	0	745013248	49	4551
2026-01-03 12:35:41.25	304.76	29.00	-39.0	-41.0	22.9	6.05e-01	0	56	0	747110400	49	4555
2026-01-03 12:35:42.26	305.06	28.86	-39.0	-41.0	23.0	6.06e-01	0	56	0	748683264	49	4550
2026-01-03 12:35:43.27	305.36	28.72	-39.0	-40.9	23.0	6.06e-01	0	56	0	750780416	49	4533
2026-01-03 12:35:44.28	305.65	28.58	-39.0	-41.0	22.9	6.06e-01	0	56	0	752353280	49	4573
2026-01-03 12:35:45.29	305.94	28.44	-39.1	-41.1	22.8	6.06e-01	0	56	0	754450432	49	4632
2026-01-03 12:35:46.30	306.23	28.30	-39.1	-41.1	22.8	6.09e-01	0	56	0	756547584	49	4609
2026-01-03 12:35:47.31	306.52	28.16	-39.1	-41.1	22.9	6.06e-01	0	56	0	758120448	49	4610
2026-01-03 12:35:48.32	306.80	28.02	-39.2	-41.2	22.7	6.06e-01	0	56	0	760217600	49	4665
2026-01-03 12:35:49.33	307.08	27.88	-39.2	-41.2	22.7	6.05e-01	0	56	0	761790464	49	4702
2026-01-03 12:35:50.34	307.36	27.74	-39.2	-41.2	22.7	6.08e-01	0	56	0	763887616	49	4661
2026-01-03 12:35:51.35	307.64	27.60	-39.2	-41.2	22.7	6.07e-01	0	56	0	765984768	49	4673
2026-01-03 12:35:52.36	307.91	27.46	-39.3	-41.3	22.6	6.06e-01	0	56	0	767557632	49	4758
2026-01-03 12:35:53.37	308.19	27.32	-39.4	-41.5	22.4	6.06e-01	0	56	0	769654784	49	4855
2026-01-03 12:35:54.38	308.45	27.18	-39.5	-41.5	22.4	6.06e-01	0	56	0	771227648	49	4856
2026-01-03 12:35:55.39	308.72	27.04	-39.6	-41.7	22.2	6.05e-01	0	56	0	773324800	49	4951
2026-01-03 12:35:56.40	308.99	26.90	-39.6	-41.8	22.1	6.04e-01	0	56	0	775421952	49	4994
2026-01-03 12:35:57.41	309.25	26.76	-39.6	-41.8	22.1	6.07e-01	0	56	0	776994816	49	5004
2026-01-03 12:35:58.41	309.51	26.62	-39.5	-41.6	22.2	6.04e-01	0	56	0	779091968	49	4916
2026-01-03 12:35:59.42	309.76	26.48	-39.4	-41.5	22.4	6.06e-01	0	56	0	781189120	49	4847
2026-01-03 12:36:00.43	310.02	26.34	-39.4	-41.5	22.3	6.06e-01	0	56	0	782761984	49	4860
2026-01-03 12:36:01.44	310.27	26.20	-39.5	-41.6	22.3	6.06e-01	0	56	0	784859136	49	4875
2026-01-03 12:36:02.45	310.52	26.07	-39.3	-41.4	22.4	6.08e-01	0	56	0	786432000	49	4790
2026-01-03 12:36:03.46	310.77	25.93	-39.4	-41.4	22.4	6.06e-01	0	56	0	788529152	49	4799
2026-01-03 12:36:04.47	311.02	25.79	-39.3	-41.3	22.5	6.05e-01	0	56	0	790626304	49	4755
2026-01-03 12:36:05.48	311.26	25.65	-39.2	-41.2	22.6	6.07e-01	0	56	0	792199168	49	4699
2026-01-03 12:36:06.49	311.50	25.51	-39.3	-41.3	22.5	6.05e-01	0	56	0	794296320	49	4735
2026-01-03 12:36:07.50	311.74	25.38	-39.3	-41.4	22.4	6.06e-01	0	56	0	796393472	49	4776
2026-01-03 12:36:08.51	311.98	25.24	-39.4	-41.5	22.3	6.04e-01	0	56	0	797966336	49	4822
2026-01-03 12:36:09.51	312.21	25.10	-39.4	-41.5	22.3	6.07e-01	0	56	0	800063488	49	4859
2026-01-03 12:36:10.52	312.45	24.97	-39.4	-41.5	22.3	6.06e-01	0	56	0	801636352	49	4855
2026-01-03 12:36:11.53	312.68	24.83	-39.5	-41.6	22.2	6.05e-01	0	56	0	803733504	49	4902
2026-01-03 12:36:12.54	312.91	24.70	-39.5	-41.7	22.2	6.03e-01	0	56	0	805830656	49	4931
2026-01-03 12:36:13.55	313.14	24.56	-39.4	-41.5	22.3	6.09e-01	0	56	0	807403520	49	4841
2026-01-03 12:36:14.56	313.36	24.43	-39.5	-41.5	22.3	6.05e-01	0	56	0	809500672	49	4864
2026-01-03 12:36:15.57	313.58	24.29	-39.5	-41.6	22.2	6.05e-01	0	56	0	811073536	49	4910
2026-01-03 12:36:16.58	313.81	24.16	-39.5	-41.7	22.1	6.07e-01	0	56	0	813170688	49	4944
2026-01-03 12:36:17.59	314.03	24.02	-39.6	-41.7	22.0	6.06e-01	0	56	0	815267840	49	4977
2026-01-03 12:36:18.60	314.24	23.89	-39.4	-41.5	22.3	6.07e-01	0	56	0	816840704	49	4858
2026-01-03 12:36:19.61	314.46	23.75	-39.4	-41.5	22.2	6.08e-01	0	56	0	818937856	49	4867
2026-01-03 12:36:20.62	314.67	23.62	-39.5	-41.7	22.1	6.05e-01	0	56	0	820510720	49	4927
2026-01-03 12:36:21.63	314.89	23.49	-39.6	-41.8	22.0	6.06e-01	0	56	0	822607872	49	5010
2026-01-03 12:36:22.64	315.10	23.36	-39.8	-42.0	21.8	6.05e-01	0	56	0	824705024	50	4818
2026-01-03 12:36:23.65	315.30	23.22	-39.5	-41.6	22.1	6.07e-01	0	56	0	826277888	50	4646
2026-01-03 12:36:24.65	315.51	23.09	-39.4	-41.5	22.2	6.05e-01	0	56	0	828375040	50	4589
2026-01-03 12:36:25.67	315.72	22.96	-39.4	-41.5	22.2	6.06e-01	0	56	0	829947904	50	4583
2026-01-03 12:36:26.68	315.92	22.83	-39.4	-41.5	22.3	6.07e-01	0	56	0	832045056	50	4581
2026-01-03 12:36:27.68	316.12	22.70	-39.4	-41.5	22.3	6.06e-01	0	56	0	834142208	50	4581
2026-01-03 12:36:28.69	316.32	22.57	-39.4	-41.5	22.2	6.07e-01	0	56	0	835715072	50	4588
2026-01-03 12:36:29.70	316.51	22.44	-39.4	-41.5	22.3	6.06e-01	0	56	0	837812224	50	4562
2026-01-03 12:36:30.71	316.71	22.31	-39.4	-41.5	22.3	6.05e-01	0	56	0	839385088	50	4550
2026-01-03 12:36:31.72	316.91	22.18	-39.5	-41.6	22.2	6.06e-01	0	56	0	841482240	50	4625
2026-01-03 12:36:32.73	317.10	22.05	-39.6	-41.7	22.1	6.07e-01	0	56	0	843579392	50	4673
2026-01-03 12:36:33.74	317.29	21.93	-39.6	-41.8	21.9	6.05e-01	0	56	0	845152256	50	4715
2026-01-03 12:36:34.75	317.48	21.80	-39.4	-41.6	22.2	6.07e-01	0	56	0	847249408	50	4600
2026-01-03 12:36:35.76	317.67	21.67	-39.4	-41.5	22.2	6.04e-01	0	56	0	849346560	50	4565
2026-01-03 12:36:36.77	317.85	21.54	-39.4	-41.5	22.2	6.06e-01	0	56	0	850919424	50	4546
2026-01-03 12:36:37.78	318.04	21.42	-39.3	-41.4	22.3	6.07e-01	0	56	0	853016576	50	4523
2026-01-03 12:36:38.79	318.22	21.29	-39.4	-41.4	22.3	6.07e-01	0	56	0	854589440	50	4541
2026-01-03 12:36:39.80	318.40	21.17	-39.3	-41.4	22.3	6.06e-01	0	56	0	856686592	50	4511
2026-01-03 12:36:40.81	318.58	21.04	-39.3	-41.3	22.4	6.08e-01	0	56	0	858783744	50	4490
2026-01-03 12:36:41.82	318.76	20.92	-39.3	-41.3	22.4	6.03e-01	0	56	0	860356608	50	4476
2026-01-03 12:36:42.83	318.94	20.79	-39.2	-41.3	22.4	6.09e-01	0	56	0	862453760	50	4444
2026-01-03 12:36:43.84	319.12	20.67	-39.2	-41.2	22.4	6.06e-01	0	56	0	864550912	50	4435
2026-01-03 12:36:44.85	319.29	20.54	-39.2	-41.2	22.4	6.07e-01	0	56	0	866123776	50	4428
2026-01-03 12:36:45.86	319.46	20.42	-39.2	-41.2	22.4	6.04e-01	0	56	0	868220928	50	4439
2026-01-03 12:36:46.87	319.64	20.30	-39.2	-41.3	22.4	6.08e-01	0	56	0	869793792	50	4444
2026-01-03 12:36:47.88	319.81	20.17	-39.3	-41.3	22.4	6.07e-01	0	56	0	871890944	50	4491
2026-01-03 12:36:48.89	319.98	20.05	-39.2	-41.3	22.4	6.08e-01	0	56	0	873988096	50	4459
2026-01-03 12:36:49.90	320.14	19.93	-39.2	-41.3	22.4	6.06e-01	0	56	0	875560960	50	4472
2026-01-03 12:36:50.91	320.31	19.81	-39.3	-41.4	22.3	6.06e-01	0	56	0	877658112	50	4506
2026-01-03 12:36:51.92	320.47	19.69	-39.4	-41.5	22.2	6.09e-01	0	56	0	879230976	50	4575
2026-01-03 12:36:52.93	320.64	19.57	-39.4	-41.5	22.2	6.07e-01	0	56	0	881328128	50	4567
2026-01-03 12:36:53.94	320.80	19.45	-39.4	-41.5	22.1	6.04e-01	0	56	0	883425280	50	4590
2026-01-03 12:36:54.95	320.96	19.33	-39.4	-41.5	22.1	6.05e-01	0	56	0	884998144	50	4578
2026-01-03 12:36:55.96	321.12	19.21	-39.4	-41.5	22.1	6.08e-01	0	56	0	887095296	50	4591
2026-01-03 12:36:56.97	321.28	19.09	-39.4	-41.5	22.2	6.05e-01	0	56	0	888668160	50	4567
2026-01-03 12:36:57.98	321.43	18.97	-39.3	-41.4	22.3	6.07e-01	0	56	0	890765312	50	4524
2026-01-03 12:36:58.99	321.59	18.86	-39.3	-41.5	22.2	6.08e-01	0	56	0	892862464	50	4547
2026-01-03 12:37:00.00	321.74	18.74	-39.3	-41.3	22.3	6.05e-01	0	56	0	894435328	50	4487
2026-01-03 12:37:01.01	321.90	18.62	-39.2	-41.3	22.4	6.08e-01	0	56	0	896532480	50	4450
2026-01-03 12:37:02.02	322.05	18.51	-39.2	-41.3	22.4	6.07e-01	0	56	0	898105344	50	4446
2026-01-03 12:37:03.03	322.20	18.39	-39.3	-41.3	22.3	6.07e-01	0	56	0	900202496	50	4491
2026-01-03 12:37:04.04	322.35	18.27	-39.2	-41.2	22.3	6.05e-01	0	56	0	902299648	50	4438
2026-01-03 12:37:05.04	322.50	18.16	-39.2	-41.2	22.4	6.03e-01	0	56	0	903872512	50	4435
2026-01-03 12:37:06.05	322.65	18.04	-39.2	-41.3	22.3	6.06e-01	0	56	0	905969664	50	4466
2026-01-03 12:37:07.06	322.79	17.93	-39.2	-41.3	22.3	6.04e-01	0	56	0	907542528	50	4487
2026-01-03 12:37:08.07	322.94	17.82	-39.2	-41.3	22.3	6.02e-01	0	56	0	909639680	50	4448
2026-01-03 12:37:09.08	323.08	17.70	-39.2	-41.2	22.4	6.03e-01	0	56	0	911736832	50	4437
2026-01-03 12:37:10.09	323.22	17.59	-39.2	-41.2	22.3	6.03e-01	0	57	0	913309696	50	4437
2026-01-03 12:37:11.10	323.37	17.48	-39.1	-41.2	22.4	6.02e-01	0	56	0	915406848	50	4410
2026-01-03 12:37:12.11	323.51	17.37	-39.2	-41.2	22.3	6.04e-01	0	56	0	917504000	50	4434
2026-01-03 12:37:13.12	323.65	17.25	-39.2	-41.2	22.3	6.02e-01	0	56	0	919076864	50	4441
2026-01-03 12:37:14.13	323.78	17.14	-39.1	-41.2	22.4	6.02e-01	0	56	0	921174016	50	4397
2026-01-03 12:37:15.14	323.92	17.03	-39.2	-41.2	22.4	6.02e-01	0	56	0	922746880	50	4428
2026-01-03 12:37:16.15	324.06	16.92	-39.1	-41.2	22.4	6.03e-01	0	56	0	924844032	50	4405
2026-01-03 12:37:17.16	324.19	16.81	-39.1	-41.2	22.4	6.02e-01	0	56	0	926941184	50	4400
2026-01-03 12:37:18.17	324.33	16.70	-39.1	-41.2	22.3	6.03e-01	0	56	0	928514048	50	4424
2026-01-03 12:37:19.18	324.46	16.59	-39.1	-41.2	22.3	6.04e-01	0	56	0	930611200	50	4424
2026-01-03 12:37:20.19	324.60	16.48	-39.1	-41.2	22.4	6.03e-01	0	56	0	932708352	50	4425
2026-01-03 12:37:21.20	324.73	16.37	-39.1	-41.2	22.4	6.04e-01	0	56	0	934281216	50	4395
2026-01-03 12:37:22.20	324.86	16.27	-39.1	-41.2	22.4	6.02e-01	0	56	0	936378368	50	4398
2026-01-03 12:37:23.21	324.99	16.16	-39.1	-41.2	22.4	6.02e-01	0	56	0	937951232	50	4404
2026-01-03 12:37:24.22	325.11	16.05	-39.2	-41.3	22.3	6.04e-01	0	56	0	940048384	50	4448
2026-01-03 12:37:25.23	325.24	15.94	-39.2	-41.3	22.1	6.02e-01	0	56	0	942145536	50	4489
2026-01-03 12:37:26.24	325.37	15.84	-39.2	-41.3	22.2	6.01e-01	0	56	0	943718400	50	4456
2026-01-03 12:37:27.25	325.49	15.73	-39.2	-41.3	22.2	6.02e-01	0	56	0	945815552	50	4464
2026-01-03 12:37:28.26	325.62	15.63	-39.2	-41.3	22.1	6.00e-01	0	56	0	947388416	50	4491
2026-01-03 12:37:29.27	325.74	15.52	-39.3	-41.4	22.0	5.99e-01	0	56	0	949485568	50	4536
2026-01-03 12:37:30.28	325.87	15.41	-39.3	-41.4	22.1	6.02e-01	0	56	0	951582720	50	4534
2026-01-03 12:37:31.29	325.99	15.31	-39.2	-41.3	22.1	6.01e-01	0	56	0	953155584	50	4484
2026-01-03 12:37:32.30	326.11	15.21	-39.2	-41.4	22.1	6.05e-01	0	56	0	955252736	50	4495
2026-01-03 12:37:33.31	326.23	15.10	-39.2	-41.3	22.1	5.97e-01	0	56	0	956825600	50	4491
2026-01-03 12:37:34.32	326.35	15.00	-39.2	-41.3	22.1	6.03e-01	0	56	0	958922752	50	4485
2026-01-03 12:37:35.33	326.47	14.90	-39.2	-41.4	22.1	6.04e-01	0	56	0	961019904	50	4496
2026-01-03 12:37:36.34	326.59	14.79	-39.1	-41.2	22.2	6.00e-01	0	56	0	962592768	50	4432
2026-01-03 12:37:37.35	326.70	14.69	-39.1	-41.2	22.2	6.03e-01	0	56	0	964689920	50	4431
2026-01-03 12:37:38.36	326.82	14.59	-39.1	-41.2	22.2	6.02e-01	0	56	0	966262784	50	4429
2026-01-03 12:37:39.37	326.94	14.49	-39.2	-41.4	22.1	6.02e-01	0	56	0	968359936	50	4500
2026-01-03 12:37:40.38	327.05	14.39	-39.2	-41.3	22.2	6.02e-01	0	56	0	970457088	50	4455
2026-01-03 12:37:41.39	327.16	14.28	-39.1	-41.3	22.2	6.03e-01	0	56	0	972029952	50	4443
2026-01-03 12:37:42.40	327.28	14.18	-39.1	-41.2	21.4	6.02e-01	0	56	0	974127104	50	4441
2026-01-03 12:37:43.41	327.39	14.08	-39.1	-41.3	22.2	6.05e-01	0	56	0	975699968	50	4442
2026-01-03 12:37:44.42	327.50	13.98	-39.2	-41.3	22.1	6.03e-01	0	56	0	977797120	50	4477
2026-01-03 12:37:45.43	327.61	13.88	-39.3	-41.5	22.0	5.98e-01	0	56	0	979894272	50	4549
2026-01-03 12:37:46.43	327.72	13.79	-39.4	-41.6	21.8	6.03e-01	0	56	0	981467136	50	4616
2026-01-03 12:37:47.44	327.83	13.69	-39.5	-41.7	21.6	6.02e-01	0	56	0	983564288	50	4693
2026-01-03 12:37:48.45	327.94	13.59	-39.5	-41.8	21.6	6.02e-01	0	56	0	985661440	50	4725
2026-01-03 12:37:49.46	328.05	13.49	-39.6	-41.9	21.5	5.99e-01	0	56	0	987234304	50	4778
2026-01-03 12:37:50.47	328.15	13.39	-39.6	-41.8	21.5	6.02e-01	0	56	0	989331456	50	4749
2026-01-03 12:37:51.48	328.26	13.30	-39.6	-41.8	21.6	6.01e-01	0	56	0	990904320	50	4750
2026-01-03 12:37:52.49	328.37	13.20	-39.6	-41.9	21.5	6.01e-01	0	56	0	993001472	50	4797
2026-01-03 12:37:53.51	328.47	13.10	-39.7	-42.0	21.3	6.03e-01	0	56	0	995098624	50	4854
2026-01-03 12:37:54.51	328.57	13.01	-39.5	-41.8	21.5	6.02e-01	0	56	0	996671488	50	4735
2026-01-03 12:37:55.52	328.68	12.91	-39.4	-41.7	21.7	6.02e-01	0	56	0	998768640	50	4663
2026-01-03 12:37:56.53	328.78	12.82	-39.4	-41.7	21.6	5.99e-01	0	56	0	1000865792	50	4672
2026-01-03 12:37:57.54	328.88	12.72	-39.5	-41.7	21.6	6.05e-01	0	56	0	1002438656	50	4699
2026-01-03 12:37:58.55	328.98	12.63	-39.5	-41.8	21.5	6.02e-01	0	56	0	1004535808	50	4725
2026-01-03 12:37:59.56	329.09	12.53	-39.6	-42.0	21.3	6.05e-01	0	56	0	1006108672	50	4820
2026-01-03 12:38:00.57	329.19	12.44	-39.7	-42.0	21.2	6.01e-01	0	56	0	1008205824	50	4869
2026-01-03 12:38:01.58	329.28	12.34	-39.6	-41.9	21.4	6.03e-01	0	56	0	1010302976	50	4786
2026-01-03 12:38:02.59	329.38	12.25	-39.5	-41.7	21.5	6.02e-01	0	56	0	1011875840	50	4705
2026-01-03 12:38:03.60	329.48	12.16	-39.5	-41.8	21.5	6.02e-01	0	56	0	1013972992	50	4726
2026-01-03 12:38:04.61	329.58	12.06	-39.5	-41.8	21.5	6.02e-01	0	56	0	1015545856	50	4710
2026-01-03 12:38:05.62	329.68	11.97	-39.5	-41.8	21.5	6.04e-01	0	56	0	1017643008	50	4709
2026-01-03 12:38:06.63	329.77	11.88	-39.5	-41.8	21.4	6.04e-01	0	56	0	1019740160	50	4722
2026-01-03 12:38:07.64	329.87	11.79	-39.5	-41.8	21.4	6.02e-01	0	56	0	1021313024	50	4748
2026-01-03 12:38:08.65	329.96	11.70	-39.6	-42.0	21.3	6.06e-01	0	56	0	1023410176	50	4825
2026-01-03 12:38:09.66	330.06	11.60	-39.7	-42.1	21.2	6.02e-01	0	56	0	1024983040	50	4871
2026-01-03 12:38:10.67	330.15	11.51	-39.7	-42.0	21.1	6.02e-01	0	56	0	1027080192	50	4869
2026-01-03 12:38:11.68	330.25	11.42	-39.7	-42.0	21.2	6.04e-01	0	56	0	1029177344	50	4865
2026-01-03 12:38:12.69	330.34	11.33	-39.6	-42.0	21.2	6.02e-01	0	56	0	1030750208	50	4822
2026-01-03 12:38:13.70	330.43	11.24	-39.6	-42.0	21.3	6.03e-01	0	56	0	1032847360	50	4817
2026-01-03 12:38:14.71	330.52	11.15	-39.7	-42.1	21.1	6.00e-01	0	56	0	1034420224	50	4880
2026-01-03 12:38:15.72	330.61	11.06	-39.7	-42.2	21.0	6.03e-01	0	56	0	1036517376	50	4932
2026-01-03 12:38:16.73	330.70	10.97	-39.6	-42.0	21.1	6.03e-01	0	56	0	1038614528	50	4854
2026-01-03 12:38:17.74	330.79	10.89	-39.7	-42.1	21.1	6.04e-01	0	56	0	1040187392	50	4905
2026-01-03 12:38:18.75	330.88	10.80	-39.7	-42.1	21.0	6.06e-01	0	56	0	1042284544	50	4920
2026-01-03 12:38:19.75	330.97	10.71	-39.8	-42.2	21.0	6.00e-01	0	56	0	1043857408	50	4935
2026-01-03 12:38:20.76	331.06	10.62	-39.7	-42.1	21.0	6.03e-01	0	56	0	1045954560	50	4903
2026-01-03 12:38:21.77	331.15	10.53	-39.7	-42.1	21.0	6.03e-01	0	56	0	1048051712	50	4919
2026-01-03 12:38:22.78	331.23	10.45	-39.7	-42.2	20.9	6.07e-01	0	56	0	1049624576	50	4946
2026-01-03 12:38:23.79	331.32	10.36	-39.8	-42.2	20.9	6.02e-01	0	56	0	1051721728	50	4980
2026-01-03 12:38:24.80	331.41	10.27	-39.8	-42.2	20.9	6.02e-01	0	56	0	1053818880	50	4958
2026-01-03 12:38:25.81	331.49	10.19	-39.8	-42.2	20.9	6.01e-01	0	56	0	1055391744	50	4961
2026-01-03 12:38:26.82	331.58	10.10	-39.8	-42.2	20.8	6.00e-01	0	56	0	1057488896	50	4983
2026-01-03 12:38:27.83	331.66	10.01	-39.9	-42.3	20.7	6.03e-01	0	56	0	1059061760	50	5036
2026-01-03 12:38:28.84	331.74	9.93	-39.9	-42.4	20.7	6.01e-01	0	56	0	1061158912	50	5046
2026-01-03 12:38:29.85	331.83	9.84	-39.9	-42.4	20.7	5.99e-01	0	56	0	1063256064	50	5062
2026-01-03 12:38:30.86	331.91	9.76	-39.9	-42.4	20.7	6.03e-01	0	56	0	1064828928	50	5056
2026-01-03 12:38:31.87	331.99	9.67	-39.9	-42.5	20.6	6.01e-01	0	56	0	1066926080	50	5125
2026-01-03 12:38:32.88	332.08	9.59	-39.8	-42.4	20.7	6.03e-01	0	56	0	1069023232	50	5050
2026-01-03 12:38:33.89	332.16	9.51	-39.9	-42.4	20.6	6.03e-01	0	56	0	1070596096	50	5075
2026-01-03 12:38:34.90	332.24	9.42	-39.9	-42.4	20.6	6.00e-01	0	56	0	1072693248	50	5100
2026-01-03 12:38:35.91	332.32	9.34	-39.9	-42.5	20.5	6.01e-01	0	57	0	1074266112	50	5124
2026-01-03 12:38:36.92	332.40	9.25	-40.0	-42.6	20.4	6.02e-01	0	56	0	1076363264	50	5183
2026-01-03 12:38:37.93	332.48	9.17	-40.0	-42.6	20.4	6.01e-01	0	56	0	1078460416	50	5199
2026-01-03 12:38:38.94	332.56	9.09	-40.0	-42.6	20.4	6.04e-01	0	57	0	1080033280	50	5172
2026-01-03 12:38:39.95	332.64	9.01	-40.1	-42.8	20.2	6.01e-01	0	56	0	1082130432	50	5293
2026-01-03 12:38:40.96	332.71	8.92	-40.0	-42.6	20.4	6.05e-01	0	56	0	1083703296	50	5163
2026-01-03 12:38:41.97	332.79	8.84	-40.0	-42.7	20.2	6.01e-01	0	56	0	1085800448	50	5231
2026-01-03 12:38:42.98	332.87	8.76	-40.1	-42.8	20.1	6.04e-01	0	57	0	1087897600	50	5324
2026-01-03 12:38:43.99	332.95	8.68	-40.1	-42.7	20.2	6.02e-01	0	56	0	1089470464	50	5270
2026-01-03 12:38:45.00	333.02	8.60	-40.1	-42.8	20.1	6.03e-01	0	57	0	1091567616	50	5309
2026-01-03 12:38:46.01	333.10	8.52	-40.2	-43.0	19.9	6.00e-01	0	57	0	1093140480	51	5140
2026-01-03 12:38:47.02	333.17	8.44	-40.2	-42.9	19.9	6.04e-01	0	56	0	1095237632	51	5095
2026-01-03 12:38:48.03	333.25	8.35	-40.2	-43.0	19.8	6.02e-01	0	56	0	1097334784	51	5153
2026-01-03 12:38:49.04	333.32	8.27	-40.1	-42.9	20.0	6.04e-01	0	57	0	1098907648	51	5055
2026-01-03 12:38:50.05	333.40	8.19	-40.2	-42.9	19.9	6.01e-01	0	57	0	1101004800	51	5094
2026-01-03 12:38:51.06	333.47	8.11	-40.2	-43.0	19.8	6.06e-01	0	56	0	1102577664	51	5146
2026-01-03 12:38:52.07	333.55	8.04	-40.2	-43.0	19.8	6.03e-01	0	57	0	1104674816	51	5159
2026-01-03 12:38:53.08	333.62	7.96	-45.0	-62.2	3.9	7.47e-01	0	57	104	1105723392	60	27843
2026-01-03 12:38:54.09	333.69	7.88	-45.4	-64.1	3.8	7.46e-01	0	56	104	1105723392	61	32715
2026-01-03 12:38:55.10	333.76	7.80	-45.6	-64.4	3.8	7.42e-01	0	56	104	1105723392	61	34038
2026-01-03 12:38:56.11	333.84	7.72	-45.9	-64.7	3.8	7.45e-01	0	57	104	1105723392	62	33067
2026-01-03 12:38:57.12	333.91	7.64	-46.0	-64.8	3.8	7.47e-01	0	56	104	1105723392	62	33453
2026-01-03 12:38:58.13	333.98	7.56	-46.1	-64.9	3.8	7.46e-01	0	57	104	1105723392	62	33744
2026-01-03 12:38:59.14	334.05	7.49	-46.1	-64.9	3.8	7.45e-01	0	57	104	1105723392	62	33894
2026-01-03 12:39:00.15	334.12	7.41	-46.1	-65.0	3.8	7.47e-01	0	57	104	1105723392	62	34194
2026-01-03 12:39:01.16	334.19	7.33	-46.2	-65.0	3.8	7.45e-01	0	57	104	1105723392	62	34227
2026-01-03 12:39:02.17	334.26	7.25	-46.1	-65.0	3.8	7.42e-01	0	57	104	1105723392	62	34263
2026-01-03 12:39:03.18	334.33	7.18	-45.7	-65.0	3.8	7.46e-01	0	57	104	1105723392	62	34098
2026-01-03 12:39:04.19	334.40	7.10	-45.9	-65.0	3.8	7.45e-01	0	57	104	1105723392	62	34096
2026-01-03 12:39:05.20	334.47	7.02	-46.1	-65.0	3.8	7.47e-01	0	57	104	1105723392	62	34097
2026-01-03 12:39:06.21	334.53	6.95	-46.1	-64.9	3.8	7.43e-01	0	57	104	1105723392	62	33984
2026-01-03 12:39:07.22	334.60	6.87	-46.1	-64.9	3.8	7.45e-01	0	57	104	1105723392	62	33993
2026-01-03 12:39:08.23	334.67	6.80	-46.0	-64.9	3.8	7.44e-01	0	57	104	1105723392	62	34001
2026-01-03 12:39:09.24	334.74	6.72	-46.1	-64.9	3.8	7.47e-01	0	57	104	1105723392	62	34004
2026-01-03 12:39:10.25	334.80	6.64	-46.0	-64.9	3.8	7.46e-01	0	57	104	1105723392	62	33955
2026-01-03 12:39:11.26	334.87	6.57	-46.0	-64.9	3.8	7.47e-01	0	57	104	1105723392	62	33907
2026-01-03 12:39:12.28	334.94	6.49	-46.0	-64.9	3.8	7.46e-01	0	57	104	1105723392	62	33990
2026-01-03 12:39:13.29	335.00	6.42	-46.0	-64.9	3.8	7.43e-01	0	57	104	1105723392	62	33914
2026-01-03 12:39:14.30	335.07	6.34	-46.0	-64.9	3.8	7.45e-01	0	57	104	1105723392	62	33946
2026-01-03 12:39:15.31	335.13	6.27	-46.0	-64.9	3.8	7.43e-01	0	57	104	1105723392	62	33853
2026-01-03 12:39:16.32	335.20	6.20	-46.0	-64.9	3.8	7.45e-01	0	57	104	1105723392	62	33950
2026-01-03 12:39:17.33	335.26	6.12	-46.0	-64.9	3.8	7.46e-01	0	57	104	1105723392	62	33785
2026-01-03 12:39:18.34	335.33	6.05	-46.0	-64.9	3.8	7.47e-01	0	57	104	1105723392	62	33864
2026-01-03 12:39:19.35	335.39	5.98	-46.0	-64.9	3.8	7.43e-01	0	57	104	1105723392	62	33850
2026-01-03 12:39:20.36	335.45	5.90	-46.0	-64.9	3.8	7.44e-01	0	57	104	1105723392	62	33852
2026-01-03 12:39:21.37	335.52	5.83	-46.0	-64.9	3.8	7.46e-01	0	57	104	1105723392	62	33867
2026-01-03 12:39:22.39	335.58	5.76	-46.0	-64.9	3.8	7.47e-01	0	57	104	1105723392	62	33832
2026-01-03 12:39:23.40	335.64	5.68	-46.0	-64.9	3.8	7.44e-01	0	57	104	1105723392	62	33879
2026-01-03 12:39:24.41	335.70	5.61	-46.0	-64.9	3.8	7.45e-01	0	57	104	1105723392	62	33881
2026-01-03 12:39:25.42	335.77	5.54	-46.0	-64.9	3.8	7.46e-01	0	57	104	1105723392	62	33841
2026-01-03 12:39:26.43	335.83	5.47	-46.0	-64.9	3.8	7.45e-01	0	57	104	1105723392	62	33821
2026-01-03 12:39:27.44	335.89	5.39	-46.0	-64.9	3.8	7.48e-01	0	57	104	1105723392	62	33770
2026-01-03 12:39:28.45	335.95	5.32	-46.0	-64.9	3.8	7.44e-01	0	57	104	1105723392	62	33870
2026-01-03 12:39:29.46	336.01	5.25	-46.0	-64.9	3.8	7.44e-01	0	57	104	1105723392	62	33805
