passes_logs/2026/01/03/R2.0S_Moscow/R2.0S_Moscow__20260103_060823_FENGYUN_3E_rec.log

#Pass ID: 20260103_060823_FENGYUN 3E
#Satellite: FENGYUN 3E
#Configuration: FENGYUN 3E
#almurnet v.1.7.20251203
#Start time: 2026-01-03 06:08:23

#Version: 2.2.20231116
#Station: R2.0S_Moscow
#Location: 37.707566 lon 55.798166 lat
#TLE: 1 49008U 21062A   26002.32147302  .00000239  00000+0  13357-3 0  9999
#TLE: 2 49008  98.7477   7.5995 0001398 164.3382 195.7838 14.19884140233041

#Time	Az	El	Level	Level2	SNR	BER	BlckErr	Temp	State	Recorded	gain1	gain2
2026-01-03 06:08:23.95	8.73	2.04	-38.4	-50.7	3.8	8.46e-01	0	48	0	0	47	14868
2026-01-03 06:08:24.96	8.65	2.09	-38.3	-50.8	3.8	8.47e-01	0	48	104	0	46	15814
2026-01-03 06:08:25.97	8.56	2.14	-38.4	-50.8	3.8	8.46e-01	0	48	104	0	46	15781
2026-01-03 06:08:26.98	8.48	2.19	-38.4	-50.7	3.8	8.47e-01	0	48	104	0	46	15733
2026-01-03 06:08:27.99	8.40	2.24	-38.4	-50.7	3.8	8.47e-01	0	48	104	0	46	15747
2026-01-03 06:08:29.00	8.31	2.29	-38.4	-50.8	3.8	8.47e-01	0	48	104	0	46	15777
2026-01-03 06:08:30.01	8.23	2.35	-38.4	-50.8	3.8	8.47e-01	0	48	104	0	46	15773
2026-01-03 06:08:31.03	8.14	2.40	-38.3	-50.7	3.8	8.46e-01	0	48	104	0	46	15737
2026-01-03 06:08:32.04	8.06	2.45	-38.3	-50.7	3.8	8.46e-01	0	48	104	0	46	15758
2026-01-03 06:08:33.05	7.97	2.50	-38.3	-50.7	3.8	8.47e-01	0	48	104	0	46	15720
2026-01-03 06:08:34.06	7.88	2.55	-38.3	-50.8	3.8	8.47e-01	0	49	104	0	46	15766
2026-01-03 06:08:35.07	7.80	2.61	-38.4	-50.7	3.8	8.46e-01	0	48	104	0	46	15753
2026-01-03 06:08:36.08	7.71	2.66	-38.4	-50.7	3.8	8.46e-01	0	49	104	0	46	15758
2026-01-03 06:08:37.09	7.62	2.71	-38.4	-50.7	3.8	8.46e-01	0	49	104	0	46	15726
2026-01-03 06:08:38.10	7.54	2.76	-38.3	-50.8	3.8	8.47e-01	0	49	104	0	46	15805
2026-01-03 06:08:39.11	7.45	2.81	-38.4	-50.8	3.8	8.47e-01	0	49	104	0	46	15777
2026-01-03 06:08:40.12	7.36	2.86	-38.3	-50.7	3.8	8.47e-01	0	49	104	0	46	15744
2026-01-03 06:08:41.14	7.27	2.92	-38.4	-50.8	3.8	8.46e-01	0	49	104	0	46	15764
2026-01-03 06:08:42.15	7.18	2.97	-38.4	-50.7	3.8	8.46e-01	0	49	104	0	46	15740
2026-01-03 06:08:43.16	7.09	3.02	-38.3	-50.8	3.8	8.45e-01	0	49	104	0	46	15770
2026-01-03 06:08:44.17	7.00	3.07	-38.4	-50.7	3.8	8.47e-01	0	49	104	0	46	15725
2026-01-03 06:08:45.18	6.92	3.13	-38.4	-50.7	3.8	8.47e-01	0	49	104	0	46	15741
2026-01-03 06:08:46.19	6.83	3.18	-38.3	-50.7	3.8	8.47e-01	0	49	104	0	46	15709
2026-01-03 06:08:47.20	6.74	3.23	-38.3	-50.7	3.8	8.46e-01	0	49	104	0	46	15719
2026-01-03 06:08:48.21	6.64	3.28	-38.4	-50.7	3.8	8.46e-01	0	49	104	0	46	15743
2026-01-03 06:08:49.22	6.55	3.33	-38.3	-50.7	3.8	8.46e-01	0	50	104	0	46	15740
2026-01-03 06:08:50.23	6.46	3.39	-38.4	-50.8	3.8	8.47e-01	0	49	104	0	46	15771
2026-01-03 06:08:51.24	6.37	3.44	-38.3	-50.7	3.8	8.45e-01	0	50	104	0	46	15718
2026-01-03 06:08:52.25	6.28	3.49	-38.4	-50.8	3.8	8.46e-01	0	50	104	0	46	15772
2026-01-03 06:08:53.26	6.19	3.54	-38.4	-50.7	3.8	8.46e-01	0	50	104	0	46	15745
2026-01-03 06:08:54.27	6.09	3.60	-38.3	-50.8	3.8	8.46e-01	0	50	104	0	46	15783
2026-01-03 06:08:55.28	6.00	3.65	-38.4	-50.7	3.8	8.47e-01	0	50	104	0	46	15725
2026-01-03 06:08:56.29	5.91	3.70	-38.3	-50.8	3.8	8.47e-01	0	50	104	0	46	15768
2026-01-03 06:08:57.30	5.81	3.75	-38.3	-50.8	3.8	8.45e-01	0	50	104	0	46	15766
2026-01-03 06:08:58.32	5.72	3.81	-38.4	-50.7	3.8	8.46e-01	0	50	104	0	46	15742
2026-01-03 06:08:59.33	5.62	3.86	-38.3	-50.7	3.8	8.46e-01	0	50	104	0	46	15730
2026-01-03 06:09:00.34	5.53	3.91	-38.3	-50.8	3.8	8.47e-01	0	50	104	0	46	15771
2026-01-03 06:09:01.35	5.43	3.96	-38.4	-50.8	3.8	8.45e-01	0	50	104	0	46	15768
2026-01-03 06:09:02.36	5.34	4.02	-38.3	-50.7	3.8	8.45e-01	0	51	104	0	46	15738
2026-01-03 06:09:03.37	5.24	4.07	-38.3	-50.8	3.8	8.46e-01	0	50	104	0	46	15774
2026-01-03 06:09:04.38	5.15	4.12	-38.3	-50.7	3.8	8.46e-01	0	51	104	0	46	15717
2026-01-03 06:09:05.39	5.05	4.18	-38.3	-50.7	3.8	8.47e-01	0	51	104	0	46	15747
2026-01-03 06:09:06.40	4.95	4.23	-38.3	-50.8	3.8	8.47e-01	0	51	104	0	46	15765
2026-01-03 06:09:07.41	4.86	4.28	-38.3	-50.7	3.8	8.46e-01	0	51	104	0	46	15743
2026-01-03 06:09:08.42	4.76	4.33	-38.3	-50.8	3.8	8.46e-01	0	51	104	0	46	15800
2026-01-03 06:09:09.43	4.66	4.39	-38.3	-50.7	3.8	8.47e-01	0	51	104	0	46	15729
2026-01-03 06:09:10.44	4.56	4.44	-38.3	-50.7	3.8	8.46e-01	0	51	104	0	46	15700
2026-01-03 06:09:11.46	4.46	4.49	-38.3	-50.7	3.8	8.46e-01	0	51	104	0	46	15712
2026-01-03 06:09:12.47	4.36	4.55	-38.3	-50.7	3.8	8.46e-01	0	51	104	0	46	15711
2026-01-03 06:09:13.48	4.26	4.60	-38.4	-50.7	3.8	8.46e-01	0	51	104	0	46	15702
2026-01-03 06:09:14.49	4.16	4.65	-38.3	-50.7	3.8	8.46e-01	0	51	104	0	46	15734
2026-01-03 06:09:15.50	4.06	4.70	-38.4	-50.8	3.8	8.46e-01	0	51	104	0	46	15765
2026-01-03 06:09:16.51	3.96	4.76	-38.3	-50.8	3.8	8.45e-01	0	51	104	0	46	15773
2026-01-03 06:09:17.52	3.86	4.81	-38.3	-50.7	3.8	8.46e-01	0	51	104	0	46	15714
2026-01-03 06:09:18.53	3.76	4.86	-38.4	-50.7	3.8	8.48e-01	0	51	104	0	46	15702
2026-01-03 06:09:19.54	3.66	4.92	-38.3	-50.7	3.8	8.45e-01	0	51	104	0	46	15754
2026-01-03 06:09:20.55	3.56	4.97	-38.4	-50.7	3.8	8.45e-01	0	52	104	0	46	15723
2026-01-03 06:09:21.56	3.45	5.02	-38.3	-50.8	3.8	8.46e-01	0	51	104	0	46	15768
2026-01-03 06:09:22.58	3.35	5.08	-38.3	-50.7	3.8	8.47e-01	0	52	104	0	46	15759
2026-01-03 06:09:23.59	3.25	5.13	-38.3	-50.7	3.8	8.46e-01	0	52	104	0	46	15691
2026-01-03 06:09:24.60	3.14	5.18	-38.3	-50.8	3.8	8.46e-01	0	52	104	0	46	15782
2026-01-03 06:09:25.61	3.04	5.24	-38.3	-50.8	3.8	8.46e-01	0	52	104	0	46	15778
2026-01-03 06:09:26.62	2.93	5.29	-38.4	-50.7	3.8	8.46e-01	0	52	104	0	46	15727
2026-01-03 06:09:27.63	2.83	5.34	-38.3	-50.8	3.8	8.46e-01	0	52	104	0	46	15783
2026-01-03 06:09:28.64	2.72	5.39	-38.3	-50.7	3.8	8.47e-01	0	52	104	0	46	15727
2026-01-03 06:09:29.65	2.62	5.45	-38.3	-50.7	3.8	8.46e-01	0	52	104	0	46	15710
2026-01-03 06:09:30.66	2.51	5.50	-38.4	-50.7	3.8	8.46e-01	0	52	104	0	46	15693
2026-01-03 06:09:31.67	2.41	5.55	-38.4	-50.7	3.8	8.46e-01	0	52	104	0	46	15704
2026-01-03 06:09:32.69	2.30	5.61	-38.4	-50.7	3.8	8.46e-01	0	52	104	0	46	15745
2026-01-03 06:09:33.70	2.19	5.66	-38.3	-50.7	3.8	8.45e-01	0	52	104	0	46	15751
2026-01-03 06:09:34.71	2.08	5.72	-38.3	-50.8	3.8	8.46e-01	0	52	104	0	46	15774
2026-01-03 06:09:35.72	1.97	5.77	-38.3	-50.7	3.8	8.45e-01	0	52	104	0	46	15747
2026-01-03 06:09:36.73	1.87	5.82	-38.4	-50.7	3.8	8.46e-01	0	52	104	0	46	15726
2026-01-03 06:09:37.74	1.76	5.87	-38.3	-50.8	3.8	8.46e-01	0	52	104	0	46	15771
2026-01-03 06:09:38.75	1.65	5.93	-38.3	-50.7	3.8	8.45e-01	0	52	104	0	46	15718
2026-01-03 06:09:39.76	1.54	5.98	-38.3	-50.7	3.8	8.47e-01	0	53	104	0	46	15729
2026-01-03 06:09:40.77	1.43	6.04	-38.3	-50.7	3.8	8.45e-01	0	52	104	0	46	15715
2026-01-03 06:09:41.78	1.32	6.09	-38.4	-50.7	3.8	8.46e-01	0	52	104	0	46	15679
2026-01-03 06:09:42.80	1.20	6.14	-38.3	-50.7	3.8	8.46e-01	0	53	104	0	46	15725
2026-01-03 06:09:43.81	1.09	6.20	-38.3	-50.7	3.8	8.47e-01	0	53	104	0	46	15706
2026-01-03 06:09:44.82	0.98	6.25	-38.3	-50.7	3.8	8.47e-01	0	53	104	0	46	15706
2026-01-03 06:09:45.83	0.87	6.30	-38.3	-50.7	3.8	8.47e-01	0	53	104	0	46	15744
2026-01-03 06:09:46.84	0.76	6.36	-38.3	-50.7	3.8	8.46e-01	0	53	104	0	46	15740
2026-01-03 06:09:47.85	0.64	6.41	-38.3	-50.7	3.8	8.46e-01	0	53	104	0	46	15723
2026-01-03 06:09:48.86	0.53	6.46	-38.4	-50.7	3.8	8.47e-01	0	53	104	0	46	15755
2026-01-03 06:09:49.87	0.42	6.52	-38.3	-50.8	3.8	8.45e-01	0	53	104	0	46	15768
2026-01-03 06:09:50.88	0.30	6.57	-38.4	-50.8	3.8	8.46e-01	0	53	104	0	46	15766
2026-01-03 06:09:51.90	0.18	6.62	-38.4	-50.7	3.8	8.47e-01	0	53	104	0	46	15703
2026-01-03 06:09:52.91	0.07	6.68	-38.3	-50.7	3.8	8.45e-01	0	53	104	0	46	15744
2026-01-03 06:09:53.92	359.95	6.73	-38.3	-50.7	3.8	8.46e-01	0	53	104	0	46	15723
2026-01-03 06:09:54.93	359.84	6.78	-38.3	-50.7	3.8	8.45e-01	0	53	104	0	46	15729
2026-01-03 06:09:55.94	359.72	6.84	-38.4	-50.7	3.8	8.45e-01	0	53	104	0	46	15692
2026-01-03 06:09:56.95	359.60	6.89	-38.3	-50.7	3.8	8.47e-01	0	53	104	0	46	15666
2026-01-03 06:09:57.96	359.49	6.94	-38.4	-50.7	3.8	8.45e-01	0	53	104	0	46	15724
2026-01-03 06:09:58.97	359.37	7.00	-38.4	-50.8	3.8	8.47e-01	0	53	104	0	46	15763
2026-01-03 06:09:59.98	359.25	7.05	-38.3	-50.7	3.8	8.46e-01	0	53	104	0	46	15741
2026-01-03 06:10:00.99	359.13	7.10	-38.3	-50.7	3.8	8.46e-01	0	53	104	0	46	15727
2026-01-03 06:10:02.01	359.01	7.16	-38.3	-50.7	3.8	8.47e-01	0	53	104	0	46	15714
2026-01-03 06:10:03.02	358.89	7.21	-38.3	-50.7	3.8	8.45e-01	0	53	104	0	46	15752
2026-01-03 06:10:04.03	358.77	7.26	-38.4	-50.8	3.8	8.46e-01	0	53	104	0	46	15762
2026-01-03 06:10:05.04	358.65	7.32	-38.4	-50.7	3.8	8.47e-01	0	54	104	0	46	15753
2026-01-03 06:10:06.05	358.53	7.37	-38.4	-50.7	3.8	8.47e-01	0	53	104	0	46	15755
2026-01-03 06:10:07.06	358.41	7.42	-38.3	-50.8	3.8	8.46e-01	0	53	104	0	46	15764
2026-01-03 06:10:08.07	358.28	7.48	-38.3	-50.7	3.8	8.46e-01	0	54	104	0	46	15713
2026-01-03 06:10:09.08	358.16	7.53	-38.3	-50.7	3.8	8.46e-01	0	54	104	0	46	15726
2026-01-03 06:10:10.09	358.04	7.58	-38.3	-50.7	3.8	8.45e-01	0	53	104	0	46	15711
2026-01-03 06:10:11.10	357.92	7.64	-38.4	-50.7	3.8	8.46e-01	0	54	104	0	46	15735
2026-01-03 06:10:12.12	357.79	7.69	-38.3	-50.7	3.8	8.45e-01	0	54	104	0	46	15720
2026-01-03 06:10:13.13	357.67	7.75	-38.3	-50.7	3.8	8.45e-01	0	54	104	0	46	15745
2026-01-03 06:10:14.14	357.54	7.80	-38.3	-50.7	3.8	8.47e-01	0	54	104	0	46	15729
2026-01-03 06:10:15.15	357.42	7.85	-38.3	-50.7	3.8	8.46e-01	0	54	104	0	46	15728
2026-01-03 06:10:16.16	357.29	7.90	-38.3	-50.7	3.8	8.47e-01	0	54	104	0	46	15669
2026-01-03 06:10:17.17	357.16	7.96	-38.3	-50.7	3.8	8.45e-01	0	54	104	0	46	15744
2026-01-03 06:10:18.18	357.04	8.01	-38.4	-50.7	3.8	8.47e-01	0	54	104	0	46	15710
2026-01-03 06:10:19.19	356.91	8.06	-39.5	-51.0	3.8	8.46e-01	0	54	104	0	48	14449
2026-01-03 06:10:20.20	356.78	8.12	-39.8	-51.0	3.8	8.45e-01	0	54	104	0	49	13724
2026-01-03 06:10:21.21	356.65	8.17	-38.2	-50.8	3.8	8.45e-01	0	54	104	0	47	14990
2026-01-03 06:10:22.22	356.52	8.22	-39.5	-51.0	3.8	8.45e-01	0	54	104	0	48	14529
2026-01-03 06:10:23.23	356.40	8.28	-39.5	-51.0	3.8	8.47e-01	0	54	104	0	48	14502
2026-01-03 06:10:24.24	356.27	8.33	-39.6	-51.0	3.8	8.46e-01	0	54	104	0	49	13676
2026-01-03 06:10:25.25	356.14	8.38	-39.9	-51.1	3.8	8.47e-01	0	54	104	0	49	13832
2026-01-03 06:10:26.26	356.01	8.44	-40.2	-51.3	3.8	8.46e-01	0	54	104	0	50	13380
2026-01-03 06:10:27.27	355.87	8.49	-39.6	-51.0	3.8	8.47e-01	0	54	104	0	49	13705
2026-01-03 06:10:28.28	355.74	8.54	-40.3	-51.3	3.8	8.45e-01	0	54	104	0	50	13378
2026-01-03 06:10:29.29	355.61	8.59	-39.8	-51.1	3.8	8.45e-01	0	54	104	0	50	12960
2026-01-03 06:10:30.30	355.48	8.65	-39.8	-51.1	3.8	8.46e-01	0	54	104	0	50	12978
2026-01-03 06:10:31.31	355.34	8.70	-40.4	-51.3	3.8	8.45e-01	0	54	104	0	50	13399
2026-01-03 06:10:32.32	355.21	8.75	-40.1	-51.1	3.8	8.46e-01	0	54	104	0	50	13073
2026-01-03 06:10:33.33	355.08	8.81	-40.5	-51.4	3.8	8.46e-01	0	54	104	0	50	13464
2026-01-03 06:10:34.34	354.94	8.86	-40.4	-51.2	3.8	8.46e-01	0	54	104	0	50	13225
2026-01-03 06:10:35.35	354.81	8.91	-40.3	-51.3	3.8	8.47e-01	0	55	104	0	50	13342
2026-01-03 06:10:36.36	354.67	8.96	-40.4	-51.3	3.8	8.47e-01	0	54	104	0	50	13291
2026-01-03 06:10:37.37	354.54	9.02	-40.2	-51.2	3.8	8.46e-01	0	55	104	0	50	13225
2026-01-03 06:10:38.38	354.40	9.07	-40.2	-51.1	3.8	8.45e-01	0	55	104	0	50	13062
2026-01-03 06:10:39.39	354.26	9.12	-40.5	-51.4	3.8	8.45e-01	0	54	104	0	50	13504
2026-01-03 06:10:40.40	354.12	9.17	-40.2	-51.1	3.8	8.46e-01	0	55	104	0	50	13084
2026-01-03 06:10:41.41	353.99	9.23	-40.5	-51.4	3.8	8.45e-01	0	55	104	0	50	13541
2026-01-03 06:10:42.42	353.85	9.28	-40.4	-51.3	3.8	8.45e-01	0	54	104	0	50	13326
2026-01-03 06:10:43.43	353.71	9.33	-40.3	-51.2	3.8	8.46e-01	0	54	104	0	50	13227
2026-01-03 06:10:44.44	353.57	9.38	-40.5	-51.4	3.8	8.47e-01	0	54	104	0	51	12712
2026-01-03 06:10:45.45	353.43	9.43	-40.2	-51.2	3.8	8.47e-01	0	55	104	0	51	12400
2026-01-03 06:10:46.46	353.29	9.49	-40.4	-51.4	3.8	8.45e-01	0	55	104	0	51	12681
2026-01-03 06:10:47.47	353.15	9.54	-40.6	-51.5	3.8	8.47e-01	0	55	104	0	51	12860
2026-01-03 06:10:48.48	353.01	9.59	-40.6	-51.5	3.8	8.46e-01	0	55	104	0	51	12850
2026-01-03 06:10:49.49	352.86	9.64	-40.9	-51.8	3.8	8.47e-01	0	55	104	0	51	13336
2026-01-03 06:10:50.49	352.72	9.69	-40.9	-51.8	3.8	8.45e-01	0	55	104	0	51	13327
2026-01-03 06:10:51.50	352.58	9.75	-40.8	-51.7	3.8	8.46e-01	0	55	104	0	51	13218
2026-01-03 06:10:52.51	352.43	9.80	-40.9	-51.8	3.8	8.46e-01	0	55	104	0	51	13367
2026-01-03 06:10:53.53	352.29	9.85	-40.7	-51.6	3.8	8.46e-01	0	55	104	0	51	13040
2026-01-03 06:10:54.54	352.14	9.90	-40.8	-51.8	3.8	8.46e-01	0	55	104	0	51	13274
2026-01-03 06:10:55.55	352.00	9.95	-40.8	-51.7	3.8	8.46e-01	0	55	104	0	51	13216
2026-01-03 06:10:56.56	351.85	10.00	-40.8	-51.7	3.8	8.46e-01	0	55	104	0	51	13114
2026-01-03 06:10:57.57	351.71	10.05	-40.9	-51.8	3.8	8.47e-01	0	55	104	0	51	13376
2026-01-03 06:10:58.58	351.56	10.11	-40.7	-51.5	3.8	8.46e-01	0	55	104	0	51	12930
2026-01-03 06:10:59.59	351.41	10.16	-40.6	-51.5	3.8	8.46e-01	0	55	104	0	51	12917
2026-01-03 06:11:00.60	351.26	10.21	-40.6	-51.5	3.8	8.46e-01	0	55	104	0	51	12955
2026-01-03 06:11:01.61	351.12	10.26	-40.5	-51.4	3.8	8.46e-01	0	55	104	0	51	12737
2026-01-03 06:11:02.62	350.97	10.31	-40.9	-51.9	3.8	8.46e-01	0	55	104	0	51	13458
2026-01-03 06:11:03.63	350.82	10.36	-40.9	-51.9	3.8	8.46e-01	0	55	104	0	52	12749
2026-01-03 06:11:04.64	350.67	10.41	-40.6	-51.6	3.8	8.46e-01	0	55	104	0	52	12322
2026-01-03 06:11:05.65	350.52	10.46	-40.6	-51.6	3.8	8.46e-01	0	55	104	0	52	12314
2026-01-03 06:11:06.66	350.37	10.51	-40.9	-52.0	3.8	8.46e-01	0	55	104	0	52	12947
2026-01-03 06:11:07.67	350.21	10.56	-41.0	-52.2	3.8	8.47e-01	0	55	104	0	52	13170
2026-01-03 06:11:08.68	350.06	10.61	-40.6	-51.6	3.8	8.47e-01	0	55	104	0	52	12300
2026-01-03 06:11:09.69	349.91	10.66	-40.6	-51.7	3.8	8.46e-01	0	55	104	0	52	12397
2026-01-03 06:11:10.70	349.75	10.71	-40.7	-51.7	3.8	8.46e-01	0	55	104	0	51	13156
2026-01-03 06:11:11.71	349.60	10.77	-40.5	-51.5	3.8	8.47e-01	0	55	104	0	51	12943
2026-01-03 06:11:12.72	349.45	10.82	-40.6	-51.7	3.8	8.46e-01	0	55	104	0	51	13123
2026-01-03 06:11:13.72	349.29	10.86	-40.8	-51.8	3.8	8.46e-01	0	55	104	0	51	13348
2026-01-03 06:11:14.73	349.14	10.91	-41.2	-52.2	3.8	8.46e-01	0	55	104	0	52	13158
2026-01-03 06:11:15.75	348.98	10.96	-41.2	-52.2	3.8	8.46e-01	0	55	104	0	52	13163
2026-01-03 06:11:16.76	348.82	11.01	-41.2	-52.0	3.8	8.46e-01	0	55	104	0	52	12951
2026-01-03 06:11:17.77	348.67	11.06	-41.4	-52.3	3.8	8.46e-01	0	55	104	0	52	13317
2026-01-03 06:11:18.78	348.51	11.11	-41.0	-52.0	3.8	8.47e-01	0	55	104	0	52	12888
2026-01-03 06:11:19.79	348.35	11.16	-41.4	-52.3	3.8	8.45e-01	0	55	104	0	52	13406
2026-01-03 06:11:20.80	348.19	11.21	-41.2	-52.2	3.8	8.46e-01	0	56	104	0	52	13180
2026-01-03 06:11:21.81	348.03	11.26	-41.4	-52.2	3.8	8.46e-01	0	55	104	0	52	13210
2026-01-03 06:11:22.82	347.87	11.31	-41.4	-52.3	3.8	8.45e-01	0	55	104	0	52	13389
2026-01-03 06:11:23.83	347.71	11.36	-41.4	-52.3	3.8	8.46e-01	0	56	104	0	52	13312
2026-01-03 06:11:24.84	347.55	11.41	-41.4	-52.3	3.8	8.46e-01	0	55	104	0	52	13386
2026-01-03 06:11:25.84	347.39	11.46	-41.5	-52.6	3.8	8.47e-01	0	56	104	0	52	13734
2026-01-03 06:11:26.85	347.23	11.50	-41.4	-52.3	3.8	8.46e-01	0	55	104	0	52	13342
2026-01-03 06:11:27.86	347.07	11.55	-41.5	-52.6	3.8	8.46e-01	0	56	104	0	52	13763
2026-01-03 06:11:28.87	346.90	11.60	-41.4	-52.4	3.8	8.46e-01	0	56	104	0	52	13485
2026-01-03 06:11:29.88	346.74	11.65	-41.5	-52.4	3.8	8.47e-01	0	56	104	0	52	13487
2026-01-03 06:11:30.89	346.58	11.70	-41.3	-52.3	3.8	8.46e-01	0	56	104	0	52	13295
2026-01-03 06:11:31.90	346.41	11.74	-41.4	-52.4	3.8	8.47e-01	0	56	104	0	52	13495
2026-01-03 06:11:32.91	346.25	11.79	-41.1	-52.1	3.8	8.46e-01	0	56	104	0	52	13079
2026-01-03 06:11:33.92	346.08	11.84	-40.8	-51.8	3.8	8.46e-01	0	56	104	0	52	12550
2026-01-03 06:11:34.93	345.91	11.89	-41.5	-52.6	3.8	8.47e-01	0	56	104	0	52	13746
2026-01-03 06:11:35.94	345.75	11.93	-40.8	-51.7	3.8	8.46e-01	0	56	104	0	52	12457
2026-01-03 06:11:36.95	345.58	11.98	-40.8	-51.7	3.8	8.45e-01	0	56	104	0	52	12479
2026-01-03 06:11:37.96	345.41	12.03	-41.0	-51.8	3.8	8.46e-01	0	56	104	0	52	12648
2026-01-03 06:11:38.98	345.24	12.08	-40.9	-51.8	3.8	8.45e-01	0	56	104	0	52	12619
2026-01-03 06:11:39.99	345.07	12.12	-40.9	-51.8	3.8	8.46e-01	0	56	104	0	52	12632
2026-01-03 06:11:41.00	344.90	12.17	-41.0	-51.9	3.8	8.45e-01	0	56	104	0	52	12721
2026-01-03 06:11:42.00	344.73	12.21	-41.0	-51.9	3.8	8.47e-01	0	56	104	0	52	12688
2026-01-03 06:11:43.01	344.56	12.26	-40.8	-51.7	3.8	8.47e-01	0	56	104	0	52	12508
2026-01-03 06:11:44.02	344.39	12.31	-40.9	-51.8	3.8	8.47e-01	0	56	104	0	52	12534
2026-01-03 06:11:45.03	344.22	12.35	-40.8	-51.8	3.8	8.46e-01	0	56	104	0	52	12525
2026-01-03 06:11:46.04	344.05	12.40	-41.3	-52.3	3.8	8.46e-01	0	56	104	0	52	13334
2026-01-03 06:11:47.05	343.87	12.44	-41.0	-52.0	3.8	8.45e-01	0	56	104	0	52	12849
2026-01-03 06:11:48.06	343.70	12.49	-41.0	-52.1	3.8	8.46e-01	0	56	104	0	52	13004
2026-01-03 06:11:49.07	343.53	12.53	-40.9	-51.8	3.8	8.45e-01	0	56	104	0	52	12660
2026-01-03 06:11:50.08	343.35	12.58	-40.9	-51.9	3.8	8.46e-01	0	56	104	0	52	12706
2026-01-03 06:11:51.09	343.18	12.62	-41.0	-51.9	3.8	8.46e-01	0	56	104	0	52	12711
2026-01-03 06:11:52.10	343.00	12.67	-40.8	-51.8	3.8	8.46e-01	0	56	104	0	52	12566
2026-01-03 06:11:53.11	342.82	12.71	-40.8	-51.8	3.8	8.48e-01	0	56	104	0	52	12530
2026-01-03 06:11:54.12	342.65	12.76	-41.0	-52.1	3.8	8.48e-01	0	56	104	0	52	13032
2026-01-03 06:11:55.13	342.47	12.80	-41.0	-51.9	3.8	8.46e-01	0	56	104	0	52	12729
2026-01-03 06:11:56.14	342.29	12.84	-41.2	-52.0	3.8	8.46e-01	0	56	104	0	52	12943
2026-01-03 06:11:57.15	342.11	12.89	-40.8	-51.7	3.8	8.46e-01	0	56	104	0	52	12423
2026-01-03 06:11:58.16	341.93	12.93	-40.3	-51.4	3.8	8.46e-01	0	56	104	0	51	12722
2026-01-03 06:11:59.17	341.76	12.97	-41.0	-51.9	3.8	8.46e-01	0	56	104	0	51	13511
2026-01-03 06:12:00.17	341.58	13.02	-40.3	-51.4	3.8	8.47e-01	0	56	104	0	51	12715
2026-01-03 06:12:01.17	341.40	13.06	-40.8	-51.8	3.8	8.47e-01	0	56	104	0	51	13332
2026-01-03 06:12:02.17	341.22	13.10	-40.5	-51.6	3.8	8.46e-01	0	56	104	0	51	13053
2026-01-03 06:12:03.18	341.04	13.14	-40.7	-51.5	3.8	8.47e-01	0	56	104	0	51	12880
2026-01-03 06:12:04.19	340.86	13.19	-40.5	-51.6	3.8	8.47e-01	0	56	104	0	51	13043
2026-01-03 06:12:05.20	340.67	13.23	-40.7	-51.5	3.8	8.46e-01	0	56	104	0	51	12864
2026-01-03 06:12:06.21	340.49	13.27	-40.6	-50.5	3.8	8.45e-01	0	56	104	0	51	11453
2026-01-03 06:12:07.22	340.31	13.31	-40.2	-51.3	3.8	8.46e-01	0	56	104	0	51	12605
2026-01-03 06:12:08.23	340.12	13.35	-40.9	-48.3	4.5	8.32e-01	0	56	104	0	51	8866
2026-01-03 06:12:09.25	339.93	13.39	-40.8	-46.8	5.3	7.60e-01	0	56	0	0	51	7472
2026-01-03 06:12:10.25	339.75	13.44	-40.5	-45.3	6.7	3.04e-01	0	56	0	4194304	51	6297
2026-01-03 06:12:11.26	339.57	13.48	-39.9	-43.6	8.6	6.05e-02	0	56	0	11534336	50	5470
2026-01-03 06:12:12.27	339.38	13.52	-39.0	-41.8	10.8	7.13e-03	0	56	0	18874368	49	4731
2026-01-03 06:12:13.28	339.19	13.56	-37.9	-40.1	12.8	1.34e-04	0	56	0	26214400	46	4601
2026-01-03 06:12:14.29	339.00	13.60	-36.8	-38.4	14.8	2.20e-06	0	56	0	33554432	44	4277
2026-01-03 06:12:15.30	338.82	13.64	-35.5	-36.9	16.5	0.00e+00	0	56	0	40894464	42	4018
2026-01-03 06:12:16.31	338.63	13.68	-34.5	-35.7	17.9	0.00e+00	0	56	0	48234496	40	3931
2026-01-03 06:12:17.32	338.44	13.71	-33.9	-35.0	18.8	0.00e+00	0	56	0	55574528	38	4082
2026-01-03 06:12:18.33	338.25	13.75	-33.9	-35.0	19.0	0.00e+00	0	56	0	62914560	38	4079
2026-01-03 06:12:19.34	338.06	13.79	-34.2	-35.3	18.9	0.00e+00	0	56	0	70254592	38	4229
2026-01-03 06:12:20.35	337.87	13.83	-34.7	-35.8	18.5	0.00e+00	0	56	0	77594624	38	4474
2026-01-03 06:12:21.37	337.68	13.87	-34.8	-35.9	18.4	0.00e+00	0	56	0	84934656	39	4286
2026-01-03 06:12:22.38	337.49	13.91	-34.6	-35.7	18.6	0.00e+00	0	56	0	92274688	39	4183
2026-01-03 06:12:23.39	337.29	13.95	-34.5	-35.6	18.8	0.00e+00	0	56	0	99614720	39	4126
2026-01-03 06:12:24.40	337.10	13.98	-34.6	-35.7	18.7	0.00e+00	0	57	0	106954752	39	4163
2026-01-03 06:12:25.41	336.91	14.02	-34.6	-35.7	18.8	0.00e+00	0	56	0	113246208	39	4172
2026-01-03 06:12:26.41	336.72	14.06	-34.4	-35.6	18.9	0.00e+00	0	56	0	121634816	39	4102
2026-01-03 06:12:27.42	336.52	14.09	-34.5	-35.6	18.9	0.00e+00	0	56	0	128974848	39	4115
2026-01-03 06:12:28.43	336.33	14.13	-34.4	-35.5	19.0	0.00e+00	0	56	0	135266304	39	4086
2026-01-03 06:12:29.44	336.13	14.17	-34.4	-35.5	19.0	0.00e+00	0	57	0	142606336	39	4092
2026-01-03 06:12:30.45	335.94	14.20	-34.4	-35.5	19.0	0.00e+00	0	56	0	149946368	39	4063
2026-01-03 06:12:31.46	335.74	14.24	-34.4	-35.5	19.0	0.00e+00	0	56	0	157286400	39	4074
2026-01-03 06:12:32.47	335.55	14.27	-34.3	-35.4	19.1	0.00e+00	0	56	0	164626432	39	4044
2026-01-03 06:12:33.48	335.35	14.31	-34.3	-35.4	19.1	0.00e+00	0	57	0	171966464	39	4038
2026-01-03 06:12:34.49	335.15	14.34	-34.3	-35.4	19.2	0.00e+00	0	56	0	179306496	39	4006
2026-01-03 06:12:35.50	334.95	14.38	-34.3	-35.4	19.1	0.00e+00	0	56	0	186646528	39	4035
2026-01-03 06:12:36.51	334.76	14.41	-34.2	-35.3	19.2	0.00e+00	0	56	0	193986560	39	3993
2026-01-03 06:12:37.52	334.56	14.44	-34.3	-35.3	19.2	0.00e+00	0	56	0	201326592	39	3999
2026-01-03 06:12:38.53	334.36	14.48	-34.3	-35.4	19.1	0.00e+00	0	56	0	208666624	39	4028
2026-01-03 06:12:39.54	334.16	14.51	-34.3	-35.4	19.2	0.00e+00	0	56	0	216006656	39	4027
2026-01-03 06:12:40.55	333.96	14.54	-34.3	-35.3	19.2	0.00e+00	0	56	0	223346688	39	4004
2026-01-03 06:12:41.56	333.76	14.58	-34.3	-35.4	19.2	0.00e+00	0	57	0	230686720	39	4016
2026-01-03 06:12:42.57	333.56	14.61	-34.3	-35.4	19.2	0.00e+00	0	56	0	238026752	39	4008
2026-01-03 06:12:43.58	333.36	14.64	-34.4	-35.5	19.1	0.00e+00	0	57	0	245366784	39	4054
2026-01-03 06:12:44.59	333.15	14.67	-34.3	-35.4	19.1	0.00e+00	0	56	0	252706816	39	4035
2026-01-03 06:12:45.60	332.95	14.70	-34.3	-35.4	19.1	0.00e+00	0	56	0	260046848	39	4035
2026-01-03 06:12:46.61	332.75	14.73	-34.3	-35.4	19.2	0.00e+00	0	57	0	267386880	39	4006
2026-01-03 06:12:47.62	332.55	14.77	-34.2	-35.3	19.3	0.00e+00	0	56	0	274726912	39	3973
2026-01-03 06:12:48.63	332.34	14.80	-34.2	-35.3	19.3	0.00e+00	0	56	0	282066944	39	3970
2026-01-03 06:12:49.64	332.14	14.83	-34.2	-35.2	19.3	0.00e+00	0	57	0	288358400	39	3947
2026-01-03 06:12:50.65	331.93	14.86	-34.1	-35.2	19.3	0.00e+00	0	56	0	295698432	39	3936
2026-01-03 06:12:51.65	331.73	14.88	-34.2	-35.2	19.3	0.00e+00	0	56	0	303038464	39	3951
2026-01-03 06:12:52.66	331.53	14.91	-34.1	-35.2	19.4	0.00e+00	0	56	0	310378496	39	3929
2026-01-03 06:12:53.67	331.32	14.94	-34.1	-35.2	19.3	0.00e+00	0	57	0	317718528	39	3939
2026-01-03 06:12:54.68	331.11	14.97	-34.1	-35.2	19.4	0.00e+00	0	57	0	325058560	39	3915
2026-01-03 06:12:55.69	330.91	15.00	-34.1	-35.2	19.4	0.00e+00	0	56	0	332398592	39	3922
2026-01-03 06:12:56.70	330.70	15.03	-34.1	-35.2	19.4	0.00e+00	0	56	0	339738624	39	3923
2026-01-03 06:12:57.71	330.49	15.05	-34.1	-35.2	19.4	0.00e+00	0	57	0	347078656	39	3926
2026-01-03 06:12:58.72	330.29	15.08	-34.1	-35.2	19.4	0.00e+00	0	57	0	354418688	39	3923
2026-01-03 06:12:59.73	330.08	15.11	-34.1	-35.2	19.4	0.00e+00	0	57	0	361758720	39	3926
2026-01-03 06:13:00.74	329.87	15.13	-34.0	-35.1	19.5	0.00e+00	0	56	0	369098752	39	3888
2026-01-03 06:13:01.75	329.66	15.16	-34.1	-35.1	19.5	0.00e+00	0	56	0	376438784	39	3901
2026-01-03 06:13:02.76	329.45	15.19	-34.0	-35.1	19.5	0.00e+00	0	57	0	383778816	39	3891
2026-01-03 06:13:03.77	329.24	15.21	-33.9	-34.9	19.6	0.00e+00	0	56	0	391118848	38	4045
2026-01-03 06:13:04.78	329.03	15.24	-33.9	-34.9	19.7	0.00e+00	0	57	0	398458880	38	4034
2026-01-03 06:13:05.79	328.82	15.26	-33.8	-34.8	19.8	0.00e+00	0	57	0	405798912	38	3978
2026-01-03 06:13:06.80	328.61	15.28	-33.6	-34.7	19.9	0.00e+00	0	56	0	412090368	38	3915
2026-01-03 06:13:07.81	328.40	15.31	-33.6	-34.6	20.0	0.00e+00	0	56	0	420478976	38	3905
2026-01-03 06:13:08.81	328.19	15.33	-33.6	-34.6	20.0	0.00e+00	0	56	0	427819008	38	3904
2026-01-03 06:13:09.82	327.98	15.35	-33.6	-34.7	19.9	0.00e+00	0	57	0	434110464	38	3914
2026-01-03 06:13:10.83	327.77	15.38	-33.7	-34.7	19.9	0.00e+00	0	56	0	441450496	38	3932
2026-01-03 06:13:11.84	327.56	15.40	-33.6	-34.7	19.9	0.00e+00	0	57	0	448790528	38	3922
2026-01-03 06:13:12.85	327.34	15.42	-33.7	-34.8	19.9	0.00e+00	0	57	0	456130560	38	3965
2026-01-03 06:13:13.86	327.13	15.44	-33.8	-34.8	19.8	0.00e+00	0	56	0	463470592	38	3985
2026-01-03 06:13:14.87	326.92	15.46	-33.7	-34.7	19.9	0.00e+00	0	57	0	470810624	38	3956
2026-01-03 06:13:15.89	326.70	15.49	-33.8	-34.8	19.8	0.00e+00	0	57	0	478150656	38	3974
2026-01-03 06:13:16.89	326.49	15.51	-33.8	-34.9	19.8	0.00e+00	0	57	0	485490688	38	4010
2026-01-03 06:13:17.91	326.27	15.53	-33.8	-34.9	19.8	0.00e+00	0	57	0	492830720	38	4016
2026-01-03 06:13:18.92	326.06	15.55	-33.8	-34.9	19.8	0.00e+00	0	57	0	500170752	38	4011
2026-01-03 06:13:19.93	325.84	15.56	-33.8	-34.9	19.7	0.00e+00	0	57	0	507510784	38	4010
2026-01-03 06:13:20.94	325.63	15.58	-33.8	-34.9	19.8	0.00e+00	0	57	0	514850816	38	4019
2026-01-03 06:13:21.95	325.41	15.60	-33.8	-34.8	19.8	0.00e+00	0	57	0	522190848	38	3999
2026-01-03 06:13:22.96	325.20	15.62	-33.7	-34.7	19.9	0.00e+00	0	57	0	529530880	38	3949
2026-01-03 06:13:23.97	324.98	15.64	-33.7	-34.7	19.9	0.00e+00	0	57	0	536870912	38	3944
2026-01-03 06:13:24.98	324.77	15.66	-33.5	-34.5	20.1	0.00e+00	0	57	0	544210944	38	3848
2026-01-03 06:13:25.99	324.55	15.67	-33.5	-34.5	20.1	0.00e+00	0	57	0	551550976	38	3845
2026-01-03 06:13:27.00	324.33	15.69	-33.5	-34.5	20.1	0.00e+00	0	57	0	558891008	37	4081
2026-01-03 06:13:28.01	324.12	15.70	-33.4	-34.5	20.2	0.00e+00	0	57	0	566231040	37	4056
2026-01-03 06:13:29.02	323.90	15.72	-33.4	-34.4	20.2	0.00e+00	0	57	0	573571072	37	4031
2026-01-03 06:13:30.03	323.68	15.74	-33.4	-34.4	20.2	0.00e+00	0	57	0	580911104	37	4010
2026-01-03 06:13:31.04	323.46	15.75	-33.3	-34.3	20.3	0.00e+00	0	56	0	587202560	37	3997
2026-01-03 06:13:32.05	323.25	15.77	-33.3	-34.4	20.3	0.00e+00	0	57	0	594542592	37	4007
2026-01-03 06:13:33.06	323.03	15.78	-33.4	-34.4	20.3	0.00e+00	0	57	0	602931200	37	4005
2026-01-03 06:13:34.07	322.81	15.79	-33.4	-34.4	20.2	0.00e+00	0	57	0	609222656	37	4042
2026-01-03 06:13:35.08	322.59	15.81	-33.5	-34.6	20.1	0.00e+00	0	57	0	616562688	37	4105
2026-01-03 06:13:36.09	322.37	15.82	-33.5	-34.6	20.1	0.00e+00	0	57	0	623902720	37	4106
2026-01-03 06:13:37.10	322.16	15.83	-33.6	-34.6	20.0	0.00e+00	0	57	0	631242752	37	4118
2026-01-03 06:13:38.12	321.93	15.84	-33.6	-34.7	20.0	0.00e+00	0	57	0	638582784	37	4157
2026-01-03 06:13:39.13	321.72	15.85	-33.7	-34.7	19.9	0.00e+00	0	57	0	645922816	37	4158
2026-01-03 06:13:40.14	321.50	15.87	-33.6	-34.6	20.0	0.00e+00	0	57	0	653262848	37	4137
2026-01-03 06:13:41.15	321.28	15.88	-33.6	-34.6	20.0	0.00e+00	0	57	0	660602880	37	4142
2026-01-03 06:13:42.16	321.06	15.89	-33.5	-34.5	20.1	0.00e+00	0	57	0	667942912	37	4092
2026-01-03 06:13:43.17	320.84	15.90	-33.5	-34.5	20.2	0.00e+00	0	57	0	675282944	37	4066
2026-01-03 06:13:44.18	320.62	15.91	-33.4	-34.4	20.2	0.00e+00	0	57	0	682622976	37	4044
2026-01-03 06:13:45.19	320.40	15.92	-33.4	-34.4	20.2	0.00e+00	0	57	0	689963008	37	4036
2026-01-03 06:13:46.20	320.18	15.92	-33.4	-34.4	20.2	0.00e+00	0	57	0	697303040	37	4026
2026-01-03 06:13:47.21	319.96	15.93	-33.4	-34.4	20.2	0.00e+00	0	57	0	704643072	37	4036
2026-01-03 06:13:48.22	319.74	15.94	-33.4	-34.4	20.2	0.00e+00	0	57	0	711983104	37	4025
2026-01-03 06:13:49.23	319.52	15.95	-33.4	-34.4	20.3	0.00e+00	0	57	0	719323136	37	4011
2026-01-03 06:13:50.24	319.30	15.95	-33.4	-34.4	20.3	0.00e+00	0	57	0	726663168	37	4007
2026-01-03 06:13:51.25	319.07	15.96	-33.4	-34.3	20.3	0.00e+00	0	57	0	732954624	37	4004
2026-01-03 06:13:52.26	318.85	15.97	-33.4	-34.4	20.2	0.00e+00	0	57	0	741343232	37	4014
2026-01-03 06:13:53.27	318.63	15.97	-33.3	-34.3	20.3	0.00e+00	0	57	0	748683264	37	3984
2026-01-03 06:13:54.28	318.41	15.98	-33.3	-34.3	20.3	0.00e+00	0	57	0	754974720	37	3994
2026-01-03 06:13:55.28	318.19	15.98	-33.3	-34.3	20.4	0.00e+00	0	57	0	762314752	37	3961
2026-01-03 06:13:56.30	317.97	15.99	-33.2	-34.2	20.4	0.00e+00	0	57	0	769654784	37	3941
2026-01-03 06:13:57.31	317.75	15.99	-33.3	-34.3	20.3	0.00e+00	0	57	0	776994816	37	3969
2026-01-03 06:13:58.32	317.53	15.99	-33.3	-34.3	20.3	0.00e+00	0	57	0	784334848	37	3969
2026-01-03 06:13:59.33	317.31	16.00	-33.4	-34.4	20.3	0.00e+00	0	57	0	791674880	37	4008
2026-01-03 06:14:00.34	317.08	16.00	-33.4	-34.4	20.2	0.00e+00	0	57	0	799014912	37	4051
2026-01-03 06:14:01.34	316.87	16.00	-33.5	-34.5	20.1	0.00e+00	0	57	0	806354944	37	4096
2026-01-03 06:14:02.35	316.64	16.00	-33.6	-34.6	20.0	0.00e+00	0	57	0	813694976	37	4121
2026-01-03 06:14:03.36	316.42	16.01	-33.6	-34.6	20.0	0.00e+00	0	57	0	821035008	37	4140
2026-01-03 06:14:04.37	316.20	16.01	-33.7	-34.7	19.9	0.00e+00	0	57	0	828375040	37	4176
2026-01-03 06:14:05.38	315.98	16.01	-33.7	-34.8	19.9	0.00e+00	0	57	0	835715072	37	4198
2026-01-03 06:14:06.39	315.76	16.01	-33.7	-34.8	19.9	0.00e+00	0	57	0	843055104	37	4208
2026-01-03 06:14:07.40	315.54	16.01	-33.7	-34.8	19.9	0.00e+00	0	57	0	850395136	37	4206
2026-01-03 06:14:08.41	315.31	16.01	-33.7	-34.7	19.9	0.00e+00	0	57	0	857735168	37	4193
2026-01-03 06:14:09.42	315.09	16.00	-33.7	-34.7	19.9	0.00e+00	0	57	0	865075200	37	4186
2026-01-03 06:14:10.43	314.87	16.00	-33.7	-34.8	19.9	0.00e+00	0	57	0	872415232	37	4206
2026-01-03 06:14:11.44	314.65	16.00	-33.8	-34.9	19.8	0.00e+00	0	57	0	879755264	37	4245
2026-01-03 06:14:12.44	314.43	16.00	-33.8	-34.8	19.8	0.00e+00	0	57	0	886046720	37	4242
2026-01-03 06:14:13.45	314.21	16.00	-33.8	-34.9	19.8	0.00e+00	0	57	0	893386752	37	4258
2026-01-03 06:14:14.46	313.99	15.99	-33.9	-34.9	19.7	0.00e+00	0	57	0	901775360	37	4270
2026-01-03 06:14:15.47	313.77	15.99	-33.8	-34.9	19.8	0.00e+00	0	57	0	908066816	37	4254
2026-01-03 06:14:16.48	313.55	15.98	-33.8	-34.9	19.8	0.00e+00	0	57	0	915406848	37	4243
2026-01-03 06:14:17.49	313.32	15.98	-33.8	-34.8	19.8	0.00e+00	0	57	0	922746880	37	4238
2026-01-03 06:14:18.50	313.10	15.97	-33.7	-34.7	19.9	0.00e+00	0	57	0	930086912	37	4181
2026-01-03 06:14:19.51	312.88	15.97	-33.6	-34.7	20.0	0.00e+00	0	57	0	937426944	37	4146
2026-01-03 06:14:20.52	312.66	15.96	-33.4	-34.4	20.2	0.00e+00	0	57	0	944766976	37	4048
2026-01-03 06:14:21.53	312.44	15.96	-33.4	-34.4	20.2	0.00e+00	0	57	0	952107008	37	4041
2026-01-03 06:14:22.54	312.22	15.95	-33.3	-34.3	20.3	0.00e+00	0	57	0	959447040	37	3994
2026-01-03 06:14:23.55	312.00	15.94	-33.4	-34.4	20.3	0.00e+00	0	57	0	966787072	37	4013
2026-01-03 06:14:24.56	311.78	15.93	-33.4	-34.4	20.2	0.00e+00	0	57	0	974127104	37	4018
2026-01-03 06:14:25.57	311.56	15.93	-33.4	-34.4	20.2	0.00e+00	0	57	0	981467136	37	4036
2026-01-03 06:14:26.58	311.34	15.92	-33.4	-34.4	20.2	0.00e+00	0	57	0	988807168	37	4028
2026-01-03 06:14:27.59	311.12	15.91	-33.5	-34.5	20.1	0.00e+00	0	57	0	996147200	37	4061
2026-01-03 06:14:28.60	310.90	15.90	-33.4	-34.4	20.2	0.00e+00	0	57	0	1003487232	37	4050
2026-01-03 06:14:29.61	310.68	15.89	-33.5	-34.5	20.1	0.00e+00	0	57	0	1009778688	37	4078
2026-01-03 06:14:30.61	310.46	15.88	-33.5	-34.5	20.1	0.00e+00	0	57	0	1018167296	37	4079
2026-01-03 06:14:31.62	310.24	15.87	-33.5	-34.5	20.2	0.00e+00	0	57	0	1025507328	37	4056
2026-01-03 06:14:32.63	310.02	15.86	-33.3	-34.3	20.3	0.00e+00	0	57	0	1031798784	37	3985
2026-01-03 06:14:33.64	309.80	15.85	-33.3	-34.3	20.3	0.00e+00	0	57	0	1039138816	37	3999
2026-01-03 06:14:34.65	309.58	15.83	-33.3	-34.3	20.3	0.00e+00	0	57	0	1046478848	37	3986
2026-01-03 06:14:35.66	309.36	15.82	-33.2	-34.2	20.4	0.00e+00	0	57	0	1053818880	37	3948
2026-01-03 06:14:36.67	309.14	15.81	-33.3	-34.3	20.4	0.00e+00	0	57	0	1061158912	37	3965
2026-01-03 06:14:37.68	308.93	15.80	-33.3	-34.3	20.3	0.00e+00	0	57	0	1068498944	37	3962
2026-01-03 06:14:38.69	308.71	15.78	-33.3	-34.3	20.3	0.00e+00	0	57	0	1075838976	37	3973
2026-01-03 06:14:39.70	308.49	15.77	-33.3	-34.3	20.4	0.00e+00	0	57	0	1083179008	37	3961
2026-01-03 06:14:40.71	308.27	15.75	-33.3	-34.3	20.3	0.00e+00	0	57	0	1090519040	37	3991
2026-01-03 06:14:41.72	308.05	15.74	-33.4	-34.4	20.2	0.00e+00	0	57	0	1097859072	37	4006
2026-01-03 06:14:42.73	307.84	15.72	-33.4	-34.5	20.2	0.00e+00	0	57	0	1105199104	37	4059
2026-01-03 06:14:43.74	307.62	15.71	-33.5	-34.5	20.1	0.00e+00	0	57	0	1112539136	37	4083
2026-01-03 06:14:44.75	307.40	15.69	-33.6	-34.6	20.0	0.00e+00	0	57	0	1119879168	37	4137
2026-01-03 06:14:45.76	307.18	15.68	-33.6	-34.7	20.0	0.00e+00	0	57	0	1127219200	37	4153
2026-01-03 06:14:46.77	306.97	15.66	-33.6	-34.7	20.0	0.00e+00	0	57	0	1134559232	37	4156
2026-01-03 06:14:47.78	306.75	15.64	-33.6	-34.7	20.0	0.00e+00	0	57	0	1141899264	37	4149
2026-01-03 06:14:48.79	306.53	15.62	-33.6	-34.7	20.0	0.00e+00	0	57	0	1149239296	37	4150
2026-01-03 06:14:49.80	306.32	15.61	-33.5	-34.6	20.1	0.00e+00	0	57	0	1156579328	37	4105
2026-01-03 06:14:50.81	306.10	15.59	-33.5	-34.6	20.0	0.00e+00	0	57	0	1163919360	37	4112
2026-01-03 06:14:51.82	305.89	15.57	-33.6	-34.6	20.0	0.00e+00	0	57	0	1171259392	37	4114
2026-01-03 06:14:52.83	305.67	15.55	-33.5	-34.5	20.1	0.00e+00	0	57	0	1178599424	37	4098
2026-01-03 06:14:53.84	305.46	15.53	-33.5	-34.5	20.1	0.00e+00	0	57	0	1184890880	37	4063
2026-01-03 06:14:54.85	305.24	15.51	-33.5	-34.5	20.1	0.00e+00	0	57	0	1192230912	37	4084
2026-01-03 06:14:55.86	305.03	15.49	-33.5	-34.6	20.1	0.00e+00	0	57	0	1200619520	37	4100
2026-01-03 06:14:56.87	304.81	15.47	-33.6	-34.6	20.0	0.00e+00	0	57	0	1206910976	37	4110
2026-01-03 06:14:57.88	304.60	15.45	-33.6	-34.7	20.0	0.00e+00	0	57	0	1214251008	37	4147
2026-01-03 06:14:58.89	304.39	15.43	-33.7	-34.7	19.9	0.00e+00	0	57	0	1221591040	37	4186
2026-01-03 06:14:59.91	304.17	15.40	-33.7	-34.7	19.9	0.00e+00	0	57	0	1228931072	37	4168
2026-01-03 06:15:00.91	303.96	15.38	-33.7	-34.7	19.9	0.00e+00	0	57	0	1236271104	37	4163
2026-01-03 06:15:01.93	303.75	15.36	-33.6	-34.6	20.0	0.00e+00	0	57	0	1243611136	37	4138
2026-01-03 06:15:02.94	303.53	15.34	-33.6	-34.6	20.0	0.00e+00	0	57	0	1250951168	37	4140
2026-01-03 06:15:03.94	303.33	15.31	-33.6	-34.6	20.0	0.00e+00	0	57	0	1258291200	37	4122
2026-01-03 06:15:04.95	303.11	15.29	-33.6	-34.7	19.9	0.00e+00	0	57	0	1265631232	37	4157
2026-01-03 06:15:05.97	302.90	15.26	-33.7	-34.7	19.9	0.00e+00	0	57	0	1272971264	37	4166
2026-01-03 06:15:06.98	302.69	15.24	-33.7	-34.7	19.9	0.00e+00	0	57	0	1280311296	37	4159
2026-01-03 06:15:07.99	302.48	15.22	-33.7	-34.8	19.8	0.00e+00	0	57	0	1287651328	37	4199
2026-01-03 06:15:09.00	302.27	15.19	-33.7	-34.8	19.8	0.00e+00	0	57	0	1294991360	37	4204
2026-01-03 06:15:10.01	302.06	15.16	-33.7	-34.8	19.8	0.00e+00	0	57	0	1302331392	37	4195
2026-01-03 06:15:11.02	301.85	15.14	-33.7	-34.8	19.8	0.00e+00	0	57	0	1309671424	37	4194
2026-01-03 06:15:12.03	301.64	15.11	-33.7	-34.8	19.8	0.00e+00	0	57	0	1317011456	37	4200
2026-01-03 06:15:13.04	301.43	15.09	-33.7	-34.7	19.8	0.00e+00	0	57	0	1324351488	37	4187
2026-01-03 06:15:14.05	301.22	15.06	-33.7	-34.8	19.8	0.00e+00	0	57	0	1330642944	37	4203
2026-01-03 06:15:15.06	301.02	15.03	-33.7	-34.8	19.8	0.00e+00	0	57	0	1339031552	37	4209
2026-01-03 06:15:16.07	300.81	15.00	-33.8	-34.8	19.7	0.00e+00	0	57	0	1346371584	37	4240
2026-01-03 06:15:17.08	300.60	14.98	-33.7	-34.8	19.8	0.00e+00	0	57	0	1352663040	37	4213
2026-01-03 06:15:18.09	300.40	14.95	-33.7	-34.8	19.8	0.00e+00	0	57	0	1360003072	37	4197
2026-01-03 06:15:19.10	300.19	14.92	-33.7	-34.7	19.8	0.00e+00	0	57	0	1367343104	37	4173
2026-01-03 06:15:20.11	299.98	14.89	-33.6	-34.6	19.9	0.00e+00	0	57	0	1374683136	37	4131
2026-01-03 06:15:21.11	299.78	14.86	-33.6	-34.6	19.9	0.00e+00	0	57	0	1382023168	37	4126
2026-01-03 06:15:22.12	299.57	14.83	-33.6	-34.6	20.0	0.00e+00	0	57	0	1389363200	37	4118
2026-01-03 06:15:23.13	299.37	14.80	-33.6	-34.6	19.9	0.00e+00	0	57	0	1396703232	37	4138
2026-01-03 06:15:24.14	299.17	14.77	-33.6	-34.6	19.9	0.00e+00	0	57	0	1404043264	37	4135
2026-01-03 06:15:25.15	298.96	14.74	-33.6	-34.7	19.8	0.00e+00	0	57	0	1411383296	37	4146
2026-01-03 06:15:26.16	298.76	14.71	-33.7	-34.8	19.8	0.00e+00	0	57	0	1418723328	37	4206
2026-01-03 06:15:27.17	298.56	14.68	-33.8	-34.8	19.7	0.00e+00	0	57	0	1426063360	37	4241
2026-01-03 06:15:28.18	298.35	14.65	-33.9	-35.0	19.5	0.00e+00	0	57	0	1433403392	37	4301
2026-01-03 06:15:29.19	298.15	14.61	-33.9	-35.0	19.5	0.00e+00	0	57	0	1440743424	37	4315
2026-01-03 06:15:30.20	297.95	14.58	-34.0	-35.0	19.4	0.00e+00	0	57	0	1448083456	37	4340
2026-01-03 06:15:31.21	297.75	14.55	-34.0	-35.1	19.5	0.00e+00	0	58	0	1455423488	37	4341
2026-01-03 06:15:32.22	297.55	14.52	-34.0	-35.0	19.5	0.00e+00	0	57	0	1462763520	37	4323
2026-01-03 06:15:33.23	297.35	14.48	-33.9	-34.9	19.6	0.00e+00	0	58	0	1470103552	37	4270
2026-01-03 06:15:34.23	297.15	14.45	-33.8	-34.9	19.6	0.00e+00	0	57	0	1477443584	37	4249
2026-01-03 06:15:35.24	296.95	14.42	-33.8	-34.8	19.7	0.00e+00	0	57	0	1483735040	37	4228
2026-01-03 06:15:36.25	296.75	14.38	-33.8	-34.8	19.7	0.00e+00	0	57	0	1491075072	37	4217
2026-01-03 06:15:37.26	296.55	14.35	-33.8	-34.8	19.7	0.00e+00	0	57	0	1499463680	37	4240
2026-01-03 06:15:38.27	296.35	14.31	-33.8	-34.9	19.6	0.00e+00	0	57	0	1505755136	37	4267
2026-01-03 06:15:39.28	296.16	14.28	-33.9	-34.9	19.5	0.00e+00	0	57	0	1513095168	37	4278
2026-01-03 06:15:40.29	295.96	14.24	-34.0	-35.1	19.4	0.00e+00	0	57	0	1520435200	37	4351
2026-01-03 06:15:41.30	295.76	14.21	-34.0	-35.1	19.4	0.00e+00	0	57	0	1527775232	37	4356
2026-01-03 06:15:42.31	295.57	14.17	-34.0	-35.1	19.4	0.00e+00	0	57	0	1535115264	37	4370
2026-01-03 06:15:43.32	295.37	14.13	-34.0	-35.1	19.3	0.00e+00	0	57	0	1542455296	37	4373
2026-01-03 06:15:44.33	295.18	14.10	-34.1	-35.1	19.3	0.00e+00	0	58	0	1549795328	37	4376
2026-01-03 06:15:45.34	294.98	14.06	-34.0	-35.1	19.3	0.00e+00	0	57	0	1557135360	37	4378
2026-01-03 06:15:46.35	294.79	14.02	-34.0	-35.0	19.4	0.00e+00	0	57	0	1564475392	37	4331
2026-01-03 06:15:47.35	294.59	13.99	-33.9	-34.9	19.5	0.00e+00	0	57	0	1571815424	37	4285
2026-01-03 06:15:48.37	294.40	13.95	-33.8	-34.8	19.6	0.00e+00	0	57	0	1579155456	37	4229
2026-01-03 06:15:49.37	294.21	13.91	-33.6	-34.7	19.7	0.00e+00	0	57	0	1586495488	37	4161
2026-01-03 06:15:50.38	294.02	13.87	-33.6	-34.6	19.8	0.00e+00	0	57	0	1593835520	37	4124
2026-01-03 06:15:51.39	293.82	13.84	-33.5	-34.6	19.8	0.00e+00	0	58	0	1601175552	37	4104
2026-01-03 06:15:52.40	293.63	13.80	-33.5	-34.6	19.7	0.00e+00	0	57	0	1608515584	37	4110
2026-01-03 06:15:53.41	293.44	13.76	-33.6	-34.6	19.7	0.00e+00	0	57	0	1615855616	37	4144
2026-01-03 06:15:54.42	293.25	13.72	-33.7	-34.7	19.6	0.00e+00	0	57	0	1623195648	37	4180
2026-01-03 06:15:55.43	293.06	13.68	-33.8	-34.8	19.5	0.00e+00	0	57	0	1629487104	37	4224
2026-01-03 06:15:56.44	292.87	13.64	-33.9	-35.0	19.3	0.00e+00	0	57	0	1636827136	37	4297
2026-01-03 06:15:57.45	292.68	13.60	-33.9	-35.0	19.3	0.00e+00	0	57	0	1644167168	37	4305
2026-01-03 06:15:58.46	292.50	13.56	-34.0	-35.1	19.2	0.00e+00	0	57	0	1651507200	37	4348
2026-01-03 06:15:59.47	292.31	13.52	-34.0	-35.1	19.1	0.00e+00	0	57	0	1658847232	37	4390
2026-01-03 06:16:00.48	292.12	13.48	-34.0	-35.1	19.1	0.00e+00	0	57	0	1666187264	37	4382
2026-01-03 06:16:01.49	291.93	13.44	-34.0	-35.1	19.0	0.00e+00	0	57	0	1673527296	37	4385
2026-01-03 06:16:02.50	291.75	13.40	-34.0	-35.1	19.1	0.00e+00	0	57	0	1680867328	37	4391
2026-01-03 06:16:03.51	291.56	13.36	-34.0	-35.1	19.1	0.00e+00	0	57	0	1688207360	37	4381
2026-01-03 06:16:04.52	291.38	13.32	-34.0	-35.1	19.1	0.00e+00	0	57	0	1695547392	37	4353
2026-01-03 06:16:05.53	291.19	13.27	-34.0	-35.1	19.1	0.00e+00	0	57	0	1702887424	37	4344
2026-01-03 06:16:06.54	291.01	13.23	-34.0	-35.1	19.1	0.00e+00	0	57	0	1710227456	37	4350
2026-01-03 06:16:07.55	290.82	13.19	-34.0	-35.1	19.1	0.00e+00	0	57	0	1717567488	37	4350
2026-01-03 06:16:08.56	290.64	13.15	-34.0	-35.1	19.1	0.00e+00	0	57	0	1724907520	37	4357
2026-01-03 06:16:09.57	290.46	13.11	-34.0	-35.1	19.0	0.00e+00	0	57	0	1732247552	37	4378
2026-01-03 06:16:10.58	290.28	13.06	-34.0	-35.2	18.9	0.00e+00	0	57	0	1739587584	37	4396
2026-01-03 06:16:11.59	290.10	13.02	-34.1	-35.3	18.8	0.00e+00	0	57	0	1746927616	37	4453
2026-01-03 06:16:12.60	289.91	12.98	-34.2	-35.3	18.7	0.00e+00	0	58	0	1754267648	37	4485
2026-01-03 06:16:13.61	289.73	12.93	-34.2	-35.3	18.7	0.00e+00	0	57	0	1761607680	38	4234
2026-01-03 06:16:14.62	289.55	12.89	-34.3	-35.4	18.6	0.00e+00	0	57	0	1768947712	38	4273
2026-01-03 06:16:15.63	289.37	12.85	-34.3	-35.4	18.5	0.00e+00	0	57	0	1776287744	38	4287
2026-01-03 06:16:16.64	289.20	12.80	-34.4	-35.6	18.4	0.00e+00	0	57	0	1782579200	38	4353
2026-01-03 06:16:17.65	289.02	12.76	-34.5	-35.6	18.3	0.00e+00	0	57	0	1789919232	38	4391
2026-01-03 06:16:18.66	288.84	12.71	-34.6	-35.8	18.0	0.00e+00	0	57	0	1798307840	38	4481
2026-01-03 06:16:19.67	288.66	12.67	-34.8	-36.0	17.8	0.00e+00	0	57	0	1804599296	39	4308
2026-01-03 06:16:20.68	288.49	12.62	-34.9	-36.1	17.6	0.00e+00	0	57	0	1811939328	39	4370
2026-01-03 06:16:21.69	288.31	12.58	-35.1	-36.3	17.3	0.00e+00	0	57	0	1819279360	39	4493
2026-01-03 06:16:22.70	288.13	12.53	-35.2	-36.5	16.9	0.00e+00	0	57	0	1826619392	40	4337
2026-01-03 06:16:23.71	287.96	12.49	-35.4	-36.7	16.7	0.00e+00	0	58	0	1833959424	40	4438
2026-01-03 06:16:24.73	287.78	12.44	-35.6	-37.0	16.4	0.00e+00	0	57	0	1841299456	40	4561
2026-01-03 06:16:25.74	287.61	12.40	-35.7	-37.2	16.1	0.00e+00	0	57	0	1848639488	41	4418
2026-01-03 06:16:26.75	287.44	12.35	-36.0	-37.5	15.6	0.00e+00	0	57	0	1855979520	41	4584
2026-01-03 06:16:27.76	287.26	12.31	-36.2	-37.7	15.3	0.00e+00	0	57	0	1863319552	41	4705
2026-01-03 06:16:28.77	287.09	12.26	-36.3	-38.0	14.9	0.00e+00	0	57	0	1870659584	42	4565
2026-01-03 06:16:29.78	286.92	12.21	-36.5	-38.2	14.7	1.10e-06	0	57	0	1877999616	42	4678
2026-01-03 06:16:30.79	286.75	12.17	-36.6	-38.4	14.3	1.10e-06	0	57	0	1885339648	42	4793
2026-01-03 06:16:31.80	286.58	12.12	-36.7	-38.6	14.1	3.40e-06	0	57	0	1892679680	43	4602
2026-01-03 06:16:32.81	286.41	12.07	-36.8	-38.7	13.9	8.00e-06	0	57	0	1900019712	43	4662
2026-01-03 06:16:33.82	286.24	12.03	-36.9	-38.8	13.7	4.50e-06	0	57	0	1907359744	43	4739
2026-01-03 06:16:34.83	286.07	11.98	-36.9	-38.8	13.9	0.00e+00	0	57	0	1914699776	43	4715
2026-01-03 06:16:35.84	285.90	11.93	-37.0	-38.8	13.8	8.00e-06	0	57	0	1922039808	43	4747
2026-01-03 06:16:36.85	285.73	11.89	-37.0	-38.9	13.9	3.40e-06	0	58	0	1929379840	43	4777
2026-01-03 06:16:37.85	285.57	11.84	-37.1	-38.9	14.1	3.40e-06	0	57	0	1935671296	43	4796
2026-01-03 06:16:38.87	285.40	11.79	-37.2	-39.0	14.2	3.40e-06	0	57	0	1944059904	43	4823
2026-01-03 06:16:39.88	285.23	11.74	-37.4	-39.2	14.0	1.10e-06	0	57	0	1950351360	44	4683
2026-01-03 06:16:40.89	285.06	11.69	-37.4	-39.2	13.9	3.40e-06	0	57	0	1957691392	44	4692
2026-01-03 06:16:41.89	284.90	11.65	-37.4	-39.2	13.9	1.10e-06	0	57	0	1965031424	44	4697
2026-01-03 06:16:42.90	284.74	11.60	-37.3	-39.1	14.0	1.10e-06	0	57	0	1972371456	44	4628
2026-01-03 06:16:43.91	284.57	11.55	-37.2	-39.0	14.2	6.80e-06	0	57	0	1979711488	44	4585
2026-01-03 06:16:44.92	284.41	11.50	-37.1	-38.8	14.4	2.20e-06	0	58	0	1987051520	44	4475
2026-01-03 06:16:45.93	284.25	11.45	-37.0	-38.6	14.7	0.00e+00	0	58	0	1994391552	44	4388
2026-01-03 06:16:46.94	284.08	11.40	-36.8	-38.4	15.1	2.20e-06	0	57	0	2001731584	44	4253
2026-01-03 06:16:47.96	283.92	11.36	-36.6	-38.2	15.5	0.00e+00	0	57	0	2009071616	44	4171
2026-01-03 06:16:48.97	283.76	11.31	-36.5	-38.0	15.8	1.10e-06	0	57	0	2016411648	44	4092
2026-01-03 06:16:49.98	283.60	11.26	-36.5	-38.0	16.0	0.00e+00	0	57	0	2023751680	44	4077
2026-01-03 06:16:50.99	283.44	11.21	-36.2	-37.7	16.2	0.00e+00	0	58	0	2031091712	43	4150
2026-01-03 06:16:52.00	283.28	11.16	-35.8	-37.1	16.8	0.00e+00	0	57	0	2038431744	42	4143
2026-01-03 06:16:53.01	283.12	11.11	-35.5	-36.8	17.0	0.00e+00	0	57	0	2045771776	42	3991
2026-01-03 06:16:54.02	282.96	11.06	-35.2	-36.5	17.4	0.00e+00	0	57	0	2053111808	41	4065
2026-01-03 06:16:55.02	282.80	11.01	-34.9	-36.2	17.7	0.00e+00	0	57	0	2060451840	40	4154
2026-01-03 06:16:56.03	282.65	10.96	-34.7	-35.9	18.0	0.00e+00	0	58	0	2067791872	40	4031
2026-01-03 06:16:57.04	282.49	10.91	-34.5	-35.7	18.3	0.00e+00	0	57	0	2075131904	39	4178
2026-01-03 06:16:58.05	282.33	10.86	-34.5	-35.6	18.3	0.00e+00	0	58	0	2081423360	39	4134
2026-01-03 06:16:59.06	282.18	10.81	-34.4	-35.5	18.3	0.00e+00	0	57	0	2089811968	39	4097
2026-01-03 06:17:00.07	282.02	10.76	-34.3	-35.5	18.4	0.00e+00	0	57	0	2097152000	39	4068
2026-01-03 06:17:01.08	281.87	10.71	-34.2	-35.4	18.6	0.00e+00	0	57	0	2103443456	39	4012
2026-01-03 06:17:02.08	281.71	10.66	-34.3	-35.4	18.6	0.00e+00	0	57	0	2110783488	39	4026
2026-01-03 06:17:03.09	281.56	10.61	-34.3	-35.5	18.5	0.00e+00	0	57	0	2118123520	39	4068
2026-01-03 06:17:04.11	281.40	10.56	-34.5	-35.7	18.3	0.00e+00	0	58	0	2125463552	39	4162
2026-01-03 06:17:05.12	281.25	10.51	-34.6	-35.8	18.1	0.00e+00	0	57	0	2132803584	39	4217
2026-01-03 06:17:06.13	281.10	10.46	-34.8	-36.0	17.9	0.00e+00	0	57	0	2140143616	39	4312
2026-01-03 06:17:07.14	280.95	10.41	-35.0	-36.2	17.7	0.00e+00	0	57	0	2147483648	39	4414
2026-01-03 06:17:08.15	280.80	10.36	-35.1	-36.4	17.5	0.00e+00	0	57	0	2154823680	39	4525
2026-01-03 06:17:09.16	280.65	10.30	-35.2	-36.5	17.3	0.00e+00	0	57	0	2162163712	40	4318
2026-01-03 06:17:10.17	280.49	10.25	-35.4	-36.7	17.0	0.00e+00	0	57	0	2169503744	40	4437
2026-01-03 06:17:11.18	280.35	10.20	-35.5	-36.8	16.8	0.00e+00	0	57	0	2176843776	40	4485
2026-01-03 06:17:12.19	280.20	10.15	-35.7	-37.1	16.5	0.00e+00	0	58	0	2184183808	40	4607
2026-01-03 06:17:13.19	280.05	10.10	-35.6	-37.0	16.5	0.00e+00	0	57	0	2191523840	40	4592
2026-01-03 06:17:14.20	279.90	10.05	-35.8	-37.2	16.3	0.00e+00	0	57	0	2198863872	41	4401
2026-01-03 06:17:15.21	279.75	10.00	-35.9	-37.4	16.0	0.00e+00	0	57	0	2206203904	41	4516
2026-01-03 06:17:16.22	279.61	9.95	-36.1	-37.6	15.7	0.00e+00	0	58	0	2213543936	41	4629
2026-01-03 06:17:17.23	279.46	9.89	-36.2	-37.8	15.5	0.00e+00	0	57	0	2220883968	42	4443
2026-01-03 06:17:18.24	279.31	9.84	-36.4	-38.1	15.1	0.00e+00	0	57	0	2228224000	42	4599
2026-01-03 06:17:19.25	279.17	9.79	-36.6	-38.3	14.7	0.00e+00	0	58	0	2234515456	42	4733
2026-01-03 06:17:20.26	279.02	9.74	-36.9	-38.6	14.2	3.40e-06	0	57	0	2242904064	43	4650
2026-01-03 06:17:21.27	278.88	9.69	-37.1	-39.0	13.8	3.40e-06	0	57	0	2250244096	43	4833
2026-01-03 06:17:22.28	278.74	9.63	-37.6	-39.6	13.2	1.48e-05	0	58	0	2256535552	44	4900
2026-01-03 06:17:23.29	278.59	9.58	-37.7	-39.8	12.9	7.09e-05	0	57	0	2263875584	45	4753
2026-01-03 06:17:24.30	278.45	9.53	-38.0	-40.2	12.4	1.41e-04	0	58	0	2271215616	45	4975
2026-01-03 06:17:25.31	278.31	9.48	-38.2	-40.7	11.8	5.18e-04	0	58	0	2278555648	46	4950
2026-01-03 06:17:26.32	278.17	9.43	-38.4	-41.0	11.3	1.21e-03	0	58	0	2285895680	46	5145
2026-01-03 06:17:27.33	278.02	9.37	-38.7	-41.5	10.6	3.03e-03	0	58	0	2293235712	46	5440
2026-01-03 06:17:28.34	277.88	9.32	-38.9	-41.9	10.1	7.38e-03	0	57	0	2300575744	47	5386
2026-01-03 06:17:29.35	277.74	9.27	-39.1	-42.4	9.4	1.34e-02	0	57	0	2307915776	47	5711
2026-01-03 06:17:30.36	277.60	9.22	-39.2	-42.9	8.9	2.91e-02	0	58	0	2315255808	47	6015
2026-01-03 06:17:31.37	277.47	9.16	-39.5	-43.5	8.2	4.95e-02	0	58	0	2322595840	48	6125
2026-01-03 06:17:32.38	277.33	9.11	-39.7	-43.9	7.7	9.20e-02	0	58	0	2329935872	48	6405
2026-01-03 06:17:33.39	277.19	9.06	-39.8	-44.6	6.9	1.41e-01	0	58	0	2337275904	49	6515
2026-01-03 06:17:34.40	277.05	9.01	-40.0	-45.0	6.5	2.43e-01	0	57	0	2344615936	49	6833
2026-01-03 06:17:35.41	276.91	8.95	-40.1	-45.6	5.9	3.26e-01	0	57	0	2351955968	49	7290
2026-01-03 06:17:36.42	276.78	8.90	-40.1	-45.9	5.6	6.39e-01	0	58	0	2358247424	49	7629
2026-01-03 06:17:37.43	276.64	8.85	-40.2	-46.3	5.3	7.29e-01	0	57	0	2360344576	49	7918
2026-01-03 06:17:38.44	276.50	8.80	-40.3	-46.8	5.0	7.60e-01	0	58	0	2360344576	50	7947
2026-01-03 06:17:39.45	276.37	8.74	-40.3	-47.0	4.8	7.95e-01	0	57	0	2361393152	50	8162
2026-01-03 06:17:40.46	276.24	8.69	-40.3	-47.4	4.6	8.11e-01	0	57	0	2361393152	50	8502
2026-01-03 06:17:41.47	276.10	8.64	-40.4	-47.8	4.4	8.24e-01	0	58	0	2361393152	50	8933
2026-01-03 06:17:42.48	275.97	8.58	-40.4	-48.2	4.3	8.32e-01	0	58	0	2361393152	50	9331
2026-01-03 06:17:43.49	275.83	8.53	-40.4	-48.5	4.1	8.38e-01	0	58	0	2361393152	50	9688
2026-01-03 06:17:44.50	275.70	8.48	-40.4	-48.8	4.1	8.40e-01	0	58	0	2361393152	50	9988
2026-01-03 06:17:45.51	275.57	8.42	-40.5	-49.2	3.8	8.45e-01	0	58	104	2361393152	50	10444
2026-01-03 06:17:46.52	275.44	8.37	-40.5	-49.4	3.8	8.44e-01	0	57	104	2361393152	50	10738
2026-01-03 06:17:47.53	275.31	8.32	-40.5	-49.6	3.8	8.45e-01	0	57	104	2361393152	50	10940
2026-01-03 06:17:48.54	275.18	8.26	-40.5	-49.7	3.9	8.45e-01	0	57	104	2361393152	50	11080
2026-01-03 06:17:49.55	275.05	8.21	-40.5	-50.0	3.8	8.47e-01	0	57	104	2361393152	50	11513
2026-01-03 06:17:50.56	274.92	8.16	-40.5	-50.2	3.8	8.45e-01	0	57	104	2361393152	50	11785
2026-01-03 06:17:51.57	274.79	8.11	-40.5	-50.4	3.8	8.46e-01	0	58	104	2361393152	50	12057
2026-01-03 06:17:52.58	274.66	8.05	-40.5	-50.6	3.8	8.46e-01	0	57	104	2361393152	50	12271
2026-01-03 06:17:53.59	274.53	8.00	-41.2	-51.4	3.8	8.46e-01	0	57	104	2361393152	51	12787
2026-01-03 06:17:54.60	274.40	7.95	-45.0	-56.0	3.8	8.47e-01	0	58	104	2361393152	59	13625
2026-01-03 06:17:55.61	274.27	7.89	-45.2	-56.5	3.8	8.47e-01	0	58	104	2361393152	60	13599
2026-01-03 06:17:56.62	274.15	7.84	-45.3	-56.6	3.8	8.46e-01	0	58	104	2361393152	60	13864
2026-01-03 06:17:57.63	274.02	7.79	-45.4	-56.7	3.8	8.45e-01	0	58	104	2361393152	60	14018
2026-01-03 06:17:58.64	273.89	7.73	-45.5	-56.7	3.8	8.46e-01	0	57	104	2361393152	60	14020
2026-01-03 06:17:59.65	273.77	7.68	-45.5	-56.8	3.8	8.45e-01	0	58	104	2361393152	60	14142
2026-01-03 06:18:00.67	273.64	7.62	-45.6	-56.9	3.8	8.46e-01	0	58	104	2361393152	60	14212
2026-01-03 06:18:01.67	273.52	7.57	-45.6	-56.9	3.8	8.46e-01	0	57	104	2361393152	60	14266
2026-01-03 06:18:02.68	273.40	7.52	-45.6	-56.8	3.8	8.46e-01	0	58	104	2361393152	60	14194
2026-01-03 06:18:03.70	273.27	7.46	-45.6	-56.9	3.8	8.44e-01	0	57	104	2361393152	60	14227
2026-01-03 06:18:04.71	273.15	7.41	-45.5	-56.8	3.8	8.46e-01	0	58	104	2361393152	60	14178
2026-01-03 06:18:05.72	273.02	7.36	-45.5	-56.8	3.8	8.47e-01	0	58	104	2361393152	60	14125
2026-01-03 06:18:06.73	272.90	7.30	-45.5	-56.8	3.8	8.45e-01	0	58	104	2361393152	60	14195
2026-01-03 06:18:07.74	272.78	7.25	-45.5	-56.8	3.8	8.46e-01	0	58	104	2361393152	60	14089
2026-01-03 06:18:08.75	272.66	7.20	-45.5	-56.8	3.8	8.46e-01	0	58	104	2361393152	60	14083
2026-01-03 06:18:09.76	272.54	7.14	-45.5	-56.8	3.8	8.46e-01	0	58	104	2361393152	60	14149
2026-01-03 06:18:10.77	272.42	7.09	-45.5	-56.7	3.8	8.46e-01	0	58	104	2361393152	60	14031
2026-01-03 06:18:11.78	272.30	7.04	-45.5	-56.8	3.8	8.46e-01	0	58	104	2361393152	60	14106
2026-01-03 06:18:12.80	272.18	6.98	-45.5	-56.7	3.8	8.47e-01	0	58	104	2361393152	60	13996
2026-01-03 06:18:13.81	272.06	6.93	-45.5	-56.8	3.8	8.45e-01	0	58	104	2361393152	60	14155
2026-01-03 06:18:14.82	271.94	6.87	-45.5	-56.8	3.8	8.44e-01	0	58	104	2361393152	60	14106
2026-01-03 06:18:15.83	271.82	6.82	-45.5	-56.7	3.8	8.45e-01	0	58	104	2361393152	60	14014
2026-01-03 06:18:16.84	271.70	6.77	-45.5	-56.8	3.8	8.46e-01	0	58	104	2361393152	60	14086
2026-01-03 06:18:17.85	271.59	6.71	-45.5	-56.8	3.8	8.46e-01	0	57	104	2361393152	60	14101
2026-01-03 06:18:18.86	271.47	6.66	-45.5	-56.8	3.8	8.46e-01	0	58	104	2361393152	60	14095
2026-01-03 06:18:19.88	271.35	6.61	-45.5	-56.8	3.8	8.46e-01	0	58	104	2361393152	60	14082
2026-01-03 06:18:20.89	271.24	6.55	-45.5	-56.8	3.8	8.46e-01	0	58	104	2361393152	60	14051
2026-01-03 06:18:21.90	271.12	6.50	-45.5	-56.7	3.8	8.45e-01	0	57	104	2361393152	60	14033
2026-01-03 06:18:22.91	271.00	6.45	-45.5	-56.7	3.8	8.46e-01	0	58	104	2361393152	60	14046
2026-01-03 06:18:23.92	270.89	6.39	-45.5	-56.8	3.8	8.45e-01	0	58	104	2361393152	60	14073
2026-01-03 06:18:24.93	270.78	6.34	-45.5	-56.8	3.8	8.46e-01	0	58	104	2361393152	60	14074
2026-01-03 06:18:25.94	270.66	6.28	-45.5	-56.8	3.8	8.45e-01	0	58	104	2361393152	60	14068
2026-01-03 06:18:26.95	270.55	6.23	-45.5	-56.7	3.8	8.46e-01	0	58	104	2361393152	60	14033
2026-01-03 06:18:27.96	270.44	6.18	-45.5	-56.7	3.8	8.46e-01	0	58	104	2361393152	60	14013
2026-01-03 06:18:28.97	270.32	6.12	-45.5	-56.7	3.8	8.46e-01	0	58	104	2361393152	60	14044
2026-01-03 06:18:29.98	270.21	6.07	-45.5	-56.8	3.8	8.46e-01	0	58	104	2361393152	60	14052
2026-01-03 06:18:30.99	270.10	6.02	-45.5	-56.8	3.8	8.46e-01	0	58	104	2361393152	60	14088
2026-01-03 06:18:32.01	269.99	5.96	-45.5	-56.8	3.8	8.47e-01	0	58	104	2361393152	60	14067
2026-01-03 06:18:33.02	269.88	5.91	-45.5	-56.7	3.8	8.47e-01	0	58	104	2361393152	60	14020
2026-01-03 06:18:34.03	269.76	5.86	-45.4	-56.7	3.8	8.47e-01	0	58	104	2361393152	60	14045
2026-01-03 06:18:35.04	269.65	5.80	-45.4	-56.8	3.8	8.46e-01	0	58	104	2361393152	60	14049
2026-01-03 06:18:36.05	269.55	5.75	-45.5	-56.8	3.8	8.46e-01	0	58	104	2361393152	60	14071
2026-01-03 06:18:37.06	269.44	5.70	-45.4	-56.7	3.8	8.46e-01	0	58	104	2361393152	60	14030
2026-01-03 06:18:38.07	269.33	5.64	-45.5	-56.7	3.8	8.45e-01	0	58	104	2361393152	60	14027
2026-01-03 06:18:39.09	269.22	5.59	-45.5	-56.8	3.8	8.46e-01	0	58	104	2361393152	60	14096
2026-01-03 06:18:40.10	269.11	5.53	-45.5	-56.7	3.8	8.46e-01	0	58	104	2361393152	60	14030
2026-01-03 06:18:41.10	269.00	5.48	-45.5	-56.7	3.8	8.45e-01	0	58	104	2361393152	60	14042
2026-01-03 06:18:42.12	268.89	5.43	-45.5	-56.7	3.8	8.45e-01	0	58	104	2361393152	60	14033
2026-01-03 06:18:43.13	268.79	5.37	-45.5	-56.7	3.8	8.46e-01	0	58	104	2361393152	60	13943
2026-01-03 06:18:44.14	268.68	5.32	-45.4	-56.7	3.8	8.46e-01	0	58	104	2361393152	60	14031
2026-01-03 06:18:45.15	268.58	5.27	-45.5	-56.7	3.8	8.47e-01	0	57	104	2361393152	60	14042
2026-01-03 06:18:46.16	268.47	5.21	-45.5	-56.7	3.8	8.46e-01	0	58	104	2361393152	60	14002
2026-01-03 06:18:47.17	268.36	5.16	-45.4	-56.7	3.8	8.45e-01	0	58	104	2361393152	60	13955
2026-01-03 06:18:48.18	268.26	5.11	-45.4	-56.7	3.8	8.45e-01	0	58	104	2361393152	60	14023
2026-01-03 06:18:49.20	268.15	5.05	-45.4	-56.8	3.8	8.47e-01	0	58	104	2361393152	60	14052
2026-01-03 06:18:50.21	268.05	5.00	-45.4	-56.7	3.8	8.47e-01	0	58	104	2361393152	60	13991
2026-01-03 06:18:51.22	267.95	4.95	-45.4	-56.7	3.8	8.47e-01	0	58	104	2361393152	60	14016
2026-01-03 06:18:52.23	267.84	4.89	-45.4	-56.7	3.8	8.46e-01	0	58	104	2361393152	60	14007
2026-01-03 06:18:53.24	267.74	4.84	-45.4	-56.7	3.8	8.46e-01	0	58	104	2361393152	60	14006
2026-01-03 06:18:54.25	267.64	4.79	-45.4	-56.8	3.8	8.47e-01	0	58	104	2361393152	60	14060
2026-01-03 06:18:55.26	267.54	4.73	-45.4	-56.7	3.8	8.46e-01	0	57	104	2361393152	60	14018
2026-01-03 06:18:56.27	267.43	4.68	-45.4	-56.7	3.8	8.45e-01	0	58	104	2361393152	60	13958
2026-01-03 06:18:57.28	267.33	4.63	-45.4	-56.7	3.8	8.46e-01	0	58	104	2361393152	60	14020
2026-01-03 06:18:58.30	267.23	4.57	-45.4	-56.7	3.8	8.47e-01	0	58	104	2361393152	60	13966
2026-01-03 06:18:59.31	267.13	4.52	-45.4	-56.7	3.8	8.45e-01	0	58	104	2361393152	60	14001
2026-01-03 06:19:00.32	267.03	4.47	-45.4	-56.7	3.8	8.46e-01	0	58	104	2361393152	60	14044
2026-01-03 06:19:01.33	266.93	4.42	-45.4	-56.7	3.8	8.47e-01	0	58	104	2361393152	60	14013
2026-01-03 06:19:02.34	266.83	4.36	-45.4	-56.7	3.8	8.47e-01	0	58	104	2361393152	60	14020
2026-01-03 06:19:03.35	266.73	4.31	-45.4	-56.7	3.8	8.45e-01	0	58	104	2361393152	60	13964
2026-01-03 06:19:04.36	266.63	4.26	-45.4	-56.7	3.8	8.47e-01	0	58	104	2361393152	60	13986
2026-01-03 06:19:05.37	266.53	4.20	-45.4	-56.7	3.8	8.46e-01	0	58	104	2361393152	60	14030
2026-01-03 06:19:06.38	266.44	4.15	-45.4	-56.7	3.8	8.46e-01	0	58	104	2361393152	60	14006
2026-01-03 06:19:07.39	266.34	4.10	-45.4	-56.7	3.8	8.46e-01	0	58	104	2361393152	60	13981
2026-01-03 06:19:08.40	266.24	4.04	-45.4	-56.7	3.8	8.46e-01	0	58	104	2361393152	60	14006
2026-01-03 06:19:09.42	266.14	3.99	-45.4	-56.7	3.8	8.46e-01	0	58	104	2361393152	60	13981
2026-01-03 06:19:10.43	266.05	3.94	-45.4	-56.7	3.8	8.46e-01	0	58	104	2361393152	60	13953
2026-01-03 06:19:11.44	265.95	3.89	-45.4	-56.7	3.8	8.46e-01	0	58	104	2361393152	60	13970
2026-01-03 06:19:12.45	265.85	3.83	-45.4	-56.7	3.8	8.46e-01	0	58	104	2361393152	60	14023
2026-01-03 06:19:13.46	265.76	3.78	-45.4	-56.7	3.8	8.46e-01	0	58	104	2361393152	60	13989
2026-01-03 06:19:14.47	265.66	3.73	-45.4	-56.7	3.8	8.46e-01	0	58	104	2361393152	60	14008
2026-01-03 06:19:15.48	265.57	3.68	-45.4	-56.7	3.8	8.46e-01	0	58	104	2361393152	60	13962
2026-01-03 06:19:16.49	265.47	3.62	-45.4	-56.7	3.8	8.47e-01	0	58	104	2361393152	60	14018
2026-01-03 06:19:17.50	265.38	3.57	-45.4	-56.7	3.8	8.44e-01	0	58	104	2361393152	60	13971
2026-01-03 06:19:18.51	265.29	3.52	-45.4	-56.7	3.8	8.46e-01	0	58	104	2361393152	60	14029
2026-01-03 06:19:19.52	265.19	3.47	-45.4	-56.7	3.8	8.47e-01	0	58	104	2361393152	60	13970
2026-01-03 06:19:20.54	265.10	3.41	-45.4	-56.7	3.8	8.46e-01	0	58	104	2361393152	60	13979
2026-01-03 06:19:21.55	265.01	3.36	-45.4	-56.8	3.8	8.44e-01	0	58	104	2361393152	60	14058
2026-01-03 06:19:22.56	264.91	3.31	-45.4	-56.7	3.8	8.46e-01	0	58	104	2361393152	60	14014
2026-01-03 06:19:23.57	264.82	3.25	-45.4	-56.7	3.8	8.46e-01	0	58	104	2361393152	60	14046
2026-01-03 06:19:24.58	264.73	3.20	-45.4	-56.7	3.8	8.46e-01	0	58	104	2361393152	60	13911
2026-01-03 06:19:25.59	264.64	3.15	-45.4	-56.7	3.8	8.46e-01	0	58	104	2361393152	60	13977
2026-01-03 06:19:26.60	264.55	3.10	-45.4	-56.7	3.8	8.46e-01	0	58	104	2361393152	60	13968
2026-01-03 06:19:27.61	264.46	3.05	-45.4	-56.7	3.8	8.46e-01	0	58	104	2361393152	60	14044
2026-01-03 06:19:28.62	264.37	2.99	-45.4	-56.7	3.8	8.47e-01	0	58	104	2361393152	60	13986
2026-01-03 06:19:29.63	264.28	2.94	-45.4	-56.7	3.8	8.46e-01	0	58	104	2361393152	60	13969
2026-01-03 06:19:30.65	264.18	2.89	-45.4	-56.7	3.8	8.46e-01	0	58	104	2361393152	60	13962
2026-01-03 06:19:31.66	264.10	2.84	-45.4	-56.7	3.8	8.47e-01	0	58	104	2361393152	60	14003
2026-01-03 06:19:32.67	264.01	2.78	-45.4	-56.7	3.8	8.46e-01	0	58	104	2361393152	60	13992
2026-01-03 06:19:33.68	263.92	2.73	-45.4	-56.7	3.8	8.47e-01	0	58	104	2361393152	60	14000
2026-01-03 06:19:34.69	263.83	2.68	-45.4	-56.7	3.8	8.46e-01	0	58	104	2361393152	60	13972
2026-01-03 06:19:35.70	263.74	2.63	-45.4	-56.7	3.8	8.46e-01	0	58	104	2361393152	60	13951
2026-01-03 06:19:36.71	263.65	2.58	-45.4	-56.7	3.8	8.46e-01	0	58	104	2361393152	60	14025
2026-01-03 06:19:37.72	263.57	2.52	-45.4	-56.7	3.8	8.47e-01	0	58	104	2361393152	60	13988
2026-01-03 06:19:38.73	263.48	2.47	-45.4	-56.7	3.8	8.44e-01	0	58	104	2361393152	60	13991
2026-01-03 06:19:39.75	263.39	2.42	-45.4	-56.7	3.8	8.45e-01	0	58	104	2361393152	60	13991
2026-01-03 06:19:40.76	263.30	2.37	-45.4	-56.7	3.8	8.46e-01	0	58	104	2361393152	60	14010
2026-01-03 06:19:41.77	263.22	2.32	-45.4	-56.7	3.8	8.46e-01	0	58	104	2361393152	60	13995
2026-01-03 06:19:42.78	263.13	2.26	-45.4	-56.7	3.8	8.46e-01	0	58	104	2361393152	60	13952
2026-01-03 06:19:43.79	263.05	2.21	-45.4	-56.7	3.8	8.47e-01	0	58	104	2361393152	60	13955
2026-01-03 06:19:44.80	262.96	2.16	-45.4	-56.7	3.8	8.47e-01	0	58	104	2361393152	60	13960
2026-01-03 06:19:45.81	262.88	2.11	-45.4	-56.7	3.8	8.45e-01	0	58	104	2361393152	60	14026
2026-01-03 06:19:46.82	262.79	2.06	-45.4	-56.7	3.8	8.46e-01	0	58	104	2361393152	60	14020
2026-01-03 06:19:47.83	262.71	2.01	-45.4	-56.7	3.8	8.46e-01	0	58	104	2361393152	60	14019
2026-01-03 06:19:48.85	262.62	1.95	-45.4	-56.7	3.8	8.47e-01	0	58	104	2361393152	60	14002

#Closed at: 2026-01-03 06:19:49
#Recorded file [2361 MB]: D:/lorett/data/31039_260103_090823.dat