passes_logs/2026/01/03/R2.0S_Moscow/R2.0S_Moscow__20260103_094944_SUOMI_NPP_rec.log

#Pass ID: 20260103_094944_SUOMI NPP
#Satellite: SUOMI NPP
#Configuration: NPP
#almurnet v.1.7.20251203
#Start time: 2026-01-03 09:49:44

#Version: 2.2.20231116
#Station: R2.0S_Moscow
#Location: 37.707566 lon 55.798166 lat
#TLE: 1 37849U 11061A   26001.07732418  .00000182  00000+0  10735-3 0  9990
#TLE: 2 37849  98.7795 303.2470 0002580  87.2016 272.9455 14.19520779734739

#Time	Az	El	Level	Level2	SNR	BER	BlckErr	Temp	State	Recorded	gain1	gain2
2026-01-03 09:49:44.86	155.91	2.02	-44.1	-58.8	3.8	1.49e+00	0	47	0	0	60	18826
2026-01-03 09:49:45.86	155.90	2.08	-44.1	-58.8	3.8	1.49e+00	0	47	104	0	60	18833
2026-01-03 09:49:46.87	155.90	2.15	-44.1	-58.8	3.8	1.49e+00	0	47	104	0	60	18856
2026-01-03 09:49:47.88	155.89	2.21	-44.1	-58.8	3.8	1.49e+00	0	47	104	0	60	18852
2026-01-03 09:49:48.90	155.89	2.28	-44.1	-58.8	3.8	1.49e+00	0	47	104	0	60	18807
2026-01-03 09:49:49.91	155.88	2.34	-44.1	-58.8	3.8	1.49e+00	0	47	104	0	60	18841
2026-01-03 09:49:50.92	155.88	2.41	-44.1	-58.8	3.8	1.49e+00	0	47	104	0	60	18799
2026-01-03 09:49:51.93	155.87	2.47	-44.1	-58.8	3.8	1.49e+00	0	48	104	0	60	18862
2026-01-03 09:49:52.94	155.87	2.54	-44.1	-58.8	3.8	1.49e+00	0	48	104	0	60	18823
2026-01-03 09:49:53.95	155.86	2.61	-44.1	-58.8	3.8	1.49e+00	0	48	104	0	60	18744
2026-01-03 09:49:54.96	155.86	2.67	-44.1	-58.8	3.8	1.49e+00	0	48	104	0	60	18788
2026-01-03 09:49:55.97	155.85	2.74	-44.1	-58.8	3.8	1.49e+00	0	48	104	0	60	18828
2026-01-03 09:49:56.98	155.85	2.81	-44.1	-58.8	3.8	1.49e+00	0	48	104	0	60	18790
2026-01-03 09:49:57.99	155.84	2.87	-44.1	-58.8	3.8	1.49e+00	0	48	104	0	60	18848
2026-01-03 09:49:59.01	155.84	2.94	-44.1	-58.7	3.8	1.49e+00	0	48	104	0	60	18717
2026-01-03 09:50:00.02	155.83	3.01	-44.1	-58.8	3.8	1.49e+00	0	48	104	0	60	18829
2026-01-03 09:50:01.03	155.82	3.08	-44.1	-58.8	3.8	1.49e+00	0	48	104	0	60	18858
2026-01-03 09:50:02.04	155.82	3.14	-44.1	-58.8	3.8	1.49e+00	0	49	104	0	60	18769
2026-01-03 09:50:03.05	155.81	3.21	-44.1	-58.8	3.8	1.49e+00	0	48	104	0	60	18821
2026-01-03 09:50:04.06	155.81	3.28	-44.1	-58.8	3.8	1.49e+00	0	49	104	0	60	18844
2026-01-03 09:50:05.07	155.80	3.35	-44.1	-58.8	3.8	1.49e+00	0	48	104	0	60	18823
2026-01-03 09:50:06.08	155.80	3.42	-44.1	-58.8	3.8	1.49e+00	0	49	104	0	60	18763
2026-01-03 09:50:07.09	155.79	3.48	-44.1	-58.8	3.8	1.49e+00	0	49	104	0	60	18764
2026-01-03 09:50:08.10	155.79	3.55	-44.1	-58.8	3.8	1.49e+00	0	49	104	0	60	18855
2026-01-03 09:50:09.12	155.78	3.62	-44.1	-58.8	3.8	1.49e+00	0	49	104	0	60	18798
2026-01-03 09:50:10.13	155.78	3.69	-44.1	-58.8	3.8	1.49e+00	0	49	104	0	60	18780
2026-01-03 09:50:11.14	155.77	3.76	-44.1	-58.8	3.8	1.49e+00	0	49	104	0	60	18832
2026-01-03 09:50:12.15	155.76	3.83	-44.1	-58.8	3.8	1.49e+00	0	49	104	0	60	18790
2026-01-03 09:50:13.16	155.76	3.90	-44.1	-58.8	3.8	1.49e+00	0	49	104	0	60	18800
2026-01-03 09:50:14.17	155.75	3.97	-44.1	-58.8	3.8	1.49e+00	0	49	104	0	60	18826
2026-01-03 09:50:15.18	155.75	4.04	-44.1	-58.8	3.8	1.49e+00	0	49	104	0	60	18813
2026-01-03 09:50:16.19	155.74	4.11	-44.1	-58.8	3.8	1.49e+00	0	49	104	0	60	18821
2026-01-03 09:50:17.20	155.74	4.18	-44.1	-58.8	3.8	1.49e+00	0	49	104	0	60	18825
2026-01-03 09:50:18.21	155.73	4.25	-44.1	-58.8	3.8	1.49e+00	0	49	104	0	60	18839
2026-01-03 09:50:19.23	155.72	4.32	-44.1	-58.8	3.8	1.49e+00	0	49	104	0	60	18788
2026-01-03 09:50:20.24	155.72	4.39	-44.1	-58.8	3.8	1.49e+00	0	49	104	0	60	18861
2026-01-03 09:50:21.25	155.71	4.46	-44.1	-58.8	3.8	1.49e+00	0	49	104	0	60	18825
2026-01-03 09:50:22.26	155.71	4.53	-44.1	-58.8	3.8	1.49e+00	0	50	104	0	60	18772
2026-01-03 09:50:23.27	155.70	4.60	-44.1	-58.8	3.8	1.49e+00	0	50	104	0	60	18810
2026-01-03 09:50:24.28	155.69	4.68	-44.1	-58.8	3.8	1.49e+00	0	50	104	0	60	18773
2026-01-03 09:50:25.29	155.69	4.75	-44.1	-58.8	3.8	1.49e+00	0	50	104	0	60	18764
2026-01-03 09:50:26.30	155.68	4.82	-44.1	-58.8	3.8	1.49e+00	0	50	104	0	60	18818
2026-01-03 09:50:27.31	155.67	4.89	-44.1	-58.8	3.8	1.49e+00	0	50	104	0	60	18777
2026-01-03 09:50:28.32	155.67	4.96	-44.1	-58.8	3.8	1.49e+00	0	50	104	0	60	18822
2026-01-03 09:50:29.34	155.66	5.04	-44.1	-58.8	3.8	1.49e+00	0	50	104	0	60	18788
2026-01-03 09:50:30.35	155.65	5.11	-44.1	-58.8	3.8	1.49e+00	0	50	104	0	60	18809
2026-01-03 09:50:31.36	155.65	5.18	-44.1	-58.8	3.8	1.49e+00	0	50	104	0	60	18781
2026-01-03 09:50:32.37	155.64	5.26	-44.1	-58.8	3.8	1.49e+00	0	50	104	0	60	18794
2026-01-03 09:50:33.38	155.64	5.33	-44.1	-58.7	3.8	1.49e+00	0	50	104	0	60	18718
2026-01-03 09:50:34.39	155.63	5.40	-44.1	-58.8	3.8	1.49e+00	0	50	104	0	60	18761
2026-01-03 09:50:35.40	155.62	5.48	-44.1	-58.7	3.8	1.49e+00	0	50	104	0	60	18718
2026-01-03 09:50:36.41	155.62	5.55	-44.1	-58.8	3.8	1.49e+00	0	51	104	0	60	18765
2026-01-03 09:50:37.43	155.61	5.63	-44.1	-58.7	3.8	1.49e+00	0	50	104	0	60	18640
2026-01-03 09:50:38.44	155.60	5.70	-44.1	-58.7	3.8	1.49e+00	0	50	104	0	60	18622
2026-01-03 09:50:39.45	155.59	5.77	-44.1	-58.7	3.8	1.49e+00	0	50	104	0	60	18603
2026-01-03 09:50:40.46	155.59	5.85	-44.1	-58.7	3.8	1.49e+00	0	50	104	0	60	18555
2026-01-03 09:50:41.47	155.58	5.92	-44.1	-58.6	3.8	1.49e+00	0	50	104	0	60	18408
2026-01-03 09:50:42.48	155.57	6.00	-44.1	-58.6	3.8	1.49e+00	0	51	104	0	60	18400
2026-01-03 09:50:43.49	155.57	6.07	-44.1	-58.5	3.8	1.49e+00	0	51	104	0	60	18228
2026-01-03 09:50:44.50	155.56	6.15	-44.1	-58.5	3.8	1.49e+00	0	51	104	0	60	18175
2026-01-03 09:50:45.51	155.55	6.23	-44.1	-58.5	3.8	1.49e+00	0	51	104	0	60	18200
2026-01-03 09:50:46.52	155.55	6.30	-44.1	-58.5	3.8	1.49e+00	0	51	104	0	60	18196
2026-01-03 09:50:47.54	155.54	6.38	-44.1	-58.5	3.8	1.49e+00	0	51	104	0	60	18277
2026-01-03 09:50:48.55	155.53	6.46	-44.1	-58.5	3.8	1.49e+00	0	51	104	0	60	18274
2026-01-03 09:50:49.56	155.52	6.53	-44.1	-58.4	3.8	1.49e+00	0	51	104	0	60	18006
2026-01-03 09:50:50.57	155.52	6.61	-44.0	-58.2	3.8	1.49e+00	0	51	104	0	60	17553
2026-01-03 09:50:51.58	155.51	6.69	-44.0	-57.8	3.8	1.49e+00	0	51	104	0	60	16697
2026-01-03 09:50:52.59	155.50	6.76	-44.0	-56.8	3.8	1.49e+00	0	51	104	0	60	14959
2026-01-03 09:50:53.60	155.49	6.84	-44.0	-55.6	4.1	1.48e+00	0	51	0	0	59	13818
2026-01-03 09:50:54.61	155.49	6.92	-43.8	-54.2	4.5	1.26e+00	0	51	0	0	59	11723
2026-01-03 09:50:55.62	155.48	7.00	-43.7	-52.9	5.1	8.04e-01	0	51	0	2097152	59	10114
2026-01-03 09:50:56.63	155.47	7.08	-43.5	-51.6	6.0	5.64e-01	0	51	0	4194304	59	8674
2026-01-03 09:50:57.64	155.46	7.15	-43.3	-50.5	6.9	2.19e-01	0	51	0	6291456	58	8097
2026-01-03 09:50:58.65	155.45	7.23	-43.1	-49.5	7.8	1.05e-01	0	51	0	7340032	58	7283
2026-01-03 09:50:59.66	155.45	7.31	-42.7	-48.3	9.1	4.09e-02	0	51	0	9437184	57	6675
2026-01-03 09:51:00.68	155.44	7.39	-42.4	-47.5	9.9	1.20e-02	0	51	0	11534336	56	6465
2026-01-03 09:51:01.69	155.43	7.47	-42.1	-46.7	10.7	6.34e-03	0	52	0	13631488	56	5906
2026-01-03 09:51:02.70	155.42	7.55	-41.6	-45.9	11.4	2.02e-03	0	52	0	15728640	55	5666
2026-01-03 09:51:03.71	155.41	7.63	-41.3	-45.1	12.2	3.03e-04	0	52	0	16777216	54	5522
2026-01-03 09:51:04.72	155.41	7.71	-41.0	-44.7	12.7	1.39e-04	0	52	0	18874368	54	5222
2026-01-03 09:51:05.73	155.40	7.79	-40.8	-44.3	13.1	3.20e-05	0	52	0	20971520	53	5283
2026-01-03 09:51:06.74	155.39	7.87	-40.7	-44.0	13.3	7.60e-06	0	52	0	23068672	53	5122
2026-01-03 09:51:07.75	155.38	7.95	-40.5	-43.7	13.7	7.60e-06	0	52	0	25165824	52	5236
2026-01-03 09:51:08.76	155.37	8.04	-40.2	-43.2	14.1	2.20e-06	0	52	0	26214400	52	4966
2026-01-03 09:51:09.77	155.36	8.12	-42.1	-46.7	10.9	3.69e-04	0	52	0	28311552	54	6610
2026-01-03 09:51:10.78	155.36	8.20	-42.5	-48.0	9.4	1.66e-03	0	52	0	30408704	55	7246
2026-01-03 09:51:11.79	155.35	8.28	-40.3	-43.3	14.1	9.05e-03	0	52	0	32505856	52	5018
2026-01-03 09:51:12.80	155.34	8.36	-42.7	-48.4	9.1	2.89e-05	0	52	0	34603008	55	7591
2026-01-03 09:51:13.81	155.33	8.45	-41.6	-45.8	11.7	2.27e-04	0	52	0	35651584	53	6337
2026-01-03 09:51:14.81	155.32	8.53	-40.6	-43.9	13.4	1.18e-02	0	52	0	37748736	53	5075
2026-01-03 09:51:15.82	155.31	8.61	-40.1	-43.0	14.4	2.20e-06	0	52	0	39845888	52	4865
2026-01-03 09:51:16.83	155.30	8.70	-40.2	-43.1	14.3	7.00e-07	0	52	0	41943040	52	4911
2026-01-03 09:51:17.84	155.29	8.78	-40.2	-43.3	14.1	6.10e-06	0	52	0	44040192	52	4988
2026-01-03 09:51:18.85	155.29	8.86	-40.1	-43.1	14.4	7.00e-07	0	52	0	45088768	52	4874
2026-01-03 09:51:19.86	155.28	8.95	-40.2	-43.2	14.2	7.00e-07	0	52	0	47185920	52	4967
2026-01-03 09:51:20.87	155.27	9.03	-40.2	-43.2	14.3	1.50e-06	0	52	0	49283072	52	4947
2026-01-03 09:51:21.88	155.26	9.12	-40.2	-43.2	14.3	0.00e+00	0	52	0	51380224	52	4944
2026-01-03 09:51:22.89	155.25	9.20	-40.2	-43.2	14.3	1.50e-06	0	52	0	53477376	52	4930
2026-01-03 09:51:23.90	155.24	9.29	-40.2	-43.2	14.2	7.00e-07	0	52	0	55574528	52	4975
2026-01-03 09:51:24.91	155.23	9.37	-40.2	-43.1	14.4	7.00e-07	0	52	0	56623104	52	4894
2026-01-03 09:51:25.92	155.22	9.46	-40.1	-43.0	14.5	7.00e-07	0	52	0	58720256	52	4847
2026-01-03 09:51:26.93	155.21	9.55	-40.1	-43.0	14.6	0.00e+00	0	52	0	60817408	52	4822
2026-01-03 09:51:27.94	155.20	9.63	-40.3	-43.2	14.3	0.00e+00	0	52	0	62914560	52	4976
2026-01-03 09:51:28.95	155.19	9.72	-40.0	-42.8	14.7	7.00e-07	0	53	0	65011712	52	4716
2026-01-03 09:51:29.96	155.18	9.81	-40.1	-43.0	14.6	0.00e+00	0	52	0	66060288	52	4826
2026-01-03 09:51:30.97	155.17	9.90	-40.1	-42.8	14.8	7.00e-07	0	53	0	68157440	51	5029
2026-01-03 09:51:31.98	155.16	9.98	-39.9	-42.6	15.0	0.00e+00	0	53	0	70254592	51	4909
2026-01-03 09:51:32.99	155.15	10.07	-40.0	-42.7	15.0	0.00e+00	0	53	0	72351744	51	4934
2026-01-03 09:51:34.00	155.14	10.16	-40.0	-42.7	15.0	0.00e+00	0	53	0	74448896	51	4950
2026-01-03 09:51:35.01	155.13	10.25	-39.9	-42.6	15.1	0.00e+00	0	53	0	75497472	51	4889
2026-01-03 09:51:36.02	155.12	10.34	-40.0	-42.7	14.9	7.00e-07	0	53	0	77594624	51	4977
2026-01-03 09:51:37.03	155.11	10.43	-39.9	-42.6	15.1	0.00e+00	0	53	0	79691776	51	4885
2026-01-03 09:51:38.04	155.10	10.52	-39.9	-42.5	15.2	0.00e+00	0	53	0	81788928	51	4837
2026-01-03 09:51:39.05	155.09	10.61	-39.8	-42.3	15.4	0.00e+00	0	53	0	83886080	51	4754
2026-01-03 09:51:40.06	155.08	10.70	-39.8	-42.3	15.4	0.00e+00	0	53	0	84934656	51	4753
2026-01-03 09:51:41.07	155.07	10.79	-39.8	-42.4	15.4	0.00e+00	0	53	0	87031808	51	4782
2026-01-03 09:51:42.08	155.06	10.88	-39.8	-42.4	15.3	0.00e+00	0	53	0	89128960	51	4797
2026-01-03 09:51:43.09	155.05	10.97	-39.8	-42.4	15.4	0.00e+00	0	53	0	91226112	51	4760
2026-01-03 09:51:44.10	155.03	11.06	-39.9	-42.5	15.3	0.00e+00	0	53	0	93323264	51	4827
2026-01-03 09:51:45.11	155.02	11.16	-39.7	-42.3	15.5	0.00e+00	0	53	0	94371840	51	4717
2026-01-03 09:51:46.12	155.01	11.25	-39.8	-42.3	15.5	0.00e+00	0	53	0	96468992	51	4733
2026-01-03 09:51:47.13	155.00	11.34	-39.8	-42.3	15.4	0.00e+00	0	53	0	98566144	51	4753
2026-01-03 09:51:48.15	154.99	11.44	-39.8	-42.3	15.5	0.00e+00	0	53	0	100663296	51	4759
2026-01-03 09:51:49.16	154.98	11.53	-39.9	-42.5	15.3	0.00e+00	0	53	0	102760448	51	4831
2026-01-03 09:51:50.17	154.97	11.62	-39.9	-42.5	15.3	0.00e+00	0	53	0	104857600	51	4843
2026-01-03 09:51:51.18	154.96	11.72	-39.8	-42.4	15.4	0.00e+00	0	53	0	105906176	51	4776
2026-01-03 09:51:52.19	154.94	11.81	-39.8	-42.4	15.4	0.00e+00	0	53	0	108003328	51	4795
2026-01-03 09:51:53.20	154.93	11.91	-39.9	-42.4	15.4	0.00e+00	0	53	0	110100480	51	4801
2026-01-03 09:51:54.20	154.92	12.00	-39.8	-42.4	15.4	0.00e+00	0	53	0	112197632	51	4793
2026-01-03 09:51:55.21	154.91	12.10	-40.0	-42.6	15.3	0.00e+00	0	53	0	113246208	51	4893
2026-01-03 09:51:56.22	154.90	12.19	-39.9	-42.5	15.4	0.00e+00	0	53	0	115343360	51	4836
2026-01-03 09:51:57.23	154.88	12.29	-40.0	-42.7	15.2	0.00e+00	0	53	0	117440512	51	4940
2026-01-03 09:51:58.24	154.87	12.39	-39.9	-42.5	15.4	0.00e+00	0	53	0	119537664	51	4827
2026-01-03 09:51:59.24	154.86	12.48	-39.9	-42.5	15.4	0.00e+00	0	53	0	121634816	51	4842
2026-01-03 09:52:00.26	154.85	12.58	-39.9	-42.4	15.4	0.00e+00	0	53	0	123731968	51	4809
2026-01-03 09:52:01.27	154.83	12.68	-39.8	-42.4	15.5	0.00e+00	0	54	0	124780544	51	4789
2026-01-03 09:52:02.28	154.82	12.78	-39.8	-42.3	15.7	0.00e+00	0	54	0	126877696	51	4720
2026-01-03 09:52:03.29	154.81	12.88	-39.7	-42.2	15.7	0.00e+00	0	54	0	128974848	51	4661
2026-01-03 09:52:04.29	154.80	12.98	-39.6	-42.1	15.8	0.00e+00	0	53	0	131072000	51	4610
2026-01-03 09:52:05.30	154.78	13.08	-39.6	-42.1	15.8	0.00e+00	0	54	0	133169152	51	4612
2026-01-03 09:52:06.31	154.77	13.18	-39.5	-41.9	16.0	0.00e+00	0	53	0	134217728	51	4525
2026-01-03 09:52:07.32	154.76	13.28	-39.4	-41.8	16.2	0.00e+00	0	54	0	136314880	50	4706
2026-01-03 09:52:08.33	154.74	13.38	-39.4	-41.7	16.1	0.00e+00	0	53	0	138412032	50	4702
2026-01-03 09:52:09.34	154.73	13.48	-39.5	-41.8	16.1	0.00e+00	0	54	0	140509184	50	4738
2026-01-03 09:52:10.35	154.72	13.58	-39.4	-41.7	16.3	0.00e+00	0	54	0	142606336	50	4658
2026-01-03 09:52:11.37	154.70	13.69	-39.5	-41.8	16.1	0.00e+00	0	54	0	143654912	50	4741
2026-01-03 09:52:12.37	154.69	13.79	-39.5	-41.9	16.0	0.00e+00	0	54	0	145752064	50	4774
2026-01-03 09:52:13.38	154.68	13.89	-39.7	-42.1	15.9	0.00e+00	0	54	0	147849216	50	4891
2026-01-03 09:52:14.39	154.66	13.99	-39.7	-42.2	15.8	0.00e+00	0	54	0	149946368	50	4930
2026-01-03 09:52:15.40	154.65	14.10	-39.8	-42.3	15.6	0.00e+00	0	54	0	152043520	50	5038
2026-01-03 09:52:16.41	154.63	14.20	-39.8	-42.3	15.7	0.00e+00	0	54	0	153092096	50	5011
2026-01-03 09:52:17.42	154.62	14.31	-39.9	-42.4	15.6	0.00e+00	0	54	0	155189248	50	5094
2026-01-03 09:52:18.43	154.60	14.41	-40.0	-42.6	15.5	0.00e+00	0	54	0	157286400	50	5167
2026-01-03 09:52:19.44	154.59	14.52	-39.9	-42.5	15.5	0.00e+00	0	54	0	159383552	50	5141
2026-01-03 09:52:20.45	154.58	14.62	-39.9	-42.4	15.6	0.00e+00	0	54	0	161480704	50	5067
2026-01-03 09:52:21.45	154.56	14.73	-39.9	-42.5	15.5	0.00e+00	0	54	0	162529280	50	5101
2026-01-03 09:52:22.46	154.55	14.84	-39.8	-42.3	15.8	0.00e+00	0	54	0	164626432	50	4984
2026-01-03 09:52:23.47	154.53	14.95	-39.6	-42.0	16.0	0.00e+00	0	54	0	166723584	50	4837
2026-01-03 09:52:24.48	154.52	15.05	-39.5	-41.9	16.1	0.00e+00	0	54	0	168820736	50	4785
2026-01-03 09:52:25.49	154.50	15.16	-39.5	-41.8	16.3	0.00e+00	0	54	0	170917888	50	4712
2026-01-03 09:52:26.50	154.48	15.27	-39.5	-41.8	16.2	0.00e+00	0	54	0	171966464	50	4755
2026-01-03 09:52:27.51	154.47	15.38	-39.3	-41.6	16.5	0.00e+00	0	54	0	174063616	50	4610
2026-01-03 09:52:28.52	154.45	15.49	-39.3	-41.4	16.6	0.00e+00	0	54	0	176160768	50	4543
2026-01-03 09:52:29.53	154.44	15.60	-39.3	-41.4	16.6	0.00e+00	0	54	0	178257920	50	4545
2026-01-03 09:52:30.54	154.42	15.71	-39.1	-41.3	16.8	0.00e+00	0	54	0	180355072	50	4469
2026-01-03 09:52:31.55	154.41	15.82	-39.1	-41.3	16.8	0.00e+00	0	54	0	181403648	50	4452
2026-01-03 09:52:32.56	154.39	15.94	-39.2	-41.4	16.7	0.00e+00	0	54	0	183500800	50	4522
2026-01-03 09:52:33.57	154.37	16.05	-39.2	-41.5	16.6	0.00e+00	0	54	0	185597952	50	4550
2026-01-03 09:52:34.58	154.36	16.16	-39.4	-41.7	16.4	0.00e+00	0	54	0	187695104	50	4690
2026-01-03 09:52:35.59	154.34	16.28	-39.4	-41.7	16.4	0.00e+00	0	54	0	189792256	50	4696
2026-01-03 09:52:36.60	154.32	16.39	-39.4	-41.7	16.4	0.00e+00	0	54	0	191889408	50	4662
2026-01-03 09:52:37.61	154.31	16.51	-39.4	-41.6	16.5	0.00e+00	0	54	0	192937984	50	4651
2026-01-03 09:52:38.62	154.29	16.62	-39.4	-41.6	16.5	0.00e+00	0	54	0	195035136	50	4629
2026-01-03 09:52:39.63	154.27	16.74	-39.3	-41.5	16.6	0.00e+00	0	54	0	197132288	50	4581
2026-01-03 09:52:40.64	154.25	16.85	-39.4	-41.6	16.5	0.00e+00	0	54	0	199229440	50	4619
2026-01-03 09:52:41.65	154.24	16.97	-39.1	-41.2	16.9	0.00e+00	0	54	0	201326592	50	4419
2026-01-03 09:52:42.66	154.22	17.09	-39.1	-41.2	16.9	0.00e+00	0	54	0	202375168	49	4678
2026-01-03 09:52:43.67	154.20	17.21	-38.9	-40.9	17.2	0.00e+00	0	55	0	204472320	49	4533
2026-01-03 09:52:44.68	154.18	17.32	-38.8	-40.8	17.3	0.00e+00	0	54	0	206569472	49	4473
2026-01-03 09:52:45.69	154.16	17.44	-38.7	-40.7	17.4	0.00e+00	0	55	0	208666624	49	4414
2026-01-03 09:52:46.70	154.15	17.56	-38.8	-40.8	17.3	0.00e+00	0	54	0	210763776	49	4473
2026-01-03 09:52:47.71	154.13	17.68	-38.8	-40.8	17.4	0.00e+00	0	54	0	211812352	49	4452
2026-01-03 09:52:48.72	154.11	17.80	-38.9	-40.9	17.2	0.00e+00	0	54	0	213909504	49	4514
2026-01-03 09:52:49.73	154.09	17.93	-38.9	-41.0	17.2	0.00e+00	0	55	0	216006656	49	4563
2026-01-03 09:52:50.74	154.07	18.05	-39.1	-41.2	16.9	0.00e+00	0	55	0	218103808	49	4689
2026-01-03 09:52:51.75	154.05	18.17	-39.0	-41.1	17.0	0.00e+00	0	54	0	220200960	49	4630
2026-01-03 09:52:52.76	154.03	18.29	-39.1	-41.2	17.0	0.00e+00	0	54	0	221249536	49	4675
2026-01-03 09:52:53.77	154.01	18.42	-39.1	-41.3	16.9	0.00e+00	0	54	0	223346688	49	4717
2026-01-03 09:52:54.77	153.99	18.54	-39.1	-41.2	17.0	0.00e+00	0	55	0	225443840	49	4659
2026-01-03 09:52:55.78	153.97	18.67	-39.0	-41.1	17.1	0.00e+00	0	55	0	227540992	49	4630
2026-01-03 09:52:56.79	153.95	18.79	-38.9	-41.0	17.2	0.00e+00	0	54	0	229638144	49	4562
2026-01-03 09:52:57.80	153.93	18.92	-38.9	-41.0	17.2	0.00e+00	0	54	0	230686720	49	4553
2026-01-03 09:52:58.81	153.91	19.05	-38.9	-40.9	17.3	0.00e+00	0	55	0	232783872	49	4515
2026-01-03 09:52:59.82	153.89	19.17	-38.7	-40.7	17.5	0.00e+00	0	54	0	234881024	49	4406
2026-01-03 09:53:00.83	153.87	19.30	-38.6	-40.5	17.7	0.00e+00	0	55	0	236978176	49	4303
2026-01-03 09:53:01.84	153.85	19.43	-38.6	-40.6	17.6	0.00e+00	0	55	0	239075328	49	4348
2026-01-03 09:53:02.85	153.83	19.56	-38.7	-40.6	17.6	0.00e+00	0	54	0	240123904	49	4366
2026-01-03 09:53:03.86	153.80	19.69	-38.8	-40.9	17.3	0.00e+00	0	55	0	242221056	49	4499
2026-01-03 09:53:04.87	153.78	19.82	-38.8	-40.9	17.3	0.00e+00	0	55	0	244318208	49	4496
2026-01-03 09:53:05.88	153.76	19.96	-38.9	-40.9	17.3	0.00e+00	0	55	0	246415360	49	4522
2026-01-03 09:53:06.89	153.74	20.09	-39.1	-41.2	17.0	0.00e+00	0	55	0	248512512	49	4682
2026-01-03 09:53:07.90	153.72	20.22	-39.1	-41.2	17.0	0.00e+00	0	55	0	249561088	49	4694
2026-01-03 09:53:08.91	153.69	20.36	-39.1	-41.2	17.0	0.00e+00	0	55	0	251658240	49	4667
2026-01-03 09:53:09.92	153.67	20.49	-39.2	-41.4	16.9	0.00e+00	0	55	0	253755392	49	4774
2026-01-03 09:53:10.93	153.65	20.63	-39.2	-41.4	16.9	0.00e+00	0	55	0	255852544	49	4774
2026-01-03 09:53:11.94	153.62	20.76	-39.2	-41.4	16.9	0.00e+00	0	54	0	257949696	49	4767
2026-01-03 09:53:12.95	153.60	20.90	-39.1	-41.2	17.1	0.00e+00	0	55	0	260046848	49	4670
2026-01-03 09:53:13.96	153.58	21.04	-38.9	-40.9	17.3	0.00e+00	0	55	0	261095424	49	4538
2026-01-03 09:53:14.97	153.55	21.18	-38.7	-40.7	17.5	0.00e+00	0	55	0	263192576	49	4427
2026-01-03 09:53:15.98	153.53	21.31	-38.7	-40.7	17.5	0.00e+00	0	55	0	265289728	49	4397
2026-01-03 09:53:16.99	153.50	21.45	-38.8	-40.7	17.5	0.00e+00	0	55	0	267386880	49	4437
2026-01-03 09:53:18.00	153.48	21.60	-38.7	-40.7	17.6	0.00e+00	0	55	0	269484032	49	4394
2026-01-03 09:53:19.01	153.45	21.74	-38.7	-40.6	17.6	0.00e+00	0	55	0	270532608	49	4382
2026-01-03 09:53:20.02	153.43	21.88	-38.9	-41.0	17.3	0.00e+00	0	55	0	272629760	49	4557
2026-01-03 09:53:21.03	153.40	22.02	-38.9	-40.9	17.4	0.00e+00	0	55	0	274726912	49	4512
2026-01-03 09:53:22.04	153.38	22.17	-38.9	-40.9	17.3	0.00e+00	0	55	0	276824064	49	4542
2026-01-03 09:53:23.05	153.35	22.31	-38.8	-40.8	17.4	0.00e+00	0	55	0	278921216	49	4489
2026-01-03 09:53:24.06	153.32	22.46	-38.9	-40.9	17.4	0.00e+00	0	55	0	279969792	49	4528
2026-01-03 09:53:25.07	153.30	22.60	-38.9	-40.9	17.3	0.00e+00	0	55	0	282066944	49	4532
2026-01-03 09:53:26.08	153.27	22.75	-38.8	-40.8	17.4	0.00e+00	0	55	0	284164096	49	4450
2026-01-03 09:53:27.09	153.24	22.90	-38.7	-40.6	17.7	0.00e+00	0	55	0	286261248	49	4350
2026-01-03 09:53:28.10	153.22	23.05	-38.8	-40.7	17.5	0.00e+00	0	55	0	288358400	49	4405
2026-01-03 09:53:29.11	153.19	23.20	-38.5	-40.4	17.9	0.00e+00	0	55	0	289406976	48	4506
2026-01-03 09:53:30.12	153.16	23.35	-38.4	-40.2	18.0	0.00e+00	0	55	0	291504128	48	4410
2026-01-03 09:53:31.13	153.13	23.50	-38.2	-40.0	18.2	0.00e+00	0	55	0	293601280	48	4325
2026-01-03 09:53:32.14	153.10	23.65	-38.3	-40.0	18.2	0.00e+00	0	55	0	295698432	48	4337
2026-01-03 09:53:33.15	153.07	23.80	-38.4	-40.2	18.0	0.00e+00	0	55	0	297795584	48	4430
2026-01-03 09:53:34.16	153.04	23.96	-38.3	-40.1	18.1	0.00e+00	0	55	0	298844160	48	4373
2026-01-03 09:53:35.17	153.01	24.11	-38.4	-40.2	18.0	0.00e+00	0	55	0	300941312	48	4436
2026-01-03 09:53:36.17	152.98	24.27	-38.6	-40.5	17.7	0.00e+00	0	55	0	303038464	48	4598
2026-01-03 09:53:37.19	152.95	24.43	-38.7	-40.6	17.7	0.00e+00	0	55	0	305135616	48	4616
2026-01-03 09:53:38.20	152.92	24.58	-38.8	-40.8	17.5	0.00e+00	0	55	0	307232768	48	4741
2026-01-03 09:53:39.20	152.89	24.74	-38.9	-40.9	17.4	0.00e+00	0	55	0	308281344	48	4796
2026-01-03 09:53:40.22	152.86	24.90	-39.0	-41.0	17.3	0.00e+00	0	55	0	310378496	48	4840
2026-01-03 09:53:41.23	152.83	25.06	-39.2	-41.4	16.9	0.00e+00	0	55	0	312475648	49	4765
2026-01-03 09:53:42.24	152.80	25.22	-39.0	-41.0	17.3	0.00e+00	0	55	0	314572800	49	4581
2026-01-03 09:53:43.24	152.77	25.39	-39.1	-41.1	17.2	0.00e+00	0	55	0	316669952	49	4633
2026-01-03 09:53:44.25	152.73	25.55	-39.2	-41.2	17.1	0.00e+00	0	55	0	317718528	49	4699
2026-01-03 09:53:45.26	152.70	25.71	-38.9	-40.9	17.4	0.00e+00	0	55	0	319815680	49	4523
2026-01-03 09:53:46.27	152.67	25.88	-39.0	-40.9	17.4	0.00e+00	0	55	0	321912832	49	4530
2026-01-03 09:53:47.28	152.63	26.05	-38.8	-40.7	17.6	0.00e+00	0	55	0	324009984	49	4407
2026-01-03 09:53:48.29	152.60	26.21	-38.6	-40.5	17.8	0.00e+00	0	55	0	326107136	49	4303
2026-01-03 09:53:49.30	152.56	26.38	-38.9	-40.9	17.4	0.00e+00	0	55	0	328204288	49	4513
2026-01-03 09:53:50.31	152.53	26.55	-38.8	-40.8	17.6	0.00e+00	0	55	0	329252864	49	4446
2026-01-03 09:53:51.32	152.49	26.72	-38.9	-40.8	17.5	0.00e+00	0	55	0	331350016	49	4473
2026-01-03 09:53:52.33	152.46	26.90	-39.1	-41.1	17.2	0.00e+00	0	55	0	333447168	49	4612
2026-01-03 09:53:53.34	152.42	27.07	-39.2	-41.3	17.0	0.00e+00	0	55	0	335544320	49	4741
2026-01-03 09:53:54.35	152.38	27.24	-39.4	-41.6	16.7	0.00e+00	0	55	0	337641472	49	4900
2026-01-03 09:53:55.36	152.35	27.42	-39.3	-41.4	16.9	0.00e+00	0	55	0	338690048	49	4772
2026-01-03 09:53:56.37	152.31	27.59	-39.4	-41.6	16.8	0.00e+00	0	55	0	340787200	49	4889
2026-01-03 09:53:57.38	152.27	27.77	-39.6	-41.8	16.6	0.00e+00	0	55	0	342884352	49	5012
2026-01-03 09:53:58.39	152.23	27.95	-39.5	-41.7	16.7	0.00e+00	0	55	0	344981504	49	4959
2026-01-03 09:53:59.40	152.19	28.13	-39.2	-41.3	17.0	0.00e+00	0	55	0	347078656	49	4739
2026-01-03 09:54:00.41	152.15	28.31	-39.1	-41.1	17.2	0.00e+00	0	55	0	348127232	49	4627
2026-01-03 09:54:01.42	152.11	28.49	-39.2	-41.3	17.0	0.00e+00	0	55	0	350224384	49	4722
2026-01-03 09:54:02.43	152.07	28.68	-39.2	-41.2	17.1	0.00e+00	0	55	0	352321536	49	4680
2026-01-03 09:54:03.44	152.03	28.86	-39.1	-41.1	17.2	0.00e+00	0	55	0	354418688	49	4633
2026-01-03 09:54:04.45	151.99	29.05	-39.2	-41.2	17.1	0.00e+00	0	55	0	356515840	49	4704
2026-01-03 09:54:05.46	151.95	29.23	-39.4	-41.5	16.9	0.00e+00	0	55	0	357564416	49	4852
2026-01-03 09:54:06.47	151.91	29.42	-39.7	-42.0	16.4	0.00e+00	0	55	0	359661568	49	5109
2026-01-03 09:54:07.48	151.86	29.61	-40.1	-42.4	16.0	0.00e+00	0	55	0	361758720	50	5099
2026-01-03 09:54:08.49	151.82	29.80	-40.1	-42.6	15.8	0.00e+00	0	55	0	363855872	50	5167
2026-01-03 09:54:09.50	151.78	29.99	-40.4	-42.9	15.4	0.00e+00	0	55	0	365953024	51	5097
2026-01-03 09:54:10.51	151.73	30.19	-40.3	-42.9	15.6	0.00e+00	0	55	0	367001600	51	5044
2026-01-03 09:54:11.52	151.69	30.38	-40.5	-43.2	15.3	0.00e+00	0	56	0	369098752	51	5229
2026-01-03 09:54:12.53	151.64	30.58	-40.4	-43.0	15.5	0.00e+00	0	55	0	371195904	51	5114
2026-01-03 09:54:13.54	151.59	30.77	-40.3	-42.8	15.7	0.00e+00	0	56	0	373293056	51	4984
2026-01-03 09:54:14.55	151.55	30.97	-40.2	-42.7	15.7	0.00e+00	0	55	0	375390208	51	4961
2026-01-03 09:54:15.56	151.50	31.17	-40.1	-42.5	15.9	0.00e+00	0	55	0	376438784	51	4834
2026-01-03 09:54:16.57	151.45	31.37	-40.0	-42.4	16.0	0.00e+00	0	55	0	378535936	51	4763
2026-01-03 09:54:17.58	151.40	31.57	-40.3	-42.8	15.6	0.00e+00	0	55	0	380633088	51	4993
2026-01-03 09:54:18.59	151.35	31.78	-40.3	-42.8	15.6	0.00e+00	0	56	0	382730240	51	4988
2026-01-03 09:54:19.60	151.30	31.98	-40.7	-43.4	14.9	0.00e+00	0	55	0	384827392	52	5046
2026-01-03 09:54:20.61	151.25	32.19	-40.9	-43.8	14.5	7.00e-07	0	56	0	385875968	52	5321
2026-01-03 09:54:21.62	151.20	32.40	-41.3	-44.3	14.0	7.00e-07	0	56	0	387973120	53	5319
2026-01-03 09:54:22.63	151.15	32.61	-41.3	-44.4	14.0	2.20e-06	0	56	0	390070272	53	5349
2026-01-03 09:54:23.63	151.09	32.82	-41.0	-44.0	14.4	3.80e-06	0	55	0	392167424	53	5102
2026-01-03 09:54:24.64	151.04	33.03	-41.2	-44.3	14.1	2.20e-06	0	56	0	394264576	53	5285
2026-01-03 09:54:25.65	150.99	33.24	-41.2	-44.2	14.1	7.00e-07	0	55	0	396361728	53	5235
2026-01-03 09:54:26.66	150.93	33.46	-41.1	-44.0	14.3	1.50e-06	0	55	0	397410304	53	5123
2026-01-03 09:54:27.67	150.88	33.67	-41.4	-44.5	13.8	1.44e-05	0	56	0	399507456	53	5447
2026-01-03 09:54:28.68	150.82	33.89	-41.7	-45.2	13.1	3.66e-05	0	55	0	401604608	54	5547
2026-01-03 09:54:29.69	150.76	34.11	-42.0	-45.8	12.6	1.06e-05	0	55	0	403701760	54	5934
2026-01-03 09:54:30.70	150.70	34.33	-42.0	-45.6	12.7	8.62e-05	0	56	0	405798912	54	5850
2026-01-03 09:54:31.71	150.64	34.56	-41.9	-45.5	12.9	6.02e-05	0	56	0	406847488	55	5428
2026-01-03 09:54:32.72	150.58	34.78	-41.8	-45.2	13.2	7.17e-05	0	56	0	408944640	55	5254
2026-01-03 09:54:33.73	150.52	35.01	-41.4	-44.7	13.6	2.74e-05	0	56	0	411041792	54	5220
2026-01-03 09:54:34.74	150.46	35.23	-40.9	-43.7	14.7	2.20e-06	0	55	0	413138944	53	4943
2026-01-03 09:54:35.75	150.40	35.46	-40.7	-43.5	14.8	7.00e-07	0	56	0	415236096	53	4836
2026-01-03 09:54:36.76	150.33	35.69	-40.8	-43.5	14.8	7.00e-07	0	55	0	416284672	53	4868
2026-01-03 09:54:37.77	150.27	35.93	-40.6	-43.3	15.0	0.00e+00	0	56	0	418381824	52	5029
2026-01-03 09:54:38.78	150.20	36.16	-40.8	-43.6	14.8	0.00e+00	0	56	0	420478976	52	5176
2026-01-03 09:54:39.79	150.14	36.40	-41.0	-44.0	14.4	7.00e-07	0	56	0	422576128	52	5405
2026-01-03 09:54:40.80	150.07	36.63	-41.2	-44.3	14.0	0.00e+00	0	56	0	424673280	53	5340
2026-01-03 09:54:41.81	150.00	36.87	-41.2	-44.2	14.2	1.50e-06	0	56	0	425721856	53	5268
2026-01-03 09:54:42.82	149.93	37.11	-40.8	-43.6	14.8	7.00e-07	0	56	0	427819008	53	4893
2026-01-03 09:54:43.83	149.86	37.36	-40.7	-43.4	14.9	0.00e+00	0	56	0	429916160	53	4800
2026-01-03 09:54:44.84	149.79	37.60	-40.3	-42.9	15.5	0.00e+00	0	56	0	432013312	52	4766
2026-01-03 09:54:45.85	149.71	37.85	-40.2	-42.6	15.8	0.00e+00	0	56	0	434110464	51	4897
2026-01-03 09:54:46.86	149.64	38.09	-39.7	-41.8	16.5	0.00e+00	0	56	0	435159040	51	4491
2026-01-03 09:54:47.87	149.56	38.34	-39.8	-42.0	16.3	0.00e+00	0	56	0	437256192	51	4575
2026-01-03 09:54:48.88	149.49	38.59	-39.8	-42.0	16.4	0.00e+00	0	56	0	439353344	51	4581
2026-01-03 09:54:49.89	149.41	38.85	-39.9	-42.2	16.2	0.00e+00	0	56	0	441450496	51	4670
2026-01-03 09:54:50.90	149.33	39.10	-40.4	-43.0	15.4	0.00e+00	0	56	0	443547648	51	5115
2026-01-03 09:54:51.91	149.25	39.36	-40.7	-43.5	14.8	7.00e-07	0	56	0	444596224	52	5140
2026-01-03 09:54:52.92	149.17	39.62	-40.9	-43.8	14.6	7.00e-07	0	56	0	446693376	52	5310
2026-01-03 09:54:53.93	149.08	39.88	-41.3	-44.4	13.9	5.30e-06	0	56	0	448790528	54	5079
2026-01-03 09:54:54.94	149.00	40.14	-41.5	-44.8	13.4	1.29e-05	0	56	0	450887680	54	5333
2026-01-03 09:54:55.95	148.91	40.40	-41.8	-45.4	13.0	6.10e-06	0	56	0	452984832	54	5670
2026-01-03 09:54:56.96	148.83	40.67	-41.2	-44.2	14.1	4.50e-06	0	56	0	454033408	54	4971
2026-01-03 09:54:57.97	148.74	40.94	-40.9	-43.8	14.5	1.50e-06	0	56	0	456130560	53	5001
2026-01-03 09:54:58.98	148.65	41.21	-40.9	-43.7	14.6	7.00e-07	0	56	0	458227712	53	4970
2026-01-03 09:54:59.99	148.56	41.48	-41.3	-44.3	14.0	0.00e+00	0	56	0	460324864	53	5325
2026-01-03 09:55:01.00	148.46	41.75	-40.9	-43.8	14.6	7.00e-07	0	56	0	462422016	53	5010
2026-01-03 09:55:02.01	148.37	42.03	-41.0	-43.9	14.4	1.50e-06	0	56	0	464519168	53	5092
2026-01-03 09:55:03.02	148.27	42.31	-41.5	-44.8	13.5	3.00e-06	0	56	0	465567744	53	5611
2026-01-03 09:55:04.03	148.17	42.59	-41.4	-44.5	13.8	2.82e-05	0	56	0	467664896	54	5155
2026-01-03 09:55:05.04	148.07	42.87	-41.6	-44.9	13.4	2.36e-05	0	56	0	469762048	54	5378
2026-01-03 09:55:06.04	147.97	43.15	-41.9	-45.5	12.8	1.67e-05	0	56	0	471859200	54	5748
2026-01-03 09:55:07.05	147.86	43.44	-41.7	-45.1	13.2	1.22e-05	0	56	0	473956352	54	5489
2026-01-03 09:55:08.06	147.76	43.72	-41.3	-44.4	13.8	5.30e-06	0	56	0	475004928	54	5066
2026-01-03 09:55:09.07	147.65	44.01	-41.5	-44.7	13.6	7.60e-06	0	56	0	477102080	54	5234
2026-01-03 09:55:10.08	147.54	44.31	-41.5	-44.8	13.6	6.10e-06	0	56	0	479199232	54	5290
2026-01-03 09:55:11.09	147.43	44.60	-41.5	-44.8	13.6	8.30e-06	0	56	0	481296384	54	5283
2026-01-03 09:55:12.10	147.31	44.90	-41.0	-44.0	14.4	0.00e+00	0	56	0	483393536	53	5113
2026-01-03 09:55:13.11	147.20	45.19	-40.4	-42.9	15.4	0.00e+00	0	56	0	484442112	52	4795
2026-01-03 09:55:14.12	147.08	45.49	-39.8	-42.0	16.3	0.00e+00	0	56	0	486539264	51	4564
2026-01-03 09:55:15.13	146.95	45.80	-39.4	-41.4	16.9	0.00e+00	0	56	0	488636416	50	4542
2026-01-03 09:55:16.14	146.83	46.10	-39.6	-41.7	16.7	0.00e+00	0	56	0	490733568	50	4689
2026-01-03 09:55:17.15	146.70	46.41	-40.1	-42.5	16.0	0.00e+00	0	56	0	492830720	50	5102
2026-01-03 09:55:18.16	146.58	46.72	-40.7	-43.4	15.0	0.00e+00	0	56	0	493879296	52	5052
2026-01-03 09:55:19.17	146.44	47.03	-41.1	-44.0	14.3	0.00e+00	0	56	0	495976448	52	5455
2026-01-03 09:55:20.19	146.31	47.34	-41.3	-44.3	14.0	1.37e-05	0	56	0	498073600	53	5339
2026-01-03 09:55:21.20	146.17	47.66	-40.9	-43.7	14.6	7.00e-07	0	56	0	500170752	53	4930
2026-01-03 09:55:22.20	146.03	47.97	-40.7	-43.4	15.3	0.00e+00	0	56	0	502267904	52	5048
2026-01-03 09:55:23.21	145.89	48.29	-40.6	-43.2	15.1	0.00e+00	0	56	0	503316480	52	4958
2026-01-03 09:55:24.22	145.75	48.61	-40.4	-42.9	15.3	0.00e+00	0	56	0	505413632	52	4795
2026-01-03 09:55:25.23	145.60	48.94	-40.1	-42.5	15.8	0.00e+00	0	56	0	507510784	52	4576
2026-01-03 09:55:26.24	145.44	49.26	-40.0	-42.3	16.0	0.00e+00	0	56	0	509607936	51	4718
2026-01-03 09:55:27.25	145.29	49.59	-39.8	-42.1	16.3	0.00e+00	0	56	0	511705088	51	4614
2026-01-03 09:55:28.26	145.13	49.92	-39.4	-41.4	17.0	0.00e+00	0	56	0	512753664	50	4515
2026-01-03 09:55:29.27	144.97	50.25	-38.8	-40.7	17.6	0.00e+00	0	56	0	514850816	49	4400
2026-01-03 09:55:30.28	144.80	50.59	-38.6	-40.4	17.9	0.00e+00	0	56	0	516947968	48	4514
2026-01-03 09:55:31.29	144.63	50.93	-38.4	-40.2	18.1	0.00e+00	0	56	0	519045120	48	4410
2026-01-03 09:55:32.30	144.46	51.26	-38.5	-40.3	18.0	0.00e+00	0	56	0	521142272	48	4472
2026-01-03 09:55:33.31	144.28	51.61	-38.8	-40.7	17.6	0.00e+00	0	56	0	522190848	48	4676
2026-01-03 09:55:34.32	144.10	51.95	-38.9	-40.9	17.4	0.00e+00	0	56	0	524288000	48	4786
2026-01-03 09:55:35.33	143.91	52.29	-39.1	-41.1	17.2	0.00e+00	0	56	0	526385152	48	4894
2026-01-03 09:55:36.34	143.72	52.64	-39.7	-42.0	16.4	0.00e+00	0	56	0	528482304	50	4827
2026-01-03 09:55:37.35	143.52	52.99	-40.0	-42.5	16.0	0.00e+00	0	56	0	530579456	50	5114
2026-01-03 09:55:38.36	143.32	53.34	-39.9	-42.2	16.1	0.00e+00	0	56	0	532676608	51	4681
2026-01-03 09:55:39.37	143.12	53.70	-39.9	-42.2	16.0	0.00e+00	0	56	0	533725184	51	4671
2026-01-03 09:55:40.38	142.91	54.05	-39.5	-41.6	16.7	0.00e+00	0	56	0	535822336	50	4603
2026-01-03 09:55:41.39	142.69	54.41	-39.1	-41.0	17.3	0.00e+00	0	56	0	537919488	49	4581
2026-01-03 09:55:42.40	142.47	54.77	-39.1	-41.0	17.3	0.00e+00	0	56	0	540016640	49	4590
2026-01-03 09:55:43.41	142.24	55.13	-39.5	-41.7	16.6	0.00e+00	0	56	0	542113792	49	4968
2026-01-03 09:55:44.42	142.01	55.50	-39.6	-41.8	16.5	0.00e+00	0	56	0	543162368	50	4741
2026-01-03 09:55:45.43	141.77	55.86	-39.0	-41.0	17.3	0.00e+00	0	56	0	545259520	50	4305
2026-01-03 09:55:46.44	141.52	56.23	-38.6	-40.4	17.9	0.00e+00	0	56	0	547356672	48	4520
2026-01-03 09:55:47.44	141.27	56.60	-38.6	-40.5	17.8	0.00e+00	0	56	0	549453824	48	4557
2026-01-03 09:55:48.45	141.01	56.97	-38.9	-40.9	17.4	0.00e+00	0	56	0	551550976	48	4769
2026-01-03 09:55:49.46	140.75	57.34	-39.6	-41.7	16.6	0.00e+00	0	56	0	552599552	49	4981
2026-01-03 09:55:50.47	140.47	57.72	-39.4	-41.4	16.9	0.00e+00	0	56	0	554696704	49	4814
2026-01-03 09:55:51.48	140.19	58.09	-39.2	-41.2	17.0	0.00e+00	0	56	0	556793856	49	4663
2026-01-03 09:55:52.49	139.90	58.47	-39.5	-41.6	16.6	0.00e+00	0	56	0	558891008	49	4904
2026-01-03 09:55:53.50	139.60	58.85	-40.0	-42.3	16.0	0.00e+00	0	56	0	560988160	50	5017
2026-01-03 09:55:54.51	139.29	59.24	-40.4	-42.9	15.6	0.00e+00	0	56	0	562036736	51	5064
2026-01-03 09:55:55.52	138.97	59.62	-39.7	-42.0	16.4	0.00e+00	0	56	0	564133888	51	4548
2026-01-03 09:55:56.53	138.65	60.01	-39.2	-41.2	17.1	0.00e+00	0	56	0	566231040	50	4420
2026-01-03 09:55:57.54	138.31	60.39	-39.1	-41.1	17.2	0.00e+00	0	56	0	568328192	49	4651
2026-01-03 09:55:58.55	137.96	60.78	-39.0	-41.0	17.3	0.00e+00	0	56	0	570425344	49	4585
2026-01-03 09:55:59.56	137.61	61.17	-38.7	-40.6	17.7	0.00e+00	0	56	0	571473920	49	4351
2026-01-03 09:56:00.57	137.24	61.56	-38.5	-40.4	17.9	0.00e+00	0	56	0	573571072	48	4519
2026-01-03 09:56:01.58	136.86	61.95	-38.5	-40.3	17.9	0.00e+00	0	56	0	575668224	48	4482
2026-01-03 09:56:02.59	136.46	62.35	-38.7	-40.6	17.7	0.00e+00	0	56	0	577765376	48	4618
2026-01-03 09:56:03.60	136.05	62.74	-38.9	-40.8	17.5	0.00e+00	0	56	0	579862528	48	4739
2026-01-03 09:56:04.61	135.63	63.14	-38.4	-40.2	18.0	0.00e+00	0	56	0	580911104	48	4438
2026-01-03 09:56:05.62	135.20	63.53	-38.7	-40.6	17.7	0.00e+00	0	56	0	583008256	48	4619
2026-01-03 09:56:06.63	134.75	63.93	-38.7	-40.6	17.7	0.00e+00	0	56	0	585105408	48	4611
2026-01-03 09:56:07.64	134.28	64.33	-38.9	-40.9	17.4	0.00e+00	0	56	0	587202560	48	4782
2026-01-03 09:56:08.65	133.80	64.73	-38.0	-39.8	18.5	0.00e+00	0	56	0	589299712	48	4197
2026-01-03 09:56:09.66	133.30	65.12	-38.0	-39.7	18.5	0.00e+00	0	56	0	590348288	48	4185
2026-01-03 09:56:10.67	132.78	65.52	-38.6	-40.5	17.7	0.00e+00	0	56	0	592445440	47	4815
2026-01-03 09:56:11.68	132.25	65.92	-38.9	-40.9	17.3	0.00e+00	0	56	0	594542592	48	4800
2026-01-03 09:56:12.69	131.69	66.32	-39.3	-41.4	16.9	0.00e+00	0	56	0	596639744	49	4784
2026-01-03 09:56:13.70	131.11	66.72	-39.7	-41.9	16.4	0.00e+00	0	56	0	598736896	50	4806
2026-01-03 09:56:14.71	130.51	67.12	-40.0	-42.4	15.9	0.00e+00	0	56	0	600834048	50	5053
2026-01-03 09:56:15.72	129.89	67.52	-40.0	-42.4	15.8	0.00e+00	0	56	0	601882624	51	4772
2026-01-03 09:56:16.73	129.24	67.91	-40.2	-42.7	15.6	0.00e+00	0	56	0	603979776	51	4967
2026-01-03 09:56:17.74	128.56	68.31	-39.9	-42.2	16.0	0.00e+00	0	56	0	606076928	51	4698
2026-01-03 09:56:18.75	127.86	68.71	-40.1	-42.5	15.7	0.00e+00	0	56	0	608174080	51	4841
2026-01-03 09:56:19.76	127.13	69.10	-40.5	-43.1	15.2	0.00e+00	0	56	0	610271232	51	5180
2026-01-03 09:56:20.76	126.38	69.49	-40.8	-43.6	14.7	0.00e+00	0	56	0	611319808	52	5197
2026-01-03 09:56:21.77	125.59	69.88	-40.7	-43.4	14.7	0.00e+00	0	56	0	613416960	52	5081
2026-01-03 09:56:22.78	124.76	70.27	-39.7	-41.9	16.2	0.00e+00	0	56	0	615514112	51	4543
2026-01-03 09:56:23.79	123.90	70.65	-39.4	-41.4	16.8	0.00e+00	0	56	0	617611264	50	4537
2026-01-03 09:56:24.80	123.00	71.03	-39.1	-41.2	17.0	0.00e+00	0	56	0	619708416	50	4401
2026-01-03 09:56:25.81	122.06	71.41	-39.1	-41.0	17.1	0.00e+00	0	56	0	620756992	50	4335
2026-01-03 09:56:26.82	121.08	71.79	-38.9	-40.8	17.3	0.00e+00	0	56	0	622854144	49	4474
2026-01-03 09:56:27.83	120.06	72.16	-39.8	-42.0	16.1	0.00e+00	0	56	0	624951296	50	4851
2026-01-03 09:56:28.84	118.99	72.53	-40.7	-43.5	14.5	0.00e+00	0	56	0	627048448	52	5110
2026-01-03 09:56:29.85	117.87	72.89	-41.2	-44.2	13.9	2.20e-06	0	56	0	629145600	53	5262
2026-01-03 09:56:30.86	116.70	73.25	-41.2	-44.3	13.6	5.30e-06	0	56	0	630194176	53	5302
2026-01-03 09:56:31.87	115.48	73.60	-39.7	-41.9	16.1	0.00e+00	0	56	0	632291328	51	4514
2026-01-03 09:56:32.88	114.21	73.94	-38.4	-40.2	17.8	0.00e+00	0	56	0	634388480	48	4416
2026-01-03 09:56:33.89	112.87	74.28	-38.3	-40.2	18.0	0.00e+00	0	56	0	636485632	48	4393
2026-01-03 09:56:34.90	111.48	74.61	-39.6	-41.8	16.3	0.00e+00	0	56	0	638582784	50	4739
2026-01-03 09:56:35.91	110.02	74.93	-40.6	-43.4	14.8	7.00e-07	0	56	0	639631360	51	5351
2026-01-03 09:56:36.92	108.49	75.25	-40.4	-42.9	15.1	0.00e+00	0	56	0	641728512	51	5096
2026-01-03 09:56:37.93	106.90	75.55	-40.6	-43.3	14.8	7.00e-07	0	56	0	643825664	52	5009
2026-01-03 09:56:38.94	105.24	75.84	-40.5	-43.2	14.9	7.00e-07	0	56	0	645922816	52	4940
2026-01-03 09:56:39.95	103.51	76.12	-40.3	-42.9	15.3	0.00e+00	0	56	0	648019968	52	4766
2026-01-03 09:56:40.96	101.71	76.39	-41.0	-44.1	13.9	0.00e+00	0	56	0	649068544	52	5486
2026-01-03 09:56:41.97	99.83	76.65	-40.8	-43.6	14.4	0.00e+00	0	56	0	651165696	52	5212
2026-01-03 09:56:42.98	97.88	76.89	-39.9	-42.3	16.0	0.00e+00	0	56	0	653262848	51	4712
2026-01-03 09:56:43.99	95.86	77.11	-40.6	-43.3	14.9	0.00e+00	0	56	0	655360000	51	5298
2026-01-03 09:56:45.00	93.76	77.32	-40.8	-43.7	14.4	0.00e+00	0	56	0	657457152	52	5236
2026-01-03 09:56:46.01	91.60	77.52	-40.3	-42.9	15.2	0.00e+00	0	56	0	658505728	52	4795
2026-01-03 09:56:47.01	89.39	77.69	-40.6	-43.3	14.8	0.00e+00	0	56	0	660602880	52	5038
2026-01-03 09:56:48.02	87.09	77.85	-41.4	-44.7	13.3	1.06e-05	0	56	0	662700032	53	5551
2026-01-03 09:56:49.03	84.74	77.99	-40.8	-43.6	14.4	2.20e-06	0	56	0	664797184	53	4912
2026-01-03 09:56:50.04	82.34	78.10	-40.4	-42.9	15.1	0.00e+00	0	56	0	666894336	52	4785
2026-01-03 09:56:51.05	79.89	78.20	-39.7	-41.9	16.1	0.00e+00	0	56	0	668991488	51	4544
2026-01-03 09:56:52.06	77.41	78.28	-39.9	-42.2	16.0	0.00e+00	0	56	0	670040064	51	4654
2026-01-03 09:56:53.07	74.89	78.33	-40.6	-43.3	14.9	0.00e+00	0	56	0	672137216	52	5009
2026-01-03 09:56:54.08	72.36	78.36	-40.5	-43.0	15.0	0.00e+00	0	56	0	674234368	52	4869
2026-01-03 09:56:55.09	69.82	78.37	-40.9	-43.9	14.3	0.00e+00	0	56	0	676331520	52	5368
2026-01-03 09:56:56.10	67.28	78.36	-42.1	-46.1	11.9	3.89e-05	0	56	0	678428672	54	6138
2026-01-03 09:56:57.11	64.75	78.32	-40.9	-43.7	14.3	2.28e-04	0	56	0	679477248	53	4982
2026-01-03 09:56:58.12	62.24	78.26	-39.8	-42.0	16.1	0.00e+00	0	56	0	681574400	51	4596
2026-01-03 09:56:59.13	59.76	78.19	-40.4	-42.9	15.3	0.00e+00	0	56	0	683671552	51	5088
2026-01-03 09:57:00.14	57.32	78.08	-40.4	-43.0	15.1	0.00e+00	0	56	0	685768704	52	4841
2026-01-03 09:57:01.15	54.93	77.96	-40.1	-42.6	15.5	0.00e+00	0	56	0	687865856	52	4641
2026-01-03 09:57:02.16	52.59	77.82	-41.5	-44.9	13.3	2.20e-06	0	56	0	688914432	53	5663
2026-01-03 09:57:03.17	50.31	77.66	-41.5	-44.7	13.2	3.12e-05	0	56	0	691011584	53	5590
2026-01-03 09:57:04.18	48.09	77.48	-40.9	-43.7	14.4	3.00e-06	0	56	0	693108736	53	4972
2026-01-03 09:57:05.19	45.94	77.29	-40.7	-43.4	14.7	0.00e+00	0	56	0	695205888	53	4803
2026-01-03 09:57:06.20	43.86	77.07	-41.3	-44.4	13.7	7.00e-07	0	56	0	697303040	53	5393
2026-01-03 09:57:07.21	41.85	76.84	-42.7	-47.2	10.8	1.21e-03	0	56	0	698351616	55	6590
2026-01-03 09:57:08.22	39.92	76.60	-42.1	-46.0	12.1	1.58e-03	0	56	0	700448768	55	5728
2026-01-03 09:57:09.23	38.05	76.34	-40.9	-43.8	14.4	1.29e-05	0	56	0	702545920	53	4992
2026-01-03 09:57:10.24	36.27	76.07	-42.3	-46.2	11.8	2.44e-04	0	56	0	704643072	55	5912
2026-01-03 09:57:11.25	34.55	75.79	-41.9	-45.5	12.6	9.63e-04	0	56	0	706740224	55	5430
2026-01-03 09:57:12.26	32.90	75.49	-40.9	-43.7	14.4	1.29e-05	0	56	0	707788800	53	4953
2026-01-03 09:57:13.27	31.33	75.19	-42.1	-46.1	11.9	8.08e-05	0	56	0	709885952	54	6146
2026-01-03 09:57:14.28	29.82	74.88	-42.7	-47.0	11.0	5.84e-03	0	56	0	711983104	56	6121
2026-01-03 09:57:15.29	28.37	74.55	-40.7	-43.4	14.7	9.90e-06	0	56	0	714080256	53	4779
2026-01-03 09:57:16.30	26.99	74.22	-40.6	-43.2	14.8	0.00e+00	0	56	0	716177408	52	4982
2026-01-03 09:57:17.31	25.67	73.88	-40.3	-42.8	15.5	0.00e+00	0	56	0	717225984	51	4992
2026-01-03 09:57:18.32	24.40	73.54	-39.4	-41.4	16.9	0.00e+00	0	56	0	719323136	50	4520
2026-01-03 09:57:19.33	23.19	73.19	-40.6	-43.3	15.0	0.00e+00	0	56	0	721420288	51	5293
2026-01-03 09:57:20.34	22.04	72.83	-40.5	-43.2	14.9	0.00e+00	0	56	0	723517440	52	4927
2026-01-03 09:57:21.35	20.93	72.46	-39.9	-42.1	16.1	0.00e+00	0	56	0	725614592	51	4633
2026-01-03 09:57:22.36	19.87	72.10	-39.8	-42.0	16.2	0.00e+00	0	56	0	726663168	50	4840
2026-01-03 09:57:23.37	18.86	71.73	-40.6	-43.2	15.0	0.00e+00	0	57	0	728760320	51	5250
2026-01-03 09:57:24.38	17.89	71.35	-40.8	-43.7	14.4	0.00e+00	0	56	0	730857472	52	5233
2026-01-03 09:57:25.39	16.96	70.97	-41.2	-44.2	13.9	9.90e-06	0	56	0	732954624	53	5246
2026-01-03 09:57:26.40	16.06	70.59	-40.9	-43.7	14.4	3.80e-06	0	56	0	735051776	53	4936
2026-01-03 09:57:27.41	15.21	70.20	-39.6	-41.7	16.5	0.00e+00	0	56	0	737148928	51	4404
2026-01-03 09:57:28.42	14.39	69.81	-40.3	-42.8	15.5	0.00e+00	0	56	0	738197504	51	5024
2026-01-03 09:57:29.43	13.61	69.42	-40.7	-43.5	14.7	0.00e+00	0	57	0	740294656	52	5106
2026-01-03 09:57:30.44	12.85	69.03	-39.9	-42.1	16.0	0.00e+00	0	56	0	742391808	51	4640
2026-01-03 09:57:31.45	12.13	68.64	-39.2	-41.3	16.9	0.00e+00	0	56	0	744488960	50	4457
2026-01-03 09:57:32.46	11.43	68.25	-39.6	-41.8	16.5	0.00e+00	0	56	0	746586112	50	4744
2026-01-03 09:57:33.47	10.76	67.85	-40.5	-43.2	15.1	0.00e+00	0	56	0	747634688	51	5229
2026-01-03 09:57:34.47	10.13	67.46	-40.6	-43.3	14.9	0.00e+00	0	57	0	749731840	51	5305
2026-01-03 09:57:35.48	9.51	67.06	-39.4	-41.4	16.8	0.00e+00	0	56	0	751828992	50	4527
2026-01-03 09:57:36.49	8.91	66.66	-38.3	-40.1	18.1	0.00e+00	0	56	0	753926144	48	4346
2026-01-03 09:57:37.50	8.34	66.26	-37.9	-39.6	18.5	0.00e+00	0	56	0	756023296	47	4365
2026-01-03 09:57:38.51	7.79	65.87	-38.8	-40.8	17.5	0.00e+00	0	57	0	757071872	48	4712
2026-01-03 09:57:39.52	7.25	65.47	-39.4	-41.6	16.6	0.00e+00	0	56	0	759169024	49	4878
2026-01-03 09:57:40.53	6.74	65.07	-39.4	-41.5	16.7	0.00e+00	0	56	0	761266176	49	4825
2026-01-03 09:57:41.54	6.24	64.67	-39.6	-41.8	16.5	0.00e+00	0	56	0	763363328	50	4755
2026-01-03 09:57:42.55	5.77	64.28	-40.0	-42.3	15.9	0.00e+00	0	56	0	765460480	51	4725
2026-01-03 09:57:43.56	5.30	63.88	-39.4	-41.4	16.6	0.00e+00	0	56	0	766509056	50	4539
2026-01-03 09:57:44.57	4.86	63.48	-41.1	-44.0	14.1	0.00e+00	0	56	0	768606208	52	5436
2026-01-03 09:57:45.58	4.42	63.09	-42.2	-46.3	11.8	3.28e-05	0	57	0	770703360	55	5968
2026-01-03 09:57:46.59	4.01	62.69	-41.4	-44.7	13.4	1.21e-04	0	57	0	772800512	54	5257
2026-01-03 09:57:47.60	3.60	62.30	-42.1	-46.0	12.2	1.52e-05	0	57	0	774897664	54	6096
2026-01-03 09:57:48.61	3.21	61.91	-42.3	-46.4	11.7	8.42e-04	0	57	0	775946240	55	5993
2026-01-03 09:57:49.62	2.83	61.52	-40.6	-43.3	15.0	7.00e-07	0	57	0	778043392	53	4710
2026-01-03 09:57:50.63	2.47	61.13	-39.8	-42.0	16.2	0.00e+00	0	57	0	780140544	51	4592
2026-01-03 09:57:51.63	2.11	60.74	-39.4	-41.5	16.7	0.00e+00	0	57	0	782237696	50	4594
2026-01-03 09:57:52.64	1.77	60.36	-38.3	-40.0	18.2	0.00e+00	0	56	0	784334848	48	4326
2026-01-03 09:57:53.65	1.44	59.97	-38.4	-40.2	18.0	0.00e+00	0	56	0	785383424	48	4421
2026-01-03 09:57:54.66	1.11	59.59	-38.8	-40.7	17.6	0.00e+00	0	56	0	787480576	48	4664
2026-01-03 09:57:55.67	0.80	59.20	-38.4	-40.3	17.9	0.00e+00	0	56	0	789577728	48	4461
2026-01-03 09:57:56.68	0.49	58.82	-38.5	-40.4	17.9	0.00e+00	0	56	0	791674880	48	4501
2026-01-03 09:57:57.69	0.19	58.44	-39.5	-41.8	16.5	0.00e+00	0	56	0	793772032	49	4997
2026-01-03 09:57:58.71	359.90	58.06	-39.1	-41.1	17.1	0.00e+00	0	57	0	794820608	49	4637
2026-01-03 09:57:59.72	359.62	57.69	-38.2	-39.9	18.3	0.00e+00	0	57	0	796917760	48	4256
2026-01-03 09:58:00.72	359.35	57.32	-38.2	-40.0	18.1	0.00e+00	0	56	0	799014912	47	4562
2026-01-03 09:58:01.73	359.09	56.95	-39.3	-41.4	16.9	0.00e+00	0	56	0	801112064	49	4786
2026-01-03 09:58:02.74	358.83	56.57	-40.2	-42.7	15.6	0.00e+00	0	56	0	803209216	51	4935
2026-01-03 09:58:03.75	358.58	56.21	-40.3	-42.8	15.5	0.00e+00	0	56	0	805306368	51	5023
2026-01-03 09:58:04.76	358.33	55.84	-41.1	-44.1	14.2	0.00e+00	0	56	0	806354944	52	5507
2026-01-03 09:58:05.77	358.10	55.48	-41.0	-43.9	14.3	7.00e-07	0	57	0	808452096	52	5380
2026-01-03 09:58:06.78	357.86	55.11	-40.2	-42.6	15.6	0.00e+00	0	56	0	810549248	51	4908
2026-01-03 09:58:07.79	357.64	54.75	-39.8	-42.1	16.2	0.00e+00	0	56	0	812646400	51	4600
2026-01-03 09:58:08.80	357.42	54.39	-39.7	-42.0	16.4	0.00e+00	0	56	0	814743552	50	4825
2026-01-03 09:58:09.81	357.20	54.04	-39.7	-41.9	16.3	0.00e+00	0	57	0	815792128	50	4776
2026-01-03 09:58:10.82	356.99	53.68	-38.5	-40.4	17.9	0.00e+00	0	56	0	817889280	49	4245
2026-01-03 09:58:11.83	356.79	53.33	-38.1	-39.8	18.3	0.00e+00	0	56	0	819986432	47	4458
2026-01-03 09:58:12.84	356.59	52.98	-38.5	-40.3	17.8	0.00e+00	0	56	0	822083584	47	4741
2026-01-03 09:58:13.85	356.39	52.63	-38.5	-40.3	17.9	0.00e+00	0	56	0	824180736	48	4479
2026-01-03 09:58:14.86	356.21	52.29	-38.2	-39.9	18.3	0.00e+00	0	56	0	825229312	48	4262
2026-01-03 09:58:15.87	356.02	51.94	-39.1	-41.1	17.2	0.00e+00	0	56	0	827326464	48	4871
2026-01-03 09:58:16.88	355.84	51.60	-40.2	-42.6	15.7	0.00e+00	0	57	0	829423616	50	5201
2026-01-03 09:58:17.89	355.66	51.26	-40.9	-43.7	14.6	0.00e+00	0	57	0	831520768	52	5246
2026-01-03 09:58:18.90	355.49	50.92	-40.6	-43.2	15.0	0.00e+00	0	57	0	833617920	52	4970
2026-01-03 09:58:19.91	355.32	50.59	-40.9	-43.7	14.6	0.00e+00	0	57	0	834666496	52	5233
2026-01-03 09:58:20.92	355.15	50.26	-41.0	-44.0	14.4	0.00e+00	0	57	0	836763648	52	5408
2026-01-03 09:58:21.93	354.99	49.93	-40.8	-43.5	14.6	7.00e-07	0	56	0	838860800	52	5141
2026-01-03 09:58:22.94	354.83	49.60	-40.2	-42.6	15.6	0.00e+00	0	56	0	840957952	52	4648
2026-01-03 09:58:23.95	354.68	49.27	-41.0	-43.9	14.4	0.00e+00	0	57	0	843055104	52	5345
2026-01-03 09:58:24.96	354.53	48.95	-40.9	-43.7	14.5	0.00e+00	0	57	0	844103680	52	5261
2026-01-03 09:58:25.97	354.38	48.62	-41.2	-44.1	14.1	7.00e-07	0	57	0	846200832	52	5517
2026-01-03 09:58:26.98	354.24	48.30	-41.4	-44.6	13.7	7.60e-06	0	57	0	848297984	53	5498
2026-01-03 09:58:27.99	354.09	47.99	-42.0	-45.6	12.6	3.89e-05	0	57	0	850395136	54	5813
2026-01-03 09:58:29.00	353.96	47.67	-41.0	-43.9	14.3	1.29e-05	0	57	0	852492288	53	5077
2026-01-03 09:58:30.01	353.82	47.36	-40.7	-43.4	14.7	0.00e+00	0	56	0	853540864	53	4807
2026-01-03 09:58:31.02	353.69	47.04	-40.1	-42.5	15.7	0.00e+00	0	57	0	855638016	52	4597
2026-01-03 09:58:32.03	353.56	46.73	-40.7	-43.5	14.7	0.00e+00	0	57	0	857735168	52	5119
2026-01-03 09:58:33.04	353.43	46.43	-40.6	-43.2	15.0	0.00e+00	0	56	0	859832320	52	4977
2026-01-03 09:58:34.05	353.30	46.12	-40.5	-43.1	15.1	7.00e-07	0	56	0	861929472	52	4888
2026-01-03 09:58:35.06	353.18	45.82	-39.8	-42.0	16.3	0.00e+00	0	56	0	862978048	51	4559
2026-01-03 09:58:36.07	353.06	45.52	-39.7	-41.9	16.4	0.00e+00	0	56	0	865075200	51	4509
2026-01-03 09:58:37.08	352.94	45.22	-39.8	-42.1	16.3	0.00e+00	0	56	0	867172352	51	4600
2026-01-03 09:58:38.08	352.83	44.93	-40.8	-43.5	14.8	0.00e+00	0	57	0	869269504	52	5109
2026-01-03 09:58:39.09	352.71	44.63	-41.5	-44.8	13.3	9.90e-06	0	56	0	871366656	53	5612
2026-01-03 09:58:40.10	352.60	44.34	-42.4	-46.5	11.7	2.82e-04	0	57	0	873463808	55	6088
2026-01-03 09:58:41.12	352.49	44.04	-42.4	-46.5	11.6	8.37e-04	0	57	0	874512384	55	6089
2026-01-03 09:58:42.13	352.38	43.76	-42.5	-46.9	11.0	1.25e-03	0	57	0	876609536	55	6355
2026-01-03 09:58:43.14	352.28	43.47	-43.7	-49.9	8.3	1.76e-02	0	57	0	878706688	57	8024
2026-01-03 09:58:44.15	352.17	43.19	-43.9	-50.6	7.5	3.89e-02	0	57	0	880803840	58	8225
2026-01-03 09:58:45.15	352.07	42.91	-43.7	-49.8	8.2	1.39e-01	0	56	0	882900992	58	7527
2026-01-03 09:58:46.16	351.97	42.63	-42.4	-46.4	11.8	4.79e-03	0	57	0	883949568	56	5687
2026-01-03 09:58:47.17	351.87	42.35	-41.1	-44.0	14.2	5.64e-05	0	56	0	886046720	54	4823
2026-01-03 09:58:48.18	351.78	42.07	-40.3	-42.8	15.4	0.00e+00	0	57	0	888143872	52	4718
2026-01-03 09:58:49.19	351.68	41.80	-40.3	-42.8	15.4	0.00e+00	0	56	0	890241024	52	4714
2026-01-03 09:58:50.20	351.59	41.52	-40.7	-43.4	14.5	0.00e+00	0	56	0	892338176	52	5089
2026-01-03 09:58:51.21	351.50	41.25	-41.5	-44.8	13.3	1.06e-05	0	56	0	893386752	53	5629
2026-01-03 09:58:52.22	351.41	40.98	-41.2	-44.3	13.9	3.80e-06	0	56	0	895483904	53	5294
2026-01-03 09:58:53.23	351.32	40.72	-42.0	-45.7	12.5	5.30e-06	0	57	0	897581056	54	5862
2026-01-03 09:58:54.24	351.23	40.45	-42.2	-46.3	11.9	2.27e-04	0	56	0	899678208	55	5932
2026-01-03 09:58:55.25	351.15	40.19	-43.2	-48.2	10.0	3.23e-03	0	57	0	901775360	56	6983
2026-01-03 09:58:56.26	351.06	39.93	-42.9	-47.6	10.8	6.81e-03	0	56	0	902823936	57	6141
2026-01-03 09:58:57.27	350.98	39.67	-42.0	-45.5	12.8	2.25e-04	0	57	0	904921088	56	5117
2026-01-03 09:58:58.28	350.90	39.41	-40.7	-43.4	14.6	3.80e-06	0	57	0	907018240	53	4814
2026-01-03 09:58:59.28	350.82	39.16	-40.2	-42.7	15.4	0.00e+00	0	57	0	909115392	52	4679
2026-01-03 09:59:00.30	350.74	38.90	-40.0	-42.3	16.0	0.00e+00	0	57	0	911212544	51	4708
2026-01-03 09:59:01.31	350.66	38.65	-40.2	-42.6	15.6	0.00e+00	0	57	0	912261120	51	4915
2026-01-03 09:59:02.32	350.59	38.40	-40.4	-42.9	15.4	0.00e+00	0	57	0	914358272	51	5079
2026-01-03 09:59:03.33	350.51	38.15	-41.2	-44.3	13.9	0.00e+00	0	57	0	916455424	52	5627
2026-01-03 09:59:04.34	350.44	37.91	-42.3	-46.3	11.9	2.43e-04	0	57	0	918552576	55	5942
2026-01-03 09:59:05.34	350.37	37.66	-42.2	-46.2	11.9	5.54e-04	0	57	0	920649728	55	5864
2026-01-03 09:59:06.35	350.30	37.42	-42.0	-45.8	12.4	4.45e-04	0	57	0	921698304	55	5604
2026-01-03 09:59:07.36	350.23	37.18	-41.7	-45.2	12.9	5.26e-05	0	56	0	923795456	55	5224
2026-01-03 09:59:08.37	350.16	36.94	-41.7	-45.2	13.0	5.11e-05	0	57	0	925892608	55	5224
2026-01-03 09:59:09.38	350.09	36.70	-41.3	-44.5	13.6	3.05e-05	0	57	0	927989760	54	5149
2026-01-03 09:59:10.39	350.02	36.47	-41.8	-45.3	12.8	5.56e-05	0	56	0	930086912	54	5628
2026-01-03 09:59:11.40	349.96	36.23	-41.7	-45.2	12.9	3.89e-05	0	56	0	931135488	54	5590
2026-01-03 09:59:12.41	349.89	36.00	-41.7	-45.2	13.0	2.36e-05	0	57	0	933232640	54	5566
2026-01-03 09:59:13.42	349.83	35.77	-41.7	-45.1	13.0	3.73e-05	0	57	0	935329792	54	5489
2026-01-03 09:59:14.43	349.76	35.54	-41.5	-44.8	13.3	1.14e-05	0	56	0	937426944	54	5321
2026-01-03 09:59:15.44	349.70	35.31	-41.0	-43.9	14.2	9.90e-06	0	56	0	939524096	54	4772
2026-01-03 09:59:16.45	349.64	35.08	-40.4	-42.9	15.2	0.00e+00	0	57	0	940572672	52	4784
2026-01-03 09:59:17.46	349.58	34.86	-40.4	-43.0	15.2	0.00e+00	0	57	0	942669824	51	5115
2026-01-03 09:59:18.47	349.52	34.63	-40.1	-42.4	15.8	0.00e+00	0	57	0	944766976	51	4796
2026-01-03 09:59:19.48	349.46	34.41	-40.1	-42.4	15.7	0.00e+00	0	57	0	946864128	51	4811
2026-01-03 09:59:20.49	349.40	34.19	-40.1	-42.5	15.7	0.00e+00	0	57	0	948961280	51	4853
2026-01-03 09:59:21.50	349.35	33.97	-40.4	-43.0	15.2	0.00e+00	0	57	0	951058432	51	5114
2026-01-03 09:59:22.51	349.29	33.76	-40.5	-43.2	14.9	0.00e+00	0	57	0	952107008	52	4950
2026-01-03 09:59:23.52	349.24	33.54	-41.4	-44.6	13.5	7.60e-06	0	57	0	954204160	53	5483
2026-01-03 09:59:24.52	349.18	33.33	-42.0	-45.9	12.3	6.10e-05	0	57	0	956301312	54	6006
2026-01-03 09:59:25.53	349.13	33.11	-42.2	-46.2	11.8	1.97e-04	0	57	0	958398464	55	5870
2026-01-03 09:59:26.54	349.07	32.90	-42.7	-47.3	10.8	1.36e-03	0	57	0	960495616	55	6687
2026-01-03 09:59:27.55	349.02	32.69	-42.8	-47.6	10.8	2.02e-03	0	57	0	961544192	55	6945
2026-01-03 09:59:28.56	348.97	32.49	-42.6	-47.1	11.1	1.60e-03	0	57	0	963641344	56	6141
2026-01-03 09:59:29.58	348.92	32.28	-42.3	-46.3	11.9	5.92e-04	0	56	0	965738496	56	5594
2026-01-03 09:59:30.58	348.87	32.07	-41.7	-45.3	12.7	1.98e-04	0	56	0	967835648	55	5326
2026-01-03 09:59:31.60	348.82	31.87	-41.4	-44.7	13.4	6.79e-05	0	57	0	969932800	54	5245
2026-01-03 09:59:32.61	348.77	31.66	-41.2	-44.4	13.7	1.29e-05	0	57	0	970981376	54	5053
2026-01-03 09:59:33.62	348.72	31.46	-40.9	-43.9	14.1	1.50e-06	0	57	0	973078528	53	5090
2026-01-03 09:59:34.63	348.67	31.26	-40.8	-43.7	14.4	7.00e-07	0	57	0	975175680	53	4935
2026-01-03 09:59:35.63	348.63	31.07	-40.6	-43.4	14.6	0.00e+00	0	57	0	977272832	52	5099
2026-01-03 09:59:36.64	348.58	30.87	-40.4	-43.1	15.0	0.00e+00	0	57	0	979369984	52	4907
2026-01-03 09:59:37.65	348.54	30.67	-40.3	-43.0	15.1	0.00e+00	0	57	0	980418560	52	4819
2026-01-03 09:59:38.66	348.49	30.48	-40.3	-43.0	15.0	0.00e+00	0	57	0	982515712	52	4816
2026-01-03 09:59:39.67	348.45	30.28	-40.4	-43.1	14.9	0.00e+00	0	57	0	984612864	52	4914
2026-01-03 09:59:40.68	348.40	30.09	-40.4	-43.0	15.0	0.00e+00	0	56	0	986710016	52	4840
2026-01-03 09:59:41.69	348.36	29.90	-40.3	-42.9	15.1	0.00e+00	0	57	0	988807168	52	4771
2026-01-03 09:59:42.70	348.31	29.71	-40.1	-42.6	15.4	0.00e+00	0	57	0	989855744	52	4606
2026-01-03 09:59:43.71	348.27	29.52	-40.2	-42.8	15.3	0.00e+00	0	57	0	991952896	51	4991
2026-01-03 09:59:44.71	348.23	29.34	-40.1	-42.6	15.5	0.00e+00	0	57	0	994050048	51	4872
2026-01-03 09:59:45.72	348.19	29.15	-40.3	-42.9	15.2	0.00e+00	0	57	0	996147200	51	5056
2026-01-03 09:59:46.74	348.15	28.96	-40.5	-43.2	14.9	0.00e+00	0	57	0	998244352	51	5232
2026-01-03 09:59:47.75	348.11	28.78	-40.8	-43.7	14.4	0.00e+00	0	57	0	999292928	52	5230
2026-01-03 09:59:48.75	348.07	28.60	-40.8	-43.8	14.1	0.00e+00	0	57	0	1001390080	52	5322
2026-01-03 09:59:49.77	348.03	28.42	-41.1	-44.3	13.7	3.00e-06	0	57	0	1003487232	52	5614
2026-01-03 09:59:50.77	347.99	28.24	-41.4	-44.7	13.3	1.14e-05	0	57	0	1005584384	53	5575
2026-01-03 09:59:51.78	347.95	28.06	-41.3	-44.6	13.4	1.29e-05	0	57	0	1007681536	53	5520
2026-01-03 09:59:52.79	347.91	27.88	-41.1	-44.3	13.7	7.60e-06	0	57	0	1008730112	53	5297
2026-01-03 09:59:53.80	347.88	27.70	-40.9	-44.0	14.0	2.20e-06	0	57	0	1010827264	53	5123
2026-01-03 09:59:54.81	347.84	27.53	-40.7	-43.6	14.4	3.00e-06	0	57	0	1012924416	53	4919
2026-01-03 09:59:55.82	347.80	27.35	-40.3	-42.9	15.1	0.00e+00	0	57	0	1015021568	52	4772
2026-01-03 09:59:56.83	347.77	27.18	-40.0	-42.5	15.7	0.00e+00	0	57	0	1017118720	51	4855
2026-01-03 09:59:57.84	347.73	27.01	-39.9	-42.3	15.7	0.00e+00	0	57	0	1019215872	51	4755
2026-01-03 09:59:58.84	347.70	26.84	-39.4	-41.6	16.4	0.00e+00	0	57	0	1020264448	50	4617
2026-01-03 09:59:59.85	347.66	26.67	-39.2	-41.4	16.6	0.00e+00	0	57	0	1022361600	50	4525
2026-01-03 10:00:00.86	347.63	26.50	-39.1	-41.1	16.8	0.00e+00	0	56	0	1024458752	50	4378
2026-01-03 10:00:01.87	347.59	26.33	-38.8	-40.9	17.1	0.00e+00	0	57	0	1026555904	49	4495
2026-01-03 10:00:02.88	347.56	26.16	-38.8	-40.8	17.2	0.00e+00	0	56	0	1028653056	49	4455
2026-01-03 10:00:03.89	347.53	26.00	-39.0	-41.1	16.8	0.00e+00	0	56	0	1029701632	49	4623
2026-01-03 10:00:04.90	347.49	25.83	-39.5	-41.7	16.3	0.00e+00	0	57	0	1031798784	49	4961
2026-01-03 10:00:05.91	347.46	25.67	-39.5	-41.8	16.2	0.00e+00	0	57	0	1033895936	49	5005
2026-01-03 10:00:06.92	347.43	25.51	-40.1	-42.6	15.3	0.00e+00	0	57	0	1035993088	50	5200
2026-01-03 10:00:07.93	347.40	25.34	-40.6	-43.4	14.6	0.00e+00	0	57	0	1038090240	51	5370
2026-01-03 10:00:08.94	347.37	25.18	-41.0	-44.1	13.8	1.50e-06	0	57	0	1039138816	52	5486
2026-01-03 10:00:09.95	347.34	25.02	-41.4	-44.9	13.2	1.29e-05	0	57	0	1041235968	53	5664
2026-01-03 10:00:10.96	347.30	24.86	-41.2	-44.5	13.4	2.97e-05	0	56	0	1043333120	53	5409
2026-01-03 10:00:11.97	347.27	24.71	-41.2	-44.6	13.2	1.75e-05	0	57	0	1045430272	53	5477
2026-01-03 10:00:12.98	347.24	24.55	-41.1	-44.4	13.4	1.14e-05	0	56	0	1047527424	53	5355
2026-01-03 10:00:13.99	347.21	24.39	-40.5	-43.4	14.4	3.00e-06	0	57	0	1048576000	53	4780
2026-01-03 10:00:15.00	347.19	24.24	-40.0	-42.6	15.2	0.00e+00	0	57	0	1050673152	52	4646
2026-01-03 10:00:16.01	347.16	24.08	-39.6	-41.9	16.0	0.00e+00	0	57	0	1052770304	51	4522
2026-01-03 10:00:17.02	347.13	23.93	-39.1	-41.3	16.6	0.00e+00	0	57	0	1054867456	50	4465
2026-01-03 10:00:18.03	347.10	23.78	-39.0	-41.1	16.7	0.00e+00	0	57	0	1056964608	50	4376
2026-01-03 10:00:19.04	347.07	23.62	-39.0	-41.1	16.7	0.00e+00	0	57	0	1058013184	49	4641
2026-01-03 10:00:20.05	347.04	23.47	-38.8	-40.9	16.9	0.00e+00	0	57	0	1060110336	49	4507
2026-01-03 10:00:21.06	347.02	23.32	-39.0	-41.1	16.7	0.00e+00	0	57	0	1062207488	49	4620
2026-01-03 10:00:22.07	346.99	23.17	-38.9	-41.0	16.8	0.00e+00	0	57	0	1064304640	49	4560
2026-01-03 10:00:23.08	346.96	23.03	-38.8	-40.9	16.9	0.00e+00	0	57	0	1066401792	49	4495
2026-01-03 10:00:24.08	346.94	22.88	-39.1	-41.3	16.5	0.00e+00	0	57	0	1067450368	49	4711
2026-01-03 10:00:25.09	346.91	22.73	-39.0	-41.2	16.6	0.00e+00	0	57	0	1069547520	49	4659
2026-01-03 10:00:26.10	346.88	22.59	-39.1	-41.3	16.4	0.00e+00	0	57	0	1071644672	49	4716
2026-01-03 10:00:27.11	346.86	22.44	-39.1	-41.4	16.2	0.00e+00	0	57	0	1073741824	49	4772
2026-01-03 10:00:28.12	346.83	22.30	-39.0	-41.2	16.4	0.00e+00	0	57	0	1075838976	49	4672
2026-01-03 10:00:29.13	346.81	22.16	-39.1	-41.4	16.1	0.00e+00	0	57	0	1076887552	49	4789
2026-01-03 10:00:30.14	346.78	22.01	-39.2	-41.7	15.5	0.00e+00	0	56	0	1078984704	49	4962
2026-01-03 10:00:31.15	346.76	21.87	-39.6	-42.5	14.7	0.00e+00	0	57	0	1081081856	49	5407
2026-01-03 10:00:32.16	346.73	21.73	-39.9	-43.0	13.9	7.00e-07	0	57	0	1083179008	50	5446
2026-01-03 10:00:33.17	346.71	21.59	-40.2	-44.1	12.4	3.05e-05	0	57	0	1085276160	50	6135
2026-01-03 10:00:34.18	346.69	21.45	-40.5	-45.1	11.0	4.84e-04	0	57	0	1087373312	51	6520
2026-01-03 10:00:35.19	346.66	21.31	-40.6	-46.0	9.5	1.01e-02	0	57	0	1088421888	51	7257
2026-01-03 10:00:36.20	346.64	21.17	-40.7	-47.6	7.5	6.34e-02	0	57	0	1090519040	52	8260
2026-01-03 10:00:37.21	346.62	21.04	-40.7	-49.0	6.0	1.87e-01	0	57	0	1092616192	52	9657
2026-01-03 10:00:38.22	346.59	20.90	-40.6	-50.4	4.9	6.12e-01	0	57	0	1094713344	52	11352
2026-01-03 10:00:39.23	346.57	20.76	-40.6	-51.6	4.3	1.13e+00	0	57	0	1095761920	52	12984
2026-01-03 10:00:40.24	346.55	20.63	-40.4	-52.7	3.8	1.43e+00	0	57	104	1095761920	52	14864
2026-01-03 10:00:41.25	346.53	20.49	-40.4	-53.6	3.8	1.48e+00	0	57	104	1095761920	52	16460
2026-01-03 10:00:42.26	346.50	20.36	-40.3	-54.2	3.8	1.49e+00	0	57	104	1095761920	52	17680
2026-01-03 10:00:43.26	346.48	20.23	-40.3	-54.5	3.8	1.49e+00	0	57	104	1095761920	52	18168
2026-01-03 10:00:44.27	346.46	20.10	-40.3	-54.7	3.8	1.49e+00	0	57	104	1095761920	52	18561
2026-01-03 10:00:45.28	346.44	19.97	-40.3	-54.8	3.8	1.49e+00	0	57	104	1095761920	52	18741
2026-01-03 10:00:46.30	346.42	19.83	-40.3	-54.8	3.8	1.49e+00	0	57	104	1095761920	52	18741
2026-01-03 10:00:47.30	346.40	19.71	-40.4	-55.0	3.8	1.49e+00	0	57	104	1095761920	52	19175
2026-01-03 10:00:48.31	346.38	19.58	-40.4	-55.0	3.8	1.49e+00	0	57	104	1095761920	52	19196
2026-01-03 10:00:49.32	346.36	19.45	-40.6	-55.1	3.8	1.49e+00	0	57	104	1095761920	52	19529
2026-01-03 10:00:50.34	346.34	19.32	-40.4	-55.0	3.8	1.49e+00	0	57	104	1095761920	52	19170
2026-01-03 10:00:51.34	346.32	19.19	-40.5	-55.1	3.8	1.49e+00	0	57	104	1095761920	52	19406
2026-01-03 10:00:52.35	346.30	19.06	-40.6	-55.3	3.8	1.49e+00	0	57	104	1095761920	52	19873
2026-01-03 10:00:53.36	346.28	18.94	-40.5	-55.0	3.8	1.49e+00	0	57	104	1095761920	52	19338
2026-01-03 10:00:54.37	346.26	18.81	-40.7	-55.4	3.8	1.49e+00	0	57	104	1095761920	52	20113
2026-01-03 10:00:55.38	346.24	18.69	-40.4	-55.0	3.8	1.49e+00	0	57	104	1095761920	52	19198
2026-01-03 10:00:56.39	346.22	18.56	-40.4	-55.0	3.8	1.49e+00	0	57	104	1095761920	52	19192
2026-01-03 10:00:57.40	346.20	18.44	-40.5	-55.1	3.8	1.49e+00	0	57	104	1095761920	52	19494
2026-01-03 10:00:58.41	346.18	18.32	-40.4	-55.0	3.8	1.49e+00	0	57	104	1095761920	52	19249
2026-01-03 10:00:59.42	346.16	18.20	-40.4	-55.0	3.8	1.49e+00	0	57	104	1095761920	52	19192
2026-01-03 10:01:00.43	346.14	18.07	-40.4	-54.9	3.8	1.49e+00	0	57	104	1095761920	52	19089
2026-01-03 10:01:01.44	346.13	17.95	-40.4	-54.9	3.8	1.49e+00	0	57	104	1095761920	52	19079
2026-01-03 10:01:02.45	346.11	17.83	-40.9	-55.5	3.8	1.49e+00	0	57	104	1095761920	52	20453
2026-01-03 10:01:03.46	346.09	17.71	-41.2	-55.8	3.8	1.49e+00	0	57	104	1095761920	53	19979
2026-01-03 10:01:04.47	346.07	17.59	-40.5	-55.1	3.8	1.49e+00	0	57	104	1095761920	52	19463
2026-01-03 10:01:05.48	346.05	17.47	-40.7	-55.3	3.8	1.49e+00	0	57	104	1095761920	52	19947
2026-01-03 10:01:06.49	346.04	17.35	-40.5	-55.1	3.8	1.49e+00	0	57	104	1095761920	52	19605
2026-01-03 10:01:07.50	346.02	17.24	-40.5	-55.2	3.8	1.49e+00	0	57	104	1095761920	52	19805
2026-01-03 10:01:08.51	346.00	17.12	-40.7	-55.4	3.8	1.49e+00	0	57	104	1095761920	52	20261
2026-01-03 10:01:09.52	345.99	17.00	-40.8	-55.5	3.8	1.49e+00	0	57	104	1095761920	52	20402
2026-01-03 10:01:10.53	345.97	16.89	-41.2	-55.9	3.8	1.49e+00	0	57	104	1095761920	52	21487
2026-01-03 10:01:11.55	345.95	16.77	-40.9	-55.8	3.8	1.49e+00	0	57	104	1095761920	53	19946
2026-01-03 10:01:12.56	345.94	16.66	-40.5	-55.3	3.8	1.49e+00	0	57	104	1095761920	52	20020
2026-01-03 10:01:13.56	345.92	16.54	-40.8	-55.5	3.8	1.49e+00	0	57	104	1095761920	52	20379
2026-01-03 10:01:14.58	345.90	16.43	-40.4	-55.2	3.8	1.49e+00	0	57	104	1095761920	52	19824
2026-01-03 10:01:15.59	345.89	16.31	-40.4	-55.2	3.8	1.49e+00	0	57	104	1095761920	52	19719
2026-01-03 10:01:16.60	345.87	16.20	-40.7	-55.4	3.8	1.49e+00	0	57	104	1095761920	52	20255
2026-01-03 10:01:17.61	345.86	16.09	-40.4	-55.3	3.8	1.49e+00	0	57	104	1095761920	52	19900
2026-01-03 10:01:18.62	345.84	15.98	-41.2	-56.0	3.8	1.49e+00	0	57	104	1095761920	52	21595
2026-01-03 10:01:19.63	345.83	15.87	-40.9	-55.6	3.8	1.49e+00	0	57	104	1095761920	53	19443
2026-01-03 10:01:20.63	345.81	15.76	-40.4	-55.3	3.8	1.49e+00	0	57	104	1095761920	52	19851
