passes_logs/2026/01/03/R2.0S_Moscow/R2.0S_Moscow__20260103_024732_FENGYUN_3E_rec.log

#Pass ID: 20260103_024732_FENGYUN 3E
#Satellite: FENGYUN 3E
#Configuration: FENGYUN 3E
#almurnet v.1.7.20251203
#Start time: 2026-01-03 02:54:36

#Version: 2.2.20231116
#Station: R2.0S_Moscow
#Location: 37.707566 lon 55.798166 lat
#TLE: 1 49008U 21062A   26002.32147302  .00000239  00000+0  13357-3 0  9999
#TLE: 2 49008  98.7477   7.5995 0001398 164.3382 195.7838 14.19884140233041

#Time	Az	El	Level	Level2	SNR	BER	BlckErr	Temp	State	Recorded	gain1	gain2
2026-01-03 02:54:36.29	98.63	31.07	-45.0	-56.7	3.8	8.46e-01	0	58	0	0	60	14711
2026-01-03 02:54:37.30	98.99	31.06	-45.8	-57.1	3.8	8.46e-01	0	58	104	0	62	13046
2026-01-03 02:54:38.31	99.35	31.04	-45.8	-57.0	3.8	8.46e-01	0	58	104	0	62	12954
2026-01-03 02:54:39.32	99.70	31.02	-45.8	-56.9	3.8	8.47e-01	0	58	104	0	62	12803
2026-01-03 02:54:40.33	100.06	31.00	-45.7	-57.0	3.8	8.46e-01	0	58	104	0	62	12843
2026-01-03 02:54:41.34	100.42	30.97	-45.7	-57.0	3.8	8.47e-01	0	58	104	0	62	12856
2026-01-03 02:54:42.35	100.77	30.95	-45.6	-56.9	3.8	8.46e-01	0	58	104	0	62	12677
2026-01-03 02:54:43.37	101.13	30.92	-45.5	-56.8	3.8	8.46e-01	0	58	104	0	62	12547
2026-01-03 02:54:44.38	101.49	30.90	-45.5	-56.7	3.8	8.47e-01	0	58	104	0	62	12517
2026-01-03 02:54:45.39	101.84	30.87	-45.5	-56.8	3.8	8.45e-01	0	58	104	0	62	12535
2026-01-03 02:54:46.40	102.19	30.84	-45.5	-56.7	3.8	8.47e-01	0	58	104	0	62	12486
2026-01-03 02:54:47.41	102.55	30.81	-45.5	-56.7	3.8	8.46e-01	0	58	104	0	62	12480
2026-01-03 02:54:48.42	102.90	30.78	-45.5	-56.8	3.8	8.46e-01	0	58	104	0	62	12525
2026-01-03 02:54:49.43	103.25	30.75	-45.5	-56.7	3.8	8.45e-01	0	58	104	0	62	12502
2026-01-03 02:54:50.44	103.60	30.72	-45.4	-56.7	3.8	8.45e-01	0	58	104	0	61	13208
2026-01-03 02:54:51.45	103.95	30.68	-45.4	-56.7	3.8	8.45e-01	0	58	104	0	61	13187
2026-01-03 02:54:52.47	104.30	30.65	-45.4	-56.7	3.8	8.46e-01	0	58	104	0	61	13183
2026-01-03 02:54:53.48	104.65	30.61	-45.4	-56.7	3.8	8.46e-01	0	58	104	0	61	13196
2026-01-03 02:54:54.49	105.00	30.57	-45.4	-56.7	3.8	8.46e-01	0	58	104	0	61	13209
2026-01-03 02:54:55.50	105.34	30.54	-45.4	-56.7	3.8	8.46e-01	0	58	104	0	61	13119
2026-01-03 02:54:56.51	105.69	30.50	-45.4	-56.6	3.8	8.47e-01	0	58	104	0	61	13048
2026-01-03 02:54:57.52	106.04	30.46	-45.4	-56.7	3.8	8.47e-01	0	58	104	0	61	13117
2026-01-03 02:54:58.53	106.38	30.41	-45.4	-56.7	3.8	8.46e-01	0	58	104	0	61	13139
2026-01-03 02:54:59.54	106.72	30.37	-45.4	-56.6	3.8	8.47e-01	0	58	104	0	61	12981
2026-01-03 02:55:00.55	107.07	30.33	-45.4	-56.5	3.8	8.46e-01	0	58	104	0	61	12878
2026-01-03 02:55:01.56	107.41	30.28	-45.4	-56.5	3.8	8.46e-01	0	58	104	0	61	12933
2026-01-03 02:55:02.58	107.75	30.24	-45.4	-56.6	3.8	8.46e-01	0	58	104	0	61	13089
2026-01-03 02:55:03.59	108.09	30.19	-45.4	-56.6	3.8	8.46e-01	0	58	104	0	61	13060
2026-01-03 02:55:04.60	108.43	30.14	-45.4	-56.5	3.8	8.45e-01	0	58	104	0	61	12913
2026-01-03 02:55:05.61	108.77	30.09	-45.4	-56.4	3.8	8.45e-01	0	58	104	0	61	12753
2026-01-03 02:55:06.62	109.11	30.04	-45.4	-56.5	3.8	8.46e-01	0	58	104	0	61	12880
2026-01-03 02:55:07.63	109.44	29.99	-45.4	-56.6	3.8	8.45e-01	0	58	104	0	61	12969
2026-01-03 02:55:08.64	109.78	29.94	-45.4	-56.6	3.8	8.45e-01	0	58	104	0	61	13100
2026-01-03 02:55:09.65	110.11	29.89	-45.4	-56.7	3.8	8.47e-01	0	58	104	0	61	13141
2026-01-03 02:55:10.66	110.44	29.83	-45.4	-56.7	3.8	8.46e-01	0	58	104	0	61	13143
2026-01-03 02:55:11.67	110.77	29.78	-45.4	-56.6	3.8	8.46e-01	0	58	104	0	61	13041
2026-01-03 02:55:12.69	111.11	29.72	-45.4	-56.6	3.8	8.46e-01	0	58	104	0	61	13054
2026-01-03 02:55:13.70	111.44	29.67	-45.4	-56.6	3.8	8.45e-01	0	58	104	0	61	13108
2026-01-03 02:55:14.71	111.77	29.61	-45.4	-56.4	3.8	8.46e-01	0	58	104	0	61	12792
2026-01-03 02:55:15.72	112.09	29.55	-45.4	-56.2	3.8	8.45e-01	0	58	104	0	61	12465
2026-01-03 02:55:16.73	112.42	29.49	-45.4	-56.4	3.8	8.46e-01	0	58	104	0	61	12668
2026-01-03 02:55:17.74	112.74	29.43	-45.4	-56.7	3.8	8.47e-01	0	58	104	0	61	13155
2026-01-03 02:55:18.75	113.07	29.37	-45.4	-56.3	3.8	8.47e-01	0	58	104	0	61	12636
2026-01-03 02:55:19.76	113.39	29.31	-45.2	-55.3	3.8	8.46e-01	0	58	104	0	61	11177
2026-01-03 02:55:20.77	113.71	29.25	-45.1	-53.9	4.0	8.47e-01	0	58	104	0	61	9546
2026-01-03 02:55:21.79	114.03	29.18	-44.8	-52.6	4.3	8.34e-01	0	58	0	0	60	8686
2026-01-03 02:55:22.80	114.35	29.12	-44.7	-52.0	4.6	8.16e-01	0	59	0	0	60	8158
2026-01-03 02:55:23.81	114.67	29.05	-45.1	-54.0	4.0	8.39e-01	0	58	0	0	60	10288
2026-01-03 02:55:24.82	114.99	28.99	-45.3	-55.9	3.8	8.46e-01	0	58	104	0	60	12698
2026-01-03 02:55:25.83	115.30	28.92	-42.9	-46.5	8.6	1.39e-01	0	58	0	0	56	5461
2026-01-03 02:55:26.84	115.61	28.86	-38.8	-40.4	14.9	9.10e-06	0	58	0	7340032	48	4256
2026-01-03 02:55:27.85	115.93	28.79	-35.0	-36.1	18.8	0.00e+00	0	59	0	15728640	41	3883
2026-01-03 02:55:28.86	116.24	28.72	-32.9	-33.9	21.1	0.00e+00	0	58	0	22020096	36	4022
2026-01-03 02:55:29.87	116.55	28.65	-31.2	-32.1	21.9	0.00e+00	0	58	0	29360128	33	3897
2026-01-03 02:55:30.88	116.86	28.58	-45.2	-54.8	3.8	2.41e-01	0	58	104	35651584	60	11176
2026-01-03 02:55:31.89	117.16	28.51	-35.6	-36.8	18.0	1.42e-01	0	58	0	35651584	40	4466
2026-01-03 02:55:32.90	117.47	28.44	-38.1	-39.7	15.7	0.00e+00	0	58	0	42991616	45	4677
2026-01-03 02:55:33.91	117.77	28.36	-38.5	-40.2	15.1	0.00e+00	0	58	0	50331648	46	4666
2026-01-03 02:55:34.92	118.08	28.29	-35.3	-36.5	18.6	0.00e+00	0	58	0	57671680	40	4321
2026-01-03 02:55:35.93	118.38	28.22	-33.9	-34.9	20.0	0.00e+00	0	58	0	65011712	38	4010
2026-01-03 02:55:36.94	118.68	28.14	-32.8	-33.8	21.1	0.00e+00	0	58	0	72351744	36	3968
2026-01-03 02:55:37.95	118.98	28.07	-31.7	-32.6	21.4	0.00e+00	0	58	0	79691776	34	3910
2026-01-03 02:55:38.96	119.27	27.99	-31.4	-32.3	21.8	0.00e+00	0	59	0	87031808	33	3970
2026-01-03 02:55:39.97	119.57	27.92	-31.2	-32.1	21.9	0.00e+00	0	58	0	94371840	33	3898
2026-01-03 02:55:40.98	119.87	27.84	-31.3	-32.2	21.8	0.00e+00	0	58	0	100663296	33	3947
2026-01-03 02:55:41.99	120.16	27.76	-31.4	-32.3	21.7	0.00e+00	0	58	0	108003328	33	3991
2026-01-03 02:55:43.00	120.45	27.69	-31.4	-32.3	21.7	0.00e+00	0	58	0	116391936	33	3985
2026-01-03 02:55:44.01	120.74	27.61	-31.4	-32.3	21.7	0.00e+00	0	58	0	122683392	33	3998
2026-01-03 02:55:45.01	121.03	27.53	-31.3	-32.2	21.8	0.00e+00	0	58	0	130023424	33	3958
2026-01-03 02:55:46.02	121.32	27.45	-31.3	-32.2	21.9	0.00e+00	0	58	0	137363456	33	3914
2026-01-03 02:55:47.03	121.60	27.37	-31.2	-32.2	21.7	0.00e+00	0	58	0	144703488	33	3916
2026-01-03 02:55:48.04	121.89	27.29	-31.2	-32.1	21.9	0.00e+00	0	58	0	152043520	33	3902
2026-01-03 02:55:49.05	122.17	27.21	-31.3	-32.2	21.8	0.00e+00	0	58	0	159383552	33	3919
2026-01-03 02:55:50.06	122.45	27.13	-31.3	-32.2	21.8	0.00e+00	0	58	0	166723584	33	3947
2026-01-03 02:55:51.07	122.73	27.04	-31.4	-32.3	21.8	0.00e+00	0	58	0	174063616	33	3982
2026-01-03 02:55:52.08	123.01	26.96	-31.4	-32.3	21.7	0.00e+00	0	58	0	181403648	33	3999
2026-01-03 02:55:53.09	123.29	26.88	-31.4	-32.4	21.7	0.00e+00	0	58	0	188743680	33	4014
2026-01-03 02:55:54.10	123.57	26.80	-31.4	-32.3	21.7	0.00e+00	0	59	0	196083712	33	3999
2026-01-03 02:55:55.11	123.84	26.71	-31.4	-32.3	21.7	0.00e+00	0	58	0	203423744	33	4001
2026-01-03 02:55:56.12	124.12	26.63	-31.4	-32.4	21.7	0.00e+00	0	58	0	210763776	33	4005
2026-01-03 02:55:57.13	124.39	26.54	-31.4	-32.3	21.7	0.00e+00	0	58	0	218103808	33	3994
2026-01-03 02:55:58.14	124.66	26.46	-31.4	-32.3	21.8	0.00e+00	0	58	0	224395264	33	3974
2026-01-03 02:55:59.15	124.93	26.37	-31.3	-32.2	21.9	0.00e+00	0	58	0	232783872	33	3921
2026-01-03 02:56:00.16	125.20	26.29	-31.3	-32.2	21.8	0.00e+00	0	58	0	240123904	33	3955
2026-01-03 02:56:01.17	125.47	26.20	-31.4	-32.3	21.7	0.00e+00	0	58	0	246415360	33	4003
2026-01-03 02:56:02.18	125.73	26.11	-31.6	-32.5	21.5	0.00e+00	0	58	0	253755392	33	4085
2026-01-03 02:56:03.19	125.99	26.03	-31.7	-32.7	21.4	0.00e+00	0	58	0	261095424	33	4155
2026-01-03 02:56:04.20	126.26	25.94	-31.8	-32.8	21.3	0.00e+00	0	58	0	268435456	33	4206
2026-01-03 02:56:05.21	126.52	25.85	-31.9	-32.9	21.2	0.00e+00	0	58	0	275775488	33	4247
2026-01-03 02:56:06.22	126.78	25.76	-31.8	-32.7	21.3	0.00e+00	0	58	0	283115520	33	4179
2026-01-03 02:56:07.23	127.04	25.68	-31.8	-32.7	21.3	0.00e+00	0	58	0	290455552	33	4166
2026-01-03 02:56:08.24	127.29	25.59	-31.6	-32.5	21.5	0.00e+00	0	58	0	297795584	33	4065
2026-01-03 02:56:09.25	127.55	25.50	-31.4	-32.3	21.7	0.00e+00	0	58	0	305135616	33	3988
2026-01-03 02:56:10.26	127.80	25.41	-31.4	-32.3	21.7	0.00e+00	0	58	0	312475648	33	3962
2026-01-03 02:56:11.27	128.05	25.32	-31.3	-32.2	21.8	0.00e+00	0	58	0	319815680	33	3941
2026-01-03 02:56:12.28	128.31	25.23	-31.3	-32.2	21.8	0.00e+00	0	58	0	327155712	33	3918
2026-01-03 02:56:13.28	128.55	25.14	-31.3	-32.2	21.8	0.00e+00	0	58	0	334495744	33	3928
2026-01-03 02:56:14.30	128.80	25.05	-31.4	-32.3	21.8	0.00e+00	0	58	0	341835776	33	3969
2026-01-03 02:56:15.30	129.05	24.96	-31.5	-32.4	21.6	0.00e+00	0	58	0	349175808	33	4023
2026-01-03 02:56:16.31	129.29	24.87	-31.6	-32.5	21.6	0.00e+00	0	58	0	356515840	33	4071
2026-01-03 02:56:17.32	129.54	24.78	-31.7	-32.6	21.5	0.00e+00	0	58	0	363855872	33	4117
2026-01-03 02:56:18.33	129.78	24.69	-31.8	-32.8	21.3	0.00e+00	0	58	0	371195904	33	4204
2026-01-03 02:56:19.34	130.02	24.60	-31.9	-32.8	21.3	0.00e+00	0	58	0	377487360	33	4223
2026-01-03 02:56:20.35	130.26	24.50	-31.8	-32.7	21.3	0.00e+00	0	58	0	385875968	33	4190
2026-01-03 02:56:21.36	130.50	24.41	-31.8	-32.8	21.3	0.00e+00	0	58	0	393216000	33	4207
2026-01-03 02:56:22.37	130.74	24.32	-31.9	-32.8	21.2	0.00e+00	0	58	0	399507456	33	4226
2026-01-03 02:56:23.38	130.98	24.23	-31.7	-32.7	21.2	0.00e+00	0	58	0	406847488	33	4152
2026-01-03 02:56:24.39	131.21	24.13	-31.7	-32.6	21.4	0.00e+00	0	58	0	414187520	33	4133
2026-01-03 02:56:25.40	131.44	24.04	-31.7	-32.6	21.4	0.00e+00	0	58	0	421527552	33	4132
2026-01-03 02:56:26.41	131.68	23.95	-31.5	-32.4	21.5	0.00e+00	0	58	0	428867584	33	4048
2026-01-03 02:56:27.42	131.91	23.86	-31.4	-32.4	21.6	0.00e+00	0	58	0	436207616	33	4007
2026-01-03 02:56:28.43	132.14	23.76	-31.4	-32.4	21.5	0.00e+00	0	58	0	443547648	33	4007
2026-01-03 02:56:29.44	132.36	23.67	-31.6	-32.5	21.5	0.00e+00	0	58	0	450887680	33	4067
2026-01-03 02:56:30.45	132.59	23.58	-31.6	-32.5	21.5	0.00e+00	0	58	0	458227712	33	4072
2026-01-03 02:56:31.46	132.82	23.48	-31.7	-32.6	21.4	0.00e+00	0	58	0	465567744	33	4128
2026-01-03 02:56:32.47	133.04	23.39	-31.8	-32.7	21.3	0.00e+00	0	58	0	472907776	33	4163
2026-01-03 02:56:33.48	133.26	23.30	-31.8	-32.8	21.3	0.00e+00	0	58	0	480247808	33	4197
2026-01-03 02:56:34.49	133.48	23.20	-31.9	-32.8	21.2	0.00e+00	0	58	0	487587840	33	4210
2026-01-03 02:56:35.50	133.70	23.11	-31.9	-32.8	21.2	0.00e+00	0	58	0	494927872	33	4225
2026-01-03 02:56:36.51	133.92	23.02	-31.9	-32.9	21.1	0.00e+00	0	58	0	502267904	33	4243
2026-01-03 02:56:37.52	134.14	22.92	-32.1	-33.0	21.0	0.00e+00	0	58	0	509607936	33	4328
2026-01-03 02:56:38.53	134.36	22.83	-32.1	-33.1	20.9	0.00e+00	0	58	0	516947968	33	4372
2026-01-03 02:56:39.54	134.57	22.73	-32.0	-33.0	21.1	0.00e+00	0	58	0	524288000	33	4292
2026-01-03 02:56:40.55	134.79	22.64	-31.9	-32.8	21.2	0.00e+00	0	58	0	531628032	33	4221
2026-01-03 02:56:41.56	135.00	22.55	-31.8	-32.7	21.3	0.00e+00	0	58	0	538968064	33	4170
2026-01-03 02:56:42.58	135.21	22.45	-31.8	-32.7	21.3	0.00e+00	0	58	0	545259520	33	4192
2026-01-03 02:56:43.59	135.42	22.36	-31.9	-32.9	21.2	0.00e+00	0	58	0	552599552	33	4244
2026-01-03 02:56:44.60	135.63	22.26	-32.0	-32.9	21.1	0.00e+00	0	58	0	560988160	33	4274
2026-01-03 02:56:45.61	135.84	22.17	-31.9	-32.9	21.1	0.00e+00	0	58	0	567279616	33	4264
2026-01-03 02:56:46.62	136.05	22.07	-32.0	-33.0	21.0	0.00e+00	0	58	0	574619648	33	4308
2026-01-03 02:56:47.63	136.25	21.98	-32.1	-33.1	20.9	0.00e+00	0	58	0	581959680	33	4351
2026-01-03 02:56:48.64	136.45	21.88	-32.2	-33.2	20.8	0.00e+00	0	58	0	589299712	34	4168
2026-01-03 02:56:49.65	136.66	21.79	-32.3	-33.3	20.7	0.00e+00	0	58	0	596639744	34	4210
2026-01-03 02:56:50.66	136.86	21.70	-32.3	-33.3	20.7	0.00e+00	0	58	0	603979776	34	4214
2026-01-03 02:56:51.67	137.06	21.60	-32.4	-33.3	20.6	0.00e+00	0	58	0	611319808	34	4233
2026-01-03 02:56:52.68	137.26	21.51	-32.3	-33.3	20.7	0.00e+00	0	58	0	618659840	34	4228
2026-01-03 02:56:53.69	137.46	21.41	-32.3	-33.3	20.7	0.00e+00	0	58	0	625999872	34	4215
2026-01-03 02:56:54.70	137.65	21.32	-32.2	-33.2	20.9	0.00e+00	0	58	0	633339904	34	4160
2026-01-03 02:56:55.71	137.85	21.22	-32.2	-33.2	20.8	0.00e+00	0	58	0	640679936	34	4160
2026-01-03 02:56:56.72	138.04	21.13	-32.3	-33.3	20.7	0.00e+00	0	58	0	648019968	34	4201
2026-01-03 02:56:57.73	138.24	21.03	-32.2	-33.1	20.9	0.00e+00	0	58	0	655360000	34	4139
2026-01-03 02:56:58.74	138.43	20.94	-32.0	-33.0	21.0	0.00e+00	0	58	0	662700032	34	4064
2026-01-03 02:56:59.75	138.62	20.85	-31.9	-32.9	21.1	0.00e+00	0	58	0	670040064	34	4009
2026-01-03 02:57:00.76	138.81	20.75	-31.9	-32.9	21.1	0.00e+00	0	58	0	677380096	34	4009
2026-01-03 02:57:01.77	139.00	20.66	-32.0	-33.0	21.0	0.00e+00	0	58	0	684720128	34	4056
2026-01-03 02:57:02.78	139.19	20.56	-32.1	-33.0	20.8	0.00e+00	0	58	0	692060160	34	4095
2026-01-03 02:57:03.79	139.37	20.47	-32.1	-33.0	20.9	0.00e+00	0	58	0	698351616	34	4095
2026-01-03 02:57:04.80	139.56	20.38	-32.1	-33.1	20.8	0.00e+00	0	58	0	706740224	34	4129
2026-01-03 02:57:05.81	139.74	20.28	-32.3	-33.2	20.7	0.00e+00	0	58	0	714080256	34	4181
2026-01-03 02:57:06.82	139.93	20.19	-32.4	-33.4	20.6	0.00e+00	0	58	0	720371712	34	4259
2026-01-03 02:57:07.83	140.11	20.09	-32.5	-33.4	20.5	0.00e+00	0	58	0	727711744	34	4287
2026-01-03 02:57:08.84	140.29	20.00	-32.4	-33.4	20.6	0.00e+00	0	58	0	735051776	34	4266
2026-01-03 02:57:09.85	140.47	19.91	-32.5	-33.5	20.5	0.00e+00	0	58	0	742391808	34	4301
2026-01-03 02:57:10.86	140.65	19.81	-32.5	-33.5	20.5	0.00e+00	0	58	0	749731840	34	4316
2026-01-03 02:57:11.87	140.82	19.72	-32.5	-33.5	20.5	0.00e+00	0	58	0	757071872	34	4325
2026-01-03 02:57:12.88	141.00	19.63	-32.6	-33.6	20.4	0.00e+00	0	58	0	764411904	34	4351
2026-01-03 02:57:13.88	141.18	19.53	-32.6	-33.6	20.4	0.00e+00	0	58	0	771751936	34	4354
2026-01-03 02:57:14.89	141.35	19.44	-32.4	-33.4	20.6	0.00e+00	0	58	0	779091968	34	4258
2026-01-03 02:57:15.90	141.52	19.35	-32.3	-33.3	20.4	0.00e+00	0	59	0	786432000	34	4208
2026-01-03 02:57:16.91	141.70	19.25	-32.3	-33.3	20.6	0.00e+00	0	58	0	793772032	34	4210
2026-01-03 02:57:17.93	141.87	19.16	-32.4	-33.3	20.6	0.00e+00	0	58	0	801112064	34	4232
2026-01-03 02:57:18.94	142.04	19.07	-32.4	-33.4	20.6	0.00e+00	0	58	0	808452096	34	4243
2026-01-03 02:57:19.94	142.21	18.98	-32.3	-33.3	20.6	0.00e+00	0	58	0	815792128	34	4226
2026-01-03 02:57:20.95	142.38	18.88	-32.3	-33.3	20.7	0.00e+00	0	58	0	823132160	34	4206
2026-01-03 02:57:21.96	142.54	18.79	-32.5	-33.4	20.5	0.00e+00	0	58	0	830472192	34	4284
2026-01-03 02:57:22.97	142.71	18.70	-32.5	-33.4	20.5	0.00e+00	0	58	0	837812224	34	4288
2026-01-03 02:57:23.98	142.88	18.60	-32.5	-33.5	20.4	0.00e+00	0	58	0	845152256	34	4319
2026-01-03 02:57:24.99	143.04	18.51	-32.6	-33.6	20.4	0.00e+00	0	58	0	851443712	34	4346
2026-01-03 02:57:26.00	143.21	18.42	-32.7	-33.6	20.3	0.00e+00	0	58	0	859832320	34	4389
2026-01-03 02:57:27.01	143.37	18.33	-32.8	-33.8	20.2	0.00e+00	0	58	0	866123776	35	4198
2026-01-03 02:57:28.02	143.53	18.24	-32.8	-33.8	20.1	0.00e+00	0	58	0	873463808	35	4232
2026-01-03 02:57:29.03	143.69	18.14	-32.9	-33.9	20.0	0.00e+00	0	58	0	880803840	35	4289
2026-01-03 02:57:30.04	143.85	18.05	-32.8	-33.8	20.2	0.00e+00	0	58	0	888143872	35	4202
2026-01-03 02:57:31.05	144.01	17.96	-32.8	-33.8	20.1	0.00e+00	0	58	0	895483904	35	4209
2026-01-03 02:57:32.06	144.17	17.87	-32.8	-33.8	20.1	0.00e+00	0	58	0	902823936	35	4242
2026-01-03 02:57:33.07	144.32	17.78	-32.8	-33.9	20.0	0.00e+00	0	59	0	910163968	35	4245
2026-01-03 02:57:34.08	144.48	17.69	-32.9	-33.9	20.1	0.00e+00	0	58	0	917504000	35	4261
2026-01-03 02:57:35.09	144.64	17.60	-32.9	-33.9	20.0	0.00e+00	0	58	0	924844032	35	4253
2026-01-03 02:57:36.10	144.79	17.51	-32.8	-33.8	20.1	0.00e+00	0	59	0	932184064	35	4237
2026-01-03 02:57:37.11	144.94	17.42	-32.8	-33.8	20.0	0.00e+00	0	58	0	939524096	35	4238
2026-01-03 02:57:38.12	145.10	17.33	-32.9	-33.9	20.0	0.00e+00	0	58	0	946864128	35	4252
2026-01-03 02:57:39.13	145.25	17.23	-32.8	-33.8	20.0	0.00e+00	0	58	0	954204160	35	4222
2026-01-03 02:57:40.14	145.40	17.14	-32.8	-33.8	20.0	0.00e+00	0	58	0	961544192	35	4234
2026-01-03 02:57:41.15	145.55	17.05	-32.9	-33.9	20.0	0.00e+00	0	58	0	968884224	35	4257
2026-01-03 02:57:42.16	145.70	16.96	-32.9	-33.9	20.0	0.00e+00	0	58	0	976224256	35	4265
2026-01-03 02:57:43.17	145.85	16.87	-32.9	-33.9	20.0	0.00e+00	0	58	0	983564288	35	4257
2026-01-03 02:57:44.18	145.99	16.78	-32.9	-33.9	20.0	0.00e+00	0	58	0	990904320	35	4251
2026-01-03 02:57:45.19	146.14	16.70	-32.8	-33.8	20.0	0.00e+00	0	58	0	997195776	35	4230
2026-01-03 02:57:46.20	146.29	16.61	-32.8	-33.8	20.0	0.00e+00	0	58	0	1004535808	35	4229
2026-01-03 02:57:47.20	146.43	16.52	-32.8	-33.9	20.0	0.00e+00	0	58	0	1012924416	35	4249
2026-01-03 02:57:48.22	146.57	16.43	-32.9	-34.0	19.9	0.00e+00	0	58	0	1019215872	35	4303
2026-01-03 02:57:49.23	146.72	16.34	-33.1	-34.1	19.7	0.00e+00	0	58	0	1026555904	35	4381
2026-01-03 02:57:50.24	146.86	16.25	-33.9	-34.9	19.7	0.00e+00	0	58	0	1033895936	37	4274
2026-01-03 02:57:51.25	147.00	16.16	-34.0	-35.1	19.6	0.00e+00	0	58	0	1041235968	37	4356
2026-01-03 02:57:52.26	147.14	16.07	-34.0	-35.1	19.6	0.00e+00	0	58	0	1048576000	37	4348
2026-01-03 02:57:53.27	147.28	15.98	-34.1	-35.2	19.5	0.00e+00	0	58	0	1055916032	37	4400
2026-01-03 02:57:54.28	147.42	15.90	-34.1	-35.2	19.5	0.00e+00	0	58	0	1063256064	37	4409
2026-01-03 02:57:55.29	147.56	15.81	-34.3	-35.3	19.3	0.00e+00	0	58	0	1070596096	38	4236
2026-01-03 02:57:56.30	147.70	15.72	-34.1	-35.2	19.5	0.00e+00	0	58	0	1077936128	38	4146
2026-01-03 02:57:57.31	147.83	15.63	-34.0	-35.0	19.6	0.00e+00	0	58	0	1085276160	38	4076
2026-01-03 02:57:58.32	147.97	15.55	-33.9	-34.9	19.7	0.00e+00	0	58	0	1092616192	38	4032
2026-01-03 02:57:59.33	148.11	15.46	-33.7	-34.7	19.9	0.00e+00	0	58	0	1099956224	38	3954
2026-01-03 02:58:00.34	148.24	15.37	-33.7	-34.7	19.9	0.00e+00	0	58	0	1107296256	38	3957
2026-01-03 02:58:01.35	148.37	15.28	-33.7	-34.7	19.9	0.00e+00	0	58	0	1114636288	38	3943
2026-01-03 02:58:02.36	148.51	15.20	-33.7	-34.8	19.9	0.00e+00	0	58	0	1121976320	38	3963
2026-01-03 02:58:03.37	148.64	15.11	-33.8	-34.8	19.8	0.00e+00	0	58	0	1129316352	38	3998
2026-01-03 02:58:04.38	148.77	15.02	-33.9	-34.9	19.7	0.00e+00	0	58	0	1136656384	38	4045
2026-01-03 02:58:05.39	148.90	14.94	-34.0	-35.0	19.6	0.00e+00	0	58	0	1142947840	38	4081
2026-01-03 02:58:06.40	149.03	14.85	-34.1	-35.1	19.5	0.00e+00	0	58	0	1151336448	38	4131
2026-01-03 02:58:07.41	149.16	14.77	-34.2	-35.3	19.4	0.00e+00	0	58	0	1158676480	38	4202
2026-01-03 02:58:08.42	149.29	14.68	-34.3	-35.3	19.3	0.00e+00	0	58	0	1164967936	38	4235
2026-01-03 02:58:09.42	149.41	14.60	-34.3	-35.4	19.3	0.00e+00	0	58	0	1172307968	38	4254
2026-01-03 02:58:10.43	149.54	14.51	-34.3	-35.4	19.2	0.00e+00	0	58	0	1179648000	38	4263
2026-01-03 02:58:11.44	149.67	14.43	-34.3	-35.4	19.1	0.00e+00	0	58	0	1186988032	38	4291
2026-01-03 02:58:12.45	149.79	14.34	-34.4	-35.5	19.1	0.00e+00	0	58	0	1194328064	38	4318
2026-01-03 02:58:13.46	149.92	14.26	-34.5	-35.6	19.0	0.00e+00	0	58	0	1201668096	38	4367
2026-01-03 02:58:14.47	150.04	14.17	-34.5	-35.7	18.9	0.00e+00	0	58	0	1209008128	38	4397
2026-01-03 02:58:15.48	150.17	14.09	-34.6	-35.7	18.8	0.00e+00	0	58	0	1216348160	38	4424
2026-01-03 02:58:16.49	150.29	14.00	-34.6	-35.7	18.9	0.00e+00	0	58	0	1223688192	38	4401
2026-01-03 02:58:17.50	150.41	13.92	-34.5	-35.6	19.0	0.00e+00	0	58	0	1231028224	38	4377
2026-01-03 02:58:18.51	150.53	13.83	-34.5	-35.6	18.9	0.00e+00	0	58	0	1238368256	38	4382
2026-01-03 02:58:19.52	150.66	13.75	-34.5	-35.7	19.0	0.00e+00	0	58	0	1245708288	38	4394
2026-01-03 02:58:20.53	150.78	13.67	-34.4	-35.5	19.1	0.00e+00	0	58	0	1253048320	38	4329
2026-01-03 02:58:21.54	150.90	13.58	-34.4	-35.5	19.0	0.00e+00	0	58	0	1260388352	38	4332
2026-01-03 02:58:22.55	151.01	13.50	-34.4	-35.5	19.1	0.00e+00	0	58	0	1267728384	38	4303
2026-01-03 02:58:23.57	151.13	13.41	-34.4	-35.5	19.1	0.00e+00	0	58	0	1275068416	38	4307
2026-01-03 02:58:24.58	151.25	13.33	-34.4	-35.5	19.1	0.00e+00	0	58	0	1282408448	38	4315
2026-01-03 02:58:25.58	151.37	13.25	-34.4	-35.5	19.1	0.00e+00	0	58	0	1289748480	38	4321
2026-01-03 02:58:26.59	151.48	13.17	-34.4	-35.5	19.0	0.00e+00	0	58	0	1296039936	38	4335
2026-01-03 02:58:27.60	151.60	13.08	-34.5	-35.6	18.9	0.00e+00	0	58	0	1304428544	38	4375
2026-01-03 02:58:28.62	151.72	13.00	-34.6	-35.7	18.9	0.00e+00	0	58	0	1311768576	38	4411
2026-01-03 02:58:29.63	151.83	12.92	-34.6	-35.7	18.8	0.00e+00	0	58	0	1318060032	38	4435
2026-01-03 02:58:30.64	151.94	12.84	-34.6	-35.7	18.8	0.00e+00	0	58	0	1325400064	38	4432
2026-01-03 02:58:31.65	152.06	12.76	-34.7	-35.8	18.7	0.00e+00	0	58	0	1333788672	38	4471
2026-01-03 02:58:32.66	152.17	12.67	-34.7	-35.8	18.7	0.00e+00	0	58	0	1340080128	39	4233
2026-01-03 02:58:33.67	152.28	12.59	-34.7	-35.9	18.7	0.00e+00	0	58	0	1347420160	39	4248
2026-01-03 02:58:34.68	152.39	12.51	-34.7	-35.9	18.6	0.00e+00	0	58	0	1354760192	39	4260
2026-01-03 02:58:35.69	152.51	12.43	-34.7	-35.8	18.6	0.00e+00	0	58	0	1362100224	39	4242
2026-01-03 02:58:36.70	152.62	12.35	-34.8	-35.9	18.6	0.00e+00	0	58	0	1369440256	39	4270
2026-01-03 02:58:37.71	152.73	12.27	-34.8	-36.0	18.5	0.00e+00	0	58	0	1376780288	39	4305
2026-01-03 02:58:38.72	152.83	12.19	-34.9	-36.0	18.5	0.00e+00	0	58	0	1384120320	39	4329
2026-01-03 02:58:39.73	152.94	12.11	-34.8	-36.0	18.5	0.00e+00	0	58	0	1391460352	39	4299
2026-01-03 02:58:40.74	153.05	12.03	-34.8	-36.0	18.5	0.00e+00	0	58	0	1398800384	39	4300
2026-01-03 02:58:41.75	153.16	11.95	-34.9	-36.0	18.5	0.00e+00	0	58	0	1406140416	39	4325
2026-01-03 02:58:42.76	153.27	11.87	-34.9	-36.0	18.5	0.00e+00	0	58	0	1413480448	39	4320
2026-01-03 02:58:43.76	153.37	11.79	-34.9	-36.0	18.4	0.00e+00	0	58	0	1420820480	39	4337
2026-01-03 02:58:44.77	153.48	11.71	-34.9	-36.0	18.4	0.00e+00	0	58	0	1428160512	39	4334
2026-01-03 02:58:45.78	153.58	11.63	-34.9	-36.1	18.4	0.00e+00	0	58	0	1435500544	39	4343
2026-01-03 02:58:46.80	153.69	11.55	-34.9	-36.0	18.4	0.00e+00	0	58	0	1442840576	39	4330
2026-01-03 02:58:47.80	153.79	11.47	-34.9	-36.1	18.3	0.00e+00	0	58	0	1450180608	39	4375
2026-01-03 02:58:48.81	153.89	11.39	-35.0	-36.2	18.3	0.00e+00	0	58	0	1457520640	39	4393
2026-01-03 02:58:49.82	154.00	11.31	-35.0	-36.1	18.3	0.00e+00	0	58	0	1463812096	39	4381
2026-01-03 02:58:50.83	154.10	11.24	-35.0	-36.2	18.2	0.00e+00	0	58	0	1471152128	39	4402
2026-01-03 02:58:51.84	154.20	11.16	-35.0	-36.2	18.3	0.00e+00	0	58	0	1478492160	39	4392
2026-01-03 02:58:52.85	154.30	11.08	-35.0	-36.1	18.2	0.00e+00	0	58	0	1486880768	39	4391
2026-01-03 02:58:53.86	154.40	11.00	-35.0	-36.2	18.2	0.00e+00	0	58	0	1493172224	39	4400
2026-01-03 02:58:54.87	154.51	10.92	-35.0	-36.2	18.2	0.00e+00	0	59	0	1500512256	39	4434
2026-01-03 02:58:55.88	154.61	10.85	-35.2	-36.4	18.0	0.00e+00	0	58	0	1507852288	39	4495
2026-01-03 02:58:56.89	154.70	10.77	-35.1	-36.3	18.1	0.00e+00	0	59	0	1515192320	39	4468
2026-01-03 02:58:57.90	154.80	10.69	-35.1	-36.3	18.0	0.00e+00	0	58	0	1522532352	39	4486
2026-01-03 02:58:58.91	154.90	10.61	-35.2	-36.4	17.9	0.00e+00	0	58	0	1529872384	40	4260
2026-01-03 02:58:59.92	155.00	10.54	-35.2	-36.5	17.8	0.00e+00	0	58	0	1537212416	40	4298
2026-01-03 02:59:00.93	155.10	10.46	-35.2	-36.4	17.9	0.00e+00	0	58	0	1544552448	40	4268
2026-01-03 02:59:01.94	155.19	10.38	-35.2	-36.4	17.9	0.00e+00	0	58	0	1551892480	40	4285
2026-01-03 02:59:02.95	155.29	10.31	-35.2	-36.4	17.8	0.00e+00	0	58	0	1559232512	40	4287
2026-01-03 02:59:03.97	155.39	10.23	-35.3	-36.5	17.8	0.00e+00	0	58	0	1566572544	40	4305
2026-01-03 02:59:04.97	155.48	10.16	-35.3	-36.6	17.7	0.00e+00	0	58	0	1573912576	40	4361
2026-01-03 02:59:05.98	155.58	10.08	-35.4	-36.6	17.6	0.00e+00	0	58	0	1581252608	40	4379
2026-01-03 02:59:06.99	155.67	10.00	-35.3	-36.6	17.7	0.00e+00	0	58	0	1588592640	40	4346
2026-01-03 02:59:08.00	155.77	9.93	-35.3	-36.5	17.7	0.00e+00	0	58	0	1595932672	40	4320
2026-01-03 02:59:09.01	155.86	9.85	-35.4	-36.6	17.6	0.00e+00	0	58	0	1603272704	40	4383
2026-01-03 02:59:10.02	155.95	9.78	-35.5	-36.8	17.5	0.00e+00	0	58	0	1610612736	40	4462
2026-01-03 02:59:11.03	156.05	9.70	-35.4	-36.6	17.6	0.00e+00	0	58	0	1616904192	40	4378
2026-01-03 02:59:12.04	156.14	9.63	-35.3	-36.6	17.7	0.00e+00	0	58	0	1624244224	40	4345
2026-01-03 02:59:13.05	156.23	9.55	-35.4	-36.6	17.6	0.00e+00	0	58	0	1631584256	40	4369
2026-01-03 02:59:14.05	156.32	9.48	-35.4	-36.7	17.5	0.00e+00	0	58	0	1638924288	40	4414
2026-01-03 02:59:15.06	156.41	9.40	-35.4	-36.7	17.5	0.00e+00	0	58	0	1646264320	40	4397
2026-01-03 02:59:16.07	156.50	9.33	-35.4	-36.6	17.5	0.00e+00	0	58	0	1653604352	40	4387
2026-01-03 02:59:17.08	156.59	9.26	-35.3	-36.6	17.6	0.00e+00	0	58	0	1660944384	40	4368
2026-01-03 02:59:18.09	156.68	9.18	-35.3	-36.6	17.6	0.00e+00	0	58	0	1668284416	40	4343
2026-01-03 02:59:19.10	156.77	9.11	-35.4	-36.6	17.5	0.00e+00	0	59	0	1675624448	40	4378
2026-01-03 02:59:20.11	156.86	9.03	-35.5	-36.7	17.4	0.00e+00	0	58	0	1682964480	40	4432
2026-01-03 02:59:21.12	156.95	8.96	-35.4	-36.6	17.5	0.00e+00	0	58	0	1690304512	40	4386
2026-01-03 02:59:22.13	157.04	8.89	-35.3	-36.6	17.5	0.00e+00	0	58	0	1697644544	40	4357
2026-01-03 02:59:23.14	157.12	8.81	-35.3	-36.6	17.5	0.00e+00	0	58	0	1704984576	40	4352
2026-01-03 02:59:24.15	157.21	8.74	-35.4	-36.6	17.5	0.00e+00	0	58	0	1712324608	40	4379
2026-01-03 02:59:25.16	157.30	8.67	-35.4	-36.7	17.4	0.00e+00	0	58	0	1719664640	40	4409
2026-01-03 02:59:26.17	157.38	8.60	-35.5	-36.8	17.3	0.00e+00	0	59	0	1727004672	40	4447
2026-01-03 02:59:27.18	157.47	8.52	-35.5	-36.7	17.3	0.00e+00	0	58	0	1734344704	40	4436
2026-01-03 02:59:28.19	157.55	8.45	-35.5	-36.7	17.3	0.00e+00	0	58	0	1741684736	40	4438
2026-01-03 02:59:29.20	157.64	8.38	-35.5	-36.8	17.3	0.00e+00	0	58	0	1749024768	40	4449
2026-01-03 02:59:30.21	157.72	8.31	-35.5	-36.8	17.2	0.00e+00	0	58	0	1756364800	40	4484
2026-01-03 02:59:31.21	157.81	8.23	-35.6	-36.9	17.1	0.00e+00	0	58	0	1763704832	40	4517
2026-01-03 02:59:32.22	157.89	8.16	-35.6	-36.9	17.1	0.00e+00	0	58	0	1769996288	40	4540
2026-01-03 02:59:33.23	157.97	8.09	-35.6	-36.9	17.1	0.00e+00	0	58	0	1777336320	40	4534
2026-01-03 02:59:34.24	158.06	8.02	-35.7	-37.1	16.9	0.00e+00	0	58	0	1784676352	41	4348
2026-01-03 02:59:35.25	158.14	7.95	-44.8	-55.4	3.8	8.45e-01	0	59	104	1788870656	59	12681
2026-01-03 02:59:36.26	158.22	7.88	-45.2	-56.1	3.8	8.47e-01	0	58	104	1788870656	59	13883
2026-01-03 02:59:37.27	158.30	7.81	-45.4	-56.6	3.8	8.46e-01	0	58	104	1788870656	60	13858
2026-01-03 02:59:38.28	158.38	7.74	-45.5	-56.7	3.8	8.47e-01	0	58	104	1788870656	60	14025
2026-01-03 02:59:39.29	158.47	7.66	-45.6	-56.9	3.8	8.45e-01	0	58	104	1788870656	60	14244
2026-01-03 02:59:40.30	158.55	7.59	-45.7	-57.0	3.8	8.46e-01	0	58	104	1788870656	60	14383
2026-01-03 02:59:41.32	158.63	7.52	-45.7	-57.0	3.8	8.46e-01	0	58	104	1788870656	60	14452
2026-01-03 02:59:42.33	158.71	7.45	-45.7	-57.0	3.8	8.46e-01	0	58	104	1788870656	60	14390
2026-01-03 02:59:43.34	158.79	7.38	-45.7	-57.0	3.8	8.46e-01	0	58	104	1788870656	60	14461
2026-01-03 02:59:44.35	158.87	7.31	-45.7	-57.0	3.8	8.46e-01	0	58	104	1788870656	60	14438
2026-01-03 02:59:45.36	158.95	7.24	-45.6	-56.9	3.8	8.45e-01	0	58	104	1788870656	60	14345
2026-01-03 02:59:46.37	159.02	7.17	-45.6	-56.9	3.8	8.47e-01	0	58	104	1788870656	60	14289
2026-01-03 02:59:47.38	159.10	7.10	-45.6	-56.9	3.8	8.46e-01	0	58	104	1788870656	60	14281
2026-01-03 02:59:48.39	159.18	7.03	-45.6	-56.9	3.8	8.46e-01	0	59	104	1788870656	60	14252
2026-01-03 02:59:49.40	159.26	6.97	-45.6	-56.9	3.8	8.46e-01	0	58	104	1788870656	60	14228
2026-01-03 02:59:50.42	159.33	6.90	-45.6	-56.8	3.8	8.47e-01	0	58	104	1788870656	60	14175
2026-01-03 02:59:51.43	159.41	6.83	-45.5	-56.8	3.8	8.47e-01	0	58	104	1788870656	60	14144
2026-01-03 02:59:52.44	159.49	6.76	-45.5	-56.8	3.8	8.45e-01	0	59	104	1788870656	60	14095
2026-01-03 02:59:53.44	159.56	6.69	-45.5	-56.8	3.8	8.46e-01	0	58	104	1788870656	60	14090
2026-01-03 02:59:54.46	159.64	6.62	-45.5	-56.8	3.8	8.46e-01	0	58	104	1788870656	60	14124
2026-01-03 02:59:55.47	159.72	6.55	-45.5	-56.8	3.8	8.45e-01	0	59	104	1788870656	60	14060
2026-01-03 02:59:56.48	159.79	6.48	-45.5	-56.8	3.8	8.47e-01	0	59	104	1788870656	60	14091
2026-01-03 02:59:57.49	159.86	6.42	-45.5	-56.8	3.8	8.47e-01	0	58	104	1788870656	60	14107
2026-01-03 02:59:58.50	159.94	6.35	-45.5	-56.8	3.8	8.46e-01	0	58	104	1788870656	60	14062
2026-01-03 02:59:59.51	160.01	6.28	-45.5	-56.8	3.8	8.46e-01	0	58	104	1788870656	60	14126
2026-01-03 03:00:00.52	160.09	6.21	-45.5	-56.8	3.8	8.46e-01	0	58	104	1788870656	60	14125
2026-01-03 03:00:01.53	160.16	6.14	-45.5	-56.8	3.8	8.45e-01	0	58	104	1788870656	60	14052
2026-01-03 03:00:02.54	160.23	6.08	-45.5	-56.8	3.8	8.47e-01	0	59	104	1788870656	60	14143
2026-01-03 03:00:03.54	160.30	6.01	-45.5	-56.8	3.8	8.46e-01	0	59	104	1788870656	60	14101
2026-01-03 03:00:04.56	160.38	5.94	-45.5	-56.8	3.8	8.47e-01	0	58	104	1788870656	60	14068
2026-01-03 03:00:05.57	160.45	5.88	-45.5	-56.8	3.8	8.46e-01	0	59	104	1788870656	60	14148
2026-01-03 03:00:06.58	160.52	5.81	-45.5	-56.8	3.8	8.47e-01	0	58	104	1788870656	60	14067
2026-01-03 03:00:07.59	160.59	5.74	-45.5	-56.8	3.8	8.45e-01	0	58	104	1788870656	60	14054
2026-01-03 03:00:08.60	160.66	5.68	-45.5	-56.7	3.8	8.47e-01	0	58	104	1788870656	60	14020
2026-01-03 03:00:09.61	160.74	5.61	-45.5	-56.8	3.8	8.46e-01	0	58	104	1788870656	60	14058
2026-01-03 03:00:10.62	160.81	5.54	-45.5	-56.7	3.8	8.47e-01	0	59	104	1788870656	60	14029
2026-01-03 03:00:11.63	160.88	5.48	-45.5	-56.8	3.8	8.47e-01	0	59	104	1788870656	60	14059
2026-01-03 03:00:12.64	160.95	5.41	-45.5	-56.8	3.8	8.45e-01	0	59	104	1788870656	60	14098
2026-01-03 03:00:13.65	161.02	5.34	-45.5	-56.7	3.8	8.45e-01	0	59	104	1788870656	60	14041
2026-01-03 03:00:14.66	161.08	5.28	-45.5	-56.8	3.8	8.46e-01	0	58	104	1788870656	60	14108
2026-01-03 03:00:15.67	161.15	5.21	-45.5	-56.8	3.8	8.46e-01	0	58	104	1788870656	60	14048
2026-01-03 03:00:16.68	161.22	5.15	-45.5	-56.8	3.8	8.47e-01	0	59	104	1788870656	60	14049
2026-01-03 03:00:17.70	161.29	5.08	-45.5	-56.8	3.8	8.46e-01	0	58	104	1788870656	60	14094
2026-01-03 03:00:18.70	161.36	5.02	-45.5	-56.8	3.8	8.46e-01	0	59	104	1788870656	60	14066
2026-01-03 03:00:19.72	161.43	4.95	-45.5	-56.7	3.8	8.45e-01	0	59	104	1788870656	60	14039
2026-01-03 03:00:20.73	161.49	4.89	-45.5	-56.8	3.8	8.46e-01	0	59	104	1788870656	60	14127
2026-01-03 03:00:21.74	161.56	4.82	-45.5	-56.7	3.8	8.46e-01	0	58	104	1788870656	60	14046
2026-01-03 03:00:22.75	161.63	4.76	-45.5	-56.7	3.8	8.45e-01	0	59	104	1788870656	60	14041
2026-01-03 03:00:23.76	161.70	4.69	-45.5	-56.8	3.8	8.46e-01	0	59	104	1788870656	60	14077
2026-01-03 03:00:24.77	161.76	4.63	-45.5	-56.8	3.8	8.46e-01	0	58	104	1788870656	60	14110
2026-01-03 03:00:25.78	161.83	4.56	-45.5	-56.7	3.8	8.45e-01	0	58	104	1788870656	60	14032
2026-01-03 03:00:26.79	161.89	4.50	-45.5	-56.7	3.8	8.45e-01	0	59	104	1788870656	60	14037
2026-01-03 03:00:27.80	161.96	4.43	-45.5	-56.7	3.8	8.46e-01	0	58	104	1788870656	60	14029
2026-01-03 03:00:28.81	162.03	4.37	-45.5	-56.7	3.8	8.46e-01	0	59	104	1788870656	60	14011
2026-01-03 03:00:29.83	162.09	4.31	-45.5	-56.7	3.8	8.47e-01	0	58	104	1788870656	60	14027
2026-01-03 03:00:30.84	162.16	4.24	-45.5	-56.7	3.8	8.47e-01	0	59	104	1788870656	60	14023
2026-01-03 03:00:31.85	162.22	4.18	-45.5	-56.7	3.8	8.47e-01	0	58	104	1788870656	60	14008
2026-01-03 03:00:32.86	162.28	4.12	-45.5	-56.7	3.8	8.47e-01	0	58	104	1788870656	60	13997
2026-01-03 03:00:33.87	162.35	4.05	-45.5	-56.7	3.8	8.47e-01	0	58	104	1788870656	60	14000
2026-01-03 03:00:34.88	162.41	3.99	-45.5	-56.7	3.8	8.47e-01	0	58	104	1788870656	60	14007
2026-01-03 03:00:35.89	162.48	3.93	-45.5	-56.7	3.8	8.44e-01	0	58	104	1788870656	60	14038
2026-01-03 03:00:36.90	162.54	3.86	-45.5	-56.7	3.8	8.47e-01	0	59	104	1788870656	60	14004
2026-01-03 03:00:37.91	162.60	3.80	-45.5	-56.7	3.8	8.46e-01	0	59	104	1788870656	60	13990
2026-01-03 03:00:38.93	162.66	3.74	-45.5	-56.7	3.8	8.46e-01	0	59	104	1788870656	60	14010
2026-01-03 03:00:39.94	162.73	3.67	-45.5	-56.8	3.8	8.46e-01	0	58	104	1788870656	60	14058
2026-01-03 03:00:40.95	162.79	3.61	-45.5	-56.7	3.8	8.45e-01	0	58	104	1788870656	60	13977
2026-01-03 03:00:41.96	162.85	3.55	-45.5	-56.7	3.8	8.46e-01	0	59	104	1788870656	60	14016
2026-01-03 03:00:42.97	162.91	3.49	-45.5	-56.8	3.8	8.47e-01	0	58	104	1788870656	60	14049
2026-01-03 03:00:43.98	162.97	3.42	-45.5	-56.7	3.8	8.45e-01	0	58	104	1788870656	60	14017
2026-01-03 03:00:44.99	163.04	3.36	-45.5	-56.7	3.8	8.46e-01	0	59	104	1788870656	60	14030
2026-01-03 03:00:46.00	163.10	3.30	-45.5	-56.8	3.8	8.45e-01	0	58	104	1788870656	60	14070
2026-01-03 03:00:47.01	163.16	3.24	-45.5	-56.7	3.8	8.48e-01	0	58	104	1788870656	60	13985
2026-01-03 03:00:48.03	163.22	3.18	-45.5	-56.8	3.8	8.46e-01	0	58	104	1788870656	60	14057
2026-01-03 03:00:49.04	163.28	3.11	-45.5	-56.8	3.8	8.45e-01	0	59	104	1788870656	60	14132
2026-01-03 03:00:50.05	163.34	3.05	-45.5	-56.7	3.8	8.47e-01	0	58	104	1788870656	60	14044
2026-01-03 03:00:51.06	163.40	2.99	-45.5	-56.7	3.8	8.47e-01	0	59	104	1788870656	60	14033
2026-01-03 03:00:52.07	163.46	2.93	-45.5	-56.7	3.8	8.47e-01	0	59	104	1788870656	60	14044
2026-01-03 03:00:53.08	163.52	2.87	-45.5	-56.7	3.8	8.47e-01	0	58	104	1788870656	60	13985
2026-01-03 03:00:54.09	163.58	2.81	-45.5	-56.7	3.8	8.46e-01	0	59	104	1788870656	60	14041
2026-01-03 03:00:55.10	163.63	2.75	-45.5	-56.7	3.8	8.46e-01	0	58	104	1788870656	60	13950
2026-01-03 03:00:56.11	163.69	2.69	-45.5	-56.7	3.8	8.46e-01	0	58	104	1788870656	60	14022
2026-01-03 03:00:57.12	163.75	2.62	-45.5	-56.8	3.8	8.45e-01	0	59	104	1788870656	60	14053
2026-01-03 03:00:58.14	163.81	2.56	-45.4	-56.7	3.8	8.46e-01	0	59	104	1788870656	60	13944
2026-01-03 03:00:59.15	163.87	2.50	-45.5	-56.7	3.8	8.46e-01	0	59	104	1788870656	60	14026
2026-01-03 03:01:00.16	163.92	2.44	-45.5	-56.8	3.8	8.47e-01	0	58	104	1788870656	60	14083
2026-01-03 03:01:01.17	163.98	2.38	-45.5	-56.7	3.8	8.45e-01	0	59	104	1788870656	60	13979
2026-01-03 03:01:02.18	164.04	2.32	-45.5	-56.7	3.8	8.46e-01	0	59	104	1788870656	60	14038
2026-01-03 03:01:03.19	164.10	2.26	-45.5	-56.8	3.8	8.46e-01	0	58	104	1788870656	60	14056
2026-01-03 03:01:04.20	164.15	2.20	-45.4	-56.8	3.8	8.46e-01	0	59	104	1788870656	60	14082
2026-01-03 03:01:05.21	164.21	2.14	-45.5	-56.8	3.8	8.45e-01	0	59	104	1788870656	60	14076
2026-01-03 03:01:06.22	164.27	2.08	-45.5	-56.8	3.8	8.45e-01	0	58	104	1788870656	60	14073
2026-01-03 03:01:07.23	164.32	2.02	-45.5	-56.7	3.8	8.47e-01	0	59	104	1788870656	60	13978
2026-01-03 03:01:08.24	164.38	1.96	-45.5	-56.7	3.8	8.46e-01	0	59	104	1788870656	60	13985

#Closed at: 2026-01-03 03:01:08
#Recorded file [1788 MB]: D:/lorett/data/31039_260103_055436.dat