passes_logs/2026/01/03/R2.0S_Moscow/R2.0S_Moscow__20260103_141808_FENGYUN_3E_rec.log

#Pass ID: 20260103_141808_FENGYUN 3E
#Satellite: FENGYUN 3E
#Configuration: FENGYUN 3E
#almurnet v.1.7.20251203
#Start time: 2026-01-03 14:18:09

#Version: 2.2.20231116
#Station: R2.0S_Moscow
#Location: 37.707566 lon 55.798166 lat
#TLE: 1 49008U 21062A   26002.95568549 -.00000227  00000+0 -86494-4 0  9990
#TLE: 2 49008  98.7475   8.2258 0001442 163.3458 196.7766 14.19882681233131

#Time	Az	El	Level	Level2	SNR	BER	BlckErr	Temp	State	Recorded	gain1	gain2
2026-01-03 14:18:09.66	163.61	2.08	-44.4	-55.3	3.8	8.47e-01	0	47	0	0	58	13412
2026-01-03 14:18:10.66	163.62	2.14	-44.4	-55.4	3.8	8.46e-01	0	48	104	0	58	13417
2026-01-03 14:18:11.67	163.63	2.21	-44.4	-55.3	3.8	8.46e-01	0	48	104	0	58	13410
2026-01-03 14:18:12.68	163.64	2.27	-44.4	-55.3	3.8	8.46e-01	0	48	104	0	58	13413
2026-01-03 14:18:13.70	163.64	2.34	-44.4	-55.3	3.8	8.46e-01	0	48	104	0	58	13374
2026-01-03 14:18:14.71	163.65	2.40	-44.4	-55.3	3.8	8.46e-01	0	48	104	0	58	13386
2026-01-03 14:18:15.72	163.66	2.47	-44.3	-55.3	3.8	8.45e-01	0	48	104	0	58	13406
2026-01-03 14:18:16.73	163.66	2.54	-44.1	-55.3	3.8	8.45e-01	0	48	104	0	58	13348
2026-01-03 14:18:17.74	163.67	2.60	-44.4	-55.3	3.8	8.46e-01	0	48	104	0	58	13393
2026-01-03 14:18:18.75	163.68	2.67	-44.4	-55.3	3.8	8.46e-01	0	48	104	0	58	13377
2026-01-03 14:18:19.76	163.69	2.74	-44.3	-55.3	3.8	8.46e-01	0	48	104	0	58	13365
2026-01-03 14:18:20.77	163.69	2.80	-44.4	-55.3	3.8	8.46e-01	0	49	104	0	58	13398
2026-01-03 14:18:21.78	163.70	2.87	-44.4	-55.3	3.8	8.47e-01	0	48	104	0	58	13386
2026-01-03 14:18:22.79	163.71	2.94	-44.4	-55.3	3.8	8.47e-01	0	49	104	0	58	13379
2026-01-03 14:18:23.80	163.72	3.00	-44.2	-55.3	3.8	8.46e-01	0	49	104	0	58	13366
2026-01-03 14:18:24.81	163.72	3.07	-44.3	-55.3	3.8	8.45e-01	0	49	104	0	58	13361
2026-01-03 14:18:25.83	163.73	3.14	-44.4	-55.3	3.8	8.45e-01	0	49	104	0	58	13377
2026-01-03 14:18:26.84	163.74	3.21	-44.4	-55.3	3.8	8.46e-01	0	49	104	0	58	13356
2026-01-03 14:18:27.85	163.75	3.27	-44.3	-55.3	3.8	8.47e-01	0	49	104	0	58	13357
2026-01-03 14:18:28.86	163.75	3.34	-44.4	-55.3	3.8	8.47e-01	0	49	104	0	58	13396
2026-01-03 14:18:29.87	163.76	3.41	-44.4	-55.3	3.8	8.46e-01	0	49	104	0	58	13378
2026-01-03 14:18:30.88	163.77	3.48	-44.4	-55.3	3.8	8.47e-01	0	49	104	0	58	13379
2026-01-03 14:18:31.89	163.78	3.55	-44.4	-55.3	3.8	8.46e-01	0	49	104	0	58	13360
2026-01-03 14:18:32.90	163.78	3.62	-44.4	-55.3	3.8	8.46e-01	0	49	104	0	58	13327
2026-01-03 14:18:33.91	163.79	3.69	-44.4	-55.3	3.8	8.47e-01	0	49	104	0	58	13343
2026-01-03 14:18:34.93	163.80	3.76	-44.4	-55.3	3.8	8.48e-01	0	49	104	0	58	13355
2026-01-03 14:18:35.94	163.81	3.82	-44.4	-55.3	3.8	8.46e-01	0	49	104	0	58	13283
2026-01-03 14:18:36.95	163.81	3.89	-44.4	-55.3	3.8	8.46e-01	0	50	104	0	58	13284
2026-01-03 14:18:37.96	163.82	3.96	-44.4	-55.3	3.8	8.45e-01	0	50	104	0	58	13287
2026-01-03 14:18:38.97	163.83	4.03	-44.3	-55.3	3.8	8.46e-01	0	50	104	0	58	13297
2026-01-03 14:18:39.98	163.84	4.10	-44.4	-55.3	3.8	8.47e-01	0	50	104	0	58	13271
2026-01-03 14:18:40.99	163.84	4.17	-44.4	-55.2	3.8	8.45e-01	0	50	104	0	58	13190
2026-01-03 14:18:42.00	163.85	4.24	-44.4	-55.2	3.8	8.46e-01	0	50	104	0	58	13171
2026-01-03 14:18:43.01	163.86	4.31	-44.4	-55.2	3.8	8.47e-01	0	50	104	0	58	13136
2026-01-03 14:18:44.02	163.87	4.38	-44.4	-55.1	3.8	8.46e-01	0	50	104	0	58	13082
2026-01-03 14:18:45.04	163.88	4.46	-44.4	-55.1	3.8	8.45e-01	0	50	104	0	58	13005
2026-01-03 14:18:46.05	163.88	4.53	-44.3	-55.0	3.8	8.46e-01	0	50	104	0	58	12857
2026-01-03 14:18:47.06	163.89	4.60	-44.4	-54.9	3.8	8.47e-01	0	50	104	0	58	12790
2026-01-03 14:18:48.07	163.90	4.67	-44.3	-54.9	3.8	8.46e-01	0	50	104	0	58	12704
2026-01-03 14:18:49.08	163.91	4.74	-44.3	-54.9	3.8	8.47e-01	0	50	104	0	58	12665
2026-01-03 14:18:50.09	163.92	4.81	-44.3	-54.8	3.8	8.45e-01	0	50	104	0	58	12609
2026-01-03 14:18:51.10	163.92	4.89	-44.3	-54.7	3.8	8.47e-01	0	50	104	0	58	12470
2026-01-03 14:18:52.11	163.93	4.96	-44.3	-54.5	3.8	8.46e-01	0	50	104	0	58	12231
2026-01-03 14:18:53.12	163.94	5.03	-44.2	-54.4	3.8	8.47e-01	0	50	104	0	58	12002
2026-01-03 14:18:54.13	163.95	5.10	-44.2	-54.1	3.8	8.46e-01	0	50	104	0	58	11670
2026-01-03 14:18:55.15	163.96	5.18	-44.2	-54.0	3.8	8.46e-01	0	51	104	0	57	12211
2026-01-03 14:18:56.16	163.96	5.25	-44.2	-54.0	3.8	8.46e-01	0	51	104	0	57	12125
2026-01-03 14:18:57.17	163.97	5.32	-44.2	-53.8	3.8	8.45e-01	0	51	104	0	57	11893
2026-01-03 14:18:58.18	163.98	5.40	-44.1	-53.7	3.9	8.47e-01	0	51	104	0	57	11729
2026-01-03 14:18:59.19	163.99	5.47	-44.1	-53.4	3.8	8.45e-01	0	51	104	0	57	11387
2026-01-03 14:19:00.20	164.00	5.54	-43.9	-53.1	3.9	8.45e-01	0	51	104	0	57	10960
2026-01-03 14:19:01.21	164.01	5.62	-44.0	-53.1	3.8	8.45e-01	0	51	104	0	57	10920
2026-01-03 14:19:02.22	164.01	5.69	-44.1	-53.2	3.8	8.46e-01	0	51	104	0	57	11140
2026-01-03 14:19:03.23	164.02	5.77	-44.1	-53.6	3.9	8.45e-01	0	51	104	0	57	11597
2026-01-03 14:19:04.24	164.03	5.84	-44.1	-53.9	3.8	8.47e-01	0	51	104	0	57	12009
2026-01-03 14:19:05.25	164.04	5.92	-44.2	-54.2	3.8	8.45e-01	0	51	104	0	57	12410
2026-01-03 14:19:06.26	164.05	5.99	-44.3	-54.5	3.8	8.47e-01	0	51	104	0	58	12175
2026-01-03 14:19:07.28	164.06	6.07	-44.2	-54.6	3.8	8.46e-01	0	51	104	0	58	12354
2026-01-03 14:19:08.29	164.07	6.14	-44.3	-54.7	3.8	8.46e-01	0	51	104	0	58	12451
2026-01-03 14:19:09.30	164.07	6.22	-44.3	-54.9	3.8	8.46e-01	0	51	104	0	58	12720
2026-01-03 14:19:10.31	164.08	6.29	-44.3	-55.2	3.8	8.47e-01	0	52	104	0	58	13136
2026-01-03 14:19:11.32	164.09	6.37	-44.3	-55.2	3.8	8.46e-01	0	51	104	0	58	13187
2026-01-03 14:19:12.33	164.10	6.45	-44.3	-55.3	3.8	8.46e-01	0	52	104	0	58	13272
2026-01-03 14:19:13.34	164.11	6.52	-44.3	-55.0	3.8	8.47e-01	0	51	104	0	58	12934
2026-01-03 14:19:14.35	164.12	6.60	-44.3	-54.9	3.8	8.46e-01	0	52	104	0	58	12710
2026-01-03 14:19:15.36	164.13	6.68	-44.2	-54.2	3.8	8.46e-01	0	52	104	0	58	11698
2026-01-03 14:19:16.37	164.13	6.76	-44.1	-53.7	3.8	8.45e-01	0	52	104	0	58	11063
2026-01-03 14:19:17.39	164.14	6.83	-43.9	-52.4	4.0	8.44e-01	0	52	0	0	58	9515
2026-01-03 14:19:18.40	164.15	6.91	-43.7	-51.5	4.2	8.39e-01	0	52	0	0	58	8627
2026-01-03 14:19:19.41	164.16	6.99	-43.3	-49.9	4.9	7.96e-01	0	52	0	0	57	7572
2026-01-03 14:19:20.42	164.17	7.07	-43.0	-48.9	5.5	7.38e-01	0	52	0	0	57	6739
2026-01-03 14:19:21.43	164.18	7.15	-42.5	-47.5	6.5	2.45e-01	0	52	0	5242880	56	6097
2026-01-03 14:19:22.44	164.19	7.22	-41.8	-46.3	7.5	1.37e-01	0	52	0	12582912	54	5958
2026-01-03 14:19:23.45	164.20	7.30	-41.2	-45.1	8.6	4.70e-02	0	52	0	19922944	53	5518
2026-01-03 14:19:24.46	164.21	7.38	-40.5	-44.0	9.8	1.49e-02	0	52	0	27262976	52	5104
2026-01-03 14:19:25.47	164.22	7.46	-40.2	-43.4	10.5	4.94e-03	0	52	0	34603008	51	5061
2026-01-03 14:19:26.48	164.22	7.54	-39.6	-42.6	11.3	1.42e-03	0	52	0	41943040	50	4902
2026-01-03 14:19:27.49	164.23	7.62	-39.0	-41.7	12.2	5.13e-04	0	52	0	49283072	49	4672
2026-01-03 14:19:28.51	164.24	7.70	-38.6	-41.2	12.7	8.92e-05	0	52	0	56623104	48	4685
2026-01-03 14:19:29.52	164.25	7.78	-37.9	-40.3	13.4	2.97e-05	0	52	0	63963136	46	4732
2026-01-03 14:19:30.53	164.26	7.86	-37.4	-39.8	13.9	1.02e-05	0	52	0	71303168	45	4706
2026-01-03 14:19:31.54	164.27	7.95	-37.3	-39.6	14.1	3.40e-06	0	52	0	78643200	45	4633
2026-01-03 14:19:32.55	164.28	8.03	-36.9	-39.1	14.6	0.00e+00	0	52	0	85983232	44	4638
2026-01-03 14:19:33.56	164.29	8.11	-38.3	-40.9	13.0	0.00e+00	0	53	0	93323264	46	5070
2026-01-03 14:19:34.57	164.30	8.19	-41.8	-46.1	7.9	3.84e-02	0	52	0	100663296	53	6147
2026-01-03 14:19:35.58	164.31	8.27	-36.6	-38.8	14.9	5.44e-03	0	53	0	108003328	44	4475
2026-01-03 14:19:36.59	164.32	8.36	-39.9	-43.0	10.9	7.18e-03	0	53	0	115343360	50	5133
2026-01-03 14:19:37.60	164.33	8.44	-36.7	-38.9	14.8	3.82e-04	0	53	0	121634816	44	4502
2026-01-03 14:19:38.61	164.34	8.52	-36.8	-39.0	14.7	0.00e+00	0	53	0	128974848	44	4551
2026-01-03 14:19:39.62	164.35	8.60	-36.2	-38.4	15.1	0.00e+00	0	53	0	137363456	43	4505
2026-01-03 14:19:40.63	164.36	8.69	-36.3	-38.4	15.1	0.00e+00	0	53	0	143654912	43	4528
2026-01-03 14:19:41.64	164.37	8.77	-36.2	-38.3	15.2	0.00e+00	0	53	0	150994944	43	4481
2026-01-03 14:19:42.65	164.38	8.86	-36.3	-38.4	15.1	0.00e+00	0	53	0	158334976	43	4540
2026-01-03 14:19:43.65	164.39	8.94	-36.1	-38.2	15.3	0.00e+00	0	53	0	165675008	43	4417
2026-01-03 14:19:44.66	164.40	9.02	-36.1	-38.2	15.3	1.10e-06	0	53	0	173015040	42	4688
2026-01-03 14:19:45.67	164.41	9.11	-36.1	-38.3	15.3	0.00e+00	0	53	0	180355072	42	4707
2026-01-03 14:19:46.68	164.42	9.19	-36.3	-38.4	15.1	0.00e+00	0	53	0	187695104	42	4811
2026-01-03 14:19:47.70	164.43	9.28	-36.2	-38.3	15.2	0.00e+00	0	53	0	195035136	42	4736
2026-01-03 14:19:48.71	164.44	9.37	-36.3	-38.5	15.1	0.00e+00	0	53	0	202375168	42	4837
2026-01-03 14:19:49.72	164.45	9.45	-36.2	-38.3	15.3	0.00e+00	0	53	0	209715200	42	4747
2026-01-03 14:19:50.73	164.46	9.54	-36.1	-38.2	15.4	0.00e+00	0	53	0	217055232	42	4655
2026-01-03 14:19:51.74	164.47	9.62	-36.1	-38.3	15.3	0.00e+00	0	53	0	224395264	42	4716
2026-01-03 14:19:52.75	164.48	9.71	-35.9	-38.0	15.6	1.10e-06	0	53	0	231735296	42	4559
2026-01-03 14:19:53.76	164.49	9.80	-35.9	-37.9	15.7	0.00e+00	0	53	0	239075328	42	4536
2026-01-03 14:19:54.77	164.50	9.89	-35.9	-38.0	15.7	0.00e+00	0	53	0	246415360	42	4559
2026-01-03 14:19:55.78	164.51	9.97	-35.9	-38.0	15.6	0.00e+00	0	53	0	253755392	42	4590
2026-01-03 14:19:56.79	164.52	10.06	-35.9	-38.0	15.7	0.00e+00	0	53	0	261095424	42	4576
2026-01-03 14:19:57.80	164.53	10.15	-35.8	-37.8	15.8	0.00e+00	0	53	0	267386880	42	4462
2026-01-03 14:19:58.81	164.54	10.24	-35.9	-37.9	15.7	0.00e+00	0	53	0	274726912	42	4531
2026-01-03 14:19:59.81	164.55	10.33	-35.9	-38.0	15.7	0.00e+00	0	53	0	283115520	42	4571
2026-01-03 14:20:00.82	164.56	10.42	-35.9	-38.0	15.7	0.00e+00	0	54	0	289406976	42	4574
2026-01-03 14:20:01.83	164.57	10.51	-35.9	-38.0	15.7	0.00e+00	0	53	0	296747008	42	4559
2026-01-03 14:20:02.84	164.58	10.60	-36.0	-38.0	15.7	0.00e+00	0	53	0	304087040	42	4593
2026-01-03 14:20:03.85	164.59	10.69	-36.0	-38.1	15.6	0.00e+00	0	53	0	311427072	42	4615
2026-01-03 14:20:04.86	164.60	10.78	-36.1	-38.2	15.5	0.00e+00	0	53	0	318767104	42	4677
2026-01-03 14:20:05.87	164.61	10.87	-36.0	-38.1	15.6	0.00e+00	0	54	0	326107136	42	4615
2026-01-03 14:20:06.88	164.62	10.96	-36.0	-38.0	15.7	0.00e+00	0	53	0	333447168	42	4586
2026-01-03 14:20:07.89	164.63	11.05	-36.1	-38.2	15.6	0.00e+00	0	54	0	340787200	42	4665
2026-01-03 14:20:08.90	164.64	11.15	-36.1	-38.2	15.5	0.00e+00	0	53	0	348127232	42	4691
2026-01-03 14:20:09.92	164.66	11.24	-36.2	-38.3	15.4	0.00e+00	0	54	0	355467264	42	4726
2026-01-03 14:20:10.93	164.67	11.33	-36.3	-38.4	15.3	0.00e+00	0	54	0	362807296	42	4799
2026-01-03 14:20:11.94	164.68	11.43	-36.2	-38.3	15.5	0.00e+00	0	54	0	370147328	42	4740
2026-01-03 14:20:12.95	164.69	11.52	-36.2	-38.3	15.5	0.00e+00	0	54	0	377487360	42	4721
2026-01-03 14:20:13.96	164.70	11.61	-36.1	-38.2	15.6	0.00e+00	0	54	0	384827392	42	4695
2026-01-03 14:20:14.97	164.71	11.71	-36.1	-38.2	15.6	0.00e+00	0	54	0	392167424	42	4655
2026-01-03 14:20:15.98	164.72	11.80	-35.9	-37.9	15.9	0.00e+00	0	54	0	399507456	42	4515
2026-01-03 14:20:16.99	164.73	11.90	-35.9	-38.0	15.8	0.00e+00	0	54	0	406847488	42	4560
2026-01-03 14:20:18.00	164.75	11.99	-35.8	-37.8	16.0	0.00e+00	0	54	0	414187520	42	4484
2026-01-03 14:20:19.01	164.76	12.09	-35.8	-37.9	15.9	0.00e+00	0	54	0	420478976	42	4505
2026-01-03 14:20:20.02	164.77	12.18	-35.6	-37.6	16.2	0.00e+00	0	54	0	428867584	42	4372
2026-01-03 14:20:21.03	164.78	12.28	-35.6	-37.6	16.2	0.00e+00	0	54	0	436207616	42	4376
2026-01-03 14:20:22.03	164.79	12.38	-35.5	-37.5	16.3	0.00e+00	0	54	0	442499072	42	4303
2026-01-03 14:20:23.04	164.80	12.47	-35.5	-37.5	16.3	0.00e+00	0	54	0	449839104	41	4555
2026-01-03 14:20:24.05	164.81	12.57	-35.6	-37.6	16.2	0.00e+00	0	54	0	457179136	41	4607
2026-01-03 14:20:25.06	164.83	12.67	-35.5	-37.4	16.4	0.00e+00	0	54	0	464519168	41	4540
2026-01-03 14:20:26.07	164.84	12.77	-35.5	-37.5	16.4	0.00e+00	0	54	0	471859200	41	4549
2026-01-03 14:20:27.08	164.85	12.87	-35.3	-37.2	16.6	0.00e+00	0	54	0	479199232	41	4427
2026-01-03 14:20:28.09	164.86	12.97	-35.3	-37.2	16.6	0.00e+00	0	54	0	486539264	41	4431
2026-01-03 14:20:29.10	164.87	13.07	-35.4	-37.3	16.5	0.00e+00	0	54	0	493879296	41	4486
2026-01-03 14:20:30.11	164.89	13.17	-35.3	-37.2	16.6	0.00e+00	0	54	0	501219328	41	4410
2026-01-03 14:20:31.12	164.90	13.27	-35.1	-37.0	16.8	0.00e+00	0	54	0	508559360	41	4340
2026-01-03 14:20:32.13	164.91	13.37	-35.2	-37.1	16.7	0.00e+00	0	54	0	515899392	41	4354
2026-01-03 14:20:33.14	164.92	13.47	-35.2	-37.1	16.8	0.00e+00	0	54	0	523239424	41	4349
2026-01-03 14:20:34.15	164.94	13.57	-35.2	-37.1	16.7	0.00e+00	0	54	0	530579456	41	4385
2026-01-03 14:20:35.16	164.95	13.67	-35.0	-36.9	16.9	0.00e+00	0	54	0	537919488	41	4281
2026-01-03 14:20:36.17	164.96	13.78	-35.1	-37.0	16.8	0.00e+00	0	54	0	545259520	41	4335
2026-01-03 14:20:37.18	164.97	13.88	-35.1	-37.0	16.8	0.00e+00	0	54	0	552599552	41	4321
2026-01-03 14:20:38.19	164.99	13.98	-35.1	-37.0	16.8	0.00e+00	0	54	0	559939584	41	4322
2026-01-03 14:20:39.20	165.00	14.09	-35.0	-36.8	17.1	0.00e+00	0	54	0	567279616	40	4478
2026-01-03 14:20:40.21	165.01	14.19	-35.1	-37.0	16.9	0.00e+00	0	54	0	574619648	40	4551
2026-01-03 14:20:41.22	165.02	14.30	-35.0	-36.9	16.9	0.00e+00	0	54	0	581959680	40	4527
2026-01-03 14:20:42.23	165.04	14.40	-35.0	-36.9	17.0	0.00e+00	0	54	0	589299712	40	4495
2026-01-03 14:20:43.24	165.05	14.51	-35.0	-36.8	17.0	0.00e+00	0	55	0	595591168	40	4488
2026-01-03 14:20:44.25	165.06	14.61	-35.0	-36.8	17.1	0.00e+00	0	54	0	602931200	40	4474
2026-01-03 14:20:45.26	165.08	14.72	-34.9	-36.8	17.1	0.00e+00	0	55	0	610271232	40	4454
2026-01-03 14:20:46.27	165.09	14.83	-34.9	-36.8	17.1	0.00e+00	0	55	0	617611264	40	4457
2026-01-03 14:20:47.28	165.10	14.93	-34.8	-36.6	17.3	0.00e+00	0	54	0	624951296	40	4349
2026-01-03 14:20:48.29	165.12	15.04	-34.9	-36.7	17.2	0.00e+00	0	55	0	632291328	40	4421
2026-01-03 14:20:49.30	165.13	15.15	-35.0	-36.8	17.1	0.00e+00	0	55	0	639631360	40	4477
2026-01-03 14:20:50.31	165.14	15.26	-35.1	-36.9	17.0	0.00e+00	0	54	0	646971392	40	4529
2026-01-03 14:20:51.32	165.16	15.37	-34.9	-36.7	17.2	0.00e+00	0	55	0	654311424	40	4426
2026-01-03 14:20:52.33	165.17	15.48	-34.8	-36.7	17.2	0.00e+00	0	54	0	661651456	40	4404
2026-01-03 14:20:53.34	165.18	15.59	-34.7	-36.5	17.4	0.00e+00	0	55	0	668991488	40	4322
2026-01-03 14:20:54.35	165.20	15.70	-34.8	-36.7	17.2	0.00e+00	0	55	0	676331520	40	4405
2026-01-03 14:20:55.36	165.21	15.81	-34.8	-36.6	17.3	0.00e+00	0	55	0	683671552	40	4372
2026-01-03 14:20:56.37	165.23	15.93	-34.8	-36.7	17.2	0.00e+00	0	55	0	691011584	40	4396
2026-01-03 14:20:57.38	165.24	16.04	-34.7	-36.5	17.4	0.00e+00	0	55	0	698351616	40	4301
2026-01-03 14:20:58.39	165.25	16.15	-34.8	-36.7	17.2	0.00e+00	0	54	0	705691648	40	4393
2026-01-03 14:20:59.41	165.27	16.27	-34.7	-36.5	17.4	0.00e+00	0	55	0	713031680	40	4332
2026-01-03 14:21:00.42	165.28	16.38	-34.7	-36.6	17.3	0.00e+00	0	55	0	720371712	40	4344
2026-01-03 14:21:01.43	165.30	16.50	-34.6	-36.4	17.5	0.00e+00	0	55	0	727711744	40	4272
2026-01-03 14:21:02.44	165.31	16.61	-34.7	-36.5	17.4	0.00e+00	0	55	0	735051776	40	4333
2026-01-03 14:21:03.45	165.33	16.73	-34.7	-36.5	17.4	0.00e+00	0	55	0	741343232	40	4313
2026-01-03 14:21:04.46	165.34	16.84	-34.6	-36.4	17.5	0.00e+00	0	55	0	748683264	40	4254
2026-01-03 14:21:05.47	165.36	16.96	-34.6	-36.4	17.5	0.00e+00	0	55	0	757071872	40	4288
2026-01-03 14:21:06.48	165.37	17.08	-34.6	-36.4	17.5	0.00e+00	0	55	0	763363328	40	4259
2026-01-03 14:21:07.49	165.39	17.20	-34.5	-36.3	17.6	0.00e+00	0	55	0	770703360	40	4214
2026-01-03 14:21:08.50	165.40	17.31	-34.6	-36.5	17.5	0.00e+00	0	55	0	778043392	39	4546
2026-01-03 14:21:09.51	165.42	17.43	-34.7	-36.5	17.5	0.00e+00	0	55	0	785383424	39	4553
2026-01-03 14:21:10.52	165.43	17.55	-34.6	-36.4	17.6	0.00e+00	0	55	0	792723456	39	4527
2026-01-03 14:21:11.54	165.45	17.67	-34.7	-36.5	17.5	0.00e+00	0	55	0	800063488	39	4554
2026-01-03 14:21:12.55	165.46	17.80	-34.6	-36.4	17.6	0.00e+00	0	55	0	807403520	39	4502
2026-01-03 14:21:13.56	165.48	17.92	-34.6	-36.4	17.6	0.00e+00	0	55	0	814743552	39	4515
2026-01-03 14:21:14.57	165.49	18.04	-34.6	-36.3	17.6	0.00e+00	0	55	0	822083584	39	4485
2026-01-03 14:21:15.58	165.51	18.16	-34.6	-36.4	17.6	0.00e+00	0	55	0	829423616	39	4525
2026-01-03 14:21:16.59	165.53	18.29	-34.6	-36.3	17.6	0.00e+00	0	55	0	836763648	39	4484
2026-01-03 14:21:17.60	165.54	18.41	-34.5	-36.3	17.7	0.00e+00	0	55	0	844103680	39	4470
2026-01-03 14:21:18.61	165.56	18.53	-34.6	-36.5	17.5	0.00e+00	0	55	0	851443712	39	4560
2026-01-03 14:21:19.62	165.57	18.66	-34.5	-36.3	17.7	0.00e+00	0	55	0	858783744	39	4462
2026-01-03 14:21:20.63	165.59	18.79	-34.5	-36.3	17.7	0.00e+00	0	55	0	866123776	39	4478
2026-01-03 14:21:21.64	165.61	18.91	-34.3	-36.0	18.0	0.00e+00	0	55	0	873463808	39	4321
2026-01-03 14:21:22.64	165.62	19.04	-34.4	-36.1	17.9	0.00e+00	0	55	0	880803840	39	4362
2026-01-03 14:21:23.65	165.64	19.17	-34.3	-36.0	17.9	0.00e+00	0	55	0	888143872	39	4339
2026-01-03 14:21:24.66	165.66	19.30	-34.3	-36.1	17.9	0.00e+00	0	55	0	895483904	39	4361
2026-01-03 14:21:25.67	165.67	19.42	-34.2	-35.9	18.0	0.00e+00	0	55	0	902823936	39	4280
2026-01-03 14:21:26.68	165.69	19.55	-34.2	-35.9	18.1	0.00e+00	0	55	0	910163968	39	4255
2026-01-03 14:21:27.69	165.71	19.68	-34.2	-35.9	18.1	0.00e+00	0	55	0	916455424	39	4250
2026-01-03 14:21:28.70	165.72	19.82	-34.1	-35.8	18.2	0.00e+00	0	55	0	923795456	39	4212
2026-01-03 14:21:29.72	165.74	19.95	-34.0	-35.7	18.3	0.00e+00	0	55	0	932184064	39	4167
2026-01-03 14:21:30.73	165.76	20.08	-34.0	-35.7	18.3	0.00e+00	0	55	0	938475520	38	4402
2026-01-03 14:21:31.73	165.78	20.21	-34.0	-35.7	18.2	0.00e+00	0	55	0	945815552	38	4414
2026-01-03 14:21:32.74	165.79	20.35	-33.8	-35.5	18.4	0.00e+00	0	55	0	953155584	38	4321
2026-01-03 14:21:33.75	165.81	20.48	-33.8	-35.4	18.5	0.00e+00	0	55	0	960495616	38	4286
2026-01-03 14:21:34.77	165.83	20.62	-33.8	-35.5	18.5	0.00e+00	0	55	0	967835648	38	4296
2026-01-03 14:21:35.78	165.85	20.76	-33.8	-35.4	18.5	0.00e+00	0	55	0	975175680	38	4278
2026-01-03 14:21:36.79	165.87	20.89	-33.7	-35.3	18.6	0.00e+00	0	55	0	982515712	38	4229
2026-01-03 14:21:37.80	165.88	21.03	-33.7	-35.3	18.6	0.00e+00	0	55	0	989855744	38	4228
2026-01-03 14:21:38.81	165.90	21.17	-33.7	-35.3	18.5	0.00e+00	0	55	0	997195776	38	4241
2026-01-03 14:21:39.82	165.92	21.31	-33.7	-35.4	18.5	0.00e+00	0	55	0	1004535808	38	4268
2026-01-03 14:21:40.83	165.94	21.45	-33.7	-35.4	18.5	0.00e+00	0	55	0	1011875840	38	4254
2026-01-03 14:21:41.84	165.96	21.59	-33.6	-35.3	18.6	0.00e+00	0	55	0	1019215872	38	4227
2026-01-03 14:21:42.85	165.98	21.73	-33.8	-35.5	18.4	0.00e+00	0	55	0	1026555904	38	4310
2026-01-03 14:21:43.86	166.00	21.87	-33.6	-35.3	18.6	0.00e+00	0	55	0	1033895936	38	4197
2026-01-03 14:21:44.87	166.02	22.02	-33.6	-35.3	18.6	0.00e+00	0	55	0	1041235968	38	4213
2026-01-03 14:21:45.88	166.04	22.16	-33.6	-35.3	18.6	0.00e+00	0	55	0	1048576000	38	4207
2026-01-03 14:21:46.89	166.06	22.31	-33.6	-35.3	18.5	0.00e+00	0	56	0	1055916032	38	4232
2026-01-03 14:21:47.90	166.08	22.45	-33.7	-35.4	18.5	0.00e+00	0	55	0	1062207488	38	4263
2026-01-03 14:21:48.91	166.10	22.60	-33.6	-35.3	18.5	0.00e+00	0	55	0	1069547520	38	4230
2026-01-03 14:21:49.92	166.12	22.75	-33.7	-35.4	18.4	0.00e+00	0	56	0	1077936128	37	4518
2026-01-03 14:21:50.93	166.14	22.89	-33.5	-35.3	18.5	0.00e+00	0	56	0	1084227584	37	4445
2026-01-03 14:21:51.94	166.16	23.04	-33.6	-35.3	18.5	0.00e+00	0	55	0	1091567616	37	4466
2026-01-03 14:21:52.95	166.18	23.19	-33.5	-35.2	18.6	0.00e+00	0	56	0	1098907648	37	4399
2026-01-03 14:21:53.96	166.20	23.34	-33.6	-35.3	18.5	0.00e+00	0	56	0	1106247680	37	4483
2026-01-03 14:21:54.97	166.22	23.50	-33.6	-35.3	18.5	0.00e+00	0	56	0	1113587712	37	4473
2026-01-03 14:21:55.98	166.24	23.65	-33.6	-35.3	18.5	0.00e+00	0	56	0	1120927744	37	4479
2026-01-03 14:21:56.99	166.26	23.80	-33.5	-35.3	18.5	0.00e+00	0	56	0	1128267776	37	4442
2026-01-03 14:21:58.00	166.28	23.96	-33.5	-35.3	18.5	0.00e+00	0	56	0	1135607808	37	4469
2026-01-03 14:21:59.02	166.31	24.11	-33.5	-35.3	18.4	0.00e+00	0	55	0	1142947840	37	4481
2026-01-03 14:22:00.03	166.33	24.27	-33.5	-35.3	18.5	0.00e+00	0	56	0	1150287872	37	4449
2026-01-03 14:22:01.03	166.35	24.43	-33.6	-35.4	18.4	0.00e+00	0	56	0	1157627904	37	4500
2026-01-03 14:22:02.04	166.37	24.58	-33.5	-35.3	18.4	0.00e+00	0	56	0	1164967936	37	4467
2026-01-03 14:22:03.05	166.39	24.74	-33.5	-35.3	18.4	0.00e+00	0	56	0	1172307968	37	4481
2026-01-03 14:22:04.06	166.42	24.90	-33.6	-35.4	18.3	0.00e+00	0	56	0	1179648000	37	4541
2026-01-03 14:22:05.07	166.44	25.06	-33.5	-35.3	18.4	0.00e+00	0	56	0	1186988032	37	4487
2026-01-03 14:22:06.08	166.46	25.23	-33.5	-35.3	18.4	0.00e+00	0	56	0	1194328064	37	4482
2026-01-03 14:22:07.09	166.49	25.39	-33.5	-35.3	18.4	0.00e+00	0	56	0	1201668096	37	4487
2026-01-03 14:22:08.10	166.51	25.55	-33.5	-35.3	18.4	0.00e+00	0	56	0	1209008128	37	4474
2026-01-03 14:22:09.11	166.53	25.72	-33.4	-35.2	18.5	0.00e+00	0	56	0	1216348160	37	4433
2026-01-03 14:22:10.12	166.56	25.88	-33.4	-35.2	18.5	0.00e+00	0	56	0	1223688192	37	4410
2026-01-03 14:22:11.13	166.58	26.05	-33.4	-35.2	18.5	0.00e+00	0	56	0	1231028224	37	4440
2026-01-03 14:22:12.14	166.61	26.22	-33.4	-35.1	18.6	0.00e+00	0	56	0	1237319680	37	4381
2026-01-03 14:22:13.15	166.63	26.39	-33.2	-35.0	18.8	0.00e+00	0	56	0	1244659712	37	4300
2026-01-03 14:22:14.16	166.66	26.56	-33.2	-34.9	18.9	0.00e+00	0	56	0	1253048320	37	4275
2026-01-03 14:22:15.17	166.68	26.73	-33.2	-34.9	18.9	0.00e+00	0	56	0	1259339776	37	4259
2026-01-03 14:22:16.19	166.71	26.90	-33.1	-34.8	19.0	0.00e+00	0	56	0	1266679808	37	4236
2026-01-03 14:22:17.19	166.73	27.08	-33.1	-34.8	19.0	0.00e+00	0	56	0	1274019840	37	4219
2026-01-03 14:22:18.20	166.76	27.25	-33.1	-34.7	19.0	0.00e+00	0	56	0	1281359872	37	4186
2026-01-03 14:22:19.22	166.78	27.43	-33.2	-34.9	18.9	0.00e+00	0	56	0	1288699904	37	4270
2026-01-03 14:22:20.23	166.81	27.61	-33.2	-34.9	19.0	0.00e+00	0	56	0	1296039936	37	4250
2026-01-03 14:22:21.24	166.84	27.78	-33.2	-34.8	19.0	0.00e+00	0	56	0	1303379968	37	4228
2026-01-03 14:22:22.24	166.86	27.96	-33.1	-34.8	19.1	0.00e+00	0	56	0	1310720000	37	4215
2026-01-03 14:22:23.25	166.89	28.14	-33.1	-34.7	19.1	0.00e+00	0	56	0	1318060032	37	4180
2026-01-03 14:22:24.26	166.92	28.32	-33.1	-34.8	19.1	0.00e+00	0	56	0	1325400064	37	4208
2026-01-03 14:22:25.27	166.94	28.51	-33.1	-34.8	19.1	0.00e+00	0	56	0	1332740096	37	4204
2026-01-03 14:22:26.28	166.97	28.69	-33.1	-34.8	19.1	0.00e+00	0	56	0	1340080128	37	4194
2026-01-03 14:22:27.29	167.00	28.87	-33.1	-34.7	19.2	0.00e+00	0	56	0	1347420160	37	4166
2026-01-03 14:22:28.30	167.03	29.06	-33.2	-34.8	19.1	0.00e+00	0	56	0	1354760192	37	4214
2026-01-03 14:22:29.31	167.06	29.25	-33.1	-34.7	19.1	0.00e+00	0	56	0	1361051648	37	4192
2026-01-03 14:22:30.32	167.09	29.44	-33.2	-34.9	19.1	0.00e+00	0	56	0	1369440256	37	4245
2026-01-03 14:22:31.33	167.12	29.63	-33.3	-34.9	19.0	0.00e+00	0	56	0	1376780288	37	4276
2026-01-03 14:22:32.34	167.15	29.82	-33.3	-35.0	19.0	0.00e+00	0	56	0	1383071744	37	4297
2026-01-03 14:22:33.35	167.18	30.01	-33.3	-34.9	19.0	0.00e+00	0	56	0	1390411776	37	4291
2026-01-03 14:22:34.36	167.21	30.21	-33.3	-34.9	19.0	0.00e+00	0	56	0	1397751808	37	4283
2026-01-03 14:22:35.37	167.24	30.40	-33.2	-34.8	19.1	0.00e+00	0	56	0	1405091840	37	4233
2026-01-03 14:22:36.38	167.27	30.60	-33.3	-35.0	18.9	0.00e+00	0	56	0	1412431872	37	4320
2026-01-03 14:22:37.39	167.30	30.80	-33.2	-34.8	19.1	0.00e+00	0	56	0	1419771904	37	4221
2026-01-03 14:22:38.40	167.33	30.99	-33.2	-34.9	19.0	0.00e+00	0	56	0	1427111936	37	4279
2026-01-03 14:22:39.41	167.36	31.20	-33.2	-34.8	19.1	0.00e+00	0	56	0	1434451968	37	4239
2026-01-03 14:22:40.42	167.40	31.40	-33.2	-34.9	19.1	0.00e+00	0	56	0	1441792000	37	4254
2026-01-03 14:22:41.43	167.43	31.60	-33.0	-34.6	19.2	0.00e+00	0	56	0	1449132032	37	4144
2026-01-03 14:22:42.44	167.46	31.81	-33.0	-34.7	19.2	0.00e+00	0	56	0	1456472064	36	4404
2026-01-03 14:22:43.45	167.49	32.01	-33.0	-34.7	19.2	0.00e+00	0	56	0	1463812096	36	4392
2026-01-03 14:22:44.46	167.53	32.22	-32.9	-34.5	19.3	0.00e+00	0	56	0	1471152128	36	4337
2026-01-03 14:22:45.47	167.56	32.43	-32.9	-34.5	19.3	0.00e+00	0	56	0	1478492160	36	4340
2026-01-03 14:22:46.48	167.60	32.64	-32.9	-34.6	19.2	0.00e+00	0	56	0	1485832192	36	4380
2026-01-03 14:22:47.49	167.63	32.85	-32.8	-34.5	19.3	0.00e+00	0	56	0	1493172224	36	4309
2026-01-03 14:22:48.50	167.67	33.06	-32.8	-34.5	19.3	0.00e+00	0	56	0	1500512256	36	4320
2026-01-03 14:22:49.51	167.70	33.28	-32.9	-34.6	19.2	0.00e+00	0	56	0	1507852288	36	4376
2026-01-03 14:22:50.52	167.74	33.50	-32.9	-34.6	19.2	0.00e+00	0	56	0	1515192320	36	4386
2026-01-03 14:22:51.53	167.78	33.71	-32.9	-34.7	19.1	0.00e+00	0	56	0	1522532352	36	4420
2026-01-03 14:22:52.54	167.81	33.93	-33.0	-34.8	19.0	0.00e+00	0	56	0	1529872384	36	4444
2026-01-03 14:22:53.55	167.85	34.16	-33.0	-34.8	19.0	0.00e+00	0	56	0	1536163840	36	4491
2026-01-03 14:22:54.56	167.89	34.38	-33.0	-34.8	19.0	0.00e+00	0	56	0	1544552448	36	4481
2026-01-03 14:22:55.57	167.93	34.60	-33.0	-34.8	19.0	0.00e+00	0	56	0	1551892480	36	4458
2026-01-03 14:22:56.58	167.97	34.83	-33.1	-35.0	18.8	0.00e+00	0	56	0	1558183936	36	4571
2026-01-03 14:22:57.59	168.01	35.06	-33.1	-35.0	18.9	0.00e+00	0	56	0	1565523968	36	4548
2026-01-03 14:22:58.60	168.05	35.29	-33.1	-34.9	18.9	0.00e+00	0	56	0	1572864000	36	4508
2026-01-03 14:22:59.61	168.09	35.52	-33.0	-34.8	19.0	0.00e+00	0	56	0	1580204032	36	4479
2026-01-03 14:23:00.63	168.13	35.75	-32.9	-34.7	19.2	0.00e+00	0	56	0	1587544064	36	4404
2026-01-03 14:23:01.64	168.17	35.99	-32.9	-34.6	19.3	0.00e+00	0	56	0	1594884096	36	4365
2026-01-03 14:23:02.64	168.21	36.22	-32.8	-34.5	19.4	0.00e+00	0	56	0	1602224128	36	4319
2026-01-03 14:23:03.65	168.26	36.46	-32.9	-34.6	19.4	0.00e+00	0	56	0	1609564160	36	4346
2026-01-03 14:23:04.66	168.30	36.70	-32.9	-34.6	19.4	0.00e+00	0	56	0	1616904192	36	4349
2026-01-03 14:23:05.67	168.35	36.94	-33.0	-34.6	19.4	0.00e+00	0	56	0	1624244224	36	4366
2026-01-03 14:23:06.69	168.39	37.18	-32.9	-34.5	19.5	0.00e+00	0	56	0	1631584256	36	4324
2026-01-03 14:23:07.70	168.44	37.43	-33.1	-34.7	19.3	0.00e+00	0	56	0	1638924288	36	4437
2026-01-03 14:23:08.71	168.48	37.68	-33.2	-34.8	19.2	0.00e+00	0	56	0	1646264320	36	4488
2026-01-03 14:23:09.72	168.53	37.92	-33.4	-35.1	19.0	0.00e+00	0	56	0	1653604352	36	4622
2026-01-03 14:23:10.73	168.58	38.17	-33.5	-35.2	18.9	0.00e+00	0	56	0	1660944384	36	4667
2026-01-03 14:23:11.74	168.62	38.43	-33.5	-35.2	18.9	0.00e+00	0	56	0	1668284416	36	4664
2026-01-03 14:23:12.75	168.67	38.68	-33.4	-35.1	18.9	0.00e+00	0	56	0	1675624448	36	4642
2026-01-03 14:23:13.76	168.72	38.94	-33.5	-35.2	18.8	0.00e+00	0	57	0	1681915904	36	4690
2026-01-03 14:23:14.77	168.77	39.19	-33.4	-35.1	19.0	0.00e+00	0	56	0	1690304512	36	4599
2026-01-03 14:23:15.78	168.82	39.45	-33.5	-35.2	18.9	0.00e+00	0	56	0	1697644544	36	4666
2026-01-03 14:23:16.79	168.87	39.71	-33.4	-35.1	18.9	0.00e+00	0	56	0	1703936000	36	4632
2026-01-03 14:23:17.80	168.93	39.98	-33.5	-35.2	18.8	0.00e+00	0	56	0	1711276032	36	4684
2026-01-03 14:23:18.80	168.98	40.24	-33.5	-35.3	18.7	0.00e+00	0	57	0	1718616064	36	4715
2026-01-03 14:23:19.81	169.03	40.51	-33.5	-35.2	18.8	0.00e+00	0	56	0	1725956096	36	4679
2026-01-03 14:23:20.82	169.09	40.78	-33.4	-35.1	18.9	0.00e+00	0	56	0	1733296128	36	4623
2026-01-03 14:23:21.83	169.14	41.05	-33.4	-35.0	19.0	0.00e+00	0	56	0	1740636160	36	4593
2026-01-03 14:23:22.84	169.20	41.32	-33.5	-35.1	18.9	0.00e+00	0	56	0	1747976192	36	4650
2026-01-03 14:23:23.86	169.26	41.60	-33.5	-35.1	18.9	0.00e+00	0	56	0	1755316224	36	4648
2026-01-03 14:23:24.87	169.32	41.88	-33.5	-35.1	18.9	0.00e+00	0	56	0	1762656256	36	4625
2026-01-03 14:23:25.88	169.38	42.16	-33.4	-35.0	19.0	0.00e+00	0	56	0	1769996288	36	4595
2026-01-03 14:23:26.89	169.44	42.44	-33.5	-35.2	18.9	0.00e+00	0	56	0	1777336320	36	4666
2026-01-03 14:23:27.90	169.50	42.72	-33.6	-35.2	18.9	0.00e+00	0	56	0	1784676352	36	4678
2026-01-03 14:23:28.91	169.56	43.01	-33.6	-35.2	18.9	0.00e+00	0	56	0	1792016384	36	4705
2026-01-03 14:23:29.92	169.63	43.30	-33.6	-35.2	19.0	0.00e+00	0	56	0	1799356416	36	4668
2026-01-03 14:23:30.93	169.69	43.59	-33.4	-35.0	19.2	0.00e+00	0	56	0	1806696448	36	4569
2026-01-03 14:23:31.94	169.76	43.88	-33.4	-34.9	19.3	0.00e+00	0	56	0	1814036480	36	4526
2026-01-03 14:23:32.95	169.82	44.18	-33.3	-34.9	19.4	0.00e+00	0	56	0	1821376512	36	4512
2026-01-03 14:23:33.96	169.89	44.47	-33.5	-35.1	19.2	0.00e+00	0	56	0	1828716544	36	4607
2026-01-03 14:23:34.97	169.96	44.77	-33.6	-35.2	19.0	0.00e+00	0	56	0	1836056576	36	4657
2026-01-03 14:23:35.98	170.03	45.07	-34.3	-35.3	19.4	0.00e+00	0	56	0	1843396608	38	4231
2026-01-03 14:23:36.99	170.10	45.38	-34.5	-35.6	19.2	0.00e+00	0	56	0	1850736640	38	4347
2026-01-03 14:23:38.00	170.18	45.68	-34.6	-35.7	19.1	0.00e+00	0	56	0	1857028096	38	4420
2026-01-03 14:23:39.01	170.25	45.99	-34.7	-35.8	19.0	0.00e+00	0	57	0	1865416704	39	4240
2026-01-03 14:23:40.02	170.33	46.30	-34.8	-35.9	18.9	0.00e+00	0	56	0	1872756736	39	4278
2026-01-03 14:23:41.03	170.40	46.61	-34.8	-35.9	18.9	0.00e+00	0	56	0	1879048192	39	4269
2026-01-03 14:23:42.04	170.48	46.93	-34.8	-35.9	18.9	0.00e+00	0	56	0	1886388224	39	4275
2026-01-03 14:23:43.05	170.56	47.25	-34.9	-36.1	18.8	0.00e+00	0	57	0	1893728256	39	4356
2026-01-03 14:23:44.06	170.65	47.57	-34.8	-35.9	18.9	0.00e+00	0	56	0	1901068288	39	4275
2026-01-03 14:23:45.07	170.73	47.89	-34.9	-36.0	18.8	0.00e+00	0	56	0	1908408320	39	4330
2026-01-03 14:23:46.08	170.82	48.21	-35.0	-36.1	18.8	0.00e+00	0	56	0	1915748352	39	4362
2026-01-03 14:23:47.09	170.90	48.54	-34.8	-35.9	18.9	0.00e+00	0	57	0	1923088384	39	4281
2026-01-03 14:23:48.10	170.99	48.87	-35.1	-36.2	18.6	0.00e+00	0	56	0	1930428416	39	4433
2026-01-03 14:23:49.11	171.08	49.20	-35.2	-36.4	18.4	0.00e+00	0	56	0	1937768448	40	4246
2026-01-03 14:23:50.12	171.18	49.54	-35.3	-36.5	18.3	0.00e+00	0	56	0	1945108480	40	4310
2026-01-03 14:23:51.13	171.27	49.87	-35.5	-36.7	18.1	0.00e+00	0	57	0	1952448512	40	4411
2026-01-03 14:23:52.14	171.37	50.21	-35.3	-36.4	18.4	0.00e+00	0	57	0	1959788544	40	4270
2026-01-03 14:23:53.15	171.47	50.55	-35.0	-36.2	18.7	0.00e+00	0	57	0	1967128576	40	4153
2026-01-03 14:23:54.16	171.57	50.90	-35.3	-36.4	18.4	0.00e+00	0	56	0	1974468608	40	4275
2026-01-03 14:23:55.17	171.67	51.24	-35.1	-36.2	18.6	0.00e+00	0	57	0	1981808640	40	4187
2026-01-03 14:23:56.19	171.78	51.59	-35.2	-36.3	18.5	0.00e+00	0	57	0	1989148672	40	4229
2026-01-03 14:23:57.20	171.89	51.95	-35.3	-36.4	18.4	0.00e+00	0	57	0	1996488704	40	4289
2026-01-03 14:23:58.21	172.00	52.30	-35.3	-36.4	18.4	0.00e+00	0	57	0	2003828736	40	4275
2026-01-03 14:23:59.21	172.11	52.65	-35.1	-36.3	18.5	0.00e+00	0	57	0	2011168768	40	4206
2026-01-03 14:24:00.22	172.22	53.01	-35.7	-36.9	18.0	0.00e+00	0	57	0	2018508800	40	4524
2026-01-03 14:24:01.24	172.34	53.37	-35.4	-36.6	18.2	0.00e+00	0	57	0	2024800256	40	4366
2026-01-03 14:24:02.24	172.46	53.73	-35.4	-36.6	18.2	0.00e+00	0	57	0	2032140288	40	4369
2026-01-03 14:24:03.25	172.59	54.10	-35.7	-36.9	17.9	0.00e+00	0	57	0	2039480320	40	4521
2026-01-03 14:24:04.26	172.72	54.47	-35.5	-36.7	18.1	0.00e+00	0	57	0	2046820352	40	4405
2026-01-03 14:24:05.28	172.85	54.84	-35.5	-36.7	18.1	1.10e-06	0	57	0	2054160384	41	4155
2026-01-03 14:24:06.29	172.98	55.22	-35.5	-36.7	18.1	0.00e+00	0	56	0	2061500416	41	4173
2026-01-03 14:24:07.30	173.12	55.59	-35.6	-36.8	18.0	0.00e+00	0	57	0	2068840448	41	4208
2026-01-03 14:24:08.31	173.26	55.97	-35.6	-36.8	18.0	0.00e+00	0	56	0	2076180480	41	4224
2026-01-03 14:24:09.32	173.41	56.35	-35.8	-37.0	17.8	0.00e+00	0	57	0	2083520512	41	4307
2026-01-03 14:24:10.33	173.56	56.74	-35.2	-36.3	18.4	0.00e+00	0	57	0	2090860544	41	3991
2026-01-03 14:24:11.34	173.71	57.12	-35.4	-36.6	18.3	0.00e+00	0	57	0	2098200576	41	4099
2026-01-03 14:24:12.35	173.87	57.51	-35.3	-36.4	18.3	0.00e+00	0	57	0	2105540608	41	4037
2026-01-03 14:24:13.36	174.03	57.90	-35.2	-36.3	18.4	0.00e+00	0	57	0	2112880640	41	3982
2026-01-03 14:24:14.37	174.20	58.29	-35.1	-36.3	18.5	0.00e+00	0	57	0	2120220672	41	3963
2026-01-03 14:24:15.38	174.37	58.69	-35.2	-36.3	18.4	0.00e+00	0	57	0	2127560704	40	4220
2026-01-03 14:24:16.39	174.55	59.09	-35.1	-36.2	18.5	0.00e+00	0	57	0	2134900736	40	4170
2026-01-03 14:24:17.40	174.73	59.49	-35.6	-36.8	18.0	0.00e+00	0	57	0	2142240768	40	4461
2026-01-03 14:24:18.41	174.92	59.89	-35.6	-36.8	17.9	0.00e+00	0	57	0	2149580800	41	4220
2026-01-03 14:24:19.42	175.11	60.29	-35.3	-36.4	18.3	0.00e+00	0	57	0	2156920832	41	4035
2026-01-03 14:24:20.43	175.31	60.70	-35.3	-36.5	18.3	0.00e+00	0	57	0	2164260864	40	4296
2026-01-03 14:24:21.44	175.52	61.11	-35.1	-36.3	18.6	0.00e+00	0	57	0	2171600896	40	4196
2026-01-03 14:24:22.45	175.73	61.52	-34.9	-36.0	18.8	0.00e+00	0	57	0	2177892352	40	4088
2026-01-03 14:24:23.46	175.95	61.94	-35.1	-36.2	18.5	0.00e+00	0	57	0	2185232384	40	4193
2026-01-03 14:24:24.47	176.18	62.35	-34.8	-35.9	18.9	0.00e+00	0	56	0	2193620992	40	4030
2026-01-03 14:24:25.48	176.42	62.77	-34.6	-35.7	19.2	0.00e+00	0	57	0	2199912448	39	4160
2026-01-03 14:24:26.49	176.66	63.19	-34.8	-35.9	18.6	0.00e+00	0	57	0	2207252480	39	4275
2026-01-03 14:24:27.50	176.91	63.61	-34.4	-35.4	19.4	0.00e+00	0	57	0	2214592512	39	4036
2026-01-03 14:24:28.51	177.17	64.04	-34.2	-35.3	19.5	0.00e+00	0	57	0	2221932544	39	3975
2026-01-03 14:24:29.52	177.44	64.46	-34.1	-35.1	19.7	0.00e+00	0	57	0	2229272576	39	3892
2026-01-03 14:24:30.53	177.73	64.89	-34.0	-35.0	19.8	0.00e+00	0	57	0	2236612608	38	4072
2026-01-03 14:24:31.54	178.02	65.32	-34.4	-35.5	18.4	0.00e+00	0	57	0	2243952640	38	4321
2026-01-03 14:24:32.55	178.32	65.75	-33.8	-34.8	20.0	0.00e+00	0	56	0	2251292672	38	4001
2026-01-03 14:24:33.56	178.64	66.19	-33.6	-34.6	20.1	0.00e+00	0	57	0	2258632704	38	3899
2026-01-03 14:24:34.57	178.97	66.62	-33.5	-34.5	20.2	0.00e+00	0	56	0	2265972736	37	4073
2026-01-03 14:24:35.58	179.31	67.06	-33.6	-34.6	20.2	0.00e+00	0	57	0	2273312768	37	4117
2026-01-03 14:24:36.59	179.66	67.50	-34.2	-35.3	19.5	0.00e+00	0	57	0	2280652800	37	4479
2026-01-03 14:24:37.60	180.04	67.94	-33.7	-34.7	20.1	0.00e+00	0	57	0	2287992832	37	4181
2026-01-03 14:24:38.61	180.43	68.38	-33.8	-34.8	20.0	0.00e+00	0	57	0	2295332864	37	4203
2026-01-03 14:24:39.62	180.83	68.82	-33.7	-34.7	20.1	0.00e+00	0	57	0	2302672896	37	4176
2026-01-03 14:24:40.63	181.25	69.27	-33.6	-34.6	20.2	0.00e+00	0	56	0	2310012928	37	4108
2026-01-03 14:24:41.64	181.70	69.71	-33.8	-34.8	19.9	0.00e+00	0	57	0	2317352960	37	4217
2026-01-03 14:24:42.65	182.16	70.16	-33.5	-34.5	20.2	0.00e+00	0	57	0	2324692992	37	4060
2026-01-03 14:24:43.66	182.65	70.60	-33.8	-34.8	19.9	0.00e+00	0	56	0	2332033024	37	4229
2026-01-03 14:24:44.67	183.16	71.05	-33.9	-34.9	19.8	0.00e+00	0	57	0	2339373056	37	4269
2026-01-03 14:24:45.68	183.70	71.50	-33.9	-35.0	19.7	0.00e+00	0	57	0	2346713088	37	4306
2026-01-03 14:24:46.69	184.27	71.95	-34.0	-35.0	19.7	0.00e+00	0	57	0	2353004544	38	4097
2026-01-03 14:24:47.71	184.87	72.40	-34.5	-35.5	19.2	0.00e+00	0	57	0	2360344576	38	4340
2026-01-03 14:24:48.71	185.50	72.84	-34.3	-35.4	19.4	0.00e+00	0	57	0	2368733184	39	4019
2026-01-03 14:24:49.72	186.16	73.29	-34.1	-35.1	19.7	0.00e+00	0	57	0	2375024640	39	3897
2026-01-03 14:24:50.73	186.86	73.74	-33.6	-34.6	20.1	0.00e+00	0	57	0	2382364672	38	3900
2026-01-03 14:24:51.74	187.61	74.18	-33.5	-34.5	20.2	0.00e+00	0	57	0	2389704704	37	4059
2026-01-03 14:24:52.75	188.40	74.63	-33.5	-34.6	20.2	0.00e+00	0	56	0	2397044736	37	4101
2026-01-03 14:24:53.76	189.23	75.07	-33.4	-34.4	20.3	0.00e+00	0	57	0	2404384768	37	4012
2026-01-03 14:24:54.77	190.12	75.51	-33.2	-34.2	20.5	0.00e+00	0	57	0	2411724800	37	3946
2026-01-03 14:24:55.78	191.07	75.95	-33.1	-34.1	20.6	0.00e+00	0	57	0	2419064832	37	3896
2026-01-03 14:24:56.79	192.08	76.39	-33.0	-34.0	20.6	0.00e+00	0	57	0	2426404864	36	4061
2026-01-03 14:24:57.80	193.17	76.82	-32.0	-33.0	20.9	0.00e+00	0	57	0	2433744896	34	4075
2026-01-03 14:24:58.81	194.32	77.25	-32.0	-33.0	20.8	0.00e+00	0	57	0	2441084928	34	4082
2026-01-03 14:24:59.82	195.56	77.68	-31.5	-32.5	21.4	0.00e+00	0	57	0	2448424960	34	3829
2026-01-03 14:25:00.83	196.89	78.10	-31.4	-32.3	21.5	0.00e+00	0	57	0	2455764992	33	3987
2026-01-03 14:25:01.84	198.31	78.52	-31.5	-32.4	21.4	0.00e+00	0	57	0	2463105024	33	4027
2026-01-03 14:25:02.85	199.85	78.93	-31.6	-32.5	21.3	0.00e+00	0	57	0	2470445056	33	4069
2026-01-03 14:25:03.86	201.50	79.33	-31.8	-32.8	21.1	0.00e+00	0	57	0	2477785088	33	4223
2026-01-03 14:25:04.87	203.29	79.72	-31.7	-32.7	21.2	0.00e+00	0	57	0	2485125120	33	4153
2026-01-03 14:25:05.89	205.24	80.11	-31.6	-32.6	21.3	0.00e+00	0	57	0	2492465152	33	4102
2026-01-03 14:25:06.89	207.30	80.48	-31.6	-32.5	21.3	0.00e+00	0	57	0	2498756608	33	4085
2026-01-03 14:25:07.91	209.58	80.84	-31.8	-32.7	21.1	0.00e+00	0	57	0	2506096640	33	4190
2026-01-03 14:25:08.92	212.01	81.19	-31.7	-32.7	21.2	0.00e+00	0	57	0	2514485248	33	4165
2026-01-03 14:25:09.93	214.65	81.52	-31.6	-32.5	21.3	0.00e+00	0	57	0	2520776704	33	4084
2026-01-03 14:25:10.94	217.49	81.83	-31.6	-32.5	21.3	0.00e+00	0	57	0	2528116736	33	4079
2026-01-03 14:25:11.95	220.54	82.11	-31.7	-32.7	21.2	0.00e+00	0	57	0	2535456768	33	4166
2026-01-03 14:25:12.96	223.83	82.38	-32.0	-32.9	20.9	0.00e+00	0	57	0	2542796800	33	4285
2026-01-03 14:25:13.97	227.34	82.62	-32.0	-33.0	20.9	0.00e+00	0	57	0	2550136832	33	4297
2026-01-03 14:25:14.98	231.07	82.83	-32.1	-33.1	20.8	0.00e+00	0	57	0	2557476864	33	4341
2026-01-03 14:25:15.99	235.01	83.01	-31.8	-32.8	21.1	0.00e+00	0	57	0	2564816896	33	4199
2026-01-03 14:25:17.00	239.14	83.15	-31.7	-32.7	21.2	0.00e+00	0	57	0	2572156928	33	4163
2026-01-03 14:25:18.01	243.43	83.26	-31.6	-32.6	21.2	0.00e+00	0	57	0	2579496960	33	4099
2026-01-03 14:25:19.02	247.83	83.33	-31.6	-32.5	21.3	0.00e+00	0	57	0	2586836992	33	4095
2026-01-03 14:25:20.03	252.29	83.36	-31.7	-32.7	21.2	0.00e+00	0	57	0	2594177024	33	4161
2026-01-03 14:25:21.04	256.77	83.35	-31.9	-32.9	21.0	0.00e+00	0	57	0	2601517056	33	4268
2026-01-03 14:25:22.06	261.25	83.30	-31.7	-32.6	21.2	0.00e+00	0	57	0	2608857088	33	4143
2026-01-03 14:25:23.07	265.60	83.21	-31.8	-32.7	21.1	0.00e+00	0	57	0	2616197120	33	4187
2026-01-03 14:25:24.08	269.80	83.08	-32.1	-33.1	20.8	0.00e+00	0	57	0	2623537152	33	4358
2026-01-03 14:25:25.09	273.83	82.92	-31.9	-32.9	20.9	0.00e+00	0	57	0	2630877184	33	4269
2026-01-03 14:25:26.10	277.67	82.72	-31.8	-32.8	21.1	0.00e+00	0	57	0	2638217216	33	4218
2026-01-03 14:25:27.11	281.28	82.49	-31.8	-32.8	21.1	0.00e+00	0	57	0	2645557248	33	4201
2026-01-03 14:25:28.12	284.67	82.24	-31.7	-32.7	21.2	0.00e+00	0	57	0	2652897280	33	4152
2026-01-03 14:25:29.13	287.83	81.96	-31.5	-32.4	21.4	0.00e+00	0	57	0	2660237312	33	4040
2026-01-03 14:25:30.14	290.77	81.66	-31.3	-32.2	21.6	0.00e+00	0	57	0	2667577344	33	3945
2026-01-03 14:25:31.15	293.50	81.34	-31.5	-32.4	21.4	0.00e+00	0	57	0	2673868800	33	4030
2026-01-03 14:25:32.16	296.02	81.01	-31.7	-32.7	21.2	0.00e+00	0	57	0	2682257408	33	4150
2026-01-03 14:25:33.17	298.36	80.65	-31.7	-32.6	21.2	0.00e+00	0	57	0	2689597440	33	4134
2026-01-03 14:25:34.18	300.52	80.29	-31.5	-32.5	21.3	0.00e+00	0	57	0	2695888896	33	4068
2026-01-03 14:25:35.19	302.52	79.91	-31.4	-32.4	21.5	3.40e-06	0	57	0	2703228928	33	4006
2026-01-03 14:25:36.20	304.37	79.52	-31.4	-32.3	21.4	0.00e+00	0	57	0	2710568960	33	3990
2026-01-03 14:25:37.21	306.08	79.12	-31.3	-32.2	21.6	0.00e+00	0	57	0	2717908992	33	3930
2026-01-03 14:25:38.22	307.67	78.72	-31.4	-32.3	21.5	0.00e+00	0	57	0	2725249024	33	3980
2026-01-03 14:25:39.23	309.15	78.30	-31.7	-32.6	21.2	0.00e+00	0	57	0	2732589056	33	4139
2026-01-03 14:25:40.24	310.52	77.89	-31.6	-32.5	21.3	0.00e+00	0	57	0	2739929088	33	4088
2026-01-03 14:25:41.25	311.80	77.46	-31.8	-32.7	21.1	0.00e+00	0	57	0	2747269120	33	4182
2026-01-03 14:25:42.26	313.00	77.03	-32.1	-33.1	20.7	5.70e-06	0	57	0	2754609152	33	4346
2026-01-03 14:25:43.27	314.11	76.60	-32.2	-33.2	20.7	0.00e+00	0	57	0	2761949184	33	4420
2026-01-03 14:25:44.28	315.15	76.17	-32.2	-33.1	20.7	0.00e+00	0	57	0	2769289216	34	4139
2026-01-03 14:25:45.29	316.13	75.73	-32.4	-33.4	20.5	0.00e+00	0	57	0	2776629248	34	4267
2026-01-03 14:25:46.30	317.05	75.29	-32.8	-33.8	20.1	0.00e+00	0	57	0	2783969280	35	4232
2026-01-03 14:25:47.31	317.91	74.85	-33.0	-34.0	19.9	0.00e+00	0	57	0	2791309312	35	4332
2026-01-03 14:25:48.32	318.72	74.40	-32.6	-33.6	20.0	0.00e+00	0	57	0	2798649344	35	4099
2026-01-03 14:25:49.33	319.49	73.96	-32.6	-33.6	20.3	0.00e+00	0	57	0	2805989376	35	4132
2026-01-03 14:25:50.34	320.21	73.51	-32.7	-33.6	20.2	0.00e+00	0	57	0	2813329408	35	4145
2026-01-03 14:25:51.35	320.89	73.07	-33.2	-34.3	19.7	0.00e+00	0	57	0	2819620864	35	4454
2026-01-03 14:25:52.36	321.54	72.62	-34.1	-35.1	19.7	0.00e+00	0	57	0	2826960896	37	4387
2026-01-03 14:25:53.37	322.15	72.17	-34.1	-35.2	19.6	0.00e+00	0	57	0	2835349504	37	4396
2026-01-03 14:25:54.38	322.73	71.72	-33.9	-35.1	16.1	1.77e-03	0	57	0	2841640960	37	4367
2026-01-03 14:25:55.39	323.28	71.28	-34.1	-35.1	19.4	1.84e-03	0	57	0	2848980992	37	4387
2026-01-03 14:25:56.40	323.81	70.83	-34.2	-35.3	19.5	0.00e+00	0	57	0	2856321024	38	4227
2026-01-03 14:25:57.41	324.31	70.39	-34.3	-35.3	19.4	0.00e+00	0	57	0	2863661056	38	4233
2026-01-03 14:25:58.42	324.78	69.94	-34.4	-35.5	19.4	4.34e-04	0	57	0	2871001088	38	4294
2026-01-03 14:25:59.43	325.24	69.50	-34.5	-35.6	19.3	1.10e-06	0	57	0	2878341120	38	4353
2026-01-03 14:26:00.44	325.67	69.05	-34.2	-35.3	19.4	1.10e-06	0	57	0	2885681152	38	4212
2026-01-03 14:26:01.45	326.08	68.61	-34.1	-35.2	19.6	0.00e+00	0	57	0	2893021184	38	4161
2026-01-03 14:26:02.46	326.48	68.17	-33.8	-34.9	19.7	5.26e-05	0	57	0	2900361216	38	4009
2026-01-03 14:26:03.47	326.86	67.73	-33.8	-34.8	20.0	0.00e+00	0	57	0	2907701248	38	3994
2026-01-03 14:26:04.48	327.22	67.29	-33.8	-34.8	20.0	0.00e+00	0	57	0	2915041280	38	3977
2026-01-03 14:26:05.49	327.57	66.86	-33.8	-34.8	20.1	0.00e+00	0	57	0	2922381312	38	3967
2026-01-03 14:26:06.50	327.91	66.42	-33.7	-34.7	20.1	1.22e-04	0	57	0	2929721344	38	3933
2026-01-03 14:26:07.51	328.23	65.99	-33.4	-34.4	20.4	1.10e-06	0	57	0	2937061376	37	4018
2026-01-03 14:26:08.52	328.54	65.56	-33.4	-34.4	20.4	0.00e+00	0	57	0	2944401408	37	4031
2026-01-03 14:26:09.53	328.84	65.13	-33.7	-34.7	20.0	5.70e-06	0	57	0	2951741440	37	4192
2026-01-03 14:26:10.55	329.13	64.69	-33.9	-35.0	19.8	5.14e-05	0	57	0	2959081472	37	4301
2026-01-03 14:26:11.55	329.40	64.27	-34.0	-35.1	19.8	0.00e+00	0	57	0	2966421504	37	4355
2026-01-03 14:26:12.56	329.66	63.85	-34.1	-35.1	19.7	0.00e+00	0	57	0	2973761536	37	4391
2026-01-03 14:26:13.57	329.92	63.43	-34.2	-35.3	19.6	0.00e+00	0	57	0	2981101568	37	4445
2026-01-03 14:26:14.58	330.17	63.01	-34.3	-35.3	19.5	2.28e-05	0	57	0	2988441600	38	4222
2026-01-03 14:26:15.59	330.41	62.59	-34.5	-35.6	19.3	0.00e+00	0	57	0	2994733056	38	4348
2026-01-03 14:26:16.60	330.64	62.17	-34.8	-35.9	19.0	0.00e+00	0	57	0	3002073088	39	4271
2026-01-03 14:26:17.61	330.86	61.76	-35.0	-36.1	18.8	0.00e+00	0	57	0	3009413120	39	4372
2026-01-03 14:26:18.62	331.08	61.35	-35.1	-36.2	18.6	3.08e-05	0	57	0	3016753152	39	4441
2026-01-03 14:26:19.63	331.29	60.94	-35.0	-36.1	18.8	0.00e+00	0	57	0	3024093184	39	4363
2026-01-03 14:26:20.64	331.49	60.53	-34.8	-35.9	19.0	0.00e+00	0	57	0	3031433216	39	4245
2026-01-03 14:26:21.65	331.69	60.13	-34.7	-35.8	18.8	0.00e+00	0	57	0	3038773248	39	4210
2026-01-03 14:26:22.66	331.88	59.72	-35.0	-36.2	18.7	1.60e-05	0	57	0	3046113280	39	4393
2026-01-03 14:26:23.67	332.07	59.32	-35.2	-36.4	18.4	0.00e+00	0	57	0	3053453312	40	4243
2026-01-03 14:26:24.68	332.25	58.92	-35.2	-36.4	18.4	0.00e+00	0	57	0	3060793344	40	4265
2026-01-03 14:26:25.69	332.42	58.53	-35.2	-36.3	18.6	0.00e+00	0	57	0	3068133376	40	4230
2026-01-03 14:26:26.70	332.59	58.14	-35.2	-36.3	17.6	4.50e-06	0	57	0	3075473408	40	4232
2026-01-03 14:26:27.71	332.76	57.75	-35.3	-36.5	18.4	0.00e+00	0	57	0	3082813440	40	4292
2026-01-03 14:26:28.72	332.92	57.36	-35.4	-36.6	18.2	0.00e+00	0	57	0	3090153472	40	4372
2026-01-03 14:26:29.73	333.07	56.97	-35.5	-36.7	18.1	0.00e+00	0	57	0	3097493504	40	4415
2026-01-03 14:26:30.74	333.22	56.59	-35.4	-36.6	18.2	3.54e-05	0	57	0	3104833536	40	4365
2026-01-03 14:26:31.75	333.37	56.21	-35.1	-36.2	18.6	2.38e-04	0	57	0	3112173568	40	4172
2026-01-03 14:26:32.76	333.51	55.83	-34.8	-35.9	19.0	0.00e+00	0	57	0	3118465024	40	4008
2026-01-03 14:26:33.77	333.65	55.45	-34.6	-35.7	18.9	0.00e+00	0	57	0	3126853632	40	3937
2026-01-03 14:26:34.78	333.79	55.08	-34.8	-35.9	19.0	4.50e-06	0	57	0	3134193664	40	4013
2026-01-03 14:26:35.79	333.92	54.71	-34.9	-36.0	18.9	0.00e+00	0	57	0	3140485120	40	4052
2026-01-03 14:26:36.80	334.05	54.34	-35.1	-36.2	18.7	0.00e+00	0	57	0	3147825152	40	4177
2026-01-03 14:26:37.80	334.18	53.98	-35.2	-36.4	18.5	0.00e+00	0	57	0	3155165184	40	4271
2026-01-03 14:26:38.81	334.30	53.61	-35.2	-36.3	18.5	0.00e+00	0	57	0	3162505216	40	4237
2026-01-03 14:26:39.82	334.42	53.25	-35.1	-36.2	18.7	0.00e+00	0	57	0	3169845248	40	4158
2026-01-03 14:26:40.83	334.54	52.89	-35.0	-36.2	18.7	0.00e+00	0	57	0	3177185280	40	4146
2026-01-03 14:26:41.84	334.65	52.54	-35.1	-36.2	18.6	0.00e+00	0	57	0	3184525312	40	4163
2026-01-03 14:26:42.85	334.77	52.18	-35.2	-36.3	18.6	0.00e+00	0	57	0	3191865344	40	4206
2026-01-03 14:26:43.86	334.88	51.83	-35.3	-36.4	18.5	0.00e+00	0	57	0	3199205376	40	4262
2026-01-03 14:26:44.87	334.98	51.48	-35.1	-36.2	18.6	0.00e+00	0	57	0	3206545408	40	4178
2026-01-03 14:26:45.88	335.09	51.14	-35.0	-36.1	18.7	0.00e+00	0	57	0	3213885440	40	4110
2026-01-03 14:26:46.89	335.19	50.79	-34.9	-36.0	18.9	0.00e+00	0	57	0	3221225472	40	4069
2026-01-03 14:26:47.90	335.29	50.45	-34.9	-35.9	18.9	0.00e+00	0	57	0	3228565504	40	4049
2026-01-03 14:26:48.91	335.39	50.11	-34.9	-36.0	18.9	0.00e+00	0	57	0	3235905536	40	4071
2026-01-03 14:26:49.92	335.48	49.78	-35.0	-36.1	18.7	0.00e+00	0	57	0	3243245568	40	4141
2026-01-03 14:26:50.93	335.58	49.44	-35.1	-36.2	18.7	0.00e+00	0	57	0	3250585600	40	4191
2026-01-03 14:26:51.94	335.67	49.11	-35.1	-36.3	18.6	0.00e+00	0	57	0	3257925632	40	4210
2026-01-03 14:26:52.95	335.76	48.78	-35.1	-36.3	17.1	0.00e+00	0	57	0	3265265664	40	4210
2026-01-03 14:26:53.96	335.85	48.46	-34.8	-35.9	18.9	0.00e+00	0	57	0	3272605696	40	4051
2026-01-03 14:26:54.97	335.94	48.13	-34.5	-35.5	19.2	0.00e+00	0	57	0	3279945728	39	4097
2026-01-03 14:26:55.98	336.02	47.81	-34.3	-35.3	19.6	0.00e+00	0	57	0	3287285760	39	3995
2026-01-03 14:26:56.99	336.10	47.49	-34.0	-35.0	19.8	0.00e+00	0	57	0	3293577216	39	3853
2026-01-03 14:26:58.00	336.19	47.17	-33.9	-34.9	20.0	0.00e+00	0	57	0	3300917248	38	4028
2026-01-03 14:26:59.01	336.27	46.86	-34.0	-35.1	19.9	0.00e+00	0	57	0	3309305856	38	4106
2026-01-03 14:27:00.02	336.34	46.54	-34.1	-35.2	19.8	0.00e+00	0	57	0	3315597312	38	4155
2026-01-03 14:27:01.03	336.42	46.23	-34.2	-35.2	19.7	0.00e+00	0	57	0	3322937344	38	4192
2026-01-03 14:27:02.04	336.50	45.92	-34.2	-35.3	19.6	0.00e+00	0	57	0	3330277376	38	4194
2026-01-03 14:27:03.05	336.57	45.62	-34.2	-35.2	19.7	0.00e+00	0	57	0	3337617408	38	4169
2026-01-03 14:27:04.06	336.64	45.31	-34.0	-35.1	19.8	0.00e+00	0	57	0	3344957440	38	4105
2026-01-03 14:27:05.07	336.72	45.01	-33.9	-35.0	20.0	0.00e+00	0	57	0	3352297472	38	4059
2026-01-03 14:27:06.09	336.79	44.71	-33.7	-34.7	20.1	0.00e+00	0	57	0	3359637504	38	3958
2026-01-03 14:27:07.10	336.86	44.41	-33.7	-34.7	20.2	0.00e+00	0	57	0	3366977536	38	3926
2026-01-03 14:27:08.11	336.92	44.12	-33.7	-34.7	20.2	0.00e+00	0	57	0	3374317568	38	3915
2026-01-03 14:27:09.12	336.99	43.83	-33.7	-34.7	20.2	0.00e+00	0	57	0	3381657600	38	3918
2026-01-03 14:27:10.13	337.06	43.54	-33.7	-34.7	20.2	0.00e+00	0	57	0	3388997632	38	3935
2026-01-03 14:27:11.14	337.12	43.25	-33.8	-34.8	20.1	0.00e+00	0	57	0	3396337664	38	3978
2026-01-03 14:27:12.15	337.18	42.96	-33.9	-34.9	20.0	0.00e+00	0	57	0	3403677696	38	4026
2026-01-03 14:27:13.16	337.25	42.68	-33.9	-35.0	19.9	0.00e+00	0	57	0	3411017728	38	4058
2026-01-03 14:27:14.17	337.31	42.40	-33.9	-35.0	19.7	0.00e+00	0	57	0	3418357760	38	4066
2026-01-03 14:27:15.18	337.37	42.12	-34.0	-35.0	19.9	0.00e+00	0	57	0	3425697792	38	4076
2026-01-03 14:27:16.19	337.43	41.84	-34.0	-35.0	19.9	0.00e+00	0	57	0	3433037824	38	4074
2026-01-03 14:27:17.20	337.49	41.56	-34.0	-35.0	19.8	0.00e+00	0	57	0	3439329280	38	4069
2026-01-03 14:27:18.21	337.54	41.29	-34.0	-35.0	19.9	0.00e+00	0	57	0	3447717888	38	4077
2026-01-03 14:27:19.23	337.60	41.02	-34.0	-35.0	19.9	0.00e+00	0	57	0	3455057920	38	4061
2026-01-03 14:27:20.24	337.66	40.75	-34.0	-35.0	19.9	0.00e+00	0	57	0	3461349376	38	4086
2026-01-03 14:27:21.25	337.71	40.48	-34.0	-35.0	19.9	0.00e+00	0	57	0	3468689408	38	4056
2026-01-03 14:27:22.26	337.77	40.21	-34.0	-35.0	19.9	0.00e+00	0	57	0	3476029440	38	4086
2026-01-03 14:27:23.27	337.82	39.95	-34.0	-35.1	19.8	0.00e+00	0	57	0	3483369472	38	4114
2026-01-03 14:27:24.28	337.87	39.69	-34.1	-35.2	19.7	0.00e+00	0	57	0	3490709504	38	4148
2026-01-03 14:27:25.28	337.92	39.43	-34.2	-35.2	19.7	0.00e+00	0	57	0	3498049536	38	4167
2026-01-03 14:27:26.29	337.97	39.17	-34.2	-35.2	19.7	0.00e+00	0	57	0	3505389568	38	4175
2026-01-03 14:27:27.30	338.02	38.92	-34.2	-35.3	19.6	0.00e+00	0	57	0	3512729600	38	4224
2026-01-03 14:27:28.32	338.07	38.66	-34.2	-35.3	19.6	0.00e+00	0	57	0	3520069632	38	4208
2026-01-03 14:27:29.32	338.12	38.41	-34.2	-35.2	19.6	0.00e+00	0	57	0	3527409664	38	4175
2026-01-03 14:27:30.33	338.17	38.16	-34.2	-35.2	19.7	0.00e+00	0	57	0	3534749696	38	4173
2026-01-03 14:27:31.35	338.22	37.91	-34.1	-35.1	19.8	0.00e+00	0	57	0	3542089728	38	4143
2026-01-03 14:27:32.36	338.26	37.66	-34.0	-35.0	19.8	0.00e+00	0	57	0	3549429760	38	4097
2026-01-03 14:27:33.37	338.31	37.42	-33.9	-34.9	19.9	0.00e+00	0	57	0	3556769792	38	4032
2026-01-03 14:27:34.38	338.36	37.17	-33.8	-34.8	20.0	0.00e+00	0	57	0	3564109824	38	4004
2026-01-03 14:27:35.39	338.40	36.93	-33.7	-34.7	19.9	0.00e+00	0	57	0	3571449856	38	3943
2026-01-03 14:27:36.40	338.44	36.69	-33.5	-34.5	20.3	0.00e+00	0	57	0	3578789888	38	3859
2026-01-03 14:27:37.40	338.49	36.46	-33.4	-34.3	20.5	0.00e+00	0	57	0	3586129920	37	3997
2026-01-03 14:27:38.41	338.53	36.22	-33.3	-34.2	20.6	0.00e+00	0	57	0	3593469952	37	3946
2026-01-03 14:27:39.42	338.57	35.99	-33.2	-34.2	20.7	0.00e+00	0	57	0	3600809984	37	3918
2026-01-03 14:27:40.43	338.62	35.76	-33.1	-34.1	20.8	0.00e+00	0	57	0	3608150016	37	3877
2026-01-03 14:27:41.44	338.66	35.52	-33.0	-34.0	20.8	0.00e+00	0	57	0	3614441472	37	3852
2026-01-03 14:27:42.45	338.70	35.29	-33.1	-34.0	20.8	0.00e+00	0	57	0	3621781504	37	3854
2026-01-03 14:27:43.46	338.74	35.07	-33.1	-34.1	20.7	0.00e+00	0	57	0	3630170112	37	3870
2026-01-03 14:27:44.47	338.78	34.84	-33.2	-34.1	20.7	0.00e+00	0	57	0	3636461568	37	3912
2026-01-03 14:27:45.48	338.82	34.62	-33.2	-34.1	20.6	0.00e+00	0	57	0	3643801600	37	3909
2026-01-03 14:27:46.49	338.86	34.39	-33.3	-34.2	20.6	0.00e+00	0	57	0	3651141632	37	3956
2026-01-03 14:27:47.50	338.89	34.17	-33.3	-34.3	20.4	0.00e+00	0	57	0	3658481664	37	3979
2026-01-03 14:27:48.51	338.93	33.95	-33.4	-34.3	20.5	0.00e+00	0	57	0	3665821696	37	4000
2026-01-03 14:27:49.52	338.97	33.73	-33.4	-34.4	20.4	0.00e+00	0	57	0	3673161728	37	4035
2026-01-03 14:27:50.53	339.01	33.52	-33.5	-34.5	20.3	0.00e+00	0	57	0	3680501760	37	4054
2026-01-03 14:27:51.54	339.04	33.30	-33.4	-34.4	20.3	0.00e+00	0	57	0	3687841792	37	4037
2026-01-03 14:27:52.55	339.08	33.09	-33.4	-34.4	20.4	0.00e+00	0	57	0	3695181824	37	4042
2026-01-03 14:27:53.56	339.12	32.88	-33.4	-34.4	20.4	0.00e+00	0	57	0	3702521856	37	4031
2026-01-03 14:27:54.56	339.15	32.67	-33.4	-34.4	20.4	0.00e+00	0	57	0	3709861888	37	4034
2026-01-03 14:27:55.57	339.19	32.46	-33.4	-34.3	20.4	0.00e+00	0	57	0	3717201920	37	3995
2026-01-03 14:27:56.58	339.22	32.25	-33.3	-34.3	20.4	0.00e+00	0	57	0	3724541952	37	3996
2026-01-03 14:27:57.59	339.25	32.04	-33.3	-34.3	20.4	0.00e+00	0	57	0	3731881984	37	3994
2026-01-03 14:27:58.60	339.29	31.84	-33.3	-34.3	20.4	0.00e+00	0	57	0	3738173440	37	3987
2026-01-03 14:27:59.61	339.32	31.64	-33.4	-34.4	20.4	0.00e+00	0	57	0	3745513472	37	4010
2026-01-03 14:28:00.62	339.35	31.43	-33.3	-34.3	20.4	0.00e+00	0	57	0	3753902080	37	3996
2026-01-03 14:28:01.63	339.39	31.23	-33.4	-34.4	20.4	0.00e+00	0	57	0	3760193536	37	4022
2026-01-03 14:28:02.64	339.42	31.03	-33.4	-34.5	20.3	0.00e+00	0	57	0	3767533568	37	4053
2026-01-03 14:28:03.65	339.45	30.84	-33.5	-34.5	20.3	0.00e+00	0	57	0	3774873600	37	4080
2026-01-03 14:28:04.66	339.48	30.64	-33.6	-34.6	20.2	0.00e+00	0	57	0	3782213632	37	4119
2026-01-03 14:28:05.67	339.51	30.44	-33.7	-34.7	20.1	0.00e+00	0	57	0	3789553664	37	4173
2026-01-03 14:28:06.68	339.55	30.25	-33.7	-34.8	20.0	0.00e+00	0	57	0	3796893696	37	4195
2026-01-03 14:28:07.69	339.58	30.06	-33.8	-34.8	19.9	0.00e+00	0	57	0	3804233728	37	4239
2026-01-03 14:28:08.70	339.61	29.87	-33.9	-34.9	19.8	0.00e+00	0	57	0	3811573760	37	4286
2026-01-03 14:28:09.71	339.64	29.68	-33.9	-34.9	19.8	0.00e+00	0	57	0	3818913792	37	4285
2026-01-03 14:28:10.72	339.67	29.49	-34.0	-35.1	19.7	0.00e+00	0	57	0	3826253824	37	4348
2026-01-03 14:28:11.74	339.70	29.30	-34.1	-35.1	19.6	0.00e+00	0	57	0	3833593856	37	4374
2026-01-03 14:28:12.75	339.73	29.11	-34.1	-35.2	19.6	0.00e+00	0	57	0	3840933888	37	4395
2026-01-03 14:28:13.76	339.75	28.93	-34.2	-35.2	19.5	0.00e+00	0	57	0	3848273920	37	4439
2026-01-03 14:28:14.77	339.78	28.74	-34.1	-35.1	19.5	0.00e+00	0	57	0	3855613952	37	4388
2026-01-03 14:28:15.78	339.81	28.56	-34.2	-35.3	19.4	0.00e+00	0	57	0	3862953984	37	4461
2026-01-03 14:28:16.79	339.84	28.38	-34.1	-35.2	19.5	0.00e+00	0	57	0	3870294016	38	4147
2026-01-03 14:28:17.80	339.87	28.20	-34.2	-35.2	19.3	0.00e+00	0	57	0	3877634048	38	4178
2026-01-03 14:28:18.81	339.89	28.02	-34.2	-35.2	19.5	0.00e+00	0	57	0	3884974080	38	4177
2026-01-03 14:28:19.82	339.92	27.84	-34.1	-35.2	19.6	0.00e+00	0	57	0	3892314112	38	4157
2026-01-03 14:28:20.83	339.95	27.66	-34.2	-35.2	19.5	0.00e+00	0	57	0	3899654144	38	4188
2026-01-03 14:28:21.84	339.98	27.49	-34.2	-35.2	19.5	0.00e+00	0	57	0	3906994176	38	4181
2026-01-03 14:28:22.85	340.00	27.31	-34.2	-35.3	19.5	0.00e+00	0	57	0	3913285632	38	4197
2026-01-03 14:28:23.86	340.03	27.14	-34.2	-35.2	19.4	0.00e+00	0	57	0	3920625664	38	4192
2026-01-03 14:28:24.87	340.05	26.97	-34.2	-35.3	19.4	0.00e+00	0	57	0	3929014272	38	4216
2026-01-03 14:28:25.88	340.08	26.80	-34.3	-35.4	19.3	0.00e+00	0	57	0	3935305728	38	4260
2026-01-03 14:28:26.89	340.11	26.62	-34.3	-35.4	19.3	0.00e+00	0	57	0	3942645760	38	4278
2026-01-03 14:28:27.90	340.13	26.46	-34.5	-35.6	19.1	0.00e+00	0	57	0	3949985792	38	4350
2026-01-03 14:28:28.91	340.16	26.29	-34.4	-35.5	19.2	0.00e+00	0	57	0	3957325824	38	4312
2026-01-03 14:28:29.92	340.18	26.12	-34.3	-35.4	19.3	0.00e+00	0	57	0	3964665856	38	4252
2026-01-03 14:28:30.93	340.21	25.95	-34.3	-35.4	19.3	0.00e+00	0	57	0	3972005888	38	4257
2026-01-03 14:28:31.94	340.23	25.79	-34.4	-35.4	19.2	0.00e+00	0	57	0	3979345920	38	4277
2026-01-03 14:28:32.95	340.25	25.63	-34.3	-35.3	19.3	0.00e+00	0	57	0	3986685952	38	4240
2026-01-03 14:28:33.96	340.28	25.46	-34.3	-35.4	19.2	0.00e+00	0	57	0	3994025984	38	4260
2026-01-03 14:28:34.97	340.30	25.30	-34.2	-35.2	19.3	0.00e+00	0	57	0	4001366016	38	4178
2026-01-03 14:28:35.98	340.33	25.14	-34.2	-35.3	19.3	0.00e+00	0	57	0	4008706048	38	4195
2026-01-03 14:28:37.00	340.35	24.98	-34.1	-35.2	19.4	0.00e+00	0	57	0	4016046080	38	4146
2026-01-03 14:28:38.01	340.37	24.82	-34.0	-35.1	19.5	0.00e+00	0	57	0	4023386112	38	4107
2026-01-03 14:28:39.02	340.40	24.66	-34.0	-35.0	19.5	0.00e+00	0	57	0	4030726144	38	4089
2026-01-03 14:28:40.03	340.42	24.50	-34.0	-35.0	19.5	0.00e+00	0	57	0	4038066176	38	4083
2026-01-03 14:28:41.04	340.44	24.35	-33.9	-35.0	19.6	0.00e+00	0	57	0	4045406208	38	4064
2026-01-03 14:28:42.05	340.46	24.19	-33.9	-34.9	19.6	0.00e+00	0	57	0	4052746240	38	4041
2026-01-03 14:28:43.06	340.49	24.04	-33.9	-34.9	19.4	0.00e+00	0	57	0	4059037696	38	4051
2026-01-03 14:28:44.07	340.51	23.88	-33.9	-34.9	19.5	0.00e+00	0	57	0	4067426304	38	4031
2026-01-03 14:28:45.08	340.53	23.73	-33.9	-34.9	19.5	0.00e+00	0	57	0	4074766336	38	4050
2026-01-03 14:28:46.09	340.55	23.58	-34.0	-35.0	19.3	0.00e+00	0	57	0	4081057792	38	4090
2026-01-03 14:28:47.10	340.57	23.43	-33.8	-34.8	19.6	0.00e+00	0	57	0	4088397824	38	3990
2026-01-03 14:28:48.11	340.59	23.28	-33.8	-34.8	19.5	0.00e+00	0	57	0	4095737856	38	4004
2026-01-03 14:28:49.12	340.62	23.13	-34.0	-35.0	19.2	0.00e+00	0	57	0	4103077888	38	4092
2026-01-03 14:28:50.13	340.64	22.98	-33.8	-34.8	19.5	0.00e+00	0	57	0	4110417920	38	3987
2026-01-03 14:28:51.14	340.66	22.83	-33.7	-34.8	19.4	0.00e+00	0	57	0	4117757952	38	3968
2026-01-03 14:28:52.15	340.68	22.69	-33.9	-35.0	19.2	0.00e+00	0	57	0	4125097984	38	4055
2026-01-03 14:28:53.16	340.70	22.54	-33.8	-34.9	19.1	0.00e+00	0	57	0	4132438016	38	4043
2026-01-03 14:28:54.17	340.72	22.40	-33.8	-34.9	19.1	0.00e+00	0	57	0	4139778048	38	4026
2026-01-03 14:28:55.17	340.74	22.25	-33.9	-35.0	19.0	0.00e+00	0	57	0	4147118080	38	4061
2026-01-03 14:28:56.18	340.76	22.11	-34.0	-35.1	18.8	0.00e+00	0	57	0	4154458112	38	4117
2026-01-03 14:28:57.19	340.78	21.97	-33.9	-35.1	18.8	0.00e+00	0	57	0	4161798144	38	4104
2026-01-03 14:28:58.20	340.80	21.83	-33.7	-34.8	18.9	0.00e+00	0	57	0	4169138176	38	4002
2026-01-03 14:28:59.21	340.82	21.69	-33.6	-34.7	19.0	0.00e+00	0	57	0	4176478208	38	3930
2026-01-03 14:29:00.22	340.84	21.55	-33.5	-34.6	19.0	0.00e+00	0	57	0	4183818240	38	3888
2026-01-03 14:29:01.23	340.86	21.41	-33.4	-34.5	19.0	0.00e+00	0	57	0	4191158272	37	4084
2026-01-03 14:29:02.24	340.88	21.27	-33.4	-34.6	18.9	0.00e+00	0	57	0	4198498304	37	4102
2026-01-03 14:29:03.25	340.90	21.13	-33.7	-34.8	18.5	0.00e+00	0	57	0	4205838336	37	4221
2026-01-03 14:29:04.26	340.92	20.99	-34.2	-35.4	17.8	0.00e+00	0	57	0	4213178368	37	4523
2026-01-03 14:29:05.28	340.93	20.85	-34.8	-36.2	16.8	0.00e+00	0	57	0	4220518400	39	4402
2026-01-03 14:29:06.28	340.95	20.72	-35.7	-37.2	15.6	0.00e+00	0	57	0	4227858432	40	4681
2026-01-03 14:29:07.30	340.97	20.58	-36.7	-38.5	13.9	0.00e+00	0	57	0	4234149888	42	4851
2026-01-03 14:29:08.31	340.99	20.45	-37.8	-40.1	12.2	8.46e-05	0	57	0	4241489920	45	4899
2026-01-03 14:29:09.32	341.01	20.32	-38.8	-41.8	10.2	3.50e-03	0	57	0	4249878528	47	5294
2026-01-03 14:29:10.33	341.03	20.18	-39.6	-43.5	8.3	3.01e-02	0	57	0	4256169984	48	6071
2026-01-03 14:29:11.33	341.04	20.05	-40.2	-45.1	6.5	1.87e-01	0	57	0	4263510016	49	6958
2026-01-03 14:29:12.35	341.06	19.92	-40.6	-46.7	5.3	6.80e-01	0	57	0	4268752896	50	7863
2026-01-03 14:29:13.36	341.08	19.79	-40.8	-48.2	4.4	8.20e-01	0	57	0	4269801472	51	8829
2026-01-03 14:29:14.37	341.10	19.66	-40.9	-49.4	4.1	8.39e-01	0	57	0	4269801472	51	10164
2026-01-03 14:29:15.38	341.12	19.53	-41.0	-50.4	3.8	8.46e-01	0	57	104	4269801472	51	11414
2026-01-03 14:29:16.39	341.13	19.40	-41.0	-51.1	3.8	8.46e-01	0	57	104	4269801472	51	12338
2026-01-03 14:29:17.40	341.15	19.27	-40.9	-51.6	3.8	8.46e-01	0	57	104	4269801472	51	13008
2026-01-03 14:29:18.40	341.17	19.15	-40.9	-51.9	3.8	8.47e-01	0	58	104	4269801472	51	13545
2026-01-03 14:29:19.41	341.19	19.02	-40.9	-52.0	3.8	8.46e-01	0	57	104	4269801472	51	13723
2026-01-03 14:29:20.42	341.20	18.90	-41.0	-52.1	3.8	8.46e-01	0	57	104	4269801472	51	13846
2026-01-03 14:29:21.43	341.22	18.77	-40.9	-52.1	3.8	8.46e-01	0	58	104	4269801472	51	13751
2026-01-03 14:29:22.44	341.24	18.65	-40.8	-52.0	3.8	8.47e-01	0	57	104	4269801472	51	13720
2026-01-03 14:29:23.45	341.25	18.52	-40.8	-52.1	3.8	8.46e-01	0	57	104	4269801472	51	13732
2026-01-03 14:29:24.46	341.27	18.40	-40.8	-52.0	3.8	8.47e-01	0	57	104	4269801472	51	13684
2026-01-03 14:29:25.47	341.29	18.28	-40.9	-52.0	3.8	8.47e-01	0	57	104	4269801472	51	13726
2026-01-03 14:29:26.48	341.30	18.15	-40.9	-52.1	3.8	8.46e-01	0	57	104	4269801472	51	13741
2026-01-03 14:29:27.49	341.32	18.03	-40.9	-52.0	3.8	8.46e-01	0	57	104	4269801472	51	13697
2026-01-03 14:29:28.50	341.34	17.91	-40.8	-52.0	3.8	8.45e-01	0	57	104	4269801472	51	13723
2026-01-03 14:29:29.51	341.35	17.79	-40.8	-52.1	3.8	8.47e-01	0	57	104	4269801472	51	13727
2026-01-03 14:29:30.52	341.37	17.67	-40.6	-52.0	3.8	8.47e-01	0	57	104	4269801472	51	13593
2026-01-03 14:29:31.53	341.38	17.55	-40.8	-52.0	3.8	8.46e-01	0	57	104	4269801472	51	13644
2026-01-03 14:29:32.54	341.40	17.43	-40.7	-51.9	3.8	8.46e-01	0	57	104	4269801472	51	13558
2026-01-03 14:29:33.55	341.42	17.31	-40.7	-51.9	3.8	8.45e-01	0	57	104	4269801472	51	13551
2026-01-03 14:29:34.56	341.43	17.20	-40.9	-52.0	3.8	8.46e-01	0	57	104	4269801472	51	13657
2026-01-03 14:29:35.57	341.45	17.08	-40.6	-51.9	3.8	8.47e-01	0	57	104	4269801472	51	13528
2026-01-03 14:29:36.58	341.46	16.96	-40.6	-51.9	3.8	8.46e-01	0	58	104	4269801472	51	13479
2026-01-03 14:29:37.59	341.48	16.85	-40.6	-51.9	3.8	8.47e-01	0	57	104	4269801472	51	13529
2026-01-03 14:29:38.60	341.49	16.73	-41.0	-52.1	3.8	8.47e-01	0	57	104	4269801472	51	13741
2026-01-03 14:29:39.61	341.51	16.62	-40.6	-51.9	3.8	8.46e-01	0	57	104	4269801472	51	13509
