passes_logs/2026/01/03/R2.0S_Moscow/R2.0S_Moscow__20260103_113121_SUOMI_NPP_rec.log

#Pass ID: 20260103_113121_SUOMI NPP
#Satellite: SUOMI NPP
#Configuration: NPP
#almurnet v.1.7.20251203
#Start time: 2026-01-03 11:31:23

#Version: 2.2.20231116
#Station: R2.0S_Moscow
#Location: 37.707566 lon 55.798166 lat
#TLE: 1 37849U 11061A   26001.07732418  .00000182  00000+0  10735-3 0  9990
#TLE: 2 37849  98.7795 303.2470 0002580  87.2016 272.9455 14.19520779734739

#Time	Az	El	Level	Level2	SNR	BER	BlckErr	Temp	State	Recorded	gain1	gain2
2026-01-03 11:31:23.31	207.26	2.13	-43.9	-58.5	3.8	1.49e+00	0	47	0	0	59	19238
2026-01-03 11:31:24.31	207.33	2.19	-43.9	-58.5	3.8	1.49e+00	0	47	104	0	59	19294
2026-01-03 11:31:25.32	207.40	2.24	-43.9	-58.5	3.8	1.49e+00	0	47	104	0	59	19239
2026-01-03 11:31:26.33	207.47	2.30	-43.9	-58.5	3.8	1.49e+00	0	48	104	0	59	19255
2026-01-03 11:31:27.34	207.55	2.35	-43.9	-58.5	3.8	1.49e+00	0	47	104	0	59	19233
2026-01-03 11:31:28.35	207.62	2.41	-43.9	-58.5	3.8	1.49e+00	0	48	104	0	59	19271
2026-01-03 11:31:29.36	207.70	2.47	-43.9	-58.5	3.8	1.49e+00	0	48	104	0	59	19216
2026-01-03 11:31:30.38	207.77	2.52	-43.8	-58.5	3.8	1.49e+00	0	48	104	0	59	19265
2026-01-03 11:31:31.39	207.84	2.58	-43.8	-58.5	3.8	1.49e+00	0	48	104	0	59	19208
2026-01-03 11:31:32.40	207.92	2.64	-43.9	-58.5	3.8	1.49e+00	0	48	104	0	59	19274
2026-01-03 11:31:33.41	207.99	2.69	-43.9	-58.5	3.8	1.49e+00	0	48	104	0	59	19249
2026-01-03 11:31:34.42	208.07	2.75	-43.9	-58.5	3.8	1.49e+00	0	48	104	0	59	19247
2026-01-03 11:31:35.43	208.15	2.81	-43.8	-58.5	3.8	1.49e+00	0	48	104	0	59	19230
2026-01-03 11:31:36.44	208.22	2.86	-43.8	-58.5	3.8	1.49e+00	0	48	104	0	59	19213
2026-01-03 11:31:37.45	208.30	2.92	-43.8	-58.5	3.8	1.49e+00	0	48	104	0	59	19234
2026-01-03 11:31:38.47	208.38	2.98	-43.9	-58.5	3.8	1.49e+00	0	48	104	0	59	19291
2026-01-03 11:31:39.48	208.45	3.03	-43.8	-58.5	3.8	1.49e+00	0	49	104	0	59	19209
2026-01-03 11:31:40.49	208.53	3.09	-43.8	-58.5	3.8	1.49e+00	0	48	104	0	59	19282
2026-01-03 11:31:41.50	208.61	3.15	-43.9	-58.5	3.8	1.49e+00	0	49	104	0	59	19266
2026-01-03 11:31:42.51	208.68	3.21	-43.9	-58.5	3.8	1.49e+00	0	49	104	0	59	19231
2026-01-03 11:31:43.52	208.76	3.26	-43.9	-58.5	3.8	1.49e+00	0	49	104	0	59	19300
2026-01-03 11:31:44.53	208.84	3.32	-43.9	-58.5	3.8	1.49e+00	0	49	104	0	59	19252
2026-01-03 11:31:45.54	208.92	3.38	-43.9	-58.5	3.8	1.49e+00	0	49	104	0	59	19262
2026-01-03 11:31:46.55	209.00	3.43	-43.9	-58.5	3.8	1.49e+00	0	49	104	0	59	19214
2026-01-03 11:31:47.57	209.08	3.49	-43.9	-58.5	3.8	1.49e+00	0	49	104	0	59	19244
2026-01-03 11:31:48.58	209.16	3.55	-43.9	-58.5	3.8	1.49e+00	0	49	104	0	59	19238
2026-01-03 11:31:49.59	209.24	3.61	-43.9	-58.5	3.8	1.49e+00	0	49	104	0	59	19201
2026-01-03 11:31:50.60	209.32	3.67	-43.8	-58.5	3.8	1.49e+00	0	49	104	0	59	19204
2026-01-03 11:31:51.61	209.40	3.72	-43.8	-58.5	3.8	1.49e+00	0	49	104	0	59	19257
2026-01-03 11:31:52.62	209.48	3.78	-43.8	-58.5	3.8	1.49e+00	0	49	104	0	59	19212
2026-01-03 11:31:53.63	209.56	3.84	-43.9	-58.5	3.8	1.49e+00	0	49	104	0	59	19286
2026-01-03 11:31:54.64	209.64	3.90	-43.9	-58.5	3.8	1.49e+00	0	49	104	0	59	19286
2026-01-03 11:31:55.65	209.72	3.96	-43.9	-58.5	3.8	1.49e+00	0	50	104	0	59	19257
2026-01-03 11:31:56.66	209.80	4.01	-43.9	-58.5	3.8	1.49e+00	0	50	104	0	59	19257
2026-01-03 11:31:57.67	209.89	4.07	-43.9	-58.5	3.8	1.49e+00	0	49	104	0	59	19251
2026-01-03 11:31:58.68	209.97	4.13	-43.9	-58.5	3.8	1.49e+00	0	50	104	0	59	19231
2026-01-03 11:31:59.70	210.05	4.19	-43.9	-58.5	3.8	1.49e+00	0	50	104	0	59	19246
2026-01-03 11:32:00.71	210.13	4.25	-43.9	-58.5	3.8	1.49e+00	0	50	104	0	59	19242
2026-01-03 11:32:01.72	210.22	4.31	-43.9	-58.5	3.8	1.49e+00	0	50	104	0	59	19231
2026-01-03 11:32:02.73	210.30	4.37	-43.9	-58.5	3.8	1.49e+00	0	50	104	0	59	19289
2026-01-03 11:32:03.74	210.39	4.43	-43.9	-58.5	3.8	1.49e+00	0	50	104	0	59	19219
2026-01-03 11:32:04.75	210.47	4.48	-43.9	-58.5	3.8	1.49e+00	0	50	104	0	59	19232
2026-01-03 11:32:05.76	210.56	4.54	-43.8	-58.5	3.8	1.49e+00	0	50	104	0	59	19259
2026-01-03 11:32:06.77	210.64	4.60	-43.9	-58.5	3.8	1.49e+00	0	50	104	0	59	19217
2026-01-03 11:32:07.78	210.73	4.66	-43.9	-58.5	3.8	1.49e+00	0	50	104	0	59	19225
2026-01-03 11:32:08.80	210.81	4.72	-43.9	-58.5	3.8	1.49e+00	0	50	104	0	59	19224
2026-01-03 11:32:09.81	210.90	4.78	-43.9	-58.5	3.8	1.49e+00	0	50	104	0	59	19215
2026-01-03 11:32:10.82	210.99	4.84	-43.9	-58.4	3.8	1.49e+00	0	50	104	0	59	19142
2026-01-03 11:32:11.83	211.07	4.90	-43.9	-58.4	3.8	1.49e+00	0	51	104	0	59	19007
2026-01-03 11:32:12.84	211.16	4.96	-43.9	-58.4	3.8	1.49e+00	0	50	104	0	59	18978
2026-01-03 11:32:13.85	211.25	5.02	-43.9	-58.3	3.8	1.49e+00	0	51	104	0	59	18894
2026-01-03 11:32:14.86	211.33	5.08	-43.9	-58.3	3.8	1.49e+00	0	51	104	0	59	18825
2026-01-03 11:32:15.87	211.42	5.14	-43.9	-58.3	3.8	1.49e+00	0	51	104	0	59	18884
2026-01-03 11:32:16.88	211.51	5.20	-43.9	-58.4	3.8	1.49e+00	0	51	104	0	59	19020
2026-01-03 11:32:17.90	211.60	5.26	-43.9	-58.3	3.8	1.49e+00	0	51	104	0	59	18905
2026-01-03 11:32:18.91	211.69	5.32	-43.9	-58.4	3.8	1.49e+00	0	51	104	0	59	19058
2026-01-03 11:32:19.92	211.78	5.38	-43.9	-58.4	3.8	1.49e+00	0	51	104	0	59	19118
2026-01-03 11:32:20.93	211.87	5.44	-43.9	-58.4	3.8	1.49e+00	0	51	104	0	59	19121
2026-01-03 11:32:21.94	211.96	5.50	-43.9	-58.5	3.8	1.49e+00	0	51	104	0	59	19179
2026-01-03 11:32:22.95	212.05	5.56	-43.9	-58.4	3.8	1.49e+00	0	51	104	0	59	19049
2026-01-03 11:32:23.96	212.14	5.62	-43.9	-58.3	3.8	1.49e+00	0	51	104	0	59	18919
2026-01-03 11:32:24.97	212.23	5.68	-43.9	-58.1	3.8	1.49e+00	0	51	104	0	59	18448
2026-01-03 11:32:25.98	212.32	5.74	-43.8	-58.0	3.8	1.49e+00	0	51	104	0	59	18222
2026-01-03 11:32:26.99	212.42	5.80	-43.8	-57.8	3.8	1.49e+00	0	51	104	0	59	17750
2026-01-03 11:32:28.00	212.51	5.86	-43.8	-57.5	3.8	1.49e+00	0	51	104	0	59	17126
2026-01-03 11:32:29.02	212.60	5.93	-43.8	-57.5	3.8	1.49e+00	0	51	104	0	59	17101
2026-01-03 11:32:30.03	212.70	5.99	-43.8	-57.2	3.8	1.49e+00	0	51	104	0	59	16577
2026-01-03 11:32:31.04	212.79	6.05	-43.8	-56.9	3.8	1.49e+00	0	51	104	0	59	16104
2026-01-03 11:32:32.05	212.88	6.11	-43.8	-57.0	3.8	1.49e+00	0	51	104	0	59	16248
2026-01-03 11:32:33.06	212.98	6.17	-43.8	-56.9	3.8	1.49e+00	0	51	104	0	59	15980
2026-01-03 11:32:34.07	213.07	6.23	-43.8	-57.1	3.8	1.49e+00	0	51	104	0	59	16322
2026-01-03 11:32:35.08	213.17	6.29	-43.8	-57.1	3.8	1.49e+00	0	51	104	0	59	16319
2026-01-03 11:32:36.09	213.26	6.35	-43.8	-57.2	3.8	1.49e+00	0	52	104	0	59	16589
2026-01-03 11:32:37.10	213.36	6.41	-43.8	-57.4	3.8	1.49e+00	0	52	104	0	59	17066
2026-01-03 11:32:38.12	213.46	6.48	-43.8	-57.9	3.8	1.49e+00	0	52	104	0	59	17894
2026-01-03 11:32:39.13	213.55	6.54	-43.9	-58.1	3.8	1.49e+00	0	52	104	0	59	18314
2026-01-03 11:32:40.14	213.65	6.60	-43.9	-58.1	3.8	1.49e+00	0	51	104	0	59	18414
2026-01-03 11:32:41.15	213.75	6.66	-43.8	-58.0	3.8	1.49e+00	0	52	104	0	59	18141
2026-01-03 11:32:42.16	213.85	6.72	-43.8	-57.9	3.8	1.49e+00	0	52	104	0	59	18028
2026-01-03 11:32:43.17	213.94	6.79	-43.8	-57.7	3.8	1.49e+00	0	52	104	0	59	17661
2026-01-03 11:32:44.18	214.04	6.85	-43.8	-57.7	3.8	1.49e+00	0	52	104	0	59	17653
2026-01-03 11:32:45.19	214.14	6.91	-43.8	-57.8	3.8	1.49e+00	0	52	104	0	59	17693
2026-01-03 11:32:46.20	214.24	6.97	-43.8	-57.4	3.8	1.49e+00	0	52	104	0	59	16942
2026-01-03 11:32:47.22	214.34	7.04	-43.7	-56.9	3.8	1.49e+00	0	52	104	0	59	16050
2026-01-03 11:32:48.22	214.44	7.10	-43.7	-56.0	3.8	1.49e+00	0	52	104	0	59	14525
2026-01-03 11:32:49.24	214.54	7.16	-43.6	-55.0	4.2	1.46e+00	0	52	0	0	59	12871
2026-01-03 11:32:50.25	214.64	7.22	-43.4	-53.5	4.7	1.18e+00	0	52	0	1048576	58	11498
2026-01-03 11:32:51.25	214.74	7.28	-43.3	-52.2	5.4	7.12e-01	0	52	0	2097152	58	9881
2026-01-03 11:32:52.26	214.85	7.35	-43.1	-50.9	6.4	3.21e-01	0	52	0	4194304	58	8465
2026-01-03 11:32:53.28	214.95	7.41	-42.8	-49.7	7.5	1.56e-01	0	52	0	6291456	57	7827
2026-01-03 11:32:54.29	215.05	7.47	-42.6	-48.6	8.5	7.88e-02	0	52	0	8388608	57	6930
2026-01-03 11:32:55.30	215.16	7.54	-42.3	-47.7	9.4	2.32e-02	0	52	0	10485760	56	6628
2026-01-03 11:32:56.31	215.26	7.60	-42.0	-47.1	10.1	8.90e-03	0	52	0	11534336	56	6142
2026-01-03 11:32:57.32	215.36	7.66	-41.6	-46.3	10.8	4.67e-03	0	52	0	13631488	55	5961
2026-01-03 11:32:58.33	215.47	7.73	-41.3	-45.6	11.6	1.12e-03	0	53	0	15728640	54	5789
2026-01-03 11:32:59.34	215.57	7.79	-41.4	-45.7	11.4	6.70e-04	0	53	0	17825792	54	5881
2026-01-03 11:33:00.35	215.68	7.85	-41.2	-45.4	11.8	5.96e-04	0	53	0	19922944	54	5664
2026-01-03 11:33:01.36	215.78	7.92	-41.0	-44.9	12.2	2.40e-04	0	53	0	22020096	54	5399
2026-01-03 11:33:02.37	215.89	7.98	-41.2	-45.3	11.9	2.70e-04	0	52	0	23068672	54	5593
2026-01-03 11:33:03.38	216.00	8.04	-41.0	-45.0	12.2	3.44e-04	0	53	0	25165824	54	5403
2026-01-03 11:33:04.39	216.11	8.11	-41.5	-46.0	11.2	7.69e-04	0	53	0	27262976	54	6114
2026-01-03 11:33:05.40	216.21	8.17	-42.5	-49.1	7.3	1.43e+00	0	53	104	28311552	57	7368
2026-01-03 11:33:06.41	216.32	8.23	-41.6	-45.8	11.4	4.91e-03	0	53	0	29360128	55	5647
2026-01-03 11:33:07.42	216.43	8.30	-40.7	-44.3	13.0	5.62e-04	0	53	0	31457280	53	5280
2026-01-03 11:33:08.43	216.54	8.36	-41.9	-46.8	10.2	4.30e-02	0	53	0	33554432	55	6291
2026-01-03 11:33:09.44	216.65	8.43	-40.6	-44.1	13.2	5.34e-05	0	53	0	34603008	53	5182
2026-01-03 11:33:10.45	216.76	8.49	-40.6	-44.1	13.2	1.83e-05	0	53	0	36700160	53	5194
2026-01-03 11:33:11.46	216.87	8.55	-40.6	-44.0	13.3	1.98e-05	0	53	0	38797312	53	5110
2026-01-03 11:33:12.47	216.98	8.62	-40.5	-43.9	13.5	1.22e-05	0	53	0	40894464	53	5044
2026-01-03 11:33:13.48	217.09	8.68	-40.5	-43.8	13.5	1.14e-05	0	53	0	42991616	52	5326
2026-01-03 11:33:14.49	217.20	8.75	-40.5	-43.8	13.6	6.10e-06	0	53	0	44040192	52	5282
2026-01-03 11:33:15.50	217.32	8.81	-40.5	-43.8	13.6	1.06e-05	0	53	0	46137344	52	5296
2026-01-03 11:33:16.51	217.43	8.88	-40.5	-43.7	13.6	6.80e-06	0	53	0	48234496	52	5261
2026-01-03 11:33:17.52	217.54	8.94	-40.5	-43.8	13.5	9.10e-06	0	53	0	50331648	52	5337
2026-01-03 11:33:18.53	217.66	9.01	-40.5	-43.7	13.7	8.30e-06	0	53	0	52428800	52	5262
2026-01-03 11:33:19.54	217.77	9.07	-40.6	-43.9	13.6	1.06e-05	0	53	0	53477376	52	5351
2026-01-03 11:33:20.55	217.88	9.13	-40.6	-43.9	13.5	9.10e-06	0	53	0	55574528	52	5377
2026-01-03 11:33:21.56	218.00	9.20	-40.6	-43.9	13.5	1.60e-05	0	53	0	57671680	52	5402
2026-01-03 11:33:22.57	218.12	9.26	-40.7	-44.1	13.4	2.13e-05	0	53	0	59768832	52	5492
2026-01-03 11:33:23.57	218.23	9.33	-40.7	-44.1	13.3	9.90e-06	0	53	0	61865984	52	5519
2026-01-03 11:33:24.58	218.35	9.39	-40.8	-44.2	13.3	1.52e-05	0	53	0	62914560	52	5545
2026-01-03 11:33:25.59	218.46	9.46	-40.7	-44.1	13.3	1.44e-05	0	53	0	65011712	52	5510
2026-01-03 11:33:26.60	218.58	9.52	-40.8	-44.3	13.2	1.98e-05	0	53	0	67108864	52	5612
2026-01-03 11:33:27.61	218.70	9.59	-40.9	-44.3	13.1	3.50e-05	0	53	0	69206016	52	5650
2026-01-03 11:33:28.62	218.82	9.65	-40.8	-44.2	13.3	1.83e-05	0	53	0	71303168	52	5558
2026-01-03 11:33:29.63	218.94	9.72	-40.7	-44.1	13.4	2.13e-05	0	53	0	72351744	52	5488
2026-01-03 11:33:30.64	219.06	9.79	-40.7	-43.9	13.5	1.06e-05	0	53	0	74448896	52	5398
2026-01-03 11:33:31.65	219.18	9.85	-40.6	-43.9	13.5	5.30e-06	0	53	0	76546048	52	5392
2026-01-03 11:33:32.66	219.30	9.92	-40.7	-44.0	13.6	6.10e-06	0	53	0	78643200	52	5406
2026-01-03 11:33:33.67	219.42	9.98	-40.7	-44.0	13.5	6.80e-06	0	53	0	80740352	52	5451
2026-01-03 11:33:34.68	219.54	10.05	-40.7	-43.9	13.6	1.52e-05	0	54	0	82837504	52	5381
2026-01-03 11:33:35.69	219.67	10.11	-40.8	-44.1	13.4	1.52e-05	0	54	0	83886080	52	5500
2026-01-03 11:33:36.70	219.79	10.18	-40.8	-44.2	13.3	8.30e-06	0	54	0	85983232	52	5557
2026-01-03 11:33:37.71	219.91	10.25	-40.6	-43.8	13.7	9.10e-06	0	54	0	88080384	52	5339
2026-01-03 11:33:38.72	220.04	10.31	-40.8	-44.2	13.4	1.22e-05	0	54	0	90177536	52	5532
2026-01-03 11:33:39.72	220.16	10.38	-40.7	-44.1	13.5	1.06e-05	0	54	0	92274688	52	5468
2026-01-03 11:33:40.73	220.29	10.44	-40.8	-44.1	13.5	1.29e-05	0	54	0	93323264	52	5494
2026-01-03 11:33:41.74	220.41	10.51	-40.8	-44.1	13.5	1.06e-05	0	54	0	95420416	52	5469
2026-01-03 11:33:42.75	220.54	10.58	-40.8	-44.2	13.4	1.06e-05	0	54	0	97517568	52	5530
2026-01-03 11:33:43.76	220.66	10.64	-40.8	-44.1	13.5	6.80e-06	0	54	0	99614720	52	5509
2026-01-03 11:33:44.77	220.79	10.71	-40.8	-44.2	13.4	3.00e-06	0	54	0	101711872	52	5545
2026-01-03 11:33:45.78	220.92	10.77	-40.8	-44.0	13.5	9.10e-06	0	54	0	102760448	52	5457
2026-01-03 11:33:46.79	221.05	10.84	-40.6	-43.8	13.7	7.60e-06	0	54	0	104857600	52	5336
2026-01-03 11:33:47.80	221.18	10.91	-40.7	-44.0	13.6	3.80e-06	0	54	0	106954752	52	5435
2026-01-03 11:33:48.81	221.31	10.97	-40.5	-43.6	14.0	7.60e-06	0	54	0	109051904	52	5195
2026-01-03 11:33:49.82	221.44	11.04	-40.5	-43.5	14.1	2.20e-06	0	54	0	111149056	52	5140
2026-01-03 11:33:50.83	221.57	11.11	-40.4	-43.5	14.2	7.00e-07	0	54	0	112197632	52	5103
2026-01-03 11:33:51.84	221.70	11.17	-40.4	-43.4	14.3	0.00e+00	0	54	0	114294784	52	5060
2026-01-03 11:33:52.85	221.83	11.24	-40.3	-43.3	14.3	1.50e-06	0	54	0	116391936	52	5011
2026-01-03 11:33:53.86	221.96	11.31	-40.3	-43.2	14.4	1.50e-06	0	54	0	118489088	52	4934
2026-01-03 11:33:54.87	222.10	11.37	-40.3	-43.2	14.4	0.00e+00	0	54	0	120586240	52	4973
2026-01-03 11:33:55.88	222.23	11.44	-40.2	-43.0	14.6	0.00e+00	0	54	0	121634816	52	4846
2026-01-03 11:33:56.89	222.36	11.51	-40.2	-43.0	14.7	0.00e+00	0	54	0	123731968	52	4864
2026-01-03 11:33:57.90	222.50	11.57	-40.2	-43.1	14.6	7.00e-07	0	54	0	125829120	52	4912
2026-01-03 11:33:58.91	222.64	11.64	-40.1	-42.9	14.8	0.00e+00	0	54	0	127926272	52	4767
2026-01-03 11:33:59.92	222.77	11.71	-40.0	-42.8	14.9	0.00e+00	0	54	0	130023424	52	4737
2026-01-03 11:34:00.93	222.91	11.78	-40.1	-42.8	14.9	1.50e-06	0	54	0	131072000	52	4738
2026-01-03 11:34:01.93	223.04	11.84	-40.1	-42.8	14.9	0.00e+00	0	54	0	133169152	52	4746
2026-01-03 11:34:02.94	223.18	11.91	-40.1	-42.8	14.9	0.00e+00	0	54	0	135266304	52	4758
2026-01-03 11:34:03.95	223.32	11.98	-40.2	-43.0	14.7	0.00e+00	0	54	0	137363456	52	4839
2026-01-03 11:34:04.96	223.46	12.04	-40.2	-43.1	14.7	7.00e-07	0	54	0	139460608	52	4876
2026-01-03 11:34:05.97	223.60	12.11	-40.2	-43.0	14.8	0.00e+00	0	54	0	140509184	52	4844
2026-01-03 11:34:06.98	223.74	12.18	-40.2	-43.0	14.7	0.00e+00	0	54	0	142606336	52	4861
2026-01-03 11:34:07.99	223.88	12.24	-40.3	-43.1	14.7	0.00e+00	0	54	0	144703488	52	4896
2026-01-03 11:34:09.00	224.02	12.31	-40.3	-43.1	14.6	7.00e-07	0	54	0	146800640	52	4899
2026-01-03 11:34:10.01	224.16	12.38	-40.4	-43.3	14.5	0.00e+00	0	54	0	148897792	52	4991
2026-01-03 11:34:11.02	224.31	12.45	-40.3	-43.1	14.7	0.00e+00	0	54	0	150994944	52	4892
2026-01-03 11:34:12.03	224.45	12.51	-40.2	-43.1	14.7	7.00e-07	0	54	0	152043520	52	4874
2026-01-03 11:34:13.04	224.59	12.58	-40.4	-43.3	14.5	0.00e+00	0	54	0	154140672	52	4998
2026-01-03 11:34:14.05	224.74	12.65	-40.3	-43.2	14.6	0.00e+00	0	54	0	156237824	52	4927
2026-01-03 11:34:15.06	224.89	12.72	-40.4	-43.3	14.5	0.00e+00	0	54	0	158334976	52	5028
2026-01-03 11:34:16.06	225.03	12.78	-40.5	-43.5	14.3	3.00e-06	0	54	0	160432128	52	5145
2026-01-03 11:34:17.07	225.18	12.85	-40.4	-43.4	14.4	0.00e+00	0	54	0	161480704	52	5069
2026-01-03 11:34:18.08	225.32	12.92	-40.3	-43.2	14.6	0.00e+00	0	54	0	163577856	52	4951
2026-01-03 11:34:19.10	225.47	12.99	-40.5	-43.4	14.4	1.50e-06	0	54	0	165675008	52	5073
2026-01-03 11:34:20.10	225.62	13.05	-40.5	-43.4	14.4	0.00e+00	0	54	0	167772160	52	5058
2026-01-03 11:34:21.12	225.77	13.12	-40.4	-43.2	14.6	7.00e-07	0	55	0	169869312	52	4954
2026-01-03 11:34:22.12	225.92	13.19	-40.4	-43.4	14.4	0.00e+00	0	54	0	170917888	52	5048
2026-01-03 11:34:23.13	226.07	13.26	-40.3	-43.2	14.6	7.00e-07	0	55	0	173015040	52	4934
2026-01-03 11:34:24.14	226.22	13.32	-40.2	-42.9	14.9	7.00e-07	0	55	0	175112192	52	4774
2026-01-03 11:34:25.15	226.37	13.39	-40.1	-42.8	15.0	0.00e+00	0	55	0	177209344	52	4741
2026-01-03 11:34:26.16	226.53	13.46	-40.1	-42.8	15.1	0.00e+00	0	55	0	179306496	52	4732
2026-01-03 11:34:27.17	226.68	13.53	-40.1	-42.7	15.2	0.00e+00	0	54	0	180355072	51	4950
2026-01-03 11:34:28.18	226.83	13.59	-40.0	-42.6	15.3	0.00e+00	0	55	0	182452224	51	4911
2026-01-03 11:34:29.19	226.99	13.66	-39.9	-42.4	15.4	0.00e+00	0	55	0	184549376	51	4814
2026-01-03 11:34:30.20	227.14	13.73	-39.8	-42.3	15.7	0.00e+00	0	55	0	186646528	51	4711
2026-01-03 11:34:31.21	227.30	13.80	-39.8	-42.3	15.6	0.00e+00	0	55	0	188743680	51	4759
2026-01-03 11:34:32.21	227.46	13.86	-39.8	-42.4	15.5	0.00e+00	0	55	0	189792256	51	4774
2026-01-03 11:34:33.22	227.61	13.93	-39.8	-42.4	15.6	0.00e+00	0	55	0	191889408	51	4766
2026-01-03 11:34:34.23	227.77	14.00	-39.9	-42.4	15.5	0.00e+00	0	55	0	193986560	51	4783
2026-01-03 11:34:35.24	227.93	14.07	-39.9	-42.5	15.4	0.00e+00	0	55	0	196083712	51	4847
2026-01-03 11:34:36.25	228.09	14.13	-39.8	-42.3	15.6	0.00e+00	0	55	0	198180864	51	4734
2026-01-03 11:34:37.26	228.25	14.20	-40.0	-42.5	15.4	0.00e+00	0	55	0	199229440	51	4865
2026-01-03 11:34:38.27	228.41	14.27	-39.9	-42.5	15.5	0.00e+00	0	55	0	201326592	51	4819
2026-01-03 11:34:39.28	228.57	14.34	-39.9	-42.5	15.4	0.00e+00	0	55	0	203423744	51	4840
2026-01-03 11:34:40.29	228.74	14.40	-39.9	-42.5	15.4	0.00e+00	0	55	0	205520896	51	4829
2026-01-03 11:34:41.30	228.90	14.47	-40.0	-42.6	15.3	0.00e+00	0	55	0	207618048	51	4900
2026-01-03 11:34:42.31	229.06	14.54	-40.0	-42.7	15.3	0.00e+00	0	55	0	208666624	51	4931
2026-01-03 11:34:43.32	229.23	14.61	-40.0	-42.6	15.3	0.00e+00	0	55	0	210763776	51	4904
2026-01-03 11:34:44.33	229.39	14.67	-40.1	-42.8	15.1	0.00e+00	0	55	0	212860928	51	5019
2026-01-03 11:34:45.34	229.56	14.74	-40.1	-42.8	15.2	0.00e+00	0	55	0	214958080	51	5000
2026-01-03 11:34:46.35	229.73	14.81	-40.2	-42.9	15.0	0.00e+00	0	55	0	217055232	51	5093
2026-01-03 11:34:47.36	229.89	14.88	-40.2	-43.0	15.0	0.00e+00	0	55	0	218103808	51	5122
2026-01-03 11:34:48.37	230.06	14.94	-40.2	-43.0	15.0	0.00e+00	0	55	0	220200960	51	5123
2026-01-03 11:34:49.38	230.23	15.01	-40.3	-43.0	14.9	0.00e+00	0	55	0	222298112	51	5144
2026-01-03 11:34:50.38	230.40	15.08	-40.1	-42.8	15.2	0.00e+00	0	55	0	224395264	51	4998
2026-01-03 11:34:51.39	230.57	15.14	-40.1	-42.7	15.3	0.00e+00	0	55	0	226492416	51	4961
2026-01-03 11:34:52.40	230.74	15.21	-40.1	-42.7	15.3	0.00e+00	0	55	0	227540992	51	4934
2026-01-03 11:34:53.41	230.91	15.28	-40.0	-42.5	15.4	0.00e+00	0	55	0	229638144	51	4869
2026-01-03 11:34:54.42	231.08	15.34	-40.0	-42.5	15.5	0.00e+00	0	55	0	231735296	51	4861
2026-01-03 11:34:55.43	231.26	15.41	-39.9	-42.5	15.5	7.00e-07	0	55	0	233832448	51	4827
2026-01-03 11:34:56.44	231.43	15.48	-39.8	-42.3	15.7	0.00e+00	0	55	0	235929600	51	4749
2026-01-03 11:34:57.45	231.61	15.54	-39.9	-42.4	15.6	0.00e+00	0	55	0	236978176	51	4775
2026-01-03 11:34:58.46	231.78	15.61	-39.8	-42.3	15.7	0.00e+00	0	55	0	239075328	51	4743
2026-01-03 11:34:59.47	231.96	15.68	-39.8	-42.3	15.8	0.00e+00	0	55	0	241172480	51	4725
2026-01-03 11:35:00.48	232.14	15.74	-39.8	-42.3	15.7	0.00e+00	0	55	0	243269632	51	4737
2026-01-03 11:35:01.49	232.32	15.81	-39.8	-42.3	15.7	0.00e+00	0	55	0	245366784	51	4735
2026-01-03 11:35:02.50	232.49	15.88	-39.7	-42.1	15.9	0.00e+00	0	55	0	247463936	51	4601
2026-01-03 11:35:03.51	232.67	15.94	-39.7	-42.1	15.9	0.00e+00	0	55	0	248512512	51	4642
2026-01-03 11:35:04.52	232.85	16.01	-39.8	-42.2	15.8	0.00e+00	0	55	0	250609664	51	4686
2026-01-03 11:35:05.53	233.03	16.07	-39.6	-41.9	16.0	0.00e+00	0	55	0	252706816	51	4536
2026-01-03 11:35:06.54	233.22	16.14	-39.7	-42.1	16.0	0.00e+00	0	55	0	254803968	51	4600
2026-01-03 11:35:07.55	233.40	16.21	-39.6	-42.0	16.0	0.00e+00	0	55	0	256901120	51	4555
2026-01-03 11:35:08.56	233.58	16.27	-39.6	-42.0	16.0	0.00e+00	0	55	0	257949696	51	4557
2026-01-03 11:35:09.58	233.77	16.34	-39.6	-42.0	16.1	0.00e+00	0	55	0	260046848	51	4546
2026-01-03 11:35:10.59	233.95	16.40	-39.6	-42.0	16.0	0.00e+00	0	55	0	262144000	51	4574
2026-01-03 11:35:11.60	234.14	16.47	-39.7	-42.1	15.9	0.00e+00	0	55	0	264241152	51	4615
2026-01-03 11:35:12.61	234.33	16.54	-39.8	-42.2	15.8	0.00e+00	0	55	0	266338304	51	4693
2026-01-03 11:35:13.61	234.51	16.60	-39.9	-42.4	15.6	0.00e+00	0	55	0	267386880	51	4771
2026-01-03 11:35:14.62	234.70	16.66	-39.9	-42.3	15.7	0.00e+00	0	55	0	269484032	51	4757
2026-01-03 11:35:15.63	234.89	16.73	-40.0	-42.5	15.5	0.00e+00	0	55	0	271581184	51	4861
2026-01-03 11:35:16.64	235.08	16.79	-40.0	-42.5	15.5	0.00e+00	0	55	0	273678336	51	4852
2026-01-03 11:35:17.65	235.27	16.86	-40.0	-42.5	15.5	0.00e+00	0	55	0	275775488	51	4853
2026-01-03 11:35:18.66	235.46	16.92	-40.0	-42.5	15.5	0.00e+00	0	55	0	276824064	51	4867
2026-01-03 11:35:19.67	235.65	16.99	-40.1	-42.7	15.4	0.00e+00	0	55	0	278921216	51	4937
2026-01-03 11:35:20.68	235.85	17.05	-39.9	-42.4	15.7	0.00e+00	0	55	0	281018368	51	4777
2026-01-03 11:35:21.69	236.04	17.12	-39.8	-42.2	15.8	0.00e+00	0	55	0	283115520	51	4681
2026-01-03 11:35:22.70	236.23	17.18	-39.9	-42.4	15.7	0.00e+00	0	55	0	285212672	51	4775
2026-01-03 11:35:23.71	236.43	17.24	-40.0	-42.5	15.5	0.00e+00	0	55	0	287309824	51	4863
2026-01-03 11:35:24.72	236.63	17.31	-40.1	-42.7	15.4	0.00e+00	0	55	0	288358400	51	4934
2026-01-03 11:35:25.73	236.82	17.37	-40.0	-42.6	15.5	0.00e+00	0	55	0	290455552	51	4887
2026-01-03 11:35:26.74	237.02	17.44	-40.2	-42.8	15.3	0.00e+00	0	55	0	292552704	51	4988
2026-01-03 11:35:27.75	237.22	17.50	-40.1	-42.7	15.4	0.00e+00	0	55	0	294649856	51	4948
2026-01-03 11:35:28.76	237.42	17.56	-40.1	-42.7	15.4	0.00e+00	0	55	0	296747008	51	4928
2026-01-03 11:35:29.77	237.62	17.62	-40.0	-42.6	15.4	0.00e+00	0	55	0	297795584	51	4884
2026-01-03 11:35:30.78	237.82	17.69	-40.0	-42.5	15.6	0.00e+00	0	55	0	299892736	51	4839
2026-01-03 11:35:31.79	238.02	17.75	-39.9	-42.4	15.7	0.00e+00	0	55	0	301989888	51	4796
2026-01-03 11:35:32.80	238.23	17.81	-39.9	-42.4	15.6	0.00e+00	0	55	0	304087040	51	4802
2026-01-03 11:35:33.81	238.43	17.87	-40.0	-42.5	15.6	0.00e+00	0	55	0	305135616	51	4824
2026-01-03 11:35:34.82	238.63	17.94	-40.0	-42.5	15.6	0.00e+00	0	55	0	307232768	51	4830
2026-01-03 11:35:35.83	238.84	18.00	-40.0	-42.5	15.6	0.00e+00	0	55	0	309329920	51	4859
2026-01-03 11:35:36.84	239.04	18.06	-39.9	-42.4	15.7	0.00e+00	0	56	0	311427072	51	4774
2026-01-03 11:35:37.85	239.25	18.12	-39.9	-42.4	15.7	0.00e+00	0	56	0	313524224	51	4766
2026-01-03 11:35:38.86	239.46	18.18	-39.8	-42.2	15.9	0.00e+00	0	56	0	315621376	51	4678
2026-01-03 11:35:39.86	239.66	18.24	-39.9	-42.3	15.8	0.00e+00	0	56	0	316669952	51	4724
2026-01-03 11:35:40.87	239.87	18.30	-39.9	-42.3	15.7	0.00e+00	0	55	0	318767104	51	4750
2026-01-03 11:35:41.88	240.08	18.36	-40.1	-42.6	15.5	0.00e+00	0	55	0	320864256	51	4914
2026-01-03 11:35:42.89	240.29	18.42	-40.1	-42.6	15.4	0.00e+00	0	56	0	322961408	51	4921
2026-01-03 11:35:43.90	240.51	18.48	-40.3	-43.0	15.1	0.00e+00	0	56	0	325058560	51	5114
2026-01-03 11:35:44.91	240.72	18.54	-40.3	-43.0	15.1	0.00e+00	0	56	0	326107136	51	5133
2026-01-03 11:35:45.92	240.93	18.60	-40.2	-42.9	15.2	0.00e+00	0	56	0	328204288	51	5042
2026-01-03 11:35:46.93	241.15	18.66	-40.2	-42.9	15.2	0.00e+00	0	55	0	330301440	51	5056
2026-01-03 11:35:47.94	241.36	18.72	-40.0	-42.6	15.5	0.00e+00	0	55	0	332398592	51	4893
2026-01-03 11:35:48.95	241.58	18.78	-40.0	-42.5	15.6	0.00e+00	0	55	0	334495744	51	4820
2026-01-03 11:35:49.96	241.79	18.84	-39.9	-42.3	15.7	0.00e+00	0	56	0	335544320	51	4758
2026-01-03 11:35:50.97	242.01	18.90	-40.1	-42.6	15.5	0.00e+00	0	56	0	337641472	51	4913
2026-01-03 11:35:51.98	242.23	18.96	-40.4	-43.1	15.0	0.00e+00	0	55	0	339738624	51	5172
2026-01-03 11:35:52.99	242.45	19.01	-40.4	-43.1	15.0	0.00e+00	0	56	0	341835776	51	5212
2026-01-03 11:35:54.00	242.67	19.07	-40.5	-43.2	14.9	7.00e-07	0	56	0	343932928	51	5264
2026-01-03 11:35:55.01	242.89	19.13	-40.5	-43.3	14.9	0.00e+00	0	56	0	344981504	51	5281
2026-01-03 11:35:56.02	243.11	19.19	-40.3	-43.0	15.2	0.00e+00	0	56	0	347078656	51	5115
2026-01-03 11:35:57.03	243.33	19.24	-40.2	-42.8	15.3	0.00e+00	0	56	0	349175808	51	5003
2026-01-03 11:35:58.04	243.55	19.30	-40.2	-42.8	15.3	0.00e+00	0	56	0	351272960	51	4993
2026-01-03 11:35:59.05	243.78	19.35	-40.3	-43.0	15.1	0.00e+00	0	56	0	353370112	51	5123
2026-01-03 11:36:00.06	244.00	19.41	-40.7	-43.5	14.6	0.00e+00	0	56	0	354418688	51	5446
2026-01-03 11:36:01.06	244.23	19.47	-40.8	-43.8	14.2	0.00e+00	0	56	0	356515840	52	5335
2026-01-03 11:36:02.07	244.45	19.52	-40.8	-43.9	14.1	7.00e-07	0	56	0	358612992	52	5367
2026-01-03 11:36:03.08	244.68	19.58	-40.9	-43.9	14.1	1.50e-06	0	56	0	360710144	52	5399
2026-01-03 11:36:04.09	244.91	19.63	-40.6	-43.5	14.5	7.00e-07	0	56	0	362807296	52	5122
2026-01-03 11:36:05.10	245.13	19.68	-40.5	-43.3	14.7	0.00e+00	0	56	0	363855872	52	5033
2026-01-03 11:36:06.11	245.36	19.74	-40.6	-43.4	14.7	0.00e+00	0	56	0	365953024	52	5053
2026-01-03 11:36:07.12	245.59	19.79	-40.4	-43.2	14.9	0.00e+00	0	56	0	368050176	52	4946
2026-01-03 11:36:08.13	245.83	19.84	-40.6	-43.5	14.6	0.00e+00	0	56	0	370147328	52	5110
2026-01-03 11:36:09.14	246.06	19.90	-40.7	-43.6	14.5	0.00e+00	0	56	0	372244480	52	5202
2026-01-03 11:36:10.14	246.29	19.95	-40.8	-43.7	14.3	0.00e+00	0	56	0	373293056	52	5267
2026-01-03 11:36:11.15	246.52	20.00	-40.9	-43.9	14.1	7.00e-07	0	56	0	375390208	52	5394
2026-01-03 11:36:12.16	246.75	20.05	-40.8	-43.8	14.2	1.50e-06	0	56	0	377487360	52	5333
2026-01-03 11:36:13.17	246.99	20.10	-40.8	-43.7	14.3	1.50e-06	0	56	0	379584512	52	5256
2026-01-03 11:36:14.18	247.22	20.16	-40.8	-43.8	14.2	1.50e-06	0	56	0	381681664	52	5312
2026-01-03 11:36:15.19	247.46	20.21	-41.0	-44.1	14.0	1.50e-06	0	56	0	383778816	52	5468
2026-01-03 11:36:16.20	247.70	20.26	-41.2	-44.4	13.6	6.80e-06	0	56	0	384827392	52	5709
2026-01-03 11:36:17.21	247.94	20.31	-41.2	-44.4	13.6	9.10e-06	0	56	0	386924544	53	5383
2026-01-03 11:36:18.22	248.17	20.36	-41.1	-44.4	13.7	7.60e-06	0	56	0	389021696	53	5346
2026-01-03 11:36:19.23	248.41	20.40	-41.1	-44.3	13.8	6.80e-06	0	56	0	391118848	53	5298
2026-01-03 11:36:20.24	248.65	20.45	-40.8	-43.8	14.2	1.50e-06	0	56	0	393216000	53	5031
2026-01-03 11:36:21.24	248.89	20.50	-40.7	-43.6	14.5	2.20e-06	0	56	0	394264576	53	4873
2026-01-03 11:36:22.25	249.13	20.55	-40.5	-43.3	14.7	0.00e+00	0	56	0	396361728	53	4754
2026-01-03 11:36:23.26	249.37	20.60	-40.4	-43.2	14.9	7.00e-07	0	56	0	398458880	52	4960
2026-01-03 11:36:24.27	249.62	20.64	-40.4	-43.2	14.9	0.00e+00	0	56	0	400556032	52	4950
2026-01-03 11:36:25.28	249.86	20.69	-40.4	-43.1	14.9	0.00e+00	0	56	0	402653184	52	4899
2026-01-03 11:36:26.29	250.11	20.74	-40.3	-43.0	15.1	0.00e+00	0	56	0	403701760	52	4838
2026-01-03 11:36:27.30	250.35	20.78	-40.3	-43.0	15.1	0.00e+00	0	56	0	405798912	52	4854
2026-01-03 11:36:28.31	250.60	20.83	-40.5	-43.3	14.8	0.00e+00	0	56	0	407896064	52	5013
2026-01-03 11:36:29.32	250.84	20.87	-40.6	-43.5	14.6	7.00e-07	0	56	0	409993216	52	5151
2026-01-03 11:36:30.33	251.09	20.92	-40.9	-43.9	14.2	1.50e-06	0	56	0	412090368	52	5369
2026-01-03 11:36:31.33	251.34	20.96	-41.0	-44.1	13.9	2.20e-06	0	56	0	413138944	52	5514
2026-01-03 11:36:32.34	251.58	21.00	-41.1	-44.3	13.8	3.80e-06	0	56	0	415236096	52	5593
2026-01-03 11:36:33.35	251.83	21.05	-40.9	-44.0	14.1	1.50e-06	0	56	0	417333248	52	5441
2026-01-03 11:36:34.36	252.08	21.09	-40.6	-43.4	14.7	1.50e-06	0	56	0	419430400	52	5069
2026-01-03 11:36:35.37	252.33	21.13	-40.4	-43.1	15.0	7.00e-07	0	56	0	421527552	52	4878
2026-01-03 11:36:36.38	252.58	21.17	-40.4	-43.1	15.1	0.00e+00	0	56	0	422576128	52	4877
2026-01-03 11:36:37.39	252.84	21.21	-40.2	-42.9	15.2	0.00e+00	0	56	0	424673280	52	4776
2026-01-03 11:36:38.40	253.09	21.25	-40.3	-43.0	15.1	0.00e+00	0	56	0	426770432	52	4850
2026-01-03 11:36:39.41	253.34	21.29	-40.4	-43.1	14.9	7.00e-07	0	56	0	428867584	52	4913
2026-01-03 11:36:40.41	253.59	21.33	-40.6	-43.4	14.7	0.00e+00	0	56	0	430964736	52	5078
2026-01-03 11:36:41.42	253.85	21.37	-40.5	-43.3	14.8	7.00e-07	0	56	0	432013312	52	5001
2026-01-03 11:36:42.43	254.10	21.41	-40.3	-43.0	15.0	7.00e-07	0	56	0	434110464	52	4852
2026-01-03 11:36:43.44	254.36	21.45	-40.4	-43.1	15.0	0.00e+00	0	56	0	436207616	52	4899
2026-01-03 11:36:44.45	254.61	21.49	-40.5	-43.3	14.7	0.00e+00	0	56	0	438304768	52	5040
2026-01-03 11:36:45.45	254.87	21.52	-40.7	-43.7	14.4	0.00e+00	0	56	0	440401920	52	5226
2026-01-03 11:36:46.46	255.13	21.56	-40.9	-44.0	14.0	0.00e+00	0	56	0	441450496	52	5418
2026-01-03 11:36:47.47	255.38	21.60	-40.8	-43.7	14.4	7.00e-07	0	56	0	443547648	52	5268
2026-01-03 11:36:48.48	255.64	21.63	-40.5	-43.4	14.7	1.50e-06	0	56	0	445644800	52	5042
2026-01-03 11:36:49.48	255.90	21.67	-40.3	-42.9	15.2	0.00e+00	0	56	0	447741952	52	4808
2026-01-03 11:36:50.49	256.16	21.70	-40.0	-42.5	15.5	0.00e+00	0	56	0	449839104	52	4595
2026-01-03 11:36:51.50	256.42	21.73	-39.9	-42.3	15.9	0.00e+00	0	56	0	451936256	51	4733
2026-01-03 11:36:52.51	256.68	21.77	-40.1	-42.6	15.6	0.00e+00	0	56	0	452984832	51	4875
2026-01-03 11:36:53.52	256.94	21.80	-40.1	-42.6	15.5	0.00e+00	0	56	0	455081984	51	4911
2026-01-03 11:36:54.54	257.21	21.83	-40.3	-42.9	15.2	0.00e+00	0	56	0	457179136	51	5079
2026-01-03 11:36:55.54	257.47	21.86	-40.4	-43.1	15.1	0.00e+00	0	56	0	459276288	51	5172
2026-01-03 11:36:56.55	257.73	21.89	-40.2	-42.7	15.5	0.00e+00	0	56	0	461373440	51	4958
2026-01-03 11:36:57.56	257.99	21.92	-40.2	-42.7	15.4	0.00e+00	0	56	0	462422016	51	4956
2026-01-03 11:36:58.57	258.26	21.95	-40.3	-42.8	15.4	0.00e+00	0	56	0	464519168	51	5025
2026-01-03 11:36:59.58	258.52	21.98	-40.2	-42.7	15.5	0.00e+00	0	56	0	466616320	51	4962
2026-01-03 11:37:00.59	258.79	22.01	-40.1	-42.5	15.6	0.00e+00	0	56	0	468713472	51	4870
2026-01-03 11:37:01.60	259.05	22.04	-40.1	-42.7	15.5	0.00e+00	0	56	0	470810624	51	4938
2026-01-03 11:37:02.61	259.32	22.07	-40.1	-42.6	15.6	0.00e+00	0	56	0	471859200	51	4900
2026-01-03 11:37:03.62	259.58	22.10	-40.0	-42.5	15.7	0.00e+00	0	56	0	473956352	51	4846
2026-01-03 11:37:04.63	259.85	22.12	-40.0	-42.5	15.7	0.00e+00	0	56	0	476053504	51	4841
2026-01-03 11:37:05.64	260.12	22.15	-40.1	-42.6	15.7	0.00e+00	0	56	0	478150656	51	4884
2026-01-03 11:37:06.65	260.38	22.17	-40.2	-42.7	15.5	0.00e+00	0	56	0	480247808	51	4965
2026-01-03 11:37:07.66	260.65	22.20	-39.9	-42.4	15.8	0.00e+00	0	56	0	481296384	51	4793
2026-01-03 11:37:08.67	260.92	22.22	-40.1	-42.6	15.6	0.00e+00	0	56	0	483393536	51	4901
2026-01-03 11:37:09.68	261.19	22.24	-40.0	-42.5	15.7	0.00e+00	0	56	0	485490688	51	4850
2026-01-03 11:37:10.69	261.46	22.27	-40.2	-42.7	15.5	0.00e+00	0	56	0	487587840	51	4973
2026-01-03 11:37:11.70	261.73	22.29	-40.4	-43.0	15.1	0.00e+00	0	56	0	489684992	51	5153
2026-01-03 11:37:12.71	262.00	22.31	-40.6	-43.5	14.7	0.00e+00	0	56	0	490733568	51	5413
2026-01-03 11:37:13.72	262.27	22.33	-40.6	-43.4	14.8	0.00e+00	0	56	0	492830720	51	5373
2026-01-03 11:37:14.73	262.54	22.35	-40.5	-43.3	14.9	7.00e-07	0	56	0	494927872	52	5002
2026-01-03 11:37:15.74	262.81	22.37	-40.4	-43.2	15.0	0.00e+00	0	56	0	497025024	52	4935
2026-01-03 11:37:16.75	263.08	22.39	-40.3	-42.9	15.2	0.00e+00	0	56	0	499122176	52	4807
2026-01-03 11:37:17.76	263.35	22.41	-40.3	-43.0	15.1	0.00e+00	0	56	0	500170752	52	4830
2026-01-03 11:37:18.77	263.62	22.43	-40.5	-43.3	14.8	0.00e+00	0	56	0	502267904	52	5031
2026-01-03 11:37:19.78	263.90	22.44	-40.6	-43.5	14.6	0.00e+00	0	56	0	504365056	52	5123
2026-01-03 11:37:20.79	264.17	22.46	-40.5	-43.3	14.8	0.00e+00	0	56	0	506462208	52	4992
2026-01-03 11:37:21.80	264.44	22.48	-40.4	-43.1	15.0	0.00e+00	0	56	0	508559360	52	4895
2026-01-03 11:37:22.81	264.71	22.49	-40.0	-42.5	15.7	0.00e+00	0	56	0	509607936	51	4832
2026-01-03 11:37:23.82	264.99	22.50	-39.9	-42.3	15.9	0.00e+00	0	56	0	511705088	51	4736
2026-01-03 11:37:24.82	265.26	22.52	-39.9	-42.4	15.9	0.00e+00	0	56	0	513802240	51	4765
2026-01-03 11:37:25.83	265.53	22.53	-40.2	-42.8	15.5	0.00e+00	0	56	0	515899392	51	4985
2026-01-03 11:37:26.84	265.81	22.54	-40.4	-43.1	15.1	0.00e+00	0	56	0	517996544	51	5173
2026-01-03 11:37:27.85	266.08	22.56	-40.7	-43.6	14.6	0.00e+00	0	56	0	520093696	51	5493
2026-01-03 11:37:28.86	266.35	22.57	-40.6	-43.4	14.7	0.00e+00	0	56	0	521142272	52	5055
2026-01-03 11:37:29.87	266.63	22.58	-40.3	-43.0	15.1	0.00e+00	0	56	0	523239424	52	4833
2026-01-03 11:37:30.88	266.90	22.59	-40.1	-42.7	15.4	0.00e+00	0	56	0	525336576	52	4687
2026-01-03 11:37:31.89	267.18	22.60	-40.1	-42.5	15.7	0.00e+00	0	56	0	527433728	51	4865
2026-01-03 11:37:32.90	267.45	22.60	-40.1	-42.6	15.5	0.00e+00	0	56	0	529530880	51	4920
2026-01-03 11:37:33.91	267.73	22.61	-40.3	-42.9	15.3	0.00e+00	0	56	0	530579456	51	5064
2026-01-03 11:37:34.92	268.00	22.62	-40.4	-43.0	15.2	0.00e+00	0	56	0	532676608	51	5157
2026-01-03 11:37:35.93	268.28	22.63	-40.3	-42.9	15.3	0.00e+00	0	56	0	534773760	51	5076
2026-01-03 11:37:36.94	268.55	22.63	-40.1	-42.6	15.5	0.00e+00	0	56	0	536870912	51	4921
2026-01-03 11:37:37.95	268.83	22.64	-40.0	-42.4	15.8	0.00e+00	0	56	0	537919488	51	4796
2026-01-03 11:37:38.95	269.10	22.64	-40.1	-42.6	15.6	0.00e+00	0	56	0	540016640	51	4890
2026-01-03 11:37:39.96	269.38	22.64	-40.1	-42.6	15.5	0.00e+00	0	56	0	542113792	51	4914
2026-01-03 11:37:40.97	269.65	22.65	-40.3	-43.0	15.2	0.00e+00	0	56	0	544210944	51	5130
2026-01-03 11:37:41.99	269.93	22.65	-40.3	-42.9	15.3	0.00e+00	0	56	0	546308096	51	5081
2026-01-03 11:37:42.99	270.20	22.65	-40.1	-42.6	15.6	0.00e+00	0	56	0	548405248	51	4918
2026-01-03 11:37:44.00	270.48	22.65	-40.0	-42.4	15.8	0.00e+00	0	56	0	549453824	51	4803
2026-01-03 11:37:45.01	270.76	22.65	-39.9	-42.4	15.8	0.00e+00	0	56	0	551550976	51	4782
2026-01-03 11:37:46.02	271.03	22.65	-40.1	-42.7	15.5	0.00e+00	0	57	0	553648128	51	4953
2026-01-03 11:37:47.03	271.31	22.65	-40.5	-43.2	15.0	0.00e+00	0	56	0	555745280	51	5233
2026-01-03 11:37:48.04	271.58	22.65	-40.7	-43.6	14.6	0.00e+00	0	56	0	557842432	51	5480
2026-01-03 11:37:49.05	271.86	22.65	-40.8	-43.7	14.4	0.00e+00	0	56	0	558891008	52	5261
2026-01-03 11:37:50.06	272.13	22.65	-40.7	-43.5	14.6	1.50e-06	0	56	0	560988160	52	5159
2026-01-03 11:37:51.07	272.41	22.64	-40.4	-43.1	14.9	0.00e+00	0	56	0	563085312	52	4916
2026-01-03 11:37:52.08	272.69	22.64	-40.4	-43.1	15.0	0.00e+00	0	56	0	565182464	52	4890
2026-01-03 11:37:53.09	272.96	22.63	-40.2	-42.8	15.2	0.00e+00	0	56	0	567279616	52	4759
2026-01-03 11:37:54.10	273.24	22.63	-40.2	-42.8	15.2	0.00e+00	0	56	0	568328192	52	4736
2026-01-03 11:37:55.11	273.51	22.62	-40.1	-42.7	15.4	0.00e+00	0	56	0	570425344	52	4686
2026-01-03 11:37:56.12	273.79	22.61	-40.1	-42.6	15.5	0.00e+00	0	56	0	572522496	52	4624
2026-01-03 11:37:57.13	274.06	22.61	-40.0	-42.5	15.6	0.00e+00	0	56	0	574619648	52	4598
2026-01-03 11:37:58.14	274.34	22.60	-40.1	-42.7	15.4	0.00e+00	0	56	0	576716800	52	4678
2026-01-03 11:37:59.15	274.61	22.59	-40.1	-42.7	15.4	0.00e+00	0	56	0	577765376	52	4676
2026-01-03 11:38:00.16	274.89	22.58	-40.2	-42.8	15.3	0.00e+00	0	56	0	579862528	52	4723
2026-01-03 11:38:01.16	275.16	22.57	-40.2	-42.9	15.2	0.00e+00	0	56	0	581959680	52	4760
2026-01-03 11:38:02.17	275.43	22.56	-40.2	-42.9	15.2	0.00e+00	0	56	0	584056832	52	4783
2026-01-03 11:38:03.18	275.71	22.55	-40.2	-42.9	15.2	0.00e+00	0	56	0	586153984	52	4761
2026-01-03 11:38:04.19	275.98	22.53	-40.1	-42.7	15.4	0.00e+00	0	56	0	587202560	52	4667
2026-01-03 11:38:05.20	276.25	22.52	-40.0	-42.5	15.6	0.00e+00	0	56	0	589299712	51	4850
2026-01-03 11:38:06.21	276.53	22.51	-39.8	-42.3	15.8	0.00e+00	0	56	0	591396864	51	4707
2026-01-03 11:38:07.22	276.80	22.49	-39.8	-42.2	15.8	0.00e+00	0	56	0	593494016	51	4674
2026-01-03 11:38:08.23	277.07	22.48	-39.8	-42.2	15.9	7.00e-07	0	56	0	595591168	51	4654
2026-01-03 11:38:09.24	277.34	22.46	-39.6	-42.0	16.1	7.00e-07	0	56	0	596639744	51	4552
2026-01-03 11:38:10.25	277.62	22.45	-39.6	-41.9	16.1	0.00e+00	0	56	0	598736896	51	4530
2026-01-03 11:38:11.26	277.89	22.43	-39.5	-41.8	16.3	0.00e+00	0	56	0	600834048	51	4477
2026-01-03 11:38:12.27	278.16	22.41	-39.6	-41.8	16.3	0.00e+00	0	56	0	602931200	50	4756
2026-01-03 11:38:13.28	278.43	22.40	-39.7	-42.1	16.1	0.00e+00	0	56	0	605028352	50	4879
2026-01-03 11:38:14.29	278.70	22.38	-39.8	-42.2	15.9	0.00e+00	0	56	0	606076928	50	4972
2026-01-03 11:38:15.30	278.97	22.36	-39.9	-42.3	15.8	0.00e+00	0	56	0	608174080	50	5007
2026-01-03 11:38:16.31	279.24	22.34	-39.9	-42.3	15.9	0.00e+00	0	56	0	610271232	50	5029
2026-01-03 11:38:17.32	279.51	22.32	-39.9	-42.3	15.9	0.00e+00	0	56	0	612368384	50	5039
2026-01-03 11:38:18.33	279.78	22.30	-39.8	-42.2	16.0	0.00e+00	0	56	0	614465536	50	4953
2026-01-03 11:38:19.34	280.05	22.27	-39.9	-42.3	15.9	0.00e+00	0	56	0	616562688	50	5011
2026-01-03 11:38:20.35	280.32	22.25	-39.8	-42.2	16.0	0.00e+00	0	56	0	617611264	50	4943
2026-01-03 11:38:21.36	280.59	22.23	-39.8	-42.3	15.9	0.00e+00	0	56	0	619708416	50	4984
2026-01-03 11:38:22.37	280.86	22.20	-40.0	-42.5	15.7	0.00e+00	0	56	0	621805568	50	5114
2026-01-03 11:38:23.38	281.12	22.18	-40.1	-42.6	15.6	0.00e+00	0	56	0	623902720	50	5189
2026-01-03 11:38:24.39	281.39	22.16	-40.1	-42.6	15.6	0.00e+00	0	56	0	625999872	50	5161
2026-01-03 11:38:25.40	281.66	22.13	-40.0	-42.5	15.6	0.00e+00	0	57	0	627048448	50	5147
2026-01-03 11:38:26.40	281.92	22.10	-39.9	-42.4	15.9	0.00e+00	0	56	0	629145600	50	5046
2026-01-03 11:38:27.41	282.19	22.08	-39.9	-42.3	15.8	0.00e+00	0	56	0	631242752	50	5033
2026-01-03 11:38:28.42	282.45	22.05	-40.0	-42.4	15.8	0.00e+00	0	56	0	633339904	50	5082
2026-01-03 11:38:29.43	282.72	22.02	-40.2	-42.7	15.4	0.00e+00	0	56	0	635437056	50	5259
2026-01-03 11:38:30.44	282.98	21.99	-40.4	-43.0	15.1	0.00e+00	0	56	0	636485632	51	5141
2026-01-03 11:38:31.45	283.25	21.96	-40.5	-43.3	14.9	0.00e+00	0	57	0	638582784	51	5331
2026-01-03 11:38:32.46	283.51	21.93	-40.5	-43.2	14.9	0.00e+00	0	56	0	640679936	51	5277
2026-01-03 11:38:33.47	283.77	21.90	-40.3	-42.9	15.2	0.00e+00	0	56	0	642777088	51	5077
2026-01-03 11:38:34.48	284.03	21.87	-39.9	-42.3	15.9	0.00e+00	0	56	0	644874240	51	4726
2026-01-03 11:38:35.49	284.30	21.84	-39.8	-42.2	16.0	0.00e+00	0	56	0	645922816	51	4681
2026-01-03 11:38:36.50	284.56	21.81	-39.8	-42.1	16.0	0.00e+00	0	56	0	648019968	51	4633
2026-01-03 11:38:37.51	284.82	21.78	-39.8	-42.2	16.0	0.00e+00	0	56	0	650117120	51	4667
2026-01-03 11:38:38.51	285.08	21.75	-39.8	-42.1	16.0	0.00e+00	0	56	0	652214272	51	4642
2026-01-03 11:38:39.52	285.34	21.71	-39.7	-42.1	16.0	0.00e+00	0	56	0	654311424	51	4633
2026-01-03 11:38:40.53	285.60	21.68	-39.8	-42.1	16.0	0.00e+00	0	56	0	655360000	51	4644
2026-01-03 11:38:41.54	285.85	21.64	-39.7	-42.0	16.1	0.00e+00	0	56	0	657457152	51	4588
2026-01-03 11:38:42.55	286.11	21.61	-39.7	-42.1	16.1	0.00e+00	0	57	0	659554304	51	4605
2026-01-03 11:38:43.56	286.37	21.57	-39.5	-41.8	16.4	0.00e+00	0	57	0	661651456	50	4715
2026-01-03 11:38:44.57	286.63	21.54	-39.4	-41.7	16.5	0.00e+00	0	56	0	663748608	50	4652
2026-01-03 11:38:45.58	286.88	21.50	-39.3	-41.5	16.6	0.00e+00	0	56	0	664797184	50	4593
2026-01-03 11:38:46.59	287.14	21.46	-39.4	-41.7	16.5	0.00e+00	0	56	0	666894336	50	4659
2026-01-03 11:38:47.60	287.39	21.42	-39.5	-41.8	16.3	0.00e+00	0	56	0	668991488	50	4713
2026-01-03 11:38:48.61	287.65	21.39	-39.7	-42.0	16.1	0.00e+00	0	56	0	671088640	50	4854
2026-01-03 11:38:49.62	287.90	21.35	-39.8	-42.2	16.0	0.00e+00	0	57	0	673185792	50	4937
2026-01-03 11:38:50.63	288.15	21.31	-39.7	-42.1	16.0	0.00e+00	0	56	0	674234368	50	4908
2026-01-03 11:38:51.64	288.41	21.27	-39.6	-41.9	16.2	0.00e+00	0	56	0	676331520	50	4764
2026-01-03 11:38:52.65	288.66	21.23	-39.6	-41.9	16.2	0.00e+00	0	56	0	678428672	50	4783
2026-01-03 11:38:53.65	288.91	21.19	-39.5	-41.8	16.3	0.00e+00	0	56	0	680525824	50	4730
2026-01-03 11:38:54.67	289.16	21.15	-39.6	-41.9	16.2	0.00e+00	0	57	0	682622976	50	4808
2026-01-03 11:38:55.67	289.41	21.11	-39.9	-42.3	15.8	0.00e+00	0	56	0	684720128	50	5001
2026-01-03 11:38:56.69	289.66	21.06	-39.8	-42.3	15.9	0.00e+00	0	56	0	685768704	50	4985
2026-01-03 11:38:57.69	289.91	21.02	-39.9	-42.4	15.7	0.00e+00	0	56	0	687865856	50	5082
2026-01-03 11:38:58.70	290.15	20.98	-40.1	-42.6	15.5	0.00e+00	0	57	0	689963008	50	5185
2026-01-03 11:38:59.71	290.40	20.93	-40.0	-42.5	15.6	0.00e+00	0	57	0	692060160	50	5152
2026-01-03 11:39:00.72	290.65	20.89	-39.9	-42.3	15.8	0.00e+00	0	56	0	694157312	50	5031
2026-01-03 11:39:01.73	290.89	20.85	-39.7	-42.1	16.0	0.00e+00	0	56	0	695205888	50	4917
2026-01-03 11:39:02.74	291.14	20.80	-39.7	-42.1	16.0	0.00e+00	0	57	0	697303040	50	4911
2026-01-03 11:39:03.75	291.38	20.75	-39.7	-42.1	16.0	0.00e+00	0	56	0	699400192	50	4874
2026-01-03 11:39:04.76	291.63	20.71	-39.6	-42.0	16.2	0.00e+00	0	56	0	701497344	50	4825
2026-01-03 11:39:05.77	291.87	20.66	-39.4	-41.7	16.3	0.00e+00	0	56	0	703594496	50	4696
2026-01-03 11:39:06.78	292.11	20.62	-39.3	-41.5	16.6	0.00e+00	0	56	0	704643072	50	4574
2026-01-03 11:39:07.79	292.35	20.57	-39.4	-41.7	16.4	0.00e+00	0	56	0	706740224	50	4673
2026-01-03 11:39:08.80	292.59	20.52	-39.3	-41.5	16.6	0.00e+00	0	56	0	708837376	50	4562
2026-01-03 11:39:09.81	292.83	20.47	-39.4	-41.7	16.4	0.00e+00	0	56	0	710934528	50	4689
2026-01-03 11:39:10.81	293.07	20.43	-39.5	-41.7	16.3	0.00e+00	0	56	0	713031680	50	4701
2026-01-03 11:39:11.82	293.31	20.38	-39.6	-42.0	16.1	0.00e+00	0	56	0	714080256	50	4820
2026-01-03 11:39:12.83	293.55	20.33	-39.6	-41.9	16.2	0.00e+00	0	56	0	716177408	50	4778
2026-01-03 11:39:13.84	293.78	20.28	-39.6	-41.9	16.1	0.00e+00	0	56	0	718274560	50	4807
2026-01-03 11:39:14.85	294.02	20.23	-39.6	-42.0	16.1	0.00e+00	0	56	0	720371712	50	4844
2026-01-03 11:39:15.86	294.26	20.18	-39.6	-42.0	16.1	0.00e+00	0	56	0	722468864	50	4817
2026-01-03 11:39:16.87	294.49	20.13	-39.5	-41.8	16.2	0.00e+00	0	56	0	723517440	50	4706
2026-01-03 11:39:17.88	294.73	20.08	-39.6	-41.9	16.1	0.00e+00	0	56	0	725614592	50	4814
2026-01-03 11:39:18.89	294.96	20.03	-39.7	-42.1	16.0	0.00e+00	0	57	0	727711744	50	4884
2026-01-03 11:39:19.90	295.19	19.97	-39.9	-42.4	15.7	0.00e+00	0	56	0	729808896	50	5075
2026-01-03 11:39:20.91	295.42	19.92	-40.0	-42.5	15.5	0.00e+00	0	57	0	731906048	50	5159
2026-01-03 11:39:21.92	295.65	19.87	-40.2	-42.9	15.1	0.00e+00	0	56	0	732954624	51	5074
2026-01-03 11:39:22.93	295.88	19.82	-40.2	-42.8	15.3	0.00e+00	0	56	0	735051776	51	5004
2026-01-03 11:39:23.94	296.11	19.76	-40.0	-42.5	15.5	0.00e+00	0	57	0	737148928	51	4855
2026-01-03 11:39:24.95	296.34	19.71	-39.7	-42.0	16.0	0.00e+00	0	56	0	739246080	51	4590
2026-01-03 11:39:25.96	296.57	19.66	-39.5	-41.9	16.2	0.00e+00	0	56	0	741343232	51	4506
2026-01-03 11:39:26.97	296.80	19.60	-39.4	-41.7	16.4	0.00e+00	0	56	0	742391808	50	4672
2026-01-03 11:39:27.98	297.02	19.55	-39.3	-41.6	16.5	0.00e+00	0	57	0	744488960	50	4602
2026-01-03 11:39:28.99	297.25	19.49	-39.6	-41.9	16.2	0.00e+00	0	57	0	746586112	50	4784
2026-01-03 11:39:30.00	297.47	19.44	-39.5	-41.8	16.2	0.00e+00	0	56	0	748683264	50	4732
2026-01-03 11:39:31.01	297.70	19.38	-39.7	-42.0	16.0	0.00e+00	0	56	0	750780416	50	4853
2026-01-03 11:39:32.02	297.92	19.33	-39.8	-42.2	15.9	0.00e+00	0	56	0	752877568	50	4939
2026-01-03 11:39:33.02	298.14	19.27	-40.1	-42.7	15.4	0.00e+00	0	56	0	753926144	50	5248
2026-01-03 11:39:34.04	298.36	19.22	-40.4	-43.1	14.9	0.00e+00	0	56	0	756023296	51	5212
2026-01-03 11:39:35.05	298.58	19.16	-40.7	-43.6	14.4	7.00e-07	0	56	0	758120448	51	5517
2026-01-03 11:39:36.05	298.80	19.10	-40.9	-44.0	14.0	1.50e-06	0	57	0	760217600	52	5421
2026-01-03 11:39:37.06	299.02	19.05	-40.9	-44.1	13.8	5.30e-06	0	57	0	762314752	52	5510
2026-01-03 11:39:38.08	299.24	18.99	-40.9	-44.1	13.8	6.10e-06	0	56	0	763363328	52	5510
2026-01-03 11:39:39.08	299.46	18.93	-40.8	-43.8	14.1	3.80e-06	0	56	0	765460480	52	5313
2026-01-03 11:39:40.09	299.67	18.87	-40.6	-43.6	14.3	0.00e+00	0	57	0	767557632	52	5187
2026-01-03 11:39:41.10	299.89	18.82	-40.6	-43.5	14.4	0.00e+00	0	57	0	769654784	52	5145
2026-01-03 11:39:42.11	300.10	18.76	-40.5	-43.3	14.6	0.00e+00	0	57	0	771751936	52	5023
2026-01-03 11:39:43.12	300.32	18.70	-40.7	-43.7	14.3	7.00e-07	0	56	0	772800512	52	5244
2026-01-03 11:39:44.13	300.53	18.64	-40.6	-43.5	14.4	3.00e-06	0	56	0	774897664	52	5131
2026-01-03 11:39:45.14	300.74	18.58	-40.7	-43.8	14.2	0.00e+00	0	56	0	776994816	52	5295
2026-01-03 11:39:46.15	300.96	18.52	-40.6	-43.5	14.4	7.00e-07	0	56	0	779091968	52	5153
2026-01-03 11:39:47.16	301.17	18.46	-40.6	-43.5	14.4	7.00e-07	0	57	0	781189120	52	5110
2026-01-03 11:39:48.17	301.38	18.40	-40.4	-43.2	14.7	7.00e-07	0	57	0	782237696	52	4967
2026-01-03 11:39:49.18	301.59	18.34	-40.4	-43.3	14.6	0.00e+00	0	56	0	784334848	52	5003
2026-01-03 11:39:50.19	301.80	18.28	-40.3	-43.1	14.8	7.00e-07	0	56	0	786432000	52	4900
2026-01-03 11:39:51.20	302.00	18.22	-40.3	-43.0	14.9	0.00e+00	0	57	0	788529152	52	4869
2026-01-03 11:39:52.21	302.21	18.16	-40.3	-43.1	14.8	0.00e+00	0	57	0	790626304	52	4914
2026-01-03 11:39:53.22	302.42	18.10	-40.3	-43.2	14.8	0.00e+00	0	56	0	791674880	52	4929
2026-01-03 11:39:54.22	302.62	18.04	-40.4	-43.2	14.7	0.00e+00	0	57	0	793772032	52	4972
2026-01-03 11:39:55.23	302.82	17.98	-40.6	-43.6	14.4	0.00e+00	0	56	0	795869184	52	5165
2026-01-03 11:39:56.24	303.03	17.92	-40.7	-43.7	14.2	0.00e+00	0	56	0	797966336	52	5269
2026-01-03 11:39:57.25	303.23	17.86	-40.9	-44.1	13.8	3.00e-06	0	57	0	800063488	52	5509
2026-01-03 11:39:58.26	303.43	17.80	-41.1	-44.5	13.4	3.80e-06	0	56	0	801112064	52	5754
2026-01-03 11:39:59.27	303.63	17.73	-41.2	-44.6	13.3	1.14e-05	0	57	0	803209216	52	5808
2026-01-03 11:40:00.28	303.83	17.67	-41.2	-44.6	13.2	1.67e-05	0	57	0	805306368	53	5515
2026-01-03 11:40:01.29	304.03	17.61	-41.2	-44.6	13.3	2.89e-05	0	57	0	807403520	53	5520
2026-01-03 11:40:02.30	304.23	17.55	-41.3	-44.9	13.0	2.82e-05	0	57	0	809500672	53	5668
2026-01-03 11:40:03.31	304.43	17.48	-41.2	-44.6	13.2	4.42e-05	0	56	0	810549248	53	5523
2026-01-03 11:40:04.32	304.63	17.42	-41.2	-44.6	13.3	1.44e-05	0	56	0	812646400	53	5486
2026-01-03 11:40:05.33	304.82	17.36	-41.1	-44.4	13.5	9.90e-06	0	57	0	814743552	53	5348
2026-01-03 11:40:06.34	305.02	17.29	-40.9	-44.2	13.7	5.30e-06	0	57	0	816840704	53	5221
2026-01-03 11:40:07.35	305.22	17.23	-40.9	-44.0	13.8	3.80e-06	0	57	0	818937856	53	5157
2026-01-03 11:40:08.36	305.41	17.17	-40.8	-44.0	13.9	2.20e-06	0	57	0	821035008	53	5118
2026-01-03 11:40:09.37	305.60	17.10	-41.0	-44.2	13.7	3.80e-06	0	57	0	822083584	53	5260
2026-01-03 11:40:10.38	305.80	17.04	-41.0	-44.3	13.6	1.14e-05	0	57	0	824180736	53	5312
2026-01-03 11:40:11.39	305.99	16.98	-41.1	-44.5	13.4	1.67e-05	0	56	0	826277888	53	5406
2026-01-03 11:40:12.40	306.18	16.91	-41.2	-44.6	13.3	2.59e-05	0	57	0	828375040	53	5496
2026-01-03 11:40:13.41	306.37	16.85	-41.2	-44.6	13.3	9.90e-06	0	56	0	830472192	53	5474
2026-01-03 11:40:14.42	306.56	16.78	-41.0	-44.3	13.6	7.60e-06	0	57	0	831520768	53	5309
2026-01-03 11:40:15.43	306.75	16.72	-40.8	-44.0	13.9	1.50e-06	0	57	0	833617920	53	5103
2026-01-03 11:40:16.44	306.93	16.66	-40.7	-43.7	14.1	3.80e-06	0	56	0	835715072	53	4971
2026-01-03 11:40:17.45	307.12	16.59	-40.5	-43.3	14.5	0.00e+00	0	57	0	837812224	52	5039
2026-01-03 11:40:18.45	307.30	16.53	-40.5	-43.3	14.6	7.00e-07	0	57	0	839909376	52	5036
2026-01-03 11:40:19.46	307.49	16.46	-40.6	-43.5	14.4	0.00e+00	0	57	0	840957952	52	5125
2026-01-03 11:40:20.47	307.67	16.40	-40.5	-43.4	14.5	0.00e+00	0	57	0	843055104	52	5078
2026-01-03 11:40:21.48	307.86	16.33	-40.6	-43.6	14.3	7.00e-07	0	57	0	845152256	52	5195
2026-01-03 11:40:22.49	308.04	16.27	-40.6	-43.6	14.3	1.50e-06	0	57	0	847249408	52	5178
2026-01-03 11:40:23.50	308.22	16.20	-40.5	-43.4	14.5	0.00e+00	0	57	0	849346560	52	5087
2026-01-03 11:40:24.51	308.40	16.14	-40.6	-43.5	14.4	7.00e-07	0	57	0	850395136	52	5128
2026-01-03 11:40:25.52	308.59	16.07	-40.5	-43.4	14.5	0.00e+00	0	57	0	852492288	52	5074
2026-01-03 11:40:26.53	308.77	16.01	-40.5	-43.4	14.4	0.00e+00	0	57	0	854589440	52	5095
2026-01-03 11:40:27.54	308.94	15.94	-40.5	-43.4	14.5	2.20e-06	0	56	0	856686592	52	5045
2026-01-03 11:40:28.54	309.12	15.87	-40.7	-43.7	14.2	1.50e-06	0	57	0	858783744	52	5259
2026-01-03 11:40:29.55	309.30	15.81	-40.9	-44.0	13.8	3.00e-06	0	57	0	859832320	52	5449
2026-01-03 11:40:30.56	309.48	15.74	-41.1	-44.5	13.4	9.90e-06	0	57	0	861929472	52	5743
2026-01-03 11:40:31.57	309.65	15.68	-41.1	-44.5	13.3	1.06e-05	0	57	0	864026624	52	5776
2026-01-03 11:40:32.58	309.83	15.61	-41.0	-44.3	13.6	1.37e-05	0	57	0	866123776	52	5606
2026-01-03 11:40:33.59	310.00	15.55	-41.0	-44.2	13.6	5.30e-06	0	56	0	868220928	52	5564
2026-01-03 11:40:34.60	310.18	15.48	-40.7	-43.7	14.1	2.20e-06	0	56	0	869269504	52	5240
2026-01-03 11:40:35.61	310.35	15.41	-40.4	-43.3	14.6	0.00e+00	0	56	0	871366656	52	5009
2026-01-03 11:40:36.62	310.52	15.35	-40.4	-43.3	14.5	0.00e+00	0	57	0	873463808	52	5012
2026-01-03 11:40:37.62	310.69	15.28	-40.2	-43.0	14.9	0.00e+00	0	57	0	875560960	52	4815
2026-01-03 11:40:38.64	310.86	15.21	-40.3	-43.2	14.6	0.00e+00	0	57	0	877658112	52	4942
2026-01-03 11:40:39.64	311.03	15.15	-40.4	-43.3	14.5	0.00e+00	0	57	0	878706688	52	5031
2026-01-03 11:40:40.66	311.20	15.08	-40.5	-43.5	14.4	7.00e-07	0	56	0	880803840	52	5103
2026-01-03 11:40:41.66	311.37	15.02	-40.8	-44.0	13.8	0.00e+00	0	56	0	882900992	52	5423
2026-01-03 11:40:42.68	311.54	14.95	-40.7	-43.9	14.0	4.50e-06	0	57	0	884998144	52	5351
2026-01-03 11:40:43.68	311.70	14.88	-40.8	-43.9	13.9	2.20e-06	0	57	0	887095296	52	5371
2026-01-03 11:40:44.69	311.87	14.82	-40.6	-43.7	14.1	6.10e-06	0	57	0	888143872	52	5225
2026-01-03 11:40:45.70	312.04	14.75	-40.4	-43.3	14.5	7.00e-07	0	57	0	890241024	52	5027
2026-01-03 11:40:46.71	312.20	14.68	-40.4	-43.2	14.6	0.00e+00	0	57	0	892338176	52	4968
2026-01-03 11:40:47.72	312.37	14.62	-40.3	-43.2	14.7	0.00e+00	0	57	0	894435328	52	4937
2026-01-03 11:40:48.73	312.53	14.55	-40.3	-43.1	14.7	0.00e+00	0	57	0	896532480	52	4892
2026-01-03 11:40:49.74	312.69	14.48	-40.3	-43.1	14.7	0.00e+00	0	57	0	897581056	52	4888
2026-01-03 11:40:50.75	312.86	14.42	-40.6	-43.6	14.2	0.00e+00	0	56	0	899678208	52	5169
2026-01-03 11:40:51.76	313.02	14.35	-40.6	-43.7	14.1	7.00e-07	0	57	0	901775360	52	5257
2026-01-03 11:40:52.77	313.18	14.28	-40.9	-44.1	13.7	4.50e-06	0	56	0	903872512	52	5493
2026-01-03 11:40:53.78	313.34	14.22	-41.1	-44.6	13.2	1.67e-05	0	57	0	905969664	52	5809
2026-01-03 11:40:54.79	313.50	14.15	-41.0	-44.4	13.4	1.83e-05	0	57	0	907018240	52	5699
2026-01-03 11:40:55.80	313.66	14.08	-41.0	-44.4	13.3	1.52e-05	0	57	0	909115392	52	5696
2026-01-03 11:40:56.81	313.81	14.01	-40.8	-44.0	13.7	4.50e-06	0	57	0	911212544	52	5463
2026-01-03 11:40:57.82	313.97	13.95	-40.6	-43.6	14.2	3.80e-06	0	57	0	913309696	52	5177
2026-01-03 11:40:58.83	314.13	13.88	-40.4	-43.4	14.4	7.00e-07	0	57	0	915406848	52	5046
2026-01-03 11:40:59.84	314.28	13.81	-40.1	-42.9	14.9	0.00e+00	0	57	0	917504000	52	4770
2026-01-03 11:41:00.85	314.44	13.75	-40.0	-42.6	15.2	0.00e+00	0	57	0	918552576	51	4913
2026-01-03 11:41:01.86	314.59	13.68	-39.9	-42.5	15.4	0.00e+00	0	57	0	920649728	51	4830
2026-01-03 11:41:02.87	314.75	13.61	-39.9	-42.5	15.3	0.00e+00	0	57	0	922746880	51	4841
2026-01-03 11:41:03.88	314.90	13.55	-40.0	-42.6	15.3	7.00e-07	0	57	0	924844032	51	4877
2026-01-03 11:41:04.89	315.05	13.48	-40.0	-42.6	15.2	0.00e+00	0	57	0	926941184	51	4916
2026-01-03 11:41:05.90	315.20	13.41	-39.8	-42.4	15.4	0.00e+00	0	57	0	927989760	51	4779
2026-01-03 11:41:06.91	315.36	13.35	-39.8	-42.4	15.4	0.00e+00	0	57	0	930086912	51	4776
2026-01-03 11:41:07.92	315.51	13.28	-39.8	-42.3	15.5	0.00e+00	0	56	0	932184064	51	4713
2026-01-03 11:41:08.93	315.66	13.21	-39.7	-42.2	15.6	0.00e+00	0	57	0	934281216	51	4681
2026-01-03 11:41:09.94	315.80	13.14	-39.7	-42.2	15.6	0.00e+00	0	57	0	936378368	51	4670
2026-01-03 11:41:10.95	315.95	13.08	-39.6	-42.1	15.7	0.00e+00	0	57	0	937426944	51	4615
2026-01-03 11:41:11.96	316.10	13.01	-39.7	-42.2	15.6	0.00e+00	0	56	0	939524096	51	4682
2026-01-03 11:41:12.97	316.25	12.94	-40.0	-42.6	15.2	0.00e+00	0	57	0	941621248	51	4902
2026-01-03 11:41:13.98	316.40	12.88	-40.0	-42.7	15.1	7.00e-07	0	56	0	943718400	51	4970
2026-01-03 11:41:14.99	316.54	12.81	-40.4	-43.2	14.5	0.00e+00	0	57	0	945815552	51	5274
2026-01-03 11:41:16.00	316.69	12.74	-40.5	-43.5	14.3	7.00e-07	0	57	0	946864128	51	5447
2026-01-03 11:41:17.01	316.83	12.68	-40.7	-43.8	14.0	7.00e-07	0	56	0	948961280	51	5594
2026-01-03 11:41:18.02	316.98	12.61	-40.7	-44.0	13.7	2.20e-06	0	57	0	951058432	52	5409
2026-01-03 11:41:19.02	317.12	12.54	-40.7	-43.9	13.8	7.00e-07	0	57	0	953155584	52	5342
2026-01-03 11:41:20.03	317.26	12.48	-40.7	-43.8	13.9	6.10e-06	0	57	0	955252736	52	5313
2026-01-03 11:41:21.04	317.40	12.41	-40.7	-43.8	13.8	3.80e-06	0	57	0	956301312	52	5322
2026-01-03 11:41:22.05	317.54	12.34	-40.6	-43.7	13.9	1.50e-06	0	57	0	958398464	52	5273
2026-01-03 11:41:23.06	317.68	12.28	-40.6	-43.8	13.9	3.80e-06	0	57	0	960495616	52	5288
2026-01-03 11:41:24.07	317.82	12.21	-40.6	-43.7	14.0	1.50e-06	0	56	0	962592768	52	5230
2026-01-03 11:41:25.08	317.96	12.14	-40.6	-43.7	14.0	3.00e-06	0	57	0	964689920	52	5237
2026-01-03 11:41:26.09	318.10	12.08	-40.6	-43.8	13.9	4.50e-06	0	57	0	965738496	52	5288
2026-01-03 11:41:27.10	318.24	12.01	-40.7	-43.9	13.7	4.50e-06	0	57	0	967835648	52	5372
2026-01-03 11:41:28.11	318.38	11.94	-40.7	-43.9	13.7	4.50e-06	0	57	0	969932800	52	5397
2026-01-03 11:41:29.12	318.52	11.88	-40.7	-43.9	13.7	6.80e-06	0	57	0	972029952	52	5379
2026-01-03 11:41:30.13	318.65	11.81	-40.8	-44.0	13.6	9.10e-06	0	57	0	974127104	52	5458
2026-01-03 11:41:31.14	318.79	11.75	-40.7	-43.9	13.7	4.50e-06	0	57	0	975175680	52	5391
2026-01-03 11:41:32.15	318.93	11.68	-40.6	-43.7	13.9	3.00e-06	0	57	0	977272832	52	5270
2026-01-03 11:41:33.16	319.06	11.61	-40.5	-43.5	14.1	1.50e-06	0	57	0	979369984	52	5126
2026-01-03 11:41:34.17	319.19	11.55	-40.3	-43.2	14.4	2.20e-06	0	57	0	981467136	52	4972
2026-01-03 11:41:35.18	319.33	11.48	-40.2	-43.1	14.4	0.00e+00	0	57	0	983564288	52	4923
2026-01-03 11:41:36.18	319.46	11.41	-40.2	-43.0	14.6	7.00e-07	0	57	0	985661440	52	4859
2026-01-03 11:41:37.19	319.59	11.35	-40.1	-42.9	14.6	7.00e-07	0	57	0	986710016	52	4814
2026-01-03 11:41:38.20	319.72	11.28	-40.1	-42.9	14.7	0.00e+00	0	57	0	988807168	52	4802
2026-01-03 11:41:39.21	319.86	11.22	-40.1	-43.0	14.6	0.00e+00	0	57	0	990904320	52	4846
2026-01-03 11:41:40.22	319.99	11.15	-40.1	-43.0	14.6	0.00e+00	0	57	0	993001472	52	4826
2026-01-03 11:41:41.23	320.12	11.08	-40.2	-43.1	14.5	0.00e+00	0	57	0	995098624	52	4889
2026-01-03 11:41:42.24	320.25	11.02	-40.1	-43.0	14.5	7.00e-07	0	57	0	996147200	52	4852
2026-01-03 11:41:43.25	320.38	10.95	-40.3	-43.3	14.3	1.50e-06	0	57	0	998244352	52	4996
2026-01-03 11:41:44.26	320.50	10.89	-40.4	-43.4	14.1	7.00e-07	0	57	0	1000341504	52	5094
2026-01-03 11:41:45.27	320.63	10.82	-40.4	-43.4	14.1	7.00e-07	0	57	0	1002438656	52	5083
2026-01-03 11:41:46.28	320.76	10.76	-40.4	-43.5	14.0	3.00e-06	0	57	0	1004535808	52	5117
2026-01-03 11:41:47.29	320.89	10.69	-40.4	-43.4	14.1	1.50e-06	0	57	0	1005584384	52	5098
2026-01-03 11:41:48.30	321.01	10.62	-40.4	-43.4	14.1	2.20e-06	0	56	0	1007681536	52	5099
2026-01-03 11:41:49.31	321.14	10.56	-40.5	-43.6	13.9	2.20e-06	0	57	0	1009778688	52	5211
2026-01-03 11:41:50.32	321.26	10.49	-40.4	-43.5	14.0	6.10e-06	0	57	0	1011875840	52	5141
2026-01-03 11:41:51.32	321.39	10.43	-40.6	-43.8	13.7	5.30e-06	0	57	0	1013972992	52	5316
2026-01-03 11:41:52.33	321.51	10.36	-40.7	-43.9	13.6	7.60e-06	0	57	0	1015021568	52	5388
2026-01-03 11:41:53.35	321.64	10.30	-40.8	-44.2	13.3	1.29e-05	0	56	0	1017118720	52	5533
2026-01-03 11:41:54.35	321.76	10.23	-40.9	-44.4	13.1	3.20e-05	0	57	0	1019215872	52	5709
2026-01-03 11:41:55.36	321.88	10.17	-41.0	-44.6	12.9	3.28e-05	0	57	0	1021313024	52	5806
2026-01-03 11:41:56.37	322.00	10.10	-41.0	-44.7	12.8	6.25e-05	0	57	0	1023410176	52	5860
2026-01-03 11:41:57.38	322.13	10.04	-41.1	-44.7	12.7	7.62e-05	0	57	0	1024458752	52	5906
2026-01-03 11:41:58.39	322.25	9.97	-41.0	-44.6	12.8	6.40e-05	0	57	0	1026555904	52	5853
2026-01-03 11:41:59.40	322.37	9.91	-40.9	-44.4	13.1	4.73e-05	0	56	0	1028653056	52	5694
2026-01-03 11:42:00.41	322.49	9.84	-40.8	-44.3	13.2	4.34e-05	0	57	0	1030750208	52	5603
2026-01-03 11:42:01.42	322.61	9.78	-40.7	-44.0	13.4	2.05e-05	0	57	0	1032847360	52	5460
2026-01-03 11:42:02.43	322.73	9.71	-40.5	-43.7	13.8	1.14e-05	0	57	0	1033895936	52	5225
2026-01-03 11:42:03.44	322.84	9.65	-40.4	-43.4	14.0	2.20e-06	0	57	0	1035993088	52	5096
2026-01-03 11:42:04.45	322.96	9.58	-40.3	-43.3	14.1	1.50e-06	0	57	0	1038090240	52	4989
2026-01-03 11:42:05.46	323.08	9.52	-40.3	-43.3	14.1	2.20e-06	0	57	0	1040187392	52	5010
2026-01-03 11:42:06.47	323.20	9.46	-40.1	-43.0	14.5	0.00e+00	0	57	0	1042284544	52	4816
2026-01-03 11:42:07.48	323.31	9.39	-40.1	-43.0	14.5	7.00e-07	0	57	0	1043333120	52	4839
2026-01-03 11:42:08.49	323.43	9.33	-40.1	-43.0	14.4	7.00e-07	0	57	0	1045430272	52	4853
2026-01-03 11:42:09.50	323.55	9.26	-40.2	-43.1	14.3	0.00e+00	0	57	0	1047527424	52	4909
2026-01-03 11:42:10.51	323.66	9.20	-40.3	-43.4	14.0	2.20e-06	0	57	0	1049624576	52	5069
2026-01-03 11:42:11.52	323.77	9.13	-40.4	-43.6	13.8	1.50e-06	0	57	0	1051721728	52	5189
2026-01-03 11:42:12.53	323.89	9.07	-40.4	-43.6	13.8	5.30e-06	0	57	0	1052770304	52	5184
2026-01-03 11:42:13.54	324.00	9.01	-40.6	-43.9	13.5	3.80e-06	0	57	0	1054867456	52	5367
2026-01-03 11:42:14.55	324.12	8.94	-40.7	-44.1	13.3	2.21e-05	0	57	0	1056964608	52	5469
2026-01-03 11:42:15.56	324.23	8.88	-40.7	-44.1	13.3	3.35e-05	0	57	0	1059061760	52	5489
2026-01-03 11:42:16.57	324.34	8.82	-40.8	-44.4	13.0	2.82e-05	0	57	0	1061158912	52	5658
2026-01-03 11:42:17.58	324.45	8.75	-40.9	-44.4	12.9	5.03e-05	0	57	0	1063256064	52	5702
2026-01-03 11:42:18.59	324.56	8.69	-41.0	-44.7	12.6	6.40e-05	0	56	0	1064304640	52	5885
2026-01-03 11:42:19.60	324.67	8.62	-41.1	-44.8	12.6	9.07e-05	0	57	0	1066401792	52	5945
2026-01-03 11:42:20.60	324.78	8.56	-41.0	-44.7	12.6	8.54e-05	0	57	0	1068498944	52	5891
2026-01-03 11:42:21.61	324.89	8.50	-41.2	-45.2	12.1	1.08e-04	0	57	0	1070596096	53	5862
2026-01-03 11:42:22.62	325.00	8.43	-41.3	-45.3	12.0	2.08e-04	0	57	0	1072693248	53	5931
2026-01-03 11:42:23.63	325.11	8.37	-41.3	-45.2	12.0	2.58e-04	0	57	0	1073741824	53	5904
2026-01-03 11:42:24.64	325.22	8.31	-41.5	-45.7	11.6	4.28e-04	0	56	0	1075838976	53	6215
2026-01-03 11:42:25.65	325.33	8.25	-41.5	-45.8	11.5	8.54e-04	0	56	0	1077936128	53	6275
2026-01-03 11:42:26.66	325.44	8.18	-41.5	-45.9	11.4	8.99e-04	0	57	0	1080033280	53	6348
2026-01-03 11:42:27.67	325.54	8.12	-41.6	-45.9	11.4	1.26e-03	0	57	0	1082130432	53	6385
2026-01-03 11:42:28.68	325.65	8.06	-41.6	-46.0	11.2	1.29e-03	0	57	0	1083179008	53	6464
2026-01-03 11:42:29.69	325.76	7.99	-44.1	-57.6	3.9	1.45e-03	0	57	0	1085276160	58	18419
2026-01-03 11:42:30.70	325.86	7.93	-44.5	-59.0	3.8	1.49e+00	0	57	104	1085276160	59	20426
2026-01-03 11:42:31.71	325.97	7.87	-44.7	-59.3	3.8	1.49e+00	0	57	104	1085276160	59	21141
2026-01-03 11:42:32.72	326.07	7.81	-44.8	-59.6	3.8	1.49e+00	0	57	104	1085276160	60	20574
2026-01-03 11:42:33.73	326.18	7.74	-44.9	-59.7	3.8	1.49e+00	0	57	104	1085276160	60	20963
2026-01-03 11:42:34.74	326.28	7.68	-45.0	-59.9	3.8	1.49e+00	0	57	104	1085276160	60	21266
2026-01-03 11:42:35.75	326.38	7.62	-45.1	-59.9	3.8	1.49e+00	0	57	104	1085276160	60	21421
2026-01-03 11:42:36.76	326.49	7.56	-45.1	-60.0	3.8	1.49e+00	0	57	104	1085276160	60	21582
2026-01-03 11:42:37.77	326.59	7.49	-45.2	-60.0	3.8	1.49e+00	0	57	104	1085276160	60	21607
2026-01-03 11:42:38.78	326.69	7.43	-45.2	-60.0	3.8	1.49e+00	0	57	104	1085276160	60	21598
2026-01-03 11:42:39.79	326.80	7.37	-45.1	-60.0	3.8	1.49e+00	0	57	104	1085276160	60	21531
2026-01-03 11:42:40.80	326.90	7.31	-45.1	-59.9	3.8	1.49e+00	0	57	104	1085276160	60	21491
2026-01-03 11:42:41.81	327.00	7.25	-45.1	-59.9	3.8	1.49e+00	0	57	104	1085276160	60	21349
2026-01-03 11:42:42.82	327.10	7.18	-45.1	-59.9	3.8	1.49e+00	0	57	104	1085276160	60	21414
2026-01-03 11:42:43.83	327.20	7.12	-45.1	-59.9	3.8	1.49e+00	0	57	104	1085276160	60	21361
2026-01-03 11:42:44.84	327.30	7.06	-45.0	-59.9	3.8	1.49e+00	0	57	104	1085276160	60	21316
2026-01-03 11:42:45.85	327.40	7.00	-45.0	-59.9	3.8	1.49e+00	0	57	104	1085276160	60	21358
2026-01-03 11:42:46.86	327.50	6.94	-45.1	-59.9	3.8	1.49e+00	0	57	104	1085276160	60	21358
2026-01-03 11:42:47.88	327.60	6.88	-45.0	-59.9	3.8	1.49e+00	0	57	104	1085276160	60	21316
2026-01-03 11:42:48.89	327.70	6.81	-45.0	-59.9	3.8	1.49e+00	0	57	104	1085276160	60	21330
2026-01-03 11:42:49.90	327.79	6.75	-45.0	-59.9	3.8	1.49e+00	0	57	104	1085276160	60	21346
2026-01-03 11:42:50.91	327.89	6.69	-45.0	-59.9	3.8	1.49e+00	0	57	104	1085276160	60	21348
2026-01-03 11:42:51.92	327.99	6.63	-45.0	-59.9	3.8	1.49e+00	0	57	104	1085276160	60	21338
2026-01-03 11:42:52.93	328.09	6.57	-45.0	-59.9	3.8	1.49e+00	0	57	104	1085276160	60	21299
2026-01-03 11:42:53.94	328.18	6.51	-45.0	-59.9	3.8	1.49e+00	0	57	104	1085276160	60	21340
2026-01-03 11:42:54.95	328.28	6.45	-45.0	-59.9	3.8	1.49e+00	0	57	104	1085276160	60	21296
2026-01-03 11:42:55.96	328.37	6.39	-45.0	-59.9	3.8	1.49e+00	0	57	104	1085276160	60	21349
2026-01-03 11:42:56.97	328.47	6.33	-45.0	-59.9	3.8	1.49e+00	0	57	104	1085276160	60	21368
2026-01-03 11:42:57.99	328.56	6.27	-45.0	-59.9	3.8	1.49e+00	0	57	104	1085276160	60	21395
2026-01-03 11:42:59.00	328.66	6.21	-45.0	-59.9	3.8	1.49e+00	0	57	104	1085276160	60	21321
2026-01-03 11:43:00.01	328.75	6.14	-45.0	-59.8	3.8	1.49e+00	0	57	104	1085276160	60	21255
