passes_logs/2026/01/03/R2.0S_Moscow/R2.0S_Moscow__20260103_092023_NOAA_21_JPSS-2_rec.log

#Pass ID: 20260103_092023_NOAA 21 (JPSS-2)
#Satellite: NOAA 21 (JPSS-2)
#Configuration: NOAA-21
#almurnet v.1.7.20251203
#Start time: 2026-01-03 09:20:25

#Version: 2.2.20231116
#Station: R2.0S_Moscow
#Location: 37.707566 lon 55.798166 lat
#TLE: 1 54234U 22150A   26002.25486487  .00000200  00000+0  11573-3 0  9993
#TLE: 2 54234  98.7485 303.3096 0001220 350.9074   9.2080 14.19531212163006

#Time	Az	El	Level	Level2	SNR	BER	BlckErr	Temp	State	Recorded	gain1	gain2
2026-01-03 09:20:25.90	143.75	2.14	-44.0	-56.3	3.8	1.49e+00	0	47	0	0	59	14990
2026-01-03 09:20:26.90	143.72	2.21	-44.1	-56.3	3.8	1.49e+00	0	47	104	0	59	15007
2026-01-03 09:20:27.91	143.70	2.27	-44.1	-56.3	3.8	1.49e+00	0	47	104	0	59	15044
2026-01-03 09:20:28.92	143.68	2.34	-44.1	-56.3	3.8	1.49e+00	0	48	104	0	59	14998
2026-01-03 09:20:29.93	143.65	2.40	-44.1	-56.3	3.8	1.49e+00	0	47	104	0	59	15009
2026-01-03 09:20:30.94	143.63	2.47	-44.0	-56.3	3.8	1.49e+00	0	48	104	0	59	15001
2026-01-03 09:20:31.95	143.60	2.53	-44.1	-56.3	3.8	1.49e+00	0	48	104	0	59	14999
2026-01-03 09:20:32.96	143.58	2.60	-44.1	-56.3	3.8	1.49e+00	0	48	104	0	59	14979
2026-01-03 09:20:33.97	143.56	2.66	-44.1	-56.3	3.8	1.49e+00	0	48	104	0	59	15014
2026-01-03 09:20:34.98	143.53	2.73	-44.1	-56.3	3.8	1.49e+00	0	48	104	0	59	15009
2026-01-03 09:20:35.99	143.51	2.79	-44.1	-56.3	3.8	1.49e+00	0	48	104	0	59	15014
2026-01-03 09:20:37.00	143.48	2.86	-44.1	-56.3	3.8	1.49e+00	0	48	104	0	59	15005
2026-01-03 09:20:38.01	143.46	2.92	-44.1	-56.3	3.8	1.49e+00	0	48	104	0	59	15034
2026-01-03 09:20:39.03	143.43	2.99	-44.1	-56.3	3.8	1.49e+00	0	48	104	0	59	14973
2026-01-03 09:20:40.04	143.41	3.06	-44.1	-56.3	3.8	1.49e+00	0	48	104	0	59	15006
2026-01-03 09:20:41.05	143.38	3.12	-44.1	-56.3	3.8	1.49e+00	0	48	104	0	59	15001
2026-01-03 09:20:42.06	143.36	3.19	-44.1	-56.3	3.8	1.49e+00	0	48	104	0	59	14997
2026-01-03 09:20:43.07	143.33	3.26	-44.1	-56.3	3.8	1.49e+00	0	48	104	0	59	14967
2026-01-03 09:20:44.08	143.31	3.33	-44.1	-56.4	3.8	1.49e+00	0	49	104	0	59	15052
2026-01-03 09:20:45.09	143.28	3.39	-44.1	-56.3	3.8	1.49e+00	0	49	104	0	59	15044
2026-01-03 09:20:46.10	143.25	3.46	-44.1	-56.3	3.8	1.49e+00	0	49	104	0	59	15004
2026-01-03 09:20:47.11	143.23	3.53	-44.1	-56.3	3.8	1.49e+00	0	49	104	0	59	14980
2026-01-03 09:20:48.13	143.20	3.60	-44.1	-56.3	3.8	1.49e+00	0	49	104	0	59	14998
2026-01-03 09:20:49.14	143.18	3.66	-44.1	-56.3	3.8	1.49e+00	0	49	104	0	59	14978
2026-01-03 09:20:50.15	143.15	3.73	-44.1	-56.3	3.8	1.49e+00	0	49	104	0	59	14953
2026-01-03 09:20:51.16	143.12	3.80	-44.1	-56.3	3.8	1.49e+00	0	49	104	0	59	15007
2026-01-03 09:20:52.17	143.10	3.87	-44.1	-56.3	3.8	1.49e+00	0	49	104	0	59	14993
2026-01-03 09:20:53.18	143.07	3.94	-44.1	-56.3	3.8	1.49e+00	0	49	104	0	59	15019
2026-01-03 09:20:54.19	143.04	4.00	-44.1	-56.3	3.8	1.49e+00	0	49	104	0	59	15024
2026-01-03 09:20:55.20	143.02	4.07	-44.1	-56.3	3.8	1.49e+00	0	49	104	0	59	15015
2026-01-03 09:20:56.21	142.99	4.14	-44.1	-56.4	3.8	1.49e+00	0	49	104	0	59	15081
2026-01-03 09:20:57.23	142.96	4.21	-44.1	-56.3	3.8	1.49e+00	0	49	104	0	59	15033
2026-01-03 09:20:58.24	142.93	4.28	-44.1	-56.3	3.8	1.49e+00	0	50	104	0	59	15010
2026-01-03 09:20:59.25	142.91	4.35	-44.1	-56.3	3.8	1.49e+00	0	50	104	0	59	15050
2026-01-03 09:21:00.26	142.88	4.42	-44.1	-56.3	3.8	1.49e+00	0	50	104	0	59	14977
2026-01-03 09:21:01.27	142.85	4.49	-44.0	-56.3	3.8	1.49e+00	0	50	104	0	59	14994
2026-01-03 09:21:02.28	142.82	4.56	-44.1	-56.3	3.8	1.49e+00	0	50	104	0	59	15030
2026-01-03 09:21:03.29	142.79	4.63	-44.1	-56.3	3.8	1.49e+00	0	50	104	0	59	15021
2026-01-03 09:21:04.30	142.77	4.70	-44.1	-56.3	3.8	1.49e+00	0	50	104	0	59	14989
2026-01-03 09:21:05.31	142.74	4.77	-44.1	-56.3	3.8	1.49e+00	0	50	104	0	59	14984
2026-01-03 09:21:06.32	142.71	4.84	-44.1	-56.3	3.8	1.49e+00	0	50	104	0	59	14998
2026-01-03 09:21:07.33	142.68	4.91	-44.1	-56.3	3.8	1.49e+00	0	50	104	0	59	14952
2026-01-03 09:21:08.34	142.65	4.98	-44.0	-56.3	3.8	1.49e+00	0	50	104	0	59	14972
2026-01-03 09:21:09.36	142.62	5.06	-44.0	-56.3	3.8	1.49e+00	0	50	104	0	59	15031
2026-01-03 09:21:10.37	142.59	5.13	-44.0	-56.3	3.8	1.49e+00	0	50	104	0	59	14987
2026-01-03 09:21:11.38	142.56	5.20	-44.1	-56.3	3.8	1.49e+00	0	50	104	0	59	15008
2026-01-03 09:21:12.39	142.53	5.27	-44.1	-56.3	3.8	1.49e+00	0	50	104	0	59	14979
2026-01-03 09:21:13.40	142.50	5.34	-44.1	-56.3	3.8	1.49e+00	0	50	104	0	59	14975
2026-01-03 09:21:14.41	142.47	5.42	-44.0	-56.3	3.8	1.49e+00	0	51	104	0	59	14958
2026-01-03 09:21:15.42	142.44	5.49	-44.0	-56.2	3.8	1.49e+00	0	50	104	0	59	14837
2026-01-03 09:21:16.43	142.41	5.56	-44.0	-56.2	3.8	1.49e+00	0	50	104	0	59	14879
2026-01-03 09:21:17.44	142.38	5.63	-44.0	-56.2	3.8	1.49e+00	0	51	104	0	59	14754
2026-01-03 09:21:18.45	142.35	5.71	-44.0	-56.1	3.8	1.49e+00	0	51	104	0	59	14685
2026-01-03 09:21:19.47	142.32	5.78	-44.0	-56.1	3.8	1.49e+00	0	51	104	0	59	14597
2026-01-03 09:21:20.48	142.29	5.85	-44.0	-56.0	3.8	1.49e+00	0	51	104	0	59	14445
2026-01-03 09:21:21.49	142.26	5.93	-44.0	-55.9	3.8	1.49e+00	0	51	104	0	59	14342
2026-01-03 09:21:22.50	142.23	6.00	-44.0	-55.9	3.8	1.49e+00	0	51	104	0	59	14281
2026-01-03 09:21:23.51	142.20	6.08	-44.0	-55.8	3.8	1.49e+00	0	51	104	0	59	14181
2026-01-03 09:21:24.52	142.17	6.15	-44.0	-55.8	3.8	1.49e+00	0	51	104	0	59	14155
2026-01-03 09:21:25.54	142.13	6.22	-44.0	-55.8	3.8	1.49e+00	0	51	104	0	59	14191
2026-01-03 09:21:26.55	142.10	6.30	-44.0	-55.9	3.8	1.49e+00	0	51	104	0	59	14223
2026-01-03 09:21:27.56	142.07	6.37	-44.0	-56.0	3.8	1.49e+00	0	51	104	0	59	14436
2026-01-03 09:21:28.57	142.04	6.45	-44.0	-56.0	3.8	1.49e+00	0	51	104	0	59	14538
2026-01-03 09:21:29.58	142.01	6.52	-44.0	-56.0	3.8	1.49e+00	0	51	104	0	59	14473
2026-01-03 09:21:30.59	141.97	6.60	-44.0	-56.0	3.8	1.49e+00	0	51	104	0	59	14392
2026-01-03 09:21:31.60	141.94	6.68	-44.0	-55.6	3.8	1.49e+00	0	51	104	0	59	13783
2026-01-03 09:21:32.61	141.91	6.75	-43.9	-55.0	3.8	1.49e+00	0	51	104	0	59	12874
2026-01-03 09:21:33.62	141.87	6.83	-43.8	-54.0	3.8	1.49e+00	0	52	104	0	59	11467
2026-01-03 09:21:34.63	141.84	6.90	-43.6	-52.3	4.3	1.46e+00	0	51	104	0	59	9454
2026-01-03 09:21:35.65	141.81	6.98	-43.4	-50.9	4.9	1.03e+00	0	52	0	0	58	8488
2026-01-03 09:21:36.66	141.77	7.06	-43.0	-49.4	5.9	4.72e-01	0	52	0	3145728	58	7175
2026-01-03 09:21:37.67	141.74	7.13	-42.6	-48.0	7.0	2.01e-01	0	51	0	6291456	57	6490
2026-01-03 09:21:38.68	141.71	7.21	-42.2	-47.0	8.0	7.76e-02	0	52	0	9437184	56	6076
2026-01-03 09:21:39.69	141.67	7.29	-41.5	-45.5	9.3	2.11e-02	0	52	0	12582912	55	5423
2026-01-03 09:21:40.70	141.64	7.37	-41.0	-44.5	10.3	5.79e-03	0	52	0	15728640	54	5148
2026-01-03 09:21:41.71	141.60	7.44	-40.5	-43.6	11.3	1.96e-03	0	52	0	18874368	53	4905
2026-01-03 09:21:42.72	141.57	7.52	-40.0	-42.8	12.2	3.85e-04	0	52	0	22020096	51	5001
2026-01-03 09:21:43.73	141.53	7.60	-39.6	-42.1	12.9	6.56e-05	0	52	0	25165824	51	4624
2026-01-03 09:21:44.74	141.50	7.68	-39.2	-41.5	13.5	1.37e-05	0	52	0	28311552	50	4583
2026-01-03 09:21:45.75	141.46	7.76	-38.9	-41.1	13.9	3.80e-06	0	52	0	31457280	49	4641
2026-01-03 09:21:46.76	141.43	7.84	-38.6	-40.7	14.4	1.50e-06	0	52	0	34603008	49	4395
2026-01-03 09:21:47.77	141.39	7.92	-38.4	-40.4	14.6	0.00e+00	0	52	0	37748736	48	4533
2026-01-03 09:21:48.78	141.35	8.00	-38.2	-40.1	14.9	0.00e+00	0	52	0	40894464	48	4389
2026-01-03 09:21:49.79	141.32	8.08	-42.7	-48.4	6.8	1.11e-04	0	52	0	44040192	55	7605
2026-01-03 09:21:50.81	141.28	8.16	-41.7	-45.7	9.3	1.85e-02	0	52	0	44040192	54	5923
2026-01-03 09:21:51.82	141.24	8.24	-38.6	-40.8	14.3	7.00e-07	0	52	0	47185920	47	5008
2026-01-03 09:21:52.83	141.21	8.32	-40.6	-43.7	11.4	7.09e-05	0	52	0	50331648	51	5561
2026-01-03 09:21:53.83	141.17	8.40	-40.7	-43.9	11.1	1.09e-04	0	53	0	53477376	51	5721
2026-01-03 09:21:54.84	141.13	8.48	-38.2	-40.2	14.9	1.45e-03	0	52	0	56623104	48	4418
2026-01-03 09:21:55.85	141.10	8.56	-38.0	-39.9	15.2	0.00e+00	0	52	0	59768832	48	4268
2026-01-03 09:21:56.87	141.06	8.64	-37.9	-39.8	15.3	0.00e+00	0	52	0	62914560	47	4451
2026-01-03 09:21:57.87	141.02	8.72	-37.8	-39.7	15.3	0.00e+00	0	52	0	66060288	47	4420
2026-01-03 09:21:58.89	140.98	8.80	-37.6	-39.4	15.6	0.00e+00	0	52	0	69206016	47	4270
2026-01-03 09:21:59.90	140.94	8.89	-37.6	-39.4	15.6	0.00e+00	0	52	0	72351744	47	4291
2026-01-03 09:22:00.91	140.90	8.97	-37.5	-39.3	15.7	0.00e+00	0	53	0	75497472	47	4236
2026-01-03 09:22:01.92	140.86	9.05	-37.5	-39.3	15.7	0.00e+00	0	53	0	78643200	47	4229
2026-01-03 09:22:02.93	140.83	9.13	-37.6	-39.4	15.7	0.00e+00	0	52	0	81788928	47	4260
2026-01-03 09:22:03.94	140.79	9.22	-37.5	-39.2	15.9	0.00e+00	0	53	0	84934656	46	4425
2026-01-03 09:22:04.95	140.75	9.30	-37.5	-39.3	15.8	0.00e+00	0	52	0	89128960	46	4448
2026-01-03 09:22:05.96	140.71	9.39	-37.4	-39.2	15.9	0.00e+00	0	53	0	92274688	46	4412
2026-01-03 09:22:06.97	140.67	9.47	-37.4	-39.2	15.9	0.00e+00	0	53	0	94371840	46	4406
2026-01-03 09:22:07.98	140.63	9.55	-37.3	-39.1	16.0	0.00e+00	0	53	0	97517568	46	4351
2026-01-03 09:22:08.99	140.59	9.64	-37.4	-39.2	15.9	0.00e+00	0	53	0	100663296	46	4427
2026-01-03 09:22:10.00	140.54	9.72	-37.3	-39.0	16.0	0.00e+00	0	53	0	104857600	46	4338
2026-01-03 09:22:11.01	140.50	9.81	-37.4	-39.1	16.0	0.00e+00	0	53	0	108003328	46	4383
2026-01-03 09:22:12.02	140.46	9.89	-37.2	-38.9	16.2	0.00e+00	0	53	0	111149056	46	4271
2026-01-03 09:22:13.03	140.42	9.98	-37.2	-38.9	16.2	0.00e+00	0	53	0	114294784	46	4249
2026-01-03 09:22:14.04	140.38	10.07	-37.3	-39.1	16.0	0.00e+00	0	53	0	117440512	46	4342
2026-01-03 09:22:15.05	140.34	10.15	-37.3	-39.0	16.1	0.00e+00	0	53	0	120586240	46	4325
2026-01-03 09:22:16.06	140.29	10.24	-37.2	-38.9	16.2	0.00e+00	0	53	0	123731968	46	4249
2026-01-03 09:22:17.07	140.25	10.33	-37.2	-38.9	16.2	0.00e+00	0	53	0	126877696	46	4248
2026-01-03 09:22:18.08	140.21	10.41	-37.0	-38.7	16.4	0.00e+00	0	53	0	130023424	46	4158
2026-01-03 09:22:19.09	140.16	10.50	-37.1	-38.8	16.3	0.00e+00	0	53	0	133169152	46	4196
2026-01-03 09:22:20.10	140.12	10.59	-37.1	-38.8	16.3	0.00e+00	0	53	0	136314880	46	4213
2026-01-03 09:22:21.10	140.08	10.67	-37.1	-38.7	16.3	0.00e+00	0	53	0	139460608	46	4192
2026-01-03 09:22:22.11	140.03	10.76	-36.9	-38.5	16.6	0.00e+00	0	53	0	142606336	45	4308
2026-01-03 09:22:23.12	139.99	10.85	-37.0	-38.6	16.4	0.00e+00	0	53	0	145752064	45	4380
2026-01-03 09:22:24.13	139.94	10.94	-36.9	-38.5	16.6	7.00e-07	0	53	0	148897792	45	4313
2026-01-03 09:22:25.14	139.90	11.03	-36.8	-38.4	16.7	0.00e+00	0	53	0	152043520	45	4268
2026-01-03 09:22:26.15	139.85	11.12	-36.8	-38.4	16.6	0.00e+00	0	53	0	155189248	45	4291
2026-01-03 09:22:27.16	139.81	11.21	-36.8	-38.4	16.7	0.00e+00	0	53	0	158334976	45	4276
2026-01-03 09:22:28.17	139.76	11.30	-36.8	-38.4	16.8	0.00e+00	0	53	0	161480704	45	4249
2026-01-03 09:22:29.18	139.72	11.39	-36.8	-38.4	16.7	0.00e+00	0	53	0	164626432	45	4274
2026-01-03 09:22:30.19	139.67	11.48	-36.7	-38.3	16.8	1.52e-05	0	53	0	167772160	44	4448
2026-01-03 09:22:31.20	139.62	11.57	-36.7	-38.3	16.9	0.00e+00	0	53	0	170917888	44	4453
2026-01-03 09:22:32.21	139.58	11.66	-36.7	-38.2	16.9	0.00e+00	0	54	0	174063616	44	4434
2026-01-03 09:22:33.22	139.53	11.75	-36.6	-38.2	17.0	1.50e-06	0	53	0	177209344	44	4395
2026-01-03 09:22:34.23	139.48	11.85	-36.6	-38.2	16.8	1.60e-05	0	53	0	180355072	44	4440
2026-01-03 09:22:35.24	139.43	11.94	-36.4	-37.9	16.9	1.66e-04	0	54	0	183500800	43	4526
2026-01-03 09:22:36.25	139.38	12.03	-36.4	-37.9	17.1	3.73e-05	0	53	0	186646528	43	4532
2026-01-03 09:22:37.26	139.34	12.12	-36.4	-37.9	17.2	6.56e-05	0	53	0	189792256	43	4499
2026-01-03 09:22:38.27	139.29	12.22	-36.4	-37.9	17.2	5.41e-05	0	53	0	192937984	43	4527
2026-01-03 09:22:39.28	139.24	12.31	-36.3	-37.8	17.2	1.75e-05	0	53	0	196083712	43	4483
2026-01-03 09:22:40.29	139.19	12.41	-36.3	-37.8	17.3	7.60e-06	0	53	0	199229440	43	4470
2026-01-03 09:22:41.30	139.14	12.50	-36.3	-37.8	17.3	3.80e-06	0	54	0	202375168	43	4460
2026-01-03 09:22:42.31	139.09	12.60	-36.4	-37.9	17.3	1.67e-05	0	54	0	205520896	43	4510
2026-01-03 09:22:43.32	139.04	12.69	-36.3	-37.8	17.3	1.06e-05	0	54	0	208666624	43	4484
2026-01-03 09:22:44.33	138.99	12.79	-36.3	-37.8	17.4	5.34e-05	0	54	0	211812352	43	4464
2026-01-03 09:22:45.34	138.94	12.88	-36.3	-37.8	17.3	3.00e-06	0	54	0	214958080	43	4481
2026-01-03 09:22:46.35	138.88	12.98	-36.3	-37.7	17.4	2.67e-05	0	54	0	218103808	43	4437
2026-01-03 09:22:47.36	138.83	13.07	-36.3	-37.7	17.4	1.14e-05	0	54	0	221249536	43	4429
2026-01-03 09:22:48.37	138.78	13.17	-35.7	-37.6	17.5	1.22e-04	0	54	0	224395264	43	4369
2026-01-03 09:22:49.38	138.73	13.27	-36.2	-37.7	17.5	2.22e-04	0	54	0	227540992	43	4403
2026-01-03 09:22:50.39	138.67	13.37	-36.2	-37.7	17.2	1.07e-03	0	54	0	230686720	43	4407
2026-01-03 09:22:51.39	138.62	13.46	-36.2	-37.7	17.4	2.68e-03	0	54	0	233832448	43	4431
2026-01-03 09:22:52.40	138.57	13.56	-36.2	-37.7	17.5	6.02e-05	0	54	0	236978176	43	4392
2026-01-03 09:22:53.42	138.51	13.66	-35.7	-37.6	17.1	1.56e-03	0	54	0	240123904	42	4648
2026-01-03 09:22:54.43	138.46	13.76	-34.4	-37.3	17.6	8.33e-04	0	54	0	243269632	42	4464
2026-01-03 09:22:55.44	138.40	13.86	-35.9	-37.6	17.4	2.78e-03	0	54	0	246415360	42	4613
2026-01-03 09:22:56.45	138.35	13.96	-36.1	-37.6	17.5	2.76e-03	0	54	0	249561088	42	4611
2026-01-03 09:22:57.45	138.29	14.06	-36.1	-37.6	16.6	2.25e-03	0	54	0	252706816	42	4641
2026-01-03 09:22:58.46	138.24	14.16	-36.1	-37.7	17.0	1.09e-03	0	54	0	255852544	43	4404
2026-01-03 09:22:59.47	138.18	14.26	-34.7	-37.5	17.4	5.33e-03	0	54	0	258998272	42	4559
2026-01-03 09:23:00.48	138.12	14.36	-36.1	-37.6	16.7	8.61e-04	0	54	0	262144000	43	4386
2026-01-03 09:23:01.50	138.06	14.46	-36.2	-37.7	17.4	9.99e-05	0	54	0	265289728	43	4428
2026-01-03 09:23:02.50	138.01	14.57	-36.2	-37.7	17.3	7.44e-04	0	54	0	268435456	42	4661
2026-01-03 09:23:03.52	137.95	14.67	-36.3	-37.8	17.5	8.76e-04	0	54	0	271581184	43	4448
2026-01-03 09:23:04.52	137.89	14.77	-36.3	-37.8	17.5	1.14e-05	0	54	0	274726912	43	4450
2026-01-03 09:23:05.54	137.83	14.88	-36.3	-37.8	17.4	3.45e-03	0	54	0	277872640	43	4463
2026-01-03 09:23:06.54	137.77	14.98	-36.3	-37.9	17.3	2.38e-04	0	54	0	281018368	43	4514
2026-01-03 09:23:07.55	137.71	15.08	-36.3	-37.8	17.5	3.88e-03	0	54	0	284164096	43	4473
2026-01-03 09:23:08.57	137.65	15.19	-36.4	-37.8	17.5	3.65e-04	0	54	0	287309824	43	4489
2026-01-03 09:23:09.58	137.59	15.29	-36.0	-37.8	17.5	9.71e-04	0	54	0	290455552	43	4445
2026-01-03 09:23:10.59	137.53	15.40	-36.0	-37.8	16.6	1.20e-04	0	54	0	293601280	43	4471
2026-01-03 09:23:11.60	137.47	15.50	-36.3	-37.7	17.5	3.35e-05	0	54	0	296747008	43	4422
2026-01-03 09:23:12.61	137.40	15.61	-36.3	-37.8	17.4	2.69e-04	0	54	0	299892736	43	4449
2026-01-03 09:23:13.62	137.34	15.72	-36.3	-37.8	17.6	5.25e-04	0	54	0	303038464	43	4462
2026-01-03 09:23:14.62	137.28	15.82	-36.3	-37.8	17.5	3.04e-04	0	54	0	306184192	43	4488
2026-01-03 09:23:15.64	137.22	15.93	-36.3	-37.8	17.5	1.05e-03	0	54	0	309329920	43	4459
2026-01-03 09:23:16.65	137.15	16.04	-36.3	-37.8	17.6	7.00e-07	0	54	0	312475648	43	4464
2026-01-03 09:23:17.66	137.09	16.15	-36.4	-37.8	17.5	5.73e-04	0	54	0	315621376	43	4469
2026-01-03 09:23:18.67	137.02	16.26	-36.3	-37.7	17.7	1.42e-04	0	54	0	318767104	43	4432
2026-01-03 09:23:19.68	136.96	16.37	-36.3	-37.8	17.1	2.44e-04	0	54	0	321912832	43	4456
2026-01-03 09:23:20.69	136.89	16.48	-36.8	-37.9	15.6	4.39e-04	0	54	0	325058560	43	4501
2026-01-03 09:23:21.70	136.82	16.59	-36.4	-37.8	17.6	4.29e-04	0	54	0	328204288	43	4485
2026-01-03 09:23:22.71	136.76	16.70	-36.5	-37.9	17.3	1.08e-03	0	54	0	331350016	43	4530
2026-01-03 09:23:23.72	136.69	16.81	-36.4	-37.8	17.6	3.23e-04	0	54	0	334495744	43	4479
2026-01-03 09:23:24.73	136.62	16.92	-36.4	-37.8	17.6	1.06e-05	0	54	0	337641472	43	4485
2026-01-03 09:23:25.74	136.55	17.03	-36.4	-37.8	17.6	1.50e-06	0	55	0	340787200	43	4491
2026-01-03 09:23:26.75	136.48	17.15	-36.2	-37.8	17.6	5.30e-06	0	55	0	343932928	43	4460
2026-01-03 09:23:27.76	136.41	17.26	-36.4	-37.9	15.9	1.60e-03	0	55	0	347078656	43	4528
2026-01-03 09:23:28.76	136.34	17.37	-36.6	-38.0	17.4	3.05e-04	0	54	0	350224384	43	4577
2026-01-03 09:23:29.77	136.27	17.49	-36.6	-38.0	17.4	1.88e-04	0	54	0	353370112	43	4597
2026-01-03 09:23:30.78	136.20	17.60	-36.9	-38.4	17.2	4.61e-04	0	54	0	356515840	44	4534
2026-01-03 09:23:31.79	136.13	17.72	-36.9	-38.4	17.3	2.51e-04	0	54	0	359661568	44	4499
2026-01-03 09:23:32.80	136.06	17.83	-36.9	-38.4	17.3	2.67e-05	0	55	0	362807296	44	4498
2026-01-03 09:23:33.81	135.99	17.95	-36.8	-38.4	17.3	7.00e-07	0	55	0	365953024	44	4495
2026-01-03 09:23:34.82	135.91	18.06	-36.9	-38.4	17.3	0.00e+00	0	55	0	369098752	44	4499
2026-01-03 09:23:35.83	135.84	18.18	-36.9	-38.4	17.3	1.20e-04	0	55	0	372244480	44	4526
2026-01-03 09:23:36.84	135.76	18.30	-36.9	-38.5	17.2	0.00e+00	0	55	0	375390208	44	4549
2026-01-03 09:23:37.85	135.69	18.42	-36.9	-38.5	17.0	1.91e-04	0	54	0	378535936	44	4558
2026-01-03 09:23:38.86	135.61	18.54	-37.0	-38.5	17.2	7.00e-07	0	55	0	381681664	44	4596
2026-01-03 09:23:39.87	135.54	18.65	-36.9	-38.5	17.3	3.00e-06	0	54	0	384827392	44	4546
2026-01-03 09:23:40.88	135.46	18.77	-37.0	-38.5	17.2	3.00e-06	0	55	0	387973120	44	4570
2026-01-03 09:23:41.89	135.38	18.89	-37.0	-38.6	17.2	8.30e-06	0	55	0	391118848	44	4600
2026-01-03 09:23:42.90	135.30	19.02	-37.0	-38.5	17.2	2.20e-06	0	55	0	394264576	44	4580
2026-01-03 09:23:43.91	135.22	19.14	-36.9	-38.4	17.1	0.00e+00	0	55	0	397410304	44	4531
2026-01-03 09:23:44.92	135.14	19.26	-36.9	-38.3	16.2	7.00e-07	0	55	0	400556032	44	4486
2026-01-03 09:23:45.93	135.06	19.38	-36.8	-38.3	17.5	7.00e-07	0	55	0	403701760	44	4460
2026-01-03 09:23:46.94	134.98	19.50	-36.8	-38.3	17.5	1.22e-05	0	55	0	406847488	44	4453
2026-01-03 09:23:47.95	134.90	19.63	-36.7	-38.2	17.6	2.13e-05	0	55	0	411041792	44	4404
2026-01-03 09:23:48.96	134.82	19.75	-36.7	-38.2	17.6	0.00e+00	0	55	0	413138944	44	4402
2026-01-03 09:23:49.97	134.73	19.88	-36.6	-38.1	17.6	1.37e-05	0	55	0	416284672	44	4349
2026-01-03 09:23:50.98	134.65	20.00	-36.6	-38.0	17.8	0.00e+00	0	55	0	419430400	44	4319
2026-01-03 09:23:51.99	134.57	20.13	-36.4	-37.9	17.9	7.00e-07	0	55	0	422576128	44	4246
2026-01-03 09:23:53.00	134.48	20.25	-36.4	-37.8	18.0	0.00e+00	0	55	0	426770432	44	4213
2026-01-03 09:23:54.01	134.40	20.38	-36.3	-37.7	18.1	0.00e+00	0	55	0	429916160	44	4149
2026-01-03 09:23:55.01	134.31	20.50	-36.3	-37.7	18.0	1.06e-05	0	55	0	433061888	44	4182
2026-01-03 09:23:56.02	134.22	20.63	-36.2	-37.6	18.2	0.00e+00	0	55	0	435159040	44	4113
2026-01-03 09:23:57.03	134.13	20.76	-36.2	-37.6	18.1	0.00e+00	0	55	0	438304768	44	4126
2026-01-03 09:23:58.04	134.05	20.89	-36.2	-37.5	18.2	0.00e+00	0	55	0	441450496	44	4090
2026-01-03 09:23:59.05	133.96	21.02	-36.1	-37.5	18.3	0.00e+00	0	55	0	445644800	44	4066
2026-01-03 09:24:00.06	133.86	21.15	-36.1	-37.4	18.3	0.00e+00	0	55	0	448790528	44	4040
2026-01-03 09:24:01.07	133.77	21.28	-36.0	-37.3	18.4	0.00e+00	0	55	0	451936256	44	3998
2026-01-03 09:24:02.08	133.68	21.41	-35.7	-37.1	18.6	0.00e+00	0	55	0	455081984	43	4109
2026-01-03 09:24:03.09	133.59	21.54	-35.7	-37.0	18.6	0.00e+00	0	55	0	458227712	43	4068
2026-01-03 09:24:04.10	133.50	21.68	-35.5	-36.8	18.8	0.00e+00	0	55	0	461373440	43	3997
2026-01-03 09:24:05.11	133.40	21.81	-35.6	-36.9	18.7	0.00e+00	0	55	0	464519168	43	4031
2026-01-03 09:24:06.12	133.31	21.94	-35.5	-36.8	18.8	0.00e+00	0	55	0	467664896	43	3967
2026-01-03 09:24:07.13	133.21	22.08	-35.4	-36.7	18.9	0.00e+00	0	55	0	470810624	42	4178
2026-01-03 09:24:08.14	133.11	22.21	-35.4	-36.6	19.0	0.00e+00	0	55	0	473956352	42	4143
2026-01-03 09:24:09.15	133.01	22.35	-35.3	-36.6	19.0	0.00e+00	0	55	0	477102080	42	4116
2026-01-03 09:24:10.17	132.91	22.49	-35.2	-36.4	19.2	0.00e+00	0	55	0	480247808	42	4050
2026-01-03 09:24:11.17	132.82	22.62	-35.2	-36.5	19.2	0.00e+00	0	55	0	483393536	42	4054
2026-01-03 09:24:12.18	132.72	22.76	-35.2	-36.4	19.2	0.00e+00	0	55	0	486539264	42	4033
2026-01-03 09:24:13.19	132.61	22.90	-35.2	-36.4	19.1	0.00e+00	0	55	0	489684992	42	4041
2026-01-03 09:24:14.20	132.51	23.04	-35.2	-36.4	19.2	0.00e+00	0	55	0	492830720	42	4036
2026-01-03 09:24:15.21	132.41	23.18	-35.3	-36.5	19.1	0.00e+00	0	55	0	495976448	42	4069
2026-01-03 09:24:16.22	132.30	23.32	-35.3	-36.5	19.0	0.00e+00	0	55	0	499122176	42	4093
2026-01-03 09:24:17.23	132.20	23.46	-35.4	-36.6	19.0	0.00e+00	0	55	0	502267904	42	4138
2026-01-03 09:24:18.24	132.09	23.60	-35.4	-36.7	19.0	0.00e+00	0	55	0	505413632	42	4152
2026-01-03 09:24:19.25	131.98	23.74	-35.5	-36.7	18.9	0.00e+00	0	55	0	508559360	42	4191
2026-01-03 09:24:20.27	131.88	23.89	-35.6	-36.9	18.8	0.00e+00	0	55	0	511705088	42	4247
2026-01-03 09:24:21.28	131.77	24.03	-35.6	-36.9	18.7	0.00e+00	0	55	0	514850816	42	4284
2026-01-03 09:24:22.28	131.66	24.17	-35.6	-37.0	18.7	0.00e+00	0	55	0	517996544	42	4292
2026-01-03 09:24:23.29	131.55	24.32	-35.7	-37.0	18.7	0.00e+00	0	55	0	521142272	42	4309
2026-01-03 09:24:24.30	131.43	24.46	-35.7	-37.0	18.7	0.00e+00	0	55	0	524288000	42	4318
2026-01-03 09:24:25.31	131.32	24.61	-35.6	-36.9	18.7	0.00e+00	0	55	0	527433728	42	4291
2026-01-03 09:24:26.32	131.21	24.76	-35.6	-36.9	18.8	0.00e+00	0	55	0	530579456	42	4276
2026-01-03 09:24:27.33	131.09	24.91	-35.6	-36.9	18.8	0.00e+00	0	55	0	533725184	42	4272
2026-01-03 09:24:28.34	130.97	25.05	-35.6	-36.9	18.8	0.00e+00	0	55	0	536870912	42	4279
2026-01-03 09:24:29.35	130.86	25.20	-35.6	-36.9	18.8	0.00e+00	0	55	0	540016640	42	4269
2026-01-03 09:24:30.36	130.74	25.35	-35.6	-36.9	18.8	0.00e+00	0	55	0	543162368	42	4270
2026-01-03 09:24:31.38	130.61	25.50	-35.7	-37.0	18.7	0.00e+00	0	55	0	546308096	42	4296
2026-01-03 09:24:32.39	130.49	25.66	-35.7	-37.0	18.7	0.00e+00	0	55	0	549453824	42	4325
2026-01-03 09:24:33.40	130.37	25.81	-35.8	-37.1	18.6	0.00e+00	0	55	0	552599552	42	4366
2026-01-03 09:24:34.40	130.25	25.96	-35.9	-37.2	18.5	0.00e+00	0	55	0	555745280	42	4417
2026-01-03 09:24:35.41	130.12	26.11	-35.9	-37.3	18.4	0.00e+00	0	55	0	558891008	42	4452
2026-01-03 09:24:36.42	130.00	26.27	-36.0	-37.4	18.3	0.00e+00	0	55	0	562036736	42	4502
2026-01-03 09:24:37.43	129.87	26.42	-36.1	-37.5	18.2	0.00e+00	0	55	0	565182464	42	4556
2026-01-03 09:24:38.44	129.74	26.58	-36.2	-37.5	18.2	0.00e+00	0	55	0	568328192	42	4582
2026-01-03 09:24:39.45	129.61	26.73	-36.3	-37.6	18.1	0.00e+00	0	55	0	571473920	43	4383
2026-01-03 09:24:40.46	129.48	26.89	-36.3	-37.7	18.0	0.00e+00	0	55	0	574619648	43	4423
2026-01-03 09:24:41.47	129.35	27.05	-36.3	-37.7	18.1	0.00e+00	0	55	0	577765376	43	4405
2026-01-03 09:24:42.48	129.21	27.21	-36.4	-37.8	17.9	0.00e+00	0	55	0	580911104	43	4493
2026-01-03 09:24:43.49	129.08	27.37	-36.5	-37.9	17.9	0.00e+00	0	55	0	584056832	43	4505
2026-01-03 09:24:44.50	128.94	27.53	-36.5	-38.0	17.8	0.00e+00	0	55	0	587202560	43	4549
2026-01-03 09:24:45.51	128.80	27.69	-36.5	-38.0	17.8	0.00e+00	0	55	0	590348288	43	4546
2026-01-03 09:24:46.52	128.66	27.85	-36.5	-38.0	17.9	0.00e+00	0	55	0	593494016	43	4546
2026-01-03 09:24:47.53	128.52	28.01	-36.5	-37.9	17.9	0.00e+00	0	55	0	596639744	43	4532
2026-01-03 09:24:48.54	128.38	28.17	-36.4	-37.8	17.9	0.00e+00	0	55	0	599785472	43	4481
2026-01-03 09:24:49.55	128.24	28.34	-36.4	-37.8	18.0	0.00e+00	0	55	0	602931200	43	4447
2026-01-03 09:24:50.56	128.09	28.50	-36.4	-37.8	17.9	0.00e+00	0	56	0	606076928	43	4469
2026-01-03 09:24:51.57	127.94	28.67	-36.3	-37.7	18.0	0.00e+00	0	55	0	609222656	43	4419
2026-01-03 09:24:52.58	127.80	28.83	-36.4	-37.8	17.9	0.00e+00	0	55	0	612368384	43	4467
2026-01-03 09:24:53.59	127.64	29.00	-36.4	-37.8	17.9	0.00e+00	0	55	0	615514112	43	4479
2026-01-03 09:24:54.60	127.49	29.17	-36.5	-37.9	17.8	0.00e+00	0	55	0	618659840	43	4531
2026-01-03 09:24:55.61	127.34	29.34	-36.5	-37.9	17.8	0.00e+00	0	55	0	621805568	43	4534
2026-01-03 09:24:56.62	127.19	29.51	-36.5	-37.9	17.8	0.00e+00	0	55	0	624951296	43	4538
2026-01-03 09:24:57.63	127.03	29.68	-36.5	-37.9	17.8	0.00e+00	0	55	0	628097024	43	4514
2026-01-03 09:24:58.64	126.87	29.85	-36.5	-38.0	17.8	0.00e+00	0	56	0	631242752	43	4551
2026-01-03 09:24:59.65	126.71	30.02	-36.3	-37.7	18.1	0.00e+00	0	55	0	634388480	43	4411
2026-01-03 09:25:00.66	126.55	30.19	-36.2	-37.6	18.2	0.00e+00	0	55	0	637534208	43	4366
2026-01-03 09:25:01.67	126.39	30.36	-36.1	-37.4	18.3	0.00e+00	0	55	0	640679936	43	4278
2026-01-03 09:25:02.68	126.22	30.54	-36.0	-37.3	18.5	0.00e+00	0	55	0	643825664	43	4199
2026-01-03 09:25:03.69	126.05	30.71	-35.9	-37.2	18.5	0.00e+00	0	56	0	646971392	43	4168
2026-01-03 09:25:04.70	125.88	30.89	-35.8	-37.1	18.6	0.00e+00	0	56	0	650117120	43	4123
2026-01-03 09:25:05.71	125.71	31.06	-35.9	-37.2	18.5	0.00e+00	0	56	0	653262848	43	4163
2026-01-03 09:25:06.72	125.54	31.24	-35.9	-37.2	18.5	0.00e+00	0	55	0	656408576	43	4166
2026-01-03 09:25:07.73	125.37	31.42	-36.0	-37.3	18.3	0.00e+00	0	56	0	659554304	43	4224
2026-01-03 09:25:08.74	125.19	31.60	-36.1	-37.5	18.1	0.00e+00	0	56	0	662700032	43	4312
2026-01-03 09:25:09.75	125.01	31.78	-36.2	-37.6	18.1	0.00e+00	0	55	0	665845760	43	4360
2026-01-03 09:25:10.76	124.83	31.96	-36.3	-37.7	18.0	0.00e+00	0	55	0	668991488	43	4423
2026-01-03 09:25:11.77	124.65	32.14	-36.4	-37.8	18.0	0.00e+00	0	56	0	672137216	43	4451
2026-01-03 09:25:12.79	124.46	32.32	-36.4	-37.8	18.0	0.00e+00	0	55	0	675282944	43	4467
2026-01-03 09:25:13.79	124.28	32.50	-36.4	-37.8	18.0	0.00e+00	0	55	0	678428672	43	4487
2026-01-03 09:25:14.80	124.09	32.68	-36.4	-37.8	18.0	0.00e+00	0	56	0	681574400	43	4464
2026-01-03 09:25:15.81	123.90	32.87	-36.4	-37.8	18.0	0.00e+00	0	56	0	684720128	43	4484
2026-01-03 09:25:16.82	123.70	33.05	-36.4	-37.7	18.1	0.00e+00	0	56	0	687865856	43	4434
2026-01-03 09:25:17.83	123.51	33.24	-36.4	-37.7	18.1	0.00e+00	0	56	0	691011584	43	4428
2026-01-03 09:25:18.84	123.31	33.42	-36.4	-37.8	18.0	0.00e+00	0	56	0	694157312	43	4457
2026-01-03 09:25:19.85	123.11	33.61	-36.5	-37.9	17.9	0.00e+00	0	56	0	697303040	43	4521
2026-01-03 09:25:20.86	122.91	33.80	-36.6	-38.0	17.8	0.00e+00	0	56	0	700448768	43	4584
2026-01-03 09:25:21.87	122.70	33.99	-37.1	-38.5	17.5	0.00e+00	0	56	0	703594496	44	4582
2026-01-03 09:25:22.88	122.49	34.18	-37.2	-38.6	17.4	0.00e+00	0	56	0	706740224	44	4643
2026-01-03 09:25:23.89	122.29	34.37	-37.5	-39.0	17.0	0.00e+00	0	56	0	709885952	45	4594
2026-01-03 09:25:24.90	122.07	34.56	-37.5	-39.1	17.0	0.00e+00	0	56	0	713031680	45	4611
2026-01-03 09:25:25.91	121.86	34.75	-37.5	-39.1	17.0	0.00e+00	0	55	0	716177408	45	4629
2026-01-03 09:25:26.93	121.64	34.94	-37.6	-39.1	17.0	0.00e+00	0	56	0	719323136	45	4638
2026-01-03 09:25:27.94	121.42	35.13	-37.5	-39.1	17.0	0.00e+00	0	56	0	722468864	45	4613
2026-01-03 09:25:28.94	121.20	35.32	-37.5	-39.0	17.0	0.00e+00	0	56	0	725614592	45	4573
2026-01-03 09:25:29.95	120.97	35.52	-37.5	-39.0	17.0	0.00e+00	0	56	0	728760320	45	4579
2026-01-03 09:25:30.96	120.75	35.71	-37.5	-39.0	17.1	0.00e+00	0	56	0	731906048	45	4577
2026-01-03 09:25:31.97	120.52	35.91	-37.6	-39.1	17.0	0.00e+00	0	56	0	735051776	45	4636
2026-01-03 09:25:32.98	120.28	36.10	-37.6	-39.2	16.9	0.00e+00	0	56	0	738197504	45	4664
2026-01-03 09:25:33.99	120.05	36.30	-37.8	-39.4	16.7	0.00e+00	0	55	0	741343232	46	4516
2026-01-03 09:25:35.00	119.81	36.50	-38.0	-39.7	16.4	0.00e+00	0	56	0	745537536	46	4666
2026-01-03 09:25:36.00	119.57	36.69	-38.1	-39.7	16.4	0.00e+00	0	56	0	748683264	46	4698
2026-01-03 09:25:37.02	119.32	36.89	-38.2	-39.9	16.2	0.00e+00	0	56	0	751828992	47	4536
2026-01-03 09:25:38.03	119.07	37.09	-38.2	-39.8	16.3	0.00e+00	0	56	0	753926144	47	4488
2026-01-03 09:25:39.03	118.82	37.29	-38.1	-39.8	16.3	0.00e+00	0	56	0	757071872	47	4480
2026-01-03 09:25:40.05	118.57	37.49	-38.2	-39.9	16.2	0.00e+00	0	56	0	760217600	47	4504
2026-01-03 09:25:41.06	118.31	37.69	-38.3	-40.0	16.1	0.00e+00	0	56	0	764411904	47	4592
2026-01-03 09:25:42.07	118.05	37.89	-38.3	-40.1	16.1	0.00e+00	0	56	0	767557632	47	4599
2026-01-03 09:25:43.08	117.78	38.10	-38.4	-40.2	15.9	0.00e+00	0	56	0	770703360	47	4656
2026-01-03 09:25:44.09	117.52	38.30	-38.4	-40.1	16.0	0.00e+00	0	56	0	773849088	47	4636
2026-01-03 09:25:45.10	117.25	38.50	-38.5	-40.2	15.9	0.00e+00	0	56	0	776994816	47	4698
2026-01-03 09:25:46.11	116.97	38.70	-38.3	-40.0	16.1	0.00e+00	0	56	0	780140544	47	4578
2026-01-03 09:25:47.12	116.69	38.91	-38.2	-39.8	16.3	0.00e+00	0	56	0	783286272	47	4486
2026-01-03 09:25:48.13	116.41	39.11	-38.2	-39.8	16.3	0.00e+00	0	56	0	786432000	47	4480
2026-01-03 09:25:49.14	116.13	39.32	-38.2	-39.9	16.3	0.00e+00	0	56	0	789577728	47	4496
2026-01-03 09:25:50.15	115.84	39.52	-38.3	-40.0	16.1	0.00e+00	0	56	0	792723456	47	4557
2026-01-03 09:25:51.16	115.55	39.73	-38.4	-40.2	15.9	7.00e-07	0	56	0	795869184	47	4690
2026-01-03 09:25:52.17	115.25	39.93	-38.5	-40.3	15.8	0.00e+00	0	56	0	799014912	47	4726
2026-01-03 09:25:53.18	114.95	40.14	-38.4	-40.1	16.0	0.00e+00	0	56	0	802160640	47	4615
2026-01-03 09:25:54.20	114.65	40.35	-38.4	-40.1	16.0	0.00e+00	0	56	0	805306368	47	4630
2026-01-03 09:25:55.21	114.34	40.55	-38.1	-39.8	16.3	0.00e+00	0	56	0	808452096	47	4458
2026-01-03 09:25:56.22	114.03	40.76	-38.1	-39.8	16.3	0.00e+00	0	56	0	811597824	47	4473
2026-01-03 09:25:57.23	113.71	40.97	-38.3	-40.0	16.1	0.00e+00	0	56	0	814743552	47	4577
2026-01-03 09:25:58.24	113.39	41.17	-38.4	-40.1	16.0	0.00e+00	0	56	0	817889280	47	4634
2026-01-03 09:25:59.25	113.07	41.38	-38.4	-40.1	16.0	0.00e+00	0	56	0	821035008	47	4640
2026-01-03 09:26:00.26	112.74	41.59	-38.5	-40.3	15.9	0.00e+00	0	56	0	824180736	47	4707
2026-01-03 09:26:01.27	112.41	41.80	-38.3	-40.0	16.1	0.00e+00	0	56	0	827326464	47	4585
2026-01-03 09:26:02.28	112.08	42.00	-38.3	-40.1	16.1	0.00e+00	0	56	0	830472192	47	4600
2026-01-03 09:26:03.29	111.73	42.21	-38.3	-40.1	16.0	0.00e+00	0	56	0	833617920	47	4601
2026-01-03 09:26:04.29	111.39	42.42	-38.4	-40.1	15.9	0.00e+00	0	56	0	836763648	47	4611
2026-01-03 09:26:05.30	111.04	42.62	-38.6	-40.4	15.5	0.00e+00	0	56	0	839909376	47	4786
2026-01-03 09:26:06.31	110.69	42.83	-39.0	-40.9	15.2	0.00e+00	0	56	0	843055104	48	4798
2026-01-03 09:26:07.33	110.33	43.04	-39.1	-41.1	15.1	0.00e+00	0	56	0	846200832	48	4872
2026-01-03 09:26:08.33	109.97	43.24	-39.2	-41.2	15.0	0.00e+00	0	56	0	849346560	49	4657
2026-01-03 09:26:09.35	109.60	43.45	-39.4	-41.4	14.9	0.00e+00	0	56	0	852492288	49	4763
2026-01-03 09:26:10.36	109.22	43.66	-39.2	-41.1	15.1	0.00e+00	0	56	0	855638016	49	4622
2026-01-03 09:26:11.37	108.85	43.87	-39.2	-41.0	15.2	0.00e+00	0	56	0	858783744	49	4596
2026-01-03 09:26:12.38	108.46	44.07	-38.8	-40.7	15.5	0.00e+00	0	56	0	861929472	49	4398
2026-01-03 09:26:13.39	108.08	44.28	-38.7	-40.4	15.7	0.00e+00	0	56	0	865075200	49	4264
2026-01-03 09:26:14.40	107.68	44.48	-38.8	-40.5	15.6	0.00e+00	0	56	0	868220928	49	4334
2026-01-03 09:26:15.40	107.29	44.69	-38.8	-40.6	15.6	0.00e+00	0	56	0	871366656	49	4356
2026-01-03 09:26:16.41	106.89	44.89	-38.7	-40.5	15.7	7.00e-07	0	56	0	874512384	49	4329
2026-01-03 09:26:17.42	106.48	45.10	-38.6	-40.4	15.8	0.00e+00	0	56	0	877658112	49	4251
2026-01-03 09:26:18.43	106.06	45.30	-38.5	-40.2	16.0	0.00e+00	0	56	0	880803840	49	4175
2026-01-03 09:26:19.44	105.65	45.50	-38.5	-40.2	16.1	0.00e+00	0	56	0	883949568	48	4401
2026-01-03 09:26:20.45	105.22	45.70	-38.4	-40.0	16.1	0.00e+00	0	56	0	887095296	48	4340
2026-01-03 09:26:21.46	104.79	45.90	-38.4	-40.1	16.2	0.00e+00	0	56	0	890241024	48	4362
2026-01-03 09:26:22.47	104.36	46.10	-38.4	-40.1	16.1	0.00e+00	0	56	0	893386752	48	4345
2026-01-03 09:26:23.48	103.92	46.30	-38.4	-40.1	16.2	0.00e+00	0	56	0	896532480	48	4341
2026-01-03 09:26:24.49	103.47	46.50	-38.3	-40.0	16.2	0.00e+00	0	56	0	899678208	48	4300
2026-01-03 09:26:25.50	103.02	46.70	-38.2	-39.9	16.3	0.00e+00	0	56	0	902823936	48	4244
2026-01-03 09:26:26.52	102.55	46.90	-38.2	-39.8	16.4	0.00e+00	0	56	0	905969664	48	4231
2026-01-03 09:26:27.52	102.10	47.09	-38.2	-39.8	16.4	0.00e+00	0	56	0	909115392	48	4214
2026-01-03 09:26:28.54	101.62	47.29	-38.2	-39.8	16.5	0.00e+00	0	56	0	912261120	48	4219
2026-01-03 09:26:29.55	101.15	47.48	-38.2	-39.9	16.4	0.00e+00	0	56	0	915406848	48	4260
2026-01-03 09:26:30.56	100.66	47.67	-38.2	-39.9	16.4	0.00e+00	0	56	0	918552576	48	4244
2026-01-03 09:26:31.56	100.18	47.86	-38.4	-40.1	16.2	0.00e+00	0	56	0	921698304	48	4353
2026-01-03 09:26:32.57	99.69	48.05	-38.4	-40.0	16.2	0.00e+00	0	56	0	924844032	48	4340
2026-01-03 09:26:33.58	99.19	48.24	-38.4	-40.1	16.2	0.00e+00	0	56	0	927989760	48	4366
2026-01-03 09:26:34.59	98.68	48.42	-38.4	-40.1	16.2	0.00e+00	0	56	0	931135488	48	4358
2026-01-03 09:26:35.60	98.17	48.60	-38.5	-40.2	16.1	0.00e+00	0	56	0	934281216	48	4409
2026-01-03 09:26:36.61	97.66	48.79	-38.7	-40.5	15.8	0.00e+00	0	56	0	937426944	48	4572
2026-01-03 09:26:37.62	97.13	48.97	-38.8	-40.5	15.7	0.00e+00	0	56	0	940572672	48	4595
2026-01-03 09:26:38.63	96.60	49.15	-38.6	-40.3	15.9	0.00e+00	0	56	0	943718400	48	4487
2026-01-03 09:26:39.64	96.07	49.32	-38.3	-40.0	16.3	0.00e+00	0	56	0	946864128	48	4309
2026-01-03 09:26:40.65	95.52	49.50	-38.1	-39.7	16.5	0.00e+00	0	56	0	950009856	48	4185
2026-01-03 09:26:41.66	94.98	49.67	-38.0	-39.6	16.6	0.00e+00	0	56	0	953155584	48	4113
2026-01-03 09:26:42.67	94.42	49.84	-38.0	-39.7	16.4	0.00e+00	0	56	0	956301312	47	4411
2026-01-03 09:26:43.68	93.86	50.01	-38.3	-40.0	16.1	0.00e+00	0	56	0	959447040	47	4577
2026-01-03 09:26:44.69	93.29	50.17	-38.3	-40.1	16.1	0.00e+00	0	56	0	962592768	47	4608
2026-01-03 09:26:45.70	92.72	50.33	-38.3	-40.0	16.2	0.00e+00	0	56	0	965738496	47	4566
2026-01-03 09:26:46.71	92.14	50.50	-38.3	-40.0	16.2	0.00e+00	0	56	0	968884224	47	4557
2026-01-03 09:26:47.72	91.55	50.65	-38.2	-39.9	16.3	0.00e+00	0	56	0	972029952	47	4531
2026-01-03 09:26:48.73	90.96	50.81	-38.0	-39.7	16.5	0.00e+00	0	56	0	975175680	47	4404
2026-01-03 09:26:49.74	90.37	50.96	-37.7	-39.3	16.9	0.00e+00	0	56	0	978321408	47	4212
2026-01-03 09:26:50.75	89.76	51.11	-37.4	-38.8	17.4	0.00e+00	0	56	0	981467136	46	4234
2026-01-03 09:26:51.76	89.15	51.26	-37.1	-38.6	17.6	0.00e+00	0	56	0	984612864	46	4105
2026-01-03 09:26:52.77	88.54	51.40	-37.1	-38.6	17.6	0.00e+00	0	56	0	987758592	46	4106
2026-01-03 09:26:53.78	87.91	51.54	-37.4	-38.8	17.4	0.00e+00	0	56	0	990904320	46	4227
2026-01-03 09:26:54.79	87.29	51.68	-37.2	-38.6	17.6	0.00e+00	0	56	0	994050048	46	4115
2026-01-03 09:26:55.80	86.65	51.81	-37.1	-38.6	17.6	0.00e+00	0	56	0	997195776	46	4103
2026-01-03 09:26:56.81	86.02	51.94	-37.3	-38.8	17.4	0.00e+00	0	56	0	1000341504	46	4219
2026-01-03 09:26:57.81	85.38	52.07	-37.4	-38.8	17.3	0.00e+00	0	56	0	1003487232	46	4234
2026-01-03 09:26:58.82	84.73	52.20	-37.3	-38.7	17.3	0.00e+00	0	56	0	1006632960	46	4177
2026-01-03 09:26:59.83	84.07	52.32	-37.4	-38.9	17.1	0.00e+00	0	56	0	1009778688	46	4283
2026-01-03 09:27:00.84	83.41	52.43	-37.7	-39.2	16.9	0.00e+00	0	56	0	1012924416	46	4431
2026-01-03 09:27:01.86	82.74	52.55	-37.7	-39.3	16.9	0.00e+00	0	56	0	1016070144	46	4445
2026-01-03 09:27:02.87	82.07	52.66	-37.7	-39.2	16.9	0.00e+00	0	56	0	1019215872	46	4427
2026-01-03 09:27:03.88	81.39	52.76	-37.5	-38.9	17.1	0.00e+00	0	56	0	1022361600	46	4290
2026-01-03 09:27:04.89	80.71	52.86	-37.2	-38.6	17.4	0.00e+00	0	56	0	1025507328	46	4120
2026-01-03 09:27:05.90	80.03	52.96	-37.2	-38.6	17.4	0.00e+00	0	56	0	1028653056	46	4123
2026-01-03 09:27:06.91	79.34	53.05	-37.3	-38.8	17.3	0.00e+00	0	56	0	1031798784	46	4225
2026-01-03 09:27:07.92	78.64	53.14	-37.4	-38.9	17.2	0.00e+00	0	56	0	1034944512	46	4272
2026-01-03 09:27:08.93	77.95	53.23	-37.3	-38.8	17.3	0.00e+00	0	56	0	1038090240	46	4205
2026-01-03 09:27:09.94	77.24	53.31	-37.6	-39.1	17.0	0.00e+00	0	56	0	1041235968	46	4384
2026-01-03 09:27:10.95	76.54	53.39	-37.4	-38.9	17.3	0.00e+00	0	56	0	1044381696	46	4260
2026-01-03 09:27:11.96	75.83	53.46	-36.8	-38.1	18.0	0.00e+00	0	56	0	1047527424	45	4135
2026-01-03 09:27:12.97	75.11	53.53	-36.5	-37.8	18.3	0.00e+00	0	56	0	1050673152	44	4216
2026-01-03 09:27:13.97	74.41	53.59	-36.5	-37.8	18.3	0.00e+00	0	56	0	1053818880	44	4229
2026-01-03 09:27:14.98	73.69	53.65	-36.8	-38.2	17.9	0.00e+00	0	56	0	1056964608	44	4420
2026-01-03 09:27:15.99	72.96	53.70	-36.9	-38.3	17.8	0.00e+00	0	56	0	1060110336	44	4481
2026-01-03 09:27:17.00	72.24	53.75	-37.0	-38.4	17.6	0.00e+00	0	56	0	1064304640	44	4504
2026-01-03 09:27:18.01	71.51	53.80	-36.8	-38.1	17.8	0.00e+00	0	56	0	1067450368	44	4371
2026-01-03 09:27:19.02	70.78	53.84	-36.8	-38.1	17.7	0.00e+00	0	56	0	1069547520	44	4387
2026-01-03 09:27:20.03	70.05	53.88	-37.1	-38.5	17.5	0.00e+00	0	56	0	1072693248	44	4562
2026-01-03 09:27:21.04	69.32	53.91	-37.2	-38.6	17.4	0.00e+00	0	56	0	1075838976	45	4370
2026-01-03 09:27:22.05	68.59	53.93	-37.4	-38.9	17.2	0.00e+00	0	56	0	1080033280	45	4494
2026-01-03 09:27:23.07	67.84	53.96	-37.6	-39.1	17.1	0.00e+00	0	56	0	1083179008	45	4621
2026-01-03 09:27:24.08	67.11	53.97	-37.8	-39.4	16.8	0.00e+00	0	56	0	1086324736	46	4503
2026-01-03 09:27:25.08	66.38	53.99	-37.7	-39.2	16.9	0.00e+00	0	56	0	1089470464	46	4417
2026-01-03 09:27:26.09	65.64	53.99	-37.4	-38.9	17.2	0.00e+00	0	56	0	1092616192	46	4262
2026-01-03 09:27:27.10	64.90	54.00	-37.6	-39.1	17.0	0.00e+00	0	56	0	1095761920	46	4383
2026-01-03 09:27:28.11	64.16	53.99	-37.5	-39.0	17.1	0.00e+00	0	56	0	1098907648	46	4328
2026-01-03 09:27:29.12	63.43	53.99	-37.6	-39.1	17.0	0.00e+00	0	56	0	1102053376	46	4390
2026-01-03 09:27:30.13	62.69	53.98	-37.8	-39.4	16.8	0.00e+00	0	56	0	1105199104	46	4523
2026-01-03 09:27:31.14	61.95	53.96	-37.3	-38.8	17.3	0.00e+00	0	56	0	1108344832	46	4217
2026-01-03 09:27:32.15	61.22	53.94	-37.1	-38.6	17.5	0.00e+00	0	56	0	1111490560	46	4101
2026-01-03 09:27:33.17	60.48	53.91	-37.2	-38.7	17.4	0.00e+00	0	56	0	1114636288	46	4161
2026-01-03 09:27:34.18	59.74	53.88	-37.5	-39.0	17.2	0.00e+00	0	57	0	1117782016	46	4311
2026-01-03 09:27:35.19	59.01	53.85	-38.0	-39.7	16.6	0.00e+00	0	56	0	1120927744	46	4653
2026-01-03 09:27:36.19	58.29	53.81	-38.0	-39.7	16.5	0.00e+00	0	56	0	1124073472	46	4661
2026-01-03 09:27:37.20	57.56	53.76	-38.0	-39.7	16.4	0.00e+00	0	56	0	1127219200	46	4685
2026-01-03 09:27:38.21	56.84	53.71	-37.3	-38.8	17.3	0.00e+00	0	56	0	1130364928	46	4225
2026-01-03 09:27:39.22	56.12	53.66	-36.8	-38.2	17.9	0.00e+00	0	56	0	1133510656	45	4176
2026-01-03 09:27:40.23	55.40	53.60	-37.0	-38.4	17.7	0.00e+00	0	56	0	1136656384	45	4260
2026-01-03 09:27:41.24	54.68	53.54	-37.1	-38.6	17.5	0.00e+00	0	57	0	1139802112	45	4351
2026-01-03 09:27:42.25	53.97	53.47	-37.4	-38.9	17.0	0.00e+00	0	56	0	1142947840	45	4532
2026-01-03 09:27:43.26	53.26	53.40	-37.6	-39.2	16.8	0.00e+00	0	56	0	1146093568	45	4662
2026-01-03 09:27:44.27	52.55	53.32	-37.5	-39.0	16.9	0.00e+00	0	56	0	1149239296	45	4581
2026-01-03 09:27:45.28	51.85	53.24	-37.6	-39.2	16.7	0.00e+00	0	56	0	1152385024	45	4683
2026-01-03 09:27:46.29	51.15	53.15	-37.5	-39.0	17.0	0.00e+00	0	56	0	1155530752	45	4576
2026-01-03 09:27:47.30	50.46	53.07	-37.7	-39.2	16.8	0.00e+00	0	56	0	1158676480	45	4701
2026-01-03 09:27:48.31	49.77	52.97	-37.8	-39.3	16.7	0.00e+00	0	57	0	1161822208	46	4487
2026-01-03 09:27:49.32	49.09	52.88	-37.3	-38.7	17.3	0.00e+00	0	56	0	1164967936	46	4185
2026-01-03 09:27:50.33	48.41	52.77	-36.9	-38.3	17.7	0.00e+00	0	56	0	1168113664	45	4211
2026-01-03 09:27:51.34	47.73	52.67	-36.7	-38.0	18.0	0.00e+00	0	56	0	1171259392	45	4080
2026-01-03 09:27:52.35	47.06	52.56	-36.9	-38.3	17.7	0.00e+00	0	56	0	1174405120	45	4222
2026-01-03 09:27:53.36	46.40	52.45	-37.2	-38.6	17.4	0.00e+00	0	56	0	1177550848	45	4389
2026-01-03 09:27:54.37	45.74	52.33	-37.3	-38.7	17.3	0.00e+00	0	56	0	1180696576	45	4434
2026-01-03 09:27:55.38	45.08	52.21	-37.2	-38.6	17.3	0.00e+00	0	56	0	1183842304	45	4356
2026-01-03 09:27:56.39	44.43	52.09	-36.8	-38.2	17.7	0.00e+00	0	56	0	1186988032	45	4147
2026-01-03 09:27:57.40	43.79	51.96	-36.6	-38.0	18.0	0.00e+00	0	56	0	1190133760	45	4066
2026-01-03 09:27:58.41	43.15	51.83	-36.4	-37.7	18.3	0.00e+00	0	56	0	1193279488	44	4181
2026-01-03 09:27:59.42	42.52	51.70	-36.6	-37.9	18.1	0.00e+00	0	56	0	1196425216	44	4262
2026-01-03 09:28:00.43	41.89	51.56	-37.4	-38.8	17.2	0.00e+00	0	56	0	1199570944	45	4491
2026-01-03 09:28:01.44	41.27	51.42	-37.6	-39.2	16.7	0.00e+00	0	56	0	1202716672	45	4666
2026-01-03 09:28:02.44	40.66	51.28	-37.5	-39.0	16.8	0.00e+00	0	56	0	1205862400	45	4553
2026-01-03 09:28:03.45	40.05	51.13	-37.3	-38.7	17.1	0.00e+00	0	56	0	1209008128	45	4437
2026-01-03 09:28:04.46	39.45	50.98	-37.1	-38.5	17.5	0.00e+00	0	57	0	1212153856	45	4301
2026-01-03 09:28:05.47	38.85	50.83	-36.9	-38.2	17.8	0.00e+00	0	56	0	1215299584	45	4183
2026-01-03 09:28:06.48	38.26	50.68	-37.4	-38.9	17.1	0.00e+00	0	56	0	1218445312	45	4513
2026-01-03 09:28:07.49	37.67	50.52	-38.4	-40.1	15.8	0.00e+00	0	56	0	1221591040	47	4630
2026-01-03 09:28:08.50	37.09	50.36	-38.8	-40.6	15.4	0.00e+00	0	56	0	1224736768	48	4645
2026-01-03 09:28:09.51	36.52	50.20	-38.1	-39.8	16.2	0.00e+00	0	56	0	1227882496	48	4222
2026-01-03 09:28:10.52	35.95	50.03	-37.5	-39.1	16.9	0.00e+00	0	57	0	1231028224	47	4109
2026-01-03 09:28:11.53	35.39	49.87	-37.7	-39.3	16.7	0.00e+00	0	56	0	1234173952	47	4214
2026-01-03 09:28:12.54	34.84	49.70	-38.1	-39.7	16.3	0.00e+00	0	56	0	1237319680	47	4439
2026-01-03 09:28:13.55	34.29	49.53	-38.5	-40.2	15.8	0.00e+00	0	56	0	1240465408	47	4701
2026-01-03 09:28:14.56	33.75	49.35	-38.9	-40.7	15.5	0.00e+00	0	57	0	1243611136	48	4666
2026-01-03 09:28:15.57	33.22	49.18	-38.5	-40.2	16.0	0.00e+00	0	56	0	1246756864	48	4419
2026-01-03 09:28:16.58	32.69	49.00	-38.1	-39.7	16.5	0.00e+00	0	57	0	1249902592	48	4157
2026-01-03 09:28:17.59	32.16	48.82	-38.0	-39.6	16.4	0.00e+00	0	57	0	1253048320	47	4368
2026-01-03 09:28:18.60	31.65	48.64	-38.3	-40.0	16.0	0.00e+00	0	56	0	1256194048	47	4578
2026-01-03 09:28:19.60	31.14	48.46	-38.8	-40.7	15.5	0.00e+00	0	56	0	1259339776	48	4664
2026-01-03 09:28:20.61	30.64	48.27	-39.5	-41.5	14.7	0.00e+00	0	57	0	1262485504	49	4841
2026-01-03 09:28:21.63	30.13	48.09	-39.7	-41.8	14.3	1.50e-06	0	56	0	1265631232	49	4996
2026-01-03 09:28:22.63	29.64	47.90	-39.2	-41.1	14.9	0.00e+00	0	56	0	1268776960	50	4378
2026-01-03 09:28:23.65	29.15	47.71	-38.4	-40.0	16.0	0.00e+00	0	56	0	1271922688	48	4318
2026-01-03 09:28:24.66	28.67	47.52	-37.5	-39.0	17.0	0.00e+00	0	56	0	1275068416	47	4055
2026-01-03 09:28:25.67	28.20	47.33	-37.2	-38.6	17.3	0.00e+00	0	57	0	1278214144	46	4137
2026-01-03 09:28:26.68	27.73	47.13	-37.5	-39.0	17.0	0.00e+00	0	57	0	1281359872	46	4336
2026-01-03 09:28:27.69	27.26	46.94	-38.1	-39.7	16.3	0.00e+00	0	56	0	1284505600	46	4704
2026-01-03 09:28:28.70	26.81	46.74	-39.1	-41.0	15.2	0.00e+00	0	56	0	1287651328	48	4852
2026-01-03 09:28:29.71	26.36	46.55	-39.5	-41.6	14.6	0.00e+00	0	57	0	1290797056	49	4878
2026-01-03 09:28:30.72	25.91	46.35	-39.5	-41.5	14.5	7.00e-07	0	56	0	1293942784	49	4852
2026-01-03 09:28:31.73	25.47	46.15	-39.2	-41.1	14.8	0.00e+00	0	56	0	1297088512	49	4616
2026-01-03 09:28:32.74	25.03	45.95	-39.0	-40.8	15.2	0.00e+00	0	56	0	1300234240	49	4478
2026-01-03 09:28:33.75	24.61	45.75	-38.4	-40.1	16.0	0.00e+00	0	57	0	1303379968	48	4369
2026-01-03 09:28:34.76	24.18	45.55	-38.4	-40.0	16.2	0.00e+00	0	57	0	1306525696	48	4315
2026-01-03 09:28:35.77	23.76	45.35	-38.9	-40.8	15.4	0.00e+00	0	57	0	1309671424	48	4708
2026-01-03 09:28:36.78	23.35	45.15	-39.9	-42.0	14.2	7.00e-07	0	57	0	1312817152	50	4865
2026-01-03 09:28:37.79	22.94	44.94	-40.3	-42.6	13.6	6.10e-06	0	56	0	1315962880	51	4924
2026-01-03 09:28:38.80	22.54	44.74	-40.2	-42.5	13.6	6.80e-06	0	57	0	1319108608	51	4867
2026-01-03 09:28:39.81	22.14	44.54	-39.8	-42.0	14.2	3.00e-06	0	56	0	1322254336	51	4549
2026-01-03 09:28:40.82	21.75	44.33	-39.5	-41.6	14.6	0.00e+00	0	57	0	1325400064	51	4345
2026-01-03 09:28:41.83	21.36	44.13	-39.5	-41.4	14.7	0.00e+00	0	57	0	1328545792	50	4540
2026-01-03 09:28:42.85	20.98	43.92	-38.9	-40.7	15.4	7.00e-07	0	57	0	1331691520	49	4436
2026-01-03 09:28:43.86	20.60	43.71	-38.4	-40.1	16.1	0.00e+00	0	57	0	1334837248	48	4353
2026-01-03 09:28:44.87	20.23	43.51	-38.4	-40.1	16.0	0.00e+00	0	57	0	1337982976	48	4367
2026-01-03 09:28:45.88	19.86	43.30	-39.2	-41.1	15.0	0.00e+00	0	57	0	1341128704	49	4651
2026-01-03 09:28:46.89	19.50	43.10	-39.9	-42.1	14.1	2.20e-06	0	57	0	1344274432	50	4903
2026-01-03 09:28:47.90	19.14	42.89	-39.9	-42.0	14.0	5.30e-06	0	56	0	1347420160	50	4845
2026-01-03 09:28:48.91	18.79	42.68	-38.6	-40.3	15.5	0.00e+00	0	57	0	1350565888	49	4235
2026-01-03 09:28:49.92	18.44	42.48	-37.5	-39.0	16.7	0.00e+00	0	56	0	1353711616	47	4073
2026-01-03 09:28:50.93	18.09	42.27	-37.0	-38.4	17.4	0.00e+00	0	57	0	1356857344	46	4032
2026-01-03 09:28:51.94	17.75	42.06	-37.3	-38.8	17.1	0.00e+00	0	57	0	1360003072	46	4227
2026-01-03 09:28:52.95	17.42	41.86	-37.9	-39.5	16.5	0.00e+00	0	57	0	1363148800	46	4568
2026-01-03 09:28:53.96	17.09	41.65	-38.3	-40.0	16.0	0.00e+00	0	57	0	1366294528	47	4556
2026-01-03 09:28:54.97	16.76	41.44	-38.4	-40.2	15.8	0.00e+00	0	57	0	1369440256	47	4676
2026-01-03 09:28:55.98	16.44	41.24	-38.8	-40.7	15.4	0.00e+00	0	57	0	1372585984	48	4658
2026-01-03 09:28:56.99	16.12	41.03	-39.4	-41.4	14.7	0.00e+00	0	57	0	1375731712	49	4779
2026-01-03 09:28:58.00	15.80	40.83	-39.7	-41.8	14.4	1.50e-06	0	57	0	1379926016	49	5007
2026-01-03 09:28:59.01	15.49	40.62	-39.5	-41.6	14.6	0.00e+00	0	57	0	1383071744	50	4633
2026-01-03 09:29:00.02	15.19	40.41	-38.9	-40.7	15.4	0.00e+00	0	57	0	1385168896	49	4426
2026-01-03 09:29:01.03	14.88	40.21	-38.1	-39.8	16.3	0.00e+00	0	57	0	1388314624	48	4198
2026-01-03 09:29:02.04	14.58	40.00	-37.7	-39.2	16.7	0.00e+00	0	56	0	1391460352	47	4190
2026-01-03 09:29:03.05	14.29	39.80	-37.5	-39.1	16.9	0.00e+00	0	56	0	1394606080	47	4102
2026-01-03 09:29:04.05	14.00	39.60	-37.5	-39.0	16.8	0.00e+00	0	56	0	1398800384	46	4340
2026-01-03 09:29:05.06	13.71	39.39	-37.9	-39.6	16.4	0.00e+00	0	57	0	1401946112	46	4601
2026-01-03 09:29:06.07	13.43	39.19	-38.5	-40.3	15.8	0.00e+00	0	57	0	1405091840	47	4727
2026-01-03 09:29:07.09	13.15	38.99	-38.5	-40.2	15.6	0.00e+00	0	57	0	1408237568	47	4703
2026-01-03 09:29:08.09	12.87	38.78	-38.2	-39.9	15.8	0.00e+00	0	57	0	1410334720	47	4527
2026-01-03 09:29:09.10	12.60	38.58	-38.0	-39.6	16.1	0.00e+00	0	57	0	1414529024	47	4389
2026-01-03 09:29:10.11	12.33	38.38	-38.0	-39.6	16.2	0.00e+00	0	56	0	1417674752	47	4356
2026-01-03 09:29:11.13	12.06	38.18	-38.0	-39.7	16.2	0.00e+00	0	57	0	1420820480	47	4409
2026-01-03 09:29:12.13	11.80	37.98	-38.2	-39.9	16.0	0.00e+00	0	56	0	1423966208	47	4530
2026-01-03 09:29:13.15	11.53	37.78	-38.2	-40.0	16.0	0.00e+00	0	57	0	1427111936	47	4549
2026-01-03 09:29:14.16	11.28	37.58	-38.0	-39.7	16.2	0.00e+00	0	57	0	1430257664	47	4421
2026-01-03 09:29:15.17	11.02	37.38	-37.8	-39.4	16.5	0.00e+00	0	57	0	1433403392	47	4279
2026-01-03 09:29:16.18	10.77	37.18	-37.7	-39.3	16.6	0.00e+00	0	57	0	1436549120	47	4209
2026-01-03 09:29:17.19	10.53	36.98	-37.8	-39.5	16.5	0.00e+00	0	57	0	1439694848	47	4300
2026-01-03 09:29:18.20	10.28	36.78	-38.2	-39.9	16.2	0.00e+00	0	57	0	1442840576	47	4500
2026-01-03 09:29:19.21	10.04	36.59	-38.4	-40.1	15.8	0.00e+00	0	57	0	1445986304	47	4645
2026-01-03 09:29:20.21	9.80	36.39	-38.2	-39.9	16.0	0.00e+00	0	57	0	1449132032	47	4529
2026-01-03 09:29:21.23	9.57	36.19	-37.6	-39.2	16.6	0.00e+00	0	57	0	1452277760	47	4151
2026-01-03 09:29:22.24	9.33	36.00	-37.1	-38.5	17.2	0.00e+00	0	57	0	1455423488	46	4091
2026-01-03 09:29:23.25	9.10	35.80	-36.9	-38.3	17.5	0.00e+00	0	57	0	1458569216	45	4197
2026-01-03 09:29:24.26	8.87	35.61	-36.9	-38.3	17.6	0.00e+00	0	57	0	1461714944	45	4201
2026-01-03 09:29:25.27	8.65	35.42	-37.1	-38.5	17.3	0.00e+00	0	57	0	1464860672	45	4330
2026-01-03 09:29:26.28	8.43	35.23	-37.4	-38.9	17.0	0.00e+00	0	57	0	1468006400	45	4503
2026-01-03 09:29:27.29	8.21	35.03	-37.6	-39.1	16.7	0.00e+00	0	57	0	1471152128	45	4646
2026-01-03 09:29:28.30	7.99	34.84	-37.9	-39.5	16.5	0.00e+00	0	56	0	1474297856	46	4574
2026-01-03 09:29:29.31	7.78	34.65	-38.1	-39.8	16.2	0.00e+00	0	57	0	1477443584	46	4715
2026-01-03 09:29:30.32	7.57	34.46	-38.2	-39.9	16.1	0.00e+00	0	57	0	1480589312	46	4802
2026-01-03 09:29:31.33	7.36	34.27	-37.9	-39.6	16.4	0.00e+00	0	57	0	1483735040	47	4372
2026-01-03 09:29:32.34	7.15	34.09	-37.6	-39.2	16.8	0.00e+00	0	56	0	1486880768	47	4158
2026-01-03 09:29:33.35	6.95	33.90	-37.4	-38.9	17.1	0.00e+00	0	57	0	1490026496	46	4256
2026-01-03 09:29:34.36	6.74	33.71	-37.4	-38.9	17.1	0.00e+00	0	57	0	1493172224	46	4259
2026-01-03 09:29:35.37	6.55	33.52	-37.4	-39.0	17.0	0.00e+00	0	57	0	1496317952	46	4305
2026-01-03 09:29:36.38	6.35	33.34	-37.3	-38.8	17.1	0.00e+00	0	56	0	1499463680	46	4224
2026-01-03 09:29:37.40	6.15	33.15	-37.2	-38.7	17.2	0.00e+00	0	56	0	1502609408	46	4169
2026-01-03 09:29:38.41	5.96	32.97	-37.3	-38.8	17.2	0.00e+00	0	57	0	1505755136	46	4204
2026-01-03 09:29:39.42	5.77	32.79	-37.4	-39.0	17.0	0.00e+00	0	57	0	1508900864	46	4294
2026-01-03 09:29:40.43	5.58	32.60	-37.2	-38.7	17.3	0.00e+00	0	57	0	1512046592	46	4149
2026-01-03 09:29:41.44	5.39	32.42	-37.1	-38.6	17.4	0.00e+00	0	56	0	1515192320	46	4104
2026-01-03 09:29:42.45	5.21	32.24	-36.9	-38.3	17.5	0.00e+00	0	57	0	1518338048	45	4238
2026-01-03 09:29:43.46	5.03	32.06	-36.8	-38.3	17.6	0.00e+00	0	57	0	1521483776	45	4195
2026-01-03 09:29:44.47	4.85	31.88	-36.7	-38.1	17.7	0.00e+00	0	57	0	1524629504	45	4138
2026-01-03 09:29:45.48	4.67	31.70	-36.7	-38.1	17.7	0.00e+00	0	56	0	1527775232	45	4127
2026-01-03 09:29:46.49	4.49	31.53	-36.7	-38.1	17.7	0.00e+00	0	56	0	1530920960	45	4139
2026-01-03 09:29:47.50	4.32	31.35	-36.4	-37.8	18.0	0.00e+00	0	57	0	1534066688	44	4202
2026-01-03 09:29:48.51	4.15	31.17	-36.0	-37.3	18.5	0.00e+00	0	57	0	1537212416	44	3967
2026-01-03 09:29:49.52	3.98	31.00	-35.5	-36.8	18.7	0.00e+00	0	57	0	1540358144	43	3974
2026-01-03 09:29:50.53	3.81	30.82	-35.4	-36.6	18.9	0.00e+00	0	57	0	1543503872	42	4132
2026-01-03 09:29:51.54	3.64	30.65	-35.4	-36.6	18.9	0.00e+00	0	57	0	1546649600	42	4135
2026-01-03 09:29:52.55	3.48	30.48	-35.5	-36.8	18.7	0.00e+00	0	56	0	1549795328	42	4217
2026-01-03 09:29:53.57	3.31	30.30	-35.7	-37.0	18.5	0.00e+00	0	57	0	1552941056	42	4323
2026-01-03 09:29:54.58	3.15	30.13	-36.0	-37.4	18.2	0.00e+00	0	57	0	1556086784	42	4514
2026-01-03 09:29:55.59	2.99	29.96	-36.3	-37.7	17.9	0.00e+00	0	57	0	1559232512	43	4408
2026-01-03 09:29:56.60	2.83	29.79	-36.5	-37.9	17.7	0.00e+00	0	57	0	1562378240	43	4520
2026-01-03 09:29:57.61	2.68	29.62	-36.6	-38.1	17.5	0.00e+00	0	57	0	1565523968	43	4628
2026-01-03 09:29:58.62	2.52	29.45	-37.0	-38.5	17.3	0.00e+00	0	57	0	1568669696	44	4570
2026-01-03 09:29:59.63	2.37	29.28	-37.0	-38.5	17.3	0.00e+00	0	57	0	1571815424	44	4567
2026-01-03 09:30:00.64	2.22	29.12	-37.0	-38.4	17.3	0.00e+00	0	57	0	1574961152	44	4544
2026-01-03 09:30:01.65	2.07	28.95	-36.9	-38.4	17.4	0.00e+00	0	57	0	1578106880	44	4518
2026-01-03 09:30:02.66	1.92	28.78	-36.8	-38.3	17.5	0.00e+00	0	56	0	1581252608	44	4471
2026-01-03 09:30:03.67	1.78	28.62	-36.7	-38.1	17.6	0.00e+00	0	57	0	1584398336	44	4382
2026-01-03 09:30:04.68	1.63	28.46	-36.5	-38.0	17.8	0.00e+00	0	57	0	1587544064	44	4292
2026-01-03 09:30:05.69	1.49	28.29	-36.3	-37.6	18.1	0.00e+00	0	57	0	1590689792	44	4141
2026-01-03 09:30:06.70	1.35	28.13	-36.1	-37.4	18.2	0.00e+00	0	56	0	1593835520	44	4034
2026-01-03 09:30:07.71	1.21	27.97	-35.8	-37.1	18.4	0.00e+00	0	57	0	1596981248	43	4122
2026-01-03 09:30:08.72	1.07	27.81	-35.8	-37.1	18.4	0.00e+00	0	57	0	1600126976	43	4105
2026-01-03 09:30:09.73	0.93	27.65	-35.8	-37.1	18.4	0.00e+00	0	57	0	1603272704	43	4113
2026-01-03 09:30:10.74	0.79	27.49	-35.5	-36.8	18.7	0.00e+00	0	57	0	1606418432	43	3967
2026-01-03 09:30:11.75	0.66	27.33	-35.4	-36.6	18.9	0.00e+00	0	57	0	1609564160	42	4140
2026-01-03 09:30:12.76	0.53	27.17	-35.3	-36.6	19.0	0.00e+00	0	57	0	1612709888	42	4100
2026-01-03 09:30:13.77	0.39	27.01	-35.4	-36.6	18.9	0.00e+00	0	56	0	1615855616	42	4137
2026-01-03 09:30:14.78	0.26	26.86	-35.4	-36.6	18.9	0.00e+00	0	57	0	1619001344	42	4122
2026-01-03 09:30:15.79	0.13	26.70	-35.4	-36.6	18.9	0.00e+00	0	57	0	1622147072	42	4137
2026-01-03 09:30:16.80	0.01	26.55	-35.4	-36.7	18.8	0.00e+00	0	57	0	1625292800	42	4168
2026-01-03 09:30:17.81	359.88	26.39	-35.5	-36.7	18.8	0.00e+00	0	57	0	1628438528	42	4177
2026-01-03 09:30:18.82	359.75	26.24	-35.5	-36.8	18.7	0.00e+00	0	57	0	1631584256	42	4223
2026-01-03 09:30:19.83	359.63	26.09	-35.5	-36.8	18.7	0.00e+00	0	57	0	1634729984	42	4230
2026-01-03 09:30:20.84	359.51	25.93	-35.6	-36.9	18.6	0.00e+00	0	56	0	1637875712	42	4277
2026-01-03 09:30:21.85	359.38	25.78	-35.6	-36.9	18.6	0.00e+00	0	57	0	1641021440	42	4283
2026-01-03 09:30:22.86	359.26	25.63	-35.7	-37.0	18.6	0.00e+00	0	56	0	1644167168	42	4306
2026-01-03 09:30:23.87	359.14	25.48	-35.8	-37.1	18.5	0.00e+00	0	56	0	1647312896	42	4351
2026-01-03 09:30:24.88	359.02	25.33	-35.8	-37.1	18.4	0.00e+00	0	57	0	1650458624	42	4384
2026-01-03 09:30:25.89	358.91	25.18	-35.8	-37.1	18.4	0.00e+00	0	57	0	1653604352	42	4367
2026-01-03 09:30:26.90	358.79	25.04	-35.9	-37.3	18.2	0.00e+00	0	57	0	1656750080	42	4464
2026-01-03 09:30:27.92	358.68	24.89	-36.0	-37.4	18.1	0.00e+00	0	57	0	1659895808	42	4510
2026-01-03 09:30:28.93	358.56	24.74	-36.2	-37.6	17.9	0.00e+00	0	57	0	1663041536	42	4615
2026-01-03 09:30:29.94	358.45	24.60	-36.1	-37.5	18.0	0.00e+00	0	56	0	1666187264	42	4580
2026-01-03 09:30:30.95	358.34	24.45	-36.2	-37.6	17.9	0.00e+00	0	57	0	1670381568	42	4605
2026-01-03 09:30:31.96	358.23	24.31	-36.1	-37.5	17.9	0.00e+00	0	56	0	1673527296	42	4598
2026-01-03 09:30:32.97	358.12	24.16	-36.1	-37.5	17.9	0.00e+00	0	57	0	1676673024	42	4557
2026-01-03 09:30:33.98	358.01	24.02	-36.1	-37.5	17.9	0.00e+00	0	56	0	1678770176	42	4576
2026-01-03 09:30:34.99	357.90	23.88	-36.1	-37.4	17.9	0.00e+00	0	57	0	1681915904	42	4540
2026-01-03 09:30:36.00	357.79	23.74	-35.9	-37.3	18.1	0.00e+00	0	57	0	1686110208	42	4450
2026-01-03 09:30:37.01	357.69	23.59	-35.9	-37.2	18.1	0.00e+00	0	57	0	1689255936	42	4435
2026-01-03 09:30:38.02	357.58	23.45	-35.9	-37.2	18.1	0.00e+00	0	57	0	1692401664	42	4417
2026-01-03 09:30:39.03	357.48	23.31	-35.9	-37.2	18.1	0.00e+00	0	57	0	1695547392	42	4436
2026-01-03 09:30:40.03	357.38	23.18	-35.7	-37.1	18.3	0.00e+00	0	57	0	1698693120	42	4344
2026-01-03 09:30:41.04	357.28	23.04	-35.7	-37.1	18.3	0.00e+00	0	57	0	1700790272	42	4343
2026-01-03 09:30:42.05	357.18	22.90	-35.6	-37.0	18.4	0.00e+00	0	57	0	1704984576	42	4292
2026-01-03 09:30:43.06	357.08	22.76	-35.6	-36.9	18.4	0.00e+00	0	57	0	1708130304	42	4285
2026-01-03 09:30:44.07	356.98	22.63	-35.7	-37.1	18.3	0.00e+00	0	56	0	1711276032	42	4343
2026-01-03 09:30:45.08	356.88	22.49	-35.8	-37.1	18.3	0.00e+00	0	57	0	1714421760	42	4359
2026-01-03 09:30:46.09	356.78	22.36	-35.8	-37.1	18.2	0.00e+00	0	57	0	1717567488	42	4387
2026-01-03 09:30:47.10	356.69	22.22	-35.9	-37.2	18.1	0.00e+00	0	57	0	1720713216	42	4422
2026-01-03 09:30:48.11	356.59	22.09	-35.9	-37.3	18.1	0.00e+00	0	57	0	1723858944	42	4454
2026-01-03 09:30:49.12	356.49	21.95	-35.9	-37.3	18.0	0.00e+00	0	57	0	1727004672	42	4473
2026-01-03 09:30:50.13	356.40	21.82	-36.0	-37.4	18.0	0.00e+00	0	57	0	1730150400	42	4501
2026-01-03 09:30:51.14	356.31	21.69	-36.0	-37.4	18.0	0.00e+00	0	57	0	1733296128	42	4508
2026-01-03 09:30:52.15	356.22	21.56	-36.1	-37.5	17.8	0.00e+00	0	57	0	1736441856	42	4574
2026-01-03 09:30:53.17	356.12	21.42	-36.1	-37.5	17.8	0.00e+00	0	57	0	1739587584	42	4575
2026-01-03 09:30:54.18	356.03	21.29	-36.0	-37.5	17.8	0.00e+00	0	57	0	1742733312	42	4556
2026-01-03 09:30:55.19	355.94	21.16	-36.0	-37.4	17.7	0.00e+00	0	57	0	1745879040	42	4521
2026-01-03 09:30:56.19	355.86	21.04	-35.9	-37.3	17.6	0.00e+00	0	57	0	1749024768	42	4486
2026-01-03 09:30:57.20	355.77	20.91	-36.1	-37.6	17.0	0.00e+00	0	57	0	1752170496	42	4640
2026-01-03 09:30:58.21	355.68	20.78	-36.4	-38.1	16.3	0.00e+00	0	57	0	1755316224	43	4643
2026-01-03 09:30:59.22	355.59	20.65	-37.2	-39.1	15.0	0.00e+00	0	57	0	1758461952	44	4924
2026-01-03 09:31:00.23	355.51	20.53	-37.8	-40.2	13.6	4.50e-06	0	57	0	1761607680	46	4946
2026-01-03 09:31:01.24	355.42	20.40	-38.4	-41.2	12.0	1.59e-04	0	57	0	1764753408	47	5277
2026-01-03 09:31:02.25	355.34	20.27	-39.0	-42.5	10.4	3.25e-03	0	57	0	1767899136	48	5783
2026-01-03 09:31:03.26	355.25	20.15	-39.4	-43.8	8.6	2.98e-02	0	57	0	1771044864	49	6328
2026-01-03 09:31:04.28	355.17	20.02	-39.8	-45.2	7.0	1.02e-01	0	57	0	1774190592	50	7031
2026-01-03 09:31:05.28	355.09	19.90	-40.0	-46.7	5.7	3.12e-01	0	57	0	1777336320	50	8289
2026-01-03 09:31:06.30	355.01	19.77	-40.2	-48.7	4.0	7.34e-01	2	57	104	1780482048	51	9897
2026-01-03 09:31:07.30	354.93	19.65	-40.4	-49.8	3.9	1.43e+00	0	57	104	1780482048	51	11280
2026-01-03 09:31:08.31	354.84	19.53	-40.5	-50.5	4.0	1.48e+00	0	57	104	1780482048	51	12144
2026-01-03 09:31:09.32	354.77	19.41	-40.5	-51.5	3.8	1.49e+00	0	57	104	1780482048	51	13713
2026-01-03 09:31:10.33	354.69	19.29	-40.5	-52.5	3.8	1.49e+00	0	57	104	1780482048	51	15285
2026-01-03 09:31:11.34	354.61	19.17	-40.5	-52.8	3.8	1.49e+00	0	57	104	1780482048	51	15807
2026-01-03 09:31:12.35	354.53	19.05	-40.8	-51.1	3.9	1.49e+00	0	57	104	1780482048	52	12309
2026-01-03 09:31:13.36	354.45	18.93	-40.8	-51.5	3.8	1.47e+00	0	57	104	1780482048	52	12943
2026-01-03 09:31:14.37	354.38	18.81	-41.0	-52.4	3.8	1.49e+00	0	57	104	1780482048	53	13427
2026-01-03 09:31:15.38	354.30	18.69	-40.7	-52.1	3.8	1.49e+00	0	57	104	1780482048	53	13075
2026-01-03 09:31:16.39	354.23	18.57	-40.6	-52.4	3.8	1.49e+00	0	57	104	1780482048	53	13543
2026-01-03 09:31:17.40	354.15	18.45	-40.5	-52.7	3.8	1.49e+00	0	57	104	1780482048	53	13952
2026-01-03 09:31:18.41	354.08	18.34	-40.4	-52.8	3.8	1.49e+00	0	57	104	1780482048	52	14935
2026-01-03 09:31:19.42	354.00	18.22	-40.4	-52.6	3.8	1.49e+00	0	57	104	1780482048	52	14698
2026-01-03 09:31:20.43	353.93	18.10	-40.2	-52.7	3.8	1.49e+00	0	57	104	1780482048	52	14875
2026-01-03 09:31:21.43	353.86	17.99	-40.2	-52.7	3.8	1.49e+00	0	57	104	1780482048	52	14805
2026-01-03 09:31:22.44	353.79	17.87	-40.3	-52.7	3.8	1.49e+00	0	57	104	1780482048	52	14736
2026-01-03 09:31:23.45	353.72	17.76	-40.2	-52.7	3.8	1.49e+00	0	57	104	1780482048	52	14844
2026-01-03 09:31:24.46	353.65	17.64	-40.1	-52.5	3.8	1.49e+00	0	57	104	1780482048	52	14487
2026-01-03 09:31:25.47	353.58	17.53	-40.1	-52.6	3.8	1.49e+00	0	57	104	1780482048	52	14658
2026-01-03 09:31:26.48	353.51	17.42	-40.2	-52.6	3.8	1.49e+00	0	57	104	1780482048	52	14669
2026-01-03 09:31:27.49	353.44	17.30	-40.2	-52.7	3.8	1.49e+00	0	57	104	1780482048	51	15666
2026-01-03 09:31:28.50	353.37	17.19	-40.3	-52.9	3.8	1.49e+00	0	57	104	1780482048	51	15957
2026-01-03 09:31:29.51	353.30	17.08	-40.2	-52.8	3.8	1.49e+00	0	57	104	1780482048	51	15783
2026-01-03 09:31:30.52	353.23	16.97	-40.2	-52.7	3.8	1.49e+00	0	57	104	1780482048	51	15757
2026-01-03 09:31:31.54	353.17	16.86	-40.2	-52.8	3.8	1.49e+00	0	57	104	1780482048	51	15917
2026-01-03 09:31:32.55	353.10	16.75	-40.0	-52.8	3.8	1.49e+00	0	57	104	1780482048	51	15831
2026-01-03 09:31:33.56	353.04	16.64	-40.1	-52.8	3.8	1.49e+00	0	57	104	1780482048	51	15786
2026-01-03 09:31:34.57	352.97	16.53	-40.2	-52.7	3.8	1.49e+00	0	57	104	1780482048	51	15739
2026-01-03 09:31:35.58	352.91	16.42	-40.0	-52.8	3.8	1.49e+00	0	57	104	1780482048	51	15883
2026-01-03 09:31:36.59	352.84	16.31	-39.9	-52.9	3.8	1.49e+00	0	57	104	1780482048	51	15951
2026-01-03 09:31:37.60	352.78	16.20	-40.2	-52.7	3.8	1.49e+00	0	57	104	1780482048	51	15750
2026-01-03 09:31:38.61	352.71	16.09	-40.2	-52.7	3.8	1.49e+00	0	57	104	1780482048	51	15647
2026-01-03 09:31:39.62	352.65	15.99	-40.3	-53.2	3.8	1.49e+00	0	57	104	1780482048	51	16576
2026-01-03 09:31:40.63	352.59	15.88	-40.7	-53.1	3.8	1.49e+00	0	57	104	1780482048	52	15466
2026-01-03 09:31:41.64	352.53	15.77	-40.1	-53.1	3.8	1.49e+00	0	57	104	1780482048	52	15530
2026-01-03 09:31:42.65	352.47	15.67	-40.6	-53.2	3.8	1.49e+00	0	57	104	1780482048	51	16508
2026-01-03 09:31:43.66	352.41	15.56	-40.2	-53.2	3.8	1.49e+00	0	57	104	1780482048	51	16600
2026-01-03 09:31:44.67	352.35	15.46	-40.7	-53.1	3.8	1.49e+00	0	57	104	1780482048	51	16477
2026-01-03 09:31:45.68	352.29	15.35	-40.4	-53.0	3.8	1.49e+00	0	57	104	1780482048	52	15270
2026-01-03 09:31:46.69	352.23	15.25	-40.6	-53.0	3.8	1.49e+00	0	57	104	1780482048	52	15325
2026-01-03 09:31:47.70	352.17	15.14	-40.5	-53.0	3.8	1.49e+00	0	57	104	1780482048	52	15252
2026-01-03 09:31:48.72	352.11	15.04	-40.5	-53.0	3.8	1.49e+00	0	57	104	1780482048	52	15262
2026-01-03 09:31:49.73	352.05	14.93	-40.5	-53.1	3.8	1.49e+00	0	57	104	1780482048	52	15446
2026-01-03 09:31:50.74	351.99	14.83	-40.5	-52.9	3.8	1.49e+00	0	57	104	1780482048	52	15177
2026-01-03 09:31:51.75	351.93	14.73	-40.5	-53.0	3.8	1.49e+00	0	57	104	1780482048	52	15299
2026-01-03 09:31:52.76	351.88	14.63	-40.4	-52.9	3.8	1.49e+00	0	57	104	1780482048	52	15087
2026-01-03 09:31:53.77	351.82	14.53	-40.7	-53.1	3.8	1.49e+00	0	57	104	1780482048	52	15557
2026-01-03 09:31:54.78	351.76	14.43	-40.4	-52.8	3.8	1.49e+00	0	57	104	1780482048	52	15021
2026-01-03 09:31:55.79	351.71	14.32	-40.8	-53.1	3.8	1.49e+00	0	57	104	1780482048	52	15547
2026-01-03 09:31:56.80	351.65	14.22	-40.6	-52.9	3.8	1.49e+00	0	57	104	1780482048	52	15219
2026-01-03 09:31:57.81	351.60	14.12	-40.5	-52.9	3.8	1.49e+00	0	57	104	1780482048	52	15125
2026-01-03 09:31:58.82	351.54	14.02	-40.6	-53.0	3.8	1.49e+00	0	57	104	1780482048	52	15286
2026-01-03 09:31:59.83	351.49	13.93	-40.4	-52.9	3.8	1.49e+00	0	57	104	1780482048	52	15144
2026-01-03 09:32:00.84	351.44	13.83	-40.5	-53.0	3.8	1.49e+00	0	57	104	1780482048	52	15226
