passes_logs/2026/01/03/R2.0S_Moscow/R2.0S_Moscow__20260103_101031_NOAA_20_JPSS-1_rec.log

#Pass ID: 20260103_101031_NOAA 20 (JPSS-1)
#Satellite: NOAA 20 (JPSS-1)
#Configuration: NOAA 20
#almurnet v.1.7.20251203
#Start time: 2026-01-03 10:10:31

#Version: 2.2.20231116
#Station: R2.0S_Moscow
#Location: 37.707566 lon 55.798166 lat
#TLE: 1 43013U 17073A   26002.21975278  .00000202  00000+0  11669-3 0  9999
#TLE: 2 43013  98.7622 303.2950 0001915  57.9213 302.2149 14.19532512420923

#Time	Az	El	Level	Level2	SNR	BER	BlckErr	Temp	State	Recorded	gain1	gain2
2026-01-03 10:10:31.28	168.10	1.98	-44.0	-58.6	3.8	1.49e+00	0	48	0	0	60	18438
2026-01-03 10:10:32.28	168.12	2.05	-44.0	-58.7	3.8	1.49e+00	0	48	104	0	60	18547
2026-01-03 10:10:33.29	168.13	2.11	-44.0	-58.6	3.8	1.49e+00	0	48	104	0	60	18405
2026-01-03 10:10:34.30	168.15	2.18	-44.0	-58.6	3.8	1.49e+00	0	48	104	0	60	18418
2026-01-03 10:10:35.31	168.16	2.24	-44.0	-58.6	3.8	1.49e+00	0	48	104	0	60	18452
2026-01-03 10:10:36.32	168.18	2.31	-44.0	-58.7	3.8	1.49e+00	0	48	104	0	60	18545
2026-01-03 10:10:37.33	168.19	2.37	-44.0	-58.6	3.8	1.49e+00	0	48	104	0	60	18403
2026-01-03 10:10:38.35	168.20	2.44	-44.0	-58.6	3.8	1.49e+00	0	48	104	0	60	18455
2026-01-03 10:10:39.36	168.22	2.51	-44.0	-58.6	3.8	1.49e+00	0	48	104	0	60	18464
2026-01-03 10:10:40.37	168.23	2.57	-44.0	-58.6	3.8	1.49e+00	0	49	104	0	60	18506
2026-01-03 10:10:41.38	168.25	2.64	-44.0	-58.6	3.8	1.49e+00	0	49	104	0	60	18420
2026-01-03 10:10:42.39	168.26	2.70	-44.0	-58.6	3.8	1.49e+00	0	49	104	0	60	18438
2026-01-03 10:10:43.40	168.28	2.77	-44.0	-58.6	3.8	1.49e+00	0	49	104	0	60	18430
2026-01-03 10:10:44.41	168.29	2.84	-44.0	-58.6	3.8	1.49e+00	0	49	104	0	60	18508
2026-01-03 10:10:45.42	168.31	2.90	-44.0	-58.6	3.8	1.49e+00	0	49	104	0	60	18455
2026-01-03 10:10:46.43	168.32	2.97	-44.0	-58.6	3.8	1.49e+00	0	49	104	0	60	18488
2026-01-03 10:10:47.44	168.34	3.04	-44.0	-58.6	3.8	1.49e+00	0	49	104	0	60	18386
2026-01-03 10:10:48.46	168.35	3.11	-44.0	-58.6	3.8	1.49e+00	0	49	104	0	60	18509
2026-01-03 10:10:49.47	168.37	3.17	-44.0	-58.6	3.8	1.49e+00	0	49	104	0	60	18431
2026-01-03 10:10:50.48	168.38	3.24	-44.0	-58.6	3.8	1.49e+00	0	49	104	0	60	18399
2026-01-03 10:10:51.49	168.40	3.31	-44.0	-58.6	3.8	1.49e+00	0	49	104	0	60	18477
2026-01-03 10:10:52.50	168.41	3.38	-44.0	-58.6	3.8	1.49e+00	0	49	104	0	60	18503
2026-01-03 10:10:53.51	168.43	3.44	-44.0	-58.6	3.8	1.49e+00	0	49	104	0	60	18436
2026-01-03 10:10:54.53	168.44	3.51	-44.0	-58.6	3.8	1.49e+00	0	49	104	0	60	18483
2026-01-03 10:10:55.53	168.46	3.58	-44.0	-58.6	3.8	1.49e+00	0	50	104	0	60	18465
2026-01-03 10:10:56.54	168.47	3.65	-44.0	-58.7	3.8	1.49e+00	0	49	104	0	60	18532
2026-01-03 10:10:57.56	168.49	3.72	-44.0	-58.6	3.8	1.49e+00	0	50	104	0	60	18447
2026-01-03 10:10:58.57	168.51	3.79	-44.0	-58.6	3.8	1.49e+00	0	50	104	0	60	18416
2026-01-03 10:10:59.58	168.52	3.86	-44.0	-58.6	3.8	1.49e+00	0	50	104	0	60	18421
2026-01-03 10:11:00.59	168.54	3.93	-44.0	-58.6	3.8	1.49e+00	0	50	104	0	60	18437
2026-01-03 10:11:01.60	168.55	4.00	-44.0	-58.6	3.8	1.49e+00	0	50	104	0	60	18513
2026-01-03 10:11:02.61	168.57	4.06	-44.0	-58.6	3.8	1.49e+00	0	50	104	0	60	18415
2026-01-03 10:11:03.62	168.58	4.13	-44.0	-58.6	3.8	1.49e+00	0	50	104	0	60	18375
2026-01-03 10:11:04.64	168.60	4.21	-44.0	-58.6	3.8	1.49e+00	0	50	104	0	60	18401
2026-01-03 10:11:05.65	168.62	4.28	-44.0	-58.6	3.8	1.49e+00	0	50	104	0	60	18445
2026-01-03 10:11:06.66	168.63	4.35	-44.0	-58.6	3.8	1.49e+00	0	50	104	0	60	18398
2026-01-03 10:11:07.67	168.65	4.42	-44.0	-58.6	3.8	1.49e+00	0	50	104	0	60	18408
2026-01-03 10:11:08.68	168.66	4.49	-44.0	-58.6	3.8	1.49e+00	0	50	104	0	60	18353
2026-01-03 10:11:09.69	168.68	4.56	-44.0	-58.6	3.8	1.49e+00	0	50	104	0	60	18410
2026-01-03 10:11:10.70	168.70	4.63	-44.0	-58.6	3.8	1.49e+00	0	50	104	0	60	18426
2026-01-03 10:11:11.71	168.71	4.70	-44.0	-58.6	3.8	1.49e+00	0	51	104	0	60	18417
2026-01-03 10:11:12.72	168.73	4.77	-44.0	-58.6	3.8	1.49e+00	0	50	104	0	60	18398
2026-01-03 10:11:13.73	168.75	4.84	-44.0	-58.7	3.8	1.49e+00	0	51	104	0	60	18522
2026-01-03 10:11:14.75	168.76	4.92	-44.0	-58.6	3.8	1.49e+00	0	51	104	0	60	18474
2026-01-03 10:11:15.76	168.78	4.99	-44.0	-58.6	3.8	1.49e+00	0	51	104	0	60	18395
2026-01-03 10:11:16.77	168.80	5.06	-44.0	-58.7	3.8	1.49e+00	0	51	104	0	60	18536
2026-01-03 10:11:17.78	168.81	5.13	-44.0	-58.6	3.8	1.49e+00	0	51	104	0	60	18484
2026-01-03 10:11:18.79	168.83	5.20	-44.0	-58.6	3.8	1.49e+00	0	51	104	0	60	18446
2026-01-03 10:11:19.80	168.85	5.28	-44.0	-58.6	3.8	1.49e+00	0	51	104	0	60	18466
2026-01-03 10:11:20.81	168.86	5.35	-44.0	-58.6	3.8	1.49e+00	0	51	104	0	60	18433
2026-01-03 10:11:21.82	168.88	5.42	-44.0	-58.6	3.8	1.49e+00	0	51	104	0	60	18347
2026-01-03 10:11:22.83	168.90	5.50	-44.0	-58.5	3.8	1.49e+00	0	51	104	0	60	18265
2026-01-03 10:11:23.84	168.92	5.57	-44.0	-58.5	3.8	1.49e+00	0	51	104	0	60	18289
2026-01-03 10:11:24.86	168.93	5.65	-44.0	-58.5	3.8	1.49e+00	0	51	104	0	60	18276
2026-01-03 10:11:25.87	168.95	5.72	-44.0	-58.5	3.8	1.49e+00	0	51	104	0	60	18287
2026-01-03 10:11:26.88	168.97	5.79	-44.0	-58.5	3.8	1.49e+00	0	51	104	0	60	18286
2026-01-03 10:11:27.89	168.99	5.87	-44.0	-58.5	3.8	1.49e+00	0	51	104	0	60	18304
2026-01-03 10:11:28.90	169.00	5.94	-44.0	-58.5	3.8	1.49e+00	0	51	104	0	60	18301
2026-01-03 10:11:29.91	169.02	6.02	-44.0	-58.6	3.8	1.49e+00	0	51	104	0	60	18336
2026-01-03 10:11:30.92	169.04	6.09	-44.0	-58.6	3.8	1.49e+00	0	51	104	0	60	18426
2026-01-03 10:11:31.93	169.06	6.17	-44.0	-58.6	3.8	1.49e+00	0	52	104	0	60	18368
2026-01-03 10:11:32.94	169.07	6.24	-44.0	-58.6	3.8	1.49e+00	0	52	104	0	60	18336
2026-01-03 10:11:33.95	169.09	6.32	-44.0	-58.4	3.8	1.49e+00	0	52	104	0	60	18003
2026-01-03 10:11:34.97	169.11	6.40	-44.1	-57.9	3.8	1.49e+00	0	51	104	0	59	18040
2026-01-03 10:11:35.98	169.13	6.47	-44.0	-57.3	3.8	1.49e+00	0	52	104	0	59	16824
2026-01-03 10:11:36.99	169.15	6.55	-44.0	-56.5	3.9	1.49e+00	0	52	104	0	59	15244
2026-01-03 10:11:38.00	169.17	6.63	-43.8	-55.8	4.0	1.49e+00	0	52	104	0	59	14206
2026-01-03 10:11:39.01	169.18	6.70	-43.7	-55.2	4.1	1.45e+00	0	52	0	0	59	13165
2026-01-03 10:11:40.02	169.20	6.78	-43.7	-54.4	4.3	1.39e+00	43	52	0	0	59	12080
2026-01-03 10:11:41.03	169.22	6.86	-43.6	-53.6	4.6	1.03e+00	0	52	0	1048576	59	11018
2026-01-03 10:11:42.04	169.24	6.93	-43.5	-53.0	4.9	8.16e-01	0	52	0	3145728	59	10263
2026-01-03 10:11:43.05	169.26	7.01	-43.4	-52.3	5.3	6.53e-01	0	52	0	5242880	58	10049
2026-01-03 10:11:44.06	169.28	7.09	-43.3	-51.6	5.7	4.68e-01	0	52	0	7340032	58	9280
2026-01-03 10:11:45.08	169.30	7.17	-43.3	-51.3	6.0	3.55e-01	0	52	0	9437184	58	8875
2026-01-03 10:11:46.09	169.32	7.25	-43.2	-50.8	6.4	2.88e-01	0	52	0	10485760	58	8436
2026-01-03 10:11:47.10	169.34	7.33	-43.1	-50.3	6.8	1.88e-01	0	52	0	12582912	58	7986
2026-01-03 10:11:48.11	169.35	7.40	-43.0	-50.1	7.1	1.55e-01	0	52	0	14680064	58	7726
2026-01-03 10:11:49.12	169.37	7.48	-42.9	-49.6	7.5	1.29e-01	0	52	0	16777216	57	7794
2026-01-03 10:11:50.13	169.39	7.56	-42.8	-49.3	7.7	8.93e-02	0	52	0	18874368	57	7523
2026-01-03 10:11:51.14	169.41	7.64	-42.7	-49.0	8.1	7.50e-02	0	52	0	19922944	57	7265
2026-01-03 10:11:52.15	169.43	7.72	-42.6	-48.7	8.4	6.39e-02	0	52	0	22020096	57	7020
2026-01-03 10:11:53.16	169.45	7.80	-42.6	-48.6	8.5	4.62e-02	0	52	0	24117248	57	6881
2026-01-03 10:11:54.17	169.47	7.88	-42.5	-48.2	8.9	3.31e-02	0	52	0	26214400	56	6971
2026-01-03 10:11:55.18	169.49	7.96	-42.4	-48.1	8.9	2.75e-02	0	52	0	28311552	56	6954
2026-01-03 10:11:56.19	169.51	8.05	-42.4	-48.0	9.1	2.11e-02	0	53	0	29360128	56	6847
2026-01-03 10:11:57.20	169.53	8.13	-42.9	-51.7	5.6	2.63e-01	0	53	0	31457280	57	9847
2026-01-03 10:11:58.21	169.55	8.21	-43.5	-54.8	4.2	1.33e+00	0	53	0	31457280	57	14139
2026-01-03 10:11:59.22	169.57	8.29	-43.7	-53.1	5.0	4.96e-01	0	53	0	32505856	57	11661
2026-01-03 10:12:00.22	169.59	8.37	-43.1	-49.9	7.5	1.31e-01	0	53	0	34603008	57	8002
2026-01-03 10:12:01.22	169.61	8.45	-42.8	-49.9	7.1	1.50e-01	0	53	0	36700160	57	8057
2026-01-03 10:12:02.22	169.63	8.53	-42.8	-49.8	7.4	1.35e-01	0	53	0	37748736	57	7915
2026-01-03 10:12:03.24	169.65	8.62	-42.8	-49.7	7.5	1.10e-01	0	53	0	39845888	57	7841
2026-01-03 10:12:04.24	169.67	8.70	-42.8	-49.6	7.6	1.02e-01	0	53	0	41943040	57	7735
2026-01-03 10:12:05.25	169.69	8.78	-42.8	-49.5	7.7	9.89e-02	0	53	0	44040192	57	7683
2026-01-03 10:12:06.26	169.72	8.87	-42.9	-49.7	7.5	1.01e-01	0	53	0	46137344	57	7850
2026-01-03 10:12:07.27	169.74	8.95	-42.8	-49.4	7.8	8.36e-02	0	53	0	47185920	57	7562
2026-01-03 10:12:08.28	169.76	9.04	-42.8	-49.2	8.0	7.69e-02	0	53	0	49283072	57	7450
2026-01-03 10:12:09.29	169.78	9.12	-42.8	-49.3	7.9	7.32e-02	0	53	0	51380224	57	7523
2026-01-03 10:12:10.30	169.80	9.21	-42.8	-49.2	8.1	6.66e-02	0	53	0	53477376	57	7434
2026-01-03 10:12:11.31	169.82	9.29	-42.8	-49.1	8.1	6.29e-02	0	53	0	55574528	57	7361
2026-01-03 10:12:12.32	169.84	9.38	-42.8	-49.2	8.1	5.96e-02	0	53	0	56623104	57	7385
2026-01-03 10:12:13.33	169.87	9.46	-42.8	-49.1	8.2	5.77e-02	0	53	0	58720256	57	7354
2026-01-03 10:12:14.34	169.89	9.55	-42.8	-49.1	8.3	5.29e-02	0	53	0	60817408	57	7307
2026-01-03 10:12:15.35	169.91	9.63	-42.8	-49.1	8.3	4.90e-02	0	53	0	62914560	57	7291
2026-01-03 10:12:16.36	169.93	9.72	-42.8	-48.9	8.5	4.39e-02	0	53	0	65011712	57	7136
2026-01-03 10:12:17.37	169.95	9.81	-42.8	-48.9	8.4	4.39e-02	0	53	0	66060288	57	7201
2026-01-03 10:12:18.38	169.98	9.89	-42.8	-48.8	8.6	4.24e-02	0	53	0	68157440	57	7096
2026-01-03 10:12:19.39	170.00	9.98	-42.8	-48.9	8.5	4.16e-02	0	53	0	70254592	57	7142
2026-01-03 10:12:20.40	170.02	10.07	-42.8	-48.8	8.6	3.88e-02	0	53	0	72351744	57	7091
2026-01-03 10:12:21.41	170.04	10.16	-42.8	-48.7	8.7	3.46e-02	0	53	0	74448896	57	6994
2026-01-03 10:12:22.42	170.07	10.25	-42.8	-48.7	8.8	3.16e-02	0	53	0	76546048	57	6965
2026-01-03 10:12:23.43	170.09	10.33	-42.8	-48.7	8.8	3.13e-02	0	53	0	77594624	57	6969
2026-01-03 10:12:24.44	170.11	10.42	-42.8	-48.6	8.9	3.04e-02	0	54	0	79691776	57	6918
2026-01-03 10:12:25.45	170.13	10.51	-42.8	-48.6	8.9	2.84e-02	0	53	0	81788928	57	6923
2026-01-03 10:12:26.46	170.16	10.60	-42.8	-48.6	8.9	2.89e-02	0	54	0	83886080	57	6919
2026-01-03 10:12:27.47	170.18	10.69	-42.8	-48.5	9.0	2.46e-02	0	53	0	85983232	57	6874
2026-01-03 10:12:28.48	170.20	10.78	-42.8	-48.6	8.9	2.69e-02	0	53	0	87031808	57	6950
2026-01-03 10:12:29.49	170.23	10.87	-42.8	-48.5	9.0	2.62e-02	0	54	0	89128960	57	6857
2026-01-03 10:12:30.50	170.25	10.96	-42.8	-48.4	9.1	2.14e-02	0	54	0	91226112	57	6753
2026-01-03 10:12:31.51	170.28	11.06	-42.8	-48.5	9.1	2.29e-02	0	54	0	93323264	57	6827
2026-01-03 10:12:32.51	170.30	11.15	-42.7	-48.3	9.3	2.13e-02	0	54	0	95420416	57	6682
2026-01-03 10:12:33.52	170.32	11.24	-42.8	-48.4	9.2	1.98e-02	0	54	0	96468992	57	6728
2026-01-03 10:12:34.53	170.35	11.33	-42.8	-48.4	9.2	1.99e-02	0	54	0	98566144	57	6730
2026-01-03 10:12:35.54	170.37	11.42	-42.7	-48.3	9.3	1.87e-02	0	54	0	100663296	57	6649
2026-01-03 10:12:36.55	170.40	11.52	-42.7	-48.3	9.3	1.71e-02	0	54	0	102760448	57	6658
2026-01-03 10:12:37.56	170.42	11.61	-42.7	-48.2	9.4	1.64e-02	0	54	0	104857600	57	6588
2026-01-03 10:12:38.57	170.45	11.70	-42.7	-48.1	9.5	1.47e-02	0	54	0	105906176	57	6561
2026-01-03 10:12:39.58	170.47	11.80	-42.7	-48.1	9.5	1.50e-02	0	54	0	108003328	57	6558
2026-01-03 10:12:40.59	170.50	11.89	-42.7	-48.0	9.6	1.42e-02	0	54	0	110100480	57	6491
2026-01-03 10:12:41.60	170.52	11.99	-42.7	-48.0	9.7	1.27e-02	0	54	0	112197632	57	6460
2026-01-03 10:12:42.61	170.55	12.08	-42.7	-48.0	9.7	1.17e-02	0	54	0	114294784	57	6452
2026-01-03 10:12:43.62	170.57	12.18	-42.7	-48.0	9.6	1.15e-02	0	54	0	115343360	57	6488
2026-01-03 10:12:44.63	170.60	12.27	-42.7	-48.0	9.7	1.18e-02	0	54	0	117440512	57	6450
2026-01-03 10:12:45.64	170.62	12.37	-42.7	-47.9	9.8	9.93e-03	0	54	0	119537664	57	6374
2026-01-03 10:12:46.65	170.65	12.47	-42.7	-47.9	9.8	9.06e-03	0	54	0	121634816	57	6372
2026-01-03 10:12:47.66	170.68	12.56	-42.7	-47.9	9.8	1.00e-02	0	54	0	123731968	57	6410
2026-01-03 10:12:48.67	170.70	12.66	-42.7	-47.9	9.9	1.05e-02	0	54	0	124780544	57	6361
2026-01-03 10:12:49.68	170.73	12.76	-42.7	-48.0	9.8	1.02e-02	0	54	0	126877696	57	6434
2026-01-03 10:12:50.69	170.76	12.86	-42.7	-47.9	9.8	1.04e-02	0	54	0	128974848	57	6420
2026-01-03 10:12:51.70	170.78	12.96	-42.7	-47.9	9.9	9.06e-03	0	54	0	131072000	57	6359
2026-01-03 10:12:52.71	170.81	13.05	-42.7	-47.9	9.9	9.46e-03	0	54	0	133169152	57	6363
2026-01-03 10:12:53.72	170.84	13.15	-42.7	-47.8	10.0	8.32e-03	0	54	0	134217728	57	6314
2026-01-03 10:12:54.73	170.86	13.25	-42.7	-47.8	10.0	7.63e-03	0	54	0	136314880	57	6332
2026-01-03 10:12:55.73	170.89	13.35	-42.7	-47.8	10.0	7.77e-03	0	54	0	138412032	57	6322
2026-01-03 10:12:56.74	170.92	13.45	-42.7	-47.9	9.9	8.61e-03	0	54	0	140509184	57	6376
2026-01-03 10:12:57.75	170.95	13.56	-42.7	-47.8	10.0	8.47e-03	0	54	0	142606336	57	6334
2026-01-03 10:12:58.76	170.97	13.66	-42.7	-47.8	10.0	7.71e-03	0	54	0	144703488	57	6336
2026-01-03 10:12:59.77	171.00	13.76	-42.7	-47.8	10.1	7.85e-03	0	54	0	145752064	57	6290
2026-01-03 10:13:00.78	171.03	13.86	-42.7	-47.8	10.0	7.51e-03	0	54	0	147849216	57	6298
2026-01-03 10:13:01.79	171.06	13.96	-42.7	-47.8	10.1	6.44e-03	0	54	0	149946368	57	6277
2026-01-03 10:13:02.80	171.09	14.07	-42.7	-47.7	10.2	6.52e-03	0	54	0	152043520	57	6245
2026-01-03 10:13:03.81	171.12	14.17	-42.7	-47.6	10.2	6.09e-03	0	54	0	154140672	57	6200
2026-01-03 10:13:04.82	171.15	14.27	-42.7	-47.7	10.2	6.16e-03	0	54	0	155189248	57	6219
2026-01-03 10:13:05.83	171.17	14.38	-42.7	-47.7	10.2	6.13e-03	0	54	0	157286400	57	6232
2026-01-03 10:13:06.84	171.20	14.48	-42.7	-47.6	10.3	5.80e-03	0	54	0	159383552	57	6185
2026-01-03 10:13:07.85	171.23	14.59	-42.7	-47.6	10.2	5.41e-03	0	54	0	161480704	57	6195
2026-01-03 10:13:08.86	171.26	14.70	-42.6	-47.6	10.3	5.15e-03	0	54	0	163577856	57	6138
2026-01-03 10:13:09.87	171.29	14.80	-42.6	-47.5	10.4	4.76e-03	0	54	0	164626432	57	6128
2026-01-03 10:13:10.88	171.32	14.91	-42.7	-47.6	10.3	4.67e-03	0	54	0	166723584	57	6152
2026-01-03 10:13:11.89	171.35	15.02	-42.6	-47.5	10.4	4.64e-03	0	54	0	168820736	57	6125
2026-01-03 10:13:12.90	171.38	15.12	-42.6	-47.5	10.5	4.23e-03	0	55	0	170917888	57	6072
2026-01-03 10:13:13.91	171.41	15.23	-42.6	-47.5	10.4	4.10e-03	0	55	0	173015040	57	6093
2026-01-03 10:13:14.92	171.45	15.34	-42.6	-47.4	10.6	4.03e-03	0	54	0	174063616	57	6020
2026-01-03 10:13:15.93	171.48	15.45	-42.6	-47.4	10.5	4.09e-03	0	55	0	176160768	57	6040
2026-01-03 10:13:16.94	171.51	15.56	-42.6	-47.4	10.6	3.66e-03	0	55	0	178257920	57	6011
2026-01-03 10:13:17.95	171.54	15.67	-42.6	-47.4	10.6	3.35e-03	0	55	0	180355072	57	6019
2026-01-03 10:13:18.96	171.57	15.78	-42.6	-47.5	10.5	3.68e-03	0	55	0	182452224	57	6070
2026-01-03 10:13:19.97	171.60	15.89	-42.6	-47.4	10.5	3.81e-03	0	55	0	183500800	57	6039
2026-01-03 10:13:20.98	171.64	16.00	-42.6	-47.4	10.5	3.81e-03	0	55	0	185597952	57	6041
2026-01-03 10:13:21.99	171.67	16.11	-42.6	-47.5	10.5	3.81e-03	0	55	0	187695104	57	6068
2026-01-03 10:13:23.00	171.70	16.23	-42.6	-47.3	10.6	3.81e-03	0	55	0	189792256	57	5962
2026-01-03 10:13:24.01	171.73	16.34	-42.6	-47.4	10.6	3.30e-03	0	55	0	191889408	57	6020
2026-01-03 10:13:25.02	171.77	16.45	-42.6	-47.4	10.6	3.71e-03	0	55	0	192937984	57	6034
2026-01-03 10:13:26.03	171.80	16.57	-42.6	-47.4	10.6	3.24e-03	0	55	0	195035136	57	6014
2026-01-03 10:13:27.04	171.83	16.68	-42.6	-47.4	10.6	3.45e-03	0	55	0	197132288	57	6049
2026-01-03 10:13:28.04	171.87	16.80	-42.6	-47.4	10.6	3.62e-03	0	55	0	199229440	57	6038
2026-01-03 10:13:29.05	171.90	16.91	-42.7	-47.5	10.5	3.48e-03	0	55	0	201326592	57	6081
2026-01-03 10:13:30.06	171.93	17.03	-42.7	-47.5	10.5	3.83e-03	0	55	0	202375168	57	6113
2026-01-03 10:13:31.07	171.97	17.15	-42.7	-47.5	10.5	4.17e-03	0	55	0	204472320	57	6068
2026-01-03 10:13:32.08	172.00	17.26	-42.7	-47.6	10.4	4.22e-03	0	55	0	206569472	57	6158
2026-01-03 10:13:33.09	172.04	17.38	-42.7	-47.6	10.4	4.46e-03	0	55	0	208666624	57	6164
2026-01-03 10:13:34.10	172.07	17.50	-42.7	-47.6	10.4	4.35e-03	0	55	0	210763776	57	6156
2026-01-03 10:13:35.11	172.11	17.62	-42.8	-47.7	10.4	4.62e-03	0	55	0	212860928	57	6217
2026-01-03 10:13:36.12	172.14	17.74	-42.8	-47.7	10.3	4.96e-03	0	55	0	213909504	57	6237
2026-01-03 10:13:37.13	172.18	17.86	-42.8	-47.7	10.3	5.22e-03	0	55	0	216006656	57	6273
2026-01-03 10:13:38.14	172.22	17.98	-42.8	-47.7	10.3	5.65e-03	0	55	0	218103808	57	6271
2026-01-03 10:13:39.15	172.25	18.10	-42.8	-47.7	10.3	5.50e-03	0	55	0	220200960	57	6225
2026-01-03 10:13:40.16	172.29	18.22	-42.8	-47.7	10.3	5.01e-03	0	55	0	222298112	57	6242
2026-01-03 10:13:41.17	172.33	18.35	-42.8	-47.8	10.3	5.31e-03	0	55	0	223346688	57	6297
2026-01-03 10:13:42.18	172.36	18.47	-42.8	-47.8	10.2	5.47e-03	0	55	0	225443840	57	6319
2026-01-03 10:13:43.19	172.40	18.59	-42.9	-47.9	10.2	5.53e-03	0	55	0	227540992	57	6351
2026-01-03 10:13:44.20	172.44	18.72	-42.9	-47.9	10.2	5.79e-03	0	55	0	229638144	57	6360
2026-01-03 10:13:45.21	172.48	18.84	-42.8	-47.8	10.2	5.80e-03	0	55	0	231735296	57	6316
2026-01-03 10:13:46.22	172.52	18.97	-42.9	-47.9	10.2	5.78e-03	0	55	0	232783872	57	6360
2026-01-03 10:13:47.23	172.56	19.09	-42.8	-47.8	10.2	6.33e-03	0	55	0	234881024	57	6337
2026-01-03 10:13:48.24	172.59	19.22	-42.9	-47.9	10.1	6.50e-03	0	55	0	236978176	57	6404
2026-01-03 10:13:49.25	172.63	19.35	-42.9	-48.0	10.1	6.73e-03	0	55	0	239075328	57	6424
2026-01-03 10:13:50.26	172.67	19.48	-42.9	-48.1	10.0	8.10e-03	0	55	0	241172480	57	6516
2026-01-03 10:13:51.27	172.71	19.61	-43.0	-48.1	9.9	7.78e-03	0	55	0	242221056	57	6547
2026-01-03 10:13:52.28	172.75	19.74	-43.0	-48.2	9.9	8.13e-03	0	55	0	244318208	57	6612
2026-01-03 10:13:53.29	172.79	19.87	-43.0	-48.2	9.9	9.08e-03	0	55	0	246415360	57	6593
2026-01-03 10:13:54.30	172.83	20.00	-43.0	-48.2	9.8	9.39e-03	0	55	0	248512512	57	6639
2026-01-03 10:13:55.31	172.88	20.13	-43.0	-48.3	9.7	1.06e-02	0	55	0	250609664	57	6690
2026-01-03 10:13:56.32	172.92	20.26	-43.0	-48.2	9.8	1.05e-02	0	55	0	251658240	57	6637
2026-01-03 10:13:57.32	172.96	20.39	-43.0	-48.3	9.8	1.08e-02	0	55	0	253755392	57	6665
2026-01-03 10:13:58.33	173.00	20.53	-43.1	-48.4	9.6	1.32e-02	0	55	0	255852544	57	6799
2026-01-03 10:13:59.34	173.04	20.66	-43.1	-48.5	9.6	1.28e-02	0	55	0	257949696	57	6831
2026-01-03 10:14:00.35	173.09	20.80	-43.1	-48.6	9.5	1.33e-02	0	56	0	260046848	57	6880
2026-01-03 10:14:01.36	173.13	20.93	-43.1	-48.5	9.5	1.35e-02	0	55	0	261095424	57	6852
2026-01-03 10:14:02.37	173.17	21.07	-43.2	-48.6	9.5	1.40e-02	0	55	0	263192576	57	6894
2026-01-03 10:14:03.38	173.22	21.21	-43.2	-48.6	9.4	1.60e-02	0	55	0	265289728	57	6944
2026-01-03 10:14:04.39	173.26	21.34	-43.2	-48.6	9.5	1.58e-02	0	55	0	267386880	57	6927
2026-01-03 10:14:05.40	173.31	21.48	-43.2	-48.7	9.3	1.62e-02	0	55	0	269484032	57	7023
2026-01-03 10:14:06.41	173.35	21.62	-43.2	-48.8	9.3	1.88e-02	0	55	0	270532608	57	7077
2026-01-03 10:14:07.42	173.40	21.76	-43.3	-48.9	9.2	2.00e-02	0	55	0	272629760	57	7148
2026-01-03 10:14:08.43	173.44	21.90	-43.2	-48.8	9.3	1.93e-02	0	56	0	274726912	57	7054
2026-01-03 10:14:09.44	173.49	22.05	-43.3	-48.9	9.1	2.07e-02	0	55	0	276824064	57	7175
2026-01-03 10:14:10.44	173.54	22.19	-43.3	-48.9	9.2	2.06e-02	0	55	0	278921216	57	7144
2026-01-03 10:14:11.45	173.58	22.33	-43.2	-48.8	9.2	1.93e-02	0	55	0	281018368	57	7102
2026-01-03 10:14:12.46	173.63	22.47	-43.2	-48.7	9.3	1.97e-02	0	55	0	282066944	57	7023
2026-01-03 10:14:13.47	173.68	22.62	-43.2	-48.7	9.3	1.83e-02	0	56	0	284164096	57	7001
2026-01-03 10:14:14.48	173.73	22.76	-43.2	-48.8	9.3	1.86e-02	0	55	0	286261248	57	7082
2026-01-03 10:14:15.49	173.77	22.91	-43.2	-48.8	9.3	1.78e-02	0	55	0	288358400	57	7046
2026-01-03 10:14:16.50	173.82	23.06	-43.2	-48.6	9.5	1.46e-02	0	56	0	290455552	57	6905
2026-01-03 10:14:17.51	173.87	23.21	-43.2	-48.6	9.4	1.51e-02	0	55	0	291504128	57	6957
2026-01-03 10:14:18.52	173.92	23.36	-43.2	-48.6	9.5	1.49e-02	0	55	0	293601280	57	6942
2026-01-03 10:14:19.53	173.97	23.51	-43.2	-48.6	9.5	1.41e-02	0	56	0	295698432	57	6917
2026-01-03 10:14:20.54	174.02	23.66	-43.1	-48.5	9.7	1.24e-02	0	56	0	297795584	57	6803
2026-01-03 10:14:21.55	174.08	23.81	-43.1	-48.4	9.7	1.21e-02	0	55	0	299892736	57	6760
2026-01-03 10:14:22.56	174.13	23.96	-43.1	-48.4	9.7	1.19e-02	0	56	0	300941312	57	6792
2026-01-03 10:14:23.57	174.18	24.11	-43.1	-48.4	9.8	1.07e-02	0	56	0	303038464	57	6724
2026-01-03 10:14:24.58	174.23	24.27	-43.1	-48.2	9.9	9.15e-03	0	55	0	305135616	57	6642
2026-01-03 10:14:25.59	174.29	24.42	-43.0	-48.1	10.0	8.19e-03	0	55	0	307232768	57	6552
2026-01-03 10:14:26.60	174.34	24.58	-43.0	-48.0	10.1	7.11e-03	0	56	0	309329920	57	6492
2026-01-03 10:14:27.61	174.39	24.74	-43.0	-48.0	10.1	7.16e-03	0	56	0	310378496	57	6476
2026-01-03 10:14:28.62	174.45	24.89	-42.9	-47.8	10.4	5.30e-03	0	55	0	312475648	57	6313
2026-01-03 10:14:29.63	174.50	25.05	-42.9	-47.8	10.4	4.37e-03	0	56	0	314572800	57	6299
2026-01-03 10:14:30.64	174.56	25.21	-42.9	-47.8	10.4	4.69e-03	0	56	0	316669952	57	6280
2026-01-03 10:14:31.65	174.62	25.37	-42.9	-47.7	10.5	3.87e-03	0	56	0	318767104	57	6216
2026-01-03 10:14:32.66	174.67	25.54	-42.9	-47.7	10.5	3.88e-03	0	55	0	319815680	57	6252
2026-01-03 10:14:33.67	174.73	25.70	-42.9	-47.6	10.6	3.75e-03	0	56	0	321912832	57	6193
2026-01-03 10:14:34.68	174.79	25.86	-42.9	-47.7	10.5	3.51e-03	0	56	0	324009984	57	6218
2026-01-03 10:14:35.68	174.85	26.02	-42.9	-47.8	10.4	4.56e-03	0	56	0	326107136	57	6300
2026-01-03 10:14:36.69	174.91	26.19	-42.9	-47.7	10.5	4.06e-03	0	56	0	328204288	57	6226
2026-01-03 10:14:37.70	174.96	26.36	-42.9	-47.7	10.6	4.08e-03	0	56	0	329252864	57	6243
2026-01-03 10:14:38.71	175.03	26.52	-42.9	-47.8	10.4	3.78e-03	0	55	0	331350016	57	6294
2026-01-03 10:14:39.72	175.09	26.69	-42.9	-47.8	10.4	4.35e-03	0	56	0	333447168	57	6313
2026-01-03 10:14:40.73	175.15	26.86	-42.9	-47.8	10.4	4.65e-03	0	56	0	335544320	57	6316
2026-01-03 10:14:41.74	175.21	27.03	-43.0	-48.1	10.2	5.13e-03	0	56	0	337641472	57	6495
2026-01-03 10:14:42.75	175.27	27.20	-43.0	-48.1	10.1	6.18e-03	0	56	0	338690048	57	6502
2026-01-03 10:14:43.76	175.34	27.38	-43.1	-48.2	10.1	6.89e-03	0	55	0	340787200	57	6580
2026-01-03 10:14:44.77	175.40	27.55	-43.1	-48.2	10.0	7.79e-03	0	56	0	342884352	57	6644
2026-01-03 10:14:45.78	175.46	27.73	-43.1	-48.3	9.9	9.06e-03	0	56	0	344981504	57	6722
2026-01-03 10:14:46.79	175.53	27.90	-43.2	-48.5	9.7	9.98e-03	0	56	0	347078656	57	6835
2026-01-03 10:14:47.80	175.60	28.08	-43.3	-48.6	9.6	1.21e-02	0	56	0	349175808	57	6927
2026-01-03 10:14:48.81	175.66	28.26	-43.3	-48.6	9.5	1.34e-02	0	56	0	350224384	57	6954
2026-01-03 10:14:49.82	175.73	28.44	-43.3	-48.8	9.4	1.67e-02	0	56	0	352321536	57	7119
2026-01-03 10:14:50.83	175.80	28.62	-43.3	-48.9	9.3	1.81e-02	0	56	0	354418688	57	7154
2026-01-03 10:14:51.84	175.87	28.80	-43.4	-49.1	9.1	2.35e-02	0	56	0	356515840	57	7323
2026-01-03 10:14:52.85	175.94	28.98	-43.4	-49.2	9.0	2.55e-02	0	56	0	358612992	57	7406
2026-01-03 10:14:53.86	176.01	29.16	-43.5	-49.3	8.9	2.69e-02	0	56	0	359661568	57	7465
2026-01-03 10:14:54.87	176.08	29.35	-43.5	-49.4	8.8	2.98e-02	0	56	0	361758720	57	7568
2026-01-03 10:14:55.88	176.15	29.54	-43.5	-49.5	8.8	3.10e-02	0	56	0	363855872	57	7631
2026-01-03 10:14:56.89	176.22	29.72	-43.5	-49.5	8.7	3.26e-02	0	56	0	365953024	57	7698
2026-01-03 10:14:57.90	176.30	29.91	-43.5	-49.5	8.7	3.28e-02	0	56	0	368050176	57	7651
2026-01-03 10:14:58.91	176.37	30.10	-43.6	-49.6	8.6	3.33e-02	0	56	0	369098752	57	7750
2026-01-03 10:14:59.92	176.45	30.29	-43.6	-49.6	8.7	3.88e-02	0	56	0	371195904	57	7721
2026-01-03 10:15:00.93	176.52	30.48	-43.6	-49.6	8.6	3.97e-02	0	56	0	373293056	57	7749
2026-01-03 10:15:01.94	176.60	30.68	-43.6	-49.7	8.5	4.11e-02	0	56	0	375390208	57	7890
2026-01-03 10:15:02.95	176.68	30.87	-43.6	-49.8	8.5	4.34e-02	0	56	0	377487360	57	7939
2026-01-03 10:15:03.96	176.76	31.07	-43.7	-49.8	8.5	4.47e-02	0	56	0	378535936	57	7929
2026-01-03 10:15:04.96	176.84	31.26	-43.7	-49.9	8.3	4.81e-02	0	56	0	380633088	57	8019
2026-01-03 10:15:05.98	176.92	31.46	-43.7	-49.8	8.5	4.50e-02	0	56	0	382730240	57	7932
2026-01-03 10:15:06.99	177.00	31.66	-43.7	-49.9	8.3	4.49e-02	0	56	0	384827392	57	8039
2026-01-03 10:15:08.00	177.08	31.86	-43.6	-49.7	8.6	4.02e-02	0	56	0	386924544	57	7839
2026-01-03 10:15:09.00	177.17	32.07	-43.6	-49.7	8.5	4.15e-02	0	56	0	387973120	57	7862
2026-01-03 10:15:10.01	177.25	32.27	-43.6	-49.5	8.8	3.97e-02	0	56	0	390070272	57	7670
2026-01-03 10:15:11.02	177.34	32.47	-43.6	-49.6	8.6	3.51e-02	0	56	0	392167424	57	7774
2026-01-03 10:15:12.03	177.42	32.68	-43.6	-49.6	8.7	3.51e-02	0	56	0	394264576	57	7731
2026-01-03 10:15:13.04	177.51	32.89	-43.6	-49.6	8.7	3.86e-02	0	56	0	396361728	57	7766
2026-01-03 10:15:14.05	177.60	33.10	-43.5	-49.3	8.9	3.47e-02	0	56	0	397410304	57	7499
2026-01-03 10:15:15.06	177.69	33.31	-43.5	-49.1	9.2	2.08e-02	0	56	0	399507456	57	7305
2026-01-03 10:15:16.07	177.78	33.52	-43.4	-49.0	9.3	1.69e-02	0	56	0	401604608	57	7223
2026-01-03 10:15:17.08	177.87	33.73	-43.3	-48.7	9.6	1.44e-02	0	56	0	403701760	57	6974
2026-01-03 10:15:18.09	177.97	33.95	-43.2	-48.4	9.9	9.14e-03	0	56	0	405798912	57	6769
2026-01-03 10:15:19.10	178.06	34.16	-43.3	-48.5	9.8	9.71e-03	0	56	0	406847488	57	6819
2026-01-03 10:15:20.11	178.16	34.38	-43.2	-48.2	10.1	7.78e-03	0	56	0	408944640	57	6638
2026-01-03 10:15:21.12	178.25	34.60	-43.2	-48.2	10.1	6.13e-03	0	56	0	411041792	57	6608
2026-01-03 10:15:22.13	178.35	34.82	-43.1	-48.2	10.2	6.14e-03	0	56	0	413138944	57	6573
2026-01-03 10:15:23.14	178.45	35.04	-43.1	-48.2	10.2	5.19e-03	0	56	0	415236096	57	6588
2026-01-03 10:15:24.15	178.55	35.27	-43.1	-48.1	10.3	5.18e-03	0	56	0	417333248	57	6511
2026-01-03 10:15:25.16	178.65	35.49	-43.1	-48.1	10.3	5.30e-03	0	56	0	418381824	57	6539
2026-01-03 10:15:26.17	178.76	35.72	-43.1	-48.0	10.3	5.36e-03	0	56	0	420478976	57	6484
2026-01-03 10:15:27.17	178.86	35.94	-43.1	-48.0	10.4	4.97e-03	0	56	0	422576128	57	6451
2026-01-03 10:15:28.18	178.97	36.17	-43.1	-47.9	10.4	4.92e-03	0	56	0	424673280	57	6415
2026-01-03 10:15:29.19	179.08	36.40	-43.0	-47.8	10.5	4.63e-03	0	56	0	426770432	57	6339
2026-01-03 10:15:30.20	179.19	36.63	-43.0	-47.7	10.7	3.56e-03	0	56	0	427819008	57	6268
2026-01-03 10:15:31.21	179.30	36.87	-43.0	-47.7	10.7	2.93e-03	0	56	0	429916160	57	6256
2026-01-03 10:15:32.22	179.41	37.10	-43.0	-47.7	10.7	3.01e-03	0	56	0	432013312	57	6215
2026-01-03 10:15:33.23	179.52	37.34	-43.0	-47.8	10.6	2.96e-03	0	56	0	434110464	57	6336
2026-01-03 10:15:34.24	179.64	37.58	-43.0	-47.8	10.6	3.16e-03	0	56	0	436207616	57	6307
2026-01-03 10:15:35.25	179.76	37.82	-43.1	-48.1	10.3	4.62e-03	0	56	0	437256192	57	6502
2026-01-03 10:15:36.26	179.88	38.06	-43.2	-48.2	10.2	5.74e-03	0	56	0	439353344	57	6579
2026-01-03 10:15:37.27	180.00	38.31	-43.2	-48.3	10.1	5.84e-03	0	56	0	441450496	57	6678
2026-01-03 10:15:38.28	180.12	38.55	-43.2	-48.2	10.1	6.69e-03	0	56	0	443547648	57	6609
2026-01-03 10:15:39.29	180.24	38.80	-43.1	-48.1	10.3	5.88e-03	0	56	0	445644800	57	6543
2026-01-03 10:15:40.30	180.37	39.05	-43.1	-48.1	10.3	4.93e-03	0	56	0	446693376	57	6541
2026-01-03 10:15:41.31	180.50	39.30	-43.1	-48.1	10.2	5.13e-03	0	56	0	448790528	57	6530
2026-01-03 10:15:42.32	180.63	39.55	-43.2	-48.2	10.1	5.48e-03	0	56	0	450887680	57	6636
2026-01-03 10:15:43.33	180.76	39.80	-43.3	-48.5	9.9	7.95e-03	0	56	0	452984832	57	6804
2026-01-03 10:15:44.34	180.89	40.06	-43.4	-48.8	9.6	1.19e-02	0	56	0	455081984	57	7062
2026-01-03 10:15:45.35	181.03	40.31	-43.5	-49.1	9.3	1.74e-02	0	56	0	456130560	57	7306
2026-01-03 10:15:46.36	181.17	40.57	-43.5	-49.1	9.3	1.88e-02	0	56	0	458227712	57	7309
2026-01-03 10:15:47.37	181.31	40.83	-43.5	-49.1	9.2	1.85e-02	0	56	0	460324864	57	7338
2026-01-03 10:15:48.38	181.45	41.09	-43.4	-48.9	9.4	1.65e-02	0	56	0	462422016	57	7161
2026-01-03 10:15:49.39	181.60	41.36	-43.4	-48.7	9.7	1.35e-02	0	56	0	464519168	57	6987
2026-01-03 10:15:50.40	181.74	41.62	-43.3	-48.6	9.8	8.98e-03	0	56	0	465567744	57	6883
2026-01-03 10:15:51.41	181.89	41.89	-43.3	-48.5	9.9	8.86e-03	0	56	0	467664896	57	6850
2026-01-03 10:15:52.42	182.04	42.16	-43.4	-48.7	9.7	9.40e-03	0	56	0	469762048	57	6984
2026-01-03 10:15:53.43	182.20	42.43	-43.4	-48.8	9.5	1.10e-02	0	56	0	471859200	57	7115
2026-01-03 10:15:54.44	182.36	42.70	-43.5	-48.9	9.4	1.58e-02	0	56	0	473956352	57	7197
2026-01-03 10:15:55.45	182.52	42.98	-43.6	-49.3	9.1	1.95e-02	0	56	0	475004928	57	7484
2026-01-03 10:15:56.46	182.68	43.25	-43.6	-49.2	9.1	2.41e-02	0	56	0	477102080	57	7452
2026-01-03 10:15:57.47	182.84	43.53	-43.6	-49.2	9.1	2.34e-02	0	56	0	479199232	57	7426
2026-01-03 10:15:58.48	183.01	43.81	-43.5	-49.2	9.1	2.00e-02	0	56	0	481296384	57	7429
2026-01-03 10:15:59.49	183.18	44.09	-43.5	-49.2	9.1	2.43e-02	0	56	0	483393536	57	7402
2026-01-03 10:16:00.50	183.36	44.37	-43.5	-49.2	9.1	2.14e-02	0	56	0	485490688	57	7417
2026-01-03 10:16:01.51	183.53	44.66	-43.6	-49.4	9.0	2.34e-02	0	56	0	486539264	57	7560
2026-01-03 10:16:02.52	183.71	44.94	-43.7	-49.6	8.8	2.64e-02	0	56	0	488636416	57	7756
2026-01-03 10:16:03.53	183.90	45.23	-43.8	-49.9	8.4	3.97e-02	0	56	0	490733568	58	7616
2026-01-03 10:16:04.54	184.08	45.52	-43.8	-50.0	8.3	5.19e-02	0	56	0	492830720	58	7718
2026-01-03 10:16:05.55	184.27	45.81	-43.8	-50.0	8.3	5.76e-02	0	56	0	494927872	58	7698
2026-01-03 10:16:06.56	184.47	46.11	-43.9	-50.3	8.1	5.66e-02	0	56	0	495976448	58	7938
2026-01-03 10:16:07.57	184.66	46.40	-43.9	-50.2	8.2	5.49e-02	0	56	0	498073600	58	7827
2026-01-03 10:16:08.58	184.86	46.70	-43.9	-50.5	7.9	6.71e-02	0	56	0	500170752	58	8132
2026-01-03 10:16:09.59	185.07	47.00	-44.0	-50.8	7.5	9.85e-02	0	56	0	502267904	58	8447
2026-01-03 10:16:10.60	185.28	47.30	-44.0	-51.0	7.5	1.11e-01	0	56	0	504365056	58	8571
2026-01-03 10:16:11.61	185.49	47.60	-44.0	-50.9	7.5	1.03e-01	0	56	0	505413632	58	8491
2026-01-03 10:16:12.62	185.71	47.90	-43.9	-50.4	7.9	9.44e-02	0	56	0	507510784	58	8068
2026-01-03 10:16:13.63	185.93	48.21	-43.8	-49.8	8.5	5.21e-02	0	57	0	509607936	58	7482
2026-01-03 10:16:14.64	186.15	48.52	-43.7	-49.5	8.9	3.75e-02	0	56	0	511705088	58	7275
2026-01-03 10:16:15.65	186.38	48.83	-43.6	-49.4	9.0	2.58e-02	0	56	0	513802240	58	7151
2026-01-03 10:16:16.66	186.62	49.14	-43.7	-49.5	8.9	2.54e-02	0	56	0	514850816	58	7212
2026-01-03 10:16:17.67	186.85	49.45	-43.7	-49.6	8.7	3.13e-02	0	56	0	516947968	58	7344
2026-01-03 10:16:18.68	187.10	49.76	-43.7	-49.5	8.8	3.30e-02	0	56	0	519045120	58	7256
2026-01-03 10:16:19.69	187.35	50.08	-43.4	-48.8	9.6	1.38e-02	0	56	0	521142272	58	6718
2026-01-03 10:16:20.70	187.60	50.40	-43.3	-48.5	9.9	1.06e-02	0	56	0	523239424	58	6462
2026-01-03 10:16:21.71	187.86	50.72	-43.0	-47.7	10.7	5.51e-03	0	56	0	524288000	58	5907
2026-01-03 10:16:22.72	188.12	51.04	-42.9	-47.4	11.1	1.95e-03	0	56	0	526385152	57	6017
2026-01-03 10:16:23.73	188.39	51.36	-42.6	-46.8	11.7	7.59e-04	0	56	0	528482304	57	5620
2026-01-03 10:16:24.74	188.67	51.68	-42.5	-46.6	11.9	4.42e-04	0	56	0	530579456	57	5479
2026-01-03 10:16:25.75	188.95	52.01	-42.4	-46.4	12.2	2.94e-04	0	56	0	532676608	56	5691
2026-01-03 10:16:26.75	189.24	52.33	-42.2	-45.9	12.6	1.05e-04	0	56	0	533725184	56	5384
2026-01-03 10:16:27.76	189.53	52.66	-42.1	-45.7	12.9	7.55e-05	0	56	0	535822336	56	5262
2026-01-03 10:16:28.78	189.84	52.99	-42.0	-45.6	13.0	4.57e-05	0	56	0	537919488	56	5177
2026-01-03 10:16:29.79	190.14	53.32	-41.7	-45.2	13.3	1.67e-05	0	56	0	540016640	55	5231
2026-01-03 10:16:30.80	190.46	53.66	-41.7	-45.1	13.3	1.67e-05	0	57	0	542113792	55	5186
2026-01-03 10:16:31.81	190.78	53.99	-41.7	-45.1	13.3	1.29e-05	0	56	0	543162368	55	5188
2026-01-03 10:16:32.82	191.11	54.32	-41.6	-44.9	13.6	9.10e-06	0	56	0	545259520	55	5047
2026-01-03 10:16:33.83	191.45	54.66	-41.6	-44.9	13.5	6.80e-06	0	56	0	547356672	55	5098
2026-01-03 10:16:34.84	191.79	55.00	-41.6	-45.0	13.4	1.29e-05	0	56	0	549453824	55	5139
2026-01-03 10:16:35.85	192.15	55.34	-41.7	-45.2	13.2	1.98e-05	0	56	0	551550976	55	5240
2026-01-03 10:16:36.86	192.51	55.68	-41.8	-45.3	13.1	2.51e-05	0	56	0	553648128	55	5307
2026-01-03 10:16:37.87	192.88	56.02	-41.9	-45.5	13.0	3.58e-05	0	56	0	554696704	55	5422
2026-01-03 10:16:38.88	193.26	56.36	-42.0	-45.7	12.7	5.56e-05	0	57	0	556793856	55	5558
2026-01-03 10:16:39.88	193.65	56.70	-42.1	-46.0	12.5	1.01e-04	0	56	0	558891008	55	5732
2026-01-03 10:16:40.89	194.04	57.04	-42.1	-45.9	12.4	1.17e-04	0	57	0	560988160	55	5709
2026-01-03 10:16:41.90	194.45	57.38	-42.2	-46.0	12.4	1.23e-04	0	56	0	563085312	55	5745
2026-01-03 10:16:42.91	194.87	57.73	-42.2	-46.0	12.3	1.67e-04	0	56	0	564133888	55	5779
2026-01-03 10:16:43.92	195.30	58.07	-42.2	-46.1	12.2	1.83e-04	0	56	0	566231040	55	5851
2026-01-03 10:16:44.93	195.74	58.42	-42.1	-45.8	12.6	1.50e-04	0	56	0	568328192	55	5630
2026-01-03 10:16:45.94	196.20	58.76	-42.0	-45.7	12.7	8.01e-05	0	56	0	570425344	55	5530
2026-01-03 10:16:46.95	196.66	59.11	-41.9	-45.4	13.0	4.27e-05	0	56	0	572522496	55	5363
2026-01-03 10:16:47.96	197.14	59.46	-41.8	-45.4	13.1	2.89e-05	0	56	0	573571072	55	5353
2026-01-03 10:16:48.97	197.63	59.80	-41.6	-45.0	13.4	1.44e-05	0	56	0	575668224	55	5121
2026-01-03 10:16:49.98	198.13	60.15	-41.5	-44.6	13.8	4.50e-06	0	56	0	577765376	54	5217
2026-01-03 10:16:50.99	198.65	60.50	-41.1	-44.1	14.4	1.50e-06	0	57	0	579862528	54	4886
2026-01-03 10:16:52.00	199.18	60.84	-40.9	-43.7	14.7	0.00e+00	0	56	0	581959680	53	4976
2026-01-03 10:16:53.01	199.72	61.19	-40.9	-43.7	14.8	0.00e+00	0	57	0	583008256	53	4966
2026-01-03 10:16:54.02	200.28	61.53	-40.9	-43.7	14.8	0.00e+00	0	56	0	585105408	53	4968
2026-01-03 10:16:55.03	200.86	61.88	-40.9	-43.8	14.7	0.00e+00	0	56	0	587202560	53	5011
2026-01-03 10:16:56.03	201.44	62.22	-41.0	-43.9	14.6	7.00e-07	0	56	0	589299712	53	5044
2026-01-03 10:16:57.04	202.05	62.56	-41.0	-43.9	14.6	7.00e-07	0	56	0	591396864	53	5069
2026-01-03 10:16:58.05	202.68	62.90	-41.0	-43.8	14.6	0.00e+00	0	56	0	592445440	53	5032
2026-01-03 10:16:59.06	203.32	63.25	-40.9	-43.7	14.8	7.00e-07	0	56	0	594542592	53	4951
2026-01-03 10:17:00.07	203.99	63.59	-41.0	-43.9	14.6	0.00e+00	0	57	0	596639744	53	5048
2026-01-03 10:17:01.08	204.67	63.92	-41.3	-44.4	14.1	2.20e-06	0	57	0	598736896	53	5341
2026-01-03 10:17:02.09	205.37	64.26	-41.8	-45.3	13.2	1.44e-05	0	56	0	600834048	54	5636
2026-01-03 10:17:03.11	206.10	64.60	-42.2	-46.1	12.3	6.25e-05	0	57	0	601882624	55	5820
2026-01-03 10:17:04.12	206.85	64.93	-42.3	-46.4	12.0	2.84e-04	0	56	0	603979776	55	5998
2026-01-03 10:17:05.12	207.60	65.25	-42.4	-46.6	11.8	4.25e-04	0	57	0	606076928	55	6174
2026-01-03 10:17:06.13	208.39	65.58	-42.6	-46.9	11.4	8.67e-04	0	57	0	608174080	55	6404
2026-01-03 10:17:07.14	209.21	65.91	-42.9	-47.3	11.2	1.29e-03	0	57	0	610271232	56	6331
2026-01-03 10:17:08.15	210.04	66.23	-43.0	-47.7	10.8	2.20e-03	0	57	0	611319808	56	6609
2026-01-03 10:17:09.16	210.90	66.54	-43.2	-48.1	10.3	3.94e-03	0	57	0	613416960	56	6959
2026-01-03 10:17:10.17	211.79	66.86	-43.3	-48.4	10.1	6.96e-03	0	57	0	615514112	57	6742
2026-01-03 10:17:11.18	212.71	67.17	-43.3	-48.4	10.0	7.28e-03	0	57	0	617611264	57	6777
2026-01-03 10:17:12.19	213.65	67.47	-43.3	-48.4	10.0	6.72e-03	0	56	0	619708416	57	6799
2026-01-03 10:17:13.20	214.61	67.77	-43.2	-48.2	10.2	6.48e-03	0	56	0	621805568	57	6582
2026-01-03 10:17:14.21	215.61	68.07	-43.1	-47.9	10.5	4.67e-03	0	57	0	622854144	57	6351
2026-01-03 10:17:15.22	216.64	68.36	-43.1	-47.8	10.6	3.64e-03	0	56	0	624951296	57	6346
2026-01-03 10:17:16.23	217.69	68.64	-43.3	-48.3	10.1	4.85e-03	0	56	0	627048448	57	6709
2026-01-03 10:17:17.24	218.78	68.92	-43.4	-48.7	9.7	9.22e-03	0	57	0	629145600	57	7002
2026-01-03 10:17:18.25	219.90	69.19	-43.4	-48.7	9.7	1.26e-02	0	56	0	631242752	57	6981
2026-01-03 10:17:19.26	221.05	69.46	-43.5	-48.9	9.6	1.55e-02	0	57	0	632291328	57	7137
2026-01-03 10:17:20.27	222.23	69.72	-43.5	-49.1	9.3	1.84e-02	0	57	0	634388480	57	7306
2026-01-03 10:17:21.28	223.44	69.97	-43.4	-48.8	9.6	1.43e-02	0	57	0	636485632	57	7110
2026-01-03 10:17:22.29	224.69	70.21	-43.4	-49.0	9.5	1.52e-02	0	57	0	638582784	57	7206
2026-01-03 10:17:23.29	225.95	70.44	-43.6	-49.3	9.0	2.05e-02	0	57	0	640679936	57	7543
2026-01-03 10:17:24.30	227.26	70.67	-43.6	-49.2	9.2	2.27e-02	0	56	0	641728512	57	7417
2026-01-03 10:17:25.31	228.60	70.89	-43.6	-49.4	8.9	2.32e-02	0	57	0	643825664	57	7618
2026-01-03 10:17:26.32	229.97	71.09	-43.8	-49.8	8.6	3.55e-02	0	57	0	645922816	58	7541
2026-01-03 10:17:27.33	231.38	71.29	-43.6	-49.5	8.9	3.46e-02	0	57	0	648019968	58	7223
2026-01-03 10:17:28.34	232.82	71.48	-43.3	-48.5	9.9	1.28e-02	0	57	0	650117120	58	6482
2026-01-03 10:17:29.35	234.28	71.65	-43.2	-48.1	10.3	5.94e-03	0	56	0	651165696	58	6187
2026-01-03 10:17:30.36	235.78	71.82	-43.2	-48.1	10.3	5.53e-03	0	56	0	653262848	58	6148
2026-01-03 10:17:31.37	237.30	71.97	-43.1	-48.1	10.4	4.68e-03	0	57	0	655360000	58	6135
2026-01-03 10:17:32.38	238.85	72.11	-43.3	-48.4	10.1	5.91e-03	0	57	0	657457152	58	6358
2026-01-03 10:17:33.39	240.42	72.24	-43.2	-48.2	10.1	8.07e-03	0	57	0	659554304	58	6250
2026-01-03 10:17:34.40	242.02	72.36	-43.0	-47.8	10.7	4.00e-03	0	57	0	660602880	58	5959
2026-01-03 10:17:35.41	243.64	72.46	-43.0	-47.8	10.6	3.10e-03	0	57	0	662700032	57	6321
2026-01-03 10:17:36.42	245.27	72.55	-43.2	-48.2	10.3	4.22e-03	0	56	0	664797184	57	6589
2026-01-03 10:17:37.43	246.93	72.63	-43.2	-48.2	10.3	7.12e-03	0	57	0	666894336	57	6576
2026-01-03 10:17:38.44	248.59	72.69	-42.8	-47.1	11.4	1.72e-03	0	57	0	668991488	57	5842
2026-01-03 10:17:39.44	250.25	72.74	-42.6	-46.7	11.8	5.44e-04	0	57	0	670040064	56	5878
2026-01-03 10:17:40.46	251.96	72.77	-42.6	-46.7	11.8	5.06e-04	0	57	0	672137216	56	5911
2026-01-03 10:17:41.47	253.65	72.79	-42.6	-46.7	11.8	5.38e-04	0	56	0	674234368	56	5889
2026-01-03 10:17:42.48	255.34	72.80	-42.3	-46.1	12.4	2.37e-04	0	57	0	676331520	56	5492
2026-01-03 10:17:43.48	257.02	72.79	-42.1	-45.7	12.9	9.38e-05	0	57	0	678428672	56	5262
2026-01-03 10:17:44.49	258.71	72.77	-42.0	-45.6	12.7	4.95e-05	0	57	0	679477248	55	5526
2026-01-03 10:17:45.50	260.40	72.73	-42.4	-46.6	11.7	2.32e-04	0	57	0	681574400	55	6194
2026-01-03 10:17:46.51	262.07	72.68	-43.0	-47.7	10.8	1.57e-03	0	57	0	683671552	56	6604
2026-01-03 10:17:47.52	263.74	72.62	-42.8	-47.4	11.1	2.12e-03	0	56	0	685768704	56	6361
2026-01-03 10:17:48.53	265.39	72.54	-42.7	-47.1	11.4	1.27e-03	0	57	0	687865856	56	6145
2026-01-03 10:17:49.54	267.02	72.45	-42.8	-47.2	11.2	8.15e-04	0	57	0	689963008	56	6268
2026-01-03 10:17:50.55	268.64	72.35	-43.3	-48.5	10.0	5.96e-03	0	56	0	691011584	57	6849
2026-01-03 10:17:51.56	270.23	72.23	-43.6	-49.5	9.0	2.22e-02	0	56	0	693108736	57	7688
2026-01-03 10:17:52.57	271.80	72.10	-43.4	-48.7	9.6	1.81e-02	0	57	0	695205888	57	7022
2026-01-03 10:17:53.58	273.35	71.96	-43.2	-48.2	10.3	8.26e-03	0	57	0	697303040	57	6607
2026-01-03 10:17:54.59	274.87	71.80	-43.1	-48.0	10.4	5.60e-03	0	57	0	699400192	57	6493
2026-01-03 10:17:55.60	276.36	71.64	-43.1	-48.0	10.5	5.01e-03	0	57	0	700448768	57	6429
2026-01-03 10:17:56.61	277.82	71.46	-43.2	-48.2	10.3	3.41e-03	0	56	0	702545920	57	6612
2026-01-03 10:17:57.62	279.25	71.27	-43.2	-48.2	10.3	6.50e-03	0	56	0	704643072	57	6592
2026-01-03 10:17:58.63	280.65	71.07	-43.2	-48.1	10.4	3.62e-03	0	57	0	706740224	57	6547
2026-01-03 10:17:59.64	282.02	70.86	-42.7	-48.9	9.5	7.72e-03	0	57	0	708837376	57	7152
2026-01-03 10:18:00.65	283.36	70.65	-43.4	-48.8	9.6	1.69e-02	0	57	0	709885952	57	7081
2026-01-03 10:18:01.66	284.66	70.42	-43.2	-48.3	10.2	7.29e-03	0	56	0	711983104	57	6711
2026-01-03 10:18:02.67	285.93	70.18	-43.4	-48.6	9.9	5.18e-03	0	56	0	714080256	57	6931
2026-01-03 10:18:03.68	287.17	69.94	-43.7	-49.7	8.7	2.35e-02	0	57	0	716177408	57	7855
2026-01-03 10:18:04.69	288.38	69.69	-43.5	-49.1	9.3	3.01e-02	0	57	0	718274560	58	6917
2026-01-03 10:18:05.70	289.55	69.43	-43.2	-48.2	10.3	1.03e-02	0	57	0	719323136	58	6235
2026-01-03 10:18:06.71	290.70	69.16	-43.1	-48.0	10.5	4.57e-03	0	57	0	721420288	58	6104
2026-01-03 10:18:07.72	291.81	68.89	-43.0	-47.7	10.8	2.91e-03	0	56	0	723517440	58	5906
2026-01-03 10:18:08.73	292.89	68.61	-43.2	-48.4	10.2	3.79e-03	0	56	0	725614592	57	6751
2026-01-03 10:18:09.74	293.94	68.33	-43.6	-49.7	8.7	2.79e-02	0	57	0	727711744	57	7857
2026-01-03 10:18:10.75	294.96	68.04	-43.8	-50.1	8.3	4.60e-02	0	57	0	728760320	58	7776
2026-01-03 10:18:11.76	295.96	67.74	-43.9	-50.5	7.9	5.13e-02	0	56	0	730857472	58	8167
2026-01-03 10:18:12.77	296.92	67.44	-44.0	-50.6	7.8	7.33e-02	0	56	0	732954624	58	8247
2026-01-03 10:18:13.78	297.86	67.14	-43.9	-50.5	7.9	7.47e-02	0	56	0	735051776	58	8136
2026-01-03 10:18:14.79	298.77	66.83	-43.8	-50.1	8.3	5.44e-02	0	57	0	737148928	58	7797
2026-01-03 10:18:15.80	299.65	66.51	-44.0	-50.9	7.6	7.32e-02	0	57	0	738197504	58	8539
2026-01-03 10:18:16.81	300.51	66.20	-44.0	-50.9	7.5	1.15e-01	0	57	0	740294656	58	8542
2026-01-03 10:18:17.82	301.34	65.88	-43.7	-49.7	8.7	5.41e-02	0	56	0	742391808	58	7447
2026-01-03 10:18:18.83	302.15	65.55	-43.5	-49.0	9.4	2.17e-02	0	57	0	744488960	58	6840
2026-01-03 10:18:19.84	302.93	65.23	-43.4	-48.6	9.9	1.12e-02	0	57	0	746586112	58	6544
2026-01-03 10:18:20.85	303.70	64.90	-43.4	-48.8	9.8	1.12e-02	0	57	0	747634688	58	6666
2026-01-03 10:18:21.86	304.44	64.57	-43.1	-47.9	10.7	7.11e-03	0	57	0	749731840	58	6015
2026-01-03 10:18:22.87	305.16	64.23	-42.7	-47.1	11.4	1.27e-03	0	57	0	751828992	57	5810
2026-01-03 10:18:23.88	305.86	63.90	-42.3	-46.1	12.6	2.69e-04	0	57	0	753926144	56	5465
2026-01-03 10:18:24.89	306.54	63.56	-42.1	-45.6	13.1	5.72e-05	0	57	0	756023296	56	5188
2026-01-03 10:18:25.90	307.20	63.22	-42.1	-45.8	12.9	5.11e-05	0	57	0	758120448	56	5301
2026-01-03 10:18:26.91	307.84	62.88	-42.1	-45.9	12.8	1.14e-04	0	57	0	759169024	56	5349
2026-01-03 10:18:27.92	308.46	62.54	-41.3	-44.4	14.1	1.52e-05	0	57	0	761266176	54	5076
2026-01-03 10:18:28.92	309.06	62.20	-40.6	-43.3	15.3	0.00e+00	0	56	0	763363328	53	4719
2026-01-03 10:18:29.93	309.65	61.86	-40.4	-42.9	15.7	0.00e+00	0	57	0	765460480	52	4781
2026-01-03 10:18:30.95	310.23	61.51	-40.8	-43.6	15.0	0.00e+00	0	57	0	767557632	52	5203
2026-01-03 10:18:31.96	310.79	61.17	-41.3	-44.4	14.1	0.00e+00	0	57	0	768606208	53	5372
2026-01-03 10:18:32.96	311.33	60.83	-41.4	-44.7	13.8	1.50e-06	0	57	0	770703360	53	5561
2026-01-03 10:18:33.97	311.85	60.48	-41.1	-44.2	14.3	1.50e-06	0	57	0	772800512	53	5233
2026-01-03 10:18:34.98	312.37	60.14	-40.9	-43.9	14.6	7.00e-07	0	57	0	774897664	53	5044
2026-01-03 10:18:35.99	312.87	59.79	-41.5	-44.7	13.8	1.50e-06	0	56	0	776994816	53	5586
2026-01-03 10:18:37.00	313.36	59.45	-42.4	-46.6	11.9	8.08e-05	0	57	0	778043392	55	6153
2026-01-03 10:18:38.01	313.83	59.10	-43.0	-47.7	10.9	1.41e-03	0	56	0	780140544	56	6592
2026-01-03 10:18:39.02	314.29	58.76	-42.5	-46.6	12.1	1.25e-03	0	56	0	782237696	56	5789
2026-01-03 10:18:40.03	314.74	58.41	-42.1	-45.7	12.9	5.95e-05	0	57	0	784334848	56	5270
2026-01-03 10:18:41.04	315.18	58.07	-42.4	-46.2	12.4	6.48e-05	0	57	0	786432000	56	5592
2026-01-03 10:18:42.05	315.61	57.72	-42.9	-47.4	11.3	2.59e-04	0	57	0	787480576	56	6379
2026-01-03 10:18:43.06	316.03	57.38	-43.4	-48.8	9.8	5.76e-03	0	57	0	789577728	57	7043
2026-01-03 10:18:44.07	316.44	57.04	-43.4	-48.6	9.9	1.41e-02	0	57	0	791674880	57	6935
2026-01-03 10:18:45.08	316.84	56.70	-42.5	-46.4	12.2	2.76e-03	0	57	0	793772032	56	5711
2026-01-03 10:18:46.09	317.22	56.35	-41.5	-44.8	13.7	1.75e-05	0	57	0	795869184	55	4988
2026-01-03 10:18:47.10	317.60	56.01	-41.4	-44.6	13.9	5.30e-06	0	57	0	796917760	54	5195
2026-01-03 10:18:48.11	317.97	55.68	-41.8	-45.4	13.1	7.60e-06	0	57	0	799014912	54	5683
2026-01-03 10:18:49.12	318.33	55.34	-42.5	-46.9	11.5	3.81e-04	0	57	0	801112064	55	6370
2026-01-03 10:18:50.13	318.68	55.00	-43.0	-47.7	10.9	2.28e-03	0	56	0	803209216	56	6585
2026-01-03 10:18:51.14	319.03	54.66	-42.3	-46.2	12.5	1.03e-03	0	57	0	805306368	56	5529
2026-01-03 10:18:52.15	319.36	54.33	-41.4	-44.5	14.0	4.50e-06	0	57	0	806354944	54	5152
2026-01-03 10:18:53.16	319.69	54.00	-41.1	-44.0	14.5	1.50e-06	0	57	0	808452096	54	4870
2026-01-03 10:18:54.16	320.01	53.67	-41.2	-44.2	14.3	7.00e-07	0	57	0	810549248	54	4974
2026-01-03 10:18:55.17	320.32	53.34	-41.5	-44.9	13.7	1.50e-06	0	57	0	812646400	54	5350
2026-01-03 10:18:56.18	320.63	53.01	-42.3	-46.3	12.2	7.78e-05	0	57	0	814743552	55	5977
2026-01-03 10:18:57.19	320.93	52.68	-42.6	-47.1	11.4	6.13e-04	0	57	0	815792128	55	6499
2026-01-03 10:18:58.20	321.23	52.35	-42.6	-46.9	11.8	1.25e-03	0	56	0	817889280	56	5993
2026-01-03 10:18:59.21	321.51	52.03	-41.6	-45.0	13.6	3.28e-05	0	57	0	819986432	55	5104
2026-01-03 10:19:00.22	321.79	51.70	-41.2	-44.2	14.3	1.50e-06	0	57	0	822083584	54	4981
2026-01-03 10:19:01.23	322.07	51.38	-41.6	-44.8	13.7	0.00e+00	0	57	0	824180736	54	5328
2026-01-03 10:19:02.24	322.34	51.06	-42.3	-46.2	12.3	7.32e-05	0	57	0	826277888	55	5871
2026-01-03 10:19:03.25	322.60	50.74	-43.1	-47.8	10.8	9.30e-04	0	57	0	827326464	56	6682
2026-01-03 10:19:04.26	322.86	50.42	-43.5	-49.1	9.5	6.51e-03	0	57	0	829423616	57	7291
2026-01-03 10:19:05.27	323.12	50.11	-43.7	-49.6	9.0	2.55e-02	0	57	0	831520768	58	7309
2026-01-03 10:19:06.28	323.36	49.79	-43.6	-49.0	9.5	2.31e-02	0	57	0	833617920	58	6857
2026-01-03 10:19:07.29	323.61	49.48	-43.2	-48.0	10.6	7.88e-03	0	57	0	835715072	58	6092
2026-01-03 10:19:08.30	323.84	49.17	-42.9	-47.3	11.3	1.35e-03	0	57	0	836763648	57	5977
2026-01-03 10:19:09.32	324.08	48.86	-43.1	-47.7	10.9	1.61e-03	0	57	0	838860800	57	6233
2026-01-03 10:19:10.33	324.31	48.55	-43.5	-48.9	9.6	4.37e-03	0	57	0	840957952	57	7164
2026-01-03 10:19:11.34	324.53	48.24	-44.0	-50.6	8.0	5.22e-02	0	57	0	843055104	58	8202
2026-01-03 10:19:12.35	324.75	47.94	-44.2	-51.6	7.0	1.35e-01	0	57	0	845152256	59	8672
2026-01-03 10:19:13.35	324.97	47.64	-44.1	-50.8	7.6	1.27e-01	0	57	0	846200832	59	7944
2026-01-03 10:19:14.37	325.18	47.34	-43.8	-49.8	8.6	6.23e-02	0	57	0	848297984	59	7092
2026-01-03 10:19:15.37	325.39	47.04	-43.6	-49.2	9.2	2.49e-02	0	57	0	850395136	59	6623
2026-01-03 10:19:16.39	325.59	46.74	-43.4	-48.6	9.9	1.15e-02	0	57	0	852492288	58	6569
2026-01-03 10:19:17.40	325.80	46.45	-43.2	-47.9	10.7	6.23e-03	0	57	0	854589440	58	6029
2026-01-03 10:19:18.41	325.99	46.15	-42.8	-47.1	11.4	1.14e-03	0	57	0	855638016	57	5832
2026-01-03 10:19:19.42	326.19	45.86	-42.8	-47.0	11.6	6.65e-04	0	57	0	857735168	57	5775
2026-01-03 10:19:20.43	326.37	45.57	-43.1	-47.9	10.7	1.18e-03	0	57	0	859832320	57	6391
2026-01-03 10:19:21.44	326.56	45.28	-43.5	-49.0	9.5	9.63e-03	0	57	0	861929472	57	7205
2026-01-03 10:19:22.45	326.74	44.99	-43.7	-49.6	8.9	2.30e-02	0	57	0	864026624	57	7734
2026-01-03 10:19:23.46	326.92	44.71	-43.5	-49.1	9.4	2.54e-02	0	57	0	865075200	57	7322
2026-01-03 10:19:24.47	327.10	44.43	-43.0	-47.5	11.1	3.36e-03	0	57	0	867172352	57	6081
2026-01-03 10:19:25.47	327.27	44.15	-42.5	-46.4	12.2	3.87e-04	0	57	0	869269504	56	5673
2026-01-03 10:19:26.49	327.45	43.86	-42.2	-45.8	12.9	7.09e-05	0	57	0	871366656	56	5295
2026-01-03 10:19:27.50	327.61	43.59	-42.1	-45.5	13.1	2.97e-05	0	57	0	873463808	56	5142
2026-01-03 10:19:28.51	327.78	43.31	-41.8	-45.2	13.2	1.67e-05	0	57	0	874512384	55	5273
2026-01-03 10:19:29.52	327.94	43.04	-42.2	-46.1	12.4	5.87e-05	0	57	0	876609536	55	5804
2026-01-03 10:19:30.53	328.10	42.76	-43.0	-47.5	11.0	4.51e-04	0	57	0	878706688	56	6475
2026-01-03 10:19:31.54	328.26	42.49	-43.5	-49.0	9.5	7.99e-03	0	57	0	880803840	57	7213
2026-01-03 10:19:32.55	328.41	42.22	-43.6	-49.4	9.0	2.35e-02	0	57	0	882900992	57	7602
2026-01-03 10:19:33.56	328.56	41.96	-43.5	-49.0	9.4	2.10e-02	0	57	0	883949568	57	7257
2026-01-03 10:19:34.56	328.71	41.69	-43.3	-48.3	10.2	9.30e-03	0	57	0	886046720	57	6685
2026-01-03 10:19:35.57	328.86	41.43	-42.9	-47.4	11.1	2.46e-03	0	57	0	888143872	57	6025
2026-01-03 10:19:36.58	329.00	41.17	-42.7	-47.0	11.5	9.64e-04	0	57	0	890241024	57	5760
2026-01-03 10:19:37.59	329.15	40.91	-42.4	-46.3	12.3	2.24e-04	0	57	0	892338176	56	5601
2026-01-03 10:19:38.60	329.29	40.65	-42.5	-46.4	12.2	1.73e-04	0	57	0	893386752	56	5721
2026-01-03 10:19:39.61	329.42	40.39	-42.7	-46.8	11.8	3.04e-04	0	57	0	895483904	56	5978
2026-01-03 10:19:40.62	329.56	40.13	-43.0	-47.7	10.8	9.04e-04	0	57	0	897581056	56	6596
2026-01-03 10:19:41.63	329.70	39.88	-43.2	-48.2	10.2	5.05e-03	0	57	0	899678208	57	6636
2026-01-03 10:19:42.64	329.83	39.63	-43.5	-49.1	9.4	1.04e-02	0	57	0	901775360	57	7322
2026-01-03 10:19:43.65	329.96	39.38	-43.7	-49.7	8.8	2.43e-02	0	57	0	903872512	57	7812
2026-01-03 10:19:44.66	330.09	39.13	-43.6	-49.3	9.2	2.58e-02	0	57	0	904921088	58	7046
2026-01-03 10:19:45.67	330.21	38.88	-43.4	-48.6	9.8	1.44e-02	0	57	0	907018240	58	6552
2026-01-03 10:19:46.68	330.34	38.64	-43.1	-48.0	10.5	6.66e-03	0	57	0	909115392	58	6073
2026-01-03 10:19:47.69	330.46	38.39	-42.9	-47.3	11.2	1.96e-03	0	57	0	911212544	57	5975
2026-01-03 10:19:48.70	330.58	38.15	-42.7	-47.0	11.5	1.03e-03	0	57	0	913309696	57	5786
2026-01-03 10:19:49.71	330.70	37.91	-42.6	-46.8	11.7	1.06e-03	0	57	0	914358272	57	5603
2026-01-03 10:19:50.72	330.82	37.67	-42.4	-46.3	12.2	5.03e-04	0	57	0	916455424	56	5624
2026-01-03 10:19:51.72	330.93	37.43	-42.3	-46.2	12.3	3.03e-04	0	57	0	918552576	56	5586
2026-01-03 10:19:52.74	331.05	37.20	-42.6	-46.8	11.7	4.63e-04	0	57	0	920649728	56	5969
2026-01-03 10:19:53.74	331.16	36.96	-42.9	-47.4	11.1	1.52e-03	0	57	0	922746880	56	6383
2026-01-03 10:19:54.75	331.27	36.73	-43.1	-48.0	10.5	3.33e-03	0	57	0	923795456	56	6815
2026-01-03 10:19:55.76	331.38	36.50	-43.3	-48.4	10.0	5.49e-03	0	57	0	925892608	57	6751
2026-01-03 10:19:56.77	331.49	36.27	-43.4	-48.7	9.7	8.06e-03	0	57	0	927989760	57	6965
2026-01-03 10:19:57.78	331.59	36.04	-43.3	-48.4	10.0	1.01e-02	0	57	0	930086912	57	6767
2026-01-03 10:19:58.79	331.70	35.81	-43.3	-48.5	9.9	9.60e-03	0	57	0	932184064	57	6878
2026-01-03 10:19:59.80	331.80	35.59	-43.3	-48.6	9.8	9.97e-03	0	57	0	933232640	57	6920
2026-01-03 10:20:00.81	331.91	35.37	-43.2	-48.3	10.1	7.38e-03	0	57	0	935329792	57	6707
2026-01-03 10:20:01.82	332.01	35.14	-43.2	-48.3	10.2	6.63e-03	0	57	0	937426944	57	6670
2026-01-03 10:20:02.83	332.11	34.92	-43.1	-48.0	10.4	5.81e-03	0	57	0	939524096	57	6461
2026-01-03 10:20:03.84	332.20	34.70	-43.0	-47.6	10.8	3.14e-03	0	57	0	941621248	57	6190
2026-01-03 10:20:04.85	332.30	34.49	-42.8	-47.2	11.3	1.62e-03	0	57	0	942669824	57	5878
2026-01-03 10:20:05.86	332.40	34.27	-42.7	-47.0	11.4	9.06e-04	0	57	0	944766976	57	5780
2026-01-03 10:20:06.87	332.49	34.05	-42.7	-47.0	11.5	8.35e-04	0	57	0	946864128	57	5734
2026-01-03 10:20:07.88	332.59	33.84	-42.7	-47.1	11.4	8.33e-04	0	57	0	948961280	57	5793
2026-01-03 10:20:08.89	332.68	33.63	-42.8	-47.5	10.8	6.86e-03	0	57	0	951058432	57	6088
2026-01-03 10:20:09.90	332.77	33.42	-43.0	-47.9	10.4	1.34e-02	0	57	0	952107008	57	6405
2026-01-03 10:20:10.91	332.86	33.21	-43.2	-48.4	9.9	1.65e-02	0	57	0	954204160	57	6753
2026-01-03 10:20:11.92	332.95	33.00	-43.3	-48.9	9.3	2.25e-02	0	57	0	956301312	57	7201
2026-01-03 10:20:12.92	333.04	32.80	-43.4	-49.2	9.0	2.80e-02	0	57	0	958398464	57	7435
2026-01-03 10:20:13.93	333.12	32.59	-43.5	-49.6	8.7	3.84e-02	0	57	0	960495616	57	7757
2026-01-03 10:20:14.94	333.21	32.39	-43.6	-49.8	8.5	4.90e-02	0	57	0	961544192	57	7915
2026-01-03 10:20:15.95	333.29	32.18	-43.6	-49.8	8.4	5.37e-02	0	57	0	963641344	57	7916
2026-01-03 10:20:16.96	333.38	31.98	-43.6	-49.7	8.5	4.78e-02	0	57	0	965738496	57	7846
2026-01-03 10:20:17.97	333.46	31.78	-43.5	-49.6	8.6	4.62e-02	0	57	0	967835648	57	7764
2026-01-03 10:20:18.98	333.54	31.58	-43.5	-49.4	8.9	4.34e-02	0	57	0	969932800	57	7544
2026-01-03 10:20:19.99	333.62	31.39	-43.4	-49.3	8.9	3.63e-02	0	57	0	972029952	57	7501
2026-01-03 10:20:21.00	333.70	31.19	-43.4	-49.1	9.1	3.14e-02	0	57	0	973078528	57	7295
2026-01-03 10:20:22.01	333.78	30.99	-43.4	-48.8	9.5	1.99e-02	0	57	0	975175680	57	7103
2026-01-03 10:20:23.02	333.86	30.80	-43.3	-48.7	9.7	1.35e-02	0	57	0	977272832	57	6969
2026-01-03 10:20:24.03	333.94	30.61	-43.2	-48.3	10.0	9.37e-03	0	57	0	979369984	57	6717
2026-01-03 10:20:25.04	334.02	30.42	-43.1	-48.1	10.3	6.59e-03	0	57	0	981467136	57	6510
2026-01-03 10:20:26.04	334.09	30.23	-43.0	-47.8	10.5	4.21e-03	0	57	0	982515712	57	6325
2026-01-03 10:20:27.05	334.17	30.04	-43.0	-47.8	10.5	3.29e-03	0	57	0	984612864	57	6291
2026-01-03 10:20:28.06	334.24	29.85	-42.9	-47.6	10.7	3.00e-03	0	57	0	986710016	57	6189
2026-01-03 10:20:29.08	334.31	29.66	-42.9	-47.5	10.9	2.46e-03	0	57	0	988807168	57	6122
2026-01-03 10:20:30.08	334.39	29.48	-42.9	-47.6	10.8	2.72e-03	0	57	0	990904320	57	6137
2026-01-03 10:20:31.09	334.46	29.30	-42.9	-47.5	10.8	2.65e-03	0	57	0	991952896	57	6110
2026-01-03 10:20:32.10	334.53	29.11	-42.9	-47.5	10.8	2.52e-03	0	57	0	994050048	57	6108
2026-01-03 10:20:33.11	334.60	28.93	-42.9	-47.6	10.7	2.91e-03	0	57	0	996147200	57	6184
2026-01-03 10:20:34.12	334.67	28.75	-42.9	-47.6	10.7	2.82e-03	0	57	0	998244352	57	6177
2026-01-03 10:20:35.13	334.74	28.57	-42.9	-47.7	10.6	3.07e-03	0	57	0	1000341504	57	6233
2026-01-03 10:20:36.14	334.80	28.39	-42.9	-47.7	10.6	3.36e-03	0	57	0	1001390080	57	6267
2026-01-03 10:20:37.15	334.87	28.22	-43.0	-47.8	10.5	3.81e-03	0	57	0	1003487232	57	6313
2026-01-03 10:20:38.16	334.94	28.04	-42.9	-47.7	10.6	3.46e-03	0	57	0	1005584384	57	6222
2026-01-03 10:20:39.17	335.00	27.86	-42.9	-47.7	10.6	3.60e-03	0	57	0	1007681536	57	6221
2026-01-03 10:20:40.18	335.07	27.69	-42.8	-47.5	10.8	3.17e-03	0	57	0	1009778688	57	6116
2026-01-03 10:20:41.19	335.13	27.52	-42.7	-47.3	11.0	2.39e-03	0	57	0	1010827264	57	5938
2026-01-03 10:20:42.20	335.20	27.35	-42.6	-47.0	11.3	1.56e-03	0	57	0	1012924416	57	5781
2026-01-03 10:20:43.21	335.26	27.17	-42.5	-46.7	11.6	9.73e-04	0	57	0	1015021568	57	5582
2026-01-03 10:20:44.21	335.32	27.01	-42.4	-46.5	11.8	5.43e-04	0	57	0	1017118720	56	5762
2026-01-03 10:20:45.22	335.39	26.84	-42.3	-46.3	12.0	3.91e-04	0	57	0	1019215872	56	5615
2026-01-03 10:20:46.23	335.45	26.67	-42.2	-46.1	12.3	2.32e-04	0	57	0	1020264448	56	5470
2026-01-03 10:20:47.24	335.51	26.50	-42.0	-45.8	12.5	1.52e-04	0	57	0	1022361600	56	5322
2026-01-03 10:20:48.25	335.57	26.34	-42.0	-45.7	12.6	1.01e-04	0	57	0	1024458752	56	5272
2026-01-03 10:20:49.26	335.63	26.17	-41.8	-45.4	12.7	6.48e-05	0	57	0	1026555904	55	5397
2026-01-03 10:20:50.27	335.69	26.01	-41.8	-45.4	12.7	7.01e-05	0	57	0	1028653056	55	5377
2026-01-03 10:20:51.28	335.74	25.85	-41.8	-45.4	12.7	8.62e-05	0	57	0	1029701632	55	5384
2026-01-03 10:20:52.29	335.80	25.68	-41.9	-45.6	12.5	1.17e-04	0	57	0	1031798784	55	5517
2026-01-03 10:20:53.30	335.86	25.52	-41.9	-45.6	12.5	1.06e-04	0	57	0	1033895936	55	5523
2026-01-03 10:20:54.31	335.92	25.36	-41.9	-45.8	12.4	1.46e-04	0	57	0	1035993088	55	5602
2026-01-03 10:20:55.32	335.97	25.20	-41.9	-45.9	12.2	1.69e-04	0	57	0	1038090240	55	5657
2026-01-03 10:20:56.33	336.03	25.05	-42.0	-46.0	12.1	2.33e-04	0	57	0	1039138816	55	5765
2026-01-03 10:20:57.34	336.08	24.89	-42.1	-46.1	12.0	3.33e-04	0	57	0	1041235968	55	5825
2026-01-03 10:20:58.35	336.14	24.73	-42.1	-46.2	11.9	3.81e-04	0	57	0	1043333120	55	5869
2026-01-03 10:20:59.36	336.19	24.58	-42.1	-46.3	11.8	5.11e-04	0	57	0	1045430272	55	5924
2026-01-03 10:21:00.37	336.25	24.42	-42.2	-46.4	11.7	6.54e-04	0	57	0	1047527424	55	5993
2026-01-03 10:21:01.38	336.30	24.27	-42.2	-46.4	11.6	5.80e-04	0	57	0	1049624576	55	5994
2026-01-03 10:21:02.39	336.35	24.12	-42.1	-46.3	11.7	5.82e-04	0	57	0	1050673152	55	5962
2026-01-03 10:21:03.40	336.41	23.96	-42.1	-46.2	11.8	5.47e-04	0	57	0	1052770304	55	5915
2026-01-03 10:21:04.41	336.46	23.81	-42.0	-46.1	11.9	4.60e-04	0	57	0	1054867456	55	5837
2026-01-03 10:21:05.42	336.51	23.66	-42.0	-46.0	12.0	3.87e-04	0	57	0	1056964608	55	5770
2026-01-03 10:21:06.43	336.56	23.51	-42.0	-46.0	11.9	3.75e-04	0	57	0	1059061760	55	5772
2026-01-03 10:21:07.44	336.61	23.36	-41.9	-45.9	12.0	3.01e-04	0	57	0	1060110336	55	5700
2026-01-03 10:21:08.45	336.66	23.22	-41.9	-45.8	12.1	2.52e-04	0	57	0	1062207488	55	5643
2026-01-03 10:21:09.46	336.71	23.07	-41.8	-45.7	12.2	2.65e-04	0	57	0	1064304640	55	5588
2026-01-03 10:21:10.47	336.76	22.92	-41.8	-45.7	12.2	2.04e-04	0	57	0	1066401792	55	5539
2026-01-03 10:21:11.48	336.81	22.78	-41.8	-45.7	12.3	2.14e-04	0	57	0	1068498944	55	5539
2026-01-03 10:21:12.49	336.86	22.63	-41.8	-45.7	12.2	2.05e-04	0	57	0	1069547520	55	5548
2026-01-03 10:21:13.50	336.91	22.49	-41.7	-45.7	12.2	1.85e-04	0	57	0	1071644672	55	5530
2026-01-03 10:21:14.51	336.95	22.35	-41.8	-45.7	12.1	2.24e-04	0	57	0	1073741824	55	5590
2026-01-03 10:21:15.52	337.00	22.21	-41.8	-45.7	12.1	2.75e-04	0	57	0	1075838976	55	5588
2026-01-03 10:21:16.53	337.05	22.07	-41.8	-45.8	12.1	2.86e-04	0	57	0	1077936128	55	5603
2026-01-03 10:21:17.54	337.09	21.92	-41.8	-45.8	12.0	3.20e-04	0	57	0	1078984704	55	5603
2026-01-03 10:21:18.55	337.14	21.78	-41.7	-45.7	12.0	3.11e-04	0	57	0	1081081856	55	5584
2026-01-03 10:21:19.56	337.19	21.65	-41.8	-45.9	11.8	3.79e-04	0	57	0	1083179008	55	5704
2026-01-03 10:21:20.57	337.23	21.51	-41.8	-46.0	11.8	4.42e-04	0	57	0	1085276160	55	5725
2026-01-03 10:21:21.58	337.28	21.37	-41.7	-45.9	11.8	4.63e-04	0	57	0	1087373312	55	5673
2026-01-03 10:21:22.59	337.32	21.23	-41.8	-45.9	11.7	5.45e-04	0	57	0	1088421888	55	5716
2026-01-03 10:21:23.60	337.36	21.10	-41.7	-45.9	11.7	5.01e-04	0	57	0	1090519040	55	5696
2026-01-03 10:21:24.61	337.41	20.96	-41.7	-46.0	11.6	6.51e-04	0	57	0	1092616192	55	5740
2026-01-03 10:21:25.62	337.45	20.83	-41.8	-46.1	11.4	9.55e-04	0	57	0	1094713344	55	5830
2026-01-03 10:21:26.63	337.49	20.69	-41.7	-46.1	11.3	1.03e-03	0	57	0	1096810496	55	5839
2026-01-03 10:21:27.64	337.54	20.56	-41.7	-46.1	11.3	1.18e-03	0	57	0	1097859072	55	5833
2026-01-03 10:21:28.65	337.58	20.43	-41.6	-46.0	11.4	1.04e-03	0	57	0	1099956224	55	5762
2026-01-03 10:21:29.66	337.62	20.30	-41.6	-45.9	11.4	1.03e-03	0	57	0	1102053376	55	5689
2026-01-03 10:21:30.67	337.66	20.17	-41.5	-45.9	11.4	1.05e-03	0	57	0	1104150528	55	5679
2026-01-03 10:21:31.68	337.71	20.03	-41.5	-45.8	11.4	1.01e-03	0	57	0	1106247680	55	5656
2026-01-03 10:21:32.68	337.75	19.91	-41.4	-45.7	11.4	9.89e-04	0	57	0	1108344832	54	5919
2026-01-03 10:21:33.69	337.79	19.78	-41.4	-45.9	11.2	1.08e-03	0	57	0	1109393408	54	6007
2026-01-03 10:21:34.70	337.83	19.65	-41.4	-45.9	11.1	1.48e-03	0	57	0	1111490560	54	6033
2026-01-03 10:21:35.71	337.87	19.52	-41.4	-45.9	11.0	1.79e-03	0	57	0	1113587712	54	6039
2026-01-03 10:21:36.72	337.91	19.39	-41.3	-45.9	10.9	1.77e-03	0	57	0	1115684864	54	6045
2026-01-03 10:21:37.73	337.95	19.27	-41.3	-45.9	10.9	2.12e-03	0	57	0	1117782016	54	6007
2026-01-03 10:21:38.74	337.99	19.14	-41.2	-45.7	11.0	1.95e-03	0	57	0	1118830592	54	5910
2026-01-03 10:21:39.75	338.03	19.02	-41.1	-45.7	11.0	2.06e-03	0	57	0	1120927744	54	5862
2026-01-03 10:21:40.76	338.07	18.89	-41.1	-45.6	10.9	2.22e-03	0	57	0	1123024896	54	5837
2026-01-03 10:21:41.77	338.10	18.77	-41.1	-45.7	10.9	2.26e-03	0	57	0	1125122048	54	5864
2026-01-03 10:21:42.78	338.14	18.64	-41.1	-45.8	10.6	3.10e-03	0	57	0	1127219200	54	5947
2026-01-03 10:21:43.79	338.18	18.52	-41.0	-45.8	10.6	3.21e-03	0	57	0	1128267776	54	5949
2026-01-03 10:21:44.80	338.22	18.40	-41.0	-45.8	10.5	4.07e-03	0	57	0	1130364928	54	5966
2026-01-03 10:21:45.81	338.26	18.28	-41.0	-45.7	10.6	3.78e-03	0	57	0	1132462080	54	5899
2026-01-03 10:21:46.82	338.29	18.16	-40.9	-45.6	10.6	3.75e-03	0	57	0	1134559232	53	6178
2026-01-03 10:21:47.83	338.33	18.04	-40.8	-45.6	10.6	3.22e-03	0	57	0	1136656384	53	6147
2026-01-03 10:21:48.84	338.37	17.92	-40.8	-45.6	10.5	3.65e-03	0	57	0	1137704960	53	6161
2026-01-03 10:21:49.84	338.40	17.80	-40.9	-45.8	10.3	4.10e-03	0	57	0	1139802112	53	6278
2026-01-03 10:21:50.85	338.44	17.68	-40.9	-45.8	10.2	6.11e-03	0	57	0	1141899264	53	6323
2026-01-03 10:21:51.87	338.48	17.56	-40.8	-45.7	10.3	5.55e-03	0	57	0	1143996416	53	6227
2026-01-03 10:21:52.87	338.51	17.44	-40.9	-45.9	10.0	6.23e-03	0	57	0	1146093568	53	6399
2026-01-03 10:21:53.89	338.55	17.33	-40.9	-46.0	9.9	8.71e-03	0	57	0	1147142144	53	6490
2026-01-03 10:21:54.90	338.58	17.21	-41.0	-46.3	9.5	1.13e-02	0	57	0	1149239296	53	6699
2026-01-03 10:21:55.91	338.62	17.09	-41.0	-46.4	9.4	1.39e-02	0	57	0	1151336448	53	6756
2026-01-03 10:21:56.92	338.65	16.98	-41.0	-46.5	9.2	1.69e-02	0	57	0	1153433600	53	6858
2026-01-03 10:21:57.93	338.69	16.86	-41.0	-46.7	9.0	2.27e-02	0	57	0	1155530752	53	7040
2026-01-03 10:21:58.93	338.72	16.75	-41.1	-47.0	8.7	3.30e-02	0	57	0	1156579328	53	7263
2026-01-03 10:21:59.94	338.75	16.64	-41.1	-47.2	8.4	3.85e-02	0	57	0	1158676480	53	7417
2026-01-03 10:22:00.95	338.79	16.52	-41.1	-47.5	8.1	5.61e-02	0	57	0	1160773632	53	7638
2026-01-03 10:22:01.97	338.82	16.41	-41.1	-47.7	7.8	7.01e-02	0	57	0	1162870784	53	7863
2026-01-03 10:22:02.97	338.85	16.30	-41.2	-48.0	7.5	8.51e-02	0	57	0	1164967936	53	8124
2026-01-03 10:22:03.98	338.89	16.19	-41.2	-48.2	7.3	1.23e-01	0	57	0	1166016512	53	8333
2026-01-03 10:22:04.99	338.92	16.08	-41.2	-48.5	7.0	1.46e-01	0	57	0	1168113664	53	8621
2026-01-03 10:22:06.00	338.95	15.96	-41.2	-48.8	6.7	1.75e-01	0	57	0	1170210816	53	8955
2026-01-03 10:22:07.01	338.99	15.85	-41.2	-49.0	6.5	2.31e-01	0	57	0	1172307968	53	9162
2026-01-03 10:22:08.02	339.02	15.74	-41.2	-49.5	6.0	2.88e-01	0	57	0	1174405120	53	9668
2026-01-03 10:22:09.03	339.05	15.64	-41.2	-49.8	5.8	3.48e-01	0	57	0	1175453696	53	9947
