passes_logs/2026/01/03/R2.0S_Moscow/R2.0S_Moscow__20260103_220025_SUOMI_NPP_rec.log

#Pass ID: 20260103_220025_SUOMI NPP
#Satellite: SUOMI NPP
#Configuration: NPP
#almurnet v.1.7.20251203
#Start time: 2026-01-03 22:00:25

#Version: 2.2.20231116
#Station: R2.0S_Moscow
#Location: 37.707566 lon 55.798166 lat
#TLE: 1 37849U 11061A   26001.07732418  .00000182  00000+0  10735-3 0  9990
#TLE: 2 37849  98.7795 303.2470 0002580  87.2016 272.9455 14.19520779734739

#Time	Az	El	Level	Level2	SNR	BER	BlckErr	Temp	State	Recorded	gain1	gain2
2026-01-03 22:00:25.03	27.42	1.98	-42.1	-57.0	3.8	1.49e+00	0	47	0	0	56	19268
2026-01-03 22:00:26.03	27.50	2.04	-41.9	-56.8	3.8	1.49e+00	0	47	104	0	55	19954
2026-01-03 22:00:27.04	27.58	2.09	-41.9	-56.8	3.8	1.49e+00	0	47	104	0	55	19966
2026-01-03 22:00:28.05	27.66	2.14	-42.0	-56.8	3.8	1.49e+00	0	47	104	0	55	20055
2026-01-03 22:00:29.07	27.75	2.19	-42.0	-56.9	3.8	1.49e+00	0	47	104	0	55	20072
2026-01-03 22:00:30.08	27.83	2.24	-41.9	-56.8	3.8	1.49e+00	0	47	104	0	55	20002
2026-01-03 22:00:31.09	27.92	2.30	-41.9	-56.8	3.8	1.49e+00	0	47	104	0	55	19970
2026-01-03 22:00:32.10	28.00	2.35	-42.0	-56.8	3.8	1.49e+00	0	47	104	0	55	20033
2026-01-03 22:00:33.11	28.08	2.40	-42.0	-56.8	3.8	1.49e+00	0	48	104	0	55	19970
2026-01-03 22:00:34.12	28.17	2.45	-41.9	-56.8	3.8	1.49e+00	0	47	104	0	55	20003
2026-01-03 22:00:35.13	28.25	2.50	-42.0	-56.8	3.8	1.49e+00	0	47	104	0	55	20046
2026-01-03 22:00:36.14	28.34	2.56	-41.9	-56.8	3.8	1.49e+00	0	48	104	0	55	19991
2026-01-03 22:00:37.15	28.42	2.61	-41.9	-56.8	3.8	1.49e+00	0	48	104	0	55	19966
2026-01-03 22:00:38.16	28.51	2.66	-41.9	-56.8	3.8	1.49e+00	0	48	104	0	55	20013
2026-01-03 22:00:39.18	28.60	2.71	-41.9	-56.8	3.8	1.49e+00	0	48	104	0	55	20053
2026-01-03 22:00:40.19	28.68	2.76	-41.9	-56.8	3.8	1.49e+00	0	48	104	0	55	20051
2026-01-03 22:00:41.20	28.77	2.82	-41.9	-56.8	3.8	1.49e+00	0	48	104	0	55	19990
2026-01-03 22:00:42.21	28.86	2.87	-41.9	-56.8	3.8	1.49e+00	0	48	104	0	55	19998
2026-01-03 22:00:43.22	28.94	2.92	-41.9	-56.8	3.8	1.49e+00	0	48	104	0	55	20063
2026-01-03 22:00:44.23	29.03	2.97	-41.9	-56.8	3.8	1.49e+00	0	48	104	0	55	20020
2026-01-03 22:00:45.24	29.12	3.03	-41.9	-56.8	3.8	1.49e+00	0	48	104	0	55	20014
2026-01-03 22:00:46.25	29.21	3.08	-41.9	-56.8	3.8	1.49e+00	0	49	104	0	55	19981
2026-01-03 22:00:47.27	29.30	3.13	-41.9	-56.8	3.8	1.49e+00	0	48	104	0	55	20006
2026-01-03 22:00:48.28	29.38	3.19	-41.9	-56.8	3.8	1.49e+00	0	49	104	0	55	20004
2026-01-03 22:00:49.29	29.47	3.24	-41.9	-56.8	3.8	1.49e+00	0	48	104	0	55	19972
2026-01-03 22:00:50.30	29.56	3.29	-41.9	-56.8	3.8	1.49e+00	0	49	104	0	55	19980
2026-01-03 22:00:51.31	29.65	3.34	-41.9	-56.8	3.8	1.49e+00	0	49	104	0	55	20010
2026-01-03 22:00:52.32	29.74	3.40	-41.9	-56.8	3.8	1.49e+00	0	49	104	0	55	20015
2026-01-03 22:00:53.33	29.83	3.45	-41.9	-56.8	3.8	1.49e+00	0	49	104	0	55	19931
2026-01-03 22:00:54.34	29.92	3.50	-41.9	-56.8	3.8	1.49e+00	0	49	104	0	55	19998
2026-01-03 22:00:55.35	30.01	3.56	-41.9	-56.8	3.8	1.49e+00	0	49	104	0	55	19972
2026-01-03 22:00:56.37	30.11	3.61	-41.9	-56.8	3.8	1.49e+00	0	49	104	0	55	19971
2026-01-03 22:00:57.38	30.20	3.66	-41.9	-56.8	3.8	1.49e+00	0	49	104	0	55	19986
2026-01-03 22:00:58.39	30.29	3.72	-41.9	-56.8	3.8	1.49e+00	0	49	104	0	55	20035
2026-01-03 22:00:59.40	30.38	3.77	-41.9	-56.8	3.8	1.49e+00	0	49	104	0	55	19986
2026-01-03 22:01:00.41	30.47	3.82	-41.9	-56.8	3.8	1.49e+00	0	49	104	0	55	19989
2026-01-03 22:01:01.42	30.57	3.88	-41.9	-56.8	3.8	1.49e+00	0	49	104	0	55	19964
2026-01-03 22:01:02.43	30.66	3.93	-41.9	-56.8	3.8	1.49e+00	0	49	104	0	55	20013
2026-01-03 22:01:03.45	30.75	3.98	-41.9	-56.8	3.8	1.49e+00	0	49	104	0	55	20021
2026-01-03 22:01:04.46	30.85	4.04	-41.9	-56.8	3.8	1.49e+00	0	49	104	0	55	19990
2026-01-03 22:01:05.47	30.94	4.09	-41.9	-56.9	3.8	1.49e+00	0	50	104	0	55	20088
2026-01-03 22:01:06.48	31.03	4.14	-41.9	-56.8	3.8	1.49e+00	0	50	104	0	55	20001
2026-01-03 22:01:07.49	31.13	4.20	-41.9	-56.8	3.8	1.49e+00	0	50	104	0	55	20018
2026-01-03 22:01:08.50	31.22	4.25	-41.9	-56.8	3.8	1.49e+00	0	50	104	0	55	19962
2026-01-03 22:01:09.51	31.32	4.30	-41.9	-56.8	3.8	1.49e+00	0	50	104	0	55	19983
2026-01-03 22:01:10.52	31.42	4.36	-41.9	-56.8	3.8	1.49e+00	0	50	104	0	55	20047
2026-01-03 22:01:11.53	31.51	4.41	-41.9	-56.8	3.8	1.49e+00	0	50	104	0	55	19974
2026-01-03 22:01:12.54	31.61	4.46	-41.9	-56.8	3.8	1.49e+00	0	50	104	0	55	19976
2026-01-03 22:01:13.55	31.70	4.52	-41.9	-56.8	3.8	1.49e+00	0	50	104	0	55	19971
2026-01-03 22:01:14.57	31.80	4.57	-41.9	-56.8	3.8	1.49e+00	0	50	104	0	55	20015
2026-01-03 22:01:15.58	31.90	4.63	-41.9	-56.8	3.8	1.49e+00	0	50	104	0	55	20008
2026-01-03 22:01:16.59	32.00	4.68	-41.9	-56.8	3.8	1.49e+00	0	50	104	0	55	19992
2026-01-03 22:01:17.60	32.10	4.74	-41.9	-56.8	3.8	1.49e+00	0	50	104	0	55	20042
2026-01-03 22:01:18.61	32.19	4.79	-41.9	-56.8	3.8	1.49e+00	0	50	104	0	55	20006
2026-01-03 22:01:19.62	32.29	4.84	-41.9	-56.8	3.8	1.49e+00	0	50	104	0	55	20000
2026-01-03 22:01:20.63	32.39	4.90	-41.9	-56.8	3.8	1.49e+00	0	50	104	0	55	19977
2026-01-03 22:01:21.64	32.49	4.95	-41.9	-56.8	3.8	1.49e+00	0	50	104	0	55	20020
2026-01-03 22:01:22.66	32.59	5.01	-41.9	-56.8	3.8	1.49e+00	0	50	104	0	55	19975
2026-01-03 22:01:23.67	32.69	5.06	-41.9	-56.8	3.8	1.49e+00	0	50	104	0	55	20035
2026-01-03 22:01:24.68	32.79	5.11	-42.0	-56.8	3.8	1.49e+00	0	50	104	0	55	19995
2026-01-03 22:01:25.69	32.89	5.17	-41.9	-56.8	3.8	1.49e+00	0	50	104	0	55	20064
2026-01-03 22:01:26.70	32.99	5.22	-41.9	-56.8	3.8	1.49e+00	0	50	104	0	55	19987
2026-01-03 22:01:27.71	33.10	5.28	-41.9	-56.8	3.8	1.49e+00	0	51	104	0	55	20003
2026-01-03 22:01:28.72	33.20	5.33	-41.9	-56.8	3.8	1.49e+00	0	51	104	0	55	20026
2026-01-03 22:01:29.73	33.30	5.39	-41.9	-56.8	3.8	1.49e+00	0	51	104	0	55	19949
2026-01-03 22:01:30.74	33.40	5.44	-41.9	-56.8	3.8	1.49e+00	0	51	104	0	55	19970
2026-01-03 22:01:31.75	33.51	5.50	-41.9	-56.8	3.8	1.49e+00	0	51	104	0	55	19997
2026-01-03 22:01:32.77	33.61	5.55	-41.9	-56.8	3.8	1.49e+00	0	51	104	0	55	20014
2026-01-03 22:01:33.78	33.71	5.61	-41.9	-56.8	3.8	1.49e+00	0	51	104	0	55	19989
2026-01-03 22:01:34.79	33.82	5.66	-41.9	-56.8	3.8	1.49e+00	0	51	104	0	55	19945
2026-01-03 22:01:35.80	33.92	5.72	-41.9	-56.8	3.8	1.49e+00	0	51	104	0	55	20000
2026-01-03 22:01:36.81	34.03	5.77	-41.9	-56.8	3.8	1.49e+00	0	51	104	0	55	19962
2026-01-03 22:01:37.82	34.13	5.83	-41.9	-56.8	3.8	1.49e+00	0	51	104	0	55	19960
2026-01-03 22:01:38.83	34.24	5.88	-41.9	-56.8	3.8	1.49e+00	0	51	104	0	55	20016
2026-01-03 22:01:39.84	34.34	5.94	-41.9	-56.8	3.8	1.49e+00	0	51	104	0	55	20009
2026-01-03 22:01:40.85	34.45	5.99	-42.0	-56.8	3.8	1.49e+00	0	51	104	0	55	19993
2026-01-03 22:01:41.86	34.56	6.05	-41.9	-56.8	3.8	1.49e+00	0	51	104	0	55	20013
2026-01-03 22:01:42.88	34.66	6.10	-41.9	-56.8	3.8	1.49e+00	0	51	104	0	55	20063
2026-01-03 22:01:43.89	34.77	6.16	-41.9	-56.8	3.8	1.49e+00	0	52	104	0	55	20025
2026-01-03 22:01:44.90	34.88	6.21	-41.9	-56.8	3.8	1.49e+00	0	51	104	0	55	19986
2026-01-03 22:01:45.91	34.99	6.27	-41.9	-56.8	3.8	1.49e+00	0	51	104	0	55	20031
2026-01-03 22:01:46.92	35.10	6.32	-41.9	-56.8	3.8	1.49e+00	0	51	104	0	55	20030
2026-01-03 22:01:47.93	35.21	6.38	-41.9	-56.8	3.8	1.49e+00	0	52	104	0	55	19999
2026-01-03 22:01:48.94	35.32	6.43	-41.9	-56.8	3.8	1.49e+00	0	52	104	0	55	20005
2026-01-03 22:01:49.95	35.43	6.49	-41.9	-56.8	3.8	1.49e+00	0	52	104	0	55	20033
2026-01-03 22:01:50.96	35.54	6.54	-42.0	-56.8	3.8	1.49e+00	0	51	104	0	55	19944
2026-01-03 22:01:51.98	35.65	6.60	-42.0	-56.8	3.8	1.49e+00	0	52	104	0	55	20011
2026-01-03 22:01:52.99	35.76	6.65	-42.0	-56.8	3.8	1.49e+00	0	52	104	0	55	20065
2026-01-03 22:01:53.99	35.87	6.71	-41.9	-56.8	3.8	1.49e+00	0	52	104	0	55	20035
2026-01-03 22:01:55.01	35.98	6.76	-41.9	-56.8	3.8	1.49e+00	0	52	104	0	55	19948
2026-01-03 22:01:56.02	36.09	6.82	-42.0	-56.8	3.8	1.49e+00	0	52	104	0	55	19968
2026-01-03 22:01:57.03	36.21	6.87	-41.9	-56.8	3.8	1.49e+00	0	52	104	0	55	19891
2026-01-03 22:01:58.04	36.32	6.93	-41.9	-56.7	3.8	1.49e+00	0	52	104	0	55	19837
2026-01-03 22:01:59.05	36.43	6.99	-42.0	-56.8	3.8	1.49e+00	0	52	104	0	55	19957
2026-01-03 22:02:00.06	36.55	7.04	-41.9	-56.8	3.8	1.49e+00	0	52	104	0	55	20061
2026-01-03 22:02:01.07	36.66	7.10	-42.0	-56.8	3.8	1.49e+00	0	52	104	0	55	19986
2026-01-03 22:02:02.08	36.78	7.15	-41.9	-56.8	3.8	1.49e+00	0	52	104	0	55	19980
2026-01-03 22:02:03.10	36.89	7.21	-42.0	-56.8	3.8	1.49e+00	0	52	104	0	55	20001
2026-01-03 22:02:04.11	37.01	7.26	-42.0	-56.8	3.8	1.49e+00	0	52	104	0	55	20068
2026-01-03 22:02:05.12	37.13	7.32	-41.9	-56.8	3.8	1.49e+00	0	52	104	0	55	19992
2026-01-03 22:02:06.13	37.24	7.38	-41.9	-56.8	3.8	1.49e+00	0	52	104	0	55	19874
2026-01-03 22:02:07.14	37.36	7.43	-41.9	-56.5	3.8	1.49e+00	0	52	104	0	55	19365
2026-01-03 22:02:08.15	37.48	7.49	-41.9	-55.9	3.8	1.49e+00	0	52	104	0	55	17897
2026-01-03 22:02:09.16	37.59	7.54	-41.9	-54.9	3.8	1.49e+00	0	52	104	0	55	16094
2026-01-03 22:02:10.17	37.71	7.60	-41.7	-53.3	4.2	1.48e+00	0	52	104	0	55	13351
2026-01-03 22:02:11.18	37.83	7.65	-41.4	-50.6	5.3	9.44e-01	0	52	0	1048576	54	10382
2026-01-03 22:02:12.19	37.95	7.71	-41.0	-48.4	7.1	3.55e-01	0	52	0	3145728	54	8020
2026-01-03 22:02:13.21	38.07	7.77	-40.5	-46.5	8.9	5.10e-02	0	53	0	5242880	53	6873
2026-01-03 22:02:14.22	38.19	7.82	-39.9	-44.7	10.9	8.75e-03	0	52	0	6291456	51	6230
2026-01-03 22:02:15.23	38.31	7.88	-39.5	-43.8	11.9	1.06e-03	0	52	0	8388608	51	5600
2026-01-03 22:02:16.24	38.43	7.93	-39.2	-43.2	12.5	2.29e-04	0	53	0	10485760	50	5563
2026-01-03 22:02:17.25	38.55	7.99	-39.4	-43.5	12.2	1.40e-04	0	53	0	12582912	50	5749
2026-01-03 22:02:18.26	38.68	8.05	-39.8	-44.3	11.4	5.68e-04	0	53	0	14680064	50	6308
2026-01-03 22:02:19.27	38.80	8.10	-40.4	-45.1	11.1	1.27e-03	0	53	0	15728640	51	6530
2026-01-03 22:02:20.28	38.92	8.16	-40.5	-45.4	10.6	1.12e-02	0	53	0	17825792	52	6411
2026-01-03 22:02:21.29	39.04	8.21	-40.4	-46.8	8.4	1.27e-02	0	53	0	19922944	51	7944
2026-01-03 22:02:22.30	39.17	8.27	-40.9	-48.4	6.5	7.71e-01	0	53	0	22020096	52	9019
2026-01-03 22:02:23.31	39.29	8.33	-41.1	-46.3	10.0	7.02e-03	0	53	0	24117248	53	6697
2026-01-03 22:02:24.32	39.42	8.38	-40.3	-44.4	12.0	4.94e-04	0	53	0	25165824	52	5713
2026-01-03 22:02:25.33	39.54	8.44	-40.2	-44.3	12.0	3.84e-04	0	53	0	27262976	52	5647
2026-01-03 22:02:26.34	39.67	8.50	-40.1	-44.0	12.3	1.46e-04	0	53	0	29360128	52	5457
2026-01-03 22:02:27.35	39.79	8.55	-40.2	-44.3	12.0	2.39e-04	0	53	0	31457280	52	5636
2026-01-03 22:02:28.36	39.92	8.61	-40.2	-44.3	12.1	2.47e-04	0	53	0	33554432	52	5595
2026-01-03 22:02:29.37	40.04	8.66	-40.2	-44.3	12.2	1.94e-04	0	53	0	34603008	52	5593
2026-01-03 22:02:30.38	40.17	8.72	-40.1	-44.1	12.4	1.37e-04	0	53	0	36700160	52	5472
2026-01-03 22:02:31.38	40.30	8.78	-40.2	-44.2	12.3	2.10e-04	0	53	0	38797312	52	5556
2026-01-03 22:02:32.39	40.43	8.83	-40.2	-44.1	12.4	1.99e-04	0	53	0	40894464	52	5468
2026-01-03 22:02:33.40	40.56	8.89	-40.3	-44.3	12.2	1.89e-04	0	53	0	42991616	52	5630
2026-01-03 22:02:34.41	40.68	8.94	-40.2	-44.2	12.3	2.11e-04	0	53	0	44040192	52	5572
2026-01-03 22:02:35.42	40.81	9.00	-40.2	-44.2	12.4	1.28e-04	0	53	0	46137344	52	5533
2026-01-03 22:02:36.43	40.94	9.06	-40.3	-44.3	12.3	2.52e-04	0	53	0	48234496	52	5619
2026-01-03 22:02:37.44	41.08	9.11	-40.4	-44.5	12.1	2.22e-04	0	53	0	50331648	52	5782
2026-01-03 22:02:38.45	41.21	9.17	-40.4	-44.5	12.1	2.33e-04	0	53	0	52428800	52	5731
2026-01-03 22:02:39.46	41.34	9.22	-40.4	-44.5	12.1	3.17e-04	0	53	0	54525952	52	5764
2026-01-03 22:02:40.46	41.47	9.28	-40.5	-44.6	12.0	2.30e-04	0	53	0	55574528	52	5840
2026-01-03 22:02:41.48	41.60	9.34	-40.4	-44.5	12.1	3.57e-04	0	53	0	57671680	52	5758
2026-01-03 22:02:42.49	41.74	9.39	-40.5	-44.5	12.1	2.93e-04	0	53	0	59768832	52	5784
2026-01-03 22:02:43.50	41.87	9.45	-40.5	-44.7	12.0	4.02e-04	0	53	0	61865984	52	5864
2026-01-03 22:02:44.51	42.00	9.50	-40.4	-44.4	12.3	3.41e-04	0	53	0	63963136	52	5669
2026-01-03 22:02:45.52	42.14	9.56	-40.5	-44.5	12.1	1.63e-04	0	53	0	65011712	52	5746
2026-01-03 22:02:46.53	42.27	9.62	-40.5	-44.5	12.2	2.34e-04	0	53	0	67108864	52	5729
2026-01-03 22:02:47.54	42.41	9.67	-40.6	-44.7	11.9	2.04e-04	0	53	0	69206016	52	5889
2026-01-03 22:02:48.54	42.54	9.73	-40.6	-44.5	12.2	2.99e-04	0	53	0	71303168	52	5784
2026-01-03 22:02:49.55	42.68	9.78	-40.5	-44.5	12.2	1.45e-04	0	54	0	73400320	52	5782
2026-01-03 22:02:50.56	42.82	9.84	-40.5	-44.4	12.3	1.86e-04	0	53	0	74448896	52	5717
2026-01-03 22:02:51.57	42.96	9.90	-40.4	-44.3	12.5	9.91e-05	0	53	0	76546048	52	5600
2026-01-03 22:02:52.58	43.09	9.95	-40.4	-44.2	12.6	1.06e-04	0	53	0	78643200	52	5562
2026-01-03 22:02:53.59	43.23	10.01	-40.4	-44.1	12.8	9.15e-05	0	54	0	80740352	52	5488
2026-01-03 22:02:54.60	43.37	10.06	-40.3	-43.8	13.1	2.36e-05	0	53	0	82837504	52	5338
2026-01-03 22:02:55.61	43.51	10.12	-40.2	-43.7	13.2	2.59e-05	0	54	0	83886080	52	5253
2026-01-03 22:02:56.62	43.65	10.18	-40.2	-43.7	13.2	1.37e-05	0	53	0	85983232	52	5224
2026-01-03 22:02:57.63	43.79	10.23	-40.1	-43.5	13.4	1.29e-05	0	54	0	88080384	52	5153
2026-01-03 22:02:58.64	43.93	10.29	-40.0	-43.3	13.7	6.80e-06	0	54	0	90177536	51	5305
2026-01-03 22:02:59.65	44.08	10.34	-40.0	-43.2	13.8	3.80e-06	0	54	0	92274688	51	5262
2026-01-03 22:03:00.66	44.22	10.40	-39.9	-43.0	14.0	1.50e-06	0	54	0	93323264	51	5150
2026-01-03 22:03:01.67	44.36	10.46	-40.0	-43.3	13.8	1.50e-06	0	54	0	95420416	51	5295
2026-01-03 22:03:02.67	44.50	10.51	-40.0	-43.2	13.9	6.10e-06	0	54	0	97517568	51	5230
2026-01-03 22:03:03.68	44.65	10.57	-39.9	-43.1	14.0	2.20e-06	0	54	0	99614720	51	5165
2026-01-03 22:03:04.69	44.79	10.62	-39.9	-43.1	14.0	3.80e-06	0	54	0	101711872	51	5181
2026-01-03 22:03:05.70	44.94	10.68	-40.0	-43.2	13.9	1.50e-06	0	54	0	102760448	51	5236
2026-01-03 22:03:06.71	45.08	10.73	-39.9	-43.0	14.2	2.20e-06	0	54	0	104857600	51	5116
2026-01-03 22:03:07.72	45.23	10.79	-39.8	-42.8	14.3	0.00e+00	0	54	0	106954752	51	5013
2026-01-03 22:03:08.73	45.37	10.85	-39.5	-42.4	14.7	0.00e+00	0	54	0	109051904	51	4810
2026-01-03 22:03:09.74	45.52	10.90	-39.5	-42.3	14.8	7.00e-07	0	54	0	111149056	50	5037
2026-01-03 22:03:10.75	45.67	10.96	-39.4	-42.2	15.0	0.00e+00	0	54	0	112197632	50	4947
2026-01-03 22:03:11.76	45.82	11.01	-39.3	-42.0	15.2	0.00e+00	0	54	0	114294784	50	4852
2026-01-03 22:03:12.77	45.97	11.07	-39.3	-42.0	15.2	0.00e+00	0	54	0	116391936	50	4818
2026-01-03 22:03:13.78	46.11	11.12	-39.3	-42.1	15.1	0.00e+00	0	54	0	118489088	50	4877
2026-01-03 22:03:14.79	46.26	11.18	-39.4	-42.3	14.9	7.00e-07	0	54	0	120586240	50	4984
2026-01-03 22:03:15.80	46.41	11.23	-39.6	-42.5	14.7	1.50e-06	0	54	0	122683392	50	5106
2026-01-03 22:03:16.81	46.57	11.29	-39.5	-42.4	14.8	0.00e+00	0	54	0	123731968	50	5083
2026-01-03 22:03:17.82	46.72	11.34	-39.6	-42.6	14.6	0.00e+00	0	54	0	125829120	50	5205
2026-01-03 22:03:18.83	46.87	11.40	-39.6	-42.6	14.6	0.00e+00	0	54	0	127926272	50	5196
2026-01-03 22:03:19.84	47.02	11.45	-39.7	-42.8	14.4	1.50e-06	0	54	0	130023424	50	5289
2026-01-03 22:03:20.85	47.17	11.51	-39.6	-42.6	14.6	0.00e+00	0	54	0	132120576	50	5185
2026-01-03 22:03:21.86	47.33	11.56	-39.5	-42.4	14.8	0.00e+00	0	54	0	133169152	50	5068
2026-01-03 22:03:22.87	47.48	11.62	-39.6	-42.6	14.7	0.00e+00	0	54	0	135266304	50	5178
2026-01-03 22:03:23.88	47.64	11.67	-39.5	-42.3	14.9	0.00e+00	0	54	0	137363456	50	5018
2026-01-03 22:03:24.89	47.79	11.73	-39.6	-42.5	14.7	0.00e+00	0	54	0	139460608	50	5125
2026-01-03 22:03:25.90	47.95	11.78	-39.4	-42.2	15.0	0.00e+00	0	54	0	141557760	50	4974
2026-01-03 22:03:26.91	48.11	11.84	-39.5	-42.3	15.0	0.00e+00	0	54	0	142606336	50	5013
2026-01-03 22:03:27.92	48.26	11.89	-39.4	-42.3	15.0	0.00e+00	0	54	0	144703488	50	4987
2026-01-03 22:03:28.93	48.42	11.95	-39.5	-42.3	14.9	0.00e+00	0	54	0	146800640	50	5019
2026-01-03 22:03:29.94	48.58	12.00	-39.4	-42.3	15.0	0.00e+00	0	54	0	148897792	50	5002
2026-01-03 22:03:30.95	48.74	12.06	-39.4	-42.2	15.0	0.00e+00	0	54	0	150994944	50	4953
2026-01-03 22:03:31.96	48.90	12.11	-39.4	-42.2	15.1	0.00e+00	0	54	0	152043520	50	4938
2026-01-03 22:03:32.97	49.06	12.17	-39.4	-42.1	15.1	0.00e+00	0	54	0	154140672	50	4914
2026-01-03 22:03:33.98	49.22	12.22	-39.4	-42.2	15.1	0.00e+00	0	54	0	156237824	50	4932
2026-01-03 22:03:34.99	49.38	12.27	-39.4	-42.1	15.1	0.00e+00	0	54	0	158334976	50	4906
2026-01-03 22:03:36.00	49.54	12.33	-39.4	-42.2	15.1	0.00e+00	0	54	0	160432128	50	4966
2026-01-03 22:03:37.01	49.70	12.38	-39.5	-42.4	14.9	0.00e+00	0	55	0	161480704	50	5068
2026-01-03 22:03:38.02	49.87	12.44	-39.5	-42.3	15.0	0.00e+00	0	54	0	163577856	50	5012
2026-01-03 22:03:39.03	50.03	12.49	-39.5	-42.4	14.9	0.00e+00	0	54	0	165675008	50	5078
2026-01-03 22:03:40.03	50.19	12.54	-39.5	-42.4	14.8	1.50e-06	0	55	0	167772160	50	5092
2026-01-03 22:03:41.04	50.36	12.60	-39.5	-42.4	14.8	7.00e-07	0	55	0	169869312	50	5097
2026-01-03 22:03:42.05	50.52	12.65	-39.5	-42.4	14.9	0.00e+00	0	54	0	170917888	50	5072
2026-01-03 22:03:43.06	50.69	12.70	-39.6	-42.5	14.8	0.00e+00	0	54	0	173015040	50	5126
2026-01-03 22:03:44.07	50.85	12.76	-39.6	-42.6	14.8	0.00e+00	0	54	0	175112192	50	5172
2026-01-03 22:03:45.08	51.02	12.81	-39.5	-42.4	14.9	0.00e+00	0	54	0	177209344	50	5062
2026-01-03 22:03:46.09	51.19	12.86	-39.6	-42.5	14.8	0.00e+00	0	55	0	179306496	50	5115
2026-01-03 22:03:47.10	51.36	12.92	-39.6	-42.5	14.8	0.00e+00	0	54	0	180355072	50	5116
2026-01-03 22:03:48.11	51.52	12.97	-39.5	-42.4	14.9	0.00e+00	0	54	0	182452224	50	5051
2026-01-03 22:03:49.12	51.69	13.02	-39.7	-42.6	14.7	0.00e+00	0	54	0	184549376	50	5177
2026-01-03 22:03:50.13	51.86	13.07	-39.7	-42.7	14.7	7.00e-07	0	55	0	186646528	50	5230
2026-01-03 22:03:51.14	52.03	13.13	-39.7	-42.7	14.6	0.00e+00	0	55	0	188743680	50	5243
2026-01-03 22:03:52.15	52.20	13.18	-39.8	-42.8	14.5	1.50e-06	0	55	0	190840832	50	5338
2026-01-03 22:03:53.15	52.37	13.23	-39.9	-43.0	14.3	1.50e-06	0	55	0	191889408	50	5414
2026-01-03 22:03:54.17	52.55	13.28	-39.9	-43.0	14.4	1.50e-06	0	55	0	193986560	50	5413
2026-01-03 22:03:55.18	52.72	13.34	-39.9	-43.1	14.2	0.00e+00	0	55	0	196083712	50	5475
2026-01-03 22:03:56.19	52.89	13.39	-39.8	-42.9	14.4	0.00e+00	0	55	0	198180864	50	5383
2026-01-03 22:03:57.19	53.07	13.44	-39.9	-43.0	14.3	7.00e-07	0	55	0	200278016	50	5424
2026-01-03 22:03:58.20	53.24	13.49	-39.8	-42.8	14.5	7.00e-07	0	55	0	201326592	50	5323
2026-01-03 22:03:59.21	53.42	13.54	-39.8	-42.8	14.6	0.00e+00	0	54	0	203423744	50	5304
2026-01-03 22:04:00.22	53.59	13.59	-39.8	-42.8	14.5	7.00e-07	0	55	0	205520896	50	5307
2026-01-03 22:04:01.23	53.77	13.64	-39.9	-43.0	14.3	7.00e-07	0	55	0	207618048	50	5447
2026-01-03 22:04:02.24	53.95	13.70	-40.0	-43.2	14.2	1.50e-06	0	55	0	209715200	50	5544
2026-01-03 22:04:03.25	54.12	13.75	-40.2	-43.5	13.9	1.50e-06	0	55	0	210763776	50	5740
2026-01-03 22:04:04.26	54.30	13.80	-40.2	-43.5	13.8	6.80e-06	0	55	0	212860928	50	5740
2026-01-03 22:04:05.27	54.48	13.85	-40.2	-43.5	13.8	6.80e-06	0	55	0	214958080	51	5443
2026-01-03 22:04:06.28	54.66	13.90	-40.3	-43.6	13.7	6.80e-06	0	55	0	217055232	51	5513
2026-01-03 22:04:07.29	54.84	13.95	-40.1	-43.4	13.9	7.60e-06	0	55	0	219152384	51	5386
2026-01-03 22:04:08.30	55.02	14.00	-40.2	-43.5	13.9	3.00e-06	0	55	0	220200960	51	5411
2026-01-03 22:04:09.31	55.20	14.05	-40.2	-43.5	13.9	1.50e-06	0	55	0	222298112	51	5428
2026-01-03 22:04:10.32	55.38	14.10	-40.1	-43.3	14.0	4.50e-06	0	55	0	224395264	51	5313
2026-01-03 22:04:11.32	55.56	14.15	-40.2	-43.4	13.9	4.50e-06	0	55	0	226492416	51	5388
2026-01-03 22:04:12.33	55.75	14.20	-40.1	-43.4	13.9	2.20e-06	0	55	0	228589568	51	5364
2026-01-03 22:04:13.34	55.93	14.25	-40.0	-43.2	14.2	3.00e-06	0	55	0	229638144	51	5233
2026-01-03 22:04:14.35	56.11	14.30	-40.1	-43.3	14.1	2.20e-06	0	55	0	231735296	51	5286
2026-01-03 22:04:15.36	56.30	14.35	-40.0	-43.2	14.2	3.00e-06	0	55	0	233832448	51	5246
2026-01-03 22:04:16.37	56.48	14.40	-40.0	-43.2	14.1	2.20e-06	0	55	0	235929600	51	5261
2026-01-03 22:04:17.38	56.67	14.44	-40.2	-43.4	13.9	4.50e-06	0	55	0	238026752	51	5373
2026-01-03 22:04:18.39	56.86	14.49	-40.3	-43.6	13.7	5.30e-06	0	55	0	239075328	51	5500
2026-01-03 22:04:19.40	57.04	14.54	-40.3	-43.7	13.6	8.30e-06	0	55	0	241172480	51	5564
2026-01-03 22:04:20.41	57.23	14.59	-40.4	-43.9	13.5	3.80e-06	0	55	0	243269632	51	5671
2026-01-03 22:04:21.42	57.42	14.64	-40.5	-44.0	13.3	1.60e-05	0	55	0	245366784	51	5750
2026-01-03 22:04:22.43	57.61	14.69	-40.4	-43.9	13.4	6.80e-06	0	55	0	247463936	51	5694
2026-01-03 22:04:23.44	57.80	14.73	-40.2	-43.6	13.8	6.80e-06	0	55	0	248512512	51	5486
2026-01-03 22:04:24.45	57.99	14.78	-40.2	-43.5	13.8	8.30e-06	0	55	0	250609664	51	5441
2026-01-03 22:04:25.46	58.18	14.83	-40.1	-43.4	14.0	2.20e-06	0	55	0	252706816	51	5349
2026-01-03 22:04:26.47	58.37	14.87	-40.1	-43.3	14.0	2.20e-06	0	55	0	254803968	51	5339
2026-01-03 22:04:27.48	58.56	14.92	-40.0	-43.1	14.3	2.20e-06	0	55	0	256901120	51	5184
2026-01-03 22:04:28.49	58.76	14.97	-40.2	-43.4	14.0	7.00e-07	0	55	0	258998272	51	5402
2026-01-03 22:04:29.50	58.95	15.01	-40.2	-43.5	13.8	3.80e-06	0	55	0	260046848	51	5450
2026-01-03 22:04:30.51	59.14	15.06	-40.2	-43.6	13.7	3.00e-06	0	55	0	262144000	51	5508
2026-01-03 22:04:31.52	59.34	15.11	-40.4	-43.8	13.5	1.14e-05	0	55	0	264241152	51	5647
2026-01-03 22:04:32.53	59.53	15.15	-40.3	-43.8	13.6	8.30e-06	0	55	0	266338304	51	5599
2026-01-03 22:04:33.54	59.73	15.20	-40.4	-43.9	13.4	1.52e-05	0	55	0	268435456	51	5659
2026-01-03 22:04:34.55	59.92	15.24	-40.4	-43.8	13.5	1.44e-05	0	55	0	269484032	51	5644
2026-01-03 22:04:35.56	60.12	15.29	-40.4	-43.8	13.5	1.22e-05	0	55	0	271581184	51	5638
2026-01-03 22:04:36.57	60.32	15.33	-40.5	-44.0	13.3	1.06e-05	0	55	0	273678336	51	5759
2026-01-03 22:04:37.58	60.51	15.38	-40.6	-44.2	13.1	1.90e-05	0	55	0	275775488	51	5868
2026-01-03 22:04:38.59	60.71	15.42	-40.6	-44.2	13.2	2.44e-05	0	55	0	277872640	51	5866
2026-01-03 22:04:39.60	60.91	15.47	-40.6	-44.2	13.1	2.89e-05	0	55	0	278921216	51	5877
2026-01-03 22:04:40.61	61.11	15.51	-40.6	-44.3	13.1	3.43e-05	0	55	0	281018368	51	5926
2026-01-03 22:04:41.62	61.31	15.55	-40.4	-43.9	13.4	2.05e-05	0	55	0	283115520	51	5692
2026-01-03 22:04:42.63	61.51	15.60	-40.4	-43.7	13.6	1.14e-05	0	55	0	285212672	51	5581
2026-01-03 22:04:43.65	61.71	15.64	-40.2	-43.5	13.9	3.80e-06	0	55	0	287309824	51	5406
2026-01-03 22:04:44.66	61.92	15.68	-40.1	-43.3	14.0	2.20e-06	0	55	0	288358400	51	5329
2026-01-03 22:04:45.67	62.12	15.73	-40.2	-43.4	13.9	2.20e-06	0	55	0	290455552	51	5355
2026-01-03 22:04:46.68	62.32	15.77	-40.2	-43.4	13.8	1.50e-06	0	55	0	292552704	51	5376
2026-01-03 22:04:47.69	62.53	15.81	-40.3	-43.6	13.7	2.20e-06	0	55	0	294649856	51	5510
2026-01-03 22:04:48.70	62.73	15.85	-40.5	-44.1	13.1	2.21e-05	0	55	0	296747008	51	5828
2026-01-03 22:04:49.71	62.93	15.89	-40.4	-43.9	13.3	1.14e-05	0	55	0	297795584	51	5681
2026-01-03 22:04:50.72	63.14	15.94	-40.4	-43.8	13.4	1.29e-05	0	55	0	299892736	51	5646
2026-01-03 22:04:51.73	63.34	15.98	-40.3	-43.7	13.5	1.37e-05	0	55	0	301989888	51	5558
2026-01-03 22:04:52.73	63.55	16.02	-40.1	-43.4	13.8	6.80e-06	0	55	0	304087040	51	5402
2026-01-03 22:04:53.74	63.76	16.06	-39.9	-43.1	14.1	3.80e-06	0	55	0	306184192	51	5187
2026-01-03 22:04:54.75	63.96	16.10	-39.9	-43.1	14.1	7.00e-07	0	55	0	307232768	51	5186
2026-01-03 22:04:55.76	64.17	16.14	-39.8	-42.9	14.2	1.50e-06	0	55	0	309329920	51	5075
2026-01-03 22:04:56.77	64.38	16.18	-39.9	-43.0	14.2	0.00e+00	0	55	0	311427072	51	5126
2026-01-03 22:04:57.78	64.59	16.22	-39.9	-43.0	14.1	3.80e-06	0	55	0	313524224	51	5140
2026-01-03 22:04:58.79	64.80	16.26	-39.8	-42.9	14.2	1.50e-06	0	55	0	315621376	51	5089
2026-01-03 22:04:59.80	65.01	16.30	-39.7	-42.7	14.4	1.50e-06	0	55	0	316669952	51	4951
2026-01-03 22:05:00.81	65.22	16.33	-39.8	-42.9	14.2	1.50e-06	0	55	0	318767104	51	5053
2026-01-03 22:05:01.82	65.43	16.37	-39.9	-43.0	13.9	3.80e-06	0	55	0	320864256	51	5144
2026-01-03 22:05:02.83	65.64	16.41	-39.7	-42.8	14.1	0.00e+00	0	55	0	322961408	51	5020
2026-01-03 22:05:03.83	65.85	16.45	-39.9	-43.1	13.8	2.20e-06	0	55	0	325058560	51	5203
2026-01-03 22:05:04.84	66.06	16.48	-39.9	-43.2	13.8	7.00e-07	0	55	0	326107136	51	5223
2026-01-03 22:05:05.85	66.28	16.52	-39.9	-43.3	13.6	3.00e-06	0	55	0	328204288	51	5291
2026-01-03 22:05:06.86	66.49	16.56	-39.9	-43.2	13.7	6.10e-06	0	55	0	330301440	51	5233
2026-01-03 22:05:07.87	66.71	16.59	-39.9	-43.3	13.5	5.30e-06	0	56	0	332398592	51	5331
2026-01-03 22:05:08.88	66.92	16.63	-39.8	-43.1	13.6	8.30e-06	0	55	0	334495744	51	5195
2026-01-03 22:05:09.89	67.14	16.67	-39.7	-42.9	13.7	1.22e-05	0	55	0	336592896	51	5076
2026-01-03 22:05:10.90	67.35	16.70	-39.7	-43.1	13.4	5.30e-06	0	55	0	337641472	51	5201
2026-01-03 22:05:11.91	67.57	16.74	-39.6	-43.0	13.5	1.06e-05	0	55	0	339738624	51	5112
2026-01-03 22:05:12.92	67.78	16.77	-39.8	-43.3	13.0	2.21e-05	0	55	0	341835776	51	5335
2026-01-03 22:05:13.93	68.00	16.80	-39.9	-43.7	12.5	6.40e-05	0	55	0	343932928	51	5588
2026-01-03 22:05:14.94	68.22	16.84	-40.1	-44.2	11.9	2.69e-04	0	55	0	346030080	51	5896
2026-01-03 22:05:15.95	68.44	16.87	-40.2	-44.6	11.4	7.37e-04	0	55	0	347078656	51	6152
2026-01-03 22:05:16.96	68.66	16.90	-40.3	-44.9	10.8	1.50e-03	0	55	0	349175808	51	6388
2026-01-03 22:05:17.97	68.88	16.94	-40.3	-45.1	10.5	3.87e-03	0	55	0	351272960	51	6522
2026-01-03 22:05:18.98	69.10	16.97	-40.2	-45.1	10.4	4.80e-03	0	55	0	353370112	51	6558
2026-01-03 22:05:19.99	69.32	17.00	-40.3	-45.5	9.8	6.93e-03	0	55	0	355467264	51	6857
2026-01-03 22:05:21.00	69.54	17.03	-40.2	-45.4	9.8	1.17e-02	0	55	0	356515840	51	6791
2026-01-03 22:05:22.00	69.75	17.07	-40.2	-45.6	9.5	1.42e-02	0	55	0	358612992	51	6893
2026-01-03 22:05:23.01	69.98	17.10	-40.1	-45.6	9.4	1.54e-02	0	55	0	360710144	51	6932
2026-01-03 22:05:24.02	70.20	17.13	-40.1	-45.5	9.4	1.51e-02	0	55	0	362807296	51	6878
2026-01-03 22:05:25.03	70.42	17.16	-40.0	-45.5	9.4	1.74e-02	0	56	0	364904448	51	6816
2026-01-03 22:05:26.04	70.64	17.19	-39.8	-45.2	9.6	1.34e-02	0	55	0	365953024	51	6600
2026-01-03 22:05:27.05	70.87	17.22	-39.7	-45.2	9.4	1.44e-02	0	56	0	368050176	51	6610
2026-01-03 22:05:28.06	71.09	17.25	-39.7	-45.2	9.3	1.95e-02	0	56	0	370147328	51	6630
2026-01-03 22:05:29.07	71.31	17.27	-39.8	-45.7	8.8	2.46e-02	0	55	0	372244480	51	6994
2026-01-03 22:05:30.08	71.54	17.30	-39.9	-46.0	8.4	3.79e-02	0	56	0	374341632	51	7265
2026-01-03 22:05:31.09	71.76	17.33	-40.0	-46.4	8.1	6.39e-02	0	56	0	375390208	51	7584
2026-01-03 22:05:32.10	71.99	17.36	-40.1	-46.7	7.7	8.26e-02	0	56	0	377487360	51	7867
2026-01-03 22:05:33.11	72.21	17.39	-40.1	-47.0	7.4	9.67e-02	0	56	0	379584512	51	8141
2026-01-03 22:05:34.12	72.44	17.41	-40.1	-46.8	7.6	1.01e-01	0	56	0	381681664	51	7959
2026-01-03 22:05:35.13	72.67	17.44	-40.0	-46.5	7.9	8.06e-02	0	56	0	383778816	51	7692
2026-01-03 22:05:36.14	72.89	17.47	-39.9	-46.2	8.1	6.21e-02	0	56	0	384827392	51	7456
2026-01-03 22:05:37.15	73.12	17.49	-39.9	-46.2	8.2	5.22e-02	0	55	0	386924544	51	7392
2026-01-03 22:05:38.16	73.35	17.52	-40.0	-46.3	8.1	6.21e-02	0	56	0	389021696	51	7471
2026-01-03 22:05:39.17	73.58	17.54	-40.1	-46.6	7.8	7.38e-02	0	56	0	391118848	51	7798
2026-01-03 22:05:40.18	73.81	17.57	-40.1	-46.7	7.7	8.18e-02	0	56	0	393216000	51	7857
2026-01-03 22:05:41.19	74.03	17.59	-40.1	-46.7	7.8	8.85e-02	0	56	0	394264576	51	7844
2026-01-03 22:05:42.20	74.26	17.61	-40.0	-46.4	8.1	7.64e-02	0	55	0	396361728	51	7554
2026-01-03 22:05:43.21	74.49	17.64	-40.0	-46.2	8.3	6.05e-02	0	56	0	398458880	51	7429
2026-01-03 22:05:44.22	74.72	17.66	-40.1	-46.2	8.3	4.76e-02	0	56	0	400556032	51	7415
2026-01-03 22:05:45.23	74.95	17.68	-40.1	-46.2	8.4	4.35e-02	0	56	0	402653184	51	7385
2026-01-03 22:05:46.24	75.18	17.70	-40.0	-46.1	8.5	4.38e-02	0	56	0	404750336	51	7306
2026-01-03 22:05:47.25	75.41	17.72	-40.1	-46.1	8.5	4.37e-02	0	56	0	405798912	51	7360
2026-01-03 22:05:48.26	75.65	17.75	-40.1	-46.0	8.6	4.08e-02	0	56	0	407896064	51	7247
2026-01-03 22:05:49.27	75.88	17.77	-40.1	-46.0	8.7	3.59e-02	0	56	0	409993216	51	7253
2026-01-03 22:05:50.28	76.11	17.79	-40.0	-45.6	9.1	2.51e-02	0	56	0	412090368	51	6919
2026-01-03 22:05:51.29	76.34	17.81	-40.0	-45.6	9.2	1.85e-02	0	56	0	414187520	51	6886
2026-01-03 22:05:52.31	76.58	17.83	-40.0	-45.6	9.1	1.92e-02	0	56	0	415236096	51	6943
2026-01-03 22:05:53.31	76.81	17.84	-40.1	-45.9	8.9	2.59e-02	0	56	0	417333248	51	7125
2026-01-03 22:05:54.32	77.04	17.86	-40.2	-46.2	8.6	3.08e-02	0	56	0	419430400	51	7452
2026-01-03 22:05:55.34	77.27	17.88	-40.4	-46.7	8.2	5.33e-02	0	56	0	421527552	51	7828
2026-01-03 22:05:56.35	77.51	17.90	-40.5	-47.1	7.7	7.34e-02	0	56	0	423624704	51	8198
2026-01-03 22:05:57.35	77.74	17.91	-40.5	-47.2	7.6	9.51e-02	0	56	0	424673280	51	8308
2026-01-03 22:05:58.37	77.98	17.93	-40.4	-47.1	7.6	9.10e-02	0	56	0	426770432	51	8222
2026-01-03 22:05:59.38	78.21	17.95	-40.4	-47.0	7.6	9.67e-02	0	56	0	428867584	51	8167
2026-01-03 22:06:00.39	78.44	17.96	-40.4	-47.1	7.6	9.58e-02	0	56	0	430964736	51	8266
2026-01-03 22:06:01.40	78.68	17.98	-40.4	-47.0	7.7	1.03e-01	0	56	0	433061888	51	8139
2026-01-03 22:06:02.41	78.91	17.99	-40.4	-47.1	7.7	9.09e-02	0	56	0	434110464	51	8183
2026-01-03 22:06:03.42	79.15	18.01	-40.4	-46.9	7.8	8.45e-02	0	56	0	436207616	51	8072
2026-01-03 22:06:04.43	79.39	18.02	-40.4	-46.9	7.9	7.29e-02	0	56	0	438304768	51	8019
2026-01-03 22:06:05.44	79.62	18.04	-40.2	-46.2	8.6	5.71e-02	0	56	0	440401920	51	7443
2026-01-03 22:06:06.45	79.86	18.05	-40.1	-45.8	9.1	2.85e-02	0	56	0	442499072	51	7056
2026-01-03 22:06:07.46	80.09	18.06	-40.1	-45.3	9.6	1.69e-02	0	56	0	443547648	51	6703
2026-01-03 22:06:08.47	80.33	18.07	-40.1	-45.1	10.1	8.55e-03	0	56	0	445644800	51	6536
2026-01-03 22:06:09.48	80.57	18.08	-40.1	-44.9	10.4	6.62e-03	0	56	0	447741952	51	6416
2026-01-03 22:06:10.49	80.80	18.10	-40.1	-44.8	10.8	3.67e-03	0	56	0	449839104	51	6278
2026-01-03 22:06:11.50	81.04	18.11	-40.2	-44.7	11.1	1.89e-03	0	56	0	451936256	51	6226
2026-01-03 22:06:12.51	81.28	18.12	-40.2	-44.4	11.6	1.34e-03	0	56	0	452984832	51	6002
2026-01-03 22:06:13.52	81.51	18.13	-40.2	-44.4	11.7	5.81e-04	0	56	0	455081984	51	6000
2026-01-03 22:06:14.52	81.75	18.14	-40.1	-44.0	12.1	2.88e-04	0	56	0	457179136	51	5725
2026-01-03 22:06:15.53	81.99	18.14	-40.2	-44.2	12.0	3.18e-04	0	56	0	459276288	51	5867
2026-01-03 22:06:16.54	82.22	18.15	-40.2	-44.3	11.9	3.33e-04	0	56	0	461373440	51	5925
2026-01-03 22:06:17.55	82.46	18.16	-40.3	-44.5	11.7	3.97e-04	0	56	0	462422016	51	6063
2026-01-03 22:06:18.56	82.70	18.17	-40.3	-44.4	11.7	6.21e-04	0	56	0	464519168	51	6061
2026-01-03 22:06:19.57	82.94	18.17	-40.3	-44.5	11.5	8.22e-04	0	56	0	466616320	51	6103
2026-01-03 22:06:20.58	83.17	18.18	-40.3	-44.5	11.5	7.39e-04	0	56	0	468713472	51	6087
2026-01-03 22:06:21.58	83.41	18.19	-40.3	-44.4	11.7	6.71e-04	0	56	0	470810624	51	6060
2026-01-03 22:06:22.59	83.65	18.19	-40.3	-44.5	11.5	6.90e-04	0	56	0	472907776	51	6091
2026-01-03 22:06:23.60	83.89	18.20	-40.3	-44.7	11.3	9.42e-04	0	56	0	473956352	51	6245
2026-01-03 22:06:24.61	84.13	18.20	-40.4	-44.9	11.0	1.52e-03	0	56	0	476053504	51	6378
2026-01-03 22:06:25.62	84.36	18.21	-40.5	-45.2	10.5	3.29e-03	0	56	0	478150656	51	6632
2026-01-03 22:06:26.63	84.60	18.21	-40.5	-45.4	10.2	5.08e-03	0	56	0	480247808	51	6783
2026-01-03 22:06:27.64	84.84	18.21	-40.4	-45.3	10.3	4.38e-03	0	56	0	482344960	51	6706
2026-01-03 22:06:28.65	85.08	18.21	-40.3	-45.1	10.4	4.34e-03	0	56	0	483393536	51	6569
2026-01-03 22:06:29.66	85.32	18.22	-40.2	-44.9	10.6	3.65e-03	0	56	0	485490688	51	6370
2026-01-03 22:06:30.67	85.56	18.22	-40.2	-44.8	10.7	3.47e-03	0	56	0	487587840	51	6321
2026-01-03 22:06:31.68	85.80	18.22	-40.3	-45.0	10.5	3.14e-03	0	56	0	489684992	51	6486
2026-01-03 22:06:32.69	86.03	18.22	-40.3	-45.1	10.4	4.05e-03	0	56	0	491782144	51	6495
2026-01-03 22:06:33.70	86.27	18.22	-40.3	-45.2	10.2	4.75e-03	0	56	0	492830720	51	6623
2026-01-03 22:06:34.71	86.51	18.22	-40.4	-45.4	10.1	5.65e-03	0	56	0	494927872	51	6740
2026-01-03 22:06:35.72	86.75	18.22	-40.4	-45.5	9.9	8.43e-03	0	56	0	497025024	51	6832
2026-01-03 22:06:36.73	86.99	18.22	-40.4	-45.6	9.8	8.93e-03	0	56	0	499122176	51	6942
2026-01-03 22:06:37.74	87.23	18.22	-40.5	-45.7	9.8	1.10e-02	0	56	0	501219328	51	6981
2026-01-03 22:06:38.75	87.47	18.21	-40.4	-45.4	10.1	6.52e-03	0	56	0	502267904	51	6784
2026-01-03 22:06:39.76	87.71	18.21	-40.5	-45.4	10.2	5.85e-03	0	56	0	504365056	51	6761
2026-01-03 22:06:40.77	87.94	18.21	-40.6	-45.5	10.2	5.83e-03	0	56	0	506462208	51	6818
2026-01-03 22:06:41.78	88.18	18.20	-40.7	-45.5	10.3	5.33e-03	0	56	0	508559360	51	6875
2026-01-03 22:06:42.79	88.42	18.20	-40.6	-45.3	10.6	4.19e-03	0	56	0	510656512	51	6691
2026-01-03 22:06:43.80	88.66	18.20	-40.6	-45.1	11.1	1.73e-03	0	56	0	511705088	51	6495
2026-01-03 22:06:44.81	88.90	18.19	-40.6	-44.9	11.4	1.18e-03	0	56	0	513802240	51	6360
2026-01-03 22:06:45.82	89.14	18.18	-40.6	-44.9	11.4	1.19e-03	0	56	0	515899392	52	6035
2026-01-03 22:06:46.83	89.38	18.18	-40.5	-44.5	11.8	7.59e-04	0	56	0	517996544	52	5739
2026-01-03 22:06:47.83	89.61	18.17	-40.6	-44.7	11.8	4.95e-04	0	56	0	520093696	52	5868
2026-01-03 22:06:48.84	89.85	18.17	-40.5	-44.4	12.1	3.34e-04	0	56	0	521142272	52	5697
2026-01-03 22:06:49.85	90.09	18.16	-40.4	-44.2	12.4	1.46e-04	0	56	0	523239424	52	5551
2026-01-03 22:06:50.86	90.33	18.15	-40.4	-44.2	12.5	1.01e-04	0	56	0	525336576	52	5535
2026-01-03 22:06:51.87	90.56	18.14	-40.2	-43.7	13.1	4.73e-05	0	56	0	527433728	52	5234
2026-01-03 22:06:52.88	90.80	18.13	-40.1	-43.4	13.5	2.13e-05	0	56	0	529530880	52	5075
2026-01-03 22:06:53.89	91.04	18.12	-40.0	-43.1	13.8	9.90e-06	0	56	0	530579456	52	4912
2026-01-03 22:06:54.90	91.28	18.11	-40.0	-43.0	14.0	3.80e-06	0	56	0	532676608	51	5133
2026-01-03 22:06:55.91	91.51	18.10	-39.8	-42.7	14.4	7.00e-07	0	56	0	534773760	51	4973
2026-01-03 22:06:56.92	91.75	18.09	-39.7	-42.5	14.7	0.00e+00	0	56	0	536870912	51	4844
2026-01-03 22:06:57.93	91.99	18.08	-39.5	-42.1	15.1	0.00e+00	0	56	0	538968064	50	4917
2026-01-03 22:06:58.94	92.22	18.07	-39.4	-42.0	15.3	0.00e+00	0	56	0	541065216	50	4840
2026-01-03 22:06:59.95	92.46	18.06	-39.6	-42.3	15.1	0.00e+00	0	56	0	542113792	50	4993
2026-01-03 22:07:00.96	92.70	18.04	-39.8	-42.6	14.8	0.00e+00	0	56	0	544210944	50	5194
2026-01-03 22:07:01.96	92.93	18.03	-40.0	-42.8	14.6	0.00e+00	0	56	0	546308096	50	5309
2026-01-03 22:07:02.97	93.17	18.02	-40.2	-43.2	14.2	1.50e-06	0	56	0	548405248	50	5555
2026-01-03 22:07:03.98	93.40	18.00	-40.3	-43.3	14.1	0.00e+00	0	56	0	550502400	51	5301
2026-01-03 22:07:04.99	93.64	17.99	-40.4	-43.5	13.9	3.80e-06	0	56	0	551550976	51	5459
2026-01-03 22:07:06.00	93.87	17.97	-40.5	-43.6	13.8	3.80e-06	0	56	0	553648128	51	5510
2026-01-03 22:07:07.01	94.11	17.96	-40.5	-43.6	13.8	1.50e-06	0	56	0	555745280	51	5496
2026-01-03 22:07:08.02	94.34	17.94	-40.4	-43.6	13.9	3.80e-06	0	56	0	557842432	51	5468
2026-01-03 22:07:09.03	94.58	17.93	-40.5	-43.7	13.7	6.80e-06	0	56	0	559939584	51	5547
2026-01-03 22:07:10.04	94.81	17.91	-40.5	-43.7	13.8	4.50e-06	0	56	0	560988160	51	5546
2026-01-03 22:07:11.05	95.05	17.89	-40.4	-43.5	13.9	3.80e-06	0	56	0	563085312	51	5450
2026-01-03 22:07:12.06	95.28	17.87	-40.3	-43.3	14.2	3.00e-06	0	56	0	565182464	51	5284
2026-01-03 22:07:13.07	95.51	17.86	-40.1	-43.0	14.5	0.00e+00	0	56	0	567279616	51	5102
2026-01-03 22:07:14.08	95.75	17.84	-40.0	-42.8	14.6	7.00e-07	0	56	0	569376768	51	5040
2026-01-03 22:07:15.09	95.98	17.82	-39.9	-42.7	14.7	7.00e-07	0	56	0	570425344	51	4976
2026-01-03 22:07:16.10	96.21	17.80	-40.0	-42.8	14.7	0.00e+00	0	56	0	572522496	51	4985
2026-01-03 22:07:17.11	96.44	17.78	-40.0	-42.8	14.7	1.50e-06	0	56	0	574619648	51	4999
2026-01-03 22:07:18.12	96.68	17.76	-40.0	-42.8	14.6	7.00e-07	0	56	0	576716800	51	5017
2026-01-03 22:07:19.13	96.91	17.74	-40.2	-43.2	14.3	0.00e+00	0	56	0	578813952	51	5237
2026-01-03 22:07:20.14	97.14	17.72	-40.3	-43.3	14.2	2.20e-06	0	56	0	579862528	51	5328
2026-01-03 22:07:21.15	97.37	17.69	-40.3	-43.3	14.2	7.00e-07	0	56	0	581959680	51	5283
2026-01-03 22:07:22.16	97.60	17.67	-40.1	-43.0	14.4	7.00e-07	0	56	0	584056832	51	5155
2026-01-03 22:07:23.17	97.83	17.65	-40.1	-43.0	14.5	0.00e+00	0	56	0	586153984	51	5144
2026-01-03 22:07:24.18	98.06	17.63	-39.9	-42.7	14.7	0.00e+00	0	56	0	588251136	51	4953
2026-01-03 22:07:25.19	98.29	17.60	-40.0	-42.8	14.7	0.00e+00	0	56	0	589299712	51	4988
2026-01-03 22:07:26.20	98.52	17.58	-39.9	-42.7	14.8	0.00e+00	0	56	0	591396864	51	4940
2026-01-03 22:07:27.21	98.75	17.56	-40.0	-42.8	14.7	0.00e+00	0	56	0	593494016	51	5014
2026-01-03 22:07:28.22	98.98	17.53	-39.8	-42.6	14.8	0.00e+00	0	56	0	595591168	51	4888
2026-01-03 22:07:29.23	99.21	17.51	-39.9	-42.7	14.8	3.00e-06	0	56	0	597688320	50	5261
2026-01-03 22:07:30.24	99.44	17.48	-39.8	-42.8	14.6	7.00e-07	0	56	0	598736896	50	5317
2026-01-03 22:07:31.24	99.66	17.46	-39.8	-42.6	14.9	7.00e-07	0	56	0	600834048	50	5182
2026-01-03 22:07:32.25	99.89	17.43	-39.8	-42.5	15.0	0.00e+00	0	56	0	602931200	50	5110
2026-01-03 22:07:33.26	100.12	17.40	-39.4	-41.9	15.5	0.00e+00	0	56	0	605028352	50	4814
2026-01-03 22:07:34.27	100.34	17.38	-39.4	-41.9	15.5	0.00e+00	0	56	0	607125504	50	4761
2026-01-03 22:07:35.28	100.57	17.35	-39.4	-41.9	15.5	0.00e+00	0	56	0	609222656	50	4798
2026-01-03 22:07:36.29	100.80	17.32	-39.5	-42.0	15.4	0.00e+00	0	56	0	610271232	50	4863
2026-01-03 22:07:37.30	101.02	17.29	-39.5	-42.1	15.3	0.00e+00	0	56	0	612368384	50	4920
2026-01-03 22:07:38.31	101.25	17.26	-39.6	-42.2	15.3	0.00e+00	0	56	0	614465536	50	4940
2026-01-03 22:07:39.32	101.47	17.23	-39.5	-42.1	15.3	0.00e+00	0	56	0	616562688	50	4911
2026-01-03 22:07:40.33	101.69	17.20	-39.6	-42.2	15.2	7.00e-07	0	56	0	618659840	50	4948
2026-01-03 22:07:41.34	101.92	17.17	-39.5	-42.1	15.4	0.00e+00	0	56	0	619708416	50	4899
2026-01-03 22:07:42.35	102.14	17.14	-39.5	-42.1	15.3	0.00e+00	0	56	0	621805568	50	4904
2026-01-03 22:07:43.36	102.36	17.11	-39.5	-42.1	15.4	0.00e+00	0	56	0	623902720	50	4877
2026-01-03 22:07:44.37	102.59	17.08	-39.5	-42.1	15.4	0.00e+00	0	56	0	625999872	50	4904
2026-01-03 22:07:45.38	102.81	17.05	-39.5	-42.1	15.4	0.00e+00	0	56	0	628097024	50	4872
2026-01-03 22:07:46.39	103.03	17.02	-39.6	-42.2	15.3	0.00e+00	0	56	0	629145600	50	4939
2026-01-03 22:07:47.40	103.25	16.99	-39.6	-42.2	15.3	0.00e+00	0	56	0	631242752	50	4943
2026-01-03 22:07:48.40	103.47	16.96	-39.5	-42.2	15.3	7.00e-07	0	56	0	633339904	50	4955
2026-01-03 22:07:49.41	103.69	16.92	-39.6	-42.2	15.3	0.00e+00	0	56	0	635437056	50	4936
2026-01-03 22:07:50.42	103.91	16.89	-39.7	-42.3	15.2	0.00e+00	0	56	0	637534208	50	5027
2026-01-03 22:07:51.43	104.13	16.86	-39.8	-42.6	14.9	0.00e+00	0	56	0	638582784	50	5162
2026-01-03 22:07:52.44	104.35	16.82	-39.9	-42.7	14.8	0.00e+00	0	56	0	640679936	50	5229
2026-01-03 22:07:53.45	104.57	16.79	-39.9	-42.7	14.8	0.00e+00	0	56	0	642777088	50	5247
2026-01-03 22:07:54.46	104.78	16.75	-39.8	-42.7	14.8	0.00e+00	0	56	0	644874240	50	5248
2026-01-03 22:07:55.48	105.00	16.72	-40.0	-42.7	14.7	0.00e+00	0	56	0	646971392	50	5268
2026-01-03 22:07:56.48	105.22	16.68	-39.9	-42.6	14.9	0.00e+00	0	56	0	648019968	50	5199
2026-01-03 22:07:57.50	105.44	16.65	-39.8	-42.5	14.9	0.00e+00	0	56	0	650117120	50	5146
2026-01-03 22:07:58.51	105.65	16.61	-39.6	-42.2	15.2	0.00e+00	0	56	0	652214272	50	4965
2026-01-03 22:07:59.52	105.87	16.58	-39.5	-42.0	15.3	0.00e+00	0	56	0	654311424	50	4862
2026-01-03 22:08:00.53	106.08	16.54	-39.6	-42.1	15.4	0.00e+00	0	56	0	656408576	50	4914
2026-01-03 22:08:01.54	106.30	16.50	-39.6	-42.2	15.3	0.00e+00	0	56	0	657457152	50	4946
2026-01-03 22:08:02.55	106.51	16.46	-39.7	-42.4	15.1	0.00e+00	0	56	0	659554304	50	5071
2026-01-03 22:08:03.56	106.72	16.43	-39.9	-42.6	14.9	0.00e+00	0	56	0	661651456	50	5195
2026-01-03 22:08:04.56	106.93	16.39	-39.8	-42.7	14.8	0.00e+00	0	56	0	663748608	50	5227
2026-01-03 22:08:05.57	107.15	16.35	-39.8	-42.5	15.0	0.00e+00	0	56	0	665845760	50	5123
2026-01-03 22:08:06.58	107.36	16.31	-39.7	-42.4	15.1	0.00e+00	0	56	0	666894336	50	5066
2026-01-03 22:08:07.59	107.57	16.27	-39.7	-42.5	15.0	0.00e+00	0	57	0	668991488	50	5106
2026-01-03 22:08:08.60	107.78	16.24	-39.7	-42.4	15.0	0.00e+00	0	57	0	671088640	50	5071
2026-01-03 22:08:09.61	107.99	16.20	-40.0	-42.8	14.7	0.00e+00	0	56	0	673185792	50	5307
2026-01-03 22:08:10.62	108.20	16.16	-40.2	-43.1	14.3	0.00e+00	0	56	0	675282944	51	5213
2026-01-03 22:08:11.63	108.41	16.12	-40.4	-43.5	14.0	0.00e+00	0	56	0	677380096	51	5438
2026-01-03 22:08:12.64	108.62	16.08	-40.6	-43.9	13.6	1.06e-05	0	56	0	678428672	51	5681
2026-01-03 22:08:13.65	108.83	16.04	-40.7	-44.1	13.3	1.52e-05	0	57	0	680525824	52	5476
2026-01-03 22:08:14.66	109.03	15.99	-40.6	-43.8	13.5	2.21e-05	0	56	0	682622976	52	5333
2026-01-03 22:08:15.67	109.24	15.95	-40.5	-43.7	13.7	1.22e-05	0	56	0	684720128	52	5251
2026-01-03 22:08:16.68	109.45	15.91	-40.4	-43.4	13.9	2.20e-06	0	56	0	686817280	52	5097
2026-01-03 22:08:17.69	109.65	15.87	-40.1	-43.1	14.3	7.00e-07	0	57	0	687865856	52	4881
2026-01-03 22:08:18.70	109.86	15.83	-40.0	-42.8	14.7	0.00e+00	0	56	0	689963008	51	5000
2026-01-03 22:08:19.71	110.06	15.79	-40.0	-42.8	14.7	7.00e-07	0	57	0	692060160	51	4990
2026-01-03 22:08:20.72	110.27	15.74	-39.7	-42.4	15.1	0.00e+00	0	56	0	694157312	51	4770
2026-01-03 22:08:21.73	110.47	15.70	-39.7	-42.4	15.1	0.00e+00	0	56	0	696254464	51	4785
2026-01-03 22:08:22.74	110.67	15.66	-39.7	-42.3	15.1	7.00e-07	0	57	0	697303040	51	4753
2026-01-03 22:08:23.75	110.87	15.61	-39.8	-42.4	15.0	0.00e+00	0	56	0	699400192	51	4803
2026-01-03 22:08:24.76	111.08	15.57	-39.8	-42.5	14.9	0.00e+00	0	56	0	701497344	51	4854
2026-01-03 22:08:25.77	111.28	15.53	-39.9	-42.7	14.8	0.00e+00	0	56	0	703594496	51	4938
2026-01-03 22:08:26.78	111.48	15.48	-40.0	-42.8	14.6	0.00e+00	0	56	0	705691648	51	5040
2026-01-03 22:08:27.79	111.68	15.44	-40.0	-43.0	14.4	7.00e-07	0	57	0	706740224	51	5110
2026-01-03 22:08:28.80	111.88	15.39	-40.4	-43.4	14.0	1.50e-06	0	56	0	708837376	51	5374
2026-01-03 22:08:29.81	112.08	15.35	-40.5	-43.6	13.7	3.58e-05	0	57	0	710934528	51	5523
2026-01-03 22:08:30.82	112.27	15.30	-40.8	-44.2	13.1	3.12e-05	0	57	0	713031680	52	5580
2026-01-03 22:08:31.83	112.47	15.26	-41.0	-44.7	12.6	6.17e-05	0	56	0	715128832	52	5892
2026-01-03 22:08:32.84	112.67	15.21	-41.2	-45.0	12.3	8.15e-04	0	56	0	716177408	52	6111
2026-01-03 22:08:33.85	112.87	15.17	-41.3	-45.2	12.0	5.53e-03	0	56	0	718274560	53	5919
2026-01-03 22:08:34.86	113.06	15.12	-41.1	-45.0	11.4	1.79e-03	0	56	0	720371712	52	6091
2026-01-03 22:08:35.87	113.26	15.07	-41.0	-44.7	12.4	6.24e-04	0	56	0	722468864	52	5909
2026-01-03 22:08:36.88	113.45	15.03	-39.9	-44.5	12.2	9.16e-04	0	56	0	724566016	50	6457
2026-01-03 22:08:37.89	113.65	14.98	-40.7	-44.0	13.2	1.62e-04	0	56	0	725614592	52	5448
2026-01-03 22:08:38.90	113.84	14.93	-40.7	-44.0	13.2	1.37e-04	0	57	0	727711744	51	5755
2026-01-03 22:08:39.91	114.03	14.89	-40.4	-43.5	13.8	1.87e-04	0	56	0	729808896	51	5447
2026-01-03 22:08:40.92	114.23	14.84	-39.3	-43.5	13.8	2.21e-05	0	56	0	731906048	51	5409
2026-01-03 22:08:41.93	114.42	14.79	-40.3	-43.4	13.7	6.22e-04	0	56	0	734003200	51	5361
2026-01-03 22:08:42.94	114.61	14.75	-39.6	-43.4	13.5	4.10e-04	0	56	0	735051776	50	5659
2026-01-03 22:08:43.95	114.80	14.70	-40.0	-43.4	13.9	2.60e-04	0	56	0	737148928	51	5366
2026-01-03 22:08:44.96	114.99	14.65	-39.9	-43.1	14.3	1.18e-03	0	56	0	739246080	50	5490
2026-01-03 22:08:45.97	115.18	14.60	-39.3	-43.5	13.5	7.78e-04	0	56	0	741343232	50	5754
2026-01-03 22:08:46.98	115.37	14.55	-40.3	-43.6	13.6	1.33e-03	0	56	0	743440384	51	5502
2026-01-03 22:08:47.99	115.56	14.50	-40.6	-44.1	12.9	7.27e-04	0	57	0	745537536	51	5820
2026-01-03 22:08:49.00	115.74	14.45	-40.6	-44.3	12.7	1.30e-04	0	56	0	746586112	52	5639
2026-01-03 22:08:50.01	115.93	14.41	-40.6	-44.6	12.5	4.14e-03	0	56	0	748683264	52	5793
2026-01-03 22:08:51.02	116.12	14.36	-39.9	-44.6	12.3	3.60e-03	0	57	0	750780416	51	6164
2026-01-03 22:08:52.03	116.30	14.31	-39.5	-44.2	12.7	2.57e-03	0	57	0	752877568	51	5907
2026-01-03 22:08:53.04	116.49	14.26	-38.2	-44.2	11.2	8.94e-03	0	56	0	754974720	48	7006
2026-01-03 22:08:54.05	116.67	14.21	-40.2	-44.0	13.2	3.71e-03	0	57	0	756023296	51	5751
2026-01-03 22:08:55.06	116.86	14.16	-39.7	-43.8	13.0	2.75e-03	0	57	0	758120448	51	5642
2026-01-03 22:08:56.07	117.04	14.11	-39.9	-43.6	11.6	4.04e-03	0	56	0	760217600	47	6951
2026-01-03 22:08:57.08	117.22	14.06	-40.2	-43.6	13.2	1.10e-02	0	56	0	762314752	50	5853
2026-01-03 22:08:58.09	117.41	14.01	-39.9	-43.8	12.6	2.24e-02	0	56	0	764411904	48	6685
2026-01-03 22:08:59.10	117.59	13.96	-39.9	-43.5	13.5	9.54e-03	0	56	0	765460480	50	5743
2026-01-03 22:09:00.11	117.77	13.91	-39.0	-43.3	13.1	4.43e-03	0	57	0	767557632	49	5981
2026-01-03 22:09:01.12	117.95	13.85	-39.9	-43.2	13.5	5.38e-03	0	56	0	769654784	50	5560
2026-01-03 22:09:02.13	118.13	13.80	-38.4	-42.7	13.0	3.22e-02	0	56	0	771751936	46	6582
2026-01-03 22:09:03.14	118.31	13.75	-32.3	-41.2	5.9	2.05e-01	0	56	0	773849088	31	13225
2026-01-03 22:09:04.15	118.49	13.70	-38.5	-43.0	12.7	1.07e-01	0	56	0	774897664	47	6421
2026-01-03 22:09:05.16	118.67	13.65	-37.5	-43.2	7.8	7.48e-02	0	56	0	776994816	41	9337
2026-01-03 22:09:06.17	118.84	13.60	-36.0	-43.5	12.4	2.82e-02	0	56	0	779091968	50	5740
2026-01-03 22:09:07.18	119.02	13.55	-39.0	-43.4	11.7	3.31e-02	0	56	0	781189120	48	6418
2026-01-03 22:09:08.19	119.20	13.49	-38.5	-43.8	11.4	4.26e-02	0	57	0	783286272	47	7106
2026-01-03 22:09:09.19	119.37	13.44	-39.7	-44.0	11.5	3.01e-02	0	57	0	784334848	48	6845
2026-01-03 22:09:10.20	119.55	13.39	-39.7	-43.8	12.0	2.15e-02	0	56	0	786432000	49	6343
2026-01-03 22:09:11.21	119.72	13.34	-34.4	-42.8	9.5	3.74e-02	0	57	0	788529152	41	8897
2026-01-03 22:09:12.22	119.89	13.29	-37.0	-42.9	11.7	9.62e-02	0	56	0	790626304	43	8009
2026-01-03 22:09:13.23	120.07	13.23	-35.2	-42.5	10.7	1.33e-01	0	57	0	792723456	45	6822
2026-01-03 22:09:14.24	120.24	13.18	-38.8	-42.5	12.4	6.76e-02	0	57	0	793772032	47	6102
2026-01-03 22:09:15.25	120.41	13.13	-39.5	-42.7	14.0	2.36e-01	0	56	0	795869184	49	5547
2026-01-03 22:09:16.26	120.58	13.07	-36.6	-42.4	9.1	7.05e-02	0	57	0	797966336	39	9540
2026-01-03 22:09:17.27	120.75	13.02	-32.6	-41.9	10.3	4.77e-02	0	56	0	800063488	41	8064
2026-01-03 22:09:18.28	120.92	12.97	-35.1	-42.5	10.0	7.67e-02	0	56	0	802160640	42	8086
2026-01-03 22:09:19.29	121.09	12.91	-36.0	-42.4	10.2	7.42e-02	0	57	0	803209216	43	7625
2026-01-03 22:09:20.30	121.26	12.86	-35.2	-42.5	9.1	4.69e-02	0	57	0	805306368	41	8598
2026-01-03 22:09:21.31	121.43	12.81	-33.4	-42.4	8.3	1.09e-01	0	57	0	807403520	38	10131
2026-01-03 22:09:22.32	121.60	12.75	-38.1	-43.0	12.1	8.11e-02	0	57	0	809500672	46	6858
2026-01-03 22:09:23.33	121.77	12.70	-39.5	-43.0	9.8	2.86e-02	0	57	0	811597824	44	7714
2026-01-03 22:09:24.34	121.93	12.65	-39.2	-42.8	11.0	6.41e-02	0	57	0	813694976	45	7106
2026-01-03 22:09:25.35	122.10	12.59	-39.6	-43.0	10.6	1.15e-01	0	57	0	814743552	44	7711
2026-01-03 22:09:26.36	122.27	12.54	-35.8	-42.8	11.9	6.15e-02	0	57	0	816840704	46	6694
2026-01-03 22:09:27.37	122.43	12.48	-37.1	-42.8	8.1	5.12e-02	0	57	0	818937856	40	9440
2026-01-03 22:09:28.38	122.59	12.43	-35.5	-42.9	10.1	1.02e-01	0	57	0	821035008	43	8022
2026-01-03 22:09:29.39	122.76	12.38	-33.1	-42.5	9.3	5.63e-02	0	56	0	823132160	40	9149
2026-01-03 22:09:30.40	122.92	12.32	-36.9	-42.9	12.0	1.41e-01	0	57	0	824180736	45	7146
2026-01-03 22:09:31.41	123.08	12.27	-34.6	-42.7	10.5	4.17e-02	0	57	0	826277888	44	7447
2026-01-03 22:09:32.42	123.25	12.21	-36.5	-42.4	12.3	2.31e-02	0	57	0	828375040	46	6406
2026-01-03 22:09:33.43	123.41	12.16	-37.3	-42.3	12.3	2.04e-02	0	56	0	830472192	46	6285
2026-01-03 22:09:34.44	123.57	12.10	-37.1	-41.9	13.2	5.96e-02	0	57	0	832569344	46	6034
2026-01-03 22:09:35.45	123.73	12.05	-38.1	-42.0	13.6	1.03e-02	0	57	0	833617920	47	5767
2026-01-03 22:09:36.45	123.89	11.99	-38.7	-41.9	13.9	4.59e-03	0	57	0	835715072	47	5715
2026-01-03 22:09:37.46	124.05	11.94	-35.4	-41.9	12.1	1.44e-02	0	56	0	837812224	41	8026
2026-01-03 22:09:38.47	124.21	11.88	-29.9	-41.3	10.0	8.78e-02	0	57	0	839909376	42	7111
2026-01-03 22:09:39.48	124.36	11.83	-37.7	-42.4	10.7	1.33e-01	0	57	0	842006528	41	8490
2026-01-03 22:09:40.49	124.52	11.77	-39.0	-42.5	13.0	1.38e-02	0	56	0	843055104	48	5788
2026-01-03 22:09:41.50	124.68	11.72	-33.1	-42.2	9.3	2.71e-01	0	56	0	845152256	37	10457
2026-01-03 22:09:42.51	124.83	11.66	-28.1	-41.8	6.7	2.23e-01	0	57	0	847249408	31	14193
2026-01-03 22:09:43.52	124.99	11.61	-35.4	-42.5	9.7	1.19e-01	0	57	0	849346560	40	9132
2026-01-03 22:09:44.53	125.14	11.55	-29.9	-41.6	11.2	2.63e-01	0	57	0	850395136	33	12286
2026-01-03 22:09:45.54	125.30	11.50	-33.6	-41.8	11.1	1.24e-01	0	57	0	852492288	40	8449
2026-01-03 22:09:46.55	125.45	11.44	-36.3	-42.2	10.5	9.85e-02	0	57	0	854589440	43	7441
2026-01-03 22:09:47.56	125.61	11.38	-32.9	-42.4	10.0	1.73e-01	0	57	0	856686592	41	8510
2026-01-03 22:09:48.57	125.76	11.33	-29.8	-41.6	8.5	2.68e-01	0	56	0	858783744	36	10376
2026-01-03 22:09:49.58	125.91	11.27	-23.9	-38.8	5.1	4.44e-01	0	57	0	859832320	21	17693
2026-01-03 22:09:50.59	126.06	11.22	-24.7	-37.6	4.6	5.36e-01	0	57	0	861929472	22	14611
2026-01-03 22:09:51.60	126.21	11.16	-26.8	-38.6	5.0	1.28e+00	0	57	104	862978048	26	13108
2026-01-03 22:09:52.61	126.37	11.11	-28.1	-40.9	5.0	1.36e+00	0	57	104	862978048	23	20214
2026-01-03 22:09:53.62	126.52	11.05	-26.4	-40.0	5.3	1.39e+00	0	57	104	862978048	24	17089
2026-01-03 22:09:54.63	126.66	10.99	-28.8	-38.4	4.6	7.86e-01	0	57	104	862978048	18	20090
2026-01-03 22:09:55.64	126.81	10.94	-27.5	-39.3	5.1	1.34e+00	0	57	104	862978048	24	15892
2026-01-03 22:09:56.65	126.96	10.88	-27.7	-40.3	5.2	1.28e+00	0	57	104	862978048	25	16797
2026-01-03 22:09:57.66	127.11	10.83	-30.5	-40.2	5.3	1.27e+00	0	57	104	862978048	28	13951
2026-01-03 22:09:58.67	127.26	10.77	-27.1	-39.4	5.1	1.30e+00	0	57	104	862978048	25	15221
2026-01-03 22:09:59.68	127.40	10.71	-24.4	-38.5	4.6	1.39e+00	0	57	104	862978048	20	18268
2026-01-03 22:10:00.69	127.55	10.66	-23.6	-38.7	4.9	1.35e+00	0	57	104	862978048	20	18600
2026-01-03 22:10:01.70	127.70	10.60	-25.2	-39.4	4.7	1.36e+00	0	57	104	862978048	18	22727
2026-01-03 22:10:02.71	127.84	10.54	-24.9	-39.4	4.8	1.39e+00	0	57	104	862978048	22	17984
2026-01-03 22:10:03.72	127.99	10.49	-24.0	-36.2	4.0	1.36e+00	0	57	104	862978048	16	17581
2026-01-03 22:10:04.73	128.13	10.43	-25.5	-39.2	4.9	1.42e+00	0	57	104	862978048	20	19841
2026-01-03 22:10:05.74	128.27	10.37	-21.8	-37.5	4.6	1.46e+00	0	57	104	862978048	16	20327
2026-01-03 22:10:06.75	128.42	10.32	-20.6	-37.2	4.3	1.49e+00	0	57	104	862978048	16	19708
2026-01-03 22:10:07.76	128.56	10.26	-19.3	-33.2	3.7	1.48e+00	0	57	104	862978048	12	15756
2026-01-03 22:10:08.77	128.70	10.21	-23.5	-40.7	3.8	1.50e+00	0	57	104	862978048	19	24835
2026-01-03 22:10:09.78	128.84	10.15	-22.8	-37.5	3.7	1.50e+00	0	57	104	862978048	14	22960
2026-01-03 22:10:10.79	128.98	10.09	-23.2	-41.0	3.5	1.50e+00	0	57	104	862978048	21	22882
2026-01-03 22:10:11.80	129.12	10.04	-23.1	-38.9	3.7	1.50e+00	0	57	104	862978048	18	21429
2026-01-03 22:10:12.81	129.26	9.98	-24.4	-37.2	3.9	1.50e+00	0	57	104	862978048	12	24849
2026-01-03 22:10:13.82	129.40	9.92	-22.7	-38.1	3.7	1.50e+00	0	57	104	862978048	17	20760
2026-01-03 22:10:14.83	129.54	9.87	-24.7	-34.9	3.5	1.50e+00	0	57	104	862978048	8	23858
2026-01-03 22:10:15.84	129.68	9.81	-24.4	-36.5	3.5	1.50e+00	0	57	104	862978048	16	18148
2026-01-03 22:10:16.85	129.82	9.75	-22.1	-37.4	3.5	1.50e+00	0	57	104	862978048	13	23917
2026-01-03 22:10:17.86	129.95	9.70	-17.9	-32.5	3.7	1.50e+00	0	57	104	862978048	13	13656
2026-01-03 22:10:18.87	130.09	9.64	-20.5	-34.0	3.8	1.50e+00	0	57	104	862978048	11	18223
2026-01-03 22:10:19.88	130.23	9.58	-20.4	-37.5	3.6	1.50e+00	0	57	104	862978048	15	21530
2026-01-03 22:10:20.89	130.36	9.53	-24.9	-41.3	3.5	1.50e+00	0	57	104	862978048	21	23826
2026-01-03 22:10:21.90	130.50	9.47	-19.8	-36.6	3.7	1.50e+00	0	57	104	862978048	19	15493
2026-01-03 22:10:22.91	130.63	9.41	-25.6	-41.9	3.7	1.50e+00	0	57	104	862978048	23	22643
2026-01-03 22:10:23.92	130.77	9.36	-24.9	-37.7	3.6	1.50e+00	0	57	104	862978048	18	18553
2026-01-03 22:10:24.93	130.90	9.30	-25.7	-38.2	3.5	1.51e+00	0	57	104	862978048	16	22217
2026-01-03 22:10:25.94	131.03	9.24	-22.5	-36.7	3.6	1.51e+00	0	57	104	862978048	17	17673
2026-01-03 22:10:26.95	131.17	9.19	-25.5	-41.3	3.6	1.50e+00	0	57	104	862978048	21	23603
2026-01-03 22:10:27.96	131.30	9.13	-20.3	-34.4	3.6	1.50e+00	0	57	104	862978048	13	17038
2026-01-03 22:10:28.97	131.43	9.07	-18.7	-36.4	3.7	1.51e+00	0	57	104	862978048	14	20235
2026-01-03 22:10:29.98	131.56	9.02	-15.5	-28.9	4.2	1.51e+00	0	57	104	862978048	2	16980
2026-01-03 22:10:30.98	131.69	8.96	-25.0	-37.8	3.7	1.50e+00	0	57	104	862978048	15	22286
2026-01-03 22:10:31.99	131.82	8.90	-23.9	-39.2	3.5	1.51e+00	0	57	104	862978048	18	22101
2026-01-03 22:10:33.00	131.95	8.85	-20.2	-35.5	3.6	1.50e+00	0	57	104	862978048	17	15395
2026-01-03 22:10:34.01	132.08	8.79	-22.3	-39.1	3.7	1.50e+00	0	57	104	862978048	19	20602
2026-01-03 22:10:35.02	132.21	8.73	-23.3	-38.8	3.7	1.50e+00	0	57	0	862978048	16	23644
2026-01-03 22:10:36.03	132.34	8.68	-27.0	-39.7	3.7	1.50e+00	0	57	104	862978048	19	22241
2026-01-03 22:10:37.04	132.47	8.62	-27.4	-39.3	3.5	1.50e+00	0	57	104	862978048	7	41979
2026-01-03 22:10:38.05	132.59	8.56	-13.0	-34.2	4.0	1.50e+00	0	57	104	862978048	0	35125
2026-01-03 22:10:39.06	132.72	8.51	-26.2	-42.4	3.9	1.50e+00	0	57	104	862978048	24	22622
2026-01-03 22:10:40.07	132.85	8.45	-21.1	-35.9	3.8	1.50e+00	0	57	104	862978048	4	33867
2026-01-03 22:10:41.08	132.97	8.39	-24.4	-41.9	4.0	1.50e+00	0	57	104	862978048	22	23894
2026-01-03 22:10:42.09	133.10	8.34	-26.0	-43.4	4.0	1.50e+00	0	57	104	862978048	23	26888
2026-01-03 22:10:43.10	133.22	8.28	-26.9	-45.2	4.1	1.50e+00	0	57	104	862978048	24	31118
2026-01-03 22:10:44.10	133.34	8.22	-24.9	-43.7	3.6	1.50e+00	0	57	104	862978048	9	62316
2026-01-03 22:10:45.12	133.47	8.17	-24.2	-40.6	3.7	1.51e+00	0	57	104	862978048	21	21870
2026-01-03 22:10:46.12	133.59	8.11	-20.4	-36.7	3.7	1.50e+00	0	57	104	862978048	15	19668
2026-01-03 22:10:47.13	133.72	8.05	-27.2	-43.6	3.9	1.51e+00	0	57	104	862978048	26	23195
2026-01-03 22:10:48.14	133.84	8.00	-15.8	-38.3	3.4	1.51e+00	0	57	104	862978048	8	35486
2026-01-03 22:10:49.16	133.96	7.94	-23.9	-40.4	3.6	1.51e+00	0	57	104	862978048	20	22737
2026-01-03 22:10:50.17	134.08	7.88	-44.1	-58.6	3.8	1.50e+00	0	57	104	862978048	58	20644
2026-01-03 22:10:51.18	134.20	7.83	-44.5	-59.0	3.8	1.49e+00	0	57	104	862978048	59	20386
2026-01-03 22:10:52.19	134.33	7.77	-44.6	-59.1	3.8	1.49e+00	0	57	104	862978048	59	20712
2026-01-03 22:10:53.20	134.45	7.71	-44.7	-59.3	3.8	1.49e+00	0	57	104	862978048	60	20044
2026-01-03 22:10:54.21	134.57	7.66	-44.8	-59.5	3.8	1.49e+00	0	57	104	862978048	60	20364
2026-01-03 22:10:55.22	134.68	7.60	-44.8	-59.5	3.8	1.49e+00	0	57	104	862978048	60	20461
2026-01-03 22:10:56.23	134.80	7.54	-44.9	-59.6	3.8	1.49e+00	0	57	104	862978048	60	20656
2026-01-03 22:10:57.24	134.92	7.49	-45.0	-59.7	3.8	1.49e+00	0	57	104	862978048	60	20777
2026-01-03 22:10:58.25	135.04	7.43	-44.9	-59.6	3.8	1.49e+00	0	57	104	862978048	60	20663
2026-01-03 22:10:59.27	135.16	7.37	-44.9	-59.5	3.8	1.49e+00	0	57	104	862978048	60	20461
2026-01-03 22:11:00.28	135.28	7.32	-44.8	-59.5	3.8	1.49e+00	0	57	104	862978048	60	20456
2026-01-03 22:11:01.29	135.39	7.26	-44.7	-59.4	3.8	1.49e+00	0	57	104	862978048	60	20278
2026-01-03 22:11:02.30	135.51	7.20	-44.7	-59.5	3.8	1.49e+00	0	57	104	862978048	60	20391
2026-01-03 22:11:03.31	135.63	7.15	-44.7	-59.5	3.8	1.49e+00	0	57	104	862978048	60	20316
2026-01-03 22:11:04.32	135.74	7.09	-44.6	-59.4	3.8	1.49e+00	0	57	104	862978048	60	20286
2026-01-03 22:11:05.33	135.86	7.04	-44.6	-59.4	3.8	1.49e+00	0	57	104	862978048	60	20198
2026-01-03 22:11:06.34	135.97	6.98	-44.6	-59.4	3.8	1.49e+00	0	57	104	862978048	60	20216
2026-01-03 22:11:07.35	136.08	6.92	-44.6	-59.4	3.8	1.49e+00	0	57	104	862978048	60	20201
2026-01-03 22:11:08.37	136.20	6.87	-44.6	-59.4	3.8	1.49e+00	0	57	104	862978048	60	20204
2026-01-03 22:11:09.38	136.31	6.81	-44.6	-59.4	3.8	1.49e+00	0	57	104	862978048	60	20224
2026-01-03 22:11:10.39	136.43	6.75	-44.6	-59.4	3.8	1.49e+00	0	57	104	862978048	60	20204
2026-01-03 22:11:11.40	136.54	6.70	-44.6	-59.4	3.8	1.49e+00	0	57	104	862978048	60	20246
2026-01-03 22:11:12.41	136.65	6.64	-44.6	-59.4	3.8	1.49e+00	0	57	104	862978048	60	20231
2026-01-03 22:11:13.42	136.76	6.59	-44.6	-59.4	3.8	1.49e+00	0	57	104	862978048	60	20162
2026-01-03 22:11:14.43	136.87	6.53	-44.6	-59.4	3.8	1.49e+00	0	57	104	862978048	60	20166
2026-01-03 22:11:15.44	136.98	6.47	-44.6	-59.4	3.8	1.49e+00	0	57	104	862978048	60	20206
2026-01-03 22:11:16.45	137.09	6.42	-44.6	-59.4	3.8	1.49e+00	0	57	104	862978048	60	20229
2026-01-03 22:11:17.46	137.20	6.36	-44.6	-59.4	3.8	1.49e+00	0	57	104	862978048	60	20216
2026-01-03 22:11:18.47	137.31	6.31	-44.5	-59.4	3.8	1.49e+00	0	57	104	862978048	60	20206
2026-01-03 22:11:19.49	137.42	6.25	-44.6	-59.4	3.8	1.49e+00	0	57	104	862978048	60	20192
2026-01-03 22:11:20.50	137.53	6.19	-44.6	-59.4	3.8	1.49e+00	0	57	104	862978048	60	20222
2026-01-03 22:11:21.51	137.64	6.14	-44.6	-59.4	3.8	1.49e+00	0	57	104	862978048	60	20232
2026-01-03 22:11:22.52	137.75	6.08	-44.6	-59.4	3.8	1.49e+00	0	57	104	862978048	60	20230
2026-01-03 22:11:23.53	137.86	6.03	-44.6	-59.4	3.8	1.49e+00	0	57	104	862978048	60	20213
2026-01-03 22:11:24.54	137.96	5.97	-44.6	-59.4	3.8	1.49e+00	0	57	104	862978048	60	20236
2026-01-03 22:11:25.55	138.07	5.92	-44.6	-59.4	3.8	1.49e+00	0	57	104	862978048	60	20204
2026-01-03 22:11:26.56	138.18	5.86	-44.6	-59.4	3.8	1.49e+00	0	57	104	862978048	60	20186
2026-01-03 22:11:27.57	138.28	5.81	-44.6	-59.4	3.8	1.49e+00	0	57	104	862978048	60	20147
2026-01-03 22:11:28.58	138.39	5.75	-44.6	-59.4	3.8	1.49e+00	0	57	104	862978048	60	20108
2026-01-03 22:11:29.60	138.50	5.69	-44.6	-59.4	3.8	1.49e+00	0	57	104	862978048	60	20129
2026-01-03 22:11:30.61	138.60	5.64	-44.6	-59.4	3.8	1.49e+00	0	57	104	862978048	60	20160
2026-01-03 22:11:31.62	138.70	5.58	-44.6	-59.4	3.8	1.49e+00	0	57	104	862978048	60	20165
2026-01-03 22:11:32.63	138.81	5.53	-44.6	-59.4	3.8	1.49e+00	0	57	104	862978048	60	20139
2026-01-03 22:11:33.64	138.91	5.47	-44.6	-59.4	3.8	1.49e+00	0	57	104	862978048	60	20127
2026-01-03 22:11:34.65	139.02	5.42	-44.6	-59.4	3.8	1.49e+00	0	57	104	862978048	60	20182
2026-01-03 22:11:35.66	139.12	5.36	-44.6	-59.4	3.8	1.49e+00	0	57	104	862978048	60	20183
2026-01-03 22:11:36.67	139.22	5.31	-44.6	-59.4	3.8	1.49e+00	0	57	104	862978048	60	20123
2026-01-03 22:11:37.68	139.32	5.25	-44.6	-59.4	3.8	1.49e+00	0	57	104	862978048	60	20175
2026-01-03 22:11:38.69	139.43	5.20	-44.6	-59.4	3.8	1.49e+00	0	57	104	862978048	60	20156
2026-01-03 22:11:39.70	139.53	5.14	-44.6	-59.4	3.8	1.49e+00	0	57	104	862978048	60	20130
2026-01-03 22:11:40.71	139.63	5.09	-44.6	-59.4	3.8	1.49e+00	0	57	104	862978048	60	20102
2026-01-03 22:11:41.73	139.73	5.03	-44.6	-59.4	3.8	1.49e+00	0	57	104	862978048	60	20115
2026-01-03 22:11:42.74	139.83	4.98	-44.6	-59.4	3.8	1.49e+00	0	57	104	862978048	60	20146
2026-01-03 22:11:43.75	139.93	4.92	-44.6	-59.4	3.8	1.49e+00	0	57	104	862978048	60	20128
2026-01-03 22:11:44.76	140.03	4.87	-44.6	-59.4	3.8	1.49e+00	0	57	104	862978048	60	20191
2026-01-03 22:11:45.77	140.13	4.81	-44.6	-59.4	3.8	1.49e+00	0	57	104	862978048	60	20163
2026-01-03 22:11:46.78	140.23	4.76	-44.6	-59.4	3.8	1.49e+00	0	57	104	862978048	60	20101
2026-01-03 22:11:47.79	140.33	4.70	-44.6	-59.4	3.8	1.49e+00	0	57	104	862978048	60	20140
2026-01-03 22:11:48.80	140.42	4.65	-44.6	-59.4	3.8	1.49e+00	0	57	104	862978048	60	20238
2026-01-03 22:11:49.81	140.52	4.59	-44.6	-59.4	3.8	1.49e+00	0	57	104	862978048	60	20140
2026-01-03 22:11:50.82	140.62	4.54	-44.6	-59.4	3.8	1.49e+00	0	57	104	862978048	60	20162
2026-01-03 22:11:51.83	140.72	4.48	-44.6	-59.4	3.8	1.49e+00	0	57	104	862978048	60	20154
2026-01-03 22:11:52.85	140.81	4.43	-44.6	-59.4	3.8	1.49e+00	0	57	104	862978048	60	20131
2026-01-03 22:11:53.86	140.91	4.37	-44.6	-59.4	3.8	1.49e+00	0	57	104	862978048	60	20106
2026-01-03 22:11:54.87	141.01	4.32	-44.6	-59.4	3.8	1.49e+00	0	57	104	862978048	60	20120
2026-01-03 22:11:55.88	141.10	4.27	-44.6	-59.4	3.8	1.49e+00	0	57	104	862978048	60	20181
2026-01-03 22:11:56.89	141.20	4.21	-44.5	-59.4	3.8	1.49e+00	0	57	104	862978048	60	20133
2026-01-03 22:11:57.90	141.29	4.16	-44.5	-59.4	3.8	1.49e+00	0	57	104	862978048	60	20136
2026-01-03 22:11:58.91	141.39	4.10	-44.6	-59.4	3.8	1.49e+00	0	57	104	862978048	60	20128
2026-01-03 22:11:59.92	141.48	4.05	-44.6	-59.4	3.8	1.49e+00	0	57	104	862978048	60	20124
2026-01-03 22:12:00.91	141.58	4.00	-44.6	-59.3	3.8	1.49e+00	0	57	104	862978048	60	20061
2026-01-03 22:12:01.92	141.67	3.94	-44.6	-59.4	3.8	1.49e+00	0	57	104	862978048	60	20127
2026-01-03 22:12:02.93	141.76	3.89	-44.6	-59.4	3.8	1.49e+00	0	57	104	862978048	60	20148
2026-01-03 22:12:03.94	141.86	3.83	-44.6	-59.4	3.8	1.49e+00	0	57	104	862978048	60	20133
2026-01-03 22:12:04.95	141.95	3.78	-44.5	-59.4	3.8	1.49e+00	0	57	104	862978048	60	20182
2026-01-03 22:12:05.97	142.04	3.72	-44.5	-59.3	3.8	1.49e+00	0	57	104	862978048	60	20070
2026-01-03 22:12:06.97	142.13	3.67	-44.5	-59.4	3.8	1.49e+00	0	57	104	862978048	60	20108
2026-01-03 22:12:07.99	142.23	3.62	-44.5	-59.4	3.8	1.49e+00	0	57	104	862978048	60	20095
2026-01-03 22:12:09.00	142.32	3.56	-44.5	-59.4	3.8	1.49e+00	0	57	104	862978048	60	20115
