passes_logs/2026/01/03/R2.0S_Moscow/R2.0S_Moscow__20260103_074238_NOAA_21_JPSS-2_rec.log

#Pass ID: 20260103_074238_NOAA 21 (JPSS-2)
#Satellite: NOAA 21 (JPSS-2)
#Configuration: NOAA-21
#almurnet v.1.7.20251203
#Start time: 2026-01-03 07:42:40

#Version: 2.2.20231116
#Station: R2.0S_Moscow
#Location: 37.707566 lon 55.798166 lat
#TLE: 1 54234U 22150A   26002.25486487  .00000200  00000+0  11573-3 0  9993
#TLE: 2 54234  98.7485 303.3096 0001220 350.9074   9.2080 14.19531212163006

#Time	Az	El	Level	Level2	SNR	BER	BlckErr	Temp	State	Recorded	gain1	gain2
2026-01-03 07:42:40.26	95.13	2.07	-39.8	-52.2	3.8	1.49e+00	0	47	0	0	50	15680
2026-01-03 07:42:41.26	95.04	2.12	-39.9	-52.3	3.8	1.49e+00	0	47	104	0	51	14894
2026-01-03 07:42:42.27	94.95	2.17	-39.9	-52.2	3.8	1.49e+00	0	47	104	0	51	14839
2026-01-03 07:42:43.28	94.87	2.22	-39.9	-52.2	3.8	1.49e+00	0	48	104	0	51	14820
2026-01-03 07:42:44.30	94.78	2.27	-39.9	-52.2	3.8	1.49e+00	0	48	104	0	51	14843
2026-01-03 07:42:45.30	94.69	2.32	-39.9	-52.2	3.8	1.49e+00	0	48	104	0	51	14856
2026-01-03 07:42:46.32	94.60	2.38	-39.9	-52.2	3.8	1.49e+00	0	48	104	0	51	14806
2026-01-03 07:42:47.33	94.51	2.43	-39.9	-52.2	3.8	1.49e+00	0	48	104	0	51	14835
2026-01-03 07:42:48.34	94.42	2.48	-39.9	-52.2	3.8	1.49e+00	0	48	104	0	51	14834
2026-01-03 07:42:49.35	94.33	2.53	-39.9	-52.2	3.8	1.49e+00	0	48	104	0	51	14851
2026-01-03 07:42:50.36	94.24	2.58	-39.9	-52.2	3.8	1.49e+00	0	48	104	0	51	14841
2026-01-03 07:42:51.37	94.15	2.63	-39.9	-52.2	3.8	1.49e+00	0	48	104	0	51	14838
2026-01-03 07:42:52.38	94.06	2.68	-39.9	-52.2	3.8	1.49e+00	0	48	104	0	51	14842
2026-01-03 07:42:53.39	93.97	2.73	-39.8	-52.2	3.8	1.49e+00	0	48	104	0	51	14802
2026-01-03 07:42:54.41	93.88	2.78	-39.9	-52.2	3.8	1.49e+00	0	48	104	0	51	14844
2026-01-03 07:42:55.41	93.79	2.84	-39.9	-52.2	3.8	1.49e+00	0	48	104	0	51	14869
2026-01-03 07:42:56.43	93.70	2.89	-39.9	-52.2	3.8	1.49e+00	0	48	104	0	51	14847
2026-01-03 07:42:57.44	93.61	2.94	-39.9	-52.2	3.8	1.49e+00	0	48	104	0	51	14877
2026-01-03 07:42:58.45	93.51	2.99	-39.9	-52.2	3.8	1.49e+00	0	48	104	0	51	14807
2026-01-03 07:42:59.46	93.42	3.04	-39.9	-52.2	3.8	1.49e+00	0	48	104	0	51	14840
2026-01-03 07:43:00.47	93.33	3.09	-39.9	-52.3	3.8	1.49e+00	0	49	104	0	51	14895
2026-01-03 07:43:01.48	93.24	3.14	-39.9	-52.2	3.8	1.49e+00	0	49	104	0	51	14843
2026-01-03 07:43:02.49	93.14	3.20	-39.9	-52.2	3.8	1.49e+00	0	49	104	0	51	14836
2026-01-03 07:43:03.50	93.05	3.25	-39.9	-52.3	3.8	1.49e+00	0	49	104	0	51	14898
2026-01-03 07:43:04.52	92.95	3.30	-39.9	-52.2	3.8	1.49e+00	0	49	104	0	51	14833
2026-01-03 07:43:05.53	92.86	3.35	-39.9	-52.2	3.8	1.49e+00	0	49	104	0	51	14868
2026-01-03 07:43:06.54	92.76	3.40	-39.9	-52.2	3.8	1.49e+00	0	49	104	0	51	14827
2026-01-03 07:43:07.55	92.67	3.45	-39.9	-52.2	3.8	1.49e+00	0	49	104	0	51	14859
2026-01-03 07:43:08.56	92.57	3.50	-39.9	-52.2	3.8	1.49e+00	0	49	104	0	51	14853
2026-01-03 07:43:09.57	92.48	3.56	-39.9	-52.2	3.8	1.49e+00	0	49	104	0	51	14804
2026-01-03 07:43:10.58	92.38	3.61	-39.9	-52.2	3.8	1.49e+00	0	50	104	0	51	14866
2026-01-03 07:43:11.59	92.28	3.66	-39.9	-52.2	3.8	1.49e+00	0	50	104	0	51	14856
2026-01-03 07:43:12.60	92.19	3.71	-39.9	-52.2	3.8	1.49e+00	0	50	104	0	51	14812
2026-01-03 07:43:13.61	92.09	3.76	-39.9	-52.2	3.8	1.49e+00	0	50	104	0	51	14843
2026-01-03 07:43:14.63	91.99	3.81	-39.8	-52.2	3.8	1.49e+00	0	50	104	0	51	14806
2026-01-03 07:43:15.64	91.89	3.87	-39.9	-52.2	3.8	1.49e+00	0	50	104	0	51	14867
2026-01-03 07:43:16.65	91.79	3.92	-39.9	-52.2	3.8	1.49e+00	0	50	104	0	51	14818
2026-01-03 07:43:17.66	91.69	3.97	-39.9	-52.2	3.8	1.49e+00	0	50	104	0	51	14827
2026-01-03 07:43:18.67	91.60	4.02	-39.9	-52.2	3.8	1.49e+00	0	50	104	0	51	14870
2026-01-03 07:43:19.68	91.50	4.07	-39.9	-52.2	3.8	1.49e+00	0	50	104	0	51	14801
2026-01-03 07:43:20.69	91.40	4.12	-39.9	-52.2	3.8	1.49e+00	0	50	104	0	51	14824
2026-01-03 07:43:21.70	91.30	4.18	-39.9	-52.2	3.8	1.49e+00	0	50	104	0	51	14824
2026-01-03 07:43:22.71	91.20	4.23	-39.9	-52.2	3.8	1.49e+00	0	50	104	0	51	14835
2026-01-03 07:43:23.72	91.09	4.28	-39.9	-52.2	3.8	1.49e+00	0	50	104	0	51	14838
2026-01-03 07:43:24.74	90.99	4.33	-39.9	-52.2	3.8	1.49e+00	0	50	104	0	51	14870
2026-01-03 07:43:25.75	90.89	4.38	-39.9	-52.2	3.8	1.49e+00	0	50	104	0	51	14822
2026-01-03 07:43:26.76	90.79	4.44	-39.9	-52.2	3.8	1.49e+00	0	50	104	0	51	14867
2026-01-03 07:43:27.77	90.69	4.49	-39.9	-52.2	3.8	1.49e+00	0	50	104	0	51	14871
2026-01-03 07:43:28.78	90.58	4.54	-39.9	-52.2	3.8	1.49e+00	0	50	104	0	51	14817
2026-01-03 07:43:29.79	90.48	4.59	-39.9	-52.2	3.8	1.49e+00	0	50	104	0	51	14863
2026-01-03 07:43:30.80	90.38	4.64	-39.9	-52.2	3.8	1.49e+00	0	51	104	0	51	14858
2026-01-03 07:43:31.81	90.27	4.70	-39.9	-52.2	3.8	1.49e+00	0	50	104	0	51	14840
2026-01-03 07:43:32.82	90.17	4.75	-39.9	-52.2	3.8	1.49e+00	0	51	104	0	51	14839
2026-01-03 07:43:33.83	90.06	4.80	-39.9	-52.2	3.8	1.49e+00	0	51	104	0	51	14837
2026-01-03 07:43:34.85	89.96	4.85	-39.9	-52.2	3.8	1.49e+00	0	51	104	0	51	14865
2026-01-03 07:43:35.86	89.85	4.90	-39.9	-52.2	3.8	1.49e+00	0	51	104	0	51	14865
2026-01-03 07:43:36.87	89.75	4.96	-39.9	-52.3	3.8	1.49e+00	0	51	104	0	51	14898
2026-01-03 07:43:37.88	89.64	5.01	-39.9	-52.2	3.8	1.49e+00	0	51	104	0	51	14849
2026-01-03 07:43:38.89	89.53	5.06	-39.9	-52.2	3.8	1.49e+00	0	51	104	0	51	14847
2026-01-03 07:43:39.90	89.43	5.11	-39.9	-52.3	3.8	1.49e+00	0	51	104	0	51	14899
2026-01-03 07:43:40.91	89.32	5.16	-39.9	-52.2	3.8	1.49e+00	0	51	104	0	50	15704
2026-01-03 07:43:41.92	89.21	5.22	-39.9	-52.2	3.8	1.49e+00	0	51	104	0	50	15694
2026-01-03 07:43:42.93	89.10	5.27	-39.8	-52.2	3.8	1.49e+00	0	51	104	0	50	15652
2026-01-03 07:43:43.94	88.99	5.32	-39.8	-52.2	3.8	1.49e+00	0	51	104	0	50	15619
2026-01-03 07:43:44.96	88.88	5.37	-39.9	-52.2	3.8	1.49e+00	0	51	104	0	50	15729
2026-01-03 07:43:45.97	88.77	5.43	-39.8	-52.2	3.8	1.49e+00	0	52	104	0	50	15704
2026-01-03 07:43:46.98	88.66	5.48	-39.9	-52.3	3.8	1.49e+00	0	51	104	0	50	15772
2026-01-03 07:43:47.99	88.55	5.53	-39.9	-52.2	3.8	1.49e+00	0	52	104	0	50	15734
2026-01-03 07:43:49.00	88.44	5.58	-39.7	-52.2	3.8	1.49e+00	0	51	104	0	50	15666
2026-01-03 07:43:50.01	88.33	5.63	-39.9	-52.2	3.8	1.49e+00	0	51	104	0	50	15730
2026-01-03 07:43:51.02	88.22	5.69	-39.9	-52.2	3.8	1.49e+00	0	52	104	0	50	15713
2026-01-03 07:43:52.03	88.11	5.74	-39.9	-52.3	3.8	1.49e+00	0	52	104	0	50	15762
2026-01-03 07:43:53.04	88.00	5.79	-39.9	-52.2	3.8	1.49e+00	0	52	104	0	50	15716
2026-01-03 07:43:54.05	87.88	5.84	-39.9	-52.2	3.8	1.49e+00	0	52	104	0	50	15722
2026-01-03 07:43:55.07	87.77	5.89	-39.9	-52.2	3.8	1.49e+00	0	52	104	0	50	15758
2026-01-03 07:43:56.08	87.66	5.95	-39.9	-52.2	3.8	1.49e+00	0	52	104	0	50	15750
2026-01-03 07:43:57.09	87.54	6.00	-39.9	-52.2	3.8	1.49e+00	0	52	104	0	50	15742
2026-01-03 07:43:58.10	87.43	6.05	-39.9	-52.2	3.8	1.49e+00	0	52	104	0	50	15716
2026-01-03 07:43:59.11	87.31	6.10	-39.9	-52.2	3.8	1.49e+00	0	52	104	0	50	15735
2026-01-03 07:44:00.12	87.20	6.16	-39.8	-52.2	3.8	1.49e+00	0	52	104	0	50	15729
2026-01-03 07:44:01.13	87.08	6.21	-39.9	-52.2	3.8	1.49e+00	0	52	104	0	50	15756
2026-01-03 07:44:02.14	86.97	6.26	-39.9	-52.2	3.8	1.49e+00	0	52	104	0	50	15740
2026-01-03 07:44:03.15	86.85	6.31	-39.9	-52.2	3.8	1.49e+00	0	52	104	0	50	15709
2026-01-03 07:44:04.16	86.73	6.36	-39.9	-52.2	3.8	1.49e+00	0	52	104	0	50	15737
2026-01-03 07:44:05.18	86.62	6.42	-39.9	-52.2	3.8	1.49e+00	0	52	104	0	50	15713
2026-01-03 07:44:06.18	86.50	6.47	-39.9	-52.2	3.8	1.49e+00	0	52	104	0	50	15702
2026-01-03 07:44:07.20	86.38	6.52	-39.9	-52.2	3.8	1.49e+00	0	52	104	0	50	15717
2026-01-03 07:44:08.21	86.26	6.57	-39.9	-52.2	3.8	1.49e+00	0	52	104	0	50	15750
2026-01-03 07:44:09.22	86.14	6.62	-39.9	-52.3	3.8	1.49e+00	0	52	104	0	50	15763
2026-01-03 07:44:10.23	86.02	6.68	-39.9	-52.2	3.8	1.49e+00	0	52	104	0	50	15733
2026-01-03 07:44:11.24	85.90	6.73	-39.9	-52.3	3.8	1.49e+00	0	52	104	0	50	15762
2026-01-03 07:44:12.25	85.78	6.78	-39.9	-52.2	3.8	1.49e+00	0	52	104	0	50	15675
2026-01-03 07:44:13.26	85.66	6.83	-39.9	-52.2	3.8	1.49e+00	0	52	104	0	50	15717
2026-01-03 07:44:14.27	85.54	6.88	-39.9	-52.3	3.8	1.49e+00	0	53	104	0	50	15761
2026-01-03 07:44:15.28	85.42	6.94	-39.9	-52.2	3.8	1.49e+00	0	53	104	0	50	15732
2026-01-03 07:44:16.29	85.30	6.99	-39.9	-52.2	3.8	1.49e+00	0	53	104	0	50	15750
2026-01-03 07:44:17.30	85.18	7.04	-39.9	-52.2	3.8	1.49e+00	0	53	104	0	50	15734
2026-01-03 07:44:18.32	85.05	7.09	-39.9	-52.3	3.8	1.49e+00	0	53	104	0	50	15789
2026-01-03 07:44:19.33	84.93	7.14	-39.9	-52.2	3.8	1.49e+00	0	53	104	0	50	15700
2026-01-03 07:44:20.34	84.80	7.20	-39.9	-52.2	3.8	1.49e+00	0	53	104	0	50	15756
2026-01-03 07:44:21.35	84.68	7.25	-39.9	-52.2	3.8	1.49e+00	0	53	104	0	50	15738
2026-01-03 07:44:22.36	84.56	7.30	-39.9	-52.2	3.8	1.49e+00	0	53	104	0	50	15750
2026-01-03 07:44:23.37	84.43	7.35	-39.9	-52.2	3.8	1.49e+00	0	53	104	0	50	15755
2026-01-03 07:44:24.38	84.30	7.40	-39.9	-52.2	3.8	1.49e+00	0	53	104	0	50	15737
2026-01-03 07:44:25.39	84.18	7.46	-39.9	-52.3	3.8	1.49e+00	0	53	104	0	50	15764
2026-01-03 07:44:26.40	84.05	7.51	-39.9	-52.2	3.8	1.49e+00	0	53	104	0	50	15756
2026-01-03 07:44:27.41	83.93	7.56	-39.9	-52.3	3.8	1.49e+00	0	53	104	0	50	15803
2026-01-03 07:44:28.43	83.80	7.61	-39.9	-52.2	3.8	1.49e+00	0	53	104	0	50	15756
2026-01-03 07:44:29.44	83.67	7.66	-39.9	-52.3	3.8	1.49e+00	0	53	104	0	50	15782
2026-01-03 07:44:30.45	83.54	7.71	-39.9	-52.2	3.8	1.49e+00	0	53	104	0	50	15747
2026-01-03 07:44:31.46	83.41	7.77	-39.9	-52.2	3.8	1.49e+00	0	53	104	0	50	15721
2026-01-03 07:44:32.47	83.28	7.82	-39.9	-52.2	3.8	1.49e+00	0	53	104	0	50	15756
2026-01-03 07:44:33.48	83.15	7.87	-39.9	-52.3	3.8	1.49e+00	0	53	104	0	50	15775
2026-01-03 07:44:34.49	83.02	7.92	-39.9	-52.2	3.8	1.49e+00	0	53	104	0	50	15727
2026-01-03 07:44:35.50	82.89	7.97	-39.9	-52.2	3.8	1.49e+00	0	53	104	0	50	15746
2026-01-03 07:44:36.51	82.76	8.02	-39.9	-52.3	3.8	1.49e+00	0	54	104	0	50	15779
2026-01-03 07:44:37.52	82.63	8.08	-40.0	-52.3	3.8	1.49e+00	0	53	104	0	50	15943
2026-01-03 07:44:38.53	82.50	8.13	-40.0	-52.4	3.8	1.49e+00	0	53	104	0	50	16010
2026-01-03 07:44:39.54	82.36	8.18	-40.0	-52.3	3.8	1.49e+00	0	54	104	0	50	15825
2026-01-03 07:44:40.55	82.23	8.23	-40.0	-52.3	3.8	1.49e+00	0	54	104	0	50	15866
2026-01-03 07:44:41.57	82.10	8.28	-39.9	-52.3	3.8	1.49e+00	0	54	104	0	50	15818
2026-01-03 07:44:42.57	81.96	8.33	-40.0	-52.3	3.8	1.49e+00	0	54	104	0	50	15816
2026-01-03 07:44:43.59	81.83	8.38	-40.0	-52.3	3.8	1.49e+00	0	53	104	0	50	15798
2026-01-03 07:44:44.60	81.69	8.43	-40.0	-52.3	3.8	1.49e+00	0	54	104	0	50	15847
2026-01-03 07:44:45.61	81.56	8.49	-39.9	-52.3	3.8	1.49e+00	0	54	104	0	50	15826
2026-01-03 07:44:46.62	81.42	8.54	-40.0	-52.3	3.8	1.49e+00	0	54	104	0	50	15908
2026-01-03 07:44:47.62	81.29	8.59	-39.9	-52.3	3.8	1.49e+00	0	54	104	0	50	15892
2026-01-03 07:44:48.63	81.15	8.64	-40.0	-52.4	3.8	1.49e+00	0	54	104	0	50	15989
2026-01-03 07:44:49.64	81.01	8.69	-40.0	-52.3	3.8	1.49e+00	0	54	104	0	50	15851
2026-01-03 07:44:50.65	80.87	8.74	-40.0	-52.4	3.8	1.49e+00	0	54	104	0	50	15945
2026-01-03 07:44:51.66	80.74	8.79	-40.0	-52.4	3.8	1.49e+00	0	54	104	0	50	15961
2026-01-03 07:44:52.67	80.60	8.84	-40.0	-52.3	3.8	1.49e+00	0	54	104	0	50	15921
2026-01-03 07:44:53.68	80.46	8.89	-40.0	-52.4	3.8	1.49e+00	0	54	104	0	50	16004
2026-01-03 07:44:54.69	80.32	8.94	-40.1	-52.4	3.8	1.49e+00	0	54	104	0	50	16076
2026-01-03 07:44:55.70	80.18	8.99	-40.1	-52.5	3.8	1.49e+00	0	54	104	0	50	16187
2026-01-03 07:44:56.71	80.04	9.04	-40.2	-52.6	3.8	1.49e+00	0	54	104	0	50	16392
2026-01-03 07:44:57.72	79.90	9.09	-40.1	-52.4	3.8	1.49e+00	0	54	104	0	50	16091
2026-01-03 07:44:58.73	79.75	9.14	-40.2	-52.6	3.8	1.49e+00	0	54	104	0	50	16487
2026-01-03 07:44:59.74	79.61	9.19	-40.1	-52.5	3.8	1.49e+00	0	54	104	0	51	15239
2026-01-03 07:45:00.75	79.47	9.24	-40.1	-52.5	3.8	1.49e+00	0	54	104	0	51	15319
2026-01-03 07:45:01.76	79.33	9.29	-40.3	-52.7	3.8	1.49e+00	0	54	104	0	51	15653
2026-01-03 07:45:02.77	79.18	9.34	-40.2	-52.6	3.8	1.49e+00	0	54	104	0	51	15509
2026-01-03 07:45:03.78	79.04	9.39	-40.4	-52.8	3.8	1.49e+00	0	54	104	0	51	15831
2026-01-03 07:45:04.79	78.89	9.44	-40.7	-53.1	3.8	1.49e+00	0	54	104	0	52	15464
2026-01-03 07:45:05.80	78.75	9.49	-40.1	-52.6	3.8	1.49e+00	0	54	104	0	52	14554
2026-01-03 07:45:06.81	78.60	9.54	-40.1	-52.5	3.8	1.49e+00	0	54	104	0	52	14469
2026-01-03 07:45:07.82	78.46	9.59	-40.2	-52.6	3.8	1.49e+00	0	54	104	0	52	14580
2026-01-03 07:45:08.83	78.31	9.64	-40.2	-52.6	3.8	1.49e+00	0	54	104	0	52	14655
2026-01-03 07:45:09.84	78.16	9.69	-40.2	-52.6	3.8	1.49e+00	0	54	104	0	52	14654
2026-01-03 07:45:10.85	78.01	9.74	-40.4	-52.8	3.8	1.49e+00	0	54	104	0	52	14973
2026-01-03 07:45:11.86	77.87	9.79	-40.8	-53.2	3.8	1.49e+00	0	54	104	0	52	15620
2026-01-03 07:45:12.87	77.72	9.84	-40.7	-53.1	3.8	1.49e+00	0	54	104	0	52	15402
2026-01-03 07:45:13.87	77.57	9.89	-40.8	-53.2	3.8	1.49e+00	0	54	104	0	52	15715
2026-01-03 07:45:14.89	77.42	9.94	-40.7	-53.1	3.8	1.49e+00	0	54	104	0	52	15424
2026-01-03 07:45:15.90	77.27	9.99	-40.7	-53.3	3.8	1.49e+00	0	54	104	0	52	15910
2026-01-03 07:45:16.91	77.12	10.04	-41.0	-53.6	3.8	1.49e+00	0	54	104	0	52	16376
2026-01-03 07:45:17.92	76.96	10.08	-40.8	-53.1	3.8	1.49e+00	0	54	104	0	52	15551
2026-01-03 07:45:18.93	76.81	10.13	-41.1	-53.6	3.8	1.49e+00	0	54	104	0	52	16419
2026-01-03 07:45:19.94	76.66	10.18	-40.8	-53.2	3.8	1.49e+00	0	54	104	0	52	15671
2026-01-03 07:45:20.95	76.51	10.23	-40.9	-53.4	3.8	1.49e+00	0	54	104	0	52	15954
2026-01-03 07:45:21.96	76.35	10.28	-40.3	-53.7	3.8	1.49e+00	0	54	104	0	52	16535
2026-01-03 07:45:22.97	76.20	10.33	-41.1	-53.5	3.8	1.49e+00	0	54	104	0	52	16251
2026-01-03 07:45:23.98	76.05	10.38	-40.5	-53.7	3.8	1.49e+00	0	55	104	0	52	16515
2026-01-03 07:45:24.99	75.89	10.42	-41.0	-53.4	3.8	1.49e+00	0	54	104	0	52	16125
2026-01-03 07:45:26.00	75.74	10.47	-41.1	-53.6	3.8	1.49e+00	0	55	104	0	52	16318
2026-01-03 07:45:27.01	75.58	10.52	-41.0	-53.3	3.8	1.49e+00	0	54	104	0	52	15872
2026-01-03 07:45:28.01	75.42	10.57	-41.1	-53.6	3.8	1.49e+00	0	55	104	0	52	16447
2026-01-03 07:45:29.02	75.27	10.61	-41.1	-53.5	3.8	1.49e+00	0	55	104	0	53	15283
2026-01-03 07:45:30.03	75.11	10.66	-40.9	-53.3	3.8	1.49e+00	0	55	104	0	53	15012
2026-01-03 07:45:31.04	74.95	10.71	-41.1	-53.4	3.8	1.49e+00	0	55	104	0	53	15164
2026-01-03 07:45:32.05	74.79	10.76	-40.9	-53.2	3.8	1.49e+00	0	55	104	0	53	14809
2026-01-03 07:45:33.06	74.63	10.80	-40.7	-53.0	3.8	1.49e+00	0	55	104	0	53	14418
2026-01-03 07:45:34.07	74.48	10.85	-41.0	-53.4	3.8	1.49e+00	0	55	104	0	53	15152
2026-01-03 07:45:35.08	74.32	10.90	-40.6	-53.0	3.8	1.49e+00	0	55	104	0	53	14389
2026-01-03 07:45:36.09	74.15	10.94	-40.9	-53.3	3.8	1.49e+00	0	55	104	0	53	14931
2026-01-03 07:45:37.10	73.99	10.99	-40.7	-53.1	3.8	1.49e+00	0	55	104	0	53	14702
2026-01-03 07:45:38.11	73.83	11.04	-40.7	-53.0	3.8	1.49e+00	0	55	104	0	53	14401
2026-01-03 07:45:39.12	73.67	11.08	-40.6	-53.1	3.8	1.49e+00	0	55	104	0	53	14584
2026-01-03 07:45:40.13	73.51	11.13	-40.7	-53.0	3.8	1.49e+00	0	55	104	0	53	14394
2026-01-03 07:45:41.14	73.34	11.18	-40.6	-53.0	3.8	1.49e+00	0	55	104	0	53	14400
2026-01-03 07:45:42.15	73.18	11.22	-40.6	-53.0	3.8	1.49e+00	0	55	104	0	53	14424
2026-01-03 07:45:43.16	73.02	11.27	-40.7	-53.0	3.8	1.49e+00	0	55	104	0	53	14490
2026-01-03 07:45:44.17	72.85	11.31	-40.6	-52.9	3.8	1.49e+00	0	55	104	0	53	14322
2026-01-03 07:45:45.18	72.69	11.36	-40.6	-53.0	3.8	1.49e+00	0	54	104	0	53	14479
2026-01-03 07:45:46.19	72.52	11.40	-40.7	-53.0	3.8	1.49e+00	0	55	104	0	53	14461
2026-01-03 07:45:47.19	72.36	11.45	-40.6	-53.0	3.8	1.49e+00	0	55	104	0	53	14449
2026-01-03 07:45:48.20	72.19	11.49	-40.7	-53.1	3.8	1.49e+00	0	55	104	0	53	14566
2026-01-03 07:45:49.21	72.02	11.54	-40.8	-53.1	3.8	1.49e+00	0	55	104	0	53	14657
2026-01-03 07:45:50.22	71.85	11.58	-40.7	-53.0	3.8	1.49e+00	0	55	104	0	53	14474
2026-01-03 07:45:51.24	71.68	11.63	-40.8	-53.2	3.8	1.49e+00	0	55	104	0	53	14723
2026-01-03 07:45:52.25	71.51	11.67	-40.7	-53.0	3.8	1.49e+00	0	55	104	0	53	14449
2026-01-03 07:45:53.25	71.35	11.72	-40.7	-53.1	3.8	1.49e+00	0	55	104	0	53	14620
2026-01-03 07:45:54.26	71.18	11.76	-40.9	-53.2	3.8	1.49e+00	0	55	104	0	53	14829
2026-01-03 07:45:55.28	71.01	11.81	-40.8	-53.1	3.8	1.49e+00	0	55	104	0	53	14650
2026-01-03 07:45:56.29	70.83	11.85	-41.0	-53.4	3.8	1.49e+00	0	55	104	0	53	15098
2026-01-03 07:45:57.30	70.66	11.89	-40.9	-53.2	3.8	1.49e+00	0	55	104	0	53	14835
2026-01-03 07:45:58.31	70.49	11.94	-40.8	-53.2	3.8	1.49e+00	0	55	104	0	53	14758
2026-01-03 07:45:59.32	70.32	11.98	-40.9	-53.3	3.8	1.49e+00	0	55	104	0	53	14899
2026-01-03 07:46:00.33	70.15	12.02	-40.8	-53.2	3.8	1.49e+00	0	55	104	0	53	14758
2026-01-03 07:46:01.34	69.97	12.07	-40.9	-53.2	3.8	1.49e+00	0	55	104	0	53	14812
2026-01-03 07:46:02.35	69.80	12.11	-41.2	-53.6	3.8	1.49e+00	0	55	104	0	53	15495
2026-01-03 07:46:03.36	69.62	12.15	-40.9	-53.2	3.8	1.49e+00	0	55	104	0	53	14857
2026-01-03 07:46:04.37	69.45	12.19	-41.4	-53.8	3.8	1.49e+00	0	55	104	0	53	15806
2026-01-03 07:46:05.38	69.27	12.24	-41.1	-53.4	3.8	1.49e+00	0	55	104	0	53	15108
2026-01-03 07:46:06.40	69.10	12.28	-40.9	-53.2	3.8	1.49e+00	0	55	104	0	53	14804
2026-01-03 07:46:07.40	68.92	12.32	-41.1	-53.3	3.8	1.49e+00	0	55	104	0	53	15050
2026-01-03 07:46:08.41	68.74	12.36	-41.1	-53.4	3.8	1.49e+00	0	55	104	0	53	15093
2026-01-03 07:46:09.42	68.57	12.40	-41.0	-53.3	3.8	1.49e+00	0	55	104	0	53	15021
2026-01-03 07:46:10.43	68.39	12.44	-40.9	-53.3	3.8	1.49e+00	0	55	104	0	53	14882
2026-01-03 07:46:11.44	68.21	12.48	-41.0	-53.3	3.8	1.49e+00	0	55	104	0	53	14966
2026-01-03 07:46:12.45	68.03	12.52	-40.9	-53.3	3.8	1.49e+00	0	55	104	0	53	14911
2026-01-03 07:46:13.46	67.85	12.57	-40.8	-53.2	3.8	1.49e+00	0	55	104	0	53	14850
2026-01-03 07:46:14.47	67.67	12.61	-40.9	-53.2	3.8	1.49e+00	0	55	104	0	53	14858
2026-01-03 07:46:15.48	67.49	12.65	-40.8	-53.3	3.8	1.49e+00	0	55	104	0	53	14944
2026-01-03 07:46:16.49	67.31	12.69	-40.8	-53.2	3.8	1.49e+00	0	55	104	0	53	14835
2026-01-03 07:46:17.50	67.13	12.73	-40.9	-53.3	3.8	1.49e+00	0	55	104	0	53	14910
2026-01-03 07:46:18.52	66.94	12.77	-41.0	-53.4	3.8	1.49e+00	0	55	104	0	53	15121
2026-01-03 07:46:19.52	66.76	12.80	-41.0	-53.4	3.8	1.49e+00	0	55	104	0	53	15144
2026-01-03 07:46:20.53	66.58	12.84	-41.1	-53.5	3.8	1.49e+00	0	55	104	0	53	15315
2026-01-03 07:46:21.54	66.40	12.88	-41.1	-53.4	3.8	1.49e+00	0	55	104	0	53	15160
2026-01-03 07:46:22.55	66.21	12.92	-41.1	-53.4	3.8	1.49e+00	0	55	104	0	53	15210
2026-01-03 07:46:23.56	66.03	12.96	-41.2	-53.5	3.8	1.49e+00	0	55	104	0	53	15265
2026-01-03 07:46:24.57	65.84	13.00	-41.2	-53.4	3.8	1.49e+00	0	55	104	0	53	15191
2026-01-03 07:46:25.58	65.66	13.04	-41.2	-53.6	3.8	1.49e+00	0	56	104	0	54	14544
2026-01-03 07:46:26.59	65.47	13.07	-41.1	-53.4	3.8	1.49e+00	0	55	104	0	54	14306
2026-01-03 07:46:27.60	65.29	13.11	-41.0	-53.3	3.8	1.49e+00	0	55	104	0	54	14188
2026-01-03 07:46:28.61	65.10	13.15	-40.9	-53.2	3.8	1.49e+00	0	55	104	0	53	14853
2026-01-03 07:46:29.62	64.91	13.18	-40.9	-53.2	3.8	1.49e+00	0	56	104	0	53	14872
2026-01-03 07:46:30.63	64.72	13.22	-40.8	-53.2	3.8	1.49e+00	0	55	104	0	53	14836
2026-01-03 07:46:31.64	64.54	13.26	-41.0	-53.1	3.8	1.49e+00	0	55	104	0	53	14605
2026-01-03 07:46:32.65	64.35	13.29	-41.4	-51.8	3.9	1.49e+00	0	56	104	0	53	12537
2026-01-03 07:46:33.66	64.16	13.33	-40.7	-52.1	3.8	6.67e-01	0	56	104	0	53	13012
2026-01-03 07:46:34.67	63.97	13.37	-40.8	-51.5	3.9	1.49e+00	0	56	104	0	53	12186
2026-01-03 07:46:35.68	63.78	13.40	-41.5	-50.4	4.0	1.43e+00	4	56	104	0	53	10656
2026-01-03 07:46:36.69	63.59	13.44	-41.1	-47.0	6.5	4.03e-01	0	56	0	1048576	53	7232
2026-01-03 07:46:37.70	63.40	13.47	-40.4	-44.5	9.3	3.42e-02	0	56	0	4194304	52	5787
2026-01-03 07:46:38.71	63.21	13.51	-40.0	-43.2	11.0	2.89e-03	0	56	0	7340032	52	4964
2026-01-03 07:46:39.72	63.01	13.54	-39.5	-42.2	12.6	1.79e-04	0	56	0	11534336	51	4669
2026-01-03 07:46:40.73	62.82	13.57	-38.9	-41.1	13.9	4.50e-06	0	56	0	13631488	49	4648
2026-01-03 07:46:41.74	62.63	13.61	-38.2	-40.2	15.1	0.00e+00	0	56	0	16777216	48	4399
2026-01-03 07:46:42.75	62.44	13.64	-37.9	-39.7	15.6	0.00e+00	0	56	0	19922944	47	4413
2026-01-03 07:46:43.76	62.24	13.67	-37.8	-39.6	15.6	0.00e+00	0	55	0	23068672	47	4383
2026-01-03 07:46:44.77	62.05	13.71	-37.8	-39.5	15.7	0.00e+00	0	56	0	27262976	47	4332
2026-01-03 07:46:45.78	61.85	13.74	-37.5	-39.2	16.1	0.00e+00	0	56	0	30408704	47	4167
2026-01-03 07:46:46.79	61.66	13.77	-37.2	-38.8	16.4	0.00e+00	0	56	0	33554432	46	4241
2026-01-03 07:46:47.80	61.46	13.80	-37.3	-39.0	16.3	0.00e+00	0	56	0	35651584	46	4293
2026-01-03 07:46:48.81	61.27	13.84	-37.1	-38.7	16.6	0.00e+00	0	56	0	38797312	46	4154
2026-01-03 07:46:49.82	61.07	13.87	-36.9	-38.5	16.8	0.00e+00	0	56	0	42991616	45	4319
2026-01-03 07:46:50.83	60.87	13.90	-36.7	-38.2	17.0	0.00e+00	0	56	0	46137344	45	4171
2026-01-03 07:46:51.84	60.68	13.93	-36.6	-38.2	17.1	0.00e+00	0	56	0	49283072	45	4150
2026-01-03 07:46:52.85	60.48	13.96	-36.6	-38.1	17.1	0.00e+00	0	56	0	52428800	45	4136
2026-01-03 07:46:53.86	60.28	13.99	-36.7	-38.3	17.0	0.00e+00	0	56	0	55574528	45	4197
2026-01-03 07:46:54.87	60.08	14.02	-36.8	-38.3	16.9	0.00e+00	0	56	0	58720256	45	4226
2026-01-03 07:46:55.88	59.88	14.05	-36.8	-38.3	16.9	0.00e+00	0	56	0	61865984	45	4240
2026-01-03 07:46:56.89	59.69	14.08	-36.9	-38.4	16.9	0.00e+00	0	56	0	65011712	45	4268
2026-01-03 07:46:57.90	59.49	14.11	-36.9	-38.5	16.8	0.00e+00	0	56	0	68157440	45	4318
2026-01-03 07:46:58.91	59.29	14.14	-36.9	-38.4	16.8	0.00e+00	0	56	0	71303168	45	4281
2026-01-03 07:46:59.92	59.09	14.17	-36.8	-38.3	17.0	0.00e+00	0	56	0	74448896	45	4233
2026-01-03 07:47:00.93	58.89	14.20	-36.8	-38.4	16.9	0.00e+00	0	56	0	77594624	45	4264
2026-01-03 07:47:01.94	58.68	14.22	-36.9	-38.5	16.8	0.00e+00	0	56	0	80740352	45	4292
2026-01-03 07:47:02.95	58.48	14.25	-36.9	-38.4	16.9	0.00e+00	0	56	0	83886080	45	4275
2026-01-03 07:47:03.96	58.28	14.28	-36.9	-38.5	16.9	0.00e+00	0	56	0	87031808	45	4299
2026-01-03 07:47:04.97	58.08	14.31	-36.9	-38.5	16.8	0.00e+00	0	56	0	90177536	45	4325
2026-01-03 07:47:05.98	57.88	14.33	-36.9	-38.5	16.8	0.00e+00	0	56	0	93323264	45	4325
2026-01-03 07:47:06.99	57.67	14.36	-36.9	-38.5	16.8	0.00e+00	0	56	0	96468992	45	4316
2026-01-03 07:47:08.00	57.47	14.38	-36.9	-38.4	16.9	0.00e+00	0	56	0	99614720	45	4273
2026-01-03 07:47:09.01	57.27	14.41	-36.9	-38.4	16.9	0.00e+00	0	56	0	102760448	45	4290
2026-01-03 07:47:10.02	57.06	14.43	-36.9	-38.4	16.9	0.00e+00	0	56	0	105906176	45	4269
2026-01-03 07:47:11.03	56.86	14.46	-36.8	-38.4	16.9	0.00e+00	0	56	0	109051904	45	4257
2026-01-03 07:47:12.04	56.65	14.48	-36.7	-38.3	17.0	0.00e+00	0	56	0	112197632	45	4209
2026-01-03 07:47:13.05	56.45	14.51	-36.7	-38.3	17.0	0.00e+00	0	56	0	115343360	45	4199
2026-01-03 07:47:14.06	56.24	14.53	-36.8	-38.3	17.0	0.00e+00	0	56	0	118489088	45	4235
2026-01-03 07:47:15.07	56.04	14.56	-36.8	-38.3	17.0	0.00e+00	0	56	0	121634816	45	4237
2026-01-03 07:47:16.08	55.83	14.58	-36.9	-38.4	16.9	0.00e+00	0	56	0	124780544	45	4289
2026-01-03 07:47:17.09	55.63	14.60	-36.8	-38.3	17.1	0.00e+00	0	56	0	127926272	45	4211
2026-01-03 07:47:18.10	55.42	14.62	-36.7	-38.3	17.1	0.00e+00	0	56	0	131072000	45	4197
2026-01-03 07:47:19.11	55.21	14.65	-36.7	-38.2	17.2	0.00e+00	0	56	0	134217728	45	4154
2026-01-03 07:47:20.12	55.01	14.67	-36.6	-38.1	17.2	0.00e+00	0	56	0	137363456	45	4129
2026-01-03 07:47:21.14	54.80	14.69	-36.5	-38.0	17.3	0.00e+00	0	56	0	140509184	45	4086
2026-01-03 07:47:22.15	54.59	14.71	-36.5	-38.0	17.4	0.00e+00	0	56	0	143654912	45	4061
2026-01-03 07:47:23.16	54.38	14.73	-36.5	-38.0	17.3	0.00e+00	0	56	0	146800640	45	4069
2026-01-03 07:47:24.17	54.17	14.75	-36.6	-38.1	17.3	0.00e+00	0	56	0	149946368	45	4130
2026-01-03 07:47:25.18	53.96	14.77	-36.6	-38.0	17.3	0.00e+00	0	56	0	153092096	45	4095
2026-01-03 07:47:26.18	53.76	14.79	-36.6	-38.0	17.3	0.00e+00	0	56	0	156237824	45	4088
2026-01-03 07:47:27.19	53.55	14.81	-36.5	-38.0	17.4	0.00e+00	0	56	0	159383552	45	4073
2026-01-03 07:47:28.20	53.34	14.83	-36.6	-38.0	17.3	0.00e+00	0	56	0	162529280	45	4090
2026-01-03 07:47:29.21	53.13	14.85	-36.5	-38.0	17.3	0.00e+00	0	56	0	165675008	45	4086
2026-01-03 07:47:30.22	52.92	14.87	-36.6	-38.1	17.3	0.00e+00	0	56	0	168820736	45	4114
2026-01-03 07:47:31.23	52.71	14.88	-36.6	-38.1	17.3	0.00e+00	0	56	0	171966464	45	4125
2026-01-03 07:47:32.24	52.50	14.90	-36.6	-38.1	17.3	0.00e+00	0	56	0	175112192	45	4119
2026-01-03 07:47:33.25	52.29	14.92	-36.7	-38.2	17.2	0.00e+00	0	56	0	178257920	45	4152
2026-01-03 07:47:34.25	52.08	14.94	-36.5	-37.9	17.4	0.00e+00	0	56	0	181403648	45	4047
2026-01-03 07:47:35.27	51.87	14.95	-36.5	-38.0	17.4	0.00e+00	0	56	0	184549376	45	4062
2026-01-03 07:47:36.28	51.65	14.97	-36.5	-37.9	17.4	0.00e+00	0	56	0	187695104	45	4050
2026-01-03 07:47:37.29	51.44	14.98	-36.5	-38.0	17.4	0.00e+00	0	56	0	190840832	45	4085
2026-01-03 07:47:38.30	51.23	15.00	-36.5	-37.9	17.4	0.00e+00	0	56	0	193986560	44	4284
2026-01-03 07:47:39.31	51.02	15.01	-36.5	-37.9	17.4	0.00e+00	0	56	0	197132288	44	4291
2026-01-03 07:47:40.32	50.81	15.03	-36.6	-38.1	17.3	0.00e+00	0	56	0	200278016	44	4352
2026-01-03 07:47:41.33	50.59	15.04	-36.7	-38.1	17.2	0.00e+00	0	56	0	203423744	44	4391
2026-01-03 07:47:42.34	50.38	15.06	-36.7	-38.2	17.2	0.00e+00	0	56	0	206569472	44	4430
2026-01-03 07:47:43.35	50.17	15.07	-36.8	-38.3	17.1	0.00e+00	0	56	0	209715200	44	4489
2026-01-03 07:47:44.36	49.96	15.08	-36.9	-38.5	17.0	0.00e+00	0	56	0	212860928	44	4548
2026-01-03 07:47:45.37	49.74	15.09	-37.0	-38.6	16.9	0.00e+00	0	56	0	216006656	44	4602
2026-01-03 07:47:46.38	49.53	15.11	-36.9	-38.4	17.0	0.00e+00	0	56	0	219152384	44	4537
2026-01-03 07:47:47.39	49.32	15.12	-36.9	-38.4	17.0	0.00e+00	0	56	0	222298112	44	4544
2026-01-03 07:47:48.40	49.10	15.13	-36.8	-38.4	17.1	0.00e+00	0	56	0	225443840	44	4508
2026-01-03 07:47:49.41	48.89	15.14	-36.8	-38.3	17.1	0.00e+00	0	56	0	228589568	44	4491
2026-01-03 07:47:50.41	48.68	15.15	-36.7	-38.3	17.2	0.00e+00	0	56	0	231735296	44	4442
2026-01-03 07:47:51.42	48.46	15.16	-36.7	-38.2	17.2	0.00e+00	0	56	0	234881024	44	4426
2026-01-03 07:47:52.43	48.25	15.17	-36.7	-38.2	17.2	0.00e+00	0	56	0	238026752	44	4424
2026-01-03 07:47:53.44	48.03	15.18	-36.7	-38.2	17.2	0.00e+00	0	56	0	241172480	44	4418
2026-01-03 07:47:54.45	47.82	15.19	-36.7	-38.2	17.2	0.00e+00	0	56	0	244318208	44	4437
2026-01-03 07:47:55.46	47.60	15.20	-36.8	-38.3	17.1	0.00e+00	0	56	0	247463936	44	4471
2026-01-03 07:47:56.47	47.39	15.21	-36.7	-38.3	17.2	0.00e+00	0	56	0	250609664	44	4443
2026-01-03 07:47:57.48	47.17	15.21	-36.7	-38.2	17.2	0.00e+00	0	56	0	253755392	44	4414
2026-01-03 07:47:58.49	46.96	15.22	-36.7	-38.2	17.3	0.00e+00	0	56	0	256901120	44	4411
2026-01-03 07:47:59.50	46.74	15.23	-36.7	-38.2	17.3	0.00e+00	0	56	0	260046848	44	4403
2026-01-03 07:48:00.51	46.53	15.23	-36.8	-38.3	17.1	0.00e+00	0	56	0	263192576	44	4492
2026-01-03 07:48:01.52	46.31	15.24	-36.8	-38.4	17.1	0.00e+00	0	56	0	266338304	44	4498
2026-01-03 07:48:02.53	46.10	15.25	-36.8	-38.4	17.1	0.00e+00	0	56	0	269484032	44	4500
2026-01-03 07:48:03.54	45.88	15.25	-36.8	-38.3	17.1	0.00e+00	0	56	0	272629760	44	4483
2026-01-03 07:48:04.55	45.67	15.26	-36.9	-38.4	17.0	0.00e+00	0	56	0	275775488	44	4537
2026-01-03 07:48:05.56	45.45	15.26	-36.8	-38.3	17.1	0.00e+00	0	56	0	278921216	44	4472
2026-01-03 07:48:06.57	45.24	15.26	-36.7	-38.2	17.2	0.00e+00	0	56	0	282066944	44	4420
2026-01-03 07:48:07.58	45.02	15.27	-36.7	-38.2	17.2	0.00e+00	0	56	0	285212672	44	4441
2026-01-03 07:48:08.59	44.80	15.27	-36.7	-38.2	17.2	0.00e+00	0	56	0	288358400	44	4434
2026-01-03 07:48:09.60	44.59	15.27	-36.7	-38.2	17.2	0.00e+00	0	56	0	291504128	44	4436
2026-01-03 07:48:10.61	44.37	15.28	-36.7	-38.3	17.2	0.00e+00	0	56	0	294649856	44	4445
2026-01-03 07:48:11.62	44.16	15.28	-36.8	-38.3	17.1	0.00e+00	0	56	0	297795584	44	4488
2026-01-03 07:48:12.63	43.94	15.28	-36.9	-38.4	17.0	0.00e+00	0	56	0	300941312	44	4514
2026-01-03 07:48:13.64	43.73	15.28	-36.9	-38.5	17.0	0.00e+00	0	56	0	304087040	44	4556
2026-01-03 07:48:14.65	43.51	15.28	-37.0	-38.5	16.9	0.00e+00	0	56	0	307232768	44	4598
2026-01-03 07:48:15.66	43.29	15.28	-37.0	-38.5	17.0	0.00e+00	0	56	0	310378496	44	4577
2026-01-03 07:48:16.67	43.08	15.28	-36.8	-38.4	17.1	0.00e+00	0	56	0	313524224	44	4497
2026-01-03 07:48:17.68	42.86	15.28	-36.8	-38.3	17.1	0.00e+00	0	56	0	316669952	44	4474
2026-01-03 07:48:18.69	42.65	15.28	-36.8	-38.3	17.2	0.00e+00	0	56	0	319815680	44	4473
2026-01-03 07:48:19.70	42.43	15.28	-36.7	-38.2	17.2	0.00e+00	0	56	0	322961408	44	4425
2026-01-03 07:48:20.70	42.22	15.28	-36.7	-38.2	17.2	0.00e+00	0	56	0	326107136	44	4435
2026-01-03 07:48:21.72	42.00	15.28	-36.7	-38.2	17.2	0.00e+00	0	56	0	329252864	44	4410
2026-01-03 07:48:22.73	41.78	15.27	-36.7	-38.2	17.2	0.00e+00	0	56	0	332398592	44	4438
2026-01-03 07:48:23.73	41.57	15.27	-36.7	-38.2	17.2	0.00e+00	0	56	0	335544320	44	4430
2026-01-03 07:48:24.74	41.35	15.27	-36.7	-38.2	17.2	0.00e+00	0	56	0	338690048	44	4436
2026-01-03 07:48:25.75	41.14	15.26	-36.7	-38.2	17.2	0.00e+00	0	56	0	341835776	44	4440
2026-01-03 07:48:26.76	40.92	15.26	-36.7	-38.2	17.3	0.00e+00	0	56	0	344981504	44	4404
2026-01-03 07:48:27.77	40.71	15.26	-36.8	-38.3	17.1	0.00e+00	0	56	0	349175808	44	4466
2026-01-03 07:48:28.78	40.49	15.25	-36.8	-38.4	17.1	0.00e+00	0	56	0	351272960	44	4498
2026-01-03 07:48:29.79	40.28	15.25	-36.9	-38.4	17.0	0.00e+00	0	56	0	354418688	44	4529
2026-01-03 07:48:30.80	40.06	15.24	-36.9	-38.5	16.9	0.00e+00	0	56	0	357564416	44	4569
2026-01-03 07:48:31.81	39.85	15.23	-37.0	-38.6	16.9	0.00e+00	0	56	0	360710144	44	4607
2026-01-03 07:48:32.82	39.63	15.23	-36.9	-38.5	17.0	0.00e+00	0	56	0	364904448	44	4556
2026-01-03 07:48:33.83	39.42	15.22	-36.8	-38.3	17.1	0.00e+00	0	56	0	368050176	44	4487
2026-01-03 07:48:34.84	39.20	15.21	-36.8	-38.4	17.1	0.00e+00	0	56	0	371195904	44	4494
2026-01-03 07:48:35.85	38.99	15.20	-36.8	-38.3	17.2	0.00e+00	0	56	0	374341632	44	4448
2026-01-03 07:48:36.86	38.77	15.20	-36.7	-38.1	17.2	0.00e+00	0	56	0	376438784	44	4389
2026-01-03 07:48:37.87	38.56	15.19	-36.6	-38.1	17.3	0.00e+00	0	56	0	380633088	44	4381
2026-01-03 07:48:38.88	38.34	15.18	-36.6	-38.1	17.3	0.00e+00	0	56	0	383778816	44	4354
2026-01-03 07:48:39.89	38.13	15.17	-36.5	-38.0	17.4	0.00e+00	0	56	0	386924544	44	4324
2026-01-03 07:48:40.90	37.91	15.16	-36.5	-38.0	17.4	0.00e+00	0	57	0	390070272	44	4319
2026-01-03 07:48:41.91	37.70	15.15	-36.6	-38.0	17.3	0.00e+00	0	56	0	393216000	44	4338
2026-01-03 07:48:42.92	37.49	15.14	-36.6	-38.1	17.2	0.00e+00	0	56	0	396361728	44	4389
2026-01-03 07:48:43.93	37.27	15.13	-36.6	-38.1	17.3	0.00e+00	0	57	0	399507456	44	4345
2026-01-03 07:48:44.94	37.06	15.12	-36.6	-38.1	17.2	0.00e+00	0	56	0	402653184	44	4390
2026-01-03 07:48:45.95	36.85	15.11	-36.7	-38.2	17.2	0.00e+00	0	56	0	405798912	44	4408
2026-01-03 07:48:46.96	36.63	15.09	-36.8	-38.3	17.1	0.00e+00	0	56	0	408944640	44	4455
2026-01-03 07:48:47.98	36.42	15.08	-36.8	-38.4	17.0	0.00e+00	0	56	0	412090368	44	4504
2026-01-03 07:48:48.99	36.21	15.07	-36.8	-38.3	17.1	0.00e+00	0	56	0	415236096	44	4459
2026-01-03 07:48:50.00	35.99	15.05	-36.7	-38.2	17.2	0.00e+00	0	56	0	418381824	44	4419
2026-01-03 07:48:51.01	35.78	15.04	-36.7	-38.2	17.1	0.00e+00	0	56	0	421527552	44	4432
2026-01-03 07:48:52.02	35.57	15.03	-36.7	-38.1	17.2	0.00e+00	0	56	0	424673280	44	4391
2026-01-03 07:48:53.03	35.36	15.01	-36.6	-38.1	17.3	0.00e+00	0	57	0	427819008	44	4384
2026-01-03 07:48:54.04	35.14	15.00	-36.6	-38.1	17.3	0.00e+00	0	57	0	430964736	44	4373
2026-01-03 07:48:55.05	34.93	14.98	-36.7	-38.2	17.2	0.00e+00	0	56	0	434110464	44	4421
2026-01-03 07:48:56.05	34.72	14.97	-36.8	-38.3	17.2	0.00e+00	0	56	0	437256192	44	4452
2026-01-03 07:48:57.06	34.51	14.95	-36.9	-38.4	17.0	0.00e+00	0	56	0	440401920	44	4524
2026-01-03 07:48:58.07	34.30	14.93	-36.9	-38.5	17.0	0.00e+00	0	56	0	443547648	44	4555
2026-01-03 07:48:59.08	34.09	14.92	-37.0	-38.5	16.9	0.00e+00	0	56	0	446693376	44	4577
2026-01-03 07:49:00.09	33.88	14.90	-36.9	-38.5	17.0	0.00e+00	0	57	0	449839104	44	4548
2026-01-03 07:49:01.10	33.67	14.88	-36.8	-38.4	17.1	0.00e+00	0	56	0	452984832	44	4502
2026-01-03 07:49:02.11	33.46	14.87	-36.7	-38.2	17.2	0.00e+00	0	57	0	456130560	44	4432
2026-01-03 07:49:03.12	33.25	14.85	-36.7	-38.2	17.2	0.00e+00	0	57	0	459276288	44	4424
2026-01-03 07:49:04.13	33.04	14.83	-36.7	-38.1	17.3	0.00e+00	0	57	0	462422016	44	4379
2026-01-03 07:49:05.14	32.83	14.81	-36.6	-38.1	17.3	0.00e+00	0	56	0	465567744	44	4362
2026-01-03 07:49:06.15	32.62	14.79	-36.6	-38.1	17.3	0.00e+00	0	56	0	468713472	44	4374
2026-01-03 07:49:07.16	32.42	14.77	-36.7	-38.2	17.2	0.00e+00	0	57	0	471859200	44	4416
2026-01-03 07:49:08.17	32.21	14.75	-36.7	-38.3	17.2	0.00e+00	0	56	0	475004928	44	4444
2026-01-03 07:49:09.18	32.00	14.73	-36.9	-38.4	17.1	0.00e+00	0	56	0	478150656	44	4512
2026-01-03 07:49:10.20	31.79	14.71	-36.8	-38.3	17.2	0.00e+00	0	56	0	481296384	44	4446
2026-01-03 07:49:11.20	31.59	14.69	-36.7	-38.2	17.3	0.00e+00	0	56	0	484442112	44	4404
2026-01-03 07:49:12.21	31.38	14.67	-36.6	-38.2	17.3	0.00e+00	0	56	0	487587840	44	4392
2026-01-03 07:49:13.22	31.17	14.65	-36.7	-38.2	17.3	0.00e+00	0	56	0	490733568	44	4410
2026-01-03 07:49:14.23	30.97	14.62	-36.8	-38.3	17.1	0.00e+00	0	56	0	493879296	44	4467
2026-01-03 07:49:15.24	30.76	14.60	-36.9	-38.5	17.0	0.00e+00	0	56	0	497025024	44	4558
2026-01-03 07:49:16.25	30.55	14.58	-37.0	-38.5	16.9	0.00e+00	0	56	0	500170752	44	4582
2026-01-03 07:49:17.26	30.35	14.55	-37.0	-38.6	16.9	0.00e+00	0	56	0	503316480	44	4604
2026-01-03 07:49:18.27	30.14	14.53	-36.9	-38.4	17.0	0.00e+00	0	57	0	506462208	44	4514
2026-01-03 07:49:19.28	29.94	14.51	-36.8	-38.3	17.1	0.00e+00	0	56	0	509607936	44	4489
2026-01-03 07:49:20.29	29.73	14.48	-36.8	-38.3	17.1	0.00e+00	0	56	0	512753664	44	4481
2026-01-03 07:49:21.30	29.53	14.46	-36.7	-38.2	17.2	0.00e+00	0	56	0	515899392	44	4418
2026-01-03 07:49:22.31	29.33	14.43	-36.6	-38.0	17.4	0.00e+00	0	56	0	519045120	44	4324
2026-01-03 07:49:23.32	29.12	14.41	-36.6	-38.1	17.3	0.00e+00	0	57	0	522190848	44	4352
2026-01-03 07:49:24.33	28.92	14.38	-36.6	-38.1	17.3	0.00e+00	0	57	0	525336576	44	4355
2026-01-03 07:49:25.34	28.72	14.36	-36.6	-38.1	17.3	0.00e+00	0	56	0	528482304	44	4369
2026-01-03 07:49:26.35	28.51	14.33	-36.7	-38.2	17.2	0.00e+00	0	57	0	531628032	44	4425
2026-01-03 07:49:27.36	28.31	14.30	-36.9	-38.4	17.1	0.00e+00	0	56	0	534773760	44	4505
2026-01-03 07:49:28.37	28.11	14.28	-37.0	-38.5	17.0	0.00e+00	0	56	0	537919488	44	4578
2026-01-03 07:49:29.38	27.91	14.25	-37.1	-38.6	16.8	0.00e+00	0	56	0	541065216	44	4643
2026-01-03 07:49:30.39	27.71	14.22	-37.1	-38.7	16.8	0.00e+00	0	57	0	544210944	44	4687
2026-01-03 07:49:31.40	27.51	14.19	-37.2	-38.8	16.7	0.00e+00	0	56	0	547356672	44	4743
2026-01-03 07:49:32.41	27.31	14.17	-37.1	-38.7	16.8	0.00e+00	0	57	0	550502400	45	4426
2026-01-03 07:49:33.42	27.11	14.14	-37.1	-38.6	16.9	0.00e+00	0	57	0	553648128	45	4374
2026-01-03 07:49:34.43	26.91	14.11	-37.0	-38.5	16.9	0.00e+00	0	56	0	556793856	45	4334
2026-01-03 07:49:35.44	26.71	14.08	-36.9	-38.5	17.0	0.00e+00	0	57	0	559939584	45	4316
2026-01-03 07:49:36.45	26.51	14.05	-36.9	-38.5	17.0	0.00e+00	0	57	0	563085312	45	4307
2026-01-03 07:49:37.46	26.31	14.02	-36.7	-38.2	17.2	0.00e+00	0	56	0	566231040	45	4174
2026-01-03 07:49:38.46	26.12	13.99	-36.6	-38.1	17.3	0.00e+00	0	57	0	569376768	45	4136
2026-01-03 07:49:39.48	25.92	13.96	-36.7	-38.2	17.3	0.00e+00	0	57	0	572522496	45	4149
2026-01-03 07:49:40.49	25.72	13.93	-36.6	-38.1	17.3	0.00e+00	0	57	0	575668224	45	4143
2026-01-03 07:49:41.49	25.53	13.90	-36.7	-38.2	17.2	0.00e+00	0	57	0	578813952	45	4163
2026-01-03 07:49:42.50	25.33	13.87	-36.7	-38.2	17.2	0.00e+00	0	57	0	581959680	45	4171
2026-01-03 07:49:43.51	25.14	13.84	-36.7	-38.2	17.2	0.00e+00	0	56	0	585105408	45	4173
2026-01-03 07:49:44.52	24.94	13.80	-36.7	-38.2	17.2	0.00e+00	0	56	0	588251136	45	4174
2026-01-03 07:49:45.53	24.75	13.77	-36.8	-38.3	17.2	0.00e+00	0	57	0	591396864	45	4209
2026-01-03 07:49:46.54	24.55	13.74	-36.9	-38.4	17.0	0.00e+00	0	57	0	594542592	45	4272
2026-01-03 07:49:47.55	24.36	13.71	-36.9	-38.5	16.9	0.00e+00	0	57	0	597688320	45	4315
2026-01-03 07:49:48.57	24.16	13.67	-37.0	-38.5	16.9	0.00e+00	0	57	0	600834048	45	4337
2026-01-03 07:49:49.58	23.97	13.64	-37.0	-38.6	16.8	0.00e+00	0	56	0	603979776	45	4351
2026-01-03 07:49:50.59	23.78	13.61	-37.0	-38.6	16.8	0.00e+00	0	57	0	607125504	45	4352
2026-01-03 07:49:51.60	23.59	13.57	-37.1	-38.6	16.8	0.00e+00	0	57	0	610271232	45	4372
2026-01-03 07:49:52.60	23.40	13.54	-37.1	-38.6	16.8	0.00e+00	0	57	0	613416960	45	4389
2026-01-03 07:49:53.61	23.21	13.51	-37.2	-38.8	16.6	0.00e+00	0	57	0	616562688	45	4453
2026-01-03 07:49:54.62	23.01	13.47	-37.0	-38.6	16.8	0.00e+00	0	57	0	619708416	45	4367
2026-01-03 07:49:55.63	22.82	13.44	-37.0	-38.6	16.8	0.00e+00	0	57	0	622854144	45	4364
2026-01-03 07:49:56.65	22.63	13.40	-37.0	-38.5	16.9	0.00e+00	0	57	0	625999872	45	4337
2026-01-03 07:49:57.66	22.44	13.37	-37.0	-38.6	16.8	0.00e+00	0	57	0	629145600	45	4341
2026-01-03 07:49:58.67	22.25	13.33	-37.0	-38.6	16.8	0.00e+00	0	57	0	632291328	45	4350
2026-01-03 07:49:59.68	22.07	13.29	-36.9	-38.5	16.9	0.00e+00	0	57	0	635437056	45	4319
2026-01-03 07:50:00.69	21.88	13.26	-37.0	-38.6	16.9	0.00e+00	0	57	0	638582784	45	4353
2026-01-03 07:50:01.70	21.69	13.22	-37.0	-38.6	16.8	0.00e+00	0	56	0	641728512	45	4355
2026-01-03 07:50:02.71	21.50	13.19	-37.0	-38.6	16.8	0.00e+00	0	56	0	644874240	45	4374
2026-01-03 07:50:03.72	21.32	13.15	-37.1	-38.7	16.7	0.00e+00	0	57	0	648019968	45	4422
2026-01-03 07:50:04.73	21.13	13.11	-37.0	-38.6	16.8	0.00e+00	0	56	0	651165696	45	4353
2026-01-03 07:50:05.74	20.95	13.07	-37.0	-38.6	16.8	0.00e+00	0	57	0	654311424	45	4372
2026-01-03 07:50:06.75	20.76	13.04	-37.0	-38.6	16.8	0.00e+00	0	57	0	657457152	45	4373
2026-01-03 07:50:07.76	20.58	13.00	-36.9	-38.5	16.9	0.00e+00	0	56	0	660602880	45	4296
2026-01-03 07:50:08.77	20.39	12.96	-36.9	-38.5	16.9	0.00e+00	0	57	0	664797184	45	4308
2026-01-03 07:50:09.78	20.21	12.92	-36.9	-38.4	16.9	0.00e+00	0	56	0	666894336	45	4289
2026-01-03 07:50:10.79	20.03	12.88	-36.9	-38.5	16.9	0.00e+00	0	57	0	670040064	45	4299
2026-01-03 07:50:11.80	19.84	12.84	-37.0	-38.6	16.8	0.00e+00	0	57	0	673185792	45	4345
2026-01-03 07:50:12.81	19.66	12.81	-37.0	-38.5	16.8	0.00e+00	0	57	0	676331520	45	4333
2026-01-03 07:50:13.82	19.48	12.77	-37.0	-38.6	16.8	0.00e+00	0	57	0	680525824	45	4342
2026-01-03 07:50:14.83	19.30	12.73	-36.9	-38.5	16.9	0.00e+00	0	57	0	683671552	45	4311
2026-01-03 07:50:15.84	19.12	12.69	-36.9	-38.4	16.9	0.00e+00	0	57	0	686817280	45	4271
2026-01-03 07:50:16.85	18.94	12.65	-36.9	-38.4	16.9	0.00e+00	0	57	0	689963008	45	4269
2026-01-03 07:50:17.86	18.76	12.61	-36.9	-38.5	16.8	0.00e+00	0	57	0	692060160	45	4311
2026-01-03 07:50:18.87	18.58	12.57	-37.0	-38.5	16.8	0.00e+00	0	56	0	696254464	45	4327
2026-01-03 07:50:19.88	18.40	12.53	-36.9	-38.4	16.9	0.00e+00	0	56	0	699400192	45	4270
2026-01-03 07:50:20.89	18.22	12.49	-36.9	-38.5	16.9	0.00e+00	0	57	0	702545920	45	4295
2026-01-03 07:50:21.90	18.04	12.45	-37.0	-38.6	16.8	0.00e+00	0	57	0	705691648	45	4344
2026-01-03 07:50:22.91	17.87	12.40	-37.0	-38.6	16.7	0.00e+00	0	57	0	708837376	45	4378
2026-01-03 07:50:23.93	17.69	12.36	-37.1	-38.7	16.6	0.00e+00	0	57	0	711983104	45	4427
2026-01-03 07:50:24.94	17.51	12.32	-37.1	-38.7	16.6	0.00e+00	0	56	0	715128832	45	4428
2026-01-03 07:50:25.95	17.34	12.28	-37.2	-38.8	16.6	0.00e+00	0	57	0	718274560	45	4451
2026-01-03 07:50:26.96	17.16	12.24	-37.3	-38.9	16.5	0.00e+00	0	57	0	721420288	45	4516
2026-01-03 07:50:27.97	16.99	12.20	-37.4	-39.1	16.3	0.00e+00	0	57	0	724566016	45	4608
2026-01-03 07:50:28.98	16.81	12.15	-37.3	-39.0	16.4	0.00e+00	0	56	0	727711744	45	4557
2026-01-03 07:50:29.99	16.64	12.11	-37.3	-39.0	16.4	0.00e+00	0	56	0	730857472	45	4555
2026-01-03 07:50:31.00	16.46	12.07	-37.3	-38.9	16.4	0.00e+00	0	56	0	734003200	45	4540
2026-01-03 07:50:32.01	16.29	12.03	-37.2	-38.9	16.4	0.00e+00	0	56	0	737148928	45	4508
2026-01-03 07:50:33.02	16.12	11.98	-37.3	-38.9	16.4	0.00e+00	0	56	0	740294656	45	4541
2026-01-03 07:50:34.03	15.95	11.94	-37.3	-38.9	16.4	0.00e+00	0	57	0	743440384	45	4532
2026-01-03 07:50:35.04	15.78	11.90	-37.3	-38.9	16.3	0.00e+00	0	57	0	746586112	45	4542
2026-01-03 07:50:36.05	15.61	11.85	-37.3	-39.0	16.3	0.00e+00	0	57	0	749731840	45	4587
2026-01-03 07:50:37.06	15.44	11.81	-37.4	-39.1	16.2	0.00e+00	0	57	0	752877568	45	4615
2026-01-03 07:50:38.07	15.27	11.77	-37.4	-39.1	16.2	0.00e+00	0	57	0	756023296	45	4622
2026-01-03 07:50:39.08	15.10	11.72	-37.5	-39.2	16.1	0.00e+00	0	56	0	759169024	45	4660
2026-01-03 07:50:40.09	14.93	11.68	-37.6	-39.4	15.8	0.00e+00	0	57	0	762314752	45	4770
2026-01-03 07:50:41.10	14.76	11.63	-37.6	-39.4	15.8	0.00e+00	0	56	0	765460480	45	4776
2026-01-03 07:50:42.11	14.59	11.59	-37.6	-39.4	15.8	0.00e+00	0	56	0	768606208	45	4783
2026-01-03 07:50:43.12	14.43	11.54	-37.6	-39.4	15.7	0.00e+00	0	57	0	771751936	45	4798
2026-01-03 07:50:44.13	14.26	11.50	-37.6	-39.3	15.7	0.00e+00	0	57	0	774897664	45	4759
2026-01-03 07:50:45.14	14.10	11.45	-37.6	-39.4	15.6	0.00e+00	0	56	0	778043392	45	4802
2026-01-03 07:50:46.15	13.93	11.41	-37.6	-39.4	15.7	0.00e+00	0	57	0	781189120	45	4777
2026-01-03 07:50:47.16	13.77	11.36	-37.4	-39.1	16.0	0.00e+00	0	56	0	784334848	45	4637
2026-01-03 07:50:48.17	13.60	11.32	-37.4	-39.1	16.1	0.00e+00	0	57	0	787480576	45	4615
2026-01-03 07:50:49.18	13.44	11.27	-37.4	-39.2	16.0	0.00e+00	0	56	0	790626304	45	4654
2026-01-03 07:50:50.19	13.27	11.23	-37.4	-39.2	15.9	0.00e+00	0	56	0	793772032	45	4653
2026-01-03 07:50:51.20	13.11	11.18	-37.5	-39.2	15.8	0.00e+00	0	57	0	796917760	45	4691
2026-01-03 07:50:52.21	12.95	11.14	-37.4	-39.2	15.8	0.00e+00	0	57	0	800063488	45	4666
2026-01-03 07:50:53.22	12.79	11.09	-37.5	-39.3	15.7	0.00e+00	0	57	0	803209216	45	4706
2026-01-03 07:50:54.23	12.63	11.04	-37.5	-39.3	15.7	0.00e+00	0	56	0	806354944	45	4756
2026-01-03 07:50:55.24	12.47	11.00	-37.7	-39.5	15.5	0.00e+00	0	57	0	809500672	45	4857
2026-01-03 07:50:56.25	12.30	10.95	-37.8	-39.7	15.4	0.00e+00	0	56	0	812646400	46	4662
2026-01-03 07:50:57.26	12.15	10.90	-37.8	-39.7	15.3	0.00e+00	0	56	0	815792128	46	4699
2026-01-03 07:50:58.27	11.99	10.86	-37.7	-39.6	15.4	0.00e+00	0	57	0	818937856	46	4623
2026-01-03 07:50:59.28	11.83	10.81	-37.6	-39.5	15.4	0.00e+00	0	56	0	822083584	46	4575
2026-01-03 07:51:00.29	11.67	10.76	-37.7	-39.6	15.2	0.00e+00	0	57	0	825229312	46	4620
2026-01-03 07:51:01.30	11.51	10.72	-37.8	-39.9	14.7	0.00e+00	0	57	0	828375040	46	4793
2026-01-03 07:51:02.31	11.35	10.67	-38.2	-40.6	13.5	3.00e-06	0	57	0	831520768	47	4903
2026-01-03 07:51:03.33	11.20	10.62	-38.7	-41.5	12.2	8.08e-05	0	57	0	834666496	47	5461
2026-01-03 07:51:04.34	11.04	10.57	-39.2	-42.7	10.5	1.73e-03	0	57	0	837812224	49	5575
2026-01-03 07:51:05.35	10.89	10.53	-39.6	-44.0	8.8	2.08e-02	0	56	0	840957952	49	6454
2026-01-03 07:51:06.36	10.73	10.48	-39.9	-45.3	7.1	1.19e-01	0	57	0	844103680	50	7053
2026-01-03 07:51:07.37	10.58	10.43	-40.0	-46.7	5.6	3.73e-01	0	57	0	847249408	50	8306
2026-01-03 07:51:08.38	10.42	10.38	-40.0	-48.6	4.0	9.91e-01	0	57	104	850395136	50	10360
2026-01-03 07:51:09.39	10.27	10.33	-40.0	-49.6	3.9	1.45e+00	0	57	104	850395136	50	11634
2026-01-03 07:51:10.40	10.12	10.29	-39.9	-49.8	4.0	1.48e+00	0	57	104	850395136	50	11900
2026-01-03 07:51:11.41	9.96	10.24	-39.9	-50.9	3.8	1.49e+00	0	57	104	850395136	50	13418
2026-01-03 07:51:12.42	9.81	10.19	-39.9	-51.8	3.8	1.49e+00	0	57	104	850395136	50	14969
2026-01-03 07:51:13.43	9.66	10.14	-39.9	-52.0	3.8	1.49e+00	0	57	104	850395136	50	15278
2026-01-03 07:51:14.44	9.51	10.09	-40.4	-51.5	3.8	1.49e+00	0	57	104	850395136	51	13605
2026-01-03 07:51:15.44	9.36	10.04	-40.2	-52.0	3.8	1.49e+00	0	57	104	850395136	52	13651
2026-01-03 07:51:16.45	9.21	10.00	-40.1	-52.3	3.8	1.49e+00	0	57	104	850395136	51	14887
2026-01-03 07:51:17.46	9.06	9.95	-40.0	-52.2	3.8	1.49e+00	0	57	104	850395136	51	14819
2026-01-03 07:51:18.47	8.91	9.90	-39.9	-52.1	3.8	1.49e+00	0	57	104	850395136	51	14659
2026-01-03 07:51:19.48	8.76	9.85	-39.9	-52.1	3.8	1.49e+00	0	57	104	850395136	51	14702
2026-01-03 07:51:20.49	8.62	9.80	-39.9	-52.1	3.8	1.49e+00	0	57	104	850395136	51	14631
2026-01-03 07:51:21.50	8.47	9.75	-39.8	-52.1	3.8	1.49e+00	0	57	104	850395136	51	14621
2026-01-03 07:51:22.51	8.32	9.70	-39.9	-52.2	3.8	1.49e+00	0	57	104	850395136	51	14792
2026-01-03 07:51:23.52	8.18	9.65	-39.9	-52.1	3.8	1.49e+00	0	57	104	850395136	51	14703
2026-01-03 07:51:24.53	8.03	9.60	-39.9	-52.2	3.8	1.49e+00	0	57	104	850395136	51	14741
2026-01-03 07:51:25.54	7.88	9.55	-39.9	-52.2	3.8	1.49e+00	0	57	104	850395136	51	14808
2026-01-03 07:51:26.55	7.74	9.50	-39.8	-52.2	3.8	1.49e+00	0	57	104	850395136	51	14789
2026-01-03 07:51:27.56	7.60	9.45	-39.9	-52.2	3.8	1.49e+00	0	57	104	850395136	51	14715
2026-01-03 07:51:28.57	7.45	9.40	-39.9	-52.2	3.8	1.49e+00	0	57	104	850395136	51	14769
2026-01-03 07:51:29.58	7.31	9.35	-39.9	-52.2	3.8	1.49e+00	0	57	104	850395136	51	14756
2026-01-03 07:51:30.59	7.17	9.30	-39.9	-52.2	3.8	1.49e+00	0	57	104	850395136	51	14835
2026-01-03 07:51:31.60	7.02	9.25	-39.8	-52.2	3.8	1.49e+00	0	57	104	850395136	51	14746
2026-01-03 07:51:32.61	6.88	9.20	-39.8	-52.2	3.8	1.49e+00	0	57	104	850395136	51	14746
2026-01-03 07:51:33.62	6.74	9.15	-39.8	-52.1	3.8	1.49e+00	0	57	104	850395136	51	14683
2026-01-03 07:51:34.63	6.60	9.10	-39.8	-52.1	3.8	1.49e+00	0	57	104	850395136	51	14630
2026-01-03 07:51:35.64	6.46	9.05	-39.8	-52.1	3.8	1.49e+00	0	57	104	850395136	51	14583
2026-01-03 07:51:36.66	6.32	9.00	-39.7	-52.0	3.8	1.49e+00	0	57	104	850395136	51	14527
2026-01-03 07:51:37.67	6.18	8.95	-39.7	-52.1	3.8	1.49e+00	0	57	104	850395136	51	14571
2026-01-03 07:51:38.68	6.04	8.90	-39.8	-52.1	3.8	1.49e+00	0	57	104	850395136	51	14705
2026-01-03 07:51:39.69	5.90	8.85	-39.8	-52.1	3.8	1.49e+00	0	57	104	850395136	51	14631
2026-01-03 07:51:40.70	5.76	8.80	-39.7	-52.1	3.8	1.49e+00	0	57	104	850395136	51	14556
2026-01-03 07:51:41.71	5.63	8.75	-39.8	-52.1	3.8	1.49e+00	0	57	104	850395136	51	14690
2026-01-03 07:51:42.72	5.49	8.70	-39.8	-52.2	3.8	1.49e+00	0	57	104	850395136	51	14774
2026-01-03 07:51:43.73	5.35	8.65	-39.7	-52.1	3.8	1.49e+00	0	57	104	850395136	51	14608
2026-01-03 07:51:44.74	5.22	8.60	-39.8	-52.2	3.8	1.49e+00	0	57	104	850395136	51	14717
2026-01-03 07:51:45.75	5.08	8.55	-39.7	-52.1	3.8	1.49e+00	0	57	104	850395136	51	14603
2026-01-03 07:51:46.76	4.95	8.50	-39.8	-52.1	3.8	1.49e+00	0	57	104	850395136	51	14634
2026-01-03 07:51:47.77	4.81	8.45	-39.8	-52.2	3.8	1.49e+00	0	57	104	850395136	51	14807
2026-01-03 07:51:48.78	4.68	8.40	-39.8	-52.2	3.8	1.49e+00	0	57	104	850395136	51	14747
2026-01-03 07:51:49.79	4.55	8.34	-39.8	-52.2	3.8	1.49e+00	0	57	104	850395136	51	14853
2026-01-03 07:51:50.80	4.41	8.29	-39.9	-52.3	3.8	1.49e+00	0	57	104	850395136	51	14951
2026-01-03 07:51:51.81	4.28	8.24	-39.8	-52.2	3.8	1.49e+00	0	57	104	850395136	51	14756
2026-01-03 07:51:52.82	4.15	8.19	-39.8	-52.3	3.8	1.49e+00	0	57	104	850395136	51	14909
2026-01-03 07:51:53.83	4.02	8.14	-39.8	-52.2	3.8	1.49e+00	0	57	104	850395136	51	14801
2026-01-03 07:51:54.84	3.89	8.09	-39.9	-52.2	3.8	1.49e+00	0	57	104	850395136	51	14865
2026-01-03 07:51:55.85	3.75	8.04	-39.9	-52.3	3.8	1.49e+00	0	57	104	850395136	51	14997
2026-01-03 07:51:56.86	3.62	7.99	-39.8	-52.1	3.8	1.49e+00	0	57	104	850395136	51	14708
2026-01-03 07:51:57.87	3.50	7.94	-44.0	-56.2	3.9	1.49e+00	0	57	104	850395136	58	15738
2026-01-03 07:51:58.89	3.36	7.88	-44.7	-57.1	3.8	1.49e+00	0	57	104	850395136	60	15418
2026-01-03 07:51:59.90	3.24	7.83	-45.0	-57.3	3.8	1.49e+00	0	57	104	850395136	60	15809
2026-01-03 07:52:00.91	3.11	7.78	-45.1	-57.6	3.8	1.49e+00	0	57	104	850395136	60	16359
2026-01-03 07:52:01.92	2.98	7.73	-45.2	-57.7	3.8	1.49e+00	0	57	104	850395136	60	16526
2026-01-03 07:52:02.93	2.85	7.68	-45.3	-57.7	3.8	1.49e+00	0	57	104	850395136	61	15661
2026-01-03 07:52:03.94	2.73	7.63	-45.3	-57.8	3.8	1.49e+00	0	57	104	850395136	61	15803
2026-01-03 07:52:04.95	2.60	7.58	-45.4	-57.8	3.8	1.49e+00	0	57	104	850395136	61	15846
2026-01-03 07:52:05.96	2.47	7.52	-45.4	-57.8	3.8	1.49e+00	0	57	104	850395136	61	15761
2026-01-03 07:52:06.97	2.35	7.47	-45.3	-57.7	3.8	1.49e+00	0	57	104	850395136	61	15653
2026-01-03 07:52:07.98	2.22	7.42	-45.3	-57.6	3.8	1.49e+00	0	57	104	850395136	61	15535
2026-01-03 07:52:08.99	2.10	7.37	-45.2	-57.6	3.8	1.49e+00	0	57	104	850395136	61	15450
2026-01-03 07:52:10.01	1.97	7.32	-45.2	-57.5	3.8	1.49e+00	0	57	104	850395136	61	15317
2026-01-03 07:52:11.02	1.85	7.27	-45.2	-57.5	3.8	1.49e+00	0	57	104	850395136	61	15266
2026-01-03 07:52:12.03	1.73	7.21	-45.1	-57.4	3.8	1.49e+00	0	57	104	850395136	61	15133
2026-01-03 07:52:13.04	1.60	7.16	-45.1	-57.4	3.8	1.49e+00	0	57	104	850395136	61	15188
2026-01-03 07:52:14.05	1.48	7.11	-45.1	-57.4	3.8	1.49e+00	0	57	104	850395136	61	15168
2026-01-03 07:52:15.06	1.36	7.06	-45.1	-57.4	3.8	1.49e+00	0	57	104	850395136	61	15110
2026-01-03 07:52:16.07	1.24	7.01	-45.1	-57.4	3.8	1.49e+00	0	57	104	850395136	61	15162
2026-01-03 07:52:17.08	1.12	6.95	-45.1	-57.4	3.8	1.49e+00	0	57	104	850395136	61	15138
2026-01-03 07:52:18.09	1.00	6.90	-45.1	-57.4	3.8	1.49e+00	0	57	104	850395136	61	15167
2026-01-03 07:52:19.10	0.88	6.85	-45.1	-57.4	3.8	1.49e+00	0	57	104	850395136	61	15168
2026-01-03 07:52:20.12	0.76	6.80	-45.1	-57.4	3.8	1.49e+00	0	57	104	850395136	61	15163
2026-01-03 07:52:21.13	0.64	6.75	-45.1	-57.4	3.8	1.49e+00	0	57	104	850395136	61	15172
2026-01-03 07:52:22.14	0.52	6.69	-45.1	-57.4	3.8	1.49e+00	0	57	104	850395136	61	15075
2026-01-03 07:52:23.15	0.40	6.64	-45.1	-57.4	3.8	1.49e+00	0	57	104	850395136	61	15091
2026-01-03 07:52:24.16	0.28	6.59	-45.1	-57.4	3.8	1.49e+00	0	57	104	850395136	61	15147
2026-01-03 07:52:25.17	0.16	6.54	-45.1	-57.4	3.8	1.49e+00	0	57	104	850395136	61	15097
2026-01-03 07:52:26.18	0.05	6.49	-45.1	-57.4	3.8	1.49e+00	0	57	104	850395136	61	15114
2026-01-03 07:52:27.19	359.93	6.44	-45.1	-57.4	3.8	1.49e+00	0	57	104	850395136	61	15153
2026-01-03 07:52:28.20	359.81	6.38	-45.1	-57.4	3.8	1.49e+00	0	57	104	850395136	61	15107
2026-01-03 07:52:29.22	359.70	6.33	-45.1	-57.4	3.8	1.49e+00	0	57	104	850395136	61	15128
2026-01-03 07:52:30.23	359.58	6.28	-45.1	-57.4	3.8	1.49e+00	0	57	104	850395136	61	15127
2026-01-03 07:52:31.24	359.47	6.23	-45.1	-57.4	3.8	1.49e+00	0	57	104	850395136	61	15128
2026-01-03 07:52:32.25	359.35	6.18	-45.1	-57.4	3.8	1.49e+00	0	57	104	850395136	61	15071
2026-01-03 07:52:33.26	359.24	6.12	-45.1	-57.3	3.8	1.49e+00	0	57	104	850395136	61	15035
2026-01-03 07:52:34.27	359.12	6.07	-45.1	-57.4	3.8	1.49e+00	0	57	104	850395136	61	15128
2026-01-03 07:52:35.28	359.01	6.02	-45.1	-57.4	3.8	1.49e+00	0	57	104	850395136	61	15120
2026-01-03 07:52:36.29	358.90	5.97	-45.1	-57.4	3.8	1.49e+00	0	57	104	850395136	61	15076
2026-01-03 07:52:37.30	358.79	5.92	-45.1	-57.4	3.8	1.49e+00	0	57	104	850395136	61	15074
2026-01-03 07:52:38.32	358.67	5.86	-45.1	-57.3	3.8	1.49e+00	0	57	104	850395136	61	15031
2026-01-03 07:52:39.33	358.56	5.81	-45.1	-57.4	3.8	1.49e+00	0	57	104	850395136	61	15110
2026-01-03 07:52:40.34	358.45	5.76	-45.1	-57.3	3.8	1.49e+00	0	58	104	850395136	61	15050
2026-01-03 07:52:41.35	358.34	5.71	-45.1	-57.4	3.8	1.49e+00	0	58	104	850395136	61	15097
2026-01-03 07:52:42.36	358.23	5.66	-45.0	-57.4	3.8	1.49e+00	0	57	104	850395136	61	15162
2026-01-03 07:52:43.37	358.12	5.60	-45.1	-57.4	3.8	1.49e+00	0	57	104	850395136	61	15075
2026-01-03 07:52:44.38	358.01	5.55	-45.1	-57.4	3.8	1.49e+00	0	57	104	850395136	61	15103
2026-01-03 07:52:45.39	357.90	5.50	-45.1	-57.3	3.8	1.49e+00	0	57	104	850395136	61	15014
2026-01-03 07:52:46.40	357.79	5.45	-45.1	-57.4	3.8	1.49e+00	0	57	104	850395136	61	15087
2026-01-03 07:52:47.41	357.68	5.40	-45.1	-57.3	3.8	1.49e+00	0	57	104	850395136	61	15049
2026-01-03 07:52:48.43	357.58	5.34	-45.1	-57.3	3.8	1.49e+00	0	57	104	850395136	61	15044
2026-01-03 07:52:49.44	357.47	5.29	-45.1	-57.3	3.8	1.49e+00	0	57	104	850395136	61	15048
2026-01-03 07:52:50.45	357.36	5.24	-45.0	-57.3	3.8	1.49e+00	0	57	104	850395136	61	15051
2026-01-03 07:52:51.46	357.25	5.19	-45.0	-57.4	3.8	1.49e+00	0	57	104	850395136	61	15094
2026-01-03 07:52:52.47	357.15	5.14	-45.1	-57.4	3.8	1.49e+00	0	57	104	850395136	61	15076
2026-01-03 07:52:53.48	357.04	5.08	-45.0	-57.3	3.8	1.49e+00	0	57	104	850395136	61	15022
2026-01-03 07:52:54.49	356.94	5.03	-45.1	-57.3	3.8	1.49e+00	0	57	104	850395136	61	15030
2026-01-03 07:52:55.50	356.83	4.98	-45.1	-57.4	3.8	1.49e+00	0	57	104	850395136	61	15053
2026-01-03 07:52:56.51	356.73	4.93	-45.0	-57.4	3.8	1.49e+00	0	57	104	850395136	61	15073
2026-01-03 07:52:57.52	356.62	4.88	-45.0	-57.4	3.8	1.49e+00	0	57	104	850395136	61	15077
2026-01-03 07:52:58.54	356.52	4.82	-45.0	-57.3	3.8	1.49e+00	0	57	104	850395136	61	15013
2026-01-03 07:52:59.55	356.41	4.77	-45.0	-57.3	3.8	1.49e+00	0	57	104	850395136	61	15022
2026-01-03 07:53:00.56	356.31	4.72	-45.0	-57.3	3.8	1.49e+00	0	57	104	850395136	61	15028
2026-01-03 07:53:01.57	356.21	4.67	-45.0	-57.3	3.8	1.49e+00	0	57	104	850395136	61	15031
2026-01-03 07:53:02.58	356.10	4.62	-45.0	-57.4	3.8	1.49e+00	0	57	104	850395136	61	15089
2026-01-03 07:53:03.59	356.00	4.56	-45.1	-57.3	3.8	1.49e+00	0	57	104	850395136	61	15018
2026-01-03 07:53:04.60	355.90	4.51	-45.0	-57.4	3.8	1.49e+00	0	57	104	850395136	61	15056
2026-01-03 07:53:05.61	355.80	4.46	-45.0	-57.3	3.8	1.49e+00	0	57	104	850395136	61	15030
2026-01-03 07:53:06.62	355.70	4.41	-45.0	-57.3	3.8	1.49e+00	0	57	104	850395136	61	15007
2026-01-03 07:53:07.63	355.60	4.36	-45.0	-57.3	3.8	1.49e+00	0	57	104	850395136	61	15040
2026-01-03 07:53:08.65	355.50	4.31	-45.0	-57.3	3.8	1.49e+00	0	57	104	850395136	61	15033
2026-01-03 07:53:09.66	355.40	4.25	-45.0	-57.3	3.8	1.49e+00	0	57	104	850395136	61	15049
2026-01-03 07:53:10.67	355.30	4.20	-45.0	-57.3	3.8	1.49e+00	0	57	104	850395136	61	14991
2026-01-03 07:53:11.68	355.20	4.15	-45.0	-57.3	3.8	1.49e+00	0	57	104	850395136	61	15018
2026-01-03 07:53:12.69	355.10	4.10	-45.0	-57.3	3.8	1.49e+00	0	57	104	850395136	61	14963
2026-01-03 07:53:13.70	355.00	4.05	-45.0	-57.3	3.8	1.49e+00	0	58	104	850395136	61	15025
2026-01-03 07:53:14.71	354.90	4.00	-45.0	-57.3	3.8	1.49e+00	0	57	104	850395136	61	15036
2026-01-03 07:53:15.72	354.80	3.94	-45.0	-57.3	3.8	1.49e+00	0	57	104	850395136	61	15022
2026-01-03 07:53:16.74	354.71	3.89	-45.0	-57.4	3.8	1.49e+00	0	57	104	850395136	61	15073
2026-01-03 07:53:17.75	354.61	3.84	-45.0	-57.3	3.8	1.49e+00	0	57	104	850395136	61	15014
2026-01-03 07:53:18.76	354.51	3.79	-45.0	-57.3	3.8	1.49e+00	0	57	104	850395136	61	15019
2026-01-03 07:53:19.77	354.42	3.74	-45.0	-57.3	3.8	1.49e+00	0	57	104	850395136	61	15046
2026-01-03 07:53:20.78	354.32	3.69	-45.0	-57.3	3.8	1.49e+00	0	57	104	850395136	61	14984
2026-01-03 07:53:21.79	354.22	3.63	-45.0	-57.3	3.8	1.49e+00	0	57	104	850395136	61	15040
2026-01-03 07:53:22.80	354.13	3.58	-45.0	-57.3	3.8	1.49e+00	0	58	104	850395136	61	15007
2026-01-03 07:53:23.81	354.03	3.53	-45.0	-57.3	3.8	1.49e+00	0	58	104	850395136	61	15027
2026-01-03 07:53:24.82	353.94	3.48	-45.0	-57.4	3.8	1.49e+00	0	57	104	850395136	61	15069
2026-01-03 07:53:25.83	353.85	3.43	-45.0	-57.3	3.8	1.49e+00	0	57	104	850395136	61	15032
2026-01-03 07:53:26.85	353.75	3.38	-45.0	-57.3	3.8	1.49e+00	0	57	104	850395136	61	15025
2026-01-03 07:53:27.86	353.66	3.33	-45.0	-57.3	3.8	1.49e+00	0	58	104	850395136	61	15038
2026-01-03 07:53:28.87	353.56	3.27	-45.0	-57.3	3.8	1.49e+00	0	57	104	850395136	61	15018
2026-01-03 07:53:29.88	353.47	3.22	-45.0	-57.3	3.8	1.49e+00	0	57	104	850395136	61	15034
2026-01-03 07:53:30.89	353.38	3.17	-45.0	-57.4	3.8	1.49e+00	0	57	104	850395136	61	15053
2026-01-03 07:53:31.90	353.29	3.12	-45.0	-57.3	3.8	1.49e+00	0	58	104	850395136	61	15020
2026-01-03 07:53:32.91	353.19	3.07	-45.0	-57.3	3.8	1.49e+00	0	58	104	850395136	61	14958
2026-01-03 07:53:33.92	353.10	3.02	-45.0	-57.4	3.8	1.49e+00	0	57	104	850395136	61	15067
2026-01-03 07:53:34.93	353.01	2.97	-45.0	-57.3	3.8	1.49e+00	0	57	104	850395136	61	15015
2026-01-03 07:53:35.94	352.92	2.92	-45.0	-57.4	3.8	1.49e+00	0	57	104	850395136	61	15065
2026-01-03 07:53:36.95	352.83	2.87	-45.0	-57.4	3.8	1.49e+00	0	58	104	850395136	61	15086
2026-01-03 07:53:37.97	352.74	2.81	-45.0	-57.4	3.8	1.49e+00	0	58	104	850395136	61	15054
2026-01-03 07:53:38.98	352.65	2.76	-45.0	-57.3	3.8	1.49e+00	0	57	104	850395136	61	15048
2026-01-03 07:53:39.99	352.56	2.71	-45.0	-57.3	3.8	1.49e+00	0	58	104	850395136	61	15029
2026-01-03 07:53:41.00	352.47	2.66	-45.0	-57.3	3.8	1.49e+00	0	58	104	850395136	61	14982
2026-01-03 07:53:42.01	352.38	2.61	-45.0	-57.3	3.8	1.49e+00	0	57	104	850395136	61	14983
2026-01-03 07:53:43.02	352.29	2.56	-45.0	-57.3	3.8	1.49e+00	0	57	104	850395136	61	15041
2026-01-03 07:53:44.03	352.21	2.51	-45.0	-57.3	3.8	1.49e+00	0	58	104	850395136	61	14988
2026-01-03 07:53:45.05	352.12	2.46	-45.0	-57.3	3.8	1.49e+00	0	58	104	850395136	61	14986
2026-01-03 07:53:46.06	352.03	2.41	-45.0	-57.3	3.8	1.49e+00	0	57	104	850395136	61	14989
2026-01-03 07:53:47.07	351.94	2.35	-45.0	-57.3	3.8	1.49e+00	0	57	104	850395136	61	14930
2026-01-03 07:53:48.08	351.85	2.30	-45.0	-57.3	3.8	1.49e+00	0	58	104	850395136	61	15001
2026-01-03 07:53:49.09	351.77	2.25	-45.0	-57.3	3.8	1.49e+00	0	58	104	850395136	61	14961
2026-01-03 07:53:50.10	351.68	2.20	-44.9	-57.3	3.8	1.49e+00	0	57	104	850395136	61	14954
2026-01-03 07:53:51.11	351.60	2.15	-45.0	-57.3	3.8	1.49e+00	0	58	104	850395136	61	14957
2026-01-03 07:53:52.12	351.51	2.10	-45.0	-57.3	3.8	1.49e+00	0	58	104	850395136	61	14962
2026-01-03 07:53:53.13	351.42	2.05	-45.0	-57.3	3.8	1.49e+00	0	57	104	850395136	61	14984
2026-01-03 07:53:54.14	351.34	2.00	-45.0	-57.3	3.8	1.49e+00	0	58	104	850395136	61	14976
2026-01-03 07:53:55.15	351.25	1.95	-45.0	-57.3	3.8	1.49e+00	0	57	104	850395136	61	14914
2026-01-03 07:53:56.17	351.17	1.90	-45.0	-57.3	3.8	1.49e+00	0	57	104	850395136	61	14951

#Closed at: 2026-01-03 07:53:56
#Recorded file [850 MB]: D:/lorett/data/31039_260103_104240.dat