passes_logs/2026/01/03/R2.0S_Moscow/R2.0S_Moscow__20260103_021342_FENGYUN_3G_rec.log

#Pass ID: 20260103_021342_FENGYUN 3G
#Satellite: FENGYUN 3G
#Configuration: FENGYUN 3G
#almurnet v.1.7.20251203
#Start time: 2026-01-03 02:13:43

#Version: 2.2.20231116
#Station: R2.0S_Moscow
#Location: 37.707566 lon 55.798166 lat
#TLE: 1 56232U 23055A   26002.31058000  .00046172  00000+0  73618-3 0  9997
#TLE: 2 56232  49.9934 121.3649 0004156 328.0230  32.0484 15.52711916154221

#Time	Az	El	Level	Level2	SNR	BER	BlckErr	Temp	State	Recorded	gain1	gain2
2026-01-03 02:13:43.86	212.68	2.11	-44.2	-62.3	3.8	8.47e-01	0	48	0	0	60	28314
2026-01-03 02:13:44.86	212.58	2.17	-44.2	-62.4	3.8	8.44e-01	0	48	104	0	60	28401
2026-01-03 02:13:45.87	212.47	2.23	-44.2	-62.3	3.8	8.46e-01	0	48	104	0	60	28348
2026-01-03 02:13:46.88	212.36	2.29	-44.2	-62.3	3.8	8.48e-01	0	48	104	0	60	28257
2026-01-03 02:13:47.89	212.25	2.35	-44.2	-62.3	3.8	8.48e-01	0	48	104	0	60	28268
2026-01-03 02:13:48.90	212.15	2.41	-44.2	-62.4	3.8	8.46e-01	0	48	104	0	60	28395
2026-01-03 02:13:49.91	212.04	2.47	-44.2	-62.3	3.8	8.45e-01	0	48	104	0	60	28279
2026-01-03 02:13:50.92	211.93	2.53	-44.2	-62.4	3.8	8.45e-01	0	48	104	0	60	28367
2026-01-03 02:13:51.94	211.81	2.59	-44.2	-62.3	3.8	8.43e-01	0	48	104	0	60	28316
2026-01-03 02:13:52.95	211.70	2.65	-44.2	-62.4	3.8	8.46e-01	0	48	104	0	60	28387
2026-01-03 02:13:53.96	211.59	2.71	-44.2	-62.3	3.8	8.46e-01	0	48	104	0	60	28298
2026-01-03 02:13:54.97	211.48	2.77	-44.2	-62.4	3.8	8.46e-01	0	48	104	0	60	28365
2026-01-03 02:13:55.98	211.36	2.83	-44.2	-62.3	3.8	8.46e-01	0	48	104	0	60	28254
2026-01-03 02:13:56.99	211.25	2.90	-44.2	-62.3	3.8	8.46e-01	0	48	104	0	60	28314
2026-01-03 02:13:58.00	211.13	2.96	-44.2	-62.3	3.8	8.45e-01	0	49	104	0	60	28310
2026-01-03 02:13:59.01	211.02	3.02	-44.2	-62.3	3.8	8.45e-01	0	49	104	0	60	28333
2026-01-03 02:14:00.02	210.90	3.08	-44.2	-62.4	3.8	8.45e-01	0	49	104	0	60	28396
2026-01-03 02:14:01.03	210.78	3.14	-44.2	-62.3	3.8	8.45e-01	0	49	104	0	60	28329
2026-01-03 02:14:02.04	210.67	3.20	-44.2	-62.4	3.8	8.47e-01	0	49	104	0	60	28376
2026-01-03 02:14:03.05	210.55	3.26	-44.2	-62.4	3.8	8.45e-01	0	49	104	0	60	28370
2026-01-03 02:14:04.06	210.43	3.33	-44.2	-62.3	3.8	8.45e-01	0	49	104	0	60	28324
2026-01-03 02:14:05.08	210.31	3.39	-44.2	-62.3	3.8	8.46e-01	0	49	104	0	60	28316
2026-01-03 02:14:06.09	210.19	3.45	-44.2	-62.3	3.8	8.46e-01	0	49	104	0	60	28274
2026-01-03 02:14:07.10	210.07	3.51	-44.2	-62.3	3.8	8.46e-01	0	49	104	0	60	28248
2026-01-03 02:14:08.11	209.94	3.58	-44.2	-62.4	3.8	8.46e-01	0	49	104	0	60	28362
2026-01-03 02:14:09.12	209.82	3.64	-44.2	-62.4	3.8	8.46e-01	0	49	104	0	60	28365
2026-01-03 02:14:10.13	209.70	3.70	-44.2	-62.3	3.8	8.46e-01	0	49	104	0	60	28312
2026-01-03 02:14:11.14	209.57	3.76	-44.2	-62.3	3.8	8.46e-01	0	50	104	0	60	28276
2026-01-03 02:14:12.15	209.45	3.83	-44.2	-62.4	3.8	8.46e-01	0	49	104	0	60	28393
2026-01-03 02:14:13.16	209.32	3.89	-44.2	-62.4	3.8	8.46e-01	0	50	104	0	60	28368
2026-01-03 02:14:14.17	209.19	3.95	-44.2	-62.3	3.8	8.46e-01	0	50	104	0	60	28298
2026-01-03 02:14:15.18	209.07	4.02	-44.2	-62.4	3.8	8.47e-01	0	50	104	0	60	28361
2026-01-03 02:14:16.19	208.94	4.08	-44.2	-62.3	3.8	8.46e-01	0	50	104	0	60	28216
2026-01-03 02:14:17.20	208.81	4.14	-44.1	-62.3	3.8	8.46e-01	0	50	104	0	60	28151
2026-01-03 02:14:18.21	208.68	4.21	-44.2	-62.3	3.8	8.47e-01	0	50	104	0	60	28335
2026-01-03 02:14:19.22	208.55	4.27	-44.2	-62.4	3.8	8.45e-01	0	50	104	0	60	28357
2026-01-03 02:14:20.24	208.42	4.34	-44.2	-62.3	3.8	8.45e-01	0	50	104	0	60	28269
2026-01-03 02:14:21.25	208.28	4.40	-44.2	-62.3	3.8	8.45e-01	0	50	104	0	60	28184
2026-01-03 02:14:22.26	208.15	4.46	-44.2	-62.3	3.8	8.46e-01	0	50	104	0	60	28195
2026-01-03 02:14:23.27	208.02	4.53	-44.2	-62.3	3.8	8.47e-01	0	50	104	0	60	28229
2026-01-03 02:14:24.28	207.88	4.59	-44.2	-62.3	3.8	8.47e-01	0	50	104	0	60	28211
2026-01-03 02:14:25.29	207.75	4.66	-44.2	-62.3	3.8	8.45e-01	0	50	104	0	60	28059
2026-01-03 02:14:26.30	207.61	4.72	-44.2	-62.3	3.8	8.47e-01	0	50	104	0	60	28162
2026-01-03 02:14:27.31	207.47	4.79	-44.2	-62.2	3.8	8.47e-01	0	50	104	0	60	27909
2026-01-03 02:14:28.32	207.33	4.85	-44.2	-62.3	3.8	8.47e-01	0	50	104	0	60	28130
2026-01-03 02:14:29.33	207.19	4.92	-44.2	-62.3	3.8	8.46e-01	0	50	104	0	60	28041
2026-01-03 02:14:30.34	207.05	4.98	-44.2	-62.3	3.8	8.46e-01	0	51	104	0	60	28098
2026-01-03 02:14:31.36	206.91	5.05	-44.2	-62.3	3.8	8.46e-01	0	51	104	0	60	28086
2026-01-03 02:14:32.37	206.77	5.11	-44.2	-62.3	3.8	8.46e-01	0	50	104	0	60	28254
2026-01-03 02:14:33.38	206.63	5.18	-44.2	-62.3	3.8	8.46e-01	0	51	104	0	60	28247
2026-01-03 02:14:34.39	206.48	5.24	-44.2	-62.3	3.8	8.46e-01	0	51	104	0	60	28088
2026-01-03 02:14:35.40	206.34	5.31	-44.2	-62.2	3.8	8.47e-01	0	51	104	0	60	27915
2026-01-03 02:14:36.41	206.19	5.38	-44.2	-62.1	3.8	8.47e-01	0	51	104	0	60	27580
2026-01-03 02:14:37.42	206.05	5.44	-44.1	-61.9	3.8	8.47e-01	0	51	104	0	60	26910
2026-01-03 02:14:38.43	205.90	5.51	-44.1	-61.7	3.8	8.46e-01	0	51	104	0	60	26350
2026-01-03 02:14:39.45	205.75	5.57	-44.1	-61.4	3.8	8.47e-01	0	51	104	0	60	25458
2026-01-03 02:14:40.46	205.60	5.64	-44.1	-61.4	3.8	8.47e-01	0	51	104	0	60	25416
2026-01-03 02:14:41.47	205.45	5.71	-44.1	-61.2	3.8	8.46e-01	0	51	104	0	60	24888
2026-01-03 02:14:42.48	205.30	5.77	-44.2	-61.6	3.8	8.45e-01	0	51	104	0	60	26038
2026-01-03 02:14:43.49	205.15	5.84	-44.1	-61.8	3.8	8.45e-01	0	51	104	0	60	26712
2026-01-03 02:14:44.50	204.99	5.91	-44.1	-61.9	3.8	8.46e-01	0	51	104	0	60	27042
2026-01-03 02:14:45.51	204.84	5.97	-44.2	-62.1	3.8	8.46e-01	0	51	104	0	60	27643
2026-01-03 02:14:46.52	204.68	6.04	-44.2	-62.2	3.8	8.46e-01	0	51	104	0	60	27879
2026-01-03 02:14:47.53	204.53	6.11	-44.2	-62.2	3.8	8.46e-01	0	51	104	0	60	27918
2026-01-03 02:14:48.54	204.37	6.18	-44.2	-62.2	3.8	8.47e-01	0	51	104	0	60	27818
2026-01-03 02:14:49.55	204.21	6.24	-44.2	-62.0	3.8	8.46e-01	0	51	104	0	60	27187
2026-01-03 02:14:50.57	204.05	6.31	-44.1	-61.8	3.8	8.46e-01	0	51	104	0	60	26679
2026-01-03 02:14:51.58	203.89	6.38	-44.1	-61.5	3.8	8.47e-01	0	52	104	0	60	25684
2026-01-03 02:14:52.59	203.73	6.45	-44.1	-61.2	3.8	8.46e-01	0	52	104	0	60	24699
2026-01-03 02:14:53.60	203.57	6.51	-44.1	-61.0	3.8	8.46e-01	0	52	104	0	60	24395
2026-01-03 02:14:54.61	203.40	6.58	-44.1	-61.1	3.8	8.46e-01	0	52	104	0	60	24664
2026-01-03 02:14:55.62	203.24	6.65	-44.1	-61.3	3.8	8.46e-01	0	52	104	0	60	25071
2026-01-03 02:14:56.63	203.07	6.72	-44.1	-61.6	3.8	8.46e-01	0	52	104	0	60	26078
2026-01-03 02:14:57.64	202.91	6.79	-44.2	-62.0	3.8	8.46e-01	0	52	104	0	60	27379
2026-01-03 02:14:58.65	202.74	6.85	-44.2	-62.2	3.8	8.46e-01	0	52	104	0	60	27883
2026-01-03 02:14:59.66	202.57	6.92	-44.2	-62.0	3.8	8.45e-01	0	52	104	0	60	27338
2026-01-03 02:15:00.67	202.40	6.99	-44.1	-61.6	3.8	8.45e-01	0	52	104	0	60	26094
2026-01-03 02:15:01.68	202.23	7.06	-44.1	-60.9	3.8	8.45e-01	0	52	104	0	60	24065
2026-01-03 02:15:02.70	202.05	7.13	-44.1	-60.3	3.8	8.46e-01	0	52	104	0	60	22429
2026-01-03 02:15:03.71	201.88	7.20	-44.1	-59.7	3.9	8.46e-01	0	52	104	0	60	20842
2026-01-03 02:15:04.72	201.71	7.27	-44.1	-59.5	3.9	8.44e-01	0	52	104	0	60	20393
2026-01-03 02:15:05.73	201.53	7.33	-44.1	-59.9	3.8	8.42e-01	0	52	104	0	60	21388
2026-01-03 02:15:06.74	201.35	7.40	-44.1	-61.1	3.8	8.42e-01	0	52	104	0	60	24547
2026-01-03 02:15:07.75	201.18	7.47	-44.2	-62.3	3.8	8.46e-01	0	52	104	0	60	28222
2026-01-03 02:15:08.76	201.00	7.54	-44.1	-58.7	4.0	8.46e-01	0	52	104	0	60	18555
2026-01-03 02:15:09.78	200.81	7.61	-43.7	-53.4	7.4	8.46e-01	0	52	0	0	59	10729
2026-01-03 02:15:10.78	200.63	7.68	-42.9	-49.3	11.7	6.01e-01	0	52	0	1572864	57	7521
2026-01-03 02:15:11.79	200.45	7.75	-41.6	-46.1	14.9	1.32e-02	0	52	0	2621440	55	5797
2026-01-03 02:15:12.81	200.27	7.82	-40.3	-43.6	17.5	3.40e-06	0	52	0	3670016	52	5182
2026-01-03 02:15:13.82	200.08	7.89	-39.2	-41.8	19.3	3.40e-06	0	52	0	4718592	50	4750
2026-01-03 02:15:14.83	199.89	7.96	-38.3	-40.6	20.5	0.00e+00	0	52	0	5767168	48	4646
2026-01-03 02:15:15.84	199.71	8.03	-37.8	-40.0	21.2	0.00e+00	0	52	0	6815744	47	4559
2026-01-03 02:15:16.85	199.52	8.10	-41.7	-46.1	15.6	0.00e+00	0	53	0	8388608	53	6526
2026-01-03 02:15:17.86	199.33	8.17	-39.5	-42.3	19.3	3.40e-06	0	53	0	9437184	50	4994
2026-01-03 02:15:18.87	199.14	8.24	-42.7	-49.1	13.4	0.00e+00	0	53	0	10485760	55	8184
2026-01-03 02:15:19.88	198.94	8.31	-40.1	-43.2	18.4	0.00e+00	0	53	0	11534336	50	5574
2026-01-03 02:15:20.89	198.75	8.38	-39.0	-41.6	20.0	3.20e-03	0	52	0	12582912	48	5161
2026-01-03 02:15:21.90	198.55	8.45	-38.1	-40.4	20.9	0.00e+00	0	53	0	13631488	48	4525
2026-01-03 02:15:22.91	198.36	8.52	-37.8	-40.0	21.3	0.00e+00	0	53	0	15204352	47	4586
2026-01-03 02:15:23.92	198.16	8.59	-38.0	-40.2	21.0	0.00e+00	0	53	0	16252928	47	4704
2026-01-03 02:15:24.93	197.96	8.66	-38.0	-40.3	21.0	0.00e+00	0	53	0	17301504	47	4717
2026-01-03 02:15:25.94	197.76	8.73	-37.8	-40.0	21.3	0.00e+00	0	53	0	18350080	47	4552
2026-01-03 02:15:26.95	197.56	8.80	-37.8	-40.0	21.3	0.00e+00	0	53	0	19398656	47	4559
2026-01-03 02:15:27.96	197.36	8.87	-37.6	-39.8	21.5	0.00e+00	0	53	0	20971520	47	4448
2026-01-03 02:15:28.97	197.15	8.94	-37.5	-39.6	21.7	0.00e+00	0	53	0	22020096	47	4346
2026-01-03 02:15:29.98	196.95	9.01	-37.2	-39.2	22.1	0.00e+00	0	53	0	23068672	46	4402
2026-01-03 02:15:30.99	196.74	9.08	-37.2	-39.1	22.2	0.00e+00	0	53	0	24117248	46	4382
2026-01-03 02:15:32.00	196.53	9.15	-37.2	-39.2	22.1	0.00e+00	0	53	0	25165824	46	4414
2026-01-03 02:15:33.01	196.32	9.22	-37.3	-39.3	22.1	0.00e+00	0	53	0	26214400	46	4445
2026-01-03 02:15:34.02	196.11	9.29	-37.3	-39.4	22.0	0.00e+00	0	53	0	27262976	46	4505
2026-01-03 02:15:35.03	195.90	9.36	-37.3	-39.3	22.0	0.00e+00	0	53	0	28835840	46	4484
2026-01-03 02:15:36.03	195.69	9.43	-37.3	-39.4	22.0	0.00e+00	0	53	0	29884416	46	4505
2026-01-03 02:15:37.04	195.47	9.50	-37.4	-39.5	21.9	0.00e+00	0	53	0	30932992	46	4560
2026-01-03 02:15:38.05	195.25	9.57	-37.5	-39.5	21.8	0.00e+00	0	53	0	31981568	46	4596
2026-01-03 02:15:39.06	195.04	9.64	-37.3	-39.3	22.1	0.00e+00	0	53	0	33030144	46	4451
2026-01-03 02:15:40.07	194.82	9.71	-37.2	-39.1	22.3	0.00e+00	0	53	0	34078720	46	4371
2026-01-03 02:15:41.08	194.60	9.78	-37.2	-39.2	22.2	0.00e+00	0	53	0	35651584	46	4422
2026-01-03 02:15:42.09	194.37	9.85	-37.4	-39.4	22.0	0.00e+00	0	53	0	36700160	46	4503
2026-01-03 02:15:43.10	194.15	9.92	-37.6	-39.7	21.8	0.00e+00	0	53	0	37748736	46	4654
2026-01-03 02:15:44.11	193.92	9.99	-37.8	-40.0	21.4	0.00e+00	0	53	0	38797312	46	4859
2026-01-03 02:15:45.12	193.70	10.06	-37.8	-40.0	21.4	0.00e+00	0	53	0	39845888	46	4855
2026-01-03 02:15:46.13	193.47	10.13	-37.9	-40.1	21.4	0.00e+00	0	53	0	40894464	46	4881
2026-01-03 02:15:47.14	193.24	10.20	-37.6	-39.8	21.6	0.00e+00	0	53	0	42467328	46	4713
2026-01-03 02:15:48.15	193.01	10.27	-37.3	-39.3	22.1	0.00e+00	0	53	0	43515904	46	4449
2026-01-03 02:15:49.15	192.78	10.34	-37.2	-39.2	22.2	0.00e+00	0	53	0	44564480	46	4434
2026-01-03 02:15:50.16	192.54	10.41	-37.0	-39.0	22.4	0.00e+00	0	53	0	45613056	46	4294
2026-01-03 02:15:51.17	192.31	10.48	-37.0	-38.9	22.5	0.00e+00	0	53	0	46661632	45	4542
2026-01-03 02:15:52.18	192.07	10.55	-37.1	-39.1	22.4	0.00e+00	0	54	0	47710208	45	4602
2026-01-03 02:15:53.19	191.83	10.62	-36.9	-38.8	22.6	0.00e+00	0	53	0	49283072	45	4491
2026-01-03 02:15:54.20	191.59	10.69	-37.1	-39.1	22.4	0.00e+00	0	53	0	50331648	45	4600
2026-01-03 02:15:55.21	191.35	10.76	-37.2	-39.2	22.2	0.00e+00	0	54	0	51380224	45	4696
2026-01-03 02:15:56.22	191.11	10.83	-37.3	-39.3	22.1	0.00e+00	0	54	0	52428800	45	4742
2026-01-03 02:15:57.23	190.86	10.90	-37.4	-39.5	22.0	0.00e+00	0	53	0	53477376	45	4818
2026-01-03 02:15:58.24	190.62	10.97	-37.2	-39.2	22.2	0.00e+00	0	54	0	54525952	45	4702
2026-01-03 02:15:59.25	190.37	11.04	-37.1	-39.1	22.3	0.00e+00	0	54	0	56098816	45	4626
2026-01-03 02:16:00.26	190.12	11.11	-37.1	-39.0	22.4	0.00e+00	0	54	0	57147392	45	4588
2026-01-03 02:16:01.27	189.87	11.18	-37.0	-39.0	22.5	0.00e+00	0	54	0	58195968	45	4563
2026-01-03 02:16:02.28	189.62	11.25	-37.0	-39.0	22.5	0.00e+00	0	54	0	59244544	45	4562
2026-01-03 02:16:03.29	189.36	11.31	-36.9	-38.9	22.6	0.00e+00	0	54	0	60293120	45	4505
2026-01-03 02:16:04.30	189.11	11.38	-36.8	-38.7	22.8	0.00e+00	0	54	0	61341696	45	4409
2026-01-03 02:16:05.31	188.85	11.45	-36.5	-38.3	23.1	0.00e+00	0	54	0	62914560	45	4218
2026-01-03 02:16:06.32	188.59	11.52	-36.6	-38.4	23.1	0.00e+00	0	54	0	63963136	44	4513
2026-01-03 02:16:07.33	188.33	11.59	-36.5	-38.3	23.1	0.00e+00	0	54	0	65011712	44	4478
2026-01-03 02:16:08.34	188.07	11.65	-36.6	-38.5	23.0	0.00e+00	0	54	0	66060288	44	4552
2026-01-03 02:16:09.35	187.81	11.72	-36.7	-38.6	23.0	0.00e+00	0	54	0	67108864	44	4602
2026-01-03 02:16:10.36	187.54	11.79	-36.7	-38.6	23.0	0.00e+00	0	54	0	68157440	44	4599
2026-01-03 02:16:11.37	187.27	11.86	-36.7	-38.6	22.9	0.00e+00	0	54	0	69730304	44	4636
2026-01-03 02:16:12.38	187.01	11.92	-36.6	-38.5	23.0	0.00e+00	0	54	0	70778880	44	4566
2026-01-03 02:16:13.39	186.74	11.99	-36.6	-38.4	23.1	0.00e+00	0	54	0	71827456	44	4529
2026-01-03 02:16:14.40	186.46	12.06	-36.4	-38.2	23.3	0.00e+00	0	54	0	72876032	44	4409
2026-01-03 02:16:15.41	186.19	12.12	-36.5	-38.3	23.2	0.00e+00	0	54	0	73924608	44	4475
2026-01-03 02:16:16.42	185.92	12.19	-36.5	-38.3	23.2	0.00e+00	0	54	0	74973184	44	4470
2026-01-03 02:16:17.43	185.64	12.26	-36.4	-38.2	23.3	0.00e+00	0	54	0	76546048	44	4413
2026-01-03 02:16:18.43	185.36	12.32	-36.5	-38.3	23.2	0.00e+00	0	54	0	77594624	44	4474
2026-01-03 02:16:19.44	185.09	12.39	-36.6	-38.4	23.1	0.00e+00	0	54	0	78643200	44	4518
2026-01-03 02:16:20.45	184.80	12.45	-36.6	-38.5	23.0	0.00e+00	0	54	0	79691776	44	4572
2026-01-03 02:16:21.46	184.52	12.52	-36.8	-38.6	22.9	0.00e+00	0	54	0	80740352	44	4641
2026-01-03 02:16:22.47	184.24	12.58	-36.7	-38.6	22.9	0.00e+00	0	54	0	81788928	44	4625
2026-01-03 02:16:23.48	183.95	12.64	-36.5	-38.4	23.1	0.00e+00	0	54	0	83361792	44	4497
2026-01-03 02:16:24.49	183.66	12.71	-36.3	-38.0	23.5	0.00e+00	0	54	0	84410368	44	4332
2026-01-03 02:16:25.50	183.37	12.77	-36.1	-37.9	23.6	0.00e+00	0	54	0	85458944	44	4249
2026-01-03 02:16:26.51	183.08	12.83	-35.7	-37.4	23.9	0.00e+00	0	54	0	86507520	43	4270
2026-01-03 02:16:27.52	182.79	12.90	-35.7	-37.3	23.9	0.00e+00	0	54	0	87556096	43	4238
2026-01-03 02:16:28.53	182.50	12.96	-35.7	-37.4	23.8	0.00e+00	0	54	0	88604672	43	4284
2026-01-03 02:16:29.54	182.20	13.02	-36.1	-37.9	23.4	0.00e+00	0	54	0	90177536	43	4527
2026-01-03 02:16:30.55	181.90	13.08	-36.3	-38.2	23.2	0.00e+00	0	54	0	91226112	43	4652
2026-01-03 02:16:31.56	181.60	13.14	-36.4	-38.3	23.1	0.00e+00	0	54	0	92274688	43	4734
2026-01-03 02:16:32.57	181.30	13.21	-36.4	-38.2	23.1	0.00e+00	0	54	0	93323264	43	4686
2026-01-03 02:16:33.58	181.00	13.27	-36.4	-38.2	23.0	0.00e+00	0	54	0	94371840	43	4699
2026-01-03 02:16:34.59	180.70	13.33	-36.2	-38.1	23.2	0.00e+00	0	54	0	95420416	43	4611
2026-01-03 02:16:35.60	180.39	13.39	-36.1	-37.9	23.4	0.00e+00	0	54	0	96993280	43	4528
2026-01-03 02:16:36.61	180.09	13.44	-36.1	-37.9	23.4	0.00e+00	0	54	0	98041856	43	4507
2026-01-03 02:16:37.62	179.78	13.50	-36.0	-37.8	23.4	0.00e+00	0	54	0	99090432	43	4449
2026-01-03 02:16:38.63	179.47	13.56	-36.1	-37.9	23.4	0.00e+00	0	54	0	100139008	43	4523
2026-01-03 02:16:39.64	179.16	13.62	-36.1	-37.9	23.4	0.00e+00	0	54	0	101187584	43	4513
2026-01-03 02:16:40.65	178.84	13.68	-36.3	-38.1	23.2	0.00e+00	0	54	0	102236160	43	4629
2026-01-03 02:16:41.66	178.53	13.73	-36.2	-38.0	23.3	0.00e+00	0	54	0	103809024	43	4574
2026-01-03 02:16:42.67	178.21	13.79	-36.3	-38.1	23.2	0.00e+00	0	54	0	104857600	43	4621
2026-01-03 02:16:43.68	177.89	13.85	-36.3	-38.1	23.2	0.00e+00	0	54	0	105906176	43	4644
2026-01-03 02:16:44.69	177.57	13.90	-36.2	-38.0	23.3	0.00e+00	0	54	0	106954752	43	4570
2026-01-03 02:16:45.70	177.25	13.96	-36.4	-38.2	23.1	0.00e+00	0	54	0	108003328	43	4693
2026-01-03 02:16:46.71	176.93	14.01	-35.7	-37.4	23.8	0.00e+00	0	55	0	109051904	43	4281
2026-01-03 02:16:47.72	176.61	14.06	-35.5	-37.2	24.2	0.00e+00	0	54	0	110624768	42	4398
2026-01-03 02:16:48.73	176.28	14.12	-35.6	-37.2	24.1	0.00e+00	0	54	0	111673344	42	4438
2026-01-03 02:16:49.74	175.96	14.17	-35.5	-37.2	24.2	0.00e+00	0	54	0	112721920	42	4392
2026-01-03 02:16:50.75	175.63	14.22	-35.7	-37.4	24.0	0.00e+00	0	55	0	113770496	42	4509
2026-01-03 02:16:51.76	175.30	14.27	-35.6	-37.3	24.1	0.00e+00	0	55	0	114819072	42	4452
2026-01-03 02:16:52.77	174.97	14.32	-35.8	-37.5	23.9	0.00e+00	0	54	0	115867648	42	4553
2026-01-03 02:16:53.78	174.63	14.37	-35.6	-37.3	24.1	0.00e+00	0	55	0	117440512	42	4456
2026-01-03 02:16:54.79	174.30	14.42	-35.7	-37.3	24.0	0.00e+00	0	55	0	118489088	42	4488
2026-01-03 02:16:55.80	173.96	14.47	-35.7	-37.4	23.9	0.00e+00	0	55	0	119537664	42	4529
2026-01-03 02:16:56.81	173.63	14.52	-35.4	-37.0	24.2	0.00e+00	0	54	0	120586240	42	4339
2026-01-03 02:16:57.82	173.29	14.57	-35.3	-36.9	24.5	0.00e+00	0	54	0	121634816	42	4268
2026-01-03 02:16:58.83	172.95	14.61	-35.3	-36.9	24.6	0.00e+00	0	55	0	122683392	42	4246
2026-01-03 02:16:59.83	172.61	14.66	-35.1	-36.7	24.7	0.00e+00	0	54	0	124256256	42	4180
2026-01-03 02:17:00.84	172.27	14.71	-35.3	-36.9	24.5	0.00e+00	0	55	0	125304832	42	4269
2026-01-03 02:17:01.85	171.93	14.75	-35.4	-37.0	24.4	0.00e+00	0	55	0	126353408	42	4326
2026-01-03 02:17:02.86	171.58	14.79	-35.5	-37.1	24.4	0.00e+00	0	55	0	127401984	42	4373
2026-01-03 02:17:03.87	171.24	14.84	-35.4	-37.1	24.4	0.00e+00	0	54	0	128450560	42	4348
2026-01-03 02:17:04.88	170.89	14.88	-35.4	-37.0	24.4	0.00e+00	0	55	0	129499136	42	4333
2026-01-03 02:17:05.89	170.54	14.92	-35.3	-36.9	24.5	0.00e+00	0	55	0	131072000	42	4259
2026-01-03 02:17:06.90	170.19	14.96	-35.4	-37.0	24.4	0.00e+00	0	55	0	132120576	42	4314
2026-01-03 02:17:07.91	169.84	15.00	-35.3	-36.9	24.6	0.00e+00	0	55	0	133169152	42	4257
2026-01-03 02:17:08.92	169.49	15.04	-35.5	-37.1	24.4	0.00e+00	0	55	0	134217728	42	4364
2026-01-03 02:17:09.93	169.13	15.08	-35.4	-37.0	24.5	0.00e+00	0	55	0	135266304	42	4302
2026-01-03 02:17:10.94	168.78	15.12	-35.5	-37.1	24.4	0.00e+00	0	55	0	136314880	42	4356
2026-01-03 02:17:11.95	168.42	15.16	-35.6	-37.2	24.3	0.00e+00	0	55	0	137887744	42	4412
2026-01-03 02:17:12.96	168.07	15.19	-35.9	-37.6	24.1	0.00e+00	0	55	0	138936320	42	4607
2026-01-03 02:17:13.97	167.71	15.23	-36.1	-37.8	23.6	0.00e+00	0	55	0	139984896	42	4725
2026-01-03 02:17:14.98	167.35	15.26	-35.9	-37.5	24.0	0.00e+00	0	55	0	141033472	42	4596
2026-01-03 02:17:15.99	166.99	15.30	-35.9	-37.5	24.0	0.00e+00	0	55	0	142082048	42	4576
2026-01-03 02:17:17.00	166.63	15.33	-36.0	-37.8	23.8	0.00e+00	0	55	0	143130624	42	4706
2026-01-03 02:17:18.00	166.27	15.36	-36.0	-37.8	23.7	0.00e+00	0	55	0	144703488	43	4443
2026-01-03 02:17:19.01	165.91	15.39	-35.5	-37.1	24.3	0.00e+00	0	55	0	145752064	43	4144
2026-01-03 02:17:20.02	165.54	15.42	-35.2	-36.8	24.7	0.00e+00	0	55	0	146800640	42	4213
2026-01-03 02:17:21.03	165.18	15.45	-35.2	-36.8	24.8	0.00e+00	0	55	0	147849216	42	4201
2026-01-03 02:17:22.04	164.81	15.48	-35.4	-37.0	24.5	0.00e+00	0	55	0	148897792	42	4324
2026-01-03 02:17:23.05	164.45	15.51	-35.4	-37.0	24.5	0.00e+00	0	55	0	149946368	42	4333
2026-01-03 02:17:24.06	164.08	15.53	-35.1	-36.7	24.8	0.00e+00	0	55	0	151519232	42	4175
2026-01-03 02:17:25.07	163.71	15.56	-34.9	-36.5	24.9	0.00e+00	0	55	0	152567808	41	4310
2026-01-03 02:17:26.08	163.34	15.58	-34.9	-36.4	25.1	0.00e+00	0	55	0	153616384	41	4285
2026-01-03 02:17:27.09	162.98	15.61	-34.8	-36.4	25.1	0.00e+00	0	55	0	154664960	41	4275
2026-01-03 02:17:28.10	162.61	15.63	-34.8	-36.4	25.1	0.00e+00	0	55	0	155713536	41	4253
2026-01-03 02:17:29.11	162.23	15.65	-34.9	-36.4	25.1	0.00e+00	0	55	0	156762112	40	4532
2026-01-03 02:17:30.12	161.86	15.67	-34.9	-36.6	25.0	0.00e+00	0	55	0	158334976	40	4599
2026-01-03 02:17:31.13	161.49	15.69	-34.9	-36.5	25.0	0.00e+00	0	55	0	159383552	40	4596
2026-01-03 02:17:32.14	161.12	15.71	-34.8	-36.4	25.1	0.00e+00	0	55	0	160432128	40	4510
2026-01-03 02:17:33.15	160.74	15.73	-34.6	-36.2	25.3	0.00e+00	0	55	0	161480704	40	4402
2026-01-03 02:17:34.16	160.37	15.75	-34.7	-36.3	25.2	0.00e+00	0	55	0	162529280	40	4473
2026-01-03 02:17:35.17	160.00	15.76	-34.8	-36.4	25.2	0.00e+00	0	55	0	163577856	40	4504
2026-01-03 02:17:36.18	159.62	15.78	-34.7	-36.3	25.2	0.00e+00	0	55	0	165150720	40	4462
2026-01-03 02:17:37.19	159.25	15.79	-35.0	-36.6	24.9	0.00e+00	0	55	0	166199296	40	4614
2026-01-03 02:17:38.20	158.87	15.80	-35.1	-36.8	24.8	0.00e+00	0	55	0	167247872	40	4714
2026-01-03 02:17:39.21	158.49	15.82	-35.1	-36.7	24.8	0.00e+00	0	55	0	168296448	41	4406
2026-01-03 02:17:40.22	158.12	15.83	-34.7	-36.2	25.2	0.00e+00	0	55	0	169345024	41	4185
2026-01-03 02:17:41.23	157.74	15.84	-34.4	-35.9	25.6	0.00e+00	0	55	0	170393600	40	4255
2026-01-03 02:17:42.24	157.36	15.84	-34.5	-36.1	25.3	0.00e+00	0	55	0	171966464	40	4357
2026-01-03 02:17:43.24	156.99	15.85	-34.7	-36.2	25.2	0.00e+00	0	55	0	173015040	40	4441
2026-01-03 02:17:44.25	156.61	15.86	-34.8	-36.3	25.1	0.00e+00	0	55	0	174063616	40	4478
2026-01-03 02:17:45.26	156.24	15.87	-34.7	-36.3	25.2	0.00e+00	0	55	0	175112192	40	4462
2026-01-03 02:17:46.27	155.86	15.87	-34.8	-36.4	24.9	0.00e+00	0	55	0	176160768	40	4543
2026-01-03 02:17:47.28	155.48	15.87	-35.0	-36.6	24.8	0.00e+00	0	55	0	177209344	40	4650
2026-01-03 02:17:48.29	155.10	15.88	-34.5	-36.0	25.4	0.00e+00	0	55	0	178782208	40	4313
2026-01-03 02:17:49.30	154.72	15.88	-34.3	-35.8	25.6	0.00e+00	0	55	0	179830784	40	4242
2026-01-03 02:17:50.31	154.35	15.88	-34.7	-36.3	25.2	0.00e+00	0	55	0	180879360	40	4463
2026-01-03 02:17:51.32	153.97	15.88	-34.8	-36.3	25.1	0.00e+00	0	55	0	181927936	40	4483
2026-01-03 02:17:52.33	153.59	15.88	-34.8	-36.4	25.1	0.00e+00	0	55	0	182976512	40	4518
2026-01-03 02:17:53.34	153.21	15.87	-34.8	-36.4	25.0	0.00e+00	0	55	0	184025088	40	4517
2026-01-03 02:17:54.35	152.83	15.87	-35.0	-36.6	24.9	0.00e+00	0	55	0	185597952	40	4599
2026-01-03 02:17:55.36	152.46	15.87	-35.2	-36.9	24.5	0.00e+00	0	55	0	186646528	41	4508
2026-01-03 02:17:56.37	152.08	15.86	-34.9	-36.5	24.9	0.00e+00	0	55	0	187695104	41	4292
2026-01-03 02:17:57.38	151.70	15.85	-34.6	-36.1	25.2	0.00e+00	0	55	0	188743680	41	4124
2026-01-03 02:17:58.39	151.32	15.85	-34.7	-36.2	25.2	0.00e+00	0	55	0	189792256	41	4185
2026-01-03 02:17:59.39	150.95	15.84	-34.6	-36.1	25.2	0.00e+00	0	55	0	190840832	41	4137
2026-01-03 02:18:00.40	150.58	15.83	-34.4	-36.0	25.4	0.00e+00	0	55	0	192413696	40	4300
2026-01-03 02:18:01.41	150.20	15.82	-34.3	-35.8	25.5	0.00e+00	0	55	0	193462272	40	4239
2026-01-03 02:18:02.42	149.82	15.81	-34.3	-35.8	25.5	0.00e+00	0	55	0	194510848	40	4230
2026-01-03 02:18:03.43	149.45	15.79	-34.6	-36.2	25.1	0.00e+00	0	55	0	195559424	40	4408
2026-01-03 02:18:04.44	149.07	15.78	-34.6	-36.2	25.2	0.00e+00	0	55	0	196608000	40	4400
2026-01-03 02:18:05.45	148.70	15.76	-34.5	-36.1	25.3	0.00e+00	0	55	0	197656576	40	4346
2026-01-03 02:18:06.46	148.32	15.75	-34.5	-36.1	25.3	0.00e+00	0	55	0	199229440	40	4359
2026-01-03 02:18:07.47	147.95	15.73	-34.7	-36.3	25.1	0.00e+00	0	55	0	200278016	40	4470
2026-01-03 02:18:08.48	147.58	15.71	-34.9	-36.5	24.8	0.00e+00	0	55	0	201326592	40	4590
2026-01-03 02:18:09.49	147.21	15.70	-34.8	-36.4	25.0	0.00e+00	0	55	0	202375168	40	4515
2026-01-03 02:18:10.50	146.83	15.68	-34.8	-36.3	25.0	0.00e+00	0	55	0	203423744	40	4485
2026-01-03 02:18:11.51	146.46	15.66	-35.1	-36.7	24.7	0.00e+00	0	55	0	204472320	40	4680
2026-01-03 02:18:12.51	146.10	15.63	-35.2	-36.9	24.5	0.00e+00	0	55	0	206045184	41	4509
2026-01-03 02:18:13.52	145.73	15.61	-35.0	-36.6	24.8	0.00e+00	0	55	0	207093760	41	4350
2026-01-03 02:18:14.53	145.36	15.59	-34.8	-36.4	24.9	0.00e+00	0	55	0	208142336	41	4267
2026-01-03 02:18:15.54	144.99	15.56	-34.6	-36.2	25.1	0.00e+00	0	55	0	209190912	41	4166
2026-01-03 02:18:16.55	144.62	15.54	-34.6	-36.2	25.1	0.00e+00	0	55	0	210239488	41	4172
2026-01-03 02:18:17.56	144.26	15.51	-34.8	-36.3	24.9	0.00e+00	0	55	0	211288064	41	4228
2026-01-03 02:18:18.57	143.89	15.49	-34.7	-36.3	25.0	0.00e+00	0	55	0	212860928	41	4199
2026-01-03 02:18:19.58	143.52	15.46	-34.6	-36.2	25.1	0.00e+00	0	55	0	213909504	41	4173
2026-01-03 02:18:20.59	143.16	15.43	-34.9	-36.6	24.8	0.00e+00	0	55	0	214958080	41	4348
2026-01-03 02:18:21.60	142.80	15.40	-35.1	-36.8	24.6	0.00e+00	0	55	0	216006656	41	4457
2026-01-03 02:18:22.61	142.44	15.37	-35.0	-36.6	24.7	0.00e+00	0	55	0	217055232	41	4382
2026-01-03 02:18:23.62	142.07	15.34	-35.0	-36.6	24.7	0.00e+00	0	55	0	218103808	41	4360
2026-01-03 02:18:24.63	141.71	15.30	-35.2	-36.8	24.5	0.00e+00	0	55	0	219676672	41	4464
2026-01-03 02:18:25.64	141.35	15.27	-35.3	-37.0	24.3	0.00e+00	0	56	0	220725248	41	4575
2026-01-03 02:18:26.65	141.00	15.24	-35.4	-37.1	24.3	0.00e+00	0	55	0	221773824	41	4599
2026-01-03 02:18:27.65	140.64	15.20	-35.3	-36.9	24.5	0.00e+00	0	55	0	222822400	41	4522
2026-01-03 02:18:28.66	140.29	15.17	-35.3	-36.9	24.4	0.00e+00	0	55	0	223870976	41	4536
2026-01-03 02:18:29.67	139.93	15.13	-35.3	-36.9	24.4	0.00e+00	0	55	0	224919552	41	4527
2026-01-03 02:18:30.68	139.58	15.09	-35.1	-36.7	24.6	0.00e+00	0	56	0	226492416	41	4429
2026-01-03 02:18:31.69	139.23	15.05	-34.9	-36.5	24.9	0.00e+00	0	56	0	227540992	41	4301
2026-01-03 02:18:32.71	138.87	15.01	-34.8	-36.4	24.9	0.00e+00	0	55	0	228589568	41	4278
2026-01-03 02:18:33.71	138.52	14.97	-34.9	-36.5	24.8	0.00e+00	0	55	0	229638144	41	4311
2026-01-03 02:18:34.72	138.18	14.93	-35.1	-36.7	24.5	0.00e+00	0	55	0	230686720	41	4417
2026-01-03 02:18:35.73	137.83	14.89	-34.9	-36.5	24.7	0.00e+00	0	56	0	231735296	41	4338
2026-01-03 02:18:36.74	137.48	14.85	-35.0	-36.7	24.6	0.00e+00	0	55	0	233308160	41	4413
2026-01-03 02:18:37.75	137.14	14.81	-35.1	-36.8	24.5	0.00e+00	0	55	0	234356736	41	4451
2026-01-03 02:18:38.76	136.79	14.76	-35.0	-36.6	24.6	0.00e+00	0	55	0	235405312	41	4362
2026-01-03 02:18:39.77	136.45	14.72	-34.8	-36.4	24.8	1.10e-06	0	55	0	236453888	41	4277
2026-01-03 02:18:40.78	136.11	14.67	-34.7	-36.2	24.9	1.10e-06	0	55	0	237502464	40	4439
2026-01-03 02:18:41.79	135.77	14.63	-34.8	-36.4	24.6	0.00e+00	0	55	0	238551040	40	4517
2026-01-03 02:18:42.80	135.43	14.58	-35.0	-36.7	24.4	0.00e+00	0	55	0	239599616	40	4672
2026-01-03 02:18:43.81	135.09	14.53	-35.3	-37.0	23.9	0.00e+00	0	55	0	241172480	41	4580
2026-01-03 02:18:44.81	134.76	14.49	-35.5	-37.2	23.5	9.10e-06	0	56	0	242221056	41	4693
2026-01-03 02:18:45.82	134.43	14.44	-35.2	-37.3	23.4	4.80e-05	0	55	0	243269632	41	4732
2026-01-03 02:18:46.83	134.09	14.39	-35.2	-37.3	23.6	4.80e-05	0	55	0	244318208	41	4718
2026-01-03 02:18:47.84	133.76	14.34	-35.4	-37.3	23.1	1.10e-04	0	56	0	245366784	41	4738
2026-01-03 02:18:48.85	133.43	14.29	-34.9	-36.9	22.9	1.88e-04	0	55	0	246415360	40	4767
2026-01-03 02:18:49.86	133.10	14.24	-34.9	-36.7	23.2	7.35e-04	0	55	0	247988224	40	4680
2026-01-03 02:18:50.87	132.77	14.19	-34.9	-36.7	22.1	7.35e-04	0	55	0	249036800	40	4681
2026-01-03 02:18:51.88	132.45	14.13	-34.5	-37.0	19.5	1.96e-03	0	56	0	250085376	39	5156
2026-01-03 02:18:52.89	132.12	14.08	-34.9	-37.4	20.0	2.52e-03	0	56	0	251133952	40	5042
2026-01-03 02:18:53.90	131.80	14.03	-35.4	-37.8	18.7	2.52e-03	0	56	0	252182528	40	5321
2026-01-03 02:18:54.91	131.48	13.97	-33.8	-36.8	14.4	5.30e-03	0	56	0	253755392	37	5641
2026-01-03 02:18:55.92	131.16	13.92	-31.5	-37.1	16.4	1.67e-02	0	56	0	254803968	37	5844
2026-01-03 02:18:56.93	130.84	13.86	-29.3	-36.4	14.7	1.67e-02	0	55	0	255852544	33	6727
2026-01-03 02:18:57.94	130.53	13.81	-32.1	-36.6	15.9	2.47e-02	0	55	0	256901120	35	6201
2026-01-03 02:18:58.94	130.21	13.75	-30.8	-36.7	15.9	2.08e-02	0	55	0	257949696	35	6247
2026-01-03 02:18:59.95	129.90	13.70	-30.3	-36.9	15.6	2.08e-02	0	56	0	258998272	35	6396
2026-01-03 02:19:00.96	129.59	13.64	-31.6	-36.5	15.0	2.16e-02	0	56	0	260571136	33	6867
2026-01-03 02:19:01.97	129.28	13.58	-31.2	-36.5	14.3	4.06e-02	0	56	0	261619712	33	6874
2026-01-03 02:19:02.98	128.97	13.52	-31.7	-36.8	14.6	3.69e-02	0	56	0	262668288	34	6706
2026-01-03 02:19:03.99	128.66	13.47	-30.2	-36.4	13.9	3.69e-02	0	56	0	263716864	32	7195
2026-01-03 02:19:05.00	128.35	13.41	-31.0	-36.7	13.4	4.81e-02	0	56	0	264765440	32	7399
2026-01-03 02:19:06.01	128.05	13.35	-25.1	-36.5	13.2	4.92e-02	0	56	0	265814016	32	7213
2026-01-03 02:19:07.02	127.75	13.29	-29.3	-36.6	14.4	4.92e-02	0	56	0	266862592	35	6188
2026-01-03 02:19:08.03	127.45	13.23	-30.3	-37.0	15.0	3.71e-02	0	56	0	268435456	36	6084
2026-01-03 02:19:09.04	127.15	13.17	-31.5	-37.2	16.5	3.26e-02	0	56	0	269484032	37	5903
2026-01-03 02:19:10.05	126.85	13.11	-32.0	-37.3	17.1	3.26e-02	0	56	0	270532608	38	5655
2026-01-03 02:19:11.06	126.55	13.05	-33.7	-37.7	16.3	2.15e-02	0	56	0	271581184	37	6258
2026-01-03 02:19:12.07	126.26	12.98	-34.5	-37.2	17.4	1.59e-02	0	55	0	272629760	39	5236
2026-01-03 02:19:13.07	125.97	12.92	-35.1	-37.4	19.7	8.43e-03	0	56	0	273678336	39	5382
2026-01-03 02:19:14.09	125.67	12.86	-34.9	-37.5	19.2	8.43e-03	0	56	0	275251200	40	5146
2026-01-03 02:19:15.10	125.38	12.80	-35.5	-37.7	20.5	6.06e-03	0	56	0	276299776	41	4952
2026-01-03 02:19:16.11	125.10	12.73	-35.4	-37.7	21.1	3.78e-03	0	56	0	277348352	41	4941
2026-01-03 02:19:17.11	124.81	12.67	-34.6	-37.6	21.1	3.78e-03	0	56	0	278396928	41	4914
2026-01-03 02:19:18.12	124.53	12.61	-34.7	-37.5	22.1	2.22e-03	0	56	0	279445504	41	4858
2026-01-03 02:19:19.13	124.24	12.54	-35.5	-37.5	22.4	6.57e-04	0	56	0	280494080	41	4846
2026-01-03 02:19:20.14	123.96	12.48	-34.7	-37.5	21.9	6.57e-04	0	56	0	282066944	41	4828
2026-01-03 02:19:21.15	123.68	12.41	-35.6	-37.5	22.9	5.19e-04	0	56	0	283115520	42	4566
2026-01-03 02:19:22.16	123.40	12.35	-35.7	-37.5	23.2	1.13e-04	0	56	0	284164096	42	4592
2026-01-03 02:19:23.17	123.13	12.28	-35.5	-37.6	23.1	1.13e-04	0	56	0	285212672	42	4616
2026-01-03 02:19:24.18	122.85	12.22	-35.6	-37.5	22.9	2.86e-05	0	56	0	286261248	42	4591
2026-01-03 02:19:25.19	122.58	12.15	-34.4	-37.3	23.1	1.10e-06	0	56	0	287309824	41	4724
2026-01-03 02:19:26.20	122.31	12.09	-35.5	-37.5	23.1	2.20e-06	0	56	0	288882688	42	4567
2026-01-03 02:19:27.21	122.04	12.02	-35.0	-37.5	22.6	2.20e-06	0	56	0	289931264	41	4815
2026-01-03 02:19:28.22	121.77	11.96	-35.5	-37.6	22.7	3.40e-06	0	56	0	290979840	41	4906
2026-01-03 02:19:29.23	121.50	11.89	-34.1	-37.5	21.6	3.40e-06	0	56	0	292028416	41	4820
2026-01-03 02:19:30.24	121.23	11.82	-34.8	-37.4	22.8	3.40e-06	0	56	0	293076992	41	4777
2026-01-03 02:19:31.25	120.97	11.76	-35.6	-37.9	21.7	8.00e-06	0	56	0	294125568	42	4808
2026-01-03 02:19:32.26	120.71	11.69	-29.7	-37.5	18.2	2.74e-05	0	56	0	295698432	35	6833
2026-01-03 02:19:33.27	120.45	11.62	-31.9	-37.5	21.7	2.74e-05	0	56	0	296747008	39	5410
2026-01-03 02:19:34.28	120.19	11.55	-35.0	-37.6	19.6	9.61e-05	0	56	0	297795584	40	5206
2026-01-03 02:19:35.28	119.93	11.49	-34.8	-38.1	20.1	3.36e-04	0	56	0	298844160	41	5169
2026-01-03 02:19:36.29	119.68	11.42	-34.9	-38.2	19.0	3.36e-04	0	56	0	299892736	41	5247
2026-01-03 02:19:37.30	119.42	11.35	-34.3	-38.3	17.7	6.98e-04	0	56	0	300941312	39	5987
2026-01-03 02:19:38.31	119.17	11.28	-33.1	-38.4	14.5	2.61e-03	0	56	0	302514176	37	6758
2026-01-03 02:19:39.32	118.92	11.21	-32.2	-38.7	15.6	9.36e-03	0	56	0	303562752	38	6608
2026-01-03 02:19:40.33	118.67	11.15	-27.6	-38.0	11.7	9.36e-03	0	56	0	304611328	32	8566
2026-01-03 02:19:41.34	118.42	11.08	-32.3	-39.2	11.6	2.84e-02	0	56	0	305659904	32	9865
2026-01-03 02:19:42.35	118.17	11.01	-29.9	-38.0	13.3	3.54e-02	0	56	0	306708480	33	8108
2026-01-03 02:19:43.36	117.93	10.94	-29.5	-37.1	13.4	3.54e-02	0	56	0	307757056	31	8185
2026-01-03 02:19:44.36	117.69	10.87	-29.2	-37.4	12.8	3.59e-02	0	56	0	309329920	32	8045
2026-01-03 02:19:45.37	117.44	10.80	-28.2	-37.0	12.2	6.35e-02	0	56	0	310378496	29	9142
2026-01-03 02:19:46.39	117.20	10.73	-23.6	-36.9	11.8	6.35e-02	0	56	0	311427072	28	9526
2026-01-03 02:19:47.39	116.97	10.66	-27.9	-37.6	10.4	6.40e-02	0	56	0	312475648	26	11629
2026-01-03 02:19:48.40	116.73	10.59	-25.3	-37.6	8.6	1.31e-01	0	56	0	313524224	23	13884
2026-01-03 02:19:49.41	116.49	10.52	-23.2	-36.7	10.0	1.31e-01	0	56	0	314048512	23	12401
2026-01-03 02:19:50.42	116.26	10.46	-18.0	-37.0	6.5	2.80e-01	0	56	0	315097088	18	17171
2026-01-03 02:19:51.43	116.02	10.39	-25.8	-37.5	8.2	3.42e-01	0	56	0	316145664	23	13633
2026-01-03 02:19:52.44	115.79	10.32	-25.6	-38.3	8.3	3.83e-01	0	56	0	316669952	23	14952
2026-01-03 02:19:53.45	115.56	10.25	-21.8	-39.0	6.7	3.83e-01	0	56	0	317194240	21	18279
2026-01-03 02:19:54.46	115.33	10.18	-25.2	-39.5	7.7	4.84e-01	0	56	0	318242816	23	17269
2026-01-03 02:19:55.47	115.11	10.11	-24.4	-39.7	7.5	4.80e-01	0	56	0	318767104	23	17648
2026-01-03 02:19:56.48	114.88	10.04	-23.4	-36.7	4.3	4.80e-01	0	56	104	319291392	2	41496
2026-01-03 02:19:57.49	114.66	9.97	-23.2	-38.8	7.5	5.93e-01	0	56	0	319291392	22	16767
2026-01-03 02:19:58.50	114.43	9.90	-22.9	-38.3	7.5	5.47e-01	0	56	0	319815680	19	18806
2026-01-03 02:19:59.51	114.21	9.83	-26.1	-41.3	7.4	5.47e-01	0	56	0	320339968	22	22371
2026-01-03 02:20:00.52	113.99	9.76	-25.8	-43.1	6.1	4.97e-01	0	56	104	320339968	23	26146
2026-01-03 02:20:01.53	113.77	9.69	-25.8	-41.6	7.4	6.27e-01	0	56	0	320339968	24	20748
2026-01-03 02:20:02.54	113.56	9.62	-26.1	-45.0	5.2	6.27e-01	0	56	104	320339968	23	32493
2026-01-03 02:20:03.55	113.34	9.55	-26.4	-42.3	5.2	5.83e-01	0	56	104	320339968	24	22448
2026-01-03 02:20:04.56	113.13	9.48	-27.1	-38.8	8.4	6.85e-01	0	56	0	320339968	22	16878
2026-01-03 02:20:05.57	112.91	9.41	-24.4	-37.5	11.3	2.75e-01	0	56	0	321912832	27	10856
2026-01-03 02:20:06.58	112.70	9.34	-25.4	-38.0	11.0	2.75e-01	0	56	0	322437120	27	11439
2026-01-03 02:20:07.59	112.49	9.27	-28.9	-37.7	10.4	1.03e-01	0	56	0	323485696	27	11077
2026-01-03 02:20:08.60	112.28	9.20	-30.2	-38.0	11.6	1.04e-01	0	56	0	324534272	29	10196
2026-01-03 02:20:09.61	112.08	9.13	-30.2	-38.8	11.5	1.04e-01	0	56	0	325582848	32	9461
2026-01-03 02:20:10.62	111.87	9.06	-32.7	-40.0	13.0	8.01e-02	0	56	0	326631424	36	8651
2026-01-03 02:20:11.63	111.67	8.99	-33.3	-39.1	14.7	4.69e-02	0	56	0	327680000	37	7355
2026-01-03 02:20:12.63	111.47	8.92	-31.4	-39.1	15.1	4.69e-02	0	56	0	329252864	38	6937
2026-01-03 02:20:13.64	111.26	8.85	-34.8	-40.2	14.5	1.52e-02	0	56	0	330301440	40	6990
2026-01-03 02:20:14.65	111.06	8.78	-34.8	-39.2	15.6	1.23e-02	0	56	0	331350016	41	5915
2026-01-03 02:20:15.66	110.86	8.71	-35.3	-39.7	17.1	8.28e-03	0	56	0	332398592	42	5902
2026-01-03 02:20:16.67	110.67	8.64	-35.0	-39.1	15.1	8.28e-03	0	56	0	333447168	42	5525
2026-01-03 02:20:17.68	110.47	8.57	-36.0	-39.5	17.7	3.25e-03	0	56	0	334495744	42	5777
2026-01-03 02:20:18.69	110.27	8.50	-36.3	-39.5	18.5	2.01e-03	0	56	0	336068608	41	6109
2026-01-03 02:20:19.70	110.08	8.43	-36.2	-40.3	18.6	2.01e-03	0	56	0	337117184	43	5941
2026-01-03 02:20:20.71	109.89	8.36	-36.7	-40.2	18.9	1.30e-03	0	56	0	338165760	44	5540
2026-01-03 02:20:21.72	109.69	8.29	-37.2	-40.3	19.1	1.71e-03	0	56	0	339214336	45	5325
2026-01-03 02:20:22.73	109.50	8.22	-37.3	-40.3	19.2	1.71e-03	0	56	0	340262912	45	5305
2026-01-03 02:20:23.74	109.32	8.15	-37.4	-40.2	19.7	3.54e-04	0	56	0	341311488	45	5259
2026-01-03 02:20:24.75	109.13	8.08	-37.3	-40.0	20.2	1.97e-04	0	56	0	342884352	45	5157
2026-01-03 02:20:25.76	108.94	8.01	-44.2	-60.3	3.3	1.97e-04	0	56	104	343932928	58	25109
2026-01-03 02:20:26.77	108.76	7.95	-44.6	-62.4	3.8	1.35e-01	0	56	104	343932928	59	30073
2026-01-03 02:20:27.78	108.57	7.88	-44.9	-63.0	3.8	8.46e-01	0	56	104	343932928	60	30508
2026-01-03 02:20:28.79	108.39	7.81	-45.0	-63.1	3.8	8.46e-01	0	56	104	343932928	60	30923
2026-01-03 02:20:29.80	108.21	7.74	-45.2	-63.3	3.8	8.47e-01	0	56	104	343932928	60	31757
2026-01-03 02:20:30.81	108.03	7.67	-45.3	-63.5	3.8	8.46e-01	0	56	104	343932928	61	30386
2026-01-03 02:20:31.82	107.85	7.60	-45.4	-63.6	3.8	8.45e-01	0	56	104	343932928	61	30744
2026-01-03 02:20:32.83	107.67	7.53	-45.5	-63.7	3.8	8.45e-01	0	56	104	343932928	61	31112
2026-01-03 02:20:33.84	107.49	7.46	-45.6	-63.8	3.8	8.45e-01	0	56	104	343932928	61	31479
2026-01-03 02:20:34.85	107.31	7.39	-45.6	-63.8	3.8	8.47e-01	0	56	104	343932928	61	31490
2026-01-03 02:20:35.86	107.14	7.33	-45.6	-63.7	3.8	8.47e-01	0	56	104	343932928	61	31344
2026-01-03 02:20:36.87	106.97	7.26	-45.5	-63.7	3.8	8.46e-01	0	56	104	343932928	61	31177
2026-01-03 02:20:37.89	106.79	7.19	-45.4	-63.6	3.8	8.46e-01	0	56	104	343932928	61	30941
2026-01-03 02:20:38.90	106.62	7.12	-45.3	-63.5	3.8	8.46e-01	0	56	104	343932928	61	30633
2026-01-03 02:20:39.91	106.45	7.05	-45.3	-63.5	3.8	8.47e-01	0	56	104	343932928	61	30527
2026-01-03 02:20:40.92	106.28	6.98	-45.3	-63.5	3.8	8.46e-01	0	56	104	343932928	61	30400
2026-01-03 02:20:41.93	106.11	6.92	-45.2	-63.5	3.8	8.45e-01	0	56	104	343932928	61	30400
2026-01-03 02:20:42.94	105.95	6.85	-45.2	-63.4	3.8	8.45e-01	0	56	104	343932928	61	30239
2026-01-03 02:20:43.95	105.78	6.78	-45.2	-63.4	3.8	8.45e-01	0	56	104	343932928	61	30216
2026-01-03 02:20:44.96	105.62	6.71	-45.2	-63.4	3.8	8.46e-01	0	56	104	343932928	61	30195
2026-01-03 02:20:45.97	105.45	6.65	-45.2	-63.4	3.8	8.46e-01	0	56	104	343932928	61	30238
2026-01-03 02:20:46.99	105.29	6.58	-45.2	-63.4	3.8	8.47e-01	0	56	104	343932928	61	30220
2026-01-03 02:20:48.00	105.13	6.51	-45.2	-63.4	3.8	8.46e-01	0	56	104	343932928	61	30225
2026-01-03 02:20:49.01	104.97	6.44	-45.2	-63.4	3.8	8.46e-01	0	56	104	343932928	61	30289
2026-01-03 02:20:50.02	104.81	6.38	-45.2	-63.4	3.8	8.46e-01	0	56	104	343932928	61	30162
2026-01-03 02:20:51.03	104.65	6.31	-45.2	-63.4	3.8	8.45e-01	0	56	104	343932928	61	30155
2026-01-03 02:20:52.04	104.49	6.24	-45.2	-63.4	3.8	8.45e-01	0	56	104	343932928	61	30166
2026-01-03 02:20:53.05	104.33	6.17	-45.2	-63.4	3.8	8.46e-01	0	56	104	343932928	61	30129
2026-01-03 02:20:54.06	104.18	6.11	-45.2	-63.4	3.8	8.47e-01	0	56	104	343932928	61	30109
2026-01-03 02:20:55.07	104.02	6.04	-45.2	-63.4	3.8	8.46e-01	0	56	104	343932928	61	30156
2026-01-03 02:20:56.08	103.87	5.97	-45.2	-63.4	3.8	8.46e-01	0	56	104	343932928	61	30138
2026-01-03 02:20:57.10	103.72	5.91	-45.2	-63.4	3.8	8.46e-01	0	56	104	343932928	61	30141
2026-01-03 02:20:58.11	103.57	5.84	-45.2	-63.4	3.8	8.47e-01	0	56	104	343932928	61	30090
2026-01-03 02:20:59.12	103.42	5.77	-45.2	-63.4	3.8	8.47e-01	0	56	104	343932928	61	30140
2026-01-03 02:21:00.13	103.27	5.71	-45.2	-63.4	3.8	8.45e-01	0	56	104	343932928	61	30123
2026-01-03 02:21:01.14	103.12	5.64	-45.2	-63.4	3.8	8.46e-01	0	56	104	343932928	61	30086
2026-01-03 02:21:02.15	102.97	5.58	-45.2	-63.3	3.8	8.46e-01	0	56	104	343932928	61	30026
2026-01-03 02:21:03.16	102.82	5.51	-45.2	-63.4	3.8	8.46e-01	0	56	104	343932928	61	30132
2026-01-03 02:21:04.17	102.68	5.45	-45.2	-63.4	3.8	8.47e-01	0	56	104	343932928	61	30123
2026-01-03 02:21:05.19	102.53	5.38	-45.2	-63.4	3.8	8.47e-01	0	56	104	343932928	61	30099
2026-01-03 02:21:06.20	102.39	5.31	-45.2	-63.4	3.8	8.45e-01	0	56	104	343932928	61	30113
2026-01-03 02:21:07.21	102.25	5.25	-45.2	-63.3	3.8	8.45e-01	0	56	104	343932928	61	30029
2026-01-03 02:21:08.22	102.10	5.18	-45.2	-63.3	3.8	8.47e-01	0	57	104	343932928	61	30010
2026-01-03 02:21:09.23	101.96	5.12	-45.2	-63.4	3.8	8.47e-01	0	56	104	343932928	61	30066
2026-01-03 02:21:10.24	101.82	5.05	-45.2	-63.4	3.8	8.45e-01	0	56	104	343932928	61	30075
2026-01-03 02:21:11.25	101.68	4.99	-45.2	-63.4	3.8	8.46e-01	0	56	104	343932928	61	30050
2026-01-03 02:21:12.26	101.54	4.92	-45.2	-63.4	3.8	8.46e-01	0	57	104	343932928	61	30039
2026-01-03 02:21:13.27	101.41	4.86	-45.2	-63.4	3.8	8.46e-01	0	56	104	343932928	61	30115
2026-01-03 02:21:14.29	101.27	4.79	-45.2	-63.4	3.8	8.46e-01	0	56	104	343932928	61	30038
2026-01-03 02:21:15.30	101.13	4.73	-45.2	-63.4	3.8	8.46e-01	0	57	104	343932928	61	30041
2026-01-03 02:21:16.31	101.00	4.67	-45.2	-63.4	3.8	8.46e-01	0	56	104	343932928	61	30080
2026-01-03 02:21:17.32	100.86	4.60	-45.2	-63.3	3.8	8.46e-01	0	56	104	343932928	61	29994
2026-01-03 02:21:18.33	100.73	4.54	-45.2	-63.4	3.8	8.45e-01	0	57	104	343932928	61	30046
2026-01-03 02:21:19.34	100.60	4.47	-45.2	-63.3	3.8	8.45e-01	0	56	104	343932928	61	30022
2026-01-03 02:21:20.35	100.47	4.41	-45.2	-63.4	3.8	8.47e-01	0	56	104	343932928	61	30042
2026-01-03 02:21:21.36	100.34	4.35	-45.2	-63.3	3.8	8.46e-01	0	56	104	343932928	61	29910
2026-01-03 02:21:22.37	100.21	4.28	-45.2	-63.4	3.8	8.46e-01	0	57	104	343932928	61	30059
2026-01-03 02:21:23.38	100.08	4.22	-45.2	-63.4	3.8	8.46e-01	0	56	104	343932928	61	30070
2026-01-03 02:21:24.39	99.95	4.16	-45.2	-63.4	3.8	8.47e-01	0	57	104	343932928	61	30038
2026-01-03 02:21:25.41	99.82	4.09	-45.2	-63.3	3.8	8.47e-01	0	57	104	343932928	61	30022
2026-01-03 02:21:26.42	99.69	4.03	-45.2	-63.4	3.8	8.46e-01	0	56	104	343932928	61	30106
2026-01-03 02:21:27.43	99.57	3.97	-45.2	-63.3	3.8	8.47e-01	0	57	104	343932928	61	29996
2026-01-03 02:21:28.44	99.44	3.90	-45.2	-63.3	3.8	8.47e-01	0	57	104	343932928	61	30019
2026-01-03 02:21:29.45	99.32	3.84	-45.2	-63.4	3.8	8.46e-01	0	57	104	343932928	61	30074
2026-01-03 02:21:30.46	99.19	3.78	-45.2	-63.4	3.8	8.45e-01	0	57	104	343932928	61	30043
2026-01-03 02:21:31.47	99.07	3.72	-45.2	-63.3	3.8	8.46e-01	0	57	104	343932928	61	30016
2026-01-03 02:21:32.48	98.95	3.65	-45.2	-63.4	3.8	8.46e-01	0	57	104	343932928	61	30036
2026-01-03 02:21:33.49	98.83	3.59	-45.2	-63.3	3.8	8.47e-01	0	56	104	343932928	61	30028
2026-01-03 02:21:34.50	98.71	3.53	-45.2	-63.3	3.8	8.46e-01	0	57	104	343932928	61	30016
2026-01-03 02:21:35.52	98.59	3.47	-45.2	-63.4	3.8	8.46e-01	0	57	104	343932928	61	30044
2026-01-03 02:21:36.53	98.47	3.41	-45.2	-63.3	3.8	8.45e-01	0	57	104	343932928	61	29998
2026-01-03 02:21:37.54	98.35	3.34	-45.2	-63.3	3.8	8.46e-01	0	57	104	343932928	61	30019
2026-01-03 02:21:38.55	98.23	3.28	-45.2	-63.3	3.8	8.46e-01	0	57	104	343932928	61	30003
2026-01-03 02:21:39.56	98.11	3.22	-45.2	-63.3	3.8	8.45e-01	0	57	104	343932928	61	30024
2026-01-03 02:21:40.57	98.00	3.16	-45.2	-63.3	3.8	8.47e-01	0	57	104	343932928	61	29993
2026-01-03 02:21:41.58	97.88	3.10	-45.2	-63.3	3.8	8.47e-01	0	57	104	343932928	61	29990
2026-01-03 02:21:42.59	97.77	3.04	-45.2	-63.3	3.8	8.46e-01	0	57	104	343932928	61	29855
2026-01-03 02:21:43.60	97.65	2.98	-45.1	-63.3	3.8	8.47e-01	0	57	104	343932928	61	29988
2026-01-03 02:21:44.62	97.54	2.91	-45.2	-63.3	3.8	8.45e-01	0	57	104	343932928	61	30012
2026-01-03 02:21:45.63	97.42	2.85	-45.2	-63.3	3.8	8.45e-01	0	57	104	343932928	61	29940
2026-01-03 02:21:46.64	97.31	2.79	-45.2	-63.3	3.8	8.47e-01	0	57	104	343932928	61	29948
2026-01-03 02:21:47.65	97.20	2.73	-45.2	-63.3	3.8	8.45e-01	0	56	104	343932928	61	29954
2026-01-03 02:21:48.66	97.09	2.67	-45.1	-63.3	3.8	8.45e-01	0	57	104	343932928	61	29962
2026-01-03 02:21:49.67	96.98	2.61	-45.1	-63.4	3.8	8.46e-01	0	57	104	343932928	61	30033
2026-01-03 02:21:50.68	96.87	2.55	-45.2	-63.3	3.8	8.47e-01	0	57	104	343932928	61	29943
2026-01-03 02:21:51.69	96.76	2.49	-45.2	-63.3	3.8	8.47e-01	0	57	104	343932928	61	29994
2026-01-03 02:21:52.71	96.65	2.43	-45.2	-63.3	3.8	8.44e-01	0	57	104	343932928	61	29997
2026-01-03 02:21:53.72	96.54	2.37	-45.1	-63.3	3.8	8.46e-01	0	57	104	343932928	61	29991
2026-01-03 02:21:54.73	96.44	2.31	-45.2	-63.3	3.8	8.47e-01	0	57	104	343932928	61	29968
2026-01-03 02:21:55.74	96.33	2.25	-45.1	-63.3	3.8	8.47e-01	0	57	104	343932928	61	30010
2026-01-03 02:21:56.75	96.23	2.19	-45.2	-63.3	3.8	8.45e-01	0	57	104	343932928	61	29967
2026-01-03 02:21:57.76	96.12	2.13	-45.2	-63.3	3.8	8.46e-01	0	57	104	343932928	61	29930
2026-01-03 02:21:58.77	96.02	2.07	-45.2	-63.3	3.8	8.46e-01	0	57	104	343932928	61	29959
2026-01-03 02:21:59.78	95.91	2.02	-45.1	-63.3	3.8	8.46e-01	0	57	104	343932928	61	29912

#Closed at: 2026-01-03 02:22:00
#Recorded file [343 MB]: D:/lorett/data/31039_260103_051343.dat