passes_logs/2026/01/03/R2.0S_Moscow/R2.0S_Moscow__20260103_234020_SUOMI_NPP_rec.log

#Pass ID: 20260103_234020_SUOMI NPP
#Satellite: SUOMI NPP
#Configuration: NPP
#almurnet v.1.7.20251203
#Start time: 2026-01-03 23:40:21

#Version: 2.2.20231116
#Station: R2.0S_Moscow
#Location: 37.707566 lon 55.798166 lat
#TLE: 1 37849U 11061A   26001.07732418  .00000182  00000+0  10735-3 0  9990
#TLE: 2 37849  98.7795 303.2470 0002580  87.2016 272.9455 14.19520779734739

#Time	Az	El	Level	Level2	SNR	BER	BlckErr	Temp	State	Recorded	gain1	gain2
2026-01-03 23:40:21.71	16.52	2.06	-41.4	-56.7	3.8	1.49e+00	0	48	0	0	54	20795
2026-01-03 23:40:22.71	16.53	2.12	-41.4	-56.6	3.8	1.49e+00	0	48	104	0	54	20761
2026-01-03 23:40:23.72	16.54	2.19	-41.4	-56.7	3.8	1.49e+00	0	48	104	0	54	20795
2026-01-03 23:40:24.73	16.54	2.25	-41.4	-56.6	3.8	1.49e+00	0	48	104	0	54	20773
2026-01-03 23:40:25.74	16.55	2.32	-41.4	-56.6	3.8	1.49e+00	0	48	104	0	54	20725
2026-01-03 23:40:26.75	16.56	2.38	-41.4	-56.6	3.8	1.49e+00	0	48	104	0	54	20733
2026-01-03 23:40:27.77	16.56	2.45	-41.4	-56.6	3.8	1.49e+00	0	49	104	0	54	20771
2026-01-03 23:40:28.78	16.57	2.52	-41.4	-56.6	3.8	1.49e+00	0	49	104	0	54	20725
2026-01-03 23:40:29.79	16.58	2.58	-41.4	-56.6	3.8	1.49e+00	0	49	104	0	54	20700
2026-01-03 23:40:30.80	16.59	2.65	-41.4	-56.6	3.8	1.49e+00	0	49	104	0	54	20728
2026-01-03 23:40:31.81	16.59	2.71	-41.4	-56.6	3.8	1.49e+00	0	49	104	0	54	20755
2026-01-03 23:40:32.82	16.60	2.78	-41.4	-56.6	3.8	1.49e+00	0	49	104	0	54	20724
2026-01-03 23:40:33.83	16.61	2.84	-41.3	-56.7	3.8	1.49e+00	0	49	104	0	54	20783
2026-01-03 23:40:34.84	16.62	2.91	-41.4	-56.6	3.8	1.49e+00	0	49	104	0	54	20742
2026-01-03 23:40:35.85	16.62	2.98	-41.4	-56.6	3.8	1.49e+00	0	49	104	0	54	20725
2026-01-03 23:40:36.87	16.63	3.04	-41.4	-56.6	3.8	1.49e+00	0	49	104	0	54	20682
2026-01-03 23:40:37.88	16.64	3.11	-41.3	-56.6	3.8	1.49e+00	0	49	104	0	54	20700
2026-01-03 23:40:38.89	16.64	3.18	-41.4	-56.6	3.8	1.49e+00	0	49	104	0	54	20682
2026-01-03 23:40:39.90	16.65	3.25	-41.4	-56.6	3.8	1.49e+00	0	49	104	0	54	20726
2026-01-03 23:40:40.91	16.66	3.31	-41.4	-56.6	3.8	1.49e+00	0	49	104	0	54	20699
2026-01-03 23:40:41.92	16.67	3.38	-41.3	-56.6	3.8	1.49e+00	0	49	104	0	54	20704
2026-01-03 23:40:42.93	16.67	3.45	-41.4	-56.6	3.8	1.49e+00	0	50	104	0	54	20658
2026-01-03 23:40:43.94	16.68	3.52	-41.3	-56.6	3.8	1.49e+00	0	49	104	0	54	20742
2026-01-03 23:40:44.95	16.69	3.58	-41.4	-56.6	3.8	1.49e+00	0	50	104	0	54	20720
2026-01-03 23:40:45.96	16.70	3.65	-41.4	-56.6	3.8	1.49e+00	0	50	104	0	54	20689
2026-01-03 23:40:46.97	16.70	3.72	-41.4	-56.6	3.8	1.49e+00	0	50	104	0	54	20654
2026-01-03 23:40:47.99	16.71	3.79	-41.4	-56.6	3.8	1.49e+00	0	50	104	0	54	20655
2026-01-03 23:40:49.00	16.72	3.86	-41.4	-56.6	3.8	1.49e+00	0	50	104	0	54	20651
2026-01-03 23:40:50.01	16.73	3.93	-41.3	-56.6	3.8	1.49e+00	0	50	104	0	54	20659
2026-01-03 23:40:51.02	16.73	4.00	-41.4	-56.6	3.8	1.49e+00	0	50	104	0	54	20665
2026-01-03 23:40:52.03	16.74	4.07	-41.3	-56.6	3.8	1.49e+00	0	50	104	0	54	20615
2026-01-03 23:40:53.04	16.75	4.14	-41.4	-56.6	3.8	1.49e+00	0	50	104	0	54	20723
2026-01-03 23:40:54.05	16.76	4.20	-41.3	-56.6	3.8	1.49e+00	0	50	104	0	54	20714
2026-01-03 23:40:55.06	16.76	4.27	-41.4	-56.6	3.8	1.49e+00	0	50	104	0	54	20674
2026-01-03 23:40:56.07	16.77	4.34	-41.3	-56.6	3.8	1.49e+00	0	50	104	0	54	20723
2026-01-03 23:40:57.09	16.78	4.42	-41.4	-56.6	3.8	1.49e+00	0	50	104	0	54	20727
2026-01-03 23:40:58.10	16.79	4.49	-41.3	-56.6	3.8	1.49e+00	0	50	104	0	54	20657
2026-01-03 23:40:59.11	16.79	4.56	-41.3	-56.6	3.8	1.49e+00	0	50	104	0	54	20669
2026-01-03 23:41:00.12	16.80	4.63	-41.3	-56.6	3.8	1.49e+00	0	50	104	0	54	20631
2026-01-03 23:41:01.13	16.81	4.70	-41.3	-56.6	3.8	1.49e+00	0	51	104	0	54	20662
2026-01-03 23:41:02.14	16.82	4.77	-41.3	-56.6	3.8	1.49e+00	0	50	104	0	54	20684
2026-01-03 23:41:03.15	16.82	4.84	-41.3	-56.6	3.8	1.49e+00	0	51	104	0	54	20669
2026-01-03 23:41:04.16	16.83	4.91	-41.3	-56.6	3.8	1.49e+00	0	51	104	0	54	20736
2026-01-03 23:41:05.17	16.84	4.98	-41.3	-56.6	3.8	1.49e+00	0	51	104	0	54	20581
2026-01-03 23:41:06.19	16.85	5.06	-41.4	-56.6	3.8	1.49e+00	0	51	104	0	54	20620
2026-01-03 23:41:07.20	16.86	5.13	-41.3	-56.5	3.8	1.49e+00	0	51	104	0	54	20528
2026-01-03 23:41:08.21	16.86	5.20	-41.3	-56.6	3.8	1.49e+00	0	51	104	0	54	20591
2026-01-03 23:41:09.22	16.87	5.27	-41.3	-56.6	3.8	1.49e+00	0	51	104	0	54	20624
2026-01-03 23:41:10.23	16.88	5.34	-41.3	-56.6	3.8	1.49e+00	0	51	104	0	54	20633
2026-01-03 23:41:11.24	16.89	5.42	-41.3	-56.6	3.8	1.49e+00	0	51	104	0	54	20607
2026-01-03 23:41:12.25	16.89	5.49	-41.4	-56.6	3.8	1.49e+00	0	51	104	0	54	20577
2026-01-03 23:41:13.26	16.90	5.56	-41.4	-56.6	3.8	1.49e+00	0	51	104	0	54	20632
2026-01-03 23:41:14.27	16.91	5.64	-41.3	-56.6	3.8	1.49e+00	0	51	104	0	54	20609
2026-01-03 23:41:15.28	16.92	5.71	-41.3	-56.6	3.8	1.49e+00	0	51	104	0	54	20645
2026-01-03 23:41:16.30	16.93	5.78	-41.3	-56.6	3.8	1.49e+00	0	51	104	0	54	20640
2026-01-03 23:41:17.31	16.93	5.86	-41.3	-56.6	3.8	1.49e+00	0	52	104	0	54	20634
2026-01-03 23:41:18.32	16.94	5.93	-41.4	-56.6	3.8	1.49e+00	0	51	104	0	54	20699
2026-01-03 23:41:19.33	16.95	6.01	-41.4	-56.6	3.8	1.49e+00	0	52	104	0	54	20620
2026-01-03 23:41:20.34	16.96	6.08	-41.3	-56.6	3.8	1.49e+00	0	52	104	0	54	20718
2026-01-03 23:41:21.35	16.96	6.16	-41.3	-56.6	3.8	1.49e+00	0	52	104	0	54	20668
2026-01-03 23:41:22.36	16.97	6.23	-41.4	-56.6	3.8	1.49e+00	0	52	104	0	54	20612
2026-01-03 23:41:23.37	16.98	6.31	-41.3	-56.6	3.8	1.49e+00	0	52	104	0	54	20566
2026-01-03 23:41:24.39	16.99	6.38	-41.4	-56.5	3.8	1.49e+00	0	52	104	0	54	20385
2026-01-03 23:41:25.40	17.00	6.46	-41.3	-56.4	3.8	1.49e+00	0	52	104	0	54	20235
2026-01-03 23:41:26.41	17.01	6.54	-41.3	-56.4	3.8	1.49e+00	0	52	104	0	54	20128
2026-01-03 23:41:27.42	17.01	6.61	-41.3	-56.3	3.8	1.49e+00	0	52	104	0	54	20026
2026-01-03 23:41:28.43	17.02	6.69	-41.3	-56.3	3.8	1.49e+00	0	52	104	0	54	20061
2026-01-03 23:41:29.44	17.03	6.76	-41.3	-56.3	3.8	1.49e+00	0	52	104	0	54	19992
2026-01-03 23:41:30.45	17.04	6.84	-41.3	-56.4	3.8	1.49e+00	0	52	104	0	54	20086
2026-01-03 23:41:31.46	17.05	6.92	-41.3	-56.2	3.8	1.49e+00	0	52	104	0	54	19735
2026-01-03 23:41:32.47	17.05	7.00	-41.3	-56.0	3.8	1.49e+00	0	52	104	0	54	19307
2026-01-03 23:41:33.48	17.06	7.07	-41.3	-55.6	3.8	1.49e+00	0	52	104	0	54	18380
2026-01-03 23:41:34.49	17.07	7.15	-41.3	-55.1	3.8	1.49e+00	0	52	104	0	54	17456
2026-01-03 23:41:35.51	17.08	7.23	-41.2	-54.4	3.8	1.49e+00	0	52	104	0	54	16053
2026-01-03 23:41:36.52	17.09	7.31	-41.1	-53.6	4.1	1.48e+00	0	52	104	0	54	14690
2026-01-03 23:41:37.53	17.09	7.39	-41.1	-52.7	4.3	1.39e+00	0	52	0	0	54	13118
2026-01-03 23:41:38.54	17.10	7.47	-41.0	-51.7	4.7	1.07e+00	0	53	0	1048576	54	11766
2026-01-03 23:41:39.55	17.11	7.55	-40.9	-50.4	5.3	7.52e-01	0	52	0	3145728	53	10745
2026-01-03 23:41:40.56	17.12	7.62	-40.6	-48.9	6.4	3.00e-01	0	52	0	5242880	53	9013
2026-01-03 23:41:41.57	17.13	7.70	-40.4	-47.9	7.3	1.66e-01	0	53	0	7340032	52	8537
2026-01-03 23:41:42.58	17.14	7.78	-40.1	-46.6	8.7	6.64e-02	0	53	0	8388608	52	7296
2026-01-03 23:41:43.59	17.14	7.86	-39.9	-45.5	9.9	1.23e-02	0	52	0	10485760	51	6835
2026-01-03 23:41:44.60	17.15	7.94	-39.6	-44.7	10.7	5.11e-03	0	53	0	12582912	51	6228
2026-01-03 23:41:45.61	17.16	8.02	-39.4	-44.1	11.3	1.35e-03	0	53	0	14680064	50	6194
2026-01-03 23:41:46.62	17.17	8.11	-39.9	-44.1	12.0	4.84e-04	0	53	0	16777216	50	6149
2026-01-03 23:41:47.63	17.18	8.19	-40.4	-46.3	9.5	1.03e-03	0	53	0	17825792	51	7468
2026-01-03 23:41:48.64	17.19	8.27	-40.4	-45.7	10.2	1.92e-01	0	53	0	19922944	51	7016
2026-01-03 23:41:49.65	17.20	8.35	-41.3	-46.1	10.5	2.98e-02	0	53	0	22020096	53	6550
2026-01-03 23:41:50.66	17.20	8.43	-40.9	-49.8	6.2	5.18e-03	0	53	0	24117248	53	9980
2026-01-03 23:41:51.68	17.21	8.51	-40.6	-45.5	10.3	1.32e+00	0	53	0	24117248	53	6117
2026-01-03 23:41:52.69	17.22	8.60	-40.5	-44.4	12.1	3.93e-04	0	53	0	25165824	53	5390
2026-01-03 23:41:53.70	17.23	8.68	-40.6	-44.6	12.0	2.20e-04	0	53	0	27262976	52	5831
2026-01-03 23:41:54.70	17.24	8.76	-40.8	-45.0	11.6	4.34e-04	0	53	0	29360128	52	6106
2026-01-03 23:41:55.71	17.25	8.84	-40.6	-44.7	12.0	3.74e-04	0	53	0	31457280	52	5858
2026-01-03 23:41:56.72	17.26	8.93	-40.5	-44.4	12.3	2.12e-04	0	53	0	33554432	52	5680
2026-01-03 23:41:57.73	17.26	9.01	-40.5	-44.3	12.4	1.66e-04	0	53	0	34603008	52	5633
2026-01-03 23:41:58.74	17.27	9.10	-40.5	-44.5	12.3	1.81e-04	0	53	0	36700160	52	5723
2026-01-03 23:41:59.75	17.28	9.18	-40.5	-44.4	12.3	1.59e-04	0	53	0	38797312	52	5693
2026-01-03 23:42:00.76	17.29	9.27	-40.4	-44.1	12.7	1.09e-04	0	53	0	40894464	52	5478
2026-01-03 23:42:01.77	17.30	9.35	-40.4	-44.2	12.6	6.33e-05	0	53	0	42991616	52	5574
2026-01-03 23:42:02.78	17.31	9.44	-40.5	-44.4	12.4	1.56e-04	0	53	0	45088768	52	5692
2026-01-03 23:42:03.79	17.32	9.52	-40.3	-43.9	13.0	5.18e-05	0	53	0	46137344	52	5372
2026-01-03 23:42:04.80	17.33	9.61	-40.4	-44.1	12.8	4.57e-05	0	53	0	48234496	52	5473
2026-01-03 23:42:05.81	17.34	9.69	-40.4	-44.0	12.9	4.80e-05	0	53	0	50331648	52	5462
2026-01-03 23:42:06.82	17.34	9.78	-40.3	-43.9	13.0	2.13e-05	0	53	0	52428800	52	5384
2026-01-03 23:42:07.82	17.35	9.86	-40.4	-44.0	12.9	4.65e-05	0	54	0	54525952	52	5461
2026-01-03 23:42:08.83	17.36	9.95	-40.3	-43.8	13.1	5.11e-05	0	53	0	55574528	52	5318
2026-01-03 23:42:09.84	17.37	10.04	-40.4	-43.9	13.0	4.57e-05	0	54	0	57671680	52	5401
2026-01-03 23:42:10.85	17.38	10.13	-40.3	-43.8	13.1	4.04e-05	0	54	0	59768832	52	5332
2026-01-03 23:42:11.87	17.39	10.22	-40.3	-43.7	13.3	1.52e-05	0	54	0	61865984	52	5263
2026-01-03 23:42:12.87	17.40	10.30	-40.3	-43.7	13.3	2.05e-05	0	54	0	63963136	52	5266
2026-01-03 23:42:13.88	17.41	10.39	-40.3	-43.6	13.4	1.29e-05	0	54	0	65011712	52	5207
2026-01-03 23:42:14.89	17.42	10.48	-40.3	-43.7	13.4	1.52e-05	0	54	0	67108864	52	5222
2026-01-03 23:42:15.90	17.43	10.57	-40.3	-43.6	13.4	2.21e-05	0	54	0	69206016	52	5207
2026-01-03 23:42:16.91	17.44	10.66	-40.3	-43.6	13.5	5.30e-06	0	54	0	71303168	52	5175
2026-01-03 23:42:17.92	17.44	10.75	-40.3	-43.6	13.6	1.44e-05	0	54	0	73400320	52	5171
2026-01-03 23:42:18.92	17.45	10.84	-40.3	-43.5	13.6	4.50e-06	0	54	0	74448896	52	5142
2026-01-03 23:42:19.94	17.46	10.93	-40.2	-43.5	13.7	7.60e-06	0	54	0	76546048	52	5120
2026-01-03 23:42:20.95	17.47	11.02	-40.2	-43.4	13.7	1.50e-06	0	54	0	78643200	52	5099
2026-01-03 23:42:21.95	17.48	11.11	-40.3	-43.5	13.6	8.30e-06	0	54	0	80740352	52	5147
2026-01-03 23:42:22.96	17.49	11.20	-40.2	-43.4	13.7	9.90e-06	0	54	0	82837504	52	5090
2026-01-03 23:42:23.98	17.50	11.30	-40.3	-43.5	13.6	6.80e-06	0	54	0	83886080	52	5125
2026-01-03 23:42:24.98	17.51	11.39	-40.2	-43.4	13.7	2.20e-06	0	54	0	85983232	52	5097
2026-01-03 23:42:25.99	17.52	11.48	-40.1	-43.2	14.0	3.80e-06	0	54	0	88080384	52	4954
2026-01-03 23:42:27.00	17.53	11.57	-40.1	-43.2	14.0	5.30e-06	0	54	0	90177536	52	4947
2026-01-03 23:42:28.01	17.54	11.67	-40.2	-43.3	13.9	3.00e-06	0	54	0	92274688	52	5032
2026-01-03 23:42:29.02	17.55	11.76	-40.2	-43.3	14.0	2.20e-06	0	54	0	93323264	52	5021
2026-01-03 23:42:30.03	17.56	11.85	-40.1	-43.1	14.1	3.00e-06	0	54	0	95420416	52	4907
2026-01-03 23:42:31.04	17.57	11.95	-40.0	-43.0	14.3	3.00e-06	0	54	0	97517568	52	4822
2026-01-03 23:42:32.05	17.58	12.04	-40.0	-42.9	14.4	1.50e-06	0	54	0	99614720	52	4799
2026-01-03 23:42:33.06	17.59	12.14	-40.1	-43.0	14.4	0.00e+00	0	54	0	101711872	51	5133
2026-01-03 23:42:34.07	17.60	12.23	-40.2	-43.2	14.3	7.00e-07	0	54	0	102760448	51	5227
2026-01-03 23:42:35.08	17.61	12.33	-40.2	-43.1	14.3	2.20e-06	0	54	0	104857600	51	5213
2026-01-03 23:42:36.09	17.62	12.42	-40.2	-43.1	14.4	0.00e+00	0	54	0	106954752	51	5194
2026-01-03 23:42:37.10	17.63	12.52	-40.2	-43.2	14.2	1.50e-06	0	54	0	109051904	51	5257
2026-01-03 23:42:38.11	17.64	12.62	-40.1	-42.9	14.5	0.00e+00	0	54	0	111149056	51	5097
2026-01-03 23:42:39.12	17.65	12.72	-40.0	-42.8	14.6	0.00e+00	0	54	0	113246208	51	5015
2026-01-03 23:42:40.13	17.66	12.81	-40.0	-42.8	14.7	0.00e+00	0	54	0	114294784	51	5004
2026-01-03 23:42:41.14	17.67	12.91	-40.0	-42.9	14.6	0.00e+00	0	54	0	116391936	51	5046
2026-01-03 23:42:42.15	17.68	13.01	-40.0	-42.8	14.7	0.00e+00	0	55	0	118489088	51	5021
2026-01-03 23:42:43.16	17.69	13.11	-39.8	-42.6	14.8	0.00e+00	0	55	0	120586240	51	4889
2026-01-03 23:42:44.17	17.70	13.21	-39.9	-42.7	14.8	0.00e+00	0	54	0	122683392	51	4936
2026-01-03 23:42:45.18	17.71	13.31	-39.9	-42.6	14.8	0.00e+00	0	55	0	123731968	51	4905
2026-01-03 23:42:46.19	17.72	13.41	-39.7	-42.4	15.0	0.00e+00	0	55	0	125829120	51	4799
2026-01-03 23:42:47.20	17.73	13.51	-39.7	-42.3	15.1	7.00e-07	0	55	0	127926272	51	4753
2026-01-03 23:42:48.21	17.74	13.61	-39.6	-42.2	15.2	0.00e+00	0	55	0	130023424	51	4697
2026-01-03 23:42:49.22	17.75	13.71	-39.7	-42.3	15.1	0.00e+00	0	55	0	132120576	51	4757
2026-01-03 23:42:50.23	17.76	13.81	-39.7	-42.3	15.2	0.00e+00	0	54	0	133169152	51	4741
2026-01-03 23:42:51.23	17.77	13.92	-39.6	-42.2	15.3	0.00e+00	0	54	0	135266304	51	4685
2026-01-03 23:42:52.24	17.78	14.02	-39.7	-42.3	15.2	0.00e+00	0	55	0	137363456	51	4739
2026-01-03 23:42:53.25	17.79	14.12	-39.7	-42.3	15.2	0.00e+00	0	55	0	139460608	51	4754
2026-01-03 23:42:54.26	17.80	14.23	-39.7	-42.3	15.3	0.00e+00	0	55	0	141557760	51	4706
2026-01-03 23:42:55.27	17.81	14.33	-39.6	-42.2	15.4	0.00e+00	0	55	0	142606336	51	4687
2026-01-03 23:42:56.28	17.82	14.43	-39.6	-42.2	15.4	0.00e+00	0	55	0	144703488	51	4660
2026-01-03 23:42:57.29	17.83	14.54	-39.6	-42.2	15.4	0.00e+00	0	55	0	146800640	51	4684
2026-01-03 23:42:58.30	17.84	14.64	-39.7	-42.3	15.3	0.00e+00	0	55	0	148897792	51	4708
2026-01-03 23:42:59.31	17.86	14.75	-39.7	-42.3	15.3	0.00e+00	0	55	0	150994944	51	4737
2026-01-03 23:43:00.32	17.87	14.86	-39.7	-42.3	15.4	0.00e+00	0	55	0	152043520	51	4710
2026-01-03 23:43:01.33	17.88	14.96	-39.6	-42.2	15.5	0.00e+00	0	55	0	154140672	51	4656
2026-01-03 23:43:02.34	17.89	15.07	-39.8	-42.3	15.3	0.00e+00	0	55	0	156237824	51	4754
2026-01-03 23:43:03.35	17.90	15.18	-39.8	-42.4	15.3	0.00e+00	0	55	0	158334976	51	4789
2026-01-03 23:43:04.35	17.91	15.29	-39.7	-42.3	15.4	7.00e-07	0	55	0	160432128	51	4735
2026-01-03 23:43:05.36	17.92	15.39	-39.8	-42.4	15.3	7.00e-07	0	55	0	161480704	51	4764
2026-01-03 23:43:06.37	17.93	15.50	-39.7	-42.3	15.4	0.00e+00	0	55	0	163577856	51	4728
2026-01-03 23:43:07.39	17.94	15.61	-39.7	-42.3	15.4	0.00e+00	0	55	0	165675008	51	4718
2026-01-03 23:43:08.39	17.96	15.72	-39.7	-42.2	15.5	0.00e+00	0	55	0	167772160	51	4677
2026-01-03 23:43:09.40	17.97	15.83	-39.5	-42.0	15.7	0.00e+00	0	55	0	169869312	51	4575
2026-01-03 23:43:10.41	17.98	15.95	-39.6	-42.1	15.6	0.00e+00	0	55	0	170917888	50	4885
2026-01-03 23:43:11.42	17.99	16.06	-39.5	-41.9	15.8	0.00e+00	0	55	0	173015040	50	4793
2026-01-03 23:43:12.43	18.00	16.17	-39.4	-41.9	15.9	0.00e+00	0	55	0	175112192	50	4761
2026-01-03 23:43:13.44	18.01	16.28	-39.4	-41.8	15.8	0.00e+00	0	55	0	177209344	50	4749
2026-01-03 23:43:14.45	18.02	16.40	-39.5	-41.9	15.8	0.00e+00	0	55	0	179306496	50	4790
2026-01-03 23:43:15.46	18.04	16.51	-39.6	-42.1	15.6	0.00e+00	0	55	0	181403648	50	4876
2026-01-03 23:43:16.47	18.05	16.62	-39.6	-42.0	15.7	0.00e+00	0	55	0	182452224	50	4856
2026-01-03 23:43:17.48	18.06	16.74	-39.5	-41.9	15.8	0.00e+00	0	55	0	184549376	50	4809
2026-01-03 23:43:18.49	18.07	16.85	-39.6	-42.1	15.7	0.00e+00	0	55	0	186646528	50	4879
2026-01-03 23:43:19.50	18.08	16.97	-39.4	-41.8	15.9	0.00e+00	0	55	0	188743680	50	4751
2026-01-03 23:43:20.51	18.10	17.09	-39.6	-42.1	15.7	0.00e+00	0	55	0	189792256	50	4872
2026-01-03 23:43:21.51	18.11	17.20	-39.6	-42.1	15.7	0.00e+00	0	55	0	191889408	50	4872
2026-01-03 23:43:22.52	18.12	17.32	-39.6	-42.1	15.6	0.00e+00	0	55	0	193986560	50	4912
2026-01-03 23:43:23.53	18.13	17.44	-39.8	-42.3	15.5	0.00e+00	0	55	0	196083712	50	5000
2026-01-03 23:43:24.55	18.14	17.56	-39.8	-42.3	15.5	0.00e+00	0	55	0	198180864	50	5032
2026-01-03 23:43:25.55	18.16	17.68	-39.7	-42.2	15.7	0.00e+00	0	55	0	199229440	50	4931
2026-01-03 23:43:26.56	18.17	17.80	-39.8	-42.4	15.5	0.00e+00	0	55	0	201326592	50	5050
2026-01-03 23:43:27.57	18.18	17.92	-39.8	-42.3	15.5	0.00e+00	0	55	0	203423744	50	5036
2026-01-03 23:43:28.58	18.19	18.04	-40.0	-42.6	15.3	0.00e+00	0	55	0	205520896	50	5171
2026-01-03 23:43:29.59	18.21	18.16	-39.9	-42.5	15.3	0.00e+00	0	55	0	207618048	50	5149
2026-01-03 23:43:30.60	18.22	18.28	-40.0	-42.6	15.3	0.00e+00	0	55	0	209715200	50	5161
2026-01-03 23:43:31.61	18.23	18.41	-40.0	-42.6	15.3	0.00e+00	0	55	0	210763776	50	5206
2026-01-03 23:43:32.62	18.24	18.53	-40.0	-42.6	15.3	0.00e+00	0	55	0	212860928	50	5178
2026-01-03 23:43:33.63	18.26	18.65	-40.1	-42.7	15.2	0.00e+00	0	55	0	214958080	50	5238
2026-01-03 23:43:34.64	18.27	18.78	-40.1	-42.7	15.2	0.00e+00	0	55	0	217055232	50	5274
2026-01-03 23:43:35.64	18.28	18.90	-40.2	-43.0	14.9	0.00e+00	0	55	0	219152384	51	5109
2026-01-03 23:43:36.65	18.30	19.03	-40.2	-42.9	15.0	0.00e+00	0	55	0	220200960	51	5079
2026-01-03 23:43:37.66	18.31	19.16	-40.2	-42.9	15.0	0.00e+00	0	55	0	222298112	51	5071
2026-01-03 23:43:38.67	18.32	19.28	-40.2	-42.9	15.0	0.00e+00	0	55	0	224395264	51	5057
2026-01-03 23:43:39.68	18.34	19.41	-40.2	-42.8	15.1	0.00e+00	0	55	0	226492416	51	5024
2026-01-03 23:43:40.69	18.35	19.54	-40.2	-42.9	15.1	1.50e-06	0	55	0	228589568	51	5045
2026-01-03 23:43:41.70	18.36	19.67	-40.2	-42.9	15.0	0.00e+00	0	55	0	229638144	51	5074
2026-01-03 23:43:42.71	18.38	19.80	-40.4	-43.1	14.8	0.00e+00	0	55	0	231735296	51	5202
2026-01-03 23:43:43.72	18.39	19.93	-40.3	-43.0	14.8	0.00e+00	0	56	0	233832448	51	5146
2026-01-03 23:43:44.73	18.40	20.06	-40.4	-43.2	14.6	0.00e+00	0	56	0	235929600	51	5279
2026-01-03 23:43:45.74	18.42	20.20	-40.5	-43.4	14.5	7.00e-07	0	56	0	238026752	51	5387
2026-01-03 23:43:46.75	18.43	20.33	-40.5	-43.4	14.5	7.00e-07	0	55	0	239075328	51	5385
2026-01-03 23:43:47.76	18.44	20.46	-40.6	-43.5	14.5	1.50e-06	0	55	0	241172480	51	5437
2026-01-03 23:43:48.77	18.46	20.60	-40.6	-43.6	14.3	1.50e-06	0	56	0	243269632	52	5213
2026-01-03 23:43:49.79	18.47	20.73	-40.6	-43.6	14.3	5.30e-06	0	55	0	245366784	52	5187
2026-01-03 23:43:50.80	18.49	20.87	-40.7	-43.7	14.2	7.00e-07	0	56	0	247463936	52	5241
2026-01-03 23:43:51.80	18.50	21.00	-40.8	-44.0	13.9	7.00e-07	0	56	0	248512512	52	5414
2026-01-03 23:43:52.81	18.52	21.14	-40.8	-43.9	14.0	2.20e-06	0	56	0	250609664	52	5384
2026-01-03 23:43:53.82	18.53	21.28	-40.9	-44.0	13.9	6.80e-06	0	55	0	252706816	52	5434
2026-01-03 23:43:54.83	18.54	21.42	-40.9	-44.1	13.8	4.50e-06	0	55	0	254803968	52	5476
2026-01-03 23:43:55.84	18.56	21.56	-41.0	-44.3	13.6	1.06e-05	0	56	0	256901120	52	5601
2026-01-03 23:43:56.85	18.57	21.70	-40.8	-43.9	14.0	4.50e-06	0	56	0	257949696	52	5371
2026-01-03 23:43:57.86	18.59	21.84	-40.8	-43.9	14.0	1.50e-06	0	56	0	260046848	52	5391
2026-01-03 23:43:58.87	18.60	21.98	-40.9	-44.0	13.9	3.00e-06	0	56	0	262144000	52	5446
2026-01-03 23:43:59.88	18.62	22.12	-40.7	-43.8	14.2	1.50e-06	0	56	0	264241152	52	5302
2026-01-03 23:44:00.89	18.63	22.27	-40.8	-43.9	14.1	2.20e-06	0	56	0	266338304	52	5347
2026-01-03 23:44:01.90	18.65	22.41	-40.9	-44.1	13.8	1.50e-06	0	56	0	267386880	52	5506
2026-01-03 23:44:02.91	18.66	22.56	-40.9	-44.0	13.9	3.80e-06	0	56	0	269484032	52	5443
2026-01-03 23:44:03.92	18.68	22.70	-40.9	-44.0	13.9	3.80e-06	0	56	0	271581184	52	5450
2026-01-03 23:44:04.92	18.70	22.85	-41.0	-44.3	13.7	4.50e-06	0	56	0	273678336	52	5593
2026-01-03 23:44:05.93	18.71	23.00	-40.9	-44.1	13.9	9.10e-06	0	56	0	275775488	52	5489
2026-01-03 23:44:06.94	18.73	23.14	-41.0	-44.2	13.8	6.80e-06	0	56	0	277872640	52	5529
2026-01-03 23:44:07.95	18.74	23.29	-41.0	-44.2	13.8	5.30e-06	0	56	0	278921216	52	5570
2026-01-03 23:44:08.96	18.76	23.44	-41.1	-44.4	13.6	6.10e-06	0	56	0	281018368	52	5693
2026-01-03 23:44:09.97	18.77	23.60	-40.9	-44.0	13.9	7.00e-07	0	56	0	283115520	52	5463
2026-01-03 23:44:10.98	18.79	23.75	-40.9	-44.1	13.9	1.22e-05	0	56	0	285212672	52	5469
2026-01-03 23:44:11.99	18.81	23.90	-40.9	-43.9	14.0	3.00e-06	0	56	0	287309824	52	5398
2026-01-03 23:44:13.00	18.82	24.05	-41.0	-44.2	13.8	2.20e-06	0	56	0	288358400	52	5537
2026-01-03 23:44:14.01	18.84	24.21	-40.9	-44.0	14.0	5.30e-06	0	56	0	290455552	52	5412
2026-01-03 23:44:15.02	18.86	24.37	-40.9	-44.0	14.0	3.80e-06	0	56	0	292552704	52	5431
2026-01-03 23:44:16.03	18.87	24.52	-40.9	-44.0	13.9	2.20e-06	0	56	0	294649856	52	5448
2026-01-03 23:44:17.04	18.89	24.68	-40.8	-43.8	14.2	0.00e+00	0	56	0	296747008	52	5297
2026-01-03 23:44:18.05	18.91	24.84	-40.7	-43.6	14.3	0.00e+00	0	56	0	297795584	52	5209
2026-01-03 23:44:19.05	18.93	25.00	-40.7	-43.7	14.3	3.00e-06	0	56	0	299892736	52	5239
2026-01-03 23:44:20.06	18.94	25.16	-40.7	-43.5	14.4	7.00e-07	0	56	0	301989888	52	5157
2026-01-03 23:44:21.07	18.96	25.32	-40.7	-43.7	14.3	0.00e+00	0	56	0	304087040	52	5241
2026-01-03 23:44:22.08	18.98	25.48	-40.6	-43.5	14.5	0.00e+00	0	56	0	306184192	52	5117
2026-01-03 23:44:23.09	19.00	25.64	-40.4	-43.1	14.9	0.00e+00	0	56	0	307232768	52	4902
2026-01-03 23:44:24.10	19.01	25.81	-40.5	-43.3	14.7	1.50e-06	0	56	0	309329920	52	5026
2026-01-03 23:44:25.11	19.03	25.97	-40.3	-43.0	15.1	7.00e-07	0	56	0	311427072	52	4823
2026-01-03 23:44:26.12	19.05	26.14	-40.4	-43.1	15.0	0.00e+00	0	56	0	313524224	52	4903
2026-01-03 23:44:27.13	19.07	26.31	-40.2	-42.8	15.2	0.00e+00	0	56	0	315621376	52	4751
2026-01-03 23:44:28.14	19.09	26.48	-40.2	-42.8	15.3	0.00e+00	0	56	0	316669952	52	4715
2026-01-03 23:44:29.15	19.11	26.65	-40.2	-42.8	15.3	0.00e+00	0	56	0	318767104	51	5011
2026-01-03 23:44:30.16	19.12	26.82	-40.1	-42.5	15.5	0.00e+00	0	56	0	320864256	51	4862
2026-01-03 23:44:31.17	19.14	26.99	-40.0	-42.5	15.5	0.00e+00	0	56	0	322961408	51	4853
2026-01-03 23:44:32.19	19.16	27.16	-40.2	-42.8	15.3	0.00e+00	0	56	0	325058560	51	4996
2026-01-03 23:44:33.20	19.18	27.34	-40.2	-42.8	15.4	0.00e+00	0	56	0	326107136	51	4984
2026-01-03 23:44:34.21	19.20	27.51	-40.2	-42.7	15.3	0.00e+00	0	56	0	328204288	51	4973
2026-01-03 23:44:35.21	19.22	27.69	-40.3	-42.9	15.2	0.00e+00	0	56	0	330301440	51	5065
2026-01-03 23:44:36.22	19.24	27.87	-40.4	-43.0	15.1	0.00e+00	0	56	0	332398592	51	5123
2026-01-03 23:44:37.23	19.26	28.04	-40.3	-42.9	15.2	0.00e+00	0	56	0	334495744	51	5050
2026-01-03 23:44:38.24	19.28	28.22	-40.3	-43.0	15.2	0.00e+00	0	56	0	335544320	51	5109
2026-01-03 23:44:39.25	19.30	28.40	-40.3	-42.9	15.2	0.00e+00	0	56	0	337641472	51	5055
2026-01-03 23:44:40.26	19.32	28.59	-40.4	-43.0	15.1	0.00e+00	0	56	0	339738624	51	5129
2026-01-03 23:44:41.27	19.34	28.77	-40.4	-43.1	15.0	0.00e+00	0	56	0	341835776	51	5184
2026-01-03 23:44:42.28	19.36	28.95	-40.3	-42.9	15.3	0.00e+00	0	56	0	343932928	51	5049
2026-01-03 23:44:43.29	19.39	29.14	-40.4	-43.1	15.1	0.00e+00	0	56	0	346030080	51	5161
2026-01-03 23:44:44.30	19.41	29.33	-40.4	-43.0	15.1	0.00e+00	0	56	0	347078656	51	5152
2026-01-03 23:44:45.31	19.43	29.52	-40.1	-42.7	15.5	0.00e+00	0	56	0	349175808	51	4938
2026-01-03 23:44:46.32	19.45	29.71	-40.7	-43.5	14.6	0.00e+00	0	56	0	351272960	51	5443
2026-01-03 23:44:47.33	19.47	29.90	-40.7	-43.6	14.5	0.00e+00	0	56	0	353370112	52	5172
2026-01-03 23:44:48.33	19.49	30.09	-40.7	-43.6	14.4	0.00e+00	0	56	0	355467264	52	5194
2026-01-03 23:44:49.35	19.52	30.28	-40.9	-44.0	14.1	1.50e-06	0	56	0	356515840	52	5415
2026-01-03 23:44:50.36	19.54	30.48	-40.9	-43.8	14.2	1.50e-06	0	56	0	358612992	52	5332
2026-01-03 23:44:51.37	19.56	30.67	-40.8	-43.8	14.2	1.50e-06	0	56	0	360710144	52	5308
2026-01-03 23:44:52.38	19.59	30.87	-41.0	-44.0	14.1	7.00e-07	0	56	0	362807296	52	5428
2026-01-03 23:44:53.38	19.61	31.07	-40.7	-43.6	14.5	7.00e-07	0	56	0	364904448	52	5199
2026-01-03 23:44:54.40	19.63	31.27	-40.7	-43.6	14.4	7.00e-07	0	56	0	365953024	52	5174
2026-01-03 23:44:55.40	19.66	31.47	-41.0	-44.0	14.0	2.20e-06	0	56	0	368050176	52	5436
2026-01-03 23:44:56.42	19.68	31.67	-41.0	-44.0	14.2	3.00e-06	0	56	0	370147328	52	5434
2026-01-03 23:44:57.43	19.71	31.88	-41.1	-44.2	13.9	7.00e-07	0	56	0	372244480	52	5545
2026-01-03 23:44:58.44	19.73	32.08	-41.5	-44.9	13.2	2.13e-05	0	56	0	374341632	53	5660
2026-01-03 23:44:59.44	19.75	32.29	-41.7	-45.2	12.8	3.28e-05	0	56	0	375390208	53	5895
2026-01-03 23:45:00.45	19.78	32.50	-41.8	-45.4	12.6	6.33e-05	0	56	0	377487360	54	5675
2026-01-03 23:45:01.46	19.81	32.71	-41.9	-45.6	12.4	2.07e-04	0	56	0	379584512	54	5841
2026-01-03 23:45:02.47	19.83	32.92	-42.0	-45.8	12.3	1.78e-04	0	56	0	381681664	54	5935
2026-01-03 23:45:03.48	19.86	33.13	-41.9	-45.7	12.3	7.70e-05	0	56	0	383778816	54	5861
2026-01-03 23:45:04.49	19.88	33.35	-42.0	-45.8	12.3	2.04e-04	0	56	0	384827392	54	5956
2026-01-03 23:45:05.50	19.91	33.56	-41.9	-45.6	12.6	1.22e-04	0	56	0	386924544	54	5807
2026-01-03 23:45:06.51	19.94	33.78	-42.0	-45.8	12.3	1.11e-04	0	56	0	389021696	54	5983
2026-01-03 23:45:07.52	19.96	34.00	-41.8	-45.4	12.6	1.33e-04	0	56	0	391118848	54	5687
2026-01-03 23:45:08.53	19.99	34.22	-41.8	-45.4	12.7	8.08e-05	0	56	0	393216000	54	5681
2026-01-03 23:45:09.54	20.02	34.44	-41.7	-45.3	12.7	6.71e-05	0	56	0	394264576	54	5601
2026-01-03 23:45:10.55	20.05	34.66	-41.4	-44.7	13.5	1.90e-05	0	56	0	396361728	54	5226
2026-01-03 23:45:11.56	20.08	34.89	-41.1	-44.2	14.0	8.30e-06	0	56	0	398458880	53	5224
2026-01-03 23:45:12.57	20.11	35.12	-40.7	-43.7	14.4	2.20e-06	0	57	0	400556032	53	4928
2026-01-03 23:45:13.58	20.13	35.35	-40.6	-43.4	14.7	0.00e+00	0	56	0	402653184	53	4810
2026-01-03 23:45:14.59	20.16	35.58	-40.4	-43.0	15.1	7.00e-07	0	56	0	403701760	52	4870
2026-01-03 23:45:15.60	20.19	35.81	-40.6	-43.3	14.7	0.00e+00	0	56	0	405798912	52	5037
2026-01-03 23:45:16.61	20.22	36.04	-40.4	-43.1	15.1	0.00e+00	0	56	0	407896064	52	4899
2026-01-03 23:45:17.61	20.25	36.28	-40.0	-42.5	15.6	0.00e+00	0	56	0	409993216	52	4564
2026-01-03 23:45:18.62	20.29	36.51	-40.0	-42.5	15.8	0.00e+00	0	56	0	412090368	51	4817
2026-01-03 23:45:19.63	20.32	36.75	-39.8	-42.2	16.0	0.00e+00	0	56	0	414187520	51	4703
2026-01-03 23:45:20.64	20.35	36.99	-39.6	-41.9	16.3	0.00e+00	0	56	0	415236096	51	4524
2026-01-03 23:45:21.65	20.38	37.24	-39.5	-41.7	16.5	0.00e+00	0	56	0	417333248	50	4668
2026-01-03 23:45:22.66	20.41	37.48	-39.4	-41.5	16.7	0.00e+00	0	56	0	419430400	50	4591
2026-01-03 23:45:23.67	20.45	37.73	-39.3	-41.5	16.8	0.00e+00	0	56	0	421527552	50	4548
2026-01-03 23:45:24.68	20.48	37.97	-39.2	-41.4	16.8	0.00e+00	0	56	0	423624704	50	4503
2026-01-03 23:45:25.69	20.52	38.22	-39.1	-41.2	17.0	0.00e+00	0	57	0	424673280	49	4657
2026-01-03 23:45:26.70	20.55	38.48	-39.1	-41.2	17.0	0.00e+00	0	57	0	426770432	49	4679
2026-01-03 23:45:27.71	20.58	38.73	-39.2	-41.4	16.9	0.00e+00	0	56	0	428867584	49	4762
2026-01-03 23:45:28.72	20.62	38.98	-39.1	-41.2	17.0	0.00e+00	0	56	0	430964736	49	4673
2026-01-03 23:45:29.73	20.66	39.24	-39.3	-41.5	16.7	0.00e+00	0	57	0	433061888	49	4830
2026-01-03 23:45:30.74	20.69	39.50	-39.2	-41.3	16.9	0.00e+00	0	56	0	434110464	49	4757
2026-01-03 23:45:31.75	20.73	39.76	-39.5	-41.7	16.5	0.00e+00	0	56	0	436207616	49	4947
2026-01-03 23:45:32.76	20.77	40.02	-39.8	-42.1	16.3	0.00e+00	0	56	0	438304768	50	4896
2026-01-03 23:45:33.77	20.81	40.29	-40.1	-42.5	15.8	0.00e+00	0	56	0	440401920	50	5148
2026-01-03 23:45:34.78	20.84	40.56	-40.5	-43.1	15.1	0.00e+00	0	57	0	442499072	51	5197
2026-01-03 23:45:35.79	20.88	40.83	-40.3	-42.9	15.3	0.00e+00	0	56	0	443547648	51	5071
2026-01-03 23:45:36.80	20.92	41.10	-40.7	-43.4	14.8	0.00e+00	0	57	0	445644800	51	5399
2026-01-03 23:45:37.81	20.96	41.37	-40.5	-43.1	15.0	0.00e+00	0	57	0	447741952	52	4923
2026-01-03 23:45:38.82	21.01	41.65	-40.8	-43.7	14.4	0.00e+00	0	56	0	449839104	52	5260
2026-01-03 23:45:39.83	21.05	41.92	-40.6	-43.4	14.8	0.00e+00	0	57	0	451936256	52	5075
2026-01-03 23:45:40.84	21.09	42.20	-40.7	-43.6	14.5	0.00e+00	0	56	0	452984832	52	5179
2026-01-03 23:45:41.85	21.13	42.48	-40.8	-43.7	14.5	0.00e+00	0	56	0	455081984	52	5221
2026-01-03 23:45:42.86	21.18	42.77	-40.5	-43.3	14.9	0.00e+00	0	57	0	457179136	52	4986
2026-01-03 23:45:43.87	21.22	43.05	-40.6	-43.4	14.8	0.00e+00	0	57	0	459276288	52	5043
2026-01-03 23:45:44.88	21.27	43.34	-40.4	-43.0	15.3	0.00e+00	0	57	0	461373440	51	5114
2026-01-03 23:45:45.89	21.31	43.63	-40.0	-42.5	15.8	0.00e+00	0	57	0	462422016	51	4821
2026-01-03 23:45:46.89	21.36	43.92	-39.8	-42.1	16.1	0.00e+00	0	57	0	464519168	51	4633
2026-01-03 23:45:47.90	21.41	44.22	-39.7	-42.0	16.2	0.00e+00	0	56	0	466616320	51	4590
2026-01-03 23:45:48.91	21.46	44.51	-39.8	-42.1	16.2	0.00e+00	0	57	0	468713472	51	4610
2026-01-03 23:45:49.92	21.51	44.81	-39.8	-42.2	16.1	0.00e+00	0	57	0	470810624	51	4675
2026-01-03 23:45:50.93	21.56	45.11	-40.0	-42.4	15.9	0.00e+00	0	57	0	471859200	51	4807
2026-01-03 23:45:51.94	21.61	45.42	-40.0	-42.4	15.9	0.00e+00	0	57	0	473956352	51	4763
2026-01-03 23:45:52.95	21.66	45.72	-40.5	-43.1	15.1	0.00e+00	0	57	0	476053504	51	5211
2026-01-03 23:45:53.96	21.71	46.03	-40.7	-43.5	14.8	0.00e+00	0	57	0	478150656	52	5131
2026-01-03 23:45:54.97	21.77	46.34	-40.7	-43.5	14.7	0.00e+00	0	57	0	480247808	52	5102
2026-01-03 23:45:55.98	21.82	46.66	-41.0	-43.9	14.3	2.20e-06	0	57	0	482344960	52	5377
2026-01-03 23:45:56.99	21.88	46.97	-41.0	-43.9	14.1	7.00e-07	0	57	0	483393536	52	5390
2026-01-03 23:45:58.00	21.93	47.29	-41.4	-44.7	13.5	5.30e-06	0	57	0	485490688	53	5575
2026-01-03 23:45:59.01	21.99	47.61	-41.6	-45.0	13.2	1.83e-05	0	57	0	487587840	53	5754
2026-01-03 23:46:00.02	22.05	47.93	-42.0	-45.7	12.4	3.50e-05	0	57	0	489684992	54	5911
2026-01-03 23:46:01.02	22.11	48.25	-41.9	-45.6	12.6	5.95e-05	0	57	0	491782144	54	5803
2026-01-03 23:46:02.03	22.17	48.58	-41.7	-45.1	13.1	9.07e-05	0	57	0	492830720	54	5510
2026-01-03 23:46:03.04	22.23	48.91	-41.6	-45.0	13.2	2.51e-05	0	57	0	494927872	54	5416
2026-01-03 23:46:04.05	22.30	49.24	-41.0	-43.9	14.3	7.00e-07	0	57	0	497025024	53	5092
2026-01-03 23:46:05.06	22.36	49.58	-40.7	-43.5	14.7	0.00e+00	0	57	0	499122176	53	4859
2026-01-03 23:46:06.07	22.43	49.91	-40.2	-42.7	15.5	0.00e+00	0	57	0	501219328	52	4672
2026-01-03 23:46:07.08	22.50	50.25	-40.1	-42.6	15.6	0.00e+00	0	57	0	502267904	52	4627
2026-01-03 23:46:08.09	22.57	50.60	-39.6	-41.8	16.5	0.00e+00	0	57	0	504365056	51	4453
2026-01-03 23:46:09.10	22.64	50.94	-39.5	-41.7	16.6	0.00e+00	0	57	0	506462208	50	4662
2026-01-03 23:46:10.11	22.71	51.29	-39.1	-41.2	17.0	0.00e+00	0	57	0	508559360	50	4394
2026-01-03 23:46:11.12	22.79	51.64	-39.0	-41.0	17.3	0.00e+00	0	57	0	510656512	49	4576
2026-01-03 23:46:12.13	22.86	51.99	-39.3	-41.4	16.9	0.00e+00	0	57	0	511705088	49	4782
2026-01-03 23:46:13.14	22.94	52.35	-39.5	-41.7	16.6	0.00e+00	0	57	0	513802240	49	4940
2026-01-03 23:46:14.15	23.02	52.70	-39.8	-42.2	16.1	0.00e+00	0	57	0	515899392	50	4947
2026-01-03 23:46:15.15	23.10	53.06	-40.0	-42.4	16.0	0.00e+00	0	57	0	517996544	50	5063
2026-01-03 23:46:16.17	23.19	53.43	-40.3	-42.9	15.5	0.00e+00	0	57	0	520093696	51	5044
2026-01-03 23:46:17.18	23.27	53.79	-39.7	-42.0	16.2	0.00e+00	0	57	0	521142272	51	4590
2026-01-03 23:46:18.18	23.36	54.15	-39.7	-42.0	16.4	0.00e+00	0	57	0	523239424	51	4546
2026-01-03 23:46:19.19	23.45	54.52	-39.4	-41.5	16.7	0.00e+00	0	57	0	525336576	50	4581
2026-01-03 23:46:20.20	23.54	54.90	-39.5	-41.6	16.6	0.00e+00	0	57	0	527433728	50	4650
2026-01-03 23:46:21.21	23.64	55.27	-39.1	-41.2	17.1	0.00e+00	0	57	0	529530880	50	4399
2026-01-03 23:46:22.22	23.73	55.65	-38.4	-40.3	17.9	0.00e+00	0	57	0	530579456	48	4458
2026-01-03 23:46:23.23	23.83	56.03	-38.3	-40.1	18.1	0.00e+00	0	57	0	532676608	48	4375
2026-01-03 23:46:24.24	23.93	56.42	-38.4	-40.3	17.9	0.00e+00	0	57	0	534773760	48	4480
2026-01-03 23:46:25.25	24.04	56.80	-38.6	-40.6	17.6	0.00e+00	0	57	0	536870912	48	4607
2026-01-03 23:46:26.26	24.15	57.19	-38.7	-40.7	17.7	0.00e+00	0	57	0	538968064	48	4684
2026-01-03 23:46:27.26	24.26	57.58	-38.7	-40.7	17.6	0.00e+00	0	57	0	540016640	48	4658
2026-01-03 23:46:28.27	24.37	57.97	-38.4	-40.2	18.0	0.00e+00	0	57	0	542113792	48	4403
2026-01-03 23:46:29.29	24.49	58.37	-38.5	-40.3	17.9	0.00e+00	0	57	0	544210944	48	4484
2026-01-03 23:46:30.30	24.61	58.77	-38.4	-40.2	18.0	0.00e+00	0	57	0	546308096	48	4433
2026-01-03 23:46:31.30	24.73	59.17	-38.2	-40.0	18.2	0.00e+00	0	57	0	548405248	48	4330
2026-01-03 23:46:32.31	24.86	59.57	-38.1	-39.8	18.4	0.00e+00	0	57	0	550502400	48	4218
2026-01-03 23:46:33.33	24.99	59.98	-37.9	-39.6	18.5	0.00e+00	0	57	0	551550976	47	4391
2026-01-03 23:46:34.34	25.13	60.39	-37.8	-39.5	18.5	0.00e+00	0	57	0	553648128	47	4323
2026-01-03 23:46:35.35	25.27	60.80	-38.2	-40.0	18.2	0.00e+00	0	57	0	555745280	47	4586
2026-01-03 23:46:36.36	25.42	61.22	-38.9	-40.8	17.4	0.00e+00	0	57	0	557842432	48	4751
2026-01-03 23:46:37.37	25.57	61.63	-39.2	-41.3	17.0	0.00e+00	0	57	0	559939584	49	4727
2026-01-03 23:46:38.38	25.72	62.05	-38.9	-40.9	17.3	0.00e+00	0	57	0	560988160	49	4532
2026-01-03 23:46:39.39	25.88	62.47	-38.5	-40.5	17.7	0.00e+00	0	57	0	563085312	49	4298
2026-01-03 23:46:40.40	26.05	62.90	-38.1	-39.9	18.3	0.00e+00	0	57	0	565182464	48	4273
2026-01-03 23:46:41.41	26.22	63.32	-37.6	-39.3	18.8	0.00e+00	0	57	0	567279616	47	4223
2026-01-03 23:46:42.42	26.40	63.75	-37.6	-39.3	18.9	0.00e+00	0	57	0	569376768	46	4474
2026-01-03 23:46:43.43	26.58	64.18	-37.6	-39.3	18.8	0.00e+00	0	57	0	570425344	46	4487
2026-01-03 23:46:44.43	26.77	64.61	-38.4	-40.3	17.8	0.00e+00	0	57	0	572522496	47	4738
2026-01-03 23:46:45.44	26.97	65.05	-39.2	-41.3	17.0	0.00e+00	0	57	0	574619648	48	5020
2026-01-03 23:46:46.45	27.17	65.48	-40.2	-42.9	15.4	0.00e+00	0	57	0	576716800	51	5042
2026-01-03 23:46:47.46	27.39	65.92	-40.3	-42.9	15.4	0.00e+00	0	57	0	578813952	51	5049
2026-01-03 23:46:48.47	27.61	66.37	-40.1	-42.5	15.8	0.00e+00	0	57	0	579862528	51	4834
2026-01-03 23:46:49.48	27.84	66.81	-40.3	-42.8	15.5	0.00e+00	0	57	0	581959680	51	5009
2026-01-03 23:46:50.49	28.09	67.26	-40.9	-43.9	14.3	7.00e-07	0	57	0	584056832	52	5346
2026-01-03 23:46:51.50	28.34	67.70	-41.5	-44.9	13.3	1.50e-06	0	57	0	586153984	53	5681
2026-01-03 23:46:52.51	28.60	68.16	-42.1	-46.1	12.0	1.75e-04	0	57	0	588251136	54	6197
2026-01-03 23:46:53.52	28.88	68.61	-42.5	-46.9	11.3	4.07e-04	0	57	0	589299712	55	6387
2026-01-03 23:46:54.53	29.17	69.06	-42.2	-46.3	11.8	8.38e-04	0	57	0	591396864	55	5927
2026-01-03 23:46:55.54	29.47	69.52	-41.9	-45.6	12.4	8.92e-05	0	57	0	593494016	55	5497
2026-01-03 23:46:56.55	29.79	69.97	-41.6	-45.1	13.0	3.43e-05	0	57	0	595591168	55	5182
2026-01-03 23:46:57.56	30.12	70.43	-41.7	-45.2	12.9	5.41e-05	0	57	0	597688320	55	5275
2026-01-03 23:46:58.57	30.47	70.89	-41.4	-44.8	13.4	1.98e-05	0	57	0	598736896	54	5292
2026-01-03 23:46:59.58	30.84	71.36	-40.6	-43.4	14.7	0.00e+00	0	57	0	600834048	53	4774
2026-01-03 23:47:00.59	31.22	71.82	-40.2	-42.8	15.3	1.50e-06	0	57	0	602931200	52	4712
2026-01-03 23:47:01.60	31.63	72.28	-40.1	-42.6	15.5	0.00e+00	0	57	0	605028352	52	4634
2026-01-03 23:47:02.61	32.06	72.75	-39.6	-41.9	16.2	0.00e+00	0	57	0	607125504	51	4526
2026-01-03 23:47:03.62	32.52	73.22	-39.0	-41.1	17.1	0.00e+00	0	57	0	608174080	49	4627
2026-01-03 23:47:04.63	33.00	73.68	-38.8	-40.8	17.4	0.00e+00	0	57	0	610271232	49	4443
2026-01-03 23:47:05.64	33.52	74.15	-39.2	-41.3	16.9	0.00e+00	0	57	0	612368384	49	4743
2026-01-03 23:47:06.65	34.06	74.62	-39.6	-41.9	16.3	0.00e+00	0	57	0	614465536	50	4810
2026-01-03 23:47:07.66	34.65	75.09	-39.1	-41.3	17.0	0.00e+00	0	57	0	616562688	50	4443
2026-01-03 23:47:08.67	35.27	75.56	-38.7	-40.7	17.5	0.00e+00	0	57	0	618659840	49	4410
2026-01-03 23:47:09.68	35.93	76.03	-39.1	-41.2	17.0	0.00e+00	0	57	0	619708416	49	4656
2026-01-03 23:47:10.69	36.64	76.49	-40.1	-42.7	15.6	0.00e+00	0	57	0	621805568	50	5247
2026-01-03 23:47:11.71	37.41	76.97	-40.1	-42.6	15.5	0.00e+00	0	57	0	623902720	51	4923
2026-01-03 23:47:12.72	38.24	77.43	-40.9	-43.8	14.5	0.00e+00	0	57	0	625999872	52	5328
2026-01-03 23:47:13.73	39.12	77.90	-41.9	-45.7	12.6	9.10e-06	0	57	0	628097024	54	5891
2026-01-03 23:47:14.73	40.07	78.36	-42.1	-46.2	11.8	5.49e-04	0	57	0	629145600	55	5898
2026-01-03 23:47:15.74	41.11	78.82	-42.2	-46.5	11.8	1.66e-04	0	57	0	631242752	55	6071
2026-01-03 23:47:16.75	42.25	79.28	-42.2	-46.4	11.6	5.52e-04	0	57	0	633339904	55	6031
2026-01-03 23:47:17.76	43.48	79.74	-41.3	-44.5	13.6	6.86e-05	0	57	0	635437056	54	5132
2026-01-03 23:47:18.78	44.84	80.19	-41.4	-44.8	13.5	2.20e-06	0	57	0	637534208	54	5307
2026-01-03 23:47:19.79	46.33	80.64	-42.0	-45.8	12.3	6.94e-05	0	57	0	638582784	54	5985
2026-01-03 23:47:20.80	47.96	81.08	-41.7	-45.3	12.7	2.39e-04	0	57	0	640679936	54	5636
2026-01-03 23:47:21.81	49.76	81.52	-40.5	-43.2	15.0	0.00e+00	0	57	0	642777088	52	4949
2026-01-03 23:47:22.82	51.76	81.94	-40.1	-42.7	15.5	0.00e+00	0	57	0	644874240	52	4676
2026-01-03 23:47:23.83	53.98	82.36	-39.8	-42.2	16.0	0.00e+00	0	57	0	646971392	51	4695
2026-01-03 23:47:24.84	56.46	82.76	-39.1	-41.1	17.0	0.00e+00	0	57	0	648019968	50	4374
2026-01-03 23:47:25.84	59.19	83.15	-39.1	-41.2	17.1	0.00e+00	0	57	0	650117120	49	4658
2026-01-03 23:47:26.85	62.28	83.52	-39.2	-41.3	16.8	0.00e+00	0	57	0	652214272	49	4750
2026-01-03 23:47:27.87	65.78	83.88	-38.6	-40.5	17.7	0.00e+00	0	57	0	654311424	49	4331
2026-01-03 23:47:28.88	69.65	84.20	-37.8	-39.5	18.5	0.00e+00	0	57	0	656408576	47	4307
2026-01-03 23:47:29.89	73.96	84.50	-37.9	-39.6	18.4	0.00e+00	0	57	0	657457152	47	4386
2026-01-03 23:47:30.90	78.74	84.77	-38.5	-40.5	17.6	0.00e+00	0	57	0	659554304	47	4851
2026-01-03 23:47:31.91	83.99	84.99	-39.7	-42.1	16.1	0.00e+00	0	57	0	661651456	50	4897
2026-01-03 23:47:32.92	89.69	85.17	-39.9	-42.4	15.8	0.00e+00	0	57	0	663748608	50	5056
2026-01-03 23:47:33.93	95.76	85.30	-39.7	-42.0	16.1	0.00e+00	0	57	0	665845760	50	4853
2026-01-03 23:47:34.94	102.09	85.37	-39.3	-41.4	16.8	0.00e+00	0	57	0	666894336	50	4537
2026-01-03 23:47:35.95	108.55	85.39	-37.9	-39.6	18.4	0.00e+00	0	57	0	668991488	47	4368
2026-01-03 23:47:36.96	114.98	85.35	-37.5	-39.1	18.9	0.00e+00	0	57	0	671088640	46	4373
2026-01-03 23:47:37.97	121.20	85.25	-39.0	-41.1	17.1	0.00e+00	0	57	0	673185792	48	4906
2026-01-03 23:47:38.98	127.11	85.09	-39.7	-42.0	16.3	0.00e+00	0	57	0	675282944	50	4834
2026-01-03 23:47:39.99	132.61	84.89	-39.8	-42.1	16.0	0.00e+00	0	57	0	676331520	50	4896
2026-01-03 23:47:41.00	137.65	84.65	-39.7	-42.0	16.2	0.00e+00	0	57	0	678428672	50	4851
2026-01-03 23:47:42.01	142.21	84.37	-39.7	-42.1	16.1	0.00e+00	0	57	0	680525824	50	4906
2026-01-03 23:47:43.02	146.32	84.06	-39.0	-41.0	17.1	0.00e+00	0	57	0	682622976	49	4581
2026-01-03 23:47:44.03	149.99	83.72	-39.1	-41.2	16.9	0.00e+00	0	57	0	684720128	49	4698
2026-01-03 23:47:45.04	153.28	83.35	-40.1	-42.7	15.6	0.00e+00	0	57	0	686817280	50	5248
2026-01-03 23:47:46.05	156.22	82.97	-40.4	-43.1	15.2	0.00e+00	0	57	0	687865856	51	5181
2026-01-03 23:47:47.05	158.82	82.58	-40.8	-43.8	14.4	0.00e+00	0	57	0	689963008	52	5283
2026-01-03 23:47:48.06	161.17	82.17	-41.0	-44.2	14.0	0.00e+00	0	57	0	692060160	52	5542
2026-01-03 23:47:49.07	163.29	81.75	-41.9	-45.8	12.2	5.79e-05	0	57	0	694157312	54	5988
2026-01-03 23:47:50.08	165.20	81.32	-41.4	-44.8	13.3	1.14e-04	0	57	0	696254464	54	5301
2026-01-03 23:47:51.09	166.92	80.88	-40.9	-44.0	14.1	1.50e-06	0	57	0	697303040	53	5106
2026-01-03 23:47:52.10	168.49	80.44	-40.6	-43.4	14.7	0.00e+00	0	57	0	699400192	53	4789
2026-01-03 23:47:53.11	169.91	79.99	-41.1	-44.3	13.8	1.50e-06	0	57	0	701497344	53	5296
2026-01-03 23:47:54.13	171.22	79.53	-41.2	-44.4	13.7	6.10e-06	0	57	0	703594496	53	5397
2026-01-03 23:47:55.14	172.40	79.07	-41.6	-45.2	13.0	2.36e-05	0	57	0	705691648	53	5869
2026-01-03 23:47:56.15	173.49	78.61	-42.8	-47.6	10.5	1.45e-03	0	57	0	706740224	56	6566
2026-01-03 23:47:57.16	174.50	78.14	-41.6	-45.2	12.7	2.72e-04	0	57	0	708837376	55	5252
2026-01-03 23:47:58.17	175.42	77.68	-40.7	-43.6	14.5	3.00e-06	0	57	0	710934528	53	4888
2026-01-03 23:47:59.18	176.28	77.21	-41.3	-44.7	13.5	7.00e-07	0	57	0	713031680	53	5564
2026-01-03 23:48:00.19	177.07	76.74	-41.1	-44.2	13.8	1.22e-05	0	57	0	715128832	53	5244
2026-01-03 23:48:01.19	177.81	76.28	-40.5	-43.4	14.8	0.00e+00	0	57	0	716177408	52	5042
2026-01-03 23:48:02.20	178.49	75.81	-41.0	-44.1	14.4	0.00e+00	0	57	0	718274560	52	5490
2026-01-03 23:48:03.21	179.14	75.34	-40.6	-43.5	14.6	0.00e+00	0	57	0	720371712	53	4835
2026-01-03 23:48:04.22	179.74	74.87	-41.4	-44.7	13.4	5.30e-06	0	57	0	722468864	53	5558
2026-01-03 23:48:05.23	180.31	74.40	-42.4	-46.7	11.3	2.10e-04	0	57	0	724566016	55	6273
2026-01-03 23:48:06.24	180.84	73.93	-41.9	-45.7	12.2	2.62e-03	0	57	0	725614592	55	5577
2026-01-03 23:48:07.25	181.34	73.46	-41.3	-44.6	13.6	1.06e-05	0	57	0	727711744	54	5170
2026-01-03 23:48:08.26	181.81	72.99	-42.9	-47.9	10.4	7.44e-04	0	57	0	729808896	56	6781
2026-01-03 23:48:09.27	182.26	72.53	-43.6	-49.9	8.2	3.43e-02	0	57	0	731906048	57	8032
2026-01-03 23:48:10.28	182.68	72.06	-42.7	-47.3	10.8	5.96e-03	0	57	0	734003200	57	5981
2026-01-03 23:48:11.29	183.08	71.60	-42.8	-47.4	10.8	3.39e-03	0	57	0	735051776	57	6047
2026-01-03 23:48:12.30	183.45	71.13	-43.1	-48.4	9.7	5.34e-03	0	57	0	737148928	57	6795
2026-01-03 23:48:13.31	183.81	70.67	-43.2	-48.8	9.3	2.20e-02	0	57	0	739246080	57	7071
2026-01-03 23:48:14.32	184.16	70.21	-43.3	-49.0	9.2	3.07e-02	0	57	0	741343232	57	7279
2026-01-03 23:48:15.33	184.48	69.75	-42.7	-47.3	10.7	1.35e-02	0	57	0	743440384	57	5992
2026-01-03 23:48:16.34	184.79	69.29	-40.8	-43.8	14.3	1.65e-04	0	57	0	744488960	53	4990
2026-01-03 23:48:17.35	185.09	68.84	-40.9	-44.0	14.2	7.00e-07	0	57	0	746586112	52	5420
2026-01-03 23:48:18.36	185.37	68.38	-41.5	-45.0	13.0	9.90e-06	0	57	0	748683264	53	5773
2026-01-03 23:48:19.37	185.64	67.93	-41.2	-44.5	13.7	1.67e-05	0	57	0	750780416	53	5404
2026-01-03 23:48:20.37	185.90	67.49	-41.1	-44.3	13.9	3.80e-06	0	57	0	752877568	53	5285
2026-01-03 23:48:21.38	186.14	67.04	-41.5	-45.0	13.0	7.60e-06	0	57	0	754974720	53	5783
2026-01-03 23:48:22.39	186.38	66.59	-41.1	-44.3	13.8	4.34e-05	0	57	0	756023296	54	5033
2026-01-03 23:48:23.40	186.61	66.15	-40.8	-43.8	14.2	0.00e+00	0	57	0	758120448	53	5030
2026-01-03 23:48:24.41	186.83	65.70	-41.0	-44.2	14.1	7.00e-07	0	57	0	760217600	53	5231
2026-01-03 23:48:25.42	187.04	65.26	-40.7	-43.7	14.5	6.80e-06	0	57	0	762314752	53	4929
2026-01-03 23:48:26.43	187.24	64.83	-39.8	-42.2	16.1	0.00e+00	0	57	0	764411904	51	4663
2026-01-03 23:48:27.44	187.44	64.39	-39.6	-41.9	16.4	0.00e+00	0	57	0	765460480	50	4774
2026-01-03 23:48:28.45	187.62	63.96	-40.7	-43.6	14.6	0.00e+00	0	57	0	767557632	52	5199
2026-01-03 23:48:29.46	187.81	63.53	-41.6	-45.3	13.0	8.30e-06	0	57	0	769654784	53	5945
2026-01-03 23:48:30.47	187.98	63.10	-40.8	-43.7	14.4	6.10e-06	0	57	0	771751936	53	4967
2026-01-03 23:48:31.48	188.15	62.67	-40.0	-42.5	15.6	0.00e+00	0	57	0	773849088	52	4556
2026-01-03 23:48:32.49	188.31	62.25	-39.6	-41.9	16.3	0.00e+00	0	57	0	774897664	51	4505
2026-01-03 23:48:33.50	188.47	61.83	-39.6	-41.8	16.5	0.00e+00	0	57	0	776994816	50	4724
2026-01-03 23:48:34.51	188.62	61.41	-40.4	-43.0	15.3	0.00e+00	0	57	0	779091968	51	5156
2026-01-03 23:48:35.52	188.77	60.99	-41.8	-45.5	12.7	7.00e-07	0	57	0	781189120	54	5770
2026-01-03 23:48:36.53	188.91	60.58	-42.7	-47.5	10.7	2.22e-03	0	57	0	783286272	55	6831
2026-01-03 23:48:37.54	189.05	60.17	-42.0	-45.9	12.3	1.02e-03	0	57	0	784334848	56	5373
2026-01-03 23:48:38.55	189.19	59.76	-40.7	-43.7	14.5	5.18e-05	0	57	0	786432000	53	4928
2026-01-03 23:48:39.56	189.32	59.35	-40.0	-42.5	15.5	0.00e+00	0	57	0	788529152	52	4574
2026-01-03 23:48:40.57	189.44	58.95	-40.8	-43.7	14.5	0.00e+00	0	57	0	790626304	52	5249
2026-01-03 23:48:41.58	189.56	58.54	-40.3	-42.9	15.3	7.00e-07	0	57	0	792723456	52	4787
2026-01-03 23:48:42.59	189.68	58.15	-39.5	-41.7	16.5	0.00e+00	0	57	0	793772032	50	4688
2026-01-03 23:48:43.60	189.80	57.75	-40.3	-43.0	15.3	0.00e+00	0	57	0	795869184	51	5103
2026-01-03 23:48:44.60	189.91	57.36	-40.8	-43.7	14.5	7.00e-07	0	57	0	797966336	52	5237
2026-01-03 23:48:45.61	190.02	56.97	-38.9	-40.9	17.3	0.00e+00	0	57	0	800063488	49	4515
2026-01-03 23:48:46.62	190.13	56.58	-37.9	-39.7	18.4	0.00e+00	0	57	0	802160640	47	4396
2026-01-03 23:48:47.63	190.23	56.19	-39.0	-41.0	17.3	0.00e+00	0	57	0	803209216	48	4821
2026-01-03 23:48:48.64	190.33	55.81	-40.3	-42.9	15.4	0.00e+00	0	57	0	805306368	51	5047
2026-01-03 23:48:49.65	190.43	55.43	-39.7	-42.0	16.1	0.00e+00	0	57	0	807403520	51	4591
2026-01-03 23:48:50.66	190.52	55.05	-39.2	-41.3	17.0	0.00e+00	0	57	0	809500672	50	4445
2026-01-03 23:48:51.67	190.62	54.68	-40.0	-42.4	15.8	0.00e+00	0	57	0	811597824	50	5089
2026-01-03 23:48:52.68	190.71	54.30	-41.1	-44.3	13.9	3.00e-06	0	57	0	812646400	52	5594
2026-01-03 23:48:53.69	190.80	53.93	-41.7	-45.4	12.7	3.96e-05	0	57	0	814743552	53	6009
2026-01-03 23:48:54.70	190.88	53.57	-40.8	-43.7	14.3	2.05e-05	0	57	0	816840704	53	4970
2026-01-03 23:48:55.71	190.97	53.20	-39.8	-42.2	16.0	0.00e+00	0	57	0	818937856	51	4666
2026-01-03 23:48:56.72	191.05	52.84	-40.2	-42.7	15.5	0.00e+00	0	57	0	821035008	51	4936
2026-01-03 23:48:57.73	191.13	52.48	-41.0	-44.0	14.2	0.00e+00	0	57	0	823132160	52	5440
2026-01-03 23:48:58.74	191.21	52.12	-41.6	-45.1	13.1	1.52e-05	0	57	0	824180736	53	5839
2026-01-03 23:48:59.75	191.29	51.77	-42.1	-46.1	12.0	3.04e-04	0	57	0	826277888	54	6187
2026-01-03 23:49:00.76	191.36	51.41	-42.1	-46.3	11.8	6.67e-04	0	57	0	828375040	55	5950
2026-01-03 23:49:01.77	191.44	51.06	-42.0	-45.9	12.2	4.32e-04	0	57	0	830472192	55	5678
2026-01-03 23:49:02.77	191.51	50.72	-41.4	-44.8	13.3	4.57e-05	0	57	0	832569344	54	5301
2026-01-03 23:49:03.78	191.58	50.38	-40.4	-43.2	14.9	1.50e-06	0	57	0	833617920	52	4929
2026-01-03 23:49:04.79	191.65	50.03	-39.9	-42.3	15.9	0.00e+00	0	57	0	835715072	51	4710
2026-01-03 23:49:05.80	191.71	49.69	-40.0	-42.4	15.7	0.00e+00	0	57	0	837812224	51	4788
2026-01-03 23:49:06.81	191.78	49.36	-40.4	-43.0	15.2	0.00e+00	0	57	0	839909376	51	5146
2026-01-03 23:49:07.82	191.84	49.02	-41.7	-45.4	12.6	5.30e-06	0	57	0	842006528	53	6032
2026-01-03 23:49:08.83	191.91	48.69	-43.4	-49.4	8.7	1.12e-02	0	57	0	843055104	57	7624
2026-01-03 23:49:09.84	191.97	48.36	-43.7	-50.5	7.3	1.15e-01	0	57	0	845152256	58	8112
2026-01-03 23:49:10.85	192.03	48.03	-42.4	-46.7	11.3	2.81e-02	0	57	0	847249408	56	5905
2026-01-03 23:49:11.86	192.09	47.71	-40.9	-43.9	14.2	2.20e-06	0	57	0	849346560	53	5046
2026-01-03 23:49:12.86	192.15	47.39	-40.0	-42.5	15.7	0.00e+00	0	57	0	851443712	51	4830
2026-01-03 23:49:13.87	192.20	47.07	-39.4	-41.6	16.6	0.00e+00	0	57	0	852492288	50	4631
2026-01-03 23:49:14.88	192.26	46.75	-39.5	-41.7	16.5	0.00e+00	0	57	0	854589440	50	4675
2026-01-03 23:49:15.89	192.32	46.43	-40.4	-43.0	15.2	0.00e+00	0	57	0	856686592	51	5143
2026-01-03 23:49:16.90	192.37	46.12	-40.8	-43.7	14.4	7.00e-07	0	57	0	858783744	52	5273
2026-01-03 23:49:17.91	192.42	45.81	-41.3	-44.6	13.5	7.00e-07	0	58	0	860880896	53	5479
2026-01-03 23:49:18.92	192.48	45.50	-41.5	-45.1	12.9	3.35e-05	0	57	0	861929472	53	5804
2026-01-03 23:49:19.93	192.53	45.20	-41.3	-44.6	13.5	5.03e-05	0	57	0	864026624	54	5169
2026-01-03 23:49:20.94	192.58	44.89	-41.0	-44.2	13.9	5.30e-06	0	57	0	866123776	54	4937
2026-01-03 23:49:21.95	192.63	44.59	-40.5	-43.4	14.7	7.00e-07	0	57	0	868220928	53	4773
2026-01-03 23:49:22.96	192.68	44.29	-39.5	-41.7	16.4	0.00e+00	0	57	0	870318080	51	4415
2026-01-03 23:49:23.97	192.72	44.00	-37.9	-39.6	18.3	0.00e+00	0	57	0	871366656	47	4374
2026-01-03 23:49:24.98	192.77	43.70	-37.5	-39.1	18.8	0.00e+00	0	57	0	873463808	46	4367
2026-01-03 23:49:25.99	192.82	43.41	-37.5	-39.2	18.8	0.00e+00	0	57	0	875560960	46	4397
2026-01-03 23:49:27.00	192.86	43.12	-38.4	-40.2	17.7	0.00e+00	0	57	0	877658112	47	4704
2026-01-03 23:49:28.01	192.91	42.83	-39.1	-41.2	16.9	0.00e+00	0	57	0	879755264	48	4971
2026-01-03 23:49:29.02	192.95	42.54	-40.2	-42.8	15.4	0.00e+00	0	57	0	880803840	50	5308
2026-01-03 23:49:30.03	192.99	42.26	-41.3	-44.7	13.4	2.20e-06	0	57	0	882900992	53	5559
2026-01-03 23:49:31.03	193.04	41.98	-41.7	-45.4	12.8	1.98e-05	0	57	0	884998144	53	5997
2026-01-03 23:49:32.04	193.08	41.70	-42.0	-46.0	12.1	3.65e-04	0	57	0	887095296	54	6130
2026-01-03 23:49:33.05	193.12	41.43	-41.1	-44.4	13.7	1.30e-04	0	57	0	889192448	54	5043
2026-01-03 23:49:34.06	193.16	41.15	-40.2	-42.7	15.3	7.60e-06	0	57	0	890241024	52	4699
2026-01-03 23:49:35.07	193.20	40.88	-39.3	-41.4	16.7	0.00e+00	0	57	0	892338176	50	4515
2026-01-03 23:49:36.08	193.24	40.61	-38.8	-40.7	17.4	0.00e+00	0	57	0	894435328	49	4441
2026-01-03 23:49:37.09	193.28	40.34	-38.5	-40.4	17.7	0.00e+00	0	57	0	896532480	48	4497
2026-01-03 23:49:38.10	193.32	40.07	-39.1	-41.1	17.0	0.00e+00	0	57	0	898629632	48	4924
2026-01-03 23:49:39.11	193.35	39.80	-40.2	-42.7	15.5	0.00e+00	0	57	0	900726784	51	4930
2026-01-03 23:49:40.13	193.39	39.54	-40.8	-43.7	14.3	0.00e+00	0	57	0	901775360	52	5259
2026-01-03 23:49:41.13	193.43	39.28	-41.8	-45.6	12.5	4.19e-05	0	57	0	903872512	54	5790
2026-01-03 23:49:42.14	193.46	39.02	-42.7	-47.5	10.6	4.96e-04	0	57	0	905969664	55	6859
2026-01-03 23:49:43.16	193.50	38.76	-43.5	-49.8	8.3	2.11e-02	0	57	0	908066816	57	7982
2026-01-03 23:49:44.17	193.53	38.50	-43.8	-50.8	7.3	1.11e-01	0	57	0	910163968	58	8415
2026-01-03 23:49:45.17	193.57	38.25	-44.2	-52.9	5.5	3.60e-01	0	57	0	911212544	58	10728
2026-01-03 23:49:46.18	193.60	38.00	-44.0	-52.4	5.5	3.48e-01	0	57	0	913309696	58	10083
2026-01-03 23:49:47.19	193.63	37.75	-43.7	-50.3	7.8	2.25e-01	0	57	0	915406848	58	7975
2026-01-03 23:49:48.20	193.67	37.50	-42.9	-47.7	10.5	1.83e-02	0	57	0	917504000	57	6209
2026-01-03 23:49:49.21	193.70	37.26	-41.6	-45.2	12.8	5.66e-04	0	57	0	919601152	55	5239
2026-01-03 23:49:50.22	193.73	37.01	-40.8	-43.7	14.3	8.30e-06	0	57	0	920649728	53	4976
2026-01-03 23:49:51.23	193.76	36.77	-40.3	-42.9	15.1	0.00e+00	0	57	0	922746880	52	4808
2026-01-03 23:49:52.24	193.80	36.53	-40.3	-43.0	15.1	0.00e+00	0	57	0	924844032	52	4827
2026-01-03 23:49:53.25	193.83	36.29	-40.0	-42.5	15.7	0.00e+00	0	57	0	926941184	51	4820
2026-01-03 23:49:54.26	193.86	36.05	-40.6	-43.4	14.7	0.00e+00	0	57	0	929038336	51	5357
2026-01-03 23:49:55.27	193.89	35.82	-41.5	-44.9	13.1	4.27e-05	0	57	0	930086912	53	5700
2026-01-03 23:49:56.27	193.92	35.59	-42.4	-46.7	11.3	2.47e-04	0	57	0	932184064	55	6225
2026-01-03 23:49:57.28	193.95	35.36	-43.2	-48.5	9.6	7.78e-03	0	57	0	934281216	56	7268
2026-01-03 23:49:58.29	193.97	35.13	-43.9	-51.0	7.1	4.86e-02	0	57	0	936378368	58	8640
2026-01-03 23:49:59.31	194.00	34.89	-44.1	-52.2	6.1	2.06e-01	0	57	0	938475520	58	9856
2026-01-03 23:50:00.31	194.03	34.67	-44.0	-51.9	5.9	3.56e-01	0	57	0	939524096	58	9566
2026-01-03 23:50:01.32	194.06	34.44	-44.2	-53.0	5.5	6.43e-01	0	57	0	941621248	59	10219
2026-01-03 23:50:02.33	194.09	34.22	-43.9	-51.2	6.8	5.10e-01	0	57	0	943718400	59	8335
2026-01-03 23:50:03.35	194.11	34.00	-43.9	-51.2	6.9	2.12e-01	0	57	0	945815552	59	8333
2026-01-03 23:50:04.35	194.14	33.78	-43.7	-50.3	7.5	1.10e-01	0	57	0	947912704	59	7536
2026-01-03 23:50:05.37	194.17	33.56	-43.2	-48.8	9.1	4.83e-02	0	57	0	948961280	58	6665
2026-01-03 23:50:06.38	194.19	33.34	-43.3	-49.2	8.8	3.16e-02	0	57	0	951058432	58	6981
2026-01-03 23:50:07.39	194.22	33.12	-43.3	-49.0	9.0	2.20e-02	0	57	0	953155584	58	6813
2026-01-03 23:50:08.40	194.25	32.91	-42.8	-47.5	10.6	5.06e-03	0	57	0	955252736	57	6102
2026-01-03 23:50:09.41	194.27	32.69	-42.5	-46.9	11.2	2.13e-03	0	58	0	957349888	56	6042
2026-01-03 23:50:10.42	194.30	32.48	-42.4	-46.7	11.4	1.02e-03	0	57	0	958398464	56	5915
2026-01-03 23:50:11.42	194.32	32.27	-42.0	-45.8	12.2	4.68e-04	0	58	0	960495616	56	5338
2026-01-03 23:50:12.43	194.35	32.07	-41.7	-45.3	12.6	1.71e-04	0	58	0	962592768	55	5334
2026-01-03 23:50:13.44	194.37	31.86	-41.5	-44.9	13.1	5.18e-05	0	57	0	964689920	55	5086
2026-01-03 23:50:14.45	194.39	31.65	-41.5	-44.9	13.1	1.98e-05	0	57	0	966787072	54	5365
2026-01-03 23:50:15.46	194.42	31.45	-41.3	-44.6	13.4	2.05e-05	0	57	0	968884224	54	5179
2026-01-03 23:50:16.47	194.44	31.25	-41.2	-44.3	13.6	1.75e-05	0	57	0	969932800	54	5040
2026-01-03 23:50:17.48	194.46	31.05	-41.1	-44.2	13.8	6.10e-06	0	57	0	972029952	54	4940
2026-01-03 23:50:18.49	194.49	30.84	-40.9	-44.0	14.1	1.50e-06	0	57	0	974127104	53	5123
2026-01-03 23:50:19.50	194.51	30.65	-40.6	-43.5	14.5	1.50e-06	0	57	0	976224256	53	4815
2026-01-03 23:50:20.51	194.53	30.45	-40.7	-43.6	14.4	1.50e-06	0	57	0	977272832	53	4893
2026-01-03 23:50:21.52	194.56	30.25	-41.1	-44.2	13.8	4.50e-06	0	57	0	979369984	53	5266
2026-01-03 23:50:22.53	194.58	30.06	-41.3	-44.7	13.3	4.50e-06	0	57	0	981467136	53	5575
2026-01-03 23:50:23.54	194.60	29.86	-41.5	-45.0	13.0	5.87e-05	0	57	0	983564288	53	5735
2026-01-03 23:50:24.54	194.62	29.67	-42.0	-46.1	11.9	1.94e-04	0	57	0	985661440	54	6143
2026-01-03 23:50:25.55	194.64	29.48	-42.3	-46.7	11.2	5.88e-04	0	57	0	986710016	55	6225
2026-01-03 23:50:26.56	194.66	29.29	-42.5	-47.2	10.7	1.78e-03	0	57	0	988807168	55	6612
2026-01-03 23:50:27.57	194.68	29.11	-42.8	-47.8	10.2	6.00e-03	0	58	0	990904320	56	6702
2026-01-03 23:50:28.58	194.71	28.92	-42.8	-47.8	10.2	4.58e-03	0	58	0	993001472	56	6666
2026-01-03 23:50:29.59	194.73	28.73	-42.4	-46.8	11.3	3.49e-03	0	57	0	995098624	56	5948
2026-01-03 23:50:30.60	194.75	28.55	-42.1	-46.2	11.9	7.35e-04	0	57	0	997195776	56	5542
2026-01-03 23:50:31.61	194.77	28.37	-41.5	-44.9	13.0	9.76e-05	0	57	0	998244352	54	5394
2026-01-03 23:50:32.62	194.79	28.18	-41.1	-44.3	13.6	1.90e-05	0	58	0	1000341504	54	5025
2026-01-03 23:50:33.63	194.81	28.00	-40.6	-43.5	14.4	1.50e-06	0	57	0	1002438656	53	4848
2026-01-03 23:50:34.64	194.83	27.82	-40.1	-42.7	15.3	0.00e+00	0	57	0	1004535808	52	4670
2026-01-03 23:50:35.65	194.85	27.64	-40.1	-42.6	15.4	0.00e+00	0	57	0	1006632960	52	4621
2026-01-03 23:50:36.66	194.86	27.47	-40.1	-42.6	15.5	0.00e+00	0	57	0	1007681536	51	4894
2026-01-03 23:50:37.67	194.88	27.29	-39.9	-42.4	15.7	0.00e+00	0	57	0	1009778688	51	4760
2026-01-03 23:50:38.68	194.90	27.11	-40.0	-42.4	15.7	0.00e+00	0	57	0	1011875840	51	4796
2026-01-03 23:50:39.68	194.92	26.94	-40.0	-42.5	15.6	0.00e+00	0	57	0	1013972992	51	4844
2026-01-03 23:50:40.69	194.94	26.77	-40.2	-42.7	15.4	0.00e+00	0	58	0	1016070144	51	4956
2026-01-03 23:50:41.70	194.96	26.60	-40.3	-42.9	15.2	0.00e+00	0	57	0	1017118720	51	5061
2026-01-03 23:50:42.72	194.98	26.42	-40.3	-42.9	15.2	0.00e+00	0	58	0	1019215872	51	5066
2026-01-03 23:50:43.73	194.99	26.26	-40.3	-43.0	15.0	0.00e+00	0	57	0	1021313024	51	5137
2026-01-03 23:50:44.74	195.01	26.09	-40.2	-42.9	15.2	7.00e-07	0	57	0	1023410176	51	5052
2026-01-03 23:50:45.75	195.03	25.92	-40.1	-42.6	15.4	0.00e+00	0	57	0	1025507328	51	4891
2026-01-03 23:50:46.76	195.05	25.75	-40.0	-42.5	15.6	0.00e+00	0	57	0	1026555904	51	4820
2026-01-03 23:50:47.77	195.06	25.59	-40.2	-42.8	15.3	0.00e+00	0	57	0	1028653056	51	4987
2026-01-03 23:50:48.78	195.08	25.42	-40.2	-42.7	15.3	0.00e+00	0	58	0	1030750208	51	4979
2026-01-03 23:50:49.79	195.10	25.26	-40.1	-42.6	15.5	0.00e+00	0	58	0	1032847360	51	4898
2026-01-03 23:50:50.79	195.12	25.10	-40.2	-42.8	15.2	0.00e+00	0	57	0	1034944512	51	5017
2026-01-03 23:50:51.80	195.13	24.94	-40.0	-42.6	15.5	0.00e+00	0	57	0	1035993088	51	4886
2026-01-03 23:50:52.81	195.15	24.78	-40.0	-42.5	15.4	0.00e+00	0	58	0	1038090240	51	4861
2026-01-03 23:50:53.82	195.17	24.62	-40.0	-42.6	15.5	0.00e+00	0	57	0	1040187392	51	4889
2026-01-03 23:50:54.83	195.18	24.46	-40.0	-42.5	15.5	0.00e+00	0	58	0	1042284544	51	4866
2026-01-03 23:50:55.84	195.20	24.30	-39.9	-42.4	15.6	0.00e+00	0	57	0	1044381696	51	4796
2026-01-03 23:50:56.85	195.22	24.14	-39.8	-42.3	15.7	0.00e+00	0	57	0	1045430272	51	4728
2026-01-03 23:50:57.86	195.23	23.99	-39.6	-41.9	16.1	0.00e+00	0	57	0	1047527424	51	4540
2026-01-03 23:50:58.87	195.25	23.83	-39.6	-41.8	16.1	0.00e+00	0	58	0	1049624576	50	4757
2026-01-03 23:50:59.88	195.26	23.68	-39.5	-41.7	16.3	0.00e+00	0	57	0	1051721728	50	4693
2026-01-03 23:51:00.89	195.28	23.53	-39.3	-41.5	16.5	0.00e+00	0	58	0	1053818880	50	4574
2026-01-03 23:51:01.90	195.29	23.37	-39.6	-41.9	16.1	0.00e+00	0	58	0	1054867456	50	4811
2026-01-03 23:51:02.91	195.31	23.22	-39.6	-41.9	16.1	0.00e+00	0	57	0	1056964608	50	4798
2026-01-03 23:51:03.92	195.33	23.07	-39.6	-41.9	16.1	0.00e+00	0	57	0	1059061760	50	4782
2026-01-03 23:51:04.93	195.34	22.92	-39.7	-42.1	15.9	0.00e+00	0	57	0	1061158912	50	4894
2026-01-03 23:51:05.94	195.36	22.77	-39.7	-42.0	15.9	0.00e+00	0	57	0	1063256064	50	4853
2026-01-03 23:51:06.95	195.37	22.63	-39.5	-41.8	16.2	0.00e+00	0	57	0	1065353216	50	4726
2026-01-03 23:51:07.96	195.39	22.48	-39.4	-41.6	16.4	0.00e+00	0	58	0	1066401792	50	4627
2026-01-03 23:51:08.97	195.40	22.33	-39.2	-41.4	16.6	0.00e+00	0	58	0	1068498944	50	4500
2026-01-03 23:51:09.98	195.41	22.19	-39.1	-41.2	16.9	0.00e+00	0	57	0	1070596096	50	4413
2026-01-03 23:51:10.99	195.43	22.04	-38.9	-41.0	17.0	0.00e+00	0	57	0	1072693248	49	4575
2026-01-03 23:51:12.00	195.44	21.90	-38.7	-40.7	17.3	0.00e+00	0	58	0	1074790400	49	4414
2026-01-03 23:51:13.01	195.46	21.76	-38.8	-40.9	17.2	0.00e+00	0	58	0	1075838976	49	4499
2026-01-03 23:51:14.02	195.47	21.62	-38.7	-40.7	17.3	0.00e+00	0	58	0	1077936128	49	4406
2026-01-03 23:51:15.03	195.49	21.47	-38.5	-40.4	17.5	0.00e+00	0	58	0	1080033280	48	4516
2026-01-03 23:51:16.04	195.50	21.33	-38.7	-40.8	17.2	0.00e+00	0	57	0	1082130432	48	4706
2026-01-03 23:51:17.05	195.51	21.19	-38.7	-40.7	17.3	0.00e+00	0	57	0	1084227584	48	4701
2026-01-03 23:51:18.06	195.53	21.05	-39.0	-41.1	16.9	0.00e+00	0	57	0	1085276160	48	4899
2026-01-03 23:51:19.07	195.54	20.92	-39.3	-41.5	16.5	0.00e+00	0	57	0	1087373312	49	4849
2026-01-03 23:51:20.08	195.56	20.78	-39.4	-41.6	16.4	0.00e+00	0	58	0	1089470464	49	4919
2026-01-03 23:51:21.09	195.57	20.64	-39.5	-41.9	16.1	0.00e+00	0	58	0	1091567616	49	5068
2026-01-03 23:51:22.10	195.58	20.51	-39.7	-42.1	15.9	0.00e+00	0	57	0	1093664768	50	4899
2026-01-03 23:51:23.11	195.60	20.37	-39.8	-42.3	15.7	0.00e+00	0	57	0	1094713344	50	5020
2026-01-03 23:51:24.12	195.61	20.24	-40.0	-42.6	15.5	0.00e+00	0	58	0	1096810496	50	5175
2026-01-03 23:51:25.13	195.62	20.10	-40.2	-42.9	15.1	0.00e+00	0	58	0	1098907648	51	5066
2026-01-03 23:51:26.14	195.64	19.97	-40.2	-42.9	15.2	0.00e+00	0	58	0	1101004800	51	5091
2026-01-03 23:51:27.15	195.65	19.84	-40.2	-42.9	15.1	0.00e+00	0	58	0	1103101952	51	5067
2026-01-03 23:51:28.16	195.66	19.71	-40.3	-43.1	14.9	0.00e+00	0	57	0	1105199104	51	5172
2026-01-03 23:51:29.17	195.67	19.58	-40.2	-42.9	15.1	0.00e+00	0	57	0	1106247680	51	5079
2026-01-03 23:51:30.18	195.69	19.45	-40.4	-43.2	14.8	0.00e+00	0	57	0	1108344832	51	5239
2026-01-03 23:51:31.19	195.70	19.32	-40.6	-43.5	14.5	0.00e+00	0	57	0	1110441984	51	5437
2026-01-03 23:51:32.20	195.71	19.19	-40.5	-43.3	14.7	0.00e+00	0	57	0	1112539136	51	5297
2026-01-03 23:51:33.21	195.72	19.06	-40.5	-43.4	14.6	0.00e+00	0	57	0	1113587712	51	5374
2026-01-03 23:51:34.22	195.74	18.93	-40.4	-43.3	14.6	7.00e-07	0	57	0	1115684864	52	5015
2026-01-03 23:51:35.22	195.75	18.81	-40.4	-43.3	14.6	0.00e+00	0	57	0	1117782016	52	5021
2026-01-03 23:51:36.23	195.76	18.68	-40.5	-43.4	14.5	0.00e+00	0	57	0	1119879168	52	5094
2026-01-03 23:51:37.24	195.77	18.55	-40.5	-43.3	14.5	0.00e+00	0	57	0	1121976320	52	5038
2026-01-03 23:51:38.25	195.79	18.43	-40.5	-43.4	14.6	0.00e+00	0	57	0	1123024896	52	5096
2026-01-03 23:51:39.26	195.80	18.31	-40.6	-43.6	14.3	7.00e-07	0	58	0	1125122048	52	5168
2026-01-03 23:51:40.27	195.81	18.18	-40.5	-43.3	14.5	7.00e-07	0	57	0	1127219200	52	5036
2026-01-03 23:51:41.28	195.82	18.06	-40.5	-43.3	14.6	1.50e-06	0	57	0	1129316352	52	5039
2026-01-03 23:51:42.29	195.83	17.94	-40.4	-43.3	14.6	0.00e+00	0	57	0	1131413504	52	4999
2026-01-03 23:51:43.30	195.84	17.81	-40.4	-43.3	14.6	7.00e-07	0	57	0	1133510656	52	5013
2026-01-03 23:51:44.31	195.86	17.69	-40.6	-43.6	14.3	0.00e+00	0	57	0	1134559232	52	5195
2026-01-03 23:51:45.32	195.87	17.57	-40.4	-43.2	14.7	7.00e-07	0	58	0	1136656384	52	4968
2026-01-03 23:51:46.33	195.88	17.45	-40.4	-43.2	14.6	1.50e-06	0	57	0	1138753536	52	4983
2026-01-03 23:51:47.34	195.89	17.33	-40.6	-43.5	14.3	3.00e-06	0	58	0	1140850688	52	5145
2026-01-03 23:51:48.35	195.90	17.21	-40.4	-43.2	14.6	7.00e-07	0	57	0	1142947840	52	4980
2026-01-03 23:51:49.36	195.91	17.10	-40.3	-43.0	14.9	0.00e+00	0	57	0	1143996416	52	4845
2026-01-03 23:51:50.37	195.93	16.98	-40.2	-42.9	15.0	7.00e-07	0	57	0	1146093568	52	4763
2026-01-03 23:51:51.38	195.94	16.86	-40.0	-42.7	15.1	0.00e+00	0	57	0	1148190720	52	4659
2026-01-03 23:51:52.39	195.95	16.74	-40.2	-42.9	15.0	0.00e+00	0	57	0	1150287872	51	5053
2026-01-03 23:51:53.39	195.96	16.63	-40.2	-42.8	15.1	0.00e+00	0	57	0	1152385024	51	5032
2026-01-03 23:51:54.40	195.97	16.51	-40.1	-42.7	15.2	0.00e+00	0	57	0	1153433600	51	4928
2026-01-03 23:51:55.41	195.98	16.40	-40.2	-42.8	15.1	0.00e+00	0	57	0	1155530752	51	5024
2026-01-03 23:51:56.42	195.99	16.28	-40.2	-42.9	15.0	0.00e+00	0	57	0	1157627904	51	5083
2026-01-03 23:51:57.43	196.00	16.17	-40.4	-43.1	14.8	0.00e+00	0	58	0	1159725056	51	5197
2026-01-03 23:51:58.44	196.01	16.06	-40.4	-43.2	14.7	0.00e+00	0	57	0	1161822208	51	5225
2026-01-03 23:51:59.45	196.02	15.94	-40.4	-43.2	14.7	0.00e+00	0	57	0	1162870784	51	5275
2026-01-03 23:52:00.46	196.03	15.83	-40.6	-43.4	14.4	7.00e-07	0	57	0	1164967936	51	5392
2026-01-03 23:52:01.47	196.04	15.72	-40.6	-43.6	14.3	1.50e-06	0	57	0	1167065088	51	5490
2026-01-03 23:52:02.48	196.06	15.61	-40.6	-43.5	14.4	1.50e-06	0	58	0	1169162240	51	5437
