passes_logs/2026/01/03/R2.0S_Moscow/R2.0S_Moscow__20260103_105028_AQUA_rec.log

#Pass ID: 20260103_105028_AQUA
#Satellite: AQUA
#Configuration: AQUA
#almurnet v.1.7.20251203
#Start time: 2026-01-03 10:50:30

#Version: 2.2.20231116
#Station: R2.0S_Moscow
#Location: 37.707566 lon 55.798166 lat
#TLE: 1 27424U 02022A   25365.92641127  .00002078  00000+0  42628-3 0  9999
#TLE: 2 27424  98.4058 327.1196 0001962  94.7781 340.6230 14.61783896258835

#Time	Az	El	Level	Level2	SNR	BER	BlckErr	Temp	State	Recorded	gain1	gain2
2026-01-03 10:50:30.45	136.39	2.11	-18.9	-36.8	3.4	7.55e-01	0	47	0	0	4	37501
2026-01-03 10:50:31.47	136.35	2.17	-19.1	-41.8	3.1	7.57e-01	0	47	104	0	9	50033
2026-01-03 10:50:32.48	136.31	2.24	-15.4	-34.7	3.3	7.52e-01	0	47	104	0	1	35241
2026-01-03 10:50:33.49	136.27	2.30	-17.2	-37.6	3.7	7.59e-01	0	47	104	0	2	46402
2026-01-03 10:50:34.50	136.23	2.37	-10.5	-39.4	3.3	7.47e-01	0	47	104	0	5	47884
2026-01-03 10:50:35.51	136.18	2.44	-17.8	-37.6	3.4	7.58e-01	0	47	104	0	6	36903
2026-01-03 10:50:36.52	136.14	2.50	-15.9	-35.9	3.4	7.57e-01	0	48	104	0	4	33994
2026-01-03 10:50:37.54	136.10	2.57	-19.4	-40.2	3.4	7.42e-01	0	48	104	0	6	49380
2026-01-03 10:50:38.55	136.06	2.64	-15.7	-38.0	3.3	7.58e-01	0	48	104	0	4	43312
2026-01-03 10:50:39.56	136.01	2.70	-16.7	-37.9	3.7	7.67e-01	0	48	104	0	5	40117
2026-01-03 10:50:40.57	135.97	2.77	-21.6	-38.7	3.3	7.52e-01	0	48	104	0	6	41811
2026-01-03 10:50:41.58	135.93	2.84	-16.1	-40.4	3.4	7.64e-01	0	48	104	0	2	64148
2026-01-03 10:50:42.59	135.88	2.90	-20.1	-39.0	3.3	7.39e-01	0	48	104	0	5	45920
2026-01-03 10:50:43.60	135.84	2.97	-16.3	-36.3	3.1	7.42e-01	0	48	104	0	5	33641
2026-01-03 10:50:44.61	135.79	3.04	-16.3	-35.0	3.2	7.55e-01	0	48	104	0	3	32549
2026-01-03 10:50:45.62	135.75	3.11	-14.5	-33.9	3.9	7.36e-01	0	48	104	0	0	34082
2026-01-03 10:50:46.63	135.71	3.17	-16.3	-37.2	3.7	7.54e-01	0	48	104	0	5	36972
2026-01-03 10:50:47.64	135.66	3.24	-17.9	-40.5	3.3	7.44e-01	0	48	104	0	8	45564
2026-01-03 10:50:48.66	135.61	3.31	-14.0	-41.1	3.5	7.48e-01	0	49	104	0	6	55139
2026-01-03 10:50:49.67	135.57	3.38	-14.9	-37.4	3.8	7.50e-01	0	49	104	0	1	47679
2026-01-03 10:50:50.68	135.52	3.45	-16.7	-34.1	3.6	7.53e-01	0	49	104	0	4	27510
2026-01-03 10:50:51.69	135.48	3.51	-15.4	-34.3	3.4	7.44e-01	0	49	104	0	3	29897
2026-01-03 10:50:52.70	135.43	3.58	-12.1	-35.9	4.1	7.53e-01	0	49	104	0	3	35882
2026-01-03 10:50:53.71	135.38	3.65	-11.7	-37.2	3.6	7.54e-01	0	49	104	0	0	49742
2026-01-03 10:50:54.72	135.34	3.72	-18.8	-40.1	3.6	7.61e-01	0	49	104	0	2	61635
2026-01-03 10:50:55.73	135.29	3.79	-12.3	-33.2	3.8	7.51e-01	0	49	104	0	0	31246
2026-01-03 10:50:56.74	135.24	3.86	-13.2	-35.8	3.7	7.55e-01	0	49	104	0	0	42195
2026-01-03 10:50:57.76	135.20	3.93	-12.2	-36.6	3.6	7.55e-01	0	49	104	0	0	46307
2026-01-03 10:50:58.77	135.15	4.00	-14.1	-36.6	3.7	7.58e-01	0	49	104	0	0	46316
2026-01-03 10:50:59.78	135.10	4.07	-16.4	-39.6	3.7	7.74e-01	0	49	104	0	3	54690
2026-01-03 10:51:00.79	135.05	4.14	-13.2	-36.7	3.5	7.34e-01	0	49	104	0	1	44301
2026-01-03 10:51:01.80	135.00	4.21	-13.9	-33.9	3.8	7.54e-01	0	49	104	0	0	34071
2026-01-03 10:51:02.81	134.95	4.28	-14.4	-38.7	3.8	7.61e-01	0	49	104	0	0	59226
2026-01-03 10:51:03.82	134.91	4.35	-10.2	-37.7	3.6	7.50e-01	0	50	104	0	3	44121
2026-01-03 10:51:04.83	134.86	4.42	-17.1	-37.9	3.4	7.46e-01	0	50	104	0	8	33761
2026-01-03 10:51:05.84	134.81	4.49	-17.0	-37.2	3.4	7.57e-01	0	50	104	0	1	46524
2026-01-03 10:51:06.85	134.76	4.57	-19.3	-39.5	3.6	7.58e-01	0	50	104	0	5	48337
2026-01-03 10:51:07.87	134.71	4.64	-16.3	-35.2	3.9	7.51e-01	0	50	104	0	3	33180
2026-01-03 10:51:08.88	134.66	4.71	-14.9	-36.8	3.5	7.46e-01	0	50	104	0	1	44571
2026-01-03 10:51:09.89	134.60	4.78	-19.4	-39.6	3.3	7.47e-01	0	50	104	0	8	41046
2026-01-03 10:51:10.90	134.55	4.85	-18.0	-39.0	3.3	7.51e-01	0	50	104	0	6	42946
2026-01-03 10:51:11.91	134.50	4.93	-15.4	-39.3	3.3	7.49e-01	0	50	104	0	9	37674
2026-01-03 10:51:12.92	134.45	5.00	-16.5	-35.9	3.6	7.55e-01	0	50	104	0	4	33719
2026-01-03 10:51:13.93	134.40	5.07	-16.9	-37.2	3.5	7.49e-01	0	50	104	0	5	37342
2026-01-03 10:51:14.94	134.35	5.14	-19.0	-40.7	3.6	7.69e-01	0	50	104	0	4	59061
2026-01-03 10:51:15.95	134.29	5.22	-15.5	-39.0	3.3	7.51e-01	0	50	104	0	2	54486
2026-01-03 10:51:16.97	134.24	5.29	-17.7	-35.4	3.8	7.54e-01	0	50	104	0	4	32108
2026-01-03 10:51:17.97	134.19	5.36	-19.3	-41.7	3.4	7.44e-01	0	50	104	0	11	44182
2026-01-03 10:51:18.99	134.13	5.44	-17.7	-39.0	3.4	7.57e-01	0	50	104	0	4	48619
2026-01-03 10:51:20.00	134.08	5.51	-18.5	-38.0	3.7	7.38e-01	0	50	104	0	5	40774
2026-01-03 10:51:21.01	134.03	5.59	-15.5	-37.9	3.5	7.57e-01	0	50	104	0	0	53452
2026-01-03 10:51:22.02	133.97	5.66	-19.2	-41.6	3.4	7.47e-01	0	50	104	0	9	48973
2026-01-03 10:51:23.03	133.92	5.74	-10.6	-33.8	3.3	7.50e-01	0	50	104	0	2	29896
2026-01-03 10:51:24.04	133.86	5.81	-14.9	-35.2	3.8	7.44e-01	0	51	104	0	4	31446
2026-01-03 10:51:25.05	133.81	5.89	-17.2	-39.5	3.6	7.57e-01	0	51	104	0	8	40843
2026-01-03 10:51:26.06	133.75	5.96	-13.8	-36.7	3.6	7.52e-01	0	51	104	0	0	46733
2026-01-03 10:51:27.08	133.70	6.04	-17.9	-38.4	3.6	7.49e-01	0	51	104	0	2	50928
2026-01-03 10:51:28.08	133.64	6.11	-16.1	-39.0	3.6	7.54e-01	0	51	104	0	3	51508
2026-01-03 10:51:29.10	133.58	6.19	-19.4	-40.4	3.3	7.53e-01	0	51	104	0	10	40231
2026-01-03 10:51:30.11	133.53	6.26	-17.7	-42.1	3.4	7.49e-01	0	51	104	0	10	48892
2026-01-03 10:51:31.12	133.47	6.34	-18.5	-39.3	3.6	7.52e-01	0	51	104	0	7	42204
2026-01-03 10:51:32.13	133.41	6.42	-16.0	-34.9	3.7	7.46e-01	0	51	104	0	4	30335
2026-01-03 10:51:33.14	133.35	6.49	-21.1	-40.9	3.6	7.61e-01	0	51	104	0	9	45088
2026-01-03 10:51:34.15	133.29	6.57	-18.6	-39.5	3.2	7.54e-01	0	51	104	0	10	36460
2026-01-03 10:51:35.16	133.24	6.65	-17.2	-41.0	3.2	7.70e-01	0	51	104	0	9	45966
2026-01-03 10:51:36.17	133.18	6.73	-14.0	-32.4	4.0	7.52e-01	0	51	104	0	0	28640
2026-01-03 10:51:37.18	133.12	6.80	-13.1	-38.7	3.5	7.49e-01	0	51	104	0	7	39168
2026-01-03 10:51:38.19	133.06	6.88	-15.0	-38.2	4.1	7.56e-01	0	51	104	0	1	52522
2026-01-03 10:51:39.20	133.00	6.96	-9.6	-36.6	3.9	7.50e-01	0	51	104	0	0	46486
2026-01-03 10:51:40.21	132.94	7.04	-12.3	-38.8	3.5	7.49e-01	0	51	104	0	1	56456
2026-01-03 10:51:41.22	132.88	7.12	-12.0	-37.2	3.5	7.49e-01	0	51	104	0	0	49394
2026-01-03 10:51:42.24	132.81	7.20	-11.4	-38.8	3.8	7.50e-01	0	51	104	0	1	56467
2026-01-03 10:51:43.25	132.75	7.28	-19.6	-39.5	3.3	7.50e-01	0	51	104	0	7	43118
2026-01-03 10:51:44.26	132.69	7.35	-11.2	-37.8	3.2	7.53e-01	0	51	104	0	0	53187
2026-01-03 10:51:45.27	132.63	7.43	-17.4	-42.1	3.3	7.49e-01	0	51	104	0	10	48731
2026-01-03 10:51:46.28	132.56	7.51	-12.4	-39.3	3.7	7.48e-01	0	51	104	0	0	62806
2026-01-03 10:51:47.29	132.50	7.59	-19.2	-39.7	3.3	7.57e-01	0	52	104	0	9	39313
2026-01-03 10:51:48.30	132.44	7.67	-20.0	-42.2	3.4	7.50e-01	0	52	104	0	10	49802
2026-01-03 10:51:49.31	132.37	7.76	-11.8	-35.0	3.5	7.45e-01	0	52	104	0	2	34397
2026-01-03 10:51:50.32	132.31	7.84	-19.6	-40.4	3.2	7.49e-01	0	52	104	0	8	45403
2026-01-03 10:51:51.34	132.24	7.92	-11.0	-39.3	3.3	7.50e-01	0	52	104	0	0	62792
2026-01-03 10:51:52.35	132.18	8.00	-17.2	-41.4	3.6	7.43e-01	0	52	104	0	6	56895
2026-01-03 10:51:53.36	132.11	8.08	-18.8	-41.7	3.3	7.48e-01	0	52	104	0	7	55359
2026-01-03 10:51:54.36	132.05	8.16	-20.3	-39.0	3.7	7.54e-01	0	52	104	0	9	36339
2026-01-03 10:51:55.38	131.98	8.25	-20.0	-42.8	3.3	7.58e-01	0	52	104	0	7	63203
2026-01-03 10:51:56.39	131.91	8.33	-14.4	-39.7	3.6	7.48e-01	0	52	104	0	7	44195
2026-01-03 10:51:57.40	131.85	8.41	-17.7	-37.0	3.6	7.51e-01	0	52	104	0	8	30648
2026-01-03 10:51:58.41	131.78	8.49	-13.5	-39.6	3.8	7.65e-01	0	52	104	0	0	65510
2026-01-03 10:51:59.42	131.71	8.58	-18.2	-39.8	3.4	7.48e-01	0	52	104	0	9	39612
2026-01-03 10:52:00.43	131.64	8.66	-19.9	-39.8	3.2	7.51e-01	0	52	104	0	9	39875
2026-01-03 10:52:01.44	131.57	8.74	-20.0	-40.6	3.8	7.48e-01	0	52	104	0	4	58532
2026-01-03 10:52:02.45	131.50	8.83	-17.8	-37.7	3.2	7.36e-01	0	52	104	0	10	29571
2026-01-03 10:52:03.46	131.43	8.91	-19.7	-38.9	3.3	7.42e-01	0	52	104	0	9	35708
2026-01-03 10:52:04.47	131.36	9.00	-18.2	-36.1	3.4	7.48e-01	0	52	104	0	6	31053
2026-01-03 10:52:05.48	131.29	9.08	-18.1	-42.0	3.2	7.57e-01	0	52	104	0	12	43115
2026-01-03 10:52:06.49	131.22	9.17	-13.0	-36.6	3.3	7.38e-01	0	52	104	0	0	46454
2026-01-03 10:52:07.50	131.15	9.25	-17.3	-38.5	3.2	7.54e-01	0	52	104	0	5	43408
2026-01-03 10:52:08.51	131.08	9.34	-13.8	-37.1	3.4	7.72e-01	0	52	104	0	0	48981
2026-01-03 10:52:09.52	131.00	9.42	-18.0	-40.2	3.3	7.56e-01	0	52	104	0	10	39403
2026-01-03 10:52:10.53	130.93	9.51	-15.6	-34.1	3.5	7.29e-01	0	53	104	0	5	26024
2026-01-03 10:52:11.54	130.86	9.60	-17.7	-35.2	3.7	7.45e-01	0	52	104	0	7	26171
2026-01-03 10:52:12.55	130.78	9.68	-19.8	-41.6	3.1	7.50e-01	0	52	104	0	11	43626
2026-01-03 10:52:13.56	130.71	9.77	-12.5	-38.3	3.3	7.54e-01	0	53	104	0	1	53168
2026-01-03 10:52:14.57	130.63	9.86	-20.0	-40.8	3.3	7.43e-01	0	52	104	0	12	37501
2026-01-03 10:52:15.58	130.56	9.95	-19.1	-37.4	3.3	7.54e-01	0	53	104	0	7	33705
2026-01-03 10:52:16.59	130.48	10.03	-16.4	-39.4	3.3	7.52e-01	0	53	104	0	6	45451
2026-01-03 10:52:17.60	130.41	10.12	-17.9	-40.3	3.2	7.49e-01	0	53	104	0	8	44619
2026-01-03 10:52:18.61	130.33	10.21	-19.7	-41.2	3.2	7.49e-01	0	53	104	0	9	46689
2026-01-03 10:52:19.62	130.25	10.30	-17.9	-39.9	3.8	7.43e-01	0	53	104	0	8	42511
2026-01-03 10:52:20.63	130.17	10.39	-18.9	-41.1	3.6	7.53e-01	0	52	104	0	3	65492
2026-01-03 10:52:21.64	130.09	10.48	-18.1	-36.5	3.8	7.52e-01	0	53	104	0	2	40769
2026-01-03 10:52:22.65	130.01	10.57	-18.9	-39.1	3.2	7.51e-01	0	53	104	0	9	36687
2026-01-03 10:52:23.66	129.93	10.66	-19.7	-39.5	3.7	7.53e-01	0	53	104	0	9	38642
2026-01-03 10:52:24.67	129.85	10.75	-17.5	-37.1	3.9	7.60e-01	0	53	104	0	5	36653
2026-01-03 10:52:25.68	129.77	10.84	-20.3	-38.3	3.3	7.54e-01	0	53	104	0	7	37628
2026-01-03 10:52:26.69	129.69	10.93	-16.7	-36.7	4.1	7.38e-01	0	53	104	0	6	33109
2026-01-03 10:52:27.70	129.61	11.02	-17.4	-38.0	3.9	7.38e-01	0	53	104	0	9	32399
2026-01-03 10:52:28.71	129.53	11.12	-14.8	-39.3	3.8	7.58e-01	0	53	104	0	0	62805
2026-01-03 10:52:29.72	129.44	11.21	-15.4	-36.9	4.3	7.39e-01	0	53	104	0	7	32162
2026-01-03 10:52:30.73	129.36	11.30	-18.4	-40.0	4.3	7.42e-01	0	53	104	0	10	38274
2026-01-03 10:52:31.74	129.27	11.39	-18.5	-38.9	4.5	7.50e-01	0	53	104	0	8	38198
2026-01-03 10:52:32.75	129.19	11.49	-21.4	-39.8	4.6	7.31e-01	0	53	104	0	10	37648
2026-01-03 10:52:33.76	129.10	11.58	-20.7	-40.1	4.1	7.47e-01	0	53	104	0	8	43669
2026-01-03 10:52:34.77	129.02	11.67	-22.3	-44.6	4.5	7.25e-01	0	53	104	0	19	38717
2026-01-03 10:52:35.78	128.93	11.77	-18.7	-40.8	4.7	7.38e-01	0	53	104	0	15	31616
2026-01-03 10:52:36.79	128.84	11.86	-22.9	-43.0	4.6	7.45e-01	0	53	104	0	13	45947
2026-01-03 10:52:37.80	128.76	11.96	-19.7	-39.7	5.0	7.26e-01	0	53	104	0	17	24888
2026-01-03 10:52:38.81	128.67	12.05	-21.5	-42.1	5.0	7.22e-01	0	53	104	0	17	32845
2026-01-03 10:52:39.82	128.58	12.15	-19.1	-40.2	5.0	7.29e-01	0	53	104	0	13	33029
2026-01-03 10:52:40.83	128.49	12.25	-21.2	-40.4	5.2	7.30e-01	0	53	104	0	15	30332
2026-01-03 10:52:41.84	128.40	12.34	-20.1	-39.4	4.9	7.24e-01	0	53	104	0	14	28397
2026-01-03 10:52:42.85	128.30	12.44	-24.7	-42.5	5.2	7.37e-01	0	53	104	0	22	25710
2026-01-03 10:52:43.86	128.21	12.54	-21.4	-42.4	7.1	6.70e-01	11	53	0	0	18	31974
2026-01-03 10:52:44.87	128.12	12.63	-38.0	-58.6	4.4	7.45e-01	0	53	104	0	45	43442
2026-01-03 10:52:45.88	128.03	12.73	-25.4	-42.5	4.7	7.14e-01	0	53	104	0	29	17160
2026-01-03 10:52:46.89	127.93	12.83	-29.3	-43.2	8.3	6.35e-01	41	53	0	524288	29	18602
2026-01-03 10:52:47.90	127.84	12.93	-33.9	-44.4	10.9	6.45e-01	41	53	0	524288	37	13551
2026-01-03 10:52:48.91	127.74	13.03	-33.3	-44.0	11.7	6.22e-01	58	53	0	2621440	39	11445
2026-01-03 10:52:49.92	127.65	13.13	-35.2	-44.0	11.7	6.20e-01	48	54	104	3145728	42	9647
2026-01-03 10:52:50.93	127.55	13.23	-20.3	-39.1	5.9	7.01e-01	0	54	0	4194304	17	23157
2026-01-03 10:52:51.94	127.45	13.33	-20.1	-39.6	4.9	7.39e-01	0	54	104	4194304	17	24674
2026-01-03 10:52:52.95	127.35	13.43	-21.8	-40.6	7.1	6.46e-01	33	53	104	4194304	22	20628
2026-01-03 10:52:53.96	127.25	13.53	-33.6	-44.3	5.1	6.94e-01	0	54	104	4718592	43	9432
2026-01-03 10:52:54.97	127.16	13.63	-21.6	-41.8	4.6	7.20e-01	0	54	104	4718592	21	25209
2026-01-03 10:52:55.98	127.05	13.73	-39.9	-46.0	6.9	7.06e-01	7	54	104	4718592	48	8612
2026-01-03 10:52:56.99	126.95	13.83	-37.6	-45.0	14.1	6.12e-01	10	54	0	5242880	48	7708
2026-01-03 10:52:58.01	126.85	13.93	-40.7	-45.1	16.1	6.09e-01	2	54	0	7340032	50	6924
2026-01-03 10:52:59.02	126.75	14.04	-40.3	-44.9	14.2	6.15e-01	13	54	0	8912896	48	7612
2026-01-03 10:53:00.02	126.64	14.14	-37.2	-44.6	17.7	6.07e-01	1	54	0	10485760	51	6157
2026-01-03 10:53:01.04	126.54	14.24	-40.5	-44.2	17.4	6.06e-01	0	54	0	12582912	52	5533
2026-01-03 10:53:02.05	126.43	14.35	-40.4	-43.9	17.8	6.07e-01	0	54	0	14155776	51	5714
2026-01-03 10:53:03.06	126.33	14.45	-35.7	-43.8	15.7	6.08e-01	1	54	0	16252928	50	5950
2026-01-03 10:53:04.06	126.22	14.56	-40.4	-43.7	18.4	6.06e-01	0	54	0	18350080	51	5537
2026-01-03 10:53:05.08	126.11	14.66	-39.1	-43.3	15.2	6.08e-01	1	54	0	19922944	45	7514
2026-01-03 10:53:06.09	126.01	14.77	-39.8	-43.2	16.8	6.07e-01	0	54	0	22020096	47	6637
2026-01-03 10:53:07.10	125.90	14.87	-39.2	-43.5	17.1	6.07e-01	0	54	0	23592960	49	6068
2026-01-03 10:53:08.10	125.79	14.98	-40.3	-43.3	19.2	6.06e-01	0	54	0	25690112	51	5292
2026-01-03 10:53:09.11	125.68	15.08	-36.3	-42.6	16.7	6.07e-01	7	54	0	27787264	47	6152
2026-01-03 10:53:10.12	125.56	15.19	-40.4	-43.2	18.1	6.07e-01	0	54	0	29360128	51	5258
2026-01-03 10:53:11.13	125.45	15.30	-40.4	-43.1	19.3	6.08e-01	0	54	0	31457280	51	5196
2026-01-03 10:53:12.14	125.34	15.41	-40.3	-42.9	20.2	6.06e-01	0	54	0	33030144	51	5094
2026-01-03 10:53:13.15	125.22	15.52	-37.4	-42.3	17.6	6.05e-01	0	54	0	35127296	47	5935
2026-01-03 10:53:14.16	125.11	15.62	-39.9	-42.6	19.4	6.07e-01	0	54	0	37224448	50	5162
2026-01-03 10:53:15.17	124.99	15.73	-40.0	-42.5	20.7	6.08e-01	0	54	0	38797312	50	5158
2026-01-03 10:53:16.18	124.87	15.84	-40.0	-42.4	20.9	6.08e-01	0	54	0	40894464	50	5081
2026-01-03 10:53:17.19	124.76	15.95	-39.9	-42.4	20.6	6.05e-01	0	54	0	42991616	50	5061
2026-01-03 10:53:18.20	124.64	16.06	-39.8	-42.3	21.0	6.05e-01	0	54	0	44564480	50	5038
2026-01-03 10:53:19.21	124.52	16.18	-39.6	-42.1	20.8	6.07e-01	0	54	0	46661632	49	5178
2026-01-03 10:53:20.22	124.39	16.29	-39.4	-41.9	21.4	6.08e-01	0	54	0	48234496	49	5088
2026-01-03 10:53:21.23	124.27	16.40	-39.5	-41.8	21.5	6.03e-01	0	54	0	50331648	49	5038
2026-01-03 10:53:22.24	124.15	16.51	-39.5	-41.8	21.5	6.05e-01	0	54	0	52428800	49	5003
2026-01-03 10:53:23.25	124.03	16.62	-39.5	-41.8	18.8	6.08e-01	0	54	0	54001664	49	5031
2026-01-03 10:53:24.26	123.90	16.74	-39.6	-41.9	21.5	6.07e-01	0	54	0	56098816	49	5053
2026-01-03 10:53:25.27	123.77	16.85	-39.6	-41.9	21.5	6.08e-01	0	54	0	57671680	49	5047
2026-01-03 10:53:26.28	123.65	16.96	-39.6	-41.9	21.5	6.06e-01	0	54	0	59768832	49	5064
2026-01-03 10:53:27.29	123.52	17.08	-38.8	-41.9	20.0	6.05e-01	0	54	0	61865984	49	5047
2026-01-03 10:53:28.30	123.39	17.19	-39.5	-41.8	21.6	6.07e-01	0	54	0	63438848	49	5038
2026-01-03 10:53:29.31	123.26	17.31	-39.2	-41.5	21.2	6.07e-01	0	54	0	65536000	47	5435
2026-01-03 10:53:30.32	123.13	17.43	-39.6	-41.8	21.6	6.05e-01	0	54	0	67633152	49	5023
2026-01-03 10:53:31.33	123.00	17.54	-39.5	-41.8	21.3	6.08e-01	0	54	0	69206016	49	4995
2026-01-03 10:53:32.33	122.86	17.66	-39.5	-41.8	21.7	6.08e-01	0	54	0	71303168	49	4991
2026-01-03 10:53:33.34	122.73	17.77	-39.6	-41.8	21.7	6.08e-01	0	54	0	72876032	49	5016
2026-01-03 10:53:34.35	122.59	17.89	-39.5	-41.8	21.6	6.06e-01	0	54	0	74973184	49	4999
2026-01-03 10:53:35.36	122.46	18.01	-39.5	-41.8	21.3	6.06e-01	0	54	0	77070336	49	4998
2026-01-03 10:53:36.37	122.32	18.13	-39.5	-41.8	21.6	6.05e-01	0	54	0	78643200	49	5011
2026-01-03 10:53:37.38	122.18	18.25	-39.4	-41.8	21.7	6.06e-01	0	54	0	80740352	49	5001
2026-01-03 10:53:38.39	122.04	18.37	-36.6	-41.5	21.3	6.07e-01	0	55	0	82313216	47	5404
2026-01-03 10:53:39.40	121.90	18.49	-40.1	-42.2	21.6	6.06e-01	0	54	0	84410368	49	5270
2026-01-03 10:53:40.41	121.75	18.61	-39.5	-41.8	20.8	6.06e-01	0	54	0	86507520	49	5027
2026-01-03 10:53:41.42	121.61	18.73	-39.6	-41.8	21.7	6.07e-01	0	54	0	88080384	49	4999
2026-01-03 10:53:42.43	121.46	18.85	-39.5	-41.7	20.4	6.06e-01	0	54	0	90177536	49	4947
2026-01-03 10:53:43.44	121.32	18.97	-39.5	-41.7	21.8	6.07e-01	0	54	0	91750400	49	4955
2026-01-03 10:53:44.45	121.17	19.09	-39.5	-41.7	21.9	6.07e-01	0	54	0	93847552	49	4932
2026-01-03 10:53:45.46	121.02	19.22	-39.5	-41.7	21.9	6.05e-01	0	54	0	95944704	49	4942
2026-01-03 10:53:46.47	120.87	19.34	-39.5	-41.7	21.9	6.05e-01	0	54	0	97517568	49	4972
2026-01-03 10:53:47.48	120.72	19.46	-39.5	-41.7	21.8	6.06e-01	0	54	0	99614720	49	4968
2026-01-03 10:53:48.49	120.56	19.59	-39.6	-41.8	21.8	6.05e-01	0	55	0	101187584	49	4990
2026-01-03 10:53:49.50	120.41	19.71	-39.6	-41.8	21.7	6.07e-01	0	55	0	103284736	49	5040
2026-01-03 10:53:50.50	120.26	19.84	-39.7	-42.0	21.6	6.06e-01	0	54	0	105381888	50	4835
2026-01-03 10:53:51.51	120.10	19.96	-39.8	-42.1	21.5	6.07e-01	0	55	0	106954752	50	4908
2026-01-03 10:53:52.52	119.94	20.09	-39.9	-42.2	21.5	6.06e-01	0	55	0	109051904	50	4929
2026-01-03 10:53:53.53	119.78	20.22	-39.9	-42.1	21.5	6.05e-01	0	54	0	111149056	50	4925
2026-01-03 10:53:54.54	119.62	20.34	-39.8	-42.1	21.5	6.06e-01	0	54	0	112721920	50	4894
2026-01-03 10:53:55.55	119.46	20.47	-39.8	-42.1	21.5	6.07e-01	0	55	0	114819072	50	4889
2026-01-03 10:53:56.56	119.29	20.60	-39.8	-42.0	21.6	6.05e-01	0	55	0	116391936	50	4856
2026-01-03 10:53:57.57	119.13	20.73	-39.8	-42.0	21.6	6.06e-01	0	55	0	118489088	50	4855
2026-01-03 10:53:58.58	118.96	20.86	-39.8	-42.0	21.6	6.06e-01	0	55	0	120586240	50	4865
2026-01-03 10:53:59.59	118.79	20.98	-39.8	-42.0	21.2	6.05e-01	0	55	0	122159104	50	4856
2026-01-03 10:54:00.60	118.62	21.11	-39.8	-42.1	21.6	6.06e-01	0	55	0	124256256	50	4882
2026-01-03 10:54:01.61	118.45	21.25	-39.8	-42.0	21.6	6.08e-01	0	55	0	125829120	50	4861
2026-01-03 10:54:02.62	118.28	21.38	-39.8	-42.0	21.7	6.05e-01	0	55	0	127926272	50	4834
2026-01-03 10:54:03.63	118.10	21.51	-39.7	-41.9	21.6	6.05e-01	0	54	0	130023424	50	4802
2026-01-03 10:54:04.64	117.92	21.64	-39.7	-41.9	21.8	6.07e-01	0	55	0	131596288	50	4792
2026-01-03 10:54:05.65	117.75	21.77	-39.7	-41.9	21.8	6.08e-01	0	55	0	133693440	50	4781
2026-01-03 10:54:06.66	117.57	21.90	-39.7	-41.9	21.8	6.06e-01	0	55	0	135790592	50	4778
2026-01-03 10:54:07.67	117.39	22.04	-39.7	-41.9	21.8	6.07e-01	0	55	0	137363456	50	4785
2026-01-03 10:54:08.68	117.20	22.17	-39.7	-41.9	21.8	6.08e-01	0	55	0	139460608	50	4787
2026-01-03 10:54:09.69	117.02	22.31	-39.7	-41.9	21.8	6.07e-01	0	55	0	141033472	50	4778
2026-01-03 10:54:10.70	116.83	22.44	-39.7	-41.9	21.8	6.06e-01	0	55	0	143130624	50	4780
2026-01-03 10:54:11.71	116.64	22.57	-39.7	-42.0	21.7	6.06e-01	0	55	0	145227776	50	4815
2026-01-03 10:54:12.72	116.45	22.71	-39.8	-42.1	21.6	6.07e-01	0	55	0	146800640	50	4890
2026-01-03 10:54:13.73	116.26	22.85	-39.9	-42.2	21.6	6.07e-01	0	55	0	148897792	50	4941
2026-01-03 10:54:14.74	116.07	22.98	-40.0	-42.3	21.5	6.08e-01	0	55	0	150470656	50	4996
2026-01-03 10:54:15.75	115.87	23.12	-40.0	-42.3	21.4	6.07e-01	0	55	0	152567808	50	5013
2026-01-03 10:54:16.76	115.68	23.26	-40.0	-42.3	21.5	6.04e-01	0	55	0	154664960	50	5005
2026-01-03 10:54:17.77	115.48	23.39	-40.1	-42.3	21.4	6.08e-01	0	55	0	156237824	50	5038
2026-01-03 10:54:18.78	115.28	23.53	-40.0	-42.3	21.5	6.07e-01	0	55	0	158334976	50	4991
2026-01-03 10:54:19.79	115.08	23.67	-39.9	-42.1	21.6	6.05e-01	0	55	0	159907840	50	4923
2026-01-03 10:54:20.80	114.87	23.81	-39.9	-42.1	21.7	6.07e-01	0	55	0	162004992	50	4910
2026-01-03 10:54:21.81	114.66	23.95	-39.9	-42.1	21.7	6.08e-01	0	55	0	164102144	50	4898
2026-01-03 10:54:22.82	114.46	24.09	-39.8	-42.1	21.7	6.06e-01	0	55	0	165675008	50	4880
2026-01-03 10:54:23.83	114.25	24.23	-39.8	-42.0	21.7	6.07e-01	0	55	0	167772160	50	4866
2026-01-03 10:54:24.84	114.03	24.37	-39.7	-41.9	21.9	6.08e-01	0	55	0	169345024	50	4800
2026-01-03 10:54:25.85	113.82	24.51	-39.7	-41.9	21.9	6.06e-01	0	55	0	171442176	50	4792
2026-01-03 10:54:26.86	113.60	24.65	-39.7	-41.9	21.9	6.07e-01	0	55	0	173539328	50	4783
2026-01-03 10:54:27.86	113.39	24.79	-39.8	-42.0	21.8	6.06e-01	0	55	0	175112192	50	4840
2026-01-03 10:54:28.87	113.17	24.94	-39.8	-42.0	21.8	6.07e-01	0	55	0	177209344	50	4849
2026-01-03 10:54:29.88	112.95	25.08	-39.8	-42.1	21.7	6.07e-01	0	55	0	179306496	50	4879
2026-01-03 10:54:30.89	112.72	25.22	-39.8	-42.0	21.8	6.07e-01	0	55	0	180879360	50	4831
2026-01-03 10:54:31.90	112.49	25.36	-39.8	-42.0	21.8	6.06e-01	0	55	0	182976512	50	4832
2026-01-03 10:54:32.92	112.26	25.51	-39.8	-42.0	21.8	6.05e-01	0	55	0	184549376	50	4838
2026-01-03 10:54:33.92	112.03	25.65	-39.8	-42.0	21.8	6.08e-01	0	55	0	186646528	50	4859
2026-01-03 10:54:34.94	111.80	25.80	-39.8	-42.0	21.8	6.06e-01	0	55	0	188743680	50	4835
2026-01-03 10:54:35.95	111.56	25.94	-39.7	-41.9	21.9	6.04e-01	0	55	0	190316544	50	4796
2026-01-03 10:54:36.96	111.33	26.09	-39.7	-41.8	22.0	6.07e-01	0	55	0	192413696	50	4756
2026-01-03 10:54:37.97	111.08	26.23	-39.7	-41.8	22.0	6.08e-01	0	55	0	193986560	50	4739
2026-01-03 10:54:38.98	110.84	26.38	-39.6	-41.8	22.1	6.08e-01	0	55	0	196083712	50	4719
2026-01-03 10:54:39.99	110.60	26.53	-39.6	-41.7	22.1	6.08e-01	0	55	0	198180864	50	4688
2026-01-03 10:54:41.00	110.35	26.67	-39.6	-41.7	22.1	6.08e-01	0	55	0	199753728	50	4688
2026-01-03 10:54:42.01	110.10	26.82	-39.6	-41.8	22.1	6.07e-01	0	55	0	201850880	50	4720
2026-01-03 10:54:43.02	109.85	26.97	-39.6	-41.7	22.1	6.05e-01	0	55	0	203948032	50	4705
2026-01-03 10:54:44.03	109.60	27.11	-39.6	-41.7	22.1	6.05e-01	0	55	0	205520896	50	4700
2026-01-03 10:54:45.04	109.34	27.26	-39.6	-41.7	22.2	6.08e-01	0	55	0	207618048	50	4681
2026-01-03 10:54:46.05	109.08	27.41	-39.6	-41.7	22.2	6.07e-01	0	55	0	209190912	50	4657
2026-01-03 10:54:47.06	108.82	27.56	-39.4	-41.5	22.1	6.07e-01	0	55	0	211288064	50	4581
2026-01-03 10:54:48.06	108.56	27.70	-39.4	-41.5	22.4	6.07e-01	0	55	0	213385216	50	4560
2026-01-03 10:54:49.08	108.29	27.85	-39.4	-41.4	22.4	6.05e-01	0	55	0	214958080	50	4545
2026-01-03 10:54:50.08	108.02	28.00	-39.4	-41.4	22.4	6.06e-01	0	55	0	217055232	50	4527
2026-01-03 10:54:51.09	107.75	28.15	-39.3	-41.4	22.5	6.06e-01	0	55	0	218628096	50	4506
2026-01-03 10:54:52.10	107.47	28.30	-39.3	-41.3	22.5	6.05e-01	0	55	0	220725248	50	4487
2026-01-03 10:54:53.11	107.19	28.44	-39.3	-41.3	22.6	6.06e-01	0	55	0	222822400	50	4446
2026-01-03 10:54:54.12	106.91	28.59	-39.2	-41.2	22.6	6.06e-01	0	55	0	224395264	50	4431
2026-01-03 10:54:55.13	106.63	28.74	-39.2	-41.2	22.7	6.07e-01	0	55	0	226492416	50	4432
2026-01-03 10:54:56.14	106.35	28.89	-39.2	-41.2	22.6	6.06e-01	0	55	0	228065280	50	4429
2026-01-03 10:54:57.15	106.06	29.04	-39.3	-41.3	22.6	6.05e-01	0	55	0	230162432	50	4449
2026-01-03 10:54:58.16	105.77	29.19	-39.3	-41.3	22.5	6.07e-01	0	55	0	232259584	50	4493
2026-01-03 10:54:59.17	105.47	29.34	-39.3	-41.4	22.5	6.09e-01	0	55	0	233832448	50	4498
2026-01-03 10:55:00.18	105.18	29.49	-39.3	-41.3	22.6	6.08e-01	0	55	0	235929600	50	4459
2026-01-03 10:55:01.19	104.88	29.64	-39.1	-41.0	22.9	6.07e-01	0	55	0	237502464	50	4338
2026-01-03 10:55:02.20	104.57	29.79	-39.0	-41.0	22.9	6.05e-01	0	55	0	239599616	50	4310
2026-01-03 10:55:03.21	104.27	29.94	-39.1	-41.1	22.8	6.07e-01	0	55	0	241696768	50	4345
2026-01-03 10:55:04.22	103.96	30.09	-39.2	-41.1	22.8	6.06e-01	0	55	0	243269632	50	4389
2026-01-03 10:55:05.23	103.65	30.23	-39.2	-41.2	22.7	6.05e-01	0	55	0	245366784	50	4403
2026-01-03 10:55:06.24	103.33	30.38	-39.3	-41.3	22.6	6.05e-01	0	55	0	247463936	50	4473
2026-01-03 10:55:07.25	103.02	30.53	-39.3	-41.2	22.7	6.06e-01	0	55	0	249036800	50	4439
2026-01-03 10:55:08.26	102.70	30.68	-39.2	-41.1	22.7	6.06e-01	0	55	0	251133952	50	4390
2026-01-03 10:55:09.27	102.37	30.83	-39.2	-41.2	22.7	6.08e-01	0	55	0	252706816	50	4407
2026-01-03 10:55:10.29	102.04	30.98	-39.0	-41.0	22.9	6.07e-01	0	55	0	254803968	50	4310
2026-01-03 10:55:11.29	101.72	31.13	-39.0	-40.9	23.0	6.07e-01	0	55	0	256901120	50	4266
2026-01-03 10:55:12.31	101.38	31.27	-39.0	-40.9	23.0	6.06e-01	0	55	0	258473984	49	4532
2026-01-03 10:55:13.32	101.04	31.42	-39.1	-41.1	22.8	6.06e-01	0	55	0	260571136	49	4620
2026-01-03 10:55:14.33	100.71	31.57	-39.2	-41.2	22.7	6.07e-01	0	55	0	262144000	49	4697
2026-01-03 10:55:15.33	100.37	31.71	-39.2	-41.2	22.7	6.06e-01	0	55	0	264241152	49	4701
2026-01-03 10:55:16.34	100.02	31.86	-39.1	-41.1	22.8	6.06e-01	0	55	0	266338304	49	4621
2026-01-03 10:55:17.35	99.67	32.01	-39.1	-41.1	22.8	6.06e-01	0	55	0	267911168	49	4609
2026-01-03 10:55:18.37	99.32	32.15	-39.1	-41.1	22.8	6.05e-01	0	55	0	270008320	49	4611
2026-01-03 10:55:19.37	98.96	32.30	-39.2	-41.2	22.7	6.06e-01	0	55	0	272105472	49	4683
2026-01-03 10:55:20.38	98.61	32.44	-39.2	-41.2	22.7	6.08e-01	0	55	0	273678336	49	4667
2026-01-03 10:55:21.39	98.24	32.59	-39.0	-41.0	22.9	6.05e-01	0	55	0	275775488	49	4551
2026-01-03 10:55:22.41	97.88	32.73	-39.0	-41.0	23.0	6.05e-01	0	56	0	277348352	49	4548
2026-01-03 10:55:23.41	97.51	32.87	-39.3	-41.3	22.7	6.06e-01	0	55	0	279445504	49	4710
2026-01-03 10:55:24.42	97.14	33.02	-39.4	-41.4	22.5	6.05e-01	0	55	0	281542656	49	4800
2026-01-03 10:55:25.43	96.76	33.16	-39.5	-41.5	22.5	6.05e-01	0	55	0	283115520	49	4839
2026-01-03 10:55:26.44	96.38	33.30	-39.4	-41.4	22.5	6.07e-01	0	55	0	285212672	49	4803
2026-01-03 10:55:27.45	96.00	33.44	-39.2	-41.1	22.8	6.07e-01	0	55	0	286785536	49	4630
2026-01-03 10:55:28.46	95.62	33.58	-39.3	-41.3	22.7	6.07e-01	0	55	0	288882688	49	4723
2026-01-03 10:55:29.47	95.23	33.72	-39.5	-41.6	22.4	6.08e-01	0	55	0	290979840	49	4895
2026-01-03 10:55:30.48	94.84	33.86	-39.7	-41.8	22.2	6.06e-01	0	55	0	292552704	49	5026
2026-01-03 10:55:31.49	94.44	34.00	-39.8	-41.9	22.1	6.06e-01	0	55	0	294649856	50	4788
2026-01-03 10:55:32.50	94.04	34.13	-39.7	-41.8	22.1	6.08e-01	0	55	0	296222720	50	4758
2026-01-03 10:55:33.51	93.64	34.27	-39.6	-41.6	22.4	6.06e-01	0	55	0	298319872	50	4636
2026-01-03 10:55:34.52	93.23	34.40	-39.6	-41.6	22.3	6.05e-01	0	55	0	300417024	50	4633
2026-01-03 10:55:35.52	92.83	34.53	-39.7	-41.8	22.2	6.06e-01	0	55	0	301989888	50	4758
2026-01-03 10:55:36.53	92.41	34.67	-39.9	-42.0	21.9	6.06e-01	0	55	0	304087040	50	4862
2026-01-03 10:55:37.55	91.99	34.80	-39.9	-42.0	22.0	6.08e-01	0	56	0	305659904	50	4849
2026-01-03 10:55:38.56	91.57	34.93	-39.7	-41.9	22.2	6.06e-01	0	55	0	307757056	50	4760
2026-01-03 10:55:39.57	91.15	35.06	-39.8	-41.9	22.1	6.07e-01	0	56	0	309854208	50	4771
2026-01-03 10:55:40.57	90.73	35.19	-39.9	-42.1	22.0	6.06e-01	0	56	0	311427072	50	4883
2026-01-03 10:55:41.58	90.30	35.31	-40.0	-42.2	21.8	6.08e-01	0	55	0	313524224	50	4982
2026-01-03 10:55:42.60	89.86	35.44	-39.9	-42.1	22.0	6.04e-01	0	55	0	315621376	50	4878
2026-01-03 10:55:43.61	89.42	35.56	-40.0	-42.1	21.9	6.05e-01	0	55	0	317194240	50	4905
2026-01-03 10:55:44.62	88.98	35.69	-40.1	-42.3	21.7	6.05e-01	0	55	0	319291392	50	5027
2026-01-03 10:55:45.63	88.54	35.81	-40.1	-42.4	21.7	6.05e-01	0	56	0	320864256	50	5057
2026-01-03 10:55:46.64	88.09	35.93	-40.0	-42.2	21.9	6.05e-01	0	55	0	322961408	50	4930
2026-01-03 10:55:47.64	87.64	36.04	-39.9	-42.1	22.0	6.07e-01	0	55	0	325058560	50	4877
2026-01-03 10:55:48.65	87.19	36.16	-40.1	-42.4	21.7	6.06e-01	0	55	0	326631424	50	5050
2026-01-03 10:55:49.66	86.73	36.28	-40.1	-42.3	21.7	6.07e-01	0	55	0	328728576	50	5039
2026-01-03 10:55:50.67	86.27	36.39	-40.1	-42.3	21.8	6.06e-01	0	55	0	330301440	50	4999
2026-01-03 10:55:51.68	85.81	36.50	-40.2	-42.4	21.6	6.07e-01	0	56	0	332398592	50	5100
2026-01-03 10:55:52.69	85.34	36.61	-40.3	-42.5	21.5	6.06e-01	0	55	0	334495744	51	4861
2026-01-03 10:55:53.70	84.87	36.72	-40.2	-42.4	21.6	6.07e-01	0	56	0	336068608	51	4787
2026-01-03 10:55:54.71	84.40	36.83	-40.1	-42.3	21.8	6.06e-01	0	56	0	338165760	51	4721
2026-01-03 10:55:55.72	83.92	36.93	-40.4	-42.7	21.4	6.05e-01	0	56	0	340262912	51	4962
2026-01-03 10:55:56.73	83.44	37.04	-40.4	-42.7	21.3	6.08e-01	0	56	0	341835776	51	4938
2026-01-03 10:55:57.74	82.96	37.14	-40.1	-42.3	21.7	6.06e-01	0	56	0	343932928	51	4757
2026-01-03 10:55:58.75	82.47	37.24	-40.2	-42.4	21.7	6.07e-01	0	56	0	345505792	51	4798
2026-01-03 10:55:59.76	81.98	37.33	-40.4	-42.7	21.3	6.07e-01	0	55	0	347602944	51	4967
2026-01-03 10:56:00.77	81.49	37.43	-40.4	-42.7	21.4	6.08e-01	0	56	0	349700096	51	4942
2026-01-03 10:56:01.78	81.00	37.52	-40.2	-42.5	21.6	6.09e-01	0	56	0	351272960	51	4827
2026-01-03 10:56:02.79	80.50	37.61	-40.3	-42.5	21.6	6.05e-01	0	56	0	353370112	51	4838
2026-01-03 10:56:03.80	80.00	37.70	-40.4	-42.7	21.4	6.05e-01	0	55	0	354942976	51	4959
2026-01-03 10:56:04.81	79.50	37.79	-40.4	-42.8	21.4	6.08e-01	0	56	0	357040128	51	4987
2026-01-03 10:56:05.82	78.99	37.87	-40.4	-42.7	21.4	6.07e-01	0	55	0	359137280	51	4932
2026-01-03 10:56:06.83	78.48	37.95	-40.2	-42.4	21.7	6.06e-01	0	56	0	360710144	51	4778
2026-01-03 10:56:07.84	77.97	38.03	-40.4	-42.7	21.4	6.06e-01	0	56	0	362807296	51	4983
2026-01-03 10:56:08.85	77.46	38.11	-40.5	-42.9	21.3	6.07e-01	0	56	0	364380160	51	5043
2026-01-03 10:56:09.85	76.95	38.19	-40.4	-42.6	21.5	6.07e-01	0	56	0	366477312	51	4923
2026-01-03 10:56:10.86	76.43	38.26	-40.3	-42.6	21.6	6.07e-01	0	56	0	368574464	51	4877
2026-01-03 10:56:11.88	75.90	38.33	-40.4	-42.7	21.4	6.07e-01	0	56	0	370147328	51	4967
2026-01-03 10:56:12.89	75.38	38.40	-40.5	-42.8	21.3	6.06e-01	0	56	0	372244480	51	5006
2026-01-03 10:56:13.89	74.86	38.46	-40.4	-42.7	21.5	6.05e-01	0	56	0	373817344	51	4939
2026-01-03 10:56:14.90	74.33	38.52	-40.4	-42.7	21.5	6.06e-01	0	56	0	375914496	51	4959
2026-01-03 10:56:15.92	73.80	38.58	-40.3	-42.5	21.7	6.07e-01	0	55	0	378011648	51	4848
2026-01-03 10:56:16.93	73.27	38.64	-40.4	-42.7	21.4	6.04e-01	0	56	0	379584512	51	4952
2026-01-03 10:56:17.93	72.74	38.69	-40.4	-42.7	21.5	6.07e-01	0	56	0	381681664	51	4941
2026-01-03 10:56:18.94	72.21	38.75	-40.3	-42.5	21.6	6.05e-01	0	56	0	383778816	51	4866
2026-01-03 10:56:19.95	71.67	38.79	-40.4	-42.7	21.5	6.05e-01	0	56	0	385351680	51	4944
2026-01-03 10:56:20.96	71.13	38.84	-40.2	-42.5	21.7	6.07e-01	0	56	0	387448832	51	4818
2026-01-03 10:56:21.97	70.59	38.88	-40.4	-42.7	21.5	6.05e-01	0	56	0	389021696	51	4940
2026-01-03 10:56:22.98	70.05	38.93	-40.4	-42.7	21.4	6.08e-01	0	56	0	391118848	51	4981
2026-01-03 10:56:23.99	69.51	38.96	-40.3	-42.6	21.6	6.06e-01	0	56	0	393216000	51	4886
2026-01-03 10:56:25.00	68.97	39.00	-40.3	-42.5	21.7	6.06e-01	0	56	0	394788864	51	4831
2026-01-03 10:56:26.01	68.42	39.03	-40.6	-42.9	21.3	6.08e-01	0	56	0	396886016	51	5064
2026-01-03 10:56:27.02	67.88	39.06	-40.3	-42.5	21.7	6.06e-01	0	56	0	398458880	51	4851
2026-01-03 10:56:28.03	67.33	39.09	-40.5	-42.7	21.4	6.05e-01	0	56	0	400556032	51	4982
2026-01-03 10:56:29.04	66.78	39.11	-40.3	-42.5	21.7	6.06e-01	0	56	0	402653184	51	4859
2026-01-03 10:56:30.05	66.23	39.13	-40.4	-42.7	21.5	6.09e-01	0	56	0	404226048	51	4963
2026-01-03 10:56:31.06	65.69	39.15	-40.6	-42.9	21.3	6.06e-01	0	56	0	406323200	51	5097
2026-01-03 10:56:32.07	65.14	39.16	-40.2	-42.4	21.7	6.08e-01	0	56	0	408420352	51	4811
2026-01-03 10:56:33.08	64.59	39.18	-40.3	-42.5	21.7	6.06e-01	0	56	0	409993216	51	4863
2026-01-03 10:56:34.09	64.04	39.18	-40.4	-42.7	21.5	6.07e-01	0	56	0	412090368	51	4968
2026-01-03 10:56:35.10	63.49	39.19	-40.4	-42.7	21.5	6.04e-01	0	56	0	413663232	51	4946
2026-01-03 10:56:36.11	62.94	39.19	-40.2	-42.3	21.9	6.07e-01	0	56	0	415760384	51	4746
2026-01-03 10:56:37.12	62.38	39.19	-40.3	-42.6	21.7	6.06e-01	0	56	0	417857536	51	4874
2026-01-03 10:56:38.13	61.83	39.19	-40.4	-42.6	21.6	6.08e-01	0	56	0	419430400	51	4925
2026-01-03 10:56:39.14	61.28	39.18	-40.4	-42.7	21.5	6.07e-01	0	56	0	421527552	51	4939
2026-01-03 10:56:40.15	60.73	39.18	-40.4	-42.7	21.6	6.05e-01	0	56	0	423100416	51	4947
2026-01-03 10:56:41.16	60.18	39.16	-40.5	-42.7	21.5	6.08e-01	0	56	0	425197568	51	4980
2026-01-03 10:56:42.17	59.64	39.15	-40.7	-43.1	21.2	6.07e-01	0	56	0	427294720	51	5190
2026-01-03 10:56:43.18	59.09	39.13	-40.3	-42.6	21.6	6.09e-01	0	56	0	428867584	52	4628
2026-01-03 10:56:44.19	58.54	39.11	-40.3	-42.6	21.6	6.06e-01	0	56	0	430964736	52	4611
2026-01-03 10:56:45.20	57.99	39.09	-40.3	-42.5	21.7	6.08e-01	0	56	0	432537600	52	4571
2026-01-03 10:56:46.21	57.44	39.06	-40.4	-42.6	21.6	6.07e-01	0	56	0	434634752	52	4637
2026-01-03 10:56:47.22	56.90	39.03	-40.5	-42.8	21.4	6.05e-01	0	56	0	436731904	52	4728
2026-01-03 10:56:48.23	56.36	39.00	-40.5	-42.8	21.4	6.08e-01	0	56	0	438304768	52	4719
2026-01-03 10:56:49.23	55.82	38.97	-40.5	-42.8	21.4	6.04e-01	0	56	0	440401920	52	4734
2026-01-03 10:56:50.24	55.28	38.93	-40.8	-43.2	21.0	6.07e-01	0	56	0	441974784	52	4936
2026-01-03 10:56:51.25	54.74	38.89	-40.7	-43.0	21.1	6.07e-01	0	56	0	444071936	52	4870
2026-01-03 10:56:52.26	54.20	38.85	-40.4	-42.7	21.5	6.05e-01	0	56	0	446169088	52	4657
2026-01-03 10:56:53.27	53.66	38.80	-40.2	-42.4	21.8	6.07e-01	0	56	0	447741952	52	4516
2026-01-03 10:56:54.28	53.12	38.75	-40.2	-42.4	21.7	6.06e-01	0	56	0	449839104	52	4541
2026-01-03 10:56:55.29	52.59	38.70	-40.4	-42.6	21.6	6.07e-01	0	56	0	451936256	52	4646
2026-01-03 10:56:56.30	52.06	38.65	-40.3	-42.5	21.6	6.07e-01	0	56	0	453509120	52	4587
2026-01-03 10:56:57.31	51.53	38.59	-40.1	-42.3	21.9	6.05e-01	0	56	0	455606272	52	4463
2026-01-03 10:56:58.32	51.00	38.53	-40.2	-42.4	21.8	6.06e-01	0	56	0	457179136	52	4539
2026-01-03 10:56:59.33	50.47	38.47	-40.4	-42.7	21.5	6.05e-01	0	56	0	459276288	52	4695
2026-01-03 10:57:00.34	49.95	38.40	-40.6	-43.0	21.3	6.07e-01	0	56	0	461373440	52	4817
2026-01-03 10:57:01.35	49.42	38.34	-40.4	-42.7	21.4	6.07e-01	0	56	0	462946304	52	4697
2026-01-03 10:57:02.36	48.90	38.27	-40.5	-42.7	21.4	6.06e-01	0	56	0	465043456	52	4701
2026-01-03 10:57:03.37	48.39	38.19	-40.4	-42.7	21.5	6.05e-01	0	56	0	466616320	52	4674
2026-01-03 10:57:04.38	47.87	38.12	-40.5	-42.9	21.3	6.09e-01	0	56	0	468713472	52	4763
2026-01-03 10:57:05.39	47.36	38.04	-40.6	-42.9	21.2	6.06e-01	0	56	0	470810624	52	4811
2026-01-03 10:57:06.40	46.85	37.96	-40.4	-42.6	21.6	6.06e-01	0	56	0	472383488	52	4628
2026-01-03 10:57:07.41	46.34	37.88	-40.3	-42.5	21.6	6.06e-01	0	56	0	474480640	52	4598
2026-01-03 10:57:08.42	45.83	37.80	-40.5	-42.8	21.4	6.07e-01	0	56	0	476577792	52	4715
2026-01-03 10:57:09.43	45.33	37.71	-40.5	-42.8	21.4	6.06e-01	0	56	0	478150656	52	4727
2026-01-03 10:57:10.44	44.83	37.62	-40.4	-42.7	21.5	6.06e-01	0	56	0	480247808	52	4671
2026-01-03 10:57:11.45	44.34	37.53	-40.4	-42.8	21.4	6.04e-01	0	56	0	481820672	52	4707
2026-01-03 10:57:12.46	43.84	37.44	-40.6	-43.0	21.2	6.06e-01	0	56	0	483917824	52	4824
2026-01-03 10:57:13.47	43.35	37.35	-40.7	-43.1	21.1	6.05e-01	0	56	0	486014976	52	4908
2026-01-03 10:57:14.48	42.86	37.25	-40.5	-42.9	21.3	6.06e-01	0	56	0	487587840	52	4770
2026-01-03 10:57:15.49	42.38	37.15	-40.6	-43.0	21.2	6.05e-01	0	56	0	489684992	52	4844
2026-01-03 10:57:16.50	41.90	37.05	-40.8	-43.3	20.9	6.07e-01	0	56	0	491257856	52	4992
2026-01-03 10:57:17.51	41.42	36.95	-40.9	-52.7	3.8	7.42e-01	0	56	104	492830720	52	14758
2026-01-03 10:57:18.52	40.94	36.84	-40.8	-52.4	3.8	7.44e-01	0	56	104	492830720	52	14370
2026-01-03 10:57:19.53	40.47	36.74	-40.8	-52.6	3.8	7.43e-01	0	56	104	492830720	52	14565
2026-01-03 10:57:20.54	40.00	36.63	-40.8	-52.5	4.0	7.41e-01	0	56	104	492830720	52	14461
2026-01-03 10:57:21.55	39.53	36.52	-42.0	-54.1	3.8	7.43e-01	0	56	104	492830720	54	15575
2026-01-03 10:57:22.56	39.07	36.41	-41.1	-52.9	3.8	7.44e-01	0	56	104	492830720	53	14247
2026-01-03 10:57:23.57	38.61	36.29	-43.5	-56.4	3.8	7.43e-01	0	56	104	492830720	58	15983
2026-01-03 10:57:24.58	38.15	36.18	-40.8	-52.5	3.9	7.43e-01	0	56	104	492830720	53	13686
2026-01-03 10:57:25.59	37.70	36.06	-42.2	-54.4	3.9	7.41e-01	0	56	104	492830720	56	14337
2026-01-03 10:57:26.60	37.25	35.94	-40.7	-52.3	3.8	7.45e-01	0	56	104	492830720	53	13343
2026-01-03 10:57:27.60	36.81	35.83	-40.8	-52.6	3.8	7.44e-01	0	56	104	492830720	53	13770
2026-01-03 10:57:28.61	36.37	35.71	-41.1	-53.1	3.8	7.46e-01	0	56	104	492830720	53	14617
2026-01-03 10:57:29.62	35.93	35.58	-41.6	-53.6	3.9	7.42e-01	0	56	104	492830720	53	15435
2026-01-03 10:57:30.63	35.49	35.46	-41.4	-53.2	3.8	7.46e-01	0	56	104	492830720	53	14730
2026-01-03 10:57:31.64	35.06	35.34	-42.6	-54.8	3.9	7.44e-01	0	56	104	492830720	56	14975
2026-01-03 10:57:32.65	34.63	35.21	-41.7	-53.5	3.8	7.43e-01	0	56	104	492830720	53	15290
2026-01-03 10:57:33.66	34.20	35.08	-41.6	-53.6	3.9	7.44e-01	0	56	104	492830720	55	13789
2026-01-03 10:57:34.67	33.78	34.95	-40.7	-52.4	3.7	7.53e-01	0	56	104	492830720	53	13449
2026-01-03 10:57:35.68	33.36	34.82	-40.6	-52.1	4.3	7.28e-01	0	56	104	492830720	53	13007
2026-01-03 10:57:36.69	32.95	34.69	-41.3	-52.9	3.7	7.56e-01	0	56	104	492830720	53	14348
2026-01-03 10:57:37.70	32.54	34.56	-41.5	-53.4	4.2	7.28e-01	0	56	104	492830720	54	14220
2026-01-03 10:57:38.71	32.13	34.43	-42.4	-54.9	3.7	7.54e-01	0	56	104	492830720	55	16099
2026-01-03 10:57:39.72	31.72	34.29	-42.9	-55.2	4.2	7.35e-01	0	56	104	492830720	56	15717
2026-01-03 10:57:40.73	31.32	34.16	-42.8	-55.1	3.8	7.48e-01	0	56	104	492830720	55	16368
2026-01-03 10:57:41.74	30.92	34.02	-41.0	-52.8	3.8	7.43e-01	0	56	104	492830720	54	13371
2026-01-03 10:57:42.75	30.53	33.89	-40.4	-52.1	3.8	7.45e-01	0	56	104	492830720	52	13769
2026-01-03 10:57:43.76	30.14	33.75	-40.4	-52.0	3.8	7.42e-01	0	56	104	492830720	52	13672
2026-01-03 10:57:44.77	29.75	33.61	-43.6	-56.6	3.8	7.43e-01	0	56	104	492830720	57	17468
2026-01-03 10:57:45.78	29.36	33.47	-43.9	-57.5	3.8	7.44e-01	0	56	104	492830720	58	18204
2026-01-03 10:57:46.79	28.98	33.33	-43.6	-56.4	3.8	7.45e-01	0	56	104	492830720	57	17009
2026-01-03 10:57:47.80	28.60	33.19	-43.5	-56.5	3.8	7.42e-01	0	56	104	492830720	58	16231
2026-01-03 10:57:48.82	28.23	33.05	-41.6	-53.6	3.8	7.44e-01	0	56	104	492830720	53	15429
2026-01-03 10:57:49.83	27.86	32.91	-41.2	-53.2	3.8	7.41e-01	0	56	104	492830720	54	13985
2026-01-03 10:57:50.84	27.49	32.76	-40.4	-51.9	3.8	7.45e-01	0	56	104	492830720	52	13552
2026-01-03 10:57:51.84	27.13	32.62	-40.3	-51.8	3.8	7.48e-01	0	56	104	492830720	52	13353
2026-01-03 10:57:52.85	26.77	32.48	-40.8	-52.7	3.8	7.46e-01	0	56	104	492830720	52	14764
2026-01-03 10:57:53.86	26.41	32.33	-43.2	-56.1	3.8	7.47e-01	0	56	104	492830720	56	17407
2026-01-03 10:57:54.87	26.05	32.19	-44.5	-58.4	3.8	7.45e-01	0	56	104	492830720	59	19007
2026-01-03 10:57:55.88	25.70	32.04	-43.7	-56.9	3.8	7.43e-01	0	56	104	492830720	58	16928
2026-01-03 10:57:56.89	25.36	31.90	-41.8	-54.3	3.9	7.45e-01	0	56	104	492830720	54	15805
2026-01-03 10:57:57.90	25.01	31.75	-40.9	-52.7	3.8	7.46e-01	0	56	104	492830720	53	14028
2026-01-03 10:57:58.91	24.67	31.61	-40.3	-51.9	3.8	7.45e-01	0	56	104	492830720	52	13448
2026-01-03 10:57:59.92	24.33	31.46	-40.1	-51.6	3.8	7.44e-01	0	56	104	492830720	52	13035
2026-01-03 10:58:00.94	23.99	31.31	-40.3	-51.9	3.8	7.43e-01	0	56	104	492830720	51	14255
2026-01-03 10:58:01.95	23.66	31.17	-43.3	-56.2	3.8	7.40e-01	0	56	104	492830720	57	16616
2026-01-03 10:58:02.95	23.34	31.02	-44.7	-59.5	3.8	7.42e-01	0	56	104	492830720	60	20443
2026-01-03 10:58:03.97	23.01	30.87	-43.8	-57.4	3.8	7.42e-01	0	56	104	492830720	58	17944
2026-01-03 10:58:04.98	22.68	30.72	-42.5	-54.8	3.9	7.46e-01	0	56	104	492830720	55	15934
2026-01-03 10:58:05.99	22.36	30.57	-40.7	-52.2	3.8	7.46e-01	0	56	104	492830720	53	13150
2026-01-03 10:58:07.00	22.05	30.43	-40.1	-51.6	3.8	7.45e-01	0	56	104	492830720	51	13733
2026-01-03 10:58:08.00	21.74	30.28	-40.2	-51.9	3.8	7.46e-01	0	56	104	492830720	51	14296
2026-01-03 10:58:09.01	21.43	30.13	-40.3	-51.8	3.8	7.46e-01	0	56	104	492830720	51	14127
2026-01-03 10:58:10.02	21.12	29.98	-42.9	-55.7	3.8	7.47e-01	0	57	104	492830720	56	16527
2026-01-03 10:58:11.03	20.82	29.83	-43.7	-57.0	3.8	7.42e-01	0	56	104	492830720	57	18221
2026-01-03 10:58:12.04	20.51	29.69	-43.1	-55.8	3.8	7.45e-01	0	57	104	492830720	56	16805
2026-01-03 10:58:13.05	20.22	29.54	-44.8	-59.7	3.8	7.46e-01	0	56	104	492830720	60	20919
2026-01-03 10:58:14.06	19.92	29.39	-40.1	-51.7	3.8	7.43e-01	0	56	104	492830720	52	13122
2026-01-03 10:58:15.07	19.63	29.24	-40.1	-51.9	3.8	7.45e-01	0	56	104	492830720	52	13533
2026-01-03 10:58:16.08	19.34	29.09	-40.1	-51.7	3.8	7.43e-01	0	56	104	492830720	52	13158
2026-01-03 10:58:17.09	19.05	28.94	-42.4	-54.7	3.8	7.44e-01	0	56	104	492830720	55	15603
2026-01-03 10:58:18.10	18.76	28.80	-43.6	-56.8	3.8	7.42e-01	0	57	104	492830720	58	16705
2026-01-03 10:58:19.11	18.48	28.65	-42.8	-55.7	3.8	7.45e-01	0	56	104	492830720	56	16518
2026-01-03 10:58:20.11	18.21	28.50	-42.6	-55.5	3.8	7.42e-01	0	56	104	492830720	56	16178
2026-01-03 10:58:21.12	17.93	28.35	-44.6	-59.6	3.8	7.47e-01	0	56	104	492830720	60	20594
2026-01-03 10:58:22.13	17.66	28.20	-40.1	-51.5	3.8	7.44e-01	0	56	104	492830720	52	12854
2026-01-03 10:58:23.14	17.38	28.06	-40.2	-51.9	3.8	7.48e-01	0	56	104	492830720	52	13471
2026-01-03 10:58:24.15	17.12	27.91	-40.2	-52.2	3.8	7.44e-01	0	57	104	492830720	52	14021
2026-01-03 10:58:25.16	16.85	27.76	-42.2	-54.7	3.8	7.43e-01	0	56	104	492830720	55	15657
2026-01-03 10:58:26.17	16.59	27.61	-42.2	-54.5	3.9	7.43e-01	0	56	104	492830720	56	14384
2026-01-03 10:58:27.18	16.33	27.47	-44.6	-59.3	3.9	7.47e-01	0	57	104	492830720	60	19968
2026-01-03 10:58:28.19	16.07	27.32	-42.4	-55.4	3.9	7.44e-01	0	56	104	492830720	57	15090
2026-01-03 10:58:29.20	15.81	27.17	-42.9	-55.7	3.8	7.42e-01	0	57	104	492830720	56	16584
2026-01-03 10:58:30.21	15.56	27.03	-40.3	-51.8	3.8	7.45e-01	0	56	104	492830720	52	13353
2026-01-03 10:58:31.22	15.31	26.88	-40.3	-51.8	3.8	7.44e-01	0	57	104	492830720	52	13398
2026-01-03 10:58:32.23	15.06	26.73	-40.2	-52.0	3.8	7.45e-01	0	56	104	492830720	52	13597
2026-01-03 10:58:33.24	14.81	26.59	-40.5	-52.4	3.8	7.43e-01	0	56	104	492830720	52	14292
2026-01-03 10:58:34.25	14.57	26.44	-42.1	-54.3	3.8	7.44e-01	0	56	104	492830720	56	14140
2026-01-03 10:58:35.26	14.33	26.30	-42.7	-55.4	3.9	7.40e-01	0	56	104	492830720	57	15072
2026-01-03 10:58:36.27	14.09	26.15	-41.2	-53.1	3.8	7.43e-01	0	56	104	492830720	54	13771
2026-01-03 10:58:37.28	13.85	26.01	-44.3	-58.7	3.9	7.44e-01	0	57	104	492830720	60	18708
2026-01-03 10:58:38.29	13.62	25.87	-40.4	-52.1	3.8	7.43e-01	0	57	104	492830720	52	13844
2026-01-03 10:58:39.30	13.38	25.72	-40.3	-52.1	3.8	7.42e-01	0	57	104	492830720	52	13838
2026-01-03 10:58:40.31	13.15	25.58	-40.4	-52.1	3.8	7.45e-01	0	56	104	492830720	52	13764
2026-01-03 10:58:41.32	12.92	25.44	-42.4	-54.8	3.8	7.46e-01	0	56	104	492830720	55	15857
2026-01-03 10:58:42.33	12.70	25.29	-42.1	-54.5	3.8	7.47e-01	0	57	104	492830720	56	14455
2026-01-03 10:58:43.34	12.48	25.15	-42.4	-55.1	3.8	7.44e-01	0	57	104	492830720	56	15451
2026-01-03 10:58:44.36	12.25	25.01	-40.6	-52.7	3.9	7.42e-01	0	56	104	492830720	53	14037
2026-01-03 10:58:45.37	12.03	24.87	-44.1	-58.1	3.8	7.42e-01	0	56	104	492830720	59	18310
2026-01-03 10:58:46.38	11.81	24.72	-40.5	-52.2	3.8	7.43e-01	0	56	104	492830720	52	13928
2026-01-03 10:58:47.39	11.60	24.58	-40.5	-52.1	3.8	7.45e-01	0	57	104	492830720	52	13776
2026-01-03 10:58:48.39	11.39	24.44	-40.2	-51.7	3.8	7.46e-01	0	56	104	492830720	52	13219
2026-01-03 10:58:49.40	11.18	24.30	-42.1	-54.5	3.8	7.46e-01	0	56	104	492830720	54	16151
2026-01-03 10:58:50.42	10.97	24.16	-40.2	-51.8	3.8	7.45e-01	0	56	104	492830720	52	13387
2026-01-03 10:58:51.43	10.76	24.02	-43.5	-56.8	3.9	7.39e-01	0	56	104	492830720	59	15888
2026-01-03 10:58:52.44	10.55	23.89	-41.0	-52.9	3.8	7.43e-01	0	57	104	492830720	54	13553
2026-01-03 10:58:53.45	10.35	23.75	-42.3	-54.8	3.8	7.44e-01	0	57	104	492830720	56	15017
2026-01-03 10:58:54.46	10.15	23.61	-40.4	-52.2	3.8	7.45e-01	0	57	104	492830720	52	13978
2026-01-03 10:58:55.47	9.95	23.47	-40.5	-52.4	3.8	7.45e-01	0	56	104	492830720	52	14249
2026-01-03 10:58:56.48	9.75	23.33	-40.2	-52.0	3.8	7.43e-01	0	56	104	492830720	52	13577
2026-01-03 10:58:57.49	9.55	23.20	-40.4	-52.1	3.8	7.43e-01	0	57	104	492830720	52	13827
2026-01-03 10:58:58.50	9.36	23.06	-40.3	-51.9	3.8	7.49e-01	0	57	104	492830720	52	13515
2026-01-03 10:58:59.51	9.17	22.93	-43.6	-57.1	3.9	7.42e-01	0	57	104	492830720	59	16485
2026-01-03 10:59:00.52	8.98	22.79	-40.5	-52.2	3.8	7.42e-01	0	57	104	492830720	53	13257
2026-01-03 10:59:01.53	8.79	22.66	-41.6	-53.8	3.8	7.47e-01	0	57	104	492830720	55	14171
2026-01-03 10:59:02.54	8.60	22.52	-40.4	-52.0	3.8	7.46e-01	0	57	104	492830720	52	13587
2026-01-03 10:59:03.55	8.42	22.39	-40.3	-51.9	3.8	7.46e-01	0	56	104	492830720	52	13447
2026-01-03 10:59:04.56	8.23	22.25	-40.6	-52.3	3.8	7.44e-01	0	57	104	492830720	52	14094
2026-01-03 10:59:05.57	8.05	22.12	-40.7	-52.5	3.8	7.41e-01	0	57	104	492830720	52	14501
2026-01-03 10:59:06.58	7.87	21.99	-40.8	-52.8	3.8	7.44e-01	0	57	104	492830720	53	14124
2026-01-03 10:59:07.59	7.69	21.86	-41.3	-53.5	3.8	7.44e-01	0	57	104	492830720	54	14455
2026-01-03 10:59:08.60	7.51	21.72	-41.2	-53.1	3.8	7.47e-01	0	57	104	492830720	52	15498
2026-01-03 10:59:09.61	7.34	21.59	-41.6	-53.8	3.8	7.41e-01	0	56	104	492830720	55	14156
2026-01-03 10:59:10.62	7.16	21.46	-40.3	-51.9	3.8	7.41e-01	0	57	104	492830720	52	13451
2026-01-03 10:59:11.63	6.99	21.33	-40.1	-51.8	3.8	7.44e-01	0	57	104	492830720	52	13272
2026-01-03 10:59:12.64	6.82	21.20	-41.1	-53.1	3.8	7.44e-01	0	57	104	492830720	52	15443
2026-01-03 10:59:13.65	6.65	21.07	-42.2	-54.7	3.8	7.43e-01	0	57	104	492830720	55	15602
2026-01-03 10:59:14.66	6.48	20.94	-42.3	-55.0	3.8	7.46e-01	0	57	104	492830720	55	16157
2026-01-03 10:59:15.67	6.32	20.82	-43.3	-56.5	3.8	7.45e-01	0	56	104	492830720	58	16231
2026-01-03 10:59:16.68	6.15	20.69	-40.6	-52.3	3.8	7.42e-01	0	57	104	492830720	52	14091
2026-01-03 10:59:17.69	5.99	20.56	-41.1	-53.2	3.8	7.42e-01	0	57	104	492830720	54	13939
2026-01-03 10:59:18.70	5.83	20.43	-40.4	-52.2	3.8	7.43e-01	0	56	104	492830720	52	14021
2026-01-03 10:59:19.71	5.67	20.31	-40.3	-52.2	3.8	7.48e-01	0	57	104	492830720	52	13909
2026-01-03 10:59:20.72	5.51	20.18	-40.6	-52.5	3.8	7.46e-01	0	57	104	492830720	52	14491
2026-01-03 10:59:21.73	5.35	20.05	-41.2	-53.3	3.8	7.44e-01	0	57	104	492830720	52	15789
2026-01-03 10:59:22.74	5.19	19.93	-43.3	-56.9	3.8	7.46e-01	0	57	104	492830720	57	18041
2026-01-03 10:59:23.75	5.04	19.80	-43.4	-56.9	3.8	7.41e-01	0	57	104	492830720	58	16891
2026-01-03 10:59:24.76	4.88	19.68	-41.2	-53.3	3.8	7.46e-01	0	57	104	492830720	52	15829
2026-01-03 10:59:25.77	4.73	19.56	-40.8	-52.8	3.8	7.43e-01	0	57	104	492830720	53	14152
2026-01-03 10:59:26.78	4.58	19.43	-40.4	-52.3	3.8	7.44e-01	0	56	104	492830720	52	14119
2026-01-03 10:59:27.79	4.43	19.31	-40.4	-52.2	3.8	7.43e-01	0	57	104	492830720	52	13897
2026-01-03 10:59:28.80	4.28	19.19	-41.2	-53.5	3.8	7.44e-01	0	57	104	492830720	53	15395
2026-01-03 10:59:29.81	4.14	19.07	-42.0	-54.4	3.8	7.44e-01	0	57	104	492830720	54	16067
2026-01-03 10:59:30.82	3.99	18.95	-42.9	-56.2	3.8	7.49e-01	0	56	104	492830720	56	17536
2026-01-03 10:59:31.83	3.85	18.82	-41.3	-53.6	3.8	7.44e-01	0	57	104	492830720	53	15456
2026-01-03 10:59:32.84	3.70	18.70	-44.1	-58.5	3.8	7.44e-01	0	57	104	492830720	58	20359
2026-01-03 10:59:33.85	3.56	18.58	-40.7	-52.7	3.8	7.47e-01	0	57	104	492830720	53	13926
2026-01-03 10:59:34.86	3.42	18.46	-40.3	-52.1	3.8	7.47e-01	0	56	104	492830720	52	13873
2026-01-03 10:59:35.87	3.28	18.35	-40.3	-51.9	3.8	7.46e-01	0	57	104	492830720	52	13507
2026-01-03 10:59:36.88	3.14	18.23	-41.3	-53.4	3.8	7.42e-01	0	57	104	492830720	53	15209
2026-01-03 10:59:37.89	3.00	18.11	-41.7	-54.0	3.8	7.45e-01	0	57	104	492830720	53	16164
2026-01-03 10:59:38.90	2.87	17.99	-44.3	-59.4	3.8	7.47e-01	0	57	104	492830720	59	21292
2026-01-03 10:59:39.91	2.73	17.87	-42.9	-56.0	3.8	7.41e-01	0	57	104	492830720	56	17214
2026-01-03 10:59:40.92	2.60	17.76	-42.2	-54.9	3.8	7.45e-01	0	57	104	492830720	54	16950
2026-01-03 10:59:41.93	2.47	17.64	-40.4	-52.5	3.8	7.45e-01	0	57	104	492830720	52	14396
2026-01-03 10:59:42.94	2.33	17.53	-40.1	-52.0	3.8	7.39e-01	0	57	104	492830720	52	13621
2026-01-03 10:59:43.95	2.20	17.41	-40.1	-51.9	3.8	7.46e-01	0	57	104	492830720	52	13434
2026-01-03 10:59:44.96	2.07	17.29	-40.3	-52.1	3.8	7.45e-01	0	57	104	492830720	52	13735
2026-01-03 10:59:45.97	1.95	17.18	-41.6	-53.9	3.8	7.44e-01	0	57	104	492830720	53	16011
2026-01-03 10:59:46.98	1.82	17.07	-44.4	-60.4	3.8	7.45e-01	0	57	104	492830720	59	24054
2026-01-03 10:59:47.99	1.69	16.95	-42.7	-56.0	3.8	7.45e-01	0	57	104	492830720	56	17145
2026-01-03 10:59:49.00	1.57	16.84	-42.4	-55.3	3.8	7.47e-01	0	57	104	492830720	55	16823
2026-01-03 10:59:50.01	1.44	16.73	-40.4	-52.6	3.8	7.45e-01	0	57	104	492830720	52	14567
2026-01-03 10:59:51.02	1.32	16.61	-40.1	-52.3	3.8	7.45e-01	0	57	104	492830720	52	14096
2026-01-03 10:59:52.03	1.20	16.50	-40.0	-52.1	3.8	7.46e-01	0	57	104	492830720	52	13838
2026-01-03 10:59:53.04	1.08	16.39	-40.3	-52.4	3.8	7.44e-01	0	57	104	492830720	52	14353
2026-01-03 10:59:54.05	0.96	16.28	-42.6	-56.0	3.8	7.45e-01	0	57	104	492830720	55	18151
2026-01-03 10:59:55.06	0.84	16.17	-42.9	-57.5	3.8	7.47e-01	0	57	104	492830720	56	20374
2026-01-03 10:59:56.07	0.72	16.06	-41.5	-54.1	3.8	7.44e-01	0	57	104	492830720	53	16333
2026-01-03 10:59:57.08	0.60	15.95	-43.8	-60.6	3.8	7.49e-01	0	57	104	492830720	58	26014
2026-01-03 10:59:58.09	0.48	15.84	-39.9	-51.6	3.8	7.42e-01	0	57	104	492830720	51	13819
2026-01-03 10:59:59.10	0.37	15.73	-39.9	-51.7	3.8	7.45e-01	0	57	104	492830720	51	13888
2026-01-03 11:00:00.11	0.25	15.62	-39.8	-51.6	3.8	7.47e-01	0	57	104	492830720	51	13869
2026-01-03 11:00:01.12	0.14	15.52	-42.2	-55.6	3.8	7.45e-01	0	57	104	492830720	55	17426
2026-01-03 11:00:02.13	0.03	15.41	-42.2	-55.5	3.8	7.43e-01	0	57	104	492830720	55	17097
2026-01-03 11:00:03.14	359.92	15.30	-42.4	-56.7	3.8	7.44e-01	0	57	104	492830720	55	19776
2026-01-03 11:00:04.15	359.80	15.19	-40.7	-53.3	3.9	7.44e-01	0	57	104	492830720	53	14977
2026-01-03 11:00:05.16	359.69	15.09	-43.2	-59.4	3.9	7.47e-01	0	56	104	492830720	57	24036
2026-01-03 11:00:06.18	359.58	14.98	-40.1	-52.4	3.8	7.46e-01	0	56	104	492830720	52	14254
2026-01-03 11:00:07.19	359.48	14.88	-39.9	-52.1	3.8	7.46e-01	0	57	104	492830720	51	14689
2026-01-03 11:00:08.20	359.37	14.77	-39.9	-52.1	3.8	7.45e-01	0	57	104	492830720	51	14693
2026-01-03 11:00:09.21	359.26	14.67	-41.5	-55.3	3.8	7.44e-01	0	57	104	492830720	54	17886
2026-01-03 11:00:10.22	359.16	14.56	-40.5	-53.0	3.9	7.41e-01	0	57	104	492830720	53	14434
2026-01-03 11:00:11.23	359.05	14.46	-42.2	-59.2	3.8	7.41e-01	0	57	104	492830720	55	26189
2026-01-03 11:00:12.23	358.95	14.35	-41.2	-54.9	3.9	7.45e-01	0	57	104	492830720	54	17041
2026-01-03 11:00:13.24	358.84	14.25	-41.9	-55.4	3.8	7.44e-01	0	57	104	492830720	54	18050
2026-01-03 11:00:14.25	358.74	14.15	-39.6	-51.8	3.8	7.42e-01	0	57	104	492830720	51	14119
2026-01-03 11:00:15.26	358.64	14.05	-39.4	-51.6	3.8	7.41e-01	0	57	104	492830720	50	14567
2026-01-03 11:00:16.27	358.54	13.94	-39.3	-51.5	3.8	7.47e-01	0	57	104	492830720	50	14514
2026-01-03 11:00:17.28	358.44	13.84	-39.3	-52.0	3.8	7.41e-01	0	57	104	492830720	50	15247
2026-01-03 11:00:18.29	358.34	13.74	-40.4	-53.8	3.9	7.45e-01	0	57	104	492830720	53	15773
2026-01-03 11:00:19.30	358.24	13.64	-40.4	-54.4	3.9	7.45e-01	0	57	104	492830720	52	18033
2026-01-03 11:00:20.31	358.14	13.54	-39.6	-52.1	3.8	7.45e-01	0	57	104	492830720	51	14588
2026-01-03 11:00:21.32	358.04	13.44	-40.5	-56.3	3.9	7.40e-01	0	57	104	492830720	52	22452
2026-01-03 11:00:22.33	357.95	13.34	-39.4	-52.1	3.8	7.45e-01	0	57	104	492830720	50	15449
2026-01-03 11:00:23.34	357.85	13.24	-39.5	-52.3	3.8	7.48e-01	0	57	104	492830720	50	15838
2026-01-03 11:00:24.35	357.76	13.14	-39.4	-52.2	3.8	7.44e-01	0	57	104	492830720	50	15617
2026-01-03 11:00:25.36	357.66	13.04	-39.8	-52.7	3.8	7.45e-01	0	57	104	492830720	51	15604
2026-01-03 11:00:26.37	357.57	12.95	-40.0	-53.5	3.8	7.43e-01	0	57	104	492830720	52	16217
2026-01-03 11:00:27.38	357.47	12.85	-40.2	-55.5	3.9	7.41e-01	0	57	104	492830720	51	21727
2026-01-03 11:00:28.39	357.38	12.75	-39.8	-53.1	3.9	7.48e-01	0	57	104	492830720	51	16416
2026-01-03 11:00:29.40	357.29	12.65	-40.1	-56.3	3.9	7.41e-01	0	57	104	492830720	51	23757
2026-01-03 11:00:30.41	357.20	12.56	-38.9	-52.2	3.8	7.42e-01	0	57	104	492830720	49	16687
2026-01-03 11:00:31.42	357.11	12.46	-38.8	-52.3	3.8	7.43e-01	0	57	104	492830720	49	16787
2026-01-03 11:00:32.43	357.02	12.36	-39.0	-52.8	3.8	7.43e-01	0	56	104	492830720	49	17771
2026-01-03 11:00:33.44	356.93	12.27	-39.7	-54.0	3.8	7.42e-01	0	57	104	492830720	49	20391
2026-01-03 11:00:34.45	356.84	12.17	-40.0	-55.8	3.9	7.44e-01	0	57	104	492830720	52	21243
2026-01-03 11:00:35.46	356.75	12.08	-40.2	-57.1	3.8	7.43e-01	0	57	104	492830720	51	26065
2026-01-03 11:00:36.47	356.67	11.98	-40.3	-57.1	3.8	7.45e-01	0	57	104	492830720	52	24673
2026-01-03 11:00:37.48	356.58	11.89	-40.7	-58.9	3.8	7.43e-01	0	57	104	492830720	52	30055
2026-01-03 11:00:38.49	356.49	11.80	-40.4	-58.3	3.8	7.46e-01	0	57	104	492830720	52	28292
2026-01-03 11:00:39.50	356.41	11.70	-40.4	-58.8	3.8	7.44e-01	0	57	104	492830720	52	29943
2026-01-03 11:00:40.51	356.32	11.61	-40.5	-59.5	3.8	7.43e-01	0	57	104	492830720	52	32303
2026-01-03 11:00:41.52	356.24	11.52	-40.7	-60.0	3.8	7.47e-01	0	57	104	492830720	52	34111
2026-01-03 11:00:42.53	356.15	11.42	-40.7	-59.6	3.8	7.47e-01	0	57	104	492830720	52	32781
2026-01-03 11:00:43.54	356.07	11.33	-39.9	-59.7	3.8	7.45e-01	0	57	104	492830720	50	37110
2026-01-03 11:00:44.55	355.99	11.24	-40.7	-59.7	3.8	7.42e-01	0	57	104	492830720	51	35218
2026-01-03 11:00:45.55	355.91	11.15	-40.5	-59.7	3.8	7.42e-01	0	57	104	492830720	52	33026
2026-01-03 11:00:46.56	355.83	11.06	-40.6	-59.7	3.8	7.46e-01	0	57	104	492830720	52	32986
2026-01-03 11:00:47.57	355.75	10.97	-40.6	-59.9	3.8	7.45e-01	0	57	104	492830720	52	33989
2026-01-03 11:00:48.58	355.67	10.88	-40.2	-59.7	3.8	7.46e-01	0	57	104	492830720	52	33022
2026-01-03 11:00:49.59	355.59	10.79	-39.3	-59.7	3.8	7.47e-01	0	57	104	492830720	50	36988
2026-01-03 11:00:50.60	355.51	10.70	-39.4	-59.7	3.8	7.46e-01	0	57	104	492830720	50	37035
2026-01-03 11:00:51.61	355.43	10.61	-39.6	-59.7	3.8	7.46e-01	0	57	104	492830720	50	36969
2026-01-03 11:00:52.62	355.35	10.52	-39.8	-59.7	3.8	7.45e-01	0	57	104	492830720	50	37097
2026-01-03 11:00:53.63	355.27	10.43	-39.7	-59.7	3.8	7.43e-01	0	57	104	492830720	50	37052
2026-01-03 11:00:54.65	355.20	10.34	-40.7	-59.8	3.8	7.45e-01	0	57	104	492830720	51	35543
2026-01-03 11:00:55.66	355.12	10.25	-40.7	-59.7	3.8	7.45e-01	0	57	104	492830720	52	33218
2026-01-03 11:00:56.67	355.04	10.16	-40.5	-59.7	3.8	7.48e-01	0	57	104	492830720	52	33179
2026-01-03 11:00:57.68	354.97	10.07	-40.6	-59.7	3.8	7.43e-01	0	57	104	492830720	52	33144
2026-01-03 11:00:58.69	354.89	9.99	-40.6	-59.7	3.8	7.44e-01	0	57	104	492830720	52	33128
2026-01-03 11:00:59.70	354.82	9.90	-40.6	-59.7	3.8	7.49e-01	0	57	104	492830720	52	33268
2026-01-03 11:01:00.71	354.75	9.81	-40.4	-59.7	3.8	7.46e-01	0	57	104	492830720	52	33136
2026-01-03 11:01:01.72	354.67	9.72	-40.6	-59.7	3.8	7.40e-01	0	57	104	492830720	52	33300
2026-01-03 11:01:02.73	354.60	9.64	-40.4	-59.7	3.8	7.46e-01	0	57	104	492830720	52	33253
2026-01-03 11:01:03.74	354.53	9.55	-40.7	-59.8	3.8	7.46e-01	0	57	104	492830720	52	33509
2026-01-03 11:01:04.75	354.46	9.47	-40.6	-59.7	3.8	7.45e-01	0	57	104	492830720	52	33178
2026-01-03 11:01:05.76	354.38	9.38	-40.7	-59.8	3.8	7.46e-01	0	57	104	492830720	52	33598
2026-01-03 11:01:06.77	354.31	9.30	-40.6	-59.7	3.8	7.43e-01	0	57	104	492830720	52	33074
2026-01-03 11:01:07.78	354.24	9.21	-40.5	-59.7	3.8	7.48e-01	0	57	104	492830720	52	33254
2026-01-03 11:01:08.79	354.17	9.13	-40.6	-59.9	3.8	7.47e-01	0	57	104	492830720	52	33712
2026-01-03 11:01:09.80	354.10	9.04	-40.6	-59.8	3.8	7.43e-01	0	57	104	492830720	52	33404
2026-01-03 11:01:10.81	354.04	8.96	-40.7	-59.9	3.8	7.44e-01	0	57	104	492830720	52	33804
2026-01-03 11:01:11.82	353.97	8.87	-41.0	-60.0	3.8	7.43e-01	0	57	104	492830720	52	34116
2026-01-03 11:01:12.83	353.90	8.79	-40.6	-59.7	3.8	7.44e-01	0	57	104	492830720	52	33236
2026-01-03 11:01:13.84	353.83	8.71	-41.0	-60.0	3.8	7.44e-01	0	57	104	492830720	52	34180
2026-01-03 11:01:14.85	353.76	8.62	-40.6	-59.8	3.8	7.45e-01	0	57	104	492830720	52	33404
2026-01-03 11:01:15.86	353.70	8.54	-40.9	-60.0	3.8	7.47e-01	0	57	104	492830720	52	34109
2026-01-03 11:01:16.87	353.63	8.46	-40.9	-59.8	3.8	7.46e-01	0	57	104	492830720	52	33611
2026-01-03 11:01:17.88	353.56	8.38	-41.0	-60.0	3.8	7.45e-01	0	57	104	492830720	52	34419
2026-01-03 11:01:18.89	353.50	8.29	-40.9	-59.8	3.8	7.46e-01	0	57	104	492830720	52	33507
2026-01-03 11:01:19.90	353.43	8.21	-41.2	-60.1	3.8	7.45e-01	0	57	104	492830720	52	34825
2026-01-03 11:01:20.91	353.37	8.13	-40.8	-59.9	3.8	7.45e-01	0	57	104	492830720	53	31886
2026-01-03 11:01:21.92	353.31	8.05	-41.2	-60.2	3.8	7.46e-01	0	57	104	492830720	53	33097
2026-01-03 11:01:22.94	353.24	7.97	-40.7	-59.9	3.8	7.46e-01	0	57	104	492830720	53	31922
2026-01-03 11:01:23.95	353.18	7.89	-41.3	-60.2	3.8	7.44e-01	0	57	104	492830720	53	33220
2026-01-03 11:01:24.96	353.11	7.81	-42.5	-61.3	3.8	7.42e-01	0	57	104	492830720	55	33362
2026-01-03 11:01:25.97	353.05	7.73	-45.6	-64.5	3.8	7.47e-01	0	57	104	492830720	61	34261
2026-01-03 11:01:26.98	352.99	7.65	-45.9	-64.7	3.8	7.45e-01	0	57	104	492830720	62	33143
2026-01-03 11:01:27.99	352.93	7.57	-46.0	-64.8	3.8	7.45e-01	0	57	104	492830720	62	33650
2026-01-03 11:01:29.00	352.87	7.49	-46.1	-64.9	3.8	7.45e-01	0	57	104	492830720	62	33955
2026-01-03 11:01:30.01	352.81	7.41	-46.2	-65.0	3.8	7.44e-01	0	57	104	492830720	62	34107
2026-01-03 11:01:31.02	352.75	7.33	-46.1	-65.0	3.8	7.47e-01	0	57	104	492830720	62	34247
2026-01-03 11:01:32.03	352.68	7.25	-46.1	-65.0	3.8	7.47e-01	0	57	104	492830720	62	34403
2026-01-03 11:01:33.05	352.62	7.17	-46.1	-65.0	3.8	7.47e-01	0	57	104	492830720	62	34322
2026-01-03 11:01:34.06	352.56	7.09	-46.1	-65.0	3.8	7.46e-01	0	57	104	492830720	62	34156
2026-01-03 11:01:35.07	352.51	7.02	-46.1	-64.9	3.8	7.43e-01	0	57	104	492830720	62	34072
2026-01-03 11:01:36.08	352.45	6.94	-46.1	-64.9	3.8	7.44e-01	0	57	104	492830720	62	33893
2026-01-03 11:01:37.09	352.39	6.86	-46.0	-64.9	3.8	7.45e-01	0	57	104	492830720	62	33772
2026-01-03 11:01:38.10	352.33	6.78	-46.0	-64.9	3.8	7.42e-01	0	57	104	492830720	62	33784
2026-01-03 11:01:39.11	352.27	6.71	-46.0	-64.9	3.8	7.48e-01	0	57	104	492830720	62	33753
2026-01-03 11:01:40.12	352.22	6.63	-46.0	-64.9	3.8	7.44e-01	0	57	104	492830720	62	33721
2026-01-03 11:01:41.13	352.16	6.55	-46.0	-64.8	3.8	7.46e-01	0	57	104	492830720	62	33656
2026-01-03 11:01:42.14	352.10	6.48	-46.0	-64.8	3.8	7.45e-01	0	57	104	492830720	62	33695
2026-01-03 11:01:43.16	352.04	6.40	-46.0	-64.8	3.8	7.50e-01	0	57	104	492830720	62	33624
2026-01-03 11:01:44.17	351.99	6.32	-46.0	-64.8	3.8	7.45e-01	0	57	104	492830720	62	33679
2026-01-03 11:01:45.18	351.93	6.25	-46.0	-64.9	3.8	7.46e-01	0	57	104	492830720	62	33754
2026-01-03 11:01:46.19	351.88	6.17	-46.0	-64.8	3.8	7.47e-01	0	57	104	492830720	62	33662
2026-01-03 11:01:47.20	351.82	6.10	-46.0	-64.8	3.8	7.48e-01	0	57	104	492830720	62	33601
2026-01-03 11:01:48.21	351.77	6.02	-46.0	-64.8	3.8	7.47e-01	0	57	104	492830720	62	33612
2026-01-03 11:01:49.22	351.71	5.95	-46.0	-64.8	3.8	7.43e-01	0	57	104	492830720	62	33652
2026-01-03 11:01:50.23	351.66	5.87	-46.0	-64.8	3.8	7.44e-01	0	57	104	492830720	62	33542
2026-01-03 11:01:51.24	351.61	5.80	-46.0	-64.8	3.8	7.43e-01	0	57	104	492830720	62	33566
2026-01-03 11:01:52.25	351.55	5.72	-46.0	-64.8	3.8	7.48e-01	0	57	104	492830720	62	33514
2026-01-03 11:01:53.26	351.50	5.65	-45.9	-64.8	3.8	7.47e-01	0	57	104	492830720	62	33476
2026-01-03 11:01:54.28	351.45	5.58	-46.0	-64.8	3.8	7.46e-01	0	57	104	492830720	62	33536
2026-01-03 11:01:55.29	351.39	5.50	-46.0	-64.8	3.8	7.44e-01	0	57	104	492830720	62	33506
2026-01-03 11:01:56.30	351.34	5.43	-45.9	-64.8	3.8	7.45e-01	0	57	104	492830720	62	33438
2026-01-03 11:01:57.31	351.29	5.36	-45.9	-64.8	3.8	7.45e-01	0	57	104	492830720	62	33496
2026-01-03 11:01:58.32	351.24	5.28	-45.9	-64.8	3.8	7.45e-01	0	57	104	492830720	62	33522
2026-01-03 11:01:59.33	351.19	5.21	-45.9	-64.8	3.8	7.46e-01	0	57	104	492830720	62	33546
2026-01-03 11:02:00.34	351.14	5.14	-46.0	-64.8	3.8	7.47e-01	0	57	104	492830720	62	33488
2026-01-03 11:02:01.36	351.09	5.06	-46.0	-64.8	3.8	7.42e-01	0	57	104	492830720	62	33500
2026-01-03 11:02:02.37	351.04	4.99	-45.9	-64.8	3.8	7.44e-01	0	57	104	492830720	62	33560
2026-01-03 11:02:03.38	350.99	4.92	-46.0	-64.8	3.8	7.44e-01	0	57	104	492830720	62	33510
2026-01-03 11:02:04.39	350.94	4.85	-46.0	-64.8	3.8	7.43e-01	0	57	104	492830720	62	33494
2026-01-03 11:02:05.40	350.89	4.78	-46.0	-64.8	3.8	7.45e-01	0	57	104	492830720	62	33529
2026-01-03 11:02:06.41	350.84	4.71	-46.0	-64.8	3.8	7.43e-01	0	57	104	492830720	62	33450
2026-01-03 11:02:07.42	350.79	4.63	-45.9	-64.8	3.8	7.45e-01	0	57	104	492830720	62	33581
2026-01-03 11:02:08.43	350.74	4.56	-46.0	-64.8	3.8	7.46e-01	0	57	104	492830720	62	33536
2026-01-03 11:02:09.44	350.69	4.49	-45.9	-64.8	3.8	7.46e-01	0	57	104	492830720	62	33498
2026-01-03 11:02:10.45	350.64	4.42	-45.9	-64.8	3.8	7.44e-01	0	57	104	492830720	62	33517
2026-01-03 11:02:11.46	350.60	4.35	-45.9	-64.8	3.8	7.48e-01	0	57	104	492830720	62	33406
