passes_logs/2025/01/19/LEX_Murmansk/LEX_Murmansk__20250119_081133_NOAA_19_rec.log

#Pass ID: 20250119_081133_NOAA 19
#Satellite: NOAA 19
#Configuration: NOAA 19
#Start time: 2025-01-19 08:11:28.356824

#LorettStation: 1.0.0 05.05.2024
#Station: LEX_Murmansk
#Location: 33.156738 lon 68.926811 lat
#TLE: 1 33591U 09005A   25018.04840605  .00000325  00000+0  19728-3 0  9997
#TLE: 2 33591  99.0190  81.8343 0014373  49.4310 310.8111 14.13261983821977

#Time	Az	El	Level	SNR
2025-01-19 08:11:40.633353	29.1	16.3	-92.2	3.4
2025-01-19 08:11:41.801459	29.1	16.4	-92.2	2.2
2025-01-19 08:11:42.970106	29.2	16.5	-92.5	4.2
2025-01-19 08:11:44.128284	29.3	16.7	-92.5	4.9
2025-01-19 08:11:45.296252	29.3	16.8	-91.2	4.3
2025-01-19 08:11:46.460228	29.4	16.9	-91.7	2.7
2025-01-19 08:11:47.627845	29.5	17.0	-91.6	3.1
2025-01-19 08:11:48.793672	29.5	17.2	-91.8	2.9
2025-01-19 08:11:49.959003	29.6	17.3	-91.4	1.9
2025-01-19 08:11:51.121785	29.7	17.4	-91.7	0.7
2025-01-19 08:11:52.285385	29.8	17.6	-91.7	4.1
2025-01-19 08:11:53.450254	29.8	17.7	-92.7	8.8
2025-01-19 08:11:54.608173	29.9	17.8	-92.7	10.2
2025-01-19 08:11:55.765929	30.0	18.0	-92.5	4.4
2025-01-19 08:11:56.933546	30.0	18.1	-92.3	6.7
2025-01-19 08:11:58.054641	30.1	18.2	-92.4	2.0
2025-01-19 08:11:59.175445	30.2	18.4	-92.0	8.8
2025-01-19 08:12:00.296458	30.3	18.5	-92.2	5.5
2025-01-19 08:12:01.417279	30.3	18.6	-92.2	8.2
2025-01-19 08:12:02.537123	30.4	18.8	-91.6	0.7
2025-01-19 08:12:03.656692	30.5	18.9	-91.6	4.0
2025-01-19 08:12:04.777672	30.6	19.0	-91.3	2.1
2025-01-19 08:12:05.898979	30.6	19.2	-90.9	1.2
2025-01-19 08:12:07.027612	30.7	19.3	-91.6	3.1
2025-01-19 08:12:08.190071	30.8	19.4	-91.4	2.6
2025-01-19 08:12:09.343650	30.9	19.6	-91.6	6.5
2025-01-19 08:12:10.503852	30.9	19.7	-91.5	13.6
2025-01-19 08:12:11.657353	31.0	19.9	-91.5	7.6
2025-01-19 08:12:12.812197	31.1	20.0	-91.7	6.4
2025-01-19 08:12:13.968653	31.2	20.1	-91.7	8.5
2025-01-19 08:12:15.131877	31.3	20.3	-91.4	9.3
2025-01-19 08:12:16.294278	31.3	20.4	-91.2	7.2
2025-01-19 08:12:17.459159	31.4	20.6	-91.5	13.6
2025-01-19 08:12:18.617406	31.5	20.7	-92.0	6.2
2025-01-19 08:12:19.775568	31.6	20.9	-92.0	3.7
2025-01-19 08:12:20.939757	31.7	21.0	-91.7	3.8
2025-01-19 08:12:22.097712	31.8	21.2	-91.4	2.3
2025-01-19 08:12:23.370911	31.9	21.3	-91.5	5.6
2025-01-19 08:12:24.534589	32.0	21.5	-91.9	4.3
2025-01-19 08:12:25.699802	32.0	21.6	-91.8	11.8
2025-01-19 08:12:26.864616	32.1	21.8	-91.5	16.2
2025-01-19 08:12:28.029132	32.2	21.9	-91.8	10.1
2025-01-19 08:12:29.197982	32.3	22.1	-91.9	1.8
2025-01-19 08:12:30.361836	32.4	22.3	-91.2	2.5
2025-01-19 08:12:31.525838	32.5	22.4	-91.4	8.1
2025-01-19 08:12:32.694528	32.6	22.6	-91.9	15.1
2025-01-19 08:12:33.858414	32.7	22.7	-92.8	8.5
2025-01-19 08:12:35.027432	32.8	22.9	-92.7	12.0
2025-01-19 08:12:36.190064	32.9	23.0	-92.4	5.6
2025-01-19 08:12:37.348585	33.0	23.2	-92.2	1.9
2025-01-19 08:12:38.513472	33.1	23.4	-92.2	6.2
2025-01-19 08:12:39.676506	33.2	23.5	-91.6	2.9
2025-01-19 08:12:40.844311	33.3	23.7	-91.9	5.7
2025-01-19 08:12:42.001341	33.4	23.9	-92.0	14.6
2025-01-19 08:12:43.178236	33.5	24.0	-91.9	8.2
2025-01-19 08:12:44.338321	33.6	24.2	-91.6	10.7
2025-01-19 08:12:45.502167	33.7	24.4	-91.8	4.2
2025-01-19 08:12:46.670486	33.8	24.5	-92.5	5.4
2025-01-19 08:12:47.835078	33.9	24.7	-93.0	5.6
2025-01-19 08:12:49.002243	34.0	24.9	-92.7	11.8
2025-01-19 08:12:50.166181	34.2	25.0	-92.7	5.3
2025-01-19 08:12:51.328929	34.3	25.2	-92.5	8.1
2025-01-19 08:12:52.491015	34.4	25.4	-93.2	4.6
2025-01-19 08:12:53.651536	34.5	25.6	-92.9	2.9
2025-01-19 08:12:54.818266	34.6	25.7	-92.7	2.0
2025-01-19 08:12:55.982054	34.7	25.9	-92.4	3.6
2025-01-19 08:12:57.146778	34.8	26.1	-92.4	2.6
2025-01-19 08:12:58.311289	35.0	26.3	-92.4	5.2
2025-01-19 08:12:59.469554	35.1	26.5	-92.9	7.3
2025-01-19 08:13:00.630360	35.2	26.6	-93.1	7.9
2025-01-19 08:13:01.790554	35.3	26.8	-92.7	9.1
2025-01-19 08:13:02.951357	35.4	27.0	-92.9	5.0
2025-01-19 08:13:04.107740	35.6	27.2	-92.5	3.2
2025-01-19 08:13:05.270182	35.7	27.4	-92.7	1.4
2025-01-19 08:13:06.438531	35.8	27.6	-92.4	6.9
2025-01-19 08:13:07.601484	36.0	27.7	-91.9	5.9
2025-01-19 08:13:08.766146	36.1	27.9	-91.3	2.6
2025-01-19 08:13:09.933919	36.2	28.1	-91.5	6.7
2025-01-19 08:13:11.095810	36.4	28.3	-91.5	3.2
2025-01-19 08:13:12.263613	36.5	28.5	-91.4	2.5
2025-01-19 08:13:13.424047	36.6	28.7	-91.4	1.4
2025-01-19 08:13:14.590040	36.8	28.9	-91.2	4.2
2025-01-19 08:13:15.752500	36.9	29.1	-91.4	2.3
2025-01-19 08:13:16.909219	37.0	29.3	-91.5	2.9
2025-01-19 08:13:18.072313	37.2	29.5	-91.8	14.6
2025-01-19 08:13:19.233978	37.3	29.7	-92.5	4.5
2025-01-19 08:13:20.400118	37.5	29.9	-92.5	8.4
2025-01-19 08:13:21.570631	37.6	30.1	-92.3	5.7
2025-01-19 08:13:22.733028	37.8	30.3	-92.1	6.1
2025-01-19 08:13:23.889745	37.9	30.5	-91.9	6.8
2025-01-19 08:13:25.051784	38.1	30.7	-92.2	8.0
2025-01-19 08:13:26.214730	38.2	30.9	-91.7	12.4
2025-01-19 08:13:27.383602	38.4	31.1	-92.6	10.1
2025-01-19 08:13:28.547373	38.6	31.3	-92.6	1.6
2025-01-19 08:13:29.712216	38.7	31.5	-92.4	4.3
2025-01-19 08:13:30.891571	38.9	31.8	-92.8	5.0
2025-01-19 08:13:32.052965	39.1	32.0	-92.4	4.7
2025-01-19 08:13:33.217764	39.2	32.2	-92.6	0.8
2025-01-19 08:13:34.374779	39.4	32.4	-92.7	6.7
2025-01-19 08:13:35.542666	39.6	32.6	-92.5	7.4
2025-01-19 08:13:36.708542	39.7	32.8	-92.3	12.4
2025-01-19 08:13:37.867017	39.9	33.1	-92.6	7.6
2025-01-19 08:13:39.034272	40.1	33.3	-92.7	11.4
2025-01-19 08:13:40.197856	40.3	33.5	-92.7	2.3
2025-01-19 08:13:41.365410	40.5	33.7	-92.5	13.0
2025-01-19 08:13:42.529504	40.7	33.9	-91.9	11.5
2025-01-19 08:13:43.693007	40.8	34.2	-92.3	10.4
2025-01-19 08:13:44.854207	41.0	34.4	-92.6	16.1
2025-01-19 08:13:46.018344	41.2	34.6	-92.7	14.1
2025-01-19 08:13:47.182333	41.4	34.9	-92.4	6.8
2025-01-19 08:13:48.349233	41.6	35.1	-92.4	1.4
2025-01-19 08:13:49.515838	41.8	35.3	-92.5	2.8
2025-01-19 08:13:50.678255	42.0	35.6	-92.5	4.3
2025-01-19 08:13:51.839594	42.2	35.8	-92.8	1.5
2025-01-19 08:13:53.001213	42.5	36.0	-91.9	4.4
2025-01-19 08:13:54.161224	42.7	36.3	-91.9	13.7
2025-01-19 08:13:55.324974	42.9	36.5	-91.6	14.7
2025-01-19 08:13:56.488245	43.1	36.7	-91.2	17.1
2025-01-19 08:13:57.650125	43.3	37.0	-91.2	11.6
2025-01-19 08:13:58.819752	43.6	37.2	-91.7	10.5
2025-01-19 08:13:59.990351	43.8	37.5	-92.8	9.9
2025-01-19 08:14:01.149087	44.0	37.7	-92.6	4.1
2025-01-19 08:14:02.314415	44.3	38.0	-92.4	11.5
2025-01-19 08:14:03.469764	44.5	38.2	-92.7	19.1
2025-01-19 08:14:04.624332	44.8	38.5	-92.7	13.6
2025-01-19 08:14:05.788644	45.0	38.7	-92.5	15.4
2025-01-19 08:14:06.951526	45.3	39.0	-92.5	5.5
2025-01-19 08:14:08.121768	45.5	39.2	-91.9	5.6
2025-01-19 08:14:09.281970	45.8	39.5	-92.3	1.3
2025-01-19 08:14:10.451359	46.0	39.7	-92.2	6.8
2025-01-19 08:14:11.617815	46.3	40.0	-92.4	7.6
2025-01-19 08:14:12.781330	46.6	40.2	-92.5	7.5
2025-01-19 08:14:13.941563	46.9	40.5	-93.0	12.2
2025-01-19 08:14:15.103842	47.1	40.8	-92.6	17.2
2025-01-19 08:14:16.270841	47.4	41.0	-92.2	18.3
2025-01-19 08:14:17.435205	47.7	41.3	-92.7	10.0
2025-01-19 08:14:18.596303	48.0	41.6	-92.4	6.6
2025-01-19 08:14:19.718074	48.3	41.8	-92.4	7.9
2025-01-19 08:14:20.850519	48.6	42.1	-92.6	7.5
2025-01-19 08:14:22.020479	48.9	42.3	-92.6	18.8
2025-01-19 08:14:23.186234	49.2	42.6	-91.8	13.2
2025-01-19 08:14:24.352410	49.5	42.9	-92.0	22.9
2025-01-19 08:14:25.522158	49.9	43.1	-92.3	11.7
2025-01-19 08:14:26.684828	50.2	43.4	-92.3	19.1
2025-01-19 08:14:27.852642	50.5	43.7	-92.6	9.6
2025-01-19 08:14:29.016927	50.9	44.0	-92.2	8.9
2025-01-19 08:14:30.175303	51.2	44.2	-92.2	2.0
2025-01-19 08:14:31.338910	51.6	44.5	-92.3	2.7
2025-01-19 08:14:32.515918	51.9	44.8	-92.6	5.0
2025-01-19 08:14:33.683582	52.3	45.1	-92.6	5.6
2025-01-19 08:14:34.837863	52.7	45.3	-92.7	5.7
2025-01-19 08:14:36.013925	53.0	45.6	-92.2	11.0
2025-01-19 08:14:37.178341	53.4	45.9	-92.0	13.2
2025-01-19 08:14:38.341386	53.8	46.2	-92.1	13.4
2025-01-19 08:14:39.514245	54.2	46.5	-92.7	10.3
2025-01-19 08:14:40.675151	54.6	46.7	-92.7	7.0
2025-01-19 08:14:41.843389	55.0	47.0	-92.7	4.4
2025-01-19 08:14:43.001371	55.5	47.3	-92.3	5.2
2025-01-19 08:14:44.166601	55.9	47.6	-92.7	3.3
2025-01-19 08:14:45.332563	56.3	47.8	-92.4	2.7
2025-01-19 08:14:46.501243	56.8	48.1	-92.8	5.5
2025-01-19 08:14:47.669363	57.2	48.4	-93.0	7.6
2025-01-19 08:14:48.830701	57.7	48.7	-92.5	7.3
2025-01-19 08:14:49.996736	58.1	49.0	-92.6	4.6
2025-01-19 08:14:51.152141	58.6	49.2	-92.1	7.9
2025-01-19 08:14:52.316622	59.1	49.5	-92.1	2.3
2025-01-19 08:14:53.481794	59.6	49.8	-92.3	3.6
2025-01-19 08:14:54.643637	60.1	50.1	-92.3	2.8
2025-01-19 08:14:55.810473	60.6	50.4	-92.5	2.0
2025-01-19 08:14:56.979395	61.1	50.6	-92.5	1.9
2025-01-19 08:14:58.146253	61.7	50.9	-92.8	2.9
2025-01-19 08:14:59.311249	62.2	51.2	-92.6	2.5
2025-01-19 08:15:00.476465	62.7	51.5	-92.4	4.3
2025-01-19 08:15:01.636525	63.3	51.7	-92.5	6.5
2025-01-19 08:15:02.802477	63.9	52.0	-92.6	6.2
2025-01-19 08:15:03.958122	64.4	52.3	-92.6	4.2
2025-01-19 08:15:05.122485	65.0	52.5	-92.1	13.4
2025-01-19 08:15:06.286004	65.6	52.8	-91.8	6.8
2025-01-19 08:15:07.449719	66.2	53.1	-92.3	6.7
2025-01-19 08:15:08.614185	66.9	53.3	-92.3	8.4
2025-01-19 08:15:09.771541	67.5	53.6	-92.8	5.5
2025-01-19 08:15:10.936334	68.1	53.8	-92.4	10.7
2025-01-19 08:15:12.100935	68.8	54.1	-92.4	8.1
2025-01-19 08:15:13.266676	69.5	54.4	-92.4	0.0
2025-01-19 08:15:14.420464	70.1	54.6	-92.4	10.9
2025-01-19 08:15:15.584522	70.8	54.9	-92.8	9.0
2025-01-19 08:15:16.748669	71.5	55.1	-91.5	12.1
2025-01-19 08:15:17.919908	72.3	55.3	-91.6	13.8
2025-01-19 08:15:19.084401	73.0	55.6	-91.6	13.2
2025-01-19 08:15:20.246114	73.7	55.8	-91.6	10.2
2025-01-19 08:15:21.408877	74.5	56.0	-91.9	16.2
2025-01-19 08:15:22.573675	75.2	56.3	-92.2	9.9
2025-01-19 08:15:23.737604	76.0	56.5	-92.2	4.8
2025-01-19 08:15:24.894443	76.8	56.7	-91.9	2.5
2025-01-19 08:15:26.031747	77.6	56.9	-91.7	4.2
2025-01-19 08:15:27.190845	78.4	57.1	-91.4	3.2
2025-01-19 08:15:28.355884	79.2	57.3	-91.6	3.4
2025-01-19 08:15:29.509389	80.1	57.5	-92.6	3.9
2025-01-19 08:15:30.672997	80.9	57.7	-92.8	5.5
2025-01-19 08:15:31.836814	81.8	57.9	-92.8	7.4
2025-01-19 08:15:33.004604	82.6	58.1	-93.0	4.9
2025-01-19 08:15:34.163973	83.5	58.3	-92.7	6.7
2025-01-19 08:15:35.326972	84.4	58.5	-92.5	16.4
2025-01-19 08:15:36.495416	85.3	58.6	-92.4	14.1
2025-01-19 08:15:37.660087	86.3	58.8	-92.4	8.8
2025-01-19 08:15:38.828037	87.2	58.9	-92.1	21.9
2025-01-19 08:15:39.992241	88.1	59.1	-90.3	14.8
2025-01-19 08:15:41.160494	89.1	59.2	-92.7	12.7
2025-01-19 08:15:42.321094	90.1	59.4	-92.6	16.0
2025-01-19 08:15:43.489202	91.0	59.5	-92.6	15.8
2025-01-19 08:15:44.648887	92.0	59.6	-92.9	3.8
2025-01-19 08:15:45.807894	93.0	59.7	-92.6	10.5
2025-01-19 08:15:46.973647	94.0	59.8	-92.8	10.0
2025-01-19 08:15:48.136104	95.0	59.9	-92.6	8.8
2025-01-19 08:15:49.298899	96.0	60.0	-92.3	2.5
2025-01-19 08:15:50.459820	97.0	60.1	-92.5	3.3
2025-01-19 08:15:51.621100	98.1	60.2	-92.9	8.9
2025-01-19 08:15:52.784028	99.1	60.2	-92.6	16.7
2025-01-19 08:15:53.944771	100.1	60.3	-92.4	5.9
2025-01-19 08:15:55.102944	101.2	60.3	-92.5	8.9
2025-01-19 08:15:56.275814	102.2	60.4	-92.6	8.7
2025-01-19 08:15:57.442198	103.3	60.4	-92.3	9.1
2025-01-19 08:15:58.603135	104.3	60.4	-92.5	10.2
2025-01-19 08:15:59.764273	105.4	60.4	-92.0	11.3
2025-01-19 08:16:00.922956	106.4	60.5	-92.3	12.6
2025-01-19 08:16:02.087815	107.5	60.5	-92.5	11.1
2025-01-19 08:16:03.248555	108.5	60.4	-91.6	10.0
2025-01-19 08:16:04.406461	109.6	60.4	-92.0	12.1
2025-01-19 08:16:05.570421	110.6	60.4	-92.1	15.1
2025-01-19 08:16:06.731954	111.7	60.4	-91.9	18.2
2025-01-19 08:16:07.890756	112.7	60.3	-92.1	23.1
2025-01-19 08:16:09.052156	113.7	60.3	-91.8	15.5
2025-01-19 08:16:10.233902	114.8	60.2	-91.6	20.1
2025-01-19 08:16:11.397331	115.8	60.1	-91.6	11.2
2025-01-19 08:16:12.563448	116.9	60.1	-92.0	17.4
2025-01-19 08:16:13.726561	117.9	60.0	-92.1	16.4
2025-01-19 08:16:14.883347	118.9	59.9	-92.1	12.7
2025-01-19 08:16:16.050413	119.9	59.8	-92.1	12.8
2025-01-19 08:16:17.216681	120.9	59.7	-92.2	13.7
2025-01-19 08:16:18.383138	121.9	59.6	-91.7	8.9
2025-01-19 08:16:19.546223	122.8	59.4	-91.8	8.3
2025-01-19 08:16:20.709571	123.8	59.3	-92.2	13.7
2025-01-19 08:16:21.874038	124.8	59.2	-92.1	16.7
2025-01-19 08:16:23.030900	125.7	59.0	-91.7	9.8
2025-01-19 08:16:24.196872	126.7	58.9	-91.7	13.7
2025-01-19 08:16:25.373569	127.6	58.7	-92.6	14.8
2025-01-19 08:16:26.538751	128.5	58.6	-92.6	21.0
2025-01-19 08:16:27.702586	129.4	58.4	-92.6	13.8
2025-01-19 08:16:28.862378	130.3	58.2	-92.3	16.2
2025-01-19 08:16:30.024299	131.2	58.0	-92.4	13.8
2025-01-19 08:16:31.192616	132.1	57.8	-92.6	20.7
2025-01-19 08:16:32.357775	132.9	57.6	-92.5	12.2
2025-01-19 08:16:33.525180	133.8	57.4	-92.4	15.2
2025-01-19 08:16:34.687161	134.6	57.2	-92.4	14.7
2025-01-19 08:16:35.847816	135.4	57.0	-91.5	13.0
2025-01-19 08:16:37.011397	136.2	56.8	-91.7	11.1
2025-01-19 08:16:38.174998	137.0	56.6	-91.9	13.0
2025-01-19 08:16:39.336435	137.8	56.4	-91.3	11.6
2025-01-19 08:16:40.500150	138.6	56.2	-91.3	15.0
2025-01-19 08:16:41.668433	139.3	55.9	-91.8	10.8
2025-01-19 08:16:42.825077	140.1	55.7	-91.5	10.9
2025-01-19 08:16:43.974293	140.8	55.5	-91.7	8.4
2025-01-19 08:16:45.136837	141.5	55.2	-91.2	18.5
2025-01-19 08:16:46.299978	142.2	55.0	-91.3	19.9
2025-01-19 08:16:47.463512	142.9	54.7	-92.3	18.1
2025-01-19 08:16:48.627902	143.6	54.5	-92.3	12.9
2025-01-19 08:16:49.794580	144.3	54.2	-92.4	6.9
2025-01-19 08:16:50.966230	145.0	54.0	-92.5	4.9
2025-01-19 08:16:52.133180	145.6	53.7	-92.4	20.6
2025-01-19 08:16:53.297517	146.3	53.5	-92.3	14.3
2025-01-19 08:16:54.469740	146.9	53.2	-92.5	15.5
2025-01-19 08:16:55.626942	147.5	52.9	-92.5	8.0
2025-01-19 08:16:56.797669	148.1	52.7	-92.4	11.9
2025-01-19 08:16:57.962317	148.7	52.4	-91.8	10.9
2025-01-19 08:16:59.126702	149.3	52.1	-91.8	11.1
2025-01-19 08:17:00.288304	149.9	51.9	-91.5	6.3
2025-01-19 08:17:01.437701	150.4	51.6	-91.8	7.8
2025-01-19 08:17:02.604999	151.0	51.3	-92.6	14.9
2025-01-19 08:17:03.766446	151.5	51.1	-92.8	16.6
2025-01-19 08:17:04.928008	152.1	50.8	-92.4	3.9
2025-01-19 08:17:06.092570	152.6	50.5	-92.2	12.6
2025-01-19 08:17:07.258463	153.1	50.2	-91.9	6.4
2025-01-19 08:17:08.429456	153.6	49.9	-92.0	8.9
2025-01-19 08:17:09.578482	154.1	49.7	-92.7	10.9
2025-01-19 08:17:10.742156	154.6	49.4	-92.5	10.6
2025-01-19 08:17:11.902356	155.1	49.1	-92.4	5.2
2025-01-19 08:17:13.067913	155.5	48.8	-92.8	8.5
2025-01-19 08:17:14.229975	156.0	48.6	-92.3	8.7
2025-01-19 08:17:15.391113	156.5	48.3	-92.2	6.0
2025-01-19 08:17:16.557776	156.9	48.0	-92.7	1.8
2025-01-19 08:17:17.726774	157.3	47.7	-92.5	17.3
2025-01-19 08:17:18.892010	157.8	47.4	-92.5	9.3
2025-01-19 08:17:20.059275	158.2	47.2	-92.2	8.5
2025-01-19 08:17:21.222416	158.6	46.9	-91.9	7.9
2025-01-19 08:17:22.386785	159.0	46.6	-92.1	8.8
2025-01-19 08:17:23.554225	159.4	46.3	-92.9	7.3
2025-01-19 08:17:24.713024	159.8	46.0	-92.8	6.4
2025-01-19 08:17:25.877926	160.2	45.8	-92.4	10.6
2025-01-19 08:17:27.043172	160.6	45.5	-92.5	5.7
2025-01-19 08:17:28.210556	161.0	45.2	-92.4	16.0
2025-01-19 08:17:29.368526	161.3	44.9	-92.1	14.6
2025-01-19 08:17:30.533999	161.7	44.7	-92.5	3.6
2025-01-19 08:17:31.702568	162.0	44.4	-92.7	12.5
2025-01-19 08:17:32.866643	162.4	44.1	-92.7	9.8
2025-01-19 08:17:34.029868	162.7	43.8	-92.7	6.4
2025-01-19 08:17:35.190290	163.1	43.6	-92.5	9.5
2025-01-19 08:17:36.354869	163.4	43.3	-91.8	12.5
2025-01-19 08:17:37.520577	163.7	43.0	-91.6	9.6
2025-01-19 08:17:38.684274	164.1	42.8	-92.0	4.5
2025-01-19 08:17:39.851594	164.4	42.5	-92.0	6.8
2025-01-19 08:17:41.017533	164.7	42.2	-92.0	3.5
2025-01-19 08:17:42.185155	165.0	42.0	-91.4	14.9
2025-01-19 08:17:43.338651	165.3	41.7	-92.7	6.1
2025-01-19 08:17:44.502483	165.6	41.4	-92.3	5.4
2025-01-19 08:17:45.664959	165.9	41.2	-92.4	11.0
2025-01-19 08:17:46.829520	166.2	40.9	-93.0	5.9
2025-01-19 08:17:47.993292	166.5	40.6	-92.5	6.2
2025-01-19 08:17:49.153247	166.7	40.4	-92.4	8.9
2025-01-19 08:17:50.319178	167.0	40.1	-92.4	6.6
2025-01-19 08:17:51.480593	167.3	39.9	-92.5	9.8
2025-01-19 08:17:52.644529	167.5	39.6	-93.1	11.3
2025-01-19 08:17:53.799626	167.8	39.4	-92.8	8.4
2025-01-19 08:17:54.971083	168.1	39.1	-93.2	11.7
2025-01-19 08:17:56.134457	168.3	38.8	-92.9	10.7
2025-01-19 08:17:57.305286	168.6	38.6	-92.8	9.7
2025-01-19 08:17:58.461468	168.8	38.3	-92.5	11.3
2025-01-19 08:17:59.627341	169.1	38.1	-92.6	11.6
2025-01-19 08:18:00.788805	169.3	37.8	-91.8	10.4
2025-01-19 08:18:01.954024	169.5	37.6	-91.6	6.0
2025-01-19 08:18:03.121644	169.8	37.4	-91.7	8.0
2025-01-19 08:18:04.284079	170.0	37.1	-91.9	12.4
2025-01-19 08:18:05.447851	170.2	36.9	-92.2	8.5
2025-01-19 08:18:06.610850	170.4	36.6	-92.1	9.8
2025-01-19 08:18:07.771823	170.7	36.4	-92.9	10.8
2025-01-19 08:18:08.940806	170.9	36.1	-93.0	5.8
2025-01-19 08:18:10.100770	171.1	35.9	-92.8	7.7
2025-01-19 08:18:11.267146	171.3	35.7	-92.5	12.6
2025-01-19 08:18:12.432204	171.5	35.4	-93.0	8.4
2025-01-19 08:18:13.597352	171.7	35.2	-93.1	8.3
2025-01-19 08:18:14.760066	171.9	35.0	-92.9	10.2
2025-01-19 08:18:15.919302	172.1	34.7	-93.0	9.8
2025-01-19 08:18:17.087255	172.3	34.5	-91.7	7.9
2025-01-19 08:18:18.251353	172.5	34.3	-91.4	8.7
2025-01-19 08:18:19.418746	172.7	34.1	-91.8	9.2
2025-01-19 08:18:20.584347	172.9	33.8	-92.2	9.6
2025-01-19 08:18:21.745425	173.1	33.6	-92.0	13.5
2025-01-19 08:18:22.918518	173.3	33.4	-92.8	10.5
2025-01-19 08:18:24.077712	173.4	33.2	-92.9	9.1
2025-01-19 08:18:25.241299	173.6	32.9	-92.7	13.2
2025-01-19 08:18:26.406053	173.8	32.7	-92.3	6.1
2025-01-19 08:18:27.568150	174.0	32.5	-92.3	8.0
2025-01-19 08:18:28.730772	174.1	32.3	-92.5	13.4
2025-01-19 08:18:29.895823	174.3	32.1	-92.2	6.0
2025-01-19 08:18:31.060014	174.5	31.9	-92.4	9.4
2025-01-19 08:18:32.223969	174.6	31.6	-92.5	10.9
2025-01-19 08:18:33.389729	174.8	31.4	-92.3	9.9
2025-01-19 08:18:34.552848	175.0	31.2	-92.8	13.9
2025-01-19 08:18:35.714324	175.1	31.0	-92.3	12.5
2025-01-19 08:18:36.869386	175.3	30.8	-92.7	10.3
2025-01-19 08:18:38.027846	175.4	30.6	-92.7	10.1
2025-01-19 08:18:39.192408	175.6	30.4	-92.5	9.6
2025-01-19 08:18:40.360403	175.7	30.2	-92.5	7.8
2025-01-19 08:18:41.521335	175.9	30.0	-92.7	5.9
2025-01-19 08:18:42.686979	176.0	29.8	-92.3	4.6
2025-01-19 08:18:43.841679	176.2	29.6	-92.6	6.7
2025-01-19 08:18:45.004439	176.3	29.4	-92.8	3.3
2025-01-19 08:18:46.166704	176.5	29.2	-92.3	10.0
2025-01-19 08:18:47.324274	176.6	29.0	-92.8	10.7
2025-01-19 08:18:48.487807	176.7	28.8	-92.8	6.2
2025-01-19 08:18:49.654137	176.9	28.6	-92.9	12.1
2025-01-19 08:18:50.816705	177.0	28.4	-92.8	11.5
2025-01-19 08:18:51.976144	177.1	28.2	-92.7	11.5
2025-01-19 08:18:53.141462	177.3	28.0	-92.6	11.3
2025-01-19 08:18:54.306272	177.4	27.8	-92.5	9.1
2025-01-19 08:18:55.462015	177.5	27.7	-92.7	9.7
2025-01-19 08:18:56.625200	177.7	27.5	-92.3	7.8
2025-01-19 08:18:57.793388	177.8	27.3	-92.3	6.8
2025-01-19 08:18:58.953589	177.9	27.1	-92.4	6.5
2025-01-19 08:19:00.111618	178.0	26.9	-92.5	7.6
2025-01-19 08:19:01.272593	178.2	26.7	-92.3	11.7
2025-01-19 08:19:02.435704	178.3	26.5	-92.6	8.0
2025-01-19 08:19:03.603377	178.4	26.4	-92.7	7.1
2025-01-19 08:19:04.766685	178.5	26.2	-92.7	6.5
2025-01-19 08:19:05.925756	178.6	26.0	-92.7	8.6
2025-01-19 08:19:07.086197	178.8	25.8	-92.9	8.0
2025-01-19 08:19:08.250425	178.9	25.7	-92.5	11.8
2025-01-19 08:19:09.414653	179.0	25.5	-92.7	10.3
2025-01-19 08:19:10.578798	179.1	25.3	-92.9	5.8
2025-01-19 08:19:11.743165	179.2	25.1	-92.8	7.9
2025-01-19 08:19:12.903564	179.3	25.0	-92.4	6.7
2025-01-19 08:19:14.065589	179.4	24.8	-92.7	4.7
2025-01-19 08:19:15.228753	179.5	24.6	-92.8	11.0
2025-01-19 08:19:16.394017	179.7	24.4	-92.5	6.5
2025-01-19 08:19:17.557536	179.8	24.3	-93.1	4.6
2025-01-19 08:19:18.724798	179.9	24.1	-92.6	9.1
2025-01-19 08:19:19.892493	180.0	23.9	-92.7	9.1
2025-01-19 08:19:21.053075	180.1	23.8	-92.8	7.4
2025-01-19 08:19:22.216565	180.2	23.6	-92.7	10.3
2025-01-19 08:19:23.380926	180.3	23.5	-92.7	9.7
2025-01-19 08:19:24.554455	180.4	23.3	-92.4	13.1
2025-01-19 08:19:25.712976	180.5	23.1	-92.7	12.0
2025-01-19 08:19:26.879162	180.6	23.0	-92.6	6.1
2025-01-19 08:19:28.044937	180.7	22.8	-92.4	7.3
2025-01-19 08:19:29.205760	180.8	22.6	-92.3	8.4
2025-01-19 08:19:30.373198	180.9	22.5	-92.4	5.0
2025-01-19 08:19:31.538522	181.0	22.3	-92.8	5.8
2025-01-19 08:19:32.711202	181.0	22.2	-93.0	8.6
2025-01-19 08:19:33.874005	181.1	22.0	-92.4	8.0
2025-01-19 08:19:35.043251	181.2	21.9	-92.6	9.1
2025-01-19 08:19:36.202101	181.3	21.7	-91.9	7.8
2025-01-19 08:19:37.363152	181.4	21.6	-92.1	7.1
2025-01-19 08:19:38.510721	181.5	21.4	-91.8	6.6
2025-01-19 08:19:39.656540	181.6	21.3	-92.9	6.2
2025-01-19 08:19:40.821657	181.7	21.1	-92.7	7.0
2025-01-19 08:19:41.979394	181.8	21.0	-92.8	2.9
2025-01-19 08:19:43.122921	181.8	20.8	-92.8	5.8
2025-01-19 08:19:44.244446	181.9	20.7	-92.5	5.1
2025-01-19 08:19:45.365229	182.0	20.5	-93.0	3.4
2025-01-19 08:19:46.487105	182.1	20.4	-92.9	3.6
2025-01-19 08:19:47.608112	182.2	20.2	-92.8	3.6
2025-01-19 08:19:48.728833	182.2	20.1	-93.0	6.9
2025-01-19 08:19:49.850282	182.3	20.0	-92.9	3.6
2025-01-19 08:19:50.970975	182.4	19.8	-92.8	7.5
2025-01-19 08:19:52.100549	182.5	19.7	-92.6	9.4
2025-01-19 08:19:53.231501	182.6	19.6	-92.6	9.8
2025-01-19 08:19:54.395606	182.6	19.4	-92.8	5.7
2025-01-19 08:19:55.556429	182.7	19.3	-92.7	9.3
2025-01-19 08:19:56.720071	182.8	19.1	-92.8	8.2
2025-01-19 08:19:57.871880	182.9	19.0	-92.6	5.9
2025-01-19 08:19:59.042054	182.9	18.9	-93.1	5.0
2025-01-19 08:20:00.197663	183.0	18.7	-92.5	4.4
2025-01-19 08:20:01.354591	183.1	18.6	-92.7	3.8
2025-01-19 08:20:02.518676	183.2	18.4	-93.0	3.8
2025-01-19 08:20:03.680989	183.2	18.3	-93.2	4.9
2025-01-19 08:20:04.841229	183.3	18.2	-92.8	4.4
2025-01-19 08:20:06.004788	183.4	18.0	-93.1	5.1
2025-01-19 08:20:07.157529	183.5	17.9	-93.0	3.1
2025-01-19 08:20:08.315490	183.5	17.8	-92.7	3.9
2025-01-19 08:20:09.474987	183.6	17.6	-92.5	2.9
2025-01-19 08:20:10.636874	183.7	17.5	-92.4	4.1
2025-01-19 08:20:11.799871	183.7	17.4	-92.5	5.5
2025-01-19 08:20:12.964272	183.8	17.3	-93.2	2.7
2025-01-19 08:20:14.122961	183.9	17.1	-92.8	3.9
2025-01-19 08:20:15.281579	183.9	17.0	-92.7	5.0
2025-01-19 08:20:16.441738	184.0	16.9	-93.1	2.7
2025-01-19 08:20:17.603162	184.1	16.7	-93.0	6.8
2025-01-19 08:20:18.769525	184.1	16.6	-92.6	7.5
2025-01-19 08:20:19.931540	184.2	16.5	-93.1	5.9
2025-01-19 08:20:21.099420	184.3	16.4	-92.8	6.4
2025-01-19 08:20:22.270414	184.3	16.2	-92.8	6.6
2025-01-19 08:20:23.430283	184.4	16.1	-92.8	6.1
2025-01-19 08:20:24.598092	184.5	16.0	-93.0	6.5
2025-01-19 08:20:25.757836	184.5	15.9	-93.0	7.0
2025-01-19 08:20:26.919441	184.6	15.7	-92.9	5.2
2025-01-19 08:20:28.079761	184.7	15.6	-92.8	5.6
2025-01-19 08:20:29.240695	184.7	15.5	-93.0	8.3
2025-01-19 08:20:30.401464	184.8	15.4	-92.8	7.2
2025-01-19 08:20:31.566400	184.8	15.3	-93.1	7.2
2025-01-19 08:20:32.730817	184.9	15.1	-93.3	8.4
2025-01-19 08:20:33.899162	185.0	15.0	-93.2	9.9
2025-01-19 08:20:35.065753	185.0	14.9	-93.1	6.8
2025-01-19 08:20:36.230745	185.1	14.8	-93.2	8.0
2025-01-19 08:20:37.394949	185.1	14.7	-93.1	5.4
2025-01-19 08:20:38.541169	185.2	14.5	-92.8	4.9
#Closed at: 2025-01-19 08:11:33.418936