passes_logs/2025/01/19/LEX_Murmansk/LEX_Murmansk__20250119_183542_NOAA_18_rec.log

#Pass ID: 20250119_183542_NOAA 18
#Satellite: NOAA 18
#Configuration: NOAA 18
#Start time: 2025-01-19 18:35:37.296337

#LorettStation: 1.0.0 05.05.2024
#Station: LEX_Murmansk
#Location: 33.156738 lon 68.926811 lat
#TLE: 1 28654U 05018A   25019.12683114  .00000403  00000+0  23745-3 0  9992
#TLE: 2 28654  98.8559 100.1402 0014536 167.7337 192.4191 14.13490232 13765

#Time	Az	El	Level	SNR
2025-01-19 18:35:49.446380	143.4	16.3	-92.5	8.3
2025-01-19 18:35:50.603177	143.4	16.4	-92.6	9.3
2025-01-19 18:35:51.758546	143.3	16.6	-92.6	8.6
2025-01-19 18:35:52.913373	143.3	16.7	-92.7	4.7
2025-01-19 18:35:54.066847	143.3	16.8	-92.7	4.8
2025-01-19 18:35:55.216463	143.3	17.0	-92.0	6.2
2025-01-19 18:35:56.367686	143.3	17.1	-92.0	7.4
2025-01-19 18:35:57.517100	143.2	17.2	-92.5	7.7
2025-01-19 18:35:58.674532	143.2	17.4	-92.5	10.1
2025-01-19 18:35:59.836540	143.2	17.5	-92.8	10.1
2025-01-19 18:36:00.988537	143.2	17.6	-92.7	10.9
2025-01-19 18:36:02.148380	143.2	17.8	-92.4	9.9
2025-01-19 18:36:03.306246	143.1	17.9	-92.5	10.1
2025-01-19 18:36:04.464318	143.1	18.0	-92.8	11.9
2025-01-19 18:36:05.620064	143.1	18.2	-92.9	9.3
2025-01-19 18:36:06.775503	143.1	18.3	-92.8	11.7
2025-01-19 18:36:07.933963	143.1	18.4	-93.0	7.2
2025-01-19 18:36:09.086597	143.0	18.6	-92.1	6.3
2025-01-19 18:36:10.244860	143.0	18.7	-92.7	11.5
2025-01-19 18:36:11.399259	143.0	18.9	-92.6	7.0
2025-01-19 18:36:12.563258	143.0	19.0	-92.5	9.6
2025-01-19 18:36:13.712295	142.9	19.1	-92.9	13.7
2025-01-19 18:36:14.878362	142.9	19.3	-92.9	14.3
2025-01-19 18:36:16.022479	142.9	19.4	-93.1	13.6
2025-01-19 18:36:17.185184	142.9	19.6	-92.8	13.2
2025-01-19 18:36:18.335468	142.8	19.7	-92.6	14.3
2025-01-19 18:36:19.489104	142.8	19.9	-92.7	13.5
2025-01-19 18:36:20.643805	142.8	20.0	-92.5	16.1
2025-01-19 18:36:21.803039	142.8	20.2	-92.5	14.7
2025-01-19 18:36:22.982638	142.7	20.3	-92.6	10.7
2025-01-19 18:36:24.146511	142.7	20.5	-92.6	11.3
2025-01-19 18:36:25.305003	142.7	20.6	-92.6	13.8
2025-01-19 18:36:26.457036	142.7	20.8	-92.3	6.2
2025-01-19 18:36:27.617829	142.6	20.9	-92.8	10.7
2025-01-19 18:36:28.780750	142.6	21.1	-93.0	13.8
2025-01-19 18:36:29.939902	142.6	21.2	-92.6	15.7
2025-01-19 18:36:31.102662	142.6	21.4	-92.3	13.4
2025-01-19 18:36:32.256199	142.5	21.6	-92.5	15.3
2025-01-19 18:36:33.412106	142.5	21.7	-92.5	11.7
2025-01-19 18:36:34.567812	142.5	21.9	-92.8	16.0
2025-01-19 18:36:35.723206	142.5	22.0	-92.7	16.0
2025-01-19 18:36:36.881238	142.4	22.2	-92.7	13.0
2025-01-19 18:36:38.041109	142.4	22.4	-92.8	10.6
2025-01-19 18:36:39.213618	142.4	22.5	-92.4	12.1
2025-01-19 18:36:40.372604	142.3	22.7	-92.1	7.9
2025-01-19 18:36:41.540100	142.3	22.8	-92.4	6.5
2025-01-19 18:36:42.700706	142.3	23.0	-92.6	15.2
2025-01-19 18:36:43.869332	142.2	23.2	-93.1	6.9
2025-01-19 18:36:45.018579	142.2	23.4	-92.8	7.8
2025-01-19 18:36:46.166375	142.2	23.5	-92.4	9.4
2025-01-19 18:36:47.322090	142.2	23.7	-92.7	5.9
2025-01-19 18:36:48.485979	142.1	23.9	-92.7	8.7
2025-01-19 18:36:49.641719	142.1	24.0	-92.4	13.5
2025-01-19 18:36:50.798598	142.1	24.2	-92.6	9.7
2025-01-19 18:36:51.952343	142.0	24.4	-92.9	15.8
2025-01-19 18:36:53.105868	142.0	24.6	-92.7	15.9
2025-01-19 18:36:54.264164	142.0	24.7	-92.3	16.5
2025-01-19 18:36:55.424216	141.9	24.9	-92.5	10.2
2025-01-19 18:36:56.574184	141.9	25.1	-92.9	6.3
2025-01-19 18:36:57.732975	141.8	25.3	-92.8	8.9
2025-01-19 18:36:58.886246	141.8	25.5	-92.7	7.0
2025-01-19 18:37:00.043428	141.8	25.6	-93.1	5.4
2025-01-19 18:37:01.201787	141.7	25.8	-92.5	11.4
2025-01-19 18:37:02.360300	141.7	26.0	-92.1	9.6
2025-01-19 18:37:03.519524	141.7	26.2	-92.6	12.4
2025-01-19 18:37:04.680894	141.6	26.4	-92.3	8.5
2025-01-19 18:37:05.819785	141.6	26.6	-93.2	5.6
2025-01-19 18:37:06.973317	141.5	26.8	-92.5	7.2
2025-01-19 18:37:08.142638	141.5	27.0	-93.1	6.8
2025-01-19 18:37:09.306181	141.5	27.1	-92.5	4.8
2025-01-19 18:37:10.467925	141.4	27.3	-93.0	4.9
2025-01-19 18:37:11.629106	141.4	27.5	-93.0	4.8
2025-01-19 18:37:12.781362	141.3	27.7	-93.0	6.7
2025-01-19 18:37:13.929299	141.3	27.9	-93.1	4.1
2025-01-19 18:37:15.096042	141.3	28.1	-92.7	3.5
2025-01-19 18:37:16.249232	141.2	28.3	-92.4	5.4
2025-01-19 18:37:17.407361	141.2	28.5	-92.9	5.0
2025-01-19 18:37:18.566489	141.1	28.7	-92.9	5.1
2025-01-19 18:37:19.726841	141.1	29.0	-91.5	7.5
2025-01-19 18:37:20.888182	141.0	29.2	-91.7	7.5
2025-01-19 18:37:22.045010	141.0	29.4	-91.6	6.1
2025-01-19 18:37:23.200950	140.9	29.6	-91.8	7.3
2025-01-19 18:37:24.345554	140.9	29.8	-91.6	5.0
2025-01-19 18:37:25.499585	140.8	30.0	-91.9	6.0
2025-01-19 18:37:26.653601	140.8	30.2	-93.2	7.4
2025-01-19 18:37:27.814079	140.7	30.4	-93.4	8.6
2025-01-19 18:37:28.979135	140.7	30.7	-93.1	7.7
2025-01-19 18:37:30.132929	140.6	30.9	-92.8	7.6
2025-01-19 18:37:31.292747	140.6	31.1	-92.3	9.2
2025-01-19 18:37:32.446179	140.5	31.3	-92.1	5.2
2025-01-19 18:37:33.606706	140.5	31.5	-93.1	6.7
2025-01-19 18:37:34.769209	140.4	31.8	-92.8	11.2
2025-01-19 18:37:35.917836	140.4	32.0	-92.8	13.4
2025-01-19 18:37:37.077764	140.3	32.2	-93.2	16.1
2025-01-19 18:37:38.231946	140.2	32.5	-92.5	12.6
2025-01-19 18:37:39.386629	140.2	32.7	-92.6	11.1
2025-01-19 18:37:40.545408	140.1	32.9	-92.6	13.2
2025-01-19 18:37:41.692294	140.1	33.2	-92.9	16.3
2025-01-19 18:37:42.849542	140.0	33.4	-92.7	18.1
2025-01-19 18:37:44.010592	139.9	33.6	-92.6	17.6
2025-01-19 18:37:45.168940	139.9	33.9	-92.6	14.3
2025-01-19 18:37:46.328036	139.8	34.1	-92.5	14.8
2025-01-19 18:37:47.490901	139.7	34.4	-92.5	7.1
2025-01-19 18:37:48.635304	139.7	34.6	-92.8	12.8
2025-01-19 18:37:49.797432	139.6	34.9	-92.7	12.9
2025-01-19 18:37:50.948861	139.5	35.1	-92.6	9.5
2025-01-19 18:37:52.112058	139.5	35.4	-92.4	12.7
2025-01-19 18:37:53.266413	139.4	35.6	-92.7	20.0
2025-01-19 18:37:54.419723	139.3	35.9	-92.8	20.2
2025-01-19 18:37:55.576419	139.3	36.2	-92.9	22.8
2025-01-19 18:37:56.734630	139.2	36.4	-92.6	20.0
2025-01-19 18:37:57.892215	139.1	36.7	-92.5	16.8
2025-01-19 18:37:59.050632	139.0	36.9	-91.9	22.1
2025-01-19 18:38:00.203977	139.0	37.2	-92.5	15.2
2025-01-19 18:38:01.361377	138.9	37.5	-92.6	15.5
2025-01-19 18:38:02.510042	138.8	37.8	-93.1	14.8
2025-01-19 18:38:03.667622	138.7	38.0	-92.9	13.4
2025-01-19 18:38:04.825841	138.6	38.3	-93.3	11.5
2025-01-19 18:38:05.979462	138.5	38.6	-92.8	7.5
2025-01-19 18:38:07.139753	138.5	38.9	-92.6	9.8
2025-01-19 18:38:08.299972	138.4	39.1	-92.8	15.7
2025-01-19 18:38:09.455674	138.3	39.4	-93.0	8.3
2025-01-19 18:38:10.612244	138.2	39.7	-92.3	14.5
2025-01-19 18:38:11.766323	138.1	40.0	-92.5	16.2
2025-01-19 18:38:12.931315	138.0	40.3	-91.7	21.6
2025-01-19 18:38:14.084524	137.9	40.6	-92.0	16.8
2025-01-19 18:38:15.243663	137.8	40.9	-92.4	21.9
2025-01-19 18:38:16.399591	137.7	41.2	-92.5	12.9
2025-01-19 18:38:17.555014	137.6	41.5	-92.6	15.0
2025-01-19 18:38:18.711994	137.5	41.8	-92.9	18.0
2025-01-19 18:38:19.872471	137.4	42.1	-92.6	17.6
2025-01-19 18:38:21.031988	137.3	42.4	-93.0	18.2
2025-01-19 18:38:22.192174	137.2	42.7	-92.7	15.9
2025-01-19 18:38:23.350102	137.0	43.0	-92.5	13.5
2025-01-19 18:38:24.512214	136.9	43.4	-93.1	9.7
2025-01-19 18:38:25.667870	136.8	43.7	-92.9	16.9
2025-01-19 18:38:26.825379	136.7	44.0	-92.9	18.4
2025-01-19 18:38:27.973444	136.6	44.3	-91.9	10.7
2025-01-19 18:38:29.132242	136.4	44.7	-91.1	15.6
2025-01-19 18:38:30.288247	136.3	45.0	-91.5	18.4
2025-01-19 18:38:31.456080	136.2	45.3	-91.7	15.0
2025-01-19 18:38:32.611350	136.0	45.6	-91.1	17.9
2025-01-19 18:38:33.775280	135.9	46.0	-91.5	19.4
2025-01-19 18:38:34.927205	135.8	46.3	-91.7	11.0
2025-01-19 18:38:36.085636	135.6	46.7	-91.8	13.2
2025-01-19 18:38:37.233426	135.5	47.0	-91.2	15.8
2025-01-19 18:38:38.397638	135.3	47.4	-91.6	11.5
2025-01-19 18:38:39.550091	135.2	47.7	-91.3	15.3
2025-01-19 18:38:40.707676	135.0	48.1	-92.6	13.4
2025-01-19 18:38:41.863711	134.8	48.4	-92.3	8.5
2025-01-19 18:38:43.014971	134.7	48.8	-92.7	7.8
2025-01-19 18:38:44.166634	134.5	49.1	-92.5	8.8
2025-01-19 18:38:45.317234	134.3	49.5	-92.0	8.2
2025-01-19 18:38:46.464154	134.2	49.8	-91.9	5.3
2025-01-19 18:38:47.618377	134.0	50.2	-92.6	6.5
2025-01-19 18:38:48.771410	133.8	50.6	-92.7	9.0
2025-01-19 18:38:49.928331	133.6	51.0	-92.6	8.3
2025-01-19 18:38:51.081449	133.4	51.3	-92.7	15.4
2025-01-19 18:38:52.226288	133.2	51.7	-92.3	13.2
2025-01-19 18:38:53.378530	133.0	52.1	-92.2	15.2
2025-01-19 18:38:54.532531	132.8	52.5	-92.6	19.0
2025-01-19 18:38:55.690426	132.6	52.9	-92.1	16.3
2025-01-19 18:38:56.844750	132.4	53.2	-92.5	15.4
2025-01-19 18:38:58.001131	132.1	53.6	-92.4	13.0
2025-01-19 18:38:59.153270	131.9	54.0	-91.9	12.3
2025-01-19 18:39:00.304165	131.7	54.4	-92.1	16.9
2025-01-19 18:39:01.457150	131.4	54.8	-92.3	16.4
2025-01-19 18:39:02.604496	131.1	55.2	-92.5	23.8
2025-01-19 18:39:03.750056	130.9	55.6	-92.5	20.1
2025-01-19 18:39:04.891259	130.6	56.0	-92.8	19.5
2025-01-19 18:39:06.011668	130.3	56.4	-92.6	12.9
2025-01-19 18:39:07.132232	130.1	56.8	-92.1	15.2
2025-01-19 18:39:08.253880	129.8	57.2	-92.1	12.4
2025-01-19 18:39:09.375109	129.5	57.6	-92.3	11.0
2025-01-19 18:39:10.495034	129.2	58.0	-92.7	7.3
2025-01-19 18:39:11.615111	128.9	58.4	-92.4	15.4
2025-01-19 18:39:12.735516	128.5	58.8	-92.3	22.5
2025-01-19 18:39:13.856542	128.2	59.2	-92.4	21.6
2025-01-19 18:39:14.994434	127.9	59.7	-93.2	20.3
2025-01-19 18:39:16.135202	127.5	60.1	-92.3	19.9
2025-01-19 18:39:17.285708	127.1	60.5	-91.9	15.2
2025-01-19 18:39:18.437344	126.7	60.9	-92.6	21.1
2025-01-19 18:39:19.582740	126.3	61.4	-92.2	21.0
2025-01-19 18:39:20.734687	125.9	61.8	-92.4	26.5
2025-01-19 18:39:21.891665	125.5	62.2	-92.5	14.2
2025-01-19 18:39:23.040301	125.0	62.7	-93.0	11.8
2025-01-19 18:39:24.204929	124.5	63.1	-92.3	15.1
2025-01-19 18:39:25.361066	124.0	63.5	-92.6	17.8
2025-01-19 18:39:26.514224	123.5	64.0	-92.8	12.2
2025-01-19 18:39:27.660874	123.0	64.4	-92.5	17.6
2025-01-19 18:39:28.818045	122.5	64.8	-92.3	16.0
2025-01-19 18:39:29.979432	121.9	65.3	-92.8	16.3
2025-01-19 18:39:31.135110	121.3	65.7	-92.3	18.0
2025-01-19 18:39:32.293226	120.7	66.2	-92.5	17.6
2025-01-19 18:39:33.450801	120.0	66.6	-92.0	18.3
2025-01-19 18:39:34.617854	119.4	67.1	-92.6	13.9
2025-01-19 18:39:35.775886	118.7	67.5	-92.3	14.1
2025-01-19 18:39:36.936213	117.9	67.9	-92.8	9.4
2025-01-19 18:39:38.090544	117.2	68.4	-92.6	7.5
2025-01-19 18:39:39.245592	116.4	68.8	-92.0	18.6
2025-01-19 18:39:40.408334	115.5	69.2	-92.5	8.2
2025-01-19 18:39:41.573789	114.7	69.7	-92.4	12.2
2025-01-19 18:39:42.732233	113.7	70.1	-92.3	14.6
2025-01-19 18:39:43.893940	112.8	70.5	-92.3	18.0
2025-01-19 18:39:45.057235	111.8	70.9	-92.2	13.7
2025-01-19 18:39:46.219909	110.7	71.4	-92.1	14.5
2025-01-19 18:39:47.381798	109.6	71.8	-92.3	12.3
2025-01-19 18:39:48.531711	108.5	72.2	-92.8	16.6
2025-01-19 18:39:49.688798	107.3	72.6	-92.7	10.4
2025-01-19 18:39:50.840769	106.0	73.0	-92.5	20.0
2025-01-19 18:39:51.992516	104.7	73.4	-92.5	15.8
2025-01-19 18:39:53.150201	103.3	73.8	-92.5	19.0
2025-01-19 18:39:54.302391	101.8	74.1	-92.6	15.3
2025-01-19 18:39:55.458369	100.3	74.5	-93.1	7.3
2025-01-19 18:39:56.609806	98.7	74.8	-92.7	19.4
2025-01-19 18:39:57.777882	96.9	75.2	-92.6	16.4
2025-01-19 18:39:58.927499	95.2	75.5	-92.3	12.4
2025-01-19 18:40:00.083614	93.3	75.8	-92.5	6.3
2025-01-19 18:40:01.227706	91.4	76.1	-93.0	18.4
2025-01-19 18:40:02.387783	89.4	76.4	-93.1	16.1
2025-01-19 18:40:03.538287	87.2	76.7	-93.2	16.4
2025-01-19 18:40:04.704775	85.0	76.9	-92.9	23.5
2025-01-19 18:40:05.863387	82.7	77.2	-92.7	20.5
2025-01-19 18:40:07.022441	80.3	77.4	-92.9	11.4
2025-01-19 18:40:08.185092	77.9	77.6	-93.0	10.6
2025-01-19 18:40:09.338324	75.3	77.7	-92.5	12.2
2025-01-19 18:40:10.494270	72.8	77.9	-93.1	12.6
2025-01-19 18:40:11.652325	70.1	78.0	-92.4	23.1
2025-01-19 18:40:12.807352	67.4	78.1	-92.6	17.6
2025-01-19 18:40:13.967428	64.7	78.1	-92.7	25.8
2025-01-19 18:40:15.116178	61.9	78.2	-92.7	17.6
2025-01-19 18:40:16.267434	59.2	78.2	-92.8	17.3
2025-01-19 18:40:17.433620	56.4	78.2	-92.5	16.4
2025-01-19 18:40:18.593396	53.6	78.1	-92.8	23.0
2025-01-19 18:40:19.736364	50.9	78.1	-92.7	18.4
2025-01-19 18:40:20.894011	48.2	78.0	-92.6	15.8
2025-01-19 18:40:22.048399	45.6	77.8	-92.4	11.6
2025-01-19 18:40:23.204777	43.0	77.7	-92.8	20.8
2025-01-19 18:40:24.358161	40.5	77.5	-92.6	19.1
2025-01-19 18:40:25.503694	38.1	77.3	-92.7	12.1
2025-01-19 18:40:26.657682	35.7	77.1	-92.9	20.1
2025-01-19 18:40:27.809318	33.4	76.9	-92.9	20.6
2025-01-19 18:40:28.960843	31.2	76.6	-93.0	9.5
2025-01-19 18:40:30.123820	29.1	76.4	-92.7	19.3
2025-01-19 18:40:31.282767	27.1	76.1	-92.1	20.9
2025-01-19 18:40:32.440023	25.2	75.8	-92.2	7.5
2025-01-19 18:40:33.593493	23.3	75.5	-92.7	11.5
2025-01-19 18:40:34.755651	21.5	75.1	-92.9	21.1
2025-01-19 18:40:35.907319	19.9	74.8	-92.8	10.0
2025-01-19 18:40:37.063704	18.3	74.4	-92.8	11.6
2025-01-19 18:40:38.223247	16.7	74.1	-92.4	15.2
2025-01-19 18:40:39.380713	15.3	73.7	-92.9	11.6
2025-01-19 18:40:40.531754	13.9	73.3	-93.2	8.9
2025-01-19 18:40:41.703209	12.5	72.9	-92.7	11.9
2025-01-19 18:40:42.862928	11.3	72.5	-93.0	17.1
2025-01-19 18:40:44.018835	10.1	72.1	-93.3	11.7
2025-01-19 18:40:45.181699	8.9	71.7	-92.8	10.1
2025-01-19 18:40:46.340067	7.8	71.3	-92.1	12.2
2025-01-19 18:40:47.499148	6.8	70.9	-92.8	9.7
2025-01-19 18:40:48.656187	5.8	70.5	-93.1	15.4
2025-01-19 18:40:49.815310	4.8	70.0	-92.7	14.3
2025-01-19 18:40:50.975186	3.9	69.6	-92.6	6.3
2025-01-19 18:40:52.138013	3.1	69.2	-92.6	13.0
2025-01-19 18:40:53.297889	2.2	68.7	-92.7	20.0
2025-01-19 18:40:54.459381	1.4	68.3	-93.1	9.4
2025-01-19 18:40:55.619558	0.7	67.9	-93.0	8.6
2025-01-19 18:40:56.774399	360.0	67.4	-93.0	19.9
2025-01-19 18:40:57.936012	359.3	67.0	-93.1	11.4
2025-01-19 18:40:59.090864	358.6	66.5	-92.5	13.5
2025-01-19 18:41:00.247654	358.0	66.1	-92.5	20.2
2025-01-19 18:41:01.400551	357.3	65.7	-93.0	9.1
2025-01-19 18:41:02.558028	356.8	65.2	-92.7	8.5
2025-01-19 18:41:03.717125	356.2	64.8	-92.6	18.6
2025-01-19 18:41:04.878813	355.6	64.3	-92.8	10.5
2025-01-19 18:41:06.038330	355.1	63.9	-91.9	14.9
2025-01-19 18:41:07.188298	354.6	63.5	-92.5	10.5
2025-01-19 18:41:08.334076	354.1	63.0	-93.0	13.7
2025-01-19 18:41:09.492217	353.7	62.6	-92.5	9.6
2025-01-19 18:41:10.649681	353.2	62.2	-92.7	15.8
2025-01-19 18:41:11.798326	352.8	61.7	-92.7	15.4
2025-01-19 18:41:12.955598	352.4	61.3	-92.7	8.9
2025-01-19 18:41:14.115248	352.0	60.9	-92.6	14.6
2025-01-19 18:41:15.266433	351.6	60.4	-91.7	18.9
2025-01-19 18:41:16.423749	351.2	60.0	-93.2	8.7
2025-01-19 18:41:17.577725	350.8	59.6	-93.2	8.6
2025-01-19 18:41:18.731248	350.5	59.2	-93.4	11.5
2025-01-19 18:41:19.875190	350.1	58.7	-92.7	11.2
2025-01-19 18:41:20.995987	349.8	58.3	-92.4	9.8
2025-01-19 18:41:22.116610	349.5	57.9	-92.4	6.6
2025-01-19 18:41:23.236615	349.2	57.5	-93.0	6.8
2025-01-19 18:41:24.357124	348.9	57.1	-92.6	7.9
2025-01-19 18:41:25.478201	348.6	56.7	-92.8	10.4
2025-01-19 18:41:26.599589	348.3	56.3	-92.4	9.5
2025-01-19 18:41:27.721843	348.1	55.9	-93.0	6.1
2025-01-19 18:41:28.845053	347.8	55.5	-93.2	7.7
2025-01-19 18:41:29.976654	347.5	55.1	-92.9	5.8
2025-01-19 18:41:31.142106	347.3	54.7	-92.8	7.9
2025-01-19 18:41:32.295204	347.0	54.3	-92.6	8.5
2025-01-19 18:41:33.449977	346.8	53.9	-92.6	9.4
2025-01-19 18:41:34.595717	346.6	53.5	-92.7	12.7
2025-01-19 18:41:35.750171	346.3	53.2	-92.9	10.3
2025-01-19 18:41:36.906723	346.1	52.8	-92.2	6.6
2025-01-19 18:41:38.058945	345.9	52.4	-92.8	8.5
2025-01-19 18:41:39.209510	345.7	52.0	-93.0	11.9
2025-01-19 18:41:40.369830	345.5	51.6	-92.9	5.0
2025-01-19 18:41:41.526245	345.3	51.2	-93.1	5.2
2025-01-19 18:41:42.691467	345.1	50.9	-92.3	9.0
2025-01-19 18:41:43.846665	344.9	50.5	-93.3	7.7
2025-01-19 18:41:45.007751	344.7	50.1	-93.6	5.6
2025-01-19 18:41:46.162612	344.5	49.8	-92.6	10.4
2025-01-19 18:41:47.324557	344.4	49.4	-92.8	9.6
2025-01-19 18:41:48.474752	344.2	49.0	-92.5	15.8
2025-01-19 18:41:49.634339	344.0	48.7	-92.6	11.1
2025-01-19 18:41:50.798557	343.8	48.3	-92.8	18.0
2025-01-19 18:41:51.954759	343.7	48.0	-92.7	22.7
2025-01-19 18:41:53.105477	343.5	47.6	-92.4	24.4
2025-01-19 18:41:54.265029	343.4	47.3	-92.1	20.7
2025-01-19 18:41:55.426009	343.2	46.9	-92.7	16.6
2025-01-19 18:41:56.588426	343.1	46.6	-92.8	17.3
2025-01-19 18:41:57.744377	342.9	46.2	-92.9	16.5
2025-01-19 18:41:58.905877	342.8	45.9	-92.9	11.6
2025-01-19 18:42:00.068733	342.7	45.5	-92.2	14.5
2025-01-19 18:42:01.218749	342.5	45.2	-92.2	17.2
2025-01-19 18:42:02.373143	342.4	44.9	-92.4	11.7
2025-01-19 18:42:03.531945	342.3	44.6	-93.0	9.9
2025-01-19 18:42:04.682169	342.1	44.2	-93.1	21.8
2025-01-19 18:42:05.840591	342.0	43.9	-93.2	11.8
2025-01-19 18:42:06.995420	341.9	43.6	-93.2	17.5
2025-01-19 18:42:08.145696	341.8	43.3	-92.3	26.6
2025-01-19 18:42:09.295418	341.7	43.0	-92.8	23.6
2025-01-19 18:42:10.456187	341.6	42.6	-92.8	23.5
2025-01-19 18:42:11.615258	341.4	42.3	-92.7	21.8
2025-01-19 18:42:12.777744	341.3	42.0	-92.4	21.6
2025-01-19 18:42:13.940691	341.2	41.7	-92.9	19.1
2025-01-19 18:42:15.092708	341.1	41.4	-92.4	23.1
2025-01-19 18:42:16.252752	341.0	41.1	-92.3	23.1
2025-01-19 18:42:17.401605	340.9	40.8	-92.9	19.0
2025-01-19 18:42:18.564763	340.8	40.5	-92.9	14.7
2025-01-19 18:42:19.720242	340.7	40.2	-93.3	6.0
2025-01-19 18:42:20.878834	340.6	39.9	-93.0	14.1
2025-01-19 18:42:22.037075	340.5	39.6	-92.5	8.5
2025-01-19 18:42:23.199402	340.4	39.3	-92.9	9.5
2025-01-19 18:42:24.353707	340.4	39.1	-93.0	8.8
2025-01-19 18:42:25.508178	340.3	38.8	-92.0	4.8
2025-01-19 18:42:26.667035	340.2	38.5	-92.9	12.8
2025-01-19 18:42:27.824669	340.1	38.2	-93.1	16.0
2025-01-19 18:42:28.977577	340.0	37.9	-92.8	4.2
2025-01-19 18:42:30.127380	339.9	37.7	-92.4	13.5
2025-01-19 18:42:31.281402	339.9	37.4	-92.6	17.4
2025-01-19 18:42:32.440080	339.8	37.1	-92.6	10.1
2025-01-19 18:42:33.592595	339.7	36.9	-92.9	11.4
2025-01-19 18:42:34.748921	339.6	36.6	-93.0	9.9
2025-01-19 18:42:35.899658	339.5	36.3	-93.4	16.3
2025-01-19 18:42:37.047617	339.5	36.1	-92.8	12.4
2025-01-19 18:42:38.219032	339.4	35.8	-92.6	12.1
2025-01-19 18:42:39.373723	339.3	35.6	-92.9	10.9
2025-01-19 18:42:40.528593	339.3	35.3	-92.4	5.1
2025-01-19 18:42:41.682034	339.2	35.0	-92.9	14.6
2025-01-19 18:42:42.839682	339.1	34.8	-92.5	9.5
2025-01-19 18:42:43.997967	339.0	34.5	-92.8	6.4
2025-01-19 18:42:45.143025	339.0	34.3	-92.8	12.9
2025-01-19 18:42:46.300827	338.9	34.1	-93.1	12.6
2025-01-19 18:42:47.456214	338.9	33.8	-93.0	10.7
2025-01-19 18:42:48.616549	338.8	33.6	-92.8	10.4
2025-01-19 18:42:49.774335	338.7	33.3	-93.3	19.0
2025-01-19 18:42:50.932147	338.7	33.1	-92.9	15.1
2025-01-19 18:42:52.094892	338.6	32.8	-92.7	16.1
2025-01-19 18:42:53.245396	338.6	32.6	-92.6	16.3
2025-01-19 18:42:54.402416	338.5	32.4	-92.9	9.9
2025-01-19 18:42:55.555682	338.4	32.2	-92.5	6.4
2025-01-19 18:42:56.699683	338.4	31.9	-92.7	7.2
2025-01-19 18:42:57.845780	338.3	31.7	-93.4	14.2
2025-01-19 18:42:58.999838	338.3	31.5	-93.0	8.0
2025-01-19 18:43:00.146669	338.2	31.2	-92.0	11.6
2025-01-19 18:43:01.297002	338.2	31.0	-92.1	18.7
2025-01-19 18:43:02.471822	338.1	30.8	-92.7	12.8
2025-01-19 18:43:03.622359	338.1	30.6	-92.7	10.6
2025-01-19 18:43:04.776107	338.0	30.4	-92.6	19.0
2025-01-19 18:43:05.930514	338.0	30.2	-92.9	14.8
2025-01-19 18:43:07.087316	337.9	29.9	-93.1	5.6
2025-01-19 18:43:08.232088	337.9	29.7	-92.6	10.5
2025-01-19 18:43:09.388659	337.8	29.5	-92.5	7.9
2025-01-19 18:43:10.542675	337.8	29.3	-92.4	13.2
2025-01-19 18:43:11.699007	337.7	29.1	-92.7	7.2
2025-01-19 18:43:12.860991	337.7	28.9	-92.2	11.8
2025-01-19 18:43:14.017334	337.6	28.7	-93.0	11.2
2025-01-19 18:43:15.166353	337.6	28.5	-92.9	15.1
2025-01-19 18:43:16.315372	337.5	28.3	-92.3	4.9
2025-01-19 18:43:17.472679	337.5	28.1	-91.5	6.1
2025-01-19 18:43:18.629581	337.5	27.9	-93.1	4.1
2025-01-19 18:43:19.789784	337.4	27.7	-93.1	7.9
2025-01-19 18:43:20.947955	337.4	27.5	-92.9	6.8
2025-01-19 18:43:22.105248	337.3	27.3	-92.2	5.0
2025-01-19 18:43:23.271599	337.3	27.1	-92.4	8.8
2025-01-19 18:43:24.427448	337.2	26.9	-93.1	9.3
2025-01-19 18:43:25.577102	337.2	26.7	-92.8	7.3
2025-01-19 18:43:26.728517	337.2	26.5	-92.9	9.0
2025-01-19 18:43:27.878245	337.1	26.3	-92.3	5.7
2025-01-19 18:43:29.028876	337.1	26.1	-92.5	6.0
2025-01-19 18:43:30.188699	337.1	26.0	-92.8	10.1
2025-01-19 18:43:31.350298	337.0	25.8	-93.0	14.8
2025-01-19 18:43:32.506522	337.0	25.6	-92.5	5.5
2025-01-19 18:43:33.652527	336.9	25.4	-92.8	4.9
2025-01-19 18:43:34.809274	336.9	25.2	-92.6	12.9
2025-01-19 18:43:35.967781	336.9	25.0	-92.7	7.4
2025-01-19 18:43:37.130607	336.8	24.9	-92.2	9.6
2025-01-19 18:43:38.281515	336.8	24.7	-92.4	11.2
2025-01-19 18:43:39.433181	336.8	24.5	-92.7	8.4
2025-01-19 18:43:40.589504	336.7	24.3	-92.4	9.4
2025-01-19 18:43:41.745425	336.7	24.2	-92.8	5.2
2025-01-19 18:43:42.895465	336.7	24.0	-92.7	6.3
2025-01-19 18:43:44.046398	336.6	23.8	-92.7	6.3
2025-01-19 18:43:45.202173	336.6	23.6	-92.4	16.5
2025-01-19 18:43:46.357333	336.6	23.5	-92.5	6.5
2025-01-19 18:43:47.506944	336.5	23.3	-92.9	13.5
2025-01-19 18:43:48.666320	336.5	23.1	-92.8	8.2
2025-01-19 18:43:49.818110	336.5	23.0	-92.0	12.3
2025-01-19 18:43:50.972589	336.5	22.8	-92.3	4.0
2025-01-19 18:43:52.132055	336.4	22.6	-92.3	7.5
2025-01-19 18:43:53.289155	336.4	22.5	-92.9	12.9
2025-01-19 18:43:54.441950	336.4	22.3	-92.9	7.2
2025-01-19 18:43:55.599883	336.3	22.1	-92.6	5.1
2025-01-19 18:43:56.759220	336.3	22.0	-93.0	11.3
2025-01-19 18:43:57.919367	336.3	21.8	-92.2	3.6
2025-01-19 18:43:59.075608	336.3	21.7	-92.3	5.4
2025-01-19 18:44:00.227888	336.2	21.5	-92.3	9.9
2025-01-19 18:44:01.382364	336.2	21.4	-92.9	8.6
2025-01-19 18:44:02.538789	336.2	21.2	-92.8	12.4
2025-01-19 18:44:03.685175	336.2	21.0	-92.3	3.2
2025-01-19 18:44:04.847241	336.1	20.9	-92.0	5.2
2025-01-19 18:44:06.000934	336.1	20.7	-92.1	7.0
2025-01-19 18:44:07.151965	336.1	20.6	-91.6	5.9
2025-01-19 18:44:08.302902	336.1	20.4	-92.3	6.0
2025-01-19 18:44:09.468585	336.0	20.3	-92.7	4.7
2025-01-19 18:44:10.629284	336.0	20.1	-92.9	3.4
2025-01-19 18:44:11.786046	336.0	20.0	-92.8	5.1
2025-01-19 18:44:12.946189	336.0	19.8	-93.0	2.2
2025-01-19 18:44:14.100882	335.9	19.7	-92.5	2.4
2025-01-19 18:44:15.255939	335.9	19.5	-92.7	4.6
2025-01-19 18:44:16.417395	335.9	19.4	-92.8	5.8
2025-01-19 18:44:17.568356	335.9	19.3	-92.7	7.3
2025-01-19 18:44:18.724521	335.8	19.1	-92.7	5.4
2025-01-19 18:44:19.874629	335.8	19.0	-91.9	5.1
2025-01-19 18:44:21.038687	335.8	18.8	-92.2	3.8
2025-01-19 18:44:22.195411	335.8	18.7	-92.6	8.1
2025-01-19 18:44:23.361998	335.7	18.5	-92.7	5.6
2025-01-19 18:44:24.522519	335.7	18.4	-93.1	5.6
2025-01-19 18:44:25.674893	335.7	18.3	-92.1	4.9
2025-01-19 18:44:26.836052	335.7	18.1	-92.7	5.0
2025-01-19 18:44:27.985353	335.7	18.0	-92.9	4.8
2025-01-19 18:44:29.136537	335.6	17.9	-92.1	5.6
2025-01-19 18:44:30.294899	335.6	17.7	-92.7	3.9
2025-01-19 18:44:31.447390	335.6	17.6	-92.5	3.9
2025-01-19 18:44:32.597278	335.6	17.4	-93.2	4.3
2025-01-19 18:44:33.756854	335.6	17.3	-92.8	4.1
2025-01-19 18:44:34.906857	335.5	17.2	-92.9	3.9
2025-01-19 18:44:36.068008	335.5	17.0	-92.6	2.9
2025-01-19 18:44:37.219732	335.5	16.9	-92.6	3.7
2025-01-19 18:44:38.365404	335.5	16.8	-92.4	5.7
2025-01-19 18:44:39.517440	335.5	16.7	-93.1	4.4
2025-01-19 18:44:40.672541	335.5	16.5	-92.6	4.5
2025-01-19 18:44:41.834287	335.4	16.4	-93.1	3.2
2025-01-19 18:44:42.997639	335.4	16.3	-92.9	2.9
2025-01-19 18:44:44.155259	335.4	16.1	-92.8	3.8
2025-01-19 18:44:45.309593	335.4	16.0	-92.9	6.3
2025-01-19 18:44:46.468141	335.4	15.9	-92.8	4.1
2025-01-19 18:44:47.637176	335.3	15.8	-89.0	4.8
2025-01-19 18:44:48.793666	335.3	15.6	-93.0	3.3
2025-01-19 18:44:49.943784	335.3	15.5	-92.9	4.7
2025-01-19 18:44:51.097160	335.3	15.4	-92.4	3.5
2025-01-19 18:44:52.252345	335.3	15.3	-92.6	3.1
2025-01-19 18:44:53.399696	335.3	15.1	-92.8	3.8
2025-01-19 18:44:54.554316	335.2	15.0	-92.5	5.4
2025-01-19 18:44:55.716771	335.2	14.9	-91.9	4.2
2025-01-19 18:44:56.877872	335.2	14.8	-92.7	5.4
2025-01-19 18:44:58.028819	335.2	14.7	-93.1	5.3
2025-01-19 18:44:59.179375	335.2	14.5	-92.4	3.6
#Closed at: 2025-01-19 18:35:42.241879