passes_logs/2025/01/19/LEX_Murmansk/LEX_Murmansk__20250119_095222_NOAA_19_rec.log

#Pass ID: 20250119_095222_NOAA 19
#Satellite: NOAA 19
#Configuration: NOAA 19
#Start time: 2025-01-19 09:52:17.220332

#LorettStation: 1.0.0 05.05.2024
#Station: LEX_Murmansk
#Location: 33.156738 lon 68.926811 lat
#TLE: 1 33591U 09005A   25018.04840605  .00000325  00000+0  19728-3 0  9997
#TLE: 2 33591  99.0190  81.8343 0014373  49.4310 310.8111 14.13261983821977

#Time	Az	El	Level	SNR
2025-01-19 09:52:29.409261	23.8	16.3	-92.3	5.7
2025-01-19 09:52:30.566594	23.8	16.4	-92.2	5.3
2025-01-19 09:52:31.731352	23.7	16.5	-92.5	7.7
2025-01-19 09:52:32.890776	23.6	16.7	-92.2	2.9
2025-01-19 09:52:34.058293	23.6	16.8	-92.2	5.8
2025-01-19 09:52:35.219606	23.5	16.9	-92.2	4.7
2025-01-19 09:52:36.383854	23.4	17.0	-92.3	7.2
2025-01-19 09:52:37.545951	23.4	17.2	-92.2	14.5
2025-01-19 09:52:38.712695	23.3	17.3	-92.2	5.2
2025-01-19 09:52:39.872489	23.2	17.4	-92.4	5.4
2025-01-19 09:52:41.032597	23.1	17.6	-92.3	2.4
2025-01-19 09:52:42.194987	23.1	17.7	-92.2	1.8
2025-01-19 09:52:43.363419	23.0	17.8	-92.0	1.1
2025-01-19 09:52:44.529068	22.9	18.0	-92.3	6.6
2025-01-19 09:52:45.695321	22.9	18.1	-92.3	3.8
2025-01-19 09:52:46.864452	22.8	18.2	-92.2	7.7
2025-01-19 09:52:48.021564	22.7	18.4	-92.4	4.1
2025-01-19 09:52:49.187660	22.6	18.5	-92.1	6.8
2025-01-19 09:52:50.352379	22.6	18.6	-92.2	2.0
2025-01-19 09:52:51.519303	22.5	18.8	-92.4	10.5
2025-01-19 09:52:52.688047	22.4	18.9	-92.6	2.5
2025-01-19 09:52:53.847129	22.3	19.0	-92.5	12.1
2025-01-19 09:52:55.016244	22.3	19.2	-92.1	6.4
2025-01-19 09:52:56.176247	22.2	19.3	-92.2	1.3
2025-01-19 09:52:57.345392	22.1	19.5	-92.3	2.1
2025-01-19 09:52:58.502863	22.0	19.6	-92.6	0.0
2025-01-19 09:52:59.671144	21.9	19.8	-92.8	4.1
2025-01-19 09:53:00.830893	21.9	19.9	-92.6	4.3
2025-01-19 09:53:01.992959	21.8	20.0	-92.5	3.4
2025-01-19 09:53:03.161722	21.7	20.2	-92.2	5.2
2025-01-19 09:53:04.319176	21.6	20.3	-91.9	3.9
2025-01-19 09:53:05.484586	21.5	20.5	-92.2	7.0
2025-01-19 09:53:06.644568	21.4	20.6	-92.4	8.6
2025-01-19 09:53:07.818320	21.3	20.8	-92.3	3.0
2025-01-19 09:53:08.974852	21.3	20.9	-92.5	10.9
2025-01-19 09:53:10.137238	21.2	21.1	-92.8	13.0
2025-01-19 09:53:11.303548	21.1	21.2	-92.4	7.0
2025-01-19 09:53:12.467852	21.0	21.4	-92.8	3.9
2025-01-19 09:53:13.634637	20.9	21.5	-92.2	4.9
2025-01-19 09:53:14.798710	20.8	21.7	-92.4	0.4
2025-01-19 09:53:15.959478	20.7	21.8	-91.8	4.9
2025-01-19 09:53:17.122260	20.6	22.0	-92.2	1.4
2025-01-19 09:53:18.287053	20.5	22.1	-91.7	12.3
2025-01-19 09:53:19.444905	20.4	22.3	-92.4	8.7
2025-01-19 09:53:20.611980	20.3	22.4	-92.6	9.4
2025-01-19 09:53:21.776094	20.2	22.6	-92.9	6.8
2025-01-19 09:53:22.938070	20.1	22.8	-92.6	7.0
2025-01-19 09:53:24.108617	20.0	22.9	-92.3	7.9
2025-01-19 09:53:25.259764	19.9	23.1	-92.3	5.7
2025-01-19 09:53:26.426180	19.8	23.2	-92.4	13.1
2025-01-19 09:53:27.586236	19.7	23.4	-92.6	5.0
2025-01-19 09:53:28.744469	19.6	23.6	-93.0	5.7
2025-01-19 09:53:29.900349	19.5	23.7	-92.9	4.0
2025-01-19 09:53:31.061874	19.4	23.9	-92.6	1.8
2025-01-19 09:53:32.223243	19.3	24.1	-92.4	2.0
2025-01-19 09:53:33.390747	19.2	24.2	-92.3	2.5
2025-01-19 09:53:34.551898	19.1	24.4	-92.1	2.3
2025-01-19 09:53:35.719449	19.0	24.6	-92.8	7.7
2025-01-19 09:53:36.891847	18.8	24.7	-92.6	7.8
2025-01-19 09:53:38.051459	18.7	24.9	-92.6	9.2
2025-01-19 09:53:39.211993	18.6	25.1	-92.5	8.2
2025-01-19 09:53:40.369459	18.5	25.2	-92.4	3.8
2025-01-19 09:53:41.537002	18.4	25.4	-92.4	10.3
2025-01-19 09:53:42.695329	18.3	25.6	-92.3	7.2
2025-01-19 09:53:43.862520	18.1	25.8	-92.4	12.5
2025-01-19 09:53:45.027486	18.0	25.9	-92.4	8.2
2025-01-19 09:53:46.188640	17.9	26.1	-92.4	3.8
2025-01-19 09:53:47.350832	17.8	26.3	-92.8	0.9
2025-01-19 09:53:48.512213	17.6	26.5	-92.6	2.7
2025-01-19 09:53:49.682458	17.5	26.6	-92.5	3.1
2025-01-19 09:53:50.839194	17.4	26.8	-92.6	5.6
2025-01-19 09:53:52.019930	17.3	27.0	-92.7	11.6
2025-01-19 09:53:53.181189	17.1	27.2	-92.4	2.7
2025-01-19 09:53:54.340846	17.0	27.4	-92.4	9.0
2025-01-19 09:53:55.502479	16.9	27.6	-92.3	3.0
2025-01-19 09:53:56.664995	16.7	27.8	-92.4	3.2
2025-01-19 09:53:57.829819	16.6	27.9	-92.5	5.8
2025-01-19 09:53:58.994144	16.4	28.1	-92.6	9.0
2025-01-19 09:54:00.152492	16.3	28.3	-92.3	5.3
2025-01-19 09:54:01.311463	16.1	28.5	-92.5	3.2
2025-01-19 09:54:02.479191	16.0	28.7	-92.8	5.7
2025-01-19 09:54:03.639501	15.9	28.9	-92.8	3.6
2025-01-19 09:54:04.796693	15.7	29.1	-92.6	2.3
2025-01-19 09:54:05.956374	15.6	29.3	-92.7	2.8
2025-01-19 09:54:07.124607	15.4	29.5	-92.4	0.9
2025-01-19 09:54:08.285516	15.2	29.7	-92.3	3.0
2025-01-19 09:54:09.444383	15.1	29.9	-92.6	5.7
2025-01-19 09:54:10.609846	14.9	30.1	-93.2	6.1
2025-01-19 09:54:11.775175	14.8	30.3	-93.2	5.7
2025-01-19 09:54:12.939239	14.6	30.5	-93.1	8.3
2025-01-19 09:54:14.109867	14.4	30.7	-92.8	6.8
2025-01-19 09:54:15.273301	14.3	30.9	-92.6	8.9
2025-01-19 09:54:16.435621	14.1	31.1	-92.8	10.0
2025-01-19 09:54:17.600012	13.9	31.3	-92.9	8.2
2025-01-19 09:54:18.763010	13.8	31.5	-92.6	7.5
2025-01-19 09:54:19.932460	13.6	31.7	-92.9	6.8
2025-01-19 09:54:21.095995	13.4	31.9	-92.9	4.6
2025-01-19 09:54:22.262148	13.2	32.1	-92.7	4.4
2025-01-19 09:54:23.428318	13.0	32.3	-92.7	3.3
2025-01-19 09:54:24.590873	12.8	32.6	-92.9	3.1
2025-01-19 09:54:25.754120	12.7	32.8	-92.7	0.8
2025-01-19 09:54:26.919213	12.5	33.0	-93.0	6.6
2025-01-19 09:54:28.080170	12.3	33.2	-93.0	6.4
2025-01-19 09:54:29.240785	12.1	33.4	-92.9	6.3
2025-01-19 09:54:30.405944	11.9	33.6	-93.2	10.3
2025-01-19 09:54:31.574491	11.7	33.9	-93.0	15.7
2025-01-19 09:54:32.736159	11.5	34.1	-92.9	5.7
2025-01-19 09:54:33.906653	11.3	34.3	-92.4	11.0
2025-01-19 09:54:35.072223	11.0	34.5	-92.9	4.8
2025-01-19 09:54:36.234194	10.8	34.7	-92.4	15.0
2025-01-19 09:54:37.399014	10.6	35.0	-92.9	17.7
2025-01-19 09:54:38.559374	10.4	35.2	-93.1	9.1
2025-01-19 09:54:39.727210	10.2	35.4	-92.7	11.2
2025-01-19 09:54:40.892108	9.9	35.7	-92.6	13.3
2025-01-19 09:54:42.061641	9.7	35.9	-92.4	4.4
2025-01-19 09:54:43.226059	9.5	36.1	-92.5	3.5
2025-01-19 09:54:44.394422	9.3	36.4	-92.9	3.8
2025-01-19 09:54:45.558028	9.0	36.6	-92.7	8.0
2025-01-19 09:54:46.722212	8.8	36.8	-92.6	5.2
2025-01-19 09:54:47.891150	8.5	37.1	-92.3	7.2
2025-01-19 09:54:49.055211	8.3	37.3	-92.3	3.4
2025-01-19 09:54:50.222899	8.0	37.5	-92.4	5.7
2025-01-19 09:54:51.393111	7.8	37.8	-92.6	12.7
2025-01-19 09:54:52.548866	7.5	38.0	-93.2	12.5
2025-01-19 09:54:53.718676	7.2	38.3	-93.0	5.4
2025-01-19 09:54:54.882638	7.0	38.5	-92.7	12.9
2025-01-19 09:54:56.052245	6.7	38.7	-92.5	9.2
2025-01-19 09:54:57.216016	6.4	39.0	-92.7	7.3
2025-01-19 09:54:58.378061	6.1	39.2	-92.4	8.6
2025-01-19 09:54:59.541899	5.8	39.5	-93.1	9.5
2025-01-19 09:55:00.697336	5.6	39.7	-93.0	17.8
2025-01-19 09:55:01.859771	5.3	40.0	-93.2	7.2
2025-01-19 09:55:03.021660	5.0	40.2	-92.7	6.3
2025-01-19 09:55:04.187991	4.7	40.5	-92.9	4.1
2025-01-19 09:55:05.356740	4.3	40.7	-92.7	4.0
2025-01-19 09:55:06.522138	4.0	41.0	-92.9	4.1
2025-01-19 09:55:07.679798	3.7	41.2	-92.7	9.3
2025-01-19 09:55:08.845753	3.4	41.5	-93.1	16.8
2025-01-19 09:55:10.008198	3.1	41.7	-93.1	6.5
2025-01-19 09:55:11.181421	2.7	42.0	-92.6	13.8
2025-01-19 09:55:12.348999	2.4	42.2	-92.6	2.8
2025-01-19 09:55:13.510758	2.0	42.5	-92.5	20.6
2025-01-19 09:55:14.668671	1.7	42.7	-92.7	17.8
2025-01-19 09:55:15.832128	1.3	43.0	-92.7	7.9
2025-01-19 09:55:17.009811	1.0	43.2	-92.8	15.6
2025-01-19 09:55:18.179646	0.6	43.5	-92.7	14.1
2025-01-19 09:55:19.337391	0.2	43.8	-92.4	16.9
2025-01-19 09:55:20.496542	359.8	44.0	-93.0	17.3
2025-01-19 09:55:21.666063	359.5	44.3	-92.9	20.4
2025-01-19 09:55:22.833728	359.1	44.5	-93.0	16.8
2025-01-19 09:55:23.999377	358.7	44.8	-93.2	10.8
2025-01-19 09:55:25.166383	358.3	45.0	-93.0	8.0
2025-01-19 09:55:26.332598	357.8	45.3	-92.7	5.9
2025-01-19 09:55:27.493175	357.4	45.6	-93.0	4.5
2025-01-19 09:55:28.657967	357.0	45.8	-93.1	4.9
2025-01-19 09:55:29.820548	356.6	46.1	-92.5	6.9
2025-01-19 09:55:30.992837	356.1	46.3	-93.0	7.8
2025-01-19 09:55:32.154597	355.7	46.6	-92.8	15.3
2025-01-19 09:55:33.313511	355.2	46.8	-92.7	6.2
2025-01-19 09:55:34.477175	354.8	47.1	-92.4	15.1
2025-01-19 09:55:35.643902	354.3	47.4	-92.6	15.9
2025-01-19 09:55:36.822088	353.8	47.6	-93.0	7.5
2025-01-19 09:55:37.988919	353.3	47.9	-93.1	13.1
2025-01-19 09:55:39.152144	352.8	48.1	-92.8	8.9
2025-01-19 09:55:40.320069	352.3	48.4	-92.7	3.3
2025-01-19 09:55:41.476022	351.8	48.6	-93.0	12.4
2025-01-19 09:55:42.641024	351.3	48.9	-92.7	11.9
2025-01-19 09:55:43.815118	350.8	49.1	-92.6	9.5
2025-01-19 09:55:44.980791	350.2	49.4	-93.2	9.4
2025-01-19 09:55:46.146404	349.7	49.6	-92.8	11.4
2025-01-19 09:55:47.309027	349.1	49.9	-92.9	10.7
2025-01-19 09:55:48.479795	348.5	50.1	-92.8	4.9
2025-01-19 09:55:49.633898	348.0	50.4	-92.9	4.6
2025-01-19 09:55:50.795493	347.4	50.6	-92.6	8.6
2025-01-19 09:55:51.954053	346.8	50.8	-92.1	8.8
2025-01-19 09:55:53.123744	346.2	51.1	-92.5	5.9
2025-01-19 09:55:54.284725	345.6	51.3	-92.4	1.8
2025-01-19 09:55:55.454009	345.0	51.5	-93.0	4.0
2025-01-19 09:55:56.618169	344.3	51.8	-92.9	2.4
2025-01-19 09:55:57.783675	343.7	52.0	-93.1	3.9
2025-01-19 09:55:58.934531	343.1	52.2	-93.2	4.5
2025-01-19 09:56:00.096001	342.4	52.4	-92.9	8.9
2025-01-19 09:56:01.254062	341.7	52.6	-92.9	9.9
2025-01-19 09:56:02.425644	341.1	52.9	-92.9	9.4
2025-01-19 09:56:03.593255	340.4	53.1	-92.5	19.6
2025-01-19 09:56:04.751841	339.7	53.3	-92.5	9.2
2025-01-19 09:56:05.913165	339.0	53.5	-92.5	11.3
2025-01-19 09:56:07.081977	338.3	53.7	-92.5	4.8
2025-01-19 09:56:08.249695	337.5	53.9	-92.8	1.0
2025-01-19 09:56:09.402777	336.8	54.1	-92.5	5.4
2025-01-19 09:56:10.568169	336.0	54.3	-93.1	2.0
2025-01-19 09:56:11.733222	335.3	54.4	-92.6	7.8
2025-01-19 09:56:12.900218	334.5	54.6	-92.8	5.5
2025-01-19 09:56:14.065731	333.7	54.8	-93.0	4.6
2025-01-19 09:56:15.223589	333.0	55.0	-92.7	9.4
2025-01-19 09:56:16.394419	332.2	55.1	-92.6	10.2
2025-01-19 09:56:17.556207	331.4	55.3	-92.7	8.4
2025-01-19 09:56:18.723867	330.5	55.4	-92.4	11.2
2025-01-19 09:56:19.884230	329.7	55.6	-92.5	2.7
2025-01-19 09:56:21.048653	328.9	55.7	-92.5	8.5
2025-01-19 09:56:22.210860	328.1	55.9	-92.3	14.8
2025-01-19 09:56:23.371749	327.2	56.0	-92.3	13.2
2025-01-19 09:56:24.539802	326.3	56.1	-91.8	9.8
2025-01-19 09:56:25.697752	325.5	56.2	-92.2	5.5
2025-01-19 09:56:26.861131	324.6	56.4	-92.7	11.0
2025-01-19 09:56:28.024833	323.7	56.5	-92.6	10.6
2025-01-19 09:56:29.180870	322.9	56.6	-92.1	4.8
2025-01-19 09:56:30.343420	322.0	56.7	-92.3	6.3
2025-01-19 09:56:31.521912	321.1	56.8	-92.5	7.3
2025-01-19 09:56:32.687103	320.2	56.8	-92.4	3.3
2025-01-19 09:56:33.851037	319.3	56.9	-92.4	4.8
2025-01-19 09:56:35.013266	318.3	57.0	-92.6	5.0
2025-01-19 09:56:36.179658	317.4	57.0	-92.3	4.1
2025-01-19 09:56:37.341246	316.5	57.1	-92.8	3.6
2025-01-19 09:56:38.506145	315.6	57.1	-92.7	5.5
2025-01-19 09:56:39.682030	314.7	57.2	-92.5	4.8
2025-01-19 09:56:40.842440	313.7	57.2	-92.2	4.2
2025-01-19 09:56:42.014520	312.8	57.2	-92.5	11.6
2025-01-19 09:56:43.181419	311.9	57.3	-92.3	7.5
2025-01-19 09:56:44.351840	310.9	57.3	-92.1	9.2
2025-01-19 09:56:45.517432	310.0	57.3	-92.4	13.3
2025-01-19 09:56:46.675968	309.1	57.3	-92.3	15.2
2025-01-19 09:56:47.833317	308.1	57.3	-92.0	10.2
2025-01-19 09:56:48.996393	307.2	57.2	-92.3	9.6
2025-01-19 09:56:50.158618	306.3	57.2	-92.2	7.0
2025-01-19 09:56:51.318532	305.3	57.2	-92.5	14.6
2025-01-19 09:56:52.480462	304.4	57.1	-92.5	10.8
2025-01-19 09:56:53.649710	303.5	57.1	-92.6	12.7
2025-01-19 09:56:54.814330	302.6	57.0	-92.5	9.3
2025-01-19 09:56:55.982799	301.6	57.0	-92.7	19.9
2025-01-19 09:56:57.146383	300.7	56.9	-92.6	19.7
2025-01-19 09:56:58.314086	299.8	56.8	-92.3	16.1
2025-01-19 09:56:59.473736	298.9	56.8	-92.4	16.5
2025-01-19 09:57:00.631412	298.0	56.7	-92.7	12.6
2025-01-19 09:57:01.801707	297.1	56.6	-92.8	14.8
2025-01-19 09:57:02.964863	296.3	56.5	-92.7	10.5
2025-01-19 09:57:04.131066	295.4	56.4	-92.5	12.5
2025-01-19 09:57:05.291204	294.5	56.2	-92.7	16.9
2025-01-19 09:57:06.452698	293.7	56.1	-92.9	9.6
2025-01-19 09:57:07.615979	292.8	56.0	-92.7	15.8
2025-01-19 09:57:08.779524	292.0	55.9	-92.3	7.1
2025-01-19 09:57:09.940026	291.1	55.7	-92.4	12.3
2025-01-19 09:57:11.103710	290.3	55.6	-92.6	9.9
2025-01-19 09:57:12.269834	289.5	55.4	-92.9	10.0
2025-01-19 09:57:13.432725	288.6	55.3	-93.3	9.1
2025-01-19 09:57:14.597135	287.8	55.1	-92.9	11.8
2025-01-19 09:57:15.761936	287.0	55.0	-92.9	8.1
2025-01-19 09:57:16.929494	286.3	54.8	-92.6	10.4
2025-01-19 09:57:18.092838	285.5	54.6	-92.7	7.0
2025-01-19 09:57:19.250903	284.7	54.4	-92.4	12.3
2025-01-19 09:57:20.409124	284.0	54.3	-92.9	11.4
2025-01-19 09:57:21.564989	283.2	54.1	-92.7	15.4
2025-01-19 09:57:22.730771	282.5	53.9	-92.5	16.2
2025-01-19 09:57:23.895807	281.8	53.7	-92.7	11.5
2025-01-19 09:57:25.066284	281.0	53.5	-92.8	9.9
2025-01-19 09:57:26.227959	280.3	53.3	-92.7	17.2
2025-01-19 09:57:27.392951	279.6	53.1	-92.9	10.3
2025-01-19 09:57:28.556371	278.9	52.9	-92.9	14.5
2025-01-19 09:57:29.729070	278.3	52.6	-93.0	9.7
2025-01-19 09:57:30.893980	277.6	52.4	-93.0	15.0
2025-01-19 09:57:32.054543	276.9	52.2	-93.1	18.4
2025-01-19 09:57:33.224683	276.3	52.0	-93.0	12.6
2025-01-19 09:57:34.381168	275.7	51.8	-92.6	19.8
2025-01-19 09:57:35.561272	275.0	51.5	-93.0	21.9
2025-01-19 09:57:36.724067	274.4	51.3	-93.1	17.8
2025-01-19 09:57:37.888162	273.8	51.1	-93.2	18.6
2025-01-19 09:57:39.051666	273.2	50.8	-92.9	21.6
2025-01-19 09:57:40.207567	272.6	50.6	-92.8	12.9
2025-01-19 09:57:41.372830	272.0	50.3	-92.9	15.1
2025-01-19 09:57:42.537846	271.4	50.1	-92.5	16.1
2025-01-19 09:57:43.703154	270.9	49.9	-92.4	16.2
2025-01-19 09:57:44.864106	270.3	49.6	-92.3	15.9
2025-01-19 09:57:46.025581	269.8	49.4	-92.7	20.2
2025-01-19 09:57:47.190159	269.2	49.1	-92.9	15.1
2025-01-19 09:57:48.358617	268.7	48.9	-92.8	16.3
2025-01-19 09:57:49.519225	268.2	48.6	-93.2	19.6
2025-01-19 09:57:50.686721	267.7	48.4	-93.1	19.2
2025-01-19 09:57:51.852273	267.2	48.1	-93.2	13.1
2025-01-19 09:57:53.013451	266.7	47.9	-92.9	17.4
2025-01-19 09:57:54.182277	266.2	47.6	-93.0	7.7
2025-01-19 09:57:55.343977	265.7	47.4	-93.0	10.8
2025-01-19 09:57:56.506869	265.3	47.1	-92.5	14.2
2025-01-19 09:57:57.667003	264.8	46.9	-92.7	9.0
2025-01-19 09:57:58.831732	264.3	46.6	-93.0	8.2
2025-01-19 09:57:59.992849	263.9	46.3	-93.4	8.7
2025-01-19 09:58:01.156360	263.5	46.1	-93.0	13.1
2025-01-19 09:58:02.326935	263.0	45.8	-93.0	7.3
2025-01-19 09:58:03.487373	262.6	45.6	-93.2	11.4
2025-01-19 09:58:04.650954	262.2	45.3	-92.9	6.7
2025-01-19 09:58:05.820224	261.8	45.1	-93.1	4.9
2025-01-19 09:58:06.980723	261.4	44.8	-92.7	14.9
2025-01-19 09:58:08.141376	261.0	44.5	-92.7	18.5
2025-01-19 09:58:09.307697	260.6	44.3	-92.7	6.2
2025-01-19 09:58:10.469009	260.2	44.0	-93.1	19.0
2025-01-19 09:58:11.636767	259.8	43.8	-92.9	14.6
2025-01-19 09:58:12.800727	259.4	43.5	-93.0	17.5
2025-01-19 09:58:13.962245	259.1	43.3	-92.8	19.9
2025-01-19 09:58:15.131731	258.7	43.0	-92.7	20.7
2025-01-19 09:58:16.296050	258.3	42.7	-93.0	13.9
2025-01-19 09:58:17.460114	258.0	42.5	-93.1	19.6
2025-01-19 09:58:18.623416	257.6	42.2	-93.2	15.3
2025-01-19 09:58:19.785628	257.3	42.0	-93.2	22.3
2025-01-19 09:58:20.949432	257.0	41.7	-92.9	18.0
2025-01-19 09:58:22.112956	256.6	41.5	-92.7	20.8
2025-01-19 09:58:23.280764	256.3	41.2	-92.8	17.5
2025-01-19 09:58:24.445576	256.0	41.0	-92.6	13.1
2025-01-19 09:58:25.609532	255.7	40.7	-92.6	10.3
2025-01-19 09:58:26.774114	255.4	40.5	-92.7	15.0
2025-01-19 09:58:27.939945	255.1	40.2	-92.6	9.6
2025-01-19 09:58:29.102986	254.8	40.0	-92.8	5.5
2025-01-19 09:58:30.263060	254.5	39.7	-92.9	4.2
2025-01-19 09:58:31.435449	254.2	39.5	-92.4	4.5
2025-01-19 09:58:32.592785	253.9	39.2	-92.7	3.3
2025-01-19 09:58:33.759573	253.6	39.0	-92.5	11.0
2025-01-19 09:58:34.921916	253.3	38.7	-92.5	4.8
2025-01-19 09:58:36.079443	253.1	38.5	-92.7	7.1
2025-01-19 09:58:37.244643	252.8	38.3	-92.8	9.2
2025-01-19 09:58:38.407163	252.5	38.0	-92.6	8.7
2025-01-19 09:58:39.578762	252.3	37.8	-92.9	10.7
2025-01-19 09:58:40.737380	252.0	37.5	-92.9	2.6
2025-01-19 09:58:41.902628	251.7	37.3	-92.8	7.1
2025-01-19 09:58:43.067267	251.5	37.1	-92.1	15.4
2025-01-19 09:58:44.231751	251.2	36.8	-92.5	4.5
2025-01-19 09:58:45.392981	251.0	36.6	-92.8	5.4
2025-01-19 09:58:46.560933	250.8	36.4	-93.0	17.4
2025-01-19 09:58:47.726369	250.5	36.1	-93.0	13.1
2025-01-19 09:58:48.890334	250.3	35.9	-93.1	13.8
2025-01-19 09:58:50.046469	250.1	35.7	-92.6	9.7
2025-01-19 09:58:51.209315	249.8	35.4	-92.5	12.8
2025-01-19 09:58:52.373276	249.6	35.2	-92.4	15.1
2025-01-19 09:58:53.533809	249.4	35.0	-92.5	7.9
2025-01-19 09:58:54.701415	249.2	34.8	-92.5	7.4
2025-01-19 09:58:55.863393	249.0	34.5	-92.6	13.5
2025-01-19 09:58:57.023557	248.8	34.3	-93.1	15.7
2025-01-19 09:58:58.188792	248.5	34.1	-92.8	17.1
2025-01-19 09:58:59.354597	248.3	33.9	-92.8	14.3
2025-01-19 09:59:00.514733	248.1	33.7	-92.7	15.4
2025-01-19 09:59:01.680005	247.9	33.4	-92.9	17.3
2025-01-19 09:59:02.847933	247.7	33.2	-92.6	17.5
2025-01-19 09:59:04.013597	247.5	33.0	-92.8	10.7
2025-01-19 09:59:05.180097	247.4	32.8	-92.8	21.8
2025-01-19 09:59:06.338285	247.2	32.6	-91.8	10.0
2025-01-19 09:59:07.502825	247.0	32.4	-92.8	13.3
2025-01-19 09:59:08.668448	246.8	32.1	-92.6	12.1
2025-01-19 09:59:09.824852	246.6	31.9	-92.6	19.1
2025-01-19 09:59:10.990551	246.4	31.7	-92.6	7.3
2025-01-19 09:59:12.152847	246.3	31.5	-92.4	13.5
2025-01-19 09:59:13.314811	246.1	31.3	-92.0	21.0
2025-01-19 09:59:14.480379	245.9	31.1	-92.5	10.3
2025-01-19 09:59:15.644148	245.7	30.9	-92.4	11.0
2025-01-19 09:59:16.811134	245.6	30.7	-92.3	13.5
2025-01-19 09:59:17.980380	245.4	30.5	-92.7	9.3
2025-01-19 09:59:19.145048	245.2	30.3	-92.2	22.0
2025-01-19 09:59:20.300898	245.1	30.1	-91.9	5.6
2025-01-19 09:59:21.463599	244.9	29.9	-92.3	14.0
2025-01-19 09:59:22.621582	244.8	29.7	-92.6	12.7
2025-01-19 09:59:23.787302	244.6	29.5	-92.5	6.8
2025-01-19 09:59:24.951893	244.5	29.3	-92.4	12.9
2025-01-19 09:59:26.120598	244.3	29.1	-92.6	12.6
2025-01-19 09:59:27.278330	244.2	28.9	-92.3	16.3
2025-01-19 09:59:28.434377	244.0	28.7	-92.1	6.3
2025-01-19 09:59:29.566454	243.9	28.5	-92.9	6.9
2025-01-19 09:59:30.686648	243.7	28.4	-92.3	14.5
2025-01-19 09:59:31.807687	243.6	28.2	-92.8	10.6
2025-01-19 09:59:32.929129	243.5	28.0	-92.6	5.3
2025-01-19 09:59:34.049544	243.3	27.8	-92.9	13.5
2025-01-19 09:59:35.170433	243.2	27.6	-92.8	19.6
2025-01-19 09:59:36.290465	243.1	27.5	-92.5	14.8
2025-01-19 09:59:37.410743	242.9	27.3	-92.7	9.5
2025-01-19 09:59:38.538740	242.8	27.1	-92.6	15.2
2025-01-19 09:59:39.686805	242.7	26.9	-92.6	11.5
2025-01-19 09:59:40.843215	242.5	26.7	-92.2	11.7
2025-01-19 09:59:42.002246	242.4	26.6	-92.2	5.5
2025-01-19 09:59:43.156339	242.3	26.4	-92.2	7.4
2025-01-19 09:59:44.309045	242.2	26.2	-92.1	15.1
2025-01-19 09:59:45.474765	242.0	26.0	-92.7	3.3
2025-01-19 09:59:46.638072	241.9	25.9	-92.4	2.9
2025-01-19 09:59:47.802499	241.8	25.7	-92.7	6.7
2025-01-19 09:59:48.966026	241.7	25.5	-92.5	6.5
2025-01-19 09:59:50.130444	241.5	25.3	-92.8	7.0
2025-01-19 09:59:51.298190	241.4	25.2	-92.5	18.3
2025-01-19 09:59:52.458314	241.3	25.0	-92.6	13.8
2025-01-19 09:59:53.623505	241.2	24.8	-92.6	7.8
2025-01-19 09:59:54.789498	241.1	24.6	-92.3	12.9
2025-01-19 09:59:55.952997	241.0	24.5	-92.3	7.7
2025-01-19 09:59:57.121829	240.9	24.3	-92.4	3.4
2025-01-19 09:59:58.285604	240.7	24.1	-92.7	6.6
2025-01-19 09:59:59.453021	240.6	24.0	-92.8	2.6
2025-01-19 10:00:00.608284	240.5	23.8	-92.6	3.6
2025-01-19 10:00:01.767813	240.4	23.6	-92.6	3.3
2025-01-19 10:00:02.933420	240.3	23.5	-92.3	1.0
2025-01-19 10:00:04.090087	240.2	23.3	-92.8	6.8
2025-01-19 10:00:05.255814	240.1	23.2	-92.9	2.4
2025-01-19 10:00:06.418360	240.0	23.0	-92.8	3.7
2025-01-19 10:00:07.582825	239.9	22.8	-92.4	2.1
2025-01-19 10:00:08.740608	239.8	22.7	-92.7	6.6
2025-01-19 10:00:09.907756	239.7	22.5	-92.5	8.7
2025-01-19 10:00:11.063759	239.6	22.4	-92.8	1.9
2025-01-19 10:00:12.231336	239.5	22.2	-92.4	8.9
2025-01-19 10:00:13.395400	239.4	22.1	-92.8	5.0
2025-01-19 10:00:14.557738	239.3	21.9	-92.5	7.7
2025-01-19 10:00:15.721126	239.2	21.8	-91.9	5.4
2025-01-19 10:00:16.885723	239.1	21.6	-92.7	4.4
2025-01-19 10:00:18.051069	239.0	21.4	-92.7	3.2
2025-01-19 10:00:19.215181	238.9	21.3	-92.4	4.7
2025-01-19 10:00:20.373495	238.9	21.1	-92.5	15.1
2025-01-19 10:00:21.536809	238.8	21.0	-92.7	7.1
2025-01-19 10:00:22.703306	238.7	20.8	-93.0	4.9
2025-01-19 10:00:23.861444	238.6	20.7	-92.8	9.7
2025-01-19 10:00:25.023664	238.5	20.6	-92.8	7.8
2025-01-19 10:00:26.190513	238.4	20.4	-92.5	9.7
2025-01-19 10:00:27.357276	238.3	20.3	-92.8	3.7
2025-01-19 10:00:28.518857	238.2	20.1	-92.4	3.7
2025-01-19 10:00:29.681705	238.2	20.0	-92.6	6.2
2025-01-19 10:00:30.837623	238.1	19.8	-92.5	6.7
2025-01-19 10:00:31.993942	238.0	19.7	-92.8	3.0
2025-01-19 10:00:33.163920	237.9	19.5	-92.8	9.2
2025-01-19 10:00:34.328765	237.8	19.4	-92.5	4.3
2025-01-19 10:00:35.496775	237.8	19.3	-92.9	7.1
2025-01-19 10:00:36.662073	237.7	19.1	-92.7	10.3
2025-01-19 10:00:37.828970	237.6	19.0	-92.9	13.8
2025-01-19 10:00:38.988511	237.5	18.9	-92.4	7.1
2025-01-19 10:00:40.149462	237.4	18.7	-92.2	3.7
2025-01-19 10:00:41.310702	237.4	18.6	-92.4	7.3
2025-01-19 10:00:42.473920	237.3	18.4	-92.5	3.3
2025-01-19 10:00:43.638619	237.2	18.3	-92.9	5.4
2025-01-19 10:00:44.802702	237.2	18.2	-93.2	7.3
2025-01-19 10:00:45.967122	237.1	18.0	-93.3	2.8
2025-01-19 10:00:47.130784	237.0	17.9	-93.0	2.5
2025-01-19 10:00:48.295366	236.9	17.8	-92.8	1.4
2025-01-19 10:00:49.465561	236.9	17.6	-92.8	6.7
2025-01-19 10:00:50.615968	236.8	17.5	-92.7	5.5
2025-01-19 10:00:51.780083	236.7	17.4	-93.0	12.5
2025-01-19 10:00:52.950293	236.7	17.2	-92.7	3.5
2025-01-19 10:00:54.107989	236.6	17.1	-93.1	3.0
2025-01-19 10:00:55.268328	236.5	17.0	-93.2	3.4
2025-01-19 10:00:56.435267	236.4	16.9	-93.4	5.3
2025-01-19 10:00:57.593811	236.4	16.7	-92.6	4.0
2025-01-19 10:00:58.758960	236.3	16.6	-92.8	5.4
2025-01-19 10:00:59.922215	236.2	16.5	-92.5	2.9
2025-01-19 10:01:01.075189	236.2	16.4	-93.1	3.5
2025-01-19 10:01:02.236138	236.1	16.2	-93.1	8.6
2025-01-19 10:01:03.398778	236.1	16.1	-92.9	6.7
2025-01-19 10:01:04.567321	236.0	16.0	-92.9	4.5
2025-01-19 10:01:05.726716	235.9	15.9	-92.7	5.7
2025-01-19 10:01:06.891513	235.9	15.7	-92.5	12.4
2025-01-19 10:01:08.059728	235.8	15.6	-92.5	8.5
2025-01-19 10:01:09.226145	235.7	15.5	-92.4	7.6
2025-01-19 10:01:10.388107	235.7	15.4	-92.4	6.5
2025-01-19 10:01:11.548913	235.6	15.3	-92.9	4.8
2025-01-19 10:01:12.714003	235.6	15.1	-92.9	5.2
2025-01-19 10:01:13.878267	235.5	15.0	-92.6	2.8
2025-01-19 10:01:15.039877	235.4	14.9	-92.2	7.3
2025-01-19 10:01:16.203363	235.4	14.8	-92.7	4.8
2025-01-19 10:01:17.371077	235.3	14.7	-92.6	9.3
2025-01-19 10:01:18.520656	235.3	14.5	-92.9	11.8
#Closed at: 2025-01-19 09:52:22.180620