passes_logs/2025/01/19/LEX_Murmansk/LEX_Murmansk__20250119_181138_NOAA_19_rec.log

#Pass ID: 20250119_181138_NOAA 19
#Satellite: NOAA 19
#Configuration: NOAA 19
#Start time: 2025-01-19 18:11:33.441546

#LorettStation: 1.0.0 05.05.2024
#Station: LEX_Murmansk
#Location: 33.156738 lon 68.926811 lat
#TLE: 1 33591U 09005A   25019.18116543  .00000338  00000+0  20449-3 0  9996
#TLE: 2 33591  99.0189  82.9757 0014332  46.3357 313.9000 14.13262914822133

#Time	Az	El	Level	SNR
2025-01-19 18:11:49.660651	167.3	16.8	-90.1	4.0
2025-01-19 18:11:50.806461	167.4	16.9	-90.7	2.5
2025-01-19 18:11:51.956454	167.4	17.0	-91.1	2.0
2025-01-19 18:11:53.115430	167.5	17.2	-91.0	4.4
2025-01-19 18:11:54.260647	167.5	17.3	-90.5	1.6
2025-01-19 18:11:55.409584	167.6	17.4	-90.5	3.6
2025-01-19 18:11:56.560126	167.6	17.6	-91.1	3.8
2025-01-19 18:11:57.710755	167.6	17.7	-90.9	3.8
2025-01-19 18:11:58.856391	167.7	17.8	-90.7	1.8
2025-01-19 18:11:59.997620	167.7	18.0	-90.8	3.8
2025-01-19 18:12:01.147698	167.8	18.1	-91.0	4.3
2025-01-19 18:12:02.294569	167.8	18.2	-90.9	1.3
2025-01-19 18:12:03.443832	167.9	18.4	-91.1	2.8
2025-01-19 18:12:04.595393	167.9	18.5	-90.5	4.1
2025-01-19 18:12:05.742767	168.0	18.6	-90.7	1.9
2025-01-19 18:12:06.891853	168.0	18.8	-90.7	2.2
2025-01-19 18:12:08.037570	168.1	18.9	-90.3	3.5
2025-01-19 18:12:09.183308	168.1	19.1	-90.7	3.7
2025-01-19 18:12:10.330133	168.2	19.2	-90.4	2.7
2025-01-19 18:12:11.477539	168.2	19.3	-90.5	4.8
2025-01-19 18:12:12.624588	168.3	19.5	-91.0	5.5
2025-01-19 18:12:13.771615	168.3	19.6	-90.4	4.4
2025-01-19 18:12:14.925337	168.4	19.8	-90.4	5.6
2025-01-19 18:12:16.069738	168.4	19.9	-90.9	6.7
2025-01-19 18:12:17.218222	168.5	20.1	-90.9	5.9
2025-01-19 18:12:18.361736	168.5	20.2	-90.6	6.0
2025-01-19 18:12:19.508709	168.6	20.4	-90.6	5.9
2025-01-19 18:12:20.654117	168.7	20.5	-90.5	4.4
2025-01-19 18:12:21.799354	168.7	20.7	-90.0	1.9
2025-01-19 18:12:22.950339	168.8	20.8	-90.6	3.1
2025-01-19 18:12:24.095837	168.8	21.0	-90.3	5.1
2025-01-19 18:12:25.244062	168.9	21.1	-89.7	1.3
2025-01-19 18:12:26.395908	168.9	21.3	-90.1	6.9
2025-01-19 18:12:27.537431	169.0	21.4	-91.2	8.0
2025-01-19 18:12:28.689630	169.1	21.6	-90.7	6.1
2025-01-19 18:12:29.832246	169.1	21.7	-90.9	6.4
2025-01-19 18:12:30.979039	169.2	21.9	-91.0	5.5
2025-01-19 18:12:32.126438	169.2	22.1	-90.8	4.0
2025-01-19 18:12:33.275903	169.3	22.2	-90.7	4.5
2025-01-19 18:12:34.425094	169.4	22.4	-90.9	6.6
2025-01-19 18:12:35.569407	169.4	22.5	-90.6	8.7
2025-01-19 18:12:36.718936	169.5	22.7	-90.6	6.0
2025-01-19 18:12:37.863003	169.5	22.9	-91.1	3.2
2025-01-19 18:12:39.010772	169.6	23.0	-90.6	4.7
2025-01-19 18:12:40.158238	169.7	23.2	-90.1	3.9
2025-01-19 18:12:41.302349	169.7	23.4	-91.0	4.7
2025-01-19 18:12:42.452194	169.8	23.5	-90.7	7.6
2025-01-19 18:12:43.599515	169.9	23.7	-90.8	9.3
2025-01-19 18:12:44.748258	169.9	23.9	-91.0	13.1
2025-01-19 18:12:45.905325	170.0	24.0	-91.0	11.1
2025-01-19 18:12:47.050779	170.1	24.2	-90.5	11.1
2025-01-19 18:12:48.200441	170.1	24.4	-90.5	7.1
2025-01-19 18:12:49.342771	170.2	24.6	-90.1	8.4
2025-01-19 18:12:50.486863	170.3	24.7	-90.2	10.7
2025-01-19 18:12:51.640172	170.4	24.9	-89.8	9.2
2025-01-19 18:12:52.788597	170.4	25.1	-90.3	7.9
2025-01-19 18:12:53.944297	170.5	25.3	-90.3	3.4
2025-01-19 18:12:55.089464	170.6	25.4	-90.7	3.6
2025-01-19 18:12:56.237811	170.6	25.6	-90.8	2.3
2025-01-19 18:12:57.383290	170.7	25.8	-91.1	3.0
2025-01-19 18:12:58.530289	170.8	26.0	-90.9	6.1
2025-01-19 18:12:59.678196	170.9	26.2	-91.1	8.5
2025-01-19 18:13:00.819519	170.9	26.4	-91.1	9.9
2025-01-19 18:13:01.969109	171.0	26.5	-90.9	9.3
2025-01-19 18:13:03.115514	171.1	26.7	-90.5	7.9
2025-01-19 18:13:04.262941	171.2	26.9	-90.6	4.7
2025-01-19 18:13:05.411108	171.3	27.1	-90.1	8.6
2025-01-19 18:13:06.558263	171.4	27.3	-90.6	8.8
2025-01-19 18:13:07.709863	171.4	27.5	-90.5	8.0
2025-01-19 18:13:08.853673	171.5	27.7	-90.6	7.3
2025-01-19 18:13:10.000430	171.6	27.9	-90.5	6.9
2025-01-19 18:13:11.152259	171.7	28.1	-90.5	2.9
2025-01-19 18:13:12.300619	171.8	28.3	-90.4	1.2
2025-01-19 18:13:13.449852	171.9	28.5	-91.0	3.7
2025-01-19 18:13:14.596609	172.0	28.7	-91.2	6.6
2025-01-19 18:13:15.744598	172.0	28.9	-91.3	4.9
2025-01-19 18:13:16.892248	172.1	29.1	-91.1	9.5
2025-01-19 18:13:18.035777	172.2	29.3	-91.0	8.2
2025-01-19 18:13:19.187507	172.3	29.5	-90.8	8.6
2025-01-19 18:13:20.332189	172.4	29.7	-91.1	6.7
2025-01-19 18:13:21.474371	172.5	29.9	-91.2	8.1
2025-01-19 18:13:22.628140	172.6	30.1	-90.5	9.0
2025-01-19 18:13:23.779604	172.7	30.3	-90.9	8.1
2025-01-19 18:13:24.925112	172.8	30.6	-90.8	9.5
2025-01-19 18:13:26.074651	172.9	30.8	-91.2	9.6
2025-01-19 18:13:27.228114	173.0	31.0	-90.4	6.9
2025-01-19 18:13:28.379945	173.1	31.2	-90.7	1.6
2025-01-19 18:13:29.524694	173.2	31.4	-91.0	4.5
2025-01-19 18:13:30.675282	173.3	31.7	-90.8	5.1
2025-01-19 18:13:31.822598	173.4	31.9	-90.8	5.0
2025-01-19 18:13:32.978125	173.5	32.1	-91.1	6.4
2025-01-19 18:13:34.121974	173.6	32.3	-90.9	9.5
2025-01-19 18:13:35.269686	173.8	32.6	-90.9	9.2
2025-01-19 18:13:36.417546	173.9	32.8	-90.9	11.1
2025-01-19 18:13:37.567077	174.0	33.0	-91.3	10.6
2025-01-19 18:13:38.713504	174.1	33.2	-90.7	6.4
2025-01-19 18:13:39.861601	174.2	33.5	-90.8	5.2
2025-01-19 18:13:41.010949	174.3	33.7	-91.0	11.9
2025-01-19 18:13:42.158499	174.5	34.0	-89.9	12.2
2025-01-19 18:13:43.307255	174.6	34.2	-90.2	13.3
2025-01-19 18:13:44.461161	174.7	34.4	-90.5	10.5
2025-01-19 18:13:45.608194	174.8	34.7	-90.3	8.6
2025-01-19 18:13:46.758224	175.0	34.9	-90.6	2.6
2025-01-19 18:13:47.905638	175.1	35.2	-90.3	5.6
2025-01-19 18:13:49.054795	175.2	35.4	-90.2	4.4
2025-01-19 18:13:50.201105	175.4	35.7	-90.9	3.9
2025-01-19 18:13:51.350041	175.5	35.9	-90.8	6.0
2025-01-19 18:13:52.499839	175.6	36.2	-91.3	9.6
2025-01-19 18:13:53.645567	175.8	36.4	-91.1	9.0
2025-01-19 18:13:54.801183	175.9	36.7	-91.2	8.5
2025-01-19 18:13:55.950826	176.1	36.9	-91.3	10.6
2025-01-19 18:13:57.095734	176.2	37.2	-90.7	10.5
2025-01-19 18:13:58.240739	176.3	37.5	-91.1	7.4
2025-01-19 18:13:59.388765	176.5	37.7	-91.3	8.4
2025-01-19 18:14:00.531947	176.6	38.0	-91.0	10.4
2025-01-19 18:14:01.679711	176.8	38.3	-91.0	10.5
2025-01-19 18:14:02.827293	177.0	38.5	-91.0	10.1
2025-01-19 18:14:03.977376	177.1	38.8	-90.8	5.2
2025-01-19 18:14:05.121133	177.3	39.1	-90.4	3.6
2025-01-19 18:14:06.270449	177.5	39.4	-91.2	2.9
2025-01-19 18:14:07.402071	177.6	39.6	-90.9	2.6
2025-01-19 18:14:08.522710	177.8	39.9	-91.2	2.4
2025-01-19 18:14:09.643574	178.0	40.2	-90.8	3.2
2025-01-19 18:14:10.764453	178.1	40.5	-90.7	6.9
2025-01-19 18:14:11.886318	178.3	40.7	-91.3	10.1
2025-01-19 18:14:13.007297	178.5	41.0	-91.1	11.3
2025-01-19 18:14:14.127720	178.7	41.3	-91.1	12.8
2025-01-19 18:14:15.248157	178.9	41.6	-91.0	9.3
2025-01-19 18:14:16.368824	179.0	41.9	-91.0	11.0
2025-01-19 18:14:17.505127	179.2	42.2	-91.0	11.8
2025-01-19 18:14:18.653722	179.4	42.5	-90.9	10.8
2025-01-19 18:14:19.800200	179.6	42.8	-91.1	15.4
2025-01-19 18:14:20.944937	179.8	43.1	-91.1	15.3
2025-01-19 18:14:22.082616	180.1	43.4	-91.1	13.4
2025-01-19 18:14:23.233325	180.3	43.7	-91.2	11.8
2025-01-19 18:14:24.377184	180.5	44.0	-90.8	6.9
2025-01-19 18:14:25.523309	180.7	44.3	-91.4	6.7
2025-01-19 18:14:26.669799	180.9	44.6	-91.5	3.3
2025-01-19 18:14:27.821120	181.2	44.9	-91.0	2.8
2025-01-19 18:14:28.969240	181.4	45.2	-91.0	7.4
2025-01-19 18:14:30.119006	181.7	45.5	-91.1	9.7
2025-01-19 18:14:31.262774	181.9	45.9	-90.6	11.8
2025-01-19 18:14:32.413024	182.1	46.2	-90.7	15.5
2025-01-19 18:14:33.567750	182.4	46.5	-90.5	15.0
2025-01-19 18:14:34.719333	182.7	46.8	-91.3	11.8
2025-01-19 18:14:35.868835	182.9	47.2	-90.3	10.0
2025-01-19 18:14:37.017417	183.2	47.5	-91.4	12.9
2025-01-19 18:14:38.169322	183.5	47.8	-90.5	6.6
2025-01-19 18:14:39.318057	183.8	48.2	-91.0	9.7
2025-01-19 18:14:40.463928	184.1	48.5	-91.2	14.1
2025-01-19 18:14:41.612181	184.4	48.8	-91.0	13.6
2025-01-19 18:14:42.752687	184.7	49.2	-90.6	16.3
2025-01-19 18:14:43.877373	185.0	49.5	-91.4	15.3
2025-01-19 18:14:45.023233	185.3	49.8	-91.2	11.7
2025-01-19 18:14:46.167577	185.6	50.2	-90.7	4.4
2025-01-19 18:14:47.313234	185.9	50.5	-91.0	3.2
2025-01-19 18:14:48.460010	186.3	50.9	-91.2	4.6
2025-01-19 18:14:49.604350	186.6	51.2	-91.2	7.6
2025-01-19 18:14:50.747939	187.0	51.6	-91.2	1.8
2025-01-19 18:14:51.899448	187.3	51.9	-91.4	6.9
2025-01-19 18:14:53.051156	187.7	52.3	-91.3	9.6
2025-01-19 18:14:54.197564	188.1	52.6	-91.2	11.6
2025-01-19 18:14:55.349796	188.5	53.0	-91.2	14.8
2025-01-19 18:14:56.495821	188.9	53.3	-91.3	14.7
2025-01-19 18:14:57.653051	189.3	53.7	-90.8	11.0
2025-01-19 18:14:58.795989	189.7	54.0	-91.3	8.9
2025-01-19 18:14:59.946244	190.1	54.4	-91.2	8.7
2025-01-19 18:15:01.090577	190.5	54.7	-90.8	10.0
2025-01-19 18:15:02.245940	191.0	55.1	-91.4	2.8
2025-01-19 18:15:03.395783	191.5	55.5	-91.0	8.2
2025-01-19 18:15:04.551927	191.9	55.8	-91.2	9.1
2025-01-19 18:15:05.697553	192.4	56.2	-91.4	11.8
2025-01-19 18:15:06.846360	192.9	56.6	-91.2	14.2
2025-01-19 18:15:07.995028	193.4	56.9	-91.1	13.5
2025-01-19 18:15:09.149507	194.0	57.3	-90.3	8.5
2025-01-19 18:15:10.291934	194.5	57.6	-90.7	6.8
2025-01-19 18:15:11.440698	195.0	58.0	-90.7	4.7
2025-01-19 18:15:12.593461	195.6	58.4	-91.1	5.3
2025-01-19 18:15:13.740917	196.2	58.7	-91.1	1.0
2025-01-19 18:15:14.888610	196.8	59.1	-89.5	4.9
2025-01-19 18:15:16.035591	197.4	59.5	-90.2	4.3
2025-01-19 18:15:17.182425	198.0	59.8	-89.9	4.9
2025-01-19 18:15:18.330541	198.7	60.2	-90.2	6.0
2025-01-19 18:15:19.481350	199.4	60.5	-90.7	7.9
2025-01-19 18:15:20.622488	200.0	60.9	-90.9	8.1
2025-01-19 18:15:21.771430	200.7	61.2	-90.7	9.7
2025-01-19 18:15:22.918967	201.5	61.6	-90.0	13.4
2025-01-19 18:15:24.068998	202.2	61.9	-90.4	16.0
2025-01-19 18:15:25.219587	203.0	62.3	-90.5	12.3
2025-01-19 18:15:26.366545	203.8	62.6	-90.4	12.9
2025-01-19 18:15:27.514284	204.6	63.0	-91.1	11.3
2025-01-19 18:15:28.658373	205.4	63.3	-91.5	7.3
2025-01-19 18:15:29.807659	206.3	63.6	-91.1	6.1
2025-01-19 18:15:30.959385	207.2	64.0	-90.4	9.2
2025-01-19 18:15:32.104149	208.1	64.3	-90.3	10.3
2025-01-19 18:15:33.251483	209.0	64.6	-90.7	8.5
2025-01-19 18:15:34.398217	210.0	64.9	-90.8	13.1
2025-01-19 18:15:35.545506	211.0	65.2	-90.2	16.5
2025-01-19 18:15:36.693964	212.0	65.6	-91.3	17.6
2025-01-19 18:15:37.842923	213.0	65.9	-90.8	16.7
2025-01-19 18:15:38.974432	214.1	66.1	-91.3	17.3
2025-01-19 18:15:40.123443	215.2	66.4	-90.8	14.6
2025-01-19 18:15:41.268271	216.3	66.7	-91.2	14.5
2025-01-19 18:15:42.414846	217.5	67.0	-90.9	13.9
2025-01-19 18:15:43.562695	218.7	67.2	-90.8	9.8
2025-01-19 18:15:44.712581	219.9	67.5	-91.0	7.3
2025-01-19 18:15:45.856253	221.1	67.8	-90.9	9.0
2025-01-19 18:15:47.004130	222.4	68.0	-91.1	8.2
2025-01-19 18:15:48.155482	223.7	68.2	-90.8	4.9
2025-01-19 18:15:49.303075	225.1	68.4	-90.4	4.0
2025-01-19 18:15:50.447279	226.4	68.6	-90.8	5.2
2025-01-19 18:15:51.597010	227.8	68.8	-90.8	8.1
2025-01-19 18:15:52.742469	229.2	69.0	-91.0	4.5
2025-01-19 18:15:53.889504	230.7	69.2	-90.7	8.1
2025-01-19 18:15:55.039546	232.2	69.4	-91.8	9.7
2025-01-19 18:15:56.191354	233.7	69.5	-90.5	7.7
2025-01-19 18:15:57.343259	235.2	69.7	-90.6	7.1
2025-01-19 18:15:58.495613	236.7	69.8	-90.6	10.0
2025-01-19 18:15:59.647822	238.3	69.9	-90.5	15.2
2025-01-19 18:16:00.793290	239.9	70.0	-90.7	17.7
2025-01-19 18:16:01.942688	241.5	70.1	-90.2	12.5
2025-01-19 18:16:03.091151	243.1	70.1	-91.0	14.9
2025-01-19 18:16:04.241007	244.7	70.2	-91.0	9.5
2025-01-19 18:16:05.388153	246.3	70.2	-89.9	23.5
2025-01-19 18:16:06.537697	248.0	70.2	-91.0	21.9
2025-01-19 18:16:07.683546	249.6	70.3	-91.2	13.3
2025-01-19 18:16:08.828714	251.2	70.2	-90.8	21.8
2025-01-19 18:16:09.981062	252.9	70.2	-91.1	10.5
2025-01-19 18:16:11.127531	254.5	70.2	-91.1	22.4
2025-01-19 18:16:12.277151	256.1	70.1	-91.3	15.4
2025-01-19 18:16:13.427344	257.7	70.1	-91.2	18.0
2025-01-19 18:16:14.577089	259.3	70.0	-91.3	18.5
2025-01-19 18:16:15.725896	260.9	69.9	-91.7	13.6
2025-01-19 18:16:16.868169	262.4	69.8	-90.9	13.2
2025-01-19 18:16:18.017026	264.0	69.7	-91.3	15.7
2025-01-19 18:16:19.165474	265.5	69.5	-91.7	9.9
2025-01-19 18:16:20.317359	267.0	69.4	-91.0	8.0
2025-01-19 18:16:21.463596	268.5	69.2	-91.1	9.9
2025-01-19 18:16:22.611950	269.9	69.0	-91.1	14.1
2025-01-19 18:16:23.761121	271.4	68.9	-91.6	3.7
2025-01-19 18:16:24.904408	272.8	68.7	-91.1	12.7
2025-01-19 18:16:26.053761	274.1	68.5	-91.0	12.9
2025-01-19 18:16:27.202008	275.5	68.2	-91.4	7.6
2025-01-19 18:16:28.349194	276.8	68.0	-91.4	7.4
2025-01-19 18:16:29.501736	278.1	67.8	-90.7	11.8
2025-01-19 18:16:30.647315	279.3	67.5	-91.2	9.8
2025-01-19 18:16:31.798171	280.5	67.3	-91.0	8.1
2025-01-19 18:16:32.945826	281.7	67.0	-90.8	7.2
2025-01-19 18:16:34.096327	282.9	66.7	-91.1	8.4
2025-01-19 18:16:35.240173	284.0	66.5	-91.3	5.1
2025-01-19 18:16:36.387965	285.1	66.2	-91.2	7.4
2025-01-19 18:16:37.539051	286.2	65.9	-90.8	8.4
2025-01-19 18:16:38.685439	287.2	65.6	-91.2	4.7
2025-01-19 18:16:39.834400	288.3	65.3	-91.5	5.0
2025-01-19 18:16:40.981774	289.2	65.0	-91.3	5.9
2025-01-19 18:16:42.129234	290.2	64.6	-90.7	4.6
2025-01-19 18:16:43.276515	291.1	64.3	-90.8	2.3
2025-01-19 18:16:44.422629	292.0	64.0	-91.1	1.3
2025-01-19 18:16:45.577857	292.9	63.7	-90.9	3.1
2025-01-19 18:16:46.725217	293.8	63.3	-91.6	2.9
2025-01-19 18:16:47.876204	294.6	63.0	-90.8	1.9
2025-01-19 18:16:49.024256	295.4	62.7	-91.1	9.0
2025-01-19 18:16:50.171059	296.2	62.3	-91.0	3.3
2025-01-19 18:16:51.320385	297.0	62.0	-90.6	4.0
2025-01-19 18:16:52.464969	297.8	61.6	-90.7	6.3
2025-01-19 18:16:53.615506	298.5	61.3	-90.3	4.3
2025-01-19 18:16:54.770212	299.2	60.9	-90.7	3.2
2025-01-19 18:16:55.918368	299.9	60.6	-90.8	5.1
2025-01-19 18:16:57.067696	300.5	60.2	-90.8	4.6
2025-01-19 18:16:58.215828	301.2	59.9	-90.6	3.8
2025-01-19 18:16:59.363343	301.8	59.5	-90.0	9.0
2025-01-19 18:17:00.507800	302.4	59.1	-90.5	5.8
2025-01-19 18:17:01.648849	303.0	58.8	-90.5	5.9
2025-01-19 18:17:02.795665	303.6	58.4	-90.2	7.5
2025-01-19 18:17:03.936554	304.2	58.1	-90.3	11.1
2025-01-19 18:17:05.082205	304.7	57.7	-90.1	6.9
2025-01-19 18:17:06.228362	305.3	57.3	-90.5	9.1
2025-01-19 18:17:07.372718	305.8	57.0	-90.3	13.1
2025-01-19 18:17:08.521925	306.3	56.6	-90.2	12.5
2025-01-19 18:17:09.669498	306.8	56.3	-90.9	7.0
2025-01-19 18:17:10.815782	307.3	55.9	-91.3	9.5
2025-01-19 18:17:11.968916	307.8	55.5	-90.9	12.3
2025-01-19 18:17:13.114831	308.2	55.2	-91.0	17.2
2025-01-19 18:17:14.260507	308.7	54.8	-90.8	16.5
2025-01-19 18:17:15.405497	309.1	54.5	-90.1	9.6
2025-01-19 18:17:16.554242	309.5	54.1	-91.1	7.4
2025-01-19 18:17:17.702881	309.9	53.8	-91.4	8.0
2025-01-19 18:17:18.854545	310.4	53.4	-90.6	14.8
2025-01-19 18:17:20.016443	310.8	53.0	-90.5	8.8
2025-01-19 18:17:21.159674	311.1	52.7	-90.7	9.4
2025-01-19 18:17:22.301985	311.5	52.3	-90.8	4.2
2025-01-19 18:17:23.437224	311.9	52.0	-91.0	6.6
2025-01-19 18:17:24.558089	312.2	51.7	-91.0	5.2
2025-01-19 18:17:25.680124	312.6	51.3	-90.7	5.5
2025-01-19 18:17:26.800919	312.9	51.0	-90.8	4.9
2025-01-19 18:17:27.922228	313.3	50.6	-90.7	5.8
2025-01-19 18:17:29.042520	313.6	50.3	-90.0	2.7
2025-01-19 18:17:30.162455	313.9	50.0	-90.4	2.0
2025-01-19 18:17:31.282600	314.2	49.6	-90.3	4.8
2025-01-19 18:17:32.403697	314.5	49.3	-90.7	4.8
2025-01-19 18:17:33.537145	314.8	49.0	-90.7	6.4
2025-01-19 18:17:34.684806	315.1	48.6	-91.3	4.3
2025-01-19 18:17:35.832211	315.4	48.3	-91.0	6.3
2025-01-19 18:17:36.981551	315.7	48.0	-91.2	9.7
2025-01-19 18:17:38.127729	316.0	47.6	-90.9	5.1
2025-01-19 18:17:39.285283	316.2	47.3	-90.8	8.6
2025-01-19 18:17:40.432078	316.5	47.0	-91.1	9.7
2025-01-19 18:17:41.582355	316.8	46.7	-90.8	12.1
2025-01-19 18:17:42.731700	317.0	46.3	-90.8	10.1
2025-01-19 18:17:43.876001	317.3	46.0	-91.0	11.2
2025-01-19 18:17:45.024087	317.5	45.7	-91.2	13.2
2025-01-19 18:17:46.175698	317.8	45.4	-91.2	13.9
2025-01-19 18:17:47.324272	318.0	45.1	-90.8	9.8
2025-01-19 18:17:48.466233	318.2	44.8	-90.9	12.7
2025-01-19 18:17:49.615097	318.5	44.5	-91.2	10.9
2025-01-19 18:17:50.767177	318.7	44.1	-90.5	9.5
2025-01-19 18:17:51.914555	318.9	43.8	-90.8	6.6
2025-01-19 18:17:53.062930	319.1	43.5	-91.1	8.2
2025-01-19 18:17:54.211247	319.3	43.2	-90.6	4.8
2025-01-19 18:17:55.357964	319.5	42.9	-90.9	2.7
2025-01-19 18:17:56.501174	319.8	42.6	-91.1	7.4
2025-01-19 18:17:57.649844	320.0	42.3	-90.7	7.1
2025-01-19 18:17:58.797276	320.1	42.0	-90.9	6.4
2025-01-19 18:17:59.947882	320.3	41.8	-90.8	9.2
2025-01-19 18:18:01.090234	320.5	41.5	-90.7	9.9
2025-01-19 18:18:02.239422	320.7	41.2	-90.7	10.6
2025-01-19 18:18:03.392289	320.9	40.9	-90.5	10.7
2025-01-19 18:18:04.540270	321.1	40.6	-90.9	15.9
2025-01-19 18:18:05.687677	321.3	40.3	-91.1	15.0
2025-01-19 18:18:06.839319	321.4	40.0	-90.2	7.8
2025-01-19 18:18:07.983436	321.6	39.8	-90.8	16.1
2025-01-19 18:18:09.132222	321.8	39.5	-90.6	13.2
2025-01-19 18:18:10.281493	321.9	39.2	-89.6	5.7
2025-01-19 18:18:11.433729	322.1	38.9	-90.6	4.6
2025-01-19 18:18:12.583622	322.3	38.7	-90.3	6.2
2025-01-19 18:18:13.725859	322.4	38.4	-90.7	3.1
2025-01-19 18:18:14.868443	322.6	38.1	-90.6	6.0
2025-01-19 18:18:15.991563	322.7	37.9	-89.7	6.2
2025-01-19 18:18:17.144868	322.9	37.6	-90.3	4.8
2025-01-19 18:18:18.294095	323.0	37.3	-90.6	3.8
2025-01-19 18:18:19.441313	323.2	37.1	-90.3	7.3
2025-01-19 18:18:20.591294	323.3	36.8	-91.0	10.0
2025-01-19 18:18:21.741843	323.5	36.6	-90.9	9.3
2025-01-19 18:18:22.887236	323.6	36.3	-90.9	14.8
2025-01-19 18:18:24.039435	323.7	36.1	-91.0	2.8
2025-01-19 18:18:25.182516	323.9	35.8	-90.6	6.6
2025-01-19 18:18:26.331427	324.0	35.6	-91.1	8.3
2025-01-19 18:18:27.479905	324.2	35.3	-90.9	2.7
2025-01-19 18:18:28.626472	324.3	35.1	-90.8	8.0
2025-01-19 18:18:29.776815	324.4	34.8	-90.8	8.7
2025-01-19 18:18:30.926347	324.5	34.6	-91.2	4.4
2025-01-19 18:18:32.072993	324.7	34.3	-90.6	6.0
2025-01-19 18:18:33.231689	324.8	34.1	-90.8	0.8
2025-01-19 18:18:34.377631	324.9	33.9	-90.8	3.6
2025-01-19 18:18:35.526506	325.0	33.6	-90.8	1.9
2025-01-19 18:18:36.677353	325.1	33.4	-90.8	2.9
2025-01-19 18:18:37.829330	325.3	33.2	-89.9	10.3
2025-01-19 18:18:38.979092	325.4	32.9	-90.3	12.8
2025-01-19 18:18:40.125429	325.5	32.7	-90.5	7.9
2025-01-19 18:18:41.270327	325.6	32.5	-90.8	7.8
2025-01-19 18:18:42.419138	325.7	32.3	-90.9	6.3
2025-01-19 18:18:43.568976	325.8	32.0	-91.2	7.7
2025-01-19 18:18:44.713657	325.9	31.8	-91.1	18.5
2025-01-19 18:18:45.863610	326.0	31.6	-91.0	8.8
2025-01-19 18:18:47.012997	326.1	31.4	-90.7	6.3
2025-01-19 18:18:48.157531	326.2	31.2	-91.0	4.5
2025-01-19 18:18:49.309297	326.3	30.9	-90.0	0.9
2025-01-19 18:18:50.461760	326.4	30.7	-91.0	8.9
2025-01-19 18:18:51.604079	326.5	30.5	-90.6	5.2
2025-01-19 18:18:52.752356	326.6	30.3	-90.9	2.6
2025-01-19 18:18:53.901398	326.7	30.1	-91.0	4.1
2025-01-19 18:18:55.051217	326.8	29.9	-90.9	3.5
2025-01-19 18:18:56.184890	326.9	29.7	-90.7	11.2
2025-01-19 18:18:57.320944	327.0	29.5	-91.1	10.2
2025-01-19 18:18:58.458434	327.1	29.3	-90.6	10.5
2025-01-19 18:18:59.593263	327.2	29.1	-91.1	1.8
2025-01-19 18:19:00.722333	327.3	28.9	-91.1	2.1
2025-01-19 18:19:01.851786	327.4	28.7	-90.6	3.4
2025-01-19 18:19:02.982152	327.5	28.5	-90.8	5.7
2025-01-19 18:19:04.111216	327.6	28.3	-91.1	6.4
2025-01-19 18:19:05.251070	327.6	28.1	-91.0	3.3
2025-01-19 18:19:06.389865	327.7	27.9	-90.7	3.6
2025-01-19 18:19:07.530561	327.8	27.7	-90.7	4.1
2025-01-19 18:19:08.670270	327.9	27.5	-90.7	6.4
2025-01-19 18:19:09.814949	328.0	27.3	-90.9	4.8
2025-01-19 18:19:10.958531	328.1	27.1	-90.9	3.8
2025-01-19 18:19:12.106411	328.1	26.9	-90.7	5.2
2025-01-19 18:19:13.242126	328.2	26.8	-91.0	9.8
2025-01-19 18:19:14.381347	328.3	26.6	-90.9	7.3
2025-01-19 18:19:15.516755	328.4	26.4	-90.8	9.8
2025-01-19 18:19:16.658943	328.4	26.2	-91.1	3.1
2025-01-19 18:19:17.799805	328.5	26.0	-90.6	5.4
2025-01-19 18:19:18.944902	328.6	25.8	-90.6	5.8
2025-01-19 18:19:20.087747	328.7	25.7	-90.7	6.8
2025-01-19 18:19:21.230296	328.7	25.5	-90.5	3.4
2025-01-19 18:19:22.376899	328.8	25.3	-90.5	1.5
2025-01-19 18:19:23.516211	328.9	25.1	-90.6	1.8
2025-01-19 18:19:24.659055	329.0	25.0	-90.5	6.2
2025-01-19 18:19:25.804153	329.0	24.8	-90.8	8.6
2025-01-19 18:19:26.944919	329.1	24.6	-90.0	13.3
2025-01-19 18:19:28.096690	329.2	24.4	-90.3	4.2
2025-01-19 18:19:29.229699	329.2	24.3	-90.6	7.4
2025-01-19 18:19:30.349053	329.3	24.1	-90.5	9.0
2025-01-19 18:19:31.477103	329.4	23.9	-90.8	8.5
2025-01-19 18:19:32.613363	329.4	23.8	-90.8	4.1
2025-01-19 18:19:33.739715	329.5	23.6	-90.8	3.3
2025-01-19 18:19:34.867056	329.6	23.4	-90.9	4.5
2025-01-19 18:19:35.991999	329.6	23.3	-90.7	2.2
2025-01-19 18:19:37.126256	329.7	23.1	-91.2	8.2
2025-01-19 18:19:38.257414	329.8	23.0	-90.5	3.8
2025-01-19 18:19:39.377712	329.8	22.8	-90.9	4.7
2025-01-19 18:19:40.498636	329.9	22.6	-90.9	2.3
2025-01-19 18:19:41.625919	329.9	22.5	-91.3	7.9
2025-01-19 18:19:42.753920	330.0	22.3	-91.0	8.8
2025-01-19 18:19:43.881199	330.1	22.2	-91.0	2.8
2025-01-19 18:19:45.016368	330.1	22.0	-90.6	4.3
2025-01-19 18:19:46.141411	330.2	21.9	-90.7	5.1
2025-01-19 18:19:47.263445	330.2	21.7	-91.0	2.8
2025-01-19 18:19:48.384513	330.3	21.6	-90.9	4.6
2025-01-19 18:19:49.506071	330.4	21.4	-91.0	6.2
2025-01-19 18:19:50.627166	330.4	21.3	-91.1	1.6
2025-01-19 18:19:51.748099	330.5	21.1	-90.5	5.9
2025-01-19 18:19:52.869240	330.5	21.0	-90.7	3.3
2025-01-19 18:19:54.001904	330.6	20.8	-91.3	7.1
2025-01-19 18:19:55.144362	330.6	20.7	-90.8	8.6
2025-01-19 18:19:56.285893	330.7	20.5	-91.1	3.8
2025-01-19 18:19:57.429102	330.7	20.4	-90.1	3.1
2025-01-19 18:19:58.551074	330.8	20.2	-89.9	3.7
2025-01-19 18:19:59.678726	330.8	20.1	-90.5	1.4
2025-01-19 18:20:00.812491	330.9	19.9	-90.7	1.3
2025-01-19 18:20:01.942119	330.9	19.8	-90.8	4.1
2025-01-19 18:20:03.074087	331.0	19.7	-90.1	2.4
2025-01-19 18:20:04.204533	331.1	19.5	-90.2	3.0
2025-01-19 18:20:05.436385	331.1	19.4	-90.7	2.7
2025-01-19 18:20:06.564624	331.2	19.2	-90.9	4.6
2025-01-19 18:20:07.700346	331.2	19.1	-91.0	2.9
2025-01-19 18:20:08.893665	331.3	18.9	-90.9	3.5
2025-01-19 18:20:10.021270	331.3	18.8	-91.1	2.0
2025-01-19 18:20:11.141886	331.4	18.7	-90.3	5.1
2025-01-19 18:20:12.275318	331.4	18.5	-90.8	3.7
2025-01-19 18:20:13.396621	331.5	18.4	-91.0	3.1
2025-01-19 18:20:14.531858	331.5	18.3	-91.1	2.4
2025-01-19 18:20:15.669307	331.5	18.1	-91.0	2.5
2025-01-19 18:20:16.798494	331.6	18.0	-90.9	2.6
2025-01-19 18:20:17.926040	331.6	17.9	-90.7	2.8
2025-01-19 18:20:19.056127	331.7	17.7	-90.9	1.7
2025-01-19 18:20:20.189323	331.7	17.6	-90.7	1.2
2025-01-19 18:20:21.334370	331.8	17.5	-91.1	3.4
2025-01-19 18:20:22.464378	331.8	17.3	-91.1	0.3
2025-01-19 18:20:23.603267	331.9	17.2	-90.7	7.1
2025-01-19 18:20:24.751488	331.9	17.1	-90.7	6.7
2025-01-19 18:20:25.902628	332.0	17.0	-90.8	3.4
2025-01-19 18:20:27.045212	332.0	16.8	-90.5	2.1
2025-01-19 18:20:28.188197	332.0	16.7	-90.3	3.2
2025-01-19 18:20:29.330851	332.1	16.6	-90.6	3.5
2025-01-19 18:20:30.482178	332.1	16.4	-90.7	1.8
2025-01-19 18:20:31.626208	332.2	16.3	-90.9	3.5
2025-01-19 18:20:32.775261	332.2	16.2	-91.0	1.6
2025-01-19 18:20:33.919018	332.3	16.1	-91.2	3.4
2025-01-19 18:20:35.062739	332.3	15.9	-91.1	4.8
2025-01-19 18:20:36.204263	332.3	15.8	-90.6	4.0
2025-01-19 18:20:37.349420	332.4	15.7	-91.0	8.1
2025-01-19 18:20:38.495801	332.4	15.6	-90.9	4.9
2025-01-19 18:20:39.640818	332.5	15.5	-91.2	0.7
2025-01-19 18:20:40.790510	332.5	15.3	-90.9	5.8
2025-01-19 18:20:41.935291	332.6	15.2	-90.9	2.6
2025-01-19 18:20:43.084943	332.6	15.1	-90.7	2.9
2025-01-19 18:20:44.230266	332.6	15.0	-90.6	2.3
2025-01-19 18:20:45.379966	332.7	14.9	-91.0	1.5
2025-01-19 18:20:46.528941	332.7	14.7	-90.6	1.6
2025-01-19 18:20:47.675277	332.8	14.6	-91.0	2.4
2025-01-19 18:20:48.821484	332.8	14.5	-90.2	5.4
#Closed at: 2025-01-19 18:11:38.485181