passes_logs/2025/01/19/LEX_Murmansk/LEX_Murmansk__20250119_101635_NOAA_18_rec.log

#Pass ID: 20250119_101635_NOAA 18
#Satellite: NOAA 18
#Configuration: NOAA 18
#Start time: 2025-01-19 10:16:30.030284

#LorettStation: 1.0.0 05.05.2024
#Station: LEX_Murmansk
#Location: 33.156738 lon 68.926811 lat
#TLE: 1 28654U 05018A   25018.13582066  .00000389  00000+0  23006-3 0  9999
#TLE: 2 28654  98.8561  99.1591 0014505 170.4027 189.7425 14.13489305 13620

#Time	Az	El	Level	SNR
2025-01-19 10:16:42.319110	24.8	16.3	-92.4	4.8
2025-01-19 10:16:43.483007	24.8	16.5	-93.0	6.5
2025-01-19 10:16:44.643091	24.7	16.6	-93.2	8.9
2025-01-19 10:16:45.804936	24.7	16.7	-93.2	7.2
2025-01-19 10:16:46.966152	24.7	16.8	-93.2	5.5
2025-01-19 10:16:48.123296	24.7	17.0	-92.8	3.9
2025-01-19 10:16:49.282805	24.7	17.1	-92.9	5.8
2025-01-19 10:16:50.452347	24.7	17.2	-93.0	4.2
2025-01-19 10:16:51.615172	24.7	17.4	-93.0	4.4
2025-01-19 10:16:52.780460	24.7	17.5	-92.7	6.9
2025-01-19 10:16:53.948420	24.6	17.6	-92.9	3.4
2025-01-19 10:16:55.110117	24.6	17.8	-93.0	11.7
2025-01-19 10:16:56.273971	24.6	17.9	-93.2	5.9
2025-01-19 10:16:57.434964	24.6	18.1	-93.4	1.6
2025-01-19 10:16:58.600961	24.6	18.2	-92.8	7.3
2025-01-19 10:16:59.763478	24.6	18.3	-93.1	8.6
2025-01-19 10:17:00.915947	24.6	18.5	-93.4	6.6
2025-01-19 10:17:02.074636	24.5	18.6	-92.6	11.5
2025-01-19 10:17:03.244023	24.5	18.7	-92.9	12.7
2025-01-19 10:17:04.400091	24.5	18.9	-93.1	9.3
2025-01-19 10:17:05.565933	24.5	19.0	-93.2	4.3
2025-01-19 10:17:06.729030	24.5	19.2	-93.1	6.3
2025-01-19 10:17:07.892648	24.5	19.3	-93.1	7.3
2025-01-19 10:17:09.060731	24.4	19.5	-92.7	5.9
2025-01-19 10:17:10.222565	24.4	19.6	-93.0	6.4
2025-01-19 10:17:11.380137	24.4	19.8	-93.2	12.3
2025-01-19 10:17:12.542377	24.4	19.9	-93.0	5.1
2025-01-19 10:17:13.710642	24.4	20.1	-93.1	9.3
2025-01-19 10:17:14.887270	24.4	20.2	-92.5	12.7
2025-01-19 10:17:16.046334	24.3	20.4	-92.6	5.6
2025-01-19 10:17:17.208901	24.3	20.5	-92.8	9.5
2025-01-19 10:17:18.375743	24.3	20.7	-92.6	8.3
2025-01-19 10:17:19.538883	24.3	20.8	-93.2	8.5
2025-01-19 10:17:20.699625	24.3	21.0	-92.9	14.9
2025-01-19 10:17:21.863256	24.2	21.1	-93.4	13.2
2025-01-19 10:17:23.025955	24.2	21.3	-93.1	5.4
2025-01-19 10:17:24.191572	24.2	21.4	-92.8	6.7
2025-01-19 10:17:25.353030	24.2	21.6	-92.9	11.3
2025-01-19 10:17:26.513885	24.2	21.8	-93.0	14.6
2025-01-19 10:17:27.680291	24.1	21.9	-93.0	11.7
2025-01-19 10:17:28.838911	24.1	22.1	-93.0	19.7
2025-01-19 10:17:30.011304	24.1	22.2	-93.3	6.2
2025-01-19 10:17:31.171449	24.1	22.4	-93.2	10.0
2025-01-19 10:17:32.336049	24.1	22.6	-93.0	7.7
2025-01-19 10:17:33.503707	24.0	22.7	-93.0	19.3
2025-01-19 10:17:34.654839	24.0	22.9	-93.1	6.3
2025-01-19 10:17:35.775203	24.0	23.1	-93.2	15.2
2025-01-19 10:17:36.931927	24.0	23.2	-93.2	8.9
2025-01-19 10:17:38.092936	24.0	23.4	-93.2	7.8
2025-01-19 10:17:39.261708	23.9	23.6	-92.7	6.3
2025-01-19 10:17:40.421959	23.9	23.7	-93.1	9.7
2025-01-19 10:17:41.585489	23.9	23.9	-93.4	3.8
2025-01-19 10:17:42.750808	23.9	24.1	-93.3	17.3
2025-01-19 10:17:43.918219	23.8	24.3	-93.5	11.7
2025-01-19 10:17:45.078070	23.8	24.4	-93.2	8.9
2025-01-19 10:17:46.239125	23.8	24.6	-92.7	17.2
2025-01-19 10:17:47.405989	23.8	24.8	-93.2	15.0
2025-01-19 10:17:48.569410	23.7	25.0	-93.2	12.7
2025-01-19 10:17:49.737717	23.7	25.2	-93.0	11.1
2025-01-19 10:17:50.899651	23.7	25.3	-93.0	10.1
2025-01-19 10:17:52.062019	23.7	25.5	-92.8	10.4
2025-01-19 10:17:53.223587	23.6	25.7	-93.0	11.3
2025-01-19 10:17:54.382760	23.6	25.9	-93.4	4.6
2025-01-19 10:17:55.549154	23.6	26.1	-93.1	2.4
2025-01-19 10:17:56.712295	23.6	26.3	-93.4	11.3
2025-01-19 10:17:57.875400	23.5	26.5	-93.1	9.4
2025-01-19 10:17:59.039113	23.5	26.7	-93.1	7.1
2025-01-19 10:18:00.200552	23.5	26.8	-92.7	8.6
2025-01-19 10:18:01.364874	23.4	27.0	-93.0	9.3
2025-01-19 10:18:02.531604	23.4	27.2	-93.0	9.4
2025-01-19 10:18:03.691804	23.4	27.4	-92.9	12.9
2025-01-19 10:18:04.853290	23.3	27.6	-93.1	12.8
2025-01-19 10:18:06.018287	23.3	27.8	-92.9	17.2
2025-01-19 10:18:07.171459	23.3	28.0	-92.8	9.3
2025-01-19 10:18:08.327975	23.3	28.2	-92.7	15.4
2025-01-19 10:18:09.491619	23.2	28.4	-93.3	7.2
2025-01-19 10:18:10.661499	23.2	28.6	-93.4	7.5
2025-01-19 10:18:11.818117	23.2	28.9	-92.8	4.0
2025-01-19 10:18:12.983940	23.1	29.1	-93.1	7.2
2025-01-19 10:18:14.144286	23.1	29.3	-92.8	14.7
2025-01-19 10:18:15.302234	23.1	29.5	-93.0	10.2
2025-01-19 10:18:16.463582	23.0	29.7	-93.1	11.7
2025-01-19 10:18:17.631921	23.0	29.9	-92.9	19.5
2025-01-19 10:18:18.791389	22.9	30.1	-93.1	12.9
2025-01-19 10:18:19.959986	22.9	30.3	-93.0	15.9
2025-01-19 10:18:21.124192	22.9	30.6	-93.1	9.9
2025-01-19 10:18:22.292653	22.8	30.8	-92.7	12.8
2025-01-19 10:18:23.456741	22.8	31.0	-93.2	6.5
2025-01-19 10:18:24.616361	22.7	31.2	-93.1	6.9
2025-01-19 10:18:25.775773	22.7	31.5	-93.1	12.1
2025-01-19 10:18:26.940293	22.7	31.7	-93.0	7.9
2025-01-19 10:18:28.108175	22.6	31.9	-92.2	10.7
2025-01-19 10:18:29.272892	22.6	32.2	-91.4	9.2
2025-01-19 10:18:30.437171	22.5	32.4	-93.3	12.8
2025-01-19 10:18:31.605709	22.5	32.6	-93.3	11.1
2025-01-19 10:18:32.766394	22.5	32.9	-93.3	8.8
2025-01-19 10:18:33.935346	22.4	33.1	-93.0	11.6
2025-01-19 10:18:35.096522	22.4	33.3	-93.0	10.3
2025-01-19 10:18:36.262080	22.3	33.6	-92.7	16.0
2025-01-19 10:18:37.426856	22.3	33.8	-93.0	14.1
2025-01-19 10:18:38.591719	22.2	34.1	-93.0	12.8
2025-01-19 10:18:39.756751	22.2	34.3	-93.3	15.9
2025-01-19 10:18:40.921183	22.1	34.6	-93.2	6.1
2025-01-19 10:18:42.088666	22.1	34.8	-92.7	6.4
2025-01-19 10:18:43.249002	22.0	35.1	-92.7	9.0
2025-01-19 10:18:44.416431	22.0	35.3	-93.3	6.4
2025-01-19 10:18:45.573874	21.9	35.6	-93.1	13.2
2025-01-19 10:18:46.732855	21.9	35.9	-93.1	10.1
2025-01-19 10:18:47.894487	21.8	36.1	-92.8	12.3
2025-01-19 10:18:49.051417	21.8	36.4	-92.8	17.9
2025-01-19 10:18:50.211826	21.7	36.7	-93.1	13.6
2025-01-19 10:18:51.377165	21.6	36.9	-92.7	17.9
2025-01-19 10:18:52.536738	21.6	37.2	-93.0	10.5
2025-01-19 10:18:53.699707	21.5	37.5	-93.4	17.0
2025-01-19 10:18:54.861176	21.5	37.7	-93.3	14.6
2025-01-19 10:18:56.025630	21.4	38.0	-93.2	15.0
2025-01-19 10:18:57.195583	21.3	38.3	-92.9	20.5
2025-01-19 10:18:58.357697	21.3	38.6	-93.0	17.4
2025-01-19 10:18:59.520733	21.2	38.9	-93.0	8.9
2025-01-19 10:19:00.670663	21.1	39.2	-93.4	17.8
2025-01-19 10:19:01.836537	21.1	39.5	-92.9	17.9
2025-01-19 10:19:02.998032	21.0	39.7	-93.1	11.4
2025-01-19 10:19:04.159758	20.9	40.0	-92.8	21.7
2025-01-19 10:19:05.322959	20.9	40.3	-92.8	16.6
2025-01-19 10:19:06.501642	20.8	40.6	-93.4	11.5
2025-01-19 10:19:07.657147	20.7	40.9	-93.3	16.7
2025-01-19 10:19:08.824288	20.6	41.2	-93.1	23.5
2025-01-19 10:19:09.988830	20.5	41.6	-93.1	14.4
2025-01-19 10:19:11.154281	20.5	41.9	-92.9	17.7
2025-01-19 10:19:12.313798	20.4	42.2	-92.7	12.6
2025-01-19 10:19:13.480116	20.3	42.5	-93.1	16.2
2025-01-19 10:19:14.644909	20.2	42.8	-92.9	24.8
2025-01-19 10:19:15.802860	20.1	43.1	-92.9	31.0
2025-01-19 10:19:16.964719	20.0	43.4	-92.9	11.6
2025-01-19 10:19:18.128237	19.9	43.8	-92.8	8.0
2025-01-19 10:19:19.289221	19.9	44.1	-93.2	19.6
2025-01-19 10:19:20.455519	19.8	44.4	-93.5	8.8
2025-01-19 10:19:21.620048	19.7	44.8	-93.3	8.0
2025-01-19 10:19:22.781901	19.6	45.1	-93.0	19.9
2025-01-19 10:19:23.949984	19.5	45.4	-92.9	15.1
2025-01-19 10:19:25.114868	19.4	45.8	-93.0	18.7
2025-01-19 10:19:26.284003	19.3	46.1	-92.7	17.0
2025-01-19 10:19:27.448828	19.1	46.5	-93.3	17.1
2025-01-19 10:19:28.615284	19.0	46.8	-93.2	17.8
2025-01-19 10:19:29.786036	18.9	47.2	-92.7	21.1
2025-01-19 10:19:30.947643	18.8	47.5	-93.1	10.7
2025-01-19 10:19:32.111971	18.7	47.9	-92.8	18.1
2025-01-19 10:19:33.276762	18.6	48.3	-92.8	19.5
2025-01-19 10:19:34.441955	18.4	48.6	-93.0	18.7
2025-01-19 10:19:35.606393	18.3	49.0	-93.0	18.6
2025-01-19 10:19:36.772663	18.2	49.4	-92.8	15.8
2025-01-19 10:19:37.935808	18.0	49.7	-93.0	9.2
2025-01-19 10:19:39.100206	17.9	50.1	-92.9	4.4
2025-01-19 10:19:40.262889	17.8	50.5	-92.9	8.2
2025-01-19 10:19:41.401319	17.6	50.9	-93.5	4.9
2025-01-19 10:19:42.567193	17.5	51.3	-93.3	10.3
2025-01-19 10:19:43.735516	17.3	51.6	-93.1	5.0
2025-01-19 10:19:44.896940	17.2	52.0	-93.2	18.1
2025-01-19 10:19:46.063993	17.0	52.4	-93.3	14.8
2025-01-19 10:19:47.233170	16.8	52.8	-92.2	21.8
2025-01-19 10:19:48.402031	16.7	53.2	-93.2	13.5
2025-01-19 10:19:49.582397	16.5	53.6	-92.6	11.5
2025-01-19 10:19:50.747322	16.3	54.0	-92.9	18.7
2025-01-19 10:19:51.910007	16.1	54.5	-93.3	11.0
2025-01-19 10:19:53.075439	15.9	54.9	-93.0	4.8
2025-01-19 10:19:54.239094	15.7	55.3	-92.6	6.4
2025-01-19 10:19:55.393514	15.5	55.7	-93.2	6.7
2025-01-19 10:19:56.554908	15.3	56.1	-93.3	19.2
2025-01-19 10:19:57.722381	15.1	56.5	-93.3	9.8
2025-01-19 10:19:58.887579	14.9	57.0	-93.4	16.4
2025-01-19 10:20:00.052616	14.6	57.4	-93.4	13.5
2025-01-19 10:20:01.211895	14.4	57.8	-93.0	3.9
2025-01-19 10:20:02.368989	14.2	58.3	-93.0	18.9
2025-01-19 10:20:03.537037	13.9	58.7	-93.4	3.8
2025-01-19 10:20:04.695232	13.6	59.1	-93.3	13.8
2025-01-19 10:20:05.860779	13.4	59.6	-92.7	14.8
2025-01-19 10:20:07.024663	13.1	60.0	-93.2	12.9
2025-01-19 10:20:08.189230	12.8	60.5	-92.9	21.0
2025-01-19 10:20:09.357690	12.5	60.9	-93.2	13.9
2025-01-19 10:20:10.518991	12.2	61.4	-93.3	13.4
2025-01-19 10:20:11.681881	11.8	61.8	-93.3	20.9
2025-01-19 10:20:12.846672	11.5	62.3	-93.2	18.4
2025-01-19 10:20:14.013617	11.2	62.7	-93.2	12.0
2025-01-19 10:20:15.173904	10.8	63.2	-92.5	19.6
2025-01-19 10:20:16.339155	10.4	63.7	-92.8	18.2
2025-01-19 10:20:17.509472	10.0	64.1	-92.9	14.3
2025-01-19 10:20:18.666974	9.6	64.6	-93.2	10.3
2025-01-19 10:20:19.832397	9.2	65.1	-93.2	21.1
2025-01-19 10:20:20.996305	8.7	65.5	-93.6	14.7
2025-01-19 10:20:22.161876	8.3	66.0	-93.3	11.8
2025-01-19 10:20:23.327616	7.8	66.5	-92.6	19.6
2025-01-19 10:20:24.494184	7.2	67.0	-92.7	20.8
2025-01-19 10:20:25.656628	6.7	67.4	-93.2	20.0
2025-01-19 10:20:26.820690	6.2	67.9	-93.4	20.4
2025-01-19 10:20:27.984446	5.6	68.4	-93.1	8.8
2025-01-19 10:20:29.150339	4.9	68.9	-93.2	19.0
2025-01-19 10:20:30.310089	4.3	69.3	-93.0	17.1
2025-01-19 10:20:31.437488	3.6	69.8	-93.5	4.5
2025-01-19 10:20:32.558683	3.0	70.2	-93.3	9.2
2025-01-19 10:20:33.679187	2.2	70.7	-93.0	18.6
2025-01-19 10:20:34.802812	1.5	71.2	-92.9	18.7
2025-01-19 10:20:35.923717	0.7	71.6	-93.2	19.3
2025-01-19 10:20:37.044272	359.8	72.1	-92.8	21.7
2025-01-19 10:20:38.165052	358.9	72.5	-92.6	20.8
2025-01-19 10:20:39.286782	358.0	73.0	-93.0	21.2
2025-01-19 10:20:40.407912	357.0	73.4	-93.1	20.2
2025-01-19 10:20:41.561476	355.9	73.9	-93.4	9.1
2025-01-19 10:20:42.720667	354.8	74.3	-93.4	6.7
2025-01-19 10:20:43.879006	353.5	74.8	-92.5	7.5
2025-01-19 10:20:45.039731	352.2	75.2	-93.1	15.6
2025-01-19 10:20:46.194133	350.8	75.7	-93.2	12.6
2025-01-19 10:20:47.359507	349.4	76.1	-93.2	13.7
2025-01-19 10:20:48.522101	347.8	76.5	-93.0	8.9
2025-01-19 10:20:49.686012	346.1	76.9	-93.1	20.6
2025-01-19 10:20:50.851698	344.3	77.3	-93.1	20.8
2025-01-19 10:20:52.013288	342.4	77.7	-93.0	13.8
2025-01-19 10:20:53.178003	340.3	78.1	-92.9	21.0
2025-01-19 10:20:54.351541	338.1	78.5	-93.3	26.2
2025-01-19 10:20:55.503887	335.8	78.8	-92.9	16.1
2025-01-19 10:20:56.672514	333.4	79.1	-93.3	13.9
2025-01-19 10:20:57.836789	330.7	79.4	-93.0	27.7
2025-01-19 10:20:59.002997	328.0	79.7	-93.1	22.0
2025-01-19 10:21:00.162409	325.0	80.0	-92.7	31.2
2025-01-19 10:21:01.328740	322.0	80.2	-92.7	26.3
2025-01-19 10:21:02.490832	318.7	80.4	-92.9	25.8
2025-01-19 10:21:03.651022	315.4	80.6	-92.9	25.7
2025-01-19 10:21:04.805493	312.0	80.7	-93.0	28.9
2025-01-19 10:21:05.962848	308.4	80.8	-92.8	25.6
2025-01-19 10:21:07.130291	304.8	80.9	-93.1	24.4
2025-01-19 10:21:08.290383	301.1	80.9	-92.9	23.9
2025-01-19 10:21:09.453361	297.4	80.9	-93.3	13.7
2025-01-19 10:21:10.612585	293.8	80.9	-93.0	16.7
2025-01-19 10:21:11.772761	290.2	80.8	-93.3	27.8
2025-01-19 10:21:12.934157	286.7	80.7	-93.2	11.7
2025-01-19 10:21:14.098513	283.2	80.5	-92.8	16.7
2025-01-19 10:21:15.256561	279.9	80.4	-92.6	30.4
2025-01-19 10:21:16.419842	276.7	80.2	-93.0	11.3
2025-01-19 10:21:17.578830	273.7	79.9	-93.1	12.5
2025-01-19 10:21:18.742900	270.8	79.7	-93.0	29.1
2025-01-19 10:21:19.908758	268.0	79.4	-92.7	14.7
2025-01-19 10:21:21.072068	265.4	79.1	-92.8	19.1
2025-01-19 10:21:22.235096	263.0	78.7	-92.7	26.0
2025-01-19 10:21:23.395044	260.7	78.4	-93.2	12.2
2025-01-19 10:21:24.555295	258.6	78.0	-92.8	15.3
2025-01-19 10:21:25.717300	256.5	77.6	-92.8	25.7
2025-01-19 10:21:26.884251	254.6	77.2	-92.6	13.6
2025-01-19 10:21:28.047584	252.9	76.8	-92.4	13.9
2025-01-19 10:21:29.215300	251.2	76.4	-92.4	20.2
2025-01-19 10:21:30.370733	249.6	76.0	-92.3	23.5
2025-01-19 10:21:31.535724	248.2	75.6	-92.6	11.4
2025-01-19 10:21:32.697897	246.8	75.1	-93.0	24.5
2025-01-19 10:21:33.861853	245.5	74.7	-92.9	21.2
2025-01-19 10:21:35.030217	244.3	74.2	-93.4	8.4
2025-01-19 10:21:36.190845	243.1	73.8	-92.9	18.2
2025-01-19 10:21:37.354862	242.0	73.3	-93.2	19.2
2025-01-19 10:21:38.518884	241.0	72.8	-93.2	12.8
2025-01-19 10:21:39.683219	240.1	72.4	-92.8	19.8
2025-01-19 10:21:40.850007	239.1	71.9	-92.8	24.4
2025-01-19 10:21:42.008591	238.3	71.4	-92.9	10.8
2025-01-19 10:21:43.167339	237.5	71.0	-92.9	16.6
2025-01-19 10:21:44.330993	236.7	70.5	-92.8	17.8
2025-01-19 10:21:45.493274	236.0	70.0	-93.0	11.0
2025-01-19 10:21:46.667394	235.3	69.5	-93.3	18.4
2025-01-19 10:21:47.825207	234.6	69.0	-93.3	23.5
2025-01-19 10:21:48.990153	234.0	68.6	-93.0	8.8
2025-01-19 10:21:50.158039	233.4	68.1	-92.6	11.2
2025-01-19 10:21:51.320242	232.8	67.6	-92.5	20.4
2025-01-19 10:21:52.484233	232.3	67.1	-92.6	10.3
2025-01-19 10:21:53.649161	231.7	66.7	-92.6	16.3
2025-01-19 10:21:54.810171	231.2	66.2	-92.6	12.2
2025-01-19 10:21:55.969202	230.8	65.7	-93.0	9.9
2025-01-19 10:21:57.129731	230.3	65.2	-92.9	13.7
2025-01-19 10:21:58.295226	229.9	64.8	-92.8	18.0
2025-01-19 10:21:59.459180	229.4	64.3	-92.9	15.4
2025-01-19 10:22:00.623639	229.0	63.8	-92.6	11.5
2025-01-19 10:22:01.787196	228.6	63.4	-92.7	19.1
2025-01-19 10:22:02.947477	228.3	62.9	-92.8	13.7
2025-01-19 10:22:04.107329	227.9	62.4	-92.9	17.5
2025-01-19 10:22:05.271723	227.6	62.0	-92.7	22.0
2025-01-19 10:22:06.434932	227.2	61.5	-92.8	20.8
2025-01-19 10:22:07.597707	226.9	61.1	-92.2	23.7
2025-01-19 10:22:08.774475	226.6	60.6	-92.5	18.4
2025-01-19 10:22:09.933170	226.3	60.2	-92.7	14.1
2025-01-19 10:22:11.094427	226.0	59.7	-92.1	15.5
2025-01-19 10:22:12.258220	225.7	59.3	-92.2	25.3
2025-01-19 10:22:13.422196	225.5	58.8	-92.5	20.3
2025-01-19 10:22:14.591111	225.2	58.4	-92.2	24.3
2025-01-19 10:22:15.748275	225.0	58.0	-92.4	21.3
2025-01-19 10:22:16.913838	224.7	57.5	-92.2	23.6
2025-01-19 10:22:18.073266	224.5	57.1	-92.6	22.8
2025-01-19 10:22:19.236933	224.3	56.7	-92.8	19.0
2025-01-19 10:22:20.396439	224.0	56.2	-92.8	24.0
2025-01-19 10:22:21.556404	223.8	55.8	-92.6	22.1
2025-01-19 10:22:22.718895	223.6	55.4	-92.5	26.6
2025-01-19 10:22:23.885093	223.4	55.0	-93.0	10.7
2025-01-19 10:22:25.046045	223.2	54.6	-93.3	17.8
2025-01-19 10:22:26.204239	223.0	54.2	-92.7	26.4
2025-01-19 10:22:27.391593	222.9	53.7	-93.0	18.7
2025-01-19 10:22:28.556173	222.7	53.3	-93.0	17.5
2025-01-19 10:22:29.722368	222.5	52.9	-93.3	17.9
2025-01-19 10:22:30.877466	222.3	52.5	-93.5	6.4
2025-01-19 10:22:32.038784	222.2	52.1	-93.5	13.9
2025-01-19 10:22:33.206933	222.0	51.7	-93.2	21.3
2025-01-19 10:22:34.371456	221.9	51.3	-92.8	13.0
2025-01-19 10:22:35.533627	221.7	51.0	-92.7	9.1
2025-01-19 10:22:36.684163	221.6	50.6	-92.3	7.2
2025-01-19 10:22:37.849516	221.4	50.2	-92.7	17.4
2025-01-19 10:22:39.009269	221.3	49.8	-92.4	19.0
2025-01-19 10:22:40.172536	221.1	49.4	-92.9	13.9
2025-01-19 10:22:41.330826	221.0	49.1	-92.4	18.5
2025-01-19 10:22:42.498177	220.9	48.7	-93.1	8.3
2025-01-19 10:22:43.658633	220.7	48.3	-92.7	14.0
2025-01-19 10:22:44.826714	220.6	48.0	-93.0	18.3
2025-01-19 10:22:45.987377	220.5	47.6	-93.2	16.6
2025-01-19 10:22:47.150755	220.4	47.2	-92.7	13.2
2025-01-19 10:22:48.315872	220.3	46.9	-93.0	7.5
2025-01-19 10:22:49.472078	220.2	46.5	-93.2	10.2
2025-01-19 10:22:50.637208	220.0	46.2	-93.3	3.5
2025-01-19 10:22:51.798027	219.9	45.8	-93.3	13.4
2025-01-19 10:22:52.962709	219.8	45.5	-92.8	4.2
2025-01-19 10:22:54.122767	219.7	45.1	-92.1	10.0
2025-01-19 10:22:55.290096	219.6	44.8	-92.8	11.5
2025-01-19 10:22:56.450793	219.5	44.5	-93.2	13.1
2025-01-19 10:22:57.620780	219.4	44.1	-93.2	5.4
2025-01-19 10:22:58.785949	219.3	43.8	-92.9	16.3
2025-01-19 10:22:59.952526	219.3	43.5	-93.0	14.1
2025-01-19 10:23:01.114412	219.2	43.2	-92.5	9.2
2025-01-19 10:23:02.272372	219.1	42.8	-93.0	12.0
2025-01-19 10:23:03.430148	219.0	42.5	-93.2	8.8
2025-01-19 10:23:04.590927	218.9	42.2	-93.2	15.1
2025-01-19 10:23:05.754870	218.8	41.9	-92.8	13.4
2025-01-19 10:23:06.912549	218.7	41.6	-93.0	17.1
2025-01-19 10:23:08.074666	218.7	41.3	-92.9	9.7
2025-01-19 10:23:09.238454	218.6	40.9	-92.8	14.5
2025-01-19 10:23:10.393984	218.5	40.6	-92.9	11.3
2025-01-19 10:23:11.559013	218.4	40.3	-92.9	6.1
2025-01-19 10:23:12.714595	218.4	40.0	-93.6	13.9
2025-01-19 10:23:13.873396	218.3	39.7	-93.4	11.2
2025-01-19 10:23:15.036400	218.2	39.5	-93.5	5.7
2025-01-19 10:23:16.194961	218.1	39.2	-92.4	4.6
2025-01-19 10:23:17.361023	218.1	38.9	-93.2	12.8
2025-01-19 10:23:18.527850	218.0	38.6	-93.1	15.1
2025-01-19 10:23:19.690047	217.9	38.3	-93.2	15.0
2025-01-19 10:23:20.857204	217.9	38.0	-92.8	15.0
2025-01-19 10:23:22.020653	217.8	37.7	-92.5	17.4
2025-01-19 10:23:23.183625	217.8	37.5	-92.8	10.2
2025-01-19 10:23:24.346570	217.7	37.2	-93.1	19.2
2025-01-19 10:23:25.510231	217.6	36.9	-93.2	14.6
2025-01-19 10:23:26.665138	217.6	36.6	-92.8	18.2
2025-01-19 10:23:27.830784	217.5	36.4	-93.3	12.6
2025-01-19 10:23:28.997739	217.5	36.1	-93.1	5.0
2025-01-19 10:23:30.159410	217.4	35.8	-92.5	13.5
2025-01-19 10:23:31.325783	217.4	35.6	-92.7	10.7
2025-01-19 10:23:32.484304	217.3	35.3	-92.6	12.3
2025-01-19 10:23:33.644746	217.2	35.0	-93.1	18.4
2025-01-19 10:23:34.808560	217.2	34.8	-92.9	16.4
2025-01-19 10:23:35.978702	217.1	34.5	-93.2	12.7
2025-01-19 10:23:37.142288	217.1	34.3	-93.0	10.2
2025-01-19 10:23:38.314970	217.0	34.0	-93.1	18.0
2025-01-19 10:23:39.476605	217.0	33.8	-93.2	8.9
2025-01-19 10:23:40.642098	216.9	33.5	-93.3	14.1
2025-01-19 10:23:41.810536	216.9	33.3	-92.9	9.6
2025-01-19 10:23:42.974783	216.9	33.0	-93.4	12.4
2025-01-19 10:23:44.138094	216.8	32.8	-93.4	8.8
2025-01-19 10:23:45.300156	216.8	32.6	-92.9	17.1
2025-01-19 10:23:46.469777	216.7	32.3	-93.2	8.5
2025-01-19 10:23:47.633122	216.7	32.1	-92.9	6.2
2025-01-19 10:23:48.794037	216.6	31.8	-92.8	9.0
2025-01-19 10:23:49.962048	216.6	31.6	-93.0	3.7
2025-01-19 10:23:51.123988	216.5	31.4	-92.7	7.8
2025-01-19 10:23:52.286811	216.5	31.2	-92.8	10.7
2025-01-19 10:23:53.450753	216.5	30.9	-93.2	16.2
2025-01-19 10:23:54.613666	216.4	30.7	-93.4	20.9
2025-01-19 10:23:55.780383	216.4	30.5	-93.6	13.5
2025-01-19 10:23:56.938580	216.3	30.3	-93.4	7.8
2025-01-19 10:23:58.102601	216.3	30.0	-93.1	13.9
2025-01-19 10:23:59.268138	216.3	29.8	-93.1	13.1
2025-01-19 10:24:00.428740	216.2	29.6	-93.0	6.6
2025-01-19 10:24:01.592826	216.2	29.4	-92.6	10.3
2025-01-19 10:24:02.756424	216.2	29.2	-93.0	9.1
2025-01-19 10:24:03.919965	216.1	29.0	-93.0	4.9
2025-01-19 10:24:05.076309	216.1	28.8	-93.4	5.0
2025-01-19 10:24:06.226793	216.1	28.5	-92.7	7.8
2025-01-19 10:24:07.397445	216.0	28.3	-92.7	13.3
2025-01-19 10:24:08.579236	216.0	28.1	-93.2	11.2
2025-01-19 10:24:09.744322	216.0	27.9	-92.8	7.0
2025-01-19 10:24:10.908568	215.9	27.7	-92.7	5.8
2025-01-19 10:24:12.071900	215.9	27.5	-93.1	9.8
2025-01-19 10:24:13.233322	215.9	27.3	-93.2	6.0
2025-01-19 10:24:14.396798	215.8	27.1	-93.1	9.1
2025-01-19 10:24:15.549762	215.8	26.9	-93.5	3.9
2025-01-19 10:24:16.713805	215.8	26.7	-93.2	4.4
2025-01-19 10:24:17.873930	215.7	26.5	-93.4	4.4
2025-01-19 10:24:19.040278	215.7	26.3	-93.2	4.7
2025-01-19 10:24:20.200715	215.7	26.2	-92.4	9.9
2025-01-19 10:24:21.368397	215.7	26.0	-93.2	10.5
2025-01-19 10:24:22.532703	215.6	25.8	-93.1	7.4
2025-01-19 10:24:23.699955	215.6	25.6	-93.1	4.7
2025-01-19 10:24:24.857813	215.6	25.4	-92.9	4.3
2025-01-19 10:24:26.022330	215.5	25.2	-93.4	4.7
2025-01-19 10:24:27.185409	215.5	25.0	-93.4	14.8
2025-01-19 10:24:28.349575	215.5	24.8	-93.1	14.8
2025-01-19 10:24:29.517626	215.5	24.7	-93.0	10.6
2025-01-19 10:24:30.682243	215.4	24.5	-92.3	12.2
2025-01-19 10:24:31.846171	215.4	24.3	-92.9	11.0
2025-01-19 10:24:33.007169	215.4	24.1	-92.8	8.7
2025-01-19 10:24:34.171734	215.4	23.9	-93.1	15.8
2025-01-19 10:24:35.339067	215.3	23.8	-93.1	12.7
2025-01-19 10:24:36.498834	215.3	23.6	-92.9	16.0
2025-01-19 10:24:37.658465	215.3	23.4	-92.2	15.3
2025-01-19 10:24:38.825589	215.3	23.3	-91.7	10.1
2025-01-19 10:24:39.984251	215.2	23.1	-91.8	12.8
2025-01-19 10:24:41.141845	215.2	22.9	-91.5	14.3
2025-01-19 10:24:42.309693	215.2	22.7	-91.4	12.5
2025-01-19 10:24:43.469872	215.2	22.6	-91.7	8.8
2025-01-19 10:24:44.637519	215.2	22.4	-91.3	5.5
2025-01-19 10:24:45.801361	215.1	22.2	-91.7	9.8
2025-01-19 10:24:46.955479	215.1	22.1	-91.2	7.1
2025-01-19 10:24:48.123658	215.1	21.9	-91.5	6.0
2025-01-19 10:24:49.280587	215.1	21.8	-91.6	7.7
2025-01-19 10:24:50.447627	215.1	21.6	-93.0	11.1
2025-01-19 10:24:51.607085	215.0	21.4	-93.2	12.8
2025-01-19 10:24:52.771751	215.0	21.3	-92.5	12.7
2025-01-19 10:24:53.927307	215.0	21.1	-93.2	7.1
2025-01-19 10:24:55.087955	215.0	21.0	-93.0	11.6
2025-01-19 10:24:56.235497	215.0	20.8	-92.2	14.9
2025-01-19 10:24:57.402921	214.9	20.7	-92.4	8.3
2025-01-19 10:24:58.565856	214.9	20.5	-92.8	6.4
2025-01-19 10:24:59.731375	214.9	20.3	-92.6	11.0
2025-01-19 10:25:00.886819	214.9	20.2	-93.2	8.3
2025-01-19 10:25:02.043222	214.9	20.0	-93.2	8.8
2025-01-19 10:25:03.201524	214.8	19.9	-92.7	14.6
2025-01-19 10:25:04.364515	214.8	19.7	-92.7	16.6
2025-01-19 10:25:05.527391	214.8	19.6	-93.0	9.3
2025-01-19 10:25:06.686865	214.8	19.4	-93.3	8.8
2025-01-19 10:25:07.852971	214.8	19.3	-92.7	10.9
2025-01-19 10:25:09.018337	214.8	19.1	-92.8	9.6
2025-01-19 10:25:10.179447	214.7	19.0	-92.5	5.9
2025-01-19 10:25:11.340945	214.7	18.9	-92.1	6.4
2025-01-19 10:25:12.502864	214.7	18.7	-92.7	5.1
2025-01-19 10:25:13.666982	214.7	18.6	-93.1	8.0
2025-01-19 10:25:14.834799	214.7	18.4	-93.3	11.5
2025-01-19 10:25:15.996873	214.7	18.3	-92.7	8.4
2025-01-19 10:25:17.151761	214.6	18.1	-92.6	10.1
2025-01-19 10:25:18.311006	214.6	18.0	-92.1	7.9
2025-01-19 10:25:19.471325	214.6	17.9	-92.9	10.4
2025-01-19 10:25:20.632250	214.6	17.7	-93.1	12.2
2025-01-19 10:25:21.797203	214.6	17.6	-93.1	9.4
2025-01-19 10:25:22.961759	214.6	17.5	-93.0	7.0
2025-01-19 10:25:24.118313	214.6	17.3	-92.8	9.2
2025-01-19 10:25:25.276730	214.5	17.2	-92.8	10.9
2025-01-19 10:25:26.437255	214.5	17.1	-93.1	6.6
2025-01-19 10:25:27.596188	214.5	16.9	-93.0	8.6
2025-01-19 10:25:28.760267	214.5	16.8	-92.9	12.5
2025-01-19 10:25:29.926390	214.5	16.7	-93.0	9.1
2025-01-19 10:25:31.087732	214.5	16.5	-92.6	3.9
2025-01-19 10:25:32.247822	214.5	16.4	-92.9	4.7
2025-01-19 10:25:33.413286	214.4	16.3	-92.6	4.7
2025-01-19 10:25:34.576187	214.4	16.1	-92.6	6.1
2025-01-19 10:25:35.743828	214.4	16.0	-92.9	6.8
2025-01-19 10:25:36.902485	214.4	15.9	-93.2	6.7
2025-01-19 10:25:38.068795	214.4	15.7	-93.2	5.8
2025-01-19 10:25:39.232977	214.4	15.6	-92.8	4.6
2025-01-19 10:25:40.393948	214.4	15.5	-92.8	4.7
2025-01-19 10:25:41.557229	214.3	15.4	-92.8	5.4
2025-01-19 10:25:42.719040	214.3	15.2	-92.8	4.9
2025-01-19 10:25:43.886485	214.3	15.1	-92.4	4.2
2025-01-19 10:25:45.057702	214.3	15.0	-93.0	7.7
2025-01-19 10:25:46.223524	214.3	14.9	-92.7	6.0
2025-01-19 10:25:47.381704	214.3	14.7	-92.6	6.4
2025-01-19 10:25:48.553973	214.3	14.6	-92.7	7.8
2025-01-19 10:25:49.729099	214.3	14.5	-92.3	5.6
#Closed at: 2025-01-19 10:16:35.121108