passes_logs/2026/01/07/R2M6_AANII_01/R2M6_AANII_01__20260107_103819_NOAA_20_JPSS-1_rec.log

#Pass ID: 20260107_103819_NOAA 20 (JPSS-1)
#Satellite: NOAA 20 (JPSS-1)
#Configuration: NOAA 20
#almurnet v.1.7.20240730
#Start time: 2026-01-07 10:38:19

#Version: 2.2.20231116
#Station: R2M6_AANII_01
#Location: 30.233357 lon 59.946436 lat
#TLE: 1 43013U 17073A   26006.30790171  .00000126  00000+0  80695-4 0  9991
#TLE: 2 43013  98.7629 307.3394 0001808  51.8724 308.2615 14.19533762421505

#Time	Az	El	Level	Level2	SNR	BER	BlckErr	Temp	State	Recorded	gain1	gain2
2026-01-07 10:38:19.01	170.12	6.98	-30.6	-34.9	5.4	1.20e+00	0	41	0	0	22	5901
2026-01-07 10:38:20.01	170.14	7.06	-31.3	-37.2	5.0	1.27e+00	0	41	104	0	23	7138
2026-01-07 10:38:21.02	170.17	7.14	-31.3	-37.1	8.1	6.56e-02	0	41	0	0	23	7060
2026-01-07 10:38:22.04	170.19	7.22	-31.0	-35.9	9.0	3.68e-02	0	41	0	1048576	23	6300
2026-01-07 10:38:23.04	170.21	7.29	-31.3	-36.9	8.2	4.09e-02	0	41	0	3145728	23	6900
2026-01-07 10:38:24.04	170.24	7.37	-31.1	-36.2	8.8	3.90e-02	0	41	0	5242880	23	6470
2026-01-07 10:38:25.04	170.26	7.45	-30.8	-35.0	9.8	2.07e-02	0	41	0	7340032	23	5814
2026-01-07 10:38:26.05	170.28	7.53	-30.6	-34.7	10.4	7.49e-03	0	41	0	9437184	22	5767
2026-01-07 10:38:27.06	170.31	7.61	-30.7	-35.3	9.9	6.59e-03	0	41	0	10485760	22	6068
2026-01-07 10:38:28.06	170.33	7.69	-30.7	-35.3	10.0	7.80e-03	0	41	0	12582912	22	6066
2026-01-07 10:38:29.07	170.35	7.77	-30.7	-35.2	10.0	7.47e-03	0	41	0	14680064	22	6052
2026-01-07 10:38:30.08	170.38	7.85	-30.8	-35.4	9.9	9.20e-03	0	41	0	16777216	22	6134
2026-01-07 10:38:31.08	170.40	7.93	-30.7	-35.3	10.0	7.93e-03	0	41	0	18874368	22	6051
2026-01-07 10:38:32.08	170.43	8.01	-30.7	-35.1	10.1	6.44e-03	0	41	0	19922944	22	5980
2026-01-07 10:38:33.09	170.45	8.09	-30.7	-35.2	10.0	6.21e-03	0	41	0	22020096	22	6040
2026-01-07 10:38:34.09	170.47	8.17	-30.7	-35.1	10.2	6.60e-03	0	41	0	24117248	22	5948
2026-01-07 10:38:35.10	170.50	8.25	-30.6	-34.5	10.6	4.90e-03	0	41	0	26214400	22	5691
2026-01-07 10:38:36.11	170.52	8.33	-30.4	-33.9	11.1	2.04e-03	0	41	0	28311552	22	5415
2026-01-07 10:38:37.11	170.55	8.41	-30.2	-33.9	11.5	1.09e-03	0	41	0	29360128	21	5499
2026-01-07 10:38:38.12	170.57	8.49	-30.4	-34.5	11.1	1.23e-03	0	41	0	31457280	21	5750
2026-01-07 10:38:39.12	170.60	8.58	-30.3	-34.0	11.5	1.13e-03	0	42	0	33554432	21	5516
2026-01-07 10:38:40.13	170.62	8.66	-30.1	-33.5	11.9	5.55e-04	0	42	0	35651584	21	5313
2026-01-07 10:38:41.13	170.65	8.74	-30.1	-33.4	11.9	4.51e-04	0	41	0	37748736	21	5285
2026-01-07 10:38:42.14	170.67	8.82	-30.1	-33.4	11.9	3.51e-04	0	41	0	38797312	21	5263
2026-01-07 10:38:43.14	170.70	8.91	-30.0	-33.1	12.1	3.26e-04	0	42	0	40894464	21	5153
2026-01-07 10:38:44.14	170.72	8.99	-29.9	-32.9	12.3	1.91e-04	0	42	0	42991616	21	5079
2026-01-07 10:38:45.15	170.75	9.07	-29.9	-32.9	12.3	1.78e-04	0	42	102	45088768	21	5059
2026-01-07 10:38:46.15	170.77	9.16	-29.9	-32.9	12.3	1.78e-04	0	42	102	45088768	21	5074
2026-01-07 10:38:47.16	170.80	9.24	-29.9	-32.8	12.4	1.99e-04	0	42	102	45088768	21	5032
2026-01-07 10:38:48.16	170.83	9.32	-29.9	-32.9	12.3	1.70e-04	0	42	102	45088768	21	5053
2026-01-07 10:38:49.17	170.85	9.41	-30.0	-33.0	12.2	1.80e-04	0	42	102	45088768	21	5112
2026-01-07 10:38:50.18	170.88	9.50	-29.9	-32.7	12.5	1.60e-04	0	42	102	45088768	21	4994
2026-01-07 10:38:51.18	170.91	9.58	-29.9	-32.9	12.4	1.49e-04	0	42	102	45088768	21	5048
2026-01-07 10:38:52.19	170.93	9.67	-30.0	-33.0	12.3	2.10e-04	0	42	102	45088768	21	5092
2026-01-07 10:38:53.20	170.96	9.75	-29.9	-32.7	12.5	1.37e-04	0	42	102	45088768	21	4996
2026-01-07 10:38:54.20	170.99	9.84	-29.9	-32.6	12.5	9.99e-05	0	42	102	45088768	21	4958
2026-01-07 10:38:55.21	171.01	9.92	-29.8	-32.5	12.6	8.62e-05	0	42	102	45088768	21	4921
2026-01-07 10:38:56.22	171.04	10.01	-29.8	-32.5	12.7	8.23e-05	0	42	102	45088768	21	4889
2026-01-07 10:38:57.22	171.07	10.10	-29.8	-32.9	12.8	8.85e-05	0	42	102	45088768	20	5135
2026-01-07 10:38:58.22	171.09	10.19	-29.7	-32.7	12.9	5.79e-05	0	42	102	45088768	20	5081
2026-01-07 10:38:59.23	171.12	10.27	-29.8	-32.9	12.8	6.48e-05	0	42	102	45088768	20	5135
2026-01-07 10:39:00.23	171.15	10.36	-29.8	-32.8	12.8	5.95e-05	0	42	102	45088768	20	5107
2026-01-07 10:39:01.24	171.18	10.45	-29.8	-32.8	12.9	5.64e-05	0	42	102	45088768	20	5094
2026-01-07 10:39:02.25	171.21	10.54	-29.8	-32.9	12.8	5.18e-05	0	42	102	45088768	20	5130
2026-01-07 10:39:03.26	171.23	10.63	-29.7	-32.7	13.0	3.89e-05	0	42	102	45088768	20	5058
2026-01-07 10:39:04.27	171.26	10.72	-29.8	-32.8	12.8	4.42e-05	0	42	102	45088768	20	5112
2026-01-07 10:39:05.28	171.29	10.81	-29.7	-32.5	13.1	3.12e-05	0	42	102	45088768	20	4988
2026-01-07 10:39:06.28	171.32	10.90	-29.8	-32.7	12.9	4.57e-05	0	42	102	45088768	20	5075
2026-01-07 10:39:07.29	171.35	10.99	-29.8	-33.0	12.7	6.10e-05	0	42	102	45088768	20	5181
2026-01-07 10:39:08.29	171.38	11.08	-29.7	-32.4	13.1	6.56e-05	0	42	102	45088768	20	4957
2026-01-07 10:39:09.30	171.41	11.17	-29.7	-32.4	13.2	2.74e-05	0	42	102	45088768	20	4959
2026-01-07 10:39:10.30	171.44	11.26	-29.7	-32.4	13.2	2.21e-05	0	42	102	45088768	20	4956
2026-01-07 10:39:11.30	171.46	11.35	-29.7	-32.6	13.1	3.20e-05	0	42	102	45088768	20	4997
2026-01-07 10:39:12.31	171.49	11.44	-29.6	-32.2	13.3	1.67e-05	0	42	102	45088768	20	4874
2026-01-07 10:39:13.32	171.52	11.54	-29.6	-32.2	13.3	1.22e-05	0	42	102	45088768	20	4888
2026-01-07 10:39:14.33	171.55	11.63	-29.6	-32.3	13.3	1.83e-05	0	42	102	45088768	20	4892
2026-01-07 10:39:15.33	171.58	11.72	-29.7	-32.5	13.2	1.90e-05	0	42	102	45088768	20	4972
2026-01-07 10:39:16.34	171.61	11.82	-29.7	-32.6	13.1	2.67e-05	0	42	102	45088768	20	4998
2026-01-07 10:39:17.34	171.65	11.91	-29.7	-32.5	13.2	1.98e-05	0	42	102	45088768	20	4956
2026-01-07 10:39:18.35	171.68	12.00	-29.6	-32.3	13.3	2.13e-05	0	42	102	45088768	20	4891
2026-01-07 10:39:19.36	171.71	12.10	-29.6	-32.2	13.4	1.22e-05	0	42	102	45088768	20	4860
2026-01-07 10:39:20.36	171.74	12.19	-29.6	-32.2	13.4	1.90e-05	0	42	102	45088768	20	4872
2026-01-07 10:39:21.37	171.77	12.29	-29.6	-32.2	13.4	8.30e-06	0	42	102	45088768	20	4881
2026-01-07 10:39:22.37	171.80	12.38	-29.7	-32.5	13.2	2.28e-05	0	42	102	45088768	20	4982
2026-01-07 10:39:23.38	171.83	12.48	-29.8	-32.7	13.0	4.95e-05	0	42	102	45088768	20	5060
2026-01-07 10:39:24.39	171.86	12.58	-29.6	-32.3	13.3	2.59e-05	0	42	102	45088768	20	4909
2026-01-07 10:39:25.39	171.90	12.67	-29.6	-32.2	13.4	1.83e-05	0	42	102	45088768	20	4856
2026-01-07 10:39:26.40	171.93	12.77	-29.6	-32.2	13.4	1.75e-05	0	42	102	45088768	20	4854
2026-01-07 10:39:27.40	171.96	12.87	-29.6	-32.1	13.5	1.60e-05	0	42	102	45088768	20	4847
2026-01-07 10:39:28.41	171.99	12.96	-29.6	-32.2	13.4	1.44e-05	0	42	102	45088768	20	4881
2026-01-07 10:39:29.42	172.02	13.06	-29.5	-32.1	13.5	2.36e-05	0	42	102	45088768	20	4830
2026-01-07 10:39:30.43	172.06	13.16	-29.6	-32.3	13.4	1.60e-05	0	43	102	45088768	20	4886
2026-01-07 10:39:31.44	172.09	13.26	-29.7	-32.4	13.3	1.67e-05	0	42	102	45088768	20	4950
2026-01-07 10:39:32.44	172.12	13.36	-29.6	-32.2	13.5	2.05e-05	0	43	102	45088768	20	4848
2026-01-07 10:39:33.45	172.16	13.46	-29.5	-31.9	13.6	4.50e-06	0	43	102	45088768	20	4765
2026-01-07 10:39:34.45	172.19	13.56	-29.5	-31.8	13.7	8.30e-06	0	42	102	45088768	20	4728
2026-01-07 10:39:35.46	172.23	13.66	-29.5	-32.0	13.6	6.10e-06	0	43	102	45088768	20	4791
2026-01-07 10:39:36.47	172.26	13.76	-29.5	-31.9	13.6	7.60e-06	0	42	102	45088768	20	4767
2026-01-07 10:39:37.47	172.29	13.86	-29.5	-31.9	13.7	6.80e-06	0	43	102	45088768	20	4753
2026-01-07 10:39:38.48	172.33	13.96	-29.5	-31.9	13.7	6.80e-06	0	43	102	45088768	20	4735
2026-01-07 10:39:39.49	172.36	14.07	-29.4	-31.6	13.9	6.80e-06	0	42	102	45088768	20	4635
2026-01-07 10:39:40.49	172.40	14.17	-29.4	-31.7	13.9	2.20e-06	0	43	102	45088768	20	4666
2026-01-07 10:39:41.50	172.43	14.27	-29.4	-31.7	13.8	8.30e-06	0	43	102	45088768	20	4688
2026-01-07 10:39:42.50	172.47	14.38	-29.4	-31.6	13.9	2.20e-06	0	43	102	45088768	20	4636
2026-01-07 10:39:43.51	172.50	14.48	-29.4	-31.7	13.9	2.20e-06	0	43	102	45088768	20	4668
2026-01-07 10:39:44.52	172.54	14.58	-29.5	-32.0	13.6	1.44e-05	0	43	102	45088768	20	4778
2026-01-07 10:39:45.52	172.58	14.69	-29.6	-32.1	13.6	1.37e-05	0	43	102	45088768	20	4807
2026-01-07 10:39:46.52	172.61	14.79	-29.4	-31.8	13.8	6.80e-06	0	43	102	45088768	20	4709
2026-01-07 10:39:47.53	172.65	14.90	-29.4	-31.6	13.9	7.60e-06	0	43	102	45088768	20	4656
2026-01-07 10:39:48.54	172.69	15.01	-29.4	-31.6	13.9	7.00e-07	0	43	102	45088768	20	4653
2026-01-07 10:39:49.54	172.72	15.11	-29.4	-31.8	13.8	3.80e-06	0	43	102	45088768	20	4726
2026-01-07 10:39:50.55	172.76	15.22	-29.5	-32.0	13.7	1.50e-06	0	43	102	45088768	20	4783
2026-01-07 10:39:51.56	172.80	15.33	-29.5	-32.1	13.6	4.50e-06	0	43	102	45088768	20	4816
2026-01-07 10:39:52.57	172.84	15.44	-29.6	-32.2	13.5	1.52e-05	0	43	102	45088768	20	4876
2026-01-07 10:39:53.57	172.87	15.54	-29.5	-31.9	13.8	6.10e-06	0	43	102	45088768	20	4742
2026-01-07 10:39:54.58	172.91	15.65	-29.5	-32.0	13.7	6.10e-06	0	43	102	45088768	20	4789
2026-01-07 10:39:55.58	172.95	15.76	-29.6	-32.1	13.6	1.22e-05	0	43	102	45088768	20	4833
2026-01-07 10:39:56.58	172.99	15.87	-29.6	-32.3	13.5	9.90e-06	0	43	102	45088768	20	4893
2026-01-07 10:39:57.58	173.03	15.98	-29.7	-32.6	13.3	1.98e-05	0	43	102	45088768	20	5000
2026-01-07 10:39:58.59	173.07	16.09	-29.8	-32.7	13.2	1.52e-05	0	43	102	45088768	20	5037
2026-01-07 10:39:59.60	173.11	16.20	-29.7	-32.4	13.5	1.29e-05	0	43	102	45088768	20	4936
2026-01-07 10:40:00.61	173.15	16.32	-29.7	-32.5	13.4	7.60e-06	0	43	102	45088768	20	4968
2026-01-07 10:40:01.61	173.19	16.43	-29.7	-32.5	13.4	1.14e-05	0	43	102	45088768	20	4959
2026-01-07 10:40:02.62	173.23	16.54	-29.8	-32.7	13.3	1.22e-05	0	43	102	45088768	20	5032
2026-01-07 10:40:03.63	173.27	16.66	-29.8	-32.7	13.3	2.51e-05	0	43	102	45088768	20	5038
2026-01-07 10:40:04.64	173.31	16.77	-29.9	-32.9	13.2	1.67e-05	0	43	102	45088768	20	5116
2026-01-07 10:40:05.65	173.35	16.88	-29.9	-32.9	13.2	2.44e-05	0	43	102	45088768	20	5089
2026-01-07 10:40:06.65	173.39	17.00	-29.9	-33.0	13.2	1.83e-05	0	43	102	45088768	20	5124
2026-01-07 10:40:07.65	173.43	17.11	-30.0	-33.1	13.1	3.12e-05	0	43	102	45088768	20	5155
2026-01-07 10:40:08.66	173.47	17.23	-30.0	-33.3	13.0	2.67e-05	0	43	102	45088768	20	5230
2026-01-07 10:40:09.67	173.52	17.35	-30.0	-33.3	13.0	3.81e-05	0	43	102	45088768	20	5231
2026-01-07 10:40:10.68	173.56	17.46	-30.0	-33.1	13.0	3.96e-05	0	43	102	45088768	20	5184
2026-01-07 10:40:11.68	173.60	17.58	-30.0	-33.1	13.1	3.12e-05	0	43	102	45088768	20	5164
2026-01-07 10:40:12.69	173.65	17.70	-30.1	-33.3	13.0	2.74e-05	0	43	102	45088768	20	5245
2026-01-07 10:40:13.70	173.69	17.82	-30.0	-33.2	13.1	3.58e-05	0	43	102	45088768	20	5204
2026-01-07 10:40:14.70	173.73	17.94	-30.1	-33.5	12.9	3.66e-05	0	43	102	45088768	20	5309
2026-01-07 10:40:15.71	173.78	18.06	-30.2	-33.6	12.8	5.18e-05	0	43	102	45088768	20	5345
2026-01-07 10:40:16.72	173.82	18.18	-30.2	-33.6	12.8	3.89e-05	0	43	102	45088768	20	5339
2026-01-07 10:40:17.72	173.87	18.30	-30.3	-33.9	12.6	6.33e-05	0	43	102	45088768	20	5471
2026-01-07 10:40:18.72	173.91	18.42	-30.3	-34.0	12.6	9.23e-05	0	43	102	45088768	20	5492
2026-01-07 10:40:19.74	173.96	18.55	-30.2	-33.8	12.7	8.23e-05	0	43	102	45088768	20	5398
2026-01-07 10:40:20.74	174.00	18.67	-30.3	-33.9	12.7	7.40e-05	0	43	102	45088768	20	5456
2026-01-07 10:40:21.75	174.05	18.79	-30.3	-33.9	12.6	8.77e-05	0	43	102	45088768	20	5472
2026-01-07 10:40:22.75	174.10	18.91	-30.3	-33.9	12.7	8.54e-05	0	43	102	45088768	20	5459
2026-01-07 10:40:23.76	174.14	19.04	-30.3	-34.0	12.6	8.31e-05	0	43	102	45088768	20	5483
2026-01-07 10:40:24.77	174.19	19.17	-30.4	-34.3	12.4	1.04e-04	0	43	102	45088768	20	5617
2026-01-07 10:40:25.78	174.24	19.29	-30.4	-34.3	12.4	1.61e-04	0	43	102	45088768	20	5623
2026-01-07 10:40:26.78	174.29	19.42	-30.4	-34.2	12.5	1.22e-04	0	43	102	45088768	20	5559
2026-01-07 10:40:27.79	174.34	19.55	-30.3	-34.0	12.6	8.69e-05	0	43	102	45088768	20	5511
2026-01-07 10:40:28.80	174.39	19.67	-30.4	-34.2	12.5	9.53e-05	0	43	102	45088768	20	5566
2026-01-07 10:40:29.81	174.44	19.80	-30.4	-34.2	12.5	1.08e-04	0	43	102	45088768	20	5579
2026-01-07 10:40:30.81	174.48	19.93	-30.4	-34.1	12.6	1.27e-04	0	43	102	45088768	20	5552
2026-01-07 10:40:31.82	174.53	20.06	-30.4	-34.2	12.5	1.20e-04	0	43	102	45088768	20	5584
2026-01-07 10:40:32.83	174.59	20.19	-30.4	-34.2	12.5	9.61e-05	0	43	102	45088768	20	5593
2026-01-07 10:40:33.84	174.64	20.32	-30.4	-34.1	12.6	1.12e-04	0	43	102	45088768	20	5537
2026-01-07 10:40:34.84	174.69	20.45	-30.5	-34.4	12.4	1.33e-04	0	43	102	45088768	20	5673
2026-01-07 10:40:35.85	174.74	20.59	-30.4	-34.1	12.6	1.11e-04	0	43	102	45088768	20	5547
2026-01-07 10:40:36.86	174.79	20.72	-30.4	-34.1	12.6	7.47e-05	0	43	102	45088768	20	5547
2026-01-07 10:40:37.87	174.84	20.86	-30.4	-34.1	12.6	8.31e-05	0	43	102	45088768	20	5514
2026-01-07 10:40:38.88	174.90	20.99	-30.3	-33.8	12.8	6.33e-05	0	43	102	45088768	20	5422
2026-01-07 10:40:39.88	174.95	21.13	-30.3	-33.9	12.8	5.79e-05	0	43	102	45088768	20	5435
2026-01-07 10:40:40.89	175.00	21.26	-30.2	-33.7	12.9	6.56e-05	0	43	102	45088768	20	5377
2026-01-07 10:40:41.90	175.06	21.40	-30.2	-33.6	13.0	4.50e-05	0	43	102	45088768	20	5347
2026-01-07 10:40:42.90	175.11	21.54	-30.2	-33.6	12.9	4.42e-05	0	43	102	45088768	20	5327
2026-01-07 10:40:43.91	175.17	21.67	-30.2	-33.5	13.0	4.34e-05	0	43	102	45088768	20	5306
2026-01-07 10:40:44.91	175.22	21.81	-30.2	-33.6	13.0	4.50e-05	0	43	102	45088768	20	5331
2026-01-07 10:40:45.92	175.28	21.95	-30.2	-33.5	13.0	3.28e-05	0	43	102	45088768	20	5293
2026-01-07 10:40:46.93	175.34	22.09	-30.2	-33.6	13.0	4.19e-05	0	43	102	45088768	20	5312
2026-01-07 10:40:47.94	175.39	22.23	-30.3	-33.8	12.9	3.58e-05	0	43	102	45088768	20	5389
2026-01-07 10:40:48.95	175.45	22.38	-30.1	-33.4	13.2	4.19e-05	0	43	102	45088768	20	5226
2026-01-07 10:40:49.95	175.51	22.52	-30.3	-33.8	12.9	3.73e-05	0	43	102	45088768	20	5386
2026-01-07 10:40:50.96	175.57	22.66	-30.1	-33.4	13.1	4.50e-05	0	43	102	45088768	20	5240
2026-01-07 10:40:51.96	175.63	22.81	-30.1	-33.3	13.2	1.37e-05	0	43	102	45088768	20	5192
2026-01-07 10:40:52.97	175.69	22.95	-30.0	-33.1	13.4	1.67e-05	0	43	102	45088768	20	5120
2026-01-07 10:40:53.98	175.75	23.10	-30.1	-33.2	13.3	1.67e-05	0	43	102	45088768	20	5152
2026-01-07 10:40:54.99	175.81	23.24	-30.0	-33.1	13.4	1.22e-05	0	43	102	45088768	20	5115
2026-01-07 10:40:56.00	175.87	23.39	-29.9	-32.8	13.6	1.14e-05	0	43	102	45088768	20	5015
2026-01-07 10:40:57.01	175.93	23.54	-29.9	-32.6	13.7	3.80e-06	0	43	102	45088768	20	4944
2026-01-07 10:40:58.02	175.99	23.69	-30.0	-33.0	13.5	9.10e-06	0	43	102	45088768	20	5092
2026-01-07 10:40:59.02	176.06	23.84	-29.9	-32.7	13.7	1.14e-05	0	43	102	45088768	20	4966
2026-01-07 10:41:00.03	176.12	23.99	-29.9	-32.7	13.7	8.30e-06	0	43	102	45088768	20	4951
2026-01-07 10:41:01.04	176.18	24.14	-29.9	-32.8	13.6	3.80e-06	0	43	102	45088768	20	4999
2026-01-07 10:41:02.04	176.25	24.29	-30.1	-33.2	13.4	9.10e-06	0	43	102	45088768	20	5152
2026-01-07 10:41:03.05	176.31	24.45	-30.1	-33.4	13.2	1.60e-05	0	43	102	45088768	20	5215
2026-01-07 10:41:04.06	176.38	24.60	-30.0	-33.0	13.5	1.83e-05	0	43	102	45088768	20	5074
2026-01-07 10:41:05.07	176.44	24.76	-30.0	-32.8	13.6	9.90e-06	0	43	102	45088768	20	5018
2026-01-07 10:41:06.07	176.51	24.91	-29.9	-32.8	13.6	1.14e-05	0	43	102	45088768	20	5005
2026-01-07 10:41:07.08	176.58	25.07	-29.9	-32.8	13.7	6.10e-06	0	43	102	45088768	20	4989
2026-01-07 10:41:08.08	176.65	25.23	-29.9	-32.8	13.7	5.30e-06	0	43	102	45088768	20	4996
2026-01-07 10:41:09.09	176.72	25.39	-30.1	-33.3	13.3	8.30e-06	0	43	102	45088768	20	5178
2026-01-07 10:41:10.10	176.79	25.55	-30.0	-32.9	13.6	1.22e-05	0	43	102	45088768	20	5031
2026-01-07 10:41:11.11	176.86	25.71	-29.8	-32.4	13.9	3.80e-06	0	43	102	45088768	20	4870
2026-01-07 10:41:12.12	176.93	25.87	-29.8	-32.5	13.8	2.20e-06	0	43	102	45088768	20	4902
2026-01-07 10:41:13.12	177.00	26.03	-29.9	-32.7	13.7	8.30e-06	0	43	102	45088768	20	4982
2026-01-07 10:41:14.13	177.07	26.19	-30.0	-32.8	13.7	6.10e-06	0	43	102	45088768	20	5000
2026-01-07 10:41:15.13	177.14	26.36	-30.0	-33.1	13.5	6.80e-06	0	43	102	45088768	20	5095
2026-01-07 10:41:16.14	177.22	26.52	-30.0	-33.1	13.5	7.60e-06	0	43	102	45088768	20	5098
2026-01-07 10:41:17.15	177.29	26.69	-30.1	-33.2	13.4	1.14e-05	0	43	102	45088768	20	5153
2026-01-07 10:41:18.16	177.37	26.86	-30.1	-33.3	13.4	1.60e-05	0	43	102	45088768	20	5172
2026-01-07 10:41:19.16	177.44	27.02	-30.2	-33.5	13.2	2.59e-05	0	43	102	45088768	20	5278
2026-01-07 10:41:20.17	177.52	27.19	-30.3	-33.9	13.0	3.12e-05	0	43	102	45088768	20	5422
2026-01-07 10:41:21.17	177.60	27.36	-30.4	-34.0	13.0	2.74e-05	0	43	102	45088768	20	5440
2026-01-07 10:41:22.18	177.68	27.53	-30.5	-34.2	12.8	5.41e-05	0	43	102	45088768	20	5546
2026-01-07 10:41:23.19	177.76	27.71	-30.4	-34.0	12.9	5.34e-05	0	43	102	45088768	20	5460
2026-01-07 10:41:24.19	177.83	27.88	-30.4	-34.0	13.0	4.65e-05	0	43	102	45088768	20	5447
2026-01-07 10:41:25.20	177.92	28.05	-30.4	-34.0	12.9	5.64e-05	0	43	102	45088768	20	5476
2026-01-07 10:41:26.21	178.00	28.23	-30.3	-33.9	13.0	4.34e-05	0	43	102	45088768	20	5420
2026-01-07 10:41:27.21	178.08	28.40	-30.4	-34.0	12.9	5.41e-05	0	43	102	45088768	20	5470
2026-01-07 10:41:28.22	178.16	28.58	-30.5	-33.8	12.7	6.48e-05	0	43	102	45088768	21	5280
2026-01-07 10:41:29.22	178.25	28.76	-30.5	-33.9	12.7	5.95e-05	0	43	102	45088768	21	5286
2026-01-07 10:41:30.22	178.33	28.94	-30.6	-34.0	12.6	8.54e-05	0	43	102	45088768	21	5352
2026-01-07 10:41:31.22	178.42	29.12	-30.6	-34.2	12.5	9.53e-05	0	43	102	45088768	21	5414
2026-01-07 10:41:32.23	178.50	29.30	-30.7	-34.3	12.4	1.18e-04	0	43	102	45088768	21	5460
2026-01-07 10:41:33.24	178.59	29.48	-30.7	-34.4	12.4	1.54e-04	0	43	102	45088768	21	5517
2026-01-07 10:41:34.25	178.68	29.67	-30.8	-34.7	12.2	1.73e-04	0	43	102	45088768	21	5638
2026-01-07 10:41:35.25	178.77	29.85	-30.9	-35.1	11.9	3.70e-04	0	43	102	45088768	21	5809
2026-01-07 10:41:36.26	178.86	30.04	-30.8	-34.6	12.2	2.75e-04	0	43	102	45088768	21	5601
2026-01-07 10:41:37.26	178.95	30.22	-30.8	-34.6	12.3	2.14e-04	0	43	102	45088768	21	5587
2026-01-07 10:41:38.27	179.05	30.41	-30.9	-34.8	12.1	2.69e-04	0	43	102	45088768	21	5691
2026-01-07 10:41:39.28	179.14	30.60	-31.1	-34.9	11.7	4.59e-04	0	43	102	45088768	22	5593
2026-01-07 10:41:40.28	179.23	30.79	-30.9	-34.6	12.0	4.49e-04	0	43	102	45088768	22	5457
2026-01-07 10:41:41.29	179.33	30.99	-31.1	-34.9	11.7	5.90e-04	0	43	102	45088768	22	5620
2026-01-07 10:41:42.30	179.43	31.18	-31.0	-34.8	11.7	5.25e-04	0	43	102	45088768	22	5576
2026-01-07 10:41:43.30	179.53	31.37	-31.1	-35.2	11.5	6.77e-04	0	43	102	45088768	22	5719
2026-01-07 10:41:44.31	179.63	31.57	-31.1	-35.1	11.6	6.69e-04	0	43	102	45088768	22	5677
2026-01-07 10:41:45.31	179.73	31.76	-31.1	-35.0	11.7	6.13e-04	0	43	102	45088768	22	5660
2026-01-07 10:41:46.32	179.83	31.96	-31.1	-34.9	11.7	6.28e-04	0	43	102	45088768	22	5610
2026-01-07 10:41:47.33	179.93	32.16	-31.0	-34.6	12.0	4.10e-04	0	43	102	45088768	22	5467
2026-01-07 10:41:48.33	180.03	32.36	-30.9	-34.4	12.1	2.76e-04	0	43	102	45088768	22	5397
2026-01-07 10:41:49.34	180.14	32.56	-31.0	-34.6	12.0	3.13e-04	0	43	102	45088768	22	5460
2026-01-07 10:41:50.35	180.25	32.77	-30.8	-34.0	12.4	2.26e-04	0	43	102	45088768	22	5200
2026-01-07 10:41:51.36	180.36	32.97	-30.9	-34.2	12.2	2.08e-04	0	43	102	45088768	22	5307
2026-01-07 10:41:52.37	180.47	33.18	-30.8	-34.2	12.3	1.88e-04	0	43	102	45088768	22	5284
2026-01-07 10:41:53.38	180.58	33.39	-30.9	-34.3	12.3	1.36e-04	0	43	102	45088768	22	5321
2026-01-07 10:41:54.39	180.69	33.59	-30.8	-34.2	12.3	2.32e-04	0	43	102	45088768	22	5282
2026-01-07 10:41:55.39	180.80	33.80	-30.8	-34.1	12.4	1.64e-04	0	43	102	45088768	22	5245
2026-01-07 10:41:56.40	180.92	34.01	-30.8	-34.0	12.5	1.36e-04	0	43	102	45088768	22	5198
2026-01-07 10:41:57.41	181.03	34.23	-30.9	-34.2	12.3	1.56e-04	0	43	102	45088768	22	5298
2026-01-07 10:41:58.42	181.15	34.44	-30.8	-34.0	12.5	1.60e-04	0	43	102	45088768	22	5224
2026-01-07 10:41:59.43	181.27	34.66	-30.8	-34.1	12.4	1.75e-04	0	43	102	45088768	22	5242
2026-01-07 10:42:00.43	181.39	34.87	-30.6	-33.6	12.7	8.92e-05	0	43	102	45088768	22	5069
2026-01-07 10:42:01.44	181.51	35.09	-30.6	-33.6	12.7	8.23e-05	0	43	102	45088768	22	5058
2026-01-07 10:42:02.45	181.64	35.31	-30.6	-33.6	12.7	6.02e-05	0	43	102	45088768	22	5061
2026-01-07 10:42:03.46	181.77	35.53	-30.7	-33.7	12.6	9.68e-05	0	43	102	45088768	22	5086
2026-01-07 10:42:04.47	181.89	35.75	-30.5	-33.1	13.1	3.50e-05	0	43	102	45088768	22	4860
2026-01-07 10:42:05.48	182.02	35.98	-30.5	-33.3	12.9	3.50e-05	0	43	102	45088768	22	4939
2026-01-07 10:42:06.48	182.15	36.20	-30.5	-33.3	12.9	4.19e-05	0	44	102	45088768	22	4959
2026-01-07 10:42:07.49	182.29	36.43	-30.7	-33.8	12.6	9.91e-05	0	43	102	45088768	22	5141
2026-01-07 10:42:08.49	182.42	36.65	-30.8	-34.0	12.5	1.33e-04	0	43	102	45088768	22	5203
2026-01-07 10:42:09.50	182.56	36.88	-30.8	-34.0	12.4	1.39e-04	0	43	102	45088768	22	5229
2026-01-07 10:42:10.50	182.69	37.11	-30.8	-34.1	12.4	1.46e-04	0	43	102	45088768	22	5239
2026-01-07 10:42:11.51	182.83	37.34	-30.8	-34.0	12.5	1.60e-04	0	43	102	45088768	22	5203
2026-01-07 10:42:12.52	182.98	37.58	-30.9	-34.4	12.2	2.02e-04	0	43	102	45088768	22	5386
2026-01-07 10:42:13.52	183.12	37.81	-31.2	-35.1	11.7	2.98e-04	0	43	102	45088768	22	5675
2026-01-07 10:42:14.52	183.26	38.04	-31.2	-35.3	11.6	5.84e-04	0	43	102	45088768	22	5769
2026-01-07 10:42:15.53	183.41	38.28	-31.4	-36.0	11.1	1.26e-03	0	43	102	45088768	22	6064
2026-01-07 10:42:16.53	183.56	38.52	-31.6	-36.1	10.6	2.10e-03	0	43	102	45088768	23	6036
2026-01-07 10:42:17.53	183.71	38.76	-31.7	-36.4	10.4	4.27e-03	0	43	102	45088768	23	6194
2026-01-07 10:42:18.54	183.87	39.00	-31.8	-36.6	10.3	5.32e-03	0	43	102	45088768	23	6293
2026-01-07 10:42:19.54	184.02	39.24	-31.8	-36.8	10.1	5.62e-03	0	43	102	45088768	23	6389
2026-01-07 10:42:20.55	184.18	39.49	-31.7	-36.4	10.4	4.84e-03	0	43	102	45088768	23	6178
2026-01-07 10:42:21.55	184.34	39.73	-31.7	-36.5	10.3	4.81e-03	0	43	102	45088768	23	6218
2026-01-07 10:42:22.56	184.51	39.98	-31.7	-36.2	10.5	5.17e-03	0	43	102	45088768	23	6085
2026-01-07 10:42:23.57	184.67	40.23	-31.7	-36.3	10.5	4.28e-03	0	43	102	45088768	23	6135
2026-01-07 10:42:24.57	184.84	40.48	-31.8	-36.5	10.4	4.31e-03	0	43	102	45088768	23	6214
2026-01-07 10:42:25.58	185.01	40.73	-31.8	-36.8	10.2	4.75e-03	0	43	102	45088768	23	6345
2026-01-07 10:42:26.58	185.19	40.98	-32.0	-37.4	9.8	7.88e-03	0	43	102	45088768	23	6687
2026-01-07 10:42:27.59	185.36	41.24	-32.0	-37.0	9.6	1.41e-02	0	43	102	45088768	24	6401
2026-01-07 10:42:28.59	185.54	41.49	-32.0	-36.9	9.8	1.39e-02	0	43	102	45088768	24	6331
2026-01-07 10:42:29.60	185.72	41.75	-32.1	-37.5	9.2	1.20e-02	0	43	102	45088768	24	6646
2026-01-07 10:42:30.59	185.91	42.01	-32.0	-36.7	9.9	1.19e-02	0	43	102	45088768	24	6218
2026-01-07 10:42:31.60	186.09	42.27	-31.8	-36.1	10.4	5.63e-03	0	43	102	45088768	24	5905
2026-01-07 10:42:32.61	186.29	42.53	-31.7	-35.8	10.6	4.20e-03	0	43	102	45088768	24	5788
2026-01-07 10:42:33.62	186.48	42.80	-31.6	-35.6	10.7	3.16e-03	0	43	102	45088768	24	5675
2026-01-07 10:42:34.62	186.68	43.06	-31.7	-35.7	10.6	2.92e-03	0	43	102	45088768	24	5707
2026-01-07 10:42:35.63	186.88	43.33	-31.8	-36.0	10.5	3.37e-03	0	43	102	45088768	24	5874
2026-01-07 10:42:36.63	187.08	43.60	-31.6	-35.6	10.7	5.09e-03	0	43	102	45088768	24	5664
2026-01-07 10:42:37.64	187.29	43.87	-31.8	-36.0	10.5	3.28e-03	0	43	102	45088768	24	5838
2026-01-07 10:42:38.65	187.50	44.14	-31.7	-35.7	10.6	3.08e-03	0	43	102	45088768	24	5728
2026-01-07 10:42:39.66	187.71	44.41	-31.7	-35.8	10.5	3.39e-03	0	43	102	45088768	24	5792
2026-01-07 10:42:40.66	187.93	44.69	-31.6	-35.5	10.8	3.50e-03	0	43	102	45088768	24	5632
2026-01-07 10:42:41.67	188.15	44.96	-31.6	-35.6	10.8	2.08e-03	0	43	102	45088768	24	5655
2026-01-07 10:42:42.67	188.38	45.24	-31.7	-35.9	10.5	3.04e-03	0	43	102	45088768	24	5813
2026-01-07 10:42:43.68	188.61	45.52	-31.9	-36.4	10.2	5.19e-03	0	43	102	45088768	24	6044
2026-01-07 10:42:44.69	188.84	45.80	-31.8	-36.0	10.5	5.10e-03	0	43	102	45088768	24	5844
2026-01-07 10:42:45.70	189.08	46.08	-31.9	-36.3	10.2	4.90e-03	0	43	102	45088768	24	6036
2026-01-07 10:42:46.71	189.32	46.37	-31.7	-35.8	10.6	5.07e-03	0	43	102	45088768	24	5786
2026-01-07 10:42:47.72	189.57	46.65	-31.5	-35.3	11.0	2.23e-03	0	43	102	45088768	24	5522
2026-01-07 10:42:48.73	189.82	46.94	-31.5	-35.2	11.1	1.51e-03	0	43	102	45088768	24	5485
2026-01-07 10:42:49.74	190.07	47.23	-31.5	-35.2	11.0	1.47e-03	0	43	102	45088768	24	5494
2026-01-07 10:42:50.74	190.33	47.52	-31.6	-35.5	10.9	2.23e-03	0	43	102	45088768	24	5611
2026-01-07 10:42:51.75	190.60	47.81	-31.5	-35.2	11.0	2.11e-03	0	43	102	45088768	24	5510
2026-01-07 10:42:52.75	190.87	48.10	-31.5	-35.0	11.2	1.93e-03	0	43	102	45088768	24	5391
2026-01-07 10:42:53.77	191.14	48.39	-31.4	-34.9	11.3	1.22e-03	0	43	102	45088768	24	5342
2026-01-07 10:42:54.77	191.42	48.69	-31.4	-34.7	11.4	1.03e-03	0	43	102	45088768	24	5285
2026-01-07 10:42:55.77	191.70	48.98	-31.2	-34.6	11.9	7.49e-04	0	43	102	45088768	23	5342
2026-01-07 10:42:56.78	192.00	49.28	-31.2	-34.6	11.9	3.33e-04	0	43	102	45088768	23	5336
2026-01-07 10:42:57.79	192.29	49.58	-31.1	-34.2	12.1	3.05e-04	0	43	102	45088768	23	5168
2026-01-07 10:42:58.80	192.59	49.88	-31.1	-34.3	12.1	2.78e-04	0	43	102	45088768	23	5226
2026-01-07 10:42:59.80	192.90	50.17	-30.7	-33.7	12.8	3.13e-04	0	43	102	45088768	22	5093
2026-01-07 10:43:00.81	193.21	50.48	-30.3	-32.6	13.6	1.75e-05	0	43	102	45088768	22	4673
2026-01-07 10:43:01.82	193.54	50.78	-29.9	-31.9	14.3	3.00e-06	0	44	102	45088768	21	4563
2026-01-07 10:43:02.82	193.86	51.08	-29.6	-31.8	14.7	7.00e-07	0	43	102	45088768	20	4611
2026-01-07 10:43:03.82	194.19	51.38	-29.3	-31.5	15.3	0.00e+00	0	43	102	45088768	19	4612
2026-01-07 10:43:04.83	194.53	51.69	-29.1	-30.9	15.7	0.00e+00	0	43	102	45088768	19	4420
2026-01-07 10:43:05.84	194.88	51.99	-28.9	-30.4	16.0	0.00e+00	0	43	102	45088768	19	4276
2026-01-07 10:43:06.85	195.23	52.30	-29.0	-30.6	15.9	0.00e+00	0	43	102	45088768	19	4333
2026-01-07 10:43:07.86	195.60	52.61	-28.5	-30.0	16.4	0.00e+00	0	43	102	45088768	18	4282
2026-01-07 10:43:08.86	195.96	52.92	-28.3	-29.6	16.7	0.00e+00	0	43	102	45088768	18	4145
2026-01-07 10:43:09.87	196.34	53.23	-28.3	-29.9	16.8	0.00e+00	0	43	102	45088768	17	4353
2026-01-07 10:43:10.88	196.73	53.54	-27.9	-29.1	17.2	0.00e+00	0	43	102	45088768	17	4129
2026-01-07 10:43:11.88	197.12	53.85	-27.9	-29.1	17.3	0.00e+00	0	43	102	45088768	17	4110
2026-01-07 10:43:12.88	197.51	54.16	-28.1	-29.6	17.0	0.00e+00	0	43	102	45088768	17	4268
2026-01-07 10:43:13.88	197.92	54.47	-28.4	-30.3	16.6	0.00e+00	0	43	102	45088768	17	4475
2026-01-07 10:43:14.89	198.34	54.78	-28.8	-31.3	16.1	0.00e+00	0	43	102	45088768	17	4770
2026-01-07 10:43:15.89	198.77	55.09	-28.8	-31.3	16.1	0.00e+00	0	43	102	45088768	17	4766
2026-01-07 10:43:16.90	199.20	55.40	-28.8	-31.1	16.1	0.00e+00	0	43	102	45088768	17	4703
2026-01-07 10:43:17.90	199.65	55.71	-28.9	-31.5	15.9	7.00e-07	0	43	102	45088768	17	4844
2026-01-07 10:43:18.90	200.10	56.02	-29.3	-31.8	15.4	0.00e+00	0	43	102	45088768	18	4820
2026-01-07 10:43:19.91	200.57	56.34	-29.3	-32.0	15.3	0.00e+00	0	43	102	45088768	18	4880
2026-01-07 10:43:20.92	201.05	56.65	-29.6	-32.1	15.0	2.20e-06	0	43	102	45088768	19	4791
2026-01-07 10:43:21.92	201.53	56.96	-30.0	-32.6	14.3	7.00e-07	0	43	102	45088768	20	4871
2026-01-07 10:43:22.93	202.04	57.27	-30.1	-33.1	14.0	0.00e+00	0	44	102	45088768	20	5035
2026-01-07 10:43:23.94	202.55	57.59	-30.5	-33.9	13.4	1.29e-05	0	43	102	45088768	20	5349
2026-01-07 10:43:24.95	203.07	57.90	-30.3	-33.1	13.7	1.44e-05	0	43	102	45088768	21	4928
2026-01-07 10:43:25.95	203.60	58.21	-30.2	-32.8	13.9	6.10e-06	0	43	102	45088768	21	4829
2026-01-07 10:43:26.96	204.15	58.52	-30.2	-32.7	13.9	2.20e-06	0	43	102	45088768	21	4791
2026-01-07 10:43:27.97	204.71	58.83	-30.1	-32.3	14.2	1.50e-06	0	43	102	45088768	21	4677
2026-01-07 10:43:28.97	205.28	59.13	-30.1	-32.4	14.2	1.50e-06	0	43	102	45088768	21	4688
2026-01-07 10:43:29.98	205.87	59.44	-29.6	-31.5	15.0	1.50e-06	0	43	102	45088768	20	4512
2026-01-07 10:43:30.98	206.47	59.75	-29.3	-31.3	15.5	0.00e+00	0	43	102	45088768	19	4551
2026-01-07 10:43:31.99	207.09	60.05	-29.2	-31.0	15.6	0.00e+00	0	43	102	45088768	19	4460
2026-01-07 10:43:32.99	207.71	60.35	-29.1	-30.9	15.7	0.00e+00	0	43	102	45088768	19	4419
2026-01-07 10:43:34.00	208.36	60.65	-29.1	-30.9	15.7	0.00e+00	0	43	102	45088768	19	4418
2026-01-07 10:43:35.01	209.02	60.95	-29.4	-31.7	15.3	0.00e+00	0	43	102	45088768	19	4673
2026-01-07 10:43:36.01	209.69	61.25	-29.2	-31.1	15.6	0.00e+00	0	43	102	45088768	19	4470
2026-01-07 10:43:37.02	210.38	61.55	-29.4	-31.5	15.4	0.00e+00	0	43	102	45088768	19	4619
2026-01-07 10:43:38.03	211.09	61.84	-29.2	-31.2	15.6	0.00e+00	0	43	102	45088768	19	4497
2026-01-07 10:43:39.04	211.82	62.13	-29.3	-31.5	15.4	0.00e+00	0	43	102	45088768	19	4589
2026-01-07 10:43:40.04	212.56	62.42	-29.5	-31.8	15.2	0.00e+00	0	43	102	45088768	19	4715
2026-01-07 10:43:41.05	213.32	62.70	-29.8	-32.5	14.8	0.00e+00	0	43	102	45088768	19	4929
2026-01-07 10:43:42.05	214.09	62.98	-29.9	-32.5	14.4	7.00e-07	0	43	102	45088768	20	4825
2026-01-07 10:43:43.06	214.89	63.26	-30.4	-33.8	13.6	1.50e-06	0	43	102	45088768	20	5296
2026-01-07 10:43:44.07	215.71	63.54	-30.1	-32.9	14.2	4.50e-06	0	43	102	45088768	20	4960
2026-01-07 10:43:45.07	216.53	63.81	-29.7	-31.8	14.9	0.00e+00	0	43	102	45088768	20	4608
2026-01-07 10:43:46.08	217.39	64.07	-29.5	-31.3	15.2	0.00e+00	0	43	102	45088768	20	4437
2026-01-07 10:43:47.08	218.26	64.33	-29.7	-31.9	14.7	0.00e+00	0	43	102	45088768	20	4649
2026-01-07 10:43:48.09	219.15	64.59	-29.9	-32.4	14.5	1.50e-06	0	43	102	45088768	20	4807
2026-01-07 10:43:49.10	220.07	64.85	-29.8	-32.2	14.6	0.00e+00	0	43	102	45088768	20	4720
2026-01-07 10:43:50.10	220.99	65.09	-29.7	-32.0	14.6	0.00e+00	0	43	102	45088768	20	4660
2026-01-07 10:43:51.11	221.95	65.34	-29.9	-32.3	14.5	0.00e+00	0	43	102	45088768	20	4751
2026-01-07 10:43:52.11	222.92	65.57	-29.3	-31.3	15.4	0.00e+00	0	43	102	45088768	19	4550
2026-01-07 10:43:53.12	223.92	65.81	-29.1	-30.8	15.9	0.00e+00	0	43	102	45088768	19	4375
2026-01-07 10:43:54.13	224.93	66.03	-29.3	-31.4	15.4	0.00e+00	0	44	102	45088768	19	4561
2026-01-07 10:43:55.13	225.96	66.25	-29.7	-32.4	14.9	0.00e+00	0	43	102	45088768	19	4889
2026-01-07 10:43:56.14	227.03	66.47	-30.3	-33.5	13.7	3.00e-06	0	43	102	45088768	20	5209
2026-01-07 10:43:57.15	228.11	66.67	-30.3	-33.6	13.7	2.20e-06	0	43	102	45088768	20	5218
2026-01-07 10:43:58.15	229.20	66.87	-30.4	-33.7	13.7	7.60e-06	0	43	102	45088768	20	5250
2026-01-07 10:43:59.16	230.32	67.06	-30.3	-33.5	13.8	4.50e-06	0	43	102	45088768	20	5177
2026-01-07 10:44:00.16	231.45	67.25	-30.4	-33.7	13.6	4.50e-06	0	43	102	45088768	20	5269
2026-01-07 10:44:01.17	232.62	67.42	-30.9	-34.5	12.8	5.03e-05	0	43	102	45088768	21	5464
2026-01-07 10:44:02.17	233.79	67.59	-31.2	-34.9	12.2	1.09e-04	0	43	102	45088768	22	5526
2026-01-07 10:44:03.17	234.98	67.75	-31.5	-35.7	11.7	3.87e-04	0	43	102	45088768	22	5891
2026-01-07 10:44:04.19	236.21	67.90	-31.1	-34.7	12.3	2.82e-04	0	43	102	45088768	22	5443
2026-01-07 10:44:05.20	237.44	68.04	-31.0	-34.2	12.7	7.32e-05	0	44	102	45088768	22	5230
2026-01-07 10:44:06.21	238.70	68.18	-31.2	-35.0	12.2	1.05e-04	0	43	102	45088768	22	5576
2026-01-07 10:44:07.21	239.96	68.30	-31.7	-36.2	11.0	1.03e-03	0	43	102	45088768	23	6000
2026-01-07 10:44:08.22	241.24	68.41	-31.6	-35.8	11.2	1.42e-03	0	43	102	45088768	23	5813
2026-01-07 10:44:09.23	242.54	68.52	-31.3	-34.9	11.9	1.01e-03	0	43	102	45088768	23	5427
2026-01-07 10:44:10.24	243.85	68.61	-31.3	-34.9	11.9	4.00e-04	0	43	102	45088768	23	5441
2026-01-07 10:44:11.24	245.16	68.69	-31.7	-35.9	11.1	1.22e-03	0	43	102	45088768	23	5889
2026-01-07 10:44:12.25	246.50	68.76	-31.4	-35.0	11.9	7.81e-04	0	43	102	45088768	23	5461
2026-01-07 10:44:13.25	247.82	68.83	-30.4	-32.8	13.6	1.60e-04	0	43	102	45088768	22	4717
2026-01-07 10:44:14.26	249.18	68.88	-29.7	-31.9	14.9	1.50e-06	0	43	102	45088768	20	4614
2026-01-07 10:44:15.27	250.53	68.92	-29.7	-31.9	14.8	0.00e+00	0	43	102	45088768	20	4628
2026-01-07 10:44:16.28	251.89	68.95	-30.0	-32.6	14.4	0.00e+00	0	43	102	45088768	20	4872
2026-01-07 10:44:17.28	253.25	68.97	-30.2	-33.2	14.0	3.80e-06	0	43	102	45088768	20	5091
2026-01-07 10:44:18.28	254.60	68.98	-30.0	-32.5	14.5	7.00e-07	0	43	102	45088768	20	4835
2026-01-07 10:44:19.29	255.97	68.97	-29.9	-32.3	14.6	0.00e+00	0	44	102	45088768	20	4759
2026-01-07 10:44:20.29	257.32	68.96	-30.2	-33.1	14.1	3.00e-06	0	43	102	45088768	20	5028
2026-01-07 10:44:21.30	258.68	68.94	-30.4	-33.7	13.7	4.50e-06	0	43	102	45088768	20	5271
2026-01-07 10:44:22.30	260.03	68.90	-30.5	-33.5	13.5	1.44e-05	0	43	102	45088768	21	5073
2026-01-07 10:44:23.31	261.38	68.85	-30.1	-32.3	14.3	2.20e-06	0	43	102	45088768	21	4649
2026-01-07 10:44:24.31	262.72	68.80	-30.5	-33.4	13.6	4.50e-06	0	43	102	45088768	21	5059
2026-01-07 10:44:25.32	264.05	68.73	-31.0	-34.8	12.7	2.13e-05	0	44	102	45088768	21	5592
2026-01-07 10:44:26.33	265.38	68.65	-31.2	-34.8	12.3	3.29e-04	0	43	102	45088768	22	5485
2026-01-07 10:44:27.34	266.70	68.56	-30.4	-32.7	13.7	2.51e-05	0	43	102	45088768	22	4693
2026-01-07 10:44:28.34	267.99	68.47	-30.6	-33.2	13.5	8.30e-06	0	43	102	45088768	22	4841
2026-01-07 10:44:29.35	269.28	68.36	-31.2	-34.9	12.2	3.12e-05	0	43	102	45088768	22	5537
2026-01-07 10:44:30.35	270.55	68.24	-31.9	-36.6	10.7	1.82e-03	0	43	102	45088768	23	6167
2026-01-07 10:44:31.36	271.81	68.11	-31.9	-36.0	10.6	4.31e-03	0	44	102	45088768	24	5818
2026-01-07 10:44:32.36	273.04	67.97	-31.6	-35.2	11.3	1.84e-03	0	43	102	45088768	24	5451
2026-01-07 10:44:33.37	274.27	67.83	-31.7	-35.5	11.1	1.42e-03	0	43	102	45088768	24	5553
2026-01-07 10:44:34.37	275.46	67.67	-32.2	-37.1	9.9	3.47e-03	0	44	102	45088768	24	6360
2026-01-07 10:44:35.38	276.66	67.51	-32.5	-38.0	8.9	2.74e-02	0	43	102	45088768	25	6770
2026-01-07 10:44:36.39	277.83	67.34	-31.8	-35.5	10.7	1.56e-02	0	43	102	45088768	25	5471
2026-01-07 10:44:37.40	278.98	67.16	-31.8	-35.9	10.8	1.83e-03	0	43	102	45088768	24	5774
2026-01-07 10:44:38.40	280.10	66.97	-32.3	-37.8	9.4	1.02e-02	0	43	102	45088768	24	6775
2026-01-07 10:44:39.41	281.21	66.78	-32.4	-38.2	9.0	1.86e-02	0	43	102	45088768	24	6971
2026-01-07 10:44:40.42	282.30	66.57	-32.0	-36.5	10.2	1.44e-02	0	43	102	45088768	24	6077
2026-01-07 10:44:41.43	283.37	66.36	-31.0	-33.9	12.5	9.14e-04	0	43	102	45088768	23	5052
2026-01-07 10:44:42.43	284.41	66.15	-30.2	-32.7	13.9	1.98e-05	0	44	102	45088768	21	4824
2026-01-07 10:44:43.44	285.44	65.93	-30.1	-32.4	14.1	3.00e-06	0	44	102	45088768	21	4724
2026-01-07 10:44:44.45	286.45	65.70	-30.6	-33.8	13.3	6.10e-06	0	43	102	45088768	21	5229
2026-01-07 10:44:45.46	287.44	65.46	-30.1	-32.6	13.9	1.75e-05	0	43	102	45088768	21	4788
2026-01-07 10:44:46.46	288.39	65.22	-29.1	-30.9	15.7	0.00e+00	0	43	102	45088768	19	4441
2026-01-07 10:44:47.47	289.34	64.98	-29.1	-31.0	15.8	0.00e+00	0	43	102	45088768	19	4445
2026-01-07 10:44:48.48	290.26	64.73	-29.6	-32.1	15.0	0.00e+00	0	43	102	45088768	19	4825
2026-01-07 10:44:49.49	291.16	64.47	-29.3	-31.5	15.3	0.00e+00	0	43	102	45088768	19	4644
2026-01-07 10:44:50.49	292.04	64.21	-29.3	-31.6	15.2	0.00e+00	0	43	102	45088768	19	4702
2026-01-07 10:44:51.50	292.90	63.95	-29.3	-31.5	15.3	0.00e+00	0	43	102	45088768	19	4667
2026-01-07 10:44:52.51	293.75	63.68	-29.4	-32.0	14.9	0.00e+00	0	43	102	45088768	19	4870
2026-01-07 10:44:53.51	294.57	63.41	-29.6	-32.6	14.5	0.00e+00	0	43	102	45088768	19	5069
2026-01-07 10:44:54.52	295.37	63.13	-29.3	-31.6	15.2	0.00e+00	0	43	102	45088768	19	4690
2026-01-07 10:44:55.52	296.15	62.85	-28.6	-30.4	16.0	0.00e+00	0	43	102	45088768	18	4441
2026-01-07 10:44:56.53	296.92	62.57	-27.6	-29.8	16.3	0.00e+00	0	43	102	45088768	16	4626
2026-01-07 10:44:57.53	297.67	62.29	-26.8	-29.9	15.0	0.00e+00	0	43	102	45088768	15	5133
2026-01-07 10:44:58.54	298.40	62.00	-26.2	-31.0	13.7	7.00e-07	0	43	102	45088768	13	6197
2026-01-07 10:44:59.54	299.11	61.71	-27.4	-32.0	14.0	3.00e-06	0	43	102	45088768	14	6154
2026-01-07 10:45:00.55	299.81	61.41	-28.6	-31.5	15.4	0.00e+00	0	43	102	45088768	17	5017
2026-01-07 10:45:01.56	300.50	61.12	-28.4	-30.3	16.7	0.00e+00	0	44	102	45088768	17	4471
2026-01-07 10:45:02.56	301.16	60.82	-28.1	-29.6	17.0	0.00e+00	0	43	102	45088768	17	4274
2026-01-07 10:45:03.58	301.82	60.52	-28.0	-29.5	16.9	0.00e+00	0	43	102	45088768	17	4284
2026-01-07 10:45:04.58	302.45	60.22	-28.1	-29.7	16.8	0.00e+00	0	43	102	45088768	17	4342
2026-01-07 10:45:05.59	303.07	59.92	-28.3	-30.2	16.6	0.00e+00	0	43	102	45088768	17	4477
2026-01-07 10:45:06.60	303.68	59.61	-28.5	-30.6	16.4	0.00e+00	0	43	102	45088768	17	4582
2026-01-07 10:45:07.61	304.28	59.30	-28.6	-30.8	16.3	0.00e+00	0	43	102	45088768	17	4632
2026-01-07 10:45:08.62	304.86	59.00	-28.7	-31.0	16.3	0.00e+00	0	43	102	45088768	17	4679
2026-01-07 10:45:09.63	305.43	58.69	-28.5	-30.5	16.7	0.00e+00	0	43	102	45088768	17	4515
2026-01-07 10:45:10.64	305.98	58.38	-28.7	-30.9	16.4	0.00e+00	0	43	102	45088768	17	4652
2026-01-07 10:45:11.65	306.52	58.07	-29.4	-32.2	15.4	0.00e+00	0	43	102	45088768	18	4944
2026-01-07 10:45:12.65	307.05	57.76	-29.7	-32.4	14.9	0.00e+00	0	43	102	45088768	19	4922
2026-01-07 10:45:13.66	307.56	57.45	-29.4	-31.6	15.4	0.00e+00	0	43	102	45088768	19	4628
2026-01-07 10:45:14.67	308.07	57.14	-28.8	-30.5	16.3	0.00e+00	0	43	102	45088768	18	4395
2026-01-07 10:45:15.67	308.56	56.83	-28.6	-30.2	16.5	0.00e+00	0	43	102	45088768	18	4305
2026-01-07 10:45:16.67	309.04	56.52	-28.9	-30.9	16.1	0.00e+00	0	43	102	45088768	18	4527
2026-01-07 10:45:17.67	309.51	56.21	-29.1	-31.4	15.8	0.00e+00	0	43	102	45088768	18	4686
2026-01-07 10:45:18.68	309.97	55.90	-29.5	-31.9	15.2	0.00e+00	0	43	102	45088768	19	4751
2026-01-07 10:45:19.69	310.42	55.59	-29.1	-30.8	15.8	1.50e-06	0	43	102	45088768	19	4407
2026-01-07 10:45:20.70	310.86	55.27	-28.0	-29.4	17.2	0.00e+00	0	43	102	45088768	17	4196
2026-01-07 10:45:21.70	311.29	54.96	-27.6	-28.7	17.8	0.00e+00	0	43	102	45088768	16	4126
2026-01-07 10:45:22.71	311.72	54.65	-28.1	-29.9	17.1	7.00e-07	0	43	102	45088768	16	4464
2026-01-07 10:45:23.71	312.13	54.34	-29.1	-31.4	15.8	0.00e+00	0	43	102	45088768	18	4694
2026-01-07 10:45:24.72	312.53	54.03	-28.9	-30.9	16.0	0.00e+00	0	43	102	45088768	18	4537
2026-01-07 10:45:25.73	312.93	53.72	-28.2	-29.7	17.1	3.00e-06	0	43	102	45088768	17	4280
2026-01-07 10:45:26.73	313.32	53.42	-27.8	-29.3	17.5	0.00e+00	0	43	102	45088768	16	4278
2026-01-07 10:45:27.74	313.70	53.11	-27.9	-29.5	17.5	0.00e+00	0	43	102	45088768	16	4319
2026-01-07 10:45:28.75	314.07	52.80	-27.7	-29.1	17.7	1.50e-06	0	43	102	45088768	16	4214
2026-01-07 10:45:29.76	314.44	52.49	-27.8	-29.2	17.6	0.00e+00	0	43	102	45088768	16	4235
2026-01-07 10:45:30.76	314.79	52.19	-28.6	-30.6	16.6	0.00e+00	0	43	102	45088768	17	4542
2026-01-07 10:45:31.77	315.14	51.88	-29.7	-32.4	14.9	3.80e-06	0	43	102	45088768	19	4892
2026-01-07 10:45:32.78	315.49	51.57	-29.7	-32.3	14.9	0.00e+00	0	43	102	45088768	19	4864
2026-01-07 10:45:33.79	315.82	51.27	-28.9	-30.4	16.1	0.00e+00	0	43	102	45088768	19	4262
2026-01-07 10:45:34.80	316.15	50.97	-28.6	-30.1	16.6	3.00e-06	0	43	102	45088768	18	4292
2026-01-07 10:45:35.81	316.48	50.66	-29.3	-31.7	15.6	0.00e+00	0	43	102	45088768	18	4781
2026-01-07 10:45:36.81	316.79	50.36	-30.0	-32.7	14.3	0.00e+00	0	43	102	45088768	20	4912
2026-01-07 10:45:37.82	317.10	50.06	-30.9	-34.5	12.8	2.36e-05	0	43	102	45088768	21	5480
2026-01-07 10:45:38.82	317.40	49.77	-31.1	-34.7	12.5	1.17e-04	0	43	102	45088768	22	5438
2026-01-07 10:45:39.83	317.70	49.47	-31.2	-34.9	12.2	1.69e-04	0	43	102	45088768	22	5525
2026-01-07 10:45:40.84	318.00	49.17	-31.1	-34.8	12.3	1.87e-04	0	43	102	45088768	22	5465
2026-01-07 10:45:41.85	318.28	48.88	-31.1	-34.7	12.4	1.62e-04	0	43	102	45088768	22	5422
2026-01-07 10:45:42.85	318.56	48.59	-31.0	-34.3	12.7	7.24e-05	0	43	102	45088768	22	5264
2026-01-07 10:45:43.85	318.84	48.30	-31.1	-34.5	12.5	9.30e-05	0	43	102	45088768	22	5372
2026-01-07 10:45:44.86	319.11	48.00	-31.4	-35.7	11.7	2.07e-04	0	43	102	45088768	22	5883
2026-01-07 10:45:45.86	319.38	47.72	-32.2	-37.3	9.7	5.57e-03	0	43	102	45088768	24	6496
2026-01-07 10:45:46.87	319.64	47.43	-32.7	-38.9	8.0	4.81e-02	0	43	102	45088768	25	7354
2026-01-07 10:45:47.87	319.90	47.14	-32.0	-36.1	10.1	3.20e-02	0	43	102	45088768	25	5783
2026-01-07 10:45:48.87	320.15	46.86	-30.8	-33.3	12.8	1.12e-03	0	43	102	45088768	23	4809
2026-01-07 10:45:49.88	320.39	46.57	-29.8	-31.6	14.6	7.00e-07	0	43	102	45088768	21	4448
2026-01-07 10:45:50.89	320.64	46.29	-29.6	-31.6	15.0	0.00e+00	0	43	102	45088768	20	4526
2026-01-07 10:45:51.90	320.88	46.01	-30.0	-32.6	14.4	0.00e+00	0	43	102	45088768	20	4869
2026-01-07 10:45:52.91	321.12	45.73	-30.3	-33.6	13.7	2.20e-06	0	43	102	45088768	20	5211
2026-01-07 10:45:53.91	321.35	45.45	-30.9	-34.7	12.6	3.43e-05	0	43	102	45088768	21	5573
2026-01-07 10:45:54.92	321.57	45.17	-31.0	-34.6	12.4	1.41e-04	0	43	102	45088768	22	5410
2026-01-07 10:45:55.92	321.80	44.90	-31.1	-34.7	12.3	1.23e-04	0	43	102	45088768	22	5458
2026-01-07 10:45:56.93	322.02	44.62	-30.7	-33.6	13.1	7.70e-05	0	43	102	45088768	22	5013
2026-01-07 10:45:57.93	322.23	44.35	-29.9	-31.8	14.5	5.30e-06	0	43	102	45088768	21	4514
2026-01-07 10:45:58.94	322.44	44.08	-29.1	-30.9	15.7	7.00e-07	0	43	102	45088768	19	4428
2026-01-07 10:45:59.94	322.65	43.81	-28.6	-30.0	16.5	0.00e+00	0	43	102	45088768	18	4262
2026-01-07 10:46:00.95	322.86	43.54	-28.6	-30.1	16.5	0.00e+00	0	43	102	45088768	18	4291
2026-01-07 10:46:01.96	323.06	43.28	-29.0	-31.2	15.9	0.00e+00	0	43	102	45088768	18	4617
2026-01-07 10:46:02.96	323.26	43.01	-29.5	-32.3	15.2	0.00e+00	0	43	102	45088768	18	4993
2026-01-07 10:46:03.97	323.45	42.75	-30.3	-33.5	13.7	1.50e-06	0	43	102	45088768	20	5195
2026-01-07 10:46:04.97	323.64	42.49	-30.5	-34.0	13.4	1.29e-05	0	43	102	45088768	20	5397
2026-01-07 10:46:05.97	323.83	42.23	-30.4	-33.2	13.6	1.22e-05	0	43	102	45088768	21	4987
2026-01-07 10:46:06.98	324.02	41.97	-30.0	-32.1	14.2	1.50e-06	0	43	102	45088768	21	4620
2026-01-07 10:46:07.98	324.20	41.71	-29.9	-31.9	14.4	1.50e-06	0	43	102	45088768	21	4538
2026-01-07 10:46:08.98	324.38	41.46	-29.9	-32.0	14.3	0.00e+00	0	43	102	45088768	21	4593
2026-01-07 10:46:09.99	324.56	41.20	-29.7	-31.9	14.7	0.00e+00	0	43	102	45088768	20	4660
2026-01-07 10:46:10.99	324.73	40.95	-29.8	-32.3	14.4	0.00e+00	0	43	102	45088768	20	4799
2026-01-07 10:46:12.00	324.91	40.70	-30.3	-33.5	13.7	3.80e-06	0	44	102	45088768	20	5234
2026-01-07 10:46:12.99	325.08	40.45	-30.5	-33.7	13.2	1.90e-05	0	43	102	45088768	21	5207
2026-01-07 10:46:13.99	325.24	40.20	-31.0	-34.8	12.1	1.22e-04	0	43	102	45088768	22	5569
2026-01-07 10:46:14.99	325.41	39.96	-31.2	-35.2	11.8	4.61e-04	0	43	102	45088768	22	5713
2026-01-07 10:46:16.00	325.57	39.71	-31.1	-35.2	11.8	4.03e-04	0	43	102	45088768	22	5715
2026-01-07 10:46:17.01	325.73	39.47	-30.7	-33.7	12.8	1.02e-04	0	43	102	45088768	22	5088
2026-01-07 10:46:18.01	325.89	39.23	-29.7	-32.1	14.5	3.80e-06	0	43	102	45088768	20	4722
2026-01-07 10:46:19.01	326.04	38.99	-29.0	-30.6	15.8	0.00e+00	0	43	102	45088768	19	4348
2026-01-07 10:46:20.02	326.20	38.74	-28.4	-29.8	16.6	0.00e+00	0	43	102	45088768	18	4217
2026-01-07 10:46:21.03	326.35	38.51	-28.4	-29.7	16.7	0.00e+00	0	43	102	45088768	18	4183
2026-01-07 10:46:22.03	326.50	38.27	-28.6	-30.1	16.4	0.00e+00	0	43	102	45088768	18	4306
2026-01-07 10:46:23.04	326.64	38.03	-29.1	-31.5	15.6	0.00e+00	0	43	102	45088768	18	4728
2026-01-07 10:46:24.05	326.79	37.80	-29.5	-32.0	15.0	0.00e+00	0	43	102	45088768	19	4788
2026-01-07 10:46:25.05	326.93	37.57	-30.0	-32.8	14.1	0.00e+00	0	43	102	45088768	20	4968
2026-01-07 10:46:26.06	327.07	37.34	-30.3	-33.7	13.5	5.30e-06	0	43	102	45088768	20	5317
2026-01-07 10:46:27.07	327.21	37.11	-30.5	-33.8	13.1	2.13e-05	0	43	102	45088768	21	5231
2026-01-07 10:46:28.07	327.35	36.88	-30.4	-33.4	13.3	1.83e-05	0	43	102	45088768	21	5098
2026-01-07 10:46:29.07	327.48	36.65	-30.2	-32.8	13.7	9.90e-06	0	43	102	45088768	21	4872
2026-01-07 10:46:30.07	327.62	36.43	-30.0	-32.2	14.2	2.20e-06	0	43	102	45088768	21	4660
2026-01-07 10:46:31.08	327.75	36.20	-29.8	-31.8	14.4	2.20e-06	0	43	102	45088768	21	4508
2026-01-07 10:46:32.09	327.88	35.98	-29.8	-32.3	14.4	1.50e-06	0	43	102	45088768	20	4800
2026-01-07 10:46:33.09	328.01	35.76	-29.6	-31.7	14.7	0.00e+00	0	44	102	45088768	20	4600
2026-01-07 10:46:34.09	328.13	35.54	-29.8	-32.3	14.4	7.00e-07	0	43	102	45088768	20	4779
2026-01-07 10:46:35.10	328.26	35.32	-29.7	-32.0	14.5	2.20e-06	0	43	102	45088768	20	4700
2026-01-07 10:46:36.11	328.38	35.10	-29.8	-32.2	14.4	0.00e+00	0	43	102	45088768	20	4774
2026-01-07 10:46:37.12	328.51	34.89	-30.2	-33.4	13.6	3.00e-06	0	43	102	45088768	20	5205
2026-01-07 10:46:38.13	328.63	34.67	-30.3	-33.6	13.5	3.00e-06	0	43	102	45088768	20	5286
2026-01-07 10:46:39.14	328.75	34.46	-30.6	-34.1	12.9	2.05e-05	0	43	102	45088768	21	5371
2026-01-07 10:46:40.14	328.86	34.25	-30.7	-34.2	12.8	5.41e-05	0	43	102	45088768	21	5418
2026-01-07 10:46:41.15	328.98	34.04	-30.9	-34.9	12.3	1.15e-04	0	43	102	45088768	21	5697
2026-01-07 10:46:42.16	329.09	33.83	-30.9	-34.9	12.3	1.65e-04	0	43	102	45088768	21	5694
2026-01-07 10:46:43.16	329.21	33.62	-31.1	-34.9	12.0	2.85e-04	0	43	102	45088768	22	5587
2026-01-07 10:46:44.17	329.32	33.41	-31.4	-36.0	11.2	8.55e-04	0	44	102	45088768	22	6070
2026-01-07 10:46:45.18	329.43	33.21	-31.3	-35.6	11.5	8.54e-04	0	43	102	45088768	22	5912
2026-01-07 10:46:46.18	329.54	33.00	-31.5	-35.7	11.1	1.57e-03	0	43	102	45088768	23	5841
2026-01-07 10:46:47.19	329.65	32.80	-31.7	-36.2	10.6	2.86e-03	0	43	102	45088768	23	6101
2026-01-07 10:46:48.20	329.75	32.60	-31.8	-36.5	10.4	4.52e-03	0	43	102	45088768	23	6240
2026-01-07 10:46:49.21	329.86	32.40	-31.5	-35.8	11.0	2.20e-03	0	43	102	45088768	23	5874
2026-01-07 10:46:50.22	329.96	32.20	-31.3	-35.0	11.5	1.09e-03	0	43	102	45088768	23	5524
2026-01-07 10:46:51.23	330.07	32.00	-31.3	-34.9	11.6	5.07e-04	0	43	102	45088768	23	5473
2026-01-07 10:46:52.24	330.17	31.80	-31.2	-34.5	11.8	5.09e-04	0	44	102	45088768	23	5308
2026-01-07 10:46:53.25	330.27	31.61	-31.3	-34.9	11.7	4.10e-04	0	44	102	45088768	23	5439
2026-01-07 10:46:54.25	330.37	31.41	-31.5	-35.5	11.2	1.28e-03	0	43	102	45088768	23	5727
2026-01-07 10:46:55.26	330.46	31.22	-31.2	-34.7	11.8	9.28e-04	0	44	102	45088768	23	5381
2026-01-07 10:46:56.27	330.56	31.03	-31.0	-34.2	12.1	3.27e-04	0	43	102	45088768	23	5167
2026-01-07 10:46:57.28	330.66	30.84	-31.0	-34.0	12.2	2.17e-04	0	43	102	45088768	23	5097
2026-01-07 10:46:58.29	330.75	30.65	-31.1	-34.2	12.1	2.04e-04	0	43	102	45088768	23	5183
2026-01-07 10:46:59.29	330.85	30.46	-31.3	-34.9	11.7	5.40e-04	0	43	102	45088768	23	5469
2026-01-07 10:47:00.28	330.94	30.27	-31.4	-35.2	11.5	7.62e-04	0	43	102	45088768	23	5569
2026-01-07 10:47:01.28	331.03	30.09	-31.4	-35.2	11.4	1.11e-03	0	43	102	45088768	23	5608
2026-01-07 10:47:02.28	331.12	29.91	-31.4	-35.2	11.4	8.07e-04	0	43	102	45088768	23	5602
2026-01-07 10:47:03.28	331.21	29.72	-31.4	-35.3	11.3	1.24e-03	0	43	102	45088768	23	5658
2026-01-07 10:47:04.29	331.30	29.54	-31.3	-34.8	11.7	8.86e-04	0	43	102	45088768	23	5427
2026-01-07 10:47:05.30	331.39	29.36	-31.1	-34.5	11.9	4.99e-04	0	43	102	45088768	23	5290
2026-01-07 10:47:06.30	331.47	29.18	-31.1	-34.3	12.0	3.26e-04	0	43	102	45088768	23	5214
2026-01-07 10:47:07.31	331.56	29.00	-31.0	-34.1	12.2	2.92e-04	0	43	102	45088768	23	5137
2026-01-07 10:47:08.31	331.64	28.82	-31.1	-34.4	12.0	3.09e-04	0	44	102	45088768	23	5248
2026-01-07 10:47:09.32	331.73	28.64	-31.0	-34.1	12.2	3.04e-04	0	43	102	45088768	23	5142
2026-01-07 10:47:10.33	331.81	28.47	-30.7	-33.6	12.8	9.99e-05	0	43	102	45088768	22	5047
2026-01-07 10:47:11.33	331.89	28.29	-30.4	-32.8	13.4	2.82e-05	0	43	102	45088768	22	4751
2026-01-07 10:47:12.34	331.97	28.12	-30.2	-32.9	13.6	1.14e-05	0	43	102	45088768	21	4886
2026-01-07 10:47:13.35	332.06	27.94	-30.2	-32.8	13.7	5.30e-06	0	43	102	45088768	21	4863
2026-01-07 10:47:14.35	332.14	27.77	-30.3	-33.0	13.5	5.30e-06	0	43	102	45088768	21	4927
2026-01-07 10:47:15.36	332.21	27.60	-30.4	-33.2	13.4	1.06e-05	0	44	102	45088768	21	5017
2026-01-07 10:47:16.37	332.29	27.43	-30.1	-32.5	13.9	6.10e-06	0	44	102	45088768	21	4740
2026-01-07 10:47:17.38	332.37	27.26	-29.8	-31.8	14.3	1.50e-06	0	43	102	45088768	21	4528
2026-01-07 10:47:18.38	332.45	27.10	-29.7	-32.1	14.4	1.50e-06	0	43	102	45088768	20	4729
2026-01-07 10:47:19.39	332.52	26.93	-29.8	-32.2	14.3	7.00e-07	0	44	102	45088768	20	4747
2026-01-07 10:47:20.40	332.60	26.76	-29.9	-32.5	14.2	1.50e-06	0	43	102	45088768	20	4862
2026-01-07 10:47:21.40	332.67	26.60	-29.9	-32.6	14.1	2.20e-06	0	44	102	45088768	20	4907
2026-01-07 10:47:22.41	332.75	26.43	-30.0	-32.8	13.9	1.50e-06	0	43	102	45088768	20	4985
2026-01-07 10:47:23.41	332.82	26.27	-30.0	-32.9	13.9	3.80e-06	0	43	102	45088768	20	4997
2026-01-07 10:47:24.42	332.89	26.11	-30.1	-33.0	13.8	6.10e-06	0	43	102	45088768	20	5062
2026-01-07 10:47:25.43	332.96	25.95	-30.1	-33.1	13.8	3.00e-06	0	43	102	45088768	20	5068
2026-01-07 10:47:26.43	333.04	25.79	-30.1	-33.1	13.7	4.50e-06	0	43	102	45088768	20	5097
2026-01-07 10:47:27.44	333.11	25.63	-30.2	-33.3	13.6	5.30e-06	0	44	102	45088768	20	5179
2026-01-07 10:47:28.44	333.18	25.47	-30.1	-33.1	13.7	9.90e-06	0	43	102	45088768	20	5083
2026-01-07 10:47:29.45	333.24	25.31	-29.7	-32.0	14.4	3.80e-06	0	44	102	45088768	20	4711
2026-01-07 10:47:30.46	333.31	25.15	-29.5	-31.4	14.8	0.00e+00	0	43	102	45088768	20	4509
2026-01-07 10:47:31.47	333.38	25.00	-29.3	-31.4	15.1	7.00e-07	0	43	102	45088768	19	4586
2026-01-07 10:47:32.48	333.45	24.84	-29.2	-31.2	15.3	0.00e+00	0	43	102	45088768	19	4532
2026-01-07 10:47:33.49	333.52	24.69	-29.1	-31.0	15.3	0.00e+00	0	44	102	45088768	19	4483
2026-01-07 10:47:34.50	333.58	24.53	-29.2	-31.3	15.2	0.00e+00	0	43	102	45088768	19	4554
2026-01-07 10:47:35.50	333.65	24.38	-29.3	-31.3	15.1	7.00e-07	0	43	102	45088768	19	4582
2026-01-07 10:47:36.51	333.71	24.23	-29.0	-30.8	15.5	0.00e+00	0	44	102	45088768	19	4405
2026-01-07 10:47:37.52	333.78	24.08	-28.9	-30.6	15.6	0.00e+00	0	43	102	45088768	19	4342
2026-01-07 10:47:38.52	333.84	23.93	-29.0	-30.7	15.6	0.00e+00	0	43	102	45088768	19	4369
2026-01-07 10:47:39.53	333.90	23.78	-29.0	-30.7	15.5	0.00e+00	0	43	102	45088768	19	4399
2026-01-07 10:47:40.54	333.97	23.63	-29.0	-30.8	15.5	0.00e+00	0	43	102	45088768	19	4424
2026-01-07 10:47:41.54	334.03	23.49	-29.1	-31.0	15.3	0.00e+00	0	44	102	45088768	19	4470
2026-01-07 10:47:42.55	334.09	23.34	-29.1	-30.9	15.4	0.00e+00	0	43	102	45088768	19	4440
2026-01-07 10:47:43.55	334.15	23.20	-29.1	-31.0	15.3	0.00e+00	0	43	102	45088768	19	4479
2026-01-07 10:47:44.56	334.21	23.05	-29.1	-31.1	15.3	0.00e+00	0	43	102	45088768	19	4520
2026-01-07 10:47:45.57	334.27	22.91	-29.1	-31.1	15.3	0.00e+00	0	43	102	45088768	19	4503
2026-01-07 10:47:46.57	334.33	22.76	-29.1	-31.0	15.3	0.00e+00	0	43	102	45088768	19	4470
2026-01-07 10:47:47.58	334.39	22.62	-29.2	-31.2	15.2	0.00e+00	0	43	102	45088768	19	4545
2026-01-07 10:47:48.58	334.45	22.48	-29.1	-31.1	15.2	0.00e+00	0	43	102	45088768	19	4524
2026-01-07 10:47:49.59	334.50	22.34	-29.0	-30.8	15.4	0.00e+00	0	43	102	45088768	19	4431
2026-01-07 10:47:50.60	334.56	22.20	-29.0	-30.8	15.5	0.00e+00	0	43	102	45088768	19	4410
2026-01-07 10:47:51.60	334.62	22.06	-28.9	-30.6	15.5	0.00e+00	0	43	102	45088768	19	4359
2026-01-07 10:47:52.61	334.67	21.92	-28.9	-30.5	15.6	0.00e+00	0	43	102	45088768	19	4337
2026-01-07 10:47:53.61	334.73	21.78	-28.9	-30.5	15.6	0.00e+00	0	43	102	45088768	19	4328
2026-01-07 10:47:54.62	334.79	21.64	-28.9	-30.6	15.6	0.00e+00	0	43	102	45088768	19	4352
2026-01-07 10:47:55.63	334.84	21.51	-28.9	-30.5	15.6	0.00e+00	0	43	102	45088768	19	4334
2026-01-07 10:47:56.64	334.90	21.37	-28.8	-30.3	15.7	0.00e+00	0	43	102	45088768	19	4270
2026-01-07 10:47:57.64	334.95	21.24	-28.8	-30.4	15.7	0.00e+00	0	44	102	45088768	19	4290
2026-01-07 10:47:58.64	335.00	21.10	-28.8	-30.4	15.7	7.00e-07	0	43	102	45088768	19	4291
2026-01-07 10:47:59.65	335.06	20.97	-28.8	-30.7	15.7	0.00e+00	0	43	102	45088768	18	4501
2026-01-07 10:48:00.66	335.11	20.83	-28.8	-30.7	15.7	0.00e+00	0	43	102	45088768	18	4496
2026-01-07 10:48:01.67	335.16	20.70	-28.8	-30.7	15.7	0.00e+00	0	43	102	45088768	18	4501
2026-01-07 10:48:02.67	335.21	20.57	-28.9	-31.0	15.6	0.00e+00	0	43	102	45088768	18	4592
2026-01-07 10:48:03.68	335.27	20.44	-29.0	-31.1	15.5	0.00e+00	0	43	102	45088768	18	4634
2026-01-07 10:48:04.69	335.32	20.31	-29.0	-31.2	15.4	0.00e+00	0	43	102	45088768	18	4650
2026-01-07 10:48:05.69	335.37	20.18	-29.1	-31.5	15.3	0.00e+00	0	43	102	45088768	18	4736
2026-01-07 10:48:06.70	335.42	20.05	-29.1	-31.6	15.2	0.00e+00	0	43	102	45088768	18	4787
2026-01-07 10:48:07.71	335.47	19.92	-29.2	-31.7	15.1	0.00e+00	0	43	102	45088768	18	4822
2026-01-07 10:48:08.72	335.52	19.79	-29.2	-31.8	15.0	0.00e+00	0	43	102	45088768	18	4851
2026-01-07 10:48:09.72	335.57	19.67	-29.3	-31.9	14.9	0.00e+00	0	43	102	45088768	18	4894
2026-01-07 10:48:10.73	335.62	19.54	-29.3	-32.0	14.9	0.00e+00	0	43	102	45088768	18	4927
2026-01-07 10:48:11.74	335.67	19.41	-29.2	-31.8	15.0	0.00e+00	0	43	102	45088768	18	4870
2026-01-07 10:48:12.75	335.71	19.29	-29.2	-31.8	15.0	7.00e-07	0	43	102	45088768	18	4867
2026-01-07 10:48:13.74	335.76	19.16	-29.2	-31.9	15.0	7.00e-07	0	43	102	45088768	18	4887
2026-01-07 10:48:14.75	335.81	19.04	-29.2	-31.9	14.9	0.00e+00	0	43	102	45088768	18	4889
2026-01-07 10:48:15.76	335.86	18.92	-29.3	-32.1	14.8	0.00e+00	0	43	102	45088768	18	4979
2026-01-07 10:48:16.76	335.90	18.79	-29.3	-32.1	14.8	0.00e+00	0	44	102	45088768	18	4975
2026-01-07 10:48:17.77	335.95	18.67	-29.4	-32.4	14.6	0.00e+00	0	43	102	45088768	18	5074
2026-01-07 10:48:18.77	335.99	18.55	-29.5	-32.0	14.6	7.00e-07	0	43	102	45088768	19	4799
2026-01-07 10:48:19.78	336.04	18.43	-29.4	-31.9	14.6	0.00e+00	0	43	102	45088768	19	4781
2026-01-07 10:48:20.79	336.09	18.31	-29.5	-32.2	14.5	1.50e-06	0	43	102	45088768	19	4868
2026-01-07 10:48:21.80	336.13	18.19	-29.5	-32.0	14.6	7.00e-07	0	43	102	45088768	19	4805
2026-01-07 10:48:22.80	336.18	18.07	-29.4	-31.8	14.7	0.00e+00	0	43	102	45088768	19	4752
2026-01-07 10:48:23.80	336.22	17.95	-29.5	-32.1	14.5	0.00e+00	0	43	102	45088768	19	4845
2026-01-07 10:48:24.81	336.26	17.83	-29.5	-32.0	14.6	7.00e-07	0	43	102	45088768	19	4801
2026-01-07 10:48:25.82	336.31	17.71	-29.5	-32.2	14.4	7.00e-07	0	43	102	45088768	19	4877
2026-01-07 10:48:26.82	336.35	17.60	-29.5	-32.2	14.4	7.00e-07	0	43	102	45088768	19	4894
2026-01-07 10:48:27.83	336.40	17.48	-29.6	-32.2	14.4	0.00e+00	0	43	102	45088768	19	4897
2026-01-07 10:48:28.83	336.44	17.37	-29.7	-32.6	14.1	0.00e+00	0	43	102	45088768	19	5032
2026-01-07 10:48:29.84	336.48	17.25	-29.6	-32.3	14.3	1.50e-06	0	43	102	45088768	19	4940
2026-01-07 10:48:30.85	336.52	17.13	-29.5	-32.1	14.4	0.00e+00	0	43	102	45088768	19	4863
2026-01-07 10:48:31.86	336.57	17.02	-29.5	-32.2	14.4	0.00e+00	0	43	102	45088768	19	4873
2026-01-07 10:48:32.87	336.61	16.91	-29.5	-32.2	14.4	1.50e-06	0	43	102	45088768	19	4871
2026-01-07 10:48:33.88	336.65	16.79	-29.6	-32.3	14.3	7.00e-07	0	43	102	45088768	19	4936
2026-01-07 10:48:34.88	336.69	16.68	-29.6	-32.4	14.2	3.00e-06	0	43	102	45088768	19	4952
2026-01-07 10:48:35.89	336.73	16.57	-29.6	-32.4	14.2	2.20e-06	0	43	102	45088768	19	4966
2026-01-07 10:48:36.90	336.77	16.45	-29.8	-32.9	13.9	3.00e-06	0	43	102	45088768	19	5129
2026-01-07 10:48:37.91	336.81	16.34	-29.7	-32.7	14.0	8.30e-06	0	43	102	45088768	19	5071
2026-01-07 10:48:38.91	336.85	16.23	-29.7	-32.7	14.0	7.00e-07	0	43	102	45088768	19	5087
2026-01-07 10:48:39.92	336.89	16.12	-29.8	-32.9	13.9	3.00e-06	0	43	102	45088768	19	5157
2026-01-07 10:48:40.92	336.93	16.01	-29.8	-32.9	13.8	6.10e-06	0	43	102	45088768	19	5157
2026-01-07 10:48:41.93	336.97	15.90	-29.9	-33.2	13.7	2.20e-06	0	43	102	45088768	19	5247
2026-01-07 10:48:42.93	337.01	15.79	-30.0	-33.4	13.6	1.22e-05	0	43	102	45088768	19	5329
2026-01-07 10:48:43.94	337.05	15.69	-29.9	-33.2	13.7	1.22e-05	0	43	102	45088768	19	5247
2026-01-07 10:48:44.94	337.09	15.58	-29.9	-33.3	13.6	1.50e-06	0	43	102	45088768	19	5299
2026-01-07 10:48:45.95	337.13	15.47	-30.0	-33.4	13.5	7.60e-06	0	43	102	45088768	19	5330
2026-01-07 10:48:46.95	337.16	15.36	-30.0	-33.1	13.3	1.52e-05	0	43	102	45088768	20	5142
2026-01-07 10:48:47.96	337.20	15.26	-30.3	-33.7	12.8	4.11e-05	0	43	102	45088768	20	5378
2026-01-07 10:48:48.97	337.24	15.15	-30.1	-33.3	13.2	3.73e-05	0	43	102	45088768	20	5202
2026-01-07 10:48:49.98	337.28	15.04	-30.0	-33.1	13.3	2.51e-05	0	43	102	45088768	20	5147
2026-01-07 10:48:50.99	337.32	14.94	-30.1	-33.4	13.1	2.74e-05	0	43	102	45088768	20	5235
2026-01-07 10:48:52.00	337.35	14.83	-30.1	-33.2	13.2	2.44e-05	0	43	102	45088768	20	5170
2026-01-07 10:48:53.00	337.39	14.73	-30.1	-33.3	13.1	2.21e-05	0	43	102	45088768	20	5208
2026-01-07 10:48:54.01	337.43	14.63	-30.2	-33.5	13.0	2.74e-05	0	43	102	45088768	20	5288
2026-01-07 10:48:55.01	337.46	14.52	-30.1	-33.4	13.1	2.36e-05	0	43	102	45088768	20	5257
2026-01-07 10:48:56.02	337.50	14.42	-30.2	-33.6	12.9	5.26e-05	0	44	102	45088768	20	5325
2026-01-07 10:48:57.03	337.53	14.32	-30.2	-33.7	12.9	5.72e-05	0	44	102	45088768	20	5356
2026-01-07 10:48:58.04	337.57	14.21	-30.4	-34.2	12.5	9.53e-05	0	43	102	45088768	20	5582
2026-01-07 10:48:59.05	337.61	14.11	-30.3	-33.9	12.7	8.92e-05	0	44	102	45088768	20	5472
2026-01-07 10:49:00.06	337.64	14.01	-30.4	-34.3	12.4	1.11e-04	0	44	102	45088768	20	5646
2026-01-07 10:49:01.06	337.68	13.91	-30.4	-34.1	12.5	1.31e-04	0	43	102	45088768	20	5553
2026-01-07 10:49:02.07	337.71	13.81	-30.5	-34.4	12.3	1.67e-04	0	43	102	45088768	20	5657
2026-01-07 10:49:03.08	337.75	13.71	-30.6	-34.3	12.0	2.53e-04	0	43	102	45088768	21	5531
2026-01-07 10:49:04.08	337.78	13.61	-30.7	-34.8	11.7	3.47e-04	0	43	102	45088768	21	5720
2026-01-07 10:49:05.09	337.81	13.51	-30.5	-34.1	12.2	4.01e-04	0	43	102	45088768	21	5428
2026-01-07 10:49:06.10	337.85	13.41	-30.5	-33.9	12.3	1.62e-04	0	43	102	45088768	21	5355
2026-01-07 10:49:07.11	337.88	13.31	-30.4	-33.8	12.4	1.52e-04	0	43	102	45088768	21	5299
2026-01-07 10:49:08.12	337.92	13.21	-30.5	-34.0	12.3	1.51e-04	0	43	102	45088768	21	5381
2026-01-07 10:49:09.13	337.95	13.12	-30.6	-34.5	11.9	4.45e-04	0	43	102	45088768	21	5607
2026-01-07 10:49:10.13	337.98	13.02	-30.5	-34.0	12.2	2.94e-04	0	43	102	45088768	21	5405
2026-01-07 10:49:11.14	338.02	12.92	-30.4	-33.7	12.4	1.88e-04	0	43	102	45088768	21	5267
2026-01-07 10:49:12.15	338.05	12.82	-30.3	-33.5	12.5	1.13e-04	0	43	102	45088768	21	5207
2026-01-07 10:49:13.16	338.08	12.73	-30.3	-33.5	12.6	1.04e-04	0	43	102	45088768	21	5188
2026-01-07 10:49:14.16	338.11	12.63	-30.3	-33.4	12.6	8.31e-05	0	44	102	45088768	21	5168
2026-01-07 10:49:15.17	338.15	12.54	-30.3	-33.5	12.6	1.05e-04	0	44	102	45088768	21	5197
2026-01-07 10:49:16.18	338.18	12.44	-30.4	-33.7	12.4	1.50e-04	0	43	102	45088768	21	5295
2026-01-07 10:49:17.18	338.21	12.35	-30.3	-33.5	12.5	9.53e-05	0	43	102	45088768	21	5198
2026-01-07 10:49:18.19	338.24	12.25	-30.2	-33.3	12.7	9.84e-05	0	43	102	45088768	21	5107
2026-01-07 10:49:19.19	338.27	12.16	-30.2	-33.3	12.7	9.61e-05	0	43	102	45088768	21	5121
2026-01-07 10:49:20.20	338.30	12.07	-30.2	-33.3	12.6	8.46e-05	0	43	102	45088768	21	5129
2026-01-07 10:49:21.21	338.34	11.97	-30.3	-33.4	12.6	7.78e-05	0	44	102	45088768	21	5173
2026-01-07 10:49:22.22	338.37	11.88	-30.3	-33.6	12.5	1.02e-04	0	43	102	45088768	21	5228
2026-01-07 10:49:23.22	338.40	11.79	-30.3	-33.6	12.4	1.34e-04	0	43	102	45088768	21	5235
2026-01-07 10:49:24.23	338.43	11.69	-30.3	-33.6	12.4	1.25e-04	0	44	102	45088768	21	5245
2026-01-07 10:49:25.24	338.46	11.60	-30.3	-33.7	12.4	1.53e-04	0	43	102	45088768	21	5269
2026-01-07 10:49:26.25	338.49	11.51	-30.5	-34.0	12.1	2.59e-04	0	43	102	45088768	21	5385
2026-01-07 10:49:27.25	338.52	11.42	-30.3	-33.6	12.4	1.86e-04	0	43	102	45088768	21	5235
2026-01-07 10:49:28.26	338.55	11.33	-30.3	-33.6	12.4	1.64e-04	0	44	102	45088768	21	5227
2026-01-07 10:49:29.26	338.58	11.24	-30.3	-33.6	12.4	1.47e-04	0	43	102	45088768	21	5258
2026-01-07 10:49:30.26	338.61	11.15	-30.4	-33.8	12.3	1.68e-04	0	44	102	45088768	21	5310
2026-01-07 10:49:31.26	338.64	11.06	-30.5	-34.0	12.1	2.49e-04	0	43	102	45088768	21	5403
2026-01-07 10:49:32.27	338.67	10.97	-30.3	-33.6	12.3	1.94e-04	0	43	102	45088768	21	5253
2026-01-07 10:49:33.28	338.70	10.88	-30.2	-33.1	12.7	1.04e-04	0	44	102	45088768	21	5076
2026-01-07 10:49:34.28	338.73	10.79	-30.1	-33.1	12.7	7.78e-05	0	43	102	45088768	21	5041
2026-01-07 10:49:35.29	338.76	10.70	-30.1	-33.1	12.7	9.00e-05	0	43	102	45088768	21	5038
2026-01-07 10:49:36.30	338.78	10.61	-30.2	-33.1	12.7	7.01e-05	0	43	102	45088768	21	5062
2026-01-07 10:49:37.30	338.81	10.53	-30.1	-33.0	12.7	1.01e-04	0	43	102	45088768	21	5035
2026-01-07 10:49:38.31	338.84	10.44	-30.1	-32.9	12.8	5.72e-05	0	43	102	45088768	21	4971
2026-01-07 10:49:39.32	338.87	10.35	-30.0	-32.8	12.9	5.18e-05	0	43	102	45088768	21	4940
2026-01-07 10:49:40.33	338.90	10.26	-30.1	-33.0	12.7	6.17e-05	0	43	102	45088768	21	5008
