passes_logs/2026/01/07/R2M6_AANII_01/R2M6_AANII_01__20260107_162650_FENGYUN_3E_rec.log

#Pass ID: 20260107_162650_FENGYUN 3E
#Satellite: FENGYUN 3E
#Configuration: FENGYUN 3E
#almurnet v.1.7.20240730
#Start time: 2026-01-07 16:26:51

#Version: 2.2.20231116
#Station: R2M6_AANII_01
#Location: 30.233357 lon 59.946436 lat
#TLE: 1 49008U 21062A   26006.26767912  .00000427  00000+0  22170-3 0  9993
#TLE: 2 49008  98.7475  11.4982 0001602 156.1158 204.0093 14.19885456233607

#Time	Az	El	Level	Level2	SNR	BER	BlckErr	Temp	State	Recorded	gain1	gain2
2026-01-07 16:26:51.71	221.86	7.08	-27.0	-28.1	5.7	7.31e-01	0	41	0	0	14	4078
2026-01-07 16:26:52.71	221.96	7.14	-28.3	-29.7	5.5	7.46e-01	0	41	104	0	17	4221
2026-01-07 16:26:53.72	222.07	7.20	-28.5	-30.1	10.7	3.12e-03	0	41	0	0	17	4334
2026-01-07 16:26:54.72	222.18	7.26	-28.4	-30.0	10.8	3.48e-03	0	41	102	1048576	17	4298
2026-01-07 16:26:55.73	222.29	7.31	-28.1	-29.2	11.3	1.68e-03	0	41	102	1048576	17	4078
2026-01-07 16:26:56.74	222.40	7.37	-27.8	-28.9	11.8	4.59e-04	0	41	102	1048576	16	4089
2026-01-07 16:26:57.75	222.52	7.43	-27.5	-28.2	12.2	2.53e-04	0	41	102	1048576	16	3895
2026-01-07 16:26:58.74	222.62	7.49	-27.2	-28.0	12.5	1.36e-04	0	41	102	1048576	15	3950
2026-01-07 16:26:59.75	222.74	7.55	-27.1	-27.7	12.7	8.58e-05	0	41	102	1048576	15	3870
2026-01-07 16:27:00.76	222.85	7.61	-26.9	-27.9	12.9	7.09e-05	0	41	102	1048576	14	4030
2026-01-07 16:27:01.76	222.96	7.67	-26.9	-27.9	12.9	7.32e-05	0	42	102	1048576	14	4018
2026-01-07 16:27:02.76	223.07	7.73	-26.9	-27.7	13.0	4.00e-05	0	42	102	1048576	14	3975
2026-01-07 16:27:03.77	223.19	7.79	-26.7	-27.4	13.2	2.63e-05	0	42	102	1048576	14	3901
2026-01-07 16:27:04.77	223.30	7.85	-26.7	-27.3	13.2	3.08e-05	0	42	102	1048576	14	3883
2026-01-07 16:27:05.78	223.41	7.91	-26.7	-27.4	13.2	2.28e-05	0	42	102	1048576	14	3903
2026-01-07 16:27:06.79	223.53	7.97	-26.7	-27.3	13.3	1.94e-05	0	42	102	1048576	14	3860
2026-01-07 16:27:07.79	223.64	8.02	-26.8	-27.7	13.1	2.63e-05	0	42	102	1048576	14	3962
2026-01-07 16:27:08.80	223.76	8.08	-26.7	-27.4	13.2	4.11e-05	0	42	102	1048576	14	3906
2026-01-07 16:27:09.81	223.88	8.14	-26.7	-27.4	13.2	2.74e-05	0	42	102	1048576	14	3908
2026-01-07 16:27:10.81	223.99	8.20	-26.9	-27.7	13.1	3.43e-05	0	42	102	1048576	14	3970
2026-01-07 16:27:11.82	224.11	8.26	-26.7	-27.5	13.2	2.97e-05	0	42	102	1048576	14	3911
2026-01-07 16:27:12.83	224.23	8.32	-26.6	-27.2	13.3	1.83e-05	0	42	102	1048576	14	3845
2026-01-07 16:27:13.84	224.35	8.38	-26.5	-27.0	13.5	1.48e-05	0	42	102	1048576	14	3804
2026-01-07 16:27:14.85	224.47	8.44	-26.6	-27.0	13.5	2.05e-05	0	42	102	1048576	14	3798
2026-01-07 16:27:15.85	224.58	8.50	-26.5	-26.8	13.6	8.00e-06	0	42	102	1048576	14	3749
2026-01-07 16:27:16.86	224.70	8.56	-26.4	-26.6	13.8	1.14e-05	0	42	102	1048576	14	3693
2026-01-07 16:27:17.87	224.82	8.62	-26.3	-27.1	13.8	3.40e-06	0	42	102	1048576	13	3904
2026-01-07 16:27:18.87	224.94	8.68	-26.3	-26.9	13.8	4.50e-06	0	42	102	1048576	13	3870
2026-01-07 16:27:19.88	225.06	8.74	-26.2	-26.7	14.0	3.40e-06	0	42	102	1048576	13	3812
2026-01-07 16:27:20.88	225.18	8.80	-26.3	-27.0	13.8	6.80e-06	0	42	102	1048576	13	3880
2026-01-07 16:27:21.89	225.31	8.86	-26.2	-26.7	14.0	5.70e-06	0	42	102	1048576	13	3820
2026-01-07 16:27:22.89	225.43	8.92	-26.2	-26.7	14.0	5.70e-06	0	42	102	1048576	13	3808
2026-01-07 16:27:23.90	225.55	8.98	-26.2	-26.8	13.9	8.00e-06	0	42	102	1048576	13	3823
2026-01-07 16:27:24.91	225.67	9.04	-26.2	-26.6	14.0	3.40e-06	0	42	102	1048576	13	3784
2026-01-07 16:27:25.92	225.80	9.10	-26.2	-26.7	14.0	3.40e-06	0	42	102	1048576	13	3810
2026-01-07 16:27:26.92	225.92	9.16	-26.1	-26.5	14.1	1.10e-06	0	42	102	1048576	13	3776
2026-01-07 16:27:27.93	226.05	9.22	-26.1	-26.5	14.2	0.00e+00	0	42	102	1048576	13	3758
2026-01-07 16:27:28.93	226.17	9.28	-26.2	-26.7	14.0	2.20e-06	0	42	102	1048576	13	3825
2026-01-07 16:27:29.94	226.30	9.34	-26.2	-26.7	14.0	3.40e-06	0	42	102	1048576	13	3806
2026-01-07 16:27:30.94	226.42	9.40	-26.2	-26.6	14.0	5.70e-06	0	42	102	1048576	13	3796
2026-01-07 16:27:31.95	226.55	9.46	-26.3	-26.9	14.0	4.50e-06	0	42	102	1048576	13	3859
2026-01-07 16:27:32.95	226.68	9.52	-26.1	-26.5	14.1	3.40e-06	0	42	102	1048576	13	3768
2026-01-07 16:27:33.96	226.81	9.58	-26.1	-26.5	14.2	3.40e-06	0	42	102	1048576	13	3755
2026-01-07 16:27:34.96	226.93	9.64	-26.1	-26.5	14.1	3.40e-06	0	42	102	1048576	13	3772
2026-01-07 16:27:35.96	227.06	9.70	-26.1	-26.5	14.1	1.10e-06	0	42	102	1048576	13	3773
2026-01-07 16:27:36.97	227.19	9.76	-26.1	-26.6	14.1	2.20e-06	0	42	102	1048576	13	3783
2026-01-07 16:27:37.97	227.32	9.82	-26.1	-26.5	14.2	2.20e-06	0	42	102	1048576	13	3762
2026-01-07 16:27:38.73	227.42	9.87	-26.2	-26.6	14.1	0.00e+00	0	42	102	1048576	13	3795
2026-01-07 16:27:40.02	227.58	9.95	-26.2	-26.7	14.0	2.20e-06	0	42	102	1048576	13	3818
2026-01-07 16:27:40.74	227.68	9.99	-26.2	-26.6	14.1	2.20e-06	0	42	102	1048576	13	3784
2026-01-07 16:27:42.03	227.85	10.07	-26.2	-26.6	14.1	3.40e-06	0	42	102	1048576	13	3790
2026-01-07 16:27:42.75	227.94	10.11	-26.2	-26.7	14.0	3.40e-06	0	43	102	1048576	13	3817
2026-01-07 16:27:44.04	228.11	10.19	-26.4	-27.2	13.8	2.20e-06	0	43	102	1048576	13	3939
2026-01-07 16:27:44.76	228.21	10.23	-26.2	-26.6	14.1	1.10e-06	0	43	102	1048576	13	3790
2026-01-07 16:27:46.05	228.38	10.31	-26.1	-26.4	14.2	1.10e-06	0	42	102	1048576	13	3748
2026-01-07 16:27:46.77	228.48	10.35	-26.0	-26.2	14.4	0.00e+00	0	43	102	1048576	13	3685
2026-01-07 16:27:48.06	228.65	10.43	-26.0	-26.2	14.4	1.10e-06	0	43	102	1048576	13	3691
2026-01-07 16:27:48.79	228.75	10.47	-25.9	-25.9	14.5	0.00e+00	0	42	102	1048576	13	3625
2026-01-07 16:27:50.08	228.92	10.55	-25.9	-26.6	14.5	1.10e-06	0	43	102	1048576	12	3874
2026-01-07 16:27:50.80	229.02	10.60	-25.9	-26.5	14.5	0.00e+00	0	43	102	1048576	12	3856
2026-01-07 16:27:52.09	229.19	10.67	-26.0	-26.7	14.4	0.00e+00	0	43	102	1048576	12	3897
2026-01-07 16:27:52.81	229.29	10.72	-26.0	-26.8	14.3	0.00e+00	0	42	102	1048576	12	3934
2026-01-07 16:27:54.11	229.47	10.79	-25.9	-26.5	14.5	2.20e-06	0	43	102	1048576	12	3852
2026-01-07 16:27:54.83	229.57	10.84	-26.0	-26.7	14.4	1.10e-06	0	43	102	1048576	12	3902
2026-01-07 16:27:56.12	229.75	10.92	-26.0	-26.7	14.4	0.00e+00	0	43	102	1048576	12	3924
2026-01-07 16:27:56.84	229.85	10.96	-26.0	-26.7	14.4	2.20e-06	0	42	102	1048576	12	3918
2026-01-07 16:27:58.13	230.03	11.04	-26.0	-26.8	14.3	2.20e-06	0	43	102	1048576	12	3950
2026-01-07 16:27:58.85	230.13	11.08	-25.9	-26.6	14.5	1.10e-06	0	43	102	1048576	12	3888
2026-01-07 16:28:00.15	230.31	11.16	-26.0	-26.6	14.5	0.00e+00	0	43	102	1048576	12	3897
2026-01-07 16:28:00.86	230.41	11.20	-26.0	-26.6	14.5	0.00e+00	0	43	102	1048576	12	3891
2026-01-07 16:28:02.16	230.60	11.28	-25.8	-26.3	14.7	0.00e+00	0	43	102	1048576	12	3799
2026-01-07 16:28:02.87	230.70	11.32	-25.9	-26.5	14.5	0.00e+00	0	43	102	1048576	12	3856
2026-01-07 16:28:04.17	230.89	11.40	-25.8	-26.2	14.7	1.10e-06	0	43	102	1048576	12	3786
2026-01-07 16:28:04.89	230.99	11.44	-25.8	-26.2	14.7	0.00e+00	0	43	102	1048576	12	3793
2026-01-07 16:28:06.18	231.17	11.52	-25.8	-26.3	14.7	2.20e-06	0	43	102	1048576	12	3802
2026-01-07 16:28:06.90	231.28	11.56	-25.8	-26.2	14.7	3.40e-06	0	43	102	1048576	12	3784
2026-01-07 16:28:08.19	231.47	11.64	-25.8	-26.2	14.7	0.00e+00	0	43	102	1048576	12	3785
2026-01-07 16:28:08.91	231.57	11.69	-25.9	-26.4	14.6	0.00e+00	0	43	102	1048576	12	3838
2026-01-07 16:28:10.21	231.76	11.76	-26.0	-26.6	14.5	1.10e-06	0	43	102	1048576	12	3884
2026-01-07 16:28:10.93	231.87	11.81	-25.9	-26.4	14.6	0.00e+00	0	43	102	1048576	12	3846
2026-01-07 16:28:12.22	232.06	11.88	-25.9	-26.4	14.6	0.00e+00	0	43	102	1048576	12	3843
2026-01-07 16:28:12.94	232.16	11.93	-25.9	-26.6	14.5	0.00e+00	0	43	102	1048576	12	3878
2026-01-07 16:28:14.24	232.36	12.01	-25.9	-26.6	14.5	2.20e-06	0	43	102	1048576	12	3880
2026-01-07 16:28:14.96	232.47	12.05	-25.8	-26.2	14.7	0.00e+00	0	43	102	1048576	12	3796
2026-01-07 16:28:16.26	232.66	12.13	-25.7	-26.1	14.8	2.20e-06	0	43	102	1048576	12	3756
2026-01-07 16:28:16.97	232.77	12.17	-25.8	-26.2	14.8	0.00e+00	0	43	102	1048576	12	3772
2026-01-07 16:28:18.26	232.96	12.25	-25.6	-25.7	15.0	0.00e+00	0	43	102	1048576	12	3674
2026-01-07 16:28:18.98	233.07	12.29	-25.5	-25.7	15.1	0.00e+00	0	43	102	1048576	12	3661
2026-01-07 16:28:20.27	233.27	12.37	-25.5	-25.7	15.1	0.00e+00	0	43	102	1048576	12	3665
2026-01-07 16:28:20.99	233.38	12.41	-25.5	-25.6	15.1	0.00e+00	0	43	102	1048576	12	3646
2026-01-07 16:28:22.28	233.58	12.49	-25.5	-25.6	15.1	0.00e+00	0	43	102	1048576	12	3635
2026-01-07 16:28:23.00	233.69	12.53	-25.5	-25.6	15.1	0.00e+00	0	43	102	1048576	12	3659
2026-01-07 16:28:24.29	233.89	12.61	-25.5	-25.6	15.1	0.00e+00	0	43	102	1048576	12	3648
2026-01-07 16:28:25.01	234.00	12.65	-25.5	-25.5	15.2	0.00e+00	0	43	102	1048576	12	3630
2026-01-07 16:28:26.30	234.20	12.73	-25.5	-25.6	15.1	0.00e+00	0	43	102	1048576	12	3635
2026-01-07 16:28:27.02	234.31	12.77	-25.5	-25.6	15.1	0.00e+00	0	43	102	1048576	12	3630
2026-01-07 16:28:28.32	234.52	12.85	-25.4	-25.9	15.3	0.00e+00	0	43	102	1048576	11	3811
2026-01-07 16:28:29.04	234.63	12.89	-25.4	-25.9	15.3	0.00e+00	0	43	102	1048576	11	3805
2026-01-07 16:28:30.33	234.84	12.97	-25.3	-25.6	15.5	0.00e+00	0	43	102	1048576	11	3742
2026-01-07 16:28:31.05	234.95	13.01	-25.3	-25.6	15.4	0.00e+00	0	43	102	1048576	11	3749
2026-01-07 16:28:32.34	235.16	13.08	-25.3	-25.6	15.5	0.00e+00	0	43	102	1048576	11	3738
2026-01-07 16:28:33.05	235.27	13.13	-25.2	-25.4	15.6	0.00e+00	0	43	102	1048576	11	3692
2026-01-07 16:28:34.35	235.48	13.20	-25.2	-25.4	15.6	0.00e+00	0	43	102	1048576	11	3692
2026-01-07 16:28:35.07	235.60	13.25	-25.2	-25.5	15.6	0.00e+00	0	43	102	1048576	11	3720
2026-01-07 16:28:36.37	235.81	13.32	-25.2	-25.5	15.6	1.10e-06	0	43	102	1048576	11	3703
2026-01-07 16:28:37.09	235.92	13.37	-25.2	-25.5	15.5	0.00e+00	0	43	102	1048576	11	3710
2026-01-07 16:28:38.39	236.14	13.44	-25.3	-25.6	15.5	0.00e+00	0	43	102	1048576	11	3735
2026-01-07 16:28:39.11	236.25	13.48	-25.2	-25.5	15.5	1.10e-06	0	43	102	1048576	11	3722
2026-01-07 16:28:40.40	236.47	13.56	-25.3	-25.6	15.5	0.00e+00	0	43	102	1048576	11	3744
2026-01-07 16:28:41.12	236.59	13.60	-25.3	-25.7	15.5	0.00e+00	0	43	102	1048576	11	3748
2026-01-07 16:28:42.41	236.80	13.68	-25.4	-25.8	15.4	0.00e+00	0	43	102	1048576	11	3788
2026-01-07 16:28:43.13	236.92	13.72	-25.4	-25.9	15.4	0.00e+00	0	43	102	1048576	11	3803
2026-01-07 16:28:44.43	237.14	13.80	-25.2	-25.4	15.6	1.10e-06	0	43	102	1048576	11	3696
2026-01-07 16:28:45.15	237.26	13.84	-25.1	-25.3	15.7	1.10e-06	0	43	102	1048576	11	3660
2026-01-07 16:28:46.44	237.48	13.91	-25.2	-25.4	15.6	0.00e+00	0	43	102	1048576	11	3691
2026-01-07 16:28:47.16	237.60	13.96	-25.3	-25.7	15.5	0.00e+00	0	43	102	1048576	11	3754
2026-01-07 16:28:48.46	237.82	14.03	-25.2	-25.3	15.7	0.00e+00	0	43	102	1048576	11	3679
2026-01-07 16:28:49.17	237.94	14.07	-25.1	-25.3	15.7	0.00e+00	0	43	102	1048576	11	3656
2026-01-07 16:28:50.46	238.16	14.15	-25.1	-25.3	15.7	0.00e+00	0	43	102	1048576	11	3655
2026-01-07 16:28:51.18	238.28	14.19	-25.0	-25.0	15.8	0.00e+00	0	43	102	1048576	11	3605
2026-01-07 16:28:52.48	238.51	14.26	-25.1	-25.2	15.7	0.00e+00	0	43	102	1048576	11	3648
2026-01-07 16:28:53.20	238.63	14.30	-25.1	-25.3	15.8	0.00e+00	0	43	102	1048576	11	3654
2026-01-07 16:28:54.49	238.86	14.38	-25.3	-25.5	15.6	0.00e+00	0	43	102	1048576	11	3721
2026-01-07 16:28:55.21	238.98	14.42	-25.2	-25.5	15.7	0.00e+00	0	43	102	1048576	11	3701
2026-01-07 16:28:56.51	239.21	14.49	-25.0	-24.9	16.0	0.00e+00	0	43	102	1048576	11	3581
2026-01-07 16:28:57.22	239.34	14.53	-24.8	-25.1	16.1	0.00e+00	0	43	102	1048576	10	3722
2026-01-07 16:28:58.52	239.57	14.61	-24.8	-25.1	16.1	0.00e+00	0	43	102	1048576	10	3731
2026-01-07 16:28:59.24	239.69	14.65	-24.8	-25.1	16.1	0.00e+00	0	43	102	1048576	10	3726
2026-01-07 16:29:00.52	239.92	14.72	-24.7	-24.9	16.2	0.00e+00	0	43	102	1048576	10	3678
2026-01-07 16:29:01.24	240.05	14.76	-24.7	-24.9	16.2	0.00e+00	0	43	102	1048576	10	3672
2026-01-07 16:29:02.54	240.28	14.84	-24.8	-25.0	16.2	0.00e+00	0	43	102	1048576	10	3699
2026-01-07 16:29:03.26	240.41	14.88	-24.8	-25.1	16.1	0.00e+00	0	43	102	1048576	10	3713
2026-01-07 16:29:04.55	240.64	14.95	-24.9	-25.2	16.0	0.00e+00	0	43	102	1048576	10	3745
2026-01-07 16:29:05.27	240.77	14.99	-24.9	-25.2	16.1	0.00e+00	0	43	102	1048576	10	3744
2026-01-07 16:29:06.56	241.01	15.06	-24.9	-25.3	16.1	0.00e+00	0	43	102	1048576	10	3755
2026-01-07 16:29:07.28	241.14	15.10	-24.9	-25.3	16.1	0.00e+00	0	43	102	1048576	10	3770
2026-01-07 16:29:08.58	241.38	15.17	-25.0	-25.5	15.9	0.00e+00	0	43	102	1048576	10	3809
2026-01-07 16:29:09.30	241.51	15.21	-24.9	-25.3	16.0	0.00e+00	0	43	102	1048576	10	3767
2026-01-07 16:29:10.59	241.75	15.29	-24.8	-25.2	16.1	0.00e+00	0	43	102	1048576	10	3728
2026-01-07 16:29:11.31	241.88	15.33	-24.9	-25.2	16.1	0.00e+00	0	43	102	1048576	10	3730
2026-01-07 16:29:12.61	242.12	15.40	-25.1	-25.8	15.8	0.00e+00	0	43	102	1048576	10	3876
2026-01-07 16:29:13.33	242.26	15.44	-25.1	-25.8	15.8	0.00e+00	0	43	102	1048576	10	3875
2026-01-07 16:29:14.62	242.50	15.51	-25.2	-25.8	15.8	0.00e+00	0	43	102	1048576	10	3883
2026-01-07 16:29:15.34	242.63	15.55	-25.2	-25.9	15.8	0.00e+00	0	44	102	1048576	10	3897
2026-01-07 16:29:16.64	242.88	15.62	-25.1	-25.7	15.9	0.00e+00	0	43	102	1048576	10	3853
2026-01-07 16:29:17.36	243.02	15.66	-25.1	-25.7	15.9	0.00e+00	0	43	102	1048576	10	3845
2026-01-07 16:29:18.65	243.26	15.73	-25.1	-25.7	15.9	0.00e+00	0	43	102	1048576	10	3853
2026-01-07 16:29:19.37	243.40	15.77	-25.1	-25.8	15.8	0.00e+00	0	43	102	1048576	10	3867
2026-01-07 16:29:20.66	243.64	15.83	-25.0	-25.6	16.0	0.00e+00	0	43	102	1048576	10	3823
2026-01-07 16:29:21.39	243.78	15.87	-25.0	-25.4	16.0	0.00e+00	0	43	102	1048576	10	3794
2026-01-07 16:29:22.68	244.03	15.94	-25.0	-25.5	16.0	0.00e+00	0	43	102	1048576	10	3809
2026-01-07 16:29:23.40	244.17	15.98	-24.9	-25.3	16.1	0.00e+00	0	43	102	1048576	10	3754
2026-01-07 16:29:24.69	244.42	16.05	-25.0	-25.5	16.0	0.00e+00	0	43	102	1048576	10	3800
2026-01-07 16:29:25.41	244.56	16.09	-24.9	-25.4	16.0	0.00e+00	0	43	102	1048576	10	3782
2026-01-07 16:29:26.71	244.82	16.16	-25.0	-25.6	16.0	0.00e+00	0	43	102	1048576	10	3822
2026-01-07 16:29:27.43	244.96	16.19	-24.8	-25.1	16.2	0.00e+00	0	43	102	1048576	10	3721
2026-01-07 16:29:28.72	245.21	16.26	-24.5	-24.4	16.6	0.00e+00	0	43	102	1048576	10	3552
2026-01-07 16:29:29.44	245.35	16.30	-24.4	-24.2	16.7	0.00e+00	0	44	102	1048576	10	3525
2026-01-07 16:29:30.72	245.61	16.36	-24.5	-24.8	16.6	0.00e+00	0	43	102	1048576	9	3742
2026-01-07 16:29:31.44	245.75	16.40	-24.4	-24.6	16.7	0.00e+00	0	43	102	1048576	9	3705
2026-01-07 16:29:32.74	246.01	16.47	-24.5	-24.8	16.6	0.00e+00	0	44	102	1048576	9	3758
2026-01-07 16:29:33.46	246.15	16.50	-24.5	-25.0	16.5	0.00e+00	0	43	102	1048576	9	3785
2026-01-07 16:29:34.75	246.41	16.57	-24.7	-25.3	16.3	0.00e+00	0	43	102	1048576	9	3875
2026-01-07 16:29:35.47	246.55	16.61	-24.7	-25.3	16.4	0.00e+00	0	43	102	1048576	9	3864
2026-01-07 16:29:36.77	246.82	16.67	-24.7	-25.3	16.4	0.00e+00	0	43	102	1048576	9	3860
2026-01-07 16:29:37.49	246.96	16.71	-24.6	-25.1	16.5	0.00e+00	0	43	102	1048576	9	3824
2026-01-07 16:29:38.78	247.22	16.77	-24.6	-25.2	16.4	0.00e+00	0	43	102	1048576	9	3839
2026-01-07 16:29:39.50	247.37	16.81	-24.5	-24.9	16.6	0.00e+00	0	43	102	1048576	9	3781
2026-01-07 16:29:40.79	247.63	16.87	-24.5	-24.9	16.6	0.00e+00	0	43	102	1048576	9	3765
2026-01-07 16:29:41.51	247.78	16.91	-24.6	-25.1	16.5	0.00e+00	0	44	102	1048576	9	3814
2026-01-07 16:29:42.81	248.05	16.97	-24.5	-25.0	16.6	0.00e+00	0	43	102	1048576	9	3789
2026-01-07 16:29:43.53	248.20	17.01	-24.5	-24.9	16.7	0.00e+00	0	43	102	1048576	9	3763
2026-01-07 16:29:44.82	248.47	17.07	-24.6	-25.1	16.5	0.00e+00	0	43	102	1048576	9	3807
2026-01-07 16:29:45.55	248.62	17.10	-24.6	-25.1	16.5	0.00e+00	0	43	102	1048576	9	3817
2026-01-07 16:29:46.84	248.89	17.17	-24.7	-25.2	16.4	0.00e+00	0	43	102	1048576	9	3848
2026-01-07 16:29:47.55	249.03	17.20	-24.5	-24.9	16.6	0.00e+00	0	43	102	1048576	9	3765
2026-01-07 16:29:48.84	249.31	17.26	-24.5	-24.8	16.7	0.00e+00	0	43	102	1048576	9	3755
2026-01-07 16:29:49.56	249.46	17.29	-24.4	-24.7	16.7	0.00e+00	0	43	102	1048576	9	3725
2026-01-07 16:29:50.85	249.73	17.35	-24.5	-24.9	16.6	0.00e+00	0	43	102	1048576	9	3772
2026-01-07 16:29:51.57	249.88	17.39	-24.4	-24.7	16.8	0.00e+00	0	43	102	1048576	9	3710
2026-01-07 16:29:52.86	250.15	17.45	-24.4	-24.8	16.7	0.00e+00	0	43	102	1048576	9	3734
2026-01-07 16:29:53.58	250.31	17.48	-24.4	-24.7	16.7	0.00e+00	0	44	102	1048576	9	3722
2026-01-07 16:29:54.87	250.58	17.54	-24.4	-24.7	16.7	0.00e+00	0	43	102	1048576	9	3717
2026-01-07 16:29:55.59	250.74	17.57	-24.4	-24.7	16.7	0.00e+00	0	43	102	1048576	9	3727
2026-01-07 16:29:56.89	251.02	17.63	-24.5	-24.9	16.6	0.00e+00	0	43	102	1048576	9	3757
2026-01-07 16:29:57.61	251.17	17.66	-24.4	-24.7	16.8	0.00e+00	0	43	102	1048576	9	3725
2026-01-07 16:29:58.91	251.45	17.72	-24.4	-24.6	16.8	0.00e+00	0	43	102	1048576	9	3710
2026-01-07 16:29:59.63	251.61	17.75	-24.4	-24.6	16.8	0.00e+00	0	44	102	1048576	9	3706
2026-01-07 16:30:00.92	251.89	17.81	-24.6	-25.0	16.6	0.00e+00	0	43	102	1048576	9	3803
2026-01-07 16:30:01.64	252.04	17.84	-24.6	-25.2	16.5	0.00e+00	0	43	102	1048576	9	3838
2026-01-07 16:30:02.94	252.33	17.90	-24.5	-24.8	16.7	0.00e+00	0	43	102	1048576	9	3754
2026-01-07 16:30:03.66	252.49	17.93	-24.5	-24.9	16.6	0.00e+00	0	44	102	1048576	9	3768
2026-01-07 16:30:04.95	252.77	17.98	-24.6	-25.1	16.5	0.00e+00	0	43	102	1048576	9	3820
2026-01-07 16:30:05.68	252.93	18.01	-24.6	-25.2	16.5	0.00e+00	0	43	102	1048576	9	3840
2026-01-07 16:30:06.98	253.22	18.07	-24.7	-25.3	16.4	0.00e+00	0	43	102	1048576	9	3862
2026-01-07 16:30:07.70	253.38	18.10	-24.6	-25.0	16.6	0.00e+00	0	43	102	1048576	9	3804
2026-01-07 16:30:08.99	253.66	18.15	-24.4	-24.7	16.8	0.00e+00	0	44	102	1048576	9	3729
2026-01-07 16:30:09.71	253.82	18.18	-24.4	-24.6	16.8	0.00e+00	0	43	102	1048576	9	3707
2026-01-07 16:30:11.01	254.11	18.23	-24.3	-24.5	16.9	0.00e+00	0	44	102	1048576	9	3667
2026-01-07 16:30:11.73	254.27	18.26	-24.4	-24.6	16.8	0.00e+00	0	44	102	1048576	9	3700
2026-01-07 16:30:13.02	254.56	18.31	-24.3	-24.5	16.9	0.00e+00	0	43	102	1048576	9	3671
2026-01-07 16:30:13.74	254.73	18.34	-24.5	-24.9	16.6	0.00e+00	0	43	102	1048576	9	3765
2026-01-07 16:30:15.03	255.02	18.39	-24.4	-24.6	16.8	0.00e+00	0	44	102	1048576	9	3708
2026-01-07 16:30:15.76	255.18	18.42	-24.3	-24.4	16.9	0.00e+00	0	43	102	1048576	9	3654
2026-01-07 16:30:17.05	255.47	18.47	-24.3	-24.5	16.9	0.00e+00	0	43	102	1048576	9	3678
2026-01-07 16:30:17.77	255.64	18.49	-24.3	-24.4	16.9	0.00e+00	0	43	102	1048576	9	3664
2026-01-07 16:30:19.06	255.93	18.54	-24.2	-24.3	17.0	0.00e+00	0	44	102	1048576	9	3635
2026-01-07 16:30:19.77	256.09	18.57	-24.2	-24.3	16.9	0.00e+00	0	43	102	1048576	9	3637
2026-01-07 16:30:21.06	256.39	18.61	-24.2	-24.2	17.0	0.00e+00	0	44	102	1048576	9	3604
2026-01-07 16:30:21.78	256.55	18.64	-24.2	-24.2	17.0	0.00e+00	0	43	102	1048576	9	3612
2026-01-07 16:30:23.07	256.85	18.69	-24.3	-24.4	16.9	1.10e-06	0	43	102	1048576	9	3644
2026-01-07 16:30:23.78	257.01	18.71	-24.2	-24.2	17.0	0.00e+00	0	43	102	1048576	9	3618
2026-01-07 16:30:25.07	257.31	18.76	-24.3	-24.4	16.9	0.00e+00	0	44	102	1048576	9	3661
2026-01-07 16:30:25.79	257.48	18.78	-24.2	-24.2	17.0	0.00e+00	0	43	102	1048576	9	3615
2026-01-07 16:30:27.09	257.78	18.83	-24.4	-24.6	16.8	0.00e+00	0	44	102	1048576	9	3705
2026-01-07 16:30:27.81	257.95	18.85	-24.3	-24.5	16.9	0.00e+00	0	43	102	1048576	9	3675
2026-01-07 16:30:29.10	258.25	18.89	-24.3	-24.4	16.9	0.00e+00	0	43	102	1048576	9	3649
2026-01-07 16:30:29.82	258.41	18.92	-24.3	-24.4	16.9	0.00e+00	0	43	102	1048576	9	3669
2026-01-07 16:30:31.12	258.72	18.96	-24.3	-24.4	17.0	0.00e+00	0	44	102	1048576	9	3651
2026-01-07 16:30:31.83	258.88	18.98	-24.3	-24.4	16.9	3.40e-06	0	43	102	1048576	9	3654
2026-01-07 16:30:33.13	259.19	19.02	-24.1	-24.0	17.1	0.00e+00	0	44	102	1048576	9	3571
2026-01-07 16:30:33.85	259.36	19.05	-24.1	-24.1	17.1	0.00e+00	0	43	102	1048576	9	3579
2026-01-07 16:30:35.14	259.66	19.09	-24.0	-23.9	17.2	0.00e+00	0	44	102	1048576	9	3549
2026-01-07 16:30:35.86	259.83	19.11	-24.0	-23.8	17.2	0.00e+00	0	44	102	1048576	9	3532
2026-01-07 16:30:37.16	260.14	19.15	-24.1	-24.0	17.2	0.00e+00	0	43	102	1048576	9	3566
2026-01-07 16:30:37.87	260.31	19.17	-24.2	-24.2	17.0	4.50e-06	0	43	102	1048576	9	3607
2026-01-07 16:30:39.17	260.62	19.20	-24.1	-24.0	17.1	0.00e+00	0	43	102	1048576	9	3572
2026-01-07 16:30:39.88	260.79	19.22	-24.2	-24.2	17.1	0.00e+00	0	43	102	1048576	9	3610
2026-01-07 16:30:41.18	261.10	19.26	-24.1	-24.1	17.1	0.00e+00	0	43	102	1048576	9	3578
2026-01-07 16:30:41.90	261.27	19.28	-24.1	-24.1	17.1	0.00e+00	0	43	102	1048576	9	3588
2026-01-07 16:30:43.20	261.58	19.32	-24.1	-24.0	17.2	0.00e+00	0	43	102	1048576	9	3569
2026-01-07 16:30:43.92	261.75	19.34	-24.1	-24.1	17.1	0.00e+00	0	43	102	1048576	9	3592
2026-01-07 16:30:45.22	262.06	19.37	-24.1	-24.1	17.1	0.00e+00	0	43	102	1048576	9	3587
2026-01-07 16:30:45.93	262.24	19.39	-24.2	-24.3	17.0	0.00e+00	0	44	102	1048576	9	3636
2026-01-07 16:30:47.23	262.55	19.42	-24.0	-23.8	17.2	0.00e+00	0	43	102	1048576	9	3532
2026-01-07 16:30:47.94	262.72	19.44	-24.1	-24.0	17.2	0.00e+00	0	43	102	1048576	9	3560
2026-01-07 16:30:49.24	263.03	19.47	-24.3	-24.4	17.0	0.00e+00	0	43	102	1048576	9	3649
2026-01-07 16:30:49.95	263.21	19.49	-24.4	-24.6	16.8	0.00e+00	0	44	102	1048576	9	3696
2026-01-07 16:30:51.25	263.52	19.52	-24.3	-24.5	16.9	0.00e+00	0	44	102	1048576	9	3668
2026-01-07 16:30:51.97	263.70	19.53	-24.3	-24.5	16.9	0.00e+00	0	44	102	1048576	9	3671
2026-01-07 16:30:53.26	264.01	19.56	-24.3	-24.5	16.9	0.00e+00	0	44	102	1048576	9	3675
2026-01-07 16:30:53.97	264.18	19.58	-24.3	-24.5	16.9	0.00e+00	0	43	102	1048576	9	3669
2026-01-07 16:30:55.27	264.50	19.61	-24.3	-24.4	17.0	0.00e+00	0	44	102	1048576	9	3652
2026-01-07 16:30:55.99	264.67	19.62	-24.3	-24.4	17.0	0.00e+00	0	44	102	1048576	9	3654
2026-01-07 16:30:57.28	264.99	19.65	-24.3	-24.6	16.9	0.00e+00	0	44	102	1048576	9	3693
2026-01-07 16:30:58.00	265.17	19.66	-24.4	-24.7	16.8	0.00e+00	0	44	102	1048576	9	3723
2026-01-07 16:30:59.30	265.48	19.69	-24.4	-24.7	16.8	0.00e+00	0	44	102	1048576	9	3731
2026-01-07 16:31:00.02	265.66	19.70	-24.3	-24.4	17.0	0.00e+00	0	43	102	1048576	9	3647
2026-01-07 16:31:01.31	265.98	19.72	-24.3	-24.4	16.9	1.10e-06	0	43	102	1048576	9	3664
2026-01-07 16:31:02.03	266.15	19.74	-24.3	-24.4	17.0	0.00e+00	0	44	102	1048576	9	3645
2026-01-07 16:31:03.33	266.47	19.76	-24.0	-23.9	17.2	0.00e+00	0	44	102	1048576	9	3534
2026-01-07 16:31:04.05	266.65	19.77	-24.0	-23.9	17.3	0.00e+00	0	44	102	1048576	9	3533
2026-01-07 16:31:05.34	266.97	19.79	-24.0	-23.9	17.2	0.00e+00	0	44	102	1048576	9	3545
2026-01-07 16:31:06.06	267.15	19.80	-24.1	-24.0	17.2	0.00e+00	0	44	102	1048576	9	3568
2026-01-07 16:31:07.36	267.47	19.82	-23.9	-23.7	17.4	4.50e-06	0	44	102	1048576	9	3496
2026-01-07 16:31:08.08	267.65	19.83	-24.0	-23.9	17.3	0.00e+00	0	44	102	1048576	9	3537
2026-01-07 16:31:09.37	267.97	19.85	-24.1	-24.1	17.2	0.00e+00	0	44	102	1048576	9	3581
2026-01-07 16:31:10.09	268.15	19.86	-24.1	-24.2	17.1	0.00e+00	0	44	102	1048576	9	3606
2026-01-07 16:31:11.38	268.47	19.88	-24.2	-24.3	17.0	0.00e+00	0	44	102	1048576	9	3634
2026-01-07 16:31:12.10	268.64	19.89	-24.3	-24.5	16.9	0.00e+00	0	44	102	1048576	9	3677
2026-01-07 16:31:13.39	268.96	19.90	-24.3	-24.6	16.9	1.10e-06	0	44	102	1048576	9	3694
2026-01-07 16:31:14.12	269.15	19.91	-24.3	-24.5	16.9	0.00e+00	0	44	102	1048576	9	3679
2026-01-07 16:31:15.41	269.47	19.93	-24.4	-24.6	16.9	0.00e+00	0	44	102	1048576	9	3697
2026-01-07 16:31:16.13	269.65	19.94	-24.4	-24.7	16.8	0.00e+00	0	44	102	1048576	9	3722
2026-01-07 16:31:17.42	269.97	19.95	-24.3	-24.5	17.0	0.00e+00	0	44	102	1048576	9	3665
2026-01-07 16:31:18.15	270.15	19.96	-24.3	-24.3	17.0	0.00e+00	0	44	102	1048576	9	3638
2026-01-07 16:31:19.44	270.47	19.97	-24.3	-24.4	17.0	0.00e+00	0	44	102	1048576	9	3645
2026-01-07 16:31:20.16	270.65	19.97	-24.2	-24.3	17.0	0.00e+00	0	44	102	1048576	9	3636
2026-01-07 16:31:21.45	270.97	19.98	-24.4	-24.7	16.8	0.00e+00	0	44	102	1048576	9	3730
2026-01-07 16:31:22.17	271.15	19.99	-24.5	-24.8	16.7	0.00e+00	0	43	102	1048576	9	3755
2026-01-07 16:31:23.47	271.48	20.00	-24.3	-24.4	17.0	0.00e+00	0	44	102	1048576	9	3665
2026-01-07 16:31:24.19	271.66	20.00	-24.2	-24.3	17.0	0.00e+00	0	44	102	1048576	9	3637
2026-01-07 16:31:25.49	271.98	20.01	-24.3	-24.5	17.0	0.00e+00	0	44	102	1048576	9	3665
2026-01-07 16:31:26.21	272.16	20.01	-24.2	-24.3	17.0	0.00e+00	0	44	102	1048576	9	3638
2026-01-07 16:31:27.51	272.49	20.02	-24.1	-24.1	17.2	0.00e+00	0	44	102	1048576	9	3581
2026-01-07 16:31:28.23	272.67	20.02	-24.1	-23.9	17.2	0.00e+00	0	44	102	1048576	9	3548
2026-01-07 16:31:29.53	272.99	20.03	-24.2	-24.2	17.1	0.00e+00	0	44	102	1048576	9	3611
2026-01-07 16:31:30.24	273.17	20.03	-24.1	-24.1	17.2	0.00e+00	0	44	102	1048576	9	3572
2026-01-07 16:31:31.53	273.49	20.03	-24.0	-23.9	17.3	0.00e+00	0	44	102	1048576	9	3538
2026-01-07 16:31:32.25	273.67	20.03	-24.1	-23.9	17.3	0.00e+00	0	44	102	1048576	9	3549
2026-01-07 16:31:33.54	274.00	20.04	-24.0	-23.9	17.3	0.00e+00	0	44	102	1048576	9	3543
2026-01-07 16:31:34.26	274.18	20.04	-24.1	-24.0	17.2	0.00e+00	0	43	102	1048576	9	3571
2026-01-07 16:31:35.56	274.50	20.04	-24.0	-23.8	17.3	0.00e+00	0	43	102	1048576	9	3526
2026-01-07 16:31:36.28	274.68	20.04	-24.0	-23.8	17.3	0.00e+00	0	44	102	1048576	9	3521
2026-01-07 16:31:37.58	275.01	20.03	-23.9	-23.6	17.4	0.00e+00	0	44	102	1048576	9	3487
2026-01-07 16:31:38.29	275.19	20.03	-23.9	-23.6	17.4	0.00e+00	0	44	102	1048576	9	3480
2026-01-07 16:31:39.58	275.51	20.03	-24.0	-23.8	17.3	0.00e+00	0	43	102	1048576	9	3510
2026-01-07 16:31:40.30	275.69	20.03	-24.1	-24.1	17.2	0.00e+00	0	44	102	1048576	9	3575
2026-01-07 16:31:41.59	276.01	20.03	-24.2	-24.3	17.0	0.00e+00	0	44	102	1048576	9	3635
2026-01-07 16:31:42.31	276.19	20.02	-24.3	-24.4	17.0	0.00e+00	0	44	102	1048576	9	3649
2026-01-07 16:31:43.61	276.52	20.02	-24.3	-24.4	17.0	0.00e+00	0	44	102	1048576	9	3652
2026-01-07 16:31:44.33	276.70	20.01	-24.3	-24.4	17.0	0.00e+00	0	44	102	1048576	9	3644
2026-01-07 16:31:45.63	277.02	20.01	-24.4	-24.6	16.9	0.00e+00	0	44	102	1048576	9	3684
2026-01-07 16:31:46.35	277.20	20.00	-24.4	-24.8	16.8	0.00e+00	0	44	102	1048576	9	3739
2026-01-07 16:31:47.64	277.53	20.00	-24.4	-24.7	16.8	0.00e+00	0	44	102	1048576	9	3722
2026-01-07 16:31:48.36	277.71	19.99	-24.4	-24.7	16.9	0.00e+00	0	44	102	1048576	9	3720
2026-01-07 16:31:49.65	278.03	19.98	-24.5	-24.9	16.7	0.00e+00	0	44	102	1048576	9	3774
2026-01-07 16:31:50.37	278.21	19.98	-24.5	-24.9	16.8	0.00e+00	0	44	102	1048576	9	3757
2026-01-07 16:31:51.66	278.53	19.97	-24.5	-24.9	16.8	0.00e+00	0	44	102	1048576	9	3760
2026-01-07 16:31:52.38	278.71	19.96	-24.4	-24.8	16.8	0.00e+00	0	44	102	1048576	9	3736
2026-01-07 16:31:53.68	279.03	19.95	-24.5	-24.8	16.8	0.00e+00	0	44	102	1048576	9	3747
2026-01-07 16:31:54.39	279.21	19.94	-24.6	-25.2	16.6	0.00e+00	0	44	102	1048576	9	3837
2026-01-07 16:31:55.69	279.53	19.93	-24.4	-24.8	16.8	0.00e+00	0	44	102	1048576	9	3737
2026-01-07 16:31:56.41	279.71	19.92	-24.3	-24.4	17.0	0.00e+00	0	44	102	1048576	9	3642
2026-01-07 16:31:57.70	280.03	19.90	-24.0	-23.9	17.3	0.00e+00	0	44	102	1048576	9	3536
2026-01-07 16:31:58.42	280.21	19.89	-24.0	-23.9	17.3	0.00e+00	0	44	102	1048576	9	3544
2026-01-07 16:31:59.71	280.53	19.88	-24.2	-24.3	17.1	0.00e+00	0	44	102	1048576	9	3618
2026-01-07 16:32:00.42	280.71	19.87	-24.2	-24.2	17.1	0.00e+00	0	44	102	1048576	9	3617
2026-01-07 16:32:01.72	281.03	19.85	-24.3	-24.5	16.9	0.00e+00	0	44	102	1048576	9	3683
2026-01-07 16:32:02.44	281.21	19.84	-24.3	-24.5	17.0	0.00e+00	0	44	102	1048576	9	3677
2026-01-07 16:32:03.74	281.53	19.82	-24.4	-24.7	16.9	0.00e+00	0	44	102	1048576	9	3715
2026-01-07 16:32:04.46	281.71	19.81	-24.3	-24.4	17.0	0.00e+00	0	44	102	1048576	9	3646
2026-01-07 16:32:05.75	282.02	19.79	-24.3	-24.5	17.0	0.00e+00	0	44	102	1048576	9	3664
2026-01-07 16:32:06.47	282.20	19.78	-24.3	-24.3	17.0	0.00e+00	0	44	102	1048576	9	3640
2026-01-07 16:32:07.77	282.52	19.76	-24.1	-23.9	17.2	0.00e+00	0	44	102	1048576	9	3553
2026-01-07 16:32:08.49	282.70	19.74	-24.0	-23.7	17.3	0.00e+00	0	44	102	1048576	9	3509
2026-01-07 16:32:09.79	283.02	19.72	-24.0	-23.8	17.3	0.00e+00	0	44	102	1048576	9	3522
2026-01-07 16:32:10.50	283.19	19.71	-24.0	-23.8	17.3	0.00e+00	0	44	102	1048576	9	3530
2026-01-07 16:32:11.79	283.51	19.68	-24.1	-24.0	17.2	0.00e+00	0	44	102	1048576	9	3564
2026-01-07 16:32:12.51	283.68	19.67	-24.1	-24.0	17.2	0.00e+00	0	44	102	1048576	9	3562
2026-01-07 16:32:13.81	284.00	19.64	-24.1	-24.0	17.2	0.00e+00	0	44	102	1048576	9	3551
2026-01-07 16:32:14.53	284.18	19.63	-24.1	-24.0	17.2	0.00e+00	0	44	102	1048576	9	3562
2026-01-07 16:32:15.82	284.49	19.60	-24.2	-24.3	17.0	0.00e+00	0	44	102	1048576	9	3623
2026-01-07 16:32:16.56	284.67	19.59	-24.2	-24.2	17.1	0.00e+00	0	44	102	1048576	9	3613
2026-01-07 16:32:17.85	284.98	19.56	-24.3	-24.4	17.0	0.00e+00	0	44	102	1048576	9	3653
2026-01-07 16:32:18.57	285.16	19.54	-24.3	-24.5	17.0	0.00e+00	0	44	102	1048576	9	3676
2026-01-07 16:32:19.86	285.47	19.51	-24.4	-24.6	16.9	0.00e+00	0	44	102	1048576	9	3696
2026-01-07 16:32:20.58	285.65	19.50	-24.5	-24.9	16.7	0.00e+00	0	44	102	1048576	9	3770
2026-01-07 16:32:21.87	285.96	19.47	-24.5	-24.9	16.7	0.00e+00	0	44	102	1048576	9	3777
2026-01-07 16:32:22.59	286.13	19.45	-24.5	-24.8	16.8	0.00e+00	0	44	102	1048576	9	3740
2026-01-07 16:32:23.89	286.44	19.42	-24.4	-24.8	16.8	0.00e+00	0	43	102	1048576	9	3737
2026-01-07 16:32:24.61	286.62	19.40	-24.5	-24.9	16.7	0.00e+00	0	44	102	1048576	9	3763
2026-01-07 16:32:25.89	286.92	19.37	-24.7	-25.3	16.5	0.00e+00	0	44	102	1048576	9	3857
2026-01-07 16:32:26.61	287.10	19.35	-24.6	-25.0	16.7	0.00e+00	0	44	102	1048576	9	3781
2026-01-07 16:32:27.91	287.41	19.31	-24.8	-25.5	16.4	0.00e+00	0	44	102	1048576	9	3907
2026-01-07 16:32:28.63	287.58	19.29	-24.7	-25.2	16.5	0.00e+00	0	44	102	1048576	9	3846
2026-01-07 16:32:29.93	287.89	19.26	-24.5	-24.9	16.7	0.00e+00	0	44	102	1048576	9	3774
2026-01-07 16:32:30.64	288.06	19.24	-24.5	-24.8	16.8	0.00e+00	0	44	102	1048576	9	3732
2026-01-07 16:32:31.93	288.37	19.20	-24.5	-24.9	16.7	0.00e+00	0	44	102	1048576	9	3776
2026-01-07 16:32:32.65	288.54	19.18	-24.4	-24.7	16.9	0.00e+00	0	44	102	1048576	9	3723
2026-01-07 16:32:33.94	288.84	19.14	-24.3	-24.4	17.0	0.00e+00	0	44	102	1048576	9	3660
2026-01-07 16:32:34.67	289.01	19.12	-24.3	-24.4	16.9	0.00e+00	0	44	102	1048576	9	3661
2026-01-07 16:32:35.96	289.32	19.08	-24.3	-24.5	16.9	0.00e+00	0	43	102	1048576	9	3679
2026-01-07 16:32:36.68	289.49	19.06	-24.2	-24.3	17.0	0.00e+00	0	44	102	1048576	9	3622
2026-01-07 16:32:37.97	289.79	19.02	-24.2	-24.2	17.1	0.00e+00	0	43	102	1048576	9	3610
2026-01-07 16:32:38.69	289.96	19.00	-24.3	-24.5	16.9	0.00e+00	0	44	102	1048576	9	3684
2026-01-07 16:32:39.98	290.26	18.96	-24.2	-24.3	17.0	0.00e+00	0	44	102	1048576	9	3627
2026-01-07 16:32:40.70	290.43	18.93	-24.3	-24.5	16.9	0.00e+00	0	44	102	1048576	9	3670
2026-01-07 16:32:41.98	290.73	18.89	-24.3	-24.5	16.9	0.00e+00	0	44	102	1048576	9	3673
2026-01-07 16:32:42.70	290.89	18.87	-24.4	-24.7	16.8	0.00e+00	0	44	102	1048576	9	3716
2026-01-07 16:32:43.99	291.19	18.82	-24.4	-24.7	16.8	0.00e+00	0	44	102	1048576	9	3718
2026-01-07 16:32:44.71	291.36	18.80	-24.5	-24.9	16.7	0.00e+00	0	44	102	1048576	9	3773
2026-01-07 16:32:46.01	291.66	18.76	-24.6	-25.0	16.6	0.00e+00	0	44	102	1048576	9	3801
2026-01-07 16:32:46.73	291.82	18.73	-24.7	-25.4	16.4	0.00e+00	0	44	102	1048576	9	3895
2026-01-07 16:32:48.02	292.12	18.69	-24.6	-25.0	16.5	0.00e+00	0	44	102	1048576	9	3792
2026-01-07 16:32:48.74	292.29	18.66	-24.5	-25.0	16.6	0.00e+00	0	44	102	1048576	9	3788
2026-01-07 16:32:50.04	292.58	18.61	-24.5	-24.9	16.7	0.00e+00	0	44	102	1048576	9	3774
2026-01-07 16:32:50.76	292.75	18.59	-24.5	-24.9	16.7	0.00e+00	0	44	102	1048576	9	3772
2026-01-07 16:32:52.05	293.04	18.54	-24.5	-24.9	16.7	0.00e+00	0	44	102	1048576	9	3776
2026-01-07 16:32:52.77	293.20	18.51	-24.6	-25.2	16.6	0.00e+00	0	44	102	1048576	9	3824
2026-01-07 16:32:54.06	293.50	18.46	-24.5	-24.9	16.7	0.00e+00	0	44	102	1048576	9	3777
2026-01-07 16:32:54.79	293.66	18.44	-24.6	-25.0	16.6	0.00e+00	0	44	102	1048576	9	3801
2026-01-07 16:32:56.07	293.95	18.39	-24.5	-24.8	16.8	0.00e+00	0	44	102	1048576	9	3749
2026-01-07 16:32:56.79	294.11	18.36	-24.5	-24.9	16.7	0.00e+00	0	44	102	1048576	9	3762
2026-01-07 16:32:58.09	294.40	18.31	-24.5	-25.0	16.6	0.00e+00	0	44	102	1048576	9	3781
2026-01-07 16:32:58.81	294.56	18.28	-24.6	-25.0	16.6	0.00e+00	0	44	102	1048576	9	3793
2026-01-07 16:33:00.11	294.85	18.23	-24.4	-24.7	16.8	0.00e+00	0	44	102	1048576	9	3710
2026-01-07 16:33:00.83	295.01	18.20	-24.5	-24.9	16.7	0.00e+00	0	44	102	1048576	9	3760
2026-01-07 16:33:02.13	295.30	18.15	-24.5	-24.9	16.7	0.00e+00	0	44	102	1048576	9	3773
2026-01-07 16:33:02.85	295.46	18.12	-24.7	-25.3	16.5	0.00e+00	0	44	102	1048576	9	3852
2026-01-07 16:33:04.14	295.75	18.07	-24.5	-24.9	16.7	1.10e-06	0	44	102	1048576	9	3779
2026-01-07 16:33:04.86	295.91	18.04	-24.5	-24.9	16.7	0.00e+00	0	44	102	1048576	9	3779
2026-01-07 16:33:06.16	296.19	17.98	-24.5	-24.9	16.7	0.00e+00	0	44	102	1048576	9	3759
2026-01-07 16:33:06.88	296.35	17.95	-24.6	-25.0	16.6	0.00e+00	0	44	102	1048576	9	3796
2026-01-07 16:33:08.17	296.63	17.90	-24.5	-24.8	16.7	0.00e+00	0	44	102	1048576	9	3740
2026-01-07 16:33:08.89	296.79	17.87	-24.4	-24.6	16.8	0.00e+00	0	44	102	1048576	9	3706
2026-01-07 16:33:10.19	297.07	17.81	-24.5	-24.9	16.7	0.00e+00	0	44	102	1048576	9	3757
2026-01-07 16:33:10.90	297.22	17.78	-24.6	-25.1	16.6	0.00e+00	0	44	102	1048576	9	3809
2026-01-07 16:33:12.20	297.50	17.72	-24.7	-25.3	16.5	0.00e+00	0	44	102	1048576	9	3852
2026-01-07 16:33:12.92	297.66	17.69	-24.7	-25.4	16.4	0.00e+00	0	44	102	1048576	9	3878
2026-01-07 16:33:14.22	297.94	17.63	-24.7	-25.3	16.4	0.00e+00	0	44	102	1048576	9	3857
2026-01-07 16:33:14.94	298.09	17.60	-24.8	-25.6	16.3	0.00e+00	0	44	102	1048576	9	3923
2026-01-07 16:33:16.23	298.37	17.54	-24.8	-25.5	16.3	0.00e+00	0	44	102	1048576	9	3918
2026-01-07 16:33:16.95	298.52	17.51	-24.9	-25.8	16.2	0.00e+00	0	44	102	1048576	9	3969
2026-01-07 16:33:18.25	298.80	17.45	-24.9	-25.7	16.2	0.00e+00	0	44	102	1048576	9	3947
2026-01-07 16:33:18.97	298.95	17.42	-25.0	-26.0	16.1	0.00e+00	0	44	102	1048576	9	4021
2026-01-07 16:33:20.26	299.22	17.36	-25.0	-26.0	16.1	0.00e+00	0	44	102	1048576	9	4017
2026-01-07 16:33:20.98	299.37	17.33	-25.0	-26.0	16.1	0.00e+00	0	44	102	1048576	9	4025
2026-01-07 16:33:22.27	299.64	17.27	-24.9	-25.8	16.2	0.00e+00	0	44	102	1048576	9	3990
2026-01-07 16:33:22.98	299.79	17.23	-24.9	-25.7	16.2	0.00e+00	0	44	102	1048576	9	3958
2026-01-07 16:33:24.27	300.06	17.17	-24.8	-25.6	16.3	0.00e+00	0	44	102	1048576	9	3944
2026-01-07 16:33:24.99	300.21	17.14	-24.9	-25.7	16.2	0.00e+00	0	44	102	1048576	9	3960
2026-01-07 16:33:26.28	300.48	17.08	-25.0	-25.4	16.1	0.00e+00	0	44	102	1048576	10	3783
2026-01-07 16:33:26.99	300.62	17.04	-24.8	-25.1	16.3	0.00e+00	0	44	102	1048576	10	3705
2026-01-07 16:33:28.29	300.89	16.98	-24.7	-24.9	16.4	0.00e+00	0	44	102	1048576	10	3666
2026-01-07 16:33:29.01	301.04	16.94	-24.8	-25.0	16.4	0.00e+00	0	44	102	1048576	10	3678
2026-01-07 16:33:30.29	301.30	16.88	-24.9	-25.2	16.2	0.00e+00	0	44	102	1048576	10	3747
2026-01-07 16:33:31.01	301.45	16.85	-25.0	-25.4	16.1	0.00e+00	0	44	102	1048576	10	3783
2026-01-07 16:33:32.31	301.71	16.78	-24.9	-25.3	16.2	0.00e+00	0	44	102	1048576	10	3761
2026-01-07 16:33:33.03	301.86	16.75	-24.9	-25.2	16.2	0.00e+00	0	44	102	1048576	10	3729
2026-01-07 16:33:34.32	302.12	16.68	-25.0	-25.4	16.1	0.00e+00	0	44	102	1048576	10	3787
2026-01-07 16:33:35.04	302.26	16.65	-25.0	-25.4	16.1	0.00e+00	0	44	102	1048576	10	3787
2026-01-07 16:33:36.33	302.52	16.58	-25.0	-25.6	16.0	0.00e+00	0	44	102	1048576	10	3820
2026-01-07 16:33:37.05	302.66	16.54	-25.1	-25.6	16.0	0.00e+00	0	44	102	1048576	10	3837
2026-01-07 16:33:38.34	302.92	16.48	-25.1	-25.7	15.9	0.00e+00	0	44	102	1048576	10	3851
2026-01-07 16:33:39.06	303.06	16.44	-25.0	-25.4	16.0	0.00e+00	0	44	102	1048576	10	3782
2026-01-07 16:33:40.36	303.32	16.38	-25.0	-25.5	15.9	0.00e+00	0	44	102	1048576	10	3813
2026-01-07 16:33:41.08	303.46	16.34	-25.1	-25.6	15.9	3.40e-06	0	44	102	1048576	10	3830
2026-01-07 16:33:42.37	303.72	16.27	-25.0	-25.4	16.0	1.10e-06	0	44	102	1048576	10	3789
2026-01-07 16:33:43.09	303.86	16.24	-25.0	-25.5	16.0	0.00e+00	0	44	102	1048576	10	3801
2026-01-07 16:33:44.38	304.11	16.17	-25.0	-25.5	15.9	1.10e-06	0	44	102	1048576	10	3808
2026-01-07 16:33:45.10	304.25	16.13	-25.0	-25.4	16.1	0.00e+00	0	43	102	1048576	10	3783
2026-01-07 16:33:46.40	304.50	16.06	-25.1	-25.6	16.0	0.00e+00	0	44	102	1048576	10	3837
2026-01-07 16:33:47.12	304.64	16.03	-25.1	-25.8	15.9	0.00e+00	0	44	102	1048576	10	3867
2026-01-07 16:33:48.41	304.89	15.96	-25.0	-25.5	16.1	0.00e+00	0	44	102	1048576	10	3803
2026-01-07 16:33:49.13	305.03	15.92	-25.0	-25.5	16.1	0.00e+00	0	44	102	1048576	10	3795
2026-01-07 16:33:50.43	305.27	15.85	-25.0	-25.5	16.1	0.00e+00	0	44	102	1048576	10	3802
2026-01-07 16:33:51.14	305.41	15.81	-24.9	-25.2	16.2	0.00e+00	0	44	102	1048576	10	3742
2026-01-07 16:33:52.44	305.66	15.74	-24.8	-25.1	16.3	0.00e+00	0	44	102	1048576	10	3710
2026-01-07 16:33:53.16	305.79	15.70	-24.8	-25.0	16.3	0.00e+00	0	44	102	1048576	10	3692
2026-01-07 16:33:54.46	306.04	15.63	-24.7	-24.8	16.4	0.00e+00	0	44	102	1048576	10	3647
2026-01-07 16:33:55.18	306.17	15.60	-24.8	-25.1	16.3	0.00e+00	0	44	102	1048576	10	3708
2026-01-07 16:33:56.48	306.42	15.53	-24.9	-25.2	16.2	0.00e+00	0	44	102	1048576	10	3729
2026-01-07 16:33:57.20	306.55	15.49	-24.8	-25.1	16.2	0.00e+00	0	44	102	1048576	10	3710
2026-01-07 16:33:58.50	306.79	15.42	-25.0	-25.5	16.0	0.00e+00	0	44	102	1048576	10	3804
2026-01-07 16:33:59.22	306.93	15.38	-25.1	-25.7	15.9	0.00e+00	0	44	102	1048576	10	3863
2026-01-07 16:34:00.52	307.17	15.31	-25.3	-26.1	15.8	0.00e+00	0	44	102	1048576	10	3940
2026-01-07 16:34:01.24	307.30	15.27	-25.3	-26.1	15.7	0.00e+00	0	44	102	1048576	10	3942
2026-01-07 16:34:02.53	307.53	15.19	-25.4	-26.3	15.6	0.00e+00	0	44	102	1048576	10	4010
2026-01-07 16:34:03.25	307.67	15.16	-25.5	-26.6	15.4	0.00e+00	0	44	102	1048576	10	4067
2026-01-07 16:34:04.54	307.90	15.08	-25.8	-26.7	15.1	0.00e+00	0	44	102	1048576	11	3990
2026-01-07 16:34:05.27	308.03	15.04	-25.7	-26.6	15.2	0.00e+00	0	44	102	1048576	11	3964
2026-01-07 16:34:06.56	308.27	14.97	-25.7	-26.6	15.2	0.00e+00	0	44	102	1048576	11	3960
2026-01-07 16:34:07.28	308.39	14.93	-25.8	-26.8	15.1	0.00e+00	0	44	102	1048576	11	4017
2026-01-07 16:34:08.58	308.63	14.86	-25.8	-26.7	15.1	0.00e+00	0	44	102	1048576	11	3983
2026-01-07 16:34:09.30	308.76	14.82	-25.8	-26.6	15.1	0.00e+00	0	44	102	1048576	11	3979
2026-01-07 16:34:10.59	308.99	14.75	-26.1	-27.3	14.8	0.00e+00	0	44	102	1048576	11	4142
2026-01-07 16:34:11.31	309.11	14.71	-25.9	-26.9	14.9	0.00e+00	0	44	102	1048576	11	4051
2026-01-07 16:34:12.61	309.34	14.63	-25.6	-26.2	15.3	0.00e+00	0	44	102	1048576	11	3882
2026-01-07 16:34:13.33	309.47	14.59	-25.5	-26.1	15.4	0.00e+00	0	44	102	1048576	11	3843
2026-01-07 16:34:14.63	309.70	14.52	-25.5	-26.1	15.4	0.00e+00	0	44	102	1048576	11	3841
2026-01-07 16:34:15.34	309.82	14.48	-25.5	-26.0	15.5	0.00e+00	0	44	102	1048576	11	3823
2026-01-07 16:34:16.64	310.05	14.40	-25.6	-26.3	15.3	0.00e+00	0	44	102	1048576	11	3898
2026-01-07 16:34:17.35	310.17	14.36	-25.5	-26.1	15.4	0.00e+00	0	44	102	1048576	11	3844
2026-01-07 16:34:18.65	310.39	14.29	-25.4	-25.8	15.6	0.00e+00	0	44	102	1048576	11	3782
2026-01-07 16:34:19.37	310.52	14.25	-25.4	-25.9	15.5	0.00e+00	0	44	102	1048576	11	3798
2026-01-07 16:34:20.66	310.74	14.17	-25.4	-25.9	15.5	0.00e+00	0	44	102	1048576	11	3795
2026-01-07 16:34:21.38	310.86	14.13	-25.5	-26.0	15.5	0.00e+00	0	44	102	1048576	11	3816
2026-01-07 16:34:22.67	311.08	14.06	-25.5	-26.1	15.4	0.00e+00	0	44	102	1048576	11	3837
2026-01-07 16:34:23.39	311.20	14.02	-25.5	-26.1	15.4	0.00e+00	0	44	102	1048576	11	3853
2026-01-07 16:34:24.68	311.42	13.94	-25.7	-26.5	15.2	0.00e+00	0	44	102	1048576	11	3942
2026-01-07 16:34:25.41	311.54	13.90	-25.7	-26.6	15.1	0.00e+00	0	44	102	1048576	11	3977
2026-01-07 16:34:26.70	311.76	13.83	-25.8	-26.7	15.0	0.00e+00	0	44	102	1048576	11	4002
2026-01-07 16:34:27.42	311.88	13.78	-25.9	-27.0	14.9	1.10e-06	0	44	102	1048576	11	4062
2026-01-07 16:34:28.71	312.10	13.71	-25.9	-26.9	14.9	1.10e-06	0	44	102	1048576	11	4047
2026-01-07 16:34:29.43	312.21	13.67	-25.9	-26.8	15.0	0.00e+00	0	44	102	1048576	11	4033
2026-01-07 16:34:30.72	312.43	13.59	-25.9	-26.9	14.9	0.00e+00	0	44	102	1048576	11	4053
2026-01-07 16:34:31.45	312.55	13.55	-25.8	-26.8	15.0	0.00e+00	0	44	102	1048576	11	4014
2026-01-07 16:34:32.74	312.76	13.48	-25.9	-27.0	14.9	0.00e+00	0	44	102	1048576	11	4058
2026-01-07 16:34:33.46	312.88	13.43	-25.8	-26.8	15.0	0.00e+00	0	44	102	1048576	11	4028
2026-01-07 16:34:34.75	313.09	13.36	-25.9	-26.8	15.0	1.10e-06	0	44	102	1048576	11	4037
2026-01-07 16:34:35.47	313.20	13.32	-25.8	-26.7	15.0	1.10e-06	0	44	102	1048576	11	3996
2026-01-07 16:34:36.77	313.41	13.24	-25.8	-26.7	15.0	0.00e+00	0	44	102	1048576	11	4004
2026-01-07 16:34:37.49	313.53	13.20	-25.9	-26.9	14.9	0.00e+00	0	44	102	1048576	11	4050
2026-01-07 16:34:38.78	313.73	13.12	-25.7	-26.5	15.2	0.00e+00	0	44	102	1048576	11	3945
2026-01-07 16:34:39.50	313.85	13.08	-25.6	-26.2	15.3	0.00e+00	0	44	102	1048576	11	3875
2026-01-07 16:34:40.79	314.05	13.00	-25.5	-26.2	15.3	0.00e+00	0	44	102	1048576	11	3866
2026-01-07 16:34:41.51	314.17	12.96	-25.6	-26.2	15.3	0.00e+00	0	44	102	1048576	11	3872
2026-01-07 16:34:42.81	314.37	12.89	-25.5	-26.0	15.4	0.00e+00	0	44	102	1048576	11	3816
2026-01-07 16:34:43.52	314.48	12.84	-25.5	-26.0	15.4	0.00e+00	0	44	102	1048576	11	3823
2026-01-07 16:34:44.81	314.68	12.77	-25.5	-26.0	15.4	0.00e+00	0	44	102	1048576	11	3818
2026-01-07 16:34:45.53	314.80	12.72	-25.5	-26.1	15.3	0.00e+00	0	44	102	1048576	11	3846
2026-01-07 16:34:46.82	315.00	12.65	-25.6	-26.3	15.2	1.10e-06	0	44	102	1048576	11	3886
2026-01-07 16:34:47.54	315.11	12.61	-25.7	-26.5	15.1	1.10e-06	0	44	102	1048576	11	3952
2026-01-07 16:34:48.83	315.31	12.53	-25.8	-26.6	15.0	0.00e+00	0	44	102	1048576	11	3972
2026-01-07 16:34:49.55	315.42	12.49	-25.9	-27.0	14.8	0.00e+00	0	44	102	1048576	11	4071
2026-01-07 16:34:50.85	315.61	12.41	-26.0	-27.1	14.8	0.00e+00	0	44	102	1048576	11	4100
2026-01-07 16:34:51.57	315.72	12.37	-26.0	-26.7	14.6	1.10e-06	0	44	102	1048576	12	3905
2026-01-07 16:34:52.86	315.92	12.29	-26.3	-27.4	14.2	3.40e-06	0	44	102	1048576	12	4066
2026-01-07 16:34:53.58	316.03	12.25	-26.2	-27.2	14.4	1.10e-06	0	44	102	1048576	12	4020
2026-01-07 16:34:54.88	316.22	12.17	-26.5	-27.7	14.1	2.20e-06	0	44	102	1048576	12	4150
2026-01-07 16:34:55.60	316.33	12.13	-26.3	-27.3	14.3	0.00e+00	0	44	102	1048576	12	4056
2026-01-07 16:34:56.88	316.52	12.05	-26.3	-27.4	14.3	0.00e+00	0	44	102	1048576	12	4062
2026-01-07 16:34:57.60	316.63	12.01	-26.2	-27.2	14.4	1.10e-06	0	44	102	1048576	12	4021
2026-01-07 16:34:58.89	316.82	11.93	-26.3	-27.2	14.3	1.10e-06	0	44	102	1048576	12	4031
2026-01-07 16:34:59.60	316.92	11.89	-26.4	-27.5	14.2	1.10e-06	0	44	102	1048576	12	4104
2026-01-07 16:35:00.90	317.11	11.81	-26.1	-26.9	14.5	0.00e+00	0	44	102	1048576	12	3946
2026-01-07 16:35:01.62	317.22	11.77	-26.0	-26.6	14.7	1.10e-06	0	44	102	1048576	12	3877
2026-01-07 16:35:02.92	317.41	11.69	-25.9	-26.5	14.8	0.00e+00	0	44	102	1048576	12	3834
2026-01-07 16:35:03.63	317.51	11.65	-26.0	-26.7	14.6	0.00e+00	0	44	102	1048576	12	3900
2026-01-07 16:35:04.93	317.70	11.57	-25.9	-26.4	14.8	1.10e-06	0	44	102	1048576	12	3818
2026-01-07 16:35:05.65	317.80	11.53	-25.7	-26.0	15.0	0.00e+00	0	44	102	1048576	12	3739
2026-01-07 16:35:06.94	317.99	11.45	-25.7	-26.0	15.0	0.00e+00	0	44	102	1048576	12	3737
2026-01-07 16:35:07.66	318.09	11.41	-25.7	-26.1	15.0	0.00e+00	0	44	102	1048576	12	3748
2026-01-07 16:35:08.96	318.27	11.33	-25.9	-26.4	14.8	1.10e-06	0	44	102	1048576	12	3822
2026-01-07 16:35:09.68	318.38	11.29	-25.8	-26.2	14.9	0.00e+00	0	44	102	1048576	12	3769
2026-01-07 16:35:10.98	318.56	11.21	-25.9	-26.5	14.7	1.10e-06	0	44	102	1048576	12	3857
2026-01-07 16:35:11.70	318.66	11.17	-26.0	-26.7	14.6	1.10e-06	0	44	102	1048576	12	3896
2026-01-07 16:35:12.99	318.84	11.09	-26.0	-26.7	14.6	2.20e-06	0	44	102	1048576	12	3901
2026-01-07 16:35:13.71	318.94	11.05	-26.0	-26.7	14.6	1.10e-06	0	44	102	1048576	12	3900
2026-01-07 16:35:15.01	319.12	10.97	-26.2	-27.2	14.3	0.00e+00	0	44	102	1048576	12	4025
2026-01-07 16:35:15.73	319.22	10.93	-26.2	-27.1	14.4	0.00e+00	0	44	102	1048576	12	3990
2026-01-07 16:35:17.02	319.40	10.85	-26.4	-27.5	14.1	0.00e+00	0	44	102	1048576	12	4101
2026-01-07 16:35:17.74	319.50	10.81	-26.4	-27.6	14.1	4.50e-06	0	44	102	1048576	12	4124
2026-01-07 16:35:19.04	319.68	10.73	-26.6	-28.0	13.8	6.80e-06	0	44	102	1048576	12	4233
2026-01-07 16:35:19.76	319.77	10.69	-26.5	-27.9	13.9	2.20e-06	0	44	102	1048576	12	4208
2026-01-07 16:35:21.05	319.95	10.61	-26.8	-27.9	13.6	4.50e-06	0	44	102	1048576	13	4104
2026-01-07 16:35:21.76	320.04	10.57	-26.9	-28.3	13.4	1.14e-05	0	44	102	1048576	13	4204
2026-01-07 16:35:23.06	320.22	10.49	-26.7	-27.9	13.6	8.00e-06	0	44	102	1048576	13	4094
2026-01-07 16:35:23.78	320.32	10.45	-26.7	-27.8	13.6	1.25e-05	0	44	102	1048576	13	4077
2026-01-07 16:35:25.08	320.49	10.37	-26.7	-27.7	13.7	5.70e-06	0	44	102	1048576	13	4048
2026-01-07 16:35:25.80	320.59	10.33	-26.6	-27.7	13.7	9.10e-06	0	44	102	1048576	13	4043
2026-01-07 16:35:27.09	320.76	10.25	-26.8	-27.9	13.6	1.02e-05	0	44	102	1048576	13	4105
2026-01-07 16:35:27.81	320.85	10.21	-26.6	-27.5	13.8	6.80e-06	0	44	102	1048576	13	4000
2026-01-07 16:35:29.11	321.02	10.13	-26.4	-27.1	14.0	8.00e-06	0	44	102	1048576	13	3903
2026-01-07 16:35:29.82	321.11	10.09	-26.4	-27.2	14.0	3.40e-06	0	44	102	1048576	13	3921
2026-01-07 16:35:31.12	321.28	10.01	-26.4	-27.0	14.1	5.70e-06	0	44	102	1048576	13	3883
2026-01-07 16:35:31.84	321.38	9.97	-26.4	-27.1	14.1	3.40e-06	0	44	102	1048576	13	3891
2026-01-07 16:35:33.13	321.54	9.89	-26.4	-27.2	14.0	2.20e-06	0	44	102	1048576	13	3928
2026-01-07 16:35:33.85	321.64	9.85	-26.4	-27.0	14.1	1.10e-06	0	44	102	1048576	13	3881
2026-01-07 16:35:35.15	321.80	9.77	-26.4	-27.1	14.0	2.20e-06	0	44	102	1048576	13	3892
2026-01-07 16:35:35.87	321.90	9.73	-26.5	-27.2	13.9	1.14e-05	0	44	102	1048576	13	3931
2026-01-07 16:35:37.16	322.06	9.65	-26.5	-27.2	14.0	4.50e-06	0	44	102	1048576	13	3931
2026-01-07 16:35:37.88	322.15	9.61	-26.4	-27.1	14.0	2.20e-06	0	44	102	1048576	13	3911
2026-01-07 16:35:39.17	322.31	9.53	-26.5	-27.3	13.9	2.20e-06	0	44	102	1048576	13	3944
2026-01-07 16:35:39.89	322.40	9.49	-26.5	-27.4	13.8	3.40e-06	0	44	102	1048576	13	3971
2026-01-07 16:35:41.19	322.57	9.41	-26.5	-27.3	13.8	6.80e-06	0	44	102	1048576	13	3950
2026-01-07 16:35:41.90	322.66	9.37	-26.6	-27.5	13.7	1.60e-05	0	44	102	1048576	13	4017
2026-01-07 16:35:43.19	322.82	9.30	-26.6	-27.5	13.7	1.37e-05	0	44	102	1048576	13	4016
2026-01-07 16:35:43.91	322.91	9.25	-26.6	-27.6	13.7	6.80e-06	0	44	102	1048576	13	4032
2026-01-07 16:35:45.21	323.07	9.18	-26.6	-27.7	13.6	1.14e-05	0	44	102	1048576	13	4045
2026-01-07 16:35:45.93	323.15	9.13	-26.7	-27.7	13.6	1.14e-05	0	44	102	1048576	13	4072
2026-01-07 16:35:47.22	323.31	9.06	-26.7	-27.8	13.6	1.25e-05	0	44	102	1048576	13	4073
2026-01-07 16:35:47.94	323.40	9.01	-26.7	-27.8	13.6	1.60e-05	0	44	102	1048576	13	4083
2026-01-07 16:35:49.24	323.56	8.94	-26.7	-27.7	13.6	4.50e-06	0	44	102	1048576	13	4064
2026-01-07 16:35:49.96	323.64	8.90	-26.6	-27.6	13.7	1.14e-05	0	44	102	1048576	13	4035
2026-01-07 16:35:51.25	323.80	8.82	-26.6	-27.6	13.7	1.25e-05	0	44	102	1048576	13	4027
2026-01-07 16:35:51.97	323.89	8.78	-26.7	-27.7	13.6	3.40e-06	0	44	102	1048576	13	4066
2026-01-07 16:35:53.27	324.04	8.70	-26.8	-28.0	13.5	1.60e-05	0	44	102	1048576	13	4126
2026-01-07 16:35:53.99	324.13	8.66	-26.8	-28.1	13.4	2.28e-05	0	44	102	1048576	13	4154
2026-01-07 16:35:55.29	324.28	8.58	-26.8	-28.0	13.4	1.37e-05	0	44	102	1048576	13	4135
2026-01-07 16:35:56.01	324.37	8.54	-26.8	-28.1	13.4	2.63e-05	0	44	102	1048576	13	4151
2026-01-07 16:35:57.30	324.52	8.46	-26.8	-28.0	13.4	1.94e-05	0	44	102	1048576	13	4138
2026-01-07 16:35:58.02	324.60	8.42	-26.8	-28.0	13.4	3.08e-05	0	44	102	1048576	13	4128
2026-01-07 16:35:59.32	324.75	8.34	-27.0	-28.5	13.1	2.97e-05	0	44	102	1048576	13	4270
2026-01-07 16:36:00.04	324.84	8.30	-27.1	-28.1	13.0	3.77e-05	0	44	102	1048576	14	4069
2026-01-07 16:36:01.33	324.99	8.23	-27.0	-28.0	13.1	4.00e-05	0	44	102	1048576	14	4038
2026-01-07 16:36:02.05	325.07	8.18	-26.9	-27.7	13.3	2.97e-05	0	44	102	1048576	14	3960
2026-01-07 16:36:03.34	325.22	8.11	-27.0	-28.1	13.1	2.51e-05	0	44	102	1048576	14	4055
2026-01-07 16:36:04.06	325.30	8.07	-27.0	-28.0	13.1	3.31e-05	0	44	102	1048576	14	4041
2026-01-07 16:36:05.36	325.45	7.99	-27.1	-28.2	13.0	4.57e-05	0	44	102	1048576	14	4092
2026-01-07 16:36:06.08	325.53	7.95	-27.0	-27.9	13.1	4.34e-05	0	44	102	1048576	14	4017
2026-01-07 16:36:07.38	325.68	7.87	-26.9	-27.8	13.2	1.94e-05	0	44	102	1048576	14	3998
2026-01-07 16:36:08.10	325.76	7.83	-26.9	-27.7	13.3	3.66e-05	0	44	102	1048576	14	3949
2026-01-07 16:36:09.39	325.90	7.76	-27.0	-27.9	13.2	3.08e-05	0	44	102	1048576	14	4005
2026-01-07 16:36:10.11	325.98	7.71	-26.9	-27.9	13.1	2.97e-05	0	44	102	1048576	14	4012
2026-01-07 16:36:11.40	326.13	7.64	-27.1	-28.1	13.0	3.89e-05	0	44	102	1048576	14	4071
2026-01-07 16:36:12.12	326.21	7.60	-27.2	-28.4	12.8	6.40e-05	0	44	102	1048576	14	4139
2026-01-07 16:36:13.41	326.35	7.52	-27.0	-28.1	13.0	4.57e-05	0	44	102	1048576	14	4063
2026-01-07 16:36:14.14	326.43	7.48	-27.1	-28.2	12.9	5.49e-05	0	44	102	1048576	14	4080
2026-01-07 16:36:15.43	326.57	7.40	-27.1	-28.2	12.9	5.60e-05	0	44	102	1048576	14	4090
2026-01-07 16:36:16.15	326.65	7.36	-27.1	-28.2	12.9	6.17e-05	0	44	102	1048576	14	4085
2026-01-07 16:36:17.44	326.79	7.29	-27.3	-28.6	12.7	9.04e-05	0	44	102	1048576	14	4208
2026-01-07 16:36:18.16	326.87	7.25	-27.1	-28.1	12.9	6.98e-05	0	44	102	1048576	14	4072
2026-01-07 16:36:19.46	327.01	7.17	-26.9	-27.8	13.2	5.37e-05	0	44	102	1048576	14	3978
2026-01-07 16:36:20.17	327.09	7.13	-27.1	-28.1	13.0	4.00e-05	0	44	102	1048576	14	4067
2026-01-07 16:36:21.47	327.23	7.05	-32.9	-42.4	3.8	4.90e-01	0	44	104	1048576	25	10688
2026-01-07 16:36:22.19	327.30	7.01	-33.2	-42.7	3.8	8.46e-01	0	44	104	1048576	26	10803

#Closed at: 2026-01-07 16:36:23
#Recorded file [1 MB]: D:/data/31010_260107_192653.dat