passes_logs/2026/01/07/R2M6_AANII_01/R2M6_AANII_01__20260107_094103_FENGYUN_3D_rec.log

#Pass ID: 20260107_094103_FENGYUN 3D
#Satellite: FENGYUN 3D
#Configuration: FENGYUN 3D
#almurnet v.1.7.20240730
#Start time: 2026-01-07 09:41:04

#Version: 2.2.20231116
#Station: R2M6_AANII_01
#Location: 30.233357 lon 59.946436 lat
#TLE: 1 43010U 17072A   26006.26440730  .00000376  00000+0  19957-3 0  9994
#TLE: 2 43010  98.9925 337.9455 0002045 123.9195 236.2175 14.19693586422016

#Time	Az	El	Level	Level2	SNR	BER	BlckErr	Temp	State	Recorded	gain1	gain2
2026-01-07 09:41:04.43	77.26	7.06	-31.1	-35.6	4.7	8.08e-01	0	41	0	0	23	6031
2026-01-07 09:41:05.43	77.14	7.11	-30.2	-33.6	5.2	7.78e-01	0	41	104	0	21	5325
2026-01-07 09:41:06.44	77.02	7.16	-30.2	-33.5	8.7	4.16e-02	0	41	0	0	21	5253
2026-01-07 09:41:07.45	76.89	7.22	-30.1	-33.3	8.8	3.60e-02	0	41	102	1048576	21	5192
2026-01-07 09:41:08.45	76.77	7.27	-30.2	-33.4	8.8	3.92e-02	0	41	102	1048576	21	5210
2026-01-07 09:41:09.46	76.65	7.32	-30.2	-33.5	8.7	4.19e-02	0	41	102	1048576	21	5256
2026-01-07 09:41:10.46	76.53	7.38	-29.9	-32.6	9.3	3.43e-02	0	41	102	1048576	21	4933
2026-01-07 09:41:11.47	76.41	7.43	-29.5	-32.0	10.1	1.15e-02	0	41	102	1048576	20	4804
2026-01-07 09:41:12.48	76.28	7.48	-29.2	-31.5	10.8	4.58e-03	0	41	102	1048576	19	4738
2026-01-07 09:41:13.47	76.16	7.53	-28.7	-30.7	11.6	1.02e-03	0	41	102	1048576	18	4578
2026-01-07 09:41:14.48	76.04	7.59	-28.2	-30.1	12.3	4.37e-04	0	41	102	1048576	17	4500
2026-01-07 09:41:15.49	75.91	7.64	-27.9	-29.3	12.8	1.30e-04	0	41	102	1048576	17	4258
2026-01-07 09:41:16.50	75.79	7.69	-27.6	-29.3	13.2	6.29e-05	0	41	102	1048576	16	4352
2026-01-07 09:41:17.51	75.66	7.75	-27.6	-29.2	13.2	3.08e-05	0	42	102	1048576	16	4325
2026-01-07 09:41:18.52	75.53	7.80	-27.8	-29.6	13.0	5.95e-05	0	41	102	1048576	16	4439
2026-01-07 09:41:19.52	75.41	7.85	-27.7	-29.5	13.1	5.60e-05	0	41	102	1048576	16	4394
2026-01-07 09:41:20.53	75.28	7.90	-27.7	-29.4	13.2	5.72e-05	0	41	102	1048576	16	4365
2026-01-07 09:41:21.54	75.15	7.96	-27.6	-29.2	13.3	4.11e-05	0	41	102	1048576	16	4328
2026-01-07 09:41:22.54	75.03	8.01	-27.5	-29.0	13.4	1.60e-05	0	42	102	1048576	16	4270
2026-01-07 09:41:23.55	74.90	8.06	-27.5	-29.0	13.4	2.17e-05	0	42	102	1048576	16	4255
2026-01-07 09:41:24.56	74.77	8.12	-27.5	-28.9	13.5	1.94e-05	0	42	102	1048576	16	4229
2026-01-07 09:41:25.57	74.64	8.17	-27.5	-28.9	13.5	2.05e-05	0	42	102	1048576	16	4232
2026-01-07 09:41:26.58	74.51	8.22	-27.6	-29.2	13.3	1.71e-05	0	42	102	1048576	16	4316
2026-01-07 09:41:27.58	74.38	8.27	-27.6	-29.1	13.4	3.08e-05	0	42	102	1048576	16	4295
2026-01-07 09:41:28.58	74.25	8.33	-27.4	-28.6	13.7	5.70e-06	0	42	102	1048576	16	4145
2026-01-07 09:41:29.59	74.12	8.38	-27.0	-28.3	14.0	1.10e-06	0	42	102	1048576	15	4191
2026-01-07 09:41:30.60	73.99	8.43	-27.0	-28.4	14.0	4.50e-06	0	42	102	1048576	15	4201
2026-01-07 09:41:31.60	73.85	8.48	-27.1	-28.6	13.8	6.80e-06	0	42	102	1048576	15	4251
2026-01-07 09:41:32.61	73.72	8.54	-27.1	-28.6	13.9	1.14e-05	0	42	102	1048576	15	4251
2026-01-07 09:41:33.61	73.59	8.59	-27.1	-28.5	13.9	1.02e-05	0	42	102	1048576	15	4237
2026-01-07 09:41:34.61	73.46	8.64	-27.1	-28.5	13.9	6.80e-06	0	42	102	1048576	15	4239
2026-01-07 09:41:35.62	73.32	8.69	-27.1	-28.6	13.9	8.00e-06	0	42	102	1048576	15	4266
2026-01-07 09:41:36.62	73.19	8.74	-27.1	-28.6	13.9	4.50e-06	0	42	102	1048576	15	4253
2026-01-07 09:41:37.63	73.05	8.80	-27.2	-28.6	13.9	4.50e-06	0	42	102	1048576	15	4261
2026-01-07 09:41:38.64	72.92	8.85	-27.2	-28.7	13.8	6.80e-06	0	42	102	1048576	15	4277
2026-01-07 09:41:39.65	72.78	8.90	-27.2	-28.7	13.8	1.02e-05	0	42	102	1048576	15	4289
2026-01-07 09:41:40.65	72.64	8.95	-27.1	-28.6	13.9	1.25e-05	0	42	102	1048576	15	4261
2026-01-07 09:41:41.66	72.51	9.00	-27.1	-28.4	14.0	5.70e-06	0	42	102	1048576	15	4200
2026-01-07 09:41:42.66	72.37	9.06	-27.0	-28.3	14.1	9.10e-06	0	42	102	1048576	15	4181
2026-01-07 09:41:43.67	72.23	9.11	-27.0	-28.2	14.2	4.50e-06	0	42	102	1048576	15	4151
2026-01-07 09:41:44.68	72.09	9.16	-26.9	-28.0	14.3	3.40e-06	0	42	102	1048576	15	4084
2026-01-07 09:41:45.69	71.95	9.21	-26.9	-28.1	14.2	4.50e-06	0	42	102	1048576	15	4130
2026-01-07 09:41:46.69	71.81	9.26	-26.9	-28.1	14.2	0.00e+00	0	42	102	1048576	15	4115
2026-01-07 09:41:47.70	71.67	9.32	-26.8	-27.8	14.4	1.10e-06	0	42	102	1048576	15	4052
2026-01-07 09:41:48.70	71.53	9.37	-26.8	-28.4	14.4	1.10e-06	0	42	102	1048576	14	4298
2026-01-07 09:41:49.70	71.39	9.42	-26.8	-28.2	14.4	1.10e-06	0	42	102	1048576	14	4262
2026-01-07 09:41:50.70	71.25	9.47	-26.9	-28.5	14.3	2.20e-06	0	42	102	1048576	14	4326
2026-01-07 09:41:51.71	71.11	9.52	-26.8	-28.3	14.4	0.00e+00	0	42	102	1048576	14	4285
2026-01-07 09:41:52.72	70.97	9.57	-26.7	-28.1	14.5	1.10e-06	0	42	102	1048576	14	4216
2026-01-07 09:41:53.72	70.83	9.62	-26.7	-28.0	14.6	1.10e-06	0	42	102	1048576	14	4209
2026-01-07 09:41:54.73	70.68	9.67	-26.7	-28.0	14.6	1.10e-06	0	42	102	1048576	14	4188
2026-01-07 09:41:55.74	70.54	9.73	-26.6	-27.8	14.7	1.10e-06	0	42	102	1048576	14	4146
2026-01-07 09:41:56.74	70.39	9.78	-26.6	-27.9	14.7	1.10e-06	0	42	102	1048576	14	4162
2026-01-07 09:41:57.75	70.25	9.83	-26.5	-27.7	14.8	0.00e+00	0	42	102	1048576	14	4114
2026-01-07 09:41:58.75	70.10	9.88	-26.4	-27.4	15.0	0.00e+00	0	42	102	1048576	14	4033
2026-01-07 09:41:59.76	69.96	9.93	-26.4	-27.5	14.9	0.00e+00	0	42	102	1048576	14	4056
2026-01-07 09:42:00.76	69.81	9.98	-26.4	-27.3	15.0	0.00e+00	0	42	102	1048576	14	4025
2026-01-07 09:42:01.77	69.66	10.03	-26.4	-27.4	14.9	0.00e+00	0	42	102	1048576	14	4048
2026-01-07 09:42:02.77	69.52	10.08	-26.5	-27.5	14.9	0.00e+00	0	42	102	1048576	14	4077
2026-01-07 09:42:03.77	69.37	10.13	-26.5	-27.6	14.9	0.00e+00	0	42	102	1048576	14	4085
2026-01-07 09:42:04.77	69.22	10.18	-26.6	-27.8	14.8	0.00e+00	0	43	102	1048576	14	4137
2026-01-07 09:42:05.78	69.07	10.23	-26.5	-27.5	14.9	0.00e+00	0	42	102	1048576	14	4072
2026-01-07 09:42:06.79	68.92	10.28	-26.5	-27.6	14.9	0.00e+00	0	43	102	1048576	14	4077
2026-01-07 09:42:07.80	68.77	10.33	-26.4	-27.4	15.0	0.00e+00	0	43	102	1048576	14	4037
2026-01-07 09:42:08.81	68.62	10.38	-26.5	-27.6	14.9	0.00e+00	0	42	102	1048576	14	4086
2026-01-07 09:42:09.82	68.47	10.43	-26.4	-27.5	15.0	0.00e+00	0	43	102	1048576	14	4051
2026-01-07 09:42:10.82	68.31	10.48	-26.5	-27.5	14.9	0.00e+00	0	43	102	1048576	14	4073
2026-01-07 09:42:11.83	68.16	10.53	-26.5	-27.5	15.0	0.00e+00	0	43	102	1048576	14	4071
2026-01-07 09:42:12.84	68.01	10.58	-26.5	-27.6	14.9	2.20e-06	0	42	102	1048576	14	4086
2026-01-07 09:42:13.84	67.86	10.63	-26.3	-27.3	15.1	1.10e-06	0	42	102	1048576	14	4008
2026-01-07 09:42:14.85	67.70	10.68	-26.4	-27.5	15.0	0.00e+00	0	43	102	1048576	14	4054
2026-01-07 09:42:15.86	67.55	10.73	-26.4	-27.5	15.0	0.00e+00	0	43	102	1048576	14	4056
2026-01-07 09:42:16.86	67.39	10.78	-26.5	-27.6	14.9	1.10e-06	0	43	102	1048576	14	4102
2026-01-07 09:42:17.85	67.24	10.83	-26.5	-27.5	14.9	1.10e-06	0	43	102	1048576	14	4075
2026-01-07 09:42:18.86	67.08	10.88	-26.5	-27.5	15.0	0.00e+00	0	42	102	1048576	14	4072
2026-01-07 09:42:19.87	66.93	10.93	-26.6	-27.8	14.8	0.00e+00	0	43	102	1048576	14	4139
2026-01-07 09:42:20.88	66.77	10.98	-26.4	-27.4	15.0	0.00e+00	0	43	102	1048576	14	4032
2026-01-07 09:42:21.88	66.61	11.03	-26.4	-27.4	15.1	0.00e+00	0	43	102	1048576	14	4037
2026-01-07 09:42:22.89	66.45	11.08	-26.4	-27.5	15.0	0.00e+00	0	43	102	1048576	14	4050
2026-01-07 09:42:23.89	66.29	11.12	-26.6	-27.7	14.9	1.10e-06	0	43	102	1048576	14	4117
2026-01-07 09:42:24.90	66.13	11.17	-26.5	-27.5	15.0	0.00e+00	0	43	102	1048576	14	4072
2026-01-07 09:42:25.91	65.97	11.22	-26.4	-27.4	15.1	1.10e-06	0	43	102	1048576	14	4030
2026-01-07 09:42:26.91	65.81	11.27	-26.5	-27.5	15.0	0.00e+00	0	43	102	1048576	14	4071
2026-01-07 09:42:27.91	65.65	11.32	-26.4	-27.3	15.1	0.00e+00	0	43	102	1048576	14	3996
2026-01-07 09:42:28.92	65.49	11.36	-26.3	-27.1	15.2	0.00e+00	0	43	102	1048576	14	3945
2026-01-07 09:42:29.92	65.33	11.41	-26.2	-27.5	15.3	0.00e+00	0	42	102	1048576	13	4156
2026-01-07 09:42:30.92	65.17	11.46	-26.3	-27.6	15.2	0.00e+00	0	43	102	1048576	13	4185
2026-01-07 09:42:31.93	65.01	11.51	-26.2	-27.5	15.3	0.00e+00	0	43	102	1048576	13	4159
2026-01-07 09:42:32.94	64.84	11.56	-26.2	-27.4	15.3	0.00e+00	0	43	102	1048576	13	4132
2026-01-07 09:42:33.95	64.68	11.60	-26.1	-27.2	15.6	0.00e+00	0	43	102	1048576	13	4076
2026-01-07 09:42:34.96	64.51	11.65	-26.0	-27.0	15.7	0.00e+00	0	43	102	1048576	13	4018
2026-01-07 09:42:35.96	64.35	11.70	-26.2	-27.3	15.5	0.00e+00	0	43	102	1048576	13	4088
2026-01-07 09:42:36.97	64.18	11.74	-26.2	-27.4	15.5	0.00e+00	0	43	102	1048576	13	4116
2026-01-07 09:42:37.97	64.02	11.79	-26.4	-27.7	15.3	0.00e+00	0	43	102	1048576	13	4211
2026-01-07 09:42:38.98	63.85	11.84	-26.4	-27.8	15.2	0.00e+00	0	43	102	1048576	13	4228
2026-01-07 09:42:39.99	63.68	11.88	-26.4	-27.9	15.2	0.00e+00	0	43	102	1048576	13	4246
2026-01-07 09:42:40.99	63.51	11.93	-26.4	-27.8	15.2	0.00e+00	0	43	102	1048576	13	4239
2026-01-07 09:42:42.00	63.35	11.98	-26.3	-27.6	15.3	0.00e+00	0	43	102	1048576	13	4172
2026-01-07 09:42:43.01	63.18	12.02	-26.3	-27.6	15.4	0.00e+00	0	43	102	1048576	13	4166
2026-01-07 09:42:44.01	63.01	12.07	-26.3	-27.6	15.4	0.00e+00	0	43	102	1048576	13	4166
2026-01-07 09:42:45.02	62.84	12.11	-26.3	-27.7	15.3	0.00e+00	0	43	102	1048576	13	4190
2026-01-07 09:42:46.03	62.67	12.16	-26.4	-27.8	15.2	0.00e+00	0	43	102	1048576	13	4236
2026-01-07 09:42:47.03	62.50	12.20	-26.3	-27.4	15.5	0.00e+00	0	43	102	1048576	13	4131
2026-01-07 09:42:48.04	62.32	12.25	-26.3	-27.6	15.3	0.00e+00	0	43	102	1048576	13	4179
2026-01-07 09:42:49.04	62.15	12.29	-26.1	-27.0	15.7	0.00e+00	0	43	102	1048576	13	4020
2026-01-07 09:42:50.05	61.98	12.34	-26.0	-26.8	15.8	0.00e+00	0	43	102	1048576	13	3967
2026-01-07 09:42:51.06	61.81	12.38	-26.0	-26.9	15.8	0.00e+00	0	43	102	1048576	13	3999
2026-01-07 09:42:52.07	61.63	12.43	-26.1	-27.1	15.7	0.00e+00	0	43	102	1048576	13	4039
2026-01-07 09:42:53.07	61.46	12.47	-26.2	-27.4	15.5	0.00e+00	0	43	102	1048576	13	4124
2026-01-07 09:42:54.08	61.28	12.52	-26.4	-27.8	15.3	0.00e+00	0	43	102	1048576	13	4231
2026-01-07 09:42:55.08	61.11	12.56	-26.3	-27.5	15.5	0.00e+00	0	43	102	1048576	13	4133
2026-01-07 09:42:56.09	60.93	12.61	-26.2	-27.2	15.6	0.00e+00	0	43	102	1048576	13	4082
2026-01-07 09:42:57.10	60.75	12.65	-26.1	-27.2	15.6	0.00e+00	0	43	102	1048576	13	4058
2026-01-07 09:42:58.11	60.58	12.69	-26.2	-27.3	15.6	0.00e+00	0	43	102	1048576	13	4094
2026-01-07 09:42:59.11	60.40	12.74	-26.1	-27.1	15.7	0.00e+00	0	43	102	1048576	13	4056
2026-01-07 09:43:00.12	60.22	12.78	-26.0	-27.0	15.7	1.10e-06	0	43	102	1048576	13	4015
2026-01-07 09:43:01.13	60.04	12.82	-26.2	-27.2	15.6	0.00e+00	0	43	102	1048576	13	4078
2026-01-07 09:43:02.13	59.86	12.86	-26.0	-26.9	15.8	0.00e+00	0	43	102	1048576	13	3987
2026-01-07 09:43:03.14	59.68	12.91	-26.0	-26.9	15.8	0.00e+00	0	43	102	1048576	13	3987
2026-01-07 09:43:04.15	59.50	12.95	-26.0	-26.9	15.8	0.00e+00	0	43	102	1048576	13	3987
2026-01-07 09:43:05.16	59.32	12.99	-25.8	-26.5	16.0	0.00e+00	0	43	102	1048576	13	3895
2026-01-07 09:43:06.17	59.14	13.03	-25.8	-26.5	16.1	0.00e+00	0	43	102	1048576	13	3884
2026-01-07 09:43:07.18	58.96	13.07	-25.9	-26.7	16.0	0.00e+00	0	43	102	1048576	13	3934
2026-01-07 09:43:08.19	58.78	13.12	-25.9	-26.6	16.0	0.00e+00	0	43	102	1048576	13	3909
2026-01-07 09:43:09.20	58.59	13.16	-26.0	-26.9	15.9	0.00e+00	0	43	102	1048576	13	3982
2026-01-07 09:43:10.20	58.41	13.20	-25.9	-26.7	15.9	0.00e+00	0	43	102	1048576	13	3950
2026-01-07 09:43:11.21	58.23	13.24	-25.9	-26.7	15.9	0.00e+00	0	43	102	1048576	13	3947
2026-01-07 09:43:12.22	58.04	13.28	-26.1	-27.0	15.8	0.00e+00	0	43	102	1048576	13	4031
2026-01-07 09:43:13.23	57.86	13.32	-26.1	-27.1	15.7	0.00e+00	0	43	102	1048576	13	4045
2026-01-07 09:43:14.23	57.67	13.36	-25.9	-26.6	16.0	0.00e+00	0	43	102	1048576	13	3909
2026-01-07 09:43:15.24	57.49	13.40	-25.7	-26.8	16.2	0.00e+00	0	43	102	1048576	12	4072
2026-01-07 09:43:16.25	57.30	13.44	-25.7	-26.8	16.2	0.00e+00	0	43	102	1048576	12	4068
2026-01-07 09:43:17.26	57.11	13.48	-25.6	-26.6	16.3	0.00e+00	0	43	102	1048576	12	4013
2026-01-07 09:43:18.26	56.93	13.52	-25.7	-26.7	16.2	0.00e+00	0	43	102	1048576	12	4044
2026-01-07 09:43:19.26	56.74	13.56	-25.7	-26.8	16.2	0.00e+00	0	43	102	1048576	12	4065
2026-01-07 09:43:20.27	56.55	13.59	-25.9	-27.1	16.0	0.00e+00	0	43	102	1048576	12	4132
2026-01-07 09:43:21.28	56.36	13.63	-25.8	-26.9	16.1	0.00e+00	0	43	102	1048576	12	4090
2026-01-07 09:43:22.29	56.17	13.67	-25.7	-26.6	16.3	0.00e+00	0	43	102	1048576	12	4025
2026-01-07 09:43:23.29	55.98	13.71	-25.6	-26.6	16.3	0.00e+00	0	43	102	1048576	12	4021
2026-01-07 09:43:24.30	55.79	13.75	-25.6	-26.6	16.3	0.00e+00	0	43	102	1048576	12	4007
2026-01-07 09:43:25.30	55.60	13.78	-25.5	-26.4	16.4	0.00e+00	0	43	102	1048576	12	3963
2026-01-07 09:43:26.31	55.41	13.82	-25.6	-26.4	16.4	0.00e+00	0	43	102	1048576	12	3965
2026-01-07 09:43:27.32	55.22	13.86	-25.6	-26.4	16.4	0.00e+00	0	43	102	1048576	12	3957
2026-01-07 09:43:28.33	55.02	13.89	-25.4	-26.1	16.6	0.00e+00	0	43	102	1048576	12	3882
2026-01-07 09:43:29.33	54.83	13.93	-25.4	-26.0	16.7	0.00e+00	0	43	102	1048576	12	3864
2026-01-07 09:43:30.33	54.64	13.97	-25.5	-26.2	16.5	0.00e+00	0	43	102	1048576	12	3915
2026-01-07 09:43:31.33	54.45	14.00	-25.5	-26.3	16.5	0.00e+00	0	43	102	1048576	12	3952
2026-01-07 09:43:32.34	54.25	14.04	-25.6	-26.4	16.4	0.00e+00	0	43	102	1048576	12	3975
2026-01-07 09:43:33.35	54.06	14.07	-25.6	-26.4	16.5	0.00e+00	0	43	102	1048576	12	3959
2026-01-07 09:43:34.36	53.86	14.11	-25.5	-26.3	16.5	0.00e+00	0	43	102	1048576	12	3937
2026-01-07 09:43:35.36	53.67	14.14	-25.5	-26.2	16.5	0.00e+00	0	43	102	1048576	12	3916
2026-01-07 09:43:36.36	53.48	14.18	-25.4	-25.9	16.7	0.00e+00	0	43	102	1048576	12	3849
2026-01-07 09:43:37.37	53.28	14.21	-25.3	-25.9	16.7	0.00e+00	0	43	102	1048576	12	3856
2026-01-07 09:43:38.38	53.08	14.24	-25.4	-26.1	16.6	0.00e+00	0	43	102	1048576	12	3897
2026-01-07 09:43:39.38	52.88	14.28	-25.3	-25.9	16.7	0.00e+00	0	43	102	1048576	12	3855
2026-01-07 09:43:40.39	52.69	14.31	-25.4	-26.0	16.7	0.00e+00	0	43	102	1048576	12	3879
2026-01-07 09:43:41.39	52.49	14.34	-25.4	-26.0	16.7	0.00e+00	0	43	102	1048576	12	3872
2026-01-07 09:43:42.40	52.29	14.38	-25.4	-26.1	16.6	0.00e+00	0	43	102	1048576	12	3897
2026-01-07 09:43:43.41	52.09	14.41	-25.5	-26.2	16.6	0.00e+00	0	43	102	1048576	12	3917
2026-01-07 09:43:44.41	51.89	14.44	-25.5	-26.3	16.5	0.00e+00	0	43	102	1048576	12	3938
2026-01-07 09:43:45.42	51.69	14.47	-25.5	-26.3	16.5	0.00e+00	0	43	102	1048576	12	3951
2026-01-07 09:43:46.43	51.49	14.50	-25.5	-26.3	16.5	0.00e+00	0	43	102	1048576	12	3947
2026-01-07 09:43:47.44	51.29	14.54	-25.4	-26.1	16.6	0.00e+00	0	43	102	1048576	12	3898
2026-01-07 09:43:48.44	51.09	14.57	-25.4	-26.0	16.6	0.00e+00	0	43	102	1048576	12	3876
2026-01-07 09:43:49.45	50.89	14.60	-25.4	-26.0	16.6	0.00e+00	0	43	102	1048576	12	3878
2026-01-07 09:43:50.46	50.68	14.63	-25.3	-25.9	16.7	0.00e+00	0	43	102	1048576	12	3841
2026-01-07 09:43:51.46	50.48	14.66	-25.4	-26.1	16.7	0.00e+00	0	43	102	1048576	12	3883
2026-01-07 09:43:52.46	50.28	14.69	-25.4	-26.0	16.7	0.00e+00	0	43	102	1048576	12	3867
2026-01-07 09:43:53.47	50.08	14.71	-25.3	-25.8	16.8	0.00e+00	0	43	102	1048576	12	3818
2026-01-07 09:43:54.48	49.87	14.74	-25.3	-25.9	16.7	0.00e+00	0	43	102	1048576	12	3853
2026-01-07 09:43:55.48	49.67	14.77	-25.3	-25.9	16.7	0.00e+00	0	43	102	1048576	12	3838
2026-01-07 09:43:56.49	49.47	14.80	-25.3	-26.4	16.8	0.00e+00	0	43	102	1048576	11	4065
2026-01-07 09:43:57.50	49.26	14.83	-25.4	-26.5	16.8	0.00e+00	0	43	102	1048576	11	4083
2026-01-07 09:43:58.50	49.06	14.86	-25.3	-26.3	16.9	0.00e+00	0	43	102	1048576	11	4045
2026-01-07 09:43:59.51	48.85	14.88	-25.3	-26.4	16.8	0.00e+00	0	43	102	1048576	11	4076
2026-01-07 09:44:00.52	48.64	14.91	-25.5	-26.7	16.6	0.00e+00	0	43	102	1048576	11	4147
2026-01-07 09:44:01.53	48.44	14.94	-25.5	-26.7	16.6	0.00e+00	0	43	102	1048576	11	4149
2026-01-07 09:44:02.53	48.23	14.96	-25.5	-26.7	16.6	0.00e+00	0	43	102	1048576	11	4150
2026-01-07 09:44:03.54	48.02	14.99	-25.5	-26.8	16.6	0.00e+00	0	43	102	1048576	11	4167
2026-01-07 09:44:04.54	47.82	15.01	-25.4	-26.4	16.8	0.00e+00	0	43	102	1048576	11	4077
2026-01-07 09:44:05.55	47.61	15.04	-25.3	-26.3	16.9	0.00e+00	0	43	102	1048576	11	4042
2026-01-07 09:44:06.56	47.40	15.06	-25.3	-26.3	16.9	0.00e+00	0	43	102	1048576	11	4034
2026-01-07 09:44:07.56	47.19	15.09	-25.3	-26.3	16.8	0.00e+00	0	43	102	1048576	11	4047
2026-01-07 09:44:08.57	46.98	15.11	-25.6	-26.9	16.5	0.00e+00	0	43	102	1048576	11	4189
2026-01-07 09:44:09.58	46.77	15.14	-25.6	-26.9	16.5	0.00e+00	0	43	102	1048576	11	4196
2026-01-07 09:44:10.58	46.57	15.16	-25.3	-26.2	16.9	0.00e+00	0	43	102	1048576	11	4028
2026-01-07 09:44:11.59	46.36	15.18	-25.1	-25.8	17.1	0.00e+00	0	43	102	1048576	11	3930
2026-01-07 09:44:12.60	46.15	15.20	-25.1	-25.9	17.1	0.00e+00	0	43	102	1048576	11	3936
2026-01-07 09:44:13.60	45.94	15.23	-25.1	-26.0	17.0	0.00e+00	0	43	102	1048576	11	3971
2026-01-07 09:44:14.60	45.73	15.25	-25.3	-26.3	16.8	0.00e+00	0	43	102	1048576	11	4036
2026-01-07 09:44:15.61	45.52	15.27	-25.4	-26.5	16.7	0.00e+00	0	43	102	1048576	11	4101
2026-01-07 09:44:16.62	45.30	15.29	-25.4	-26.7	16.7	0.00e+00	0	43	102	1048576	11	4138
2026-01-07 09:44:17.63	45.09	15.31	-25.5	-26.7	16.6	0.00e+00	0	43	102	1048576	11	4143
2026-01-07 09:44:18.64	44.88	15.33	-25.4	-26.5	16.7	0.00e+00	0	43	102	1048576	11	4103
2026-01-07 09:44:19.64	44.67	15.35	-25.3	-26.3	16.9	0.00e+00	0	43	102	1048576	11	4040
2026-01-07 09:44:20.64	44.46	15.37	-25.4	-26.5	16.8	0.00e+00	0	43	102	1048576	11	4086
2026-01-07 09:44:21.65	44.24	15.39	-25.2	-26.1	16.9	0.00e+00	0	43	102	1048576	11	3990
2026-01-07 09:44:22.66	44.03	15.41	-25.0	-25.8	17.1	0.00e+00	0	43	102	1048576	11	3913
2026-01-07 09:44:23.66	43.82	15.43	-25.2	-26.1	17.0	0.00e+00	0	43	102	1048576	11	3989
2026-01-07 09:44:24.67	43.60	15.45	-25.2	-26.1	16.9	0.00e+00	0	43	102	1048576	11	4001
2026-01-07 09:44:25.67	43.39	15.46	-25.1	-25.8	17.1	0.00e+00	0	43	102	1048576	11	3933
2026-01-07 09:44:26.68	43.18	15.48	-25.1	-25.8	17.1	0.00e+00	0	43	102	1048576	11	3933
2026-01-07 09:44:27.69	42.96	15.50	-25.0	-25.7	17.2	0.00e+00	0	43	102	1048576	11	3905
2026-01-07 09:44:28.70	42.75	15.51	-24.8	-25.3	17.4	0.00e+00	0	43	102	1048576	11	3803
2026-01-07 09:44:29.70	42.53	15.53	-24.8	-25.3	17.4	0.00e+00	0	43	102	1048576	11	3801
2026-01-07 09:44:30.71	42.32	15.55	-24.9	-25.5	17.3	0.00e+00	0	43	102	1048576	11	3857
2026-01-07 09:44:31.72	42.10	15.56	-25.0	-25.6	17.2	0.00e+00	0	43	102	1048576	11	3872
2026-01-07 09:44:32.72	41.89	15.58	-25.1	-25.8	17.1	0.00e+00	0	43	102	1048576	11	3924
2026-01-07 09:44:33.73	41.67	15.59	-25.1	-25.9	17.0	0.00e+00	0	43	102	1048576	11	3957
2026-01-07 09:44:34.74	41.45	15.60	-25.1	-25.9	17.1	0.00e+00	0	43	102	1048576	11	3951
2026-01-07 09:44:35.74	41.24	15.62	-25.0	-25.7	17.2	0.00e+00	0	43	102	1048576	11	3894
2026-01-07 09:44:36.75	41.02	15.63	-24.9	-25.4	17.3	0.00e+00	0	43	102	1048576	11	3822
2026-01-07 09:44:37.76	40.81	15.64	-25.0	-25.6	17.2	0.00e+00	0	43	102	1048576	11	3884
2026-01-07 09:44:38.76	40.59	15.66	-24.9	-25.6	17.3	0.00e+00	0	43	102	1048576	11	3861
2026-01-07 09:44:39.76	40.38	15.67	-24.9	-25.5	17.3	0.00e+00	0	43	102	1048576	11	3845
2026-01-07 09:44:40.77	40.16	15.68	-25.0	-25.6	17.2	0.00e+00	0	43	102	1048576	11	3888
2026-01-07 09:44:41.78	39.94	15.69	-24.9	-25.6	17.2	0.00e+00	0	43	102	1048576	11	3865
2026-01-07 09:44:42.78	39.72	15.70	-25.0	-25.6	17.2	0.00e+00	0	43	102	1048576	11	3878
2026-01-07 09:44:43.79	39.51	15.71	-24.9	-25.4	17.3	0.00e+00	0	43	102	1048576	11	3822
2026-01-07 09:44:44.79	39.29	15.72	-24.8	-25.4	17.3	0.00e+00	0	43	102	1048576	11	3820
2026-01-07 09:44:45.80	39.07	15.73	-24.8	-25.3	17.4	0.00e+00	0	43	102	1048576	11	3810
2026-01-07 09:44:46.80	38.85	15.74	-24.8	-25.3	17.4	0.00e+00	0	43	102	1048576	11	3805
2026-01-07 09:44:47.81	38.64	15.75	-24.9	-25.5	17.3	0.00e+00	0	43	102	1048576	11	3845
2026-01-07 09:44:48.82	38.42	15.76	-24.9	-25.5	17.3	0.00e+00	0	43	102	1048576	11	3848
2026-01-07 09:44:49.82	38.20	15.77	-24.9	-25.6	17.2	0.00e+00	0	43	102	1048576	11	3871
2026-01-07 09:44:50.83	37.98	15.77	-24.9	-25.5	17.3	0.00e+00	0	43	102	1048576	11	3858
2026-01-07 09:44:51.84	37.76	15.78	-25.0	-25.8	17.1	0.00e+00	0	43	102	1048576	11	3913
2026-01-07 09:44:52.85	37.54	15.79	-24.8	-25.3	17.4	0.00e+00	0	43	102	1048576	11	3814
2026-01-07 09:44:53.85	37.33	15.79	-24.8	-25.7	17.4	0.00e+00	0	43	102	1048576	10	4009
2026-01-07 09:44:54.86	37.11	15.80	-24.7	-25.6	17.5	0.00e+00	0	43	102	1048576	10	3987
2026-01-07 09:44:55.87	36.89	15.81	-24.9	-25.9	17.3	0.00e+00	0	43	102	1048576	10	4055
2026-01-07 09:44:56.88	36.67	15.81	-24.8	-25.8	17.4	0.00e+00	0	43	102	1048576	10	4038
2026-01-07 09:44:57.89	36.45	15.82	-24.8	-25.7	17.5	0.00e+00	0	43	102	1048576	10	3996
2026-01-07 09:44:58.89	36.23	15.82	-24.9	-26.0	17.3	0.00e+00	0	43	102	1048576	10	4085
2026-01-07 09:44:59.90	36.01	15.82	-24.9	-25.9	17.3	0.00e+00	0	43	102	1048576	10	4046
2026-01-07 09:45:00.90	35.79	15.83	-25.0	-26.2	17.2	0.00e+00	0	43	102	1048576	10	4121
2026-01-07 09:45:01.91	35.57	15.83	-25.0	-26.2	17.1	0.00e+00	0	43	102	1048576	10	4127
2026-01-07 09:45:02.91	35.35	15.83	-25.0	-26.2	17.1	0.00e+00	0	43	102	1048576	10	4124
2026-01-07 09:45:03.92	35.13	15.83	-25.0	-26.3	17.1	0.00e+00	0	43	102	1048576	10	4150
2026-01-07 09:45:04.93	34.91	15.84	-25.2	-26.5	17.0	0.00e+00	0	43	102	1048576	10	4211
2026-01-07 09:45:05.94	34.69	15.84	-25.0	-26.1	17.2	0.00e+00	0	43	102	1048576	10	4099
2026-01-07 09:45:06.95	34.47	15.84	-24.9	-25.9	17.3	0.00e+00	0	43	102	1048576	10	4046
2026-01-07 09:45:07.96	34.25	15.84	-25.0	-26.1	17.2	0.00e+00	0	43	102	1048576	10	4112
2026-01-07 09:45:08.96	34.04	15.84	-25.0	-26.1	17.3	0.00e+00	0	43	102	1048576	10	4103
2026-01-07 09:45:09.96	33.82	15.84	-25.0	-26.1	17.2	0.00e+00	0	43	102	1048576	10	4109
2026-01-07 09:45:10.97	33.60	15.84	-25.0	-26.2	17.1	0.00e+00	0	43	102	1048576	10	4134
2026-01-07 09:45:11.98	33.38	15.84	-25.0	-26.1	17.2	0.00e+00	0	43	102	1048576	10	4116
2026-01-07 09:45:12.99	33.16	15.83	-25.1	-26.4	17.1	0.00e+00	0	43	102	1048576	10	4176
2026-01-07 09:45:13.99	32.94	15.83	-25.1	-26.5	17.0	0.00e+00	0	43	102	1048576	10	4202
2026-01-07 09:45:15.00	32.72	15.83	-25.5	-27.2	16.6	0.00e+00	0	43	102	1048576	10	4387
2026-01-07 09:45:16.01	32.50	15.83	-25.2	-26.7	16.9	0.00e+00	0	43	102	1048576	10	4260
2026-01-07 09:45:17.01	32.28	15.82	-25.3	-26.8	16.8	0.00e+00	0	43	102	1048576	10	4284
2026-01-07 09:45:18.02	32.06	15.82	-25.7	-27.1	16.4	0.00e+00	0	43	102	1048576	11	4264
2026-01-07 09:45:19.03	31.84	15.81	-25.2	-26.2	16.9	0.00e+00	0	43	102	1048576	11	4013
2026-01-07 09:45:20.04	31.62	15.81	-25.6	-26.9	16.5	0.00e+00	0	43	102	1048576	11	4199
2026-01-07 09:45:21.04	31.41	15.80	-25.1	-25.9	17.1	0.00e+00	0	43	102	1048576	11	3948
2026-01-07 09:45:22.05	31.19	15.80	-25.9	-27.6	16.2	0.00e+00	0	43	102	1048576	11	4379
2026-01-07 09:45:23.06	30.97	15.79	-25.5	-26.8	16.6	0.00e+00	0	43	102	1048576	11	4173
2026-01-07 09:45:24.07	30.75	15.79	-25.3	-26.4	16.8	0.00e+00	0	43	102	1048576	11	4066
2026-01-07 09:45:25.07	30.53	15.78	-25.2	-26.0	17.0	0.00e+00	0	43	102	1048576	11	3983
2026-01-07 09:45:26.08	30.31	15.77	-25.1	-25.8	17.0	0.00e+00	0	43	102	1048576	11	3934
2026-01-07 09:45:27.09	30.09	15.76	-25.1	-25.9	17.0	0.00e+00	0	43	102	1048576	11	3942
2026-01-07 09:45:28.10	29.88	15.76	-25.0	-25.6	17.2	0.00e+00	0	43	102	1048576	11	3882
2026-01-07 09:45:29.11	29.66	15.75	-25.0	-25.6	17.2	0.00e+00	0	43	102	1048576	11	3868
2026-01-07 09:45:30.11	29.44	15.74	-25.1	-25.8	17.1	0.00e+00	0	43	102	1048576	11	3923
2026-01-07 09:45:31.12	29.22	15.73	-25.0	-25.7	17.1	0.00e+00	0	43	102	1048576	11	3905
2026-01-07 09:45:32.13	29.00	15.72	-25.2	-26.0	16.9	0.00e+00	0	43	102	1048576	11	3980
2026-01-07 09:45:33.13	28.79	15.71	-25.0	-25.6	17.2	0.00e+00	0	43	102	1048576	11	3881
2026-01-07 09:45:34.14	28.57	15.70	-25.0	-25.7	17.2	0.00e+00	0	44	102	1048576	11	3899
2026-01-07 09:45:35.15	28.35	15.69	-25.1	-25.8	17.1	0.00e+00	0	44	102	1048576	11	3932
2026-01-07 09:45:36.15	28.14	15.68	-25.1	-25.9	17.0	0.00e+00	0	43	102	1048576	11	3952
2026-01-07 09:45:37.16	27.92	15.67	-25.0	-25.6	17.2	0.00e+00	0	43	102	1048576	11	3882
2026-01-07 09:45:38.17	27.70	15.65	-24.9	-25.5	17.2	0.00e+00	0	43	102	1048576	11	3855
2026-01-07 09:45:39.18	27.48	15.64	-24.9	-25.5	17.2	0.00e+00	0	44	102	1048576	11	3854
2026-01-07 09:45:40.19	27.27	15.63	-24.9	-25.6	17.2	0.00e+00	0	43	102	1048576	11	3865
2026-01-07 09:45:41.19	27.05	15.61	-24.8	-25.3	17.3	0.00e+00	0	43	102	1048576	11	3811
2026-01-07 09:45:42.20	26.84	15.60	-24.8	-25.2	17.4	0.00e+00	0	43	102	1048576	11	3793
2026-01-07 09:45:43.20	26.62	15.59	-24.8	-25.3	17.3	0.00e+00	0	43	102	1048576	11	3804
2026-01-07 09:45:44.21	26.41	15.57	-25.0	-25.7	17.1	0.00e+00	0	43	102	1048576	11	3892
2026-01-07 09:45:45.22	26.19	15.56	-25.0	-25.8	17.1	0.00e+00	0	43	102	1048576	11	3911
2026-01-07 09:45:46.23	25.97	15.54	-25.0	-25.6	17.2	0.00e+00	0	43	102	1048576	11	3873
2026-01-07 09:45:47.24	25.76	15.53	-25.0	-25.7	17.2	0.00e+00	0	43	102	1048576	11	3892
2026-01-07 09:45:48.25	25.54	15.51	-25.1	-25.8	17.1	0.00e+00	0	43	102	1048576	11	3919
2026-01-07 09:45:49.25	25.33	15.49	-25.2	-26.1	16.9	0.00e+00	0	43	102	1048576	11	3997
2026-01-07 09:45:50.25	25.12	15.48	-25.3	-26.3	16.8	0.00e+00	0	43	102	1048576	11	4050
2026-01-07 09:45:51.26	24.90	15.46	-25.2	-26.1	16.9	0.00e+00	0	43	102	1048576	11	3990
2026-01-07 09:45:52.27	24.69	15.44	-25.1	-25.9	17.0	0.00e+00	0	44	102	1048576	11	3946
2026-01-07 09:45:53.27	24.48	15.42	-25.1	-25.9	17.0	0.00e+00	0	43	102	1048576	11	3935
2026-01-07 09:45:54.28	24.26	15.40	-25.1	-25.9	17.0	0.00e+00	0	44	102	1048576	11	3948
2026-01-07 09:45:55.29	24.05	15.38	-24.9	-25.5	17.2	0.00e+00	0	43	102	1048576	11	3860
2026-01-07 09:45:56.30	23.84	15.37	-24.9	-25.5	17.2	0.00e+00	0	43	102	1048576	11	3844
2026-01-07 09:45:57.30	23.63	15.35	-25.0	-25.6	17.1	0.00e+00	0	43	102	1048576	11	3882
2026-01-07 09:45:58.31	23.41	15.33	-25.0	-25.6	17.2	0.00e+00	0	44	102	1048576	11	3877
2026-01-07 09:45:59.32	23.20	15.30	-25.1	-25.8	17.0	0.00e+00	0	43	102	1048576	11	3933
2026-01-07 09:46:00.33	22.99	15.28	-25.0	-25.6	17.2	0.00e+00	0	43	102	1048576	11	3874
2026-01-07 09:46:01.33	22.78	15.26	-25.0	-25.6	17.2	0.00e+00	0	43	102	1048576	11	3872
2026-01-07 09:46:02.34	22.57	15.24	-25.0	-25.8	17.1	0.00e+00	0	43	102	1048576	11	3915
2026-01-07 09:46:03.35	22.36	15.22	-25.1	-25.9	17.0	0.00e+00	0	43	102	1048576	11	3951
2026-01-07 09:46:04.36	22.15	15.20	-25.1	-26.0	16.9	0.00e+00	0	44	102	1048576	11	3967
2026-01-07 09:46:05.36	21.94	15.17	-25.2	-26.0	16.9	0.00e+00	0	43	102	1048576	11	3977
2026-01-07 09:46:06.36	21.73	15.15	-25.1	-25.8	17.0	0.00e+00	0	43	102	1048576	11	3926
2026-01-07 09:46:07.36	21.52	15.13	-25.1	-25.9	17.0	0.00e+00	0	43	102	1048576	11	3945
2026-01-07 09:46:08.37	21.31	15.10	-25.1	-25.9	17.0	0.00e+00	0	43	102	1048576	11	3955
2026-01-07 09:46:09.37	21.11	15.08	-25.1	-25.8	17.0	0.00e+00	0	43	102	1048576	11	3936
2026-01-07 09:46:10.38	20.90	15.06	-25.1	-26.0	16.9	0.00e+00	0	43	102	1048576	11	3959
2026-01-07 09:46:11.39	20.69	15.03	-25.2	-26.1	16.9	0.00e+00	0	43	102	1048576	11	3990
2026-01-07 09:46:12.40	20.48	15.01	-25.3	-26.3	16.8	0.00e+00	0	43	102	1048576	11	4044
2026-01-07 09:46:13.40	20.28	14.98	-25.3	-26.3	16.8	0.00e+00	0	44	102	1048576	11	4036
2026-01-07 09:46:14.41	20.07	14.95	-25.3	-26.3	16.8	0.00e+00	0	43	102	1048576	11	4046
2026-01-07 09:46:15.41	19.86	14.93	-25.3	-26.3	16.8	0.00e+00	0	43	102	1048576	11	4034
2026-01-07 09:46:16.41	19.66	14.90	-25.2	-26.2	16.8	0.00e+00	0	43	102	1048576	11	4022
2026-01-07 09:46:17.41	19.46	14.88	-25.4	-26.5	16.6	0.00e+00	0	43	102	1048576	11	4112
2026-01-07 09:46:18.42	19.25	14.85	-25.5	-26.9	16.4	0.00e+00	0	44	102	1048576	11	4207
2026-01-07 09:46:19.43	19.04	14.82	-25.6	-27.0	16.3	0.00e+00	0	43	102	1048576	11	4232
2026-01-07 09:46:20.44	18.84	14.79	-25.7	-27.2	16.2	0.00e+00	0	44	102	1048576	11	4275
2026-01-07 09:46:21.44	18.64	14.76	-25.4	-26.6	16.4	0.00e+00	0	44	102	1048576	11	4128
2026-01-07 09:46:22.45	18.43	14.74	-25.3	-26.4	16.6	0.00e+00	0	43	102	1048576	11	4075
2026-01-07 09:46:23.45	18.23	14.71	-25.4	-26.5	16.5	0.00e+00	0	44	102	1048576	11	4086
2026-01-07 09:46:24.46	18.03	14.68	-25.4	-26.6	16.4	0.00e+00	0	43	102	1048576	11	4120
2026-01-07 09:46:25.46	17.83	14.65	-25.5	-26.7	16.4	0.00e+00	0	43	102	1048576	11	4158
2026-01-07 09:46:26.47	17.62	14.62	-25.6	-26.9	16.3	0.00e+00	0	43	102	1048576	11	4213
2026-01-07 09:46:27.48	17.42	14.59	-25.5	-26.7	16.4	0.00e+00	0	43	102	1048576	11	4151
2026-01-07 09:46:28.48	17.22	14.56	-25.3	-26.4	16.6	0.00e+00	0	43	102	1048576	11	4078
2026-01-07 09:46:29.49	17.02	14.53	-25.2	-26.2	16.7	0.00e+00	0	43	102	1048576	11	4026
2026-01-07 09:46:30.50	16.82	14.50	-25.2	-26.1	16.8	0.00e+00	0	43	102	1048576	11	4000
2026-01-07 09:46:31.51	16.62	14.46	-25.1	-26.0	16.9	0.00e+00	0	43	102	1048576	11	3962
2026-01-07 09:46:32.51	16.42	14.43	-25.1	-26.0	16.9	0.00e+00	0	43	102	1048576	11	3960
2026-01-07 09:46:33.52	16.22	14.40	-25.2	-26.2	16.8	0.00e+00	0	43	102	1048576	11	4021
2026-01-07 09:46:34.53	16.02	14.37	-25.4	-26.5	16.6	0.00e+00	0	43	102	1048576	11	4101
2026-01-07 09:46:35.54	15.82	14.33	-25.4	-26.5	16.6	0.00e+00	0	43	102	1048576	11	4103
2026-01-07 09:46:36.55	15.63	14.30	-25.3	-26.4	16.6	0.00e+00	0	43	102	1048576	11	4074
2026-01-07 09:46:37.56	15.43	14.27	-25.4	-26.5	16.6	0.00e+00	0	44	102	1048576	11	4099
2026-01-07 09:46:38.56	15.23	14.23	-25.5	-26.7	16.4	0.00e+00	0	44	102	1048576	11	4162
2026-01-07 09:46:39.57	15.04	14.20	-25.5	-26.9	16.3	0.00e+00	0	43	102	1048576	11	4200
2026-01-07 09:46:40.58	14.84	14.17	-25.5	-26.7	16.4	0.00e+00	0	43	102	1048576	11	4155
2026-01-07 09:46:41.59	14.64	14.13	-25.6	-26.9	16.2	0.00e+00	0	43	102	1048576	11	4207
2026-01-07 09:46:42.60	14.45	14.10	-25.6	-26.9	16.2	0.00e+00	0	43	102	1048576	11	4213
2026-01-07 09:46:43.60	14.25	14.06	-25.7	-27.1	16.1	0.00e+00	0	43	102	1048576	11	4261
2026-01-07 09:46:44.61	14.06	14.03	-25.7	-27.3	16.0	0.00e+00	0	43	102	1048576	11	4298
2026-01-07 09:46:45.61	13.87	13.99	-25.6	-27.1	16.2	0.00e+00	0	43	102	1048576	11	4248
2026-01-07 09:46:46.62	13.67	13.96	-25.6	-27.0	16.2	0.00e+00	0	43	102	1048576	11	4226
2026-01-07 09:46:47.63	13.48	13.92	-25.6	-26.9	16.3	0.00e+00	0	44	102	1048576	11	4202
2026-01-07 09:46:48.63	13.29	13.88	-25.5	-26.7	16.4	0.00e+00	0	44	102	1048576	11	4149
2026-01-07 09:46:49.64	13.10	13.85	-25.5	-26.8	16.4	0.00e+00	0	43	102	1048576	11	4170
2026-01-07 09:46:50.65	12.91	13.81	-25.5	-26.7	16.4	0.00e+00	0	43	102	1048576	11	4157
2026-01-07 09:46:51.66	12.71	13.77	-25.4	-26.6	16.5	0.00e+00	0	43	102	1048576	11	4128
2026-01-07 09:46:52.67	12.52	13.74	-25.4	-26.6	16.5	0.00e+00	0	43	102	1048576	11	4134
2026-01-07 09:46:53.67	12.34	13.70	-25.4	-26.6	16.6	0.00e+00	0	44	102	1048576	11	4114
2026-01-07 09:46:54.68	12.15	13.66	-25.5	-26.7	16.5	0.00e+00	0	43	102	1048576	11	4160
2026-01-07 09:46:55.69	11.96	13.62	-25.5	-26.7	16.5	0.00e+00	0	44	102	1048576	11	4157
2026-01-07 09:46:56.69	11.77	13.58	-25.5	-26.9	16.4	0.00e+00	0	43	102	1048576	11	4190
2026-01-07 09:46:57.70	11.58	13.54	-25.6	-27.0	16.3	0.00e+00	0	43	102	1048576	11	4226
2026-01-07 09:46:58.71	11.39	13.51	-25.6	-27.0	16.3	0.00e+00	0	43	102	1048576	11	4227
2026-01-07 09:46:59.72	11.21	13.47	-25.6	-27.0	16.3	0.00e+00	0	43	102	1048576	11	4228
2026-01-07 09:47:00.71	11.02	13.43	-25.8	-27.4	16.1	0.00e+00	0	43	102	1048576	11	4327
2026-01-07 09:47:01.72	10.84	13.39	-25.7	-27.2	16.1	0.00e+00	0	43	102	1048576	11	4290
2026-01-07 09:47:02.72	10.65	13.35	-25.5	-26.9	16.2	0.00e+00	0	43	102	1048576	11	4203
2026-01-07 09:47:03.73	10.47	13.31	-25.5	-26.8	16.2	0.00e+00	0	43	102	1048576	11	4188
2026-01-07 09:47:04.74	10.28	13.27	-25.5	-26.7	16.2	0.00e+00	0	44	102	1048576	11	4165
2026-01-07 09:47:05.74	10.10	13.23	-25.5	-26.9	16.0	0.00e+00	0	43	102	1048576	11	4207
2026-01-07 09:47:06.74	9.92	13.19	-25.5	-26.7	16.0	0.00e+00	0	43	102	1048576	11	4162
2026-01-07 09:47:07.75	9.74	13.15	-25.4	-26.6	16.1	0.00e+00	0	43	102	1048576	11	4122
2026-01-07 09:47:08.76	9.55	13.11	-25.4	-26.6	16.1	1.10e-06	0	43	102	1048576	11	4125
2026-01-07 09:47:09.76	9.37	13.06	-25.5	-26.7	16.1	0.00e+00	0	43	102	1048576	11	4167
2026-01-07 09:47:10.77	9.19	13.02	-25.5	-26.8	16.0	0.00e+00	0	43	102	1048576	11	4173
2026-01-07 09:47:11.77	9.01	12.98	-25.5	-26.8	16.1	0.00e+00	0	43	102	1048576	11	4187
2026-01-07 09:47:12.77	8.83	12.94	-25.6	-26.9	16.1	0.00e+00	0	43	102	1048576	11	4209
2026-01-07 09:47:13.77	8.66	12.90	-25.6	-26.9	16.1	0.00e+00	0	43	102	1048576	11	4212
2026-01-07 09:47:14.78	8.48	12.85	-25.7	-27.2	15.9	1.10e-06	0	43	102	1048576	11	4294
2026-01-07 09:47:15.78	8.30	12.81	-25.7	-27.3	15.9	0.00e+00	0	44	102	1048576	11	4316
2026-01-07 09:47:16.79	8.12	12.77	-25.8	-27.5	15.7	0.00e+00	0	43	102	1048576	11	4385
2026-01-07 09:47:17.80	7.94	12.73	-25.8	-27.5	15.6	0.00e+00	0	43	102	1048576	11	4383
2026-01-07 09:47:18.80	7.77	12.68	-25.8	-27.5	15.5	0.00e+00	0	43	102	1048576	11	4386
2026-01-07 09:47:19.81	7.59	12.64	-25.8	-27.5	15.4	0.00e+00	0	43	102	1048576	11	4361
2026-01-07 09:47:20.81	7.41	12.60	-25.9	-27.8	15.1	0.00e+00	0	43	102	1048576	11	4450
2026-01-07 09:47:21.82	7.24	12.55	-25.8	-26.9	15.3	1.10e-06	0	43	102	1048576	12	4107
2026-01-07 09:47:22.83	7.06	12.51	-25.6	-26.5	15.4	0.00e+00	0	43	102	1048576	12	4009
2026-01-07 09:47:23.84	6.89	12.46	-25.6	-26.5	15.5	0.00e+00	0	43	102	1048576	12	3994
2026-01-07 09:47:24.85	6.71	12.42	-25.6	-26.7	15.4	0.00e+00	0	43	102	1048576	12	4042
2026-01-07 09:47:25.86	6.54	12.37	-25.7	-26.8	15.4	0.00e+00	0	43	102	1048576	12	4093
2026-01-07 09:47:26.86	6.37	12.33	-25.8	-27.1	15.3	0.00e+00	0	43	102	1048576	12	4156
2026-01-07 09:47:27.87	6.20	12.29	-25.8	-26.9	15.5	0.00e+00	0	44	102	1048576	12	4112
2026-01-07 09:47:28.88	6.02	12.24	-25.7	-26.8	15.6	0.00e+00	0	44	102	1048576	12	4068
2026-01-07 09:47:29.88	5.86	12.20	-25.7	-26.8	15.5	0.00e+00	0	43	102	1048576	12	4074
2026-01-07 09:47:30.89	5.68	12.15	-25.8	-26.9	15.4	0.00e+00	0	43	102	1048576	12	4108
2026-01-07 09:47:31.90	5.51	12.10	-25.8	-27.0	15.4	0.00e+00	0	44	102	1048576	12	4143
2026-01-07 09:47:32.90	5.35	12.06	-25.9	-27.2	15.3	0.00e+00	0	44	102	1048576	12	4197
2026-01-07 09:47:33.91	5.18	12.01	-26.0	-27.4	15.3	0.00e+00	0	44	102	1048576	12	4232
2026-01-07 09:47:34.92	5.01	11.97	-25.9	-27.2	15.4	0.00e+00	0	43	102	1048576	12	4188
2026-01-07 09:47:35.93	4.84	11.92	-25.9	-27.3	15.4	0.00e+00	0	44	102	1048576	12	4204
2026-01-07 09:47:36.94	4.67	11.87	-26.2	-27.9	15.2	0.00e+00	0	43	102	1048576	12	4360
2026-01-07 09:47:37.95	4.50	11.83	-26.2	-27.8	15.3	0.00e+00	0	43	102	1048576	12	4340
2026-01-07 09:47:38.95	4.34	11.78	-26.1	-27.7	15.4	0.00e+00	0	44	102	1048576	12	4323
2026-01-07 09:47:39.96	4.17	11.73	-26.2	-28.0	15.3	0.00e+00	0	43	102	1048576	12	4386
2026-01-07 09:47:40.97	4.01	11.69	-26.5	-28.5	14.9	0.00e+00	0	43	102	1048576	12	4537
2026-01-07 09:47:41.98	3.84	11.64	-26.4	-27.8	15.0	0.00e+00	0	44	102	1048576	13	4241
2026-01-07 09:47:42.98	3.68	11.59	-26.2	-27.4	15.2	0.00e+00	0	43	102	1048576	13	4124
2026-01-07 09:47:43.99	3.51	11.55	-26.1	-27.2	15.2	0.00e+00	0	44	102	1048576	13	4081
2026-01-07 09:47:44.99	3.35	11.50	-26.2	-27.4	15.2	0.00e+00	0	43	102	1048576	13	4126
2026-01-07 09:47:46.00	3.19	11.45	-26.0	-27.0	15.4	0.00e+00	0	43	102	1048576	13	4013
2026-01-07 09:47:47.01	3.03	11.40	-26.3	-27.7	14.9	0.00e+00	0	43	102	1048576	13	4211
2026-01-07 09:47:48.01	2.87	11.36	-26.0	-27.0	15.3	0.00e+00	0	43	102	1048576	13	4036
2026-01-07 09:47:49.02	2.71	11.31	-25.9	-26.7	15.4	0.00e+00	0	44	102	1048576	13	3946
2026-01-07 09:47:50.03	2.55	11.26	-25.8	-26.6	15.5	0.00e+00	0	43	102	1048576	13	3926
2026-01-07 09:47:51.03	2.39	11.21	-25.9	-26.8	15.4	0.00e+00	0	43	102	1048576	13	3971
2026-01-07 09:47:52.04	2.23	11.16	-25.9	-26.6	15.5	0.00e+00	0	43	102	1048576	13	3932
2026-01-07 09:47:53.05	2.07	11.11	-25.8	-26.5	15.5	0.00e+00	0	43	102	1048576	13	3912
2026-01-07 09:47:54.06	1.91	11.07	-25.9	-26.8	15.4	0.00e+00	0	43	102	1048576	13	3970
2026-01-07 09:47:55.06	1.75	11.02	-25.9	-26.6	15.5	0.00e+00	0	43	102	1048576	13	3931
2026-01-07 09:47:56.07	1.60	10.97	-25.9	-26.7	15.5	0.00e+00	0	43	102	1048576	13	3948
2026-01-07 09:47:57.08	1.44	10.92	-26.1	-27.1	15.2	0.00e+00	0	43	102	1048576	13	4052
2026-01-07 09:47:58.08	1.28	10.87	-26.1	-27.1	15.2	0.00e+00	0	43	102	1048576	13	4048
2026-01-07 09:47:59.09	1.13	10.82	-26.2	-27.3	15.1	0.00e+00	0	43	102	1048576	13	4106
2026-01-07 09:48:00.09	0.97	10.77	-26.3	-27.6	15.0	0.00e+00	0	43	102	1048576	13	4172
2026-01-07 09:48:01.10	0.82	10.72	-26.4	-27.8	14.9	0.00e+00	0	43	102	1048576	13	4236
2026-01-07 09:48:02.11	0.66	10.67	-26.4	-27.9	14.9	0.00e+00	0	43	102	1048576	13	4257
2026-01-07 09:48:03.11	0.51	10.62	-26.5	-28.1	14.8	2.20e-06	0	44	102	1048576	13	4315
2026-01-07 09:48:04.11	0.36	10.57	-26.4	-27.8	15.0	1.10e-06	0	43	102	1048576	13	4246
2026-01-07 09:48:05.12	0.21	10.52	-26.4	-27.8	15.0	0.00e+00	0	43	102	1048576	13	4226
2026-01-07 09:48:06.13	0.06	10.47	-26.5	-28.1	14.8	1.10e-06	0	44	102	1048576	13	4314
2026-01-07 09:48:07.14	359.90	10.42	-26.5	-28.0	14.8	1.10e-06	0	44	102	1048576	13	4295
2026-01-07 09:48:08.14	359.75	10.37	-26.6	-28.2	14.6	1.10e-06	0	43	102	1048576	13	4356
2026-01-07 09:48:09.15	359.60	10.32	-26.6	-28.2	14.6	0.00e+00	0	43	102	1048576	13	4356
2026-01-07 09:48:10.16	359.45	10.27	-26.6	-28.4	14.5	1.10e-06	0	43	102	1048576	13	4402
2026-01-07 09:48:11.16	359.31	10.22	-26.8	-28.7	14.3	1.10e-06	0	43	102	1048576	13	4493
2026-01-07 09:48:12.17	359.16	10.17	-26.8	-28.8	14.3	1.10e-06	0	43	102	1048576	13	4528
2026-01-07 09:48:13.18	359.01	10.12	-27.0	-28.6	14.2	5.70e-06	0	44	102	1048576	14	4354
2026-01-07 09:48:14.19	358.86	10.07	-26.8	-28.2	14.4	3.40e-06	0	44	102	1048576	14	4222
2026-01-07 09:48:15.19	358.71	10.02	-26.6	-27.9	14.6	0.00e+00	0	44	102	1048576	14	4144
2026-01-07 09:48:16.19	358.57	9.97	-26.6	-27.9	14.6	1.10e-06	0	43	102	1048576	14	4150
2026-01-07 09:48:17.20	358.42	9.92	-26.8	-28.2	14.4	1.10e-06	0	43	102	1048576	14	4235
2026-01-07 09:48:18.20	358.28	9.87	-26.8	-28.1	14.5	0.00e+00	0	43	102	1048576	14	4217
2026-01-07 09:48:19.21	358.13	9.82	-27.0	-28.6	14.2	2.20e-06	0	44	102	1048576	14	4355
2026-01-07 09:48:20.22	357.99	9.77	-26.7	-28.1	14.4	1.10e-06	0	44	102	1048576	14	4218
2026-01-07 09:48:21.21	357.85	9.72	-26.5	-27.5	14.7	1.10e-06	0	43	102	1048576	14	4071
2026-01-07 09:48:22.22	357.70	9.67	-26.4	-27.3	14.9	1.10e-06	0	43	102	1048576	14	4012
2026-01-07 09:48:23.23	357.56	9.62	-26.4	-27.4	14.9	0.00e+00	0	43	102	1048576	14	4024
2026-01-07 09:48:24.24	357.42	9.56	-26.5	-27.5	14.8	1.10e-06	0	43	102	1048576	14	4057
2026-01-07 09:48:25.25	357.27	9.51	-26.5	-27.5	14.9	0.00e+00	0	43	102	1048576	14	4042
2026-01-07 09:48:26.26	357.13	9.46	-26.5	-27.6	14.8	0.00e+00	0	43	102	1048576	14	4074
2026-01-07 09:48:27.27	356.99	9.41	-26.6	-27.7	14.7	1.10e-06	0	44	102	1048576	14	4112
2026-01-07 09:48:28.28	356.85	9.36	-26.6	-27.8	14.6	0.00e+00	0	43	102	1048576	14	4142
2026-01-07 09:48:29.29	356.71	9.31	-26.7	-28.0	14.5	0.00e+00	0	43	102	1048576	14	4189
2026-01-07 09:48:30.30	356.57	9.25	-26.7	-28.0	14.5	1.10e-06	0	44	102	1048576	14	4188
2026-01-07 09:48:31.30	356.43	9.20	-26.7	-28.1	14.5	1.10e-06	0	43	102	1048576	14	4210
2026-01-07 09:48:32.31	356.29	9.15	-26.7	-28.1	14.5	2.20e-06	0	44	102	1048576	14	4215
2026-01-07 09:48:33.32	356.15	9.10	-26.8	-28.3	14.4	1.10e-06	0	44	102	1048576	14	4260
2026-01-07 09:48:34.32	356.02	9.05	-26.8	-28.1	14.4	0.00e+00	0	43	102	1048576	14	4220
2026-01-07 09:48:35.33	355.88	9.00	-26.8	-28.2	14.4	1.10e-06	0	44	102	1048576	14	4241
2026-01-07 09:48:36.33	355.75	8.94	-26.9	-28.5	14.2	5.70e-06	0	43	102	1048576	14	4314
2026-01-07 09:48:37.34	355.61	8.89	-26.8	-28.3	14.3	1.10e-06	0	44	102	1048576	14	4269
2026-01-07 09:48:38.34	355.47	8.84	-26.8	-28.2	14.4	0.00e+00	0	43	102	1048576	14	4233
2026-01-07 09:48:39.35	355.34	8.79	-26.8	-28.3	14.2	1.10e-06	0	43	102	1048576	14	4273
2026-01-07 09:48:40.35	355.21	8.74	-26.9	-28.5	14.0	0.00e+00	0	43	102	1048576	14	4326
2026-01-07 09:48:41.36	355.07	8.68	-26.8	-28.2	14.2	3.40e-06	0	43	102	1048576	14	4238
2026-01-07 09:48:42.37	354.94	8.63	-26.6	-27.9	14.4	2.20e-06	0	44	102	1048576	14	4148
2026-01-07 09:48:43.37	354.81	8.58	-26.7	-28.1	14.3	0.00e+00	0	44	102	1048576	14	4206
2026-01-07 09:48:44.38	354.67	8.53	-26.8	-28.2	14.2	2.20e-06	0	44	102	1048576	14	4231
2026-01-07 09:48:45.39	354.54	8.47	-26.7	-28.0	14.2	0.00e+00	0	43	102	1048576	14	4182
2026-01-07 09:48:46.39	354.41	8.42	-26.8	-28.2	14.1	1.10e-06	0	43	102	1048576	14	4247
2026-01-07 09:48:47.40	354.28	8.37	-26.8	-28.2	14.1	2.20e-06	0	43	102	1048576	14	4246
2026-01-07 09:48:48.40	354.15	8.32	-26.8	-28.3	14.1	1.10e-06	0	44	102	1048576	14	4281
2026-01-07 09:48:49.41	354.02	8.26	-26.9	-28.4	14.1	3.40e-06	0	44	102	1048576	14	4308
2026-01-07 09:48:50.42	353.89	8.21	-26.9	-28.5	14.0	4.50e-06	0	44	102	1048576	14	4319
2026-01-07 09:48:51.42	353.76	8.16	-26.9	-28.5	14.0	6.80e-06	0	44	102	1048576	14	4324
2026-01-07 09:48:52.43	353.63	8.11	-26.8	-28.3	14.2	0.00e+00	0	43	102	1048576	14	4271
2026-01-07 09:48:53.44	353.50	8.05	-26.8	-28.3	14.2	1.10e-06	0	43	102	1048576	14	4266
2026-01-07 09:48:54.45	353.38	8.00	-26.9	-28.4	14.2	1.10e-06	0	43	102	1048576	14	4301
2026-01-07 09:48:55.46	353.25	7.95	-26.9	-28.5	14.1	8.00e-06	0	43	102	1048576	14	4332
2026-01-07 09:48:56.46	353.12	7.90	-26.8	-28.3	14.2	4.50e-06	0	44	102	1048576	14	4277
2026-01-07 09:48:57.48	353.00	7.84	-26.9	-28.4	14.2	0.00e+00	0	43	102	1048576	14	4306
2026-01-07 09:48:58.48	352.87	7.79	-26.9	-28.6	14.0	6.80e-06	0	43	102	1048576	14	4356
2026-01-07 09:48:59.49	352.74	7.74	-27.0	-28.7	14.0	4.50e-06	0	44	102	1048576	14	4393
2026-01-07 09:49:00.49	352.62	7.69	-27.0	-28.8	13.9	4.50e-06	0	43	102	1048576	14	4420
2026-01-07 09:49:01.50	352.50	7.63	-27.0	-28.8	13.9	8.00e-06	0	43	102	1048576	14	4427
2026-01-07 09:49:02.51	352.37	7.58	-27.0	-28.8	13.9	1.25e-05	0	43	102	1048576	14	4418
2026-01-07 09:49:03.52	352.25	7.53	-27.0	-28.7	13.9	8.00e-06	0	43	102	1048576	14	4383
2026-01-07 09:49:04.52	352.13	7.47	-27.1	-29.0	13.7	1.14e-05	0	43	102	1048576	14	4481
2026-01-07 09:49:05.53	352.00	7.42	-27.0	-28.8	13.9	8.00e-06	0	43	102	1048576	14	4418
2026-01-07 09:49:06.54	351.88	7.37	-27.1	-28.9	13.8	1.37e-05	0	43	102	1048576	14	4454
2026-01-07 09:49:07.54	351.76	7.32	-27.1	-29.1	13.6	1.14e-05	0	43	102	1048576	14	4507
2026-01-07 09:49:08.55	351.64	7.26	-27.2	-29.3	13.5	2.05e-05	0	44	102	1048576	14	4557
2026-01-07 09:49:09.55	351.52	7.21	-27.3	-29.5	13.4	3.08e-05	0	43	102	1048576	14	4629
2026-01-07 09:49:10.56	351.40	7.16	-27.2	-29.3	13.4	2.74e-05	0	43	102	1048576	14	4574
2026-01-07 09:49:11.57	351.28	7.10	-27.3	-29.4	13.4	3.54e-05	0	44	102	1048576	14	4604
2026-01-07 09:49:12.57	351.16	7.05	-32.4	-41.0	4.3	9.04e-05	0	44	102	1048576	24	9639
2026-01-07 09:49:13.58	351.04	7.00	-33.1	-44.0	3.8	8.44e-01	0	43	104	1048576	26	12626

#Closed at: 2026-01-07 09:49:14
#Recorded file [1 MB]: D:/data/31010_260107_124106.dat