passes_logs/2026/01/07/R2M6_AANII_01/R2M6_AANII_01__20260107_063230_FENGYUN_3E_rec.log

#Pass ID: 20260107_063230_FENGYUN 3E
#Satellite: FENGYUN 3E
#Configuration: FENGYUN 3E
#almurnet v.1.7.20240730
#Start time: 2026-01-07 06:32:29

#Version: 2.2.20231116
#Station: R2M6_AANII_01
#Location: 30.233357 lon 59.946436 lat
#TLE: 1 49008U 21062A   26006.26767912  .00000427  00000+0  22170-3 0  9993
#TLE: 2 49008  98.7475  11.4982 0001602 156.1158 204.0093 14.19885456233607

#Time	Az	El	Level	Level2	SNR	BER	BlckErr	Temp	State	Recorded	gain1	gain2
2026-01-07 06:32:29.96	10.32	6.99	-30.4	-33.7	4.8	8.02e-01	0	41	0	0	21	5241
2026-01-07 06:32:30.97	10.23	7.05	-29.6	-32.1	5.2	7.78e-01	0	41	104	0	19	4816
2026-01-07 06:32:31.98	10.14	7.12	-29.7	-32.4	8.5	4.20e-02	0	41	0	0	19	4915
2026-01-07 06:32:32.98	10.05	7.18	-29.7	-32.3	8.6	3.66e-02	0	41	102	1048576	19	4870
2026-01-07 06:32:33.99	9.96	7.24	-29.8	-32.7	8.3	4.56e-02	0	41	102	1048576	19	5024
2026-01-07 06:32:35.00	9.86	7.31	-29.8	-32.6	8.4	4.70e-02	0	41	102	1048576	19	4995
2026-01-07 06:32:36.00	9.77	7.37	-30.0	-32.7	8.0	6.40e-02	0	41	102	1048576	20	4904
2026-01-07 06:32:37.01	9.68	7.44	-30.0	-32.7	7.9	7.06e-02	0	41	102	1048576	20	4915
2026-01-07 06:32:38.02	9.58	7.50	-29.5	-31.8	8.9	3.51e-02	0	41	102	1048576	19	4695
2026-01-07 06:32:39.03	9.49	7.57	-29.0	-31.0	9.9	1.06e-02	0	41	102	1048576	18	4497
2026-01-07 06:32:40.03	9.40	7.63	-28.5	-30.2	10.7	3.29e-03	0	41	102	1048576	17	4343
2026-01-07 06:32:41.04	9.30	7.70	-28.0	-29.5	11.5	1.26e-03	0	41	102	1048576	16	4248
2026-01-07 06:32:42.05	9.20	7.76	-27.5	-28.3	12.2	2.36e-04	0	41	102	1048576	16	3924
2026-01-07 06:32:43.05	9.11	7.83	-27.1	-28.4	12.6	1.34e-04	0	41	102	1048576	14	4163
2026-01-07 06:32:44.06	9.01	7.89	-27.6	-29.4	12.0	2.05e-04	0	42	102	1048576	14	4444
2026-01-07 06:32:45.07	8.91	7.96	-26.9	-28.1	10.4	1.96e-04	0	41	102	1048576	15	4124
2026-01-07 06:32:46.08	8.82	8.03	-27.4	-29.0	11.2	1.76e-04	0	42	102	1048576	14	4319
2026-01-07 06:32:47.09	8.72	8.09	-27.3	-28.7	12.4	1.72e-04	0	42	102	1048576	14	4231
2026-01-07 06:32:48.09	8.62	8.16	-27.3	-28.9	12.3	2.55e-03	0	42	102	1048576	14	4294
2026-01-07 06:32:49.10	8.52	8.22	-27.9	-29.5	11.6	4.30e-04	0	42	102	1048576	15	4376
2026-01-07 06:32:50.10	8.42	8.29	-27.6	-28.9	12.0	3.80e-04	0	42	102	1048576	15	4200
2026-01-07 06:32:51.11	8.32	8.35	-27.8	-29.4	11.7	5.09e-04	0	42	102	1048576	15	4334
2026-01-07 06:32:52.12	8.22	8.42	-27.4	-29.1	12.2	2.38e-04	0	42	102	1048576	14	4343
2026-01-07 06:32:53.12	8.12	8.49	-27.2	-28.5	12.6	3.56e-04	0	42	102	1048576	14	4166
2026-01-07 06:32:54.13	8.02	8.55	-27.5	-29.2	12.2	1.59e-04	0	42	102	1048576	14	4375
2026-01-07 06:32:55.14	7.92	8.62	-27.2	-28.5	12.6	2.35e-03	0	42	102	1048576	14	4168
2026-01-07 06:32:56.15	7.82	8.69	-27.0	-28.5	12.9	3.27e-04	0	42	102	1048576	13	4288
2026-01-07 06:32:57.16	7.71	8.75	-27.0	-28.7	12.8	2.63e-05	0	42	102	1048576	13	4330
2026-01-07 06:32:58.17	7.61	8.82	-27.0	-28.5	12.9	2.08e-03	0	42	102	1048576	13	4294
2026-01-07 06:32:59.17	7.51	8.89	-27.2	-28.5	12.6	5.83e-05	0	42	102	1048576	14	4190
2026-01-07 06:33:00.18	7.40	8.95	-26.9	-28.2	13.1	1.96e-03	0	42	102	1048576	13	4199
2026-01-07 06:33:01.18	7.30	9.02	-26.7	-27.9	13.2	1.97e-03	0	42	102	1048576	13	4120
2026-01-07 06:33:02.19	7.19	9.09	-26.7	-27.7	13.3	1.43e-04	0	42	102	1048576	13	4074
2026-01-07 06:33:03.19	7.09	9.15	-26.5	-28.0	13.5	1.77e-03	0	42	102	1048576	12	4250
2026-01-07 06:33:04.20	6.98	9.22	-26.6	-27.6	13.4	1.91e-03	0	42	102	1048576	13	4045
2026-01-07 06:33:05.21	6.87	9.29	-26.5	-27.5	13.5	1.35e-04	0	42	102	1048576	13	4005
2026-01-07 06:33:06.21	6.77	9.35	-26.7	-28.0	13.2	2.00e-03	0	42	102	1048576	13	4139
2026-01-07 06:33:07.22	6.66	9.42	-26.6	-27.5	13.5	1.88e-03	0	42	102	1048576	13	4026
2026-01-07 06:33:08.22	6.55	9.49	-26.6	-27.5	13.5	9.04e-05	0	42	102	1048576	13	4021
2026-01-07 06:33:09.23	6.44	9.56	-26.7	-27.8	13.3	8.00e-06	0	42	102	1048576	13	4083
2026-01-07 06:33:10.24	6.33	9.62	-26.8	-28.1	13.2	2.05e-03	0	42	102	1048576	13	4167
2026-01-07 06:33:11.24	6.22	9.69	-26.6	-27.6	13.5	1.02e-05	0	42	102	1048576	13	4046
2026-01-07 06:33:12.25	6.11	9.76	-26.5	-27.8	13.6	2.00e-03	0	42	102	1048576	12	4212
2026-01-07 06:33:13.26	6.00	9.83	-26.4	-27.6	13.7	3.40e-06	0	42	102	1048576	12	4160
2026-01-07 06:33:14.27	5.89	9.89	-26.4	-27.6	13.8	2.20e-06	0	42	102	1048576	12	4137
2026-01-07 06:33:15.28	5.78	9.96	-26.4	-27.7	13.7	2.18e-03	0	42	102	1048576	12	4179
2026-01-07 06:33:16.29	5.67	10.03	-26.4	-27.7	13.7	6.80e-06	0	42	102	1048576	12	4164
2026-01-07 06:33:17.30	5.55	10.10	-26.1	-27.0	14.1	1.10e-06	0	42	102	1048576	12	3979
2026-01-07 06:33:18.31	5.44	10.17	-25.9	-26.6	14.3	2.20e-06	0	42	102	1048576	12	3894
2026-01-07 06:33:19.32	5.33	10.24	-26.1	-27.4	14.3	1.10e-06	0	42	102	1048576	11	4196
2026-01-07 06:33:20.32	5.21	10.30	-26.0	-26.7	14.4	1.10e-06	0	42	102	1048576	12	3902
2026-01-07 06:33:21.33	5.10	10.37	-26.0	-27.1	14.4	0.00e+00	0	42	102	1048576	11	4114
2026-01-07 06:33:22.34	4.98	10.44	-25.9	-26.9	14.6	2.20e-06	0	42	102	1048576	11	4062
2026-01-07 06:33:23.34	4.86	10.51	-25.9	-27.1	14.5	0.00e+00	0	42	102	1048576	11	4113
2026-01-07 06:33:24.35	4.75	10.58	-26.0	-27.2	14.4	1.10e-06	0	42	102	1048576	11	4136
2026-01-07 06:33:25.36	4.63	10.65	-26.1	-27.1	14.2	3.40e-06	0	42	102	1048576	12	4009
2026-01-07 06:33:26.37	4.51	10.72	-26.3	-27.3	14.0	2.20e-06	0	43	102	1048576	12	4066
2026-01-07 06:33:27.37	4.39	10.78	-26.0	-26.8	14.3	2.20e-06	0	42	102	1048576	12	3927
2026-01-07 06:33:28.38	4.27	10.85	-26.0	-26.6	14.4	0.00e+00	0	43	102	1048576	12	3895
2026-01-07 06:33:29.39	4.15	10.92	-26.0	-26.8	14.3	0.00e+00	0	43	102	1048576	12	3940
2026-01-07 06:33:30.39	4.03	10.99	-26.1	-27.1	14.1	2.20e-06	0	43	102	1048576	12	4000
2026-01-07 06:33:31.40	3.91	11.06	-26.0	-26.8	14.3	1.10e-06	0	43	102	1048576	12	3923
2026-01-07 06:33:32.41	3.79	11.13	-26.1	-27.0	14.2	1.10e-06	0	43	102	1048576	12	3978
2026-01-07 06:33:33.42	3.67	11.20	-26.0	-26.8	14.3	1.10e-06	0	43	102	1048576	12	3945
2026-01-07 06:33:34.43	3.55	11.27	-25.9	-26.6	14.4	0.00e+00	0	43	102	1048576	12	3880
2026-01-07 06:33:35.43	3.42	11.34	-26.0	-26.7	14.3	2.20e-06	0	43	102	1048576	12	3905
2026-01-07 06:33:36.44	3.30	11.41	-26.1	-26.9	14.3	1.10e-06	0	43	102	1048576	12	3950
2026-01-07 06:33:37.44	3.18	11.48	-26.1	-26.9	14.3	0.00e+00	0	43	102	1048576	12	3954
2026-01-07 06:33:38.46	3.05	11.55	-26.0	-27.1	14.5	1.10e-06	0	43	102	1048576	11	4122
2026-01-07 06:33:39.46	2.92	11.62	-25.9	-26.5	14.5	1.10e-06	0	43	102	1048576	12	3855
2026-01-07 06:33:40.47	2.80	11.69	-26.3	-27.3	14.1	0.00e+00	0	43	102	1048576	12	4054
2026-01-07 06:33:41.48	2.67	11.76	-26.3	-27.5	13.9	3.40e-06	0	43	102	1048576	12	4110
2026-01-07 06:33:42.48	2.54	11.83	-26.3	-27.5	13.9	2.20e-06	0	43	102	1048576	12	4101
2026-01-07 06:33:43.49	2.41	11.90	-26.6	-27.6	13.6	2.20e-06	0	43	102	1048576	13	4030
2026-01-07 06:33:44.49	2.29	11.97	-26.0	-26.7	14.4	0.00e+00	0	43	102	1048576	12	3918
2026-01-07 06:33:45.50	2.16	12.04	-26.1	-27.0	14.2	0.00e+00	0	43	102	1048576	12	3978
2026-01-07 06:33:46.51	2.03	12.11	-26.5	-27.3	13.8	3.40e-06	0	43	102	1048576	13	3949
2026-01-07 06:33:47.51	1.90	12.18	-26.0	-26.7	14.4	0.00e+00	0	43	102	1048576	12	3907
2026-01-07 06:33:48.52	1.76	12.25	-26.1	-26.9	14.3	0.00e+00	0	43	102	1048576	12	3961
2026-01-07 06:33:49.53	1.63	12.32	-26.1	-27.0	14.2	0.00e+00	0	43	102	1048576	12	3992
2026-01-07 06:33:50.53	1.50	12.39	-25.9	-26.5	14.5	0.00e+00	0	43	102	1048576	12	3858
2026-01-07 06:33:51.54	1.37	12.46	-26.0	-27.1	14.5	0.00e+00	0	43	102	1048576	11	4120
2026-01-07 06:33:52.54	1.23	12.53	-25.9	-27.0	14.6	1.10e-06	0	43	102	1048576	11	4078
2026-01-07 06:33:53.55	1.10	12.60	-25.7	-26.6	14.8	0.00e+00	0	43	102	1048576	11	3976
2026-01-07 06:33:54.56	0.96	12.67	-25.6	-26.4	14.9	0.00e+00	0	43	102	1048576	11	3939
2026-01-07 06:33:55.57	0.83	12.74	-25.6	-26.4	15.0	0.00e+00	0	43	102	1048576	11	3920
2026-01-07 06:33:56.58	0.69	12.81	-25.6	-26.4	15.0	0.00e+00	0	43	102	1048576	11	3927
2026-01-07 06:33:57.58	0.55	12.88	-25.6	-26.3	15.0	0.00e+00	0	43	102	1048576	11	3907
2026-01-07 06:33:58.59	0.42	12.95	-25.5	-26.6	15.1	0.00e+00	0	43	102	1048576	10	4097
2026-01-07 06:33:59.60	0.28	13.02	-25.6	-26.4	15.0	0.00e+00	0	43	102	1048576	11	3928
2026-01-07 06:34:00.60	0.14	13.09	-25.5	-26.1	15.1	0.00e+00	0	43	102	1048576	11	3857
2026-01-07 06:34:01.61	360.00	13.16	-25.4	-26.3	15.3	0.00e+00	0	43	102	1048576	10	4014
2026-01-07 06:34:02.62	359.86	13.24	-25.4	-26.4	15.2	0.00e+00	0	43	102	1048576	10	4035
2026-01-07 06:34:03.62	359.72	13.31	-25.0	-26.0	15.1	0.00e+00	0	43	102	1048576	10	4073
2026-01-07 06:34:04.63	359.57	13.38	-25.3	-26.3	14.5	0.00e+00	0	43	102	1048576	10	3999
2026-01-07 06:34:05.64	359.43	13.45	-25.5	-26.5	12.9	0.00e+00	0	43	102	1048576	10	4068
2026-01-07 06:34:06.64	359.29	13.52	-25.5	-26.6	15.1	0.00e+00	0	43	102	1048576	10	4079
2026-01-07 06:34:07.65	359.14	13.59	-25.5	-26.6	15.2	0.00e+00	0	43	102	1048576	10	4090
2026-01-07 06:34:08.66	359.00	13.66	-25.6	-26.7	15.1	0.00e+00	0	43	102	1048576	10	4124
2026-01-07 06:34:09.66	358.85	13.73	-25.6	-26.4	15.0	0.00e+00	0	43	102	1048576	11	3935
2026-01-07 06:34:10.67	358.71	13.80	-25.6	-26.8	15.1	0.00e+00	0	43	102	1048576	10	4134
2026-01-07 06:34:11.68	358.56	13.87	-25.7	-26.5	15.0	1.96e-03	0	43	102	1048576	11	3942
2026-01-07 06:34:12.68	358.41	13.94	-25.8	-26.6	14.9	1.10e-06	0	43	102	1048576	11	3986
2026-01-07 06:34:13.69	358.26	14.02	-25.7	-26.5	14.9	2.25e-04	0	43	102	1048576	11	3965
2026-01-07 06:34:14.70	358.11	14.09	-25.7	-26.4	15.0	0.00e+00	0	43	102	1048576	11	3938
2026-01-07 06:34:15.70	357.96	14.16	-25.6	-26.2	15.1	0.00e+00	0	43	102	1048576	11	3885
2026-01-07 06:34:16.71	357.81	14.23	-25.6	-26.3	15.1	2.82e-04	0	43	102	1048576	11	3904
2026-01-07 06:34:17.72	357.66	14.30	-25.6	-26.3	15.1	1.95e-03	0	43	102	1048576	11	3897
2026-01-07 06:34:18.73	357.51	14.37	-25.7	-26.4	15.0	1.89e-03	0	43	102	1048576	11	3933
2026-01-07 06:34:19.73	357.36	14.44	-25.6	-26.7	15.1	3.10e-04	0	43	102	1048576	10	4120
2026-01-07 06:34:20.74	357.20	14.51	-25.4	-26.4	15.3	1.73e-03	0	43	102	1048576	10	4043
2026-01-07 06:34:21.75	357.05	14.58	-25.4	-26.3	15.4	1.60e-03	0	43	102	1048576	10	4002
2026-01-07 06:34:22.75	356.89	14.66	-25.3	-26.1	15.5	3.16e-04	0	43	102	1048576	10	3959
2026-01-07 06:34:23.76	356.74	14.73	-25.3	-26.1	15.5	1.49e-03	0	43	102	1048576	10	3945
2026-01-07 06:34:24.76	356.58	14.80	-25.2	-25.9	15.6	0.00e+00	0	43	102	1048576	10	3906
2026-01-07 06:34:25.77	356.42	14.87	-25.2	-25.9	15.6	2.36e-04	0	43	102	1048576	10	3894
2026-01-07 06:34:26.77	356.27	14.94	-25.2	-25.9	15.6	1.64e-03	0	43	102	1048576	10	3918
2026-01-07 06:34:27.78	356.11	15.01	-25.1	-25.8	15.7	1.51e-03	0	43	102	1048576	10	3876
2026-01-07 06:34:28.79	355.95	15.08	-25.0	-26.1	15.8	1.21e-04	0	43	102	1048576	9	4063
2026-01-07 06:34:29.79	355.79	15.15	-25.0	-25.5	15.8	0.00e+00	0	43	102	1048576	10	3821
2026-01-07 06:34:30.80	355.63	15.22	-25.1	-25.6	15.8	1.42e-03	0	43	102	1048576	10	3846
2026-01-07 06:34:31.81	355.46	15.29	-25.3	-26.1	15.5	1.20e-04	0	43	102	1048576	10	3943
2026-01-07 06:34:32.82	355.30	15.37	-25.1	-25.8	15.7	1.04e-03	0	43	102	1048576	10	3873
2026-01-07 06:34:33.82	355.14	15.44	-25.0	-25.6	15.8	1.43e-03	0	43	102	1048576	10	3823
2026-01-07 06:34:34.82	354.97	15.51	-25.1	-25.6	15.8	0.00e+00	0	43	102	1048576	10	3837
2026-01-07 06:34:35.83	354.81	15.58	-25.2	-26.0	15.6	1.11e-03	0	43	102	1048576	10	3933
2026-01-07 06:34:36.84	354.64	15.65	-25.3	-26.0	15.6	0.00e+00	0	43	102	1048576	10	3934
2026-01-07 06:34:37.85	354.47	15.72	-25.2	-25.8	15.7	0.00e+00	0	43	102	1048576	10	3890
2026-01-07 06:34:38.86	354.31	15.79	-25.1	-25.7	15.8	1.08e-03	0	43	102	1048576	10	3846
2026-01-07 06:34:39.86	354.14	15.86	-25.2	-26.0	15.6	0.00e+00	0	43	102	1048576	10	3926
2026-01-07 06:34:40.87	353.97	15.93	-25.4	-26.4	15.4	0.00e+00	0	43	102	1048576	10	4025
2026-01-07 06:34:41.88	353.80	16.00	-25.2	-26.0	15.6	0.00e+00	0	43	102	1048576	10	3924
2026-01-07 06:34:42.88	353.63	16.07	-25.2	-25.9	15.7	0.00e+00	0	43	102	1048576	10	3908
2026-01-07 06:34:43.89	353.46	16.14	-25.1	-25.8	15.7	0.00e+00	0	43	102	1048576	10	3869
2026-01-07 06:34:44.90	353.28	16.21	-25.3	-26.2	15.5	0.00e+00	0	43	102	1048576	10	3971
2026-01-07 06:34:45.91	353.11	16.28	-25.2	-25.8	15.7	0.00e+00	0	43	102	1048576	10	3890
2026-01-07 06:34:46.91	352.94	16.35	-25.4	-26.4	15.4	0.00e+00	0	43	102	1048576	10	4033
2026-01-07 06:34:47.92	352.76	16.43	-25.2	-25.9	15.7	0.00e+00	0	43	102	1048576	10	3918
2026-01-07 06:34:48.93	352.58	16.50	-25.0	-25.5	15.9	0.00e+00	0	43	102	1048576	10	3804
2026-01-07 06:34:49.94	352.41	16.57	-24.8	-25.1	16.1	0.00e+00	0	43	102	1048576	10	3713
2026-01-07 06:34:50.95	352.23	16.64	-24.7	-25.4	16.2	0.00e+00	0	43	102	1048576	9	3884
2026-01-07 06:34:51.95	352.05	16.71	-24.6	-25.2	16.3	0.00e+00	0	43	102	1048576	9	3852
2026-01-07 06:34:52.96	351.87	16.78	-24.6	-25.2	16.3	0.00e+00	0	43	102	1048576	9	3849
2026-01-07 06:34:53.97	351.69	16.85	-24.6	-25.2	16.3	0.00e+00	0	43	102	1048576	9	3830
2026-01-07 06:34:54.97	351.51	16.91	-24.7	-25.3	16.3	0.00e+00	0	43	102	1048576	9	3870
2026-01-07 06:34:55.98	351.33	16.98	-24.6	-25.1	16.4	0.00e+00	0	43	102	1048576	9	3815
2026-01-07 06:34:56.98	351.15	17.05	-24.5	-24.9	16.5	0.00e+00	0	43	102	1048576	9	3776
2026-01-07 06:34:57.99	350.96	17.12	-24.7	-25.2	16.3	0.00e+00	0	43	102	1048576	9	3852
2026-01-07 06:34:59.00	350.78	17.19	-24.5	-24.9	16.5	0.00e+00	0	43	102	1048576	9	3762
2026-01-07 06:35:00.00	350.59	17.26	-24.4	-25.2	16.6	0.00e+00	0	43	102	1048576	8	3936
2026-01-07 06:35:01.00	350.41	17.33	-24.3	-25.0	16.7	0.00e+00	0	43	102	1048576	8	3887
2026-01-07 06:35:02.01	350.22	17.40	-24.2	-24.8	16.8	0.00e+00	0	43	102	1048576	8	3862
2026-01-07 06:35:03.02	350.03	17.47	-24.3	-24.9	16.8	0.00e+00	0	43	102	1048576	8	3877
2026-01-07 06:35:04.03	349.84	17.54	-24.6	-25.6	16.4	0.00e+00	0	43	102	1048576	8	4053
2026-01-07 06:35:05.03	349.65	17.60	-24.4	-24.8	16.6	0.00e+00	0	43	102	1048576	9	3739
2026-01-07 06:35:06.04	349.46	17.67	-24.5	-24.9	16.5	0.00e+00	0	43	102	1048576	9	3782
2026-01-07 06:35:07.04	349.27	17.74	-24.5	-25.0	16.5	0.00e+00	0	43	102	1048576	9	3794
2026-01-07 06:35:08.06	349.08	17.81	-24.6	-25.1	16.4	0.00e+00	0	43	102	1048576	9	3822
2026-01-07 06:35:09.06	348.89	17.88	-24.7	-25.3	16.4	0.00e+00	0	43	102	1048576	9	3853
2026-01-07 06:35:10.07	348.69	17.95	-24.8	-25.5	16.2	0.00e+00	0	44	102	1048576	9	3920
2026-01-07 06:35:11.07	348.50	18.01	-24.7	-25.3	16.3	0.00e+00	0	43	102	1048576	9	3871
2026-01-07 06:35:12.08	348.30	18.08	-24.7	-25.3	16.4	0.00e+00	0	43	102	1048576	9	3853
2026-01-07 06:35:13.08	348.10	18.15	-24.6	-25.0	16.5	0.00e+00	0	43	102	1048576	9	3804
2026-01-07 06:35:14.09	347.91	18.21	-24.6	-25.0	16.5	0.00e+00	0	43	102	1048576	9	3804
2026-01-07 06:35:15.09	347.71	18.28	-24.5	-24.9	16.6	0.00e+00	0	43	102	1048576	9	3768
2026-01-07 06:35:16.09	347.51	18.35	-24.5	-24.9	16.6	0.00e+00	0	43	102	1048576	9	3769
2026-01-07 06:35:17.10	347.31	18.41	-24.3	-24.5	16.8	0.00e+00	0	43	102	1048576	9	3672
2026-01-07 06:35:18.11	347.11	18.48	-24.2	-24.4	16.8	0.00e+00	0	43	102	1048576	9	3650
2026-01-07 06:35:19.12	346.91	18.55	-24.2	-24.3	16.9	0.00e+00	0	43	102	1048576	9	3642
2026-01-07 06:35:20.12	346.70	18.61	-24.1	-24.0	17.0	0.00e+00	0	43	102	1048576	9	3575
2026-01-07 06:35:21.13	346.50	18.68	-24.1	-24.0	17.0	0.00e+00	0	43	102	1048576	9	3572
2026-01-07 06:35:22.14	346.29	18.74	-24.2	-24.7	16.9	0.00e+00	0	43	102	1048576	8	3824
2026-01-07 06:35:23.14	346.09	18.81	-24.0	-24.4	17.1	0.00e+00	0	43	102	1048576	8	3764
2026-01-07 06:35:24.15	345.88	18.87	-24.2	-24.7	16.9	0.00e+00	0	43	102	1048576	8	3832
2026-01-07 06:35:25.16	345.67	18.94	-24.2	-24.8	16.9	0.00e+00	0	43	102	1048576	8	3851
2026-01-07 06:35:26.16	345.47	19.00	-24.3	-25.0	16.8	0.00e+00	0	44	102	1048576	8	3905
2026-01-07 06:35:27.17	345.26	19.07	-24.5	-25.4	16.6	0.00e+00	0	43	102	1048576	8	4000
2026-01-07 06:35:28.18	345.05	19.13	-24.4	-25.2	16.7	0.00e+00	0	43	102	1048576	8	3952
2026-01-07 06:35:29.18	344.84	19.20	-24.5	-25.3	16.6	0.00e+00	0	43	102	1048576	8	3978
2026-01-07 06:35:30.19	344.62	19.26	-24.5	-25.4	16.6	1.48e-03	0	44	102	1048576	8	3984
2026-01-07 06:35:31.19	344.41	19.32	-24.5	-25.5	16.6	0.00e+00	0	43	102	1048576	8	4005
2026-01-07 06:35:32.20	344.20	19.39	-24.5	-25.4	16.6	1.57e-03	0	43	102	1048576	8	4007
2026-01-07 06:35:33.20	343.99	19.45	-24.7	-25.2	16.4	0.00e+00	0	43	102	1048576	9	3849
2026-01-07 06:35:34.21	343.77	19.51	-24.9	-25.8	16.1	0.00e+00	0	44	102	1048576	9	3995
2026-01-07 06:35:35.22	343.55	19.58	-24.5	-24.8	16.6	1.57e-03	0	43	102	1048576	9	3756
2026-01-07 06:35:36.21	343.34	19.64	-24.3	-24.9	16.9	0.00e+00	0	44	102	1048576	8	3872
2026-01-07 06:35:37.22	343.12	19.70	-24.1	-24.7	17.0	0.00e+00	0	43	102	1048576	8	3817
2026-01-07 06:35:38.22	342.90	19.76	-24.2	-24.8	16.9	8.86e-04	0	43	102	1048576	8	3840
2026-01-07 06:35:39.23	342.68	19.82	-24.2	-24.8	16.9	1.82e-03	0	43	102	1048576	8	3842
2026-01-07 06:35:40.23	342.46	19.88	-24.1	-24.6	17.0	0.00e+00	0	43	102	1048576	8	3800
2026-01-07 06:35:41.24	342.24	19.94	-24.1	-24.5	17.1	0.00e+00	0	43	102	1048576	8	3789
2026-01-07 06:35:42.25	342.02	20.00	-24.1	-24.5	17.1	1.70e-03	0	44	102	1048576	8	3788
2026-01-07 06:35:43.26	341.79	20.07	-24.0	-24.3	17.2	0.00e+00	0	43	102	1048576	8	3736
2026-01-07 06:35:44.26	341.57	20.12	-24.0	-24.4	17.2	1.63e-03	0	44	102	1048576	8	3760
2026-01-07 06:35:45.27	341.34	20.18	-24.0	-24.4	17.1	1.93e-03	0	43	102	1048576	8	3755
2026-01-07 06:35:46.27	341.12	20.24	-24.0	-24.3	17.2	0.00e+00	0	43	102	1048576	8	3741
2026-01-07 06:35:47.28	340.89	20.30	-24.0	-24.3	17.2	1.86e-03	0	43	102	1048576	8	3730
2026-01-07 06:35:48.29	340.66	20.36	-24.0	-24.3	17.2	1.84e-03	0	43	102	1048576	8	3726
2026-01-07 06:35:49.29	340.43	20.42	-24.1	-24.5	17.1	0.00e+00	0	43	102	1048576	8	3785
2026-01-07 06:35:50.30	340.20	20.48	-24.1	-24.5	17.1	1.78e-03	0	43	102	1048576	8	3783
2026-01-07 06:35:51.31	339.97	20.53	-24.1	-24.5	17.1	0.00e+00	0	43	102	1048576	8	3785
2026-01-07 06:35:52.32	339.74	20.59	-24.0	-24.4	17.2	0.00e+00	0	44	102	1048576	8	3758
2026-01-07 06:35:53.33	339.51	20.65	-24.0	-24.4	17.1	0.00e+00	0	43	102	1048576	8	3758
2026-01-07 06:35:54.34	339.27	20.71	-23.8	-24.5	17.3	1.87e-03	0	44	102	1048576	7	3871
2026-01-07 06:35:55.34	339.04	20.76	-23.9	-24.6	17.3	0.00e+00	0	43	102	1048576	7	3903
2026-01-07 06:35:56.35	338.80	20.82	-23.8	-24.5	17.3	0.00e+00	0	43	102	1048576	7	3880
2026-01-07 06:35:57.35	338.57	20.87	-23.9	-24.6	17.3	1.80e-03	0	43	102	1048576	7	3908
2026-01-07 06:35:58.36	338.33	20.93	-24.0	-24.7	17.2	0.00e+00	0	43	102	1048576	7	3937
2026-01-07 06:35:59.37	338.09	20.98	-23.9	-24.7	17.3	0.00e+00	0	43	102	1048576	7	3934
2026-01-07 06:36:00.37	337.86	21.04	-23.8	-24.4	17.4	0.00e+00	0	43	102	1048576	7	3847
2026-01-07 06:36:01.38	337.62	21.09	-23.8	-24.3	17.4	0.00e+00	0	43	102	1048576	7	3848
2026-01-07 06:36:02.39	337.37	21.14	-23.8	-24.3	17.4	0.00e+00	0	43	102	1048576	7	3839
2026-01-07 06:36:03.39	337.14	21.19	-23.6	-24.0	17.6	0.00e+00	0	43	102	1048576	7	3769
2026-01-07 06:36:04.41	336.89	21.25	-23.6	-23.9	17.7	0.00e+00	0	43	102	1048576	7	3745
2026-01-07 06:36:05.41	336.65	21.30	-23.7	-24.1	17.6	0.00e+00	0	43	102	1048576	7	3799
2026-01-07 06:36:06.42	336.41	21.35	-23.8	-24.4	17.4	0.00e+00	0	43	102	1048576	7	3849
2026-01-07 06:36:07.43	336.16	21.40	-23.9	-24.6	17.3	0.00e+00	0	44	102	1048576	7	3899
2026-01-07 06:36:08.43	335.92	21.45	-23.9	-24.6	17.3	0.00e+00	0	44	102	1048576	7	3915
2026-01-07 06:36:09.44	335.67	21.50	-23.9	-24.6	17.3	0.00e+00	0	43	102	1048576	7	3900
2026-01-07 06:36:10.45	335.42	21.55	-23.9	-24.7	17.3	0.00e+00	0	44	102	1048576	7	3938
2026-01-07 06:36:11.46	335.17	21.60	-23.9	-24.7	17.3	0.00e+00	0	44	102	1048576	7	3922
2026-01-07 06:36:12.46	334.93	21.65	-23.9	-24.7	17.3	0.00e+00	0	43	102	1048576	7	3924
2026-01-07 06:36:13.47	334.68	21.70	-24.0	-24.9	17.1	0.00e+00	0	43	102	1048576	7	3978
2026-01-07 06:36:14.47	334.43	21.75	-24.1	-24.5	17.1	0.00e+00	0	43	102	1048576	8	3782
2026-01-07 06:36:15.48	334.18	21.79	-23.7	-23.7	17.5	0.00e+00	0	44	102	1048576	8	3602
2026-01-07 06:36:16.49	333.93	21.84	-23.5	-23.4	17.7	0.00e+00	0	44	102	1048576	8	3523
2026-01-07 06:36:17.50	333.67	21.89	-23.5	-23.8	17.7	0.00e+00	0	43	102	1048576	7	3721
2026-01-07 06:36:18.51	333.42	21.93	-23.6	-23.9	17.7	0.00e+00	0	44	102	1048576	7	3750
2026-01-07 06:36:19.51	333.17	21.98	-23.5	-23.8	17.7	0.00e+00	0	43	102	1048576	7	3716
2026-01-07 06:36:20.52	332.91	22.02	-23.6	-24.0	17.7	0.00e+00	0	44	102	1048576	7	3766
2026-01-07 06:36:21.52	332.66	22.07	-23.5	-23.7	17.8	0.00e+00	0	43	102	1048576	7	3707
2026-01-07 06:36:22.53	332.40	22.11	-23.3	-23.3	18.0	0.00e+00	0	43	102	1048576	7	3604
2026-01-07 06:36:23.53	332.15	22.15	-23.2	-23.7	18.0	0.00e+00	0	44	102	1048576	6	3800
2026-01-07 06:36:24.54	331.89	22.20	-23.3	-23.8	18.0	0.00e+00	0	43	102	1048576	6	3833
2026-01-07 06:36:25.55	331.63	22.24	-23.4	-24.1	17.8	0.00e+00	0	44	102	1048576	6	3884
2026-01-07 06:36:26.56	331.37	22.28	-23.3	-23.8	18.0	0.00e+00	0	43	102	1048576	6	3830
2026-01-07 06:36:27.56	331.11	22.32	-23.4	-24.1	17.8	0.00e+00	0	43	102	1048576	6	3894
2026-01-07 06:36:28.57	330.85	22.36	-23.5	-24.2	17.8	0.00e+00	0	44	102	1048576	6	3917
2026-01-07 06:36:29.58	330.59	22.40	-23.4	-24.2	17.8	0.00e+00	0	44	102	1048576	6	3906
2026-01-07 06:36:30.58	330.33	22.44	-23.5	-24.3	17.8	0.00e+00	0	44	102	1048576	6	3940
2026-01-07 06:36:31.59	330.06	22.48	-23.7	-24.1	17.6	0.00e+00	0	44	102	1048576	7	3791
2026-01-07 06:36:32.60	329.80	22.52	-23.7	-24.2	17.5	0.00e+00	0	43	102	1048576	7	3824
2026-01-07 06:36:33.60	329.54	22.55	-23.8	-24.3	17.5	0.00e+00	0	43	102	1048576	7	3833
2026-01-07 06:36:34.61	329.27	22.59	-23.8	-24.3	17.5	0.00e+00	0	43	102	1048576	7	3848
2026-01-07 06:36:35.61	329.01	22.63	-23.7	-24.2	17.5	0.00e+00	0	43	102	1048576	7	3817
2026-01-07 06:36:36.62	328.74	22.66	-23.7	-24.3	17.5	0.00e+00	0	43	102	1048576	7	3829
2026-01-07 06:36:37.63	328.48	22.70	-23.7	-24.2	17.6	0.00e+00	0	43	102	1048576	7	3816
2026-01-07 06:36:38.64	328.21	22.73	-23.7	-24.2	17.6	0.00e+00	0	43	102	1048576	7	3806
2026-01-07 06:36:39.64	327.94	22.76	-23.8	-24.4	17.5	0.00e+00	0	43	102	1048576	7	3849
2026-01-07 06:36:40.65	327.68	22.80	-23.7	-24.2	17.5	0.00e+00	0	43	102	1048576	7	3810
2026-01-07 06:36:41.66	327.41	22.83	-23.5	-23.8	17.8	0.00e+00	0	43	102	1048576	7	3713
2026-01-07 06:36:42.66	327.14	22.86	-23.4	-23.5	17.9	0.00e+00	0	43	102	1048576	7	3664
2026-01-07 06:36:43.67	326.87	22.89	-22.9	-23.1	17.5	0.00e+00	0	43	102	1048576	7	3691
2026-01-07 06:36:44.68	326.60	22.92	-23.3	-23.9	13.1	0.00e+00	0	44	102	1048576	6	3842
2026-01-07 06:36:45.69	326.33	22.95	-23.2	-23.6	17.8	0.00e+00	0	43	102	1048576	6	3773
2026-01-07 06:36:46.70	326.05	22.98	-23.3	-23.9	17.9	0.00e+00	0	43	102	1048576	6	3852
2026-01-07 06:36:47.70	325.78	23.01	-23.4	-24.0	17.9	0.00e+00	0	43	102	1048576	6	3862
2026-01-07 06:36:48.71	325.51	23.04	-23.2	-23.7	18.0	2.59e-04	0	43	102	1048576	6	3808
2026-01-07 06:36:49.72	325.24	23.07	-23.3	-23.7	18.0	0.00e+00	0	43	102	1048576	6	3811
2026-01-07 06:36:50.72	324.97	23.09	-23.3	-23.9	17.9	9.55e-04	0	43	102	1048576	6	3847
2026-01-07 06:36:51.73	324.69	23.12	-23.5	-24.3	17.8	0.00e+00	0	43	102	1048576	6	3949
2026-01-07 06:36:52.74	324.42	23.14	-23.5	-23.7	17.8	0.00e+00	0	43	102	1048576	7	3704
2026-01-07 06:36:53.74	324.14	23.17	-23.5	-23.8	17.7	3.84e-04	0	43	102	1048576	7	3730
2026-01-07 06:36:54.75	323.87	23.19	-23.5	-24.3	17.8	0.00e+00	0	44	102	1048576	6	3936
2026-01-07 06:36:55.75	323.60	23.22	-23.4	-23.7	17.8	8.18e-04	0	44	102	1048576	7	3686
2026-01-07 06:36:56.76	323.32	23.24	-23.6	-24.0	17.7	1.71e-05	0	44	102	1048576	7	3757
2026-01-07 06:36:57.77	323.04	23.26	-23.8	-24.4	17.5	2.85e-04	0	44	102	1048576	7	3851
2026-01-07 06:36:58.78	322.76	23.28	-23.6	-24.1	17.7	1.28e-03	0	44	102	1048576	7	3780
2026-01-07 06:36:59.79	322.49	23.30	-23.4	-23.6	17.9	0.00e+00	0	43	102	1048576	7	3672
2026-01-07 06:37:00.79	322.21	23.32	-23.3	-23.9	18.0	2.80e-04	0	43	102	1048576	6	3850
2026-01-07 06:37:01.80	321.93	23.34	-23.3	-23.9	18.0	1.41e-03	0	44	102	1048576	6	3857
2026-01-07 06:37:02.81	321.65	23.36	-23.3	-23.9	17.9	1.38e-03	0	44	102	1048576	6	3858
2026-01-07 06:37:03.82	321.37	23.38	-23.5	-24.2	17.8	8.46e-04	0	43	102	1048576	6	3924
2026-01-07 06:37:04.82	321.10	23.39	-23.3	-23.8	18.0	1.14e-03	0	44	102	1048576	6	3814
2026-01-07 06:37:05.83	320.82	23.41	-23.3	-23.8	18.1	1.19e-03	0	44	102	1048576	6	3816
2026-01-07 06:37:06.84	320.54	23.42	-23.2	-23.7	18.1	0.00e+00	0	43	102	1048576	6	3806
2026-01-07 06:37:07.85	320.26	23.44	-23.4	-24.0	17.9	9.50e-04	0	44	102	1048576	6	3878
2026-01-07 06:37:08.85	319.98	23.45	-23.3	-23.9	18.0	1.19e-03	0	43	102	1048576	6	3849
2026-01-07 06:37:09.86	319.70	23.47	-23.3	-23.9	18.0	2.04e-04	0	44	102	1048576	6	3845
2026-01-07 06:37:10.86	319.42	23.48	-23.3	-23.8	18.0	1.52e-03	0	43	102	1048576	6	3820
2026-01-07 06:37:11.87	319.14	23.49	-23.2	-23.7	18.1	0.00e+00	0	44	102	1048576	6	3796
2026-01-07 06:37:12.88	318.86	23.50	-23.2	-23.7	18.0	4.31e-04	0	43	102	1048576	6	3799
2026-01-07 06:37:13.88	318.58	23.51	-23.4	-24.0	17.9	0.00e+00	0	44	102	1048576	6	3876
2026-01-07 06:37:14.89	318.30	23.52	-23.3	-23.8	18.0	0.00e+00	0	43	102	1048576	6	3821
2026-01-07 06:37:15.90	318.01	23.53	-23.2	-23.7	18.1	7.79e-04	0	44	102	1048576	6	3803
2026-01-07 06:37:16.91	317.73	23.54	-23.3	-23.8	18.0	0.00e+00	0	43	102	1048576	6	3827
2026-01-07 06:37:17.92	317.45	23.55	-23.5	-24.2	17.8	1.69e-03	0	43	102	1048576	6	3920
2026-01-07 06:37:18.93	317.17	23.55	-23.4	-24.1	17.8	0.00e+00	0	43	102	1048576	6	3900
2026-01-07 06:37:19.94	316.88	23.56	-23.4	-24.0	17.9	0.00e+00	0	43	102	1048576	6	3861
2026-01-07 06:37:20.95	316.60	23.56	-23.5	-24.2	17.8	0.00e+00	0	43	102	1048576	6	3923
2026-01-07 06:37:21.95	316.32	23.57	-23.5	-24.2	17.8	0.00e+00	0	43	102	1048576	6	3925
2026-01-07 06:37:22.96	316.04	23.57	-23.6	-24.4	17.7	0.00e+00	0	44	102	1048576	6	3978
2026-01-07 06:37:23.97	315.75	23.57	-23.6	-23.9	17.7	0.00e+00	0	44	102	1048576	7	3749
2026-01-07 06:37:24.98	315.47	23.58	-23.6	-23.9	17.7	0.00e+00	0	44	102	1048576	7	3739
2026-01-07 06:37:25.98	315.19	23.58	-23.5	-23.8	17.7	0.00e+00	0	44	102	1048576	7	3731
2026-01-07 06:37:26.99	314.91	23.58	-23.5	-23.7	17.8	0.00e+00	0	44	102	1048576	7	3706
2026-01-07 06:37:28.00	314.62	23.58	-23.4	-24.1	17.8	0.00e+00	0	44	102	1048576	6	3897
2026-01-07 06:37:29.01	314.34	23.58	-23.5	-24.2	17.8	0.00e+00	0	43	102	1048576	6	3919
2026-01-07 06:37:30.01	314.06	23.57	-23.5	-24.2	17.8	0.00e+00	0	44	102	1048576	6	3911
2026-01-07 06:37:31.02	313.78	23.57	-23.4	-24.0	17.9	0.00e+00	0	44	102	1048576	6	3861
2026-01-07 06:37:32.03	313.50	23.57	-23.3	-23.9	18.0	0.00e+00	0	43	102	1048576	6	3837
2026-01-07 06:37:33.03	313.22	23.56	-23.4	-24.1	17.9	0.00e+00	0	44	102	1048576	6	3887
2026-01-07 06:37:34.04	312.93	23.56	-23.2	-23.7	18.1	0.00e+00	0	44	102	1048576	6	3789
2026-01-07 06:37:35.05	312.65	23.55	-23.2	-23.7	18.1	0.00e+00	0	43	102	1048576	6	3796
2026-01-07 06:37:36.05	312.37	23.55	-23.4	-24.1	17.9	0.00e+00	0	44	102	1048576	6	3886
2026-01-07 06:37:37.06	312.09	23.54	-23.3	-23.8	18.0	0.00e+00	0	44	102	1048576	6	3823
2026-01-07 06:37:38.07	311.80	23.53	-23.4	-24.1	17.9	0.00e+00	0	44	102	1048576	6	3886
2026-01-07 06:37:39.08	311.52	23.52	-23.3	-23.8	18.0	0.00e+00	0	44	102	1048576	6	3820
2026-01-07 06:37:40.08	311.24	23.52	-23.3	-23.8	18.0	0.00e+00	0	44	102	1048576	6	3818
2026-01-07 06:37:41.09	310.96	23.51	-23.3	-23.8	18.0	0.00e+00	0	44	102	1048576	6	3829
2026-01-07 06:37:42.10	310.68	23.50	-23.4	-24.0	17.9	0.00e+00	0	44	102	1048576	6	3883
2026-01-07 06:37:43.10	310.40	23.48	-23.3	-23.8	18.0	0.00e+00	0	44	102	1048576	6	3830
2026-01-07 06:37:44.10	310.12	23.47	-23.2	-23.7	18.1	0.00e+00	0	43	102	1048576	6	3802
2026-01-07 06:37:45.11	309.84	23.46	-23.4	-24.0	17.9	0.00e+00	0	43	102	1048576	6	3870
2026-01-07 06:37:46.12	309.56	23.45	-23.6	-24.0	17.7	0.00e+00	0	44	102	1048576	7	3759
2026-01-07 06:37:47.12	309.28	23.43	-23.4	-23.6	17.8	0.00e+00	0	44	102	1048576	7	3683
2026-01-07 06:37:48.13	309.00	23.42	-23.4	-23.5	17.9	0.00e+00	0	43	102	1048576	7	3646
2026-01-07 06:37:49.14	308.72	23.40	-23.3	-23.3	18.0	0.00e+00	0	44	102	1048576	7	3608
2026-01-07 06:37:50.14	308.44	23.38	-23.4	-24.0	17.9	0.00e+00	0	44	102	1048576	6	3874
2026-01-07 06:37:51.14	308.17	23.37	-23.2	-23.6	18.1	0.00e+00	0	44	102	1048576	6	3771
2026-01-07 06:37:52.15	307.89	23.35	-23.2	-23.7	18.0	0.00e+00	0	44	102	1048576	6	3800
2026-01-07 06:37:53.16	307.61	23.33	-23.3	-23.8	18.0	0.00e+00	0	43	102	1048576	6	3832
2026-01-07 06:37:54.16	307.33	23.31	-23.4	-24.0	17.9	0.00e+00	0	44	102	1048576	6	3870
2026-01-07 06:37:55.17	307.05	23.29	-23.2	-23.7	18.0	0.00e+00	0	44	102	1048576	6	3803
2026-01-07 06:37:56.18	306.78	23.27	-23.3	-23.8	18.0	0.00e+00	0	43	102	1048576	6	3830
2026-01-07 06:37:57.19	306.50	23.25	-23.3	-23.9	18.0	0.00e+00	0	44	102	1048576	6	3846
2026-01-07 06:37:58.20	306.22	23.23	-23.3	-23.9	17.9	0.00e+00	0	44	102	1048576	6	3836
2026-01-07 06:37:59.20	305.95	23.20	-23.3	-23.9	17.9	0.00e+00	0	44	102	1048576	6	3846
2026-01-07 06:38:00.21	305.67	23.18	-23.4	-24.1	17.9	0.00e+00	0	43	102	1048576	6	3886
2026-01-07 06:38:01.22	305.39	23.15	-22.8	-23.3	16.0	0.00e+00	0	43	102	1048576	6	3838
2026-01-07 06:38:02.23	305.12	23.13	-23.3	-23.9	13.2	0.00e+00	0	43	102	1048576	6	3839
2026-01-07 06:38:03.24	304.84	23.10	-23.3	-23.9	17.7	0.00e+00	0	44	102	1048576	6	3849
2026-01-07 06:38:04.24	304.57	23.08	-23.3	-23.8	17.8	0.00e+00	0	44	102	1048576	6	3819
2026-01-07 06:38:05.25	304.30	23.05	-23.4	-24.0	17.9	0.00e+00	0	43	102	1048576	6	3876
2026-01-07 06:38:06.26	304.02	23.02	-23.4	-24.0	17.9	0.00e+00	0	44	102	1048576	6	3869
2026-01-07 06:38:07.26	303.75	22.99	-23.3	-23.9	17.9	5.48e-04	0	43	102	1048576	6	3846
2026-01-07 06:38:08.26	303.48	22.97	-23.3	-23.9	17.9	0.00e+00	0	44	102	1048576	6	3849
2026-01-07 06:38:09.26	303.21	22.94	-23.4	-24.0	17.9	0.00e+00	0	44	102	1048576	6	3875
2026-01-07 06:38:10.27	302.94	22.91	-23.3	-23.8	18.0	0.00e+00	0	43	102	1048576	6	3821
2026-01-07 06:38:11.28	302.67	22.88	-23.3	-23.8	18.0	1.99e-03	0	44	102	1048576	6	3830
2026-01-07 06:38:12.28	302.40	22.84	-23.4	-24.0	17.9	7.61e-04	0	43	102	1048576	6	3863
2026-01-07 06:38:13.29	302.13	22.81	-23.6	-23.9	17.7	0.00e+00	0	44	102	1048576	7	3743
2026-01-07 06:38:14.30	301.86	22.78	-23.3	-23.8	18.0	1.62e-03	0	44	102	1048576	6	3824
2026-01-07 06:38:15.31	301.59	22.74	-23.2	-23.7	18.0	0.00e+00	0	43	102	1048576	6	3793
2026-01-07 06:38:16.31	301.33	22.71	-23.2	-23.7	18.0	1.72e-03	0	44	102	1048576	6	3800
2026-01-07 06:38:17.32	301.06	22.68	-23.2	-23.7	18.0	1.83e-03	0	43	102	1048576	6	3806
2026-01-07 06:38:18.33	300.79	22.64	-23.4	-24.0	17.9	3.51e-04	0	44	102	1048576	6	3868
2026-01-07 06:38:19.34	300.53	22.60	-23.3	-23.9	17.9	2.01e-03	0	43	102	1048576	6	3860
2026-01-07 06:38:20.34	300.26	22.57	-23.2	-23.6	18.1	1.84e-03	0	44	102	1048576	6	3770
2026-01-07 06:38:21.35	300.00	22.53	-23.3	-23.8	18.0	3.15e-04	0	44	102	1048576	6	3822
2026-01-07 06:38:22.36	299.73	22.49	-23.3	-23.9	17.9	1.81e-03	0	43	102	1048576	6	3844
2026-01-07 06:38:23.36	299.47	22.45	-23.1	-23.5	18.1	1.82e-03	0	43	102	1048576	6	3761
2026-01-07 06:38:24.37	299.21	22.42	-23.2	-23.7	18.0	2.05e-04	0	44	102	1048576	6	3805
2026-01-07 06:38:25.38	298.95	22.38	-23.2	-23.7	18.0	0.00e+00	0	43	102	1048576	6	3794
2026-01-07 06:38:26.39	298.69	22.34	-23.3	-23.9	17.9	1.91e-03	0	43	102	1048576	6	3844
2026-01-07 06:38:27.39	298.43	22.30	-23.3	-23.9	17.9	0.00e+00	0	44	102	1048576	6	3854
2026-01-07 06:38:28.40	298.17	22.25	-23.1	-23.5	18.1	0.00e+00	0	43	102	1048576	6	3754
2026-01-07 06:38:29.41	297.91	22.21	-23.0	-23.3	18.2	1.66e-03	0	44	102	1048576	6	3711
2026-01-07 06:38:30.41	297.65	22.17	-23.0	-23.3	18.2	0.00e+00	0	44	102	1048576	6	3710
2026-01-07 06:38:31.42	297.39	22.13	-23.0	-23.3	18.2	1.75e-03	0	44	102	1048576	6	3706
2026-01-07 06:38:32.43	297.13	22.08	-23.1	-23.4	18.1	0.00e+00	0	44	102	1048576	6	3741
2026-01-07 06:38:33.44	296.88	22.04	-23.1	-23.5	18.1	0.00e+00	0	44	102	1048576	6	3750
2026-01-07 06:38:34.44	296.62	21.99	-23.2	-23.7	18.0	0.00e+00	0	44	102	1048576	6	3795
2026-01-07 06:38:35.45	296.37	21.95	-23.2	-23.6	18.1	0.00e+00	0	43	102	1048576	6	3773
2026-01-07 06:38:36.45	296.11	21.90	-23.2	-23.6	18.0	0.00e+00	0	44	102	1048576	6	3786
2026-01-07 06:38:37.46	295.86	21.86	-23.2	-23.7	18.0	0.00e+00	0	43	102	1048576	6	3798
2026-01-07 06:38:38.46	295.61	21.81	-23.3	-23.8	17.9	0.00e+00	0	44	102	1048576	6	3831
2026-01-07 06:38:39.47	295.36	21.76	-23.4	-24.0	17.8	0.00e+00	0	43	102	1048576	6	3877
2026-01-07 06:38:40.47	295.11	21.72	-23.4	-24.1	17.7	0.00e+00	0	44	102	1048576	6	3904
2026-01-07 06:38:41.48	294.86	21.67	-23.4	-23.7	17.7	0.00e+00	0	43	102	1048576	7	3693
2026-01-07 06:38:42.49	294.61	21.62	-23.4	-23.5	17.8	0.00e+00	0	44	102	1048576	7	3657
2026-01-07 06:38:43.50	294.36	21.57	-23.4	-24.0	17.8	0.00e+00	0	44	102	1048576	6	3874
2026-01-07 06:38:44.50	294.11	21.52	-23.6	-24.0	17.6	0.00e+00	0	44	102	1048576	7	3759
2026-01-07 06:38:45.50	293.87	21.47	-23.7	-24.2	17.4	0.00e+00	0	44	102	1048576	7	3818
2026-01-07 06:38:46.51	293.62	21.42	-23.9	-24.6	17.2	0.00e+00	0	43	102	1048576	7	3913
2026-01-07 06:38:47.51	293.37	21.37	-23.5	-23.8	17.4	0.00e+00	0	44	102	1048576	7	3716
2026-01-07 06:38:48.52	293.13	21.32	-23.4	-23.5	17.8	0.00e+00	0	43	102	1048576	7	3662
2026-01-07 06:38:49.53	292.88	21.27	-23.4	-23.5	17.8	0.00e+00	0	43	102	1048576	7	3663
2026-01-07 06:38:50.53	292.64	21.21	-23.5	-23.7	17.7	0.00e+00	0	44	102	1048576	7	3698
2026-01-07 06:38:51.54	292.40	21.16	-23.6	-24.5	17.5	0.00e+00	0	44	102	1048576	6	3982
2026-01-07 06:38:52.54	292.16	21.11	-23.6	-24.1	17.5	0.00e+00	0	44	102	1048576	7	3791
2026-01-07 06:38:53.55	291.92	21.05	-23.7	-24.1	17.5	0.00e+00	0	44	102	1048576	7	3795
2026-01-07 06:38:54.56	291.68	21.00	-23.6	-24.0	17.5	0.00e+00	0	43	102	1048576	7	3765
2026-01-07 06:38:55.56	291.44	20.95	-23.6	-24.0	17.5	0.00e+00	0	44	102	1048576	7	3768
2026-01-07 06:38:56.57	291.20	20.89	-23.5	-23.9	17.6	0.00e+00	0	44	102	1048576	7	3734
2026-01-07 06:38:57.58	290.96	20.84	-23.3	-23.4	17.8	0.00e+00	0	44	102	1048576	7	3639
2026-01-07 06:38:58.59	290.73	20.78	-23.4	-23.5	17.8	0.00e+00	0	44	102	1048576	7	3658
2026-01-07 06:38:59.60	290.49	20.72	-23.3	-23.4	17.8	0.00e+00	0	44	102	1048576	7	3634
2026-01-07 06:39:00.60	290.26	20.67	-23.4	-24.0	17.8	0.00e+00	0	44	102	1048576	6	3884
2026-01-07 06:39:01.60	290.03	20.61	-23.4	-24.1	17.7	0.00e+00	0	44	102	1048576	6	3894
2026-01-07 06:39:02.61	289.79	20.55	-23.3	-23.9	17.8	0.00e+00	0	44	102	1048576	6	3846
2026-01-07 06:39:03.62	289.56	20.50	-23.4	-24.0	17.8	0.00e+00	0	43	102	1048576	6	3882
2026-01-07 06:39:04.63	289.33	20.44	-23.4	-24.1	17.7	0.00e+00	0	43	102	1048576	6	3893
2026-01-07 06:39:05.64	289.10	20.38	-23.5	-24.2	17.6	0.00e+00	0	43	102	1048576	6	3931
2026-01-07 06:39:06.64	288.87	20.32	-23.4	-24.1	17.7	0.00e+00	0	43	102	1048576	6	3902
2026-01-07 06:39:07.65	288.64	20.26	-23.4	-24.2	17.7	0.00e+00	0	43	102	1048576	6	3909
2026-01-07 06:39:08.65	288.41	20.20	-23.5	-24.2	17.7	0.00e+00	0	44	102	1048576	6	3919
2026-01-07 06:39:09.66	288.19	20.14	-23.5	-24.4	17.6	0.00e+00	0	43	102	1048576	6	3957
2026-01-07 06:39:10.66	287.96	20.08	-23.6	-24.0	17.5	0.00e+00	0	44	102	1048576	7	3778
2026-01-07 06:39:11.66	287.74	20.02	-23.6	-24.0	17.5	0.00e+00	0	44	102	1048576	7	3763
2026-01-07 06:39:12.67	287.51	19.96	-23.6	-24.1	17.5	0.00e+00	0	44	102	1048576	7	3787
2026-01-07 06:39:13.68	287.29	19.90	-23.7	-24.1	17.4	0.00e+00	0	43	102	1048576	7	3802
2026-01-07 06:39:14.68	287.07	19.84	-23.6	-24.0	17.5	0.00e+00	0	44	102	1048576	7	3777
2026-01-07 06:39:15.69	286.85	19.78	-23.6	-24.0	17.5	0.00e+00	0	44	102	1048576	7	3773
2026-01-07 06:39:16.69	286.63	19.72	-23.6	-23.9	17.5	0.00e+00	0	43	102	1048576	7	3753
2026-01-07 06:39:17.70	286.41	19.66	-23.6	-23.9	17.6	0.00e+00	0	43	102	1048576	7	3745
2026-01-07 06:39:18.70	286.19	19.60	-23.6	-24.1	17.4	0.00e+00	0	44	102	1048576	7	3784
2026-01-07 06:39:19.71	285.97	19.53	-23.7	-24.3	17.4	0.00e+00	0	43	102	1048576	7	3829
2026-01-07 06:39:20.72	285.76	19.47	-23.8	-24.4	17.3	0.00e+00	0	44	102	1048576	7	3860
2026-01-07 06:39:21.72	285.54	19.41	-23.8	-24.5	17.2	0.00e+00	0	43	102	1048576	7	3879
2026-01-07 06:39:22.73	285.33	19.34	-23.9	-24.7	17.1	0.00e+00	0	44	102	1048576	7	3929
2026-01-07 06:39:23.73	285.11	19.28	-24.0	-24.9	17.0	0.00e+00	0	44	102	1048576	7	3981
2026-01-07 06:39:24.74	284.90	19.22	-24.1	-24.6	17.0	0.00e+00	0	43	102	1048576	8	3799
2026-01-07 06:39:25.75	284.69	19.15	-24.3	-25.0	16.5	0.00e+00	0	44	102	1048576	8	3909
2026-01-07 06:39:26.75	284.48	19.09	-24.2	-24.8	16.6	0.00e+00	0	44	102	1048576	8	3845
2026-01-07 06:39:27.76	284.26	19.02	-24.0	-24.4	16.0	0.00e+00	0	44	102	1048576	8	3764
2026-01-07 06:39:28.76	284.06	18.96	-23.9	-24.2	17.1	0.00e+00	0	44	102	1048576	8	3717
2026-01-07 06:39:29.78	283.84	18.89	-24.0	-24.3	17.1	0.00e+00	0	44	102	1048576	8	3727
2026-01-07 06:39:30.78	283.64	18.83	-24.0	-24.2	17.1	0.00e+00	0	44	102	1048576	8	3717
2026-01-07 06:39:31.79	283.43	18.76	-24.0	-24.3	17.1	0.00e+00	0	44	102	1048576	8	3737
2026-01-07 06:39:32.80	283.22	18.70	-23.9	-24.1	17.2	0.00e+00	0	43	102	1048576	8	3686
2026-01-07 06:39:33.80	283.02	18.63	-23.8	-24.4	17.2	0.00e+00	0	44	102	1048576	7	3867
2026-01-07 06:39:34.81	282.82	18.56	-23.8	-24.5	17.2	0.00e+00	0	44	102	1048576	7	3887
2026-01-07 06:39:35.81	282.61	18.50	-23.9	-24.6	17.1	0.00e+00	0	43	102	1048576	7	3919
2026-01-07 06:39:36.81	282.41	18.43	-23.9	-24.7	17.1	0.00e+00	0	44	102	1048576	7	3942
2026-01-07 06:39:37.82	282.21	18.36	-24.0	-24.8	17.0	1.53e-03	0	44	102	1048576	7	3969
2026-01-07 06:39:38.82	282.01	18.30	-24.0	-24.9	17.0	1.53e-04	0	43	102	1048576	7	3977
2026-01-07 06:39:39.83	281.81	18.23	-24.1	-24.6	17.0	1.36e-03	0	44	102	1048576	8	3793
2026-01-07 06:39:40.83	281.61	18.16	-24.2	-24.8	16.8	9.74e-04	0	44	102	1048576	8	3842
2026-01-07 06:39:41.84	281.41	18.10	-24.1	-24.6	16.9	0.00e+00	0	44	102	1048576	8	3804
2026-01-07 06:39:42.84	281.22	18.03	-24.1	-24.6	16.8	0.00e+00	0	44	102	1048576	8	3814
2026-01-07 06:39:43.84	281.02	17.96	-24.2	-24.7	16.8	2.28e-04	0	44	102	1048576	8	3831
2026-01-07 06:39:44.85	280.83	17.89	-24.3	-24.9	16.7	0.00e+00	0	44	102	1048576	8	3885
2026-01-07 06:39:45.84	280.64	17.83	-24.3	-25.0	16.7	1.13e-03	0	44	102	1048576	8	3893
2026-01-07 06:39:46.85	280.44	17.76	-24.3	-25.0	16.6	1.25e-03	0	44	102	1048576	8	3906
2026-01-07 06:39:47.85	280.25	17.69	-24.4	-25.1	16.6	0.00e+00	0	43	102	1048576	8	3927
2026-01-07 06:39:48.86	280.06	17.62	-24.3	-25.0	16.7	8.71e-04	0	44	102	1048576	8	3903
2026-01-07 06:39:49.86	279.87	17.55	-24.4	-25.2	16.5	0.00e+00	0	44	102	1048576	8	3954
2026-01-07 06:39:50.86	279.68	17.48	-24.4	-25.1	16.6	0.00e+00	0	44	102	1048576	8	3927
2026-01-07 06:39:51.87	279.49	17.42	-24.3	-24.9	16.7	0.00e+00	0	44	102	1048576	8	3885
2026-01-07 06:39:52.88	279.30	17.35	-24.6	-25.6	16.3	1.49e-03	0	44	102	1048576	8	4048
2026-01-07 06:39:53.89	279.11	17.28	-24.5	-24.8	16.5	0.00e+00	0	44	102	1048576	9	3755
2026-01-07 06:39:54.90	278.92	17.21	-24.7	-25.3	16.3	0.00e+00	0	44	102	1048576	9	3862
2026-01-07 06:39:55.90	278.74	17.14	-24.5	-24.9	16.4	1.64e-03	0	44	102	1048576	9	3783
2026-01-07 06:39:56.90	278.56	17.07	-24.5	-24.8	16.5	0.00e+00	0	44	102	1048576	9	3755
2026-01-07 06:39:57.90	278.37	17.00	-24.4	-25.2	16.6	1.35e-03	0	43	102	1048576	8	3938
2026-01-07 06:39:58.91	278.19	16.93	-24.4	-25.3	16.5	0.00e+00	0	44	102	1048576	8	3960
2026-01-07 06:39:59.92	278.01	16.86	-24.4	-25.3	16.5	0.00e+00	0	44	102	1048576	8	3962
2026-01-07 06:40:00.93	277.82	16.79	-24.6	-25.2	16.3	0.00e+00	0	44	102	1048576	9	3847
2026-01-07 06:40:01.94	277.64	16.72	-25.0	-25.9	15.9	0.00e+00	0	44	102	1048576	9	4017
2026-01-07 06:40:02.95	277.46	16.65	-24.6	-25.1	16.3	0.00e+00	0	44	102	1048576	9	3825
2026-01-07 06:40:03.95	277.28	16.58	-24.5	-25.0	16.4	0.00e+00	0	44	102	1048576	9	3786
2026-01-07 06:40:04.95	277.11	16.51	-24.4	-25.3	16.5	0.00e+00	0	44	102	1048576	8	3963
2026-01-07 06:40:05.96	276.93	16.44	-24.4	-25.2	16.5	0.00e+00	0	44	102	1048576	8	3954
2026-01-07 06:40:06.97	276.75	16.37	-24.4	-25.2	16.5	0.00e+00	0	44	102	1048576	8	3951
2026-01-07 06:40:07.98	276.58	16.30	-24.4	-25.2	16.6	0.00e+00	0	44	102	1048576	8	3936
2026-01-07 06:40:08.99	276.40	16.23	-24.4	-25.3	16.5	0.00e+00	0	43	102	1048576	8	3972
2026-01-07 06:40:09.99	276.23	16.16	-24.5	-25.4	16.4	0.00e+00	0	44	102	1048576	8	4006
2026-01-07 06:40:11.00	276.05	16.08	-24.6	-25.1	16.3	0.00e+00	0	44	102	1048576	9	3829
2026-01-07 06:40:12.01	275.88	16.01	-24.7	-25.3	16.2	0.00e+00	0	44	102	1048576	9	3857
2026-01-07 06:40:13.01	275.71	15.94	-24.8	-25.5	16.1	0.00e+00	0	44	102	1048576	9	3925
2026-01-07 06:40:14.02	275.54	15.87	-25.0	-25.9	15.8	0.00e+00	0	44	102	1048576	9	4018
2026-01-07 06:40:15.03	275.37	15.80	-24.9	-25.7	16.0	0.00e+00	0	43	102	1048576	9	3964
2026-01-07 06:40:16.03	275.20	15.73	-24.9	-25.8	15.9	0.00e+00	0	44	102	1048576	9	3986
2026-01-07 06:40:17.04	275.03	15.66	-24.9	-25.9	15.9	0.00e+00	0	44	102	1048576	9	4009
2026-01-07 06:40:18.05	274.87	15.59	-24.9	-25.9	15.9	0.00e+00	0	44	102	1048576	9	4003
2026-01-07 06:40:19.06	274.70	15.52	-25.0	-26.1	15.8	0.00e+00	0	44	102	1048576	9	4053
2026-01-07 06:40:20.07	274.53	15.45	-25.0	-26.1	15.7	0.00e+00	0	44	102	1048576	9	4061
2026-01-07 06:40:21.07	274.37	15.37	-25.2	-26.0	15.6	0.00e+00	0	44	102	1048576	10	3932
2026-01-07 06:40:22.08	274.20	15.30	-25.4	-26.3	15.4	0.00e+00	0	43	102	1048576	10	4002
2026-01-07 06:40:23.09	274.04	15.23	-25.4	-26.5	15.3	0.00e+00	0	44	102	1048576	10	4057
2026-01-07 06:40:24.10	273.88	15.16	-25.5	-26.6	15.2	0.00e+00	0	44	102	1048576	10	4073
2026-01-07 06:40:25.11	273.71	15.09	-25.2	-26.0	15.5	0.00e+00	0	44	102	1048576	10	3924
2026-01-07 06:40:26.11	273.55	15.02	-25.4	-26.3	15.3	0.00e+00	0	44	102	1048576	10	4009
2026-01-07 06:40:27.11	273.39	14.95	-25.1	-25.7	15.7	1.10e-06	0	44	102	1048576	10	3850
2026-01-07 06:40:28.13	273.23	14.87	-25.0	-25.9	15.8	0.00e+00	0	44	102	1048576	9	4028
2026-01-07 06:40:29.14	273.07	14.80	-24.9	-25.8	15.8	0.00e+00	0	44	102	1048576	9	4002
2026-01-07 06:40:30.14	272.92	14.73	-25.0	-26.0	15.8	0.00e+00	0	43	102	1048576	9	4032
2026-01-07 06:40:31.15	272.76	14.66	-24.9	-25.8	15.8	0.00e+00	0	44	102	1048576	9	3993
2026-01-07 06:40:32.16	272.60	14.59	-25.0	-25.9	15.8	0.00e+00	0	44	102	1048576	9	4017
2026-01-07 06:40:33.17	272.45	14.52	-25.4	-26.4	15.3	0.00e+00	0	43	102	1048576	10	4024
2026-01-07 06:40:34.17	272.29	14.45	-25.3	-26.2	15.4	0.00e+00	0	44	102	1048576	10	3982
2026-01-07 06:40:35.17	272.14	14.38	-25.4	-26.4	15.3	0.00e+00	0	44	102	1048576	10	4024
2026-01-07 06:40:36.18	271.98	14.30	-25.3	-26.2	15.4	0.00e+00	0	44	102	1048576	10	3975
2026-01-07 06:40:37.19	271.83	14.23	-25.2	-25.9	15.5	0.00e+00	0	44	102	1048576	10	3911
2026-01-07 06:40:38.19	271.68	14.16	-25.1	-25.7	15.7	0.00e+00	0	44	102	1048576	10	3853
2026-01-07 06:40:39.20	271.53	14.09	-25.1	-26.2	15.6	0.00e+00	0	44	102	1048576	9	4082
2026-01-07 06:40:40.21	271.38	14.02	-25.1	-25.7	15.6	0.00e+00	0	44	102	1048576	10	3863
2026-01-07 06:40:41.22	271.23	13.95	-25.2	-26.0	15.5	0.00e+00	0	44	102	1048576	10	3937
2026-01-07 06:40:42.23	271.08	13.87	-25.4	-26.3	15.3	1.10e-06	0	44	102	1048576	10	3998
2026-01-07 06:40:43.24	270.93	13.80	-25.2	-26.0	15.5	0.00e+00	0	44	102	1048576	10	3923
2026-01-07 06:40:44.24	270.78	13.73	-25.2	-25.9	15.5	0.00e+00	0	44	102	1048576	10	3905
2026-01-07 06:40:45.25	270.64	13.66	-24.8	-25.6	14.7	0.00e+00	0	44	102	1048576	10	3967
2026-01-07 06:40:46.26	270.49	13.59	-24.7	-25.7	12.9	0.00e+00	0	44	102	1048576	10	4047
2026-01-07 06:40:47.26	270.34	13.52	-25.4	-26.4	13.2	0.00e+00	0	44	102	1048576	10	4044
2026-01-07 06:40:48.27	270.20	13.45	-25.5	-26.6	15.1	0.00e+00	0	44	102	1048576	10	4088
2026-01-07 06:40:49.27	270.06	13.38	-25.6	-26.7	15.0	2.74e-03	0	44	102	1048576	10	4126
2026-01-07 06:40:50.28	269.91	13.31	-25.7	-26.5	14.9	0.00e+00	0	44	102	1048576	11	3968
2026-01-07 06:40:51.29	269.77	13.23	-25.7	-26.6	14.8	0.00e+00	0	44	102	1048576	11	3980
2026-01-07 06:40:52.29	269.63	13.16	-25.7	-26.5	14.9	2.56e-03	0	44	102	1048576	11	3948
2026-01-07 06:40:53.30	269.49	13.09	-25.6	-26.4	14.9	0.00e+00	0	44	102	1048576	11	3940
2026-01-07 06:40:54.31	269.35	13.02	-25.6	-26.4	14.9	2.61e-03	0	44	102	1048576	11	3943
2026-01-07 06:40:55.32	269.21	12.95	-25.6	-26.3	15.0	0.00e+00	0	44	102	1048576	11	3911
2026-01-07 06:40:56.33	269.07	12.88	-25.6	-26.3	14.9	3.46e-04	0	44	102	1048576	11	3918
2026-01-07 06:40:57.34	268.93	12.81	-25.6	-26.4	14.9	2.02e-03	0	44	102	1048576	11	3943
2026-01-07 06:40:58.35	268.79	12.74	-25.5	-26.2	15.0	2.12e-03	0	44	102	1048576	11	3875
2026-01-07 06:40:59.36	268.65	12.66	-25.6	-26.4	14.9	1.45e-04	0	44	102	1048576	11	3930
2026-01-07 06:41:00.36	268.52	12.59	-25.8	-26.7	14.7	0.00e+00	0	44	102	1048576	11	3998
2026-01-07 06:41:01.37	268.38	12.52	-25.7	-26.6	14.8	2.03e-03	0	44	102	1048576	11	3978
2026-01-07 06:41:02.38	268.24	12.45	-25.7	-26.6	14.7	1.40e-04	0	44	102	1048576	11	3990
2026-01-07 06:41:03.39	268.11	12.38	-25.7	-26.6	14.8	1.67e-03	0	44	102	1048576	11	3971
2026-01-07 06:41:04.39	267.98	12.31	-25.8	-26.8	14.6	9.84e-04	0	44	102	1048576	11	4036
2026-01-07 06:41:05.40	267.84	12.24	-25.9	-27.0	14.5	0.00e+00	0	44	102	1048576	11	4084
2026-01-07 06:41:06.41	267.71	12.17	-25.8	-26.8	14.6	1.04e-03	0	44	102	1048576	11	4039
2026-01-07 06:41:07.41	267.58	12.10	-25.8	-26.8	14.6	1.18e-03	0	44	102	1048576	11	4021
2026-01-07 06:41:08.42	267.45	12.03	-25.8	-26.8	14.6	0.00e+00	0	44	102	1048576	11	4023
2026-01-07 06:41:09.42	267.32	11.96	-25.6	-26.4	14.9	1.73e-03	0	44	102	1048576	11	3927
2026-01-07 06:41:10.43	267.19	11.89	-25.5	-26.6	15.0	0.00e+00	0	44	102	1048576	10	4088
2026-01-07 06:41:11.44	267.06	11.82	-25.6	-26.8	14.9	3.90e-04	0	44	102	1048576	10	4140
2026-01-07 06:41:12.45	266.93	11.75	-25.7	-26.5	14.8	0.00e+00	0	44	102	1048576	11	3955
2026-01-07 06:41:13.46	266.80	11.68	-25.9	-26.9	14.5	0.00e+00	0	44	102	1048576	11	4066
2026-01-07 06:41:14.45	266.67	11.61	-26.0	-27.1	14.4	8.14e-04	0	44	102	1048576	11	4124
2026-01-07 06:41:15.46	266.55	11.54	-26.0	-27.2	14.3	0.00e+00	0	44	102	1048576	11	4153
2026-01-07 06:41:16.47	266.42	11.47	-26.1	-27.1	14.0	5.92e-04	0	44	102	1048576	12	4016
2026-01-07 06:41:17.47	266.29	11.40	-26.2	-27.2	14.0	4.50e-06	0	44	102	1048576	12	4030
2026-01-07 06:41:18.48	266.17	11.33	-26.2	-27.2	14.0	2.20e-06	0	44	102	1048576	12	4028
2026-01-07 06:41:19.48	266.05	11.26	-26.1	-27.0	14.0	0.00e+00	0	43	102	1048576	12	4004
2026-01-07 06:41:20.49	265.92	11.19	-26.0	-26.7	14.2	1.10e-06	0	44	102	1048576	12	3907
2026-01-07 06:41:21.50	265.80	11.12	-25.9	-27.0	14.4	0.00e+00	0	44	102	1048576	11	4097
2026-01-07 06:41:22.50	265.68	11.05	-25.8	-26.8	14.5	0.00e+00	0	44	102	1048576	11	4046
2026-01-07 06:41:23.51	265.55	10.98	-25.8	-26.7	14.5	1.10e-06	0	44	102	1048576	11	4018
2026-01-07 06:41:24.51	265.43	10.91	-25.9	-26.9	14.4	1.10e-06	0	44	102	1048576	11	4075
2026-01-07 06:41:25.52	265.31	10.84	-25.8	-26.8	14.5	1.10e-06	0	44	102	1048576	11	4027
2026-01-07 06:41:26.52	265.19	10.77	-25.7	-26.6	14.6	0.00e+00	0	44	102	1048576	11	3984
2026-01-07 06:41:27.53	265.07	10.71	-25.7	-26.6	14.6	0.00e+00	0	44	102	1048576	11	3976
2026-01-07 06:41:28.54	264.95	10.64	-25.7	-26.6	14.6	2.20e-06	0	44	102	1048576	11	3989
2026-01-07 06:41:29.55	264.83	10.57	-25.8	-26.8	14.5	0.00e+00	0	44	102	1048576	11	4032
2026-01-07 06:41:30.56	264.72	10.50	-25.9	-27.1	14.3	0.00e+00	0	44	102	1048576	11	4105
2026-01-07 06:41:31.56	264.60	10.43	-26.0	-27.3	14.2	0.00e+00	0	44	102	1048576	11	4167
2026-01-07 06:41:32.57	264.48	10.36	-26.1	-26.9	14.1	1.10e-06	0	44	102	1048576	12	3981
2026-01-07 06:41:33.58	264.36	10.29	-26.2	-27.1	13.9	1.10e-06	0	44	102	1048576	12	4023
2026-01-07 06:41:34.59	264.25	10.22	-26.3	-27.3	13.8	1.10e-06	0	44	102	1048576	12	4081
2026-01-07 06:41:35.59	264.13	10.15	-26.3	-27.4	13.8	6.80e-06	0	44	102	1048576	12	4085
2026-01-07 06:41:36.60	264.02	10.09	-26.2	-27.3	13.8	5.70e-06	0	44	102	1048576	12	4062
2026-01-07 06:41:37.61	263.90	10.02	-26.3	-27.4	13.7	6.80e-06	0	44	102	1048576	12	4103
2026-01-07 06:41:38.62	263.79	9.95	-26.2	-27.2	13.9	1.10e-06	0	44	102	1048576	12	4042
2026-01-07 06:41:39.62	263.68	9.88	-26.2	-27.3	13.8	3.40e-06	0	44	102	1048576	12	4060
2026-01-07 06:41:40.63	263.57	9.81	-26.5	-28.0	13.4	5.70e-06	0	44	102	1048576	12	4247
2026-01-07 06:41:41.64	263.45	9.74	-26.4	-27.6	13.6	8.00e-06	0	44	102	1048576	12	4162
2026-01-07 06:41:42.64	263.34	9.68	-26.1	-27.1	13.9	3.40e-06	0	44	102	1048576	12	4016
2026-01-07 06:41:43.64	263.23	9.61	-26.1	-26.9	14.0	5.70e-06	0	44	102	1048576	12	3967
2026-01-07 06:41:44.65	263.12	9.54	-26.0	-26.9	14.0	1.10e-06	0	44	102	1048576	12	3966
2026-01-07 06:41:45.66	263.01	9.47	-26.1	-27.0	13.9	1.10e-06	0	44	102	1048576	12	3983
2026-01-07 06:41:46.66	262.90	9.41	-26.0	-26.8	14.0	3.40e-06	0	44	102	1048576	12	3941
2026-01-07 06:41:47.67	262.79	9.34	-26.2	-27.2	13.8	4.50e-06	0	44	102	1048576	12	4060
2026-01-07 06:41:48.68	262.69	9.27	-26.1	-27.1	13.9	6.80e-06	0	44	102	1048576	12	4012
2026-01-07 06:41:49.69	262.58	9.20	-26.2	-27.3	13.7	4.50e-06	0	44	102	1048576	12	4075
2026-01-07 06:41:50.70	262.47	9.13	-26.5	-28.0	13.3	5.70e-06	0	44	102	1048576	12	4254
2026-01-07 06:41:51.70	262.36	9.07	-26.5	-27.4	13.4	1.48e-05	0	44	102	1048576	13	3987
2026-01-07 06:41:52.71	262.26	9.00	-26.4	-27.6	13.6	4.50e-06	0	44	102	1048576	12	4147
2026-01-07 06:41:53.72	262.15	8.93	-26.4	-27.8	13.4	4.50e-06	0	44	102	1048576	12	4210
2026-01-07 06:41:54.72	262.05	8.87	-26.4	-27.6	13.6	1.25e-05	0	44	102	1048576	12	4154
2026-01-07 06:41:55.72	261.94	8.80	-26.3	-27.4	13.7	5.70e-06	0	44	102	1048576	12	4098
2026-01-07 06:41:56.73	261.84	8.73	-26.3	-27.5	13.6	5.70e-06	0	44	102	1048576	12	4135
2026-01-07 06:41:57.74	261.73	8.67	-26.4	-27.6	13.5	1.02e-05	0	44	102	1048576	12	4165
2026-01-07 06:41:58.75	261.63	8.60	-26.3	-27.6	13.5	5.70e-06	0	44	102	1048576	12	4146
2026-01-07 06:41:59.76	261.53	8.53	-26.1	-27.1	13.8	3.40e-06	0	44	102	1048576	12	4026
2026-01-07 06:42:00.77	261.42	8.47	-26.0	-27.3	13.6	4.50e-06	0	44	102	1048576	11	4174
2026-01-07 06:42:01.78	261.32	8.40	-26.1	-27.5	13.9	2.20e-06	0	44	102	1048576	11	4232
2026-01-07 06:42:02.78	261.22	8.33	-26.3	-27.6	13.5	5.70e-06	0	44	102	1048576	12	4148
2026-01-07 06:42:03.79	261.12	8.27	-26.3	-27.4	13.6	6.80e-06	0	44	102	1048576	12	4116
2026-01-07 06:42:04.79	261.02	8.20	-26.2	-27.2	13.7	4.50e-06	0	44	102	1048576	12	4052
2026-01-07 06:42:05.79	260.92	8.14	-26.1	-27.1	13.8	3.19e-03	0	44	102	1048576	12	4017
2026-01-07 06:42:06.80	260.82	8.07	-26.2	-27.3	13.7	4.50e-06	0	44	102	1048576	12	4082
2026-01-07 06:42:07.80	260.72	8.00	-26.2	-27.3	13.6	8.00e-06	0	44	102	1048576	12	4087
2026-01-07 06:42:08.80	260.62	7.94	-26.3	-27.4	13.5	1.37e-05	0	44	102	1048576	12	4117
2026-01-07 06:42:09.81	260.53	7.87	-26.3	-27.6	13.4	4.50e-06	0	44	102	1048576	12	4165
2026-01-07 06:42:10.81	260.43	7.81	-26.4	-27.8	13.3	1.82e-03	0	44	102	1048576	12	4214
2026-01-07 06:42:11.81	260.33	7.74	-26.5	-28.0	13.1	1.60e-05	0	44	102	1048576	12	4280
2026-01-07 06:42:12.82	260.24	7.68	-26.5	-28.1	13.1	7.18e-03	0	44	102	1048576	12	4298
2026-01-07 06:42:13.82	260.14	7.61	-26.7	-28.0	12.8	7.32e-04	0	43	102	1048576	13	4176
2026-01-07 06:42:14.83	260.04	7.55	-26.9	-28.4	12.6	7.54e-03	0	44	102	1048576	13	4294
2026-01-07 06:42:15.84	259.95	7.48	-26.9	-28.4	12.6	7.21e-03	0	44	102	1048576	13	4270
2026-01-07 06:42:16.84	259.85	7.42	-27.0	-28.6	12.5	8.46e-05	0	44	102	1048576	13	4331
2026-01-07 06:42:17.85	259.76	7.35	-26.9	-28.5	12.5	7.22e-03	0	44	102	1048576	13	4314
2026-01-07 06:42:18.86	259.66	7.29	-26.9	-28.3	12.6	8.25e-03	0	44	102	1048576	13	4263
2026-01-07 06:42:19.86	259.57	7.22	-27.0	-28.7	12.4	2.02e-03	0	44	102	1048576	13	4363
2026-01-07 06:42:20.87	259.48	7.16	-27.0	-28.6	12.4	5.94e-03	0	44	102	1048576	13	4350
2026-01-07 06:42:21.88	259.38	7.09	-26.9	-28.4	12.5	5.57e-03	0	44	102	1048576	13	4271
2026-01-07 06:42:22.88	259.29	7.03	-32.4	-41.6	3.8	8.47e-01	0	44	104	1048576	24	10307
2026-01-07 06:42:23.89	259.20	6.96	-32.9	-42.7	3.8	8.46e-01	0	44	104	1048576	25	11165
2026-01-07 06:42:24.90	259.11	6.90	-33.2	-42.7	3.8	8.47e-01	0	44	104	1048576	26	10757

#Closed at: 2026-01-07 06:42:25
#Recorded file [1 MB]: D:/data/31010_260107_093231.dat