passes_logs/2026/01/07/R2M6_AANII_01/R2M6_AANII_01__20260107_044613_FENGYUN_3D_rec.log

#Pass ID: 20260107_044613_FENGYUN 3D
#Satellite: FENGYUN 3D
#Configuration: FENGYUN 3D
#almurnet v.1.7.20240730
#Start time: 2026-01-07 04:46:14

#Version: 2.2.20231116
#Station: R2M6_AANII_01
#Location: 30.233357 lon 59.946436 lat
#TLE: 1 43010U 17072A   26006.26440730  .00000376  00000+0  19957-3 0  9994
#TLE: 2 43010  98.9925 337.9455 0002045 123.9195 236.2175 14.19693586422016

#Time	Az	El	Level	Level2	SNR	BER	BlckErr	Temp	State	Recorded	gain1	gain2
2026-01-07 04:46:14.52	9.64	7.07	-30.5	-34.9	4.9	8.00e-01	0	41	0	0	21	5940
2026-01-07 04:46:15.51	9.53	7.13	-30.1	-33.9	5.1	7.85e-01	0	41	104	0	20	5590
2026-01-07 04:46:16.52	9.42	7.19	-30.1	-33.8	8.5	5.10e-02	0	41	0	0	20	5543
2026-01-07 04:46:17.53	9.31	7.25	-30.1	-33.9	8.5	5.46e-02	0	41	102	1048576	20	5587
2026-01-07 04:46:18.54	9.20	7.31	-30.1	-33.8	8.5	4.78e-02	0	41	102	1048576	20	5541
2026-01-07 04:46:19.55	9.09	7.36	-30.1	-33.8	8.5	4.61e-02	0	41	102	1048576	20	5542
2026-01-07 04:46:20.56	8.98	7.42	-29.9	-33.4	8.9	5.01e-02	0	41	102	1048576	20	5345
2026-01-07 04:46:21.56	8.87	7.48	-29.2	-31.7	10.4	1.23e-02	0	41	102	1048576	19	4813
2026-01-07 04:46:22.57	8.76	7.54	-29.1	-31.9	10.7	5.66e-03	0	41	102	1048576	18	4974
2026-01-07 04:46:23.57	8.65	7.60	-28.5	-30.9	11.6	1.16e-03	0	41	102	1048576	17	4756
2026-01-07 04:46:24.58	8.54	7.66	-28.1	-30.3	12.3	4.21e-04	0	41	102	1048576	16	4654
2026-01-07 04:46:25.59	8.43	7.72	-27.4	-29.3	13.1	9.15e-05	0	41	102	1048576	15	4458
2026-01-07 04:46:26.59	8.31	7.77	-27.1	-29.0	13.6	1.14e-05	0	41	102	1048576	14	4480
2026-01-07 04:46:27.60	8.20	7.83	-26.9	-28.6	13.8	3.40e-06	0	41	102	1048576	14	4364
2026-01-07 04:46:28.61	8.08	7.89	-26.7	-28.7	14.1	0.00e+00	0	41	102	1048576	13	4504
2026-01-07 04:46:29.62	7.97	7.95	-26.8	-28.8	14.0	2.20e-06	0	41	102	1048576	13	4544
2026-01-07 04:46:30.63	7.85	8.01	-26.7	-28.7	14.1	3.40e-06	0	42	102	1048576	13	4526
2026-01-07 04:46:31.63	7.74	8.07	-26.7	-28.7	14.1	5.70e-06	0	42	102	1048576	13	4498
2026-01-07 04:46:32.63	7.62	8.13	-26.7	-28.6	14.2	3.40e-06	0	41	102	1048576	13	4476
2026-01-07 04:46:33.64	7.51	8.18	-26.6	-28.3	14.3	2.20e-06	0	41	102	1048576	13	4384
2026-01-07 04:46:34.65	7.39	8.24	-26.6	-28.3	14.3	2.20e-06	0	42	102	1048576	13	4392
2026-01-07 04:46:35.66	7.27	8.30	-26.5	-28.2	14.4	1.10e-06	0	42	102	1048576	13	4354
2026-01-07 04:46:36.67	7.15	8.36	-26.4	-28.0	14.5	0.00e+00	0	42	102	1048576	13	4310
2026-01-07 04:46:37.67	7.04	8.42	-26.4	-28.4	14.6	0.00e+00	0	42	102	1048576	12	4526
2026-01-07 04:46:38.68	6.92	8.48	-26.5	-28.1	14.5	1.10e-06	0	41	102	1048576	13	4347
2026-01-07 04:46:39.68	6.80	8.54	-26.7	-28.5	14.2	2.20e-06	0	42	102	1048576	13	4456
2026-01-07 04:46:40.69	6.68	8.60	-26.7	-28.5	14.3	1.60e-05	0	42	102	1048576	13	4444
2026-01-07 04:46:41.70	6.56	8.66	-26.5	-28.1	14.5	3.40e-06	0	42	102	1048576	13	4337
2026-01-07 04:46:42.71	6.44	8.71	-26.6	-28.4	14.3	2.20e-06	0	42	102	1048576	13	4421
2026-01-07 04:46:43.71	6.32	8.77	-26.6	-28.3	14.4	3.40e-06	0	42	102	1048576	13	4383
2026-01-07 04:46:44.71	6.20	8.83	-26.6	-28.4	14.3	4.50e-06	0	42	102	1048576	13	4431
2026-01-07 04:46:45.71	6.07	8.89	-26.7	-28.5	14.3	1.10e-06	0	42	102	1048576	13	4451
2026-01-07 04:46:46.72	5.95	8.95	-26.7	-28.6	14.3	4.50e-06	0	42	102	1048576	13	4472
2026-01-07 04:46:47.72	5.83	9.01	-26.7	-28.7	14.3	3.40e-06	0	42	102	1048576	13	4504
2026-01-07 04:46:48.73	5.70	9.07	-26.8	-28.9	14.1	1.10e-06	0	42	102	1048576	13	4573
2026-01-07 04:46:49.74	5.58	9.13	-26.7	-28.5	14.3	2.89e-04	0	42	102	1048576	13	4456
2026-01-07 04:46:50.75	5.45	9.19	-26.7	-28.5	14.3	1.10e-06	0	42	102	1048576	13	4450
2026-01-07 04:46:51.76	5.33	9.24	-26.6	-28.5	14.4	1.10e-06	0	42	102	1048576	13	4434
2026-01-07 04:46:52.76	5.20	9.30	-26.7	-28.5	14.4	3.40e-06	0	42	102	1048576	13	4444
2026-01-07 04:46:53.77	5.08	9.36	-26.6	-28.3	14.5	4.50e-06	0	42	102	1048576	13	4398
2026-01-07 04:46:54.78	4.95	9.42	-26.6	-28.3	14.4	1.96e-03	0	42	102	1048576	13	4401
2026-01-07 04:46:55.79	4.82	9.48	-26.6	-28.3	14.5	1.10e-06	0	42	102	1048576	13	4387
2026-01-07 04:46:56.79	4.69	9.54	-26.6	-28.3	14.4	1.88e-03	0	42	102	1048576	13	4401
2026-01-07 04:46:57.80	4.56	9.60	-26.6	-28.4	14.4	0.00e+00	0	42	102	1048576	13	4408
2026-01-07 04:46:58.81	4.43	9.66	-26.5	-28.0	14.6	2.07e-04	0	42	102	1048576	13	4314
2026-01-07 04:46:59.81	4.31	9.72	-26.5	-28.0	14.6	1.90e-04	0	42	102	1048576	13	4305
2026-01-07 04:47:00.80	4.18	9.77	-26.4	-28.4	14.7	1.88e-03	0	42	102	1048576	12	4519
2026-01-07 04:47:01.81	4.05	9.83	-26.4	-28.5	14.7	1.36e-04	0	42	102	1048576	12	4544
2026-01-07 04:47:02.82	3.91	9.89	-26.3	-28.1	14.9	1.82e-03	0	42	102	1048576	12	4457
2026-01-07 04:47:03.83	3.78	9.95	-26.3	-28.1	14.8	1.81e-03	0	42	102	1048576	12	4444
2026-01-07 04:47:04.83	3.65	10.01	-26.4	-28.3	14.8	0.00e+00	0	42	102	1048576	12	4497
2026-01-07 04:47:05.84	3.52	10.07	-26.3	-28.1	14.9	1.89e-03	0	42	102	1048576	12	4445
2026-01-07 04:47:06.85	3.38	10.13	-26.2	-28.0	14.9	1.65e-03	0	42	102	1048576	12	4412
2026-01-07 04:47:07.85	3.25	10.19	-26.3	-28.1	14.9	1.99e-04	0	42	102	1048576	12	4454
2026-01-07 04:47:08.86	3.12	10.25	-26.3	-28.1	14.9	1.78e-03	0	42	102	1048576	12	4431
2026-01-07 04:47:09.87	2.98	10.31	-26.2	-27.9	15.0	1.90e-03	0	42	102	1048576	12	4393
2026-01-07 04:47:10.88	2.84	10.36	-26.4	-28.3	14.8	2.36e-04	0	42	102	1048576	12	4500
2026-01-07 04:47:11.88	2.71	10.42	-26.1	-27.8	15.1	9.29e-04	0	42	102	1048576	12	4351
2026-01-07 04:47:12.89	2.57	10.48	-26.2	-28.0	15.0	1.78e-03	0	42	102	1048576	12	4425
2026-01-07 04:47:13.90	2.43	10.54	-26.2	-27.8	15.1	2.22e-04	0	42	102	1048576	12	4364
2026-01-07 04:47:14.90	2.30	10.60	-26.5	-28.5	14.7	1.80e-03	0	42	102	1048576	12	4549
2026-01-07 04:47:15.91	2.16	10.66	-26.3	-28.2	14.9	1.74e-03	0	42	102	1048576	12	4455
2026-01-07 04:47:16.91	2.02	10.72	-26.3	-28.1	15.0	1.25e-04	0	42	102	1048576	12	4451
2026-01-07 04:47:17.92	1.88	10.78	-26.3	-28.2	14.9	1.57e-03	0	42	102	1048576	12	4474
2026-01-07 04:47:18.92	1.74	10.83	-26.4	-27.9	14.8	0.00e+00	0	42	102	1048576	13	4280
2026-01-07 04:47:19.92	1.60	10.89	-26.8	-28.8	14.3	1.35e-04	0	42	102	1048576	13	4537
2026-01-07 04:47:20.93	1.46	10.95	-26.7	-28.5	14.5	1.10e-06	0	42	102	1048576	13	4443
2026-01-07 04:47:21.93	1.32	11.01	-26.4	-27.8	14.9	1.82e-03	0	43	102	1048576	13	4242
2026-01-07 04:47:22.94	1.17	11.07	-26.2	-27.9	15.1	0.00e+00	0	42	102	1048576	12	4390
2026-01-07 04:47:23.94	1.03	11.13	-26.4	-28.4	14.8	1.10e-06	0	42	102	1048576	12	4538
2026-01-07 04:47:24.93	0.89	11.18	-26.8	-28.7	14.4	1.90e-03	0	42	102	1048576	13	4504
2026-01-07 04:47:25.94	0.74	11.24	-26.4	-27.9	14.9	0.00e+00	0	42	102	1048576	13	4260
2026-01-07 04:47:26.94	0.60	11.30	-26.5	-28.0	14.8	1.78e-03	0	42	102	1048576	13	4292
2026-01-07 04:47:27.95	0.46	11.36	-26.6	-28.4	14.6	0.00e+00	0	43	102	1048576	13	4394
2026-01-07 04:47:28.95	0.31	11.42	-26.4	-27.9	14.9	1.77e-04	0	42	102	1048576	13	4275
2026-01-07 04:47:29.97	0.16	11.48	-26.2	-28.0	15.1	1.10e-06	0	42	102	1048576	12	4394
2026-01-07 04:47:30.97	0.01	11.53	-26.2	-27.9	15.1	0.00e+00	0	42	102	1048576	12	4394
2026-01-07 04:47:31.98	359.87	11.59	-26.3	-28.1	15.0	1.10e-06	0	43	102	1048576	12	4447
2026-01-07 04:47:32.99	359.72	11.65	-26.1	-27.8	15.2	0.00e+00	0	42	102	1048576	12	4342
2026-01-07 04:47:34.00	359.57	11.71	-26.0	-27.6	15.4	0.00e+00	0	42	102	1048576	12	4282
2026-01-07 04:47:35.00	359.42	11.77	-26.0	-27.4	15.4	0.00e+00	0	42	102	1048576	12	4243
2026-01-07 04:47:36.00	359.27	11.83	-26.0	-27.5	15.4	0.00e+00	0	42	102	1048576	12	4266
2026-01-07 04:47:37.01	359.12	11.88	-26.0	-27.4	15.4	0.00e+00	0	43	102	1048576	12	4253
2026-01-07 04:47:38.02	358.97	11.94	-26.0	-27.4	15.4	0.00e+00	0	42	102	1048576	12	4242
2026-01-07 04:47:39.03	358.81	12.00	-26.0	-27.4	15.4	0.00e+00	0	43	102	1048576	12	4237
2026-01-07 04:47:40.04	358.66	12.06	-25.9	-27.3	15.4	0.00e+00	0	43	102	1048576	12	4231
2026-01-07 04:47:41.05	358.51	12.12	-26.1	-27.6	15.3	0.00e+00	0	43	102	1048576	12	4299
2026-01-07 04:47:42.05	358.35	12.17	-25.9	-27.3	15.5	0.00e+00	0	43	102	1048576	12	4215
2026-01-07 04:47:43.05	358.20	12.23	-25.8	-27.1	15.6	0.00e+00	0	42	102	1048576	12	4155
2026-01-07 04:47:44.06	358.04	12.29	-25.8	-27.5	15.7	0.00e+00	0	43	102	1048576	11	4385
2026-01-07 04:47:45.07	357.89	12.35	-25.8	-27.6	15.6	0.00e+00	0	43	102	1048576	11	4393
2026-01-07 04:47:46.07	357.73	12.40	-25.8	-27.4	15.7	0.00e+00	0	43	102	1048576	11	4358
2026-01-07 04:47:47.08	357.57	12.46	-25.9	-27.6	15.6	0.00e+00	0	43	102	1048576	11	4412
2026-01-07 04:47:48.08	357.42	12.52	-25.9	-27.3	15.5	0.00e+00	0	43	102	1048576	12	4217
2026-01-07 04:47:49.09	357.26	12.57	-25.8	-27.5	15.7	0.00e+00	0	43	102	1048576	11	4376
2026-01-07 04:47:50.09	357.10	12.63	-25.7	-27.4	15.8	0.00e+00	0	43	102	1048576	11	4340
2026-01-07 04:47:51.09	356.94	12.69	-25.7	-27.4	15.8	0.00e+00	0	43	102	1048576	11	4345
2026-01-07 04:47:52.10	356.78	12.74	-25.9	-27.7	15.7	0.00e+00	0	42	102	1048576	11	4430
2026-01-07 04:47:53.11	356.62	12.80	-25.8	-27.4	15.8	0.00e+00	0	43	102	1048576	11	4359
2026-01-07 04:47:54.12	356.46	12.86	-25.7	-27.2	15.9	0.00e+00	0	43	102	1048576	11	4301
2026-01-07 04:47:55.13	356.30	12.92	-25.7	-27.3	15.9	0.00e+00	0	43	102	1048576	11	4309
2026-01-07 04:47:56.14	356.13	12.97	-25.6	-27.1	16.0	0.00e+00	0	43	102	1048576	11	4259
2026-01-07 04:47:57.14	355.97	13.03	-25.7	-27.2	15.9	0.00e+00	0	43	102	1048576	11	4293
2026-01-07 04:47:58.15	355.81	13.08	-25.6	-27.0	16.0	0.00e+00	0	42	102	1048576	11	4251
2026-01-07 04:47:59.15	355.64	13.14	-25.5	-26.9	16.1	0.00e+00	0	43	102	1048576	11	4216
2026-01-07 04:48:00.16	355.48	13.20	-25.5	-26.9	16.1	0.00e+00	0	43	102	1048576	11	4206
2026-01-07 04:48:01.17	355.31	13.25	-25.5	-26.8	16.1	0.00e+00	0	43	102	1048576	11	4190
2026-01-07 04:48:02.17	355.14	13.31	-25.5	-26.8	16.2	0.00e+00	0	43	102	1048576	11	4176
2026-01-07 04:48:03.18	354.98	13.36	-25.6	-26.9	16.1	0.00e+00	0	43	102	1048576	11	4227
2026-01-07 04:48:04.20	354.81	13.42	-25.6	-27.1	16.0	0.00e+00	0	43	102	1048576	11	4280
2026-01-07 04:48:05.20	354.64	13.48	-25.7	-27.3	15.9	0.00e+00	0	43	102	1048576	11	4318
2026-01-07 04:48:06.20	354.47	13.53	-25.9	-27.6	15.7	0.00e+00	0	43	102	1048576	11	4409
2026-01-07 04:48:07.21	354.30	13.59	-25.9	-27.7	15.7	0.00e+00	0	43	102	1048576	11	4426
2026-01-07 04:48:08.22	354.13	13.64	-25.9	-27.7	15.6	0.00e+00	0	43	102	1048576	11	4443
2026-01-07 04:48:09.23	353.96	13.70	-26.0	-27.6	15.4	8.47e-04	0	43	102	1048576	12	4292
2026-01-07 04:48:10.23	353.79	13.75	-26.2	-27.8	15.2	0.00e+00	0	43	102	1048576	12	4364
2026-01-07 04:48:11.24	353.61	13.81	-25.8	-27.1	15.6	0.00e+00	0	43	102	1048576	12	4167
2026-01-07 04:48:12.24	353.44	13.86	-25.7	-27.2	16.0	0.00e+00	0	43	102	1048576	11	4290
2026-01-07 04:48:13.25	353.27	13.91	-25.5	-26.8	16.1	0.00e+00	0	43	102	1048576	11	4198
2026-01-07 04:48:14.26	353.09	13.97	-25.6	-27.0	16.1	8.56e-04	0	43	102	1048576	11	4229
2026-01-07 04:48:15.26	352.92	14.02	-25.6	-27.1	16.0	0.00e+00	0	43	102	1048576	11	4265
2026-01-07 04:48:16.26	352.74	14.08	-25.4	-26.5	16.3	1.52e-04	0	43	102	1048576	11	4121
2026-01-07 04:48:17.27	352.57	14.13	-25.2	-26.7	16.5	0.00e+00	0	43	102	1048576	10	4283
2026-01-07 04:48:18.28	352.39	14.18	-25.2	-26.7	16.5	7.21e-04	0	43	102	1048576	10	4267
2026-01-07 04:48:19.29	352.21	14.24	-25.0	-26.3	16.7	1.19e-04	0	43	102	1048576	10	4178
2026-01-07 04:48:20.30	352.03	14.29	-25.1	-26.5	16.6	0.00e+00	0	43	102	1048576	10	4218
2026-01-07 04:48:21.31	351.85	14.35	-25.2	-26.8	16.5	7.95e-04	0	43	102	1048576	10	4287
2026-01-07 04:48:22.32	351.67	14.40	-25.2	-26.6	16.6	0.00e+00	0	43	102	1048576	10	4242
2026-01-07 04:48:23.33	351.49	14.45	-25.3	-26.9	16.5	8.80e-04	0	43	102	1048576	10	4321
2026-01-07 04:48:24.33	351.31	14.50	-25.2	-26.8	16.5	0.00e+00	0	43	102	1048576	10	4283
2026-01-07 04:48:25.34	351.13	14.56	-25.3	-26.8	16.5	4.50e-06	0	43	102	1048576	10	4295
2026-01-07 04:48:26.35	350.95	14.61	-25.3	-26.9	16.4	7.93e-04	0	43	102	1048576	10	4329
2026-01-07 04:48:27.35	350.76	14.66	-25.3	-26.8	16.5	7.74e-04	0	43	102	1048576	10	4310
2026-01-07 04:48:28.36	350.58	14.71	-25.4	-27.0	16.4	1.60e-05	0	43	102	1048576	10	4349
2026-01-07 04:48:29.37	350.40	14.77	-25.6	-27.0	16.1	8.01e-04	0	43	102	1048576	11	4231
2026-01-07 04:48:30.38	350.21	14.82	-25.4	-26.6	16.4	9.19e-04	0	43	102	1048576	11	4121
2026-01-07 04:48:31.39	350.02	14.87	-25.3	-26.9	16.5	0.00e+00	0	43	102	1048576	10	4323
2026-01-07 04:48:32.39	349.84	14.92	-25.6	-27.0	16.1	9.06e-04	0	43	102	1048576	11	4237
2026-01-07 04:48:33.40	349.65	14.97	-25.4	-26.7	16.3	9.28e-04	0	43	102	1048576	11	4154
2026-01-07 04:48:34.41	349.46	15.02	-25.3	-27.0	16.4	1.41e-04	0	43	102	1048576	10	4339
2026-01-07 04:48:35.42	349.27	15.07	-25.3	-27.0	16.4	1.03e-03	0	43	102	1048576	10	4340
2026-01-07 04:48:36.43	349.09	15.12	-25.3	-26.8	16.5	9.15e-04	0	43	102	1048576	10	4286
2026-01-07 04:48:37.44	348.90	15.17	-25.3	-26.8	16.5	1.30e-04	0	43	102	1048576	10	4300
2026-01-07 04:48:38.45	348.70	15.22	-25.3	-26.9	16.5	0.00e+00	0	43	102	1048576	10	4321
2026-01-07 04:48:39.45	348.52	15.27	-25.3	-26.9	16.5	9.20e-04	0	43	102	1048576	10	4315
2026-01-07 04:48:40.45	348.32	15.32	-25.3	-26.8	16.5	0.00e+00	0	43	102	1048576	10	4297
2026-01-07 04:48:41.46	348.13	15.37	-25.2	-26.6	16.6	8.10e-04	0	43	102	1048576	10	4253
2026-01-07 04:48:42.46	347.94	15.42	-25.1	-26.4	16.7	0.00e+00	0	43	102	1048576	10	4193
2026-01-07 04:48:43.46	347.75	15.47	-25.0	-26.1	16.9	0.00e+00	0	43	102	1048576	10	4126
2026-01-07 04:48:44.47	347.55	15.52	-25.0	-26.2	16.9	3.15e-04	0	43	102	1048576	10	4132
2026-01-07 04:48:45.47	347.36	15.57	-25.0	-26.2	16.9	0.00e+00	0	43	102	1048576	10	4139
2026-01-07 04:48:46.48	347.16	15.62	-25.2	-26.7	16.6	0.00e+00	0	43	102	1048576	10	4263
2026-01-07 04:48:47.49	346.97	15.66	-25.3	-26.3	16.6	0.00e+00	0	43	102	1048576	11	4044
2026-01-07 04:48:48.50	346.77	15.71	-25.1	-26.0	16.7	0.00e+00	0	43	102	1048576	11	3980
2026-01-07 04:48:49.51	346.57	15.76	-25.1	-25.9	16.8	0.00e+00	0	43	102	1048576	11	3964
2026-01-07 04:48:50.51	346.38	15.81	-25.0	-26.3	16.8	0.00e+00	0	43	102	1048576	10	4154
2026-01-07 04:48:51.52	346.18	15.85	-25.1	-26.4	16.7	0.00e+00	0	43	102	1048576	10	4199
2026-01-07 04:48:52.53	345.98	15.90	-25.0	-26.3	16.8	0.00e+00	0	43	102	1048576	10	4168
2026-01-07 04:48:53.54	345.78	15.95	-25.0	-26.1	16.9	0.00e+00	0	43	102	1048576	10	4123
2026-01-07 04:48:54.54	345.58	15.99	-25.0	-26.1	16.9	0.00e+00	0	43	102	1048576	10	4118
2026-01-07 04:48:55.55	345.38	16.04	-25.0	-26.1	16.9	0.00e+00	0	43	102	1048576	10	4127
2026-01-07 04:48:56.56	345.17	16.08	-24.9	-26.0	16.9	0.00e+00	0	43	102	1048576	10	4097
2026-01-07 04:48:57.56	344.97	16.13	-24.8	-25.9	17.0	0.00e+00	0	43	102	1048576	10	4055
2026-01-07 04:48:58.57	344.77	16.18	-24.7	-25.6	17.2	0.00e+00	0	43	102	1048576	10	3998
2026-01-07 04:48:59.58	344.57	16.22	-24.8	-26.3	17.1	0.00e+00	0	43	102	1048576	9	4272
2026-01-07 04:49:00.58	344.36	16.26	-24.8	-26.2	17.1	0.00e+00	0	43	102	1048576	9	4250
2026-01-07 04:49:01.60	344.16	16.31	-24.7	-26.1	17.2	0.00e+00	0	43	102	1048576	9	4233
2026-01-07 04:49:02.60	343.95	16.35	-24.8	-26.2	17.1	0.00e+00	0	43	102	1048576	9	4261
2026-01-07 04:49:03.60	343.75	16.40	-24.9	-26.5	16.9	0.00e+00	0	43	102	1048576	9	4331
2026-01-07 04:49:04.61	343.54	16.44	-24.9	-26.6	16.9	0.00e+00	0	43	102	1048576	9	4356
2026-01-07 04:49:05.60	343.34	16.48	-24.9	-26.6	16.9	0.00e+00	0	43	102	1048576	9	4356
2026-01-07 04:49:06.61	343.13	16.52	-25.2	-26.7	16.6	0.00e+00	0	43	102	1048576	10	4258
2026-01-07 04:49:07.62	342.92	16.57	-25.5	-26.8	16.3	0.00e+00	0	43	102	1048576	11	4195
2026-01-07 04:49:08.63	342.71	16.61	-25.4	-26.5	16.5	0.00e+00	0	43	102	1048576	11	4108
2026-01-07 04:49:09.64	342.50	16.65	-25.0	-26.3	16.9	0.00e+00	0	43	102	1048576	10	4153
2026-01-07 04:49:10.64	342.29	16.69	-24.8	-25.8	17.1	0.00e+00	0	43	102	1048576	10	4032
2026-01-07 04:49:11.65	342.08	16.73	-24.7	-26.0	17.2	0.00e+00	0	43	102	1048576	9	4212
2026-01-07 04:49:12.65	341.87	16.77	-24.7	-26.1	17.2	0.00e+00	0	43	102	1048576	9	4229
2026-01-07 04:49:13.66	341.66	16.81	-24.6	-25.9	17.3	0.00e+00	0	43	102	1048576	9	4180
2026-01-07 04:49:14.67	341.44	16.86	-24.5	-25.7	17.4	0.00e+00	0	43	102	1048576	9	4123
2026-01-07 04:49:15.67	341.23	16.89	-24.5	-25.7	17.4	0.00e+00	0	43	102	1048576	9	4136
2026-01-07 04:49:16.68	341.02	16.93	-24.7	-26.0	17.2	0.00e+00	0	43	102	1048576	9	4210
2026-01-07 04:49:17.69	340.80	16.97	-24.7	-26.1	17.2	0.00e+00	0	43	102	1048576	9	4221
2026-01-07 04:49:18.69	340.59	17.01	-24.8	-26.3	17.1	0.00e+00	0	43	102	1048576	9	4282
2026-01-07 04:49:19.70	340.37	17.05	-25.0	-26.7	16.9	0.00e+00	0	43	102	1048576	9	4373
2026-01-07 04:49:20.70	340.16	17.09	-25.1	-26.4	16.7	0.00e+00	0	43	102	1048576	10	4199
2026-01-07 04:49:21.70	339.94	17.13	-24.9	-26.0	17.0	0.00e+00	0	43	102	1048576	10	4093
2026-01-07 04:49:22.71	339.73	17.16	-24.9	-25.9	17.0	0.00e+00	0	43	102	1048576	10	4061
2026-01-07 04:49:23.71	339.51	17.20	-24.9	-26.4	17.0	0.00e+00	0	43	102	1048576	9	4317
2026-01-07 04:49:24.71	339.29	17.24	-25.1	-26.5	16.7	0.00e+00	0	43	102	1048576	10	4207
2026-01-07 04:49:25.72	339.07	17.27	-25.0	-26.3	16.8	0.00e+00	0	43	102	1048576	10	4161
2026-01-07 04:49:26.73	338.85	17.31	-24.5	-25.2	17.4	0.00e+00	0	43	102	1048576	10	3901
2026-01-07 04:49:27.73	338.64	17.34	-24.2	-25.1	17.7	0.00e+00	0	43	102	1048576	9	3971
2026-01-07 04:49:28.74	338.42	17.38	-24.1	-24.6	17.9	0.00e+00	0	43	102	1048576	9	3817
2026-01-07 04:49:29.74	338.20	17.41	-23.7	-24.8	15.7	0.00e+00	0	43	102	1048576	8	4076
2026-01-07 04:49:30.75	337.97	17.45	-24.3	-25.6	17.1	0.00e+00	0	43	102	1048576	8	4212
2026-01-07 04:49:31.76	337.75	17.48	-24.1	-25.4	14.4	0.00e+00	0	43	102	1048576	8	4146
2026-01-07 04:49:32.76	337.53	17.52	-24.1	-25.3	17.7	0.00e+00	0	43	102	1048576	8	4144
2026-01-07 04:49:33.77	337.31	17.55	-24.1	-25.4	17.8	0.00e+00	0	43	102	1048576	8	4151
2026-01-07 04:49:34.77	337.09	17.58	-24.2	-25.5	17.7	0.00e+00	0	43	102	1048576	8	4184
2026-01-07 04:49:35.78	336.86	17.61	-24.2	-25.5	17.7	1.57e-03	0	43	102	1048576	8	4180
2026-01-07 04:49:36.79	336.64	17.65	-24.3	-25.7	17.7	0.00e+00	0	43	102	1048576	8	4229
2026-01-07 04:49:37.79	336.41	17.68	-24.2	-25.6	17.8	1.59e-03	0	43	102	1048576	8	4196
2026-01-07 04:49:38.80	336.19	17.71	-24.2	-25.5	17.7	0.00e+00	0	43	102	1048576	8	4192
2026-01-07 04:49:39.81	335.96	17.74	-24.2	-25.6	17.7	0.00e+00	0	43	102	1048576	8	4210
2026-01-07 04:49:40.81	335.74	17.77	-24.3	-25.8	17.6	1.44e-03	0	43	102	1048576	8	4269
2026-01-07 04:49:41.82	335.51	17.80	-24.2	-25.6	17.7	0.00e+00	0	43	102	1048576	8	4208
2026-01-07 04:49:42.83	335.28	17.83	-24.2	-25.6	17.7	0.00e+00	0	43	102	1048576	8	4198
2026-01-07 04:49:43.83	335.06	17.86	-24.2	-25.5	17.8	0.00e+00	0	43	102	1048576	8	4173
2026-01-07 04:49:44.84	334.83	17.89	-24.1	-25.3	17.9	1.50e-03	0	43	102	1048576	8	4139
2026-01-07 04:49:45.85	334.60	17.91	-24.4	-25.9	17.6	0.00e+00	0	43	102	1048576	8	4275
2026-01-07 04:49:46.85	334.37	17.94	-24.2	-25.5	17.8	1.48e-03	0	43	102	1048576	8	4170
2026-01-07 04:49:47.85	334.14	17.97	-24.1	-25.4	17.9	1.41e-03	0	43	102	1048576	8	4145
2026-01-07 04:49:48.86	333.91	18.00	-24.3	-25.8	17.6	0.00e+00	0	43	102	1048576	8	4250
2026-01-07 04:49:49.86	333.69	18.02	-24.2	-25.6	17.7	1.40e-03	0	43	102	1048576	8	4208
2026-01-07 04:49:50.87	333.45	18.05	-24.3	-25.6	17.7	1.56e-03	0	43	102	1048576	8	4220
2026-01-07 04:49:51.88	333.22	18.07	-24.3	-25.7	17.7	0.00e+00	0	43	102	1048576	8	4223
2026-01-07 04:49:52.89	332.99	18.10	-24.3	-25.6	17.7	1.67e-03	0	43	102	1048576	8	4213
2026-01-07 04:49:53.89	332.76	18.12	-24.3	-25.7	17.6	1.57e-03	0	43	102	1048576	8	4243
2026-01-07 04:49:54.90	332.53	18.15	-24.2	-25.5	17.8	0.00e+00	0	43	102	1048576	8	4171
2026-01-07 04:49:55.91	332.29	18.17	-24.1	-25.4	17.8	1.36e-03	0	43	102	1048576	8	4145
2026-01-07 04:49:56.91	332.06	18.19	-24.3	-25.6	17.7	1.25e-03	0	43	102	1048576	8	4207
2026-01-07 04:49:57.92	331.83	18.22	-24.1	-25.3	17.9	0.00e+00	0	43	102	1048576	8	4144
2026-01-07 04:49:58.93	331.60	18.24	-24.0	-25.1	18.0	1.28e-03	0	43	102	1048576	8	4093
2026-01-07 04:49:59.93	331.36	18.26	-24.0	-25.1	18.0	0.00e+00	0	43	102	1048576	8	4087
2026-01-07 04:50:00.93	331.13	18.28	-23.9	-24.9	18.1	0.00e+00	0	43	102	1048576	8	4029
2026-01-07 04:50:01.94	330.90	18.30	-23.9	-24.8	18.1	1.58e-03	0	43	102	1048576	8	4006
2026-01-07 04:50:02.94	330.66	18.32	-23.9	-24.9	18.1	1.20e-04	0	43	102	1048576	8	4024
2026-01-07 04:50:03.94	330.43	18.34	-23.8	-24.7	18.2	0.00e+00	0	43	102	1048576	8	3976
2026-01-07 04:50:04.95	330.19	18.36	-23.8	-25.1	18.2	0.00e+00	0	43	102	1048576	7	4183
2026-01-07 04:50:05.96	329.96	18.38	-23.7	-24.9	18.3	1.38e-03	0	43	102	1048576	7	4148
2026-01-07 04:50:06.96	329.72	18.40	-23.8	-25.2	18.2	0.00e+00	0	43	102	1048576	7	4212
2026-01-07 04:50:07.96	329.49	18.42	-23.7	-25.0	18.3	1.38e-03	0	43	102	1048576	7	4173
2026-01-07 04:50:08.97	329.25	18.43	-23.9	-25.4	18.1	1.46e-03	0	43	102	1048576	7	4274
2026-01-07 04:50:09.97	329.02	18.45	-23.9	-25.4	18.1	0.00e+00	0	43	102	1048576	7	4282
2026-01-07 04:50:10.98	328.78	18.47	-24.0	-25.1	18.0	0.00e+00	0	43	102	1048576	8	4087
2026-01-07 04:50:11.99	328.54	18.48	-24.3	-25.8	17.7	0.00e+00	0	43	102	1048576	8	4254
2026-01-07 04:50:13.00	328.30	18.50	-24.1	-25.2	17.9	0.00e+00	0	43	102	1048576	8	4104
2026-01-07 04:50:14.00	328.06	18.51	-23.9	-25.0	18.1	0.00e+00	0	43	102	1048576	8	4047
2026-01-07 04:50:15.01	327.83	18.53	-23.8	-24.7	18.2	0.00e+00	0	43	102	1048576	8	3979
2026-01-07 04:50:16.01	327.59	18.54	-23.9	-24.9	18.1	0.00e+00	0	43	102	1048576	8	4042
2026-01-07 04:50:17.02	327.35	18.56	-23.8	-24.7	18.2	0.00e+00	0	43	102	1048576	8	3994
2026-01-07 04:50:18.03	327.11	18.57	-24.0	-25.1	18.0	0.00e+00	0	43	102	1048576	8	4082
2026-01-07 04:50:19.04	326.87	18.58	-24.2	-25.4	17.9	0.00e+00	0	43	102	1048576	8	4157
2026-01-07 04:50:20.04	326.63	18.59	-23.9	-24.8	18.2	0.00e+00	0	43	102	1048576	8	4005
2026-01-07 04:50:21.05	326.39	18.60	-23.7	-24.5	18.3	0.00e+00	0	43	102	1048576	8	3927
2026-01-07 04:50:22.06	326.15	18.61	-23.7	-24.5	18.3	0.00e+00	0	43	102	1048576	8	3941
2026-01-07 04:50:23.07	325.91	18.63	-23.7	-25.0	18.3	0.00e+00	0	43	102	1048576	7	4164
2026-01-07 04:50:24.07	325.67	18.63	-23.8	-25.2	18.2	0.00e+00	0	43	102	1048576	7	4214
2026-01-07 04:50:25.08	325.43	18.64	-23.8	-25.2	18.2	0.00e+00	0	43	102	1048576	7	4230
2026-01-07 04:50:26.09	325.19	18.65	-24.0	-25.5	18.0	0.00e+00	0	43	102	1048576	7	4297
2026-01-07 04:50:27.09	324.95	18.66	-24.0	-25.5	18.0	0.00e+00	0	43	102	1048576	7	4296
2026-01-07 04:50:28.09	324.72	18.67	-24.1	-25.2	18.0	0.00e+00	0	43	102	1048576	8	4104
2026-01-07 04:50:29.10	324.47	18.68	-24.4	-25.9	17.6	0.00e+00	0	43	102	1048576	8	4281
2026-01-07 04:50:30.10	324.24	18.68	-24.1	-25.3	17.9	0.00e+00	0	43	102	1048576	8	4128
2026-01-07 04:50:31.11	323.99	18.69	-24.1	-25.2	17.9	0.00e+00	0	43	102	1048576	8	4110
2026-01-07 04:50:32.12	323.75	18.69	-24.3	-25.8	17.6	0.00e+00	0	43	102	1048576	8	4260
2026-01-07 04:50:33.12	323.51	18.70	-24.1	-25.2	17.9	0.00e+00	0	43	102	1048576	8	4112
2026-01-07 04:50:34.13	323.27	18.70	-23.9	-24.8	18.1	0.00e+00	0	43	102	1048576	8	4010
2026-01-07 04:50:35.13	323.03	18.71	-23.9	-24.8	18.2	0.00e+00	0	43	102	1048576	8	3999
2026-01-07 04:50:36.14	322.79	18.71	-23.9	-24.8	18.2	0.00e+00	0	43	102	1048576	8	4010
2026-01-07 04:50:37.15	322.55	18.72	-23.7	-24.5	18.3	0.00e+00	0	43	102	1048576	8	3941
2026-01-07 04:50:38.16	322.31	18.72	-23.7	-24.9	18.4	0.00e+00	0	43	102	1048576	7	4136
2026-01-07 04:50:39.16	322.07	18.72	-23.6	-24.7	18.4	0.00e+00	0	43	102	1048576	7	4090
2026-01-07 04:50:40.17	321.82	18.72	-23.6	-24.6	18.5	0.00e+00	0	43	102	1048576	7	4074
2026-01-07 04:50:41.17	321.58	18.72	-23.6	-24.7	18.5	0.00e+00	0	43	102	1048576	7	4104
2026-01-07 04:50:42.18	321.34	18.72	-23.5	-24.5	18.6	0.00e+00	0	43	102	1048576	7	4037
2026-01-07 04:50:43.18	321.10	18.72	-23.6	-24.7	18.4	0.00e+00	0	43	102	1048576	7	4092
2026-01-07 04:50:44.18	320.86	18.72	-23.7	-24.9	18.4	0.00e+00	0	43	102	1048576	7	4143
2026-01-07 04:50:45.20	320.62	18.72	-23.9	-25.3	18.1	0.00e+00	0	43	102	1048576	7	4243
2026-01-07 04:50:46.20	320.38	18.72	-23.7	-25.0	18.3	0.00e+00	0	43	102	1048576	7	4167
2026-01-07 04:50:47.21	320.14	18.72	-23.7	-25.0	18.3	0.00e+00	0	43	102	1048576	7	4181
2026-01-07 04:50:48.21	319.90	18.71	-23.8	-25.2	18.2	0.00e+00	0	43	102	1048576	7	4215
2026-01-07 04:50:49.22	319.65	18.71	-24.0	-25.0	13.2	0.00e+00	0	43	102	1048576	8	4065
2026-01-07 04:50:50.22	319.42	18.71	-23.9	-24.8	14.0	0.00e+00	0	44	102	1048576	8	4012
2026-01-07 04:50:51.23	319.17	18.70	-23.9	-25.4	17.5	0.00e+00	0	43	102	1048576	7	4271
2026-01-07 04:50:52.24	318.93	18.70	-24.0	-25.5	18.0	0.00e+00	0	43	102	1048576	7	4304
2026-01-07 04:50:53.25	318.69	18.69	-24.0	-25.2	18.0	3.58e-04	0	43	102	1048576	8	4097
2026-01-07 04:50:54.26	318.45	18.69	-24.2	-25.5	17.8	0.00e+00	0	43	102	1048576	8	4186
2026-01-07 04:50:55.26	318.21	18.68	-24.1	-25.2	17.9	0.00e+00	0	43	102	1048576	8	4113
2026-01-07 04:50:56.27	317.97	18.67	-24.0	-25.2	17.9	0.00e+00	0	43	102	1048576	8	4098
2026-01-07 04:50:57.28	317.73	18.67	-24.3	-25.7	17.7	0.00e+00	0	43	102	1048576	8	4234
2026-01-07 04:50:58.28	317.49	18.66	-24.3	-25.8	17.6	0.00e+00	0	43	102	1048576	8	4257
2026-01-07 04:50:59.29	317.25	18.65	-24.4	-26.0	17.5	0.00e+00	0	43	102	1048576	8	4318
2026-01-07 04:51:00.30	317.01	18.64	-24.4	-26.0	17.5	2.85e-04	0	43	102	1048576	8	4308
2026-01-07 04:51:01.31	316.76	18.63	-24.6	-25.9	17.3	0.00e+00	0	43	102	1048576	9	4163
2026-01-07 04:51:02.32	316.52	18.62	-24.7	-26.2	17.2	1.28e-03	0	43	102	1048576	9	4238
2026-01-07 04:51:03.32	316.29	18.61	-24.5	-25.6	17.4	0.00e+00	0	43	102	1048576	9	4105
2026-01-07 04:51:04.33	316.05	18.60	-24.6	-25.9	17.3	1.33e-03	0	43	102	1048576	9	4164
2026-01-07 04:51:05.33	315.81	18.59	-24.4	-25.5	17.5	1.34e-03	0	43	102	1048576	9	4061
2026-01-07 04:51:06.34	315.57	18.57	-24.2	-25.6	17.7	2.77e-04	0	43	102	1048576	8	4206
2026-01-07 04:51:07.35	315.33	18.56	-24.2	-25.5	17.8	1.34e-03	0	43	102	1048576	8	4189
2026-01-07 04:51:08.36	315.09	18.55	-24.1	-25.3	17.9	0.00e+00	0	43	102	1048576	8	4143
2026-01-07 04:51:09.36	314.85	18.54	-24.2	-25.5	17.8	3.64e-04	0	43	102	1048576	8	4172
2026-01-07 04:51:10.36	314.61	18.52	-24.2	-25.5	17.8	7.33e-04	0	43	102	1048576	8	4179
2026-01-07 04:51:11.37	314.38	18.51	-24.1	-25.3	17.9	7.63e-04	0	43	102	1048576	8	4120
2026-01-07 04:51:12.38	314.14	18.49	-23.8	-25.1	18.2	1.64e-04	0	43	102	1048576	7	4205
2026-01-07 04:51:13.39	313.90	18.48	-23.9	-25.3	18.1	1.12e-03	0	43	102	1048576	7	4245
2026-01-07 04:51:14.39	313.66	18.46	-24.1	-25.3	17.9	1.32e-03	0	43	102	1048576	8	4130
2026-01-07 04:51:15.40	313.42	18.44	-24.0	-25.1	18.0	1.37e-04	0	43	102	1048576	8	4074
2026-01-07 04:51:16.40	313.19	18.43	-24.0	-25.2	17.9	1.45e-03	0	43	102	1048576	8	4108
2026-01-07 04:51:17.41	312.95	18.41	-24.3	-25.6	17.7	1.42e-03	0	43	102	1048576	8	4222
2026-01-07 04:51:18.42	312.71	18.39	-24.4	-25.5	17.5	2.63e-04	0	43	102	1048576	9	4078
2026-01-07 04:51:19.43	312.48	18.37	-24.1	-24.7	17.9	0.00e+00	0	43	102	1048576	9	3881
2026-01-07 04:51:20.43	312.24	18.35	-24.0	-25.0	18.0	1.24e-03	0	43	102	1048576	8	4063
2026-01-07 04:51:21.44	312.01	18.33	-24.0	-25.0	18.0	1.90e-04	0	43	102	1048576	8	4054
2026-01-07 04:51:22.45	311.77	18.31	-24.0	-25.0	18.0	0.00e+00	0	43	102	1048576	8	4051
2026-01-07 04:51:23.46	311.54	18.29	-24.0	-25.0	18.0	1.21e-03	0	43	102	1048576	8	4053
2026-01-07 04:51:24.46	311.30	18.27	-24.0	-25.1	17.9	0.00e+00	0	43	102	1048576	8	4088
2026-01-07 04:51:25.47	311.07	18.25	-23.8	-24.7	18.1	1.25e-03	0	43	102	1048576	8	3995
2026-01-07 04:51:26.47	310.84	18.23	-23.9	-24.8	18.1	0.00e+00	0	43	102	1048576	8	4002
2026-01-07 04:51:27.48	310.60	18.20	-23.9	-24.9	18.1	0.00e+00	0	43	102	1048576	8	4025
2026-01-07 04:51:28.48	310.37	18.18	-24.0	-25.1	18.0	0.00e+00	0	43	102	1048576	8	4073
2026-01-07 04:51:29.49	310.14	18.16	-24.0	-25.1	17.9	0.00e+00	0	43	102	1048576	8	4080
2026-01-07 04:51:30.50	309.90	18.13	-24.0	-25.1	18.0	1.10e-06	0	43	102	1048576	8	4083
2026-01-07 04:51:31.50	309.67	18.11	-24.0	-25.0	18.0	0.00e+00	0	43	102	1048576	8	4047
2026-01-07 04:51:32.51	309.44	18.09	-24.1	-25.3	17.8	1.15e-03	0	43	102	1048576	8	4142
2026-01-07 04:51:33.52	309.21	18.06	-24.2	-25.5	17.7	0.00e+00	0	43	102	1048576	8	4178
2026-01-07 04:51:34.52	308.98	18.03	-24.0	-25.0	18.0	0.00e+00	0	43	102	1048576	8	4053
2026-01-07 04:51:35.53	308.75	18.01	-24.0	-25.0	17.9	0.00e+00	0	43	102	1048576	8	4068
2026-01-07 04:51:36.53	308.52	17.98	-24.0	-25.1	17.9	0.00e+00	0	43	102	1048576	8	4077
2026-01-07 04:51:37.54	308.29	17.95	-24.1	-25.3	17.8	0.00e+00	0	43	102	1048576	8	4143
2026-01-07 04:51:38.55	308.06	17.93	-24.2	-25.4	17.8	0.00e+00	0	43	102	1048576	8	4159
2026-01-07 04:51:39.55	307.83	17.90	-24.1	-25.2	17.8	0.00e+00	0	43	102	1048576	8	4119
2026-01-07 04:51:40.56	307.60	17.87	-24.2	-25.5	17.7	0.00e+00	0	43	102	1048576	8	4186
2026-01-07 04:51:41.56	307.37	17.84	-24.3	-25.7	17.6	0.00e+00	0	43	102	1048576	8	4232
2026-01-07 04:51:42.57	307.15	17.81	-24.3	-25.7	17.6	0.00e+00	0	43	102	1048576	8	4231
2026-01-07 04:51:43.58	306.92	17.78	-24.2	-25.5	17.7	0.00e+00	0	43	102	1048576	8	4197
2026-01-07 04:51:44.58	306.69	17.75	-24.2	-25.5	17.7	0.00e+00	0	43	102	1048576	8	4176
2026-01-07 04:51:45.59	306.47	17.72	-24.1	-25.3	17.8	0.00e+00	0	43	102	1048576	8	4137
2026-01-07 04:51:46.59	306.24	17.69	-24.0	-25.0	18.0	0.00e+00	0	43	102	1048576	8	4057
2026-01-07 04:51:47.60	306.02	17.66	-24.1	-25.3	17.8	0.00e+00	0	43	102	1048576	8	4127
2026-01-07 04:51:48.60	305.79	17.63	-24.1	-25.2	17.9	0.00e+00	0	43	102	1048576	8	4115
2026-01-07 04:51:49.61	305.57	17.60	-24.0	-25.2	17.9	0.00e+00	0	43	102	1048576	8	4104
2026-01-07 04:51:50.61	305.34	17.56	-24.0	-25.2	17.9	0.00e+00	0	43	102	1048576	8	4098
2026-01-07 04:51:51.62	305.12	17.53	-23.9	-24.8	18.1	0.00e+00	0	43	102	1048576	8	4012
2026-01-07 04:51:52.63	304.90	17.50	-23.9	-24.8	18.1	0.00e+00	0	43	102	1048576	8	4006
2026-01-07 04:51:53.63	304.68	17.46	-23.8	-24.7	18.1	0.00e+00	0	43	102	1048576	8	3980
2026-01-07 04:51:54.64	304.45	17.43	-23.8	-24.6	18.1	0.00e+00	0	43	102	1048576	8	3965
2026-01-07 04:51:55.64	304.23	17.40	-24.0	-25.0	17.9	0.00e+00	0	43	102	1048576	8	4062
2026-01-07 04:51:56.65	304.01	17.36	-24.1	-25.4	17.7	0.00e+00	0	43	102	1048576	8	4152
2026-01-07 04:51:57.66	303.79	17.32	-24.2	-25.5	17.7	0.00e+00	0	43	102	1048576	8	4193
2026-01-07 04:51:58.67	303.57	17.29	-24.2	-25.6	17.6	0.00e+00	0	43	102	1048576	8	4214
2026-01-07 04:51:59.67	303.35	17.25	-24.3	-25.6	17.6	0.00e+00	0	43	102	1048576	8	4218
2026-01-07 04:52:00.68	303.13	17.22	-24.2	-25.6	17.6	0.00e+00	0	43	102	1048576	8	4211
2026-01-07 04:52:01.69	302.91	17.18	-24.3	-25.8	17.5	0.00e+00	0	43	102	1048576	8	4259
2026-01-07 04:52:02.70	302.69	17.14	-24.3	-25.8	17.5	0.00e+00	0	43	102	1048576	8	4253
2026-01-07 04:52:03.71	302.48	17.10	-24.5	-25.7	17.3	0.00e+00	0	43	102	1048576	9	4116
2026-01-07 04:52:04.72	302.26	17.07	-24.8	-26.4	16.9	0.00e+00	0	43	102	1048576	9	4314
2026-01-07 04:52:05.72	302.04	17.03	-24.6	-25.9	17.1	0.00e+00	0	43	102	1048576	9	4186
2026-01-07 04:52:06.73	301.83	16.99	-23.7	-24.4	16.9	0.00e+00	0	43	102	1048576	9	3905
2026-01-07 04:52:07.73	301.61	16.95	-24.0	-25.0	15.2	0.00e+00	0	43	102	1048576	8	4055
2026-01-07 04:52:08.74	301.40	16.91	-24.1	-25.3	17.6	0.00e+00	0	43	102	1048576	8	4130
2026-01-07 04:52:09.75	301.19	16.87	-24.2	-25.6	17.3	0.00e+00	0	43	102	1048576	8	4207
2026-01-07 04:52:10.76	300.97	16.83	-24.3	-25.7	17.4	0.00e+00	0	43	102	1048576	8	4228
2026-01-07 04:52:11.76	300.76	16.79	-24.4	-25.9	17.4	0.00e+00	0	43	102	1048576	8	4286
2026-01-07 04:52:12.77	300.55	16.75	-24.3	-25.7	17.5	1.13e-03	0	43	102	1048576	8	4232
2026-01-07 04:52:13.78	300.33	16.71	-24.2	-25.5	17.6	0.00e+00	0	43	102	1048576	8	4194
2026-01-07 04:52:14.78	300.13	16.67	-24.3	-25.7	17.5	0.00e+00	0	43	102	1048576	8	4237
2026-01-07 04:52:15.79	299.91	16.63	-24.3	-25.8	17.5	4.50e-06	0	43	102	1048576	8	4268
2026-01-07 04:52:16.80	299.70	16.58	-24.5	-25.7	17.2	0.00e+00	0	43	102	1048576	9	4128
2026-01-07 04:52:17.80	299.50	16.54	-24.9	-26.5	16.9	2.20e-06	0	43	102	1048576	9	4332
2026-01-07 04:52:18.81	299.29	16.50	-24.7	-26.2	17.0	1.10e-06	0	43	102	1048576	9	4255
2026-01-07 04:52:19.82	299.08	16.46	-24.5	-25.7	17.3	6.82e-04	0	43	102	1048576	9	4112
2026-01-07 04:52:20.83	298.87	16.41	-24.3	-25.3	17.5	0.00e+00	0	43	102	1048576	9	4034
2026-01-07 04:52:21.84	298.66	16.37	-24.4	-25.5	17.4	3.32e-04	0	43	102	1048576	9	4075
2026-01-07 04:52:22.84	298.46	16.33	-24.5	-25.7	17.3	0.00e+00	0	43	102	1048576	9	4124
2026-01-07 04:52:23.85	298.25	16.28	-24.7	-26.2	17.0	2.30e-04	0	43	102	1048576	9	4262
2026-01-07 04:52:24.86	298.05	16.24	-24.7	-26.1	17.0	3.81e-04	0	43	102	1048576	9	4238
2026-01-07 04:52:25.86	297.84	16.19	-24.6	-25.9	17.1	0.00e+00	0	43	102	1048576	9	4190
2026-01-07 04:52:26.87	297.64	16.15	-24.6	-25.9	17.1	3.09e-04	0	43	102	1048576	9	4183
2026-01-07 04:52:27.88	297.43	16.10	-24.7	-26.0	17.1	8.02e-04	0	43	102	1048576	9	4219
2026-01-07 04:52:28.89	297.23	16.06	-24.5	-25.7	17.3	7.03e-04	0	43	102	1048576	9	4111
2026-01-07 04:52:29.89	297.03	16.01	-24.5	-26.1	17.3	2.92e-04	0	43	102	1048576	8	4340
2026-01-07 04:52:30.90	296.83	15.96	-24.6	-25.9	17.2	5.40e-04	0	43	102	1048576	9	4176
2026-01-07 04:52:31.91	296.63	15.92	-24.7	-26.1	17.0	4.47e-04	0	43	102	1048576	9	4230
2026-01-07 04:52:32.92	296.43	15.87	-24.5	-25.7	17.2	1.34e-04	0	43	102	1048576	9	4135
2026-01-07 04:52:33.92	296.23	15.82	-24.5	-25.6	17.3	8.73e-04	0	43	102	1048576	9	4106
2026-01-07 04:52:34.93	296.03	15.78	-24.6	-25.9	17.1	0.00e+00	0	43	102	1048576	9	4179
2026-01-07 04:52:35.94	295.83	15.73	-24.6	-25.8	17.2	5.60e-05	0	43	102	1048576	9	4159
2026-01-07 04:52:36.95	295.63	15.68	-24.5	-25.7	17.2	0.00e+00	0	43	102	1048576	9	4118
2026-01-07 04:52:37.95	295.44	15.63	-24.7	-26.1	17.0	1.23e-03	0	43	102	1048576	9	4237
2026-01-07 04:52:38.96	295.24	15.58	-24.7	-26.1	17.0	5.83e-05	0	43	102	1048576	9	4227
2026-01-07 04:52:39.96	295.04	15.54	-24.7	-26.1	17.0	1.21e-03	0	43	102	1048576	9	4229
2026-01-07 04:52:40.97	294.85	15.49	-25.1	-26.4	16.6	0.00e+00	0	43	102	1048576	10	4203
2026-01-07 04:52:41.98	294.65	15.44	-24.9	-26.1	16.8	0.00e+00	0	43	102	1048576	10	4114
2026-01-07 04:52:42.98	294.46	15.39	-24.8	-26.3	16.9	1.51e-03	0	43	102	1048576	9	4277
2026-01-07 04:52:43.99	294.27	15.34	-25.0	-26.3	16.6	0.00e+00	0	43	102	1048576	10	4166
2026-01-07 04:52:44.99	294.08	15.29	-25.1	-26.5	16.6	3.40e-04	0	43	102	1048576	10	4222
2026-01-07 04:52:46.00	293.88	15.24	-25.4	-27.0	16.3	0.00e+00	0	43	102	1048576	10	4366
2026-01-07 04:52:47.00	293.69	15.19	-25.2	-26.8	16.4	0.00e+00	0	43	102	1048576	10	4288
2026-01-07 04:52:48.02	293.50	15.14	-25.0	-26.1	16.7	0.00e+00	0	43	102	1048576	10	4123
2026-01-07 04:52:49.02	293.31	15.09	-25.1	-26.4	16.6	0.00e+00	0	43	102	1048576	10	4184
2026-01-07 04:52:50.02	293.13	15.04	-25.4	-27.0	16.2	0.00e+00	0	43	102	1048576	10	4363
2026-01-07 04:52:51.03	292.94	14.99	-25.1	-26.5	16.5	0.00e+00	0	43	102	1048576	10	4220
2026-01-07 04:52:52.03	292.75	14.94	-25.0	-26.2	16.7	0.00e+00	0	43	102	1048576	10	4137
2026-01-07 04:52:53.04	292.56	14.89	-24.9	-26.1	16.7	0.00e+00	0	43	102	1048576	10	4114
2026-01-07 04:52:54.04	292.38	14.83	-24.9	-26.1	16.7	0.00e+00	0	43	102	1048576	10	4129
2026-01-07 04:52:55.05	292.19	14.78	-24.9	-26.1	16.7	0.00e+00	0	43	102	1048576	10	4127
2026-01-07 04:52:56.06	292.00	14.73	-25.0	-26.2	16.7	0.00e+00	0	43	102	1048576	10	4147
2026-01-07 04:52:57.07	291.82	14.68	-24.8	-25.9	16.8	0.00e+00	0	43	102	1048576	10	4070
2026-01-07 04:52:58.07	291.64	14.63	-24.9	-26.5	16.8	0.00e+00	0	43	102	1048576	9	4330
2026-01-07 04:52:59.08	291.45	14.57	-24.9	-26.6	16.7	0.00e+00	0	43	102	1048576	9	4364
2026-01-07 04:53:00.09	291.27	14.52	-25.0	-26.7	16.6	0.00e+00	0	43	102	1048576	9	4393
2026-01-07 04:53:01.09	291.09	14.47	-25.0	-26.7	16.7	0.00e+00	0	43	102	1048576	9	4381
2026-01-07 04:53:02.10	290.91	14.41	-25.0	-26.3	16.6	0.00e+00	0	43	102	1048576	10	4165
2026-01-07 04:53:03.11	290.72	14.36	-25.0	-26.2	16.6	0.00e+00	0	43	102	1048576	10	4146
2026-01-07 04:53:04.12	290.54	14.31	-25.0	-26.2	16.7	0.00e+00	0	43	102	1048576	10	4142
2026-01-07 04:53:05.12	290.37	14.25	-25.0	-26.3	16.6	0.00e+00	0	43	102	1048576	10	4166
2026-01-07 04:53:06.13	290.19	14.20	-25.0	-26.3	16.6	0.00e+00	0	43	102	1048576	10	4165
2026-01-07 04:53:07.14	290.01	14.15	-25.1	-26.4	16.5	0.00e+00	0	43	102	1048576	10	4203
2026-01-07 04:53:08.14	289.83	14.09	-25.3	-26.9	16.3	0.00e+00	0	43	102	1048576	10	4334
2026-01-07 04:53:09.15	289.65	14.04	-25.4	-27.1	16.2	0.00e+00	0	43	102	1048576	10	4393
2026-01-07 04:53:10.15	289.48	13.99	-25.4	-26.7	16.1	0.00e+00	0	43	102	1048576	11	4170
2026-01-07 04:53:11.16	289.30	13.93	-25.4	-26.7	16.1	0.00e+00	0	43	102	1048576	11	4172
2026-01-07 04:53:12.16	289.13	13.88	-25.2	-26.6	16.4	0.00e+00	0	43	102	1048576	10	4251
2026-01-07 04:53:13.16	288.96	13.82	-25.2	-26.6	16.4	0.00e+00	0	43	102	1048576	10	4252
2026-01-07 04:53:14.17	288.78	13.77	-25.2	-26.8	16.3	0.00e+00	0	43	102	1048576	10	4303
2026-01-07 04:53:15.17	288.61	13.71	-25.3	-26.9	16.2	0.00e+00	0	43	102	1048576	10	4342
2026-01-07 04:53:16.17	288.44	13.66	-25.4	-27.1	16.1	0.00e+00	0	43	102	1048576	10	4394
2026-01-07 04:53:17.18	288.27	13.60	-25.2	-26.8	16.3	0.00e+00	0	43	102	1048576	10	4305
2026-01-07 04:53:18.18	288.10	13.55	-25.1	-26.5	16.4	0.00e+00	0	43	102	1048576	10	4223
2026-01-07 04:53:19.19	287.93	13.49	-25.0	-26.4	16.5	0.00e+00	0	44	102	1048576	10	4192
2026-01-07 04:53:20.20	287.76	13.44	-25.0	-26.2	16.6	0.00e+00	0	43	102	1048576	10	4141
2026-01-07 04:53:21.21	287.59	13.38	-25.1	-26.5	16.4	0.00e+00	0	43	102	1048576	10	4224
2026-01-07 04:53:22.22	287.42	13.32	-25.1	-26.5	16.4	0.00e+00	0	43	102	1048576	10	4227
2026-01-07 04:53:23.23	287.25	13.27	-25.3	-26.9	16.2	0.00e+00	0	43	102	1048576	10	4325
2026-01-07 04:53:24.24	287.08	13.21	-25.2	-26.7	16.3	0.00e+00	0	43	102	1048576	10	4280
2026-01-07 04:53:25.24	286.92	13.16	-25.3	-26.7	16.0	0.00e+00	0	43	102	1048576	10	4237
2026-01-07 04:53:26.25	286.75	13.10	-24.7	-26.3	15.7	0.00e+00	0	43	102	1048576	10	4358
2026-01-07 04:53:27.26	286.58	13.04	-25.2	-26.7	12.8	0.00e+00	0	43	102	1048576	10	4290
2026-01-07 04:53:28.26	286.42	12.99	-25.1	-26.6	13.0	0.00e+00	0	43	102	1048576	10	4241
2026-01-07 04:53:29.26	286.26	12.93	-25.1	-26.4	16.4	0.00e+00	0	43	102	1048576	10	4193
2026-01-07 04:53:30.27	286.09	12.87	-25.1	-26.5	16.4	1.91e-04	0	43	102	1048576	10	4223
2026-01-07 04:53:31.28	285.93	12.82	-25.2	-26.6	16.3	0.00e+00	0	43	102	1048576	10	4262
2026-01-07 04:53:32.29	285.77	12.76	-25.3	-26.9	16.2	2.33e-04	0	43	102	1048576	10	4322
2026-01-07 04:53:33.29	285.61	12.70	-25.6	-27.0	15.8	0.00e+00	0	43	102	1048576	11	4248
2026-01-07 04:53:34.30	285.45	12.64	-25.4	-26.7	16.0	2.03e-03	0	43	102	1048576	11	4174
2026-01-07 04:53:35.31	285.29	12.59	-25.4	-27.3	16.0	0.00e+00	0	43	102	1048576	10	4431
2026-01-07 04:53:36.32	285.13	12.53	-25.5	-26.8	15.9	1.94e-03	0	43	102	1048576	11	4210
2026-01-07 04:53:37.33	284.97	12.47	-25.5	-26.9	15.9	1.86e-03	0	44	102	1048576	11	4229
2026-01-07 04:53:38.33	284.81	12.42	-25.6	-27.0	15.9	0.00e+00	0	44	102	1048576	11	4248
2026-01-07 04:53:39.34	284.65	12.36	-25.5	-26.9	15.9	1.92e-03	0	43	102	1048576	11	4214
2026-01-07 04:53:40.34	284.50	12.30	-25.6	-27.0	15.8	0.00e+00	0	43	102	1048576	11	4257
2026-01-07 04:53:41.35	284.34	12.24	-25.6	-27.1	15.7	1.52e-04	0	43	102	1048576	11	4284
2026-01-07 04:53:42.36	284.18	12.18	-25.7	-27.4	15.6	1.57e-03	0	43	102	1048576	11	4348
2026-01-07 04:53:43.37	284.03	12.13	-25.8	-27.6	15.5	1.64e-03	0	43	102	1048576	11	4422
2026-01-07 04:53:44.38	283.87	12.07	-25.8	-27.4	15.6	2.63e-04	0	43	102	1048576	11	4372
2026-01-07 04:53:45.38	283.72	12.01	-25.8	-27.6	15.5	1.77e-03	0	43	102	1048576	11	4409
2026-01-07 04:53:46.39	283.57	11.95	-26.0	-27.4	15.2	1.88e-03	0	43	102	1048576	12	4249
2026-01-07 04:53:47.40	283.41	11.89	-26.1	-27.7	15.1	1.10e-06	0	44	102	1048576	12	4330
2026-01-07 04:53:48.41	283.26	11.84	-25.7	-26.9	15.5	1.88e-03	0	43	102	1048576	12	4116
2026-01-07 04:53:49.41	283.11	11.78	-25.9	-27.7	15.4	1.84e-03	0	43	102	1048576	11	4429
2026-01-07 04:53:50.42	282.96	11.72	-26.0	-27.9	15.3	8.58e-04	0	43	102	1048576	11	4493
2026-01-07 04:53:51.43	282.81	11.66	-26.1	-27.7	15.0	1.78e-03	0	43	102	1048576	12	4324
2026-01-07 04:53:52.44	282.66	11.60	-26.1	-27.7	15.0	2.09e-03	0	43	102	1048576	12	4331
2026-01-07 04:53:53.44	282.51	11.55	-25.9	-27.8	15.3	8.50e-04	0	43	102	1048576	11	4479
2026-01-07 04:53:54.45	282.36	11.49	-25.9	-27.9	15.3	0.00e+00	0	43	102	1048576	11	4488
2026-01-07 04:53:55.46	282.21	11.43	-25.9	-27.7	15.4	1.81e-03	0	43	102	1048576	11	4436
2026-01-07 04:53:56.47	282.07	11.37	-25.8	-27.5	15.5	0.00e+00	0	43	102	1048576	11	4387
2026-01-07 04:53:57.47	281.92	11.31	-25.9	-27.6	15.4	1.55e-03	0	43	102	1048576	11	4427
2026-01-07 04:53:58.48	281.77	11.25	-25.8	-27.6	15.4	0.00e+00	0	43	102	1048576	11	4401
2026-01-07 04:53:59.49	281.63	11.19	-25.9	-27.8	15.3	3.17e-04	0	44	102	1048576	11	4458
2026-01-07 04:54:00.49	281.48	11.13	-25.9	-27.8	15.3	1.43e-03	0	43	102	1048576	11	4458
2026-01-07 04:54:01.50	281.34	11.08	-26.0	-27.9	15.3	0.00e+00	0	44	102	1048576	11	4499
2026-01-07 04:54:02.51	281.19	11.02	-25.9	-27.4	15.2	3.15e-04	0	43	102	1048576	12	4257
2026-01-07 04:54:03.51	281.05	10.96	-25.9	-27.4	15.1	0.00e+00	0	43	102	1048576	12	4246
2026-01-07 04:54:04.52	280.91	10.90	-25.9	-27.4	15.1	2.01e-03	0	43	102	1048576	12	4254
2026-01-07 04:54:05.52	280.77	10.84	-25.8	-27.2	15.3	0.00e+00	0	43	102	1048576	12	4185
2026-01-07 04:54:06.53	280.63	10.78	-25.9	-27.4	15.1	0.00e+00	0	43	102	1048576	12	4251
2026-01-07 04:54:07.53	280.49	10.72	-26.0	-27.5	15.1	0.00e+00	0	44	102	1048576	12	4291
2026-01-07 04:54:08.54	280.35	10.66	-26.1	-27.8	14.9	0.00e+00	0	43	102	1048576	12	4367
2026-01-07 04:54:09.55	280.21	10.61	-26.1	-27.8	14.9	0.00e+00	0	44	102	1048576	12	4362
2026-01-07 04:54:10.56	280.07	10.55	-26.1	-27.6	15.0	0.00e+00	0	43	102	1048576	12	4318
2026-01-07 04:54:11.57	279.93	10.49	-26.0	-27.6	15.0	0.00e+00	0	43	102	1048576	12	4309
2026-01-07 04:54:12.57	279.79	10.43	-26.0	-27.6	15.0	0.00e+00	0	43	102	1048576	12	4298
2026-01-07 04:54:13.57	279.65	10.37	-26.1	-27.8	14.9	1.10e-06	0	43	102	1048576	12	4381
2026-01-07 04:54:14.58	279.52	10.31	-26.0	-27.5	15.1	0.00e+00	0	43	102	1048576	12	4279
2026-01-07 04:54:15.57	279.38	10.25	-26.1	-27.8	14.9	0.00e+00	0	43	102	1048576	12	4376
2026-01-07 04:54:16.58	279.25	10.19	-26.1	-27.8	14.9	0.00e+00	0	44	102	1048576	12	4367
2026-01-07 04:54:17.59	279.11	10.13	-26.1	-27.6	15.0	0.00e+00	0	44	102	1048576	12	4317
2026-01-07 04:54:18.59	278.98	10.07	-26.0	-27.5	15.1	0.00e+00	0	43	102	1048576	12	4276
2026-01-07 04:54:19.60	278.84	10.02	-26.1	-27.6	15.0	0.00e+00	0	43	102	1048576	12	4316
2026-01-07 04:54:20.60	278.71	9.96	-26.2	-28.1	14.7	1.10e-06	0	44	102	1048576	12	4436
2026-01-07 04:54:21.61	278.58	9.90	-26.2	-28.0	14.8	0.00e+00	0	43	102	1048576	12	4424
2026-01-07 04:54:22.62	278.44	9.84	-26.1	-27.7	14.9	1.10e-06	0	43	102	1048576	12	4337
2026-01-07 04:54:23.62	278.31	9.78	-26.0	-27.5	15.0	3.40e-06	0	43	102	1048576	12	4296
2026-01-07 04:54:24.63	278.18	9.72	-26.1	-27.6	15.0	0.00e+00	0	43	102	1048576	12	4325
2026-01-07 04:54:25.64	278.05	9.66	-26.1	-27.8	14.8	0.00e+00	0	43	102	1048576	12	4371
2026-01-07 04:54:26.64	277.92	9.60	-26.1	-27.8	14.8	0.00e+00	0	43	102	1048576	12	4374
2026-01-07 04:54:27.65	277.79	9.54	-26.2	-27.9	14.8	0.00e+00	0	43	102	1048576	12	4403
2026-01-07 04:54:28.66	277.66	9.48	-26.2	-28.0	14.8	1.10e-06	0	43	102	1048576	12	4410
2026-01-07 04:54:29.67	277.53	9.42	-26.3	-28.3	14.6	0.00e+00	0	43	102	1048576	12	4509
2026-01-07 04:54:30.67	277.41	9.36	-26.7	-28.5	14.1	3.40e-06	0	43	102	1048576	13	4465
2026-01-07 04:54:31.68	277.28	9.30	-27.1	-29.0	13.6	8.00e-06	0	44	102	1048576	14	4488
2026-01-07 04:54:32.69	277.15	9.25	-27.4	-29.8	13.1	2.74e-05	0	43	102	1048576	14	4734
2026-01-07 04:54:33.70	277.02	9.19	-27.1	-29.0	13.6	3.31e-05	0	43	102	1048576	14	4496
2026-01-07 04:54:34.70	276.90	9.13	-26.9	-28.7	13.7	1.14e-05	0	44	102	1048576	14	4398
2026-01-07 04:54:35.71	276.77	9.07	-26.7	-28.6	14.1	4.50e-06	0	43	102	1048576	13	4490
2026-01-07 04:54:36.71	276.65	9.01	-26.7	-28.7	14.0	1.10e-06	0	43	102	1048576	13	4512
2026-01-07 04:54:37.72	276.52	8.95	-26.7	-28.5	14.1	2.20e-06	0	43	102	1048576	13	4460
2026-01-07 04:54:38.73	276.40	8.89	-26.7	-28.5	14.1	2.20e-06	0	43	102	1048576	13	4461
2026-01-07 04:54:39.73	276.28	8.83	-26.4	-28.0	14.4	1.10e-06	0	43	102	1048576	13	4320
2026-01-07 04:54:40.74	276.15	8.77	-26.4	-27.9	14.4	0.00e+00	0	43	102	1048576	13	4292
2026-01-07 04:54:41.74	276.03	8.71	-26.5	-28.6	14.3	1.10e-06	0	43	102	1048576	12	4589
2026-01-07 04:54:42.75	275.91	8.65	-26.6	-28.4	14.2	1.10e-06	0	43	102	1048576	13	4430
2026-01-07 04:54:43.76	275.79	8.60	-26.9	-29.1	13.8	1.02e-05	0	44	102	1048576	13	4630
2026-01-07 04:54:44.76	275.67	8.54	-26.8	-28.4	13.9	3.40e-06	0	43	102	1048576	14	4326
2026-01-07 04:54:45.76	275.55	8.48	-26.8	-28.8	13.9	4.50e-06	0	43	102	1048576	13	4546
2026-01-07 04:54:46.76	275.43	8.42	-26.8	-28.8	13.9	1.10e-06	0	43	102	1048576	13	4534
2026-01-07 04:54:47.77	275.31	8.36	-26.9	-29.1	13.7	4.50e-06	0	43	102	1048576	13	4650
2026-01-07 04:54:48.77	275.19	8.30	-26.9	-29.1	13.7	1.94e-05	0	43	102	1048576	13	4637
2026-01-07 04:54:49.78	275.07	8.24	-26.0	-28.2	13.8	4.50e-06	0	43	102	1048576	13	4630
2026-01-07 04:54:50.79	274.95	8.18	-26.2	-28.3	13.2	1.14e-05	0	43	102	1048576	13	4585
2026-01-07 04:54:51.80	274.84	8.12	-26.8	-29.0	12.2	6.80e-06	0	44	102	1048576	13	4597
2026-01-07 04:54:52.80	274.72	8.07	-26.8	-28.8	13.8	2.20e-06	0	43	102	1048576	13	4570
2026-01-07 04:54:53.81	274.60	8.01	-26.8	-28.8	13.8	3.40e-06	0	43	102	1048576	13	4544
2026-01-07 04:54:54.82	274.49	7.95	-26.9	-29.1	13.6	1.02e-05	0	43	102	1048576	13	4657
2026-01-07 04:54:55.83	274.37	7.89	-26.8	-28.5	13.8	2.74e-05	0	43	102	1048576	14	4342
2026-01-07 04:54:56.83	274.26	7.83	-26.7	-28.8	13.9	6.80e-06	0	43	102	1048576	13	4538
2026-01-07 04:54:57.84	274.14	7.77	-26.7	-28.7	13.9	5.70e-06	0	43	102	1048576	13	4524
2026-01-07 04:54:58.85	274.03	7.71	-26.9	-29.1	13.6	3.73e-04	0	43	102	1048576	13	4644
2026-01-07 04:54:59.86	273.91	7.65	-26.8	-28.9	13.7	1.02e-05	0	44	102	1048576	13	4587
2026-01-07 04:55:00.86	273.80	7.60	-26.7	-28.8	13.8	2.42e-03	0	43	102	1048576	13	4537
2026-01-07 04:55:01.86	273.69	7.54	-26.8	-28.8	13.8	1.14e-05	0	43	102	1048576	13	4558
2026-01-07 04:55:02.87	273.58	7.48	-26.6	-28.5	13.9	2.60e-03	0	44	102	1048576	13	4481
2026-01-07 04:55:03.88	273.46	7.42	-26.9	-29.1	13.6	2.07e-04	0	43	102	1048576	13	4648
2026-01-07 04:55:04.89	273.35	7.36	-26.8	-28.9	13.7	9.13e-04	0	44	102	1048576	13	4579
2026-01-07 04:55:05.90	273.24	7.30	-26.7	-28.6	13.8	3.32e-03	0	43	102	1048576	13	4502
2026-01-07 04:55:06.91	273.13	7.24	-26.6	-28.5	13.8	3.40e-06	0	43	102	1048576	13	4484
2026-01-07 04:55:07.91	273.02	7.19	-26.7	-28.6	13.8	9.17e-04	0	44	102	1048576	13	4495
2026-01-07 04:55:08.92	272.91	7.13	-26.6	-28.6	13.9	1.14e-05	0	43	102	1048576	13	4492
2026-01-07 04:55:09.92	272.80	7.07	-26.8	-28.8	13.7	3.36e-03	0	44	102	1048576	13	4562
2026-01-07 04:55:10.93	272.69	7.01	-32.5	-43.2	3.8	8.46e-01	0	44	104	1048576	25	12344
2026-01-07 04:55:11.94	272.59	6.95	-32.9	-44.3	3.8	8.46e-01	0	43	104	1048576	25	13390

#Closed at: 2026-01-07 04:55:12
#Recorded file [1 MB]: D:/data/31010_260107_074616.dat