passes_logs/2026/01/07/R2M6_AANII_01/R2M6_AANII_01__20260107_115919_SUOMI_NPP_rec.log

#Pass ID: 20260107_115919_SUOMI NPP
#Satellite: SUOMI NPP
#Configuration: NPP
#almurnet v.1.7.20240730
#Start time: 2026-01-07 11:59:21

#Version: 2.2.20231116
#Station: R2M6_AANII_01
#Location: 30.233357 lon 59.946436 lat
#TLE: 1 37849U 11061A   26005.94084933  .00000134  00000+0  84554-4 0  9990
#TLE: 2 37849  98.7803 308.0679 0002567  79.1029 281.0436 14.19522657735426

#Time	Az	El	Level	Level2	SNR	BER	BlckErr	Temp	State	Recorded	gain1	gain2
2026-01-07 11:59:21.74	212.69	7.11	-31.1	-35.2	5.1	1.21e+00	0	43	0	0	22	5768
2026-01-07 11:59:22.75	212.79	7.18	-31.5	-35.7	4.9	1.25e+00	0	43	104	0	24	5856
2026-01-07 11:59:23.76	212.89	7.24	-31.3	-34.8	8.3	1.06e-01	0	43	0	0	24	5357
2026-01-07 11:59:24.77	212.98	7.30	-31.2	-34.8	8.7	3.96e-02	0	43	102	1048576	23	5406
2026-01-07 11:59:25.77	213.08	7.37	-31.4	-35.4	8.3	3.54e-02	0	43	102	1048576	23	5734
2026-01-07 11:59:26.78	213.18	7.43	-31.3	-34.9	8.7	4.82e-02	0	43	102	1048576	23	5468
2026-01-07 11:59:27.80	213.28	7.50	-31.1	-34.2	9.2	2.14e-02	0	43	102	1048576	23	5146
2026-01-07 11:59:28.80	213.37	7.56	-31.0	-33.8	9.6	1.48e-02	0	43	102	1048576	23	4962
2026-01-07 11:59:29.81	213.47	7.63	-30.9	-33.3	10.1	1.02e-02	0	43	102	1048576	23	4747
2026-01-07 11:59:30.81	213.57	7.69	-31.0	-33.6	9.9	7.35e-03	0	43	102	1048576	23	4853
2026-01-07 11:59:31.82	213.67	7.76	-30.9	-33.3	10.1	7.97e-03	0	43	102	1048576	23	4758
2026-01-07 11:59:32.83	213.77	7.82	-31.0	-33.9	9.6	1.08e-02	0	43	102	1048576	23	4977
2026-01-07 11:59:33.84	213.87	7.89	-30.9	-33.5	9.9	1.33e-02	0	43	102	1048576	23	4820
2026-01-07 11:59:34.84	213.97	7.95	-30.7	-33.1	10.6	4.60e-03	0	43	102	1048576	22	4747
2026-01-07 11:59:35.85	214.07	8.02	-30.6	-32.6	11.0	2.39e-03	0	43	102	1048576	22	4571
2026-01-07 11:59:36.86	214.17	8.08	-30.3	-31.9	11.6	9.64e-04	0	43	102	1048576	22	4297
2026-01-07 11:59:37.86	214.27	8.15	-30.2	-31.9	11.8	5.07e-04	0	43	102	1048576	21	4411
2026-01-07 11:59:38.87	214.38	8.21	-30.2	-32.1	11.8	4.65e-04	0	43	102	1048576	21	4452
2026-01-07 11:59:39.87	214.48	8.28	-30.2	-32.0	11.8	4.52e-04	0	43	102	1048576	21	4436
2026-01-07 11:59:40.87	214.58	8.34	-30.4	-32.5	11.4	5.17e-04	0	43	102	1048576	21	4616
2026-01-07 11:59:41.88	214.69	8.41	-30.2	-31.9	11.8	4.72e-04	0	43	102	1048576	21	4407
2026-01-07 11:59:42.89	214.79	8.48	-30.2	-32.0	11.8	4.22e-04	0	43	102	1048576	21	4414
2026-01-07 11:59:43.89	214.89	8.54	-30.2	-32.0	11.8	4.29e-04	0	43	102	1048576	21	4409
2026-01-07 11:59:44.90	215.00	8.61	-30.3	-32.3	11.6	6.06e-04	0	43	102	1048576	21	4526
2026-01-07 11:59:45.91	215.10	8.67	-30.3	-32.3	11.6	6.60e-04	0	43	102	1048576	21	4519
2026-01-07 11:59:46.91	215.21	8.74	-30.4	-32.7	11.4	7.32e-04	0	43	102	1048576	21	4652
2026-01-07 11:59:47.92	215.32	8.81	-30.7	-33.4	10.8	1.92e-03	0	43	102	1048576	21	4930
2026-01-07 11:59:48.93	215.42	8.87	-30.6	-33.3	10.8	2.09e-03	0	43	102	1048576	21	4907
2026-01-07 11:59:49.93	215.53	8.94	-30.8	-33.9	10.5	2.39e-03	0	43	102	1048576	21	5156
2026-01-07 11:59:50.93	215.64	9.00	-30.7	-33.6	10.7	3.50e-03	0	43	102	1048576	21	5014
2026-01-07 11:59:51.94	215.75	9.07	-30.6	-33.2	11.0	1.82e-03	0	43	102	1048576	21	4850
2026-01-07 11:59:52.96	215.86	9.14	-30.6	-33.1	11.2	2.12e-03	0	43	102	1048576	21	4800
2026-01-07 11:59:53.96	215.96	9.21	-30.6	-33.0	11.2	1.40e-03	0	43	102	1048576	21	4781
2026-01-07 11:59:54.97	216.07	9.27	-30.7	-33.4	11.0	1.63e-03	0	43	102	1048576	21	4904
2026-01-07 11:59:55.98	216.18	9.34	-30.6	-33.0	11.3	1.36e-03	0	43	102	1048576	21	4764
2026-01-07 11:59:56.98	216.29	9.41	-30.4	-32.7	11.5	9.48e-04	0	43	102	1048576	21	4655
2026-01-07 11:59:57.99	216.41	9.47	-30.4	-32.5	11.6	7.62e-04	0	43	102	1048576	21	4599
2026-01-07 11:59:59.00	216.52	9.54	-30.4	-32.5	11.6	6.73e-04	0	43	102	1048576	21	4600
2026-01-07 12:00:00.00	216.63	9.61	-30.4	-32.4	11.6	6.58e-04	0	43	102	1048576	21	4568
2026-01-07 12:00:01.01	216.74	9.68	-30.3	-32.3	11.8	4.21e-04	0	43	102	1048576	21	4504
2026-01-07 12:00:02.02	216.86	9.74	-30.3	-32.3	11.7	5.33e-04	0	43	102	1048576	21	4526
2026-01-07 12:00:03.02	216.97	9.81	-30.1	-31.7	12.1	4.12e-04	0	43	102	1048576	21	4317
2026-01-07 12:00:04.03	217.08	9.88	-30.2	-31.9	12.0	2.59e-04	0	43	102	1048576	21	4374
2026-01-07 12:00:05.04	217.20	9.95	-30.2	-31.9	12.1	2.68e-04	0	43	102	1048576	21	4358
2026-01-07 12:00:06.04	217.31	10.01	-30.1	-31.5	12.4	1.91e-04	0	43	102	1048576	21	4238
2026-01-07 12:00:07.05	217.43	10.08	-30.0	-31.4	12.4	1.68e-04	0	43	102	1048576	21	4214
2026-01-07 12:00:08.05	217.54	10.15	-30.1	-31.6	12.3	1.90e-04	0	43	102	1048576	21	4288
2026-01-07 12:00:09.06	217.66	10.22	-30.2	-31.7	12.2	1.98e-04	0	43	102	1048576	21	4308
2026-01-07 12:00:10.07	217.78	10.29	-30.0	-31.4	12.4	1.61e-04	0	43	102	1048576	21	4206
2026-01-07 12:00:11.08	217.90	10.36	-30.1	-31.6	12.3	1.49e-04	0	43	102	1048576	21	4284
2026-01-07 12:00:12.09	218.02	10.42	-30.1	-31.5	12.3	1.30e-04	0	43	102	1048576	21	4245
2026-01-07 12:00:13.09	218.13	10.49	-30.1	-31.7	12.3	1.81e-04	0	43	102	1048576	21	4294
2026-01-07 12:00:14.09	218.25	10.56	-30.1	-31.6	12.3	2.07e-04	0	43	102	1048576	21	4284
2026-01-07 12:00:15.10	218.37	10.63	-30.1	-31.7	12.2	2.20e-04	0	43	102	1048576	21	4308
2026-01-07 12:00:16.11	218.49	10.70	-30.4	-32.3	11.8	2.90e-04	0	43	102	1048576	21	4527
2026-01-07 12:00:17.11	218.61	10.77	-30.4	-32.4	11.8	4.60e-04	0	43	102	1048576	21	4531
2026-01-07 12:00:18.12	218.74	10.84	-30.3	-32.0	12.0	4.54e-04	0	43	102	1048576	21	4397
2026-01-07 12:00:19.13	218.86	10.91	-30.2	-31.9	12.1	3.42e-04	0	43	102	1048576	21	4377
2026-01-07 12:00:20.13	218.98	10.97	-30.2	-31.9	12.1	2.17e-04	0	43	102	1048576	21	4359
2026-01-07 12:00:21.14	219.11	11.04	-30.2	-31.8	12.2	2.29e-04	0	43	102	1048576	21	4345
2026-01-07 12:00:22.15	219.23	11.11	-30.3	-32.2	12.0	2.46e-04	0	44	102	1048576	21	4454
2026-01-07 12:00:23.16	219.35	11.18	-30.4	-32.4	11.8	4.68e-04	0	43	102	1048576	21	4524
2026-01-07 12:00:24.16	219.48	11.25	-30.2	-31.8	12.2	2.64e-04	0	43	102	1048576	21	4344
2026-01-07 12:00:25.17	219.60	11.32	-30.2	-31.8	12.2	1.82e-04	0	43	102	1048576	21	4320
2026-01-07 12:00:26.17	219.73	11.39	-30.2	-31.7	12.3	1.56e-04	0	43	102	1048576	21	4292
2026-01-07 12:00:27.18	219.86	11.46	-30.3	-31.9	12.2	2.06e-04	0	43	102	1048576	21	4371
2026-01-07 12:00:28.19	219.98	11.53	-30.2	-31.9	12.2	2.25e-04	0	43	102	1048576	21	4370
2026-01-07 12:00:29.19	220.11	11.60	-30.4	-32.3	11.8	4.20e-04	0	43	102	1048576	21	4505
2026-01-07 12:00:30.20	220.24	11.67	-30.4	-32.5	11.8	5.14e-04	0	43	102	1048576	21	4561
2026-01-07 12:00:31.20	220.37	11.74	-30.5	-32.6	11.7	6.42e-04	0	43	102	1048576	21	4600
2026-01-07 12:00:32.21	220.50	11.81	-30.5	-32.5	11.7	5.16e-04	0	43	102	1048576	21	4569
2026-01-07 12:00:33.22	220.63	11.88	-30.5	-32.6	11.7	5.71e-04	0	43	102	1048576	21	4586
2026-01-07 12:00:34.23	220.76	11.95	-30.6	-33.0	11.4	7.26e-04	0	43	102	1048576	21	4744
2026-01-07 12:00:35.24	220.89	12.02	-30.5	-32.7	11.7	6.77e-04	0	43	102	1048576	21	4622
2026-01-07 12:00:36.24	221.02	12.09	-30.6	-33.0	11.4	8.99e-04	0	43	102	1048576	21	4753
2026-01-07 12:00:37.25	221.16	12.16	-30.4	-32.4	11.8	5.52e-04	0	43	102	1048576	21	4535
2026-01-07 12:00:38.25	221.29	12.23	-30.3	-32.2	12.1	3.41e-04	0	44	102	1048576	21	4438
2026-01-07 12:00:39.27	221.42	12.30	-30.4	-32.3	12.0	2.92e-04	0	43	102	1048576	21	4473
2026-01-07 12:00:40.27	221.56	12.37	-30.3	-31.9	12.2	2.71e-04	0	43	102	1048576	21	4363
2026-01-07 12:00:41.28	221.69	12.44	-30.3	-32.1	12.1	3.37e-04	0	43	102	1048576	21	4426
2026-01-07 12:00:42.29	221.83	12.51	-30.2	-31.8	12.4	1.62e-04	0	43	102	1048576	21	4320
2026-01-07 12:00:43.30	221.97	12.58	-30.1	-31.5	12.5	1.11e-04	0	44	102	1048576	21	4217
2026-01-07 12:00:44.31	222.10	12.66	-30.1	-31.5	12.6	1.04e-04	0	44	102	1048576	21	4225
2026-01-07 12:00:45.32	222.24	12.73	-30.0	-31.2	12.8	6.94e-05	0	44	102	1048576	21	4124
2026-01-07 12:00:46.32	222.38	12.80	-29.9	-31.0	12.9	7.01e-05	0	43	102	1048576	21	4052
2026-01-07 12:00:47.33	222.52	12.87	-29.9	-30.8	13.1	2.82e-05	0	43	102	1048576	21	3994
2026-01-07 12:00:48.34	222.66	12.94	-29.9	-30.9	13.0	5.41e-05	0	43	102	1048576	21	4022
2026-01-07 12:00:49.34	222.80	13.01	-29.7	-30.8	13.4	2.74e-05	0	43	102	1048576	20	4094
2026-01-07 12:00:50.34	222.94	13.08	-29.7	-30.7	13.5	8.30e-06	0	43	102	1048576	20	4059
2026-01-07 12:00:51.34	223.08	13.15	-29.7	-30.7	13.5	2.21e-05	0	43	102	1048576	20	4057
2026-01-07 12:00:52.35	223.22	13.22	-29.6	-30.4	13.6	8.30e-06	0	43	102	1048576	20	3966
2026-01-07 12:00:53.36	223.37	13.29	-29.6	-30.4	13.7	6.10e-06	0	44	102	1048576	20	3972
2026-01-07 12:00:54.36	223.51	13.36	-29.6	-30.6	13.6	2.20e-06	0	43	102	1048576	20	4028
2026-01-07 12:00:55.37	223.65	13.44	-29.6	-30.6	13.5	7.60e-06	0	43	102	1048576	20	4035
2026-01-07 12:00:56.37	223.80	13.51	-29.5	-30.4	13.7	3.00e-06	0	44	102	1048576	20	3958
2026-01-07 12:00:57.38	223.94	13.58	-29.7	-30.7	13.5	9.10e-06	0	44	102	1048576	20	4045
2026-01-07 12:00:58.39	224.09	13.65	-29.6	-30.5	13.6	1.06e-05	0	43	102	1048576	20	3993
2026-01-07 12:00:59.40	224.24	13.72	-29.6	-30.6	13.6	6.10e-06	0	43	102	1048576	20	4014
2026-01-07 12:01:00.41	224.39	13.79	-29.7	-30.7	13.5	1.22e-05	0	43	102	1048576	20	4051
2026-01-07 12:01:01.41	224.53	13.86	-29.6	-30.6	13.5	9.10e-06	0	44	102	1048576	20	4029
2026-01-07 12:01:02.41	224.68	13.94	-29.7	-30.7	13.6	1.37e-05	0	43	102	1048576	20	4041
2026-01-07 12:01:03.42	224.83	14.01	-29.6	-30.6	13.6	1.14e-05	0	44	102	1048576	20	4023
2026-01-07 12:01:04.42	224.98	14.08	-29.7	-30.9	13.4	2.05e-05	0	44	102	1048576	20	4099
2026-01-07 12:01:05.43	225.13	14.15	-29.7	-30.7	13.5	6.80e-06	0	44	102	1048576	20	4040
2026-01-07 12:01:06.43	225.28	14.22	-29.9	-31.2	13.3	1.60e-05	0	43	102	1048576	20	4195
2026-01-07 12:01:07.44	225.44	14.29	-29.9	-31.2	13.2	3.20e-05	0	44	102	1048576	20	4208
2026-01-07 12:01:08.43	225.59	14.36	-30.0	-31.5	13.0	3.58e-05	0	44	102	1048576	20	4291
2026-01-07 12:01:09.44	225.74	14.44	-30.1	-31.8	12.8	5.03e-05	0	44	102	1048576	20	4396
2026-01-07 12:01:10.44	225.89	14.51	-30.2	-32.1	12.7	9.76e-05	0	43	102	1048576	20	4480
2026-01-07 12:01:11.45	226.05	14.58	-30.1	-31.8	12.8	6.40e-05	0	43	102	1048576	20	4405
2026-01-07 12:01:12.45	226.21	14.65	-30.2	-32.1	12.6	7.09e-05	0	43	102	1048576	20	4487
2026-01-07 12:01:13.45	226.36	14.72	-30.1	-31.9	12.7	9.15e-05	0	43	102	1048576	20	4437
2026-01-07 12:01:14.46	226.52	14.80	-30.1	-31.8	12.8	5.18e-05	0	43	102	1048576	20	4397
2026-01-07 12:01:15.47	226.68	14.87	-30.0	-31.7	12.9	3.28e-05	0	43	102	1048576	20	4343
2026-01-07 12:01:16.48	226.84	14.94	-30.0	-31.5	13.1	2.44e-05	0	44	102	1048576	20	4290
2026-01-07 12:01:17.48	227.00	15.01	-30.0	-31.5	13.1	3.20e-05	0	43	102	1048576	20	4280
2026-01-07 12:01:18.49	227.16	15.08	-29.8	-31.1	13.4	5.30e-06	0	43	102	1048576	20	4155
2026-01-07 12:01:19.49	227.32	15.15	-29.7	-30.7	13.6	9.90e-06	0	43	102	1048576	20	4054
2026-01-07 12:01:20.50	227.48	15.23	-29.7	-30.6	13.7	4.50e-06	0	43	102	1048576	20	4010
2026-01-07 12:01:21.50	227.64	15.30	-29.6	-30.4	13.8	5.30e-06	0	44	102	1048576	20	3953
2026-01-07 12:01:22.51	227.81	15.37	-29.5	-30.1	14.0	3.00e-06	0	44	102	1048576	20	3887
2026-01-07 12:01:23.51	227.97	15.44	-29.6	-30.5	13.7	1.50e-06	0	43	102	1048576	20	3998
2026-01-07 12:01:24.52	228.14	15.51	-29.7	-30.8	13.6	7.60e-06	0	44	102	1048576	20	4069
2026-01-07 12:01:25.53	228.30	15.59	-29.7	-30.7	13.6	1.06e-05	0	44	102	1048576	20	4058
2026-01-07 12:01:26.53	228.47	15.66	-29.6	-30.4	13.7	1.14e-05	0	44	102	1048576	20	3964
2026-01-07 12:01:27.54	228.64	15.73	-29.6	-30.4	13.8	8.30e-06	0	43	102	1048576	20	3952
2026-01-07 12:01:28.55	228.81	15.80	-29.5	-30.2	14.0	1.50e-06	0	43	102	1048576	20	3891
2026-01-07 12:01:29.55	228.97	15.87	-29.5	-30.3	13.9	4.50e-06	0	43	102	1048576	20	3932
2026-01-07 12:01:30.56	229.14	15.95	-29.5	-30.2	14.0	4.50e-06	0	44	102	1048576	20	3898
2026-01-07 12:01:31.57	229.31	16.02	-29.4	-30.0	14.0	6.10e-06	0	43	102	1048576	20	3857
2026-01-07 12:01:32.58	229.49	16.09	-29.6	-30.5	13.7	2.20e-06	0	43	102	1048576	20	3996
2026-01-07 12:01:33.58	229.66	16.16	-29.6	-30.5	13.7	6.80e-06	0	44	102	1048576	20	3983
2026-01-07 12:01:34.59	229.83	16.23	-29.5	-30.2	14.0	3.00e-06	0	43	102	1048576	20	3889
2026-01-07 12:01:35.59	230.00	16.30	-29.7	-30.6	13.7	3.00e-06	0	44	102	1048576	20	4011
2026-01-07 12:01:36.60	230.18	16.38	-29.8	-31.1	13.4	1.06e-05	0	43	102	1048576	20	4149
2026-01-07 12:01:37.61	230.36	16.45	-29.9	-31.2	13.4	9.10e-06	0	44	102	1048576	20	4188
2026-01-07 12:01:38.61	230.53	16.52	-30.1	-31.8	13.0	2.82e-05	0	43	102	1048576	20	4371
2026-01-07 12:01:39.62	230.71	16.59	-30.2	-32.0	12.8	1.03e-04	0	44	102	1048576	20	4433
2026-01-07 12:01:40.63	230.89	16.66	-29.9	-31.3	13.3	2.74e-05	0	43	102	1048576	20	4225
2026-01-07 12:01:41.64	231.07	16.73	-30.0	-31.4	13.2	2.13e-05	0	43	102	1048576	20	4261
2026-01-07 12:01:42.64	231.24	16.80	-30.0	-31.4	13.2	2.36e-05	0	44	102	1048576	20	4259
2026-01-07 12:01:43.65	231.43	16.88	-30.1	-31.8	13.0	3.96e-05	0	44	102	1048576	20	4391
2026-01-07 12:01:44.65	231.61	16.95	-30.0	-31.5	13.2	3.96e-05	0	44	102	1048576	20	4270
2026-01-07 12:01:45.66	231.79	17.02	-30.2	-32.0	12.8	4.34e-05	0	43	102	1048576	20	4448
2026-01-07 12:01:46.67	231.97	17.09	-30.2	-31.9	12.9	8.08e-05	0	44	102	1048576	20	4418
2026-01-07 12:01:47.68	232.16	17.16	-30.0	-31.5	13.2	3.05e-05	0	44	102	1048576	20	4262
2026-01-07 12:01:48.68	232.34	17.23	-29.8	-30.9	13.6	1.44e-05	0	43	102	1048576	20	4094
2026-01-07 12:01:49.69	232.53	17.30	-29.6	-30.5	13.9	6.10e-06	0	43	102	1048576	20	3972
2026-01-07 12:01:50.70	232.71	17.37	-29.5	-30.1	14.1	3.00e-06	0	43	102	1048576	20	3876
2026-01-07 12:01:51.69	232.90	17.44	-29.5	-30.0	14.1	3.00e-06	0	44	102	1048576	20	3851
2026-01-07 12:01:52.70	233.09	17.51	-29.5	-30.2	14.0	0.00e+00	0	44	102	1048576	20	3895
2026-01-07 12:01:53.71	233.27	17.58	-29.4	-29.9	14.2	1.50e-06	0	43	102	1048576	20	3800
2026-01-07 12:01:54.72	233.46	17.65	-29.3	-30.2	14.5	1.50e-06	0	44	102	1048576	19	3967
2026-01-07 12:01:55.72	233.65	17.72	-29.2	-29.9	14.6	7.00e-07	0	43	102	1048576	19	3880
2026-01-07 12:01:56.72	233.84	17.79	-29.3	-30.1	14.5	7.00e-07	0	44	102	1048576	19	3950
2026-01-07 12:01:57.72	234.04	17.86	-29.2	-29.8	14.6	0.00e+00	0	43	102	1048576	19	3871
2026-01-07 12:01:58.73	234.23	17.93	-29.2	-29.8	14.8	0.00e+00	0	43	102	1048576	19	3849
2026-01-07 12:01:59.74	234.42	18.00	-29.1	-29.5	14.9	0.00e+00	0	44	102	1048576	19	3771
2026-01-07 12:02:00.75	234.62	18.07	-29.1	-29.6	14.8	0.00e+00	0	43	102	1048576	19	3810
2026-01-07 12:02:01.75	234.81	18.14	-29.1	-29.6	14.8	0.00e+00	0	44	102	1048576	19	3789
2026-01-07 12:02:02.76	235.01	18.21	-29.0	-29.4	14.9	0.00e+00	0	44	102	1048576	19	3758
2026-01-07 12:02:03.76	235.21	18.28	-29.1	-29.5	14.9	7.00e-07	0	44	102	1048576	19	3770
2026-01-07 12:02:04.78	235.41	18.35	-29.1	-29.4	14.9	0.00e+00	0	44	102	1048576	19	3766
2026-01-07 12:02:05.78	235.61	18.42	-29.2	-29.9	14.7	0.00e+00	0	44	102	1048576	19	3885
2026-01-07 12:02:06.78	235.80	18.49	-29.1	-29.5	14.9	0.00e+00	0	44	102	1048576	19	3784
2026-01-07 12:02:07.79	236.01	18.56	-29.0	-29.3	15.0	0.00e+00	0	44	102	1048576	19	3730
2026-01-07 12:02:08.80	236.21	18.63	-29.0	-29.2	15.1	0.00e+00	0	44	102	1048576	19	3697
2026-01-07 12:02:09.81	236.41	18.70	-28.9	-29.2	15.1	0.00e+00	0	44	102	1048576	19	3692
2026-01-07 12:02:10.82	236.62	18.76	-29.0	-29.4	14.9	0.00e+00	0	44	102	1048576	19	3765
2026-01-07 12:02:11.83	236.82	18.83	-29.0	-29.4	15.0	0.00e+00	0	44	102	1048576	19	3742
2026-01-07 12:02:12.83	237.03	18.90	-29.1	-29.6	14.9	1.50e-06	0	44	102	1048576	19	3801
2026-01-07 12:02:13.84	237.23	18.97	-29.2	-29.7	14.8	0.00e+00	0	44	102	1048576	19	3837
2026-01-07 12:02:14.84	237.44	19.04	-29.3	-30.0	14.6	7.00e-07	0	43	102	1048576	19	3903
2026-01-07 12:02:15.85	237.65	19.10	-29.3	-30.2	14.5	3.80e-06	0	43	102	1048576	19	3957
2026-01-07 12:02:16.86	237.86	19.17	-29.2	-29.9	14.7	0.00e+00	0	44	102	1048576	19	3882
2026-01-07 12:02:17.86	238.07	19.24	-29.5	-30.5	14.3	1.50e-06	0	43	102	1048576	19	4046
2026-01-07 12:02:18.87	238.28	19.30	-29.4	-30.4	14.4	1.50e-06	0	44	102	1048576	19	4008
2026-01-07 12:02:19.87	238.49	19.37	-29.3	-30.1	14.6	1.50e-06	0	44	102	1048576	19	3942
2026-01-07 12:02:20.88	238.70	19.44	-29.3	-30.1	14.6	1.50e-06	0	43	102	1048576	19	3936
2026-01-07 12:02:21.88	238.91	19.50	-29.3	-30.1	14.6	2.20e-06	0	44	102	1048576	19	3938
2026-01-07 12:02:22.89	239.13	19.57	-29.3	-30.0	14.7	7.00e-07	0	43	102	1048576	19	3895
2026-01-07 12:02:23.90	239.34	19.64	-29.2	-29.8	14.8	0.00e+00	0	44	102	1048576	19	3862
2026-01-07 12:02:24.91	239.56	19.70	-29.2	-29.7	14.8	3.80e-06	0	44	102	1048576	19	3825
2026-01-07 12:02:25.91	239.78	19.77	-29.3	-30.0	14.6	0.00e+00	0	43	102	1048576	19	3922
2026-01-07 12:02:26.92	240.00	19.83	-29.1	-29.5	14.9	0.00e+00	0	44	102	1048576	19	3776
2026-01-07 12:02:27.92	240.21	19.90	-29.0	-29.3	15.1	0.00e+00	0	43	102	1048576	19	3727
2026-01-07 12:02:28.93	240.43	19.96	-28.9	-29.1	15.2	0.00e+00	0	43	102	1048576	19	3673
2026-01-07 12:02:29.94	240.66	20.03	-29.2	-29.9	14.7	7.00e-07	0	44	102	1048576	19	3884
2026-01-07 12:02:30.94	240.88	20.09	-29.4	-30.2	14.6	7.00e-07	0	43	102	1048576	19	3957
2026-01-07 12:02:31.94	241.10	20.15	-29.5	-30.6	14.3	0.00e+00	0	44	102	1048576	19	4073
2026-01-07 12:02:32.95	241.32	20.22	-29.7	-31.1	14.0	3.00e-06	0	44	102	1048576	19	4211
2026-01-07 12:02:33.96	241.55	20.28	-29.7	-31.1	14.0	1.50e-06	0	43	102	1048576	19	4216
2026-01-07 12:02:34.97	241.77	20.34	-29.8	-31.3	13.9	2.20e-06	0	43	102	1048576	19	4289
2026-01-07 12:02:35.98	242.00	20.41	-29.7	-31.0	14.1	3.00e-06	0	44	102	1048576	19	4175
2026-01-07 12:02:36.98	242.22	20.47	-29.6	-30.7	14.2	0.00e+00	0	44	102	1048576	19	4099
2026-01-07 12:02:37.99	242.45	20.53	-29.6	-30.7	14.2	3.80e-06	0	44	102	1048576	19	4095
2026-01-07 12:02:38.99	242.68	20.59	-30.5	-32.0	13.5	3.80e-06	0	44	102	1048576	20	4264
2026-01-07 12:02:39.99	242.91	20.65	-30.0	-31.4	13.4	1.98e-05	0	43	102	1048576	20	4231
2026-01-07 12:02:41.00	243.14	20.71	-30.2	-32.0	13.0	2.36e-05	0	44	102	1048576	20	4432
2026-01-07 12:02:42.01	243.37	20.78	-30.0	-31.5	13.4	3.66e-05	0	44	102	1048576	20	4244
2026-01-07 12:02:43.02	243.61	20.84	-29.8	-30.8	13.8	6.80e-06	0	44	102	1048576	20	4037
2026-01-07 12:02:44.02	243.84	20.90	-29.6	-30.3	14.1	1.50e-06	0	44	102	1048576	20	3900
2026-01-07 12:02:45.03	244.07	20.96	-29.6	-30.3	14.2	3.00e-06	0	44	102	1048576	20	3904
2026-01-07 12:02:46.04	244.31	21.02	-29.9	-31.1	13.7	1.50e-06	0	44	102	1048576	20	4119
2026-01-07 12:02:47.05	244.54	21.08	-30.1	-31.6	13.3	1.44e-05	0	44	102	1048576	20	4302
2026-01-07 12:02:48.05	244.78	21.13	-30.5	-32.4	12.4	5.95e-05	0	44	102	1048576	21	4453
2026-01-07 12:02:49.07	245.02	21.19	-30.6	-32.5	12.3	1.33e-04	0	43	102	1048576	21	4500
2026-01-07 12:02:50.07	245.26	21.25	-30.7	-32.8	12.2	2.46e-04	0	44	102	1048576	21	4599
2026-01-07 12:02:51.08	245.50	21.31	-30.3	-31.7	12.9	9.07e-05	0	44	102	1048576	21	4215
2026-01-07 12:02:52.09	245.74	21.37	-29.9	-30.6	13.6	1.83e-05	0	44	102	1048576	21	3917
2026-01-07 12:02:53.10	245.98	21.43	-29.6	-30.2	14.2	6.10e-06	0	43	102	1048576	20	3888
2026-01-07 12:02:54.10	246.22	21.48	-29.6	-30.3	14.1	3.00e-06	0	44	102	1048576	20	3910
2026-01-07 12:02:55.11	246.47	21.54	-29.8	-30.9	13.8	4.50e-06	0	44	102	1048576	20	4061
2026-01-07 12:02:56.12	246.71	21.59	-29.8	-30.8	13.9	5.30e-06	0	43	102	1048576	20	4041
2026-01-07 12:02:57.13	246.96	21.65	-29.8	-30.8	13.8	6.80e-06	0	44	102	1048576	20	4055
2026-01-07 12:02:58.13	247.20	21.71	-29.6	-30.3	14.2	2.20e-06	0	44	102	1048576	20	3904
2026-01-07 12:02:59.14	247.45	21.76	-29.3	-29.6	14.6	0.00e+00	0	44	102	1048576	20	3716
2026-01-07 12:03:00.15	247.69	21.81	-29.4	-30.2	14.6	1.50e-06	0	44	102	1048576	19	3955
2026-01-07 12:03:01.16	247.94	21.87	-29.6	-30.6	14.4	0.00e+00	0	43	102	1048576	19	4078
2026-01-07 12:03:02.17	248.19	21.92	-29.6	-30.8	14.3	0.00e+00	0	44	102	1048576	19	4111
2026-01-07 12:03:03.18	248.44	21.98	-29.9	-31.5	13.7	1.50e-06	0	44	102	1048576	19	4346
2026-01-07 12:03:04.19	248.70	22.03	-29.9	-31.6	13.8	1.50e-06	0	44	102	1048576	19	4370
2026-01-07 12:03:05.20	248.95	22.08	-29.6	-30.3	14.2	1.50e-06	0	44	102	1048576	20	3894
2026-01-07 12:03:06.21	249.20	22.13	-29.4	-29.9	14.4	1.50e-06	0	44	102	1048576	20	3782
2026-01-07 12:03:07.21	249.45	22.18	-29.4	-29.7	14.6	0.00e+00	0	44	102	1048576	20	3740
2026-01-07 12:03:08.22	249.71	22.23	-29.4	-29.7	14.5	0.00e+00	0	44	102	1048576	20	3735
2026-01-07 12:03:09.22	249.96	22.28	-29.5	-30.1	14.4	7.00e-07	0	43	102	1048576	20	3838
2026-01-07 12:03:10.23	250.22	22.33	-29.7	-30.4	14.1	2.20e-06	0	44	102	1048576	20	3941
2026-01-07 12:03:11.24	250.47	22.38	-29.7	-30.6	14.0	7.00e-07	0	44	102	1048576	20	3983
2026-01-07 12:03:12.25	250.73	22.43	-29.9	-31.0	13.7	7.60e-06	0	43	102	1048576	20	4090
2026-01-07 12:03:13.25	250.99	22.48	-29.9	-31.2	13.6	5.30e-06	0	44	102	1048576	20	4164
2026-01-07 12:03:14.26	251.25	22.53	-30.2	-31.9	13.2	1.83e-05	0	44	102	1048576	20	4362
2026-01-07 12:03:15.26	251.50	22.58	-30.5	-32.7	12.7	4.65e-05	0	44	102	1048576	20	4628
2026-01-07 12:03:16.27	251.77	22.62	-30.5	-32.3	12.6	5.79e-05	0	44	102	1048576	21	4416
2026-01-07 12:03:17.27	252.02	22.67	-30.8	-33.0	12.1	3.19e-04	0	43	102	1048576	21	4667
2026-01-07 12:03:18.27	252.28	22.72	-30.4	-31.9	12.8	1.45e-04	0	44	102	1048576	21	4293
2026-01-07 12:03:19.28	252.55	22.76	-30.1	-31.0	13.5	2.05e-05	0	44	102	1048576	21	4011
2026-01-07 12:03:20.28	252.81	22.81	-29.7	-30.7	14.0	6.80e-06	0	44	102	1048576	20	3999
2026-01-07 12:03:21.28	253.07	22.85	-29.7	-30.4	14.2	3.00e-06	0	44	102	1048576	20	3924
2026-01-07 12:03:22.28	253.33	22.89	-29.7	-30.5	14.1	2.20e-06	0	44	102	1048576	20	3966
2026-01-07 12:03:23.29	253.60	22.94	-30.1	-31.6	13.4	4.50e-06	0	44	102	1048576	20	4279
2026-01-07 12:03:24.30	253.87	22.98	-30.4	-32.4	12.9	1.83e-05	0	44	102	1048576	20	4546
2026-01-07 12:03:25.31	254.13	23.02	-30.6	-32.6	12.4	9.46e-05	0	44	102	1048576	21	4514
2026-01-07 12:03:26.32	254.40	23.06	-30.4	-32.0	12.8	1.41e-04	0	44	102	1048576	21	4314
2026-01-07 12:03:27.33	254.67	23.10	-30.2	-31.5	13.2	4.42e-05	0	44	102	1048576	21	4152
2026-01-07 12:03:28.34	254.94	23.14	-30.3	-31.7	13.0	2.51e-05	0	44	102	1048576	21	4228
2026-01-07 12:03:29.35	255.21	23.18	-30.3	-31.6	13.0	2.36e-05	0	44	102	1048576	21	4195
2026-01-07 12:03:30.35	255.48	23.22	-30.4	-32.0	12.8	6.25e-05	0	44	102	1048576	21	4328
2026-01-07 12:03:31.36	255.75	23.26	-30.4	-32.0	12.9	4.27e-05	0	44	102	1048576	21	4307
2026-01-07 12:03:32.36	256.02	23.30	-30.3	-31.8	13.0	6.10e-05	0	44	102	1048576	21	4242
2026-01-07 12:03:33.37	256.29	23.34	-30.3	-31.7	13.0	4.50e-05	0	44	102	1048576	21	4218
2026-01-07 12:03:34.38	256.57	23.37	-30.2	-31.3	13.3	1.67e-05	0	44	102	1048576	21	4093
2026-01-07 12:03:35.39	256.84	23.41	-30.3	-31.7	13.0	2.05e-05	0	44	102	1048576	21	4233
2026-01-07 12:03:36.39	257.11	23.45	-30.7	-32.9	12.3	6.63e-05	0	44	102	1048576	21	4603
2026-01-07 12:03:37.40	257.39	23.48	-31.0	-33.6	11.8	2.54e-04	0	44	102	1048576	21	4882
2026-01-07 12:03:38.40	257.66	23.51	-31.5	-34.6	10.7	1.74e-03	0	44	102	1048576	22	5175
2026-01-07 12:03:39.41	257.94	23.55	-31.7	-34.9	10.1	4.91e-03	0	44	102	1048576	23	5220
2026-01-07 12:03:40.41	258.21	23.58	-31.8	-35.1	10.0	8.91e-03	0	44	102	1048576	23	5272
2026-01-07 12:03:41.43	258.49	23.61	-31.6	-34.6	10.3	6.38e-03	0	44	102	1048576	23	5073
2026-01-07 12:03:42.44	258.77	23.65	-31.3	-33.6	11.0	2.37e-03	0	43	102	1048576	23	4681
2026-01-07 12:03:43.43	259.05	23.68	-31.3	-33.4	11.1	1.62e-03	0	44	102	1048576	23	4617
2026-01-07 12:03:44.44	259.32	23.71	-31.3	-33.4	11.2	1.83e-03	0	44	102	1048576	23	4623
2026-01-07 12:03:45.45	259.60	23.74	-31.2	-33.1	11.4	9.00e-04	0	44	102	1048576	23	4511
2026-01-07 12:03:46.46	259.89	23.77	-31.1	-33.1	11.4	1.09e-03	0	44	102	1048576	23	4502
2026-01-07 12:03:47.47	260.17	23.79	-31.3	-33.5	11.1	1.50e-03	0	44	102	1048576	23	4644
2026-01-07 12:03:48.47	260.44	23.82	-31.2	-33.3	11.4	1.42e-03	0	44	102	1048576	23	4565
2026-01-07 12:03:49.48	260.73	23.85	-31.2	-33.1	11.4	1.22e-03	0	44	102	1048576	23	4515
2026-01-07 12:03:50.49	261.01	23.88	-31.1	-32.9	11.6	9.28e-04	0	44	102	1048576	23	4451
2026-01-07 12:03:51.50	261.29	23.90	-31.1	-33.1	11.6	8.44e-04	0	44	102	1048576	23	4491
2026-01-07 12:03:52.50	261.57	23.93	-30.9	-32.4	11.9	6.90e-04	0	44	102	1048576	23	4254
2026-01-07 12:03:53.51	261.86	23.95	-31.1	-32.8	11.6	4.62e-04	0	44	102	1048576	23	4421
2026-01-07 12:03:54.52	262.14	23.97	-31.2	-33.1	11.4	6.61e-04	0	44	102	1048576	23	4516
2026-01-07 12:03:55.52	262.42	24.00	-31.2	-33.4	11.2	1.24e-03	0	44	102	1048576	23	4622
2026-01-07 12:03:56.52	262.70	24.02	-31.4	-33.7	11.0	2.03e-03	0	44	102	1048576	23	4736
2026-01-07 12:03:57.53	262.99	24.04	-31.2	-33.4	11.2	1.86e-03	0	44	102	1048576	23	4602
2026-01-07 12:03:58.54	263.27	24.06	-31.1	-33.0	11.5	1.36e-03	0	43	102	1048576	23	4452
2026-01-07 12:03:59.55	263.56	24.08	-31.0	-32.7	11.8	4.55e-04	0	44	102	1048576	23	4353
2026-01-07 12:04:00.56	263.85	24.10	-30.9	-32.4	11.9	2.39e-04	0	44	102	1048576	23	4259
2026-01-07 12:04:01.56	264.13	24.12	-31.0	-32.6	11.8	2.95e-04	0	44	102	1048576	23	4338
2026-01-07 12:04:02.57	264.42	24.14	-30.9	-32.3	12.0	4.10e-04	0	44	102	1048576	23	4225
2026-01-07 12:04:03.58	264.70	24.16	-30.5	-31.6	12.8	1.22e-04	0	44	102	1048576	22	4103
2026-01-07 12:04:04.59	264.99	24.17	-30.4	-31.5	12.9	9.30e-05	0	44	102	1048576	22	4042
2026-01-07 12:04:05.59	265.28	24.19	-30.2	-31.4	13.3	2.59e-05	0	44	102	1048576	21	4130
2026-01-07 12:04:06.60	265.56	24.20	-30.0	-30.7	13.7	5.30e-06	0	44	102	1048576	21	3925
2026-01-07 12:04:07.60	265.85	24.22	-30.1	-31.2	13.4	3.80e-06	0	44	102	1048576	21	4047
2026-01-07 12:04:08.60	266.14	24.23	-30.4	-31.9	12.9	1.37e-05	0	44	102	1048576	21	4292
2026-01-07 12:04:09.61	266.42	24.24	-30.7	-32.8	12.3	1.37e-04	0	44	102	1048576	21	4585
2026-01-07 12:04:10.62	266.71	24.26	-31.1	-33.4	11.6	5.05e-04	0	44	102	1048576	22	4678
2026-01-07 12:04:11.63	267.00	24.27	-31.1	-33.3	11.7	1.20e-03	0	44	102	1048576	22	4650
2026-01-07 12:04:12.64	267.29	24.28	-30.6	-31.8	12.6	2.78e-04	0	43	102	1048576	22	4162
2026-01-07 12:04:13.64	267.58	24.29	-30.0	-30.8	13.6	1.60e-05	0	44	102	1048576	21	3955
2026-01-07 12:04:14.65	267.87	24.30	-29.9	-30.4	13.9	3.80e-06	0	44	102	1048576	21	3840
2026-01-07 12:04:15.66	268.16	24.30	-30.0	-30.7	13.7	3.00e-06	0	44	102	1048576	21	3933
2026-01-07 12:04:16.66	268.45	24.31	-30.3	-31.6	13.1	1.52e-05	0	44	102	1048576	21	4168
2026-01-07 12:04:17.67	268.74	24.32	-30.4	-31.8	13.0	3.96e-05	0	44	102	1048576	21	4248
2026-01-07 12:04:18.67	269.02	24.33	-30.4	-31.7	13.1	4.50e-05	0	44	102	1048576	21	4222
2026-01-07 12:04:19.68	269.31	24.33	-30.1	-31.1	13.5	1.44e-05	0	44	102	1048576	21	4020
2026-01-07 12:04:20.68	269.60	24.34	-30.1	-31.1	13.4	7.60e-06	0	44	102	1048576	21	4045
2026-01-07 12:04:21.69	269.89	24.34	-30.4	-31.9	13.0	2.51e-05	0	43	102	1048576	21	4272
2026-01-07 12:04:22.70	270.18	24.34	-30.5	-32.1	12.8	7.47e-05	0	43	102	1048576	21	4354
2026-01-07 12:04:23.70	270.47	24.34	-30.5	-32.1	12.8	5.95e-05	0	43	102	1048576	21	4332
2026-01-07 12:04:24.71	270.76	24.35	-30.4	-31.8	13.0	5.11e-05	0	44	102	1048576	21	4227
2026-01-07 12:04:25.72	271.05	24.35	-30.2	-31.4	13.2	2.74e-05	0	44	102	1048576	21	4131
2026-01-07 12:04:26.73	271.34	24.35	-30.1	-31.1	13.5	1.22e-05	0	44	102	1048576	21	4018
2026-01-07 12:04:27.73	271.63	24.35	-30.2	-31.4	13.3	1.29e-05	0	44	102	1048576	21	4128
2026-01-07 12:04:28.74	271.92	24.35	-30.2	-31.4	13.2	2.13e-05	0	44	102	1048576	21	4122
2026-01-07 12:04:29.75	272.21	24.34	-30.2	-31.3	13.3	1.67e-05	0	44	102	1048576	21	4109
2026-01-07 12:04:30.76	272.50	24.34	-30.4	-31.9	13.0	2.82e-05	0	44	102	1048576	21	4277
2026-01-07 12:04:31.76	272.79	24.34	-30.5	-32.1	12.8	5.18e-05	0	44	102	1048576	21	4329
2026-01-07 12:04:32.77	273.08	24.33	-30.4	-32.0	12.8	6.02e-05	0	44	102	1048576	21	4314
2026-01-07 12:04:33.78	273.37	24.33	-30.4	-32.0	12.9	6.33e-05	0	44	102	1048576	21	4306
2026-01-07 12:04:34.78	273.66	24.32	-30.6	-32.4	12.6	9.91e-05	0	44	102	1048576	21	4447
2026-01-07 12:04:35.79	273.95	24.31	-30.4	-31.9	12.9	6.86e-05	0	43	102	1048576	21	4288
2026-01-07 12:04:36.80	274.24	24.31	-30.1	-31.0	13.4	2.59e-05	0	44	102	1048576	21	4000
2026-01-07 12:04:37.80	274.53	24.30	-29.8	-30.3	13.9	3.00e-06	0	44	102	1048576	21	3813
2026-01-07 12:04:38.81	274.82	24.29	-29.8	-30.6	14.1	4.50e-06	0	44	102	1048576	20	3991
2026-01-07 12:04:39.82	275.10	24.28	-29.7	-30.4	14.2	1.50e-06	0	44	102	1048576	20	3920
2026-01-07 12:04:40.83	275.39	24.27	-30.0	-31.3	13.6	7.00e-07	0	44	102	1048576	20	4187
2026-01-07 12:04:41.83	275.68	24.26	-29.9	-31.1	13.7	3.00e-06	0	44	102	1048576	20	4111
2026-01-07 12:04:42.84	275.97	24.25	-29.8	-30.9	13.9	3.80e-06	0	44	102	1048576	20	4059
2026-01-07 12:04:43.84	276.26	24.23	-30.0	-31.4	13.6	6.80e-06	0	43	102	1048576	20	4211
2026-01-07 12:04:44.85	276.54	24.22	-30.0	-31.3	13.7	1.06e-05	0	44	102	1048576	20	4166
2026-01-07 12:04:45.86	276.83	24.21	-29.9	-30.9	13.9	3.80e-06	0	44	102	1048576	20	4070
2026-01-07 12:04:46.86	277.12	24.19	-29.7	-30.5	14.2	3.00e-06	0	44	102	1048576	20	3942
2026-01-07 12:04:47.87	277.40	24.18	-29.5	-30.1	14.4	2.20e-06	0	44	102	1048576	20	3845
2026-01-07 12:04:48.88	277.69	24.16	-29.7	-30.5	14.2	2.20e-06	0	44	102	1048576	20	3936
2026-01-07 12:04:49.89	277.98	24.14	-29.6	-30.3	14.3	7.00e-07	0	43	102	1048576	20	3896
2026-01-07 12:04:50.90	278.27	24.13	-29.6	-30.2	14.3	0.00e+00	0	43	102	1048576	20	3867
2026-01-07 12:04:51.91	278.55	24.11	-29.7	-30.6	14.1	3.00e-06	0	44	102	1048576	20	3978
2026-01-07 12:04:52.91	278.83	24.09	-29.7	-30.4	14.2	3.00e-06	0	44	102	1048576	20	3933
2026-01-07 12:04:53.92	279.12	24.07	-29.8	-30.8	13.9	3.00e-06	0	44	102	1048576	20	4042
2026-01-07 12:04:54.93	279.41	24.05	-29.7	-30.6	14.0	2.20e-06	0	44	102	1048576	20	3995
2026-01-07 12:04:55.93	279.69	24.03	-30.0	-31.2	13.7	4.50e-06	0	44	102	1048576	20	4156
2026-01-07 12:04:56.94	279.97	24.00	-30.2	-31.9	13.3	8.30e-06	0	44	102	1048576	20	4368
2026-01-07 12:04:57.95	280.26	23.98	-30.2	-31.7	13.4	1.52e-05	0	44	102	1048576	20	4300
2026-01-07 12:04:58.95	280.54	23.96	-30.2	-31.8	13.3	1.90e-05	0	44	102	1048576	20	4341
2026-01-07 12:04:59.96	280.82	23.93	-30.0	-31.3	13.6	7.60e-06	0	44	102	1048576	20	4195
2026-01-07 12:05:00.97	281.10	23.91	-29.9	-31.0	13.8	3.00e-06	0	43	102	1048576	20	4088
2026-01-07 12:05:01.98	281.39	23.88	-29.8	-30.8	14.0	4.50e-06	0	43	102	1048576	20	4030
2026-01-07 12:05:02.98	281.67	23.86	-29.8	-30.7	14.1	7.00e-07	0	43	102	1048576	20	3997
2026-01-07 12:05:03.98	281.94	23.83	-29.7	-30.5	14.1	1.50e-06	0	44	102	1048576	20	3958
2026-01-07 12:05:04.99	282.22	23.80	-29.9	-30.9	13.9	1.50e-06	0	44	102	1048576	20	4069
2026-01-07 12:05:05.99	282.50	23.78	-29.6	-30.1	14.3	7.00e-07	0	44	102	1048576	20	3851
2026-01-07 12:05:06.99	282.78	23.75	-29.5	-30.1	14.4	0.00e+00	0	43	102	1048576	20	3839
2026-01-07 12:05:07.99	283.06	23.72	-29.7	-30.5	14.2	1.50e-06	0	44	102	1048576	20	3937
2026-01-07 12:05:09.00	283.34	23.69	-29.7	-30.5	14.1	1.50e-06	0	44	102	1048576	20	3941
2026-01-07 12:05:10.01	283.61	23.66	-29.7	-30.4	14.3	2.20e-06	0	44	102	1048576	20	3913
2026-01-07 12:05:11.01	283.89	23.63	-29.6	-30.3	14.3	7.00e-07	0	43	102	1048576	20	3895
2026-01-07 12:05:12.03	284.17	23.59	-29.3	-29.5	14.8	0.00e+00	0	44	102	1048576	20	3677
2026-01-07 12:05:13.03	284.44	23.56	-29.0	-29.2	15.3	0.00e+00	0	44	102	1048576	19	3693
2026-01-07 12:05:14.04	284.72	23.53	-29.0	-29.1	15.3	0.00e+00	0	44	102	1048576	19	3674
2026-01-07 12:05:15.04	284.99	23.49	-29.1	-29.4	15.2	0.00e+00	0	44	102	1048576	19	3738
2026-01-07 12:05:16.05	285.27	23.46	-29.2	-29.7	15.0	0.00e+00	0	44	102	1048576	19	3807
2026-01-07 12:05:17.06	285.54	23.42	-29.2	-29.7	15.0	0.00e+00	0	43	102	1048576	19	3807
2026-01-07 12:05:18.07	285.81	23.39	-29.1	-29.4	15.2	0.00e+00	0	43	102	1048576	19	3728
2026-01-07 12:05:19.07	286.09	23.35	-28.9	-28.9	15.5	0.00e+00	0	44	102	1048576	19	3607
2026-01-07 12:05:20.08	286.36	23.31	-28.9	-28.8	15.5	0.00e+00	0	44	102	1048576	19	3593
2026-01-07 12:05:21.08	286.63	23.28	-29.0	-29.3	15.3	0.00e+00	0	44	102	1048576	19	3696
2026-01-07 12:05:22.08	286.90	23.24	-28.9	-28.9	15.5	7.00e-07	0	43	102	1048576	19	3603
2026-01-07 12:05:23.09	287.17	23.20	-29.3	-30.0	14.9	0.00e+00	0	44	102	1048576	19	3886
2026-01-07 12:05:24.10	287.44	23.16	-29.4	-30.1	14.8	0.00e+00	0	43	102	1048576	19	3932
2026-01-07 12:05:25.10	287.70	23.12	-29.7	-31.1	14.2	7.00e-07	0	44	102	1048576	19	4196
2026-01-07 12:05:26.11	287.97	23.08	-29.5	-30.5	14.5	2.20e-06	0	44	102	1048576	19	4033
2026-01-07 12:05:27.12	288.24	23.04	-29.8	-31.4	14.0	3.80e-06	0	44	102	1048576	19	4281
2026-01-07 12:05:28.12	288.50	23.00	-29.5	-30.6	14.5	3.00e-06	0	44	102	1048576	19	4047
2026-01-07 12:05:29.13	288.77	22.96	-29.4	-30.3	14.6	1.50e-06	0	43	102	1048576	19	3972
2026-01-07 12:05:30.14	289.03	22.91	-29.3	-29.9	14.9	0.00e+00	0	44	102	1048576	19	3865
2026-01-07 12:05:31.15	289.30	22.87	-29.2	-29.6	15.1	0.00e+00	0	44	102	1048576	19	3791
2026-01-07 12:05:32.15	289.56	22.83	-29.2	-29.8	15.0	0.00e+00	0	44	102	1048576	19	3830
2026-01-07 12:05:33.15	289.82	22.78	-29.0	-29.3	15.3	0.00e+00	0	44	102	1048576	19	3703
2026-01-07 12:05:34.17	290.09	22.74	-28.9	-29.1	15.4	0.00e+00	0	44	102	1048576	19	3652
2026-01-07 12:05:35.18	290.35	22.69	-28.8	-29.1	15.7	0.00e+00	0	44	102	1048576	18	3754
2026-01-07 12:05:36.18	290.61	22.64	-28.8	-29.2	15.6	0.00e+00	0	44	102	1048576	18	3769
2026-01-07 12:05:37.19	290.87	22.60	-28.5	-28.6	16.0	0.00e+00	0	44	102	1048576	18	3630
2026-01-07 12:05:38.19	291.13	22.55	-28.3	-28.4	16.3	0.00e+00	0	44	102	1048576	17	3673
2026-01-07 12:05:39.20	291.38	22.50	-28.3	-28.4	16.3	0.00e+00	0	44	102	1048576	17	3678
2026-01-07 12:05:40.21	291.64	22.46	-28.2	-28.2	16.4	0.00e+00	0	44	102	1048576	17	3628
2026-01-07 12:05:41.21	291.90	22.41	-28.1	-28.1	16.4	0.00e+00	0	44	102	1048576	17	3599
2026-01-07 12:05:42.21	292.15	22.36	-28.1	-28.1	16.5	0.00e+00	0	44	102	1048576	17	3597
2026-01-07 12:05:43.22	292.41	22.31	-28.3	-28.5	16.2	0.00e+00	0	43	102	1048576	17	3704
2026-01-07 12:05:44.23	292.66	22.26	-28.5	-29.0	16.0	0.00e+00	0	44	102	1048576	17	3817
2026-01-07 12:05:45.24	292.92	22.21	-28.5	-29.0	16.0	0.00e+00	0	44	102	1048576	17	3825
2026-01-07 12:05:46.24	293.17	22.16	-28.6	-29.3	15.7	0.00e+00	0	44	102	1048576	17	3896
2026-01-07 12:05:47.25	293.42	22.11	-28.7	-29.6	15.6	0.00e+00	0	43	102	1048576	17	3976
2026-01-07 12:05:48.25	293.67	22.05	-28.5	-29.0	16.0	0.00e+00	0	44	102	1048576	17	3823
2026-01-07 12:05:49.26	293.92	22.00	-28.6	-29.2	15.9	0.00e+00	0	43	102	1048576	17	3866
2026-01-07 12:05:50.27	294.17	21.95	-28.6	-29.3	15.8	0.00e+00	0	43	102	1048576	17	3891
2026-01-07 12:05:51.28	294.42	21.90	-28.7	-29.5	15.6	0.00e+00	0	43	102	1048576	17	3942
2026-01-07 12:05:52.29	294.67	21.84	-28.8	-29.7	15.5	0.00e+00	0	44	102	1048576	17	4002
2026-01-07 12:05:53.29	294.91	21.79	-28.8	-29.8	15.5	0.00e+00	0	44	102	1048576	17	4017
2026-01-07 12:05:54.29	295.16	21.74	-28.9	-30.0	15.4	0.00e+00	0	44	102	1048576	17	4090
2026-01-07 12:05:55.30	295.40	21.68	-29.1	-30.0	15.2	0.00e+00	0	44	102	1048576	18	3978
2026-01-07 12:05:56.31	295.65	21.63	-29.1	-30.0	15.1	0.00e+00	0	44	102	1048576	18	3993
2026-01-07 12:05:57.32	295.89	21.57	-28.9	-29.6	15.3	0.00e+00	0	43	102	1048576	18	3892
2026-01-07 12:05:58.33	296.13	21.51	-28.8	-29.3	15.4	0.00e+00	0	43	102	1048576	18	3814
2026-01-07 12:05:59.33	296.37	21.46	-28.7	-29.1	15.5	0.00e+00	0	44	102	1048576	18	3776
2026-01-07 12:06:00.34	296.62	21.40	-28.9	-29.6	15.3	7.00e-07	0	44	102	1048576	18	3894
2026-01-07 12:06:01.35	296.86	21.34	-28.9	-29.6	15.3	7.00e-07	0	43	102	1048576	18	3897
2026-01-07 12:06:02.36	297.10	21.29	-29.0	-29.9	15.1	0.00e+00	0	44	102	1048576	18	3992
2026-01-07 12:06:03.37	297.33	21.23	-28.9	-29.7	15.2	0.00e+00	0	44	102	1048576	18	3941
2026-01-07 12:06:04.37	297.57	21.17	-28.9	-29.7	15.2	0.00e+00	0	43	102	1048576	18	3925
2026-01-07 12:06:05.38	297.81	21.11	-28.9	-29.5	15.3	0.00e+00	0	44	102	1048576	18	3880
2026-01-07 12:06:06.39	298.04	21.05	-29.0	-29.8	15.1	0.00e+00	0	44	102	1048576	18	3946
2026-01-07 12:06:07.40	298.28	20.99	-28.9	-29.7	15.2	0.00e+00	0	44	102	1048576	18	3927
2026-01-07 12:06:08.40	298.51	20.93	-29.1	-30.2	14.8	0.00e+00	0	44	102	1048576	18	4087
2026-01-07 12:06:09.41	298.74	20.87	-29.2	-30.5	14.7	0.00e+00	0	44	102	1048576	18	4169
2026-01-07 12:06:10.42	298.98	20.81	-29.3	-30.8	14.5	0.00e+00	0	44	102	1048576	18	4252
2026-01-07 12:06:11.43	299.21	20.75	-29.3	-30.7	14.5	1.50e-06	0	44	102	1048576	18	4233
2026-01-07 12:06:12.43	299.44	20.69	-29.5	-30.7	14.2	0.00e+00	0	44	102	1048576	19	4128
2026-01-07 12:06:13.44	299.67	20.63	-29.6	-30.9	14.1	1.50e-06	0	44	102	1048576	19	4188
2026-01-07 12:06:14.45	299.90	20.57	-29.7	-31.1	13.9	1.50e-06	0	43	102	1048576	19	4270
2026-01-07 12:06:15.45	300.12	20.51	-29.9	-31.8	13.5	6.10e-06	0	44	102	1048576	19	4472
2026-01-07 12:06:16.46	300.35	20.45	-29.9	-31.8	13.5	1.14e-05	0	44	102	1048576	19	4465
2026-01-07 12:06:17.47	300.58	20.38	-29.8	-31.6	13.6	9.90e-06	0	44	102	1048576	19	4400
2026-01-07 12:06:18.47	300.80	20.32	-29.7	-31.4	13.8	1.75e-05	0	44	102	1048576	19	4334
2026-01-07 12:06:19.47	301.02	20.26	-29.6	-31.0	14.0	0.00e+00	0	44	102	1048576	19	4227
2026-01-07 12:06:20.48	301.24	20.20	-29.4	-30.4	14.4	7.00e-07	0	43	102	1048576	19	4048
2026-01-07 12:06:21.49	301.47	20.13	-29.3	-30.2	14.5	0.00e+00	0	44	102	1048576	19	3994
2026-01-07 12:06:22.49	301.69	20.07	-29.3	-30.2	14.5	0.00e+00	0	44	102	1048576	19	3996
2026-01-07 12:06:23.50	301.91	20.01	-29.4	-30.3	14.4	0.00e+00	0	44	102	1048576	19	4028
2026-01-07 12:06:24.51	302.13	19.94	-29.5	-30.7	14.2	3.00e-06	0	44	102	1048576	19	4146
2026-01-07 12:06:25.52	302.35	19.88	-29.7	-31.1	13.9	3.80e-06	0	44	102	1048576	19	4251
2026-01-07 12:06:26.53	302.57	19.81	-29.7	-31.3	13.8	2.20e-06	0	44	102	1048576	19	4304
2026-01-07 12:06:27.53	302.78	19.75	-29.9	-31.7	13.4	3.00e-06	0	44	102	1048576	19	4451
2026-01-07 12:06:28.54	303.00	19.68	-29.7	-31.3	13.8	1.22e-05	0	44	102	1048576	19	4310
2026-01-07 12:06:29.55	303.21	19.62	-29.6	-31.1	14.0	2.20e-06	0	44	102	1048576	19	4252
2026-01-07 12:06:30.55	303.43	19.55	-29.8	-31.4	13.7	3.00e-06	0	44	102	1048576	19	4369
2026-01-07 12:06:31.56	303.64	19.49	-29.8	-31.7	13.5	4.50e-06	0	44	102	1048576	19	4446
2026-01-07 12:06:32.57	303.85	19.42	-30.0	-32.1	13.3	1.44e-05	0	44	102	1048576	19	4573
2026-01-07 12:06:33.57	304.06	19.35	-30.0	-31.7	13.1	2.51e-05	0	44	102	1048576	20	4380
2026-01-07 12:06:34.58	304.27	19.29	-30.2	-32.2	12.8	3.73e-05	0	44	102	1048576	20	4535
2026-01-07 12:06:35.59	304.48	19.22	-30.1	-32.1	12.9	9.91e-05	0	44	102	1048576	20	4499
2026-01-07 12:06:36.60	304.69	19.15	-30.1	-31.9	13.0	4.11e-05	0	43	102	1048576	20	4435
2026-01-07 12:06:37.61	304.90	19.09	-30.0	-31.7	13.1	3.12e-05	0	44	102	1048576	20	4369
2026-01-07 12:06:38.61	305.11	19.02	-29.9	-31.3	13.3	1.29e-05	0	44	102	1048576	20	4257
2026-01-07 12:06:39.61	305.31	18.95	-30.0	-31.6	13.2	1.83e-05	0	43	102	1048576	20	4328
2026-01-07 12:06:40.61	305.51	18.89	-29.8	-31.0	13.5	1.75e-05	0	44	102	1048576	20	4153
2026-01-07 12:06:41.62	305.72	18.82	-29.7	-31.0	13.6	1.14e-05	0	43	102	1048576	20	4144
2026-01-07 12:06:42.62	305.92	18.75	-29.9	-31.5	13.2	1.67e-05	0	44	102	1048576	20	4304
2026-01-07 12:06:43.62	306.12	18.68	-30.0	-31.7	13.1	2.21e-05	0	44	102	1048576	20	4379
2026-01-07 12:06:44.63	306.32	18.62	-30.0	-31.5	13.2	3.05e-05	0	44	102	1048576	20	4318
2026-01-07 12:06:45.64	306.52	18.55	-30.0	-31.6	13.1	1.75e-05	0	44	102	1048576	20	4342
2026-01-07 12:06:46.64	306.72	18.48	-30.0	-31.5	13.2	2.28e-05	0	43	102	1048576	20	4313
2026-01-07 12:06:47.65	306.92	18.41	-29.8	-31.0	13.5	2.51e-05	0	43	102	1048576	20	4161
2026-01-07 12:06:48.66	307.12	18.34	-29.7	-30.8	13.7	6.80e-06	0	44	102	1048576	20	4089
2026-01-07 12:06:49.66	307.32	18.27	-29.8	-31.1	13.5	8.30e-06	0	44	102	1048576	20	4175
2026-01-07 12:06:50.67	307.51	18.21	-29.9	-31.4	13.2	1.06e-05	0	44	102	1048576	20	4284
2026-01-07 12:06:51.67	307.71	18.14	-30.1	-32.0	12.9	2.36e-05	0	44	102	1048576	20	4463
2026-01-07 12:06:52.67	307.90	18.07	-30.2	-32.2	12.8	7.40e-05	0	44	102	1048576	20	4530
2026-01-07 12:06:53.68	308.10	18.00	-30.3	-32.4	12.6	6.33e-05	0	44	102	1048576	20	4609
2026-01-07 12:06:54.69	308.29	17.93	-30.2	-32.2	12.7	1.36e-04	0	44	102	1048576	20	4522
2026-01-07 12:06:55.70	308.48	17.86	-29.9	-31.4	13.2	2.28e-05	0	43	102	1048576	20	4280
2026-01-07 12:06:56.71	308.67	17.79	-29.9	-31.4	13.2	1.90e-05	0	44	102	1048576	20	4293
2026-01-07 12:06:57.71	308.86	17.72	-29.8	-31.1	13.4	1.14e-05	0	44	102	1048576	20	4201
2026-01-07 12:06:58.72	309.05	17.65	-29.8	-31.1	13.4	1.29e-05	0	44	102	1048576	20	4198
2026-01-07 12:06:59.73	309.24	17.58	-29.8	-31.2	13.4	1.44e-05	0	44	102	1048576	20	4224
2026-01-07 12:07:00.74	309.43	17.51	-29.9	-31.5	13.2	1.06e-05	0	44	102	1048576	20	4302
2026-01-07 12:07:01.74	309.61	17.44	-30.1	-31.9	12.9	3.12e-05	0	44	102	1048576	20	4434
2026-01-07 12:07:02.75	309.80	17.37	-30.0	-31.7	13.1	3.05e-05	0	44	102	1048576	20	4384
2026-01-07 12:07:03.76	309.99	17.30	-30.1	-31.8	13.0	3.73e-05	0	44	102	1048576	20	4396
2026-01-07 12:07:04.76	310.17	17.23	-30.2	-32.1	12.8	4.73e-05	0	44	102	1048576	20	4476
2026-01-07 12:07:05.77	310.35	17.16	-30.0	-31.6	13.2	2.67e-05	0	44	102	1048576	20	4340
2026-01-07 12:07:06.78	310.54	17.09	-30.0	-31.6	13.1	2.51e-05	0	44	102	1048576	20	4330
2026-01-07 12:07:07.79	310.72	17.02	-29.9	-31.3	13.3	1.90e-05	0	44	102	1048576	20	4231
2026-01-07 12:07:08.79	310.90	16.95	-29.9	-31.4	13.3	2.51e-05	0	44	102	1048576	20	4245
2026-01-07 12:07:09.80	311.08	16.88	-30.0	-31.5	13.2	2.05e-05	0	44	102	1048576	20	4301
2026-01-07 12:07:10.81	311.26	16.81	-30.0	-31.6	13.2	2.21e-05	0	44	102	1048576	20	4309
2026-01-07 12:07:11.82	311.44	16.73	-30.4	-32.6	12.5	8.16e-05	0	44	102	1048576	20	4667
2026-01-07 12:07:12.82	311.61	16.66	-30.3	-31.8	12.6	1.35e-04	0	44	102	1048576	21	4310
2026-01-07 12:07:13.83	311.79	16.59	-30.2	-31.6	12.8	9.38e-05	0	44	102	1048576	21	4235
2026-01-07 12:07:14.84	311.97	16.52	-30.0	-31.0	13.2	4.88e-05	0	44	102	1048576	21	4056
2026-01-07 12:07:15.84	312.14	16.45	-30.0	-31.0	13.2	1.67e-05	0	44	102	1048576	21	4055
2026-01-07 12:07:16.85	312.32	16.38	-30.1	-31.5	12.9	3.89e-05	0	44	102	1048576	21	4205
2026-01-07 12:07:17.86	312.49	16.31	-30.2	-31.7	12.7	4.27e-05	0	44	102	1048576	21	4264
2026-01-07 12:07:18.86	312.66	16.24	-30.4	-32.2	12.3	1.17e-04	0	44	102	1048576	21	4456
2026-01-07 12:07:19.87	312.84	16.17	-30.5	-32.7	12.0	2.23e-04	0	44	102	1048576	21	4601
2026-01-07 12:07:20.87	313.01	16.10	-30.6	-32.8	11.9	3.06e-04	0	44	102	1048576	21	4671
2026-01-07 12:07:21.88	313.18	16.03	-30.8	-33.4	11.5	6.89e-04	0	43	102	1048576	21	4883
2026-01-07 12:07:22.89	313.35	15.95	-30.7	-33.2	11.6	7.22e-04	0	44	102	1048576	21	4805
2026-01-07 12:07:23.89	313.51	15.88	-30.7	-33.1	11.7	6.45e-04	0	44	102	1048576	21	4775
2026-01-07 12:07:24.89	313.68	15.81	-30.7	-33.1	11.7	5.51e-04	0	43	102	1048576	21	4770
2026-01-07 12:07:25.90	313.85	15.74	-30.2	-31.8	12.5	1.52e-04	0	44	102	1048576	21	4330
2026-01-07 12:07:26.91	314.02	15.67	-29.9	-30.9	13.2	5.26e-05	0	44	102	1048576	21	4048
2026-01-07 12:07:27.91	314.18	15.60	-29.8	-31.0	13.4	1.60e-05	0	44	102	1048576	20	4165
2026-01-07 12:07:28.92	314.35	15.53	-29.6	-30.6	13.8	5.30e-06	0	44	102	1048576	20	4019
2026-01-07 12:07:29.93	314.51	15.46	-29.7	-30.7	13.6	1.50e-06	0	44	102	1048576	20	4054
2026-01-07 12:07:30.93	314.67	15.38	-29.6	-30.6	13.7	6.10e-06	0	44	102	1048576	20	4029
2026-01-07 12:07:31.94	314.84	15.31	-29.8	-31.2	13.4	1.14e-05	0	44	102	1048576	20	4206
2026-01-07 12:07:32.95	315.00	15.24	-29.8	-31.2	13.4	2.44e-05	0	44	102	1048576	20	4200
2026-01-07 12:07:33.96	315.16	15.17	-30.0	-31.7	13.0	1.90e-05	0	43	102	1048576	20	4365
2026-01-07 12:07:34.96	315.32	15.10	-29.9	-31.4	13.2	3.20e-05	0	44	102	1048576	20	4257
2026-01-07 12:07:35.97	315.48	15.03	-29.8	-31.2	13.3	1.60e-05	0	44	102	1048576	20	4208
2026-01-07 12:07:36.98	315.64	14.96	-29.7	-30.9	13.5	9.10e-06	0	44	102	1048576	20	4109
2026-01-07 12:07:37.98	315.80	14.89	-29.6	-30.5	13.7	5.30e-06	0	44	102	1048576	20	3992
2026-01-07 12:07:38.99	315.96	14.81	-29.5	-30.4	13.9	3.00e-06	0	44	102	1048576	20	3955
2026-01-07 12:07:39.99	316.11	14.74	-29.7	-30.9	13.5	3.80e-06	0	44	102	1048576	20	4120
2026-01-07 12:07:41.00	316.27	14.67	-29.6	-30.4	13.8	3.80e-06	0	44	102	1048576	20	3963
2026-01-07 12:07:42.01	316.42	14.60	-29.6	-30.5	13.8	9.10e-06	0	44	102	1048576	20	3984
2026-01-07 12:07:43.02	316.58	14.53	-29.8	-31.0	13.5	5.30e-06	0	44	102	1048576	20	4149
2026-01-07 12:07:44.03	316.73	14.46	-30.0	-31.6	13.0	1.67e-05	0	44	102	1048576	20	4348
2026-01-07 12:07:45.04	316.89	14.39	-30.2	-32.2	12.6	5.03e-05	0	44	102	1048576	20	4543
2026-01-07 12:07:46.04	317.04	14.32	-30.2	-32.3	12.6	7.01e-05	0	44	102	1048576	20	4554
2026-01-07 12:07:47.05	317.19	14.24	-30.3	-32.4	12.4	1.52e-04	0	44	102	1048576	20	4609
2026-01-07 12:07:48.06	317.34	14.17	-30.2	-32.2	12.6	1.07e-04	0	44	102	1048576	20	4529
2026-01-07 12:07:49.06	317.49	14.10	-30.0	-31.7	12.9	6.63e-05	0	44	102	1048576	20	4380
2026-01-07 12:07:50.06	317.64	14.03	-30.0	-31.7	13.0	5.95e-05	0	44	102	1048576	20	4361
2026-01-07 12:07:51.07	317.79	13.96	-30.0	-31.7	12.9	5.41e-05	0	44	102	1048576	20	4367
2026-01-07 12:07:52.07	317.94	13.89	-30.2	-32.2	12.6	5.72e-05	0	43	102	1048576	20	4531
2026-01-07 12:07:53.08	318.08	13.82	-30.2	-32.3	12.5	9.07e-05	0	44	102	1048576	20	4591
2026-01-07 12:07:54.08	318.23	13.75	-30.3	-32.7	12.3	1.08e-04	0	44	102	1048576	20	4697
2026-01-07 12:07:55.09	318.38	13.68	-30.5	-33.0	12.0	2.48e-04	0	44	102	1048576	20	4829
2026-01-07 12:07:56.10	318.52	13.61	-30.6	-32.9	11.8	5.23e-04	0	44	102	1048576	21	4693
2026-01-07 12:07:57.11	318.67	13.54	-30.8	-33.6	11.3	5.83e-04	0	44	102	1048576	21	4946
2026-01-07 12:07:58.10	318.81	13.47	-30.6	-33.1	11.6	5.88e-04	0	44	102	1048576	21	4759
2026-01-07 12:07:59.11	318.95	13.40	-30.5	-32.7	11.9	4.10e-04	0	44	102	1048576	21	4618
2026-01-07 12:08:00.11	319.10	13.33	-30.3	-32.2	12.2	2.22e-04	0	44	102	1048576	21	4434
2026-01-07 12:08:01.12	319.24	13.25	-30.3	-31.9	12.4	1.71e-04	0	44	102	1048576	21	4362
2026-01-07 12:08:02.13	319.38	13.18	-30.0	-31.3	12.8	6.17e-05	0	44	102	1048576	21	4154
2026-01-07 12:08:03.14	319.52	13.11	-29.9	-31.0	13.0	5.11e-05	0	44	102	1048576	21	4061
2026-01-07 12:08:04.14	319.66	13.04	-30.1	-31.3	12.8	5.79e-05	0	44	102	1048576	21	4149
2026-01-07 12:08:05.15	319.80	12.97	-30.0	-31.1	13.0	4.34e-05	0	44	102	1048576	21	4095
2026-01-07 12:08:06.16	319.94	12.90	-30.0	-31.1	12.9	6.56e-05	0	44	102	1048576	21	4113
2026-01-07 12:08:07.17	320.08	12.83	-30.2	-31.7	12.6	5.64e-05	0	44	102	1048576	21	4297
2026-01-07 12:08:08.18	320.22	12.76	-30.3	-31.9	12.4	1.14e-04	0	44	102	1048576	21	4357
2026-01-07 12:08:09.18	320.35	12.69	-30.4	-32.2	12.2	2.09e-04	0	44	102	1048576	21	4455
2026-01-07 12:08:10.19	320.49	12.62	-30.3	-32.1	12.3	2.12e-04	0	44	102	1048576	21	4401
2026-01-07 12:08:11.20	320.63	12.55	-30.2	-31.9	12.4	1.74e-04	0	44	102	1048576	21	4341
2026-01-07 12:08:12.20	320.76	12.48	-30.3	-32.0	12.3	1.43e-04	0	44	102	1048576	21	4398
2026-01-07 12:08:13.20	320.89	12.41	-30.3	-32.0	12.3	2.01e-04	0	44	102	1048576	21	4376
2026-01-07 12:08:14.21	321.03	12.34	-30.2	-31.7	12.5	1.72e-04	0	44	102	1048576	21	4281
2026-01-07 12:08:15.22	321.16	12.27	-30.3	-31.9	12.4	1.59e-04	0	44	102	1048576	21	4360
2026-01-07 12:08:16.23	321.30	12.20	-30.4	-32.4	12.0	2.20e-04	0	44	102	1048576	21	4521
2026-01-07 12:08:17.23	321.43	12.13	-30.5	-32.6	11.9	2.83e-04	0	44	102	1048576	21	4576
2026-01-07 12:08:18.24	321.56	12.06	-30.7	-33.1	11.5	7.22e-04	0	44	102	1048576	21	4774
2026-01-07 12:08:19.25	321.69	11.99	-30.7	-33.2	11.5	6.67e-04	0	44	102	1048576	21	4821
2026-01-07 12:08:20.25	321.82	11.92	-30.9	-33.8	11.0	1.01e-03	0	44	102	1048576	21	5056
2026-01-07 12:08:21.26	321.95	11.85	-30.9	-33.8	11.0	1.78e-03	0	44	102	1048576	21	5057
2026-01-07 12:08:22.27	322.08	11.78	-30.8	-33.6	11.1	2.28e-03	0	44	102	1048576	21	4982
2026-01-07 12:08:23.28	322.21	11.72	-30.8	-33.5	11.2	1.69e-03	0	44	102	1048576	21	4929
2026-01-07 12:08:24.28	322.34	11.65	-30.7	-33.1	11.5	1.47e-03	0	44	102	1048576	21	4782
2026-01-07 12:08:25.29	322.46	11.58	-30.5	-32.8	11.7	6.67e-04	0	44	102	1048576	21	4651
2026-01-07 12:08:26.30	322.59	11.51	-30.5	-32.8	11.7	6.20e-04	0	44	102	1048576	21	4646
2026-01-07 12:08:27.31	322.72	11.44	-30.2	-31.8	12.4	2.72e-04	0	44	102	1048576	21	4314
2026-01-07 12:08:28.31	322.84	11.37	-30.1	-31.4	12.7	8.85e-05	0	44	102	1048576	21	4203
2026-01-07 12:08:29.32	322.97	11.30	-30.0	-31.2	12.8	6.79e-05	0	43	102	1048576	21	4123
2026-01-07 12:08:30.33	323.09	11.23	-29.9	-30.8	13.0	4.65e-05	0	44	102	1048576	21	4011
2026-01-07 12:08:31.33	323.22	11.16	-29.9	-31.0	13.0	4.04e-05	0	44	102	1048576	21	4076
2026-01-07 12:08:32.34	323.34	11.10	-30.0	-31.1	12.8	7.09e-05	0	44	102	1048576	21	4108
2026-01-07 12:08:33.35	323.46	11.03	-29.9	-31.0	12.9	4.65e-05	0	44	102	1048576	21	4059
2026-01-07 12:08:34.35	323.58	10.96	-29.9	-31.0	12.8	5.64e-05	0	44	102	1048576	21	4079
2026-01-07 12:08:35.36	323.71	10.89	-30.0	-31.3	12.7	1.04e-04	0	44	102	1048576	21	4150
2026-01-07 12:08:36.36	323.83	10.82	-30.0	-31.2	12.7	7.78e-05	0	44	102	1048576	21	4135
2026-01-07 12:08:37.37	323.95	10.75	-30.1	-31.5	12.6	1.13e-04	0	44	102	1048576	21	4213
2026-01-07 12:08:38.38	324.07	10.69	-30.1	-31.5	12.5	1.06e-04	0	44	102	1048576	21	4224
2026-01-07 12:08:39.38	324.19	10.62	-30.2	-31.8	12.3	1.65e-04	0	44	102	1048576	21	4333
2026-01-07 12:08:40.39	324.31	10.55	-30.2	-31.8	12.3	2.26e-04	0	44	102	1048576	21	4335
2026-01-07 12:08:41.40	324.43	10.48	-30.2	-31.9	12.2	1.59e-04	0	44	102	1048576	21	4343
2026-01-07 12:08:42.41	324.54	10.41	-30.2	-31.8	12.2	2.17e-04	0	44	102	1048576	21	4329
2026-01-07 12:08:43.41	324.66	10.35	-30.3	-32.0	12.1	2.23e-04	0	44	102	1048576	21	4391
2026-01-07 12:08:44.42	324.78	10.28	-30.3	-32.0	12.1	2.20e-04	0	44	102	1048576	21	4403
2026-01-07 12:08:45.43	324.90	10.21	-30.4	-32.5	11.9	3.72e-04	0	44	102	1048576	21	4545
2026-01-07 12:08:46.43	325.01	10.14	-30.4	-32.3	12.0	2.96e-04	0	44	102	1048576	21	4499
2026-01-07 12:08:47.44	325.13	10.08	-30.4	-32.4	11.9	3.33e-04	0	44	102	1048576	21	4524
2026-01-07 12:08:48.45	325.24	10.01	-30.6	-32.9	11.6	6.29e-04	0	44	102	1048576	21	4684
2026-01-07 12:08:49.46	325.36	9.94	-30.6	-32.9	11.5	5.96e-04	0	44	102	1048576	21	4702
2026-01-07 12:08:50.46	325.47	9.88	-30.6	-33.1	11.4	9.49e-04	0	44	102	1048576	21	4768
2026-01-07 12:08:51.47	325.58	9.81	-30.6	-33.1	11.3	9.99e-04	0	44	102	1048576	21	4803
2026-01-07 12:08:52.48	325.70	9.74	-30.7	-33.3	11.2	1.36e-03	0	44	102	1048576	21	4871
2026-01-07 12:08:53.48	325.81	9.67	-30.8	-33.5	11.0	1.58e-03	0	44	102	1048576	21	4950
2026-01-07 12:08:54.49	325.92	9.61	-30.7	-33.2	11.2	1.60e-03	0	44	102	1048576	21	4812
2026-01-07 12:08:55.50	326.03	9.54	-30.6	-33.0	11.3	1.18e-03	0	44	102	1048576	21	4745
2026-01-07 12:08:56.50	326.14	9.47	-30.6	-33.0	11.3	1.51e-03	0	44	102	1048576	21	4756
2026-01-07 12:08:57.50	326.25	9.41	-30.5	-32.7	11.5	8.82e-04	0	44	102	1048576	21	4643
2026-01-07 12:08:58.51	326.36	9.34	-30.5	-32.8	11.4	7.43e-04	0	44	102	1048576	21	4671
2026-01-07 12:08:59.52	326.47	9.28	-30.5	-32.8	11.4	1.10e-03	0	44	102	1048576	21	4687
2026-01-07 12:09:00.52	326.58	9.21	-30.4	-32.4	11.7	7.38e-04	0	44	102	1048576	21	4516
2026-01-07 12:09:01.53	326.69	9.14	-30.4	-32.4	11.5	7.41e-04	0	44	102	1048576	21	4523
2026-01-07 12:09:02.53	326.80	9.08	-30.4	-32.5	11.2	1.00e-03	0	44	102	1048576	21	4576
2026-01-07 12:09:03.54	326.91	9.01	-30.4	-32.4	10.9	1.57e-03	0	44	102	1048576	21	4550
2026-01-07 12:09:04.55	327.01	8.95	-30.4	-32.6	10.6	2.84e-03	0	44	102	1048576	21	4633
2026-01-07 12:09:05.56	327.12	8.88	-30.4	-32.6	10.6	3.03e-03	0	44	102	1048576	21	4629
2026-01-07 12:09:06.56	327.23	8.81	-30.6	-33.0	10.5	3.26e-03	0	44	102	1048576	21	4792
2026-01-07 12:09:07.57	327.33	8.75	-30.7	-33.5	10.5	3.46e-03	0	44	102	1048576	21	4936
2026-01-07 12:09:08.58	327.44	8.68	-30.6	-33.1	11.1	1.71e-03	0	44	102	1048576	21	4809
2026-01-07 12:09:09.58	327.54	8.62	-30.8	-33.6	10.8	1.99e-03	0	44	102	1048576	21	5001
2026-01-07 12:09:10.59	327.65	8.55	-30.7	-33.5	10.8	2.74e-03	0	44	102	1048576	21	4958
2026-01-07 12:09:11.60	327.75	8.49	-30.7	-33.3	10.8	2.81e-03	0	44	102	1048576	21	4886
2026-01-07 12:09:12.61	327.86	8.42	-30.8	-33.7	10.3	4.66e-03	0	44	102	1048576	21	5038
2026-01-07 12:09:13.62	327.96	8.36	-30.5	-33.1	9.9	5.76e-03	0	44	102	1048576	21	4816
2026-01-07 12:09:14.63	328.06	8.29	-30.5	-33.1	8.9	1.60e-02	0	44	102	1048576	21	4853
2026-01-07 12:09:15.64	328.16	8.23	-30.5	-33.3	8.0	3.38e-02	0	44	102	1048576	21	4988
2026-01-07 12:09:16.64	328.27	8.16	-30.5	-33.3	7.6	5.52e-02	0	44	102	1048576	21	5001
2026-01-07 12:09:17.65	328.37	8.10	-30.7	-33.9	7.7	8.45e-02	0	44	102	1048576	21	5216
2026-01-07 12:09:18.66	328.47	8.03	-30.7	-33.9	8.2	5.10e-02	0	44	102	1048576	21	5207
2026-01-07 12:09:19.66	328.57	7.97	-30.8	-34.0	8.8	3.61e-02	0	44	102	1048576	21	5198
2026-01-07 12:09:20.67	328.67	7.90	-30.9	-34.4	9.4	1.75e-02	0	44	102	1048576	21	5336
2026-01-07 12:09:21.68	328.77	7.84	-30.8	-33.9	10.3	6.53e-03	0	44	102	1048576	21	5135
2026-01-07 12:09:22.68	328.87	7.78	-31.0	-34.4	10.1	5.59e-03	0	44	102	1048576	21	5314
2026-01-07 12:09:23.68	328.97	7.71	-30.9	-33.8	10.3	6.17e-03	0	44	102	1048576	22	4979
2026-01-07 12:09:24.69	329.06	7.65	-31.1	-34.2	9.8	8.51e-03	0	44	102	1048576	22	5182
2026-01-07 12:09:25.69	329.16	7.58	-31.0	-34.0	9.7	1.31e-02	0	44	102	1048576	22	5111
2026-01-07 12:09:26.71	329.26	7.52	-31.0	-34.1	9.5	1.23e-02	0	44	102	1048576	22	5138
2026-01-07 12:09:27.72	329.36	7.46	-31.2	-35.0	8.8	2.56e-02	0	44	102	1048576	22	5523
2026-01-07 12:09:28.72	329.45	7.39	-31.2	-34.9	8.8	3.86e-02	0	44	102	1048576	22	5500
2026-01-07 12:09:29.73	329.55	7.33	-31.0	-34.0	9.5	2.12e-02	0	44	102	1048576	22	5109
2026-01-07 12:09:30.74	329.65	7.27	-30.9	-33.9	9.7	1.12e-02	0	44	102	1048576	22	5039
2026-01-07 12:09:31.75	329.74	7.20	-30.8	-33.5	10.0	8.14e-03	0	44	102	1048576	22	4881
2026-01-07 12:09:32.76	329.84	7.14	-30.9	-33.6	10.1	5.07e-03	0	44	102	1048576	22	4938
2026-01-07 12:09:33.77	329.93	7.08	-33.2	-45.3	3.8	6.78e-03	0	44	104	1048576	26	14539
2026-01-07 12:09:34.78	330.03	7.01	-33.5	-46.2	3.8	1.49e+00	0	44	104	1048576	26	15545

#Closed at: 2026-01-07 12:09:35
#Recorded file [1 MB]: D:/data/31010_260107_145923.dat