passes_logs/2026/01/07/R2M6_AANII_01/R2M6_AANII_01__20260107_083844_SUOMI_NPP_rec.log

#Pass ID: 20260107_083844_SUOMI NPP
#Satellite: SUOMI NPP
#Configuration: NPP
#almurnet v.1.7.20240730
#Start time: 2026-01-07 08:38:45

#Version: 2.2.20231116
#Station: R2M6_AANII_01
#Location: 30.233357 lon 59.946436 lat
#TLE: 1 37849U 11061A   26005.94084933  .00000134  00000+0  84554-4 0  9990
#TLE: 2 37849  98.7803 308.0679 0002567  79.1029 281.0436 14.19522657735426

#Time	Az	El	Level	Level2	SNR	BER	BlckErr	Temp	State	Recorded	gain1	gain2
2026-01-07 08:38:45.45	106.15	7.04	-31.8	-37.1	4.6	1.36e+00	0	41	0	0	25	6613
2026-01-07 08:38:46.45	106.07	7.10	-31.6	-36.3	4.8	1.32e+00	0	41	104	0	24	6204
2026-01-07 08:38:47.45	105.98	7.17	-31.6	-36.2	7.1	1.33e-01	0	41	0	0	24	6104
2026-01-07 08:38:48.46	105.90	7.24	-31.7	-36.5	6.9	1.73e-01	0	41	102	1048576	24	6301
2026-01-07 08:38:49.47	105.81	7.30	-31.7	-36.8	6.7	1.67e-01	0	41	102	1048576	24	6430
2026-01-07 08:38:50.47	105.73	7.37	-31.8	-36.9	6.6	2.29e-01	0	41	102	1048576	24	6526
2026-01-07 08:38:51.48	105.64	7.44	-31.9	-37.8	6.0	2.57e-01	0	41	102	1048576	24	7104
2026-01-07 08:38:52.49	105.55	7.51	-32.0	-38.2	5.8	4.05e-01	0	41	102	1048576	24	7402
2026-01-07 08:38:53.49	105.46	7.57	-31.8	-37.2	6.5	2.81e-01	0	41	102	1048576	24	6658
2026-01-07 08:38:54.50	105.38	7.64	-31.6	-36.0	7.3	1.66e-01	0	41	102	1048576	24	5952
2026-01-07 08:38:55.51	105.29	7.71	-31.4	-34.9	8.2	7.32e-02	0	41	102	1048576	24	5413
2026-01-07 08:38:56.52	105.20	7.78	-31.2	-34.6	8.8	4.14e-02	0	41	102	1048576	23	5344
2026-01-07 08:38:57.52	105.11	7.85	-31.0	-33.9	9.4	1.95e-02	0	41	102	1048576	23	5043
2026-01-07 08:38:58.53	105.02	7.91	-30.9	-33.5	9.8	9.08e-03	0	41	102	1048576	23	4864
2026-01-07 08:38:59.54	104.93	7.98	-31.0	-33.8	9.5	1.11e-02	0	41	102	1048576	23	4993
2026-01-07 08:39:00.55	104.84	8.05	-31.1	-34.2	9.3	1.46e-02	0	41	102	1048576	23	5137
2026-01-07 08:39:01.56	104.75	8.12	-31.2	-34.4	9.1	2.35e-02	0	41	102	1048576	23	5251
2026-01-07 08:39:02.56	104.66	8.19	-31.1	-34.2	9.3	2.23e-02	0	41	102	1048576	23	5127
2026-01-07 08:39:03.57	104.56	8.26	-31.2	-34.6	8.9	2.20e-02	0	41	102	1048576	23	5319
2026-01-07 08:39:04.58	104.47	8.33	-31.2	-34.5	9.0	2.70e-02	0	41	102	1048576	23	5302
2026-01-07 08:39:05.58	104.38	8.39	-31.1	-34.1	9.4	1.75e-02	0	41	102	1048576	23	5098
2026-01-07 08:39:06.60	104.28	8.47	-31.0	-33.9	9.5	1.56e-02	0	41	102	1048576	23	5027
2026-01-07 08:39:07.61	104.19	8.53	-31.0	-34.0	9.5	1.72e-02	0	41	102	1048576	23	5055
2026-01-07 08:39:08.61	104.10	8.60	-31.1	-34.0	9.5	1.47e-02	0	42	102	1048576	23	5063
2026-01-07 08:39:09.61	104.00	8.67	-31.0	-33.9	9.6	1.76e-02	0	41	102	1048576	23	5003
2026-01-07 08:39:10.62	103.91	8.74	-30.9	-33.3	10.0	1.22e-02	0	42	102	1048576	23	4766
2026-01-07 08:39:11.63	103.81	8.81	-30.8	-33.5	10.3	5.60e-03	0	42	102	1048576	22	4902
2026-01-07 08:39:12.64	103.71	8.88	-30.7	-33.2	10.5	3.86e-03	0	42	102	1048576	22	4790
2026-01-07 08:39:13.65	103.62	8.95	-30.7	-33.2	10.5	3.68e-03	0	42	102	1048576	22	4787
2026-01-07 08:39:14.65	103.52	9.02	-30.7	-33.1	10.6	3.89e-03	0	42	102	1048576	22	4771
2026-01-07 08:39:15.66	103.42	9.09	-30.6	-32.8	10.8	2.72e-03	0	42	102	1048576	22	4649
2026-01-07 08:39:16.67	103.32	9.16	-30.8	-33.5	10.3	3.43e-03	0	42	102	1048576	22	4931
2026-01-07 08:39:17.67	103.23	9.23	-30.9	-33.6	10.2	5.94e-03	0	42	102	1048576	22	4959
2026-01-07 08:39:18.68	103.13	9.30	-30.7	-33.2	10.5	4.38e-03	0	42	102	1048576	22	4785
2026-01-07 08:39:19.68	103.03	9.37	-30.7	-33.3	10.5	3.56e-03	0	42	102	1048576	22	4806
2026-01-07 08:39:20.69	102.93	9.45	-30.6	-32.9	10.8	3.35e-03	0	42	102	1048576	22	4662
2026-01-07 08:39:21.70	102.83	9.52	-30.5	-32.6	11.0	1.87e-03	0	42	102	1048576	22	4555
2026-01-07 08:39:22.70	102.73	9.59	-30.6	-32.8	10.9	1.85e-03	0	42	102	1048576	22	4632
2026-01-07 08:39:23.71	102.63	9.66	-30.5	-32.5	11.1	2.10e-03	0	42	102	1048576	22	4523
2026-01-07 08:39:24.72	102.52	9.73	-30.6	-32.7	11.0	1.72e-03	0	42	102	1048576	22	4578
2026-01-07 08:39:25.72	102.42	9.80	-30.7	-33.1	10.7	2.58e-03	0	42	102	1048576	22	4727
2026-01-07 08:39:26.73	102.32	9.87	-30.7	-33.1	10.6	4.06e-03	0	42	102	1048576	22	4749
2026-01-07 08:39:27.74	102.21	9.95	-30.7	-33.1	10.6	3.35e-03	0	42	102	1048576	22	4762
2026-01-07 08:39:28.75	102.11	10.02	-30.8	-33.3	10.5	3.80e-03	0	42	102	1048576	22	4819
2026-01-07 08:39:29.75	102.01	10.09	-30.8	-33.4	10.4	3.71e-03	0	42	102	1048576	22	4848
2026-01-07 08:39:30.75	101.90	10.16	-30.8	-33.4	10.4	3.96e-03	0	42	102	1048576	22	4872
2026-01-07 08:39:31.76	101.80	10.23	-30.7	-33.1	10.7	4.13e-03	0	42	102	1048576	22	4749
2026-01-07 08:39:32.76	101.69	10.30	-30.7	-33.2	10.6	3.27e-03	0	42	102	1048576	22	4768
2026-01-07 08:39:33.76	101.58	10.38	-30.9	-33.6	10.3	4.13e-03	0	42	102	1048576	22	4954
2026-01-07 08:39:34.77	101.48	10.45	-30.9	-33.9	10.1	6.23e-03	0	42	102	1048576	22	5043
2026-01-07 08:39:35.77	101.37	10.52	-31.1	-34.4	9.7	9.02e-03	0	42	102	1048576	22	5259
2026-01-07 08:39:36.78	101.26	10.59	-30.8	-33.5	10.4	7.79e-03	0	42	102	1048576	22	4892
2026-01-07 08:39:37.79	101.15	10.67	-30.7	-33.0	10.8	3.29e-03	0	42	102	1048576	22	4686
2026-01-07 08:39:38.80	101.04	10.74	-30.6	-32.5	11.2	1.62e-03	0	42	102	1048576	22	4524
2026-01-07 08:39:39.80	100.93	10.81	-30.4	-32.0	11.6	9.33e-04	0	42	102	1048576	22	4326
2026-01-07 08:39:40.81	100.82	10.89	-30.4	-32.0	11.6	5.65e-04	0	42	102	1048576	22	4338
2026-01-07 08:39:41.82	100.71	10.96	-30.6	-32.6	11.2	1.30e-03	0	42	102	1048576	22	4528
2026-01-07 08:39:42.83	100.60	11.03	-30.6	-32.5	11.3	1.31e-03	0	42	102	1048576	22	4506
2026-01-07 08:39:43.83	100.49	11.11	-30.8	-33.1	10.8	1.51e-03	0	42	102	1048576	22	4717
2026-01-07 08:39:44.84	100.37	11.18	-30.8	-33.1	10.8	2.48e-03	0	42	102	1048576	22	4729
2026-01-07 08:39:45.85	100.26	11.25	-30.7	-33.0	10.8	2.70e-03	0	42	102	1048576	22	4692
2026-01-07 08:39:46.85	100.15	11.33	-30.8	-33.1	10.8	2.85e-03	0	42	102	1048576	22	4728
2026-01-07 08:39:47.86	100.03	11.40	-30.8	-33.3	10.7	2.84e-03	0	42	102	1048576	22	4809
2026-01-07 08:39:48.87	99.92	11.48	-30.8	-33.4	10.6	3.36e-03	0	42	102	1048576	22	4825
2026-01-07 08:39:49.88	99.80	11.55	-30.8	-33.4	10.6	3.13e-03	0	42	102	1048576	22	4833
2026-01-07 08:39:50.88	99.68	11.62	-30.9	-33.6	10.5	3.70e-03	0	42	102	1048576	22	4899
2026-01-07 08:39:51.89	99.57	11.70	-30.9	-33.6	10.4	4.06e-03	0	42	102	1048576	22	4905
2026-01-07 08:39:52.90	99.45	11.77	-30.9	-33.6	10.5	4.05e-03	0	42	102	1048576	22	4916
2026-01-07 08:39:53.91	99.33	11.85	-31.0	-34.0	10.2	4.15e-03	0	42	102	1048576	22	5058
2026-01-07 08:39:54.91	99.21	11.92	-30.9	-33.4	10.6	3.85e-03	0	42	102	1048576	22	4843
2026-01-07 08:39:55.92	99.09	12.00	-30.7	-33.0	10.9	2.42e-03	0	42	102	1048576	22	4670
2026-01-07 08:39:56.93	98.97	12.07	-30.8	-33.4	10.7	2.26e-03	0	42	102	1048576	22	4817
2026-01-07 08:39:57.93	98.85	12.15	-30.9	-33.4	10.6	2.92e-03	0	42	102	1048576	22	4841
2026-01-07 08:39:58.94	98.73	12.22	-30.8	-33.2	10.8	2.71e-03	0	42	102	1048576	22	4759
2026-01-07 08:39:59.94	98.61	12.30	-30.8	-33.2	10.8	2.64e-03	0	42	102	1048576	22	4750
2026-01-07 08:40:00.94	98.49	12.37	-30.6	-32.7	11.2	2.36e-03	0	43	102	1048576	22	4547
2026-01-07 08:40:01.95	98.36	12.45	-30.4	-31.9	11.8	6.51e-04	0	42	102	1048576	22	4293
2026-01-07 08:40:02.96	98.24	12.52	-30.4	-31.8	11.8	4.78e-04	0	42	102	1048576	22	4261
2026-01-07 08:40:03.97	98.11	12.60	-30.4	-31.9	11.8	4.16e-04	0	43	102	1048576	22	4289
2026-01-07 08:40:04.97	97.99	12.67	-30.3	-32.0	12.0	3.37e-04	0	43	102	1048576	21	4409
2026-01-07 08:40:05.98	97.86	12.75	-30.3	-32.1	12.0	2.88e-04	0	43	102	1048576	21	4432
2026-01-07 08:40:06.99	97.74	12.83	-30.3	-32.0	12.0	3.17e-04	0	43	102	1048576	21	4414
2026-01-07 08:40:07.99	97.61	12.90	-30.3	-32.1	12.1	3.79e-04	0	43	102	1048576	21	4419
2026-01-07 08:40:09.00	97.48	12.98	-30.2	-31.7	12.3	2.22e-04	0	43	102	1048576	21	4280
2026-01-07 08:40:10.01	97.35	13.06	-30.1	-31.6	12.4	1.85e-04	0	42	102	1048576	21	4274
2026-01-07 08:40:11.02	97.22	13.13	-30.1	-31.6	12.4	1.11e-04	0	43	102	1048576	21	4260
2026-01-07 08:40:12.02	97.09	13.21	-30.0	-31.2	12.6	8.39e-05	0	43	102	1048576	21	4149
2026-01-07 08:40:13.03	96.96	13.28	-30.1	-31.4	12.6	9.61e-05	0	43	102	1048576	21	4183
2026-01-07 08:40:14.04	96.83	13.36	-30.1	-31.6	12.4	8.39e-05	0	43	102	1048576	21	4271
2026-01-07 08:40:15.05	96.70	13.44	-30.2	-31.7	12.4	1.42e-04	0	43	102	1048576	21	4277
2026-01-07 08:40:16.05	96.57	13.51	-30.2	-31.8	12.2	1.80e-04	0	43	102	1048576	21	4344
2026-01-07 08:40:17.06	96.43	13.59	-30.3	-32.0	12.1	1.45e-04	0	42	102	1048576	21	4400
2026-01-07 08:40:18.06	96.30	13.67	-30.2	-31.8	12.4	1.59e-04	0	43	102	1048576	21	4312
2026-01-07 08:40:19.07	96.17	13.75	-30.0	-31.3	12.6	1.24e-04	0	43	102	1048576	21	4179
2026-01-07 08:40:20.08	96.03	13.82	-30.2	-31.7	12.3	1.30e-04	0	43	102	1048576	21	4291
2026-01-07 08:40:21.07	95.90	13.90	-30.1	-31.5	12.5	1.01e-04	0	43	102	1048576	21	4225
2026-01-07 08:40:22.08	95.76	13.98	-30.1	-31.5	12.5	8.31e-05	0	42	102	1048576	21	4240
2026-01-07 08:40:23.09	95.62	14.05	-30.1	-31.4	12.6	8.08e-05	0	43	102	1048576	21	4206
2026-01-07 08:40:24.10	95.48	14.13	-30.1	-31.6	12.5	1.11e-04	0	43	102	1048576	21	4241
2026-01-07 08:40:25.11	95.34	14.21	-30.2	-31.9	12.3	1.77e-04	0	43	102	1048576	21	4350
2026-01-07 08:40:26.12	95.20	14.29	-30.2	-31.6	12.5	1.28e-04	0	43	102	1048576	21	4255
2026-01-07 08:40:27.13	95.06	14.36	-30.1	-31.4	12.7	1.04e-04	0	43	102	1048576	21	4199
2026-01-07 08:40:28.14	94.92	14.44	-30.3	-31.9	12.3	1.46e-04	0	43	102	1048576	21	4337
2026-01-07 08:40:29.14	94.78	14.52	-30.0	-31.3	12.7	1.05e-04	0	43	102	1048576	21	4142
2026-01-07 08:40:30.15	94.63	14.60	-30.1	-31.3	12.8	5.18e-05	0	43	102	1048576	21	4143
2026-01-07 08:40:31.16	94.49	14.68	-30.1	-31.5	12.6	6.10e-05	0	43	102	1048576	21	4211
2026-01-07 08:40:32.16	94.35	14.75	-30.1	-31.3	12.7	9.30e-05	0	43	102	1048576	21	4170
2026-01-07 08:40:33.17	94.20	14.83	-30.2	-31.7	12.5	1.07e-04	0	43	102	1048576	21	4284
2026-01-07 08:40:34.18	94.05	14.91	-30.1	-31.3	12.7	9.53e-05	0	43	102	1048576	21	4158
2026-01-07 08:40:35.19	93.91	14.99	-30.1	-31.5	12.6	6.56e-05	0	43	102	1048576	21	4220
2026-01-07 08:40:36.19	93.76	15.07	-30.2	-31.8	12.4	8.62e-05	0	43	102	1048576	21	4322
2026-01-07 08:40:37.19	93.61	15.14	-30.0	-31.4	12.6	1.25e-04	0	43	102	1048576	21	4228
2026-01-07 08:40:38.20	93.46	15.22	-30.0	-31.3	12.6	9.84e-05	0	43	102	1048576	21	4202
2026-01-07 08:40:39.20	93.32	15.30	-30.0	-31.4	12.5	9.53e-05	0	43	102	1048576	21	4237
2026-01-07 08:40:40.21	93.16	15.38	-30.1	-31.8	12.3	1.33e-04	0	43	102	1048576	21	4350
2026-01-07 08:40:41.22	93.01	15.46	-30.1	-31.8	12.3	1.56e-04	0	43	102	1048576	21	4348
2026-01-07 08:40:42.22	92.86	15.54	-30.3	-32.3	12.1	2.37e-04	0	43	102	1048576	21	4539
2026-01-07 08:40:43.23	92.71	15.62	-30.5	-32.8	11.6	3.94e-04	0	43	102	1048576	21	4706
2026-01-07 08:40:44.24	92.55	15.69	-30.5	-33.1	11.4	8.59e-04	0	43	102	1048576	21	4807
2026-01-07 08:40:45.25	92.40	15.77	-30.6	-33.3	11.3	1.21e-03	0	43	102	1048576	21	4886
2026-01-07 08:40:46.25	92.24	15.85	-30.5	-32.8	11.7	7.88e-04	0	43	102	1048576	21	4689
2026-01-07 08:40:47.26	92.09	15.93	-30.3	-32.3	12.0	4.31e-04	0	43	102	1048576	21	4522
2026-01-07 08:40:48.27	91.93	16.01	-30.4	-32.5	11.9	3.04e-04	0	43	102	1048576	21	4588
2026-01-07 08:40:49.28	91.77	16.09	-30.5	-32.8	11.7	6.04e-04	0	43	102	1048576	21	4695
2026-01-07 08:40:50.29	91.61	16.17	-30.6	-33.1	11.4	6.08e-04	0	43	102	1048576	21	4816
2026-01-07 08:40:51.29	91.45	16.25	-30.6	-33.2	11.4	9.94e-04	0	43	102	1048576	21	4860
2026-01-07 08:40:52.30	91.29	16.33	-30.7	-33.3	11.4	9.12e-04	0	43	102	1048576	21	4858
2026-01-07 08:40:53.30	91.13	16.40	-30.6	-33.1	11.5	8.25e-04	0	43	102	1048576	21	4785
2026-01-07 08:40:54.31	90.97	16.48	-30.7	-33.4	11.3	1.01e-03	0	43	102	1048576	21	4912
2026-01-07 08:40:55.32	90.80	16.56	-30.7	-33.4	11.3	1.58e-03	0	43	102	1048576	21	4923
2026-01-07 08:40:56.32	90.64	16.64	-30.5	-32.8	11.7	7.51e-04	0	43	102	1048576	21	4698
2026-01-07 08:40:57.33	90.48	16.72	-30.6	-33.1	11.6	6.33e-04	0	43	102	1048576	21	4778
2026-01-07 08:40:58.34	90.31	16.80	-30.7	-33.3	11.3	1.14e-03	0	43	102	1048576	21	4882
2026-01-07 08:40:59.35	90.14	16.88	-30.7	-33.3	11.4	9.67e-04	0	43	102	1048576	21	4865
2026-01-07 08:41:00.35	89.98	16.96	-30.8	-33.6	11.2	1.20e-03	0	43	102	1048576	21	4981
2026-01-07 08:41:01.36	89.81	17.04	-30.8	-33.7	11.2	2.04e-03	0	43	102	1048576	21	5010
2026-01-07 08:41:02.36	89.64	17.12	-30.6	-33.2	11.5	1.02e-03	0	43	102	1048576	21	4839
2026-01-07 08:41:03.37	89.47	17.20	-30.6	-33.0	11.6	8.14e-04	0	43	102	1048576	21	4764
2026-01-07 08:41:04.38	89.30	17.28	-30.5	-32.8	11.8	5.19e-04	0	43	102	1048576	21	4669
2026-01-07 08:41:05.38	89.12	17.35	-30.4	-32.6	11.9	4.03e-04	0	43	102	1048576	21	4597
2026-01-07 08:41:06.39	88.95	17.43	-30.3	-32.2	12.2	3.31e-04	0	43	102	1048576	21	4483
2026-01-07 08:41:07.40	88.78	17.51	-30.3	-32.2	12.2	2.59e-04	0	43	102	1048576	21	4469
2026-01-07 08:41:08.41	88.60	17.59	-30.3	-32.3	12.2	2.08e-04	0	43	102	1048576	21	4492
2026-01-07 08:41:09.41	88.43	17.67	-30.4	-32.3	12.1	2.28e-04	0	43	102	1048576	21	4522
2026-01-07 08:41:10.42	88.25	17.75	-30.5	-32.6	11.9	3.68e-04	0	43	102	1048576	21	4613
2026-01-07 08:41:11.42	88.07	17.83	-30.4	-32.3	12.1	2.61e-04	0	43	102	1048576	21	4499
2026-01-07 08:41:12.42	87.89	17.91	-30.4	-32.5	12.1	2.82e-04	0	43	102	1048576	21	4561
2026-01-07 08:41:13.43	87.71	17.99	-30.6	-33.0	11.7	4.42e-04	0	43	102	1048576	21	4737
2026-01-07 08:41:14.44	87.53	18.06	-30.5	-32.7	12.0	3.98e-04	0	43	102	1048576	21	4630
2026-01-07 08:41:15.45	87.35	18.14	-30.8	-33.5	11.3	6.45e-04	0	43	102	1048576	21	4937
2026-01-07 08:41:16.45	87.17	18.22	-30.7	-33.2	11.5	9.59e-04	0	43	102	1048576	21	4830
2026-01-07 08:41:17.46	86.99	18.30	-30.5	-32.8	11.9	4.40e-04	0	43	102	1048576	21	4687
2026-01-07 08:41:18.46	86.80	18.38	-30.4	-32.4	12.2	2.49e-04	0	43	102	1048576	21	4514
2026-01-07 08:41:19.47	86.62	18.46	-30.3	-32.1	12.4	2.61e-04	0	43	102	1048576	21	4432
2026-01-07 08:41:20.48	86.43	18.54	-30.3	-32.2	12.3	1.60e-04	0	43	102	1048576	21	4446
2026-01-07 08:41:21.49	86.24	18.61	-30.4	-32.3	12.3	1.59e-04	0	43	102	1048576	21	4477
2026-01-07 08:41:22.49	86.06	18.69	-30.4	-32.3	12.3	1.59e-04	0	43	102	1048576	21	4480
2026-01-07 08:41:23.49	85.87	18.77	-30.4	-32.2	12.3	1.66e-04	0	43	102	1048576	21	4448
2026-01-07 08:41:24.49	85.68	18.85	-30.4	-32.2	12.3	2.08e-04	0	43	102	1048576	21	4459
2026-01-07 08:41:25.50	85.49	18.93	-30.4	-32.3	12.3	1.49e-04	0	43	102	1048576	21	4495
2026-01-07 08:41:26.50	85.30	19.00	-30.4	-32.2	12.4	1.49e-04	0	43	102	1048576	21	4445
2026-01-07 08:41:27.50	85.10	19.08	-30.6	-33.0	11.8	3.38e-04	0	43	102	1048576	21	4740
2026-01-07 08:41:28.51	84.91	19.16	-30.6	-32.8	11.9	5.29e-04	0	43	102	1048576	21	4674
2026-01-07 08:41:29.51	84.72	19.24	-30.4	-32.3	12.3	2.54e-04	0	43	102	1048576	21	4488
2026-01-07 08:41:30.52	84.52	19.32	-30.5	-32.5	12.1	2.72e-04	0	43	102	1048576	21	4549
2026-01-07 08:41:31.52	84.32	19.39	-30.4	-32.3	12.3	1.98e-04	0	43	102	1048576	21	4482
2026-01-07 08:41:32.53	84.13	19.47	-30.4	-32.2	12.4	1.04e-04	0	43	102	1048576	21	4435
2026-01-07 08:41:33.54	83.93	19.55	-30.2	-31.8	12.6	1.72e-04	0	43	102	1048576	21	4318
2026-01-07 08:41:34.55	83.72	19.62	-30.1	-31.4	13.0	5.03e-05	0	43	102	1048576	21	4182
2026-01-07 08:41:35.56	83.52	19.70	-30.1	-31.4	13.1	4.11e-05	0	43	102	1048576	21	4170
2026-01-07 08:41:36.56	83.32	19.78	-30.1	-31.5	12.9	3.50e-05	0	43	102	1048576	21	4210
2026-01-07 08:41:37.57	83.12	19.86	-30.0	-31.3	13.0	2.74e-05	0	43	102	1048576	21	4143
2026-01-07 08:41:38.58	82.91	19.93	-30.0	-31.1	13.1	3.73e-05	0	43	102	1048576	21	4111
2026-01-07 08:41:39.60	82.71	20.01	-30.2	-31.6	12.8	3.66e-05	0	43	102	1048576	21	4264
2026-01-07 08:41:40.60	82.50	20.09	-30.1	-31.3	12.9	5.49e-05	0	43	102	1048576	21	4175
2026-01-07 08:41:41.61	82.29	20.16	-29.8	-31.1	13.4	1.14e-05	0	43	102	1048576	20	4189
2026-01-07 08:41:42.62	82.08	20.24	-29.8	-31.2	13.3	1.75e-05	0	43	102	1048576	20	4230
2026-01-07 08:41:43.63	81.87	20.31	-29.9	-31.5	13.2	1.75e-05	0	43	102	1048576	20	4316
2026-01-07 08:41:44.63	81.66	20.39	-30.0	-31.7	13.0	2.36e-05	0	43	102	1048576	20	4402
2026-01-07 08:41:45.63	81.45	20.46	-29.7	-31.0	13.5	2.28e-05	0	43	102	1048576	20	4163
2026-01-07 08:41:46.63	81.24	20.54	-29.4	-30.0	14.2	3.80e-06	0	43	102	1048576	20	3877
2026-01-07 08:41:47.64	81.03	20.61	-29.4	-30.0	14.1	3.80e-06	0	43	102	1048576	20	3883
2026-01-07 08:41:48.64	80.81	20.69	-29.4	-30.4	14.2	0.00e+00	0	43	102	1048576	19	4079
2026-01-07 08:41:49.65	80.60	20.76	-29.2	-30.0	14.5	2.20e-06	0	43	102	1048576	19	3939
2026-01-07 08:41:50.65	80.38	20.84	-29.3	-30.1	14.5	7.00e-07	0	43	102	1048576	19	3981
2026-01-07 08:41:51.65	80.17	20.91	-29.2	-30.0	14.5	1.50e-06	0	43	102	1048576	19	3950
2026-01-07 08:41:52.66	79.95	20.99	-29.2	-30.0	14.5	0.00e+00	0	43	102	1048576	19	3956
2026-01-07 08:41:53.67	79.73	21.06	-29.3	-30.2	14.5	7.00e-07	0	43	102	1048576	19	3992
2026-01-07 08:41:54.68	79.50	21.13	-29.3	-30.2	14.4	0.00e+00	0	43	102	1048576	19	4002
2026-01-07 08:41:55.68	79.28	21.21	-29.3	-30.2	14.4	0.00e+00	0	43	102	1048576	19	4003
2026-01-07 08:41:56.69	79.06	21.28	-29.3	-30.3	14.4	2.20e-06	0	43	102	1048576	19	4037
2026-01-07 08:41:57.69	78.84	21.35	-29.4	-30.5	14.3	3.00e-06	0	43	102	1048576	19	4083
2026-01-07 08:41:58.70	78.61	21.43	-29.4	-30.4	14.3	2.20e-06	0	43	102	1048576	19	4072
2026-01-07 08:41:59.71	78.38	21.50	-29.3	-30.4	14.4	7.00e-07	0	43	102	1048576	19	4052
2026-01-07 08:42:00.72	78.16	21.57	-29.4	-30.5	14.3	7.00e-07	0	43	102	1048576	19	4076
2026-01-07 08:42:01.72	77.93	21.64	-29.4	-30.5	14.3	5.30e-06	0	43	102	1048576	19	4090
2026-01-07 08:42:02.72	77.70	21.71	-29.3	-30.3	14.4	0.00e+00	0	43	102	1048576	19	4024
2026-01-07 08:42:03.73	77.47	21.78	-29.3	-30.2	14.4	7.00e-07	0	43	102	1048576	19	4002
2026-01-07 08:42:04.74	77.24	21.86	-29.2	-29.9	14.6	0.00e+00	0	43	102	1048576	19	3925
2026-01-07 08:42:05.75	77.00	21.93	-29.1	-29.6	14.8	0.00e+00	0	43	102	1048576	19	3845
2026-01-07 08:42:06.76	76.77	22.00	-29.1	-29.7	14.7	0.00e+00	0	43	102	1048576	19	3873
2026-01-07 08:42:07.76	76.54	22.07	-29.2	-30.0	14.6	4.50e-06	0	43	102	1048576	19	3936
2026-01-07 08:42:08.77	76.30	22.14	-29.2	-30.0	14.6	7.00e-07	0	43	102	1048576	19	3946
2026-01-07 08:42:09.77	76.06	22.20	-29.3	-30.3	14.4	1.50e-06	0	43	102	1048576	19	4023
2026-01-07 08:42:10.77	75.83	22.27	-29.2	-30.1	14.6	7.60e-06	0	43	102	1048576	19	3953
2026-01-07 08:42:11.78	75.59	22.34	-29.1	-29.7	14.8	0.00e+00	0	43	102	1048576	19	3845
2026-01-07 08:42:12.78	75.35	22.41	-29.2	-29.9	14.7	1.50e-06	0	43	102	1048576	19	3900
2026-01-07 08:42:13.79	75.11	22.48	-29.1	-29.6	14.9	0.00e+00	0	43	102	1048576	19	3817
2026-01-07 08:42:14.79	74.87	22.54	-29.0	-29.3	15.1	0.00e+00	0	43	102	1048576	19	3738
2026-01-07 08:42:15.79	74.63	22.61	-28.8	-28.9	15.3	0.00e+00	0	43	102	1048576	19	3649
2026-01-07 08:42:16.79	74.38	22.68	-28.9	-29.5	15.3	7.00e-07	0	43	102	1048576	18	3873
2026-01-07 08:42:17.80	74.14	22.74	-28.9	-29.6	15.2	0.00e+00	0	43	102	1048576	18	3903
2026-01-07 08:42:18.81	73.89	22.81	-28.9	-29.7	15.2	0.00e+00	0	43	102	1048576	18	3927
2026-01-07 08:42:19.82	73.64	22.88	-29.1	-30.2	14.8	1.50e-06	0	43	102	1048576	18	4077
2026-01-07 08:42:20.82	73.39	22.94	-29.2	-30.4	14.7	7.00e-07	0	43	102	1048576	18	4122
2026-01-07 08:42:21.83	73.14	23.01	-29.2	-30.5	14.6	0.00e+00	0	43	102	1048576	18	4157
2026-01-07 08:42:22.84	72.89	23.07	-29.1	-30.0	15.0	2.20e-06	0	43	102	1048576	18	4030
2026-01-07 08:42:23.84	72.64	23.13	-29.0	-29.9	15.0	0.00e+00	0	43	102	1048576	18	3994
2026-01-07 08:42:24.85	72.39	23.20	-29.1	-30.1	15.0	0.00e+00	0	43	102	1048576	18	4031
2026-01-07 08:42:25.86	72.13	23.26	-29.1	-30.2	14.8	2.20e-06	0	43	102	1048576	18	4078
2026-01-07 08:42:26.87	71.88	23.32	-29.3	-30.7	14.6	0.00e+00	0	43	102	1048576	18	4226
2026-01-07 08:42:27.87	71.62	23.39	-29.1	-30.2	14.9	0.00e+00	0	43	102	1048576	18	4072
2026-01-07 08:42:28.88	71.37	23.45	-28.9	-29.7	15.3	0.00e+00	0	43	102	1048576	18	3920
2026-01-07 08:42:29.89	71.11	23.51	-28.8	-29.4	15.3	0.00e+00	0	43	102	1048576	18	3861
2026-01-07 08:42:30.89	70.85	23.57	-29.0	-29.9	15.1	0.00e+00	0	43	102	1048576	18	3978
2026-01-07 08:42:31.89	70.59	23.63	-28.9	-29.7	15.2	0.00e+00	0	43	102	1048576	18	3938
2026-01-07 08:42:32.90	70.33	23.69	-29.0	-29.9	15.1	0.00e+00	0	43	102	1048576	18	3990
2026-01-07 08:42:33.91	70.07	23.75	-29.0	-29.9	15.1	0.00e+00	0	43	102	1048576	18	3998
2026-01-07 08:42:34.92	69.81	23.81	-28.9	-29.6	15.3	0.00e+00	0	43	102	1048576	18	3908
2026-01-07 08:42:35.92	69.54	23.86	-28.8	-29.4	15.4	0.00e+00	0	43	102	1048576	18	3850
2026-01-07 08:42:36.92	69.28	23.92	-28.9	-29.6	15.3	0.00e+00	0	43	102	1048576	18	3886
2026-01-07 08:42:37.93	69.01	23.98	-28.7	-29.2	15.5	0.00e+00	0	43	102	1048576	18	3783
2026-01-07 08:42:38.94	68.75	24.04	-28.8	-29.4	15.4	0.00e+00	0	43	102	1048576	18	3851
2026-01-07 08:42:39.94	68.48	24.09	-28.8	-29.5	15.4	0.00e+00	0	43	102	1048576	18	3865
2026-01-07 08:42:40.95	68.21	24.15	-28.8	-29.4	15.4	0.00e+00	0	43	102	1048576	18	3840
2026-01-07 08:42:41.96	67.94	24.20	-29.0	-29.8	15.2	0.00e+00	0	43	102	1048576	18	3956
2026-01-07 08:42:42.97	67.67	24.26	-29.0	-29.7	15.2	0.00e+00	0	43	102	1048576	18	3932
2026-01-07 08:42:43.98	67.40	24.31	-28.8	-29.4	15.4	0.00e+00	0	43	102	1048576	18	3852
2026-01-07 08:42:44.99	67.12	24.36	-28.7	-29.2	15.5	0.00e+00	0	43	102	1048576	18	3786
2026-01-07 08:42:45.99	66.85	24.42	-29.1	-30.2	15.0	0.00e+00	0	43	102	1048576	18	4068
2026-01-07 08:42:47.00	66.58	24.47	-28.9	-29.7	15.2	0.00e+00	0	43	102	1048576	18	3928
2026-01-07 08:42:48.01	66.30	24.52	-28.8	-29.4	15.4	0.00e+00	0	43	102	1048576	18	3860
2026-01-07 08:42:49.02	66.02	24.57	-29.1	-30.1	15.0	0.00e+00	0	43	102	1048576	18	4030
2026-01-07 08:42:50.02	65.75	24.62	-28.9	-29.7	15.3	0.00e+00	0	43	102	1048576	18	3917
2026-01-07 08:42:51.03	65.47	24.67	-28.7	-29.2	15.6	0.00e+00	0	43	102	1048576	18	3797
2026-01-07 08:42:52.03	65.19	24.72	-28.7	-29.0	15.7	0.00e+00	0	43	102	1048576	18	3738
2026-01-07 08:42:53.04	64.91	24.77	-28.8	-29.3	15.5	0.00e+00	0	43	102	1048576	18	3822
2026-01-07 08:42:54.04	64.64	24.81	-28.5	-28.6	15.9	0.00e+00	0	43	102	1048576	18	3652
2026-01-07 08:42:55.05	64.35	24.86	-28.7	-29.0	15.7	0.00e+00	0	43	102	1048576	18	3740
2026-01-07 08:42:56.06	64.07	24.91	-28.9	-29.6	15.3	0.00e+00	0	43	102	1048576	18	3900
2026-01-07 08:42:57.06	63.79	24.95	-29.0	-29.9	15.1	0.00e+00	0	43	102	1048576	18	3987
2026-01-07 08:42:58.07	63.51	25.00	-29.2	-30.2	14.9	0.00e+00	0	43	102	1048576	18	4068
2026-01-07 08:42:59.08	63.22	25.04	-29.2	-30.4	14.8	0.00e+00	0	43	102	1048576	18	4128
2026-01-07 08:43:00.09	62.93	25.08	-29.5	-30.6	14.4	7.00e-07	0	43	102	1048576	19	4100
2026-01-07 08:43:01.10	62.65	25.13	-29.6	-30.9	14.3	1.50e-06	0	43	102	1048576	19	4156
2026-01-07 08:43:02.09	62.36	25.17	-30.0	-31.6	13.4	3.80e-06	0	43	102	1048576	20	4294
2026-01-07 08:43:03.09	62.08	25.21	-30.4	-32.4	12.9	1.22e-05	0	43	102	1048576	20	4581
2026-01-07 08:43:04.10	61.79	25.25	-30.4	-32.7	12.6	7.24e-05	0	43	102	1048576	20	4681
2026-01-07 08:43:05.11	61.50	25.29	-30.4	-32.2	12.6	1.27e-04	0	43	102	1048576	21	4415
2026-01-07 08:43:06.11	61.21	25.33	-30.2	-31.6	13.0	6.56e-05	0	43	102	1048576	21	4209
2026-01-07 08:43:07.12	60.92	25.36	-30.2	-31.4	13.2	1.29e-05	0	43	102	1048576	21	4135
2026-01-07 08:43:08.13	60.63	25.40	-30.3	-31.8	13.0	3.28e-05	0	43	102	1048576	21	4268
2026-01-07 08:43:09.13	60.34	25.44	-30.2	-31.4	13.2	2.44e-05	0	43	102	1048576	21	4159
2026-01-07 08:43:10.15	60.04	25.48	-30.2	-31.5	13.0	2.05e-05	0	43	102	1048576	21	4199
2026-01-07 08:43:11.16	59.75	25.51	-30.3	-31.9	12.9	5.26e-05	0	43	102	1048576	21	4301
2026-01-07 08:43:12.16	59.46	25.54	-30.2	-31.4	13.2	3.81e-05	0	43	102	1048576	21	4170
2026-01-07 08:43:13.17	59.16	25.58	-30.2	-31.4	13.2	2.36e-05	0	43	102	1048576	21	4163
2026-01-07 08:43:14.18	58.87	25.61	-30.1	-31.2	13.2	2.67e-05	0	43	102	1048576	21	4100
2026-01-07 08:43:15.19	58.57	25.64	-30.4	-32.2	12.6	5.34e-05	0	43	102	1048576	21	4425
2026-01-07 08:43:16.19	58.28	25.67	-30.3	-32.0	12.8	7.01e-05	0	43	102	1048576	21	4335
2026-01-07 08:43:17.20	57.98	25.71	-30.1	-31.2	13.3	2.28e-05	0	43	102	1048576	21	4089
2026-01-07 08:43:18.20	57.68	25.73	-29.8	-30.5	13.7	9.90e-06	0	43	102	1048576	21	3891
2026-01-07 08:43:19.21	57.38	25.76	-29.7	-30.8	13.8	5.30e-06	0	43	102	1048576	20	4089
2026-01-07 08:43:20.22	57.08	25.79	-30.0	-31.5	13.4	1.14e-05	0	43	102	1048576	20	4276
2026-01-07 08:43:21.22	56.79	25.82	-30.2	-32.0	13.1	2.28e-05	0	43	102	1048576	20	4442
2026-01-07 08:43:22.23	56.49	25.84	-30.5	-32.9	12.6	5.18e-05	0	43	102	1048576	20	4747
2026-01-07 08:43:23.24	56.19	25.87	-30.3	-31.9	12.9	6.94e-05	0	43	102	1048576	21	4308
2026-01-07 08:43:24.24	55.89	25.89	-30.2	-31.7	13.0	6.17e-05	0	43	102	1048576	21	4260
2026-01-07 08:43:25.24	55.59	25.92	-30.3	-31.8	12.9	3.28e-05	0	43	102	1048576	21	4289
2026-01-07 08:43:26.25	55.29	25.94	-30.2	-31.5	13.1	2.97e-05	0	43	102	1048576	21	4205
2026-01-07 08:43:27.25	54.99	25.96	-30.0	-30.9	13.5	1.14e-05	0	43	102	1048576	21	4021
2026-01-07 08:43:28.26	54.68	25.98	-29.9	-30.8	13.6	6.10e-06	0	43	102	1048576	21	3992
2026-01-07 08:43:29.27	54.38	26.01	-30.0	-30.9	13.5	9.90e-06	0	43	102	1048576	21	4005
2026-01-07 08:43:30.27	54.08	26.02	-30.1	-31.2	13.2	2.44e-05	0	43	102	1048576	21	4099
2026-01-07 08:43:31.29	53.77	26.04	-30.2	-31.5	13.1	3.12e-05	0	43	102	1048576	21	4179
2026-01-07 08:43:32.28	53.47	26.06	-30.4	-32.2	12.7	4.88e-05	0	43	102	1048576	21	4407
2026-01-07 08:43:33.29	53.17	26.08	-30.3	-31.9	12.9	4.73e-05	0	43	102	1048576	21	4312
2026-01-07 08:43:34.30	52.86	26.09	-30.6	-32.6	12.4	1.51e-04	0	43	102	1048576	21	4568
2026-01-07 08:43:35.31	52.56	26.11	-30.7	-33.0	12.1	1.92e-04	0	43	102	1048576	21	4692
2026-01-07 08:43:36.32	52.25	26.12	-30.7	-33.0	12.0	3.67e-04	0	43	102	1048576	21	4704
2026-01-07 08:43:37.32	51.95	26.14	-30.7	-32.9	12.2	3.88e-04	0	43	102	1048576	21	4648
2026-01-07 08:43:38.33	51.64	26.15	-30.6	-32.6	12.5	1.60e-04	0	43	102	1048576	21	4535
2026-01-07 08:43:39.34	51.34	26.16	-30.2	-31.7	13.0	8.16e-05	0	43	102	1048576	21	4245
2026-01-07 08:43:40.35	51.03	26.17	-30.1	-31.2	13.3	2.13e-05	0	43	102	1048576	21	4110
2026-01-07 08:43:41.36	50.72	26.18	-30.1	-31.2	13.3	3.58e-05	0	43	102	1048576	21	4097
2026-01-07 08:43:42.36	50.42	26.19	-29.9	-30.8	13.6	1.22e-05	0	43	102	1048576	21	3965
2026-01-07 08:43:43.36	50.12	26.20	-29.8	-30.8	13.9	3.00e-06	0	43	102	1048576	20	4064
2026-01-07 08:43:44.37	49.81	26.21	-29.8	-31.0	13.8	3.80e-06	0	43	102	1048576	20	4118
2026-01-07 08:43:45.37	49.50	26.21	-30.0	-31.4	13.5	5.30e-06	0	43	102	1048576	20	4252
2026-01-07 08:43:46.38	49.20	26.22	-30.2	-32.1	13.1	2.05e-05	0	43	102	1048576	20	4463
2026-01-07 08:43:47.39	48.89	26.22	-30.5	-32.8	12.6	7.62e-05	0	43	102	1048576	20	4713
2026-01-07 08:43:48.40	48.58	26.23	-30.7	-33.1	12.0	1.75e-04	0	43	102	1048576	21	4736
2026-01-07 08:43:49.40	48.28	26.23	-30.8	-33.3	11.9	6.00e-04	0	43	102	1048576	21	4789
2026-01-07 08:43:50.41	47.97	26.23	-30.5	-32.5	12.4	1.87e-04	0	43	102	1048576	21	4536
2026-01-07 08:43:51.42	47.66	26.23	-30.4	-32.2	12.7	7.62e-05	0	43	102	1048576	21	4414
2026-01-07 08:43:52.43	47.35	26.23	-30.3	-31.8	12.9	4.80e-05	0	43	102	1048576	21	4278
2026-01-07 08:43:53.42	47.05	26.23	-30.1	-31.4	13.2	3.66e-05	0	43	102	1048576	21	4166
2026-01-07 08:43:54.43	46.74	26.23	-29.9	-30.6	13.7	1.83e-05	0	43	102	1048576	21	3920
2026-01-07 08:43:55.44	46.43	26.22	-29.6	-30.4	14.1	6.80e-06	0	43	102	1048576	20	3962
2026-01-07 08:43:56.45	46.13	26.22	-29.4	-30.1	14.4	2.20e-06	0	43	102	1048576	20	3858
2026-01-07 08:43:57.45	45.82	26.22	-29.4	-30.0	14.4	1.50e-06	0	43	102	1048576	20	3836
2026-01-07 08:43:58.46	45.51	26.21	-29.4	-30.3	14.6	0.00e+00	0	43	102	1048576	19	3997
2026-01-07 08:43:59.47	45.21	26.20	-29.4	-30.3	14.5	0.00e+00	0	43	102	1048576	19	4011
2026-01-07 08:44:00.47	44.90	26.20	-29.3	-30.1	14.7	0.00e+00	0	43	102	1048576	19	3943
2026-01-07 08:44:01.48	44.60	26.19	-29.3	-30.0	14.8	0.00e+00	0	43	102	1048576	19	3912
2026-01-07 08:44:02.49	44.29	26.18	-29.1	-29.6	15.0	7.00e-07	0	43	102	1048576	19	3799
2026-01-07 08:44:03.49	43.99	26.17	-29.3	-30.1	14.7	0.00e+00	0	43	102	1048576	19	3936
2026-01-07 08:44:04.50	43.68	26.16	-29.3	-30.2	14.7	0.00e+00	0	43	102	1048576	19	3965
2026-01-07 08:44:05.51	43.37	26.15	-29.2	-29.7	15.0	7.00e-07	0	43	102	1048576	19	3843
2026-01-07 08:44:06.52	43.07	26.13	-28.7	-29.1	15.7	0.00e+00	0	43	102	1048576	18	3756
2026-01-07 08:44:07.52	42.76	26.12	-28.4	-28.4	16.0	0.00e+00	0	43	102	1048576	18	3591
2026-01-07 08:44:08.53	42.46	26.11	-28.3	-28.1	16.2	0.00e+00	0	43	102	1048576	18	3505
2026-01-07 08:44:09.54	42.15	26.09	-28.6	-28.8	15.7	0.00e+00	0	43	102	1048576	18	3691
2026-01-07 08:44:10.55	41.85	26.08	-28.8	-29.4	15.4	0.00e+00	0	43	102	1048576	18	3838
2026-01-07 08:44:11.55	41.55	26.06	-28.9	-29.6	15.3	0.00e+00	0	43	102	1048576	18	3901
2026-01-07 08:44:12.56	41.24	26.04	-29.0	-29.7	15.2	0.00e+00	0	43	102	1048576	18	3919
2026-01-07 08:44:13.57	40.94	26.02	-28.8	-29.3	15.5	0.00e+00	0	43	102	1048576	18	3796
2026-01-07 08:44:14.58	40.63	26.00	-28.8	-29.3	15.5	0.00e+00	0	43	102	1048576	18	3800
2026-01-07 08:44:15.58	40.33	25.98	-28.9	-29.6	15.3	0.00e+00	0	43	102	1048576	18	3876
2026-01-07 08:44:16.59	40.03	25.96	-29.1	-30.1	15.0	0.00e+00	0	43	102	1048576	18	4041
2026-01-07 08:44:17.59	39.73	25.94	-29.5	-30.6	14.4	1.50e-06	0	43	102	1048576	19	4080
2026-01-07 08:44:18.60	39.43	25.91	-29.6	-30.8	14.3	2.20e-06	0	43	102	1048576	19	4120
2026-01-07 08:44:19.61	39.13	25.89	-29.3	-30.1	14.6	0.00e+00	0	43	102	1048576	19	3952
2026-01-07 08:44:20.62	38.83	25.87	-29.2	-29.7	14.9	0.00e+00	0	43	102	1048576	19	3835
2026-01-07 08:44:21.62	38.53	25.84	-29.0	-29.4	15.1	0.00e+00	0	43	102	1048576	19	3740
2026-01-07 08:44:22.63	38.23	25.81	-29.1	-29.5	15.1	0.00e+00	0	43	102	1048576	19	3767
2026-01-07 08:44:23.63	37.93	25.79	-29.1	-29.4	15.1	0.00e+00	0	43	102	1048576	19	3754
2026-01-07 08:44:24.64	37.64	25.76	-29.2	-29.7	15.0	0.00e+00	0	43	102	1048576	19	3830
2026-01-07 08:44:25.65	37.34	25.73	-29.3	-30.0	14.8	0.00e+00	0	43	102	1048576	19	3903
2026-01-07 08:44:26.66	37.04	25.70	-29.3	-30.0	14.7	0.00e+00	0	43	102	1048576	19	3917
2026-01-07 08:44:27.66	36.75	25.67	-29.4	-30.3	14.6	0.00e+00	0	43	102	1048576	19	3994
2026-01-07 08:44:28.67	36.45	25.64	-29.4	-30.2	14.6	0.00e+00	0	43	102	1048576	19	3959
2026-01-07 08:44:29.68	36.15	25.61	-29.5	-30.6	14.4	0.00e+00	0	43	102	1048576	19	4062
2026-01-07 08:44:30.68	35.86	25.57	-29.6	-30.7	14.3	7.00e-07	0	43	102	1048576	19	4114
2026-01-07 08:44:31.69	35.57	25.54	-29.8	-31.2	14.0	1.50e-06	0	43	102	1048576	19	4242
2026-01-07 08:44:32.69	35.27	25.51	-30.0	-31.3	13.6	3.80e-06	0	43	102	1048576	20	4200
2026-01-07 08:44:33.71	34.98	25.47	-30.1	-31.7	13.3	1.06e-05	0	43	102	1048576	20	4319
2026-01-07 08:44:34.71	34.69	25.43	-29.7	-30.6	14.0	1.52e-05	0	43	102	1048576	20	3989
2026-01-07 08:44:35.71	34.40	25.40	-29.4	-29.7	14.6	3.00e-06	0	43	102	1048576	20	3748
2026-01-07 08:44:36.71	34.11	25.36	-29.4	-30.2	14.7	0.00e+00	0	43	102	1048576	19	3972
2026-01-07 08:44:37.72	33.82	25.32	-29.4	-30.4	14.5	0.00e+00	0	43	102	1048576	19	4014
2026-01-07 08:44:38.73	33.53	25.28	-29.6	-30.8	14.3	7.00e-07	0	43	102	1048576	19	4133
2026-01-07 08:44:39.74	33.24	25.24	-29.8	-31.3	13.9	7.00e-07	0	43	102	1048576	19	4287
2026-01-07 08:44:40.74	32.95	25.20	-29.7	-31.0	14.1	3.00e-06	0	43	102	1048576	19	4197
2026-01-07 08:44:41.75	32.67	25.16	-29.8	-31.4	13.9	4.50e-06	0	43	102	1048576	19	4309
2026-01-07 08:44:42.75	32.38	25.12	-29.8	-31.3	13.9	7.00e-07	0	43	102	1048576	19	4301
2026-01-07 08:44:43.76	32.10	25.08	-29.9	-31.6	13.8	3.80e-06	0	43	102	1048576	19	4377
2026-01-07 08:44:44.76	31.81	25.03	-29.9	-31.6	13.7	3.80e-06	0	43	102	1048576	19	4378
2026-01-07 08:44:45.77	31.53	24.99	-29.9	-31.7	13.7	2.20e-06	0	43	102	1048576	19	4400
2026-01-07 08:44:46.78	31.25	24.95	-29.9	-31.1	13.7	7.60e-06	0	43	102	1048576	20	4153
2026-01-07 08:44:47.78	30.97	24.90	-30.0	-31.4	13.4	8.30e-06	0	43	102	1048576	20	4240
2026-01-07 08:44:48.79	30.68	24.85	-30.1	-31.7	13.2	1.67e-05	0	43	102	1048576	20	4337
2026-01-07 08:44:49.79	30.40	24.81	-30.2	-32.0	13.1	2.51e-05	0	43	102	1048576	20	4437
2026-01-07 08:44:50.80	30.12	24.76	-30.1	-31.7	13.2	4.42e-05	0	43	102	1048576	20	4326
2026-01-07 08:44:51.80	29.85	24.71	-30.0	-31.5	13.3	2.05e-05	0	44	102	1048576	20	4283
2026-01-07 08:44:52.81	29.57	24.66	-30.0	-31.5	13.3	1.90e-05	0	43	102	1048576	20	4276
2026-01-07 08:44:53.81	29.29	24.61	-29.9	-31.3	13.5	1.37e-05	0	43	102	1048576	20	4207
2026-01-07 08:44:54.82	29.02	24.56	-30.0	-31.4	13.4	1.75e-05	0	44	102	1048576	20	4260
2026-01-07 08:44:55.83	28.74	24.51	-30.2	-31.9	13.0	1.60e-05	0	43	102	1048576	20	4422
2026-01-07 08:44:56.83	28.47	24.46	-30.1	-31.9	13.1	3.12e-05	0	43	102	1048576	20	4396
2026-01-07 08:44:57.85	28.19	24.41	-30.2	-32.2	12.9	4.95e-05	0	43	102	1048576	20	4488
2026-01-07 08:44:58.85	27.92	24.36	-30.2	-31.9	13.1	4.34e-05	0	43	102	1048576	20	4409
2026-01-07 08:44:59.86	27.65	24.30	-30.1	-31.8	13.2	3.05e-05	0	43	102	1048576	20	4364
2026-01-07 08:45:00.87	27.38	24.25	-29.9	-31.2	13.5	1.60e-05	0	43	102	1048576	20	4177
2026-01-07 08:45:01.88	27.11	24.20	-29.8	-30.9	13.7	1.14e-05	0	43	102	1048576	20	4098
2026-01-07 08:45:02.89	26.84	24.14	-29.9	-31.2	13.5	9.10e-06	0	43	102	1048576	20	4179
2026-01-07 08:45:03.89	26.57	24.09	-29.7	-30.8	13.7	1.06e-05	0	43	102	1048576	20	4074
2026-01-07 08:45:04.90	26.30	24.03	-29.7	-30.6	13.8	5.30e-06	0	43	102	1048576	20	4027
2026-01-07 08:45:05.91	26.04	23.97	-29.8	-31.0	13.6	9.10e-06	0	43	102	1048576	20	4130
2026-01-07 08:45:06.92	25.77	23.92	-29.8	-31.1	13.5	5.30e-06	0	43	102	1048576	20	4180
2026-01-07 08:45:07.92	25.51	23.86	-30.2	-32.0	12.9	2.67e-05	0	43	102	1048576	20	4461
2026-01-07 08:45:08.93	25.24	23.80	-30.4	-32.7	12.5	8.62e-05	0	43	102	1048576	20	4706
2026-01-07 08:45:09.94	24.98	23.74	-30.5	-32.5	12.2	1.97e-04	0	43	102	1048576	21	4549
2026-01-07 08:45:10.94	24.72	23.68	-30.4	-32.1	12.5	1.92e-04	0	43	102	1048576	21	4383
2026-01-07 08:45:11.95	24.46	23.62	-30.3	-31.9	12.6	1.43e-04	0	43	102	1048576	21	4328
2026-01-07 08:45:12.96	24.20	23.56	-30.3	-31.8	12.7	8.01e-05	0	43	102	1048576	21	4290
2026-01-07 08:45:13.96	23.95	23.50	-30.4	-32.2	12.4	8.54e-05	0	43	102	1048576	21	4423
2026-01-07 08:45:14.97	23.69	23.44	-30.3	-32.0	12.6	1.18e-04	0	43	102	1048576	21	4368
2026-01-07 08:45:15.98	23.43	23.38	-30.3	-31.9	12.7	8.08e-05	0	43	102	1048576	21	4321
2026-01-07 08:45:16.98	23.18	23.32	-30.3	-31.8	12.6	8.31e-05	0	43	102	1048576	21	4312
2026-01-07 08:45:17.99	22.92	23.26	-30.4	-32.3	12.4	8.92e-05	0	43	102	1048576	21	4455
2026-01-07 08:45:19.00	22.67	23.19	-30.6	-32.7	12.0	3.17e-04	0	43	102	1048576	21	4622
2026-01-07 08:45:20.01	22.42	23.13	-30.6	-32.9	11.9	4.42e-04	0	43	102	1048576	21	4688
2026-01-07 08:45:21.02	22.17	23.07	-30.7	-33.2	11.6	5.84e-04	0	43	102	1048576	21	4801
2026-01-07 08:45:22.03	21.92	23.00	-30.6	-32.7	12.0	4.03e-04	0	43	102	1048576	21	4633
2026-01-07 08:45:23.04	21.67	22.94	-30.3	-32.0	12.5	1.73e-04	0	43	102	1048576	21	4374
2026-01-07 08:45:24.04	21.42	22.87	-29.9	-30.9	13.3	3.20e-05	0	43	102	1048576	21	4024
2026-01-07 08:45:25.05	21.17	22.81	-29.8	-30.9	13.6	1.29e-05	0	43	102	1048576	20	4114
2026-01-07 08:45:26.06	20.93	22.74	-29.7	-30.9	13.6	6.80e-06	0	43	102	1048576	20	4094
2026-01-07 08:45:27.06	20.68	22.67	-29.8	-31.1	13.5	6.10e-06	0	43	102	1048576	20	4178
2026-01-07 08:45:28.08	20.44	22.61	-29.7	-30.7	13.8	3.80e-06	0	43	102	1048576	20	4038
2026-01-07 08:45:29.08	20.20	22.54	-30.1	-31.8	13.0	2.51e-05	0	44	102	1048576	20	4393
2026-01-07 08:45:30.09	19.95	22.47	-30.2	-32.1	12.8	4.11e-05	0	43	102	1048576	20	4487
2026-01-07 08:45:31.09	19.72	22.41	-30.5	-32.9	12.3	1.16e-04	0	43	102	1048576	20	4768
2026-01-07 08:45:32.09	19.48	22.34	-30.3	-32.6	12.5	1.44e-04	0	43	102	1048576	20	4668
2026-01-07 08:45:33.10	19.24	22.27	-30.5	-32.4	12.2	2.30e-04	0	43	102	1048576	21	4512
2026-01-07 08:45:34.10	19.00	22.20	-30.5	-32.6	12.2	2.79e-04	0	43	102	1048576	21	4551
2026-01-07 08:45:35.11	18.77	22.13	-30.2	-31.6	12.8	1.29e-04	0	43	102	1048576	21	4247
2026-01-07 08:45:36.12	18.53	22.06	-30.0	-31.1	13.2	2.74e-05	0	43	102	1048576	21	4065
2026-01-07 08:45:37.12	18.30	21.99	-29.7	-30.7	13.7	8.30e-06	0	43	102	1048576	20	4059
2026-01-07 08:45:38.13	18.07	21.92	-29.6	-30.6	13.9	4.50e-06	0	43	102	1048576	20	4002
2026-01-07 08:45:39.14	17.83	21.85	-29.3	-29.7	14.3	1.50e-06	0	43	102	1048576	20	3758
2026-01-07 08:45:40.15	17.60	21.78	-29.3	-29.8	14.2	2.20e-06	0	44	102	1048576	20	3789
2026-01-07 08:45:41.16	17.37	21.71	-29.4	-29.9	14.2	0.00e+00	0	43	102	1048576	20	3815
2026-01-07 08:45:42.17	17.14	21.64	-29.3	-30.1	14.5	0.00e+00	0	43	102	1048576	19	3954
2026-01-07 08:45:43.17	16.92	21.57	-29.2	-29.9	14.6	7.00e-07	0	43	102	1048576	19	3898
2026-01-07 08:45:44.17	16.69	21.50	-29.4	-30.5	14.2	0.00e+00	0	43	102	1048576	19	4063
2026-01-07 08:45:45.18	16.47	21.42	-29.1	-29.7	14.7	0.00e+00	0	43	102	1048576	19	3863
2026-01-07 08:45:46.19	16.24	21.35	-29.1	-29.6	14.7	0.00e+00	0	43	102	1048576	19	3829
2026-01-07 08:45:47.20	16.02	21.28	-29.0	-29.5	14.8	7.00e-07	0	43	102	1048576	19	3806
2026-01-07 08:45:48.21	15.80	21.20	-29.1	-29.7	14.7	7.00e-07	0	43	102	1048576	19	3842
2026-01-07 08:45:49.22	15.57	21.13	-29.1	-29.6	14.7	0.00e+00	0	43	102	1048576	19	3813
2026-01-07 08:45:50.22	15.36	21.06	-29.1	-29.6	14.7	7.00e-07	0	43	102	1048576	19	3839
2026-01-07 08:45:51.22	15.14	20.99	-29.1	-29.7	14.6	0.00e+00	0	43	102	1048576	19	3861
2026-01-07 08:45:52.23	14.92	20.91	-29.0	-29.4	14.8	0.00e+00	0	43	102	1048576	19	3777
2026-01-07 08:45:53.24	14.70	20.84	-29.2	-29.9	14.4	7.00e-07	0	43	102	1048576	19	3914
2026-01-07 08:45:54.25	14.49	20.76	-29.3	-30.2	14.1	1.50e-06	0	43	102	1048576	19	4015
2026-01-07 08:45:55.26	14.27	20.69	-29.3	-30.2	14.0	2.20e-06	0	43	102	1048576	19	4010
2026-01-07 08:45:56.27	14.06	20.61	-29.3	-30.4	13.8	6.10e-06	0	43	102	1048576	19	4062
2026-01-07 08:45:57.28	13.84	20.54	-29.2	-30.1	14.0	3.80e-06	0	43	102	1048576	19	3964
2026-01-07 08:45:58.29	13.63	20.46	-29.4	-30.5	13.9	1.50e-06	0	43	102	1048576	19	4092
2026-01-07 08:45:59.30	13.42	20.39	-29.6	-31.0	13.6	6.80e-06	0	43	102	1048576	19	4234
2026-01-07 08:46:00.31	13.21	20.31	-29.7	-31.4	13.3	7.60e-06	0	43	102	1048576	19	4371
2026-01-07 08:46:01.31	13.00	20.24	-29.9	-31.9	12.9	2.67e-05	0	43	102	1048576	19	4536
2026-01-07 08:46:02.31	12.80	20.16	-29.9	-31.9	12.9	4.80e-05	0	43	102	1048576	19	4528
2026-01-07 08:46:03.31	12.59	20.09	-29.8	-31.4	13.3	1.52e-05	0	44	102	1048576	19	4373
2026-01-07 08:46:04.32	12.39	20.01	-29.7	-31.2	13.6	8.30e-06	0	43	102	1048576	19	4292
2026-01-07 08:46:05.31	12.18	19.93	-29.6	-31.1	13.6	6.10e-06	0	43	102	1048576	19	4252
2026-01-07 08:46:06.32	11.98	19.86	-29.6	-31.1	13.5	1.06e-05	0	43	102	1048576	19	4273
2026-01-07 08:46:07.32	11.78	19.78	-29.7	-31.3	12.8	2.21e-05	0	43	102	1048576	19	4346
2026-01-07 08:46:08.33	11.58	19.70	-29.7	-31.0	12.1	1.15e-04	0	43	102	1048576	20	4175
2026-01-07 08:46:09.33	11.38	19.63	-29.7	-30.8	12.2	1.55e-04	0	43	102	1048576	20	4111
2026-01-07 08:46:10.33	11.18	19.55	-29.4	-30.2	12.7	5.64e-05	0	43	102	1048576	20	3939
2026-01-07 08:46:11.34	10.98	19.47	-29.1	-29.7	13.4	1.52e-05	0	43	102	1048576	19	3876
2026-01-07 08:46:12.35	10.79	19.40	-28.9	-29.2	13.9	0.00e+00	0	43	102	1048576	19	3731
2026-01-07 08:46:13.36	10.59	19.32	-28.7	-29.2	14.2	0.00e+00	0	43	102	1048576	18	3819
2026-01-07 08:46:14.37	10.39	19.24	-28.5	-28.7	14.4	7.00e-07	0	43	102	1048576	18	3703
2026-01-07 08:46:15.37	10.20	19.16	-28.5	-28.7	14.7	0.00e+00	0	44	102	1048576	18	3683
2026-01-07 08:46:16.38	10.01	19.09	-28.6	-29.0	14.9	0.00e+00	0	44	102	1048576	18	3752
2026-01-07 08:46:17.38	9.82	19.01	-28.8	-29.4	14.9	0.00e+00	0	43	102	1048576	18	3856
2026-01-07 08:46:18.39	9.62	18.93	-28.7	-29.3	14.9	0.00e+00	0	43	102	1048576	18	3826
2026-01-07 08:46:19.40	9.43	18.85	-28.9	-29.6	14.7	0.00e+00	0	43	102	1048576	18	3911
2026-01-07 08:46:20.41	9.24	18.78	-28.8	-29.5	14.7	0.00e+00	0	43	102	1048576	18	3881
2026-01-07 08:46:21.41	9.06	18.70	-29.2	-30.4	13.9	7.00e-07	0	43	102	1048576	18	4135
2026-01-07 08:46:22.41	8.87	18.62	-29.2	-30.4	13.6	6.80e-06	0	43	102	1048576	18	4141
2026-01-07 08:46:23.42	8.68	18.54	-29.1	-30.2	13.5	4.50e-06	0	43	102	1048576	18	4105
2026-01-07 08:46:24.43	8.50	18.46	-29.2	-30.4	13.6	9.90e-06	0	43	102	1048576	18	4142
2026-01-07 08:46:25.43	8.32	18.39	-29.1	-30.2	13.8	2.20e-06	0	43	102	1048576	18	4081
2026-01-07 08:46:26.44	8.13	18.31	-29.0	-29.9	14.2	5.30e-06	0	43	102	1048576	18	3997
2026-01-07 08:46:27.44	7.95	18.23	-29.0	-29.9	13.9	7.00e-07	0	44	102	1048576	18	4012
2026-01-07 08:46:28.45	7.77	18.15	-29.0	-30.0	12.9	6.80e-06	0	43	102	1048576	18	4038
2026-01-07 08:46:29.46	7.59	18.07	-28.7	-29.4	12.7	1.29e-05	0	43	102	1048576	18	3879
2026-01-07 08:46:30.47	7.41	17.99	-28.8	-29.6	11.9	7.01e-05	0	44	102	1048576	18	3943
2026-01-07 08:46:31.47	7.23	17.91	-28.8	-29.8	11.3	1.54e-04	0	43	102	1048576	18	4023
2026-01-07 08:46:32.47	7.05	17.84	-28.9	-30.1	11.1	4.65e-04	0	44	102	1048576	18	4123
2026-01-07 08:46:33.48	6.88	17.76	-29.1	-30.6	11.5	3.68e-04	0	44	102	1048576	18	4236
2026-01-07 08:46:34.49	6.70	17.68	-29.2	-30.7	12.0	2.03e-04	0	43	102	1048576	18	4281
2026-01-07 08:46:35.50	6.53	17.60	-29.4	-31.2	12.8	6.86e-05	0	43	102	1048576	18	4400
2026-01-07 08:46:36.51	6.35	17.52	-29.4	-30.9	13.7	7.60e-06	0	44	102	1048576	18	4314
2026-01-07 08:46:37.51	6.18	17.44	-29.4	-31.0	13.8	6.80e-06	0	43	102	1048576	18	4321
2026-01-07 08:46:38.51	6.01	17.36	-29.3	-30.8	13.9	3.80e-06	0	44	102	1048576	18	4262
2026-01-07 08:46:39.51	5.84	17.29	-29.3	-30.8	13.6	6.10e-06	0	44	102	1048576	18	4268
2026-01-07 08:46:40.52	5.67	17.21	-29.3	-30.8	13.4	9.90e-06	0	43	102	1048576	18	4254
2026-01-07 08:46:41.53	5.50	17.13	-29.3	-30.8	13.2	1.67e-05	0	43	102	1048576	18	4263
2026-01-07 08:46:42.54	5.33	17.05	-29.4	-31.1	12.9	2.67e-05	0	44	102	1048576	18	4365
2026-01-07 08:46:43.55	5.16	16.97	-29.5	-30.7	12.7	4.50e-05	0	43	102	1048576	19	4155
2026-01-07 08:46:44.55	5.00	16.89	-29.4	-30.6	12.9	3.43e-05	0	44	102	1048576	19	4111
2026-01-07 08:46:45.56	4.83	16.81	-29.4	-30.6	13.0	2.21e-05	0	44	102	1048576	19	4139
2026-01-07 08:46:46.57	4.67	16.73	-29.7	-31.4	12.7	3.50e-05	0	44	102	1048576	19	4371
2026-01-07 08:46:47.58	4.50	16.65	-29.9	-31.4	12.4	1.02e-04	0	43	102	1048576	20	4277
2026-01-07 08:46:48.58	4.34	16.58	-29.9	-31.4	12.5	1.20e-04	0	43	102	1048576	20	4286
2026-01-07 08:46:49.59	4.18	16.50	-29.9	-31.3	12.7	6.79e-05	0	43	102	1048576	20	4267
2026-01-07 08:46:50.61	4.01	16.42	-30.0	-31.7	12.6	9.91e-05	0	43	102	1048576	20	4386
2026-01-07 08:46:51.62	3.85	16.34	-29.8	-31.2	13.1	6.33e-05	0	43	102	1048576	20	4209
2026-01-07 08:46:52.62	3.69	16.26	-29.9	-31.4	13.0	4.19e-05	0	43	102	1048576	20	4264
2026-01-07 08:46:53.62	3.54	16.18	-29.8	-31.0	13.2	4.50e-05	0	44	102	1048576	20	4157
2026-01-07 08:46:54.62	3.38	16.10	-29.7	-30.8	13.3	1.06e-05	0	43	102	1048576	20	4088
2026-01-07 08:46:55.63	3.22	16.03	-29.6	-30.6	13.4	1.37e-05	0	43	102	1048576	20	4027
2026-01-07 08:46:56.63	3.07	15.95	-29.4	-30.0	13.8	3.00e-06	0	43	102	1048576	20	3870
2026-01-07 08:46:57.64	2.91	15.87	-29.3	-30.3	14.0	7.00e-07	0	43	102	1048576	19	4026
2026-01-07 08:46:58.65	2.76	15.79	-29.3	-30.3	14.0	3.00e-06	0	44	102	1048576	19	4041
2026-01-07 08:46:59.66	2.60	15.71	-29.6	-31.0	13.6	4.50e-06	0	43	102	1048576	19	4244
2026-01-07 08:47:00.64	2.45	15.63	-29.9	-31.8	13.1	1.60e-05	0	43	102	1048576	19	4472
2026-01-07 08:47:01.65	2.30	15.56	-29.9	-32.0	13.0	2.67e-05	0	43	102	1048576	19	4541
2026-01-07 08:47:02.66	2.15	15.48	-30.0	-31.8	12.7	4.42e-05	0	43	102	1048576	20	4410
2026-01-07 08:47:03.67	2.00	15.40	-30.4	-32.7	12.1	1.78e-04	0	43	102	1048576	20	4728
2026-01-07 08:47:04.67	1.85	15.32	-30.5	-32.6	11.8	7.20e-04	0	43	102	1048576	21	4592
2026-01-07 08:47:05.68	1.70	15.24	-30.4	-32.4	11.9	3.98e-04	0	43	102	1048576	21	4517
2026-01-07 08:47:06.69	1.55	15.16	-30.4	-32.4	11.9	3.49e-04	0	43	102	1048576	21	4522
2026-01-07 08:47:07.69	1.40	15.09	-30.1	-31.6	12.4	1.85e-04	0	43	102	1048576	21	4266
2026-01-07 08:47:08.70	1.26	15.01	-30.1	-31.4	12.6	1.01e-04	0	43	102	1048576	21	4190
2026-01-07 08:47:09.70	1.11	14.93	-29.9	-30.9	12.9	6.40e-05	0	43	102	1048576	21	4039
2026-01-07 08:47:10.71	0.97	14.85	-29.8	-30.7	13.1	4.42e-05	0	43	102	1048576	21	3967
2026-01-07 08:47:11.72	0.82	14.78	-29.8	-30.7	13.1	3.89e-05	0	43	102	1048576	21	3970
2026-01-07 08:47:12.72	0.68	14.70	-29.7	-30.9	13.2	1.98e-05	0	43	102	1048576	20	4127
2026-01-07 08:47:13.73	0.54	14.62	-29.7	-31.0	13.1	1.98e-05	0	43	102	1048576	20	4156
2026-01-07 08:47:14.73	0.40	14.54	-29.7	-31.0	13.1	4.50e-05	0	43	102	1048576	20	4147
2026-01-07 08:47:15.74	0.26	14.47	-30.0	-31.8	12.6	6.17e-05	0	43	102	1048576	20	4404
2026-01-07 08:47:16.75	0.11	14.39	-30.1	-32.0	12.4	1.29e-04	0	44	102	1048576	20	4475
2026-01-07 08:47:17.76	359.97	14.31	-30.2	-32.4	12.3	1.43e-04	0	43	102	1048576	20	4610
2026-01-07 08:47:18.76	359.84	14.23	-30.0	-31.9	12.6	1.22e-04	0	43	102	1048576	20	4445
2026-01-07 08:47:19.77	359.70	14.16	-30.1	-32.1	12.4	1.13e-04	0	43	102	1048576	20	4520
2026-01-07 08:47:20.78	359.56	14.08	-30.1	-32.0	12.5	1.20e-04	0	43	102	1048576	20	4491
2026-01-07 08:47:21.79	359.42	14.00	-29.8	-31.3	12.9	9.53e-05	0	43	102	1048576	20	4257
2026-01-07 08:47:22.79	359.29	13.92	-29.7	-30.8	13.3	2.74e-05	0	44	102	1048576	20	4110
2026-01-07 08:47:23.80	359.15	13.85	-29.5	-30.5	13.5	1.37e-05	0	44	102	1048576	20	4011
2026-01-07 08:47:24.80	359.02	13.77	-29.5	-30.5	13.5	3.80e-06	0	44	102	1048576	20	4004
2026-01-07 08:47:25.81	358.88	13.69	-29.6	-30.6	13.4	7.60e-06	0	44	102	1048576	20	4051
2026-01-07 08:47:26.81	358.75	13.62	-29.6	-30.6	13.4	2.21e-05	0	43	102	1048576	20	4043
2026-01-07 08:47:27.81	358.62	13.54	-29.6	-30.7	13.3	8.30e-06	0	43	102	1048576	20	4076
2026-01-07 08:47:28.82	358.49	13.47	-29.6	-30.6	13.3	2.28e-05	0	43	102	1048576	20	4053
2026-01-07 08:47:29.82	358.36	13.39	-29.5	-30.3	13.5	8.30e-06	0	43	102	1048576	20	3966
2026-01-07 08:47:30.83	358.23	13.31	-29.4	-30.1	13.7	6.80e-06	0	43	102	1048576	20	3921
2026-01-07 08:47:31.83	358.10	13.24	-29.4	-30.1	13.7	1.29e-05	0	43	102	1048576	20	3905
2026-01-07 08:47:32.84	357.97	13.16	-29.5	-30.3	13.5	1.37e-05	0	44	102	1048576	20	3978
2026-01-07 08:47:33.85	357.84	13.08	-29.6	-30.6	13.3	1.67e-05	0	43	102	1048576	20	4052
2026-01-07 08:47:34.85	357.71	13.01	-29.5	-30.5	13.4	2.44e-05	0	44	102	1048576	20	4033
2026-01-07 08:47:35.86	357.59	12.93	-29.7	-31.0	13.0	1.98e-05	0	44	102	1048576	20	4180
2026-01-07 08:47:36.87	357.46	12.86	-29.7	-30.9	13.1	4.19e-05	0	43	102	1048576	20	4148
2026-01-07 08:47:37.88	357.34	12.78	-29.9	-31.5	12.7	4.04e-05	0	43	102	1048576	20	4332
2026-01-07 08:47:38.89	357.21	12.71	-29.9	-31.6	12.6	1.34e-04	0	43	102	1048576	20	4366
2026-01-07 08:47:39.90	357.09	12.63	-29.9	-31.6	12.6	1.02e-04	0	43	102	1048576	20	4362
2026-01-07 08:47:40.90	356.96	12.55	-30.0	-31.8	12.4	9.00e-05	0	43	102	1048576	20	4449
2026-01-07 08:47:41.91	356.84	12.48	-29.9	-31.6	12.7	8.77e-05	0	43	102	1048576	20	4361
2026-01-07 08:47:42.92	356.72	12.40	-29.9	-31.5	12.7	7.78e-05	0	44	102	1048576	20	4338
2026-01-07 08:47:43.92	356.60	12.33	-29.9	-31.5	12.7	8.08e-05	0	43	102	1048576	20	4339
2026-01-07 08:47:44.93	356.47	12.25	-29.9	-31.6	12.6	6.48e-05	0	43	102	1048576	20	4373
2026-01-07 08:47:45.94	356.35	12.18	-29.8	-31.4	12.7	7.17e-05	0	43	102	1048576	20	4296
2026-01-07 08:47:46.94	356.23	12.10	-29.8	-31.1	12.9	2.97e-05	0	43	102	1048576	20	4215
2026-01-07 08:47:47.95	356.12	12.03	-29.8	-31.2	12.9	4.50e-05	0	44	102	1048576	20	4240
2026-01-07 08:47:48.96	356.00	11.95	-29.7	-31.1	13.0	4.95e-05	0	43	102	1048576	20	4201
2026-01-07 08:47:49.96	355.88	11.88	-30.0	-31.9	12.4	8.39e-05	0	43	102	1048576	20	4481
2026-01-07 08:47:50.97	355.76	11.81	-30.1	-32.1	12.3	1.59e-04	0	43	102	1048576	20	4537
2026-01-07 08:47:51.98	355.64	11.73	-30.3	-32.6	12.0	3.20e-04	0	43	102	1048576	20	4698
2026-01-07 08:47:52.99	355.53	11.66	-30.5	-33.0	11.3	7.65e-04	0	43	102	1048576	21	4759
2026-01-07 08:47:53.99	355.41	11.58	-30.5	-33.0	11.3	1.25e-03	0	43	102	1048576	21	4764
2026-01-07 08:47:54.99	355.30	11.51	-30.8	-33.9	10.7	1.74e-03	0	43	102	1048576	21	5116
2026-01-07 08:47:56.00	355.18	11.44	-30.8	-33.7	10.7	2.58e-03	0	43	102	1048576	21	5049
2026-01-07 08:47:57.01	355.07	11.36	-30.9	-34.0	10.5	3.08e-03	0	43	102	1048576	21	5185
2026-01-07 08:47:58.01	354.96	11.29	-30.6	-33.3	11.0	3.06e-03	0	43	102	1048576	21	4898
2026-01-07 08:47:59.02	354.85	11.22	-30.7	-33.4	11.0	1.58e-03	0	43	102	1048576	21	4921
2026-01-07 08:48:00.02	354.73	11.14	-30.7	-33.3	11.0	2.11e-03	0	43	102	1048576	21	4903
2026-01-07 08:48:01.03	354.62	11.07	-30.4	-32.5	11.6	1.14e-03	0	43	102	1048576	21	4597
2026-01-07 08:48:02.04	354.51	11.00	-30.2	-31.9	12.0	3.80e-04	0	43	102	1048576	21	4389
2026-01-07 08:48:03.03	354.40	10.92	-29.9	-31.2	12.5	1.62e-04	0	43	102	1048576	21	4176
2026-01-07 08:48:04.04	354.29	10.85	-30.0	-31.3	12.4	1.46e-04	0	43	102	1048576	21	4190
2026-01-07 08:48:05.05	354.18	10.78	-29.9	-31.1	12.5	1.23e-04	0	43	102	1048576	21	4144
2026-01-07 08:48:06.05	354.08	10.71	-29.8	-30.9	12.7	8.92e-05	0	43	102	1048576	21	4068
2026-01-07 08:48:07.07	353.97	10.63	-29.8	-31.0	12.6	8.77e-05	0	43	102	1048576	21	4091
2026-01-07 08:48:08.08	353.86	10.56	-30.0	-31.3	12.4	1.05e-04	0	44	102	1048576	21	4198
2026-01-07 08:48:09.08	353.75	10.49	-30.0	-31.6	12.2	2.57e-04	0	43	102	1048576	21	4283
2026-01-07 08:48:10.08	353.65	10.42	-30.2	-32.1	11.8	2.96e-04	0	44	102	1048576	21	4450
2026-01-07 08:48:11.09	353.54	10.34	-30.4	-32.5	11.5	5.35e-04	0	43	102	1048576	21	4598
2026-01-07 08:48:12.09	353.44	10.27	-30.5	-33.0	11.2	1.16e-03	0	44	102	1048576	21	4771
2026-01-07 08:48:13.10	353.33	10.20	-30.7	-33.5	10.7	1.78e-03	0	43	102	1048576	21	5000
2026-01-07 08:48:14.11	353.23	10.13	-30.8	-33.8	10.5	2.91e-03	0	43	102	1048576	21	5128
2026-01-07 08:48:15.12	353.12	10.06	-30.8	-34.1	10.3	4.66e-03	0	44	102	1048576	21	5236
2026-01-07 08:48:16.13	353.02	9.99	-30.9	-34.2	10.2	5.84e-03	0	43	102	1048576	21	5280
2026-01-07 08:48:17.12	352.92	9.91	-30.9	-34.3	10.1	6.03e-03	0	44	102	1048576	21	5332
2026-01-07 08:48:18.13	352.82	9.84	-31.0	-34.5	10.0	6.52e-03	0	43	102	1048576	21	5438
2026-01-07 08:48:19.14	352.71	9.77	-30.9	-33.7	10.2	6.46e-03	0	44	102	1048576	22	5002
2026-01-07 08:48:20.15	352.61	9.70	-30.9	-33.8	10.2	7.42e-03	0	43	102	1048576	22	5004
2026-01-07 08:48:21.15	352.51	9.63	-30.9	-33.6	10.3	6.92e-03	0	43	102	1048576	22	4956
2026-01-07 08:48:22.16	352.41	9.56	-30.9	-33.7	10.2	5.39e-03	0	43	102	1048576	22	4997
2026-01-07 08:48:23.16	352.31	9.49	-30.9	-33.8	10.2	6.39e-03	0	44	102	1048576	22	5015
2026-01-07 08:48:24.17	352.21	9.42	-30.8	-33.4	10.4	5.18e-03	0	43	102	1048576	22	4886
2026-01-07 08:48:25.17	352.12	9.35	-30.8	-33.5	10.4	4.05e-03	0	44	102	1048576	22	4901
2026-01-07 08:48:26.18	352.02	9.28	-30.8	-33.4	10.5	3.76e-03	0	44	102	1048576	22	4861
2026-01-07 08:48:27.18	351.92	9.21	-30.7	-33.2	10.5	3.26e-03	0	44	102	1048576	22	4805
2026-01-07 08:48:28.20	351.82	9.14	-30.8	-33.4	10.5	4.32e-03	0	44	102	1048576	22	4862
2026-01-07 08:48:29.21	351.73	9.07	-30.8	-33.3	10.4	3.89e-03	0	43	102	1048576	22	4844
2026-01-07 08:48:30.21	351.63	9.00	-30.8	-33.3	10.4	4.71e-03	0	44	102	1048576	22	4842
2026-01-07 08:48:31.22	351.54	8.93	-30.8	-33.4	10.4	4.45e-03	0	43	102	1048576	22	4880
2026-01-07 08:48:32.23	351.44	8.86	-30.9	-33.7	10.1	6.34e-03	0	44	102	1048576	22	4997
2026-01-07 08:48:33.23	351.35	8.79	-30.8	-33.7	10.1	6.04e-03	0	43	102	1048576	22	5006
2026-01-07 08:48:34.24	351.25	8.72	-30.9	-33.8	10.1	6.68e-03	0	43	102	1048576	22	5022
2026-01-07 08:48:35.25	351.16	8.65	-30.9	-34.1	9.9	8.97e-03	0	43	102	1048576	22	5155
2026-01-07 08:48:36.25	351.06	8.58	-31.1	-34.5	9.5	1.18e-02	0	43	102	1048576	22	5330
2026-01-07 08:48:37.26	350.97	8.51	-31.1	-34.7	9.3	1.57e-02	0	43	102	1048576	22	5448
2026-01-07 08:48:38.26	350.88	8.44	-31.1	-34.8	9.3	1.57e-02	0	43	102	1048576	22	5477
2026-01-07 08:48:39.27	350.79	8.37	-31.1	-34.6	9.4	1.85e-02	0	43	102	1048576	22	5401
2026-01-07 08:48:40.28	350.70	8.30	-31.1	-34.5	9.4	1.78e-02	0	43	102	1048576	22	5356
2026-01-07 08:48:41.29	350.60	8.24	-31.1	-34.9	9.1	1.96e-02	0	43	102	1048576	22	5529
2026-01-07 08:48:42.29	350.51	8.17	-31.0	-34.2	9.6	1.42e-02	0	43	102	1048576	22	5230
2026-01-07 08:48:43.30	350.42	8.10	-30.9	-34.0	9.8	1.18e-02	0	44	102	1048576	22	5157
2026-01-07 08:48:44.31	350.33	8.03	-30.9	-33.9	9.9	9.18e-03	0	44	102	1048576	22	5106
2026-01-07 08:48:45.32	350.24	7.96	-30.7	-33.3	10.3	5.85e-03	0	43	102	1048576	22	4847
2026-01-07 08:48:46.32	350.16	7.89	-30.7	-33.2	10.5	4.97e-03	0	43	102	1048576	22	4798
2026-01-07 08:48:47.33	350.07	7.83	-30.6	-32.9	10.6	4.45e-03	0	43	102	1048576	22	4709
2026-01-07 08:48:48.33	349.98	7.76	-30.4	-32.4	10.9	2.04e-03	0	43	102	1048576	22	4508
2026-01-07 08:48:49.34	349.89	7.69	-30.3	-32.4	11.3	1.15e-03	0	43	102	1048576	21	4595
2026-01-07 08:48:50.35	349.81	7.62	-30.1	-32.0	11.6	8.19e-04	0	43	102	1048576	21	4443
2026-01-07 08:48:51.36	349.72	7.56	-30.1	-31.9	11.6	6.95e-04	0	43	102	1048576	21	4419
2026-01-07 08:48:52.37	349.63	7.49	-30.0	-31.7	11.8	5.61e-04	0	43	102	1048576	21	4353
2026-01-07 08:48:53.38	349.55	7.42	-30.1	-31.8	11.8	4.75e-04	0	43	102	1048576	21	4400
2026-01-07 08:48:54.39	349.46	7.35	-30.1	-31.7	11.7	6.03e-04	0	43	102	1048576	21	4372
2026-01-07 08:48:55.39	349.38	7.29	-30.0	-31.7	11.7	5.96e-04	0	43	102	1048576	21	4358
2026-01-07 08:48:56.39	349.29	7.22	-30.0	-31.7	11.7	5.26e-04	0	43	102	1048576	21	4384
2026-01-07 08:48:57.40	349.21	7.15	-30.1	-31.9	11.5	7.61e-04	0	43	102	1048576	21	4437
2026-01-07 08:48:58.40	349.12	7.09	-32.1	-38.4	6.5	7.56e-03	0	43	102	1048576	24	7422
2026-01-07 08:48:59.42	349.04	7.02	-33.1	-45.0	3.8	1.49e+00	0	44	104	1048576	26	14278
2026-01-07 08:49:00.42	348.96	6.95	-33.3	-45.9	3.8	1.49e+00	0	43	104	1048576	26	15274
2026-01-07 08:49:01.42	348.87	6.89	-33.5	-45.8	3.8	1.49e+00	0	43	104	1048576	27	14746

#Closed at: 2026-01-07 08:49:01
#Recorded file [1 MB]: D:/data/31010_260107_113847.dat