passes_logs/2026/01/07/R2M6_AANII_01/R2M6_AANII_01__20260107_020519_SUOMI_NPP_rec.log

#Pass ID: 20260107_020519_SUOMI NPP
#Satellite: SUOMI NPP
#Configuration: NPP
#almurnet v.1.7.20240730
#Start time: 2026-01-07 02:05:21

#Version: 2.2.20231116
#Station: R2M6_AANII_01
#Location: 30.233357 lon 59.946436 lat
#TLE: 1 37849U 11061A   26005.94084933  .00000134  00000+0  84554-4 0  9990
#TLE: 2 37849  98.7803 308.0679 0002567  79.1029 281.0436 14.19522657735426

#Time	Az	El	Level	Level2	SNR	BER	BlckErr	Temp	State	Recorded	gain1	gain2
2026-01-07 02:05:21.52	11.09	7.11	-31.9	-38.9	4.4	1.39e+00	0	41	0	0	23	8014
2026-01-07 02:05:22.51	11.01	7.18	-32.0	-38.5	4.4	1.38e+00	0	41	104	0	24	7675
2026-01-07 02:05:23.52	10.93	7.24	-31.9	-38.3	6.0	4.14e-01	0	41	0	0	23	7558
2026-01-07 02:05:24.53	10.84	7.31	-30.9	-37.2	6.1	3.05e-01	0	41	102	1048576	23	7397
2026-01-07 02:05:25.54	10.76	7.38	-31.8	-38.0	6.0	3.38e-01	0	41	102	1048576	23	7345
2026-01-07 02:05:26.54	10.68	7.45	-31.9	-38.3	6.0	2.84e-01	0	41	102	1048576	23	7498
2026-01-07 02:05:27.55	10.60	7.52	-31.9	-38.1	6.1	2.88e-01	0	41	102	1048576	23	7377
2026-01-07 02:05:28.56	10.51	7.59	-31.9	-38.2	5.9	2.92e-01	0	41	102	1048576	23	7455
2026-01-07 02:05:29.56	10.43	7.65	-31.9	-37.9	6.0	4.00e-01	0	41	102	1048576	24	7156
2026-01-07 02:05:30.56	10.35	7.72	-31.8	-37.5	6.4	2.65e-01	0	41	102	1048576	23	6974
2026-01-07 02:05:31.56	10.26	7.79	-31.5	-36.5	7.6	1.02e-01	0	42	102	1048576	22	6414
2026-01-07 02:05:32.56	10.18	7.86	-31.3	-35.6	8.4	6.94e-02	0	41	102	1048576	22	5926
2026-01-07 02:05:33.57	10.09	7.93	-31.1	-34.8	9.0	4.86e-02	0	41	102	1048576	22	5529
2026-01-07 02:05:34.58	10.01	8.00	-30.8	-34.3	9.8	1.46e-02	0	42	102	1048576	21	5383
2026-01-07 02:05:35.58	9.92	8.06	-30.8	-34.3	9.8	8.82e-03	0	42	102	1048576	21	5402
2026-01-07 02:05:36.59	9.83	8.13	-30.5	-33.4	10.5	6.07e-03	0	42	102	1048576	21	4994
2026-01-07 02:05:37.59	9.75	8.20	-30.4	-33.1	10.8	3.87e-03	0	42	102	1048576	21	4863
2026-01-07 02:05:38.60	9.66	8.27	-30.6	-33.5	10.5	4.11e-03	0	41	102	1048576	21	5022
2026-01-07 02:05:39.61	9.57	8.34	-30.4	-33.4	10.9	3.21e-03	0	42	102	1048576	20	5080
2026-01-07 02:05:40.62	9.48	8.41	-30.4	-33.4	10.9	1.98e-03	0	42	102	1048576	20	5090
2026-01-07 02:05:41.63	9.39	8.48	-30.6	-33.4	10.6	3.19e-03	0	42	102	1048576	21	4998
2026-01-07 02:05:42.64	9.30	8.55	-30.5	-33.3	10.7	3.61e-03	0	42	102	1048576	21	4958
2026-01-07 02:05:43.64	9.21	8.62	-30.5	-33.2	10.7	2.50e-03	0	42	102	1048576	21	4905
2026-01-07 02:05:44.65	9.12	8.69	-30.3	-32.5	11.2	1.68e-03	0	42	102	1048576	21	4645
2026-01-07 02:05:45.65	9.03	8.76	-30.3	-33.2	11.1	4.08e-03	0	42	102	1048576	20	5009
2026-01-07 02:05:46.66	8.94	8.83	-30.4	-33.4	11.0	1.50e-03	0	42	102	1048576	20	5064
2026-01-07 02:05:47.66	8.85	8.90	-30.4	-33.4	11.0	1.72e-03	0	42	102	1048576	20	5084
2026-01-07 02:05:48.67	8.76	8.98	-30.5	-33.5	10.9	5.07e-03	0	42	102	1048576	20	5126
2026-01-07 02:05:49.68	8.67	9.05	-30.5	-33.1	10.8	2.50e-03	0	42	102	1048576	21	4873
2026-01-07 02:05:50.69	8.57	9.12	-30.5	-33.3	10.7	2.36e-03	0	42	102	1048576	21	4947
2026-01-07 02:05:51.70	8.48	9.19	-30.6	-33.4	10.6	5.64e-03	0	42	102	1048576	21	4978
2026-01-07 02:05:52.70	8.39	9.26	-30.6	-33.3	10.7	5.93e-03	0	42	102	1048576	21	4963
2026-01-07 02:05:53.71	8.29	9.33	-30.7	-33.7	10.4	3.22e-03	0	42	102	1048576	21	5107
2026-01-07 02:05:54.72	8.20	9.40	-30.8	-34.0	10.2	8.30e-03	0	42	102	1048576	21	5220
2026-01-07 02:05:55.73	8.10	9.48	-30.6	-33.5	10.6	6.45e-03	0	42	102	1048576	21	5005
2026-01-07 02:05:56.73	8.00	9.55	-30.6	-33.6	10.6	3.59e-03	0	42	102	1048576	21	5049
2026-01-07 02:05:57.74	7.91	9.62	-30.8	-34.2	10.1	9.82e-03	0	42	102	1048576	21	5317
2026-01-07 02:05:58.74	7.81	9.69	-30.7	-33.8	10.5	8.40e-03	0	42	102	1048576	21	5110
2026-01-07 02:05:59.75	7.71	9.76	-30.6	-33.5	10.6	3.90e-03	0	42	102	1048576	21	5026
2026-01-07 02:06:00.76	7.62	9.84	-30.6	-33.5	10.6	3.69e-03	0	42	102	1048576	21	5021
2026-01-07 02:06:01.76	7.52	9.91	-30.6	-33.4	10.7	5.78e-03	0	42	102	1048576	21	4964
2026-01-07 02:06:02.77	7.42	9.98	-30.6	-33.3	10.8	2.71e-03	0	42	102	1048576	21	4929
2026-01-07 02:06:03.78	7.32	10.05	-30.5	-33.2	10.9	4.58e-03	0	42	102	1048576	21	4874
2026-01-07 02:06:04.78	7.22	10.13	-30.6	-33.3	10.9	5.50e-03	0	42	102	1048576	21	4913
2026-01-07 02:06:05.78	7.12	10.20	-30.6	-33.3	10.9	3.57e-03	0	42	102	1048576	21	4927
2026-01-07 02:06:06.79	7.02	10.27	-30.6	-33.3	10.9	5.14e-03	0	42	102	1048576	21	4911
2026-01-07 02:06:07.80	6.92	10.35	-30.6	-33.5	10.7	5.65e-03	0	42	102	1048576	21	4996
2026-01-07 02:06:08.81	6.82	10.42	-30.6	-33.4	10.8	3.07e-03	0	42	102	1048576	21	4975
2026-01-07 02:06:09.81	6.71	10.49	-30.6	-33.3	10.9	4.83e-03	0	42	102	1048576	21	4902
2026-01-07 02:06:10.82	6.61	10.57	-30.8	-33.8	10.5	3.05e-03	0	42	102	1048576	21	5132
2026-01-07 02:06:11.83	6.51	10.64	-30.6	-33.2	10.9	2.26e-03	0	42	102	1048576	21	4893
2026-01-07 02:06:12.84	6.40	10.72	-30.5	-33.1	11.1	4.26e-03	0	42	102	1048576	21	4821
2026-01-07 02:06:13.84	6.30	10.79	-30.5	-33.0	11.1	4.75e-03	0	42	102	1048576	21	4808
2026-01-07 02:06:14.85	6.19	10.86	-30.5	-33.1	11.0	1.90e-03	0	42	102	1048576	21	4830
2026-01-07 02:06:15.86	6.09	10.94	-30.6	-33.2	11.0	4.96e-03	0	42	102	1048576	21	4871
2026-01-07 02:06:16.86	5.98	11.01	-30.5	-33.1	11.1	5.51e-03	0	42	102	1048576	21	4825
2026-01-07 02:06:17.87	5.87	11.09	-30.4	-32.8	11.3	1.29e-03	0	42	102	1048576	21	4723
2026-01-07 02:06:18.88	5.77	11.16	-30.5	-33.4	11.2	3.82e-03	0	42	102	1048576	20	5045
2026-01-07 02:06:19.89	5.66	11.24	-30.4	-33.3	11.2	3.92e-03	0	43	102	1048576	20	5007
2026-01-07 02:06:20.90	5.55	11.31	-30.5	-33.1	11.0	1.50e-03	0	42	102	1048576	21	4844
2026-01-07 02:06:21.91	5.44	11.39	-30.8	-33.8	10.6	2.85e-03	0	43	102	1048576	21	5126
2026-01-07 02:06:22.91	5.33	11.46	-30.7	-33.5	10.7	6.30e-03	0	43	102	1048576	21	5010
2026-01-07 02:06:23.92	5.22	11.54	-30.7	-33.7	10.7	3.43e-03	0	42	102	1048576	21	5087
2026-01-07 02:06:24.92	5.11	11.61	-30.8	-33.8	10.6	3.96e-03	0	42	102	1048576	21	5097
2026-01-07 02:06:25.93	5.00	11.69	-30.9	-34.4	10.2	6.71e-03	0	43	102	1048576	21	5380
2026-01-07 02:06:26.94	4.89	11.76	-30.8	-34.0	10.5	5.18e-03	0	43	102	1048576	21	5178
2026-01-07 02:06:27.95	4.77	11.84	-30.8	-33.9	10.5	3.32e-03	0	43	102	1048576	21	5156
2026-01-07 02:06:28.96	4.66	11.92	-30.8	-33.9	10.5	4.41e-03	0	43	102	1048576	21	5165
2026-01-07 02:06:29.97	4.54	11.99	-30.7	-33.5	10.8	4.47e-03	0	43	102	1048576	21	4975
2026-01-07 02:06:30.98	4.43	12.07	-30.6	-33.2	11.0	1.74e-03	0	43	102	1048576	21	4864
2026-01-07 02:06:31.99	4.31	12.15	-30.6	-33.2	11.1	1.51e-03	0	43	102	1048576	21	4866
2026-01-07 02:06:32.99	4.20	12.22	-30.5	-33.0	11.2	1.39e-03	0	43	102	1048576	21	4792
2026-01-07 02:06:34.00	4.08	12.30	-30.5	-33.0	11.2	1.26e-03	0	43	102	1048576	21	4783
2026-01-07 02:06:35.00	3.97	12.37	-30.7	-33.5	10.8	1.76e-03	0	43	102	1048576	21	4975
2026-01-07 02:06:36.00	3.85	12.45	-30.6	-33.3	11.0	2.13e-03	0	42	102	1048576	21	4896
2026-01-07 02:06:37.01	3.73	12.53	-30.4	-32.8	11.3	5.26e-03	0	43	102	1048576	21	4701
2026-01-07 02:06:38.02	3.61	12.60	-30.6	-33.1	11.2	1.60e-03	0	43	102	1048576	21	4844
2026-01-07 02:06:39.02	3.49	12.68	-30.5	-32.9	11.3	1.30e-03	0	43	102	1048576	21	4759
2026-01-07 02:06:40.03	3.37	12.76	-30.5	-33.0	11.3	1.13e-03	0	43	102	1048576	21	4790
2026-01-07 02:06:41.04	3.25	12.84	-30.6	-33.1	11.2	1.16e-03	0	43	102	1048576	21	4815
2026-01-07 02:06:42.04	3.13	12.91	-30.4	-32.5	11.6	9.18e-04	0	43	102	1048576	21	4615
2026-01-07 02:06:43.05	3.01	12.99	-30.3	-32.7	11.8	4.17e-04	0	43	102	1048576	20	4746
2026-01-07 02:06:44.06	2.88	13.07	-30.2	-32.3	12.1	2.57e-04	0	43	102	1048576	20	4625
2026-01-07 02:06:45.06	2.76	13.15	-29.9	-31.7	12.5	2.41e-04	0	43	102	1048576	20	4406
2026-01-07 02:06:46.07	2.64	13.23	-30.2	-32.4	12.0	2.15e-04	0	43	102	1048576	20	4648
2026-01-07 02:06:47.08	2.51	13.30	-30.2	-32.4	12.1	2.66e-04	0	43	102	1048576	20	4635
2026-01-07 02:06:48.08	2.39	13.38	-30.3	-32.6	11.9	2.08e-04	0	43	102	1048576	20	4729
2026-01-07 02:06:49.09	2.26	13.46	-30.4	-33.0	11.6	4.03e-04	0	43	102	1048576	20	4873
2026-01-07 02:06:50.09	2.13	13.54	-30.6	-33.2	11.2	9.23e-04	0	43	102	1048576	21	4861
2026-01-07 02:06:51.10	2.01	13.62	-30.4	-32.8	11.4	1.15e-03	0	43	102	1048576	21	4739
2026-01-07 02:06:52.11	1.88	13.70	-29.1	-31.4	11.4	7.61e-04	0	43	102	1048576	20	4706
2026-01-07 02:06:53.12	1.75	13.77	-30.4	-32.9	11.7	6.41e-04	0	43	102	1048576	20	4828
2026-01-07 02:06:54.12	1.62	13.85	-30.6	-33.2	11.2	1.09e-03	0	43	102	1048576	21	4858
2026-01-07 02:06:55.13	1.49	13.93	-30.7	-33.5	11.0	1.34e-03	0	43	102	1048576	21	4948
2026-01-07 02:06:56.13	1.36	14.01	-30.6	-33.1	11.2	1.01e-03	0	43	102	1048576	21	4800
2026-01-07 02:06:57.14	1.23	14.09	-30.8	-33.6	10.9	5.29e-03	0	43	102	1048576	21	5018
2026-01-07 02:06:58.15	1.09	14.17	-30.6	-33.2	11.4	1.49e-03	0	43	102	1048576	21	4827
2026-01-07 02:06:59.15	0.96	14.25	-30.5	-32.7	11.6	8.85e-04	0	43	102	1048576	21	4652
2026-01-07 02:07:00.16	0.83	14.33	-30.5	-33.3	11.6	7.70e-04	0	43	102	1048576	20	4964
2026-01-07 02:07:01.16	0.69	14.41	-30.3	-32.7	12.0	3.47e-03	0	43	102	1048576	20	4753
2026-01-07 02:07:02.17	0.56	14.49	-30.5	-32.7	11.6	7.30e-04	0	43	102	1048576	21	4664
2026-01-07 02:07:03.18	0.42	14.57	-30.5	-33.3	11.6	6.24e-04	0	43	102	1048576	20	4978
2026-01-07 02:07:04.19	0.28	14.65	-30.5	-32.9	11.5	3.11e-03	0	43	102	1048576	21	4724
2026-01-07 02:07:05.20	0.14	14.73	-30.7	-33.3	11.2	1.23e-03	0	43	102	1048576	21	4883
2026-01-07 02:07:06.20	0.01	14.81	-30.4	-32.6	11.6	1.22e-03	0	43	102	1048576	21	4633
2026-01-07 02:07:07.21	359.87	14.89	-30.4	-32.9	11.8	3.38e-03	0	43	102	1048576	20	4833
2026-01-07 02:07:08.21	359.73	14.97	-30.4	-32.9	11.8	7.35e-04	0	43	102	1048576	20	4826
2026-01-07 02:07:09.22	359.59	15.05	-30.2	-32.3	12.3	3.05e-04	0	43	102	1048576	20	4587
2026-01-07 02:07:10.23	359.44	15.13	-30.2	-32.3	12.2	2.95e-03	0	43	102	1048576	20	4596
2026-01-07 02:07:11.23	359.30	15.21	-30.3	-32.7	12.0	6.49e-04	0	43	102	1048576	20	4734
2026-01-07 02:07:12.24	359.16	15.29	-30.0	-31.9	12.5	8.92e-05	0	43	102	1048576	20	4466
2026-01-07 02:07:13.24	359.02	15.37	-30.0	-32.2	12.8	9.23e-05	0	43	102	1048576	19	4630
2026-01-07 02:07:14.25	358.87	15.45	-29.9	-31.5	12.8	3.45e-04	0	43	102	1048576	20	4316
2026-01-07 02:07:15.26	358.73	15.53	-30.1	-32.0	12.5	2.55e-03	0	43	102	1048576	20	4481
2026-01-07 02:07:16.27	358.58	15.61	-30.0	-31.7	12.7	1.03e-04	0	43	102	1048576	20	4397
2026-01-07 02:07:17.27	358.43	15.69	-30.0	-31.7	12.7	2.94e-04	0	43	102	1048576	20	4404
2026-01-07 02:07:18.27	358.29	15.77	-30.0	-31.8	12.6	2.73e-03	0	43	102	1048576	20	4433
2026-01-07 02:07:19.28	358.14	15.86	-29.9	-31.6	12.7	2.68e-03	0	43	102	1048576	20	4365
2026-01-07 02:07:20.29	357.99	15.94	-29.9	-31.6	12.8	3.42e-04	0	43	102	1048576	20	4344
2026-01-07 02:07:21.29	357.84	16.02	-30.0	-31.7	12.7	2.67e-03	0	43	102	1048576	20	4376
2026-01-07 02:07:22.30	357.68	16.10	-29.8	-31.6	13.1	2.44e-03	0	43	102	1048576	19	4453
2026-01-07 02:07:23.30	357.53	16.18	-29.8	-31.7	13.1	2.28e-05	0	43	102	1048576	19	4481
2026-01-07 02:07:24.31	357.38	16.26	-29.8	-31.7	13.1	2.39e-03	0	43	102	1048576	19	4477
2026-01-07 02:07:25.32	357.23	16.34	-29.8	-31.6	13.3	2.64e-03	0	43	102	1048576	19	4426
2026-01-07 02:07:26.33	357.07	16.43	-29.9	-31.6	12.9	3.84e-04	0	43	102	1048576	20	4346
2026-01-07 02:07:27.34	356.91	16.51	-30.0	-31.7	12.8	2.65e-03	0	43	102	1048576	20	4369
2026-01-07 02:07:28.35	356.76	16.59	-29.9	-31.4	13.0	2.63e-03	0	43	102	1048576	20	4299
2026-01-07 02:07:29.36	356.60	16.67	-30.1	-31.9	12.7	4.58e-04	0	43	102	1048576	20	4457
2026-01-07 02:07:30.37	356.44	16.75	-29.9	-31.5	12.9	6.86e-05	0	43	102	1048576	20	4331
2026-01-07 02:07:31.38	356.28	16.84	-30.1	-31.9	12.6	2.43e-03	0	43	102	1048576	20	4459
2026-01-07 02:07:32.38	356.12	16.92	-30.0	-31.7	12.7	3.73e-04	0	43	102	1048576	20	4392
2026-01-07 02:07:33.39	355.96	17.00	-29.9	-31.6	12.9	4.11e-05	0	43	102	1048576	20	4334
2026-01-07 02:07:34.39	355.80	17.08	-29.8	-31.7	13.1	2.39e-03	0	43	102	1048576	19	4481
2026-01-07 02:07:35.39	355.64	17.16	-29.9	-31.8	13.1	1.93e-04	0	43	102	1048576	19	4493
2026-01-07 02:07:36.40	355.47	17.24	-30.0	-31.6	12.8	2.34e-03	0	43	102	1048576	20	4363
2026-01-07 02:07:37.41	355.31	17.33	-30.0	-31.7	12.8	5.72e-05	0	43	102	1048576	20	4372
2026-01-07 02:07:38.40	355.15	17.41	-29.8	-31.3	13.1	2.38e-04	0	43	102	1048576	20	4242
2026-01-07 02:07:39.41	354.98	17.49	-30.0	-31.7	12.8	2.37e-03	0	43	102	1048576	20	4388
2026-01-07 02:07:40.41	354.81	17.57	-30.1	-32.0	12.5	7.55e-05	0	43	102	1048576	20	4495
2026-01-07 02:07:41.42	354.65	17.65	-30.2	-32.2	12.4	9.84e-05	0	43	102	1048576	20	4564
2026-01-07 02:07:42.43	354.48	17.74	-30.2	-32.3	12.4	2.22e-03	0	43	102	1048576	20	4585
2026-01-07 02:07:43.43	354.31	17.82	-30.0	-31.9	12.6	7.93e-05	0	43	102	1048576	20	4467
2026-01-07 02:07:44.43	354.14	17.90	-30.1	-32.0	12.5	9.61e-05	0	43	102	1048576	20	4493
2026-01-07 02:07:45.44	353.96	17.98	-30.0	-31.8	12.7	2.34e-03	0	43	102	1048576	20	4416
2026-01-07 02:07:46.45	353.79	18.07	-29.7	-31.5	13.4	2.36e-03	0	43	102	1048576	19	4389
2026-01-07 02:07:47.45	353.62	18.15	-29.8	-31.5	13.3	2.59e-05	0	43	102	1048576	19	4412
2026-01-07 02:07:48.45	353.44	18.23	-29.8	-31.7	13.2	1.52e-05	0	43	102	1048576	19	4472
2026-01-07 02:07:49.46	353.27	18.31	-30.0	-31.6	12.9	1.82e-03	0	43	102	1048576	20	4366
2026-01-07 02:07:50.46	353.09	18.39	-30.1	-32.0	12.6	6.33e-05	0	43	102	1048576	20	4474
2026-01-07 02:07:51.48	352.91	18.48	-30.3	-32.6	12.2	1.23e-04	0	43	102	1048576	20	4706
2026-01-07 02:07:52.48	352.74	18.56	-30.4	-32.9	12.0	1.98e-03	0	43	102	1048576	20	4789
2026-01-07 02:07:53.49	352.56	18.64	-30.5	-33.1	11.9	3.78e-04	0	43	102	1048576	20	4884
2026-01-07 02:07:54.49	352.38	18.72	-30.3	-32.7	12.2	3.13e-04	0	43	102	1048576	20	4729
2026-01-07 02:07:55.50	352.19	18.80	-30.3	-32.7	12.2	2.46e-04	0	43	102	1048576	20	4705
2026-01-07 02:07:56.51	352.01	18.89	-30.3	-32.6	12.3	4.24e-04	0	43	102	1048576	20	4683
2026-01-07 02:07:57.51	351.83	18.97	-30.2	-32.4	12.4	1.21e-04	0	43	102	1048576	20	4614
2026-01-07 02:07:58.51	351.64	19.05	-30.2	-32.3	12.5	9.61e-05	0	43	102	1048576	20	4559
2026-01-07 02:07:59.52	351.46	19.13	-30.4	-32.7	12.1	1.62e-04	0	43	102	1048576	20	4727
2026-01-07 02:08:00.53	351.27	19.21	-30.1	-32.0	12.6	1.16e-04	0	43	102	1048576	20	4489
2026-01-07 02:08:01.54	351.08	19.30	-30.2	-32.3	12.5	1.27e-04	0	43	102	1048576	20	4588
2026-01-07 02:08:02.54	350.89	19.38	-30.3	-32.6	12.3	1.52e-04	0	43	102	1048576	20	4692
2026-01-07 02:08:03.55	350.70	19.46	-30.4	-32.7	12.2	1.95e-04	0	43	102	1048576	20	4736
2026-01-07 02:08:04.55	350.51	19.54	-30.3	-32.5	12.3	2.25e-04	0	43	102	1048576	20	4669
2026-01-07 02:08:05.56	350.32	19.62	-30.2	-32.3	12.5	1.20e-04	0	43	102	1048576	20	4588
2026-01-07 02:08:06.57	350.13	19.71	-30.1	-32.0	12.6	8.23e-05	0	43	102	1048576	20	4484
2026-01-07 02:08:07.58	349.93	19.79	-29.9	-31.4	13.0	7.85e-05	0	43	102	1048576	20	4282
2026-01-07 02:08:08.58	349.74	19.87	-30.2	-32.2	12.5	8.54e-05	0	43	102	1048576	20	4534
2026-01-07 02:08:09.59	349.54	19.95	-30.1	-32.0	12.6	1.43e-04	0	43	102	1048576	20	4483
2026-01-07 02:08:10.60	349.35	20.03	-30.2	-32.3	12.5	1.20e-04	0	43	102	1048576	20	4565
2026-01-07 02:08:11.60	349.15	20.11	-30.4	-33.0	12.0	2.39e-04	0	43	102	1048576	20	4822
2026-01-07 02:08:12.61	348.95	20.19	-30.5	-32.6	11.9	4.33e-04	0	43	102	1048576	21	4590
2026-01-07 02:08:13.62	348.75	20.27	-30.8	-33.4	11.4	6.35e-04	0	44	102	1048576	21	4892
2026-01-07 02:08:14.63	348.55	20.36	-30.6	-33.0	11.6	7.35e-04	0	43	102	1048576	21	4718
2026-01-07 02:08:15.64	348.34	20.44	-30.5	-33.0	12.0	5.27e-04	0	43	102	1048576	20	4820
2026-01-07 02:08:16.64	348.14	20.52	-30.3	-32.4	12.4	2.93e-04	0	43	102	1048576	20	4603
2026-01-07 02:08:17.65	347.94	20.60	-30.0	-31.7	13.0	8.23e-05	0	43	102	1048576	20	4367
2026-01-07 02:08:18.65	347.73	20.68	-30.1	-31.9	12.8	4.95e-05	0	43	102	1048576	20	4440
2026-01-07 02:08:19.66	347.52	20.76	-29.9	-31.4	13.1	8.16e-05	0	43	102	1048576	20	4282
2026-01-07 02:08:20.67	347.32	20.84	-29.8	-31.0	13.4	1.22e-05	0	43	102	1048576	20	4132
2026-01-07 02:08:21.68	347.11	20.92	-30.0	-31.5	13.1	2.59e-05	0	43	102	1048576	20	4293
2026-01-07 02:08:22.68	346.90	21.00	-30.0	-31.7	13.0	3.50e-05	0	43	102	1048576	20	4365
2026-01-07 02:08:23.69	346.68	21.08	-30.3	-32.5	12.5	1.37e-04	0	43	102	1048576	20	4623
2026-01-07 02:08:24.70	346.47	21.16	-30.4	-32.7	12.3	1.37e-04	0	43	102	1048576	20	4689
2026-01-07 02:08:25.70	346.26	21.24	-30.4	-32.7	12.3	1.33e-04	0	43	102	1048576	20	4716
2026-01-07 02:08:26.70	346.05	21.31	-30.3	-32.5	12.5	2.15e-03	0	43	102	1048576	20	4649
2026-01-07 02:08:27.71	345.83	21.39	-30.3	-32.3	12.5	2.48e-03	0	43	102	1048576	20	4576
2026-01-07 02:08:28.72	345.61	21.47	-30.1	-32.0	12.7	8.23e-05	0	43	102	1048576	20	4458
2026-01-07 02:08:29.73	345.39	21.55	-30.0	-32.0	13.2	2.43e-03	0	43	102	1048576	19	4540
2026-01-07 02:08:30.73	345.18	21.63	-29.9	-31.9	13.2	2.39e-03	0	43	102	1048576	19	4505
2026-01-07 02:08:31.74	344.96	21.71	-29.8	-31.6	13.4	1.67e-05	0	43	102	1048576	19	4417
2026-01-07 02:08:32.75	344.73	21.79	-29.7	-31.2	13.6	8.30e-06	0	43	102	1048576	19	4304
2026-01-07 02:08:33.75	344.51	21.86	-29.8	-31.6	13.4	2.22e-03	0	43	102	1048576	19	4417
2026-01-07 02:08:34.76	344.29	21.94	-29.5	-30.8	13.9	6.10e-06	0	43	102	1048576	19	4184
2026-01-07 02:08:35.77	344.06	22.02	-29.3	-30.7	14.2	2.20e-06	0	43	102	1048576	18	4253
2026-01-07 02:08:36.77	343.84	22.09	-29.2	-30.4	14.5	2.37e-03	0	43	102	1048576	18	4141
2026-01-07 02:08:37.78	343.61	22.17	-29.1	-30.2	14.6	0.00e+00	0	43	102	1048576	18	4084
2026-01-07 02:08:38.78	343.38	22.25	-29.1	-30.3	14.6	1.80e-03	0	43	102	1048576	18	4112
2026-01-07 02:08:39.79	343.15	22.32	-29.1	-30.3	14.5	2.48e-03	0	43	102	1048576	18	4118
2026-01-07 02:08:40.79	342.92	22.40	-29.3	-30.8	14.2	7.00e-07	0	43	102	1048576	18	4263
2026-01-07 02:08:41.80	342.69	22.48	-29.4	-30.7	14.0	2.54e-03	0	44	102	1048576	19	4143
2026-01-07 02:08:42.80	342.46	22.55	-29.7	-31.4	13.5	5.30e-06	0	43	102	1048576	19	4380
2026-01-07 02:08:43.81	342.23	22.63	-29.7	-31.4	13.5	1.44e-05	0	43	102	1048576	19	4348
2026-01-07 02:08:44.81	341.99	22.70	-29.7	-31.2	13.7	2.49e-03	0	43	102	1048576	19	4293
2026-01-07 02:08:45.81	341.76	22.77	-29.6	-31.0	13.8	2.72e-03	0	43	102	1048576	19	4228
2026-01-07 02:08:46.82	341.52	22.85	-29.1	-29.8	14.5	0.00e+00	0	43	102	1048576	19	3896
2026-01-07 02:08:47.82	341.28	22.92	-29.0	-30.0	14.8	2.58e-03	0	44	102	1048576	18	4019
2026-01-07 02:08:48.82	341.05	23.00	-28.6	-29.5	15.3	2.58e-03	0	44	102	1048576	17	3995
2026-01-07 02:08:49.83	340.80	23.07	-28.6	-29.4	15.4	0.00e+00	0	43	102	1048576	17	3953
2026-01-07 02:08:50.83	340.56	23.14	-28.7	-29.8	15.1	2.54e-03	0	43	102	1048576	17	4068
2026-01-07 02:08:51.83	340.32	23.21	-28.9	-30.2	14.9	2.24e-03	0	43	102	1048576	17	4186
2026-01-07 02:08:52.84	340.08	23.29	-29.2	-30.5	14.4	0.00e+00	0	43	102	1048576	18	4182
2026-01-07 02:08:53.84	339.83	23.36	-29.5	-31.2	14.1	2.42e-03	0	43	102	1048576	18	4379
2026-01-07 02:08:54.85	339.59	23.43	-29.5	-30.9	13.9	2.79e-03	0	44	102	1048576	19	4191
2026-01-07 02:08:55.86	339.34	23.50	-29.5	-30.7	14.0	6.10e-06	0	44	102	1048576	19	4124
2026-01-07 02:08:56.86	339.09	23.57	-29.6	-31.0	13.8	1.50e-06	0	44	102	1048576	19	4240
2026-01-07 02:08:57.87	338.84	23.64	-29.0	-30.0	14.7	2.66e-03	0	43	102	1048576	18	4045
2026-01-07 02:08:58.88	338.59	23.71	-28.8	-29.5	15.1	7.00e-07	0	43	102	1048576	18	3889
2026-01-07 02:08:59.89	338.34	23.78	-28.9	-30.2	14.9	0.00e+00	0	43	102	1048576	17	4196
2026-01-07 02:09:00.90	338.08	23.85	-29.0	-29.9	14.8	2.36e-03	0	43	102	1048576	18	4007
2026-01-07 02:09:01.90	337.83	23.92	-29.3	-30.6	14.3	0.00e+00	0	43	102	1048576	18	4217
2026-01-07 02:09:02.91	337.57	23.99	-29.3	-30.8	14.2	2.27e-03	0	43	102	1048576	18	4263
2026-01-07 02:09:03.91	337.32	24.05	-29.3	-30.8	14.3	3.80e-06	0	43	102	1048576	18	4260
2026-01-07 02:09:04.92	337.06	24.12	-29.2	-30.3	14.6	0.00e+00	0	43	102	1048576	18	4128
2026-01-07 02:09:05.93	336.80	24.19	-28.9	-29.7	14.9	2.64e-03	0	43	102	1048576	18	3955
2026-01-07 02:09:06.93	336.54	24.25	-28.6	-29.4	15.4	0.00e+00	0	43	102	1048576	17	3953
2026-01-07 02:09:07.94	336.28	24.32	-28.5	-29.3	15.5	7.00e-07	0	43	102	1048576	17	3921
2026-01-07 02:09:08.94	336.02	24.39	-28.6	-29.5	15.4	2.30e-03	0	43	102	1048576	17	3987
2026-01-07 02:09:09.94	335.76	24.45	-28.8	-30.0	15.1	7.00e-07	0	43	102	1048576	17	4134
2026-01-07 02:09:10.95	335.49	24.51	-29.1	-30.2	14.7	7.00e-07	0	43	102	1048576	18	4078
2026-01-07 02:09:11.96	335.23	24.58	-29.2	-30.4	14.6	2.10e-03	0	43	102	1048576	18	4142
2026-01-07 02:09:12.97	334.96	24.64	-29.6	-30.8	14.0	3.00e-06	0	43	102	1048576	19	4169
2026-01-07 02:09:13.98	334.69	24.71	-29.5	-30.7	14.1	2.20e-06	0	44	102	1048576	19	4142
2026-01-07 02:09:14.99	334.42	24.77	-29.5	-31.1	14.2	0.00e+00	0	44	102	1048576	18	4349
2026-01-07 02:09:15.99	334.15	24.83	-29.3	-30.7	14.4	2.33e-03	0	43	102	1048576	18	4224
2026-01-07 02:09:17.00	333.88	24.89	-29.4	-30.9	14.3	0.00e+00	0	43	102	1048576	18	4270
2026-01-07 02:09:18.01	333.61	24.95	-29.5	-30.7	14.1	2.20e-06	0	43	102	1048576	19	4127
2026-01-07 02:09:19.02	333.34	25.01	-29.5	-30.6	14.1	1.97e-03	0	43	102	1048576	19	4117
2026-01-07 02:09:20.03	333.06	25.07	-29.5	-30.8	14.0	3.00e-06	0	43	102	1048576	19	4154
2026-01-07 02:09:21.04	332.78	25.13	-29.5	-30.7	14.1	3.00e-06	0	43	102	1048576	19	4130
2026-01-07 02:09:22.04	332.51	25.19	-29.4	-30.4	14.2	1.50e-06	0	43	102	1048576	19	4051
2026-01-07 02:09:23.05	332.23	25.25	-29.2	-30.6	14.5	7.00e-07	0	43	102	1048576	18	4185
2026-01-07 02:09:24.05	331.96	25.30	-29.0	-30.0	14.8	7.00e-07	0	44	102	1048576	18	4021
2026-01-07 02:09:25.06	331.68	25.36	-29.0	-29.9	14.9	7.00e-07	0	43	102	1048576	18	4001
2026-01-07 02:09:26.06	331.40	25.42	-29.2	-30.4	14.6	0.00e+00	0	43	102	1048576	18	4129
2026-01-07 02:09:27.07	331.12	25.47	-29.1	-30.3	14.6	0.00e+00	0	43	102	1048576	18	4114
2026-01-07 02:09:28.07	330.84	25.53	-29.4	-30.9	14.3	0.00e+00	0	43	102	1048576	18	4272
2026-01-07 02:09:29.08	330.55	25.58	-29.1	-30.1	14.7	0.00e+00	0	43	102	1048576	18	4058
2026-01-07 02:09:30.09	330.27	25.63	-28.8	-29.5	15.1	0.00e+00	0	43	102	1048576	18	3872
2026-01-07 02:09:31.10	329.98	25.69	-28.6	-29.5	15.4	0.00e+00	0	43	102	1048576	17	3973
2026-01-07 02:09:32.11	329.69	25.74	-28.4	-28.9	15.7	0.00e+00	0	43	102	1048576	17	3825
2026-01-07 02:09:33.11	329.41	25.79	-28.5	-29.1	15.6	0.00e+00	0	43	102	1048576	17	3871
2026-01-07 02:09:34.12	329.12	25.84	-28.4	-28.8	15.8	0.00e+00	0	43	102	1048576	17	3796
2026-01-07 02:09:35.12	328.83	25.89	-28.7	-29.5	13.9	1.50e-06	0	43	102	1048576	17	3987
2026-01-07 02:09:36.13	328.54	25.94	-29.0	-30.3	14.3	0.00e+00	0	43	102	1048576	17	4209
2026-01-07 02:09:37.13	328.25	25.99	-29.2	-30.3	14.6	7.00e-07	0	44	102	1048576	18	4097
2026-01-07 02:09:38.13	327.96	26.03	-29.3	-30.7	14.3	0.00e+00	0	43	102	1048576	18	4221
2026-01-07 02:09:39.14	327.67	26.08	-29.3	-30.6	14.4	0.00e+00	0	43	102	1048576	18	4197
2026-01-07 02:09:40.15	327.38	26.13	-29.2	-30.3	14.6	0.00e+00	0	43	102	1048576	18	4114
2026-01-07 02:09:41.15	327.08	26.17	-28.9	-30.1	15.0	0.00e+00	0	43	102	1048576	17	4154
2026-01-07 02:09:42.16	326.79	26.22	-28.9	-30.1	15.0	0.00e+00	0	43	102	1048576	17	4161
2026-01-07 02:09:43.16	326.49	26.26	-29.0	-30.3	14.9	8.87e-04	0	44	102	1048576	17	4209
2026-01-07 02:09:44.17	326.20	26.30	-29.3	-30.7	14.4	0.00e+00	0	44	102	1048576	18	4217
2026-01-07 02:09:45.17	325.90	26.35	-29.3	-30.5	14.5	0.00e+00	0	43	102	1048576	18	4179
2026-01-07 02:09:46.18	325.60	26.39	-29.6	-31.0	13.8	7.98e-04	0	43	102	1048576	19	4214
2026-01-07 02:09:47.19	325.30	26.43	-29.5	-30.7	14.0	1.13e-03	0	43	102	1048576	19	4143
2026-01-07 02:09:48.19	325.00	26.47	-29.6	-30.9	13.9	5.30e-06	0	43	102	1048576	19	4206
2026-01-07 02:09:49.20	324.70	26.51	-29.5	-30.8	14.0	3.80e-06	0	43	102	1048576	19	4175
2026-01-07 02:09:50.21	324.40	26.55	-29.5	-31.2	14.1	2.36e-03	0	44	102	1048576	18	4376
2026-01-07 02:09:51.21	324.10	26.58	-29.5	-30.7	14.1	4.50e-06	0	43	102	1048576	19	4132
2026-01-07 02:09:52.22	323.80	26.62	-29.6	-30.9	14.0	2.20e-06	0	43	102	1048576	19	4185
2026-01-07 02:09:53.22	323.49	26.66	-29.8	-31.5	13.6	2.68e-03	0	43	102	1048576	19	4383
2026-01-07 02:09:54.23	323.19	26.69	-29.9	-31.2	13.4	2.56e-03	0	43	102	1048576	20	4182
2026-01-07 02:09:55.24	322.88	26.73	-30.3	-32.5	12.5	3.81e-05	0	43	102	1048576	20	4624
2026-01-07 02:09:56.25	322.58	26.76	-30.4	-32.6	12.4	2.68e-03	0	43	102	1048576	20	4656
2026-01-07 02:09:57.26	322.27	26.79	-30.0	-31.5	13.2	3.07e-03	0	44	102	1048576	20	4274
2026-01-07 02:09:58.27	321.96	26.82	-29.7	-31.3	13.7	1.06e-05	0	43	102	1048576	19	4292
2026-01-07 02:09:59.28	321.65	26.86	-29.7	-31.1	13.8	6.10e-06	0	43	102	1048576	19	4250
2026-01-07 02:10:00.28	321.35	26.89	-29.6	-31.0	13.9	2.82e-03	0	44	102	1048576	19	4227
2026-01-07 02:10:01.29	321.04	26.91	-29.8	-31.4	13.6	1.20e-03	0	44	102	1048576	19	4342
2026-01-07 02:10:02.29	320.73	26.94	-30.1	-31.8	12.9	1.14e-05	0	43	102	1048576	20	4402
2026-01-07 02:10:03.29	320.42	26.97	-30.2	-32.2	12.7	2.85e-03	0	44	102	1048576	20	4537
2026-01-07 02:10:04.28	320.12	27.00	-30.4	-32.6	12.5	7.98e-04	0	43	102	1048576	20	4677
2026-01-07 02:10:05.29	319.81	27.02	-30.5	-32.7	12.0	3.46e-03	0	44	102	1048576	21	4607
2026-01-07 02:10:06.30	319.49	27.05	-30.5	-32.6	12.0	3.50e-03	0	44	102	1048576	21	4586
2026-01-07 02:10:07.30	319.18	27.07	-30.6	-32.7	12.0	9.58e-04	0	44	102	1048576	21	4612
2026-01-07 02:10:08.31	318.87	27.09	-30.5	-32.9	12.2	3.51e-03	0	44	102	1048576	20	4773
2026-01-07 02:10:09.31	318.56	27.11	-30.2	-32.3	12.7	1.18e-04	0	44	102	1048576	20	4553
2026-01-07 02:10:10.32	318.25	27.13	-30.2	-32.0	12.7	5.05e-04	0	44	102	1048576	20	4469
2026-01-07 02:10:11.32	317.93	27.15	-29.9	-31.7	13.4	3.09e-03	0	43	102	1048576	19	4456
2026-01-07 02:10:12.33	317.62	27.17	-30.0	-31.5	13.1	2.86e-03	0	44	102	1048576	20	4307
2026-01-07 02:10:13.34	317.30	27.19	-30.4	-32.8	12.2	3.75e-04	0	43	102	1048576	20	4759
2026-01-07 02:10:14.35	316.99	27.21	-30.6	-32.9	11.8	3.56e-03	0	44	102	1048576	21	4689
2026-01-07 02:10:15.35	316.68	27.22	-30.6	-33.0	11.8	3.50e-03	0	43	102	1048576	21	4723
2026-01-07 02:10:16.36	316.36	27.24	-30.3	-32.0	12.4	2.65e-04	0	43	102	1048576	21	4390
2026-01-07 02:10:17.37	316.04	27.25	-30.1	-31.9	12.8	3.02e-03	0	43	102	1048576	20	4426
2026-01-07 02:10:18.38	315.73	27.27	-30.0	-31.5	13.2	2.95e-03	0	43	102	1048576	20	4299
2026-01-07 02:10:19.38	315.41	27.28	-29.9	-31.3	13.3	1.06e-05	0	43	102	1048576	20	4252
2026-01-07 02:10:20.38	315.10	27.29	-30.0	-31.5	13.1	3.33e-03	0	43	102	1048576	20	4287
2026-01-07 02:10:21.39	314.78	27.30	-29.9	-31.7	13.3	2.79e-03	0	43	102	1048576	19	4458
2026-01-07 02:10:22.40	314.46	27.31	-29.8	-31.1	13.4	1.83e-05	0	43	102	1048576	20	4180
2026-01-07 02:10:23.40	314.15	27.32	-30.1	-31.9	12.9	3.66e-05	0	44	102	1048576	20	4438
2026-01-07 02:10:24.40	313.83	27.33	-30.5	-33.1	12.0	2.79e-03	0	44	102	1048576	20	4863
2026-01-07 02:10:25.41	313.51	27.33	-30.8	-33.7	11.3	6.00e-04	0	43	102	1048576	21	5016
2026-01-07 02:10:26.42	313.20	27.34	-31.1	-33.9	10.8	1.99e-03	0	44	102	1048576	22	4987
2026-01-07 02:10:27.42	312.88	27.34	-31.0	-33.7	10.9	4.49e-03	0	44	102	1048576	22	4906
2026-01-07 02:10:28.44	312.56	27.35	-30.8	-32.9	11.6	9.83e-04	0	43	102	1048576	22	4578
2026-01-07 02:10:29.44	312.24	27.35	-30.5	-32.5	12.2	2.64e-03	0	44	102	1048576	21	4541
2026-01-07 02:10:30.45	311.92	27.35	-30.2	-32.1	12.8	1.21e-04	0	43	102	1048576	20	4481
2026-01-07 02:10:31.46	311.61	27.35	-29.9	-31.3	13.2	6.03e-04	0	43	102	1048576	20	4239
2026-01-07 02:10:32.47	311.29	27.35	-30.0	-31.5	13.2	1.62e-04	0	43	102	1048576	20	4286
2026-01-07 02:10:33.47	310.97	27.35	-29.9	-31.4	13.3	3.50e-05	0	43	102	1048576	20	4256
2026-01-07 02:10:34.48	310.65	27.35	-29.8	-31.5	13.5	4.50e-06	0	43	102	1048576	19	4373
2026-01-07 02:10:35.48	310.34	27.35	-30.1	-31.7	13.1	2.28e-05	0	43	102	1048576	20	4342
2026-01-07 02:10:36.49	310.02	27.34	-30.3	-32.4	12.6	1.01e-04	0	44	102	1048576	20	4572
2026-01-07 02:10:37.50	309.70	27.34	-30.6	-32.7	12.1	1.63e-04	0	44	102	1048576	21	4583
2026-01-07 02:10:38.51	309.38	27.33	-30.7	-33.0	11.8	3.08e-03	0	44	102	1048576	21	4720
2026-01-07 02:10:39.51	309.07	27.32	-30.7	-33.1	11.8	2.89e-03	0	44	102	1048576	21	4737
2026-01-07 02:10:40.51	308.75	27.32	-30.9	-33.6	11.5	5.72e-04	0	43	102	1048576	21	4923
2026-01-07 02:10:41.52	308.43	27.31	-30.7	-32.9	11.8	7.93e-04	0	44	102	1048576	21	4679
2026-01-07 02:10:42.53	308.12	27.30	-30.2	-31.6	12.8	2.92e-03	0	43	102	1048576	21	4232
2026-01-07 02:10:43.53	307.80	27.29	-30.0	-31.6	13.1	3.12e-05	0	44	102	1048576	20	4309
2026-01-07 02:10:44.54	307.48	27.27	-29.9	-31.2	13.4	1.22e-05	0	44	102	1048576	20	4195
2026-01-07 02:10:45.55	307.17	27.26	-30.0	-31.4	13.2	1.06e-05	0	44	102	1048576	20	4266
2026-01-07 02:10:46.56	306.85	27.25	-30.1	-31.9	13.0	2.74e-05	0	44	102	1048576	20	4412
2026-01-07 02:10:47.57	306.53	27.23	-30.3	-32.3	12.7	7.85e-05	0	43	102	1048576	20	4549
2026-01-07 02:10:48.58	306.22	27.22	-30.2	-32.2	12.8	5.03e-05	0	43	102	1048576	20	4521
2026-01-07 02:10:49.58	305.90	27.20	-30.3	-32.5	12.5	1.32e-04	0	43	102	1048576	20	4637
2026-01-07 02:10:50.59	305.59	27.18	-30.1	-31.9	12.9	8.92e-05	0	43	102	1048576	20	4426
2026-01-07 02:10:51.59	305.28	27.16	-30.1	-31.9	12.9	3.81e-05	0	43	102	1048576	20	4418
2026-01-07 02:10:52.60	304.96	27.14	-29.9	-31.2	13.4	2.97e-05	0	43	102	1048576	20	4209
2026-01-07 02:10:53.61	304.65	27.12	-29.9	-31.6	13.5	9.10e-06	0	43	102	1048576	19	4414
2026-01-07 02:10:54.62	304.33	27.10	-29.5	-30.7	14.1	7.60e-06	0	43	102	1048576	19	4138
2026-01-07 02:10:55.62	304.02	27.08	-29.3	-30.2	14.4	3.80e-06	0	43	102	1048576	19	3988
2026-01-07 02:10:56.63	303.71	27.06	-28.2	-28.9	15.0	0.00e+00	0	43	102	1048576	18	3929
2026-01-07 02:10:57.64	303.40	27.03	-28.4	-29.0	15.6	0.00e+00	0	43	102	1048576	17	3848
2026-01-07 02:10:58.64	303.09	27.01	-28.4	-29.3	14.4	0.00e+00	0	43	102	1048576	16	4003
2026-01-07 02:10:59.65	302.78	26.98	-28.4	-29.5	13.7	0.00e+00	0	44	102	1048576	16	4064
2026-01-07 02:11:00.66	302.46	26.95	-28.7	-29.7	15.1	0.00e+00	0	43	102	1048576	17	4023
2026-01-07 02:11:01.67	302.15	26.93	-28.9	-30.1	14.4	0.00e+00	0	43	102	1048576	17	4140
2026-01-07 02:11:02.67	301.85	26.90	-28.9	-30.3	14.9	2.19e-03	0	43	102	1048576	17	4192
2026-01-07 02:11:03.67	301.54	26.87	-29.0	-29.8	15.0	0.00e+00	0	43	102	1048576	18	3962
2026-01-07 02:11:04.68	301.23	26.84	-29.1	-30.2	14.7	0.00e+00	0	43	102	1048576	18	4083
2026-01-07 02:11:05.68	300.93	26.81	-29.4	-31.0	14.3	0.00e+00	0	43	102	1048576	18	4313
2026-01-07 02:11:06.69	300.62	26.78	-29.5	-30.8	14.1	2.21e-04	0	43	102	1048576	19	4142
2026-01-07 02:11:07.69	300.31	26.74	-29.8	-31.3	13.7	2.20e-06	0	43	102	1048576	19	4318
2026-01-07 02:11:08.69	300.01	26.71	-29.7	-31.1	13.8	7.60e-06	0	43	102	1048576	19	4240
2026-01-07 02:11:09.70	299.70	26.67	-29.8	-31.5	13.6	1.83e-05	0	43	102	1048576	19	4353
2026-01-07 02:11:10.70	299.40	26.64	-29.7	-31.3	13.8	4.50e-06	0	44	102	1048576	19	4296
2026-01-07 02:11:11.70	299.10	26.60	-29.7	-31.1	13.8	9.10e-06	0	44	102	1048576	19	4248
2026-01-07 02:11:12.71	298.80	26.57	-29.8	-31.5	13.7	6.80e-06	0	43	102	1048576	19	4349
2026-01-07 02:11:13.73	298.49	26.53	-29.8	-31.4	13.7	2.39e-03	0	43	102	1048576	19	4329
2026-01-07 02:11:14.73	298.19	26.49	-29.6	-30.8	14.1	7.60e-06	0	43	102	1048576	19	4163
2026-01-07 02:11:15.74	297.89	26.45	-29.5	-30.7	14.1	3.80e-06	0	43	102	1048576	19	4128
2026-01-07 02:11:16.74	297.59	26.41	-29.6	-30.9	14.0	2.16e-03	0	43	102	1048576	19	4194
2026-01-07 02:11:17.75	297.29	26.37	-29.9	-31.7	13.5	4.50e-06	0	44	102	1048576	19	4415
2026-01-07 02:11:18.76	296.99	26.32	-29.6	-30.9	13.9	1.14e-05	0	43	102	1048576	19	4192
2026-01-07 02:11:19.76	296.70	26.28	-29.5	-30.5	14.2	2.33e-03	0	43	102	1048576	19	4073
2026-01-07 02:11:20.77	296.40	26.24	-29.7	-31.0	13.9	2.15e-03	0	43	102	1048576	19	4221
2026-01-07 02:11:21.78	296.10	26.19	-29.8	-31.4	13.7	6.10e-06	0	43	102	1048576	19	4323
2026-01-07 02:11:22.79	295.80	26.15	-29.9	-31.2	13.4	2.25e-03	0	44	102	1048576	20	4185
2026-01-07 02:11:23.79	295.51	26.10	-30.0	-31.3	13.3	2.19e-03	0	44	102	1048576	20	4222
2026-01-07 02:11:24.79	295.22	26.06	-29.6	-30.4	13.9	7.60e-06	0	44	102	1048576	20	3957
2026-01-07 02:11:25.80	294.93	26.01	-29.4	-30.3	14.5	1.50e-06	0	43	102	1048576	19	3980
2026-01-07 02:11:26.81	294.64	25.96	-29.4	-30.8	14.4	2.38e-03	0	43	102	1048576	18	4245
2026-01-07 02:11:27.81	294.35	25.91	-29.4	-30.3	14.4	2.20e-06	0	44	102	1048576	19	3998
2026-01-07 02:11:28.82	294.06	25.86	-29.5	-30.7	14.2	1.50e-06	0	44	102	1048576	19	4093
2026-01-07 02:11:29.82	293.77	25.81	-29.3	-30.6	14.5	6.77e-04	0	43	102	1048576	18	4180
2026-01-07 02:11:30.83	293.48	25.76	-29.4	-30.7	14.5	3.00e-06	0	44	102	1048576	18	4203
2026-01-07 02:11:31.83	293.19	25.71	-29.5	-31.0	14.3	2.24e-03	0	43	102	1048576	18	4287
2026-01-07 02:11:32.83	292.91	25.66	-29.4	-30.3	14.3	2.13e-03	0	43	102	1048576	19	4005
2026-01-07 02:11:33.85	292.62	25.60	-29.8	-31.4	13.7	2.20e-06	0	44	102	1048576	19	4328
2026-01-07 02:11:34.85	292.34	25.55	-29.8	-31.2	13.8	2.03e-03	0	43	102	1048576	19	4274
2026-01-07 02:11:35.86	292.05	25.49	-29.7	-31.2	13.8	1.49e-03	0	44	102	1048576	19	4252
2026-01-07 02:11:36.87	291.77	25.44	-29.9	-31.6	13.6	1.44e-05	0	43	102	1048576	19	4381
2026-01-07 02:11:37.88	291.49	25.38	-29.9	-31.8	13.5	4.58e-04	0	43	102	1048576	19	4439
2026-01-07 02:11:38.89	291.21	25.33	-30.1	-31.6	13.2	1.72e-03	0	43	102	1048576	20	4304
2026-01-07 02:11:39.90	290.93	25.27	-30.1	-31.7	13.1	2.44e-05	0	43	102	1048576	20	4330
2026-01-07 02:11:40.91	290.65	25.21	-30.0	-31.5	13.2	2.36e-03	0	44	102	1048576	20	4284
2026-01-07 02:11:41.91	290.37	25.15	-29.9	-31.3	13.4	2.15e-03	0	43	102	1048576	20	4203
2026-01-07 02:11:42.92	290.10	25.10	-29.8	-31.0	13.5	6.80e-06	0	43	102	1048576	20	4131
2026-01-07 02:11:43.93	289.82	25.04	-30.0	-31.3	13.4	2.22e-03	0	44	102	1048576	20	4223
2026-01-07 02:11:44.94	289.55	24.98	-30.1	-31.8	13.1	2.47e-03	0	43	102	1048576	20	4359
2026-01-07 02:11:45.95	289.27	24.91	-30.2	-32.1	12.8	4.42e-05	0	44	102	1048576	20	4448
2026-01-07 02:11:46.95	289.00	24.85	-30.3	-32.4	12.6	5.11e-05	0	43	102	1048576	20	4560
2026-01-07 02:11:47.95	288.73	24.79	-30.3	-32.3	12.7	2.52e-03	0	43	102	1048576	20	4535
2026-01-07 02:11:48.96	288.46	24.73	-30.4	-32.5	12.6	6.71e-05	0	44	102	1048576	20	4589
2026-01-07 02:11:49.96	288.19	24.67	-30.1	-31.8	13.0	4.65e-05	0	43	102	1048576	20	4369
2026-01-07 02:11:50.97	287.93	24.60	-29.9	-31.2	13.4	2.48e-03	0	43	102	1048576	20	4175
2026-01-07 02:11:51.98	287.66	24.54	-29.9	-31.2	13.4	4.80e-05	0	44	102	1048576	20	4182
2026-01-07 02:11:52.97	287.40	24.48	-29.8	-31.4	13.7	9.10e-06	0	43	102	1048576	19	4317
2026-01-07 02:11:53.98	287.13	24.41	-29.8	-31.2	13.8	3.00e-06	0	44	102	1048576	19	4271
2026-01-07 02:11:54.99	286.87	24.35	-30.0	-31.4	13.3	8.39e-05	0	44	102	1048576	20	4240
2026-01-07 02:11:56.00	286.60	24.28	-29.9	-31.1	13.5	1.06e-05	0	43	102	1048576	20	4145
2026-01-07 02:11:57.01	286.34	24.21	-29.9	-31.1	13.5	9.10e-06	0	44	102	1048576	20	4130
2026-01-07 02:11:58.02	286.08	24.15	-30.2	-32.0	12.8	2.36e-05	0	43	102	1048576	20	4442
2026-01-07 02:11:59.02	285.82	24.08	-30.2	-32.1	12.8	6.79e-05	0	43	102	1048576	20	4474
2026-01-07 02:12:00.03	285.56	24.01	-30.1	-31.7	13.0	3.50e-05	0	43	102	1048576	20	4339
2026-01-07 02:12:01.03	285.31	23.94	-29.8	-30.8	13.6	1.22e-05	0	43	102	1048576	20	4078
2026-01-07 02:12:02.05	285.05	23.87	-29.8	-31.3	13.7	2.28e-03	0	43	102	1048576	19	4305
2026-01-07 02:12:03.05	284.80	23.81	-29.6	-30.8	14.1	7.00e-07	0	43	102	1048576	19	4145
2026-01-07 02:12:04.06	284.54	23.74	-29.7	-31.1	13.9	1.50e-06	0	43	102	1048576	19	4231
2026-01-07 02:12:05.07	284.29	23.67	-29.9	-31.6	13.5	4.50e-06	0	43	102	1048576	19	4403
2026-01-07 02:12:06.07	284.04	23.60	-30.1	-31.7	13.1	2.59e-05	0	43	102	1048576	20	4350
2026-01-07 02:12:07.07	283.79	23.53	-30.4	-32.5	12.5	8.23e-05	0	44	102	1048576	20	4603
2026-01-07 02:12:08.08	283.54	23.45	-30.4	-32.6	12.5	7.32e-05	0	43	102	1048576	20	4638
2026-01-07 02:12:09.08	283.30	23.38	-30.5	-32.5	12.2	1.89e-04	0	44	102	1048576	21	4502
2026-01-07 02:12:10.09	283.05	23.31	-30.6	-32.6	12.0	2.33e-04	0	43	102	1048576	21	4555
2026-01-07 02:12:11.10	282.80	23.24	-30.3	-31.9	12.5	2.20e-04	0	43	102	1048576	21	4317
2026-01-07 02:12:12.11	282.56	23.17	-30.1	-31.9	12.9	7.85e-05	0	44	102	1048576	20	4407
2026-01-07 02:12:13.11	282.32	23.09	-29.9	-31.3	13.2	3.28e-05	0	43	102	1048576	20	4234
2026-01-07 02:12:14.11	282.08	23.02	-29.7	-30.8	13.6	7.60e-06	0	43	102	1048576	20	4064
2026-01-07 02:12:15.12	281.84	22.95	-29.7	-30.6	13.8	5.30e-06	0	44	102	1048576	20	4020
2026-01-07 02:12:16.12	281.60	22.87	-29.8	-31.0	13.5	6.10e-06	0	43	102	1048576	20	4121
2026-01-07 02:12:17.13	281.36	22.80	-29.8	-30.9	13.6	9.90e-06	0	43	102	1048576	20	4090
2026-01-07 02:12:18.13	281.12	22.72	-30.1	-31.7	13.1	1.14e-05	0	44	102	1048576	20	4331
2026-01-07 02:12:19.14	280.89	22.65	-30.1	-31.9	12.9	3.35e-05	0	43	102	1048576	20	4395
2026-01-07 02:12:20.15	280.65	22.57	-30.5	-32.8	12.3	1.54e-04	0	43	102	1048576	20	4728
2026-01-07 02:12:21.14	280.42	22.50	-30.6	-32.6	12.0	2.07e-04	0	43	102	1048576	21	4563
2026-01-07 02:12:22.15	280.19	22.42	-30.4	-32.3	12.2	2.58e-04	0	43	102	1048576	21	4459
2026-01-07 02:12:23.15	279.96	22.35	-30.3	-31.9	12.5	1.04e-04	0	44	102	1048576	21	4332
2026-01-07 02:12:24.16	279.72	22.27	-30.2	-31.7	12.7	1.12e-04	0	44	102	1048576	21	4269
2026-01-07 02:12:25.17	279.49	22.19	-30.1	-31.8	12.9	6.10e-05	0	43	102	1048576	20	4378
2026-01-07 02:12:26.17	279.27	22.12	-30.0	-31.5	13.1	2.12e-03	0	43	102	1048576	20	4286
2026-01-07 02:12:27.17	279.04	22.04	-29.6	-30.3	13.9	9.10e-06	0	43	102	1048576	20	3934
2026-01-07 02:12:28.18	278.81	21.96	-29.3	-30.2	14.4	0.00e+00	0	43	102	1048576	19	3973
2026-01-07 02:12:29.18	278.59	21.89	-29.0	-29.8	14.8	2.26e-03	0	43	102	1048576	18	3972
2026-01-07 02:12:30.18	278.37	21.81	-29.1	-30.2	14.7	1.50e-06	0	44	102	1048576	18	4059
2026-01-07 02:12:31.19	278.15	21.73	-29.3	-30.7	14.3	0.00e+00	0	43	102	1048576	18	4223
2026-01-07 02:12:32.20	277.92	21.65	-29.5	-30.8	13.9	7.00e-07	0	44	102	1048576	19	4148
2026-01-07 02:12:33.20	277.70	21.58	-29.7	-31.1	13.7	1.56e-04	0	43	102	1048576	19	4245
2026-01-07 02:12:34.21	277.48	21.50	-29.9	-31.6	13.4	1.75e-05	0	44	102	1048576	19	4411
2026-01-07 02:12:35.22	277.27	21.42	-29.3	-30.7	14.3	3.00e-06	0	44	102	1048576	18	4213
2026-01-07 02:12:36.23	277.05	21.34	-29.2	-30.3	14.5	1.78e-04	0	44	102	1048576	18	4108
2026-01-07 02:12:37.23	276.83	21.26	-29.3	-30.5	14.4	2.38e-03	0	43	102	1048576	18	4172
2026-01-07 02:12:38.23	276.62	21.18	-29.4	-31.0	14.1	1.50e-06	0	43	102	1048576	18	4300
2026-01-07 02:12:39.24	276.41	21.10	-29.4	-30.9	14.2	1.20e-04	0	44	102	1048576	18	4276
2026-01-07 02:12:40.25	276.19	21.02	-29.3	-30.6	14.3	2.44e-03	0	44	102	1048576	18	4202
2026-01-07 02:12:41.25	275.98	20.94	-29.3	-30.8	14.2	1.50e-06	0	43	102	1048576	18	4242
2026-01-07 02:12:42.25	275.77	20.86	-29.3	-30.6	14.4	2.20e-06	0	43	102	1048576	18	4181
2026-01-07 02:12:43.26	275.56	20.78	-29.4	-30.5	14.0	2.30e-03	0	44	102	1048576	19	4089
2026-01-07 02:12:44.27	275.35	20.70	-29.5	-30.7	13.9	2.15e-03	0	43	102	1048576	19	4123
2026-01-07 02:12:45.28	275.15	20.62	-29.7	-31.1	13.7	7.00e-07	0	43	102	1048576	19	4258
2026-01-07 02:12:46.29	274.94	20.54	-29.5	-30.6	14.0	2.34e-03	0	44	102	1048576	19	4110
2026-01-07 02:12:47.30	274.73	20.46	-29.7	-31.3	13.6	2.62e-03	0	44	102	1048576	19	4307
2026-01-07 02:12:48.30	274.53	20.38	-29.5	-30.8	13.8	1.50e-06	0	43	102	1048576	19	4176
2026-01-07 02:12:49.30	274.33	20.30	-29.7	-31.2	13.6	2.81e-03	0	44	102	1048576	19	4279
2026-01-07 02:12:50.31	274.13	20.21	-29.8	-31.6	13.4	2.64e-03	0	44	102	1048576	19	4412
2026-01-07 02:12:51.32	273.93	20.13	-30.0	-31.7	12.9	2.23e-04	0	43	102	1048576	20	4360
2026-01-07 02:12:52.33	273.73	20.05	-29.9	-31.3	13.1	2.45e-03	0	44	102	1048576	20	4230
2026-01-07 02:12:53.33	273.53	19.97	-29.7	-31.2	13.6	2.16e-03	0	43	102	1048576	19	4289
2026-01-07 02:12:54.34	273.33	19.89	-29.5	-30.8	13.9	7.60e-06	0	43	102	1048576	19	4162
2026-01-07 02:12:55.35	273.13	19.81	-29.5	-30.7	13.9	1.40e-03	0	43	102	1048576	19	4132
2026-01-07 02:12:56.35	272.94	19.73	-29.5	-30.8	13.9	4.32e-04	0	44	102	1048576	19	4161
2026-01-07 02:12:57.36	272.75	19.64	-29.7	-31.3	13.5	6.10e-06	0	44	102	1048576	19	4302
2026-01-07 02:12:58.36	272.55	19.56	-29.7	-31.4	13.5	6.94e-04	0	44	102	1048576	19	4336
2026-01-07 02:12:59.37	272.36	19.48	-29.8	-31.6	13.3	1.40e-03	0	43	102	1048576	19	4400
2026-01-07 02:13:00.38	272.17	19.40	-29.8	-31.6	13.3	2.36e-05	0	44	102	1048576	19	4401
2026-01-07 02:13:01.38	271.98	19.32	-29.5	-30.8	13.8	2.20e-03	0	44	102	1048576	19	4159
2026-01-07 02:13:02.39	271.79	19.23	-29.1	-30.3	14.5	3.00e-06	0	43	102	1048576	18	4100
2026-01-07 02:13:03.40	271.60	19.15	-28.9	-29.6	14.9	0.00e+00	0	43	102	1048576	18	3927
2026-01-07 02:13:04.40	271.42	19.07	-28.8	-30.0	15.0	2.03e-03	0	43	102	1048576	17	4106
2026-01-07 02:13:05.41	271.23	18.99	-28.8	-29.8	15.0	2.20e-03	0	43	102	1048576	17	4081
2026-01-07 02:13:06.41	271.05	18.90	-28.7	-29.7	15.1	0.00e+00	0	44	102	1048576	17	4032
2026-01-07 02:13:07.42	270.86	18.82	-28.8	-30.0	14.9	1.25e-03	0	44	102	1048576	17	4134
2026-01-07 02:13:08.43	270.68	18.74	-29.0	-29.8	14.7	1.60e-05	0	43	102	1048576	18	3975
2026-01-07 02:13:09.43	270.50	18.66	-28.7	-29.2	15.1	0.00e+00	0	43	102	1048576	18	3811
2026-01-07 02:13:10.44	270.31	18.57	-28.8	-29.9	15.0	1.32e-03	0	43	102	1048576	17	4089
2026-01-07 02:13:11.44	270.14	18.49	-28.9	-30.2	14.8	1.99e-03	0	44	102	1048576	17	4190
2026-01-07 02:13:12.44	269.96	18.41	-29.1	-30.1	14.5	0.00e+00	0	43	102	1048576	18	4065
2026-01-07 02:13:13.45	269.78	18.33	-29.2	-30.5	14.3	2.20e-06	0	43	102	1048576	18	4168
2026-01-07 02:13:14.46	269.60	18.24	-29.3	-30.7	14.2	2.48e-03	0	44	102	1048576	18	4228
2026-01-07 02:13:15.46	269.43	18.16	-29.3	-30.7	14.2	8.30e-06	0	43	102	1048576	18	4226
2026-01-07 02:13:16.47	269.25	18.08	-29.2	-30.5	14.2	2.20e-06	0	43	102	1048576	18	4186
2026-01-07 02:13:17.48	269.08	18.00	-29.1	-30.2	14.5	7.00e-07	0	43	102	1048576	18	4084
2026-01-07 02:13:18.49	268.90	17.91	-29.1	-30.2	14.4	2.20e-06	0	44	102	1048576	18	4090
2026-01-07 02:13:19.49	268.73	17.83	-29.2	-30.4	14.3	0.00e+00	0	44	102	1048576	18	4137
2026-01-07 02:13:20.50	268.56	17.75	-29.3	-30.8	14.1	3.80e-06	0	44	102	1048576	18	4270
2026-01-07 02:13:21.50	268.39	17.67	-29.2	-30.5	14.3	7.00e-07	0	43	102	1048576	18	4164
2026-01-07 02:13:22.51	268.22	17.59	-29.1	-30.1	14.5	7.00e-07	0	44	102	1048576	18	4054
2026-01-07 02:13:23.52	268.05	17.50	-29.1	-30.3	14.4	1.50e-06	0	44	102	1048576	18	4106
2026-01-07 02:13:24.53	267.88	17.42	-29.3	-30.6	14.2	3.80e-06	0	44	102	1048576	18	4206
2026-01-07 02:13:25.53	267.72	17.34	-29.3	-30.7	14.1	0.00e+00	0	44	102	1048576	18	4240
2026-01-07 02:13:26.53	267.55	17.26	-29.4	-30.9	14.0	8.30e-06	0	44	102	1048576	18	4298
2026-01-07 02:13:27.54	267.39	17.17	-29.4	-31.0	13.9	5.30e-06	0	43	102	1048576	18	4333
2026-01-07 02:13:28.55	267.22	17.09	-29.3	-30.9	14.0	2.53e-03	0	44	102	1048576	18	4289
2026-01-07 02:13:29.56	267.06	17.01	-29.2	-30.5	14.2	6.80e-06	0	43	102	1048576	18	4168
2026-01-07 02:13:30.56	266.90	16.93	-29.2	-30.6	14.2	7.00e-07	0	43	102	1048576	18	4206
2026-01-07 02:13:31.57	266.74	16.84	-28.9	-29.8	14.7	2.20e-06	0	43	102	1048576	18	3970
2026-01-07 02:13:32.57	266.58	16.76	-28.7	-29.6	15.0	5.30e-06	0	44	102	1048576	17	4028
2026-01-07 02:13:33.58	266.42	16.68	-28.6	-29.4	15.2	0.00e+00	0	44	102	1048576	17	3958
2026-01-07 02:13:34.59	266.26	16.60	-28.8	-29.9	14.9	0.00e+00	0	44	102	1048576	17	4095
2026-01-07 02:13:35.59	266.10	16.52	-28.7	-29.7	14.9	0.00e+00	0	44	102	1048576	17	4058
2026-01-07 02:13:36.60	265.95	16.43	-28.7	-29.7	15.0	7.00e-07	0	43	102	1048576	17	4036
2026-01-07 02:13:37.60	265.79	16.35	-28.9	-30.2	14.6	0.00e+00	0	44	102	1048576	17	4207
2026-01-07 02:13:38.61	265.63	16.27	-29.2	-30.4	14.2	9.10e-06	0	44	102	1048576	18	4165
2026-01-07 02:13:39.61	265.48	16.19	-29.5	-31.2	13.8	7.00e-07	0	43	102	1048576	18	4381
2026-01-07 02:13:40.61	265.33	16.11	-29.6	-31.1	13.5	5.30e-06	0	44	102	1048576	19	4279
2026-01-07 02:13:41.61	265.18	16.03	-29.8	-31.5	13.2	1.75e-05	0	44	102	1048576	19	4397
2026-01-07 02:13:42.62	265.03	15.94	-29.6	-31.2	13.4	1.67e-05	0	43	102	1048576	19	4296
2026-01-07 02:13:43.63	264.87	15.86	-29.5	-30.8	13.5	1.06e-05	0	43	102	1048576	19	4190
2026-01-07 02:13:44.63	264.72	15.78	-29.4	-30.5	13.9	1.22e-05	0	43	102	1048576	19	4085
2026-01-07 02:13:45.64	264.58	15.70	-29.4	-30.9	13.9	2.65e-03	0	43	102	1048576	18	4308
2026-01-07 02:13:46.65	264.43	15.62	-29.3	-30.7	14.1	4.50e-06	0	43	102	1048576	18	4241
2026-01-07 02:13:47.66	264.28	15.54	-29.1	-30.3	14.3	6.10e-06	0	43	102	1048576	18	4116
2026-01-07 02:13:48.66	264.13	15.46	-29.0	-30.5	14.4	1.50e-06	0	44	102	1048576	17	4283
2026-01-07 02:13:49.67	263.99	15.38	-29.0	-30.4	14.5	7.00e-07	0	44	102	1048576	17	4248
2026-01-07 02:13:50.68	263.84	15.29	-29.0	-30.1	14.4	7.00e-07	0	44	102	1048576	18	4075
2026-01-07 02:13:51.69	263.70	15.21	-29.0	-30.1	14.4	7.00e-07	0	44	102	1048576	18	4074
2026-01-07 02:13:52.69	263.55	15.13	-29.0	-30.1	14.4	2.66e-03	0	44	102	1048576	18	4067
2026-01-07 02:13:53.70	263.41	15.05	-29.2	-30.5	14.1	2.20e-06	0	43	102	1048576	18	4193
2026-01-07 02:13:54.71	263.27	14.97	-29.2	-30.5	14.2	1.50e-06	0	43	102	1048576	18	4179
2026-01-07 02:13:55.71	263.13	14.89	-29.3	-30.8	13.9	2.54e-03	0	44	102	1048576	18	4279
2026-01-07 02:13:56.71	262.99	14.81	-29.5	-30.8	13.6	3.00e-06	0	44	102	1048576	19	4198
2026-01-07 02:13:57.72	262.85	14.73	-29.8	-31.6	13.1	1.67e-05	0	44	102	1048576	19	4431
2026-01-07 02:13:58.73	262.71	14.65	-29.8	-31.7	13.1	2.54e-03	0	44	102	1048576	19	4475
2026-01-07 02:13:59.74	262.57	14.57	-29.9	-31.4	12.8	1.43e-04	0	44	102	1048576	20	4292
2026-01-07 02:14:00.74	262.43	14.49	-29.9	-31.9	12.9	6.33e-05	0	44	102	1048576	19	4536
2026-01-07 02:14:01.75	262.30	14.41	-29.9	-32.0	12.9	5.49e-05	0	44	102	1048576	19	4572
2026-01-07 02:14:02.76	262.16	14.33	-29.7	-31.4	13.2	3.13e-04	0	44	102	1048576	19	4370
2026-01-07 02:14:03.77	262.02	14.25	-29.7	-31.2	13.4	2.54e-03	0	44	102	1048576	19	4312
2026-01-07 02:14:04.78	261.89	14.17	-29.6	-31.1	13.5	1.67e-05	0	44	102	1048576	19	4281
2026-01-07 02:14:05.79	261.75	14.09	-29.3	-30.9	13.8	4.66e-04	0	43	102	1048576	18	4314
2026-01-07 02:14:06.79	261.62	14.01	-29.3	-30.7	13.9	2.66e-03	0	44	102	1048576	18	4259
2026-01-07 02:14:07.80	261.49	13.93	-29.0	-30.1	14.3	2.76e-03	0	44	102	1048576	18	4062
2026-01-07 02:14:08.80	261.36	13.85	-29.2	-30.6	14.0	5.74e-04	0	43	102	1048576	18	4207
2026-01-07 02:14:09.81	261.23	13.77	-29.3	-30.9	13.9	3.02e-03	0	44	102	1048576	18	4309
2026-01-07 02:14:10.81	261.10	13.69	-29.3	-30.8	13.9	3.11e-03	0	43	102	1048576	18	4271
2026-01-07 02:14:11.82	260.97	13.61	-29.4	-31.0	13.8	5.09e-04	0	44	102	1048576	18	4340
2026-01-07 02:14:12.82	260.84	13.54	-29.5	-30.8	13.6	3.01e-03	0	44	102	1048576	19	4190
2026-01-07 02:14:13.83	260.71	13.46	-29.6	-31.1	13.3	3.67e-03	0	44	102	1048576	19	4285
2026-01-07 02:14:14.84	260.58	13.38	-29.4	-31.2	13.6	6.77e-04	0	44	102	1048576	18	4407
2026-01-07 02:14:15.84	260.46	13.30	-29.6	-31.0	13.4	2.79e-03	0	43	102	1048576	19	4255
2026-01-07 02:14:16.84	260.33	13.22	-29.7	-31.3	13.2	4.06e-03	0	44	102	1048576	19	4343
2026-01-07 02:14:17.85	260.21	13.14	-29.5	-30.8	13.5	1.80e-03	0	44	102	1048576	19	4197
2026-01-07 02:14:18.86	260.08	13.07	-29.4	-31.0	13.7	7.86e-04	0	43	102	1048576	18	4348
2026-01-07 02:14:19.87	259.96	12.99	-29.5	-31.3	13.5	4.48e-03	0	44	102	1048576	18	4446
2026-01-07 02:14:20.88	259.83	12.91	-29.5	-30.9	13.4	2.15e-03	0	44	102	1048576	19	4218
2026-01-07 02:14:21.88	259.71	12.83	-29.6	-31.0	13.3	1.06e-05	0	43	102	1048576	19	4274
2026-01-07 02:14:22.89	259.59	12.75	-29.7	-31.3	13.1	4.49e-03	0	44	102	1048576	19	4371
2026-01-07 02:14:23.89	259.47	12.68	-29.8	-31.7	12.9	2.38e-03	0	43	102	1048576	19	4481
2026-01-07 02:14:24.90	259.35	12.60	-29.8	-31.8	12.8	4.69e-03	0	44	102	1048576	19	4504
2026-01-07 02:14:25.90	259.23	12.52	-29.9	-31.9	12.8	6.56e-05	0	44	102	1048576	19	4558
2026-01-07 02:14:26.91	259.11	12.45	-29.8	-31.8	12.8	2.15e-03	0	44	102	1048576	19	4519
2026-01-07 02:14:27.92	258.99	12.37	-29.8	-31.7	12.8	4.34e-03	0	43	102	1048576	19	4504
2026-01-07 02:14:28.92	258.87	12.29	-29.9	-32.0	12.6	9.84e-05	0	43	102	1048576	19	4576
2026-01-07 02:14:29.93	258.76	12.21	-30.0	-32.2	12.5	8.75e-04	0	44	102	1048576	19	4669
2026-01-07 02:14:30.94	258.64	12.14	-30.0	-31.8	12.3	3.08e-03	0	43	102	1048576	20	4451
2026-01-07 02:14:31.95	258.52	12.06	-30.2	-32.6	11.8	4.23e-04	0	44	102	1048576	20	4711
2026-01-07 02:14:32.95	258.41	11.98	-30.2	-32.4	11.9	4.23e-04	0	43	102	1048576	20	4637
2026-01-07 02:14:33.95	258.29	11.91	-30.3	-32.8	11.7	3.10e-03	0	43	102	1048576	20	4792
2026-01-07 02:14:34.96	258.18	11.83	-30.3	-32.9	11.6	3.51e-03	0	44	102	1048576	20	4835
2026-01-07 02:14:35.97	258.06	11.76	-30.5	-33.4	11.2	1.11e-03	0	44	102	1048576	20	5020
2026-01-07 02:14:36.98	257.95	11.68	-30.4	-33.0	11.4	9.83e-04	0	43	102	1048576	20	4866
2026-01-07 02:14:37.99	257.84	11.60	-30.2	-32.5	11.8	1.00e-03	0	43	102	1048576	20	4686
2026-01-07 02:14:38.99	257.73	11.53	-30.1	-32.3	12.0	3.85e-04	0	43	102	1048576	20	4620
2026-01-07 02:14:40.00	257.61	11.45	-30.0	-31.9	12.2	2.37e-04	0	44	102	1048576	20	4464
2026-01-07 02:14:41.00	257.50	11.38	-30.0	-31.9	12.3	3.43e-04	0	43	102	1048576	20	4474
2026-01-07 02:14:42.01	257.39	11.30	-29.9	-31.5	12.5	1.52e-04	0	44	102	1048576	20	4348
2026-01-07 02:14:43.01	257.28	11.23	-29.7	-31.6	12.8	6.86e-05	0	43	102	1048576	19	4463
2026-01-07 02:14:44.02	257.17	11.15	-29.8	-31.6	12.8	5.11e-05	0	44	102	1048576	19	4476
2026-01-07 02:14:45.03	257.07	11.08	-29.8	-31.7	12.8	6.02e-05	0	44	102	1048576	19	4497
2026-01-07 02:14:46.03	256.96	11.00	-29.8	-31.7	12.8	7.93e-05	0	43	102	1048576	19	4483
2026-01-07 02:14:47.04	256.85	10.93	-29.9	-32.1	12.5	7.70e-05	0	43	102	1048576	19	4644
2026-01-07 02:14:48.05	256.74	10.85	-29.9	-32.1	12.5	9.91e-05	0	44	102	1048576	19	4651
2026-01-07 02:14:49.05	256.64	10.78	-30.0	-31.9	12.2	2.10e-04	0	44	102	1048576	20	4474
2026-01-07 02:14:50.05	256.53	10.70	-30.1	-32.3	11.9	3.05e-04	0	44	102	1048576	20	4646
2026-01-07 02:14:51.06	256.43	10.63	-30.2	-32.6	11.6	4.81e-04	0	44	102	1048576	20	4752
2026-01-07 02:14:52.07	256.32	10.56	-30.3	-33.0	11.4	7.31e-04	0	43	102	1048576	20	4893
2026-01-07 02:14:53.07	256.22	10.48	-30.5	-33.4	11.1	1.04e-03	0	44	102	1048576	20	5049
2026-01-07 02:14:54.08	256.12	10.41	-30.3	-32.5	11.4	1.53e-03	0	44	102	1048576	21	4615
2026-01-07 02:14:55.09	256.01	10.33	-30.3	-33.0	11.3	1.20e-03	0	43	102	1048576	20	4876
2026-01-07 02:14:56.09	255.91	10.26	-30.3	-33.0	11.3	1.11e-03	0	44	102	1048576	20	4886
2026-01-07 02:14:57.09	255.81	10.19	-30.3	-33.0	11.3	9.76e-04	0	43	102	1048576	20	4894
2026-01-07 02:14:58.10	255.71	10.11	-30.4	-33.1	11.1	1.17e-03	0	44	102	1048576	20	4957
2026-01-07 02:14:59.09	255.61	10.04	-30.1	-32.3	11.8	5.99e-04	0	44	102	1048576	20	4635
2026-01-07 02:15:00.10	255.51	9.97	-29.9	-31.7	12.2	3.01e-04	0	43	102	1048576	20	4428
2026-01-07 02:15:01.11	255.41	9.90	-29.8	-31.9	12.4	1.77e-04	0	44	102	1048576	19	4591
2026-01-07 02:15:02.12	255.31	9.82	-29.8	-31.8	12.5	1.27e-04	0	44	102	1048576	19	4564
2026-01-07 02:15:03.13	255.21	9.75	-29.7	-32.3	11.3	1.07e-04	0	44	102	1048576	18	4814
2026-01-07 02:15:04.13	255.11	9.68	-29.7	-31.7	11.2	1.24e-04	0	44	102	1048576	19	4516
2026-01-07 02:15:05.14	255.01	9.61	-29.9	-32.1	12.0	1.11e-03	0	44	102	1048576	19	4652
2026-01-07 02:15:06.14	254.91	9.53	-29.8	-32.0	11.5	1.71e-04	0	44	102	1048576	19	4610
2026-01-07 02:15:07.15	254.82	9.46	-30.0	-31.9	11.9	1.81e-04	0	43	102	1048576	20	4521
2026-01-07 02:15:08.15	254.72	9.39	-29.9	-31.7	12.1	2.78e-04	0	43	102	1048576	20	4450
2026-01-07 02:15:09.16	254.63	9.32	-30.1	-32.4	11.7	4.55e-04	0	44	102	1048576	20	4677
2026-01-07 02:15:10.16	254.53	9.25	-30.2	-32.6	11.5	7.35e-04	0	44	102	1048576	20	4741
2026-01-07 02:15:11.17	254.44	9.18	-30.3	-32.9	11.2	8.35e-04	0	43	102	1048576	20	4881
2026-01-07 02:15:12.18	254.34	9.10	-30.3	-33.0	11.2	2.17e-03	0	43	102	1048576	20	4915
2026-01-07 02:15:13.19	254.25	9.03	-30.3	-33.1	11.1	1.68e-03	0	44	102	1048576	20	4963
2026-01-07 02:15:14.19	254.15	8.96	-30.3	-33.0	11.2	2.19e-03	0	44	102	1048576	20	4909
2026-01-07 02:15:15.20	254.06	8.89	-30.5	-33.6	10.7	5.09e-03	0	44	102	1048576	20	5139
2026-01-07 02:15:16.20	253.97	8.82	-30.5	-33.5	10.8	4.77e-03	0	43	102	1048576	20	5124
2026-01-07 02:15:17.21	253.88	8.75	-30.6	-33.4	10.5	4.15e-03	0	44	102	1048576	21	4999
2026-01-07 02:15:18.22	253.78	8.68	-30.8	-34.1	9.9	5.25e-03	0	44	102	1048576	21	5305
2026-01-07 02:15:19.22	253.69	8.61	-30.8	-34.0	10.0	1.01e-02	0	44	102	1048576	21	5243
2026-01-07 02:15:20.22	253.60	8.54	-30.8	-34.1	10.0	9.45e-03	0	44	102	1048576	21	5272
2026-01-07 02:15:21.22	253.51	8.47	-30.9	-34.6	9.5	1.17e-02	0	44	102	1048576	21	5519
2026-01-07 02:15:22.23	253.42	8.40	-30.9	-34.8	9.4	1.57e-02	0	44	102	1048576	21	5578
2026-01-07 02:15:23.24	253.33	8.33	-31.0	-34.4	9.3	1.72e-02	0	44	102	1048576	22	5328
2026-01-07 02:15:24.24	253.24	8.26	-30.9	-34.6	9.5	1.46e-02	0	44	102	1048576	21	5519
2026-01-07 02:15:25.25	253.15	8.19	-30.8	-34.4	9.7	1.65e-02	0	44	102	1048576	21	5417
2026-01-07 02:15:26.26	253.07	8.12	-30.9	-34.7	9.4	1.64e-02	0	44	102	1048576	21	5582
2026-01-07 02:15:27.26	252.98	8.05	-31.0	-34.4	9.2	2.33e-02	0	44	102	1048576	22	5357
2026-01-07 02:15:28.27	252.89	7.98	-31.0	-35.0	9.2	1.81e-02	0	44	102	1048576	21	5700
2026-01-07 02:15:29.28	252.80	7.91	-31.0	-34.5	9.2	2.67e-02	0	44	102	1048576	22	5398
2026-01-07 02:15:30.28	252.72	7.84	-30.9	-34.6	9.4	2.70e-02	0	44	102	1048576	21	5533
2026-01-07 02:15:31.29	252.63	7.77	-30.8	-34.5	9.5	1.59e-02	0	44	102	1048576	21	5470
2026-01-07 02:15:32.29	252.55	7.70	-30.9	-34.9	9.2	2.29e-02	0	44	102	1048576	21	5653
2026-01-07 02:15:33.29	252.46	7.63	-30.8	-34.5	9.4	2.40e-02	0	44	102	1048576	21	5500
2026-01-07 02:15:34.30	252.38	7.57	-30.9	-34.6	9.4	2.08e-02	0	44	102	1048576	21	5556
2026-01-07 02:15:35.30	252.29	7.50	-31.0	-35.0	9.1	2.42e-02	0	43	102	1048576	21	5748
2026-01-07 02:15:36.30	252.21	7.43	-31.1	-35.0	8.7	3.75e-02	0	44	102	1048576	22	5658
2026-01-07 02:15:37.31	252.13	7.36	-31.1	-35.1	8.6	4.59e-02	0	44	102	1048576	22	5711
2026-01-07 02:15:38.32	252.04	7.29	-31.1	-35.1	8.6	3.50e-02	0	44	102	1048576	22	5695
2026-01-07 02:15:39.33	251.96	7.22	-31.0	-34.8	8.8	3.31e-02	0	44	102	1048576	22	5572
2026-01-07 02:15:40.33	251.88	7.16	-31.0	-34.8	8.9	3.46e-02	0	44	102	1048576	22	5552
2026-01-07 02:15:41.34	251.80	7.09	-32.0	-38.8	6.2	2.83e-02	0	44	102	1048576	23	7932
2026-01-07 02:15:42.35	251.71	7.02	-32.9	-45.4	3.8	1.49e+00	0	44	104	1048576	25	15332
2026-01-07 02:15:43.36	251.63	6.95	-33.2	-45.6	3.8	1.49e+00	0	44	104	1048576	26	15012

#Closed at: 2026-01-07 02:15:43
#Recorded file [1 MB]: D:/data/31010_260107_050523.dat