passes_logs/2026/01/07/R2M6_AANII_01/R2M6_AANII_01__20260107_004532_NOAA_20_JPSS-1_rec.log

#Pass ID: 20260107_004532_NOAA 20 (JPSS-1)
#Satellite: NOAA 20 (JPSS-1)
#Configuration: NOAA 20
#almurnet v.1.7.20240730
#Start time: 2026-01-07 00:45:32

#Version: 2.2.20231116
#Station: R2M6_AANII_01
#Location: 30.233357 lon 59.946436 lat
#TLE: 1 43013U 17073A   26006.30790171  .00000126  00000+0  80695-4 0  9991
#TLE: 2 43013  98.7629 307.3394 0001808  51.8724 308.2615 14.19533762421505

#Time	Az	El	Level	Level2	SNR	BER	BlckErr	Temp	State	Recorded	gain1	gain2
2026-01-07 00:45:32.67	16.09	7.02	-31.8	-39.0	4.8	1.32e+00	0	42	0	0	23	8280
2026-01-07 00:45:33.67	16.07	7.09	-32.0	-40.3	4.5	1.39e+00	0	42	104	0	23	9357
2026-01-07 00:45:34.67	16.05	7.17	-31.9	-39.8	6.3	3.58e-01	0	42	0	0	23	8851
2026-01-07 00:45:35.67	16.03	7.25	-32.0	-39.7	6.3	2.56e-01	0	42	102	1048576	23	8836
2026-01-07 00:45:36.68	16.02	7.33	-32.1	-40.0	5.9	3.28e-01	0	42	102	1048576	24	8993
2026-01-07 00:45:37.68	16.00	7.40	-32.1	-40.0	5.9	4.14e-01	0	42	102	1048576	24	8937
2026-01-07 00:45:38.68	15.98	7.48	-31.9	-39.5	6.6	2.95e-01	0	42	102	1048576	23	8558
2026-01-07 00:45:39.69	15.96	7.56	-31.7	-38.4	7.4	1.50e-01	0	42	102	1048576	23	7765
2026-01-07 00:45:40.70	15.94	7.64	-31.7	-38.3	7.5	1.13e-01	0	42	102	1048576	23	7660
2026-01-07 00:45:41.71	15.92	7.72	-31.7	-38.3	7.6	9.38e-02	0	42	102	1048576	23	7661
2026-01-07 00:45:42.72	15.90	7.80	-31.9	-39.0	7.0	1.25e-01	0	42	102	1048576	23	8210
2026-01-07 00:45:43.72	15.88	7.88	-31.9	-39.1	7.0	1.90e-01	0	42	102	1048576	23	8221
2026-01-07 00:45:44.73	15.86	7.96	-31.8	-38.4	7.5	1.61e-01	0	42	102	1048576	23	7700
2026-01-07 00:45:45.74	15.84	8.04	-31.6	-37.5	8.2	7.03e-02	0	42	102	1048576	23	7135
2026-01-07 00:45:46.75	15.82	8.12	-31.4	-36.9	8.6	4.96e-02	0	42	102	1048576	23	6774
2026-01-07 00:45:47.76	15.80	8.20	-31.3	-36.8	9.2	3.04e-02	0	43	102	1048576	22	6768
2026-01-07 00:45:48.77	15.78	8.28	-31.1	-36.0	9.8	1.63e-02	0	42	102	1048576	22	6329
2026-01-07 00:45:49.77	15.76	8.36	-31.0	-35.7	10.0	1.06e-02	0	42	102	1048576	22	6190
2026-01-07 00:45:50.78	15.73	8.44	-30.9	-35.8	10.3	8.57e-03	0	43	102	1048576	21	6336
2026-01-07 00:45:51.78	15.71	8.52	-30.9	-35.7	10.4	4.72e-03	0	42	102	1048576	21	6257
2026-01-07 00:45:52.79	15.69	8.60	-31.1	-36.1	9.7	1.17e-02	0	42	102	1048576	22	6408
2026-01-07 00:45:53.80	15.67	8.68	-31.0	-35.6	10.1	1.42e-02	0	42	102	1048576	22	6135
2026-01-07 00:45:54.80	15.65	8.76	-30.8	-35.4	10.7	5.29e-03	0	43	102	1048576	21	6114
2026-01-07 00:45:55.81	15.63	8.85	-30.7	-35.0	11.0	5.01e-03	0	43	102	1048576	21	5899
2026-01-07 00:45:56.82	15.61	8.93	-30.5	-34.5	11.3	4.54e-03	0	43	102	1048576	21	5703
2026-01-07 00:45:57.82	15.58	9.01	-30.5	-34.4	11.5	1.29e-03	0	42	102	1048576	21	5656
2026-01-07 00:45:58.82	15.56	9.10	-30.5	-34.5	11.4	1.05e-03	0	43	102	1048576	21	5669
2026-01-07 00:45:59.83	15.54	9.18	-30.5	-34.5	11.4	4.47e-03	0	43	102	1048576	21	5661
2026-01-07 00:46:00.81	15.52	9.26	-30.5	-34.5	11.4	1.90e-03	0	42	102	1048576	21	5688
2026-01-07 00:46:01.82	15.50	9.34	-30.6	-34.8	11.2	3.89e-03	0	43	102	1048576	21	5803
2026-01-07 00:46:02.83	15.47	9.43	-30.6	-34.6	11.3	4.71e-03	0	43	102	1048576	21	5741
2026-01-07 00:46:03.83	15.45	9.51	-30.5	-34.7	11.7	1.85e-03	0	43	102	1048576	20	5886
2026-01-07 00:46:04.84	15.43	9.60	-30.5	-34.7	11.7	3.19e-03	0	43	102	1048576	20	5854
2026-01-07 00:46:05.85	15.40	9.68	-30.7	-34.9	11.2	1.82e-03	0	43	102	1048576	21	5871
2026-01-07 00:46:06.86	15.38	9.77	-30.6	-34.6	11.4	2.22e-03	0	43	102	1048576	21	5731
2026-01-07 00:46:07.86	15.36	9.85	-30.5	-34.4	11.6	3.42e-03	0	43	102	1048576	21	5608
2026-01-07 00:46:08.87	15.33	9.94	-30.5	-34.4	11.5	3.58e-03	0	43	102	1048576	21	5641
2026-01-07 00:46:09.87	15.31	10.03	-30.6	-34.7	11.3	2.20e-03	0	43	102	1048576	21	5787
2026-01-07 00:46:10.88	15.29	10.11	-30.6	-34.5	11.5	4.10e-03	0	43	102	1048576	21	5668
2026-01-07 00:46:11.89	15.26	10.20	-30.4	-34.7	11.7	3.51e-03	0	43	102	1048576	20	5852
2026-01-07 00:46:12.90	15.24	10.29	-30.5	-34.3	11.7	1.34e-03	0	43	102	1048576	21	5574
2026-01-07 00:46:13.91	15.21	10.38	-30.5	-34.7	11.7	3.30e-03	0	43	102	1048576	20	5876
2026-01-07 00:46:14.91	15.19	10.46	-30.4	-34.6	11.8	3.75e-03	0	43	102	1048576	20	5810
2026-01-07 00:46:15.92	15.16	10.55	-30.5	-34.5	11.5	1.34e-03	0	43	102	1048576	21	5643
2026-01-07 00:46:16.93	15.14	10.64	-30.7	-35.1	11.1	1.22e-03	0	43	102	1048576	21	5937
2026-01-07 00:46:17.94	15.11	10.73	-30.6	-34.5	11.5	4.91e-03	0	43	102	1048576	21	5676
2026-01-07 00:46:18.94	15.09	10.82	-30.5	-34.4	11.7	6.09e-04	0	43	102	1048576	21	5592
2026-01-07 00:46:19.95	15.06	10.91	-30.3	-34.2	12.1	3.36e-04	0	43	102	1048576	20	5625
2026-01-07 00:46:20.96	15.04	11.00	-30.2	-33.8	12.4	3.48e-03	0	43	102	1048576	20	5460
2026-01-07 00:46:21.97	15.01	11.09	-30.1	-33.6	12.6	1.02e-04	0	43	102	1048576	20	5365
2026-01-07 00:46:22.98	14.98	11.18	-30.1	-33.6	12.6	1.07e-04	0	43	102	1048576	20	5374
2026-01-07 00:46:23.98	14.96	11.27	-30.1	-33.5	12.6	5.59e-04	0	43	102	1048576	20	5339
2026-01-07 00:46:24.99	14.93	11.36	-30.2	-33.8	12.4	8.60e-04	0	43	102	1048576	20	5462
2026-01-07 00:46:26.00	14.90	11.45	-30.3	-34.2	12.2	2.25e-04	0	43	102	1048576	20	5616
2026-01-07 00:46:27.01	14.88	11.54	-30.2	-33.9	12.4	5.97e-04	0	43	102	1048576	20	5476
2026-01-07 00:46:28.02	14.85	11.64	-30.1	-33.5	12.6	4.46e-04	0	43	102	1048576	20	5343
2026-01-07 00:46:29.02	14.82	11.73	-30.1	-33.4	12.7	8.46e-05	0	43	102	1048576	20	5303
2026-01-07 00:46:30.03	14.80	11.82	-30.0	-33.3	12.8	4.48e-04	0	43	102	1048576	20	5260
2026-01-07 00:46:31.04	14.77	11.91	-30.0	-33.2	12.9	4.47e-04	0	43	102	1048576	20	5205
2026-01-07 00:46:32.05	14.74	12.01	-30.1	-33.5	12.6	6.86e-05	0	43	102	1048576	20	5347
2026-01-07 00:46:33.06	14.71	12.10	-30.0	-33.3	12.8	5.41e-05	0	43	102	1048576	20	5245
2026-01-07 00:46:34.07	14.68	12.20	-30.0	-33.2	12.9	4.92e-04	0	43	102	1048576	20	5224
2026-01-07 00:46:35.08	14.66	12.29	-30.0	-33.2	12.9	4.42e-05	0	43	102	1048576	20	5215
2026-01-07 00:46:36.08	14.63	12.38	-30.0	-33.3	12.8	5.41e-05	0	43	102	1048576	20	5257
2026-01-07 00:46:37.09	14.60	12.48	-30.0	-33.1	13.0	5.19e-04	0	43	102	1048576	20	5173
2026-01-07 00:46:38.10	14.57	12.58	-30.0	-33.2	12.9	3.89e-05	0	43	102	1048576	20	5220
2026-01-07 00:46:39.11	14.54	12.67	-29.9	-32.9	13.1	2.74e-05	0	43	102	1048576	20	5099
2026-01-07 00:46:40.11	14.51	12.77	-29.8	-33.2	13.4	1.83e-05	0	43	102	1048576	19	5292
2026-01-07 00:46:41.12	14.48	12.86	-29.9	-33.4	13.2	1.14e-05	0	43	102	1048576	19	5383
2026-01-07 00:46:42.13	14.45	12.96	-29.9	-33.4	13.2	1.98e-05	0	43	102	1048576	19	5379
2026-01-07 00:46:43.13	14.42	13.06	-29.8	-33.0	13.4	1.22e-05	0	43	102	1048576	19	5222
2026-01-07 00:46:44.14	14.39	13.16	-29.8	-33.1	13.4	1.44e-05	0	43	102	1048576	19	5263
2026-01-07 00:46:45.15	14.36	13.26	-29.8	-33.0	13.5	3.40e-04	0	43	102	1048576	19	5221
2026-01-07 00:46:46.15	14.33	13.35	-29.8	-33.0	13.5	1.22e-05	0	43	102	1048576	19	5225
2026-01-07 00:46:47.16	14.30	13.45	-29.8	-33.2	13.4	1.44e-05	0	43	102	1048576	19	5293
2026-01-07 00:46:48.17	14.27	13.55	-29.8	-33.0	13.5	4.00e-04	0	43	102	1048576	19	5207
2026-01-07 00:46:49.18	14.23	13.65	-29.7	-32.7	13.7	3.80e-06	0	43	102	1048576	19	5110
2026-01-07 00:46:50.18	14.20	13.75	-29.6	-32.5	13.9	1.50e-06	0	43	102	1048576	19	5044
2026-01-07 00:46:51.19	14.17	13.85	-29.7	-32.7	13.8	5.30e-06	0	43	102	1048576	19	5087
2026-01-07 00:46:52.19	14.14	13.95	-29.7	-32.7	13.8	2.38e-03	0	43	102	1048576	19	5108
2026-01-07 00:46:53.19	14.11	14.05	-29.8	-33.0	13.6	6.80e-06	0	43	102	1048576	19	5210
2026-01-07 00:46:54.20	14.07	14.16	-29.7	-32.7	13.8	8.30e-06	0	43	102	1048576	19	5096
2026-01-07 00:46:55.20	14.04	14.26	-29.6	-32.5	13.9	2.56e-03	0	43	102	1048576	19	5021
2026-01-07 00:46:56.20	14.01	14.36	-29.7	-32.7	13.8	2.56e-03	0	43	102	1048576	19	5093
2026-01-07 00:46:57.20	13.97	14.46	-29.6	-32.6	13.9	4.50e-06	0	43	102	1048576	19	5050
2026-01-07 00:46:58.21	13.94	14.57	-29.6	-32.4	13.9	1.50e-06	0	43	102	1048576	19	5003
2026-01-07 00:46:59.22	13.91	14.67	-29.6	-32.4	13.9	2.32e-03	0	43	102	1048576	19	5005
2026-01-07 00:47:00.23	13.87	14.77	-29.6	-32.5	13.9	4.50e-06	0	43	102	1048576	19	5032
2026-01-07 00:47:01.23	13.84	14.88	-29.7	-32.9	13.7	5.30e-06	0	43	102	1048576	19	5160
2026-01-07 00:47:02.24	13.80	14.98	-29.5	-32.3	14.1	2.70e-03	0	43	102	1048576	19	4958
2026-01-07 00:47:03.24	13.77	15.09	-29.5	-32.2	14.1	3.91e-04	0	43	102	1048576	19	4934
2026-01-07 00:47:04.25	13.73	15.20	-29.5	-32.3	14.1	1.50e-06	0	43	102	1048576	19	4945
2026-01-07 00:47:05.26	13.70	15.30	-29.5	-32.2	14.1	2.58e-03	0	43	102	1048576	19	4912
2026-01-07 00:47:06.26	13.66	15.41	-29.6	-32.5	13.9	3.64e-04	0	43	102	1048576	19	5019
2026-01-07 00:47:07.27	13.62	15.52	-29.7	-32.7	13.8	2.65e-03	0	43	102	1048576	19	5091
2026-01-07 00:47:08.28	13.59	15.62	-29.5	-32.2	14.1	2.39e-03	0	43	102	1048576	19	4928
2026-01-07 00:47:09.28	13.55	15.73	-29.5	-32.6	14.2	3.37e-04	0	43	102	1048576	18	5171
2026-01-07 00:47:10.29	13.51	15.84	-29.5	-32.7	14.1	2.38e-03	0	43	102	1048576	18	5206
2026-01-07 00:47:11.30	13.47	15.95	-29.6	-32.5	14.0	7.00e-07	0	43	102	1048576	19	5020
2026-01-07 00:47:12.31	13.44	16.06	-29.4	-32.6	14.2	3.20e-04	0	43	102	1048576	18	5163
2026-01-07 00:47:13.32	13.40	16.17	-29.4	-32.1	14.3	2.60e-03	0	43	102	1048576	19	4863
2026-01-07 00:47:14.33	13.36	16.28	-29.4	-32.4	14.4	2.54e-03	0	43	102	1048576	18	5090
2026-01-07 00:47:15.33	13.32	16.39	-29.3	-32.3	14.5	3.55e-04	0	43	102	1048576	18	5056
2026-01-07 00:47:16.34	13.28	16.51	-29.4	-32.3	14.5	2.43e-03	0	43	102	1048576	18	5060
2026-01-07 00:47:17.35	13.24	16.62	-29.4	-32.4	14.4	2.20e-03	0	43	102	1048576	18	5080
2026-01-07 00:47:18.36	13.20	16.73	-29.3	-32.1	14.5	9.70e-04	0	43	102	1048576	18	4990
2026-01-07 00:47:19.36	13.16	16.84	-29.1	-31.8	14.8	2.29e-03	0	43	102	1048576	18	4873
2026-01-07 00:47:20.37	13.12	16.96	-29.2	-32.0	14.7	2.59e-03	0	43	102	1048576	18	4934
2026-01-07 00:47:21.38	13.08	17.07	-29.3	-32.1	14.6	5.42e-04	0	43	102	1048576	18	4972
2026-01-07 00:47:22.38	13.04	17.19	-29.2	-31.8	14.8	2.63e-03	0	43	102	1048576	18	4875
2026-01-07 00:47:23.39	13.00	17.30	-29.1	-31.8	14.8	2.43e-03	0	43	102	1048576	18	4872
2026-01-07 00:47:24.39	12.96	17.42	-29.2	-31.9	14.7	2.93e-04	0	43	102	1048576	18	4908
2026-01-07 00:47:25.40	12.92	17.53	-29.1	-31.5	15.0	0.00e+00	0	43	102	1048576	18	4786
2026-01-07 00:47:26.41	12.87	17.65	-29.1	-31.6	14.9	2.27e-03	0	43	102	1048576	18	4825
2026-01-07 00:47:27.42	12.83	17.77	-29.0	-31.5	15.0	2.72e-04	0	43	102	1048576	18	4781
2026-01-07 00:47:28.43	12.79	17.89	-29.1	-31.6	14.9	0.00e+00	0	43	102	1048576	18	4797
2026-01-07 00:47:29.43	12.74	18.01	-29.1	-31.6	15.0	2.49e-03	0	43	102	1048576	18	4794
2026-01-07 00:47:30.44	12.70	18.13	-29.0	-31.8	15.1	3.05e-04	0	43	102	1048576	17	4981
2026-01-07 00:47:31.45	12.65	18.25	-28.9	-31.6	15.2	0.00e+00	0	43	102	1048576	17	4936
2026-01-07 00:47:32.45	12.61	18.37	-28.9	-31.7	15.1	7.36e-04	0	43	102	1048576	17	4967
2026-01-07 00:47:33.46	12.56	18.49	-29.1	-31.6	14.9	2.84e-04	0	43	102	1048576	18	4797
2026-01-07 00:47:34.47	12.52	18.61	-29.1	-31.6	14.9	2.42e-03	0	43	102	1048576	18	4814
2026-01-07 00:47:35.47	12.47	18.73	-28.9	-31.6	15.2	6.23e-04	0	43	102	1048576	17	4936
2026-01-07 00:47:36.48	12.43	18.85	-28.8	-31.3	15.4	4.93e-04	0	43	102	1048576	17	4814
2026-01-07 00:47:37.48	12.38	18.98	-28.7	-31.2	15.5	2.11e-03	0	43	102	1048576	17	4791
2026-01-07 00:47:38.49	12.33	19.10	-28.7	-31.0	15.6	4.02e-04	0	43	102	1048576	17	4731
2026-01-07 00:47:39.49	12.29	19.22	-28.7	-31.0	15.6	3.62e-04	0	43	102	1048576	17	4725
2026-01-07 00:47:40.50	12.24	19.35	-28.7	-31.2	15.5	2.39e-03	0	43	102	1048576	17	4782
2026-01-07 00:47:41.50	12.19	19.47	-28.7	-31.2	15.5	2.99e-04	0	43	102	1048576	17	4767
2026-01-07 00:47:42.51	12.14	19.60	-28.5	-30.7	15.8	3.07e-04	0	43	102	1048576	17	4627
2026-01-07 00:47:43.52	12.09	19.73	-28.5	-30.6	15.9	0.00e+00	0	43	102	1048576	17	4581
2026-01-07 00:47:44.52	12.04	19.85	-28.5	-30.7	15.9	3.40e-04	0	44	102	1048576	17	4607
2026-01-07 00:47:45.53	11.99	19.98	-28.5	-30.7	15.8	3.55e-04	0	43	102	1048576	17	4608
2026-01-07 00:47:46.54	11.94	20.11	-28.5	-30.6	15.9	0.00e+00	0	43	102	1048576	17	4600
2026-01-07 00:47:47.54	11.89	20.24	-28.6	-31.0	15.7	0.00e+00	0	43	102	1048576	17	4702
2026-01-07 00:47:48.56	11.84	20.37	-28.6	-30.8	15.8	2.75e-04	0	43	102	1048576	17	4659
2026-01-07 00:47:49.56	11.79	20.50	-28.5	-30.7	15.9	0.00e+00	0	43	102	1048576	17	4617
2026-01-07 00:47:50.56	11.74	20.63	-28.5	-30.6	15.9	2.78e-04	0	43	102	1048576	17	4582
2026-01-07 00:47:51.56	11.68	20.76	-28.6	-30.8	15.8	3.13e-04	0	43	102	1048576	17	4646
2026-01-07 00:47:52.56	11.63	20.89	-28.6	-30.9	15.8	0.00e+00	0	43	102	1048576	17	4674
2026-01-07 00:47:53.57	11.58	21.03	-28.5	-30.6	15.9	3.49e-04	0	43	102	1048576	17	4585
2026-01-07 00:47:54.57	11.52	21.16	-28.5	-30.7	15.9	1.99e-04	0	43	102	1048576	17	4617
2026-01-07 00:47:55.58	11.47	21.30	-28.5	-30.7	15.9	0.00e+00	0	43	102	1048576	17	4614
2026-01-07 00:47:56.59	11.41	21.43	-28.5	-30.7	15.9	4.13e-04	0	43	102	1048576	17	4619
2026-01-07 00:47:57.60	11.35	21.57	-28.7	-31.0	15.7	3.79e-04	0	43	102	1048576	17	4700
2026-01-07 00:47:58.61	11.30	21.71	-28.6	-30.9	15.8	0.00e+00	0	43	102	1048576	17	4687
2026-01-07 00:47:59.62	11.24	21.84	-28.5	-30.7	15.9	3.38e-04	0	43	102	1048576	17	4617
2026-01-07 00:48:00.62	11.18	21.98	-28.5	-30.7	14.0	3.31e-04	0	43	102	1048576	17	4623
2026-01-07 00:48:01.63	11.13	22.12	-28.5	-30.7	15.5	0.00e+00	0	43	102	1048576	17	4610
2026-01-07 00:48:02.64	11.07	22.26	-28.5	-30.6	16.0	2.82e-04	0	43	102	1048576	17	4568
2026-01-07 00:48:03.65	11.01	22.40	-28.5	-30.6	16.0	2.14e-04	0	43	102	1048576	17	4570
2026-01-07 00:48:04.66	10.95	22.54	-28.6	-30.8	15.9	2.30e-03	0	43	102	1048576	17	4655
2026-01-07 00:48:05.67	10.89	22.69	-28.6	-30.8	15.9	1.95e-04	0	43	102	1048576	17	4645
2026-01-07 00:48:06.68	10.82	22.83	-28.6	-30.7	15.9	2.02e-04	0	43	102	1048576	17	4625
2026-01-07 00:48:07.69	10.76	22.97	-28.6	-30.7	15.9	2.13e-03	0	44	102	1048576	17	4619
2026-01-07 00:48:08.70	10.70	23.12	-28.7	-31.0	15.8	0.00e+00	0	43	102	1048576	17	4707
2026-01-07 00:48:09.70	10.64	23.26	-28.7	-31.1	15.7	3.58e-04	0	43	102	1048576	17	4731
2026-01-07 00:48:10.71	10.57	23.41	-28.7	-31.1	15.7	0.00e+00	0	43	102	1048576	17	4750
2026-01-07 00:48:11.72	10.51	23.56	-28.7	-31.1	15.7	8.30e-06	0	44	102	1048576	17	4749
2026-01-07 00:48:12.73	10.45	23.70	-28.8	-31.3	15.6	3.17e-04	0	44	102	1048576	17	4786
2026-01-07 00:48:13.74	10.38	23.85	-28.8	-31.4	15.5	0.00e+00	0	43	102	1048576	17	4836
2026-01-07 00:48:14.75	10.31	24.00	-28.8	-31.4	15.6	6.10e-06	0	43	102	1048576	17	4827
2026-01-07 00:48:15.75	10.25	24.15	-28.9	-31.6	15.4	2.24e-03	0	43	102	1048576	17	4915
2026-01-07 00:48:16.76	10.18	24.30	-29.0	-31.3	15.3	0.00e+00	0	43	102	1048576	18	4701
2026-01-07 00:48:17.77	10.11	24.45	-29.1	-31.5	15.2	6.80e-06	0	44	102	1048576	18	4758
2026-01-07 00:48:18.77	10.04	24.60	-29.1	-31.6	15.2	2.14e-03	0	43	102	1048576	18	4789
2026-01-07 00:48:19.78	9.97	24.76	-29.2	-31.7	15.1	0.00e+00	0	43	102	1048576	18	4824
2026-01-07 00:48:20.78	9.90	24.91	-29.3	-31.9	15.0	2.75e-04	0	43	102	1048576	18	4901
2026-01-07 00:48:21.79	9.83	25.07	-29.3	-32.1	14.9	2.02e-03	0	44	102	1048576	18	4968
2026-01-07 00:48:22.80	9.76	25.22	-29.3	-32.1	14.9	2.26e-03	0	43	102	1048576	18	4948
2026-01-07 00:48:23.80	9.69	25.38	-29.4	-32.2	14.8	2.30e-04	0	43	102	1048576	18	5000
2026-01-07 00:48:24.81	9.62	25.54	-29.5	-32.4	14.7	2.19e-03	0	43	102	1048576	18	5076
2026-01-07 00:48:25.81	9.54	25.69	-29.5	-32.4	14.7	2.12e-03	0	44	102	1048576	18	5065
2026-01-07 00:48:26.82	9.47	25.85	-29.7	-32.4	14.4	0.00e+00	0	43	102	1048576	19	4952
2026-01-07 00:48:27.83	9.39	26.01	-29.8	-32.9	14.1	2.20e-03	0	44	102	1048576	19	5109
2026-01-07 00:48:28.84	9.31	26.17	-30.0	-33.2	13.8	2.05e-03	0	43	102	1048576	19	5249
2026-01-07 00:48:29.84	9.24	26.34	-30.0	-32.8	13.8	3.00e-06	0	43	102	1048576	20	4985
2026-01-07 00:48:30.85	9.16	26.50	-30.0	-32.9	13.7	3.00e-06	0	44	102	1048576	20	5039
2026-01-07 00:48:31.86	9.08	26.66	-30.0	-33.0	13.6	2.26e-03	0	43	102	1048576	20	5060
2026-01-07 00:48:32.87	9.00	26.83	-30.2	-33.4	13.4	8.30e-06	0	43	102	1048576	20	5199
2026-01-07 00:48:33.87	8.92	26.99	-30.2	-33.4	13.4	2.32e-03	0	43	102	1048576	20	5215
2026-01-07 00:48:34.88	8.84	27.16	-30.5	-33.8	12.8	2.26e-03	0	43	102	1048576	21	5259
2026-01-07 00:48:35.89	8.76	27.33	-30.4	-33.5	13.0	4.80e-05	0	43	102	1048576	21	5135
2026-01-07 00:48:36.90	8.67	27.50	-30.3	-33.8	13.1	2.27e-03	0	43	102	1048576	20	5377
2026-01-07 00:48:37.91	8.59	27.67	-30.5	-33.9	12.8	3.35e-05	0	43	102	1048576	21	5276
2026-01-07 00:48:38.92	8.50	27.84	-30.8	-34.6	12.3	1.13e-04	0	43	102	1048576	21	5564
2026-01-07 00:48:39.92	8.42	28.01	-30.8	-34.5	12.4	2.24e-03	0	44	102	1048576	21	5514
2026-01-07 00:48:40.93	8.33	28.18	-30.9	-34.8	12.1	2.20e-04	0	44	102	1048576	21	5677
2026-01-07 00:48:41.94	8.24	28.36	-30.9	-34.9	12.0	2.33e-04	0	43	102	1048576	21	5714
2026-01-07 00:48:42.94	8.15	28.53	-31.0	-35.2	11.9	2.62e-03	0	44	102	1048576	21	5848
2026-01-07 00:48:43.95	8.06	28.71	-31.0	-34.8	11.8	2.76e-03	0	44	102	1048576	22	5563
2026-01-07 00:48:44.96	7.97	28.88	-31.2	-35.2	11.6	5.95e-04	0	44	102	1048576	22	5725
2026-01-07 00:48:45.96	7.88	29.06	-31.2	-35.3	11.5	2.75e-03	0	43	102	1048576	22	5760
2026-01-07 00:48:46.97	7.79	29.24	-31.4	-35.8	11.2	3.01e-03	0	44	102	1048576	22	5987
2026-01-07 00:48:47.97	7.69	29.42	-31.3	-35.7	11.2	1.41e-03	0	43	102	1048576	22	5943
2026-01-07 00:48:48.98	7.60	29.60	-31.5	-35.8	10.8	4.06e-03	0	43	102	1048576	23	5910
2026-01-07 00:48:49.99	7.50	29.78	-31.8	-36.9	10.0	5.47e-03	0	43	102	1048576	23	6462
2026-01-07 00:48:51.00	7.40	29.96	-31.6	-36.2	10.5	6.08e-03	0	44	102	1048576	23	6065
2026-01-07 00:48:52.00	7.31	30.15	-31.6	-36.0	10.7	3.56e-03	0	43	102	1048576	23	5983
2026-01-07 00:48:53.01	7.21	30.33	-31.4	-35.5	11.0	4.62e-03	0	44	102	1048576	23	5769
2026-01-07 00:48:54.02	7.10	30.52	-31.5	-35.8	10.8	1.53e-03	0	43	102	1048576	23	5870
2026-01-07 00:48:55.03	7.00	30.71	-31.5	-35.9	10.7	1.95e-03	0	43	102	1048576	23	5918
2026-01-07 00:48:56.04	6.90	30.90	-31.5	-35.9	10.8	2.34e-03	0	43	102	1048576	23	5926
2026-01-07 00:48:57.04	6.79	31.08	-31.7	-36.3	10.5	3.70e-03	0	44	102	1048576	23	6130
2026-01-07 00:48:58.05	6.69	31.27	-31.6	-36.0	10.7	3.01e-03	0	43	102	1048576	23	6007
2026-01-07 00:48:59.05	6.58	31.47	-31.6	-36.1	10.6	3.09e-03	0	43	102	1048576	23	6052
2026-01-07 00:49:00.06	6.47	31.66	-31.6	-36.2	10.5	4.89e-03	0	43	102	1048576	23	6090
2026-01-07 00:49:01.07	6.36	31.85	-31.8	-36.6	10.2	5.15e-03	0	43	102	1048576	23	6283
2026-01-07 00:49:02.07	6.25	32.05	-31.8	-36.9	10.0	7.25e-03	0	44	102	1048576	23	6424
2026-01-07 00:49:03.08	6.14	32.24	-31.8	-36.7	10.2	6.32e-03	0	43	102	1048576	23	6327
2026-01-07 00:49:04.08	6.02	32.44	-31.8	-36.9	10.1	6.14e-03	0	43	102	1048576	23	6419
2026-01-07 00:49:05.09	5.91	32.64	-31.8	-36.8	10.1	7.44e-03	0	43	102	1048576	23	6393
2026-01-07 00:49:06.10	5.79	32.84	-31.9	-36.9	10.0	6.77e-03	0	44	102	1048576	23	6417
2026-01-07 00:49:07.11	5.67	33.04	-32.0	-37.0	9.6	7.90e-03	0	43	102	1048576	24	6369
2026-01-07 00:49:08.12	5.55	33.24	-31.9	-36.9	10.0	9.09e-03	0	43	102	1048576	23	6454
2026-01-07 00:49:09.13	5.43	33.45	-32.0	-37.4	9.7	1.03e-02	0	44	102	1048576	23	6685
2026-01-07 00:49:10.13	5.30	33.65	-32.0	-36.8	9.7	9.46e-03	0	43	102	1048576	24	6304
2026-01-07 00:49:11.14	5.18	33.86	-32.0	-37.2	9.8	1.07e-02	0	44	102	1048576	23	6613
2026-01-07 00:49:12.15	5.05	34.07	-32.0	-37.0	9.6	1.20e-02	0	43	102	1048576	24	6388
2026-01-07 00:49:13.16	4.92	34.28	-32.1	-37.1	9.5	1.66e-02	0	44	102	1048576	24	6433
2026-01-07 00:49:14.16	4.79	34.48	-32.0	-36.8	9.8	1.03e-02	0	43	102	1048576	24	6279
2026-01-07 00:49:15.16	4.66	34.69	-32.0	-37.3	9.8	9.21e-03	0	44	102	1048576	23	6624
2026-01-07 00:49:16.17	4.53	34.91	-31.1	-35.9	9.8	9.20e-03	0	44	102	1048576	24	6313
2026-01-07 00:49:17.17	4.40	35.12	-32.0	-36.9	9.7	1.21e-02	0	44	102	1048576	24	6309
2026-01-07 00:49:18.17	4.26	35.33	-32.0	-36.9	9.7	1.25e-02	0	44	102	1048576	24	6331
2026-01-07 00:49:19.18	4.12	35.55	-32.0	-37.0	9.6	1.19e-02	0	44	102	1048576	24	6373
2026-01-07 00:49:20.18	3.98	35.76	-32.1	-37.4	9.3	1.49e-02	0	43	102	1048576	24	6603
2026-01-07 00:49:21.20	3.83	35.99	-32.1	-37.2	9.5	1.63e-02	0	43	102	1048576	24	6493
2026-01-07 00:49:22.20	3.69	36.20	-32.1	-37.4	9.3	1.61e-02	0	43	102	1048576	24	6599
2026-01-07 00:49:23.21	3.54	36.43	-32.2	-37.8	9.0	1.95e-02	0	44	102	1048576	24	6810
2026-01-07 00:49:24.21	3.40	36.65	-32.1	-37.2	9.5	1.73e-02	0	44	102	1048576	24	6474
2026-01-07 00:49:25.22	3.24	36.87	-32.2	-37.5	9.3	1.52e-02	0	44	102	1048576	24	6629
2026-01-07 00:49:26.23	3.09	37.10	-32.2	-37.8	9.0	2.10e-02	0	44	102	1048576	24	6832
2026-01-07 00:49:27.23	2.94	37.32	-32.2	-37.6	9.2	2.37e-02	0	43	102	1048576	24	6700
2026-01-07 00:49:28.24	2.78	37.55	-32.1	-37.3	9.3	2.21e-02	0	44	102	1048576	24	6537
2026-01-07 00:49:29.24	2.62	37.78	-32.2	-37.5	9.3	2.14e-02	0	44	102	1048576	24	6639
2026-01-07 00:49:30.25	2.46	38.01	-32.0	-36.9	9.7	1.57e-02	0	44	102	1048576	24	6314
2026-01-07 00:49:31.25	2.29	38.24	-31.9	-36.8	10.2	1.00e-02	0	43	102	1048576	23	6353
2026-01-07 00:49:32.26	2.13	38.47	-31.9	-37.1	10.0	6.26e-03	0	44	102	1048576	23	6520
2026-01-07 00:49:33.27	1.96	38.71	-31.9	-36.9	10.1	7.39e-03	0	44	102	1048576	23	6406
2026-01-07 00:49:34.27	1.79	38.94	-32.0	-37.3	9.9	1.06e-02	0	43	102	1048576	23	6629
2026-01-07 00:49:35.28	1.61	39.18	-32.1	-37.1	9.6	1.41e-02	0	43	102	1048576	24	6409
2026-01-07 00:49:36.29	1.43	39.42	-31.9	-37.0	10.0	1.14e-02	0	44	102	1048576	23	6463
2026-01-07 00:49:37.30	1.25	39.66	-31.8	-36.4	10.5	7.81e-03	0	44	102	1048576	23	6178
2026-01-07 00:49:38.30	1.07	39.89	-31.7	-36.2	10.6	3.36e-03	0	43	102	1048576	23	6066
2026-01-07 00:49:39.31	0.89	40.14	-31.7	-36.1	10.7	5.95e-03	0	44	102	1048576	23	6003
2026-01-07 00:49:40.32	0.70	40.38	-31.7	-36.4	10.5	6.76e-03	0	44	102	1048576	23	6131
2026-01-07 00:49:41.32	0.51	40.63	-31.8	-36.5	10.5	4.82e-03	0	44	102	1048576	23	6195
2026-01-07 00:49:42.32	0.31	40.87	-31.8	-36.5	10.5	6.51e-03	0	44	102	1048576	23	6210
2026-01-07 00:49:43.32	0.12	41.12	-31.8	-36.4	10.5	3.83e-03	0	44	102	1048576	23	6163
2026-01-07 00:49:44.33	359.92	41.36	-31.8	-36.6	10.4	4.91e-03	0	44	102	1048576	23	6249
2026-01-07 00:49:45.33	359.72	41.61	-31.6	-35.9	10.9	5.89e-03	0	44	102	1048576	23	5928
2026-01-07 00:49:46.34	359.51	41.86	-31.5	-35.6	11.1	4.77e-03	0	44	102	1048576	23	5748
2026-01-07 00:49:47.35	359.30	42.12	-31.5	-35.6	11.1	2.03e-03	0	44	102	1048576	23	5762
2026-01-07 00:49:48.36	359.08	42.37	-31.4	-35.2	11.4	4.15e-03	0	44	102	1048576	23	5599
2026-01-07 00:49:49.36	358.87	42.63	-31.5	-35.9	11.3	3.39e-03	0	44	102	1048576	22	6029
2026-01-07 00:49:50.37	358.65	42.88	-31.5	-35.7	11.1	2.31e-03	0	44	102	1048576	23	5798
2026-01-07 00:49:51.38	358.42	43.14	-31.3	-35.5	11.6	3.29e-03	0	44	102	1048576	22	5828
2026-01-07 00:49:52.38	358.20	43.40	-31.2	-35.2	11.8	2.96e-03	0	44	102	1048576	22	5700
2026-01-07 00:49:53.39	357.97	43.66	-31.3	-35.3	11.7	8.05e-04	0	44	102	1048576	22	5737
2026-01-07 00:49:54.39	357.73	43.92	-31.3	-35.4	11.6	3.06e-03	0	43	102	1048576	22	5789
2026-01-07 00:49:55.40	357.49	44.18	-31.5	-35.9	11.3	3.34e-03	0	44	102	1048576	22	5999
2026-01-07 00:49:56.41	357.25	44.45	-31.4	-35.6	11.5	1.23e-03	0	43	102	1048576	22	5858
2026-01-07 00:49:57.41	357.00	44.71	-31.3	-35.5	11.6	7.74e-04	0	44	102	1048576	22	5800
2026-01-07 00:49:58.42	356.75	44.98	-31.2	-35.1	11.9	2.74e-03	0	44	102	1048576	22	5637
2026-01-07 00:49:59.43	356.49	45.25	-31.1	-34.7	12.1	4.37e-04	0	43	102	1048576	22	5474
2026-01-07 00:50:00.43	356.24	45.51	-31.2	-35.0	11.9	2.97e-04	0	43	102	1048576	22	5606
2026-01-07 00:50:01.44	355.97	45.78	-31.2	-35.1	11.9	2.62e-03	0	44	102	1048576	22	5628
2026-01-07 00:50:02.45	355.70	46.05	-31.0	-34.4	12.4	4.08e-04	0	44	102	1048576	22	5353
2026-01-07 00:50:03.45	355.43	46.32	-31.0	-34.9	12.4	2.33e-03	0	44	102	1048576	21	5641
2026-01-07 00:50:04.46	355.15	46.60	-31.2	-35.0	12.0	2.77e-04	0	44	102	1048576	22	5585
2026-01-07 00:50:05.46	354.87	46.87	-31.2	-35.0	12.0	6.72e-04	0	44	102	1048576	22	5606
2026-01-07 00:50:06.47	354.58	47.15	-30.9	-34.1	12.6	2.21e-03	0	43	102	1048576	22	5231
2026-01-07 00:50:07.48	354.28	47.42	-30.7	-34.2	12.9	6.40e-05	0	44	102	1048576	21	5354
2026-01-07 00:50:08.49	353.98	47.70	-30.6	-33.9	13.0	3.35e-05	0	44	102	1048576	21	5253
2026-01-07 00:50:09.49	353.68	47.98	-30.5	-33.4	13.4	1.89e-03	0	44	102	1048576	21	5067
2026-01-07 00:50:10.50	353.37	48.26	-30.6	-33.7	13.2	2.13e-05	0	44	102	1048576	21	5183
2026-01-07 00:50:11.51	353.05	48.54	-30.7	-34.1	12.9	2.74e-05	0	43	102	1048576	21	5320
2026-01-07 00:50:12.52	352.73	48.82	-30.7	-34.0	13.0	1.99e-03	0	44	102	1048576	21	5291
2026-01-07 00:50:13.53	352.40	49.10	-30.3	-33.1	13.6	1.14e-05	0	44	102	1048576	21	4938
2026-01-07 00:50:14.53	352.07	49.38	-30.0	-32.2	14.2	3.80e-06	0	43	102	1048576	21	4644
2026-01-07 00:50:15.53	351.73	49.66	-29.8	-32.6	14.6	0.00e+00	0	43	102	1048576	19	4994
2026-01-07 00:50:16.54	351.38	49.95	-29.7	-32.4	14.7	1.97e-03	0	44	102	1048576	19	4896
2026-01-07 00:50:17.54	351.03	50.23	-29.8	-32.6	14.6	0.00e+00	0	44	102	1048576	19	4991
2026-01-07 00:50:18.55	350.67	50.51	-29.7	-32.5	14.7	0.00e+00	0	44	102	1048576	19	4926
2026-01-07 00:50:19.56	350.30	50.80	-29.8	-32.6	14.7	0.00e+00	0	44	102	1048576	19	4985
2026-01-07 00:50:20.57	349.92	51.08	-29.9	-33.0	14.4	0.00e+00	0	44	102	1048576	19	5117
2026-01-07 00:50:21.58	349.54	51.37	-30.0	-32.7	14.1	7.00e-07	0	44	102	1048576	20	4923
2026-01-07 00:50:22.58	349.15	51.66	-29.9	-32.4	14.3	2.20e-06	0	44	102	1048576	20	4829
2026-01-07 00:50:23.58	348.76	51.94	-29.8	-32.3	14.5	0.00e+00	0	44	102	1048576	20	4763
2026-01-07 00:50:24.59	348.35	52.23	-30.0	-32.7	14.3	0.00e+00	0	43	102	1048576	20	4902
2026-01-07 00:50:25.60	347.94	52.52	-30.3	-33.6	13.7	3.80e-06	0	44	102	1048576	20	5229
2026-01-07 00:50:26.61	347.52	52.80	-30.2	-33.2	13.8	1.37e-05	0	44	102	1048576	20	5103
2026-01-07 00:50:27.62	347.09	53.09	-29.8	-32.1	14.5	7.00e-07	0	44	102	1048576	20	4724
2026-01-07 00:50:28.62	346.65	53.38	-30.0	-32.7	14.2	0.00e+00	0	43	102	1048576	20	4908
2026-01-07 00:50:29.63	346.21	53.67	-30.3	-33.6	13.5	3.80e-06	0	44	102	1048576	20	5255
2026-01-07 00:50:30.64	345.75	53.95	-30.3	-33.0	13.7	1.22e-05	0	44	102	1048576	21	4916
2026-01-07 00:50:31.64	345.29	54.24	-30.3	-33.4	13.8	2.28e-05	0	43	102	1048576	20	5165
2026-01-07 00:50:32.65	344.81	54.53	-29.2	-32.3	13.3	1.90e-05	0	44	102	1048576	20	5130
2026-01-07 00:50:33.66	344.33	54.81	-30.7	-34.2	12.2	2.67e-05	0	44	102	1048576	21	5375
2026-01-07 00:50:34.67	343.83	55.10	-31.5	-35.2	12.4	2.41e-04	0	43	102	1048576	22	5527
2026-01-07 00:50:35.68	343.33	55.38	-31.2	-35.1	12.0	1.90e-04	0	44	102	1048576	22	5630
2026-01-07 00:50:36.68	342.81	55.67	-31.2	-34.9	12.1	2.67e-03	0	44	102	1048576	22	5565
2026-01-07 00:50:37.69	342.29	55.95	-31.4	-35.8	11.5	7.83e-04	0	44	102	1048576	22	5949
2026-01-07 00:50:38.69	341.76	56.23	-31.6	-35.8	11.2	1.80e-03	0	44	102	1048576	23	5818
2026-01-07 00:50:39.70	341.21	56.51	-31.8	-36.5	10.5	1.35e-03	0	43	102	1048576	23	6188
2026-01-07 00:50:40.70	340.65	56.79	-31.9	-36.9	10.3	5.52e-03	0	44	102	1048576	23	6371
2026-01-07 00:50:41.71	340.08	57.07	-32.1	-37.1	9.7	7.53e-03	0	44	102	1048576	24	6400
2026-01-07 00:50:42.72	339.50	57.35	-32.0	-36.7	10.0	1.55e-02	0	44	102	1048576	24	6188
2026-01-07 00:50:43.73	338.91	57.62	-31.7	-35.8	10.7	3.80e-03	0	44	102	1048576	24	5738
2026-01-07 00:50:44.74	338.30	57.90	-31.4	-35.3	11.4	1.88e-03	0	44	102	1048576	23	5633
2026-01-07 00:50:45.74	337.68	58.17	-31.1	-34.7	12.2	4.30e-04	0	43	102	1048576	22	5467
2026-01-07 00:50:46.75	337.05	58.44	-30.8	-33.9	12.7	1.08e-04	0	43	102	1048576	22	5132
2026-01-07 00:50:47.76	336.41	58.71	-30.7	-34.1	13.0	1.86e-03	0	43	102	1048576	21	5314
2026-01-07 00:50:48.76	335.75	58.97	-30.3	-33.6	13.6	3.12e-05	0	44	102	1048576	20	5226
2026-01-07 00:50:49.77	335.08	59.24	-29.8	-32.3	14.5	2.20e-06	0	44	102	1048576	20	4768
2026-01-07 00:50:50.77	334.40	59.50	-29.8	-32.7	14.6	3.56e-04	0	44	102	1048576	19	5001
2026-01-07 00:50:51.78	333.70	59.75	-29.8	-32.8	14.5	4.00e-04	0	44	102	1048576	19	5044
2026-01-07 00:50:52.79	332.99	60.01	-29.5	-31.8	15.1	1.50e-06	0	43	102	1048576	19	4704
2026-01-07 00:50:53.79	332.27	60.26	-29.2	-31.0	15.6	4.79e-04	0	44	102	1048576	19	4463
2026-01-07 00:50:54.80	331.52	60.51	-29.4	-32.0	15.3	4.08e-04	0	44	102	1048576	18	4896
2026-01-07 00:50:55.81	330.77	60.76	-29.3	-31.9	15.4	0.00e+00	0	44	102	1048576	18	4857
2026-01-07 00:50:56.82	330.00	61.00	-29.2	-31.7	15.5	1.36e-03	0	43	102	1048576	18	4800
2026-01-07 00:50:57.82	329.22	61.24	-29.2	-31.6	15.6	1.59e-03	0	44	102	1048576	18	4743
2026-01-07 00:50:58.83	328.41	61.47	-29.4	-32.0	15.3	0.00e+00	0	44	102	1048576	18	4892
2026-01-07 00:50:59.83	327.60	61.70	-29.0	-31.3	15.8	1.41e-03	0	44	102	1048576	18	4642
2026-01-07 00:51:00.84	326.77	61.93	-28.6	-30.6	16.3	1.47e-03	0	44	102	1048576	17	4552
2026-01-07 00:51:01.85	325.92	62.15	-28.2	-29.7	16.9	0.00e+00	0	44	102	1048576	17	4283
2026-01-07 00:51:02.85	325.07	62.37	-28.3	-30.4	16.8	0.00e+00	0	44	102	1048576	16	4600
2026-01-07 00:51:03.86	324.19	62.58	-28.2	-30.3	16.8	1.29e-03	0	44	102	1048576	16	4586
2026-01-07 00:51:04.86	323.30	62.78	-28.3	-30.4	16.8	0.00e+00	0	44	102	1048576	16	4603
2026-01-07 00:51:05.87	322.39	62.98	-28.5	-30.9	16.5	3.11e-04	0	44	102	1048576	16	4765
2026-01-07 00:51:06.88	321.47	63.18	-28.7	-31.0	16.1	3.43e-04	0	43	102	1048576	17	4676
2026-01-07 00:51:07.89	320.53	63.37	-28.8	-31.2	16.1	0.00e+00	0	44	102	1048576	17	4730
2026-01-07 00:51:08.89	319.58	63.55	-28.3	-30.0	16.7	7.41e-04	0	44	102	1048576	17	4359
2026-01-07 00:51:09.90	318.61	63.73	-28.3	-30.4	16.8	0.00e+00	0	43	102	1048576	16	4592
2026-01-07 00:51:10.90	317.63	63.90	-28.2	-30.2	16.9	0.00e+00	0	44	102	1048576	16	4524
2026-01-07 00:51:11.91	316.64	64.07	-28.7	-30.9	16.3	6.83e-04	0	44	102	1048576	17	4629
2026-01-07 00:51:12.92	315.62	64.23	-28.9	-31.5	15.9	1.16e-03	0	44	102	1048576	17	4818
2026-01-07 00:51:13.92	314.60	64.38	-29.4	-32.2	15.3	0.00e+00	0	44	102	1048576	18	4939
2026-01-07 00:51:14.93	313.56	64.52	-29.8	-32.5	14.7	6.25e-05	0	44	102	1048576	19	4960
2026-01-07 00:51:15.94	312.51	64.66	-30.0	-33.1	14.4	0.00e+00	0	44	102	1048576	19	5157
2026-01-07 00:51:16.94	311.45	64.79	-29.8	-32.7	14.5	0.00e+00	0	44	102	1048576	19	5030
2026-01-07 00:51:17.95	310.37	64.91	-29.8	-32.6	14.6	1.50e-06	0	43	102	1048576	19	4965
2026-01-07 00:51:18.96	309.29	65.02	-29.7	-32.5	14.7	1.52e-04	0	43	102	1048576	19	4944
2026-01-07 00:51:19.96	308.20	65.13	-29.8	-32.7	14.6	0.00e+00	0	43	102	1048576	19	5015
2026-01-07 00:51:20.97	307.09	65.23	-29.9	-32.9	14.4	1.50e-06	0	44	102	1048576	19	5104
2026-01-07 00:51:21.98	305.97	65.31	-30.1	-32.9	14.0	4.47e-04	0	44	102	1048576	20	5004
2026-01-07 00:51:22.98	304.85	65.39	-29.8	-32.2	14.5	3.80e-06	0	43	102	1048576	20	4755
2026-01-07 00:51:23.99	303.71	65.47	-29.8	-32.7	14.5	7.00e-07	0	44	102	1048576	19	5037
2026-01-07 00:51:25.00	302.57	65.53	-29.8	-32.6	14.6	3.55e-04	0	44	102	1048576	19	4996
2026-01-07 00:51:26.01	301.42	65.59	-29.5	-31.9	15.1	0.00e+00	0	43	102	1048576	19	4740
2026-01-07 00:51:27.02	300.26	65.63	-29.3	-31.5	15.3	0.00e+00	0	44	102	1048576	19	4599
2026-01-07 00:51:28.02	299.12	65.67	-29.4	-32.1	15.3	0.00e+00	0	44	102	1048576	18	4910
2026-01-07 00:51:29.03	297.95	65.69	-29.5	-32.4	15.0	7.00e-07	0	43	102	1048576	18	5020
2026-01-07 00:51:30.03	296.80	65.71	-29.7	-32.4	14.7	0.00e+00	0	44	102	1048576	19	4926
2026-01-07 00:51:31.04	295.63	65.72	-29.7	-32.3	14.7	7.00e-07	0	43	102	1048576	19	4894
2026-01-07 00:51:32.05	294.47	65.72	-29.0	-30.8	15.7	0.00e+00	0	43	102	1048576	19	4398
2026-01-07 00:51:33.06	293.30	65.71	-28.8	-31.3	15.9	0.00e+00	0	43	102	1048576	17	4776
2026-01-07 00:51:34.06	292.15	65.70	-29.1	-31.3	15.6	0.00e+00	0	44	102	1048576	18	4675
2026-01-07 00:51:35.07	290.98	65.67	-29.4	-32.2	15.2	0.00e+00	0	44	102	1048576	18	4951
2026-01-07 00:51:36.08	289.82	65.63	-29.4	-32.2	15.1	0.00e+00	0	44	102	1048576	18	4969
2026-01-07 00:51:37.08	288.68	65.59	-29.4	-32.1	15.2	0.00e+00	0	44	102	1048576	18	4914
2026-01-07 00:51:38.09	287.53	65.54	-29.4	-32.3	15.1	0.00e+00	0	44	102	1048576	18	4988
2026-01-07 00:51:39.10	286.39	65.47	-29.9	-32.5	14.2	0.00e+00	0	44	102	1048576	20	4871
2026-01-07 00:51:40.09	285.27	65.40	-29.7	-32.5	14.7	7.00e-07	0	43	102	1048576	19	4950
2026-01-07 00:51:41.10	284.14	65.32	-29.5	-32.0	14.9	0.00e+00	0	43	102	1048576	19	4792
2026-01-07 00:51:42.11	283.02	65.24	-29.4	-31.7	15.2	1.50e-06	0	43	102	1048576	19	4681
2026-01-07 00:51:43.12	281.91	65.14	-29.4	-32.2	15.1	0.00e+00	0	44	102	1048576	18	4944
2026-01-07 00:51:44.13	280.81	65.03	-29.4	-32.2	15.1	0.00e+00	0	43	102	1048576	18	4953
2026-01-07 00:51:45.14	279.71	64.92	-29.5	-32.0	14.9	7.00e-07	0	43	102	1048576	19	4783
2026-01-07 00:51:46.14	278.64	64.80	-29.5	-31.8	15.0	6.25e-05	0	44	102	1048576	19	4728
2026-01-07 00:51:47.15	277.58	64.67	-28.9	-30.8	16.0	0.00e+00	0	44	102	1048576	18	4515
2026-01-07 00:51:48.15	276.53	64.54	-28.9	-30.9	15.9	0.00e+00	0	43	102	1048576	18	4520
2026-01-07 00:51:49.16	275.49	64.39	-28.8	-31.2	16.0	0.00e+00	0	44	102	1048576	17	4747
2026-01-07 00:51:50.17	274.46	64.24	-28.3	-30.5	16.6	0.00e+00	0	43	102	1048576	16	4627
2026-01-07 00:51:51.17	273.45	64.09	-28.2	-30.3	16.8	0.00e+00	0	43	102	1048576	16	4568
2026-01-07 00:51:52.18	272.45	63.92	-28.1	-30.0	17.0	0.00e+00	0	44	102	1048576	16	4474
2026-01-07 00:51:53.19	271.46	63.75	-27.9	-30.0	17.0	2.61e-04	0	44	102	1048576	15	4623
2026-01-07 00:51:54.20	270.49	63.57	-27.8	-29.8	17.1	0.00e+00	0	43	102	1048576	15	4562
2026-01-07 00:51:55.21	269.53	63.39	-27.4	-28.9	17.7	0.00e+00	0	43	102	1048576	15	4288
2026-01-07 00:51:56.21	268.60	63.20	-27.3	-29.3	17.7	2.09e-03	0	43	102	1048576	14	4513
2026-01-07 00:51:57.21	267.68	63.00	-27.6	-29.3	17.4	0.00e+00	0	43	102	1048576	15	4413
2026-01-07 00:51:58.21	266.77	62.80	-27.6	-29.4	17.4	0.00e+00	0	43	102	1048576	15	4422
2026-01-07 00:51:59.22	265.88	62.60	-27.7	-29.6	17.3	0.00e+00	0	44	102	1048576	15	4487
2026-01-07 00:52:00.23	265.00	62.39	-27.7	-29.7	17.2	2.02e-03	0	43	102	1048576	15	4511
2026-01-07 00:52:01.23	264.14	62.17	-27.8	-29.9	17.1	0.00e+00	0	43	102	1048576	15	4577
2026-01-07 00:52:02.23	263.29	61.95	-28.3	-30.4	16.7	0.00e+00	0	43	102	1048576	16	4614
2026-01-07 00:52:03.24	262.46	61.72	-29.2	-31.6	15.5	1.90e-03	0	43	102	1048576	18	4761
2026-01-07 00:52:04.25	261.64	61.49	-29.7	-32.3	14.7	1.72e-04	0	44	102	1048576	19	4902
2026-01-07 00:52:05.26	260.83	61.26	-29.6	-32.1	14.9	0.00e+00	0	44	102	1048576	19	4801
2026-01-07 00:52:06.26	260.05	61.02	-29.6	-32.1	14.8	2.27e-03	0	43	102	1048576	19	4829
2026-01-07 00:52:07.27	259.28	60.78	-29.9	-33.1	14.2	2.27e-04	0	43	102	1048576	19	5160
2026-01-07 00:52:08.28	258.52	60.53	-30.4	-33.7	13.4	3.80e-06	0	44	102	1048576	20	5313
2026-01-07 00:52:09.28	257.78	60.28	-30.7	-34.2	12.7	1.60e-05	0	43	102	1048576	21	5388
2026-01-07 00:52:10.29	257.05	60.03	-31.0	-35.0	12.2	2.29e-04	0	44	102	1048576	21	5741
2026-01-07 00:52:11.30	256.33	59.77	-31.3	-35.6	11.5	2.84e-03	0	43	102	1048576	22	5870
2026-01-07 00:52:12.30	255.64	59.52	-31.2	-35.3	11.6	7.98e-04	0	44	102	1048576	22	5759
2026-01-07 00:52:13.31	254.95	59.26	-31.2	-35.1	11.8	6.02e-04	0	44	102	1048576	22	5627
2026-01-07 00:52:14.31	254.28	58.99	-31.3	-35.3	11.6	3.06e-03	0	43	102	1048576	22	5731
2026-01-07 00:52:15.32	253.62	58.73	-31.3	-35.5	11.5	6.04e-04	0	44	102	1048576	22	5844
2026-01-07 00:52:16.33	252.97	58.46	-31.5	-36.1	11.1	1.47e-03	0	43	102	1048576	22	6136
2026-01-07 00:52:17.34	252.34	58.19	-31.6	-36.1	10.7	6.00e-03	0	43	102	1048576	23	6023
2026-01-07 00:52:18.34	251.72	57.91	-31.3	-35.5	11.5	4.24e-03	0	43	102	1048576	22	5845
2026-01-07 00:52:19.35	251.11	57.64	-31.0	-34.7	12.1	4.62e-04	0	44	102	1048576	22	5495
2026-01-07 00:52:20.36	250.51	57.36	-30.8	-34.6	12.4	1.92e-03	0	44	102	1048576	21	5557
2026-01-07 00:52:21.37	249.93	57.08	-30.7	-34.2	12.7	3.77e-04	0	43	102	1048576	21	5385
2026-01-07 00:52:22.38	249.36	56.80	-30.6	-33.8	13.0	1.91e-04	0	44	102	1048576	21	5234
2026-01-07 00:52:23.38	248.80	56.53	-30.5	-33.6	13.1	6.09e-04	0	44	102	1048576	21	5159
2026-01-07 00:52:24.39	248.25	56.24	-30.3	-33.5	13.5	1.92e-03	0	44	102	1048576	20	5241
2026-01-07 00:52:25.40	247.71	55.96	-30.1	-33.0	13.8	3.71e-04	0	44	102	1048576	20	5027
2026-01-07 00:52:26.40	247.19	55.68	-30.1	-33.0	13.9	2.74e-03	0	43	102	1048576	20	5031
2026-01-07 00:52:27.41	246.67	55.39	-29.8	-32.3	14.3	2.58e-03	0	44	102	1048576	20	4780
2026-01-07 00:52:28.42	246.16	55.11	-29.4	-31.7	15.0	3.78e-04	0	43	102	1048576	19	4702
2026-01-07 00:52:29.42	245.67	54.82	-29.3	-31.9	15.2	0.00e+00	0	43	102	1048576	18	4850
2026-01-07 00:52:30.43	245.18	54.53	-29.2	-31.7	15.3	2.36e-03	0	43	102	1048576	18	4796
2026-01-07 00:52:31.44	244.71	54.25	-29.1	-31.3	15.5	0.00e+00	0	43	102	1048576	18	4680
2026-01-07 00:52:32.44	244.24	53.96	-29.3	-31.9	15.2	1.96e-03	0	43	102	1048576	18	4877
2026-01-07 00:52:33.45	243.78	53.67	-29.8	-32.6	14.4	1.76e-03	0	43	102	1048576	19	5011
2026-01-07 00:52:34.45	243.34	53.39	-30.1	-33.0	13.7	1.50e-06	0	43	102	1048576	20	5058
2026-01-07 00:52:35.46	242.90	53.10	-30.1	-33.2	13.6	1.64e-03	0	43	102	1048576	20	5132
2026-01-07 00:52:36.47	242.47	52.81	-29.8	-32.2	14.3	0.00e+00	0	43	102	1048576	20	4765
2026-01-07 00:52:37.48	242.04	52.52	-29.8	-32.4	14.2	1.50e-06	0	43	102	1048576	20	4817
2026-01-07 00:52:38.49	241.63	52.23	-29.9	-32.6	14.1	2.14e-03	0	43	102	1048576	20	4881
2026-01-07 00:52:39.50	241.22	51.94	-30.0	-32.9	13.9	3.80e-06	0	44	102	1048576	20	5011
2026-01-07 00:52:40.50	240.82	51.66	-30.4	-33.8	13.3	9.90e-06	0	44	102	1048576	20	5351
2026-01-07 00:52:41.51	240.43	51.37	-30.6	-34.0	12.8	1.47e-03	0	43	102	1048576	21	5305
2026-01-07 00:52:42.52	240.05	51.08	-30.7	-34.2	12.7	1.48e-03	0	44	102	1048576	21	5389
2026-01-07 00:52:43.52	239.67	50.80	-30.8	-34.6	12.4	1.08e-04	0	44	102	1048576	21	5579
2026-01-07 00:52:44.52	239.31	50.51	-30.7	-34.3	12.6	1.61e-03	0	44	102	1048576	21	5450
2026-01-07 00:52:45.53	238.95	50.23	-30.6	-34.1	12.8	1.76e-03	0	44	102	1048576	21	5338
2026-01-07 00:52:46.54	238.59	49.94	-30.6	-33.8	12.9	6.40e-05	0	44	102	1048576	21	5249
2026-01-07 00:52:47.54	238.24	49.66	-30.7	-34.1	12.7	3.20e-05	0	44	102	1048576	21	5366
2026-01-07 00:52:48.54	237.90	49.38	-30.6	-33.8	12.9	1.45e-03	0	43	102	1048576	21	5237
2026-01-07 00:52:49.55	237.57	49.09	-30.5	-33.6	13.0	2.97e-05	0	43	102	1048576	21	5171
2026-01-07 00:52:50.55	237.24	48.81	-30.7	-34.3	12.6	7.85e-05	0	44	102	1048576	21	5446
2026-01-07 00:52:51.56	236.92	48.53	-31.0	-35.1	12.0	7.29e-04	0	44	102	1048576	21	5770
2026-01-07 00:52:52.56	236.60	48.25	-30.8	-34.1	12.3	4.55e-04	0	44	102	1048576	22	5269
2026-01-07 00:52:53.56	236.29	47.97	-30.7	-34.2	12.7	8.23e-05	0	44	102	1048576	21	5411
2026-01-07 00:52:54.57	235.98	47.69	-30.6	-34.0	12.8	6.63e-05	0	44	102	1048576	21	5327
2026-01-07 00:52:55.58	235.68	47.41	-30.6	-34.0	12.7	7.32e-05	0	44	102	1048576	21	5341
2026-01-07 00:52:56.59	235.39	47.14	-30.5	-33.7	13.0	4.42e-05	0	44	102	1048576	21	5190
2026-01-07 00:52:57.59	235.10	46.86	-30.3	-33.7	13.2	2.05e-05	0	44	102	1048576	20	5331
2026-01-07 00:52:58.59	234.81	46.59	-30.6	-34.0	12.7	2.36e-05	0	44	102	1048576	21	5339
2026-01-07 00:52:59.60	234.53	46.32	-30.7	-34.4	12.5	1.23e-04	0	43	102	1048576	21	5498
2026-01-07 00:53:00.61	234.26	46.04	-30.8	-34.6	12.3	1.15e-04	0	44	102	1048576	21	5585
2026-01-07 00:53:01.60	233.99	45.77	-30.8	-34.6	12.3	2.68e-04	0	44	102	1048576	21	5593
2026-01-07 00:53:02.61	233.72	45.50	-30.8	-34.6	12.3	1.16e-03	0	43	102	1048576	21	5595
2026-01-07 00:53:03.61	233.47	45.24	-30.8	-34.6	12.3	2.33e-04	0	44	102	1048576	21	5564
2026-01-07 00:53:04.62	233.21	44.97	-30.7	-34.5	12.4	1.53e-04	0	44	102	1048576	21	5524
2026-01-07 00:53:05.62	232.96	44.70	-30.9	-34.8	12.1	8.92e-04	0	44	102	1048576	21	5694
2026-01-07 00:53:06.63	232.71	44.43	-30.9	-35.1	12.0	2.72e-04	0	44	102	1048576	21	5789
2026-01-07 00:53:07.63	232.47	44.17	-31.1	-35.0	11.7	4.23e-04	0	44	102	1048576	22	5646
2026-01-07 00:53:08.64	232.22	43.91	-31.2	-35.4	11.4	9.10e-04	0	43	102	1048576	22	5842
2026-01-07 00:53:09.65	231.99	43.64	-31.4	-36.0	11.0	1.61e-03	0	44	102	1048576	22	6131
2026-01-07 00:53:10.66	231.75	43.38	-31.4	-35.6	10.9	2.98e-03	0	44	102	1048576	23	5816
2026-01-07 00:53:11.66	231.53	43.12	-31.3	-35.8	11.1	1.53e-03	0	44	102	1048576	22	6023
2026-01-07 00:53:12.67	231.30	42.86	-31.5	-36.3	10.8	1.81e-03	0	44	102	1048576	22	6243
2026-01-07 00:53:13.68	231.08	42.60	-31.7	-36.5	10.2	3.91e-03	0	44	102	1048576	23	6247
2026-01-07 00:53:14.68	230.86	42.35	-31.6	-36.1	10.5	6.02e-03	0	44	102	1048576	23	6064
2026-01-07 00:53:15.68	230.65	42.10	-31.4	-35.6	10.9	2.71e-03	0	43	102	1048576	23	5832
2026-01-07 00:53:16.69	230.44	41.84	-31.6	-36.2	10.4	4.00e-03	0	44	102	1048576	23	6130
2026-01-07 00:53:17.70	230.23	41.59	-31.7	-36.4	10.3	6.20e-03	0	44	102	1048576	23	6237
2026-01-07 00:53:18.70	230.03	41.34	-31.9	-37.2	9.7	7.52e-03	0	44	102	1048576	23	6663
2026-01-07 00:53:19.71	229.83	41.09	-32.0	-37.2	9.3	1.76e-02	0	43	102	1048576	24	6537
2026-01-07 00:53:20.72	229.63	40.84	-32.2	-37.8	8.7	2.73e-02	0	43	102	1048576	24	6883
2026-01-07 00:53:21.72	229.43	40.60	-32.3	-38.5	8.2	3.96e-02	0	44	102	1048576	24	7361
2026-01-07 00:53:22.73	229.24	40.35	-32.4	-38.8	8.2	6.85e-02	0	44	102	1048576	24	7544
2026-01-07 00:53:23.73	229.05	40.11	-32.4	-39.1	7.8	7.33e-02	0	44	102	1048576	24	7716
2026-01-07 00:53:24.74	228.87	39.86	-32.4	-38.5	7.8	1.04e-01	0	43	102	1048576	25	7264
2026-01-07 00:53:25.75	228.68	39.62	-32.2	-38.0	8.5	7.90e-02	0	44	102	1048576	24	7046
2026-01-07 00:53:26.76	228.50	39.38	-32.0	-37.4	9.2	2.34e-02	0	44	102	1048576	24	6650
2026-01-07 00:53:27.76	228.33	39.14	-31.9	-36.6	9.7	1.57e-02	0	43	102	1048576	24	6250
2026-01-07 00:53:28.77	228.15	38.90	-31.7	-36.7	10.0	9.80e-03	0	43	102	1048576	23	6385
2026-01-07 00:53:29.78	227.98	38.67	-31.7	-36.7	10.0	1.09e-02	0	44	102	1048576	23	6394
2026-01-07 00:53:30.79	227.81	38.43	-31.8	-36.8	9.9	9.25e-03	0	43	102	1048576	23	6436
2026-01-07 00:53:31.80	227.64	38.20	-31.8	-36.9	9.8	1.07e-02	0	44	102	1048576	23	6486
2026-01-07 00:53:32.80	227.47	37.96	-31.7	-36.6	10.0	1.02e-02	0	44	102	1048576	23	6334
2026-01-07 00:53:33.81	227.31	37.73	-31.7	-36.7	9.9	9.14e-03	0	43	102	1048576	23	6368
2026-01-07 00:53:34.82	227.15	37.50	-31.6	-36.4	10.2	7.19e-03	0	44	102	1048576	23	6253
2026-01-07 00:53:35.83	226.99	37.27	-31.6	-36.4	10.2	8.50e-03	0	44	102	1048576	23	6220
2026-01-07 00:53:36.83	226.84	37.05	-31.3	-35.2	11.1	2.98e-03	0	43	102	1048576	23	5663
2026-01-07 00:53:37.84	226.68	36.82	-31.3	-35.7	11.1	1.41e-03	0	43	102	1048576	22	5964
2026-01-07 00:53:38.84	226.53	36.60	-31.1	-35.0	11.5	1.34e-03	0	44	102	1048576	22	5657
2026-01-07 00:53:39.85	226.38	36.37	-31.0	-34.7	11.8	3.88e-04	0	44	102	1048576	22	5522
2026-01-07 00:53:40.86	226.23	36.15	-30.8	-34.6	12.2	2.77e-04	0	44	102	1048576	21	5591
2026-01-07 00:53:41.86	226.09	35.93	-30.8	-34.8	12.0	2.25e-04	0	43	102	1048576	21	5681
2026-01-07 00:53:42.87	225.94	35.71	-30.7	-34.3	12.4	1.84e-04	0	43	102	1048576	21	5459
2026-01-07 00:53:43.87	225.80	35.50	-30.6	-34.0	12.6	1.72e-03	0	44	102	1048576	21	5356
2026-01-07 00:53:44.88	225.66	35.28	-30.6	-34.2	12.4	1.20e-04	0	44	102	1048576	21	5417
2026-01-07 00:53:45.89	225.52	35.06	-30.9	-34.9	12.0	2.73e-04	0	44	102	1048576	21	5731
2026-01-07 00:53:46.89	225.39	34.85	-30.8	-34.8	12.0	2.55e-03	0	44	102	1048576	21	5681
2026-01-07 00:53:47.90	225.25	34.64	-31.0	-35.3	11.7	2.39e-03	0	44	102	1048576	21	5904
2026-01-07 00:53:48.91	225.12	34.42	-30.8	-34.8	12.0	5.13e-04	0	44	102	1048576	21	5685
2026-01-07 00:53:49.91	224.99	34.21	-30.6	-34.2	12.4	2.25e-03	0	44	102	1048576	21	5450
2026-01-07 00:53:50.92	224.86	34.00	-30.5	-34.0	12.5	2.10e-03	0	44	102	1048576	21	5350
2026-01-07 00:53:51.92	224.74	33.80	-30.6	-34.0	12.6	8.62e-05	0	44	102	1048576	21	5356
2026-01-07 00:53:52.93	224.61	33.59	-30.7	-34.5	12.2	1.96e-03	0	44	102	1048576	21	5545
2026-01-07 00:53:53.94	224.49	33.38	-30.6	-34.2	12.4	2.09e-03	0	44	102	1048576	21	5421
2026-01-07 00:53:54.95	224.36	33.18	-30.6	-34.3	12.4	1.33e-04	0	44	102	1048576	21	5482
2026-01-07 00:53:55.95	224.24	32.98	-30.8	-34.9	12.0	2.26e-03	0	43	102	1048576	21	5731
2026-01-07 00:53:56.96	224.12	32.77	-31.1	-35.2	11.4	2.79e-03	0	44	102	1048576	22	5777
2026-01-07 00:53:57.96	224.01	32.58	-31.2	-35.7	11.0	1.35e-03	0	44	102	1048576	22	5986
2026-01-07 00:53:58.97	223.89	32.38	-31.5	-36.4	10.5	3.71e-03	0	44	102	1048576	22	6332
2026-01-07 00:53:59.98	223.77	32.18	-31.4	-36.2	10.6	5.58e-03	0	44	102	1048576	22	6248
2026-01-07 00:54:00.99	223.66	31.98	-31.4	-36.3	10.5	3.20e-03	0	43	102	1048576	22	6316
2026-01-07 00:54:02.00	223.55	31.78	-31.5	-36.0	10.4	5.72e-03	0	44	102	1048576	23	6059
2026-01-07 00:54:02.99	223.44	31.59	-31.6	-36.5	10.0	9.09e-03	0	44	102	1048576	23	6310
2026-01-07 00:54:04.00	223.33	31.40	-31.5	-35.8	10.5	5.92e-03	0	43	102	1048576	23	5966
2026-01-07 00:54:05.01	223.22	31.20	-31.5	-36.1	10.3	6.27e-03	0	44	102	1048576	23	6114
2026-01-07 00:54:06.02	223.11	31.01	-31.6	-36.6	9.9	8.98e-03	0	43	102	1048576	23	6354
2026-01-07 00:54:07.02	223.01	30.82	-31.5	-36.0	10.3	6.29e-03	0	44	102	1048576	23	6061
2026-01-07 00:54:08.03	222.90	30.63	-31.3	-36.0	10.7	5.71e-03	0	44	102	1048576	22	6142
2026-01-07 00:54:09.03	222.80	30.45	-31.5	-36.5	10.4	4.58e-03	0	44	102	1048576	22	6388
2026-01-07 00:54:10.04	222.70	30.26	-31.4	-36.2	10.6	3.62e-03	0	44	102	1048576	22	6255
2026-01-07 00:54:11.04	222.60	30.07	-31.3	-35.8	10.8	4.34e-03	0	44	102	1048576	22	6071
2026-01-07 00:54:12.05	222.50	29.89	-31.2	-35.6	11.0	3.46e-03	0	44	102	1048576	22	5967
2026-01-07 00:54:13.06	222.40	29.70	-31.3	-35.8	10.9	2.20e-03	0	44	102	1048576	22	6048
2026-01-07 00:54:14.07	222.30	29.52	-31.3	-35.9	10.8	4.08e-03	0	44	102	1048576	22	6112
2026-01-07 00:54:15.07	222.21	29.34	-31.4	-36.2	10.6	5.08e-03	0	43	102	1048576	22	6254
2026-01-07 00:54:16.07	222.11	29.16	-31.4	-36.1	10.7	3.18e-03	0	44	102	1048576	22	6189
2026-01-07 00:54:17.08	222.02	28.98	-31.3	-36.0	10.7	2.74e-03	0	44	102	1048576	22	6165
2026-01-07 00:54:18.08	221.93	28.81	-31.4	-36.1	10.7	5.24e-03	0	44	102	1048576	22	6214
2026-01-07 00:54:19.09	221.84	28.63	-31.4	-35.9	10.4	4.31e-03	0	44	102	1048576	23	6005
2026-01-07 00:54:20.10	221.74	28.45	-31.3	-36.0	10.7	3.80e-03	0	44	102	1048576	22	6178
2026-01-07 00:54:21.11	221.65	28.28	-31.4	-36.2	10.6	5.78e-03	0	44	102	1048576	22	6254
2026-01-07 00:54:22.11	221.57	28.10	-31.2	-35.5	11.1	3.20e-03	0	44	102	1048576	22	5933
2026-01-07 00:54:23.12	221.48	27.93	-31.0	-35.1	11.4	1.19e-03	0	44	102	1048576	22	5720
2026-01-07 00:54:24.12	221.39	27.76	-31.0	-34.8	11.6	8.11e-04	0	44	102	1048576	22	5592
2026-01-07 00:54:25.13	221.31	27.59	-30.8	-34.4	11.8	9.73e-04	0	43	102	1048576	22	5455
2026-01-07 00:54:26.14	221.22	27.42	-30.9	-35.1	11.7	5.92e-04	0	44	102	1048576	21	5834
2026-01-07 00:54:27.15	221.14	27.25	-30.7	-34.5	12.0	3.78e-04	0	44	102	1048576	21	5583
2026-01-07 00:54:28.15	221.05	27.08	-30.5	-34.0	12.4	2.18e-04	0	43	102	1048576	21	5375
2026-01-07 00:54:29.16	220.97	26.91	-30.5	-33.9	12.5	1.43e-04	0	43	102	1048576	21	5335
2026-01-07 00:54:30.17	220.89	26.74	-30.6	-34.2	12.3	1.58e-04	0	44	102	1048576	21	5450
2026-01-07 00:54:31.17	220.81	26.58	-30.5	-34.0	12.3	1.88e-04	0	44	102	1048576	21	5390
2026-01-07 00:54:32.18	220.73	26.41	-30.6	-34.4	12.2	2.08e-04	0	44	102	1048576	21	5534
2026-01-07 00:54:33.18	220.65	26.25	-30.7	-34.6	12.0	2.82e-04	0	44	102	1048576	21	5622
2026-01-07 00:54:34.18	220.58	26.09	-30.7	-34.8	11.8	3.94e-04	0	43	102	1048576	21	5712
2026-01-07 00:54:35.19	220.50	25.93	-30.9	-35.2	11.5	7.39e-04	0	44	102	1048576	21	5910
2026-01-07 00:54:36.19	220.42	25.77	-30.8	-34.9	11.7	4.90e-04	0	44	102	1048576	21	5764
2026-01-07 00:54:37.20	220.35	25.61	-30.8	-34.8	11.8	4.90e-04	0	44	102	1048576	21	5740
2026-01-07 00:54:38.20	220.27	25.45	-30.7	-34.7	11.8	7.22e-04	0	44	102	1048576	21	5699
2026-01-07 00:54:39.20	220.20	25.29	-30.7	-34.6	11.9	3.70e-04	0	44	102	1048576	21	5639
2026-01-07 00:54:40.20	220.13	25.14	-30.6	-34.5	11.9	3.67e-04	0	44	102	1048576	21	5599
2026-01-07 00:54:41.21	220.06	24.98	-30.5	-34.0	12.3	5.82e-04	0	44	102	1048576	21	5409
2026-01-07 00:54:42.21	219.98	24.83	-30.5	-34.0	12.3	5.39e-04	0	44	102	1048576	21	5399
2026-01-07 00:54:43.22	219.91	24.67	-30.5	-34.0	12.3	1.61e-04	0	44	102	1048576	21	5381
2026-01-07 00:54:44.22	219.84	24.52	-29.7	-33.3	12.1	2.04e-04	0	44	102	1048576	21	5445
2026-01-07 00:54:45.23	219.77	24.37	-30.4	-34.2	12.4	6.23e-04	0	44	102	1048576	20	5564
2026-01-07 00:54:46.24	219.70	24.21	-30.4	-34.2	11.8	1.46e-04	0	44	102	1048576	20	5602
2026-01-07 00:54:47.24	219.64	24.06	-30.4	-34.1	11.4	8.92e-05	0	44	102	1048576	20	5559
2026-01-07 00:54:48.24	219.57	23.91	-30.4	-34.3	12.3	7.44e-04	0	44	102	1048576	20	5621
2026-01-07 00:54:49.25	219.50	23.76	-30.4	-34.3	12.4	1.33e-04	0	44	102	1048576	20	5614
2026-01-07 00:54:50.26	219.44	23.61	-30.4	-34.3	11.8	1.16e-04	0	44	102	1048576	20	5641
2026-01-07 00:54:51.26	219.37	23.47	-30.6	-34.4	12.0	2.37e-04	0	44	102	1048576	21	5548
2026-01-07 00:54:52.28	219.31	23.32	-30.5	-34.1	12.2	3.01e-03	0	44	102	1048576	21	5449
2026-01-07 00:54:53.28	219.24	23.17	-30.5	-34.1	12.2	2.29e-04	0	44	102	1048576	21	5425
2026-01-07 00:54:54.28	219.18	23.03	-30.6	-34.3	12.0	3.13e-04	0	44	102	1048576	21	5526
2026-01-07 00:54:55.29	219.12	22.88	-30.5	-34.4	12.3	2.41e-04	0	44	102	1048576	20	5686
2026-01-07 00:54:56.30	219.05	22.74	-30.4	-34.3	12.4	2.71e-03	0	44	102	1048576	20	5647
2026-01-07 00:54:57.31	218.99	22.60	-30.3	-34.1	12.5	1.33e-04	0	44	102	1048576	20	5559
2026-01-07 00:54:58.31	218.93	22.45	-30.3	-34.1	12.5	1.37e-04	0	44	102	1048576	20	5556
2026-01-07 00:54:59.32	218.87	22.31	-30.2	-33.8	12.7	2.35e-03	0	43	102	1048576	20	5434
2026-01-07 00:55:00.33	218.81	22.17	-30.5	-34.5	12.2	1.19e-04	0	44	102	1048576	20	5726
2026-01-07 00:55:01.34	218.75	22.03	-30.5	-34.0	12.2	3.09e-04	0	44	102	1048576	21	5408
2026-01-07 00:55:02.34	218.69	21.89	-30.1	-33.4	13.0	1.98e-03	0	44	102	1048576	20	5251
2026-01-07 00:55:03.35	218.63	21.75	-29.9	-32.9	13.3	4.09e-04	0	44	102	1048576	20	5069
2026-01-07 00:55:04.35	218.58	21.61	-29.8	-32.9	13.7	7.60e-06	0	44	102	1048576	19	5179
2026-01-07 00:55:05.36	218.52	21.48	-29.7	-32.9	13.7	4.50e-06	0	44	102	1048576	19	5164
2026-01-07 00:55:06.37	218.46	21.34	-29.8	-33.0	13.6	3.62e-04	0	43	102	1048576	19	5202
2026-01-07 00:55:07.38	218.41	21.20	-29.8	-33.1	13.6	9.10e-06	0	44	102	1048576	19	5245
2026-01-07 00:55:08.39	218.35	21.07	-29.8	-33.1	13.5	6.10e-06	0	44	102	1048576	19	5248
2026-01-07 00:55:09.40	218.29	20.93	-29.8	-33.1	13.5	3.48e-04	0	43	102	1048576	19	5269
2026-01-07 00:55:10.40	218.24	20.80	-29.1	-32.6	13.2	5.68e-04	0	43	102	1048576	19	5376
2026-01-07 00:55:11.41	218.19	20.67	-29.9	-33.4	13.2	2.05e-05	0	44	102	1048576	19	5371
2026-01-07 00:55:12.42	218.13	20.53	-30.1	-33.5	12.9	3.45e-04	0	44	102	1048576	20	5316
2026-01-07 00:55:13.42	218.08	20.40	-30.2	-33.7	12.7	1.75e-04	0	44	102	1048576	20	5419
2026-01-07 00:55:14.42	218.03	20.27	-30.1	-33.5	12.6	1.17e-04	0	44	102	1048576	20	5307
2026-01-07 00:55:15.42	217.98	20.14	-30.2	-33.9	12.6	2.73e-04	0	44	102	1048576	20	5477
2026-01-07 00:55:16.43	217.92	20.01	-30.2	-33.8	12.6	1.32e-04	0	43	102	1048576	20	5432
2026-01-07 00:55:17.44	217.87	19.88	-30.2	-33.7	12.7	8.31e-05	0	44	102	1048576	20	5406
2026-01-07 00:55:18.44	217.82	19.75	-30.2	-33.8	12.6	8.01e-05	0	44	102	1048576	20	5433
2026-01-07 00:55:19.45	217.77	19.63	-30.2	-33.8	12.6	1.88e-04	0	44	102	1048576	20	5456
2026-01-07 00:55:20.46	217.72	19.50	-30.2	-33.8	12.6	3.11e-04	0	44	102	1048576	20	5434
2026-01-07 00:55:21.47	217.67	19.37	-30.2	-33.6	12.7	1.90e-04	0	43	102	1048576	20	5381
2026-01-07 00:55:22.47	217.62	19.25	-30.1	-33.6	12.7	5.87e-04	0	43	102	1048576	20	5354
2026-01-07 00:55:23.48	217.57	19.12	-30.1	-33.5	12.8	8.77e-05	0	44	102	1048576	20	5333
2026-01-07 00:55:24.49	217.53	19.00	-30.1	-33.6	12.7	1.94e-04	0	44	102	1048576	20	5349
2026-01-07 00:55:25.50	217.48	18.87	-30.1	-33.6	12.7	4.09e-04	0	44	102	1048576	20	5378
2026-01-07 00:55:26.51	217.43	18.75	-30.2	-33.9	12.5	2.27e-04	0	43	102	1048576	20	5490
2026-01-07 00:55:27.51	217.38	18.62	-30.2	-33.9	12.5	3.13e-04	0	43	102	1048576	20	5508
2026-01-07 00:55:28.52	217.34	18.50	-30.1	-33.7	12.6	4.65e-04	0	44	102	1048576	20	5411
2026-01-07 00:55:29.52	217.29	18.38	-30.3	-34.1	12.3	1.07e-03	0	44	102	1048576	20	5584
2026-01-07 00:55:30.53	217.24	18.26	-30.3	-34.1	12.3	4.12e-04	0	43	102	1048576	20	5578
2026-01-07 00:55:31.54	217.20	18.14	-30.1	-33.6	12.6	1.44e-03	0	44	102	1048576	20	5398
2026-01-07 00:55:32.55	217.15	18.02	-30.2	-33.8	12.5	3.51e-04	0	44	102	1048576	20	5464
2026-01-07 00:55:33.55	217.11	17.90	-30.1	-33.7	12.6	3.17e-04	0	44	102	1048576	20	5415
2026-01-07 00:55:34.55	217.07	17.78	-30.2	-33.9	12.4	1.68e-03	0	43	102	1048576	20	5507
2026-01-07 00:55:35.56	217.02	17.66	-30.2	-33.9	12.4	4.20e-04	0	44	102	1048576	20	5493
2026-01-07 00:55:36.56	216.98	17.54	-30.1	-33.6	12.6	3.11e-04	0	44	102	1048576	20	5363
2026-01-07 00:55:37.57	216.93	17.43	-30.0	-33.4	12.8	1.51e-03	0	44	102	1048576	20	5282
2026-01-07 00:55:38.58	216.89	17.31	-30.0	-33.4	12.7	3.94e-04	0	44	102	1048576	20	5310
2026-01-07 00:55:39.59	216.85	17.19	-30.1	-33.5	12.6	1.04e-04	0	44	102	1048576	20	5357
2026-01-07 00:55:40.59	216.81	17.08	-30.1	-33.5	12.7	1.32e-03	0	44	102	1048576	20	5341
2026-01-07 00:55:41.60	216.76	16.96	-30.1	-33.6	12.6	7.35e-04	0	44	102	1048576	20	5384
2026-01-07 00:55:42.60	216.72	16.85	-30.1	-33.5	12.6	9.84e-05	0	44	102	1048576	20	5346
2026-01-07 00:55:43.61	216.68	16.73	-30.2	-33.8	12.4	3.27e-04	0	44	102	1048576	20	5461
2026-01-07 00:55:44.62	216.64	16.62	-30.2	-33.8	12.4	5.53e-04	0	44	102	1048576	20	5480
2026-01-07 00:55:45.63	216.60	16.51	-30.0	-33.4	12.7	1.03e-04	0	44	102	1048576	20	5319
2026-01-07 00:55:46.63	216.56	16.39	-30.0	-33.2	12.8	2.31e-04	0	44	102	1048576	20	5240
2026-01-07 00:55:47.65	216.52	16.28	-30.0	-33.4	12.7	6.55e-04	0	44	102	1048576	20	5301
2026-01-07 00:55:48.66	216.48	16.17	-30.0	-33.4	12.7	7.32e-05	0	44	102	1048576	20	5285
2026-01-07 00:55:49.66	216.44	16.06	-30.0	-33.4	12.7	2.09e-04	0	44	102	1048576	20	5304
2026-01-07 00:55:50.67	216.40	15.95	-30.0	-33.4	12.7	2.59e-04	0	44	102	1048576	20	5294
2026-01-07 00:55:51.68	216.36	15.84	-30.0	-33.2	12.8	7.24e-05	0	44	102	1048576	20	5243
2026-01-07 00:55:52.68	216.33	15.73	-30.0	-33.2	12.8	8.23e-05	0	44	102	1048576	20	5221
2026-01-07 00:55:53.69	216.29	15.62	-30.0	-33.4	12.6	1.17e-04	0	44	102	1048576	20	5308
2026-01-07 00:55:54.70	216.25	15.51	-30.0	-33.3	12.7	8.31e-05	0	44	102	1048576	20	5257
2026-01-07 00:55:55.71	216.21	15.40	-30.0	-33.5	12.6	7.32e-05	0	44	102	1048576	20	5331
2026-01-07 00:55:56.72	216.18	15.29	-30.2	-34.0	12.2	1.52e-04	0	43	102	1048576	20	5570
2026-01-07 00:55:57.72	216.14	15.19	-30.2	-33.8	12.3	2.82e-04	0	44	102	1048576	20	5467
2026-01-07 00:55:58.72	216.10	15.08	-30.2	-33.9	12.2	1.52e-04	0	44	102	1048576	20	5544
2026-01-07 00:55:59.73	216.07	14.97	-30.4	-34.6	11.8	3.55e-04	0	44	102	1048576	20	5826
2026-01-07 00:56:00.74	216.03	14.87	-30.3	-33.8	11.9	5.75e-04	0	44	102	1048576	21	5374
2026-01-07 00:56:01.75	215.99	14.76	-30.3	-34.3	12.0	3.23e-04	0	43	102	1048576	20	5689
2026-01-07 00:56:02.75	215.96	14.66	-30.3	-34.3	11.9	3.69e-04	0	43	102	1048576	20	5682
2026-01-07 00:56:03.76	215.92	14.55	-30.3	-34.3	12.0	3.23e-04	0	44	102	1048576	20	5703
2026-01-07 00:56:04.76	215.89	14.45	-30.4	-34.6	11.7	4.99e-04	0	44	102	1048576	20	5827
2026-01-07 00:56:05.77	215.85	14.34	-30.4	-34.6	11.7	5.45e-04	0	44	102	1048576	20	5853
2026-01-07 00:56:06.78	215.82	14.24	-30.4	-34.5	11.2	5.55e-04	0	43	102	1048576	20	5767
2026-01-07 00:56:07.78	215.79	14.14	-30.3	-34.3	11.3	4.56e-04	0	44	102	1048576	20	5698
2026-01-07 00:56:08.79	215.75	14.03	-30.2	-34.0	12.1	2.55e-04	0	44	102	1048576	20	5580
2026-01-07 00:56:09.80	215.72	13.93	-30.2	-34.0	12.1	2.52e-04	0	44	102	1048576	20	5582
2026-01-07 00:56:10.81	215.68	13.83	-30.2	-34.0	12.1	2.94e-04	0	43	102	1048576	20	5594
2026-01-07 00:56:11.81	215.65	13.73	-30.3	-34.4	11.8	4.12e-04	0	44	102	1048576	20	5757
2026-01-07 00:56:12.81	215.62	13.63	-30.3	-34.3	11.9	4.62e-04	0	44	102	1048576	20	5703
2026-01-07 00:56:13.82	215.59	13.53	-30.3	-34.4	11.8	4.28e-04	0	44	102	1048576	20	5757
2026-01-07 00:56:14.82	215.55	13.43	-30.3	-34.4	11.8	4.90e-04	0	44	102	1048576	20	5736
2026-01-07 00:56:15.83	215.52	13.33	-30.3	-34.5	11.7	5.62e-04	0	44	102	1048576	20	5790
2026-01-07 00:56:16.83	215.49	13.23	-30.4	-34.8	11.5	6.69e-04	0	43	102	1048576	20	5934
2026-01-07 00:56:17.83	215.46	13.13	-30.4	-34.6	11.6	8.84e-04	0	43	102	1048576	20	5862
2026-01-07 00:56:18.84	215.43	13.03	-30.3	-34.5	11.7	2.35e-03	0	44	102	1048576	20	5802
2026-01-07 00:56:19.84	215.40	12.94	-30.4	-34.6	11.6	6.78e-04	0	44	102	1048576	20	5837
2026-01-07 00:56:20.84	215.37	12.84	-30.3	-34.5	11.7	5.68e-04	0	44	102	1048576	20	5805
2026-01-07 00:56:21.85	215.33	12.74	-30.4	-34.7	11.5	2.45e-03	0	44	102	1048576	20	5906
2026-01-07 00:56:22.86	215.30	12.65	-30.3	-34.4	11.7	2.38e-03	0	44	102	1048576	20	5766
2026-01-07 00:56:23.87	215.27	12.55	-30.3	-34.4	11.7	4.79e-04	0	43	102	1048576	20	5767
2026-01-07 00:56:24.87	215.24	12.45	-30.4	-34.6	11.6	2.26e-03	0	44	102	1048576	20	5833
2026-01-07 00:56:25.88	215.21	12.36	-30.4	-34.6	11.6	2.50e-03	0	44	102	1048576	20	5837
2026-01-07 00:56:26.89	215.18	12.26	-30.4	-34.7	11.5	7.59e-04	0	43	102	1048576	20	5912
2026-01-07 00:56:27.89	215.15	12.17	-30.4	-34.6	11.5	9.77e-04	0	44	102	1048576	20	5859
2026-01-07 00:56:28.89	215.12	12.07	-30.4	-34.6	11.6	2.43e-03	0	43	102	1048576	20	5844
2026-01-07 00:56:29.90	215.10	11.98	-30.4	-34.7	11.4	8.06e-04	0	44	102	1048576	20	5921
2026-01-07 00:56:30.91	215.07	11.88	-30.3	-34.5	11.5	8.31e-04	0	44	102	1048576	20	5836
2026-01-07 00:56:31.91	215.04	11.79	-30.3	-34.5	11.6	2.11e-03	0	44	102	1048576	20	5820
2026-01-07 00:56:32.92	215.01	11.70	-30.4	-34.8	11.4	8.46e-04	0	44	102	1048576	20	5941
2026-01-07 00:56:33.92	214.98	11.60	-30.3	-34.5	11.6	1.97e-03	0	43	102	1048576	20	5811
2026-01-07 00:56:34.93	214.95	11.51	-30.4	-34.7	11.5	1.79e-03	0	44	102	1048576	20	5896
2026-01-07 00:56:35.93	214.93	11.42	-30.4	-34.7	11.4	1.04e-03	0	44	102	1048576	20	5922
2026-01-07 00:56:36.94	214.90	11.33	-30.4	-34.9	11.3	1.52e-03	0	44	102	1048576	20	5999
2026-01-07 00:56:37.95	214.87	11.24	-30.4	-34.8	11.3	1.03e-03	0	44	102	1048576	20	5944
2026-01-07 00:56:38.96	214.84	11.14	-30.5	-35.1	11.1	1.28e-03	0	44	102	1048576	20	6094
2026-01-07 00:56:39.97	214.82	11.05	-30.5	-34.6	11.1	1.75e-03	0	43	102	1048576	21	5782
2026-01-07 00:56:40.98	214.79	10.96	-30.6	-34.9	10.9	2.08e-03	0	44	102	1048576	21	5908
2026-01-07 00:56:41.98	214.76	10.87	-30.6	-34.8	10.9	2.57e-03	0	44	102	1048576	21	5892
2026-01-07 00:56:42.99	214.74	10.78	-30.5	-34.8	10.9	2.20e-03	0	43	102	1048576	21	5853
2026-01-07 00:56:44.00	214.71	10.69	-30.6	-35.0	10.8	2.30e-03	0	44	102	1048576	21	5946
2026-01-07 00:56:45.00	214.68	10.60	-30.7	-35.3	10.6	3.25e-03	0	44	102	1048576	21	6096
2026-01-07 00:56:46.01	214.66	10.51	-30.6	-35.1	10.7	3.12e-03	0	44	102	1048576	21	6018
2026-01-07 00:56:47.02	214.63	10.43	-30.8	-35.6	10.3	4.06e-03	0	44	102	1048576	21	6254
2026-01-07 00:56:48.03	214.60	10.34	-30.7	-35.2	10.6	3.72e-03	0	44	102	1048576	21	6078
2026-01-07 00:56:49.03	214.58	10.25	-30.6	-35.0	10.7	3.41e-03	0	44	102	1048576	21	5975
2026-01-07 00:56:50.04	214.55	10.16	-30.7	-35.2	10.6	3.41e-03	0	44	102	1048576	21	6085
2026-01-07 00:56:51.05	214.53	10.07	-30.7	-35.3	10.5	4.19e-03	0	44	102	1048576	21	6096
2026-01-07 00:56:52.06	214.50	9.99	-30.7	-35.3	10.5	3.88e-03	0	44	102	1048576	21	6134
2026-01-07 00:56:53.07	214.48	9.90	-30.7	-35.4	10.4	4.55e-03	0	43	102	1048576	21	6186
2026-01-07 00:56:54.07	214.45	9.81	-30.7	-35.4	10.4	4.54e-03	0	43	102	1048576	21	6180
2026-01-07 00:56:55.08	214.43	9.73	-30.7	-35.4	10.4	4.40e-03	0	44	102	1048576	21	6157
2026-01-07 00:56:56.09	214.40	9.64	-30.7	-35.5	10.3	4.30e-03	0	43	102	1048576	21	6220
2026-01-07 00:56:57.10	214.38	9.55	-30.8	-35.7	10.2	5.42e-03	0	44	102	1048576	21	6307
2026-01-07 00:56:58.10	214.36	9.47	-30.9	-36.0	9.9	8.48e-03	0	43	102	1048576	21	6513
2026-01-07 00:56:59.11	214.33	9.38	-30.9	-36.0	9.9	9.09e-03	0	44	102	1048576	21	6495
2026-01-07 00:57:00.12	214.31	9.30	-30.9	-36.3	9.7	1.13e-02	0	44	102	1048576	21	6649
2026-01-07 00:57:01.13	214.29	9.21	-30.9	-36.1	9.8	1.13e-02	0	44	102	1048576	21	6569
2026-01-07 00:57:02.14	214.26	9.13	-30.9	-36.2	9.7	1.02e-02	0	44	102	1048576	21	6589
2026-01-07 00:57:03.14	214.24	9.05	-30.9	-36.1	9.8	1.01e-02	0	44	102	1048576	21	6550
2026-01-07 00:57:04.14	214.22	8.96	-30.8	-35.9	10.0	9.86e-03	0	43	102	1048576	21	6437
2026-01-07 00:57:05.15	214.19	8.88	-31.0	-36.3	9.6	1.19e-02	0	44	102	1048576	21	6695
