passes_logs/2026/01/07/R2M6_AANII_01/R2M6_AANII_01__20260107_030535_FENGYUN_3D_rec.log

#Pass ID: 20260107_030535_FENGYUN 3D
#Satellite: FENGYUN 3D
#Configuration: FENGYUN 3D
#almurnet v.1.7.20240730
#Start time: 2026-01-07 03:05:34

#Version: 2.2.20231116
#Station: R2M6_AANII_01
#Location: 30.233357 lon 59.946436 lat
#TLE: 1 43010U 17072A   26006.26440730  .00000376  00000+0  19957-3 0  9994
#TLE: 2 43010  98.9925 337.9455 0002045 123.9195 236.2175 14.19693586422016

#Time	Az	El	Level	Level2	SNR	BER	BlckErr	Temp	State	Recorded	gain1	gain2
2026-01-07 03:05:34.88	15.46	6.95	-30.2	-34.2	5.1	8.01e-01	0	41	0	0	20	5726
2026-01-07 03:05:35.88	15.43	7.02	-30.4	-35.0	5.0	8.05e-01	0	41	104	0	20	6093
2026-01-07 03:05:36.89	15.40	7.10	-30.4	-35.0	7.6	8.57e-02	0	41	0	0	20	6119
2026-01-07 03:05:37.89	15.37	7.18	-30.2	-34.2	8.2	6.30e-02	0	41	102	1048576	20	5715
2026-01-07 03:05:38.90	15.33	7.25	-30.4	-34.8	7.8	6.15e-02	0	41	102	1048576	20	5994
2026-01-07 03:05:39.91	15.30	7.33	-30.2	-34.3	8.2	5.24e-02	0	41	102	1048576	20	5732
2026-01-07 03:05:40.91	15.27	7.41	-30.0	-33.5	8.8	3.66e-02	0	41	102	1048576	20	5379
2026-01-07 03:05:41.92	15.24	7.48	-29.9	-33.2	9.0	2.34e-02	0	41	102	1048576	20	5282
2026-01-07 03:05:42.92	15.20	7.56	-29.7	-33.2	9.5	1.42e-02	0	41	102	1048576	19	5351
2026-01-07 03:05:43.93	15.17	7.64	-29.8	-33.4	9.3	1.37e-02	0	41	102	1048576	19	5441
2026-01-07 03:05:44.94	15.13	7.71	-30.3	-34.4	8.2	2.88e-02	0	41	102	1048576	20	5770
2026-01-07 03:05:45.95	15.10	7.79	-29.9	-33.2	9.0	3.53e-02	0	41	102	1048576	20	5280
2026-01-07 03:05:46.95	15.07	7.87	-29.6	-32.8	9.8	1.73e-02	0	41	102	1048576	19	5188
2026-01-07 03:05:47.96	15.03	7.95	-29.2	-31.6	10.6	5.67e-03	0	41	102	1048576	19	4746
2026-01-07 03:05:48.97	15.00	8.03	-28.6	-31.0	11.6	1.55e-03	0	41	102	1048576	17	4781
2026-01-07 03:05:49.98	14.96	8.11	-28.2	-30.6	12.2	4.94e-04	0	41	102	1048576	16	4739
2026-01-07 03:05:50.99	14.93	8.19	-27.8	-29.6	12.8	1.22e-04	0	41	102	1048576	16	4434
2026-01-07 03:05:51.99	14.89	8.27	-27.3	-29.1	13.2	5.14e-05	0	41	102	1048576	15	4412
2026-01-07 03:05:53.00	14.85	8.35	-27.2	-29.2	13.5	1.60e-05	0	41	102	1048576	14	4534
2026-01-07 03:05:54.01	14.82	8.43	-27.4	-29.7	13.2	2.74e-05	0	41	102	1048576	14	4699
2026-01-07 03:05:55.02	14.78	8.51	-27.2	-29.3	13.5	2.17e-05	0	41	102	1048576	14	4573
2026-01-07 03:05:56.01	14.75	8.59	-27.2	-29.3	13.4	1.14e-05	0	42	102	1048576	14	4574
2026-01-07 03:05:57.02	14.71	8.67	-27.2	-29.2	13.5	1.94e-05	0	42	102	1048576	14	4547
2026-01-07 03:05:58.03	14.67	8.75	-27.2	-29.3	13.5	1.25e-05	0	42	102	1048576	14	4568
2026-01-07 03:05:59.03	14.64	8.83	-27.3	-29.5	13.3	2.86e-05	0	41	102	1048576	14	4640
2026-01-07 03:06:00.04	14.60	8.91	-27.3	-29.5	13.4	1.94e-05	0	41	102	1048576	14	4624
2026-01-07 03:06:01.04	14.56	8.99	-27.7	-30.0	12.8	5.60e-05	0	42	102	1048576	15	4684
2026-01-07 03:06:02.05	14.52	9.07	-27.3	-29.0	13.4	3.43e-05	0	42	102	1048576	15	4386
2026-01-07 03:06:03.05	14.49	9.15	-26.9	-28.7	13.9	5.70e-06	0	42	102	1048576	14	4387
2026-01-07 03:06:04.06	14.45	9.24	-26.7	-28.6	14.2	6.80e-06	0	42	102	1048576	13	4476
2026-01-07 03:06:05.07	14.41	9.32	-26.8	-28.8	14.1	2.20e-06	0	42	102	1048576	13	4523
2026-01-07 03:06:06.07	14.37	9.40	-27.0	-28.9	13.8	2.20e-06	0	42	102	1048576	14	4456
2026-01-07 03:06:07.08	14.33	9.49	-26.8	-28.3	14.1	3.40e-06	0	42	102	1048576	14	4288
2026-01-07 03:06:08.08	14.29	9.57	-26.7	-28.6	14.2	2.20e-06	0	42	102	1048576	13	4459
2026-01-07 03:06:09.09	14.25	9.65	-26.6	-28.4	14.4	4.50e-06	0	42	102	1048576	13	4413
2026-01-07 03:06:10.08	14.21	9.73	-26.6	-28.4	14.3	1.10e-06	0	42	102	1048576	13	4434
2026-01-07 03:06:11.09	14.17	9.82	-26.8	-28.7	14.2	2.20e-06	0	42	102	1048576	13	4518
2026-01-07 03:06:12.10	14.13	9.90	-26.6	-28.2	14.5	2.20e-06	0	42	102	1048576	13	4371
2026-01-07 03:06:13.11	14.09	9.99	-26.5	-28.2	14.5	1.10e-06	0	42	102	1048576	13	4367
2026-01-07 03:06:14.12	14.05	10.07	-26.6	-28.3	14.5	2.20e-06	0	42	102	1048576	13	4380
2026-01-07 03:06:15.12	14.01	10.16	-26.4	-28.0	14.6	2.20e-06	0	42	102	1048576	13	4311
2026-01-07 03:06:16.13	13.97	10.24	-26.3	-28.2	14.8	0.00e+00	0	42	102	1048576	12	4469
2026-01-07 03:06:17.14	13.93	10.33	-26.4	-28.3	14.7	1.10e-06	0	42	102	1048576	12	4512
2026-01-07 03:06:18.14	13.89	10.42	-26.6	-28.2	14.4	1.10e-06	0	42	102	1048576	13	4375
2026-01-07 03:06:19.15	13.85	10.50	-26.2	-27.4	14.7	0.00e+00	0	42	102	1048576	13	4128
2026-01-07 03:06:20.16	13.80	10.59	-26.1	-27.8	14.2	0.00e+00	0	42	102	1048576	12	4373
2026-01-07 03:06:21.16	13.76	10.68	-26.2	-28.0	11.5	2.01e-03	0	42	102	1048576	12	4418
2026-01-07 03:06:22.17	13.72	10.76	-26.3	-28.2	14.1	0.00e+00	0	42	102	1048576	12	4472
2026-01-07 03:06:23.17	13.68	10.85	-26.1	-27.7	15.1	0.00e+00	0	42	102	1048576	12	4338
2026-01-07 03:06:24.18	13.63	10.94	-26.2	-28.0	14.9	0.00e+00	0	42	102	1048576	12	4419
2026-01-07 03:06:25.19	13.59	11.03	-26.4	-28.5	14.7	1.10e-06	0	42	102	1048576	12	4545
2026-01-07 03:06:26.20	13.54	11.12	-26.3	-28.2	14.9	1.10e-06	0	42	102	1048576	12	4459
2026-01-07 03:06:27.20	13.50	11.20	-26.2	-28.0	14.9	0.00e+00	0	42	102	1048576	12	4424
2026-01-07 03:06:28.21	13.46	11.29	-26.2	-28.0	14.9	2.03e-03	0	42	102	1048576	12	4433
2026-01-07 03:06:29.22	13.41	11.38	-26.2	-27.9	15.0	0.00e+00	0	42	102	1048576	12	4372
2026-01-07 03:06:30.22	13.37	11.47	-26.3	-28.2	14.9	1.97e-03	0	42	102	1048576	12	4467
2026-01-07 03:06:31.23	13.32	11.56	-26.1	-27.8	15.1	0.00e+00	0	42	102	1048576	12	4348
2026-01-07 03:06:32.24	13.27	11.65	-26.1	-27.7	15.2	3.09e-04	0	42	102	1048576	12	4317
2026-01-07 03:06:33.24	13.23	11.74	-26.0	-27.5	15.2	1.87e-03	0	42	102	1048576	12	4288
2026-01-07 03:06:34.25	13.18	11.84	-26.1	-27.6	15.2	0.00e+00	0	42	102	1048576	12	4308
2026-01-07 03:06:35.26	13.14	11.93	-26.0	-27.6	15.2	3.57e-04	0	42	102	1048576	12	4301
2026-01-07 03:06:36.27	13.09	12.02	-26.0	-27.6	15.3	0.00e+00	0	42	102	1048576	12	4298
2026-01-07 03:06:37.28	13.04	12.11	-26.1	-27.7	15.2	1.92e-03	0	42	102	1048576	12	4324
2026-01-07 03:06:38.28	12.99	12.20	-26.2	-27.8	15.1	3.32e-04	0	42	102	1048576	12	4366
2026-01-07 03:06:39.29	12.95	12.30	-26.0	-27.5	15.3	1.84e-03	0	42	102	1048576	12	4273
2026-01-07 03:06:40.29	12.90	12.39	-26.0	-27.5	15.3	1.92e-03	0	42	102	1048576	12	4265
2026-01-07 03:06:41.30	12.85	12.48	-26.1	-27.6	15.3	2.80e-04	0	42	102	1048576	12	4306
2026-01-07 03:06:42.30	12.80	12.57	-25.9	-27.3	15.4	1.97e-03	0	42	102	1048576	12	4229
2026-01-07 03:06:43.31	12.75	12.67	-26.0	-27.5	15.3	1.68e-03	0	42	102	1048576	12	4278
2026-01-07 03:06:44.32	12.70	12.76	-25.9	-27.3	15.4	3.29e-04	0	42	102	1048576	12	4216
2026-01-07 03:06:45.32	12.65	12.86	-25.9	-27.8	15.5	1.76e-03	0	42	102	1048576	11	4466
2026-01-07 03:06:46.32	12.60	12.95	-25.9	-27.8	15.5	1.97e-03	0	42	102	1048576	11	4463
2026-01-07 03:06:47.33	12.55	13.05	-25.9	-27.7	15.6	2.71e-04	0	42	102	1048576	11	4447
2026-01-07 03:06:48.34	12.50	13.14	-25.9	-27.6	15.6	1.87e-03	0	42	102	1048576	11	4418
2026-01-07 03:06:49.34	12.45	13.24	-26.0	-27.9	15.5	1.90e-03	0	42	102	1048576	11	4487
2026-01-07 03:06:50.34	12.40	13.33	-25.9	-27.2	15.5	0.00e+00	0	42	102	1048576	12	4202
2026-01-07 03:06:51.35	12.34	13.43	-25.9	-27.6	15.6	1.84e-03	0	42	102	1048576	11	4420
2026-01-07 03:06:52.35	12.29	13.53	-25.8	-27.5	15.7	0.00e+00	0	42	102	1048576	11	4374
2026-01-07 03:06:53.36	12.24	13.63	-25.8	-27.6	15.7	2.60e-04	0	43	102	1048576	11	4404
2026-01-07 03:06:54.37	12.19	13.72	-25.8	-27.5	15.7	1.68e-03	0	42	102	1048576	11	4393
2026-01-07 03:06:55.37	12.13	13.82	-25.8	-27.4	15.8	6.81e-04	0	43	102	1048576	11	4357
2026-01-07 03:06:56.38	12.08	13.92	-25.7	-27.3	15.8	2.96e-04	0	43	102	1048576	11	4327
2026-01-07 03:06:57.38	12.02	14.02	-25.7	-27.2	15.9	0.00e+00	0	43	102	1048576	11	4285
2026-01-07 03:06:58.39	11.97	14.12	-25.7	-27.2	15.9	1.69e-03	0	43	102	1048576	11	4290
2026-01-07 03:06:59.39	11.92	14.22	-25.7	-27.3	15.9	0.00e+00	0	42	102	1048576	11	4319
2026-01-07 03:07:00.39	11.86	14.32	-25.6	-27.1	16.0	1.74e-03	0	43	102	1048576	11	4256
2026-01-07 03:07:01.40	11.80	14.42	-25.5	-26.9	16.1	0.00e+00	0	42	102	1048576	11	4200
2026-01-07 03:07:02.41	11.75	14.52	-25.5	-26.9	16.1	0.00e+00	0	43	102	1048576	11	4222
2026-01-07 03:07:03.42	11.69	14.62	-25.7	-27.3	15.9	0.00e+00	0	43	102	1048576	11	4309
2026-01-07 03:07:04.43	11.63	14.72	-25.8	-27.4	15.8	0.00e+00	0	43	102	1048576	11	4349
2026-01-07 03:07:05.43	11.58	14.82	-25.6	-27.1	16.0	2.56e-04	0	42	102	1048576	11	4281
2026-01-07 03:07:06.44	11.52	14.93	-25.7	-27.3	15.9	0.00e+00	0	43	102	1048576	11	4323
2026-01-07 03:07:07.44	11.46	15.03	-25.8	-27.5	15.8	0.00e+00	0	42	102	1048576	11	4366
2026-01-07 03:07:08.45	11.40	15.13	-25.9	-27.6	15.7	0.00e+00	0	43	102	1048576	11	4401
2026-01-07 03:07:09.46	11.34	15.24	-25.8	-27.4	15.8	0.00e+00	0	43	102	1048576	11	4347
2026-01-07 03:07:10.46	11.28	15.34	-26.0	-27.5	15.4	0.00e+00	0	43	102	1048576	12	4275
2026-01-07 03:07:11.47	11.22	15.44	-26.1	-27.7	15.4	0.00e+00	0	43	102	1048576	12	4307
2026-01-07 03:07:12.47	11.16	15.55	-25.8	-26.9	15.8	0.00e+00	0	43	102	1048576	12	4097
2026-01-07 03:07:13.48	11.10	15.65	-25.6	-27.0	16.1	0.00e+00	0	43	102	1048576	11	4241
2026-01-07 03:07:14.49	11.04	15.76	-25.5	-26.8	16.2	0.00e+00	0	43	102	1048576	11	4193
2026-01-07 03:07:15.49	10.98	15.86	-25.4	-26.7	16.3	0.00e+00	0	43	102	1048576	11	4156
2026-01-07 03:07:16.49	10.91	15.97	-25.4	-26.7	16.3	0.00e+00	0	43	102	1048576	11	4145
2026-01-07 03:07:17.50	10.85	16.08	-25.4	-26.6	16.3	0.00e+00	0	43	102	1048576	11	4144
2026-01-07 03:07:18.51	10.79	16.19	-25.6	-26.9	16.2	0.00e+00	0	43	102	1048576	11	4220
2026-01-07 03:07:19.51	10.72	16.29	-25.5	-26.9	16.2	0.00e+00	0	43	102	1048576	11	4201
2026-01-07 03:07:20.52	10.66	16.40	-25.5	-27.3	16.3	0.00e+00	0	43	102	1048576	10	4428
2026-01-07 03:07:21.52	10.59	16.51	-25.7	-27.2	16.0	0.00e+00	0	43	102	1048576	11	4296
2026-01-07 03:07:22.53	10.53	16.62	-25.7	-27.2	16.1	0.00e+00	0	43	102	1048576	11	4289
2026-01-07 03:07:23.53	10.46	16.73	-25.3	-26.5	16.5	0.00e+00	0	43	102	1048576	11	4099
2026-01-07 03:07:24.54	10.40	16.84	-25.3	-27.0	16.5	0.00e+00	0	43	102	1048576	10	4341
2026-01-07 03:07:25.55	10.33	16.95	-25.4	-27.1	16.4	0.00e+00	0	43	102	1048576	10	4372
2026-01-07 03:07:26.55	10.26	17.06	-25.3	-26.9	16.5	0.00e+00	0	43	102	1048576	10	4313
2026-01-07 03:07:27.55	10.20	17.17	-25.2	-26.7	16.7	0.00e+00	0	43	102	1048576	10	4259
2026-01-07 03:07:28.56	10.13	17.28	-25.3	-26.9	16.6	0.00e+00	0	43	102	1048576	10	4323
2026-01-07 03:07:29.57	10.06	17.40	-25.3	-26.8	16.6	0.00e+00	0	43	102	1048576	10	4304
2026-01-07 03:07:30.57	9.99	17.51	-25.5	-27.3	16.4	0.00e+00	0	43	102	1048576	10	4418
2026-01-07 03:07:31.58	9.92	17.62	-25.4	-26.7	16.4	0.00e+00	0	43	102	1048576	11	4145
2026-01-07 03:07:32.59	9.85	17.74	-25.0	-25.6	17.0	0.00e+00	0	43	102	1048576	11	3890
2026-01-07 03:07:33.60	9.78	17.85	-24.7	-25.6	17.3	0.00e+00	0	43	102	1048576	10	3973
2026-01-07 03:07:34.60	9.70	17.96	-24.5	-25.6	17.5	0.00e+00	0	43	102	1048576	9	4099
2026-01-07 03:07:35.60	9.63	18.08	-24.3	-25.3	17.6	0.00e+00	0	43	102	1048576	9	4024
2026-01-07 03:07:36.61	9.56	18.20	-24.4	-25.5	17.6	0.00e+00	0	43	102	1048576	9	4060
2026-01-07 03:07:37.62	9.48	18.31	-24.4	-25.4	17.6	0.00e+00	0	43	102	1048576	9	4049
2026-01-07 03:07:38.62	9.41	18.43	-24.4	-26.0	17.6	0.00e+00	0	43	102	1048576	8	4302
2026-01-07 03:07:39.63	9.34	18.55	-24.4	-25.9	17.6	0.00e+00	0	43	102	1048576	8	4299
2026-01-07 03:07:40.64	9.26	18.66	-24.4	-25.8	17.6	0.00e+00	0	43	102	1048576	8	4273
2026-01-07 03:07:41.64	9.18	18.78	-24.4	-26.0	17.6	0.00e+00	0	43	102	1048576	8	4309
2026-01-07 03:07:42.65	9.11	18.90	-24.4	-25.9	17.6	0.00e+00	0	43	102	1048576	8	4290
2026-01-07 03:07:43.66	9.03	19.02	-24.3	-25.8	17.7	0.00e+00	0	43	102	1048576	8	4264
2026-01-07 03:07:44.66	8.95	19.14	-24.4	-26.0	17.6	0.00e+00	0	43	102	1048576	8	4306
2026-01-07 03:07:45.67	8.87	19.26	-23.9	-24.9	17.3	0.00e+00	0	43	102	1048576	9	4018
2026-01-07 03:07:46.68	8.79	19.38	-24.3	-25.2	17.6	0.00e+00	0	43	102	1048576	9	4002
2026-01-07 03:07:47.69	8.71	19.50	-24.3	-25.3	17.7	1.32e-03	0	43	102	1048576	9	4012
2026-01-07 03:07:48.69	8.63	19.62	-24.3	-25.6	17.8	0.00e+00	0	43	102	1048576	8	4222
2026-01-07 03:07:49.69	8.55	19.75	-24.3	-25.8	17.7	1.37e-05	0	43	102	1048576	8	4251
2026-01-07 03:07:50.70	8.47	19.87	-24.3	-25.7	17.8	0.00e+00	0	43	102	1048576	8	4231
2026-01-07 03:07:51.70	8.39	19.99	-24.3	-25.7	17.7	0.00e+00	0	43	102	1048576	8	4242
2026-01-07 03:07:52.70	8.31	20.12	-24.3	-25.7	17.7	0.00e+00	0	43	102	1048576	8	4237
2026-01-07 03:07:53.71	8.22	20.24	-24.3	-25.7	17.8	0.00e+00	0	43	102	1048576	8	4224
2026-01-07 03:07:54.72	8.14	20.37	-24.4	-26.0	17.6	1.34e-03	0	43	102	1048576	8	4316
2026-01-07 03:07:55.73	8.05	20.49	-24.4	-25.5	17.6	0.00e+00	0	43	102	1048576	9	4064
2026-01-07 03:07:56.74	7.97	20.62	-24.2	-25.6	17.8	1.48e-03	0	43	102	1048576	8	4202
2026-01-07 03:07:57.74	7.88	20.75	-24.3	-25.6	17.8	0.00e+00	0	43	102	1048576	8	4209
2026-01-07 03:07:58.75	7.79	20.87	-24.2	-25.5	17.9	1.43e-04	0	43	102	1048576	8	4194
2026-01-07 03:07:59.76	7.70	21.00	-24.4	-25.9	17.7	1.46e-03	0	43	102	1048576	8	4273
2026-01-07 03:08:00.77	7.61	21.13	-24.3	-25.3	17.7	0.00e+00	0	43	102	1048576	9	4014
2026-01-07 03:08:01.78	7.52	21.26	-24.3	-25.2	17.8	1.53e-04	0	43	102	1048576	9	4005
2026-01-07 03:08:02.79	7.43	21.39	-24.2	-25.5	17.9	0.00e+00	0	43	102	1048576	8	4181
2026-01-07 03:08:03.79	7.34	21.52	-24.2	-25.4	17.9	1.26e-03	0	43	102	1048576	8	4164
2026-01-07 03:08:04.79	7.25	21.65	-24.1	-25.3	18.0	0.00e+00	0	43	102	1048576	8	4130
2026-01-07 03:08:05.80	7.15	21.78	-24.3	-25.7	17.8	1.31e-03	0	43	102	1048576	8	4240
2026-01-07 03:08:06.81	7.06	21.92	-24.2	-25.5	17.9	1.36e-03	0	43	102	1048576	8	4189
2026-01-07 03:08:07.81	6.97	22.05	-24.4	-26.0	17.7	7.78e-05	0	43	102	1048576	8	4304
2026-01-07 03:08:08.82	6.87	22.18	-24.3	-25.2	17.8	1.40e-03	0	43	102	1048576	9	4008
2026-01-07 03:08:09.83	6.77	22.32	-24.1	-25.3	18.1	1.36e-03	0	43	102	1048576	8	4126
2026-01-07 03:08:10.84	6.68	22.45	-24.2	-25.5	18.0	2.28e-05	0	43	102	1048576	8	4174
2026-01-07 03:08:11.85	6.58	22.59	-24.1	-25.3	18.0	0.00e+00	0	43	102	1048576	8	4134
2026-01-07 03:08:12.85	6.48	22.72	-23.9	-24.9	18.3	1.20e-03	0	43	102	1048576	8	4024
2026-01-07 03:08:13.85	6.38	22.86	-23.9	-24.8	18.3	5.72e-05	0	43	102	1048576	8	3998
2026-01-07 03:08:14.86	6.28	23.00	-23.9	-24.9	18.3	1.16e-03	0	43	102	1048576	8	4026
2026-01-07 03:08:15.87	6.17	23.13	-23.7	-25.0	18.5	1.28e-03	0	43	102	1048576	7	4159
2026-01-07 03:08:16.88	6.07	23.27	-23.6	-24.7	18.6	2.74e-05	0	43	102	1048576	7	4098
2026-01-07 03:08:17.88	5.97	23.41	-23.7	-24.9	18.5	1.28e-03	0	43	102	1048576	7	4150
2026-01-07 03:08:18.89	5.86	23.55	-23.7	-24.8	18.6	0.00e+00	0	43	102	1048576	7	4120
2026-01-07 03:08:19.89	5.76	23.69	-23.6	-24.6	18.7	8.00e-06	0	43	102	1048576	7	4075
2026-01-07 03:08:20.90	5.65	23.83	-23.7	-25.0	18.5	0.00e+00	0	43	102	1048576	7	4168
2026-01-07 03:08:21.90	5.54	23.97	-23.6	-24.7	18.6	1.25e-03	0	43	102	1048576	7	4095
2026-01-07 03:08:22.90	5.44	24.12	-23.7	-24.8	18.6	0.00e+00	0	43	102	1048576	7	4121
2026-01-07 03:08:23.90	5.33	24.26	-23.7	-25.0	18.5	0.00e+00	0	43	102	1048576	7	4170
2026-01-07 03:08:24.92	5.21	24.40	-23.6	-24.8	18.6	1.36e-03	0	43	102	1048576	7	4119
2026-01-07 03:08:25.92	5.10	24.55	-23.6	-24.8	18.6	0.00e+00	0	43	102	1048576	7	4116
2026-01-07 03:08:26.92	4.99	24.69	-23.7	-25.0	18.5	1.40e-03	0	43	102	1048576	7	4166
2026-01-07 03:08:27.93	4.88	24.84	-23.7	-25.0	18.5	0.00e+00	0	43	102	1048576	7	4159
2026-01-07 03:08:28.94	4.76	24.98	-23.8	-25.1	18.5	0.00e+00	0	43	102	1048576	7	4193
2026-01-07 03:08:29.94	4.65	25.13	-24.0	-25.2	18.2	0.00e+00	0	43	102	1048576	8	4096
2026-01-07 03:08:30.95	4.53	25.28	-23.8	-24.8	18.4	0.00e+00	0	43	102	1048576	8	3997
2026-01-07 03:08:31.95	4.41	25.43	-23.7	-24.4	18.6	0.00e+00	0	43	102	1048576	8	3900
2026-01-07 03:08:32.96	4.29	25.58	-23.5	-24.6	18.7	0.00e+00	0	43	102	1048576	7	4064
2026-01-07 03:08:33.97	4.17	25.73	-23.5	-24.6	18.8	1.51e-03	0	43	102	1048576	7	4058
2026-01-07 03:08:34.97	4.05	25.88	-23.6	-24.6	18.7	0.00e+00	0	43	102	1048576	7	4076
2026-01-07 03:08:35.98	3.92	26.03	-23.3	-24.1	19.0	0.00e+00	0	43	102	1048576	7	3954
2026-01-07 03:08:36.99	3.80	26.18	-23.3	-24.0	19.0	0.00e+00	0	43	102	1048576	7	3927
2026-01-07 03:08:37.99	3.67	26.33	-23.5	-24.5	18.8	0.00e+00	0	43	102	1048576	7	4027
2026-01-07 03:08:39.00	3.55	26.49	-23.3	-24.1	19.0	0.00e+00	0	43	102	1048576	7	3931
2026-01-07 03:08:40.01	3.42	26.64	-23.2	-23.9	19.1	0.00e+00	0	43	102	1048576	7	3899
2026-01-07 03:08:41.01	3.29	26.79	-23.3	-24.2	19.0	0.00e+00	0	43	102	1048576	7	3963
2026-01-07 03:08:42.02	3.16	26.95	-23.2	-24.3	19.1	0.00e+00	0	43	102	1048576	6	4108
2026-01-07 03:08:43.03	3.02	27.11	-23.3	-24.6	19.0	0.00e+00	0	43	102	1048576	6	4181
2026-01-07 03:08:44.03	2.89	27.26	-23.2	-24.4	19.1	0.00e+00	0	43	102	1048576	6	4125
2026-01-07 03:08:45.04	2.76	27.42	-23.1	-24.1	19.2	0.00e+00	0	43	102	1048576	6	4063
2026-01-07 03:08:46.05	2.62	27.58	-23.1	-24.2	19.2	0.00e+00	0	43	102	1048576	6	4080
2026-01-07 03:08:47.06	2.48	27.74	-23.2	-24.3	19.1	0.00e+00	0	43	102	1048576	6	4108
2026-01-07 03:08:48.06	2.34	27.90	-23.2	-24.3	19.2	0.00e+00	0	43	102	1048576	6	4110
2026-01-07 03:08:49.07	2.20	28.06	-23.2	-24.3	19.2	0.00e+00	0	43	102	1048576	6	4102
2026-01-07 03:08:50.07	2.06	28.22	-23.3	-24.6	19.0	0.00e+00	0	43	102	1048576	6	4171
2026-01-07 03:08:51.08	1.92	28.38	-23.1	-24.1	19.3	0.00e+00	0	43	102	1048576	6	4057
2026-01-07 03:08:52.09	1.77	28.55	-23.1	-24.1	19.3	0.00e+00	0	43	102	1048576	6	4039
2026-01-07 03:08:53.09	1.63	28.71	-23.1	-24.2	19.3	0.00e+00	0	43	102	1048576	6	4068
2026-01-07 03:08:54.10	1.48	28.88	-23.0	-23.8	19.4	0.00e+00	0	43	102	1048576	6	3986
2026-01-07 03:08:55.11	1.33	29.04	-22.9	-23.7	19.5	0.00e+00	0	43	102	1048576	6	3943
2026-01-07 03:08:56.11	1.18	29.21	-23.0	-23.9	19.4	0.00e+00	0	43	102	1048576	6	4007
2026-01-07 03:08:57.11	1.03	29.37	-23.0	-23.9	19.4	0.00e+00	0	43	102	1048576	6	4012
2026-01-07 03:08:58.12	0.87	29.54	-23.0	-23.9	19.4	0.00e+00	0	43	102	1048576	6	4000
2026-01-07 03:08:59.13	0.72	29.71	-23.1	-24.2	19.3	0.00e+00	0	43	102	1048576	6	4071
2026-01-07 03:09:00.13	0.56	29.88	-23.1	-24.1	19.3	0.00e+00	0	43	102	1048576	6	4056
2026-01-07 03:09:01.14	0.40	30.05	-23.1	-24.3	19.2	0.00e+00	0	43	102	1048576	6	4093
2026-01-07 03:09:02.15	0.24	30.22	-23.3	-24.5	19.1	0.00e+00	0	43	102	1048576	6	4150
2026-01-07 03:09:03.15	0.08	30.39	-23.1	-24.1	19.3	0.00e+00	0	43	102	1048576	6	4050
2026-01-07 03:09:04.15	359.91	30.56	-23.1	-24.2	19.3	0.00e+00	0	43	102	1048576	6	4066
2026-01-07 03:09:05.16	359.74	30.73	-23.2	-24.3	19.2	0.00e+00	0	43	102	1048576	6	4107
2026-01-07 03:09:06.17	359.58	30.91	-22.9	-23.8	19.4	0.00e+00	0	43	102	1048576	6	3984
2026-01-07 03:09:07.18	359.40	31.08	-22.9	-23.7	19.5	0.00e+00	0	43	102	1048576	6	3956
2026-01-07 03:09:08.19	359.23	31.26	-23.0	-23.9	19.4	0.00e+00	0	43	102	1048576	6	3996
2026-01-07 03:09:09.19	359.06	31.43	-23.1	-24.2	19.3	0.00e+00	0	43	102	1048576	6	4066
2026-01-07 03:09:10.20	358.88	31.61	-23.2	-24.4	19.2	0.00e+00	0	43	102	1048576	6	4118
2026-01-07 03:09:11.20	358.71	31.79	-22.5	-23.3	18.3	0.00e+00	0	43	102	1048576	6	3938
2026-01-07 03:09:12.21	358.53	31.97	-22.4	-23.1	16.6	0.00e+00	0	43	102	1048576	6	3880
2026-01-07 03:09:13.22	358.34	32.15	-22.9	-23.7	18.9	0.00e+00	0	43	102	1048576	6	3965
2026-01-07 03:09:14.23	358.16	32.33	-23.0	-23.9	13.4	0.00e+00	0	43	102	1048576	6	3992
2026-01-07 03:09:15.23	357.97	32.50	-23.0	-24.1	19.3	0.00e+00	0	43	102	1048576	6	4041
2026-01-07 03:09:16.24	357.79	32.69	-22.9	-23.8	19.5	1.21e-04	0	43	102	1048576	6	3985
2026-01-07 03:09:17.25	357.59	32.87	-22.9	-23.8	19.5	0.00e+00	0	43	102	1048576	6	3974
2026-01-07 03:09:18.26	357.40	33.05	-22.9	-23.8	19.5	1.22e-03	0	43	102	1048576	6	3972
2026-01-07 03:09:19.26	357.21	33.23	-22.8	-23.4	19.7	0.00e+00	0	43	102	1048576	6	3893
2026-01-07 03:09:20.27	357.01	33.42	-22.8	-23.5	19.6	0.00e+00	0	43	102	1048576	6	3914
2026-01-07 03:09:21.27	356.81	33.60	-22.8	-23.5	19.7	0.00e+00	0	43	102	1048576	6	3915
2026-01-07 03:09:22.28	356.61	33.79	-22.7	-23.8	19.7	0.00e+00	0	43	102	1048576	5	4103
2026-01-07 03:09:23.28	356.41	33.97	-22.8	-24.0	19.7	9.90e-04	0	43	102	1048576	5	4126
2026-01-07 03:09:24.29	356.20	34.16	-22.6	-23.7	19.8	0.00e+00	0	43	102	1048576	5	4056
2026-01-07 03:09:25.30	355.99	34.35	-22.6	-23.7	19.8	2.51e-05	0	43	102	1048576	5	4074
2026-01-07 03:09:26.31	355.78	34.54	-22.7	-23.9	19.7	0.00e+00	0	43	102	1048576	5	4121
2026-01-07 03:09:27.32	355.56	34.73	-22.6	-23.7	19.8	8.31e-04	0	43	102	1048576	5	4065
2026-01-07 03:09:28.32	355.35	34.92	-22.7	-23.8	19.8	2.05e-05	0	43	102	1048576	5	4091
2026-01-07 03:09:29.33	355.13	35.11	-22.8	-24.1	19.6	8.47e-04	0	43	102	1048576	5	4169
2026-01-07 03:09:30.34	354.91	35.30	-23.0	-23.9	19.5	8.04e-04	0	43	102	1048576	6	4002
2026-01-07 03:09:31.35	354.68	35.49	-22.9	-23.7	19.6	1.03e-04	0	43	102	1048576	6	3953
2026-01-07 03:09:32.35	354.46	35.68	-22.9	-23.7	19.6	7.75e-04	0	43	102	1048576	6	3956
2026-01-07 03:09:33.36	354.23	35.88	-22.9	-23.7	19.6	7.83e-04	0	43	102	1048576	6	3959
2026-01-07 03:09:34.37	353.99	36.07	-22.9	-23.7	19.6	9.49e-05	0	43	102	1048576	6	3952
2026-01-07 03:09:35.37	353.76	36.26	-22.9	-23.8	19.5	7.64e-04	0	43	102	1048576	6	3978
2026-01-07 03:09:36.38	353.52	36.46	-23.0	-23.9	19.5	8.00e-04	0	43	102	1048576	6	4002
2026-01-07 03:09:37.39	353.28	36.66	-22.9	-23.6	19.6	1.03e-04	0	43	102	1048576	6	3942
2026-01-07 03:09:38.39	353.04	36.85	-23.0	-23.9	19.5	7.22e-04	0	43	102	1048576	6	4000
2026-01-07 03:09:39.40	352.79	37.05	-23.1	-24.1	19.4	7.27e-04	0	43	102	1048576	6	4055
2026-01-07 03:09:40.40	352.54	37.24	-23.1	-24.1	19.4	0.00e+00	0	43	102	1048576	6	4059
2026-01-07 03:09:41.41	352.29	37.44	-23.1	-24.1	19.4	7.71e-04	0	43	102	1048576	6	4042
2026-01-07 03:09:42.40	352.04	37.64	-23.0	-24.0	19.4	6.98e-04	0	43	102	1048576	6	4024
2026-01-07 03:09:43.41	351.78	37.84	-23.0	-24.0	19.5	0.00e+00	0	43	102	1048576	6	4020
2026-01-07 03:09:44.43	351.51	38.04	-23.2	-24.3	19.3	7.72e-04	0	43	102	1048576	6	4090
2026-01-07 03:09:45.43	351.25	38.24	-23.2	-23.9	19.2	0.00e+00	0	43	102	1048576	7	3902
2026-01-07 03:09:46.44	350.98	38.44	-22.9	-23.2	19.6	4.50e-06	0	43	102	1048576	7	3727
2026-01-07 03:09:47.44	350.70	38.64	-22.7	-23.3	19.8	0.00e+00	0	43	102	1048576	6	3856
2026-01-07 03:09:48.45	350.43	38.84	-22.7	-23.4	19.8	1.07e-03	0	43	102	1048576	6	3887
2026-01-07 03:09:49.46	350.15	39.04	-22.7	-23.3	19.8	0.00e+00	0	43	102	1048576	6	3854
2026-01-07 03:09:50.47	349.86	39.24	-22.6	-23.6	19.9	1.12e-03	0	43	102	1048576	5	4029
2026-01-07 03:09:51.46	349.58	39.44	-22.6	-23.5	20.0	0.00e+00	0	43	102	1048576	5	4013
2026-01-07 03:09:52.47	349.29	39.65	-22.6	-23.7	19.9	0.00e+00	0	43	102	1048576	5	4055
2026-01-07 03:09:53.48	349.00	39.85	-22.8	-24.0	19.7	7.04e-04	0	43	102	1048576	5	4130
2026-01-07 03:09:54.48	348.70	40.05	-22.9	-24.2	19.6	0.00e+00	0	43	102	1048576	5	4197
2026-01-07 03:09:55.48	348.40	40.25	-22.8	-23.6	19.7	1.10e-06	0	43	102	1048576	6	3927
2026-01-07 03:09:56.49	348.09	40.46	-22.8	-23.6	19.7	0.00e+00	0	43	102	1048576	6	3921
2026-01-07 03:09:57.49	347.79	40.66	-22.9	-23.7	19.7	0.00e+00	0	43	102	1048576	6	3947
2026-01-07 03:09:58.50	347.47	40.87	-22.8	-23.5	19.7	0.00e+00	0	43	102	1048576	6	3917
2026-01-07 03:09:59.51	347.15	41.07	-22.8	-23.5	19.8	0.00e+00	0	43	102	1048576	6	3908
2026-01-07 03:10:00.51	346.84	41.27	-22.8	-23.5	19.7	0.00e+00	0	43	102	1048576	6	3918
2026-01-07 03:10:01.51	346.51	41.48	-22.9	-23.7	19.6	0.00e+00	0	43	102	1048576	6	3955
2026-01-07 03:10:02.52	346.18	41.68	-22.9	-23.6	19.7	7.14e-04	0	43	102	1048576	6	3943
2026-01-07 03:10:03.52	345.85	41.89	-23.0	-23.9	19.6	0.00e+00	0	43	102	1048576	6	3996
2026-01-07 03:10:04.53	345.51	42.09	-22.9	-23.6	19.7	0.00e+00	0	43	102	1048576	6	3940
2026-01-07 03:10:05.53	345.17	42.30	-22.8	-23.5	19.8	0.00e+00	0	43	102	1048576	6	3905
2026-01-07 03:10:06.54	344.82	42.50	-22.9	-23.7	19.6	0.00e+00	0	43	102	1048576	6	3962
2026-01-07 03:10:07.55	344.47	42.71	-23.0	-23.9	19.5	0.00e+00	0	43	102	1048576	6	4004
2026-01-07 03:10:08.56	344.11	42.91	-23.0	-24.0	19.5	0.00e+00	0	43	102	1048576	6	4025
2026-01-07 03:10:09.57	343.75	43.12	-23.3	-24.5	19.3	0.00e+00	0	43	102	1048576	6	4149
2026-01-07 03:10:10.57	343.39	43.32	-23.4	-24.8	19.1	0.00e+00	0	43	102	1048576	6	4224
2026-01-07 03:10:11.58	343.02	43.53	-23.4	-24.3	19.1	0.00e+00	0	43	102	1048576	7	3989
2026-01-07 03:10:12.59	342.64	43.73	-23.2	-23.9	19.3	0.00e+00	0	43	102	1048576	7	3890
2026-01-07 03:10:13.60	342.26	43.93	-23.1	-23.7	19.4	0.00e+00	0	43	102	1048576	7	3850
2026-01-07 03:10:14.61	341.87	44.14	-23.4	-24.7	19.2	0.00e+00	0	43	102	1048576	6	4194
2026-01-07 03:10:15.62	341.48	44.34	-23.7	-24.9	18.8	0.00e+00	0	43	102	1048576	7	4124
2026-01-07 03:10:16.62	341.09	44.54	-23.6	-24.7	18.9	0.00e+00	0	43	102	1048576	7	4075
2026-01-07 03:10:17.63	340.69	44.75	-23.4	-24.2	19.2	0.00e+00	0	43	102	1048576	7	3960
2026-01-07 03:10:18.64	340.28	44.95	-23.3	-24.0	19.3	0.00e+00	0	43	102	1048576	7	3914
2026-01-07 03:10:19.64	339.88	45.15	-23.1	-23.7	19.5	0.00e+00	0	43	102	1048576	7	3842
2026-01-07 03:10:20.64	339.47	45.35	-23.4	-24.2	19.2	0.00e+00	0	43	102	1048576	7	3962
2026-01-07 03:10:21.65	339.04	45.55	-23.4	-24.3	19.1	0.00e+00	0	43	102	1048576	7	3991
2026-01-07 03:10:22.66	338.62	45.74	-23.6	-24.7	18.9	0.00e+00	0	43	102	1048576	7	4085
2026-01-07 03:10:23.66	338.19	45.94	-23.6	-24.6	19.0	0.00e+00	0	43	102	1048576	7	4053
2026-01-07 03:10:24.66	337.75	46.14	-23.2	-23.9	19.3	0.00e+00	0	43	102	1048576	7	3901
2026-01-07 03:10:25.67	337.31	46.33	-23.0	-23.5	19.5	0.00e+00	0	43	102	1048576	7	3801
2026-01-07 03:10:26.67	336.86	46.53	-22.8	-23.5	19.8	0.00e+00	0	43	102	1048576	6	3912
2026-01-07 03:10:27.68	336.41	46.72	-22.8	-23.5	19.8	0.00e+00	0	43	102	1048576	6	3908
2026-01-07 03:10:28.69	335.95	46.92	-22.8	-23.6	19.7	0.00e+00	0	43	102	1048576	6	3920
2026-01-07 03:10:29.70	335.48	47.11	-22.8	-23.5	19.8	0.00e+00	0	43	102	1048576	6	3906
2026-01-07 03:10:30.70	335.01	47.30	-22.8	-23.6	19.7	0.00e+00	0	43	102	1048576	6	3921
2026-01-07 03:10:31.71	334.54	47.49	-22.9	-23.7	19.7	0.00e+00	0	43	102	1048576	6	3959
2026-01-07 03:10:32.72	334.05	47.68	-23.0	-24.0	19.6	0.00e+00	0	43	102	1048576	6	4022
2026-01-07 03:10:33.72	333.57	47.86	-23.3	-24.6	19.3	0.00e+00	0	43	102	1048576	6	4165
2026-01-07 03:10:34.73	333.07	48.05	-23.3	-24.6	19.2	0.00e+00	0	43	102	1048576	6	4172
2026-01-07 03:10:35.73	332.58	48.23	-23.3	-24.6	19.3	0.00e+00	0	43	102	1048576	6	4165
2026-01-07 03:10:36.73	332.07	48.41	-23.5	-25.0	19.1	0.00e+00	0	44	102	1048576	6	4270
2026-01-07 03:10:37.74	331.56	48.59	-23.8	-25.1	18.7	0.00e+00	0	43	102	1048576	7	4194
2026-01-07 03:10:38.74	331.04	48.77	-23.7	-25.0	18.8	0.00e+00	0	43	102	1048576	7	4162
2026-01-07 03:10:39.75	330.52	48.94	-23.3	-24.1	19.2	0.00e+00	0	43	102	1048576	7	3947
2026-01-07 03:10:40.76	329.99	49.12	-23.1	-23.6	19.5	0.00e+00	0	43	102	1048576	7	3817
2026-01-07 03:10:41.76	329.45	49.29	-22.6	-23.5	19.3	0.00e+00	0	43	102	1048576	6	3987
2026-01-07 03:10:42.77	328.91	49.46	-23.5	-24.9	19.0	0.00e+00	0	43	102	1048576	6	4245
2026-01-07 03:10:43.78	328.36	49.63	-23.8	-25.0	14.6	0.00e+00	0	43	102	1048576	7	4168
2026-01-07 03:10:44.79	327.80	49.80	-24.0	-25.5	18.5	9.92e-04	0	43	102	1048576	7	4296
2026-01-07 03:10:45.79	327.25	49.96	-23.8	-24.7	18.7	0.00e+00	0	43	102	1048576	8	3976
2026-01-07 03:10:46.79	326.68	50.12	-23.7	-24.4	18.9	1.05e-03	0	43	102	1048576	8	3887
2026-01-07 03:10:47.80	326.11	50.28	-23.7	-24.9	18.9	0.00e+00	0	43	102	1048576	7	4115
2026-01-07 03:10:48.81	325.53	50.44	-24.0	-25.5	18.6	0.00e+00	0	43	102	1048576	7	4283
2026-01-07 03:10:49.81	324.95	50.59	-24.2	-25.4	18.3	0.00e+00	0	43	102	1048576	8	4163
2026-01-07 03:10:50.82	324.35	50.74	-23.8	-24.6	18.8	0.00e+00	0	43	102	1048576	8	3942
2026-01-07 03:10:51.83	323.76	50.89	-23.7	-24.3	18.9	0.00e+00	0	43	102	1048576	8	3880
2026-01-07 03:10:52.84	323.15	51.04	-24.1	-25.3	18.5	0.00e+00	0	43	102	1048576	8	4107
2026-01-07 03:10:53.85	322.54	51.18	-24.1	-25.2	18.5	7.70e-04	0	43	102	1048576	8	4089
2026-01-07 03:10:54.85	321.93	51.32	-24.0	-24.9	18.6	0.00e+00	0	43	102	1048576	8	4033
2026-01-07 03:10:55.85	321.31	51.45	-23.9	-24.7	18.7	6.41e-04	0	43	102	1048576	8	3979
2026-01-07 03:10:56.86	320.69	51.59	-23.6	-24.7	18.9	1.83e-05	0	43	102	1048576	7	4093
2026-01-07 03:10:57.87	320.05	51.72	-23.4	-24.3	19.2	0.00e+00	0	43	102	1048576	7	3986
2026-01-07 03:10:58.88	319.41	51.84	-23.3	-24.1	19.2	5.56e-04	0	43	102	1048576	7	3941
2026-01-07 03:10:59.89	318.77	51.97	-23.4	-24.2	19.2	3.15e-04	0	43	102	1048576	7	3963
2026-01-07 03:11:00.89	318.13	52.09	-23.4	-24.3	19.2	0.00e+00	0	43	102	1048576	7	3973
2026-01-07 03:11:01.90	317.47	52.20	-23.3	-24.1	19.3	0.00e+00	0	43	102	1048576	7	3927
2026-01-07 03:11:02.91	316.81	52.32	-23.4	-24.2	19.2	0.00e+00	0	43	102	1048576	7	3953
2026-01-07 03:11:03.91	316.15	52.43	-23.2	-23.9	19.4	0.00e+00	0	43	102	1048576	7	3884
2026-01-07 03:11:04.92	315.48	52.53	-23.3	-24.5	19.3	5.14e-04	0	43	102	1048576	6	4155
2026-01-07 03:11:05.93	314.81	52.63	-23.1	-24.1	19.5	6.73e-04	0	43	102	1048576	6	4041
2026-01-07 03:11:06.94	314.13	52.73	-22.8	-23.6	19.8	0.00e+00	0	43	102	1048576	6	3931
2026-01-07 03:11:07.94	313.45	52.82	-22.7	-23.2	20.0	6.49e-04	0	43	102	1048576	6	3826
2026-01-07 03:11:08.95	312.76	52.91	-22.9	-23.8	19.7	6.75e-04	0	43	102	1048576	6	3960
2026-01-07 03:11:09.95	312.08	53.00	-23.2	-24.3	19.5	0.00e+00	0	43	102	1048576	6	4084
2026-01-07 03:11:10.96	311.38	53.08	-23.3	-24.5	19.3	5.01e-04	0	43	102	1048576	6	4151
2026-01-07 03:11:11.97	310.68	53.16	-23.2	-24.3	19.4	5.56e-04	0	43	102	1048576	6	4100
2026-01-07 03:11:12.98	309.98	53.23	-23.4	-24.7	19.2	0.00e+00	0	43	102	1048576	6	4190
2026-01-07 03:11:13.98	309.28	53.30	-23.2	-24.3	19.4	5.98e-04	0	43	102	1048576	6	4093
2026-01-07 03:11:14.99	308.57	53.36	-23.1	-24.2	19.5	6.89e-04	0	43	102	1048576	6	4062
2026-01-07 03:11:16.00	307.85	53.42	-23.2	-24.4	19.4	0.00e+00	0	43	102	1048576	6	4119
2026-01-07 03:11:17.01	307.14	53.48	-23.4	-24.8	19.2	7.37e-04	0	43	102	1048576	6	4233
2026-01-07 03:11:18.01	306.42	53.53	-23.5	-24.6	19.0	0.00e+00	0	43	102	1048576	7	4047
2026-01-07 03:11:19.02	305.70	53.58	-23.5	-24.4	19.1	0.00e+00	0	43	102	1048576	7	4009
2026-01-07 03:11:20.03	304.98	53.62	-23.6	-24.8	18.9	0.00e+00	0	43	102	1048576	7	4094
2026-01-07 03:11:21.03	304.26	53.65	-24.2	-25.4	18.4	6.66e-04	0	43	102	1048576	8	4160
2026-01-07 03:11:22.04	303.53	53.69	-23.7	-24.5	18.9	0.00e+00	0	43	102	1048576	8	3915
2026-01-07 03:11:23.05	302.80	53.71	-23.4	-24.3	19.2	0.00e+00	0	43	102	1048576	7	3979
2026-01-07 03:11:24.05	302.08	53.74	-23.4	-24.3	19.2	5.48e-04	0	43	102	1048576	7	3981
2026-01-07 03:11:25.06	301.35	53.76	-23.5	-24.5	19.1	0.00e+00	0	43	102	1048576	7	4037
2026-01-07 03:11:26.07	300.62	53.77	-23.6	-24.7	19.0	6.38e-04	0	43	102	1048576	7	4083
2026-01-07 03:11:27.08	299.88	53.78	-24.2	-25.4	18.4	0.00e+00	0	43	102	1048576	8	4145
2026-01-07 03:11:28.09	299.15	53.78	-23.6	-24.3	18.9	0.00e+00	0	43	102	1048576	8	3877
2026-01-07 03:11:29.10	298.42	53.78	-23.3	-24.0	19.3	0.00e+00	0	43	102	1048576	7	3907
2026-01-07 03:11:30.11	297.68	53.78	-23.6	-24.6	19.0	0.00e+00	0	43	102	1048576	7	4064
2026-01-07 03:11:31.12	296.95	53.77	-23.7	-24.9	18.9	0.00e+00	0	43	102	1048576	7	4123
2026-01-07 03:11:32.12	296.23	53.75	-23.5	-24.5	19.1	0.00e+00	0	43	102	1048576	7	4045
2026-01-07 03:11:33.13	295.49	53.73	-23.5	-24.5	19.1	0.00e+00	0	43	102	1048576	7	4041
2026-01-07 03:11:34.13	294.77	53.71	-23.5	-24.5	19.1	0.00e+00	0	43	102	1048576	7	4045
2026-01-07 03:11:35.14	294.04	53.68	-23.5	-24.5	19.1	0.00e+00	0	43	102	1048576	7	4019
2026-01-07 03:11:36.14	293.32	53.65	-23.5	-24.6	19.0	0.00e+00	0	43	102	1048576	7	4049
2026-01-07 03:11:37.15	292.60	53.61	-23.2	-23.9	19.4	0.00e+00	0	43	102	1048576	7	3881
2026-01-07 03:11:38.16	291.87	53.57	-23.1	-23.6	19.5	0.00e+00	0	43	102	1048576	7	3826
2026-01-07 03:11:39.16	291.16	53.52	-23.3	-24.6	19.2	0.00e+00	0	43	102	1048576	6	4182
2026-01-07 03:11:40.17	290.44	53.47	-23.6	-24.6	19.0	0.00e+00	0	43	102	1048576	7	4064
2026-01-07 03:11:41.17	289.73	53.41	-23.6	-24.6	19.0	0.00e+00	0	43	102	1048576	7	4066
2026-01-07 03:11:42.17	289.02	53.35	-23.3	-23.9	19.3	0.00e+00	0	43	102	1048576	7	3898
2026-01-07 03:11:43.17	288.32	53.29	-23.2	-23.8	19.4	0.00e+00	0	43	102	1048576	7	3860
2026-01-07 03:11:44.18	287.61	53.22	-23.5	-24.4	19.1	0.00e+00	0	43	102	1048576	7	4014
2026-01-07 03:11:45.19	286.91	53.14	-23.7	-24.9	18.9	0.00e+00	0	43	102	1048576	7	4151
2026-01-07 03:11:46.20	286.21	53.07	-24.0	-24.9	18.6	0.00e+00	0	43	102	1048576	8	4036
2026-01-07 03:11:47.20	285.52	52.98	-23.8	-24.6	18.7	0.00e+00	0	43	102	1048576	8	3957
2026-01-07 03:11:48.21	284.83	52.90	-23.8	-24.7	18.8	0.00e+00	0	43	102	1048576	8	3954
2026-01-07 03:11:49.21	284.14	52.81	-24.1	-25.2	18.4	0.00e+00	0	43	102	1048576	8	4106
2026-01-07 03:11:50.21	283.47	52.71	-24.0	-25.0	18.6	0.00e+00	0	43	102	1048576	8	4043
2026-01-07 03:11:51.22	282.79	52.62	-23.7	-24.4	18.9	0.00e+00	0	43	102	1048576	8	3912
2026-01-07 03:11:52.23	282.11	52.51	-23.5	-24.0	19.1	0.00e+00	0	43	102	1048576	8	3794
2026-01-07 03:11:53.24	281.44	52.41	-23.4	-24.3	19.1	0.00e+00	0	43	102	1048576	7	3991
2026-01-07 03:11:54.24	280.78	52.30	-23.4	-24.4	19.1	0.00e+00	0	43	102	1048576	7	3999
2026-01-07 03:11:55.24	280.13	52.18	-23.2	-23.8	19.4	0.00e+00	0	43	102	1048576	7	3873
2026-01-07 03:11:56.25	279.48	52.07	-23.0	-24.0	19.5	0.00e+00	0	43	102	1048576	6	4027
2026-01-07 03:11:57.25	278.83	51.95	-23.2	-24.3	19.4	0.00e+00	0	43	102	1048576	6	4087
2026-01-07 03:11:58.26	278.19	51.82	-23.2	-24.4	19.3	0.00e+00	0	43	102	1048576	6	4123
2026-01-07 03:11:59.26	277.55	51.70	-23.3	-24.5	19.3	0.00e+00	0	43	102	1048576	6	4141
2026-01-07 03:12:00.27	276.92	51.56	-23.4	-24.7	19.2	0.00e+00	0	43	102	1048576	6	4201
2026-01-07 03:12:01.27	276.30	51.43	-23.4	-24.9	19.1	0.00e+00	0	43	102	1048576	6	4239
2026-01-07 03:12:02.29	275.67	51.29	-23.3	-24.5	19.3	0.00e+00	0	43	102	1048576	6	4150
2026-01-07 03:12:03.29	275.06	51.15	-23.3	-24.6	19.2	0.00e+00	0	43	102	1048576	6	4181
2026-01-07 03:12:04.29	274.46	51.01	-23.4	-24.8	19.2	0.00e+00	0	43	102	1048576	6	4224
2026-01-07 03:12:05.31	273.85	50.86	-23.2	-24.4	19.1	0.00e+00	0	43	102	1048576	6	4175
2026-01-07 03:12:06.31	273.25	50.71	-23.5	-25.0	19.1	0.00e+00	0	43	102	1048576	6	4264
2026-01-07 03:12:07.32	272.66	50.56	-23.6	-24.7	14.8	0.00e+00	0	43	102	1048576	7	4084
2026-01-07 03:12:08.33	272.07	50.41	-23.7	-24.9	17.2	0.00e+00	0	43	102	1048576	7	4135
2026-01-07 03:12:09.34	271.49	50.25	-23.5	-24.4	19.1	0.00e+00	0	43	102	1048576	7	4013
2026-01-07 03:12:10.34	270.92	50.09	-23.3	-24.0	19.3	0.00e+00	0	43	102	1048576	7	3910
2026-01-07 03:12:11.34	270.36	49.93	-23.2	-23.8	19.4	0.00e+00	0	43	102	1048576	7	3862
2026-01-07 03:12:12.35	269.80	49.76	-23.2	-23.8	19.4	0.00e+00	0	43	102	1048576	7	3871
2026-01-07 03:12:13.35	269.25	49.60	-23.1	-24.1	19.5	1.01e-03	0	43	102	1048576	6	4058
2026-01-07 03:12:14.36	268.70	49.43	-23.2	-24.3	19.4	0.00e+00	0	43	102	1048576	6	4095
2026-01-07 03:12:15.36	268.16	49.26	-23.5	-24.9	19.1	0.00e+00	0	43	102	1048576	6	4253
2026-01-07 03:12:16.38	267.61	49.08	-23.6	-24.7	18.9	0.00e+00	0	43	102	1048576	7	4080
2026-01-07 03:12:17.39	267.08	48.91	-23.5	-24.5	19.0	6.35e-04	0	43	102	1048576	7	4031
2026-01-07 03:12:18.39	266.56	48.73	-23.3	-24.0	19.3	0.00e+00	0	43	102	1048576	7	3905
2026-01-07 03:12:19.40	266.04	48.55	-23.1	-23.6	19.5	0.00e+00	0	43	102	1048576	7	3816
2026-01-07 03:12:20.40	265.53	48.37	-23.1	-24.1	19.5	7.13e-04	0	43	102	1048576	6	4048
2026-01-07 03:12:21.40	265.03	48.19	-23.1	-24.1	19.5	0.00e+00	0	43	102	1048576	6	4038
2026-01-07 03:12:22.41	264.53	48.00	-23.1	-24.0	19.5	6.84e-04	0	43	102	1048576	6	4028
2026-01-07 03:12:23.41	264.04	47.82	-23.0	-24.0	19.5	0.00e+00	0	43	102	1048576	6	4026
2026-01-07 03:12:24.42	263.55	47.63	-23.4	-24.8	19.1	0.00e+00	0	44	102	1048576	6	4223
2026-01-07 03:12:25.43	263.06	47.44	-23.3	-24.7	19.2	5.26e-04	0	43	102	1048576	6	4197
2026-01-07 03:12:26.43	262.59	47.25	-23.4	-24.2	19.2	7.60e-04	0	43	102	1048576	7	3960
2026-01-07 03:12:27.45	262.11	47.06	-22.9	-23.2	19.6	0.00e+00	0	43	102	1048576	7	3740
2026-01-07 03:12:28.45	261.65	46.87	-22.4	-23.2	20.1	7.61e-04	0	43	102	1048576	5	3948
2026-01-07 03:12:29.45	261.19	46.68	-22.2	-22.8	20.3	7.67e-04	0	43	102	1048576	5	3842
2026-01-07 03:12:30.46	260.74	46.48	-22.1	-22.6	20.4	0.00e+00	0	43	102	1048576	5	3802
2026-01-07 03:12:31.47	260.29	46.29	-22.2	-22.7	20.4	1.09e-03	0	43	102	1048576	5	3829
2026-01-07 03:12:32.47	259.85	46.09	-22.2	-22.8	20.3	1.06e-03	0	43	102	1048576	5	3859
2026-01-07 03:12:33.48	259.41	45.89	-22.3	-23.1	20.2	0.00e+00	0	43	102	1048576	5	3912
2026-01-07 03:12:34.49	258.98	45.69	-22.4	-23.1	20.1	1.09e-03	0	43	102	1048576	5	3922
2026-01-07 03:12:35.49	258.55	45.49	-22.4	-23.3	20.1	1.13e-03	0	43	102	1048576	5	3962
2026-01-07 03:12:36.50	258.13	45.29	-22.6	-23.7	19.9	0.00e+00	0	43	102	1048576	5	4060
2026-01-07 03:12:37.51	257.71	45.09	-22.5	-23.5	19.9	0.00e+00	0	43	102	1048576	5	4022
2026-01-07 03:12:38.51	257.31	44.89	-22.2	-22.8	20.3	1.16e-03	0	43	102	1048576	5	3858
2026-01-07 03:12:39.52	256.90	44.69	-22.1	-22.7	20.4	0.00e+00	0	43	102	1048576	5	3818
2026-01-07 03:12:40.52	256.50	44.49	-22.2	-22.8	20.3	1.13e-03	0	43	102	1048576	5	3862
2026-01-07 03:12:41.53	256.11	44.28	-22.2	-22.8	20.2	9.63e-04	0	43	102	1048576	5	3864
2026-01-07 03:12:42.53	255.72	44.08	-22.1	-22.6	20.4	0.00e+00	0	44	102	1048576	5	3803
2026-01-07 03:12:43.54	255.33	43.88	-22.0	-22.9	20.5	8.75e-04	0	43	102	1048576	4	3981
2026-01-07 03:12:44.55	254.95	43.67	-22.0	-22.9	20.4	0.00e+00	0	43	102	1048576	4	3991
2026-01-07 03:12:45.56	254.58	43.47	-22.1	-23.1	20.4	0.00e+00	0	43	102	1048576	4	4025
2026-01-07 03:12:46.56	254.21	43.26	-22.2	-23.4	20.2	0.00e+00	0	43	102	1048576	4	4093
2026-01-07 03:12:47.56	253.85	43.06	-22.4	-23.8	20.0	0.00e+00	0	43	102	1048576	4	4201
2026-01-07 03:12:48.57	253.48	42.85	-22.5	-23.8	20.0	0.00e+00	0	43	102	1048576	4	4213
2026-01-07 03:12:49.58	253.13	42.65	-22.5	-23.4	20.0	0.00e+00	0	43	102	1048576	5	3997
2026-01-07 03:12:50.58	252.78	42.44	-22.6	-23.5	19.9	0.00e+00	0	43	102	1048576	5	4031
2026-01-07 03:12:51.59	252.43	42.24	-22.5	-23.5	19.9	0.00e+00	0	43	102	1048576	5	4015
2026-01-07 03:12:52.60	252.09	42.03	-22.3	-23.0	20.1	0.00e+00	0	43	102	1048576	5	3904
2026-01-07 03:12:53.61	251.75	41.82	-22.3	-22.9	20.2	0.00e+00	0	44	102	1048576	5	3879
2026-01-07 03:12:54.61	251.41	41.62	-22.4	-23.2	20.0	0.00e+00	0	43	102	1048576	5	3946
2026-01-07 03:12:55.62	251.08	41.41	-22.5	-23.4	20.0	0.00e+00	0	43	102	1048576	5	3994
2026-01-07 03:12:56.62	250.76	41.21	-22.5	-23.3	20.0	0.00e+00	0	43	102	1048576	5	3978
2026-01-07 03:12:57.63	250.44	41.00	-22.2	-22.9	20.2	0.00e+00	0	43	102	1048576	5	3865
2026-01-07 03:12:58.63	250.12	40.80	-22.4	-23.2	20.1	0.00e+00	0	44	102	1048576	5	3939
2026-01-07 03:12:59.63	249.81	40.59	-22.5	-23.4	19.9	0.00e+00	0	43	102	1048576	5	3988
2026-01-07 03:13:00.64	249.50	40.39	-22.6	-23.6	19.8	0.00e+00	0	43	102	1048576	5	4052
2026-01-07 03:13:01.65	249.19	40.18	-22.6	-23.6	19.8	0.00e+00	0	43	102	1048576	5	4036
2026-01-07 03:13:02.65	248.89	39.98	-22.4	-23.2	20.0	0.00e+00	0	43	102	1048576	5	3941
2026-01-07 03:13:03.66	248.59	39.78	-22.3	-23.1	20.1	0.00e+00	0	43	102	1048576	5	3914
2026-01-07 03:13:04.67	248.30	39.57	-22.3	-23.0	20.1	0.00e+00	0	43	102	1048576	5	3890
2026-01-07 03:13:05.66	248.01	39.37	-22.5	-23.4	19.9	0.00e+00	0	43	102	1048576	5	3981
2026-01-07 03:13:06.67	247.73	39.17	-22.5	-23.5	19.9	0.00e+00	0	43	102	1048576	5	4015
2026-01-07 03:13:07.68	247.44	38.96	-22.6	-23.6	19.8	0.00e+00	0	43	102	1048576	5	4056
2026-01-07 03:13:08.69	247.16	38.76	-22.7	-23.8	19.7	0.00e+00	0	43	102	1048576	5	4099
2026-01-07 03:13:09.69	246.89	38.56	-22.6	-23.5	19.9	0.00e+00	0	43	102	1048576	5	4012
2026-01-07 03:13:10.70	246.61	38.36	-22.8	-24.0	19.6	0.00e+00	0	43	102	1048576	5	4131
2026-01-07 03:13:11.71	246.34	38.16	-22.7	-23.9	19.7	0.00e+00	0	43	102	1048576	5	4118
2026-01-07 03:13:12.71	246.08	37.96	-22.7	-23.7	19.8	0.00e+00	0	44	102	1048576	5	4073
2026-01-07 03:13:13.72	245.81	37.76	-22.7	-23.7	19.8	0.00e+00	0	43	102	1048576	5	4077
2026-01-07 03:13:14.73	245.55	37.56	-22.7	-23.8	19.7	0.00e+00	0	43	102	1048576	5	4103
2026-01-07 03:13:15.73	245.30	37.36	-22.8	-24.1	19.6	0.00e+00	0	43	102	1048576	5	4156
2026-01-07 03:13:16.73	245.05	37.16	-22.5	-23.4	19.9	0.00e+00	0	43	102	1048576	5	3999
2026-01-07 03:13:17.74	244.80	36.96	-22.3	-22.9	20.2	0.00e+00	0	43	102	1048576	5	3867
2026-01-07 03:13:18.75	244.55	36.76	-22.3	-23.4	20.1	0.00e+00	0	43	102	1048576	4	4108
2026-01-07 03:13:19.75	244.31	36.57	-22.5	-23.9	19.9	0.00e+00	0	43	102	1048576	4	4227
2026-01-07 03:13:20.76	244.06	36.37	-22.6	-23.7	19.8	0.00e+00	0	43	102	1048576	5	4062
2026-01-07 03:13:21.77	243.83	36.18	-22.5	-23.3	20.0	0.00e+00	0	44	102	1048576	5	3983
2026-01-07 03:13:22.78	243.59	35.98	-22.3	-23.0	20.1	0.00e+00	0	43	102	1048576	5	3897
2026-01-07 03:13:23.78	243.36	35.79	-22.3	-22.9	20.2	0.00e+00	0	43	102	1048576	5	3881
2026-01-07 03:13:24.79	243.13	35.59	-22.3	-23.1	20.1	0.00e+00	0	43	102	1048576	5	3924
2026-01-07 03:13:25.79	242.90	35.40	-22.1	-22.6	20.3	0.00e+00	0	43	102	1048576	5	3807
2026-01-07 03:13:26.79	242.68	35.21	-22.0	-22.8	20.5	0.00e+00	0	43	102	1048576	4	3950
2026-01-07 03:13:27.79	242.46	35.02	-21.9	-22.6	20.6	0.00e+00	0	43	102	1048576	4	3899
2026-01-07 03:13:28.80	242.24	34.83	-21.8	-22.3	20.7	0.00e+00	0	43	102	1048576	4	3846
2026-01-07 03:13:29.81	242.02	34.64	-21.8	-22.4	20.6	0.00e+00	0	43	102	1048576	4	3857
2026-01-07 03:13:30.81	241.81	34.45	-21.9	-22.6	20.5	0.00e+00	0	43	102	1048576	4	3914
2026-01-07 03:13:31.82	241.60	34.26	-22.2	-23.2	20.2	0.00e+00	0	43	102	1048576	4	4070
2026-01-07 03:13:32.83	241.39	34.07	-22.3	-23.4	20.1	0.00e+00	0	43	102	1048576	4	4113
2026-01-07 03:13:33.84	241.18	33.88	-22.3	-23.6	20.0	0.00e+00	0	43	102	1048576	4	4162
2026-01-07 03:13:34.85	240.97	33.69	-22.2	-23.4	20.1	7.27e-04	0	43	102	1048576	4	4103
2026-01-07 03:13:35.85	240.77	33.51	-22.3	-23.5	20.1	0.00e+00	0	43	102	1048576	4	4124
2026-01-07 03:13:36.86	240.57	33.32	-22.1	-23.1	20.3	0.00e+00	0	43	102	1048576	4	4028
2026-01-07 03:13:37.86	240.38	33.14	-22.1	-23.0	20.3	0.00e+00	0	43	102	1048576	4	4004
2026-01-07 03:13:38.87	240.18	32.96	-22.2	-23.4	20.1	0.00e+00	0	43	102	1048576	4	4104
2026-01-07 03:13:39.88	239.99	32.77	-22.3	-23.5	20.1	1.34e-03	0	43	102	1048576	4	4132
2026-01-07 03:13:40.88	239.80	32.59	-22.4	-23.7	20.0	1.10e-06	0	43	102	1048576	4	4195
2026-01-07 03:13:41.89	239.61	32.41	-22.6	-23.7	19.8	0.00e+00	0	43	102	1048576	5	4057
2026-01-07 03:13:42.89	239.42	32.23	-22.9	-24.2	19.5	0.00e+00	0	43	102	1048576	5	4183
2026-01-07 03:13:43.89	239.24	32.05	-22.7	-23.8	19.7	6.17e-04	0	43	102	1048576	5	4090
2026-01-07 03:13:44.90	239.06	31.87	-22.5	-23.5	19.8	0.00e+00	0	43	102	1048576	5	4014
2026-01-07 03:13:45.91	238.88	31.69	-22.6	-23.6	19.8	0.00e+00	0	43	102	1048576	5	4029
2026-01-07 03:13:46.92	238.70	31.51	-22.7	-23.8	19.7	3.09e-04	0	43	102	1048576	5	4083
2026-01-07 03:13:47.93	238.52	31.33	-22.6	-23.6	19.7	0.00e+00	0	43	102	1048576	5	4051
2026-01-07 03:13:48.92	238.35	31.16	-22.6	-23.6	19.8	3.47e-04	0	43	102	1048576	5	4046
2026-01-07 03:13:49.93	238.18	30.98	-22.5	-23.5	19.8	1.10e-06	0	43	102	1048576	5	4017
2026-01-07 03:13:50.94	238.01	30.81	-22.6	-23.6	19.8	0.00e+00	0	43	102	1048576	5	4039
2026-01-07 03:13:51.95	237.84	30.63	-22.5	-23.4	19.9	0.00e+00	0	43	102	1048576	5	3987
2026-01-07 03:13:52.95	237.67	30.46	-22.6	-23.6	19.8	9.05e-04	0	43	102	1048576	5	4045
2026-01-07 03:13:53.96	237.50	30.29	-22.6	-23.7	19.7	0.00e+00	0	43	102	1048576	5	4066
2026-01-07 03:13:54.98	237.34	30.11	-22.7	-23.8	19.7	1.00e-03	0	43	102	1048576	5	4088
2026-01-07 03:13:55.97	237.18	29.94	-22.7	-23.9	19.6	9.75e-04	0	43	102	1048576	5	4114
2026-01-07 03:13:56.98	237.02	29.77	-22.8	-23.9	19.5	0.00e+00	0	43	102	1048576	5	4128
2026-01-07 03:13:57.99	236.86	29.60	-22.9	-24.2	19.5	7.56e-04	0	43	102	1048576	5	4184
2026-01-07 03:13:59.00	236.70	29.43	-22.9	-24.2	19.5	1.10e-06	0	43	102	1048576	5	4179
2026-01-07 03:14:00.01	236.55	29.27	-22.9	-24.3	19.4	0.00e+00	0	43	102	1048576	5	4212
2026-01-07 03:14:01.02	236.39	29.10	-22.9	-24.3	19.4	6.02e-04	0	43	102	1048576	5	4206
2026-01-07 03:14:02.03	236.24	28.93	-23.1	-24.2	19.2	6.08e-04	0	43	102	1048576	6	4082
2026-01-07 03:14:03.03	236.09	28.77	-23.4	-24.7	18.9	0.00e+00	0	43	102	1048576	6	4213
2026-01-07 03:14:04.03	235.95	28.60	-23.1	-24.1	19.2	7.27e-04	0	43	102	1048576	6	4062
2026-01-07 03:14:05.04	235.80	28.44	-23.0	-24.0	19.3	8.69e-04	0	43	102	1048576	6	4043
2026-01-07 03:14:06.04	235.65	28.27	-23.0	-23.9	19.3	0.00e+00	0	43	102	1048576	6	4003
2026-01-07 03:14:07.05	235.51	28.11	-23.1	-24.1	19.2	1.16e-03	0	43	102	1048576	6	4066
2026-01-07 03:14:08.06	235.37	27.95	-22.9	-23.7	19.4	1.09e-03	0	43	102	1048576	6	3963
2026-01-07 03:14:09.07	235.23	27.79	-23.0	-24.0	19.3	0.00e+00	0	43	102	1048576	6	4023
2026-01-07 03:14:10.08	235.09	27.63	-22.9	-23.8	19.4	1.25e-03	0	43	102	1048576	6	3973
2026-01-07 03:14:11.08	234.95	27.47	-22.9	-23.7	19.4	1.18e-03	0	44	102	1048576	6	3968
2026-01-07 03:14:12.07	234.81	27.31	-23.1	-24.1	19.2	0.00e+00	0	43	102	1048576	6	4060
2026-01-07 03:14:13.08	234.68	27.15	-23.0	-23.9	19.3	0.00e+00	0	43	102	1048576	6	4010
2026-01-07 03:14:14.09	234.54	26.99	-23.1	-24.1	19.2	1.14e-03	0	43	102	1048576	6	4051
2026-01-07 03:14:15.10	234.41	26.84	-23.1	-24.2	19.2	0.00e+00	0	43	102	1048576	6	4072
2026-01-07 03:14:16.10	234.28	26.68	-23.1	-24.2	19.2	8.17e-04	0	43	102	1048576	6	4069
2026-01-07 03:14:17.11	234.15	26.52	-23.1	-24.1	19.2	0.00e+00	0	44	102	1048576	6	4052
2026-01-07 03:14:18.12	234.02	26.37	-23.1	-24.3	19.1	0.00e+00	0	43	102	1048576	6	4097
2026-01-07 03:14:19.13	233.89	26.21	-23.2	-24.3	19.1	6.41e-04	0	43	102	1048576	6	4105
2026-01-07 03:14:20.13	233.77	26.06	-23.2	-24.3	19.1	0.00e+00	0	43	102	1048576	6	4110
2026-01-07 03:14:21.14	233.64	25.91	-23.3	-24.6	19.0	0.00e+00	0	43	102	1048576	6	4173
2026-01-07 03:14:22.15	233.52	25.76	-23.2	-24.3	19.1	0.00e+00	0	43	102	1048576	6	4106
2026-01-07 03:14:23.16	233.40	25.61	-23.2	-24.3	19.0	1.20e-04	0	43	102	1048576	6	4113
2026-01-07 03:14:24.16	233.28	25.46	-23.2	-24.4	19.0	0.00e+00	0	43	102	1048576	6	4132
2026-01-07 03:14:25.17	233.15	25.31	-23.4	-24.7	18.8	0.00e+00	0	43	102	1048576	6	4212
2026-01-07 03:14:26.17	233.04	25.16	-23.2	-24.5	19.0	0.00e+00	0	43	102	1048576	6	4149
2026-01-07 03:14:27.18	232.92	25.01	-23.1	-24.1	19.1	0.00e+00	0	43	102	1048576	6	4063
2026-01-07 03:14:28.18	232.80	24.86	-23.1	-24.2	19.1	0.00e+00	0	43	102	1048576	6	4086
2026-01-07 03:14:29.19	232.69	24.71	-23.2	-24.3	19.0	0.00e+00	0	43	102	1048576	6	4106
2026-01-07 03:14:30.20	232.57	24.57	-23.3	-24.6	18.8	0.00e+00	0	43	102	1048576	6	4185
2026-01-07 03:14:31.20	232.46	24.42	-23.2	-24.5	18.9	0.00e+00	0	43	102	1048576	6	4154
2026-01-07 03:14:32.21	232.35	24.28	-23.2	-24.5	18.9	0.00e+00	0	43	102	1048576	6	4144
2026-01-07 03:14:33.21	232.23	24.14	-23.3	-24.7	18.8	0.00e+00	0	43	102	1048576	6	4204
2026-01-07 03:14:34.21	232.13	23.99	-23.2	-24.5	18.9	0.00e+00	0	43	102	1048576	6	4152
2026-01-07 03:14:35.22	232.02	23.85	-23.2	-24.5	18.9	0.00e+00	0	43	102	1048576	6	4151
2026-01-07 03:14:36.22	231.91	23.71	-23.3	-24.6	18.8	0.00e+00	0	43	102	1048576	6	4176
2026-01-07 03:14:37.23	231.80	23.57	-23.2	-24.4	18.9	0.00e+00	0	43	102	1048576	6	4135
2026-01-07 03:14:38.23	231.69	23.43	-23.3	-24.5	18.9	0.00e+00	0	43	102	1048576	6	4159
2026-01-07 03:14:39.24	231.59	23.29	-23.1	-24.2	19.0	0.00e+00	0	43	102	1048576	6	4077
2026-01-07 03:14:40.24	231.49	23.15	-23.1	-24.3	19.0	0.00e+00	0	43	102	1048576	6	4100
2026-01-07 03:14:41.24	231.38	23.01	-23.2	-24.4	18.9	0.00e+00	0	43	102	1048576	6	4126
2026-01-07 03:14:42.25	231.28	22.87	-23.1	-24.3	19.0	0.00e+00	0	44	102	1048576	6	4094
2026-01-07 03:14:43.26	231.18	22.73	-23.2	-24.3	19.0	0.00e+00	0	43	102	1048576	6	4104
2026-01-07 03:14:44.26	231.08	22.60	-23.4	-24.7	18.8	0.00e+00	0	43	102	1048576	6	4209
2026-01-07 03:14:45.26	230.98	22.46	-23.5	-24.9	18.6	0.00e+00	0	43	102	1048576	6	4261
2026-01-07 03:14:46.27	230.88	22.32	-23.4	-24.9	18.7	1.10e-06	0	43	102	1048576	6	4247
2026-01-07 03:14:47.27	230.78	22.19	-23.5	-24.6	18.6	0.00e+00	0	43	102	1048576	7	4073
2026-01-07 03:14:48.28	230.68	22.05	-23.8	-25.2	18.2	0.00e+00	0	43	102	1048576	7	4212
2026-01-07 03:14:49.28	230.59	21.92	-23.6	-24.8	18.4	2.20e-06	0	43	102	1048576	7	4129
2026-01-07 03:14:50.29	230.49	21.79	-23.6	-24.7	18.5	0.00e+00	0	44	102	1048576	7	4097
2026-01-07 03:14:51.30	230.40	21.66	-23.7	-24.9	18.4	0.00e+00	0	43	102	1048576	7	4149
2026-01-07 03:14:52.31	230.30	21.52	-23.6	-24.9	18.4	0.00e+00	0	43	102	1048576	7	4136
2026-01-07 03:14:53.31	230.21	21.39	-23.7	-25.1	18.3	0.00e+00	0	43	102	1048576	7	4188
2026-01-07 03:14:54.32	230.12	21.26	-23.7	-24.9	18.3	0.00e+00	0	43	102	1048576	7	4155
2026-01-07 03:14:55.33	230.03	21.13	-23.8	-25.2	18.2	0.00e+00	0	43	102	1048576	7	4229
2026-01-07 03:14:56.33	229.94	21.00	-23.8	-25.2	18.2	0.00e+00	0	43	102	1048576	7	4210
2026-01-07 03:14:57.34	229.85	20.87	-23.8	-25.3	18.2	0.00e+00	0	43	102	1048576	7	4238
2026-01-07 03:14:58.35	229.76	20.74	-23.9	-25.4	18.1	0.00e+00	0	43	102	1048576	7	4281
2026-01-07 03:14:59.35	229.67	20.62	-23.9	-25.4	18.1	0.00e+00	0	43	102	1048576	7	4271
2026-01-07 03:15:00.37	229.58	20.49	-24.0	-25.5	18.0	0.00e+00	0	43	102	1048576	7	4313
2026-01-07 03:15:01.37	229.50	20.36	-24.2	-25.5	17.8	0.00e+00	0	43	102	1048576	8	4194
2026-01-07 03:15:02.38	229.41	20.23	-24.3	-25.8	17.6	0.00e+00	0	43	102	1048576	8	4259
2026-01-07 03:15:03.39	229.32	20.11	-24.2	-25.5	17.6	0.00e+00	0	43	102	1048576	8	4179
2026-01-07 03:15:04.40	229.24	19.98	-23.7	-25.0	15.4	0.00e+00	0	43	102	1048576	8	4180
2026-01-07 03:15:05.40	229.16	19.86	-24.2	-25.6	17.7	0.00e+00	0	43	102	1048576	8	4205
2026-01-07 03:15:06.41	229.07	19.73	-24.3	-25.7	15.3	0.00e+00	0	43	102	1048576	8	4249
2026-01-07 03:15:07.42	228.99	19.61	-24.1	-25.4	17.5	0.00e+00	0	43	102	1048576	8	4147
2026-01-07 03:15:08.43	228.91	19.49	-24.0	-25.2	17.9	0.00e+00	0	43	102	1048576	8	4099
2026-01-07 03:15:09.44	228.83	19.36	-24.0	-25.0	18.0	0.00e+00	0	43	102	1048576	8	4070
2026-01-07 03:15:10.44	228.75	19.24	-24.1	-25.2	17.9	1.78e-03	0	43	102	1048576	8	4112
2026-01-07 03:15:11.45	228.67	19.12	-24.2	-25.6	17.7	0.00e+00	0	43	102	1048576	8	4203
2026-01-07 03:15:12.46	228.59	19.00	-24.3	-25.8	17.6	1.79e-03	0	43	102	1048576	8	4248
2026-01-07 03:15:13.46	228.51	18.88	-24.1	-25.2	17.9	0.00e+00	0	43	102	1048576	8	4115
2026-01-07 03:15:14.47	228.43	18.76	-24.0	-25.1	17.9	0.00e+00	0	43	102	1048576	8	4079
2026-01-07 03:15:15.48	228.35	18.64	-24.1	-25.2	17.9	5.93e-04	0	44	102	1048576	8	4112
2026-01-07 03:15:16.49	228.28	18.52	-24.1	-25.4	17.8	0.00e+00	0	43	102	1048576	8	4155
2026-01-07 03:15:17.49	228.20	18.41	-24.1	-25.4	17.8	2.86e-05	0	43	102	1048576	8	4157
2026-01-07 03:15:18.50	228.12	18.29	-24.1	-25.4	17.8	0.00e+00	0	43	102	1048576	8	4152
2026-01-07 03:15:19.50	228.05	18.17	-24.2	-25.5	17.8	1.66e-03	0	43	102	1048576	8	4173
2026-01-07 03:15:20.51	227.98	18.05	-24.2	-25.5	17.7	0.00e+00	0	43	102	1048576	8	4193
2026-01-07 03:15:21.52	227.90	17.94	-24.2	-25.6	17.7	1.73e-03	0	43	102	1048576	8	4205
2026-01-07 03:15:22.53	227.83	17.82	-24.3	-25.7	17.6	1.50e-03	0	43	102	1048576	8	4248
2026-01-07 03:15:23.53	227.76	17.71	-24.4	-25.9	17.5	5.03e-05	0	43	102	1048576	8	4290
2026-01-07 03:15:24.54	227.68	17.59	-24.5	-26.1	17.4	1.48e-03	0	43	102	1048576	8	4337
2026-01-07 03:15:25.55	227.61	17.48	-24.5	-25.7	17.3	1.46e-03	0	43	102	1048576	9	4132
2026-01-07 03:15:26.55	227.54	17.37	-24.5	-25.7	17.3	2.74e-05	0	43	102	1048576	9	4123
2026-01-07 03:15:27.56	227.47	17.25	-24.5	-25.7	17.3	1.52e-03	0	43	102	1048576	9	4127
2026-01-07 03:15:28.57	227.40	17.14	-24.5	-25.7	17.3	1.41e-03	0	43	102	1048576	9	4131
2026-01-07 03:15:29.57	227.33	17.03	-24.7	-26.2	17.0	3.31e-05	0	43	102	1048576	9	4254
2026-01-07 03:15:30.58	227.26	16.92	-24.9	-26.6	16.8	1.27e-03	0	43	102	1048576	9	4361
2026-01-07 03:15:31.59	227.20	16.80	-24.9	-26.1	16.8	1.26e-03	0	43	102	1048576	10	4119
2026-01-07 03:15:32.59	227.13	16.69	-24.8	-25.9	16.9	1.49e-04	0	43	102	1048576	10	4069
2026-01-07 03:15:33.60	227.06	16.58	-24.8	-25.9	16.9	1.11e-03	0	43	102	1048576	10	4061
2026-01-07 03:15:34.61	227.00	16.47	-24.9	-26.5	16.8	0.00e+00	0	43	102	1048576	9	4339
2026-01-07 03:15:35.62	226.93	16.36	-24.9	-26.6	16.8	2.31e-04	0	44	102	1048576	9	4355
2026-01-07 03:15:36.63	226.86	16.25	-25.0	-26.3	16.7	1.33e-03	0	43	102	1048576	10	4183
2026-01-07 03:15:37.64	226.80	16.14	-25.5	-26.9	16.1	1.33e-03	0	43	102	1048576	11	4202
2026-01-07 03:15:38.64	226.73	16.04	-25.4	-26.6	16.3	0.00e+00	0	44	102	1048576	11	4136
2026-01-07 03:15:39.65	226.67	15.93	-25.1	-26.5	16.6	0.00e+00	0	43	102	1048576	10	4222
2026-01-07 03:15:40.66	226.61	15.82	-24.8	-25.9	16.9	1.22e-03	0	43	102	1048576	10	4066
2026-01-07 03:15:41.65	226.54	15.72	-24.7	-25.7	17.0	0.00e+00	0	43	102	1048576	10	4012
2026-01-07 03:15:42.66	226.48	15.61	-24.8	-26.2	17.0	1.28e-03	0	43	102	1048576	9	4266
2026-01-07 03:15:43.67	226.42	15.50	-24.8	-26.4	16.8	0.00e+00	0	43	102	1048576	9	4303
2026-01-07 03:15:44.66	226.36	15.40	-24.7	-26.2	16.9	2.21e-04	0	43	102	1048576	9	4253
2026-01-07 03:15:45.67	226.30	15.29	-24.8	-26.3	16.9	0.00e+00	0	43	102	1048576	9	4292
2026-01-07 03:15:46.68	226.23	15.19	-24.9	-26.5	16.7	0.00e+00	0	43	102	1048576	9	4347
2026-01-07 03:15:47.68	226.17	15.09	-24.9	-26.5	16.8	1.91e-04	0	43	102	1048576	9	4332
2026-01-07 03:15:48.69	226.11	14.98	-24.9	-26.5	16.8	0.00e+00	0	43	102	1048576	9	4339
2026-01-07 03:15:49.69	226.06	14.88	-25.0	-26.7	16.6	1.40e-03	0	43	102	1048576	9	4401
2026-01-07 03:15:50.70	226.00	14.78	-25.2	-26.8	16.3	0.00e+00	0	43	102	1048576	10	4297
2026-01-07 03:15:51.71	225.94	14.67	-25.3	-26.3	16.3	1.14e-03	0	43	102	1048576	11	4064
2026-01-07 03:15:52.72	225.88	14.57	-25.1	-26.6	16.5	0.00e+00	0	43	102	1048576	10	4237
2026-01-07 03:15:53.73	225.82	14.47	-25.3	-27.0	16.2	0.00e+00	0	43	102	1048576	10	4345
2026-01-07 03:15:54.73	225.76	14.37	-25.3	-26.8	16.3	0.00e+00	0	43	102	1048576	10	4302
2026-01-07 03:15:55.74	225.71	14.27	-25.1	-26.6	16.4	0.00e+00	0	43	102	1048576	10	4242
2026-01-07 03:15:56.74	225.65	14.17	-25.3	-26.8	16.3	0.00e+00	0	43	102	1048576	10	4312
2026-01-07 03:15:57.76	225.59	14.06	-25.3	-26.8	16.3	0.00e+00	0	43	102	1048576	10	4315
2026-01-07 03:15:58.76	225.54	13.96	-25.4	-27.2	16.1	0.00e+00	0	43	102	1048576	10	4404
2026-01-07 03:15:59.77	225.48	13.86	-25.4	-27.2	16.1	0.00e+00	0	43	102	1048576	10	4405
2026-01-07 03:16:00.78	225.43	13.77	-25.3	-26.9	16.2	0.00e+00	0	43	102	1048576	10	4336
2026-01-07 03:16:01.78	225.37	13.67	-25.5	-27.3	16.0	0.00e+00	0	43	102	1048576	10	4441
2026-01-07 03:16:02.79	225.32	13.57	-25.3	-27.0	16.2	0.00e+00	0	43	102	1048576	10	4361
2026-01-07 03:16:03.80	225.26	13.47	-25.4	-27.0	16.1	0.00e+00	0	43	102	1048576	10	4370
2026-01-07 03:16:04.80	225.21	13.37	-25.3	-27.0	16.2	0.00e+00	0	44	102	1048576	10	4365
2026-01-07 03:16:05.81	225.16	13.28	-25.3	-27.0	16.1	0.00e+00	0	43	102	1048576	10	4374
2026-01-07 03:16:06.80	225.11	13.18	-25.4	-27.1	16.1	1.10e-06	0	43	102	1048576	10	4400
2026-01-07 03:16:07.81	225.05	13.08	-25.4	-27.2	16.0	0.00e+00	0	43	102	1048576	10	4427
2026-01-07 03:16:08.82	225.00	12.99	-25.5	-27.4	15.9	0.00e+00	0	43	102	1048576	10	4465
2026-01-07 03:16:09.83	224.95	12.89	-25.6	-27.2	15.8	0.00e+00	0	43	102	1048576	11	4298
2026-01-07 03:16:10.83	224.90	12.80	-25.9	-27.8	15.4	0.00e+00	0	43	102	1048576	11	4466
2026-01-07 03:16:11.84	224.85	12.70	-26.0	-27.6	15.2	0.00e+00	0	43	102	1048576	12	4304
2026-01-07 03:16:12.84	224.80	12.61	-26.2	-28.0	14.9	5.70e-06	0	43	102	1048576	12	4420
2026-01-07 03:16:13.85	224.75	12.51	-26.1	-27.8	15.0	2.20e-06	0	43	102	1048576	12	4366
2026-01-07 03:16:14.86	224.70	12.42	-26.0	-27.6	15.1	0.00e+00	0	43	102	1048576	12	4305
2026-01-07 03:16:15.87	224.65	12.32	-26.1	-27.7	15.1	2.20e-06	0	43	102	1048576	12	4338
2026-01-07 03:16:16.87	224.60	12.23	-26.2	-27.9	15.0	1.10e-06	0	44	102	1048576	12	4388
2026-01-07 03:16:17.88	224.55	12.14	-26.0	-27.5	15.2	0.00e+00	0	43	102	1048576	12	4274
2026-01-07 03:16:18.89	224.50	12.04	-26.1	-27.8	15.0	0.00e+00	0	43	102	1048576	12	4363
2026-01-07 03:16:19.89	224.45	11.95	-25.9	-27.3	15.3	0.00e+00	0	43	102	1048576	12	4215
2026-01-07 03:16:20.90	224.40	11.86	-26.4	-27.8	14.7	2.20e-06	0	43	102	1048576	13	4250
2026-01-07 03:16:21.90	224.36	11.77	-26.3	-28.1	14.8	0.00e+00	0	43	102	1048576	12	4459
2026-01-07 03:16:22.91	224.31	11.68	-26.1	-27.7	15.1	1.10e-06	0	43	102	1048576	12	4324
2026-01-07 03:16:23.92	224.26	11.58	-25.7	-26.9	15.5	0.00e+00	0	43	102	1048576	12	4128
2026-01-07 03:16:24.92	224.21	11.49	-25.7	-27.3	15.6	2.20e-06	0	43	102	1048576	11	4345
2026-01-07 03:16:25.93	224.17	11.40	-25.8	-27.6	15.5	0.00e+00	0	43	102	1048576	11	4402
2026-01-07 03:16:26.93	224.12	11.31	-25.7	-27.3	15.6	0.00e+00	0	43	102	1048576	11	4319
2026-01-07 03:16:27.94	224.08	11.22	-25.6	-27.2	15.6	0.00e+00	0	44	102	1048576	11	4302
2026-01-07 03:16:28.95	224.03	11.13	-25.7	-27.4	15.6	0.00e+00	0	43	102	1048576	11	4350
2026-01-07 03:16:29.95	223.98	11.05	-25.8	-27.5	15.5	0.00e+00	0	44	102	1048576	11	4383
2026-01-07 03:16:30.96	223.94	10.96	-25.2	-26.6	14.0	0.00e+00	0	44	102	1048576	11	4234
2026-01-07 03:16:31.98	223.89	10.87	-25.9	-27.7	15.1	3.66e-05	0	43	102	1048576	11	4434
2026-01-07 03:16:32.98	223.85	10.78	-25.8	-27.5	15.1	0.00e+00	0	43	102	1048576	11	4394
2026-01-07 03:16:33.99	223.81	10.69	-26.0	-27.9	15.2	8.96e-04	0	43	102	1048576	11	4511
2026-01-07 03:16:35.00	223.76	10.60	-25.8	-27.6	15.3	0.00e+00	0	43	102	1048576	11	4431
2026-01-07 03:16:36.01	223.72	10.51	-25.8	-27.5	15.5	0.00e+00	0	43	102	1048576	11	4379
2026-01-07 03:16:37.00	223.68	10.43	-25.9	-27.8	15.3	0.00e+00	0	44	102	1048576	11	4473
2026-01-07 03:16:38.01	223.63	10.34	-25.9	-27.8	15.3	0.00e+00	0	43	102	1048576	11	4461
2026-01-07 03:16:39.02	223.59	10.25	-25.9	-27.8	15.3	9.96e-04	0	43	102	1048576	11	4472
2026-01-07 03:16:40.02	223.55	10.17	-25.9	-27.8	15.2	0.00e+00	0	43	102	1048576	11	4485
2026-01-07 03:16:41.02	223.51	10.08	-26.0	-27.6	15.0	0.00e+00	0	43	102	1048576	12	4326
2026-01-07 03:16:42.02	223.46	10.00	-26.2	-28.0	14.8	0.00e+00	0	43	102	1048576	12	4427
2026-01-07 03:16:43.03	223.42	9.91	-26.0	-27.6	15.0	1.10e-06	0	43	102	1048576	12	4314
2026-01-07 03:16:44.03	223.38	9.83	-26.0	-27.5	15.0	2.20e-06	0	44	102	1048576	12	4289
2026-01-07 03:16:45.04	223.34	9.74	-25.9	-27.4	15.1	0.00e+00	0	43	102	1048576	12	4260
2026-01-07 03:16:46.05	223.30	9.66	-26.0	-27.5	15.0	1.09e-03	0	43	102	1048576	12	4302
2026-01-07 03:16:47.05	223.26	9.57	-26.0	-27.5	15.0	0.00e+00	0	44	102	1048576	12	4276
2026-01-07 03:16:48.06	223.22	9.49	-26.0	-27.5	15.0	1.12e-03	0	43	102	1048576	12	4295
2026-01-07 03:16:49.06	223.18	9.41	-26.1	-27.8	14.8	1.10e-06	0	44	102	1048576	12	4365
2026-01-07 03:16:50.07	223.14	9.32	-26.0	-27.6	14.9	6.52e-05	0	43	102	1048576	12	4326
2026-01-07 03:16:51.08	223.10	9.24	-26.2	-28.0	14.7	1.32e-03	0	43	102	1048576	12	4416
2026-01-07 03:16:52.09	223.06	9.16	-26.4	-28.5	14.4	1.27e-03	0	43	102	1048576	12	4571
2026-01-07 03:16:53.10	223.02	9.07	-26.2	-28.0	14.7	4.80e-05	0	44	102	1048576	12	4431
2026-01-07 03:16:54.10	222.98	8.99	-26.2	-28.0	14.7	1.31e-03	0	43	102	1048576	12	4435
2026-01-07 03:16:55.10	222.94	8.91	-26.4	-28.4	14.5	1.39e-03	0	43	102	1048576	12	4534
2026-01-07 03:16:56.11	222.90	8.83	-26.3	-28.2	14.5	1.10e-06	0	43	102	1048576	12	4493
2026-01-07 03:16:57.11	222.86	8.75	-26.5	-28.6	14.3	1.31e-03	0	44	102	1048576	12	4619
2026-01-07 03:16:58.12	222.83	8.66	-26.4	-28.5	14.3	1.24e-03	0	43	102	1048576	12	4579
2026-01-07 03:16:59.12	222.79	8.58	-26.6	-28.4	14.1	7.89e-05	0	43	102	1048576	13	4434
2026-01-07 03:17:00.13	222.75	8.50	-26.5	-28.1	14.3	1.03e-03	0	43	102	1048576	13	4363
2026-01-07 03:17:01.13	222.71	8.42	-26.6	-28.3	14.2	1.12e-03	0	43	102	1048576	13	4417
2026-01-07 03:17:02.14	222.68	8.34	-26.5	-28.2	14.2	5.83e-05	0	44	102	1048576	13	4376
2026-01-07 03:17:03.14	222.64	8.26	-26.5	-28.2	14.2	1.10e-06	0	43	102	1048576	13	4381
2026-01-07 03:17:04.14	222.60	8.18	-26.8	-28.9	13.8	1.02e-03	0	43	102	1048576	13	4596
2026-01-07 03:17:05.15	222.57	8.10	-26.7	-28.6	14.0	1.43e-04	0	44	102	1048576	13	4497
2026-01-07 03:17:06.15	222.53	8.02	-26.6	-28.4	14.1	8.98e-04	0	43	102	1048576	13	4432
2026-01-07 03:17:07.15	222.49	7.94	-26.5	-28.1	14.2	7.12e-04	0	43	102	1048576	13	4357
2026-01-07 03:17:08.16	222.46	7.87	-26.5	-28.3	14.1	2.51e-05	0	43	102	1048576	13	4411
2026-01-07 03:17:09.17	222.42	7.79	-26.6	-28.4	14.0	4.47e-04	0	43	102	1048576	13	4437
2026-01-07 03:17:10.17	222.39	7.71	-26.6	-28.5	14.0	5.70e-06	0	44	102	1048576	13	4471
2026-01-07 03:17:11.18	222.35	7.63	-26.6	-28.5	14.0	9.15e-05	0	43	102	1048576	13	4462
2026-01-07 03:17:12.19	222.32	7.55	-26.7	-28.6	13.9	8.00e-06	0	43	102	1048576	13	4514
