passes_logs/2026/01/07/R2M6_AANII_01/R2M6_AANII_01__20260107_111828_FENGYUN_3D_rec.log

#Pass ID: 20260107_111828_FENGYUN 3D
#Satellite: FENGYUN 3D
#Configuration: FENGYUN 3D
#almurnet v.1.7.20240730
#Start time: 2026-01-07 11:18:28

#Version: 2.2.20231116
#Station: R2M6_AANII_01
#Location: 30.233357 lon 59.946436 lat
#TLE: 1 43010U 17072A   26006.26440730  .00000376  00000+0  19957-3 0  9994
#TLE: 2 43010  98.9925 337.9455 0002045 123.9195 236.2175 14.19693586422016

#Time	Az	El	Level	Level2	SNR	BER	BlckErr	Temp	State	Recorded	gain1	gain2
2026-01-07 11:18:28.36	128.07	6.96	-29.3	-32.0	5.5	7.83e-01	0	41	0	0	19	4922
2026-01-07 11:18:29.36	128.02	7.03	-29.7	-33.2	5.3	7.89e-01	0	41	104	0	19	5352
2026-01-07 11:18:30.37	127.97	7.11	-29.6	-32.9	9.9	7.73e-03	0	41	0	0	19	5208
2026-01-07 11:18:31.38	127.92	7.18	-29.6	-32.8	10.0	4.81e-03	0	41	102	1048576	19	5177
2026-01-07 11:18:32.38	127.87	7.26	-29.6	-32.7	10.0	7.71e-03	0	41	102	1048576	19	5160
2026-01-07 11:18:33.39	127.82	7.33	-29.3	-32.0	10.5	3.07e-03	0	41	102	1048576	19	4895
2026-01-07 11:18:34.40	127.77	7.41	-29.2	-31.6	10.7	2.39e-03	0	41	102	1048576	19	4769
2026-01-07 11:18:35.40	127.71	7.48	-29.0	-31.2	11.1	1.44e-03	0	41	102	1048576	19	4620
2026-01-07 11:18:36.41	127.66	7.56	-29.0	-31.0	11.2	1.00e-03	0	41	102	1048576	19	4562
2026-01-07 11:18:37.42	127.61	7.64	-29.0	-31.1	11.1	9.47e-04	0	41	102	1048576	19	4588
2026-01-07 11:18:38.43	127.56	7.71	-29.2	-31.6	10.8	1.43e-03	0	41	102	1048576	19	4764
2026-01-07 11:18:39.43	127.50	7.79	-29.3	-32.0	10.6	2.98e-03	0	41	102	1048576	19	4875
2026-01-07 11:18:40.44	127.45	7.86	-28.9	-30.8	11.3	1.22e-03	0	41	102	1048576	19	4494
2026-01-07 11:18:41.45	127.40	7.94	-28.4	-30.2	12.1	3.72e-04	0	41	102	1048576	18	4397
2026-01-07 11:18:42.46	127.34	8.02	-28.0	-29.7	12.6	8.35e-05	0	42	102	1048576	17	4369
2026-01-07 11:18:43.46	127.29	8.09	-27.7	-29.4	13.2	1.94e-05	0	41	102	1048576	16	4385
2026-01-07 11:18:44.46	127.24	8.17	-27.5	-28.9	13.5	8.00e-06	0	42	102	1048576	16	4233
2026-01-07 11:18:45.46	127.18	8.25	-27.4	-28.7	13.6	8.00e-06	0	42	102	1048576	16	4175
2026-01-07 11:18:46.46	127.13	8.33	-27.2	-28.7	13.7	1.10e-06	0	42	102	1048576	15	4287
2026-01-07 11:18:47.47	127.07	8.40	-27.1	-28.6	13.8	1.02e-05	0	42	102	1048576	15	4268
2026-01-07 11:18:48.47	127.02	8.48	-27.1	-28.4	13.9	1.10e-06	0	42	102	1048576	15	4220
2026-01-07 11:18:49.48	126.96	8.56	-27.1	-28.5	13.8	2.20e-06	0	42	102	1048576	15	4234
2026-01-07 11:18:50.49	126.90	8.64	-27.0	-28.3	14.0	2.20e-06	0	42	102	1048576	15	4178
2026-01-07 11:18:51.50	126.85	8.72	-27.0	-28.2	14.0	2.20e-06	0	42	102	1048576	15	4149
2026-01-07 11:18:52.51	126.79	8.80	-27.0	-28.2	14.1	0.00e+00	0	42	102	1048576	15	4150
2026-01-07 11:18:53.51	126.73	8.88	-27.0	-28.3	14.0	1.10e-06	0	42	102	1048576	15	4169
2026-01-07 11:18:54.52	126.68	8.96	-27.0	-28.3	14.0	0.00e+00	0	42	102	1048576	15	4185
2026-01-07 11:18:55.53	126.62	9.04	-26.9	-28.1	14.1	0.00e+00	0	42	102	1048576	15	4131
2026-01-07 11:18:56.54	126.56	9.12	-26.9	-28.1	14.1	1.10e-06	0	42	102	1048576	15	4127
2026-01-07 11:18:57.54	126.50	9.19	-26.8	-27.9	14.2	0.00e+00	0	42	102	1048576	15	4070
2026-01-07 11:18:58.55	126.44	9.28	-26.9	-28.1	14.2	0.00e+00	0	42	102	1048576	15	4112
2026-01-07 11:18:59.56	126.38	9.36	-26.9	-28.1	14.2	2.20e-06	0	42	102	1048576	15	4114
2026-01-07 11:19:00.56	126.32	9.44	-26.8	-28.2	14.4	2.20e-06	0	42	102	1048576	14	4262
2026-01-07 11:19:01.57	126.26	9.52	-26.8	-28.2	14.4	0.00e+00	0	42	102	1048576	14	4267
2026-01-07 11:19:02.57	126.20	9.60	-26.8	-28.4	14.3	1.10e-06	0	42	102	1048576	14	4317
2026-01-07 11:19:03.57	126.14	9.68	-26.8	-28.4	14.3	1.10e-06	0	42	102	1048576	14	4301
2026-01-07 11:19:04.58	126.08	9.76	-26.8	-28.4	14.3	2.20e-06	0	42	102	1048576	14	4305
2026-01-07 11:19:05.59	126.02	9.84	-26.7	-28.2	14.4	0.00e+00	0	42	102	1048576	14	4245
2026-01-07 11:19:06.60	125.96	9.93	-26.7	-28.2	14.5	0.00e+00	0	42	102	1048576	14	4244
2026-01-07 11:19:07.60	125.90	10.01	-26.7	-28.2	14.5	0.00e+00	0	42	102	1048576	14	4245
2026-01-07 11:19:08.61	125.84	10.09	-26.8	-28.3	14.4	0.00e+00	0	42	102	1048576	14	4276
2026-01-07 11:19:09.61	125.77	10.17	-26.8	-28.2	14.4	0.00e+00	0	42	102	1048576	14	4262
2026-01-07 11:19:10.62	125.71	10.26	-26.6	-27.9	14.6	0.00e+00	0	42	102	1048576	14	4184
2026-01-07 11:19:11.63	125.65	10.34	-26.6	-27.9	14.6	0.00e+00	0	42	102	1048576	14	4172
2026-01-07 11:19:12.63	125.58	10.42	-26.6	-27.9	14.7	0.00e+00	0	42	102	1048576	14	4166
2026-01-07 11:19:13.64	125.52	10.51	-26.6	-27.8	14.7	0.00e+00	0	42	102	1048576	14	4154
2026-01-07 11:19:14.64	125.46	10.59	-26.6	-27.8	14.7	0.00e+00	0	42	102	1048576	14	4135
2026-01-07 11:19:15.65	125.39	10.68	-26.5	-27.7	14.7	0.00e+00	0	42	102	1048576	14	4128
2026-01-07 11:19:16.65	125.33	10.76	-26.5	-27.7	14.8	0.00e+00	0	42	102	1048576	14	4111
2026-01-07 11:19:17.66	125.26	10.85	-26.7	-28.0	14.6	0.00e+00	0	42	102	1048576	14	4190
2026-01-07 11:19:18.67	125.19	10.93	-26.6	-27.8	14.7	0.00e+00	0	42	102	1048576	14	4152
2026-01-07 11:19:19.68	125.13	11.02	-26.4	-27.5	14.9	2.20e-06	0	42	102	1048576	14	4066
2026-01-07 11:19:20.69	125.06	11.10	-26.4	-27.5	14.9	0.00e+00	0	42	102	1048576	14	4054
2026-01-07 11:19:21.70	124.99	11.19	-26.5	-27.5	14.9	0.00e+00	0	42	102	1048576	14	4062
2026-01-07 11:19:22.70	124.92	11.27	-26.5	-27.5	14.9	3.40e-06	0	42	102	1048576	14	4069
2026-01-07 11:19:23.71	124.86	11.36	-26.6	-27.8	14.7	0.00e+00	0	42	102	1048576	14	4134
2026-01-07 11:19:24.72	124.79	11.45	-26.5	-27.6	14.9	0.00e+00	0	42	102	1048576	14	4077
2026-01-07 11:19:25.73	124.72	11.54	-26.3	-27.2	15.1	0.00e+00	0	42	102	1048576	14	3987
2026-01-07 11:19:26.73	124.65	11.62	-26.2	-27.4	15.3	0.00e+00	0	42	102	1048576	13	4142
2026-01-07 11:19:27.74	124.58	11.71	-26.2	-27.3	15.3	0.00e+00	0	42	102	1048576	13	4122
2026-01-07 11:19:28.75	124.51	11.80	-26.2	-27.5	15.2	2.20e-06	0	43	102	1048576	13	4167
2026-01-07 11:19:29.75	124.44	11.89	-26.2	-27.5	15.2	0.00e+00	0	42	102	1048576	13	4159
2026-01-07 11:19:30.76	124.37	11.97	-26.2	-27.5	15.2	0.00e+00	0	42	102	1048576	13	4159
2026-01-07 11:19:31.77	124.29	12.06	-26.3	-27.6	15.2	1.10e-06	0	42	102	1048576	13	4192
2026-01-07 11:19:32.78	124.22	12.15	-26.2	-27.4	15.3	0.00e+00	0	42	102	1048576	13	4133
2026-01-07 11:19:33.78	124.15	12.24	-26.1	-27.1	15.5	0.00e+00	0	42	102	1048576	13	4066
2026-01-07 11:19:34.79	124.08	12.33	-26.2	-27.4	15.4	0.00e+00	0	42	102	1048576	13	4125
2026-01-07 11:19:35.79	124.00	12.42	-26.1	-27.3	15.4	0.00e+00	0	42	102	1048576	13	4099
2026-01-07 11:19:36.79	123.93	12.51	-26.2	-27.5	15.3	0.00e+00	0	43	102	1048576	13	4170
2026-01-07 11:19:37.80	123.86	12.60	-26.2	-27.3	15.4	0.00e+00	0	42	102	1048576	13	4126
2026-01-07 11:19:38.81	123.78	12.69	-26.1	-27.1	15.5	0.00e+00	0	42	102	1048576	13	4061
2026-01-07 11:19:39.82	123.71	12.78	-26.0	-27.0	15.6	0.00e+00	0	43	102	1048576	13	4046
2026-01-07 11:19:40.83	123.63	12.87	-26.1	-27.3	15.5	0.00e+00	0	42	102	1048576	13	4105
2026-01-07 11:19:41.83	123.55	12.97	-26.1	-27.2	15.5	0.00e+00	0	42	102	1048576	13	4075
2026-01-07 11:19:42.83	123.48	13.06	-26.0	-27.0	15.6	0.00e+00	0	43	102	1048576	13	4030
2026-01-07 11:19:43.84	123.40	13.15	-26.0	-27.0	15.6	0.00e+00	0	43	102	1048576	13	4037
2026-01-07 11:19:44.85	123.32	13.24	-26.1	-27.1	15.5	0.00e+00	0	42	102	1048576	13	4075
2026-01-07 11:19:45.86	123.24	13.33	-25.9	-26.8	15.7	0.00e+00	0	43	102	1048576	13	3992
2026-01-07 11:19:46.86	123.16	13.43	-25.8	-26.6	15.8	0.00e+00	0	42	102	1048576	13	3935
2026-01-07 11:19:47.87	123.09	13.52	-25.8	-26.6	15.8	0.00e+00	0	43	102	1048576	13	3940
2026-01-07 11:19:48.88	123.00	13.61	-25.8	-27.0	15.9	0.00e+00	0	43	102	1048576	12	4138
2026-01-07 11:19:49.89	122.92	13.71	-25.9	-27.2	15.8	0.00e+00	0	43	102	1048576	12	4195
2026-01-07 11:19:50.90	122.84	13.80	-25.8	-27.0	15.9	0.00e+00	0	43	102	1048576	12	4130
2026-01-07 11:19:51.91	122.76	13.90	-25.7	-26.7	16.0	0.00e+00	0	43	102	1048576	12	4073
2026-01-07 11:19:52.92	122.68	13.99	-25.7	-26.9	16.0	0.00e+00	0	43	102	1048576	12	4101
2026-01-07 11:19:53.93	122.60	14.09	-25.7	-26.7	16.1	0.00e+00	0	43	102	1048576	12	4061
2026-01-07 11:19:54.94	122.51	14.18	-25.6	-26.7	16.1	0.00e+00	0	43	102	1048576	12	4055
2026-01-07 11:19:55.95	122.43	14.28	-25.6	-26.6	16.1	0.00e+00	0	43	102	1048576	12	4043
2026-01-07 11:19:56.95	122.35	14.38	-25.7	-26.7	16.1	0.00e+00	0	43	102	1048576	12	4067
2026-01-07 11:19:57.96	122.26	14.47	-25.6	-26.6	16.2	0.00e+00	0	43	102	1048576	12	4028
2026-01-07 11:19:58.97	122.17	14.57	-25.6	-26.6	16.1	0.00e+00	0	43	102	1048576	12	4045
2026-01-07 11:19:59.97	122.09	14.67	-25.6	-26.5	16.2	0.00e+00	0	43	102	1048576	12	4005
2026-01-07 11:20:00.98	122.00	14.76	-25.6	-26.6	16.1	0.00e+00	0	43	102	1048576	12	4039
2026-01-07 11:20:01.99	121.92	14.86	-25.6	-26.5	16.2	0.00e+00	0	43	102	1048576	12	4017
2026-01-07 11:20:02.99	121.83	14.96	-25.7	-26.7	16.1	0.00e+00	0	43	102	1048576	12	4076
2026-01-07 11:20:04.00	121.74	15.06	-25.6	-26.6	16.1	0.00e+00	0	43	102	1048576	12	4047
2026-01-07 11:20:05.01	121.65	15.16	-25.6	-26.6	16.2	0.00e+00	0	43	102	1048576	12	4039
2026-01-07 11:20:06.02	121.56	15.26	-25.7	-26.9	16.0	0.00e+00	0	43	102	1048576	12	4107
2026-01-07 11:20:07.02	121.47	15.35	-25.6	-26.6	16.2	0.00e+00	0	43	102	1048576	12	4029
2026-01-07 11:20:08.03	121.38	15.45	-25.6	-26.6	16.2	0.00e+00	0	43	102	1048576	12	4042
2026-01-07 11:20:09.04	121.29	15.56	-25.7	-26.8	16.1	0.00e+00	0	43	102	1048576	12	4081
2026-01-07 11:20:10.05	121.20	15.66	-25.7	-26.8	16.1	0.00e+00	0	43	102	1048576	12	4078
2026-01-07 11:20:11.06	121.10	15.76	-25.7	-26.8	16.1	0.00e+00	0	43	102	1048576	12	4096
2026-01-07 11:20:12.07	121.01	15.86	-25.7	-26.9	16.0	0.00e+00	0	43	102	1048576	12	4111
2026-01-07 11:20:13.08	120.92	15.96	-25.9	-27.1	15.9	0.00e+00	0	43	102	1048576	12	4176
2026-01-07 11:20:14.09	120.82	16.06	-25.7	-26.7	16.1	0.00e+00	0	43	102	1048576	12	4063
2026-01-07 11:20:15.09	120.73	16.16	-25.8	-27.0	16.0	0.00e+00	0	43	102	1048576	12	4154
2026-01-07 11:20:16.10	120.63	16.27	-25.7	-26.7	16.1	0.00e+00	0	43	102	1048576	12	4067
2026-01-07 11:20:17.11	120.53	16.37	-25.6	-26.6	16.2	0.00e+00	0	43	102	1048576	12	4048
2026-01-07 11:20:18.12	120.44	16.47	-25.6	-26.6	16.2	0.00e+00	0	43	102	1048576	12	4032
2026-01-07 11:20:19.12	120.34	16.58	-25.4	-26.2	16.4	0.00e+00	0	43	102	1048576	12	3939
2026-01-07 11:20:20.13	120.24	16.68	-25.4	-26.2	16.5	0.00e+00	0	43	102	1048576	12	3927
2026-01-07 11:20:21.14	120.14	16.78	-25.5	-26.5	16.3	0.00e+00	0	43	102	1048576	12	4004
2026-01-07 11:20:22.15	120.04	16.89	-25.4	-26.2	16.5	0.00e+00	0	43	102	1048576	12	3933
2026-01-07 11:20:23.16	119.94	16.99	-25.3	-26.5	16.6	0.00e+00	0	43	102	1048576	11	4109
2026-01-07 11:20:24.16	119.84	17.10	-25.2	-26.2	16.8	0.00e+00	0	43	102	1048576	11	4047
2026-01-07 11:20:25.17	119.74	17.20	-25.2	-26.2	16.8	0.00e+00	0	43	102	1048576	11	4046
2026-01-07 11:20:26.18	119.63	17.31	-25.3	-26.4	16.7	0.00e+00	0	43	102	1048576	11	4087
2026-01-07 11:20:27.18	119.53	17.42	-25.1	-26.0	16.9	0.00e+00	0	43	102	1048576	11	3998
2026-01-07 11:20:28.19	119.42	17.52	-25.1	-25.9	17.0	0.00e+00	0	43	102	1048576	11	3974
2026-01-07 11:20:29.20	119.32	17.63	-25.1	-25.9	17.0	0.00e+00	0	43	102	1048576	11	3960
2026-01-07 11:20:30.21	119.21	17.74	-25.0	-25.7	17.1	0.00e+00	0	43	102	1048576	11	3904
2026-01-07 11:20:31.21	119.11	17.85	-24.9	-25.6	17.1	0.00e+00	0	43	102	1048576	11	3897
2026-01-07 11:20:32.21	119.00	17.95	-25.0	-25.8	17.1	0.00e+00	0	43	102	1048576	11	3938
2026-01-07 11:20:33.22	118.89	18.06	-24.9	-25.5	17.2	0.00e+00	0	43	102	1048576	11	3877
2026-01-07 11:20:34.23	118.78	18.17	-24.9	-25.5	17.2	0.00e+00	0	43	102	1048576	11	3873
2026-01-07 11:20:35.23	118.67	18.28	-25.0	-25.7	17.1	0.00e+00	0	43	102	1048576	11	3917
2026-01-07 11:20:36.24	118.56	18.39	-25.0	-25.6	17.1	0.00e+00	0	43	102	1048576	11	3900
2026-01-07 11:20:37.25	118.45	18.50	-24.9	-25.6	17.1	0.00e+00	0	43	102	1048576	11	3899
2026-01-07 11:20:38.25	118.34	18.61	-25.0	-25.8	17.1	0.00e+00	0	43	102	1048576	11	3932
2026-01-07 11:20:39.26	118.22	18.72	-25.0	-25.8	17.1	0.00e+00	0	43	102	1048576	11	3943
2026-01-07 11:20:40.27	118.11	18.83	-25.1	-25.9	17.0	0.00e+00	0	43	102	1048576	11	3971
2026-01-07 11:20:41.28	118.00	18.94	-25.0	-25.8	17.1	0.00e+00	0	43	102	1048576	11	3938
2026-01-07 11:20:42.28	117.88	19.05	-25.0	-25.7	17.1	0.00e+00	0	43	102	1048576	11	3916
2026-01-07 11:20:43.29	117.76	19.17	-24.9	-25.6	17.2	0.00e+00	0	43	102	1048576	11	3888
2026-01-07 11:20:44.29	117.65	19.28	-24.9	-25.6	17.2	0.00e+00	0	43	102	1048576	11	3883
2026-01-07 11:20:45.30	117.53	19.39	-24.9	-25.5	17.2	0.00e+00	0	43	102	1048576	11	3878
2026-01-07 11:20:46.31	117.41	19.51	-25.0	-25.8	17.1	0.00e+00	0	43	102	1048576	11	3953
2026-01-07 11:20:47.32	117.29	19.62	-25.0	-25.8	17.1	0.00e+00	0	43	102	1048576	11	3949
2026-01-07 11:20:48.32	117.17	19.73	-24.8	-25.3	17.3	0.00e+00	0	43	102	1048576	11	3828
2026-01-07 11:20:49.33	117.04	19.85	-24.7	-25.5	17.5	0.00e+00	0	43	102	1048576	10	3981
2026-01-07 11:20:50.34	116.92	19.96	-24.7	-25.7	17.4	0.00e+00	0	43	102	1048576	10	4014
2026-01-07 11:20:51.35	116.80	20.08	-24.7	-25.6	17.5	0.00e+00	0	43	102	1048576	10	3988
2026-01-07 11:20:52.34	116.67	20.19	-24.5	-25.1	17.8	0.00e+00	0	43	102	1048576	10	3874
2026-01-07 11:20:53.35	116.55	20.31	-24.5	-25.2	17.7	0.00e+00	0	43	102	1048576	10	3889
2026-01-07 11:20:54.36	116.42	20.43	-24.5	-25.3	17.7	0.00e+00	0	43	102	1048576	10	3911
2026-01-07 11:20:55.36	116.29	20.54	-24.5	-25.2	17.7	0.00e+00	0	43	102	1048576	10	3910
2026-01-07 11:20:56.37	116.16	20.66	-24.6	-25.5	17.6	0.00e+00	0	43	102	1048576	10	3972
2026-01-07 11:20:57.38	116.03	20.78	-24.7	-25.7	17.5	0.00e+00	0	43	102	1048576	10	4012
2026-01-07 11:20:58.39	115.90	20.90	-24.5	-25.3	17.7	0.00e+00	0	43	102	1048576	10	3916
2026-01-07 11:20:59.40	115.77	21.02	-24.5	-25.1	17.8	0.00e+00	0	43	102	1048576	10	3873
2026-01-07 11:21:00.40	115.64	21.13	-24.5	-25.2	17.7	0.00e+00	0	43	102	1048576	10	3907
2026-01-07 11:21:01.41	115.50	21.25	-24.5	-25.1	17.8	0.00e+00	0	43	102	1048576	10	3878
2026-01-07 11:21:02.42	115.37	21.37	-24.3	-24.8	18.0	0.00e+00	0	43	102	1048576	10	3793
2026-01-07 11:21:03.42	115.23	21.49	-24.4	-24.9	17.9	0.00e+00	0	43	102	1048576	10	3824
2026-01-07 11:21:04.43	115.10	21.61	-24.3	-24.7	18.0	0.00e+00	0	43	102	1048576	10	3785
2026-01-07 11:21:05.44	114.96	21.74	-24.2	-25.1	18.1	0.00e+00	0	43	102	1048576	9	3977
2026-01-07 11:21:06.44	114.82	21.86	-24.3	-25.3	17.9	0.00e+00	0	43	102	1048576	9	4029
2026-01-07 11:21:07.44	114.68	21.98	-24.1	-24.9	18.1	0.00e+00	0	43	102	1048576	9	3938
2026-01-07 11:21:08.44	114.54	22.10	-24.1	-24.8	18.2	0.00e+00	0	43	102	1048576	9	3908
2026-01-07 11:21:09.45	114.40	22.22	-24.1	-24.9	18.2	0.00e+00	0	43	102	1048576	9	3938
2026-01-07 11:21:10.46	114.25	22.34	-24.2	-24.9	18.2	0.00e+00	0	43	102	1048576	9	3940
2026-01-07 11:21:11.47	114.11	22.47	-24.1	-24.7	18.3	0.00e+00	0	43	102	1048576	9	3892
2026-01-07 11:21:12.48	113.96	22.59	-24.1	-24.7	18.3	0.00e+00	0	43	102	1048576	9	3890
2026-01-07 11:21:13.49	113.81	22.72	-24.1	-24.8	18.2	0.00e+00	0	43	102	1048576	9	3915
2026-01-07 11:21:14.49	113.66	22.84	-24.1	-24.8	18.2	0.00e+00	0	43	102	1048576	9	3909
2026-01-07 11:21:15.50	113.51	22.97	-23.9	-24.3	18.5	0.00e+00	0	43	102	1048576	9	3789
2026-01-07 11:21:16.50	113.36	23.09	-23.8	-24.1	18.6	0.00e+00	0	43	102	1048576	9	3751
2026-01-07 11:21:17.51	113.21	23.22	-23.8	-24.2	18.6	0.00e+00	0	43	102	1048576	9	3755
2026-01-07 11:21:18.51	113.06	23.34	-23.8	-24.7	18.6	0.00e+00	0	43	102	1048576	8	3976
2026-01-07 11:21:19.51	112.91	23.47	-23.8	-24.6	18.6	0.00e+00	0	43	102	1048576	8	3962
2026-01-07 11:21:20.52	112.75	23.59	-23.7	-24.5	18.7	0.00e+00	0	43	102	1048576	8	3928
2026-01-07 11:21:21.52	112.59	23.72	-23.8	-24.7	18.6	0.00e+00	0	43	102	1048576	8	3987
2026-01-07 11:21:22.53	112.43	23.85	-23.9	-24.9	18.4	0.00e+00	0	43	102	1048576	8	4052
2026-01-07 11:21:23.53	112.28	23.98	-23.9	-24.9	18.5	0.00e+00	0	43	102	1048576	8	4045
2026-01-07 11:21:24.54	112.11	24.10	-23.9	-25.0	18.4	0.00e+00	0	43	102	1048576	8	4070
2026-01-07 11:21:25.55	111.95	24.23	-24.0	-25.1	18.4	0.00e+00	0	43	102	1048576	8	4081
2026-01-07 11:21:26.55	111.79	24.36	-23.9	-25.0	18.4	0.00e+00	0	43	102	1048576	8	4061
2026-01-07 11:21:27.56	111.62	24.49	-24.0	-25.1	18.3	0.00e+00	0	43	102	1048576	8	4100
2026-01-07 11:21:28.57	111.45	24.62	-23.9	-25.0	18.4	0.00e+00	0	43	102	1048576	8	4061
2026-01-07 11:21:29.57	111.29	24.75	-23.7	-24.6	18.6	0.00e+00	0	43	102	1048576	8	3954
2026-01-07 11:21:30.58	111.12	24.88	-23.7	-24.5	18.7	0.00e+00	0	43	102	1048576	8	3942
2026-01-07 11:21:31.59	110.95	25.01	-23.7	-24.4	18.7	0.00e+00	0	43	102	1048576	8	3914
2026-01-07 11:21:32.59	110.78	25.14	-23.7	-24.4	18.7	0.00e+00	0	43	102	1048576	8	3907
2026-01-07 11:21:33.59	110.60	25.27	-23.6	-24.2	18.8	0.00e+00	0	43	102	1048576	8	3881
2026-01-07 11:21:34.60	110.43	25.41	-23.4	-23.8	19.1	0.00e+00	0	43	102	1048576	8	3772
2026-01-07 11:21:35.61	110.25	25.54	-23.3	-23.6	19.2	0.00e+00	0	43	102	1048576	8	3725
2026-01-07 11:21:36.61	110.07	25.67	-23.4	-23.9	19.1	0.00e+00	0	43	102	1048576	8	3792
2026-01-07 11:21:37.62	109.89	25.81	-23.4	-23.8	19.1	0.00e+00	0	43	102	1048576	8	3782
2026-01-07 11:21:38.62	109.71	25.94	-23.4	-23.9	19.1	0.00e+00	0	43	102	1048576	8	3795
2026-01-07 11:21:39.64	109.53	26.07	-23.5	-24.0	19.0	0.00e+00	0	43	102	1048576	8	3829
2026-01-07 11:21:40.64	109.34	26.21	-23.5	-24.2	18.9	0.00e+00	0	43	102	1048576	8	3859
2026-01-07 11:21:41.65	109.16	26.34	-23.6	-24.3	18.8	0.00e+00	0	43	102	1048576	8	3890
2026-01-07 11:21:42.65	108.97	26.48	-23.7	-24.5	18.7	0.00e+00	0	43	102	1048576	8	3935
2026-01-07 11:21:43.66	108.78	26.61	-23.7	-24.4	18.8	0.00e+00	0	43	102	1048576	8	3917
2026-01-07 11:21:44.66	108.59	26.75	-23.5	-24.1	18.9	0.00e+00	0	43	102	1048576	8	3838
2026-01-07 11:21:45.67	108.40	26.88	-23.5	-24.1	18.9	0.00e+00	0	43	102	1048576	8	3856
2026-01-07 11:21:46.66	108.21	27.02	-23.4	-23.9	19.0	0.00e+00	0	43	102	1048576	8	3805
2026-01-07 11:21:47.66	108.01	27.15	-23.4	-23.8	19.1	0.00e+00	0	43	102	1048576	8	3786
2026-01-07 11:21:48.67	107.81	27.29	-23.4	-23.8	19.1	0.00e+00	0	43	102	1048576	8	3773
2026-01-07 11:21:49.67	107.62	27.42	-23.5	-24.0	19.0	0.00e+00	0	43	102	1048576	8	3827
2026-01-07 11:21:50.68	107.41	27.56	-23.5	-24.0	19.0	0.00e+00	0	43	102	1048576	8	3824
2026-01-07 11:21:51.69	107.21	27.70	-23.5	-24.0	19.0	0.00e+00	0	43	102	1048576	8	3829
2026-01-07 11:21:52.70	107.01	27.84	-23.6	-24.2	18.9	0.00e+00	0	43	102	1048576	8	3867
2026-01-07 11:21:53.71	106.80	27.98	-23.7	-24.5	18.8	0.00e+00	0	43	102	1048576	8	3943
2026-01-07 11:21:54.72	106.59	28.12	-23.6	-24.3	18.9	0.00e+00	0	43	102	1048576	8	3897
2026-01-07 11:21:55.72	106.38	28.25	-23.6	-24.1	18.9	0.00e+00	0	43	102	1048576	8	3855
2026-01-07 11:21:56.73	106.17	28.39	-23.6	-24.2	18.9	0.00e+00	0	43	102	1048576	8	3877
2026-01-07 11:21:57.74	105.96	28.53	-23.5	-24.0	19.0	0.00e+00	0	43	102	1048576	8	3825
2026-01-07 11:21:58.74	105.74	28.67	-23.5	-24.0	19.0	0.00e+00	0	43	102	1048576	8	3812
2026-01-07 11:21:59.75	105.52	28.81	-23.5	-24.0	19.1	0.00e+00	0	43	102	1048576	8	3813
2026-01-07 11:22:00.76	105.30	28.95	-23.6	-24.3	18.9	0.00e+00	0	43	102	1048576	8	3886
2026-01-07 11:22:01.77	105.08	29.09	-23.5	-24.1	19.0	0.00e+00	0	44	102	1048576	8	3839
2026-01-07 11:22:02.77	104.86	29.23	-23.4	-23.9	19.1	0.00e+00	0	43	102	1048576	8	3803
2026-01-07 11:22:03.78	104.63	29.37	-23.4	-23.9	19.1	0.00e+00	0	43	102	1048576	8	3804
2026-01-07 11:22:04.78	104.41	29.51	-23.4	-23.8	19.1	0.00e+00	0	43	102	1048576	8	3787
2026-01-07 11:22:05.79	104.18	29.65	-23.4	-23.9	19.1	0.00e+00	0	43	102	1048576	8	3794
2026-01-07 11:22:06.80	103.95	29.80	-23.5	-24.1	19.0	0.00e+00	0	43	102	1048576	8	3846
2026-01-07 11:22:07.81	103.71	29.94	-23.4	-23.9	19.1	0.00e+00	0	43	102	1048576	8	3798
2026-01-07 11:22:08.82	103.48	30.08	-23.3	-23.6	19.3	0.00e+00	0	43	102	1048576	8	3732
2026-01-07 11:22:09.83	103.24	30.22	-23.4	-23.8	19.2	0.00e+00	0	43	102	1048576	8	3772
2026-01-07 11:22:10.83	103.00	30.36	-23.3	-23.7	19.3	0.00e+00	0	43	102	1048576	8	3740
2026-01-07 11:22:11.84	102.76	30.50	-23.3	-23.7	19.2	0.00e+00	0	43	102	1048576	8	3749
2026-01-07 11:22:12.85	102.51	30.65	-23.4	-23.9	19.1	0.00e+00	0	43	102	1048576	8	3797
2026-01-07 11:22:13.86	102.27	30.79	-23.4	-23.8	19.2	0.00e+00	0	43	102	1048576	8	3768
2026-01-07 11:22:14.87	102.02	30.93	-23.4	-23.7	19.2	0.00e+00	0	43	102	1048576	8	3753
2026-01-07 11:22:15.87	101.77	31.07	-23.3	-23.6	19.3	0.00e+00	0	43	102	1048576	8	3724
2026-01-07 11:22:16.88	101.51	31.22	-23.3	-23.7	19.2	0.00e+00	0	43	102	1048576	8	3755
2026-01-07 11:22:17.89	101.26	31.36	-23.5	-24.0	19.1	0.00e+00	0	43	102	1048576	8	3830
2026-01-07 11:22:18.89	101.00	31.50	-23.4	-23.8	19.2	0.00e+00	0	43	102	1048576	8	3781
2026-01-07 11:22:19.90	100.74	31.64	-23.5	-24.1	19.0	0.00e+00	0	43	102	1048576	8	3853
2026-01-07 11:22:20.91	100.48	31.79	-23.3	-23.6	19.3	0.00e+00	0	43	102	1048576	8	3734
2026-01-07 11:22:21.92	100.21	31.93	-23.2	-23.9	19.4	0.00e+00	0	43	102	1048576	7	3895
2026-01-07 11:22:22.92	99.95	32.07	-23.4	-24.3	19.1	0.00e+00	0	43	102	1048576	7	4006
2026-01-07 11:22:23.93	99.68	32.21	-23.4	-24.2	19.2	0.00e+00	0	43	102	1048576	7	3984
2026-01-07 11:22:24.93	99.41	32.35	-23.5	-24.5	19.1	0.00e+00	0	43	102	1048576	7	4058
2026-01-07 11:22:25.94	99.14	32.50	-23.6	-24.7	19.0	0.00e+00	0	43	102	1048576	7	4107
2026-01-07 11:22:26.95	98.86	32.64	-23.4	-24.4	19.1	0.00e+00	0	43	102	1048576	7	4019
2026-01-07 11:22:27.96	98.58	32.78	-23.4	-24.2	19.2	0.00e+00	0	43	102	1048576	7	3985
2026-01-07 11:22:28.97	98.30	32.93	-23.5	-24.5	19.1	0.00e+00	0	43	102	1048576	7	4054
2026-01-07 11:22:29.97	98.02	33.07	-23.4	-24.3	19.2	0.00e+00	0	43	102	1048576	7	3989
2026-01-07 11:22:30.98	97.73	33.21	-23.3	-24.1	19.3	0.00e+00	0	43	102	1048576	7	3943
2026-01-07 11:22:31.98	97.44	33.35	-23.3	-24.2	19.3	0.00e+00	0	43	102	1048576	7	3963
2026-01-07 11:22:32.99	97.15	33.49	-23.2	-23.9	19.4	0.00e+00	0	43	102	1048576	7	3896
2026-01-07 11:22:34.00	96.86	33.63	-23.5	-24.4	19.1	0.00e+00	0	43	102	1048576	7	4028
2026-01-07 11:22:35.01	96.56	33.77	-23.3	-24.0	19.3	0.00e+00	0	43	102	1048576	7	3933
2026-01-07 11:22:36.02	96.26	33.92	-23.5	-24.5	19.1	0.00e+00	0	43	102	1048576	7	4052
2026-01-07 11:22:37.03	95.96	34.06	-23.2	-23.8	19.5	0.00e+00	0	43	102	1048576	7	3883
2026-01-07 11:22:38.04	95.65	34.20	-23.0	-23.4	19.6	0.00e+00	0	44	102	1048576	7	3794
2026-01-07 11:22:39.05	95.35	34.34	-23.0	-23.5	19.6	0.00e+00	0	43	102	1048576	7	3811
2026-01-07 11:22:40.05	95.04	34.48	-23.2	-23.9	19.4	0.00e+00	0	44	102	1048576	7	3894
2026-01-07 11:22:41.06	94.73	34.62	-23.0	-23.5	19.6	0.00e+00	0	44	102	1048576	7	3800
2026-01-07 11:22:42.05	94.42	34.75	-23.0	-23.4	19.6	0.00e+00	0	43	102	1048576	7	3799
2026-01-07 11:22:43.06	94.10	34.89	-23.1	-23.7	19.5	0.00e+00	0	44	102	1048576	7	3863
2026-01-07 11:22:44.06	93.78	35.03	-23.0	-23.5	19.6	0.00e+00	0	43	102	1048576	7	3799
2026-01-07 11:22:45.07	93.46	35.17	-23.0	-23.5	19.6	0.00e+00	0	44	102	1048576	7	3803
2026-01-07 11:22:46.08	93.13	35.30	-23.1	-23.7	19.5	0.00e+00	0	44	102	1048576	7	3859
2026-01-07 11:22:47.09	92.80	35.44	-23.1	-23.7	19.5	0.00e+00	0	44	102	1048576	7	3859
2026-01-07 11:22:48.10	92.47	35.58	-23.3	-24.1	19.3	0.00e+00	0	43	102	1048576	7	3951
2026-01-07 11:22:49.10	92.14	35.71	-23.3	-24.2	19.3	0.00e+00	0	43	102	1048576	7	3972
2026-01-07 11:22:50.11	91.80	35.85	-23.3	-24.1	19.3	0.00e+00	0	43	102	1048576	7	3946
2026-01-07 11:22:51.11	91.46	35.98	-23.3	-24.2	19.3	0.00e+00	0	43	102	1048576	7	3974
2026-01-07 11:22:52.12	91.12	36.12	-23.6	-24.7	19.0	0.00e+00	0	43	102	1048576	7	4087
2026-01-07 11:22:53.13	90.77	36.25	-23.4	-24.4	19.2	0.00e+00	0	43	102	1048576	7	4017
2026-01-07 11:22:54.14	90.42	36.38	-23.5	-24.5	19.1	0.00e+00	0	43	102	1048576	7	4056
2026-01-07 11:22:55.14	90.08	36.52	-23.3	-24.2	19.3	0.00e+00	0	43	102	1048576	7	3963
2026-01-07 11:22:56.15	89.72	36.65	-23.3	-24.0	19.4	0.00e+00	0	43	102	1048576	7	3932
2026-01-07 11:22:57.16	89.36	36.78	-23.3	-24.0	19.4	0.00e+00	0	43	102	1048576	7	3931
2026-01-07 11:22:58.17	89.00	36.91	-23.0	-23.4	19.7	0.00e+00	0	44	102	1048576	7	3795
2026-01-07 11:22:59.18	88.64	37.04	-22.9	-23.3	19.7	0.00e+00	0	44	102	1048576	7	3756
2026-01-07 11:23:00.18	88.28	37.17	-23.0	-23.6	19.6	0.00e+00	0	43	102	1048576	7	3830
2026-01-07 11:23:01.19	87.91	37.29	-23.2	-23.9	19.4	0.00e+00	0	43	102	1048576	7	3901
2026-01-07 11:23:02.20	87.54	37.42	-23.5	-24.4	19.2	0.00e+00	0	44	102	1048576	7	4033
2026-01-07 11:23:03.20	87.17	37.54	-23.2	-23.8	19.5	0.00e+00	0	43	102	1048576	7	3883
2026-01-07 11:23:04.20	86.79	37.67	-23.0	-23.4	19.7	0.00e+00	0	43	102	1048576	7	3794
2026-01-07 11:23:05.21	86.41	37.79	-23.0	-23.5	19.6	0.00e+00	0	43	102	1048576	7	3811
2026-01-07 11:23:06.22	86.03	37.92	-23.1	-23.6	19.6	0.00e+00	0	44	102	1048576	7	3838
2026-01-07 11:23:07.23	85.64	38.04	-23.1	-23.7	19.6	0.00e+00	0	43	102	1048576	7	3856
2026-01-07 11:23:08.24	85.25	38.16	-23.0	-23.6	19.6	0.00e+00	0	44	102	1048576	7	3818
2026-01-07 11:23:09.24	84.86	38.28	-23.0	-23.5	19.7	0.00e+00	0	43	102	1048576	7	3795
2026-01-07 11:23:10.25	84.47	38.40	-23.1	-23.7	19.6	0.00e+00	0	44	102	1048576	7	3851
2026-01-07 11:23:11.26	84.07	38.51	-23.1	-23.8	19.6	0.00e+00	0	43	102	1048576	7	3873
2026-01-07 11:23:12.26	83.67	38.63	-23.3	-24.1	19.3	0.00e+00	0	43	102	1048576	7	3954
2026-01-07 11:23:13.28	83.26	38.75	-23.2	-23.8	19.5	0.00e+00	0	44	102	1048576	7	3889
2026-01-07 11:23:14.28	82.86	38.86	-23.1	-23.8	19.5	0.00e+00	0	43	102	1048576	7	3871
2026-01-07 11:23:15.29	82.45	38.97	-23.2	-23.8	19.5	0.00e+00	0	43	102	1048576	7	3881
2026-01-07 11:23:16.29	82.04	39.08	-23.0	-23.5	19.6	0.00e+00	0	43	102	1048576	7	3819
2026-01-07 11:23:17.29	81.63	39.19	-23.1	-23.7	19.6	0.00e+00	0	43	102	1048576	7	3863
2026-01-07 11:23:18.30	81.21	39.30	-23.2	-24.0	19.4	0.00e+00	0	43	102	1048576	7	3921
2026-01-07 11:23:19.30	80.80	39.41	-23.3	-24.0	19.4	0.00e+00	0	43	102	1048576	7	3931
2026-01-07 11:23:20.31	80.37	39.51	-23.0	-23.5	19.7	0.00e+00	0	44	102	1048576	7	3797
2026-01-07 11:23:21.31	79.95	39.62	-22.9	-23.3	19.8	0.00e+00	0	43	102	1048576	7	3749
2026-01-07 11:23:22.32	79.52	39.72	-22.9	-23.2	19.8	0.00e+00	0	44	102	1048576	7	3740
2026-01-07 11:23:23.33	79.09	39.82	-22.9	-23.2	19.8	0.00e+00	0	44	102	1048576	7	3732
2026-01-07 11:23:24.34	78.66	39.92	-22.9	-23.2	19.9	0.00e+00	0	44	102	1048576	7	3732
2026-01-07 11:23:25.34	78.23	40.02	-22.8	-23.1	19.9	0.00e+00	0	43	102	1048576	7	3720
2026-01-07 11:23:26.35	77.79	40.11	-22.8	-23.0	19.9	0.00e+00	0	44	102	1048576	7	3697
2026-01-07 11:23:27.36	77.34	40.21	-22.8	-23.5	19.9	0.00e+00	0	43	102	1048576	6	3914
2026-01-07 11:23:28.37	76.90	40.30	-23.1	-24.2	19.6	0.00e+00	0	43	102	1048576	6	4070
2026-01-07 11:23:29.37	76.46	40.39	-23.1	-24.2	19.6	0.00e+00	0	44	102	1048576	6	4092
2026-01-07 11:23:30.38	76.01	40.48	-23.2	-24.4	19.5	0.00e+00	0	43	102	1048576	6	4122
2026-01-07 11:23:31.39	75.55	40.57	-23.1	-24.1	19.6	0.00e+00	0	44	102	1048576	6	4053
2026-01-07 11:23:32.39	75.10	40.66	-23.1	-24.3	19.6	0.00e+00	0	44	102	1048576	6	4098
2026-01-07 11:23:33.40	74.65	40.74	-23.1	-24.1	19.6	0.00e+00	0	43	102	1048576	6	4069
2026-01-07 11:23:34.41	74.19	40.82	-23.0	-24.0	19.7	0.00e+00	0	43	102	1048576	6	4035
2026-01-07 11:23:35.41	73.73	40.90	-23.1	-24.2	19.6	0.00e+00	0	43	102	1048576	6	4071
2026-01-07 11:23:36.42	73.27	40.98	-23.3	-24.6	19.4	0.00e+00	0	43	102	1048576	6	4167
2026-01-07 11:23:37.41	72.81	41.06	-23.3	-24.5	19.4	0.00e+00	0	43	102	1048576	6	4157
2026-01-07 11:23:38.42	72.34	41.13	-23.1	-24.1	19.7	0.00e+00	0	44	102	1048576	6	4060
2026-01-07 11:23:39.43	71.87	41.20	-23.1	-24.2	19.6	0.00e+00	0	43	102	1048576	6	4075
2026-01-07 11:23:40.43	71.40	41.27	-23.1	-24.3	19.5	0.00e+00	0	44	102	1048576	6	4099
2026-01-07 11:23:41.44	70.93	41.34	-23.1	-24.1	19.6	0.00e+00	0	44	102	1048576	6	4065
2026-01-07 11:23:42.45	70.45	41.41	-23.3	-24.5	19.5	0.00e+00	0	43	102	1048576	6	4160
2026-01-07 11:23:43.45	69.98	41.47	-23.5	-24.4	19.3	0.00e+00	0	43	102	1048576	7	4023
2026-01-07 11:23:44.46	69.50	41.53	-23.3	-24.1	19.5	0.00e+00	0	43	102	1048576	7	3942
2026-01-07 11:23:45.46	69.02	41.59	-23.1	-23.6	19.7	0.00e+00	0	43	102	1048576	7	3828
2026-01-07 11:23:46.47	68.53	41.65	-22.9	-23.3	19.8	1.10e-06	0	43	102	1048576	7	3750
2026-01-07 11:23:47.48	68.05	41.71	-23.0	-23.5	19.7	0.00e+00	0	43	102	1048576	7	3802
2026-01-07 11:23:48.48	67.57	41.76	-23.0	-23.6	19.7	0.00e+00	0	43	102	1048576	7	3821
2026-01-07 11:23:49.49	67.08	41.81	-22.9	-23.3	19.8	0.00e+00	0	43	102	1048576	7	3768
2026-01-07 11:23:50.49	66.59	41.86	-23.1	-23.5	19.9	0.00e+00	0	44	102	1048576	7	3790
2026-01-07 11:23:51.50	66.10	41.91	-22.9	-23.2	20.1	0.00e+00	0	44	102	1048576	7	3725
2026-01-07 11:23:52.51	65.61	41.95	-22.6	-23.1	20.3	6.80e-06	0	43	102	1048576	6	3801
2026-01-07 11:23:53.52	65.11	41.99	-22.9	-23.7	20.0	0.00e+00	0	43	102	1048576	6	3937
2026-01-07 11:23:54.53	64.62	42.03	-23.2	-24.4	19.7	0.00e+00	0	43	102	1048576	6	4113
2026-01-07 11:23:55.54	64.12	42.07	-23.2	-24.4	19.7	3.40e-06	0	43	102	1048576	6	4110
2026-01-07 11:23:56.55	63.62	42.10	-23.1	-24.1	19.8	0.00e+00	0	43	102	1048576	6	4055
2026-01-07 11:23:57.55	63.13	42.13	-23.0	-23.9	19.9	0.00e+00	0	43	102	1048576	6	3996
2026-01-07 11:23:58.56	62.63	42.16	-23.1	-24.0	19.9	1.10e-06	0	44	102	1048576	6	4028
2026-01-07 11:23:59.57	62.13	42.19	-22.9	-23.6	20.1	0.00e+00	0	43	102	1048576	6	3936
2026-01-07 11:24:00.58	61.62	42.22	-22.6	-23.1	20.4	0.00e+00	0	43	102	1048576	6	3794
2026-01-07 11:24:01.59	61.12	42.24	-22.7	-23.3	20.2	0.00e+00	0	43	102	1048576	6	3860
2026-01-07 11:24:02.59	60.62	42.26	-23.2	-24.3	19.7	0.00e+00	0	43	102	1048576	6	4083
2026-01-07 11:24:03.60	60.12	42.28	-23.3	-24.6	19.6	0.00e+00	0	43	102	1048576	6	4175
2026-01-07 11:24:04.60	59.62	42.29	-22.8	-23.5	20.1	0.00e+00	0	44	102	1048576	6	3909
2026-01-07 11:24:05.61	59.12	42.30	-22.4	-22.6	20.6	0.00e+00	0	43	102	1048576	6	3689
2026-01-07 11:24:06.62	58.61	42.31	-22.4	-22.7	20.5	0.00e+00	0	43	102	1048576	6	3718
2026-01-07 11:24:07.63	58.11	42.32	-22.5	-22.9	20.4	0.00e+00	0	44	102	1048576	6	3754
2026-01-07 11:24:08.64	57.60	42.32	-22.3	-22.5	20.6	0.00e+00	0	44	102	1048576	6	3684
2026-01-07 11:24:09.65	57.10	42.33	-22.2	-22.7	20.7	0.00e+00	0	43	102	1048576	5	3828
2026-01-07 11:24:10.66	56.59	42.33	-22.2	-22.8	20.7	0.00e+00	0	43	102	1048576	5	3851
2026-01-07 11:24:11.67	56.08	42.32	-22.4	-23.2	20.5	0.00e+00	0	43	102	1048576	5	3948
2026-01-07 11:24:12.67	55.58	42.32	-22.6	-23.6	20.3	0.00e+00	0	43	102	1048576	5	4025
2026-01-07 11:24:13.68	55.08	42.31	-22.8	-24.0	20.1	0.00e+00	0	44	102	1048576	5	4132
2026-01-07 11:24:14.69	54.57	42.30	-22.8	-24.0	20.1	0.00e+00	0	44	102	1048576	5	4141
2026-01-07 11:24:15.69	54.08	42.29	-22.7	-23.7	20.2	0.00e+00	0	44	102	1048576	5	4051
2026-01-07 11:24:16.70	53.57	42.27	-22.5	-23.3	20.5	0.00e+00	0	43	102	1048576	5	3949
2026-01-07 11:24:17.70	53.07	42.26	-22.6	-23.5	20.4	0.00e+00	0	43	102	1048576	5	4001
2026-01-07 11:24:18.71	52.57	42.24	-22.5	-23.3	20.5	0.00e+00	0	43	102	1048576	5	3958
2026-01-07 11:24:19.71	52.07	42.21	-22.2	-22.7	20.7	0.00e+00	0	44	102	1048576	5	3817
2026-01-07 11:24:20.72	51.57	42.19	-22.1	-22.6	20.8	0.00e+00	0	43	102	1048576	5	3789
2026-01-07 11:24:21.73	51.07	42.16	-22.4	-23.1	20.5	0.00e+00	0	43	102	1048576	5	3915
2026-01-07 11:24:22.73	50.58	42.13	-22.5	-23.5	20.4	0.00e+00	0	43	102	1048576	5	4001
2026-01-07 11:24:23.74	50.08	42.10	-22.5	-23.3	20.4	0.00e+00	0	43	102	1048576	5	3959
2026-01-07 11:24:24.75	49.58	42.07	-22.5	-23.4	20.4	0.00e+00	0	43	102	1048576	5	3986
2026-01-07 11:24:25.76	49.08	42.03	-22.6	-23.6	20.3	0.00e+00	0	44	102	1048576	5	4043
2026-01-07 11:24:26.77	48.59	41.99	-22.9	-24.1	20.0	0.00e+00	0	43	102	1048576	5	4159
2026-01-07 11:24:27.77	48.10	41.95	-22.9	-24.3	19.9	0.00e+00	0	43	102	1048576	5	4203
2026-01-07 11:24:28.78	47.61	41.90	-22.9	-24.1	20.0	0.00e+00	0	43	102	1048576	5	4162
2026-01-07 11:24:29.79	47.11	41.86	-23.0	-24.3	19.9	0.00e+00	0	44	102	1048576	5	4211
2026-01-07 11:24:30.80	46.62	41.81	-22.7	-23.3	20.2	0.00e+00	0	44	102	1048576	6	3844
2026-01-07 11:24:31.80	46.14	41.76	-22.5	-22.8	20.5	0.00e+00	0	44	102	1048576	6	3732
2026-01-07 11:24:32.80	45.66	41.70	-22.5	-22.8	20.4	0.00e+00	0	43	102	1048576	6	3748
2026-01-07 11:24:33.81	45.17	41.65	-22.6	-23.0	20.3	0.00e+00	0	44	102	1048576	6	3788
2026-01-07 11:24:34.81	44.70	41.59	-22.5	-22.9	20.4	0.00e+00	0	44	102	1048576	6	3759
2026-01-07 11:24:35.82	44.21	41.53	-22.7	-23.3	20.2	0.00e+00	0	43	102	1048576	6	3847
2026-01-07 11:24:36.82	43.74	41.47	-22.7	-23.3	20.2	0.00e+00	0	44	102	1048576	6	3843
2026-01-07 11:24:37.83	43.26	41.41	-22.6	-23.1	20.3	0.00e+00	0	43	102	1048576	6	3798
2026-01-07 11:24:38.84	42.78	41.34	-22.5	-22.9	20.4	0.00e+00	0	44	102	1048576	6	3766
2026-01-07 11:24:39.85	42.31	41.27	-22.5	-22.9	20.4	0.00e+00	0	44	102	1048576	6	3765
2026-01-07 11:24:40.85	41.84	41.20	-22.8	-23.4	20.2	0.00e+00	0	44	102	1048576	6	3869
2026-01-07 11:24:41.86	41.37	41.13	-22.8	-23.5	20.1	0.00e+00	0	43	102	1048576	6	3909
2026-01-07 11:24:42.87	40.91	41.05	-22.8	-23.5	20.1	0.00e+00	0	44	102	1048576	6	3904
2026-01-07 11:24:43.87	40.45	40.98	-22.9	-23.8	20.0	0.00e+00	0	44	102	1048576	6	3969
2026-01-07 11:24:44.87	39.99	40.90	-22.8	-23.5	20.1	0.00e+00	0	43	102	1048576	6	3906
2026-01-07 11:24:45.88	39.53	40.82	-22.7	-23.4	20.2	0.00e+00	0	43	102	1048576	6	3863
2026-01-07 11:24:46.89	39.07	40.74	-22.8	-23.4	20.1	0.00e+00	0	44	102	1048576	6	3879
2026-01-07 11:24:47.89	38.62	40.65	-22.8	-23.4	20.1	0.00e+00	0	44	102	1048576	6	3881
2026-01-07 11:24:48.90	38.16	40.57	-23.2	-24.4	19.7	0.00e+00	0	43	102	1048576	6	4122
2026-01-07 11:24:49.90	37.71	40.48	-23.1	-24.0	19.8	0.00e+00	0	43	102	1048576	6	4024
2026-01-07 11:24:50.90	37.27	40.39	-22.7	-23.3	20.2	0.00e+00	0	44	102	1048576	6	3853
2026-01-07 11:24:51.91	36.82	40.30	-22.6	-23.1	20.3	0.00e+00	0	43	102	1048576	6	3795
2026-01-07 11:24:52.91	36.38	40.21	-22.6	-23.0	20.3	0.00e+00	0	44	102	1048576	6	3795
2026-01-07 11:24:53.92	35.94	40.11	-22.7	-23.2	20.3	0.00e+00	0	44	102	1048576	6	3827
2026-01-07 11:24:54.93	35.50	40.02	-22.4	-22.7	20.5	0.00e+00	0	43	102	1048576	6	3724
2026-01-07 11:24:55.94	35.07	39.92	-22.4	-22.7	20.5	0.00e+00	0	44	102	1048576	6	3729
2026-01-07 11:24:56.94	34.64	39.82	-22.7	-23.2	20.2	0.00e+00	0	43	102	1048576	6	3835
2026-01-07 11:24:57.95	34.21	39.72	-22.5	-22.8	20.4	0.00e+00	0	43	102	1048576	6	3734
2026-01-07 11:24:58.96	33.78	39.62	-22.3	-22.4	20.6	0.00e+00	0	44	102	1048576	6	3658
2026-01-07 11:24:59.97	33.35	39.51	-22.5	-22.8	20.4	0.00e+00	0	44	102	1048576	6	3743
2026-01-07 11:25:00.97	32.94	39.41	-22.6	-23.1	20.3	0.00e+00	0	44	102	1048576	6	3817
2026-01-07 11:25:01.97	32.52	39.30	-22.8	-23.5	20.1	0.00e+00	0	44	102	1048576	6	3891
2026-01-07 11:25:02.98	32.10	39.19	-22.5	-22.8	20.4	0.00e+00	0	44	102	1048576	6	3743
2026-01-07 11:25:03.99	31.69	39.08	-22.5	-22.8	20.4	0.00e+00	0	43	102	1048576	6	3730
2026-01-07 11:25:04.99	31.28	38.97	-22.8	-23.4	20.1	0.00e+00	0	44	102	1048576	6	3882
2026-01-07 11:25:06.00	30.87	38.86	-22.9	-23.6	20.0	0.00e+00	0	44	102	1048576	6	3936
2026-01-07 11:25:07.01	30.47	38.75	-22.9	-23.8	19.9	0.00e+00	0	44	102	1048576	6	3973
2026-01-07 11:25:08.01	30.07	38.63	-22.9	-23.6	20.0	0.00e+00	0	43	102	1048576	6	3932
2026-01-07 11:25:09.02	29.67	38.52	-23.0	-23.9	19.8	0.00e+00	0	43	102	1048576	6	4004
2026-01-07 11:25:10.03	29.27	38.40	-22.9	-23.8	20.0	0.00e+00	0	43	102	1048576	6	3960
2026-01-07 11:25:11.04	28.88	38.28	-22.9	-23.7	20.0	0.00e+00	0	43	102	1048576	6	3938
2026-01-07 11:25:12.05	28.49	38.16	-22.9	-23.6	20.0	0.00e+00	0	44	102	1048576	6	3931
2026-01-07 11:25:13.05	28.10	38.04	-23.0	-23.9	19.9	0.00e+00	0	43	102	1048576	6	3984
2026-01-07 11:25:14.06	27.72	37.92	-22.7	-23.3	20.1	0.00e+00	0	44	102	1048576	6	3860
2026-01-07 11:25:15.07	27.33	37.80	-23.0	-24.0	19.8	0.00e+00	0	43	102	1048576	6	4005
2026-01-07 11:25:16.08	26.95	37.67	-22.8	-23.5	20.1	0.00e+00	0	43	102	1048576	6	3904
2026-01-07 11:25:17.08	26.58	37.55	-22.8	-23.4	20.1	0.00e+00	0	44	102	1048576	6	3879
2026-01-07 11:25:18.09	26.21	37.42	-22.8	-23.6	20.0	0.00e+00	0	43	102	1048576	6	3919
2026-01-07 11:25:19.10	25.84	37.30	-22.8	-23.5	20.0	0.00e+00	0	44	102	1048576	6	3907
2026-01-07 11:25:20.11	25.47	37.17	-23.0	-23.9	19.9	0.00e+00	0	44	102	1048576	6	3982
2026-01-07 11:25:21.11	25.11	37.04	-22.9	-23.8	19.9	0.00e+00	0	43	102	1048576	6	3972
2026-01-07 11:25:22.12	24.74	36.91	-23.2	-24.3	19.6	0.00e+00	0	44	102	1048576	6	4091
2026-01-07 11:25:23.13	24.39	36.78	-22.9	-23.7	20.0	0.00e+00	0	44	102	1048576	6	3937
2026-01-07 11:25:24.14	24.03	36.65	-22.7	-23.3	20.1	0.00e+00	0	44	102	1048576	6	3862
2026-01-07 11:25:25.14	23.68	36.52	-22.7	-23.3	20.1	0.00e+00	0	43	102	1048576	6	3858
2026-01-07 11:25:26.15	23.33	36.39	-22.8	-23.6	20.0	0.00e+00	0	44	102	1048576	6	3920
2026-01-07 11:25:27.15	22.98	36.26	-22.7	-23.3	20.1	0.00e+00	0	44	102	1048576	6	3863
2026-01-07 11:25:28.16	22.64	36.12	-22.7	-23.3	20.1	0.00e+00	0	44	102	1048576	6	3856
2026-01-07 11:25:29.17	22.30	35.99	-22.6	-23.1	20.2	0.00e+00	0	43	102	1048576	6	3801
2026-01-07 11:25:30.18	21.96	35.85	-22.5	-22.9	20.3	0.00e+00	0	43	102	1048576	6	3773
2026-01-07 11:25:31.19	21.62	35.72	-22.6	-23.0	20.2	0.00e+00	0	43	102	1048576	6	3795
2026-01-07 11:25:32.19	21.29	35.59	-22.3	-22.5	20.5	0.00e+00	0	44	102	1048576	6	3667
2026-01-07 11:25:33.19	20.96	35.45	-22.2	-22.7	20.7	0.00e+00	0	44	102	1048576	5	3811
2026-01-07 11:25:34.19	20.64	35.31	-22.1	-22.6	20.7	0.00e+00	0	44	102	1048576	5	3799
2026-01-07 11:25:35.20	20.31	35.18	-22.2	-22.7	20.7	0.00e+00	0	43	102	1048576	5	3815
2026-01-07 11:25:36.21	19.99	35.04	-22.4	-23.1	20.4	0.00e+00	0	44	102	1048576	5	3916
2026-01-07 11:25:37.22	19.67	34.90	-22.3	-23.0	20.5	0.00e+00	0	43	102	1048576	5	3887
2026-01-07 11:25:38.23	19.35	34.76	-22.4	-23.1	20.4	0.00e+00	0	43	102	1048576	5	3911
2026-01-07 11:25:39.24	19.04	34.62	-22.4	-23.2	20.4	0.00e+00	0	44	102	1048576	5	3948
2026-01-07 11:25:40.25	18.73	34.49	-22.5	-23.3	20.3	0.00e+00	0	43	102	1048576	5	3964
2026-01-07 11:25:41.25	18.42	34.35	-22.7	-23.8	20.1	0.00e+00	0	44	102	1048576	5	4084
2026-01-07 11:25:42.26	18.11	34.21	-22.7	-23.8	20.1	0.00e+00	0	44	102	1048576	5	4077
2026-01-07 11:25:43.27	17.81	34.07	-22.8	-24.1	19.9	0.00e+00	0	43	102	1048576	5	4159
2026-01-07 11:25:44.28	17.51	33.93	-22.6	-23.7	20.1	0.00e+00	0	43	102	1048576	5	4061
2026-01-07 11:25:45.28	17.21	33.79	-22.5	-23.5	20.2	0.00e+00	0	44	102	1048576	5	4005
2026-01-07 11:25:46.29	16.92	33.65	-22.6	-23.5	20.2	0.00e+00	0	43	102	1048576	5	4010
2026-01-07 11:25:47.30	16.62	33.50	-22.6	-23.6	20.2	0.00e+00	0	44	102	1048576	5	4035
2026-01-07 11:25:48.30	16.34	33.36	-22.5	-23.3	20.3	0.00e+00	0	43	102	1048576	5	3962
2026-01-07 11:25:49.31	16.05	33.22	-22.5	-23.5	20.2	0.00e+00	0	44	102	1048576	5	4001
2026-01-07 11:25:50.31	15.76	33.08	-22.6	-23.6	20.2	0.00e+00	0	43	102	1048576	5	4031
2026-01-07 11:25:51.32	15.48	32.94	-22.7	-23.8	20.0	0.00e+00	0	44	102	1048576	5	4095
2026-01-07 11:25:52.33	15.20	32.80	-22.7	-23.8	20.1	0.00e+00	0	44	102	1048576	5	4075
2026-01-07 11:25:53.33	14.92	32.66	-22.7	-23.8	20.0	0.00e+00	0	44	102	1048576	5	4096
2026-01-07 11:25:54.34	14.65	32.52	-22.6	-23.6	20.2	0.00e+00	0	43	102	1048576	5	4033
2026-01-07 11:25:55.34	14.38	32.38	-22.5	-23.4	20.2	0.00e+00	0	43	102	1048576	5	3994
2026-01-07 11:25:56.35	14.11	32.23	-22.6	-23.5	20.2	0.00e+00	0	43	102	1048576	5	4001
2026-01-07 11:25:57.35	13.84	32.09	-22.6	-23.6	20.1	0.00e+00	0	44	102	1048576	5	4043
2026-01-07 11:25:58.35	13.58	31.95	-22.6	-23.6	20.1	0.00e+00	0	44	102	1048576	5	4028
2026-01-07 11:25:59.36	13.31	31.81	-22.7	-23.9	20.0	0.00e+00	0	43	102	1048576	5	4102
2026-01-07 11:26:00.37	13.05	31.67	-22.9	-24.2	19.8	0.00e+00	0	44	102	1048576	5	4187
2026-01-07 11:26:01.38	12.79	31.52	-23.0	-24.0	19.7	0.00e+00	0	43	102	1048576	6	4022
2026-01-07 11:26:02.38	12.54	31.38	-22.8	-23.6	19.9	0.00e+00	0	43	102	1048576	6	3928
2026-01-07 11:26:03.39	12.28	31.24	-22.8	-23.4	20.0	0.00e+00	0	43	102	1048576	6	3888
2026-01-07 11:26:04.40	12.03	31.10	-22.7	-23.4	20.0	0.00e+00	0	44	102	1048576	6	3870
2026-01-07 11:26:05.40	11.78	30.96	-22.7	-23.3	20.0	0.00e+00	0	44	102	1048576	6	3843
2026-01-07 11:26:06.41	11.53	30.82	-22.8	-23.5	19.9	0.00e+00	0	44	102	1048576	6	3900
2026-01-07 11:26:07.41	11.29	30.68	-22.9	-23.7	19.8	0.00e+00	0	43	102	1048576	6	3958
2026-01-07 11:26:08.42	11.05	30.53	-23.0	-24.0	19.7	0.00e+00	0	44	102	1048576	6	4031
2026-01-07 11:26:09.43	10.81	30.39	-23.1	-24.2	19.6	0.00e+00	0	44	102	1048576	6	4080
2026-01-07 11:26:10.44	10.57	30.25	-23.2	-24.3	19.5	0.00e+00	0	44	102	1048576	6	4107
2026-01-07 11:26:11.43	10.33	30.11	-23.2	-24.4	19.5	0.00e+00	0	44	102	1048576	6	4129
2026-01-07 11:26:12.44	10.10	29.97	-23.3	-24.6	19.4	0.00e+00	0	44	102	1048576	6	4170
2026-01-07 11:26:13.44	9.87	29.83	-23.3	-24.6	19.4	0.00e+00	0	44	102	1048576	6	4179
2026-01-07 11:26:14.45	9.64	29.69	-23.2	-24.4	19.5	0.00e+00	0	44	102	1048576	6	4114
2026-01-07 11:26:15.46	9.41	29.55	-23.1	-24.0	19.7	0.00e+00	0	43	102	1048576	6	4025
2026-01-07 11:26:16.46	9.18	29.41	-23.1	-24.1	19.6	0.00e+00	0	44	102	1048576	6	4043
2026-01-07 11:26:17.47	8.96	29.27	-23.2	-24.2	19.5	0.00e+00	0	44	102	1048576	6	4077
2026-01-07 11:26:18.47	8.74	29.13	-23.0	-24.0	19.6	0.00e+00	0	44	102	1048576	6	4020
2026-01-07 11:26:19.48	8.52	28.99	-23.0	-24.0	19.6	0.00e+00	0	44	102	1048576	6	4025
2026-01-07 11:26:20.48	8.30	28.85	-23.1	-24.1	19.6	0.00e+00	0	43	102	1048576	6	4043
2026-01-07 11:26:21.49	8.08	28.71	-23.1	-24.1	19.6	0.00e+00	0	44	102	1048576	6	4047
2026-01-07 11:26:22.50	7.87	28.57	-23.1	-24.2	19.6	0.00e+00	0	44	102	1048576	6	4068
2026-01-07 11:26:23.50	7.65	28.43	-23.2	-24.2	19.5	0.00e+00	0	44	102	1048576	6	4082
2026-01-07 11:26:24.51	7.44	28.30	-23.2	-24.4	19.4	0.00e+00	0	43	102	1048576	6	4125
2026-01-07 11:26:25.52	7.23	28.16	-23.3	-24.6	19.3	0.00e+00	0	44	102	1048576	6	4171
2026-01-07 11:26:26.52	7.03	28.02	-23.4	-24.7	19.3	0.00e+00	0	43	102	1048576	6	4202
2026-01-07 11:26:27.53	6.82	27.88	-23.3	-24.5	19.4	0.00e+00	0	44	102	1048576	6	4146
2026-01-07 11:26:28.54	6.62	27.74	-23.3	-24.5	19.3	0.00e+00	0	44	102	1048576	6	4151
2026-01-07 11:26:29.54	6.42	27.61	-23.3	-24.5	19.4	0.00e+00	0	43	102	1048576	6	4144
2026-01-07 11:26:30.55	6.21	27.47	-23.3	-24.6	19.3	0.00e+00	0	43	102	1048576	6	4174
2026-01-07 11:26:31.56	6.02	27.33	-23.4	-24.8	19.2	0.00e+00	0	43	102	1048576	6	4213
2026-01-07 11:26:32.56	5.82	27.20	-23.5	-24.9	19.1	0.00e+00	0	43	102	1048576	6	4262
2026-01-07 11:26:33.57	5.62	27.06	-23.5	-24.6	19.1	0.00e+00	0	44	102	1048576	7	4055
2026-01-07 11:26:34.57	5.43	26.93	-23.7	-24.9	18.9	0.00e+00	0	44	102	1048576	7	4129
2026-01-07 11:26:35.59	5.24	26.79	-23.7	-24.8	19.0	0.00e+00	0	43	102	1048576	7	4102
2026-01-07 11:26:36.59	5.05	26.66	-23.5	-24.4	19.2	0.00e+00	0	44	102	1048576	7	4001
2026-01-07 11:26:37.60	4.86	26.52	-23.5	-24.4	19.2	0.00e+00	0	43	102	1048576	7	4000
2026-01-07 11:26:38.60	4.67	26.39	-23.5	-24.4	19.2	0.00e+00	0	44	102	1048576	7	3995
2026-01-07 11:26:39.61	4.49	26.25	-23.5	-24.5	19.1	0.00e+00	0	44	102	1048576	7	4021
2026-01-07 11:26:40.61	4.31	26.12	-23.6	-24.7	19.0	0.00e+00	0	44	102	1048576	7	4075
2026-01-07 11:26:41.62	4.12	25.99	-23.6	-24.6	19.0	0.00e+00	0	44	102	1048576	7	4058
2026-01-07 11:26:42.63	3.94	25.85	-23.5	-24.5	19.1	0.00e+00	0	44	102	1048576	7	4032
2026-01-07 11:26:43.63	3.77	25.72	-23.5	-24.5	19.1	0.00e+00	0	44	102	1048576	7	4025
2026-01-07 11:26:44.63	3.59	25.59	-23.5	-24.5	19.0	0.00e+00	0	44	102	1048576	7	4030
2026-01-07 11:26:45.64	3.41	25.46	-23.5	-24.4	19.1	0.00e+00	0	44	102	1048576	7	4011
2026-01-07 11:26:46.65	3.24	25.33	-23.6	-24.7	19.0	0.00e+00	0	43	102	1048576	7	4072
2026-01-07 11:26:47.65	3.07	25.20	-23.5	-24.5	19.0	0.00e+00	0	43	102	1048576	7	4033
2026-01-07 11:26:48.66	2.89	25.06	-23.4	-24.3	19.2	0.00e+00	0	44	102	1048576	7	3981
2026-01-07 11:26:49.66	2.72	24.93	-23.4	-24.2	19.2	0.00e+00	0	44	102	1048576	7	3968
2026-01-07 11:26:50.67	2.56	24.80	-23.4	-24.2	19.2	0.00e+00	0	43	102	1048576	7	3963
2026-01-07 11:26:51.68	2.39	24.67	-23.4	-24.2	19.2	0.00e+00	0	44	102	1048576	7	3959
2026-01-07 11:26:52.68	2.22	24.55	-23.4	-24.3	19.1	0.00e+00	0	44	102	1048576	7	3989
2026-01-07 11:26:53.69	2.06	24.42	-23.4	-24.2	19.2	0.00e+00	0	44	102	1048576	7	3955
2026-01-07 11:26:54.70	1.89	24.29	-23.3	-24.1	19.2	0.00e+00	0	44	102	1048576	7	3927
2026-01-07 11:26:55.71	1.73	24.16	-23.4	-24.2	19.2	0.00e+00	0	44	102	1048576	7	3956
2026-01-07 11:26:56.71	1.57	24.03	-23.4	-24.2	19.2	0.00e+00	0	43	102	1048576	7	3950
2026-01-07 11:26:57.72	1.41	23.90	-23.4	-24.3	19.1	0.00e+00	0	44	102	1048576	7	3979
2026-01-07 11:26:58.73	1.25	23.78	-23.4	-24.3	19.0	0.00e+00	0	44	102	1048576	7	3997
2026-01-07 11:26:59.74	1.10	23.65	-23.7	-24.8	18.8	0.00e+00	0	44	102	1048576	7	4105
2026-01-07 11:27:00.74	0.94	23.52	-23.6	-24.7	18.9	0.00e+00	0	44	102	1048576	7	4090
2026-01-07 11:27:01.75	0.79	23.40	-23.6	-24.7	18.9	0.00e+00	0	44	102	1048576	7	4075
2026-01-07 11:27:02.75	0.64	23.27	-23.7	-24.8	18.8	0.00e+00	0	44	102	1048576	7	4110
2026-01-07 11:27:03.76	0.49	23.15	-23.8	-25.1	18.7	0.00e+00	0	44	102	1048576	7	4195
2026-01-07 11:27:04.77	0.33	23.02	-23.8	-25.0	18.7	0.00e+00	0	44	102	1048576	7	4163
2026-01-07 11:27:05.77	0.19	22.90	-23.7	-24.8	18.8	0.00e+00	0	44	102	1048576	7	4119
2026-01-07 11:27:06.78	0.04	22.77	-23.7	-25.0	18.8	0.00e+00	0	44	102	1048576	7	4148
2026-01-07 11:27:07.78	359.89	22.65	-23.7	-24.9	18.8	0.00e+00	0	44	102	1048576	7	4130
2026-01-07 11:27:08.79	359.75	22.53	-23.8	-25.1	18.7	0.00e+00	0	44	102	1048576	7	4173
2026-01-07 11:27:09.80	359.60	22.40	-23.7	-25.0	18.7	0.00e+00	0	44	102	1048576	7	4155
2026-01-07 11:27:10.81	359.46	22.28	-23.8	-25.0	18.7	0.00e+00	0	43	102	1048576	7	4168
2026-01-07 11:27:11.82	359.32	22.16	-23.9	-25.3	18.5	0.00e+00	0	44	102	1048576	7	4244
2026-01-07 11:27:12.83	359.18	22.04	-23.8	-25.1	18.6	0.00e+00	0	44	102	1048576	7	4196
2026-01-07 11:27:13.83	359.04	21.92	-23.8	-25.0	18.7	0.00e+00	0	44	102	1048576	7	4165
2026-01-07 11:27:14.84	358.90	21.80	-23.8	-25.1	18.7	0.00e+00	0	44	102	1048576	7	4180
2026-01-07 11:27:15.85	358.76	21.67	-23.8	-25.0	18.7	0.00e+00	0	44	102	1048576	7	4159
2026-01-07 11:27:16.85	358.62	21.56	-23.7	-25.0	18.8	0.00e+00	0	43	102	1048576	7	4144
2026-01-07 11:27:17.85	358.49	21.44	-23.9	-25.2	18.6	0.00e+00	0	44	102	1048576	7	4216
2026-01-07 11:27:18.86	358.36	21.32	-23.8	-25.2	18.6	0.00e+00	0	44	102	1048576	7	4200
2026-01-07 11:27:19.87	358.22	21.20	-24.0	-25.4	18.4	0.00e+00	0	44	102	1048576	7	4267
2026-01-07 11:27:20.88	358.09	21.08	-23.9	-25.3	18.5	0.00e+00	0	44	102	1048576	7	4244
2026-01-07 11:27:21.89	357.96	20.96	-24.1	-25.3	18.2	0.00e+00	0	44	102	1048576	8	4126
2026-01-07 11:27:22.88	357.83	20.84	-24.3	-25.7	18.1	0.00e+00	0	44	102	1048576	8	4235
2026-01-07 11:27:23.89	357.70	20.73	-24.3	-25.8	18.0	0.00e+00	0	44	102	1048576	8	4246
2026-01-07 11:27:24.90	357.57	20.61	-24.5	-26.0	17.9	0.00e+00	0	44	102	1048576	8	4315
2026-01-07 11:27:25.90	357.45	20.49	-24.5	-25.6	17.9	0.00e+00	0	44	102	1048576	9	4097
2026-01-07 11:27:26.91	357.32	20.38	-24.6	-25.7	17.8	0.00e+00	0	43	102	1048576	9	4122
2026-01-07 11:27:27.91	357.20	20.26	-24.6	-25.8	17.8	0.00e+00	0	43	102	1048576	9	4127
2026-01-07 11:27:28.90	357.07	20.15	-24.8	-26.2	17.5	0.00e+00	0	43	102	1048576	9	4246
2026-01-07 11:27:29.91	356.95	20.03	-24.6	-25.8	17.8	0.00e+00	0	44	102	1048576	9	4133
2026-01-07 11:27:30.91	356.83	19.92	-24.4	-25.4	17.9	0.00e+00	0	44	102	1048576	9	4044
2026-01-07 11:27:31.92	356.71	19.81	-24.4	-25.4	17.9	0.00e+00	0	44	102	1048576	9	4041
2026-01-07 11:27:32.93	356.59	19.69	-24.5	-25.6	17.8	0.00e+00	0	44	102	1048576	9	4086
2026-01-07 11:27:33.94	356.47	19.58	-24.5	-25.6	17.8	0.00e+00	0	44	102	1048576	9	4090
2026-01-07 11:27:34.95	356.35	19.46	-24.6	-25.8	17.7	0.00e+00	0	44	102	1048576	9	4139
2026-01-07 11:27:35.95	356.23	19.35	-24.7	-26.0	17.6	0.00e+00	0	44	102	1048576	9	4197
2026-01-07 11:27:36.96	356.11	19.24	-24.7	-26.1	17.6	0.00e+00	0	44	102	1048576	9	4203
2026-01-07 11:27:37.97	356.00	19.13	-24.8	-26.2	17.5	0.00e+00	0	44	102	1048576	9	4245
2026-01-07 11:27:38.98	355.88	19.02	-24.7	-26.1	17.6	0.00e+00	0	44	102	1048576	9	4205
2026-01-07 11:27:39.98	355.77	18.90	-24.8	-26.2	17.5	0.00e+00	0	44	102	1048576	9	4231
2026-01-07 11:27:40.99	355.65	18.79	-24.7	-26.0	17.6	0.00e+00	0	44	102	1048576	9	4181
2026-01-07 11:27:42.00	355.54	18.68	-24.8	-26.3	17.4	0.00e+00	0	44	102	1048576	9	4262
2026-01-07 11:27:43.00	355.43	18.57	-24.7	-26.0	17.6	0.00e+00	0	43	102	1048576	9	4195
2026-01-07 11:27:44.01	355.32	18.46	-24.7	-26.1	17.5	0.00e+00	0	44	102	1048576	9	4214
2026-01-07 11:27:45.02	355.21	18.35	-24.7	-26.0	17.5	0.00e+00	0	44	102	1048576	9	4200
2026-01-07 11:27:46.03	355.10	18.24	-24.8	-26.2	17.4	0.00e+00	0	44	102	1048576	9	4239
2026-01-07 11:27:47.03	354.99	18.14	-24.7	-26.0	17.5	0.00e+00	0	44	102	1048576	9	4189
2026-01-07 11:27:48.04	354.88	18.03	-24.8	-26.2	17.4	0.00e+00	0	44	102	1048576	9	4238
2026-01-07 11:27:49.04	354.78	17.92	-24.7	-25.9	17.6	0.00e+00	0	43	102	1048576	9	4164
2026-01-07 11:27:50.05	354.67	17.81	-24.7	-26.0	17.6	0.00e+00	0	44	102	1048576	9	4182
2026-01-07 11:27:51.05	354.57	17.71	-24.7	-26.0	17.5	0.00e+00	0	44	102	1048576	9	4194
2026-01-07 11:27:52.06	354.46	17.60	-24.8	-26.2	17.4	0.00e+00	0	44	102	1048576	9	4246
2026-01-07 11:27:53.07	354.36	17.49	-24.8	-26.3	17.4	0.00e+00	0	44	102	1048576	9	4265
2026-01-07 11:27:54.08	354.26	17.39	-25.0	-26.2	17.2	0.00e+00	0	44	102	1048576	10	4136
2026-01-07 11:27:55.09	354.15	17.28	-25.0	-26.1	17.3	0.00e+00	0	44	102	1048576	10	4101
2026-01-07 11:27:56.09	354.05	17.18	-25.0	-26.2	17.2	0.00e+00	0	43	102	1048576	10	4141
2026-01-07 11:27:57.10	353.95	17.07	-25.1	-26.3	17.1	0.00e+00	0	44	102	1048576	10	4160
2026-01-07 11:27:58.11	353.85	16.97	-25.2	-26.6	16.9	0.00e+00	0	44	102	1048576	10	4243
2026-01-07 11:27:59.12	353.75	16.86	-25.1	-26.4	17.1	0.00e+00	0	44	102	1048576	10	4176
2026-01-07 11:28:00.12	353.65	16.76	-25.1	-26.3	17.1	0.00e+00	0	44	102	1048576	10	4161
2026-01-07 11:28:01.12	353.56	16.66	-25.2	-26.6	16.9	0.00e+00	0	43	102	1048576	10	4235
2026-01-07 11:28:02.13	353.46	16.55	-25.1	-26.5	17.0	0.00e+00	0	44	102	1048576	10	4195
2026-01-07 11:28:03.14	353.36	16.45	-25.2	-26.6	16.9	0.00e+00	0	44	102	1048576	10	4234
2026-01-07 11:28:04.15	353.27	16.35	-25.2	-26.5	17.0	0.00e+00	0	44	102	1048576	10	4210
2026-01-07 11:28:05.15	353.17	16.25	-25.2	-26.6	16.9	0.00e+00	0	43	102	1048576	10	4237
2026-01-07 11:28:06.15	353.08	16.14	-25.3	-26.8	16.8	0.00e+00	0	44	102	1048576	10	4272
2026-01-07 11:28:07.16	352.98	16.04	-25.4	-27.0	16.7	0.00e+00	0	44	102	1048576	10	4327
2026-01-07 11:28:08.17	352.89	15.94	-25.3	-26.9	16.7	0.00e+00	0	44	102	1048576	10	4323
2026-01-07 11:28:09.18	352.80	15.84	-25.4	-27.0	16.7	0.00e+00	0	44	102	1048576	10	4330
2026-01-07 11:28:10.19	352.71	15.74	-25.4	-27.1	16.6	0.00e+00	0	44	102	1048576	10	4367
2026-01-07 11:28:11.19	352.61	15.64	-25.4	-27.1	16.6	0.00e+00	0	44	102	1048576	10	4376
2026-01-07 11:28:12.20	352.52	15.54	-25.5	-27.2	16.5	0.00e+00	0	44	102	1048576	10	4396
2026-01-07 11:28:13.21	352.43	15.44	-25.5	-27.2	16.6	0.00e+00	0	44	102	1048576	10	4389
2026-01-07 11:28:14.22	352.34	15.34	-25.5	-26.7	16.5	0.00e+00	0	44	102	1048576	11	4159
2026-01-07 11:28:15.22	352.26	15.24	-25.6	-27.0	16.4	0.00e+00	0	44	102	1048576	11	4228
2026-01-07 11:28:16.23	352.17	15.14	-25.7	-27.2	16.3	0.00e+00	0	44	102	1048576	11	4287
2026-01-07 11:28:17.24	352.08	15.05	-25.5	-26.8	16.5	0.00e+00	0	44	102	1048576	11	4160
2026-01-07 11:28:18.25	351.99	14.95	-25.4	-26.6	16.6	0.00e+00	0	43	102	1048576	11	4112
2026-01-07 11:28:19.25	351.91	14.85	-25.5	-26.6	16.6	0.00e+00	0	44	102	1048576	11	4130
2026-01-07 11:28:20.26	351.82	14.75	-25.5	-26.8	16.5	0.00e+00	0	44	102	1048576	11	4175
2026-01-07 11:28:21.26	351.74	14.66	-25.5	-26.7	16.6	0.00e+00	0	44	102	1048576	11	4141
2026-01-07 11:28:22.27	351.65	14.56	-25.5	-26.6	16.6	0.00e+00	0	44	102	1048576	11	4131
2026-01-07 11:28:23.28	351.57	14.46	-25.5	-26.9	16.4	0.00e+00	0	44	102	1048576	11	4189
2026-01-07 11:28:24.29	351.48	14.37	-25.5	-26.7	16.5	0.00e+00	0	44	102	1048576	11	4156
2026-01-07 11:28:25.29	351.40	14.27	-25.6	-26.9	16.4	0.00e+00	0	44	102	1048576	11	4208
2026-01-07 11:28:26.30	351.32	14.18	-25.6	-26.9	16.4	0.00e+00	0	44	102	1048576	11	4210
2026-01-07 11:28:27.31	351.24	14.08	-25.6	-27.1	16.3	0.00e+00	0	44	102	1048576	11	4243
2026-01-07 11:28:28.32	351.16	13.99	-25.6	-26.9	16.4	0.00e+00	0	44	102	1048576	11	4210
2026-01-07 11:28:29.33	351.07	13.89	-25.7	-27.2	16.2	0.00e+00	0	44	102	1048576	11	4269
2026-01-07 11:28:30.34	350.99	13.80	-25.7	-27.2	16.2	0.00e+00	0	44	102	1048576	11	4281
2026-01-07 11:28:31.35	350.91	13.71	-25.6	-27.0	16.3	0.00e+00	0	44	102	1048576	11	4240
2026-01-07 11:28:32.36	350.83	13.61	-25.7	-27.1	16.2	0.00e+00	0	44	102	1048576	11	4265
2026-01-07 11:28:33.37	350.76	13.52	-25.7	-27.2	16.2	0.00e+00	0	44	102	1048576	11	4291
2026-01-07 11:28:34.37	350.68	13.43	-25.8	-27.5	16.0	0.00e+00	0	44	102	1048576	11	4363
2026-01-07 11:28:35.38	350.60	13.33	-25.9	-27.6	15.9	0.00e+00	0	44	102	1048576	11	4397
2026-01-07 11:28:36.39	350.52	13.24	-25.8	-27.4	16.0	0.00e+00	0	44	102	1048576	11	4331
2026-01-07 11:28:37.39	350.45	13.15	-25.8	-27.5	16.0	0.00e+00	0	44	102	1048576	11	4357
2026-01-07 11:28:38.40	350.37	13.06	-25.8	-27.5	16.0	0.00e+00	0	44	102	1048576	11	4352
2026-01-07 11:28:39.41	350.30	12.97	-25.8	-27.5	15.9	0.00e+00	0	44	102	1048576	11	4358
2026-01-07 11:28:40.42	350.22	12.88	-25.9	-27.7	15.7	0.00e+00	0	44	102	1048576	11	4425
2026-01-07 11:28:41.43	350.15	12.78	-26.1	-27.7	15.3	0.00e+00	0	44	102	1048576	12	4324
2026-01-07 11:28:42.43	350.07	12.69	-26.2	-28.0	15.2	0.00e+00	0	44	102	1048576	12	4387
2026-01-07 11:28:43.43	350.00	12.60	-26.1	-27.6	15.3	0.00e+00	0	44	102	1048576	12	4286
2026-01-07 11:28:44.44	349.93	12.51	-25.9	-27.3	15.5	0.00e+00	0	44	102	1048576	12	4213
2026-01-07 11:28:45.44	349.85	12.43	-25.9	-27.2	15.6	0.00e+00	0	44	102	1048576	12	4177
2026-01-07 11:28:46.45	349.78	12.34	-25.9	-27.3	15.6	0.00e+00	0	44	102	1048576	12	4216
2026-01-07 11:28:47.46	349.71	12.25	-26.0	-27.4	15.6	0.00e+00	0	44	102	1048576	12	4239
2026-01-07 11:28:48.46	349.64	12.16	-26.0	-27.4	15.6	0.00e+00	0	44	102	1048576	12	4226
2026-01-07 11:28:49.47	349.57	12.07	-26.1	-27.6	15.6	0.00e+00	0	44	102	1048576	12	4298
2026-01-07 11:28:50.48	349.50	11.98	-26.1	-27.7	15.5	0.00e+00	0	44	102	1048576	12	4316
2026-01-07 11:28:51.48	349.43	11.89	-26.1	-27.7	15.5	0.00e+00	0	44	102	1048576	12	4326
2026-01-07 11:28:52.49	349.36	11.81	-26.2	-27.9	15.4	0.00e+00	0	44	102	1048576	12	4371
2026-01-07 11:28:53.49	349.29	11.72	-26.2	-27.9	15.4	0.00e+00	0	44	102	1048576	12	4371
2026-01-07 11:28:54.50	349.22	11.63	-26.2	-27.9	15.3	0.00e+00	0	44	102	1048576	12	4382
2026-01-07 11:28:55.51	349.15	11.55	-26.2	-28.0	15.1	0.00e+00	0	44	102	1048576	12	4393
2026-01-07 11:28:56.52	349.08	11.46	-26.3	-28.0	15.0	0.00e+00	0	44	102	1048576	12	4400
2026-01-07 11:28:57.52	349.02	11.37	-26.1	-27.7	15.1	0.00e+00	0	44	102	1048576	12	4329
2026-01-07 11:28:58.52	348.95	11.29	-26.1	-27.8	15.1	0.00e+00	0	44	102	1048576	12	4341
2026-01-07 11:28:59.53	348.88	11.20	-26.1	-27.7	15.1	0.00e+00	0	44	102	1048576	12	4324
2026-01-07 11:29:00.54	348.82	11.12	-26.2	-27.8	15.0	0.00e+00	0	44	102	1048576	12	4347
2026-01-07 11:29:01.55	348.75	11.03	-26.2	-28.0	15.0	0.00e+00	0	44	102	1048576	12	4388
2026-01-07 11:29:02.54	348.69	10.95	-26.4	-28.3	14.9	0.00e+00	0	44	102	1048576	12	4480
2026-01-07 11:29:03.55	348.62	10.86	-26.3	-28.1	15.1	0.00e+00	0	44	102	1048576	12	4430
2026-01-07 11:29:04.56	348.56	10.78	-26.4	-28.2	15.1	0.00e+00	0	44	102	1048576	12	4465
2026-01-07 11:29:05.57	348.49	10.69	-26.4	-28.3	15.0	0.00e+00	0	43	102	1048576	12	4493
2026-01-07 11:29:06.58	348.43	10.61	-26.4	-28.2	15.1	0.00e+00	0	44	102	1048576	12	4463
2026-01-07 11:29:07.58	348.37	10.52	-26.3	-28.2	15.1	0.00e+00	0	44	102	1048576	12	4440
2026-01-07 11:29:08.59	348.30	10.44	-26.5	-28.1	14.9	0.00e+00	0	44	102	1048576	13	4302
2026-01-07 11:29:09.60	348.24	10.36	-26.5	-28.0	14.9	0.00e+00	0	44	102	1048576	13	4291
2026-01-07 11:29:10.60	348.18	10.27	-26.2	-27.4	15.2	0.00e+00	0	44	102	1048576	13	4135
2026-01-07 11:29:11.60	348.12	10.19	-26.2	-27.3	15.3	0.00e+00	0	44	102	1048576	13	4096
2026-01-07 11:29:12.61	348.05	10.11	-26.2	-27.4	15.2	0.00e+00	0	44	102	1048576	13	4131
2026-01-07 11:29:13.62	347.99	10.03	-26.3	-27.6	15.2	0.00e+00	0	44	102	1048576	13	4188
2026-01-07 11:29:14.62	347.93	9.95	-26.3	-27.6	15.2	0.00e+00	0	44	102	1048576	13	4166
2026-01-07 11:29:15.63	347.87	9.86	-26.4	-27.7	15.1	1.10e-06	0	44	102	1048576	13	4208
2026-01-07 11:29:16.64	347.81	9.78	-26.4	-27.7	15.1	0.00e+00	0	44	102	1048576	13	4208
2026-01-07 11:29:17.64	347.75	9.70	-26.3	-27.6	15.1	0.00e+00	0	44	102	1048576	13	4180
2026-01-07 11:29:18.65	347.69	9.62	-26.3	-27.6	14.9	0.00e+00	0	44	102	1048576	13	4184
2026-01-07 11:29:19.66	347.63	9.54	-26.3	-27.6	14.7	0.00e+00	0	44	102	1048576	13	4187
2026-01-07 11:29:20.67	347.58	9.46	-26.3	-27.7	14.6	0.00e+00	0	44	102	1048576	13	4212
2026-01-07 11:29:21.68	347.52	9.38	-26.3	-27.6	14.4	0.00e+00	0	44	102	1048576	13	4183
2026-01-07 11:29:22.68	347.46	9.30	-26.3	-27.7	13.9	1.10e-06	0	44	102	1048576	13	4228
2026-01-07 11:29:23.69	347.40	9.22	-26.3	-27.7	13.8	2.20e-06	0	44	102	1048576	13	4207
2026-01-07 11:29:24.70	347.34	9.14	-26.3	-27.7	13.6	1.10e-06	0	44	102	1048576	13	4211
2026-01-07 11:29:25.70	347.29	9.06	-26.4	-27.9	13.5	4.50e-06	0	44	102	1048576	13	4267
2026-01-07 11:29:26.71	347.23	8.98	-26.4	-28.0	13.6	1.10e-06	0	44	102	1048576	13	4304
2026-01-07 11:29:27.71	347.17	8.90	-26.7	-28.5	13.6	2.20e-06	0	44	102	1048576	13	4441
2026-01-07 11:29:28.72	347.12	8.82	-26.6	-28.4	13.8	1.10e-06	0	44	102	1048576	13	4409
2026-01-07 11:29:29.73	347.06	8.74	-26.7	-28.6	13.7	2.20e-06	0	44	102	1048576	13	4477
2026-01-07 11:29:30.74	347.01	8.66	-26.8	-28.7	13.8	0.00e+00	0	44	102	1048576	13	4498
2026-01-07 11:29:31.74	346.95	8.59	-26.7	-28.7	13.9	1.10e-06	0	44	102	1048576	13	4488
2026-01-07 11:29:32.74	346.90	8.51	-26.8	-28.7	13.9	0.00e+00	0	44	102	1048576	13	4510
2026-01-07 11:29:33.74	346.84	8.43	-26.7	-28.5	14.0	1.10e-06	0	44	102	1048576	13	4444
2026-01-07 11:29:34.75	346.79	8.35	-26.9	-29.1	13.8	1.10e-06	0	44	102	1048576	13	4619
2026-01-07 11:29:35.76	346.74	8.28	-26.9	-28.5	14.0	1.10e-06	0	44	102	1048576	14	4317
2026-01-07 11:29:36.76	346.68	8.20	-26.7	-28.1	14.3	0.00e+00	0	44	102	1048576	14	4224
2026-01-07 11:29:37.77	346.63	8.12	-26.8	-28.2	14.3	0.00e+00	0	44	102	1048576	14	4237
2026-01-07 11:29:38.77	346.58	8.05	-26.8	-28.3	14.3	0.00e+00	0	44	102	1048576	14	4278
2026-01-07 11:29:39.78	346.53	7.97	-27.0	-28.7	14.0	1.10e-06	0	44	102	1048576	14	4392
2026-01-07 11:29:40.78	346.47	7.89	-26.9	-28.5	14.1	3.40e-06	0	44	102	1048576	14	4326
2026-01-07 11:29:41.79	346.42	7.82	-27.0	-28.8	13.9	1.10e-06	0	44	102	1048576	14	4422
2026-01-07 11:29:42.80	346.37	7.74	-27.1	-28.9	13.7	2.20e-06	0	44	102	1048576	14	4456
2026-01-07 11:29:43.80	346.32	7.67	-27.0	-28.8	13.7	5.70e-06	0	44	102	1048576	14	4408
2026-01-07 11:29:44.81	346.27	7.59	-27.1	-29.1	13.1	1.02e-05	0	44	102	1048576	14	4503
2026-01-07 11:29:45.82	346.22	7.52	-27.1	-28.9	13.1	1.83e-05	0	44	102	1048576	14	4460
2026-01-07 11:29:46.82	346.17	7.44	-27.3	-29.4	12.7	2.86e-05	0	44	102	1048576	14	4604
2026-01-07 11:29:47.82	346.12	7.37	-27.2	-29.3	12.5	7.43e-05	0	44	102	1048576	14	4580
2026-01-07 11:29:48.82	346.07	7.29	-27.5	-29.5	12.0	2.27e-04	0	44	102	1048576	15	4544
2026-01-07 11:29:49.82	346.02	7.22	-27.3	-29.0	12.2	1.20e-04	0	44	102	1048576	15	4374
2026-01-07 11:29:50.83	345.97	7.14	-27.1	-28.6	12.1	1.70e-04	0	44	102	1048576	15	4274
2026-01-07 11:29:51.84	345.92	7.07	-32.5	-40.2	3.9	7.45e-01	0	44	104	1048576	25	8814
2026-01-07 11:29:52.85	345.87	7.00	-25.0	-30.3	3.7	8.47e-01	0	44	104	1048576	11	6637
2026-01-07 11:29:53.85	345.82	6.92	-33.4	-44.7	3.8	8.46e-01	0	44	104	1048576	26	13097

#Closed at: 2026-01-07 11:29:53
#Recorded file [1 MB]: D:/data/31010_260107_141830.dat