passes_logs/2026/01/07/R2M6_AANII_01/R2M6_AANII_01__20260107_031149_FENGYUN_3E_rec.log

#Pass ID: 20260107_031149_FENGYUN 3E
#Satellite: FENGYUN 3E
#Configuration: FENGYUN 3E
#almurnet v.1.7.20240730
#Start time: 2026-01-07 03:17:28

#Version: 2.2.20231116
#Station: R2M6_AANII_01
#Location: 30.233357 lon 59.946436 lat
#TLE: 1 49008U 21062A   26006.26767912  .00000427  00000+0  22170-3 0  9993
#TLE: 2 49008  98.7475  11.4982 0001602 156.1158 204.0093 14.19885456233607

#Time	Az	El	Level	Level2	SNR	BER	BlckErr	Temp	State	Recorded	gain1	gain2
2026-01-07 03:17:28.30	96.62	28.02	-33.4	-44.8	3.8	8.45e-01	0	43	0	0	26	13385
2026-01-07 03:17:29.30	96.94	28.00	-33.9	-43.6	3.8	8.46e-01	0	43	104	0	27	11017
2026-01-07 03:17:30.31	97.26	27.99	-33.9	-43.6	3.8	8.47e-01	0	43	104	0	27	11018
2026-01-07 03:17:31.32	97.59	27.97	-33.9	-43.7	3.8	8.45e-01	0	43	104	0	27	11099
2026-01-07 03:17:32.32	97.91	27.95	-33.9	-43.7	3.8	8.45e-01	0	43	104	0	27	11083
2026-01-07 03:17:33.33	98.23	27.93	-33.9	-43.7	3.8	8.46e-01	0	43	104	0	27	11068
2026-01-07 03:17:34.33	98.55	27.90	-33.9	-43.7	3.8	8.45e-01	0	44	104	0	27	11101
2026-01-07 03:17:35.34	98.88	27.88	-33.9	-43.7	3.8	8.46e-01	0	44	104	0	27	11060
2026-01-07 03:17:36.34	99.19	27.86	-33.9	-43.7	3.8	8.46e-01	0	43	104	0	27	11090
2026-01-07 03:17:37.35	99.52	27.83	-33.9	-43.7	3.8	8.46e-01	0	44	104	0	27	11068
2026-01-07 03:17:38.35	99.83	27.81	-33.9	-43.6	3.8	8.46e-01	0	44	104	0	27	11049
2026-01-07 03:17:39.36	100.15	27.78	-33.9	-43.6	3.8	8.45e-01	0	44	104	0	27	11030
2026-01-07 03:17:40.36	100.47	27.75	-33.9	-43.6	3.8	8.47e-01	0	43	104	0	27	11045
2026-01-07 03:17:41.36	100.79	27.73	-33.9	-43.6	3.8	8.45e-01	0	43	104	0	27	11013
2026-01-07 03:17:42.37	101.11	27.70	-33.9	-43.6	3.8	8.45e-01	0	43	104	0	27	11026
2026-01-07 03:17:43.37	101.42	27.67	-33.9	-43.7	3.8	8.45e-01	0	44	104	0	27	11030
2026-01-07 03:17:44.37	101.74	27.64	-34.0	-43.7	3.8	8.46e-01	0	44	104	0	27	11099
2026-01-07 03:17:45.38	102.05	27.60	-33.9	-43.7	3.8	8.46e-01	0	44	104	0	27	11048
2026-01-07 03:17:46.39	102.37	27.57	-33.9	-43.6	3.8	8.46e-01	0	44	104	0	27	11055
2026-01-07 03:17:47.40	102.69	27.54	-33.9	-43.6	3.8	8.47e-01	0	44	104	0	27	11021
2026-01-07 03:17:48.41	103.00	27.50	-33.9	-43.2	3.8	8.47e-01	0	44	104	0	28	10468
2026-01-07 03:17:49.42	103.32	27.47	-33.9	-43.1	3.8	8.46e-01	0	44	104	0	28	10426
2026-01-07 03:17:50.42	103.63	27.43	-33.8	-43.0	3.8	8.46e-01	0	44	104	0	28	10374
2026-01-07 03:17:51.44	103.94	27.39	-33.8	-43.0	3.8	8.46e-01	0	44	104	0	28	10367
2026-01-07 03:17:52.45	104.26	27.35	-33.8	-42.9	3.8	8.46e-01	0	44	104	0	28	10265
2026-01-07 03:17:53.45	104.57	27.32	-33.7	-42.7	3.8	8.46e-01	0	44	104	0	28	10157
2026-01-07 03:17:54.45	104.87	27.28	-33.7	-42.6	3.8	8.46e-01	0	44	104	0	28	10072
2026-01-07 03:17:55.46	105.18	27.23	-33.7	-43.2	3.8	8.46e-01	0	44	104	0	27	10697
2026-01-07 03:17:56.47	105.49	27.19	-33.5	-42.4	3.8	8.45e-01	0	44	104	0	27	10008
2026-01-07 03:17:57.47	105.80	27.15	-33.5	-42.7	3.8	8.47e-01	0	44	104	0	27	10348
2026-01-07 03:17:58.47	106.10	27.11	-33.5	-42.6	3.8	8.46e-01	0	44	104	0	27	10335
2026-01-07 03:17:59.48	106.41	27.06	-33.5	-42.7	3.8	8.46e-01	0	44	104	0	27	10401
2026-01-07 03:18:00.49	106.72	27.02	-33.5	-42.7	3.8	8.46e-01	0	44	104	0	27	10438
2026-01-07 03:18:01.49	107.02	26.98	-33.5	-42.8	3.8	8.46e-01	0	44	104	0	27	10574
2026-01-07 03:18:02.50	107.32	26.93	-33.4	-42.7	3.8	8.45e-01	0	44	104	0	27	10504
2026-01-07 03:18:03.50	107.63	26.88	-33.5	-42.7	3.8	8.47e-01	0	44	104	0	27	10443
2026-01-07 03:18:04.50	107.93	26.83	-33.4	-42.5	3.8	8.47e-01	0	44	104	0	27	10209
2026-01-07 03:18:05.51	108.23	26.79	-33.4	-42.2	3.8	8.46e-01	0	44	104	0	27	9893
2026-01-07 03:18:06.52	108.53	26.74	-33.4	-42.0	3.8	8.47e-01	0	44	104	0	27	9724
2026-01-07 03:18:07.52	108.83	26.69	-33.4	-42.3	3.8	8.45e-01	0	44	104	0	27	10030
2026-01-07 03:18:08.52	109.12	26.64	-33.4	-42.6	3.8	8.44e-01	0	44	104	0	27	10329
2026-01-07 03:18:09.53	109.42	26.59	-33.4	-42.6	3.8	8.46e-01	0	44	104	0	27	10372
2026-01-07 03:18:10.54	109.72	26.53	-33.4	-42.3	3.8	8.47e-01	0	44	104	0	27	10019
2026-01-07 03:18:11.54	110.01	26.48	-33.3	-41.6	3.8	8.46e-01	0	44	104	0	27	9359
2026-01-07 03:18:12.55	110.31	26.43	-33.2	-40.5	3.8	8.45e-01	0	44	104	0	27	8346
2026-01-07 03:18:13.56	110.60	26.37	-33.0	-39.3	4.1	8.41e-01	0	44	104	0	27	7454
2026-01-07 03:18:14.56	110.89	26.32	-32.8	-39.0	3.9	8.40e-01	0	44	104	0	26	7318
2026-01-07 03:18:15.57	111.18	26.26	-32.8	-38.6	4.3	8.30e-01	0	44	104	0	26	7033
2026-01-07 03:18:16.58	111.48	26.21	-32.7	-38.7	4.0	8.41e-01	0	44	104	0	26	7118
2026-01-07 03:18:17.59	111.77	26.15	-32.6	-38.1	4.0	8.26e-01	0	44	104	0	26	6754
2026-01-07 03:18:18.59	112.05	26.09	-31.8	-35.6	4.5	8.09e-01	0	44	104	0	24	5572
2026-01-07 03:18:19.60	112.34	26.04	-29.9	-31.3	9.7	1.85e-02	0	44	0	0	21	4221
2026-01-07 03:18:20.60	112.63	25.98	-27.6	-28.1	13.2	1.35e-04	0	44	102	1048576	16	3832
2026-01-07 03:18:21.61	112.91	25.92	-25.8	-26.2	15.2	0.00e+00	0	44	102	1048576	12	3777
2026-01-07 03:18:22.61	113.20	25.86	-25.2	-25.3	16.0	0.00e+00	0	44	102	1048576	11	3649
2026-01-07 03:18:23.62	113.48	25.80	-25.2	-25.4	16.0	9.10e-06	0	44	102	1048576	11	3672
2026-01-07 03:18:24.63	113.76	25.74	-25.2	-25.4	16.0	0.00e+00	0	44	102	1048576	11	3669
2026-01-07 03:18:25.64	114.05	25.67	-25.1	-25.2	16.1	0.00e+00	0	44	102	1048576	11	3638
2026-01-07 03:18:26.64	114.32	25.61	-25.3	-25.5	15.9	0.00e+00	0	44	102	1048576	11	3705
2026-01-07 03:18:27.65	114.60	25.55	-25.2	-25.3	16.0	0.00e+00	0	44	102	1048576	11	3642
2026-01-07 03:18:28.65	114.88	25.49	-25.1	-25.1	16.1	0.00e+00	0	44	102	1048576	11	3620
2026-01-07 03:18:29.65	115.16	25.42	-25.2	-25.3	16.0	0.00e+00	0	44	102	1048576	11	3650
2026-01-07 03:18:30.66	115.43	25.36	-25.7	-26.5	15.4	0.00e+00	0	44	102	1048576	11	3940
2026-01-07 03:18:31.67	115.71	25.29	-25.4	-25.9	15.7	0.00e+00	0	44	102	1048576	11	3799
2026-01-07 03:18:32.68	115.98	25.23	-24.8	-25.1	16.3	0.00e+00	0	44	102	1048576	10	3711
2026-01-07 03:18:33.68	116.25	25.16	-24.1	-24.1	17.2	0.00e+00	0	44	102	1048576	9	3582
2026-01-07 03:18:34.69	116.53	25.10	-23.7	-23.8	17.5	0.00e+00	0	44	102	1048576	8	3614
2026-01-07 03:18:35.70	116.80	25.03	-23.6	-23.5	17.7	0.00e+00	0	44	102	1048576	8	3563
2026-01-07 03:18:36.71	117.07	24.96	-23.6	-23.5	17.7	0.00e+00	0	44	102	1048576	8	3553
2026-01-07 03:18:37.72	117.34	24.89	-24.0	-24.3	17.2	0.00e+00	0	44	102	1048576	8	3740
2026-01-07 03:18:38.73	117.60	24.82	-23.9	-24.1	17.4	0.00e+00	0	44	102	1048576	8	3697
2026-01-07 03:18:39.74	117.87	24.75	-23.9	-24.2	17.3	0.00e+00	0	44	102	1048576	8	3720
2026-01-07 03:18:40.75	118.14	24.69	-24.2	-24.8	17.0	0.00e+00	0	44	102	1048576	8	3843
2026-01-07 03:18:41.75	118.40	24.62	-24.2	-24.7	17.1	0.00e+00	0	44	102	1048576	8	3811
2026-01-07 03:18:42.76	118.66	24.55	-23.9	-24.2	17.3	0.00e+00	0	44	102	1048576	8	3703
2026-01-07 03:18:43.76	118.92	24.48	-23.7	-23.7	17.6	0.00e+00	0	44	102	1048576	8	3601
2026-01-07 03:18:44.77	119.18	24.40	-23.7	-23.7	17.6	0.00e+00	0	44	102	1048576	8	3597
2026-01-07 03:18:45.76	119.44	24.33	-23.7	-23.6	17.6	0.00e+00	0	44	102	1048576	8	3574
2026-01-07 03:18:46.76	119.69	24.26	-23.9	-24.1	17.4	0.00e+00	0	44	102	1048576	8	3682
2026-01-07 03:18:47.77	119.95	24.19	-23.7	-23.7	17.6	0.00e+00	0	44	102	1048576	8	3586
2026-01-07 03:18:48.78	120.21	24.12	-23.4	-23.1	17.9	0.00e+00	0	44	102	1048576	8	3471
2026-01-07 03:18:49.79	120.46	24.04	-23.4	-23.1	17.9	0.00e+00	0	44	102	1048576	8	3478
2026-01-07 03:18:50.80	120.72	23.97	-23.5	-23.2	17.8	0.00e+00	0	44	102	1048576	8	3492
2026-01-07 03:18:51.81	120.97	23.90	-23.4	-23.1	18.0	0.00e+00	0	44	102	1048576	8	3460
2026-01-07 03:18:52.82	121.22	23.82	-23.4	-23.5	17.9	0.00e+00	0	44	102	1048576	7	3653
2026-01-07 03:18:53.82	121.47	23.75	-23.3	-23.4	18.0	0.00e+00	0	44	102	1048576	7	3627
2026-01-07 03:18:54.82	121.72	23.67	-23.4	-23.6	17.9	0.00e+00	0	44	102	1048576	7	3676
2026-01-07 03:18:55.83	121.96	23.60	-23.4	-23.5	17.9	0.00e+00	0	44	102	1048576	7	3643
2026-01-07 03:18:56.84	122.21	23.52	-23.4	-23.6	17.9	0.00e+00	0	44	102	1048576	7	3665
2026-01-07 03:18:57.84	122.45	23.45	-23.4	-23.5	17.9	0.00e+00	0	44	102	1048576	7	3646
2026-01-07 03:18:58.84	122.70	23.37	-23.4	-23.6	17.9	0.00e+00	0	44	102	1048576	7	3672
2026-01-07 03:18:59.85	122.94	23.29	-23.4	-23.5	17.9	0.00e+00	0	44	102	1048576	7	3660
2026-01-07 03:19:00.86	123.18	23.22	-23.4	-23.6	17.9	0.00e+00	0	44	102	1048576	7	3682
2026-01-07 03:19:01.86	123.42	23.14	-23.4	-23.6	17.9	0.00e+00	0	44	102	1048576	7	3669
2026-01-07 03:19:02.87	123.66	23.06	-23.5	-23.8	17.8	0.00e+00	0	44	102	1048576	7	3714
2026-01-07 03:19:03.88	123.90	22.99	-23.5	-23.7	17.8	0.00e+00	0	44	102	1048576	7	3705
2026-01-07 03:19:04.88	124.14	22.91	-23.5	-23.8	17.7	0.00e+00	0	44	102	1048576	7	3730
2026-01-07 03:19:05.89	124.37	22.83	-23.7	-24.3	17.5	0.00e+00	0	44	102	1048576	7	3824
2026-01-07 03:19:06.90	124.61	22.75	-23.8	-24.4	17.4	0.00e+00	0	44	102	1048576	7	3857
2026-01-07 03:19:07.90	124.84	22.67	-23.8	-24.4	17.4	0.00e+00	0	44	102	1048576	7	3848
2026-01-07 03:19:08.91	125.07	22.59	-23.9	-24.5	17.4	0.00e+00	0	44	102	1048576	7	3889
2026-01-07 03:19:09.91	125.30	22.52	-23.9	-24.7	17.3	0.00e+00	0	44	102	1048576	7	3932
2026-01-07 03:19:10.92	125.53	22.44	-23.9	-24.5	17.3	0.00e+00	0	44	102	1048576	7	3881
2026-01-07 03:19:11.93	125.76	22.36	-24.0	-24.8	17.2	0.00e+00	0	44	102	1048576	7	3949
2026-01-07 03:19:12.94	125.99	22.28	-23.9	-24.6	17.3	0.00e+00	0	44	102	1048576	7	3915
2026-01-07 03:19:13.94	126.22	22.20	-24.1	-24.6	17.1	0.00e+00	0	44	102	1048576	8	3812
2026-01-07 03:19:14.94	126.44	22.12	-24.4	-25.3	16.7	0.00e+00	0	44	102	1048576	8	3957
2026-01-07 03:19:15.95	126.67	22.04	-24.0	-24.4	17.2	0.00e+00	0	44	102	1048576	8	3747
2026-01-07 03:19:16.95	126.89	21.96	-23.8	-24.0	17.4	0.00e+00	0	44	102	1048576	8	3667
2026-01-07 03:19:17.96	127.11	21.88	-23.8	-24.0	17.4	0.00e+00	0	44	102	1048576	8	3654
2026-01-07 03:19:18.96	127.33	21.80	-24.0	-24.2	17.3	0.00e+00	0	44	102	1048576	8	3717
2026-01-07 03:19:19.97	127.55	21.72	-24.0	-24.3	17.2	0.00e+00	0	44	102	1048576	8	3719
2026-01-07 03:19:20.97	127.77	21.63	-24.3	-24.9	16.9	0.00e+00	0	44	102	1048576	8	3877
2026-01-07 03:19:21.98	127.99	21.55	-24.2	-24.7	17.0	0.00e+00	0	44	102	1048576	8	3817
2026-01-07 03:19:22.99	128.21	21.47	-24.3	-24.8	16.3	0.00e+00	0	44	102	1048576	8	3856
2026-01-07 03:19:23.99	128.42	21.39	-24.4	-25.3	15.5	0.00e+00	0	44	102	1048576	8	3962
2026-01-07 03:19:24.99	128.63	21.31	-24.4	-25.2	16.8	0.00e+00	0	44	102	1048576	8	3941
2026-01-07 03:19:26.00	128.85	21.23	-24.1	-24.6	17.0	0.00e+00	0	44	102	1048576	8	3807
2026-01-07 03:19:27.01	129.06	21.14	-24.2	-24.8	17.0	1.64e-04	0	44	102	1048576	8	3845
2026-01-07 03:19:28.02	129.27	21.06	-24.3	-25.0	16.9	0.00e+00	0	44	102	1048576	8	3887
2026-01-07 03:19:29.02	129.48	20.98	-23.9	-24.2	17.3	5.49e-05	0	44	102	1048576	8	3699
2026-01-07 03:19:30.03	129.69	20.90	-23.9	-24.2	17.3	0.00e+00	0	44	102	1048576	8	3703
2026-01-07 03:19:31.04	129.90	20.82	-23.9	-24.2	17.3	0.00e+00	0	44	102	1048576	8	3713
2026-01-07 03:19:32.05	130.11	20.73	-24.0	-24.3	17.2	4.50e-06	0	44	102	1048576	8	3725
2026-01-07 03:19:33.05	130.31	20.65	-24.2	-24.8	16.9	0.00e+00	0	44	102	1048576	8	3859
2026-01-07 03:19:34.05	130.51	20.57	-24.0	-24.4	17.1	0.00e+00	0	44	102	1048576	8	3759
2026-01-07 03:19:35.05	130.71	20.49	-24.0	-24.4	17.2	5.37e-05	0	44	102	1048576	8	3747
2026-01-07 03:19:36.06	130.92	20.40	-24.1	-24.6	17.0	0.00e+00	0	44	102	1048576	8	3806
2026-01-07 03:19:37.06	131.12	20.32	-24.3	-25.1	16.8	0.00e+00	0	44	102	1048576	8	3917
2026-01-07 03:19:38.07	131.32	20.24	-24.3	-25.1	16.8	0.00e+00	0	44	102	1048576	8	3914
2026-01-07 03:19:39.07	131.52	20.15	-24.4	-25.2	16.7	4.46e-05	0	44	102	1048576	8	3963
2026-01-07 03:19:40.08	131.72	20.07	-24.4	-25.2	16.7	0.00e+00	0	44	102	1048576	8	3956
2026-01-07 03:19:41.08	131.91	19.99	-24.5	-25.4	16.6	1.29e-04	0	44	102	1048576	8	3993
2026-01-07 03:19:42.09	132.11	19.91	-24.4	-25.2	16.7	3.20e-05	0	44	102	1048576	8	3937
2026-01-07 03:19:43.10	132.30	19.82	-24.4	-25.2	16.7	0.00e+00	0	44	102	1048576	8	3938
2026-01-07 03:19:44.10	132.50	19.74	-24.3	-24.9	16.8	0.00e+00	0	44	102	1048576	8	3883
2026-01-07 03:19:45.10	132.69	19.66	-24.2	-24.7	16.9	0.00e+00	0	44	102	1048576	8	3838
2026-01-07 03:19:46.11	132.88	19.57	-24.3	-25.0	16.8	0.00e+00	0	44	102	1048576	8	3887
2026-01-07 03:19:47.11	133.07	19.49	-24.1	-24.6	17.0	9.49e-05	0	44	102	1048576	8	3802
2026-01-07 03:19:48.11	133.26	19.41	-24.3	-25.0	16.8	0.00e+00	0	44	102	1048576	8	3901
2026-01-07 03:19:49.12	133.45	19.32	-24.1	-24.5	17.0	0.00e+00	0	44	102	1048576	8	3774
2026-01-07 03:19:50.12	133.64	19.24	-24.1	-24.5	17.0	0.00e+00	0	44	102	1048576	8	3772
2026-01-07 03:19:51.13	133.83	19.16	-24.1	-24.5	16.9	1.89e-04	0	44	102	1048576	8	3794
2026-01-07 03:19:52.14	134.01	19.07	-24.2	-24.7	16.9	0.00e+00	0	44	102	1048576	8	3831
2026-01-07 03:19:53.14	134.20	18.99	-24.3	-24.9	16.7	0.00e+00	0	44	102	1048576	8	3879
2026-01-07 03:19:54.15	134.38	18.90	-24.6	-25.1	16.4	8.18e-04	0	44	102	1048576	9	3813
2026-01-07 03:19:55.16	134.56	18.82	-24.6	-25.1	16.3	0.00e+00	0	44	102	1048576	9	3820
2026-01-07 03:19:56.17	134.75	18.74	-24.6	-25.1	16.3	9.10e-06	0	44	102	1048576	9	3832
2026-01-07 03:19:57.17	134.93	18.65	-24.7	-25.4	16.2	0.00e+00	0	44	102	1048576	9	3882
2026-01-07 03:19:58.18	135.11	18.57	-24.7	-25.4	16.2	0.00e+00	0	44	102	1048576	9	3899
2026-01-07 03:19:59.19	135.29	18.49	-25.0	-26.0	15.9	1.89e-04	0	44	102	1048576	9	4032
2026-01-07 03:20:00.19	135.46	18.40	-25.3	-26.1	15.6	0.00e+00	0	44	102	1048576	10	3946
2026-01-07 03:20:01.20	135.64	18.32	-25.0	-25.4	15.9	0.00e+00	0	44	102	1048576	10	3791
2026-01-07 03:20:02.21	135.82	18.24	-24.8	-25.0	16.2	0.00e+00	0	44	102	1048576	10	3693
2026-01-07 03:20:03.23	136.00	18.15	-24.7	-24.8	16.2	0.00e+00	0	44	102	1048576	10	3642
2026-01-07 03:20:04.23	136.17	18.07	-24.6	-24.7	16.2	0.00e+00	0	44	102	1048576	10	3638
2026-01-07 03:20:05.24	136.34	17.98	-24.6	-24.7	16.3	0.00e+00	0	44	102	1048576	10	3617
2026-01-07 03:20:06.25	136.52	17.90	-24.6	-24.6	16.3	0.00e+00	0	44	102	1048576	10	3599
2026-01-07 03:20:07.25	136.69	17.82	-24.7	-24.8	16.2	0.00e+00	0	44	102	1048576	10	3645
2026-01-07 03:20:08.26	136.86	17.73	-24.5	-24.9	16.4	0.00e+00	0	44	102	1048576	9	3777
2026-01-07 03:20:09.27	137.03	17.65	-24.7	-25.4	16.1	0.00e+00	0	44	102	1048576	9	3884
2026-01-07 03:20:10.28	137.20	17.57	-24.5	-25.0	16.3	0.00e+00	0	44	102	1048576	9	3796
2026-01-07 03:20:11.28	137.37	17.48	-24.5	-25.0	16.3	0.00e+00	0	44	102	1048576	9	3806
2026-01-07 03:20:12.29	137.53	17.40	-24.6	-25.2	16.2	0.00e+00	0	44	102	1048576	9	3842
2026-01-07 03:20:13.30	137.70	17.32	-24.8	-25.7	15.9	0.00e+00	0	44	102	1048576	9	3963
2026-01-07 03:20:14.30	137.87	17.23	-25.0	-26.1	15.7	0.00e+00	0	44	102	1048576	9	4072
2026-01-07 03:20:15.31	138.03	17.15	-25.0	-26.1	15.7	0.00e+00	0	44	102	1048576	9	4074
2026-01-07 03:20:16.32	138.20	17.07	-25.1	-25.7	15.6	0.00e+00	0	44	102	1048576	10	3871
2026-01-07 03:20:17.32	138.36	16.99	-25.2	-26.0	15.5	0.00e+00	0	44	102	1048576	10	3950
2026-01-07 03:20:18.33	138.52	16.90	-25.3	-26.1	15.4	0.00e+00	0	44	102	1048576	10	3959
2026-01-07 03:20:19.34	138.68	16.82	-25.3	-26.2	15.4	1.10e-06	0	44	102	1048576	10	3980
2026-01-07 03:20:20.34	138.84	16.74	-25.3	-26.2	15.4	0.00e+00	0	44	102	1048576	10	3995
2026-01-07 03:20:21.35	139.00	16.65	-25.2	-26.0	15.5	0.00e+00	0	44	102	1048576	10	3936
2026-01-07 03:20:22.36	139.16	16.57	-25.1	-25.8	15.6	0.00e+00	0	44	102	1048576	10	3899
2026-01-07 03:20:23.37	139.32	16.49	-25.1	-25.7	15.6	0.00e+00	0	44	102	1048576	10	3877
2026-01-07 03:20:24.37	139.47	16.41	-25.0	-25.5	15.7	0.00e+00	0	44	102	1048576	10	3811
2026-01-07 03:20:25.38	139.63	16.32	-25.0	-25.5	15.7	0.00e+00	0	44	102	1048576	10	3828
2026-01-07 03:20:26.38	139.78	16.24	-25.0	-25.5	15.7	0.00e+00	0	44	102	1048576	10	3828
2026-01-07 03:20:27.39	139.94	16.16	-24.8	-25.2	15.9	0.00e+00	0	44	102	1048576	10	3745
2026-01-07 03:20:28.40	140.09	16.08	-24.8	-25.1	15.9	0.00e+00	0	44	102	1048576	10	3720
2026-01-07 03:20:29.40	140.24	16.00	-24.9	-25.3	15.8	0.00e+00	0	44	102	1048576	10	3763
2026-01-07 03:20:30.41	140.40	15.91	-24.9	-25.3	15.7	0.00e+00	0	44	102	1048576	10	3780
2026-01-07 03:20:31.42	140.55	15.83	-24.9	-25.3	15.7	0.00e+00	0	44	102	1048576	10	3768
2026-01-07 03:20:32.43	140.70	15.75	-25.0	-25.5	15.6	0.00e+00	0	44	102	1048576	10	3831
2026-01-07 03:20:33.43	140.85	15.67	-25.0	-25.5	15.6	0.00e+00	0	44	102	1048576	10	3823
2026-01-07 03:20:34.44	141.00	15.59	-25.1	-25.7	15.5	0.00e+00	0	44	102	1048576	10	3866
2026-01-07 03:20:35.45	141.15	15.51	-25.1	-25.8	15.4	0.00e+00	0	44	102	1048576	10	3896
2026-01-07 03:20:36.46	141.29	15.42	-25.3	-26.2	15.2	0.00e+00	0	44	102	1048576	10	3993
2026-01-07 03:20:37.46	141.44	15.34	-25.4	-26.5	15.0	0.00e+00	0	44	102	1048576	10	4056
2026-01-07 03:20:38.46	141.58	15.26	-25.3	-26.1	15.2	0.00e+00	0	44	102	1048576	10	3976
2026-01-07 03:20:39.47	141.73	15.18	-25.3	-26.1	15.2	0.00e+00	0	44	102	1048576	10	3968
2026-01-07 03:20:40.48	141.87	15.10	-25.3	-26.2	15.2	0.00e+00	0	44	102	1048576	10	3986
2026-01-07 03:20:41.48	142.02	15.02	-25.4	-26.5	15.0	0.00e+00	0	44	102	1048576	10	4066
2026-01-07 03:20:42.48	142.16	14.94	-25.4	-26.5	14.9	0.00e+00	0	44	102	1048576	10	4086
2026-01-07 03:20:43.49	142.30	14.86	-25.4	-26.4	15.0	0.00e+00	0	44	102	1048576	10	4040
2026-01-07 03:20:44.49	142.44	14.78	-25.4	-26.4	15.0	0.00e+00	0	44	102	1048576	10	4045
2026-01-07 03:20:45.49	142.58	14.70	-25.4	-26.4	15.0	0.00e+00	0	44	102	1048576	10	4045
2026-01-07 03:20:46.50	142.72	14.62	-25.3	-26.2	12.7	0.00e+00	0	44	102	1048576	10	3991
2026-01-07 03:20:47.51	142.86	14.54	-25.3	-26.3	14.9	0.00e+00	0	44	102	1048576	10	4012
2026-01-07 03:20:48.52	143.00	14.46	-25.4	-26.4	15.0	0.00e+00	0	44	102	1048576	10	4035
2026-01-07 03:20:49.53	143.14	14.38	-25.3	-26.2	15.1	0.00e+00	0	44	102	1048576	10	4004
2026-01-07 03:20:50.54	143.27	14.30	-25.2	-26.0	15.2	1.24e-03	0	44	102	1048576	10	3952
2026-01-07 03:20:51.55	143.41	14.22	-25.2	-26.1	15.2	0.00e+00	0	44	102	1048576	10	3969
2026-01-07 03:20:52.56	143.54	14.14	-25.2	-26.1	15.2	1.13e-03	0	44	102	1048576	10	3960
2026-01-07 03:20:53.57	143.68	14.06	-25.2	-26.0	15.2	0.00e+00	0	44	102	1048576	10	3945
2026-01-07 03:20:54.57	143.81	13.98	-25.2	-26.0	15.2	0.00e+00	0	44	102	1048576	10	3949
2026-01-07 03:20:55.58	143.95	13.90	-25.3	-26.2	15.1	1.22e-03	0	44	102	1048576	10	4002
2026-01-07 03:20:56.58	144.08	13.82	-25.3	-26.2	15.1	0.00e+00	0	44	102	1048576	10	3988
2026-01-07 03:20:57.59	144.21	13.74	-25.2	-25.9	15.3	0.00e+00	0	44	102	1048576	10	3925
2026-01-07 03:20:58.60	144.34	13.66	-25.2	-25.9	15.3	1.80e-04	0	44	102	1048576	10	3908
2026-01-07 03:20:59.61	144.47	13.58	-25.2	-25.9	15.3	1.26e-03	0	44	102	1048576	10	3926
2026-01-07 03:21:00.62	144.60	13.50	-25.3	-26.2	15.2	2.20e-06	0	44	102	1048576	10	3983
2026-01-07 03:21:01.62	144.73	13.43	-25.4	-26.4	15.0	1.33e-03	0	44	102	1048576	10	4036
2026-01-07 03:21:02.63	144.86	13.35	-25.4	-26.4	15.0	1.29e-03	0	44	102	1048576	10	4038
2026-01-07 03:21:03.64	144.99	13.27	-25.5	-26.6	14.9	0.00e+00	0	44	102	1048576	10	4102
2026-01-07 03:21:04.65	145.12	13.19	-25.5	-26.6	14.8	1.41e-03	0	44	102	1048576	10	4107
2026-01-07 03:21:05.66	145.24	13.11	-25.6	-26.9	14.7	1.56e-03	0	44	102	1048576	10	4164
2026-01-07 03:21:06.66	145.37	13.03	-25.7	-26.7	14.6	0.00e+00	0	44	102	1048576	11	4002
2026-01-07 03:21:07.67	145.49	12.96	-25.7	-26.5	14.6	1.63e-03	0	44	102	1048576	11	3962
2026-01-07 03:21:08.68	145.62	12.88	-25.6	-26.4	14.7	1.10e-06	0	44	102	1048576	11	3951
2026-01-07 03:21:09.68	145.74	12.80	-25.7	-26.7	14.5	2.86e-05	0	44	102	1048576	11	4012
2026-01-07 03:21:10.68	145.87	12.72	-25.7	-26.5	14.6	1.58e-03	0	44	102	1048576	11	3983
2026-01-07 03:21:11.69	145.99	12.65	-25.5	-26.3	14.7	0.00e+00	0	44	102	1048576	11	3918
2026-01-07 03:21:12.69	146.11	12.57	-25.5	-26.2	14.7	1.25e-05	0	44	102	1048576	11	3907
2026-01-07 03:21:13.70	146.23	12.49	-25.6	-26.3	14.7	0.00e+00	0	44	102	1048576	11	3932
2026-01-07 03:21:14.70	146.35	12.42	-25.7	-26.7	14.5	1.65e-03	0	44	102	1048576	11	4013
2026-01-07 03:21:15.71	146.47	12.34	-25.7	-26.6	14.5	1.10e-06	0	44	102	1048576	11	3994
2026-01-07 03:21:16.72	146.59	12.26	-25.6	-26.5	14.6	0.00e+00	0	44	102	1048576	11	3967
2026-01-07 03:21:17.73	146.71	12.19	-25.7	-26.7	14.5	1.60e-03	0	44	102	1048576	11	4031
2026-01-07 03:21:18.74	146.83	12.11	-25.7	-26.7	14.4	1.10e-06	0	44	102	1048576	11	4027
2026-01-07 03:21:19.75	146.95	12.03	-25.9	-27.0	14.3	1.10e-06	0	44	102	1048576	11	4111
2026-01-07 03:21:20.75	147.07	11.96	-25.8	-26.9	14.3	1.10e-06	0	44	102	1048576	11	4095
2026-01-07 03:21:21.75	147.18	11.88	-25.9	-27.1	14.2	1.10e-06	0	44	102	1048576	11	4136
2026-01-07 03:21:22.76	147.30	11.81	-26.0	-27.3	14.1	0.00e+00	0	44	102	1048576	11	4175
2026-01-07 03:21:23.76	147.41	11.73	-26.0	-27.3	14.1	0.00e+00	0	44	102	1048576	11	4184
2026-01-07 03:21:24.76	147.53	11.65	-26.1	-27.5	14.0	2.20e-06	0	44	102	1048576	11	4223
2026-01-07 03:21:25.78	147.64	11.58	-26.0	-26.7	14.1	2.20e-06	0	44	102	1048576	12	3930
2026-01-07 03:21:26.78	147.76	11.50	-26.0	-26.9	13.9	0.00e+00	0	44	102	1048576	12	3983
2026-01-07 03:21:27.79	147.87	11.43	-26.0	-26.7	14.0	1.10e-06	0	44	102	1048576	12	3930
2026-01-07 03:21:28.80	147.98	11.35	-26.0	-27.3	14.1	1.10e-06	0	44	102	1048576	11	4178
2026-01-07 03:21:29.80	148.09	11.28	-26.0	-27.3	14.1	2.20e-06	0	44	102	1048576	11	4177
2026-01-07 03:21:30.81	148.21	11.20	-26.0	-27.3	14.1	0.00e+00	0	44	102	1048576	11	4184
2026-01-07 03:21:31.81	148.32	11.13	-26.1	-27.0	13.9	2.20e-06	0	44	102	1048576	12	3993
2026-01-07 03:21:32.81	148.43	11.05	-26.4	-27.8	13.4	6.80e-06	0	44	102	1048576	12	4215
2026-01-07 03:21:33.81	148.54	10.98	-26.2	-27.3	13.7	6.80e-06	0	44	102	1048576	12	4079
2026-01-07 03:21:34.81	148.65	10.91	-26.2	-27.2	13.8	3.40e-06	0	44	102	1048576	12	4052
2026-01-07 03:21:35.81	148.75	10.83	-26.2	-27.2	13.7	6.80e-06	0	44	102	1048576	12	4068
2026-01-07 03:21:36.82	148.86	10.76	-26.3	-27.5	13.6	1.25e-05	0	44	102	1048576	12	4127
2026-01-07 03:21:37.83	148.97	10.69	-26.3	-27.5	13.6	8.00e-06	0	44	102	1048576	12	4139
2026-01-07 03:21:38.84	149.08	10.61	-26.4	-27.7	13.5	8.00e-06	0	44	102	1048576	12	4194
2026-01-07 03:21:39.84	149.18	10.54	-26.3	-27.4	13.6	9.10e-06	0	44	102	1048576	12	4114
2026-01-07 03:21:40.84	149.29	10.47	-26.0	-26.8	14.0	2.20e-06	0	44	102	1048576	12	3937
2026-01-07 03:21:41.85	149.40	10.39	-26.0	-27.2	14.1	0.00e+00	0	44	102	1048576	11	4157
2026-01-07 03:21:42.86	149.50	10.32	-26.1	-27.0	13.9	2.20e-06	0	44	102	1048576	12	3997
2026-01-07 03:21:43.86	149.61	10.25	-26.5	-27.9	13.3	8.00e-06	0	44	102	1048576	12	4249
2026-01-07 03:21:44.86	149.71	10.17	-26.3	-27.6	13.5	1.02e-05	0	44	102	1048576	12	4157
2026-01-07 03:21:45.87	149.81	10.10	-26.2	-27.4	13.6	9.10e-06	0	44	102	1048576	12	4110
2026-01-07 03:21:46.87	149.92	10.03	-26.2	-27.4	13.6	3.40e-06	0	44	102	1048576	12	4110
2026-01-07 03:21:47.87	150.02	9.96	-26.3	-27.6	13.5	1.25e-05	0	44	102	1048576	12	4175
2026-01-07 03:21:48.88	150.12	9.88	-26.5	-28.0	13.2	1.14e-05	0	44	102	1048576	12	4278
2026-01-07 03:21:49.89	150.22	9.81	-26.4	-27.9	13.3	1.71e-05	0	44	102	1048576	12	4256
2026-01-07 03:21:50.90	150.33	9.74	-26.4	-27.8	13.3	1.60e-05	0	44	102	1048576	12	4235
2026-01-07 03:21:51.90	150.43	9.67	-26.4	-27.8	13.2	2.74e-05	0	44	102	1048576	12	4236
2026-01-07 03:21:52.91	150.53	9.59	-26.4	-27.9	13.2	1.02e-05	0	44	102	1048576	12	4255
2026-01-07 03:21:53.92	150.63	9.52	-26.5	-28.1	13.1	2.40e-05	0	44	102	1048576	12	4320
2026-01-07 03:21:54.92	150.73	9.45	-26.5	-28.0	13.2	2.86e-05	0	44	102	1048576	12	4275
2026-01-07 03:21:55.93	150.83	9.38	-26.7	-28.0	12.9	3.31e-05	0	44	102	1048576	13	4172
2026-01-07 03:21:56.93	150.92	9.31	-26.9	-28.5	12.5	7.43e-05	0	44	102	1048576	13	4333
2026-01-07 03:21:57.94	151.02	9.24	-26.7	-28.0	12.7	5.72e-05	0	44	102	1048576	13	4200
2026-01-07 03:21:58.95	151.12	9.17	-26.5	-27.6	13.0	3.54e-05	0	44	102	1048576	13	4073
2026-01-07 03:21:59.95	151.22	9.10	-26.4	-27.9	13.2	2.28e-05	0	44	102	1048576	12	4258
2026-01-07 03:22:00.96	151.31	9.02	-26.4	-27.9	13.1	2.74e-05	0	44	102	1048576	12	4290
2026-01-07 03:22:01.97	151.41	8.95	-26.6	-28.4	12.8	2.40e-05	0	44	102	1048576	12	4419
2026-01-07 03:22:02.97	151.51	8.88	-26.5	-27.8	12.9	4.00e-05	0	44	102	1048576	13	4144
2026-01-07 03:22:03.98	151.60	8.81	-26.6	-27.9	12.8	5.37e-05	0	44	102	1048576	13	4168
2026-01-07 03:22:04.99	151.70	8.74	-26.5	-27.7	12.9	5.26e-05	0	44	102	1048576	13	4128
2026-01-07 03:22:05.99	151.79	8.67	-26.6	-27.9	12.8	3.66e-05	0	44	102	1048576	13	4169
2026-01-07 03:22:07.00	151.88	8.60	-26.6	-27.8	12.8	4.92e-05	0	44	102	1048576	13	4155
2026-01-07 03:22:08.01	151.98	8.53	-26.6	-27.9	12.8	7.43e-05	0	44	102	1048576	13	4164
2026-01-07 03:22:09.01	152.07	8.46	-26.9	-28.5	12.4	9.38e-05	0	44	102	1048576	13	4355
2026-01-07 03:22:10.02	152.16	8.39	-26.0	-27.4	12.1	1.02e-04	0	44	102	1048576	13	4257
2026-01-07 03:22:11.02	152.26	8.32	-26.5	-28.2	10.3	3.89e-05	0	44	102	1048576	12	4356
2026-01-07 03:22:12.03	152.35	8.25	-26.5	-28.1	12.9	3.08e-05	0	44	102	1048576	12	4332
2026-01-07 03:22:13.04	152.44	8.18	-26.5	-28.2	12.7	5.49e-05	0	44	102	1048576	12	4377
2026-01-07 03:22:14.05	152.53	8.12	-26.5	-28.2	12.9	2.30e-03	0	44	102	1048576	12	4367
2026-01-07 03:22:15.05	152.62	8.05	-26.6	-28.1	12.6	6.98e-05	0	44	102	1048576	13	4259
2026-01-07 03:22:16.05	152.71	7.98	-26.5	-28.2	12.8	2.31e-03	0	44	102	1048576	12	4400
2026-01-07 03:22:17.06	152.80	7.91	-26.5	-28.4	12.6	6.75e-05	0	44	102	1048576	12	4443
2026-01-07 03:22:18.07	152.89	7.84	-26.6	-28.5	12.5	7.20e-05	0	44	102	1048576	12	4486
2026-01-07 03:22:19.08	152.98	7.77	-26.5	-28.4	12.6	2.58e-03	0	44	102	1048576	12	4465
2026-01-07 03:22:20.08	153.07	7.70	-26.5	-28.4	12.6	9.72e-05	0	44	102	1048576	12	4466
2026-01-07 03:22:21.09	153.16	7.64	-26.6	-28.1	12.5	4.84e-04	0	44	102	1048576	13	4275
2026-01-07 03:22:22.10	153.25	7.57	-26.6	-28.1	12.5	2.34e-03	0	44	102	1048576	13	4250
2026-01-07 03:22:23.11	153.33	7.50	-26.8	-28.3	12.3	2.29e-03	0	44	102	1048576	13	4316
2026-01-07 03:22:24.12	153.42	7.43	-26.7	-28.2	12.4	5.89e-04	0	44	102	1048576	13	4278
2026-01-07 03:22:25.12	153.51	7.36	-26.9	-28.5	12.2	1.81e-04	0	44	102	1048576	13	4359
2026-01-07 03:22:26.13	153.59	7.30	-26.8	-28.3	12.4	2.53e-03	0	44	102	1048576	13	4293
2026-01-07 03:22:27.14	153.68	7.23	-26.7	-28.1	12.5	6.32e-04	0	44	102	1048576	13	4241
2026-01-07 03:22:28.15	153.77	7.16	-26.8	-28.3	12.4	2.22e-03	0	44	102	1048576	13	4300
2026-01-07 03:22:29.16	153.85	7.09	-27.4	-29.5	11.5	2.18e-03	0	44	102	1048576	14	4545
2026-01-07 03:22:30.17	153.94	7.03	-32.4	-42.2	3.8	8.46e-01	0	44	104	1048576	24	11142
2026-01-07 03:22:31.17	154.02	6.96	-33.0	-42.9	3.8	8.46e-01	0	44	104	1048576	25	11312
2026-01-07 03:22:32.18	154.10	6.89	-33.4	-43.1	3.8	8.45e-01	0	44	104	1048576	26	11071

#Closed at: 2026-01-07 03:22:32
#Recorded file [1 MB]: D:/data/31010_260107_061819.dat