passes_logs/2026/01/07/R2M6_AANII_01/R2M6_AANII_01__20260107_130522_FENGYUN_3E_rec.log

#Pass ID: 20260107_130522_FENGYUN 3E
#Satellite: FENGYUN 3E
#Configuration: FENGYUN 3E
#almurnet v.1.7.20240730
#Start time: 2026-01-07 13:10:24

#Version: 2.2.20231116
#Station: R2M6_AANII_01
#Location: 30.233357 lon 59.946436 lat
#TLE: 1 49008U 21062A   26006.26767912  .00000427  00000+0  22170-3 0  9993
#TLE: 2 49008  98.7475  11.4982 0001602 156.1158 204.0093 14.19885456233607

#Time	Az	El	Level	Level2	SNR	BER	BlckErr	Temp	State	Recorded	gain1	gain2
2026-01-07 13:10:24.43	56.94	30.18	-33.8	-45.1	3.8	8.46e-01	0	43	0	0	27	13234
2026-01-07 13:10:25.43	56.59	30.20	-34.1	-43.1	3.8	8.46e-01	0	44	104	0	29	10134
2026-01-07 13:10:26.44	56.25	30.22	-34.1	-43.1	3.8	8.46e-01	0	43	104	0	29	10145
2026-01-07 13:10:27.45	55.90	30.24	-34.1	-43.1	3.8	8.45e-01	0	44	104	0	29	10145
2026-01-07 13:10:28.45	55.56	30.25	-34.2	-43.2	3.8	8.47e-01	0	44	104	0	29	10204
2026-01-07 13:10:29.46	55.21	30.27	-34.2	-43.2	3.8	8.45e-01	0	44	104	0	29	10149
2026-01-07 13:10:30.46	54.86	30.28	-34.2	-43.2	3.8	8.46e-01	0	43	104	0	29	10153
2026-01-07 13:10:31.47	54.52	30.30	-34.2	-43.2	3.8	8.46e-01	0	44	104	0	29	10171
2026-01-07 13:10:32.47	54.17	30.31	-34.2	-43.1	3.8	8.47e-01	0	44	104	0	29	10137
2026-01-07 13:10:33.48	53.82	30.32	-34.2	-43.2	3.8	8.46e-01	0	44	104	0	29	10154
2026-01-07 13:10:34.48	53.48	30.33	-34.1	-43.1	3.8	8.47e-01	0	44	104	0	29	10125
2026-01-07 13:10:35.49	53.13	30.34	-34.1	-43.1	3.8	8.46e-01	0	44	104	0	29	10120
2026-01-07 13:10:36.50	52.78	30.34	-34.2	-43.1	3.8	8.44e-01	0	43	104	0	29	10079
2026-01-07 13:10:37.50	52.43	30.35	-34.1	-43.1	3.8	8.46e-01	0	44	104	0	29	10118
2026-01-07 13:10:38.51	52.08	30.35	-34.1	-43.2	3.8	8.45e-01	0	44	104	0	29	10185
2026-01-07 13:10:39.52	51.73	30.36	-34.2	-43.3	3.8	8.47e-01	0	44	104	0	29	10235
2026-01-07 13:10:40.52	51.38	30.36	-34.2	-43.3	3.8	8.46e-01	0	44	104	0	29	10265
2026-01-07 13:10:41.53	51.03	30.36	-34.2	-43.3	3.8	8.45e-01	0	44	104	0	29	10204
2026-01-07 13:10:42.53	50.69	30.36	-34.2	-43.3	3.8	8.46e-01	0	44	104	0	29	10212
2026-01-07 13:10:43.54	50.34	30.36	-34.4	-43.7	3.8	8.47e-01	0	44	104	0	29	10496
2026-01-07 13:10:44.55	49.99	30.36	-34.3	-43.5	3.8	8.47e-01	0	44	104	0	29	10371
2026-01-07 13:10:45.56	49.64	30.36	-34.3	-43.4	3.8	8.46e-01	0	44	104	0	29	10329
2026-01-07 13:10:46.56	49.29	30.35	-34.2	-43.3	3.8	8.46e-01	0	44	104	0	29	10194
2026-01-07 13:10:47.56	48.95	30.34	-34.2	-43.2	3.8	8.45e-01	0	44	104	0	29	10151
2026-01-07 13:10:48.58	48.59	30.34	-34.2	-43.1	3.8	8.48e-01	0	44	104	0	29	10083
2026-01-07 13:10:49.59	48.24	30.33	-34.2	-43.1	3.8	8.46e-01	0	44	104	0	29	10136
2026-01-07 13:10:50.59	47.90	30.32	-34.1	-42.9	3.8	8.46e-01	0	44	104	0	29	9961
2026-01-07 13:10:51.60	47.55	30.31	-34.0	-42.5	3.8	8.45e-01	0	44	104	0	29	9575
2026-01-07 13:10:52.60	47.21	30.30	-33.9	-42.3	3.8	8.46e-01	0	44	104	0	29	9416
2026-01-07 13:10:53.61	46.86	30.29	-33.9	-42.4	3.8	8.46e-01	0	44	104	0	29	9551
2026-01-07 13:10:54.62	46.51	30.27	-33.9	-42.6	3.8	8.45e-01	0	44	104	0	29	9699
2026-01-07 13:10:55.63	46.16	30.26	-33.9	-42.6	3.8	8.46e-01	0	44	104	0	29	9731
2026-01-07 13:10:56.63	45.82	30.24	-33.9	-42.5	3.8	8.46e-01	0	44	104	0	29	9669
2026-01-07 13:10:57.64	45.47	30.22	-33.9	-42.2	3.8	8.46e-01	0	44	104	0	29	9386
2026-01-07 13:10:58.65	45.12	30.20	-33.9	-42.6	3.8	8.47e-01	0	44	104	0	28	9839
2026-01-07 13:10:59.65	44.78	30.18	-33.9	-42.8	3.8	8.46e-01	0	44	104	0	28	10028
2026-01-07 13:11:00.66	44.44	30.16	-33.9	-43.0	3.8	8.46e-01	0	44	104	0	28	10268
2026-01-07 13:11:01.65	44.10	30.14	-33.9	-43.1	3.8	8.46e-01	0	44	104	0	28	10304
2026-01-07 13:11:02.66	43.75	30.12	-33.9	-43.2	3.8	8.46e-01	0	44	104	0	28	10422
2026-01-07 13:11:03.66	43.41	30.09	-33.9	-43.2	3.8	8.45e-01	0	44	104	0	28	10399
2026-01-07 13:11:04.67	43.07	30.07	-33.9	-42.7	3.8	8.45e-01	0	44	104	0	28	9930
2026-01-07 13:11:05.67	42.73	30.04	-33.8	-42.0	3.8	8.46e-01	0	44	104	0	28	9289
2026-01-07 13:11:06.68	42.39	30.01	-33.7	-41.7	3.8	8.45e-01	0	44	104	0	28	8947
2026-01-07 13:11:07.69	42.04	29.98	-33.8	-41.7	3.8	8.46e-01	0	44	104	0	28	9023
2026-01-07 13:11:08.70	41.70	29.95	-33.8	-42.2	3.8	8.47e-01	0	44	104	0	28	9490
2026-01-07 13:11:09.70	41.37	29.92	-33.9	-42.7	3.8	8.45e-01	0	44	104	0	28	9899
2026-01-07 13:11:10.71	41.03	29.89	-33.9	-42.6	3.8	8.46e-01	0	44	104	0	28	9874
2026-01-07 13:11:11.72	40.69	29.86	-33.9	-42.7	3.8	8.46e-01	0	44	104	0	28	9957
2026-01-07 13:11:12.73	40.35	29.82	-33.9	-42.6	3.8	8.45e-01	0	44	104	0	28	9784
2026-01-07 13:11:13.73	40.01	29.79	-33.6	-40.8	3.8	8.45e-01	0	44	104	0	28	8225
2026-01-07 13:11:14.73	39.68	29.75	-33.2	-38.4	4.6	8.40e-01	0	44	104	0	27	6564
2026-01-07 13:11:15.74	39.34	29.71	-32.7	-36.9	5.4	7.35e-01	0	44	0	0	26	5846
2026-01-07 13:11:16.75	39.01	29.67	-32.0	-35.0	6.7	2.89e-01	0	44	102	1048576	25	5046
2026-01-07 13:11:17.76	38.67	29.63	-30.4	-31.7	9.8	1.85e-02	0	44	102	1048576	22	4195
2026-01-07 13:11:18.76	38.34	29.59	-28.3	-29.1	13.0	1.97e-04	0	44	102	1048576	17	3960
2026-01-07 13:11:19.77	38.01	29.55	-27.5	-27.7	14.2	2.20e-06	0	44	102	1048576	16	3699
2026-01-07 13:11:20.77	37.68	29.51	-28.0	-28.8	13.5	9.10e-06	0	44	102	1048576	16	3979
2026-01-07 13:11:21.78	37.35	29.47	-27.9	-28.8	13.5	1.71e-05	0	44	102	1048576	16	3972
2026-01-07 13:11:22.78	37.02	29.42	-27.5	-27.8	14.0	1.10e-06	0	44	102	1048576	16	3735
2026-01-07 13:11:23.79	36.70	29.38	-27.1	-27.4	14.4	1.10e-06	0	44	102	1048576	15	3724
2026-01-07 13:11:24.80	36.37	29.33	-26.7	-27.1	14.9	0.00e+00	0	44	102	1048576	14	3743
2026-01-07 13:11:25.81	36.04	29.28	-26.8	-27.4	14.7	0.00e+00	0	44	102	1048576	14	3822
2026-01-07 13:11:26.81	35.72	29.23	-27.5	-28.9	13.8	0.00e+00	0	44	102	1048576	14	4212
2026-01-07 13:11:27.82	35.39	29.18	-27.1	-27.5	14.4	1.10e-06	0	44	102	1048576	15	3747
2026-01-07 13:11:28.82	35.07	29.13	-26.2	-26.5	15.4	0.00e+00	0	44	102	1048576	13	3724
2026-01-07 13:11:29.83	34.75	29.08	-25.5	-25.5	16.2	0.00e+00	0	44	102	1048576	12	3592
2026-01-07 13:11:30.84	34.43	29.03	-25.0	-24.8	16.9	0.00e+00	0	44	102	1048576	11	3538
2026-01-07 13:11:31.84	34.11	28.98	-24.5	-24.2	17.5	0.00e+00	0	44	102	1048576	10	3498
2026-01-07 13:11:32.84	33.79	28.92	-24.0	-23.9	17.9	0.00e+00	0	44	102	1048576	9	3520
2026-01-07 13:11:33.85	33.47	28.87	-23.8	-23.8	18.2	0.00e+00	0	44	102	1048576	8	3618
2026-01-07 13:11:34.86	33.15	28.81	-23.7	-23.6	18.3	0.00e+00	0	44	102	1048576	8	3562
2026-01-07 13:11:35.87	32.84	28.75	-23.7	-23.6	18.3	0.00e+00	0	44	102	1048576	8	3571
2026-01-07 13:11:36.88	32.52	28.70	-23.8	-23.7	18.2	0.00e+00	0	44	102	1048576	8	3597
2026-01-07 13:11:37.88	32.21	28.64	-23.6	-23.4	18.4	0.00e+00	0	44	102	1048576	8	3516
2026-01-07 13:11:38.89	31.90	28.58	-23.4	-23.1	18.5	0.00e+00	0	44	102	1048576	8	3450
2026-01-07 13:11:39.90	31.59	28.52	-23.5	-23.2	18.5	0.00e+00	0	44	102	1048576	8	3477
2026-01-07 13:11:40.91	31.27	28.46	-23.5	-23.2	18.5	0.00e+00	0	44	102	1048576	8	3487
2026-01-07 13:11:41.91	30.97	28.40	-23.6	-23.4	18.4	0.00e+00	0	44	102	1048576	8	3525
2026-01-07 13:11:42.92	30.66	28.33	-23.9	-23.9	18.1	0.00e+00	0	44	102	1048576	8	3641
2026-01-07 13:11:43.93	30.35	28.27	-23.9	-24.1	18.0	0.00e+00	0	44	102	1048576	8	3668
2026-01-07 13:11:44.94	30.05	28.21	-23.9	-24.2	18.0	0.00e+00	0	44	102	1048576	8	3686
2026-01-07 13:11:45.94	29.74	28.14	-24.0	-24.2	17.9	0.00e+00	0	44	102	1048576	8	3702
2026-01-07 13:11:46.95	29.44	28.08	-23.9	-24.1	18.0	0.00e+00	0	44	102	1048576	8	3663
2026-01-07 13:11:47.96	29.14	28.01	-23.9	-24.0	18.0	0.00e+00	0	44	102	1048576	8	3659
2026-01-07 13:11:48.96	28.84	27.94	-24.1	-24.4	17.8	0.00e+00	0	44	102	1048576	8	3743
2026-01-07 13:11:49.97	28.54	27.88	-24.0	-24.2	17.9	0.00e+00	0	44	102	1048576	8	3705
2026-01-07 13:11:50.98	28.24	27.81	-24.4	-25.0	17.5	0.00e+00	0	44	102	1048576	8	3889
2026-01-07 13:11:51.98	27.95	27.74	-24.0	-24.3	17.9	0.00e+00	0	44	102	1048576	8	3729
2026-01-07 13:11:52.99	27.65	27.67	-23.8	-23.8	18.1	0.00e+00	0	44	102	1048576	8	3616
2026-01-07 13:11:54.00	27.36	27.60	-23.6	-23.5	18.3	0.00e+00	0	44	102	1048576	8	3541
2026-01-07 13:11:55.00	27.07	27.53	-23.6	-23.4	18.3	0.00e+00	0	44	102	1048576	8	3528
2026-01-07 13:11:56.01	26.78	27.46	-23.6	-23.4	18.3	0.00e+00	0	44	102	1048576	8	3533
2026-01-07 13:11:57.01	26.49	27.38	-23.5	-23.2	18.4	0.00e+00	0	44	102	1048576	8	3490
2026-01-07 13:11:58.02	26.20	27.31	-23.5	-23.2	18.4	0.00e+00	0	44	102	1048576	8	3489
2026-01-07 13:11:59.03	25.91	27.24	-23.6	-23.4	18.3	0.00e+00	0	44	102	1048576	8	3533
2026-01-07 13:12:00.04	25.63	27.16	-23.5	-23.3	18.4	0.00e+00	0	44	102	1048576	8	3501
2026-01-07 13:12:01.05	25.34	27.09	-23.6	-23.5	18.3	0.00e+00	0	44	102	1048576	8	3542
2026-01-07 13:12:02.05	25.06	27.01	-23.5	-23.3	18.4	0.00e+00	0	44	102	1048576	8	3503
2026-01-07 13:12:03.06	24.78	26.94	-23.6	-23.5	18.3	0.00e+00	0	44	102	1048576	8	3548
2026-01-07 13:12:04.07	24.50	26.86	-23.6	-23.4	18.3	0.00e+00	0	44	102	1048576	8	3521
2026-01-07 13:12:05.08	24.22	26.78	-23.7	-23.6	18.0	0.00e+00	0	44	102	1048576	8	3578
2026-01-07 13:12:06.08	23.94	26.71	-23.7	-23.6	18.2	0.00e+00	0	44	102	1048576	8	3561
2026-01-07 13:12:07.09	23.66	26.63	-23.7	-23.6	18.2	0.00e+00	0	44	102	1048576	8	3572
2026-01-07 13:12:08.10	23.39	26.55	-23.6	-23.4	18.4	0.00e+00	0	44	102	1048576	8	3519
2026-01-07 13:12:09.11	23.11	26.47	-23.6	-23.3	18.3	0.00e+00	0	44	102	1048576	8	3508
2026-01-07 13:12:10.12	22.84	26.39	-23.7	-23.6	18.3	0.00e+00	0	44	102	1048576	8	3556
2026-01-07 13:12:11.12	22.57	26.31	-23.9	-24.2	17.9	0.00e+00	0	44	102	1048576	8	3686
2026-01-07 13:12:12.13	22.30	26.23	-23.9	-24.1	18.0	0.00e+00	0	44	102	1048576	8	3680
2026-01-07 13:12:13.14	22.03	26.15	-24.1	-24.4	17.8	0.00e+00	0	44	102	1048576	8	3755
2026-01-07 13:12:14.15	21.77	26.07	-24.1	-24.5	17.7	0.00e+00	0	44	102	1048576	8	3765
2026-01-07 13:12:15.15	21.50	25.99	-24.2	-24.7	17.6	0.00e+00	0	44	102	1048576	8	3824
2026-01-07 13:12:16.15	21.24	25.91	-24.2	-24.7	17.6	0.00e+00	0	44	102	1048576	8	3820
2026-01-07 13:12:17.16	20.98	25.82	-24.3	-24.8	17.6	0.00e+00	0	44	102	1048576	8	3835
2026-01-07 13:12:18.17	20.72	25.74	-24.2	-24.6	17.7	0.00e+00	0	44	102	1048576	8	3791
2026-01-07 13:12:19.18	20.46	25.66	-24.4	-25.1	17.4	0.00e+00	0	44	102	1048576	8	3906
2026-01-07 13:12:20.19	20.20	25.57	-23.9	-24.2	17.9	0.00e+00	0	44	102	1048576	8	3686
2026-01-07 13:12:21.19	19.94	25.49	-23.7	-23.6	18.2	0.00e+00	0	44	102	1048576	8	3558
2026-01-07 13:12:22.20	19.69	25.40	-23.5	-23.2	18.4	0.00e+00	0	44	102	1048576	8	3491
2026-01-07 13:12:23.20	19.43	25.32	-23.5	-23.1	18.4	0.00e+00	0	44	102	1048576	8	3470
2026-01-07 13:12:24.21	19.18	25.24	-23.5	-23.1	18.4	0.00e+00	0	44	102	1048576	8	3461
2026-01-07 13:12:25.21	18.93	25.15	-23.6	-23.3	18.3	0.00e+00	0	44	102	1048576	8	3508
2026-01-07 13:12:26.21	18.68	25.07	-23.5	-23.2	18.4	0.00e+00	0	44	102	1048576	8	3484
2026-01-07 13:12:27.22	18.43	24.98	-23.6	-23.4	18.3	0.00e+00	0	44	102	1048576	8	3519
2026-01-07 13:12:28.22	18.19	24.89	-23.7	-23.6	18.2	0.00e+00	0	44	102	1048576	8	3573
2026-01-07 13:12:29.23	17.94	24.81	-23.6	-23.5	18.3	0.00e+00	0	44	102	1048576	8	3538
2026-01-07 13:12:30.24	17.69	24.72	-23.6	-23.5	18.2	0.00e+00	0	44	102	1048576	8	3546
2026-01-07 13:12:31.24	17.45	24.63	-23.7	-23.6	18.2	0.00e+00	0	44	102	1048576	8	3561
2026-01-07 13:12:32.25	17.21	24.54	-23.6	-23.4	18.3	0.00e+00	0	44	102	1048576	8	3518
2026-01-07 13:12:33.26	16.97	24.46	-23.5	-23.2	18.4	0.00e+00	0	44	102	1048576	8	3477
2026-01-07 13:12:34.26	16.73	24.37	-23.5	-23.2	18.4	0.00e+00	0	44	102	1048576	8	3481
2026-01-07 13:12:35.27	16.49	24.28	-23.4	-23.1	18.4	0.00e+00	0	44	102	1048576	8	3457
2026-01-07 13:12:36.28	16.26	24.19	-23.4	-23.5	18.4	0.00e+00	0	44	102	1048576	7	3645
2026-01-07 13:12:37.29	16.02	24.10	-23.6	-23.8	18.3	0.00e+00	0	44	102	1048576	7	3720
2026-01-07 13:12:38.29	15.79	24.01	-23.5	-23.8	18.3	0.00e+00	0	44	102	1048576	7	3711
2026-01-07 13:12:39.30	15.56	23.93	-23.7	-24.1	18.1	0.00e+00	0	44	102	1048576	7	3786
2026-01-07 13:12:40.31	15.32	23.84	-23.7	-24.2	18.1	0.00e+00	0	44	102	1048576	7	3803
2026-01-07 13:12:41.32	15.09	23.75	-23.9	-24.6	17.8	0.00e+00	0	44	102	1048576	7	3910
2026-01-07 13:12:42.32	14.87	23.66	-23.9	-24.6	17.9	0.00e+00	0	44	102	1048576	7	3890
2026-01-07 13:12:43.33	14.64	23.57	-23.8	-24.3	18.0	0.00e+00	0	44	102	1048576	7	3816
2026-01-07 13:12:44.34	14.41	23.48	-23.7	-24.2	18.0	0.00e+00	0	44	102	1048576	7	3809
2026-01-07 13:12:45.34	14.19	23.39	-23.8	-24.2	18.0	0.00e+00	0	44	102	1048576	7	3812
2026-01-07 13:12:46.35	13.97	23.30	-23.7	-24.1	18.1	0.00e+00	0	44	102	1048576	7	3765
2026-01-07 13:12:47.36	13.75	23.20	-23.7	-24.2	18.0	0.00e+00	0	44	102	1048576	7	3798
2026-01-07 13:12:48.36	13.53	23.11	-23.9	-24.5	17.9	0.00e+00	0	44	102	1048576	7	3878
2026-01-07 13:12:49.37	13.31	23.02	-23.9	-24.6	17.8	0.00e+00	0	44	102	1048576	7	3896
2026-01-07 13:12:50.37	13.09	22.93	-24.0	-24.7	17.7	0.00e+00	0	44	102	1048576	7	3926
2026-01-07 13:12:51.38	12.87	22.84	-24.0	-24.8	17.7	0.00e+00	0	44	102	1048576	7	3939
2026-01-07 13:12:52.39	12.66	22.75	-24.0	-24.8	17.7	0.00e+00	0	44	102	1048576	7	3953
2026-01-07 13:12:53.40	12.44	22.66	-24.1	-24.6	17.6	0.00e+00	0	44	102	1048576	8	3787
2026-01-07 13:12:54.41	12.23	22.57	-24.2	-24.7	17.6	0.00e+00	0	44	102	1048576	8	3816
2026-01-07 13:12:55.41	12.02	22.48	-24.2	-24.7	17.6	0.00e+00	0	44	102	1048576	8	3803
2026-01-07 13:12:56.42	11.81	22.38	-24.0	-24.3	17.7	0.00e+00	0	44	102	1048576	8	3723
2026-01-07 13:12:57.43	11.60	22.29	-24.0	-24.2	17.8	0.00e+00	0	44	102	1048576	8	3704
2026-01-07 13:12:58.43	11.39	22.20	-24.1	-24.4	17.7	0.00e+00	0	44	102	1048576	8	3742
2026-01-07 13:12:59.44	11.19	22.11	-24.2	-24.6	17.6	0.00e+00	0	44	102	1048576	8	3797
2026-01-07 13:13:00.45	10.98	22.02	-24.2	-24.7	17.5	0.00e+00	0	44	102	1048576	8	3815
2026-01-07 13:13:01.46	10.77	21.92	-24.0	-24.2	17.8	0.00e+00	0	44	102	1048576	8	3692
2026-01-07 13:13:02.47	10.57	21.83	-23.9	-24.0	17.9	0.00e+00	0	44	102	1048576	8	3649
2026-01-07 13:13:03.48	10.37	21.74	-23.9	-24.0	17.9	0.00e+00	0	44	102	1048576	8	3662
2026-01-07 13:13:04.49	10.17	21.65	-23.9	-24.1	17.8	0.00e+00	0	44	102	1048576	8	3687
2026-01-07 13:13:05.50	9.97	21.56	-23.9	-24.1	17.8	0.00e+00	0	44	102	1048576	8	3686
2026-01-07 13:13:06.51	9.77	21.46	-24.0	-24.3	17.7	0.00e+00	0	44	102	1048576	8	3732
2026-01-07 13:13:07.51	9.58	21.37	-24.1	-24.5	17.6	0.00e+00	0	44	102	1048576	8	3770
2026-01-07 13:13:08.52	9.38	21.28	-24.0	-24.4	17.6	0.00e+00	0	44	102	1048576	8	3745
2026-01-07 13:13:09.53	9.18	21.19	-24.1	-24.5	17.6	0.00e+00	0	44	102	1048576	8	3781
2026-01-07 13:13:10.53	8.99	21.09	-24.1	-24.5	17.6	0.00e+00	0	44	102	1048576	8	3765
2026-01-07 13:13:11.54	8.80	21.00	-24.2	-24.6	17.5	0.00e+00	0	44	102	1048576	8	3800
2026-01-07 13:13:12.54	8.61	20.91	-24.2	-24.8	17.5	0.00e+00	0	44	102	1048576	8	3828
2026-01-07 13:13:13.56	8.42	20.82	-24.2	-24.7	17.4	0.00e+00	0	44	102	1048576	8	3820
2026-01-07 13:13:14.56	8.23	20.73	-24.2	-24.7	17.5	0.00e+00	0	44	102	1048576	8	3808
2026-01-07 13:13:15.56	8.04	20.63	-24.3	-24.9	17.3	0.00e+00	0	44	102	1048576	8	3863
2026-01-07 13:13:16.57	7.86	20.54	-24.3	-24.9	17.3	0.00e+00	0	44	102	1048576	8	3867
2026-01-07 13:13:17.58	7.67	20.45	-24.3	-24.8	17.4	0.00e+00	0	44	102	1048576	8	3841
2026-01-07 13:13:18.59	7.49	20.36	-24.3	-25.0	17.3	0.00e+00	0	44	102	1048576	8	3872
2026-01-07 13:13:19.59	7.31	20.27	-24.3	-24.9	17.3	0.00e+00	0	44	102	1048576	8	3868
2026-01-07 13:13:20.60	7.12	20.17	-24.4	-25.1	17.2	0.00e+00	0	44	102	1048576	8	3922
2026-01-07 13:13:21.61	6.94	20.08	-24.3	-25.0	17.3	0.00e+00	0	44	102	1048576	8	3881
2026-01-07 13:13:22.61	6.76	19.99	-24.1	-24.6	17.5	0.00e+00	0	44	102	1048576	8	3789
2026-01-07 13:13:23.62	6.59	19.90	-24.1	-24.4	17.6	0.00e+00	0	44	102	1048576	8	3752
2026-01-07 13:13:24.63	6.41	19.80	-24.0	-24.3	17.6	0.00e+00	0	44	102	1048576	8	3731
2026-01-07 13:13:25.64	6.23	19.71	-24.0	-24.4	17.6	0.00e+00	0	44	102	1048576	8	3740
2026-01-07 13:13:26.64	6.06	19.62	-24.0	-24.4	17.6	0.00e+00	0	44	102	1048576	8	3741
2026-01-07 13:13:27.65	5.88	19.53	-24.1	-24.4	17.6	0.00e+00	0	44	102	1048576	8	3743
2026-01-07 13:13:28.65	5.71	19.44	-24.1	-24.5	17.5	0.00e+00	0	44	102	1048576	8	3760
2026-01-07 13:13:29.66	5.54	19.35	-24.2	-24.7	17.5	0.00e+00	0	44	102	1048576	8	3811
2026-01-07 13:13:30.66	5.37	19.25	-24.2	-24.8	17.4	0.00e+00	0	44	102	1048576	8	3842
2026-01-07 13:13:31.67	5.20	19.16	-24.3	-24.9	17.3	0.00e+00	0	44	102	1048576	8	3873
2026-01-07 13:13:32.68	5.03	19.07	-24.4	-25.2	17.2	0.00e+00	0	44	102	1048576	8	3925
2026-01-07 13:13:33.68	4.86	18.98	-24.4	-25.1	17.1	0.00e+00	0	44	102	1048576	8	3910
2026-01-07 13:13:34.69	4.69	18.89	-24.4	-25.2	17.2	0.00e+00	0	44	102	1048576	8	3926
2026-01-07 13:13:35.70	4.53	18.80	-24.4	-25.1	17.1	0.00e+00	0	44	102	1048576	8	3914
2026-01-07 13:13:36.71	4.36	18.71	-24.6	-25.5	17.0	0.00e+00	0	44	102	1048576	8	4011
2026-01-07 13:13:37.72	4.20	18.61	-24.5	-24.9	17.0	0.00e+00	0	44	102	1048576	9	3770
2026-01-07 13:13:38.72	4.04	18.52	-24.4	-24.7	17.1	0.00e+00	0	44	102	1048576	9	3719
2026-01-07 13:13:39.73	3.87	18.43	-24.6	-25.1	16.9	0.00e+00	0	44	102	1048576	9	3799
2026-01-07 13:13:40.74	3.71	18.34	-24.8	-25.4	16.7	0.00e+00	0	44	102	1048576	9	3882
2026-01-07 13:13:41.75	3.55	18.25	-24.9	-25.6	16.6	0.00e+00	0	44	102	1048576	9	3919
2026-01-07 13:13:42.75	3.40	18.16	-24.9	-25.7	16.6	0.00e+00	0	44	102	1048576	9	3939
2026-01-07 13:13:43.76	3.24	18.07	-24.9	-25.7	16.6	0.00e+00	0	44	102	1048576	9	3954
2026-01-07 13:13:44.76	3.08	17.98	-24.9	-25.8	16.5	0.00e+00	0	44	102	1048576	9	3966
2026-01-07 13:13:45.77	2.92	17.89	-25.1	-26.1	16.4	0.00e+00	0	44	102	1048576	9	4032
2026-01-07 13:13:46.78	2.77	17.80	-25.0	-25.4	16.5	0.00e+00	0	44	102	1048576	10	3759
2026-01-07 13:13:47.79	2.61	17.71	-25.1	-25.7	16.4	0.00e+00	0	44	102	1048576	10	3838
2026-01-07 13:13:48.79	2.46	17.62	-25.1	-25.5	16.4	0.00e+00	0	44	102	1048576	10	3797
2026-01-07 13:13:49.80	2.31	17.53	-24.9	-25.3	16.6	0.00e+00	0	44	102	1048576	10	3743
2026-01-07 13:13:50.81	2.16	17.44	-25.0	-25.5	16.4	0.00e+00	0	44	102	1048576	10	3790
2026-01-07 13:13:51.81	2.01	17.35	-25.1	-25.7	16.3	0.00e+00	0	44	102	1048576	10	3845
2026-01-07 13:13:52.82	1.86	17.26	-25.2	-25.9	16.2	0.00e+00	0	44	102	1048576	10	3881
2026-01-07 13:13:53.82	1.71	17.17	-25.4	-26.3	16.0	0.00e+00	0	44	102	1048576	10	3993
2026-01-07 13:13:54.83	1.56	17.08	-25.4	-26.3	16.0	0.00e+00	0	44	102	1048576	10	3989
2026-01-07 13:13:55.83	1.42	17.00	-25.5	-26.5	15.9	0.00e+00	0	44	102	1048576	10	4053
2026-01-07 13:13:56.84	1.27	16.91	-25.4	-26.3	15.9	0.00e+00	0	44	102	1048576	10	3988
2026-01-07 13:13:57.85	1.13	16.82	-25.3	-26.1	16.1	0.00e+00	0	44	102	1048576	10	3930
2026-01-07 13:13:58.86	0.98	16.73	-25.3	-26.0	16.1	0.00e+00	0	44	102	1048576	10	3913
2026-01-07 13:13:59.87	0.84	16.64	-25.3	-26.1	16.0	0.00e+00	0	44	102	1048576	10	3939
2026-01-07 13:14:00.87	0.70	16.55	-25.2	-25.9	16.2	0.00e+00	0	44	102	1048576	10	3888
2026-01-07 13:14:01.88	0.55	16.46	-25.3	-26.0	16.1	0.00e+00	0	44	102	1048576	10	3914
2026-01-07 13:14:02.88	0.41	16.38	-25.0	-25.4	16.4	0.00e+00	0	44	102	1048576	10	3774
2026-01-07 13:14:03.89	0.27	16.29	-24.9	-25.2	16.5	0.00e+00	0	44	102	1048576	10	3735
2026-01-07 13:14:04.90	0.13	16.20	-25.0	-25.4	16.4	0.00e+00	0	44	102	1048576	10	3761
2026-01-07 13:14:05.91	360.00	16.11	-25.1	-25.6	16.3	0.00e+00	0	44	102	1048576	10	3828
2026-01-07 13:14:06.91	359.86	16.02	-25.0	-25.5	16.4	0.00e+00	0	44	102	1048576	10	3783
2026-01-07 13:14:07.92	359.72	15.94	-25.0	-25.5	16.4	0.00e+00	0	44	102	1048576	10	3790
2026-01-07 13:14:08.93	359.59	15.85	-25.2	-25.8	16.2	0.00e+00	0	44	102	1048576	10	3871
2026-01-07 13:14:09.93	359.45	15.76	-25.2	-25.8	16.2	0.00e+00	0	44	102	1048576	10	3864
2026-01-07 13:14:10.94	359.32	15.68	-25.4	-26.2	15.9	0.00e+00	0	44	102	1048576	10	3974
2026-01-07 13:14:11.94	359.18	15.59	-25.4	-26.3	15.9	0.00e+00	0	44	102	1048576	10	3999
2026-01-07 13:14:12.95	359.05	15.50	-25.6	-26.6	15.7	0.00e+00	0	44	102	1048576	10	4069
2026-01-07 13:14:13.96	358.92	15.42	-25.6	-26.2	15.7	0.00e+00	0	44	102	1048576	11	3868
2026-01-07 13:14:14.97	358.79	15.33	-25.6	-26.3	15.6	0.00e+00	0	44	102	1048576	11	3884
2026-01-07 13:14:15.98	358.66	15.24	-25.8	-26.6	15.4	0.00e+00	0	44	102	1048576	11	3966
2026-01-07 13:14:16.99	358.53	15.16	-25.8	-26.6	15.4	0.00e+00	0	44	102	1048576	11	3959
2026-01-07 13:14:18.00	358.40	15.07	-25.8	-26.7	15.4	0.00e+00	0	44	102	1048576	11	3991
2026-01-07 13:14:19.01	358.27	14.98	-25.9	-27.0	15.2	0.00e+00	0	44	102	1048576	11	4053
2026-01-07 13:14:20.01	358.14	14.90	-25.7	-26.4	15.5	0.00e+00	0	44	102	1048576	11	3921
2026-01-07 13:14:21.01	358.02	14.81	-25.6	-26.1	15.7	0.00e+00	0	44	102	1048576	11	3851
2026-01-07 13:14:22.02	357.89	14.73	-25.6	-26.2	15.7	0.00e+00	0	44	102	1048576	11	3852
2026-01-07 13:14:23.03	357.77	14.64	-25.4	-25.9	15.8	0.00e+00	0	44	102	1048576	11	3792
2026-01-07 13:14:24.04	357.64	14.56	-25.3	-25.7	15.9	0.00e+00	0	44	102	1048576	11	3736
2026-01-07 13:14:25.04	357.52	14.47	-25.4	-25.8	15.8	0.00e+00	0	44	102	1048576	11	3778
2026-01-07 13:14:26.05	357.40	14.39	-25.6	-26.1	15.6	0.00e+00	0	44	102	1048576	11	3843
2026-01-07 13:14:27.06	357.27	14.30	-25.7	-26.5	15.4	0.00e+00	0	44	102	1048576	11	3936
2026-01-07 13:14:28.06	357.15	14.22	-25.6	-26.3	15.5	0.00e+00	0	44	102	1048576	11	3874
2026-01-07 13:14:29.07	357.03	14.14	-25.7	-26.3	15.5	0.00e+00	0	44	102	1048576	11	3892
2026-01-07 13:14:30.08	356.91	14.05	-25.8	-26.6	15.4	0.00e+00	0	44	102	1048576	11	3950
2026-01-07 13:14:31.08	356.79	13.97	-25.8	-26.7	15.3	0.00e+00	0	44	102	1048576	11	3993
2026-01-07 13:14:32.09	356.68	13.89	-25.9	-27.0	15.2	0.00e+00	0	44	102	1048576	11	4049
2026-01-07 13:14:33.09	356.56	13.80	-26.2	-27.0	14.8	0.00e+00	0	44	102	1048576	12	3971
2026-01-07 13:14:34.10	356.44	13.72	-26.5	-27.8	14.3	0.00e+00	0	44	102	1048576	12	4167
2026-01-07 13:14:35.10	356.32	13.64	-26.2	-27.0	14.8	0.00e+00	0	44	102	1048576	12	3959
2026-01-07 13:14:36.11	356.21	13.55	-25.9	-26.5	15.1	0.00e+00	0	44	102	1048576	12	3829
2026-01-07 13:14:37.12	356.09	13.47	-25.8	-26.1	15.3	0.00e+00	0	44	102	1048576	12	3740
2026-01-07 13:14:38.13	355.98	13.39	-25.7	-25.9	15.4	1.10e-06	0	44	102	1048576	12	3703
2026-01-07 13:14:39.14	355.86	13.30	-25.6	-25.9	15.4	0.00e+00	0	44	102	1048576	12	3686
2026-01-07 13:14:40.15	355.75	13.22	-25.7	-26.0	15.3	0.00e+00	0	44	102	1048576	12	3709
2026-01-07 13:14:41.16	355.64	13.14	-25.7	-26.0	15.4	0.00e+00	0	44	102	1048576	12	3710
2026-01-07 13:14:42.16	355.53	13.06	-25.8	-26.3	15.2	0.00e+00	0	44	102	1048576	12	3784
2026-01-07 13:14:43.17	355.41	12.98	-25.9	-26.3	15.1	0.00e+00	0	44	102	1048576	12	3798
2026-01-07 13:14:44.17	355.31	12.89	-26.0	-26.7	14.9	0.00e+00	0	44	102	1048576	12	3880
2026-01-07 13:14:45.18	355.19	12.81	-26.1	-26.8	14.9	0.00e+00	0	44	102	1048576	12	3907
2026-01-07 13:14:46.19	355.08	12.73	-26.2	-27.2	14.7	0.00e+00	0	44	102	1048576	12	3999
2026-01-07 13:14:47.20	354.98	12.65	-26.3	-27.3	14.6	2.20e-06	0	44	102	1048576	12	4039
2026-01-07 13:14:48.20	354.87	12.57	-26.4	-27.5	14.5	2.20e-06	0	44	102	1048576	12	4088
2026-01-07 13:14:49.20	354.76	12.49	-26.5	-27.8	14.3	1.10e-06	0	44	102	1048576	12	4163
2026-01-07 13:14:50.20	354.66	12.41	-26.4	-27.5	14.4	0.00e+00	0	44	102	1048576	12	4099
2026-01-07 13:14:51.21	354.55	12.33	-26.4	-27.6	14.4	0.00e+00	0	44	102	1048576	12	4108
2026-01-07 13:14:52.21	354.44	12.25	-26.4	-27.6	14.4	1.10e-06	0	44	102	1048576	12	4113
2026-01-07 13:14:53.21	354.34	12.17	-26.5	-27.7	14.3	2.20e-06	0	44	102	1048576	12	4131
2026-01-07 13:14:54.22	354.23	12.09	-26.3	-27.2	14.6	2.20e-06	0	44	102	1048576	12	4018
2026-01-07 13:14:55.23	354.13	12.01	-26.2	-27.0	14.7	0.00e+00	0	44	102	1048576	12	3956
2026-01-07 13:14:56.24	354.03	11.93	-26.2	-27.1	14.6	0.00e+00	0	44	102	1048576	12	3989
2026-01-07 13:14:57.24	353.92	11.85	-26.3	-27.3	14.6	1.10e-06	0	44	102	1048576	12	4034
2026-01-07 13:14:58.25	353.82	11.77	-26.1	-26.9	14.8	0.00e+00	0	44	102	1048576	12	3946
2026-01-07 13:14:59.26	353.72	11.69	-26.3	-27.2	14.6	1.10e-06	0	44	102	1048576	12	4022
2026-01-07 13:15:00.27	353.62	11.61	-26.4	-27.4	14.4	1.10e-06	0	44	102	1048576	12	4069
2026-01-07 13:15:01.27	353.52	11.53	-26.2	-27.1	14.7	0.00e+00	0	44	102	1048576	12	3978
2026-01-07 13:15:02.28	353.42	11.45	-26.2	-27.0	14.7	0.00e+00	0	44	102	1048576	12	3952
2026-01-07 13:15:03.29	353.32	11.38	-26.2	-27.0	14.7	0.00e+00	0	44	102	1048576	12	3965
2026-01-07 13:15:04.29	353.22	11.30	-26.2	-27.1	14.6	0.00e+00	0	44	102	1048576	12	3994
2026-01-07 13:15:05.30	353.12	11.22	-26.3	-27.3	14.5	1.10e-06	0	44	102	1048576	12	4038
2026-01-07 13:15:06.31	353.02	11.14	-26.4	-27.6	14.4	2.20e-06	0	44	102	1048576	12	4105
2026-01-07 13:15:07.30	352.93	11.06	-26.3	-27.3	14.5	0.00e+00	0	44	102	1048576	12	4054
2026-01-07 13:15:08.30	352.83	10.99	-26.3	-27.3	14.4	0.00e+00	0	44	102	1048576	12	4050
2026-01-07 13:15:09.31	352.74	10.91	-26.4	-27.5	14.4	1.10e-06	0	44	102	1048576	12	4091
2026-01-07 13:15:10.31	352.64	10.83	-26.4	-27.5	14.4	3.40e-06	0	44	102	1048576	12	4094
2026-01-07 13:15:11.32	352.55	10.76	-26.4	-27.6	14.3	1.10e-06	0	44	102	1048576	12	4122
2026-01-07 13:15:12.33	352.45	10.68	-26.5	-27.7	14.2	0.00e+00	0	44	102	1048576	12	4149
2026-01-07 13:15:13.33	352.36	10.60	-26.3	-27.3	14.5	1.10e-06	0	44	102	1048576	12	4046
2026-01-07 13:15:14.34	352.26	10.52	-26.4	-27.5	14.3	1.10e-06	0	44	102	1048576	12	4096
2026-01-07 13:15:15.35	352.17	10.45	-26.4	-27.6	14.3	1.10e-06	0	44	102	1048576	12	4115
2026-01-07 13:15:16.35	352.08	10.37	-26.5	-27.8	14.2	1.10e-06	0	44	102	1048576	12	4160
2026-01-07 13:15:17.35	351.99	10.30	-26.5	-27.8	14.2	1.10e-06	0	44	102	1048576	12	4176
2026-01-07 13:15:18.36	351.89	10.22	-26.6	-27.5	14.1	2.20e-06	0	44	102	1048576	13	3993
2026-01-07 13:15:19.37	351.80	10.14	-26.6	-27.5	14.1	2.20e-06	0	44	102	1048576	13	3991
2026-01-07 13:15:20.37	351.71	10.07	-26.6	-27.5	14.0	1.10e-06	0	44	102	1048576	13	3990
2026-01-07 13:15:21.38	351.62	9.99	-26.6	-27.6	14.0	2.20e-06	0	44	102	1048576	13	4020
2026-01-07 13:15:22.39	351.53	9.92	-26.6	-27.6	14.0	6.80e-06	0	44	102	1048576	13	4008
2026-01-07 13:15:23.39	351.44	9.84	-26.6	-27.5	14.0	1.10e-06	0	44	102	1048576	13	4005
2026-01-07 13:15:24.40	351.36	9.77	-26.6	-27.6	13.9	3.40e-06	0	44	102	1048576	13	4016
2026-01-07 13:15:25.40	351.27	9.69	-26.6	-27.5	14.0	1.10e-06	0	44	102	1048576	13	4007
2026-01-07 13:15:26.41	351.18	9.62	-26.5	-27.3	14.1	2.20e-06	0	44	102	1048576	13	3938
2026-01-07 13:15:27.42	351.09	9.54	-26.6	-27.5	14.0	3.40e-06	0	44	102	1048576	13	3988
2026-01-07 13:15:28.43	351.01	9.47	-26.5	-27.4	14.1	2.20e-06	0	44	102	1048576	13	3960
2026-01-07 13:15:29.43	350.92	9.39	-26.4	-27.0	14.3	1.10e-06	0	44	102	1048576	13	3868
2026-01-07 13:15:30.44	350.83	9.32	-26.4	-27.0	14.2	1.10e-06	0	44	102	1048576	13	3873
2026-01-07 13:15:31.44	350.75	9.25	-26.4	-26.9	14.3	2.20e-06	0	44	102	1048576	13	3851
2026-01-07 13:15:32.45	350.66	9.17	-26.4	-27.0	14.2	2.20e-06	0	44	102	1048576	13	3873
2026-01-07 13:15:33.45	350.58	9.10	-26.3	-26.9	14.4	0.00e+00	0	44	102	1048576	13	3834
2026-01-07 13:15:34.46	350.50	9.03	-26.4	-27.0	14.3	2.20e-06	0	44	102	1048576	13	3853
2026-01-07 13:15:35.47	350.41	8.95	-26.3	-26.9	14.3	1.10e-06	0	44	102	1048576	13	3844
2026-01-07 13:15:36.48	350.33	8.88	-26.3	-26.9	14.3	0.00e+00	0	44	102	1048576	13	3841
2026-01-07 13:15:37.49	350.25	8.80	-26.4	-27.0	14.2	1.10e-06	0	44	102	1048576	13	3879
2026-01-07 13:15:38.49	350.16	8.73	-26.5	-27.2	14.1	2.20e-06	0	44	102	1048576	13	3900
2026-01-07 13:15:39.50	350.08	8.66	-26.5	-27.3	14.1	2.20e-06	0	44	102	1048576	13	3944
2026-01-07 13:15:40.51	350.00	8.59	-26.6	-27.4	14.0	2.20e-06	0	44	102	1048576	13	3970
2026-01-07 13:15:41.52	349.92	8.51	-26.7	-27.7	13.8	8.00e-06	0	44	102	1048576	13	4043
2026-01-07 13:15:42.53	349.84	8.44	-26.8	-27.9	13.7	4.50e-06	0	44	102	1048576	13	4097
2026-01-07 13:15:43.53	349.76	8.37	-26.9	-28.1	13.5	1.02e-05	0	44	102	1048576	13	4156
2026-01-07 13:15:44.54	349.68	8.30	-26.9	-28.3	13.4	1.60e-05	0	44	102	1048576	13	4203
2026-01-07 13:15:45.55	349.60	8.23	-27.2	-28.3	13.1	3.20e-05	0	44	102	1048576	14	4113
2026-01-07 13:15:46.56	349.52	8.15	-27.3	-28.6	13.0	4.00e-05	0	44	102	1048576	14	4177
2026-01-07 13:15:47.56	349.44	8.08	-27.4	-28.8	12.8	6.75e-05	0	44	102	1048576	14	4237
2026-01-07 13:15:48.57	349.36	8.01	-27.4	-28.9	12.8	7.09e-05	0	44	102	1048576	14	4287
2026-01-07 13:15:49.57	349.29	7.94	-27.5	-29.2	12.5	1.13e-04	0	44	102	1048576	14	4372
2026-01-07 13:15:50.58	349.21	7.87	-27.6	-28.9	12.4	1.46e-04	0	44	102	1048576	15	4185
2026-01-07 13:15:51.59	349.13	7.80	-27.8	-29.3	12.2	2.33e-04	0	44	102	1048576	15	4273
2026-01-07 13:15:52.60	349.05	7.73	-27.8	-29.4	12.1	3.16e-04	0	44	102	1048576	15	4306
2026-01-07 13:15:53.61	348.98	7.66	-27.8	-29.2	12.2	2.29e-04	0	44	102	1048576	15	4259
2026-01-07 13:15:54.60	348.90	7.59	-27.6	-28.8	12.5	1.93e-04	0	44	102	1048576	15	4149
2026-01-07 13:15:55.61	348.83	7.52	-27.7	-29.0	12.3	1.96e-04	0	44	102	1048576	15	4204
2026-01-07 13:15:56.62	348.75	7.45	-27.6	-28.9	12.4	1.54e-04	0	44	102	1048576	15	4158
2026-01-07 13:15:57.63	348.68	7.38	-27.6	-28.9	12.4	1.42e-04	0	44	102	1048576	15	4158
2026-01-07 13:15:58.63	348.60	7.31	-27.6	-29.0	12.3	1.66e-04	0	44	102	1048576	15	4185
2026-01-07 13:15:59.64	348.53	7.24	-27.6	-28.9	12.4	1.88e-04	0	44	102	1048576	15	4179
2026-01-07 13:16:00.65	348.46	7.17	-27.9	-29.5	12.0	2.91e-04	0	44	102	1048576	15	4346
2026-01-07 13:16:01.66	348.38	7.10	-27.9	-29.6	11.9	4.40e-04	0	44	102	1048576	15	4381
2026-01-07 13:16:02.66	348.31	7.03	-32.9	-41.8	3.8	2.20e-01	0	44	102	1048576	25	10037
2026-01-07 13:16:03.67	348.24	6.96	-33.3	-42.8	3.8	8.46e-01	0	44	104	1048576	26	10715

#Closed at: 2026-01-07 13:16:04
#Recorded file [1 MB]: D:/data/31010_260107_161115.dat