passes_logs/2026/01/07/R2M6_AANII_01/R2M6_AANII_01__20260107_125825_FENGYUN_3D_rec.log

#Pass ID: 20260107_125825_FENGYUN 3D
#Satellite: FENGYUN 3D
#Configuration: FENGYUN 3D
#almurnet v.1.7.20240730
#Start time: 2026-01-07 12:58:25

#Version: 2.2.20231116
#Station: R2M6_AANII_01
#Location: 30.233357 lon 59.946436 lat
#TLE: 1 43010U 17072A   26006.26440730  .00000376  00000+0  19957-3 0  9994
#TLE: 2 43010  98.9925 337.9455 0002045 123.9195 236.2175 14.19693586422016

#Time	Az	El	Level	Level2	SNR	BER	BlckErr	Temp	State	Recorded	gain1	gain2
2026-01-07 12:58:25.16	179.68	6.97	-28.1	-30.5	5.7	7.74e-01	0	41	0	0	16	4743
2026-01-07 12:58:26.16	179.72	7.05	-29.8	-33.4	5.3	7.89e-01	0	41	104	0	19	5440
2026-01-07 12:58:27.17	179.76	7.12	-29.8	-33.3	9.5	1.28e-02	0	41	0	0	19	5408
2026-01-07 12:58:28.17	179.80	7.20	-29.5	-32.4	10.1	5.45e-03	0	41	102	1048576	19	5057
2026-01-07 12:58:29.18	179.85	7.28	-29.8	-33.3	9.5	9.21e-03	0	41	102	1048576	19	5397
2026-01-07 12:58:30.19	179.89	7.35	-29.3	-32.0	10.4	4.65e-03	0	41	102	1048576	19	4901
2026-01-07 12:58:31.19	179.93	7.43	-28.8	-30.6	11.3	1.14e-03	0	41	102	1048576	19	4435
2026-01-07 12:58:32.19	179.97	7.51	-28.4	-30.1	12.0	3.11e-04	0	41	102	1048576	18	4380
2026-01-07 12:58:33.20	180.01	7.58	-27.8	-29.2	12.8	9.04e-05	0	41	102	1048576	17	4225
2026-01-07 12:58:34.21	180.06	7.66	-27.4	-28.8	13.4	1.94e-05	0	41	102	1048576	16	4206
2026-01-07 12:58:35.21	180.10	7.74	-26.9	-28.1	14.0	2.20e-06	0	41	102	1048576	15	4134
2026-01-07 12:58:36.21	180.14	7.82	-26.7	-28.1	14.3	0.00e+00	0	41	102	1048576	14	4222
2026-01-07 12:58:37.22	180.18	7.89	-26.6	-27.9	14.4	0.00e+00	0	41	102	1048576	14	4180
2026-01-07 12:58:38.23	180.23	7.97	-26.5	-27.7	14.5	0.00e+00	0	41	102	1048576	14	4111
2026-01-07 12:58:39.23	180.27	8.05	-26.5	-27.7	14.5	1.10e-06	0	41	102	1048576	14	4125
2026-01-07 12:58:40.24	180.31	8.13	-26.5	-27.6	14.6	0.00e+00	0	41	102	1048576	14	4084
2026-01-07 12:58:41.25	180.36	8.21	-26.4	-27.4	14.7	0.00e+00	0	41	102	1048576	14	4055
2026-01-07 12:58:42.25	180.40	8.29	-26.4	-27.5	14.6	0.00e+00	0	41	102	1048576	14	4070
2026-01-07 12:58:43.26	180.44	8.37	-26.4	-27.3	14.7	0.00e+00	0	42	102	1048576	14	4019
2026-01-07 12:58:44.26	180.49	8.45	-26.4	-27.3	14.8	1.10e-06	0	42	102	1048576	14	4022
2026-01-07 12:58:45.27	180.53	8.53	-26.5	-27.5	14.7	0.00e+00	0	41	102	1048576	14	4069
2026-01-07 12:58:46.28	180.58	8.61	-26.3	-27.2	14.9	0.00e+00	0	42	102	1048576	14	3990
2026-01-07 12:58:47.28	180.62	8.69	-26.4	-27.8	14.8	0.00e+00	0	42	102	1048576	13	4247
2026-01-07 12:58:48.29	180.67	8.77	-26.3	-27.8	14.8	0.00e+00	0	42	102	1048576	13	4250
2026-01-07 12:58:49.30	180.71	8.85	-26.3	-27.7	14.8	0.00e+00	0	42	102	1048576	13	4240
2026-01-07 12:58:50.31	180.76	8.93	-26.4	-27.9	14.7	0.00e+00	0	42	102	1048576	13	4295
2026-01-07 12:58:51.31	180.81	9.01	-26.3	-27.7	14.8	0.00e+00	0	42	102	1048576	13	4230
2026-01-07 12:58:52.31	180.85	9.09	-26.3	-27.7	14.9	1.60e-05	0	42	102	1048576	13	4217
2026-01-07 12:58:53.32	180.90	9.17	-26.3	-27.8	14.8	0.00e+00	0	42	102	1048576	13	4246
2026-01-07 12:58:54.33	180.95	9.26	-26.4	-27.9	14.7	0.00e+00	0	42	102	1048576	13	4286
2026-01-07 12:58:55.33	180.99	9.34	-26.4	-28.0	14.7	9.10e-06	0	42	102	1048576	13	4307
2026-01-07 12:58:56.33	181.04	9.42	-26.4	-27.8	14.8	0.00e+00	0	42	102	1048576	13	4259
2026-01-07 12:58:57.34	181.09	9.50	-26.4	-27.9	14.8	0.00e+00	0	42	102	1048576	13	4283
2026-01-07 12:58:58.35	181.13	9.59	-26.4	-27.8	14.8	0.00e+00	0	42	102	1048576	13	4260
2026-01-07 12:58:59.36	181.18	9.67	-26.4	-27.9	14.8	0.00e+00	0	42	102	1048576	13	4287
2026-01-07 12:59:00.37	181.23	9.76	-26.5	-28.1	14.7	1.10e-06	0	42	102	1048576	13	4329
2026-01-07 12:59:01.37	181.28	9.84	-26.5	-28.2	14.6	0.00e+00	0	42	102	1048576	13	4370
2026-01-07 12:59:02.37	181.33	9.92	-26.4	-28.0	14.7	0.00e+00	0	42	102	1048576	13	4315
2026-01-07 12:59:03.38	181.38	10.01	-26.5	-28.2	14.6	0.00e+00	0	42	102	1048576	13	4379
2026-01-07 12:59:04.38	181.43	10.09	-26.5	-28.1	14.7	1.10e-06	0	42	102	1048576	13	4342
2026-01-07 12:59:05.39	181.48	10.18	-26.6	-28.2	14.6	0.00e+00	0	42	102	1048576	13	4373
2026-01-07 12:59:06.40	181.53	10.26	-26.7	-28.6	14.4	0.00e+00	0	42	102	1048576	13	4472
2026-01-07 12:59:07.41	181.58	10.35	-26.6	-28.3	14.6	0.00e+00	0	42	102	1048576	13	4393
2026-01-07 12:59:08.41	181.63	10.43	-26.6	-28.4	14.6	0.00e+00	0	42	102	1048576	13	4418
2026-01-07 12:59:09.42	181.68	10.52	-26.4	-27.9	14.8	0.00e+00	0	42	102	1048576	13	4282
2026-01-07 12:59:10.42	181.73	10.61	-26.4	-27.8	14.8	0.00e+00	0	42	102	1048576	13	4264
2026-01-07 12:59:11.43	181.78	10.69	-26.4	-27.9	14.8	0.00e+00	0	42	102	1048576	13	4287
2026-01-07 12:59:12.44	181.83	10.78	-26.4	-28.0	14.7	0.00e+00	0	42	102	1048576	13	4312
2026-01-07 12:59:13.45	181.88	10.87	-26.3	-27.6	15.0	4.50e-06	0	42	102	1048576	13	4204
2026-01-07 12:59:14.45	181.93	10.96	-26.2	-27.4	15.1	0.00e+00	0	42	102	1048576	13	4147
2026-01-07 12:59:15.46	181.99	11.04	-26.2	-27.4	15.1	0.00e+00	0	42	102	1048576	13	4149
2026-01-07 12:59:16.46	182.04	11.13	-26.2	-27.4	15.2	0.00e+00	0	42	102	1048576	13	4132
2026-01-07 12:59:17.47	182.09	11.22	-26.0	-27.0	15.4	0.00e+00	0	42	102	1048576	13	4043
2026-01-07 12:59:18.47	182.15	11.31	-26.0	-27.1	15.3	0.00e+00	0	42	102	1048576	13	4052
2026-01-07 12:59:19.48	182.20	11.40	-26.0	-27.0	15.4	0.00e+00	0	42	102	1048576	13	4027
2026-01-07 12:59:20.49	182.25	11.49	-25.9	-26.7	15.5	0.00e+00	0	42	102	1048576	13	3966
2026-01-07 12:59:21.49	182.31	11.58	-25.8	-26.6	15.6	0.00e+00	0	42	102	1048576	13	3929
2026-01-07 12:59:22.49	182.36	11.67	-25.8	-26.6	15.6	0.00e+00	0	42	102	1048576	13	3945
2026-01-07 12:59:23.50	182.42	11.76	-25.8	-26.6	15.6	0.00e+00	0	42	102	1048576	13	3935
2026-01-07 12:59:24.51	182.47	11.85	-25.9	-26.7	15.5	0.00e+00	0	42	102	1048576	13	3963
2026-01-07 12:59:25.52	182.53	11.94	-25.9	-26.7	15.6	0.00e+00	0	42	102	1048576	13	3958
2026-01-07 12:59:26.52	182.58	12.03	-25.8	-27.0	15.7	0.00e+00	0	42	102	1048576	12	4143
2026-01-07 12:59:27.52	182.64	12.12	-25.8	-27.0	15.7	0.00e+00	0	42	102	1048576	12	4134
2026-01-07 12:59:28.53	182.70	12.21	-25.8	-27.0	15.7	0.00e+00	0	42	102	1048576	12	4152
2026-01-07 12:59:29.54	182.75	12.31	-25.8	-27.1	15.6	0.00e+00	0	42	102	1048576	12	4182
2026-01-07 12:59:30.55	182.81	12.40	-25.8	-27.0	15.7	0.00e+00	0	42	102	1048576	12	4140
2026-01-07 12:59:31.55	182.87	12.49	-25.7	-26.9	15.7	0.00e+00	0	43	102	1048576	12	4119
2026-01-07 12:59:32.56	182.93	12.59	-25.8	-27.0	15.7	0.00e+00	0	42	102	1048576	12	4137
2026-01-07 12:59:33.57	182.98	12.68	-25.8	-27.0	15.7	0.00e+00	0	42	102	1048576	12	4137
2026-01-07 12:59:34.58	183.04	12.77	-25.9	-27.2	15.6	0.00e+00	0	42	102	1048576	12	4204
2026-01-07 12:59:35.59	183.10	12.87	-25.9	-27.3	15.6	0.00e+00	0	42	102	1048576	12	4213
2026-01-07 12:59:36.60	183.16	12.96	-25.8	-27.0	15.7	0.00e+00	0	43	102	1048576	12	4150
2026-01-07 12:59:37.61	183.22	13.06	-25.7	-26.9	15.8	0.00e+00	0	42	102	1048576	12	4106
2026-01-07 12:59:38.61	183.28	13.15	-25.8	-27.0	15.7	0.00e+00	0	42	102	1048576	12	4129
2026-01-07 12:59:39.62	183.34	13.25	-25.8	-27.0	15.8	0.00e+00	0	43	102	1048576	12	4134
2026-01-07 12:59:40.64	183.40	13.35	-25.7	-26.9	15.8	0.00e+00	0	42	102	1048576	12	4118
2026-01-07 12:59:41.65	183.46	13.44	-25.7	-26.8	15.8	0.00e+00	0	43	102	1048576	12	4094
2026-01-07 12:59:42.66	183.52	13.54	-25.6	-26.7	15.9	1.60e-05	0	43	102	1048576	12	4058
2026-01-07 12:59:43.66	183.59	13.64	-25.6	-26.6	16.0	0.00e+00	0	43	102	1048576	12	4033
2026-01-07 12:59:44.66	183.65	13.74	-25.6	-26.6	16.0	0.00e+00	0	43	102	1048576	12	4043
2026-01-07 12:59:45.67	183.71	13.83	-25.7	-26.9	15.8	1.25e-05	0	43	102	1048576	12	4121
2026-01-07 12:59:46.68	183.77	13.93	-25.6	-26.7	16.0	0.00e+00	0	43	102	1048576	12	4053
2026-01-07 12:59:47.69	183.84	14.03	-25.5	-26.3	16.2	0.00e+00	0	43	102	1048576	12	3959
2026-01-07 12:59:48.69	183.90	14.13	-25.4	-26.2	16.2	0.00e+00	0	43	102	1048576	12	3935
2026-01-07 12:59:49.69	183.96	14.23	-25.4	-26.2	16.2	0.00e+00	0	43	102	1048576	12	3928
2026-01-07 12:59:50.70	184.03	14.33	-25.4	-26.1	16.3	0.00e+00	0	43	102	1048576	12	3911
2026-01-07 12:59:51.71	184.09	14.43	-25.3	-26.0	16.3	2.20e-06	0	43	102	1048576	12	3895
2026-01-07 12:59:52.72	184.16	14.53	-25.3	-25.9	16.4	0.00e+00	0	43	102	1048576	12	3865
2026-01-07 12:59:53.72	184.23	14.63	-25.4	-26.1	16.3	0.00e+00	0	43	102	1048576	12	3913
2026-01-07 12:59:54.73	184.29	14.73	-25.3	-26.0	16.4	6.80e-06	0	43	102	1048576	12	3889
2026-01-07 12:59:55.74	184.36	14.83	-25.3	-25.9	16.4	0.00e+00	0	43	102	1048576	12	3874
2026-01-07 12:59:56.75	184.43	14.94	-25.3	-26.0	16.4	0.00e+00	0	43	102	1048576	12	3877
2026-01-07 12:59:57.75	184.49	15.04	-25.4	-26.2	16.3	9.10e-06	0	43	102	1048576	12	3935
2026-01-07 12:59:58.76	184.56	15.14	-25.4	-26.2	16.3	0.00e+00	0	43	102	1048576	12	3929
2026-01-07 12:59:59.77	184.63	15.24	-25.4	-26.2	16.3	0.00e+00	0	43	102	1048576	12	3944
2026-01-07 13:00:00.77	184.70	15.35	-25.6	-26.7	16.0	0.00e+00	0	43	102	1048576	12	4055
2026-01-07 13:00:01.78	184.77	15.45	-25.7	-26.8	16.0	0.00e+00	0	43	102	1048576	12	4089
2026-01-07 13:00:02.79	184.84	15.56	-25.7	-26.8	16.0	0.00e+00	0	43	102	1048576	12	4079
2026-01-07 13:00:03.79	184.91	15.66	-25.6	-26.6	16.1	0.00e+00	0	43	102	1048576	12	4039
2026-01-07 13:00:04.79	184.98	15.77	-25.6	-26.7	16.0	0.00e+00	0	43	102	1048576	12	4055
2026-01-07 13:00:05.80	185.05	15.87	-25.5	-26.4	16.2	0.00e+00	0	43	102	1048576	12	3994
2026-01-07 13:00:06.79	185.12	15.98	-25.4	-26.1	16.3	0.00e+00	0	43	102	1048576	12	3922
2026-01-07 13:00:07.80	185.19	16.08	-25.4	-26.2	16.3	0.00e+00	0	43	102	1048576	12	3939
2026-01-07 13:00:08.81	185.27	16.19	-25.4	-26.1	16.4	0.00e+00	0	43	102	1048576	12	3914
2026-01-07 13:00:09.82	185.34	16.30	-25.5	-26.4	16.2	0.00e+00	0	43	102	1048576	12	3996
2026-01-07 13:00:10.83	185.41	16.41	-25.3	-26.0	16.5	0.00e+00	0	43	102	1048576	12	3876
2026-01-07 13:00:11.83	185.49	16.51	-25.1	-26.0	16.8	0.00e+00	0	43	102	1048576	11	3988
2026-01-07 13:00:12.84	185.56	16.62	-25.2	-26.2	16.7	0.00e+00	0	43	102	1048576	11	4035
2026-01-07 13:00:13.85	185.64	16.73	-25.1	-25.9	16.8	0.00e+00	0	43	102	1048576	11	3966
2026-01-07 13:00:14.86	185.71	16.84	-24.9	-25.6	17.0	0.00e+00	0	43	102	1048576	11	3883
2026-01-07 13:00:15.86	185.79	16.95	-24.9	-25.5	17.1	0.00e+00	0	43	102	1048576	11	3860
2026-01-07 13:00:16.86	185.87	17.06	-25.0	-25.8	16.9	0.00e+00	0	43	102	1048576	11	3929
2026-01-07 13:00:17.87	185.94	17.17	-24.9	-25.5	17.0	0.00e+00	0	43	102	1048576	11	3872
2026-01-07 13:00:18.87	186.02	17.28	-24.8	-25.3	17.1	0.00e+00	0	43	102	1048576	11	3835
2026-01-07 13:00:19.88	186.10	17.40	-24.8	-25.4	17.1	0.00e+00	0	43	102	1048576	11	3838
2026-01-07 13:00:20.89	186.18	17.51	-24.7	-25.7	17.2	0.00e+00	0	43	102	1048576	10	4033
2026-01-07 13:00:21.90	186.26	17.62	-24.7	-25.7	17.2	0.00e+00	0	43	102	1048576	10	4032
2026-01-07 13:00:22.91	186.34	17.74	-24.7	-25.5	17.3	0.00e+00	0	43	102	1048576	10	3980
2026-01-07 13:00:23.91	186.42	17.85	-24.6	-25.4	17.4	0.00e+00	0	43	102	1048576	10	3955
2026-01-07 13:00:24.92	186.50	17.96	-24.7	-25.7	17.3	0.00e+00	0	43	102	1048576	10	4020
2026-01-07 13:00:25.93	186.58	18.08	-24.6	-25.4	17.4	0.00e+00	0	43	102	1048576	10	3945
2026-01-07 13:00:26.94	186.67	18.19	-24.5	-25.2	17.5	0.00e+00	0	43	102	1048576	10	3913
2026-01-07 13:00:27.94	186.75	18.31	-24.6	-25.5	17.4	0.00e+00	0	43	102	1048576	10	3966
2026-01-07 13:00:28.95	186.83	18.43	-24.5	-25.3	17.5	0.00e+00	0	43	102	1048576	10	3913
2026-01-07 13:00:29.96	186.92	18.54	-24.5	-25.2	17.5	0.00e+00	0	43	102	1048576	10	3896
2026-01-07 13:00:30.96	187.00	18.66	-24.5	-25.2	17.5	0.00e+00	0	43	102	1048576	10	3900
2026-01-07 13:00:31.97	187.09	18.78	-24.6	-25.5	17.4	0.00e+00	0	43	102	1048576	10	3963
2026-01-07 13:00:32.98	187.17	18.90	-24.7	-25.6	17.2	0.00e+00	0	43	102	1048576	10	4000
2026-01-07 13:00:33.97	187.26	19.01	-24.6	-25.5	17.3	0.00e+00	0	43	102	1048576	10	3966
2026-01-07 13:00:34.98	187.35	19.13	-24.6	-25.5	17.4	0.00e+00	0	43	102	1048576	10	3973
2026-01-07 13:00:35.98	187.43	19.25	-24.7	-25.6	17.4	0.00e+00	0	43	102	1048576	10	3991
2026-01-07 13:00:36.99	187.52	19.37	-24.5	-25.3	17.5	0.00e+00	0	43	102	1048576	10	3916
2026-01-07 13:00:38.00	187.61	19.49	-24.5	-25.2	17.6	0.00e+00	0	43	102	1048576	10	3890
2026-01-07 13:00:39.00	187.70	19.61	-24.4	-25.0	17.7	1.10e-06	0	43	102	1048576	10	3846
2026-01-07 13:00:40.01	187.79	19.74	-24.6	-25.4	17.5	0.00e+00	0	43	102	1048576	10	3945
2026-01-07 13:00:41.01	187.88	19.86	-24.3	-24.8	17.8	0.00e+00	0	43	102	1048576	10	3804
2026-01-07 13:00:42.02	187.98	19.98	-24.1	-24.9	18.0	5.70e-06	0	43	102	1048576	9	3930
2026-01-07 13:00:43.03	188.07	20.10	-24.2	-25.1	17.9	0.00e+00	0	43	102	1048576	9	3972
2026-01-07 13:00:44.03	188.16	20.23	-24.1	-24.8	18.0	0.00e+00	0	43	102	1048576	9	3911
2026-01-07 13:00:45.04	188.26	20.35	-24.1	-24.8	18.0	4.50e-06	0	43	102	1048576	9	3920
2026-01-07 13:00:46.05	188.35	20.48	-24.1	-24.8	18.0	0.00e+00	0	43	102	1048576	9	3909
2026-01-07 13:00:47.06	188.45	20.60	-24.2	-25.1	17.9	0.00e+00	0	43	102	1048576	9	3984
2026-01-07 13:00:48.06	188.54	20.73	-24.1	-24.9	18.0	9.10e-06	0	43	102	1048576	9	3927
2026-01-07 13:00:49.07	188.64	20.86	-24.0	-24.7	18.1	0.00e+00	0	43	102	1048576	9	3887
2026-01-07 13:00:50.08	188.74	20.98	-24.1	-24.9	18.0	0.00e+00	0	43	102	1048576	9	3928
2026-01-07 13:00:51.09	188.84	21.11	-24.0	-24.6	18.2	0.00e+00	0	43	102	1048576	9	3849
2026-01-07 13:00:52.09	188.94	21.24	-23.9	-24.5	18.2	0.00e+00	0	43	102	1048576	9	3838
2026-01-07 13:00:53.10	189.04	21.37	-24.0	-24.7	18.1	0.00e+00	0	43	102	1048576	9	3884
2026-01-07 13:00:54.11	189.14	21.50	-23.9	-24.3	18.3	0.00e+00	0	43	102	1048576	9	3800
2026-01-07 13:00:55.11	189.24	21.63	-23.9	-24.3	18.3	0.00e+00	0	43	102	1048576	9	3801
2026-01-07 13:00:56.11	189.35	21.76	-24.0	-24.6	18.2	0.00e+00	0	43	102	1048576	9	3868
2026-01-07 13:00:57.12	189.45	21.89	-23.8	-24.6	18.4	0.00e+00	0	43	102	1048576	8	3971
2026-01-07 13:00:58.12	189.55	22.02	-23.7	-24.4	18.5	0.00e+00	0	43	102	1048576	8	3926
2026-01-07 13:00:59.13	189.66	22.15	-23.7	-24.5	18.5	0.00e+00	0	43	102	1048576	8	3948
2026-01-07 13:01:00.13	189.77	22.29	-23.9	-25.0	18.3	0.00e+00	0	43	102	1048576	8	4053
2026-01-07 13:01:01.14	189.87	22.42	-24.0	-25.2	18.1	0.00e+00	0	43	102	1048576	8	4114
2026-01-07 13:01:02.13	189.98	22.55	-23.9	-24.9	18.3	0.00e+00	0	43	102	1048576	8	4049
2026-01-07 13:01:03.14	190.09	22.69	-23.9	-24.9	18.3	0.00e+00	0	43	102	1048576	8	4048
2026-01-07 13:01:04.14	190.20	22.82	-24.0	-25.2	18.2	0.00e+00	0	43	102	1048576	8	4107
2026-01-07 13:01:05.15	190.31	22.96	-24.1	-25.3	18.1	0.00e+00	0	43	102	1048576	8	4140
2026-01-07 13:01:06.16	190.42	23.10	-24.2	-25.5	18.0	0.00e+00	0	43	102	1048576	8	4194
2026-01-07 13:01:07.17	190.54	23.23	-24.1	-25.3	18.1	0.00e+00	0	43	102	1048576	8	4144
2026-01-07 13:01:08.18	190.65	23.37	-24.0	-25.1	18.2	0.00e+00	0	43	102	1048576	8	4099
2026-01-07 13:01:09.19	190.76	23.51	-24.0	-25.1	18.2	0.00e+00	0	43	102	1048576	8	4096
2026-01-07 13:01:10.20	190.88	23.65	-24.1	-25.3	18.2	0.00e+00	0	43	102	1048576	8	4136
2026-01-07 13:01:11.21	191.00	23.79	-23.9	-24.9	18.3	0.00e+00	0	43	102	1048576	8	4047
2026-01-07 13:01:12.21	191.11	23.93	-23.8	-24.8	18.4	0.00e+00	0	43	102	1048576	8	4016
2026-01-07 13:01:13.22	191.23	24.07	-23.9	-24.8	18.4	0.00e+00	0	43	102	1048576	8	4026
2026-01-07 13:01:14.22	191.35	24.21	-23.9	-24.8	18.4	0.00e+00	0	43	102	1048576	8	4017
2026-01-07 13:01:15.23	191.47	24.36	-23.9	-24.9	18.3	0.00e+00	0	43	102	1048576	8	4051
2026-01-07 13:01:16.23	191.60	24.50	-23.7	-24.4	18.6	0.00e+00	0	43	102	1048576	8	3928
2026-01-07 13:01:17.24	191.72	24.64	-23.6	-24.2	18.7	0.00e+00	0	43	102	1048576	8	3870
2026-01-07 13:01:18.24	191.84	24.79	-23.5	-24.1	18.8	0.00e+00	0	43	102	1048576	8	3848
2026-01-07 13:01:19.25	191.97	24.93	-23.6	-24.3	18.7	0.00e+00	0	43	102	1048576	8	3885
2026-01-07 13:01:20.26	192.09	25.08	-23.3	-23.7	19.0	0.00e+00	0	43	102	1048576	8	3751
2026-01-07 13:01:21.27	192.22	25.22	-23.4	-23.7	18.9	0.00e+00	0	43	102	1048576	8	3762
2026-01-07 13:01:22.27	192.35	25.37	-23.4	-23.9	18.9	0.00e+00	0	43	102	1048576	8	3801
2026-01-07 13:01:23.28	192.48	25.52	-23.3	-23.6	19.0	0.00e+00	0	43	102	1048576	8	3742
2026-01-07 13:01:24.29	192.61	25.67	-23.3	-23.6	19.0	0.00e+00	0	43	102	1048576	8	3730
2026-01-07 13:01:25.30	192.74	25.82	-23.3	-23.7	19.0	0.00e+00	0	43	102	1048576	8	3755
2026-01-07 13:01:26.30	192.88	25.97	-23.2	-23.9	19.1	0.00e+00	0	43	102	1048576	7	3900
2026-01-07 13:01:27.31	193.01	26.12	-23.2	-23.8	19.1	0.00e+00	0	43	102	1048576	7	3884
2026-01-07 13:01:28.32	193.15	26.27	-23.2	-23.8	19.1	0.00e+00	0	43	102	1048576	7	3895
2026-01-07 13:01:29.33	193.29	26.42	-23.1	-23.8	19.1	3.40e-06	0	43	102	1048576	7	3880
2026-01-07 13:01:30.33	193.42	26.57	-23.2	-23.9	19.1	0.00e+00	0	43	102	1048576	7	3910
2026-01-07 13:01:31.33	193.56	26.72	-23.2	-23.9	19.1	0.00e+00	0	43	102	1048576	7	3899
2026-01-07 13:01:32.33	193.70	26.88	-23.2	-23.9	19.1	0.00e+00	0	43	102	1048576	7	3915
2026-01-07 13:01:33.34	193.85	27.03	-23.2	-23.9	19.1	0.00e+00	0	43	102	1048576	7	3907
2026-01-07 13:01:34.35	193.99	27.19	-23.2	-24.0	19.0	0.00e+00	0	43	102	1048576	7	3939
2026-01-07 13:01:35.35	194.13	27.34	-23.3	-24.2	18.9	0.00e+00	0	43	102	1048576	7	3986
2026-01-07 13:01:36.36	194.28	27.50	-23.5	-24.5	18.8	0.00e+00	0	43	102	1048576	7	4049
2026-01-07 13:01:37.37	194.43	27.66	-23.5	-24.5	18.8	0.00e+00	0	43	102	1048576	7	4060
2026-01-07 13:01:38.37	194.58	27.82	-23.3	-24.1	19.0	0.00e+00	0	43	102	1048576	7	3966
2026-01-07 13:01:39.38	194.73	27.98	-23.3	-24.0	19.0	0.00e+00	0	43	102	1048576	7	3940
2026-01-07 13:01:40.39	194.88	28.14	-23.2	-24.0	19.1	0.00e+00	0	43	102	1048576	7	3935
2026-01-07 13:01:41.39	195.03	28.29	-23.1	-23.8	19.2	0.00e+00	0	43	102	1048576	7	3872
2026-01-07 13:01:42.40	195.19	28.46	-23.1	-23.8	19.2	0.00e+00	0	43	102	1048576	7	3872
2026-01-07 13:01:43.41	195.35	28.62	-23.2	-23.9	19.2	0.00e+00	0	43	102	1048576	7	3895
2026-01-07 13:01:44.41	195.50	28.78	-23.2	-24.0	19.1	0.00e+00	0	43	102	1048576	7	3926
2026-01-07 13:01:45.41	195.66	28.94	-23.2	-23.8	19.2	0.00e+00	0	43	102	1048576	7	3887
2026-01-07 13:01:46.41	195.82	29.10	-23.2	-23.9	19.1	0.00e+00	0	43	102	1048576	7	3896
2026-01-07 13:01:47.42	195.99	29.27	-23.1	-23.7	19.2	0.00e+00	0	43	102	1048576	7	3868
2026-01-07 13:01:48.43	196.15	29.43	-23.1	-23.8	19.2	0.00e+00	0	43	102	1048576	7	3879
2026-01-07 13:01:49.43	196.32	29.60	-23.3	-24.1	19.1	0.00e+00	0	43	102	1048576	7	3947
2026-01-07 13:01:50.45	196.49	29.77	-23.4	-24.3	19.0	0.00e+00	0	43	102	1048576	7	3991
2026-01-07 13:01:51.45	196.66	29.93	-23.4	-24.3	18.9	0.00e+00	0	43	102	1048576	7	4010
2026-01-07 13:01:52.46	196.83	30.10	-23.3	-24.1	19.1	0.00e+00	0	43	102	1048576	7	3951
2026-01-07 13:01:53.46	197.00	30.27	-23.2	-23.8	19.2	0.00e+00	0	43	102	1048576	7	3891
2026-01-07 13:01:54.47	197.17	30.44	-23.2	-24.0	19.2	0.00e+00	0	43	102	1048576	7	3920
2026-01-07 13:01:55.47	197.35	30.61	-23.1	-23.7	19.3	0.00e+00	0	43	102	1048576	7	3861
2026-01-07 13:01:56.49	197.53	30.78	-23.0	-23.5	19.4	0.00e+00	0	43	102	1048576	7	3814
2026-01-07 13:01:57.49	197.71	30.95	-23.1	-23.7	19.3	0.00e+00	0	43	102	1048576	7	3855
2026-01-07 13:01:58.50	197.89	31.13	-23.2	-23.9	19.2	0.00e+00	0	43	102	1048576	7	3897
2026-01-07 13:01:59.51	198.08	31.30	-23.3	-24.2	19.0	0.00e+00	0	43	102	1048576	7	3973
2026-01-07 13:02:00.51	198.26	31.47	-23.4	-24.3	19.0	0.00e+00	0	43	102	1048576	7	4009
2026-01-07 13:02:01.51	198.45	31.65	-23.4	-24.3	19.0	0.00e+00	0	43	102	1048576	7	3998
2026-01-07 13:02:02.52	198.64	31.82	-23.2	-24.0	19.1	0.00e+00	0	43	102	1048576	7	3923
2026-01-07 13:02:03.52	198.83	32.00	-23.2	-23.8	19.2	0.00e+00	0	43	102	1048576	7	3890
2026-01-07 13:02:04.53	199.03	32.17	-23.2	-23.9	19.2	0.00e+00	0	43	102	1048576	7	3911
2026-01-07 13:02:05.54	199.22	32.35	-23.3	-24.1	19.1	0.00e+00	0	43	102	1048576	7	3954
2026-01-07 13:02:06.55	199.42	32.53	-23.3	-24.1	19.1	0.00e+00	0	43	102	1048576	7	3958
2026-01-07 13:02:07.55	199.62	32.71	-23.3	-24.2	19.1	0.00e+00	0	43	102	1048576	7	3971
2026-01-07 13:02:08.56	199.82	32.89	-23.2	-24.0	19.1	0.00e+00	0	43	102	1048576	7	3926
2026-01-07 13:02:09.57	200.03	33.07	-23.1	-23.7	19.3	0.00e+00	0	43	102	1048576	7	3863
2026-01-07 13:02:10.58	200.24	33.25	-23.0	-23.5	19.4	0.00e+00	0	43	102	1048576	7	3815
2026-01-07 13:02:11.59	200.45	33.43	-23.1	-23.6	19.4	0.00e+00	0	43	102	1048576	7	3837
2026-01-07 13:02:12.60	200.66	33.61	-23.0	-23.5	19.4	0.00e+00	0	43	102	1048576	7	3804
2026-01-07 13:02:13.61	200.87	33.80	-22.8	-23.1	19.6	0.00e+00	0	43	102	1048576	7	3720
2026-01-07 13:02:14.61	201.09	33.98	-22.8	-23.5	19.7	0.00e+00	0	43	102	1048576	6	3912
2026-01-07 13:02:15.62	201.31	34.17	-22.8	-23.5	19.6	0.00e+00	0	43	102	1048576	6	3930
2026-01-07 13:02:16.63	201.53	34.35	-22.8	-23.5	19.7	0.00e+00	0	43	102	1048576	6	3924
2026-01-07 13:02:17.64	201.76	34.54	-22.8	-23.6	19.7	0.00e+00	0	43	102	1048576	6	3934
2026-01-07 13:02:18.65	201.98	34.72	-22.9	-23.9	19.5	0.00e+00	0	43	102	1048576	6	4012
2026-01-07 13:02:19.65	202.21	34.91	-22.9	-23.8	19.5	1.10e-06	0	43	102	1048576	6	3986
2026-01-07 13:02:20.66	202.44	35.10	-22.8	-23.5	19.7	0.00e+00	0	43	102	1048576	6	3930
2026-01-07 13:02:21.67	202.68	35.28	-22.7	-23.4	19.7	0.00e+00	0	43	102	1048576	6	3904
2026-01-07 13:02:22.68	202.91	35.47	-22.6	-23.1	19.9	1.10e-06	0	43	102	1048576	6	3831
2026-01-07 13:02:23.68	203.15	35.66	-22.5	-23.0	19.9	0.00e+00	0	43	102	1048576	6	3800
2026-01-07 13:02:24.69	203.39	35.85	-22.6	-23.1	19.9	0.00e+00	0	43	102	1048576	6	3827
2026-01-07 13:02:25.69	203.64	36.04	-22.6	-23.1	19.9	0.00e+00	0	43	102	1048576	6	3821
2026-01-07 13:02:26.70	203.89	36.23	-22.6	-23.1	19.8	0.00e+00	0	43	102	1048576	6	3833
2026-01-07 13:02:27.70	204.13	36.42	-22.7	-23.3	19.8	0.00e+00	0	43	102	1048576	6	3885
2026-01-07 13:02:28.71	204.39	36.61	-22.8	-23.6	19.6	1.10e-06	0	43	102	1048576	6	3939
2026-01-07 13:02:29.72	204.65	36.81	-23.0	-23.9	19.5	0.00e+00	0	43	102	1048576	6	4021
2026-01-07 13:02:30.73	204.91	37.00	-23.0	-23.9	19.5	0.00e+00	0	43	102	1048576	6	4026
2026-01-07 13:02:31.74	205.17	37.19	-22.9	-23.7	19.6	1.10e-06	0	43	102	1048576	6	3976
2026-01-07 13:02:32.75	205.44	37.39	-22.9	-23.9	19.5	0.00e+00	0	43	102	1048576	6	4017
2026-01-07 13:02:33.75	205.70	37.58	-22.8	-23.5	19.7	0.00e+00	0	43	102	1048576	6	3930
2026-01-07 13:02:34.76	205.98	37.78	-22.6	-23.2	19.9	0.00e+00	0	43	102	1048576	6	3853
2026-01-07 13:02:35.77	206.25	37.97	-22.7	-23.4	19.8	0.00e+00	0	43	102	1048576	6	3893
2026-01-07 13:02:36.78	206.53	38.17	-22.7	-23.3	19.8	0.00e+00	0	43	102	1048576	6	3875
2026-01-07 13:02:37.79	206.81	38.36	-22.9	-23.8	19.6	0.00e+00	0	43	102	1048576	6	3993
2026-01-07 13:02:38.79	207.10	38.56	-22.9	-23.7	19.7	0.00e+00	0	43	102	1048576	6	3967
2026-01-07 13:02:39.79	207.38	38.75	-22.7	-23.5	19.8	0.00e+00	0	43	102	1048576	6	3911
2026-01-07 13:02:40.80	207.67	38.95	-22.9	-23.8	19.6	0.00e+00	0	43	102	1048576	6	3984
2026-01-07 13:02:41.82	207.97	39.15	-23.0	-24.0	19.5	0.00e+00	0	43	102	1048576	6	4048
2026-01-07 13:02:42.82	208.27	39.35	-22.9	-23.9	19.5	0.00e+00	0	43	102	1048576	6	4004
2026-01-07 13:02:43.82	208.57	39.54	-22.7	-23.4	19.8	0.00e+00	0	43	102	1048576	6	3885
2026-01-07 13:02:44.83	208.88	39.74	-22.7	-23.4	19.8	0.00e+00	0	43	102	1048576	6	3895
2026-01-07 13:02:45.84	209.19	39.94	-22.9	-23.8	19.6	0.00e+00	0	43	102	1048576	6	3987
2026-01-07 13:02:46.85	209.50	40.14	-22.8	-23.6	19.7	0.00e+00	0	43	102	1048576	6	3934
2026-01-07 13:02:47.85	209.82	40.34	-22.6	-23.2	19.9	0.00e+00	0	43	102	1048576	6	3855
2026-01-07 13:02:48.86	210.14	40.53	-22.7	-23.4	19.8	0.00e+00	0	43	102	1048576	6	3893
2026-01-07 13:02:49.87	210.47	40.73	-22.7	-23.3	19.8	0.00e+00	0	43	102	1048576	6	3866
2026-01-07 13:02:50.88	210.80	40.93	-22.8	-23.5	19.8	0.00e+00	0	43	102	1048576	6	3910
2026-01-07 13:02:51.88	211.13	41.13	-22.6	-23.2	19.9	0.00e+00	0	43	102	1048576	6	3846
2026-01-07 13:02:52.89	211.47	41.33	-22.6	-23.2	19.9	0.00e+00	0	43	102	1048576	6	3843
2026-01-07 13:02:53.88	211.80	41.53	-22.9	-23.8	19.6	0.00e+00	0	43	102	1048576	6	3978
2026-01-07 13:02:54.88	212.14	41.72	-22.9	-23.8	19.6	0.00e+00	0	43	102	1048576	6	3991
2026-01-07 13:02:55.89	212.49	41.92	-22.8	-23.5	19.9	0.00e+00	0	43	102	1048576	6	3905
2026-01-07 13:02:56.90	212.85	42.12	-22.6	-23.1	20.2	0.00e+00	0	43	102	1048576	6	3797
2026-01-07 13:02:57.91	213.21	42.32	-22.8	-23.4	20.0	0.00e+00	0	43	102	1048576	6	3884
2026-01-07 13:02:58.91	213.57	42.52	-22.9	-23.8	19.8	0.00e+00	0	43	102	1048576	6	3969
2026-01-07 13:02:59.92	213.94	42.72	-23.1	-24.1	19.6	0.00e+00	0	43	102	1048576	6	4054
2026-01-07 13:03:00.93	214.31	42.91	-23.0	-23.8	19.8	0.00e+00	0	43	102	1048576	6	3972
2026-01-07 13:03:01.94	214.69	43.11	-22.9	-23.7	19.9	0.00e+00	0	43	102	1048576	6	3945
2026-01-07 13:03:02.94	215.06	43.31	-23.0	-23.9	19.8	0.00e+00	0	43	102	1048576	6	4001
2026-01-07 13:03:03.94	215.45	43.50	-23.0	-23.9	19.8	0.00e+00	0	43	102	1048576	6	3990
2026-01-07 13:03:04.95	215.84	43.70	-23.1	-24.2	19.6	0.00e+00	0	43	102	1048576	6	4067
2026-01-07 13:03:05.96	216.23	43.90	-23.0	-24.0	19.7	0.00e+00	0	43	102	1048576	6	4014
2026-01-07 13:03:06.96	216.63	44.09	-23.0	-23.8	19.8	0.00e+00	0	43	102	1048576	6	3979
2026-01-07 13:03:07.97	217.03	44.29	-23.1	-24.1	19.7	0.00e+00	0	43	102	1048576	6	4049
2026-01-07 13:03:08.98	217.44	44.48	-23.2	-24.3	19.6	0.00e+00	0	43	102	1048576	6	4085
2026-01-07 13:03:09.99	217.86	44.68	-23.3	-24.6	19.5	0.00e+00	0	43	102	1048576	6	4158
2026-01-07 13:03:11.00	218.28	44.87	-23.2	-24.4	19.5	0.00e+00	0	43	102	1048576	6	4126
2026-01-07 13:03:12.00	218.70	45.06	-23.3	-24.6	19.4	0.00e+00	0	43	102	1048576	6	4160
2026-01-07 13:03:13.01	219.13	45.25	-23.3	-24.5	19.5	0.00e+00	0	43	102	1048576	6	4135
2026-01-07 13:03:14.02	219.57	45.44	-23.2	-24.3	19.6	0.00e+00	0	43	102	1048576	6	4081
2026-01-07 13:03:15.02	220.00	45.63	-23.1	-24.1	19.7	0.00e+00	0	43	102	1048576	6	4051
2026-01-07 13:03:16.04	220.45	45.82	-23.3	-24.5	19.5	0.00e+00	0	43	102	1048576	6	4132
2026-01-07 13:03:17.04	220.90	46.01	-23.6	-24.6	19.2	0.00e+00	0	43	102	1048576	7	4046
2026-01-07 13:03:18.05	221.36	46.20	-23.6	-24.6	19.1	0.00e+00	0	43	102	1048576	7	4048
2026-01-07 13:03:19.05	221.82	46.38	-23.6	-24.7	19.1	0.00e+00	0	43	102	1048576	7	4069
2026-01-07 13:03:20.06	222.28	46.57	-23.4	-24.3	19.3	0.00e+00	0	43	102	1048576	7	3988
2026-01-07 13:03:21.07	222.76	46.75	-23.4	-24.2	19.4	0.00e+00	0	43	102	1048576	7	3957
2026-01-07 13:03:22.07	223.23	46.93	-23.5	-24.4	19.3	0.00e+00	0	43	102	1048576	7	4001
2026-01-07 13:03:23.08	223.71	47.11	-23.4	-24.3	19.4	0.00e+00	0	43	102	1048576	7	3989
2026-01-07 13:03:24.09	224.20	47.29	-24.0	-25.5	18.8	0.00e+00	0	43	102	1048576	7	4271
2026-01-07 13:03:25.10	224.70	47.47	-23.3	-24.1	19.5	0.00e+00	0	43	102	1048576	7	3929
2026-01-07 13:03:26.11	225.20	47.65	-23.0	-23.3	19.9	0.00e+00	0	44	102	1048576	7	3758
2026-01-07 13:03:27.11	225.70	47.82	-23.1	-23.5	19.8	0.00e+00	0	43	102	1048576	7	3794
2026-01-07 13:03:28.12	226.21	47.99	-23.2	-23.8	19.6	0.00e+00	0	43	102	1048576	7	3868
2026-01-07 13:03:29.13	226.73	48.16	-23.2	-23.8	19.6	0.00e+00	0	43	102	1048576	7	3875
2026-01-07 13:03:30.13	227.25	48.33	-23.2	-23.7	19.7	0.00e+00	0	44	102	1048576	7	3852
2026-01-07 13:03:31.14	227.78	48.50	-23.0	-23.4	19.9	0.00e+00	0	43	102	1048576	7	3760
2026-01-07 13:03:32.15	228.31	48.67	-23.0	-23.4	19.9	0.00e+00	0	43	102	1048576	7	3767
2026-01-07 13:03:33.16	228.85	48.83	-23.3	-24.0	19.5	0.00e+00	0	43	102	1048576	7	3901
2026-01-07 13:03:34.16	229.39	48.99	-23.3	-24.0	19.5	0.00e+00	0	43	102	1048576	7	3921
2026-01-07 13:03:35.17	229.94	49.15	-23.7	-24.9	19.1	0.00e+00	0	43	102	1048576	7	4120
2026-01-07 13:03:36.17	230.49	49.30	-23.3	-24.0	19.5	0.00e+00	0	43	102	1048576	7	3910
2026-01-07 13:03:37.18	231.06	49.46	-23.3	-24.1	19.5	0.00e+00	0	43	102	1048576	7	3938
2026-01-07 13:03:38.19	231.63	49.61	-23.6	-24.6	19.2	0.00e+00	0	43	102	1048576	7	4049
2026-01-07 13:03:39.19	232.19	49.76	-23.6	-24.6	19.2	0.00e+00	0	43	102	1048576	7	4052
2026-01-07 13:03:40.20	232.77	49.91	-24.0	-24.9	18.8	0.00e+00	0	43	102	1048576	8	4025
2026-01-07 13:03:41.20	233.35	50.05	-23.7	-24.5	19.1	0.00e+00	0	44	102	1048576	8	3910
2026-01-07 13:03:42.20	233.94	50.19	-23.5	-24.0	19.3	0.00e+00	0	43	102	1048576	8	3815
2026-01-07 13:03:43.20	234.53	50.33	-23.5	-23.9	19.4	0.00e+00	0	43	102	1048576	8	3783
2026-01-07 13:03:44.20	235.12	50.47	-23.6	-24.1	19.3	0.00e+00	0	43	102	1048576	8	3815
2026-01-07 13:03:45.21	235.73	50.60	-23.6	-24.1	19.3	0.00e+00	0	43	102	1048576	8	3820
2026-01-07 13:03:46.22	236.34	50.73	-23.6	-24.1	19.2	0.00e+00	0	44	102	1048576	8	3833
2026-01-07 13:03:47.22	236.95	50.86	-23.4	-23.7	19.5	0.00e+00	0	43	102	1048576	8	3729
2026-01-07 13:03:48.23	237.57	50.98	-23.7	-24.4	19.1	0.00e+00	0	44	102	1048576	8	3904
2026-01-07 13:03:49.23	238.19	51.10	-23.9	-24.9	18.8	0.00e+00	0	43	102	1048576	8	4010
2026-01-07 13:03:50.24	238.83	51.22	-23.4	-23.7	19.5	0.00e+00	0	43	102	1048576	8	3740
2026-01-07 13:03:51.25	239.46	51.34	-23.2	-23.7	19.7	0.00e+00	0	44	102	1048576	7	3845
2026-01-07 13:03:52.25	240.10	51.45	-23.4	-24.2	19.4	0.00e+00	0	43	102	1048576	7	3948
2026-01-07 13:03:53.26	240.75	51.55	-23.2	-23.8	19.7	0.00e+00	0	43	102	1048576	7	3854
2026-01-07 13:03:54.27	241.40	51.66	-23.0	-23.4	19.8	0.00e+00	0	43	102	1048576	7	3776
2026-01-07 13:03:55.28	242.05	51.76	-23.2	-23.9	19.6	0.00e+00	0	43	102	1048576	7	3894
2026-01-07 13:03:56.30	242.72	51.86	-23.3	-24.1	19.5	0.00e+00	0	43	102	1048576	7	3937
2026-01-07 13:03:57.30	243.38	51.95	-23.1	-23.6	19.8	0.00e+00	0	43	102	1048576	7	3807
2026-01-07 13:03:58.30	244.04	52.04	-23.4	-24.2	19.4	0.00e+00	0	43	102	1048576	7	3963
2026-01-07 13:03:59.31	244.71	52.13	-23.9	-25.2	18.9	0.00e+00	0	43	102	1048576	7	4205
2026-01-07 13:04:00.31	245.38	52.21	-23.7	-24.8	19.2	0.00e+00	0	43	102	1048576	7	4101
2026-01-07 13:04:01.32	246.06	52.29	-23.7	-25.0	19.1	0.00e+00	0	43	102	1048576	7	4143
2026-01-07 13:04:02.33	246.74	52.36	-23.8	-25.2	18.9	0.00e+00	0	44	102	1048576	7	4190
2026-01-07 13:04:03.34	247.43	52.43	-23.6	-24.6	19.2	0.00e+00	0	43	102	1048576	7	4049
2026-01-07 13:04:04.35	248.12	52.50	-23.6	-24.5	19.3	0.00e+00	0	44	102	1048576	7	4035
2026-01-07 13:04:05.35	248.80	52.56	-23.7	-24.8	19.1	0.00e+00	0	44	102	1048576	7	4114
2026-01-07 13:04:06.35	249.49	52.62	-23.8	-25.1	19.0	1.10e-06	0	43	102	1048576	7	4190
2026-01-07 13:04:07.36	250.19	52.67	-23.7	-24.9	19.1	0.00e+00	0	43	102	1048576	7	4141
2026-01-07 13:04:08.37	250.89	52.72	-23.5	-24.4	19.4	0.00e+00	0	43	102	1048576	7	4011
2026-01-07 13:04:09.38	251.59	52.77	-23.5	-24.5	19.3	5.70e-06	0	43	102	1048576	7	4035
2026-01-07 13:04:10.38	252.29	52.81	-23.4	-24.3	19.4	0.00e+00	0	43	102	1048576	7	3966
2026-01-07 13:04:11.39	252.99	52.84	-23.2	-23.8	19.7	0.00e+00	0	43	102	1048576	7	3850
2026-01-07 13:04:12.40	253.70	52.87	-23.5	-24.4	19.3	1.10e-06	0	43	102	1048576	7	4010
2026-01-07 13:04:13.40	254.40	52.90	-23.7	-24.9	19.1	0.00e+00	0	43	102	1048576	7	4130
2026-01-07 13:04:14.41	255.11	52.93	-23.6	-24.6	19.3	0.00e+00	0	44	102	1048576	7	4057
2026-01-07 13:04:15.41	255.82	52.94	-23.8	-25.2	19.0	2.20e-06	0	43	102	1048576	7	4188
2026-01-07 13:04:16.42	256.53	52.96	-24.2	-25.5	18.6	0.00e+00	0	43	102	1048576	8	4167
2026-01-07 13:04:17.43	257.24	52.97	-23.9	-24.9	18.9	0.00e+00	0	43	102	1048576	8	4017
2026-01-07 13:04:18.43	257.95	52.98	-23.7	-24.4	19.1	3.40e-06	0	43	102	1048576	8	3901
2026-01-07 13:04:19.43	258.66	52.98	-24.1	-25.2	18.7	0.00e+00	0	43	102	1048576	8	4089
2026-01-07 13:04:20.44	259.37	52.97	-24.6	-25.8	18.2	0.00e+00	0	43	102	1048576	9	4125
2026-01-07 13:04:21.45	260.08	52.97	-24.5	-25.6	18.3	0.00e+00	0	43	102	1048576	9	4083
2026-01-07 13:04:22.46	260.79	52.95	-24.5	-25.5	18.4	0.00e+00	0	43	102	1048576	9	4041
2026-01-07 13:04:23.47	261.51	52.94	-24.2	-24.9	18.7	0.00e+00	0	43	102	1048576	9	3899
2026-01-07 13:04:24.48	262.22	52.92	-24.1	-24.8	18.7	0.00e+00	0	43	102	1048576	9	3884
2026-01-07 13:04:25.48	262.92	52.89	-24.3	-25.1	18.5	0.00e+00	0	43	102	1048576	9	3958
2026-01-07 13:04:26.49	263.63	52.86	-24.3	-25.1	18.6	0.00e+00	0	44	102	1048576	9	3950
2026-01-07 13:04:27.49	264.33	52.83	-24.2	-24.8	18.7	0.00e+00	0	43	102	1048576	9	3886
2026-01-07 13:04:28.50	265.03	52.79	-24.3	-25.0	18.6	0.00e+00	0	43	102	1048576	9	3933
2026-01-07 13:04:29.51	265.74	52.75	-24.4	-25.3	18.4	0.00e+00	0	44	102	1048576	9	4013
2026-01-07 13:04:30.51	266.43	52.70	-24.6	-25.8	18.2	0.00e+00	0	43	102	1048576	9	4133
2026-01-07 13:04:31.52	267.13	52.65	-24.6	-25.7	18.2	0.00e+00	0	44	102	1048576	9	4103
2026-01-07 13:04:32.53	267.83	52.60	-23.9	-24.4	18.9	0.00e+00	0	44	102	1048576	9	3772
2026-01-07 13:04:33.53	268.51	52.54	-23.8	-24.1	19.0	0.00e+00	0	43	102	1048576	9	3716
2026-01-07 13:04:34.54	269.20	52.47	-24.2	-25.0	18.6	0.00e+00	0	44	102	1048576	9	3943
2026-01-07 13:04:35.55	269.89	52.40	-24.1	-24.8	18.7	0.00e+00	0	43	102	1048576	9	3876
2026-01-07 13:04:36.55	270.57	52.33	-23.4	-23.8	19.5	0.00e+00	0	43	102	1048576	8	3752
2026-01-07 13:04:37.56	271.25	52.26	-23.1	-23.7	19.8	0.00e+00	0	43	102	1048576	7	3828
2026-01-07 13:04:38.56	271.92	52.18	-23.4	-24.3	19.4	0.00e+00	0	43	102	1048576	7	3972
2026-01-07 13:04:39.57	272.59	52.10	-23.7	-24.9	19.1	0.00e+00	0	43	102	1048576	7	4119
2026-01-07 13:04:40.58	273.26	52.01	-24.0	-25.4	18.9	0.00e+00	0	43	102	1048576	7	4265
2026-01-07 13:04:41.59	273.93	51.92	-24.1	-25.3	18.7	0.00e+00	0	44	102	1048576	8	4117
2026-01-07 13:04:42.60	274.59	51.82	-23.8	-24.5	19.1	0.00e+00	0	43	102	1048576	8	3921
2026-01-07 13:04:43.61	275.25	51.72	-23.5	-23.9	19.4	0.00e+00	0	43	102	1048576	8	3778
2026-01-07 13:04:44.61	275.89	51.62	-23.6	-24.1	19.3	0.00e+00	0	44	102	1048576	8	3833
2026-01-07 13:04:45.61	276.54	51.52	-23.7	-24.3	19.2	0.00e+00	0	43	102	1048576	8	3875
2026-01-07 13:04:46.62	277.18	51.41	-23.6	-24.1	19.3	0.00e+00	0	43	102	1048576	8	3829
2026-01-07 13:04:47.63	277.82	51.29	-23.4	-23.8	19.4	0.00e+00	0	44	102	1048576	8	3759
2026-01-07 13:04:48.63	278.45	51.18	-23.6	-24.1	19.3	0.00e+00	0	43	102	1048576	8	3826
2026-01-07 13:04:49.64	279.08	51.06	-23.6	-24.0	19.3	0.00e+00	0	43	102	1048576	8	3809
2026-01-07 13:04:50.65	279.70	50.94	-23.5	-23.9	19.4	0.00e+00	0	43	102	1048576	8	3773
2026-01-07 13:04:51.65	280.31	50.81	-23.6	-24.2	19.3	0.00e+00	0	43	102	1048576	8	3844
2026-01-07 13:04:52.66	280.93	50.68	-23.5	-24.0	19.4	0.00e+00	0	43	102	1048576	8	3800
2026-01-07 13:04:53.67	281.54	50.55	-23.4	-23.7	19.5	0.00e+00	0	44	102	1048576	8	3737
2026-01-07 13:04:54.67	282.14	50.42	-23.3	-23.6	19.6	0.00e+00	0	43	102	1048576	8	3700
2026-01-07 13:04:55.69	282.74	50.28	-23.5	-23.9	19.4	0.00e+00	0	43	102	1048576	8	3783
2026-01-07 13:04:56.69	283.33	50.14	-23.6	-24.2	19.3	0.00e+00	0	44	102	1048576	8	3854
2026-01-07 13:04:57.70	283.91	50.00	-23.9	-24.9	18.9	0.00e+00	0	43	102	1048576	8	4022
2026-01-07 13:04:58.70	284.49	49.86	-23.6	-24.3	19.2	0.00e+00	0	44	102	1048576	8	3863
2026-01-07 13:04:59.70	285.06	49.71	-23.2	-23.8	19.7	0.00e+00	0	44	102	1048576	7	3853
2026-01-07 13:05:00.72	285.64	49.56	-23.1	-23.7	19.8	0.00e+00	0	44	102	1048576	7	3831
2026-01-07 13:05:01.73	286.20	49.40	-23.1	-23.7	19.7	0.00e+00	0	44	102	1048576	7	3833
2026-01-07 13:05:02.73	286.76	49.25	-23.2	-23.8	19.7	0.00e+00	0	44	102	1048576	7	3850
2026-01-07 13:05:03.74	287.31	49.09	-23.2	-23.8	19.7	0.00e+00	0	43	102	1048576	7	3857
2026-01-07 13:05:04.75	287.86	48.93	-23.3	-24.1	19.5	0.00e+00	0	44	102	1048576	7	3945
2026-01-07 13:05:05.76	288.40	48.77	-23.3	-24.0	19.6	0.00e+00	0	43	102	1048576	7	3920
2026-01-07 13:05:06.77	288.94	48.61	-23.1	-23.6	19.8	0.00e+00	0	43	102	1048576	7	3821
2026-01-07 13:05:07.77	289.46	48.44	-23.2	-23.7	19.7	0.00e+00	0	44	102	1048576	7	3847
2026-01-07 13:05:08.78	289.99	48.27	-23.1	-23.6	19.8	0.00e+00	0	43	102	1048576	7	3820
2026-01-07 13:05:09.79	290.51	48.10	-23.4	-24.3	19.4	0.00e+00	0	43	102	1048576	7	3989
2026-01-07 13:05:10.79	291.02	47.93	-23.5	-24.5	19.3	0.00e+00	0	43	102	1048576	7	4030
2026-01-07 13:05:11.80	291.53	47.76	-23.8	-25.2	19.0	0.00e+00	0	43	102	1048576	7	4194
2026-01-07 13:05:12.81	292.03	47.59	-23.5	-24.5	19.3	0.00e+00	0	43	102	1048576	7	4032
2026-01-07 13:05:13.81	292.52	47.41	-23.1	-23.5	19.8	0.00e+00	0	44	102	1048576	7	3790
2026-01-07 13:05:14.81	293.01	47.23	-23.0	-23.4	19.9	0.00e+00	0	44	102	1048576	7	3756
2026-01-07 13:05:15.82	293.50	47.06	-23.3	-24.0	19.6	0.00e+00	0	44	102	1048576	7	3907
2026-01-07 13:05:16.83	293.98	46.87	-23.4	-24.2	19.5	0.00e+00	0	43	102	1048576	7	3957
2026-01-07 13:05:17.84	294.45	46.69	-23.4	-24.2	19.5	0.00e+00	0	43	102	1048576	7	3947
2026-01-07 13:05:18.84	294.92	46.51	-23.2	-23.8	19.7	0.00e+00	0	43	102	1048576	7	3861
2026-01-07 13:05:19.84	295.38	46.33	-23.2	-23.9	19.7	0.00e+00	0	43	102	1048576	7	3872
2026-01-07 13:05:20.85	295.84	46.14	-23.3	-24.0	19.6	0.00e+00	0	43	102	1048576	7	3918
2026-01-07 13:05:21.86	296.29	45.96	-23.4	-24.2	19.5	0.00e+00	0	43	102	1048576	7	3971
2026-01-07 13:05:22.87	296.74	45.77	-23.4	-24.3	19.5	0.00e+00	0	43	102	1048576	7	3986
2026-01-07 13:05:23.87	297.18	45.58	-23.5	-24.5	19.4	0.00e+00	0	44	102	1048576	7	4020
2026-01-07 13:05:24.87	297.61	45.39	-23.6	-24.6	19.3	0.00e+00	0	43	102	1048576	7	4063
2026-01-07 13:05:25.88	298.04	45.20	-23.4	-24.3	19.5	0.00e+00	0	44	102	1048576	7	3974
2026-01-07 13:05:26.89	298.47	45.01	-23.3	-24.0	19.6	0.00e+00	0	44	102	1048576	7	3910
2026-01-07 13:05:27.90	298.89	44.82	-23.4	-24.3	19.5	0.00e+00	0	43	102	1048576	7	3972
2026-01-07 13:05:28.91	299.31	44.62	-23.3	-24.1	19.5	0.00e+00	0	44	102	1048576	7	3941
2026-01-07 13:05:29.91	299.72	44.43	-23.5	-24.4	19.4	0.00e+00	0	44	102	1048576	7	4009
2026-01-07 13:05:30.92	300.13	44.24	-23.3	-24.1	19.6	0.00e+00	0	44	102	1048576	7	3936
2026-01-07 13:05:31.92	300.53	44.05	-23.3	-24.0	19.6	0.00e+00	0	43	102	1048576	7	3907
2026-01-07 13:05:32.93	300.92	43.85	-23.6	-24.6	19.3	0.00e+00	0	43	102	1048576	7	4053
2026-01-07 13:05:33.94	301.32	43.65	-23.6	-24.7	19.3	0.00e+00	0	43	102	1048576	7	4070
2026-01-07 13:05:34.94	301.70	43.46	-23.9	-25.3	18.9	0.00e+00	0	43	102	1048576	7	4246
2026-01-07 13:05:35.94	302.08	43.27	-23.8	-25.0	19.1	0.00e+00	0	43	102	1048576	7	4152
2026-01-07 13:05:36.94	302.46	43.07	-23.9	-25.3	18.9	0.00e+00	0	44	102	1048576	7	4226
2026-01-07 13:05:37.95	302.83	42.87	-23.5	-24.5	19.3	0.00e+00	0	44	102	1048576	7	4027
2026-01-07 13:05:38.96	303.20	42.67	-23.1	-23.7	19.8	0.00e+00	0	43	102	1048576	7	3825
2026-01-07 13:05:39.97	303.57	42.48	-23.0	-23.4	19.9	0.00e+00	0	43	102	1048576	7	3777
2026-01-07 13:05:40.98	303.93	42.28	-23.2	-23.7	19.7	0.00e+00	0	43	102	1048576	7	3848
2026-01-07 13:05:41.99	304.29	42.08	-23.2	-23.8	19.7	0.00e+00	0	43	102	1048576	7	3860
2026-01-07 13:05:42.99	304.63	41.88	-23.1	-23.6	19.8	0.00e+00	0	44	102	1048576	7	3825
2026-01-07 13:05:44.00	304.98	41.69	-23.0	-23.4	19.9	0.00e+00	0	43	102	1048576	7	3782
2026-01-07 13:05:45.01	305.33	41.49	-23.1	-23.5	19.8	0.00e+00	0	43	102	1048576	7	3801
2026-01-07 13:05:46.02	305.67	41.29	-23.3	-24.0	19.6	0.00e+00	0	43	102	1048576	7	3908
2026-01-07 13:05:47.03	306.00	41.09	-23.0	-23.5	19.8	0.00e+00	0	44	102	1048576	7	3785
2026-01-07 13:05:48.03	306.33	40.89	-22.9	-23.2	20.0	0.00e+00	0	44	102	1048576	7	3729
2026-01-07 13:05:49.03	306.66	40.70	-22.9	-23.1	20.0	0.00e+00	0	44	102	1048576	7	3709
2026-01-07 13:05:50.04	306.98	40.50	-22.9	-23.2	20.0	0.00e+00	0	44	102	1048576	7	3720
2026-01-07 13:05:51.05	307.30	40.30	-22.7	-23.3	20.2	0.00e+00	0	44	102	1048576	6	3856
2026-01-07 13:05:52.06	307.62	40.10	-22.7	-23.3	20.1	0.00e+00	0	44	102	1048576	6	3860
2026-01-07 13:05:53.07	307.93	39.90	-22.9	-23.8	19.9	0.00e+00	0	43	102	1048576	6	3960
2026-01-07 13:05:54.08	308.24	39.71	-22.8	-23.5	20.0	0.00e+00	0	44	102	1048576	6	3907
2026-01-07 13:05:55.09	308.54	39.51	-22.9	-23.6	20.0	0.00e+00	0	44	102	1048576	6	3922
2026-01-07 13:05:56.09	308.84	39.31	-23.0	-23.8	19.9	0.00e+00	0	43	102	1048576	6	3978
2026-01-07 13:05:57.10	309.14	39.12	-22.9	-23.6	20.0	0.00e+00	0	44	102	1048576	6	3929
2026-01-07 13:05:58.11	309.43	38.92	-22.9	-23.7	19.9	0.00e+00	0	43	102	1048576	6	3944
2026-01-07 13:05:59.11	309.72	38.73	-23.0	-24.0	19.8	0.00e+00	0	43	102	1048576	6	4027
2026-01-07 13:06:00.12	310.01	38.53	-22.9	-23.7	20.0	0.00e+00	0	43	102	1048576	6	3943
2026-01-07 13:06:01.13	310.29	38.33	-22.7	-23.3	20.1	0.00e+00	0	43	102	1048576	6	3866
2026-01-07 13:06:02.14	310.57	38.14	-22.7	-23.3	20.1	0.00e+00	0	44	102	1048576	6	3852
2026-01-07 13:06:03.14	310.85	37.95	-22.8	-23.5	20.0	0.00e+00	0	43	102	1048576	6	3900
2026-01-07 13:06:04.15	311.12	37.75	-22.6	-23.1	20.2	0.00e+00	0	44	102	1048576	6	3804
2026-01-07 13:06:05.15	311.39	37.56	-22.7	-23.3	20.1	0.00e+00	0	44	102	1048576	6	3856
2026-01-07 13:06:06.16	311.66	37.37	-22.8	-23.6	20.0	0.00e+00	0	44	102	1048576	6	3916
2026-01-07 13:06:07.17	311.92	37.17	-23.0	-23.8	19.9	0.00e+00	0	44	102	1048576	6	3973
2026-01-07 13:06:08.18	312.18	36.98	-23.0	-23.9	19.8	0.00e+00	0	44	102	1048576	6	3995
2026-01-07 13:06:09.18	312.44	36.79	-23.0	-24.0	19.8	0.00e+00	0	43	102	1048576	6	4020
2026-01-07 13:06:10.19	312.70	36.60	-23.0	-23.9	19.8	0.00e+00	0	44	102	1048576	6	3993
2026-01-07 13:06:11.19	312.95	36.41	-22.8	-23.6	20.0	0.00e+00	0	44	102	1048576	6	3917
2026-01-07 13:06:12.19	313.19	36.22	-22.8	-23.5	20.0	0.00e+00	0	44	102	1048576	6	3902
2026-01-07 13:06:13.20	313.44	36.03	-22.9	-23.6	20.0	0.00e+00	0	43	102	1048576	6	3926
2026-01-07 13:06:14.21	313.69	35.84	-22.7	-23.3	20.1	0.00e+00	0	44	102	1048576	6	3857
2026-01-07 13:06:15.22	313.93	35.65	-22.8	-23.5	20.0	0.00e+00	0	43	102	1048576	6	3899
2026-01-07 13:06:16.22	314.16	35.47	-22.9	-23.8	19.9	0.00e+00	0	43	102	1048576	6	3972
2026-01-07 13:06:17.23	314.40	35.28	-23.0	-24.0	19.8	0.00e+00	0	43	102	1048576	6	4013
2026-01-07 13:06:18.23	314.63	35.09	-23.0	-23.9	19.8	0.00e+00	0	44	102	1048576	6	4007
2026-01-07 13:06:19.23	314.86	34.91	-23.0	-24.0	19.8	0.00e+00	0	43	102	1048576	6	4014
2026-01-07 13:06:20.24	315.09	34.72	-23.1	-24.1	19.7	0.00e+00	0	44	102	1048576	6	4037
2026-01-07 13:06:21.25	315.31	34.54	-22.9	-23.8	19.8	0.00e+00	0	43	102	1048576	6	3966
2026-01-07 13:06:22.25	315.54	34.35	-22.9	-23.7	19.9	0.00e+00	0	43	102	1048576	6	3957
2026-01-07 13:06:23.25	315.75	34.17	-23.0	-23.9	19.8	0.00e+00	0	44	102	1048576	6	3992
2026-01-07 13:06:24.26	315.97	33.99	-22.9	-23.8	19.9	0.00e+00	0	43	102	1048576	6	3961
2026-01-07 13:06:25.26	316.19	33.81	-23.0	-24.0	19.8	0.00e+00	0	43	102	1048576	6	4014
2026-01-07 13:06:26.27	316.40	33.62	-23.0	-23.9	19.8	0.00e+00	0	44	102	1048576	6	4000
2026-01-07 13:06:27.27	316.61	33.44	-23.1	-24.1	19.7	0.00e+00	0	43	102	1048576	6	4045
2026-01-07 13:06:28.28	316.82	33.26	-23.2	-24.3	19.6	0.00e+00	0	43	102	1048576	6	4081
2026-01-07 13:06:29.29	317.03	33.08	-23.0	-24.0	19.7	0.00e+00	0	43	102	1048576	6	4019
2026-01-07 13:06:30.29	317.23	32.91	-23.0	-24.0	19.7	0.00e+00	0	44	102	1048576	6	4010
2026-01-07 13:06:31.29	317.43	32.73	-23.0	-24.0	19.7	0.00e+00	0	44	102	1048576	6	4011
2026-01-07 13:06:32.30	317.63	32.55	-23.0	-23.8	19.8	0.00e+00	0	43	102	1048576	6	3977
2026-01-07 13:06:33.31	317.83	32.37	-23.0	-24.0	19.7	0.00e+00	0	44	102	1048576	6	4012
2026-01-07 13:06:34.32	318.02	32.20	-23.2	-24.2	19.6	0.00e+00	0	43	102	1048576	6	4076
2026-01-07 13:06:35.32	318.22	32.02	-23.1	-24.1	19.7	0.00e+00	0	44	102	1048576	6	4033
2026-01-07 13:06:36.33	318.41	31.85	-23.1	-24.2	19.6	0.00e+00	0	43	102	1048576	6	4066
2026-01-07 13:06:37.34	318.60	31.67	-23.2	-24.4	19.5	0.00e+00	0	44	102	1048576	6	4125
2026-01-07 13:06:38.35	318.79	31.50	-23.4	-24.7	19.4	0.00e+00	0	44	102	1048576	6	4182
2026-01-07 13:06:39.35	318.97	31.33	-23.5	-24.9	19.3	0.00e+00	0	43	102	1048576	6	4246
2026-01-07 13:06:40.36	319.15	31.15	-23.5	-24.5	19.2	0.00e+00	0	44	102	1048576	7	4045
2026-01-07 13:06:41.37	319.34	30.98	-23.7	-24.9	19.0	0.00e+00	0	44	102	1048576	7	4138
2026-01-07 13:06:42.38	319.52	30.81	-23.8	-25.1	18.9	0.00e+00	0	43	102	1048576	7	4194
2026-01-07 13:06:43.38	319.69	30.64	-23.6	-24.7	19.1	0.00e+00	0	43	102	1048576	7	4094
2026-01-07 13:06:44.39	319.87	30.47	-23.5	-24.5	19.2	0.00e+00	0	44	102	1048576	7	4036
2026-01-07 13:06:45.40	320.04	30.30	-23.5	-24.6	19.2	0.00e+00	0	43	102	1048576	7	4044
2026-01-07 13:06:46.41	320.22	30.14	-23.6	-24.7	19.1	0.00e+00	0	43	102	1048576	7	4088
2026-01-07 13:06:47.41	320.39	29.97	-23.7	-24.9	19.0	0.00e+00	0	44	102	1048576	7	4138
2026-01-07 13:06:48.42	320.56	29.80	-23.7	-24.9	19.0	0.00e+00	0	44	102	1048576	7	4134
2026-01-07 13:06:49.43	320.73	29.64	-23.5	-24.5	19.2	0.00e+00	0	44	102	1048576	7	4041
2026-01-07 13:06:50.43	320.89	29.47	-23.5	-24.5	19.2	0.00e+00	0	44	102	1048576	7	4019
2026-01-07 13:06:51.44	321.05	29.31	-23.5	-24.5	19.2	0.00e+00	0	44	102	1048576	7	4026
2026-01-07 13:06:52.45	321.22	29.14	-23.6	-24.6	19.1	0.00e+00	0	44	102	1048576	7	4059
2026-01-07 13:06:53.46	321.38	28.98	-23.7	-24.8	19.0	0.00e+00	0	43	102	1048576	7	4107
2026-01-07 13:06:54.46	321.54	28.82	-23.4	-24.3	19.3	0.00e+00	0	44	102	1048576	7	3990
2026-01-07 13:06:55.46	321.69	28.66	-23.3	-24.1	19.4	0.00e+00	0	43	102	1048576	7	3947
2026-01-07 13:06:56.47	321.85	28.50	-23.4	-24.2	19.3	0.00e+00	0	43	102	1048576	7	3962
2026-01-07 13:06:57.48	322.01	28.34	-23.4	-24.3	19.3	0.00e+00	0	43	102	1048576	7	3988
2026-01-07 13:06:58.48	322.16	28.18	-23.4	-24.3	19.3	0.00e+00	0	43	102	1048576	7	3981
2026-01-07 13:06:59.49	322.31	28.02	-23.4	-24.3	19.2	0.00e+00	0	43	102	1048576	7	3996
2026-01-07 13:07:00.49	322.46	27.86	-23.4	-24.2	19.3	0.00e+00	0	44	102	1048576	7	3969
2026-01-07 13:07:01.50	322.61	27.71	-23.4	-24.2	19.3	0.00e+00	0	44	102	1048576	7	3970
2026-01-07 13:07:02.51	322.76	27.55	-23.4	-24.2	19.3	0.00e+00	0	44	102	1048576	7	3960
2026-01-07 13:07:03.51	322.90	27.39	-23.5	-24.4	19.2	0.00e+00	0	43	102	1048576	7	4005
2026-01-07 13:07:04.52	323.05	27.24	-23.6	-24.6	19.1	0.00e+00	0	44	102	1048576	7	4068
2026-01-07 13:07:05.53	323.19	27.08	-23.5	-24.5	19.1	0.00e+00	0	43	102	1048576	7	4039
2026-01-07 13:07:06.54	323.33	26.93	-23.5	-24.6	19.1	0.00e+00	0	44	102	1048576	7	4050
2026-01-07 13:07:07.54	323.47	26.78	-23.6	-24.6	19.1	0.00e+00	0	43	102	1048576	7	4060
2026-01-07 13:07:08.55	323.61	26.63	-23.5	-24.5	19.1	0.00e+00	0	43	102	1048576	7	4042
2026-01-07 13:07:09.56	323.75	26.47	-23.6	-24.6	19.1	0.00e+00	0	44	102	1048576	7	4058
2026-01-07 13:07:10.57	323.89	26.32	-23.6	-24.7	19.0	0.00e+00	0	44	102	1048576	7	4088
2026-01-07 13:07:11.57	324.02	26.17	-23.6	-24.6	19.1	0.00e+00	0	44	102	1048576	7	4069
2026-01-07 13:07:12.58	324.16	26.02	-23.5	-24.4	19.2	0.00e+00	0	44	102	1048576	7	4009
2026-01-07 13:07:13.59	324.29	25.87	-23.4	-24.3	19.2	0.00e+00	0	44	102	1048576	7	3994
2026-01-07 13:07:14.60	324.43	25.72	-23.4	-24.3	19.2	0.00e+00	0	43	102	1048576	7	3991
2026-01-07 13:07:15.60	324.56	25.58	-23.5	-24.4	19.1	0.00e+00	0	44	102	1048576	7	4017
2026-01-07 13:07:16.61	324.69	25.43	-23.5	-24.4	19.1	0.00e+00	0	44	102	1048576	7	4020
2026-01-07 13:07:17.62	324.81	25.28	-23.5	-24.5	19.1	0.00e+00	0	44	102	1048576	7	4039
2026-01-07 13:07:18.63	324.94	25.14	-23.5	-24.4	19.2	0.00e+00	0	44	102	1048576	7	4008
2026-01-07 13:07:19.64	325.07	24.99	-23.4	-24.3	19.2	0.00e+00	0	43	102	1048576	7	3980
2026-01-07 13:07:20.64	325.19	24.85	-23.5	-24.4	19.1	0.00e+00	0	43	102	1048576	7	4009
2026-01-07 13:07:21.65	325.32	24.71	-23.5	-24.4	19.1	0.00e+00	0	43	102	1048576	7	4016
2026-01-07 13:07:22.66	325.44	24.56	-23.6	-24.6	19.0	0.00e+00	0	44	102	1048576	7	4064
2026-01-07 13:07:23.67	325.56	24.42	-23.8	-25.0	18.8	0.00e+00	0	44	102	1048576	7	4165
2026-01-07 13:07:24.67	325.68	24.28	-23.8	-25.1	18.8	0.00e+00	0	43	102	1048576	7	4191
2026-01-07 13:07:25.68	325.80	24.14	-24.0	-25.5	18.6	0.00e+00	0	43	102	1048576	7	4278
2026-01-07 13:07:26.69	325.92	24.00	-24.3	-25.7	18.3	0.00e+00	0	43	102	1048576	8	4210
2026-01-07 13:07:27.69	326.04	23.86	-24.3	-25.6	18.2	0.00e+00	0	43	102	1048576	8	4204
2026-01-07 13:07:28.70	326.16	23.72	-24.1	-25.3	18.4	0.00e+00	0	44	102	1048576	8	4130
2026-01-07 13:07:29.71	326.27	23.58	-24.1	-25.3	18.4	0.00e+00	0	44	102	1048576	8	4122
2026-01-07 13:07:30.71	326.39	23.44	-24.1	-25.3	18.4	0.00e+00	0	43	102	1048576	8	4129
2026-01-07 13:07:31.71	326.50	23.31	-24.1	-25.3	18.4	0.00e+00	0	44	102	1048576	8	4122
2026-01-07 13:07:32.72	326.61	23.17	-24.1	-25.3	18.4	0.00e+00	0	43	102	1048576	8	4128
2026-01-07 13:07:33.73	326.73	23.03	-24.1	-25.2	18.5	0.00e+00	0	44	102	1048576	8	4098
2026-01-07 13:07:34.74	326.84	22.90	-24.1	-25.2	18.5	0.00e+00	0	44	102	1048576	8	4092
2026-01-07 13:07:35.74	326.95	22.76	-24.2	-25.4	18.4	0.00e+00	0	44	102	1048576	8	4141
2026-01-07 13:07:36.75	327.06	22.63	-24.1	-25.3	18.4	0.00e+00	0	44	102	1048576	8	4114
2026-01-07 13:07:37.76	327.16	22.50	-23.9	-24.9	18.6	0.00e+00	0	44	102	1048576	8	4021
2026-01-07 13:07:38.76	327.27	22.36	-24.0	-25.0	18.6	0.00e+00	0	43	102	1048576	8	4047
2026-01-07 13:07:39.77	327.38	22.23	-24.0	-25.1	18.5	0.00e+00	0	43	102	1048576	8	4060
2026-01-07 13:07:40.77	327.48	22.10	-24.0	-25.0	18.5	0.00e+00	0	43	102	1048576	8	4055
2026-01-07 13:07:41.78	327.59	21.97	-24.1	-25.3	18.4	0.00e+00	0	43	102	1048576	8	4113
2026-01-07 13:07:42.78	327.69	21.84	-24.1	-25.3	18.4	0.00e+00	0	44	102	1048576	8	4116
2026-01-07 13:07:43.79	327.79	21.71	-24.2	-25.4	18.3	0.00e+00	0	43	102	1048576	8	4147
2026-01-07 13:07:44.79	327.90	21.58	-24.2	-25.5	18.3	0.00e+00	0	44	102	1048576	8	4179
2026-01-07 13:07:45.80	328.00	21.45	-24.3	-25.7	18.2	0.00e+00	0	43	102	1048576	8	4221
2026-01-07 13:07:46.80	328.10	21.32	-24.4	-25.9	18.1	0.00e+00	0	44	102	1048576	8	4286
2026-01-07 13:07:47.81	328.20	21.20	-24.4	-26.0	18.0	0.00e+00	0	43	102	1048576	8	4288
2026-01-07 13:07:48.81	328.30	21.07	-24.5	-26.0	18.0	0.00e+00	0	43	102	1048576	8	4303
2026-01-07 13:07:49.82	328.39	20.94	-24.7	-25.9	17.8	0.00e+00	0	44	102	1048576	9	4170
2026-01-07 13:07:50.83	328.49	20.82	-25.0	-26.6	17.4	0.00e+00	0	44	102	1048576	9	4330
2026-01-07 13:07:51.83	328.59	20.69	-24.8	-25.8	17.6	0.00e+00	0	43	102	1048576	10	4018
2026-01-07 13:07:52.84	328.69	20.57	-24.9	-25.9	17.5	0.00e+00	0	43	102	1048576	10	4053
2026-01-07 13:07:53.85	328.78	20.44	-24.8	-25.7	17.7	0.00e+00	0	44	102	1048576	10	3989
2026-01-07 13:07:54.86	328.88	20.32	-24.7	-25.5	17.8	0.00e+00	0	43	102	1048576	10	3939
2026-01-07 13:07:55.87	328.97	20.19	-24.7	-25.5	17.7	0.00e+00	0	44	102	1048576	10	3952
2026-01-07 13:07:56.87	329.06	20.07	-24.7	-25.5	17.8	0.00e+00	0	44	102	1048576	10	3941
2026-01-07 13:07:57.88	329.16	19.95	-24.7	-25.6	17.7	0.00e+00	0	43	102	1048576	10	3970
2026-01-07 13:07:58.89	329.25	19.83	-25.0	-26.2	17.3	0.00e+00	0	44	102	1048576	10	4128
2026-01-07 13:07:59.90	329.34	19.71	-24.9	-25.9	17.5	0.00e+00	0	44	102	1048576	10	4040
2026-01-07 13:08:00.90	329.43	19.59	-24.7	-25.5	17.7	0.00e+00	0	44	102	1048576	10	3941
2026-01-07 13:08:01.91	329.52	19.47	-24.6	-25.4	17.8	0.00e+00	0	43	102	1048576	10	3917
2026-01-07 13:08:02.91	329.61	19.35	-24.7	-25.5	17.7	0.00e+00	0	44	102	1048576	10	3950
2026-01-07 13:08:03.92	329.70	19.23	-24.7	-25.6	17.7	0.00e+00	0	44	102	1048576	10	3969
2026-01-07 13:08:04.93	329.78	19.11	-24.8	-25.8	17.6	0.00e+00	0	44	102	1048576	10	4025
2026-01-07 13:08:05.93	329.87	18.99	-24.8	-25.7	17.6	0.00e+00	0	44	102	1048576	10	4008
2026-01-07 13:08:06.94	329.96	18.87	-24.9	-25.9	17.5	0.00e+00	0	43	102	1048576	10	4041
2026-01-07 13:08:07.94	330.04	18.76	-24.9	-26.0	17.5	0.00e+00	0	43	102	1048576	10	4067
2026-01-07 13:08:08.95	330.13	18.64	-24.9	-26.0	17.5	0.00e+00	0	44	102	1048576	10	4064
2026-01-07 13:08:09.96	330.21	18.52	-25.0	-26.1	17.4	0.00e+00	0	43	102	1048576	10	4102
2026-01-07 13:08:10.97	330.30	18.41	-25.0	-26.3	17.3	0.00e+00	0	43	102	1048576	10	4142
2026-01-07 13:08:11.97	330.38	18.29	-25.0	-26.2	17.3	0.00e+00	0	43	102	1048576	10	4129
2026-01-07 13:08:12.98	330.46	18.18	-25.1	-26.4	17.2	0.00e+00	0	44	102	1048576	10	4172
2026-01-07 13:08:13.99	330.54	18.06	-25.1	-26.3	17.2	0.00e+00	0	43	102	1048576	10	4159
2026-01-07 13:08:15.00	330.63	17.95	-25.2	-26.6	17.1	0.00e+00	0	44	102	1048576	10	4218
2026-01-07 13:08:16.01	330.71	17.84	-25.1	-26.4	17.2	0.00e+00	0	43	102	1048576	10	4180
2026-01-07 13:08:17.02	330.79	17.72	-25.2	-26.6	17.1	0.00e+00	0	44	102	1048576	10	4215
2026-01-07 13:08:18.02	330.87	17.61	-25.2	-26.5	17.1	0.00e+00	0	44	102	1048576	10	4210
2026-01-07 13:08:19.03	330.95	17.50	-25.4	-26.9	16.9	0.00e+00	0	44	102	1048576	10	4314
2026-01-07 13:08:20.04	331.03	17.39	-25.2	-26.6	17.1	0.00e+00	0	44	102	1048576	10	4232
2026-01-07 13:08:21.04	331.10	17.28	-25.4	-27.0	16.8	0.00e+00	0	43	102	1048576	10	4341
2026-01-07 13:08:22.05	331.18	17.17	-25.3	-26.7	17.0	0.00e+00	0	43	102	1048576	10	4263
2026-01-07 13:08:23.05	331.26	17.06	-25.2	-26.6	17.0	0.00e+00	0	44	102	1048576	10	4237
2026-01-07 13:08:24.06	331.34	16.95	-25.4	-27.0	16.8	0.00e+00	0	44	102	1048576	10	4328
2026-01-07 13:08:25.07	331.41	16.84	-25.4	-27.1	16.8	0.00e+00	0	44	102	1048576	10	4353
2026-01-07 13:08:26.08	331.49	16.73	-25.4	-27.1	16.8	0.00e+00	0	44	102	1048576	10	4367
2026-01-07 13:08:27.08	331.56	16.62	-25.6	-26.9	16.6	0.00e+00	0	43	102	1048576	11	4189
2026-01-07 13:08:28.09	331.64	16.52	-25.7	-27.3	16.4	0.00e+00	0	44	102	1048576	11	4292
2026-01-07 13:08:29.10	331.71	16.41	-25.6	-27.0	16.5	0.00e+00	0	44	102	1048576	11	4233
2026-01-07 13:08:30.11	331.79	16.30	-25.6	-27.0	16.5	0.00e+00	0	44	102	1048576	11	4219
2026-01-07 13:08:31.11	331.86	16.19	-25.7	-27.3	16.4	0.00e+00	0	44	102	1048576	11	4297
2026-01-07 13:08:32.12	331.93	16.09	-25.7	-27.1	16.5	0.00e+00	0	43	102	1048576	11	4263
2026-01-07 13:08:33.13	332.00	15.98	-25.9	-27.6	16.2	0.00e+00	0	44	102	1048576	11	4386
2026-01-07 13:08:34.14	332.08	15.88	-25.8	-27.3	16.3	0.00e+00	0	43	102	1048576	11	4313
2026-01-07 13:08:35.15	332.15	15.77	-25.7	-27.2	16.4	0.00e+00	0	44	102	1048576	11	4285
2026-01-07 13:08:36.16	332.22	15.67	-25.7	-27.2	16.4	0.00e+00	0	44	102	1048576	11	4280
2026-01-07 13:08:37.16	332.29	15.56	-25.7	-27.2	16.4	0.00e+00	0	44	102	1048576	11	4281
2026-01-07 13:08:38.17	332.36	15.46	-25.8	-27.4	16.2	0.00e+00	0	44	102	1048576	11	4341
2026-01-07 13:08:39.17	332.43	15.36	-25.9	-27.7	16.1	0.00e+00	0	44	102	1048576	11	4402
2026-01-07 13:08:40.18	332.50	15.25	-25.9	-27.6	16.2	0.00e+00	0	43	102	1048576	11	4377
2026-01-07 13:08:41.19	332.56	15.15	-25.9	-27.6	16.1	0.00e+00	0	44	102	1048576	11	4394
2026-01-07 13:08:42.20	332.63	15.05	-25.9	-27.7	16.1	0.00e+00	0	43	102	1048576	11	4403
2026-01-07 13:08:43.21	332.70	14.95	-25.9	-27.2	16.0	0.00e+00	0	44	102	1048576	12	4172
2026-01-07 13:08:44.21	332.77	14.85	-25.9	-27.2	16.0	0.00e+00	0	44	102	1048576	12	4158
2026-01-07 13:08:45.22	332.83	14.75	-26.0	-27.5	15.9	0.00e+00	0	44	102	1048576	12	4236
2026-01-07 13:08:46.23	332.90	14.65	-25.8	-27.0	16.1	0.00e+00	0	44	102	1048576	12	4126
2026-01-07 13:08:47.23	332.97	14.55	-25.9	-27.1	16.1	0.00e+00	0	44	102	1048576	12	4129
2026-01-07 13:08:48.24	333.03	14.45	-25.9	-27.1	16.1	0.00e+00	0	44	102	1048576	12	4138
2026-01-07 13:08:49.24	333.10	14.35	-25.9	-27.1	16.0	0.00e+00	0	44	102	1048576	12	4134
2026-01-07 13:08:50.26	333.16	14.25	-26.0	-27.4	15.8	0.00e+00	0	44	102	1048576	12	4229
2026-01-07 13:08:51.26	333.23	14.15	-26.1	-27.6	15.7	0.00e+00	0	44	102	1048576	12	4285
2026-01-07 13:08:52.27	333.29	14.05	-26.1	-27.6	15.7	0.00e+00	0	44	102	1048576	12	4274
2026-01-07 13:08:53.27	333.35	13.96	-26.1	-27.5	15.7	0.00e+00	0	44	102	1048576	12	4254
2026-01-07 13:08:54.28	333.42	13.86	-26.1	-27.6	15.7	0.00e+00	0	44	102	1048576	12	4273
2026-01-07 13:08:55.29	333.48	13.76	-26.2	-27.8	15.6	0.00e+00	0	44	102	1048576	12	4326
2026-01-07 13:08:56.30	333.54	13.66	-26.1	-27.6	15.7	0.00e+00	0	44	102	1048576	12	4275
2026-01-07 13:08:57.31	333.60	13.57	-26.2	-27.8	15.6	0.00e+00	0	44	102	1048576	12	4328
2026-01-07 13:08:58.31	333.67	13.47	-26.1	-27.6	15.7	0.00e+00	0	43	102	1048576	12	4287
2026-01-07 13:08:59.32	333.73	13.38	-26.1	-27.7	15.7	0.00e+00	0	44	102	1048576	12	4293
2026-01-07 13:09:00.32	333.79	13.28	-26.2	-27.8	15.6	0.00e+00	0	44	102	1048576	12	4325
2026-01-07 13:09:01.33	333.85	13.19	-26.2	-27.8	15.6	0.00e+00	0	43	102	1048576	12	4334
2026-01-07 13:09:02.34	333.91	13.09	-26.3	-27.9	15.5	0.00e+00	0	43	102	1048576	12	4371
2026-01-07 13:09:03.34	333.97	13.00	-26.2	-27.9	15.5	0.00e+00	0	44	102	1048576	12	4356
2026-01-07 13:09:04.35	334.03	12.90	-26.3	-28.1	15.4	0.00e+00	0	44	102	1048576	12	4412
2026-01-07 13:09:05.36	334.09	12.81	-26.2	-27.8	15.6	0.00e+00	0	44	102	1048576	12	4326
2026-01-07 13:09:06.36	334.15	12.72	-26.2	-27.8	15.6	0.00e+00	0	44	102	1048576	12	4323
2026-01-07 13:09:07.37	334.20	12.62	-26.3	-27.9	15.5	0.00e+00	0	44	102	1048576	12	4373
2026-01-07 13:09:08.38	334.26	12.53	-26.3	-28.1	15.4	0.00e+00	0	44	102	1048576	12	4411
2026-01-07 13:09:09.39	334.32	12.44	-26.2	-27.9	15.5	0.00e+00	0	44	102	1048576	12	4365
2026-01-07 13:09:10.40	334.38	12.35	-26.4	-28.2	15.3	0.00e+00	0	43	102	1048576	12	4455
2026-01-07 13:09:11.40	334.43	12.26	-26.4	-28.2	15.3	0.00e+00	0	44	102	1048576	12	4445
2026-01-07 13:09:12.42	334.49	12.16	-26.2	-27.9	15.4	0.00e+00	0	44	102	1048576	12	4365
2026-01-07 13:09:13.43	334.55	12.07	-26.3	-28.0	15.4	0.00e+00	0	44	102	1048576	12	4398
2026-01-07 13:09:14.44	334.61	11.98	-26.3	-28.1	15.3	0.00e+00	0	43	102	1048576	12	4410
2026-01-07 13:09:15.44	334.66	11.89	-26.3	-28.1	15.3	0.00e+00	0	44	102	1048576	12	4422
2026-01-07 13:09:16.44	334.72	11.80	-26.4	-28.3	15.2	0.00e+00	0	44	102	1048576	12	4475
2026-01-07 13:09:17.45	334.77	11.71	-26.3	-28.1	15.3	0.00e+00	0	44	102	1048576	12	4419
2026-01-07 13:09:18.46	334.83	11.62	-26.6	-28.2	15.0	0.00e+00	0	44	102	1048576	13	4327
2026-01-07 13:09:19.47	334.88	11.53	-26.9	-28.8	14.7	0.00e+00	0	43	102	1048576	13	4499
2026-01-07 13:09:20.48	334.94	11.44	-26.9	-28.4	14.6	1.10e-06	0	43	102	1048576	14	4277
2026-01-07 13:09:21.48	334.99	11.36	-26.6	-27.7	15.0	0.00e+00	0	44	102	1048576	14	4096
2026-01-07 13:09:22.49	335.04	11.27	-26.4	-27.3	15.2	0.00e+00	0	44	102	1048576	14	3996
2026-01-07 13:09:23.49	335.10	11.18	-26.3	-27.0	15.4	0.00e+00	0	44	102	1048576	14	3911
2026-01-07 13:09:24.50	335.15	11.09	-26.3	-27.1	15.3	0.00e+00	0	44	102	1048576	14	3933
2026-01-07 13:09:25.51	335.20	11.00	-26.3	-27.0	15.4	0.00e+00	0	44	102	1048576	14	3914
2026-01-07 13:09:26.51	335.25	10.92	-26.4	-27.2	15.3	0.00e+00	0	44	102	1048576	14	3958
2026-01-07 13:09:27.52	335.31	10.83	-26.3	-27.1	15.3	0.00e+00	0	44	102	1048576	14	3938
2026-01-07 13:09:28.53	335.36	10.74	-26.4	-27.2	15.3	0.00e+00	0	44	102	1048576	14	3958
2026-01-07 13:09:29.53	335.41	10.66	-26.3	-27.1	15.3	0.00e+00	0	43	102	1048576	14	3928
2026-01-07 13:09:30.54	335.46	10.57	-26.3	-27.1	15.3	0.00e+00	0	43	102	1048576	14	3944
2026-01-07 13:09:31.55	335.51	10.49	-26.5	-27.5	15.1	0.00e+00	0	44	102	1048576	14	4033
2026-01-07 13:09:32.56	335.56	10.40	-26.5	-27.5	15.0	0.00e+00	0	44	102	1048576	14	4042
2026-01-07 13:09:33.56	335.61	10.32	-26.5	-27.6	15.0	0.00e+00	0	43	102	1048576	14	4056
2026-01-07 13:09:34.57	335.66	10.23	-26.7	-27.9	14.8	0.00e+00	0	44	102	1048576	14	4137
2026-01-07 13:09:35.58	335.72	10.15	-26.7	-27.9	14.8	0.00e+00	0	44	102	1048576	14	4134
2026-01-07 13:09:36.58	335.76	10.06	-26.6	-27.7	14.9	0.00e+00	0	43	102	1048576	14	4092
2026-01-07 13:09:37.58	335.81	9.98	-26.7	-27.9	14.8	0.00e+00	0	44	102	1048576	14	4147
2026-01-07 13:09:38.59	335.86	9.90	-26.5	-27.6	14.9	0.00e+00	0	44	102	1048576	14	4072
2026-01-07 13:09:39.59	335.91	9.81	-26.5	-27.5	15.0	0.00e+00	0	44	102	1048576	14	4039
2026-01-07 13:09:40.60	335.96	9.73	-26.5	-27.6	15.0	0.00e+00	0	44	102	1048576	14	4062
2026-01-07 13:09:41.61	336.01	9.65	-26.5	-27.6	14.9	0.00e+00	0	44	102	1048576	14	4071
2026-01-07 13:09:42.61	336.06	9.57	-26.6	-27.8	14.8	0.00e+00	0	44	102	1048576	14	4137
2026-01-07 13:09:43.62	336.11	9.48	-26.6	-27.8	14.8	0.00e+00	0	44	102	1048576	14	4124
2026-01-07 13:09:44.63	336.15	9.40	-26.7	-27.9	14.8	0.00e+00	0	44	102	1048576	14	4141
2026-01-07 13:09:45.64	336.20	9.32	-26.7	-27.9	14.8	0.00e+00	0	44	102	1048576	14	4155
2026-01-07 13:09:46.64	336.25	9.24	-26.6	-27.9	14.8	0.00e+00	0	44	102	1048576	14	4142
2026-01-07 13:09:47.64	336.30	9.16	-26.8	-28.3	14.5	0.00e+00	0	44	102	1048576	14	4263
2026-01-07 13:09:48.65	336.34	9.08	-27.0	-28.6	14.3	1.10e-06	0	43	102	1048576	14	4335
2026-01-07 13:09:49.66	336.39	8.99	-26.9	-28.4	14.4	0.00e+00	0	44	102	1048576	14	4283
2026-01-07 13:09:50.66	336.43	8.91	-27.0	-28.6	14.3	1.10e-06	0	44	102	1048576	14	4334
2026-01-07 13:09:51.67	336.48	8.83	-26.9	-28.5	14.4	0.00e+00	0	44	102	1048576	14	4319
2026-01-07 13:09:52.67	336.53	8.75	-27.0	-28.6	14.3	0.00e+00	0	44	102	1048576	14	4346
2026-01-07 13:09:53.69	336.57	8.67	-27.0	-28.6	14.3	0.00e+00	0	44	102	1048576	14	4333
2026-01-07 13:09:54.69	336.62	8.59	-27.1	-29.0	14.1	2.20e-06	0	44	102	1048576	14	4453
2026-01-07 13:09:55.70	336.66	8.52	-27.2	-29.1	14.0	2.20e-06	0	44	102	1048576	14	4491
2026-01-07 13:09:56.71	336.71	8.44	-27.2	-29.2	13.9	2.20e-06	0	44	102	1048576	14	4510
2026-01-07 13:09:57.72	336.75	8.36	-27.4	-29.5	13.7	0.00e+00	0	44	102	1048576	14	4625
2026-01-07 13:09:58.72	336.80	8.28	-27.4	-29.5	13.7	5.70e-06	0	43	102	1048576	14	4616
