passes_logs/2026/01/07/R2M6_AANII_01/R2M6_AANII_01__20260107_013539_NOAA_21_JPSS-2_rec.log

#Pass ID: 20260107_013539_NOAA 21 (JPSS-2)
#Satellite: NOAA 21 (JPSS-2)
#Configuration: NOAA 21
#almurnet v.1.7.20240730
#Start time: 2026-01-07 01:36:55

#Version: 2.2.20231116
#Station: R2M6_AANII_01
#Location: 30.233357 lon 59.946436 lat
#TLE: 1 54234U 22150A   26005.56767909  .00000152  00000+0  92756-4 0  9990
#TLE: 2 54234  98.7490 306.5820 0001036 340.2747  19.8389 14.19532370163472

#Time	Az	El	Level	Level2	SNR	BER	BlckErr	Temp	State	Recorded	gain1	gain2
2026-01-07 01:36:55.59	6.93	12.95	-33.1	-44.3	3.8	8.47e-01	0	43	0	0	26	13057
2026-01-07 01:36:56.59	6.84	13.04	-33.7	-45.7	3.8	1.49e+00	0	43	104	0	27	14443
2026-01-07 01:36:57.60	6.74	13.13	-33.7	-45.8	3.8	1.49e+00	0	43	104	0	27	14517
2026-01-07 01:36:58.61	6.65	13.21	-33.7	-45.9	3.8	1.49e+00	0	44	104	0	27	14574
2026-01-07 01:36:59.62	6.55	13.30	-33.8	-46.0	3.8	1.49e+00	0	43	104	0	27	14620
2026-01-07 01:37:00.63	6.46	13.39	-33.8	-46.0	3.8	1.49e+00	0	44	104	0	27	14653
2026-01-07 01:37:01.63	6.36	13.48	-33.8	-46.0	3.8	1.49e+00	0	44	104	0	27	14679
2026-01-07 01:37:02.64	6.26	13.57	-33.9	-46.1	3.8	1.49e+00	0	44	104	0	27	14739
2026-01-07 01:37:03.64	6.17	13.65	-33.9	-46.1	3.8	1.49e+00	0	44	104	0	27	14743
2026-01-07 01:37:04.65	6.07	13.74	-33.9	-46.2	3.8	1.49e+00	0	43	104	0	27	14817
2026-01-07 01:37:05.66	5.97	13.83	-33.9	-46.2	3.8	1.49e+00	0	44	104	0	27	14791
2026-01-07 01:37:06.66	5.87	13.92	-33.9	-46.2	3.8	1.49e+00	0	44	104	0	27	14811
2026-01-07 01:37:07.67	5.77	14.01	-33.9	-46.2	3.8	1.49e+00	0	43	104	0	27	14777
2026-01-07 01:37:08.67	5.67	14.10	-33.9	-46.2	3.8	1.49e+00	0	44	104	0	27	14814
2026-01-07 01:37:09.68	5.57	14.19	-33.9	-46.2	3.8	1.49e+00	0	43	104	0	27	14826
2026-01-07 01:37:10.69	5.46	14.28	-33.9	-46.2	3.8	1.49e+00	0	44	104	0	27	14824
2026-01-07 01:37:11.69	5.36	14.37	-33.9	-46.2	3.8	1.49e+00	0	44	104	0	27	14814
2026-01-07 01:37:12.70	5.26	14.46	-33.9	-46.2	3.8	1.49e+00	0	44	104	0	27	14811
2026-01-07 01:37:13.71	5.15	14.55	-34.0	-46.3	3.8	1.49e+00	0	44	104	0	27	14875
2026-01-07 01:37:14.72	5.05	14.64	-33.9	-45.7	3.8	1.49e+00	0	44	104	0	28	13971
2026-01-07 01:37:15.72	4.94	14.73	-33.9	-45.7	3.8	1.49e+00	0	44	104	0	28	13954
2026-01-07 01:37:16.72	4.84	14.82	-33.9	-45.6	3.8	1.49e+00	0	44	104	0	28	13877
2026-01-07 01:37:17.74	4.73	14.92	-33.9	-46.3	3.8	1.49e+00	0	44	104	0	27	14877
2026-01-07 01:37:18.74	4.62	15.01	-33.9	-46.2	3.8	1.49e+00	0	44	104	0	27	14813
2026-01-07 01:37:19.74	4.52	15.10	-34.0	-46.2	3.8	1.49e+00	0	44	104	0	27	14794
2026-01-07 01:37:20.75	4.41	15.19	-33.9	-46.2	3.8	1.49e+00	0	44	104	0	27	14764
2026-01-07 01:37:21.75	4.30	15.29	-33.9	-46.1	3.8	1.49e+00	0	44	104	0	27	14754
2026-01-07 01:37:22.75	4.19	15.38	-33.8	-46.0	3.8	1.49e+00	0	44	104	0	27	14651
2026-01-07 01:37:23.75	4.08	15.47	-33.8	-45.9	3.8	1.49e+00	0	44	104	0	27	14544
2026-01-07 01:37:24.76	3.97	15.56	-33.7	-45.8	3.8	1.49e+00	0	43	104	0	27	14508
2026-01-07 01:37:25.77	3.85	15.66	-33.7	-45.7	3.8	1.49e+00	0	44	104	0	27	14326
2026-01-07 01:37:26.77	3.74	15.75	-33.6	-45.5	3.8	1.49e+00	0	43	104	0	27	14211
2026-01-07 01:37:27.78	3.63	15.85	-33.5	-45.0	3.8	1.49e+00	0	44	104	0	27	13617
2026-01-07 01:37:28.78	3.51	15.94	-33.3	-45.1	3.8	1.49e+00	0	44	104	0	26	14021
2026-01-07 01:37:29.79	3.40	16.04	-33.3	-45.1	3.8	1.49e+00	0	44	104	0	26	14084
2026-01-07 01:37:30.81	3.28	16.13	-33.2	-44.8	3.8	1.49e+00	0	44	104	0	26	13658
2026-01-07 01:37:31.81	3.17	16.23	-33.2	-44.5	3.8	1.49e+00	0	43	104	0	26	13259
2026-01-07 01:37:32.81	3.05	16.32	-33.2	-44.3	3.8	1.49e+00	0	44	104	0	26	12976
2026-01-07 01:37:33.82	2.93	16.42	-33.2	-44.2	3.8	1.49e+00	0	44	104	0	26	12845
2026-01-07 01:37:34.83	2.81	16.51	-33.1	-44.1	3.8	1.49e+00	0	44	104	0	26	12661
2026-01-07 01:37:35.84	2.69	16.61	-33.1	-44.0	3.8	1.49e+00	0	44	104	0	26	12502
2026-01-07 01:37:36.84	2.57	16.71	-33.1	-43.6	3.8	1.49e+00	0	44	104	0	26	12103
2026-01-07 01:37:37.85	2.45	16.80	-33.1	-43.6	3.8	1.49e+00	0	44	104	0	26	12045
2026-01-07 01:37:38.85	2.33	16.90	-33.1	-43.3	3.9	1.49e+00	0	44	104	0	26	11641
2026-01-07 01:37:39.86	2.20	17.00	-33.1	-43.8	3.8	1.49e+00	0	44	104	0	26	12367
2026-01-07 01:37:40.87	2.08	17.09	-33.2	-44.5	3.8	1.49e+00	0	44	104	0	26	13153
2026-01-07 01:37:41.87	1.96	17.19	-33.3	-45.0	3.8	1.49e+00	0	44	104	0	26	13917
2026-01-07 01:37:42.88	1.83	17.29	-33.3	-45.3	3.8	1.49e+00	0	43	104	0	26	14367
2026-01-07 01:37:43.88	1.70	17.39	-33.1	-44.0	3.8	1.49e+00	0	44	104	0	26	12567
2026-01-07 01:37:44.89	1.58	17.49	-32.8	-41.4	3.9	1.48e+00	0	44	104	0	26	9687
2026-01-07 01:37:45.90	1.45	17.58	-32.3	-38.3	5.6	1.46e+00	0	44	104	0	25	7250
2026-01-07 01:37:46.90	1.32	17.68	-31.6	-36.6	7.3	1.72e-01	0	44	102	1048576	23	6383
2026-01-07 01:37:47.91	1.19	17.78	-31.2	-34.9	8.5	5.63e-02	0	44	102	1048576	23	5557
2026-01-07 01:37:48.92	1.06	17.88	-30.8	-34.2	9.4	1.77e-02	0	44	102	1048576	22	5340
2026-01-07 01:37:49.92	0.93	17.98	-30.5	-34.0	9.8	1.01e-02	0	43	102	1048576	21	5372
2026-01-07 01:37:50.93	0.79	18.08	-30.4	-33.6	10.1	7.24e-03	0	44	102	1048576	21	5211
2026-01-07 01:37:51.94	0.66	18.18	-29.4	-33.0	10.1	4.63e-03	0	43	102	1048576	20	5462
2026-01-07 01:37:52.95	0.53	18.28	-30.2	-33.7	9.7	4.36e-03	0	44	102	1048576	20	5350
2026-01-07 01:37:53.95	0.39	18.38	-30.3	-33.7	10.4	3.60e-03	0	43	102	1048576	20	5330
2026-01-07 01:37:54.96	0.26	18.48	-30.3	-33.8	10.0	4.67e-03	0	44	102	1048576	20	5396
2026-01-07 01:37:55.97	0.12	18.59	-30.2	-33.5	10.4	4.32e-03	0	44	102	1048576	20	5267
2026-01-07 01:37:56.98	359.98	18.69	-29.6	-32.4	11.7	1.71e-03	0	43	102	1048576	19	4942
2026-01-07 01:37:57.99	359.84	18.79	-29.2	-31.8	12.4	2.30e-04	0	43	102	1048576	18	4867
2026-01-07 01:37:59.00	359.70	18.89	-28.7	-31.1	13.1	4.95e-05	0	44	102	1048576	17	4749
2026-01-07 01:38:00.00	359.56	18.99	-28.4	-30.8	13.7	9.10e-06	0	44	102	1048576	16	4760
2026-01-07 01:38:01.00	359.42	19.09	-28.1	-30.0	14.2	4.50e-06	0	44	102	1048576	16	4499
2026-01-07 01:38:02.01	359.28	19.20	-27.7	-29.8	14.4	4.62e-03	0	43	102	1048576	15	4552
2026-01-07 01:38:03.02	359.13	19.30	-27.5	-29.3	14.7	5.43e-04	0	43	102	1048576	15	4430
2026-01-07 01:38:04.03	358.99	19.40	-27.4	-29.5	14.9	0.00e+00	0	44	102	1048576	14	4575
2026-01-07 01:38:05.04	358.84	19.51	-27.3	-29.4	15.0	0.00e+00	0	44	102	1048576	14	4544
2026-01-07 01:38:06.04	358.69	19.61	-27.3	-29.2	15.0	5.00e-04	0	44	102	1048576	14	4510
2026-01-07 01:38:07.04	358.55	19.71	-27.2	-29.1	15.1	4.16e-03	0	44	102	1048576	14	4464
2026-01-07 01:38:08.05	358.40	19.82	-27.3	-29.2	15.1	4.35e-03	0	44	102	1048576	14	4505
2026-01-07 01:38:09.05	358.25	19.92	-27.6	-29.4	14.7	9.48e-04	0	44	102	1048576	15	4445
2026-01-07 01:38:10.06	358.10	20.03	-27.5	-29.7	14.8	3.92e-03	0	43	102	1048576	14	4631
2026-01-07 01:38:11.07	357.94	20.13	-27.2	-29.0	15.2	5.17e-04	0	43	102	1048576	14	4424
2026-01-07 01:38:12.09	357.79	20.24	-27.3	-29.3	15.1	1.28e-03	0	44	102	1048576	14	4510
2026-01-07 01:38:13.09	357.64	20.34	-27.3	-29.1	15.1	4.27e-03	0	43	102	1048576	14	4476
2026-01-07 01:38:14.10	357.48	20.45	-27.1	-28.9	15.3	4.84e-03	0	44	102	1048576	14	4398
2026-01-07 01:38:15.11	357.32	20.55	-27.2	-29.0	15.2	1.36e-03	0	44	102	1048576	14	4425
2026-01-07 01:38:16.11	357.17	20.66	-27.3	-29.2	15.1	4.14e-03	0	44	102	1048576	14	4498
2026-01-07 01:38:17.12	357.01	20.76	-27.2	-28.9	15.2	4.18e-03	0	43	102	1048576	14	4418
2026-01-07 01:38:18.12	356.85	20.87	-27.2	-29.0	15.2	8.47e-04	0	44	102	1048576	14	4430
2026-01-07 01:38:19.13	356.69	20.98	-27.2	-29.0	15.2	3.66e-03	0	44	102	1048576	14	4445
2026-01-07 01:38:20.14	356.53	21.08	-27.3	-29.4	15.0	4.59e-03	0	44	102	1048576	14	4546
2026-01-07 01:38:21.15	356.36	21.19	-27.1	-28.8	15.3	0.00e+00	0	44	102	1048576	14	4379
2026-01-07 01:38:22.15	356.20	21.30	-27.0	-28.6	15.4	0.00e+00	0	44	102	1048576	14	4318
2026-01-07 01:38:23.16	356.03	21.40	-27.0	-29.0	15.5	0.00e+00	0	43	102	1048576	13	4545
2026-01-07 01:38:24.16	355.87	21.51	-26.8	-28.7	15.6	7.86e-04	0	44	102	1048576	13	4452
2026-01-07 01:38:25.16	355.70	21.62	-26.8	-28.7	15.6	3.65e-03	0	44	102	1048576	13	4467
2026-01-07 01:38:26.17	355.53	21.73	-26.8	-28.7	15.7	0.00e+00	0	44	102	1048576	13	4452
2026-01-07 01:38:27.18	355.36	21.83	-27.1	-28.9	15.3	0.00e+00	0	44	102	1048576	14	4396
2026-01-07 01:38:28.19	355.19	21.94	-27.5	-29.2	14.8	0.00e+00	0	43	102	1048576	15	4367
2026-01-07 01:38:29.19	355.02	22.05	-27.1	-28.8	15.3	0.00e+00	0	44	102	1048576	14	4372
2026-01-07 01:38:30.20	354.84	22.16	-26.8	-28.6	15.7	9.07e-04	0	44	102	1048576	13	4428
2026-01-07 01:38:31.21	354.67	22.27	-26.6	-28.1	16.0	0.00e+00	0	44	102	1048576	13	4289
2026-01-07 01:38:32.21	354.49	22.38	-26.4	-27.8	16.1	0.00e+00	0	44	102	1048576	13	4215
2026-01-07 01:38:33.22	354.31	22.49	-26.4	-28.3	16.2	0.00e+00	0	43	102	1048576	12	4457
2026-01-07 01:38:34.22	354.14	22.59	-26.4	-28.2	16.2	0.00e+00	0	44	102	1048576	12	4427
2026-01-07 01:38:35.24	353.95	22.71	-26.4	-28.2	16.2	3.62e-03	0	44	102	1048576	12	4422
2026-01-07 01:38:36.25	353.77	22.82	-26.3	-28.1	16.3	0.00e+00	0	44	102	1048576	12	4400
2026-01-07 01:38:37.25	353.59	22.92	-26.3	-28.0	16.3	0.00e+00	0	44	102	1048576	12	4386
2026-01-07 01:38:38.26	353.41	23.03	-26.5	-28.3	16.1	0.00e+00	0	43	102	1048576	12	4473
2026-01-07 01:38:39.26	353.22	23.14	-26.3	-27.9	16.3	0.00e+00	0	44	102	1048576	12	4359
2026-01-07 01:38:40.27	353.03	23.25	-26.2	-27.8	16.4	0.00e+00	0	44	102	1048576	12	4319
2026-01-07 01:38:41.27	352.85	23.36	-26.3	-28.0	16.3	0.00e+00	0	44	102	1048576	12	4377
2026-01-07 01:38:42.28	352.66	23.47	-26.3	-27.9	16.3	0.00e+00	0	44	102	1048576	12	4360
2026-01-07 01:38:43.29	352.47	23.59	-26.4	-28.2	16.2	0.00e+00	0	43	102	1048576	12	4441
2026-01-07 01:38:44.29	352.28	23.70	-26.4	-28.2	16.2	0.00e+00	0	44	102	1048576	12	4435
2026-01-07 01:38:45.30	352.08	23.81	-26.5	-28.4	16.1	0.00e+00	0	44	102	1048576	12	4503
2026-01-07 01:38:46.31	351.89	23.92	-26.7	-28.5	15.8	7.00e-07	0	44	102	1048576	13	4398
2026-01-07 01:38:47.31	351.69	24.03	-26.8	-28.7	15.7	0.00e+00	0	44	102	1048576	13	4454
2026-01-07 01:38:48.32	351.49	24.14	-26.6	-28.1	16.0	0.00e+00	0	44	102	1048576	13	4285
2026-01-07 01:38:49.32	351.29	24.25	-26.5	-27.8	16.2	0.00e+00	0	43	102	1048576	13	4213
2026-01-07 01:38:50.33	351.09	24.36	-26.4	-27.6	16.3	0.00e+00	0	44	102	1048576	13	4164
2026-01-07 01:38:51.33	350.89	24.47	-26.4	-27.8	16.2	0.00e+00	0	44	102	1048576	13	4198
2026-01-07 01:38:52.34	350.69	24.58	-26.4	-28.2	16.3	0.00e+00	0	43	102	1048576	12	4422
2026-01-07 01:38:53.34	350.49	24.69	-26.5	-28.0	16.1	0.00e+00	0	44	102	1048576	13	4259
2026-01-07 01:38:54.35	350.28	24.81	-26.8	-28.6	15.8	0.00e+00	0	44	102	1048576	13	4425
2026-01-07 01:38:55.36	350.07	24.92	-26.7	-28.5	15.8	0.00e+00	0	44	102	1048576	13	4406
2026-01-07 01:38:56.36	349.86	25.03	-26.8	-28.7	15.7	0.00e+00	0	44	102	1048576	13	4471
2026-01-07 01:38:57.37	349.65	25.14	-26.6	-28.2	16.0	0.00e+00	0	44	102	1048576	13	4313
2026-01-07 01:38:58.38	349.44	25.25	-26.5	-28.0	16.1	0.00e+00	0	44	102	1048576	13	4260
2026-01-07 01:38:59.39	349.22	25.37	-26.5	-27.9	16.2	0.00e+00	0	44	102	1048576	13	4242
2026-01-07 01:39:00.40	349.01	25.48	-26.4	-28.1	16.3	0.00e+00	0	43	102	1048576	12	4409
2026-01-07 01:39:01.40	348.79	25.59	-26.4	-28.1	16.3	0.00e+00	0	44	102	1048576	12	4403
2026-01-07 01:39:02.41	348.57	25.70	-26.4	-28.1	16.3	0.00e+00	0	44	102	1048576	12	4402
2026-01-07 01:39:03.41	348.35	25.81	-26.5	-27.9	16.2	0.00e+00	0	44	102	1048576	13	4227
2026-01-07 01:39:04.41	348.13	25.92	-26.4	-27.8	16.2	0.00e+00	0	44	102	1048576	13	4207
2026-01-07 01:39:05.42	347.91	26.04	-26.4	-28.2	16.3	0.00e+00	0	44	102	1048576	12	4437
2026-01-07 01:39:06.42	347.68	26.15	-26.6	-28.1	16.1	0.00e+00	0	44	102	1048576	13	4291
2026-01-07 01:39:07.43	347.46	26.26	-26.6	-28.1	16.1	0.00e+00	0	43	102	1048576	13	4280
2026-01-07 01:39:08.44	347.23	26.37	-26.4	-27.8	16.3	0.00e+00	0	44	102	1048576	13	4202
2026-01-07 01:39:09.43	347.00	26.48	-26.5	-27.8	16.2	0.00e+00	0	43	102	1048576	13	4211
2026-01-07 01:39:10.44	346.77	26.59	-26.5	-27.9	16.2	0.00e+00	0	43	102	1048576	13	4230
2026-01-07 01:39:11.45	346.54	26.70	-26.6	-28.0	16.1	0.00e+00	0	44	102	1048576	13	4265
2026-01-07 01:39:12.45	346.30	26.82	-26.4	-28.1	15.9	0.00e+00	0	44	102	1048576	13	4360
2026-01-07 01:39:13.45	346.07	26.93	-26.8	-28.7	14.8	0.00e+00	0	44	102	1048576	13	4456
2026-01-07 01:39:14.45	345.83	27.04	-27.1	-28.9	15.4	0.00e+00	0	44	102	1048576	14	4388
2026-01-07 01:39:15.46	345.59	27.15	-27.2	-29.1	15.1	7.00e-07	0	44	102	1048576	14	4453
2026-01-07 01:39:16.47	345.35	27.26	-27.3	-29.3	15.2	0.00e+00	0	43	102	1048576	14	4517
2026-01-07 01:39:17.48	345.10	27.37	-27.3	-29.2	15.3	0.00e+00	0	44	102	1048576	14	4482
2026-01-07 01:39:18.48	344.86	27.48	-27.1	-28.7	15.5	7.00e-07	0	43	102	1048576	14	4348
2026-01-07 01:39:19.49	344.61	27.59	-27.1	-28.7	15.5	0.00e+00	0	43	102	1048576	14	4352
2026-01-07 01:39:20.49	344.37	27.70	-27.2	-28.9	15.4	0.00e+00	0	43	102	1048576	14	4397
2026-01-07 01:39:21.49	344.12	27.81	-27.1	-28.8	15.5	0.00e+00	0	43	102	1048576	14	4379
2026-01-07 01:39:22.49	343.87	27.92	-27.2	-29.1	15.3	3.31e-03	0	44	102	1048576	14	4452
2026-01-07 01:39:23.50	343.61	28.03	-27.3	-29.2	15.3	0.00e+00	0	43	102	1048576	14	4473
2026-01-07 01:39:24.50	343.36	28.14	-27.2	-28.9	15.4	3.32e-03	0	43	102	1048576	14	4391
2026-01-07 01:39:25.51	343.10	28.25	-27.2	-28.9	15.5	0.00e+00	0	43	102	1048576	14	4402
2026-01-07 01:39:26.52	342.84	28.36	-27.2	-28.9	15.5	0.00e+00	0	44	102	1048576	14	4393
2026-01-07 01:39:27.52	342.58	28.47	-27.1	-28.8	15.5	3.67e-03	0	44	102	1048576	14	4380
2026-01-07 01:39:28.52	342.32	28.58	-27.2	-29.0	15.4	3.42e-03	0	44	102	1048576	14	4428
2026-01-07 01:39:29.53	342.06	28.69	-27.2	-29.0	15.4	0.00e+00	0	44	102	1048576	14	4428
2026-01-07 01:39:30.54	341.79	28.80	-27.2	-28.9	15.4	3.27e-03	0	44	102	1048576	14	4395
2026-01-07 01:39:31.55	341.52	28.91	-27.1	-28.8	14.1	0.00e+00	0	44	102	1048576	14	4379
2026-01-07 01:39:32.56	341.25	29.01	-27.2	-29.1	14.1	0.00e+00	0	43	102	1048576	14	4448
2026-01-07 01:39:33.57	340.98	29.12	-27.1	-28.8	15.5	3.28e-03	0	43	102	1048576	14	4373
2026-01-07 01:39:34.58	340.70	29.23	-27.0	-29.0	15.1	2.91e-03	0	44	102	1048576	13	4539
2026-01-07 01:39:35.58	340.43	29.34	-26.9	-28.9	15.6	0.00e+00	0	44	102	1048576	13	4503
2026-01-07 01:39:36.59	340.15	29.44	-26.9	-28.9	15.7	2.71e-03	0	43	102	1048576	13	4507
2026-01-07 01:39:37.59	339.87	29.55	-27.0	-28.6	15.6	2.46e-03	0	44	102	1048576	14	4309
2026-01-07 01:39:38.60	339.59	29.65	-26.9	-28.7	15.8	0.00e+00	0	43	102	1048576	13	4451
2026-01-07 01:39:39.61	339.31	29.76	-26.8	-28.6	15.9	2.38e-03	0	43	102	1048576	13	4416
2026-01-07 01:39:40.61	339.03	29.86	-26.7	-28.4	16.0	2.32e-03	0	43	102	1048576	13	4360
2026-01-07 01:39:41.62	338.74	29.97	-26.7	-28.3	16.0	1.20e-03	0	44	102	1048576	13	4349
2026-01-07 01:39:42.63	338.45	30.07	-26.6	-28.2	16.1	0.00e+00	0	44	102	1048576	13	4305
2026-01-07 01:39:43.63	338.16	30.18	-26.6	-28.2	16.1	7.78e-04	0	44	102	1048576	13	4311
2026-01-07 01:39:44.64	337.87	30.28	-26.8	-28.5	15.9	2.73e-04	0	44	102	1048576	13	4402
2026-01-07 01:39:45.65	337.57	30.38	-26.8	-28.6	15.8	2.55e-04	0	44	102	1048576	13	4435
2026-01-07 01:39:46.66	337.28	30.49	-26.9	-28.9	15.7	4.00e-04	0	43	102	1048576	13	4502
2026-01-07 01:39:47.66	336.98	30.59	-27.1	-28.7	15.6	2.08e-04	0	44	102	1048576	14	4340
2026-01-07 01:39:48.67	336.68	30.69	-27.0	-28.6	15.7	0.00e+00	0	44	102	1048576	14	4303
2026-01-07 01:39:49.68	336.38	30.79	-27.1	-28.7	15.6	1.67e-04	0	43	102	1048576	14	4334
2026-01-07 01:39:50.69	336.07	30.89	-27.1	-28.7	15.6	5.03e-04	0	43	102	1048576	14	4335
2026-01-07 01:39:51.69	335.77	30.99	-27.2	-29.0	15.4	0.00e+00	0	44	102	1048576	14	4421
2026-01-07 01:39:52.70	335.46	31.09	-27.2	-29.0	15.4	0.00e+00	0	44	102	1048576	14	4427
2026-01-07 01:39:53.71	335.15	31.19	-27.2	-29.1	15.4	1.98e-05	0	44	102	1048576	14	4449
2026-01-07 01:39:54.71	334.84	31.29	-27.5	-29.7	15.0	0.00e+00	0	44	102	1048576	14	4621
2026-01-07 01:39:55.72	334.53	31.38	-27.3	-29.3	15.2	3.33e-04	0	44	102	1048576	14	4512
2026-01-07 01:39:56.73	334.21	31.48	-27.5	-29.5	15.1	7.17e-05	0	44	102	1048576	14	4583
2026-01-07 01:39:57.74	333.89	31.58	-27.4	-28.9	15.2	0.00e+00	0	43	102	1048576	15	4288
2026-01-07 01:39:58.75	333.57	31.67	-27.2	-29.0	15.4	5.88e-04	0	44	102	1048576	14	4431
2026-01-07 01:39:59.75	333.25	31.77	-27.5	-29.6	15.1	5.10e-04	0	44	102	1048576	14	4605
2026-01-07 01:40:00.76	332.93	31.86	-27.8	-29.9	14.6	0.00e+00	0	44	102	1048576	15	4568
2026-01-07 01:40:01.77	332.60	31.95	-27.8	-29.8	14.7	1.01e-04	0	44	102	1048576	15	4558
2026-01-07 01:40:02.77	332.28	32.05	-27.8	-29.8	14.7	2.16e-04	0	44	102	1048576	15	4530
2026-01-07 01:40:03.78	331.95	32.14	-27.7	-29.6	14.8	7.00e-07	0	44	102	1048576	15	4483
2026-01-07 01:40:04.79	331.62	32.23	-27.7	-29.7	14.7	4.55e-04	0	44	102	1048576	15	4523
2026-01-07 01:40:05.80	331.28	32.32	-27.6	-29.4	14.9	6.18e-04	0	43	102	1048576	15	4434
2026-01-07 01:40:06.81	330.95	32.41	-27.9	-30.0	14.5	0.00e+00	0	43	102	1048576	15	4615
2026-01-07 01:40:07.81	330.62	32.50	-27.8	-29.8	14.7	0.00e+00	0	44	102	1048576	15	4552
2026-01-07 01:40:08.82	330.28	32.58	-27.8	-29.7	14.8	0.00e+00	0	43	102	1048576	15	4525
2026-01-07 01:40:09.82	329.94	32.67	-27.9	-30.1	14.5	1.50e-06	0	43	102	1048576	15	4646
2026-01-07 01:40:10.83	329.60	32.76	-28.0	-29.7	14.6	1.50e-06	0	44	102	1048576	16	4388
2026-01-07 01:40:11.84	329.25	32.84	-28.0	-29.7	14.7	0.00e+00	0	44	102	1048576	16	4385
2026-01-07 01:40:12.84	328.91	32.92	-28.0	-29.8	14.6	7.00e-07	0	44	102	1048576	16	4432
2026-01-07 01:40:13.84	328.57	33.01	-28.2	-30.2	14.4	7.00e-07	0	43	102	1048576	16	4549
2026-01-07 01:40:14.85	328.22	33.09	-28.2	-30.3	14.3	7.00e-07	0	44	102	1048576	16	4567
2026-01-07 01:40:15.86	327.87	33.17	-28.0	-29.9	14.5	7.00e-07	0	43	102	1048576	16	4447
2026-01-07 01:40:16.87	327.51	33.25	-27.8	-29.9	14.7	3.04e-04	0	43	102	1048576	15	4561
2026-01-07 01:40:17.87	327.16	33.33	-27.8	-29.8	14.7	0.00e+00	0	44	102	1048576	15	4548
2026-01-07 01:40:18.88	326.81	33.41	-27.8	-29.8	14.7	7.00e-07	0	44	102	1048576	15	4545
2026-01-07 01:40:19.88	326.45	33.48	-27.9	-30.0	14.6	0.00e+00	0	43	102	1048576	15	4599
2026-01-07 01:40:20.89	326.09	33.56	-27.7	-29.6	14.8	0.00e+00	0	44	102	1048576	15	4489
2026-01-07 01:40:21.90	325.73	33.63	-27.8	-29.8	14.7	0.00e+00	0	43	102	1048576	15	4537
2026-01-07 01:40:22.91	325.37	33.71	-27.6	-29.4	14.9	7.00e-07	0	43	102	1048576	15	4438
2026-01-07 01:40:23.91	325.00	33.78	-27.6	-29.3	15.0	0.00e+00	0	44	102	1048576	15	4388
2026-01-07 01:40:24.92	324.64	33.85	-27.6	-29.4	15.0	0.00e+00	0	44	102	1048576	15	4410
2026-01-07 01:40:25.93	324.27	33.92	-27.5	-29.2	15.0	1.50e-06	0	44	102	1048576	15	4380
2026-01-07 01:40:26.93	323.90	33.99	-27.6	-29.5	14.9	0.00e+00	0	44	102	1048576	15	4449
2026-01-07 01:40:27.94	323.53	34.06	-27.9	-30.2	14.5	0.00e+00	0	44	102	1048576	15	4655
2026-01-07 01:40:28.95	323.16	34.12	-27.9	-30.1	14.5	0.00e+00	0	43	102	1048576	15	4637
2026-01-07 01:40:29.96	322.78	34.19	-28.2	-30.3	14.3	7.00e-07	0	43	102	1048576	16	4582
2026-01-07 01:40:30.96	322.41	34.25	-28.1	-30.0	14.5	7.00e-07	0	43	102	1048576	16	4488
2026-01-07 01:40:31.97	322.03	34.31	-28.1	-30.0	14.5	0.00e+00	0	44	102	1048576	16	4477
2026-01-07 01:40:32.98	321.66	34.38	-28.3	-30.4	14.3	7.00e-07	0	43	102	1048576	16	4595
2026-01-07 01:40:33.99	321.28	34.44	-28.3	-30.4	14.2	1.50e-06	0	43	102	1048576	16	4616
2026-01-07 01:40:34.99	320.90	34.49	-28.3	-30.4	14.2	7.00e-07	0	44	102	1048576	16	4608
2026-01-07 01:40:35.99	320.52	34.55	-28.2	-30.3	14.3	0.00e+00	0	44	102	1048576	16	4580
2026-01-07 01:40:36.99	320.14	34.61	-28.4	-30.6	14.1	2.20e-06	0	44	102	1048576	16	4673
2026-01-07 01:40:38.00	319.75	34.66	-28.2	-30.3	14.3	7.00e-07	0	44	102	1048576	16	4582
2026-01-07 01:40:39.01	319.36	34.72	-28.2	-30.2	14.3	3.69e-03	0	44	102	1048576	16	4554
2026-01-07 01:40:40.02	318.98	34.77	-28.1	-30.0	14.5	3.17e-03	0	44	102	1048576	16	4468
2026-01-07 01:40:41.02	318.59	34.82	-28.0	-29.8	14.7	0.00e+00	0	44	102	1048576	16	4406
2026-01-07 01:40:42.03	318.20	34.87	-28.1	-30.0	14.5	0.00e+00	0	44	102	1048576	16	4467
2026-01-07 01:40:43.03	317.81	34.91	-27.7	-29.6	14.9	0.00e+00	0	44	102	1048576	15	4467
2026-01-07 01:40:44.03	317.42	34.96	-27.7	-29.7	14.7	6.48e-05	0	44	102	1048576	15	4516
2026-01-07 01:40:45.04	317.03	35.00	-27.8	-29.9	14.7	3.74e-03	0	44	102	1048576	15	4563
2026-01-07 01:40:46.05	316.63	35.05	-28.3	-30.4	14.3	2.76e-03	0	44	102	1048576	16	4605
2026-01-07 01:40:47.05	316.24	35.09	-28.3	-30.6	14.2	7.00e-07	0	44	102	1048576	16	4653
2026-01-07 01:40:48.06	315.84	35.13	-28.4	-30.8	14.0	2.20e-06	0	44	102	1048576	16	4722
2026-01-07 01:40:49.07	315.45	35.17	-28.3	-30.6	14.1	0.00e+00	0	44	102	1048576	16	4644
2026-01-07 01:40:50.07	315.05	35.21	-28.2	-30.2	14.4	2.53e-04	0	43	102	1048576	16	4553
2026-01-07 01:40:51.07	314.65	35.24	-28.1	-30.1	14.5	1.95e-03	0	44	102	1048576	16	4491
2026-01-07 01:40:52.08	314.25	35.28	-28.1	-29.9	14.6	3.27e-03	0	44	102	1048576	16	4445
2026-01-07 01:40:53.09	313.85	35.31	-28.2	-30.1	14.4	2.79e-04	0	44	102	1048576	16	4505
2026-01-07 01:40:54.09	313.45	35.34	-28.3	-30.6	14.2	3.98e-03	0	44	102	1048576	16	4638
2026-01-07 01:40:55.10	313.05	35.37	-28.2	-30.3	14.4	3.70e-03	0	44	102	1048576	16	4555
2026-01-07 01:40:56.11	312.64	35.40	-28.1	-30.1	14.5	6.79e-04	0	44	102	1048576	16	4493
2026-01-07 01:40:57.12	312.24	35.42	-28.1	-30.0	14.5	3.76e-03	0	44	102	1048576	16	4489
2026-01-07 01:40:58.13	311.83	35.45	-28.1	-29.9	14.6	3.40e-03	0	44	102	1048576	16	4454
2026-01-07 01:40:59.13	311.43	35.47	-28.1	-29.9	14.6	4.44e-04	0	44	102	1048576	16	4429
2026-01-07 01:41:00.14	311.03	35.49	-28.2	-30.3	14.4	3.07e-03	0	44	102	1048576	16	4555
2026-01-07 01:41:01.15	310.62	35.51	-28.3	-30.3	14.3	3.93e-03	0	44	102	1048576	16	4574
2026-01-07 01:41:02.15	310.21	35.53	-28.5	-30.4	14.0	2.57e-04	0	43	102	1048576	17	4498
2026-01-07 01:41:03.16	309.81	35.55	-28.4	-30.8	14.1	2.41e-03	0	44	102	1048576	16	4718
2026-01-07 01:41:04.17	309.40	35.56	-28.8	-31.1	13.6	4.50e-06	0	44	102	1048576	17	4689
2026-01-07 01:41:05.17	308.99	35.57	-28.4	-30.3	14.1	4.08e-04	0	44	102	1048576	17	4445
2026-01-07 01:41:06.18	308.58	35.59	-28.4	-30.7	14.2	4.16e-03	0	43	102	1048576	16	4673
2026-01-07 01:41:07.19	308.17	35.60	-28.7	-30.9	13.8	3.71e-03	0	43	102	1048576	17	4632
2026-01-07 01:41:08.19	307.77	35.60	-28.7	-30.8	13.8	4.50e-06	0	43	102	1048576	17	4615
2026-01-07 01:41:09.20	307.36	35.61	-28.8	-31.1	13.6	7.60e-06	0	44	102	1048576	17	4710
2026-01-07 01:41:10.20	306.95	35.62	-28.7	-30.9	13.7	9.10e-06	0	44	102	1048576	17	4633
2026-01-07 01:41:11.21	306.54	35.62	-28.5	-30.5	14.0	4.50e-06	0	44	102	1048576	17	4501
2026-01-07 01:41:12.21	306.14	35.62	-28.2	-30.2	14.4	3.89e-03	0	44	102	1048576	16	4538
2026-01-07 01:41:13.22	305.73	35.62	-28.2	-30.3	14.3	7.00e-07	0	44	102	1048576	16	4572
2026-01-07 01:41:14.23	305.32	35.62	-28.4	-30.8	14.1	2.20e-06	0	44	102	1048576	16	4713
2026-01-07 01:41:15.23	304.91	35.62	-28.1	-30.0	14.5	0.00e+00	0	44	102	1048576	16	4475
2026-01-07 01:41:16.24	304.50	35.61	-28.2	-30.2	14.4	7.00e-07	0	44	102	1048576	16	4523
2026-01-07 01:41:17.24	304.09	35.60	-28.4	-30.8	14.1	7.00e-07	0	44	102	1048576	16	4720
2026-01-07 01:41:18.25	303.68	35.60	-28.1	-30.0	14.5	2.20e-06	0	44	102	1048576	16	4484
2026-01-07 01:41:19.25	303.28	35.59	-27.6	-29.4	15.0	7.00e-07	0	44	102	1048576	15	4423
2026-01-07 01:41:20.26	302.87	35.57	-27.7	-29.7	14.8	1.50e-06	0	44	102	1048576	15	4500
2026-01-07 01:41:21.26	302.47	35.56	-27.7	-29.6	14.9	0.00e+00	0	44	102	1048576	15	4463
2026-01-07 01:41:22.26	302.06	35.55	-27.6	-29.4	15.0	0.00e+00	0	44	102	1048576	15	4412
2026-01-07 01:41:23.27	301.65	35.53	-27.9	-30.0	14.7	0.00e+00	0	44	102	1048576	15	4588
2026-01-07 01:41:24.27	301.25	35.51	-27.8	-29.9	14.7	0.00e+00	0	44	102	1048576	15	4562
2026-01-07 01:41:25.27	300.85	35.49	-27.6	-29.4	15.0	0.00e+00	0	44	102	1048576	15	4429
2026-01-07 01:41:26.27	300.44	35.47	-27.7	-29.6	14.9	0.00e+00	0	44	102	1048576	15	4471
2026-01-07 01:41:27.27	300.04	35.45	-27.8	-29.8	14.7	7.00e-07	0	43	102	1048576	15	4547
2026-01-07 01:41:28.28	299.63	35.42	-27.5	-29.2	15.1	0.00e+00	0	44	102	1048576	15	4365
2026-01-07 01:41:29.29	299.23	35.40	-27.6	-29.4	15.0	0.00e+00	0	43	102	1048576	15	4415
2026-01-07 01:41:30.29	298.83	35.37	-28.2	-30.1	14.5	7.00e-07	0	44	102	1048576	16	4519
2026-01-07 01:41:31.30	298.42	35.34	-27.9	-29.6	14.7	0.00e+00	0	44	102	1048576	16	4363
2026-01-07 01:41:32.31	298.02	35.31	-27.7	-29.6	14.9	0.00e+00	0	44	102	1048576	15	4493
2026-01-07 01:41:33.31	297.62	35.28	-27.9	-30.1	14.6	7.00e-07	0	44	102	1048576	15	4639
2026-01-07 01:41:34.31	297.23	35.24	-28.2	-30.3	14.3	1.05e-03	0	43	102	1048576	16	4582
2026-01-07 01:41:35.32	296.83	35.21	-28.4	-30.8	14.1	7.51e-04	0	44	102	1048576	16	4705
2026-01-07 01:41:36.32	296.43	35.17	-28.8	-31.1	13.5	7.60e-06	0	44	102	1048576	17	4719
2026-01-07 01:41:37.32	296.04	35.13	-28.7	-30.8	13.7	4.50e-06	0	44	102	1048576	17	4626
2026-01-07 01:41:38.33	295.64	35.09	-28.7	-30.9	13.7	2.51e-05	0	43	102	1048576	17	4631
2026-01-07 01:41:39.34	295.24	35.05	-28.5	-30.4	14.0	1.50e-06	0	43	102	1048576	17	4498
2026-01-07 01:41:40.34	294.85	35.01	-28.5	-30.5	13.9	3.80e-06	0	44	102	1048576	17	4513
2026-01-07 01:41:41.34	294.46	34.96	-28.7	-30.8	13.8	3.80e-06	0	44	102	1048576	17	4628
2026-01-07 01:41:42.35	294.06	34.92	-28.7	-30.8	13.7	6.80e-06	0	43	102	1048576	17	4627
2026-01-07 01:41:43.36	293.67	34.87	-28.6	-30.7	13.8	4.50e-06	0	44	102	1048576	17	4582
2026-01-07 01:41:44.37	293.28	34.82	-28.5	-30.4	14.0	3.80e-06	0	44	102	1048576	17	4481
2026-01-07 01:41:45.38	292.89	34.77	-28.4	-30.1	14.1	3.00e-06	0	44	102	1048576	17	4415
2026-01-07 01:41:46.38	292.51	34.72	-28.1	-30.1	14.5	2.01e-04	0	44	102	1048576	16	4505
2026-01-07 01:41:47.39	292.12	34.66	-27.9	-29.6	14.7	0.00e+00	0	44	102	1048576	16	4357
2026-01-07 01:41:48.40	291.73	34.61	-27.6	-29.3	15.0	1.50e-06	0	43	102	1048576	15	4404
2026-01-07 01:41:49.41	291.35	34.55	-27.7	-29.5	14.9	4.00e-04	0	44	102	1048576	15	4460
2026-01-07 01:41:50.41	290.97	34.49	-27.7	-29.6	14.8	3.23e-04	0	43	102	1048576	15	4478
2026-01-07 01:41:51.42	290.58	34.44	-27.6	-29.5	14.9	0.00e+00	0	44	102	1048576	15	4435
2026-01-07 01:41:52.43	290.20	34.37	-27.7	-29.5	14.9	7.00e-07	0	43	102	1048576	15	4460
2026-01-07 01:41:53.44	289.82	34.31	-27.6	-29.3	15.0	2.20e-06	0	44	102	1048576	15	4387
2026-01-07 01:41:54.44	289.45	34.25	-27.6	-29.4	14.9	0.00e+00	0	44	102	1048576	15	4410
2026-01-07 01:41:55.45	289.07	34.19	-27.7	-29.5	14.9	4.65e-05	0	44	102	1048576	15	4458
2026-01-07 01:41:56.46	288.70	34.12	-27.8	-29.8	14.7	4.42e-04	0	44	102	1048576	15	4536
2026-01-07 01:41:57.47	288.32	34.05	-27.9	-30.1	14.6	1.50e-06	0	44	102	1048576	15	4635
2026-01-07 01:41:58.47	287.96	33.99	-28.0	-29.8	14.6	4.97e-04	0	44	102	1048576	16	4422
2026-01-07 01:41:59.47	287.59	33.92	-27.7	-29.6	14.8	1.50e-06	0	43	102	1048576	15	4473
2026-01-07 01:42:00.48	287.22	33.85	-27.7	-29.6	14.8	0.00e+00	0	44	102	1048576	15	4479
2026-01-07 01:42:01.49	286.85	33.78	-27.7	-29.7	14.8	9.74e-04	0	43	102	1048576	15	4517
2026-01-07 01:42:02.49	286.49	33.71	-27.7	-29.7	14.7	9.21e-04	0	43	102	1048576	15	4507
2026-01-07 01:42:03.50	286.13	33.63	-27.9	-30.2	14.5	0.00e+00	0	44	102	1048576	15	4664
2026-01-07 01:42:04.51	285.76	33.56	-28.3	-30.4	14.2	0.00e+00	0	43	102	1048576	16	4619
2026-01-07 01:42:05.51	285.41	33.48	-28.3	-30.5	14.2	7.00e-07	0	44	102	1048576	16	4626
2026-01-07 01:42:06.52	285.05	33.40	-28.2	-30.2	14.4	2.80e-03	0	43	102	1048576	16	4541
2026-01-07 01:42:07.53	284.69	33.33	-28.2	-30.1	14.4	3.20e-04	0	44	102	1048576	16	4525
2026-01-07 01:42:08.53	284.34	33.25	-27.8	-29.9	14.7	2.51e-04	0	44	102	1048576	15	4556
2026-01-07 01:42:09.53	283.99	33.17	-27.5	-29.2	15.0	0.00e+00	0	44	102	1048576	15	4361
2026-01-07 01:42:10.54	283.63	33.09	-27.4	-29.0	15.1	0.00e+00	0	44	102	1048576	15	4310
2026-01-07 01:42:11.54	283.29	33.00	-27.6	-29.4	14.9	1.84e-03	0	43	102	1048576	15	4416
2026-01-07 01:42:12.55	282.94	32.92	-27.8	-29.9	14.6	6.30e-04	0	44	102	1048576	15	4591
2026-01-07 01:42:13.56	282.59	32.84	-27.8	-29.9	14.6	4.75e-04	0	44	102	1048576	15	4589
2026-01-07 01:42:14.57	282.25	32.75	-27.8	-29.8	14.7	0.00e+00	0	44	102	1048576	15	4543
2026-01-07 01:42:15.58	281.90	32.67	-27.7	-29.6	14.8	7.01e-05	0	43	102	1048576	15	4493
2026-01-07 01:42:16.59	281.56	32.58	-27.4	-29.0	15.1	0.00e+00	0	44	102	1048576	15	4305
2026-01-07 01:42:17.59	281.23	32.49	-27.1	-28.7	15.5	4.29e-03	0	43	102	1048576	14	4346
2026-01-07 01:42:18.60	280.89	32.40	-27.1	-28.7	15.6	4.08e-03	0	44	102	1048576	14	4346
2026-01-07 01:42:19.60	280.56	32.31	-27.1	-28.8	15.6	0.00e+00	0	43	102	1048576	14	4358
2026-01-07 01:42:20.60	280.23	32.22	-27.2	-29.0	15.4	4.33e-03	0	43	102	1048576	14	4428
2026-01-07 01:42:21.60	279.90	32.13	-27.4	-29.4	15.2	4.87e-03	0	43	102	1048576	14	4525
2026-01-07 01:42:22.60	279.57	32.04	-27.6	-29.3	14.9	5.93e-04	0	43	102	1048576	15	4409
2026-01-07 01:42:23.61	279.24	31.95	-27.7	-29.5	14.8	4.33e-03	0	44	102	1048576	15	4473
2026-01-07 01:42:24.62	278.91	31.86	-27.6	-29.3	14.9	4.19e-03	0	44	102	1048576	15	4408
2026-01-07 01:42:25.62	278.59	31.76	-27.4	-28.9	15.1	2.59e-04	0	43	102	1048576	15	4292
2026-01-07 01:42:26.63	278.27	31.67	-27.3	-29.2	15.3	3.68e-03	0	43	102	1048576	14	4483
2026-01-07 01:42:27.64	277.95	31.57	-27.1	-28.7	15.5	2.84e-03	0	43	102	1048576	14	4348
2026-01-07 01:42:28.64	277.63	31.48	-27.0	-28.5	15.6	0.00e+00	0	44	102	1048576	14	4293
2026-01-07 01:42:29.65	277.32	31.38	-27.3	-29.1	15.3	7.13e-04	0	43	102	1048576	14	4455
2026-01-07 01:42:30.65	277.00	31.28	-27.6	-29.5	14.8	0.00e+00	0	43	102	1048576	15	4454
2026-01-07 01:42:31.66	276.69	31.18	-27.8	-30.0	14.5	0.00e+00	0	43	102	1048576	15	4610
2026-01-07 01:42:32.67	276.38	31.08	-27.8	-30.0	14.5	1.80e-03	0	44	102	1048576	15	4605
2026-01-07 01:42:33.67	276.07	30.99	-27.7	-29.6	14.7	2.53e-03	0	44	102	1048576	15	4484
2026-01-07 01:42:34.68	275.77	30.89	-27.6	-29.3	14.9	7.00e-07	0	44	102	1048576	15	4399
2026-01-07 01:42:35.68	275.46	30.79	-27.8	-29.8	14.6	7.00e-07	0	44	102	1048576	15	4530
2026-01-07 01:42:36.69	275.16	30.68	-27.5	-29.3	14.9	0.00e+00	0	44	102	1048576	15	4402
2026-01-07 01:42:37.69	274.86	30.58	-27.3	-28.7	15.2	0.00e+00	0	44	102	1048576	15	4223
2026-01-07 01:42:38.70	274.56	30.48	-27.3	-29.3	15.2	3.42e-03	0	44	102	1048576	14	4500
2026-01-07 01:42:39.70	274.26	30.38	-27.7	-29.6	14.7	4.02e-03	0	43	102	1048576	15	4490
2026-01-07 01:42:40.71	273.97	30.27	-28.1	-30.2	14.3	0.00e+00	0	43	102	1048576	16	4538
2026-01-07 01:42:41.71	273.68	30.17	-28.3	-30.7	14.0	5.30e-06	0	44	102	1048576	16	4695
2026-01-07 01:42:42.72	273.38	30.07	-28.3	-30.6	14.0	3.80e-06	0	43	102	1048576	16	4673
2026-01-07 01:42:43.72	273.10	29.96	-28.0	-29.7	14.5	7.00e-07	0	44	102	1048576	16	4402
2026-01-07 01:42:44.73	272.81	29.86	-27.3	-28.3	15.3	1.37e-03	0	44	102	1048576	16	4010
2026-01-07 01:42:45.74	272.52	29.75	-26.7	-27.8	16.0	0.00e+00	0	43	102	1048576	14	4105
2026-01-07 01:42:46.74	272.24	29.65	-26.6	-27.7	16.1	0.00e+00	0	43	102	1048576	14	4067
2026-01-07 01:42:47.75	271.96	29.54	-26.8	-28.7	15.7	0.00e+00	0	43	102	1048576	13	4449
2026-01-07 01:42:48.76	271.68	29.43	-27.1	-28.7	15.5	0.00e+00	0	44	102	1048576	14	4355
2026-01-07 01:42:49.77	271.40	29.33	-27.3	-29.2	15.2	0.00e+00	0	44	102	1048576	14	4488
2026-01-07 01:42:50.78	271.12	29.22	-27.2	-29.0	15.3	0.00e+00	0	44	102	1048576	14	4433
2026-01-07 01:42:51.78	270.85	29.11	-27.2	-28.9	15.4	0.00e+00	0	43	102	1048576	14	4394
2026-01-07 01:42:52.79	270.57	29.00	-27.2	-29.0	15.3	0.00e+00	0	44	102	1048576	14	4419
2026-01-07 01:42:53.79	270.30	28.89	-27.0	-28.6	15.5	0.00e+00	0	43	102	1048576	14	4327
2026-01-07 01:42:54.79	270.04	28.79	-27.0	-28.5	15.6	0.00e+00	0	44	102	1048576	14	4276
2026-01-07 01:42:55.80	269.77	28.68	-27.0	-28.5	15.6	3.00e-06	0	44	102	1048576	14	4285
2026-01-07 01:42:56.80	269.50	28.57	-27.1	-28.7	15.4	0.00e+00	0	44	102	1048576	14	4357
2026-01-07 01:42:57.81	269.24	28.46	-27.3	-29.1	15.2	0.00e+00	0	44	102	1048576	14	4467
2026-01-07 01:42:58.82	268.98	28.35	-27.3	-29.3	15.1	0.00e+00	0	44	102	1048576	14	4503
2026-01-07 01:42:59.83	268.72	28.24	-27.5	-29.7	14.9	0.00e+00	0	43	102	1048576	14	4628
2026-01-07 01:43:00.84	268.46	28.13	-27.4	-29.0	15.0	0.00e+00	0	44	102	1048576	15	4308
2026-01-07 01:43:01.84	268.20	28.02	-27.2	-28.5	15.3	6.10e-06	0	44	102	1048576	15	4171
2026-01-07 01:43:02.85	267.95	27.91	-27.0	-28.5	15.6	0.00e+00	0	44	102	1048576	14	4290
2026-01-07 01:43:03.86	267.69	27.80	-26.6	-27.7	16.0	0.00e+00	0	44	102	1048576	14	4084
2026-01-07 01:43:04.86	267.44	27.69	-26.7	-27.8	15.9	5.30e-06	0	44	102	1048576	14	4109
2026-01-07 01:43:05.87	267.19	27.58	-26.5	-27.5	16.1	0.00e+00	0	44	102	1048576	14	4008
2026-01-07 01:43:06.88	266.95	27.46	-26.3	-27.5	16.3	0.00e+00	0	44	102	1048576	13	4140
2026-01-07 01:43:07.88	266.70	27.35	-26.6	-28.1	16.0	1.06e-05	0	44	102	1048576	13	4281
2026-01-07 01:43:08.89	266.46	27.24	-26.7	-28.4	15.8	0.00e+00	0	44	102	1048576	13	4372
2026-01-07 01:43:09.90	266.21	27.13	-27.5	-29.2	15.5	0.00e+00	0	44	102	1048576	14	4386
2026-01-07 01:43:10.91	265.97	27.02	-27.2	-28.9	15.3	5.30e-06	0	44	102	1048576	14	4391
2026-01-07 01:43:11.92	265.73	26.91	-27.4	-29.4	15.0	0.00e+00	0	44	102	1048576	14	4550
2026-01-07 01:43:12.92	265.50	26.79	-27.0	-28.6	15.4	0.00e+00	0	44	102	1048576	14	4326
2026-01-07 01:43:13.92	265.26	26.68	-26.6	-28.1	16.0	2.48e-03	0	44	102	1048576	13	4296
2026-01-07 01:43:14.93	265.03	26.57	-26.4	-27.8	16.1	0.00e+00	0	44	102	1048576	13	4210
2026-01-07 01:43:15.94	264.79	26.46	-26.8	-28.7	15.7	0.00e+00	0	44	102	1048576	13	4444
2026-01-07 01:43:16.94	264.56	26.35	-26.9	-28.7	15.6	3.80e-06	0	44	102	1048576	13	4472
2026-01-07 01:43:17.95	264.33	26.23	-27.1	-28.9	15.3	0.00e+00	0	44	102	1048576	14	4388
2026-01-07 01:43:18.96	264.11	26.12	-27.3	-29.2	15.1	4.09e-03	0	44	102	1048576	14	4503
2026-01-07 01:43:19.96	263.88	26.01	-27.1	-28.8	15.3	4.05e-03	0	44	102	1048576	14	4388
2026-01-07 01:43:20.96	263.66	25.90	-27.0	-28.6	15.4	0.00e+00	0	44	102	1048576	14	4321
2026-01-07 01:43:21.97	263.43	25.79	-26.6	-28.2	15.9	0.00e+00	0	44	102	1048576	13	4324
2026-01-07 01:43:22.97	263.21	25.67	-26.5	-28.0	16.0	0.00e+00	0	44	102	1048576	13	4257
2026-01-07 01:43:23.98	262.99	25.56	-26.3	-27.6	16.2	0.00e+00	0	44	102	1048576	13	4151
2026-01-07 01:43:24.99	262.78	25.45	-26.4	-28.2	16.2	3.51e-03	0	44	102	1048576	12	4434
2026-01-07 01:43:26.00	262.56	25.34	-26.6	-28.2	15.9	3.51e-03	0	44	102	1048576	13	4323
2026-01-07 01:43:27.00	262.35	25.22	-26.5	-28.0	16.0	0.00e+00	0	44	102	1048576	13	4261
2026-01-07 01:43:28.01	262.13	25.11	-26.8	-28.7	15.6	0.00e+00	0	44	102	1048576	13	4474
2026-01-07 01:43:29.02	261.92	25.00	-26.6	-28.2	13.3	5.85e-04	0	43	102	1048576	13	4311
2026-01-07 01:43:30.02	261.71	24.89	-26.6	-28.2	14.3	0.00e+00	0	44	102	1048576	13	4315
2026-01-07 01:43:31.03	261.50	24.78	-26.7	-28.5	15.7	2.38e-04	0	44	102	1048576	13	4402
2026-01-07 01:43:32.04	261.29	24.66	-26.8	-28.7	15.6	2.30e-04	0	43	102	1048576	13	4454
2026-01-07 01:43:33.05	261.09	24.55	-26.6	-28.1	15.9	3.98e-03	0	43	102	1048576	13	4283
2026-01-07 01:43:34.05	260.88	24.44	-26.4	-27.7	16.2	0.00e+00	0	44	102	1048576	13	4179
2026-01-07 01:43:35.06	260.68	24.33	-26.2	-27.8	16.4	0.00e+00	0	43	102	1048576	12	4318
2026-01-07 01:43:36.07	260.48	24.22	-26.2	-27.8	16.4	0.00e+00	0	44	102	1048576	12	4326
2026-01-07 01:43:37.07	260.28	24.10	-26.0	-27.2	16.7	3.83e-04	0	44	102	1048576	12	4162
2026-01-07 01:43:38.08	260.08	23.99	-25.9	-27.6	16.8	4.82e-03	0	44	102	1048576	11	4374
2026-01-07 01:43:39.08	259.88	23.88	-26.3	-27.9	16.3	3.46e-03	0	44	102	1048576	12	4350
2026-01-07 01:43:40.09	259.69	23.77	-26.3	-27.9	16.3	2.21e-05	0	44	102	1048576	12	4364
2026-01-07 01:43:41.09	259.49	23.66	-26.7	-28.4	15.7	2.47e-03	0	44	102	1048576	13	4379
2026-01-07 01:43:42.09	259.30	23.55	-26.6	-28.3	15.8	3.98e-03	0	44	102	1048576	13	4340
2026-01-07 01:43:43.09	259.11	23.44	-26.6	-28.3	15.8	2.55e-03	0	44	102	1048576	13	4345
2026-01-07 01:43:44.10	258.92	23.33	-26.7	-28.4	15.7	3.82e-03	0	44	102	1048576	13	4386
2026-01-07 01:43:45.11	258.73	23.22	-26.7	-28.5	15.7	3.81e-03	0	44	102	1048576	13	4404
2026-01-07 01:43:46.11	258.54	23.11	-26.6	-28.2	15.8	1.57e-03	0	43	102	1048576	13	4337
2026-01-07 01:43:47.12	258.36	23.00	-26.7	-28.4	15.7	4.76e-03	0	44	102	1048576	13	4391
2026-01-07 01:43:48.13	258.17	22.89	-26.8	-28.7	15.6	3.47e-03	0	44	102	1048576	13	4467
2026-01-07 01:43:49.14	257.99	22.78	-26.7	-28.5	15.7	3.81e-05	0	44	102	1048576	13	4403
2026-01-07 01:43:50.14	257.81	22.67	-26.8	-28.8	15.5	3.78e-03	0	43	102	1048576	13	4487
2026-01-07 01:43:51.15	257.62	22.56	-26.9	-28.8	15.5	4.45e-03	0	43	102	1048576	13	4497
2026-01-07 01:43:52.16	257.44	22.45	-27.0	-29.0	15.4	0.00e+00	0	44	102	1048576	13	4560
2026-01-07 01:43:53.16	257.27	22.34	-26.9	-29.0	15.4	5.85e-03	0	44	102	1048576	13	4555
2026-01-07 01:43:54.17	257.09	22.23	-26.9	-28.9	15.4	4.75e-03	0	43	102	1048576	13	4532
2026-01-07 01:43:55.18	256.91	22.12	-26.7	-28.5	15.6	6.49e-04	0	44	102	1048576	13	4424
2026-01-07 01:43:56.19	256.74	22.01	-26.5	-28.0	15.9	4.73e-03	0	43	102	1048576	13	4268
2026-01-07 01:43:57.19	256.56	21.90	-26.4	-28.3	16.0	0.00e+00	0	44	102	1048576	12	4466
2026-01-07 01:43:58.20	256.39	21.79	-26.4	-28.2	16.1	9.10e-06	0	44	102	1048576	12	4451
2026-01-07 01:43:59.20	256.22	21.68	-26.2	-27.8	16.3	4.05e-03	0	44	102	1048576	12	4322
2026-01-07 01:44:00.21	256.05	21.58	-26.2	-27.8	16.3	4.01e-03	0	44	102	1048576	12	4315
2026-01-07 01:44:01.22	255.88	21.47	-26.3	-28.0	16.2	0.00e+00	0	43	102	1048576	12	4379
2026-01-07 01:44:02.21	255.72	21.36	-26.4	-28.2	16.1	0.00e+00	0	44	102	1048576	12	4439
2026-01-07 01:44:03.22	255.55	21.25	-26.6	-28.2	15.8	0.00e+00	0	44	102	1048576	13	4320
2026-01-07 01:44:04.22	255.39	21.15	-26.8	-28.6	15.6	2.20e-06	0	43	102	1048576	13	4432
2026-01-07 01:44:05.23	255.22	21.04	-26.6	-28.1	15.8	3.69e-03	0	44	102	1048576	13	4307
2026-01-07 01:44:06.24	255.06	20.93	-26.5	-27.9	15.9	0.00e+00	0	44	102	1048576	13	4247
2026-01-07 01:44:07.25	254.90	20.82	-26.3	-28.1	16.1	3.00e-06	0	44	102	1048576	12	4418
2026-01-07 01:44:08.26	254.74	20.72	-26.2	-27.9	16.2	0.00e+00	0	44	102	1048576	12	4359
2026-01-07 01:44:09.26	254.58	20.61	-26.2	-27.9	16.2	0.00e+00	0	44	102	1048576	12	4344
2026-01-07 01:44:10.27	254.42	20.51	-26.1	-27.7	16.3	7.60e-06	0	44	102	1048576	12	4297
2026-01-07 01:44:11.28	254.26	20.40	-26.2	-27.8	16.3	0.00e+00	0	44	102	1048576	12	4317
2026-01-07 01:44:12.28	254.11	20.29	-26.3	-28.1	16.1	0.00e+00	0	44	102	1048576	12	4408
2026-01-07 01:44:13.29	253.95	20.19	-26.4	-28.2	16.0	9.90e-06	0	43	102	1048576	12	4443
2026-01-07 01:44:14.30	253.80	20.08	-26.6	-28.1	15.8	0.00e+00	0	44	102	1048576	13	4302
2026-01-07 01:44:15.30	253.64	19.98	-26.8	-28.7	15.5	0.00e+00	0	44	102	1048576	13	4463
2026-01-07 01:44:16.31	253.49	19.87	-26.9	-28.9	15.3	0.00e+00	0	44	102	1048576	13	4531
2026-01-07 01:44:17.32	253.34	19.77	-26.9	-29.0	15.3	0.00e+00	0	43	102	1048576	13	4553
2026-01-07 01:44:18.33	253.19	19.66	-26.9	-28.9	15.3	0.00e+00	0	44	102	1048576	13	4538
2026-01-07 01:44:19.34	253.04	19.56	-26.9	-29.0	15.3	6.10e-06	0	44	102	1048576	13	4561
2026-01-07 01:44:20.35	252.89	19.45	-26.8	-28.8	15.4	0.00e+00	0	44	102	1048576	13	4505
2026-01-07 01:44:21.36	252.75	19.35	-26.8	-28.7	15.4	0.00e+00	0	44	102	1048576	13	4465
2026-01-07 01:44:22.37	252.60	19.25	-26.5	-28.0	15.8	0.00e+00	0	44	102	1048576	13	4286
2026-01-07 01:44:23.38	252.45	19.14	-26.5	-28.4	15.8	0.00e+00	0	44	102	1048576	12	4497
2026-01-07 01:44:24.39	252.31	19.04	-26.5	-28.1	15.8	0.00e+00	0	43	102	1048576	13	4292
2026-01-07 01:44:25.39	252.17	18.94	-26.7	-28.5	15.5	0.00e+00	0	44	102	1048576	13	4427
2026-01-07 01:44:26.40	252.03	18.83	-26.8	-28.7	15.4	0.00e+00	0	44	102	1048576	13	4474
2026-01-07 01:44:27.40	251.89	18.73	-26.7	-28.4	15.5	0.00e+00	0	43	102	1048576	13	4399
2026-01-07 01:44:28.41	251.75	18.63	-26.8	-28.7	15.4	0.00e+00	0	44	102	1048576	13	4467
2026-01-07 01:44:29.42	251.61	18.53	-26.9	-28.9	15.2	0.00e+00	0	44	102	1048576	13	4547
2026-01-07 01:44:30.43	251.47	18.43	-27.1	-28.9	15.0	0.00e+00	0	43	102	1048576	14	4414
2026-01-07 01:44:31.44	251.33	18.33	-27.3	-29.2	14.8	0.00e+00	0	44	102	1048576	14	4525
2026-01-07 01:44:32.45	251.19	18.22	-27.3	-29.5	14.7	7.00e-07	0	44	102	1048576	14	4588
2026-01-07 01:44:33.46	251.06	18.12	-27.5	-29.8	14.5	0.00e+00	0	44	102	1048576	14	4681
2026-01-07 01:44:34.46	250.93	18.02	-27.9	-30.2	14.0	1.50e-06	0	43	102	1048576	15	4692
2026-01-07 01:44:35.48	250.79	17.92	-28.0	-30.0	14.0	3.00e-06	0	43	102	1048576	16	4509
2026-01-07 01:44:36.48	250.66	17.82	-27.5	-29.2	14.5	7.00e-07	0	43	102	1048576	15	4408
2026-01-07 01:44:37.48	250.53	17.72	-27.1	-28.9	15.0	0.00e+00	0	44	102	1048576	14	4426
2026-01-07 01:44:38.49	250.40	17.62	-27.0	-28.6	15.2	0.00e+00	0	44	102	1048576	14	4323
2026-01-07 01:44:39.49	250.27	17.52	-27.0	-29.1	15.2	0.00e+00	0	44	102	1048576	13	4580
2026-01-07 01:44:40.50	250.14	17.42	-27.0	-29.1	15.1	0.00e+00	0	44	102	1048576	13	4607
2026-01-07 01:44:41.51	250.01	17.33	-27.0	-28.8	15.0	0.00e+00	0	44	102	1048576	14	4382
2026-01-07 01:44:42.52	249.88	17.23	-27.1	-29.0	14.9	0.00e+00	0	44	102	1048576	14	4440
2026-01-07 01:44:43.52	249.76	17.13	-27.0	-28.8	15.1	0.00e+00	0	44	102	1048576	14	4383
2026-01-07 01:44:44.53	249.63	17.03	-27.2	-29.1	14.9	0.00e+00	0	44	102	1048576	14	4484
2026-01-07 01:44:45.54	249.51	16.93	-27.1	-29.0	14.9	0.00e+00	0	44	102	1048576	14	4448
2026-01-07 01:44:46.55	249.38	16.83	-27.2	-29.2	14.8	0.00e+00	0	44	102	1048576	14	4501
2026-01-07 01:44:47.55	249.26	16.74	-27.3	-29.4	14.6	1.50e-06	0	44	102	1048576	14	4580
2026-01-07 01:44:48.55	249.14	16.64	-27.1	-29.0	14.9	0.00e+00	0	44	102	1048576	14	4447
2026-01-07 01:44:49.56	249.02	16.54	-27.2	-29.0	14.9	4.89e-03	0	44	102	1048576	14	4455
2026-01-07 01:44:50.56	248.90	16.45	-27.2	-29.0	14.8	0.00e+00	0	44	102	1048576	14	4467
2026-01-07 01:44:51.58	248.77	16.35	-27.2	-29.1	14.8	0.00e+00	0	44	102	1048576	14	4481
2026-01-07 01:44:52.58	248.66	16.26	-27.2	-29.2	14.7	0.00e+00	0	44	102	1048576	14	4520
2026-01-07 01:44:53.59	248.54	16.16	-27.3	-29.4	14.6	4.48e-03	0	43	102	1048576	14	4576
2026-01-07 01:44:54.59	248.42	16.06	-27.4	-29.5	14.6	1.47e-03	0	44	102	1048576	14	4599
2026-01-07 01:44:55.60	248.30	15.97	-27.2	-29.2	14.7	5.21e-03	0	43	102	1048576	14	4516
2026-01-07 01:44:56.61	248.19	15.87	-27.2	-29.1	14.8	0.00e+00	0	44	102	1048576	14	4495
2026-01-07 01:44:57.61	248.07	15.78	-27.2	-29.2	14.7	0.00e+00	0	44	102	1048576	14	4522
2026-01-07 01:44:58.62	247.96	15.68	-27.2	-29.2	14.7	4.14e-03	0	44	102	1048576	14	4505
2026-01-07 01:44:59.62	247.84	15.59	-27.2	-29.2	14.7	3.74e-03	0	44	102	1048576	14	4511
2026-01-07 01:45:00.63	247.73	15.50	-27.2	-29.2	14.7	1.77e-03	0	44	102	1048576	14	4529
2026-01-07 01:45:01.63	247.62	15.40	-27.2	-29.2	14.7	0.00e+00	0	44	102	1048576	14	4516
2026-01-07 01:45:02.63	247.51	15.31	-27.4	-29.6	14.4	0.00e+00	0	44	102	1048576	14	4648
2026-01-07 01:45:03.64	247.40	15.22	-27.3	-29.3	14.6	5.23e-04	0	44	102	1048576	14	4543
2026-01-07 01:45:04.64	247.29	15.12	-27.2	-29.1	14.7	6.37e-03	0	44	102	1048576	14	4496
2026-01-07 01:45:05.64	247.18	15.03	-27.2	-29.2	14.7	4.65e-03	0	43	102	1048576	14	4522
2026-01-07 01:45:06.65	247.07	14.94	-27.2	-29.2	14.7	1.91e-03	0	44	102	1048576	14	4506
2026-01-07 01:45:07.66	246.96	14.85	-27.2	-29.1	14.7	5.57e-03	0	44	102	1048576	14	4492
2026-01-07 01:45:08.66	246.85	14.75	-27.2	-29.2	14.7	4.63e-03	0	44	102	1048576	14	4506
2026-01-07 01:45:09.66	246.75	14.66	-27.3	-29.3	14.6	1.43e-03	0	44	102	1048576	14	4537
2026-01-07 01:45:10.67	246.64	14.57	-27.3	-29.4	14.5	4.98e-03	0	44	102	1048576	14	4588
2026-01-07 01:45:11.68	246.54	14.48	-27.4	-29.5	14.5	4.78e-03	0	44	102	1048576	14	4612
2026-01-07 01:45:12.68	246.43	14.39	-27.4	-29.6	14.4	1.35e-03	0	44	102	1048576	14	4639
2026-01-07 01:45:13.69	246.33	14.30	-27.4	-29.7	14.3	4.32e-04	0	44	102	1048576	14	4664
2026-01-07 01:45:14.70	246.22	14.21	-27.4	-29.7	14.3	4.02e-03	0	44	102	1048576	14	4675
2026-01-07 01:45:15.71	246.12	14.12	-27.6	-29.5	14.2	8.14e-04	0	44	102	1048576	15	4505
2026-01-07 01:45:16.71	246.02	14.03	-27.8	-30.0	13.9	4.86e-03	0	44	102	1048576	15	4650
2026-01-07 01:45:17.72	245.92	13.94	-27.8	-30.0	13.8	3.96e-03	0	44	102	1048576	15	4661
2026-01-07 01:45:18.73	245.81	13.85	-27.7	-29.8	13.9	4.96e-04	0	44	102	1048576	15	4600
2026-01-07 01:45:19.74	245.71	13.76	-27.7	-29.8	14.0	2.20e-06	0	43	102	1048576	15	4593
2026-01-07 01:45:20.75	245.61	13.67	-27.6	-29.7	14.0	3.00e-06	0	43	102	1048576	15	4554
2026-01-07 01:45:21.76	245.51	13.58	-27.8	-30.0	13.9	5.24e-04	0	44	102	1048576	15	4647
2026-01-07 01:45:22.76	245.42	13.49	-27.7	-29.9	13.9	5.34e-04	0	44	102	1048576	15	4626
2026-01-07 01:45:23.77	245.32	13.40	-27.6	-29.6	14.0	2.20e-06	0	43	102	1048576	15	4550
2026-01-07 01:45:24.77	245.22	13.31	-27.6	-29.6	14.1	1.50e-06	0	44	102	1048576	15	4517
2026-01-07 01:45:25.78	245.12	13.22	-27.6	-29.6	14.1	7.00e-07	0	44	102	1048576	15	4522
2026-01-07 01:45:26.79	245.03	13.14	-27.4	-29.2	14.3	2.20e-06	0	44	102	1048576	15	4417
2026-01-07 01:45:27.79	244.93	13.05	-27.4	-29.6	14.3	3.97e-04	0	44	102	1048576	14	4658
2026-01-07 01:45:28.80	244.84	12.96	-27.4	-29.7	14.3	3.64e-04	0	44	102	1048576	14	4681
2026-01-07 01:45:29.81	244.74	12.87	-27.4	-29.6	14.3	0.00e+00	0	43	102	1048576	14	4631
2026-01-07 01:45:30.82	244.65	12.79	-27.5	-29.8	14.2	7.00e-07	0	44	102	1048576	14	4689
2026-01-07 01:45:31.82	244.56	12.70	-27.5	-29.7	14.2	2.20e-06	0	44	102	1048576	14	4690
2026-01-07 01:45:32.83	244.46	12.62	-27.5	-29.9	14.2	0.00e+00	0	44	102	1048576	14	4724
2026-01-07 01:45:33.83	244.37	12.53	-27.6	-29.7	14.0	3.67e-04	0	44	102	1048576	15	4552
2026-01-07 01:45:34.84	244.28	12.44	-27.8	-30.0	13.8	1.98e-05	0	44	102	1048576	15	4668
2026-01-07 01:45:35.85	244.19	12.36	-27.7	-29.8	13.9	3.80e-06	0	44	102	1048576	15	4594
2026-01-07 01:45:36.86	244.10	12.27	-27.7	-29.8	13.9	1.50e-06	0	44	102	1048576	15	4593
2026-01-07 01:45:37.87	244.01	12.19	-27.7	-29.9	13.8	4.50e-06	0	44	102	1048576	15	4642
2026-01-07 01:45:38.88	243.92	12.10	-27.8	-30.2	13.7	6.80e-06	0	44	102	1048576	15	4722
2026-01-07 01:45:39.88	243.83	12.02	-27.8	-30.1	13.7	4.56e-04	0	44	102	1048576	15	4696
2026-01-07 01:45:40.88	243.74	11.93	-27.9	-30.3	13.6	1.37e-05	0	44	102	1048576	15	4771
2026-01-07 01:45:41.89	243.65	11.85	-27.9	-30.5	13.5	1.22e-05	0	44	102	1048576	15	4810
2026-01-07 01:45:42.90	243.57	11.76	-28.0	-30.6	13.4	1.14e-05	0	44	102	1048576	15	4842
2026-01-07 01:45:43.91	243.48	11.68	-28.2	-30.5	13.3	1.75e-05	0	44	102	1048576	16	4687
2026-01-07 01:45:44.92	243.39	11.60	-28.3	-30.7	13.2	2.51e-05	0	44	102	1048576	16	4777
2026-01-07 01:45:45.92	243.31	11.51	-28.3	-30.7	13.2	2.36e-05	0	44	102	1048576	16	4749
2026-01-07 01:45:46.93	243.22	11.43	-28.3	-30.7	13.2	2.74e-05	0	44	102	1048576	16	4764
2026-01-07 01:45:47.94	243.14	11.35	-28.3	-30.7	13.1	2.59e-05	0	44	102	1048576	16	4780
2026-01-07 01:45:48.94	243.05	11.26	-28.5	-31.3	12.8	4.95e-05	0	44	102	1048576	16	4954
2026-01-07 01:45:49.95	242.97	11.18	-28.3	-30.7	13.1	2.97e-05	0	44	102	1048576	16	4777
2026-01-07 01:45:50.96	242.88	11.10	-28.1	-30.4	13.3	2.28e-05	0	44	102	1048576	16	4664
2026-01-07 01:45:51.97	242.80	11.02	-28.1	-30.3	13.4	9.10e-06	0	44	102	1048576	16	4623
2026-01-07 01:45:52.97	242.72	10.93	-28.2	-30.4	13.3	1.60e-05	0	44	102	1048576	16	4679
2026-01-07 01:45:53.97	242.64	10.85	-28.0	-30.1	13.5	9.90e-06	0	44	102	1048576	16	4581
2026-01-07 01:45:54.98	242.56	10.77	-27.9	-30.3	13.5	7.60e-06	0	44	102	1048576	15	4755
2026-01-07 01:45:55.99	242.47	10.69	-27.9	-30.3	13.4	7.60e-06	0	44	102	1048576	15	4774
2026-01-07 01:45:56.99	242.39	10.61	-28.0	-30.5	13.3	9.10e-06	0	44	102	1048576	15	4833
2026-01-07 01:45:58.00	242.31	10.53	-27.9	-30.3	13.5	1.14e-05	0	44	102	1048576	15	4755
2026-01-07 01:45:59.01	242.23	10.45	-27.9	-30.4	13.4	1.67e-05	0	44	102	1048576	15	4789
2026-01-07 01:46:00.01	242.15	10.37	-28.2	-30.5	13.2	2.28e-05	0	44	102	1048576	16	4705
2026-01-07 01:46:01.00	242.08	10.29	-28.3	-30.8	13.0	3.20e-05	0	44	102	1048576	16	4787
2026-01-07 01:46:02.01	242.00	10.21	-28.2	-30.6	13.1	2.51e-05	0	44	102	1048576	16	4752
2026-01-07 01:46:03.01	241.92	10.13	-28.3	-30.9	13.0	3.35e-05	0	44	102	1048576	16	4824
2026-01-07 01:46:04.02	241.84	10.05	-28.5	-31.3	12.7	6.02e-05	0	44	102	1048576	16	4959
2026-01-07 01:46:05.03	241.77	9.97	-28.4	-31.1	12.8	7.17e-05	0	43	102	1048576	16	4895
2026-01-07 01:46:06.02	241.69	9.89	-28.5	-31.3	12.7	8.23e-05	0	44	102	1048576	16	4968
2026-01-07 01:46:07.03	241.61	9.81	-28.3	-30.9	12.9	5.64e-05	0	44	102	1048576	16	4855
2026-01-07 01:46:08.03	241.54	9.73	-28.3	-30.8	13.0	4.65e-05	0	43	102	1048576	16	4800
2026-01-07 01:46:09.04	241.46	9.65	-28.2	-30.7	13.0	4.80e-05	0	44	102	1048576	16	4778
2026-01-07 01:46:10.04	241.39	9.58	-28.4	-31.0	12.9	5.41e-05	0	44	102	1048576	16	4864
2026-01-07 01:46:11.04	241.32	9.50	-28.4	-31.0	12.8	5.87e-05	0	44	102	1048576	16	4876
2026-01-07 01:46:12.05	241.24	9.42	-28.4	-31.2	12.7	5.95e-05	0	44	102	1048576	16	4949
2026-01-07 01:46:13.05	241.17	9.34	-28.5	-30.8	12.6	8.77e-05	0	44	102	1048576	17	4703
2026-01-07 01:46:14.06	241.09	9.27	-28.4	-30.6	12.7	7.24e-05	0	44	102	1048576	17	4647
2026-01-07 01:46:15.07	241.02	9.19	-28.4	-31.1	12.8	6.94e-05	0	44	102	1048576	16	4900
2026-01-07 01:46:16.08	240.95	9.11	-28.5	-30.9	12.6	9.38e-05	0	44	102	1048576	17	4726
2026-01-07 01:46:17.08	240.88	9.03	-28.4	-30.7	12.6	1.02e-04	0	44	102	1048576	17	4679
2026-01-07 01:46:18.09	240.81	8.96	-28.5	-31.3	12.6	8.54e-05	0	44	102	1048576	16	4986
2026-01-07 01:46:19.10	240.73	8.88	-28.4	-31.2	12.6	7.47e-05	0	44	102	1048576	16	4951
2026-01-07 01:46:20.10	240.66	8.80	-28.4	-31.2	12.6	9.61e-05	0	44	102	1048576	16	4950
2026-01-07 01:46:21.11	240.59	8.73	-28.5	-31.3	12.5	9.00e-05	0	43	102	1048576	16	4991
2026-01-07 01:46:22.12	240.52	8.65	-28.4	-31.2	12.6	5.03e-03	0	44	102	1048576	16	4954
2026-01-07 01:46:23.13	240.45	8.57	-28.5	-30.8	12.5	1.01e-04	0	44	102	1048576	17	4725
2026-01-07 01:46:24.14	240.38	8.50	-28.7	-31.4	12.2	1.80e-04	0	44	102	1048576	17	4893
2026-01-07 01:46:25.15	240.31	8.42	-28.8	-31.7	11.9	3.65e-04	0	43	102	1048576	17	5031
2026-01-07 01:46:26.16	240.24	8.35	-28.6	-31.1	12.3	6.29e-03	0	44	102	1048576	17	4799
2026-01-07 01:46:27.16	240.18	8.27	-28.7	-31.3	12.1	5.38e-04	0	44	102	1048576	17	4884
2026-01-07 01:46:28.17	240.11	8.20	-28.5	-31.0	12.4	6.38e-03	0	44	102	1048576	17	4766
2026-01-07 01:46:29.17	240.04	8.12	-28.5	-30.9	12.4	1.43e-04	0	44	102	1048576	17	4752
2026-01-07 01:46:30.18	239.97	8.05	-28.6	-31.1	12.3	1.78e-04	0	44	102	1048576	17	4794
2026-01-07 01:46:31.19	239.91	7.97	-28.5	-31.3	12.5	5.94e-03	0	44	102	1048576	16	4994
2026-01-07 01:46:32.20	239.84	7.90	-28.5	-31.3	12.4	6.22e-03	0	44	102	1048576	16	4993
2026-01-07 01:46:33.20	239.77	7.83	-28.4	-31.1	12.6	2.49e-04	0	44	102	1048576	16	4911
2026-01-07 01:46:34.21	239.71	7.75	-28.3	-31.0	12.7	5.93e-03	0	44	102	1048576	16	4876
2026-01-07 01:46:35.22	239.64	7.68	-28.3	-30.8	12.7	5.59e-03	0	44	102	1048576	16	4831
2026-01-07 01:46:36.22	239.58	7.60	-28.3	-31.0	12.6	8.46e-05	0	44	102	1048576	16	4898
2026-01-07 01:46:37.24	239.51	7.53	-28.4	-31.1	12.6	5.51e-03	0	44	102	1048576	16	4920
2026-01-07 01:46:38.24	239.45	7.46	-28.4	-31.2	12.5	5.29e-03	0	44	102	1048576	16	4946
2026-01-07 01:46:39.25	239.38	7.38	-28.5	-31.0	12.3	1.59e-04	0	44	102	1048576	17	4779
2026-01-07 01:46:40.26	239.32	7.31	-28.5	-31.3	12.4	4.75e-03	0	44	102	1048576	16	5007
2026-01-07 01:46:41.26	239.26	7.24	-28.5	-31.0	12.2	1.87e-04	0	44	102	1048576	17	4796
2026-01-07 01:46:42.27	239.19	7.17	-28.5	-30.9	12.3	1.73e-04	0	44	102	1048576	17	4755
2026-01-07 01:46:43.26	239.13	7.09	-30.2	-34.4	9.3	5.15e-03	0	44	102	1048576	20	5791
2026-01-07 01:46:44.27	239.07	7.02	-32.8	-45.0	3.8	1.49e+00	0	44	104	1048576	25	14606

#Closed at: 2026-01-07 01:46:45
#Recorded file [1 MB]: D:/data/31010_260107_043746.dat