passes_logs/2026/01/07/R2M6_AANII_01/R2M6_AANII_01__20260107_101147_AQUA_rec.log

#Pass ID: 20260107_101147_AQUA
#Satellite: AQUA
#Configuration: AQUA
#almurnet v.1.7.20240730
#Start time: 2026-01-07 10:11:46

#Version: 2.2.20231116
#Station: R2M6_AANII_01
#Location: 30.233357 lon 59.946436 lat
#TLE: 1 27424U 02022A   26004.96787593  .00001598  00000+0  32997-3 0  9996
#TLE: 2 27424  98.4069 331.2279 0002002  90.2377   0.6092 14.61798176259425

#Time	Az	El	Level	Level2	SNR	BER	BlckErr	Temp	State	Recorded	gain1	gain2
2026-01-07 10:11:46.37	98.65	6.95	-31.7	-51.0	3.8	7.44e-01	0	40	0	0	24	33020
2026-01-07 10:11:47.37	98.54	7.01	-31.8	-50.5	3.8	7.47e-01	0	41	104	0	25	31324
2026-01-07 10:11:48.37	98.42	7.08	-31.7	-50.6	3.8	7.42e-01	0	41	104	0	25	31530
2026-01-07 10:11:49.38	98.31	7.14	-31.7	-50.6	3.8	7.44e-01	0	41	104	0	25	31478
2026-01-07 10:11:50.38	98.19	7.21	-31.7	-50.5	3.8	7.44e-01	0	41	104	0	25	31494
2026-01-07 10:11:51.39	98.07	7.27	-31.7	-50.5	3.8	7.46e-01	0	41	104	0	25	31498
2026-01-07 10:11:52.40	97.96	7.34	-31.6	-50.5	3.8	7.44e-01	0	41	104	0	25	31456
2026-01-07 10:11:53.40	97.84	7.40	-31.6	-50.3	3.8	7.45e-01	0	41	104	0	25	31270
2026-01-07 10:11:54.41	97.72	7.47	-31.5	-50.2	3.8	7.49e-01	0	41	104	0	25	31072
2026-01-07 10:11:55.42	97.60	7.53	-31.4	-50.0	3.8	7.46e-01	0	41	104	0	25	30669
2026-01-07 10:11:56.43	97.48	7.60	-31.3	-50.3	3.8	7.44e-01	0	41	104	0	24	31990
2026-01-07 10:11:57.43	97.36	7.67	-31.3	-50.2	3.8	7.43e-01	0	41	104	0	24	31697
2026-01-07 10:11:58.43	97.24	7.73	-31.3	-50.1	3.8	7.47e-01	0	41	104	0	24	31468
2026-01-07 10:11:59.44	97.12	7.80	-31.3	-50.0	3.8	7.45e-01	0	41	104	0	24	31188
2026-01-07 10:12:00.45	97.00	7.86	-31.3	-50.1	3.8	7.46e-01	0	41	104	0	24	31562
2026-01-07 10:12:01.46	96.88	7.93	-31.3	-50.1	3.8	7.48e-01	0	41	104	0	24	31476
2026-01-07 10:12:02.45	96.76	8.00	-31.3	-50.1	3.8	7.46e-01	0	41	104	0	24	31640
2026-01-07 10:12:03.46	96.63	8.06	-31.3	-50.1	3.8	7.42e-01	0	41	104	0	24	31528
2026-01-07 10:12:04.47	96.51	8.13	-31.3	-50.1	3.8	7.46e-01	0	41	104	0	24	31623
2026-01-07 10:12:05.47	96.38	8.19	-31.3	-50.1	3.8	7.48e-01	0	41	104	0	24	31536
2026-01-07 10:12:06.48	96.26	8.26	-31.2	-50.1	3.8	7.45e-01	0	41	104	0	24	31649
2026-01-07 10:12:07.49	96.13	8.33	-31.2	-50.1	3.8	7.44e-01	0	41	104	0	24	31684
2026-01-07 10:12:08.49	96.01	8.39	-31.2	-50.0	3.8	7.45e-01	0	41	104	0	24	31414
2026-01-07 10:12:09.50	95.88	8.46	-31.2	-50.0	3.8	7.44e-01	0	41	104	0	24	31511
2026-01-07 10:12:10.50	95.75	8.53	-31.2	-50.0	3.8	7.45e-01	0	41	104	0	24	31552
2026-01-07 10:12:11.51	95.62	8.59	-31.2	-50.1	3.8	7.46e-01	0	41	104	0	24	31698
2026-01-07 10:12:12.52	95.49	8.66	-31.2	-50.2	3.8	7.46e-01	0	42	104	0	24	31802
2026-01-07 10:12:13.52	95.36	8.73	-31.3	-50.2	3.8	7.42e-01	0	41	104	0	24	31711
2026-01-07 10:12:14.53	95.23	8.79	-31.3	-50.3	3.8	7.47e-01	0	41	104	0	24	31981
2026-01-07 10:12:15.54	95.10	8.86	-31.3	-50.2	3.8	7.48e-01	0	41	104	0	24	31713
2026-01-07 10:12:16.54	94.97	8.93	-31.3	-50.4	3.8	7.41e-01	0	42	104	0	24	32191
2026-01-07 10:12:17.54	94.84	9.00	-31.4	-50.5	3.8	7.48e-01	0	41	104	0	24	32354
2026-01-07 10:12:18.54	94.71	9.06	-31.4	-50.5	3.8	7.45e-01	0	41	104	0	24	32496
2026-01-07 10:12:19.55	94.57	9.13	-31.5	-50.6	3.8	7.46e-01	0	42	104	0	24	32471
2026-01-07 10:12:20.56	94.44	9.20	-31.5	-50.0	3.8	7.44e-01	0	42	104	0	24	30288
2026-01-07 10:12:21.56	94.30	9.26	-31.5	-49.8	3.8	7.47e-01	0	41	104	0	24	29347
2026-01-07 10:12:22.56	94.17	9.33	-31.6	-50.0	3.8	7.43e-01	0	42	104	0	24	29852
2026-01-07 10:12:23.57	94.03	9.40	-31.7	-50.1	3.8	7.43e-01	0	42	104	0	24	29919
2026-01-07 10:12:24.58	93.89	9.47	-31.8	-49.5	3.9	7.41e-01	0	42	104	0	24	27640
2026-01-07 10:12:25.58	93.75	9.53	-31.9	-48.8	3.9	7.44e-01	0	42	104	0	24	25087
2026-01-07 10:12:26.58	93.62	9.60	-32.0	-47.3	4.5	7.24e-01	0	42	104	0	24	20957
2026-01-07 10:12:27.58	93.48	9.67	-32.1	-44.9	4.3	7.29e-01	0	42	104	0	25	15663
2026-01-07 10:12:28.59	93.34	9.74	-32.2	-42.7	8.0	6.47e-01	0	42	0	0	25	12059
2026-01-07 10:12:29.59	93.20	9.80	-32.4	-42.7	8.4	6.42e-01	0	42	102	524288	25	11814
2026-01-07 10:12:30.60	93.05	9.87	-32.5	-42.9	8.4	6.42e-01	0	42	102	524288	25	11973
2026-01-07 10:12:31.60	92.91	9.94	-32.6	-43.4	8.0	6.46e-01	0	42	102	524288	25	12517
2026-01-07 10:12:32.61	92.77	10.01	-32.7	-43.7	7.5	6.58e-01	0	42	102	524288	26	12682
2026-01-07 10:12:33.62	92.63	10.08	-32.7	-43.0	8.1	6.45e-01	0	42	102	524288	26	11851
2026-01-07 10:12:34.63	92.48	10.14	-32.8	-43.9	7.4	6.59e-01	0	42	102	524288	26	12971
2026-01-07 10:12:35.63	92.34	10.21	-32.8	-43.7	7.5	6.53e-01	0	42	102	524288	26	12640
2026-01-07 10:12:36.64	92.19	10.28	-32.8	-43.2	8.1	6.45e-01	0	42	102	524288	26	11929
2026-01-07 10:12:37.64	92.04	10.35	-32.7	-42.4	8.9	6.36e-01	0	42	102	524288	26	11009
2026-01-07 10:12:38.65	91.90	10.42	-32.7	-41.8	9.5	6.27e-01	0	42	102	524288	26	10239
2026-01-07 10:12:39.66	91.75	10.49	-32.6	-40.8	10.5	6.22e-01	0	42	102	524288	26	9257
2026-01-07 10:12:40.66	91.60	10.55	-32.4	-39.6	11.6	6.16e-01	0	42	102	524288	26	8289
2026-01-07 10:12:41.67	91.45	10.62	-32.2	-38.5	12.6	6.10e-01	0	42	102	524288	26	7436
2026-01-07 10:12:42.68	91.30	10.69	-31.9	-37.2	13.7	6.08e-01	0	42	102	524288	26	6573
2026-01-07 10:12:43.69	91.14	10.76	-31.6	-36.4	14.7	6.05e-01	0	42	102	524288	25	6227
2026-01-07 10:12:44.69	90.99	10.83	-31.3	-35.6	15.7	6.06e-01	0	42	102	524288	24	5911
2026-01-07 10:12:45.70	90.84	10.90	-30.9	-34.4	16.6	6.06e-01	0	42	102	524288	24	5363
2026-01-07 10:12:46.71	90.69	10.96	-30.6	-33.8	17.3	6.06e-01	0	42	102	524288	23	5235
2026-01-07 10:12:47.71	90.53	11.03	-30.3	-33.5	17.8	6.06e-01	0	42	102	524288	22	5205
2026-01-07 10:12:48.71	90.38	11.10	-30.1	-32.9	18.2	6.08e-01	0	42	102	524288	22	4986
2026-01-07 10:12:49.71	90.22	11.17	-30.0	-32.6	18.5	6.08e-01	0	42	102	524288	22	4877
2026-01-07 10:12:50.71	90.07	11.24	-30.1	-32.8	18.4	6.06e-01	0	42	102	524288	22	4950
2026-01-07 10:12:51.72	89.91	11.31	-30.0	-32.6	18.5	6.07e-01	0	42	102	524288	22	4849
2026-01-07 10:12:52.73	89.75	11.37	-30.1	-32.8	18.4	6.08e-01	0	42	102	524288	22	4936
2026-01-07 10:12:53.74	89.59	11.44	-30.0	-32.7	18.4	6.06e-01	0	42	102	524288	22	4908
2026-01-07 10:12:54.74	89.43	11.51	-30.0	-32.7	18.5	6.07e-01	0	42	102	524288	22	4911
2026-01-07 10:12:55.74	89.27	11.58	-30.0	-32.7	18.5	6.07e-01	0	42	102	524288	22	4887
2026-01-07 10:12:56.75	89.11	11.65	-30.1	-32.9	18.4	6.07e-01	0	42	102	524288	22	4959
2026-01-07 10:12:57.76	88.95	11.72	-30.1	-33.0	18.4	6.06e-01	0	42	102	524288	22	4981
2026-01-07 10:12:58.76	88.78	11.79	-30.1	-33.0	18.4	6.07e-01	0	42	102	524288	22	4986
2026-01-07 10:12:59.78	88.62	11.85	-30.2	-33.2	18.2	6.05e-01	0	42	102	524288	22	5068
2026-01-07 10:13:00.78	88.45	11.92	-30.1	-33.0	18.4	6.09e-01	0	42	102	524288	22	4977
2026-01-07 10:13:01.79	88.29	11.99	-30.1	-32.9	18.5	6.07e-01	0	42	102	524288	22	4945
2026-01-07 10:13:02.80	88.12	12.06	-30.1	-32.9	18.5	6.07e-01	0	42	102	524288	22	4956
2026-01-07 10:13:03.80	87.95	12.13	-30.1	-32.8	18.5	6.07e-01	0	42	102	524288	22	4910
2026-01-07 10:13:04.80	87.79	12.20	-30.0	-32.6	18.7	6.07e-01	0	42	102	524288	22	4841
2026-01-07 10:13:05.80	87.62	12.27	-30.0	-32.5	18.7	6.08e-01	0	42	102	524288	22	4799
2026-01-07 10:13:06.81	87.45	12.33	-29.9	-32.4	18.8	6.07e-01	0	42	102	524288	22	4772
2026-01-07 10:13:07.82	87.27	12.40	-30.0	-32.5	18.7	6.07e-01	0	42	102	524288	22	4820
2026-01-07 10:13:08.82	87.10	12.47	-30.1	-32.9	18.5	6.05e-01	0	42	102	524288	22	4945
2026-01-07 10:13:09.83	86.93	12.54	-30.1	-32.8	18.6	6.09e-01	0	42	102	524288	22	4915
2026-01-07 10:13:10.83	86.76	12.61	-30.1	-32.9	18.5	6.06e-01	0	42	102	524288	22	4953
2026-01-07 10:13:11.84	86.58	12.68	-30.1	-32.7	18.6	6.08e-01	0	42	102	524288	22	4874
2026-01-07 10:13:12.85	86.41	12.74	-30.1	-32.8	18.6	6.04e-01	0	42	102	524288	22	4901
2026-01-07 10:13:13.85	86.23	12.81	-30.0	-32.6	18.7	6.06e-01	0	42	102	524288	22	4847
2026-01-07 10:13:14.86	86.05	12.88	-30.1	-32.8	18.6	6.06e-01	0	42	102	524288	22	4914
2026-01-07 10:13:15.87	85.88	12.95	-30.0	-32.4	18.8	6.06e-01	0	43	102	524288	22	4772
2026-01-07 10:13:16.87	85.70	13.02	-30.0	-32.5	18.8	6.07e-01	0	42	102	524288	22	4805
2026-01-07 10:13:17.88	85.52	13.09	-29.9	-32.3	18.9	6.06e-01	0	42	102	524288	22	4750
2026-01-07 10:13:18.89	85.34	13.15	-29.9	-32.7	18.9	6.05e-01	0	42	102	524288	21	4999
2026-01-07 10:13:19.90	85.15	13.22	-29.9	-32.9	18.8	6.06e-01	0	42	102	524288	21	5045
2026-01-07 10:13:20.90	84.97	13.29	-29.9	-32.8	18.9	6.05e-01	0	42	102	524288	21	5008
2026-01-07 10:13:21.91	84.79	13.36	-29.9	-32.7	18.9	6.06e-01	0	42	102	524288	21	5002
2026-01-07 10:13:22.92	84.60	13.43	-29.9	-32.7	18.9	6.09e-01	0	42	102	524288	21	4989
2026-01-07 10:13:23.93	84.42	13.49	-30.0	-32.9	18.8	6.06e-01	0	42	102	524288	21	5078
2026-01-07 10:13:24.93	84.23	13.56	-30.0	-33.1	18.7	6.06e-01	0	42	102	524288	21	5138
2026-01-07 10:13:25.94	84.04	13.63	-30.0	-33.0	18.8	6.06e-01	0	42	102	524288	21	5097
2026-01-07 10:13:26.95	83.86	13.70	-30.1	-33.2	18.7	6.06e-01	0	43	102	524288	21	5174
2026-01-07 10:13:27.96	83.67	13.76	-30.0	-33.0	18.8	6.06e-01	0	43	102	524288	21	5095
2026-01-07 10:13:28.96	83.48	13.83	-30.0	-33.1	18.7	6.06e-01	0	43	102	524288	21	5125
2026-01-07 10:13:29.97	83.29	13.90	-30.0	-32.9	18.9	6.07e-01	0	43	102	524288	21	5056
2026-01-07 10:13:30.98	83.09	13.97	-30.1	-33.2	18.7	6.07e-01	0	43	102	524288	21	5165
2026-01-07 10:13:31.98	82.90	14.03	-30.0	-32.9	18.9	6.05e-01	0	43	102	524288	21	5057
2026-01-07 10:13:32.98	82.71	14.10	-29.9	-32.8	18.9	6.07e-01	0	43	102	524288	21	5013
2026-01-07 10:13:33.99	82.51	14.17	-29.9	-32.7	19.0	6.08e-01	0	42	102	524288	21	4995
2026-01-07 10:13:35.00	82.32	14.23	-30.0	-32.9	18.9	6.07e-01	0	43	102	524288	21	5055
2026-01-07 10:13:36.01	82.12	14.30	-30.0	-32.9	18.9	6.06e-01	0	42	102	524288	21	5049
2026-01-07 10:13:37.01	81.92	14.37	-30.0	-33.1	18.8	6.06e-01	0	43	102	524288	21	5111
2026-01-07 10:13:38.02	81.72	14.43	-30.2	-33.4	18.6	6.08e-01	0	43	102	524288	21	5244
2026-01-07 10:13:39.03	81.52	14.50	-30.0	-32.9	18.9	6.06e-01	0	43	102	524288	21	5061
2026-01-07 10:13:40.04	81.32	14.57	-29.9	-32.8	18.9	6.05e-01	0	43	102	524288	21	5009
2026-01-07 10:13:41.05	81.12	14.63	-30.0	-33.0	18.9	6.06e-01	0	42	102	524288	21	5074
2026-01-07 10:13:42.05	80.92	14.70	-30.1	-33.3	18.7	6.06e-01	0	43	102	524288	21	5182
2026-01-07 10:13:43.06	80.72	14.76	-30.0	-32.9	18.9	6.04e-01	0	43	102	524288	21	5056
2026-01-07 10:13:44.07	80.51	14.83	-30.0	-33.0	18.9	6.07e-01	0	43	102	524288	21	5070
2026-01-07 10:13:45.07	80.31	14.89	-29.9	-32.8	19.0	6.05e-01	0	42	102	524288	21	4991
2026-01-07 10:13:46.08	80.10	14.96	-30.0	-32.9	18.9	6.05e-01	0	43	102	524288	21	5029
2026-01-07 10:13:47.09	79.89	15.02	-30.1	-33.2	18.8	6.07e-01	0	43	102	524288	21	5150
2026-01-07 10:13:48.10	79.68	15.09	-30.0	-33.0	18.9	6.05e-01	0	43	102	524288	21	5068
2026-01-07 10:13:49.10	79.48	15.15	-30.1	-33.2	18.8	6.06e-01	0	43	102	524288	21	5157
2026-01-07 10:13:50.12	79.26	15.22	-30.2	-33.6	18.5	6.05e-01	0	43	102	524288	21	5298
2026-01-07 10:13:51.12	79.05	15.28	-30.1	-33.2	18.8	6.07e-01	0	43	102	524288	21	5133
2026-01-07 10:13:52.13	78.84	15.35	-30.0	-33.0	18.9	6.07e-01	0	43	102	524288	21	5076
2026-01-07 10:13:53.14	78.63	15.41	-30.1	-33.1	18.9	6.05e-01	0	43	102	524288	21	5110
2026-01-07 10:13:54.14	78.42	15.48	-30.1	-33.1	18.8	6.07e-01	0	43	102	524288	21	5111
2026-01-07 10:13:55.15	78.20	15.54	-30.1	-33.2	18.7	6.07e-01	0	43	102	524288	21	5164
2026-01-07 10:13:56.16	77.98	15.60	-30.0	-32.9	19.0	6.06e-01	0	43	102	524288	21	5046
2026-01-07 10:13:57.17	77.76	15.67	-30.0	-33.0	18.9	6.05e-01	0	43	102	524288	21	5065
2026-01-07 10:13:58.18	77.55	15.73	-30.1	-33.1	18.9	6.05e-01	0	43	102	524288	21	5099
2026-01-07 10:13:59.18	77.33	15.79	-30.1	-33.2	18.8	6.06e-01	0	43	102	524288	21	5145
2026-01-07 10:14:00.19	77.11	15.86	-30.1	-33.1	18.9	6.06e-01	0	43	102	524288	21	5113
2026-01-07 10:14:01.19	76.89	15.92	-30.1	-33.2	18.8	6.07e-01	0	43	102	524288	21	5140
2026-01-07 10:14:02.20	76.67	15.98	-30.1	-33.3	18.8	6.09e-01	0	43	102	524288	21	5182
2026-01-07 10:14:03.21	76.44	16.04	-30.0	-32.9	19.0	6.07e-01	0	43	102	524288	21	5021
2026-01-07 10:14:04.22	76.22	16.10	-30.0	-32.9	19.0	6.06e-01	0	43	102	524288	21	5028
2026-01-07 10:14:05.23	75.99	16.16	-30.1	-33.3	18.8	6.07e-01	0	43	102	524288	21	5167
2026-01-07 10:14:06.24	75.77	16.23	-30.2	-33.4	18.7	6.06e-01	0	43	102	524288	21	5201
2026-01-07 10:14:07.24	75.54	16.29	-30.2	-33.5	18.7	6.07e-01	0	43	102	524288	21	5235
2026-01-07 10:14:08.25	75.31	16.35	-30.2	-33.4	18.7	6.07e-01	0	43	102	524288	21	5219
2026-01-07 10:14:09.26	75.08	16.41	-30.3	-33.7	18.5	6.05e-01	0	43	102	524288	21	5323
2026-01-07 10:14:10.26	74.85	16.47	-30.1	-33.3	18.8	6.09e-01	0	43	102	524288	21	5161
2026-01-07 10:14:11.26	74.62	16.53	-30.0	-33.0	19.0	6.07e-01	0	43	102	524288	21	5062
2026-01-07 10:14:12.27	74.39	16.59	-29.9	-32.7	19.1	6.07e-01	0	43	102	524288	21	4960
2026-01-07 10:14:13.27	74.16	16.64	-29.9	-32.7	19.1	6.07e-01	0	43	102	524288	21	4954
2026-01-07 10:14:14.28	73.93	16.70	-30.0	-32.9	19.0	6.08e-01	0	43	102	524288	21	5041
2026-01-07 10:14:15.28	73.69	16.76	-30.1	-33.1	18.9	6.03e-01	0	43	102	524288	21	5084
2026-01-07 10:14:16.29	73.46	16.82	-30.1	-33.1	18.9	6.06e-01	0	43	102	524288	21	5106
2026-01-07 10:14:17.30	73.22	16.88	-30.1	-33.2	18.9	6.06e-01	0	43	102	524288	21	5120
2026-01-07 10:14:18.31	72.98	16.94	-30.0	-33.0	19.0	6.06e-01	0	43	102	524288	21	5053
2026-01-07 10:14:19.31	72.74	16.99	-30.0	-32.8	19.1	6.07e-01	0	43	102	524288	21	4995
2026-01-07 10:14:20.31	72.51	17.05	-30.0	-32.8	19.1	6.07e-01	0	43	102	524288	21	4973
2026-01-07 10:14:21.31	72.27	17.11	-30.0	-33.0	19.0	6.06e-01	0	43	102	524288	21	5048
2026-01-07 10:14:22.32	72.03	17.16	-30.1	-33.3	18.9	6.06e-01	0	43	102	524288	21	5155
2026-01-07 10:14:23.33	71.78	17.22	-30.1	-33.1	19.0	6.07e-01	0	43	102	524288	21	5082
2026-01-07 10:14:24.34	71.54	17.27	-30.1	-33.1	19.0	6.06e-01	0	43	102	524288	21	5076
2026-01-07 10:14:25.35	71.29	17.33	-30.1	-33.1	18.9	6.07e-01	0	43	102	524288	21	5115
2026-01-07 10:14:26.36	71.05	17.38	-30.2	-33.4	18.8	6.06e-01	0	43	102	524288	21	5205
2026-01-07 10:14:27.36	70.80	17.44	-30.2	-33.4	18.8	6.05e-01	0	43	102	524288	21	5197
2026-01-07 10:14:28.37	70.56	17.49	-30.2	-33.4	18.8	6.05e-01	0	43	102	524288	21	5212
2026-01-07 10:14:29.38	70.31	17.55	-30.2	-33.4	18.7	6.07e-01	0	43	102	524288	21	5223
2026-01-07 10:14:30.38	70.06	17.60	-30.4	-43.3	3.9	7.43e-01	0	43	104	524288	21	15813
2026-01-07 10:14:31.38	69.81	17.65	-30.4	-43.4	3.8	7.43e-01	0	43	104	524288	21	15966
2026-01-07 10:14:32.39	69.56	17.70	-30.4	-43.3	3.8	7.48e-01	0	43	104	524288	21	15892
2026-01-07 10:14:33.39	69.31	17.75	-30.6	-43.6	3.8	7.43e-01	0	43	104	524288	21	16108
2026-01-07 10:14:34.40	69.06	17.81	-30.8	-43.6	3.8	7.44e-01	0	43	104	524288	22	15863
2026-01-07 10:14:35.41	68.80	17.86	-31.0	-44.4	3.8	7.43e-01	0	43	104	524288	22	16699
2026-01-07 10:14:36.42	68.55	17.91	-31.3	-44.7	3.8	7.45e-01	0	43	104	524288	23	16828
2026-01-07 10:14:37.43	68.29	17.96	-31.7	-45.5	3.8	7.44e-01	0	43	104	524288	24	17477
2026-01-07 10:14:38.43	68.04	18.01	-32.1	-46.2	3.8	7.43e-01	0	43	104	524288	25	18255
2026-01-07 10:14:39.44	67.78	18.06	-32.4	-47.1	3.8	7.44e-01	0	43	104	524288	25	19527
2026-01-07 10:14:40.44	67.52	18.11	-32.4	-47.3	3.8	7.48e-01	0	43	104	524288	25	19848
2026-01-07 10:14:41.45	67.26	18.15	-32.6	-47.7	3.8	7.44e-01	0	43	104	524288	25	20606
2026-01-07 10:14:42.45	67.00	18.20	-32.7	-47.9	3.8	7.43e-01	0	43	104	524288	26	20506
2026-01-07 10:14:43.46	66.74	18.25	-32.9	-48.4	3.8	7.48e-01	0	43	104	524288	26	21514
2026-01-07 10:14:44.46	66.48	18.30	-33.1	-49.1	3.8	7.45e-01	0	43	104	524288	26	22900
2026-01-07 10:14:45.47	66.22	18.34	-33.3	-49.6	3.8	7.47e-01	0	43	104	524288	27	23619
2026-01-07 10:14:46.48	65.95	18.39	-33.3	-49.9	3.8	7.44e-01	0	43	104	524288	27	24110
2026-01-07 10:14:47.48	65.69	18.43	-33.1	-48.8	3.9	7.42e-01	0	43	104	524288	27	21908
2026-01-07 10:14:48.49	65.43	18.48	-32.9	-48.0	3.8	7.42e-01	0	43	104	524288	27	20392
2026-01-07 10:14:49.50	65.16	18.52	-32.7	-47.1	3.8	7.43e-01	0	43	104	524288	27	18943
2026-01-07 10:14:50.50	64.90	18.57	-32.5	-46.4	3.8	7.45e-01	0	43	104	524288	27	17846
2026-01-07 10:14:51.51	64.63	18.61	-32.5	-46.5	3.8	7.46e-01	0	43	104	524288	27	18032
2026-01-07 10:14:52.52	64.36	18.65	-32.8	-47.6	3.8	7.45e-01	0	43	104	524288	27	19730
2026-01-07 10:14:53.53	64.09	18.70	-33.0	-48.4	3.8	7.46e-01	0	43	104	524288	27	21241
2026-01-07 10:14:54.53	63.82	18.74	-33.2	-49.0	3.8	7.48e-01	0	43	104	524288	27	22266
2026-01-07 10:14:55.54	63.55	18.78	-33.3	-49.5	3.8	7.43e-01	0	43	104	524288	27	23419
2026-01-07 10:14:56.55	63.28	18.82	-33.3	-50.0	3.8	7.42e-01	0	43	104	524288	27	24382
2026-01-07 10:14:57.55	63.01	18.86	-33.4	-50.3	3.8	7.42e-01	0	43	104	524288	27	25053
2026-01-07 10:14:58.56	62.73	18.90	-33.4	-50.4	3.8	7.43e-01	0	43	104	524288	27	25490
2026-01-07 10:14:59.57	62.46	18.94	-33.5	-50.6	3.8	7.43e-01	0	43	104	524288	27	25770
2026-01-07 10:15:00.58	62.18	18.98	-33.5	-50.7	3.8	7.45e-01	0	43	104	524288	27	26159
2026-01-07 10:15:01.59	61.91	19.01	-33.5	-50.9	3.8	7.47e-01	0	43	104	524288	27	26685
2026-01-07 10:15:02.60	61.63	19.05	-33.5	-51.1	3.8	7.45e-01	0	43	104	524288	27	27159
2026-01-07 10:15:03.60	61.36	19.09	-33.6	-51.3	3.8	7.43e-01	0	43	104	524288	27	27633
2026-01-07 10:15:04.61	61.08	19.12	-33.5	-50.5	3.8	7.44e-01	0	43	104	524288	28	25453
2026-01-07 10:15:05.62	60.80	19.16	-33.3	-49.7	3.8	7.45e-01	0	43	104	524288	28	23768
2026-01-07 10:15:06.62	60.52	19.19	-33.2	-48.9	3.8	7.45e-01	0	43	104	524288	28	21964
2026-01-07 10:15:07.64	60.24	19.23	-33.0	-48.2	3.8	7.46e-01	0	43	104	524288	28	20755
2026-01-07 10:15:08.64	59.96	19.26	-32.9	-47.9	3.8	7.42e-01	0	43	104	524288	27	20277
2026-01-07 10:15:09.65	59.68	19.29	-32.6	-46.7	3.8	7.43e-01	0	43	104	524288	27	18334
2026-01-07 10:15:10.65	59.40	19.32	-32.5	-46.3	3.8	7.44e-01	0	43	104	524288	27	17679
2026-01-07 10:15:11.66	59.12	19.36	-32.4	-46.2	3.8	7.45e-01	0	43	104	524288	27	17497
2026-01-07 10:15:12.67	58.84	19.39	-32.4	-46.1	3.8	7.45e-01	0	43	104	524288	27	17372
2026-01-07 10:15:13.67	58.56	19.42	-32.4	-46.1	3.8	7.45e-01	0	43	104	524288	27	17383
2026-01-07 10:15:14.67	58.27	19.45	-32.4	-46.2	3.8	7.42e-01	0	43	104	524288	27	17529
2026-01-07 10:15:15.68	57.99	19.48	-32.5	-46.3	3.8	7.45e-01	0	43	104	524288	27	17683
2026-01-07 10:15:16.68	57.71	19.50	-32.3	-46.2	3.8	7.46e-01	0	43	104	524288	26	17796
2026-01-07 10:15:17.69	57.42	19.53	-32.0	-45.2	3.8	7.44e-01	0	43	104	524288	26	16456
2026-01-07 10:15:18.70	57.13	19.56	-31.6	-44.5	3.8	7.42e-01	0	43	104	524288	25	15812
2026-01-07 10:15:19.71	56.85	19.58	-31.4	-44.2	3.8	7.44e-01	0	43	104	524288	24	15867
2026-01-07 10:15:20.71	56.56	19.61	-31.1	-43.4	3.8	7.45e-01	0	43	104	524288	24	14856
2026-01-07 10:15:21.72	56.27	19.63	-30.8	-43.2	3.8	7.46e-01	0	43	104	524288	23	15007
2026-01-07 10:15:22.73	55.99	19.66	-31.0	-43.6	3.8	7.45e-01	0	43	104	524288	23	15473
2026-01-07 10:15:23.74	55.70	19.68	-31.2	-44.2	3.8	7.46e-01	0	43	104	524288	23	16149
2026-01-07 10:15:24.74	55.41	19.70	-31.3	-44.7	3.8	7.45e-01	0	43	104	524288	23	16764
2026-01-07 10:15:25.74	55.12	19.73	-31.6	-45.4	3.8	7.45e-01	0	43	104	524288	23	17592
2026-01-07 10:15:26.75	54.83	19.75	-32.0	-46.0	3.8	7.47e-01	0	43	104	524288	24	18199
2026-01-07 10:15:27.76	54.54	19.77	-32.4	-46.9	3.8	7.45e-01	0	43	104	524288	25	19224
2026-01-07 10:15:28.76	54.25	19.79	-32.7	-47.7	3.8	7.43e-01	0	43	104	524288	26	20077
2026-01-07 10:15:29.77	53.96	19.81	-32.9	-48.3	3.8	7.44e-01	0	43	104	524288	26	21294
2026-01-07 10:15:30.78	53.67	19.83	-33.0	-48.9	3.8	7.44e-01	0	43	104	524288	26	22386
2026-01-07 10:15:31.78	53.38	19.84	-33.2	-49.0	3.8	7.45e-01	0	43	104	524288	27	22351
2026-01-07 10:15:32.80	53.08	19.86	-33.3	-49.6	3.8	7.44e-01	0	43	104	524288	27	23457
2026-01-07 10:15:33.80	52.79	19.88	-33.4	-50.1	3.8	7.47e-01	0	43	104	524288	27	24550
2026-01-07 10:15:34.81	52.50	19.89	-33.4	-50.4	3.8	7.46e-01	0	43	104	524288	27	25287
2026-01-07 10:15:35.82	52.21	19.91	-33.5	-50.8	3.8	7.46e-01	0	43	104	524288	27	26380
2026-01-07 10:15:36.83	51.91	19.92	-33.5	-50.6	3.8	7.44e-01	0	43	104	524288	27	25737
2026-01-07 10:15:37.83	51.62	19.93	-33.4	-50.0	3.8	7.42e-01	0	43	104	524288	27	24516
2026-01-07 10:15:38.84	51.33	19.95	-33.3	-49.4	3.8	7.40e-01	0	43	104	524288	27	23156
2026-01-07 10:15:39.85	51.03	19.96	-33.1	-48.8	3.8	7.42e-01	0	43	104	524288	27	21931
2026-01-07 10:15:40.85	50.74	19.97	-33.0	-48.3	3.8	7.41e-01	0	43	104	524288	27	21021
2026-01-07 10:15:41.86	50.45	19.98	-33.1	-48.9	3.8	7.43e-01	0	43	104	524288	27	22169
2026-01-07 10:15:42.86	50.15	19.99	-33.3	-49.5	3.8	7.45e-01	0	43	104	524288	27	23242
2026-01-07 10:15:43.86	49.86	20.00	-33.3	-49.8	3.8	7.45e-01	0	43	104	524288	27	24008
2026-01-07 10:15:44.87	49.57	20.01	-33.4	-50.3	3.8	7.46e-01	0	43	104	524288	27	25063
2026-01-07 10:15:45.88	49.27	20.01	-33.5	-50.6	3.8	7.43e-01	0	43	104	524288	27	25782
2026-01-07 10:15:46.89	48.97	20.02	-33.4	-50.3	3.8	7.47e-01	0	43	104	524288	27	25174
2026-01-07 10:15:47.89	48.68	20.02	-33.4	-50.0	3.8	7.45e-01	0	43	104	524288	27	24419
2026-01-07 10:15:48.90	48.39	20.03	-33.3	-49.9	3.8	7.43e-01	0	43	104	524288	27	24164
2026-01-07 10:15:49.91	48.09	20.03	-33.3	-49.8	3.8	7.44e-01	0	43	104	524288	27	24079
2026-01-07 10:15:50.92	47.79	20.04	-33.3	-49.8	3.8	7.44e-01	0	43	104	524288	27	24017
2026-01-07 10:15:51.92	47.50	20.04	-33.3	-49.8	3.8	7.47e-01	0	43	104	524288	27	24124
2026-01-07 10:15:52.93	47.20	20.04	-33.3	-49.8	3.8	7.46e-01	0	43	104	524288	27	24114
2026-01-07 10:15:53.94	46.91	20.04	-33.4	-50.0	3.8	7.46e-01	0	43	104	524288	27	24413
2026-01-07 10:15:54.95	46.61	20.04	-33.2	-49.2	3.8	7.46e-01	0	43	104	524288	27	22673
2026-01-07 10:15:55.96	46.31	20.04	-32.9	-48.1	3.8	7.47e-01	0	43	104	524288	27	20675
2026-01-07 10:15:56.96	46.02	20.04	-32.7	-47.0	3.8	7.46e-01	0	43	104	524288	27	18763
2026-01-07 10:15:57.97	45.72	20.04	-32.4	-46.1	3.8	7.43e-01	0	43	104	524288	27	17403
2026-01-07 10:15:58.97	45.43	20.04	-32.0	-45.2	3.8	7.45e-01	0	43	104	524288	26	16490
2026-01-07 10:15:59.98	45.14	20.03	-31.6	-44.5	3.8	7.41e-01	0	43	104	524288	25	15849
2026-01-07 10:16:00.99	44.84	20.03	-31.6	-44.5	3.8	7.46e-01	0	43	104	524288	25	15863
2026-01-07 10:16:02.00	44.54	20.02	-31.6	-44.5	3.8	7.45e-01	0	43	104	524288	25	15815
2026-01-07 10:16:03.01	44.25	20.02	-31.6	-44.6	3.8	7.43e-01	0	43	104	524288	25	15974
2026-01-07 10:16:04.02	43.95	20.01	-31.7	-44.6	3.8	7.45e-01	0	43	104	524288	25	16029
2026-01-07 10:16:05.02	43.66	20.00	-31.7	-44.9	3.8	7.47e-01	0	43	104	524288	25	16382
2026-01-07 10:16:06.03	43.36	20.00	-31.8	-45.1	3.8	7.40e-01	0	43	104	524288	25	16648
2026-01-07 10:16:07.03	43.07	19.99	-31.5	-44.2	3.8	7.43e-01	0	43	104	524288	25	15578
2026-01-07 10:16:08.04	42.78	19.98	-31.3	-44.0	3.8	7.45e-01	0	43	104	524288	24	15543
2026-01-07 10:16:09.04	42.48	19.97	-31.1	-43.4	3.8	7.43e-01	0	43	104	524288	24	14874
2026-01-07 10:16:10.05	42.19	19.96	-31.0	-43.2	3.8	7.46e-01	0	43	104	524288	24	14718
2026-01-07 10:16:11.06	41.89	19.95	-31.1	-43.6	3.8	7.45e-01	0	43	104	524288	24	15125
2026-01-07 10:16:12.07	41.60	19.93	-31.3	-44.0	3.8	7.47e-01	0	43	104	524288	24	15632
2026-01-07 10:16:13.07	41.31	19.92	-31.5	-44.6	3.8	7.44e-01	0	43	104	524288	24	16262
2026-01-07 10:16:14.08	41.02	19.91	-31.7	-45.4	3.8	7.46e-01	0	43	104	524288	24	17361
2026-01-07 10:16:15.09	40.72	19.89	-32.0	-46.3	3.8	7.43e-01	0	43	104	524288	24	18729
2026-01-07 10:16:16.10	40.43	19.87	-32.3	-46.8	3.8	7.49e-01	0	43	104	524288	25	19113
2026-01-07 10:16:17.10	40.14	19.86	-32.6	-47.4	3.8	7.42e-01	0	43	104	524288	26	19674
2026-01-07 10:16:18.11	39.85	19.84	-32.9	-48.5	3.8	7.47e-01	0	43	104	524288	26	21586
2026-01-07 10:16:19.11	39.56	19.82	-33.2	-49.2	3.8	7.43e-01	0	43	104	524288	27	22796
2026-01-07 10:16:20.12	39.27	19.81	-33.2	-49.5	3.8	7.45e-01	0	43	104	524288	27	23409
2026-01-07 10:16:21.12	38.98	19.79	-33.3	-49.9	3.8	7.44e-01	0	43	104	524288	27	24240
2026-01-07 10:16:22.13	38.69	19.77	-33.3	-50.1	3.8	7.45e-01	0	43	104	524288	27	24843
2026-01-07 10:16:23.14	38.40	19.75	-33.4	-50.2	3.8	7.46e-01	0	43	104	524288	27	25080
2026-01-07 10:16:24.15	38.11	19.72	-33.4	-50.3	3.8	7.45e-01	0	43	104	524288	27	25324
2026-01-07 10:16:25.16	37.82	19.70	-33.4	-50.3	3.8	7.42e-01	0	43	104	524288	27	25318
2026-01-07 10:16:26.16	37.53	19.68	-33.4	-50.5	3.8	7.44e-01	0	43	104	524288	27	25592
2026-01-07 10:16:27.17	37.24	19.66	-33.4	-50.2	3.8	7.45e-01	0	43	104	524288	27	24855
2026-01-07 10:16:28.18	36.96	19.63	-33.3	-49.9	3.8	7.45e-01	0	43	104	524288	27	24410
2026-01-07 10:16:29.18	36.67	19.61	-33.3	-49.9	3.8	7.43e-01	0	43	104	524288	27	24339
2026-01-07 10:16:30.19	36.38	19.58	-33.3	-49.7	3.8	7.43e-01	0	43	104	524288	27	23949
2026-01-07 10:16:31.20	36.10	19.56	-33.2	-49.5	3.8	7.43e-01	0	43	104	524288	27	23388
2026-01-07 10:16:32.21	35.81	19.53	-33.3	-49.8	3.8	7.48e-01	0	43	104	524288	27	24038
2026-01-07 10:16:33.21	35.53	19.50	-33.4	-50.2	3.8	7.48e-01	0	43	104	524288	27	25047
2026-01-07 10:16:34.22	35.24	19.47	-33.4	-50.6	3.8	7.44e-01	0	43	104	524288	27	25979
2026-01-07 10:16:35.23	34.96	19.44	-33.4	-50.2	3.8	7.45e-01	0	43	104	524288	27	25083
2026-01-07 10:16:36.23	34.68	19.42	-33.3	-49.8	3.8	7.49e-01	0	43	104	524288	27	24103
2026-01-07 10:16:37.24	34.39	19.39	-33.2	-49.3	3.8	7.43e-01	0	43	104	524288	27	22971
2026-01-07 10:16:38.24	34.11	19.35	-33.0	-48.7	3.8	7.41e-01	0	43	104	524288	27	21777
2026-01-07 10:16:39.25	33.83	19.32	-32.9	-48.3	3.8	7.44e-01	0	43	104	524288	27	21090
2026-01-07 10:16:40.25	33.55	19.29	-32.9	-48.0	3.8	7.46e-01	0	43	104	524288	27	20569
2026-01-07 10:16:41.26	33.27	19.26	-32.8	-47.7	3.8	7.46e-01	0	43	104	524288	27	20072
2026-01-07 10:16:42.27	32.99	19.22	-32.8	-47.6	3.8	7.43e-01	0	43	104	524288	27	19938
2026-01-07 10:16:43.27	32.72	19.19	-32.8	-47.7	3.8	7.43e-01	0	43	104	524288	27	19955
2026-01-07 10:16:44.28	32.44	19.16	-32.7	-47.4	3.8	7.46e-01	0	43	104	524288	27	19462
2026-01-07 10:16:45.29	32.16	19.12	-32.3	-46.5	3.8	7.49e-01	0	43	104	524288	26	18361
2026-01-07 10:16:46.29	31.89	19.09	-32.0	-45.2	3.8	7.47e-01	0	43	104	524288	26	16491
2026-01-07 10:16:47.30	31.61	19.05	-31.6	-44.6	3.8	7.48e-01	0	43	104	524288	25	16045
2026-01-07 10:16:48.31	31.33	19.01	-31.2	-44.0	3.8	7.44e-01	0	43	104	524288	24	15649
2026-01-07 10:16:49.31	31.06	18.97	-30.9	-43.1	3.8	7.46e-01	0	43	104	524288	24	14670
2026-01-07 10:16:50.32	30.79	18.94	-30.7	-43.0	3.8	7.45e-01	0	43	104	524288	23	14892
2026-01-07 10:16:51.33	30.51	18.90	-30.7	-42.9	3.8	7.43e-01	0	43	104	524288	23	14728
2026-01-07 10:16:52.34	30.24	18.86	-30.6	-42.8	3.8	7.44e-01	0	43	104	524288	23	14641
2026-01-07 10:16:53.34	29.97	18.82	-30.7	-43.1	3.8	7.44e-01	0	43	104	524288	23	15008
2026-01-07 10:16:54.35	29.70	18.78	-30.9	-43.5	3.8	7.44e-01	0	43	104	524288	23	15437
2026-01-07 10:16:55.35	29.43	18.74	-31.1	-43.9	3.8	7.43e-01	0	43	104	524288	23	15749
2026-01-07 10:16:56.36	29.16	18.69	-31.1	-44.2	3.8	7.48e-01	0	43	104	524288	23	16151
2026-01-07 10:16:57.37	28.89	18.65	-31.0	-43.8	3.8	7.43e-01	0	43	104	524288	23	15771
2026-01-07 10:16:58.38	28.62	18.61	-30.9	-43.6	3.8	7.43e-01	0	43	104	524288	23	15416
2026-01-07 10:16:59.38	28.36	18.57	-31.1	-43.9	3.8	7.47e-01	0	43	104	524288	23	15741
2026-01-07 10:17:00.39	28.09	18.52	-31.2	-44.4	3.8	7.47e-01	0	43	104	524288	23	16438
2026-01-07 10:17:01.40	27.83	18.48	-31.5	-45.3	3.8	7.44e-01	0	43	104	524288	23	17643
2026-01-07 10:17:02.40	27.56	18.43	-31.8	-45.8	3.8	7.47e-01	0	43	104	524288	24	17946
2026-01-07 10:17:03.41	27.30	18.39	-32.1	-46.2	3.8	7.43e-01	0	43	104	524288	25	18258
2026-01-07 10:17:04.42	27.04	18.34	-32.3	-47.0	3.8	7.45e-01	0	43	104	524288	25	19537
2026-01-07 10:17:05.43	26.77	18.30	-32.5	-47.7	3.8	7.44e-01	0	43	104	524288	25	20659
2026-01-07 10:17:06.43	26.52	18.25	-32.8	-48.2	3.8	7.47e-01	0	43	104	524288	26	21166
2026-01-07 10:17:07.44	26.25	18.20	-33.0	-49.0	3.8	7.43e-01	0	43	104	524288	26	22824
2026-01-07 10:17:08.45	25.99	18.15	-33.2	-49.4	3.8	7.46e-01	0	43	104	524288	27	23191
2026-01-07 10:17:09.46	25.74	18.11	-33.3	-49.9	3.8	7.39e-01	0	43	104	524288	27	24285
2026-01-07 10:17:10.47	25.48	18.06	-33.3	-50.1	3.8	7.44e-01	0	43	104	524288	27	24697
2026-01-07 10:17:11.47	25.22	18.01	-33.3	-50.2	3.8	7.46e-01	0	43	104	524288	27	25117
2026-01-07 10:17:12.48	24.97	17.96	-33.3	-50.1	3.8	7.50e-01	0	43	104	524288	27	24916
2026-01-07 10:17:13.49	24.71	17.91	-33.3	-50.0	3.8	7.46e-01	0	43	104	524288	27	24669
2026-01-07 10:17:14.50	24.46	17.86	-33.3	-50.2	3.8	7.46e-01	0	43	104	524288	27	25166
2026-01-07 10:17:15.51	24.20	17.81	-33.4	-50.4	3.8	7.43e-01	0	43	104	524288	27	25462
2026-01-07 10:17:16.51	23.95	17.76	-33.4	-50.3	3.8	7.44e-01	0	43	104	524288	27	25391
2026-01-07 10:17:17.52	23.70	17.70	-33.3	-50.2	3.8	7.43e-01	0	43	104	524288	27	25184
2026-01-07 10:17:18.53	23.45	17.65	-33.3	-50.2	3.8	7.46e-01	0	43	104	524288	27	25131
2026-01-07 10:17:19.54	23.20	17.60	-33.3	-50.2	3.8	7.45e-01	0	43	104	524288	27	25064
2026-01-07 10:17:20.55	22.95	17.54	-33.3	-50.1	3.8	7.45e-01	0	43	104	524288	27	24978
2026-01-07 10:17:21.56	22.70	17.49	-33.3	-50.3	3.8	7.44e-01	0	43	104	524288	27	25335
2026-01-07 10:17:22.56	22.46	17.44	-33.3	-50.2	3.8	7.43e-01	0	43	104	524288	27	25182
2026-01-07 10:17:23.57	22.21	17.38	-33.2	-49.8	3.8	7.46e-01	0	43	104	524288	27	24278
2026-01-07 10:17:24.58	21.97	17.33	-33.2	-49.4	3.8	7.48e-01	0	43	104	524288	27	23385
2026-01-07 10:17:25.58	21.73	17.27	-33.1	-49.0	3.8	7.43e-01	0	43	104	524288	27	22600
2026-01-07 10:17:26.59	21.48	17.22	-32.9	-48.4	3.8	7.48e-01	0	43	104	524288	27	21289
2026-01-07 10:17:27.59	21.24	17.16	-32.7	-47.5	3.8	7.42e-01	0	43	104	524288	27	19751
2026-01-07 10:17:28.60	21.00	17.11	-32.6	-46.8	3.8	7.44e-01	0	43	104	524288	27	18574
2026-01-07 10:17:29.60	20.77	17.05	-32.4	-46.2	3.8	7.44e-01	0	43	104	524288	27	17713
2026-01-07 10:17:30.62	20.52	16.99	-32.2	-46.2	3.8	7.48e-01	0	43	104	524288	26	17942
2026-01-07 10:17:31.62	20.29	16.94	-32.1	-45.7	3.8	7.45e-01	0	43	104	524288	26	17234
2026-01-07 10:17:32.63	20.05	16.88	-32.0	-45.4	3.8	7.48e-01	0	43	104	524288	26	16857
2026-01-07 10:17:33.63	19.82	16.82	-31.8	-45.4	3.8	7.46e-01	0	43	104	524288	25	17237
2026-01-07 10:17:34.63	19.58	16.76	-31.6	-44.6	3.8	7.43e-01	0	43	104	524288	25	16085
2026-01-07 10:17:35.64	19.35	16.71	-31.2	-43.9	3.8	7.45e-01	0	43	104	524288	24	15548
2026-01-07 10:17:36.65	19.12	16.65	-30.8	-43.3	3.8	7.41e-01	0	43	104	524288	23	15130
2026-01-07 10:17:37.65	18.89	16.59	-30.5	-42.5	3.8	7.41e-01	0	43	104	524288	23	14281
2026-01-07 10:17:38.65	18.66	16.53	-30.3	-42.4	3.8	7.44e-01	0	43	104	524288	22	14521
2026-01-07 10:17:39.67	18.42	16.47	-30.2	-42.2	3.8	7.43e-01	0	43	104	524288	22	14407
2026-01-07 10:17:40.67	18.20	16.41	-30.1	-42.1	3.8	7.43e-01	0	43	104	524288	22	14329
2026-01-07 10:17:41.68	17.97	16.35	-30.1	-41.9	3.8	7.45e-01	0	43	104	524288	22	14026
2026-01-07 10:17:42.68	17.74	16.29	-30.1	-42.0	3.8	7.44e-01	0	43	104	524288	22	14169
2026-01-07 10:17:43.69	17.52	16.23	-30.4	-42.6	3.8	7.47e-01	0	43	104	524288	22	14772
2026-01-07 10:17:44.70	17.29	16.17	-30.6	-43.2	3.8	7.46e-01	0	43	104	524288	22	15379
2026-01-07 10:17:45.71	17.07	16.11	-30.8	-43.9	3.8	7.46e-01	0	43	104	524288	22	16168
2026-01-07 10:17:46.72	16.84	16.05	-31.2	-44.3	3.8	7.44e-01	0	43	104	524288	23	16402
2026-01-07 10:17:47.72	16.62	15.98	-31.3	-44.7	3.8	7.45e-01	0	43	104	524288	23	16837
2026-01-07 10:17:48.72	16.40	15.92	-31.3	-44.9	3.8	7.45e-01	0	43	104	524288	23	17214
2026-01-07 10:17:49.73	16.18	15.86	-31.6	-45.3	3.8	7.43e-01	0	43	104	524288	24	17427
2026-01-07 10:17:50.74	15.96	15.80	-31.9	-46.3	3.8	7.47e-01	0	43	104	524288	24	18899
2026-01-07 10:17:51.75	15.74	15.73	-32.2	-46.6	3.8	7.46e-01	0	43	104	524288	25	19069
2026-01-07 10:17:52.76	15.53	15.67	-32.4	-47.5	3.8	7.43e-01	0	43	104	524288	25	20468
2026-01-07 10:17:53.77	15.31	15.61	-32.6	-48.1	3.8	7.43e-01	0	43	104	524288	25	21521
2026-01-07 10:17:54.78	15.09	15.55	-32.7	-48.2	3.8	7.46e-01	0	43	104	524288	26	21459
2026-01-07 10:17:55.79	14.88	15.48	-32.9	-48.9	3.8	7.44e-01	0	43	104	524288	26	22813
2026-01-07 10:17:56.79	14.67	15.42	-33.0	-49.4	3.8	7.44e-01	0	43	104	524288	26	23769
2026-01-07 10:17:57.80	14.46	15.35	-33.1	-49.4	3.8	7.42e-01	0	43	104	524288	27	23515
2026-01-07 10:17:58.81	14.24	15.29	-33.2	-49.9	3.8	7.43e-01	0	43	104	524288	27	24519
2026-01-07 10:17:59.81	14.04	15.23	-33.2	-49.8	3.8	7.42e-01	0	43	104	524288	27	24502
2026-01-07 10:18:00.82	13.83	15.16	-33.2	-49.8	3.8	7.46e-01	0	43	104	524288	27	24506
2026-01-07 10:18:01.83	13.62	15.10	-33.2	-49.8	3.8	7.47e-01	0	43	104	524288	27	24388
2026-01-07 10:18:02.83	13.41	15.03	-33.2	-50.0	3.8	7.46e-01	0	43	104	524288	27	24964
2026-01-07 10:18:03.84	13.20	14.97	-33.3	-50.4	3.8	7.49e-01	0	43	104	524288	27	25759
2026-01-07 10:18:04.84	13.00	14.90	-33.2	-50.3	3.8	7.43e-01	0	43	104	524288	27	25711
2026-01-07 10:18:05.85	12.80	14.84	-33.2	-50.2	3.8	7.45e-01	0	43	104	524288	27	25458
2026-01-07 10:18:06.86	12.59	14.77	-33.2	-50.2	3.8	7.47e-01	0	43	104	524288	27	25445
2026-01-07 10:18:07.87	12.39	14.71	-33.2	-50.1	3.8	7.44e-01	0	43	104	524288	27	25149
2026-01-07 10:18:08.87	12.19	14.64	-33.2	-50.0	3.8	7.46e-01	0	43	104	524288	27	24970
2026-01-07 10:18:09.88	11.99	14.58	-33.2	-50.0	3.8	7.46e-01	0	43	104	524288	27	25089
2026-01-07 10:18:10.88	11.79	14.51	-33.2	-50.0	3.8	7.44e-01	0	43	104	524288	27	24873
2026-01-07 10:18:11.89	11.59	14.44	-33.1	-49.6	3.8	7.41e-01	0	43	104	524288	27	24041
2026-01-07 10:18:12.90	11.39	14.38	-33.0	-49.1	3.8	7.49e-01	0	43	104	524288	27	23021
2026-01-07 10:18:13.89	11.20	14.31	-32.9	-48.7	3.8	7.47e-01	0	43	104	524288	27	22110
2026-01-07 10:18:14.89	11.01	14.25	-32.8	-48.2	3.8	7.43e-01	0	43	104	524288	27	21328
2026-01-07 10:18:15.89	10.81	14.18	-32.6	-47.5	3.8	7.44e-01	0	43	104	524288	27	19974
2026-01-07 10:18:16.89	10.62	14.11	-32.5	-46.9	3.8	7.42e-01	0	43	104	524288	27	18929
2026-01-07 10:18:17.90	10.43	14.05	-32.3	-46.5	3.8	7.45e-01	0	43	104	524288	26	18446
2026-01-07 10:18:18.90	10.24	13.98	-32.1	-45.8	3.8	7.48e-01	0	43	104	524288	26	17563
2026-01-07 10:18:19.90	10.05	13.91	-31.8	-45.3	3.8	7.46e-01	0	43	104	524288	25	17191
2026-01-07 10:18:20.91	9.86	13.85	-31.5	-44.7	3.8	7.44e-01	0	43	104	524288	25	16352
2026-01-07 10:18:21.91	9.67	13.78	-31.4	-44.6	3.8	7.44e-01	0	43	104	524288	24	16451
2026-01-07 10:18:22.91	9.48	13.71	-31.2	-44.0	3.8	7.43e-01	0	43	104	524288	24	15881
2026-01-07 10:18:23.92	9.29	13.65	-31.0	-43.5	3.8	7.45e-01	0	43	104	524288	24	15128
2026-01-07 10:18:24.92	9.11	13.58	-30.7	-43.3	3.8	7.41e-01	0	43	104	524288	23	15279
2026-01-07 10:18:25.93	8.92	13.51	-30.5	-42.6	3.8	7.46e-01	0	43	104	524288	23	14531
2026-01-07 10:18:26.93	8.74	13.44	-30.3	-42.8	3.8	7.48e-01	0	43	104	524288	22	15174
2026-01-07 10:18:27.94	8.56	13.38	-30.2	-42.4	3.8	7.44e-01	0	43	104	524288	22	14644
2026-01-07 10:18:28.95	8.37	13.31	-30.3	-42.5	3.8	7.46e-01	0	43	104	524288	22	14777
2026-01-07 10:18:29.96	8.19	13.24	-30.4	-42.8	3.8	7.47e-01	0	43	104	524288	22	14982
2026-01-07 10:18:30.97	8.01	13.17	-30.3	-42.6	3.8	7.47e-01	0	43	104	524288	22	14822
2026-01-07 10:18:31.98	7.83	13.11	-30.4	-42.9	3.8	7.45e-01	0	43	104	524288	22	15127
2026-01-07 10:18:32.98	7.65	13.04	-30.6	-43.4	3.8	7.46e-01	0	43	104	524288	22	15754
2026-01-07 10:18:33.99	7.47	12.97	-30.8	-44.1	3.8	7.45e-01	0	43	104	524288	22	16582
2026-01-07 10:18:35.00	7.30	12.90	-31.1	-44.8	3.8	7.42e-01	0	43	104	524288	22	17576
2026-01-07 10:18:36.00	7.12	12.83	-31.3	-45.0	3.8	7.45e-01	0	43	104	524288	23	17418
2026-01-07 10:18:37.00	6.95	12.77	-31.5	-45.8	3.8	7.41e-01	0	43	104	524288	23	18486
2026-01-07 10:18:38.00	6.77	12.70	-31.8	-46.0	3.8	7.42e-01	0	43	104	524288	24	18552
2026-01-07 10:18:39.01	6.60	12.63	-32.0	-46.7	3.8	7.46e-01	0	43	104	524288	24	19561
2026-01-07 10:18:40.02	6.43	12.56	-32.3	-47.3	3.8	7.45e-01	0	43	104	524288	25	20224
2026-01-07 10:18:41.03	6.25	12.49	-32.5	-48.1	3.8	7.45e-01	0	43	104	524288	25	21736
2026-01-07 10:18:42.04	6.08	12.42	-32.7	-48.6	3.8	7.46e-01	0	43	104	524288	26	22350
2026-01-07 10:18:43.04	5.91	12.36	-32.9	-49.3	3.8	7.44e-01	0	43	104	524288	26	23803
2026-01-07 10:18:44.04	5.74	12.29	-32.9	-49.6	3.8	7.44e-01	0	43	104	524288	26	24367
2026-01-07 10:18:45.05	5.58	12.22	-33.0	-49.7	3.8	7.41e-01	0	43	104	524288	26	24758
2026-01-07 10:18:46.06	5.41	12.15	-33.0	-50.0	3.8	7.44e-01	0	43	104	524288	26	25530
2026-01-07 10:18:47.07	5.24	12.08	-33.1	-50.1	3.8	7.46e-01	0	43	104	524288	26	25495
2026-01-07 10:18:48.07	5.08	12.02	-33.1	-50.3	3.8	7.44e-01	0	43	104	524288	26	26281
2026-01-07 10:18:49.08	4.91	11.95	-33.1	-49.9	3.8	7.45e-01	0	43	104	524288	27	24828
2026-01-07 10:18:50.09	4.75	11.88	-33.1	-50.2	3.8	7.46e-01	0	43	104	524288	27	25656
2026-01-07 10:18:51.10	4.58	11.81	-33.2	-50.4	3.8	7.46e-01	0	43	104	524288	27	26123
2026-01-07 10:18:52.10	4.42	11.74	-33.2	-50.8	3.8	7.44e-01	0	43	104	524288	27	27117
2026-01-07 10:18:53.12	4.26	11.67	-33.2	-50.4	3.8	7.43e-01	0	43	104	524288	27	26011
2026-01-07 10:18:54.12	4.10	11.61	-33.1	-50.2	3.8	7.46e-01	0	43	104	524288	27	25586
2026-01-07 10:18:55.13	3.94	11.54	-33.1	-49.9	3.8	7.46e-01	0	43	104	524288	27	24897
2026-01-07 10:18:56.14	3.78	11.47	-33.1	-50.1	3.8	7.44e-01	0	43	104	524288	27	25338
2026-01-07 10:18:57.14	3.62	11.40	-33.1	-49.9	3.8	7.44e-01	0	43	104	524288	27	25060
2026-01-07 10:18:58.15	3.46	11.33	-33.1	-49.9	3.8	7.44e-01	0	43	104	524288	27	24976
2026-01-07 10:18:59.16	3.30	11.26	-33.0	-49.7	3.8	7.42e-01	0	43	104	524288	27	24438
2026-01-07 10:19:00.16	3.15	11.20	-33.0	-49.6	3.8	7.45e-01	0	43	104	524288	27	24233
2026-01-07 10:19:01.16	3.00	11.13	-33.0	-49.3	3.8	7.46e-01	0	43	104	524288	27	23580
2026-01-07 10:19:02.17	2.84	11.06	-32.9	-48.9	3.8	7.45e-01	0	43	104	524288	27	22919
2026-01-07 10:19:03.18	2.69	10.99	-32.8	-48.3	3.8	7.47e-01	0	43	104	524288	27	21607
2026-01-07 10:19:04.19	2.53	10.92	-32.7	-48.0	3.8	7.45e-01	0	43	104	524288	27	20956
2026-01-07 10:19:05.19	2.38	10.85	-32.5	-47.3	3.8	7.44e-01	0	43	104	524288	27	19797
2026-01-07 10:19:06.20	2.23	10.79	-32.4	-46.8	3.8	7.47e-01	0	43	104	524288	27	18918
2026-01-07 10:19:07.21	2.08	10.72	-32.3	-46.9	3.8	7.48e-01	0	43	104	524288	26	19367
2026-01-07 10:19:08.22	1.93	10.65	-32.1	-46.0	3.8	7.42e-01	0	43	104	524288	26	17899
2026-01-07 10:19:09.23	1.78	10.58	-31.8	-45.8	3.8	7.42e-01	0	43	104	524288	25	18022
2026-01-07 10:19:10.24	1.63	10.51	-31.5	-44.4	3.8	7.45e-01	0	43	104	524288	25	15868
2026-01-07 10:19:11.23	1.49	10.45	-31.2	-44.7	3.8	7.45e-01	0	43	104	524288	24	16866
2026-01-07 10:19:12.24	1.34	10.38	-31.2	-44.0	3.8	7.43e-01	0	43	104	524288	24	15720
2026-01-07 10:19:13.25	1.19	10.31	-30.9	-43.5	3.8	7.43e-01	0	43	104	524288	24	15395
2026-01-07 10:19:14.25	1.05	10.24	-30.8	-43.5	3.8	7.46e-01	0	43	104	524288	23	15622
2026-01-07 10:19:15.25	0.91	10.17	-30.6	-43.0	3.8	7.45e-01	0	43	104	524288	23	14935
2026-01-07 10:19:16.26	0.76	10.11	-30.6	-43.3	3.8	7.44e-01	0	43	104	524288	23	15539
2026-01-07 10:19:17.26	0.62	10.04	-30.7	-42.9	3.8	7.42e-01	0	43	104	524288	23	14683
2026-01-07 10:19:18.27	0.48	9.97	-30.8	-44.1	3.8	7.45e-01	0	43	104	524288	23	16569
2026-01-07 10:19:19.28	0.34	9.90	-31.0	-44.1	3.8	7.44e-01	0	43	104	524288	23	16092
2026-01-07 10:19:20.29	0.19	9.84	-31.3	-45.1	3.8	7.45e-01	0	43	104	524288	23	17757
2026-01-07 10:19:21.29	0.06	9.77	-31.1	-44.8	3.8	7.45e-01	0	43	104	524288	23	17260
2026-01-07 10:19:22.30	359.92	9.70	-31.3	-45.0	3.8	7.45e-01	0	43	104	524288	23	17443
2026-01-07 10:19:23.30	359.78	9.63	-31.5	-46.0	3.8	7.41e-01	0	43	104	524288	23	19186
2026-01-07 10:19:24.31	359.64	9.57	-31.7	-45.7	3.8	7.45e-01	0	43	104	524288	24	18030
2026-01-07 10:19:25.32	359.50	9.50	-31.9	-46.9	3.8	7.45e-01	0	43	104	524288	24	20315
2026-01-07 10:19:26.32	359.37	9.43	-32.2	-46.9	3.8	7.41e-01	0	43	104	524288	25	19569
2026-01-07 10:19:27.33	359.23	9.36	-32.4	-48.1	3.8	7.46e-01	0	43	104	524288	25	21837
2026-01-07 10:19:28.34	359.10	9.30	-32.5	-48.6	3.8	7.42e-01	0	43	104	524288	25	23095
2026-01-07 10:19:29.35	358.96	9.23	-32.6	-48.3	3.9	7.44e-01	0	43	104	524288	26	21960
2026-01-07 10:19:30.35	358.83	9.16	-32.7	-49.4	3.8	7.44e-01	0	43	104	524288	26	24573
2026-01-07 10:19:31.36	358.69	9.09	-32.8	-49.6	3.8	7.44e-01	0	43	104	524288	26	24736
2026-01-07 10:19:32.37	358.56	9.03	-33.0	-50.4	3.8	7.43e-01	0	43	104	524288	26	26810
2026-01-07 10:19:33.37	358.43	8.96	-33.0	-50.8	3.8	7.42e-01	0	43	104	524288	26	27838
2026-01-07 10:19:34.38	358.30	8.89	-33.0	-50.7	3.8	7.47e-01	0	43	104	524288	26	27643
2026-01-07 10:19:35.38	358.17	8.83	-33.0	-51.1	3.8	7.42e-01	0	43	104	524288	26	28719
2026-01-07 10:19:36.39	358.04	8.76	-33.0	-50.8	3.8	7.46e-01	0	43	104	524288	26	27858
2026-01-07 10:19:37.39	357.91	8.69	-33.0	-50.9	3.8	7.44e-01	0	43	104	524288	26	28239
2026-01-07 10:19:38.40	357.78	8.63	-33.0	-51.1	3.8	7.47e-01	0	43	104	524288	26	28764
2026-01-07 10:19:39.41	357.65	8.56	-33.0	-50.8	3.8	7.42e-01	0	43	104	524288	26	27949
2026-01-07 10:19:40.42	357.53	8.49	-33.1	-51.3	3.8	7.46e-01	0	43	104	524288	26	29424
2026-01-07 10:19:41.43	357.40	8.43	-33.0	-50.8	3.8	7.46e-01	0	43	104	524288	26	27842
2026-01-07 10:19:42.44	357.27	8.36	-33.0	-50.6	3.8	7.43e-01	0	43	104	524288	26	27329
2026-01-07 10:19:43.44	357.15	8.30	-32.9	-50.7	3.8	7.47e-01	0	43	104	524288	26	27936
2026-01-07 10:19:44.45	357.03	8.23	-32.9	-50.2	3.8	7.41e-01	0	43	104	524288	26	26470
2026-01-07 10:19:45.45	356.90	8.16	-32.9	-50.6	3.8	7.45e-01	0	43	104	524288	26	27556
2026-01-07 10:19:46.46	356.78	8.10	-32.9	-50.6	3.8	7.46e-01	0	43	104	524288	26	27652
2026-01-07 10:19:47.47	356.66	8.03	-32.9	-50.2	3.8	7.43e-01	0	43	104	524288	26	26383
2026-01-07 10:19:48.48	356.53	7.96	-32.9	-50.3	3.8	7.45e-01	0	43	104	524288	26	26843
2026-01-07 10:19:49.49	356.41	7.90	-32.8	-49.9	3.8	7.45e-01	0	43	104	524288	26	25850
2026-01-07 10:19:50.49	356.29	7.83	-32.7	-49.5	3.8	7.42e-01	0	43	104	524288	26	24669
2026-01-07 10:19:51.50	356.17	7.77	-32.7	-49.3	3.8	7.45e-01	0	43	104	524288	26	24538
2026-01-07 10:19:52.50	356.05	7.70	-32.6	-48.8	3.8	7.47e-01	0	43	104	524288	26	23194
2026-01-07 10:19:53.51	355.93	7.64	-32.5	-48.4	3.8	7.47e-01	0	43	104	524288	26	22453
2026-01-07 10:19:54.51	355.82	7.57	-32.5	-48.3	3.8	7.45e-01	0	43	104	524288	26	22261
2026-01-07 10:19:55.52	355.70	7.51	-32.4	-47.5	3.8	7.42e-01	0	43	104	524288	26	20546
2026-01-07 10:19:56.53	355.58	7.44	-32.3	-47.6	3.8	7.43e-01	0	43	104	524288	26	20973
2026-01-07 10:19:57.54	355.46	7.37	-32.2	-47.1	3.8	7.45e-01	0	43	104	524288	26	20014
2026-01-07 10:19:58.54	355.35	7.31	-32.1	-46.3	3.8	7.44e-01	0	43	104	524288	26	18535
2026-01-07 10:19:59.55	355.23	7.24	-31.8	-46.2	3.8	7.44e-01	0	43	104	524288	25	18811
2026-01-07 10:20:00.55	355.12	7.18	-31.6	-45.3	3.8	7.47e-01	0	43	104	524288	25	17452
2026-01-07 10:20:01.56	355.00	7.12	-31.3	-44.8	3.8	7.44e-01	0	43	104	524288	24	17032
2026-01-07 10:20:02.56	354.89	7.05	-33.4	-52.5	3.9	7.47e-01	0	43	104	524288	27	32576
2026-01-07 10:20:03.57	354.78	6.99	-33.6	-52.7	3.8	7.44e-01	0	44	104	524288	28	32521
2026-01-07 10:20:04.58	354.66	6.92	-33.8	-53.2	3.8	7.43e-01	0	43	104	524288	28	33367

#Closed at: 2026-01-07 10:20:05
#Recorded file [0 MB]: D:/data/31010_260107_131228.dat