passes_logs/2026/01/07/R2M6_AANII_01/R2M6_AANII_01__20260107_003425_AQUA_rec.log

#Pass ID: 20260107_003425_AQUA
#Satellite: AQUA
#Configuration: AQUA
#almurnet v.1.7.20240730
#Start time: 2026-01-07 00:36:57

#Version: 2.2.20231116
#Station: R2M6_AANII_01
#Location: 30.233357 lon 59.946436 lat
#TLE: 1 27424U 02022A   26004.96787593  .00001598  00000+0  32997-3 0  9996
#TLE: 2 27424  98.4069 331.2279 0002002  90.2377   0.6092 14.61798176259425

#Time	Az	El	Level	Level2	SNR	BER	BlckErr	Temp	State	Recorded	gain1	gain2
2026-01-07 00:36:57.33	55.14	18.22	-33.0	-45.4	3.8	1.49e+00	0	43	0	0	26	14980
2026-01-07 00:36:58.33	55.37	18.29	-34.0	-53.6	3.8	7.46e-01	0	43	104	0	28	34460
2026-01-07 00:36:59.34	55.60	18.37	-33.9	-53.6	3.8	7.42e-01	0	43	104	0	28	34567
2026-01-07 00:37:00.35	55.84	18.44	-34.0	-53.7	3.8	7.43e-01	0	43	104	0	28	34768
2026-01-07 00:37:01.36	56.07	18.52	-34.1	-53.4	3.8	7.44e-01	0	43	104	0	29	32871
2026-01-07 00:37:02.36	56.31	18.59	-34.2	-53.4	3.8	7.45e-01	0	44	104	0	29	32953
2026-01-07 00:37:03.36	56.54	18.67	-34.2	-53.4	3.8	7.46e-01	0	43	104	0	29	33029
2026-01-07 00:37:04.37	56.78	18.74	-34.2	-53.5	3.8	7.49e-01	0	43	104	0	29	33120
2026-01-07 00:37:05.38	57.02	18.81	-34.2	-53.5	3.8	7.47e-01	0	43	104	0	29	33102
2026-01-07 00:37:06.38	57.26	18.89	-34.3	-53.6	3.8	7.44e-01	0	43	104	0	29	33328
2026-01-07 00:37:07.39	57.50	18.96	-34.3	-53.6	3.8	7.44e-01	0	43	104	0	29	33381
2026-01-07 00:37:08.40	57.75	19.03	-34.3	-53.6	3.8	7.45e-01	0	43	104	0	29	33335
2026-01-07 00:37:09.41	57.99	19.11	-34.3	-53.6	3.8	7.47e-01	0	43	104	0	29	33333
2026-01-07 00:37:10.41	58.24	19.18	-34.3	-53.6	3.8	7.45e-01	0	43	104	0	29	33331
2026-01-07 00:37:11.42	58.49	19.25	-34.3	-53.6	3.8	7.45e-01	0	43	104	0	29	33286
2026-01-07 00:37:12.43	58.74	19.32	-34.2	-53.6	3.8	7.46e-01	0	43	104	0	29	33251
2026-01-07 00:37:13.44	58.99	19.40	-34.3	-53.6	3.8	7.46e-01	0	43	104	0	29	33379
2026-01-07 00:37:14.44	59.23	19.47	-34.3	-53.8	3.8	7.47e-01	0	43	104	0	29	33602
2026-01-07 00:37:15.45	59.49	19.54	-34.3	-53.7	3.8	7.45e-01	0	43	104	0	29	33615
2026-01-07 00:37:16.45	59.74	19.61	-34.3	-53.7	3.8	7.48e-01	0	43	104	0	29	33426
2026-01-07 00:37:17.46	59.99	19.68	-34.2	-53.6	3.8	7.43e-01	0	43	104	0	29	33340
2026-01-07 00:37:18.47	60.25	19.75	-34.2	-53.5	3.8	7.45e-01	0	43	104	0	29	33219
2026-01-07 00:37:19.47	60.51	19.82	-34.4	-53.9	3.8	7.45e-01	0	43	104	0	29	33991
2026-01-07 00:37:20.48	60.76	19.89	-34.4	-53.8	3.8	7.46e-01	0	43	104	0	29	33651
2026-01-07 00:37:21.49	61.02	19.96	-34.3	-53.7	3.8	7.43e-01	0	43	104	0	29	33467
2026-01-07 00:37:22.49	61.28	20.03	-34.3	-53.6	3.8	7.45e-01	0	43	104	0	29	33347
2026-01-07 00:37:23.49	61.54	20.09	-34.2	-53.5	3.8	7.44e-01	0	43	104	0	29	33181
2026-01-07 00:37:24.49	61.80	20.16	-34.2	-53.4	3.8	7.47e-01	0	43	104	0	29	32940
2026-01-07 00:37:25.50	62.07	20.23	-34.1	-53.2	3.8	7.45e-01	0	43	104	0	29	32453
2026-01-07 00:37:26.51	62.34	20.30	-34.1	-53.1	3.8	7.46e-01	0	43	104	0	29	32202
2026-01-07 00:37:27.51	62.60	20.36	-34.0	-52.9	3.8	7.50e-01	0	43	104	0	29	31688
2026-01-07 00:37:28.52	62.87	20.43	-33.9	-52.6	3.8	7.45e-01	0	43	104	0	29	30984
2026-01-07 00:37:29.53	63.14	20.50	-33.8	-51.8	3.8	7.43e-01	0	43	104	0	28	28456
2026-01-07 00:37:30.54	63.41	20.56	-33.8	-51.5	3.8	7.44e-01	0	43	104	0	28	27781
2026-01-07 00:37:31.54	63.68	20.63	-33.7	-50.8	3.8	7.45e-01	0	43	104	0	28	25733
2026-01-07 00:37:32.55	63.95	20.69	-33.7	-50.1	3.9	7.44e-01	0	43	104	0	28	23870
2026-01-07 00:37:33.56	64.23	20.76	-33.7	-49.2	4.3	7.29e-01	0	43	104	0	28	21530
2026-01-07 00:37:34.56	64.50	20.82	-33.7	-50.0	3.9	7.41e-01	0	43	104	0	28	23478
2026-01-07 00:37:35.57	64.78	20.89	-33.7	-50.1	4.1	7.38e-01	0	43	104	0	28	23864
2026-01-07 00:37:36.58	65.06	20.95	-33.7	-51.1	3.8	7.41e-01	0	43	104	0	28	26486
2026-01-07 00:37:37.59	65.34	21.01	-33.7	-50.8	3.8	7.45e-01	0	43	104	0	28	25867
2026-01-07 00:37:38.59	65.61	21.07	-33.7	-50.3	3.9	7.42e-01	0	43	104	0	28	24386
2026-01-07 00:37:39.60	65.89	21.14	-33.7	-49.7	3.9	7.43e-01	0	43	104	0	28	22686
2026-01-07 00:37:40.61	66.18	21.20	-33.7	-48.6	4.5	7.28e-01	0	43	104	0	28	20205
2026-01-07 00:37:41.62	66.46	21.26	-33.7	-49.3	3.9	7.38e-01	0	43	104	0	28	21694
2026-01-07 00:37:42.63	66.75	21.32	-33.7	-48.9	4.4	7.29e-01	0	43	104	0	28	20672
2026-01-07 00:37:43.63	67.03	21.38	-33.7	-50.4	3.9	7.45e-01	0	43	104	0	28	24600
2026-01-07 00:37:44.63	67.32	21.44	-33.8	-52.2	3.8	7.44e-01	0	43	104	0	28	30036
2026-01-07 00:37:45.64	67.60	21.49	-33.7	-50.9	3.9	7.41e-01	0	43	104	0	28	26004
2026-01-07 00:37:46.64	67.89	21.55	-33.3	-44.0	4.5	7.20e-01	0	43	104	0	28	12308
2026-01-07 00:37:47.65	68.18	21.61	-32.5	-38.4	12.7	6.06e-01	0	43	104	0	27	7041
2026-01-07 00:37:48.66	68.47	21.67	-31.5	-35.5	15.8	6.04e-01	0	44	0	524288	25	5688
2026-01-07 00:37:49.66	68.76	21.72	-30.8	-34.2	17.4	6.04e-01	0	43	102	1048576	23	5344
2026-01-07 00:37:50.67	69.06	21.78	-30.8	-34.7	17.5	6.04e-01	0	43	102	1048576	22	5659
2026-01-07 00:37:51.67	69.35	21.83	-31.5	-36.5	15.9	6.03e-01	0	43	102	1048576	23	6407
2026-01-07 00:37:52.68	69.65	21.89	-32.0	-37.8	14.6	6.02e-01	0	43	102	1048576	24	7004
2026-01-07 00:37:53.69	69.94	21.94	-31.8	-36.8	15.3	6.04e-01	0	43	102	1048576	24	6440
2026-01-07 00:37:54.70	70.24	22.00	-31.9	-37.2	15.1	6.04e-01	0	43	102	1048576	24	6661
2026-01-07 00:37:55.71	70.54	22.05	-31.8	-36.9	15.2	6.04e-01	0	43	102	1048576	24	6498
2026-01-07 00:37:56.72	70.84	22.10	-31.5	-35.7	16.1	6.04e-01	0	44	102	1048576	24	5872
2026-01-07 00:37:57.73	71.14	22.15	-31.3	-35.1	16.6	6.03e-01	0	43	102	1048576	24	5578
2026-01-07 00:37:58.74	71.45	22.20	-31.5	-36.3	16.1	6.04e-01	0	43	102	1048576	23	6251
2026-01-07 00:37:59.74	71.75	22.25	-31.2	-35.5	16.6	6.04e-01	0	43	102	1048576	23	5861
2026-01-07 00:38:00.75	72.05	22.30	-30.9	-34.4	17.4	6.04e-01	0	43	102	1048576	23	5382
2026-01-07 00:38:01.75	72.36	22.35	-30.8	-34.6	17.6	6.03e-01	0	43	102	1048576	22	5570
2026-01-07 00:38:02.76	72.66	22.40	-30.5	-33.9	18.0	6.05e-01	0	43	102	1048576	22	5302
2026-01-07 00:38:03.76	72.97	22.44	-30.4	-33.5	18.2	6.02e-01	0	43	102	1048576	22	5164
2026-01-07 00:38:04.77	73.28	22.49	-30.3	-33.9	18.2	6.06e-01	0	43	102	1048576	21	5400
2026-01-07 00:38:05.78	73.59	22.54	-30.2	-33.6	18.5	6.03e-01	0	43	102	1048576	21	5288
2026-01-07 00:38:06.79	73.90	22.58	-30.5	-34.2	18.1	6.04e-01	0	44	102	1048576	21	5535
2026-01-07 00:38:07.80	74.21	22.63	-30.4	-33.9	18.2	6.02e-01	0	43	102	1048576	21	5438
2026-01-07 00:38:08.81	74.52	22.67	-30.1	-33.2	18.7	6.04e-01	0	43	102	1048576	21	5146
2026-01-07 00:38:09.82	74.83	22.71	-29.8	-33.0	19.2	6.02e-01	0	43	102	1048576	20	5181
2026-01-07 00:38:10.82	75.14	22.76	-29.8	-33.0	19.2	6.04e-01	0	43	102	1048576	20	5169
2026-01-07 00:38:11.83	75.46	22.80	-29.9	-33.1	19.2	5.99e-01	0	43	102	1048576	20	5225
2026-01-07 00:38:12.84	75.78	22.84	-29.8	-32.8	19.3	6.02e-01	0	43	102	1048576	20	5123
2026-01-07 00:38:13.84	76.09	22.88	-29.9	-33.2	19.1	6.02e-01	0	43	102	1048576	20	5246
2026-01-07 00:38:14.85	76.41	22.92	-29.9	-33.1	19.2	6.04e-01	0	43	102	1048576	20	5205
2026-01-07 00:38:15.86	76.73	22.95	-29.8	-33.0	19.2	6.03e-01	0	43	102	1048576	20	5185
2026-01-07 00:38:16.87	77.04	22.99	-29.9	-33.3	19.0	6.03e-01	0	43	102	1048576	20	5279
2026-01-07 00:38:17.87	77.36	23.03	-29.9	-33.1	19.1	6.01e-01	0	43	102	1048576	20	5228
2026-01-07 00:38:18.88	77.68	23.06	-30.0	-33.4	19.0	6.04e-01	0	43	102	1048576	20	5334
2026-01-07 00:38:19.88	78.00	23.10	-29.8	-32.8	19.3	6.03e-01	0	44	102	1048576	20	5114
2026-01-07 00:38:20.89	78.32	23.13	-29.7	-32.6	19.5	6.02e-01	0	43	102	1048576	20	5020
2026-01-07 00:38:21.89	78.64	23.17	-29.6	-32.5	19.5	6.03e-01	0	43	102	1048576	20	5002
2026-01-07 00:38:22.90	78.97	23.20	-29.7	-32.7	19.4	6.03e-01	0	43	102	1048576	20	5072
2026-01-07 00:38:23.91	79.29	23.23	-29.7	-32.7	19.4	6.03e-01	0	43	102	1048576	20	5080
2026-01-07 00:38:24.91	79.61	23.26	-29.7	-32.7	19.4	6.03e-01	0	43	102	1048576	20	5057
2026-01-07 00:38:25.92	79.94	23.29	-29.6	-32.4	19.5	6.01e-01	0	43	102	1048576	20	4980
2026-01-07 00:38:26.93	80.26	23.32	-29.7	-32.7	19.4	6.05e-01	0	43	102	1048576	20	5051
2026-01-07 00:38:27.94	80.59	23.35	-29.7	-32.8	19.3	6.05e-01	0	43	102	1048576	20	5100
2026-01-07 00:38:28.94	80.92	23.37	-29.8	-32.8	19.3	6.03e-01	0	43	102	1048576	20	5128
2026-01-07 00:38:29.95	81.24	23.40	-29.7	-32.7	19.4	6.01e-01	0	43	102	1048576	20	5068
2026-01-07 00:38:30.95	81.57	23.43	-29.8	-32.9	19.3	6.02e-01	0	43	102	1048576	20	5158
2026-01-07 00:38:31.96	81.90	23.45	-29.6	-32.4	19.5	6.04e-01	0	43	102	1048576	20	4974
2026-01-07 00:38:32.96	82.23	23.47	-29.7	-32.7	19.3	6.02e-01	0	43	102	1048576	20	5057
2026-01-07 00:38:33.97	82.56	23.50	-29.8	-32.9	19.3	6.04e-01	0	43	102	1048576	20	5146
2026-01-07 00:38:34.97	82.88	23.52	-29.8	-32.9	19.3	6.03e-01	0	43	102	1048576	20	5157
2026-01-07 00:38:35.97	83.21	23.54	-30.0	-33.4	19.0	6.04e-01	0	43	102	1048576	20	5345
2026-01-07 00:38:36.97	83.54	23.56	-29.8	-33.0	19.2	6.02e-01	0	43	102	1048576	20	5191
2026-01-07 00:38:37.98	83.87	23.58	-29.6	-32.3	19.6	6.04e-01	0	43	102	1048576	20	4941
2026-01-07 00:38:38.99	84.21	23.59	-29.5	-32.1	19.7	6.03e-01	0	43	102	1048576	20	4877
2026-01-07 00:38:39.99	84.54	23.61	-29.7	-32.8	19.3	6.03e-01	0	43	102	1048576	20	5100
2026-01-07 00:38:41.00	84.87	23.63	-29.7	-32.7	19.3	6.04e-01	0	43	102	1048576	20	5078
2026-01-07 00:38:42.00	85.20	23.64	-29.7	-32.6	19.4	6.02e-01	0	43	102	1048576	20	5041
2026-01-07 00:38:43.01	85.53	23.66	-29.7	-32.6	19.5	6.02e-01	0	43	102	1048576	20	5040
2026-01-07 00:38:44.02	85.87	23.67	-30.0	-33.4	19.0	6.03e-01	0	43	102	1048576	20	5336
2026-01-07 00:38:45.03	86.20	23.68	-29.7	-32.6	19.5	6.04e-01	0	43	102	1048576	20	5023
2026-01-07 00:38:46.03	86.53	23.69	-29.5	-32.2	19.7	6.04e-01	0	43	102	1048576	20	4911
2026-01-07 00:38:47.03	86.87	23.70	-29.8	-32.9	19.3	6.05e-01	0	43	102	1048576	20	5156
2026-01-07 00:38:48.04	87.20	23.71	-29.7	-32.8	19.3	6.02e-01	0	43	102	1048576	20	5102
2026-01-07 00:38:49.04	87.53	23.72	-29.6	-32.5	19.5	6.05e-01	0	43	102	1048576	20	5008
2026-01-07 00:38:50.05	87.87	23.73	-29.7	-32.6	19.5	6.03e-01	0	43	102	1048576	20	5028
2026-01-07 00:38:51.05	88.20	23.74	-29.9	-33.2	19.1	6.02e-01	0	43	102	1048576	20	5249
2026-01-07 00:38:52.06	88.54	23.74	-29.8	-32.9	19.3	6.01e-01	0	43	102	1048576	20	5146
2026-01-07 00:38:53.07	88.87	23.75	-29.7	-32.7	19.4	6.03e-01	0	43	102	1048576	20	5092
2026-01-07 00:38:54.07	89.21	23.75	-29.6	-32.5	19.5	6.03e-01	0	43	102	1048576	20	4998
2026-01-07 00:38:55.08	89.54	23.75	-29.7	-32.7	19.4	6.01e-01	0	43	102	1048576	20	5069
2026-01-07 00:38:56.08	89.88	23.75	-29.7	-32.7	19.4	6.03e-01	0	43	102	1048576	20	5096
2026-01-07 00:38:57.09	90.21	23.75	-29.7	-32.8	19.3	6.02e-01	0	43	102	1048576	20	5112
2026-01-07 00:38:58.09	90.55	23.75	-29.7	-32.7	19.4	6.04e-01	0	43	102	1048576	20	5061
2026-01-07 00:38:59.10	90.88	23.75	-29.8	-33.0	19.2	6.02e-01	0	43	102	1048576	20	5181
2026-01-07 00:39:00.11	91.22	23.75	-29.7	-32.5	19.5	6.03e-01	0	43	102	1048576	20	5021
2026-01-07 00:39:01.11	91.55	23.75	-29.7	-32.7	19.4	6.02e-01	0	43	102	1048576	20	5094
2026-01-07 00:39:02.12	91.89	23.74	-29.6	-32.4	19.6	6.03e-01	0	43	102	1048576	20	4962
2026-01-07 00:39:03.13	92.22	23.74	-29.7	-32.6	19.5	6.05e-01	0	43	102	1048576	20	5037
2026-01-07 00:39:04.14	92.56	23.73	-29.8	-32.9	19.2	6.03e-01	0	43	102	1048576	20	5157
2026-01-07 00:39:05.15	92.90	23.72	-29.6	-32.5	19.4	6.04e-01	0	43	102	1048576	20	5005
2026-01-07 00:39:06.15	93.23	23.72	-29.7	-32.7	19.4	6.01e-01	0	43	102	1048576	20	5061
2026-01-07 00:39:07.16	93.57	23.71	-29.8	-32.8	19.3	6.01e-01	0	43	102	1048576	20	5116
2026-01-07 00:39:08.17	93.90	23.70	-29.6	-32.5	19.6	6.06e-01	0	43	102	1048576	20	4992
2026-01-07 00:39:09.18	94.24	23.69	-29.8	-32.8	19.4	6.03e-01	0	43	102	1048576	20	5119
2026-01-07 00:39:10.18	94.57	23.67	-29.7	-32.6	19.5	6.02e-01	0	43	102	1048576	20	5046
2026-01-07 00:39:11.18	94.90	23.66	-29.8	-32.9	19.3	6.03e-01	0	43	102	1048576	20	5146
2026-01-07 00:39:12.19	95.23	23.65	-29.9	-33.1	19.1	6.04e-01	0	43	102	1048576	20	5216
2026-01-07 00:39:13.20	95.57	23.63	-29.9	-33.1	19.2	6.03e-01	0	43	102	1048576	20	5213
2026-01-07 00:39:14.20	95.90	23.62	-30.1	-33.6	18.9	6.05e-01	0	43	102	1048576	20	5402
2026-01-07 00:39:15.21	96.23	23.60	-30.0	-33.5	18.9	6.04e-01	0	43	102	1048576	20	5382
2026-01-07 00:39:16.22	96.56	23.58	-30.0	-33.5	18.9	6.02e-01	0	43	102	1048576	20	5388
2026-01-07 00:39:17.22	96.89	23.56	-30.1	-33.6	18.9	6.01e-01	0	43	102	1048576	20	5411
2026-01-07 00:39:18.22	97.22	23.54	-30.1	-33.6	18.8	6.04e-01	0	43	102	1048576	20	5407
2026-01-07 00:39:19.23	97.56	23.52	-30.0	-33.1	18.8	6.01e-01	0	43	102	1048576	21	5091
2026-01-07 00:39:20.25	97.89	23.50	-30.0	-32.9	18.9	6.04e-01	0	43	102	1048576	21	5029
2026-01-07 00:39:21.25	98.22	23.48	-30.0	-33.0	18.9	6.02e-01	0	43	102	1048576	21	5092
2026-01-07 00:39:22.26	98.55	23.46	-30.0	-32.9	19.0	6.05e-01	0	43	102	1048576	21	5037
2026-01-07 00:39:23.26	98.88	23.43	-29.7	-32.2	19.4	6.03e-01	0	43	102	1048576	21	4807
2026-01-07 00:39:24.27	99.20	23.41	-29.7	-32.1	19.5	6.03e-01	0	43	102	1048576	21	4748
2026-01-07 00:39:25.27	99.53	23.38	-29.6	-31.8	19.6	6.02e-01	0	43	102	1048576	21	4652
2026-01-07 00:39:26.28	99.86	23.35	-29.6	-32.0	19.5	6.03e-01	0	43	102	1048576	21	4714
2026-01-07 00:39:27.29	100.19	23.33	-29.8	-32.4	19.2	6.04e-01	0	43	102	1048576	21	4871
2026-01-07 00:39:28.30	100.51	23.30	-29.8	-32.3	19.3	6.01e-01	0	43	102	1048576	21	4832
2026-01-07 00:39:29.30	100.84	23.27	-29.8	-32.3	19.3	6.03e-01	0	43	102	1048576	21	4834
2026-01-07 00:39:30.31	101.16	23.24	-29.7	-32.1	19.5	6.02e-01	0	43	102	1048576	21	4751
2026-01-07 00:39:31.32	101.49	23.21	-29.6	-31.9	19.6	6.05e-01	0	43	102	1048576	21	4684
2026-01-07 00:39:32.32	101.81	23.17	-29.7	-32.1	19.5	6.02e-01	0	43	102	1048576	21	4749
2026-01-07 00:39:33.33	102.13	23.14	-29.8	-32.3	19.3	6.02e-01	0	43	102	1048576	21	4839
2026-01-07 00:39:34.34	102.46	23.11	-30.0	-32.9	18.9	6.04e-01	0	43	102	1048576	21	5050
2026-01-07 00:39:35.34	102.78	23.07	-30.1	-33.1	18.8	6.00e-01	0	43	102	1048576	21	5109
2026-01-07 00:39:36.35	103.10	23.04	-30.0	-32.9	18.9	6.02e-01	0	43	102	1048576	21	5035
2026-01-07 00:39:37.35	103.42	23.00	-29.8	-33.0	19.1	6.03e-01	0	43	102	1048576	20	5195
2026-01-07 00:39:38.36	103.74	22.96	-29.6	-32.4	19.5	6.04e-01	0	43	102	1048576	20	4983
2026-01-07 00:39:39.37	104.06	22.93	-29.9	-33.1	19.1	6.04e-01	0	43	102	1048576	20	5243
2026-01-07 00:39:40.37	104.37	22.89	-29.9	-33.1	19.1	6.03e-01	0	43	102	1048576	20	5239
2026-01-07 00:39:41.37	104.69	22.85	-29.8	-32.9	19.3	6.06e-01	0	43	102	1048576	20	5150
2026-01-07 00:39:42.38	105.00	22.81	-30.0	-33.4	18.9	6.01e-01	0	43	102	1048576	20	5342
2026-01-07 00:39:43.39	105.32	22.77	-29.9	-33.3	19.0	6.06e-01	0	43	102	1048576	20	5295
2026-01-07 00:39:44.39	105.63	22.72	-30.0	-33.0	18.8	6.04e-01	0	43	102	1048576	21	5095
2026-01-07 00:39:45.40	105.95	22.68	-29.7	-32.6	19.4	6.02e-01	0	43	102	1048576	20	5058
2026-01-07 00:39:46.40	106.26	22.64	-29.5	-32.1	19.7	6.02e-01	0	43	102	1048576	20	4871
2026-01-07 00:39:47.40	106.57	22.59	-29.5	-32.0	19.8	6.04e-01	0	43	102	1048576	20	4846
2026-01-07 00:39:48.40	106.87	22.55	-29.5	-32.2	19.7	6.02e-01	0	43	102	1048576	20	4889
2026-01-07 00:39:49.41	107.18	22.50	-29.5	-32.3	19.6	6.04e-01	0	43	102	1048576	20	4920
2026-01-07 00:39:50.41	107.49	22.46	-29.6	-32.5	19.5	6.02e-01	0	43	102	1048576	20	5004
2026-01-07 00:39:51.42	107.80	22.41	-29.7	-32.6	19.4	6.03e-01	0	43	102	1048576	20	5052
2026-01-07 00:39:52.43	108.11	22.36	-29.7	-32.6	19.3	6.02e-01	0	43	102	1048576	20	5050
2026-01-07 00:39:53.43	108.41	22.31	-29.5	-32.1	19.6	6.02e-01	0	43	102	1048576	20	4870
2026-01-07 00:39:54.44	108.72	22.26	-29.5	-32.7	19.7	6.01e-01	0	43	102	1048576	19	5173
2026-01-07 00:39:55.44	109.02	22.21	-29.5	-32.7	19.7	6.03e-01	0	43	102	1048576	19	5196
2026-01-07 00:39:56.45	109.32	22.16	-29.6	-32.5	19.4	6.05e-01	0	43	102	1048576	20	5024
2026-01-07 00:39:57.45	109.62	22.11	-29.7	-32.8	19.3	6.04e-01	0	43	102	1048576	20	5117
2026-01-07 00:39:58.46	109.93	22.06	-29.6	-32.6	19.3	6.04e-01	0	43	102	1048576	20	5058
2026-01-07 00:39:59.47	110.23	22.01	-29.5	-32.3	19.5	6.03e-01	0	43	102	1048576	20	4964
2026-01-07 00:40:00.48	110.53	21.95	-29.6	-32.5	19.3	6.05e-01	0	43	102	1048576	20	5037
2026-01-07 00:40:01.49	110.83	21.90	-29.6	-32.5	19.3	6.02e-01	0	43	102	1048576	20	5048
2026-01-07 00:40:02.49	111.12	21.85	-29.4	-32.0	19.7	6.03e-01	0	43	102	1048576	20	4860
2026-01-07 00:40:03.50	111.42	21.79	-29.4	-32.5	19.8	6.03e-01	0	43	102	1048576	19	5123
2026-01-07 00:40:04.51	111.71	21.74	-29.4	-32.6	19.7	6.06e-01	0	43	102	1048576	19	5156
2026-01-07 00:40:05.51	112.00	21.68	-29.5	-32.8	19.6	6.04e-01	0	43	102	1048576	19	5251
2026-01-07 00:40:06.52	112.30	21.62	-29.6	-32.9	19.5	6.03e-01	0	43	102	1048576	19	5294
2026-01-07 00:40:07.53	112.59	21.56	-29.6	-32.9	19.5	6.04e-01	0	43	102	1048576	19	5259
2026-01-07 00:40:08.53	112.88	21.51	-29.6	-32.5	19.4	6.02e-01	0	43	102	1048576	20	5018
2026-01-07 00:40:09.55	113.17	21.45	-29.7	-32.7	19.2	6.03e-01	0	43	102	1048576	20	5119
2026-01-07 00:40:10.55	113.46	21.39	-29.6	-32.5	19.3	6.04e-01	0	43	102	1048576	20	5045
2026-01-07 00:40:11.55	113.74	21.33	-29.5	-32.2	19.5	6.02e-01	0	43	102	1048576	20	4930
2026-01-07 00:40:12.56	114.03	21.27	-29.5	-32.2	19.5	6.03e-01	0	43	102	1048576	20	4942
2026-01-07 00:40:13.57	114.31	21.21	-29.6	-32.9	19.5	6.03e-01	0	43	102	1048576	19	5288
2026-01-07 00:40:14.57	114.60	21.15	-29.6	-32.5	19.4	6.04e-01	0	43	102	1048576	20	5030
2026-01-07 00:40:15.58	114.88	21.08	-29.7	-32.7	19.3	6.02e-01	0	43	102	1048576	20	5109
2026-01-07 00:40:16.59	115.16	21.02	-29.7	-32.8	19.2	6.04e-01	0	43	102	1048576	20	5135
2026-01-07 00:40:17.60	115.44	20.96	-29.6	-32.5	19.4	6.04e-01	0	43	102	1048576	20	5031
2026-01-07 00:40:18.62	115.72	20.89	-29.6	-32.5	19.3	6.05e-01	0	43	102	1048576	20	5055
2026-01-07 00:40:19.61	116.00	20.83	-29.7	-32.8	19.1	6.02e-01	0	43	102	1048576	20	5151
2026-01-07 00:40:20.62	116.28	20.77	-29.6	-32.7	19.2	6.05e-01	0	43	102	1048576	20	5124
2026-01-07 00:40:21.62	116.55	20.70	-29.5	-32.3	19.4	6.02e-01	0	43	102	1048576	20	4978
2026-01-07 00:40:22.61	116.82	20.64	-29.4	-32.2	19.5	6.03e-01	0	43	102	1048576	20	4927
2026-01-07 00:40:23.62	117.09	20.57	-29.4	-32.1	19.5	6.04e-01	0	43	102	1048576	20	4920
2026-01-07 00:40:24.62	117.36	20.51	-29.5	-32.2	19.5	6.03e-01	0	43	102	1048576	20	4945
2026-01-07 00:40:25.62	117.63	20.44	-29.5	-32.4	19.4	6.07e-01	0	44	102	1048576	20	5014
2026-01-07 00:40:26.63	117.90	20.37	-29.6	-32.6	19.2	6.03e-01	0	43	102	1048576	20	5096
2026-01-07 00:40:27.64	118.17	20.31	-29.7	-32.9	19.1	6.02e-01	0	43	102	1048576	20	5196
2026-01-07 00:40:28.64	118.43	20.24	-29.6	-32.5	19.2	6.00e-01	0	43	102	1048576	20	5064
2026-01-07 00:40:29.65	118.70	20.17	-29.4	-32.0	19.6	6.05e-01	0	43	102	1048576	20	4851
2026-01-07 00:40:30.66	118.97	20.10	-29.4	-32.5	19.7	6.03e-01	0	43	102	1048576	19	5124
2026-01-07 00:40:31.66	119.23	20.03	-29.5	-32.7	19.6	6.01e-01	0	43	102	1048576	19	5223
2026-01-07 00:40:32.67	119.49	19.96	-29.6	-33.0	19.4	6.04e-01	0	43	102	1048576	19	5323
2026-01-07 00:40:33.68	119.75	19.89	-29.5	-32.3	19.4	6.03e-01	0	43	102	1048576	20	4986
2026-01-07 00:40:34.68	120.01	19.83	-29.5	-32.9	19.5	6.01e-01	0	43	102	1048576	19	5295
2026-01-07 00:40:35.69	120.27	19.75	-29.5	-32.7	19.5	6.03e-01	0	43	102	1048576	19	5227
2026-01-07 00:40:36.69	120.52	19.68	-29.4	-32.6	19.6	6.04e-01	0	44	102	1048576	19	5180
2026-01-07 00:40:37.69	120.78	19.61	-29.5	-32.8	19.5	6.04e-01	0	43	102	1048576	19	5245
2026-01-07 00:40:38.70	121.03	19.54	-29.5	-32.7	19.6	6.03e-01	0	43	102	1048576	19	5211
2026-01-07 00:40:39.70	121.29	19.47	-29.4	-32.5	19.6	6.03e-01	0	43	102	1048576	19	5166
2026-01-07 00:40:40.71	121.54	19.40	-29.4	-32.6	19.6	6.04e-01	0	43	102	1048576	19	5185
2026-01-07 00:40:41.71	121.79	19.33	-29.4	-32.5	19.6	6.03e-01	0	43	102	1048576	19	5144
2026-01-07 00:40:42.72	122.04	19.26	-29.4	-32.4	19.7	6.06e-01	0	43	102	1048576	19	5127
2026-01-07 00:40:43.72	122.29	19.18	-29.4	-32.6	19.6	6.02e-01	0	43	102	1048576	19	5186
2026-01-07 00:40:44.74	122.54	19.11	-29.4	-32.6	19.6	6.03e-01	0	43	102	1048576	19	5184
2026-01-07 00:40:45.74	122.78	19.04	-29.4	-32.5	19.6	6.03e-01	0	43	102	1048576	19	5151
2026-01-07 00:40:46.75	123.03	18.96	-29.4	-32.5	19.7	6.02e-01	0	43	102	1048576	19	5159
2026-01-07 00:40:47.76	123.27	18.89	-29.4	-32.7	19.5	6.01e-01	0	43	102	1048576	19	5223
2026-01-07 00:40:48.77	123.51	18.81	-29.4	-32.6	19.6	6.03e-01	0	43	102	1048576	19	5195
2026-01-07 00:40:49.78	123.76	18.74	-29.4	-32.5	19.6	6.04e-01	0	43	102	1048576	19	5172
2026-01-07 00:40:50.79	124.00	18.67	-29.5	-32.7	19.5	6.03e-01	0	43	102	1048576	19	5217
2026-01-07 00:40:51.79	124.23	18.59	-29.4	-32.6	19.5	6.03e-01	0	43	102	1048576	19	5200
2026-01-07 00:40:52.80	124.47	18.52	-29.6	-33.0	19.3	6.03e-01	0	43	102	1048576	19	5324
2026-01-07 00:40:53.81	124.71	18.44	-29.4	-32.5	19.6	6.05e-01	0	43	102	1048576	19	5158
2026-01-07 00:40:54.82	124.95	18.37	-29.3	-32.2	19.8	6.01e-01	0	43	102	1048576	19	5037
2026-01-07 00:40:55.82	125.18	18.29	-29.2	-32.1	19.9	6.03e-01	0	43	102	1048576	19	5005
2026-01-07 00:40:56.83	125.41	18.21	-29.3	-32.3	19.7	6.05e-01	0	43	102	1048576	19	5098
2026-01-07 00:40:57.84	125.64	18.14	-29.4	-32.5	19.6	6.03e-01	0	43	102	1048576	19	5168
2026-01-07 00:40:58.84	125.87	18.06	-29.3	-32.4	19.7	6.02e-01	0	43	102	1048576	19	5122
2026-01-07 00:40:59.85	126.10	17.99	-29.3	-32.4	19.6	6.03e-01	0	43	102	1048576	19	5129
2026-01-07 00:41:00.85	126.33	17.91	-29.5	-32.7	19.5	6.05e-01	0	43	102	1048576	19	5241
2026-01-07 00:41:01.86	126.56	17.83	-29.4	-32.6	19.5	6.03e-01	0	43	102	1048576	19	5177
2026-01-07 00:41:02.87	126.78	17.76	-29.3	-32.3	19.7	6.02e-01	0	43	102	1048576	19	5050
2026-01-07 00:41:03.87	127.01	17.68	-29.3	-32.2	19.8	6.03e-01	0	43	102	1048576	19	5036
2026-01-07 00:41:04.87	127.23	17.60	-29.3	-32.2	19.7	6.03e-01	0	43	102	1048576	19	5052
2026-01-07 00:41:05.88	127.45	17.53	-28.7	-31.7	19.7	6.02e-01	0	43	102	1048576	19	5090
2026-01-07 00:41:06.88	127.67	17.45	-29.3	-32.4	19.5	6.04e-01	0	43	102	1048576	19	5152
2026-01-07 00:41:07.89	127.89	17.37	-29.3	-32.3	19.6	6.02e-01	0	43	102	1048576	19	5102
2026-01-07 00:41:08.89	128.11	17.30	-29.3	-32.4	19.5	6.04e-01	0	43	102	1048576	19	5126
2026-01-07 00:41:09.90	128.33	17.22	-29.3	-32.4	19.6	6.03e-01	0	43	102	1048576	19	5114
2026-01-07 00:41:10.91	128.54	17.14	-29.3	-32.4	19.6	6.03e-01	0	43	102	1048576	19	5100
2026-01-07 00:41:11.91	128.76	17.06	-29.4	-32.6	19.5	6.05e-01	0	43	102	1048576	19	5183
2026-01-07 00:41:12.92	128.97	16.98	-29.6	-32.5	19.2	6.01e-01	0	43	102	1048576	20	5046
2026-01-07 00:41:13.93	129.19	16.91	-29.8	-33.1	18.8	6.03e-01	0	43	102	1048576	20	5257
2026-01-07 00:41:14.93	129.40	16.83	-29.6	-32.6	19.0	6.02e-01	0	43	102	1048576	20	5101
2026-01-07 00:41:15.94	129.61	16.75	-29.5	-32.9	19.3	6.03e-01	0	43	102	1048576	19	5302
2026-01-07 00:41:16.94	129.82	16.67	-29.4	-32.7	19.4	6.02e-01	0	43	102	1048576	19	5225
2026-01-07 00:41:17.95	130.03	16.59	-29.5	-32.9	19.2	6.03e-01	0	43	102	1048576	19	5326
2026-01-07 00:41:18.96	130.23	16.52	-29.6	-32.8	18.9	6.05e-01	0	43	102	1048576	20	5173
2026-01-07 00:41:19.96	130.44	16.44	-29.9	-33.5	18.5	6.03e-01	0	43	102	1048576	20	5448
2026-01-07 00:41:20.97	130.64	16.36	-29.6	-32.6	19.0	6.01e-01	0	43	102	1048576	20	5136
2026-01-07 00:41:21.97	130.85	16.28	-29.4	-32.2	19.3	6.03e-01	0	43	102	1048576	20	4957
2026-01-07 00:41:22.98	131.05	16.20	-29.3	-31.9	19.4	6.03e-01	0	43	102	1048576	20	4854
2026-01-07 00:41:23.99	131.25	16.12	-29.4	-32.0	19.4	6.03e-01	0	43	102	1048576	20	4906
2026-01-07 00:41:25.00	131.45	16.04	-29.4	-32.2	19.3	6.06e-01	0	43	102	1048576	20	4948
2026-01-07 00:41:26.00	131.65	15.97	-29.6	-32.6	19.0	6.04e-01	0	43	102	1048576	20	5090
2026-01-07 00:41:27.00	131.85	15.89	-29.5	-32.9	19.2	6.01e-01	0	43	102	1048576	19	5296
2026-01-07 00:41:28.01	132.05	15.81	-29.6	-32.7	19.0	6.03e-01	0	43	102	1048576	20	5126
2026-01-07 00:41:29.02	132.24	15.73	-29.7	-33.1	18.7	6.04e-01	0	43	102	1048576	20	5288
2026-01-07 00:41:30.03	132.44	15.65	-29.5	-32.5	19.0	6.06e-01	0	43	102	1048576	20	5061
2026-01-07 00:41:31.03	132.63	15.57	-29.3	-32.5	19.4	6.06e-01	0	43	102	1048576	19	5170
2026-01-07 00:41:32.04	132.83	15.49	-29.5	-32.9	19.1	6.02e-01	0	43	102	1048576	19	5335
2026-01-07 00:41:33.05	133.02	15.42	-29.6	-32.6	19.0	6.04e-01	0	43	102	1048576	20	5093
2026-01-07 00:41:34.06	133.21	15.34	-29.6	-32.7	18.9	6.03e-01	0	43	102	1048576	20	5126
2026-01-07 00:41:35.06	133.40	15.26	-29.6	-32.8	18.8	6.03e-01	0	43	102	1048576	20	5200
2026-01-07 00:41:36.07	133.59	15.18	-29.6	-32.7	18.9	6.03e-01	0	43	102	1048576	20	5153
2026-01-07 00:41:37.08	133.78	15.10	-29.6	-32.8	18.7	6.04e-01	0	43	102	1048576	20	5217
2026-01-07 00:41:38.09	133.97	15.02	-29.7	-33.3	18.3	6.01e-01	0	43	102	1048576	20	5446
2026-01-07 00:41:39.10	134.15	14.94	-29.6	-33.0	18.6	6.03e-01	0	43	102	1048576	20	5320
2026-01-07 00:41:40.11	134.34	14.86	-29.6	-32.8	18.7	6.02e-01	0	43	102	1048576	20	5251
2026-01-07 00:41:41.12	134.52	14.78	-29.7	-33.1	18.5	6.04e-01	0	43	102	1048576	20	5335
2026-01-07 00:41:42.12	134.70	14.71	-29.7	-33.2	18.5	6.03e-01	0	43	102	1048576	20	5358
2026-01-07 00:41:43.11	134.88	14.63	-29.8	-33.3	18.4	6.02e-01	0	43	102	1048576	20	5394
2026-01-07 00:41:44.12	135.06	14.55	-29.7	-33.1	18.5	6.04e-01	0	43	102	1048576	20	5304
2026-01-07 00:41:45.12	135.24	14.47	-29.9	-33.6	18.1	6.06e-01	0	43	102	1048576	20	5511
2026-01-07 00:41:46.13	135.42	14.39	-29.7	-33.0	18.5	6.05e-01	0	43	102	1048576	20	5289
2026-01-07 00:41:47.14	135.60	14.31	-29.4	-32.3	18.9	6.04e-01	0	43	102	1048576	20	5013
2026-01-07 00:41:48.14	135.78	14.24	-29.4	-32.7	19.1	6.05e-01	0	43	102	1048576	19	5277
2026-01-07 00:41:49.15	135.95	14.16	-29.5	-33.1	18.8	6.04e-01	0	43	102	1048576	19	5432
2026-01-07 00:41:50.16	136.13	14.08	-29.6	-32.9	18.5	6.02e-01	0	43	102	1048576	20	5258
2026-01-07 00:41:51.16	136.30	14.00	-29.6	-32.9	18.6	6.03e-01	0	43	102	1048576	20	5246
2026-01-07 00:41:52.17	136.48	13.92	-29.7	-33.0	18.5	6.02e-01	0	43	102	1048576	20	5298
2026-01-07 00:41:53.18	136.65	13.84	-29.8	-33.3	18.3	6.01e-01	0	43	102	1048576	20	5400
2026-01-07 00:41:54.19	136.82	13.76	-29.8	-33.5	18.2	6.03e-01	0	43	102	1048576	20	5485
2026-01-07 00:41:55.19	136.99	13.69	-29.7	-33.2	18.3	6.01e-01	0	43	102	1048576	20	5379
2026-01-07 00:41:56.20	137.16	13.61	-29.7	-33.1	18.4	6.05e-01	0	43	102	1048576	20	5333
2026-01-07 00:41:57.20	137.33	13.53	-29.6	-33.0	18.4	6.00e-01	0	43	102	1048576	20	5316
2026-01-07 00:41:58.21	137.49	13.45	-29.7	-33.2	18.3	6.02e-01	0	43	102	1048576	20	5412
2026-01-07 00:41:59.22	137.66	13.37	-29.9	-33.8	17.9	6.04e-01	0	43	102	1048576	20	5622
2026-01-07 00:42:00.23	137.83	13.30	-29.7	-33.2	18.3	6.05e-01	0	43	102	1048576	20	5382
2026-01-07 00:42:01.24	137.99	13.22	-29.5	-32.7	18.6	6.04e-01	0	43	102	1048576	20	5198
2026-01-07 00:42:02.24	138.16	13.14	-29.4	-32.4	18.8	6.03e-01	0	43	102	1048576	20	5072
2026-01-07 00:42:03.25	138.32	13.06	-29.4	-32.3	18.9	6.03e-01	0	43	102	1048576	20	5026
2026-01-07 00:42:04.26	138.48	12.99	-29.4	-32.3	18.8	6.04e-01	0	43	102	1048576	20	5051
2026-01-07 00:42:05.27	138.64	12.91	-29.4	-32.4	18.8	6.03e-01	0	43	102	1048576	20	5081
2026-01-07 00:42:06.28	138.80	12.83	-29.4	-32.4	18.7	6.05e-01	0	43	102	1048576	20	5091
2026-01-07 00:42:07.29	138.96	12.75	-29.5	-32.6	18.7	6.03e-01	0	43	102	1048576	20	5148
2026-01-07 00:42:08.29	139.12	12.68	-29.5	-32.7	18.5	6.02e-01	0	43	102	1048576	20	5193
2026-01-07 00:42:09.30	139.28	12.60	-29.6	-33.3	18.6	6.04e-01	0	43	102	1048576	19	5519
2026-01-07 00:42:10.31	139.44	12.52	-29.6	-32.8	18.5	6.03e-01	0	43	102	1048576	20	5235
2026-01-07 00:42:11.31	139.59	12.44	-29.6	-32.8	18.5	6.05e-01	0	43	102	1048576	20	5211
2026-01-07 00:42:12.32	139.75	12.37	-29.5	-33.0	18.7	6.04e-01	0	43	102	1048576	19	5424
2026-01-07 00:42:13.33	139.90	12.29	-29.5	-33.2	18.6	6.03e-01	0	43	102	1048576	19	5512
2026-01-07 00:42:14.34	140.06	12.21	-29.7	-33.4	18.1	6.05e-01	0	43	102	1048576	20	5486
2026-01-07 00:42:15.34	140.21	12.14	-29.8	-33.5	17.9	6.04e-01	0	43	102	1048576	20	5551
2026-01-07 00:42:16.35	140.36	12.06	-29.5	-32.9	18.3	6.03e-01	0	43	102	1048576	20	5295
2026-01-07 00:42:17.35	140.51	11.98	-29.5	-32.9	18.3	6.01e-01	0	43	102	1048576	20	5286
2026-01-07 00:42:18.36	140.66	11.91	-29.4	-32.5	18.6	6.03e-01	0	43	102	1048576	20	5138
2026-01-07 00:42:19.37	140.81	11.83	-29.5	-33.1	18.6	6.05e-01	0	43	102	1048576	19	5461
2026-01-07 00:42:20.37	140.96	11.76	-29.5	-33.1	18.5	6.04e-01	0	43	102	1048576	19	5471
2026-01-07 00:42:21.37	141.10	11.68	-29.5	-32.8	18.3	6.04e-01	0	43	102	1048576	20	5251
2026-01-07 00:42:22.38	141.25	11.60	-29.5	-32.8	18.4	6.00e-01	0	43	102	1048576	20	5267
2026-01-07 00:42:23.40	141.40	11.53	-29.5	-32.7	18.4	6.04e-01	0	43	102	1048576	20	5201
2026-01-07 00:42:24.40	141.54	11.45	-29.6	-33.4	18.3	6.05e-01	0	43	102	1048576	19	5597
2026-01-07 00:42:25.41	141.69	11.38	-29.7	-33.3	18.0	6.00e-01	0	43	102	1048576	20	5474
2026-01-07 00:42:26.42	141.83	11.30	-29.8	-33.5	17.8	6.05e-01	0	43	102	1048576	20	5542
2026-01-07 00:42:27.42	141.98	11.23	-29.7	-33.4	17.9	6.02e-01	0	43	102	1048576	20	5524
2026-01-07 00:42:28.42	142.12	11.15	-29.7	-33.5	17.8	6.03e-01	0	43	102	1048576	20	5571
2026-01-07 00:42:29.43	142.26	11.08	-28.6	-32.6	17.6	6.05e-01	0	44	102	1048576	20	5739
2026-01-07 00:42:30.43	142.40	11.00	-28.2	-32.2	17.6	6.04e-01	0	43	102	1048576	20	5701
2026-01-07 00:42:31.43	142.54	10.93	-29.7	-33.5	17.7	6.04e-01	0	43	102	1048576	20	5586
2026-01-07 00:42:32.44	142.68	10.85	-29.9	-33.9	17.0	6.03e-01	0	43	102	1048576	20	5756
2026-01-07 00:42:33.45	142.82	10.78	-30.0	-34.2	17.1	6.00e-01	0	44	102	1048576	20	5893
2026-01-07 00:42:34.45	142.95	10.70	-30.1	-34.6	17.0	6.05e-01	0	43	102	1048576	20	6071
2026-01-07 00:42:35.46	143.09	10.63	-29.9	-34.1	17.2	6.03e-01	0	43	102	1048576	20	5833
2026-01-07 00:42:36.46	143.23	10.55	-29.9	-34.1	17.3	6.03e-01	0	43	102	1048576	20	5828
2026-01-07 00:42:37.47	143.36	10.48	-29.9	-34.2	17.2	6.01e-01	0	43	102	1048576	20	5913
2026-01-07 00:42:38.48	143.50	10.41	-30.0	-34.4	17.0	6.05e-01	0	43	102	1048576	20	5978
2026-01-07 00:42:39.48	143.63	10.33	-29.7	-33.7	17.5	6.04e-01	0	43	102	1048576	20	5676
2026-01-07 00:42:40.49	143.77	10.26	-29.8	-34.1	17.2	6.04e-01	0	43	102	1048576	20	5883
2026-01-07 00:42:41.49	143.90	10.18	-29.9	-34.4	16.9	6.05e-01	0	43	102	1048576	20	6056
2026-01-07 00:42:42.50	144.03	10.11	-29.6	-33.6	17.4	6.04e-01	0	43	102	1048576	20	5681
2026-01-07 00:42:43.51	144.16	10.04	-29.6	-33.5	17.5	6.01e-01	0	43	102	1048576	20	5654
2026-01-07 00:42:44.52	144.29	9.96	-29.5	-33.3	17.7	6.03e-01	0	43	102	1048576	20	5542
2026-01-07 00:42:45.52	144.42	9.89	-29.6	-33.5	17.5	6.03e-01	0	43	102	1048576	20	5621
2026-01-07 00:42:46.53	144.55	9.82	-29.7	-33.8	17.3	6.03e-01	0	43	102	1048576	20	5766
2026-01-07 00:42:47.54	144.68	9.74	-29.8	-33.9	17.2	6.03e-01	0	43	102	1048576	20	5806
2026-01-07 00:42:48.55	144.81	9.67	-29.7	-33.5	17.6	6.04e-01	0	43	102	1048576	20	5587
2026-01-07 00:42:49.56	144.94	9.60	-29.7	-33.6	17.5	6.02e-01	0	43	102	1048576	20	5640
2026-01-07 00:42:50.56	145.06	9.52	-29.8	-33.9	17.3	6.05e-01	0	43	102	1048576	20	5776
2026-01-07 00:42:51.57	145.19	9.45	-29.9	-34.2	17.1	6.04e-01	0	43	102	1048576	20	5879
2026-01-07 00:42:52.58	145.32	9.38	-30.0	-34.6	16.9	6.05e-01	0	43	102	1048576	20	6083
2026-01-07 00:42:53.58	145.44	9.31	-29.9	-34.3	16.9	6.04e-01	0	44	102	1048576	20	5963
2026-01-07 00:42:54.59	145.56	9.23	-29.6	-33.5	17.5	6.02e-01	0	43	102	1048576	20	5594
2026-01-07 00:42:55.60	145.69	9.16	-29.7	-33.6	17.4	6.03e-01	0	43	102	1048576	20	5662
2026-01-07 00:42:56.60	145.81	9.09	-29.7	-33.7	17.3	6.05e-01	0	43	102	1048576	20	5696
2026-01-07 00:42:57.61	145.93	9.02	-29.7	-33.8	17.2	6.04e-01	0	43	102	1048576	20	5771
2026-01-07 00:42:58.62	146.05	8.95	-29.9	-34.4	16.9	6.02e-01	0	43	102	1048576	20	6036
2026-01-07 00:42:59.63	146.18	8.88	-29.8	-34.1	17.0	6.04e-01	0	43	102	1048576	20	5918
2026-01-07 00:43:00.63	146.29	8.80	-29.7	-33.8	17.3	6.06e-01	0	43	102	1048576	20	5764
2026-01-07 00:43:01.64	146.41	8.73	-29.7	-33.7	17.4	6.04e-01	0	43	102	1048576	20	5700
2026-01-07 00:43:02.64	146.53	8.66	-29.8	-33.9	17.3	6.03e-01	0	43	102	1048576	20	5777
2026-01-07 00:43:03.65	146.65	8.59	-29.7	-33.6	17.4	6.03e-01	0	43	102	1048576	20	5673
2026-01-07 00:43:04.66	146.77	8.52	-29.6	-33.5	17.5	6.01e-01	0	43	102	1048576	20	5629
2026-01-07 00:43:05.67	146.89	8.45	-29.6	-33.6	17.4	6.03e-01	0	43	102	1048576	20	5686
2026-01-07 00:43:06.67	147.00	8.38	-29.5	-33.5	17.4	6.02e-01	0	43	102	1048576	20	5707
2026-01-07 00:43:07.68	147.12	8.31	-29.6	-33.9	17.0	6.02e-01	0	43	102	1048576	20	5915
2026-01-07 00:43:08.69	147.24	8.24	-29.6	-33.8	17.1	6.02e-01	0	43	102	1048576	20	5852
2026-01-07 00:43:09.70	147.35	8.17	-29.6	-33.7	17.2	6.04e-01	0	43	102	1048576	20	5798
2026-01-07 00:43:10.71	147.47	8.10	-29.6	-33.7	17.3	6.02e-01	0	43	102	1048576	20	5770
2026-01-07 00:43:11.72	147.58	8.03	-29.6	-33.7	17.3	6.02e-01	0	43	102	1048576	20	5755
2026-01-07 00:43:12.72	147.69	7.96	-29.6	-33.9	17.1	6.04e-01	0	43	102	1048576	20	5887
2026-01-07 00:43:13.73	147.81	7.89	-29.6	-33.9	17.0	6.02e-01	0	43	102	1048576	20	5881
2026-01-07 00:43:14.73	147.92	7.82	-29.7	-33.9	17.1	6.01e-01	0	43	102	1048576	20	5894
2026-01-07 00:43:15.75	148.03	7.75	-29.8	-34.3	16.8	6.03e-01	0	43	102	1048576	20	6057
2026-01-07 00:43:16.75	148.14	7.68	-29.7	-34.3	16.8	6.05e-01	0	43	102	1048576	20	6070
2026-01-07 00:43:17.76	148.25	7.61	-29.7	-34.3	16.7	6.02e-01	0	43	102	1048576	20	6132
2026-01-07 00:43:18.76	148.36	7.54	-29.6	-34.1	16.7	6.02e-01	0	43	102	1048576	20	6075
2026-01-07 00:43:19.77	148.47	7.47	-29.6	-34.3	16.6	6.01e-01	0	43	102	1048576	20	6195
2026-01-07 00:43:20.78	148.58	7.40	-29.5	-34.2	16.6	6.03e-01	0	43	102	1048576	20	6211
2026-01-07 00:43:21.79	148.69	7.33	-29.4	-34.6	16.5	6.05e-01	0	43	102	1048576	19	6621
2026-01-07 00:43:22.79	148.79	7.26	-29.3	-34.5	16.6	6.04e-01	0	43	102	1048576	19	6562
2026-01-07 00:43:23.80	148.90	7.19	-29.3	-34.6	16.6	6.02e-01	0	43	102	1048576	19	6608
2026-01-07 00:43:24.81	149.01	7.13	-29.5	-35.1	16.1	6.02e-01	0	43	102	1048576	19	6901
2026-01-07 00:43:25.82	149.11	7.06	-32.2	-51.0	3.9	7.43e-01	0	43	104	1048576	25	31175
2026-01-07 00:43:26.82	149.22	6.99	-33.3	-52.7	3.8	7.44e-01	0	43	104	1048576	27	33711
2026-01-07 00:43:27.83	149.32	6.92	-33.6	-52.9	3.8	7.46e-01	0	43	104	1048576	28	33146

#Closed at: 2026-01-07 00:43:28
#Recorded file [1 MB]: D:/data/31010_260107_033748.dat