passes_logs/2026/01/07/R2M6_AANII_01/R2M6_AANII_01__20260107_132604_AQUA_rec.log

#Pass ID: 20260107_132604_AQUA
#Satellite: AQUA
#Configuration: AQUA
#almurnet v.1.7.20240730
#Start time: 2026-01-07 13:26:03

#Version: 2.2.20231116
#Station: R2M6_AANII_01
#Location: 30.233357 lon 59.946436 lat
#TLE: 1 27424U 02022A   26004.96787593  .00001598  00000+0  32997-3 0  9996
#TLE: 2 27424  98.4069 331.2279 0002002  90.2377   0.6092 14.61798176259425

#Time	Az	El	Level	Level2	SNR	BER	BlckErr	Temp	State	Recorded	gain1	gain2
2026-01-07 13:26:03.46	209.19	6.96	-30.9	-35.7	5.2	7.11e-01	0	41	0	0	24	6228
2026-01-07 13:26:04.46	209.29	7.03	-31.8	-39.0	5.0	7.11e-01	0	41	104	0	24	8309
2026-01-07 13:26:05.46	209.39	7.10	-32.0	-39.5	12.1	6.14e-01	0	41	0	0	24	8493
2026-01-07 13:26:06.47	209.50	7.17	-31.9	-39.1	12.4	6.07e-01	0	41	102	524288	24	8208
2026-01-07 13:26:07.48	209.60	7.24	-31.9	-39.0	12.6	6.12e-01	0	41	102	524288	24	8100
2026-01-07 13:26:08.49	209.70	7.31	-32.0	-39.1	12.4	6.12e-01	0	41	102	524288	24	8216
2026-01-07 13:26:09.49	209.81	7.38	-31.7	-38.1	13.3	6.12e-01	0	41	102	524288	24	7472
2026-01-07 13:26:10.50	209.92	7.45	-31.6	-37.3	14.0	6.08e-01	0	41	102	524288	24	6950
2026-01-07 13:26:11.51	210.02	7.52	-31.4	-36.6	14.5	6.06e-01	0	41	102	524288	24	6538
2026-01-07 13:26:12.52	210.13	7.59	-31.2	-35.8	15.1	6.07e-01	0	41	102	524288	24	6106
2026-01-07 13:26:13.53	210.24	7.66	-31.1	-35.4	15.5	6.07e-01	0	41	102	524288	24	5897
2026-01-07 13:26:14.54	210.34	7.73	-30.9	-34.6	16.0	6.07e-01	0	41	102	524288	24	5553
2026-01-07 13:26:15.55	210.45	7.80	-30.8	-34.8	16.3	6.06e-01	0	41	102	524288	23	5701
2026-01-07 13:26:16.56	210.56	7.87	-30.7	-34.5	16.5	6.06e-01	0	41	102	524288	23	5559
2026-01-07 13:26:17.57	210.67	7.94	-30.7	-34.4	16.6	6.07e-01	0	41	102	524288	23	5539
2026-01-07 13:26:18.57	210.78	8.01	-30.9	-35.0	16.2	6.05e-01	0	41	102	524288	23	5800
2026-01-07 13:26:19.58	210.89	8.08	-30.8	-34.9	16.2	6.07e-01	0	41	102	524288	23	5762
2026-01-07 13:26:20.59	211.00	8.15	-30.6	-34.1	16.8	6.06e-01	0	41	102	524288	23	5418
2026-01-07 13:26:21.60	211.12	8.22	-30.4	-33.6	17.2	6.07e-01	0	41	102	524288	23	5198
2026-01-07 13:26:22.61	211.23	8.30	-30.4	-34.1	17.2	6.05e-01	0	41	102	524288	22	5499
2026-01-07 13:26:23.61	211.34	8.37	-30.4	-34.1	17.2	6.08e-01	0	41	102	524288	22	5478
2026-01-07 13:26:24.61	211.45	8.44	-30.4	-34.0	17.2	6.08e-01	0	41	102	524288	22	5471
2026-01-07 13:26:25.62	211.57	8.51	-30.4	-34.1	17.2	6.06e-01	0	41	102	524288	22	5486
2026-01-07 13:26:26.63	211.68	8.58	-30.5	-34.4	17.0	6.05e-01	0	41	102	524288	22	5613
2026-01-07 13:26:27.64	211.80	8.65	-30.5	-34.3	17.0	6.04e-01	0	42	102	524288	22	5586
2026-01-07 13:26:28.65	211.92	8.73	-30.3	-33.8	17.4	6.07e-01	0	41	102	524288	22	5375
2026-01-07 13:26:29.65	212.03	8.80	-30.3	-33.7	17.5	6.07e-01	0	42	102	524288	22	5331
2026-01-07 13:26:30.66	212.15	8.87	-30.3	-33.6	17.5	6.07e-01	0	42	102	524288	22	5304
2026-01-07 13:26:31.67	212.27	8.95	-30.3	-33.7	17.5	6.07e-01	0	42	102	524288	22	5317
2026-01-07 13:26:32.67	212.38	9.02	-30.2	-33.4	17.7	6.06e-01	0	42	102	524288	22	5195
2026-01-07 13:26:33.68	212.50	9.09	-30.1	-33.2	17.8	6.06e-01	0	42	102	524288	22	5131
2026-01-07 13:26:34.69	212.62	9.16	-30.2	-33.3	17.8	6.04e-01	0	42	102	524288	22	5151
2026-01-07 13:26:35.69	212.74	9.24	-30.1	-33.2	17.9	6.04e-01	0	42	102	524288	22	5122
2026-01-07 13:26:36.70	212.86	9.31	-30.3	-33.5	17.6	6.07e-01	0	42	102	524288	22	5256
2026-01-07 13:26:37.71	212.99	9.38	-30.2	-33.4	17.7	6.07e-01	0	42	102	524288	22	5214
2026-01-07 13:26:38.72	213.11	9.46	-30.1	-33.1	18.0	6.05e-01	0	42	102	524288	22	5063
2026-01-07 13:26:39.73	213.23	9.53	-30.0	-32.8	18.1	6.08e-01	0	42	102	524288	22	4959
2026-01-07 13:26:40.74	213.36	9.61	-30.1	-33.0	18.0	6.06e-01	0	42	102	524288	22	5033
2026-01-07 13:26:41.75	213.48	9.68	-30.0	-32.9	18.1	6.07e-01	0	42	102	524288	22	4987
2026-01-07 13:26:42.75	213.60	9.75	-30.1	-33.0	18.0	6.08e-01	0	42	102	524288	22	5035
2026-01-07 13:26:43.76	213.73	9.83	-30.1	-33.2	18.0	6.05e-01	0	42	102	524288	22	5099
2026-01-07 13:26:44.76	213.85	9.90	-30.1	-32.9	18.1	6.07e-01	0	42	102	524288	22	5012
2026-01-07 13:26:45.76	213.98	9.98	-30.0	-32.7	18.3	6.07e-01	0	42	102	524288	22	4917
2026-01-07 13:26:46.77	214.11	10.05	-30.0	-32.9	18.1	6.04e-01	0	42	102	524288	22	4983
2026-01-07 13:26:47.78	214.24	10.13	-30.0	-32.7	18.2	6.04e-01	0	42	102	524288	22	4931
2026-01-07 13:26:48.79	214.37	10.20	-30.0	-32.7	18.3	6.06e-01	0	42	102	524288	22	4919
2026-01-07 13:26:49.79	214.49	10.28	-30.0	-32.9	18.2	6.08e-01	0	42	102	524288	22	4994
2026-01-07 13:26:50.80	214.62	10.35	-30.0	-32.8	18.2	6.06e-01	0	42	102	524288	22	4945
2026-01-07 13:26:51.81	214.76	10.43	-30.0	-32.7	18.3	6.07e-01	0	42	102	524288	22	4920
2026-01-07 13:26:52.82	214.89	10.50	-30.0	-32.7	18.3	6.06e-01	0	42	102	524288	22	4906
2026-01-07 13:26:53.82	215.02	10.58	-30.0	-32.9	18.2	6.06e-01	0	42	102	524288	22	4979
2026-01-07 13:26:54.83	215.15	10.66	-30.1	-33.1	18.0	6.05e-01	0	42	102	524288	22	5062
2026-01-07 13:26:55.84	215.29	10.73	-30.1	-33.0	18.1	6.04e-01	0	42	102	524288	22	5039
2026-01-07 13:26:56.84	215.42	10.81	-30.1	-33.1	18.0	6.05e-01	0	42	102	524288	22	5070
2026-01-07 13:26:57.85	215.56	10.88	-30.2	-33.2	17.9	6.08e-01	0	42	102	524288	22	5130
2026-01-07 13:26:58.85	215.69	10.96	-30.2	-33.2	18.0	6.08e-01	0	42	102	524288	22	5117
2026-01-07 13:26:59.86	215.83	11.04	-30.2	-33.4	17.9	6.05e-01	0	42	102	524288	22	5171
2026-01-07 13:27:00.87	215.97	11.11	-30.3	-33.7	17.6	6.06e-01	0	42	102	524288	22	5331
2026-01-07 13:27:01.88	216.10	11.19	-30.2	-33.2	17.9	6.06e-01	0	42	102	524288	22	5126
2026-01-07 13:27:02.89	216.24	11.27	-30.0	-32.8	18.3	6.06e-01	0	42	102	524288	22	4938
2026-01-07 13:27:03.90	216.38	11.34	-29.9	-32.4	18.5	6.07e-01	0	42	102	524288	22	4826
2026-01-07 13:27:04.91	216.53	11.42	-30.0	-32.6	18.4	6.06e-01	0	42	102	524288	22	4867
2026-01-07 13:27:05.91	216.67	11.50	-29.9	-32.8	18.6	6.06e-01	0	43	102	524288	21	5066
2026-01-07 13:27:06.92	216.81	11.58	-29.9	-33.1	18.4	6.09e-01	0	42	102	524288	21	5164
2026-01-07 13:27:07.93	216.95	11.65	-29.9	-32.9	18.6	6.06e-01	0	42	102	524288	21	5084
2026-01-07 13:27:08.93	217.09	11.73	-29.9	-33.0	18.5	6.05e-01	0	42	102	524288	21	5134
2026-01-07 13:27:09.94	217.24	11.81	-30.1	-33.4	18.2	6.06e-01	0	42	102	524288	21	5291
2026-01-07 13:27:10.95	217.38	11.89	-30.0	-33.1	18.4	6.06e-01	0	42	102	524288	21	5184
2026-01-07 13:27:11.96	217.53	11.96	-29.9	-32.9	18.5	6.05e-01	0	42	102	524288	21	5104
2026-01-07 13:27:12.97	217.68	12.04	-29.9	-32.8	18.6	6.05e-01	0	42	102	524288	21	5050
2026-01-07 13:27:13.97	217.82	12.12	-30.0	-33.1	18.4	6.06e-01	0	42	102	524288	21	5175
2026-01-07 13:27:14.98	217.97	12.20	-29.9	-32.8	18.6	6.06e-01	0	42	102	524288	21	5061
2026-01-07 13:27:15.98	218.12	12.28	-30.0	-33.1	18.5	6.07e-01	0	42	102	524288	21	5171
2026-01-07 13:27:16.99	218.27	12.36	-29.8	-32.8	18.7	6.07e-01	0	42	102	524288	21	5033
2026-01-07 13:27:18.00	218.42	12.43	-29.8	-32.6	18.8	6.07e-01	0	42	102	524288	21	4971
2026-01-07 13:27:19.00	218.57	12.51	-29.9	-32.8	18.7	6.06e-01	0	42	102	524288	21	5036
2026-01-07 13:27:20.01	218.73	12.59	-29.8	-32.7	18.7	6.06e-01	0	42	102	524288	21	5015
2026-01-07 13:27:21.02	218.88	12.67	-29.9	-32.8	18.6	6.06e-01	0	43	102	524288	21	5058
2026-01-07 13:27:22.02	219.03	12.75	-29.8	-32.6	18.8	6.06e-01	0	43	102	524288	21	4981
2026-01-07 13:27:23.03	219.19	12.83	-29.7	-32.4	18.9	6.06e-01	0	43	102	524288	21	4894
2026-01-07 13:27:24.04	219.35	12.91	-29.8	-32.6	18.8	6.07e-01	0	42	102	524288	21	4980
2026-01-07 13:27:25.04	219.50	12.99	-29.9	-32.9	18.6	6.07e-01	0	42	102	524288	21	5095
2026-01-07 13:27:26.05	219.66	13.07	-29.8	-32.6	18.8	6.06e-01	0	42	102	524288	21	4962
2026-01-07 13:27:27.05	219.82	13.15	-29.7	-32.4	18.9	6.08e-01	0	43	102	524288	21	4919
2026-01-07 13:27:28.06	219.98	13.23	-29.8	-32.5	18.9	6.07e-01	0	43	102	524288	21	4938
2026-01-07 13:27:29.07	220.14	13.31	-29.7	-32.5	18.9	6.06e-01	0	43	102	524288	21	4923
2026-01-07 13:27:30.07	220.30	13.39	-29.8	-32.6	18.8	6.09e-01	0	42	102	524288	21	4971
2026-01-07 13:27:31.08	220.46	13.47	-29.7	-32.2	19.1	6.08e-01	0	43	102	524288	21	4827
2026-01-07 13:27:32.09	220.63	13.55	-29.7	-32.2	19.1	6.05e-01	0	42	102	524288	21	4831
2026-01-07 13:27:33.09	220.79	13.63	-29.8	-32.5	18.9	6.07e-01	0	43	102	524288	21	4925
2026-01-07 13:27:34.09	220.95	13.71	-29.8	-32.4	19.0	6.06e-01	0	43	102	524288	21	4909
2026-01-07 13:27:35.09	221.12	13.79	-29.8	-32.6	18.9	6.06e-01	0	43	102	524288	21	4966
2026-01-07 13:27:36.09	221.28	13.87	-29.9	-32.7	18.8	6.07e-01	0	43	102	524288	21	5014
2026-01-07 13:27:37.09	221.45	13.95	-30.0	-33.2	18.5	6.07e-01	0	42	102	524288	21	5169
2026-01-07 13:27:38.10	221.62	14.03	-29.8	-32.7	18.8	6.06e-01	0	43	102	524288	21	4994
2026-01-07 13:27:39.10	221.79	14.11	-29.8	-32.5	18.9	6.05e-01	0	43	102	524288	21	4931
2026-01-07 13:27:40.11	221.96	14.19	-29.7	-32.3	19.1	6.06e-01	0	43	102	524288	21	4847
2026-01-07 13:27:41.12	222.13	14.27	-29.7	-32.4	19.0	6.06e-01	0	43	102	524288	21	4892
2026-01-07 13:27:42.12	222.30	14.35	-29.8	-32.6	18.9	6.06e-01	0	43	102	524288	21	4951
2026-01-07 13:27:43.12	222.48	14.43	-29.6	-32.1	19.2	6.07e-01	0	43	102	524288	21	4777
2026-01-07 13:27:44.13	222.65	14.51	-29.5	-31.7	19.4	6.08e-01	0	43	102	524288	21	4661
2026-01-07 13:27:45.13	222.83	14.59	-29.5	-31.9	19.4	6.06e-01	0	43	102	524288	21	4695
2026-01-07 13:27:46.13	223.00	14.67	-29.5	-31.9	19.4	6.05e-01	0	43	102	524288	21	4706
2026-01-07 13:27:47.14	223.18	14.75	-29.6	-32.0	19.3	6.06e-01	0	43	102	524288	21	4753
2026-01-07 13:27:48.15	223.36	14.84	-29.6	-31.9	19.3	6.06e-01	0	42	102	524288	21	4729
2026-01-07 13:27:49.15	223.54	14.92	-29.7	-32.1	19.2	6.06e-01	0	43	102	524288	21	4786
2026-01-07 13:27:50.16	223.72	15.00	-29.7	-32.3	19.2	6.03e-01	0	43	102	524288	21	4843
2026-01-07 13:27:51.17	223.90	15.08	-29.6	-32.1	19.3	6.06e-01	0	43	102	524288	21	4776
2026-01-07 13:27:52.18	224.08	15.16	-29.7	-32.2	19.2	6.05e-01	0	43	102	524288	21	4800
2026-01-07 13:27:53.19	224.27	15.24	-29.7	-32.1	19.2	6.06e-01	0	43	102	524288	21	4792
2026-01-07 13:27:54.19	224.45	15.32	-29.5	-31.7	19.5	6.06e-01	0	43	102	524288	21	4656
2026-01-07 13:27:55.21	224.64	15.41	-29.5	-31.8	19.5	6.06e-01	0	43	102	524288	21	4659
2026-01-07 13:27:56.21	224.83	15.49	-29.5	-31.8	19.5	6.06e-01	0	43	102	524288	21	4671
2026-01-07 13:27:57.21	225.01	15.57	-29.4	-31.6	19.6	6.07e-01	0	43	102	524288	21	4597
2026-01-07 13:27:58.22	225.20	15.65	-29.5	-31.7	19.5	6.06e-01	0	43	102	524288	21	4637
2026-01-07 13:27:59.23	225.39	15.73	-29.5	-31.7	19.5	6.04e-01	0	43	102	524288	21	4634
2026-01-07 13:28:00.24	225.58	15.81	-29.5	-31.6	19.6	6.08e-01	0	43	102	524288	21	4597
2026-01-07 13:28:01.25	225.78	15.90	-29.6	-31.9	19.4	6.07e-01	0	43	102	524288	21	4713
2026-01-07 13:28:02.26	225.97	15.98	-29.5	-31.8	19.5	6.08e-01	0	43	102	524288	21	4674
2026-01-07 13:28:03.27	226.17	16.06	-29.6	-31.9	19.4	6.06e-01	0	43	102	524288	21	4714
2026-01-07 13:28:04.27	226.36	16.14	-29.5	-31.8	19.5	6.08e-01	0	43	102	524288	21	4682
2026-01-07 13:28:05.28	226.56	16.22	-29.5	-31.7	19.6	6.05e-01	0	43	102	524288	21	4648
2026-01-07 13:28:06.28	226.75	16.31	-29.6	-31.8	19.5	6.07e-01	0	43	102	524288	21	4682
2026-01-07 13:28:07.29	226.95	16.39	-29.5	-31.8	19.5	6.05e-01	0	43	102	524288	21	4672
2026-01-07 13:28:08.30	227.15	16.47	-29.5	-31.8	19.5	6.05e-01	0	43	102	524288	21	4673
2026-01-07 13:28:09.30	227.35	16.55	-29.4	-31.5	19.7	6.06e-01	0	43	102	524288	21	4574
2026-01-07 13:28:10.31	227.56	16.63	-29.5	-31.6	19.6	6.09e-01	0	43	102	524288	21	4615
2026-01-07 13:28:11.32	227.76	16.71	-29.5	-31.8	19.6	6.06e-01	0	43	102	524288	21	4661
2026-01-07 13:28:12.33	227.97	16.80	-29.6	-32.0	19.4	6.07e-01	0	43	102	524288	21	4725
2026-01-07 13:28:13.33	228.17	16.88	-29.5	-31.8	19.6	6.06e-01	0	43	102	524288	21	4658
2026-01-07 13:28:14.34	228.38	16.96	-29.6	-31.8	19.5	6.07e-01	0	43	102	524288	21	4680
2026-01-07 13:28:15.34	228.59	17.04	-29.6	-31.9	19.5	6.07e-01	0	43	102	524288	21	4692
2026-01-07 13:28:16.35	228.80	17.12	-29.5	-31.8	19.6	6.08e-01	0	43	102	524288	21	4660
2026-01-07 13:28:17.36	229.01	17.20	-29.5	-31.8	19.6	6.04e-01	0	43	102	524288	21	4652
2026-01-07 13:28:18.37	229.22	17.28	-29.5	-31.8	19.6	6.06e-01	0	43	102	524288	21	4653
2026-01-07 13:28:19.37	229.43	17.37	-29.5	-31.7	19.6	6.05e-01	0	43	102	524288	21	4639
2026-01-07 13:28:20.38	229.64	17.45	-29.5	-31.7	19.6	6.07e-01	0	43	102	524288	21	4621
2026-01-07 13:28:21.39	229.86	17.53	-29.5	-31.7	19.6	6.06e-01	0	43	102	524288	21	4644
2026-01-07 13:28:22.40	230.08	17.61	-29.5	-31.6	19.7	6.08e-01	0	43	102	524288	21	4602
2026-01-07 13:28:23.40	230.29	17.69	-29.5	-31.7	19.6	6.06e-01	0	43	102	524288	21	4645
2026-01-07 13:28:24.41	230.51	17.77	-29.5	-31.7	19.7	6.06e-01	0	43	102	524288	21	4633
2026-01-07 13:28:25.42	230.73	17.85	-29.6	-32.0	19.5	6.06e-01	0	43	102	524288	21	4714
2026-01-07 13:28:26.42	230.95	17.93	-29.7	-32.1	19.4	6.07e-01	0	43	102	524288	21	4755
2026-01-07 13:28:27.43	231.18	18.01	-29.7	-32.1	19.4	6.06e-01	0	43	102	524288	21	4773
2026-01-07 13:28:28.44	231.40	18.09	-29.7	-32.1	19.4	6.06e-01	0	43	102	524288	21	4761
2026-01-07 13:28:29.45	231.63	18.17	-29.6	-32.0	19.5	6.06e-01	0	43	102	524288	21	4714
2026-01-07 13:28:30.46	231.85	18.26	-29.6	-31.9	19.6	6.06e-01	0	43	102	524288	21	4682
2026-01-07 13:28:31.46	232.08	18.33	-29.7	-32.1	19.4	6.04e-01	0	43	102	524288	21	4773
2026-01-07 13:28:32.47	232.31	18.42	-29.7	-32.3	19.3	6.04e-01	0	43	102	524288	21	4827
2026-01-07 13:28:33.46	232.53	18.49	-29.8	-32.4	19.3	6.06e-01	0	43	102	524288	21	4853
2026-01-07 13:28:34.47	232.77	18.57	-29.5	-31.8	19.6	6.06e-01	0	43	102	524288	21	4649
2026-01-07 13:28:35.48	233.00	18.65	-29.5	-31.6	19.8	6.05e-01	0	43	102	524288	21	4584
2026-01-07 13:28:36.49	233.23	18.73	-29.5	-31.7	19.7	6.07e-01	0	43	102	524288	21	4615
2026-01-07 13:28:37.50	233.47	18.81	-29.6	-31.8	19.6	6.08e-01	0	43	102	524288	21	4656
2026-01-07 13:28:38.50	233.70	18.89	-29.5	-31.7	19.7	6.05e-01	0	43	102	524288	21	4612
2026-01-07 13:28:39.51	233.94	18.97	-29.4	-31.5	19.8	6.07e-01	0	43	102	524288	21	4558
2026-01-07 13:28:40.52	234.18	19.05	-29.5	-31.7	19.7	6.08e-01	0	43	102	524288	21	4628
2026-01-07 13:28:41.53	234.42	19.13	-29.6	-31.9	19.5	6.07e-01	0	43	102	524288	21	4696
2026-01-07 13:28:42.52	234.66	19.20	-29.5	-31.6	19.8	6.06e-01	0	43	102	524288	21	4600
2026-01-07 13:28:43.53	234.90	19.28	-29.5	-31.6	19.8	6.06e-01	0	43	102	524288	21	4583
2026-01-07 13:28:44.53	235.14	19.36	-29.6	-31.7	19.7	6.07e-01	0	43	102	524288	21	4628
2026-01-07 13:28:45.54	235.39	19.44	-29.6	-31.9	19.6	6.03e-01	0	43	102	524288	21	4677
2026-01-07 13:28:46.55	235.64	19.52	-29.5	-31.7	19.8	6.06e-01	0	43	102	524288	21	4605
2026-01-07 13:28:47.55	235.88	19.59	-29.5	-31.6	19.8	6.06e-01	0	43	102	524288	21	4597
2026-01-07 13:28:48.56	236.13	19.67	-29.5	-31.6	19.8	6.07e-01	0	43	102	524288	21	4590
2026-01-07 13:28:49.56	236.38	19.75	-29.5	-31.7	19.8	6.05e-01	0	43	102	524288	21	4609
2026-01-07 13:28:50.57	236.63	19.82	-29.5	-31.7	19.8	6.06e-01	0	43	102	524288	21	4610
2026-01-07 13:28:51.58	236.89	19.90	-29.5	-31.7	19.8	6.06e-01	0	43	102	524288	21	4612
2026-01-07 13:28:52.59	237.14	19.97	-29.6	-31.7	19.7	6.07e-01	0	43	102	524288	21	4617
2026-01-07 13:28:53.59	237.39	20.05	-29.5	-31.7	19.8	6.04e-01	0	43	102	524288	21	4619
2026-01-07 13:28:54.59	237.65	20.12	-29.6	-31.8	19.7	6.05e-01	0	43	102	524288	21	4644
2026-01-07 13:28:55.60	237.91	20.20	-29.7	-32.2	19.4	6.06e-01	0	43	102	524288	21	4780
2026-01-07 13:28:56.60	238.16	20.27	-29.8	-32.2	19.4	6.07e-01	0	43	102	524288	21	4798
2026-01-07 13:28:57.60	238.42	20.35	-29.6	-31.9	19.6	6.07e-01	0	43	102	524288	21	4680
2026-01-07 13:28:58.61	238.69	20.42	-29.6	-31.8	19.7	6.07e-01	0	43	102	524288	21	4643
2026-01-07 13:28:59.62	238.95	20.50	-29.6	-31.9	19.7	6.06e-01	0	43	102	524288	21	4662
2026-01-07 13:29:00.63	239.22	20.57	-29.7	-32.0	19.6	6.07e-01	0	43	102	524288	21	4713
2026-01-07 13:29:01.64	239.48	20.64	-29.7	-32.0	19.6	6.06e-01	0	43	102	524288	21	4712
2026-01-07 13:29:02.65	239.75	20.71	-29.8	-32.4	19.4	6.07e-01	0	43	102	524288	21	4852
2026-01-07 13:29:03.66	240.02	20.79	-29.8	-32.5	19.3	6.08e-01	0	43	102	524288	21	4867
2026-01-07 13:29:04.66	240.29	20.86	-29.9	-32.5	19.3	6.07e-01	0	43	102	524288	21	4882
2026-01-07 13:29:05.67	240.56	20.93	-29.8	-32.3	19.4	6.07e-01	0	43	102	524288	21	4816
2026-01-07 13:29:06.68	240.83	21.00	-29.7	-32.1	19.6	6.07e-01	0	43	102	524288	21	4730
2026-01-07 13:29:07.69	241.10	21.07	-29.7	-32.2	19.5	6.07e-01	0	43	102	524288	21	4763
2026-01-07 13:29:08.69	241.38	21.14	-29.8	-32.2	19.5	6.07e-01	0	43	102	524288	21	4783
2026-01-07 13:29:09.70	241.65	21.21	-29.7	-32.0	19.6	6.07e-01	0	43	102	524288	21	4698
2026-01-07 13:29:10.71	241.93	21.28	-29.8	-32.2	19.5	6.05e-01	0	43	102	524288	21	4783
2026-01-07 13:29:11.71	242.21	21.35	-29.7	-32.2	19.5	6.05e-01	0	43	102	524288	21	4762
2026-01-07 13:29:12.71	242.49	21.42	-29.7	-32.0	19.6	6.08e-01	0	43	102	524288	21	4722
2026-01-07 13:29:13.72	242.77	21.49	-29.7	-32.1	19.6	6.07e-01	0	43	102	524288	21	4744
2026-01-07 13:29:14.72	243.05	21.55	-29.7	-32.2	19.5	6.06e-01	0	43	102	524288	21	4772
2026-01-07 13:29:15.73	243.33	21.62	-29.7	-32.1	19.6	6.05e-01	0	43	102	524288	21	4749
2026-01-07 13:29:16.74	243.62	21.69	-29.8	-32.4	19.4	6.05e-01	0	43	102	524288	21	4825
2026-01-07 13:29:17.74	243.90	21.75	-29.8	-32.3	19.4	6.07e-01	0	43	102	524288	21	4814
2026-01-07 13:29:18.74	244.19	21.82	-29.8	-32.4	19.4	6.05e-01	0	43	102	524288	21	4828
2026-01-07 13:29:19.74	244.48	21.88	-29.8	-32.2	19.5	6.06e-01	0	43	102	524288	21	4773
2026-01-07 13:29:20.75	244.77	21.95	-30.0	-32.8	19.1	6.08e-01	0	43	102	524288	21	4997
2026-01-07 13:29:21.76	245.06	22.01	-29.9	-32.7	19.2	6.08e-01	0	43	102	524288	21	4933
2026-01-07 13:29:22.76	245.35	22.07	-30.0	-32.8	19.1	6.09e-01	0	43	102	524288	21	4977
2026-01-07 13:29:23.77	245.64	22.14	-29.9	-32.6	19.2	6.08e-01	0	43	102	524288	21	4915
2026-01-07 13:29:24.77	245.94	22.20	-29.9	-32.5	19.3	6.08e-01	0	43	102	524288	21	4893
2026-01-07 13:29:25.78	246.23	22.26	-29.8	-32.5	19.3	6.08e-01	0	43	102	524288	21	4893
2026-01-07 13:29:26.78	246.53	22.32	-29.8	-32.6	19.2	6.06e-01	0	43	102	524288	21	4929
2026-01-07 13:29:27.78	246.82	22.38	-29.9	-32.9	19.1	6.05e-01	0	43	102	524288	21	5039
2026-01-07 13:29:28.78	247.12	22.44	-30.1	-33.2	18.9	6.06e-01	0	43	102	524288	21	5137
2026-01-07 13:29:29.79	247.42	22.50	-29.9	-32.7	19.2	6.06e-01	0	43	102	524288	21	4958
2026-01-07 13:29:30.79	247.72	22.56	-29.8	-32.4	19.3	6.07e-01	0	43	102	524288	21	4870
2026-01-07 13:29:31.80	248.03	22.62	-29.8	-32.4	19.4	6.05e-01	0	43	102	524288	21	4852
2026-01-07 13:29:32.80	248.33	22.67	-29.7	-32.2	19.4	6.07e-01	0	43	102	524288	21	4808
2026-01-07 13:29:33.81	248.63	22.73	-29.8	-32.4	19.3	6.07e-01	0	43	102	524288	21	4869
2026-01-07 13:29:34.82	248.94	22.79	-29.8	-32.5	19.3	6.05e-01	0	43	102	524288	21	4895
2026-01-07 13:29:35.82	249.25	22.84	-29.9	-32.5	19.3	6.09e-01	0	43	102	524288	21	4903
2026-01-07 13:29:36.83	249.56	22.90	-30.2	-33.4	18.8	6.06e-01	0	43	102	524288	21	5216
2026-01-07 13:29:37.84	249.87	22.95	-30.0	-33.1	18.9	6.07e-01	0	43	102	524288	21	5095
2026-01-07 13:29:38.85	250.18	23.00	-29.8	-32.4	19.4	6.07e-01	0	43	102	524288	21	4842
2026-01-07 13:29:39.86	250.49	23.06	-29.7	-32.1	19.6	6.05e-01	0	43	102	524288	21	4749
2026-01-07 13:29:40.86	250.80	23.11	-29.9	-32.6	19.3	6.07e-01	0	43	102	524288	21	4932
2026-01-07 13:29:41.87	251.12	23.16	-29.8	-32.5	19.3	6.07e-01	0	43	102	524288	21	4884
2026-01-07 13:29:42.88	251.43	23.21	-29.8	-32.5	19.4	6.07e-01	0	43	102	524288	21	4877
2026-01-07 13:29:43.88	251.75	23.26	-30.2	-33.4	18.8	6.05e-01	0	43	102	524288	21	5234
2026-01-07 13:29:44.89	252.06	23.31	-30.1	-33.1	19.0	6.07e-01	0	43	102	524288	21	5071
2026-01-07 13:29:45.90	252.38	23.36	-29.9	-32.4	19.4	6.05e-01	0	43	102	524288	21	4853
2026-01-07 13:29:46.91	252.70	23.40	-29.9	-32.5	19.4	6.08e-01	0	43	102	524288	21	4863
2026-01-07 13:29:47.91	253.02	23.45	-29.9	-32.6	19.3	6.05e-01	0	43	102	524288	21	4896
2026-01-07 13:29:48.92	253.34	23.50	-29.8	-32.3	19.5	6.07e-01	0	43	102	524288	21	4811
2026-01-07 13:29:49.92	253.66	23.54	-29.8	-32.4	19.4	6.07e-01	0	43	102	524288	21	4846
2026-01-07 13:29:50.93	253.99	23.58	-29.9	-32.6	19.3	6.06e-01	0	43	102	524288	21	4909
2026-01-07 13:29:51.94	254.31	23.63	-29.9	-32.5	19.4	6.05e-01	0	43	102	524288	21	4872
2026-01-07 13:29:52.95	254.64	23.67	-29.9	-32.6	19.3	6.08e-01	0	43	102	524288	21	4897
2026-01-07 13:29:53.96	254.96	23.71	-30.2	-33.3	18.9	6.09e-01	0	43	102	524288	21	5161
2026-01-07 13:29:54.97	255.29	23.75	-30.0	-32.8	19.2	6.07e-01	0	43	102	524288	21	4966
2026-01-07 13:29:55.97	255.62	23.79	-29.9	-32.7	19.3	6.06e-01	0	43	102	524288	21	4933
2026-01-07 13:29:56.98	255.94	23.83	-30.1	-33.0	19.1	6.05e-01	0	43	102	524288	21	5058
2026-01-07 13:29:57.99	256.27	23.87	-30.0	-32.9	19.2	6.06e-01	0	43	102	524288	21	4992
2026-01-07 13:29:58.99	256.60	23.91	-30.0	-32.7	19.3	6.07e-01	0	43	102	524288	21	4953
2026-01-07 13:30:00.00	256.93	23.94	-30.1	-33.0	19.1	6.06e-01	0	43	102	524288	21	5059
2026-01-07 13:30:01.00	257.26	23.98	-30.0	-32.7	19.3	6.05e-01	0	43	102	524288	21	4934
2026-01-07 13:30:02.01	257.60	24.01	-29.9	-32.6	19.4	6.06e-01	0	43	102	524288	21	4887
2026-01-07 13:30:03.01	257.93	24.05	-29.9	-32.6	19.4	6.05e-01	0	43	102	524288	21	4891
2026-01-07 13:30:04.02	258.26	24.08	-29.8	-32.3	19.6	6.06e-01	0	43	102	524288	21	4799
2026-01-07 13:30:05.03	258.60	24.11	-29.9	-32.7	19.3	6.08e-01	0	43	102	524288	21	4938
2026-01-07 13:30:06.03	258.93	24.14	-29.9	-32.6	19.4	6.06e-01	0	43	102	524288	21	4899
2026-01-07 13:30:07.04	259.27	24.17	-30.0	-32.7	19.3	6.06e-01	0	43	102	524288	21	4945
2026-01-07 13:30:08.05	259.60	24.20	-30.0	-32.8	19.2	6.07e-01	0	43	102	524288	21	4984
2026-01-07 13:30:09.05	259.94	24.23	-30.2	-33.3	18.9	6.06e-01	0	43	102	524288	21	5168
2026-01-07 13:30:10.06	260.28	24.26	-30.0	-32.9	19.2	6.06e-01	0	43	102	524288	21	5015
2026-01-07 13:30:11.07	260.61	24.28	-30.2	-33.2	19.0	6.07e-01	0	43	102	524288	21	5128
2026-01-07 13:30:12.07	260.95	24.31	-30.5	-34.1	18.4	6.06e-01	0	43	102	524288	21	5473
2026-01-07 13:30:13.08	261.29	24.33	-30.2	-33.4	18.8	6.07e-01	0	43	102	524288	21	5209
2026-01-07 13:30:14.09	261.63	24.35	-30.0	-32.9	19.2	6.06e-01	0	43	102	524288	21	5008
2026-01-07 13:30:15.10	261.97	24.38	-30.0	-32.7	19.3	6.06e-01	0	43	102	524288	21	4936
2026-01-07 13:30:16.10	262.31	24.40	-29.9	-32.5	19.4	6.06e-01	0	43	102	524288	21	4870
2026-01-07 13:30:17.11	262.65	24.42	-29.9	-32.7	19.3	6.07e-01	0	43	102	524288	21	4920
2026-01-07 13:30:18.12	262.99	24.44	-30.0	-32.8	19.3	6.07e-01	0	43	102	524288	21	4963
2026-01-07 13:30:19.13	263.34	24.45	-30.0	-32.7	19.3	6.08e-01	0	43	102	524288	21	4936
2026-01-07 13:30:20.13	263.68	24.47	-29.6	-32.2	19.4	6.08e-01	0	43	102	524288	21	4880
2026-01-07 13:30:21.14	264.02	24.49	-29.7	-32.5	19.2	6.08e-01	0	43	102	524288	21	5011
2026-01-07 13:30:22.14	264.36	24.50	-29.6	-32.2	19.4	6.08e-01	0	43	102	524288	21	4865
2026-01-07 13:30:23.14	264.70	24.52	-29.5	-32.0	19.6	6.06e-01	0	43	102	524288	21	4783
2026-01-07 13:30:24.15	265.05	24.53	-29.7	-32.3	19.4	6.06e-01	0	43	102	524288	21	4887
2026-01-07 13:30:25.15	265.39	24.54	-29.7	-32.3	19.4	6.08e-01	0	43	102	524288	21	4870
2026-01-07 13:30:26.16	265.73	24.55	-29.8	-32.4	19.4	6.07e-01	0	43	102	524288	21	4893
2026-01-07 13:30:27.15	266.07	24.56	-29.7	-32.4	19.3	6.07e-01	0	43	102	524288	21	4909
2026-01-07 13:30:28.16	266.42	24.57	-29.4	-32.4	19.6	6.05e-01	0	43	102	524288	20	5054
2026-01-07 13:30:29.17	266.76	24.58	-29.3	-32.3	19.6	6.05e-01	0	43	102	524288	20	5056
2026-01-07 13:30:30.18	267.11	24.59	-29.3	-32.4	19.3	6.06e-01	0	43	102	524288	20	5164
2026-01-07 13:30:31.19	267.45	24.59	-29.5	-32.8	19.3	6.05e-01	0	43	102	524288	20	5249
2026-01-07 13:30:32.19	267.80	24.60	-29.5	-32.6	19.4	6.05e-01	0	43	102	524288	20	5136
2026-01-07 13:30:33.20	268.14	24.60	-29.4	-32.2	19.7	6.06e-01	0	43	102	524288	20	4988
2026-01-07 13:30:34.20	268.49	24.60	-29.6	-32.6	19.5	6.08e-01	0	43	102	524288	20	5125
2026-01-07 13:30:35.21	268.83	24.61	-29.5	-32.5	19.5	6.06e-01	0	43	102	524288	20	5080
2026-01-07 13:30:36.22	269.18	24.61	-29.6	-32.8	19.3	6.06e-01	0	43	102	524288	20	5187
2026-01-07 13:30:37.23	269.52	24.61	-29.6	-32.8	19.3	6.09e-01	0	43	102	524288	20	5191
2026-01-07 13:30:38.24	269.87	24.60	-29.8	-32.9	19.5	6.07e-01	0	43	102	524288	20	5123
2026-01-07 13:30:39.24	270.21	24.60	-29.7	-32.6	19.7	6.06e-01	0	43	102	524288	20	4993
2026-01-07 13:30:40.25	270.56	24.60	-29.8	-32.8	19.6	6.06e-01	0	43	102	524288	20	5083
2026-01-07 13:30:41.25	270.90	24.59	-29.9	-33.0	19.5	6.05e-01	0	43	102	524288	20	5154
2026-01-07 13:30:42.26	271.25	24.59	-29.9	-33.1	19.3	6.08e-01	0	43	102	524288	20	5203
2026-01-07 13:30:43.27	271.59	24.58	-29.9	-32.9	19.5	6.07e-01	0	43	102	524288	20	5135
2026-01-07 13:30:44.28	271.94	24.57	-29.8	-32.9	19.5	6.09e-01	0	44	102	524288	20	5119
2026-01-07 13:30:45.28	272.28	24.56	-29.9	-33.0	19.4	6.07e-01	0	43	102	524288	20	5145
2026-01-07 13:30:46.29	272.63	24.56	-29.9	-32.9	19.5	6.07e-01	0	43	102	524288	20	5132
2026-01-07 13:30:47.29	272.97	24.54	-29.9	-33.1	19.4	6.04e-01	0	43	102	524288	20	5188
2026-01-07 13:30:48.30	273.31	24.53	-30.0	-33.3	19.3	6.05e-01	0	43	102	524288	20	5252
2026-01-07 13:30:49.31	273.66	24.52	-29.9	-33.0	19.4	6.07e-01	0	43	102	524288	20	5147
2026-01-07 13:30:50.32	274.00	24.51	-29.8	-33.0	19.3	6.08e-01	0	43	102	524288	20	5210
2026-01-07 13:30:51.33	274.34	24.49	-29.8	-32.9	19.3	6.06e-01	0	43	102	524288	20	5189
2026-01-07 13:30:52.33	274.68	24.47	-29.7	-32.8	19.5	6.06e-01	0	43	102	524288	20	5118
2026-01-07 13:30:53.33	275.02	24.46	-29.9	-33.3	19.1	6.07e-01	0	43	102	524288	20	5310
2026-01-07 13:30:54.34	275.37	24.44	-29.9	-33.0	19.4	6.06e-01	0	43	102	524288	20	5179
2026-01-07 13:30:55.35	275.71	24.42	-30.0	-33.5	19.1	6.06e-01	0	43	102	524288	20	5351
2026-01-07 13:30:56.36	276.05	24.40	-30.2	-33.4	18.8	6.05e-01	0	43	102	524288	21	5237
2026-01-07 13:30:57.36	276.39	24.38	-29.9	-32.7	19.2	6.07e-01	0	43	102	524288	21	4974
2026-01-07 13:30:58.37	276.73	24.36	-29.6	-32.2	19.5	6.06e-01	0	43	102	524288	21	4811
2026-01-07 13:30:59.38	277.07	24.34	-29.7	-32.2	19.5	6.08e-01	0	43	102	524288	21	4803
2026-01-07 13:31:00.39	277.41	24.31	-29.8	-32.4	19.5	6.05e-01	0	43	102	524288	21	4825
2026-01-07 13:31:01.39	277.74	24.29	-29.8	-32.2	19.6	6.08e-01	0	43	102	524288	21	4752
2026-01-07 13:31:02.40	278.08	24.26	-29.9	-32.5	19.5	6.08e-01	0	43	102	524288	21	4853
2026-01-07 13:31:03.41	278.42	24.23	-29.9	-32.6	19.4	6.06e-01	0	43	102	524288	21	4905
2026-01-07 13:31:04.42	278.76	24.21	-29.8	-32.3	19.6	6.08e-01	0	43	102	524288	21	4788
2026-01-07 13:31:05.43	279.09	24.18	-29.9	-32.5	19.5	6.04e-01	0	43	102	524288	21	4859
2026-01-07 13:31:06.43	279.43	24.15	-29.9	-32.6	19.4	6.08e-01	0	43	102	524288	21	4894
2026-01-07 13:31:07.44	279.76	24.12	-29.9	-32.5	19.4	6.08e-01	0	43	102	524288	21	4880
2026-01-07 13:31:08.44	280.09	24.09	-30.0	-32.7	19.3	6.06e-01	0	43	102	524288	21	4932
2026-01-07 13:31:09.45	280.43	24.05	-30.0	-32.9	19.2	6.06e-01	0	43	102	524288	21	4994
2026-01-07 13:31:10.45	280.76	24.02	-30.0	-32.7	19.3	6.05e-01	0	44	102	524288	21	4949
2026-01-07 13:31:11.46	281.09	23.99	-29.9	-32.5	19.5	6.06e-01	0	43	102	524288	21	4851
2026-01-07 13:31:12.46	281.42	23.95	-29.8	-32.4	19.5	6.07e-01	0	43	102	524288	21	4826
2026-01-07 13:31:13.47	281.75	23.92	-29.9	-32.5	19.4	6.06e-01	0	43	102	524288	21	4866
2026-01-07 13:31:14.48	282.08	23.88	-29.8	-32.2	19.6	6.05e-01	0	43	102	524288	21	4762
2026-01-07 13:31:15.49	282.41	23.84	-29.8	-32.2	19.6	6.07e-01	0	43	102	524288	21	4764
2026-01-07 13:31:16.48	282.73	23.80	-29.9	-32.6	19.4	6.08e-01	0	43	102	524288	21	4900
2026-01-07 13:31:17.48	283.05	23.76	-30.0	-32.9	19.2	6.06e-01	0	43	102	524288	21	4994
2026-01-07 13:31:18.49	283.38	23.72	-29.9	-32.5	19.5	6.07e-01	0	43	102	524288	21	4850
2026-01-07 13:31:19.50	283.71	23.68	-29.8	-32.3	19.5	6.06e-01	0	43	102	524288	21	4795
2026-01-07 13:31:20.51	284.03	23.64	-29.8	-32.3	19.5	6.07e-01	0	43	102	524288	21	4798
2026-01-07 13:31:21.52	284.36	23.60	-29.9	-32.4	19.5	6.06e-01	0	43	102	524288	21	4835
2026-01-07 13:31:22.52	284.68	23.55	-29.8	-32.3	19.6	6.06e-01	0	43	102	524288	21	4795
2026-01-07 13:31:23.52	285.00	23.51	-29.9	-32.5	19.4	6.07e-01	0	43	102	524288	21	4871
2026-01-07 13:31:24.53	285.32	23.46	-30.0	-32.7	19.3	6.08e-01	0	43	102	524288	21	4933
2026-01-07 13:31:25.54	285.64	23.42	-29.9	-32.4	19.5	6.06e-01	0	43	102	524288	21	4844
2026-01-07 13:31:26.55	285.96	23.37	-29.9	-32.4	19.5	6.08e-01	0	43	102	524288	21	4846
2026-01-07 13:31:27.56	286.27	23.32	-29.8	-32.3	19.6	6.08e-01	0	43	102	524288	21	4790
2026-01-07 13:31:28.56	286.59	23.27	-29.8	-32.2	19.6	6.06e-01	0	43	102	524288	21	4758
2026-01-07 13:31:29.57	286.90	23.22	-29.9	-32.4	19.5	6.07e-01	0	43	102	524288	21	4837
2026-01-07 13:31:30.57	287.22	23.17	-29.8	-32.2	19.6	6.09e-01	0	43	102	524288	21	4770
2026-01-07 13:31:31.58	287.53	23.12	-29.8	-32.2	19.6	6.06e-01	0	43	102	524288	21	4745
2026-01-07 13:31:32.58	287.84	23.07	-29.9	-32.4	19.5	6.06e-01	0	44	102	524288	21	4844
2026-01-07 13:31:33.59	288.15	23.02	-29.9	-32.6	19.4	6.08e-01	0	44	102	524288	21	4899
2026-01-07 13:31:34.60	288.46	22.97	-29.9	-32.5	19.4	6.06e-01	0	43	102	524288	21	4858
2026-01-07 13:31:35.61	288.77	22.91	-29.9	-32.5	19.4	6.08e-01	0	43	102	524288	21	4863
2026-01-07 13:31:36.62	289.08	22.86	-30.1	-33.0	19.2	6.06e-01	0	43	102	524288	21	5021
2026-01-07 13:31:37.63	289.39	22.80	-30.0	-32.9	19.1	6.07e-01	0	43	102	524288	21	5005
2026-01-07 13:31:38.64	289.70	22.75	-29.9	-32.6	19.4	6.07e-01	0	43	102	524288	21	4893
2026-01-07 13:31:39.64	290.00	22.69	-29.9	-32.4	19.4	6.06e-01	0	43	102	524288	21	4847
2026-01-07 13:31:40.65	290.30	22.64	-30.0	-32.7	19.3	6.07e-01	0	43	102	524288	21	4941
2026-01-07 13:31:41.66	290.61	22.58	-30.0	-32.7	19.3	6.07e-01	0	43	102	524288	21	4932
2026-01-07 13:31:42.67	290.91	22.52	-29.9	-32.4	19.5	6.06e-01	0	43	102	524288	21	4841
2026-01-07 13:31:43.68	291.21	22.46	-29.8	-32.3	19.5	6.06e-01	0	43	102	524288	21	4793
2026-01-07 13:31:44.69	291.51	22.40	-29.9	-32.7	19.4	6.09e-01	0	43	102	524288	21	4920
2026-01-07 13:31:45.70	291.81	22.34	-30.0	-32.9	19.2	6.07e-01	0	43	102	524288	21	5004
2026-01-07 13:31:46.70	292.10	22.28	-30.1	-33.1	19.0	6.07e-01	0	43	102	524288	21	5086
2026-01-07 13:31:47.71	292.40	22.22	-30.1	-33.0	19.1	6.05e-01	0	43	102	524288	21	5042
2026-01-07 13:31:48.72	292.69	22.16	-30.1	-33.1	19.1	6.07e-01	0	43	102	524288	21	5069
2026-01-07 13:31:49.73	292.98	22.09	-30.1	-33.2	19.0	6.06e-01	0	43	102	524288	21	5104
2026-01-07 13:31:50.74	293.28	22.03	-30.1	-33.1	19.1	6.05e-01	0	43	102	524288	21	5080
2026-01-07 13:31:51.75	293.57	21.97	-30.2	-33.4	18.8	6.06e-01	0	43	102	524288	21	5188
2026-01-07 13:31:52.76	293.86	21.90	-30.1	-33.1	19.1	6.06e-01	0	43	102	524288	21	5061
2026-01-07 13:31:53.76	294.14	21.84	-30.2	-33.5	18.9	6.06e-01	0	43	102	524288	21	5206
2026-01-07 13:31:54.76	294.43	21.77	-30.1	-33.2	19.0	6.07e-01	0	43	102	524288	21	5118
2026-01-07 13:31:55.77	294.71	21.71	-30.0	-32.9	19.2	6.08e-01	0	43	102	524288	21	4995
2026-01-07 13:31:56.77	295.00	21.64	-29.9	-32.5	19.4	6.09e-01	0	43	102	524288	21	4871
2026-01-07 13:31:57.77	295.28	21.58	-29.8	-32.4	19.5	6.06e-01	0	43	102	524288	21	4831
2026-01-07 13:31:58.78	295.56	21.51	-29.9	-32.6	19.3	6.05e-01	0	43	102	524288	21	4904
2026-01-07 13:31:59.79	295.84	21.44	-30.0	-32.9	19.1	6.05e-01	0	43	102	524288	21	5042
2026-01-07 13:32:00.79	296.12	21.37	-29.8	-32.5	19.3	6.06e-01	0	43	102	524288	21	4893
2026-01-07 13:32:01.80	296.39	21.31	-29.5	-31.9	19.6	6.07e-01	0	43	102	524288	21	4744
2026-01-07 13:32:02.80	296.67	21.24	-29.6	-32.0	19.6	6.07e-01	0	43	102	524288	21	4745
2026-01-07 13:32:03.81	296.94	21.17	-29.6	-32.0	19.7	6.05e-01	0	43	102	524288	21	4703
2026-01-07 13:32:04.82	297.22	21.10	-29.8	-32.2	19.5	6.07e-01	0	43	102	524288	21	4791
2026-01-07 13:32:05.83	297.49	21.03	-29.8	-32.2	19.6	6.08e-01	0	43	102	524288	21	4784
2026-01-07 13:32:06.83	297.76	20.96	-29.9	-32.5	19.4	6.08e-01	0	43	102	524288	21	4863
2026-01-07 13:32:07.83	298.03	20.89	-29.8	-32.3	19.5	6.05e-01	0	43	102	524288	21	4805
2026-01-07 13:32:08.84	298.30	20.82	-29.7	-32.2	19.5	6.07e-01	0	43	102	524288	21	4787
2026-01-07 13:32:09.85	298.57	20.74	-29.5	-32.0	19.4	6.08e-01	0	43	102	524288	21	4822
2026-01-07 13:32:10.86	298.83	20.67	-29.7	-32.3	19.3	6.08e-01	0	43	102	524288	21	4855
2026-01-07 13:32:11.86	299.10	20.60	-29.2	-32.0	19.5	6.06e-01	0	43	102	524288	20	5004
2026-01-07 13:32:12.87	299.36	20.53	-27.7	-31.9	19.1	6.08e-01	0	43	102	524288	17	5871
2026-01-07 13:32:13.87	299.62	20.45	-27.0	-32.5	18.7	6.06e-01	0	43	102	524288	14	6745
2026-01-07 13:32:14.88	299.88	20.38	-26.2	-31.8	18.4	6.07e-01	0	43	102	524288	14	6903
2026-01-07 13:32:15.89	300.14	20.31	-28.7	-32.6	18.9	6.08e-01	0	43	102	524288	18	5647
2026-01-07 13:32:16.89	300.40	20.23	-29.5	-32.6	19.1	6.04e-01	0	43	102	524288	20	5159
2026-01-07 13:32:17.90	300.66	20.16	-30.0	-33.3	19.1	6.08e-01	0	43	102	524288	20	5312
2026-01-07 13:32:18.91	300.91	20.08	-30.0	-33.4	19.0	6.06e-01	0	43	102	524288	20	5336
2026-01-07 13:32:19.92	301.17	20.01	-29.9	-33.1	19.3	6.06e-01	0	43	102	524288	20	5194
2026-01-07 13:32:20.92	301.42	19.93	-29.9	-33.1	19.3	6.07e-01	0	43	102	524288	20	5207
2026-01-07 13:32:21.93	301.67	19.86	-29.9	-33.2	19.3	6.08e-01	0	43	102	524288	20	5234
2026-01-07 13:32:22.94	301.93	19.78	-29.9	-33.3	19.2	6.07e-01	0	43	102	524288	20	5290
2026-01-07 13:32:23.94	302.17	19.71	-29.9	-33.3	19.2	6.06e-01	0	43	102	524288	20	5275
2026-01-07 13:32:24.96	302.42	19.63	-30.2	-33.4	18.8	6.05e-01	0	43	102	524288	21	5211
2026-01-07 13:32:25.96	302.67	19.55	-30.5	-34.3	18.2	6.08e-01	0	43	102	524288	21	5571
2026-01-07 13:32:26.97	302.92	19.48	-30.2	-33.4	18.8	6.07e-01	0	43	102	524288	21	5200
2026-01-07 13:32:27.98	303.16	19.40	-29.9	-32.7	19.2	6.06e-01	0	43	102	524288	21	4932
2026-01-07 13:32:28.99	303.40	19.32	-29.8	-32.4	19.4	6.07e-01	0	43	102	524288	21	4837
2026-01-07 13:32:30.00	303.65	19.24	-29.7	-32.1	19.6	6.07e-01	0	43	102	524288	21	4732
2026-01-07 13:32:31.00	303.88	19.17	-29.6	-31.9	19.7	6.06e-01	0	43	102	524288	21	4684
2026-01-07 13:32:32.01	304.12	19.09	-29.6	-31.8	19.7	6.06e-01	0	43	102	524288	21	4651
2026-01-07 13:32:33.01	304.36	19.01	-29.7	-32.0	19.6	6.08e-01	0	43	102	524288	21	4709
2026-01-07 13:32:34.02	304.60	18.93	-29.7	-32.0	19.6	6.06e-01	0	43	102	524288	21	4715
2026-01-07 13:32:35.02	304.83	18.86	-29.7	-32.1	19.6	6.08e-01	0	43	102	524288	21	4728
2026-01-07 13:32:36.03	305.07	18.78	-29.7	-32.0	19.6	6.06e-01	0	43	102	524288	21	4707
2026-01-07 13:32:37.04	305.30	18.70	-29.7	-32.0	19.6	6.07e-01	0	43	102	524288	21	4717
2026-01-07 13:32:38.05	305.53	18.62	-29.8	-32.4	19.4	6.07e-01	0	43	102	524288	21	4852
2026-01-07 13:32:39.06	305.76	18.54	-29.8	-32.3	19.4	6.08e-01	0	43	102	524288	21	4811
2026-01-07 13:32:40.06	305.99	18.46	-29.9	-32.5	19.4	6.07e-01	0	43	102	524288	21	4871
2026-01-07 13:32:41.07	306.22	18.38	-29.8	-32.2	19.5	6.07e-01	0	43	102	524288	21	4777
2026-01-07 13:32:42.07	306.44	18.30	-29.8	-32.3	19.4	6.07e-01	0	43	102	524288	21	4820
2026-01-07 13:32:43.08	306.67	18.22	-29.9	-32.6	19.2	6.07e-01	0	43	102	524288	21	4906
2026-01-07 13:32:44.09	306.89	18.14	-29.8	-32.3	19.4	6.07e-01	0	43	102	524288	21	4815
2026-01-07 13:32:45.10	307.12	18.06	-29.9	-32.6	19.2	6.07e-01	0	43	102	524288	21	4906
2026-01-07 13:32:46.10	307.34	17.98	-29.7	-32.2	19.5	6.03e-01	0	43	102	524288	21	4757
2026-01-07 13:32:47.11	307.56	17.90	-29.6	-31.9	19.7	6.03e-01	0	43	102	524288	21	4669
2026-01-07 13:32:48.12	307.78	17.82	-29.6	-31.8	19.7	6.04e-01	0	43	102	524288	21	4651
2026-01-07 13:32:49.13	308.00	17.74	-29.7	-32.1	19.6	6.04e-01	0	43	102	524288	21	4729
2026-01-07 13:32:50.14	308.22	17.66	-29.7	-32.0	19.6	6.04e-01	0	43	102	524288	21	4717
2026-01-07 13:32:51.15	308.43	17.58	-29.7	-32.2	19.5	6.02e-01	0	43	102	524288	21	4768
2026-01-07 13:32:52.15	308.64	17.50	-29.6	-31.9	19.6	6.02e-01	0	43	102	524288	21	4677
2026-01-07 13:32:53.16	308.86	17.42	-29.6	-31.8	19.7	6.02e-01	0	43	102	524288	21	4642
2026-01-07 13:32:54.17	309.07	17.34	-29.6	-31.9	19.7	6.02e-01	0	43	102	524288	21	4671
2026-01-07 13:32:55.18	309.28	17.26	-29.5	-31.7	19.7	6.01e-01	0	43	102	524288	21	4607
2026-01-07 13:32:56.19	309.49	17.18	-29.6	-31.8	19.7	6.01e-01	0	43	102	524288	21	4634
2026-01-07 13:32:57.19	309.70	17.10	-29.5	-31.7	19.7	6.02e-01	0	43	102	524288	21	4623
2026-01-07 13:32:58.19	309.91	17.02	-29.6	-31.9	19.6	6.03e-01	0	43	102	524288	21	4694
2026-01-07 13:32:59.19	310.11	16.94	-29.7	-32.2	19.5	6.03e-01	0	43	102	524288	21	4775
2026-01-07 13:33:00.20	310.32	16.86	-29.6	-32.0	19.6	6.02e-01	0	43	102	524288	21	4717
2026-01-07 13:33:01.21	310.52	16.77	-29.6	-31.9	19.6	6.04e-01	0	43	102	524288	21	4694
2026-01-07 13:33:02.21	310.72	16.69	-29.6	-31.8	19.6	6.03e-01	0	43	102	524288	21	4661
2026-01-07 13:33:03.22	310.93	16.61	-29.6	-31.8	19.6	6.03e-01	0	43	102	524288	21	4669
2026-01-07 13:33:04.23	311.13	16.53	-29.6	-31.9	19.6	6.04e-01	0	43	102	524288	21	4688
2026-01-07 13:33:05.23	311.32	16.45	-29.7	-32.1	19.5	6.00e-01	0	43	102	524288	21	4749
2026-01-07 13:33:06.24	311.52	16.37	-29.6	-31.8	19.6	6.03e-01	0	43	102	524288	21	4654
2026-01-07 13:33:07.25	311.72	16.29	-29.5	-31.8	19.6	6.02e-01	0	43	102	524288	21	4642
2026-01-07 13:33:08.25	311.92	16.21	-29.6	-31.9	19.6	6.02e-01	0	43	102	524288	21	4675
2026-01-07 13:33:09.26	312.11	16.13	-29.5	-31.7	19.7	6.03e-01	0	43	102	524288	21	4633
2026-01-07 13:33:10.26	312.30	16.05	-29.6	-32.0	19.5	6.04e-01	0	43	102	524288	21	4707
2026-01-07 13:33:11.27	312.50	15.96	-29.7	-32.1	19.4	6.02e-01	0	43	102	524288	21	4757
2026-01-07 13:33:12.27	312.69	15.88	-29.7	-32.1	19.5	6.04e-01	0	43	102	524288	21	4741
2026-01-07 13:33:13.28	312.88	15.80	-29.8	-32.3	19.3	6.01e-01	0	43	102	524288	21	4815
2026-01-07 13:33:14.28	313.07	15.72	-29.6	-31.9	19.6	6.03e-01	0	43	102	524288	21	4701
2026-01-07 13:33:15.29	313.26	15.64	-29.6	-31.8	19.6	6.02e-01	0	43	102	524288	21	4651
2026-01-07 13:33:16.29	313.44	15.56	-29.6	-31.8	19.6	6.04e-01	0	43	102	524288	21	4661
2026-01-07 13:33:17.30	313.63	15.48	-29.6	-31.9	19.6	6.03e-01	0	43	102	524288	21	4677
2026-01-07 13:33:18.30	313.81	15.40	-29.7	-32.1	19.4	6.03e-01	0	43	102	524288	21	4758
2026-01-07 13:33:19.31	314.00	15.32	-29.7	-32.1	19.4	6.05e-01	0	43	102	524288	21	4763
2026-01-07 13:33:20.32	314.18	15.24	-29.7	-32.2	19.4	6.04e-01	0	43	102	524288	21	4773
2026-01-07 13:33:21.32	314.36	15.16	-29.6	-32.0	19.5	6.02e-01	0	43	102	524288	21	4713
2026-01-07 13:33:22.33	314.55	15.08	-29.7	-32.0	19.4	6.04e-01	0	43	102	524288	21	4726
2026-01-07 13:33:23.34	314.73	14.99	-29.6	-32.0	19.5	6.04e-01	0	43	102	524288	21	4718
2026-01-07 13:33:24.34	314.90	14.91	-29.7	-32.1	19.4	6.01e-01	0	44	102	524288	21	4764
2026-01-07 13:33:25.35	315.08	14.83	-29.7	-32.1	19.4	6.04e-01	0	43	102	524288	21	4765
2026-01-07 13:33:26.36	315.26	14.75	-29.7	-32.0	19.4	6.03e-01	0	43	102	524288	21	4734
2026-01-07 13:33:27.36	315.44	14.67	-29.7	-32.2	19.3	6.03e-01	0	43	102	524288	21	4796
2026-01-07 13:33:28.37	315.61	14.59	-29.8	-32.3	19.3	6.03e-01	0	43	102	524288	21	4837
2026-01-07 13:33:29.38	315.79	14.51	-29.8	-32.3	19.2	6.02e-01	0	43	102	524288	21	4841
2026-01-07 13:33:30.39	315.96	14.43	-29.8	-32.4	19.2	6.05e-01	0	43	102	524288	21	4874
2026-01-07 13:33:31.40	316.13	14.35	-29.8	-32.5	19.1	6.03e-01	0	43	102	524288	21	4909
2026-01-07 13:33:32.40	316.30	14.27	-29.7	-32.1	19.4	6.04e-01	0	43	102	524288	21	4753
2026-01-07 13:33:33.41	316.47	14.19	-29.6	-32.0	19.4	6.05e-01	0	43	102	524288	21	4716
2026-01-07 13:33:34.42	316.64	14.11	-29.6	-32.0	19.4	6.04e-01	0	43	102	524288	21	4724
2026-01-07 13:33:35.42	316.81	14.03	-29.7	-32.2	19.3	6.03e-01	0	43	102	524288	21	4801
2026-01-07 13:33:36.43	316.98	13.95	-29.8	-32.5	19.1	6.02e-01	0	43	102	524288	21	4900
2026-01-07 13:33:37.44	317.15	13.87	-29.9	-32.6	19.1	6.03e-01	0	43	102	524288	21	4935
2026-01-07 13:33:38.44	317.31	13.79	-29.9	-32.7	19.0	6.05e-01	0	43	102	524288	21	4958
2026-01-07 13:33:39.45	317.48	13.71	-29.8	-32.5	19.1	6.03e-01	0	43	102	524288	21	4908
2026-01-07 13:33:40.46	317.64	13.63	-29.8	-32.5	19.1	6.04e-01	0	43	102	524288	21	4891
2026-01-07 13:33:41.46	317.80	13.55	-29.9	-32.6	19.0	6.03e-01	0	43	102	524288	21	4933
2026-01-07 13:33:42.47	317.96	13.47	-29.9	-32.7	19.0	6.01e-01	0	43	102	524288	21	4955
2026-01-07 13:33:43.47	318.12	13.40	-29.9	-32.6	19.0	6.02e-01	0	43	102	524288	21	4942
2026-01-07 13:33:44.47	318.28	13.32	-29.8	-32.5	19.1	6.04e-01	0	43	102	524288	21	4897
2026-01-07 13:33:45.48	318.44	13.24	-29.9	-32.7	19.0	6.03e-01	0	43	102	524288	21	4952
2026-01-07 13:33:46.49	318.60	13.16	-29.9	-32.8	18.9	6.03e-01	0	43	102	524288	21	5003
2026-01-07 13:33:47.49	318.76	13.08	-29.9	-32.7	19.0	6.02e-01	0	43	102	524288	21	4961
2026-01-07 13:33:48.50	318.92	13.00	-29.9	-32.7	19.0	6.01e-01	0	43	102	524288	21	4970
2026-01-07 13:33:49.51	319.07	12.92	-29.9	-32.6	19.0	6.03e-01	0	43	102	524288	21	4948
2026-01-07 13:33:50.51	319.23	12.84	-29.8	-32.4	19.1	6.04e-01	0	43	102	524288	21	4857
2026-01-07 13:33:51.52	319.38	12.77	-29.8	-32.4	19.1	6.04e-01	0	43	102	524288	21	4872
2026-01-07 13:33:52.53	319.53	12.69	-29.8	-32.3	19.2	6.03e-01	0	43	102	524288	21	4847
2026-01-07 13:33:53.54	319.69	12.61	-29.8	-32.4	19.1	6.03e-01	0	43	102	524288	21	4858
2026-01-07 13:33:54.54	319.84	12.53	-29.8	-32.4	19.1	6.01e-01	0	43	102	524288	21	4852
2026-01-07 13:33:55.55	319.99	12.45	-29.8	-32.6	19.0	6.02e-01	0	43	102	524288	21	4939
2026-01-07 13:33:56.55	320.14	12.38	-29.8	-32.6	19.0	6.02e-01	0	43	102	524288	21	4929
2026-01-07 13:33:57.56	320.29	12.30	-29.8	-32.5	19.0	6.02e-01	0	43	102	524288	21	4914
2026-01-07 13:33:58.56	320.44	12.22	-29.8	-32.5	19.0	6.04e-01	0	43	102	524288	21	4920
2026-01-07 13:33:59.56	320.58	12.14	-29.9	-32.8	18.9	6.03e-01	0	43	102	524288	21	5008
2026-01-07 13:34:00.57	320.73	12.07	-29.9	-32.9	18.8	6.02e-01	0	43	102	524288	21	5039
2026-01-07 13:34:01.57	320.87	11.99	-29.9	-32.7	18.9	6.03e-01	0	43	102	524288	21	4976
2026-01-07 13:34:02.58	321.02	11.91	-29.9	-32.8	18.8	6.03e-01	0	43	102	524288	21	5014
2026-01-07 13:34:03.59	321.16	11.83	-30.0	-32.9	18.7	6.04e-01	0	43	102	524288	21	5052
2026-01-07 13:34:04.59	321.31	11.76	-30.0	-32.9	18.7	6.03e-01	0	43	102	524288	21	5063
2026-01-07 13:34:05.59	321.45	11.68	-30.0	-32.9	18.7	6.03e-01	0	43	102	524288	21	5072
2026-01-07 13:34:06.60	321.59	11.60	-30.0	-33.2	18.5	6.02e-01	0	43	102	524288	21	5161
2026-01-07 13:34:07.60	321.73	11.53	-30.1	-33.4	18.4	6.02e-01	0	43	102	524288	21	5263
2026-01-07 13:34:08.61	321.87	11.45	-30.1	-33.4	18.4	6.02e-01	0	43	102	524288	21	5239
2026-01-07 13:34:09.62	322.01	11.37	-30.1	-33.3	18.5	6.02e-01	0	43	102	524288	21	5201
2026-01-07 13:34:10.62	322.15	11.30	-30.0	-33.2	18.5	6.02e-01	0	43	102	524288	21	5164
2026-01-07 13:34:11.63	322.29	11.22	-30.1	-33.4	18.4	6.04e-01	0	43	102	524288	21	5249
2026-01-07 13:34:12.64	322.43	11.15	-30.1	-33.4	18.4	6.02e-01	0	43	102	524288	21	5240
2026-01-07 13:34:13.65	322.56	11.07	-30.1	-33.4	18.4	6.03e-01	0	44	102	524288	21	5270
2026-01-07 13:34:14.65	322.70	11.00	-30.3	-33.9	18.1	6.02e-01	0	43	102	524288	21	5438
2026-01-07 13:34:15.66	322.83	10.92	-30.3	-33.8	18.1	6.05e-01	0	43	102	524288	21	5420
2026-01-07 13:34:16.67	322.97	10.84	-30.2	-33.7	18.2	6.03e-01	0	43	102	524288	21	5369
2026-01-07 13:34:17.67	323.10	10.77	-30.2	-33.6	18.2	6.02e-01	0	43	102	524288	21	5352
2026-01-07 13:34:18.68	323.23	10.69	-30.3	-34.0	18.0	6.02e-01	0	43	102	524288	21	5483
2026-01-07 13:34:19.69	323.37	10.62	-30.4	-34.1	17.9	6.04e-01	0	43	102	524288	21	5551
2026-01-07 13:34:20.69	323.50	10.54	-30.4	-34.1	17.9	6.05e-01	0	43	102	524288	21	5546
2026-01-07 13:34:21.70	323.63	10.47	-30.3	-33.8	18.0	6.04e-01	0	43	102	524288	21	5419
2026-01-07 13:34:22.70	323.76	10.39	-30.1	-33.5	18.3	6.04e-01	0	43	102	524288	21	5296
2026-01-07 13:34:23.71	323.89	10.32	-30.1	-33.3	18.4	6.04e-01	0	43	102	524288	21	5204
2026-01-07 13:34:24.72	324.02	10.24	-30.1	-33.4	18.3	6.03e-01	0	43	102	524288	21	5250
2026-01-07 13:34:25.73	324.15	10.17	-30.1	-33.3	18.4	6.03e-01	0	43	102	524288	21	5205
2026-01-07 13:34:26.74	324.27	10.10	-30.0	-33.2	18.4	6.06e-01	0	43	102	524288	21	5165
2026-01-07 13:34:27.74	324.40	10.02	-30.1	-33.3	18.3	6.03e-01	0	43	102	524288	21	5230
2026-01-07 13:34:28.75	324.53	9.95	-30.1	-33.3	18.3	6.04e-01	0	43	102	524288	21	5223
2026-01-07 13:34:29.76	324.65	9.87	-30.1	-33.3	18.4	6.03e-01	0	43	102	524288	21	5209
2026-01-07 13:34:30.75	324.77	9.80	-30.1	-33.5	18.2	6.00e-01	0	43	102	524288	21	5288
2026-01-07 13:34:31.76	324.90	9.73	-30.1	-33.4	18.3	6.03e-01	0	43	102	524288	21	5254
2026-01-07 13:34:32.77	325.02	9.65	-30.2	-33.6	18.1	6.04e-01	0	43	102	524288	21	5347
2026-01-07 13:34:33.77	325.15	9.58	-30.2	-33.6	18.1	6.03e-01	0	43	102	524288	21	5361
2026-01-07 13:34:34.77	325.27	9.51	-30.2	-33.8	18.1	6.06e-01	0	43	102	524288	21	5412
2026-01-07 13:34:35.78	325.39	9.44	-30.4	-34.3	17.7	6.03e-01	0	43	102	524288	21	5634
2026-01-07 13:34:36.79	325.51	9.36	-30.3	-34.0	17.9	6.02e-01	0	43	102	524288	21	5504
2026-01-07 13:34:37.80	325.63	9.29	-30.3	-33.9	17.9	6.04e-01	0	43	102	524288	21	5469
2026-01-07 13:34:38.80	325.75	9.22	-30.3	-34.0	17.9	6.03e-01	0	43	102	524288	21	5493
2026-01-07 13:34:39.81	325.87	9.15	-30.3	-34.1	17.8	6.00e-01	0	43	102	524288	21	5553
2026-01-07 13:34:40.82	325.99	9.07	-30.4	-34.4	17.5	6.01e-01	0	43	102	524288	21	5679
2026-01-07 13:34:41.83	326.11	9.00	-30.4	-34.2	17.7	6.03e-01	0	43	102	524288	21	5608
2026-01-07 13:34:42.84	326.22	8.93	-30.3	-34.1	17.8	6.03e-01	0	43	102	524288	21	5548
2026-01-07 13:34:43.84	326.34	8.86	-30.3	-34.0	17.8	6.03e-01	0	43	102	524288	21	5513
2026-01-07 13:34:44.84	326.46	8.79	-30.4	-34.2	17.7	6.03e-01	0	43	102	524288	21	5590
2026-01-07 13:34:45.85	326.57	8.71	-30.4	-34.3	17.6	6.03e-01	0	43	102	524288	21	5637
2026-01-07 13:34:46.85	326.69	8.64	-30.4	-34.4	17.6	6.03e-01	0	43	102	524288	21	5682
2026-01-07 13:34:47.84	326.80	8.57	-30.3	-34.1	17.7	6.03e-01	0	43	102	524288	21	5551
2026-01-07 13:34:48.85	326.91	8.50	-30.4	-34.2	17.7	6.02e-01	0	43	102	524288	21	5609
2026-01-07 13:34:49.86	327.03	8.43	-30.3	-34.1	17.7	6.02e-01	0	43	102	524288	21	5580
2026-01-07 13:34:50.86	327.14	8.36	-30.4	-34.4	17.5	6.04e-01	0	43	102	524288	21	5714
2026-01-07 13:34:51.87	327.25	8.29	-30.4	-34.3	17.6	6.01e-01	0	43	102	524288	21	5639
2026-01-07 13:34:52.87	327.36	8.22	-30.5	-34.6	17.4	6.02e-01	0	43	102	524288	21	5775
2026-01-07 13:34:53.88	327.47	8.15	-30.4	-34.3	17.6	6.05e-01	0	43	102	524288	21	5643
2026-01-07 13:34:54.89	327.58	8.08	-30.3	-34.2	17.6	6.02e-01	0	43	102	524288	21	5590
2026-01-07 13:34:55.90	327.69	8.01	-30.4	-34.4	17.5	6.04e-01	0	43	102	524288	21	5697
2026-01-07 13:34:56.91	327.80	7.94	-30.6	-34.9	17.2	6.02e-01	0	43	102	524288	21	5908
2026-01-07 13:34:57.91	327.91	7.87	-30.4	-34.4	17.4	6.06e-01	0	43	102	524288	21	5708
2026-01-07 13:34:58.92	328.02	7.80	-30.5	-34.5	17.4	6.02e-01	0	43	102	524288	21	5757
2026-01-07 13:34:59.92	328.13	7.73	-30.5	-34.6	17.2	6.04e-01	0	44	102	524288	21	5786
2026-01-07 13:35:00.93	328.23	7.66	-30.5	-34.8	17.1	6.06e-01	0	43	102	524288	21	5872
2026-01-07 13:35:01.93	328.34	7.59	-30.5	-34.6	17.2	6.05e-01	0	43	102	524288	21	5817
2026-01-07 13:35:02.94	328.44	7.52	-30.5	-34.7	17.2	6.03e-01	0	43	102	524288	21	5848
2026-01-07 13:35:03.94	328.55	7.45	-30.4	-34.6	17.3	6.03e-01	0	43	102	524288	21	5775
2026-01-07 13:35:04.95	328.65	7.38	-30.6	-34.5	16.9	6.02e-01	0	43	102	524288	22	5655
2026-01-07 13:35:05.95	328.76	7.31	-30.7	-34.8	16.8	6.03e-01	0	43	102	524288	22	5770
2026-01-07 13:35:06.96	328.86	7.25	-30.8	-35.2	16.4	6.02e-01	0	43	102	524288	22	5959
2026-01-07 13:35:07.95	328.96	7.18	-30.6	-34.7	16.8	6.04e-01	0	43	102	524288	22	5718
2026-01-07 13:35:08.96	329.07	7.11	-30.8	-35.3	16.4	6.03e-01	0	43	102	524288	22	5997
2026-01-07 13:35:09.97	329.17	7.04	-33.6	-51.8	3.8	7.50e-01	0	43	104	524288	27	29288

#Closed at: 2026-01-07 13:35:10
#Recorded file [0 MB]: D:/data/31010_260107_162605.dat