passes_logs/2026/01/07/R2M6_AANII_01/R2M6_AANII_01__20260107_114727_AQUA_rec.log

#Pass ID: 20260107_114727_AQUA
#Satellite: AQUA
#Configuration: AQUA
#almurnet v.1.7.20240730
#Start time: 2026-01-07 11:47:28

#Version: 2.2.20231116
#Station: R2M6_AANII_01
#Location: 30.233357 lon 59.946436 lat
#TLE: 1 27424U 02022A   26004.96787593  .00001598  00000+0  32997-3 0  9996
#TLE: 2 27424  98.4069 331.2279 0002002  90.2377   0.6092 14.61798176259425

#Time	Az	El	Level	Level2	SNR	BER	BlckErr	Temp	State	Recorded	gain1	gain2
2026-01-07 11:47:28.15	152.18	7.05	-30.9	-37.5	5.1	7.09e-01	0	41	0	0	23	7673
2026-01-07 11:47:29.15	152.16	7.14	-31.4	-38.9	4.9	7.11e-01	0	41	104	0	24	8600
2026-01-07 11:47:30.15	152.15	7.22	-31.3	-37.4	13.2	6.10e-01	0	41	0	0	24	7260
2026-01-07 11:47:31.15	152.14	7.30	-31.4	-38.1	12.7	6.11e-01	0	41	102	1048576	24	7725
2026-01-07 11:47:32.16	152.12	7.39	-31.2	-37.0	13.5	6.10e-01	0	41	102	1048576	24	6981
2026-01-07 11:47:33.17	152.11	7.47	-31.0	-36.1	14.3	6.06e-01	0	41	102	1048576	24	6439
2026-01-07 11:47:34.18	152.09	7.55	-30.8	-35.9	14.8	6.07e-01	0	41	102	1048576	23	6421
2026-01-07 11:47:35.18	152.08	7.64	-30.5	-35.0	15.5	6.05e-01	0	41	102	1048576	23	6027
2026-01-07 11:47:36.18	152.06	7.72	-30.3	-35.0	15.7	6.07e-01	0	41	102	1048576	22	6185
2026-01-07 11:47:37.19	152.05	7.81	-30.4	-35.3	15.5	6.07e-01	0	41	102	1048576	22	6332
2026-01-07 11:47:38.19	152.04	7.89	-30.5	-35.9	15.0	6.10e-01	0	41	102	1048576	22	6698
2026-01-07 11:47:39.20	152.02	7.98	-30.2	-35.1	15.6	6.07e-01	0	41	102	1048576	22	6286
2026-01-07 11:47:40.21	152.01	8.07	-30.1	-34.7	15.9	6.06e-01	0	41	102	1048576	22	6101
2026-01-07 11:47:41.21	151.99	8.15	-30.0	-34.1	16.3	6.08e-01	0	41	102	1048576	22	5811
2026-01-07 11:47:42.22	151.98	8.24	-29.8	-34.2	16.6	6.05e-01	0	41	102	1048576	21	5929
2026-01-07 11:47:43.23	151.96	8.33	-29.9	-34.4	16.5	6.06e-01	0	41	102	1048576	21	6057
2026-01-07 11:47:44.23	151.94	8.41	-29.9	-34.2	16.7	6.08e-01	0	41	102	1048576	21	5892
2026-01-07 11:47:45.24	151.93	8.50	-29.9	-34.1	16.9	6.04e-01	0	41	102	1048576	21	5814
2026-01-07 11:47:46.24	151.91	8.59	-29.9	-34.0	16.9	6.08e-01	0	41	102	1048576	21	5776
2026-01-07 11:47:47.24	151.90	8.68	-30.0	-34.3	16.7	6.08e-01	0	41	102	1048576	21	5910
2026-01-07 11:47:48.24	151.88	8.76	-30.0	-34.1	16.9	6.06e-01	0	41	102	1048576	21	5774
2026-01-07 11:47:49.24	151.87	8.85	-30.0	-33.9	17.1	6.06e-01	0	41	102	1048576	21	5666
2026-01-07 11:47:50.25	151.85	8.94	-30.1	-34.1	17.0	6.08e-01	0	42	102	1048576	21	5710
2026-01-07 11:47:51.26	151.83	9.03	-30.0	-33.9	17.2	6.04e-01	0	41	102	1048576	21	5657
2026-01-07 11:47:52.27	151.82	9.12	-30.1	-34.3	16.9	6.07e-01	0	42	102	1048576	21	5836
2026-01-07 11:47:53.28	151.80	9.21	-30.0	-33.9	17.2	6.05e-01	0	42	102	1048576	21	5627
2026-01-07 11:47:54.29	151.78	9.31	-29.9	-33.6	17.4	6.07e-01	0	42	102	1048576	21	5514
2026-01-07 11:47:55.30	151.77	9.40	-29.9	-33.5	17.5	6.07e-01	0	42	102	1048576	21	5442
2026-01-07 11:47:56.30	151.75	9.49	-29.8	-33.3	17.6	6.07e-01	0	42	102	1048576	21	5385
2026-01-07 11:47:57.31	151.73	9.58	-29.8	-33.3	17.6	6.08e-01	0	42	102	1048576	21	5382
2026-01-07 11:47:58.31	151.72	9.67	-29.8	-33.4	17.6	6.07e-01	0	42	102	1048576	21	5406
2026-01-07 11:47:59.32	151.70	9.77	-29.9	-33.4	17.6	6.07e-01	0	42	102	1048576	21	5425
2026-01-07 11:48:00.33	151.68	9.86	-29.8	-33.3	17.7	6.08e-01	0	42	102	1048576	21	5360
2026-01-07 11:48:01.33	151.66	9.95	-29.8	-33.2	17.8	6.07e-01	0	42	102	1048576	21	5338
2026-01-07 11:48:02.34	151.65	10.05	-29.8	-33.2	17.8	6.06e-01	0	42	102	1048576	21	5332
2026-01-07 11:48:03.34	151.63	10.14	-29.8	-33.4	17.6	6.06e-01	0	42	102	1048576	21	5430
2026-01-07 11:48:04.35	151.61	10.24	-29.9	-33.6	17.5	6.09e-01	0	42	102	1048576	21	5524
2026-01-07 11:48:05.36	151.59	10.33	-29.9	-33.7	17.5	6.08e-01	0	42	102	1048576	21	5529
2026-01-07 11:48:06.36	151.57	10.43	-30.0	-33.8	17.4	6.06e-01	0	42	102	1048576	21	5569
2026-01-07 11:48:07.37	151.56	10.52	-30.0	-33.8	17.3	6.06e-01	0	42	102	1048576	21	5603
2026-01-07 11:48:08.37	151.54	10.62	-29.9	-33.6	17.5	6.07e-01	0	42	102	1048576	21	5507
2026-01-07 11:48:09.38	151.52	10.72	-29.9	-33.5	17.6	6.06e-01	0	42	102	1048576	21	5461
2026-01-07 11:48:10.38	151.50	10.81	-29.9	-33.5	17.6	6.05e-01	0	42	102	1048576	21	5430
2026-01-07 11:48:11.40	151.48	10.91	-30.0	-33.7	17.5	6.07e-01	0	42	102	1048576	21	5529
2026-01-07 11:48:12.40	151.46	11.01	-30.1	-34.0	17.4	6.08e-01	0	42	102	1048576	21	5630
2026-01-07 11:48:13.41	151.44	11.11	-29.9	-33.3	17.8	6.06e-01	0	42	102	1048576	21	5350
2026-01-07 11:48:14.42	151.42	11.21	-29.8	-33.0	18.1	6.06e-01	0	42	102	1048576	21	5223
2026-01-07 11:48:15.42	151.40	11.31	-29.7	-32.8	18.1	6.08e-01	0	42	102	1048576	21	5171
2026-01-07 11:48:16.43	151.38	11.41	-29.7	-33.0	18.1	6.05e-01	0	42	102	1048576	21	5214
2026-01-07 11:48:17.43	151.36	11.51	-29.7	-32.9	18.1	6.06e-01	0	42	102	1048576	21	5170
2026-01-07 11:48:18.43	151.34	11.61	-29.7	-32.8	18.1	6.07e-01	0	42	102	1048576	21	5180
2026-01-07 11:48:19.44	151.32	11.71	-29.7	-33.0	18.0	6.10e-01	0	42	102	1048576	21	5228
2026-01-07 11:48:20.44	151.30	11.81	-29.7	-32.7	18.2	6.07e-01	0	42	102	1048576	21	5131
2026-01-07 11:48:21.45	151.28	11.91	-29.7	-32.8	18.3	6.07e-01	0	42	102	1048576	21	5145
2026-01-07 11:48:22.46	151.26	12.01	-29.7	-32.7	18.3	6.06e-01	0	42	102	1048576	21	5110
2026-01-07 11:48:23.47	151.24	12.12	-29.7	-32.8	18.3	6.07e-01	0	42	102	1048576	21	5146
2026-01-07 11:48:24.47	151.22	12.22	-29.8	-33.1	18.1	6.07e-01	0	42	102	1048576	21	5254
2026-01-07 11:48:25.48	151.20	12.33	-29.8	-33.1	18.1	6.04e-01	0	42	102	1048576	21	5244
2026-01-07 11:48:26.48	151.18	12.43	-29.7	-32.7	18.3	6.07e-01	0	42	102	1048576	21	5097
2026-01-07 11:48:27.50	151.15	12.54	-29.7	-32.7	18.4	6.07e-01	0	42	102	1048576	21	5060
2026-01-07 11:48:28.50	151.13	12.64	-29.7	-32.7	18.4	6.06e-01	0	42	102	1048576	21	5064
2026-01-07 11:48:29.51	151.11	12.75	-29.8	-32.7	18.4	6.04e-01	0	42	102	1048576	21	5070
2026-01-07 11:48:30.52	151.09	12.85	-29.7	-32.6	18.5	6.05e-01	0	42	102	1048576	21	5012
2026-01-07 11:48:31.52	151.06	12.96	-29.7	-32.6	18.5	6.05e-01	0	42	102	1048576	21	5011
2026-01-07 11:48:32.52	151.04	13.07	-29.6	-32.3	18.7	6.06e-01	0	42	102	1048576	21	4930
2026-01-07 11:48:33.53	151.02	13.18	-29.6	-32.2	18.8	6.05e-01	0	42	102	1048576	21	4879
2026-01-07 11:48:34.54	151.00	13.29	-29.5	-32.1	18.8	6.05e-01	0	42	102	1048576	21	4854
2026-01-07 11:48:35.55	150.97	13.40	-29.6	-32.2	18.8	6.05e-01	0	42	102	1048576	21	4880
2026-01-07 11:48:36.56	150.95	13.51	-29.5	-32.2	18.8	6.08e-01	0	42	102	1048576	21	4861
2026-01-07 11:48:37.56	150.92	13.62	-29.5	-32.0	18.9	6.07e-01	0	42	102	1048576	21	4816
2026-01-07 11:48:38.57	150.90	13.73	-29.5	-32.1	18.9	6.07e-01	0	42	102	1048576	21	4838
2026-01-07 11:48:39.57	150.88	13.84	-29.6	-32.4	18.7	6.05e-01	0	42	102	1048576	21	4950
2026-01-07 11:48:40.58	150.85	13.95	-29.6	-32.4	18.7	6.05e-01	0	42	102	1048576	21	4956
2026-01-07 11:48:41.58	150.83	14.06	-29.6	-32.1	18.9	6.06e-01	0	42	102	1048576	21	4851
2026-01-07 11:48:42.59	150.80	14.18	-29.6	-32.2	18.9	6.07e-01	0	43	102	1048576	21	4858
2026-01-07 11:48:43.60	150.78	14.29	-29.5	-32.1	18.9	6.07e-01	0	43	102	1048576	21	4836
2026-01-07 11:48:44.60	150.75	14.40	-29.6	-32.2	18.8	6.07e-01	0	43	102	1048576	21	4889
2026-01-07 11:48:45.60	150.73	14.52	-29.6	-32.3	18.8	6.06e-01	0	42	102	1048576	21	4891
2026-01-07 11:48:46.61	150.70	14.63	-29.6	-32.2	18.9	6.05e-01	0	42	102	1048576	21	4872
2026-01-07 11:48:47.62	150.67	14.75	-29.6	-32.2	18.9	6.07e-01	0	43	102	1048576	21	4884
2026-01-07 11:48:48.62	150.65	14.87	-29.6	-32.3	18.8	6.08e-01	0	42	102	1048576	21	4899
2026-01-07 11:48:49.64	150.62	14.98	-29.7	-32.5	18.7	6.07e-01	0	42	102	1048576	21	4986
2026-01-07 11:48:50.64	150.59	15.10	-29.8	-32.7	18.6	6.06e-01	0	43	102	1048576	21	5058
2026-01-07 11:48:51.65	150.57	15.22	-29.8	-32.8	18.5	6.06e-01	0	42	102	1048576	21	5091
2026-01-07 11:48:52.66	150.54	15.34	-29.8	-32.9	18.5	6.09e-01	0	42	102	1048576	21	5122
2026-01-07 11:48:53.67	150.51	15.46	-29.8	-32.7	18.6	6.07e-01	0	42	102	1048576	21	5043
2026-01-07 11:48:54.68	150.48	15.58	-29.8	-32.8	18.6	6.03e-01	0	42	102	1048576	21	5074
2026-01-07 11:48:55.68	150.46	15.70	-29.8	-32.7	18.6	6.06e-01	0	42	102	1048576	21	5026
2026-01-07 11:48:56.69	150.43	15.82	-29.8	-32.8	18.6	6.07e-01	0	43	102	1048576	21	5072
2026-01-07 11:48:57.69	150.40	15.95	-30.0	-33.2	18.4	6.05e-01	0	43	102	1048576	21	5210
2026-01-07 11:48:58.70	150.37	16.07	-30.0	-33.2	18.4	6.08e-01	0	43	102	1048576	21	5194
2026-01-07 11:48:59.71	150.34	16.19	-29.8	-32.8	18.7	6.05e-01	0	43	102	1048576	21	5039
2026-01-07 11:49:00.71	150.31	16.32	-29.8	-32.5	18.8	6.06e-01	0	43	102	1048576	21	4948
2026-01-07 11:49:01.72	150.28	16.44	-29.7	-32.3	19.0	6.06e-01	0	43	102	1048576	21	4872
2026-01-07 11:49:02.72	150.25	16.57	-29.7	-32.2	19.0	6.07e-01	0	43	102	1048576	21	4851
2026-01-07 11:49:03.73	150.22	16.70	-29.7	-32.3	19.0	6.08e-01	0	43	102	1048576	21	4871
2026-01-07 11:49:04.74	150.19	16.82	-29.7	-32.4	18.9	6.06e-01	0	43	102	1048576	21	4913
2026-01-07 11:49:05.74	150.16	16.95	-29.7	-32.4	19.0	6.07e-01	0	43	102	1048576	21	4892
2026-01-07 11:49:06.75	150.13	17.08	-29.6	-32.2	19.1	6.05e-01	0	43	102	1048576	21	4810
2026-01-07 11:49:07.76	150.10	17.21	-29.7	-32.3	19.1	6.06e-01	0	43	102	1048576	21	4846
2026-01-07 11:49:08.77	150.06	17.34	-29.8	-32.6	18.9	6.06e-01	0	43	102	1048576	21	4949
2026-01-07 11:49:09.78	150.03	17.47	-29.7	-32.4	19.1	6.08e-01	0	43	102	1048576	21	4876
2026-01-07 11:49:10.79	150.00	17.61	-29.7	-32.3	19.1	6.05e-01	0	43	102	1048576	21	4847
2026-01-07 11:49:11.80	149.97	17.74	-29.8	-32.4	19.0	6.09e-01	0	43	102	1048576	21	4891
2026-01-07 11:49:12.80	149.93	17.87	-29.8	-32.4	19.0	6.04e-01	0	43	102	1048576	21	4895
2026-01-07 11:49:13.80	149.90	18.01	-29.8	-32.5	19.1	6.06e-01	0	43	102	1048576	21	4906
2026-01-07 11:49:14.81	149.87	18.14	-29.9	-32.8	18.9	6.06e-01	0	43	102	1048576	21	5036
2026-01-07 11:49:15.81	149.83	18.28	-29.8	-32.6	19.0	6.06e-01	0	43	102	1048576	21	4948
2026-01-07 11:49:16.81	149.80	18.41	-29.7	-32.3	19.2	6.05e-01	0	43	102	1048576	21	4849
2026-01-07 11:49:17.82	149.76	18.55	-29.7	-32.4	19.2	6.07e-01	0	43	102	1048576	21	4864
2026-01-07 11:49:18.82	149.73	18.69	-29.8	-32.4	19.1	6.06e-01	0	43	102	1048576	21	4889
2026-01-07 11:49:19.83	149.69	18.83	-29.7	-32.4	19.2	6.09e-01	0	43	102	1048576	21	4865
2026-01-07 11:49:20.84	149.65	18.97	-29.9	-32.7	19.0	6.05e-01	0	43	102	1048576	21	4987
2026-01-07 11:49:21.85	149.62	19.11	-29.8	-32.5	19.1	6.06e-01	0	43	102	1048576	21	4899
2026-01-07 11:49:22.86	149.58	19.25	-29.8	-32.4	19.2	6.06e-01	0	43	102	1048576	21	4863
2026-01-07 11:49:23.87	149.54	19.39	-29.8	-32.5	19.1	6.05e-01	0	43	102	1048576	21	4912
2026-01-07 11:49:24.88	149.51	19.54	-29.8	-32.4	19.2	6.07e-01	0	43	102	1048576	21	4872
2026-01-07 11:49:25.88	149.47	19.68	-29.7	-32.3	19.3	6.05e-01	0	43	102	1048576	21	4821
2026-01-07 11:49:26.88	149.43	19.83	-29.8	-32.3	19.3	6.07e-01	0	43	102	1048576	21	4845
2026-01-07 11:49:27.89	149.39	19.97	-29.8	-32.4	19.2	6.06e-01	0	43	102	1048576	21	4869
2026-01-07 11:49:28.89	149.35	20.12	-29.8	-32.4	19.3	6.04e-01	0	43	102	1048576	21	4880
2026-01-07 11:49:29.90	149.31	20.27	-29.8	-32.4	19.3	6.08e-01	0	43	102	1048576	21	4862
2026-01-07 11:49:30.90	149.27	20.42	-29.9	-32.7	19.1	6.07e-01	0	43	102	1048576	21	4975
2026-01-07 11:49:31.91	149.23	20.57	-29.8	-32.4	19.2	6.06e-01	0	43	102	1048576	21	4874
2026-01-07 11:49:32.92	149.19	20.72	-29.8	-32.3	19.4	6.07e-01	0	43	102	1048576	21	4837
2026-01-07 11:49:33.92	149.15	20.87	-29.8	-32.5	19.3	6.07e-01	0	43	102	1048576	21	4889
2026-01-07 11:49:34.93	149.11	21.02	-29.7	-32.2	19.4	6.07e-01	0	43	102	1048576	21	4793
2026-01-07 11:49:35.93	149.06	21.18	-29.7	-32.2	19.4	6.08e-01	0	43	102	1048576	21	4798
2026-01-07 11:49:36.93	149.02	21.33	-29.8	-32.4	19.3	6.06e-01	0	43	102	1048576	21	4864
2026-01-07 11:49:37.94	148.98	21.49	-29.8	-32.5	19.3	6.04e-01	0	43	102	1048576	21	4892
2026-01-07 11:49:38.95	148.93	21.65	-29.8	-32.5	19.3	6.06e-01	0	43	102	1048576	21	4907
2026-01-07 11:49:39.96	148.89	21.80	-29.8	-32.5	19.3	6.06e-01	0	43	102	1048576	21	4885
2026-01-07 11:49:40.97	148.84	21.96	-29.9	-32.7	19.2	6.05e-01	0	43	102	1048576	21	4957
2026-01-07 11:49:41.98	148.80	22.13	-30.1	-33.1	19.0	6.06e-01	0	43	102	1048576	21	5103
2026-01-07 11:49:42.98	148.75	22.29	-30.0	-32.9	19.1	6.06e-01	0	43	102	1048576	21	5017
2026-01-07 11:49:43.99	148.70	22.45	-30.2	-33.4	18.8	6.05e-01	0	43	102	1048576	21	5209
2026-01-07 11:49:45.00	148.66	22.61	-30.0	-32.9	19.1	6.07e-01	0	43	102	1048576	21	5044
2026-01-07 11:49:46.00	148.61	22.78	-29.9	-32.6	19.3	6.06e-01	0	43	102	1048576	21	4925
2026-01-07 11:49:47.01	148.56	22.94	-29.8	-32.5	19.3	6.05e-01	0	43	102	1048576	21	4906
2026-01-07 11:49:48.02	148.51	23.11	-29.9	-32.8	19.2	6.06e-01	0	43	102	1048576	21	4980
2026-01-07 11:49:49.02	148.46	23.28	-29.9	-32.8	19.2	6.07e-01	0	43	102	1048576	21	4982
2026-01-07 11:49:50.02	148.41	23.45	-30.0	-33.0	19.1	6.09e-01	0	43	102	1048576	21	5062
2026-01-07 11:49:51.03	148.36	23.62	-30.2	-33.5	18.8	6.09e-01	0	43	102	1048576	21	5240
2026-01-07 11:49:52.04	148.31	23.79	-30.1	-33.2	19.0	6.08e-01	0	43	102	1048576	21	5117
2026-01-07 11:49:53.05	148.26	23.96	-30.0	-32.9	19.1	6.04e-01	0	43	102	1048576	21	5032
2026-01-07 11:49:54.05	148.21	24.14	-30.0	-32.8	19.2	6.07e-01	0	43	102	1048576	21	4984
2026-01-07 11:49:55.06	148.15	24.31	-30.1	-32.9	19.2	6.07e-01	0	43	102	1048576	21	5018
2026-01-07 11:49:56.06	148.10	24.49	-29.9	-32.6	19.4	6.07e-01	0	43	102	1048576	21	4896
2026-01-07 11:49:57.07	148.05	24.67	-30.0	-32.9	19.2	6.06e-01	0	43	102	1048576	21	4992
2026-01-07 11:49:58.08	147.99	24.85	-29.9	-32.6	19.4	6.07e-01	0	43	102	1048576	21	4899
2026-01-07 11:49:59.09	147.93	25.03	-29.9	-32.6	19.4	6.08e-01	0	43	102	1048576	21	4888
2026-01-07 11:50:00.09	147.88	25.21	-29.9	-32.6	19.4	6.07e-01	0	43	102	1048576	21	4893
2026-01-07 11:50:01.10	147.82	25.39	-30.0	-32.8	19.3	6.05e-01	0	43	102	1048576	21	4974
2026-01-07 11:50:02.10	147.76	25.58	-29.9	-32.4	19.5	6.05e-01	0	43	102	1048576	21	4846
2026-01-07 11:50:03.10	147.70	25.76	-29.8	-32.4	19.6	6.05e-01	0	43	102	1048576	21	4824
2026-01-07 11:50:04.10	147.64	25.95	-29.9	-32.6	19.4	6.05e-01	0	43	102	1048576	21	4890
2026-01-07 11:50:05.11	147.58	26.14	-30.0	-32.8	19.3	6.08e-01	0	43	102	1048576	21	4977
2026-01-07 11:50:06.12	147.52	26.33	-29.9	-32.6	19.5	6.04e-01	0	43	102	1048576	21	4884
2026-01-07 11:50:07.12	147.46	26.52	-29.9	-32.4	19.6	6.07e-01	0	43	102	1048576	21	4825
2026-01-07 11:50:08.14	147.40	26.71	-29.8	-32.3	19.6	6.07e-01	0	43	102	1048576	21	4803
2026-01-07 11:50:09.14	147.33	26.91	-29.9	-32.5	19.6	6.07e-01	0	43	102	1048576	21	4842
2026-01-07 11:50:10.15	147.27	27.10	-29.8	-32.2	19.7	6.08e-01	0	43	102	1048576	21	4749
2026-01-07 11:50:11.15	147.21	27.30	-29.7	-32.1	19.8	6.08e-01	0	43	102	1048576	21	4712
2026-01-07 11:50:12.16	147.14	27.50	-29.7	-31.9	19.9	6.07e-01	0	43	102	1048576	21	4653
2026-01-07 11:50:13.17	147.07	27.70	-29.6	-31.7	20.0	6.07e-01	0	43	102	1048576	21	4580
2026-01-07 11:50:14.18	147.00	27.90	-29.5	-31.6	20.1	6.05e-01	0	43	102	1048576	21	4554
2026-01-07 11:50:15.18	146.94	28.10	-29.7	-32.0	19.9	6.07e-01	0	43	102	1048576	21	4685
2026-01-07 11:50:16.19	146.86	28.31	-29.7	-31.9	20.0	6.07e-01	0	43	102	1048576	21	4642
2026-01-07 11:50:17.19	146.79	28.51	-29.7	-32.0	19.9	6.06e-01	0	43	102	1048576	21	4677
2026-01-07 11:50:18.20	146.72	28.72	-29.7	-31.9	19.9	6.08e-01	0	43	102	1048576	21	4665
2026-01-07 11:50:19.21	146.65	28.93	-29.6	-31.7	20.0	6.04e-01	0	43	102	1048576	21	4591
2026-01-07 11:50:20.22	146.58	29.15	-29.6	-31.7	20.1	6.06e-01	0	43	102	1048576	21	4578
2026-01-07 11:50:21.23	146.50	29.36	-29.6	-31.6	20.1	6.06e-01	0	43	102	1048576	21	4550
2026-01-07 11:50:22.23	146.42	29.57	-29.4	-31.6	20.4	6.07e-01	0	43	102	1048576	20	4657
2026-01-07 11:50:23.24	146.35	29.79	-29.3	-31.4	20.5	6.08e-01	0	43	102	1048576	20	4604
2026-01-07 11:50:24.25	146.27	30.01	-29.3	-31.4	20.5	6.06e-01	0	43	102	1048576	20	4599
2026-01-07 11:50:25.25	146.19	30.23	-29.3	-31.4	20.6	6.06e-01	0	43	102	1048576	20	4603
2026-01-07 11:50:26.26	146.11	30.45	-29.4	-31.7	20.4	6.08e-01	0	43	102	1048576	20	4708
2026-01-07 11:50:27.27	146.03	30.67	-29.4	-31.8	20.3	6.08e-01	0	43	102	1048576	20	4722
2026-01-07 11:50:28.28	145.94	30.90	-29.5	-31.9	20.3	6.08e-01	0	43	102	1048576	20	4755
2026-01-07 11:50:29.29	145.86	31.13	-29.6	-32.2	20.1	6.05e-01	0	43	102	1048576	20	4847
2026-01-07 11:50:30.29	145.77	31.36	-29.6	-32.1	20.2	6.05e-01	0	43	102	1048576	20	4818
2026-01-07 11:50:31.29	145.69	31.59	-29.6	-32.2	20.1	6.07e-01	0	43	102	1048576	20	4858
2026-01-07 11:50:32.30	145.60	31.82	-29.5	-31.9	20.3	6.07e-01	0	43	102	1048576	20	4767
2026-01-07 11:50:33.31	145.51	32.05	-29.5	-31.9	20.3	6.04e-01	0	43	102	1048576	20	4764
2026-01-07 11:50:34.32	145.42	32.29	-29.6	-32.1	20.2	6.06e-01	0	43	102	1048576	20	4809
2026-01-07 11:50:35.32	145.33	32.53	-29.7	-32.3	20.1	6.07e-01	0	43	102	1048576	20	4890
2026-01-07 11:50:36.32	145.23	32.77	-29.6	-32.1	20.2	6.07e-01	0	43	102	1048576	20	4832
2026-01-07 11:50:37.33	145.14	33.01	-29.6	-32.2	20.1	6.08e-01	0	43	102	1048576	20	4850
2026-01-07 11:50:38.34	145.04	33.26	-29.6	-32.2	20.1	6.07e-01	0	43	102	1048576	20	4852
2026-01-07 11:50:39.35	144.94	33.50	-29.7	-32.5	19.9	6.05e-01	0	43	102	1048576	20	4964
2026-01-07 11:50:40.35	144.84	33.75	-29.8	-32.7	19.9	6.07e-01	0	43	102	1048576	20	5007
2026-01-07 11:50:41.36	144.74	34.00	-29.8	-32.6	19.9	6.04e-01	0	43	102	1048576	20	4978
2026-01-07 11:50:42.36	144.64	34.25	-29.9	-32.9	19.7	6.07e-01	0	43	102	1048576	20	5097
2026-01-07 11:50:43.37	144.53	34.51	-30.0	-33.2	19.6	6.07e-01	0	43	102	1048576	20	5211
2026-01-07 11:50:44.37	144.43	34.76	-30.1	-32.9	19.5	6.09e-01	0	43	102	1048576	21	4981
2026-01-07 11:50:45.37	144.32	35.02	-30.0	-32.7	19.6	6.08e-01	0	43	102	1048576	21	4913
2026-01-07 11:50:46.38	144.21	35.28	-30.1	-32.9	19.5	6.06e-01	0	43	102	1048576	21	4990
2026-01-07 11:50:47.38	144.10	35.54	-30.2	-33.2	19.2	6.06e-01	0	43	102	1048576	21	5099
2026-01-07 11:50:48.39	143.98	35.81	-30.4	-33.7	19.0	6.07e-01	0	43	102	1048576	21	5280
2026-01-07 11:50:49.40	143.87	36.08	-30.6	-33.8	18.6	6.06e-01	0	43	102	1048576	22	5195
2026-01-07 11:50:50.41	143.75	36.35	-30.7	-33.9	18.6	6.08e-01	0	43	102	1048576	22	5231
2026-01-07 11:50:51.41	143.63	36.62	-30.7	-33.9	18.6	6.06e-01	0	43	102	1048576	22	5244
2026-01-07 11:50:52.42	143.51	36.89	-30.8	-34.4	18.3	6.04e-01	0	43	102	1048576	22	5418
2026-01-07 11:50:53.43	143.38	37.17	-30.9	-34.7	18.1	6.07e-01	0	43	102	1048576	22	5532
2026-01-07 11:50:54.44	143.25	37.45	-30.9	-34.6	18.1	6.05e-01	0	43	102	1048576	22	5516
2026-01-07 11:50:55.44	143.13	37.73	-31.2	-34.8	17.7	6.07e-01	0	43	102	1048576	23	5473
2026-01-07 11:50:56.45	142.99	38.01	-31.4	-35.4	17.3	6.08e-01	0	43	102	1048576	23	5727
2026-01-07 11:50:57.45	142.86	38.30	-31.4	-35.4	17.3	6.06e-01	0	43	102	1048576	23	5729
2026-01-07 11:50:58.46	142.72	38.59	-31.3	-35.1	17.5	6.06e-01	0	43	102	1048576	23	5589
2026-01-07 11:50:59.47	142.58	38.88	-31.2	-34.8	17.7	6.04e-01	0	43	102	1048576	23	5482
2026-01-07 11:51:00.48	142.44	39.17	-31.3	-35.3	17.4	6.08e-01	0	43	102	1048576	23	5672
2026-01-07 11:51:01.48	142.30	39.47	-31.6	-35.7	16.8	6.06e-01	0	43	102	1048576	24	5749
2026-01-07 11:51:02.49	142.15	39.77	-31.7	-36.1	16.5	6.06e-01	0	43	102	1048576	24	5934
2026-01-07 11:51:03.50	142.00	40.07	-31.6	-35.6	16.8	6.08e-01	0	43	102	1048576	24	5709
2026-01-07 11:51:04.50	141.85	40.37	-31.2	-34.3	17.7	6.06e-01	0	43	102	1048576	24	5158
2026-01-07 11:51:05.50	141.70	40.67	-31.1	-34.1	17.9	6.07e-01	0	43	102	1048576	24	5081
2026-01-07 11:51:06.51	141.54	40.98	-31.2	-34.5	17.7	6.06e-01	0	43	102	1048576	24	5242
2026-01-07 11:51:07.51	141.38	41.29	-31.1	-34.0	18.0	6.04e-01	0	43	102	1048576	24	5036
2026-01-07 11:51:08.52	141.21	41.60	-30.8	-33.8	18.4	6.08e-01	0	43	102	1048576	23	5075
2026-01-07 11:51:09.52	141.04	41.92	-30.9	-34.0	18.3	6.09e-01	0	43	102	1048576	23	5144
2026-01-07 11:51:10.53	140.87	42.24	-31.1	-34.6	17.9	6.05e-01	0	43	102	1048576	23	5412
2026-01-07 11:51:11.53	140.70	42.56	-31.0	-34.3	18.0	6.07e-01	0	43	102	1048576	23	5287
2026-01-07 11:51:12.55	140.51	42.88	-30.5	-32.9	19.0	6.07e-01	0	43	102	1048576	23	4752
2026-01-07 11:51:13.56	140.33	43.21	-30.3	-33.0	19.2	6.06e-01	0	43	102	1048576	22	4907
2026-01-07 11:51:14.55	140.15	43.53	-30.5	-33.4	19.0	6.06e-01	0	43	102	1048576	22	5038
2026-01-07 11:51:15.56	139.96	43.87	-30.4	-33.2	19.1	6.05e-01	0	43	102	1048576	22	4970
2026-01-07 11:51:16.56	139.76	44.20	-30.3	-33.0	19.2	6.07e-01	0	43	102	1048576	22	4889
2026-01-07 11:51:17.57	139.56	44.54	-30.3	-32.9	19.3	6.06e-01	0	43	102	1048576	22	4871
2026-01-07 11:51:18.57	139.36	44.87	-30.3	-33.0	19.3	6.06e-01	0	43	102	1048576	22	4895
2026-01-07 11:51:19.58	139.15	45.22	-30.5	-33.4	19.0	6.07e-01	0	43	102	1048576	22	5038
2026-01-07 11:51:20.59	138.94	45.56	-30.8	-34.4	18.4	6.06e-01	0	43	102	1048576	22	5393
2026-01-07 11:51:21.60	138.72	45.91	-30.6	-33.7	18.8	6.09e-01	0	43	102	1048576	22	5146
2026-01-07 11:51:22.61	138.49	46.26	-30.5	-33.3	19.1	6.07e-01	0	43	102	1048576	22	4990
2026-01-07 11:51:23.62	138.27	46.62	-30.5	-33.3	19.1	6.06e-01	0	43	102	1048576	22	4997
2026-01-07 11:51:24.62	138.03	46.97	-30.4	-33.1	19.2	6.08e-01	0	43	102	1048576	22	4941
2026-01-07 11:51:25.63	137.80	47.33	-30.8	-34.1	18.6	6.07e-01	0	43	102	1048576	22	5288
2026-01-07 11:51:26.63	137.55	47.69	-31.0	-34.7	18.2	6.06e-01	0	43	102	1048576	22	5542
2026-01-07 11:51:27.64	137.30	48.05	-30.9	-34.6	18.3	6.05e-01	0	43	102	1048576	22	5481
2026-01-07 11:51:28.65	137.04	48.42	-30.6	-33.7	18.8	6.07e-01	0	43	102	1048576	22	5134
2026-01-07 11:51:29.66	136.78	48.79	-30.4	-33.1	19.2	6.06e-01	0	43	102	1048576	22	4920
2026-01-07 11:51:30.67	136.51	49.16	-30.7	-33.8	18.8	6.05e-01	0	43	102	1048576	22	5188
2026-01-07 11:51:31.67	136.24	49.53	-30.8	-34.2	18.5	6.06e-01	0	43	102	1048576	22	5333
2026-01-07 11:51:32.68	135.95	49.91	-30.3	-32.9	19.3	6.05e-01	0	43	102	1048576	22	4855
2026-01-07 11:51:33.69	135.66	50.28	-30.3	-32.9	19.4	6.04e-01	0	43	102	1048576	22	4863
2026-01-07 11:51:34.70	135.36	50.67	-30.5	-33.4	19.1	6.06e-01	0	43	102	1048576	22	5038
2026-01-07 11:51:35.71	135.06	51.05	-30.3	-32.8	19.4	6.07e-01	0	43	102	1048576	22	4814
2026-01-07 11:51:36.72	134.74	51.44	-30.0	-32.0	19.9	6.08e-01	0	43	102	1048576	22	4555
2026-01-07 11:51:37.73	134.42	51.83	-29.6	-31.5	20.5	6.06e-01	0	43	102	1048576	21	4501
2026-01-07 11:51:38.74	134.09	52.22	-29.9	-32.3	20.0	6.07e-01	0	43	102	1048576	21	4761
2026-01-07 11:51:39.74	133.75	52.61	-29.8	-32.2	20.0	6.06e-01	0	43	102	1048576	21	4750
2026-01-07 11:51:40.75	133.40	53.00	-29.5	-31.3	20.6	6.05e-01	0	43	102	1048576	21	4451
2026-01-07 11:51:41.76	133.04	53.40	-29.6	-31.7	20.4	6.08e-01	0	43	102	1048576	21	4578
2026-01-07 11:51:42.77	132.67	53.80	-29.6	-31.5	20.5	6.05e-01	0	43	102	1048576	21	4514
2026-01-07 11:51:43.77	132.29	54.20	-29.6	-31.7	20.4	6.06e-01	0	43	102	1048576	21	4559
2026-01-07 11:51:44.78	131.90	54.61	-29.8	-32.0	20.2	6.08e-01	0	43	102	1048576	21	4658
2026-01-07 11:51:45.79	131.49	55.01	-29.6	-31.5	20.5	6.08e-01	0	43	102	1048576	21	4506
2026-01-07 11:51:46.79	131.08	55.42	-29.9	-32.4	20.0	6.07e-01	0	43	102	1048576	21	4790
2026-01-07 11:51:47.80	130.66	55.83	-29.9	-32.4	20.0	6.07e-01	0	43	102	1048576	21	4778
2026-01-07 11:51:48.81	130.22	56.24	-30.1	-32.9	19.8	6.07e-01	0	43	102	1048576	21	4951
2026-01-07 11:51:49.82	129.76	56.65	-30.3	-33.3	19.6	6.06e-01	0	43	102	1048576	21	5077
2026-01-07 11:51:50.82	129.30	57.06	-30.3	-33.4	19.4	6.05e-01	0	43	102	1048576	21	5133
2026-01-07 11:51:51.82	128.82	57.47	-30.3	-33.4	19.4	6.05e-01	0	43	102	1048576	21	5139
2026-01-07 11:51:52.82	128.33	57.88	-30.9	-34.3	18.7	6.05e-01	0	43	102	1048576	22	5348
2026-01-07 11:51:53.83	127.82	58.30	-30.4	-33.0	19.3	6.07e-01	0	43	102	1048576	22	4881
2026-01-07 11:51:54.84	127.29	58.72	-30.4	-33.1	19.4	6.06e-01	0	43	102	1048576	22	4915
2026-01-07 11:51:55.85	126.74	59.14	-30.8	-34.2	18.7	6.07e-01	0	43	102	1048576	22	5302
2026-01-07 11:51:56.85	126.18	59.55	-30.7	-33.9	18.9	6.07e-01	0	43	102	1048576	22	5191
2026-01-07 11:51:57.86	125.60	59.97	-30.7	-33.7	19.0	6.07e-01	0	43	102	1048576	22	5124
2026-01-07 11:51:58.87	125.00	60.39	-31.3	-34.9	18.0	6.06e-01	0	43	102	1048576	23	5447
2026-01-07 11:51:59.88	124.37	60.81	-30.9	-33.9	18.6	6.07e-01	0	43	102	1048576	23	5097
2026-01-07 11:52:00.88	123.73	61.23	-30.9	-33.8	18.6	6.06e-01	0	43	102	1048576	23	5053
2026-01-07 11:52:01.89	123.07	61.64	-31.1	-34.4	18.3	6.06e-01	0	43	102	1048576	23	5268
2026-01-07 11:52:02.90	122.38	62.06	-31.2	-34.8	18.0	6.06e-01	0	43	102	1048576	23	5410
2026-01-07 11:52:03.90	121.67	62.48	-31.1	-34.5	18.2	6.06e-01	0	43	102	1048576	23	5319
2026-01-07 11:52:04.91	120.93	62.89	-31.0	-34.1	18.5	6.05e-01	0	43	102	1048576	23	5159
2026-01-07 11:52:05.92	120.17	63.31	-31.5	-35.6	17.5	6.05e-01	0	43	102	1048576	23	5779
2026-01-07 11:52:06.92	119.39	63.71	-31.2	-34.8	18.1	6.07e-01	0	43	102	1048576	23	5419
2026-01-07 11:52:07.92	118.57	64.12	-31.3	-35.1	17.9	6.07e-01	0	43	102	1048576	23	5546
2026-01-07 11:52:08.93	117.72	64.53	-31.7	-35.8	17.2	6.07e-01	0	43	102	1048576	24	5737
2026-01-07 11:52:09.94	116.84	64.93	-31.5	-35.1	17.5	6.08e-01	0	43	102	1048576	24	5429
2026-01-07 11:52:10.94	115.94	65.33	-31.6	-35.4	17.4	6.07e-01	0	43	102	1048576	24	5568
2026-01-07 11:52:11.95	114.99	65.73	-32.4	-37.2	15.8	6.07e-01	0	43	102	1048576	25	6318
2026-01-07 11:52:12.95	114.02	66.12	-31.9	-35.7	16.8	6.09e-01	0	43	102	1048576	25	5566
2026-01-07 11:52:13.96	113.00	66.50	-32.0	-36.1	16.6	6.07e-01	0	43	102	1048576	25	5753
2026-01-07 11:52:14.97	111.95	66.89	-32.5	-37.6	15.6	6.07e-01	0	43	102	1048576	25	6522
2026-01-07 11:52:15.98	110.86	67.27	-32.1	-36.4	16.4	6.06e-01	0	43	102	1048576	25	5894
2026-01-07 11:52:16.98	109.73	67.63	-32.5	-37.8	15.3	6.06e-01	0	43	102	1048576	25	6627
2026-01-07 11:52:17.99	108.56	68.00	-32.4	-37.2	15.9	6.06e-01	0	43	102	1048576	25	6260
2026-01-07 11:52:19.00	107.34	68.36	-32.2	-36.7	16.1	6.06e-01	0	43	102	1048576	25	6027
2026-01-07 11:52:20.01	106.08	68.71	-32.2	-36.8	16.2	6.06e-01	0	43	102	1048576	25	6077
2026-01-07 11:52:21.01	104.78	69.05	-32.4	-37.4	15.6	6.07e-01	0	43	102	1048576	25	6376
2026-01-07 11:52:22.02	103.43	69.38	-32.0	-36.1	16.6	6.04e-01	0	43	102	1048576	25	5763
2026-01-07 11:52:23.02	102.05	69.70	-32.4	-37.2	15.8	6.05e-01	0	43	102	1048576	25	6275
2026-01-07 11:52:24.03	100.60	70.01	-32.0	-35.9	16.7	6.07e-01	0	43	102	1048576	25	5675
2026-01-07 11:52:25.03	99.12	70.31	-32.5	-37.5	15.6	6.04e-01	0	43	102	1048576	25	6445
2026-01-07 11:52:26.03	97.59	70.59	-31.9	-35.7	16.9	6.06e-01	0	43	102	1048576	25	5566
2026-01-07 11:52:27.04	96.00	70.87	-32.5	-37.8	15.5	6.09e-01	0	43	102	1048576	25	6564
2026-01-07 11:52:28.04	94.37	71.13	-32.2	-36.6	16.3	6.04e-01	0	43	102	1048576	25	5962
2026-01-07 11:52:29.05	92.68	71.37	-32.3	-37.1	16.0	6.06e-01	0	43	102	1048576	25	6197
2026-01-07 11:52:30.06	90.95	71.61	-32.2	-36.5	16.4	6.07e-01	0	43	102	1048576	25	5925
2026-01-07 11:52:31.07	89.17	71.82	-32.4	-37.3	15.8	6.07e-01	0	43	102	1048576	25	6314
2026-01-07 11:52:32.07	87.36	72.02	-32.1	-36.4	16.4	6.06e-01	0	43	102	1048576	25	5881
2026-01-07 11:52:33.08	85.50	72.20	-32.6	-38.0	15.4	6.08e-01	0	43	102	1048576	25	6711
2026-01-07 11:52:34.09	83.59	72.37	-32.2	-36.1	16.2	6.08e-01	0	43	102	1048576	26	5659
2026-01-07 11:52:35.10	81.65	72.52	-32.3	-36.4	16.2	6.06e-01	0	43	102	1048576	26	5777
2026-01-07 11:52:36.11	79.68	72.64	-32.8	-38.1	14.9	6.05e-01	0	43	102	1048576	26	6648
2026-01-07 11:52:37.12	77.68	72.75	-32.2	-36.2	16.2	6.07e-01	0	43	102	1048576	26	5670
2026-01-07 11:52:38.13	75.65	72.84	-32.3	-36.5	16.0	6.07e-01	0	43	102	1048576	26	5808
2026-01-07 11:52:39.13	73.63	72.90	-32.4	-36.7	15.9	6.06e-01	0	43	102	1048576	26	5931
2026-01-07 11:52:40.14	71.57	72.95	-32.4	-36.8	15.8	6.07e-01	0	43	102	1048576	26	5958
2026-01-07 11:52:41.14	69.52	72.97	-32.5	-37.1	15.6	6.05e-01	0	43	102	1048576	26	6088
2026-01-07 11:52:42.15	67.45	72.98	-32.6	-37.3	15.4	6.07e-01	0	43	102	1048576	26	6219
2026-01-07 11:52:43.16	65.39	72.96	-32.9	-38.5	14.6	6.07e-01	0	43	102	1048576	26	6868
2026-01-07 11:52:44.16	63.34	72.92	-32.8	-38.0	15.0	6.07e-01	0	43	102	1048576	26	6579
2026-01-07 11:52:45.17	61.29	72.86	-33.0	-39.0	14.2	6.09e-01	0	43	102	1048576	26	7191
2026-01-07 11:52:46.17	59.28	72.78	-32.9	-38.5	14.5	6.06e-01	0	43	102	1048576	26	6877
2026-01-07 11:52:47.18	57.27	72.68	-32.3	-36.4	16.0	6.07e-01	0	43	102	1048576	26	5787
2026-01-07 11:52:48.19	55.29	72.56	-32.3	-36.3	16.2	6.07e-01	0	43	102	1048576	26	5712
2026-01-07 11:52:49.20	53.34	72.43	-32.3	-36.4	16.1	6.05e-01	0	43	102	1048576	26	5755
2026-01-07 11:52:50.20	51.44	72.27	-32.0	-35.3	16.8	6.06e-01	0	43	102	1048576	26	5297
2026-01-07 11:52:51.20	49.58	72.09	-32.4	-36.7	15.9	6.07e-01	0	43	102	1048576	26	5941
2026-01-07 11:52:52.20	47.76	71.90	-32.4	-36.7	15.8	6.07e-01	0	43	102	1048576	26	5941
2026-01-07 11:52:53.21	45.96	71.69	-32.1	-35.7	16.6	6.07e-01	0	43	102	1048576	26	5453
2026-01-07 11:52:54.21	44.23	71.47	-32.7	-37.7	15.2	6.07e-01	0	43	102	1048576	26	6424
2026-01-07 11:52:55.22	42.52	71.23	-32.5	-37.2	15.5	6.07e-01	0	43	102	1048576	26	6176
2026-01-07 11:52:56.23	40.86	70.97	-32.4	-36.6	15.9	6.05e-01	0	43	102	1048576	26	5893
2026-01-07 11:52:57.24	39.25	70.70	-32.8	-38.1	14.8	6.05e-01	0	43	102	1048576	26	6666
2026-01-07 11:52:58.24	37.71	70.42	-32.7	-37.9	15.0	6.07e-01	0	43	102	1048576	26	6521
2026-01-07 11:52:59.25	36.19	70.13	-32.4	-36.8	15.7	6.06e-01	0	43	102	1048576	26	5986
2026-01-07 11:53:00.25	34.74	69.82	-32.4	-36.7	15.9	6.06e-01	0	43	102	1048576	26	5925
2026-01-07 11:53:01.26	33.33	69.50	-32.8	-38.1	14.7	6.06e-01	0	43	102	1048576	26	6679
2026-01-07 11:53:02.27	31.96	69.18	-32.4	-36.8	15.7	6.07e-01	0	43	102	1048576	26	5997
2026-01-07 11:53:03.28	30.63	68.84	-32.9	-38.8	14.3	6.08e-01	0	43	102	1048576	26	7065
2026-01-07 11:53:04.28	29.37	68.50	-32.5	-37.0	15.6	6.07e-01	0	43	102	1048576	26	6078
2026-01-07 11:53:05.29	28.14	68.14	-32.9	-38.8	14.3	6.04e-01	0	43	102	1048576	26	7082
2026-01-07 11:53:06.30	26.95	67.78	-33.1	-39.0	13.6	6.10e-01	0	43	102	1048576	27	7096
2026-01-07 11:53:07.31	25.80	67.41	-32.7	-37.5	14.9	6.09e-01	0	43	102	1048576	27	6213
2026-01-07 11:53:08.31	24.70	67.04	-32.8	-37.7	14.7	6.07e-01	0	43	102	1048576	27	6348
2026-01-07 11:53:09.31	23.64	66.66	-33.1	-38.8	13.9	6.09e-01	0	43	102	1048576	27	6987
2026-01-07 11:53:10.32	22.61	66.28	-33.1	-39.0	13.6	6.10e-01	0	43	102	1048576	27	7133
2026-01-07 11:53:11.33	21.62	65.89	-33.0	-38.5	14.0	6.06e-01	0	43	102	1048576	27	6816
2026-01-07 11:53:12.33	20.67	65.49	-32.9	-38.1	14.3	6.08e-01	0	43	102	1048576	27	6596
2026-01-07 11:53:13.34	19.75	65.10	-33.0	-38.5	14.0	6.07e-01	0	43	102	1048576	27	6821
2026-01-07 11:53:14.34	18.86	64.70	-32.8	-37.9	14.4	6.07e-01	0	43	102	1048576	27	6491
2026-01-07 11:53:15.35	18.00	64.29	-32.5	-36.7	15.4	6.08e-01	0	43	102	1048576	27	5852
2026-01-07 11:53:16.36	17.17	63.88	-32.4	-36.5	15.6	6.08e-01	0	43	102	1048576	27	5761
2026-01-07 11:53:17.36	16.38	63.48	-32.6	-37.1	15.1	6.07e-01	0	43	102	1048576	27	6052
2026-01-07 11:53:18.37	15.60	63.07	-32.5	-36.7	15.4	6.04e-01	0	43	102	1048576	27	5841
2026-01-07 11:53:19.37	14.86	62.66	-32.3	-36.7	15.6	6.07e-01	0	43	102	1048576	26	5954
2026-01-07 11:53:20.38	14.14	62.24	-31.9	-35.5	16.6	6.05e-01	0	43	102	1048576	26	5396
2026-01-07 11:53:21.39	13.45	61.82	-31.8	-35.4	17.0	6.04e-01	0	43	102	1048576	25	5461
2026-01-07 11:53:22.40	12.77	61.41	-31.3	-34.6	17.7	6.06e-01	0	43	102	1048576	24	5259
2026-01-07 11:53:23.41	12.12	60.99	-30.6	-33.1	19.0	6.05e-01	0	43	102	1048576	23	4809
2026-01-07 11:53:24.42	11.49	60.57	-30.9	-34.0	18.5	6.08e-01	0	43	102	1048576	23	5114
2026-01-07 11:53:25.43	10.88	60.15	-31.2	-34.9	17.9	6.05e-01	0	43	102	1048576	23	5488
2026-01-07 11:53:26.43	10.30	59.74	-31.1	-34.4	18.2	6.07e-01	0	43	102	1048576	23	5286
2026-01-07 11:53:27.44	9.73	59.32	-30.9	-33.8	18.6	6.07e-01	0	43	102	1048576	23	5062
2026-01-07 11:53:28.45	9.17	58.90	-30.4	-32.6	19.3	6.05e-01	0	43	102	1048576	23	4618
2026-01-07 11:53:29.45	8.64	58.49	-30.8	-33.7	18.7	6.06e-01	0	43	102	1048576	23	5014
2026-01-07 11:53:30.46	8.13	58.07	-30.6	-33.3	18.9	6.08e-01	0	43	102	1048576	23	4867
2026-01-07 11:53:31.47	7.62	57.65	-30.6	-33.1	19.1	6.07e-01	0	43	102	1048576	23	4797
2026-01-07 11:53:32.48	7.14	57.24	-30.6	-33.2	19.1	6.07e-01	0	43	102	1048576	23	4818
2026-01-07 11:53:33.48	6.67	56.83	-30.7	-33.4	18.8	6.07e-01	0	43	102	1048576	23	4896
2026-01-07 11:53:34.49	6.21	56.42	-30.1	-32.2	19.8	6.05e-01	0	43	102	1048576	22	4622
2026-01-07 11:53:35.50	5.77	56.01	-29.8	-32.1	20.1	6.07e-01	0	43	102	1048576	21	4697
2026-01-07 11:53:36.51	5.33	55.60	-29.5	-31.4	20.6	6.05e-01	0	43	102	1048576	21	4462
2026-01-07 11:53:37.51	4.92	55.20	-29.0	-30.6	21.3	6.07e-01	0	43	102	1048576	20	4325
2026-01-07 11:53:38.51	4.52	54.80	-28.8	-30.5	21.7	6.07e-01	0	43	102	1048576	19	4396
2026-01-07 11:53:39.52	4.12	54.39	-29.2	-31.6	21.1	6.07e-01	0	43	102	1048576	19	4733
2026-01-07 11:53:40.53	3.74	53.99	-29.0	-31.2	21.3	6.04e-01	0	43	102	1048576	19	4613
2026-01-07 11:53:41.54	3.36	53.59	-29.3	-31.9	20.9	6.07e-01	0	43	102	1048576	19	4848
2026-01-07 11:53:42.54	3.00	53.20	-29.2	-31.5	21.1	6.05e-01	0	43	102	1048576	19	4714
2026-01-07 11:53:43.55	2.65	52.80	-28.9	-30.7	21.5	6.07e-01	0	43	102	1048576	19	4472
2026-01-07 11:53:44.56	2.30	52.41	-28.9	-30.8	21.6	6.07e-01	0	43	102	1048576	19	4482
2026-01-07 11:53:45.56	1.97	52.02	-29.2	-31.6	21.1	6.08e-01	0	43	102	1048576	19	4729
2026-01-07 11:53:46.57	1.65	51.63	-29.5	-32.2	20.7	6.09e-01	0	43	102	1048576	19	4947
2026-01-07 11:53:47.58	1.33	51.25	-29.5	-32.3	20.7	6.05e-01	0	43	102	1048576	19	4973
2026-01-07 11:53:48.59	1.02	50.86	-29.4	-32.1	20.8	6.06e-01	0	43	102	1048576	19	4913
2026-01-07 11:53:49.58	0.72	50.49	-29.6	-32.5	20.5	6.04e-01	0	43	102	1048576	19	5045
2026-01-07 11:53:50.58	0.43	50.11	-30.0	-33.1	19.8	6.06e-01	0	43	102	1048576	20	5156
2026-01-07 11:53:51.59	0.15	49.74	-30.0	-32.5	19.9	6.07e-01	0	43	102	1048576	21	4821
2026-01-07 11:53:52.60	359.87	49.36	-29.8	-32.2	20.1	6.05e-01	0	43	102	1048576	21	4724
2026-01-07 11:53:53.61	359.60	48.99	-30.1	-32.8	19.7	6.05e-01	0	43	102	1048576	21	4912
2026-01-07 11:53:54.61	359.33	48.62	-30.1	-32.9	19.6	6.08e-01	0	43	102	1048576	21	4965
2026-01-07 11:53:55.62	359.07	48.26	-29.9	-32.2	20.0	6.05e-01	0	43	102	1048576	21	4722
2026-01-07 11:53:56.63	358.82	47.89	-30.0	-32.6	19.8	6.07e-01	0	43	102	1048576	21	4873
2026-01-07 11:53:57.64	358.57	47.53	-29.9	-32.4	19.9	6.07e-01	0	43	102	1048576	21	4784
2026-01-07 11:53:58.64	358.33	47.18	-29.7	-31.8	20.3	6.05e-01	0	43	102	1048576	21	4591
2026-01-07 11:53:59.65	358.10	46.82	-30.1	-32.8	19.7	6.07e-01	0	43	102	1048576	21	4922
2026-01-07 11:54:00.66	357.87	46.47	-30.4	-33.6	19.2	6.07e-01	0	43	102	1048576	21	5210
2026-01-07 11:54:01.67	357.64	46.12	-30.1	-32.9	19.6	6.06e-01	0	43	102	1048576	21	4968
2026-01-07 11:54:02.67	357.42	45.77	-29.8	-32.1	20.0	6.06e-01	0	43	102	1048576	21	4703
2026-01-07 11:54:03.68	357.21	45.43	-29.7	-31.8	20.2	6.07e-01	0	43	102	1048576	21	4600
2026-01-07 11:54:04.69	357.00	45.08	-29.7	-31.8	20.3	6.09e-01	0	43	102	1048576	21	4577
2026-01-07 11:54:05.69	356.80	44.75	-29.7	-31.8	20.3	6.07e-01	0	43	102	1048576	21	4583
2026-01-07 11:54:06.70	356.59	44.41	-29.7	-31.9	20.2	6.07e-01	0	43	102	1048576	21	4634
2026-01-07 11:54:07.71	356.40	44.07	-30.1	-32.9	19.6	6.07e-01	0	43	102	1048576	21	4961
2026-01-07 11:54:08.72	356.20	43.74	-30.2	-33.2	19.4	6.07e-01	0	43	102	1048576	21	5057
2026-01-07 11:54:09.73	356.02	43.41	-30.3	-33.5	19.2	6.06e-01	0	43	102	1048576	21	5191
2026-01-07 11:54:10.74	355.83	43.08	-30.2	-33.2	19.4	6.07e-01	0	43	102	1048576	21	5061
2026-01-07 11:54:11.74	355.65	42.76	-30.1	-32.9	19.6	6.00e-01	0	43	102	1048576	21	4969
2026-01-07 11:54:12.75	355.48	42.44	-30.1	-33.0	19.5	6.02e-01	0	43	102	1048576	21	4993
2026-01-07 11:54:13.75	355.30	42.12	-30.1	-32.7	19.7	6.01e-01	0	43	102	1048576	21	4907
2026-01-07 11:54:14.76	355.13	41.81	-30.1	-33.0	19.6	5.99e-01	0	43	102	1048576	21	4986
2026-01-07 11:54:15.77	354.97	41.49	-30.1	-32.9	19.6	6.01e-01	0	43	102	1048576	21	4965
2026-01-07 11:54:16.78	354.80	41.18	-30.4	-33.6	19.2	6.00e-01	0	43	102	1048576	21	5227
2026-01-07 11:54:17.78	354.65	40.88	-30.6	-34.2	18.9	6.03e-01	0	43	102	1048576	21	5435
2026-01-07 11:54:18.78	354.49	40.57	-30.9	-34.4	18.4	6.01e-01	0	43	102	1048576	22	5425
2026-01-07 11:54:19.80	354.33	40.27	-30.9	-34.5	18.3	6.00e-01	0	43	102	1048576	22	5432
2026-01-07 11:54:20.80	354.18	39.97	-30.9	-34.6	18.2	6.00e-01	0	43	102	1048576	22	5476
2026-01-07 11:54:21.81	354.04	39.67	-30.9	-34.4	18.3	6.00e-01	0	43	102	1048576	22	5421
2026-01-07 11:54:22.82	353.89	39.37	-30.9	-34.5	18.3	6.01e-01	0	43	102	1048576	22	5447
2026-01-07 11:54:23.82	353.75	39.08	-30.9	-34.5	18.3	6.02e-01	0	43	102	1048576	22	5453
2026-01-07 11:54:24.83	353.61	38.79	-30.9	-34.6	18.2	5.99e-01	0	43	102	1048576	22	5485
2026-01-07 11:54:25.83	353.47	38.50	-31.1	-35.1	17.9	6.00e-01	0	43	102	1048576	22	5689
2026-01-07 11:54:26.84	353.34	38.22	-31.3	-35.0	17.6	6.03e-01	0	43	102	1048576	23	5560
2026-01-07 11:54:27.85	353.21	37.93	-31.1	-34.7	17.8	6.00e-01	0	43	102	1048576	23	5424
2026-01-07 11:54:28.86	353.08	37.65	-30.9	-34.1	18.2	5.99e-01	0	43	102	1048576	23	5196
2026-01-07 11:54:29.86	352.95	37.37	-30.8	-33.6	18.5	6.02e-01	0	43	102	1048576	23	5008
2026-01-07 11:54:30.87	352.83	37.10	-30.8	-33.7	18.5	6.02e-01	0	43	102	1048576	23	5025
2026-01-07 11:54:31.88	352.70	36.82	-30.7	-33.5	18.6	6.02e-01	0	43	102	1048576	23	4947
2026-01-07 11:54:32.88	352.58	36.55	-30.7	-33.4	18.6	6.00e-01	0	43	102	1048576	23	4936
2026-01-07 11:54:33.89	352.46	36.28	-30.7	-33.5	18.5	6.03e-01	0	43	102	1048576	23	4977
2026-01-07 11:54:34.90	352.35	36.01	-30.9	-34.1	18.2	6.02e-01	0	43	102	1048576	23	5189
2026-01-07 11:54:35.90	352.23	35.75	-30.7	-33.4	18.6	6.02e-01	0	43	102	1048576	23	4935
2026-01-07 11:54:36.91	352.12	35.48	-30.4	-32.6	19.1	6.02e-01	0	43	102	1048576	23	4670
2026-01-07 11:54:37.91	352.01	35.22	-30.1	-32.5	19.5	6.03e-01	0	43	102	1048576	22	4707
2026-01-07 11:54:38.92	351.90	34.96	-29.9	-31.9	19.8	6.03e-01	0	43	102	1048576	22	4538
2026-01-07 11:54:39.93	351.79	34.71	-29.8	-32.2	20.0	6.00e-01	0	43	102	1048576	21	4725
2026-01-07 11:54:40.94	351.69	34.45	-29.7	-32.0	20.1	6.00e-01	0	43	102	1048576	21	4653
2026-01-07 11:54:41.94	351.59	34.20	-29.9	-32.3	19.9	6.01e-01	0	43	102	1048576	21	4771
2026-01-07 11:54:42.95	351.48	33.95	-29.8	-32.1	20.0	6.01e-01	0	43	102	1048576	21	4702
2026-01-07 11:54:43.95	351.38	33.70	-29.7	-31.9	20.1	6.00e-01	0	43	102	1048576	21	4641
2026-01-07 11:54:44.95	351.29	33.46	-29.7	-31.8	20.1	5.99e-01	0	43	102	1048576	21	4616
2026-01-07 11:54:45.96	351.19	33.21	-29.7	-31.8	20.1	6.01e-01	0	43	102	1048576	21	4620
2026-01-07 11:54:46.97	351.09	32.97	-29.4	-31.2	20.5	6.02e-01	0	43	102	1048576	21	4423
2026-01-07 11:54:47.98	351.00	32.73	-29.3	-31.4	20.6	6.02e-01	0	43	102	1048576	20	4593
2026-01-07 11:54:48.99	350.91	32.49	-29.2	-31.1	20.8	6.00e-01	0	43	102	1048576	20	4502
2026-01-07 11:54:50.00	350.81	32.25	-29.2	-31.1	20.8	6.02e-01	0	43	102	1048576	20	4488
2026-01-07 11:54:51.00	350.73	32.02	-29.3	-31.4	20.6	6.02e-01	0	43	102	1048576	20	4588
2026-01-07 11:54:52.01	350.64	31.79	-29.3	-31.4	20.7	5.99e-01	0	43	102	1048576	20	4581
2026-01-07 11:54:53.02	350.55	31.55	-29.4	-31.7	20.5	6.04e-01	0	43	102	1048576	20	4682
2026-01-07 11:54:54.02	350.47	31.33	-29.3	-31.5	20.6	6.01e-01	0	43	102	1048576	20	4627
2026-01-07 11:54:55.03	350.38	31.10	-29.4	-31.7	20.5	6.03e-01	0	43	102	1048576	20	4686
2026-01-07 11:54:56.03	350.30	30.88	-29.4	-31.7	20.5	6.02e-01	0	43	102	1048576	20	4674
2026-01-07 11:54:57.04	350.22	30.65	-29.5	-31.8	20.4	5.99e-01	0	43	102	1048576	20	4729
2026-01-07 11:54:58.04	350.14	30.43	-29.7	-32.4	20.1	6.01e-01	0	43	102	1048576	20	4919
2026-01-07 11:54:59.05	350.06	30.21	-29.4	-31.7	20.4	6.01e-01	0	43	102	1048576	20	4687
2026-01-07 11:55:00.06	349.98	29.99	-29.2	-31.3	20.7	5.99e-01	0	43	102	1048576	20	4557
2026-01-07 11:55:01.06	349.90	29.78	-29.2	-31.2	20.8	6.03e-01	0	43	102	1048576	20	4515
2026-01-07 11:55:02.07	349.82	29.56	-29.3	-31.3	20.6	6.01e-01	0	43	102	1048576	20	4572
2026-01-07 11:55:03.08	349.75	29.35	-29.2	-31.2	20.7	6.01e-01	0	43	102	1048576	20	4524
2026-01-07 11:55:04.08	349.68	29.14	-29.4	-31.6	20.5	6.02e-01	0	43	102	1048576	20	4641
2026-01-07 11:55:05.09	349.60	28.93	-29.3	-31.4	20.6	6.00e-01	0	43	102	1048576	20	4582
2026-01-07 11:55:06.10	349.53	28.72	-29.4	-31.7	20.4	6.02e-01	0	43	102	1048576	20	4688
2026-01-07 11:55:07.10	349.46	28.51	-29.3	-31.4	20.6	6.05e-01	0	43	102	1048576	20	4580
2026-01-07 11:55:08.11	349.39	28.31	-29.3	-31.3	20.6	6.02e-01	0	43	102	1048576	20	4560
2026-01-07 11:55:09.12	349.32	28.10	-29.4	-31.6	20.5	6.01e-01	0	43	102	1048576	20	4643
2026-01-07 11:55:10.13	349.25	27.90	-29.3	-31.5	20.6	6.02e-01	0	43	102	1048576	20	4619
2026-01-07 11:55:11.13	349.19	27.70	-29.4	-31.7	20.4	6.03e-01	0	43	102	1048576	20	4697
2026-01-07 11:55:12.14	349.12	27.50	-29.5	-31.9	20.3	6.02e-01	0	43	102	1048576	20	4747
2026-01-07 11:55:13.14	349.06	27.31	-29.6	-32.2	20.2	6.01e-01	0	43	102	1048576	20	4844
2026-01-07 11:55:14.15	348.99	27.11	-29.6	-32.2	20.1	6.01e-01	0	43	102	1048576	20	4861
2026-01-07 11:55:15.16	348.93	26.91	-29.7	-32.4	20.0	6.02e-01	0	43	102	1048576	20	4932
2026-01-07 11:55:16.16	348.87	26.72	-29.7	-32.5	19.9	6.00e-01	0	43	102	1048576	20	4969
2026-01-07 11:55:17.17	348.80	26.53	-29.9	-32.9	19.7	6.02e-01	0	43	102	1048576	20	5100
2026-01-07 11:55:18.17	348.74	26.34	-30.0	-33.1	19.5	6.00e-01	0	43	102	1048576	20	5176
2026-01-07 11:55:19.18	348.68	26.15	-29.9	-33.0	19.6	6.03e-01	0	43	102	1048576	20	5136
2026-01-07 11:55:20.18	348.62	25.97	-29.9	-33.0	19.6	6.04e-01	0	43	102	1048576	20	5145
2026-01-07 11:55:21.18	348.57	25.78	-30.0	-33.2	19.5	6.03e-01	0	43	102	1048576	20	5210
2026-01-07 11:55:22.19	348.51	25.60	-30.1	-33.4	19.4	6.01e-01	0	43	102	1048576	20	5291
2026-01-07 11:55:23.20	348.45	25.41	-30.0	-33.3	19.5	5.99e-01	0	43	102	1048576	20	5239
2026-01-07 11:55:24.20	348.39	25.23	-30.2	-33.3	19.2	6.01e-01	0	43	102	1048576	21	5118
2026-01-07 11:55:25.21	348.34	25.05	-30.4	-33.7	18.8	6.01e-01	0	43	102	1048576	21	5288
2026-01-07 11:55:26.22	348.28	24.87	-30.1	-33.0	19.3	6.00e-01	0	43	102	1048576	21	5036
2026-01-07 11:55:27.23	348.23	24.69	-29.9	-32.6	19.5	6.00e-01	0	43	102	1048576	21	4868
2026-01-07 11:55:28.23	348.18	24.52	-29.9	-32.4	19.6	6.01e-01	0	43	102	1048576	21	4808
2026-01-07 11:55:29.24	348.12	24.34	-30.0	-32.6	19.5	5.98e-01	0	43	102	1048576	21	4878
2026-01-07 11:55:30.25	348.07	24.17	-29.9	-32.5	19.6	6.02e-01	0	43	102	1048576	21	4836
2026-01-07 11:55:31.25	348.02	23.99	-29.9	-32.4	19.6	6.02e-01	0	43	102	1048576	21	4825
2026-01-07 11:55:32.26	347.97	23.82	-29.9	-32.6	19.5	6.02e-01	0	43	102	1048576	21	4872
2026-01-07 11:55:33.27	347.92	23.65	-30.0	-32.6	19.5	6.01e-01	0	43	102	1048576	21	4899
2026-01-07 11:55:34.28	347.87	23.48	-30.0	-32.8	19.3	6.01e-01	0	43	102	1048576	21	4973
2026-01-07 11:55:35.28	347.82	23.31	-30.0	-32.9	19.3	6.03e-01	0	43	102	1048576	21	4978
2026-01-07 11:55:36.29	347.77	23.15	-30.1	-33.1	19.2	6.00e-01	0	43	102	1048576	21	5075
2026-01-07 11:55:37.30	347.72	22.98	-30.2	-33.3	19.1	5.99e-01	0	43	102	1048576	21	5132
2026-01-07 11:55:38.31	347.67	22.81	-30.2	-33.3	19.1	6.01e-01	0	43	102	1048576	21	5126
2026-01-07 11:55:39.32	347.63	22.65	-30.2	-33.3	19.1	6.02e-01	0	43	102	1048576	21	5143
2026-01-07 11:55:40.33	347.58	22.49	-30.2	-33.2	19.1	6.00e-01	0	43	102	1048576	21	5091
2026-01-07 11:55:41.33	347.53	22.33	-30.2	-33.3	19.1	6.01e-01	0	43	102	1048576	21	5125
2026-01-07 11:55:42.34	347.49	22.17	-30.2	-33.3	19.0	6.02e-01	0	43	102	1048576	21	5153
2026-01-07 11:55:43.34	347.45	22.01	-30.2	-33.2	19.1	6.03e-01	0	43	102	1048576	21	5114
2026-01-07 11:55:44.35	347.40	21.85	-30.2	-33.2	19.0	6.01e-01	0	43	102	1048576	21	5120
2026-01-07 11:55:45.36	347.36	21.69	-30.1	-33.0	19.2	6.00e-01	0	43	102	1048576	21	5018
2026-01-07 11:55:46.37	347.31	21.53	-30.0	-32.8	19.4	6.00e-01	0	43	102	1048576	21	4947
2026-01-07 11:55:47.37	347.27	21.38	-30.0	-32.8	19.3	6.00e-01	0	43	102	1048576	21	4955
2026-01-07 11:55:48.38	347.23	21.23	-30.0	-32.7	19.4	6.01e-01	0	43	102	1048576	21	4931
2026-01-07 11:55:49.38	347.19	21.07	-30.0	-32.7	19.4	5.99e-01	0	43	102	1048576	21	4932
2026-01-07 11:55:50.39	347.15	20.92	-29.9	-32.7	19.4	5.99e-01	0	43	102	1048576	21	4915
2026-01-07 11:55:51.40	347.11	20.77	-29.9	-32.5	19.4	5.99e-01	0	43	102	1048576	21	4875
2026-01-07 11:55:52.41	347.06	20.62	-30.0	-32.7	19.3	6.00e-01	0	43	102	1048576	21	4946
2026-01-07 11:55:53.41	347.03	20.47	-30.0	-32.8	19.3	6.00e-01	0	43	102	1048576	21	4955
2026-01-07 11:55:54.42	346.99	20.32	-29.8	-32.3	19.5	6.02e-01	0	43	102	1048576	21	4803
2026-01-07 11:55:55.42	346.95	20.18	-29.8	-32.2	19.6	6.01e-01	0	43	102	1048576	21	4758
2026-01-07 11:55:56.43	346.91	20.03	-29.7	-32.1	19.7	6.02e-01	0	43	102	1048576	21	4732
2026-01-07 11:55:57.43	346.87	19.88	-29.8	-32.2	19.6	6.01e-01	0	43	102	1048576	21	4755
2026-01-07 11:55:58.43	346.83	19.74	-29.8	-32.3	19.6	6.01e-01	0	43	102	1048576	21	4791
2026-01-07 11:55:59.44	346.80	19.60	-29.8	-32.2	19.6	6.02e-01	0	43	102	1048576	21	4760
2026-01-07 11:56:00.45	346.76	19.45	-29.8	-32.3	19.5	6.01e-01	0	43	102	1048576	21	4805
2026-01-07 11:56:01.46	346.72	19.31	-29.8	-32.3	19.5	6.00e-01	0	43	102	1048576	21	4812
2026-01-07 11:56:02.47	346.69	19.17	-29.8	-32.3	19.5	6.00e-01	0	43	102	1048576	21	4803
2026-01-07 11:56:03.48	346.65	19.03	-29.8	-32.4	19.4	6.02e-01	0	43	102	1048576	21	4828
2026-01-07 11:56:04.48	346.61	18.89	-29.9	-32.5	19.4	6.00e-01	0	43	102	1048576	21	4873
2026-01-07 11:56:05.49	346.58	18.75	-29.9	-32.5	19.4	6.00e-01	0	43	102	1048576	21	4865
2026-01-07 11:56:06.50	346.54	18.61	-29.9	-32.5	19.3	6.00e-01	0	43	102	1048576	21	4889
2026-01-07 11:56:07.50	346.51	18.48	-29.9	-32.6	19.3	6.00e-01	0	43	102	1048576	21	4899
2026-01-07 11:56:08.51	346.48	18.34	-29.9	-32.5	19.3	6.00e-01	0	43	102	1048576	21	4880
2026-01-07 11:56:09.52	346.44	18.21	-29.9	-32.5	19.3	6.00e-01	0	43	102	1048576	21	4868
2026-01-07 11:56:10.53	346.41	18.07	-29.8	-32.4	19.4	6.01e-01	0	43	102	1048576	21	4844
2026-01-07 11:56:11.53	346.38	17.94	-29.8	-32.4	19.4	6.00e-01	0	43	102	1048576	21	4840
2026-01-07 11:56:12.54	346.34	17.81	-29.9	-32.6	19.3	6.01e-01	0	43	102	1048576	21	4919
2026-01-07 11:56:13.54	346.31	17.68	-29.9	-32.7	19.2	6.00e-01	0	43	102	1048576	21	4946
2026-01-07 11:56:14.55	346.28	17.54	-29.8	-32.4	19.4	5.99e-01	0	43	102	1048576	21	4848
2026-01-07 11:56:15.56	346.25	17.41	-29.8	-32.3	19.4	6.04e-01	0	43	102	1048576	21	4811
2026-01-07 11:56:16.56	346.22	17.28	-29.8	-32.3	19.4	5.99e-01	0	43	102	1048576	21	4800
2026-01-07 11:56:17.57	346.19	17.15	-29.8	-32.3	19.4	6.02e-01	0	43	102	1048576	21	4808
2026-01-07 11:56:18.57	346.16	17.03	-29.8	-32.4	19.4	6.01e-01	0	43	102	1048576	21	4837
2026-01-07 11:56:19.57	346.13	16.90	-29.8	-32.4	19.3	6.00e-01	0	43	102	1048576	21	4861
2026-01-07 11:56:20.58	346.10	16.77	-29.8	-32.5	19.3	6.00e-01	0	43	102	1048576	21	4880
2026-01-07 11:56:21.59	346.07	16.65	-30.0	-32.9	19.1	5.99e-01	0	43	102	1048576	21	5009
2026-01-07 11:56:22.60	346.04	16.52	-30.0	-32.8	19.1	5.98e-01	0	43	102	1048576	21	4996
2026-01-07 11:56:23.60	346.01	16.40	-29.8	-32.5	19.3	6.01e-01	0	43	102	1048576	21	4876
2026-01-07 11:56:24.60	345.98	16.27	-29.8	-32.5	19.3	6.00e-01	0	43	102	1048576	21	4880
2026-01-07 11:56:25.61	345.95	16.15	-29.8	-32.4	19.3	5.99e-01	0	43	102	1048576	21	4852
2026-01-07 11:56:26.61	345.92	16.03	-29.8	-32.5	19.3	6.01e-01	0	43	102	1048576	21	4870
2026-01-07 11:56:27.62	345.90	15.91	-29.9	-32.6	19.2	6.00e-01	0	43	102	1048576	21	4907
2026-01-07 11:56:28.63	345.87	15.79	-30.0	-32.9	19.0	5.99e-01	0	43	102	1048576	21	5024
2026-01-07 11:56:29.64	345.84	15.66	-30.0	-32.9	19.0	6.01e-01	0	43	102	1048576	21	5034
2026-01-07 11:56:30.64	345.81	15.55	-29.9	-32.6	19.1	5.99e-01	0	43	102	1048576	21	4939
2026-01-07 11:56:31.65	345.79	15.43	-29.8	-32.5	19.2	6.00e-01	0	43	102	1048576	21	4884
2026-01-07 11:56:32.66	345.76	15.31	-29.8	-32.5	19.3	6.02e-01	0	43	102	1048576	21	4876
2026-01-07 11:56:33.66	345.73	15.19	-29.9	-32.6	19.2	6.02e-01	0	43	102	1048576	21	4928
2026-01-07 11:56:34.67	345.71	15.07	-29.9	-32.6	19.1	6.00e-01	0	43	102	1048576	21	4933
2026-01-07 11:56:35.67	345.68	14.96	-29.9	-32.6	19.1	6.00e-01	0	43	102	1048576	21	4926
2026-01-07 11:56:36.68	345.66	14.84	-30.0	-33.0	18.9	6.02e-01	0	43	102	1048576	21	5070
2026-01-07 11:56:37.69	345.63	14.72	-30.0	-32.9	18.9	6.01e-01	0	43	102	1048576	21	5036
2026-01-07 11:56:38.70	345.61	14.61	-29.9	-32.6	19.1	6.01e-01	0	43	102	1048576	21	4939
2026-01-07 11:56:39.70	345.58	14.49	-29.8	-32.5	19.2	6.03e-01	0	43	102	1048576	21	4878
2026-01-07 11:56:40.71	345.56	14.38	-29.9	-32.6	19.1	6.02e-01	0	43	102	1048576	21	4933
2026-01-07 11:56:41.72	345.53	14.27	-29.9	-32.7	19.0	6.00e-01	0	43	102	1048576	21	4972
2026-01-07 11:56:42.73	345.51	14.15	-29.9	-32.8	18.9	6.00e-01	0	43	102	1048576	21	5020
2026-01-07 11:56:43.72	345.49	14.04	-29.9	-32.7	19.0	6.02e-01	0	43	102	1048576	21	4990
2026-01-07 11:56:44.73	345.46	13.93	-29.9	-32.7	19.0	6.01e-01	0	43	102	1048576	21	4991
2026-01-07 11:56:45.75	345.44	13.82	-30.0	-32.9	18.8	6.01e-01	0	43	102	1048576	21	5061
2026-01-07 11:56:46.75	345.41	13.71	-30.0	-33.0	18.8	5.99e-01	0	43	102	1048576	21	5080
2026-01-07 11:56:47.76	345.39	13.60	-30.0	-33.2	18.6	5.99e-01	0	43	102	1048576	21	5157
2026-01-07 11:56:48.77	345.37	13.49	-30.0	-33.0	18.7	6.01e-01	0	43	102	1048576	21	5105
2026-01-07 11:56:49.77	345.35	13.38	-29.9	-32.9	18.8	6.03e-01	0	43	102	1048576	21	5040
2026-01-07 11:56:50.78	345.32	13.27	-30.0	-33.0	18.7	6.02e-01	0	43	102	1048576	21	5079
2026-01-07 11:56:51.79	345.30	13.17	-30.0	-33.2	18.6	6.02e-01	0	43	102	1048576	21	5153
2026-01-07 11:56:52.80	345.28	13.06	-30.0	-32.9	18.8	6.03e-01	0	43	102	1048576	21	5061
2026-01-07 11:56:53.81	345.26	12.95	-29.9	-32.7	18.8	6.04e-01	0	43	102	1048576	21	4999
2026-01-07 11:56:54.81	345.24	12.85	-29.9	-32.7	18.9	6.01e-01	0	43	102	1048576	21	4970
2026-01-07 11:56:55.82	345.22	12.74	-29.9	-32.9	18.8	6.00e-01	0	43	102	1048576	21	5052
2026-01-07 11:56:56.82	345.19	12.63	-29.9	-32.9	18.8	5.98e-01	0	43	102	1048576	21	5045
2026-01-07 11:56:57.82	345.17	12.53	-29.9	-32.8	18.8	5.99e-01	0	43	102	1048576	21	5018
2026-01-07 11:56:58.83	345.15	12.43	-29.8	-32.6	18.9	6.03e-01	0	43	102	1048576	21	4955
2026-01-07 11:56:59.83	345.13	12.32	-29.9	-32.7	18.8	6.00e-01	0	43	102	1048576	21	5003
2026-01-07 11:57:00.83	345.11	12.22	-29.9	-32.7	18.8	6.01e-01	0	43	102	1048576	21	5001
2026-01-07 11:57:01.84	345.09	12.12	-29.9	-32.9	18.8	6.01e-01	0	43	102	1048576	21	5046
2026-01-07 11:57:02.84	345.07	12.02	-29.9	-32.7	18.8	6.00e-01	0	43	102	1048576	21	4999
2026-01-07 11:57:03.84	345.05	11.92	-29.8	-32.4	19.0	6.03e-01	0	43	102	1048576	21	4890
2026-01-07 11:57:04.85	345.03	11.81	-29.8	-32.6	18.9	5.99e-01	0	43	102	1048576	21	4957
2026-01-07 11:57:05.86	345.01	11.71	-29.8	-32.7	18.8	6.01e-01	0	43	102	1048576	21	4977
2026-01-07 11:57:06.87	344.99	11.61	-29.8	-32.7	18.8	6.00e-01	0	43	102	1048576	21	4998
2026-01-07 11:57:07.88	344.97	11.51	-29.8	-32.5	18.8	6.01e-01	0	43	102	1048576	21	4955
2026-01-07 11:57:08.88	344.95	11.41	-29.8	-32.5	18.8	6.01e-01	0	43	102	1048576	21	4940
2026-01-07 11:57:09.88	344.94	11.31	-29.8	-32.6	18.7	6.00e-01	0	43	102	1048576	21	4958
2026-01-07 11:57:10.88	344.92	11.22	-29.9	-32.8	18.6	6.03e-01	0	43	102	1048576	21	5066
2026-01-07 11:57:11.89	344.90	11.12	-29.9	-32.8	18.6	6.01e-01	0	43	102	1048576	21	5055
2026-01-07 11:57:12.90	344.88	11.02	-29.8	-32.7	18.7	5.99e-01	0	43	102	1048576	21	4994
2026-01-07 11:57:13.91	344.86	10.92	-29.8	-32.6	18.8	6.02e-01	0	43	102	1048576	21	4973
2026-01-07 11:57:14.92	344.84	10.83	-29.9	-32.7	18.7	6.02e-01	0	43	102	1048576	21	5005
2026-01-07 11:57:15.93	344.83	10.73	-29.9	-32.8	18.6	6.01e-01	0	43	102	1048576	21	5049
2026-01-07 11:57:16.93	344.81	10.63	-29.9	-32.9	18.6	6.00e-01	0	43	102	1048576	21	5066
2026-01-07 11:57:17.94	344.79	10.54	-29.9	-32.9	18.6	6.03e-01	0	43	102	1048576	21	5091
2026-01-07 11:57:18.95	344.77	10.44	-30.1	-33.3	18.3	5.98e-01	0	43	102	1048576	21	5226
2026-01-07 11:57:19.94	344.76	10.35	-30.0	-33.0	18.5	6.01e-01	0	43	102	1048576	21	5128
2026-01-07 11:57:20.94	344.74	10.26	-30.0	-33.1	18.4	5.99e-01	0	43	102	1048576	21	5145
2026-01-07 11:57:21.95	344.72	10.16	-30.0	-33.2	18.4	6.00e-01	0	43	102	1048576	21	5194
2026-01-07 11:57:22.95	344.71	10.07	-30.1	-33.3	18.3	6.01e-01	0	43	102	1048576	21	5229
2026-01-07 11:57:23.96	344.69	9.97	-30.1	-33.3	18.2	5.99e-01	0	43	102	1048576	21	5254
2026-01-07 11:57:24.97	344.67	9.88	-30.0	-33.3	18.2	6.01e-01	0	43	102	1048576	21	5259
2026-01-07 11:57:25.97	344.66	9.79	-29.9	-33.3	18.0	6.01e-01	0	43	102	1048576	21	5302
2026-01-07 11:57:26.98	344.64	9.70	-29.9	-33.2	17.9	6.00e-01	0	43	102	1048576	21	5299
2026-01-07 11:57:27.99	344.62	9.60	-29.9	-33.2	18.0	6.01e-01	0	43	102	1048576	21	5299
2026-01-07 11:57:28.99	344.61	9.51	-30.1	-33.7	17.7	6.01e-01	0	43	102	1048576	21	5465
2026-01-07 11:57:30.00	344.59	9.42	-30.0	-33.5	17.9	6.00e-01	0	43	102	1048576	21	5361
2026-01-07 11:57:31.01	344.58	9.33	-30.2	-33.9	17.8	6.00e-01	0	43	102	1048576	21	5512
2026-01-07 11:57:32.01	344.56	9.24	-30.2	-33.7	18.0	6.01e-01	0	43	102	1048576	21	5417
2026-01-07 11:57:33.01	344.55	9.15	-30.1	-33.4	18.2	6.04e-01	0	43	102	1048576	21	5282
2026-01-07 11:57:34.01	344.53	9.06	-30.2	-33.7	18.0	6.01e-01	0	43	102	1048576	21	5405
2026-01-07 11:57:35.01	344.52	8.98	-30.2	-33.6	18.1	6.02e-01	0	43	102	1048576	21	5363
2026-01-07 11:57:36.01	344.50	8.89	-30.2	-33.8	17.9	6.01e-01	0	43	102	1048576	21	5431
2026-01-07 11:57:37.02	344.49	8.80	-30.2	-33.8	17.8	6.00e-01	0	43	102	1048576	21	5459
2026-01-07 11:57:38.02	344.47	8.71	-30.2	-33.9	17.8	6.00e-01	0	43	102	1048576	21	5470
2026-01-07 11:57:39.03	344.46	8.62	-30.2	-33.8	17.8	6.02e-01	0	43	102	1048576	21	5452
2026-01-07 11:57:40.04	344.44	8.54	-30.2	-33.8	17.9	5.99e-01	0	43	102	1048576	21	5430
2026-01-07 11:57:41.04	344.43	8.45	-30.1	-33.6	17.9	6.01e-01	0	43	102	1048576	21	5390
2026-01-07 11:57:42.05	344.41	8.36	-30.2	-33.8	17.9	6.03e-01	0	43	102	1048576	21	5448
2026-01-07 11:57:43.05	344.40	8.28	-30.2	-34.0	17.6	6.02e-01	0	43	102	1048576	21	5535
2026-01-07 11:57:44.06	344.38	8.19	-30.1	-33.6	17.8	5.99e-01	0	43	102	1048576	21	5398
2026-01-07 11:57:45.07	344.37	8.10	-30.1	-33.8	17.8	5.98e-01	0	43	102	1048576	21	5469
2026-01-07 11:57:46.07	344.36	8.02	-30.2	-34.0	17.6	6.00e-01	0	43	102	1048576	21	5552
2026-01-07 11:57:47.08	344.34	7.93	-30.1	-33.7	17.7	6.00e-01	0	43	102	1048576	21	5472
2026-01-07 11:57:48.09	344.33	7.85	-30.1	-33.6	17.7	6.01e-01	0	43	102	1048576	21	5434
2026-01-07 11:57:49.10	344.32	7.76	-30.1	-33.7	17.7	6.02e-01	0	43	102	1048576	21	5453
2026-01-07 11:57:50.11	344.30	7.68	-30.2	-33.9	17.6	6.00e-01	0	43	102	1048576	21	5547
2026-01-07 11:57:51.11	344.29	7.60	-30.3	-34.1	17.5	6.02e-01	0	43	102	1048576	21	5613
2026-01-07 11:57:52.11	344.28	7.51	-30.2	-34.0	17.6	6.02e-01	0	43	102	1048576	21	5547
2026-01-07 11:57:53.12	344.26	7.43	-30.4	-34.5	17.3	6.01e-01	0	43	102	1048576	21	5759
2026-01-07 11:57:54.13	344.25	7.35	-30.4	-34.3	17.4	6.03e-01	0	43	102	1048576	21	5691
2026-01-07 11:57:55.14	344.24	7.26	-30.3	-34.2	17.5	6.00e-01	0	43	102	1048576	21	5630
2026-01-07 11:57:56.14	344.22	7.18	-30.3	-34.3	17.4	6.02e-01	0	43	102	1048576	21	5669
2026-01-07 11:57:57.15	344.21	7.10	-30.9	-35.4	16.8	6.05e-01	0	43	102	1048576	22	6036
2026-01-07 11:57:58.16	344.20	7.02	-33.4	-48.6	4.1	7.41e-01	0	43	104	1048576	27	20496
2026-01-07 11:57:59.16	344.19	6.94	-33.5	-52.0	3.8	7.43e-01	0	43	104	1048576	28	30156

#Closed at: 2026-01-07 11:57:59
#Recorded file [1 MB]: D:/data/31010_260107_144730.dat