passes_logs/2026/01/07/R2M6_AANII_01/R2M6_AANII_01__20260107_122107_NOAA_20_JPSS-1_rec.log

#Pass ID: 20260107_122107_NOAA 20 (JPSS-1)
#Satellite: NOAA 20 (JPSS-1)
#Configuration: NOAA 20
#almurnet v.1.7.20240730
#Start time: 2026-01-07 12:21:07

#Version: 2.2.20231116
#Station: R2M6_AANII_01
#Location: 30.233357 lon 59.946436 lat
#TLE: 1 43013U 17073A   26006.30790171  .00000126  00000+0  80695-4 0  9991
#TLE: 2 43013  98.7629 307.3394 0001808  51.8724 308.2615 14.19533762421505

#Time	Az	El	Level	Level2	SNR	BER	BlckErr	Temp	State	Recorded	gain1	gain2
2026-01-07 12:21:07.41	228.87	6.97	-31.3	-36.8	5.2	1.17e+00	0	41	0	0	23	6821
2026-01-07 12:21:08.41	228.99	7.02	-31.8	-38.8	4.8	1.25e+00	0	41	104	0	24	8084
2026-01-07 12:21:09.42	229.11	7.08	-31.8	-38.5	6.8	2.05e-01	0	41	0	0	24	7834
2026-01-07 12:21:10.42	229.22	7.13	-31.8	-38.4	6.9	1.48e-01	0	41	102	1048576	24	7736
2026-01-07 12:21:11.43	229.34	7.19	-31.8	-38.6	6.8	1.93e-01	0	41	102	1048576	24	7848
2026-01-07 12:21:12.43	229.46	7.24	-31.7	-37.8	7.4	1.44e-01	0	41	102	1048576	24	7323
2026-01-07 12:21:13.44	229.58	7.30	-31.5	-37.2	7.9	9.42e-02	0	41	102	1048576	24	6934
2026-01-07 12:21:14.44	229.70	7.35	-31.4	-36.5	8.4	4.73e-02	0	41	102	1048576	24	6500
2026-01-07 12:21:15.45	229.82	7.40	-31.2	-36.4	9.0	3.38e-02	0	41	102	1048576	23	6523
2026-01-07 12:21:16.45	229.94	7.46	-31.1	-35.9	9.4	2.20e-02	0	41	102	1048576	23	6259
2026-01-07 12:21:17.45	230.06	7.51	-31.0	-35.6	9.6	1.43e-02	0	41	102	1048576	23	6086
2026-01-07 12:21:18.46	230.19	7.57	-31.0	-35.5	9.7	1.20e-02	0	41	102	1048576	23	6043
2026-01-07 12:21:19.47	230.31	7.62	-31.0	-35.4	9.8	1.04e-02	0	41	102	1048576	23	5979
2026-01-07 12:21:20.48	230.43	7.67	-31.0	-35.4	9.8	9.82e-03	0	41	102	1048576	23	5990
2026-01-07 12:21:21.48	230.56	7.73	-31.1	-35.8	9.5	9.90e-03	0	41	102	1048576	23	6162
2026-01-07 12:21:22.49	230.68	7.78	-31.1	-35.8	9.5	1.96e-02	0	42	102	1048576	23	6203
2026-01-07 12:21:23.49	230.80	7.84	-30.9	-34.9	10.2	1.12e-02	0	41	102	1048576	23	5747
2026-01-07 12:21:24.50	230.93	7.89	-30.7	-34.8	10.6	3.63e-03	0	41	102	1048576	22	5791
2026-01-07 12:21:25.51	231.05	7.95	-30.7	-34.7	10.7	2.51e-03	0	41	102	1048576	22	5758
2026-01-07 12:21:26.51	231.18	8.00	-30.7	-34.7	10.7	3.84e-03	0	42	102	1048576	22	5748
2026-01-07 12:21:27.52	231.31	8.05	-30.5	-34.2	11.1	1.83e-03	0	41	102	1048576	22	5515
2026-01-07 12:21:28.53	231.43	8.11	-30.3	-33.8	11.4	1.18e-03	0	41	102	1048576	22	5358
2026-01-07 12:21:29.54	231.56	8.16	-30.2	-33.9	11.6	8.22e-04	0	42	102	1048576	21	5537
2026-01-07 12:21:30.54	231.69	8.22	-30.2	-33.9	11.6	5.22e-04	0	42	102	1048576	21	5529
2026-01-07 12:21:31.54	231.81	8.27	-30.2	-33.9	11.6	6.34e-04	0	42	102	1048576	21	5531
2026-01-07 12:21:32.55	231.94	8.33	-30.2	-33.9	11.6	6.96e-04	0	41	102	1048576	21	5532
2026-01-07 12:21:33.56	232.07	8.38	-30.2	-33.9	11.6	6.50e-04	0	42	102	1048576	21	5513
2026-01-07 12:21:34.57	232.20	8.44	-30.2	-33.9	11.6	6.07e-04	0	42	102	1048576	21	5534
2026-01-07 12:21:35.58	232.33	8.49	-30.2	-33.9	11.6	6.48e-04	0	42	102	1048576	21	5539
2026-01-07 12:21:36.58	232.46	8.54	-30.2	-34.0	11.6	6.24e-04	0	42	102	1048576	21	5571
2026-01-07 12:21:37.59	232.59	8.60	-30.2	-34.0	11.5	8.09e-04	0	42	102	1048576	21	5590
2026-01-07 12:21:38.60	232.72	8.65	-30.1	-33.9	11.6	7.48e-04	0	42	102	1048576	21	5565
2026-01-07 12:21:39.61	232.86	8.71	-30.2	-34.1	11.4	8.43e-04	0	42	102	1048576	21	5657
2026-01-07 12:21:40.61	232.99	8.76	-30.2	-34.2	11.5	8.89e-04	0	42	102	1048576	21	5662
2026-01-07 12:21:41.63	233.12	8.82	-30.2	-34.0	11.5	9.29e-04	0	42	102	1048576	21	5602
2026-01-07 12:21:42.63	233.25	8.87	-30.0	-33.6	11.8	6.42e-04	0	42	102	1048576	21	5473
2026-01-07 12:21:43.64	233.39	8.92	-30.0	-33.8	11.5	7.11e-04	0	42	102	1048576	21	5602
2026-01-07 12:21:44.65	233.52	8.98	-30.0	-33.7	11.7	7.35e-04	0	42	102	1048576	21	5527
2026-01-07 12:21:45.65	233.66	9.03	-30.0	-33.7	11.7	4.73e-04	0	42	102	1048576	21	5493
2026-01-07 12:21:46.65	233.79	9.09	-30.1	-33.8	11.6	5.34e-04	0	42	102	1048576	21	5567
2026-01-07 12:21:47.67	233.93	9.14	-30.0	-33.7	11.7	6.37e-04	0	42	102	1048576	21	5509
2026-01-07 12:21:48.67	234.06	9.20	-29.9	-33.5	11.9	4.69e-04	0	42	102	1048576	21	5415
2026-01-07 12:21:49.68	234.20	9.25	-29.9	-33.4	11.9	4.01e-04	0	42	102	1048576	21	5374
2026-01-07 12:21:50.68	234.34	9.30	-30.0	-33.6	11.8	4.29e-04	0	42	102	1048576	21	5466
2026-01-07 12:21:51.69	234.47	9.36	-30.0	-33.5	11.9	3.89e-04	0	42	102	1048576	21	5386
2026-01-07 12:21:52.70	234.61	9.41	-30.1	-33.7	11.9	3.75e-04	0	42	102	1048576	21	5444
2026-01-07 12:21:53.71	234.75	9.47	-30.1	-33.7	11.9	4.83e-04	0	42	102	1048576	21	5445
2026-01-07 12:21:54.71	234.89	9.52	-30.0	-33.6	11.9	3.95e-04	0	42	102	1048576	21	5445
2026-01-07 12:21:55.72	235.03	9.57	-29.8	-33.5	11.8	3.87e-04	0	42	102	1048576	21	5483
2026-01-07 12:21:56.73	235.17	9.63	-29.9	-33.4	11.9	4.40e-04	0	42	102	1048576	21	5424
2026-01-07 12:21:57.74	235.31	9.68	-30.0	-33.6	11.8	4.03e-04	0	42	102	1048576	21	5457
2026-01-07 12:21:58.74	235.45	9.74	-29.9	-33.4	12.0	3.65e-04	0	42	102	1048576	21	5331
2026-01-07 12:21:59.75	235.59	9.79	-30.0	-33.4	12.0	3.07e-04	0	42	102	1048576	21	5359
2026-01-07 12:22:00.76	235.73	9.84	-29.9	-33.3	12.1	3.17e-04	0	42	102	1048576	21	5313
2026-01-07 12:22:01.77	235.88	9.90	-29.9	-33.3	12.1	2.39e-04	0	42	102	1048576	21	5325
2026-01-07 12:22:02.77	236.02	9.95	-29.9	-33.3	12.1	2.82e-04	0	42	102	1048576	21	5326
2026-01-07 12:22:03.78	236.16	10.00	-30.0	-33.4	12.1	2.91e-04	0	42	102	1048576	21	5328
2026-01-07 12:22:04.79	236.31	10.06	-29.9	-33.4	12.1	2.84e-04	0	42	102	1048576	21	5340
2026-01-07 12:22:05.80	236.45	10.11	-29.9	-33.3	12.1	3.11e-04	0	42	102	1048576	21	5349
2026-01-07 12:22:06.81	236.60	10.17	-29.8	-33.4	11.9	3.66e-04	0	42	102	1048576	21	5434
2026-01-07 12:22:07.81	236.74	10.22	-29.8	-33.8	12.0	3.78e-04	0	42	102	1048576	20	5700
2026-01-07 12:22:08.82	236.89	10.27	-29.8	-33.9	11.9	3.17e-04	0	42	102	1048576	20	5779
2026-01-07 12:22:09.83	237.04	10.33	-29.9	-33.9	12.0	3.59e-04	0	42	102	1048576	20	5735
2026-01-07 12:22:10.83	237.18	10.38	-30.0	-33.9	12.0	3.17e-04	0	42	102	1048576	20	5696
2026-01-07 12:22:11.84	237.33	10.43	-30.0	-33.9	12.1	2.99e-04	0	42	102	1048576	20	5643
2026-01-07 12:22:12.85	237.48	10.49	-30.0	-34.0	12.0	2.78e-04	0	42	102	1048576	20	5700
2026-01-07 12:22:13.86	237.63	10.54	-30.1	-34.3	11.8	3.58e-04	0	42	102	1048576	20	5819
2026-01-07 12:22:14.86	237.78	10.59	-30.0	-34.0	12.0	3.46e-04	0	42	102	1048576	20	5713
2026-01-07 12:22:15.87	237.93	10.64	-29.9	-33.7	12.2	2.94e-04	0	42	102	1048576	20	5576
2026-01-07 12:22:16.87	238.08	10.70	-29.9	-33.6	12.3	1.75e-04	0	43	102	1048576	20	5517
2026-01-07 12:22:17.88	238.23	10.75	-29.9	-33.7	12.3	1.67e-04	0	42	102	1048576	20	5558
2026-01-07 12:22:18.89	238.38	10.80	-29.9	-33.5	12.4	1.49e-04	0	42	102	1048576	20	5504
2026-01-07 12:22:19.89	238.53	10.86	-30.0	-33.7	12.4	1.52e-04	0	42	102	1048576	20	5526
2026-01-07 12:22:20.90	238.68	10.91	-29.8	-33.3	12.6	1.12e-04	0	42	102	1048576	20	5392
2026-01-07 12:22:21.91	238.84	10.96	-29.7	-33.1	12.7	9.91e-05	0	43	102	1048576	20	5341
2026-01-07 12:22:22.92	238.99	11.01	-29.6	-33.1	12.5	1.01e-04	0	42	102	1048576	20	5407
2026-01-07 12:22:23.93	239.14	11.07	-29.6	-33.0	12.7	9.68e-05	0	42	102	1048576	20	5319
2026-01-07 12:22:24.93	239.30	11.12	-29.7	-33.0	12.8	6.33e-05	0	42	102	1048576	20	5274
2026-01-07 12:22:25.95	239.45	11.17	-29.8	-33.1	12.8	6.48e-05	0	43	102	1048576	20	5292
2026-01-07 12:22:26.96	239.61	11.23	-29.8	-33.0	12.8	4.50e-05	0	43	102	1048576	20	5236
2026-01-07 12:22:27.97	239.77	11.28	-29.8	-33.1	12.8	5.18e-05	0	42	102	1048576	20	5251
2026-01-07 12:22:28.98	239.92	11.33	-29.9	-33.4	12.6	7.47e-05	0	42	102	1048576	20	5374
2026-01-07 12:22:29.99	240.08	11.38	-29.8	-33.2	12.8	6.56e-05	0	43	102	1048576	20	5276
2026-01-07 12:22:30.99	240.24	11.43	-29.8	-32.9	13.0	4.34e-05	0	43	102	1048576	20	5174
2026-01-07 12:22:32.00	240.40	11.49	-29.7	-32.9	13.0	3.20e-05	0	43	102	1048576	20	5148
2026-01-07 12:22:33.01	240.56	11.54	-29.7	-32.8	13.1	2.89e-05	0	43	102	1048576	20	5114
2026-01-07 12:22:34.03	240.72	11.59	-29.9	-33.1	12.9	2.74e-05	0	42	102	1048576	20	5230
2026-01-07 12:22:35.03	240.88	11.64	-29.7	-32.6	13.2	4.19e-05	0	43	102	1048576	20	5055
2026-01-07 12:22:36.04	241.04	11.69	-29.5	-32.3	13.4	2.21e-05	0	43	102	1048576	20	4940
2026-01-07 12:22:37.05	241.20	11.75	-29.5	-32.3	13.4	1.60e-05	0	43	102	1048576	20	4968
2026-01-07 12:22:38.06	241.36	11.80	-29.6	-32.4	13.4	1.14e-05	0	43	102	1048576	20	4972
2026-01-07 12:22:39.07	241.52	11.85	-29.7	-32.6	13.3	2.05e-05	0	43	102	1048576	20	5019
2026-01-07 12:22:40.08	241.69	11.90	-29.8	-32.8	13.2	1.75e-05	0	43	102	1048576	20	5093
2026-01-07 12:22:41.09	241.85	11.95	-29.7	-32.7	13.3	1.67e-05	0	43	102	1048576	20	5044
2026-01-07 12:22:42.09	242.01	12.00	-29.9	-33.0	13.0	2.82e-05	0	43	102	1048576	20	5171
2026-01-07 12:22:43.10	242.18	12.05	-29.8	-32.9	13.1	2.82e-05	0	43	102	1048576	20	5111
2026-01-07 12:22:44.10	242.34	12.10	-29.9	-33.1	13.0	3.66e-05	0	43	102	1048576	20	5204
2026-01-07 12:22:45.11	242.51	12.15	-29.9	-33.0	13.1	4.57e-05	0	43	102	1048576	20	5160
2026-01-07 12:22:46.12	242.67	12.21	-30.0	-33.3	12.9	4.88e-05	0	43	102	1048576	20	5272
2026-01-07 12:22:47.13	242.84	12.26	-29.8	-32.9	13.2	3.05e-05	0	43	102	1048576	20	5098
2026-01-07 12:22:48.13	243.01	12.31	-29.7	-32.5	13.4	1.22e-05	0	43	102	1048576	20	4976
2026-01-07 12:22:49.14	243.17	12.36	-29.7	-32.5	13.4	1.06e-05	0	43	102	1048576	20	4951
2026-01-07 12:22:50.15	243.34	12.41	-29.8	-32.6	13.3	1.60e-05	0	43	102	1048576	20	5016
2026-01-07 12:22:51.15	243.51	12.46	-29.7	-32.4	13.5	1.83e-05	0	43	102	1048576	20	4921
2026-01-07 12:22:52.16	243.68	12.51	-29.7	-32.4	13.5	8.30e-06	0	43	102	1048576	20	4893
2026-01-07 12:22:53.16	243.85	12.56	-29.7	-32.4	13.5	1.06e-05	0	43	102	1048576	20	4913
2026-01-07 12:22:54.18	244.02	12.61	-29.7	-32.3	13.6	1.14e-05	0	43	102	1048576	20	4878
2026-01-07 12:22:55.18	244.19	12.65	-29.8	-32.5	13.5	8.30e-06	0	43	102	1048576	20	4954
2026-01-07 12:22:56.19	244.36	12.70	-29.8	-32.5	13.5	1.52e-05	0	43	102	1048576	20	4952
2026-01-07 12:22:57.19	244.53	12.75	-29.9	-32.8	13.3	1.60e-05	0	43	102	1048576	20	5031
2026-01-07 12:22:58.20	244.71	12.80	-29.9	-32.8	13.3	2.28e-05	0	43	102	1048576	20	5063
2026-01-07 12:22:59.21	244.88	12.85	-29.9	-32.9	13.3	1.14e-05	0	43	102	1048576	20	5079
2026-01-07 12:23:00.21	245.05	12.90	-29.9	-32.9	13.3	2.59e-05	0	43	102	1048576	20	5076
2026-01-07 12:23:01.22	245.23	12.95	-29.8	-32.6	13.4	1.90e-05	0	43	102	1048576	20	4986
2026-01-07 12:23:02.23	245.40	13.00	-29.8	-32.6	13.4	1.14e-05	0	43	102	1048576	20	4980
2026-01-07 12:23:03.23	245.58	13.05	-29.9	-32.7	13.4	1.44e-05	0	43	102	1048576	20	5015
2026-01-07 12:23:04.24	245.75	13.09	-29.8	-32.6	13.4	1.52e-05	0	43	102	1048576	20	4985
2026-01-07 12:23:05.25	245.93	13.14	-29.9	-33.0	13.2	1.14e-05	0	43	102	1048576	20	5116
2026-01-07 12:23:06.26	246.11	13.19	-30.1	-33.4	12.9	4.80e-05	0	43	102	1048576	20	5291
2026-01-07 12:23:07.26	246.28	13.24	-30.0	-33.2	13.1	4.11e-05	0	43	102	1048576	20	5191
2026-01-07 12:23:08.27	246.46	13.29	-29.9	-32.9	13.3	2.51e-05	0	43	102	1048576	20	5089
2026-01-07 12:23:09.27	246.64	13.33	-29.9	-32.9	13.3	2.13e-05	0	43	102	1048576	20	5085
2026-01-07 12:23:10.28	246.82	13.38	-29.9	-32.9	13.3	1.60e-05	0	43	102	1048576	20	5082
2026-01-07 12:23:11.29	247.00	13.43	-29.9	-32.9	13.3	2.21e-05	0	43	102	1048576	20	5086
2026-01-07 12:23:12.30	247.18	13.47	-29.9	-32.9	13.4	1.29e-05	0	43	102	1048576	20	5056
2026-01-07 12:23:13.30	247.36	13.52	-30.0	-33.1	13.2	1.90e-05	0	43	102	1048576	20	5156
2026-01-07 12:23:14.31	247.54	13.57	-30.0	-33.1	13.2	3.35e-05	0	43	102	1048576	20	5155
2026-01-07 12:23:15.32	247.73	13.61	-29.9	-32.9	13.3	2.05e-05	0	43	102	1048576	20	5070
2026-01-07 12:23:16.33	247.91	13.66	-30.0	-33.0	13.3	1.44e-05	0	43	102	1048576	20	5118
2026-01-07 12:23:17.33	248.09	13.71	-30.0	-33.2	13.1	2.36e-05	0	43	102	1048576	20	5172
2026-01-07 12:23:18.34	248.28	13.75	-30.1	-33.4	13.0	3.35e-05	0	43	102	1048576	20	5240
2026-01-07 12:23:19.35	248.46	13.80	-30.2	-33.6	12.9	5.56e-05	0	43	102	1048576	20	5321
2026-01-07 12:23:20.35	248.64	13.84	-30.2	-33.8	12.8	4.57e-05	0	43	102	1048576	20	5402
2026-01-07 12:23:21.36	248.83	13.89	-30.3	-34.0	12.6	7.55e-05	0	43	102	1048576	20	5501
2026-01-07 12:23:22.36	249.01	13.93	-30.4	-34.2	12.5	1.31e-04	0	43	102	1048576	20	5594
2026-01-07 12:23:23.37	249.20	13.98	-30.3	-34.0	12.6	1.06e-04	0	43	102	1048576	20	5517
2026-01-07 12:23:24.38	249.39	14.02	-30.3	-34.0	12.6	8.23e-05	0	43	102	1048576	20	5505
2026-01-07 12:23:25.39	249.58	14.07	-30.4	-34.3	12.4	1.28e-04	0	43	102	1048576	20	5605
2026-01-07 12:23:26.39	249.76	14.11	-30.5	-34.0	12.3	1.78e-04	0	43	102	1048576	21	5380
2026-01-07 12:23:27.40	249.95	14.16	-30.5	-34.0	12.3	1.67e-04	0	43	102	1048576	21	5398
2026-01-07 12:23:28.41	250.14	14.20	-30.6	-34.2	12.2	1.91e-04	0	43	102	1048576	21	5463
2026-01-07 12:23:29.42	250.33	14.25	-30.6	-34.3	12.1	2.65e-04	0	43	102	1048576	21	5503
2026-01-07 12:23:30.43	250.52	14.29	-30.7	-34.5	12.0	3.14e-04	0	43	102	1048576	21	5581
2026-01-07 12:23:31.43	250.71	14.33	-30.7	-34.6	11.9	3.22e-04	0	43	102	1048576	21	5637
2026-01-07 12:23:32.44	250.90	14.38	-30.8	-34.8	11.8	4.93e-04	0	43	102	1048576	21	5730
2026-01-07 12:23:33.46	251.10	14.42	-30.8	-34.8	11.8	4.39e-04	0	43	102	1048576	21	5726
2026-01-07 12:23:34.46	251.29	14.46	-30.8	-34.9	11.7	6.55e-04	0	43	102	1048576	21	5785
2026-01-07 12:23:35.47	251.48	14.50	-30.8	-35.0	11.6	5.99e-04	0	43	102	1048576	21	5823
2026-01-07 12:23:36.47	251.68	14.55	-30.8	-35.0	11.6	8.35e-04	0	43	102	1048576	21	5825
2026-01-07 12:23:37.48	251.87	14.59	-30.8	-34.9	11.7	6.27e-04	0	43	102	1048576	21	5772
2026-01-07 12:23:38.49	252.07	14.63	-30.9	-35.2	11.5	7.35e-04	0	43	102	1048576	21	5885
2026-01-07 12:23:39.49	252.26	14.67	-30.9	-35.2	11.5	9.48e-04	0	43	102	1048576	21	5913
2026-01-07 12:23:40.49	252.45	14.71	-30.9	-35.3	11.4	8.67e-04	0	43	102	1048576	21	5960
2026-01-07 12:23:41.49	252.65	14.75	-31.0	-35.0	11.3	1.17e-03	0	43	102	1048576	22	5706
2026-01-07 12:23:42.49	252.84	14.79	-31.0	-34.9	11.4	1.04e-03	0	43	102	1048576	22	5634
2026-01-07 12:23:43.49	253.04	14.83	-31.0	-34.9	11.4	9.63e-04	0	43	102	1048576	22	5663
2026-01-07 12:23:44.50	253.24	14.87	-31.0	-35.0	11.3	1.09e-03	0	43	102	1048576	22	5724
2026-01-07 12:23:45.51	253.44	14.91	-31.0	-35.1	11.2	1.19e-03	0	43	102	1048576	22	5765
2026-01-07 12:23:46.51	253.63	14.95	-31.0	-35.2	11.1	1.67e-03	0	43	102	1048576	22	5806
2026-01-07 12:23:47.52	253.83	14.99	-31.0	-35.2	11.2	1.30e-03	0	43	102	1048576	22	5802
2026-01-07 12:23:48.53	254.03	15.03	-31.1	-35.6	10.9	1.54e-03	0	43	102	1048576	22	5999
2026-01-07 12:23:49.54	254.23	15.07	-31.1	-35.6	10.8	2.92e-03	0	43	102	1048576	22	6039
2026-01-07 12:23:50.54	254.43	15.11	-31.0	-35.2	11.0	1.82e-03	0	43	102	1048576	22	5868
2026-01-07 12:23:51.55	254.63	15.15	-30.9	-35.1	11.1	1.58e-03	0	43	102	1048576	22	5812
2026-01-07 12:23:52.56	254.84	15.19	-30.9	-35.0	11.1	1.45e-03	0	43	102	1048576	22	5820
2026-01-07 12:23:53.57	255.04	15.23	-30.8	-35.1	11.1	1.74e-03	0	43	102	1048576	22	5854
2026-01-07 12:23:54.57	255.24	15.26	-30.8	-35.1	11.0	1.62e-03	0	43	102	1048576	22	5865
2026-01-07 12:23:55.58	255.45	15.30	-30.9	-35.1	11.0	1.76e-03	0	43	102	1048576	22	5892
2026-01-07 12:23:56.59	255.65	15.34	-30.8	-35.0	11.1	1.44e-03	0	43	102	1048576	22	5831
2026-01-07 12:23:57.59	255.85	15.37	-30.9	-35.0	11.1	1.56e-03	0	43	102	1048576	22	5808
2026-01-07 12:23:58.60	256.06	15.41	-30.8	-34.8	11.3	1.20e-03	0	43	102	1048576	22	5716
2026-01-07 12:23:59.60	256.26	15.45	-30.8	-35.0	11.2	1.33e-03	0	43	102	1048576	22	5800
2026-01-07 12:24:00.61	256.47	15.48	-30.8	-34.7	11.3	1.52e-03	0	43	102	1048576	22	5683
2026-01-07 12:24:01.62	256.67	15.52	-30.8	-34.6	11.5	9.24e-04	0	43	102	1048576	22	5631
2026-01-07 12:24:02.61	256.88	15.55	-30.8	-34.7	11.5	8.41e-04	0	43	102	1048576	22	5631
2026-01-07 12:24:03.61	257.08	15.59	-30.9	-34.9	11.2	1.03e-03	0	43	102	1048576	22	5752
2026-01-07 12:24:04.61	257.29	15.62	-30.8	-34.6	11.4	1.62e-03	0	43	102	1048576	22	5620
2026-01-07 12:24:05.62	257.50	15.66	-30.6	-34.0	11.9	4.55e-04	0	43	102	1048576	22	5360
2026-01-07 12:24:06.63	257.71	15.69	-30.4	-33.6	12.1	2.78e-04	0	43	102	1048576	22	5207
2026-01-07 12:24:07.63	257.91	15.72	-30.3	-33.5	12.2	2.15e-04	0	43	102	1048576	22	5159
2026-01-07 12:24:08.64	258.12	15.76	-30.3	-33.8	12.3	1.52e-04	0	43	102	1048576	21	5427
2026-01-07 12:24:09.65	258.33	15.79	-30.2	-33.7	12.3	1.94e-04	0	43	102	1048576	21	5405
2026-01-07 12:24:10.65	258.54	15.82	-30.1	-33.4	12.5	1.30e-04	0	43	102	1048576	21	5269
2026-01-07 12:24:11.67	258.76	15.86	-30.1	-33.3	12.6	8.62e-05	0	43	102	1048576	21	5207
2026-01-07 12:24:12.67	258.97	15.89	-30.2	-33.4	12.6	8.16e-05	0	43	102	1048576	21	5221
2026-01-07 12:24:13.67	259.18	15.92	-30.1	-33.2	12.8	7.24e-05	0	43	102	1048576	21	5143
2026-01-07 12:24:14.68	259.39	15.95	-29.9	-32.9	12.9	4.19e-05	0	43	102	1048576	21	5063
2026-01-07 12:24:15.69	259.60	15.98	-29.9	-32.8	13.0	3.96e-05	0	43	102	1048576	21	5026
2026-01-07 12:24:16.69	259.81	16.01	-29.9	-32.8	12.9	2.97e-05	0	43	102	1048576	21	5057
2026-01-07 12:24:17.69	260.02	16.05	-29.9	-32.9	12.9	5.41e-05	0	43	102	1048576	21	5078
2026-01-07 12:24:18.70	260.24	16.08	-29.9	-32.7	13.0	3.28e-05	0	43	102	1048576	21	4983
2026-01-07 12:24:19.71	260.45	16.11	-29.9	-32.8	13.0	3.66e-05	0	43	102	1048576	21	5014
2026-01-07 12:24:20.72	260.67	16.14	-30.0	-32.8	13.0	3.58e-05	0	43	102	1048576	21	5009
2026-01-07 12:24:21.72	260.88	16.16	-29.9	-32.6	13.1	3.66e-05	0	43	102	1048576	21	4929
2026-01-07 12:24:22.73	261.10	16.19	-29.8	-32.4	13.3	1.29e-05	0	43	102	1048576	21	4851
2026-01-07 12:24:23.74	261.31	16.22	-29.8	-33.0	13.2	1.67e-05	0	43	102	1048576	20	5176
2026-01-07 12:24:24.74	261.53	16.25	-29.8	-32.8	13.4	1.98e-05	0	43	102	1048576	20	5100
2026-01-07 12:24:25.75	261.75	16.28	-29.8	-32.7	13.4	1.67e-05	0	43	102	1048576	20	5053
2026-01-07 12:24:26.75	261.96	16.31	-29.9	-33.0	13.3	1.52e-05	0	43	102	1048576	20	5152
2026-01-07 12:24:27.76	262.18	16.33	-29.9	-33.1	13.2	1.90e-05	0	43	102	1048576	20	5185
2026-01-07 12:24:28.76	262.40	16.36	-30.0	-33.2	13.2	2.67e-05	0	43	102	1048576	20	5234
2026-01-07 12:24:29.77	262.61	16.39	-30.1	-33.7	12.8	3.58e-05	0	43	102	1048576	20	5430
2026-01-07 12:24:30.78	262.83	16.41	-30.2	-33.9	12.7	8.08e-05	0	43	102	1048576	20	5514
2026-01-07 12:24:31.78	263.05	16.44	-30.3	-34.0	12.6	7.40e-05	0	43	102	1048576	20	5557
2026-01-07 12:24:32.79	263.27	16.46	-30.3	-34.0	12.7	9.38e-05	0	43	102	1048576	20	5530
2026-01-07 12:24:33.80	263.49	16.49	-30.4	-34.2	12.5	1.14e-04	0	43	102	1048576	20	5623
2026-01-07 12:24:34.81	263.71	16.51	-30.3	-34.2	12.6	1.25e-04	0	43	102	1048576	20	5596
2026-01-07 12:24:35.82	263.93	16.54	-30.4	-34.2	12.5	1.08e-04	0	43	102	1048576	20	5608
2026-01-07 12:24:36.83	264.15	16.56	-30.6	-34.3	12.2	1.30e-04	0	43	102	1048576	21	5515
2026-01-07 12:24:37.83	264.37	16.58	-30.8	-35.0	11.6	3.55e-04	0	43	102	1048576	21	5847
2026-01-07 12:24:38.84	264.59	16.61	-30.7	-34.5	12.0	4.34e-04	0	43	102	1048576	21	5621
2026-01-07 12:24:39.85	264.82	16.63	-30.5	-33.9	12.4	1.88e-04	0	43	102	1048576	21	5363
2026-01-07 12:24:40.86	265.04	16.65	-30.3	-33.6	12.7	1.04e-04	0	43	102	1048576	21	5213
2026-01-07 12:24:41.86	265.26	16.67	-30.3	-33.4	12.8	5.49e-05	0	43	102	1048576	21	5157
2026-01-07 12:24:42.87	265.48	16.70	-30.3	-33.5	12.8	6.71e-05	0	43	102	1048576	21	5159
2026-01-07 12:24:43.87	265.70	16.72	-30.4	-33.7	12.6	6.48e-05	0	43	102	1048576	21	5239
2026-01-07 12:24:44.88	265.93	16.74	-30.3	-33.4	12.8	7.17e-05	0	43	102	1048576	21	5157
2026-01-07 12:24:45.88	266.15	16.76	-30.3	-33.4	12.8	5.87e-05	0	43	102	1048576	21	5159
2026-01-07 12:24:46.89	266.37	16.78	-30.4	-33.5	12.7	6.17e-05	0	43	102	1048576	21	5190
2026-01-07 12:24:47.89	266.60	16.80	-30.4	-33.7	12.7	7.01e-05	0	43	102	1048576	21	5258
2026-01-07 12:24:48.90	266.82	16.82	-30.3	-33.5	12.8	7.24e-05	0	43	102	1048576	21	5157
2026-01-07 12:24:49.91	267.05	16.83	-30.3	-33.5	12.8	5.41e-05	0	43	102	1048576	21	5184
2026-01-07 12:24:50.91	267.27	16.85	-30.3	-33.5	12.8	5.87e-05	0	43	102	1048576	21	5170
2026-01-07 12:24:51.92	267.49	16.87	-30.4	-33.7	12.7	7.85e-05	0	43	102	1048576	21	5231
2026-01-07 12:24:52.92	267.72	16.89	-30.4	-33.6	12.7	7.32e-05	0	43	102	1048576	21	5197
2026-01-07 12:24:53.93	267.94	16.90	-30.4	-33.5	12.8	6.48e-05	0	43	102	1048576	21	5148
2026-01-07 12:24:54.94	268.17	16.92	-30.4	-33.5	12.8	5.41e-05	0	43	102	1048576	21	5157
2026-01-07 12:24:55.94	268.39	16.94	-30.4	-33.5	12.8	6.17e-05	0	43	102	1048576	21	5180
2026-01-07 12:24:56.94	268.62	16.95	-30.5	-34.0	12.5	9.23e-05	0	43	102	1048576	21	5352
2026-01-07 12:24:57.94	268.84	16.97	-30.6	-34.1	12.4	1.20e-04	0	43	102	1048576	21	5404
2026-01-07 12:24:58.95	269.07	16.98	-30.6	-34.1	12.4	1.14e-04	0	43	102	1048576	21	5385
2026-01-07 12:24:59.96	269.30	17.00	-30.6	-34.3	12.3	1.59e-04	0	43	102	1048576	21	5467
2026-01-07 12:25:00.97	269.53	17.01	-30.6	-34.3	12.3	2.16e-04	0	43	102	1048576	21	5467
2026-01-07 12:25:01.98	269.75	17.03	-30.7	-34.6	12.1	2.21e-04	0	43	102	1048576	21	5600
2026-01-07 12:25:02.98	269.98	17.04	-30.7	-34.4	12.2	2.33e-04	0	43	102	1048576	21	5527
2026-01-07 12:25:03.99	270.21	17.05	-30.9	-35.0	11.8	3.48e-04	0	43	102	1048576	21	5767
2026-01-07 12:25:05.00	270.44	17.07	-30.6	-34.2	12.3	3.28e-04	0	43	102	1048576	21	5443
2026-01-07 12:25:06.00	270.66	17.08	-30.3	-33.4	12.8	6.94e-05	0	43	102	1048576	21	5140
2026-01-07 12:25:07.01	270.89	17.09	-30.1	-32.8	13.3	3.12e-05	0	43	102	1048576	21	4905
2026-01-07 12:25:08.01	271.12	17.10	-30.0	-32.5	13.4	1.60e-05	0	43	102	1048576	21	4793
2026-01-07 12:25:09.02	271.35	17.11	-30.1	-32.6	13.5	1.06e-05	0	43	102	1048576	21	4824
2026-01-07 12:25:10.03	271.58	17.12	-30.0	-32.4	13.6	1.14e-05	0	43	102	1048576	21	4765
2026-01-07 12:25:11.04	271.81	17.13	-30.0	-32.5	13.5	6.10e-06	0	43	102	1048576	21	4782
2026-01-07 12:25:12.05	272.04	17.14	-30.1	-32.7	13.4	1.22e-05	0	43	102	1048576	21	4868
2026-01-07 12:25:13.06	272.27	17.15	-30.1	-32.6	13.4	1.75e-05	0	43	102	1048576	21	4826
2026-01-07 12:25:14.07	272.50	17.16	-30.1	-32.7	13.3	1.83e-05	0	43	102	1048576	21	4862
2026-01-07 12:25:15.08	272.73	17.17	-30.2	-32.9	13.2	2.05e-05	0	43	102	1048576	21	4943
2026-01-07 12:25:16.09	272.96	17.17	-30.3	-33.2	13.0	2.74e-05	0	43	102	1048576	21	5041
2026-01-07 12:25:17.09	273.18	17.18	-30.4	-33.7	12.7	4.04e-05	0	43	102	1048576	21	5228
2026-01-07 12:25:18.10	273.41	17.19	-30.5	-33.8	12.6	8.39e-05	0	43	102	1048576	21	5267
2026-01-07 12:25:19.10	273.64	17.19	-30.5	-34.0	12.5	1.30e-04	0	43	102	1048576	21	5363
2026-01-07 12:25:20.11	273.87	17.20	-30.5	-34.0	12.5	1.04e-04	0	43	102	1048576	21	5355
2026-01-07 12:25:21.12	274.10	17.21	-30.6	-34.0	12.5	1.23e-04	0	43	102	1048576	21	5372
2026-01-07 12:25:22.12	274.33	17.21	-30.6	-34.1	12.4	1.29e-04	0	43	102	1048576	21	5407
2026-01-07 12:25:23.13	274.56	17.22	-30.5	-34.0	12.4	1.33e-04	0	43	102	1048576	21	5365
2026-01-07 12:25:24.13	274.79	17.22	-30.6	-34.0	12.4	1.45e-04	0	43	102	1048576	21	5369
2026-01-07 12:25:25.14	275.02	17.22	-30.4	-33.7	12.6	9.84e-05	0	43	102	1048576	21	5246
2026-01-07 12:25:26.15	275.25	17.23	-30.3	-33.4	12.9	4.42e-05	0	43	102	1048576	21	5112
2026-01-07 12:25:27.15	275.48	17.23	-30.3	-33.4	12.9	4.04e-05	0	43	102	1048576	21	5111
2026-01-07 12:25:28.16	275.71	17.23	-30.4	-33.5	12.8	4.65e-05	0	43	102	1048576	21	5152
2026-01-07 12:25:29.16	275.94	17.23	-30.5	-33.9	12.5	1.10e-04	0	43	102	1048576	21	5336
2026-01-07 12:25:30.17	276.17	17.24	-30.4	-33.5	12.8	7.93e-05	0	43	102	1048576	21	5151
2026-01-07 12:25:31.18	276.40	17.24	-30.3	-33.3	13.0	4.88e-05	0	43	102	1048576	21	5082
2026-01-07 12:25:32.18	276.63	17.24	-30.3	-33.4	12.9	4.11e-05	0	43	102	1048576	21	5112
2026-01-07 12:25:33.19	276.86	17.24	-30.4	-33.6	12.7	5.64e-05	0	43	102	1048576	21	5191
2026-01-07 12:25:34.20	277.09	17.24	-30.4	-33.5	12.8	5.95e-05	0	43	102	1048576	21	5169
2026-01-07 12:25:35.21	277.32	17.24	-30.4	-33.7	12.7	6.56e-05	0	43	102	1048576	21	5231
2026-01-07 12:25:36.21	277.55	17.24	-30.4	-33.5	12.8	5.03e-05	0	43	102	1048576	21	5150
2026-01-07 12:25:37.22	277.78	17.23	-30.4	-33.5	12.8	4.50e-05	0	43	102	1048576	21	5178
2026-01-07 12:25:38.23	278.01	17.23	-30.4	-33.6	12.7	6.79e-05	0	43	102	1048576	21	5211
2026-01-07 12:25:39.24	278.24	17.23	-30.5	-33.8	12.6	9.30e-05	0	43	102	1048576	21	5262
2026-01-07 12:25:40.25	278.47	17.23	-30.3	-33.3	12.9	6.40e-05	0	43	102	1048576	21	5071
2026-01-07 12:25:41.26	278.70	17.22	-30.2	-32.9	13.2	4.42e-05	0	43	102	1048576	21	4948
2026-01-07 12:25:42.27	278.94	17.22	-30.1	-32.7	13.3	1.90e-05	0	43	102	1048576	21	4866
2026-01-07 12:25:43.28	279.17	17.22	-30.1	-32.7	13.4	1.67e-05	0	43	102	1048576	21	4850
2026-01-07 12:25:44.28	279.39	17.21	-30.0	-32.6	13.4	1.83e-05	0	43	102	1048576	21	4833
2026-01-07 12:25:45.30	279.63	17.21	-30.2	-32.9	13.2	2.13e-05	0	43	102	1048576	21	4944
2026-01-07 12:25:46.31	279.86	17.20	-30.3	-33.3	12.9	3.35e-05	0	43	102	1048576	21	5081
2026-01-07 12:25:47.30	280.08	17.19	-30.2	-33.1	13.0	3.73e-05	0	43	102	1048576	21	5020
2026-01-07 12:25:48.31	280.31	17.19	-30.3	-33.2	13.0	4.50e-05	0	43	102	1048576	21	5050
2026-01-07 12:25:49.32	280.54	17.18	-30.3	-33.2	13.0	3.89e-05	0	43	102	1048576	21	5033
2026-01-07 12:25:50.33	280.77	17.17	-30.2	-33.1	13.1	3.35e-05	0	43	102	1048576	21	5021
2026-01-07 12:25:51.34	281.00	17.17	-30.2	-33.1	13.1	3.35e-05	0	43	102	1048576	21	5009
2026-01-07 12:25:52.35	281.23	17.16	-30.2	-33.1	13.1	3.20e-05	0	43	102	1048576	21	5018
2026-01-07 12:25:53.35	281.46	17.15	-30.2	-32.9	13.2	2.74e-05	0	43	102	1048576	21	4935
2026-01-07 12:25:54.36	281.69	17.14	-30.2	-32.9	13.1	2.51e-05	0	43	102	1048576	21	4954
2026-01-07 12:25:55.37	281.92	17.13	-30.2	-33.1	13.1	2.74e-05	0	43	102	1048576	21	5019
2026-01-07 12:25:56.37	282.15	17.12	-30.3	-33.3	12.9	3.66e-05	0	43	102	1048576	21	5086
2026-01-07 12:25:57.37	282.37	17.11	-30.4	-33.5	12.8	5.11e-05	0	43	102	1048576	21	5154
2026-01-07 12:25:58.38	282.60	17.10	-30.3	-33.4	12.9	6.17e-05	0	43	102	1048576	21	5121
2026-01-07 12:25:59.39	282.83	17.09	-30.4	-33.7	12.7	5.34e-05	0	43	102	1048576	21	5231
2026-01-07 12:26:00.40	283.06	17.08	-30.4	-33.7	12.7	8.23e-05	0	43	102	1048576	21	5236
2026-01-07 12:26:01.41	283.29	17.07	-30.3	-33.3	12.9	5.26e-05	0	43	102	1048576	21	5098
2026-01-07 12:26:02.41	283.51	17.05	-30.3	-33.4	12.9	4.95e-05	0	43	102	1048576	21	5115
2026-01-07 12:26:03.42	283.74	17.04	-30.3	-33.4	12.9	4.73e-05	0	43	102	1048576	21	5129
2026-01-07 12:26:04.43	283.97	17.03	-30.4	-33.7	12.7	5.72e-05	0	43	102	1048576	21	5223
2026-01-07 12:26:05.44	284.20	17.01	-30.5	-33.9	12.5	1.08e-04	0	43	102	1048576	21	5328
2026-01-07 12:26:06.45	284.42	17.00	-30.4	-33.7	12.7	8.54e-05	0	43	102	1048576	21	5223
2026-01-07 12:26:07.45	284.65	16.98	-30.4	-33.5	12.8	7.40e-05	0	43	102	1048576	21	5175
2026-01-07 12:26:08.46	284.87	16.97	-30.3	-33.4	12.8	7.47e-05	0	43	102	1048576	21	5134
2026-01-07 12:26:09.46	285.10	16.95	-30.3	-33.4	12.9	5.18e-05	0	43	102	1048576	21	5115
2026-01-07 12:26:10.47	285.33	16.94	-30.3	-33.2	13.0	4.11e-05	0	43	102	1048576	21	5059
2026-01-07 12:26:11.48	285.55	16.92	-30.3	-33.3	13.0	4.65e-05	0	43	102	1048576	21	5071
2026-01-07 12:26:12.48	285.78	16.91	-30.4	-33.5	12.8	5.26e-05	0	43	102	1048576	21	5172
2026-01-07 12:26:13.49	286.00	16.89	-30.4	-33.5	12.7	9.00e-05	0	43	102	1048576	21	5167
2026-01-07 12:26:14.50	286.23	16.87	-30.3	-33.2	13.0	3.89e-05	0	44	102	1048576	21	5047
2026-01-07 12:26:15.51	286.45	16.85	-30.2	-33.0	13.1	2.59e-05	0	43	102	1048576	21	4985
2026-01-07 12:26:16.52	286.68	16.84	-30.3	-33.2	13.0	3.20e-05	0	43	102	1048576	21	5069
2026-01-07 12:26:17.51	286.90	16.82	-30.3	-33.4	12.8	5.49e-05	0	43	102	1048576	21	5126
2026-01-07 12:26:18.52	287.12	16.80	-30.3	-33.4	12.9	4.57e-05	0	43	102	1048576	21	5113
2026-01-07 12:26:19.53	287.35	16.78	-30.4	-33.6	12.7	6.02e-05	0	43	102	1048576	21	5192
2026-01-07 12:26:20.54	287.57	16.76	-30.5	-33.9	12.5	6.86e-05	0	43	102	1048576	21	5334
2026-01-07 12:26:21.55	287.79	16.74	-30.4	-33.7	12.6	1.14e-04	0	43	102	1048576	21	5251
2026-01-07 12:26:22.55	288.01	16.72	-30.3	-33.2	12.9	6.79e-05	0	43	102	1048576	21	5066
2026-01-07 12:26:23.56	288.24	16.70	-30.1	-32.8	13.2	2.05e-05	0	43	102	1048576	21	4900
2026-01-07 12:26:24.57	288.46	16.68	-30.1	-32.7	13.3	1.60e-05	0	43	102	1048576	21	4875
2026-01-07 12:26:25.57	288.68	16.65	-30.0	-32.6	13.4	1.14e-05	0	43	102	1048576	21	4836
2026-01-07 12:26:26.58	288.90	16.63	-30.1	-32.8	13.2	1.75e-05	0	43	102	1048576	21	4901
2026-01-07 12:26:27.59	289.12	16.61	-30.1	-32.8	13.2	2.51e-05	0	43	102	1048576	21	4897
2026-01-07 12:26:28.59	289.34	16.59	-29.9	-32.2	13.6	7.60e-06	0	43	102	1048576	21	4702
2026-01-07 12:26:29.60	289.56	16.56	-29.8	-31.9	13.8	3.00e-06	0	43	102	1048576	21	4593
2026-01-07 12:26:30.61	289.78	16.54	-29.8	-32.3	13.9	2.20e-06	0	43	102	1048576	20	4827
2026-01-07 12:26:31.61	290.00	16.52	-29.7	-32.3	13.9	3.80e-06	0	43	102	1048576	20	4813
2026-01-07 12:26:32.62	290.22	16.49	-29.7	-32.1	14.0	3.00e-06	0	43	102	1048576	20	4772
2026-01-07 12:26:33.63	290.44	16.47	-29.7	-32.3	13.9	2.20e-06	0	43	102	1048576	20	4812
2026-01-07 12:26:34.64	290.66	16.44	-29.7	-32.3	13.9	0.00e+00	0	43	102	1048576	20	4819
2026-01-07 12:26:35.65	290.88	16.41	-29.8	-32.6	13.7	5.30e-06	0	43	102	1048576	20	4917
2026-01-07 12:26:36.66	291.10	16.39	-29.8	-32.5	13.7	6.80e-06	0	43	102	1048576	20	4897
2026-01-07 12:26:37.66	291.31	16.36	-29.7	-32.2	14.0	4.50e-06	0	43	102	1048576	20	4779
2026-01-07 12:26:38.67	291.53	16.34	-29.6	-31.9	14.1	1.50e-06	0	43	102	1048576	20	4700
2026-01-07 12:26:39.68	291.75	16.31	-29.6	-31.9	14.1	1.50e-06	0	43	102	1048576	20	4697
2026-01-07 12:26:40.68	291.96	16.28	-29.6	-31.9	14.2	3.80e-06	0	43	102	1048576	20	4696
2026-01-07 12:26:41.69	292.18	16.25	-29.7	-32.1	14.0	3.80e-06	0	43	102	1048576	20	4752
2026-01-07 12:26:42.70	292.39	16.23	-29.7	-32.2	13.9	4.50e-06	0	43	102	1048576	20	4802
2026-01-07 12:26:43.69	292.61	16.20	-29.8	-32.4	13.8	6.10e-06	0	43	102	1048576	20	4854
2026-01-07 12:26:44.70	292.82	16.17	-29.8	-32.5	13.7	7.60e-06	0	43	102	1048576	20	4893
2026-01-07 12:26:45.71	293.04	16.14	-29.9	-32.7	13.6	5.30e-06	0	43	102	1048576	20	4986
2026-01-07 12:26:46.72	293.25	16.11	-29.9	-32.7	13.6	1.06e-05	0	43	102	1048576	20	4971
2026-01-07 12:26:47.73	293.46	16.08	-29.8	-32.4	13.8	3.80e-06	0	43	102	1048576	20	4874
2026-01-07 12:26:48.74	293.68	16.05	-29.7	-32.3	13.9	7.00e-07	0	43	102	1048576	20	4825
2026-01-07 12:26:49.75	293.89	16.02	-29.8	-32.4	13.8	4.50e-06	0	43	102	1048576	20	4856
2026-01-07 12:26:50.75	294.10	15.99	-29.7	-32.1	14.0	3.00e-06	0	43	102	1048576	20	4759
2026-01-07 12:26:51.76	294.31	15.96	-29.5	-31.7	14.3	1.50e-06	0	43	102	1048576	20	4613
2026-01-07 12:26:52.77	294.53	15.93	-29.4	-31.5	14.4	7.00e-07	0	43	102	1048576	20	4548
2026-01-07 12:26:53.78	294.74	15.89	-29.5	-31.6	14.4	0.00e+00	0	43	102	1048576	20	4587
2026-01-07 12:26:54.78	294.95	15.86	-29.4	-31.3	14.5	0.00e+00	0	43	102	1048576	20	4483
2026-01-07 12:26:55.79	295.16	15.83	-29.3	-31.2	14.6	7.00e-07	0	43	102	1048576	20	4450
2026-01-07 12:26:56.79	295.37	15.80	-29.3	-31.6	14.7	0.00e+00	0	43	102	1048576	19	4706
2026-01-07 12:26:57.80	295.58	15.77	-29.3	-31.7	14.6	0.00e+00	0	43	102	1048576	19	4715
2026-01-07 12:26:58.81	295.78	15.73	-29.3	-31.7	14.7	7.00e-07	0	43	102	1048576	19	4714
2026-01-07 12:26:59.82	295.99	15.70	-29.4	-31.9	14.5	0.00e+00	0	43	102	1048576	19	4804
2026-01-07 12:27:00.83	296.20	15.66	-29.4	-32.0	14.5	0.00e+00	0	43	102	1048576	19	4814
2026-01-07 12:27:01.84	296.41	15.63	-29.6	-32.3	14.3	0.00e+00	0	43	102	1048576	19	4921
2026-01-07 12:27:02.84	296.61	15.60	-29.6	-32.4	14.2	1.50e-06	0	43	102	1048576	19	4972
2026-01-07 12:27:03.85	296.82	15.56	-29.7	-32.6	14.1	2.20e-06	0	43	102	1048576	19	5038
2026-01-07 12:27:04.85	297.03	15.53	-29.7	-32.8	13.9	7.00e-07	0	43	102	1048576	19	5099
2026-01-07 12:27:05.85	297.23	15.49	-29.7	-32.7	14.0	5.30e-06	0	43	102	1048576	19	5064
2026-01-07 12:27:06.86	297.44	15.45	-29.7	-32.6	14.1	3.80e-06	0	43	102	1048576	19	5023
2026-01-07 12:27:07.86	297.64	15.42	-29.7	-32.6	14.1	0.00e+00	0	43	102	1048576	19	5026
2026-01-07 12:27:08.86	297.84	15.38	-29.6	-32.4	14.2	0.00e+00	0	43	102	1048576	19	4966
2026-01-07 12:27:09.87	298.04	15.35	-29.7	-32.7	14.0	1.50e-06	0	43	102	1048576	19	5080
2026-01-07 12:27:10.88	298.25	15.31	-29.6	-32.4	14.2	1.50e-06	0	43	102	1048576	19	4960
2026-01-07 12:27:11.88	298.45	15.27	-29.4	-32.0	14.4	7.00e-07	0	43	102	1048576	19	4816
2026-01-07 12:27:12.89	298.65	15.23	-29.4	-32.0	14.4	7.00e-07	0	43	102	1048576	19	4823
2026-01-07 12:27:13.90	298.85	15.20	-29.4	-31.7	14.6	7.00e-07	0	43	102	1048576	19	4739
2026-01-07 12:27:14.91	299.06	15.16	-29.5	-32.0	14.4	1.50e-06	0	43	102	1048576	19	4829
2026-01-07 12:27:15.92	299.26	15.12	-29.5	-32.0	14.4	7.00e-07	0	43	102	1048576	19	4836
2026-01-07 12:27:16.92	299.45	15.08	-29.7	-32.7	14.0	0.00e+00	0	43	102	1048576	19	5062
2026-01-07 12:27:17.92	299.65	15.04	-29.7	-32.7	14.0	7.00e-07	0	43	102	1048576	19	5086
2026-01-07 12:27:18.93	299.85	15.00	-30.0	-32.9	13.5	1.50e-06	0	43	102	1048576	20	5061
2026-01-07 12:27:19.93	300.05	14.97	-29.9	-32.8	13.5	9.90e-06	0	43	102	1048576	20	5019
2026-01-07 12:27:20.94	300.25	14.93	-29.9	-32.7	13.6	6.80e-06	0	43	102	1048576	20	4990
2026-01-07 12:27:21.94	300.44	14.89	-30.0	-33.0	13.4	1.75e-05	0	43	102	1048576	20	5090
2026-01-07 12:27:22.94	300.64	14.85	-30.1	-33.2	13.2	1.60e-05	0	43	102	1048576	20	5181
2026-01-07 12:27:23.95	300.84	14.81	-29.9	-32.8	13.5	1.37e-05	0	43	102	1048576	20	5032
2026-01-07 12:27:24.95	301.03	14.77	-30.0	-33.0	13.4	9.90e-06	0	43	102	1048576	20	5084
2026-01-07 12:27:25.96	301.23	14.73	-29.9	-32.8	13.6	6.80e-06	0	43	102	1048576	20	5000
2026-01-07 12:27:26.97	301.42	14.68	-29.9	-32.9	13.5	6.80e-06	0	43	102	1048576	20	5046
2026-01-07 12:27:27.97	301.61	14.64	-29.9	-32.9	13.5	9.90e-06	0	43	102	1048576	20	5036
2026-01-07 12:27:28.98	301.81	14.60	-30.0	-32.9	13.5	1.06e-05	0	43	102	1048576	20	5053
2026-01-07 12:27:29.98	302.00	14.56	-29.9	-32.8	13.5	1.60e-05	0	43	102	1048576	20	5002
2026-01-07 12:27:30.98	302.19	14.52	-30.0	-33.2	13.3	2.28e-05	0	43	102	1048576	20	5154
2026-01-07 12:27:31.99	302.38	14.48	-29.9	-32.6	13.6	1.44e-05	0	43	102	1048576	20	4951
2026-01-07 12:27:32.94	302.57	14.44	-29.7	-32.2	13.9	6.10e-06	0	43	102	1048576	20	4815
2026-01-07 12:27:33.95	302.76	14.39	-29.6	-32.0	14.0	3.80e-06	0	43	102	1048576	20	4744
2026-01-07 12:27:34.95	302.95	14.35	-29.6	-32.0	14.0	3.80e-06	0	43	102	1048576	20	4736
2026-01-07 12:27:35.96	303.14	14.31	-29.7	-32.3	13.8	7.00e-07	0	43	102	1048576	20	4857
2026-01-07 12:27:36.97	303.33	14.27	-29.9	-32.8	13.5	7.60e-06	0	43	102	1048576	20	5031
2026-01-07 12:27:37.98	303.52	14.22	-30.1	-33.2	13.2	1.29e-05	0	43	102	1048576	20	5165
2026-01-07 12:27:38.98	303.70	14.18	-30.2	-33.6	13.0	2.21e-05	0	43	102	1048576	20	5337
2026-01-07 12:27:39.99	303.89	14.13	-30.4	-34.2	12.5	5.41e-05	0	43	102	1048576	20	5570
2026-01-07 12:27:40.99	304.08	14.09	-30.5	-34.0	12.3	1.38e-04	0	43	102	1048576	21	5376
2026-01-07 12:27:42.00	304.26	14.05	-30.7	-34.5	12.0	2.59e-04	0	44	102	1048576	21	5583
2026-01-07 12:27:43.01	304.45	14.00	-30.8	-34.9	11.7	4.14e-04	0	43	102	1048576	21	5751
2026-01-07 12:27:44.01	304.64	13.96	-30.8	-34.9	11.7	5.75e-04	0	43	102	1048576	21	5767
2026-01-07 12:27:45.01	304.82	13.91	-30.9	-35.1	11.5	6.08e-04	0	43	102	1048576	21	5879
2026-01-07 12:27:46.02	305.00	13.87	-31.0	-35.4	11.3	1.02e-03	0	43	102	1048576	21	6018
2026-01-07 12:27:47.03	305.19	13.82	-31.0	-35.4	11.3	1.05e-03	0	43	102	1048576	21	6007
2026-01-07 12:27:48.02	305.37	13.78	-31.0	-35.1	11.2	1.24e-03	0	43	102	1048576	22	5765
2026-01-07 12:27:49.03	305.55	13.73	-31.1	-35.5	10.9	1.81e-03	0	43	102	1048576	22	5920
2026-01-07 12:27:50.03	305.73	13.69	-31.1	-35.2	11.1	1.73e-03	0	43	102	1048576	22	5809
2026-01-07 12:27:51.04	305.92	13.64	-31.0	-35.1	11.2	1.37e-03	0	43	102	1048576	22	5748
2026-01-07 12:27:52.04	306.10	13.60	-31.1	-35.3	11.1	1.48e-03	0	43	102	1048576	22	5817
2026-01-07 12:27:53.05	306.28	13.55	-30.9	-34.7	11.5	1.14e-03	0	44	102	1048576	22	5549
2026-01-07 12:27:54.05	306.46	13.50	-30.8	-34.5	11.6	6.89e-04	0	43	102	1048576	22	5481
2026-01-07 12:27:55.05	306.64	13.46	-30.8	-34.5	11.6	5.87e-04	0	43	102	1048576	22	5484
2026-01-07 12:27:56.06	306.81	13.41	-30.9	-34.8	11.4	8.28e-04	0	43	102	1048576	22	5606
2026-01-07 12:27:57.07	306.99	13.36	-30.8	-34.2	11.8	6.68e-04	0	43	102	1048576	22	5369
2026-01-07 12:27:58.07	307.17	13.32	-30.9	-34.5	11.6	6.01e-04	0	44	102	1048576	22	5507
2026-01-07 12:27:59.08	307.35	13.27	-31.0	-35.0	11.3	1.05e-03	0	43	102	1048576	22	5693
2026-01-07 12:28:00.08	307.52	13.22	-30.9	-34.6	11.6	1.01e-03	0	43	102	1048576	22	5524
2026-01-07 12:28:01.09	307.70	13.17	-30.8	-34.5	11.6	6.61e-04	0	43	102	1048576	22	5490
2026-01-07 12:28:02.10	307.88	13.13	-30.9	-34.6	11.6	6.61e-04	0	43	102	1048576	22	5517
2026-01-07 12:28:03.11	308.05	13.08	-31.0	-34.9	11.3	9.01e-04	0	43	102	1048576	22	5682
2026-01-07 12:28:04.11	308.23	13.03	-31.2	-35.6	10.8	2.39e-03	0	44	102	1048576	22	6003
2026-01-07 12:28:05.11	308.40	12.98	-31.1	-35.4	11.0	2.06e-03	0	43	102	1048576	22	5894
2026-01-07 12:28:06.11	308.57	12.94	-31.3	-36.1	10.4	3.25e-03	0	44	102	1048576	22	6225
2026-01-07 12:28:07.12	308.75	12.89	-31.3	-36.0	10.5	4.32e-03	0	43	102	1048576	22	6180
2026-01-07 12:28:08.12	308.92	12.84	-31.4	-36.4	10.2	5.61e-03	0	43	102	1048576	22	6380
2026-01-07 12:28:09.13	309.09	12.79	-31.3	-36.1	10.4	5.18e-03	0	43	102	1048576	22	6263
2026-01-07 12:28:10.15	309.26	12.74	-31.4	-36.4	10.2	5.50e-03	0	43	102	1048576	22	6385
2026-01-07 12:28:11.15	309.43	12.69	-31.3	-35.9	10.6	4.08e-03	0	43	102	1048576	22	6144
2026-01-07 12:28:12.16	309.60	12.64	-31.1	-35.4	10.9	2.36e-03	0	44	102	1048576	22	5891
2026-01-07 12:28:13.16	309.77	12.59	-31.1	-35.2	11.1	1.74e-03	0	43	102	1048576	22	5797
2026-01-07 12:28:14.17	309.94	12.55	-31.0	-35.0	11.2	1.54e-03	0	44	102	1048576	22	5728
2026-01-07 12:28:15.17	310.11	12.50	-31.0	-35.0	11.2	1.41e-03	0	43	102	1048576	22	5724
2026-01-07 12:28:16.18	310.28	12.45	-30.9	-34.8	11.4	1.20e-03	0	43	102	1048576	22	5602
2026-01-07 12:28:17.19	310.44	12.40	-30.8	-34.5	11.6	7.19e-04	0	43	102	1048576	22	5476
2026-01-07 12:28:18.19	310.61	12.35	-30.9	-34.5	11.6	6.27e-04	0	43	102	1048576	22	5498
2026-01-07 12:28:19.20	310.78	12.30	-30.9	-34.6	11.5	7.39e-04	0	43	102	1048576	22	5555
2026-01-07 12:28:20.21	310.94	12.25	-30.9	-34.6	11.5	8.18e-04	0	43	102	1048576	22	5530
2026-01-07 12:28:21.21	311.11	12.20	-30.7	-34.2	11.8	5.78e-04	0	43	102	1048576	22	5383
2026-01-07 12:28:22.22	311.27	12.15	-30.6	-33.7	12.1	3.42e-04	0	44	102	1048576	22	5165
2026-01-07 12:28:23.22	311.44	12.10	-30.5	-33.5	12.3	2.02e-04	0	43	102	1048576	22	5079
2026-01-07 12:28:24.22	311.60	12.05	-30.5	-33.4	12.4	1.66e-04	0	43	102	1048576	22	5021
2026-01-07 12:28:25.23	311.76	12.00	-30.2	-33.1	12.8	8.62e-05	0	43	102	1048576	21	5047
2026-01-07 12:28:26.24	311.93	11.95	-30.2	-33.2	12.8	6.17e-05	0	43	102	1048576	21	5088
2026-01-07 12:28:27.25	312.09	11.89	-30.2	-33.2	12.8	6.86e-05	0	43	102	1048576	21	5068
2026-01-07 12:28:28.26	312.25	11.84	-30.3	-33.3	12.7	6.25e-05	0	43	102	1048576	21	5106
2026-01-07 12:28:29.26	312.41	11.79	-30.3	-33.5	12.6	8.85e-05	0	43	102	1048576	21	5175
2026-01-07 12:28:30.27	312.57	11.74	-30.4	-33.6	12.5	9.68e-05	0	43	102	1048576	21	5231
2026-01-07 12:28:31.27	312.73	11.69	-30.5	-33.9	12.3	1.49e-04	0	43	102	1048576	21	5363
2026-01-07 12:28:32.27	312.89	11.64	-30.5	-34.1	12.1	2.70e-04	0	44	102	1048576	21	5419
2026-01-07 12:28:33.27	313.05	11.59	-30.5	-34.0	12.2	2.15e-04	0	43	102	1048576	21	5385
2026-01-07 12:28:34.28	313.20	11.54	-30.6	-34.3	12.0	2.94e-04	0	43	102	1048576	21	5511
2026-01-07 12:28:35.29	313.36	11.49	-30.6	-34.4	11.9	3.65e-04	0	43	102	1048576	21	5578
2026-01-07 12:28:36.30	313.52	11.44	-30.7	-34.7	11.7	4.81e-04	0	43	102	1048576	21	5674
2026-01-07 12:28:37.30	313.68	11.38	-30.7	-34.8	11.6	6.09e-04	0	43	102	1048576	21	5734
2026-01-07 12:28:38.31	313.83	11.33	-30.8	-34.9	11.6	6.35e-04	0	43	102	1048576	21	5790
2026-01-07 12:28:39.31	313.99	11.28	-30.8	-35.0	11.5	9.01e-04	0	43	102	1048576	21	5832
2026-01-07 12:28:40.32	314.14	11.23	-30.8	-35.0	11.5	8.81e-04	0	43	102	1048576	21	5828
2026-01-07 12:28:41.33	314.30	11.18	-30.8	-34.9	11.5	8.05e-04	0	43	102	1048576	21	5788
2026-01-07 12:28:42.34	314.45	11.12	-30.7	-34.7	11.7	6.84e-04	0	43	102	1048576	21	5699
2026-01-07 12:28:43.33	314.60	11.07	-30.7	-34.7	11.7	6.17e-04	0	43	102	1048576	21	5691
2026-01-07 12:28:44.34	314.76	11.02	-30.7	-34.8	11.6	7.09e-04	0	43	102	1048576	21	5746
2026-01-07 12:28:45.34	314.91	10.97	-30.7	-34.8	11.6	5.76e-04	0	43	102	1048576	21	5726
2026-01-07 12:28:46.35	315.06	10.92	-30.7	-34.8	11.6	8.96e-04	0	43	102	1048576	21	5754
2026-01-07 12:28:47.35	315.21	10.87	-30.4	-33.7	12.3	2.42e-04	0	43	102	1048576	21	5293
2026-01-07 12:28:48.35	315.36	10.81	-30.2	-33.2	12.7	8.54e-05	0	44	102	1048576	21	5089
2026-01-07 12:28:49.36	315.51	10.76	-30.2	-33.1	12.7	6.40e-05	0	43	102	1048576	21	5060
2026-01-07 12:28:50.37	315.66	10.71	-30.2	-33.1	12.8	4.73e-05	0	43	102	1048576	21	5043
2026-01-07 12:28:51.37	315.81	10.66	-30.3	-33.6	12.5	1.18e-04	0	43	102	1048576	21	5229
2026-01-07 12:28:52.38	315.96	10.60	-30.3	-33.5	12.5	1.32e-04	0	43	102	1048576	21	5198
2026-01-07 12:28:53.38	316.10	10.55	-30.3	-33.6	12.5	1.17e-04	0	43	102	1048576	21	5229
2026-01-07 12:28:54.39	316.25	10.50	-30.4	-33.8	12.3	2.12e-04	0	43	102	1048576	21	5315
2026-01-07 12:28:55.40	316.40	10.45	-30.4	-33.7	12.3	1.69e-04	0	44	102	1048576	21	5294
2026-01-07 12:28:56.41	316.55	10.39	-30.5	-34.0	12.1	1.83e-04	0	44	102	1048576	21	5411
2026-01-07 12:28:57.41	316.69	10.34	-30.5	-34.2	12.0	3.50e-04	0	43	102	1048576	21	5499
2026-01-07 12:28:58.41	316.84	10.29	-30.4	-33.9	12.3	1.76e-04	0	44	102	1048576	21	5343
2026-01-07 12:28:59.42	316.98	10.23	-30.4	-33.9	12.2	1.88e-04	0	44	102	1048576	21	5356
2026-01-07 12:29:00.43	317.13	10.18	-30.5	-34.1	12.0	2.32e-04	0	43	102	1048576	21	5450
2026-01-07 12:29:01.44	317.27	10.13	-30.6	-34.3	11.9	5.33e-04	0	43	102	1048576	21	5529
2026-01-07 12:29:02.44	317.42	10.08	-30.4	-33.9	12.2	3.08e-04	0	43	102	1048576	21	5359
2026-01-07 12:29:03.45	317.56	10.02	-30.4	-33.9	12.1	2.68e-04	0	43	102	1048576	21	5383
2026-01-07 12:29:04.46	317.70	9.97	-30.5	-34.0	12.1	2.46e-04	0	43	102	1048576	21	5415
2026-01-07 12:29:05.47	317.84	9.92	-30.5	-34.0	12.1	2.78e-04	0	43	102	1048576	21	5421
2026-01-07 12:29:06.47	317.99	9.86	-30.5	-34.3	11.9	2.58e-04	0	43	102	1048576	21	5515
2026-01-07 12:29:07.48	318.13	9.81	-30.6	-34.3	11.9	4.75e-04	0	43	102	1048576	21	5537
2026-01-07 12:29:08.48	318.27	9.76	-30.3	-33.6	12.4	2.23e-04	0	43	102	1048576	21	5249
2026-01-07 12:29:09.49	318.41	9.70	-30.2	-33.3	12.6	1.48e-04	0	43	102	1048576	21	5128
2026-01-07 12:29:10.49	318.55	9.65	-30.2	-33.1	12.7	8.62e-05	0	43	102	1048576	21	5056
2026-01-07 12:29:11.50	318.69	9.60	-30.1	-33.0	12.8	5.79e-05	0	43	102	1048576	21	5001
2026-01-07 12:29:12.52	318.83	9.54	-30.2	-33.1	12.7	7.01e-05	0	43	102	1048576	21	5055
2026-01-07 12:29:13.52	318.96	9.49	-30.1	-33.1	12.7	7.78e-05	0	43	102	1048576	21	5035
2026-01-07 12:29:14.53	319.10	9.44	-30.4	-33.8	12.2	1.46e-04	0	43	102	1048576	21	5342
2026-01-07 12:29:15.54	319.24	9.38	-30.3	-33.7	12.2	2.79e-04	0	43	102	1048576	21	5290
2026-01-07 12:29:16.54	319.37	9.33	-30.4	-33.9	12.1	1.90e-04	0	43	102	1048576	21	5367
2026-01-07 12:29:17.55	319.51	9.27	-30.4	-33.9	12.1	2.16e-04	0	43	102	1048576	21	5373
2026-01-07 12:29:18.55	319.65	9.22	-30.5	-34.1	12.0	3.57e-04	0	43	102	1048576	21	5457
2026-01-07 12:29:19.56	319.78	9.17	-30.5	-34.1	12.0	3.17e-04	0	43	102	1048576	21	5471
2026-01-07 12:29:20.57	319.92	9.11	-30.5	-34.2	11.8	4.63e-04	0	43	102	1048576	21	5524
2026-01-07 12:29:21.57	320.05	9.06	-30.5	-34.1	11.9	4.90e-04	0	43	102	1048576	21	5464
2026-01-07 12:29:22.57	320.18	9.01	-30.4	-34.0	12.0	3.89e-04	0	43	102	1048576	21	5408
2026-01-07 12:29:23.58	320.32	8.95	-30.4	-33.8	12.2	2.78e-04	0	43	102	1048576	21	5331
2026-01-07 12:29:24.58	320.45	8.90	-30.4	-33.9	12.1	2.70e-04	0	43	102	1048576	21	5365
2026-01-07 12:29:25.59	320.58	8.85	-30.4	-33.8	12.1	3.03e-04	0	43	102	1048576	21	5358
2026-01-07 12:29:26.59	320.71	8.79	-30.4	-33.9	12.0	2.11e-04	0	43	102	1048576	21	5400
2026-01-07 12:29:27.60	320.84	8.74	-30.4	-34.0	12.0	3.26e-04	0	43	102	1048576	21	5404
2026-01-07 12:29:28.61	320.98	8.69	-30.3	-33.7	12.2	2.55e-04	0	43	102	1048576	21	5316
2026-01-07 12:29:29.62	321.11	8.63	-30.4	-33.9	12.0	2.43e-04	0	43	102	1048576	21	5374
2026-01-07 12:29:30.62	321.24	8.58	-30.5	-34.1	11.9	3.63e-04	0	43	102	1048576	21	5478
2026-01-07 12:29:31.63	321.37	8.52	-30.5	-34.3	11.7	5.01e-04	0	43	102	1048576	21	5560
2026-01-07 12:29:32.64	321.50	8.47	-30.7	-34.9	11.3	8.15e-04	0	43	102	1048576	21	5817
2026-01-07 12:29:33.64	321.62	8.42	-30.7	-34.9	11.3	1.24e-03	0	43	102	1048576	21	5822
2026-01-07 12:29:34.65	321.75	8.36	-30.8	-35.1	11.2	1.11e-03	0	43	102	1048576	21	5904
2026-01-07 12:29:35.66	321.88	8.31	-30.7	-34.9	11.3	1.30e-03	0	43	102	1048576	21	5845
2026-01-07 12:29:36.67	322.01	8.26	-30.7	-34.9	11.3	1.21e-03	0	44	102	1048576	21	5848
2026-01-07 12:29:37.67	322.13	8.20	-30.7	-35.0	11.2	1.33e-03	0	44	102	1048576	21	5884
2026-01-07 12:29:38.68	322.26	8.15	-30.8	-35.1	11.2	1.46e-03	0	43	102	1048576	21	5901
2026-01-07 12:29:39.68	322.39	8.09	-30.8	-35.1	11.2	1.51e-03	0	44	102	1048576	21	5916
2026-01-07 12:29:40.70	322.51	8.04	-30.8	-35.3	11.0	1.77e-03	0	43	102	1048576	21	6012
2026-01-07 12:29:41.70	322.64	7.99	-30.8	-35.1	11.1	1.85e-03	0	43	102	1048576	21	5942
2026-01-07 12:29:42.70	322.76	7.93	-30.7	-35.0	11.2	1.39e-03	0	43	102	1048576	21	5878
2026-01-07 12:29:43.70	322.88	7.88	-30.8	-35.0	11.1	1.66e-03	0	44	102	1048576	21	5901
2026-01-07 12:29:44.70	323.01	7.83	-30.9	-35.7	10.6	2.73e-03	0	43	102	1048576	21	6225
2026-01-07 12:29:45.71	323.13	7.77	-31.0	-35.8	10.6	3.21e-03	0	43	102	1048576	21	6258
2026-01-07 12:29:46.72	323.25	7.72	-31.0	-35.5	10.4	4.09e-03	0	43	102	1048576	22	6036
2026-01-07 12:29:47.73	323.38	7.66	-31.2	-36.1	10.0	6.65e-03	0	43	102	1048576	22	6339
2026-01-07 12:29:48.73	323.50	7.61	-31.2	-35.9	10.1	8.28e-03	0	43	102	1048576	22	6229
2026-01-07 12:29:49.74	323.62	7.56	-31.1	-35.7	10.3	5.63e-03	0	43	102	1048576	22	6127
2026-01-07 12:29:50.75	323.74	7.50	-31.0	-35.4	10.5	4.02e-03	0	43	102	1048576	22	5955
2026-01-07 12:29:51.76	323.86	7.45	-30.9	-35.1	10.7	3.52e-03	0	44	102	1048576	22	5836
2026-01-07 12:29:52.76	323.98	7.40	-31.0	-35.3	10.6	3.27e-03	0	43	102	1048576	22	5921
2026-01-07 12:29:53.77	324.10	7.34	-30.9	-35.2	10.6	3.41e-03	0	43	102	1048576	22	5900
2026-01-07 12:29:54.78	324.22	7.29	-31.1	-35.7	10.2	4.39e-03	0	43	102	1048576	22	6144
2026-01-07 12:29:55.79	324.34	7.23	-31.0	-35.4	10.4	6.17e-03	0	43	102	1048576	22	5976
2026-01-07 12:29:56.80	324.46	7.18	-30.8	-34.9	10.8	3.20e-03	0	43	102	1048576	22	5750
2026-01-07 12:29:57.81	324.58	7.13	-30.8	-34.7	11.0	2.13e-03	0	43	102	1048576	22	5636
2026-01-07 12:29:58.81	324.70	7.07	-30.9	-35.2	10.6	2.54e-03	0	43	102	1048576	22	5892
2026-01-07 12:29:59.82	324.81	7.02	-33.2	-46.8	3.8	2.66e-01	0	44	104	1048576	26	17339
2026-01-07 12:30:00.82	324.93	6.97	-33.5	-48.0	3.8	1.49e+00	0	44	104	1048576	26	19189
2026-01-07 12:30:01.83	325.05	6.91	-33.7	-48.0	3.8	1.49e+00	0	44	104	1048576	27	18587

#Closed at: 2026-01-07 12:30:02
#Recorded file [1 MB]: D:/data/31010_260107_152109.dat