passes_logs/2026/01/07/R2M6_AANII_01/R2M6_AANII_01__20260107_101731_SUOMI_NPP_rec.log

#Pass ID: 20260107_101731_SUOMI NPP
#Satellite: SUOMI NPP
#Configuration: NPP
#almurnet v.1.7.20240730
#Start time: 2026-01-07 10:20:12

#Version: 2.2.20231116
#Station: R2M6_AANII_01
#Location: 30.233357 lon 59.946436 lat
#TLE: 1 37849U 11061A   26005.94084933  .00000134  00000+0  84554-4 0  9990
#TLE: 2 37849  98.7803 308.0679 0002567  79.1029 281.0436 14.19522657735426

#Time	Az	El	Level	Level2	SNR	BER	BlckErr	Temp	State	Recorded	gain1	gain2
2026-01-07 10:20:12.26	156.52	24.34	-34.0	-53.5	3.8	7.42e-01	0	43	0	0	28	34143
2026-01-07 10:20:13.26	156.51	24.50	-34.1	-45.9	3.8	1.49e+00	0	43	104	0	29	14001
2026-01-07 10:20:14.27	156.50	24.65	-34.1	-45.9	3.8	1.49e+00	0	43	104	0	29	14024
2026-01-07 10:20:15.27	156.49	24.81	-34.1	-45.9	3.8	1.49e+00	0	44	104	0	29	14049
2026-01-07 10:20:16.28	156.48	24.97	-34.1	-46.0	3.8	1.49e+00	0	43	104	0	29	14074
2026-01-07 10:20:17.28	156.47	25.13	-34.1	-46.0	3.8	1.49e+00	0	43	104	0	29	14142
2026-01-07 10:20:18.29	156.46	25.30	-34.1	-46.0	3.8	1.49e+00	0	43	104	0	29	14075
2026-01-07 10:20:19.30	156.46	25.46	-34.1	-46.0	3.8	1.49e+00	0	43	104	0	29	14125
2026-01-07 10:20:20.31	156.45	25.63	-34.1	-45.9	3.8	1.49e+00	0	43	104	0	29	14088
2026-01-07 10:20:21.31	156.44	25.79	-34.1	-46.0	3.8	1.49e+00	0	43	104	0	29	14109
2026-01-07 10:20:22.32	156.43	25.96	-34.1	-46.0	3.8	1.49e+00	0	43	104	0	29	14085
2026-01-07 10:20:23.32	156.42	26.12	-34.1	-46.0	3.8	1.49e+00	0	43	104	0	29	14117
2026-01-07 10:20:24.33	156.41	26.29	-34.1	-46.0	3.8	1.49e+00	0	43	104	0	29	14091
2026-01-07 10:20:25.34	156.40	26.46	-34.1	-46.0	3.8	1.49e+00	0	43	104	0	29	14070
2026-01-07 10:20:26.34	156.39	26.63	-34.1	-46.0	3.8	1.49e+00	0	43	104	0	29	14109
2026-01-07 10:20:27.35	156.37	26.80	-34.1	-46.0	3.8	1.49e+00	0	43	104	0	29	14092
2026-01-07 10:20:28.36	156.36	26.98	-34.1	-45.9	3.8	1.49e+00	0	43	104	0	29	14055
2026-01-07 10:20:29.37	156.35	27.15	-34.2	-46.0	3.8	1.49e+00	0	43	104	0	29	14149
2026-01-07 10:20:30.37	156.34	27.33	-34.2	-46.2	3.8	1.49e+00	0	43	104	0	29	14258
2026-01-07 10:20:31.38	156.33	27.50	-34.3	-46.3	3.8	1.49e+00	0	43	104	0	29	14353
2026-01-07 10:20:32.38	156.32	27.68	-34.3	-46.3	3.8	1.49e+00	0	43	104	0	29	14428
2026-01-07 10:20:33.39	156.31	27.86	-34.3	-46.3	3.7	1.49e+00	0	43	104	0	29	14396
2026-01-07 10:20:34.40	156.30	28.04	-34.3	-46.3	3.8	1.49e+00	0	43	104	0	29	14314
2026-01-07 10:20:35.41	156.28	28.22	-34.2	-46.2	3.8	1.49e+00	0	43	104	0	29	14289
2026-01-07 10:20:36.42	156.27	28.40	-34.2	-46.1	3.8	1.49e+00	0	44	104	0	29	14234
2026-01-07 10:20:37.42	156.26	28.58	-34.1	-45.9	3.8	1.49e+00	0	44	104	0	29	14044
2026-01-07 10:20:38.43	156.25	28.77	-34.0	-45.8	3.8	1.49e+00	0	43	104	0	29	13953
2026-01-07 10:20:39.43	156.24	28.95	-33.9	-45.7	3.8	1.49e+00	0	43	104	0	29	13861
2026-01-07 10:20:40.43	156.22	29.14	-33.9	-45.5	3.8	1.49e+00	0	43	104	0	29	13741
2026-01-07 10:20:41.44	156.21	29.33	-33.8	-45.0	3.8	1.49e+00	0	44	104	0	29	13009
2026-01-07 10:20:42.44	156.20	29.51	-33.8	-44.7	3.8	1.49e+00	0	44	104	0	29	12621
2026-01-07 10:20:43.45	156.18	29.71	-33.8	-44.6	3.8	1.49e+00	0	44	104	0	29	12555
2026-01-07 10:20:44.46	156.17	29.90	-33.8	-44.8	3.8	1.49e+00	0	43	104	0	29	12739
2026-01-07 10:20:45.46	156.16	30.09	-33.8	-44.9	3.8	1.49e+00	0	43	104	0	29	12913
2026-01-07 10:20:46.47	156.14	30.28	-33.8	-45.1	3.8	1.49e+00	0	44	104	0	29	13183
2026-01-07 10:20:47.48	156.13	30.48	-33.8	-45.2	3.8	1.49e+00	0	44	104	0	29	13337
2026-01-07 10:20:48.48	156.11	30.68	-33.8	-45.3	3.8	1.49e+00	0	44	104	0	29	13464
2026-01-07 10:20:49.49	156.10	30.88	-33.8	-45.3	3.8	1.49e+00	0	43	104	0	29	13507
2026-01-07 10:20:50.50	156.08	31.08	-33.8	-45.3	3.8	1.49e+00	0	43	104	0	29	13446
2026-01-07 10:20:51.50	156.07	31.28	-33.8	-45.2	3.8	1.49e+00	0	43	104	0	29	13331
2026-01-07 10:20:52.51	156.05	31.48	-33.8	-45.1	3.8	1.49e+00	0	43	104	0	29	13211
2026-01-07 10:20:53.52	156.04	31.68	-33.8	-45.2	3.8	1.49e+00	0	44	104	0	29	13348
2026-01-07 10:20:54.52	156.02	31.89	-33.8	-45.3	3.8	1.49e+00	0	43	104	0	29	13515
2026-01-07 10:20:55.53	156.01	32.10	-33.8	-45.4	3.8	1.49e+00	0	43	104	0	29	13665
2026-01-07 10:20:56.54	155.99	32.30	-33.8	-45.3	3.8	1.49e+00	0	43	104	0	29	13551
2026-01-07 10:20:57.54	155.98	32.51	-33.8	-44.9	3.8	1.49e+00	0	43	104	0	29	12934
2026-01-07 10:20:58.55	155.96	32.72	-33.8	-44.6	3.8	1.49e+00	0	43	104	0	28	12612
2026-01-07 10:20:59.56	155.94	32.94	-33.6	-43.1	3.8	1.49e+00	0	44	104	0	28	10697
2026-01-07 10:21:00.56	155.92	33.15	-33.5	-41.1	4.0	1.48e+00	0	43	104	0	28	8661
2026-01-07 10:21:01.57	155.91	33.37	-33.3	-39.6	4.3	8.00e-01	0	43	104	0	27	7500
2026-01-07 10:21:02.58	155.89	33.58	-32.9	-37.5	6.7	1.34e+00	0	44	104	0	27	6093
2026-01-07 10:21:03.59	155.87	33.80	-32.5	-36.3	8.1	1.04e-01	0	44	0	0	26	5524
2026-01-07 10:21:04.60	155.85	34.03	-32.4	-35.5	8.8	7.59e-02	0	44	102	1048576	26	5166
2026-01-07 10:21:05.61	155.83	34.25	-32.2	-35.5	9.1	2.25e-02	0	43	102	1048576	25	5252
2026-01-07 10:21:06.60	155.82	34.47	-32.3	-35.9	8.9	1.46e-02	0	43	102	1048576	25	5427
2026-01-07 10:21:07.61	155.80	34.69	-32.1	-35.1	9.5	2.17e-02	0	43	102	1048576	25	5062
2026-01-07 10:21:08.62	155.78	34.92	-31.5	-33.5	11.0	4.02e-03	0	43	102	1048576	24	4539
2026-01-07 10:21:09.63	155.76	35.15	-31.2	-33.2	11.7	1.49e-03	0	43	102	1048576	23	4487
2026-01-07 10:21:10.64	155.74	35.38	-31.5	-33.9	11.0	1.16e-03	0	44	102	1048576	23	4774
2026-01-07 10:21:11.65	155.72	35.61	-31.4	-33.8	11.2	1.15e-03	0	44	102	1048576	23	4725
2026-01-07 10:21:12.66	155.70	35.85	-30.9	-32.3	12.3	5.74e-04	0	44	102	1048576	23	4199
2026-01-07 10:21:13.67	155.67	36.08	-30.7	-32.1	12.8	1.17e-04	0	43	102	1048576	22	4228
2026-01-07 10:21:14.67	155.65	36.32	-30.9	-32.6	12.4	1.21e-04	0	44	102	1048576	22	4373
2026-01-07 10:21:15.68	155.63	36.56	-30.9	-32.6	12.5	1.04e-04	0	43	102	1048576	22	4367
2026-01-07 10:21:16.68	155.61	36.80	-30.9	-32.5	12.5	1.04e-04	0	43	102	1048576	22	4350
2026-01-07 10:21:17.70	155.59	37.04	-30.6	-31.7	13.0	1.30e-04	0	44	102	1048576	22	4092
2026-01-07 10:21:18.70	155.56	37.28	-30.0	-30.8	13.9	5.30e-06	0	44	102	1048576	21	3921
2026-01-07 10:21:19.71	155.54	37.53	-29.6	-30.2	14.6	3.80e-06	0	43	102	1048576	20	3848
2026-01-07 10:21:20.72	155.52	37.78	-29.5	-29.9	14.8	0.00e+00	0	43	102	1048576	20	3762
2026-01-07 10:21:21.73	155.49	38.03	-29.6	-30.1	14.6	7.00e-07	0	44	102	1048576	20	3821
2026-01-07 10:21:22.73	155.47	38.28	-29.7	-30.3	14.6	0.00e+00	0	44	102	1048576	20	3882
2026-01-07 10:21:23.74	155.44	38.53	-29.6	-30.1	14.7	0.00e+00	0	43	102	1048576	20	3812
2026-01-07 10:21:24.74	155.42	38.79	-29.6	-30.2	14.6	0.00e+00	0	43	102	1048576	20	3833
2026-01-07 10:21:25.75	155.39	39.04	-29.6	-30.6	14.8	0.00e+00	0	43	102	1048576	19	4026
2026-01-07 10:21:26.76	155.36	39.30	-29.4	-30.2	15.0	0.00e+00	0	43	102	1048576	19	3920
2026-01-07 10:21:27.76	155.34	39.56	-29.1	-29.3	15.5	0.00e+00	0	44	102	1048576	19	3701
2026-01-07 10:21:28.77	155.31	39.83	-29.2	-29.6	15.3	0.00e+00	0	43	102	1048576	19	3771
2026-01-07 10:21:29.78	155.28	40.09	-29.2	-29.5	15.4	0.00e+00	0	43	102	1048576	19	3736
2026-01-07 10:21:30.78	155.25	40.36	-29.0	-29.2	15.6	0.00e+00	0	44	102	1048576	19	3668
2026-01-07 10:21:31.79	155.22	40.63	-29.4	-30.2	15.1	0.00e+00	0	44	102	1048576	19	3919
2026-01-07 10:21:32.79	155.19	40.89	-29.6	-30.5	14.8	0.00e+00	0	44	102	1048576	19	3998
2026-01-07 10:21:33.80	155.16	41.17	-29.4	-30.0	15.2	0.00e+00	0	44	102	1048576	19	3858
2026-01-07 10:21:34.81	155.13	41.44	-29.3	-30.0	14.9	0.00e+00	0	43	102	1048576	19	3919
2026-01-07 10:21:35.82	155.10	41.72	-29.5	-30.7	14.5	7.00e-07	0	44	102	1048576	19	4101
2026-01-07 10:21:36.82	155.07	42.00	-29.8	-31.5	14.0	2.20e-06	0	43	102	1048576	19	4369
2026-01-07 10:21:37.82	155.04	42.28	-29.6	-30.9	14.4	0.00e+00	0	43	102	1048576	19	4168
2026-01-07 10:21:38.83	155.00	42.56	-29.7	-30.8	14.0	3.00e-06	0	44	102	1048576	20	4072
2026-01-07 10:21:39.84	154.97	42.85	-29.8	-31.1	13.9	2.20e-06	0	43	102	1048576	20	4145
2026-01-07 10:21:40.85	154.94	43.14	-29.6	-30.5	14.3	1.50e-06	0	43	102	1048576	20	3972
2026-01-07 10:21:41.85	154.90	43.42	-29.4	-29.9	14.6	0.00e+00	0	43	102	1048576	20	3829
2026-01-07 10:21:42.86	154.86	43.72	-29.5	-30.2	14.4	7.00e-07	0	44	102	1048576	20	3908
2026-01-07 10:21:43.86	154.83	44.01	-29.8	-31.5	14.0	1.50e-06	0	43	102	1048576	19	4374
2026-01-07 10:21:44.87	154.79	44.31	-30.0	-31.6	13.6	7.00e-07	0	44	102	1048576	20	4307
2026-01-07 10:21:45.88	154.75	44.61	-30.0	-31.6	13.5	8.30e-06	0	44	102	1048576	20	4317
2026-01-07 10:21:46.88	154.71	44.90	-30.3	-32.2	13.2	8.30e-06	0	43	102	1048576	20	4517
2026-01-07 10:21:47.89	154.67	45.21	-30.1	-31.7	13.5	1.90e-05	0	43	102	1048576	20	4329
2026-01-07 10:21:48.89	154.63	45.51	-30.1	-31.8	13.3	9.10e-06	0	44	102	1048576	20	4346
2026-01-07 10:21:49.90	154.59	45.82	-30.3	-32.3	13.3	6.80e-06	0	43	102	1048576	20	4513
2026-01-07 10:21:50.91	154.55	46.13	-30.5	-32.3	12.9	2.28e-05	0	44	102	1048576	21	4436
2026-01-07 10:21:51.92	154.51	46.45	-30.9	-32.9	12.1	3.75e-04	0	44	102	1048576	22	4554
2026-01-07 10:21:52.93	154.46	46.76	-31.4	-34.6	10.9	1.28e-03	0	44	102	1048576	22	5216
2026-01-07 10:21:53.94	154.42	47.08	-31.7	-35.1	10.1	3.37e-03	0	44	102	1048576	23	5337
2026-01-07 10:21:54.95	154.37	47.40	-31.8	-35.8	9.6	7.61e-03	0	43	102	1048576	23	5692
2026-01-07 10:21:55.95	154.33	47.72	-31.7	-35.4	9.8	1.01e-02	0	44	102	1048576	23	5499
2026-01-07 10:21:56.96	154.28	48.04	-31.5	-34.6	10.3	5.31e-03	0	44	102	1048576	23	5158
2026-01-07 10:21:57.96	154.23	48.37	-31.4	-34.4	10.6	2.38e-03	0	43	102	1048576	23	5037
2026-01-07 10:21:58.97	154.18	48.70	-31.4	-34.2	10.8	1.95e-03	0	43	102	1048576	23	4941
2026-01-07 10:21:59.97	154.13	49.03	-31.0	-32.8	11.8	1.12e-03	0	44	102	1048576	23	4448
2026-01-07 10:22:00.98	154.07	49.36	-30.6	-32.1	12.7	1.13e-04	0	44	102	1048576	22	4276
2026-01-07 10:22:01.98	154.02	49.70	-30.2	-31.5	13.2	2.51e-05	0	44	102	1048576	21	4197
2026-01-07 10:22:02.99	153.96	50.04	-29.9	-31.0	13.6	1.22e-05	0	44	102	1048576	21	4046
2026-01-07 10:22:04.00	153.91	50.38	-29.5	-30.3	14.4	2.20e-06	0	44	102	1048576	20	3950
2026-01-07 10:22:05.01	153.85	50.73	-29.4	-30.6	14.6	0.00e+00	0	44	102	1048576	19	4087
2026-01-07 10:22:06.01	153.79	51.07	-29.0	-29.4	15.3	0.00e+00	0	43	102	1048576	19	3772
2026-01-07 10:22:07.02	153.73	51.42	-29.0	-29.5	15.3	0.00e+00	0	43	102	1048576	19	3816
2026-01-07 10:22:08.02	153.67	51.77	-29.4	-30.3	14.8	7.00e-07	0	43	102	1048576	19	4020
2026-01-07 10:22:09.03	153.60	52.12	-29.5	-30.6	14.6	0.00e+00	0	43	102	1048576	19	4109
2026-01-07 10:22:10.03	153.54	52.48	-30.0	-31.5	13.7	0.00e+00	0	44	102	1048576	20	4268
2026-01-07 10:22:11.03	153.47	52.84	-29.8	-30.9	14.1	0.00e+00	0	43	102	1048576	20	4076
2026-01-07 10:22:12.04	153.40	53.20	-29.8	-31.0	14.1	7.00e-07	0	43	102	1048576	20	4120
2026-01-07 10:22:13.05	153.33	53.56	-29.6	-30.4	14.4	7.00e-07	0	43	102	1048576	20	3941
2026-01-07 10:22:14.05	153.26	53.93	-29.5	-30.0	14.6	0.00e+00	0	44	102	1048576	20	3836
2026-01-07 10:22:15.06	153.19	54.30	-29.5	-29.9	14.8	0.00e+00	0	43	102	1048576	20	3779
2026-01-07 10:22:16.06	153.11	54.67	-30.1	-31.5	13.8	1.50e-06	0	44	102	1048576	20	4239
2026-01-07 10:22:17.07	153.03	55.05	-29.7	-30.4	14.5	0.00e+00	0	44	102	1048576	20	3917
2026-01-07 10:22:18.08	152.95	55.42	-29.4	-29.7	14.8	0.00e+00	0	44	102	1048576	20	3737
2026-01-07 10:22:19.08	152.87	55.80	-29.5	-30.5	14.8	0.00e+00	0	43	102	1048576	19	4035
2026-01-07 10:22:20.09	152.78	56.19	-29.6	-30.8	14.7	0.00e+00	0	44	102	1048576	19	4100
2026-01-07 10:22:21.10	152.69	56.57	-29.7	-31.0	14.6	0.00e+00	0	44	102	1048576	19	4162
2026-01-07 10:22:22.10	152.60	56.96	-30.0	-31.4	13.9	7.00e-07	0	43	102	1048576	20	4222
2026-01-07 10:22:23.10	152.51	57.35	-30.3	-32.2	13.4	5.30e-06	0	44	102	1048576	20	4488
2026-01-07 10:22:24.11	152.41	57.74	-30.7	-32.8	12.6	3.89e-05	0	44	102	1048576	21	4588
2026-01-07 10:22:25.11	152.31	58.13	-31.3	-34.0	11.4	5.84e-04	0	44	102	1048576	22	4932
2026-01-07 10:22:26.11	152.21	58.53	-31.5	-34.2	10.8	1.19e-03	0	44	102	1048576	23	4910
2026-01-07 10:22:27.12	152.11	58.93	-31.1	-33.1	11.7	6.85e-04	0	44	102	1048576	23	4521
2026-01-07 10:22:28.12	152.00	59.33	-30.9	-32.9	12.3	1.76e-04	0	44	102	1048576	22	4531
2026-01-07 10:22:29.12	151.89	59.73	-31.0	-33.3	11.9	3.30e-04	0	43	102	1048576	22	4708
2026-01-07 10:22:30.13	151.77	60.14	-31.4	-34.7	10.7	1.03e-03	0	43	102	1048576	22	5280
2026-01-07 10:22:31.14	151.65	60.56	-31.6	-34.8	10.4	3.52e-03	0	44	102	1048576	23	5194
2026-01-07 10:22:32.15	151.53	60.97	-31.3	-33.6	11.2	2.07e-03	0	43	102	1048576	23	4725
2026-01-07 10:22:33.16	151.40	61.39	-31.1	-33.2	11.6	1.03e-03	0	44	102	1048576	23	4562
2026-01-07 10:22:34.16	151.27	61.80	-31.0	-32.7	12.1	3.97e-04	0	44	102	1048576	23	4379
2026-01-07 10:22:35.17	151.13	62.23	-31.0	-32.7	12.0	3.95e-04	0	43	102	1048576	23	4381
2026-01-07 10:22:36.18	150.98	62.65	-30.4	-31.5	13.1	6.48e-05	0	44	102	1048576	22	4072
2026-01-07 10:22:37.18	150.84	63.07	-29.9	-30.5	14.1	6.80e-06	0	43	102	1048576	21	3862
2026-01-07 10:22:38.19	150.68	63.50	-29.9	-31.0	14.2	1.50e-06	0	43	102	1048576	20	4092
2026-01-07 10:22:39.20	150.52	63.93	-30.3	-32.0	13.5	4.50e-06	0	44	102	1048576	20	4402
2026-01-07 10:22:40.21	150.36	64.37	-30.0	-31.2	14.0	3.80e-06	0	44	102	1048576	20	4149
2026-01-07 10:22:41.20	150.19	64.80	-29.6	-30.1	14.7	7.00e-07	0	43	102	1048576	20	3846
2026-01-07 10:22:42.21	150.01	65.24	-29.6	-30.2	14.7	7.00e-07	0	43	102	1048576	20	3878
2026-01-07 10:22:43.21	149.83	65.67	-30.4	-32.3	13.3	7.00e-07	0	44	102	1048576	20	4490
2026-01-07 10:22:44.22	149.63	66.12	-31.1	-33.3	12.0	1.91e-04	0	43	102	1048576	22	4634
2026-01-07 10:22:45.23	149.43	66.56	-31.0	-33.0	12.1	7.32e-04	0	43	102	1048576	22	4532
2026-01-07 10:22:46.23	149.22	67.00	-30.4	-31.4	13.3	8.39e-05	0	44	102	1048576	22	4011
2026-01-07 10:22:47.24	149.00	67.45	-30.2	-31.3	13.6	1.06e-05	0	44	102	1048576	21	4081
2026-01-07 10:22:48.25	148.77	67.91	-30.5	-32.2	13.1	2.51e-05	0	43	102	1048576	21	4361
2026-01-07 10:22:49.26	148.53	68.36	-30.8	-32.8	12.5	6.94e-05	0	44	102	1048576	21	4566
2026-01-07 10:22:50.26	148.28	68.81	-30.8	-32.9	12.3	9.00e-05	0	44	102	1048576	21	4577
2026-01-07 10:22:51.27	148.02	69.27	-31.5	-34.1	11.2	8.40e-04	0	43	102	1048576	23	4816
2026-01-07 10:22:52.26	147.74	69.72	-31.8	-35.0	10.4	2.81e-03	0	44	102	1048576	23	5201
2026-01-07 10:22:53.27	147.45	70.18	-32.3	-35.8	9.1	2.10e-02	0	43	102	1048576	25	5366
2026-01-07 10:22:54.27	147.15	70.64	-32.6	-36.9	8.2	5.01e-02	0	44	102	1048576	25	5964
2026-01-07 10:22:55.28	146.83	71.10	-32.1	-35.2	9.4	3.76e-02	0	43	102	1048576	25	5141
2026-01-07 10:22:56.28	146.49	71.56	-31.0	-32.3	12.4	1.74e-03	0	43	102	1048576	23	4205
2026-01-07 10:22:57.28	146.14	72.03	-29.6	-30.2	14.7	1.14e-05	0	43	102	1048576	20	3834
2026-01-07 10:22:58.29	145.76	72.49	-29.6	-30.5	14.9	0.00e+00	0	43	102	1048576	19	4002
2026-01-07 10:22:59.30	145.36	72.96	-29.5	-30.5	14.9	0.00e+00	0	43	102	1048576	19	4001
2026-01-07 10:23:00.31	144.93	73.43	-29.3	-29.7	15.4	0.00e+00	0	43	102	1048576	19	3811
2026-01-07 10:23:01.32	144.48	73.91	-28.9	-29.0	15.9	0.00e+00	0	43	102	1048576	19	3618
2026-01-07 10:23:02.32	144.00	74.37	-29.8	-31.1	14.6	0.00e+00	0	43	102	1048576	19	4171
2026-01-07 10:23:03.33	143.49	74.85	-30.5	-32.4	13.4	7.00e-07	0	43	102	1048576	20	4513
2026-01-07 10:23:04.33	142.95	75.32	-31.1	-33.3	12.1	5.26e-04	0	44	102	1048576	22	4624
2026-01-07 10:23:05.34	142.37	75.79	-31.5	-34.1	11.2	9.56e-04	0	44	102	1048576	23	4813
2026-01-07 10:23:06.35	141.74	76.26	-31.5	-33.8	11.4	2.24e-03	0	44	102	1048576	23	4712
2026-01-07 10:23:07.36	141.07	76.74	-31.8	-35.0	10.5	1.67e-03	0	43	102	1048576	23	5188
2026-01-07 10:23:08.36	140.36	77.21	-32.4	-36.8	8.6	1.63e-02	0	43	102	1048576	24	5983
2026-01-07 10:23:09.37	139.58	77.68	-32.3	-35.7	9.2	7.86e-02	0	44	102	1048576	25	5368
2026-01-07 10:23:10.38	138.73	78.15	-32.1	-34.9	9.8	1.64e-02	0	44	102	1048576	25	5004
2026-01-07 10:23:11.39	137.82	78.62	-32.2	-35.3	9.6	9.25e-03	0	44	102	1048576	25	5164
2026-01-07 10:23:12.40	136.82	79.09	-32.1	-34.9	9.7	1.82e-02	0	44	102	1048576	25	5000
2026-01-07 10:23:13.41	135.73	79.56	-31.3	-33.1	11.4	3.38e-03	0	44	102	1048576	24	4386
2026-01-07 10:23:14.42	134.54	80.02	-31.2	-33.1	11.7	7.00e-04	0	44	102	1048576	23	4476
2026-01-07 10:23:15.43	133.23	80.48	-31.1	-32.8	12.1	3.38e-04	0	44	102	1048576	23	4366
2026-01-07 10:23:16.43	131.80	80.93	-31.2	-33.1	11.8	3.07e-04	0	44	102	1048576	23	4489
2026-01-07 10:23:17.44	130.20	81.38	-31.3	-33.6	11.5	1.46e-03	0	44	102	1048576	23	4659
2026-01-07 10:23:18.44	128.44	81.82	-30.5	-31.5	13.2	1.61e-04	0	43	102	1048576	22	4052
2026-01-07 10:23:19.46	126.45	82.26	-30.0	-30.7	14.2	3.80e-06	0	43	102	1048576	21	3906
2026-01-07 10:23:20.46	124.26	82.68	-30.5	-32.1	13.2	1.50e-06	0	44	102	1048576	21	4345
2026-01-07 10:23:21.47	121.77	83.09	-30.5	-32.2	13.1	2.74e-05	0	44	102	1048576	21	4369
2026-01-07 10:23:22.48	118.97	83.49	-29.8	-30.7	14.4	7.00e-07	0	44	102	1048576	20	4000
2026-01-07 10:23:23.48	115.85	83.87	-29.8	-30.8	14.4	7.00e-07	0	44	102	1048576	20	4009
2026-01-07 10:23:24.49	112.28	84.24	-30.0	-31.3	14.1	7.00e-07	0	44	102	1048576	20	4154
2026-01-07 10:23:25.50	108.24	84.57	-29.7	-30.3	14.8	7.00e-07	0	44	102	1048576	20	3862
2026-01-07 10:23:26.51	103.69	84.88	-30.0	-31.1	14.3	7.00e-07	0	44	102	1048576	20	4089
2026-01-07 10:23:27.51	98.65	85.15	-31.0	-32.9	12.5	6.86e-05	0	44	102	1048576	22	4466
2026-01-07 10:23:28.51	93.06	85.38	-31.6	-34.0	11.4	9.87e-04	0	44	102	1048576	23	4785
2026-01-07 10:23:29.52	86.89	85.56	-31.5	-33.7	11.7	1.66e-03	0	44	102	1048576	23	4660
2026-01-07 10:23:30.53	80.27	85.69	-31.3	-33.1	12.1	2.62e-04	0	44	102	1048576	23	4420
2026-01-07 10:23:31.54	73.35	85.75	-31.2	-32.8	12.3	8.08e-05	0	43	102	1048576	23	4332
2026-01-07 10:23:32.54	66.39	85.76	-31.5	-33.7	11.6	8.12e-04	0	43	102	1048576	23	4629
2026-01-07 10:23:33.55	59.45	85.70	-30.8	-32.1	13.0	9.99e-05	0	44	102	1048576	22	4195
2026-01-07 10:23:34.56	52.80	85.58	-31.3	-33.5	12.3	3.81e-05	0	44	102	1048576	22	4680
2026-01-07 10:23:35.56	46.64	85.40	-32.6	-36.6	8.8	7.44e-03	0	44	102	1048576	25	5680
2026-01-07 10:23:36.57	40.93	85.18	-31.6	-33.5	11.4	1.23e-02	0	44	102	1048576	24	4485
2026-01-07 10:23:37.57	35.84	84.91	-31.4	-33.4	11.9	2.53e-04	0	44	102	1048576	23	4546
2026-01-07 10:23:38.58	31.24	84.61	-31.5	-33.8	11.6	8.78e-04	0	44	102	1048576	23	4687
2026-01-07 10:23:39.59	27.16	84.27	-30.0	-30.5	14.4	3.20e-05	0	44	102	1048576	21	3822
2026-01-07 10:23:40.59	23.58	83.91	-30.3	-31.3	14.0	0.00e+00	0	44	102	1048576	21	4041
2026-01-07 10:23:41.60	20.38	83.53	-31.0	-32.8	12.5	9.30e-05	0	44	102	1048576	22	4427
2026-01-07 10:23:42.61	17.55	83.13	-31.0	-32.8	12.6	6.40e-05	0	44	102	1048576	22	4441
2026-01-07 10:23:43.62	15.04	82.72	-32.0	-35.2	10.2	5.30e-04	0	44	102	1048576	24	5171
2026-01-07 10:23:44.63	12.80	82.30	-32.4	-36.4	9.3	1.91e-02	0	43	102	1048576	24	5701
2026-01-07 10:23:45.63	10.82	81.87	-32.2	-35.7	9.8	8.18e-03	0	44	102	1048576	24	5358
2026-01-07 10:23:46.64	9.03	81.43	-32.0	-34.9	10.3	8.48e-03	0	44	102	1048576	24	5034
2026-01-07 10:23:47.64	7.43	80.98	-31.4	-33.0	11.7	6.74e-04	0	44	102	1048576	24	4319
2026-01-07 10:23:48.65	5.97	80.53	-31.6	-33.8	11.2	6.62e-04	0	43	102	1048576	24	4597
2026-01-07 10:23:49.66	4.65	80.07	-32.3	-36.3	9.4	8.12e-03	0	44	102	1048576	24	5670
2026-01-07 10:23:50.67	3.45	79.61	-32.1	-35.5	9.9	2.34e-02	0	44	102	1048576	24	5318
2026-01-07 10:23:51.68	2.35	79.14	-31.8	-34.5	10.5	5.72e-03	0	44	102	1048576	24	4926
2026-01-07 10:23:52.68	1.35	78.68	-31.0	-32.4	12.3	1.05e-03	0	44	102	1048576	23	4256
2026-01-07 10:23:53.69	0.43	78.21	-30.3	-31.0	13.6	4.95e-05	0	44	102	1048576	22	3894
2026-01-07 10:23:54.70	359.58	77.74	-30.6	-32.4	13.1	1.83e-05	0	44	102	1048576	21	4397
2026-01-07 10:23:55.70	358.80	77.27	-31.2	-33.4	12.1	9.68e-05	0	43	102	1048576	22	4636
2026-01-07 10:23:56.71	358.07	76.80	-31.3	-33.6	11.9	2.70e-04	0	43	102	1048576	22	4727
2026-01-07 10:23:57.72	357.39	76.32	-31.4	-33.6	11.5	6.96e-04	0	43	102	1048576	23	4645
2026-01-07 10:23:58.73	356.76	75.85	-30.9	-32.1	12.6	4.23e-04	0	44	102	1048576	23	4128
2026-01-07 10:23:59.74	356.17	75.38	-29.6	-30.2	14.7	6.10e-06	0	44	102	1048576	20	3848
2026-01-07 10:24:00.74	355.63	74.91	-29.5	-29.9	14.9	0.00e+00	0	43	102	1048576	20	3777
2026-01-07 10:24:01.75	355.12	74.44	-30.5	-32.0	13.3	2.20e-06	0	44	102	1048576	21	4277
2026-01-07 10:24:02.76	354.63	73.97	-29.5	-29.9	14.9	9.10e-06	0	43	102	1048576	20	3751
2026-01-07 10:24:03.76	354.18	73.50	-28.9	-28.8	16.0	0.00e+00	0	44	102	1048576	19	3567
2026-01-07 10:24:04.77	353.76	73.03	-28.8	-29.2	16.0	0.00e+00	0	44	102	1048576	18	3743
2026-01-07 10:24:05.78	353.35	72.56	-30.0	-31.6	14.3	0.00e+00	0	43	102	1048576	19	4336
2026-01-07 10:24:06.78	352.98	72.10	-30.8	-32.8	12.7	5.30e-06	0	44	102	1048576	21	4550
2026-01-07 10:24:07.79	352.62	71.63	-30.9	-32.7	12.5	1.59e-04	0	44	102	1048576	22	4417
2026-01-07 10:24:08.80	352.27	71.16	-31.5	-34.4	11.3	2.98e-04	0	43	102	1048576	22	5046
2026-01-07 10:24:09.80	351.95	70.71	-31.1	-33.2	12.0	7.64e-04	0	44	102	1048576	22	4602
2026-01-07 10:24:10.81	351.65	70.24	-31.2	-33.5	11.9	1.95e-04	0	44	102	1048576	22	4699
2026-01-07 10:24:11.81	351.36	69.79	-31.8	-35.0	10.6	2.02e-03	0	44	102	1048576	23	5202
2026-01-07 10:24:12.82	351.08	69.33	-31.5	-34.2	10.9	7.96e-03	0	44	102	1048576	23	4872
2026-01-07 10:24:13.82	350.81	68.88	-31.3	-33.3	11.7	7.80e-04	0	44	102	1048576	23	4540
2026-01-07 10:24:14.83	350.56	68.42	-31.9	-35.3	10.2	1.38e-03	0	43	102	1048576	23	5365
2026-01-07 10:24:15.84	350.32	67.97	-31.7	-34.2	10.6	1.31e-02	0	44	102	1048576	24	4824
2026-01-07 10:24:16.85	350.09	67.52	-30.6	-32.0	12.9	6.79e-04	0	44	102	1048576	22	4202
2026-01-07 10:24:17.85	349.87	67.07	-31.0	-33.1	12.2	1.12e-04	0	43	102	1048576	22	4583
2026-01-07 10:24:18.86	349.66	66.63	-31.3	-34.0	11.6	1.04e-03	0	44	102	1048576	22	4924
2026-01-07 10:24:19.87	349.45	66.18	-30.4	-31.4	13.2	2.46e-04	0	44	102	1048576	22	4033
2026-01-07 10:24:20.88	349.26	65.74	-30.3	-31.6	13.3	8.30e-06	0	43	102	1048576	21	4175
2026-01-07 10:24:21.89	349.07	65.30	-30.4	-31.9	13.2	2.05e-05	0	44	102	1048576	21	4295
2026-01-07 10:24:22.90	348.89	64.86	-30.6	-32.3	13.0	1.60e-05	0	44	102	1048576	21	4423
2026-01-07 10:24:23.90	348.72	64.43	-30.3	-31.6	13.4	2.13e-05	0	44	102	1048576	21	4193
2026-01-07 10:24:24.90	348.56	64.00	-30.5	-32.2	13.1	2.05e-05	0	44	102	1048576	21	4400
2026-01-07 10:24:25.91	348.40	63.57	-30.7	-32.8	12.5	8.85e-05	0	44	102	1048576	21	4598
2026-01-07 10:24:26.92	348.24	63.14	-30.3	-31.6	13.4	4.57e-05	0	44	102	1048576	21	4193
2026-01-07 10:24:27.93	348.10	62.71	-30.4	-32.0	13.1	3.66e-05	0	43	102	1048576	21	4295
2026-01-07 10:24:28.94	347.95	62.29	-30.3	-31.7	13.5	2.28e-05	0	44	102	1048576	21	4195
2026-01-07 10:24:29.94	347.82	61.87	-29.6	-30.2	14.7	1.90e-05	0	44	102	1048576	20	3864
2026-01-07 10:24:30.95	347.68	61.46	-30.2	-31.7	13.8	3.00e-06	0	44	102	1048576	20	4276
2026-01-07 10:24:31.96	347.55	61.04	-30.4	-31.8	13.4	1.75e-05	0	44	102	1048576	21	4227
2026-01-07 10:24:32.96	347.43	60.63	-30.9	-33.2	12.4	1.02e-04	0	44	102	1048576	21	4692
2026-01-07 10:24:33.96	347.31	60.22	-31.0	-33.0	12.2	1.69e-04	0	44	102	1048576	22	4541
2026-01-07 10:24:34.97	347.20	59.81	-30.7	-32.1	12.8	1.43e-04	0	43	102	1048576	22	4228
2026-01-07 10:24:35.98	347.08	59.41	-30.0	-30.8	13.9	1.14e-05	0	44	102	1048576	21	3952
2026-01-07 10:24:36.98	346.97	59.01	-30.0	-30.9	13.9	3.00e-06	0	43	102	1048576	21	3974
2026-01-07 10:24:37.99	346.87	58.61	-30.7	-32.6	12.8	2.36e-05	0	44	102	1048576	21	4484
2026-01-07 10:24:39.00	346.77	58.21	-30.9	-33.3	12.3	1.46e-04	0	44	102	1048576	21	4727
2026-01-07 10:24:40.01	346.67	57.81	-30.3	-31.5	13.4	1.05e-04	0	44	102	1048576	21	4146
2026-01-07 10:24:41.01	346.57	57.42	-29.7	-30.5	14.4	4.50e-06	0	44	102	1048576	20	3944
2026-01-07 10:24:42.02	346.48	57.03	-29.3	-29.8	15.1	0.00e+00	0	44	102	1048576	19	3845
2026-01-07 10:24:43.02	346.39	56.65	-29.1	-29.5	15.3	7.00e-07	0	44	102	1048576	19	3752
2026-01-07 10:24:44.03	346.30	56.26	-29.4	-30.3	14.8	0.00e+00	0	44	102	1048576	19	3978
2026-01-07 10:24:45.04	346.21	55.88	-28.6	-28.8	15.9	0.00e+00	0	44	102	1048576	18	3679
2026-01-07 10:24:46.05	346.13	55.50	-27.8	-27.4	17.0	0.00e+00	0	43	102	1048576	17	3442
2026-01-07 10:24:47.06	346.05	55.12	-28.0	-28.5	16.8	0.00e+00	0	44	102	1048576	16	3784
2026-01-07 10:24:48.06	345.97	54.75	-28.6	-29.3	15.8	0.00e+00	0	43	102	1048576	17	3914
2026-01-07 10:24:49.07	345.89	54.38	-29.5	-30.5	14.6	0.00e+00	0	44	102	1048576	19	4048
2026-01-07 10:24:50.07	345.82	54.01	-29.8	-31.4	14.1	0.00e+00	0	44	102	1048576	19	4316
2026-01-07 10:24:51.09	345.75	53.64	-29.8	-30.9	14.0	5.30e-06	0	44	102	1048576	20	4094
2026-01-07 10:24:52.09	345.68	53.28	-29.8	-30.7	14.2	0.00e+00	0	43	102	1048576	20	4021
2026-01-07 10:24:53.09	345.61	52.92	-30.2	-31.8	13.5	2.20e-06	0	44	102	1048576	20	4348
2026-01-07 10:24:54.10	345.54	52.56	-31.0	-33.2	11.9	1.18e-04	0	44	102	1048576	22	4622
2026-01-07 10:24:55.11	345.47	52.20	-31.4	-34.0	10.8	9.07e-04	0	44	102	1048576	23	4843
2026-01-07 10:24:56.12	345.41	51.85	-32.3	-36.5	8.7	9.86e-03	0	43	102	1048576	24	5868
2026-01-07 10:24:57.12	345.35	51.50	-32.1	-36.1	9.0	3.40e-02	0	44	102	1048576	24	5689
2026-01-07 10:24:58.13	345.29	51.15	-31.7	-34.3	10.2	1.90e-02	0	44	102	1048576	24	4876
2026-01-07 10:24:59.13	345.23	50.81	-31.0	-32.5	12.1	6.19e-04	0	44	102	1048576	23	4285
2026-01-07 10:25:00.14	345.17	50.47	-30.5	-31.7	13.0	6.33e-05	0	44	102	1048576	22	4129
2026-01-07 10:25:01.15	345.12	50.12	-31.6	-34.6	10.6	5.06e-04	0	43	102	1048576	23	5045
2026-01-07 10:25:02.15	345.06	49.79	-31.5	-34.3	10.7	4.47e-03	0	44	102	1048576	23	4938
2026-01-07 10:25:03.16	345.01	49.45	-31.4	-33.8	11.1	2.34e-03	0	44	102	1048576	23	4761
2026-01-07 10:25:04.16	344.95	49.12	-31.2	-33.1	11.7	3.98e-04	0	44	102	1048576	23	4488
2026-01-07 10:25:05.17	344.90	48.79	-32.1	-35.7	9.4	2.14e-03	0	44	102	1048576	24	5474
2026-01-07 10:25:06.18	344.85	48.46	-32.8	-38.7	6.5	5.40e-02	0	44	102	1048576	25	7055
2026-01-07 10:25:07.18	344.80	48.14	-32.6	-37.6	7.5	1.13e-01	0	44	102	1048576	25	6376
2026-01-07 10:25:08.18	344.76	47.81	-31.9	-34.6	9.8	3.22e-02	0	44	102	1048576	25	4882
2026-01-07 10:25:09.19	344.71	47.49	-31.4	-33.3	11.1	3.41e-03	0	44	102	1048576	24	4470
2026-01-07 10:25:10.20	344.66	47.17	-31.2	-33.1	11.6	1.07e-03	0	44	102	1048576	23	4492
2026-01-07 10:25:11.20	344.62	46.86	-30.9	-32.6	12.4	1.30e-04	0	44	102	1048576	22	4415
2026-01-07 10:25:12.20	344.58	46.55	-31.8	-35.0	10.3	6.66e-04	0	44	102	1048576	23	5212
2026-01-07 10:25:13.21	344.53	46.23	-31.7	-34.8	10.4	4.37e-03	0	44	102	1048576	23	5138
2026-01-07 10:25:14.22	344.49	45.92	-32.5	-36.7	8.3	3.34e-02	0	44	102	1048576	25	5843
2026-01-07 10:25:15.23	344.45	45.62	-32.8	-38.2	7.1	6.27e-02	0	44	102	1048576	25	6688
2026-01-07 10:25:16.23	344.41	45.31	-33.3	-40.4	5.4	3.49e-01	0	44	102	1048576	26	8180
2026-01-07 10:25:17.23	344.37	45.01	-33.3	-40.5	5.3	5.60e-01	0	44	102	1048576	26	8266
2026-01-07 10:25:18.24	344.33	44.71	-33.1	-39.0	6.1	4.66e-01	0	44	102	1048576	26	7113
2026-01-07 10:25:19.24	344.29	44.42	-32.2	-35.4	9.1	1.16e-01	0	44	102	1048576	25	5236
2026-01-07 10:25:20.25	344.26	44.12	-31.7	-34.1	10.5	7.72e-03	0	44	102	1048576	24	4770
2026-01-07 10:25:21.26	344.22	43.83	-31.2	-33.2	11.6	8.05e-04	0	44	102	1048576	23	4514
2026-01-07 10:25:22.27	344.18	43.53	-31.8	-35.0	10.3	1.05e-03	0	44	102	1048576	23	5239
2026-01-07 10:25:23.27	344.15	43.25	-32.1	-35.6	9.4	1.71e-02	0	44	102	1048576	24	5391
2026-01-07 10:25:24.28	344.12	42.96	-32.1	-35.9	9.1	1.84e-02	0	44	102	1048576	24	5553
2026-01-07 10:25:25.28	344.08	42.68	-32.1	-35.8	9.2	1.98e-02	0	44	102	1048576	24	5508
2026-01-07 10:25:26.28	344.05	42.40	-32.6	-37.5	7.4	3.69e-02	0	44	102	1048576	25	6319
2026-01-07 10:25:27.30	344.02	42.11	-32.9	-39.1	6.2	2.01e-01	0	44	102	1048576	25	7424
2026-01-07 10:25:28.31	343.99	41.83	-32.9	-39.3	6.1	2.68e-01	0	44	102	1048576	25	7511
2026-01-07 10:25:29.31	343.95	41.56	-32.9	-38.7	6.2	3.50e-01	0	44	102	1048576	26	7002
2026-01-07 10:25:30.32	343.92	41.28	-32.9	-38.7	6.2	2.70e-01	0	44	102	1048576	26	6992
2026-01-07 10:25:31.32	343.89	41.01	-32.5	-36.5	7.8	1.33e-01	0	44	102	1048576	26	5740
2026-01-07 10:25:32.33	343.87	40.74	-31.8	-34.3	9.9	2.46e-02	0	44	102	1048576	25	4806
2026-01-07 10:25:33.33	343.84	40.48	-31.6	-34.1	10.6	5.50e-03	0	43	102	1048576	24	4767
2026-01-07 10:25:34.34	343.81	40.21	-31.3	-33.4	11.4	9.06e-04	0	44	102	1048576	23	4612
2026-01-07 10:25:35.35	343.78	39.95	-31.4	-33.7	11.2	1.11e-03	0	44	102	1048576	23	4720
2026-01-07 10:25:36.36	343.75	39.68	-31.7	-34.8	10.4	2.20e-03	0	44	102	1048576	23	5147
2026-01-07 10:25:37.36	343.73	39.42	-32.2	-36.1	9.0	1.09e-02	0	44	102	1048576	24	5670
2026-01-07 10:25:38.37	343.70	39.17	-32.4	-36.7	8.1	7.29e-02	0	44	102	1048576	25	5891
2026-01-07 10:25:39.38	343.68	38.91	-32.5	-37.2	7.6	6.91e-02	0	44	102	1048576	25	6184
2026-01-07 10:25:40.39	343.65	38.65	-32.6	-37.6	7.3	8.64e-02	0	44	102	1048576	25	6455
2026-01-07 10:25:41.40	343.62	38.40	-32.4	-36.9	7.7	8.63e-02	0	44	102	1048576	25	6015
2026-01-07 10:25:42.41	343.60	38.15	-32.2	-35.8	8.6	7.89e-02	0	44	102	1048576	25	5499
2026-01-07 10:25:43.41	343.58	37.90	-32.0	-35.4	8.9	3.05e-02	0	44	102	1048576	25	5310
2026-01-07 10:25:44.41	343.55	37.66	-31.8	-34.7	9.5	1.94e-02	0	43	102	1048576	25	5030
2026-01-07 10:25:45.41	343.53	37.41	-31.7	-34.7	9.8	1.19e-02	0	44	102	1048576	24	5092
2026-01-07 10:25:46.42	343.51	37.17	-31.9	-35.5	9.1	1.19e-02	0	44	102	1048576	24	5458
2026-01-07 10:25:47.43	343.49	36.93	-31.6	-34.2	10.1	1.14e-02	0	44	102	1048576	24	4881
2026-01-07 10:25:48.44	343.46	36.69	-31.2	-33.4	11.2	3.40e-03	0	44	102	1048576	23	4646
2026-01-07 10:25:49.45	343.44	36.45	-31.0	-32.7	11.6	1.21e-03	0	44	102	1048576	23	4408
2026-01-07 10:25:50.46	343.42	36.21	-30.7	-32.4	12.2	2.17e-04	0	44	102	1048576	22	4384
2026-01-07 10:25:51.46	343.40	35.98	-30.6	-32.1	12.4	1.53e-04	0	44	102	1048576	22	4296
2026-01-07 10:25:52.47	343.38	35.74	-30.4	-32.1	12.7	3.50e-05	0	44	102	1048576	21	4393
2026-01-07 10:25:53.47	343.36	35.52	-30.5	-32.5	12.4	1.33e-04	0	44	102	1048576	21	4503
2026-01-07 10:25:54.48	343.34	35.28	-30.4	-32.2	12.7	1.10e-04	0	44	102	1048576	21	4426
2026-01-07 10:25:55.49	343.32	35.06	-31.1	-33.8	11.2	2.51e-04	0	44	102	1048576	22	4886
2026-01-07 10:25:56.49	343.30	34.83	-31.6	-34.8	10.2	4.61e-03	0	44	102	1048576	23	5245
2026-01-07 10:25:57.49	343.28	34.61	-32.0	-36.1	8.8	2.34e-02	0	44	102	1048576	24	5740
2026-01-07 10:25:58.50	343.26	34.39	-32.5	-38.3	7.0	9.16e-02	0	44	102	1048576	24	7015
2026-01-07 10:25:59.51	343.25	34.16	-32.7	-39.3	5.9	2.45e-01	0	44	102	1048576	25	7639
2026-01-07 10:26:00.52	343.23	33.94	-32.8	-39.5	5.8	4.00e-01	0	44	102	1048576	25	7790
2026-01-07 10:26:01.53	343.21	33.72	-32.7	-38.6	6.5	2.54e-01	0	44	102	1048576	25	7104
2026-01-07 10:26:02.53	343.19	33.51	-32.4	-37.1	7.5	1.24e-01	0	44	102	1048576	25	6193
2026-01-07 10:26:03.54	343.18	33.29	-32.1	-35.9	8.6	4.10e-02	0	44	102	1048576	25	5523
2026-01-07 10:26:04.54	343.16	33.08	-32.0	-35.1	9.1	2.48e-02	0	44	102	1048576	25	5175
2026-01-07 10:26:05.55	343.14	32.87	-32.2	-35.7	8.7	2.39e-02	0	44	102	1048576	25	5430
2026-01-07 10:26:06.56	343.13	32.66	-32.1	-35.6	8.9	3.05e-02	0	44	102	1048576	25	5362
2026-01-07 10:26:07.56	343.11	32.45	-31.9	-34.8	9.5	1.94e-02	0	44	102	1048576	25	5009
2026-01-07 10:26:08.57	343.09	32.24	-31.9	-34.8	9.5	2.00e-02	0	44	102	1048576	25	5023
2026-01-07 10:26:09.58	343.08	32.03	-32.1	-35.5	8.9	2.23e-02	0	44	102	1048576	25	5323
2026-01-07 10:26:10.59	343.06	31.83	-32.0	-35.0	9.3	1.79e-02	0	44	102	1048576	25	5113
2026-01-07 10:26:11.59	343.05	31.63	-31.9	-34.8	9.4	1.91e-02	0	44	102	1048576	25	5003
2026-01-07 10:26:12.60	343.03	31.42	-31.9	-34.7	9.6	1.77e-02	0	44	102	1048576	25	4951
2026-01-07 10:26:13.60	343.02	31.22	-31.6	-34.3	10.3	7.20e-03	0	44	102	1048576	24	4868
2026-01-07 10:26:14.61	343.00	31.02	-31.7	-34.4	10.1	8.75e-03	0	44	102	1048576	24	4914
2026-01-07 10:26:15.62	342.99	30.82	-31.7	-34.5	10.1	9.07e-03	0	44	102	1048576	24	4954
2026-01-07 10:26:16.63	342.98	30.63	-31.9	-35.3	9.5	9.74e-03	0	44	102	1048576	24	5301
2026-01-07 10:26:17.64	342.96	30.43	-32.0	-35.5	9.4	2.16e-02	0	44	102	1048576	24	5385
2026-01-07 10:26:18.64	342.95	30.24	-32.2	-36.2	8.8	1.92e-02	0	44	102	1048576	24	5743
2026-01-07 10:26:19.65	342.94	30.05	-32.2	-36.6	8.5	4.33e-02	0	44	102	1048576	24	5919
2026-01-07 10:26:20.66	342.92	29.85	-32.2	-36.3	8.6	3.00e-02	0	44	102	1048576	24	5823
2026-01-07 10:26:21.66	342.91	29.67	-32.0	-35.7	9.0	2.50e-02	0	44	102	1048576	24	5532
2026-01-07 10:26:22.66	342.90	29.48	-31.9	-35.4	9.3	1.64e-02	0	44	102	1048576	24	5369
2026-01-07 10:26:23.67	342.89	29.29	-31.8	-34.9	9.7	1.37e-02	0	44	102	1048576	24	5155
2026-01-07 10:26:24.67	342.87	29.10	-31.7	-34.5	9.9	1.08e-02	0	44	102	1048576	24	5001
2026-01-07 10:26:25.68	342.86	28.92	-31.7	-34.6	9.9	7.45e-03	0	44	102	1048576	24	5036
2026-01-07 10:26:26.68	342.85	28.74	-31.6	-34.2	10.2	7.05e-03	0	44	102	1048576	24	4874
2026-01-07 10:26:27.69	342.84	28.55	-31.4	-34.1	10.6	3.45e-03	0	44	102	1048576	23	4915
2026-01-07 10:26:28.70	342.83	28.37	-30.8	-32.3	11.9	1.74e-03	0	44	102	1048576	23	4258
2026-01-07 10:26:29.70	342.81	28.19	-30.6	-32.1	12.4	2.30e-04	0	44	102	1048576	22	4271
2026-01-07 10:26:30.71	342.80	28.01	-30.4	-31.6	12.7	1.02e-04	0	44	102	1048576	22	4120
2026-01-07 10:26:31.71	342.79	27.84	-30.4	-32.2	12.6	6.79e-05	0	44	102	1048576	21	4395
2026-01-07 10:26:32.72	342.78	27.66	-30.1	-31.3	13.2	6.71e-05	0	44	102	1048576	21	4113
2026-01-07 10:26:33.73	342.77	27.48	-29.8	-30.5	13.7	1.67e-05	0	44	102	1048576	21	3889
2026-01-07 10:26:34.74	342.76	27.31	-29.8	-31.0	13.7	1.22e-05	0	44	102	1048576	20	4132
2026-01-07 10:26:35.74	342.75	27.13	-29.7	-30.7	13.9	4.50e-06	0	44	102	1048576	20	4039
2026-01-07 10:26:36.75	342.74	26.96	-29.9	-31.1	13.7	3.80e-06	0	44	102	1048576	20	4159
2026-01-07 10:26:37.75	342.73	26.79	-30.0	-31.4	13.5	1.44e-05	0	43	102	1048576	20	4227
2026-01-07 10:26:38.76	342.72	26.62	-30.0	-31.5	13.3	6.10e-06	0	44	102	1048576	20	4284
2026-01-07 10:26:39.77	342.71	26.45	-30.1	-31.6	13.3	1.98e-05	0	44	102	1048576	20	4313
2026-01-07 10:26:40.78	342.70	26.28	-30.1	-31.7	13.2	2.51e-05	0	44	102	1048576	20	4346
2026-01-07 10:26:41.79	342.69	26.11	-30.3	-32.5	12.7	3.96e-05	0	44	102	1048576	20	4592
2026-01-07 10:26:42.80	342.68	25.95	-30.3	-32.5	12.7	7.62e-05	0	44	102	1048576	20	4592
2026-01-07 10:26:43.80	342.67	25.78	-30.5	-32.9	12.4	9.61e-05	0	44	102	1048576	20	4732
2026-01-07 10:26:44.81	342.66	25.62	-30.5	-32.6	12.3	1.63e-04	0	44	102	1048576	21	4540
2026-01-07 10:26:45.82	342.65	25.46	-30.4	-32.3	12.5	1.43e-04	0	44	102	1048576	21	4441
2026-01-07 10:26:46.83	342.64	25.29	-30.6	-32.8	12.3	1.44e-04	0	44	102	1048576	21	4628
2026-01-07 10:26:47.83	342.64	25.13	-30.6	-32.8	12.1	2.58e-04	0	44	102	1048576	21	4644
2026-01-07 10:26:48.84	342.63	24.97	-30.7	-33.1	11.9	3.28e-04	0	44	102	1048576	21	4739
2026-01-07 10:26:49.85	342.62	24.81	-30.7	-33.1	11.9	4.93e-04	0	44	102	1048576	21	4723
2026-01-07 10:26:50.85	342.61	24.66	-30.7	-33.0	12.0	3.23e-04	0	44	102	1048576	21	4703
2026-01-07 10:26:51.86	342.60	24.50	-30.6	-32.7	12.2	2.95e-04	0	44	102	1048576	21	4583
2026-01-07 10:26:52.86	342.59	24.34	-30.7	-33.1	12.1	2.73e-04	0	43	102	1048576	21	4713
2026-01-07 10:26:53.87	342.59	24.19	-30.5	-32.5	12.2	3.10e-04	0	44	102	1048576	21	4523
2026-01-07 10:26:54.88	342.58	24.03	-30.1	-31.3	13.0	5.87e-05	0	44	102	1048576	21	4126
2026-01-07 10:26:55.88	342.57	23.88	-29.9	-30.7	13.5	1.75e-05	0	44	102	1048576	21	3959
2026-01-07 10:26:56.88	342.56	23.73	-29.7	-30.7	13.8	8.30e-06	0	44	102	1048576	20	4043
2026-01-07 10:26:57.89	342.56	23.58	-29.6	-30.5	13.9	4.50e-06	0	44	102	1048576	20	3986
2026-01-07 10:26:58.89	342.55	23.43	-29.6	-30.4	13.9	3.00e-06	0	44	102	1048576	20	3949
2026-01-07 10:26:59.89	342.54	23.28	-29.7	-30.7	13.7	3.00e-06	0	44	102	1048576	20	4044
2026-01-07 10:27:00.89	342.53	23.13	-29.6	-30.6	13.8	3.80e-06	0	44	102	1048576	20	4012
2026-01-07 10:27:01.90	342.53	22.98	-29.7	-30.8	13.6	3.80e-06	0	44	102	1048576	20	4092
2026-01-07 10:27:02.91	342.52	22.83	-29.6	-30.4	13.8	3.00e-06	0	44	102	1048576	20	3949
2026-01-07 10:27:03.92	342.51	22.69	-29.7	-30.7	13.7	4.50e-06	0	44	102	1048576	20	4032
2026-01-07 10:27:04.92	342.51	22.54	-29.4	-30.0	14.1	2.20e-06	0	44	102	1048576	20	3857
2026-01-07 10:27:05.93	342.50	22.40	-29.4	-30.0	14.2	0.00e+00	0	44	102	1048576	20	3854
2026-01-07 10:27:06.94	342.49	22.25	-29.4	-29.8	14.3	4.50e-06	0	44	102	1048576	20	3798
2026-01-07 10:27:07.94	342.49	22.11	-29.5	-30.1	14.2	3.00e-06	0	44	102	1048576	20	3859
2026-01-07 10:27:08.94	342.48	21.97	-29.2	-29.8	14.8	0.00e+00	0	44	102	1048576	19	3862
2026-01-07 10:27:09.95	342.47	21.83	-28.9	-29.1	15.1	0.00e+00	0	44	102	1048576	19	3686
2026-01-07 10:27:10.96	342.47	21.69	-28.8	-28.9	15.2	0.00e+00	0	44	102	1048576	19	3641
2026-01-07 10:27:11.97	342.46	21.55	-28.6	-28.8	15.5	0.00e+00	0	44	102	1048576	18	3706
2026-01-07 10:27:12.97	342.46	21.41	-28.8	-29.5	15.1	0.00e+00	0	44	102	1048576	18	3886
2026-01-07 10:27:13.98	342.45	21.27	-29.1	-30.1	14.7	0.00e+00	0	44	102	1048576	18	4062
2026-01-07 10:27:14.98	342.45	21.13	-28.8	-29.4	15.1	0.00e+00	0	44	102	1048576	18	3859
2026-01-07 10:27:15.99	342.44	20.99	-29.0	-30.0	14.7	0.00e+00	0	44	102	1048576	18	4039
2026-01-07 10:27:16.99	342.43	20.86	-29.1	-30.3	14.4	1.50e-06	0	44	102	1048576	18	4121
2026-01-07 10:27:18.00	342.43	20.72	-29.2	-30.5	14.2	7.00e-07	0	44	102	1048576	18	4184
2026-01-07 10:27:19.01	342.42	20.59	-29.5	-30.7	13.8	1.50e-06	0	44	102	1048576	19	4138
2026-01-07 10:27:20.01	342.42	20.45	-29.6	-30.9	13.6	7.60e-06	0	44	102	1048576	19	4211
2026-01-07 10:27:21.01	342.41	20.32	-29.7	-31.3	13.3	1.29e-05	0	44	102	1048576	19	4333
2026-01-07 10:27:22.02	342.41	20.19	-29.8	-31.7	13.1	1.98e-05	0	44	102	1048576	19	4460
2026-01-07 10:27:23.03	342.40	20.06	-29.9	-31.8	12.9	5.18e-05	0	44	102	1048576	19	4506
2026-01-07 10:27:24.04	342.40	19.93	-30.0	-31.6	12.5	7.32e-05	0	44	102	1048576	20	4369
2026-01-07 10:27:25.04	342.39	19.80	-30.1	-32.1	12.1	1.51e-04	0	44	102	1048576	20	4505
2026-01-07 10:27:26.05	342.39	19.67	-30.3	-32.5	11.7	3.48e-04	0	44	102	1048576	20	4659
2026-01-07 10:27:27.06	342.38	19.54	-30.4	-32.8	11.5	6.33e-04	0	44	102	1048576	20	4782
2026-01-07 10:27:28.06	342.38	19.41	-30.5	-33.2	11.0	1.01e-03	0	44	102	1048576	20	4934
2026-01-07 10:27:29.06	342.37	19.28	-30.5	-33.1	11.1	1.33e-03	0	44	102	1048576	20	4905
2026-01-07 10:27:30.07	342.37	19.15	-30.4	-33.1	11.0	1.47e-03	0	44	102	1048576	20	4885
2026-01-07 10:27:31.08	342.36	19.03	-30.7	-33.3	10.8	2.11e-03	0	44	102	1048576	21	4874
2026-01-07 10:27:32.08	342.36	18.90	-30.7	-33.4	11.0	1.81e-03	0	44	102	1048576	21	4908
2026-01-07 10:27:33.09	342.35	18.78	-31.0	-34.2	10.7	1.48e-03	0	44	102	1048576	21	5216
2026-01-07 10:27:34.10	342.35	18.65	-30.9	-34.0	10.9	2.36e-03	0	44	102	1048576	21	5125
2026-01-07 10:27:35.11	342.35	18.53	-30.9	-33.9	11.0	2.07e-03	0	44	102	1048576	21	5070
2026-01-07 10:27:36.11	342.34	18.40	-30.8	-33.6	10.9	1.66e-03	0	44	102	1048576	21	4984
2026-01-07 10:27:37.11	342.34	18.28	-30.6	-33.2	11.0	2.21e-03	0	44	102	1048576	21	4832
2026-01-07 10:27:38.12	342.33	18.16	-30.6	-33.2	11.0	2.10e-03	0	44	102	1048576	21	4836
2026-01-07 10:27:39.12	342.33	18.04	-30.7	-33.4	11.0	1.88e-03	0	44	102	1048576	21	4925
2026-01-07 10:27:40.13	342.33	17.92	-30.8	-33.5	11.2	1.42e-03	0	44	102	1048576	21	4943
2026-01-07 10:27:41.13	342.32	17.80	-30.5	-32.9	11.4	9.67e-04	0	44	102	1048576	21	4714
2026-01-07 10:27:42.14	342.32	17.68	-30.5	-32.8	11.0	1.31e-03	0	44	102	1048576	21	4693
2026-01-07 10:27:43.15	342.31	17.56	-30.3	-32.2	10.9	1.53e-03	0	44	102	1048576	21	4483
2026-01-07 10:27:44.15	342.31	17.44	-30.3	-32.4	10.3	2.17e-03	0	44	102	1048576	21	4562
2026-01-07 10:27:45.15	342.31	17.32	-30.2	-32.1	10.2	4.34e-03	0	44	102	1048576	21	4486
2026-01-07 10:27:46.16	342.30	17.21	-30.1	-31.6	10.5	4.42e-03	0	44	102	1048576	21	4304
2026-01-07 10:27:47.17	342.30	17.09	-30.2	-31.9	10.8	2.23e-03	0	44	102	1048576	21	4379
2026-01-07 10:27:48.18	342.30	16.97	-30.4	-32.4	10.7	2.82e-03	0	44	102	1048576	21	4552
2026-01-07 10:27:49.18	342.29	16.86	-30.3	-32.0	12.0	1.23e-03	0	44	102	1048576	21	4410
2026-01-07 10:27:50.19	342.29	16.74	-30.5	-32.7	11.8	3.66e-04	0	44	102	1048576	21	4621
2026-01-07 10:27:51.19	342.29	16.63	-30.7	-33.2	11.4	7.13e-04	0	44	102	1048576	21	4805
2026-01-07 10:27:52.19	342.28	16.51	-30.5	-32.7	11.5	7.07e-04	0	44	102	1048576	21	4633
2026-01-07 10:27:53.19	342.28	16.40	-30.5	-32.9	11.0	1.13e-03	0	43	102	1048576	21	4701
2026-01-07 10:27:54.20	342.28	16.29	-30.6	-33.0	10.6	1.81e-03	0	44	102	1048576	21	4777
2026-01-07 10:27:55.20	342.27	16.18	-30.4	-32.7	10.8	2.14e-03	0	44	102	1048576	21	4642
2026-01-07 10:27:56.21	342.27	16.06	-30.6	-33.0	10.7	2.63e-03	0	44	102	1048576	21	4755
2026-01-07 10:27:57.22	342.27	15.95	-30.7	-33.3	10.6	3.19e-03	0	44	102	1048576	21	4854
2026-01-07 10:27:58.22	342.27	15.84	-30.5	-32.8	10.9	2.08e-03	0	43	102	1048576	21	4689
2026-01-07 10:27:59.23	342.26	15.73	-30.5	-32.9	10.8	2.79e-03	0	44	102	1048576	21	4731
2026-01-07 10:28:00.23	342.26	15.62	-30.6	-33.2	10.7	2.32e-03	0	44	102	1048576	21	4848
2026-01-07 10:28:01.23	342.26	15.51	-30.9	-34.2	10.1	4.75e-03	0	44	102	1048576	21	5225
2026-01-07 10:28:02.24	342.25	15.40	-30.7	-33.6	10.6	4.11e-03	0	44	102	1048576	21	4982
2026-01-07 10:28:03.25	342.25	15.29	-30.7	-33.4	11.0	1.99e-03	0	44	102	1048576	21	4905
2026-01-07 10:28:04.26	342.25	15.19	-30.7	-33.6	11.0	1.94e-03	0	44	102	1048576	21	4986
2026-01-07 10:28:05.25	342.25	15.08	-30.8	-33.8	10.9	1.93e-03	0	44	102	1048576	21	5058
2026-01-07 10:28:06.26	342.24	14.97	-30.8	-33.7	11.0	1.52e-03	0	43	102	1048576	21	5015
2026-01-07 10:28:07.27	342.24	14.87	-30.9	-34.0	10.7	2.29e-03	0	44	102	1048576	21	5167
2026-01-07 10:28:08.28	342.24	14.76	-30.8	-33.9	10.9	2.24e-03	0	44	102	1048576	21	5090
2026-01-07 10:28:09.28	342.24	14.65	-30.8	-33.9	10.9	2.25e-03	0	44	102	1048576	21	5096
2026-01-07 10:28:10.29	342.23	14.55	-30.9	-34.0	10.8	2.58e-03	0	44	102	1048576	21	5170
2026-01-07 10:28:11.30	342.23	14.44	-31.0	-34.3	10.5	2.89e-03	0	44	102	1048576	21	5258
2026-01-07 10:28:12.31	342.23	14.34	-31.2	-34.5	10.1	4.02e-03	0	44	102	1048576	22	5246
2026-01-07 10:28:13.31	342.23	14.24	-31.3	-34.8	9.7	8.14e-03	0	44	102	1048576	22	5408
2026-01-07 10:28:14.32	342.23	14.13	-31.1	-34.2	10.2	7.39e-03	0	44	102	1048576	22	5151
2026-01-07 10:28:15.33	342.22	14.03	-31.3	-34.7	9.8	7.38e-03	0	44	102	1048576	22	5370
2026-01-07 10:28:16.34	342.22	13.93	-31.3	-35.1	9.5	1.44e-02	0	44	102	1048576	22	5516
2026-01-07 10:28:17.35	342.22	13.82	-31.3	-34.7	9.7	1.12e-02	0	44	102	1048576	22	5376
2026-01-07 10:28:18.36	342.22	13.72	-31.4	-35.1	9.5	1.21e-02	0	44	102	1048576	22	5540
2026-01-07 10:28:19.36	342.22	13.62	-31.4	-35.2	9.5	1.69e-02	0	44	102	1048576	22	5593
2026-01-07 10:28:20.37	342.21	13.52	-31.2	-34.6	9.9	1.10e-02	0	44	102	1048576	22	5327
2026-01-07 10:28:21.38	342.21	13.42	-31.0	-33.9	10.4	6.19e-03	0	43	102	1048576	22	5023
2026-01-07 10:28:22.39	342.21	13.32	-31.1	-34.1	10.3	5.20e-03	0	44	102	1048576	22	5112
2026-01-07 10:28:23.40	342.21	13.22	-31.1	-34.1	10.3	4.93e-03	0	44	102	1048576	22	5091
2026-01-07 10:28:24.40	342.21	13.12	-30.9	-33.4	10.7	3.28e-03	0	44	102	1048576	22	4842
2026-01-07 10:28:25.41	342.21	13.02	-30.8	-33.1	10.9	2.06e-03	0	44	102	1048576	22	4739
2026-01-07 10:28:26.42	342.20	12.92	-30.7	-33.0	11.0	1.36e-03	0	44	102	1048576	22	4686
2026-01-07 10:28:27.42	342.20	12.82	-30.6	-32.7	11.1	1.51e-03	0	44	102	1048576	22	4595
2026-01-07 10:28:28.43	342.20	12.73	-30.6	-32.7	11.3	1.26e-03	0	44	102	1048576	22	4574
2026-01-07 10:28:29.44	342.20	12.63	-30.7	-33.0	11.0	1.68e-03	0	43	102	1048576	22	4692
2026-01-07 10:28:30.44	342.20	12.53	-30.6	-32.6	11.2	2.12e-03	0	44	102	1048576	22	4554
2026-01-07 10:28:31.45	342.20	12.44	-30.6	-32.6	11.3	1.29e-03	0	44	102	1048576	22	4526
2026-01-07 10:28:32.46	342.20	12.34	-30.8	-33.3	10.8	1.83e-03	0	44	102	1048576	22	4786
2026-01-07 10:28:33.47	342.19	12.24	-30.7	-33.0	10.9	2.06e-03	0	44	102	1048576	22	4704
2026-01-07 10:28:34.47	342.19	12.15	-30.8	-33.2	10.9	1.83e-03	0	43	102	1048576	22	4759
2026-01-07 10:28:35.48	342.19	12.05	-30.7	-33.1	10.9	2.47e-03	0	44	102	1048576	22	4707
2026-01-07 10:28:36.49	342.19	11.96	-30.6	-32.8	11.2	1.32e-03	0	44	102	1048576	22	4610
2026-01-07 10:28:37.49	342.19	11.87	-30.7	-33.0	11.0	2.26e-03	0	44	102	1048576	22	4697
2026-01-07 10:28:38.50	342.19	11.77	-30.7	-32.9	11.1	1.68e-03	0	44	102	1048576	22	4662
2026-01-07 10:28:39.50	342.19	11.68	-30.7	-32.9	11.1	2.00e-03	0	44	102	1048576	22	4640
2026-01-07 10:28:40.51	342.19	11.58	-30.5	-32.5	11.3	1.45e-03	0	44	102	1048576	22	4510
2026-01-07 10:28:41.52	342.18	11.49	-30.3	-31.8	11.8	7.22e-04	0	44	102	1048576	22	4279
2026-01-07 10:28:42.52	342.18	11.40	-30.3	-32.2	11.9	4.99e-04	0	44	102	1048576	21	4491
2026-01-07 10:28:43.53	342.18	11.31	-30.2	-32.1	11.9	5.00e-04	0	44	102	1048576	21	4450
2026-01-07 10:28:44.53	342.18	11.22	-30.2	-32.1	11.9	3.30e-04	0	44	102	1048576	21	4449
2026-01-07 10:28:45.54	342.18	11.12	-30.3	-32.2	11.8	3.70e-04	0	44	102	1048576	21	4489
2026-01-07 10:28:46.54	342.18	11.03	-30.2	-32.0	11.9	4.05e-04	0	44	102	1048576	21	4427
2026-01-07 10:28:47.56	342.18	10.94	-30.1	-31.7	12.1	3.37e-04	0	44	102	1048576	21	4329
2026-01-07 10:28:48.56	342.18	10.85	-30.3	-32.4	11.7	4.47e-04	0	44	102	1048576	21	4555
2026-01-07 10:28:49.56	342.18	10.76	-30.3	-32.3	11.7	6.28e-04	0	44	102	1048576	21	4524
2026-01-07 10:28:50.57	342.18	10.67	-30.3	-32.3	11.8	3.81e-04	0	44	102	1048576	21	4522
2026-01-07 10:28:51.58	342.18	10.58	-30.4	-32.5	11.5	6.86e-04	0	44	102	1048576	21	4614
2026-01-07 10:28:52.60	342.17	10.49	-30.4	-32.6	11.5	8.91e-04	0	44	102	1048576	21	4654
2026-01-07 10:28:53.61	342.17	10.40	-30.4	-32.5	11.6	8.16e-04	0	44	102	1048576	21	4607
2026-01-07 10:28:54.61	342.17	10.32	-30.4	-32.5	11.6	8.10e-04	0	44	102	1048576	21	4600
2026-01-07 10:28:55.61	342.17	10.23	-30.3	-32.3	11.7	5.84e-04	0	44	102	1048576	21	4537
2026-01-07 10:28:56.62	342.17	10.14	-30.2	-32.1	11.8	4.51e-04	0	44	102	1048576	21	4453
2026-01-07 10:28:57.62	342.17	10.05	-30.2	-31.9	12.0	2.80e-04	0	44	102	1048576	21	4410
2026-01-07 10:28:58.63	342.17	9.97	-30.2	-32.0	11.9	3.27e-04	0	44	102	1048576	21	4445
2026-01-07 10:28:59.64	342.17	9.88	-30.2	-32.0	11.8	4.23e-04	0	44	102	1048576	21	4446
2026-01-07 10:29:00.64	342.17	9.79	-30.0	-31.4	12.2	2.68e-04	0	44	102	1048576	21	4234
2026-01-07 10:29:01.64	342.17	9.71	-30.0	-31.4	12.3	2.43e-04	0	44	102	1048576	21	4234
2026-01-07 10:29:02.65	342.17	9.62	-30.0	-31.5	12.2	2.06e-04	0	44	102	1048576	21	4258
2026-01-07 10:29:03.66	342.17	9.54	-30.1	-31.6	12.1	1.94e-04	0	44	102	1048576	21	4311
2026-01-07 10:29:04.67	342.17	9.45	-30.0	-31.5	12.2	2.23e-04	0	44	102	1048576	21	4273
2026-01-07 10:29:05.67	342.17	9.37	-30.1	-31.6	12.1	2.44e-04	0	44	102	1048576	21	4309
2026-01-07 10:29:06.68	342.17	9.28	-30.1	-31.8	12.0	3.56e-04	0	44	102	1048576	21	4359
2026-01-07 10:29:07.69	342.17	9.20	-30.1	-31.8	11.9	3.28e-04	0	44	102	1048576	21	4381
2026-01-07 10:29:08.70	342.17	9.11	-30.1	-31.6	12.1	3.28e-04	0	44	102	1048576	21	4309
2026-01-07 10:29:09.70	342.17	9.03	-30.2	-32.0	11.8	3.37e-04	0	44	102	1048576	21	4437
2026-01-07 10:29:10.71	342.17	8.94	-30.1	-31.7	12.0	4.02e-04	0	43	102	1048576	21	4332
2026-01-07 10:29:11.72	342.17	8.86	-30.1	-31.9	11.9	3.37e-04	0	44	102	1048576	21	4392
2026-01-07 10:29:12.73	342.17	8.78	-30.3	-32.4	11.5	5.61e-04	0	44	102	1048576	21	4577
2026-01-07 10:29:13.74	342.17	8.69	-30.3	-32.3	11.6	7.54e-04	0	44	102	1048576	21	4533
2026-01-07 10:29:14.74	342.17	8.61	-30.1	-31.7	12.0	4.30e-04	0	44	102	1048576	21	4331
2026-01-07 10:29:15.75	342.17	8.53	-30.0	-31.6	12.1	2.62e-04	0	44	102	1048576	21	4300
2026-01-07 10:29:16.75	342.17	8.45	-30.1	-31.7	12.0	3.03e-04	0	44	102	1048576	21	4341
2026-01-07 10:29:17.76	342.17	8.37	-30.1	-31.6	12.0	3.10e-04	0	44	102	1048576	21	4321
2026-01-07 10:29:18.76	342.17	8.28	-30.1	-31.8	11.9	3.28e-04	0	44	102	1048576	21	4392
2026-01-07 10:29:19.77	342.17	8.20	-30.1	-31.8	11.9	4.81e-04	0	44	102	1048576	21	4367
2026-01-07 10:29:20.78	342.17	8.12	-30.1	-31.8	11.9	3.99e-04	0	44	102	1048576	21	4366
2026-01-07 10:29:21.79	342.17	8.04	-30.0	-31.5	12.1	3.26e-04	0	44	102	1048576	21	4273
2026-01-07 10:29:22.79	342.17	7.96	-30.0	-31.6	12.0	3.20e-04	0	44	102	1048576	21	4327
2026-01-07 10:29:23.80	342.17	7.88	-30.0	-31.6	12.0	3.66e-04	0	44	102	1048576	21	4325
2026-01-07 10:29:24.81	342.17	7.80	-30.1	-31.8	11.8	4.03e-04	0	44	102	1048576	21	4382
2026-01-07 10:29:25.82	342.17	7.72	-30.1	-31.7	11.9	4.65e-04	0	44	102	1048576	21	4350
2026-01-07 10:29:26.82	342.17	7.64	-30.2	-32.3	11.5	5.28e-04	0	44	102	1048576	21	4548
2026-01-07 10:29:27.83	342.17	7.56	-30.1	-31.8	11.8	7.22e-04	0	44	102	1048576	21	4379
2026-01-07 10:29:28.84	342.17	7.48	-30.1	-31.8	11.7	4.65e-04	0	44	102	1048576	21	4405
2026-01-07 10:29:29.84	342.17	7.41	-30.2	-32.1	11.6	5.83e-04	0	44	102	1048576	21	4482
2026-01-07 10:29:30.85	342.17	7.33	-30.1	-31.9	11.7	5.62e-04	0	44	102	1048576	21	4442
2026-01-07 10:29:31.86	342.17	7.25	-30.3	-32.4	11.4	6.31e-04	0	44	102	1048576	21	4593
2026-01-07 10:29:32.86	342.17	7.17	-30.1	-32.1	11.6	7.86e-04	0	44	102	1048576	21	4483
2026-01-07 10:29:33.87	342.17	7.09	-30.2	-32.1	11.5	9.71e-04	0	44	102	1048576	21	4502
2026-01-07 10:29:34.88	342.17	7.01	-33.0	-45.0	3.8	4.09e-01	0	44	104	1048576	25	14362
2026-01-07 10:29:35.89	342.17	6.94	-33.4	-45.9	3.8	1.49e+00	0	44	104	1048576	26	15270
2026-01-07 10:29:36.90	342.17	6.86	-33.6	-45.9	3.8	1.49e+00	0	44	104	1048576	27	14864

#Closed at: 2026-01-07 10:29:37
#Recorded file [1 MB]: D:/data/31010_260107_132103.dat