passes_logs/2026/01/07/R2M6_AANII_01/R2M6_AANII_01__20260107_094804_NOAA_21_JPSS-2_rec.log

#Pass ID: 20260107_094804_NOAA 21 (JPSS-2)
#Satellite: NOAA 21 (JPSS-2)
#Configuration: NOAA 21
#almurnet v.1.7.20240730
#Start time: 2026-01-07 09:49:21

#Version: 2.2.20231116
#Station: R2M6_AANII_01
#Location: 30.233357 lon 59.946436 lat
#TLE: 1 54234U 22150A   26005.56767909  .00000152  00000+0  92756-4 0  9990
#TLE: 2 54234  98.7490 306.5820 0001036 340.2747  19.8389 14.19532370163472

#Time	Az	El	Level	Level2	SNR	BER	BlckErr	Temp	State	Recorded	gain1	gain2
2026-01-07 09:49:21.33	141.88	13.70	-33.4	-44.9	3.8	8.46e-01	0	43	0	0	26	13402
2026-01-07 09:49:22.33	141.84	13.80	-33.9	-45.2	3.8	1.49e+00	0	43	104	0	29	13177
2026-01-07 09:49:23.33	141.80	13.90	-34.0	-45.2	3.8	1.49e+00	0	44	104	0	29	13186
2026-01-07 09:49:24.34	141.76	14.01	-34.0	-45.3	3.8	1.49e+00	0	44	104	0	29	13287
2026-01-07 09:49:25.34	141.72	14.11	-34.0	-45.3	3.8	1.49e+00	0	43	104	0	29	13283
2026-01-07 09:49:26.35	141.68	14.21	-34.0	-45.4	3.8	1.49e+00	0	43	104	0	29	13304
2026-01-07 09:49:27.36	141.64	14.31	-34.0	-45.4	3.8	1.49e+00	0	43	104	0	29	13335
2026-01-07 09:49:28.36	141.60	14.41	-34.0	-45.4	3.8	1.49e+00	0	43	104	0	29	13359
2026-01-07 09:49:29.37	141.56	14.52	-34.0	-45.4	3.8	1.49e+00	0	43	104	0	29	13356
2026-01-07 09:49:30.38	141.51	14.62	-34.0	-45.4	3.8	1.49e+00	0	43	104	0	29	13322
2026-01-07 09:49:31.39	141.47	14.73	-34.0	-45.4	3.8	1.49e+00	0	43	104	0	29	13317
2026-01-07 09:49:32.39	141.43	14.83	-34.0	-45.3	3.8	1.49e+00	0	43	104	0	29	13265
2026-01-07 09:49:33.40	141.39	14.94	-34.0	-45.3	3.8	1.49e+00	0	43	104	0	29	13282
2026-01-07 09:49:34.40	141.35	15.04	-34.0	-45.4	3.8	1.49e+00	0	43	104	0	29	13309
2026-01-07 09:49:35.41	141.30	15.15	-34.0	-45.3	3.8	1.49e+00	0	44	104	0	29	13287
2026-01-07 09:49:36.42	141.26	15.26	-34.0	-45.4	3.8	1.49e+00	0	43	104	0	29	13317
2026-01-07 09:49:37.42	141.22	15.36	-34.0	-45.3	3.8	1.49e+00	0	43	104	0	29	13224
2026-01-07 09:49:38.43	141.17	15.47	-34.0	-45.4	3.8	1.49e+00	0	44	104	0	29	13327
2026-01-07 09:49:39.43	141.13	15.58	-34.0	-45.3	3.8	1.49e+00	0	44	104	0	29	13259
2026-01-07 09:49:40.44	141.08	15.69	-34.1	-45.4	3.8	1.49e+00	0	44	104	0	29	13356
2026-01-07 09:49:41.45	141.04	15.80	-34.1	-45.6	3.8	1.49e+00	0	43	104	0	29	13463
2026-01-07 09:49:42.45	140.99	15.90	-34.1	-45.7	3.8	1.49e+00	0	43	104	0	29	13538
2026-01-07 09:49:43.46	140.95	16.01	-34.2	-45.7	3.8	1.49e+00	0	43	104	0	29	13585
2026-01-07 09:49:44.47	140.90	16.12	-34.2	-45.7	3.8	1.49e+00	0	43	104	0	29	13585
2026-01-07 09:49:45.47	140.86	16.24	-34.2	-45.7	3.8	1.49e+00	0	44	104	0	29	13549
2026-01-07 09:49:46.48	140.81	16.35	-34.2	-45.7	3.8	1.49e+00	0	43	104	0	29	13541
2026-01-07 09:49:47.48	140.76	16.46	-34.1	-45.5	3.8	1.49e+00	0	43	104	0	29	13423
2026-01-07 09:49:48.49	140.71	16.57	-34.0	-45.4	3.8	1.49e+00	0	44	104	0	29	13337
2026-01-07 09:49:49.49	140.67	16.68	-34.0	-45.3	3.8	1.49e+00	0	43	104	0	29	13215
2026-01-07 09:49:50.50	140.62	16.80	-33.9	-45.2	3.8	1.49e+00	0	43	104	0	29	13167
2026-01-07 09:49:51.51	140.57	16.91	-33.9	-45.1	3.8	1.49e+00	0	44	104	0	29	13072
2026-01-07 09:49:52.51	140.52	17.02	-33.8	-44.9	3.8	1.49e+00	0	44	104	0	29	12977
2026-01-07 09:49:53.52	140.47	17.14	-33.7	-45.2	3.8	1.49e+00	0	43	104	0	28	13594
2026-01-07 09:49:54.53	140.42	17.25	-33.5	-44.8	3.8	1.49e+00	0	44	104	0	28	13172
2026-01-07 09:49:55.53	140.37	17.37	-33.3	-44.4	3.8	1.49e+00	0	44	104	0	28	12920
2026-01-07 09:49:56.54	140.32	17.49	-33.1	-42.2	3.9	1.48e+00	0	44	104	0	27	10339
2026-01-07 09:49:57.54	140.27	17.60	-33.0	-41.2	4.2	1.47e+00	0	44	104	0	27	9199
2026-01-07 09:49:58.55	140.22	17.72	-32.9	-41.2	3.9	1.45e+00	0	44	104	0	27	9335
2026-01-07 09:49:59.56	140.17	17.84	-32.9	-40.4	4.5	1.41e+00	0	43	104	0	27	8501
2026-01-07 09:50:00.57	140.11	17.96	-32.9	-40.9	3.9	1.48e+00	0	44	104	0	27	9102
2026-01-07 09:50:01.58	140.06	18.08	-32.9	-40.4	4.4	1.38e+00	0	44	104	0	27	8581
2026-01-07 09:50:02.58	140.01	18.20	-32.9	-41.2	3.9	1.48e+00	0	43	104	0	27	9327
2026-01-07 09:50:03.59	139.95	18.32	-32.9	-40.9	3.9	1.43e+00	0	44	104	0	27	9111
2026-01-07 09:50:04.60	139.90	18.44	-32.8	-40.0	4.7	1.47e+00	0	43	104	0	26	8316
2026-01-07 09:50:05.61	139.85	18.56	-32.4	-38.2	5.6	5.90e-01	0	44	0	0	26	7026
2026-01-07 09:50:06.62	139.79	18.68	-31.9	-36.5	6.9	2.33e-01	0	44	102	1048576	25	6081
2026-01-07 09:50:07.62	139.74	18.80	-31.3	-34.7	8.6	5.84e-02	0	44	102	1048576	24	5333
2026-01-07 09:50:08.62	139.68	18.92	-30.6	-33.6	10.0	9.56e-03	0	43	102	1048576	22	5074
2026-01-07 09:50:09.62	139.62	19.05	-29.9	-32.2	11.3	1.61e-03	0	43	102	1048576	21	4678
2026-01-07 09:50:10.63	139.57	19.17	-29.4	-31.4	12.2	3.50e-04	0	44	102	1048576	20	4498
2026-01-07 09:50:11.64	139.51	19.30	-29.0	-30.9	12.9	7.78e-05	0	44	102	1048576	19	4433
2026-01-07 09:50:12.64	139.45	19.42	-28.8	-30.3	13.2	2.21e-05	0	44	102	1048576	19	4256
2026-01-07 09:50:13.65	139.39	19.55	-28.8	-30.8	13.2	2.74e-05	0	44	102	1048576	18	4522
2026-01-07 09:50:14.66	139.33	19.67	-29.0	-31.2	13.0	3.81e-05	0	44	102	1048576	18	4638
2026-01-07 09:50:15.67	139.27	19.80	-29.3	-32.0	12.5	8.92e-05	0	44	102	1048576	18	4907
2026-01-07 09:50:16.68	139.21	19.93	-29.4	-31.9	12.2	2.37e-04	0	44	102	1048576	19	4777
2026-01-07 09:50:17.68	139.15	20.06	-29.2	-31.2	12.6	1.57e-04	0	43	102	1048576	19	4553
2026-01-07 09:50:18.69	139.09	20.19	-29.3	-31.4	12.5	8.39e-05	0	43	102	1048576	19	4614
2026-01-07 09:50:19.70	139.03	20.32	-29.1	-31.0	12.8	9.76e-05	0	43	102	1048576	19	4491
2026-01-07 09:50:20.71	138.97	20.45	-28.8	-30.3	13.2	3.05e-05	0	43	102	1048576	19	4275
2026-01-07 09:50:21.72	138.91	20.58	-28.6	-30.4	13.5	1.06e-05	0	44	102	1048576	18	4395
2026-01-07 09:50:22.72	138.84	20.71	-28.7	-30.4	13.5	1.22e-05	0	43	102	1048576	18	4408
2026-01-07 09:50:23.73	138.78	20.84	-29.0	-31.2	13.0	1.98e-05	0	43	102	1048576	18	4658
2026-01-07 09:50:24.74	138.72	20.98	-28.7	-30.6	13.3	3.66e-05	0	43	102	1048576	18	4476
2026-01-07 09:50:25.75	138.65	21.11	-28.3	-29.5	14.0	9.10e-06	0	43	102	1048576	18	4143
2026-01-07 09:50:26.76	138.59	21.25	-27.9	-29.2	14.5	3.80e-06	0	43	102	1048576	17	4157
2026-01-07 09:50:27.77	138.52	21.38	-27.6	-28.8	15.0	0.00e+00	0	44	102	1048576	16	4148
2026-01-07 09:50:28.77	138.45	21.52	-27.3	-28.2	15.4	0.00e+00	0	44	102	1048576	16	3990
2026-01-07 09:50:29.78	138.39	21.65	-27.0	-28.0	15.6	0.00e+00	0	43	102	1048576	15	4057
2026-01-07 09:50:30.79	138.32	21.79	-26.8	-27.6	15.8	0.00e+00	0	43	102	1048576	15	3937
2026-01-07 09:50:31.80	138.25	21.93	-26.8	-28.2	15.8	0.00e+00	0	44	102	1048576	14	4198
2026-01-07 09:50:32.80	138.18	22.07	-26.8	-28.1	15.8	0.00e+00	0	43	102	1048576	14	4179
2026-01-07 09:50:33.81	138.11	22.20	-26.8	-28.2	15.8	0.00e+00	0	44	102	1048576	14	4211
2026-01-07 09:50:34.82	138.04	22.35	-26.7	-27.9	15.9	0.00e+00	0	43	102	1048576	14	4137
2026-01-07 09:50:35.82	137.97	22.48	-26.5	-27.5	16.2	0.00e+00	0	44	102	1048576	14	4013
2026-01-07 09:50:36.82	137.90	22.63	-26.3	-27.1	16.4	0.00e+00	0	44	102	1048576	14	3917
2026-01-07 09:50:37.83	137.82	22.77	-26.3	-27.1	16.4	0.00e+00	0	44	102	1048576	14	3911
2026-01-07 09:50:38.83	137.75	22.91	-26.3	-27.4	16.5	7.00e-07	0	44	102	1048576	13	4086
2026-01-07 09:50:39.83	137.68	23.05	-26.4	-27.6	16.4	0.00e+00	0	44	102	1048576	13	4148
2026-01-07 09:50:40.84	137.60	23.20	-26.2	-27.3	16.5	0.00e+00	0	44	102	1048576	13	4079
2026-01-07 09:50:41.84	137.53	23.34	-26.1	-27.1	16.7	0.00e+00	0	44	102	1048576	13	4026
2026-01-07 09:50:42.85	137.45	23.49	-26.2	-27.2	16.6	0.00e+00	0	44	102	1048576	13	4051
2026-01-07 09:50:43.85	137.38	23.63	-26.3	-27.4	16.5	0.00e+00	0	43	102	1048576	13	4095
2026-01-07 09:50:44.86	137.30	23.78	-26.2	-27.3	16.5	0.00e+00	0	43	102	1048576	13	4083
2026-01-07 09:50:45.86	137.22	23.93	-26.4	-27.6	16.4	0.00e+00	0	44	102	1048576	13	4153
2026-01-07 09:50:46.86	137.14	24.07	-26.4	-27.7	16.3	0.00e+00	0	43	102	1048576	13	4184
2026-01-07 09:50:47.87	137.06	24.22	-26.4	-27.7	16.4	0.00e+00	0	43	102	1048576	13	4181
2026-01-07 09:50:48.88	136.98	24.38	-26.5	-27.9	16.2	0.00e+00	0	43	102	1048576	13	4231
2026-01-07 09:50:49.88	136.90	24.53	-26.5	-28.0	16.2	0.00e+00	0	43	102	1048576	13	4251
2026-01-07 09:50:50.89	136.82	24.68	-26.6	-28.2	16.1	0.00e+00	0	44	102	1048576	13	4331
2026-01-07 09:50:51.89	136.74	24.83	-26.6	-28.2	16.1	0.00e+00	0	43	102	1048576	13	4316
2026-01-07 09:50:52.90	136.65	24.98	-26.9	-28.8	15.8	0.00e+00	0	44	102	1048576	13	4476
2026-01-07 09:50:53.90	136.57	25.14	-26.8	-28.5	16.0	0.00e+00	0	43	102	1048576	13	4406
2026-01-07 09:50:54.91	136.48	25.29	-26.5	-28.0	16.3	0.00e+00	0	44	102	1048576	13	4258
2026-01-07 09:50:55.92	136.40	25.45	-26.6	-28.1	16.2	0.00e+00	0	43	102	1048576	13	4281
2026-01-07 09:50:56.93	136.31	25.61	-26.7	-28.3	16.1	0.00e+00	0	44	102	1048576	13	4336
2026-01-07 09:50:57.94	136.22	25.77	-26.7	-28.4	16.1	0.00e+00	0	44	102	1048576	13	4359
2026-01-07 09:50:58.94	136.13	25.92	-26.8	-28.5	16.0	0.00e+00	0	43	102	1048576	13	4401
2026-01-07 09:50:59.96	136.04	26.09	-26.8	-28.6	16.0	0.00e+00	0	44	102	1048576	13	4410
2026-01-07 09:51:00.96	135.95	26.24	-26.8	-28.6	16.0	0.00e+00	0	44	102	1048576	13	4431
2026-01-07 09:51:01.97	135.86	26.41	-26.8	-28.7	15.9	0.00e+00	0	44	102	1048576	13	4441
2026-01-07 09:51:02.98	135.76	26.57	-26.9	-28.7	15.9	0.00e+00	0	43	102	1048576	13	4462
2026-01-07 09:51:03.99	135.67	26.73	-26.9	-28.8	15.9	0.00e+00	0	44	102	1048576	13	4476
2026-01-07 09:51:04.99	135.58	26.90	-27.1	-28.7	15.7	0.00e+00	0	43	102	1048576	14	4328
2026-01-07 09:51:06.00	135.48	27.06	-27.1	-28.7	15.7	0.00e+00	0	44	102	1048576	14	4334
2026-01-07 09:51:07.00	135.38	27.23	-27.2	-29.0	15.6	0.00e+00	0	44	102	1048576	14	4410
2026-01-07 09:51:08.01	135.28	27.39	-27.2	-28.9	15.6	0.00e+00	0	43	102	1048576	14	4387
2026-01-07 09:51:09.02	135.19	27.56	-27.2	-29.0	15.5	0.00e+00	0	43	102	1048576	14	4430
2026-01-07 09:51:10.02	135.09	27.73	-27.3	-29.2	15.5	0.00e+00	0	44	102	1048576	14	4469
2026-01-07 09:51:11.03	134.98	27.90	-27.3	-29.2	15.4	0.00e+00	0	44	102	1048576	14	4489
2026-01-07 09:51:12.04	134.88	28.07	-27.4	-29.3	15.4	0.00e+00	0	44	102	1048576	14	4516
2026-01-07 09:51:13.05	134.78	28.24	-27.5	-29.2	15.2	0.00e+00	0	44	102	1048576	15	4360
2026-01-07 09:51:14.05	134.67	28.41	-27.4	-28.9	15.3	0.00e+00	0	44	102	1048576	15	4292
2026-01-07 09:51:15.05	134.57	28.59	-27.4	-29.0	15.3	0.00e+00	0	44	102	1048576	15	4313
2026-01-07 09:51:16.06	134.46	28.76	-27.4	-28.9	15.4	0.00e+00	0	44	102	1048576	15	4288
2026-01-07 09:51:17.07	134.35	28.94	-27.5	-29.1	15.2	0.00e+00	0	44	102	1048576	15	4347
2026-01-07 09:51:18.08	134.24	29.11	-27.4	-28.9	15.4	7.00e-07	0	43	102	1048576	15	4265
2026-01-07 09:51:19.09	134.13	29.29	-27.5	-29.2	15.2	0.00e+00	0	44	102	1048576	15	4369
2026-01-07 09:51:20.10	134.02	29.47	-27.3	-28.6	15.5	0.00e+00	0	43	102	1048576	15	4207
2026-01-07 09:51:21.11	133.91	29.65	-27.2	-28.4	15.7	7.00e-07	0	44	102	1048576	15	4142
2026-01-07 09:51:22.11	133.79	29.83	-27.2	-28.4	15.7	0.00e+00	0	43	102	1048576	15	4134
2026-01-07 09:51:23.12	133.68	30.01	-27.0	-28.0	15.9	6.10e-06	0	43	102	1048576	15	4038
2026-01-07 09:51:24.12	133.56	30.19	-26.9	-27.8	16.0	0.00e+00	0	43	102	1048576	15	3985
2026-01-07 09:51:25.13	133.44	30.38	-26.9	-27.8	16.0	0.00e+00	0	44	102	1048576	15	3991
2026-01-07 09:51:26.14	133.32	30.56	-26.8	-27.5	16.2	9.90e-06	0	43	102	1048576	15	3906
2026-01-07 09:51:27.15	133.20	30.75	-26.7	-27.9	16.3	0.00e+00	0	44	102	1048576	14	4100
2026-01-07 09:51:28.15	133.08	30.93	-26.8	-28.0	16.2	0.00e+00	0	44	102	1048576	14	4142
2026-01-07 09:51:29.16	132.95	31.12	-26.9	-28.3	16.0	3.00e-06	0	44	102	1048576	14	4231
2026-01-07 09:51:30.17	132.83	31.31	-27.0	-28.5	15.9	0.00e+00	0	43	102	1048576	14	4269
2026-01-07 09:51:31.17	132.70	31.50	-27.1	-28.7	15.8	0.00e+00	0	43	102	1048576	14	4334
2026-01-07 09:51:32.18	132.57	31.69	-27.1	-28.8	15.8	6.10e-06	0	43	102	1048576	14	4357
2026-01-07 09:51:33.18	132.44	31.88	-27.3	-29.2	15.5	0.00e+00	0	43	102	1048576	14	4476
2026-01-07 09:51:34.19	132.31	32.07	-27.3	-29.1	15.6	0.00e+00	0	43	102	1048576	14	4452
2026-01-07 09:51:35.20	132.18	32.27	-27.5	-29.6	15.3	1.14e-05	0	43	102	1048576	14	4587
2026-01-07 09:51:36.20	132.04	32.46	-27.6	-29.4	15.2	0.00e+00	0	43	102	1048576	15	4416
2026-01-07 09:51:37.21	131.91	32.66	-27.4	-28.9	15.5	0.00e+00	0	43	102	1048576	15	4264
2026-01-07 09:51:38.21	131.77	32.85	-27.2	-28.3	15.8	0.00e+00	0	43	102	1048576	15	4119
2026-01-07 09:51:39.22	131.63	33.05	-27.2	-28.4	15.7	0.00e+00	0	44	102	1048576	15	4135
2026-01-07 09:51:40.23	131.49	33.25	-27.2	-28.5	15.7	0.00e+00	0	43	102	1048576	15	4154
2026-01-07 09:51:41.23	131.34	33.45	-27.2	-28.3	15.8	0.00e+00	0	44	102	1048576	15	4113
2026-01-07 09:51:42.24	131.20	33.65	-27.3	-28.6	15.6	0.00e+00	0	43	102	1048576	15	4186
2026-01-07 09:51:43.24	131.05	33.85	-27.4	-28.7	15.6	0.00e+00	0	43	102	1048576	15	4218
2026-01-07 09:51:44.25	130.90	34.06	-27.4	-28.9	15.5	0.00e+00	0	44	102	1048576	15	4260
2026-01-07 09:51:45.26	130.75	34.26	-27.5	-29.1	15.4	0.00e+00	0	43	102	1048576	15	4329
2026-01-07 09:51:46.26	130.60	34.47	-27.7	-29.5	15.2	0.00e+00	0	43	102	1048576	15	4425
2026-01-07 09:51:47.27	130.44	34.68	-27.8	-29.7	15.1	0.00e+00	0	44	102	1048576	15	4477
2026-01-07 09:51:48.27	130.29	34.88	-28.1	-30.0	14.8	7.00e-07	0	43	102	1048576	16	4467
2026-01-07 09:51:49.28	130.13	35.09	-28.3	-30.3	14.6	7.00e-07	0	44	102	1048576	16	4545
2026-01-07 09:51:50.29	129.97	35.30	-28.5	-30.2	14.3	0.00e+00	0	43	102	1048576	17	4417
2026-01-07 09:51:51.30	129.80	35.52	-28.6	-30.6	14.1	1.50e-06	0	43	102	1048576	17	4536
2026-01-07 09:51:52.31	129.64	35.73	-28.7	-30.9	14.0	3.00e-06	0	43	102	1048576	17	4628
2026-01-07 09:51:53.30	129.47	35.94	-28.9	-31.2	13.8	2.20e-06	0	43	102	1048576	17	4717
2026-01-07 09:51:54.31	129.30	36.16	-29.0	-31.5	13.7	3.80e-06	0	43	102	1048576	17	4798
2026-01-07 09:51:55.32	129.13	36.37	-29.0	-31.0	13.7	6.10e-06	0	43	102	1048576	18	4528
2026-01-07 09:51:56.32	128.96	36.59	-29.0	-31.1	13.6	6.10e-06	0	43	102	1048576	18	4555
2026-01-07 09:51:57.33	128.78	36.81	-29.0	-31.0	13.6	6.10e-06	0	44	102	1048576	18	4541
2026-01-07 09:51:58.33	128.60	37.02	-28.8	-30.7	13.9	2.20e-06	0	43	102	1048576	18	4432
2026-01-07 09:51:59.34	128.42	37.25	-28.8	-30.5	14.0	2.20e-06	0	43	102	1048576	18	4374
2026-01-07 09:52:00.35	128.23	37.47	-28.8	-30.6	13.9	5.30e-06	0	43	102	1048576	18	4407
2026-01-07 09:52:01.35	128.05	37.69	-28.9	-30.8	13.8	1.50e-06	0	44	102	1048576	18	4476
2026-01-07 09:52:02.36	127.86	37.92	-29.0	-31.0	13.7	8.30e-06	0	43	102	1048576	18	4533
2026-01-07 09:52:03.37	127.67	38.14	-29.1	-31.1	13.6	8.30e-06	0	43	102	1048576	18	4577
2026-01-07 09:52:04.37	127.47	38.37	-29.0	-31.1	13.6	7.60e-06	0	43	102	1048576	18	4555
2026-01-07 09:52:05.38	127.27	38.59	-29.1	-31.2	13.6	9.10e-06	0	43	102	1048576	18	4584
2026-01-07 09:52:06.38	127.07	38.82	-29.0	-30.9	13.7	6.80e-06	0	43	102	1048576	18	4515
2026-01-07 09:52:07.39	126.87	39.05	-29.0	-31.1	13.6	5.30e-06	0	44	102	1048576	18	4570
2026-01-07 09:52:08.39	126.67	39.28	-29.1	-31.3	13.5	9.90e-06	0	43	102	1048576	18	4632
2026-01-07 09:52:09.40	126.46	39.51	-29.2	-31.5	13.4	1.29e-05	0	43	102	1048576	18	4696
2026-01-07 09:52:10.40	126.25	39.75	-29.2	-31.5	13.4	1.29e-05	0	43	102	1048576	18	4685
2026-01-07 09:52:11.41	126.03	39.98	-29.2	-31.5	13.3	2.13e-05	0	43	102	1048576	18	4707
2026-01-07 09:52:12.42	125.81	40.22	-28.9	-30.8	13.8	5.30e-06	0	44	102	1048576	18	4478
2026-01-07 09:52:13.42	125.59	40.45	-28.8	-30.6	13.9	3.00e-06	0	43	102	1048576	18	4406
2026-01-07 09:52:14.43	125.36	40.69	-28.8	-30.6	13.9	7.00e-07	0	43	102	1048576	18	4404
2026-01-07 09:52:15.44	125.13	40.93	-28.7	-30.4	14.1	3.00e-06	0	44	102	1048576	18	4341
2026-01-07 09:52:16.45	124.90	41.17	-28.6	-30.1	14.2	3.80e-06	0	43	102	1048576	18	4264
2026-01-07 09:52:17.46	124.67	41.41	-28.5	-29.7	14.5	0.00e+00	0	44	102	1048576	18	4163
2026-01-07 09:52:18.46	124.43	41.65	-28.6	-30.0	14.4	0.00e+00	0	43	102	1048576	18	4226
2026-01-07 09:52:19.47	124.19	41.89	-28.9	-30.6	14.0	2.20e-06	0	44	102	1048576	18	4419
2026-01-07 09:52:20.48	123.94	42.14	-29.1	-31.1	13.7	6.80e-06	0	43	102	1048576	18	4570
2026-01-07 09:52:21.48	123.69	42.38	-29.3	-31.8	13.3	2.05e-05	0	43	102	1048576	18	4768
2026-01-07 09:52:22.49	123.44	42.63	-29.5	-32.1	13.1	2.67e-05	0	44	102	1048576	18	4890
2026-01-07 09:52:23.50	123.18	42.87	-29.5	-31.8	13.0	3.66e-05	0	44	102	1048576	19	4663
2026-01-07 09:52:24.50	122.92	43.12	-29.6	-31.9	12.9	4.04e-05	0	44	102	1048576	19	4706
2026-01-07 09:52:25.51	122.65	43.37	-29.7	-32.2	12.8	5.34e-05	0	44	102	1048576	19	4789
2026-01-07 09:52:26.52	122.38	43.62	-29.7	-32.3	12.7	7.78e-05	0	43	102	1048576	19	4817
2026-01-07 09:52:27.53	122.10	43.87	-29.7	-32.2	12.7	6.33e-05	0	43	102	1048576	19	4796
2026-01-07 09:52:28.54	121.82	44.12	-29.8	-32.5	12.6	1.08e-04	0	44	102	1048576	19	4895
2026-01-07 09:52:29.55	121.54	44.38	-29.8	-32.4	12.6	1.17e-04	0	43	102	1048576	19	4874
2026-01-07 09:52:30.56	121.25	44.63	-29.7	-32.3	12.7	7.70e-05	0	44	102	1048576	19	4838
2026-01-07 09:52:31.56	120.96	44.88	-29.7	-32.1	12.8	6.79e-05	0	44	102	1048576	19	4781
2026-01-07 09:52:32.57	120.66	45.14	-29.7	-32.2	12.7	7.01e-05	0	43	102	1048576	19	4814
2026-01-07 09:52:33.58	120.36	45.39	-29.8	-32.5	12.6	7.55e-05	0	43	102	1048576	19	4912
2026-01-07 09:52:34.59	120.05	45.65	-29.9	-32.7	12.4	1.22e-04	0	44	102	1048576	19	4985
2026-01-07 09:52:35.60	119.74	45.91	-29.8	-32.6	12.5	1.12e-04	0	44	102	1048576	19	4931
2026-01-07 09:52:36.61	119.42	46.16	-29.7	-32.3	12.7	8.31e-05	0	44	102	1048576	19	4833
2026-01-07 09:52:37.62	119.09	46.42	-29.8	-32.4	12.6	7.40e-05	0	44	102	1048576	19	4856
2026-01-07 09:52:38.62	118.77	46.68	-29.7	-32.2	12.7	9.46e-05	0	43	102	1048576	19	4808
2026-01-07 09:52:39.63	118.43	46.94	-29.4	-31.5	13.2	3.81e-05	0	43	102	1048576	19	4591
2026-01-07 09:52:40.64	118.09	47.20	-29.3	-31.1	13.5	1.37e-05	0	43	102	1048576	19	4445
2026-01-07 09:52:41.64	117.75	47.46	-29.2	-31.1	13.5	1.14e-05	0	43	102	1048576	19	4440
2026-01-07 09:52:42.65	117.40	47.72	-29.2	-30.9	13.6	1.37e-05	0	43	102	1048576	19	4403
2026-01-07 09:52:43.66	117.04	47.98	-29.2	-30.9	13.6	6.10e-06	0	43	102	1048576	19	4376
2026-01-07 09:52:44.66	116.68	48.24	-29.0	-30.3	13.9	3.00e-06	0	43	102	1048576	19	4219
2026-01-07 09:52:45.67	116.31	48.50	-29.2	-30.9	13.6	6.10e-06	0	43	102	1048576	19	4391
2026-01-07 09:52:46.68	115.93	48.76	-29.4	-31.6	13.2	2.13e-05	0	44	102	1048576	19	4595
2026-01-07 09:52:47.68	115.55	49.02	-29.7	-32.3	12.8	5.26e-05	0	43	102	1048576	19	4823
2026-01-07 09:52:48.69	115.16	49.29	-29.6	-32.0	12.9	7.55e-05	0	43	102	1048576	19	4727
2026-01-07 09:52:49.69	114.77	49.55	-29.2	-31.0	13.5	1.37e-05	0	43	102	1048576	19	4416
2026-01-07 09:52:50.70	114.37	49.81	-29.2	-30.9	13.6	5.30e-06	0	43	102	1048576	19	4368
2026-01-07 09:52:51.71	113.96	50.07	-29.2	-31.0	13.6	9.10e-06	0	44	102	1048576	19	4399
2026-01-07 09:52:52.72	113.54	50.33	-29.3	-31.2	13.5	1.52e-05	0	43	102	1048576	19	4476
2026-01-07 09:52:53.72	113.12	50.59	-29.5	-31.8	13.1	2.59e-05	0	43	102	1048576	19	4665
2026-01-07 09:52:54.73	112.69	50.86	-29.6	-31.9	13.0	5.95e-05	0	43	102	1048576	19	4680
2026-01-07 09:52:55.74	112.25	51.12	-29.3	-31.3	13.4	2.51e-05	0	43	102	1048576	19	4507
2026-01-07 09:52:56.74	111.80	51.38	-29.1	-30.6	13.7	1.14e-05	0	43	102	1048576	19	4291
2026-01-07 09:52:57.75	111.35	51.64	-29.1	-30.6	13.8	3.80e-06	0	43	102	1048576	19	4305
2026-01-07 09:52:58.75	110.89	51.90	-29.5	-31.6	13.2	1.52e-05	0	44	102	1048576	19	4597
2026-01-07 09:52:59.76	110.42	52.16	-29.8	-32.4	12.8	5.95e-05	0	43	102	1048576	19	4871
2026-01-07 09:53:00.77	109.94	52.42	-29.5	-31.7	13.2	3.58e-05	0	43	102	1048576	19	4621
2026-01-07 09:53:01.78	109.45	52.67	-28.9	-30.2	14.1	5.30e-06	0	43	102	1048576	19	4191
2026-01-07 09:53:02.79	108.95	52.93	-28.4	-29.6	14.6	0.00e+00	0	43	102	1048576	18	4122
2026-01-07 09:53:03.80	108.44	53.19	-28.3	-29.4	14.9	7.00e-07	0	43	102	1048576	18	4056
2026-01-07 09:53:04.81	107.93	53.44	-28.6	-29.9	14.5	0.00e+00	0	43	102	1048576	18	4190
2026-01-07 09:53:05.81	107.41	53.70	-28.6	-30.1	14.4	0.00e+00	0	43	102	1048576	18	4250
2026-01-07 09:53:06.82	106.88	53.95	-28.5	-29.7	14.7	0.00e+00	0	43	102	1048576	18	4155
2026-01-07 09:53:07.83	106.33	54.20	-28.0	-29.2	15.2	0.00e+00	0	43	102	1048576	17	4111
2026-01-07 09:53:08.84	105.78	54.45	-27.8	-28.7	15.5	0.00e+00	0	43	102	1048576	17	3978
2026-01-07 09:53:09.85	105.22	54.70	-27.9	-28.9	15.4	0.00e+00	0	43	102	1048576	17	4041
2026-01-07 09:53:10.85	104.65	54.95	-27.9	-29.0	15.3	0.00e+00	0	43	102	1048576	17	4065
2026-01-07 09:53:11.86	104.07	55.19	-28.1	-29.3	15.1	0.00e+00	0	43	102	1048576	17	4159
2026-01-07 09:53:12.87	103.47	55.44	-28.5	-30.4	14.6	0.00e+00	0	44	102	1048576	17	4455
2026-01-07 09:53:13.88	102.87	55.68	-28.4	-30.0	14.8	0.00e+00	0	44	102	1048576	17	4327
2026-01-07 09:53:14.89	102.26	55.92	-28.0	-29.1	15.3	0.00e+00	0	44	102	1048576	17	4083
2026-01-07 09:53:15.89	101.64	56.15	-27.8	-28.7	15.4	0.00e+00	0	44	102	1048576	17	3981
2026-01-07 09:53:16.90	101.00	56.39	-28.0	-29.5	15.2	0.00e+00	0	43	102	1048576	16	4302
2026-01-07 09:53:17.91	100.36	56.62	-27.7	-29.0	15.6	0.00e+00	0	43	102	1048576	16	4164
2026-01-07 09:53:18.92	99.70	56.85	-27.9	-29.3	15.4	7.00e-07	0	44	102	1048576	16	4235
2026-01-07 09:53:19.92	99.04	57.08	-27.6	-28.8	15.7	0.00e+00	0	44	102	1048576	16	4099
2026-01-07 09:53:20.93	98.36	57.30	-27.3	-28.0	16.2	0.00e+00	0	44	102	1048576	16	3902
2026-01-07 09:53:21.94	97.67	57.52	-27.1	-28.1	16.2	0.00e+00	0	43	102	1048576	15	4037
2026-01-07 09:53:22.94	96.98	57.74	-27.5	-29.0	15.8	0.00e+00	0	43	102	1048576	15	4269
2026-01-07 09:53:23.95	96.27	57.95	-27.6	-29.2	15.6	0.00e+00	0	43	102	1048576	15	4324
2026-01-07 09:53:24.96	95.54	58.16	-27.5	-29.1	15.7	0.00e+00	0	44	102	1048576	15	4304
2026-01-07 09:53:25.96	94.82	58.37	-27.6	-29.2	15.7	0.00e+00	0	43	102	1048576	15	4330
2026-01-07 09:53:26.97	94.07	58.57	-27.9	-29.8	15.3	0.00e+00	0	44	102	1048576	15	4515
2026-01-07 09:53:27.98	93.31	58.77	-27.4	-28.7	15.9	0.00e+00	0	44	102	1048576	15	4190
2026-01-07 09:53:28.99	92.54	58.97	-27.1	-28.2	16.2	0.00e+00	0	43	102	1048576	15	4071
2026-01-07 09:53:30.00	91.76	59.16	-27.0	-27.8	16.4	0.00e+00	0	43	102	1048576	15	3969
2026-01-07 09:53:31.01	90.97	59.35	-26.9	-27.8	16.4	0.00e+00	0	43	102	1048576	15	3964
2026-01-07 09:53:32.02	90.16	59.53	-27.1	-28.2	16.1	0.00e+00	0	43	102	1048576	15	4069
2026-01-07 09:53:33.03	89.35	59.71	-27.2	-28.3	16.1	0.00e+00	0	43	102	1048576	15	4105
2026-01-07 09:53:34.04	88.52	59.88	-27.1	-28.2	16.2	0.00e+00	0	44	102	1048576	15	4065
2026-01-07 09:53:35.04	87.69	60.05	-27.3	-28.5	16.0	0.00e+00	0	43	102	1048576	15	4160
2026-01-07 09:53:36.05	86.85	60.21	-27.3	-28.5	16.1	0.00e+00	0	43	102	1048576	15	4141
2026-01-07 09:53:37.06	85.99	60.37	-27.5	-29.0	15.8	0.00e+00	0	44	102	1048576	15	4296
2026-01-07 09:53:38.06	85.13	60.52	-27.1	-28.2	16.2	0.00e+00	0	43	102	1048576	15	4063
2026-01-07 09:53:39.06	84.26	60.67	-26.7	-27.6	16.8	0.00e+00	0	43	102	1048576	14	4028
2026-01-07 09:53:40.06	83.38	60.81	-26.5	-27.4	16.9	1.50e-06	0	43	102	1048576	14	3962
2026-01-07 09:53:41.08	82.47	60.94	-26.9	-28.3	16.5	0.00e+00	0	44	102	1048576	14	4188
2026-01-07 09:53:42.09	81.56	61.07	-26.9	-28.1	16.5	0.00e+00	0	43	102	1048576	14	4146
2026-01-07 09:53:43.09	80.65	61.19	-27.0	-28.4	16.4	0.00e+00	0	44	102	1048576	14	4222
2026-01-07 09:53:44.09	79.73	61.31	-26.8	-27.9	16.7	0.00e+00	0	43	102	1048576	14	4097
2026-01-07 09:53:45.10	78.80	61.42	-26.6	-27.6	16.8	0.00e+00	0	44	102	1048576	14	4007
2026-01-07 09:53:46.11	77.86	61.52	-26.8	-28.0	16.6	0.00e+00	0	43	102	1048576	14	4112
2026-01-07 09:53:47.12	76.91	61.62	-27.0	-28.5	16.4	0.00e+00	0	44	102	1048576	14	4245
2026-01-07 09:53:48.12	75.96	61.71	-27.1	-28.7	16.2	0.00e+00	0	43	102	1048576	14	4306
2026-01-07 09:53:49.13	74.99	61.80	-27.8	-29.7	15.4	7.00e-07	0	44	102	1048576	15	4494
2026-01-07 09:53:50.14	74.02	61.87	-27.4	-28.9	15.8	0.00e+00	0	44	102	1048576	15	4256
2026-01-07 09:53:51.15	73.05	61.94	-26.6	-27.5	16.9	0.00e+00	0	43	102	1048576	14	3988
2026-01-07 09:53:52.16	72.06	62.00	-26.2	-27.0	17.3	0.00e+00	0	43	102	1048576	13	3980
2026-01-07 09:53:53.16	71.09	62.06	-26.3	-27.4	17.2	0.00e+00	0	44	102	1048576	13	4075
2026-01-07 09:53:54.17	70.10	62.11	-26.8	-28.4	16.6	0.00e+00	0	44	102	1048576	13	4346
2026-01-07 09:53:55.18	69.10	62.15	-27.0	-28.5	16.3	0.00e+00	0	44	102	1048576	14	4250
2026-01-07 09:53:56.18	68.11	62.18	-27.1	-28.5	16.3	0.00e+00	0	43	102	1048576	14	4269
2026-01-07 09:53:57.19	67.11	62.21	-27.0	-28.5	16.3	0.00e+00	0	44	102	1048576	14	4253
2026-01-07 09:53:58.21	66.10	62.23	-26.7	-27.8	16.6	0.00e+00	0	43	102	1048576	14	4075
2026-01-07 09:53:59.22	65.10	62.24	-26.8	-27.9	16.6	0.00e+00	0	43	102	1048576	14	4114
2026-01-07 09:54:00.23	64.10	62.24	-27.0	-28.4	16.4	0.00e+00	0	43	102	1048576	14	4221
2026-01-07 09:54:01.24	63.09	62.24	-27.2	-28.8	16.1	0.00e+00	0	43	102	1048576	14	4332
2026-01-07 09:54:02.24	62.10	62.23	-26.8	-28.0	16.6	0.00e+00	0	43	102	1048576	14	4121
2026-01-07 09:54:03.25	61.10	62.21	-26.4	-27.0	17.1	0.00e+00	0	44	102	1048576	14	3880
2026-01-07 09:54:04.25	60.11	62.18	-26.6	-27.4	16.8	0.00e+00	0	44	102	1048576	14	3979
2026-01-07 09:54:05.26	59.11	62.15	-26.5	-27.2	17.0	0.00e+00	0	43	102	1048576	14	3909
2026-01-07 09:54:06.27	58.12	62.11	-26.1	-26.8	17.4	0.00e+00	0	43	102	1048576	13	3930
2026-01-07 09:54:07.27	57.14	62.06	-26.4	-27.5	17.0	0.00e+00	0	44	102	1048576	13	4104
2026-01-07 09:54:08.28	56.15	62.00	-27.1	-28.6	16.2	0.00e+00	0	43	102	1048576	14	4285
2026-01-07 09:54:09.29	55.17	61.94	-27.2	-28.8	16.1	0.00e+00	0	43	102	1048576	14	4340
2026-01-07 09:54:10.30	54.19	61.87	-26.7	-27.7	16.7	0.00e+00	0	43	102	1048576	14	4053
2026-01-07 09:54:11.30	53.23	61.79	-26.9	-28.2	16.5	0.00e+00	0	43	102	1048576	14	4166
2026-01-07 09:54:12.31	52.27	61.71	-27.1	-28.5	16.3	0.00e+00	0	43	102	1048576	14	4262
2026-01-07 09:54:13.31	51.32	61.62	-26.9	-28.1	16.5	0.00e+00	0	43	102	1048576	14	4158
2026-01-07 09:54:14.32	50.37	61.52	-26.8	-27.9	16.6	0.00e+00	0	43	102	1048576	14	4095
2026-01-07 09:54:15.33	49.43	61.42	-26.7	-27.8	16.7	0.00e+00	0	43	102	1048576	14	4073
2026-01-07 09:54:16.34	48.49	61.31	-26.7	-27.7	16.7	0.00e+00	0	43	102	1048576	14	4056
2026-01-07 09:54:17.35	47.57	61.19	-26.0	-26.8	17.4	0.00e+00	0	44	102	1048576	13	3920
2026-01-07 09:54:18.35	46.66	61.07	-26.0	-26.8	17.5	0.00e+00	0	43	102	1048576	13	3918
2026-01-07 09:54:19.36	45.75	60.94	-26.5	-27.9	16.9	0.00e+00	0	43	102	1048576	13	4197
2026-01-07 09:54:20.36	44.87	60.81	-27.1	-28.6	16.2	0.00e+00	0	43	102	1048576	14	4287
2026-01-07 09:54:21.37	43.98	60.67	-27.4	-28.9	15.8	6.80e-06	0	43	102	1048576	15	4268
2026-01-07 09:54:22.37	43.11	60.52	-26.8	-27.5	16.5	0.00e+00	0	43	102	1048576	15	3894
2026-01-07 09:54:23.38	42.24	60.37	-26.4	-27.2	17.0	0.00e+00	0	44	102	1048576	14	3913
2026-01-07 09:54:24.38	41.39	60.21	-26.6	-27.5	16.8	0.00e+00	0	44	102	1048576	14	4002
2026-01-07 09:54:25.39	40.54	60.05	-27.1	-28.6	16.3	0.00e+00	0	43	102	1048576	14	4270
2026-01-07 09:54:26.40	39.71	59.88	-27.4	-29.2	15.9	0.00e+00	0	44	102	1048576	14	4462
2026-01-07 09:54:27.41	38.88	59.71	-27.8	-29.7	15.4	3.00e-06	0	44	102	1048576	15	4496
2026-01-07 09:54:28.42	38.07	59.53	-27.7	-29.4	15.5	0.00e+00	0	43	102	1048576	15	4397
2026-01-07 09:54:29.42	37.28	59.35	-27.1	-28.2	16.1	0.00e+00	0	44	102	1048576	15	4075
2026-01-07 09:54:30.43	36.48	59.16	-27.2	-28.3	16.0	5.30e-06	0	44	102	1048576	15	4096
2026-01-07 09:54:31.44	35.71	58.97	-27.6	-29.3	15.5	0.00e+00	0	44	102	1048576	15	4362
2026-01-07 09:54:32.44	34.94	58.78	-28.1	-29.9	15.1	0.00e+00	0	44	102	1048576	16	4422
2026-01-07 09:54:33.45	34.19	58.58	-28.0	-29.6	15.3	1.50e-06	0	43	102	1048576	16	4330
2026-01-07 09:54:34.45	33.45	58.38	-27.3	-28.1	16.1	0.00e+00	0	44	102	1048576	16	3916
2026-01-07 09:54:35.47	32.71	58.17	-26.8	-27.4	16.5	0.00e+00	0	43	102	1048576	15	3875
2026-01-07 09:54:36.47	31.99	57.96	-26.5	-27.4	16.8	0.00e+00	0	43	102	1048576	14	3960
2026-01-07 09:54:37.48	31.28	57.74	-26.6	-27.6	16.7	0.00e+00	0	43	102	1048576	14	4016
2026-01-07 09:54:38.49	30.58	57.53	-27.4	-29.3	15.8	0.00e+00	0	43	102	1048576	14	4483
2026-01-07 09:54:39.48	29.91	57.31	-28.2	-30.0	15.0	0.00e+00	0	44	102	1048576	16	4463
2026-01-07 09:54:40.48	29.24	57.09	-27.9	-29.5	15.2	7.00e-07	0	43	102	1048576	16	4305
2026-01-07 09:54:41.49	28.57	56.86	-27.3	-28.1	15.9	0.00e+00	0	43	102	1048576	16	3935
2026-01-07 09:54:42.50	27.91	56.63	-27.2	-28.4	15.9	0.00e+00	0	43	102	1048576	15	4121
2026-01-07 09:54:43.50	27.28	56.40	-27.3	-28.5	15.9	0.00e+00	0	44	102	1048576	15	4142
2026-01-07 09:54:44.51	26.64	56.17	-27.2	-28.2	16.1	0.00e+00	0	44	102	1048576	15	4078
2026-01-07 09:54:45.52	26.02	55.93	-27.7	-29.5	15.4	0.00e+00	0	43	102	1048576	15	4417
2026-01-07 09:54:46.52	25.41	55.70	-28.6	-30.6	14.3	7.00e-07	0	44	102	1048576	17	4515
2026-01-07 09:54:47.53	24.81	55.45	-29.2	-31.5	13.5	8.30e-06	0	43	102	1048576	18	4696
2026-01-07 09:54:48.53	24.22	55.21	-28.9	-30.8	14.0	4.50e-06	0	43	102	1048576	18	4481
2026-01-07 09:54:49.53	23.65	54.97	-28.3	-29.4	14.8	0.00e+00	0	43	102	1048576	18	4057
2026-01-07 09:54:50.54	23.08	54.72	-28.1	-29.4	15.0	0.00e+00	0	44	102	1048576	17	4162
2026-01-07 09:54:51.55	22.52	54.48	-28.1	-29.4	15.0	0.00e+00	0	44	102	1048576	17	4165
2026-01-07 09:54:52.56	21.96	54.23	-28.0	-29.1	15.1	7.00e-07	0	43	102	1048576	17	4094
2026-01-07 09:54:53.57	21.42	53.98	-28.1	-29.5	15.0	0.00e+00	0	43	102	1048576	17	4188
2026-01-07 09:54:54.57	20.89	53.73	-28.3	-29.8	14.7	7.00e-07	0	43	102	1048576	17	4295
2026-01-07 09:54:55.58	20.37	53.47	-28.5	-30.3	14.5	7.00e-07	0	43	102	1048576	17	4440
2026-01-07 09:54:56.58	19.86	53.22	-28.2	-29.7	14.8	0.00e+00	0	43	102	1048576	17	4253
2026-01-07 09:54:57.58	19.36	52.97	-28.0	-29.1	15.1	0.00e+00	0	43	102	1048576	17	4082
2026-01-07 09:54:58.59	18.86	52.71	-28.0	-29.2	15.1	0.00e+00	0	43	102	1048576	17	4111
2026-01-07 09:54:59.60	18.37	52.45	-28.4	-30.0	14.7	1.50e-06	0	43	102	1048576	17	4343
2026-01-07 09:55:00.60	17.90	52.20	-28.9	-31.4	13.8	3.00e-06	0	44	102	1048576	17	4760
2026-01-07 09:55:01.60	17.43	51.94	-29.3	-31.8	13.3	1.29e-05	0	43	102	1048576	18	4774
2026-01-07 09:55:02.61	16.97	51.68	-29.7	-32.3	12.8	3.20e-05	0	43	102	1048576	19	4820
2026-01-07 09:55:03.61	16.52	51.42	-29.4	-31.5	13.2	4.50e-05	0	44	102	1048576	19	4564
2026-01-07 09:55:04.62	16.07	51.16	-28.7	-30.2	14.2	1.50e-06	0	43	102	1048576	18	4272
2026-01-07 09:55:05.63	15.63	50.90	-28.2	-29.5	14.9	0.00e+00	0	43	102	1048576	17	4207
2026-01-07 09:55:06.64	15.20	50.64	-28.2	-29.7	14.9	0.00e+00	0	44	102	1048576	17	4243
2026-01-07 09:55:07.64	14.78	50.38	-28.6	-30.6	14.3	0.00e+00	0	43	102	1048576	17	4513
2026-01-07 09:55:08.64	14.37	50.12	-28.7	-30.8	14.2	7.00e-07	0	44	102	1048576	17	4565
2026-01-07 09:55:09.64	13.96	49.86	-29.5	-31.7	13.0	9.90e-06	0	44	102	1048576	19	4636
2026-01-07 09:55:10.65	13.56	49.60	-30.2	-33.0	11.9	2.74e-04	0	43	102	1048576	20	4975
2026-01-07 09:55:11.66	13.16	49.34	-30.7	-33.9	11.0	1.48e-03	0	44	102	1048576	21	5205
2026-01-07 09:55:12.67	12.77	49.08	-30.3	-32.7	11.5	1.05e-03	0	44	102	1048576	21	4776
2026-01-07 09:55:13.67	12.39	48.82	-29.6	-31.5	12.7	2.16e-04	0	44	102	1048576	20	4470
2026-01-07 09:55:14.68	12.02	48.56	-29.3	-31.2	13.4	2.51e-05	0	43	102	1048576	19	4466
2026-01-07 09:55:15.69	11.65	48.29	-29.2	-31.0	13.5	1.06e-05	0	44	102	1048576	19	4420
2026-01-07 09:55:16.69	11.29	48.04	-29.8	-32.4	12.6	5.03e-05	0	44	102	1048576	19	4871
2026-01-07 09:55:17.70	10.93	47.78	-30.1	-32.7	12.1	2.72e-04	0	44	102	1048576	20	4857
2026-01-07 09:55:18.71	10.58	47.52	-30.3	-33.3	11.7	5.25e-04	0	43	102	1048576	20	5069
2026-01-07 09:55:19.72	10.23	47.26	-31.0	-34.2	10.4	3.60e-03	0	44	102	1048576	22	5215
2026-01-07 09:55:20.73	9.89	47.00	-31.5	-35.2	9.3	1.31e-02	0	43	102	1048576	23	5515
2026-01-07 09:55:21.73	9.56	46.74	-31.7	-35.7	9.1	2.33e-02	0	44	102	1048576	23	5712
2026-01-07 09:55:22.74	9.23	46.48	-31.7	-35.9	8.8	2.61e-02	0	43	102	1048576	23	5838
2026-01-07 09:55:23.75	8.91	46.23	-31.1	-34.1	10.1	1.24e-02	0	44	102	1048576	23	5052
2026-01-07 09:55:24.75	8.59	45.97	-30.0	-32.0	12.1	5.43e-04	0	43	102	1048576	21	4526
2026-01-07 09:55:25.76	8.28	45.71	-29.2	-30.9	13.5	1.06e-05	0	43	102	1048576	19	4377
2026-01-07 09:55:26.77	7.97	45.46	-28.9	-30.2	13.9	4.50e-06	0	43	102	1048576	19	4188
2026-01-07 09:55:27.77	7.67	45.21	-29.1	-30.6	13.7	4.50e-06	0	43	102	1048576	19	4304
2026-01-07 09:55:28.78	7.37	44.95	-29.7	-32.0	12.9	2.74e-05	0	44	102	1048576	19	4741
2026-01-07 09:55:29.79	7.08	44.70	-30.0	-32.9	12.3	1.27e-04	0	43	102	1048576	19	5032
2026-01-07 09:55:30.80	6.79	44.45	-30.4	-33.7	11.4	6.62e-04	0	44	102	1048576	20	5222
2026-01-07 09:55:31.80	6.51	44.20	-30.2	-32.6	11.8	5.83e-04	0	44	102	1048576	21	4734
2026-01-07 09:55:32.81	6.23	43.95	-29.9	-31.7	12.3	1.96e-04	0	43	102	1048576	21	4449
2026-01-07 09:55:33.82	5.96	43.70	-29.8	-31.9	12.5	1.22e-04	0	44	102	1048576	20	4607
2026-01-07 09:55:34.83	5.69	43.45	-30.1	-32.7	12.0	2.35e-04	0	43	102	1048576	20	4881
2026-01-07 09:55:35.84	5.42	43.20	-30.2	-33.0	11.8	5.09e-04	0	43	102	1048576	20	4976
2026-01-07 09:55:36.84	5.16	42.95	-29.9	-32.1	12.4	2.30e-04	0	43	102	1048576	20	4680
2026-01-07 09:55:37.85	4.90	42.71	-29.4	-30.9	13.1	4.95e-05	0	44	102	1048576	20	4303
2026-01-07 09:55:38.85	4.65	42.46	-29.2	-30.9	13.5	1.29e-05	0	43	102	1048576	19	4380
2026-01-07 09:55:39.86	4.40	42.22	-29.2	-31.0	13.4	1.06e-05	0	44	102	1048576	19	4425
2026-01-07 09:55:40.86	4.15	41.98	-29.2	-30.9	13.5	1.44e-05	0	44	102	1048576	19	4381
2026-01-07 09:55:41.88	3.91	41.73	-29.7	-32.2	12.6	6.79e-05	0	43	102	1048576	19	4807
2026-01-07 09:55:42.88	3.67	41.49	-29.8	-32.5	12.4	1.43e-04	0	43	102	1048576	19	4891
2026-01-07 09:55:43.88	3.44	41.26	-30.2	-33.1	11.7	4.51e-04	0	43	102	1048576	20	5021
2026-01-07 09:55:44.89	3.21	41.02	-30.1	-32.7	12.0	4.26e-04	0	44	102	1048576	20	4877
2026-01-07 09:55:45.90	2.98	40.78	-29.5	-31.4	12.8	1.37e-04	0	44	102	1048576	20	4440
2026-01-07 09:55:46.90	2.75	40.54	-29.0	-30.5	13.6	8.30e-06	0	43	102	1048576	19	4287
2026-01-07 09:55:47.91	2.53	40.31	-28.6	-29.9	14.2	1.50e-06	0	44	102	1048576	18	4216
2026-01-07 09:55:48.92	2.31	40.07	-28.5	-29.8	14.4	0.00e+00	0	43	102	1048576	18	4172
2026-01-07 09:55:49.92	2.10	39.84	-28.5	-29.8	14.4	1.50e-06	0	44	102	1048576	18	4184
2026-01-07 09:55:50.93	1.89	39.61	-28.8	-30.4	14.0	2.20e-06	0	43	102	1048576	18	4356
2026-01-07 09:55:51.94	1.68	39.38	-29.2	-31.4	13.5	1.29e-05	0	43	102	1048576	18	4641
2026-01-07 09:55:52.94	1.47	39.15	-29.1	-31.3	13.5	1.14e-05	0	44	102	1048576	18	4611
2026-01-07 09:55:53.95	1.27	38.92	-29.5	-31.8	12.9	3.20e-05	0	43	102	1048576	19	4674
2026-01-07 09:55:54.95	1.07	38.69	-29.4	-31.5	13.1	3.12e-05	0	43	102	1048576	19	4569
2026-01-07 09:55:55.96	0.87	38.46	-29.3	-31.2	13.2	1.83e-05	0	44	102	1048576	19	4494
2026-01-07 09:55:56.97	0.68	38.24	-29.3	-31.1	13.3	2.05e-05	0	43	102	1048576	19	4456
2026-01-07 09:55:57.97	0.49	38.01	-29.4	-31.5	13.0	2.89e-05	0	43	102	1048576	19	4588
2026-01-07 09:55:58.98	0.30	37.79	-29.4	-31.6	13.0	3.43e-05	0	44	102	1048576	19	4622
2026-01-07 09:55:59.99	0.11	37.57	-29.2	-31.1	13.3	2.05e-05	0	44	102	1048576	19	4457
2026-01-07 09:56:00.99	359.93	37.35	-29.1	-30.7	13.5	9.10e-06	0	44	102	1048576	19	4350
2026-01-07 09:56:02.00	359.75	37.13	-28.9	-30.2	13.8	5.30e-06	0	43	102	1048576	19	4212
2026-01-07 09:56:03.01	359.57	36.91	-28.6	-30.2	14.1	3.80e-06	0	44	102	1048576	18	4292
2026-01-07 09:56:04.02	359.39	36.69	-28.3	-29.8	14.6	0.00e+00	0	43	102	1048576	17	4289
2026-01-07 09:56:05.02	359.22	36.47	-28.1	-29.5	14.7	7.00e-07	0	44	102	1048576	17	4211
2026-01-07 09:56:06.03	359.04	36.26	-28.3	-29.9	14.5	0.00e+00	0	44	102	1048576	17	4311
2026-01-07 09:56:07.04	358.87	36.04	-28.5	-30.4	14.3	2.20e-06	0	44	102	1048576	17	4457
2026-01-07 09:56:08.05	358.71	35.83	-28.7	-30.9	14.0	7.00e-07	0	44	102	1048576	17	4608
2026-01-07 09:56:09.05	358.54	35.62	-28.8	-31.1	13.8	4.50e-06	0	43	102	1048576	17	4690
2026-01-07 09:56:10.06	358.38	35.41	-28.9	-31.3	13.7	3.00e-06	0	44	102	1048576	17	4751
2026-01-07 09:56:11.07	358.22	35.20	-28.9	-31.3	13.7	7.60e-06	0	43	102	1048576	17	4742
2026-01-07 09:56:12.08	358.06	34.99	-28.8	-31.1	13.8	7.60e-06	0	43	102	1048576	17	4689
2026-01-07 09:56:13.09	357.90	34.78	-28.9	-31.3	13.7	3.00e-06	0	44	102	1048576	17	4748
2026-01-07 09:56:14.10	357.75	34.57	-29.2	-31.4	13.4	8.30e-06	0	43	102	1048576	18	4674
2026-01-07 09:56:15.10	357.59	34.37	-29.0	-30.9	13.7	9.90e-06	0	44	102	1048576	18	4523
2026-01-07 09:56:16.11	357.44	34.16	-28.8	-30.5	13.9	5.30e-06	0	43	102	1048576	18	4400
2026-01-07 09:56:17.11	357.30	33.96	-28.7	-30.3	14.0	3.80e-06	0	43	102	1048576	18	4337
2026-01-07 09:56:18.11	357.15	33.76	-28.6	-30.1	14.1	7.00e-07	0	43	102	1048576	18	4271
2026-01-07 09:56:19.12	357.00	33.56	-28.4	-29.6	14.4	0.00e+00	0	43	102	1048576	18	4138
2026-01-07 09:56:20.13	356.86	33.36	-28.2	-29.6	14.7	0.00e+00	0	43	102	1048576	17	4250
2026-01-07 09:56:21.14	356.72	33.16	-28.1	-29.3	14.9	0.00e+00	0	43	102	1048576	17	4167
2026-01-07 09:56:22.15	356.58	32.96	-27.8	-29.1	15.2	0.00e+00	0	43	102	1048576	16	4214
2026-01-07 09:56:23.15	356.44	32.77	-27.6	-28.8	15.4	0.00e+00	0	44	102	1048576	16	4134
2026-01-07 09:56:24.16	356.31	32.57	-27.7	-28.9	15.3	0.00e+00	0	44	102	1048576	16	4159
2026-01-07 09:56:25.16	356.17	32.38	-27.8	-29.3	15.1	0.00e+00	0	43	102	1048576	16	4253
2026-01-07 09:56:26.17	356.04	32.19	-27.9	-29.5	15.0	0.00e+00	0	44	102	1048576	16	4312
2026-01-07 09:56:27.18	355.91	31.99	-28.0	-29.7	14.9	0.00e+00	0	43	102	1048576	16	4379
2026-01-07 09:56:28.19	355.78	31.80	-28.2	-30.1	14.7	0.00e+00	0	43	102	1048576	16	4492
2026-01-07 09:56:29.19	355.65	31.61	-28.3	-30.5	14.5	7.00e-07	0	43	102	1048576	16	4610
2026-01-07 09:56:30.20	355.52	31.42	-28.6	-30.5	14.2	0.00e+00	0	43	102	1048576	17	4507
2026-01-07 09:56:31.20	355.40	31.24	-28.7	-30.8	14.0	7.00e-07	0	43	102	1048576	17	4595
2026-01-07 09:56:32.22	355.27	31.05	-28.9	-31.3	13.7	6.10e-06	0	43	102	1048576	17	4745
2026-01-07 09:56:33.22	355.15	30.86	-28.5	-30.4	14.2	2.20e-06	0	43	102	1048576	17	4481
2026-01-07 09:56:34.23	355.03	30.68	-28.2	-29.7	14.6	7.00e-07	0	43	102	1048576	17	4285
2026-01-07 09:56:35.24	354.91	30.49	-27.9	-29.0	15.0	7.00e-07	0	43	102	1048576	17	4076
2026-01-07 09:56:36.25	354.79	30.31	-27.6	-28.8	15.4	0.00e+00	0	43	102	1048576	16	4135
2026-01-07 09:56:37.25	354.68	30.13	-27.5	-28.6	15.5	0.00e+00	0	43	102	1048576	16	4061
2026-01-07 09:56:38.26	354.56	29.95	-27.5	-28.5	15.5	0.00e+00	0	44	102	1048576	16	4050
2026-01-07 09:56:39.27	354.45	29.77	-27.5	-28.5	15.5	0.00e+00	0	43	102	1048576	16	4053
2026-01-07 09:56:40.27	354.34	29.59	-27.0	-28.0	15.9	0.00e+00	0	43	102	1048576	15	4041
2026-01-07 09:56:41.27	354.23	29.42	-27.0	-28.0	15.9	0.00e+00	0	44	102	1048576	15	4037
2026-01-07 09:56:42.28	354.11	29.24	-27.1	-28.2	15.8	0.00e+00	0	43	102	1048576	15	4081
2026-01-07 09:56:43.29	354.01	29.06	-27.1	-28.2	15.8	0.00e+00	0	43	102	1048576	15	4085
2026-01-07 09:56:44.30	353.90	28.89	-27.3	-28.6	15.6	0.00e+00	0	43	102	1048576	15	4177
2026-01-07 09:56:45.30	353.79	28.71	-27.3	-28.6	15.6	0.00e+00	0	43	102	1048576	15	4202
2026-01-07 09:56:46.31	353.69	28.54	-27.4	-29.0	15.4	0.00e+00	0	44	102	1048576	15	4288
2026-01-07 09:56:47.31	353.58	28.37	-27.4	-28.8	15.5	0.00e+00	0	43	102	1048576	15	4235
2026-01-07 09:56:48.32	353.48	28.20	-27.3	-28.6	15.6	0.00e+00	0	43	102	1048576	15	4193
2026-01-07 09:56:49.33	353.38	28.03	-27.3	-28.6	15.5	0.00e+00	0	43	102	1048576	15	4205
2026-01-07 09:56:50.34	353.28	27.86	-27.3	-28.7	15.5	0.00e+00	0	43	102	1048576	15	4217
2026-01-07 09:56:51.35	353.18	27.69	-27.5	-29.0	15.3	0.00e+00	0	43	102	1048576	15	4307
2026-01-07 09:56:52.36	353.08	27.52	-27.3	-28.7	15.5	0.00e+00	0	43	102	1048576	15	4218
2026-01-07 09:56:53.37	352.98	27.36	-27.3	-28.7	15.5	0.00e+00	0	44	102	1048576	15	4210
2026-01-07 09:56:54.38	352.88	27.19	-27.4	-28.8	15.4	0.00e+00	0	43	102	1048576	15	4255
2026-01-07 09:56:55.37	352.79	27.03	-27.4	-28.9	15.4	0.00e+00	0	43	102	1048576	15	4291
2026-01-07 09:56:56.38	352.69	26.86	-27.4	-28.9	15.4	0.00e+00	0	43	102	1048576	15	4286
2026-01-07 09:56:57.39	352.60	26.70	-27.5	-29.0	15.3	0.00e+00	0	43	102	1048576	15	4314
2026-01-07 09:56:58.40	352.51	26.54	-27.4	-29.0	15.3	0.00e+00	0	43	102	1048576	15	4295
2026-01-07 09:56:59.41	352.42	26.38	-27.3	-28.6	15.5	0.00e+00	0	43	102	1048576	15	4202
2026-01-07 09:57:00.41	352.33	26.22	-27.1	-28.1	15.8	0.00e+00	0	43	102	1048576	15	4070
2026-01-07 09:57:01.42	352.24	26.06	-27.1	-28.2	15.7	0.00e+00	0	43	102	1048576	15	4090
2026-01-07 09:57:02.43	352.15	25.90	-27.1	-28.3	15.7	0.00e+00	0	44	102	1048576	15	4107
2026-01-07 09:57:03.44	352.06	25.74	-27.1	-28.1	15.8	0.00e+00	0	43	102	1048576	15	4067
2026-01-07 09:57:04.44	351.97	25.59	-27.1	-28.3	15.7	0.00e+00	0	43	102	1048576	15	4111
2026-01-07 09:57:05.45	351.89	25.43	-26.9	-27.8	16.0	0.00e+00	0	43	102	1048576	15	3975
2026-01-07 09:57:06.45	351.80	25.28	-26.8	-27.5	16.1	0.00e+00	0	43	102	1048576	15	3904
2026-01-07 09:57:07.46	351.72	25.12	-26.7	-27.8	16.2	0.00e+00	0	43	102	1048576	14	4090
2026-01-07 09:57:08.46	351.64	24.97	-26.7	-27.7	16.2	0.00e+00	0	43	102	1048576	14	4067
2026-01-07 09:57:09.46	351.55	24.82	-26.9	-28.3	15.9	0.00e+00	0	43	102	1048576	14	4224
2026-01-07 09:57:10.47	351.47	24.67	-27.1	-28.6	15.7	0.00e+00	0	43	102	1048576	14	4313
2026-01-07 09:57:11.47	351.39	24.52	-27.2	-28.9	15.5	0.00e+00	0	43	102	1048576	14	4396
2026-01-07 09:57:12.48	351.31	24.37	-27.3	-29.1	15.5	0.00e+00	0	43	102	1048576	14	4433
2026-01-07 09:57:13.49	351.23	24.22	-27.3	-29.3	15.3	0.00e+00	0	44	102	1048576	14	4493
2026-01-07 09:57:14.50	351.15	24.07	-27.3	-29.1	15.5	0.00e+00	0	44	102	1048576	14	4438
2026-01-07 09:57:15.50	351.08	23.92	-27.3	-29.1	15.4	0.00e+00	0	43	102	1048576	14	4450
2026-01-07 09:57:16.51	351.00	23.77	-27.3	-29.1	15.4	0.00e+00	0	44	102	1048576	14	4452
2026-01-07 09:57:17.52	350.92	23.63	-27.4	-29.3	15.3	0.00e+00	0	43	102	1048576	14	4510
2026-01-07 09:57:18.52	350.85	23.48	-27.4	-28.8	15.3	0.00e+00	0	44	102	1048576	15	4249
2026-01-07 09:57:19.52	350.77	23.34	-27.0	-28.0	15.7	0.00e+00	0	44	102	1048576	15	4041
2026-01-07 09:57:20.53	350.70	23.20	-26.9	-27.7	15.9	0.00e+00	0	44	102	1048576	15	3965
2026-01-07 09:57:21.53	350.63	23.05	-26.9	-27.7	15.9	0.00e+00	0	44	102	1048576	15	3961
2026-01-07 09:57:22.53	350.55	22.91	-26.8	-27.7	15.9	0.00e+00	0	44	102	1048576	15	3951
2026-01-07 09:57:23.54	350.48	22.77	-26.8	-27.6	16.0	0.00e+00	0	43	102	1048576	15	3945
2026-01-07 09:57:24.54	350.41	22.63	-26.9	-27.7	15.9	0.00e+00	0	43	102	1048576	15	3967
2026-01-07 09:57:25.55	350.34	22.49	-26.8	-27.6	15.9	0.00e+00	0	43	102	1048576	15	3949
2026-01-07 09:57:26.56	350.27	22.35	-26.9	-27.8	15.8	0.00e+00	0	43	102	1048576	15	3992
2026-01-07 09:57:27.56	350.20	22.21	-27.0	-27.9	15.8	0.00e+00	0	43	102	1048576	15	4015
2026-01-07 09:57:28.56	350.13	22.08	-26.9	-27.7	15.9	0.00e+00	0	43	102	1048576	15	3964
2026-01-07 09:57:29.57	350.07	21.94	-26.8	-27.7	15.9	0.00e+00	0	43	102	1048576	15	3955
2026-01-07 09:57:30.57	350.00	21.80	-27.0	-28.0	15.7	0.00e+00	0	44	102	1048576	15	4050
2026-01-07 09:57:31.57	349.93	21.67	-27.0	-28.0	15.7	0.00e+00	0	43	102	1048576	15	4050
2026-01-07 09:57:32.58	349.87	21.53	-26.9	-27.7	15.8	7.00e-07	0	43	102	1048576	15	3968
2026-01-07 09:57:33.59	349.80	21.40	-26.9	-27.7	15.9	0.00e+00	0	43	102	1048576	15	3964
2026-01-07 09:57:34.60	349.74	21.26	-26.9	-27.8	15.8	0.00e+00	0	43	102	1048576	15	3998
2026-01-07 09:57:35.60	349.67	21.13	-26.9	-27.9	15.8	0.00e+00	0	43	102	1048576	15	4009
2026-01-07 09:57:36.61	349.61	21.00	-27.0	-28.0	15.7	0.00e+00	0	44	102	1048576	15	4038
2026-01-07 09:57:37.62	349.54	20.86	-27.0	-28.0	15.7	0.00e+00	0	44	102	1048576	15	4033
2026-01-07 09:57:38.62	349.48	20.73	-27.0	-28.0	15.7	0.00e+00	0	43	102	1048576	15	4043
2026-01-07 09:57:39.62	349.42	20.60	-27.0	-28.0	15.6	0.00e+00	0	44	102	1048576	15	4054
2026-01-07 09:57:40.63	349.36	20.47	-27.0	-28.0	15.6	0.00e+00	0	43	102	1048576	15	4052
2026-01-07 09:57:41.64	349.30	20.34	-27.0	-28.1	15.6	0.00e+00	0	43	102	1048576	15	4059
2026-01-07 09:57:42.64	349.24	20.22	-27.1	-28.3	15.5	0.00e+00	0	43	102	1048576	15	4112
2026-01-07 09:57:43.65	349.18	20.09	-27.1	-28.3	15.5	0.00e+00	0	43	102	1048576	15	4113
2026-01-07 09:57:44.66	349.12	19.96	-27.1	-28.3	15.5	0.00e+00	0	43	102	1048576	15	4125
2026-01-07 09:57:45.67	349.06	19.83	-27.1	-28.3	15.5	0.00e+00	0	43	102	1048576	15	4113
2026-01-07 09:57:46.68	349.00	19.71	-27.1	-28.3	15.5	7.00e-07	0	44	102	1048576	15	4121
2026-01-07 09:57:47.68	348.94	19.58	-27.1	-28.3	15.4	0.00e+00	0	43	102	1048576	15	4135
2026-01-07 09:57:48.69	348.89	19.46	-27.2	-28.4	15.4	0.00e+00	0	43	102	1048576	15	4166
2026-01-07 09:57:49.69	348.83	19.33	-27.2	-28.6	15.3	0.00e+00	0	43	102	1048576	15	4206
2026-01-07 09:57:50.69	348.77	19.21	-27.2	-28.6	15.3	0.00e+00	0	43	102	1048576	15	4207
2026-01-07 09:57:51.70	348.72	19.09	-27.2	-28.6	15.3	0.00e+00	0	44	102	1048576	15	4209
2026-01-07 09:57:52.71	348.66	18.96	-27.3	-28.7	15.2	0.00e+00	0	44	102	1048576	15	4247
2026-01-07 09:57:53.72	348.61	18.84	-27.3	-28.7	15.2	0.00e+00	0	44	102	1048576	15	4232
2026-01-07 09:57:54.72	348.55	18.72	-27.3	-28.8	15.1	0.00e+00	0	44	102	1048576	15	4273
2026-01-07 09:57:55.73	348.50	18.60	-27.6	-29.4	14.8	0.00e+00	0	43	102	1048576	15	4420
2026-01-07 09:57:56.74	348.45	18.48	-27.4	-29.1	15.0	0.00e+00	0	43	102	1048576	15	4344
2026-01-07 09:57:57.75	348.39	18.36	-27.4	-28.9	15.1	0.00e+00	0	43	102	1048576	15	4284
2026-01-07 09:57:58.75	348.34	18.24	-27.3	-28.7	15.2	0.00e+00	0	44	102	1048576	15	4236
2026-01-07 09:57:59.76	348.29	18.12	-27.3	-28.7	15.2	0.00e+00	0	43	102	1048576	15	4244
2026-01-07 09:58:00.77	348.24	18.00	-27.3	-28.7	15.2	0.00e+00	0	43	102	1048576	15	4228
2026-01-07 09:58:01.78	348.19	17.88	-27.4	-28.9	15.0	0.00e+00	0	44	102	1048576	15	4306
2026-01-07 09:58:02.78	348.14	17.77	-27.4	-28.9	15.0	0.00e+00	0	43	102	1048576	15	4299
2026-01-07 09:58:03.79	348.08	17.65	-27.3	-28.8	15.1	0.00e+00	0	43	102	1048576	15	4279
2026-01-07 09:58:04.80	348.03	17.53	-27.4	-29.1	14.9	0.00e+00	0	44	102	1048576	15	4335
2026-01-07 09:58:05.81	347.98	17.42	-27.4	-29.0	15.0	0.00e+00	0	43	102	1048576	15	4328
2026-01-07 09:58:06.82	347.94	17.30	-27.4	-29.0	15.0	0.00e+00	0	43	102	1048576	15	4315
2026-01-07 09:58:07.83	347.89	17.19	-27.4	-29.1	14.9	7.00e-07	0	44	102	1048576	15	4342
2026-01-07 09:58:08.83	347.84	17.07	-27.4	-29.0	14.9	0.00e+00	0	44	102	1048576	15	4333
2026-01-07 09:58:09.84	347.79	16.96	-27.5	-29.3	14.8	0.00e+00	0	43	102	1048576	15	4417
2026-01-07 09:58:10.84	347.74	16.85	-27.5	-29.3	14.8	2.20e-06	0	44	102	1048576	15	4402
2026-01-07 09:58:11.85	347.70	16.74	-27.5	-29.3	14.8	0.00e+00	0	44	102	1048576	15	4402
2026-01-07 09:58:12.86	347.65	16.62	-27.7	-29.6	14.6	1.50e-06	0	44	102	1048576	15	4512
2026-01-07 09:58:13.87	347.60	16.51	-27.6	-29.6	14.6	7.00e-07	0	43	102	1048576	15	4490
2026-01-07 09:58:14.88	347.56	16.40	-27.7	-29.7	14.5	0.00e+00	0	43	102	1048576	15	4527
2026-01-07 09:58:15.89	347.51	16.29	-27.7	-29.6	14.6	0.00e+00	0	44	102	1048576	15	4510
2026-01-07 09:58:16.89	347.47	16.18	-27.7	-29.8	14.5	0.00e+00	0	44	102	1048576	15	4556
2026-01-07 09:58:17.90	347.42	16.07	-27.9	-30.2	14.2	7.00e-07	0	43	102	1048576	15	4670
2026-01-07 09:58:18.90	347.38	15.96	-27.8	-30.0	14.3	7.00e-07	0	44	102	1048576	15	4611
2026-01-07 09:58:19.91	347.33	15.85	-27.7	-29.7	14.5	7.00e-07	0	44	102	1048576	15	4540
2026-01-07 09:58:20.92	347.29	15.74	-27.7	-29.7	14.5	0.00e+00	0	44	102	1048576	15	4531
2026-01-07 09:58:21.92	347.24	15.64	-27.7	-29.7	14.5	7.00e-07	0	44	102	1048576	15	4532
2026-01-07 09:58:22.93	347.20	15.53	-27.8	-30.0	14.3	7.00e-07	0	43	102	1048576	15	4614
2026-01-07 09:58:23.94	347.16	15.42	-27.8	-29.8	14.4	0.00e+00	0	44	102	1048576	15	4562
2026-01-07 09:58:24.95	347.12	15.32	-27.7	-29.8	14.4	0.00e+00	0	44	102	1048576	15	4557
2026-01-07 09:58:25.96	347.07	15.21	-27.8	-29.9	14.4	7.00e-07	0	44	102	1048576	15	4579
2026-01-07 09:58:26.96	347.03	15.10	-27.8	-30.0	14.3	0.00e+00	0	44	102	1048576	15	4624
2026-01-07 09:58:27.97	346.99	15.00	-27.8	-29.9	14.3	7.00e-07	0	43	102	1048576	15	4590
2026-01-07 09:58:28.98	346.95	14.89	-27.8	-30.0	14.3	1.50e-06	0	44	102	1048576	15	4609
2026-01-07 09:58:29.99	346.91	14.79	-27.9	-30.3	14.1	2.20e-06	0	43	102	1048576	15	4714
2026-01-07 09:58:31.00	346.87	14.69	-27.8	-30.0	14.2	1.50e-06	0	44	102	1048576	15	4633
2026-01-07 09:58:32.00	346.83	14.58	-27.8	-29.9	14.3	7.00e-07	0	44	102	1048576	15	4585
2026-01-07 09:58:33.00	346.79	14.48	-27.8	-29.9	14.3	7.00e-07	0	43	102	1048576	15	4594
2026-01-07 09:58:34.01	346.75	14.38	-27.8	-29.9	14.3	7.00e-07	0	43	102	1048576	15	4602
2026-01-07 09:58:35.02	346.71	14.28	-27.9	-30.1	14.2	1.50e-06	0	44	102	1048576	15	4656
2026-01-07 09:58:36.03	346.67	14.17	-28.0	-30.4	14.0	0.00e+00	0	43	102	1048576	15	4749
2026-01-07 09:58:37.03	346.63	14.07	-27.8	-30.0	14.2	2.20e-06	0	44	102	1048576	15	4628
2026-01-07 09:58:38.04	346.59	13.97	-27.8	-30.0	14.2	1.50e-06	0	44	102	1048576	15	4621
2026-01-07 09:58:39.05	346.55	13.87	-27.9	-30.2	14.1	7.00e-07	0	43	102	1048576	15	4672
2026-01-07 09:58:40.05	346.51	13.77	-27.9	-30.1	14.1	7.00e-07	0	44	102	1048576	15	4668
2026-01-07 09:58:41.06	346.48	13.67	-27.9	-30.1	14.1	7.00e-07	0	44	102	1048576	15	4660
2026-01-07 09:58:42.07	346.44	13.57	-28.2	-30.3	13.9	3.00e-06	0	43	102	1048576	16	4609
2026-01-07 09:58:43.08	346.40	13.47	-28.1	-30.1	14.0	3.00e-06	0	44	102	1048576	16	4534
2026-01-07 09:58:44.09	346.37	13.37	-28.0	-29.8	14.1	1.50e-06	0	43	102	1048576	16	4452
2026-01-07 09:58:45.10	346.33	13.28	-28.1	-30.1	14.0	2.20e-06	0	43	102	1048576	16	4525
2026-01-07 09:58:46.10	346.29	13.18	-28.2	-30.3	13.9	3.80e-06	0	43	102	1048576	16	4601
2026-01-07 09:58:47.11	346.26	13.08	-28.1	-30.2	13.9	4.50e-06	0	44	102	1048576	16	4583
2026-01-07 09:58:48.12	346.22	12.98	-28.2	-30.5	13.8	8.30e-06	0	43	102	1048576	16	4657
2026-01-07 09:58:49.12	346.19	12.89	-28.1	-30.1	14.0	3.00e-06	0	44	102	1048576	16	4541
2026-01-07 09:58:50.13	346.15	12.79	-28.0	-30.0	14.0	1.50e-06	0	44	102	1048576	16	4508
2026-01-07 09:58:51.13	346.11	12.70	-28.1	-30.1	13.9	7.00e-07	0	44	102	1048576	16	4548
2026-01-07 09:58:52.14	346.08	12.60	-28.1	-30.0	14.0	3.00e-06	0	44	102	1048576	16	4519
2026-01-07 09:58:53.15	346.05	12.51	-28.1	-30.2	13.9	4.50e-06	0	44	102	1048576	16	4575
2026-01-07 09:58:54.15	346.01	12.41	-28.1	-30.1	13.9	3.80e-06	0	43	102	1048576	16	4547
2026-01-07 09:58:55.17	345.98	12.32	-28.2	-30.4	13.7	5.30e-06	0	44	102	1048576	16	4644
2026-01-07 09:58:56.16	345.94	12.22	-28.3	-30.7	13.5	7.60e-06	0	44	102	1048576	16	4725
2026-01-07 09:58:57.17	345.91	12.13	-28.3	-30.6	13.6	5.30e-06	0	44	102	1048576	16	4689
2026-01-07 09:58:58.18	345.88	12.04	-28.4	-30.9	13.5	6.10e-06	0	44	102	1048576	16	4783
2026-01-07 09:58:59.19	345.84	11.94	-28.3	-30.6	13.6	1.06e-05	0	44	102	1048576	16	4700
2026-01-07 09:59:00.20	345.81	11.85	-28.2	-30.5	13.6	9.10e-06	0	44	102	1048576	16	4666
2026-01-07 09:59:01.21	345.78	11.76	-28.2	-30.5	13.7	2.20e-06	0	44	102	1048576	16	4657
2026-01-07 09:59:02.22	345.75	11.66	-28.3	-30.6	13.6	6.10e-06	0	44	102	1048576	16	4713
2026-01-07 09:59:03.23	345.71	11.57	-28.2	-30.5	13.7	3.00e-06	0	44	102	1048576	16	4672
2026-01-07 09:59:04.23	345.68	11.48	-28.3	-30.6	13.6	8.30e-06	0	44	102	1048576	16	4698
2026-01-07 09:59:05.24	345.65	11.39	-28.3	-30.6	13.6	9.10e-06	0	44	102	1048576	16	4700
2026-01-07 09:59:06.25	345.62	11.30	-28.3	-30.6	13.6	1.14e-05	0	44	102	1048576	16	4696
2026-01-07 09:59:07.26	345.59	11.21	-28.3	-30.6	13.6	6.10e-06	0	44	102	1048576	16	4709
2026-01-07 09:59:08.27	345.56	11.12	-28.3	-30.6	13.6	8.30e-06	0	44	102	1048576	16	4697
2026-01-07 09:59:09.28	345.52	11.03	-28.3	-30.5	13.6	7.60e-06	0	44	102	1048576	16	4685
2026-01-07 09:59:10.28	345.49	10.94	-28.3	-30.7	13.5	1.06e-05	0	43	102	1048576	16	4728
2026-01-07 09:59:11.29	345.46	10.85	-28.3	-30.7	13.5	8.30e-06	0	44	102	1048576	16	4725
2026-01-07 09:59:12.30	345.43	10.76	-28.3	-30.7	13.5	9.90e-06	0	43	102	1048576	16	4748
2026-01-07 09:59:13.30	345.40	10.67	-28.4	-31.0	13.3	2.05e-05	0	44	102	1048576	16	4820
2026-01-07 09:59:14.31	345.37	10.59	-28.4	-30.8	13.4	1.14e-05	0	44	102	1048576	16	4782
2026-01-07 09:59:15.31	345.34	10.50	-28.4	-30.8	13.4	1.29e-05	0	44	102	1048576	16	4778
2026-01-07 09:59:16.32	345.32	10.41	-28.4	-30.9	13.3	2.05e-05	0	44	102	1048576	16	4809
2026-01-07 09:59:17.33	345.29	10.32	-28.4	-31.0	13.3	1.44e-05	0	44	102	1048576	16	4830
2026-01-07 09:59:18.34	345.26	10.24	-28.5	-31.1	13.2	2.28e-05	0	43	102	1048576	16	4859
2026-01-07 09:59:19.35	345.23	10.15	-28.4	-30.9	13.3	1.67e-05	0	43	102	1048576	16	4815
2026-01-07 09:59:20.35	345.20	10.06	-28.4	-31.0	13.3	1.83e-05	0	43	102	1048576	16	4836
2026-01-07 09:59:21.36	345.17	9.98	-28.5	-31.1	13.2	2.59e-05	0	44	102	1048576	16	4865
2026-01-07 09:59:22.36	345.14	9.89	-28.4	-31.0	13.2	1.90e-05	0	43	102	1048576	16	4849
2026-01-07 09:59:23.36	345.12	9.81	-28.3	-30.7	13.4	1.22e-05	0	44	102	1048576	16	4733
2026-01-07 09:59:24.36	345.09	9.72	-28.3	-30.7	13.4	1.83e-05	0	44	102	1048576	16	4757
2026-01-07 09:59:25.38	345.06	9.64	-28.4	-30.8	13.3	1.90e-05	0	43	102	1048576	16	4782
2026-01-07 09:59:26.38	345.03	9.55	-28.4	-30.8	13.3	1.75e-05	0	44	102	1048576	16	4781
2026-01-07 09:59:27.39	345.01	9.47	-28.5	-31.1	13.1	2.36e-05	0	44	102	1048576	16	4874
2026-01-07 09:59:28.40	344.98	9.38	-28.4	-31.0	13.2	2.74e-05	0	44	102	1048576	16	4836
2026-01-07 09:59:29.40	344.95	9.30	-28.4	-30.9	13.3	2.05e-05	0	44	102	1048576	16	4802
2026-01-07 09:59:30.41	344.92	9.22	-28.4	-31.1	13.1	2.21e-05	0	44	102	1048576	16	4862
2026-01-07 09:59:31.42	344.90	9.13	-28.4	-31.1	13.1	2.74e-05	0	44	102	1048576	16	4861
2026-01-07 09:59:32.42	344.87	9.05	-28.5	-31.1	13.1	2.74e-05	0	44	102	1048576	16	4880
2026-01-07 09:59:33.43	344.85	8.97	-28.5	-30.7	13.0	3.58e-05	0	44	102	1048576	17	4638
2026-01-07 09:59:34.43	344.82	8.89	-28.4	-30.6	13.1	1.98e-05	0	44	102	1048576	17	4603
2026-01-07 09:59:35.44	344.79	8.80	-28.5	-30.7	13.0	4.95e-05	0	43	102	1048576	17	4642
2026-01-07 09:59:36.45	344.77	8.72	-28.5	-30.7	13.0	3.96e-05	0	44	102	1048576	17	4653
2026-01-07 09:59:37.46	344.74	8.64	-28.5	-30.8	12.9	3.58e-05	0	44	102	1048576	17	4667
2026-01-07 09:59:38.47	344.72	8.56	-28.7	-31.1	12.7	6.71e-05	0	44	102	1048576	17	4776
2026-01-07 09:59:39.47	344.69	8.48	-28.6	-30.9	12.9	5.34e-05	0	44	102	1048576	17	4694
2026-01-07 09:59:40.48	344.67	8.40	-28.6	-31.0	12.8	5.41e-05	0	44	102	1048576	17	4749
2026-01-07 09:59:41.49	344.64	8.32	-28.6	-31.0	12.8	6.02e-05	0	44	102	1048576	17	4727
2026-01-07 09:59:42.50	344.62	8.24	-28.5	-30.8	12.9	4.42e-05	0	44	102	1048576	17	4668
2026-01-07 09:59:43.51	344.59	8.15	-28.6	-30.9	12.8	4.50e-05	0	44	102	1048576	17	4709
2026-01-07 09:59:44.51	344.57	8.08	-28.6	-30.9	12.8	6.10e-05	0	44	102	1048576	17	4723
2026-01-07 09:59:45.52	344.54	8.00	-28.6	-30.9	12.8	4.80e-05	0	44	102	1048576	17	4695
2026-01-07 09:59:46.52	344.52	7.92	-28.7	-31.2	12.6	7.01e-05	0	44	102	1048576	17	4798
2026-01-07 09:59:47.53	344.50	7.84	-28.6	-31.1	12.7	9.68e-05	0	44	102	1048576	17	4772
2026-01-07 09:59:48.54	344.47	7.76	-28.6	-31.1	12.7	7.40e-05	0	44	102	1048576	17	4762
2026-01-07 09:59:49.54	344.45	7.68	-28.6	-31.1	12.7	8.54e-05	0	44	102	1048576	17	4776
2026-01-07 09:59:50.55	344.42	7.60	-28.7	-31.3	12.5	1.18e-04	0	44	102	1048576	17	4846
2026-01-07 09:59:51.55	344.40	7.52	-28.7	-31.3	12.5	9.46e-05	0	43	102	1048576	17	4837
2026-01-07 09:59:52.56	344.38	7.45	-28.7	-31.3	12.5	9.76e-05	0	44	102	1048576	17	4830
2026-01-07 09:59:53.57	344.36	7.37	-28.8	-31.6	12.3	1.46e-04	0	44	102	1048576	17	4936
2026-01-07 09:59:54.58	344.33	7.29	-28.8	-31.0	12.3	2.63e-04	0	44	102	1048576	18	4659
2026-01-07 09:59:55.58	344.31	7.21	-28.9	-31.2	12.3	2.14e-04	0	44	102	1048576	18	4696
2026-01-07 09:59:56.59	344.29	7.14	-28.9	-31.2	12.2	2.67e-04	0	44	102	1048576	18	4717
2026-01-07 09:59:57.60	344.26	7.06	-30.6	-34.7	9.0	3.89e-03	0	44	102	1048576	21	5768
2026-01-07 09:59:58.61	344.24	6.98	-33.2	-44.9	3.8	1.49e+00	0	44	104	1048576	26	13958

#Closed at: 2026-01-07 09:59:58
#Recorded file [1 MB]: D:/data/31010_260107_125005.dat