passes_logs/2026/01/07/R2M6_AANII_01/R2M6_AANII_01__20260107_222616_SUOMI_NPP_rec.log

#Pass ID: 20260107_222616_SUOMI NPP
#Satellite: SUOMI NPP
#Configuration: NPP
#almurnet v.1.7.20240730
#Start time: 2026-01-07 22:26:16

#Version: 2.2.20231116
#Station: R2M6_AANII_01
#Location: 30.233357 lon 59.946436 lat
#TLE: 1 37849U 11061A   26005.94084933  .00000134  00000+0  84554-4 0  9990
#TLE: 2 37849  98.7803 308.0679 0002567  79.1029 281.0436 14.19522657735426

#Time	Az	El	Level	Level2	SNR	BER	BlckErr	Temp	State	Recorded	gain1	gain2
2026-01-07 22:26:16.95	34.75	7.03	-31.6	-37.8	4.6	1.32e+00	0	41	0	0	23	7321
2026-01-07 22:26:17.96	34.87	7.08	-31.7	-38.4	4.5	1.35e+00	0	41	104	0	23	7793
2026-01-07 22:26:18.97	34.99	7.14	-31.7	-38.0	5.9	3.96e-01	0	41	0	0	23	7436
2026-01-07 22:26:19.97	35.10	7.19	-31.7	-38.2	5.9	3.65e-01	0	41	102	1048576	23	7575
2026-01-07 22:26:20.98	35.22	7.25	-31.7	-38.1	5.9	3.43e-01	0	41	102	1048576	23	7493
2026-01-07 22:26:21.98	35.33	7.30	-31.6	-37.7	6.2	3.22e-01	0	41	102	1048576	23	7195
2026-01-07 22:26:22.99	35.45	7.36	-31.6	-37.6	6.3	2.80e-01	0	41	102	1048576	23	7171
2026-01-07 22:26:23.99	35.57	7.41	-31.6	-37.5	6.4	2.70e-01	0	41	102	1048576	23	7054
2026-01-07 22:26:25.00	35.69	7.47	-31.7	-37.5	6.3	2.58e-01	0	41	102	1048576	23	7074
2026-01-07 22:26:26.01	35.81	7.52	-31.8	-38.4	5.8	3.06e-01	0	41	102	1048576	23	7728
2026-01-07 22:26:27.02	35.93	7.58	-31.6	-37.3	6.5	2.73e-01	0	41	102	1048576	23	6911
2026-01-07 22:26:28.02	36.05	7.63	-31.4	-36.6	7.4	1.53e-01	0	41	102	1048576	22	6534
2026-01-07 22:26:29.03	36.17	7.68	-31.1	-35.3	8.4	7.98e-02	0	41	102	1048576	22	5837
2026-01-07 22:26:30.03	36.29	7.74	-30.8	-34.1	9.4	2.23e-02	0	41	102	1048576	22	5251
2026-01-07 22:26:31.04	36.41	7.79	-30.5	-33.5	10.2	7.58e-03	0	41	102	1048576	21	5070
2026-01-07 22:26:32.04	36.53	7.85	-30.2	-32.7	10.8	2.88e-03	0	41	102	1048576	21	4750
2026-01-07 22:26:33.05	36.65	7.90	-30.0	-31.7	11.5	1.48e-03	0	42	102	1048576	21	4418
2026-01-07 22:26:34.06	36.78	7.96	-29.9	-32.0	11.7	8.58e-04	0	41	102	1048576	20	4602
2026-01-07 22:26:35.07	36.90	8.01	-29.8	-31.7	12.0	3.68e-04	0	41	102	1048576	20	4477
2026-01-07 22:26:36.07	37.02	8.07	-29.7	-31.3	12.2	3.07e-04	0	42	102	1048576	20	4349
2026-01-07 22:26:37.07	37.14	8.12	-29.8	-31.6	12.1	4.17e-04	0	42	102	1048576	20	4444
2026-01-07 22:26:38.08	37.27	8.18	-29.9	-32.0	11.8	4.27e-04	0	42	102	1048576	20	4576
2026-01-07 22:26:39.07	37.39	8.23	-29.8	-31.8	11.9	3.96e-04	0	42	102	1048576	20	4498
2026-01-07 22:26:40.08	37.52	8.29	-29.9	-32.5	11.8	7.32e-04	0	42	102	1048576	19	4857
2026-01-07 22:26:41.09	37.64	8.34	-29.9	-32.5	11.9	4.58e-04	0	42	102	1048576	19	4838
2026-01-07 22:26:42.10	37.77	8.40	-29.9	-32.3	12.0	3.25e-04	0	42	102	1048576	19	4762
2026-01-07 22:26:43.11	37.90	8.45	-29.9	-32.4	11.9	5.75e-04	0	42	102	1048576	19	4787
2026-01-07 22:26:44.11	38.02	8.51	-29.9	-32.0	11.8	4.65e-04	0	42	102	1048576	20	4559
2026-01-07 22:26:45.12	38.15	8.56	-30.0	-32.1	11.7	6.60e-04	0	42	102	1048576	20	4618
2026-01-07 22:26:46.13	38.28	8.62	-30.1	-32.5	11.5	6.66e-04	0	42	102	1048576	20	4738
2026-01-07 22:26:47.14	38.41	8.67	-30.2	-33.0	11.1	1.36e-03	0	42	102	1048576	20	4937
2026-01-07 22:26:48.14	38.54	8.73	-30.1	-32.4	11.5	1.39e-03	0	42	102	1048576	20	4712
2026-01-07 22:26:49.14	38.66	8.78	-30.1	-32.6	11.3	8.96e-04	0	42	102	1048576	20	4805
2026-01-07 22:26:50.14	38.79	8.83	-30.2	-32.8	11.3	1.25e-03	0	42	102	1048576	20	4855
2026-01-07 22:26:51.15	38.92	8.89	-30.2	-32.9	11.2	1.43e-03	0	42	102	1048576	20	4915
2026-01-07 22:26:52.15	39.05	8.94	-30.3	-33.1	11.1	1.32e-03	0	42	102	1048576	20	4978
2026-01-07 22:26:53.16	39.18	9.00	-30.4	-33.4	10.8	2.43e-03	0	42	102	1048576	20	5099
2026-01-07 22:26:54.17	39.32	9.05	-30.3	-33.2	11.1	2.03e-03	0	42	102	1048576	20	5001
2026-01-07 22:26:55.18	39.45	9.11	-30.2	-32.7	11.3	1.30e-03	0	42	102	1048576	20	4818
2026-01-07 22:26:56.18	39.58	9.16	-30.1	-32.6	11.5	9.27e-04	0	42	102	1048576	20	4771
2026-01-07 22:26:57.19	39.71	9.22	-30.2	-32.8	11.3	1.32e-03	0	42	102	1048576	20	4861
2026-01-07 22:26:58.19	39.85	9.27	-30.1	-32.6	11.4	1.00e-03	0	42	102	1048576	20	4791
2026-01-07 22:26:59.20	39.98	9.33	-30.3	-32.9	11.2	9.64e-04	0	42	102	1048576	20	4907
2026-01-07 22:27:00.20	40.12	9.38	-30.2	-32.8	11.3	1.05e-03	0	42	102	1048576	20	4836
2026-01-07 22:27:01.20	40.25	9.44	-30.2	-32.9	11.2	1.10e-03	0	42	102	1048576	20	4912
2026-01-07 22:27:02.21	40.39	9.49	-30.3	-33.1	11.1	1.16e-03	0	42	102	1048576	20	4962
2026-01-07 22:27:03.21	40.52	9.55	-30.4	-33.3	10.9	2.09e-03	0	42	102	1048576	20	5043
2026-01-07 22:27:04.22	40.66	9.60	-30.2	-32.7	11.4	1.42e-03	0	42	102	1048576	20	4830
2026-01-07 22:27:05.23	40.80	9.66	-30.1	-32.5	11.6	7.02e-04	0	42	102	1048576	20	4742
2026-01-07 22:27:06.24	40.93	9.71	-30.0	-32.2	11.8	6.26e-04	0	42	102	1048576	20	4640
2026-01-07 22:27:07.25	41.07	9.77	-29.9	-32.1	11.9	3.78e-04	0	42	102	1048576	20	4587
2026-01-07 22:27:08.25	41.21	9.82	-30.0	-32.1	11.8	4.79e-04	0	42	102	1048576	20	4602
2026-01-07 22:27:09.26	41.35	9.87	-29.8	-31.6	12.3	3.30e-04	0	42	102	1048576	20	4417
2026-01-07 22:27:10.26	41.49	9.93	-29.8	-31.6	12.2	1.91e-04	0	42	102	1048576	20	4421
2026-01-07 22:27:11.26	41.63	9.98	-29.7	-31.4	12.3	2.26e-04	0	42	102	1048576	20	4375
2026-01-07 22:27:12.27	41.77	10.04	-29.7	-31.3	12.5	1.18e-04	0	42	102	1048576	20	4314
2026-01-07 22:27:13.27	41.91	10.09	-29.7	-31.3	12.4	1.85e-04	0	42	102	1048576	20	4330
2026-01-07 22:27:14.28	42.05	10.15	-29.7	-31.2	12.5	1.42e-04	0	42	102	1048576	20	4297
2026-01-07 22:27:15.29	42.19	10.20	-29.8	-31.7	12.1	1.60e-04	0	42	102	1048576	20	4460
2026-01-07 22:27:16.30	42.34	10.26	-29.9	-31.7	12.2	2.66e-04	0	43	102	1048576	20	4464
2026-01-07 22:27:17.31	42.48	10.31	-29.8	-31.4	12.4	2.14e-04	0	42	102	1048576	20	4366
2026-01-07 22:27:18.31	42.62	10.36	-29.6	-31.1	12.5	1.25e-04	0	42	102	1048576	20	4268
2026-01-07 22:27:19.31	42.76	10.42	-29.6	-31.0	12.6	1.68e-04	0	43	102	1048576	20	4222
2026-01-07 22:27:20.32	42.91	10.47	-29.6	-30.9	12.7	1.08e-04	0	42	102	1048576	20	4195
2026-01-07 22:27:21.32	43.05	10.53	-29.4	-30.3	13.1	2.82e-05	0	42	102	1048576	20	4022
2026-01-07 22:27:22.32	43.20	10.58	-29.3	-30.7	13.3	2.21e-05	0	42	102	1048576	19	4205
2026-01-07 22:27:23.33	43.34	10.64	-29.3	-30.5	13.4	1.83e-05	0	42	102	1048576	19	4127
2026-01-07 22:27:24.34	43.49	10.69	-29.3	-30.5	13.4	1.83e-05	0	42	102	1048576	19	4128
2026-01-07 22:27:25.35	43.64	10.74	-29.4	-30.7	13.3	2.21e-05	0	42	102	1048576	19	4217
2026-01-07 22:27:26.35	43.79	10.80	-29.4	-30.8	13.2	1.67e-05	0	43	102	1048576	19	4222
2026-01-07 22:27:27.36	43.94	10.85	-29.4	-30.9	13.1	2.89e-05	0	43	102	1048576	19	4281
2026-01-07 22:27:28.37	44.08	10.91	-29.5	-31.0	13.0	3.58e-05	0	42	102	1048576	19	4312
2026-01-07 22:27:29.37	44.23	10.96	-29.6	-31.4	12.8	5.64e-05	0	42	102	1048576	19	4416
2026-01-07 22:27:30.38	44.38	11.01	-29.5	-31.3	12.9	3.89e-05	0	43	102	1048576	19	4399
2026-01-07 22:27:31.39	44.53	11.07	-29.6	-31.6	12.7	5.56e-05	0	43	102	1048576	19	4487
2026-01-07 22:27:32.40	44.69	11.12	-29.6	-31.5	12.8	4.80e-05	0	43	102	1048576	19	4463
2026-01-07 22:27:33.41	44.84	11.17	-29.5	-31.1	12.9	4.88e-05	0	43	102	1048576	19	4341
2026-01-07 22:27:34.42	44.99	11.23	-29.5	-31.2	13.0	4.11e-05	0	43	102	1048576	19	4356
2026-01-07 22:27:35.42	45.14	11.28	-29.5	-31.3	12.8	2.97e-05	0	43	102	1048576	19	4392
2026-01-07 22:27:36.42	45.29	11.34	-29.6	-31.4	12.8	9.68e-05	0	43	102	1048576	19	4446
2026-01-07 22:27:37.42	45.45	11.39	-29.7	-31.7	12.7	8.16e-05	0	43	102	1048576	19	4525
2026-01-07 22:27:38.43	45.60	11.44	-29.6	-31.3	12.9	6.40e-05	0	43	102	1048576	19	4398
2026-01-07 22:27:39.43	45.75	11.49	-29.5	-31.0	13.1	4.11e-05	0	43	102	1048576	19	4315
2026-01-07 22:27:40.44	45.91	11.55	-29.5	-31.1	12.9	2.74e-05	0	43	102	1048576	19	4336
2026-01-07 22:27:41.45	46.07	11.60	-29.6	-31.3	12.9	3.50e-05	0	43	102	1048576	19	4410
2026-01-07 22:27:42.46	46.22	11.65	-29.7	-31.6	12.8	4.42e-05	0	43	102	1048576	19	4487
2026-01-07 22:27:43.46	46.38	11.71	-29.6	-31.4	12.8	4.88e-05	0	43	102	1048576	19	4433
2026-01-07 22:27:44.46	46.54	11.76	-29.6	-31.5	12.8	7.78e-05	0	43	102	1048576	19	4457
2026-01-07 22:27:45.46	46.69	11.81	-29.4	-30.9	13.2	4.42e-05	0	43	102	1048576	19	4274
2026-01-07 22:27:46.47	46.85	11.87	-29.5	-31.1	13.1	2.44e-05	0	43	102	1048576	19	4343
2026-01-07 22:27:47.48	47.01	11.92	-29.6	-31.3	12.9	3.50e-05	0	43	102	1048576	19	4397
2026-01-07 22:27:48.48	47.17	11.97	-29.6	-31.5	12.8	8.23e-05	0	43	102	1048576	19	4469
2026-01-07 22:27:49.49	47.33	12.02	-29.5	-31.1	13.0	4.73e-05	0	43	102	1048576	19	4345
2026-01-07 22:27:50.50	47.49	12.08	-29.4	-31.0	13.2	8.54e-05	0	43	102	1048576	19	4295
2026-01-07 22:27:51.50	47.65	12.13	-29.6	-31.3	13.0	4.04e-05	0	43	102	1048576	19	4387
2026-01-07 22:27:52.51	47.82	12.18	-29.5	-31.0	13.1	2.89e-05	0	43	102	1048576	19	4310
2026-01-07 22:27:53.52	47.98	12.23	-29.5	-31.1	13.0	3.35e-05	0	43	102	1048576	19	4333
2026-01-07 22:27:54.52	48.14	12.28	-29.5	-31.1	13.0	7.47e-05	0	43	102	1048576	19	4343
2026-01-07 22:27:55.53	48.30	12.34	-29.4	-31.0	13.1	3.28e-05	0	43	102	1048576	19	4286
2026-01-07 22:27:56.54	48.47	12.39	-29.5	-31.1	13.1	2.36e-05	0	43	102	1048576	19	4327
2026-01-07 22:27:57.55	48.63	12.44	-29.6	-31.3	12.9	5.41e-05	0	43	102	1048576	19	4399
2026-01-07 22:27:58.54	48.80	12.49	-29.6	-31.4	12.9	4.57e-05	0	43	102	1048576	19	4409
2026-01-07 22:27:59.55	48.96	12.54	-29.5	-31.1	13.1	3.73e-05	0	43	102	1048576	19	4338
2026-01-07 22:28:00.56	49.13	12.59	-29.7	-31.7	12.7	7.01e-05	0	43	102	1048576	19	4507
2026-01-07 22:28:01.57	49.30	12.65	-29.7	-31.7	12.7	7.93e-05	0	43	102	1048576	19	4519
2026-01-07 22:28:02.57	49.46	12.70	-29.7	-31.7	12.7	6.33e-05	0	43	102	1048576	19	4514
2026-01-07 22:28:03.58	49.63	12.75	-29.8	-32.0	12.5	1.76e-04	0	43	102	1048576	19	4646
2026-01-07 22:28:04.58	49.80	12.80	-29.8	-31.8	12.5	1.54e-04	0	43	102	1048576	19	4574
2026-01-07 22:28:05.59	49.97	12.85	-29.8	-32.1	12.5	9.46e-05	0	43	102	1048576	19	4658
2026-01-07 22:28:06.59	50.14	12.90	-29.9	-32.1	12.4	1.30e-04	0	43	102	1048576	19	4655
2026-01-07 22:28:07.60	50.31	12.95	-29.8	-32.0	12.5	1.23e-04	0	43	102	1048576	19	4640
2026-01-07 22:28:08.60	50.48	13.00	-29.7	-31.8	12.6	1.02e-04	0	43	102	1048576	19	4549
2026-01-07 22:28:09.61	50.65	13.05	-29.8	-31.8	12.6	8.54e-05	0	43	102	1048576	19	4573
2026-01-07 22:28:10.61	50.82	13.10	-29.7	-31.6	12.7	9.38e-05	0	43	102	1048576	19	4507
2026-01-07 22:28:11.62	51.00	13.15	-29.7	-31.5	12.8	5.79e-05	0	43	102	1048576	19	4470
2026-01-07 22:28:12.62	51.17	13.20	-29.8	-31.9	12.6	6.02e-05	0	43	102	1048576	19	4585
2026-01-07 22:28:13.63	51.34	13.25	-29.7	-31.7	12.7	1.14e-04	0	43	102	1048576	19	4516
2026-01-07 22:28:14.64	51.52	13.30	-29.8	-31.9	12.6	7.93e-05	0	43	102	1048576	19	4607
2026-01-07 22:28:15.65	51.69	13.35	-29.9	-32.1	12.5	1.36e-04	0	43	102	1048576	19	4666
2026-01-07 22:28:16.65	51.87	13.40	-29.9	-32.2	12.3	1.47e-04	0	43	102	1048576	19	4714
2026-01-07 22:28:17.66	52.04	13.45	-29.9	-32.2	12.3	1.63e-04	0	43	102	1048576	19	4708
2026-01-07 22:28:18.66	52.22	13.50	-29.9	-31.6	12.3	2.29e-04	0	43	102	1048576	20	4425
2026-01-07 22:28:19.67	52.40	13.55	-29.9	-31.9	12.2	1.96e-04	0	43	102	1048576	20	4501
2026-01-07 22:28:20.68	52.58	13.60	-29.8	-31.6	12.4	2.20e-04	0	43	102	1048576	20	4418
2026-01-07 22:28:21.69	52.75	13.65	-29.8	-31.4	12.5	1.85e-04	0	43	102	1048576	20	4362
2026-01-07 22:28:22.69	52.93	13.70	-29.7	-31.2	12.6	7.32e-05	0	43	102	1048576	20	4289
2026-01-07 22:28:23.70	53.11	13.74	-29.8	-31.4	12.6	9.15e-05	0	43	102	1048576	20	4331
2026-01-07 22:28:24.71	53.29	13.79	-29.7	-31.2	12.7	9.46e-05	0	43	102	1048576	20	4284
2026-01-07 22:28:25.72	53.47	13.84	-29.8	-32.0	12.6	2.09e-04	0	43	102	1048576	19	4618
2026-01-07 22:28:26.72	53.65	13.89	-29.9	-32.1	12.5	1.06e-04	0	43	102	1048576	19	4651
2026-01-07 22:28:27.73	53.84	13.94	-29.8	-31.8	12.7	7.17e-05	0	43	102	1048576	19	4567
2026-01-07 22:28:28.74	54.02	13.98	-29.9	-32.3	12.4	2.81e-04	0	43	102	1048576	19	4714
2026-01-07 22:28:29.74	54.20	14.03	-30.0	-32.3	12.4	1.65e-04	0	43	102	1048576	19	4741
2026-01-07 22:28:30.74	54.38	14.08	-30.0	-32.4	12.4	1.29e-04	0	43	102	1048576	19	4743
2026-01-07 22:28:31.75	54.57	14.13	-30.0	-32.0	12.2	2.36e-04	0	43	102	1048576	20	4540
2026-01-07 22:28:32.76	54.75	14.17	-30.3	-32.8	11.6	6.16e-04	0	43	102	1048576	20	4829
2026-01-07 22:28:33.76	54.94	14.22	-30.2	-32.6	11.8	5.63e-04	0	43	102	1048576	20	4750
2026-01-07 22:28:34.76	55.12	14.27	-30.3	-32.9	11.5	5.80e-04	0	43	102	1048576	20	4881
2026-01-07 22:28:35.77	55.31	14.31	-30.4	-33.1	11.5	7.86e-04	0	43	102	1048576	20	4931
2026-01-07 22:28:36.78	55.50	14.36	-30.2	-32.6	11.8	6.87e-04	0	43	102	1048576	20	4736
2026-01-07 22:28:37.79	55.69	14.40	-30.3	-32.8	11.6	5.00e-04	0	43	102	1048576	20	4833
2026-01-07 22:28:38.79	55.87	14.45	-30.1	-32.4	11.9	6.68e-04	0	43	102	1048576	20	4665
2026-01-07 22:28:39.80	56.06	14.50	-30.0	-31.9	12.3	2.44e-04	0	43	102	1048576	20	4482
2026-01-07 22:28:40.81	56.25	14.54	-30.0	-32.1	12.1	2.40e-04	0	43	102	1048576	20	4572
2026-01-07 22:28:41.81	56.44	14.59	-30.1	-32.3	12.0	2.93e-04	0	43	102	1048576	20	4641
2026-01-07 22:28:42.82	56.63	14.63	-30.2	-32.5	11.8	4.26e-04	0	43	102	1048576	20	4718
2026-01-07 22:28:43.83	56.82	14.68	-30.3	-32.9	11.6	5.93e-04	0	43	102	1048576	20	4846
2026-01-07 22:28:44.83	57.01	14.72	-30.4	-33.4	11.3	8.48e-04	0	43	102	1048576	20	5048
2026-01-07 22:28:45.83	57.20	14.76	-30.3	-33.0	11.5	1.26e-03	0	43	102	1048576	20	4916
2026-01-07 22:28:46.84	57.40	14.81	-30.2	-32.5	11.8	6.84e-04	0	43	102	1048576	20	4715
2026-01-07 22:28:47.85	57.59	14.85	-30.2	-32.6	11.8	4.57e-04	0	43	102	1048576	20	4732
2026-01-07 22:28:48.86	57.78	14.90	-30.3	-32.9	11.7	4.90e-04	0	43	102	1048576	20	4840
2026-01-07 22:28:49.86	57.98	14.94	-30.4	-33.1	11.4	7.65e-04	0	43	102	1048576	20	4942
2026-01-07 22:28:50.87	58.17	14.98	-30.4	-33.3	11.3	9.28e-04	0	43	102	1048576	20	5008
2026-01-07 22:28:51.87	58.37	15.03	-30.5	-33.1	11.1	1.03e-03	0	43	102	1048576	21	4831
2026-01-07 22:28:52.88	58.56	15.07	-30.6	-33.3	11.0	1.90e-03	0	43	102	1048576	21	4902
2026-01-07 22:28:53.88	58.76	15.11	-30.5	-33.0	11.2	1.66e-03	0	43	102	1048576	21	4792
2026-01-07 22:28:54.88	58.95	15.15	-30.4	-32.6	11.5	1.15e-03	0	43	102	1048576	21	4651
2026-01-07 22:28:55.89	59.15	15.19	-30.3	-32.3	11.7	7.22e-04	0	43	102	1048576	21	4525
2026-01-07 22:28:56.89	59.35	15.24	-30.3	-32.4	11.7	4.63e-04	0	43	102	1048576	21	4558
2026-01-07 22:28:57.89	59.55	15.28	-30.2	-31.9	12.0	4.19e-04	0	43	102	1048576	21	4397
2026-01-07 22:28:58.90	59.75	15.32	-30.1	-31.8	12.1	2.21e-04	0	43	102	1048576	21	4368
2026-01-07 22:28:59.91	59.95	15.36	-30.5	-32.9	11.3	6.05e-04	0	43	102	1048576	21	4756
2026-01-07 22:29:00.92	60.15	15.40	-30.4	-32.7	11.5	9.69e-04	0	43	102	1048576	21	4674
2026-01-07 22:29:01.92	60.35	15.44	-30.7	-33.4	11.0	1.09e-03	0	43	102	1048576	21	4938
2026-01-07 22:29:02.93	60.55	15.48	-30.5	-32.8	11.3	1.47e-03	0	43	102	1048576	21	4717
2026-01-07 22:29:03.94	60.75	15.52	-30.4	-32.5	11.7	9.04e-04	0	43	102	1048576	21	4599
2026-01-07 22:29:04.95	60.95	15.56	-30.3	-32.2	11.8	5.67e-04	0	43	102	1048576	21	4514
2026-01-07 22:29:05.95	61.16	15.60	-30.1	-31.6	12.2	2.30e-04	0	43	102	1048576	21	4309
2026-01-07 22:29:06.96	61.36	15.64	-30.0	-31.5	12.3	1.65e-04	0	43	102	1048576	21	4249
2026-01-07 22:29:07.97	61.57	15.68	-30.1	-31.8	12.1	1.79e-04	0	43	102	1048576	21	4352
2026-01-07 22:29:08.98	61.77	15.72	-29.9	-31.2	12.5	2.14e-04	0	43	102	1048576	21	4170
2026-01-07 22:29:09.98	61.97	15.76	-29.8	-31.2	12.8	8.92e-05	0	43	102	1048576	20	4252
2026-01-07 22:29:10.98	62.18	15.79	-29.8	-31.4	12.7	8.46e-05	0	43	102	1048576	20	4323
2026-01-07 22:29:11.99	62.38	15.83	-30.0	-31.9	12.4	8.16e-05	0	43	102	1048576	20	4490
2026-01-07 22:29:13.00	62.59	15.87	-29.7	-31.0	13.0	2.53e-04	0	43	102	1048576	20	4175
2026-01-07 22:29:14.00	62.80	15.91	-29.6	-30.8	13.1	3.43e-05	0	43	102	1048576	20	4130
2026-01-07 22:29:15.01	63.01	15.94	-29.6	-31.2	13.3	3.29e-04	0	43	102	1048576	19	4333
2026-01-07 22:29:16.02	63.21	15.98	-29.5	-30.9	13.4	3.64e-04	0	43	102	1048576	19	4250
2026-01-07 22:29:17.02	63.42	16.02	-29.6	-31.2	13.3	1.14e-05	0	43	102	1048576	19	4329
2026-01-07 22:29:18.02	63.63	16.05	-29.5	-31.0	13.4	4.51e-04	0	43	102	1048576	19	4271
2026-01-07 22:29:19.03	63.84	16.09	-29.5	-30.8	13.6	1.85e-04	0	43	102	1048576	19	4209
2026-01-07 22:29:20.04	64.05	16.12	-29.5	-31.1	13.4	1.52e-05	0	43	102	1048576	19	4285
2026-01-07 22:29:21.05	64.26	16.16	-29.6	-31.3	13.3	1.59e-04	0	43	102	1048576	19	4345
2026-01-07 22:29:22.05	64.47	16.19	-29.6	-31.1	13.3	1.30e-04	0	43	102	1048576	19	4311
2026-01-07 22:29:23.06	64.68	16.23	-29.6	-31.3	13.2	1.75e-05	0	43	102	1048576	19	4347
2026-01-07 22:29:24.06	64.89	16.26	-29.5	-30.9	13.5	1.43e-04	0	43	102	1048576	19	4238
2026-01-07 22:29:25.07	65.11	16.30	-29.5	-30.8	13.5	4.65e-05	0	43	102	1048576	19	4209
2026-01-07 22:29:26.07	65.32	16.33	-29.6	-31.2	13.3	1.52e-05	0	43	102	1048576	19	4334
2026-01-07 22:29:27.08	65.53	16.36	-29.6	-31.2	13.3	3.12e-05	0	43	102	1048576	19	4320
2026-01-07 22:29:28.09	65.75	16.40	-29.8	-31.8	12.9	1.12e-04	0	43	102	1048576	19	4529
2026-01-07 22:29:29.09	65.96	16.43	-29.9	-32.0	12.8	5.56e-05	0	43	102	1048576	19	4596
2026-01-07 22:29:30.10	66.18	16.46	-30.0	-32.3	12.6	1.94e-04	0	43	102	1048576	19	4690
2026-01-07 22:29:31.10	66.39	16.49	-30.1	-32.1	12.3	1.91e-04	0	43	102	1048576	20	4545
2026-01-07 22:29:32.11	66.61	16.52	-30.4	-32.9	11.8	3.23e-04	0	43	102	1048576	20	4838
2026-01-07 22:29:33.11	66.82	16.55	-30.2	-32.4	12.1	2.17e-04	0	43	102	1048576	20	4663
2026-01-07 22:29:34.12	67.04	16.59	-30.0	-31.9	12.5	2.62e-04	0	43	102	1048576	20	4483
2026-01-07 22:29:35.13	67.25	16.62	-30.0	-31.8	12.6	1.40e-04	0	43	102	1048576	20	4434
2026-01-07 22:29:36.14	67.47	16.65	-29.9	-31.7	12.6	1.05e-04	0	43	102	1048576	20	4400
2026-01-07 22:29:37.14	67.69	16.68	-29.8	-31.3	12.8	4.80e-05	0	43	102	1048576	20	4272
2026-01-07 22:29:38.15	67.91	16.71	-29.6	-30.8	13.2	1.53e-04	0	43	102	1048576	20	4134
2026-01-07 22:29:39.15	68.13	16.73	-29.7	-31.3	13.3	2.21e-05	0	43	102	1048576	19	4356
2026-01-07 22:29:40.16	68.35	16.76	-29.6	-31.2	13.4	1.52e-05	0	43	102	1048576	19	4328
2026-01-07 22:29:41.16	68.56	16.79	-29.7	-31.5	13.1	1.56e-04	0	43	102	1048576	19	4421
2026-01-07 22:29:42.16	68.78	16.82	-29.6	-31.1	13.4	2.68e-04	0	43	102	1048576	19	4291
2026-01-07 22:29:43.16	69.00	16.85	-29.5	-31.0	13.5	8.30e-06	0	43	102	1048576	19	4259
2026-01-07 22:29:44.17	69.22	16.87	-29.6	-31.3	13.3	9.99e-05	0	43	102	1048576	19	4351
2026-01-07 22:29:45.18	69.44	16.90	-29.9	-32.1	12.7	1.80e-04	0	43	102	1048576	19	4622
2026-01-07 22:29:46.18	69.66	16.93	-29.9	-31.5	12.7	8.01e-05	0	43	102	1048576	20	4350
2026-01-07 22:29:47.19	69.89	16.95	-29.9	-31.6	12.6	1.09e-04	0	43	102	1048576	20	4382
2026-01-07 22:29:48.20	70.11	16.98	-29.7	-31.1	13.0	6.17e-05	0	43	102	1048576	20	4206
2026-01-07 22:29:49.20	70.33	17.00	-29.7	-31.0	13.1	2.21e-05	0	43	102	1048576	20	4178
2026-01-07 22:29:50.21	70.55	17.03	-29.7	-31.0	13.1	2.89e-05	0	43	102	1048576	20	4192
2026-01-07 22:29:51.22	70.78	17.05	-29.7	-31.0	13.1	3.73e-05	0	43	102	1048576	20	4177
2026-01-07 22:29:52.23	71.00	17.08	-29.7	-31.1	13.0	6.48e-05	0	43	102	1048576	20	4220
2026-01-07 22:29:53.23	71.22	17.10	-29.8	-31.3	12.8	5.18e-05	0	43	102	1048576	20	4273
2026-01-07 22:29:54.24	71.45	17.12	-29.8	-31.3	12.9	4.50e-05	0	43	102	1048576	20	4271
2026-01-07 22:29:55.25	71.68	17.15	-29.8	-31.1	13.0	3.05e-05	0	43	102	1048576	20	4219
2026-01-07 22:29:56.25	71.90	17.17	-29.4	-30.2	13.6	9.10e-06	0	43	102	1048576	20	3938
2026-01-07 22:29:57.25	72.12	17.19	-29.2	-30.2	14.0	3.80e-06	0	43	102	1048576	19	4013
2026-01-07 22:29:58.26	72.35	17.21	-29.3	-30.3	14.0	2.20e-06	0	43	102	1048576	19	4035
2026-01-07 22:29:59.27	72.58	17.24	-29.5	-30.8	13.6	4.50e-06	0	43	102	1048576	19	4209
2026-01-07 22:30:00.28	72.80	17.26	-29.6	-31.2	13.3	1.52e-05	0	43	102	1048576	19	4328
2026-01-07 22:30:01.29	73.03	17.28	-29.6	-31.3	13.3	1.37e-05	0	43	102	1048576	19	4345
2026-01-07 22:30:02.30	73.26	17.30	-29.7	-31.5	13.2	2.44e-05	0	44	102	1048576	19	4402
2026-01-07 22:30:03.31	73.49	17.32	-29.5	-31.0	13.5	1.52e-05	0	44	102	1048576	19	4251
2026-01-07 22:30:04.32	73.71	17.34	-29.4	-30.5	13.8	9.90e-06	0	43	102	1048576	19	4102
2026-01-07 22:30:05.32	73.94	17.36	-29.4	-30.7	13.7	3.80e-06	0	43	102	1048576	19	4151
2026-01-07 22:30:06.33	74.17	17.37	-29.5	-31.0	13.5	1.14e-05	0	43	102	1048576	19	4248
2026-01-07 22:30:07.33	74.40	17.39	-29.6	-31.1	13.5	3.80e-06	0	43	102	1048576	19	4272
2026-01-07 22:30:08.34	74.63	17.41	-29.8	-31.8	13.0	2.13e-05	0	43	102	1048576	19	4515
2026-01-07 22:30:09.34	74.85	17.43	-30.1	-32.0	12.5	9.15e-05	0	43	102	1048576	20	4500
2026-01-07 22:30:10.34	75.08	17.44	-30.3	-32.6	12.1	2.26e-04	0	43	102	1048576	20	4696
2026-01-07 22:30:11.35	75.31	17.46	-30.3	-32.8	11.9	3.68e-04	0	43	102	1048576	20	4799
2026-01-07 22:30:12.36	75.54	17.48	-30.4	-32.9	11.8	3.82e-04	0	43	102	1048576	20	4831
2026-01-07 22:30:13.37	75.77	17.49	-30.4	-33.1	11.6	5.08e-04	0	43	102	1048576	20	4893
2026-01-07 22:30:14.38	76.00	17.51	-30.5	-32.9	11.5	8.73e-04	0	43	102	1048576	21	4727
2026-01-07 22:30:15.39	76.23	17.52	-30.4	-32.6	11.7	6.81e-04	0	43	102	1048576	21	4610
2026-01-07 22:30:16.39	76.46	17.54	-30.5	-32.7	11.5	6.26e-04	0	43	102	1048576	21	4667
2026-01-07 22:30:17.40	76.69	17.55	-30.5	-32.9	11.5	5.34e-04	0	43	102	1048576	21	4733
2026-01-07 22:30:18.41	76.93	17.56	-30.5	-32.8	11.6	7.77e-04	0	43	102	1048576	21	4685
2026-01-07 22:30:19.42	77.16	17.58	-30.3	-32.3	11.9	5.03e-04	0	43	102	1048576	21	4531
2026-01-07 22:30:20.42	77.39	17.59	-30.4	-32.4	11.8	4.49e-04	0	43	102	1048576	21	4541
2026-01-07 22:30:21.42	77.62	17.60	-30.3	-32.2	12.0	3.92e-04	0	43	102	1048576	21	4464
2026-01-07 22:30:22.43	77.85	17.61	-30.1	-31.5	12.5	2.84e-04	0	43	102	1048576	21	4244
2026-01-07 22:30:23.44	78.08	17.62	-30.0	-31.7	12.6	1.16e-04	0	43	102	1048576	20	4400
2026-01-07 22:30:24.44	78.31	17.63	-30.0	-31.7	12.6	7.40e-05	0	43	102	1048576	20	4405
2026-01-07 22:30:25.45	78.55	17.64	-30.0	-31.7	12.6	3.02e-04	0	43	102	1048576	20	4405
2026-01-07 22:30:26.46	78.78	17.65	-30.0	-32.0	12.5	2.86e-04	0	43	102	1048576	20	4488
2026-01-07 22:30:27.47	79.01	17.66	-30.1	-32.0	12.4	1.18e-04	0	43	102	1048576	20	4503
2026-01-07 22:30:28.48	79.25	17.67	-30.0	-31.9	12.5	1.43e-04	0	44	102	1048576	20	4474
2026-01-07 22:30:29.48	79.48	17.68	-29.9	-31.4	12.8	1.30e-04	0	43	102	1048576	20	4299
2026-01-07 22:30:30.49	79.71	17.69	-29.8	-31.2	13.0	8.16e-05	0	43	102	1048576	20	4229
2026-01-07 22:30:31.50	79.95	17.69	-29.8	-31.3	12.9	4.65e-05	0	43	102	1048576	20	4269
2026-01-07 22:30:32.51	80.18	17.70	-29.9	-31.7	12.6	1.58e-04	0	43	102	1048576	20	4401
2026-01-07 22:30:33.52	80.41	17.71	-30.0	-31.8	12.7	1.24e-04	0	44	102	1048576	20	4433
2026-01-07 22:30:34.53	80.65	17.71	-30.0	-31.8	12.5	1.13e-04	0	43	102	1048576	20	4441
2026-01-07 22:30:35.53	80.88	17.72	-29.9	-31.6	12.6	1.24e-04	0	44	102	1048576	20	4373
2026-01-07 22:30:36.53	81.11	17.73	-29.8	-31.1	13.0	5.03e-05	0	43	102	1048576	20	4218
2026-01-07 22:30:37.55	81.35	17.73	-29.7	-31.1	13.0	3.89e-05	0	43	102	1048576	20	4217
2026-01-07 22:30:38.55	81.58	17.73	-29.9	-31.4	12.7	6.48e-05	0	43	102	1048576	20	4320
2026-01-07 22:30:39.55	81.81	17.74	-29.9	-31.5	12.7	6.25e-05	0	44	102	1048576	20	4349
2026-01-07 22:30:40.54	82.04	17.74	-29.9	-31.6	12.7	7.62e-05	0	44	102	1048576	20	4385
2026-01-07 22:30:41.55	82.28	17.74	-30.0	-31.8	12.5	7.55e-05	0	43	102	1048576	20	4426
2026-01-07 22:30:42.56	82.51	17.75	-29.8	-31.3	12.9	6.71e-05	0	43	102	1048576	20	4273
2026-01-07 22:30:43.56	82.75	17.75	-29.8	-31.3	12.8	4.42e-05	0	43	102	1048576	20	4289
2026-01-07 22:30:44.56	82.98	17.75	-29.9	-31.4	12.8	4.95e-05	0	43	102	1048576	20	4316
2026-01-07 22:30:45.57	83.21	17.75	-29.7	-31.1	13.0	4.04e-05	0	43	102	1048576	20	4209
2026-01-07 22:30:46.58	83.45	17.75	-29.6	-30.8	13.2	3.43e-05	0	43	102	1048576	20	4121
2026-01-07 22:30:47.59	83.68	17.75	-29.7	-31.1	13.0	7.62e-05	0	43	102	1048576	20	4217
2026-01-07 22:30:48.59	83.91	17.75	-29.8	-31.4	12.8	5.72e-05	0	44	102	1048576	20	4313
2026-01-07 22:30:49.60	84.15	17.75	-29.9	-31.5	12.7	1.26e-04	0	43	102	1048576	20	4341
2026-01-07 22:30:50.61	84.38	17.75	-29.9	-31.7	12.5	9.68e-05	0	43	102	1048576	20	4412
2026-01-07 22:30:51.62	84.62	17.75	-29.9	-31.7	12.5	1.23e-04	0	43	102	1048576	20	4403
2026-01-07 22:30:52.62	84.85	17.75	-30.2	-32.3	12.2	1.95e-04	0	44	102	1048576	20	4635
2026-01-07 22:30:53.62	85.08	17.74	-30.2	-32.3	12.1	3.96e-04	0	44	102	1048576	20	4628
2026-01-07 22:30:54.63	85.32	17.74	-30.2	-32.6	12.0	1.64e-04	0	44	102	1048576	20	4711
2026-01-07 22:30:55.64	85.55	17.74	-30.3	-32.9	11.8	4.96e-04	0	44	102	1048576	20	4822
2026-01-07 22:30:56.64	85.79	17.73	-30.4	-33.1	11.6	5.29e-04	0	43	102	1048576	20	4927
2026-01-07 22:30:57.64	86.02	17.73	-30.5	-33.0	11.3	1.14e-03	0	44	102	1048576	21	4792
2026-01-07 22:30:58.65	86.25	17.72	-30.4	-32.6	11.6	8.32e-04	0	43	102	1048576	21	4644
2026-01-07 22:30:59.65	86.49	17.72	-30.4	-32.5	11.7	6.43e-04	0	43	102	1048576	21	4586
2026-01-07 22:31:00.66	86.72	17.71	-30.3	-32.4	11.8	4.91e-04	0	43	102	1048576	21	4556
2026-01-07 22:31:01.67	86.95	17.71	-30.3	-32.3	11.8	6.94e-04	0	43	102	1048576	21	4531
2026-01-07 22:31:02.67	87.19	17.70	-30.4	-32.5	11.7	4.55e-04	0	43	102	1048576	21	4605
2026-01-07 22:31:03.68	87.42	17.69	-30.3	-32.4	11.7	5.74e-04	0	44	102	1048576	21	4562
2026-01-07 22:31:04.68	87.65	17.69	-30.2	-32.2	11.9	4.17e-04	0	44	102	1048576	21	4494
2026-01-07 22:31:05.68	87.88	17.68	-30.2	-32.0	12.0	4.05e-04	0	43	102	1048576	21	4429
2026-01-07 22:31:06.69	88.12	17.67	-30.1	-31.7	12.2	3.10e-04	0	43	102	1048576	21	4338
2026-01-07 22:31:07.70	88.35	17.66	-29.8	-31.0	12.7	1.16e-04	0	44	102	1048576	21	4096
2026-01-07 22:31:08.71	88.58	17.65	-29.8	-31.3	12.8	5.64e-05	0	43	102	1048576	20	4289
2026-01-07 22:31:09.71	88.82	17.64	-29.7	-31.0	13.0	4.42e-05	0	44	102	1048576	20	4183
2026-01-07 22:31:10.72	89.05	17.63	-29.5	-30.4	13.5	2.82e-05	0	44	102	1048576	20	4015
2026-01-07 22:31:11.73	89.28	17.62	-29.5	-30.6	13.3	1.22e-05	0	43	102	1048576	20	4070
2026-01-07 22:31:12.74	89.51	17.61	-29.3	-30.5	13.8	7.60e-06	0	43	102	1048576	19	4112
2026-01-07 22:31:13.74	89.74	17.60	-29.2	-30.2	13.9	7.60e-06	0	44	102	1048576	19	4037
2026-01-07 22:31:14.75	89.98	17.58	-29.3	-30.4	13.8	4.50e-06	0	44	102	1048576	19	4081
2026-01-07 22:31:15.76	90.21	17.57	-29.4	-30.6	13.7	3.80e-06	0	44	102	1048576	19	4162
2026-01-07 22:31:16.76	90.44	17.56	-29.6	-31.1	13.3	1.14e-05	0	44	102	1048576	19	4319
2026-01-07 22:31:17.76	90.67	17.55	-29.7	-31.6	13.0	3.20e-05	0	44	102	1048576	19	4478
2026-01-07 22:31:18.77	90.90	17.53	-30.0	-32.3	12.6	9.00e-05	0	43	102	1048576	19	4715
2026-01-07 22:31:19.77	91.13	17.52	-29.9	-31.6	12.6	1.43e-04	0	44	102	1048576	20	4376
2026-01-07 22:31:20.78	91.36	17.50	-30.1	-32.1	12.2	1.74e-04	0	43	102	1048576	20	4557
2026-01-07 22:31:21.79	91.59	17.49	-30.1	-32.3	12.2	2.42e-04	0	44	102	1048576	20	4611
2026-01-07 22:31:22.80	91.82	17.47	-30.1	-32.2	12.2	2.44e-04	0	43	102	1048576	20	4601
2026-01-07 22:31:23.80	92.05	17.46	-30.2	-32.5	12.0	3.45e-04	0	43	102	1048576	20	4704
2026-01-07 22:31:24.81	92.28	17.44	-30.2	-32.4	12.1	3.49e-04	0	44	102	1048576	20	4649
2026-01-07 22:31:25.82	92.51	17.42	-30.2	-32.5	12.0	3.24e-04	0	44	102	1048576	20	4709
2026-01-07 22:31:26.83	92.74	17.40	-30.2	-32.5	12.0	3.87e-04	0	43	102	1048576	20	4703
2026-01-07 22:31:27.84	92.97	17.39	-30.4	-33.1	11.6	4.76e-04	0	43	102	1048576	20	4891
2026-01-07 22:31:28.84	93.20	17.37	-30.2	-32.4	12.0	4.65e-04	0	43	102	1048576	20	4651
2026-01-07 22:31:29.85	93.43	17.35	-29.9	-31.7	12.5	1.88e-04	0	43	102	1048576	20	4416
2026-01-07 22:31:30.85	93.66	17.33	-30.0	-32.0	12.4	1.44e-04	0	43	102	1048576	20	4499
2026-01-07 22:31:31.86	93.88	17.31	-29.9	-31.5	12.7	1.41e-04	0	43	102	1048576	20	4354
2026-01-07 22:31:32.87	94.11	17.29	-29.9	-31.6	12.6	7.47e-05	0	43	102	1048576	20	4395
2026-01-07 22:31:33.88	94.34	17.27	-29.9	-31.7	12.6	1.24e-04	0	44	102	1048576	20	4412
2026-01-07 22:31:34.88	94.57	17.25	-30.0	-31.9	12.4	1.37e-04	0	43	102	1048576	20	4484
2026-01-07 22:31:35.89	94.79	17.23	-30.2	-32.5	12.0	2.76e-04	0	44	102	1048576	20	4692
2026-01-07 22:31:36.89	95.02	17.21	-30.1	-32.0	12.3	2.96e-04	0	44	102	1048576	20	4525
2026-01-07 22:31:37.90	95.25	17.19	-29.8	-31.3	12.8	1.02e-04	0	43	102	1048576	20	4279
2026-01-07 22:31:38.91	95.47	17.16	-29.6	-30.7	13.2	2.82e-05	0	43	102	1048576	20	4093
2026-01-07 22:31:39.91	95.70	17.14	-29.5	-30.5	13.4	1.83e-05	0	44	102	1048576	20	4035
2026-01-07 22:31:40.92	95.92	17.12	-29.6	-31.2	13.4	1.37e-05	0	44	102	1048576	19	4325
2026-01-07 22:31:41.93	96.15	17.09	-29.6	-31.1	13.4	1.52e-05	0	43	102	1048576	19	4292
2026-01-07 22:31:42.93	96.37	17.07	-29.6	-31.1	13.4	1.06e-05	0	44	102	1048576	19	4284
2026-01-07 22:31:43.94	96.59	17.05	-29.5	-31.0	13.4	1.06e-05	0	43	102	1048576	19	4280
2026-01-07 22:31:44.94	96.82	17.02	-29.5	-30.9	13.4	9.90e-06	0	43	102	1048576	19	4254
2026-01-07 22:31:45.95	97.04	17.00	-29.6	-31.0	13.5	8.46e-05	0	43	102	1048576	19	4243
2026-01-07 22:31:46.96	97.27	16.97	-29.6	-31.2	13.4	1.75e-05	0	44	102	1048576	19	4300
2026-01-07 22:31:47.97	97.49	16.94	-29.6	-31.1	13.5	1.52e-05	0	43	102	1048576	19	4269
2026-01-07 22:31:48.98	97.71	16.92	-29.6	-31.0	13.5	3.20e-05	0	43	102	1048576	19	4261
2026-01-07 22:31:49.98	97.93	16.89	-29.7	-31.4	13.3	1.37e-05	0	44	102	1048576	19	4379
2026-01-07 22:31:50.99	98.15	16.86	-29.5	-30.9	13.6	1.06e-05	0	44	102	1048576	19	4200
2026-01-07 22:31:52.00	98.38	16.84	-29.4	-30.6	13.8	3.00e-06	0	44	102	1048576	19	4114
2026-01-07 22:31:53.00	98.60	16.81	-29.3	-30.4	13.9	2.20e-06	0	43	102	1048576	19	4056
2026-01-07 22:31:54.01	98.82	16.78	-29.5	-30.8	13.7	9.10e-06	0	44	102	1048576	19	4168
2026-01-07 22:31:55.02	99.04	16.75	-29.4	-30.4	13.9	9.10e-06	0	43	102	1048576	19	4079
2026-01-07 22:31:56.02	99.26	16.72	-29.4	-30.6	13.8	7.00e-07	0	44	102	1048576	19	4120
2026-01-07 22:31:57.03	99.47	16.69	-29.4	-30.5	13.8	3.00e-06	0	43	102	1048576	19	4105
2026-01-07 22:31:58.03	99.69	16.67	-29.4	-30.6	13.7	5.30e-06	0	44	102	1048576	19	4131
2026-01-07 22:31:59.04	99.91	16.64	-29.5	-30.7	13.7	7.60e-06	0	44	102	1048576	19	4173
2026-01-07 22:32:00.04	100.13	16.60	-29.6	-31.1	13.4	1.14e-05	0	44	102	1048576	19	4278
2026-01-07 22:32:01.05	100.35	16.57	-29.6	-31.0	13.5	8.30e-06	0	44	102	1048576	19	4238
2026-01-07 22:32:02.05	100.56	16.54	-29.5	-30.8	13.6	1.75e-05	0	44	102	1048576	19	4190
2026-01-07 22:32:03.06	100.78	16.51	-29.5	-30.9	13.5	6.80e-06	0	43	102	1048576	19	4224
2026-01-07 22:32:04.06	100.99	16.48	-29.6	-31.1	13.4	4.42e-05	0	44	102	1048576	19	4294
2026-01-07 22:32:05.06	101.21	16.45	-29.5	-30.8	13.6	1.14e-05	0	43	102	1048576	19	4177
2026-01-07 22:32:06.07	101.42	16.42	-29.5	-30.8	13.6	2.74e-05	0	43	102	1048576	19	4192
2026-01-07 22:32:07.07	101.64	16.38	-29.5	-30.8	13.6	1.50e-06	0	44	102	1048576	19	4190
2026-01-07 22:32:08.08	101.85	16.35	-29.5	-31.0	13.5	8.30e-06	0	44	102	1048576	19	4242
2026-01-07 22:32:09.08	102.06	16.32	-29.6	-31.2	13.3	1.52e-05	0	43	102	1048576	19	4322
2026-01-07 22:32:10.08	102.28	16.28	-29.7	-31.4	13.2	2.21e-05	0	44	102	1048576	19	4373
2026-01-07 22:32:11.09	102.49	16.25	-29.7	-31.5	13.2	3.12e-05	0	43	102	1048576	19	4398
2026-01-07 22:32:12.10	102.70	16.21	-29.6	-31.1	13.4	1.98e-05	0	44	102	1048576	19	4299
2026-01-07 22:32:13.11	102.92	16.18	-29.6	-31.0	13.4	1.75e-05	0	43	102	1048576	19	4264
2026-01-07 22:32:14.12	103.13	16.14	-29.5	-30.9	13.5	9.10e-06	0	44	102	1048576	19	4234
2026-01-07 22:32:15.12	103.34	16.11	-29.4	-30.6	13.7	8.30e-06	0	43	102	1048576	19	4122
2026-01-07 22:32:16.13	103.55	16.07	-29.4	-30.5	13.8	3.80e-06	0	44	102	1048576	19	4117
2026-01-07 22:32:17.14	103.76	16.04	-29.3	-30.3	13.9	4.50e-06	0	43	102	1048576	19	4057
2026-01-07 22:32:18.15	103.97	16.00	-29.5	-30.8	13.5	6.10e-06	0	44	102	1048576	19	4206
2026-01-07 22:32:19.15	104.18	15.96	-29.5	-30.9	13.6	6.80e-06	0	43	102	1048576	19	4211
2026-01-07 22:32:20.16	104.39	15.93	-29.7	-31.4	13.2	1.67e-05	0	43	102	1048576	19	4385
2026-01-07 22:32:21.17	104.60	15.89	-29.7	-31.4	13.2	1.98e-05	0	44	102	1048576	19	4394
2026-01-07 22:32:22.18	104.80	15.85	-29.7	-31.5	13.1	2.51e-05	0	44	102	1048576	19	4409
2026-01-07 22:32:23.18	105.01	15.81	-29.5	-30.9	13.5	1.60e-05	0	44	102	1048576	19	4230
2026-01-07 22:32:24.19	105.22	15.78	-29.4	-30.7	13.6	6.10e-06	0	43	102	1048576	19	4166
2026-01-07 22:32:25.20	105.42	15.74	-29.5	-30.9	13.5	9.90e-06	0	44	102	1048576	19	4226
2026-01-07 22:32:26.21	105.63	15.70	-29.5	-30.7	13.6	1.06e-05	0	44	102	1048576	19	4176
2026-01-07 22:32:27.21	105.83	15.66	-29.7	-31.4	13.1	1.06e-05	0	43	102	1048576	19	4397
2026-01-07 22:32:28.21	106.04	15.62	-29.9	-31.9	12.8	3.81e-05	0	44	102	1048576	19	4550
2026-01-07 22:32:29.22	106.24	15.58	-29.9	-31.7	12.5	1.15e-04	0	43	102	1048576	20	4392
2026-01-07 22:32:30.23	106.45	15.54	-30.2	-32.5	12.0	2.68e-04	0	43	102	1048576	20	4667
2026-01-07 22:32:31.24	106.65	15.50	-30.2	-32.5	12.0	4.13e-04	0	44	102	1048576	20	4665
2026-01-07 22:32:32.25	106.85	15.46	-30.3	-32.6	11.9	3.90e-04	0	44	102	1048576	20	4730
2026-01-07 22:32:33.25	107.05	15.42	-30.2	-32.3	12.1	2.23e-04	0	43	102	1048576	20	4590
2026-01-07 22:32:34.26	107.26	15.38	-29.9	-31.7	12.6	2.43e-04	0	44	102	1048576	20	4384
2026-01-07 22:32:35.26	107.45	15.34	-29.8	-31.3	12.8	1.20e-04	0	44	102	1048576	20	4278
2026-01-07 22:32:36.27	107.66	15.30	-29.9	-31.6	12.6	1.43e-04	0	43	102	1048576	20	4375
2026-01-07 22:32:37.27	107.85	15.26	-30.1	-32.0	12.3	1.33e-04	0	43	102	1048576	20	4492
2026-01-07 22:32:38.28	108.05	15.21	-30.0	-31.8	12.4	3.75e-04	0	44	102	1048576	20	4448
2026-01-07 22:32:39.28	108.25	15.17	-30.0	-31.7	12.5	1.34e-04	0	43	102	1048576	20	4404
2026-01-07 22:32:40.29	108.45	15.13	-30.1	-32.0	12.2	2.06e-04	0	44	102	1048576	20	4512
2026-01-07 22:32:41.29	108.65	15.09	-30.0	-31.9	12.4	2.41e-04	0	44	102	1048576	20	4467
2026-01-07 22:32:42.30	108.84	15.04	-30.2	-32.4	12.0	1.92e-04	0	44	102	1048576	20	4628
2026-01-07 22:32:43.30	109.04	15.00	-30.1	-32.3	12.1	3.18e-04	0	44	102	1048576	20	4589
2026-01-07 22:32:44.31	109.24	14.96	-30.0	-31.8	12.4	1.87e-04	0	44	102	1048576	20	4437
2026-01-07 22:32:45.32	109.43	14.91	-29.9	-31.6	12.6	1.30e-04	0	43	102	1048576	20	4357
2026-01-07 22:32:46.33	109.63	14.87	-30.0	-31.9	12.4	1.50e-04	0	43	102	1048576	20	4449
2026-01-07 22:32:47.34	109.82	14.83	-30.3	-32.7	11.8	2.59e-04	0	43	102	1048576	20	4735
2026-01-07 22:32:48.34	110.01	14.78	-30.5	-32.8	11.3	6.50e-04	0	43	102	1048576	21	4712
2026-01-07 22:32:49.35	110.21	14.74	-30.7	-33.6	10.8	1.74e-03	0	43	102	1048576	21	5009
2026-01-07 22:32:50.35	110.40	14.69	-30.8	-33.7	10.7	2.83e-03	0	43	102	1048576	21	5044
2026-01-07 22:32:51.35	110.59	14.65	-30.7	-33.6	10.8	2.69e-03	0	44	102	1048576	21	5017
2026-01-07 22:32:52.36	110.78	14.60	-30.7	-33.6	10.7	2.30e-03	0	43	102	1048576	21	5027
2026-01-07 22:32:53.36	110.97	14.56	-30.5	-32.9	11.2	1.51e-03	0	44	102	1048576	21	4750
2026-01-07 22:32:54.37	111.16	14.51	-30.5	-32.8	11.4	1.07e-03	0	44	102	1048576	21	4719
2026-01-07 22:32:55.37	111.35	14.47	-30.4	-32.6	11.4	1.08e-03	0	44	102	1048576	21	4659
2026-01-07 22:32:56.37	111.54	14.42	-30.2	-32.0	11.9	4.03e-04	0	43	102	1048576	21	4421
2026-01-07 22:32:57.38	111.73	14.37	-30.2	-31.8	12.0	3.27e-04	0	43	102	1048576	21	4352
2026-01-07 22:32:58.39	111.92	14.33	-30.1	-31.7	12.1	3.06e-04	0	43	102	1048576	21	4304
2026-01-07 22:32:59.40	112.11	14.28	-30.1	-31.7	12.1	1.89e-04	0	44	102	1048576	21	4311
2026-01-07 22:33:00.41	112.29	14.23	-30.0	-31.8	12.3	2.22e-04	0	43	102	1048576	20	4454
2026-01-07 22:33:01.41	112.48	14.19	-29.9	-31.7	12.5	1.30e-04	0	44	102	1048576	20	4410
2026-01-07 22:33:02.42	112.67	14.14	-30.0	-31.9	12.3	2.14e-04	0	44	102	1048576	20	4462
2026-01-07 22:33:03.42	112.85	14.09	-29.9	-31.6	12.5	1.37e-04	0	44	102	1048576	20	4380
2026-01-07 22:33:04.42	113.03	14.05	-30.0	-31.9	12.3	1.25e-04	0	44	102	1048576	20	4458
2026-01-07 22:33:05.43	113.22	14.00	-30.1	-32.1	12.2	2.78e-04	0	44	102	1048576	20	4538
2026-01-07 22:33:06.44	113.40	13.95	-30.3	-32.7	11.7	3.97e-04	0	44	102	1048576	20	4761
2026-01-07 22:33:07.45	113.58	13.90	-30.4	-33.0	11.5	7.06e-04	0	44	102	1048576	20	4882
2026-01-07 22:33:08.46	113.77	13.85	-30.2	-32.6	11.8	7.37e-04	0	44	102	1048576	20	4725
2026-01-07 22:33:09.47	113.95	13.80	-30.4	-33.0	11.5	8.66e-04	0	44	102	1048576	20	4874
2026-01-07 22:33:10.47	114.13	13.76	-30.4	-33.0	11.5	7.26e-04	0	44	102	1048576	20	4887
2026-01-07 22:33:11.48	114.31	13.71	-30.4	-33.1	11.5	6.71e-04	0	44	102	1048576	20	4899
2026-01-07 22:33:12.48	114.49	13.66	-30.4	-33.2	11.4	1.12e-03	0	44	102	1048576	20	4937
2026-01-07 22:33:13.49	114.67	13.61	-30.4	-33.2	11.4	1.03e-03	0	44	102	1048576	20	4949
2026-01-07 22:33:14.50	114.85	13.56	-30.4	-33.2	11.3	1.01e-03	0	44	102	1048576	20	4971
2026-01-07 22:33:15.51	115.03	13.51	-30.5	-33.1	11.0	1.64e-03	0	44	102	1048576	21	4819
2026-01-07 22:33:16.52	115.21	13.46	-30.6	-33.3	10.8	3.07e-03	0	44	102	1048576	21	4917
2026-01-07 22:33:17.53	115.38	13.41	-30.4	-32.7	11.3	1.53e-03	0	44	102	1048576	21	4692
2026-01-07 22:33:18.54	115.56	13.36	-30.4	-32.8	11.2	1.43e-03	0	44	102	1048576	21	4738
2026-01-07 22:33:19.55	115.74	13.31	-30.4	-32.6	11.3	1.49e-03	0	44	102	1048576	21	4648
2026-01-07 22:33:20.55	115.91	13.26	-30.1	-31.8	11.9	5.61e-04	0	44	102	1048576	21	4362
2026-01-07 22:33:21.56	116.09	13.21	-30.2	-32.0	11.8	4.59e-04	0	44	102	1048576	21	4437
2026-01-07 22:33:22.57	116.26	13.16	-30.2	-32.0	11.8	5.72e-04	0	44	102	1048576	21	4444
2026-01-07 22:33:23.58	116.44	13.11	-30.4	-32.8	11.3	6.13e-04	0	44	102	1048576	21	4711
2026-01-07 22:33:24.58	116.61	13.06	-30.5	-32.9	11.1	1.93e-03	0	44	102	1048576	21	4771
2026-01-07 22:33:25.59	116.78	13.01	-30.6	-33.2	10.9	1.85e-03	0	44	102	1048576	21	4876
2026-01-07 22:33:26.59	116.95	12.96	-30.7	-33.5	10.6	3.71e-03	0	44	102	1048576	21	5013
2026-01-07 22:33:27.60	117.13	12.91	-30.5	-33.0	11.1	2.38e-03	0	44	102	1048576	21	4800
2026-01-07 22:33:28.60	117.30	12.86	-30.3	-32.2	11.5	8.70e-04	0	44	102	1048576	21	4523
2026-01-07 22:33:29.60	117.46	12.81	-30.1	-31.7	11.9	4.84e-04	0	44	102	1048576	21	4350
2026-01-07 22:33:30.61	117.63	12.75	-30.0	-31.4	12.2	3.29e-04	0	44	102	1048576	21	4246
2026-01-07 22:33:31.62	117.80	12.70	-30.0	-31.3	12.2	1.57e-04	0	44	102	1048576	21	4208
2026-01-07 22:33:32.63	117.97	12.65	-30.0	-31.4	12.2	2.13e-04	0	44	102	1048576	21	4238
2026-01-07 22:33:33.63	118.14	12.60	-30.0	-31.4	12.2	2.61e-04	0	44	102	1048576	21	4233
2026-01-07 22:33:34.64	118.31	12.55	-29.9	-31.2	12.4	1.44e-04	0	44	102	1048576	21	4154
2026-01-07 22:33:35.65	118.48	12.49	-30.0	-31.5	12.1	1.97e-04	0	44	102	1048576	21	4254
2026-01-07 22:33:36.64	118.64	12.44	-30.1	-31.7	12.0	3.58e-04	0	44	102	1048576	21	4331
2026-01-07 22:33:37.65	118.81	12.39	-30.0	-31.5	12.1	3.28e-04	0	44	102	1048576	21	4279
2026-01-07 22:33:38.66	118.97	12.34	-30.2	-32.1	11.6	4.05e-04	0	44	102	1048576	21	4488
2026-01-07 22:33:39.66	119.13	12.29	-30.1	-31.8	11.9	5.12e-04	0	44	102	1048576	21	4385
2026-01-07 22:33:40.67	119.30	12.23	-30.0	-31.6	12.0	4.76e-04	0	44	102	1048576	21	4311
2026-01-07 22:33:41.68	119.46	12.18	-30.0	-31.4	12.1	2.63e-04	0	44	102	1048576	21	4248
2026-01-07 22:33:42.68	119.62	12.13	-29.9	-31.3	12.2	2.31e-04	0	43	102	1048576	21	4221
2026-01-07 22:33:43.69	119.79	12.08	-30.0	-31.5	12.1	2.49e-04	0	44	102	1048576	21	4275
2026-01-07 22:33:44.70	119.95	12.02	-30.2	-31.9	11.7	4.94e-04	0	44	102	1048576	21	4416
2026-01-07 22:33:45.70	120.11	11.97	-30.1	-31.8	11.8	4.32e-04	0	44	102	1048576	21	4384
2026-01-07 22:33:46.71	120.27	11.92	-30.2	-32.0	11.7	5.05e-04	0	44	102	1048576	21	4440
2026-01-07 22:33:47.72	120.43	11.86	-30.0	-31.6	12.0	6.25e-04	0	43	102	1048576	21	4291
2026-01-07 22:33:48.73	120.59	11.81	-29.8	-31.1	12.3	1.88e-04	0	44	102	1048576	21	4138
2026-01-07 22:33:49.72	120.75	11.76	-29.8	-30.8	12.5	1.47e-04	0	43	102	1048576	21	4064
2026-01-07 22:33:50.73	120.91	11.70	-29.7	-31.2	12.6	8.62e-05	0	44	102	1048576	20	4268
2026-01-07 22:33:51.74	121.07	11.65	-29.5	-30.6	12.9	5.72e-05	0	44	102	1048576	20	4095
2026-01-07 22:33:52.74	121.22	11.60	-29.4	-30.2	13.2	2.74e-05	0	44	102	1048576	20	3970
2026-01-07 22:33:53.75	121.38	11.54	-29.3	-30.5	13.4	1.75e-05	0	44	102	1048576	19	4138
2026-01-07 22:33:54.76	121.54	11.49	-29.2	-30.2	13.6	6.80e-06	0	44	102	1048576	19	4051
2026-01-07 22:33:55.77	121.69	11.44	-29.2	-30.1	13.6	2.20e-06	0	44	102	1048576	19	4017
2026-01-07 22:33:56.77	121.85	11.38	-29.2	-30.2	13.6	6.80e-06	0	44	102	1048576	19	4030
2026-01-07 22:33:57.77	122.00	11.33	-29.3	-30.5	13.4	1.30e-04	0	44	102	1048576	19	4136
2026-01-07 22:33:58.78	122.15	11.27	-29.3	-30.6	13.4	1.67e-05	0	44	102	1048576	19	4150
2026-01-07 22:33:59.78	122.31	11.22	-29.4	-30.9	13.2	2.89e-05	0	44	102	1048576	19	4242
2026-01-07 22:34:00.78	122.46	11.17	-29.5	-31.1	13.0	3.50e-05	0	44	102	1048576	19	4319
2026-01-07 22:34:01.79	122.61	11.11	-29.7	-31.5	12.7	6.94e-05	0	44	102	1048576	19	4456
2026-01-07 22:34:02.81	122.76	11.06	-29.6	-31.5	12.7	9.00e-05	0	43	102	1048576	19	4440
2026-01-07 22:34:03.81	122.91	11.00	-29.6	-31.5	12.7	5.49e-05	0	44	102	1048576	19	4436
2026-01-07 22:34:04.82	123.07	10.95	-29.6	-31.4	12.8	6.86e-05	0	44	102	1048576	19	4416
2026-01-07 22:34:05.83	123.22	10.90	-29.7	-31.7	12.6	6.94e-05	0	44	102	1048576	19	4512
2026-01-07 22:34:06.84	123.37	10.84	-29.6	-31.4	12.8	6.02e-05	0	44	102	1048576	19	4410
2026-01-07 22:34:07.84	123.51	10.79	-29.5	-31.1	13.0	5.64e-05	0	43	102	1048576	19	4325
2026-01-07 22:34:08.85	123.66	10.73	-29.7	-31.5	12.7	7.40e-05	0	43	102	1048576	19	4450
2026-01-07 22:34:09.86	123.81	10.68	-29.8	-32.0	12.2	1.11e-04	0	43	102	1048576	19	4634
2026-01-07 22:34:10.86	123.96	10.62	-29.9	-32.3	12.2	1.26e-04	0	44	102	1048576	19	4722
2026-01-07 22:34:11.87	124.11	10.57	-30.0	-32.0	11.8	2.67e-04	0	43	102	1048576	20	4543
2026-01-07 22:34:12.87	124.25	10.51	-30.0	-32.1	11.8	3.58e-04	0	44	102	1048576	20	4577
2026-01-07 22:34:13.88	124.40	10.46	-30.0	-32.0	11.9	3.88e-04	0	44	102	1048576	20	4559
2026-01-07 22:34:14.89	124.54	10.40	-29.9	-31.9	11.9	5.49e-04	0	44	102	1048576	20	4519
2026-01-07 22:34:15.90	124.69	10.35	-29.8	-31.6	12.2	3.20e-04	0	44	102	1048576	20	4411
2026-01-07 22:34:16.90	124.83	10.29	-29.8	-31.4	12.3	2.40e-04	0	44	102	1048576	20	4351
2026-01-07 22:34:17.91	124.98	10.24	-29.8	-31.6	12.2	3.58e-04	0	44	102	1048576	20	4398
2026-01-07 22:34:18.91	125.12	10.18	-29.7	-31.1	12.4	1.89e-04	0	44	102	1048576	20	4259
2026-01-07 22:34:19.92	125.26	10.13	-29.7	-31.1	12.5	1.14e-04	0	44	102	1048576	20	4248
2026-01-07 22:34:20.93	125.41	10.07	-29.8	-31.5	12.2	1.64e-04	0	44	102	1048576	20	4392
2026-01-07 22:34:21.93	125.55	10.02	-29.9	-31.8	12.0	3.40e-04	0	44	102	1048576	20	4489
2026-01-07 22:34:22.94	125.69	9.96	-29.9	-31.9	11.9	2.83e-04	0	44	102	1048576	20	4540
2026-01-07 22:34:23.95	125.83	9.91	-30.1	-32.6	11.4	5.21e-04	0	44	102	1048576	20	4758
2026-01-07 22:34:24.96	125.97	9.85	-30.1	-32.5	11.5	1.30e-03	0	43	102	1048576	20	4755
2026-01-07 22:34:25.97	126.11	9.80	-30.3	-32.9	11.2	1.40e-03	0	44	102	1048576	20	4903
2026-01-07 22:34:26.97	126.25	9.74	-30.3	-32.9	11.2	1.15e-03	0	43	102	1048576	20	4900
2026-01-07 22:34:27.98	126.39	9.69	-30.3	-33.0	11.0	1.81e-03	0	44	102	1048576	20	4942
2026-01-07 22:34:28.98	126.52	9.63	-30.2	-32.8	11.2	1.85e-03	0	44	102	1048576	20	4858
2026-01-07 22:34:29.99	126.66	9.58	-30.2	-32.9	11.2	1.33e-03	0	44	102	1048576	20	4884
2026-01-07 22:34:31.00	126.80	9.52	-30.3	-33.2	11.0	1.89e-03	0	44	102	1048576	20	4993
2026-01-07 22:34:32.00	126.94	9.47	-30.2	-32.7	11.3	1.55e-03	0	44	102	1048576	20	4833
2026-01-07 22:34:33.00	127.07	9.41	-30.1	-32.4	11.5	1.18e-03	0	44	102	1048576	20	4702
2026-01-07 22:34:34.01	127.21	9.36	-30.1	-32.5	11.4	9.50e-04	0	44	102	1048576	20	4744
2026-01-07 22:34:35.01	127.34	9.30	-30.1	-32.6	11.4	1.16e-03	0	44	102	1048576	20	4790
2026-01-07 22:34:36.02	127.48	9.25	-30.3	-33.0	11.0	1.51e-03	0	44	102	1048576	20	4946
2026-01-07 22:34:37.03	127.61	9.19	-30.3	-33.2	10.9	1.86e-03	0	44	102	1048576	20	5015
2026-01-07 22:34:38.03	127.74	9.14	-30.3	-33.0	11.0	1.97e-03	0	44	102	1048576	20	4961
2026-01-07 22:34:39.04	127.88	9.08	-30.3	-33.2	10.9	2.13e-03	0	44	102	1048576	20	5011
2026-01-07 22:34:40.05	128.01	9.03	-30.3	-33.3	10.8	2.53e-03	0	44	102	1048576	20	5064
2026-01-07 22:34:41.05	128.14	8.97	-30.4	-33.6	10.6	2.67e-03	0	44	102	1048576	20	5185
2026-01-07 22:34:42.06	128.27	8.91	-30.5	-33.5	10.3	5.23e-03	0	44	102	1048576	21	5042
2026-01-07 22:34:43.07	128.41	8.86	-30.5	-33.3	10.4	5.49e-03	0	44	102	1048576	21	4973
2026-01-07 22:34:44.07	128.54	8.80	-30.5	-33.3	10.4	3.96e-03	0	44	102	1048576	21	4986
2026-01-07 22:34:45.07	128.67	8.75	-30.5	-33.3	10.3	5.43e-03	0	44	102	1048576	21	5004
2026-01-07 22:34:46.08	128.80	8.69	-30.5	-33.5	10.2	6.02e-03	0	44	102	1048576	21	5051
2026-01-07 22:34:47.08	128.92	8.64	-30.7	-34.0	9.8	7.13e-03	0	44	102	1048576	21	5281
2026-01-07 22:34:48.08	129.05	8.58	-30.6	-33.9	9.8	8.62e-03	0	44	102	1048576	21	5255
2026-01-07 22:34:49.09	129.18	8.53	-30.8	-34.5	9.4	1.18e-02	0	44	102	1048576	21	5516
2026-01-07 22:34:50.09	129.31	8.47	-30.5	-33.7	10.0	1.20e-02	0	44	102	1048576	21	5162
2026-01-07 22:34:51.09	129.43	8.42	-30.4	-33.3	10.3	7.22e-03	0	44	102	1048576	21	4992
2026-01-07 22:34:52.09	129.56	8.36	-30.3	-32.7	10.7	4.28e-03	0	43	102	1048576	21	4773
2026-01-07 22:34:53.10	129.69	8.31	-30.2	-32.6	10.8	2.84e-03	0	44	102	1048576	21	4721
2026-01-07 22:34:54.10	129.81	8.25	-30.2	-32.4	10.9	2.53e-03	0	44	102	1048576	21	4665
2026-01-07 22:34:55.10	129.94	8.20	-30.1	-32.2	11.1	1.77e-03	0	44	102	1048576	21	4583
2026-01-07 22:34:56.11	130.06	8.14	-30.3	-32.7	10.7	1.73e-03	0	44	102	1048576	21	4770
2026-01-07 22:34:57.12	130.19	8.09	-30.3	-33.0	10.5	3.15e-03	0	44	102	1048576	21	4874
2026-01-07 22:34:58.13	130.31	8.03	-30.2	-32.4	10.9	2.03e-03	0	44	102	1048576	21	4644
2026-01-07 22:34:59.13	130.44	7.98	-30.2	-32.5	10.9	1.66e-03	0	44	102	1048576	21	4691
2026-01-07 22:35:00.14	130.56	7.92	-30.3	-32.9	10.6	3.14e-03	0	44	102	1048576	21	4829
2026-01-07 22:35:01.15	130.68	7.86	-30.4	-33.0	10.5	3.60e-03	0	44	102	1048576	21	4882
2026-01-07 22:35:02.16	130.81	7.81	-30.5	-33.5	10.1	5.83e-03	0	44	102	1048576	21	5079
2026-01-07 22:35:03.16	130.93	7.75	-30.4	-33.3	10.2	6.83e-03	0	44	102	1048576	21	5011
2026-01-07 22:35:04.18	131.05	7.70	-30.6	-34.0	9.7	8.22e-03	0	44	102	1048576	21	5322
2026-01-07 22:35:05.18	131.17	7.64	-30.8	-34.8	9.1	2.07e-02	0	44	102	1048576	21	5676
2026-01-07 22:35:06.19	131.29	7.59	-30.6	-33.9	9.8	1.34e-02	0	44	102	1048576	21	5265
2026-01-07 22:35:07.20	131.41	7.53	-30.4	-33.5	10.0	9.31e-03	0	43	102	1048576	21	5105
2026-01-07 22:35:08.20	131.53	7.48	-30.3	-32.9	10.4	5.25e-03	0	44	102	1048576	21	4859
2026-01-07 22:35:09.21	131.65	7.42	-30.1	-32.5	10.7	3.38e-03	0	44	102	1048576	21	4730
2026-01-07 22:35:10.22	131.77	7.37	-30.0	-32.1	10.9	2.87e-03	0	44	102	1048576	21	4594
2026-01-07 22:35:11.22	131.89	7.31	-30.0	-32.2	10.8	2.79e-03	0	44	102	1048576	21	4615
2026-01-07 22:35:12.22	132.01	7.26	-29.9	-31.6	11.2	1.48e-03	0	44	102	1048576	21	4399
2026-01-07 22:35:13.23	132.12	7.20	-29.9	-31.7	11.2	1.13e-03	0	44	102	1048576	21	4418
2026-01-07 22:35:14.23	132.24	7.15	-29.9	-31.7	11.2	1.29e-03	0	44	102	1048576	21	4430
2026-01-07 22:35:15.24	132.36	7.09	-30.1	-32.9	10.9	1.24e-03	0	44	102	1048576	20	4983
2026-01-07 22:35:16.25	132.47	7.04	-32.7	-45.2	3.8	1.49e+00	0	43	104	1048576	25	15108
2026-01-07 22:35:17.26	132.59	6.98	-33.2	-45.6	3.8	1.49e+00	0	44	104	1048576	26	15029

#Closed at: 2026-01-07 22:35:18
#Recorded file [1 MB]: D:/data/31010_260108_012618.dat