passes_logs/2026/01/07/R2M6_AANII_01/R2M6_AANII_01__20260107_144430_FENGYUN_3E_rec.log

#Pass ID: 20260107_144430_FENGYUN 3E
#Satellite: FENGYUN 3E
#Configuration: FENGYUN 3E
#almurnet v.1.7.20240730
#Start time: 2026-01-07 14:44:32

#Version: 2.2.20231116
#Station: R2M6_AANII_01
#Location: 30.233357 lon 59.946436 lat
#TLE: 1 49008U 21062A   26006.26767912  .00000427  00000+0  22170-3 0  9993
#TLE: 2 49008  98.7475  11.4982 0001602 156.1158 204.0093 14.19885456233607

#Time	Az	El	Level	Level2	SNR	BER	BlckErr	Temp	State	Recorded	gain1	gain2
2026-01-07 14:44:32.18	164.59	7.16	-28.8	-31.0	5.3	7.79e-01	0	41	0	0	18	4641
2026-01-07 14:44:33.18	164.60	7.24	-28.5	-30.8	5.4	7.74e-01	0	41	104	0	17	4672
2026-01-07 14:44:34.18	164.61	7.32	-28.4	-30.4	10.4	4.75e-03	0	41	0	0	17	4542
2026-01-07 14:44:35.19	164.63	7.39	-28.0	-29.6	10.8	3.04e-03	0	41	102	1048576	17	4293
2026-01-07 14:44:36.19	164.64	7.47	-28.0	-29.5	10.9	2.32e-03	0	41	102	1048576	17	4264
2026-01-07 14:44:37.20	164.65	7.55	-28.1	-29.7	10.7	2.28e-03	0	41	102	1048576	17	4335
2026-01-07 14:44:38.21	164.67	7.63	-28.2	-30.1	10.5	3.52e-03	0	41	102	1048576	17	4441
2026-01-07 14:44:39.22	164.68	7.71	-28.2	-29.8	10.7	2.75e-03	0	41	102	1048576	17	4370
2026-01-07 14:44:40.22	164.69	7.79	-27.8	-29.4	11.2	1.42e-03	0	41	102	1048576	16	4352
2026-01-07 14:44:41.23	164.71	7.87	-27.4	-28.6	11.7	5.95e-04	0	42	102	1048576	16	4120
2026-01-07 14:44:42.24	164.72	7.95	-26.9	-28.1	12.2	2.09e-04	0	41	102	1048576	15	4093
2026-01-07 14:44:43.24	164.73	8.03	-26.6	-27.8	12.6	8.58e-05	0	41	102	1048576	14	4132
2026-01-07 14:44:44.24	164.75	8.12	-26.3	-27.7	12.9	4.23e-05	0	42	102	1048576	13	4194
2026-01-07 14:44:45.24	164.76	8.20	-26.2	-27.5	13.0	4.00e-05	0	42	102	1048576	13	4143
2026-01-07 14:44:46.25	164.77	8.28	-26.3	-27.6	12.9	2.63e-05	0	42	102	1048576	13	4197
2026-01-07 14:44:47.26	164.79	8.36	-26.2	-27.4	13.1	1.83e-05	0	42	102	1048576	13	4114
2026-01-07 14:44:48.26	164.80	8.44	-26.2	-27.4	13.1	2.97e-05	0	42	102	1048576	13	4127
2026-01-07 14:44:49.27	164.81	8.52	-26.0	-26.8	13.5	2.97e-05	0	42	102	1048576	13	3970
2026-01-07 14:44:50.27	164.83	8.61	-26.1	-27.2	13.3	5.70e-06	0	42	102	1048576	13	4076
2026-01-07 14:44:51.28	164.84	8.69	-26.3	-27.6	13.1	6.80e-06	0	42	102	1048576	13	4179
2026-01-07 14:44:52.29	164.85	8.77	-26.5	-28.0	12.8	4.46e-05	0	42	102	1048576	13	4276
2026-01-07 14:44:53.29	164.87	8.86	-26.2	-27.4	13.2	2.28e-05	0	42	102	1048576	13	4113
2026-01-07 14:44:54.30	164.88	8.94	-26.1	-27.0	13.4	1.60e-05	0	42	102	1048576	13	4036
2026-01-07 14:44:55.31	164.90	9.03	-26.0	-26.9	13.4	1.71e-05	0	42	102	1048576	13	4008
2026-01-07 14:44:56.32	164.91	9.11	-25.9	-27.2	13.6	6.80e-06	0	42	102	1048576	12	4173
2026-01-07 14:44:57.32	164.92	9.19	-25.9	-27.2	13.6	5.70e-06	0	42	102	1048576	12	4184
2026-01-07 14:44:58.33	164.94	9.28	-26.0	-27.3	13.5	8.00e-06	0	42	102	1048576	12	4222
2026-01-07 14:44:59.34	164.95	9.36	-26.0	-27.4	13.5	6.80e-06	0	42	102	1048576	12	4239
2026-01-07 14:45:00.34	164.97	9.45	-26.1	-27.5	13.4	1.37e-05	0	42	102	1048576	12	4252
2026-01-07 14:45:01.35	164.98	9.54	-25.9	-27.2	13.6	4.50e-06	0	42	102	1048576	12	4167
2026-01-07 14:45:02.35	165.00	9.62	-25.5	-26.3	14.1	4.50e-06	0	42	102	1048576	12	3952
2026-01-07 14:45:03.36	165.01	9.71	-25.4	-26.1	14.2	4.50e-06	0	42	102	1048576	12	3907
2026-01-07 14:45:04.36	165.03	9.79	-25.5	-26.8	14.2	1.10e-06	0	42	102	1048576	11	4175
2026-01-07 14:45:05.37	165.04	9.88	-25.4	-26.6	14.3	1.10e-06	0	42	102	1048576	11	4121
2026-01-07 14:45:06.38	165.06	9.97	-25.5	-26.7	14.2	2.20e-06	0	42	102	1048576	11	4160
2026-01-07 14:45:07.38	165.07	10.06	-25.5	-26.7	14.3	1.10e-06	0	42	102	1048576	11	4138
2026-01-07 14:45:08.39	165.09	10.14	-25.5	-26.7	14.3	0.00e+00	0	42	102	1048576	11	4145
2026-01-07 14:45:09.39	165.10	10.23	-25.4	-26.6	14.3	6.80e-06	0	42	102	1048576	11	4123
2026-01-07 14:45:10.39	165.12	10.32	-25.6	-26.9	14.2	0.00e+00	0	42	102	1048576	11	4202
2026-01-07 14:45:11.40	165.13	10.41	-25.3	-26.3	14.5	0.00e+00	0	42	102	1048576	11	4036
2026-01-07 14:45:12.40	165.15	10.50	-25.3	-26.3	14.5	4.50e-06	0	42	102	1048576	11	4044
2026-01-07 14:45:13.41	165.16	10.59	-25.4	-26.6	14.4	0.00e+00	0	42	102	1048576	11	4117
2026-01-07 14:45:14.42	165.18	10.68	-25.4	-26.5	14.4	1.10e-06	0	42	102	1048576	11	4090
2026-01-07 14:45:15.43	165.19	10.77	-25.5	-26.8	14.3	6.80e-06	0	42	102	1048576	11	4162
2026-01-07 14:45:16.43	165.21	10.86	-25.6	-26.9	14.2	0.00e+00	0	42	102	1048576	11	4184
2026-01-07 14:45:17.45	165.22	10.95	-25.4	-26.5	14.4	0.00e+00	0	42	102	1048576	11	4098
2026-01-07 14:45:18.46	165.24	11.04	-25.2	-26.0	14.7	1.10e-06	0	42	102	1048576	11	3970
2026-01-07 14:45:19.46	165.25	11.13	-25.2	-26.1	14.7	0.00e+00	0	42	102	1048576	11	3992
2026-01-07 14:45:20.47	165.27	11.23	-25.2	-26.1	14.7	0.00e+00	0	43	102	1048576	11	3994
2026-01-07 14:45:21.48	165.29	11.32	-25.2	-26.0	14.7	0.00e+00	0	42	102	1048576	11	3961
2026-01-07 14:45:22.49	165.30	11.41	-25.2	-26.0	14.7	0.00e+00	0	42	102	1048576	11	3965
2026-01-07 14:45:23.50	165.32	11.50	-25.1	-25.8	14.8	1.10e-06	0	43	102	1048576	11	3913
2026-01-07 14:45:24.50	165.33	11.60	-25.1	-25.9	14.8	0.00e+00	0	43	102	1048576	11	3923
2026-01-07 14:45:25.51	165.35	11.69	-25.1	-25.8	14.9	0.00e+00	0	42	102	1048576	11	3910
2026-01-07 14:45:26.52	165.37	11.79	-25.2	-26.1	14.7	0.00e+00	0	42	102	1048576	11	3975
2026-01-07 14:45:27.53	165.38	11.88	-25.2	-26.0	14.8	0.00e+00	0	42	102	1048576	11	3961
2026-01-07 14:45:28.53	165.40	11.97	-25.4	-26.4	14.6	1.10e-06	0	42	102	1048576	11	4068
2026-01-07 14:45:29.54	165.42	12.07	-25.4	-26.4	14.6	0.00e+00	0	42	102	1048576	11	4059
2026-01-07 14:45:30.54	165.43	12.17	-25.4	-26.5	14.5	0.00e+00	0	43	102	1048576	11	4087
2026-01-07 14:45:31.55	165.45	12.26	-25.3	-26.2	14.7	1.10e-06	0	42	102	1048576	11	4012
2026-01-07 14:45:32.55	165.47	12.36	-25.3	-26.3	14.6	0.00e+00	0	43	102	1048576	11	4025
2026-01-07 14:45:33.55	165.48	12.45	-25.3	-26.3	14.6	0.00e+00	0	43	102	1048576	11	4041
2026-01-07 14:45:34.55	165.50	12.55	-25.3	-26.3	14.6	0.00e+00	0	42	102	1048576	11	4028
2026-01-07 14:45:35.55	165.52	12.65	-25.3	-26.3	14.6	0.00e+00	0	43	102	1048576	11	4028
2026-01-07 14:45:36.55	165.53	12.74	-25.4	-26.4	14.7	0.00e+00	0	43	102	1048576	11	4029
2026-01-07 14:45:37.55	165.55	12.84	-25.2	-26.0	14.8	0.00e+00	0	43	102	1048576	11	3945
2026-01-07 14:45:38.55	165.57	12.94	-25.0	-25.6	15.1	0.00e+00	0	43	102	1048576	11	3843
2026-01-07 14:45:39.57	165.59	13.04	-24.8	-25.7	15.3	0.00e+00	0	43	102	1048576	10	3982
2026-01-07 14:45:40.58	165.60	13.14	-24.7	-25.5	15.4	0.00e+00	0	43	102	1048576	10	3921
2026-01-07 14:45:41.58	165.62	13.24	-24.7	-25.4	15.4	0.00e+00	0	43	102	1048576	10	3920
2026-01-07 14:45:42.59	165.64	13.34	-24.7	-25.4	15.4	0.00e+00	0	43	102	1048576	10	3899
2026-01-07 14:45:43.60	165.66	13.44	-24.8	-25.7	15.3	0.00e+00	0	43	102	1048576	10	3966
2026-01-07 14:45:44.60	165.68	13.54	-24.8	-25.7	15.3	0.00e+00	0	43	102	1048576	10	3985
2026-01-07 14:45:45.61	165.69	13.64	-24.8	-25.5	15.4	0.00e+00	0	43	102	1048576	10	3934
2026-01-07 14:45:46.62	165.71	13.74	-24.6	-25.3	15.5	0.00e+00	0	43	102	1048576	10	3864
2026-01-07 14:45:47.62	165.73	13.85	-24.6	-25.1	15.7	0.00e+00	0	43	102	1048576	10	3819
2026-01-07 14:45:48.63	165.75	13.95	-24.7	-25.4	15.5	0.00e+00	0	43	102	1048576	10	3890
2026-01-07 14:45:49.63	165.77	14.05	-24.7	-25.5	15.5	0.00e+00	0	43	102	1048576	10	3913
2026-01-07 14:45:50.63	165.79	14.15	-24.7	-25.5	15.5	0.00e+00	0	43	102	1048576	10	3910
2026-01-07 14:45:51.64	165.80	14.26	-24.8	-25.7	15.4	0.00e+00	0	43	102	1048576	10	3963
2026-01-07 14:45:52.65	165.82	14.36	-24.9	-25.9	15.2	0.00e+00	0	43	102	1048576	10	4035
2026-01-07 14:45:53.65	165.84	14.47	-24.8	-25.6	15.4	1.10e-06	0	43	102	1048576	10	3938
2026-01-07 14:45:54.66	165.86	14.57	-25.1	-26.2	15.1	0.00e+00	0	43	102	1048576	10	4098
2026-01-07 14:45:55.66	165.88	14.68	-25.1	-26.3	15.1	0.00e+00	0	43	102	1048576	10	4122
2026-01-07 14:45:56.67	165.90	14.79	-25.0	-26.0	15.2	1.10e-06	0	43	102	1048576	10	4036
2026-01-07 14:45:57.68	165.92	14.89	-25.0	-26.0	15.2	0.00e+00	0	43	102	1048576	10	4041
2026-01-07 14:45:58.68	165.94	15.00	-25.1	-26.3	15.0	0.00e+00	0	43	102	1048576	10	4137
2026-01-07 14:45:59.69	165.96	15.11	-25.0	-25.9	15.2	8.00e-06	0	43	102	1048576	10	4033
2026-01-07 14:46:00.70	165.98	15.22	-24.9	-25.9	15.3	0.00e+00	0	43	102	1048576	10	4014
2026-01-07 14:46:01.71	166.00	15.32	-25.1	-26.1	15.1	0.00e+00	0	43	102	1048576	10	4082
2026-01-07 14:46:02.71	166.02	15.43	-24.7	-25.4	15.5	5.70e-06	0	43	102	1048576	10	3895
2026-01-07 14:46:03.72	166.04	15.54	-24.6	-25.2	15.6	0.00e+00	0	43	102	1048576	10	3847
2026-01-07 14:46:04.73	166.06	15.65	-24.5	-25.0	15.7	0.00e+00	0	43	102	1048576	10	3804
2026-01-07 14:46:05.74	166.08	15.76	-24.6	-25.3	15.6	2.20e-06	0	43	102	1048576	10	3876
2026-01-07 14:46:06.74	166.10	15.88	-24.6	-25.1	15.7	0.00e+00	0	43	102	1048576	10	3840
2026-01-07 14:46:07.75	166.12	15.99	-24.6	-25.2	15.7	0.00e+00	0	43	102	1048576	10	3854
2026-01-07 14:46:08.76	166.14	16.10	-24.7	-25.4	15.5	4.50e-06	0	43	102	1048576	10	3916
2026-01-07 14:46:09.76	166.16	16.21	-24.7	-25.3	15.6	0.00e+00	0	43	102	1048576	10	3877
2026-01-07 14:46:10.77	166.18	16.33	-24.8	-25.7	15.4	0.00e+00	0	43	102	1048576	10	3976
2026-01-07 14:46:11.77	166.20	16.44	-24.7	-25.4	15.6	0.00e+00	0	43	102	1048576	10	3904
2026-01-07 14:46:12.78	166.23	16.55	-24.7	-25.4	15.5	0.00e+00	0	43	102	1048576	10	3898
2026-01-07 14:46:13.79	166.25	16.67	-24.8	-25.6	15.4	0.00e+00	0	43	102	1048576	10	3965
2026-01-07 14:46:14.79	166.27	16.78	-24.7	-25.4	15.5	0.00e+00	0	43	102	1048576	10	3913
2026-01-07 14:46:15.80	166.29	16.90	-24.9	-25.7	15.4	0.00e+00	0	43	102	1048576	10	3980
2026-01-07 14:46:16.81	166.31	17.02	-24.7	-25.3	15.6	0.00e+00	0	43	102	1048576	10	3877
2026-01-07 14:46:17.82	166.33	17.13	-24.3	-25.1	15.9	0.00e+00	0	43	102	1048576	9	3944
2026-01-07 14:46:18.82	166.36	17.25	-24.2	-24.7	16.1	0.00e+00	0	43	102	1048576	9	3852
2026-01-07 14:46:19.83	166.38	17.37	-24.1	-24.5	16.3	0.00e+00	0	43	102	1048576	9	3795
2026-01-07 14:46:20.82	166.40	17.49	-24.0	-24.4	16.3	0.00e+00	0	43	102	1048576	9	3764
2026-01-07 14:46:21.83	166.42	17.61	-24.1	-24.6	16.3	0.00e+00	0	43	102	1048576	9	3803
2026-01-07 14:46:22.83	166.45	17.72	-23.9	-24.2	16.4	0.00e+00	0	43	102	1048576	9	3730
2026-01-07 14:46:23.84	166.47	17.84	-23.8	-24.5	16.5	0.00e+00	0	43	102	1048576	8	3898
2026-01-07 14:46:24.85	166.49	17.97	-23.9	-24.7	16.4	0.00e+00	0	43	102	1048576	8	3951
2026-01-07 14:46:25.86	166.52	18.09	-23.8	-24.4	16.6	0.00e+00	0	43	102	1048576	8	3859
2026-01-07 14:46:26.86	166.54	18.21	-23.9	-24.6	16.5	0.00e+00	0	43	102	1048576	8	3910
2026-01-07 14:46:27.87	166.56	18.33	-23.8	-24.4	16.6	0.00e+00	0	43	102	1048576	8	3872
2026-01-07 14:46:28.88	166.59	18.46	-23.6	-24.1	16.8	0.00e+00	0	43	102	1048576	8	3793
2026-01-07 14:46:29.88	166.61	18.58	-23.8	-24.5	16.6	0.00e+00	0	43	102	1048576	8	3876
2026-01-07 14:46:30.89	166.64	18.71	-23.5	-23.8	16.9	0.00e+00	0	43	102	1048576	8	3733
2026-01-07 14:46:31.90	166.66	18.83	-23.5	-23.8	16.9	0.00e+00	0	43	102	1048576	8	3736
2026-01-07 14:46:32.90	166.68	18.96	-23.5	-23.8	16.9	0.00e+00	0	43	102	1048576	8	3719
2026-01-07 14:46:33.91	166.71	19.08	-23.7	-24.2	16.8	0.00e+00	0	43	102	1048576	8	3819
2026-01-07 14:46:34.92	166.73	19.21	-23.6	-24.0	16.9	0.00e+00	0	43	102	1048576	8	3771
2026-01-07 14:46:35.93	166.76	19.34	-23.6	-23.9	16.9	0.00e+00	0	43	102	1048576	8	3745
2026-01-07 14:46:36.93	166.78	19.47	-23.8	-24.4	16.6	0.00e+00	0	43	102	1048576	8	3866
2026-01-07 14:46:37.94	166.81	19.60	-23.5	-23.8	16.9	0.00e+00	0	43	102	1048576	8	3732
2026-01-07 14:46:38.94	166.83	19.73	-23.5	-23.7	17.0	0.00e+00	0	43	102	1048576	8	3707
2026-01-07 14:46:39.95	166.86	19.86	-23.5	-23.8	16.9	0.00e+00	0	43	102	1048576	8	3718
2026-01-07 14:46:40.95	166.89	19.99	-23.6	-24.0	16.9	0.00e+00	0	43	102	1048576	8	3777
2026-01-07 14:46:41.96	166.91	20.12	-23.5	-23.8	16.9	0.00e+00	0	43	102	1048576	8	3719
2026-01-07 14:46:42.97	166.94	20.25	-23.3	-23.8	17.1	0.00e+00	0	43	102	1048576	7	3837
2026-01-07 14:46:43.98	166.96	20.39	-23.4	-24.1	17.0	0.00e+00	0	43	102	1048576	7	3893
2026-01-07 14:46:44.99	166.99	20.52	-23.6	-24.5	16.8	0.00e+00	0	43	102	1048576	7	4015
2026-01-07 14:46:46.00	167.02	20.66	-23.5	-24.3	16.9	0.00e+00	0	43	102	1048576	7	3958
2026-01-07 14:46:47.00	167.05	20.79	-23.3	-24.0	17.0	3.40e-06	0	43	102	1048576	7	3889
2026-01-07 14:46:48.01	167.07	20.93	-23.3	-23.9	17.0	0.00e+00	0	43	102	1048576	7	3872
2026-01-07 14:46:49.01	167.10	21.06	-23.3	-24.0	17.0	0.00e+00	0	43	102	1048576	7	3897
2026-01-07 14:46:50.02	167.13	21.20	-23.6	-24.5	16.8	2.20e-06	0	43	102	1048576	7	4017
2026-01-07 14:46:51.03	167.16	21.34	-23.5	-24.3	16.8	0.00e+00	0	43	102	1048576	7	3979
2026-01-07 14:46:52.04	167.18	21.48	-23.7	-24.8	16.6	0.00e+00	0	43	102	1048576	7	4097
2026-01-07 14:46:53.04	167.21	21.62	-23.5	-24.5	16.7	4.50e-06	0	43	102	1048576	7	4017
2026-01-07 14:46:54.05	167.24	21.76	-23.3	-24.0	16.9	0.00e+00	0	43	102	1048576	7	3903
2026-01-07 14:46:55.06	167.27	21.90	-23.3	-24.0	17.0	0.00e+00	0	44	102	1048576	7	3904
2026-01-07 14:46:56.06	167.30	22.04	-23.4	-24.2	16.9	0.00e+00	0	43	102	1048576	7	3949
2026-01-07 14:46:57.07	167.33	22.19	-23.6	-24.6	16.6	0.00e+00	0	43	102	1048576	7	4051
2026-01-07 14:46:58.08	167.36	22.33	-23.5	-24.4	16.8	0.00e+00	0	43	102	1048576	7	3998
2026-01-07 14:46:59.08	167.39	22.48	-23.3	-24.0	16.9	0.00e+00	0	43	102	1048576	7	3912
2026-01-07 14:47:00.09	167.42	22.62	-23.1	-23.5	17.2	0.00e+00	0	43	102	1048576	7	3800
2026-01-07 14:47:01.10	167.45	22.77	-23.3	-24.0	16.9	0.00e+00	0	43	102	1048576	7	3908
2026-01-07 14:47:02.10	167.48	22.92	-23.2	-23.9	17.0	0.00e+00	0	43	102	1048576	7	3888
2026-01-07 14:47:03.11	167.51	23.06	-23.2	-23.8	17.1	0.00e+00	0	43	102	1048576	7	3867
2026-01-07 14:47:04.12	167.54	23.21	-23.1	-23.7	17.1	0.00e+00	0	43	102	1048576	7	3841
2026-01-07 14:47:05.12	167.57	23.36	-23.1	-23.7	17.0	0.00e+00	0	43	102	1048576	7	3857
2026-01-07 14:47:06.12	167.60	23.51	-23.1	-23.6	17.2	0.00e+00	0	43	102	1048576	7	3804
2026-01-07 14:47:07.13	167.64	23.66	-23.3	-24.0	17.0	0.00e+00	0	43	102	1048576	7	3916
2026-01-07 14:47:08.14	167.67	23.82	-23.0	-23.3	17.3	0.00e+00	0	43	102	1048576	7	3742
2026-01-07 14:47:09.14	167.70	23.97	-22.8	-23.6	17.4	0.00e+00	0	43	102	1048576	6	3911
2026-01-07 14:47:10.15	167.73	24.12	-22.8	-23.5	17.5	0.00e+00	0	43	102	1048576	6	3889
2026-01-07 14:47:11.16	167.77	24.28	-22.8	-23.5	17.5	0.00e+00	0	44	102	1048576	6	3900
2026-01-07 14:47:12.17	167.80	24.44	-22.6	-23.1	17.7	0.00e+00	0	43	102	1048576	6	3786
2026-01-07 14:47:13.18	167.83	24.59	-22.7	-23.1	17.7	0.00e+00	0	43	102	1048576	6	3803
2026-01-07 14:47:14.18	167.87	24.75	-22.8	-23.4	17.6	0.00e+00	0	43	102	1048576	6	3860
2026-01-07 14:47:15.19	167.90	24.91	-22.9	-23.6	17.5	0.00e+00	0	44	102	1048576	6	3913
2026-01-07 14:47:16.19	167.94	25.07	-22.6	-23.1	17.8	0.00e+00	0	43	102	1048576	6	3785
2026-01-07 14:47:17.20	167.97	25.23	-23.0	-23.9	17.3	0.00e+00	0	43	102	1048576	6	3989
2026-01-07 14:47:18.21	168.01	25.39	-23.0	-23.9	17.4	0.00e+00	0	43	102	1048576	6	3992
2026-01-07 14:47:19.22	168.04	25.55	-22.9	-23.6	17.5	0.00e+00	0	43	102	1048576	6	3915
2026-01-07 14:47:20.23	168.08	25.72	-22.7	-23.3	17.7	0.00e+00	0	43	102	1048576	6	3824
2026-01-07 14:47:21.24	168.11	25.88	-22.9	-23.7	17.5	0.00e+00	0	43	102	1048576	6	3920
2026-01-07 14:47:22.25	168.15	26.05	-23.0	-23.8	17.5	0.00e+00	0	43	102	1048576	6	3952
2026-01-07 14:47:23.26	168.19	26.22	-22.9	-23.5	17.6	0.00e+00	0	43	102	1048576	6	3880
2026-01-07 14:47:24.27	168.23	26.39	-23.1	-24.0	17.4	0.00e+00	0	43	102	1048576	6	4006
2026-01-07 14:47:25.27	168.26	26.55	-22.8	-23.4	17.7	0.00e+00	0	43	102	1048576	6	3866
2026-01-07 14:47:26.28	168.30	26.72	-22.7	-23.2	17.8	0.00e+00	0	43	102	1048576	6	3815
2026-01-07 14:47:27.29	168.34	26.90	-22.3	-22.9	18.1	0.00e+00	0	43	102	1048576	5	3854
2026-01-07 14:47:28.30	168.38	27.07	-22.5	-23.2	18.0	0.00e+00	0	43	102	1048576	5	3913
2026-01-07 14:47:29.31	168.42	27.24	-22.6	-23.4	17.9	0.00e+00	0	43	102	1048576	5	3969
2026-01-07 14:47:30.31	168.46	27.41	-22.5	-23.3	18.0	0.00e+00	0	43	102	1048576	5	3946
2026-01-07 14:47:31.32	168.50	27.59	-22.4	-23.1	18.1	0.00e+00	0	44	102	1048576	5	3883
2026-01-07 14:47:32.33	168.54	27.77	-22.5	-23.3	18.0	0.00e+00	0	43	102	1048576	5	3940
2026-01-07 14:47:33.34	168.58	27.95	-22.6	-23.5	17.9	0.00e+00	0	43	102	1048576	5	3983
2026-01-07 14:47:34.34	168.62	28.12	-22.4	-23.1	18.1	0.00e+00	0	43	102	1048576	5	3895
2026-01-07 14:47:35.34	168.66	28.30	-22.4	-23.1	18.1	0.00e+00	0	44	102	1048576	5	3898
2026-01-07 14:47:36.35	168.70	28.48	-22.5	-23.2	18.1	0.00e+00	0	44	102	1048576	5	3923
2026-01-07 14:47:37.35	168.74	28.66	-22.6	-23.4	18.0	1.10e-06	0	44	102	1048576	5	3953
2026-01-07 14:47:38.36	168.79	28.85	-22.6	-23.5	17.9	0.00e+00	0	43	102	1048576	5	3980
2026-01-07 14:47:39.37	168.83	29.03	-22.6	-23.4	18.0	0.00e+00	0	44	102	1048576	5	3960
2026-01-07 14:47:40.38	168.88	29.22	-22.5	-23.3	18.0	0.00e+00	0	43	102	1048576	5	3947
2026-01-07 14:47:41.39	168.92	29.41	-22.5	-23.3	18.0	0.00e+00	0	43	102	1048576	5	3945
2026-01-07 14:47:42.39	168.96	29.59	-22.5	-23.2	18.1	0.00e+00	0	44	102	1048576	5	3909
2026-01-07 14:47:43.40	169.01	29.78	-22.5	-23.3	18.0	4.50e-06	0	44	102	1048576	5	3935
2026-01-07 14:47:44.41	169.06	29.98	-22.5	-23.3	18.0	0.00e+00	0	44	102	1048576	5	3953
2026-01-07 14:47:45.42	169.10	30.17	-22.7	-23.6	17.8	0.00e+00	0	43	102	1048576	5	4016
2026-01-07 14:47:46.42	169.15	30.36	-22.6	-23.5	17.9	1.10e-06	0	43	102	1048576	5	3975
2026-01-07 14:47:47.43	169.20	30.56	-22.7	-23.6	17.8	0.00e+00	0	44	102	1048576	5	4021
2026-01-07 14:47:48.44	169.24	30.75	-22.5	-23.2	18.0	0.00e+00	0	44	102	1048576	5	3923
2026-01-07 14:47:49.44	169.29	30.95	-22.6	-23.4	17.9	0.00e+00	0	44	102	1048576	5	3955
2026-01-07 14:47:50.44	169.34	31.14	-23.2	-23.6	18.3	0.00e+00	0	44	102	1048576	6	3785
2026-01-07 14:47:51.45	169.39	31.34	-23.2	-23.6	18.3	0.00e+00	0	43	102	1048576	6	3778
2026-01-07 14:47:52.46	169.44	31.55	-23.3	-23.8	18.2	0.00e+00	0	44	102	1048576	6	3819
2026-01-07 14:47:53.47	169.49	31.75	-23.3	-23.8	18.2	0.00e+00	0	44	102	1048576	6	3818
2026-01-07 14:47:54.47	169.54	31.95	-23.4	-23.5	18.1	0.00e+00	0	44	102	1048576	7	3661
2026-01-07 14:47:55.48	169.59	32.16	-23.2	-23.1	18.4	0.00e+00	0	44	102	1048576	7	3558
2026-01-07 14:47:56.49	169.65	32.37	-23.0	-22.7	18.5	0.00e+00	0	44	102	1048576	7	3478
2026-01-07 14:47:57.49	169.70	32.57	-23.0	-22.8	18.5	0.00e+00	0	44	102	1048576	7	3499
2026-01-07 14:47:58.49	169.75	32.78	-23.2	-23.5	18.4	0.00e+00	0	43	102	1048576	6	3764
2026-01-07 14:47:59.50	169.81	32.99	-23.2	-23.6	18.3	0.00e+00	0	44	102	1048576	6	3774
2026-01-07 14:48:00.48	169.86	33.20	-23.3	-23.8	18.2	0.00e+00	0	43	102	1048576	6	3829
2026-01-07 14:48:01.49	169.92	33.41	-23.2	-23.6	18.4	0.00e+00	0	44	102	1048576	6	3770
2026-01-07 14:48:02.50	169.97	33.63	-23.3	-23.8	18.2	0.00e+00	0	44	102	1048576	6	3814
2026-01-07 14:48:03.51	170.03	33.85	-23.4	-24.1	18.1	0.00e+00	0	43	102	1048576	6	3898
2026-01-07 14:48:04.52	170.09	34.07	-23.4	-24.0	18.1	0.00e+00	0	44	102	1048576	6	3879
2026-01-07 14:48:05.52	170.15	34.28	-23.3	-23.7	18.3	0.00e+00	0	44	102	1048576	6	3807
2026-01-07 14:48:06.52	170.20	34.50	-23.2	-23.7	18.3	0.00e+00	0	44	102	1048576	6	3801
2026-01-07 14:48:07.53	170.27	34.73	-23.5	-24.2	18.1	0.00e+00	0	44	102	1048576	6	3903
2026-01-07 14:48:08.54	170.33	34.95	-23.2	-23.1	18.4	0.00e+00	0	44	102	1048576	7	3568
2026-01-07 14:48:09.55	170.39	35.18	-23.2	-23.0	18.4	0.00e+00	0	44	102	1048576	7	3551
2026-01-07 14:48:10.55	170.45	35.40	-23.1	-22.9	18.5	0.00e+00	0	44	102	1048576	7	3515
2026-01-07 14:48:11.56	170.51	35.63	-23.1	-22.9	18.5	0.00e+00	0	44	102	1048576	7	3522
2026-01-07 14:48:12.56	170.58	35.86	-23.0	-22.7	18.5	0.00e+00	0	44	102	1048576	7	3487
2026-01-07 14:48:13.56	170.64	36.09	-23.0	-22.7	18.6	0.00e+00	0	44	102	1048576	7	3480
2026-01-07 14:48:14.57	170.71	36.33	-22.9	-22.9	18.7	0.00e+00	0	43	102	1048576	6	3628
2026-01-07 14:48:15.58	170.77	36.57	-23.1	-23.5	18.4	0.00e+00	0	43	102	1048576	6	3760
2026-01-07 14:48:16.59	170.84	36.80	-23.1	-23.4	18.5	0.00e+00	0	44	102	1048576	6	3725
2026-01-07 14:48:17.60	170.91	37.04	-23.2	-23.7	18.3	0.00e+00	0	43	102	1048576	6	3810
2026-01-07 14:48:18.60	170.98	37.28	-23.4	-24.0	18.2	0.00e+00	0	44	102	1048576	6	3874
2026-01-07 14:48:19.61	171.05	37.53	-23.4	-24.1	18.1	0.00e+00	0	44	102	1048576	6	3901
2026-01-07 14:48:20.60	171.12	37.77	-23.5	-23.8	18.0	0.00e+00	0	44	102	1048576	7	3729
2026-01-07 14:48:21.61	171.19	38.01	-23.5	-23.7	18.1	0.00e+00	0	44	102	1048576	7	3696
2026-01-07 14:48:22.61	171.27	38.26	-23.5	-23.8	18.0	0.00e+00	0	44	102	1048576	7	3721
2026-01-07 14:48:23.62	171.34	38.51	-23.4	-23.6	18.1	0.00e+00	0	44	102	1048576	7	3677
2026-01-07 14:48:24.62	171.42	38.76	-23.5	-23.9	18.0	0.00e+00	0	44	102	1048576	7	3735
2026-01-07 14:48:25.62	171.49	39.01	-23.4	-23.5	18.2	0.00e+00	0	44	102	1048576	7	3647
2026-01-07 14:48:26.63	171.57	39.27	-23.1	-23.0	18.5	0.00e+00	0	44	102	1048576	7	3535
2026-01-07 14:48:27.63	171.65	39.52	-23.2	-23.1	18.4	0.00e+00	0	44	102	1048576	7	3562
2026-01-07 14:48:28.63	171.73	39.78	-23.1	-22.9	18.5	0.00e+00	0	44	102	1048576	7	3517
2026-01-07 14:48:29.64	171.81	40.04	-23.4	-23.5	18.2	0.00e+00	0	44	102	1048576	7	3641
2026-01-07 14:48:30.65	171.90	40.30	-23.3	-23.4	18.3	0.00e+00	0	44	102	1048576	7	3628
2026-01-07 14:48:31.65	171.98	40.57	-23.5	-23.7	18.1	0.00e+00	0	44	102	1048576	7	3705
2026-01-07 14:48:32.65	172.06	40.83	-23.4	-23.6	18.2	0.00e+00	0	44	102	1048576	7	3678
2026-01-07 14:48:33.66	172.15	41.10	-23.4	-23.6	18.2	1.10e-06	0	44	102	1048576	7	3674
2026-01-07 14:48:34.67	172.24	41.37	-23.5	-23.7	18.1	0.00e+00	0	44	102	1048576	7	3698
2026-01-07 14:48:35.68	172.33	41.64	-23.6	-24.0	18.0	0.00e+00	0	43	102	1048576	7	3752
2026-01-07 14:48:36.68	172.42	41.92	-23.7	-24.1	18.0	0.00e+00	0	44	102	1048576	7	3793
2026-01-07 14:48:37.69	172.51	42.19	-23.4	-23.5	18.3	0.00e+00	0	44	102	1048576	7	3655
2026-01-07 14:48:38.70	172.61	42.47	-23.4	-23.5	18.3	0.00e+00	0	44	102	1048576	7	3643
2026-01-07 14:48:39.71	172.70	42.75	-23.4	-23.5	18.3	0.00e+00	0	44	102	1048576	7	3654
2026-01-07 14:48:40.70	172.80	43.03	-23.4	-23.5	18.3	0.00e+00	0	44	102	1048576	7	3649
2026-01-07 14:48:41.71	172.90	43.31	-23.6	-23.9	18.1	0.00e+00	0	44	102	1048576	7	3730
2026-01-07 14:48:42.72	173.00	43.60	-23.6	-23.9	18.1	0.00e+00	0	44	102	1048576	7	3728
2026-01-07 14:48:43.73	173.10	43.89	-23.5	-23.7	18.2	0.00e+00	0	44	102	1048576	7	3696
2026-01-07 14:48:44.73	173.21	44.18	-23.6	-24.0	18.0	0.00e+00	0	43	102	1048576	7	3769
2026-01-07 14:48:45.74	173.31	44.47	-23.7	-24.1	18.0	0.00e+00	0	44	102	1048576	7	3784
2026-01-07 14:48:46.74	173.42	44.76	-23.8	-24.5	17.8	0.00e+00	0	44	102	1048576	7	3867
2026-01-07 14:48:47.75	173.53	45.06	-24.0	-24.7	17.7	0.00e+00	0	44	102	1048576	7	3924
2026-01-07 14:48:48.76	173.64	45.36	-23.9	-24.6	17.8	0.00e+00	0	44	102	1048576	7	3897
2026-01-07 14:48:49.77	173.76	45.66	-23.8	-24.4	17.9	0.00e+00	0	44	102	1048576	7	3854
2026-01-07 14:48:50.77	173.87	45.96	-24.2	-24.6	17.5	0.00e+00	0	44	102	1048576	8	3802
2026-01-07 14:48:51.78	173.99	46.27	-24.2	-24.7	17.5	0.00e+00	0	44	102	1048576	8	3821
2026-01-07 14:48:52.79	174.11	46.58	-24.2	-24.8	17.4	0.00e+00	0	44	102	1048576	8	3829
2026-01-07 14:48:53.80	174.24	46.89	-24.5	-25.3	17.2	0.00e+00	0	44	102	1048576	8	3947
2026-01-07 14:48:54.80	174.36	47.20	-24.3	-24.4	17.4	0.00e+00	0	43	102	1048576	9	3637
2026-01-07 14:48:55.81	174.49	47.51	-24.3	-24.5	17.3	0.00e+00	0	44	102	1048576	9	3667
2026-01-07 14:48:56.81	174.62	47.82	-24.1	-24.1	17.6	0.00e+00	0	44	102	1048576	9	3576
2026-01-07 14:48:57.82	174.75	48.14	-24.6	-25.1	17.0	0.00e+00	0	44	102	1048576	9	3815
2026-01-07 14:48:58.83	174.89	48.46	-24.5	-24.9	17.1	0.00e+00	0	44	102	1048576	9	3766
2026-01-07 14:48:59.84	175.03	48.79	-24.4	-24.6	17.3	0.00e+00	0	44	102	1048576	9	3697
2026-01-07 14:49:00.84	175.17	49.11	-24.6	-25.0	17.1	0.00e+00	0	44	102	1048576	9	3788
2026-01-07 14:49:01.84	175.31	49.43	-25.0	-26.0	16.6	0.00e+00	0	44	102	1048576	9	4014
2026-01-07 14:49:02.85	175.46	49.76	-24.7	-25.3	16.9	0.00e+00	0	44	102	1048576	9	3846
2026-01-07 14:49:03.86	175.61	50.10	-24.6	-25.0	17.1	0.00e+00	0	44	102	1048576	9	3789
2026-01-07 14:49:04.87	175.77	50.43	-24.7	-25.3	16.9	0.00e+00	0	44	102	1048576	9	3843
2026-01-07 14:49:05.88	175.92	50.77	-24.6	-25.1	17.1	0.00e+00	0	44	102	1048576	9	3798
2026-01-07 14:49:06.88	176.08	51.10	-24.6	-25.0	17.1	0.00e+00	0	44	102	1048576	9	3775
2026-01-07 14:49:07.89	176.25	51.44	-24.7	-25.3	17.0	0.00e+00	0	44	102	1048576	9	3846
2026-01-07 14:49:08.89	176.41	51.78	-25.0	-25.9	16.7	0.00e+00	0	44	102	1048576	9	3995
2026-01-07 14:49:09.90	176.59	52.13	-25.0	-25.3	16.7	0.00e+00	0	44	102	1048576	10	3743
2026-01-07 14:49:10.91	176.76	52.48	-25.0	-25.4	16.7	0.00e+00	0	44	102	1048576	10	3779
2026-01-07 14:49:11.92	176.94	52.83	-25.1	-25.7	16.5	0.00e+00	0	44	102	1048576	10	3851
2026-01-07 14:49:12.93	177.13	53.18	-25.0	-25.4	16.7	0.00e+00	0	44	102	1048576	10	3759
2026-01-07 14:49:13.93	177.31	53.53	-24.8	-24.9	17.0	0.00e+00	0	44	102	1048576	10	3649
2026-01-07 14:49:14.93	177.51	53.88	-24.6	-24.6	17.1	0.00e+00	0	44	102	1048576	10	3591
2026-01-07 14:49:15.94	177.70	54.24	-24.7	-24.7	17.1	0.00e+00	0	44	102	1048576	10	3609
2026-01-07 14:49:16.95	177.91	54.60	-24.5	-24.3	17.2	0.00e+00	0	44	102	1048576	10	3534
2026-01-07 14:49:17.95	178.11	54.96	-25.0	-25.4	16.7	0.00e+00	0	44	102	1048576	10	3765
2026-01-07 14:49:18.96	178.33	55.32	-25.2	-25.8	16.5	0.00e+00	0	44	102	1048576	10	3874
2026-01-07 14:49:19.97	178.55	55.69	-25.1	-25.5	16.6	0.00e+00	0	44	102	1048576	10	3803
2026-01-07 14:49:20.97	178.77	56.06	-24.5	-24.4	17.2	0.00e+00	0	44	102	1048576	10	3547
2026-01-07 14:49:21.98	179.00	56.43	-24.4	-24.1	17.4	0.00e+00	0	44	102	1048576	10	3492
2026-01-07 14:49:22.98	179.23	56.80	-24.6	-25.1	16.7	0.00e+00	0	44	102	1048576	9	3800
2026-01-07 14:49:23.98	179.47	57.17	-24.6	-25.0	17.2	0.00e+00	0	44	102	1048576	9	3781
2026-01-07 14:49:24.98	179.72	57.54	-24.8	-25.4	16.9	0.00e+00	0	44	102	1048576	9	3879
2026-01-07 14:49:25.99	179.98	57.92	-24.9	-25.6	16.8	0.00e+00	0	44	102	1048576	9	3934
2026-01-07 14:49:26.99	180.24	58.30	-24.6	-25.1	17.1	0.00e+00	0	44	102	1048576	9	3811
2026-01-07 14:49:28.00	180.51	58.68	-24.8	-25.4	17.0	0.00e+00	0	44	102	1048576	9	3889
2026-01-07 14:49:29.00	180.79	59.06	-24.8	-25.1	16.9	0.00e+00	0	44	102	1048576	10	3692
2026-01-07 14:49:30.00	181.07	59.44	-24.7	-24.7	17.1	0.00e+00	0	44	102	1048576	10	3606
2026-01-07 14:49:31.00	181.36	59.83	-24.4	-24.1	17.4	0.00e+00	0	44	102	1048576	10	3482
2026-01-07 14:49:32.01	181.67	60.22	-24.2	-24.1	17.6	0.00e+00	0	44	102	1048576	9	3578
2026-01-07 14:49:33.02	181.98	60.61	-24.8	-25.4	16.8	0.00e+00	0	44	102	1048576	9	3878
2026-01-07 14:49:34.03	182.31	61.00	-24.9	-25.8	16.8	0.00e+00	0	44	102	1048576	9	3964
2026-01-07 14:49:35.04	182.64	61.40	-25.4	-26.2	16.3	0.00e+00	0	44	102	1048576	10	3957
2026-01-07 14:49:36.04	182.98	61.79	-25.2	-25.9	16.5	0.00e+00	0	44	102	1048576	10	3882
2026-01-07 14:49:37.04	183.33	62.18	-24.8	-25.0	17.0	0.00e+00	0	44	102	1048576	10	3666
2026-01-07 14:49:38.05	183.70	62.58	-24.9	-25.2	16.9	0.00e+00	0	44	102	1048576	10	3735
2026-01-07 14:49:39.06	184.08	62.98	-24.7	-24.7	17.1	0.00e+00	0	44	102	1048576	10	3605
2026-01-07 14:49:40.07	184.47	63.39	-24.5	-24.4	17.3	0.00e+00	0	43	102	1048576	10	3541
2026-01-07 14:49:41.07	184.87	63.78	-24.8	-24.9	17.0	0.00e+00	0	44	102	1048576	10	3664
2026-01-07 14:49:42.07	185.29	64.18	-24.1	-24.0	17.7	0.00e+00	0	44	102	1048576	9	3554
2026-01-07 14:49:43.08	185.72	64.59	-23.8	-23.9	18.1	0.00e+00	0	44	102	1048576	8	3640
2026-01-07 14:49:44.09	186.17	64.99	-24.0	-24.3	17.5	0.00e+00	0	44	102	1048576	8	3733
2026-01-07 14:49:45.10	186.64	65.40	-23.7	-23.6	18.2	0.00e+00	0	44	102	1048576	8	3562
2026-01-07 14:49:46.10	187.12	65.80	-23.7	-23.7	18.1	0.00e+00	0	44	102	1048576	8	3588
2026-01-07 14:49:47.11	187.62	66.21	-24.1	-24.5	17.7	0.00e+00	0	44	102	1048576	8	3768
2026-01-07 14:49:48.12	188.14	66.62	-23.8	-23.8	18.1	0.00e+00	0	44	102	1048576	8	3607
2026-01-07 14:49:49.12	188.68	67.02	-24.3	-25.0	17.5	0.00e+00	0	44	102	1048576	8	3884
2026-01-07 14:49:50.13	189.24	67.43	-23.8	-23.9	18.1	0.00e+00	0	44	102	1048576	8	3641
2026-01-07 14:49:51.14	189.82	67.84	-23.7	-23.7	18.2	0.00e+00	0	44	102	1048576	8	3580
2026-01-07 14:49:52.14	190.43	68.24	-23.6	-23.4	18.4	0.00e+00	0	44	102	1048576	8	3523
2026-01-07 14:49:53.15	191.06	68.65	-23.6	-23.5	18.3	0.00e+00	0	44	102	1048576	8	3535
2026-01-07 14:49:54.16	191.72	69.06	-23.4	-23.4	18.6	0.00e+00	0	44	102	1048576	7	3620
2026-01-07 14:49:55.17	192.41	69.46	-23.6	-23.9	18.3	0.00e+00	0	44	102	1048576	7	3743
2026-01-07 14:49:56.17	193.12	69.86	-23.8	-24.4	18.0	0.00e+00	0	44	102	1048576	7	3858
2026-01-07 14:49:57.18	193.86	70.27	-23.7	-24.2	18.2	0.00e+00	0	44	102	1048576	7	3799
2026-01-07 14:49:58.19	194.64	70.67	-23.4	-23.4	18.5	0.00e+00	0	43	102	1048576	7	3626
2026-01-07 14:49:59.20	195.46	71.07	-23.3	-23.4	18.6	0.00e+00	0	44	102	1048576	7	3624
2026-01-07 14:50:00.20	196.30	71.46	-23.4	-23.5	18.5	0.00e+00	0	44	102	1048576	7	3650
2026-01-07 14:50:01.20	197.19	71.85	-23.6	-23.9	18.3	0.00e+00	0	44	102	1048576	7	3734
2026-01-07 14:50:02.20	198.11	72.24	-23.4	-23.5	18.5	0.00e+00	0	44	102	1048576	7	3645
2026-01-07 14:50:03.21	199.09	72.63	-23.4	-23.5	18.6	0.00e+00	0	44	102	1048576	7	3634
2026-01-07 14:50:04.22	200.11	73.02	-23.5	-23.7	18.5	0.00e+00	0	44	102	1048576	7	3682
2026-01-07 14:50:05.23	201.19	73.40	-23.1	-22.9	18.8	0.00e+00	0	44	102	1048576	7	3515
2026-01-07 14:50:06.23	202.30	73.77	-23.0	-23.2	19.0	0.00e+00	0	44	102	1048576	6	3667
2026-01-07 14:50:07.24	203.48	74.14	-23.1	-23.4	18.8	0.00e+00	0	44	102	1048576	6	3732
2026-01-07 14:50:08.25	204.72	74.51	-23.0	-23.2	19.0	0.00e+00	0	44	102	1048576	6	3676
2026-01-07 14:50:09.26	206.02	74.87	-22.9	-22.9	19.2	0.00e+00	0	44	102	1048576	6	3607
2026-01-07 14:50:10.27	207.39	75.22	-22.8	-22.7	19.0	0.00e+00	0	44	102	1048576	6	3564
2026-01-07 14:50:11.27	208.81	75.56	-23.0	-23.3	18.9	2.20e-06	0	44	102	1048576	6	3689
2026-01-07 14:50:12.28	210.31	75.90	-22.8	-22.7	19.3	0.00e+00	0	44	102	1048576	6	3560
2026-01-07 14:50:13.29	211.89	76.23	-22.2	-22.0	19.8	0.00e+00	0	44	102	1048576	5	3517
2026-01-07 14:50:14.29	213.54	76.54	-21.9	-21.9	20.1	0.00e+00	0	44	102	1048576	4	3598
2026-01-07 14:50:15.29	215.26	76.85	-21.9	-21.8	20.1	0.00e+00	0	44	102	1048576	4	3577
2026-01-07 14:50:16.30	217.08	77.14	-22.0	-22.1	19.9	0.00e+00	0	44	102	1048576	4	3652
2026-01-07 14:50:17.30	218.97	77.43	-21.9	-22.0	20.1	0.00e+00	0	44	102	1048576	4	3613
2026-01-07 14:50:18.32	220.98	77.70	-21.9	-21.8	20.2	0.00e+00	0	44	102	1048576	4	3581
2026-01-07 14:50:19.32	223.05	77.95	-22.0	-22.1	20.0	0.00e+00	0	44	102	1048576	4	3647
2026-01-07 14:50:20.33	225.22	78.19	-21.9	-22.0	20.1	0.00e+00	0	44	102	1048576	4	3614
2026-01-07 14:50:21.34	227.49	78.41	-21.8	-21.7	20.2	0.00e+00	0	44	102	1048576	4	3545
2026-01-07 14:50:22.35	229.84	78.62	-21.8	-21.7	20.2	0.00e+00	0	44	102	1048576	4	3550
2026-01-07 14:50:23.35	232.25	78.80	-21.7	-21.5	20.3	0.00e+00	0	44	102	1048576	4	3515
2026-01-07 14:50:24.36	234.76	78.97	-21.6	-21.4	20.3	0.00e+00	0	44	102	1048576	4	3489
2026-01-07 14:50:25.37	237.34	79.11	-21.5	-21.2	20.4	0.00e+00	0	44	102	1048576	4	3452
2026-01-07 14:50:26.38	239.99	79.23	-21.4	-20.8	20.6	0.00e+00	0	44	102	1048576	4	3382
2026-01-07 14:50:27.38	242.67	79.33	-21.2	-20.9	20.8	0.00e+00	0	44	102	1048576	3	3481
2026-01-07 14:50:28.39	245.42	79.41	-21.0	-20.6	21.0	0.00e+00	0	44	102	1048576	3	3431
2026-01-07 14:50:29.40	248.20	79.46	-21.3	-21.2	20.7	0.00e+00	0	44	102	1048576	3	3550
2026-01-07 14:50:30.40	250.98	79.49	-21.6	-21.7	20.5	0.00e+00	0	44	102	1048576	3	3664
2026-01-07 14:50:31.40	253.77	79.49	-21.7	-22.0	20.4	0.00e+00	0	44	102	1048576	3	3727
2026-01-07 14:50:32.41	256.57	79.47	-21.8	-22.2	20.3	0.00e+00	0	44	102	1048576	3	3762
2026-01-07 14:50:33.41	259.34	79.42	-21.6	-21.8	20.5	0.00e+00	0	44	102	1048576	3	3683
2026-01-07 14:50:34.42	262.09	79.35	-21.9	-22.4	20.2	0.00e+00	0	44	102	1048576	3	3809
2026-01-07 14:50:35.42	264.78	79.26	-21.9	-22.4	20.2	0.00e+00	0	44	102	1048576	3	3808
2026-01-07 14:50:36.42	267.42	79.14	-21.9	-21.9	20.1	0.00e+00	0	44	102	1048576	4	3597
2026-01-07 14:50:37.43	270.02	79.00	-22.4	-23.0	19.6	0.00e+00	0	44	102	1048576	4	3835
2026-01-07 14:50:38.44	272.54	78.84	-22.2	-22.1	19.8	0.00e+00	0	44	102	1048576	5	3543
2026-01-07 14:50:39.45	274.99	78.66	-22.0	-21.7	20.1	0.00e+00	0	44	102	1048576	5	3447
2026-01-07 14:50:40.45	277.34	78.46	-22.3	-22.2	19.8	0.00e+00	0	44	102	1048576	5	3567
2026-01-07 14:50:41.46	279.62	78.24	-22.3	-22.2	19.7	0.00e+00	0	44	102	1048576	5	3552
2026-01-07 14:50:42.46	281.79	78.01	-22.3	-22.2	19.8	0.00e+00	0	44	102	1048576	5	3567
2026-01-07 14:50:43.47	283.90	77.76	-22.1	-21.7	20.0	0.00e+00	0	44	102	1048576	5	3464
2026-01-07 14:50:44.47	285.89	77.49	-22.0	-21.7	20.0	0.00e+00	0	44	102	1048576	5	3453
2026-01-07 14:50:45.48	287.82	77.21	-22.2	-22.0	19.9	0.00e+00	0	44	102	1048576	5	3516
2026-01-07 14:50:46.48	289.64	76.92	-22.2	-22.0	19.9	0.00e+00	0	44	102	1048576	5	3508
2026-01-07 14:50:47.49	291.40	76.62	-22.6	-22.8	19.5	0.00e+00	0	44	102	1048576	5	3701
2026-01-07 14:50:48.50	293.08	76.30	-22.5	-22.7	19.5	0.00e+00	0	44	102	1048576	5	3659
2026-01-07 14:50:49.50	294.66	75.98	-22.4	-22.5	19.7	0.00e+00	0	44	102	1048576	5	3617
2026-01-07 14:50:50.51	296.18	75.65	-22.4	-22.5	19.6	0.00e+00	0	44	102	1048576	5	3629
2026-01-07 14:50:51.52	297.63	75.30	-22.6	-22.9	19.4	0.00e+00	0	44	102	1048576	5	3705
2026-01-07 14:50:52.52	299.00	74.96	-23.0	-23.6	19.0	0.00e+00	0	44	102	1048576	5	3884
2026-01-07 14:50:53.53	300.31	74.60	-23.1	-23.3	18.9	0.00e+00	0	44	102	1048576	6	3702
2026-01-07 14:50:54.53	301.55	74.24	-23.4	-23.9	18.6	0.00e+00	0	44	102	1048576	6	3835
2026-01-07 14:50:55.54	302.75	73.87	-23.7	-24.2	18.2	0.00e+00	0	44	102	1048576	7	3798
2026-01-07 14:50:56.55	303.89	73.49	-23.8	-24.4	18.1	0.00e+00	0	44	102	1048576	7	3855
2026-01-07 14:50:57.55	304.96	73.12	-23.9	-24.5	17.9	0.00e+00	0	44	102	1048576	7	3858
2026-01-07 14:50:58.56	306.00	72.73	-23.7	-24.0	18.3	0.00e+00	0	44	102	1048576	7	3758
2026-01-07 14:50:59.57	306.98	72.35	-24.1	-24.9	17.9	0.00e+00	0	44	102	1048576	7	3955
2026-01-07 14:51:00.58	307.93	71.95	-24.3	-24.9	17.7	0.00e+00	0	44	102	1048576	8	3850
2026-01-07 14:51:01.58	308.82	71.56	-24.3	-24.8	17.7	0.00e+00	0	44	102	1048576	8	3831
2026-01-07 14:51:02.59	309.68	71.17	-24.2	-24.6	17.6	0.00e+00	0	44	102	1048576	8	3789
2026-01-07 14:51:03.59	310.50	70.77	-24.6	-25.4	17.3	0.00e+00	0	44	102	1048576	8	3979
2026-01-07 14:51:04.60	311.28	70.37	-24.5	-24.7	17.5	0.00e+00	0	44	102	1048576	9	3694
2026-01-07 14:51:05.61	312.04	69.97	-24.4	-24.6	17.5	0.00e+00	0	44	102	1048576	9	3674
2026-01-07 14:51:06.62	312.76	69.57	-24.9	-25.6	17.1	0.00e+00	0	44	102	1048576	9	3911
2026-01-07 14:51:07.63	313.46	69.16	-24.6	-25.0	17.3	0.00e+00	0	44	102	1048576	9	3772
2026-01-07 14:51:08.63	314.12	68.76	-24.0	-23.7	18.0	0.00e+00	0	44	102	1048576	9	3479
2026-01-07 14:51:09.64	314.75	68.35	-23.6	-23.3	18.4	0.00e+00	0	44	102	1048576	8	3503
2026-01-07 14:51:10.65	315.37	67.95	-23.6	-23.4	18.4	0.00e+00	0	44	102	1048576	8	3522
2026-01-07 14:51:11.65	315.95	67.54	-23.7	-23.6	18.3	0.00e+00	0	44	102	1048576	8	3568
2026-01-07 14:51:12.65	316.51	67.14	-23.6	-23.5	18.3	0.00e+00	0	44	102	1048576	8	3548
2026-01-07 14:51:13.66	317.06	66.73	-23.5	-23.2	18.5	0.00e+00	0	44	102	1048576	8	3480
2026-01-07 14:51:14.67	317.58	66.33	-23.4	-23.5	18.6	0.00e+00	0	44	102	1048576	7	3637
2026-01-07 14:51:15.67	318.08	65.92	-23.3	-23.3	18.6	0.00e+00	0	44	102	1048576	7	3597
2026-01-07 14:51:16.68	318.57	65.52	-23.1	-23.0	18.8	0.00e+00	0	44	102	1048576	7	3522
2026-01-07 14:51:17.68	319.04	65.12	-23.3	-23.3	18.6	0.00e+00	0	44	102	1048576	7	3588
2026-01-07 14:51:18.69	319.49	64.71	-23.4	-23.5	18.5	0.00e+00	0	44	102	1048576	7	3636
2026-01-07 14:51:19.70	319.93	64.31	-23.6	-23.9	18.4	0.00e+00	0	44	102	1048576	7	3723
2026-01-07 14:51:20.71	320.35	63.91	-23.8	-24.4	18.1	0.00e+00	0	44	102	1048576	7	3841
2026-01-07 14:51:21.72	320.76	63.50	-23.9	-24.6	17.9	0.00e+00	0	44	102	1048576	7	3895
2026-01-07 14:51:22.72	321.15	63.11	-23.9	-24.5	18.0	0.00e+00	0	44	102	1048576	7	3871
2026-01-07 14:51:23.73	321.54	62.71	-24.0	-24.7	17.9	0.00e+00	0	44	102	1048576	7	3904
2026-01-07 14:51:24.73	321.90	62.31	-24.3	-25.0	17.5	0.00e+00	0	44	102	1048576	8	3872
2026-01-07 14:51:25.74	322.26	61.91	-24.6	-25.1	17.2	0.00e+00	0	44	102	1048576	9	3794
2026-01-07 14:51:26.75	322.61	61.52	-24.7	-25.3	17.1	0.00e+00	0	44	102	1048576	9	3842
2026-01-07 14:51:27.75	322.94	61.13	-24.7	-25.3	17.1	0.00e+00	0	44	102	1048576	9	3853
2026-01-07 14:51:28.76	323.27	60.74	-24.8	-25.5	16.5	0.00e+00	0	44	102	1048576	9	3910
2026-01-07 14:51:29.76	323.58	60.35	-24.7	-25.1	17.1	0.00e+00	0	44	102	1048576	9	3804
2026-01-07 14:51:30.77	323.89	59.96	-24.6	-25.1	17.1	0.00e+00	0	44	102	1048576	9	3787
2026-01-07 14:51:31.78	324.18	59.57	-24.7	-25.2	17.1	0.00e+00	0	44	102	1048576	9	3819
2026-01-07 14:51:32.78	324.47	59.19	-24.7	-25.3	17.1	0.00e+00	0	44	102	1048576	9	3842
2026-01-07 14:51:33.79	324.75	58.81	-24.5	-24.9	17.2	0.00e+00	0	44	102	1048576	9	3749
2026-01-07 14:51:34.80	325.03	58.42	-24.5	-24.8	17.3	0.00e+00	0	44	102	1048576	9	3734
2026-01-07 14:51:35.81	325.29	58.04	-24.8	-25.4	16.8	0.00e+00	0	44	102	1048576	9	3863
2026-01-07 14:51:36.81	325.55	57.67	-24.9	-25.7	16.8	0.00e+00	0	44	102	1048576	9	3940
2026-01-07 14:51:37.82	325.80	57.29	-25.3	-26.0	16.4	0.00e+00	0	44	102	1048576	10	3913
2026-01-07 14:51:38.82	326.04	56.92	-25.3	-26.0	16.4	0.00e+00	0	44	102	1048576	10	3904
2026-01-07 14:51:39.83	326.28	56.55	-25.2	-25.9	16.5	0.00e+00	0	44	102	1048576	10	3878
2026-01-07 14:51:40.84	326.51	56.18	-25.2	-25.8	16.5	0.00e+00	0	44	102	1048576	10	3868
2026-01-07 14:51:41.84	326.73	55.81	-25.3	-26.1	16.4	0.00e+00	0	44	102	1048576	10	3927
2026-01-07 14:51:42.85	326.96	55.45	-25.2	-25.8	16.6	0.00e+00	0	44	102	1048576	10	3849
2026-01-07 14:51:43.85	327.17	55.09	-24.9	-25.1	16.9	0.00e+00	0	44	102	1048576	10	3685
2026-01-07 14:51:44.86	327.38	54.73	-24.9	-25.1	16.8	0.00e+00	0	44	102	1048576	10	3693
2026-01-07 14:51:45.86	327.58	54.37	-25.0	-25.4	16.7	0.00e+00	0	44	102	1048576	10	3767
2026-01-07 14:51:46.87	327.78	54.01	-25.0	-25.3	16.8	0.00e+00	0	44	102	1048576	10	3739
2026-01-07 14:51:47.88	327.97	53.66	-25.1	-25.7	16.6	0.00e+00	0	44	102	1048576	10	3833
2026-01-07 14:51:48.89	328.16	53.30	-25.1	-25.5	16.6	0.00e+00	0	44	102	1048576	10	3792
2026-01-07 14:51:49.89	328.35	52.95	-25.0	-25.5	16.6	0.00e+00	0	44	102	1048576	10	3784
2026-01-07 14:51:50.89	328.53	52.61	-25.1	-25.7	16.6	0.00e+00	0	44	102	1048576	10	3826
2026-01-07 14:51:51.90	328.70	52.26	-24.8	-25.0	16.9	0.00e+00	0	44	102	1048576	10	3674
2026-01-07 14:51:52.90	328.88	51.92	-24.6	-24.6	17.1	0.00e+00	0	44	102	1048576	10	3578
2026-01-07 14:51:53.91	329.05	51.58	-24.6	-24.4	17.2	0.00e+00	0	44	102	1048576	10	3552
2026-01-07 14:51:54.92	329.21	51.24	-24.7	-24.7	16.9	0.00e+00	0	44	102	1048576	10	3600
2026-01-07 14:51:55.92	329.37	50.90	-24.8	-25.0	16.9	0.00e+00	0	44	102	1048576	10	3689
2026-01-07 14:51:56.93	329.53	50.57	-25.0	-25.5	16.6	0.00e+00	0	44	102	1048576	10	3791
2026-01-07 14:51:57.94	329.69	50.23	-25.0	-25.3	16.6	0.00e+00	0	44	102	1048576	10	3755
2026-01-07 14:51:58.95	329.84	49.90	-25.0	-25.4	16.7	0.00e+00	0	44	102	1048576	10	3773
2026-01-07 14:51:59.96	329.99	49.57	-24.8	-24.9	16.9	0.00e+00	0	44	102	1048576	10	3670
2026-01-07 14:52:00.96	330.13	49.25	-24.7	-24.7	17.1	0.00e+00	0	44	102	1048576	10	3605
2026-01-07 14:52:01.97	330.27	48.92	-24.7	-24.7	17.0	0.00e+00	0	44	102	1048576	10	3605
2026-01-07 14:52:02.97	330.41	48.60	-24.9	-25.1	16.8	0.00e+00	0	44	102	1048576	10	3691
2026-01-07 14:52:03.99	330.55	48.28	-24.7	-24.7	17.0	0.00e+00	0	44	102	1048576	10	3608
2026-01-07 14:52:05.00	330.68	47.96	-24.7	-24.8	17.0	0.00e+00	0	44	102	1048576	10	3628
2026-01-07 14:52:06.00	330.81	47.65	-24.8	-24.9	16.9	0.00e+00	0	44	102	1048576	10	3643
2026-01-07 14:52:07.01	330.94	47.34	-24.5	-24.2	17.3	0.00e+00	0	44	102	1048576	10	3507
2026-01-07 14:52:08.02	331.07	47.02	-24.4	-24.6	17.3	0.00e+00	0	44	102	1048576	9	3692
2026-01-07 14:52:09.03	331.19	46.71	-24.4	-24.5	17.4	0.00e+00	0	44	102	1048576	9	3666
2026-01-07 14:52:10.04	331.32	46.41	-24.8	-25.5	16.9	0.00e+00	0	44	102	1048576	9	3897
2026-01-07 14:52:11.04	331.43	46.10	-24.3	-24.3	17.5	0.00e+00	0	44	102	1048576	9	3633
2026-01-07 14:52:12.05	331.55	45.80	-23.8	-23.9	17.9	0.00e+00	0	44	102	1048576	8	3635
2026-01-07 14:52:13.05	331.67	45.50	-23.5	-23.2	18.2	0.00e+00	0	44	102	1048576	8	3482
2026-01-07 14:52:14.06	331.78	45.20	-23.3	-23.3	18.4	0.00e+00	0	44	102	1048576	7	3594
2026-01-07 14:52:15.07	331.89	44.91	-23.2	-23.1	18.5	0.00e+00	0	44	102	1048576	7	3560
2026-01-07 14:52:16.07	332.00	44.62	-23.3	-23.4	18.2	0.00e+00	0	44	102	1048576	7	3624
2026-01-07 14:52:17.08	332.10	44.32	-23.5	-23.8	18.1	0.00e+00	0	44	102	1048576	7	3706
2026-01-07 14:52:18.08	332.21	44.04	-23.2	-23.2	18.5	0.00e+00	0	44	102	1048576	7	3571
2026-01-07 14:52:19.09	332.31	43.75	-23.4	-23.5	18.4	0.00e+00	0	44	102	1048576	7	3639
2026-01-07 14:52:20.09	332.41	43.46	-23.4	-23.4	18.4	0.00e+00	0	44	102	1048576	7	3625
2026-01-07 14:52:21.10	332.51	43.18	-23.4	-23.6	18.0	0.00e+00	0	44	102	1048576	7	3662
2026-01-07 14:52:22.11	332.61	42.90	-23.5	-23.8	18.2	0.00e+00	0	44	102	1048576	7	3708
2026-01-07 14:52:23.12	332.71	42.62	-23.4	-23.6	18.3	0.00e+00	0	44	102	1048576	7	3659
2026-01-07 14:52:24.12	332.80	42.34	-23.5	-23.8	18.1	0.00e+00	0	44	102	1048576	7	3718
2026-01-07 14:52:25.12	332.90	42.07	-23.4	-23.5	18.3	0.00e+00	0	44	102	1048576	7	3639
2026-01-07 14:52:26.13	332.99	41.79	-23.2	-23.1	18.5	0.00e+00	0	44	102	1048576	7	3565
2026-01-07 14:52:27.14	333.08	41.52	-23.2	-23.1	18.5	0.00e+00	0	44	102	1048576	7	3559
2026-01-07 14:52:28.14	333.17	41.25	-23.4	-23.6	18.3	0.00e+00	0	44	102	1048576	7	3664
2026-01-07 14:52:29.15	333.25	40.98	-23.6	-23.9	18.1	0.00e+00	0	44	102	1048576	7	3738
2026-01-07 14:52:30.16	333.34	40.72	-23.8	-24.4	17.9	0.00e+00	0	44	102	1048576	7	3846
2026-01-07 14:52:31.17	333.43	40.45	-23.9	-24.7	17.7	0.00e+00	0	44	102	1048576	7	3917
2026-01-07 14:52:32.18	333.51	40.19	-24.2	-24.8	17.4	0.00e+00	0	44	102	1048576	8	3843
2026-01-07 14:52:33.19	333.59	39.93	-24.5	-25.3	17.2	0.00e+00	0	44	102	1048576	8	3961
2026-01-07 14:52:34.19	333.67	39.67	-24.2	-24.7	17.4	0.00e+00	0	44	102	1048576	8	3811
2026-01-07 14:52:35.20	333.75	39.42	-23.8	-24.0	17.8	0.00e+00	0	44	102	1048576	8	3654
2026-01-07 14:52:36.21	333.83	39.16	-23.6	-23.5	17.7	0.00e+00	0	44	102	1048576	8	3558
2026-01-07 14:52:37.22	333.91	38.91	-23.5	-23.2	18.1	0.00e+00	0	44	102	1048576	8	3493
2026-01-07 14:52:38.22	333.98	38.66	-23.4	-23.6	18.2	0.00e+00	0	44	102	1048576	7	3663
2026-01-07 14:52:39.23	334.06	38.41	-23.1	-22.9	18.6	0.00e+00	0	44	102	1048576	7	3509
2026-01-07 14:52:40.24	334.13	38.16	-23.1	-22.9	18.6	0.00e+00	0	44	102	1048576	7	3516
2026-01-07 14:52:41.25	334.21	37.91	-23.2	-23.0	18.5	0.00e+00	0	44	102	1048576	7	3548
2026-01-07 14:52:42.25	334.28	37.67	-23.0	-22.6	18.7	0.00e+00	0	44	102	1048576	7	3452
2026-01-07 14:52:43.26	334.35	37.43	-22.9	-22.6	18.8	0.00e+00	0	44	102	1048576	7	3450
2026-01-07 14:52:44.26	334.42	37.19	-23.0	-22.7	18.6	0.00e+00	0	44	102	1048576	7	3472
2026-01-07 14:52:45.27	334.49	36.95	-23.0	-22.7	18.5	0.00e+00	0	44	102	1048576	7	3476
2026-01-07 14:52:46.28	334.56	36.71	-23.1	-22.9	18.5	0.00e+00	0	44	102	1048576	7	3524
2026-01-07 14:52:47.28	334.62	36.48	-23.2	-23.1	18.5	0.00e+00	0	44	102	1048576	7	3559
2026-01-07 14:52:48.29	334.69	36.24	-23.1	-23.0	18.5	0.00e+00	0	44	102	1048576	7	3549
2026-01-07 14:52:49.30	334.76	36.01	-23.2	-23.1	18.4	0.00e+00	0	44	102	1048576	7	3561
2026-01-07 14:52:50.30	334.82	35.78	-23.1	-23.0	18.4	0.00e+00	0	44	102	1048576	7	3548
2026-01-07 14:52:51.31	334.89	35.55	-23.2	-23.1	18.4	0.00e+00	0	44	102	1048576	7	3560
2026-01-07 14:52:52.32	334.95	35.33	-23.3	-23.2	18.4	0.00e+00	0	44	102	1048576	7	3586
2026-01-07 14:52:53.32	335.01	35.10	-23.3	-23.4	18.3	0.00e+00	0	44	102	1048576	7	3622
2026-01-07 14:52:54.32	335.07	34.88	-23.3	-23.4	18.3	0.00e+00	0	44	102	1048576	7	3625
2026-01-07 14:52:55.33	335.13	34.66	-23.2	-23.0	18.4	0.00e+00	0	44	102	1048576	7	3540
2026-01-07 14:52:56.34	335.19	34.43	-23.2	-23.0	18.5	0.00e+00	0	44	102	1048576	7	3540
2026-01-07 14:52:57.34	335.25	34.22	-23.2	-23.0	18.5	0.00e+00	0	44	102	1048576	7	3542
2026-01-07 14:52:58.35	335.31	34.00	-23.2	-23.1	18.5	0.00e+00	0	44	102	1048576	7	3556
2026-01-07 14:52:59.35	335.37	33.78	-23.4	-23.4	18.3	0.00e+00	0	44	102	1048576	7	3633
2026-01-07 14:53:00.36	335.42	33.57	-23.1	-23.0	18.5	0.00e+00	0	44	102	1048576	7	3537
2026-01-07 14:53:01.37	335.48	33.35	-23.0	-22.7	18.7	0.00e+00	0	44	102	1048576	7	3471
2026-01-07 14:53:02.37	335.53	33.14	-23.0	-22.6	18.7	0.00e+00	0	44	102	1048576	7	3455
2026-01-07 14:53:03.38	335.59	32.93	-23.0	-22.6	18.7	0.00e+00	0	44	102	1048576	7	3463
2026-01-07 14:53:04.39	335.64	32.72	-23.0	-22.8	18.6	0.00e+00	0	44	102	1048576	7	3499
2026-01-07 14:53:05.40	335.70	32.51	-23.1	-22.9	18.5	0.00e+00	0	44	102	1048576	7	3520
2026-01-07 14:53:06.40	335.75	32.31	-23.1	-22.9	18.5	0.00e+00	0	44	102	1048576	7	3512
2026-01-07 14:53:07.41	335.80	32.10	-23.1	-23.0	18.4	0.00e+00	0	44	102	1048576	7	3539
2026-01-07 14:53:08.41	335.85	31.90	-23.1	-22.9	18.5	0.00e+00	0	44	102	1048576	7	3525
2026-01-07 14:53:09.42	335.91	31.70	-23.2	-23.0	18.4	0.00e+00	0	44	102	1048576	7	3547
2026-01-07 14:53:10.43	335.96	31.50	-23.1	-23.0	18.5	0.00e+00	0	44	102	1048576	7	3533
2026-01-07 14:53:11.43	336.01	31.30	-23.2	-23.1	18.4	0.00e+00	0	44	102	1048576	7	3557
2026-01-07 14:53:12.43	336.05	31.10	-23.1	-22.9	18.5	0.00e+00	0	44	102	1048576	7	3513
2026-01-07 14:53:13.44	336.10	30.91	-23.1	-22.9	18.4	0.00e+00	0	44	102	1048576	7	3519
2026-01-07 14:53:14.45	336.15	30.71	-23.2	-23.1	18.4	0.00e+00	0	44	102	1048576	7	3570
2026-01-07 14:53:15.46	336.20	30.51	-23.3	-23.2	18.3	0.00e+00	0	44	102	1048576	7	3590
2026-01-07 14:53:16.47	336.25	30.32	-23.3	-23.3	18.3	0.00e+00	0	44	102	1048576	7	3600
2026-01-07 14:53:17.48	336.29	30.13	-23.4	-23.5	18.2	0.00e+00	0	44	102	1048576	7	3659
2026-01-07 14:53:18.49	336.34	29.94	-23.5	-23.7	18.1	0.00e+00	0	44	102	1048576	7	3683
2026-01-07 14:53:19.50	336.39	29.75	-23.5	-23.7	18.0	0.00e+00	0	44	102	1048576	7	3701
2026-01-07 14:53:20.50	336.43	29.56	-23.6	-24.0	17.9	0.00e+00	0	44	102	1048576	7	3765
2026-01-07 14:53:21.51	336.48	29.38	-23.7	-24.1	17.8	0.00e+00	0	44	102	1048576	7	3791
2026-01-07 14:53:22.52	336.52	29.19	-23.6	-24.1	17.8	0.00e+00	0	44	102	1048576	7	3783
2026-01-07 14:53:23.52	336.56	29.01	-23.7	-24.2	17.8	0.00e+00	0	44	102	1048576	7	3798
2026-01-07 14:53:24.53	336.61	28.82	-23.7	-24.1	17.8	0.00e+00	0	44	102	1048576	7	3799
2026-01-07 14:53:25.53	336.65	28.64	-23.7	-24.3	17.8	0.00e+00	0	44	102	1048576	7	3825
2026-01-07 14:53:26.54	336.69	28.46	-24.0	-24.8	17.5	0.00e+00	0	44	102	1048576	7	3955
2026-01-07 14:53:27.54	336.74	28.28	-24.1	-24.6	17.4	0.00e+00	0	44	102	1048576	8	3787
2026-01-07 14:53:28.55	336.78	28.10	-23.8	-23.9	17.7	0.00e+00	0	44	102	1048576	8	3645
2026-01-07 14:53:29.56	336.82	27.93	-23.6	-23.5	17.9	0.00e+00	0	44	102	1048576	8	3558
2026-01-07 14:53:30.56	336.86	27.75	-23.5	-23.2	18.1	0.00e+00	0	44	102	1048576	8	3492
2026-01-07 14:53:31.57	336.90	27.58	-23.5	-23.2	18.1	0.00e+00	0	44	102	1048576	8	3486
2026-01-07 14:53:32.58	336.94	27.40	-23.4	-23.2	18.1	0.00e+00	0	44	102	1048576	8	3480
2026-01-07 14:53:33.59	336.98	27.23	-23.4	-23.1	18.1	0.00e+00	0	44	102	1048576	8	3464
2026-01-07 14:53:34.60	337.02	27.06	-23.5	-23.2	18.1	0.00e+00	0	44	102	1048576	8	3486
2026-01-07 14:53:35.61	337.06	26.89	-23.4	-23.1	18.1	0.00e+00	0	44	102	1048576	8	3477
2026-01-07 14:53:36.62	337.10	26.71	-23.4	-23.5	18.0	0.00e+00	0	44	102	1048576	7	3661
2026-01-07 14:53:37.62	337.14	26.55	-23.4	-23.5	18.1	0.00e+00	0	44	102	1048576	7	3645
2026-01-07 14:53:38.62	337.17	26.38	-23.4	-23.5	18.1	0.00e+00	0	44	102	1048576	7	3657
2026-01-07 14:53:39.63	337.21	26.21	-23.4	-23.5	18.1	0.00e+00	0	44	102	1048576	7	3656
2026-01-07 14:53:40.64	337.25	26.05	-23.3	-23.3	18.1	0.00e+00	0	44	102	1048576	7	3611
2026-01-07 14:53:41.65	337.28	25.88	-23.3	-23.4	18.2	0.00e+00	0	44	102	1048576	7	3620
2026-01-07 14:53:42.65	337.32	25.72	-23.3	-23.4	18.2	0.00e+00	0	44	102	1048576	7	3618
2026-01-07 14:53:43.66	337.36	25.56	-23.3	-23.3	18.2	0.00e+00	0	44	102	1048576	7	3610
2026-01-07 14:53:44.66	337.39	25.40	-23.3	-23.4	18.2	0.00e+00	0	44	102	1048576	7	3624
2026-01-07 14:53:45.67	337.43	25.24	-23.3	-23.4	18.2	0.00e+00	0	44	102	1048576	7	3619
2026-01-07 14:53:46.68	337.46	25.08	-23.4	-23.6	18.1	0.00e+00	0	44	102	1048576	7	3671
2026-01-07 14:53:47.69	337.50	24.92	-23.4	-23.6	18.0	0.00e+00	0	44	102	1048576	7	3668
2026-01-07 14:53:48.69	337.53	24.76	-23.4	-23.4	18.1	0.00e+00	0	44	102	1048576	7	3636
2026-01-07 14:53:49.70	337.57	24.60	-23.4	-23.5	18.0	0.00e+00	0	44	102	1048576	7	3656
2026-01-07 14:53:50.70	337.60	24.45	-23.4	-23.5	18.1	0.00e+00	0	44	102	1048576	7	3642
2026-01-07 14:53:51.71	337.63	24.29	-23.4	-23.5	18.1	0.00e+00	0	44	102	1048576	7	3656
2026-01-07 14:53:52.72	337.67	24.14	-23.4	-23.5	18.1	0.00e+00	0	44	102	1048576	7	3654
2026-01-07 14:53:53.72	337.70	23.99	-23.4	-23.5	18.1	0.00e+00	0	44	102	1048576	7	3644
2026-01-07 14:53:54.72	337.73	23.84	-23.4	-23.6	18.0	0.00e+00	0	44	102	1048576	7	3670
2026-01-07 14:53:55.73	337.77	23.68	-23.4	-23.6	18.0	0.00e+00	0	44	102	1048576	7	3665
2026-01-07 14:53:56.74	337.80	23.53	-23.4	-23.6	18.0	0.00e+00	0	44	102	1048576	7	3677
2026-01-07 14:53:57.74	337.83	23.39	-23.6	-24.0	17.8	0.00e+00	0	44	102	1048576	7	3753
2026-01-07 14:53:58.74	337.86	23.24	-23.6	-23.9	17.9	0.00e+00	0	44	102	1048576	7	3739
2026-01-07 14:53:59.75	337.89	23.09	-23.5	-23.7	17.9	0.00e+00	0	44	102	1048576	7	3704
2026-01-07 14:54:00.76	337.92	22.94	-23.6	-24.0	17.8	0.00e+00	0	44	102	1048576	7	3754
2026-01-07 14:54:01.76	337.96	22.80	-23.6	-24.0	17.8	0.00e+00	0	44	102	1048576	7	3769
2026-01-07 14:54:02.77	337.99	22.65	-23.7	-24.1	17.7	0.00e+00	0	44	102	1048576	7	3785
2026-01-07 14:54:03.78	338.02	22.51	-23.6	-24.1	17.7	0.00e+00	0	44	102	1048576	7	3776
2026-01-07 14:54:04.79	338.05	22.36	-23.7	-24.1	17.7	0.00e+00	0	44	102	1048576	7	3796
2026-01-07 14:54:05.80	338.08	22.22	-23.8	-24.4	17.5	0.00e+00	0	44	102	1048576	7	3847
2026-01-07 14:54:06.81	338.11	22.08	-23.8	-24.5	17.5	0.00e+00	0	44	102	1048576	7	3874
2026-01-07 14:54:07.82	338.14	21.93	-23.9	-24.7	17.4	0.00e+00	0	44	102	1048576	7	3923
2026-01-07 14:54:08.82	338.17	21.79	-24.0	-24.7	17.4	0.00e+00	0	44	102	1048576	7	3932
2026-01-07 14:54:09.83	338.19	21.65	-24.1	-25.0	17.3	0.00e+00	0	44	102	1048576	7	3993
2026-01-07 14:54:10.84	338.22	21.52	-24.1	-24.6	17.2	0.00e+00	0	44	102	1048576	8	3787
2026-01-07 14:54:11.85	338.25	21.38	-24.1	-24.6	17.2	0.00e+00	0	44	102	1048576	8	3800
2026-01-07 14:54:12.85	338.28	21.24	-24.2	-24.7	17.2	0.00e+00	0	44	102	1048576	8	3810
2026-01-07 14:54:13.86	338.31	21.10	-24.2	-24.8	17.1	0.00e+00	0	44	102	1048576	8	3848
2026-01-07 14:54:14.86	338.34	20.97	-24.3	-24.9	17.0	0.00e+00	0	44	102	1048576	8	3873
2026-01-07 14:54:15.87	338.36	20.83	-24.3	-25.0	17.0	0.00e+00	0	44	102	1048576	8	3894
2026-01-07 14:54:16.88	338.39	20.70	-24.2	-24.7	17.2	0.00e+00	0	44	102	1048576	8	3813
2026-01-07 14:54:17.88	338.42	20.56	-24.0	-24.2	17.4	0.00e+00	0	44	102	1048576	8	3717
2026-01-07 14:54:18.89	338.45	20.43	-23.9	-24.2	17.4	0.00e+00	0	44	102	1048576	8	3701
2026-01-07 14:54:19.90	338.47	20.30	-24.0	-24.2	17.4	0.00e+00	0	44	102	1048576	8	3712
2026-01-07 14:54:20.90	338.50	20.17	-23.9	-24.2	17.4	0.00e+00	0	44	102	1048576	8	3707
2026-01-07 14:54:21.91	338.53	20.04	-24.1	-24.4	17.2	0.00e+00	0	44	102	1048576	8	3764
2026-01-07 14:54:22.91	338.55	19.91	-24.1	-24.5	17.2	0.00e+00	0	44	102	1048576	8	3774
2026-01-07 14:54:23.91	338.58	19.78	-24.1	-24.6	17.1	0.00e+00	0	44	102	1048576	8	3799
2026-01-07 14:54:24.92	338.61	19.65	-24.2	-24.7	17.1	0.00e+00	0	44	102	1048576	8	3813
2026-01-07 14:54:25.92	338.63	19.52	-24.3	-25.0	16.9	0.00e+00	0	44	102	1048576	8	3896
2026-01-07 14:54:26.93	338.66	19.39	-24.2	-24.9	17.0	0.00e+00	0	44	102	1048576	8	3863
2026-01-07 14:54:27.94	338.68	19.26	-24.2	-24.8	17.0	0.00e+00	0	44	102	1048576	8	3851
2026-01-07 14:54:28.95	338.71	19.14	-24.3	-25.0	16.9	0.00e+00	0	44	102	1048576	8	3903
2026-01-07 14:54:29.95	338.73	19.01	-24.3	-24.9	17.0	0.00e+00	0	44	102	1048576	8	3862
2026-01-07 14:54:30.96	338.76	18.89	-24.4	-25.1	16.8	0.00e+00	0	44	102	1048576	8	3914
2026-01-07 14:54:31.97	338.78	18.76	-24.3	-24.9	16.9	0.00e+00	0	44	102	1048576	8	3873
2026-01-07 14:54:32.97	338.81	18.64	-24.2	-24.7	17.1	0.00e+00	0	44	102	1048576	8	3827
2026-01-07 14:54:33.98	338.83	18.52	-24.2	-24.8	17.0	0.00e+00	0	44	102	1048576	8	3834
2026-01-07 14:54:34.98	338.86	18.39	-24.2	-24.7	17.1	0.00e+00	0	44	102	1048576	8	3818
2026-01-07 14:54:35.99	338.88	18.27	-24.2	-24.8	17.0	0.00e+00	0	44	102	1048576	8	3853
2026-01-07 14:54:37.00	338.90	18.15	-24.4	-25.1	16.9	0.00e+00	0	44	102	1048576	8	3907
2026-01-07 14:54:38.00	338.93	18.03	-24.6	-25.5	16.6	0.00e+00	0	44	102	1048576	8	4009
2026-01-07 14:54:39.00	338.95	17.91	-24.5	-25.3	16.7	0.00e+00	0	44	102	1048576	8	3971
2026-01-07 14:54:40.01	338.97	17.79	-24.5	-25.4	16.7	0.00e+00	0	44	102	1048576	8	3992
2026-01-07 14:54:41.02	339.00	17.67	-24.7	-25.3	16.5	0.00e+00	0	44	102	1048576	9	3855
2026-01-07 14:54:42.03	339.02	17.55	-25.0	-25.9	16.2	0.00e+00	0	44	102	1048576	9	3993
2026-01-07 14:54:43.04	339.04	17.43	-24.7	-25.4	16.4	0.00e+00	0	44	102	1048576	9	3880
2026-01-07 14:54:44.04	339.07	17.32	-24.9	-25.7	16.3	0.00e+00	0	44	102	1048576	9	3954
2026-01-07 14:54:45.05	339.09	17.20	-24.8	-25.5	16.4	0.00e+00	0	44	102	1048576	9	3913
2026-01-07 14:54:46.06	339.11	17.08	-24.7	-25.3	16.5	0.00e+00	0	44	102	1048576	9	3862
2026-01-07 14:54:47.06	339.14	16.97	-24.6	-25.2	16.5	0.00e+00	0	44	102	1048576	9	3829
2026-01-07 14:54:48.07	339.16	16.85	-24.7	-25.4	16.4	0.00e+00	0	44	102	1048576	9	3886
2026-01-07 14:54:49.07	339.18	16.74	-24.7	-25.3	16.5	0.00e+00	0	44	102	1048576	9	3869
2026-01-07 14:54:50.08	339.20	16.62	-25.0	-25.9	16.1	0.00e+00	0	44	102	1048576	9	4001
2026-01-07 14:54:51.09	339.22	16.51	-24.8	-25.5	16.4	0.00e+00	0	44	102	1048576	9	3902
2026-01-07 14:54:52.09	339.25	16.40	-24.7	-25.3	16.5	0.00e+00	0	44	102	1048576	9	3853
2026-01-07 14:54:53.09	339.27	16.29	-24.7	-25.3	16.5	0.00e+00	0	44	102	1048576	9	3849
2026-01-07 14:54:54.10	339.29	16.17	-24.8	-25.5	16.4	0.00e+00	0	44	102	1048576	9	3899
2026-01-07 14:54:55.11	339.31	16.06	-24.7	-25.4	16.4	0.00e+00	0	44	102	1048576	9	3875
2026-01-07 14:54:56.11	339.33	15.95	-24.8	-25.4	16.4	0.00e+00	0	44	102	1048576	9	3890
2026-01-07 14:54:57.12	339.35	15.84	-24.8	-25.6	16.3	0.00e+00	0	44	102	1048576	9	3932
2026-01-07 14:54:58.13	339.37	15.73	-24.8	-25.6	16.2	0.00e+00	0	44	102	1048576	9	3929
2026-01-07 14:54:59.14	339.39	15.62	-24.9	-25.7	16.2	0.00e+00	0	44	102	1048576	9	3951
2026-01-07 14:55:00.14	339.42	15.51	-25.0	-25.9	16.1	1.10e-06	0	44	102	1048576	9	4015
2026-01-07 14:55:01.15	339.44	15.40	-25.0	-25.9	16.1	0.00e+00	0	44	102	1048576	9	3998
2026-01-07 14:55:02.15	339.46	15.30	-25.1	-26.1	15.9	0.00e+00	0	44	102	1048576	9	4061
2026-01-07 14:55:03.15	339.48	15.19	-25.2	-26.0	15.8	0.00e+00	0	44	102	1048576	10	3919
2026-01-07 14:55:04.16	339.50	15.08	-25.2	-25.9	15.9	0.00e+00	0	44	102	1048576	10	3887
2026-01-07 14:55:05.17	339.52	14.97	-25.3	-26.1	15.7	0.00e+00	0	44	102	1048576	10	3947
2026-01-07 14:55:06.18	339.54	14.87	-25.3	-26.2	15.7	0.00e+00	0	44	102	1048576	10	3970
2026-01-07 14:55:07.19	339.56	14.76	-25.3	-26.1	15.7	0.00e+00	0	44	102	1048576	10	3958
2026-01-07 14:55:08.19	339.58	14.66	-25.3	-26.1	15.7	0.00e+00	0	44	102	1048576	10	3956
2026-01-07 14:55:09.20	339.60	14.55	-25.3	-26.1	15.7	0.00e+00	0	44	102	1048576	10	3951
2026-01-07 14:55:10.21	339.62	14.45	-25.3	-26.1	15.7	0.00e+00	0	44	102	1048576	10	3954
2026-01-07 14:55:11.21	339.64	14.34	-25.4	-26.3	15.6	0.00e+00	0	44	102	1048576	10	4002
2026-01-07 14:55:12.22	339.66	14.24	-25.4	-26.4	15.5	0.00e+00	0	44	102	1048576	10	4021
2026-01-07 14:55:13.23	339.68	14.14	-25.6	-26.3	15.4	0.00e+00	0	44	102	1048576	11	3884
2026-01-07 14:55:14.24	339.69	14.03	-25.6	-26.2	15.4	0.00e+00	0	44	102	1048576	11	3869
2026-01-07 14:55:15.24	339.71	13.93	-25.7	-26.5	15.2	0.00e+00	0	44	102	1048576	11	3950
2026-01-07 14:55:16.25	339.73	13.83	-25.6	-26.3	15.3	0.00e+00	0	44	102	1048576	11	3902
2026-01-07 14:55:17.25	339.75	13.73	-25.7	-26.6	15.2	0.00e+00	0	44	102	1048576	11	3962
2026-01-07 14:55:18.26	339.77	13.63	-25.7	-26.4	15.2	0.00e+00	0	44	102	1048576	11	3933
2026-01-07 14:55:19.27	339.79	13.53	-25.7	-26.4	15.2	1.10e-06	0	44	102	1048576	11	3931
2026-01-07 14:55:20.28	339.81	13.43	-25.9	-26.9	15.0	0.00e+00	0	44	102	1048576	11	4033
2026-01-07 14:55:21.28	339.83	13.33	-26.0	-27.1	14.9	0.00e+00	0	44	102	1048576	11	4099
2026-01-07 14:55:22.29	339.85	13.23	-25.9	-27.0	14.9	0.00e+00	0	44	102	1048576	11	4057
2026-01-07 14:55:23.29	339.86	13.13	-26.1	-27.3	14.7	1.10e-06	0	44	102	1048576	11	4149
2026-01-07 14:55:24.29	339.88	13.03	-26.0	-27.1	14.8	0.00e+00	0	44	102	1048576	11	4106
2026-01-07 14:55:25.30	339.90	12.93	-25.9	-27.0	14.9	0.00e+00	0	44	102	1048576	11	4062
2026-01-07 14:55:26.30	339.92	12.84	-25.9	-27.0	14.9	0.00e+00	0	44	102	1048576	11	4065
2026-01-07 14:55:27.30	339.94	12.74	-26.0	-27.1	14.8	0.00e+00	0	44	102	1048576	11	4103
2026-01-07 14:55:28.31	339.95	12.64	-26.0	-26.8	14.7	0.00e+00	0	44	102	1048576	12	3915
2026-01-07 14:55:29.32	339.97	12.55	-25.9	-26.4	14.9	0.00e+00	0	44	102	1048576	12	3821
2026-01-07 14:55:30.33	339.99	12.45	-25.7	-26.1	15.0	0.00e+00	0	44	102	1048576	12	3750
2026-01-07 14:55:31.34	340.01	12.35	-25.8	-26.2	14.9	0.00e+00	0	44	102	1048576	12	3776
2026-01-07 14:55:32.34	340.02	12.26	-25.8	-26.3	14.9	0.00e+00	0	44	102	1048576	12	3803
2026-01-07 14:55:33.35	340.04	12.16	-25.9	-26.5	14.8	0.00e+00	0	44	102	1048576	12	3862
2026-01-07 14:55:34.36	340.06	12.07	-26.0	-26.6	14.7	0.00e+00	0	44	102	1048576	12	3872
2026-01-07 14:55:35.36	340.08	11.98	-26.0	-26.6	14.7	0.00e+00	0	44	102	1048576	12	3881
2026-01-07 14:55:36.37	340.09	11.88	-26.0	-26.7	14.7	1.10e-06	0	44	102	1048576	12	3897
2026-01-07 14:55:37.37	340.11	11.79	-26.1	-26.9	14.6	0.00e+00	0	44	102	1048576	12	3935
2026-01-07 14:55:38.38	340.13	11.70	-26.1	-27.0	14.5	0.00e+00	0	44	102	1048576	12	3969
2026-01-07 14:55:39.38	340.14	11.60	-26.2	-27.0	14.5	1.10e-06	0	44	102	1048576	12	3978
2026-01-07 14:55:40.39	340.16	11.51	-26.2	-27.1	14.4	0.00e+00	0	44	102	1048576	12	3999
2026-01-07 14:55:41.39	340.18	11.42	-26.3	-27.3	14.3	1.10e-06	0	44	102	1048576	12	4040
2026-01-07 14:55:42.39	340.19	11.33	-26.2	-27.1	14.4	0.00e+00	0	44	102	1048576	12	3996
2026-01-07 14:55:43.40	340.21	11.24	-26.2	-27.2	14.3	0.00e+00	0	44	102	1048576	12	4019
2026-01-07 14:55:44.41	340.23	11.14	-26.2	-27.2	14.4	0.00e+00	0	44	102	1048576	12	4013
2026-01-07 14:55:45.42	340.24	11.05	-26.4	-27.5	14.2	1.10e-06	0	44	102	1048576	12	4093
2026-01-07 14:55:46.42	340.26	10.96	-26.4	-27.6	14.1	0.00e+00	0	44	102	1048576	12	4127
2026-01-07 14:55:47.43	340.28	10.87	-26.5	-27.8	14.0	4.50e-06	0	44	102	1048576	12	4190
2026-01-07 14:55:48.44	340.29	10.78	-26.4	-27.6	14.1	2.20e-06	0	44	102	1048576	12	4126
2026-01-07 14:55:49.45	340.31	10.69	-26.6	-27.6	13.8	2.20e-06	0	44	102	1048576	13	4022
2026-01-07 14:55:50.46	340.33	10.60	-26.8	-28.1	13.5	6.80e-06	0	44	102	1048576	13	4148
2026-01-07 14:55:51.46	340.34	10.52	-27.0	-28.4	13.3	1.83e-05	0	44	102	1048576	13	4234
2026-01-07 14:55:52.47	340.36	10.43	-27.0	-28.4	13.3	1.25e-05	0	44	102	1048576	13	4247
2026-01-07 14:55:53.48	340.37	10.34	-27.3	-28.7	12.9	4.69e-05	0	44	102	1048576	14	4204
2026-01-07 14:55:54.49	340.39	10.25	-27.4	-28.7	12.8	5.26e-05	0	44	102	1048576	14	4226
2026-01-07 14:55:55.50	340.41	10.16	-27.4	-28.7	12.8	4.92e-05	0	44	102	1048576	14	4225
2026-01-07 14:55:56.50	340.42	10.08	-27.4	-29.0	12.7	5.83e-05	0	44	102	1048576	14	4295
2026-01-07 14:55:57.51	340.44	9.99	-27.6	-28.8	12.5	9.72e-05	0	44	102	1048576	15	4138
2026-01-07 14:55:58.52	340.45	9.90	-27.5	-28.6	12.6	8.81e-05	0	44	102	1048576	15	4073
2026-01-07 14:55:59.52	340.47	9.82	-27.5	-28.6	12.6	6.40e-05	0	44	102	1048576	15	4095
2026-01-07 14:56:00.53	340.48	9.73	-27.5	-28.6	12.6	9.26e-05	0	44	102	1048576	15	4096
2026-01-07 14:56:01.53	340.50	9.64	-27.6	-28.8	12.5	8.12e-05	0	44	102	1048576	15	4135
2026-01-07 14:56:02.54	340.51	9.56	-27.8	-29.2	12.2	1.67e-04	0	44	102	1048576	15	4255
2026-01-07 14:56:03.55	340.53	9.47	-27.4	-28.4	12.7	7.78e-05	0	44	102	1048576	15	4025
2026-01-07 14:56:04.56	340.55	9.39	-27.1	-27.6	13.1	2.51e-05	0	44	102	1048576	15	3837
2026-01-07 14:56:05.56	340.56	9.30	-26.8	-27.5	13.5	1.02e-05	0	44	102	1048576	14	3913
