passes_logs/2026/01/07/R2M6_AANII_01/R2M6_AANII_01__20260107_012519_FENGYUN_3D_rec.log

#Pass ID: 20260107_012519_FENGYUN 3D
#Satellite: FENGYUN 3D
#Configuration: FENGYUN 3D
#almurnet v.1.7.20240730
#Start time: 2026-01-07 01:25:20

#Version: 2.2.20231116
#Station: R2M6_AANII_01
#Location: 30.233357 lon 59.946436 lat
#TLE: 1 43010U 17072A   26006.26440730  .00000376  00000+0  19957-3 0  9994
#TLE: 2 43010  98.9925 337.9455 0002045 123.9195 236.2175 14.19693586422016

#Time	Az	El	Level	Level2	SNR	BER	BlckErr	Temp	State	Recorded	gain1	gain2
2026-01-07 01:25:20.39	24.87	7.07	-28.0	-30.9	5.6	7.73e-01	0	41	0	0	15	5011
2026-01-07 01:25:21.38	24.93	7.14	-29.1	-32.2	5.4	7.86e-01	0	41	104	0	18	5123
2026-01-07 01:25:22.39	24.99	7.21	-29.0	-32.3	10.4	6.34e-03	0	41	0	0	17	5280
2026-01-07 01:25:23.39	25.05	7.28	-29.1	-32.2	10.3	8.69e-03	0	41	102	1048576	18	5108
2026-01-07 01:25:24.39	25.11	7.35	-28.8	-31.7	10.9	4.36e-03	0	42	102	1048576	17	5034
2026-01-07 01:25:25.40	25.17	7.43	-28.5	-31.0	11.3	2.53e-03	0	41	102	1048576	17	4805
2026-01-07 01:25:26.41	25.23	7.50	-28.0	-30.7	12.0	7.36e-04	0	41	102	1048576	15	4930
2026-01-07 01:25:27.41	25.30	7.57	-27.8	-30.4	12.1	1.26e-03	0	41	102	1048576	15	4842
2026-01-07 01:25:28.41	25.36	7.65	-28.2	-30.8	11.8	5.45e-04	0	42	102	1048576	16	4844
2026-01-07 01:25:29.42	25.42	7.72	-28.3	-31.1	11.6	2.17e-03	0	42	102	1048576	16	4937
2026-01-07 01:25:30.43	25.48	7.79	-28.1	-30.6	11.9	1.37e-03	0	41	102	1048576	16	4776
2026-01-07 01:25:31.43	25.54	7.87	-27.8	-29.7	12.5	3.07e-04	0	41	102	1048576	16	4499
2026-01-07 01:25:32.44	25.61	7.94	-27.4	-29.8	12.9	1.29e-03	0	42	102	1048576	14	4747
2026-01-07 01:25:33.45	25.67	8.02	-27.3	-29.7	13.0	8.00e-04	0	42	102	1048576	14	4711
2026-01-07 01:25:34.45	25.74	8.09	-27.3	-29.5	13.0	5.72e-04	0	42	102	1048576	14	4663
2026-01-07 01:25:35.46	25.80	8.17	-27.0	-29.0	13.4	3.52e-04	0	42	102	1048576	14	4497
2026-01-07 01:25:36.46	25.86	8.24	-27.5	-30.0	12.8	5.72e-04	0	42	102	1048576	14	4814
2026-01-07 01:25:37.47	25.93	8.31	-27.6	-29.8	12.6	8.26e-04	0	42	102	1048576	15	4643
2026-01-07 01:25:38.47	25.99	8.39	-27.7	-30.0	12.5	1.03e-03	0	42	102	1048576	15	4703
2026-01-07 01:25:39.48	26.06	8.47	-27.7	-30.0	12.5	5.70e-04	0	42	102	1048576	15	4700
2026-01-07 01:25:40.49	26.12	8.54	-27.2	-29.4	13.1	6.34e-04	0	42	102	1048576	14	4632
2026-01-07 01:25:41.49	26.19	8.62	-27.0	-28.9	13.5	7.32e-04	0	42	102	1048576	14	4476
2026-01-07 01:25:42.50	26.26	8.69	-26.8	-28.5	13.7	1.71e-05	0	42	102	1048576	14	4363
2026-01-07 01:25:43.51	26.32	8.77	-26.6	-28.5	14.0	6.76e-04	0	42	102	1048576	13	4460
2026-01-07 01:25:44.52	26.39	8.85	-26.5	-28.3	14.1	9.65e-04	0	42	102	1048576	13	4419
2026-01-07 01:25:45.52	26.46	8.92	-26.5	-28.3	14.1	1.65e-04	0	42	102	1048576	13	4411
2026-01-07 01:25:46.53	26.52	9.00	-26.6	-28.4	14.1	8.35e-04	0	42	102	1048576	13	4434
2026-01-07 01:25:47.54	26.59	9.08	-26.7	-28.6	14.0	8.89e-04	0	42	102	1048576	13	4491
2026-01-07 01:25:48.54	26.66	9.15	-26.5	-28.3	14.1	1.56e-04	0	42	102	1048576	13	4423
2026-01-07 01:25:49.55	26.73	9.23	-26.4	-28.4	14.4	9.91e-04	0	42	102	1048576	12	4561
2026-01-07 01:25:50.56	26.80	9.31	-26.4	-28.6	14.3	1.12e-03	0	42	102	1048576	12	4609
2026-01-07 01:25:51.56	26.87	9.39	-26.3	-28.3	14.4	3.40e-06	0	42	102	1048576	12	4541
2026-01-07 01:25:52.57	26.94	9.47	-26.2	-28.1	14.5	9.61e-04	0	42	102	1048576	12	4483
2026-01-07 01:25:53.57	27.01	9.54	-26.1	-27.9	14.7	0.00e+00	0	42	102	1048576	12	4405
2026-01-07 01:25:54.58	27.08	9.62	-26.2	-27.9	14.7	0.00e+00	0	42	102	1048576	12	4408
2026-01-07 01:25:55.59	27.15	9.70	-26.1	-27.8	14.8	0.00e+00	0	42	102	1048576	12	4373
2026-01-07 01:25:56.60	27.22	9.78	-26.0	-27.6	14.9	0.00e+00	0	42	102	1048576	12	4327
2026-01-07 01:25:57.60	27.29	9.86	-26.0	-27.6	14.8	2.79e-04	0	42	102	1048576	12	4328
2026-01-07 01:25:58.61	27.36	9.94	-26.1	-27.8	14.8	0.00e+00	0	42	102	1048576	12	4365
2026-01-07 01:25:59.62	27.43	10.02	-26.1	-27.8	14.7	6.26e-04	0	42	102	1048576	12	4379
2026-01-07 01:26:00.63	27.51	10.10	-26.1	-27.7	14.8	0.00e+00	0	42	102	1048576	12	4351
2026-01-07 01:26:01.64	27.58	10.18	-26.1	-27.9	14.7	6.74e-04	0	42	102	1048576	12	4396
2026-01-07 01:26:02.65	27.65	10.26	-26.2	-28.0	14.7	1.10e-06	0	42	102	1048576	12	4418
2026-01-07 01:26:03.66	27.73	10.34	-26.2	-27.9	14.7	0.00e+00	0	43	102	1048576	12	4394
2026-01-07 01:26:04.65	27.80	10.42	-26.1	-27.7	14.8	0.00e+00	0	42	102	1048576	12	4347
2026-01-07 01:26:05.65	27.87	10.50	-25.9	-27.4	15.0	0.00e+00	0	42	102	1048576	12	4265
2026-01-07 01:26:06.66	27.95	10.59	-25.9	-27.3	15.0	0.00e+00	0	42	102	1048576	12	4248
2026-01-07 01:26:07.68	28.02	10.67	-25.9	-27.3	15.1	0.00e+00	0	42	102	1048576	12	4243
2026-01-07 01:26:08.68	28.10	10.75	-26.0	-27.4	15.0	7.09e-04	0	43	102	1048576	12	4273
2026-01-07 01:26:09.69	28.18	10.83	-25.9	-27.2	15.1	0.00e+00	0	43	102	1048576	12	4214
2026-01-07 01:26:10.69	28.25	10.91	-25.7	-27.3	15.4	0.00e+00	0	42	102	1048576	11	4336
2026-01-07 01:26:11.70	28.33	11.00	-25.7	-27.4	15.4	0.00e+00	0	42	102	1048576	11	4363
2026-01-07 01:26:12.71	28.41	11.08	-25.6	-27.0	15.6	0.00e+00	0	43	102	1048576	11	4260
2026-01-07 01:26:13.71	28.48	11.16	-25.4	-26.7	15.8	0.00e+00	0	43	102	1048576	11	4188
2026-01-07 01:26:14.71	28.56	11.24	-25.4	-27.2	15.8	0.00e+00	0	42	102	1048576	10	4417
2026-01-07 01:26:15.72	28.64	11.33	-25.4	-27.2	15.8	0.00e+00	0	42	102	1048576	10	4420
2026-01-07 01:26:16.73	28.72	11.41	-25.3	-27.0	15.9	0.00e+00	0	42	102	1048576	10	4382
2026-01-07 01:26:17.73	28.80	11.50	-25.4	-27.2	15.8	0.00e+00	0	43	102	1048576	10	4427
2026-01-07 01:26:18.74	28.88	11.58	-25.4	-27.1	15.8	0.00e+00	0	43	102	1048576	10	4409
2026-01-07 01:26:19.74	28.96	11.66	-25.4	-27.2	15.8	0.00e+00	0	43	102	1048576	10	4415
2026-01-07 01:26:20.75	29.04	11.75	-25.4	-27.1	15.9	0.00e+00	0	43	102	1048576	10	4397
2026-01-07 01:26:21.76	29.12	11.83	-25.4	-27.1	15.8	0.00e+00	0	43	102	1048576	10	4410
2026-01-07 01:26:22.77	29.20	11.92	-25.4	-27.1	15.9	0.00e+00	0	43	102	1048576	10	4398
2026-01-07 01:26:23.78	29.28	12.01	-25.3	-27.0	15.9	0.00e+00	0	43	102	1048576	10	4379
2026-01-07 01:26:24.78	29.36	12.09	-25.4	-27.2	15.8	0.00e+00	0	43	102	1048576	10	4421
2026-01-07 01:26:25.78	29.45	12.18	-25.3	-26.5	15.9	0.00e+00	0	43	102	1048576	11	4131
2026-01-07 01:26:26.79	29.53	12.26	-25.2	-26.8	16.1	0.00e+00	0	43	102	1048576	10	4313
2026-01-07 01:26:27.79	29.61	12.35	-25.3	-26.9	16.0	0.00e+00	0	43	102	1048576	10	4337
2026-01-07 01:26:28.80	29.70	12.44	-25.2	-26.7	16.1	0.00e+00	0	43	102	1048576	10	4306
2026-01-07 01:26:29.80	29.78	12.52	-25.3	-26.9	16.0	0.00e+00	0	42	102	1048576	10	4335
2026-01-07 01:26:30.81	29.87	12.61	-25.2	-26.7	16.1	0.00e+00	0	43	102	1048576	10	4293
2026-01-07 01:26:31.82	29.95	12.70	-25.2	-26.8	16.1	0.00e+00	0	43	102	1048576	10	4320
2026-01-07 01:26:32.83	30.04	12.78	-25.4	-27.2	15.9	0.00e+00	0	43	102	1048576	10	4414
2026-01-07 01:26:33.84	30.13	12.87	-25.2	-26.8	16.1	0.00e+00	0	43	102	1048576	10	4310
2026-01-07 01:26:34.85	30.21	12.96	-25.1	-26.6	16.2	0.00e+00	0	43	102	1048576	10	4262
2026-01-07 01:26:35.85	30.30	13.05	-25.0	-26.3	16.4	0.00e+00	0	43	102	1048576	10	4180
2026-01-07 01:26:36.86	30.39	13.14	-25.1	-26.5	16.3	0.00e+00	0	43	102	1048576	10	4219
2026-01-07 01:26:37.86	30.48	13.23	-25.1	-26.6	16.2	3.81e-04	0	43	102	1048576	10	4244
2026-01-07 01:26:38.87	30.57	13.32	-25.1	-26.6	16.2	0.00e+00	0	43	102	1048576	10	4254
2026-01-07 01:26:39.88	30.66	13.41	-25.1	-26.6	16.2	0.00e+00	0	43	102	1048576	10	4253
2026-01-07 01:26:40.88	30.75	13.50	-25.3	-26.9	16.0	0.00e+00	0	43	102	1048576	10	4349
2026-01-07 01:26:41.89	30.84	13.59	-25.2	-26.8	16.1	2.30e-04	0	43	102	1048576	10	4317
2026-01-07 01:26:42.90	30.93	13.68	-25.1	-26.6	16.2	0.00e+00	0	43	102	1048576	10	4259
2026-01-07 01:26:43.91	31.02	13.77	-25.2	-26.6	16.2	0.00e+00	0	43	102	1048576	10	4274
2026-01-07 01:26:44.91	31.11	13.86	-25.1	-26.5	16.3	1.02e-05	0	43	102	1048576	10	4223
2026-01-07 01:26:45.92	31.20	13.95	-25.2	-26.8	16.2	0.00e+00	0	43	102	1048576	10	4299
2026-01-07 01:26:46.93	31.30	14.04	-25.0	-26.3	16.4	0.00e+00	0	43	102	1048576	10	4189
2026-01-07 01:26:47.93	31.39	14.13	-25.0	-26.3	16.4	1.14e-05	0	43	102	1048576	10	4187
2026-01-07 01:26:48.94	31.49	14.23	-25.0	-26.3	16.5	0.00e+00	0	43	102	1048576	10	4175
2026-01-07 01:26:49.94	31.58	14.32	-24.4	-25.5	16.4	1.90e-04	0	43	102	1048576	10	4088
2026-01-07 01:26:50.95	31.68	14.41	-24.9	-26.5	16.5	1.82e-04	0	43	102	1048576	9	4358
2026-01-07 01:26:51.96	31.77	14.50	-24.8	-26.4	14.4	0.00e+00	0	43	102	1048576	9	4315
2026-01-07 01:26:52.96	31.87	14.60	-24.9	-26.6	15.0	0.00e+00	0	43	102	1048576	9	4362
2026-01-07 01:26:53.97	31.97	14.69	-24.8	-26.3	16.7	2.97e-04	0	43	102	1048576	9	4278
2026-01-07 01:26:54.98	32.06	14.78	-24.8	-26.3	14.9	0.00e+00	0	43	102	1048576	9	4290
2026-01-07 01:26:55.97	32.16	14.88	-24.7	-26.2	16.3	3.87e-04	0	43	102	1048576	9	4269
2026-01-07 01:26:56.98	32.26	14.97	-24.9	-26.6	16.5	3.64e-04	0	43	102	1048576	9	4362
2026-01-07 01:26:57.99	32.36	15.07	-24.8	-26.3	16.7	8.00e-06	0	43	102	1048576	9	4299
2026-01-07 01:26:58.99	32.46	15.16	-24.8	-26.4	16.6	4.45e-04	0	43	102	1048576	9	4321
2026-01-07 01:27:00.00	32.56	15.26	-24.8	-26.3	16.7	0.00e+00	0	43	102	1048576	9	4298
2026-01-07 01:27:01.00	32.66	15.35	-24.8	-26.4	16.6	0.00e+00	0	43	102	1048576	9	4315
2026-01-07 01:27:02.00	32.76	15.45	-24.7	-26.2	16.7	4.36e-04	0	43	102	1048576	9	4272
2026-01-07 01:27:03.01	32.87	15.54	-24.7	-26.2	16.7	2.89e-04	0	43	102	1048576	9	4273
2026-01-07 01:27:04.01	32.97	15.64	-24.7	-26.2	16.8	0.00e+00	0	43	102	1048576	9	4253
2026-01-07 01:27:05.02	33.07	15.74	-24.9	-26.5	16.6	3.64e-04	0	43	102	1048576	9	4355
2026-01-07 01:27:06.03	33.18	15.83	-24.7	-26.2	16.8	2.14e-04	0	43	102	1048576	9	4270
2026-01-07 01:27:07.03	33.28	15.93	-24.8	-26.4	16.7	3.62e-04	0	43	102	1048576	9	4324
2026-01-07 01:27:08.04	33.39	16.03	-24.6	-26.0	16.9	1.45e-04	0	43	102	1048576	9	4207
2026-01-07 01:27:09.05	33.50	16.13	-24.7	-26.2	16.8	0.00e+00	0	43	102	1048576	9	4257
2026-01-07 01:27:10.05	33.60	16.22	-24.8	-26.3	16.8	0.00e+00	0	43	102	1048576	9	4287
2026-01-07 01:27:11.06	33.71	16.32	-24.6	-26.0	16.9	3.66e-04	0	43	102	1048576	9	4201
2026-01-07 01:27:12.07	33.82	16.42	-25.1	-26.4	16.4	0.00e+00	0	43	102	1048576	10	4206
2026-01-07 01:27:13.08	33.93	16.52	-24.7	-26.0	16.9	0.00e+00	0	43	102	1048576	9	4219
2026-01-07 01:27:14.09	34.04	16.62	-24.5	-25.7	17.1	3.72e-04	0	43	102	1048576	9	4125
2026-01-07 01:27:15.10	34.15	16.72	-24.7	-26.2	16.8	0.00e+00	0	43	102	1048576	9	4264
2026-01-07 01:27:16.10	34.26	16.82	-24.5	-25.8	17.0	3.48e-04	0	43	102	1048576	9	4150
2026-01-07 01:27:17.11	34.37	16.92	-24.4	-25.5	17.2	0.00e+00	0	43	102	1048576	9	4072
2026-01-07 01:27:18.12	34.49	17.02	-24.4	-25.5	17.2	0.00e+00	0	43	102	1048576	9	4073
2026-01-07 01:27:19.13	34.60	17.13	-24.3	-25.8	17.3	2.66e-04	0	43	102	1048576	8	4260
2026-01-07 01:27:20.13	34.71	17.23	-24.2	-25.6	17.4	2.10e-04	0	43	102	1048576	8	4214
2026-01-07 01:27:21.13	34.83	17.33	-24.3	-25.7	17.4	0.00e+00	0	43	102	1048576	8	4235
2026-01-07 01:27:22.12	34.94	17.43	-24.3	-25.7	17.4	2.49e-04	0	43	102	1048576	8	4233
2026-01-07 01:27:23.13	35.06	17.53	-24.2	-25.5	17.5	2.40e-04	0	43	102	1048576	8	4181
2026-01-07 01:27:24.14	35.18	17.63	-24.2	-25.5	17.5	0.00e+00	0	43	102	1048576	8	4194
2026-01-07 01:27:25.15	35.30	17.74	-24.3	-25.9	17.3	2.48e-04	0	43	102	1048576	8	4291
2026-01-07 01:27:26.15	35.41	17.84	-24.2	-25.5	17.5	2.43e-04	0	43	102	1048576	8	4186
2026-01-07 01:27:27.16	35.53	17.94	-24.2	-25.6	17.4	0.00e+00	0	43	102	1048576	8	4223
2026-01-07 01:27:28.16	35.65	18.05	-24.4	-25.9	17.3	2.71e-04	0	43	102	1048576	8	4298
2026-01-07 01:27:29.16	35.77	18.15	-24.2	-25.6	17.4	2.25e-04	0	43	102	1048576	8	4225
2026-01-07 01:27:30.17	35.90	18.26	-24.2	-25.6	17.4	0.00e+00	0	43	102	1048576	8	4225
2026-01-07 01:27:31.17	36.02	18.36	-24.3	-25.8	17.3	0.00e+00	0	43	102	1048576	8	4264
2026-01-07 01:27:32.18	36.14	18.47	-24.3	-25.7	17.4	2.57e-04	0	43	102	1048576	8	4242
2026-01-07 01:27:33.18	36.27	18.57	-24.4	-25.9	17.3	0.00e+00	0	43	102	1048576	8	4300
2026-01-07 01:27:34.19	36.39	18.68	-24.4	-26.0	17.2	2.51e-04	0	43	102	1048576	8	4329
2026-01-07 01:27:35.20	36.52	18.78	-24.2	-25.6	17.5	0.00e+00	0	43	102	1048576	8	4204
2026-01-07 01:27:36.20	36.64	18.89	-24.1	-25.4	17.6	0.00e+00	0	43	102	1048576	8	4156
2026-01-07 01:27:37.21	36.77	19.00	-24.1	-25.3	17.6	2.40e-04	0	43	102	1048576	8	4142
2026-01-07 01:27:38.21	36.90	19.10	-24.0	-25.2	17.7	0.00e+00	0	43	102	1048576	8	4106
2026-01-07 01:27:39.22	37.03	19.21	-24.0	-25.2	17.7	0.00e+00	0	43	102	1048576	8	4116
2026-01-07 01:27:40.23	37.16	19.32	-24.0	-25.2	17.7	0.00e+00	0	43	102	1048576	8	4117
2026-01-07 01:27:41.24	37.29	19.43	-24.1	-25.3	17.6	1.72e-04	0	43	102	1048576	8	4131
2026-01-07 01:27:42.24	37.43	19.54	-23.8	-24.8	17.9	0.00e+00	0	43	102	1048576	8	4010
2026-01-07 01:27:43.25	37.56	19.65	-23.7	-24.4	18.1	1.43e-04	0	43	102	1048576	8	3928
2026-01-07 01:27:44.25	37.69	19.75	-23.7	-24.5	18.1	0.00e+00	0	43	102	1048576	8	3937
2026-01-07 01:27:45.26	37.83	19.86	-23.7	-24.5	18.1	0.00e+00	0	43	102	1048576	8	3950
2026-01-07 01:27:46.26	37.96	19.97	-23.6	-24.2	18.2	0.00e+00	0	43	102	1048576	8	3873
2026-01-07 01:27:47.26	38.10	20.08	-23.6	-24.3	18.2	0.00e+00	0	43	102	1048576	8	3904
2026-01-07 01:27:48.27	38.24	20.19	-23.7	-24.4	18.1	0.00e+00	0	43	102	1048576	8	3927
2026-01-07 01:27:49.27	38.38	20.30	-23.6	-24.2	18.2	0.00e+00	0	43	102	1048576	8	3867
2026-01-07 01:27:50.28	38.52	20.42	-23.5	-24.1	18.3	0.00e+00	0	43	102	1048576	8	3855
2026-01-07 01:27:51.29	38.66	20.53	-23.6	-24.2	18.2	0.00e+00	0	43	102	1048576	8	3866
2026-01-07 01:27:52.29	38.80	20.64	-23.5	-24.0	18.3	0.00e+00	0	43	102	1048576	8	3835
2026-01-07 01:27:53.30	38.94	20.75	-23.5	-24.0	18.4	0.00e+00	0	43	102	1048576	8	3826
2026-01-07 01:27:54.31	39.09	20.86	-23.5	-24.1	18.3	0.00e+00	0	43	102	1048576	8	3851
2026-01-07 01:27:55.32	39.23	20.98	-23.4	-23.8	18.5	0.00e+00	0	43	102	1048576	8	3768
2026-01-07 01:27:56.32	39.38	21.09	-23.3	-23.7	18.5	0.00e+00	0	43	102	1048576	8	3756
2026-01-07 01:27:57.33	39.52	21.20	-23.4	-23.9	18.5	0.00e+00	0	43	102	1048576	8	3791
2026-01-07 01:27:58.34	39.67	21.32	-23.4	-23.9	18.4	0.00e+00	0	44	102	1048576	8	3809
2026-01-07 01:27:59.34	39.82	21.43	-23.5	-24.0	18.4	0.00e+00	0	43	102	1048576	8	3820
2026-01-07 01:28:00.34	39.97	21.55	-23.5	-24.1	18.3	0.00e+00	0	43	102	1048576	8	3847
2026-01-07 01:28:01.35	40.12	21.66	-23.5	-24.0	18.4	0.00e+00	0	43	102	1048576	8	3824
2026-01-07 01:28:02.36	40.27	21.78	-23.6	-24.3	18.2	1.64e-04	0	43	102	1048576	8	3881
2026-01-07 01:28:03.36	40.43	21.89	-23.5	-24.0	18.4	0.00e+00	0	43	102	1048576	8	3816
2026-01-07 01:28:04.36	40.58	22.01	-23.5	-24.1	18.4	9.84e-05	0	43	102	1048576	8	3838
2026-01-07 01:28:05.36	40.73	22.12	-23.6	-24.2	18.3	0.00e+00	0	44	102	1048576	8	3874
2026-01-07 01:28:06.37	40.89	22.24	-23.5	-24.0	18.4	0.00e+00	0	44	102	1048576	8	3817
2026-01-07 01:28:07.38	41.05	22.36	-23.4	-23.9	18.5	0.00e+00	0	43	102	1048576	8	3792
2026-01-07 01:28:08.39	41.21	22.47	-23.5	-24.0	18.4	8.12e-05	0	43	102	1048576	8	3831
2026-01-07 01:28:09.39	41.37	22.59	-23.2	-24.0	18.6	0.00e+00	0	43	102	1048576	7	3930
2026-01-07 01:28:10.40	41.53	22.71	-23.2	-23.9	18.7	0.00e+00	0	43	102	1048576	7	3902
2026-01-07 01:28:11.41	41.69	22.83	-23.2	-23.8	18.7	6.29e-05	0	44	102	1048576	7	3893
2026-01-07 01:28:12.41	41.86	22.95	-23.0	-23.6	18.9	0.00e+00	0	44	102	1048576	7	3827
2026-01-07 01:28:13.42	42.02	23.07	-22.8	-23.1	19.1	1.25e-05	0	43	102	1048576	7	3720
2026-01-07 01:28:14.43	42.19	23.18	-22.8	-23.0	19.2	2.17e-05	0	43	102	1048576	7	3703
2026-01-07 01:28:15.43	42.36	23.30	-22.9	-23.3	19.0	0.00e+00	0	43	102	1048576	7	3766
2026-01-07 01:28:16.44	42.52	23.42	-23.0	-23.4	18.9	5.03e-05	0	43	102	1048576	7	3797
2026-01-07 01:28:17.44	42.69	23.54	-22.9	-23.3	19.0	1.94e-05	0	43	102	1048576	7	3762
2026-01-07 01:28:18.45	42.87	23.66	-22.8	-23.2	19.1	0.00e+00	0	43	102	1048576	7	3739
2026-01-07 01:28:19.46	43.04	23.78	-22.8	-23.2	19.1	0.00e+00	0	44	102	1048576	7	3729
2026-01-07 01:28:20.46	43.21	23.90	-22.8	-23.1	19.1	1.02e-05	0	43	102	1048576	7	3714
2026-01-07 01:28:21.47	43.39	24.03	-22.9	-23.3	19.0	0.00e+00	0	43	102	1048576	7	3765
2026-01-07 01:28:22.48	43.56	24.15	-23.0	-23.5	18.9	9.72e-05	0	43	102	1048576	7	3808
2026-01-07 01:28:23.49	43.74	24.27	-23.0	-23.5	18.9	1.51e-04	0	43	102	1048576	7	3810
2026-01-07 01:28:24.50	43.92	24.39	-23.0	-23.6	18.9	0.00e+00	0	43	102	1048576	7	3824
2026-01-07 01:28:25.50	44.10	24.51	-22.9	-23.4	19.0	1.26e-04	0	43	102	1048576	7	3780
2026-01-07 01:28:26.51	44.29	24.64	-23.0	-23.4	19.0	0.00e+00	0	43	102	1048576	7	3787
2026-01-07 01:28:27.51	44.47	24.76	-22.9	-23.3	19.0	0.00e+00	0	43	102	1048576	7	3769
2026-01-07 01:28:28.52	44.65	24.88	-22.9	-23.3	19.1	0.00e+00	0	43	102	1048576	7	3757
2026-01-07 01:28:29.52	44.84	25.01	-22.9	-23.2	19.1	2.43e-04	0	43	102	1048576	7	3735
2026-01-07 01:28:30.53	45.03	25.13	-22.8	-23.5	19.2	0.00e+00	0	43	102	1048576	6	3919
2026-01-07 01:28:31.54	45.22	25.26	-22.8	-23.5	19.2	0.00e+00	0	44	102	1048576	6	3926
2026-01-07 01:28:32.54	45.41	25.38	-22.9	-23.7	19.1	1.83e-04	0	43	102	1048576	6	3973
2026-01-07 01:28:33.55	45.60	25.50	-22.9	-23.8	19.1	0.00e+00	0	43	102	1048576	6	3981
2026-01-07 01:28:34.55	45.79	25.63	-22.8	-23.6	19.2	2.62e-04	0	43	102	1048576	6	3931
2026-01-07 01:28:35.56	45.99	25.75	-22.8	-23.6	19.2	0.00e+00	0	44	102	1048576	6	3948
2026-01-07 01:28:36.56	46.18	25.88	-22.9	-23.7	19.1	0.00e+00	0	43	102	1048576	6	3970
2026-01-07 01:28:37.57	46.38	26.00	-22.8	-23.5	19.2	0.00e+00	0	44	102	1048576	6	3920
2026-01-07 01:28:38.57	46.58	26.13	-22.8	-23.5	19.2	0.00e+00	0	43	102	1048576	6	3928
2026-01-07 01:28:39.58	46.78	26.26	-22.8	-23.5	19.3	0.00e+00	0	44	102	1048576	6	3908
2026-01-07 01:28:40.58	46.98	26.38	-22.7	-23.3	19.4	0.00e+00	0	44	102	1048576	6	3863
2026-01-07 01:28:41.58	47.18	26.51	-22.7	-23.3	19.4	0.00e+00	0	43	102	1048576	6	3871
2026-01-07 01:28:42.59	47.39	26.63	-22.6	-23.2	19.4	0.00e+00	0	43	102	1048576	6	3855
2026-01-07 01:28:43.60	47.60	26.76	-22.6	-23.1	19.5	6.29e-05	0	44	102	1048576	6	3817
2026-01-07 01:28:44.61	47.81	26.89	-22.6	-23.2	19.4	0.00e+00	0	44	102	1048576	6	3848
2026-01-07 01:28:45.62	48.02	27.02	-22.8	-23.7	19.2	0.00e+00	0	44	102	1048576	6	3952
2026-01-07 01:28:46.62	48.23	27.14	-23.0	-23.9	19.0	0.00e+00	0	44	102	1048576	6	4023
2026-01-07 01:28:47.63	48.45	27.27	-23.0	-24.0	19.0	0.00e+00	0	44	102	1048576	6	4048
2026-01-07 01:28:48.63	48.66	27.40	-23.0	-23.9	19.0	0.00e+00	0	44	102	1048576	6	4018
2026-01-07 01:28:49.64	48.88	27.53	-23.2	-24.4	18.8	0.00e+00	0	43	102	1048576	6	4127
2026-01-07 01:28:50.65	49.10	27.66	-23.1	-24.1	18.9	0.00e+00	0	44	102	1048576	6	4073
2026-01-07 01:28:51.66	49.32	27.79	-22.9	-23.8	19.1	0.00e+00	0	44	102	1048576	6	3993
2026-01-07 01:28:52.66	49.54	27.91	-22.9	-23.9	19.1	0.00e+00	0	44	102	1048576	6	4002
2026-01-07 01:28:53.66	49.76	28.04	-22.8	-23.6	19.2	0.00e+00	0	44	102	1048576	6	3939
2026-01-07 01:28:54.67	49.99	28.17	-22.9	-23.9	19.1	0.00e+00	0	43	102	1048576	6	3999
2026-01-07 01:28:55.68	50.22	28.30	-22.9	-23.8	19.2	0.00e+00	0	43	102	1048576	6	3979
2026-01-07 01:28:56.69	50.45	28.43	-22.6	-23.1	19.5	0.00e+00	0	43	102	1048576	6	3822
2026-01-07 01:28:57.70	50.68	28.56	-22.3	-22.6	19.7	0.00e+00	0	44	102	1048576	6	3710
2026-01-07 01:28:58.71	50.92	28.69	-22.2	-22.9	19.8	0.00e+00	0	44	102	1048576	5	3882
2026-01-07 01:28:59.71	51.15	28.82	-22.2	-22.8	19.9	0.00e+00	0	43	102	1048576	5	3865
2026-01-07 01:29:00.72	51.39	28.95	-22.3	-22.9	19.8	0.00e+00	0	44	102	1048576	5	3894
2026-01-07 01:29:01.72	51.63	29.08	-22.3	-23.0	19.8	0.00e+00	0	44	102	1048576	5	3902
2026-01-07 01:29:02.73	51.87	29.21	-22.2	-22.9	19.9	0.00e+00	0	43	102	1048576	5	3883
2026-01-07 01:29:03.74	52.11	29.34	-22.4	-23.2	19.7	0.00e+00	0	44	102	1048576	5	3944
2026-01-07 01:29:04.75	52.36	29.47	-22.3	-23.0	19.8	0.00e+00	0	44	102	1048576	5	3904
2026-01-07 01:29:05.76	52.61	29.60	-22.2	-22.8	19.9	0.00e+00	0	43	102	1048576	5	3848
2026-01-07 01:29:06.76	52.85	29.73	-22.2	-22.8	19.9	0.00e+00	0	44	102	1048576	5	3856
2026-01-07 01:29:07.77	53.10	29.86	-22.1	-22.6	20.0	0.00e+00	0	44	102	1048576	5	3809
2026-01-07 01:29:08.78	53.36	29.99	-22.3	-23.0	19.8	0.00e+00	0	44	102	1048576	5	3907
2026-01-07 01:29:09.78	53.61	30.12	-22.4	-23.2	19.7	0.00e+00	0	43	102	1048576	5	3944
2026-01-07 01:29:10.79	53.87	30.25	-22.6	-23.6	19.5	0.00e+00	0	43	102	1048576	5	4045
2026-01-07 01:29:11.79	54.13	30.38	-22.5	-23.5	19.5	0.00e+00	0	43	102	1048576	5	4031
2026-01-07 01:29:12.80	54.39	30.51	-22.4	-23.2	19.7	0.00e+00	0	43	102	1048576	5	3958
2026-01-07 01:29:13.81	54.65	30.64	-22.3	-23.0	19.8	0.00e+00	0	44	102	1048576	5	3913
2026-01-07 01:29:14.81	54.91	30.77	-22.4	-23.1	19.8	0.00e+00	0	44	102	1048576	5	3932
2026-01-07 01:29:15.82	55.18	30.90	-22.1	-22.6	20.1	0.00e+00	0	43	102	1048576	5	3804
2026-01-07 01:29:16.83	55.45	31.03	-22.0	-22.4	20.1	0.00e+00	0	43	102	1048576	5	3756
2026-01-07 01:29:17.84	55.73	31.16	-22.1	-22.6	20.0	0.00e+00	0	44	102	1048576	5	3818
2026-01-07 01:29:18.84	56.00	31.28	-22.1	-22.6	20.0	0.00e+00	0	43	102	1048576	5	3806
2026-01-07 01:29:19.85	56.27	31.41	-22.3	-23.0	19.8	0.00e+00	0	44	102	1048576	5	3914
2026-01-07 01:29:20.86	56.55	31.54	-22.3	-23.0	19.9	0.00e+00	0	43	102	1048576	5	3899
2026-01-07 01:29:21.87	56.83	31.67	-22.3	-23.1	19.8	0.00e+00	0	43	102	1048576	5	3923
2026-01-07 01:29:22.87	57.11	31.80	-22.1	-22.5	20.1	0.00e+00	0	44	102	1048576	5	3798
2026-01-07 01:29:23.88	57.40	31.93	-21.9	-22.2	20.3	0.00e+00	0	43	102	1048576	5	3718
2026-01-07 01:29:24.89	57.69	32.06	-22.0	-22.9	20.2	0.00e+00	0	43	102	1048576	4	3976
2026-01-07 01:29:25.90	57.98	32.19	-22.2	-23.3	19.9	3.13e-04	0	43	102	1048576	4	4085
2026-01-07 01:29:26.90	58.27	32.31	-22.2	-23.3	19.9	0.00e+00	0	43	102	1048576	4	4097
2026-01-07 01:29:27.91	58.56	32.44	-22.4	-23.8	19.7	0.00e+00	0	43	102	1048576	4	4216
2026-01-07 01:29:28.91	58.85	32.57	-22.3	-23.6	19.8	0.00e+00	0	44	102	1048576	4	4166
2026-01-07 01:29:29.92	59.15	32.70	-22.4	-23.7	19.8	0.00e+00	0	44	102	1048576	4	4191
2026-01-07 01:29:30.92	59.45	32.82	-22.5	-23.5	19.6	3.13e-04	0	44	102	1048576	5	4030
2026-01-07 01:29:31.92	59.75	32.95	-22.8	-24.1	19.3	0.00e+00	0	43	102	1048576	5	4157
2026-01-07 01:29:32.93	60.06	33.07	-22.6	-23.5	19.6	0.00e+00	0	44	102	1048576	5	4026
2026-01-07 01:29:33.94	60.37	33.20	-22.4	-23.2	19.8	0.00e+00	0	44	102	1048576	5	3943
2026-01-07 01:29:34.94	60.67	33.32	-22.3	-23.1	19.8	1.40e-04	0	44	102	1048576	5	3923
2026-01-07 01:29:35.94	60.98	33.45	-22.3	-22.9	19.9	0.00e+00	0	44	102	1048576	5	3882
2026-01-07 01:29:36.94	61.30	33.57	-22.4	-23.1	19.8	2.18e-04	0	44	102	1048576	5	3934
2026-01-07 01:29:37.95	61.61	33.70	-22.1	-22.7	20.0	9.95e-05	0	44	102	1048576	5	3824
2026-01-07 01:29:38.96	61.94	33.82	-22.1	-22.7	20.0	0.00e+00	0	44	102	1048576	5	3828
2026-01-07 01:29:39.97	62.26	33.94	-22.2	-22.9	19.9	1.44e-04	0	44	102	1048576	5	3873
2026-01-07 01:29:40.97	62.58	34.07	-22.4	-23.1	19.8	0.00e+00	0	43	102	1048576	5	3939
2026-01-07 01:29:41.98	62.91	34.19	-22.1	-22.6	20.1	0.00e+00	0	43	102	1048576	5	3819
2026-01-07 01:29:42.99	63.24	34.31	-22.0	-22.4	20.2	5.72e-05	0	44	102	1048576	5	3763
2026-01-07 01:29:44.00	63.57	34.43	-22.1	-22.7	20.0	3.89e-05	0	43	102	1048576	5	3834
2026-01-07 01:29:45.00	63.90	34.55	-22.1	-22.6	20.1	0.00e+00	0	44	102	1048576	5	3818
2026-01-07 01:29:46.01	64.24	34.67	-22.1	-22.5	20.1	1.36e-04	0	44	102	1048576	5	3789
2026-01-07 01:29:47.01	64.57	34.79	-22.1	-22.7	20.1	2.47e-04	0	44	102	1048576	5	3820
2026-01-07 01:29:48.02	64.92	34.91	-22.2	-22.7	20.0	0.00e+00	0	44	102	1048576	5	3837
2026-01-07 01:29:49.03	65.26	35.03	-22.3	-23.0	19.9	1.65e-04	0	44	102	1048576	5	3892
2026-01-07 01:29:50.04	65.61	35.15	-22.1	-22.7	20.0	0.00e+00	0	43	102	1048576	5	3833
2026-01-07 01:29:51.05	65.96	35.26	-22.1	-22.6	20.1	0.00e+00	0	43	102	1048576	5	3820
2026-01-07 01:29:52.06	66.31	35.38	-22.2	-22.7	20.1	1.29e-04	0	44	102	1048576	5	3838
2026-01-07 01:29:53.07	66.66	35.50	-21.9	-22.3	20.3	7.43e-05	0	44	102	1048576	5	3733
2026-01-07 01:29:54.08	67.02	35.61	-22.1	-22.5	20.2	0.00e+00	0	44	102	1048576	5	3797
2026-01-07 01:29:55.08	67.38	35.72	-22.1	-22.6	20.1	0.00e+00	0	43	102	1048576	5	3812
2026-01-07 01:29:56.09	67.74	35.84	-22.3	-23.0	19.9	1.01e-04	0	43	102	1048576	5	3909
2026-01-07 01:29:57.10	68.10	35.95	-22.3	-23.0	19.9	0.00e+00	0	43	102	1048576	5	3899
2026-01-07 01:29:58.10	68.47	36.06	-22.2	-22.9	20.0	5.60e-05	0	43	102	1048576	5	3883
2026-01-07 01:29:59.11	68.84	36.17	-22.2	-22.8	20.0	0.00e+00	0	43	102	1048576	5	3847
2026-01-07 01:30:00.11	69.20	36.28	-22.4	-23.2	19.6	0.00e+00	0	44	102	1048576	5	3964
2026-01-07 01:30:01.12	69.58	36.38	-22.1	-22.7	19.9	0.00e+00	0	43	102	1048576	5	3843
2026-01-07 01:30:02.13	69.96	36.49	-22.1	-22.7	19.9	0.00e+00	0	44	102	1048576	5	3847
2026-01-07 01:30:03.13	70.33	36.60	-22.1	-22.8	19.9	0.00e+00	0	44	102	1048576	5	3862
2026-01-07 01:30:04.14	70.71	36.70	-22.3	-23.0	19.7	0.00e+00	0	44	102	1048576	5	3913
2026-01-07 01:30:05.14	71.09	36.81	-22.1	-22.7	19.9	1.10e-06	0	44	102	1048576	5	3851
2026-01-07 01:30:06.15	71.48	36.91	-22.2	-22.8	19.8	0.00e+00	0	44	102	1048576	5	3873
2026-01-07 01:30:07.15	71.87	37.01	-22.0	-22.5	20.0	0.00e+00	0	43	102	1048576	5	3812
2026-01-07 01:30:08.16	72.26	37.11	-21.8	-22.1	20.2	0.00e+00	0	43	102	1048576	5	3708
2026-01-07 01:30:09.17	72.65	37.21	-21.7	-22.3	20.3	0.00e+00	0	43	102	1048576	4	3871
2026-01-07 01:30:10.18	73.05	37.31	-21.7	-22.3	20.3	0.00e+00	0	44	102	1048576	4	3873
2026-01-07 01:30:11.19	73.44	37.41	-21.9	-22.7	20.1	0.00e+00	0	44	102	1048576	4	3947
2026-01-07 01:30:12.20	73.85	37.50	-21.8	-22.6	20.2	0.00e+00	0	43	102	1048576	4	3936
2026-01-07 01:30:13.21	74.25	37.60	-21.8	-22.5	20.2	0.00e+00	0	44	102	1048576	4	3907
2026-01-07 01:30:14.21	74.65	37.69	-21.7	-22.4	20.3	0.00e+00	0	44	102	1048576	4	3878
2026-01-07 01:30:15.22	75.06	37.78	-21.7	-22.4	20.3	0.00e+00	0	43	102	1048576	4	3880
2026-01-07 01:30:16.22	75.46	37.87	-21.7	-22.3	20.3	0.00e+00	0	44	102	1048576	4	3858
2026-01-07 01:30:17.23	75.88	37.96	-21.9	-22.7	20.1	0.00e+00	0	44	102	1048576	4	3968
2026-01-07 01:30:18.23	76.29	38.05	-21.9	-22.9	20.0	0.00e+00	0	44	102	1048576	4	3998
2026-01-07 01:30:19.23	76.70	38.14	-21.8	-22.5	20.2	0.00e+00	0	44	102	1048576	4	3916
2026-01-07 01:30:20.24	77.12	38.22	-21.7	-22.4	20.3	0.00e+00	0	43	102	1048576	4	3874
2026-01-07 01:30:21.25	77.54	38.31	-21.9	-22.7	20.2	0.00e+00	0	44	102	1048576	4	3942
2026-01-07 01:30:22.26	77.96	38.39	-21.9	-22.6	20.1	0.00e+00	0	44	102	1048576	4	3941
2026-01-07 01:30:23.27	78.39	38.47	-22.1	-23.2	19.9	0.00e+00	0	44	102	1048576	4	4065
2026-01-07 01:30:24.27	78.81	38.55	-21.9	-22.7	20.1	0.00e+00	0	44	102	1048576	4	3964
2026-01-07 01:30:25.28	79.24	38.63	-21.8	-22.5	20.2	0.00e+00	0	43	102	1048576	4	3919
2026-01-07 01:30:26.29	79.67	38.70	-21.9	-22.7	20.1	0.00e+00	0	44	102	1048576	4	3964
2026-01-07 01:30:27.29	80.10	38.78	-21.9	-22.8	20.1	0.00e+00	0	44	102	1048576	4	3986
2026-01-07 01:30:28.30	80.54	38.85	-22.2	-23.3	19.9	0.00e+00	0	44	102	1048576	4	4112
2026-01-07 01:30:29.31	80.97	38.92	-22.4	-23.7	19.7	0.00e+00	0	44	102	1048576	4	4203
2026-01-07 01:30:30.31	81.41	38.99	-22.0	-22.9	20.1	0.00e+00	0	43	102	1048576	4	4006
2026-01-07 01:30:31.31	81.85	39.06	-21.7	-22.2	20.4	0.00e+00	0	44	102	1048576	4	3847
2026-01-07 01:30:32.32	82.29	39.12	-21.6	-22.0	20.5	0.00e+00	0	44	102	1048576	4	3802
2026-01-07 01:30:33.33	82.73	39.19	-21.7	-22.3	20.3	0.00e+00	0	44	102	1048576	4	3872
2026-01-07 01:30:34.33	83.17	39.25	-21.8	-22.6	20.2	0.00e+00	0	44	102	1048576	4	3941
2026-01-07 01:30:35.33	83.62	39.31	-21.8	-22.6	20.2	0.00e+00	0	44	102	1048576	4	3928
2026-01-07 01:30:36.34	84.07	39.37	-21.7	-22.4	20.3	0.00e+00	0	44	102	1048576	4	3880
2026-01-07 01:30:37.35	84.52	39.42	-21.9	-22.8	20.1	0.00e+00	0	44	102	1048576	4	3966
2026-01-07 01:30:38.36	84.97	39.48	-22.1	-23.2	19.9	0.00e+00	0	44	102	1048576	4	4089
2026-01-07 01:30:39.37	85.43	39.53	-21.9	-22.7	20.1	0.00e+00	0	44	102	1048576	4	3966
2026-01-07 01:30:40.37	85.88	39.58	-21.6	-22.2	20.4	0.00e+00	0	44	102	1048576	4	3835
2026-01-07 01:30:41.38	86.33	39.63	-21.5	-21.9	20.6	0.00e+00	0	44	102	1048576	4	3769
2026-01-07 01:30:42.38	86.79	39.68	-21.6	-22.2	20.4	0.00e+00	0	43	102	1048576	4	3827
2026-01-07 01:30:43.39	87.25	39.73	-21.7	-22.4	20.3	0.00e+00	0	44	102	1048576	4	3874
2026-01-07 01:30:44.40	87.71	39.77	-21.8	-22.6	20.2	0.00e+00	0	44	102	1048576	4	3925
2026-01-07 01:30:45.40	88.17	39.81	-22.0	-22.9	19.5	7.43e-05	0	44	102	1048576	4	4012
2026-01-07 01:30:46.41	88.63	39.85	-22.0	-23.0	20.0	0.00e+00	0	44	102	1048576	4	4040
2026-01-07 01:30:47.42	89.10	39.89	-22.0	-23.0	20.0	0.00e+00	0	44	102	1048576	4	4035
2026-01-07 01:30:48.42	89.56	39.92	-21.8	-22.5	20.3	0.00e+00	0	43	102	1048576	4	3916
2026-01-07 01:30:49.43	90.02	39.96	-21.9	-22.7	20.1	0.00e+00	0	44	102	1048576	4	3965
2026-01-07 01:30:50.43	90.49	39.99	-22.0	-22.9	20.1	0.00e+00	0	43	102	1048576	4	4007
2026-01-07 01:30:51.44	90.95	40.02	-21.9	-22.7	20.1	0.00e+00	0	44	102	1048576	4	3961
2026-01-07 01:30:52.45	91.42	40.05	-21.9	-22.7	20.2	8.81e-05	0	44	102	1048576	4	3960
2026-01-07 01:30:53.45	91.89	40.07	-22.1	-23.1	20.0	0.00e+00	0	44	102	1048576	4	4050
2026-01-07 01:30:54.46	92.36	40.09	-22.1	-23.2	19.9	6.29e-05	0	44	102	1048576	4	4087
2026-01-07 01:30:55.47	92.83	40.11	-21.9	-22.7	20.2	0.00e+00	0	43	102	1048576	4	3963
2026-01-07 01:30:56.48	93.30	40.13	-21.7	-22.4	20.3	0.00e+00	0	44	102	1048576	4	3874
2026-01-07 01:30:57.48	93.77	40.15	-21.9	-22.6	20.2	1.21e-04	0	43	102	1048576	4	3941
2026-01-07 01:30:58.49	94.24	40.16	-22.1	-23.1	20.0	5.26e-05	0	44	102	1048576	4	4052
2026-01-07 01:30:59.50	94.72	40.18	-22.1	-23.2	19.9	0.00e+00	0	44	102	1048576	4	4082
2026-01-07 01:31:00.50	95.19	40.19	-22.0	-22.8	20.1	0.00e+00	0	43	102	1048576	4	3991
2026-01-07 01:31:01.51	95.66	40.20	-21.8	-22.5	20.3	3.08e-05	0	43	102	1048576	4	3895
2026-01-07 01:31:02.52	96.13	40.20	-21.8	-22.6	20.2	0.00e+00	0	44	102	1048576	4	3936
2026-01-07 01:31:03.53	96.61	40.21	-21.9	-22.8	20.1	3.20e-05	0	43	102	1048576	4	3981
2026-01-07 01:31:04.54	97.08	40.21	-21.9	-22.8	20.1	6.40e-05	0	44	102	1048576	4	3974
2026-01-07 01:31:05.54	97.55	40.21	-21.9	-22.9	20.1	0.00e+00	0	44	102	1048576	4	3999
2026-01-07 01:31:06.55	98.03	40.20	-21.9	-22.8	20.1	2.04e-04	0	44	102	1048576	4	3998
2026-01-07 01:31:07.56	98.50	40.20	-22.0	-22.9	20.1	1.86e-04	0	44	102	1048576	4	4000
2026-01-07 01:31:08.56	98.97	40.19	-22.0	-22.9	20.0	0.00e+00	0	44	102	1048576	4	4020
2026-01-07 01:31:09.57	99.45	40.18	-22.0	-22.9	20.0	1.03e-04	0	44	102	1048576	4	4015
2026-01-07 01:31:10.57	99.91	40.17	-22.0	-23.0	20.0	0.00e+00	0	44	102	1048576	4	4026
2026-01-07 01:31:11.58	100.39	40.16	-22.0	-22.9	20.0	0.00e+00	0	44	102	1048576	4	4013
2026-01-07 01:31:12.59	100.86	40.14	-22.1	-23.1	20.0	0.00e+00	0	44	102	1048576	4	4053
2026-01-07 01:31:13.59	101.33	40.13	-22.0	-22.9	20.1	8.69e-05	0	44	102	1048576	4	4006
2026-01-07 01:31:14.60	101.80	40.11	-21.8	-22.6	20.3	0.00e+00	0	44	102	1048576	4	3928
2026-01-07 01:31:15.61	102.27	40.09	-21.9	-22.8	20.2	1.77e-04	0	44	102	1048576	4	3979
2026-01-07 01:31:16.61	102.74	40.06	-22.0	-23.0	20.1	0.00e+00	0	43	102	1048576	4	4020
2026-01-07 01:31:17.62	103.21	40.04	-22.1	-23.1	20.0	0.00e+00	0	44	102	1048576	4	4054
2026-01-07 01:31:18.63	103.68	40.01	-22.0	-23.1	20.0	0.00e+00	0	44	102	1048576	4	4043
2026-01-07 01:31:19.63	104.14	39.98	-22.2	-23.4	19.9	0.00e+00	0	44	102	1048576	4	4126
2026-01-07 01:31:20.64	104.61	39.95	-22.2	-23.4	19.9	0.00e+00	0	44	102	1048576	4	4128
2026-01-07 01:31:21.65	105.08	39.91	-22.2	-23.3	19.9	0.00e+00	0	43	102	1048576	4	4094
2026-01-07 01:31:22.66	105.54	39.87	-22.1	-23.2	19.9	0.00e+00	0	44	102	1048576	4	4087
2026-01-07 01:31:23.67	106.01	39.84	-22.4	-23.8	19.7	0.00e+00	0	44	102	1048576	4	4223
2026-01-07 01:31:24.68	106.47	39.80	-22.5	-23.5	19.6	1.10e-06	0	44	102	1048576	5	4029
2026-01-07 01:31:25.68	106.93	39.75	-22.6	-23.6	19.5	0.00e+00	0	44	102	1048576	5	4062
2026-01-07 01:31:26.69	107.39	39.71	-22.6	-23.6	19.5	0.00e+00	0	44	102	1048576	5	4068
2026-01-07 01:31:27.69	107.84	39.66	-22.6	-23.6	19.5	0.00e+00	0	44	102	1048576	5	4068
2026-01-07 01:31:28.70	108.30	39.62	-22.7	-24.0	19.4	0.00e+00	0	43	102	1048576	5	4149
2026-01-07 01:31:29.71	108.76	39.56	-22.7	-24.0	19.4	0.00e+00	0	43	102	1048576	5	4155
2026-01-07 01:31:30.71	109.21	39.51	-22.9	-24.4	19.1	0.00e+00	0	43	102	1048576	5	4264
2026-01-07 01:31:31.72	109.67	39.46	-22.6	-23.1	19.6	0.00e+00	0	44	102	1048576	6	3833
2026-01-07 01:31:32.73	110.12	39.40	-22.1	-22.6	20.1	0.00e+00	0	44	102	1048576	5	3815
2026-01-07 01:31:33.74	110.57	39.35	-22.0	-22.3	20.2	0.00e+00	0	43	102	1048576	5	3763
2026-01-07 01:31:34.75	111.02	39.29	-22.0	-22.5	20.1	0.00e+00	0	44	102	1048576	5	3794
2026-01-07 01:31:35.75	111.46	39.22	-22.1	-22.7	19.9	0.00e+00	0	44	102	1048576	5	3856
2026-01-07 01:31:36.75	111.91	39.16	-22.1	-22.6	20.0	0.00e+00	0	43	102	1048576	5	3829
2026-01-07 01:31:37.76	112.35	39.10	-22.1	-22.7	20.0	0.00e+00	0	43	102	1048576	5	3845
2026-01-07 01:31:38.77	112.79	39.03	-22.1	-22.7	20.0	0.00e+00	0	44	102	1048576	5	3835
2026-01-07 01:31:39.78	113.23	38.96	-22.1	-22.7	20.0	0.00e+00	0	44	102	1048576	5	3838
2026-01-07 01:31:40.78	113.67	38.89	-22.3	-23.2	19.7	0.00e+00	0	44	102	1048576	5	3964
2026-01-07 01:31:41.79	114.11	38.82	-22.2	-22.9	19.9	0.00e+00	0	43	102	1048576	5	3903
2026-01-07 01:31:42.80	114.54	38.75	-22.0	-22.5	20.1	0.00e+00	0	44	102	1048576	5	3798
2026-01-07 01:31:43.80	114.97	38.67	-22.0	-22.4	20.1	0.00e+00	0	44	102	1048576	5	3775
2026-01-07 01:31:44.81	115.40	38.59	-21.8	-22.1	20.2	0.00e+00	0	43	102	1048576	5	3700
2026-01-07 01:31:45.81	115.83	38.52	-22.1	-22.7	20.0	0.00e+00	0	44	102	1048576	5	3838
2026-01-07 01:31:46.82	116.26	38.44	-22.2	-22.9	19.9	0.00e+00	0	43	102	1048576	5	3893
2026-01-07 01:31:47.83	116.68	38.35	-22.5	-23.4	19.6	0.00e+00	0	44	102	1048576	5	4029
2026-01-07 01:31:48.84	117.10	38.27	-22.3	-23.2	19.7	0.00e+00	0	44	102	1048576	5	3970
2026-01-07 01:31:49.84	117.52	38.19	-22.1	-22.7	19.9	0.00e+00	0	44	102	1048576	5	3840
2026-01-07 01:31:50.84	117.94	38.10	-22.0	-22.4	20.1	0.00e+00	0	44	102	1048576	5	3792
2026-01-07 01:31:51.85	118.35	38.01	-22.1	-22.6	20.0	0.00e+00	0	43	102	1048576	5	3818
2026-01-07 01:31:52.85	118.76	37.93	-22.0	-22.5	20.1	0.00e+00	0	44	102	1048576	5	3803
2026-01-07 01:31:53.85	119.17	37.84	-22.0	-22.4	20.1	0.00e+00	0	44	102	1048576	5	3774
2026-01-07 01:31:54.86	119.58	37.74	-21.9	-22.3	20.1	0.00e+00	0	44	102	1048576	5	3760
2026-01-07 01:31:55.86	119.99	37.65	-22.0	-22.5	20.0	0.00e+00	0	44	102	1048576	5	3806
2026-01-07 01:31:56.87	120.39	37.56	-22.0	-22.5	20.0	0.00e+00	0	44	102	1048576	5	3798
2026-01-07 01:31:57.87	120.79	37.46	-22.1	-22.7	19.9	0.00e+00	0	44	102	1048576	5	3852
2026-01-07 01:31:58.88	121.19	37.37	-22.0	-22.4	20.1	0.00e+00	0	43	102	1048576	5	3780
2026-01-07 01:31:59.88	121.59	37.27	-22.0	-22.5	20.1	0.00e+00	0	44	102	1048576	5	3795
2026-01-07 01:32:00.89	121.98	37.17	-22.2	-22.8	19.9	0.00e+00	0	44	102	1048576	5	3873
2026-01-07 01:32:01.89	122.37	37.07	-22.2	-22.8	19.9	0.00e+00	0	44	102	1048576	5	3872
2026-01-07 01:32:02.90	122.77	36.97	-22.3	-23.0	19.8	0.00e+00	0	43	102	1048576	5	3923
2026-01-07 01:32:03.91	123.15	36.86	-22.2	-22.8	19.9	0.00e+00	0	44	102	1048576	5	3869
2026-01-07 01:32:04.92	123.54	36.76	-22.1	-22.7	19.9	0.00e+00	0	44	102	1048576	5	3844
2026-01-07 01:32:05.92	123.92	36.66	-22.1	-22.6	19.9	0.00e+00	0	44	102	1048576	5	3837
2026-01-07 01:32:06.92	124.30	36.55	-22.0	-22.4	20.0	0.00e+00	0	44	102	1048576	5	3778
2026-01-07 01:32:07.94	124.68	36.44	-22.0	-22.5	20.0	0.00e+00	0	43	102	1048576	5	3805
2026-01-07 01:32:08.94	125.06	36.33	-22.0	-22.5	20.0	0.00e+00	0	44	102	1048576	5	3799
2026-01-07 01:32:09.95	125.43	36.23	-21.9	-22.4	20.1	0.00e+00	0	44	102	1048576	5	3771
2026-01-07 01:32:10.96	125.80	36.11	-22.0	-22.4	20.1	0.00e+00	0	44	102	1048576	5	3774
2026-01-07 01:32:11.97	126.17	36.00	-21.7	-22.4	20.3	0.00e+00	0	44	102	1048576	4	3875
2026-01-07 01:32:12.98	126.54	35.89	-21.8	-22.5	20.2	0.00e+00	0	44	102	1048576	4	3916
2026-01-07 01:32:13.98	126.90	35.78	-22.0	-23.0	20.0	0.00e+00	0	44	102	1048576	4	4021
2026-01-07 01:32:14.99	127.26	35.67	-22.2	-23.3	19.9	0.00e+00	0	44	102	1048576	4	4104
2026-01-07 01:32:16.00	127.62	35.55	-22.3	-23.7	19.6	2.20e-06	0	44	102	1048576	4	4206
2026-01-07 01:32:17.00	127.98	35.44	-22.3	-23.6	19.7	0.00e+00	0	44	102	1048576	4	4194
2026-01-07 01:32:18.01	128.33	35.32	-22.3	-23.5	19.7	0.00e+00	0	44	102	1048576	4	4164
2026-01-07 01:32:19.02	128.68	35.20	-22.4	-23.7	19.6	0.00e+00	0	44	102	1048576	4	4213
2026-01-07 01:32:20.03	129.03	35.09	-22.3	-23.6	19.7	0.00e+00	0	44	102	1048576	4	4178
2026-01-07 01:32:21.03	129.38	34.97	-22.4	-23.9	19.5	0.00e+00	0	44	102	1048576	4	4240
2026-01-07 01:32:22.04	129.72	34.85	-22.3	-23.5	19.7	0.00e+00	0	44	102	1048576	4	4159
2026-01-07 01:32:23.04	130.06	34.73	-22.5	-23.9	19.5	0.00e+00	0	44	102	1048576	4	4264
2026-01-07 01:32:24.04	130.40	34.61	-22.4	-23.8	19.6	2.20e-06	0	43	102	1048576	4	4221
2026-01-07 01:32:25.05	130.73	34.49	-22.4	-23.9	19.6	0.00e+00	0	44	102	1048576	4	4246
2026-01-07 01:32:26.06	131.07	34.37	-23.0	-24.5	19.0	0.00e+00	0	44	102	1048576	5	4295
2026-01-07 01:32:27.07	131.40	34.24	-22.7	-23.9	19.3	0.00e+00	0	44	102	1048576	5	4138
2026-01-07 01:32:28.07	131.73	34.12	-22.4	-23.4	19.5	6.80e-06	0	44	102	1048576	5	4017
2026-01-07 01:32:29.08	132.06	34.00	-22.3	-23.1	19.6	0.00e+00	0	44	102	1048576	5	3957
2026-01-07 01:32:30.09	132.38	33.88	-22.3	-23.0	19.7	0.00e+00	0	44	102	1048576	5	3932
2026-01-07 01:32:31.10	132.70	33.75	-22.4	-23.2	19.6	1.10e-06	0	44	102	1048576	5	3982
2026-01-07 01:32:32.09	133.02	33.63	-22.4	-23.4	19.5	0.00e+00	0	43	102	1048576	5	4015
2026-01-07 01:32:33.10	133.34	33.50	-22.5	-23.6	19.4	2.63e-05	0	44	102	1048576	5	4061
2026-01-07 01:32:34.11	133.65	33.38	-22.5	-23.5	19.5	0.00e+00	0	43	102	1048576	5	4043
2026-01-07 01:32:35.11	133.96	33.25	-22.5	-23.5	19.5	0.00e+00	0	44	102	1048576	5	4036
2026-01-07 01:32:36.12	134.27	33.13	-22.3	-23.1	19.7	0.00e+00	0	44	102	1048576	5	3937
2026-01-07 01:32:37.12	134.58	33.00	-22.3	-23.1	19.7	2.05e-04	0	44	102	1048576	5	3941
2026-01-07 01:32:38.12	134.88	32.87	-22.5	-23.4	19.5	3.40e-06	0	44	102	1048576	5	4034
2026-01-07 01:32:39.13	135.18	32.75	-22.3	-23.2	19.6	2.15e-04	0	44	102	1048576	5	3971
2026-01-07 01:32:40.14	135.49	32.62	-22.3	-23.0	19.7	1.07e-04	0	44	102	1048576	5	3931
2026-01-07 01:32:41.14	135.78	32.49	-22.3	-23.0	19.7	0.00e+00	0	44	102	1048576	5	3930
2026-01-07 01:32:42.15	136.08	32.36	-22.4	-23.3	19.5	8.46e-05	0	44	102	1048576	5	4002
2026-01-07 01:32:43.16	136.37	32.23	-22.3	-23.1	19.7	0.00e+00	0	44	102	1048576	5	3944
2026-01-07 01:32:44.16	136.66	32.10	-22.6	-23.6	19.4	0.00e+00	0	44	102	1048576	5	4063
2026-01-07 01:32:45.17	136.95	31.98	-22.4	-23.3	19.6	0.00e+00	0	44	102	1048576	5	3996
2026-01-07 01:32:46.18	137.24	31.85	-22.4	-23.3	19.5	0.00e+00	0	44	102	1048576	5	4002
2026-01-07 01:32:47.18	137.52	31.72	-22.6	-23.6	19.4	0.00e+00	0	44	102	1048576	5	4074
2026-01-07 01:32:48.18	137.80	31.59	-22.6	-23.7	19.3	0.00e+00	0	43	102	1048576	5	4106
2026-01-07 01:32:49.19	138.08	31.46	-22.7	-24.0	19.1	0.00e+00	0	44	102	1048576	5	4181
2026-01-07 01:32:50.20	138.36	31.33	-22.8	-24.1	19.1	0.00e+00	0	44	102	1048576	5	4200
2026-01-07 01:32:51.21	138.64	31.20	-22.7	-23.9	19.2	1.90e-04	0	44	102	1048576	5	4146
2026-01-07 01:32:52.21	138.91	31.07	-22.5	-23.5	19.4	0.00e+00	0	44	102	1048576	5	4054
2026-01-07 01:32:53.22	139.18	30.94	-22.5	-23.5	19.5	0.00e+00	0	44	102	1048576	5	4036
2026-01-07 01:32:54.23	139.45	30.81	-22.5	-23.6	19.4	0.00e+00	0	43	102	1048576	5	4056
2026-01-07 01:32:55.23	139.72	30.68	-22.4	-23.3	19.5	0.00e+00	0	44	102	1048576	5	3990
2026-01-07 01:32:56.24	139.99	30.55	-22.5	-23.5	19.4	0.00e+00	0	44	102	1048576	5	4047
2026-01-07 01:32:57.25	140.25	30.41	-22.7	-24.0	19.2	0.00e+00	0	44	102	1048576	5	4174
2026-01-07 01:32:58.25	140.51	30.28	-22.8	-24.2	19.1	0.00e+00	0	44	102	1048576	5	4221
2026-01-07 01:32:59.26	140.77	30.15	-23.0	-24.5	18.9	0.00e+00	0	44	102	1048576	5	4303
2026-01-07 01:33:00.27	141.03	30.02	-23.0	-24.6	18.9	0.00e+00	0	44	102	1048576	5	4323
2026-01-07 01:33:01.28	141.28	29.89	-23.1	-24.2	18.8	0.00e+00	0	44	102	1048576	6	4114
2026-01-07 01:33:02.29	141.54	29.76	-23.1	-24.3	18.8	0.00e+00	0	44	102	1048576	6	4117
2026-01-07 01:33:03.29	141.78	29.63	-23.0	-24.0	19.0	0.00e+00	0	44	102	1048576	6	4046
2026-01-07 01:33:04.30	142.03	29.50	-22.9	-23.8	19.0	0.00e+00	0	44	102	1048576	6	4003
2026-01-07 01:33:05.31	142.28	29.37	-22.9	-23.8	19.0	0.00e+00	0	44	102	1048576	6	4013
2026-01-07 01:33:06.31	142.53	29.24	-22.9	-23.9	19.0	0.00e+00	0	44	102	1048576	6	4017
2026-01-07 01:33:07.32	142.77	29.11	-23.0	-24.2	18.9	0.00e+00	0	44	102	1048576	6	4094
2026-01-07 01:33:08.33	143.01	28.98	-22.9	-23.9	19.0	0.00e+00	0	44	102	1048576	6	4032
2026-01-07 01:33:09.33	143.25	28.85	-22.8	-23.7	19.1	0.00e+00	0	43	102	1048576	6	3992
2026-01-07 01:33:10.34	143.49	28.71	-22.9	-23.8	19.0	0.00e+00	0	43	102	1048576	6	4002
2026-01-07 01:33:11.35	143.72	28.58	-22.9	-24.0	19.0	0.00e+00	0	44	102	1048576	6	4047
2026-01-07 01:33:12.35	143.95	28.45	-23.0	-24.2	18.8	0.00e+00	0	44	102	1048576	6	4094
2026-01-07 01:33:13.36	144.19	28.32	-23.0	-24.1	18.9	0.00e+00	0	44	102	1048576	6	4070
2026-01-07 01:33:14.36	144.41	28.19	-22.9	-23.9	19.0	0.00e+00	0	43	102	1048576	6	4029
2026-01-07 01:33:15.37	144.64	28.06	-23.0	-24.1	18.9	0.00e+00	0	44	102	1048576	6	4077
2026-01-07 01:33:16.37	144.87	27.94	-23.1	-24.2	18.8	0.00e+00	0	44	102	1048576	6	4105
2026-01-07 01:33:17.38	145.09	27.81	-22.9	-23.8	19.0	0.00e+00	0	44	102	1048576	6	3995
2026-01-07 01:33:18.39	145.32	27.68	-22.8	-23.6	19.1	0.00e+00	0	44	102	1048576	6	3951
2026-01-07 01:33:19.40	145.54	27.55	-22.8	-23.7	19.0	0.00e+00	0	43	102	1048576	6	3986
2026-01-07 01:33:20.40	145.76	27.42	-22.9	-24.0	18.9	0.00e+00	0	44	102	1048576	6	4043
2026-01-07 01:33:21.41	145.97	27.29	-23.0	-24.0	18.9	0.00e+00	0	44	102	1048576	6	4058
2026-01-07 01:33:22.42	146.19	27.16	-23.0	-24.2	18.8	0.00e+00	0	43	102	1048576	6	4102
2026-01-07 01:33:23.42	146.40	27.03	-23.0	-24.1	18.9	0.00e+00	0	43	102	1048576	6	4076
2026-01-07 01:33:24.43	146.62	26.90	-23.0	-24.1	18.9	0.00e+00	0	44	102	1048576	6	4068
2026-01-07 01:33:25.44	146.83	26.77	-22.9	-23.8	19.0	0.00e+00	0	44	102	1048576	6	4012
2026-01-07 01:33:26.45	147.04	26.65	-22.8	-23.6	19.1	0.00e+00	0	44	102	1048576	6	3960
2026-01-07 01:33:27.46	147.24	26.52	-22.8	-23.5	19.1	0.00e+00	0	44	102	1048576	6	3941
2026-01-07 01:33:28.46	147.45	26.39	-22.8	-23.6	19.1	0.00e+00	0	44	102	1048576	6	3949
2026-01-07 01:33:29.47	147.65	26.26	-22.8	-23.7	19.0	0.00e+00	0	44	102	1048576	6	3969
2026-01-07 01:33:30.47	147.86	26.14	-22.3	-23.0	19.0	0.00e+00	0	44	102	1048576	6	3884
2026-01-07 01:33:31.48	148.06	26.01	-22.8	-23.7	19.0	3.40e-06	0	44	102	1048576	6	3980
2026-01-07 01:33:32.49	148.26	25.88	-22.9	-23.9	18.9	0.00e+00	0	44	102	1048576	6	4031
2026-01-07 01:33:33.49	148.45	25.76	-23.0	-24.1	18.8	1.33e-03	0	44	102	1048576	6	4084
2026-01-07 01:33:34.50	148.65	25.63	-23.1	-24.2	18.8	1.10e-06	0	44	102	1048576	6	4114
2026-01-07 01:33:35.51	148.85	25.50	-23.1	-24.3	18.7	1.31e-03	0	43	102	1048576	6	4136
2026-01-07 01:33:36.51	149.04	25.38	-23.1	-24.4	18.7	0.00e+00	0	44	102	1048576	6	4147
2026-01-07 01:33:37.52	149.23	25.25	-23.2	-24.4	18.6	1.10e-06	0	44	102	1048576	6	4161
2026-01-07 01:33:38.53	149.42	25.13	-23.2	-24.4	18.6	5.00e-04	0	44	102	1048576	6	4164
2026-01-07 01:33:39.52	149.61	25.00	-23.1	-24.2	18.8	0.00e+00	0	43	102	1048576	6	4092
2026-01-07 01:33:40.53	149.79	24.88	-23.1	-24.2	18.8	0.00e+00	0	44	102	1048576	6	4103
2026-01-07 01:33:41.53	149.98	24.76	-23.2	-24.5	18.6	0.00e+00	0	44	102	1048576	6	4187
2026-01-07 01:33:42.54	150.16	24.63	-23.3	-24.6	18.6	1.34e-03	0	44	102	1048576	6	4206
2026-01-07 01:33:43.54	150.35	24.51	-23.2	-24.4	18.7	0.00e+00	0	44	102	1048576	6	4160
2026-01-07 01:33:44.55	150.53	24.38	-23.3	-24.7	18.5	1.23e-03	0	44	102	1048576	6	4227
2026-01-07 01:33:45.56	150.71	24.26	-23.3	-24.8	18.5	1.21e-03	0	43	102	1048576	6	4248
2026-01-07 01:33:46.56	150.89	24.14	-23.2	-24.6	18.6	0.00e+00	0	44	102	1048576	6	4201
2026-01-07 01:33:47.57	151.07	24.02	-23.2	-24.5	18.6	1.31e-03	0	44	102	1048576	6	4177
2026-01-07 01:33:48.57	151.24	23.89	-23.2	-24.5	18.6	0.00e+00	0	44	102	1048576	6	4178
2026-01-07 01:33:49.58	151.42	23.77	-23.2	-24.6	18.5	0.00e+00	0	44	102	1048576	6	4198
2026-01-07 01:33:50.59	151.59	23.65	-23.3	-24.6	18.5	1.12e-03	0	43	102	1048576	6	4213
2026-01-07 01:33:51.60	151.76	23.53	-23.2	-24.5	18.5	1.25e-03	0	43	102	1048576	6	4183
2026-01-07 01:33:52.60	151.93	23.41	-23.3	-24.7	18.5	0.00e+00	0	44	102	1048576	6	4221
2026-01-07 01:33:53.61	152.10	23.29	-23.3	-24.7	18.4	1.20e-03	0	44	102	1048576	6	4242
2026-01-07 01:33:54.62	152.27	23.17	-23.4	-24.8	18.4	1.14e-03	0	44	102	1048576	6	4256
2026-01-07 01:33:55.63	152.44	23.05	-23.4	-24.9	18.3	0.00e+00	0	44	102	1048576	6	4281
2026-01-07 01:33:56.62	152.60	22.93	-23.5	-25.0	18.2	1.19e-03	0	43	102	1048576	6	4314
2026-01-07 01:33:57.63	152.77	22.81	-23.5	-24.7	18.2	0.00e+00	0	44	102	1048576	7	4110
2026-01-07 01:33:58.63	152.93	22.69	-23.7	-25.0	18.0	0.00e+00	0	44	102	1048576	7	4191
2026-01-07 01:33:59.64	153.10	22.57	-23.7	-25.0	18.0	1.15e-03	0	44	102	1048576	7	4208
2026-01-07 01:34:00.65	153.26	22.45	-23.8	-25.2	17.9	1.22e-03	0	44	102	1048576	7	4254
2026-01-07 01:34:01.65	153.42	22.33	-23.8	-25.3	17.8	0.00e+00	0	44	102	1048576	7	4275
2026-01-07 01:34:02.66	153.58	22.22	-23.9	-25.5	17.7	0.00e+00	0	43	102	1048576	7	4339
2026-01-07 01:34:03.67	153.73	22.10	-24.0	-25.1	17.7	1.18e-03	0	43	102	1048576	8	4107
2026-01-07 01:34:04.68	153.89	21.98	-23.8	-24.9	17.8	0.00e+00	0	44	102	1048576	8	4050
2026-01-07 01:34:05.68	154.04	21.86	-23.9	-24.9	17.8	1.08e-03	0	44	102	1048576	8	4058
2026-01-07 01:34:06.68	154.20	21.75	-23.9	-24.9	17.8	0.00e+00	0	44	102	1048576	8	4052
2026-01-07 01:34:07.69	154.35	21.63	-23.8	-24.9	17.8	0.00e+00	0	44	102	1048576	8	4053
2026-01-07 01:34:08.70	154.50	21.51	-23.8	-24.8	17.9	0.00e+00	0	44	102	1048576	8	4029
2026-01-07 01:34:09.71	154.66	21.40	-23.9	-24.9	17.8	0.00e+00	0	44	102	1048576	8	4063
2026-01-07 01:34:10.71	154.80	21.28	-23.8	-24.8	17.9	0.00e+00	0	44	102	1048576	8	4038
2026-01-07 01:34:11.72	154.95	21.17	-23.8	-24.7	17.9	0.00e+00	0	44	102	1048576	8	4008
2026-01-07 01:34:12.73	155.10	21.05	-23.9	-25.0	17.8	1.25e-03	0	44	102	1048576	8	4083
2026-01-07 01:34:13.74	155.25	20.94	-24.0	-25.1	17.7	0.00e+00	0	44	102	1048576	8	4103
2026-01-07 01:34:14.75	155.39	20.83	-23.9	-25.0	17.7	0.00e+00	0	44	102	1048576	8	4085
2026-01-07 01:34:15.76	155.54	20.71	-24.0	-25.3	17.6	0.00e+00	0	44	102	1048576	8	4154
2026-01-07 01:34:16.76	155.68	20.60	-24.1	-25.4	17.6	0.00e+00	0	44	102	1048576	8	4189
2026-01-07 01:34:17.76	155.82	20.49	-24.2	-25.6	17.4	0.00e+00	0	43	102	1048576	8	4248
2026-01-07 01:34:18.77	155.97	20.37	-24.2	-25.7	17.4	0.00e+00	0	44	102	1048576	8	4285
2026-01-07 01:34:19.78	156.11	20.26	-24.3	-25.9	17.3	0.00e+00	0	44	102	1048576	8	4326
2026-01-07 01:34:20.79	156.25	20.15	-24.5	-26.2	17.1	0.00e+00	0	44	102	1048576	8	4402
2026-01-07 01:34:21.79	156.38	20.04	-24.4	-25.5	17.2	0.00e+00	0	44	102	1048576	9	4102
2026-01-07 01:34:22.80	156.52	19.93	-24.2	-25.2	17.4	0.00e+00	0	44	102	1048576	9	4028
2026-01-07 01:34:23.80	156.66	19.82	-24.2	-25.6	17.4	0.00e+00	0	44	102	1048576	8	4251
2026-01-07 01:34:24.81	156.79	19.71	-24.2	-25.5	17.5	1.25e-04	0	44	102	1048576	8	4222
2026-01-07 01:34:25.81	156.93	19.60	-24.2	-25.6	17.5	0.00e+00	0	44	102	1048576	8	4230
2026-01-07 01:34:26.82	157.06	19.49	-24.2	-25.5	17.5	1.12e-04	0	44	102	1048576	8	4213
2026-01-07 01:34:27.83	157.19	19.38	-24.2	-25.5	17.5	6.75e-05	0	44	102	1048576	8	4216
2026-01-07 01:34:28.84	157.33	19.27	-24.1	-25.5	17.5	0.00e+00	0	44	102	1048576	8	4199
2026-01-07 01:34:29.84	157.46	19.16	-24.2	-25.6	17.5	1.02e-05	0	44	102	1048576	8	4237
2026-01-07 01:34:30.85	157.59	19.05	-24.2	-25.6	17.4	6.80e-06	0	44	102	1048576	8	4242
2026-01-07 01:34:31.85	157.72	18.94	-24.3	-25.7	17.4	0.00e+00	0	44	102	1048576	8	4271
2026-01-07 01:34:32.86	157.84	18.83	-24.3	-25.7	17.4	0.00e+00	0	43	102	1048576	8	4269
2026-01-07 01:34:33.86	157.97	18.73	-24.4	-26.1	17.2	4.50e-06	0	44	102	1048576	8	4368
2026-01-07 01:34:34.87	158.10	18.62	-24.4	-26.0	17.2	0.00e+00	0	44	102	1048576	8	4329
2026-01-07 01:34:35.88	158.22	18.51	-24.3	-25.9	17.2	0.00e+00	0	44	102	1048576	8	4309
2026-01-07 01:34:36.88	158.35	18.41	-24.4	-26.0	17.2	4.50e-06	0	44	102	1048576	8	4343
2026-01-07 01:34:37.88	158.47	18.30	-24.3	-25.9	17.2	0.00e+00	0	44	102	1048576	8	4324
2026-01-07 01:34:38.88	158.59	18.19	-24.3	-25.9	17.2	0.00e+00	0	44	102	1048576	8	4319
2026-01-07 01:34:39.89	158.72	18.09	-24.5	-26.2	17.1	0.00e+00	0	44	102	1048576	8	4396
2026-01-07 01:34:40.89	158.84	17.98	-24.5	-26.2	17.0	0.00e+00	0	44	102	1048576	8	4399
2026-01-07 01:34:41.90	158.96	17.88	-24.6	-26.1	16.9	0.00e+00	0	44	102	1048576	9	4243
2026-01-07 01:34:42.91	159.08	17.77	-24.9	-26.5	16.6	5.70e-06	0	44	102	1048576	9	4369
2026-01-07 01:34:43.90	159.20	17.67	-24.7	-26.3	16.8	0.00e+00	0	44	102	1048576	9	4295
2026-01-07 01:34:44.91	159.31	17.57	-24.7	-26.2	16.8	0.00e+00	0	44	102	1048576	9	4293
2026-01-07 01:34:45.92	159.43	17.46	-24.8	-26.4	16.7	1.48e-05	0	43	102	1048576	9	4340
2026-01-07 01:34:46.92	159.55	17.36	-24.9	-26.7	16.5	0.00e+00	0	44	102	1048576	9	4425
2026-01-07 01:34:47.93	159.66	17.26	-24.9	-26.6	16.6	0.00e+00	0	44	102	1048576	9	4378
2026-01-07 01:34:48.93	159.78	17.16	-24.9	-26.6	16.6	0.00e+00	0	44	102	1048576	9	4383
2026-01-07 01:34:49.94	159.89	17.05	-24.9	-26.7	16.5	0.00e+00	0	43	102	1048576	9	4418
2026-01-07 01:34:50.95	160.01	16.95	-25.0	-26.4	16.4	0.00e+00	0	44	102	1048576	10	4223
2026-01-07 01:34:51.96	160.12	16.85	-25.0	-26.3	16.5	0.00e+00	0	44	102	1048576	10	4204
2026-01-07 01:34:52.97	160.23	16.75	-25.0	-26.3	16.5	0.00e+00	0	44	102	1048576	10	4193
2026-01-07 01:34:53.97	160.34	16.65	-25.1	-26.7	16.3	0.00e+00	0	43	102	1048576	10	4293
2026-01-07 01:34:54.97	160.46	16.55	-25.1	-26.5	16.4	1.10e-06	0	44	102	1048576	10	4258
2026-01-07 01:34:55.98	160.57	16.45	-24.9	-26.2	16.5	0.00e+00	0	44	102	1048576	10	4161
2026-01-07 01:34:56.98	160.67	16.35	-24.9	-26.1	16.6	0.00e+00	0	44	102	1048576	10	4151
2026-01-07 01:34:57.99	160.78	16.25	-25.0	-26.2	16.5	0.00e+00	0	44	102	1048576	10	4176
2026-01-07 01:34:59.00	160.89	16.15	-24.9	-26.1	16.6	0.00e+00	0	44	102	1048576	10	4144
2026-01-07 01:35:00.00	161.00	16.05	-25.1	-26.5	16.3	1.40e-03	0	44	102	1048576	10	4259
2026-01-07 01:35:01.00	161.10	15.95	-25.0	-26.3	16.4	0.00e+00	0	44	102	1048576	10	4194
2026-01-07 01:35:02.01	161.21	15.85	-24.9	-26.2	16.5	0.00e+00	0	44	102	1048576	10	4170
2026-01-07 01:35:03.01	161.32	15.75	-25.0	-26.4	16.4	0.00e+00	0	44	102	1048576	10	4232
2026-01-07 01:35:04.02	161.42	15.66	-25.0	-26.4	16.4	1.30e-04	0	44	102	1048576	10	4236
2026-01-07 01:35:05.03	161.52	15.56	-25.1	-26.6	16.3	4.18e-04	0	44	102	1048576	10	4285
2026-01-07 01:35:06.04	161.63	15.46	-25.3	-27.1	16.0	0.00e+00	0	44	102	1048576	10	4411
2026-01-07 01:35:07.04	161.73	15.36	-25.2	-26.8	16.2	2.20e-06	0	44	102	1048576	10	4329
2026-01-07 01:35:08.04	161.83	15.27	-25.2	-26.8	16.2	0.00e+00	0	44	102	1048576	10	4331
2026-01-07 01:35:09.05	161.93	15.17	-25.3	-27.1	16.0	1.46e-03	0	44	102	1048576	10	4412
2026-01-07 01:35:10.06	162.03	15.07	-25.3	-27.0	16.0	0.00e+00	0	44	102	1048576	10	4392
2026-01-07 01:35:11.06	162.13	14.98	-25.4	-27.2	15.9	1.49e-03	0	44	102	1048576	10	4458
2026-01-07 01:35:12.07	162.23	14.88	-25.3	-27.1	16.0	1.57e-03	0	44	102	1048576	10	4426
2026-01-07 01:35:13.08	162.33	14.79	-25.4	-27.3	15.9	4.00e-05	0	44	102	1048576	10	4481
2026-01-07 01:35:14.08	162.43	14.69	-25.3	-27.1	15.9	1.49e-03	0	44	102	1048576	10	4426
2026-01-07 01:35:15.09	162.53	14.60	-25.3	-27.1	15.9	0.00e+00	0	44	102	1048576	10	4430
2026-01-07 01:35:16.10	162.63	14.50	-25.4	-27.3	15.8	7.09e-05	0	43	102	1048576	10	4485
2026-01-07 01:35:17.10	162.72	14.41	-25.4	-27.2	15.9	5.57e-04	0	44	102	1048576	10	4438
2026-01-07 01:35:18.11	162.82	14.32	-25.5	-26.9	15.8	1.47e-03	0	44	102	1048576	11	4245
2026-01-07 01:35:19.12	162.91	14.22	-25.4	-26.8	15.9	7.89e-05	0	44	102	1048576	11	4203
2026-01-07 01:35:20.13	163.01	14.13	-25.4	-26.8	15.8	1.55e-03	0	44	102	1048576	11	4224
2026-01-07 01:35:21.13	163.10	14.04	-25.5	-26.9	15.8	1.62e-03	0	44	102	1048576	11	4248
2026-01-07 01:35:22.14	163.20	13.94	-25.6	-27.1	15.7	8.23e-05	0	44	102	1048576	11	4297
2026-01-07 01:35:23.14	163.29	13.85	-25.5	-27.0	15.7	1.57e-03	0	44	102	1048576	11	4264
2026-01-07 01:35:24.15	163.38	13.76	-25.6	-27.2	15.6	1.37e-05	0	44	102	1048576	11	4328
2026-01-07 01:35:25.16	163.48	13.67	-25.4	-26.8	15.8	1.71e-05	0	44	102	1048576	11	4216
2026-01-07 01:35:26.17	163.57	13.58	-25.4	-26.8	15.8	1.45e-03	0	44	102	1048576	11	4225
2026-01-07 01:35:27.18	163.66	13.49	-25.5	-27.0	15.7	1.43e-03	0	44	102	1048576	11	4268
2026-01-07 01:35:28.18	163.75	13.40	-25.7	-27.3	15.6	2.05e-05	0	44	102	1048576	11	4360
2026-01-07 01:35:29.18	163.84	13.31	-25.8	-27.6	15.4	0.00e+00	0	44	102	1048576	11	4443
2026-01-07 01:35:30.19	163.93	13.21	-25.8	-27.7	15.3	1.56e-03	0	44	102	1048576	11	4478
2026-01-07 01:35:31.20	164.02	13.12	-25.7	-27.4	15.4	0.00e+00	0	44	102	1048576	11	4402
2026-01-07 01:35:32.21	164.11	13.03	-25.7	-27.4	15.4	1.60e-03	0	44	102	1048576	11	4397
2026-01-07 01:35:33.21	164.19	12.95	-25.9	-27.8	15.2	1.02e-05	0	44	102	1048576	11	4515
2026-01-07 01:35:34.22	164.28	12.86	-25.8	-27.6	15.3	5.70e-06	0	43	102	1048576	11	4458
2026-01-07 01:35:35.22	164.37	12.77	-25.8	-27.8	15.3	1.55e-03	0	44	102	1048576	11	4496
2026-01-07 01:35:36.23	164.45	12.68	-25.9	-27.9	15.2	1.25e-05	0	44	102	1048576	11	4529
2026-01-07 01:35:37.23	164.54	12.59	-26.0	-28.0	15.1	0.00e+00	0	44	102	1048576	11	4567
2026-01-07 01:35:38.24	164.62	12.50	-25.9	-28.0	15.2	0.00e+00	0	44	102	1048576	11	4545
2026-01-07 01:35:39.25	164.71	12.41	-25.9	-27.4	15.1	1.59e-03	0	43	102	1048576	12	4289
2026-01-07 01:35:40.24	164.79	12.33	-25.9	-27.4	15.2	2.20e-06	0	44	102	1048576	12	4265
2026-01-07 01:35:41.25	164.88	12.24	-25.9	-27.4	15.1	0.00e+00	0	44	102	1048576	12	4268
2026-01-07 01:35:42.26	164.96	12.15	-25.9	-28.0	15.1	1.37e-05	0	44	102	1048576	11	4545
2026-01-07 01:35:43.26	165.04	12.07	-26.0	-27.6	15.0	0.00e+00	0	44	102	1048576	12	4331
2026-01-07 01:35:44.27	165.12	11.98	-26.3	-28.2	14.7	1.10e-06	0	43	102	1048576	12	4489
2026-01-07 01:35:45.27	165.21	11.89	-26.4	-28.5	14.5	1.25e-05	0	44	102	1048576	12	4579
2026-01-07 01:35:46.28	165.29	11.81	-26.1	-27.8	14.9	0.00e+00	0	44	102	1048576	12	4393
2026-01-07 01:35:47.28	165.37	11.72	-25.9	-27.3	15.2	0.00e+00	0	44	102	1048576	12	4249
2026-01-07 01:35:48.29	165.45	11.64	-25.9	-28.0	15.1	1.37e-05	0	44	102	1048576	11	4558
2026-01-07 01:35:49.30	165.53	11.55	-25.9	-27.5	15.0	0.00e+00	0	43	102	1048576	12	4301
2026-01-07 01:35:50.31	165.61	11.46	-26.0	-28.0	15.1	0.00e+00	0	44	102	1048576	11	4567
2026-01-07 01:35:51.31	165.69	11.38	-26.0	-28.1	15.1	0.00e+00	0	44	102	1048576	11	4578
2026-01-07 01:35:52.31	165.77	11.30	-26.0	-27.6	15.0	0.00e+00	0	43	102	1048576	12	4332
2026-01-07 01:35:53.31	165.85	11.21	-26.0	-27.6	14.9	1.10e-06	0	44	102	1048576	12	4344
2026-01-07 01:35:54.32	165.92	11.13	-25.4	-27.0	14.8	0.00e+00	0	43	102	1048576	12	4306
2026-01-07 01:35:55.33	166.00	11.04	-26.0	-27.6	15.0	0.00e+00	0	44	102	1048576	12	4332
2026-01-07 01:35:56.33	166.08	10.96	-26.0	-27.6	14.9	0.00e+00	0	43	102	1048576	12	4347
2026-01-07 01:35:57.34	166.16	10.88	-26.1	-27.8	14.8	3.62e-04	0	44	102	1048576	12	4399
2026-01-07 01:35:58.35	166.23	10.79	-26.1	-27.8	14.9	1.10e-06	0	44	102	1048576	12	4384
2026-01-07 01:35:59.36	166.31	10.71	-26.2	-28.1	14.7	0.00e+00	0	44	102	1048576	12	4467
2026-01-07 01:36:00.36	166.38	10.63	-26.2	-28.1	14.6	3.40e-06	0	44	102	1048576	12	4485
2026-01-07 01:36:01.37	166.46	10.55	-26.1	-27.8	14.8	0.00e+00	0	44	102	1048576	12	4402
2026-01-07 01:36:02.37	166.53	10.46	-26.0	-27.7	14.8	5.29e-04	0	44	102	1048576	12	4374
2026-01-07 01:36:03.38	166.61	10.38	-26.0	-27.7	14.9	0.00e+00	0	43	102	1048576	12	4359
2026-01-07 01:36:04.39	166.68	10.30	-26.0	-27.6	14.9	1.10e-06	0	44	102	1048576	12	4346
2026-01-07 01:36:05.40	166.76	10.22	-26.1	-27.9	14.8	1.10e-06	0	44	102	1048576	12	4420
2026-01-07 01:36:06.41	166.83	10.14	-26.1	-28.0	14.7	6.80e-04	0	43	102	1048576	12	4442
2026-01-07 01:36:07.41	166.90	10.06	-26.0	-27.7	14.9	1.10e-06	0	44	102	1048576	12	4356
2026-01-07 01:36:08.41	166.97	9.98	-26.0	-27.6	14.9	0.00e+00	0	43	102	1048576	12	4347
2026-01-07 01:36:09.42	167.05	9.89	-26.0	-27.7	14.8	7.53e-04	0	44	102	1048576	12	4380
2026-01-07 01:36:10.43	167.12	9.81	-26.1	-27.8	14.8	1.10e-06	0	44	102	1048576	12	4390
2026-01-07 01:36:11.44	167.19	9.73	-26.1	-27.9	14.7	6.89e-04	0	44	102	1048576	12	4406
2026-01-07 01:36:12.45	167.26	9.65	-26.2	-28.2	14.5	1.10e-06	0	44	102	1048576	12	4494
2026-01-07 01:36:13.45	167.33	9.57	-26.2	-28.2	14.5	1.10e-06	0	44	102	1048576	12	4509
2026-01-07 01:36:14.45	167.40	9.50	-26.3	-28.3	14.4	6.21e-04	0	44	102	1048576	12	4552
2026-01-07 01:36:15.46	167.47	9.42	-26.3	-28.3	14.4	5.48e-04	0	44	102	1048576	12	4543
2026-01-07 01:36:16.47	167.54	9.34	-26.3	-28.3	14.4	1.10e-06	0	44	102	1048576	12	4549
2026-01-07 01:36:17.48	167.61	9.26	-26.3	-28.4	14.4	4.34e-04	0	44	102	1048576	12	4569
2026-01-07 01:36:18.48	167.68	9.18	-26.4	-28.6	14.2	4.32e-04	0	44	102	1048576	12	4646
2026-01-07 01:36:19.49	167.75	9.10	-26.6	-28.6	14.0	5.70e-06	0	44	102	1048576	13	4512
2026-01-07 01:36:20.49	167.81	9.02	-26.7	-28.8	13.7	4.78e-04	0	44	102	1048576	13	4592
2026-01-07 01:36:21.50	167.88	8.94	-26.1	-28.4	13.7	3.87e-04	0	44	102	1048576	13	4659
2026-01-07 01:36:22.50	167.95	8.87	-26.8	-29.1	11.8	1.83e-05	0	44	102	1048576	13	4660
2026-01-07 01:36:23.51	168.01	8.79	-26.7	-28.7	12.8	4.11e-04	0	44	102	1048576	13	4555
2026-01-07 01:36:24.52	168.08	8.71	-26.7	-28.8	13.8	4.42e-04	0	44	102	1048576	13	4571
2026-01-07 01:36:25.52	168.15	8.64	-26.7	-28.7	13.9	9.10e-06	0	44	102	1048576	13	4542
2026-01-07 01:36:26.53	168.21	8.56	-26.7	-28.9	13.7	1.90e-03	0	44	102	1048576	13	4612
2026-01-07 01:36:27.53	168.28	8.48	-26.7	-28.9	13.8	5.13e-04	0	44	102	1048576	13	4605
2026-01-07 01:36:28.54	168.34	8.41	-26.8	-29.0	13.7	1.42e-03	0	44	102	1048576	13	4660
2026-01-07 01:36:29.55	168.41	8.33	-26.8	-29.0	13.7	6.86e-04	0	44	102	1048576	13	4631
2026-01-07 01:36:30.55	168.47	8.25	-26.8	-28.9	13.7	7.28e-04	0	44	102	1048576	13	4630
2026-01-07 01:36:31.56	168.54	8.18	-26.9	-29.4	13.5	1.71e-05	0	44	102	1048576	13	4759
2026-01-07 01:36:32.57	168.60	8.10	-27.1	-29.2	13.3	7.24e-04	0	44	102	1048576	14	4598
2026-01-07 01:36:33.58	168.67	8.02	-27.3	-29.6	13.0	1.83e-04	0	44	102	1048576	14	4714
2026-01-07 01:36:34.58	168.73	7.95	-27.2	-29.4	13.2	5.03e-05	0	44	102	1048576	14	4652
2026-01-07 01:36:35.59	168.79	7.87	-27.3	-29.6	13.0	1.48e-03	0	44	102	1048576	14	4717
2026-01-07 01:36:36.60	168.86	7.80	-27.3	-29.7	13.0	6.61e-04	0	44	102	1048576	14	4736
2026-01-07 01:36:37.61	168.92	7.72	-27.2	-29.5	13.1	1.57e-03	0	44	102	1048576	14	4674
2026-01-07 01:36:38.61	168.98	7.65	-27.3	-29.7	12.9	2.21e-03	0	44	102	1048576	14	4748
2026-01-07 01:36:39.61	169.04	7.58	-27.4	-30.0	12.8	2.39e-04	0	44	102	1048576	14	4834
2026-01-07 01:36:40.61	169.10	7.50	-27.3	-29.8	12.9	1.48e-03	0	44	102	1048576	14	4772
2026-01-07 01:36:41.62	169.17	7.43	-27.3	-29.7	12.9	6.95e-04	0	44	102	1048576	14	4764
2026-01-07 01:36:42.62	169.23	7.36	-27.0	-29.1	13.3	1.23e-04	0	44	102	1048576	14	4560
2026-01-07 01:36:43.63	169.29	7.28	-27.0	-29.1	13.3	6.45e-04	0	44	102	1048576	14	4551
2026-01-07 01:36:44.64	169.35	7.21	-26.9	-29.2	13.4	1.42e-03	0	44	102	1048576	13	4703
2026-01-07 01:36:45.64	169.41	7.14	-26.9	-29.3	13.4	4.67e-04	0	44	102	1048576	13	4723
2026-01-07 01:36:46.65	169.47	7.06	-32.4	-42.9	3.8	6.23e-01	0	44	104	1048576	24	12140
2026-01-07 01:36:47.66	169.53	6.99	-32.7	-43.8	3.8	8.47e-01	0	43	104	1048576	25	13034
2026-01-07 01:36:48.67	169.59	6.92	-32.9	-44.3	3.8	8.47e-01	0	44	104	1048576	25	13362

#Closed at: 2026-01-07 01:36:48
#Recorded file [1 MB]: D:/data/31010_260107_042522.dat