passes_logs/2026/01/07/R2M6_AANII_01/R2M6_AANII_01__20260107_022611_NOAA_20_JPSS-1_rec.log

#Pass ID: 20260107_022611_NOAA 20 (JPSS-1)
#Satellite: NOAA 20 (JPSS-1)
#Configuration: NOAA 20
#almurnet v.1.7.20240730
#Start time: 2026-01-07 02:26:10

#Version: 2.2.20231116
#Station: R2M6_AANII_01
#Location: 30.233357 lon 59.946436 lat
#TLE: 1 43013U 17073A   26006.30790171  .00000126  00000+0  80695-4 0  9991
#TLE: 2 43013  98.7629 307.3394 0001808  51.8724 308.2615 14.19533762421505

#Time	Az	El	Level	Level2	SNR	BER	BlckErr	Temp	State	Recorded	gain1	gain2
2026-01-07 02:26:10.99	9.86	6.99	-32.3	-43.1	4.0	1.46e+00	0	41	0	0	24	12363
2026-01-07 02:26:11.99	9.76	7.05	-32.1	-40.8	4.3	1.39e+00	0	41	104	0	24	9828
2026-01-07 02:26:13.00	9.66	7.11	-32.1	-40.7	5.3	5.41e-01	0	41	0	0	24	9697
2026-01-07 02:26:14.01	9.56	7.17	-32.1	-40.5	5.4	5.24e-01	0	41	102	1048576	24	9537
2026-01-07 02:26:15.02	9.46	7.23	-32.1	-40.5	5.4	5.20e-01	0	41	102	1048576	24	9537
2026-01-07 02:26:16.03	9.36	7.30	-32.1	-40.8	5.3	5.48e-01	0	41	102	1048576	24	9761
2026-01-07 02:26:17.03	9.26	7.36	-32.1	-40.4	5.5	5.37e-01	0	41	102	1048576	24	9416
2026-01-07 02:26:18.03	9.16	7.42	-32.1	-40.6	5.4	4.82e-01	0	41	102	1048576	24	9578
2026-01-07 02:26:19.04	9.06	7.48	-32.1	-40.4	5.6	5.01e-01	0	41	102	1048576	24	9371
2026-01-07 02:26:20.05	8.96	7.54	-32.2	-41.2	5.1	5.69e-01	0	41	102	1048576	24	10139
2026-01-07 02:26:21.06	8.86	7.61	-32.1	-40.4	5.6	5.04e-01	0	42	102	1048576	24	9341
2026-01-07 02:26:22.07	8.76	7.67	-32.0	-39.5	6.1	3.64e-01	0	41	102	1048576	24	8586
2026-01-07 02:26:23.08	8.65	7.73	-31.8	-38.5	6.9	2.32e-01	0	41	102	1048576	24	7734
2026-01-07 02:26:24.09	8.55	7.79	-31.7	-38.2	7.5	1.20e-01	0	42	102	1048576	23	7612
2026-01-07 02:26:25.10	8.45	7.86	-31.5	-37.3	8.2	7.49e-02	0	42	102	1048576	23	7005
2026-01-07 02:26:26.11	8.34	7.92	-31.3	-36.5	8.8	4.02e-02	0	42	102	1048576	23	6565
2026-01-07 02:26:27.11	8.24	7.98	-31.1	-36.4	9.3	1.89e-02	0	42	102	1048576	22	6587
2026-01-07 02:26:28.11	8.13	8.05	-31.0	-35.9	9.7	1.18e-02	0	42	102	1048576	22	6308
2026-01-07 02:26:29.11	8.03	8.11	-30.9	-35.4	10.1	8.07e-03	0	42	102	1048576	22	6071
2026-01-07 02:26:30.12	7.92	8.17	-30.0	-35.1	10.1	6.77e-03	0	42	102	1048576	21	6447
2026-01-07 02:26:31.13	7.82	8.23	-30.9	-36.0	10.0	7.15e-03	0	42	102	1048576	21	6456
2026-01-07 02:26:32.12	7.71	8.30	-30.9	-35.8	9.9	6.58e-03	0	42	102	1048576	21	6374
2026-01-07 02:26:33.13	7.60	8.36	-30.8	-35.7	9.8	6.35e-03	0	42	102	1048576	21	6335
2026-01-07 02:26:34.14	7.50	8.42	-30.9	-35.9	10.2	5.56e-03	0	42	102	1048576	21	6404
2026-01-07 02:26:35.14	7.39	8.49	-30.9	-36.0	10.1	5.63e-03	0	42	102	1048576	21	6444
2026-01-07 02:26:36.15	7.28	8.55	-31.0	-35.7	10.0	8.00e-03	0	42	102	1048576	22	6177
2026-01-07 02:26:37.14	7.17	8.61	-30.9	-36.0	10.1	6.57e-03	0	42	102	1048576	21	6443
2026-01-07 02:26:38.15	7.06	8.68	-31.0	-36.2	9.9	7.51e-03	0	42	102	1048576	21	6575
2026-01-07 02:26:39.15	6.95	8.74	-30.9	-36.0	10.1	8.34e-03	0	42	102	1048576	21	6456
2026-01-07 02:26:40.16	6.84	8.80	-30.9	-35.9	10.2	6.22e-03	0	42	102	1048576	21	6404
2026-01-07 02:26:41.16	6.73	8.87	-30.9	-36.0	10.1	9.68e-03	0	42	102	1048576	21	6454
2026-01-07 02:26:42.17	6.62	8.93	-31.0	-36.0	10.1	6.42e-03	0	42	102	1048576	21	6459
2026-01-07 02:26:43.17	6.51	8.99	-31.0	-36.1	10.1	6.09e-03	0	42	102	1048576	21	6478
2026-01-07 02:26:44.18	6.39	9.06	-30.9	-36.0	10.2	9.15e-03	0	42	102	1048576	21	6429
2026-01-07 02:26:45.19	6.28	9.12	-30.9	-35.9	10.2	5.92e-03	0	42	102	1048576	21	6401
2026-01-07 02:26:46.19	6.17	9.18	-30.9	-35.8	10.3	5.26e-03	0	42	102	1048576	21	6334
2026-01-07 02:26:47.19	6.05	9.25	-30.8	-35.7	10.4	4.72e-03	0	42	102	1048576	21	6263
2026-01-07 02:26:48.19	5.94	9.31	-30.8	-35.5	10.5	7.06e-03	0	42	102	1048576	21	6205
2026-01-07 02:26:49.20	5.82	9.38	-30.8	-35.6	10.5	3.78e-03	0	42	102	1048576	21	6221
2026-01-07 02:26:50.20	5.71	9.44	-30.9	-35.7	10.4	4.36e-03	0	42	102	1048576	21	6301
2026-01-07 02:26:51.21	5.59	9.50	-30.8	-35.6	10.4	7.69e-03	0	42	102	1048576	21	6239
2026-01-07 02:26:52.22	5.47	9.57	-30.8	-35.6	10.5	4.53e-03	0	42	102	1048576	21	6243
2026-01-07 02:26:53.23	5.36	9.63	-30.9	-35.7	10.4	4.03e-03	0	42	102	1048576	21	6270
2026-01-07 02:26:54.23	5.24	9.70	-30.8	-35.5	10.6	6.67e-03	0	42	102	1048576	21	6192
2026-01-07 02:26:55.23	5.12	9.76	-30.8	-35.5	10.6	3.60e-03	0	42	102	1048576	21	6162
2026-01-07 02:26:56.24	5.00	9.83	-30.9	-35.7	10.5	3.63e-03	0	42	102	1048576	21	6268
2026-01-07 02:26:57.24	4.88	9.89	-30.9	-35.7	10.4	8.02e-03	0	42	102	1048576	21	6295
2026-01-07 02:26:58.25	4.76	9.95	-30.9	-35.7	10.4	4.54e-03	0	42	102	1048576	21	6278
2026-01-07 02:26:59.25	4.64	10.02	-30.8	-35.6	10.6	6.94e-03	0	42	102	1048576	21	6216
2026-01-07 02:27:00.26	4.52	10.08	-30.9	-35.7	10.5	4.30e-03	0	42	102	1048576	21	6258
2026-01-07 02:27:01.27	4.40	10.15	-30.9	-35.8	10.4	4.79e-03	0	42	102	1048576	21	6297
2026-01-07 02:27:02.27	4.28	10.21	-31.0	-35.9	10.3	8.40e-03	0	43	102	1048576	21	6381
2026-01-07 02:27:03.27	4.16	10.28	-30.9	-35.8	10.4	3.91e-03	0	42	102	1048576	21	6317
2026-01-07 02:27:04.28	4.03	10.34	-31.1	-35.8	10.0	6.90e-03	0	42	102	1048576	22	6213
2026-01-07 02:27:05.29	3.91	10.41	-30.9	-35.8	10.4	8.31e-03	0	42	102	1048576	21	6296
2026-01-07 02:27:06.29	3.78	10.47	-30.9	-35.6	10.6	6.81e-03	0	42	102	1048576	21	6216
2026-01-07 02:27:07.30	3.66	10.54	-31.0	-35.9	10.4	4.93e-03	0	42	102	1048576	21	6366
2026-01-07 02:27:08.30	3.53	10.60	-30.9	-35.6	10.6	7.07e-03	0	43	102	1048576	21	6200
2026-01-07 02:27:09.31	3.41	10.67	-30.8	-35.3	10.8	5.80e-03	0	42	102	1048576	21	6058
2026-01-07 02:27:10.31	3.28	10.73	-30.8	-35.2	10.9	2.54e-03	0	42	102	1048576	21	6011
2026-01-07 02:27:11.32	3.15	10.80	-30.8	-35.4	10.8	5.33e-03	0	42	102	1048576	21	6114
2026-01-07 02:27:12.33	3.02	10.86	-30.9	-35.7	10.6	6.29e-03	0	43	102	1048576	21	6221
2026-01-07 02:27:13.34	2.89	10.93	-30.8	-35.3	10.9	3.44e-03	0	42	102	1048576	21	6030
2026-01-07 02:27:14.35	2.77	10.99	-30.7	-35.1	11.0	4.80e-03	0	43	102	1048576	21	5961
2026-01-07 02:27:15.36	2.64	11.06	-30.7	-35.1	11.0	4.97e-03	0	42	102	1048576	21	5937
2026-01-07 02:27:16.36	2.51	11.12	-30.7	-35.1	11.0	2.13e-03	0	43	102	1048576	21	5953
2026-01-07 02:27:17.36	2.38	11.19	-30.7	-35.1	11.0	1.77e-03	0	43	102	1048576	21	5927
2026-01-07 02:27:18.36	2.24	11.25	-30.8	-35.1	11.0	4.77e-03	0	42	102	1048576	21	5973
2026-01-07 02:27:19.37	2.11	11.32	-30.7	-35.1	11.0	1.94e-03	0	43	102	1048576	21	5951
2026-01-07 02:27:20.37	1.98	11.38	-30.7	-35.1	11.1	4.68e-03	0	42	102	1048576	21	5933
2026-01-07 02:27:21.37	1.85	11.45	-30.7	-34.9	11.2	4.14e-03	0	43	102	1048576	21	5843
2026-01-07 02:27:22.38	1.71	11.51	-30.7	-35.0	11.1	1.58e-03	0	43	102	1048576	21	5913
2026-01-07 02:27:23.38	1.58	11.58	-30.7	-35.0	11.1	4.49e-03	0	43	102	1048576	21	5895
2026-01-07 02:27:24.39	1.44	11.64	-30.6	-34.5	11.5	9.70e-04	0	43	102	1048576	21	5648
2026-01-07 02:27:25.39	1.31	11.71	-30.5	-34.3	11.7	8.44e-04	0	43	102	1048576	21	5582
2026-01-07 02:27:26.40	1.17	11.77	-30.5	-34.4	11.6	3.46e-03	0	43	102	1048576	21	5598
2026-01-07 02:27:27.41	1.03	11.84	-30.5	-34.2	11.7	5.80e-04	0	43	102	1048576	21	5548
2026-01-07 02:27:28.42	0.90	11.90	-30.4	-34.0	11.8	4.01e-04	0	43	102	1048576	21	5455
2026-01-07 02:27:29.42	0.76	11.97	-30.4	-34.4	11.9	3.21e-03	0	43	102	1048576	20	5742
2026-01-07 02:27:30.43	0.62	12.03	-30.4	-34.3	12.0	2.89e-03	0	43	102	1048576	20	5689
2026-01-07 02:27:31.43	0.48	12.10	-30.4	-34.5	11.9	3.68e-04	0	43	102	1048576	20	5765
2026-01-07 02:27:32.43	0.34	12.16	-30.4	-34.0	11.9	3.08e-03	0	43	102	1048576	21	5456
2026-01-07 02:27:33.44	0.20	12.23	-30.4	-34.4	12.0	3.22e-03	0	43	102	1048576	20	5718
2026-01-07 02:27:34.45	0.06	12.30	-30.3	-34.3	12.1	2.53e-04	0	43	102	1048576	20	5671
2026-01-07 02:27:35.46	359.92	12.36	-30.3	-34.2	12.2	2.41e-04	0	43	102	1048576	20	5635
2026-01-07 02:27:36.46	359.77	12.43	-30.3	-34.2	12.1	2.99e-03	0	43	102	1048576	20	5629
2026-01-07 02:27:37.47	359.63	12.49	-30.3	-34.2	12.1	2.27e-04	0	43	102	1048576	20	5631
2026-01-07 02:27:38.47	359.49	12.56	-30.3	-34.2	12.1	3.08e-04	0	43	102	1048576	20	5646
2026-01-07 02:27:39.48	359.34	12.62	-30.3	-34.2	12.2	1.23e-03	0	43	102	1048576	20	5614
2026-01-07 02:27:40.48	359.20	12.69	-30.4	-34.4	12.0	2.89e-04	0	43	102	1048576	20	5706
2026-01-07 02:27:41.49	359.05	12.75	-30.3	-34.2	12.2	3.68e-04	0	43	102	1048576	20	5634
2026-01-07 02:27:42.49	358.90	12.82	-30.3	-34.2	12.2	2.24e-04	0	43	102	1048576	20	5623
2026-01-07 02:27:43.50	358.76	12.88	-30.3	-34.1	12.3	3.71e-04	0	43	102	1048576	20	5572
2026-01-07 02:27:44.51	358.61	12.95	-30.4	-34.4	12.1	2.39e-04	0	43	102	1048576	20	5698
2026-01-07 02:27:45.52	358.46	13.01	-30.4	-34.3	12.1	2.64e-04	0	43	102	1048576	20	5663
2026-01-07 02:27:46.52	358.31	13.08	-30.4	-34.4	12.0	2.31e-04	0	43	102	1048576	20	5713
2026-01-07 02:27:47.53	358.16	13.14	-30.3	-34.2	12.2	2.37e-04	0	43	102	1048576	20	5620
2026-01-07 02:27:48.54	358.01	13.21	-30.3	-34.0	12.3	1.83e-04	0	43	102	1048576	20	5559
2026-01-07 02:27:49.54	357.86	13.27	-30.3	-34.1	12.3	1.94e-04	0	43	102	1048576	20	5579
2026-01-07 02:27:50.55	357.70	13.34	-30.4	-34.3	12.1	2.15e-04	0	43	102	1048576	20	5656
2026-01-07 02:27:51.56	357.55	13.41	-30.4	-34.4	12.1	2.50e-04	0	43	102	1048576	20	5689
2026-01-07 02:27:52.57	357.40	13.47	-30.4	-34.4	12.1	2.93e-04	0	43	102	1048576	20	5705
2026-01-07 02:27:53.58	357.24	13.54	-30.4	-34.4	12.1	2.89e-04	0	43	102	1048576	20	5688
2026-01-07 02:27:54.59	357.09	13.60	-30.4	-34.6	12.0	2.91e-04	0	43	102	1048576	20	5784
2026-01-07 02:27:55.59	356.93	13.67	-30.6	-34.4	11.7	4.52e-04	0	43	102	1048576	21	5613
2026-01-07 02:27:56.60	356.78	13.73	-30.8	-35.1	11.2	9.34e-04	0	43	102	1048576	21	5934
2026-01-07 02:27:57.61	356.62	13.80	-30.8	-35.3	11.1	1.80e-03	0	43	102	1048576	21	5996
2026-01-07 02:27:58.62	356.46	13.86	-30.8	-35.1	11.2	1.39e-03	0	43	102	1048576	21	5901
2026-01-07 02:27:59.63	356.30	13.93	-30.8	-35.1	11.2	1.24e-03	0	43	102	1048576	21	5911
2026-01-07 02:28:00.64	356.14	13.99	-30.9	-35.4	11.0	1.85e-03	0	43	102	1048576	21	6046
2026-01-07 02:28:01.65	355.98	14.06	-30.9	-35.3	11.1	1.61e-03	0	43	102	1048576	21	6006
2026-01-07 02:28:02.65	355.82	14.12	-30.9	-35.4	11.0	1.74e-03	0	43	102	1048576	21	6075
2026-01-07 02:28:03.65	355.66	14.19	-30.9	-35.3	11.1	2.25e-03	0	43	102	1048576	21	6027
2026-01-07 02:28:04.66	355.50	14.25	-30.7	-34.8	11.4	1.15e-03	0	43	102	1048576	21	5787
2026-01-07 02:28:05.66	355.34	14.31	-30.6	-34.6	11.6	8.48e-04	0	43	102	1048576	21	5686
2026-01-07 02:28:06.67	355.17	14.38	-30.5	-34.3	11.8	5.31e-04	0	43	102	1048576	21	5552
2026-01-07 02:28:07.67	355.01	14.44	-30.6	-34.4	11.8	4.58e-04	0	43	102	1048576	21	5571
2026-01-07 02:28:08.68	354.84	14.51	-30.6	-34.5	11.7	5.41e-04	0	43	102	1048576	21	5626
2026-01-07 02:28:09.68	354.68	14.57	-30.6	-34.6	11.7	5.49e-04	0	43	102	1048576	21	5670
2026-01-07 02:28:10.69	354.51	14.64	-30.7	-34.8	11.5	2.89e-03	0	43	102	1048576	21	5775
2026-01-07 02:28:11.69	354.35	14.70	-30.7	-34.7	11.5	9.29e-04	0	43	102	1048576	21	5732
2026-01-07 02:28:12.70	354.18	14.76	-30.7	-34.9	11.5	9.64e-04	0	43	102	1048576	21	5802
2026-01-07 02:28:13.70	354.01	14.83	-30.8	-35.0	11.4	3.04e-03	0	43	102	1048576	21	5843
2026-01-07 02:28:14.71	353.84	14.89	-30.9	-35.4	11.0	3.20e-03	0	43	102	1048576	21	6072
2026-01-07 02:28:15.72	353.67	14.96	-30.8	-35.3	11.1	1.85e-03	0	43	102	1048576	21	5989
2026-01-07 02:28:16.72	353.50	15.02	-30.8	-35.1	11.3	1.21e-03	0	43	102	1048576	21	5902
2026-01-07 02:28:17.73	353.33	15.08	-30.9	-35.3	11.1	3.03e-03	0	43	102	1048576	21	6019
2026-01-07 02:28:18.73	353.16	15.15	-30.9	-35.4	11.1	1.66e-03	0	43	102	1048576	21	6022
2026-01-07 02:28:19.73	352.99	15.21	-30.9	-35.3	11.2	1.35e-03	0	43	102	1048576	21	6002
2026-01-07 02:28:20.74	352.81	15.27	-30.9	-35.5	11.1	3.46e-03	0	43	102	1048576	21	6074
2026-01-07 02:28:21.75	352.64	15.34	-30.9	-35.3	11.2	1.82e-03	0	43	102	1048576	21	6009
2026-01-07 02:28:22.75	352.46	15.40	-30.9	-35.4	11.1	1.39e-03	0	43	102	1048576	21	6041
2026-01-07 02:28:23.76	352.29	15.46	-30.9	-35.3	11.2	3.04e-03	0	43	102	1048576	21	6014
2026-01-07 02:28:24.77	352.11	15.53	-30.9	-35.4	11.1	1.54e-03	0	43	102	1048576	21	6018
2026-01-07 02:28:25.78	351.93	15.59	-30.9	-35.4	11.2	1.36e-03	0	43	102	1048576	21	6016
2026-01-07 02:28:26.79	351.75	15.65	-30.8	-35.1	11.3	2.51e-03	0	43	102	1048576	21	5876
2026-01-07 02:28:27.80	351.57	15.71	-30.9	-35.2	11.3	1.26e-03	0	43	102	1048576	21	5953
2026-01-07 02:28:28.80	351.39	15.78	-30.9	-35.2	11.3	2.60e-03	0	43	102	1048576	21	5951
2026-01-07 02:28:29.81	351.21	15.84	-30.8	-35.2	11.3	1.21e-03	0	43	102	1048576	21	5931
2026-01-07 02:28:30.81	351.03	15.90	-30.9	-35.3	11.2	1.39e-03	0	43	102	1048576	21	6008
2026-01-07 02:28:31.81	350.85	15.96	-30.9	-35.4	11.2	3.29e-03	0	43	102	1048576	21	6023
2026-01-07 02:28:32.81	350.67	16.02	-30.8	-35.1	11.3	3.01e-03	0	43	102	1048576	21	5899
2026-01-07 02:28:33.82	350.48	16.09	-30.7	-34.6	11.7	8.09e-04	0	43	102	1048576	21	5689
2026-01-07 02:28:34.82	350.30	16.15	-30.6	-34.5	11.8	2.62e-03	0	43	102	1048576	21	5616
2026-01-07 02:28:35.83	350.11	16.21	-30.6	-34.3	12.0	2.86e-03	0	43	102	1048576	21	5540
2026-01-07 02:28:36.84	349.93	16.27	-30.5	-34.0	12.1	4.56e-04	0	43	102	1048576	21	5422
2026-01-07 02:28:37.84	349.74	16.33	-30.5	-34.1	12.1	2.62e-03	0	43	102	1048576	21	5456
2026-01-07 02:28:38.85	349.55	16.39	-30.5	-34.5	12.2	2.57e-03	0	43	102	1048576	20	5725
2026-01-07 02:28:39.85	349.37	16.45	-30.5	-34.1	12.1	4.29e-04	0	43	102	1048576	21	5450
2026-01-07 02:28:40.86	349.18	16.51	-30.6	-34.3	12.0	2.42e-03	0	43	102	1048576	21	5545
2026-01-07 02:28:41.87	348.99	16.57	-30.5	-34.0	12.2	2.15e-03	0	43	102	1048576	21	5392
2026-01-07 02:28:42.87	348.80	16.63	-30.4	-34.4	12.2	3.55e-04	0	43	102	1048576	20	5700
2026-01-07 02:28:43.88	348.61	16.69	-30.3	-34.1	12.5	1.15e-03	0	43	102	1048576	20	5532
2026-01-07 02:28:44.89	348.41	16.75	-30.3	-33.9	12.6	1.60e-03	0	43	102	1048576	20	5473
2026-01-07 02:28:45.90	348.22	16.81	-30.3	-34.0	12.6	1.59e-04	0	43	102	1048576	20	5497
2026-01-07 02:28:46.91	348.02	16.87	-30.2	-33.8	12.7	9.61e-05	0	43	102	1048576	20	5440
2026-01-07 02:28:47.91	347.83	16.93	-30.2	-33.6	12.8	5.43e-04	0	43	102	1048576	20	5335
2026-01-07 02:28:48.92	347.64	16.99	-30.1	-33.4	13.0	4.95e-05	0	43	102	1048576	20	5278
2026-01-07 02:28:49.93	347.44	17.05	-30.2	-33.6	12.8	1.89e-04	0	43	102	1048576	20	5343
2026-01-07 02:28:50.94	347.24	17.11	-30.0	-33.0	13.2	3.89e-05	0	43	102	1048576	20	5111
2026-01-07 02:28:51.94	347.04	17.17	-29.9	-32.7	13.4	1.60e-05	0	43	102	1048576	20	5003
2026-01-07 02:28:52.95	346.85	17.23	-29.9	-33.2	13.5	2.49e-04	0	43	102	1048576	19	5279
2026-01-07 02:28:53.96	346.65	17.29	-29.8	-33.0	13.6	4.50e-06	0	43	102	1048576	19	5226
2026-01-07 02:28:54.97	346.45	17.34	-29.8	-33.0	13.6	6.80e-06	0	43	102	1048576	19	5223
2026-01-07 02:28:55.97	346.25	17.40	-29.7	-32.8	13.8	1.58e-03	0	43	102	1048576	19	5125
2026-01-07 02:28:56.98	346.04	17.46	-29.7	-32.7	13.8	4.50e-06	0	43	102	1048576	19	5096
2026-01-07 02:28:57.98	345.84	17.52	-29.6	-32.5	14.0	2.20e-06	0	43	102	1048576	19	5007
2026-01-07 02:28:58.99	345.64	17.57	-29.7	-32.6	13.9	2.32e-03	0	43	102	1048576	19	5063
2026-01-07 02:29:00.00	345.43	17.63	-29.6	-32.4	14.1	3.00e-06	0	43	102	1048576	19	4967
2026-01-07 02:29:01.01	345.23	17.69	-29.5	-32.3	14.1	5.30e-06	0	43	102	1048576	19	4971
2026-01-07 02:29:02.01	345.02	17.74	-29.6	-32.5	14.0	1.50e-06	0	43	102	1048576	19	5030
2026-01-07 02:29:03.02	344.82	17.80	-29.8	-32.9	13.7	2.42e-03	0	43	102	1048576	19	5173
2026-01-07 02:29:04.03	344.61	17.85	-29.8	-32.9	13.8	9.10e-06	0	43	102	1048576	19	5165
2026-01-07 02:29:05.04	344.40	17.91	-29.7	-32.8	13.8	6.80e-06	0	43	102	1048576	19	5115
2026-01-07 02:29:06.04	344.19	17.97	-29.8	-33.0	13.7	2.43e-03	0	43	102	1048576	19	5208
2026-01-07 02:29:07.05	343.98	18.02	-29.7	-32.7	13.9	4.50e-06	0	43	102	1048576	19	5097
2026-01-07 02:29:08.05	343.78	18.07	-29.7	-32.8	13.8	3.00e-06	0	43	102	1048576	19	5132
2026-01-07 02:29:09.06	343.56	18.13	-29.7	-32.7	13.8	4.50e-06	0	43	102	1048576	19	5103
2026-01-07 02:29:10.07	343.35	18.18	-29.9	-33.3	13.5	1.14e-05	0	43	102	1048576	19	5319
2026-01-07 02:29:11.08	343.14	18.24	-29.7	-32.6	13.9	5.30e-06	0	43	102	1048576	19	5070
2026-01-07 02:29:12.08	342.93	18.29	-29.4	-32.1	14.2	2.20e-06	0	43	102	1048576	19	4863
2026-01-07 02:29:13.09	342.71	18.34	-29.3	-31.7	14.5	0.00e+00	0	43	102	1048576	19	4733
2026-01-07 02:29:14.10	342.50	18.40	-29.4	-32.4	14.4	0.00e+00	0	43	102	1048576	18	5084
2026-01-07 02:29:15.10	342.28	18.45	-29.5	-32.6	14.3	1.50e-06	0	43	102	1048576	18	5169
2026-01-07 02:29:16.11	342.07	18.50	-29.6	-32.5	14.0	1.50e-06	0	43	102	1048576	19	5017
2026-01-07 02:29:17.11	341.85	18.55	-29.8	-32.9	13.8	3.00e-06	0	43	102	1048576	19	5157
2026-01-07 02:29:18.12	341.63	18.61	-29.7	-32.8	13.8	8.30e-06	0	43	102	1048576	19	5132
2026-01-07 02:29:19.13	341.41	18.66	-29.8	-33.0	13.7	3.80e-06	0	43	102	1048576	19	5212
2026-01-07 02:29:20.13	341.19	18.71	-29.9	-32.8	13.4	1.75e-05	0	43	102	1048576	20	5035
2026-01-07 02:29:21.14	340.97	18.76	-29.8	-32.4	13.7	7.60e-06	0	43	102	1048576	20	4886
2026-01-07 02:29:22.14	340.75	18.81	-29.6	-32.0	13.9	3.00e-06	0	43	102	1048576	20	4749
2026-01-07 02:29:23.15	340.53	18.86	-29.6	-32.5	14.0	4.50e-06	0	43	102	1048576	19	5029
2026-01-07 02:29:24.16	340.31	18.91	-29.6	-32.6	13.9	4.50e-06	0	43	102	1048576	19	5072
2026-01-07 02:29:25.17	340.09	18.96	-28.1	-31.2	13.8	3.80e-06	0	43	102	1048576	18	5095
2026-01-07 02:29:26.17	339.86	19.01	-29.6	-33.0	12.5	4.50e-06	0	43	102	1048576	18	5295
2026-01-07 02:29:27.18	339.64	19.06	-29.7	-32.6	13.8	7.00e-07	0	43	102	1048576	19	5045
2026-01-07 02:29:28.19	339.41	19.10	-29.7	-32.6	14.0	2.20e-06	0	43	102	1048576	19	5067
2026-01-07 02:29:29.20	339.19	19.15	-29.6	-32.4	14.1	3.80e-06	0	43	102	1048576	19	4970
2026-01-07 02:29:30.20	338.96	19.20	-29.5	-32.2	14.2	9.91e-05	0	43	102	1048576	19	4897
2026-01-07 02:29:31.20	338.73	19.25	-29.5	-32.3	14.2	3.00e-06	0	43	102	1048576	19	4930
2026-01-07 02:29:32.20	338.51	19.29	-29.3	-32.3	14.5	0.00e+00	0	43	102	1048576	18	5034
2026-01-07 02:29:33.20	338.28	19.34	-29.4	-32.4	14.5	6.94e-05	0	43	102	1048576	18	5072
2026-01-07 02:29:34.20	338.05	19.38	-29.3	-32.2	14.5	0.00e+00	0	43	102	1048576	18	5018
2026-01-07 02:29:35.20	337.82	19.43	-29.3	-32.1	14.6	1.50e-06	0	43	102	1048576	18	4988
2026-01-07 02:29:36.21	337.59	19.48	-29.2	-31.8	14.8	0.00e+00	0	43	102	1048576	18	4878
2026-01-07 02:29:37.21	337.36	19.52	-29.0	-31.4	15.0	2.46e-03	0	43	102	1048576	18	4752
2026-01-07 02:29:38.22	337.13	19.56	-28.9	-31.7	15.1	0.00e+00	0	43	102	1048576	17	4967
2026-01-07 02:29:39.22	336.90	19.61	-28.9	-31.6	15.2	0.00e+00	0	43	102	1048576	17	4929
2026-01-07 02:29:40.23	336.66	19.65	-28.8	-31.4	15.3	2.63e-03	0	43	102	1048576	17	4858
2026-01-07 02:29:41.23	336.43	19.69	-28.8	-31.4	15.4	2.57e-03	0	43	102	1048576	17	4841
2026-01-07 02:29:42.24	336.20	19.74	-28.9	-31.5	15.3	0.00e+00	0	43	102	1048576	17	4890
2026-01-07 02:29:43.25	335.96	19.78	-28.8	-31.3	15.4	2.53e-03	0	43	102	1048576	17	4811
2026-01-07 02:29:44.25	335.73	19.82	-28.7	-31.2	15.4	2.20e-03	0	43	102	1048576	17	4797
2026-01-07 02:29:45.26	335.49	19.86	-28.8	-31.3	15.4	0.00e+00	0	43	102	1048576	17	4810
2026-01-07 02:29:46.27	335.25	19.90	-28.7	-31.2	15.5	0.00e+00	0	43	102	1048576	17	4776
2026-01-07 02:29:47.28	335.01	19.94	-28.7	-31.2	15.5	2.56e-03	0	43	102	1048576	17	4770
2026-01-07 02:29:48.28	334.77	19.98	-28.8	-31.4	15.3	0.00e+00	0	43	102	1048576	17	4851
2026-01-07 02:29:49.29	334.53	20.02	-28.9	-31.5	15.3	0.00e+00	0	43	102	1048576	17	4904
2026-01-07 02:29:50.30	334.29	20.06	-28.8	-31.4	15.4	2.51e-03	0	43	102	1048576	17	4850
2026-01-07 02:29:51.31	334.05	20.10	-28.7	-31.2	15.5	0.00e+00	0	43	102	1048576	17	4787
2026-01-07 02:29:52.31	333.81	20.14	-28.7	-31.1	15.5	7.67e-04	0	43	102	1048576	17	4757
2026-01-07 02:29:53.31	333.57	20.18	-28.6	-30.9	15.6	2.15e-03	0	43	102	1048576	17	4705
2026-01-07 02:29:54.32	333.33	20.21	-28.7	-31.2	15.5	0.00e+00	0	43	102	1048576	17	4794
2026-01-07 02:29:55.33	333.08	20.25	-28.8	-31.3	15.4	2.19e-03	0	44	102	1048576	17	4829
2026-01-07 02:29:56.33	332.84	20.29	-28.8	-31.2	15.5	0.00e+00	0	43	102	1048576	17	4796
2026-01-07 02:29:57.34	332.60	20.32	-28.9	-31.6	15.2	0.00e+00	0	43	102	1048576	17	4918
2026-01-07 02:29:58.35	332.35	20.36	-28.9	-31.7	15.2	2.41e-03	0	43	102	1048576	17	4951
2026-01-07 02:29:59.35	332.11	20.39	-29.1	-31.7	14.9	2.34e-03	0	43	102	1048576	18	4833
2026-01-07 02:30:00.36	331.86	20.43	-29.1	-31.6	14.9	0.00e+00	0	43	102	1048576	18	4814
2026-01-07 02:30:01.36	331.62	20.46	-29.1	-31.7	14.9	2.29e-03	0	43	102	1048576	18	4837
2026-01-07 02:30:02.37	331.37	20.49	-29.1	-31.7	14.9	2.16e-03	0	43	102	1048576	18	4821
2026-01-07 02:30:03.38	331.12	20.53	-29.2	-31.9	14.8	7.00e-07	0	43	102	1048576	18	4909
2026-01-07 02:30:04.38	330.87	20.56	-29.2	-32.0	14.7	2.16e-03	0	43	102	1048576	18	4931
2026-01-07 02:30:05.39	330.62	20.59	-29.3	-32.2	14.6	2.35e-03	0	43	102	1048576	18	4997
2026-01-07 02:30:06.39	330.38	20.62	-29.3	-32.2	14.6	7.00e-07	0	43	102	1048576	18	5014
2026-01-07 02:30:07.40	330.13	20.65	-29.4	-32.4	14.4	2.45e-03	0	43	102	1048576	18	5096
2026-01-07 02:30:08.41	329.88	20.68	-29.3	-32.1	14.7	2.38e-03	0	43	102	1048576	18	4970
2026-01-07 02:30:09.42	329.62	20.71	-29.2	-31.9	14.8	0.00e+00	0	43	102	1048576	18	4895
2026-01-07 02:30:10.43	329.37	20.74	-29.2	-32.0	14.7	2.20e-06	0	43	102	1048576	18	4934
2026-01-07 02:30:11.44	329.12	20.77	-29.1	-31.7	14.9	2.16e-03	0	43	102	1048576	18	4846
2026-01-07 02:30:12.44	328.87	20.80	-29.3	-32.0	14.7	0.00e+00	0	43	102	1048576	18	4946
2026-01-07 02:30:13.45	328.62	20.82	-29.3	-32.1	14.7	0.00e+00	0	43	102	1048576	18	4966
2026-01-07 02:30:14.46	328.36	20.85	-29.4	-32.3	14.6	2.45e-03	0	43	102	1048576	18	5059
2026-01-07 02:30:15.47	328.11	20.88	-29.4	-32.5	14.4	1.83e-05	0	43	102	1048576	18	5103
2026-01-07 02:30:16.48	327.85	20.90	-29.5	-32.3	14.3	1.50e-06	0	43	102	1048576	19	4926
2026-01-07 02:30:17.49	327.60	20.93	-29.6	-32.3	14.2	2.20e-06	0	44	102	1048576	19	4946
2026-01-07 02:30:18.49	327.35	20.95	-29.7	-32.6	14.1	1.40e-04	0	43	102	1048576	19	5027
2026-01-07 02:30:19.50	327.09	20.98	-29.7	-32.5	14.1	2.23e-03	0	43	102	1048576	19	5013
2026-01-07 02:30:20.50	326.84	21.00	-29.7	-32.7	14.0	5.30e-06	0	43	102	1048576	19	5086
2026-01-07 02:30:21.51	326.58	21.02	-29.6	-32.5	14.1	1.50e-06	0	43	102	1048576	19	4999
2026-01-07 02:30:22.52	326.32	21.04	-29.7	-32.6	14.1	2.18e-03	0	43	102	1048576	19	5031
2026-01-07 02:30:23.53	326.07	21.06	-29.8	-32.9	13.9	3.80e-06	0	43	102	1048576	19	5134
2026-01-07 02:30:24.53	325.81	21.09	-29.7	-32.8	13.9	8.30e-06	0	43	102	1048576	19	5121
2026-01-07 02:30:25.54	325.55	21.11	-29.8	-32.9	13.9	2.47e-03	0	44	102	1048576	19	5136
2026-01-07 02:30:26.54	325.30	21.13	-29.9	-33.1	13.7	9.90e-06	0	43	102	1048576	19	5225
2026-01-07 02:30:27.55	325.04	21.14	-30.0	-33.4	13.5	1.22e-05	0	43	102	1048576	19	5329
2026-01-07 02:30:28.55	324.78	21.16	-30.0	-33.4	13.5	8.30e-06	0	43	102	1048576	19	5346
2026-01-07 02:30:29.56	324.52	21.18	-30.0	-32.9	13.5	2.10e-03	0	43	102	1048576	20	5062
2026-01-07 02:30:30.56	324.26	21.20	-29.9	-32.8	13.5	1.22e-05	0	43	102	1048576	20	5024
2026-01-07 02:30:31.57	324.00	21.21	-30.0	-33.4	13.5	1.14e-05	0	43	102	1048576	19	5354
2026-01-07 02:30:32.57	323.75	21.23	-30.0	-33.1	13.3	2.13e-05	0	43	102	1048576	20	5136
2026-01-07 02:30:33.58	323.49	21.25	-30.3	-33.8	12.9	4.50e-05	0	43	102	1048576	20	5397
2026-01-07 02:30:34.59	323.23	21.26	-30.3	-34.0	12.7	8.85e-05	0	43	102	1048576	20	5471
2026-01-07 02:30:35.59	322.97	21.28	-30.5	-34.0	12.4	7.93e-05	0	43	102	1048576	21	5387
2026-01-07 02:30:36.60	322.71	21.29	-30.7	-34.7	11.9	3.01e-04	0	43	102	1048576	21	5663
2026-01-07 02:30:37.61	322.44	21.30	-30.7	-34.5	11.9	4.96e-04	0	43	102	1048576	21	5591
2026-01-07 02:30:38.61	322.18	21.31	-30.5	-33.9	12.4	1.75e-04	0	43	102	1048576	21	5338
2026-01-07 02:30:39.62	321.92	21.33	-30.5	-34.4	12.5	1.14e-04	0	43	102	1048576	20	5639
2026-01-07 02:30:40.62	321.66	21.34	-30.5	-34.1	12.3	1.71e-04	0	43	102	1048576	21	5405
2026-01-07 02:30:41.63	321.40	21.35	-30.5	-33.8	12.5	1.61e-04	0	43	102	1048576	21	5305
2026-01-07 02:30:42.64	321.14	21.36	-30.4	-34.2	12.6	1.02e-04	0	43	102	1048576	20	5549
2026-01-07 02:30:43.64	320.88	21.37	-30.4	-33.5	12.7	1.23e-04	0	43	102	1048576	21	5182
2026-01-07 02:30:44.64	320.62	21.38	-30.3	-33.9	12.7	7.17e-05	0	43	102	1048576	20	5456
2026-01-07 02:30:45.65	320.35	21.38	-29.4	-33.2	12.6	8.31e-05	0	43	102	1048576	20	5585
2026-01-07 02:30:46.66	320.09	21.39	-30.4	-34.2	11.9	9.91e-05	0	43	102	1048576	20	5558
2026-01-07 02:30:47.66	319.83	21.40	-30.3	-33.9	12.3	6.71e-05	0	43	102	1048576	20	5463
2026-01-07 02:30:48.67	319.57	21.40	-30.2	-33.6	11.9	5.79e-05	0	43	102	1048576	20	5331
2026-01-07 02:30:49.68	319.30	21.41	-30.2	-33.5	12.6	3.05e-05	0	43	102	1048576	20	5282
2026-01-07 02:30:50.68	319.04	21.41	-30.1	-33.3	13.2	2.59e-05	0	43	102	1048576	20	5188
2026-01-07 02:30:51.69	318.78	21.42	-30.1	-33.3	13.2	9.10e-06	0	43	102	1048576	20	5187
2026-01-07 02:30:52.69	318.52	21.42	-30.2	-33.5	13.1	1.60e-05	0	43	102	1048576	20	5289
2026-01-07 02:30:53.70	318.25	21.42	-30.2	-33.5	13.1	3.58e-05	0	43	102	1048576	20	5278
2026-01-07 02:30:54.71	317.99	21.43	-30.2	-33.6	13.0	4.42e-05	0	43	102	1048576	20	5304
2026-01-07 02:30:55.72	317.73	21.43	-30.3	-33.9	12.8	4.11e-05	0	43	102	1048576	20	5448
2026-01-07 02:30:56.73	317.46	21.43	-30.3	-33.9	12.9	4.31e-04	0	43	102	1048576	20	5423
2026-01-07 02:30:57.73	317.20	21.43	-30.2	-33.7	13.0	4.11e-05	0	43	102	1048576	20	5340
2026-01-07 02:30:58.74	316.94	21.43	-30.2	-33.6	13.0	3.58e-05	0	43	102	1048576	20	5304
2026-01-07 02:30:59.74	316.68	21.43	-30.3	-33.7	12.9	5.42e-04	0	43	102	1048576	20	5375
2026-01-07 02:31:00.74	316.41	21.43	-30.2	-33.5	13.1	2.68e-03	0	43	102	1048576	20	5286
2026-01-07 02:31:01.75	316.15	21.42	-30.1	-33.3	13.2	3.35e-05	0	43	102	1048576	20	5211
2026-01-07 02:31:02.76	315.89	21.42	-30.1	-33.3	13.2	1.75e-05	0	43	102	1048576	20	5201
2026-01-07 02:31:03.77	315.62	21.42	-30.1	-33.2	13.3	2.63e-03	0	43	102	1048576	20	5169
2026-01-07 02:31:04.77	315.36	21.41	-30.0	-33.1	13.3	1.29e-05	0	43	102	1048576	20	5145
2026-01-07 02:31:05.77	315.10	21.41	-30.0	-33.1	13.3	1.60e-05	0	43	102	1048576	20	5126
2026-01-07 02:31:06.78	314.84	21.40	-30.1	-33.3	13.2	2.67e-03	0	44	102	1048576	20	5212
2026-01-07 02:31:07.79	314.57	21.40	-30.1	-33.2	13.3	2.87e-03	0	43	102	1048576	20	5154
2026-01-07 02:31:08.80	314.31	21.39	-30.0	-33.1	13.4	1.37e-05	0	43	102	1048576	20	5112
2026-01-07 02:31:09.80	314.05	21.38	-30.1	-33.1	13.3	2.58e-03	0	43	102	1048576	20	5141
2026-01-07 02:31:10.81	313.79	21.37	-30.2	-33.5	13.1	2.38e-03	0	43	102	1048576	20	5256
2026-01-07 02:31:11.81	313.53	21.37	-30.1	-33.2	13.3	3.81e-04	0	43	102	1048576	20	5150
2026-01-07 02:31:12.82	313.26	21.36	-29.9	-32.8	13.5	1.06e-05	0	44	102	1048576	20	5017
2026-01-07 02:31:13.82	313.00	21.35	-29.9	-33.1	13.7	2.40e-03	0	44	102	1048576	19	5227
2026-01-07 02:31:14.82	312.74	21.34	-29.9	-33.1	13.7	2.01e-04	0	43	102	1048576	19	5219
2026-01-07 02:31:15.83	312.48	21.33	-30.0	-33.5	13.5	3.00e-06	0	43	102	1048576	19	5361
2026-01-07 02:31:16.84	312.22	21.31	-29.9	-33.1	13.7	2.60e-03	0	43	102	1048576	19	5210
2026-01-07 02:31:17.85	311.96	21.30	-29.7	-32.5	14.1	2.36e-05	0	43	102	1048576	19	5015
2026-01-07 02:31:18.85	311.70	21.29	-29.5	-32.1	14.4	2.54e-03	0	43	102	1048576	19	4868
2026-01-07 02:31:19.86	311.44	21.27	-29.5	-32.1	14.4	2.54e-03	0	44	102	1048576	19	4864
2026-01-07 02:31:20.87	311.18	21.26	-29.5	-32.1	14.4	6.10e-06	0	43	102	1048576	19	4851
2026-01-07 02:31:21.88	310.91	21.25	-29.8	-32.8	13.9	2.46e-03	0	43	102	1048576	19	5126
2026-01-07 02:31:22.89	310.65	21.23	-29.6	-32.3	14.3	2.32e-03	0	43	102	1048576	19	4916
2026-01-07 02:31:23.90	310.39	21.21	-29.3	-31.5	14.7	0.00e+00	0	43	102	1048576	19	4666
2026-01-07 02:31:24.90	310.14	21.20	-29.2	-31.7	14.9	2.22e-03	0	43	102	1048576	18	4843
2026-01-07 02:31:25.91	309.88	21.18	-29.2	-31.8	14.9	2.50e-03	0	43	102	1048576	18	4865
2026-01-07 02:31:26.92	309.62	21.16	-29.2	-32.0	14.8	0.00e+00	0	43	102	1048576	18	4918
2026-01-07 02:31:27.93	309.36	21.14	-29.1	-31.5	15.1	2.40e-03	0	43	102	1048576	18	4775
2026-01-07 02:31:28.94	309.10	21.12	-29.0	-31.2	15.3	2.32e-03	0	43	102	1048576	18	4675
2026-01-07 02:31:29.95	308.84	21.10	-29.1	-31.7	15.0	0.00e+00	0	43	102	1048576	18	4815
2026-01-07 02:31:30.96	308.58	21.08	-28.9	-31.0	15.4	2.17e-03	0	43	102	1048576	18	4609
2026-01-07 02:31:31.96	308.32	21.06	-28.7	-31.0	15.6	1.94e-03	0	43	102	1048576	17	4722
2026-01-07 02:31:32.97	308.07	21.04	-28.7	-31.1	15.6	0.00e+00	0	43	102	1048576	17	4750
2026-01-07 02:31:33.98	307.81	21.02	-28.9	-31.6	15.3	2.08e-03	0	43	102	1048576	17	4912
2026-01-07 02:31:34.98	307.56	21.00	-28.9	-31.6	15.3	2.36e-03	0	43	102	1048576	17	4927
2026-01-07 02:31:35.99	307.30	20.97	-29.0	-31.4	15.1	0.00e+00	0	43	102	1048576	18	4748
2026-01-07 02:31:37.00	307.04	20.95	-29.2	-31.9	14.9	0.00e+00	0	43	102	1048576	18	4887
2026-01-07 02:31:38.00	306.79	20.92	-29.1	-31.5	15.0	2.14e-03	0	43	102	1048576	18	4775
2026-01-07 02:31:39.01	306.53	20.90	-28.8	-30.9	15.4	0.00e+00	0	43	102	1048576	18	4574
2026-01-07 02:31:40.02	306.28	20.87	-28.6	-31.0	15.6	0.00e+00	0	43	102	1048576	17	4703
2026-01-07 02:31:41.03	306.03	20.85	-28.6	-30.8	15.8	0.00e+00	0	43	102	1048576	17	4643
2026-01-07 02:31:42.04	305.77	20.82	-28.5	-30.6	15.9	4.50e-06	0	43	102	1048576	17	4586
2026-01-07 02:31:43.04	305.52	20.79	-28.5	-30.5	15.9	0.00e+00	0	43	102	1048576	17	4574
2026-01-07 02:31:44.05	305.27	20.77	-28.7	-31.2	15.5	0.00e+00	0	43	102	1048576	17	4788
2026-01-07 02:31:45.05	305.02	20.74	-28.7	-31.2	15.6	0.00e+00	0	43	102	1048576	17	4775
2026-01-07 02:31:46.06	304.76	20.71	-28.6	-30.9	15.7	0.00e+00	0	43	102	1048576	17	4693
2026-01-07 02:31:47.07	304.51	20.68	-28.8	-31.3	15.5	0.00e+00	0	43	102	1048576	17	4810
2026-01-07 02:31:48.08	304.26	20.65	-28.6	-30.9	15.6	0.00e+00	0	43	102	1048576	17	4702
2026-01-07 02:31:49.08	304.01	20.62	-28.6	-30.9	15.7	7.00e-07	0	43	102	1048576	17	4680
2026-01-07 02:31:50.09	303.76	20.59	-28.6	-30.9	15.6	0.00e+00	0	44	102	1048576	17	4699
2026-01-07 02:31:51.09	303.52	20.55	-28.6	-30.8	15.7	0.00e+00	0	43	102	1048576	17	4664
2026-01-07 02:31:52.09	303.27	20.52	-28.7	-31.1	15.5	0.00e+00	0	43	102	1048576	17	4744
2026-01-07 02:31:53.10	303.02	20.49	-28.7	-31.1	15.6	0.00e+00	0	43	102	1048576	17	4752
2026-01-07 02:31:54.10	302.77	20.46	-28.8	-31.3	15.4	0.00e+00	0	43	102	1048576	17	4822
2026-01-07 02:31:55.11	302.53	20.42	-28.8	-31.3	15.4	0.00e+00	0	43	102	1048576	17	4823
2026-01-07 02:31:56.12	302.28	20.39	-28.8	-31.4	15.4	0.00e+00	0	43	102	1048576	17	4839
2026-01-07 02:31:57.12	302.04	20.35	-28.9	-31.6	15.2	0.00e+00	0	43	102	1048576	17	4921
2026-01-07 02:31:58.13	301.79	20.32	-29.1	-31.6	15.0	7.00e-07	0	43	102	1048576	18	4812
2026-01-07 02:31:59.13	301.55	20.28	-29.1	-31.5	15.0	7.00e-07	0	43	102	1048576	18	4775
2026-01-07 02:32:00.14	301.30	20.25	-29.1	-31.7	14.9	0.00e+00	0	43	102	1048576	18	4828
2026-01-07 02:32:01.15	301.06	20.21	-29.3	-32.0	14.7	3.80e-06	0	44	102	1048576	18	4948
2026-01-07 02:32:02.15	300.82	20.17	-29.3	-32.2	14.6	0.00e+00	0	43	102	1048576	18	4996
2026-01-07 02:32:03.15	300.58	20.14	-29.4	-32.5	14.4	0.00e+00	0	43	102	1048576	18	5117
2026-01-07 02:32:04.16	300.33	20.10	-29.4	-32.4	14.4	0.00e+00	0	43	102	1048576	18	5098
2026-01-07 02:32:05.17	300.09	20.06	-29.5	-32.2	14.3	7.00e-07	0	43	102	1048576	19	4888
2026-01-07 02:32:06.18	299.85	20.02	-29.7	-32.6	14.0	3.00e-06	0	43	102	1048576	19	5046
2026-01-07 02:32:07.18	299.61	19.98	-29.7	-32.6	13.9	3.80e-06	0	43	102	1048576	19	5055
2026-01-07 02:32:08.19	299.37	19.94	-29.5	-32.6	14.2	0.00e+00	0	43	102	1048576	18	5173
2026-01-07 02:32:09.20	299.13	19.90	-29.4	-32.5	14.3	2.66e-03	0	43	102	1048576	18	5111
2026-01-07 02:32:10.21	298.89	19.86	-29.5	-32.3	14.2	1.50e-06	0	43	102	1048576	19	4939
2026-01-07 02:32:11.21	298.66	19.82	-29.8	-32.9	13.8	2.20e-06	0	44	102	1048576	19	5147
2026-01-07 02:32:12.22	298.42	19.77	-29.8	-32.9	13.8	2.20e-06	0	43	102	1048576	19	5158
2026-01-07 02:32:13.23	298.18	19.73	-29.8	-33.0	13.7	7.60e-06	0	43	102	1048576	19	5209
2026-01-07 02:32:14.23	297.95	19.69	-29.9	-32.9	13.3	1.37e-05	0	43	102	1048576	20	5058
2026-01-07 02:32:15.24	297.72	19.65	-29.9	-33.3	13.5	1.29e-05	0	44	102	1048576	19	5328
2026-01-07 02:32:16.24	297.48	19.60	-29.9	-33.4	13.5	2.99e-03	0	43	102	1048576	19	5354
2026-01-07 02:32:17.25	297.25	19.56	-30.0	-33.4	13.4	1.60e-05	0	43	102	1048576	19	5375
2026-01-07 02:32:18.25	297.02	19.51	-29.9	-33.2	13.5	1.44e-05	0	43	102	1048576	19	5295
2026-01-07 02:32:19.26	296.78	19.47	-29.9	-33.2	13.5	2.99e-03	0	43	102	1048576	19	5290
2026-01-07 02:32:20.27	296.55	19.42	-29.9	-33.2	13.6	6.26e-04	0	43	102	1048576	19	5270
2026-01-07 02:32:21.28	296.32	19.38	-29.8	-33.1	13.6	6.80e-06	0	43	102	1048576	19	5247
2026-01-07 02:32:22.28	296.09	19.33	-29.9	-33.3	13.5	2.96e-03	0	43	102	1048576	19	5309
2026-01-07 02:32:23.29	295.86	19.29	-29.9	-33.3	13.5	1.98e-04	0	43	102	1048576	19	5323
2026-01-07 02:32:24.30	295.63	19.24	-30.0	-33.5	13.3	6.80e-06	0	43	102	1048576	19	5404
2026-01-07 02:32:25.30	295.41	19.19	-29.8	-33.1	13.6	1.75e-05	0	43	102	1048576	19	5255
2026-01-07 02:32:26.31	295.18	19.14	-29.8	-33.1	13.6	2.30e-04	0	43	102	1048576	19	5232
2026-01-07 02:32:27.31	294.95	19.10	-29.9	-33.3	13.5	2.76e-03	0	43	102	1048576	19	5301
2026-01-07 02:32:28.32	294.73	19.05	-29.9	-33.4	13.3	1.22e-05	0	43	102	1048576	19	5376
2026-01-07 02:32:29.33	294.50	19.00	-30.0	-33.1	13.2	2.00e-04	0	43	102	1048576	20	5152
2026-01-07 02:32:30.33	294.28	18.95	-30.1	-33.3	13.1	3.48e-03	0	43	102	1048576	20	5202
2026-01-07 02:32:31.34	294.06	18.90	-30.0	-33.5	13.3	2.44e-05	0	44	102	1048576	19	5398
2026-01-07 02:32:32.34	293.83	18.85	-29.8	-33.1	13.5	1.80e-04	0	43	102	1048576	19	5264
2026-01-07 02:32:33.35	293.61	18.80	-29.7	-32.8	13.7	3.09e-03	0	43	102	1048576	19	5140
2026-01-07 02:32:34.36	293.39	18.75	-29.7	-32.9	13.7	3.06e-03	0	44	102	1048576	19	5153
2026-01-07 02:32:35.36	293.17	18.70	-29.9	-33.2	13.5	5.30e-06	0	44	102	1048576	19	5292
2026-01-07 02:32:36.37	292.95	18.65	-30.1	-33.4	12.9	2.94e-03	0	43	102	1048576	20	5274
2026-01-07 02:32:37.38	292.73	18.60	-30.5	-34.5	12.2	3.31e-03	0	44	102	1048576	20	5735
2026-01-07 02:32:38.39	292.51	18.54	-30.6	-34.4	12.0	4.74e-04	0	43	102	1048576	21	5551
2026-01-07 02:32:39.39	292.30	18.49	-30.5	-33.9	12.2	3.28e-03	0	43	102	1048576	21	5380
2026-01-07 02:32:40.40	292.08	18.44	-30.3	-34.0	12.5	3.28e-03	0	43	102	1048576	20	5504
2026-01-07 02:32:41.40	291.86	18.39	-30.4	-34.2	12.4	3.04e-04	0	43	102	1048576	20	5604
2026-01-07 02:32:42.41	291.65	18.33	-30.3	-34.0	12.5	2.73e-03	0	43	102	1048576	20	5507
2026-01-07 02:32:43.41	291.43	18.28	-30.5	-34.2	12.0	2.70e-03	0	43	102	1048576	21	5508
2026-01-07 02:32:44.42	291.22	18.23	-30.6	-34.5	11.8	6.82e-04	0	44	102	1048576	21	5630
2026-01-07 02:32:45.42	291.01	18.17	-30.7	-34.7	11.6	3.92e-03	0	43	102	1048576	21	5729
2026-01-07 02:32:46.43	290.80	18.12	-30.5	-34.0	12.1	3.60e-03	0	43	102	1048576	21	5425
2026-01-07 02:32:47.44	290.58	18.06	-30.2	-33.7	12.7	1.16e-03	0	44	102	1048576	20	5401
2026-01-07 02:32:48.45	290.37	18.01	-30.1	-33.5	12.9	3.34e-03	0	43	102	1048576	20	5296
2026-01-07 02:32:49.45	290.16	17.95	-29.9	-32.9	13.2	3.21e-03	0	44	102	1048576	20	5099
2026-01-07 02:32:50.45	289.96	17.90	-29.9	-33.0	13.1	1.14e-03	0	44	102	1048576	20	5141
2026-01-07 02:32:51.46	289.75	17.84	-30.0	-33.2	13.0	3.09e-03	0	43	102	1048576	20	5188
2026-01-07 02:32:52.46	289.54	17.79	-30.0	-33.1	13.1	2.97e-05	0	43	102	1048576	20	5145
2026-01-07 02:32:53.47	289.33	17.73	-29.9	-33.0	13.2	7.21e-04	0	43	102	1048576	20	5115
2026-01-07 02:32:54.48	289.13	17.67	-29.9	-33.0	13.2	3.07e-03	0	44	102	1048576	20	5113
2026-01-07 02:32:55.48	288.92	17.62	-30.0	-33.0	13.1	2.98e-03	0	43	102	1048576	20	5131
2026-01-07 02:32:56.49	288.72	17.56	-29.9	-32.9	13.2	2.51e-05	0	44	102	1048576	20	5067
2026-01-07 02:32:57.50	288.51	17.50	-29.9	-33.3	13.4	3.10e-03	0	43	102	1048576	19	5336
2026-01-07 02:32:58.50	288.31	17.45	-29.8	-33.2	13.4	2.67e-03	0	43	102	1048576	19	5289
2026-01-07 02:32:59.51	288.11	17.39	-29.8	-33.1	13.5	1.06e-05	0	43	102	1048576	19	5251
2026-01-07 02:33:00.52	287.91	17.33	-29.9	-33.2	13.4	2.67e-03	0	43	102	1048576	19	5297
2026-01-07 02:33:01.52	287.71	17.27	-29.8	-33.0	13.5	2.36e-03	0	43	102	1048576	19	5224
2026-01-07 02:33:02.53	287.51	17.21	-29.9	-33.2	13.4	1.29e-05	0	43	102	1048576	19	5295
2026-01-07 02:33:03.53	287.31	17.16	-29.9	-33.4	13.3	1.37e-05	0	43	102	1048576	19	5377
2026-01-07 02:33:04.54	287.11	17.10	-30.0	-33.0	13.1	2.69e-03	0	44	102	1048576	20	5128
2026-01-07 02:33:05.54	286.91	17.04	-30.0	-33.3	12.9	3.20e-05	0	43	102	1048576	20	5228
2026-01-07 02:33:06.55	286.72	16.98	-30.1	-33.3	12.9	5.26e-05	0	44	102	1048576	20	5254
2026-01-07 02:33:07.55	286.52	16.92	-30.0	-33.2	13.0	3.12e-03	0	43	102	1048576	20	5205
2026-01-07 02:33:08.56	286.33	16.86	-30.0	-33.2	13.0	5.65e-04	0	43	102	1048576	20	5213
2026-01-07 02:33:09.57	286.13	16.80	-30.1	-33.3	12.8	5.26e-05	0	43	102	1048576	20	5260
2026-01-07 02:33:10.57	285.94	16.74	-30.0	-33.2	13.0	6.56e-05	0	43	102	1048576	20	5196
2026-01-07 02:33:11.58	285.74	16.68	-29.9	-33.5	13.2	4.05e-04	0	43	102	1048576	19	5413
2026-01-07 02:33:12.59	285.55	16.62	-29.8	-33.2	13.3	1.37e-05	0	43	102	1048576	19	5301
2026-01-07 02:33:13.60	285.36	16.56	-29.8	-33.2	13.4	1.29e-05	0	44	102	1048576	19	5281
2026-01-07 02:33:14.60	285.17	16.50	-29.8	-33.2	13.4	1.22e-05	0	43	102	1048576	19	5290
2026-01-07 02:33:15.61	284.98	16.44	-29.9	-33.3	13.3	1.44e-05	0	44	102	1048576	19	5346
2026-01-07 02:33:16.61	284.79	16.38	-30.1	-33.4	12.8	3.58e-05	0	43	102	1048576	20	5284
2026-01-07 02:33:17.61	284.61	16.32	-30.2	-33.9	12.5	1.03e-04	0	43	102	1048576	20	5482
2026-01-07 02:33:18.61	284.42	16.26	-30.3	-34.0	12.4	2.70e-03	0	43	102	1048576	20	5532
2026-01-07 02:33:19.62	284.23	16.19	-30.4	-34.3	12.2	2.46e-04	0	43	102	1048576	20	5643
2026-01-07 02:33:20.63	284.05	16.13	-30.2	-33.9	12.5	1.51e-04	0	43	102	1048576	20	5472
2026-01-07 02:33:21.63	283.86	16.07	-30.3	-34.1	12.3	1.30e-04	0	43	102	1048576	20	5584
2026-01-07 02:33:22.64	283.68	16.01	-30.2	-33.9	12.4	1.69e-04	0	43	102	1048576	20	5509
2026-01-07 02:33:23.65	283.49	15.95	-30.1	-33.7	12.6	1.01e-04	0	43	102	1048576	20	5390
2026-01-07 02:33:24.66	283.31	15.88	-30.1	-33.6	12.6	9.38e-05	0	44	102	1048576	20	5391
2026-01-07 02:33:25.66	283.13	15.82	-30.2	-33.7	12.6	1.16e-04	0	43	102	1048576	20	5422
2026-01-07 02:33:26.66	282.95	15.76	-30.3	-34.0	12.3	1.58e-04	0	43	102	1048576	20	5554
2026-01-07 02:33:27.66	282.77	15.70	-30.3	-34.0	12.3	1.73e-04	0	43	102	1048576	20	5555
2026-01-07 02:33:28.66	282.59	15.64	-30.3	-34.2	12.2	1.71e-04	0	44	102	1048576	20	5607
2026-01-07 02:33:29.67	282.41	15.57	-30.3	-34.1	12.2	1.94e-04	0	43	102	1048576	20	5604
2026-01-07 02:33:30.67	282.23	15.51	-30.2	-33.9	12.4	1.95e-04	0	43	102	1048576	20	5520
2026-01-07 02:33:31.68	282.05	15.45	-30.2	-33.7	12.5	1.46e-04	0	44	102	1048576	20	5422
2026-01-07 02:33:32.69	281.88	15.38	-30.2	-33.7	12.5	8.92e-05	0	43	102	1048576	20	5413
2026-01-07 02:33:33.70	281.70	15.32	-30.1	-33.4	12.7	9.38e-05	0	43	102	1048576	20	5303
2026-01-07 02:33:34.70	281.53	15.26	-29.7	-33.0	12.8	6.86e-05	0	43	102	1048576	20	5279
2026-01-07 02:33:35.71	281.35	15.19	-30.1	-34.1	11.8	6.25e-05	0	43	102	1048576	19	5663
2026-01-07 02:33:36.72	281.18	15.13	-30.6	-34.2	11.7	9.07e-05	0	43	102	1048576	20	5470
2026-01-07 02:33:37.72	281.01	15.07	-30.2	-33.8	12.2	8.23e-05	0	43	102	1048576	20	5458
2026-01-07 02:33:38.73	280.83	15.00	-30.2	-33.9	11.4	1.68e-04	0	43	102	1048576	20	5516
2026-01-07 02:33:39.74	280.66	14.94	-30.3	-34.1	12.2	1.98e-04	0	43	102	1048576	20	5596
2026-01-07 02:33:40.75	280.49	14.87	-30.4	-34.3	12.0	2.78e-04	0	44	102	1048576	20	5685
2026-01-07 02:33:41.75	280.32	14.81	-30.4	-34.5	11.9	3.55e-04	0	43	102	1048576	20	5785
2026-01-07 02:33:42.76	280.15	14.75	-30.4	-34.4	12.0	3.58e-03	0	44	102	1048576	20	5743
2026-01-07 02:33:43.76	279.98	14.68	-30.3	-34.3	12.1	2.87e-04	0	44	102	1048576	20	5680
2026-01-07 02:33:44.77	279.81	14.62	-30.4	-34.4	12.0	3.26e-04	0	44	102	1048576	20	5711
2026-01-07 02:33:45.78	279.65	14.55	-30.1	-33.7	12.5	2.95e-03	0	44	102	1048576	20	5419
2026-01-07 02:33:46.79	279.48	14.49	-30.0	-33.3	12.8	7.24e-05	0	43	102	1048576	20	5264
2026-01-07 02:33:47.79	279.32	14.42	-30.1	-33.7	12.5	8.85e-05	0	43	102	1048576	20	5408
2026-01-07 02:33:48.80	279.15	14.36	-30.0	-33.5	12.6	3.39e-03	0	44	102	1048576	20	5329
2026-01-07 02:33:49.80	278.99	14.29	-29.9	-33.1	12.8	3.89e-04	0	43	102	1048576	20	5203
2026-01-07 02:33:50.81	278.82	14.23	-29.9	-33.5	13.0	4.27e-05	0	43	102	1048576	19	5455
2026-01-07 02:33:51.82	278.66	14.16	-30.0	-33.6	12.9	3.28e-05	0	43	102	1048576	19	5495
2026-01-07 02:33:52.83	278.50	14.10	-30.0	-33.3	12.7	6.72e-04	0	44	102	1048576	20	5278
2026-01-07 02:33:53.83	278.34	14.03	-30.1	-33.7	12.5	2.66e-03	0	43	102	1048576	20	5409
2026-01-07 02:33:54.84	278.18	13.97	-30.0	-33.5	12.6	1.01e-04	0	43	102	1048576	20	5346
2026-01-07 02:33:55.85	278.02	13.90	-30.0	-33.4	12.6	3.00e-04	0	44	102	1048576	20	5323
2026-01-07 02:33:56.86	277.86	13.84	-30.0	-33.4	12.7	2.09e-03	0	43	102	1048576	20	5296
2026-01-07 02:33:57.86	277.70	13.77	-30.0	-33.2	12.8	6.02e-05	0	43	102	1048576	20	5235
2026-01-07 02:33:58.87	277.54	13.71	-30.0	-33.3	12.7	4.37e-04	0	43	102	1048576	20	5277
2026-01-07 02:33:59.88	277.38	13.64	-30.2	-34.0	12.2	3.51e-03	0	43	102	1048576	20	5542
2026-01-07 02:34:00.88	277.23	13.58	-30.1	-33.6	12.4	3.58e-03	0	43	102	1048576	20	5388
2026-01-07 02:34:01.88	277.07	13.51	-29.9	-32.9	12.9	1.28e-03	0	43	102	1048576	20	5127
2026-01-07 02:34:02.88	276.92	13.45	-29.8	-33.2	13.2	3.13e-03	0	43	102	1048576	19	5321
2026-01-07 02:34:03.89	276.76	13.38	-29.8	-33.3	13.1	2.98e-03	0	43	102	1048576	19	5377
2026-01-07 02:34:04.90	276.61	13.32	-30.0	-33.7	12.8	4.04e-05	0	44	102	1048576	19	5516
2026-01-07 02:34:05.90	276.46	13.25	-29.9	-33.5	12.9	2.63e-03	0	43	102	1048576	19	5435
2026-01-07 02:34:06.91	276.31	13.19	-29.9	-33.5	12.9	2.65e-03	0	43	102	1048576	19	5476
2026-01-07 02:34:07.91	276.16	13.12	-29.9	-33.6	12.9	3.53e-04	0	43	102	1048576	19	5479
2026-01-07 02:34:08.92	276.00	13.06	-30.1	-33.5	12.5	2.66e-03	0	43	102	1048576	20	5366
2026-01-07 02:34:09.93	275.85	12.99	-30.2	-33.9	12.2	3.05e-03	0	44	102	1048576	20	5535
2026-01-07 02:34:10.93	275.70	12.93	-30.0	-33.3	12.6	3.33e-04	0	44	102	1048576	20	5294
2026-01-07 02:34:11.94	275.56	12.86	-30.1	-33.8	12.3	1.50e-04	0	43	102	1048576	20	5467
2026-01-07 02:34:12.95	275.41	12.79	-29.9	-33.1	12.8	2.77e-03	0	43	102	1048576	20	5193
2026-01-07 02:34:13.95	275.26	12.73	-29.8	-33.2	13.1	3.80e-04	0	43	102	1048576	19	5351
2026-01-07 02:34:14.96	275.11	12.66	-30.0	-33.7	12.8	2.69e-03	0	43	102	1048576	19	5547
2026-01-07 02:34:15.96	274.97	12.60	-29.9	-33.5	12.9	2.86e-03	0	43	102	1048576	19	5449
2026-01-07 02:34:16.97	274.82	12.53	-29.9	-33.7	12.8	3.82e-04	0	43	102	1048576	19	5535
2026-01-07 02:34:17.98	274.68	12.47	-29.8	-33.4	12.9	2.68e-03	0	43	102	1048576	19	5400
2026-01-07 02:34:18.99	274.53	12.40	-29.6	-32.8	13.3	1.90e-05	0	43	102	1048576	19	5196
2026-01-07 02:34:19.99	274.39	12.34	-29.5	-32.6	13.5	3.38e-04	0	43	102	1048576	19	5093
2026-01-07 02:34:21.00	274.25	12.27	-29.4	-32.3	13.7	2.21e-03	0	44	102	1048576	19	4986
2026-01-07 02:34:22.01	274.10	12.20	-29.5	-32.9	13.6	6.10e-06	0	43	102	1048576	18	5321
2026-01-07 02:34:23.01	273.96	12.14	-29.4	-32.2	13.7	3.80e-06	0	44	102	1048576	19	4973
2026-01-07 02:34:24.02	273.82	12.07	-29.5	-32.5	13.5	2.08e-03	0	43	102	1048576	19	5060
2026-01-07 02:34:25.02	273.68	12.01	-29.4	-32.7	13.7	2.48e-03	0	43	102	1048576	18	5253
2026-01-07 02:34:26.03	273.54	11.94	-29.3	-32.5	13.8	3.00e-06	0	43	102	1048576	18	5189
2026-01-07 02:34:27.04	273.40	11.88	-29.3	-32.5	13.8	2.67e-03	0	43	102	1048576	18	5186
2026-01-07 02:34:28.05	273.26	11.81	-29.3	-32.5	13.8	2.69e-03	0	43	102	1048576	18	5187
2026-01-07 02:34:29.06	273.12	11.74	-29.4	-32.7	13.7	5.30e-06	0	43	102	1048576	18	5252
2026-01-07 02:34:30.07	272.99	11.68	-29.6	-32.7	13.3	9.10e-06	0	43	102	1048576	19	5156
2026-01-07 02:34:31.07	272.85	11.61	-29.8	-33.2	13.0	3.14e-03	0	43	102	1048576	19	5347
2026-01-07 02:34:32.07	272.72	11.55	-29.8	-33.2	13.0	3.12e-05	0	43	102	1048576	19	5358
2026-01-07 02:34:33.08	272.58	11.48	-29.8	-33.4	12.8	5.49e-05	0	44	102	1048576	19	5449
2026-01-07 02:34:34.08	272.45	11.42	-29.8	-33.4	12.9	4.80e-05	0	43	102	1048576	19	5426
2026-01-07 02:34:35.09	272.31	11.35	-29.8	-33.3	12.9	4.80e-05	0	43	102	1048576	19	5388
2026-01-07 02:34:36.10	272.18	11.29	-29.8	-33.3	12.9	4.19e-05	0	44	102	1048576	19	5385
2026-01-07 02:34:37.11	272.04	11.22	-29.8	-33.3	12.9	6.02e-05	0	43	102	1048576	19	5378
2026-01-07 02:34:38.11	271.91	11.16	-29.8	-33.2	13.0	1.04e-03	0	43	102	1048576	19	5349
2026-01-07 02:34:39.12	271.78	11.09	-29.9	-33.2	12.5	1.01e-04	0	44	102	1048576	20	5279
2026-01-07 02:34:40.12	271.65	11.03	-29.8	-33.3	12.9	7.85e-05	0	43	102	1048576	19	5392
2026-01-07 02:34:41.13	271.52	10.96	-29.6	-32.9	13.2	3.89e-05	0	44	102	1048576	19	5227
2026-01-07 02:34:42.13	271.39	10.90	-29.6	-32.8	13.2	2.51e-05	0	44	102	1048576	19	5195
2026-01-07 02:34:43.14	271.26	10.83	-29.6	-32.9	13.2	1.75e-05	0	43	102	1048576	19	5227
2026-01-07 02:34:44.15	271.13	10.76	-29.7	-33.1	13.0	2.97e-05	0	43	102	1048576	19	5308
2026-01-07 02:34:45.16	271.00	10.70	-29.8	-33.3	12.9	5.26e-05	0	44	102	1048576	19	5397
2026-01-07 02:34:46.17	270.88	10.63	-29.9	-33.5	12.7	7.47e-05	0	43	102	1048576	19	5495
2026-01-07 02:34:47.17	270.75	10.57	-29.8	-33.3	12.8	5.87e-05	0	43	102	1048576	19	5407
2026-01-07 02:34:48.17	270.62	10.50	-29.8	-33.2	12.9	6.63e-05	0	43	102	1048576	19	5367
2026-01-07 02:34:49.18	270.50	10.44	-29.8	-33.4	12.8	8.54e-05	0	43	102	1048576	19	5428
2026-01-07 02:34:50.18	270.37	10.37	-29.7	-33.1	12.9	4.57e-05	0	43	102	1048576	19	5336
2026-01-07 02:34:51.19	270.25	10.31	-29.7	-33.1	12.9	5.11e-05	0	43	102	1048576	19	5327
2026-01-07 02:34:52.20	270.12	10.24	-29.7	-33.1	13.0	3.20e-05	0	43	102	1048576	19	5302
2026-01-07 02:34:53.20	270.00	10.18	-29.7	-33.2	12.8	5.49e-05	0	43	102	1048576	19	5370
2026-01-07 02:34:54.21	269.88	10.12	-29.6	-32.7	13.2	3.96e-05	0	44	102	1048576	19	5182
2026-01-07 02:34:55.20	269.76	10.05	-29.5	-32.6	13.3	1.90e-05	0	43	102	1048576	19	5117
2026-01-07 02:34:56.21	269.63	9.99	-28.5	-31.5	13.3	1.67e-05	0	44	102	1048576	19	5076
2026-01-07 02:34:57.21	269.51	9.92	-29.6	-32.8	13.0	2.28e-05	0	43	102	1048576	19	5201
2026-01-07 02:34:58.22	269.39	9.86	-29.7	-33.1	12.8	3.12e-05	0	43	102	1048576	19	5344
2026-01-07 02:34:59.23	269.27	9.79	-29.8	-33.3	11.4	6.48e-05	0	43	102	1048576	19	5428
2026-01-07 02:35:00.24	269.15	9.73	-29.8	-33.3	12.7	5.56e-05	0	43	102	1048576	19	5422
2026-01-07 02:35:01.25	269.03	9.66	-29.8	-33.6	12.6	6.71e-05	0	43	102	1048576	19	5514
2026-01-07 02:35:02.26	268.91	9.60	-29.9	-33.7	12.5	4.62e-03	0	44	102	1048576	19	5562
2026-01-07 02:35:03.26	268.79	9.53	-29.8	-33.6	12.5	1.07e-04	0	44	102	1048576	19	5531
2026-01-07 02:35:04.27	268.68	9.47	-29.9	-33.8	12.4	1.42e-04	0	43	102	1048576	19	5636
2026-01-07 02:35:05.28	268.56	9.41	-29.8	-33.6	12.5	5.25e-03	0	43	102	1048576	19	5540
2026-01-07 02:35:06.27	268.44	9.34	-30.0	-34.0	12.1	1.98e-04	0	44	102	1048576	19	5743
2026-01-07 02:35:07.28	268.33	9.28	-30.2	-34.2	11.6	4.41e-04	0	43	102	1048576	20	5729
2026-01-07 02:35:08.29	268.21	9.21	-30.3	-34.6	11.3	9.83e-04	0	43	102	1048576	20	5919
2026-01-07 02:35:09.30	268.10	9.15	-30.1	-34.0	11.7	5.77e-03	0	43	102	1048576	20	5623
2026-01-07 02:35:10.30	267.98	9.09	-30.0	-33.6	12.0	4.22e-04	0	43	102	1048576	20	5476
2026-01-07 02:35:11.31	267.87	9.02	-30.0	-34.1	12.1	2.68e-04	0	43	102	1048576	19	5757
2026-01-07 02:35:12.32	267.75	8.96	-30.0	-34.0	12.1	4.54e-03	0	43	102	1048576	19	5748
2026-01-07 02:35:13.33	267.64	8.89	-30.0	-33.7	11.9	2.64e-03	0	43	102	1048576	20	5485
2026-01-07 02:35:14.34	267.53	8.83	-30.0	-33.6	12.0	3.66e-04	0	43	102	1048576	20	5462
2026-01-07 02:35:15.35	267.42	8.76	-30.1	-33.9	11.8	4.03e-03	0	43	102	1048576	20	5609
2026-01-07 02:35:16.36	267.30	8.70	-30.1	-34.1	11.6	2.45e-03	0	44	102	1048576	20	5681
2026-01-07 02:35:17.36	267.19	8.64	-30.1	-34.0	11.7	5.49e-04	0	43	102	1048576	20	5618
2026-01-07 02:35:18.37	267.08	8.57	-30.2	-34.2	11.5	6.79e-04	0	44	102	1048576	20	5725
2026-01-07 02:35:19.38	266.97	8.51	-30.1	-34.1	11.6	2.01e-03	0	43	102	1048576	20	5687
2026-01-07 02:35:20.38	266.86	8.45	-30.2	-34.3	11.4	5.46e-03	0	43	102	1048576	20	5781
2026-01-07 02:35:21.39	266.75	8.38	-30.2	-34.2	11.5	8.80e-04	0	43	102	1048576	20	5721
2026-01-07 02:35:22.39	266.65	8.32	-30.2	-34.4	11.4	2.51e-03	0	44	102	1048576	20	5803
2026-01-07 02:35:23.40	266.54	8.26	-30.2	-34.4	11.4	4.86e-03	0	44	102	1048576	20	5805
2026-01-07 02:35:24.41	266.43	8.19	-30.2	-34.2	11.5	8.58e-04	0	44	102	1048576	20	5726
2026-01-07 02:35:25.42	266.32	8.13	-30.2	-34.3	11.4	2.67e-03	0	44	102	1048576	20	5767
2026-01-07 02:35:26.43	266.22	8.07	-30.1	-34.1	11.5	4.60e-03	0	43	102	1048576	20	5705
2026-01-07 02:35:27.44	266.11	8.00	-30.2	-34.2	11.5	4.46e-03	0	44	102	1048576	20	5757
2026-01-07 02:35:28.44	266.00	7.94	-30.2	-34.3	11.5	2.82e-03	0	43	102	1048576	20	5768
2026-01-07 02:35:29.45	265.90	7.88	-30.2	-34.4	11.3	4.45e-03	0	43	102	1048576	20	5837
2026-01-07 02:35:30.45	265.79	7.82	-30.3	-34.6	11.2	4.95e-03	0	44	102	1048576	20	5922
2026-01-07 02:35:31.46	265.69	7.75	-30.3	-34.6	11.2	2.82e-03	0	43	102	1048576	20	5908
2026-01-07 02:35:32.46	265.59	7.69	-30.3	-34.7	11.1	5.46e-03	0	43	102	1048576	20	5977
2026-01-07 02:35:33.47	265.48	7.63	-30.3	-34.8	11.0	4.89e-03	0	43	102	1048576	20	6035
2026-01-07 02:35:34.48	265.38	7.56	-30.4	-35.1	10.8	4.00e-03	0	43	102	1048576	20	6163
2026-01-07 02:35:35.47	265.28	7.50	-30.4	-35.0	10.8	5.95e-03	0	43	102	1048576	20	6153
2026-01-07 02:35:36.48	265.18	7.44	-30.4	-35.1	10.8	7.07e-03	0	43	102	1048576	20	6158
2026-01-07 02:35:37.49	265.07	7.38	-30.4	-34.9	10.9	3.28e-03	0	43	102	1048576	20	6092
2026-01-07 02:35:38.49	264.97	7.32	-30.3	-34.8	11.0	1.99e-03	0	43	102	1048576	20	6021
2026-01-07 02:35:39.50	264.87	7.25	-30.4	-34.9	10.9	5.47e-03	0	43	102	1048576	20	6085
2026-01-07 02:35:40.51	264.77	7.19	-30.4	-35.0	10.8	3.06e-03	0	43	102	1048576	20	6122
2026-01-07 02:35:41.51	264.67	7.13	-30.3	-34.8	11.0	5.44e-03	0	43	102	1048576	20	6009
2026-01-07 02:35:42.52	264.57	7.07	-32.6	-46.0	3.8	1.85e-01	0	43	104	1048576	25	16910
2026-01-07 02:35:43.53	264.47	7.00	-33.0	-47.5	3.8	1.49e+00	0	43	104	1048576	25	19187
2026-01-07 02:35:44.53	264.38	6.94	-33.2	-47.6	3.8	1.49e+00	0	43	104	1048576	26	18742

#Closed at: 2026-01-07 02:35:45
#Recorded file [1 MB]: D:/data/31010_260107_052612.dat