passes_logs/2026/01/07/R2M6_AANII_01/R2M6_AANII_01__20260107_002445_SUOMI_NPP_rec.log

#Pass ID: 20260107_002445_SUOMI NPP
#Satellite: SUOMI NPP
#Configuration: NPP
#almurnet v.1.7.20240730
#Start time: 2026-01-07 00:24:46

#Version: 2.2.20231116
#Station: R2M6_AANII_01
#Location: 30.233357 lon 59.946436 lat
#TLE: 1 37849U 11061A   26005.94084933  .00000134  00000+0  84554-4 0  9990
#TLE: 2 37849  98.7803 308.0679 0002567  79.1029 281.0436 14.19522657735426

#Time	Az	El	Level	Level2	SNR	BER	BlckErr	Temp	State	Recorded	gain1	gain2
2026-01-07 00:24:46.02	18.19	7.06	-32.0	-40.1	4.1	1.46e+00	0	41	0	0	24	9102
2026-01-07 00:24:47.02	18.19	7.13	-31.9	-39.8	4.2	1.45e+00	0	41	104	0	23	8869
2026-01-07 00:24:48.02	18.20	7.21	-32.0	-39.8	4.9	7.61e-01	0	41	0	0	23	8878
2026-01-07 00:24:49.03	18.20	7.29	-32.0	-40.0	4.8	7.35e-01	0	41	102	1048576	23	9100
2026-01-07 00:24:50.04	18.21	7.37	-32.0	-39.7	4.8	8.36e-01	0	41	102	1048576	24	8700
2026-01-07 00:24:51.05	18.21	7.45	-32.0	-39.5	4.8	7.75e-01	0	41	102	1048576	24	8576
2026-01-07 00:24:52.05	18.22	7.53	-32.0	-39.3	5.0	7.52e-01	0	41	102	1048576	24	8365
2026-01-07 00:24:53.06	18.22	7.61	-32.0	-39.3	4.9	7.50e-01	0	41	102	1048576	24	8401
2026-01-07 00:24:54.07	18.22	7.68	-32.0	-39.4	5.2	6.81e-01	0	41	102	1048576	23	8522
2026-01-07 00:24:55.08	18.23	7.76	-31.8	-38.5	5.7	5.87e-01	0	41	102	1048576	23	7783
2026-01-07 00:24:56.09	18.23	7.84	-31.6	-37.3	6.5	2.77e-01	0	41	102	1048576	23	6905
2026-01-07 00:24:57.10	18.24	7.93	-31.5	-36.6	6.9	2.27e-01	0	41	102	1048576	23	6509
2026-01-07 00:24:58.10	18.24	8.00	-31.3	-36.0	7.8	1.18e-01	0	42	102	1048576	22	6250
2026-01-07 00:24:59.11	18.24	8.09	-31.1	-35.4	8.2	5.78e-02	0	42	102	1048576	22	5889
2026-01-07 00:25:00.11	18.25	8.17	-30.9	-35.1	8.9	4.07e-02	0	41	102	1048576	21	5825
2026-01-07 00:25:01.12	18.25	8.25	-30.8	-34.8	9.1	3.22e-02	0	41	102	1048576	21	5693
2026-01-07 00:25:02.13	18.26	8.33	-30.9	-35.1	8.8	2.95e-02	0	41	102	1048576	21	5856
2026-01-07 00:25:03.13	18.26	8.41	-31.1	-35.3	8.4	4.06e-02	0	41	102	1048576	22	5831
2026-01-07 00:25:04.13	18.26	8.49	-30.8	-34.1	9.3	2.77e-02	0	42	102	1048576	22	5268
2026-01-07 00:25:05.14	18.27	8.57	-30.8	-34.6	9.3	2.44e-02	0	42	102	1048576	21	5582
2026-01-07 00:25:06.15	18.27	8.66	-30.8	-34.8	9.1	2.34e-02	0	42	102	1048576	21	5678
2026-01-07 00:25:07.15	18.28	8.74	-30.8	-34.8	9.2	1.64e-02	0	42	102	1048576	21	5664
2026-01-07 00:25:08.15	18.28	8.82	-30.9	-35.2	8.8	3.29e-02	0	42	102	1048576	21	5899
2026-01-07 00:25:09.16	18.29	8.90	-30.8	-34.7	9.2	2.59e-02	0	42	102	1048576	21	5647
2026-01-07 00:25:10.17	18.29	8.99	-30.9	-35.1	8.9	2.73e-02	0	42	102	1048576	21	5834
2026-01-07 00:25:11.17	18.29	9.07	-30.8	-34.7	9.2	2.67e-02	0	42	102	1048576	21	5650
2026-01-07 00:25:12.18	18.30	9.16	-30.6	-33.9	9.8	1.01e-02	0	42	102	1048576	21	5255
2026-01-07 00:25:13.18	18.30	9.24	-30.5	-33.6	10.0	9.09e-03	0	42	102	1048576	21	5137
2026-01-07 00:25:14.19	18.31	9.32	-30.6	-33.8	9.9	1.04e-02	0	42	102	1048576	21	5231
2026-01-07 00:25:15.19	18.31	9.41	-30.5	-33.7	10.0	1.04e-02	0	42	102	1048576	21	5174
2026-01-07 00:25:16.20	18.31	9.49	-30.6	-34.1	9.7	1.04e-02	0	42	102	1048576	21	5364
2026-01-07 00:25:17.20	18.32	9.58	-30.4	-33.3	10.3	1.07e-02	0	42	102	1048576	21	5023
2026-01-07 00:25:18.21	18.32	9.67	-30.4	-33.7	10.4	8.04e-03	0	42	102	1048576	20	5266
2026-01-07 00:25:19.22	18.33	9.75	-30.4	-33.8	10.3	4.91e-03	0	42	102	1048576	20	5312
2026-01-07 00:25:20.23	18.33	9.84	-30.3	-33.4	10.7	5.65e-03	0	42	102	1048576	20	5122
2026-01-07 00:25:21.23	18.34	9.92	-30.4	-33.7	10.4	7.44e-03	0	42	102	1048576	20	5260
2026-01-07 00:25:22.24	18.34	10.01	-30.3	-33.5	10.6	3.22e-03	0	42	102	1048576	20	5174
2026-01-07 00:25:23.24	18.34	10.10	-30.4	-33.6	10.5	4.22e-03	0	42	102	1048576	20	5216
2026-01-07 00:25:24.25	18.35	10.19	-30.3	-33.3	10.8	6.02e-03	0	42	102	1048576	20	5082
2026-01-07 00:25:25.26	18.35	10.27	-30.1	-32.7	11.2	2.47e-03	0	42	102	1048576	20	4839
2026-01-07 00:25:26.27	18.36	10.36	-30.1	-32.6	11.2	1.60e-03	0	42	102	1048576	20	4831
2026-01-07 00:25:27.27	18.36	10.45	-30.2	-33.1	10.9	4.34e-03	0	42	102	1048576	20	5001
2026-01-07 00:25:28.28	18.36	10.54	-30.1	-32.8	11.2	2.11e-03	0	42	102	1048576	20	4892
2026-01-07 00:25:29.29	18.37	10.63	-30.2	-33.1	10.9	2.05e-03	0	42	102	1048576	20	5028
2026-01-07 00:25:30.30	18.37	10.72	-30.1	-32.5	11.3	1.52e-03	0	42	102	1048576	20	4787
2026-01-07 00:25:31.29	18.38	10.81	-30.1	-32.6	11.3	1.05e-03	0	42	102	1048576	20	4802
2026-01-07 00:25:32.30	18.38	10.90	-30.2	-32.8	11.2	1.16e-03	0	42	102	1048576	20	4874
2026-01-07 00:25:33.30	18.38	10.99	-30.0	-32.2	11.6	7.60e-04	0	42	102	1048576	20	4664
2026-01-07 00:25:34.31	18.39	11.08	-30.1	-32.7	11.2	1.60e-03	0	42	102	1048576	20	4852
2026-01-07 00:25:35.31	18.39	11.17	-30.0	-32.5	11.4	3.76e-03	0	42	102	1048576	20	4753
2026-01-07 00:25:36.32	18.40	11.26	-30.0	-32.5	11.4	8.60e-04	0	42	102	1048576	20	4758
2026-01-07 00:25:37.32	18.40	11.35	-30.2	-32.8	11.0	1.12e-03	0	42	102	1048576	20	4880
2026-01-07 00:25:38.32	18.40	11.45	-30.0	-32.4	11.2	4.41e-03	0	42	102	1048576	20	4728
2026-01-07 00:25:39.32	18.41	11.54	-30.1	-32.5	11.4	1.05e-03	0	43	102	1048576	20	4769
2026-01-07 00:25:40.33	18.41	11.63	-30.2	-33.0	10.8	1.36e-03	0	42	102	1048576	20	4964
2026-01-07 00:25:41.34	18.42	11.72	-30.0	-32.2	11.3	1.78e-03	0	42	102	1048576	20	4655
2026-01-07 00:25:42.35	18.42	11.82	-30.1	-32.6	11.4	8.33e-04	0	42	102	1048576	20	4802
2026-01-07 00:25:43.35	18.43	11.91	-30.2	-32.9	10.9	1.51e-03	0	43	102	1048576	20	4898
2026-01-07 00:25:44.36	18.43	12.01	-30.1	-32.7	11.3	8.44e-04	0	42	102	1048576	20	4851
2026-01-07 00:25:45.37	18.43	12.10	-30.1	-32.5	11.5	3.66e-03	0	42	102	1048576	20	4759
2026-01-07 00:25:46.37	18.44	12.20	-30.0	-32.2	11.6	7.42e-04	0	42	102	1048576	20	4662
2026-01-07 00:25:47.38	18.44	12.29	-30.2	-32.8	11.3	9.33e-04	0	42	102	1048576	20	4852
2026-01-07 00:25:48.39	18.45	12.39	-30.2	-33.0	11.1	1.11e-03	0	43	102	1048576	20	4948
2026-01-07 00:25:49.39	18.45	12.48	-30.3	-33.3	10.9	2.64e-03	0	42	102	1048576	20	5084
2026-01-07 00:25:50.40	18.45	12.58	-30.0	-32.2	11.7	1.38e-03	0	43	102	1048576	20	4649
2026-01-07 00:25:51.41	18.46	12.68	-29.9	-31.8	12.0	7.78e-04	0	43	102	1048576	20	4516
2026-01-07 00:25:52.42	18.46	12.77	-29.8	-32.2	12.1	9.12e-04	0	42	102	1048576	19	4744
2026-01-07 00:25:53.42	18.47	12.87	-29.8	-32.0	12.3	1.78e-04	0	42	102	1048576	19	4659
2026-01-07 00:25:54.43	18.47	12.97	-29.3	-31.4	12.4	3.14e-04	0	43	102	1048576	19	4616
2026-01-07 00:25:55.44	18.47	13.07	-28.3	-30.7	12.1	6.85e-04	0	43	102	1048576	18	4713
2026-01-07 00:25:56.44	18.48	13.17	-29.4	-31.6	12.1	7.33e-04	0	43	102	1048576	18	4617
2026-01-07 00:25:57.44	18.48	13.27	-29.5	-31.3	12.6	3.43e-05	0	43	102	1048576	19	4402
2026-01-07 00:25:58.44	18.49	13.37	-29.7	-31.9	11.8	1.24e-04	0	43	102	1048576	19	4628
2026-01-07 00:25:59.45	18.49	13.47	-29.4	-31.4	12.5	8.64e-04	0	43	102	1048576	18	4550
2026-01-07 00:26:00.46	18.49	13.57	-29.6	-31.5	12.6	4.34e-05	0	43	102	1048576	19	4489
2026-01-07 00:26:01.46	18.50	13.67	-29.5	-31.7	12.8	6.56e-05	0	43	102	1048576	18	4645
2026-01-07 00:26:02.47	18.50	13.77	-29.6	-31.6	12.6	2.42e-03	0	43	102	1048576	19	4514
2026-01-07 00:26:03.47	18.51	13.87	-29.6	-31.5	12.7	1.17e-04	0	43	102	1048576	19	4473
2026-01-07 00:26:04.48	18.51	13.97	-29.5	-31.6	12.9	7.32e-05	0	43	102	1048576	18	4613
2026-01-07 00:26:05.48	18.51	14.08	-29.3	-31.1	13.2	3.31e-03	0	43	102	1048576	18	4453
2026-01-07 00:26:06.49	18.52	14.18	-29.2	-31.0	13.3	1.37e-05	0	43	102	1048576	18	4399
2026-01-07 00:26:07.50	18.52	14.28	-29.1	-30.6	13.6	7.60e-06	0	43	102	1048576	18	4295
2026-01-07 00:26:08.50	18.53	14.39	-29.3	-31.1	13.3	1.29e-05	0	43	102	1048576	18	4432
2026-01-07 00:26:09.52	18.53	14.49	-29.3	-31.1	13.3	2.29e-04	0	43	102	1048576	18	4450
2026-01-07 00:26:10.51	18.54	14.60	-29.1	-30.6	13.6	5.80e-04	0	43	102	1048576	18	4293
2026-01-07 00:26:11.52	18.54	14.70	-29.1	-30.6	13.6	6.10e-06	0	43	102	1048576	18	4270
2026-01-07 00:26:12.53	18.54	14.81	-29.1	-30.5	13.7	2.18e-04	0	43	102	1048576	18	4250
2026-01-07 00:26:13.53	18.55	14.91	-29.2	-30.8	13.5	6.09e-04	0	43	102	1048576	18	4348
2026-01-07 00:26:14.53	18.55	15.02	-29.1	-30.5	13.6	5.55e-04	0	43	102	1048576	18	4263
2026-01-07 00:26:15.53	18.56	15.13	-29.1	-30.6	13.6	1.88e-04	0	43	102	1048576	18	4279
2026-01-07 00:26:16.53	18.56	15.23	-29.1	-30.7	13.5	3.03e-03	0	43	102	1048576	18	4321
2026-01-07 00:26:17.54	18.56	15.34	-29.1	-30.7	13.6	6.87e-04	0	43	102	1048576	18	4292
2026-01-07 00:26:18.55	18.57	15.45	-29.0	-30.4	13.7	2.20e-06	0	43	102	1048576	18	4219
2026-01-07 00:26:19.55	18.57	15.56	-29.1	-30.7	13.6	3.31e-03	0	43	102	1048576	18	4304
2026-01-07 00:26:20.56	18.58	15.67	-29.1	-30.5	13.7	3.20e-03	0	43	102	1048576	18	4247
2026-01-07 00:26:21.57	18.58	15.78	-29.2	-30.8	13.5	4.50e-06	0	43	102	1048576	18	4326
2026-01-07 00:26:22.57	18.58	15.89	-29.2	-30.8	13.5	3.34e-03	0	43	102	1048576	18	4343
2026-01-07 00:26:23.57	18.59	16.00	-29.1	-30.5	13.7	3.04e-03	0	43	102	1048576	18	4237
2026-01-07 00:26:24.58	18.59	16.11	-29.2	-30.8	13.5	7.60e-06	0	43	102	1048576	18	4330
2026-01-07 00:26:25.59	18.60	16.23	-29.1	-30.6	13.7	3.05e-03	0	43	102	1048576	18	4269
2026-01-07 00:26:26.60	18.60	16.34	-29.1	-30.5	13.7	3.36e-03	0	43	102	1048576	18	4245
2026-01-07 00:26:27.61	18.60	16.45	-29.0	-30.5	13.7	2.08e-04	0	43	102	1048576	18	4232
2026-01-07 00:26:28.61	18.61	16.57	-29.0	-30.4	13.8	7.84e-04	0	43	102	1048576	18	4229
2026-01-07 00:26:29.62	18.61	16.68	-29.1	-30.5	13.7	3.25e-03	0	43	102	1048576	18	4239
2026-01-07 00:26:30.62	18.62	16.79	-29.0	-30.2	13.9	1.75e-04	0	43	102	1048576	18	4165
2026-01-07 00:26:31.63	18.62	16.91	-29.0	-30.7	13.9	2.53e-03	0	43	102	1048576	17	4406
2026-01-07 00:26:32.63	18.62	17.03	-29.0	-30.8	13.9	2.97e-03	0	43	102	1048576	17	4424
2026-01-07 00:26:33.64	18.63	17.14	-28.8	-30.4	14.1	1.13e-04	0	43	102	1048576	17	4313
2026-01-07 00:26:34.65	18.63	17.26	-28.8	-30.4	14.1	3.02e-03	0	43	102	1048576	17	4322
2026-01-07 00:26:35.65	18.64	17.38	-28.9	-30.5	14.0	2.52e-03	0	43	102	1048576	17	4326
2026-01-07 00:26:36.66	18.64	17.50	-28.8	-30.3	14.1	1.66e-04	0	43	102	1048576	17	4284
2026-01-07 00:26:37.66	18.64	17.61	-28.9	-30.4	14.1	3.03e-03	0	43	102	1048576	17	4310
2026-01-07 00:26:38.67	18.65	17.73	-28.8	-30.2	14.3	7.00e-07	0	43	102	1048576	17	4237
2026-01-07 00:26:39.67	18.65	17.85	-28.8	-30.4	14.1	1.57e-04	0	43	102	1048576	17	4302
2026-01-07 00:26:40.67	18.66	17.97	-28.8	-30.1	14.3	2.97e-03	0	43	102	1048576	17	4226
2026-01-07 00:26:41.68	18.66	18.09	-28.7	-30.1	14.3	2.92e-03	0	43	102	1048576	17	4225
2026-01-07 00:26:42.69	18.66	18.22	-29.0	-30.3	13.9	1.69e-04	0	43	102	1048576	18	4177
2026-01-07 00:26:43.69	18.67	18.34	-28.9	-30.4	14.1	2.96e-03	0	43	102	1048576	17	4313
2026-01-07 00:26:44.70	18.67	18.46	-29.0	-30.3	13.9	3.14e-03	0	43	102	1048576	18	4172
2026-01-07 00:26:45.70	18.68	18.58	-29.2	-30.7	13.7	6.10e-06	0	43	102	1048576	18	4305
2026-01-07 00:26:46.71	18.68	18.71	-29.1	-30.4	13.8	2.51e-03	0	43	102	1048576	18	4217
2026-01-07 00:26:47.72	18.68	18.83	-29.1	-30.4	13.9	3.39e-03	0	43	102	1048576	18	4211
2026-01-07 00:26:48.73	18.69	18.96	-29.0	-30.2	14.1	3.00e-06	0	43	102	1048576	18	4131
2026-01-07 00:26:49.73	18.69	19.08	-29.1	-30.5	13.8	2.38e-03	0	43	102	1048576	18	4249
2026-01-07 00:26:50.74	18.70	19.21	-29.1	-30.5	13.8	2.88e-03	0	43	102	1048576	18	4243
2026-01-07 00:26:51.75	18.70	19.34	-29.1	-30.4	13.9	7.85e-05	0	43	102	1048576	18	4215
2026-01-07 00:26:52.75	18.70	19.47	-29.2	-30.8	13.6	8.30e-06	0	43	102	1048576	18	4335
2026-01-07 00:26:53.76	18.71	19.60	-29.0	-30.3	14.0	2.54e-03	0	43	102	1048576	18	4157
2026-01-07 00:26:54.77	18.71	19.73	-29.2	-30.7	13.7	4.73e-05	0	43	102	1048576	18	4310
2026-01-07 00:26:55.77	18.72	19.86	-29.0	-30.2	14.0	3.00e-06	0	43	102	1048576	18	4152
2026-01-07 00:26:56.78	18.72	19.99	-29.0	-30.1	14.1	4.50e-06	0	43	102	1048576	18	4116
2026-01-07 00:26:57.79	18.72	20.12	-29.2	-30.8	13.6	1.11e-04	0	43	102	1048576	18	4330
2026-01-07 00:26:58.80	18.73	20.25	-28.9	-30.0	14.2	7.00e-07	0	43	102	1048576	18	4068
2026-01-07 00:26:59.81	18.73	20.38	-29.1	-30.4	13.9	3.00e-06	0	43	102	1048576	18	4207
2026-01-07 00:27:00.81	18.74	20.52	-29.1	-30.5	13.9	3.12e-05	0	43	102	1048576	18	4223
2026-01-07 00:27:01.81	18.74	20.65	-29.1	-30.4	13.9	2.78e-03	0	43	102	1048576	18	4210
2026-01-07 00:27:02.83	18.74	20.79	-29.1	-30.5	13.9	3.80e-06	0	43	102	1048576	18	4216
2026-01-07 00:27:03.83	18.75	20.92	-29.2	-30.8	13.6	1.50e-06	0	43	102	1048576	18	4333
2026-01-07 00:27:04.84	18.75	21.06	-29.1	-30.6	13.8	3.05e-03	0	43	102	1048576	18	4256
2026-01-07 00:27:05.84	18.76	21.20	-29.5	-31.6	13.2	1.06e-05	0	43	102	1048576	18	4571
2026-01-07 00:27:06.85	18.76	21.33	-29.5	-31.2	13.1	6.10e-05	0	43	102	1048576	19	4348
2026-01-07 00:27:07.86	18.76	21.47	-29.3	-31.1	13.5	2.44e-03	0	43	102	1048576	18	4403
2026-01-07 00:27:08.86	18.77	21.61	-29.6	-31.5	13.0	2.21e-05	0	43	102	1048576	19	4448
2026-01-07 00:27:09.87	18.77	21.75	-29.3	-30.5	13.6	2.21e-05	0	43	102	1048576	19	4122
2026-01-07 00:27:10.87	18.78	21.89	-29.6	-31.4	13.0	1.75e-05	0	43	102	1048576	19	4416
2026-01-07 00:27:11.88	18.78	22.04	-29.7	-31.7	12.8	4.88e-05	0	43	102	1048576	19	4511
2026-01-07 00:27:12.89	18.78	22.18	-29.6	-31.5	13.0	4.34e-05	0	43	102	1048576	19	4448
2026-01-07 00:27:13.90	18.79	22.32	-29.7	-31.7	12.8	4.65e-05	0	43	102	1048576	19	4525
2026-01-07 00:27:14.90	18.79	22.47	-29.7	-31.6	12.8	6.25e-05	0	43	102	1048576	19	4497
2026-01-07 00:27:15.90	18.80	22.61	-29.7	-31.7	12.8	4.34e-05	0	43	102	1048576	19	4516
2026-01-07 00:27:16.91	18.80	22.76	-29.8	-32.0	12.6	4.19e-05	0	43	102	1048576	19	4622
2026-01-07 00:27:17.91	18.80	22.90	-29.8	-31.8	12.8	9.46e-05	0	43	102	1048576	19	4542
2026-01-07 00:27:18.92	18.81	23.05	-29.8	-31.9	12.8	7.24e-05	0	43	102	1048576	19	4572
2026-01-07 00:27:19.92	18.81	23.20	-30.0	-32.4	12.4	1.07e-04	0	43	102	1048576	19	4744
2026-01-07 00:27:20.93	18.82	23.35	-29.9	-32.2	12.5	1.02e-04	0	43	102	1048576	19	4690
2026-01-07 00:27:21.93	18.82	23.50	-30.0	-32.4	12.4	1.29e-04	0	43	102	1048576	19	4747
2026-01-07 00:27:22.94	18.82	23.65	-29.3	-31.4	12.1	3.11e-04	0	43	102	1048576	20	4582
2026-01-07 00:27:23.94	18.83	23.80	-30.1	-32.4	12.0	2.34e-04	0	43	102	1048576	20	4651
2026-01-07 00:27:24.95	18.83	23.95	-30.2	-32.6	11.7	3.10e-04	0	43	102	1048576	20	4754
2026-01-07 00:27:25.95	18.84	24.11	-30.1	-32.4	11.9	3.90e-04	0	43	102	1048576	20	4677
2026-01-07 00:27:26.96	18.84	24.26	-30.2	-32.6	11.9	4.41e-04	0	43	102	1048576	20	4741
2026-01-07 00:27:27.97	18.84	24.42	-30.1	-32.3	12.0	3.88e-04	0	43	102	1048576	20	4635
2026-01-07 00:27:28.98	18.85	24.58	-30.1	-32.1	12.2	2.59e-04	0	43	102	1048576	20	4560
2026-01-07 00:27:29.98	18.85	24.73	-30.2	-32.4	12.0	3.94e-04	0	43	102	1048576	20	4668
2026-01-07 00:27:30.99	18.86	24.89	-30.1	-32.3	12.1	4.86e-04	0	43	102	1048576	20	4639
2026-01-07 00:27:32.00	18.86	25.05	-30.0	-32.0	12.3	2.92e-03	0	43	102	1048576	20	4520
2026-01-07 00:27:33.00	18.86	25.21	-30.0	-32.0	12.3	1.50e-04	0	43	102	1048576	20	4528
2026-01-07 00:27:34.01	18.87	25.37	-30.0	-32.0	12.3	2.15e-04	0	43	102	1048576	20	4542
2026-01-07 00:27:35.02	18.87	25.54	-30.1	-32.3	12.1	2.84e-03	0	43	102	1048576	20	4645
2026-01-07 00:27:36.03	18.88	25.70	-30.4	-33.0	11.6	6.10e-04	0	43	102	1048576	20	4900
2026-01-07 00:27:37.03	18.88	25.86	-30.3	-32.8	11.7	7.68e-04	0	43	102	1048576	20	4830
2026-01-07 00:27:38.04	18.88	26.03	-30.4	-33.1	11.6	5.37e-04	0	43	102	1048576	20	4929
2026-01-07 00:27:39.04	18.89	26.20	-30.4	-33.3	11.3	7.26e-04	0	43	102	1048576	20	5024
2026-01-07 00:27:40.05	18.89	26.36	-30.3	-32.8	11.7	5.48e-04	0	43	102	1048576	20	4816
2026-01-07 00:27:41.06	18.90	26.53	-30.2	-32.6	11.9	4.42e-04	0	43	102	1048576	20	4743
2026-01-07 00:27:42.07	18.90	26.70	-30.3	-32.8	11.8	7.56e-04	0	43	102	1048576	20	4800
2026-01-07 00:27:43.08	18.90	26.87	-30.1	-32.4	12.1	3.42e-03	0	43	102	1048576	20	4657
2026-01-07 00:27:44.09	18.91	27.05	-30.2	-32.6	11.9	2.74e-04	0	43	102	1048576	20	4743
2026-01-07 00:27:45.10	18.91	27.22	-30.3	-33.0	11.7	5.13e-04	0	43	102	1048576	20	4876
2026-01-07 00:27:46.10	18.92	27.39	-30.2	-32.5	12.0	3.19e-03	0	43	102	1048576	20	4706
2026-01-07 00:27:47.11	18.92	27.57	-30.0	-32.0	12.4	1.38e-04	0	43	102	1048576	20	4502
2026-01-07 00:27:48.12	18.92	27.75	-30.1	-32.1	12.4	1.50e-04	0	43	102	1048576	20	4532
2026-01-07 00:27:49.12	18.93	27.92	-29.9	-31.5	12.8	2.95e-03	0	43	102	1048576	20	4337
2026-01-07 00:27:50.13	18.93	28.10	-30.2	-32.5	12.2	2.88e-03	0	43	102	1048576	20	4676
2026-01-07 00:27:51.14	18.94	28.28	-30.4	-33.0	11.8	2.30e-04	0	43	102	1048576	20	4857
2026-01-07 00:27:52.15	18.94	28.46	-30.3	-32.6	12.1	3.03e-03	0	43	102	1048576	20	4708
2026-01-07 00:27:53.15	18.94	28.64	-30.3	-32.7	11.9	3.16e-03	0	43	102	1048576	20	4750
2026-01-07 00:27:54.16	18.95	28.83	-30.0	-31.9	12.6	2.82e-04	0	43	102	1048576	20	4488
2026-01-07 00:27:55.17	18.95	29.01	-30.1	-32.1	12.3	2.71e-03	0	43	102	1048576	20	4547
2026-01-07 00:27:56.17	18.96	29.20	-30.0	-31.7	12.5	2.90e-03	0	43	102	1048576	20	4425
2026-01-07 00:27:57.18	18.96	29.39	-29.8	-31.2	12.9	8.77e-05	0	43	102	1048576	20	4257
2026-01-07 00:27:58.19	18.96	29.57	-29.9	-31.5	12.8	2.80e-03	0	43	102	1048576	20	4329
2026-01-07 00:27:59.20	18.97	29.76	-29.8	-31.6	13.1	2.68e-03	0	43	102	1048576	19	4459
2026-01-07 00:28:00.21	18.97	29.96	-29.5	-30.9	13.6	1.29e-05	0	43	102	1048576	19	4222
2026-01-07 00:28:01.21	18.98	30.15	-29.6	-31.3	13.3	2.67e-04	0	43	102	1048576	19	4350
2026-01-07 00:28:02.22	18.98	30.34	-29.6	-31.2	13.5	2.36e-03	0	43	102	1048576	19	4331
2026-01-07 00:28:03.23	18.98	30.54	-29.8	-31.8	13.0	6.10e-06	0	43	102	1048576	19	4513
2026-01-07 00:28:04.23	18.99	30.73	-30.0	-31.7	12.7	2.41e-03	0	43	102	1048576	20	4394
2026-01-07 00:28:05.24	18.99	30.93	-29.7	-30.9	13.1	2.60e-03	0	43	102	1048576	20	4149
2026-01-07 00:28:06.24	18.99	31.13	-29.9	-31.6	12.7	5.34e-05	0	43	102	1048576	20	4364
2026-01-07 00:28:07.25	19.00	31.33	-30.0	-32.1	12.8	2.60e-03	0	43	102	1048576	19	4632
2026-01-07 00:28:08.25	19.00	31.53	-29.6	-31.1	13.4	1.83e-04	0	43	102	1048576	19	4302
2026-01-07 00:28:09.25	19.01	31.73	-29.7	-31.4	13.2	1.14e-04	0	44	102	1048576	19	4394
2026-01-07 00:28:10.25	19.01	31.93	-30.0	-31.8	12.6	2.51e-03	0	43	102	1048576	20	4423
2026-01-07 00:28:11.26	19.01	32.14	-30.0	-31.9	12.6	2.34e-03	0	43	102	1048576	20	4463
2026-01-07 00:28:12.27	19.02	32.35	-29.9	-31.7	12.7	9.68e-05	0	43	102	1048576	20	4393
2026-01-07 00:28:13.27	19.02	32.55	-30.2	-32.5	12.1	2.50e-03	0	43	102	1048576	20	4704
2026-01-07 00:28:14.28	19.03	32.76	-30.4	-32.9	11.8	2.97e-03	0	43	102	1048576	20	4838
2026-01-07 00:28:15.28	19.03	32.97	-30.5	-32.9	11.5	7.79e-04	0	43	102	1048576	21	4740
2026-01-07 00:28:16.29	19.03	33.19	-30.6	-33.4	11.1	4.12e-03	0	43	102	1048576	21	4923
2026-01-07 00:28:17.30	19.04	33.40	-30.7	-33.4	11.1	4.49e-03	0	43	102	1048576	21	4932
2026-01-07 00:28:18.30	19.04	33.62	-30.6	-33.3	11.2	1.85e-03	0	43	102	1048576	21	4885
2026-01-07 00:28:19.31	19.05	33.84	-30.7	-33.4	11.1	1.30e-03	0	44	102	1048576	21	4938
2026-01-07 00:28:20.32	19.05	34.06	-30.6	-33.1	11.4	3.32e-03	0	44	102	1048576	21	4802
2026-01-07 00:28:21.32	19.05	34.27	-30.7	-33.4	11.2	1.30e-03	0	43	102	1048576	21	4934
2026-01-07 00:28:22.33	19.06	34.50	-30.3	-32.1	12.1	9.02e-04	0	43	102	1048576	21	4445
2026-01-07 00:28:23.34	19.06	34.72	-30.2	-32.4	12.2	2.87e-03	0	43	102	1048576	20	4655
2026-01-07 00:28:24.35	19.07	34.95	-30.0	-32.0	12.5	1.84e-04	0	43	102	1048576	20	4499
2026-01-07 00:28:25.35	19.07	35.17	-30.0	-31.8	12.6	1.20e-04	0	43	102	1048576	20	4433
2026-01-07 00:28:26.36	19.07	35.40	-29.8	-31.7	13.0	7.32e-05	0	43	102	1048576	19	4497
2026-01-07 00:28:27.37	19.08	35.64	-29.6	-31.1	13.5	6.86e-05	0	43	102	1048576	19	4311
2026-01-07 00:28:28.38	19.08	35.87	-29.4	-30.7	13.8	6.10e-06	0	43	102	1048576	19	4177
2026-01-07 00:28:29.38	19.09	36.10	-29.6	-31.2	13.5	6.80e-06	0	43	102	1048576	19	4319
2026-01-07 00:28:30.39	19.09	36.34	-29.4	-30.6	13.9	6.94e-05	0	43	102	1048576	19	4123
2026-01-07 00:28:31.40	19.09	36.58	-29.2	-30.7	14.1	1.50e-06	0	43	102	1048576	18	4245
2026-01-07 00:28:32.40	19.10	36.81	-29.3	-30.2	14.1	2.20e-06	0	43	102	1048576	19	4016
2026-01-07 00:28:33.41	19.10	37.05	-28.8	-29.1	14.8	0.00e+00	0	43	102	1048576	19	3728
2026-01-07 00:28:34.42	19.11	37.30	-28.9	-30.4	14.6	0.00e+00	0	43	102	1048576	17	4259
2026-01-07 00:28:35.43	19.11	37.54	-28.8	-30.1	14.8	7.00e-07	0	43	102	1048576	17	4179
2026-01-07 00:28:36.43	19.11	37.79	-28.9	-29.9	14.6	0.00e+00	0	43	102	1048576	18	4028
2026-01-07 00:28:37.44	19.12	38.04	-29.1	-30.5	14.3	7.00e-07	0	43	102	1048576	18	4183
2026-01-07 00:28:38.45	19.12	38.29	-28.7	-29.2	15.0	0.00e+00	0	43	102	1048576	18	3846
2026-01-07 00:28:39.45	19.13	38.54	-28.5	-29.3	15.2	0.00e+00	0	43	102	1048576	17	3955
2026-01-07 00:28:40.46	19.13	38.79	-28.6	-29.5	15.1	0.00e+00	0	43	102	1048576	17	4010
2026-01-07 00:28:41.47	19.13	39.05	-28.4	-29.2	15.3	0.00e+00	0	43	102	1048576	17	3923
2026-01-07 00:28:42.47	19.14	39.30	-28.4	-29.2	15.3	0.00e+00	0	44	102	1048576	17	3931
2026-01-07 00:28:43.48	19.14	39.56	-28.5	-29.4	15.1	0.00e+00	0	43	102	1048576	17	4002
2026-01-07 00:28:44.49	19.15	39.83	-28.6	-29.7	15.0	0.00e+00	0	43	102	1048576	17	4068
2026-01-07 00:28:45.49	19.15	40.09	-28.5	-29.3	15.2	0.00e+00	0	43	102	1048576	17	3966
2026-01-07 00:28:46.50	19.15	40.36	-28.8	-30.2	14.7	7.00e-07	0	43	102	1048576	17	4213
2026-01-07 00:28:47.51	19.16	40.62	-28.7	-29.8	14.7	0.00e+00	0	43	102	1048576	17	4105
2026-01-07 00:28:48.51	19.16	40.89	-29.2	-30.7	14.1	7.00e-07	0	43	102	1048576	18	4282
2026-01-07 00:28:49.52	19.17	41.16	-29.2	-30.6	12.8	3.80e-06	0	43	102	1048576	18	4243
2026-01-07 00:28:50.52	19.17	41.44	-29.2	-30.8	13.7	3.80e-06	0	43	102	1048576	18	4291
2026-01-07 00:28:51.53	19.17	41.71	-29.7	-31.5	12.4	1.98e-05	0	44	102	1048576	19	4427
2026-01-07 00:28:52.53	19.18	41.99	-29.6	-31.1	12.9	1.52e-05	0	43	102	1048576	19	4303
2026-01-07 00:28:53.53	19.18	42.27	-29.5	-30.8	13.7	3.80e-06	0	43	102	1048576	19	4210
2026-01-07 00:28:54.54	19.19	42.55	-29.5	-31.0	13.6	2.24e-03	0	43	102	1048576	19	4254
2026-01-07 00:28:55.55	19.19	42.83	-29.8	-31.7	13.2	4.50e-06	0	43	102	1048576	19	4467
2026-01-07 00:28:56.56	19.19	43.12	-29.7	-31.6	13.4	2.74e-05	0	43	102	1048576	19	4437
2026-01-07 00:28:57.57	19.20	43.41	-29.6	-31.1	13.6	2.04e-03	0	43	102	1048576	19	4281
2026-01-07 00:28:58.58	19.20	43.70	-29.8	-31.6	13.3	1.52e-05	0	43	102	1048576	19	4457
2026-01-07 00:28:59.58	19.21	43.99	-29.7	-31.4	13.4	1.22e-05	0	43	102	1048576	19	4385
2026-01-07 00:29:00.59	19.21	44.29	-29.8	-31.7	13.2	1.22e-05	0	43	102	1048576	19	4482
2026-01-07 00:29:01.59	19.21	44.58	-30.0	-32.0	12.4	2.33e-03	0	43	102	1048576	20	4517
2026-01-07 00:29:02.60	19.22	44.88	-30.2	-32.4	12.2	1.04e-04	0	44	102	1048576	20	4669
2026-01-07 00:29:03.61	19.22	45.19	-30.3	-32.9	12.0	4.15e-04	0	43	102	1048576	20	4832
2026-01-07 00:29:04.61	19.23	45.49	-30.5	-32.9	11.5	2.86e-03	0	43	102	1048576	21	4764
2026-01-07 00:29:05.62	19.23	45.80	-30.8	-34.1	10.8	1.38e-03	0	44	102	1048576	21	5219
2026-01-07 00:29:06.63	19.23	46.11	-30.8	-33.8	11.0	2.17e-03	0	44	102	1048576	21	5086
2026-01-07 00:29:07.64	19.24	46.42	-30.5	-32.7	11.7	3.06e-03	0	43	102	1048576	21	4688
2026-01-07 00:29:08.64	19.24	46.73	-30.3	-32.9	12.0	6.03e-04	0	44	102	1048576	20	4830
2026-01-07 00:29:09.65	19.25	47.05	-30.3	-32.8	12.0	2.93e-04	0	44	102	1048576	20	4800
2026-01-07 00:29:10.66	19.25	47.37	-30.3	-32.7	12.0	3.46e-04	0	44	102	1048576	20	4773
2026-01-07 00:29:11.67	19.25	47.69	-30.4	-33.1	11.7	7.22e-04	0	43	102	1048576	20	4922
2026-01-07 00:29:12.67	19.26	48.01	-30.5	-33.0	11.4	2.25e-03	0	43	102	1048576	21	4792
2026-01-07 00:29:13.68	19.26	48.34	-30.6	-33.2	11.3	9.92e-04	0	43	102	1048576	21	4898
2026-01-07 00:29:14.68	19.27	48.66	-30.5	-33.0	11.5	9.87e-04	0	43	102	1048576	21	4789
2026-01-07 00:29:15.69	19.27	49.00	-30.5	-33.1	11.5	2.41e-03	0	43	102	1048576	21	4823
2026-01-07 00:29:16.70	19.27	49.33	-30.6	-33.3	11.5	5.27e-04	0	43	102	1048576	21	4862
2026-01-07 00:29:17.71	19.28	49.67	-30.4	-32.6	11.8	9.63e-04	0	44	102	1048576	21	4626
2026-01-07 00:29:18.71	19.28	50.00	-30.4	-33.0	11.9	2.07e-03	0	44	102	1048576	20	4867
2026-01-07 00:29:19.72	19.29	50.34	-29.9	-31.7	12.7	1.97e-03	0	43	102	1048576	20	4401
2026-01-07 00:29:20.73	19.29	50.69	-29.8	-31.3	13.0	1.20e-04	0	44	102	1048576	20	4299
2026-01-07 00:29:21.74	19.30	51.04	-29.6	-31.3	13.5	1.85e-03	0	44	102	1048576	19	4348
2026-01-07 00:29:22.74	19.30	51.38	-29.4	-30.7	13.9	1.75e-03	0	43	102	1048576	19	4170
2026-01-07 00:29:23.75	19.30	51.73	-29.1	-29.9	14.5	1.06e-05	0	43	102	1048576	19	3927
2026-01-07 00:29:24.76	19.31	52.09	-29.2	-30.5	14.5	1.53e-03	0	44	102	1048576	18	4176
2026-01-07 00:29:25.76	19.31	52.44	-29.0	-30.4	14.8	1.60e-03	0	43	102	1048576	17	4245
2026-01-07 00:29:26.76	19.32	52.80	-29.0	-30.0	14.7	0.00e+00	0	43	102	1048576	18	4051
2026-01-07 00:29:27.77	19.32	53.16	-29.3	-30.8	14.3	1.75e-03	0	43	102	1048576	18	4249
2026-01-07 00:29:28.77	19.32	53.52	-29.4	-30.6	14.0	1.69e-03	0	43	102	1048576	19	4130
2026-01-07 00:29:29.78	19.33	53.89	-29.7	-31.4	13.5	5.30e-06	0	44	102	1048576	19	4375
2026-01-07 00:29:30.78	19.33	54.26	-29.8	-31.7	13.3	1.80e-03	0	43	102	1048576	19	4475
2026-01-07 00:29:31.79	19.34	54.63	-29.9	-32.0	13.2	1.63e-03	0	43	102	1048576	19	4539
2026-01-07 00:29:32.79	19.34	55.01	-29.8	-31.5	13.6	6.10e-06	0	43	102	1048576	19	4384
2026-01-07 00:29:33.80	19.35	55.38	-29.3	-30.2	14.3	1.47e-03	0	43	102	1048576	19	4016
2026-01-07 00:29:34.81	19.35	55.77	-28.7	-29.2	15.2	1.63e-03	0	43	102	1048576	18	3814
2026-01-07 00:29:35.81	19.35	56.15	-28.1	-28.2	16.1	0.00e+00	0	43	102	1048576	17	3660
2026-01-07 00:29:36.82	19.36	56.53	-27.7	-27.9	16.6	1.64e-03	0	43	102	1048576	16	3665
2026-01-07 00:29:37.82	19.36	56.92	-27.6	-28.1	16.5	0.00e+00	0	43	102	1048576	15	3824
2026-01-07 00:29:38.83	19.37	57.31	-27.7	-28.5	16.3	0.00e+00	0	43	102	1048576	15	3928
2026-01-07 00:29:39.83	19.37	57.70	-28.4	-29.5	15.6	1.57e-03	0	43	102	1048576	16	4100
2026-01-07 00:29:40.83	19.38	58.10	-28.7	-29.8	15.1	1.33e-03	0	43	102	1048576	17	4081
2026-01-07 00:29:41.84	19.38	58.50	-29.1	-30.3	14.5	0.00e+00	0	43	102	1048576	18	4134
2026-01-07 00:29:42.85	19.38	58.90	-29.2	-30.7	14.2	1.37e-03	0	43	102	1048576	18	4265
2026-01-07 00:29:43.86	19.39	59.31	-29.1	-30.3	14.4	1.45e-03	0	43	102	1048576	18	4120
2026-01-07 00:29:44.87	19.39	59.71	-28.9	-29.8	14.9	0.00e+00	0	43	102	1048576	18	3992
2026-01-07 00:29:45.88	19.40	60.13	-28.9	-30.1	15.0	1.12e-03	0	43	102	1048576	17	4144
2026-01-07 00:29:46.89	19.40	60.54	-28.4	-29.0	15.7	1.00e-03	0	43	102	1048576	17	3839
2026-01-07 00:29:47.89	19.41	60.95	-28.2	-28.5	16.1	0.00e+00	0	43	102	1048576	17	3714
2026-01-07 00:29:48.90	19.41	61.37	-28.1	-28.2	16.2	0.00e+00	0	43	102	1048576	17	3638
2026-01-07 00:29:49.91	19.42	61.79	-28.2	-28.8	16.2	3.96e-05	0	43	102	1048576	16	3889
2026-01-07 00:29:50.92	19.42	62.22	-27.6	-27.5	16.9	0.00e+00	0	43	102	1048576	16	3566
2026-01-07 00:29:51.92	19.42	62.64	-27.0	-26.7	17.4	0.00e+00	0	43	102	1048576	15	3473
2026-01-07 00:29:52.94	19.43	63.08	-27.1	-26.9	17.3	0.00e+00	0	43	102	1048576	15	3526
2026-01-07 00:29:53.94	19.43	63.50	-27.3	-27.3	17.1	0.00e+00	0	43	102	1048576	15	3618
2026-01-07 00:29:54.94	19.44	63.93	-27.8	-28.5	16.5	0.00e+00	0	43	102	1048576	15	3899
2026-01-07 00:29:55.95	19.44	64.37	-27.8	-28.5	16.5	0.00e+00	0	43	102	1048576	15	3914
2026-01-07 00:29:56.96	19.45	64.81	-28.2	-29.1	15.9	0.00e+00	0	43	102	1048576	16	3980
2026-01-07 00:29:57.97	19.45	65.26	-28.5	-29.2	15.7	0.00e+00	0	43	102	1048576	17	3889
2026-01-07 00:29:58.97	19.46	65.70	-29.2	-30.4	14.7	0.00e+00	0	43	102	1048576	18	4142
2026-01-07 00:29:59.98	19.46	66.15	-29.5	-30.6	14.2	1.50e-06	0	44	102	1048576	19	4098
2026-01-07 00:30:00.98	19.47	66.59	-30.1	-31.9	13.0	1.98e-05	0	43	102	1048576	20	4424
2026-01-07 00:30:01.99	19.47	67.05	-30.1	-31.9	13.0	3.58e-05	0	43	102	1048576	20	4398
2026-01-07 00:30:03.00	19.48	67.50	-29.5	-30.2	14.0	1.37e-05	0	43	102	1048576	20	3911
2026-01-07 00:30:04.01	19.48	67.96	-29.4	-30.2	14.5	7.00e-07	0	43	102	1048576	19	3987
2026-01-07 00:30:05.02	19.49	68.42	-29.9	-31.2	13.5	1.50e-06	0	43	102	1048576	20	4202
2026-01-07 00:30:06.02	19.49	68.88	-30.4	-32.6	12.6	2.59e-05	0	43	102	1048576	20	4650
2026-01-07 00:30:07.02	19.50	69.34	-31.5	-34.3	11.3	3.01e-04	0	43	102	1048576	22	4937
2026-01-07 00:30:08.03	19.50	69.81	-31.0	-33.6	11.2	6.45e-04	0	43	102	1048576	22	4843
2026-01-07 00:30:09.03	19.51	70.27	-30.4	-31.8	12.4	3.13e-04	0	43	102	1048576	22	4200
2026-01-07 00:30:10.02	19.51	70.74	-30.7	-33.0	12.1	1.85e-04	0	43	102	1048576	21	4688
2026-01-07 00:30:11.03	19.52	71.21	-31.5	-34.7	10.1	1.96e-03	0	43	102	1048576	23	5187
2026-01-07 00:30:12.04	19.53	71.69	-31.7	-35.4	9.5	1.18e-02	0	43	102	1048576	23	5499
2026-01-07 00:30:13.04	19.53	72.16	-31.7	-35.5	9.4	1.73e-02	0	43	102	1048576	23	5545
2026-01-07 00:30:14.05	19.54	72.64	-31.4	-34.2	10.4	1.59e-02	0	43	102	1048576	23	4975
2026-01-07 00:30:15.06	19.54	73.12	-31.3	-33.8	10.8	2.57e-03	0	43	102	1048576	23	4802
2026-01-07 00:30:16.07	19.55	73.61	-31.2	-34.0	10.6	1.16e-03	0	43	102	1048576	22	4973
2026-01-07 00:30:17.07	19.56	74.09	-30.1	-31.3	13.2	7.08e-04	0	43	102	1048576	21	4123
2026-01-07 00:30:18.08	19.56	74.58	-29.5	-30.5	14.3	7.00e-07	0	43	102	1048576	19	4061
2026-01-07 00:30:19.09	19.57	75.07	-29.9	-31.5	13.8	0.00e+00	0	43	102	1048576	19	4359
2026-01-07 00:30:20.10	19.58	75.56	-30.7	-32.8	12.2	2.21e-05	0	43	102	1048576	21	4607
2026-01-07 00:30:21.10	19.58	76.05	-30.7	-32.8	12.3	2.74e-04	0	44	102	1048576	21	4601
2026-01-07 00:30:22.10	19.59	76.55	-31.0	-33.7	11.5	4.11e-04	0	43	102	1048576	21	4946
2026-01-07 00:30:23.11	19.60	77.04	-31.5	-34.4	10.2	3.20e-03	0	43	102	1048576	23	5059
2026-01-07 00:30:24.12	19.61	77.54	-31.3	-33.8	10.7	6.52e-03	0	44	102	1048576	23	4781
2026-01-07 00:30:25.13	19.62	78.04	-31.0	-33.2	11.7	7.38e-04	0	43	102	1048576	22	4643
2026-01-07 00:30:26.13	19.63	78.54	-30.9	-33.0	11.7	9.83e-04	0	43	102	1048576	22	4574
2026-01-07 00:30:27.13	19.64	79.04	-30.3	-31.7	12.9	2.49e-04	0	43	102	1048576	21	4251
2026-01-07 00:30:28.14	19.65	79.55	-30.3	-31.7	13.0	4.45e-04	0	43	102	1048576	21	4239
2026-01-07 00:30:29.15	19.66	80.06	-30.8	-33.3	11.9	1.69e-04	0	43	102	1048576	21	4780
2026-01-07 00:30:30.16	19.67	80.56	-30.6	-32.7	12.3	7.55e-04	0	43	102	1048576	21	4569
2026-01-07 00:30:31.17	19.68	81.07	-30.9	-33.6	11.8	5.66e-04	0	43	102	1048576	21	4875
2026-01-07 00:30:32.17	19.69	81.58	-31.4	-33.9	10.9	2.15e-03	0	43	102	1048576	23	4828
2026-01-07 00:30:33.18	19.71	82.09	-30.5	-32.2	12.7	1.17e-03	0	43	102	1048576	21	4377
2026-01-07 00:30:34.19	19.73	82.60	-30.0	-31.3	13.8	4.27e-04	0	43	102	1048576	20	4194
2026-01-07 00:30:35.20	19.74	83.12	-30.3	-32.3	13.0	1.22e-05	0	43	102	1048576	20	4506
2026-01-07 00:30:36.19	19.76	83.62	-30.3	-32.3	13.0	6.17e-05	0	43	102	1048576	20	4514
2026-01-07 00:30:37.20	19.79	84.14	-29.8	-30.9	13.8	1.22e-05	0	43	102	1048576	20	4069
2026-01-07 00:30:38.21	19.82	84.66	-30.3	-32.2	13.0	2.21e-05	0	43	102	1048576	20	4477
2026-01-07 00:30:39.22	19.85	85.17	-30.7	-32.9	12.1	1.54e-03	0	43	102	1048576	21	4645
2026-01-07 00:30:40.22	19.89	85.69	-30.7	-32.8	12.4	7.62e-05	0	43	102	1048576	21	4588
2026-01-07 00:30:41.22	19.94	86.20	-31.3	-34.2	11.0	5.83e-04	0	43	102	1048576	22	5023
2026-01-07 00:30:42.24	20.00	86.73	-31.8	-35.5	9.9	5.31e-03	0	43	102	1048576	23	5511
2026-01-07 00:30:43.24	20.09	87.24	-31.8	-35.6	9.6	1.28e-02	0	43	102	1048576	23	5538
2026-01-07 00:30:44.25	20.22	87.76	-31.9	-35.4	9.4	2.15e-02	0	44	102	1048576	24	5394
2026-01-07 00:30:45.26	20.42	88.28	-31.7	-35.4	9.6	1.88e-02	0	43	102	1048576	23	5460
2026-01-07 00:30:46.27	20.79	88.80	-31.5	-34.5	10.2	1.99e-02	0	44	102	1048576	23	5108
2026-01-07 00:30:47.27	21.71	89.32	-31.2	-33.8	10.7	5.43e-03	0	44	102	1048576	23	4820
2026-01-07 00:30:48.28	28.51	89.84	-30.7	-33.1	12.0	1.33e-03	0	43	102	1048576	21	4744
2026-01-07 00:30:49.29	195.54	89.64	-32.5	-36.9	8.1	4.44e-03	0	44	102	1048576	25	5987
2026-01-07 00:30:50.30	197.93	89.12	-33.7	-42.7	4.3	2.90e-01	0	43	102	1048576	27	10096
2026-01-07 00:30:51.30	198.55	88.60	-33.8	-43.4	3.9	1.48e+00	0	44	104	1048576	27	10953
2026-01-07 00:30:52.31	198.84	88.08	-32.9	-37.1	7.3	7.09e-01	0	43	104	1048576	27	5857
2026-01-07 00:30:53.32	199.00	87.56	-31.8	-34.4	10.1	2.26e-02	0	43	102	1048576	24	4851
2026-01-07 00:30:54.33	199.11	87.04	-31.8	-34.6	10.2	6.72e-03	0	43	102	1048576	24	4952
2026-01-07 00:30:55.33	199.19	86.53	-31.6	-33.9	10.5	8.03e-03	0	43	102	1048576	24	4706
2026-01-07 00:30:56.33	199.24	86.01	-30.7	-32.2	12.6	1.44e-03	0	43	102	1048576	22	4284
2026-01-07 00:30:57.34	199.29	85.49	-30.1	-30.9	13.8	8.30e-06	0	44	102	1048576	21	3980
2026-01-07 00:30:58.34	199.33	84.98	-30.1	-31.5	13.7	2.61e-04	0	44	102	1048576	20	4236
2026-01-07 00:30:59.35	199.36	84.46	-29.6	-30.2	14.6	2.20e-06	0	43	102	1048576	20	3848
2026-01-07 00:31:00.35	199.38	83.95	-29.9	-31.5	14.1	3.71e-04	0	43	102	1048576	19	4338
2026-01-07 00:31:01.36	199.41	83.44	-30.9	-33.5	12.1	4.18e-04	0	43	102	1048576	21	4811
2026-01-07 00:31:02.37	199.43	82.92	-30.7	-32.3	12.6	2.95e-04	0	43	102	1048576	22	4294
2026-01-07 00:31:03.37	199.44	82.41	-30.5	-32.1	13.1	4.32e-04	0	43	102	1048576	21	4333
2026-01-07 00:31:04.38	199.46	81.90	-30.3	-31.6	13.4	3.66e-05	0	44	102	1048576	21	4167
2026-01-07 00:31:05.38	199.47	81.39	-30.3	-31.7	13.3	1.29e-05	0	43	102	1048576	21	4199
2026-01-07 00:31:06.38	199.49	80.89	-31.3	-34.1	11.3	7.53e-04	0	43	102	1048576	22	4952
2026-01-07 00:31:07.39	199.50	80.38	-30.4	-31.3	13.2	3.01e-04	0	44	102	1048576	22	4004
2026-01-07 00:31:08.39	199.51	79.87	-30.2	-31.4	13.5	2.05e-05	0	43	102	1048576	21	4100
2026-01-07 00:31:09.40	199.52	79.37	-31.5	-34.3	10.7	6.71e-04	0	43	102	1048576	23	4939
2026-01-07 00:31:10.41	199.53	78.86	-30.7	-32.2	12.6	1.43e-03	0	43	102	1048576	22	4267
2026-01-07 00:31:11.41	199.54	78.36	-30.4	-31.8	13.2	1.52e-05	0	43	102	1048576	21	4257
2026-01-07 00:31:12.42	199.55	77.86	-31.2	-33.7	11.5	1.30e-04	0	43	102	1048576	22	4819
2026-01-07 00:31:13.43	199.56	77.36	-31.8	-35.3	9.8	4.40e-03	0	43	102	1048576	23	5387
2026-01-07 00:31:14.44	199.56	76.86	-31.9	-35.8	9.7	4.61e-03	0	44	102	1048576	23	5653
2026-01-07 00:31:15.45	199.57	76.36	-32.3	-36.9	8.1	4.38e-02	0	43	102	1048576	24	6141
2026-01-07 00:31:16.45	199.58	75.87	-31.0	-32.8	11.8	1.36e-02	0	44	102	1048576	23	4408
2026-01-07 00:31:17.46	199.59	75.37	-30.6	-31.9	12.8	9.23e-05	0	44	102	1048576	22	4182
2026-01-07 00:31:18.47	199.59	74.88	-31.1	-33.4	11.8	2.30e-04	0	44	102	1048576	22	4675
2026-01-07 00:31:19.47	199.60	74.39	-30.8	-32.5	12.3	9.00e-04	0	43	102	1048576	22	4373
2026-01-07 00:31:20.48	199.61	73.90	-30.0	-30.7	13.9	9.10e-06	0	44	102	1048576	21	3921
2026-01-07 00:31:21.49	199.61	73.42	-30.8	-33.1	12.3	3.20e-05	0	44	102	1048576	21	4660
2026-01-07 00:31:22.50	199.62	72.93	-32.2	-35.9	9.0	6.14e-03	0	43	102	1048576	24	5568
2026-01-07 00:31:23.51	199.63	72.45	-32.0	-35.4	9.5	2.31e-02	0	43	102	1048576	24	5343
2026-01-07 00:31:24.51	199.63	71.97	-32.3	-36.5	8.7	2.57e-02	0	44	102	1048576	24	5859
2026-01-07 00:31:25.52	199.64	71.49	-32.0	-35.4	9.6	2.65e-02	0	43	102	1048576	24	5324
2026-01-07 00:31:26.53	199.64	71.02	-31.8	-34.6	10.2	6.82e-03	0	43	102	1048576	24	4961
2026-01-07 00:31:27.53	199.65	70.55	-31.7	-34.3	10.1	5.92e-03	0	43	102	1048576	24	4859
2026-01-07 00:31:28.54	199.65	70.07	-31.3	-33.5	11.3	1.84e-03	0	43	102	1048576	23	4656
2026-01-07 00:31:29.55	199.66	69.60	-30.4	-31.5	13.0	6.08e-04	0	44	102	1048576	22	4055
2026-01-07 00:31:30.56	199.66	69.14	-29.9	-31.0	14.0	5.30e-06	0	43	102	1048576	20	4091
2026-01-07 00:31:31.56	199.67	68.68	-30.4	-32.3	13.1	4.50e-06	0	43	102	1048576	20	4489
2026-01-07 00:31:32.56	199.67	68.22	-31.0	-33.1	11.8	1.99e-04	0	44	102	1048576	22	4588
2026-01-07 00:31:33.57	199.68	67.76	-31.0	-33.2	11.7	5.17e-04	0	44	102	1048576	22	4641
2026-01-07 00:31:34.57	199.68	67.30	-30.8	-32.5	12.2	4.66e-04	0	43	102	1048576	22	4391
2026-01-07 00:31:35.57	199.69	66.85	-30.5	-31.7	12.6	8.77e-05	0	44	102	1048576	22	4150
2026-01-07 00:31:36.57	199.69	66.40	-29.7	-30.5	14.1	2.82e-05	0	44	102	1048576	20	3964
2026-01-07 00:31:37.57	199.70	65.96	-28.8	-28.8	15.5	0.00e+00	0	44	102	1048576	19	3594
2026-01-07 00:31:38.57	199.70	65.51	-28.4	-28.3	16.2	0.00e+00	0	43	102	1048576	18	3548
2026-01-07 00:31:39.58	199.71	65.07	-28.0	-28.0	16.5	0.00e+00	0	44	102	1048576	17	3577
2026-01-07 00:31:40.58	199.71	64.63	-28.3	-28.6	16.2	0.00e+00	0	43	102	1048576	17	3722
2026-01-07 00:31:41.59	199.72	64.19	-29.2	-30.3	14.9	0.00e+00	0	44	102	1048576	18	4091
2026-01-07 00:31:42.59	199.72	63.75	-29.9	-31.6	13.7	0.00e+00	0	43	102	1048576	19	4411
2026-01-07 00:31:43.60	199.73	63.32	-29.5	-30.8	14.2	6.10e-06	0	43	102	1048576	19	4160
2026-01-07 00:31:44.60	199.73	62.89	-28.5	-28.6	15.8	0.00e+00	0	44	102	1048576	18	3654
2026-01-07 00:31:45.61	199.74	62.46	-27.8	-27.9	16.7	0.00e+00	0	44	102	1048576	16	3668
2026-01-07 00:31:46.62	199.74	62.03	-28.2	-28.9	16.2	1.52e-05	0	44	102	1048576	16	3910
2026-01-07 00:31:47.62	199.74	61.61	-28.9	-30.1	15.3	0.00e+00	0	43	102	1048576	17	4128
2026-01-07 00:31:48.63	199.75	61.19	-30.3	-32.4	12.8	3.80e-06	0	44	102	1048576	20	4590
2026-01-07 00:31:49.64	199.75	60.77	-31.5	-34.9	9.9	2.73e-03	0	44	102	1048576	23	5280
2026-01-07 00:31:50.65	199.76	60.35	-30.9	-32.5	11.7	1.95e-03	0	43	102	1048576	23	4355
2026-01-07 00:31:51.65	199.76	59.94	-29.8	-31.0	13.7	3.43e-05	0	44	102	1048576	20	4127
2026-01-07 00:31:52.66	199.77	59.53	-29.9	-31.1	13.6	0.00e+00	0	43	102	1048576	20	4138
2026-01-07 00:31:53.67	199.77	59.12	-29.5	-30.2	14.2	2.74e-05	0	44	102	1048576	20	3884
2026-01-07 00:31:54.67	199.77	58.72	-28.4	-28.4	15.9	0.00e+00	0	43	102	1048576	18	3589
2026-01-07 00:31:55.67	199.78	58.32	-28.1	-28.2	16.3	0.00e+00	0	43	102	1048576	17	3634
2026-01-07 00:31:56.68	199.78	57.92	-29.0	-30.3	15.2	0.00e+00	0	43	102	1048576	17	4204
2026-01-07 00:31:57.69	199.79	57.52	-29.1	-30.1	15.0	1.03e-04	0	43	102	1048576	18	4037
2026-01-07 00:31:58.70	199.79	57.13	-28.8	-29.2	15.5	0.00e+00	0	44	102	1048576	18	3797
2026-01-07 00:31:59.70	199.79	56.74	-28.6	-29.0	15.7	0.00e+00	0	43	102	1048576	18	3730
2026-01-07 00:32:00.70	199.80	56.35	-28.6	-29.3	15.7	2.89e-04	0	43	102	1048576	17	3915
2026-01-07 00:32:01.71	199.80	55.97	-28.0	-27.9	16.5	0.00e+00	0	44	102	1048576	17	3559
2026-01-07 00:32:02.71	199.81	55.59	-27.9	-28.2	16.6	0.00e+00	0	44	102	1048576	16	3739
2026-01-07 00:32:03.72	199.81	55.20	-28.4	-29.5	15.8	7.73e-04	0	44	102	1048576	16	4087
2026-01-07 00:32:04.73	199.81	54.83	-29.5	-31.1	14.2	1.50e-06	0	44	102	1048576	18	4367
2026-01-07 00:32:05.73	199.82	54.45	-30.2	-32.3	12.8	6.10e-06	0	43	102	1048576	20	4563
2026-01-07 00:32:06.74	199.82	54.08	-30.1	-31.9	13.0	1.83e-05	0	44	102	1048576	20	4417
2026-01-07 00:32:07.74	199.83	53.71	-30.0	-31.6	13.3	1.75e-05	0	43	102	1048576	20	4328
2026-01-07 00:32:08.75	199.83	53.34	-29.6	-30.9	14.1	6.85e-04	0	43	102	1048576	19	4203
2026-01-07 00:32:09.76	199.83	52.98	-29.8	-31.4	13.8	3.80e-06	0	43	102	1048576	19	4360
2026-01-07 00:32:10.76	199.84	52.62	-30.5	-33.1	12.3	5.49e-05	0	44	102	1048576	20	4842
2026-01-07 00:32:11.77	199.84	52.26	-31.3	-34.5	10.5	1.82e-03	0	43	102	1048576	22	5212
2026-01-07 00:32:12.78	199.85	51.90	-31.3	-34.9	9.8	5.91e-03	0	43	102	1048576	23	5406
2026-01-07 00:32:13.78	199.85	51.55	-31.1	-33.3	10.9	3.79e-03	0	43	102	1048576	23	4671
2026-01-07 00:32:14.79	199.85	51.20	-30.0	-31.1	13.1	3.31e-04	0	43	102	1048576	21	4092
2026-01-07 00:32:15.80	199.86	50.85	-29.9	-31.4	13.3	3.32e-04	0	44	102	1048576	20	4274
2026-01-07 00:32:16.81	199.86	50.50	-29.8	-31.2	13.5	1.22e-05	0	44	102	1048576	20	4194
2026-01-07 00:32:17.81	199.87	50.16	-29.9	-31.8	13.4	3.98e-04	0	44	102	1048576	19	4488
2026-01-07 00:32:18.82	199.87	49.82	-29.5	-30.8	14.0	3.97e-04	0	43	102	1048576	19	4167
2026-01-07 00:32:19.83	199.87	49.48	-29.3	-30.1	14.5	0.00e+00	0	44	102	1048576	19	3970
2026-01-07 00:32:20.83	199.88	49.14	-30.2	-32.2	12.9	3.81e-04	0	44	102	1048576	20	4532
2026-01-07 00:32:21.83	199.88	48.81	-31.2	-34.3	10.7	5.29e-04	0	43	102	1048576	22	5141
2026-01-07 00:32:22.84	199.89	48.48	-31.8	-35.8	9.1	1.33e-02	0	44	102	1048576	23	5736
2026-01-07 00:32:23.85	199.89	48.15	-31.4	-34.3	10.2	8.42e-03	0	43	102	1048576	23	5025
2026-01-07 00:32:24.86	199.89	47.83	-29.8	-30.5	13.5	3.99e-04	0	43	102	1048576	21	3909
2026-01-07 00:32:25.86	199.90	47.50	-28.7	-29.2	15.3	0.00e+00	0	43	102	1048576	18	3810
2026-01-07 00:32:26.87	199.90	47.18	-29.3	-30.5	14.8	1.52e-04	0	44	102	1048576	18	4119
2026-01-07 00:32:27.88	199.90	46.86	-29.2	-30.3	14.9	2.24e-04	0	43	102	1048576	18	4064
2026-01-07 00:32:28.89	199.91	46.54	-29.5	-30.5	14.5	1.50e-06	0	43	102	1048576	19	4038
2026-01-07 00:32:29.89	199.91	46.23	-30.0	-31.4	13.6	3.69e-04	0	44	102	1048576	20	4211
2026-01-07 00:32:30.91	199.92	45.92	-31.1	-33.4	11.5	5.34e-04	0	43	102	1048576	22	4729
2026-01-07 00:32:31.91	199.92	45.61	-31.8	-35.3	9.8	4.63e-03	0	44	102	1048576	23	5380
2026-01-07 00:32:32.92	199.92	45.30	-32.1	-36.1	8.7	1.27e-02	0	43	102	1048576	24	5699
2026-01-07 00:32:33.93	199.93	45.00	-31.6	-34.7	10.2	7.71e-03	0	43	102	1048576	23	5138
2026-01-07 00:32:34.93	199.93	44.70	-31.0	-32.8	11.6	2.46e-03	0	44	102	1048576	23	4401
2026-01-07 00:32:35.94	199.93	44.40	-30.1	-31.1	13.3	9.52e-04	0	43	102	1048576	21	4051
2026-01-07 00:32:36.95	199.94	44.10	-30.3	-32.1	13.1	2.22e-04	0	43	102	1048576	20	4465
2026-01-07 00:32:37.95	199.94	43.81	-30.5	-32.2	12.5	1.04e-04	0	43	102	1048576	21	4407
2026-01-07 00:32:38.96	199.95	43.51	-31.2	-33.9	11.1	9.18e-04	0	44	102	1048576	22	4890
2026-01-07 00:32:39.96	199.95	43.22	-31.3	-34.2	11.0	3.00e-03	0	43	102	1048576	22	5021
2026-01-07 00:32:40.96	199.95	42.94	-31.7	-34.9	10.1	4.01e-03	0	43	102	1048576	23	5246
2026-01-07 00:32:41.96	199.96	42.65	-31.8	-35.5	9.5	1.75e-02	0	43	102	1048576	23	5533
2026-01-07 00:32:42.97	199.96	42.37	-31.9	-36.1	8.9	9.89e-03	0	43	102	1048576	23	5821
2026-01-07 00:32:43.97	199.96	42.09	-32.2	-36.9	8.0	5.11e-02	0	44	102	1048576	24	6153
2026-01-07 00:32:44.97	199.97	41.81	-32.4	-37.1	7.5	8.86e-02	0	43	102	1048576	25	6186
2026-01-07 00:32:45.98	199.97	41.53	-32.4	-37.5	7.6	9.10e-02	0	43	102	1048576	24	6463
2026-01-07 00:32:46.98	199.98	41.25	-31.8	-35.0	9.5	1.87e-02	0	43	102	1048576	24	5207
2026-01-07 00:32:47.99	199.98	40.98	-31.3	-33.7	10.8	8.81e-03	0	43	102	1048576	23	4768
2026-01-07 00:32:49.00	199.98	40.71	-30.7	-32.4	12.1	2.30e-03	0	43	102	1048576	22	4380
2026-01-07 00:32:50.01	199.99	40.44	-30.4	-31.6	12.7	9.76e-05	0	43	102	1048576	22	4099
2026-01-07 00:32:51.01	199.99	40.17	-30.8	-33.2	11.9	5.92e-04	0	44	102	1048576	21	4732
2026-01-07 00:32:52.01	199.99	39.91	-30.5	-32.4	12.4	3.89e-04	0	44	102	1048576	21	4479
2026-01-07 00:32:53.02	200.00	39.64	-30.9	-33.3	11.8	2.54e-04	0	43	102	1048576	21	4792
2026-01-07 00:32:54.03	200.00	39.38	-31.7	-35.1	9.9	4.28e-03	0	44	102	1048576	23	5330
2026-01-07 00:32:55.03	200.00	39.12	-32.0	-35.9	8.8	3.36e-02	0	44	102	1048576	24	5606
2026-01-07 00:32:56.04	200.01	38.86	-31.9	-35.4	9.0	3.48e-02	0	44	102	1048576	24	5411
2026-01-07 00:32:57.05	200.01	38.61	-32.0	-35.6	9.0	3.04e-02	0	44	102	1048576	24	5483
2026-01-07 00:32:58.05	200.02	38.36	-32.0	-36.2	9.0	2.26e-02	0	44	102	1048576	23	5831
2026-01-07 00:32:59.06	200.02	38.10	-31.8	-35.4	9.5	1.57e-02	0	43	102	1048576	23	5455
2026-01-07 00:33:00.07	200.02	37.85	-31.7	-35.3	9.6	1.40e-02	0	44	102	1048576	23	5422
2026-01-07 00:33:01.07	200.03	37.61	-31.9	-35.9	9.1	1.33e-02	0	43	102	1048576	23	5724
2026-01-07 00:33:02.08	200.03	37.36	-31.3	-33.8	10.7	7.08e-03	0	44	102	1048576	23	4807
2026-01-07 00:33:03.08	200.03	37.12	-31.1	-33.6	11.2	2.43e-03	0	44	102	1048576	22	4799
2026-01-07 00:33:04.09	200.04	36.87	-31.1	-33.5	11.3	2.22e-03	0	43	102	1048576	22	4774
2026-01-07 00:33:05.10	200.04	36.63	-30.8	-32.7	11.7	6.81e-04	0	44	102	1048576	22	4493
2026-01-07 00:33:06.11	200.04	36.39	-30.8	-33.2	11.8	5.49e-04	0	44	102	1048576	21	4742
2026-01-07 00:33:07.10	200.05	36.16	-30.7	-32.9	11.9	3.34e-04	0	44	102	1048576	21	4631
2026-01-07 00:33:08.11	200.05	35.92	-30.5	-32.3	12.4	1.07e-04	0	44	102	1048576	21	4453
2026-01-07 00:33:09.12	200.05	35.68	-30.2	-31.4	13.1	3.15e-04	0	44	102	1048576	21	4147
2026-01-07 00:33:10.13	200.06	35.45	-30.6	-32.7	12.2	1.36e-04	0	44	102	1048576	21	4569
2026-01-07 00:33:11.14	200.06	35.22	-30.7	-33.0	11.9	3.83e-04	0	44	102	1048576	21	4700
2026-01-07 00:33:12.14	200.07	34.99	-30.9	-33.6	11.6	3.86e-04	0	44	102	1048576	21	4890
2026-01-07 00:33:13.14	200.07	34.77	-31.4	-34.7	9.9	2.83e-03	0	44	102	1048576	23	5235
2026-01-07 00:33:14.16	200.07	34.54	-32.1	-36.7	8.3	3.74e-02	0	44	102	1048576	23	6097
2026-01-07 00:33:15.16	200.08	34.32	-32.6	-38.4	6.6	8.93e-02	0	43	102	1048576	25	6984
2026-01-07 00:33:16.17	200.08	34.09	-32.8	-39.4	5.8	2.90e-01	0	44	102	1048576	25	7739
2026-01-07 00:33:17.17	200.08	33.87	-32.7	-39.0	5.9	3.91e-01	0	44	102	1048576	25	7437
2026-01-07 00:33:18.18	200.09	33.65	-32.4	-37.9	7.0	2.76e-01	0	44	102	1048576	24	6753
2026-01-07 00:33:19.19	200.09	33.43	-32.1	-36.2	8.4	9.88e-02	0	44	102	1048576	24	5793
2026-01-07 00:33:20.20	200.09	33.22	-31.5	-34.7	9.9	3.26e-02	0	44	102	1048576	23	5174
2026-01-07 00:33:21.20	200.10	33.00	-31.4	-34.2	10.4	8.26e-03	0	44	102	1048576	23	4958
2026-01-07 00:33:22.20	200.10	32.79	-31.2	-34.1	10.8	2.55e-03	0	43	102	1048576	22	5026
2026-01-07 00:33:23.21	200.10	32.58	-31.2	-34.0	10.8	2.68e-03	0	43	102	1048576	22	4961
2026-01-07 00:33:24.21	200.11	32.37	-31.0	-33.6	11.1	3.19e-03	0	44	102	1048576	22	4806
2026-01-07 00:33:25.21	200.11	32.16	-31.3	-34.3	10.6	2.84e-03	0	44	102	1048576	22	5095
2026-01-07 00:33:26.22	200.12	31.96	-31.4	-34.8	10.2	4.55e-03	0	44	102	1048576	22	5310
2026-01-07 00:33:27.22	200.12	31.75	-31.5	-34.7	9.8	1.12e-02	0	44	102	1048576	23	5189
2026-01-07 00:33:28.23	200.12	31.55	-31.7	-35.2	9.6	7.99e-03	0	44	102	1048576	23	5422
2026-01-07 00:33:29.24	200.13	31.34	-31.5	-34.7	9.8	8.39e-03	0	44	102	1048576	23	5187
2026-01-07 00:33:30.25	200.13	31.14	-31.7	-35.2	9.6	1.36e-02	0	44	102	1048576	23	5399
2026-01-07 00:33:31.25	200.13	30.94	-31.7	-35.5	9.3	1.49e-02	0	44	102	1048576	23	5535
2026-01-07 00:33:32.25	200.14	30.74	-31.5	-34.7	9.9	1.13e-02	0	44	102	1048576	23	5173
2026-01-07 00:33:33.26	200.14	30.55	-31.3	-34.5	10.4	6.70e-03	0	44	102	1048576	22	5185
2026-01-07 00:33:34.27	200.14	30.35	-31.6	-35.1	9.6	9.88e-03	0	44	102	1048576	23	5356
2026-01-07 00:33:35.28	200.15	30.15	-31.9	-36.4	8.6	2.74e-02	0	43	102	1048576	23	5994
2026-01-07 00:33:36.28	200.15	29.96	-32.0	-36.2	8.4	4.22e-02	0	44	102	1048576	24	5817
2026-01-07 00:33:37.29	200.15	29.77	-32.2	-37.2	7.5	7.98e-02	0	44	102	1048576	24	6356
2026-01-07 00:33:38.30	200.16	29.58	-32.4	-37.9	7.0	1.41e-01	0	44	102	1048576	24	6838
2026-01-07 00:33:39.31	200.16	29.39	-32.3	-37.6	7.2	1.38e-01	0	44	102	1048576	24	6608
2026-01-07 00:33:40.31	200.16	29.20	-32.2	-37.2	7.4	1.11e-01	0	44	102	1048576	24	6373
2026-01-07 00:33:41.32	200.17	29.01	-32.0	-36.3	8.1	8.77e-02	0	44	102	1048576	24	5892
2026-01-07 00:33:42.32	200.17	28.83	-31.8	-35.7	9.0	4.37e-02	0	44	102	1048576	23	5688
2026-01-07 00:33:43.33	200.17	28.64	-31.7	-35.3	9.3	1.97e-02	0	43	102	1048576	23	5500
2026-01-07 00:33:44.34	200.18	28.46	-31.4	-34.5	9.9	1.42e-02	0	44	102	1048576	23	5126
2026-01-07 00:33:45.35	200.18	28.27	-31.4	-34.5	9.9	1.19e-02	0	44	102	1048576	23	5132
2026-01-07 00:33:46.36	200.19	28.09	-31.5	-34.6	9.8	1.36e-02	0	43	102	1048576	23	5191
2026-01-07 00:33:47.36	200.19	27.91	-31.0	-33.4	11.1	5.15e-03	0	44	102	1048576	22	4783
2026-01-07 00:33:48.36	200.19	27.74	-30.7	-33.0	11.7	3.64e-03	0	43	102	1048576	21	4734
2026-01-07 00:33:49.37	200.20	27.56	-30.5	-32.4	12.1	3.22e-04	0	44	102	1048576	21	4519
2026-01-07 00:33:50.38	200.20	27.38	-30.5	-32.9	12.1	2.96e-03	0	43	102	1048576	20	4776
2026-01-07 00:33:51.38	200.20	27.21	-30.5	-32.5	12.1	2.80e-03	0	44	102	1048576	21	4541
2026-01-07 00:33:52.39	200.21	27.03	-30.6	-32.8	11.8	3.71e-04	0	44	102	1048576	21	4651
2026-01-07 00:33:53.40	200.21	26.86	-30.7	-33.3	11.5	3.68e-03	0	44	102	1048576	21	4833
2026-01-07 00:33:54.40	200.21	26.69	-30.2	-32.6	10.9	5.37e-03	0	44	102	1048576	22	4795
2026-01-07 00:33:55.41	200.22	26.52	-30.6	-32.8	11.8	1.09e-03	0	43	102	1048576	21	4642
2026-01-07 00:33:56.42	200.22	26.35	-30.1	-31.9	12.7	6.18e-04	0	44	102	1048576	20	4429
2026-01-07 00:33:57.42	200.22	26.18	-30.0	-32.0	13.1	2.90e-03	0	44	102	1048576	19	4537
2026-01-07 00:33:58.43	200.23	26.01	-29.9	-31.9	13.2	1.79e-04	0	44	102	1048576	19	4503
2026-01-07 00:33:59.44	200.23	25.84	-30.1	-31.9	12.7	2.68e-03	0	44	102	1048576	20	4443
2026-01-07 00:34:00.45	200.23	25.68	-30.3	-32.5	12.3	9.73e-04	0	44	102	1048576	20	4646
2026-01-07 00:34:01.44	200.24	25.52	-30.4	-32.9	12.0	3.81e-04	0	44	102	1048576	20	4774
2026-01-07 00:34:02.44	200.24	25.35	-30.6	-32.9	11.7	3.02e-03	0	43	102	1048576	21	4697
2026-01-07 00:34:03.45	200.24	25.19	-30.6	-32.8	11.7	1.34e-03	0	44	102	1048576	21	4670
2026-01-07 00:34:04.46	200.25	25.03	-30.7	-33.3	11.4	1.27e-03	0	44	102	1048576	21	4824
2026-01-07 00:34:05.46	200.25	24.87	-30.4	-32.9	12.1	3.56e-03	0	44	102	1048576	20	4771
2026-01-07 00:34:06.47	200.25	24.71	-30.3	-32.6	12.2	9.53e-04	0	44	102	1048576	20	4678
2026-01-07 00:34:07.48	200.26	24.55	-30.1	-32.1	12.7	6.86e-05	0	44	102	1048576	20	4490
2026-01-07 00:34:08.48	200.26	24.39	-30.0	-31.6	12.8	2.49e-03	0	44	102	1048576	20	4348
2026-01-07 00:34:09.49	200.26	24.23	-30.0	-31.7	12.8	2.18e-03	0	43	102	1048576	20	4370
2026-01-07 00:34:10.50	200.27	24.08	-30.0	-31.5	13.0	5.95e-05	0	44	102	1048576	20	4317
2026-01-07 00:34:11.50	200.27	23.92	-30.0	-31.7	12.8	2.24e-03	0	44	102	1048576	20	4365
2026-01-07 00:34:12.51	200.27	23.77	-29.9	-31.9	13.1	2.49e-03	0	44	102	1048576	19	4515
2026-01-07 00:34:13.51	200.28	23.62	-29.8	-31.6	13.3	2.05e-05	0	44	102	1048576	19	4429
2026-01-07 00:34:14.52	200.28	23.46	-29.9	-31.4	13.0	7.51e-04	0	44	102	1048576	20	4278
2026-01-07 00:34:15.53	200.29	23.31	-30.0	-31.6	13.0	2.32e-03	0	44	102	1048576	20	4327
2026-01-07 00:34:16.54	200.29	23.16	-29.9	-31.4	13.0	3.89e-05	0	44	102	1048576	20	4292
2026-01-07 00:34:17.54	200.29	23.01	-30.0	-31.6	12.8	6.58e-04	0	44	102	1048576	20	4349
2026-01-07 00:34:18.55	200.30	22.86	-30.1	-31.9	12.6	1.74e-03	0	44	102	1048576	20	4447
2026-01-07 00:34:19.55	200.30	22.72	-29.8	-31.2	13.1	2.26e-04	0	44	102	1048576	20	4201
2026-01-07 00:34:20.55	200.30	22.57	-29.9	-31.4	12.9	6.22e-04	0	44	102	1048576	20	4291
2026-01-07 00:34:21.56	200.31	22.42	-29.9	-31.3	13.0	5.68e-04	0	44	102	1048576	20	4243
2026-01-07 00:34:22.57	200.31	22.28	-29.7	-31.2	13.5	2.04e-04	0	44	102	1048576	19	4291
2026-01-07 00:34:23.57	200.31	22.14	-29.5	-30.8	13.7	5.00e-04	0	44	102	1048576	19	4159
2026-01-07 00:34:24.58	200.32	21.99	-29.2	-30.5	14.3	5.48e-04	0	44	102	1048576	18	4169
2026-01-07 00:34:25.58	200.32	21.85	-29.0	-29.9	14.6	0.00e+00	0	44	102	1048576	18	4016
2026-01-07 00:34:26.59	200.32	21.71	-28.8	-29.9	15.0	4.82e-04	0	44	102	1048576	17	4106
2026-01-07 00:34:27.60	200.33	21.57	-28.7	-29.7	15.0	4.81e-04	0	43	102	1048576	17	4046
2026-01-07 00:34:28.61	200.33	21.42	-28.7	-29.7	15.0	0.00e+00	0	44	102	1048576	17	4053
2026-01-07 00:34:29.61	200.33	21.29	-29.0	-30.4	14.6	9.25e-04	0	44	102	1048576	17	4238
2026-01-07 00:34:30.62	200.34	21.15	-28.8	-29.9	14.9	4.00e-04	0	43	102	1048576	17	4089
2026-01-07 00:34:31.63	200.34	21.01	-29.2	-30.5	14.2	0.00e+00	0	43	102	1048576	18	4166
2026-01-07 00:34:32.63	200.34	20.87	-29.3	-30.8	14.0	3.75e-04	0	43	102	1048576	18	4261
2026-01-07 00:34:33.63	200.35	20.74	-29.1	-30.3	14.3	3.75e-04	0	44	102	1048576	18	4124
2026-01-07 00:34:34.64	200.35	20.60	-29.1	-30.4	14.3	0.00e+00	0	44	102	1048576	18	4143
2026-01-07 00:34:35.64	200.35	20.46	-29.3	-30.7	14.1	3.22e-04	0	44	102	1048576	18	4237
2026-01-07 00:34:36.65	200.36	20.33	-29.3	-30.8	14.1	3.01e-04	0	44	102	1048576	18	4263
2026-01-07 00:34:37.66	200.36	20.20	-29.5	-31.3	13.7	3.80e-06	0	44	102	1048576	18	4431
2026-01-07 00:34:38.67	200.36	20.06	-29.5	-31.3	13.7	2.78e-04	0	44	102	1048576	18	4422
2026-01-07 00:34:39.67	200.37	19.93	-29.5	-30.8	13.7	2.63e-04	0	44	102	1048576	19	4183
2026-01-07 00:34:40.68	200.37	19.80	-29.7	-31.3	13.3	2.67e-05	0	44	102	1048576	19	4342
2026-01-07 00:34:41.68	200.37	19.67	-29.9	-31.8	13.0	3.23e-04	0	43	102	1048576	19	4504
2026-01-07 00:34:42.69	200.38	19.54	-29.9	-31.8	13.0	3.60e-04	0	43	102	1048576	19	4511
2026-01-07 00:34:43.70	200.38	19.41	-30.1	-31.9	12.6	8.92e-05	0	43	102	1048576	20	4445
2026-01-07 00:34:44.70	200.38	19.28	-30.0	-31.7	12.7	4.06e-04	0	44	102	1048576	20	4383
2026-01-07 00:34:45.71	200.39	19.15	-30.1	-31.9	12.6	3.78e-04	0	44	102	1048576	20	4446
2026-01-07 00:34:46.72	200.39	19.02	-30.2	-32.4	11.8	2.57e-04	0	44	102	1048576	20	4638
2026-01-07 00:34:47.73	200.39	18.90	-30.2	-32.2	11.9	6.46e-04	0	44	102	1048576	20	4557
2026-01-07 00:34:48.73	200.40	18.77	-30.2	-32.3	12.2	5.11e-04	0	44	102	1048576	20	4588
2026-01-07 00:34:49.73	200.40	18.65	-30.3	-32.6	11.8	1.00e-03	0	44	102	1048576	20	4701
2026-01-07 00:34:50.74	200.40	18.52	-30.4	-32.8	11.7	4.20e-04	0	43	102	1048576	20	4786
2026-01-07 00:34:51.75	200.41	18.39	-30.6	-32.9	11.4	7.24e-04	0	44	102	1048576	21	4720
2026-01-07 00:34:52.75	200.41	18.27	-30.6	-33.1	11.3	1.10e-03	0	44	102	1048576	21	4777
2026-01-07 00:34:53.76	200.41	18.15	-30.6	-33.2	11.3	1.05e-03	0	44	102	1048576	21	4812
2026-01-07 00:34:54.77	200.42	18.03	-31.0	-34.3	10.5	3.40e-03	0	44	102	1048576	21	5276
2026-01-07 00:34:55.78	200.42	17.90	-30.9	-34.0	10.7	4.79e-03	0	44	102	1048576	21	5135
2026-01-07 00:34:56.78	200.42	17.78	-30.9	-34.0	10.7	3.82e-03	0	44	102	1048576	21	5143
2026-01-07 00:34:57.79	200.43	17.66	-30.9	-34.2	10.5	3.92e-03	0	44	102	1048576	21	5254
2026-01-07 00:34:58.80	200.43	17.54	-30.8	-33.7	10.8	3.70e-03	0	44	102	1048576	21	5030
2026-01-07 00:34:59.81	200.43	17.42	-30.8	-33.6	10.9	4.29e-03	0	44	102	1048576	21	4988
2026-01-07 00:35:00.81	200.44	17.30	-30.9	-34.1	10.5	2.97e-03	0	43	102	1048576	21	5216
2026-01-07 00:35:01.82	200.44	17.18	-30.7	-33.6	10.9	2.98e-03	0	44	102	1048576	21	4978
2026-01-07 00:35:02.83	200.44	17.07	-30.8	-33.8	10.8	2.59e-03	0	44	102	1048576	21	5059
2026-01-07 00:35:03.83	200.45	16.95	-30.6	-33.2	11.2	1.87e-03	0	43	102	1048576	21	4824
2026-01-07 00:35:04.84	200.45	16.83	-30.5	-32.9	11.3	9.88e-04	0	43	102	1048576	21	4747
2026-01-07 00:35:05.85	200.45	16.72	-30.5	-32.8	11.4	9.09e-04	0	43	102	1048576	21	4690
2026-01-07 00:35:06.86	200.46	16.60	-30.5	-32.8	11.4	9.67e-04	0	44	102	1048576	21	4694
2026-01-07 00:35:07.86	200.46	16.49	-30.4	-33.1	11.5	2.84e-03	0	44	102	1048576	20	4903
2026-01-07 00:35:08.87	200.46	16.37	-30.3	-32.6	11.9	5.98e-04	0	44	102	1048576	20	4714
2026-01-07 00:35:09.88	200.47	16.26	-30.2	-32.3	12.1	3.22e-04	0	44	102	1048576	20	4592
2026-01-07 00:35:10.89	200.47	16.14	-30.0	-31.8	12.4	2.07e-03	0	44	102	1048576	20	4430
2026-01-07 00:35:11.89	200.47	16.03	-30.0	-31.7	12.5	1.10e-04	0	44	102	1048576	20	4397
2026-01-07 00:35:12.90	200.48	15.92	-29.8	-31.3	12.8	7.85e-05	0	44	102	1048576	20	4271
2026-01-07 00:35:13.91	200.48	15.81	-29.9	-31.6	12.5	1.94e-03	0	44	102	1048576	20	4377
2026-01-07 00:35:14.91	200.48	15.70	-30.1	-32.0	12.3	2.21e-03	0	44	102	1048576	20	4492
2026-01-07 00:35:15.92	200.49	15.58	-30.1	-32.2	12.1	2.54e-04	0	44	102	1048576	20	4579
2026-01-07 00:35:16.93	200.49	15.47	-30.2	-32.5	12.0	2.18e-03	0	44	102	1048576	20	4664
2026-01-07 00:35:17.94	200.49	15.36	-30.2	-32.4	12.1	2.22e-03	0	44	102	1048576	20	4634
2026-01-07 00:35:18.94	200.50	15.25	-30.1	-32.1	12.3	2.05e-04	0	44	102	1048576	20	4533
2026-01-07 00:35:19.95	200.50	15.15	-30.3	-32.9	11.7	2.39e-03	0	43	102	1048576	20	4820
2026-01-07 00:35:20.96	200.50	15.04	-30.3	-32.7	11.8	2.38e-03	0	44	102	1048576	20	4742
2026-01-07 00:35:21.97	200.51	14.93	-30.4	-32.9	11.6	6.34e-04	0	44	102	1048576	20	4835
2026-01-07 00:35:22.97	200.51	14.82	-30.5	-33.0	11.2	3.07e-03	0	44	102	1048576	21	4772
2026-01-07 00:35:23.97	200.51	14.72	-30.5	-32.9	11.3	3.38e-03	0	44	102	1048576	21	4751
2026-01-07 00:35:24.98	200.52	14.61	-30.8	-33.8	10.6	1.90e-03	0	44	102	1048576	21	5102
2026-01-07 00:35:25.98	200.52	14.50	-30.7	-33.4	10.9	3.02e-03	0	44	102	1048576	21	4940
2026-01-07 00:35:26.99	200.52	14.40	-30.8	-33.9	10.5	5.51e-03	0	44	102	1048576	21	5139
2026-01-07 00:35:27.99	200.53	14.29	-31.0	-34.4	10.2	4.36e-03	0	44	102	1048576	21	5360
2026-01-07 00:35:29.00	200.53	14.19	-30.9	-34.2	10.3	8.64e-03	0	44	102	1048576	21	5255
2026-01-07 00:35:30.00	200.53	14.09	-30.9	-34.2	10.3	7.78e-03	0	44	102	1048576	21	5254
2026-01-07 00:35:31.02	200.54	13.98	-31.1	-34.4	9.9	7.61e-03	0	44	102	1048576	22	5255
2026-01-07 00:35:32.02	200.54	13.88	-31.3	-34.9	9.4	1.41e-02	0	43	102	1048576	22	5498
2026-01-07 00:35:33.03	200.54	13.77	-31.1	-34.4	9.7	1.05e-02	0	43	102	1048576	22	5277
2026-01-07 00:35:34.04	200.55	13.67	-31.0	-33.9	10.1	8.11e-03	0	44	102	1048576	22	5067
2026-01-07 00:35:35.04	200.55	13.57	-30.9	-34.2	10.3	7.09e-03	0	44	102	1048576	21	5253
2026-01-07 00:35:36.05	200.55	13.47	-31.0	-34.4	10.1	7.07e-03	0	43	102	1048576	21	5375
2026-01-07 00:35:37.06	200.56	13.37	-30.9	-34.4	10.1	6.69e-03	0	43	102	1048576	21	5337
2026-01-07 00:35:38.07	200.56	13.27	-30.9	-34.1	10.3	8.03e-03	0	43	102	1048576	21	5241
2026-01-07 00:35:39.08	200.56	13.17	-30.8	-33.8	10.5	6.74e-03	0	43	102	1048576	21	5106
2026-01-07 00:35:40.08	200.57	13.07	-30.7	-33.4	10.8	2.85e-03	0	44	102	1048576	21	4956
2026-01-07 00:35:41.09	200.57	12.97	-30.6	-33.2	11.0	3.95e-03	0	44	102	1048576	21	4865
2026-01-07 00:35:42.09	200.57	12.87	-30.6	-33.1	11.0	4.47e-03	0	44	102	1048576	21	4844
2026-01-07 00:35:43.10	200.58	12.77	-30.6	-33.2	11.0	1.86e-03	0	44	102	1048576	21	4876
2026-01-07 00:35:44.10	200.58	12.67	-30.7	-33.5	10.7	4.30e-03	0	43	102	1048576	21	4983
2026-01-07 00:35:45.11	200.58	12.57	-30.6	-33.4	10.8	4.86e-03	0	44	102	1048576	21	4935
2026-01-07 00:35:46.12	200.58	12.48	-30.6	-33.2	10.9	1.84e-03	0	44	102	1048576	21	4865
2026-01-07 00:35:47.12	200.59	12.38	-30.5	-33.1	11.0	1.94e-03	0	44	102	1048576	21	4820
2026-01-07 00:35:48.13	200.59	12.28	-30.5	-33.1	11.0	3.80e-03	0	44	102	1048576	21	4843
2026-01-07 00:35:49.14	200.59	12.19	-30.5	-33.2	10.9	2.03e-03	0	43	102	1048576	21	4865
2026-01-07 00:35:50.15	200.60	12.09	-30.6	-33.2	10.9	2.37e-03	0	44	102	1048576	21	4869
2026-01-07 00:35:51.16	200.60	11.99	-30.6	-33.3	10.9	3.53e-03	0	43	102	1048576	21	4913
2026-01-07 00:35:52.16	200.60	11.90	-30.5	-33.2	10.9	2.46e-03	0	43	102	1048576	21	4868
2026-01-07 00:35:53.17	200.61	11.80	-30.6	-33.3	10.8	2.27e-03	0	44	102	1048576	21	4936
2026-01-07 00:35:54.17	200.61	11.71	-30.6	-33.3	10.8	2.20e-03	0	44	102	1048576	21	4919
2026-01-07 00:35:55.18	200.61	11.62	-30.5	-32.9	11.1	1.80e-03	0	44	102	1048576	21	4782
2026-01-07 00:35:56.18	200.62	11.52	-30.6	-33.3	10.7	2.53e-03	0	43	102	1048576	21	4927
2026-01-07 00:35:57.18	200.62	11.43	-30.4	-32.6	11.3	1.59e-03	0	43	102	1048576	21	4662
2026-01-07 00:35:58.19	200.62	11.34	-30.4	-33.3	11.2	1.32e-03	0	44	102	1048576	20	5005
2026-01-07 00:35:59.19	200.63	11.24	-30.5	-32.9	11.0	3.32e-03	0	44	102	1048576	21	4790
2026-01-07 00:36:00.20	200.63	11.15	-30.3	-32.9	11.4	1.00e-03	0	44	102	1048576	20	4865
2026-01-07 00:36:01.20	200.63	11.06	-30.4	-33.2	11.3	9.93e-04	0	44	102	1048576	20	4968
2026-01-07 00:36:02.21	200.64	10.97	-30.3	-33.1	11.2	3.00e-03	0	44	102	1048576	20	4925
2026-01-07 00:36:03.22	200.64	10.88	-30.3	-33.0	11.4	1.11e-03	0	44	102	1048576	20	4884
2026-01-07 00:36:04.23	200.64	10.79	-30.3	-32.9	11.4	1.28e-03	0	44	102	1048576	20	4875
2026-01-07 00:36:05.23	200.65	10.70	-30.3	-33.0	11.4	1.44e-03	0	43	102	1048576	20	4895
2026-01-07 00:36:06.24	200.65	10.60	-30.4	-33.2	11.2	1.26e-03	0	44	102	1048576	20	4988
2026-01-07 00:36:07.25	200.65	10.51	-30.3	-32.9	11.4	1.27e-03	0	44	102	1048576	20	4857
2026-01-07 00:36:08.25	200.66	10.43	-30.2	-32.8	11.5	8.68e-04	0	44	102	1048576	20	4823
2026-01-07 00:36:09.26	200.66	10.34	-30.4	-33.2	11.1	9.02e-04	0	44	102	1048576	20	4990
2026-01-07 00:36:10.27	200.66	10.25	-30.2	-32.8	11.4	1.28e-03	0	44	102	1048576	20	4826
2026-01-07 00:36:11.28	200.67	10.16	-30.3	-33.1	11.2	1.27e-03	0	44	102	1048576	20	4954
2026-01-07 00:36:12.29	200.67	10.07	-30.5	-33.1	10.9	2.01e-03	0	44	102	1048576	21	4855
2026-01-07 00:36:13.29	200.67	9.98	-30.3	-32.4	11.3	1.39e-03	0	44	102	1048576	21	4612
2026-01-07 00:36:14.31	200.68	9.89	-30.2	-32.8	11.4	8.87e-04	0	44	102	1048576	20	4834
2026-01-07 00:36:15.31	200.68	9.81	-29.7	-32.3	11.3	9.70e-04	0	44	102	1048576	20	4875
2026-01-07 00:36:16.33	200.68	9.72	-30.2	-32.7	11.1	8.43e-04	0	43	102	1048576	20	4797
2026-01-07 00:36:17.33	200.68	9.63	-30.2	-32.8	11.0	1.22e-03	0	44	102	1048576	20	4852
2026-01-07 00:36:18.34	200.69	9.54	-30.2	-32.7	11.3	1.21e-03	0	43	102	1048576	20	4803
2026-01-07 00:36:19.35	200.69	9.46	-30.3	-32.9	10.8	1.11e-03	0	44	102	1048576	20	4868
