passes_logs/2026/01/07/R2M6_AANII_01/R2M6_AANII_01__20260107_112900_NOAA_21_JPSS-2_rec.log

#Pass ID: 20260107_112900_NOAA 21 (JPSS-2)
#Satellite: NOAA 21 (JPSS-2)
#Configuration: NOAA 21
#almurnet v.1.7.20240730
#Start time: 2026-01-07 11:30:00

#Version: 2.2.20231116
#Station: R2M6_AANII_01
#Location: 30.233357 lon 59.946436 lat
#TLE: 1 54234U 22150A   26005.56767909  .00000152  00000+0  92756-4 0  9990
#TLE: 2 54234  98.7490 306.5820 0001036 340.2747  19.8389 14.19532370163472

#Time	Az	El	Level	Level2	SNR	BER	BlckErr	Temp	State	Recorded	gain1	gain2
2026-01-07 11:30:00.67	202.38	11.52	-33.4	-44.5	3.8	8.48e-01	0	43	0	0	26	12806
2026-01-07 11:30:01.67	202.47	11.60	-34.0	-45.4	3.8	1.49e+00	0	43	104	0	29	13294
2026-01-07 11:30:02.67	202.57	11.68	-34.0	-45.4	3.8	1.49e+00	0	43	104	0	29	13369
2026-01-07 11:30:03.68	202.66	11.76	-34.1	-45.5	3.8	1.49e+00	0	43	104	0	29	13411
2026-01-07 11:30:04.68	202.76	11.85	-34.1	-45.6	3.8	1.49e+00	0	43	104	0	29	13457
2026-01-07 11:30:05.69	202.86	11.93	-34.1	-45.6	3.8	1.49e+00	0	43	104	0	29	13495
2026-01-07 11:30:06.70	202.95	12.01	-34.2	-45.6	3.8	1.49e+00	0	44	104	0	29	13497
2026-01-07 11:30:07.71	203.05	12.09	-34.1	-45.6	3.8	1.49e+00	0	43	104	0	29	13455
2026-01-07 11:30:08.71	203.15	12.18	-34.1	-45.6	3.8	1.49e+00	0	43	104	0	29	13521
2026-01-07 11:30:09.72	203.25	12.26	-34.2	-45.7	3.8	1.49e+00	0	43	104	0	29	13544
2026-01-07 11:30:10.73	203.35	12.34	-34.1	-45.6	3.8	1.49e+00	0	43	104	0	29	13502
2026-01-07 11:30:11.73	203.45	12.43	-34.1	-45.6	3.8	1.49e+00	0	43	104	0	29	13482
2026-01-07 11:30:12.74	203.55	12.51	-34.1	-45.6	3.8	1.49e+00	0	44	104	0	29	13444
2026-01-07 11:30:13.75	203.65	12.59	-34.1	-45.6	3.8	1.49e+00	0	43	104	0	29	13453
2026-01-07 11:30:14.76	203.75	12.68	-34.1	-45.5	3.8	1.49e+00	0	43	104	0	29	13436
2026-01-07 11:30:15.77	203.86	12.76	-34.1	-45.6	3.8	1.49e+00	0	43	104	0	29	13422
2026-01-07 11:30:16.77	203.96	12.85	-34.1	-45.5	3.8	1.49e+00	0	43	104	0	29	13433
2026-01-07 11:30:17.78	204.06	12.93	-34.1	-45.6	3.8	1.49e+00	0	43	104	0	29	13493
2026-01-07 11:30:18.78	204.16	13.02	-34.1	-45.6	3.8	1.49e+00	0	43	104	0	29	13448
2026-01-07 11:30:19.79	204.27	13.10	-34.1	-45.6	3.8	1.49e+00	0	43	104	0	29	13487
2026-01-07 11:30:20.80	204.38	13.19	-34.1	-45.5	3.8	1.49e+00	0	43	104	0	29	13434
2026-01-07 11:30:21.80	204.48	13.27	-34.0	-45.4	3.8	1.49e+00	0	43	104	0	29	13389
2026-01-07 11:30:22.81	204.59	13.36	-34.1	-45.5	3.8	1.49e+00	0	43	104	0	29	13371
2026-01-07 11:30:23.82	204.69	13.44	-34.0	-45.4	3.8	1.49e+00	0	43	104	0	29	13340
2026-01-07 11:30:24.83	204.80	13.53	-33.9	-45.2	3.8	1.49e+00	0	43	104	0	29	13126
2026-01-07 11:30:25.83	204.91	13.62	-33.9	-45.1	3.8	1.49e+00	0	43	104	0	29	13143
2026-01-07 11:30:26.84	205.02	13.70	-33.8	-45.1	3.8	1.49e+00	0	44	104	0	29	13101
2026-01-07 11:30:27.85	205.13	13.79	-33.8	-45.0	3.8	1.49e+00	0	43	104	0	29	13022
2026-01-07 11:30:28.85	205.24	13.88	-33.8	-45.4	3.8	1.49e+00	0	43	104	0	28	13751
2026-01-07 11:30:29.86	205.35	13.96	-33.7	-45.3	3.8	1.49e+00	0	43	104	0	28	13687
2026-01-07 11:30:30.86	205.46	14.05	-33.7	-45.2	3.8	1.49e+00	0	43	104	0	28	13587
2026-01-07 11:30:31.87	205.57	14.14	-33.6	-45.1	3.8	1.49e+00	0	43	104	0	28	13481
2026-01-07 11:30:32.88	205.69	14.23	-33.5	-44.8	3.8	1.49e+00	0	44	104	0	28	13158
2026-01-07 11:30:33.88	205.80	14.31	-33.3	-44.1	3.8	1.49e+00	0	44	104	0	27	12517
2026-01-07 11:30:34.88	205.91	14.40	-33.3	-44.6	3.8	1.49e+00	0	44	104	0	27	13225
2026-01-07 11:30:35.89	206.03	14.49	-33.3	-44.3	3.8	1.49e+00	0	43	104	0	27	12755
2026-01-07 11:30:36.89	206.14	14.58	-33.2	-43.8	3.8	1.49e+00	0	44	104	0	27	12216
2026-01-07 11:30:37.90	206.26	14.67	-33.2	-43.4	3.8	1.49e+00	0	43	104	0	27	11644
2026-01-07 11:30:38.91	206.37	14.76	-33.1	-42.5	3.9	1.48e+00	0	43	104	0	27	10594
2026-01-07 11:30:39.92	206.49	14.85	-33.1	-42.6	3.8	1.49e+00	0	43	104	0	27	10749
2026-01-07 11:30:40.93	206.61	14.94	-33.1	-42.4	3.9	1.48e+00	0	43	104	0	27	10516
2026-01-07 11:30:41.93	206.73	15.03	-33.2	-43.3	3.8	1.49e+00	0	44	104	0	27	11544
2026-01-07 11:30:42.94	206.85	15.12	-33.2	-43.7	3.8	1.49e+00	0	43	104	0	27	11985
2026-01-07 11:30:43.94	206.97	15.21	-33.1	-43.2	3.8	1.49e+00	0	44	104	0	27	11436
2026-01-07 11:30:44.95	207.09	15.30	-32.9	-41.0	3.9	1.48e+00	0	43	104	0	27	9174
2026-01-07 11:30:45.97	207.21	15.39	-32.3	-37.7	5.8	6.93e-01	0	44	104	0	26	6707
2026-01-07 11:30:46.97	207.33	15.48	-31.5	-35.4	7.9	1.28e-01	0	44	102	1048576	24	5665
2026-01-07 11:30:47.98	207.45	15.57	-30.5	-33.4	10.0	1.48e-02	0	44	102	1048576	22	5030
2026-01-07 11:30:48.99	207.58	15.66	-29.7	-32.1	11.5	1.22e-03	0	43	102	1048576	20	4754
2026-01-07 11:30:50.00	207.70	15.76	-29.1	-31.0	12.6	1.15e-04	0	43	102	1048576	19	4490
2026-01-07 11:30:51.00	207.83	15.85	-28.7	-30.5	13.3	3.05e-05	0	44	102	1048576	18	4424
2026-01-07 11:30:52.01	207.95	15.94	-28.5	-30.1	13.5	1.06e-05	0	44	102	1048576	18	4325
2026-01-07 11:30:53.01	208.08	16.03	-28.5	-30.2	13.5	9.90e-06	0	43	102	1048576	18	4339
2026-01-07 11:30:54.02	208.21	16.12	-28.9	-31.1	12.9	2.82e-05	0	44	102	1048576	18	4622
2026-01-07 11:30:55.03	208.33	16.22	-29.5	-32.5	12.0	1.85e-04	0	44	102	1048576	18	5089
2026-01-07 11:30:56.04	208.46	16.31	-29.6	-32.4	11.8	5.05e-04	0	43	102	1048576	19	4939
2026-01-07 11:30:57.04	208.59	16.40	-29.2	-31.4	12.4	1.79e-04	0	43	102	1048576	19	4621
2026-01-07 11:30:58.05	208.72	16.50	-29.6	-32.4	11.8	2.80e-04	0	43	102	1048576	19	4957
2026-01-07 11:30:59.06	208.85	16.59	-29.3	-31.6	12.3	2.64e-04	0	44	102	1048576	19	4665
2026-01-07 11:31:00.06	208.99	16.68	-29.1	-31.0	12.7	8.69e-05	0	44	102	1048576	19	4477
2026-01-07 11:31:01.07	209.12	16.78	-28.8	-30.2	13.1	3.28e-05	0	43	102	1048576	19	4258
2026-01-07 11:31:02.07	209.25	16.87	-28.7	-30.4	13.4	1.90e-05	0	44	102	1048576	18	4413
2026-01-07 11:31:03.08	209.39	16.97	-28.8	-30.9	13.1	2.82e-05	0	44	102	1048576	18	4558
2026-01-07 11:31:04.09	209.52	17.06	-28.6	-30.2	13.5	1.29e-05	0	43	102	1048576	18	4351
2026-01-07 11:31:05.10	209.66	17.16	-28.4	-29.7	13.8	3.80e-06	0	44	102	1048576	18	4189
2026-01-07 11:31:06.10	209.79	17.25	-28.2	-29.7	14.1	3.00e-06	0	44	102	1048576	17	4318
2026-01-07 11:31:07.10	209.93	17.35	-28.3	-30.0	13.9	1.50e-06	0	43	102	1048576	17	4390
2026-01-07 11:31:08.11	210.07	17.44	-28.4	-30.4	13.6	8.30e-06	0	44	102	1048576	17	4515
2026-01-07 11:31:09.12	210.21	17.54	-28.2	-29.8	14.0	5.30e-06	0	44	102	1048576	17	4345
2026-01-07 11:31:10.12	210.35	17.63	-28.4	-30.3	13.7	5.30e-06	0	43	102	1048576	17	4489
2026-01-07 11:31:11.13	210.49	17.73	-28.1	-29.6	14.1	7.00e-07	0	43	102	1048576	17	4286
2026-01-07 11:31:12.14	210.63	17.83	-27.9	-29.2	14.4	7.00e-07	0	43	102	1048576	17	4173
2026-01-07 11:31:13.14	210.77	17.92	-27.8	-29.0	14.5	0.00e+00	0	43	102	1048576	17	4096
2026-01-07 11:31:14.15	210.92	18.02	-27.8	-29.0	14.5	1.50e-06	0	43	102	1048576	17	4102
2026-01-07 11:31:15.16	211.06	18.12	-27.8	-28.9	14.6	0.00e+00	0	43	102	1048576	17	4090
2026-01-07 11:31:16.17	211.21	18.22	-27.7	-29.1	14.8	7.00e-07	0	43	102	1048576	16	4237
2026-01-07 11:31:17.17	211.36	18.31	-27.8	-29.4	14.6	0.00e+00	0	43	102	1048576	16	4325
2026-01-07 11:31:18.17	211.50	18.41	-28.0	-29.7	14.4	0.00e+00	0	44	102	1048576	16	4421
2026-01-07 11:31:19.18	211.65	18.51	-27.7	-29.2	14.7	7.00e-07	0	44	102	1048576	16	4275
2026-01-07 11:31:20.19	211.80	18.61	-27.6	-28.9	14.9	4.50e-06	0	44	102	1048576	16	4185
2026-01-07 11:31:21.20	211.95	18.71	-27.5	-28.7	15.0	0.00e+00	0	43	102	1048576	16	4132
2026-01-07 11:31:22.20	212.10	18.80	-27.6	-28.9	14.9	0.00e+00	0	44	102	1048576	16	4185
2026-01-07 11:31:23.21	212.25	18.90	-27.5	-28.8	15.0	3.00e-06	0	43	102	1048576	16	4145
2026-01-07 11:31:24.21	212.40	19.00	-27.6	-28.8	15.0	7.00e-07	0	43	102	1048576	16	4158
2026-01-07 11:31:25.21	212.56	19.10	-27.7	-29.1	14.8	0.00e+00	0	43	102	1048576	16	4232
2026-01-07 11:31:26.22	212.71	19.20	-27.5	-28.8	15.0	0.00e+00	0	43	102	1048576	16	4144
2026-01-07 11:31:27.23	212.87	19.30	-27.5	-28.7	15.1	0.00e+00	0	44	102	1048576	16	4120
2026-01-07 11:31:28.23	213.03	19.40	-27.5	-28.7	15.1	0.00e+00	0	43	102	1048576	16	4118
2026-01-07 11:31:29.24	213.18	19.50	-27.5	-28.6	15.1	7.60e-06	0	43	102	1048576	16	4110
2026-01-07 11:31:30.25	213.34	19.60	-27.5	-28.6	15.1	0.00e+00	0	43	102	1048576	16	4094
2026-01-07 11:31:31.26	213.50	19.70	-27.6	-28.8	15.0	0.00e+00	0	43	102	1048576	16	4162
2026-01-07 11:31:32.26	213.66	19.80	-27.5	-28.6	15.2	0.00e+00	0	43	102	1048576	16	4094
2026-01-07 11:31:33.27	213.83	19.90	-27.4	-28.4	15.3	0.00e+00	0	43	102	1048576	16	4033
2026-01-07 11:31:34.27	213.99	20.00	-27.3	-28.3	15.3	0.00e+00	0	44	102	1048576	16	4020
2026-01-07 11:31:35.28	214.15	20.10	-27.3	-28.3	15.3	0.00e+00	0	43	102	1048576	16	4013
2026-01-07 11:31:36.29	214.32	20.20	-27.3	-28.3	15.3	0.00e+00	0	43	102	1048576	16	4019
2026-01-07 11:31:37.29	214.48	20.30	-27.3	-28.3	15.3	0.00e+00	0	43	102	1048576	16	4006
2026-01-07 11:31:38.30	214.65	20.41	-27.1	-28.3	15.5	0.00e+00	0	43	102	1048576	15	4124
2026-01-07 11:31:39.31	214.82	20.51	-27.0	-28.1	15.5	0.00e+00	0	43	102	1048576	15	4070
2026-01-07 11:31:40.31	214.99	20.61	-27.1	-28.3	15.5	0.00e+00	0	43	102	1048576	15	4127
2026-01-07 11:31:41.32	215.16	20.71	-27.0	-28.2	15.5	0.00e+00	0	43	102	1048576	15	4093
2026-01-07 11:31:42.33	215.33	20.81	-27.0	-28.0	15.6	0.00e+00	0	43	102	1048576	15	4039
2026-01-07 11:31:43.33	215.50	20.92	-27.0	-28.0	15.6	0.00e+00	0	43	102	1048576	15	4057
2026-01-07 11:31:44.34	215.68	21.02	-26.9	-27.9	15.6	0.00e+00	0	43	102	1048576	15	4027
2026-01-07 11:31:45.35	215.85	21.12	-26.8	-27.7	15.8	0.00e+00	0	43	102	1048576	15	3969
2026-01-07 11:31:46.36	216.03	21.22	-27.0	-28.0	15.6	0.00e+00	0	43	102	1048576	15	4046
2026-01-07 11:31:47.36	216.20	21.33	-27.0	-28.0	15.6	0.00e+00	0	43	102	1048576	15	4054
2026-01-07 11:31:48.37	216.38	21.43	-26.9	-27.9	15.7	0.00e+00	0	43	102	1048576	15	4028
2026-01-07 11:31:49.37	216.56	21.53	-27.1	-28.2	15.5	0.00e+00	0	43	102	1048576	15	4105
2026-01-07 11:31:50.38	216.74	21.64	-26.9	-27.9	15.7	0.00e+00	0	43	102	1048576	15	4015
2026-01-07 11:31:51.39	216.92	21.74	-26.8	-27.6	15.8	0.00e+00	0	44	102	1048576	15	3951
2026-01-07 11:31:52.40	217.11	21.84	-26.8	-27.7	15.8	0.00e+00	0	43	102	1048576	15	3962
2026-01-07 11:31:53.41	217.29	21.95	-26.7	-27.9	16.0	0.00e+00	0	43	102	1048576	14	4119
2026-01-07 11:31:54.42	217.48	22.05	-26.7	-27.9	15.9	0.00e+00	0	43	102	1048576	14	4129
2026-01-07 11:31:55.42	217.66	22.16	-26.8	-28.1	15.9	0.00e+00	0	43	102	1048576	14	4169
2026-01-07 11:31:56.42	217.85	22.26	-26.6	-27.6	16.1	0.00e+00	0	44	102	1048576	14	4053
2026-01-07 11:31:57.43	218.04	22.36	-26.6	-27.6	16.1	0.00e+00	0	43	102	1048576	14	4048
2026-01-07 11:31:58.43	218.23	22.47	-26.7	-27.9	16.0	0.00e+00	0	43	102	1048576	14	4131
2026-01-07 11:31:59.45	218.42	22.57	-26.8	-28.0	15.9	0.00e+00	0	43	102	1048576	14	4159
2026-01-07 11:32:00.46	218.62	22.68	-26.6	-27.7	16.1	0.00e+00	0	43	102	1048576	14	4061
2026-01-07 11:32:01.47	218.81	22.78	-26.6	-27.6	16.2	0.00e+00	0	43	102	1048576	14	4035
2026-01-07 11:32:02.47	219.01	22.89	-26.5	-27.5	16.2	0.00e+00	0	43	102	1048576	14	4031
2026-01-07 11:32:03.48	219.20	22.99	-26.5	-27.4	16.3	0.00e+00	0	43	102	1048576	14	4008
2026-01-07 11:32:04.49	219.40	23.10	-26.5	-27.3	16.3	0.00e+00	0	43	102	1048576	14	3982
2026-01-07 11:32:05.49	219.60	23.20	-26.4	-27.3	16.3	0.00e+00	0	43	102	1048576	14	3970
2026-01-07 11:32:06.50	219.80	23.31	-26.3	-26.9	16.5	0.00e+00	0	43	102	1048576	14	3879
2026-01-07 11:32:07.51	220.00	23.41	-26.3	-27.4	16.5	0.00e+00	0	43	102	1048576	13	4112
2026-01-07 11:32:08.52	220.21	23.52	-26.3	-27.5	16.5	0.00e+00	0	44	102	1048576	13	4134
2026-01-07 11:32:09.52	220.41	23.62	-26.3	-27.5	16.5	0.00e+00	0	43	102	1048576	13	4127
2026-01-07 11:32:10.53	220.62	23.73	-26.3	-27.4	16.5	0.00e+00	0	43	102	1048576	13	4094
2026-01-07 11:32:11.54	220.83	23.84	-26.3	-27.5	16.5	0.00e+00	0	44	102	1048576	13	4115
2026-01-07 11:32:12.54	221.03	23.94	-26.4	-27.6	16.4	0.00e+00	0	43	102	1048576	13	4163
2026-01-07 11:32:13.55	221.24	24.05	-26.2	-27.3	16.6	0.00e+00	0	43	102	1048576	13	4086
2026-01-07 11:32:14.56	221.46	24.15	-26.3	-27.4	16.5	0.00e+00	0	43	102	1048576	13	4107
2026-01-07 11:32:15.57	221.67	24.26	-26.3	-27.5	16.5	0.00e+00	0	43	102	1048576	13	4133
2026-01-07 11:32:16.57	221.88	24.36	-26.3	-27.6	16.5	3.00e-06	0	43	102	1048576	13	4142
2026-01-07 11:32:17.58	222.10	24.47	-26.4	-27.6	16.5	0.00e+00	0	43	102	1048576	13	4153
2026-01-07 11:32:18.58	222.31	24.57	-26.3	-27.5	16.5	0.00e+00	0	43	102	1048576	13	4130
2026-01-07 11:32:19.59	222.53	24.68	-26.3	-27.5	16.5	2.20e-06	0	43	102	1048576	13	4116
2026-01-07 11:32:20.60	222.75	24.79	-26.3	-27.5	16.5	0.00e+00	0	43	102	1048576	13	4130
2026-01-07 11:32:21.59	222.97	24.89	-26.4	-27.8	16.4	0.00e+00	0	43	102	1048576	13	4195
2026-01-07 11:32:22.60	223.19	25.00	-26.4	-27.8	16.4	0.00e+00	0	43	102	1048576	13	4198
2026-01-07 11:32:23.61	223.42	25.10	-26.5	-27.8	16.3	0.00e+00	0	43	102	1048576	13	4213
2026-01-07 11:32:24.61	223.64	25.21	-26.5	-28.0	16.2	0.00e+00	0	43	102	1048576	13	4270
2026-01-07 11:32:25.62	223.87	25.31	-26.6	-28.2	16.1	1.50e-06	0	43	102	1048576	13	4324
2026-01-07 11:32:26.63	224.10	25.42	-26.7	-28.4	16.0	0.00e+00	0	43	102	1048576	13	4384
2026-01-07 11:32:27.63	224.33	25.52	-26.8	-28.5	16.0	0.00e+00	0	43	102	1048576	13	4393
2026-01-07 11:32:28.64	224.56	25.63	-26.8	-28.6	15.9	0.00e+00	0	43	102	1048576	13	4419
2026-01-07 11:32:29.64	224.79	25.73	-26.9	-28.8	15.8	0.00e+00	0	43	102	1048576	13	4493
2026-01-07 11:32:30.65	225.03	25.84	-26.9	-28.3	15.9	0.00e+00	0	43	102	1048576	14	4214
2026-01-07 11:32:31.65	225.26	25.94	-26.9	-28.2	15.9	5.30e-06	0	44	102	1048576	14	4187
2026-01-07 11:32:32.66	225.50	26.05	-26.9	-28.3	15.8	0.00e+00	0	43	102	1048576	14	4233
2026-01-07 11:32:33.66	225.74	26.15	-27.0	-28.6	15.7	0.00e+00	0	43	102	1048576	14	4305
2026-01-07 11:32:34.67	225.98	26.26	-27.0	-28.6	15.7	0.00e+00	0	43	102	1048576	14	4320
2026-01-07 11:32:35.68	226.22	26.36	-27.0	-28.6	15.7	0.00e+00	0	43	102	1048576	14	4317
2026-01-07 11:32:36.69	226.47	26.47	-27.2	-28.9	15.5	0.00e+00	0	44	102	1048576	14	4387
2026-01-07 11:32:37.69	226.71	26.57	-27.1	-28.8	15.6	0.00e+00	0	43	102	1048576	14	4363
2026-01-07 11:32:38.70	226.96	26.67	-27.1	-28.8	15.6	0.00e+00	0	43	102	1048576	14	4365
2026-01-07 11:32:39.71	227.21	26.78	-27.1	-28.8	15.6	0.00e+00	0	43	102	1048576	14	4365
2026-01-07 11:32:40.71	227.46	26.88	-27.2	-29.0	15.5	0.00e+00	0	43	102	1048576	14	4425
2026-01-07 11:32:41.72	227.71	26.99	-27.1	-28.8	15.6	0.00e+00	0	43	102	1048576	14	4361
2026-01-07 11:32:42.72	227.96	27.09	-27.0	-28.6	15.8	0.00e+00	0	43	102	1048576	14	4298
2026-01-07 11:32:43.72	228.21	27.19	-27.0	-28.5	15.8	0.00e+00	0	43	102	1048576	14	4291
2026-01-07 11:32:44.74	228.47	27.30	-27.0	-28.4	15.8	0.00e+00	0	43	102	1048576	14	4261
2026-01-07 11:32:45.74	228.73	27.40	-27.0	-28.6	15.7	0.00e+00	0	43	102	1048576	14	4300
2026-01-07 11:32:46.75	228.99	27.50	-27.1	-28.8	15.6	0.00e+00	0	43	102	1048576	14	4377
2026-01-07 11:32:47.75	229.25	27.60	-27.3	-29.2	15.4	0.00e+00	0	43	102	1048576	14	4469
2026-01-07 11:32:48.76	229.52	27.71	-27.3	-29.3	15.4	0.00e+00	0	44	102	1048576	14	4507
2026-01-07 11:32:49.77	229.78	27.81	-27.3	-29.3	15.3	0.00e+00	0	44	102	1048576	14	4503
2026-01-07 11:32:50.77	230.05	27.91	-27.5	-29.1	15.1	0.00e+00	0	43	102	1048576	15	4352
2026-01-07 11:32:51.78	230.31	28.01	-27.7	-29.5	15.0	0.00e+00	0	43	102	1048576	15	4463
2026-01-07 11:32:52.79	230.59	28.11	-27.5	-29.3	15.1	0.00e+00	0	43	102	1048576	15	4384
2026-01-07 11:32:53.79	230.85	28.21	-27.5	-29.2	15.1	0.00e+00	0	43	102	1048576	15	4376
2026-01-07 11:32:54.79	231.13	28.31	-27.4	-29.0	15.2	0.00e+00	0	43	102	1048576	15	4314
2026-01-07 11:32:55.79	231.40	28.41	-27.4	-29.0	15.3	0.00e+00	0	43	102	1048576	15	4298
2026-01-07 11:32:56.80	231.68	28.51	-27.5	-29.2	15.1	0.00e+00	0	43	102	1048576	15	4359
2026-01-07 11:32:57.80	231.95	28.61	-27.4	-29.0	15.2	0.00e+00	0	43	102	1048576	15	4301
2026-01-07 11:32:58.82	232.24	28.71	-27.4	-28.9	15.3	0.00e+00	0	43	102	1048576	15	4281
2026-01-07 11:32:59.82	232.52	28.81	-27.5	-29.1	15.2	0.00e+00	0	43	102	1048576	15	4333
2026-01-07 11:33:00.83	232.80	28.91	-27.5	-29.1	15.2	0.00e+00	0	44	102	1048576	15	4340
2026-01-07 11:33:01.84	233.09	29.00	-27.7	-29.5	15.0	0.00e+00	0	43	102	1048576	15	4444
2026-01-07 11:33:02.85	233.37	29.10	-27.6	-29.3	15.1	0.00e+00	0	43	102	1048576	15	4385
2026-01-07 11:33:03.85	233.66	29.20	-27.5	-29.1	15.2	0.00e+00	0	43	102	1048576	15	4321
2026-01-07 11:33:04.86	233.95	29.29	-27.3	-28.7	15.4	0.00e+00	0	43	102	1048576	15	4235
2026-01-07 11:33:05.87	234.24	29.39	-27.3	-28.7	15.5	0.00e+00	0	43	102	1048576	15	4209
2026-01-07 11:33:06.88	234.54	29.49	-27.4	-28.8	15.4	5.30e-06	0	43	102	1048576	15	4250
2026-01-07 11:33:07.88	234.83	29.58	-27.1	-28.3	15.7	0.00e+00	0	43	102	1048576	15	4112
2026-01-07 11:33:08.89	235.13	29.68	-27.1	-28.1	15.8	0.00e+00	0	43	102	1048576	15	4067
2026-01-07 11:33:09.90	235.43	29.77	-27.1	-28.3	15.7	0.00e+00	0	43	102	1048576	15	4107
2026-01-07 11:33:10.90	235.72	29.86	-27.0	-28.1	15.8	0.00e+00	0	43	102	1048576	15	4049
2026-01-07 11:33:11.91	236.03	29.96	-27.0	-28.1	15.8	0.00e+00	0	43	102	1048576	15	4056
2026-01-07 11:33:12.92	236.33	30.05	-27.1	-28.2	15.7	7.60e-06	0	43	102	1048576	15	4087
2026-01-07 11:33:13.92	236.64	30.14	-27.2	-28.4	15.6	0.00e+00	0	43	102	1048576	15	4136
2026-01-07 11:33:14.93	236.94	30.23	-27.4	-28.9	15.4	0.00e+00	0	43	102	1048576	15	4270
2026-01-07 11:33:15.94	237.25	30.32	-27.3	-28.7	15.5	3.80e-06	0	43	102	1048576	15	4215
2026-01-07 11:33:16.94	237.56	30.41	-27.3	-28.6	15.5	0.00e+00	0	43	102	1048576	15	4202
2026-01-07 11:33:17.95	237.87	30.50	-27.3	-28.7	15.4	0.00e+00	0	43	102	1048576	15	4227
2026-01-07 11:33:18.95	238.19	30.59	-27.2	-28.5	15.6	6.10e-06	0	43	102	1048576	15	4168
2026-01-07 11:33:19.96	238.50	30.68	-27.1	-28.3	15.7	0.00e+00	0	43	102	1048576	15	4111
2026-01-07 11:33:20.97	238.82	30.77	-27.1	-28.3	15.7	0.00e+00	0	43	102	1048576	15	4118
2026-01-07 11:33:21.98	239.14	30.85	-27.4	-28.8	15.4	3.80e-06	0	43	102	1048576	15	4248
2026-01-07 11:33:22.98	239.46	30.94	-27.1	-28.3	15.7	0.00e+00	0	43	102	1048576	15	4101
2026-01-07 11:33:23.98	239.78	31.02	-27.3	-28.7	15.5	0.00e+00	0	43	102	1048576	15	4219
2026-01-07 11:33:24.99	240.10	31.11	-27.2	-28.3	15.7	0.00e+00	0	43	102	1048576	15	4117
2026-01-07 11:33:25.99	240.43	31.19	-27.1	-28.1	15.8	0.00e+00	0	43	102	1048576	15	4067
2026-01-07 11:33:27.00	240.75	31.27	-27.2	-28.4	15.7	0.00e+00	0	43	102	1048576	15	4125
2026-01-07 11:33:28.00	241.08	31.36	-27.2	-28.3	15.6	0.00e+00	0	43	102	1048576	15	4121
2026-01-07 11:33:29.01	241.41	31.44	-27.4	-28.8	15.4	0.00e+00	0	43	102	1048576	15	4237
2026-01-07 11:33:30.02	241.75	31.52	-27.6	-29.3	15.2	0.00e+00	0	43	102	1048576	15	4394
2026-01-07 11:33:31.02	242.08	31.60	-27.4	-28.9	15.4	0.00e+00	0	43	102	1048576	15	4263
2026-01-07 11:33:32.03	242.41	31.68	-27.3	-28.7	15.5	0.00e+00	0	43	102	1048576	15	4215
2026-01-07 11:33:33.04	242.75	31.75	-27.3	-28.7	15.5	0.00e+00	0	43	102	1048576	15	4219
2026-01-07 11:33:34.04	243.09	31.83	-27.3	-28.7	15.5	0.00e+00	0	43	102	1048576	15	4226
2026-01-07 11:33:35.05	243.43	31.91	-27.3	-28.7	15.5	0.00e+00	0	44	102	1048576	15	4217
2026-01-07 11:33:36.05	243.77	31.98	-27.3	-28.6	15.5	0.00e+00	0	43	102	1048576	15	4192
2026-01-07 11:33:37.06	244.11	32.06	-27.5	-29.1	15.2	7.00e-07	0	44	102	1048576	15	4333
2026-01-07 11:33:38.07	244.46	32.13	-27.6	-29.3	15.2	0.00e+00	0	43	102	1048576	15	4394
2026-01-07 11:33:39.07	244.80	32.20	-27.9	-29.9	14.8	7.00e-07	0	43	102	1048576	15	4565
2026-01-07 11:33:40.08	245.15	32.28	-27.9	-30.1	14.8	0.00e+00	0	44	102	1048576	15	4611
2026-01-07 11:33:41.09	245.50	32.35	-28.2	-30.2	14.5	0.00e+00	0	44	102	1048576	16	4539
2026-01-07 11:33:42.10	245.85	32.42	-28.4	-30.5	14.4	7.00e-07	0	43	102	1048576	16	4631
2026-01-07 11:33:43.10	246.20	32.48	-28.3	-30.4	14.5	0.00e+00	0	43	102	1048576	16	4575
2026-01-07 11:33:44.10	246.55	32.55	-28.4	-30.6	14.3	0.00e+00	0	43	102	1048576	16	4635
2026-01-07 11:33:45.11	246.91	32.62	-28.3	-30.3	14.4	1.50e-06	0	43	102	1048576	16	4567
2026-01-07 11:33:46.12	247.27	32.68	-28.3	-30.4	14.4	0.00e+00	0	43	102	1048576	16	4579
2026-01-07 11:33:47.13	247.62	32.75	-28.5	-30.9	14.2	7.00e-07	0	43	102	1048576	16	4737
2026-01-07 11:33:48.13	247.98	32.81	-28.5	-30.3	14.2	1.50e-06	0	43	102	1048576	17	4446
2026-01-07 11:33:49.14	248.34	32.87	-28.6	-30.7	13.9	1.50e-06	0	43	102	1048576	17	4580
2026-01-07 11:33:50.14	248.70	32.94	-28.3	-29.8	14.5	0.00e+00	0	43	102	1048576	17	4295
2026-01-07 11:33:51.15	249.07	33.00	-28.0	-29.2	14.9	1.50e-06	0	43	102	1048576	17	4119
2026-01-07 11:33:52.16	249.43	33.05	-28.0	-29.1	14.9	0.00e+00	0	43	102	1048576	17	4111
2026-01-07 11:33:53.16	249.80	33.11	-28.1	-29.4	14.7	0.00e+00	0	43	102	1048576	17	4181
2026-01-07 11:33:54.17	250.16	33.17	-28.1	-29.4	14.7	0.00e+00	0	44	102	1048576	17	4204
2026-01-07 11:33:55.17	250.53	33.22	-28.1	-29.6	14.6	0.00e+00	0	43	102	1048576	17	4234
2026-01-07 11:33:56.18	250.90	33.28	-28.0	-29.3	14.8	0.00e+00	0	43	102	1048576	17	4152
2026-01-07 11:33:57.19	251.27	33.33	-27.9	-28.9	15.0	0.00e+00	0	43	102	1048576	17	4052
2026-01-07 11:33:58.20	251.64	33.38	-27.9	-29.0	14.9	7.00e-07	0	43	102	1048576	17	4082
2026-01-07 11:33:59.20	252.01	33.43	-27.8	-29.2	15.1	0.00e+00	0	43	102	1048576	16	4251
2026-01-07 11:34:00.21	252.39	33.48	-27.8	-29.2	15.1	0.00e+00	0	44	102	1048576	16	4249
2026-01-07 11:34:01.21	252.76	33.53	-27.9	-29.4	15.0	0.00e+00	0	44	102	1048576	16	4295
2026-01-07 11:34:02.22	253.14	33.58	-28.0	-29.6	14.9	7.00e-07	0	43	102	1048576	16	4353
2026-01-07 11:34:03.23	253.52	33.62	-27.8	-29.3	15.1	9.10e-06	0	44	102	1048576	16	4269
2026-01-07 11:34:04.24	253.90	33.67	-27.8	-29.3	15.0	0.00e+00	0	43	102	1048576	16	4276
2026-01-07 11:34:05.24	254.27	33.71	-28.0	-29.7	14.8	0.00e+00	0	43	102	1048576	16	4381
2026-01-07 11:34:06.25	254.66	33.75	-28.0	-29.7	14.9	7.60e-06	0	43	102	1048576	16	4374
2026-01-07 11:34:07.26	255.04	33.79	-28.0	-29.8	14.8	0.00e+00	0	43	102	1048576	16	4404
2026-01-07 11:34:08.26	255.42	33.83	-28.0	-29.8	14.8	0.00e+00	0	43	102	1048576	16	4406
2026-01-07 11:34:09.27	255.80	33.87	-28.0	-29.6	14.9	6.80e-06	0	43	102	1048576	16	4351
2026-01-07 11:34:10.28	256.19	33.90	-28.0	-29.7	14.9	0.00e+00	0	43	102	1048576	16	4361
2026-01-07 11:34:11.28	256.57	33.94	-28.1	-29.8	14.7	0.00e+00	0	43	102	1048576	16	4412
2026-01-07 11:34:12.29	256.95	33.97	-28.1	-29.9	14.7	1.37e-05	0	43	102	1048576	16	4431
2026-01-07 11:34:13.30	257.34	34.00	-28.2	-30.2	14.6	7.00e-07	0	43	102	1048576	16	4512
2026-01-07 11:34:14.30	257.73	34.03	-28.1	-29.9	14.7	0.00e+00	0	43	102	1048576	16	4429
2026-01-07 11:34:15.31	258.12	34.06	-28.1	-30.0	14.7	7.00e-07	0	44	102	1048576	16	4476
2026-01-07 11:34:16.31	258.50	34.09	-28.3	-30.3	14.5	7.00e-07	0	43	102	1048576	16	4552
2026-01-07 11:34:17.31	258.89	34.12	-28.2	-30.2	14.5	0.00e+00	0	44	102	1048576	16	4524
2026-01-07 11:34:18.32	259.28	34.14	-28.3	-30.4	14.4	9.90e-06	0	43	102	1048576	16	4597
2026-01-07 11:34:19.33	259.67	34.17	-28.2	-30.1	14.7	0.00e+00	0	43	102	1048576	16	4484
2026-01-07 11:34:20.34	260.06	34.19	-28.0	-29.7	14.8	0.00e+00	0	43	102	1048576	16	4372
2026-01-07 11:34:21.34	260.45	34.21	-27.9	-29.5	15.0	0.00e+00	0	43	102	1048576	16	4325
2026-01-07 11:34:22.35	260.84	34.23	-28.1	-29.9	14.8	0.00e+00	0	44	102	1048576	16	4431
2026-01-07 11:34:23.36	261.23	34.25	-28.3	-30.3	14.5	7.00e-07	0	44	102	1048576	16	4549
2026-01-07 11:34:24.36	261.62	34.26	-28.2	-30.3	14.5	0.00e+00	0	44	102	1048576	16	4539
2026-01-07 11:34:25.37	262.02	34.28	-28.4	-30.5	14.4	2.20e-06	0	43	102	1048576	16	4628
2026-01-07 11:34:26.37	262.41	34.29	-28.2	-30.2	14.5	0.00e+00	0	43	102	1048576	16	4537
2026-01-07 11:34:27.38	262.80	34.30	-28.2	-30.2	14.5	0.00e+00	0	43	102	1048576	16	4521
2026-01-07 11:34:28.39	263.20	34.31	-28.4	-30.6	14.3	7.00e-07	0	43	102	1048576	16	4654
2026-01-07 11:34:29.39	263.59	34.32	-28.5	-30.4	14.2	2.20e-06	0	43	102	1048576	17	4478
2026-01-07 11:34:30.40	263.98	34.33	-28.6	-30.6	14.1	1.50e-06	0	43	102	1048576	17	4526
2026-01-07 11:34:31.41	264.38	34.34	-28.7	-30.8	13.9	2.20e-06	0	43	102	1048576	17	4589
2026-01-07 11:34:32.41	264.77	34.34	-28.6	-30.6	14.1	6.10e-06	0	43	102	1048576	17	4537
2026-01-07 11:34:33.42	265.17	34.34	-28.4	-30.0	14.4	7.00e-07	0	43	102	1048576	17	4358
2026-01-07 11:34:34.42	265.56	34.34	-28.2	-29.7	14.5	0.00e+00	0	43	102	1048576	17	4280
2026-01-07 11:34:35.43	265.95	34.34	-28.3	-29.9	14.5	7.00e-07	0	44	102	1048576	17	4319
2026-01-07 11:34:36.44	266.35	34.34	-28.2	-29.7	14.6	7.00e-07	0	43	102	1048576	17	4269
2026-01-07 11:34:37.45	266.74	34.34	-28.3	-29.8	14.6	0.00e+00	0	43	102	1048576	17	4289
2026-01-07 11:34:38.45	267.13	34.34	-28.3	-29.8	14.5	7.00e-07	0	43	102	1048576	17	4288
2026-01-07 11:34:39.46	267.53	34.33	-28.2	-29.6	14.6	7.00e-07	0	43	102	1048576	17	4225
2026-01-07 11:34:40.46	267.92	34.32	-28.2	-29.6	14.7	0.00e+00	0	43	102	1048576	17	4224
2026-01-07 11:34:41.47	268.32	34.31	-28.3	-29.8	14.5	0.00e+00	0	43	102	1048576	17	4297
2026-01-07 11:34:42.48	268.71	34.30	-28.4	-30.1	14.4	7.00e-07	0	43	102	1048576	17	4389
2026-01-07 11:34:43.48	269.10	34.29	-28.2	-29.7	14.6	0.00e+00	0	43	102	1048576	17	4269
2026-01-07 11:34:44.48	269.49	34.28	-28.2	-29.7	14.6	7.00e-07	0	43	102	1048576	17	4268
2026-01-07 11:34:45.49	269.88	34.26	-28.3	-29.8	14.5	0.00e+00	0	43	102	1048576	17	4297
2026-01-07 11:34:46.49	270.27	34.25	-28.2	-29.6	14.6	0.00e+00	0	43	102	1048576	17	4231
2026-01-07 11:34:47.49	270.66	34.23	-28.1	-29.3	14.8	0.00e+00	0	44	102	1048576	17	4160
2026-01-07 11:34:48.50	271.06	34.21	-28.1	-29.4	14.8	0.00e+00	0	43	102	1048576	17	4175
2026-01-07 11:34:49.50	271.44	34.19	-28.0	-29.1	14.9	0.00e+00	0	43	102	1048576	17	4112
2026-01-07 11:34:50.51	271.83	34.17	-27.8	-28.8	15.1	0.00e+00	0	43	102	1048576	17	4016
2026-01-07 11:34:51.52	272.23	34.15	-27.9	-28.9	15.1	0.00e+00	0	44	102	1048576	17	4037
2026-01-07 11:34:52.53	272.62	34.12	-27.9	-28.9	15.0	0.00e+00	0	43	102	1048576	17	4039
2026-01-07 11:34:53.54	273.01	34.09	-27.9	-29.0	14.9	6.10e-06	0	43	102	1048576	17	4087
2026-01-07 11:34:54.55	273.39	34.07	-27.9	-29.0	15.0	0.00e+00	0	43	102	1048576	17	4089
2026-01-07 11:34:55.56	273.78	34.04	-28.0	-29.2	14.8	0.00e+00	0	43	102	1048576	17	4133
2026-01-07 11:34:56.56	274.17	34.01	-28.1	-29.4	14.8	0.00e+00	0	43	102	1048576	17	4180
2026-01-07 11:34:57.58	274.56	33.97	-28.3	-29.8	14.5	0.00e+00	0	43	102	1048576	17	4297
2026-01-07 11:34:58.58	274.94	33.94	-28.3	-29.9	14.5	1.50e-06	0	43	102	1048576	17	4335
2026-01-07 11:34:59.59	275.32	33.91	-28.2	-29.7	14.6	4.50e-06	0	43	102	1048576	17	4258
2026-01-07 11:35:00.60	275.71	33.87	-28.2	-29.7	14.5	0.00e+00	0	43	102	1048576	17	4276
2026-01-07 11:35:01.60	276.09	33.83	-28.3	-29.9	14.4	7.00e-07	0	43	102	1048576	17	4343
2026-01-07 11:35:02.60	276.47	33.80	-28.3	-29.9	14.5	6.80e-06	0	43	102	1048576	17	4329
2026-01-07 11:35:03.61	276.85	33.76	-28.2	-29.6	14.7	0.00e+00	0	44	102	1048576	17	4228
2026-01-07 11:35:04.61	277.23	33.71	-28.3	-29.8	14.5	3.00e-06	0	43	102	1048576	17	4285
2026-01-07 11:35:05.61	277.60	33.67	-28.3	-29.8	14.5	7.00e-07	0	43	102	1048576	17	4295
2026-01-07 11:35:06.62	277.98	33.63	-28.0	-29.2	14.8	0.00e+00	0	44	102	1048576	17	4140
2026-01-07 11:35:07.63	278.36	33.58	-28.0	-29.1	14.9	0.00e+00	0	43	102	1048576	17	4112
2026-01-07 11:35:08.64	278.74	33.54	-28.0	-29.1	14.9	3.00e-06	0	44	102	1048576	17	4106
2026-01-07 11:35:09.64	279.11	33.49	-27.9	-28.9	15.1	0.00e+00	0	44	102	1048576	17	4050
2026-01-07 11:35:10.64	279.48	33.44	-27.8	-29.1	15.2	0.00e+00	0	43	102	1048576	16	4208
2026-01-07 11:35:11.65	279.85	33.39	-27.9	-29.5	15.1	0.00e+00	0	43	102	1048576	16	4303
2026-01-07 11:35:12.66	280.22	33.34	-28.0	-29.8	14.9	7.00e-07	0	43	102	1048576	16	4391
2026-01-07 11:35:13.67	280.60	33.29	-28.1	-29.8	14.8	0.00e+00	0	43	102	1048576	16	4395
2026-01-07 11:35:14.68	280.97	33.23	-28.1	-30.0	14.7	0.00e+00	0	44	102	1048576	16	4458
2026-01-07 11:35:15.68	281.33	33.18	-28.0	-29.7	14.9	0.00e+00	0	43	102	1048576	16	4372
2026-01-07 11:35:16.69	281.70	33.12	-27.8	-29.2	15.1	0.00e+00	0	43	102	1048576	16	4236
2026-01-07 11:35:17.68	282.06	33.06	-27.7	-28.9	15.3	0.00e+00	0	43	102	1048576	16	4146
2026-01-07 11:35:18.69	282.42	33.00	-27.8	-29.2	15.2	0.00e+00	0	44	102	1048576	16	4230
2026-01-07 11:35:19.69	282.78	32.95	-27.8	-29.1	15.2	0.00e+00	0	43	102	1048576	16	4216
2026-01-07 11:35:20.71	283.15	32.88	-27.7	-29.0	15.3	0.00e+00	0	43	102	1048576	16	4185
2026-01-07 11:35:21.72	283.51	32.82	-27.9	-29.4	15.1	0.00e+00	0	43	102	1048576	16	4296
2026-01-07 11:35:22.72	283.86	32.76	-28.0	-29.6	14.9	0.00e+00	0	43	102	1048576	16	4344
2026-01-07 11:35:23.73	284.22	32.69	-28.0	-29.8	14.8	7.00e-07	0	44	102	1048576	16	4407
2026-01-07 11:35:24.74	284.58	32.63	-28.0	-29.6	14.9	0.00e+00	0	43	102	1048576	16	4339
2026-01-07 11:35:25.74	284.93	32.56	-28.0	-29.7	14.9	0.00e+00	0	43	102	1048576	16	4372
2026-01-07 11:35:26.75	285.28	32.50	-28.1	-29.8	14.8	7.00e-07	0	43	102	1048576	16	4406
2026-01-07 11:35:27.76	285.64	32.43	-27.9	-29.5	15.0	7.00e-07	0	43	102	1048576	16	4327
2026-01-07 11:35:28.76	285.98	32.36	-27.8	-29.3	15.1	0.00e+00	0	44	102	1048576	16	4266
2026-01-07 11:35:29.77	286.33	32.29	-27.9	-29.5	15.0	7.00e-07	0	43	102	1048576	16	4317
2026-01-07 11:35:30.77	286.68	32.22	-28.0	-29.6	14.9	0.00e+00	0	43	102	1048576	16	4343
2026-01-07 11:35:31.78	287.02	32.15	-28.1	-29.9	14.8	0.00e+00	0	43	102	1048576	16	4448
2026-01-07 11:35:32.79	287.37	32.07	-28.2	-30.2	14.6	0.00e+00	0	43	102	1048576	16	4524
2026-01-07 11:35:33.80	287.71	32.00	-28.2	-30.2	14.6	0.00e+00	0	44	102	1048576	16	4517
2026-01-07 11:35:34.80	288.05	31.92	-28.1	-30.0	14.7	0.00e+00	0	43	102	1048576	16	4468
2026-01-07 11:35:35.81	288.39	31.85	-28.4	-30.7	14.4	7.00e-07	0	43	102	1048576	16	4661
2026-01-07 11:35:36.82	288.73	31.77	-28.4	-30.1	14.4	7.00e-07	0	43	102	1048576	17	4382
2026-01-07 11:35:37.83	289.07	31.69	-28.4	-30.1	14.4	0.00e+00	0	43	102	1048576	17	4392
2026-01-07 11:35:38.84	289.40	31.61	-28.2	-29.8	14.5	0.00e+00	0	43	102	1048576	17	4283
2026-01-07 11:35:39.84	289.73	31.53	-28.2	-29.6	14.6	0.00e+00	0	43	102	1048576	17	4250
2026-01-07 11:35:40.85	290.06	31.45	-28.3	-29.9	14.5	7.00e-07	0	43	102	1048576	17	4329
2026-01-07 11:35:41.85	290.39	31.37	-28.3	-29.8	14.6	0.00e+00	0	43	102	1048576	17	4300
2026-01-07 11:35:42.85	290.72	31.29	-28.3	-29.8	14.5	2.20e-06	0	43	102	1048576	17	4302
2026-01-07 11:35:43.86	291.04	31.21	-28.2	-29.7	14.6	7.00e-07	0	43	102	1048576	17	4272
2026-01-07 11:35:44.86	291.37	31.13	-27.9	-28.9	15.1	0.00e+00	0	43	102	1048576	17	4059
2026-01-07 11:35:45.87	291.69	31.04	-27.6	-28.6	15.5	0.00e+00	0	43	102	1048576	16	4082
2026-01-07 11:35:46.88	292.01	30.96	-27.5	-28.4	15.6	0.00e+00	0	43	102	1048576	16	4031
2026-01-07 11:35:47.87	292.33	30.87	-27.6	-28.8	15.4	0.00e+00	0	43	102	1048576	16	4123
2026-01-07 11:35:48.88	292.65	30.79	-27.6	-28.8	15.4	0.00e+00	0	43	102	1048576	16	4127
2026-01-07 11:35:49.88	292.96	30.70	-27.6	-28.8	15.4	0.00e+00	0	43	102	1048576	16	4123
2026-01-07 11:35:50.89	293.27	30.61	-27.7	-29.0	15.3	0.00e+00	0	43	102	1048576	16	4185
2026-01-07 11:35:51.90	293.59	30.52	-27.6	-28.7	15.4	0.00e+00	0	43	102	1048576	16	4101
2026-01-07 11:35:52.91	293.90	30.44	-27.6	-28.7	15.5	0.00e+00	0	43	102	1048576	16	4089
2026-01-07 11:35:53.92	294.21	30.35	-27.4	-28.4	15.6	0.00e+00	0	43	102	1048576	16	4009
2026-01-07 11:35:54.92	294.52	30.26	-27.5	-28.5	15.5	0.00e+00	0	43	102	1048576	16	4045
2026-01-07 11:35:55.92	294.82	30.17	-27.3	-28.1	15.8	0.00e+00	0	43	102	1048576	16	3939
2026-01-07 11:35:56.93	295.13	30.08	-27.1	-28.1	15.9	0.00e+00	0	43	102	1048576	15	4065
2026-01-07 11:35:57.94	295.43	29.98	-27.0	-28.0	15.9	0.00e+00	0	43	102	1048576	15	4028
2026-01-07 11:35:58.94	295.73	29.89	-27.2	-28.4	15.7	0.00e+00	0	43	102	1048576	15	4135
2026-01-07 11:35:59.95	296.03	29.80	-27.2	-28.3	15.8	0.00e+00	0	43	102	1048576	15	4117
2026-01-07 11:36:00.95	296.32	29.71	-27.5	-29.1	15.3	0.00e+00	0	43	102	1048576	15	4312
2026-01-07 11:36:01.96	296.62	29.61	-27.5	-29.0	15.4	0.00e+00	0	43	102	1048576	15	4295
2026-01-07 11:36:02.97	296.92	29.52	-27.7	-29.5	15.1	0.00e+00	0	43	102	1048576	15	4426
2026-01-07 11:36:03.97	297.21	29.42	-27.4	-28.9	15.5	0.00e+00	0	43	102	1048576	15	4269
2026-01-07 11:36:04.98	297.50	29.33	-27.2	-28.4	15.7	0.00e+00	0	43	102	1048576	15	4144
2026-01-07 11:36:05.98	297.79	29.23	-27.2	-28.3	15.7	0.00e+00	0	43	102	1048576	15	4116
2026-01-07 11:36:06.99	298.07	29.14	-27.4	-28.8	15.4	0.00e+00	0	43	102	1048576	15	4255
2026-01-07 11:36:07.99	298.36	29.04	-27.1	-28.2	15.8	0.00e+00	0	43	102	1048576	15	4076
2026-01-07 11:36:09.00	298.64	28.94	-27.0	-27.9	16.0	0.00e+00	0	43	102	1048576	15	4014
2026-01-07 11:36:09.99	298.92	28.85	-26.8	-27.5	16.1	0.00e+00	0	43	102	1048576	15	3914
2026-01-07 11:36:11.00	299.20	28.75	-26.8	-27.6	16.2	0.00e+00	0	43	102	1048576	15	3915
2026-01-07 11:36:12.00	299.48	28.65	-26.8	-28.0	16.1	0.00e+00	0	43	102	1048576	14	4142
2026-01-07 11:36:13.01	299.76	28.55	-27.1	-28.6	15.8	0.00e+00	0	43	102	1048576	14	4300
2026-01-07 11:36:14.02	300.03	28.45	-26.8	-28.0	16.2	0.00e+00	0	43	102	1048576	14	4138
2026-01-07 11:36:15.02	300.31	28.35	-26.7	-27.7	16.3	0.00e+00	0	43	102	1048576	14	4059
2026-01-07 11:36:16.03	300.58	28.25	-26.7	-27.7	16.3	0.00e+00	0	43	102	1048576	14	4058
2026-01-07 11:36:17.03	300.85	28.15	-26.7	-27.8	16.3	0.00e+00	0	43	102	1048576	14	4090
2026-01-07 11:36:18.04	301.12	28.05	-26.8	-28.0	16.2	0.00e+00	0	43	102	1048576	14	4131
2026-01-07 11:36:19.05	301.39	27.95	-26.5	-27.5	16.4	0.00e+00	0	43	102	1048576	14	3997
2026-01-07 11:36:20.05	301.65	27.85	-26.7	-27.8	16.3	0.00e+00	0	43	102	1048576	14	4086
2026-01-07 11:36:21.07	301.92	27.75	-26.8	-27.9	16.2	0.00e+00	0	44	102	1048576	14	4123
2026-01-07 11:36:22.07	302.18	27.65	-26.9	-28.3	16.0	0.00e+00	0	43	102	1048576	14	4207
2026-01-07 11:36:23.08	302.44	27.55	-26.7	-27.8	16.2	0.00e+00	0	43	102	1048576	14	4094
2026-01-07 11:36:24.08	302.70	27.45	-26.7	-27.7	16.3	0.00e+00	0	43	102	1048576	14	4070
2026-01-07 11:36:25.09	302.96	27.34	-26.7	-27.8	16.3	0.00e+00	0	43	102	1048576	14	4076
2026-01-07 11:36:26.09	303.21	27.24	-26.5	-27.3	16.5	0.00e+00	0	43	102	1048576	14	3967
2026-01-07 11:36:27.10	303.46	27.14	-26.4	-27.2	16.6	0.00e+00	0	43	102	1048576	14	3932
2026-01-07 11:36:28.11	303.72	27.04	-26.5	-27.2	16.5	0.00e+00	0	43	102	1048576	14	3942
2026-01-07 11:36:29.12	303.97	26.93	-26.4	-27.2	16.6	0.00e+00	0	43	102	1048576	14	3931
2026-01-07 11:36:30.13	304.22	26.83	-26.6	-27.5	16.4	0.00e+00	0	43	102	1048576	14	4015
2026-01-07 11:36:31.14	304.47	26.73	-26.6	-27.5	16.4	0.00e+00	0	44	102	1048576	14	4021
2026-01-07 11:36:32.15	304.72	26.62	-26.7	-27.8	16.2	0.00e+00	0	43	102	1048576	14	4087
2026-01-07 11:36:33.16	304.96	26.52	-26.8	-28.1	16.1	0.00e+00	0	43	102	1048576	14	4171
2026-01-07 11:36:34.16	305.20	26.42	-26.7	-27.8	16.2	0.00e+00	0	43	102	1048576	14	4079
2026-01-07 11:36:35.17	305.45	26.31	-26.6	-27.6	16.3	0.00e+00	0	43	102	1048576	14	4034
2026-01-07 11:36:36.17	305.68	26.21	-26.6	-27.6	16.3	0.00e+00	0	43	102	1048576	14	4039
2026-01-07 11:36:37.17	305.92	26.11	-26.7	-27.7	16.3	0.00e+00	0	43	102	1048576	14	4062
2026-01-07 11:36:38.18	306.16	26.00	-26.6	-27.6	16.4	0.00e+00	0	43	102	1048576	14	4024
2026-01-07 11:36:39.18	306.39	25.90	-26.7	-27.9	16.2	0.00e+00	0	43	102	1048576	14	4106
2026-01-07 11:36:40.18	306.62	25.79	-26.6	-27.6	16.3	0.00e+00	0	43	102	1048576	14	4037
2026-01-07 11:36:41.18	306.86	25.69	-26.6	-27.7	16.3	0.00e+00	0	43	102	1048576	14	4054
2026-01-07 11:36:42.18	307.09	25.59	-26.7	-27.8	16.2	0.00e+00	0	43	102	1048576	14	4076
2026-01-07 11:36:43.18	307.31	25.48	-26.7	-27.7	16.2	0.00e+00	0	43	102	1048576	14	4067
2026-01-07 11:36:44.19	307.54	25.38	-26.8	-28.0	16.1	0.00e+00	0	43	102	1048576	14	4152
2026-01-07 11:36:45.20	307.77	25.27	-26.9	-28.2	16.0	0.00e+00	0	43	102	1048576	14	4185
2026-01-07 11:36:46.20	307.99	25.17	-26.9	-28.2	16.0	0.00e+00	0	43	102	1048576	14	4200
2026-01-07 11:36:47.21	308.22	25.06	-26.9	-28.3	15.9	0.00e+00	0	43	102	1048576	14	4216
2026-01-07 11:36:48.22	308.44	24.96	-26.9	-28.4	15.9	0.00e+00	0	44	102	1048576	14	4245
2026-01-07 11:36:49.22	308.66	24.85	-27.0	-28.4	15.8	0.00e+00	0	43	102	1048576	14	4261
2026-01-07 11:36:50.23	308.88	24.75	-27.1	-28.6	15.7	0.00e+00	0	43	102	1048576	14	4308
2026-01-07 11:36:51.24	309.10	24.64	-26.9	-28.3	15.9	0.00e+00	0	43	102	1048576	14	4229
2026-01-07 11:36:52.24	309.31	24.54	-27.0	-28.5	15.8	0.00e+00	0	43	102	1048576	14	4271
2026-01-07 11:36:53.25	309.53	24.44	-27.0	-28.4	15.8	0.00e+00	0	43	102	1048576	14	4247
2026-01-07 11:36:54.26	309.74	24.33	-27.1	-28.6	15.7	0.00e+00	0	43	102	1048576	14	4309
2026-01-07 11:36:55.27	309.96	24.23	-27.0	-28.6	15.7	0.00e+00	0	43	102	1048576	14	4305
2026-01-07 11:36:56.28	310.17	24.12	-27.1	-28.7	15.7	0.00e+00	0	44	102	1048576	14	4341
2026-01-07 11:36:57.28	310.38	24.02	-27.0	-28.5	15.8	0.00e+00	0	43	102	1048576	14	4270
2026-01-07 11:36:58.28	310.58	23.91	-26.9	-28.3	15.9	0.00e+00	0	43	102	1048576	14	4232
2026-01-07 11:36:59.29	310.79	23.81	-26.9	-28.3	15.8	0.00e+00	0	43	102	1048576	14	4236
2026-01-07 11:37:00.30	311.00	23.70	-26.9	-28.3	15.8	0.00e+00	0	43	102	1048576	14	4232
2026-01-07 11:37:01.31	311.20	23.60	-26.8	-28.0	16.0	0.00e+00	0	43	102	1048576	14	4152
2026-01-07 11:37:02.31	311.40	23.49	-26.8	-28.0	16.0	0.00e+00	0	43	102	1048576	14	4145
2026-01-07 11:37:03.32	311.60	23.39	-26.8	-28.0	16.1	0.00e+00	0	43	102	1048576	14	4142
2026-01-07 11:37:04.33	311.81	23.28	-26.8	-28.1	16.0	0.00e+00	0	43	102	1048576	14	4163
2026-01-07 11:37:05.34	312.00	23.18	-26.8	-28.1	16.0	0.00e+00	0	43	102	1048576	14	4172
2026-01-07 11:37:06.34	312.20	23.08	-26.8	-28.1	16.0	0.00e+00	0	43	102	1048576	14	4175
2026-01-07 11:37:07.35	312.40	22.97	-26.8	-28.1	16.0	0.00e+00	0	44	102	1048576	14	4179
2026-01-07 11:37:08.36	312.59	22.87	-26.8	-28.1	16.0	0.00e+00	0	43	102	1048576	14	4181
2026-01-07 11:37:09.36	312.79	22.76	-26.9	-28.2	15.9	0.00e+00	0	43	102	1048576	14	4205
2026-01-07 11:37:10.37	312.98	22.66	-26.8	-28.1	16.0	0.00e+00	0	43	102	1048576	14	4157
2026-01-07 11:37:11.37	313.17	22.56	-26.8	-28.1	16.0	0.00e+00	0	43	102	1048576	14	4165
2026-01-07 11:37:12.38	313.36	22.45	-26.9	-28.2	15.9	0.00e+00	0	43	102	1048576	14	4190
2026-01-07 11:37:13.39	313.55	22.35	-26.9	-28.2	15.8	0.00e+00	0	43	102	1048576	14	4205
2026-01-07 11:37:14.39	313.74	22.25	-26.9	-28.2	15.9	0.00e+00	0	43	102	1048576	14	4207
2026-01-07 11:37:15.40	313.92	22.14	-26.9	-28.2	15.8	0.00e+00	0	43	102	1048576	14	4205
2026-01-07 11:37:16.41	314.11	22.04	-27.0	-28.4	15.7	0.00e+00	0	43	102	1048576	14	4256
2026-01-07 11:37:17.42	314.29	21.94	-27.0	-28.5	15.7	0.00e+00	0	43	102	1048576	14	4277
2026-01-07 11:37:18.42	314.47	21.83	-26.9	-28.4	15.8	0.00e+00	0	43	102	1048576	14	4245
2026-01-07 11:37:19.43	314.66	21.73	-27.0	-28.5	15.7	0.00e+00	0	43	102	1048576	14	4269
2026-01-07 11:37:20.44	314.84	21.63	-27.0	-28.5	15.7	0.00e+00	0	43	102	1048576	14	4272
2026-01-07 11:37:21.44	315.01	21.53	-27.1	-28.6	15.6	0.00e+00	0	43	102	1048576	14	4317
2026-01-07 11:37:22.45	315.19	21.42	-27.1	-28.7	15.6	0.00e+00	0	43	102	1048576	14	4341
2026-01-07 11:37:23.46	315.37	21.32	-27.1	-28.8	15.5	7.00e-07	0	43	102	1048576	14	4353
2026-01-07 11:37:24.46	315.55	21.22	-27.0	-28.6	15.6	0.00e+00	0	43	102	1048576	14	4319
2026-01-07 11:37:25.47	315.72	21.12	-27.0	-28.5	15.7	0.00e+00	0	44	102	1048576	14	4272
2026-01-07 11:37:26.48	315.90	21.02	-27.0	-28.5	15.7	0.00e+00	0	44	102	1048576	14	4290
2026-01-07 11:37:27.49	316.07	20.91	-27.0	-28.6	15.6	0.00e+00	0	43	102	1048576	14	4309
2026-01-07 11:37:28.49	316.24	20.81	-27.0	-28.6	15.6	0.00e+00	0	43	102	1048576	14	4317
2026-01-07 11:37:29.50	316.41	20.71	-27.0	-28.5	15.7	0.00e+00	0	43	102	1048576	14	4280
2026-01-07 11:37:30.50	316.58	20.61	-27.1	-28.7	15.6	0.00e+00	0	43	102	1048576	14	4340
2026-01-07 11:37:31.51	316.75	20.51	-27.0	-28.6	15.6	0.00e+00	0	43	102	1048576	14	4310
2026-01-07 11:37:32.52	316.91	20.41	-26.9	-28.4	15.7	0.00e+00	0	43	102	1048576	14	4254
2026-01-07 11:37:33.52	317.08	20.31	-27.0	-28.5	15.7	0.00e+00	0	43	102	1048576	14	4285
2026-01-07 11:37:34.53	317.24	20.21	-27.0	-28.5	15.7	7.00e-07	0	44	102	1048576	14	4279
2026-01-07 11:37:35.54	317.41	20.11	-26.9	-28.3	15.8	0.00e+00	0	43	102	1048576	14	4218
2026-01-07 11:37:36.54	317.57	20.01	-26.9	-28.2	15.8	0.00e+00	0	43	102	1048576	14	4204
2026-01-07 11:37:37.54	317.73	19.91	-27.0	-28.5	15.7	0.00e+00	0	44	102	1048576	14	4282
2026-01-07 11:37:38.55	317.89	19.81	-27.1	-28.8	15.5	0.00e+00	0	43	102	1048576	14	4367
2026-01-07 11:37:39.56	318.05	19.71	-27.2	-28.9	15.4	0.00e+00	0	43	102	1048576	14	4411
2026-01-07 11:37:40.57	318.21	19.61	-27.1	-28.8	15.5	0.00e+00	0	44	102	1048576	14	4375
2026-01-07 11:37:41.57	318.37	19.51	-27.2	-29.0	15.4	0.00e+00	0	43	102	1048576	14	4432
2026-01-07 11:37:42.58	318.53	19.41	-27.2	-29.0	15.4	0.00e+00	0	43	102	1048576	14	4415
2026-01-07 11:37:43.58	318.68	19.31	-27.2	-28.9	15.4	0.00e+00	0	43	102	1048576	14	4408
2026-01-07 11:37:44.59	318.84	19.21	-27.2	-28.9	15.4	0.00e+00	0	43	102	1048576	14	4405
2026-01-07 11:37:45.60	318.99	19.12	-27.3	-29.3	15.2	0.00e+00	0	43	102	1048576	14	4497
2026-01-07 11:37:46.61	319.14	19.02	-27.3	-29.1	15.3	0.00e+00	0	43	102	1048576	14	4461
2026-01-07 11:37:47.61	319.29	18.92	-27.0	-28.6	15.6	0.00e+00	0	43	102	1048576	14	4306
2026-01-07 11:37:48.62	319.45	18.82	-26.9	-28.3	15.7	0.00e+00	0	43	102	1048576	14	4218
2026-01-07 11:37:49.63	319.60	18.72	-26.9	-28.2	15.8	0.00e+00	0	44	102	1048576	14	4208
2026-01-07 11:37:50.63	319.74	18.63	-26.9	-28.3	15.8	0.00e+00	0	43	102	1048576	14	4219
2026-01-07 11:37:51.64	319.89	18.53	-26.9	-28.2	15.8	0.00e+00	0	43	102	1048576	14	4214
2026-01-07 11:37:52.65	320.04	18.43	-26.9	-28.3	15.8	0.00e+00	0	43	102	1048576	14	4227
2026-01-07 11:37:53.65	320.19	18.34	-27.0	-28.6	15.6	0.00e+00	0	43	102	1048576	14	4306
2026-01-07 11:37:54.66	320.33	18.24	-27.0	-28.5	15.6	0.00e+00	0	43	102	1048576	14	4291
2026-01-07 11:37:55.67	320.48	18.14	-26.9	-28.3	15.7	0.00e+00	0	43	102	1048576	14	4239
2026-01-07 11:37:56.67	320.62	18.05	-26.9	-28.2	15.8	0.00e+00	0	43	102	1048576	14	4217
2026-01-07 11:37:57.68	320.76	17.95	-26.9	-28.4	15.7	0.00e+00	0	43	102	1048576	14	4244
2026-01-07 11:37:58.69	320.91	17.85	-27.0	-28.5	15.6	0.00e+00	0	44	102	1048576	14	4282
2026-01-07 11:37:59.69	321.05	17.76	-26.9	-28.3	15.7	0.00e+00	0	43	102	1048576	14	4231
2026-01-07 11:38:00.70	321.19	17.66	-26.9	-28.4	15.7	0.00e+00	0	43	102	1048576	14	4242
2026-01-07 11:38:01.71	321.33	17.57	-27.0	-28.5	15.6	0.00e+00	0	43	102	1048576	14	4282
2026-01-07 11:38:02.72	321.47	17.47	-27.0	-28.5	15.6	0.00e+00	0	43	102	1048576	14	4289
2026-01-07 11:38:03.72	321.60	17.38	-27.0	-28.6	15.5	0.00e+00	0	43	102	1048576	14	4325
2026-01-07 11:38:04.73	321.74	17.28	-27.2	-29.0	15.3	0.00e+00	0	43	102	1048576	14	4442
2026-01-07 11:38:05.74	321.88	17.19	-27.3	-29.1	15.3	0.00e+00	0	43	102	1048576	14	4466
2026-01-07 11:38:06.74	322.01	17.10	-27.3	-29.3	15.2	0.00e+00	0	43	102	1048576	14	4502
2026-01-07 11:38:07.75	322.15	17.00	-27.3	-29.3	15.1	0.00e+00	0	43	102	1048576	14	4500
2026-01-07 11:38:08.76	322.28	16.91	-27.4	-29.4	15.1	0.00e+00	0	44	102	1048576	14	4551
2026-01-07 11:38:09.76	322.41	16.82	-27.4	-29.5	15.0	0.00e+00	0	43	102	1048576	14	4574
2026-01-07 11:38:10.76	322.54	16.72	-27.4	-29.5	15.0	0.00e+00	0	43	102	1048576	14	4569
2026-01-07 11:38:11.77	322.67	16.63	-27.5	-29.1	14.9	0.00e+00	0	43	102	1048576	15	4348
2026-01-07 11:38:12.78	322.80	16.54	-27.6	-29.5	14.7	0.00e+00	0	43	102	1048576	15	4451
2026-01-07 11:38:13.78	322.93	16.45	-27.6	-29.4	14.8	0.00e+00	0	43	102	1048576	15	4430
2026-01-07 11:38:14.79	323.06	16.35	-27.6	-29.4	14.7	0.00e+00	0	43	102	1048576	15	4449
2026-01-07 11:38:15.80	323.19	16.26	-27.6	-29.4	14.7	1.50e-06	0	43	102	1048576	15	4439
2026-01-07 11:38:16.80	323.32	16.17	-27.7	-29.7	14.6	0.00e+00	0	44	102	1048576	15	4520
2026-01-07 11:38:17.81	323.45	16.08	-27.8	-29.8	14.5	0.00e+00	0	43	102	1048576	15	4549
2026-01-07 11:38:18.82	323.57	15.99	-27.8	-29.8	14.5	7.00e-07	0	44	102	1048576	15	4544
2026-01-07 11:38:19.83	323.70	15.89	-27.8	-29.9	14.5	0.00e+00	0	43	102	1048576	15	4579
2026-01-07 11:38:20.83	323.82	15.80	-27.8	-29.9	14.5	7.00e-07	0	43	102	1048576	15	4578
2026-01-07 11:38:21.84	323.94	15.71	-27.7	-29.7	14.6	0.00e+00	0	43	102	1048576	15	4511
2026-01-07 11:38:22.85	324.07	15.62	-27.8	-29.8	14.5	0.00e+00	0	43	102	1048576	15	4566
2026-01-07 11:38:23.86	324.19	15.53	-27.8	-29.9	14.4	7.00e-07	0	43	102	1048576	15	4576
2026-01-07 11:38:24.86	324.31	15.44	-27.8	-29.9	14.4	2.20e-06	0	43	102	1048576	15	4577
2026-01-07 11:38:25.87	324.43	15.35	-27.9	-30.2	14.3	1.50e-06	0	43	102	1048576	15	4684
2026-01-07 11:38:26.88	324.55	15.26	-28.0	-30.3	14.2	2.20e-06	0	43	102	1048576	15	4700
2026-01-07 11:38:27.88	324.67	15.17	-28.3	-30.5	14.0	3.80e-06	0	43	102	1048576	16	4635
2026-01-07 11:38:28.89	324.79	15.08	-28.3	-30.6	13.9	1.50e-06	0	43	102	1048576	16	4670
2026-01-07 11:38:29.90	324.91	14.99	-28.4	-30.8	13.8	6.80e-06	0	43	102	1048576	16	4746
2026-01-07 11:38:30.91	325.03	14.90	-28.4	-30.7	13.8	5.30e-06	0	43	102	1048576	16	4705
2026-01-07 11:38:31.91	325.14	14.82	-28.3	-30.6	13.9	3.80e-06	0	43	102	1048576	16	4667
2026-01-07 11:38:32.92	325.26	14.73	-28.4	-30.8	13.7	6.10e-06	0	43	102	1048576	16	4736
2026-01-07 11:38:33.93	325.38	14.64	-28.3	-30.4	14.0	7.00e-07	0	43	102	1048576	16	4629
2026-01-07 11:38:34.93	325.49	14.55	-28.2	-30.2	14.1	3.00e-06	0	43	102	1048576	16	4561
2026-01-07 11:38:35.93	325.60	14.46	-28.1	-30.1	14.1	2.20e-06	0	43	102	1048576	16	4532
2026-01-07 11:38:36.94	325.72	14.38	-28.1	-30.0	14.2	3.00e-06	0	43	102	1048576	16	4480
2026-01-07 11:38:37.94	325.83	14.29	-28.0	-29.8	14.3	7.00e-07	0	43	102	1048576	16	4428
2026-01-07 11:38:38.94	325.94	14.20	-28.0	-29.9	14.3	7.00e-07	0	43	102	1048576	16	4471
2026-01-07 11:38:39.94	326.05	14.12	-28.0	-29.9	14.3	0.00e+00	0	43	102	1048576	16	4451
2026-01-07 11:38:40.95	326.16	14.03	-28.1	-30.0	14.2	0.00e+00	0	43	102	1048576	16	4484
2026-01-07 11:38:41.96	326.27	13.94	-28.1	-30.1	14.1	1.50e-06	0	43	102	1048576	16	4522
2026-01-07 11:38:42.97	326.38	13.86	-28.2	-30.3	14.0	2.20e-06	0	43	102	1048576	16	4583
2026-01-07 11:38:43.97	326.49	13.77	-28.3	-30.6	13.8	6.80e-06	0	43	102	1048576	16	4666
2026-01-07 11:38:44.98	326.60	13.69	-28.3	-30.7	13.8	3.00e-06	0	43	102	1048576	16	4699
2026-01-07 11:38:45.98	326.71	13.60	-28.4	-30.7	13.7	6.10e-06	0	43	102	1048576	16	4711
2026-01-07 11:38:46.98	326.82	13.52	-28.4	-30.7	13.7	3.80e-06	0	43	102	1048576	16	4721
2026-01-07 11:38:47.99	326.92	13.43	-28.4	-30.8	13.7	4.50e-06	0	43	102	1048576	16	4729
2026-01-07 11:38:48.99	327.03	13.35	-28.5	-30.5	13.5	7.60e-06	0	44	102	1048576	17	4557
2026-01-07 11:38:50.00	327.13	13.26	-28.4	-30.3	13.6	8.30e-06	0	43	102	1048576	17	4495
2026-01-07 11:38:51.01	327.24	13.18	-28.4	-30.3	13.7	7.60e-06	0	43	102	1048576	17	4483
2026-01-07 11:38:52.02	327.34	13.09	-28.5	-30.5	13.6	7.60e-06	0	44	102	1048576	17	4524
2026-01-07 11:38:53.03	327.45	13.01	-28.4	-30.2	13.7	6.10e-06	0	43	102	1048576	17	4447
2026-01-07 11:38:54.04	327.55	12.92	-28.3	-30.1	13.8	4.50e-06	0	43	102	1048576	17	4413
2026-01-07 11:38:55.03	327.65	12.84	-28.4	-30.2	13.7	3.80e-06	0	43	102	1048576	17	4449
2026-01-07 11:38:56.04	327.76	12.76	-28.3	-30.0	13.8	4.50e-06	0	43	102	1048576	17	4394
2026-01-07 11:38:57.05	327.86	12.67	-28.5	-30.6	13.5	9.10e-06	0	43	102	1048576	17	4566
2026-01-07 11:38:58.05	327.96	12.59	-28.3	-30.2	13.7	1.14e-05	0	43	102	1048576	17	4447
2026-01-07 11:38:59.05	328.06	12.51	-28.2	-29.9	13.8	3.00e-06	0	43	102	1048576	17	4369
2026-01-07 11:39:00.06	328.16	12.43	-28.2	-29.8	13.9	1.50e-06	0	43	102	1048576	17	4353
2026-01-07 11:39:01.07	328.26	12.34	-28.2	-29.9	13.8	4.50e-06	0	43	102	1048576	17	4363
2026-01-07 11:39:02.08	328.36	12.26	-28.2	-30.0	13.8	1.50e-06	0	44	102	1048576	17	4383
2026-01-07 11:39:03.08	328.46	12.18	-28.3	-30.0	13.8	6.80e-06	0	43	102	1048576	17	4392
2026-01-07 11:39:04.09	328.55	12.10	-28.4	-30.3	13.6	1.06e-05	0	43	102	1048576	17	4492
2026-01-07 11:39:05.10	328.65	12.01	-28.2	-30.0	13.8	4.50e-06	0	43	102	1048576	17	4382
2026-01-07 11:39:06.10	328.75	11.93	-28.2	-29.8	13.9	4.50e-06	0	44	102	1048576	17	4337
2026-01-07 11:39:07.11	328.84	11.85	-28.2	-29.8	13.9	1.50e-06	0	43	102	1048576	17	4339
2026-01-07 11:39:08.12	328.94	11.77	-28.2	-29.9	13.8	3.80e-06	0	43	102	1048576	17	4380
2026-01-07 11:39:09.13	329.04	11.69	-28.3	-30.1	13.7	9.10e-06	0	44	102	1048576	17	4430
2026-01-07 11:39:10.14	329.13	11.61	-28.3	-30.1	13.7	4.50e-06	0	43	102	1048576	17	4410
2026-01-07 11:39:11.15	329.23	11.53	-28.3	-30.2	13.6	4.50e-06	0	43	102	1048576	17	4453
2026-01-07 11:39:12.15	329.32	11.45	-28.4	-30.3	13.5	9.10e-06	0	43	102	1048576	17	4498
2026-01-07 11:39:13.16	329.41	11.37	-28.4	-30.2	13.6	7.60e-06	0	43	102	1048576	17	4461
2026-01-07 11:39:14.16	329.51	11.29	-28.4	-30.3	13.5	9.90e-06	0	44	102	1048576	17	4490
2026-01-07 11:39:15.17	329.60	11.21	-28.4	-30.3	13.5	1.29e-05	0	44	102	1048576	17	4501
2026-01-07 11:39:16.18	329.69	11.13	-28.4	-30.3	13.5	1.06e-05	0	43	102	1048576	17	4488
2026-01-07 11:39:17.18	329.78	11.05	-28.4	-30.4	13.5	1.14e-05	0	44	102	1048576	17	4517
2026-01-07 11:39:18.18	329.87	10.97	-28.3	-30.2	13.6	9.90e-06	0	43	102	1048576	17	4461
2026-01-07 11:39:19.19	329.96	10.89	-28.5	-30.5	13.4	1.14e-05	0	44	102	1048576	17	4550
2026-01-07 11:39:20.20	330.05	10.81	-28.3	-30.2	13.6	8.30e-06	0	43	102	1048576	17	4450
2026-01-07 11:39:21.21	330.14	10.74	-28.3	-30.2	13.6	2.20e-06	0	43	102	1048576	17	4455
2026-01-07 11:39:22.21	330.23	10.66	-28.3	-30.1	13.6	1.14e-05	0	43	102	1048576	17	4436
2026-01-07 11:39:23.22	330.32	10.58	-28.3	-30.2	13.6	1.29e-05	0	44	102	1048576	17	4448
2026-01-07 11:39:24.23	330.41	10.50	-28.4	-30.3	13.5	7.60e-06	0	43	102	1048576	17	4477
2026-01-07 11:39:25.23	330.50	10.42	-28.4	-30.3	13.5	7.60e-06	0	43	102	1048576	17	4483
2026-01-07 11:39:26.24	330.58	10.35	-28.5	-30.5	13.4	1.29e-05	0	43	102	1048576	17	4560
2026-01-07 11:39:27.24	330.67	10.27	-28.4	-30.4	13.5	9.10e-06	0	43	102	1048576	17	4510
2026-01-07 11:39:28.25	330.76	10.19	-28.4	-30.5	13.4	1.14e-05	0	43	102	1048576	17	4552
2026-01-07 11:39:29.25	330.84	10.12	-28.5	-30.5	13.4	1.83e-05	0	44	102	1048576	17	4562
2026-01-07 11:39:30.26	330.93	10.04	-28.4	-30.3	13.5	1.14e-05	0	44	102	1048576	17	4495
2026-01-07 11:39:31.26	331.01	9.96	-28.4	-30.3	13.5	6.10e-06	0	44	102	1048576	17	4500
2026-01-07 11:39:32.27	331.10	9.89	-28.4	-30.3	13.4	2.21e-05	0	43	102	1048576	17	4509
2026-01-07 11:39:33.27	331.18	9.81	-28.4	-30.4	13.4	1.37e-05	0	43	102	1048576	17	4518
2026-01-07 11:39:34.27	331.27	9.73	-28.3	-30.2	13.5	1.67e-05	0	44	102	1048576	17	4471
2026-01-07 11:39:35.27	331.35	9.66	-28.4	-30.3	13.4	6.10e-06	0	43	102	1048576	17	4499
2026-01-07 11:39:36.27	331.43	9.58	-28.4	-30.3	13.4	1.52e-05	0	43	102	1048576	17	4503
2026-01-07 11:39:37.28	331.52	9.51	-28.3	-30.2	13.5	1.22e-05	0	43	102	1048576	17	4469
2026-01-07 11:39:38.29	331.60	9.43	-28.2	-30.0	13.7	9.10e-06	0	43	102	1048576	17	4392
2026-01-07 11:39:39.29	331.68	9.36	-28.3	-30.1	13.5	1.52e-05	0	43	102	1048576	17	4448
2026-01-07 11:39:40.30	331.76	9.28	-28.4	-30.3	13.5	1.06e-05	0	43	102	1048576	17	4487
2026-01-07 11:39:41.30	331.84	9.21	-28.5	-30.5	13.3	1.22e-05	0	44	102	1048576	17	4560
2026-01-07 11:39:42.30	331.92	9.13	-28.6	-30.9	13.0	3.66e-05	0	43	102	1048576	17	4689
2026-01-07 11:39:43.30	332.00	9.06	-28.6	-30.8	13.0	3.12e-05	0	44	102	1048576	17	4664
2026-01-07 11:39:44.31	332.08	8.99	-28.5	-30.7	13.2	2.59e-05	0	44	102	1048576	17	4610
2026-01-07 11:39:45.32	332.16	8.91	-28.6	-30.8	13.1	3.05e-05	0	44	102	1048576	17	4651
2026-01-07 11:39:46.32	332.24	8.84	-28.6	-31.0	13.0	3.12e-05	0	44	102	1048576	17	4715
2026-01-07 11:39:47.33	332.32	8.76	-28.7	-31.1	12.9	4.04e-05	0	43	102	1048576	17	4752
2026-01-07 11:39:48.34	332.40	8.69	-28.8	-31.3	12.8	6.63e-05	0	43	102	1048576	17	4821
2026-01-07 11:39:49.34	332.48	8.62	-28.7	-31.2	12.8	6.79e-05	0	43	102	1048576	17	4793
2026-01-07 11:39:50.35	332.56	8.54	-28.8	-31.4	12.6	8.46e-05	0	43	102	1048576	17	4869
2026-01-07 11:39:51.36	332.63	8.47	-28.9	-31.6	12.5	1.03e-04	0	43	102	1048576	17	4937
2026-01-07 11:39:52.37	332.71	8.40	-29.0	-31.9	12.4	1.65e-04	0	43	102	1048576	17	5021
2026-01-07 11:39:53.38	332.79	8.33	-28.9	-31.8	12.4	1.46e-04	0	43	102	1048576	17	4999
2026-01-07 11:39:54.38	332.86	8.25	-29.2	-32.0	12.0	2.43e-04	0	43	102	1048576	18	4948
2026-01-07 11:39:55.39	332.94	8.18	-29.3	-32.3	11.8	5.56e-04	0	43	102	1048576	18	5064
2026-01-07 11:39:56.40	333.02	8.11	-29.2	-31.8	12.0	3.23e-04	0	43	102	1048576	18	4901
2026-01-07 11:39:57.40	333.09	8.04	-28.9	-31.2	12.5	1.65e-04	0	43	102	1048576	18	4672
2026-01-07 11:39:58.40	333.16	7.97	-28.9	-31.1	12.5	1.33e-04	0	44	102	1048576	18	4649
2026-01-07 11:39:59.41	333.24	7.89	-28.9	-31.3	12.4	1.08e-04	0	43	102	1048576	18	4698
2026-01-07 11:40:00.41	333.31	7.82	-29.0	-31.4	12.3	1.41e-04	0	43	102	1048576	18	4751
2026-01-07 11:40:01.42	333.39	7.75	-28.8	-31.0	12.5	1.33e-04	0	43	102	1048576	18	4631
2026-01-07 11:40:02.42	333.46	7.68	-29.0	-31.3	12.3	1.31e-04	0	43	102	1048576	18	4725
2026-01-07 11:40:03.43	333.53	7.61	-29.0	-31.4	12.3	1.40e-04	0	44	102	1048576	18	4742
2026-01-07 11:40:04.43	333.61	7.54	-29.0	-31.4	12.3	1.63e-04	0	43	102	1048576	18	4737
2026-01-07 11:40:05.44	333.68	7.47	-29.0	-31.3	12.3	1.46e-04	0	43	102	1048576	18	4730
2026-01-07 11:40:06.44	333.75	7.40	-29.0	-31.5	12.2	2.08e-04	0	44	102	1048576	18	4790
2026-01-07 11:40:07.45	333.82	7.33	-29.0	-31.5	12.2	2.12e-04	0	43	102	1048576	18	4782
2026-01-07 11:40:08.46	333.90	7.26	-29.2	-32.0	11.9	3.11e-04	0	44	102	1048576	18	4976
2026-01-07 11:40:09.47	333.97	7.19	-29.1	-31.8	12.0	3.36e-04	0	43	102	1048576	18	4895
2026-01-07 11:40:10.47	334.04	7.12	-29.1	-31.7	12.1	2.92e-04	0	43	102	1048576	18	4840
2026-01-07 11:40:11.48	334.11	7.05	-33.0	-44.6	3.9	5.41e-01	0	43	104	1048576	26	13645
2026-01-07 11:40:12.49	334.18	6.98	-33.3	-45.4	3.8	1.49e+00	0	43	104	1048576	26	14528
2026-01-07 11:40:13.50	334.25	6.91	-33.6	-45.5	3.8	1.49e+00	0	43	104	1048576	27	14188

#Closed at: 2026-01-07 11:40:14
#Recorded file [1 MB]: D:/data/31010_260107_143046.dat