passes_logs/2026/01/07/R2M6_AANII_01/R2M6_AANII_01__20260107_224641_NOAA_20_JPSS-1_rec.log

#Pass ID: 20260107_224641_NOAA 20 (JPSS-1)
#Satellite: NOAA 20 (JPSS-1)
#Configuration: NOAA 20
#almurnet v.1.7.20240730
#Start time: 2026-01-07 22:46:41

#Version: 2.2.20231116
#Station: R2M6_AANII_01
#Location: 30.233357 lon 59.946436 lat
#TLE: 1 43013U 17073A   26006.30790171  .00000126  00000+0  80695-4 0  9991
#TLE: 2 43013  98.7629 307.3394 0001808  51.8724 308.2615 14.19533762421505

#Time	Az	El	Level	Level2	SNR	BER	BlckErr	Temp	State	Recorded	gain1	gain2
2026-01-07 22:46:41.41	29.47	6.99	-31.1	-36.8	5.2	1.20e+00	0	41	0	0	22	6953
2026-01-07 22:46:42.41	29.56	7.06	-31.6	-38.9	4.7	1.29e+00	0	41	104	0	23	8351
2026-01-07 22:46:43.42	29.66	7.12	-31.6	-38.6	6.8	2.07e-01	0	41	0	0	23	8099
2026-01-07 22:46:44.42	29.75	7.18	-31.6	-38.4	7.0	1.42e-01	0	41	0	1048576	23	7952
2026-01-07 22:46:45.43	29.84	7.25	-31.6	-38.5	6.9	1.86e-01	0	41	0	3145728	23	7973
2026-01-07 22:46:46.43	29.94	7.31	-31.4	-37.7	7.5	1.30e-01	0	41	0	5242880	23	7433
2026-01-07 22:46:47.44	30.03	7.38	-31.4	-38.2	7.6	8.78e-02	0	41	0	7340032	22	7828
2026-01-07 22:46:48.44	30.12	7.44	-31.4	-38.1	7.6	1.12e-01	0	41	0	9437184	22	7791
2026-01-07 22:46:49.44	30.22	7.50	-31.3	-37.5	8.1	7.32e-02	0	41	0	10485760	22	7349
2026-01-07 22:46:50.44	30.31	7.57	-31.1	-36.7	8.8	4.56e-02	0	41	0	12582912	22	6865
2026-01-07 22:46:51.45	30.41	7.63	-30.9	-36.1	9.2	2.17e-02	0	41	0	14680064	22	6482
2026-01-07 22:46:52.46	30.50	7.70	-29.9	-35.3	9.4	1.82e-02	0	42	0	16777216	21	6730
2026-01-07 22:46:53.46	30.60	7.76	-30.9	-36.3	9.5	1.37e-02	0	41	0	18874368	21	6733
2026-01-07 22:46:54.47	30.70	7.83	-30.8	-35.9	9.8	1.34e-02	0	41	0	19922944	21	6494
2026-01-07 22:46:55.48	30.79	7.89	-30.6	-35.2	10.4	6.31e-03	0	41	0	22020096	21	6095
2026-01-07 22:46:56.48	30.89	7.96	-30.4	-34.9	10.9	3.47e-03	0	42	102	23068672	20	6054
2026-01-07 22:46:57.48	30.99	8.02	-30.4	-35.1	10.9	1.88e-03	0	42	102	23068672	20	6146
2026-01-07 22:46:58.49	31.09	8.09	-30.5	-34.8	10.6	2.91e-03	0	42	102	23068672	21	5941
2026-01-07 22:46:59.49	31.19	8.15	-30.3	-34.8	11.1	2.31e-03	0	42	102	23068672	20	6017
2026-01-07 22:47:00.50	31.29	8.22	-30.4	-34.8	11.0	1.40e-03	0	42	102	23068672	20	6019
2026-01-07 22:47:01.51	31.39	8.28	-30.4	-34.9	11.0	3.11e-03	0	42	102	23068672	20	6080
2026-01-07 22:47:02.51	31.48	8.35	-30.4	-35.0	11.0	1.83e-03	0	42	102	23068672	20	6119
2026-01-07 22:47:03.52	31.59	8.42	-30.5	-35.3	10.8	1.90e-03	0	42	102	23068672	20	6233
2026-01-07 22:47:04.52	31.69	8.48	-30.7	-35.4	10.3	5.21e-03	0	42	102	23068672	21	6183
2026-01-07 22:47:05.53	31.79	8.55	-30.7	-35.4	10.3	7.19e-03	0	42	102	23068672	21	6175
2026-01-07 22:47:06.54	31.89	8.61	-30.6	-35.0	10.6	3.78e-03	0	42	102	23068672	21	6008
2026-01-07 22:47:07.55	31.99	8.68	-30.5	-34.7	10.8	3.16e-03	0	42	102	23068672	21	5869
2026-01-07 22:47:08.55	32.09	8.75	-30.4	-34.9	11.1	2.45e-03	0	42	102	23068672	20	6032
2026-01-07 22:47:09.56	32.20	8.81	-30.4	-34.8	11.2	1.51e-03	0	42	102	23068672	20	5983
2026-01-07 22:47:10.56	32.30	8.88	-30.5	-35.1	11.0	1.52e-03	0	42	102	23068672	20	6146
2026-01-07 22:47:11.58	32.41	8.95	-30.6	-35.1	10.6	4.25e-03	0	42	102	23068672	21	6044
2026-01-07 22:47:12.58	32.51	9.01	-30.6	-35.0	10.7	3.98e-03	0	42	102	23068672	21	5963
2026-01-07 22:47:13.59	32.62	9.08	-30.4	-34.8	11.2	1.94e-03	0	42	102	23068672	20	5993
2026-01-07 22:47:14.60	32.72	9.15	-30.4	-35.0	11.1	2.64e-03	0	42	102	23068672	20	6092
2026-01-07 22:47:15.61	32.83	9.21	-30.6	-35.1	10.6	3.05e-03	0	42	102	23068672	21	6028
2026-01-07 22:47:16.61	32.93	9.28	-30.8	-35.6	10.3	4.55e-03	0	42	102	23068672	21	6261
2026-01-07 22:47:17.62	33.04	9.35	-30.8	-35.6	10.3	6.82e-03	0	42	102	23068672	21	6267
2026-01-07 22:47:18.62	33.15	9.42	-30.7	-35.5	10.3	5.18e-03	0	42	102	23068672	21	6229
2026-01-07 22:47:19.63	33.26	9.48	-30.8	-35.8	10.1	6.15e-03	0	42	102	23068672	21	6373
2026-01-07 22:47:20.63	33.36	9.55	-30.8	-35.7	10.1	7.59e-03	0	42	102	23068672	21	6353
2026-01-07 22:47:21.64	33.47	9.62	-30.7	-35.4	10.4	5.10e-03	0	42	102	23068672	21	6186
2026-01-07 22:47:22.65	33.58	9.69	-30.7	-35.2	10.6	4.49e-03	0	42	102	23068672	21	6059
2026-01-07 22:47:23.66	33.69	9.75	-30.6	-35.1	10.7	4.32e-03	0	42	102	23068672	21	6014
2026-01-07 22:47:24.66	33.80	9.82	-30.7	-35.4	10.5	3.66e-03	0	42	102	23068672	21	6169
2026-01-07 22:47:25.67	33.91	9.89	-30.7	-35.3	10.5	5.67e-03	0	42	102	23068672	21	6127
2026-01-07 22:47:26.68	34.02	9.96	-30.5	-34.7	11.1	3.49e-03	0	42	102	23068672	21	5794
2026-01-07 22:47:27.68	34.14	10.03	-30.3	-34.0	11.5	9.13e-04	0	42	102	23068672	21	5496
2026-01-07 22:47:28.68	34.25	10.09	-30.2	-34.2	11.8	9.27e-04	0	42	102	23068672	20	5683
2026-01-07 22:47:29.69	34.36	10.16	-30.2	-34.3	11.8	8.98e-04	0	42	102	23068672	20	5717
2026-01-07 22:47:30.69	34.47	10.23	-30.2	-34.3	11.7	5.57e-04	0	43	102	23068672	20	5731
2026-01-07 22:47:31.70	34.59	10.30	-30.2	-34.2	11.9	1.06e-03	0	42	102	23068672	20	5680
2026-01-07 22:47:32.71	34.70	10.37	-30.2	-34.2	11.8	9.86e-04	0	43	102	23068672	20	5676
2026-01-07 22:47:33.72	34.82	10.44	-30.2	-34.0	11.9	4.45e-04	0	42	102	23068672	20	5587
2026-01-07 22:47:34.72	34.93	10.51	-30.2	-34.0	11.9	3.42e-04	0	43	102	23068672	20	5617
2026-01-07 22:47:35.72	35.05	10.57	-30.1	-33.9	12.1	7.91e-04	0	43	102	23068672	20	5539
2026-01-07 22:47:36.73	35.16	10.64	-30.1	-33.9	12.0	2.55e-04	0	42	102	23068672	20	5544
2026-01-07 22:47:37.73	35.28	10.71	-30.1	-33.8	12.1	2.97e-04	0	42	102	23068672	20	5495
2026-01-07 22:47:38.74	35.40	10.78	-30.1	-33.9	12.0	5.84e-04	0	43	102	23068672	20	5571
2026-01-07 22:47:39.74	35.51	10.85	-30.1	-33.7	12.1	3.32e-04	0	43	102	23068672	20	5485
2026-01-07 22:47:40.75	35.63	10.92	-30.0	-33.4	12.4	5.41e-04	0	43	102	23068672	20	5319
2026-01-07 22:47:41.76	35.75	10.99	-29.9	-33.7	12.7	9.00e-05	0	43	102	23068672	19	5541
2026-01-07 22:47:42.76	35.87	11.06	-30.0	-33.9	12.5	1.02e-04	0	42	102	23068672	19	5628
2026-01-07 22:47:43.77	35.99	11.13	-29.8	-33.0	12.7	3.18e-04	0	43	102	23068672	20	5166
2026-01-07 22:47:44.77	36.11	11.20	-29.9	-33.1	12.7	7.93e-05	0	43	102	23068672	20	5210
2026-01-07 22:47:45.78	36.23	11.27	-29.8	-33.0	12.7	6.86e-05	0	43	102	23068672	20	5181
2026-01-07 22:47:46.78	36.35	11.34	-29.8	-32.9	12.8	1.97e-04	0	42	102	23068672	20	5132
2026-01-07 22:47:47.79	36.48	11.41	-29.9	-33.1	12.7	7.01e-05	0	43	102	23068672	20	5215
2026-01-07 22:47:48.79	36.60	11.48	-29.8	-32.9	12.8	7.09e-05	0	43	102	23068672	20	5128
2026-01-07 22:47:49.79	36.72	11.55	-29.8	-33.2	13.0	1.91e-04	0	43	102	23068672	19	5369
2026-01-07 22:47:50.80	36.85	11.62	-29.8	-33.2	13.0	1.65e-04	0	43	102	23068672	19	5369
2026-01-07 22:47:51.80	36.97	11.69	-29.9	-33.7	12.6	6.79e-05	0	43	102	23068672	19	5568
2026-01-07 22:47:52.81	37.09	11.76	-29.9	-33.6	12.8	8.46e-05	0	42	102	23068672	19	5498
2026-01-07 22:47:53.82	37.22	11.83	-29.9	-33.7	12.7	2.48e-04	0	43	102	23068672	19	5532
2026-01-07 22:47:54.83	37.35	11.90	-29.9	-33.7	12.7	6.33e-05	0	43	102	23068672	19	5550
2026-01-07 22:47:55.84	37.48	11.97	-30.0	-33.8	12.7	8.77e-05	0	43	102	23068672	19	5583
2026-01-07 22:47:56.85	37.60	12.04	-30.0	-33.4	12.5	2.65e-04	0	43	102	23068672	20	5336
2026-01-07 22:47:57.85	37.73	12.11	-30.1	-33.8	12.3	1.77e-04	0	43	102	23068672	20	5475
2026-01-07 22:47:58.85	37.86	12.18	-30.0	-33.5	12.5	1.76e-04	0	43	102	23068672	20	5350
2026-01-07 22:47:59.85	37.99	12.25	-29.9	-33.1	12.7	8.39e-05	0	43	102	23068672	20	5223
2026-01-07 22:48:00.85	38.12	12.33	-29.9	-33.0	12.8	7.70e-05	0	43	102	23068672	20	5175
2026-01-07 22:48:01.86	38.25	12.40	-29.9	-33.0	12.8	6.63e-05	0	43	102	23068672	20	5172
2026-01-07 22:48:02.86	38.38	12.47	-29.9	-33.2	12.7	4.42e-05	0	43	102	23068672	20	5248
2026-01-07 22:48:03.87	38.51	12.54	-29.9	-33.1	12.8	7.09e-05	0	43	102	23068672	20	5192
2026-01-07 22:48:04.87	38.64	12.61	-30.0	-33.5	12.5	8.31e-05	0	43	102	23068672	20	5358
2026-01-07 22:48:05.88	38.77	12.68	-29.9	-33.2	12.7	8.85e-05	0	43	102	23068672	20	5233
2026-01-07 22:48:06.89	38.91	12.75	-29.8	-32.8	13.0	7.78e-05	0	43	102	23068672	20	5076
2026-01-07 22:48:07.89	39.04	12.83	-29.7	-32.6	13.2	2.89e-05	0	43	102	23068672	20	4998
2026-01-07 22:48:08.90	39.18	12.90	-29.7	-32.5	13.2	1.98e-05	0	43	102	23068672	20	4959
2026-01-07 22:48:09.90	39.31	12.97	-29.6	-32.4	13.3	2.28e-05	0	43	102	23068672	20	4918
2026-01-07 22:48:10.91	39.45	13.04	-29.7	-32.5	13.3	2.13e-05	0	43	102	23068672	20	4955
2026-01-07 22:48:11.92	39.58	13.11	-29.7	-32.4	13.3	2.21e-05	0	43	102	23068672	20	4924
2026-01-07 22:48:12.93	39.72	13.19	-29.6	-32.4	13.3	1.98e-05	0	43	102	23068672	20	4922
2026-01-07 22:48:13.93	39.86	13.26	-29.7	-32.5	13.2	1.60e-05	0	43	102	23068672	20	4993
2026-01-07 22:48:14.93	40.00	13.33	-29.7	-32.4	13.3	1.90e-05	0	43	102	23068672	20	4945
2026-01-07 22:48:15.94	40.14	13.40	-29.8	-32.7	13.1	1.90e-05	0	43	102	23068672	20	5043
2026-01-07 22:48:16.95	40.28	13.47	-29.9	-33.0	12.9	3.89e-05	0	43	102	23068672	20	5157
2026-01-07 22:48:17.95	40.42	13.55	-29.9	-32.9	13.0	4.80e-05	0	43	102	23068672	20	5133
2026-01-07 22:48:18.96	40.56	13.62	-29.9	-33.1	12.9	4.11e-05	0	43	102	23068672	20	5177
2026-01-07 22:48:19.97	40.70	13.69	-29.9	-33.2	12.8	5.11e-05	0	43	102	23068672	20	5222
2026-01-07 22:48:20.98	40.84	13.76	-29.9	-32.9	13.0	5.03e-05	0	43	102	23068672	20	5129
2026-01-07 22:48:21.98	40.99	13.84	-29.7	-32.6	13.2	2.44e-05	0	43	102	23068672	20	4999
2026-01-07 22:48:22.99	41.13	13.91	-29.7	-32.5	13.2	3.12e-05	0	43	102	23068672	20	4968
2026-01-07 22:48:24.00	41.28	13.98	-29.8	-32.7	13.2	1.17e-04	0	43	102	23068672	20	5023
2026-01-07 22:48:25.00	41.42	14.05	-29.9	-33.1	12.9	3.35e-05	0	43	102	23068672	20	5186
2026-01-07 22:48:26.01	41.57	14.13	-29.7	-32.6	13.2	1.64e-04	0	43	102	23068672	20	4985
2026-01-07 22:48:27.01	41.71	14.20	-29.7	-32.9	13.5	1.07e-04	0	43	102	23068672	19	5189
2026-01-07 22:48:28.02	41.86	14.27	-29.8	-33.3	13.2	2.36e-05	0	43	102	23068672	19	5345
2026-01-07 22:48:29.03	42.01	14.35	-29.7	-32.9	13.4	1.67e-05	0	43	102	23068672	19	5207
2026-01-07 22:48:30.03	42.16	14.42	-29.7	-33.0	13.4	1.44e-05	0	43	102	23068672	19	5247
2026-01-07 22:48:31.04	42.31	14.49	-29.7	-32.9	13.4	1.14e-05	0	43	102	23068672	19	5198
2026-01-07 22:48:32.05	42.46	14.56	-29.7	-33.0	13.4	1.29e-05	0	43	102	23068672	19	5234
2026-01-07 22:48:33.06	42.61	14.64	-29.8	-33.1	13.4	1.75e-05	0	43	102	23068672	19	5265
2026-01-07 22:48:34.06	42.76	14.71	-29.9	-33.5	13.1	2.51e-05	0	43	102	23068672	19	5420
2026-01-07 22:48:35.07	42.91	14.78	-29.8	-33.1	13.4	1.60e-05	0	43	102	23068672	19	5260
2026-01-07 22:48:36.08	43.07	14.86	-29.6	-32.6	13.7	6.10e-06	0	43	102	23068672	19	5097
2026-01-07 22:48:37.09	43.22	14.93	-29.6	-32.6	13.7	9.90e-06	0	43	102	23068672	19	5081
2026-01-07 22:48:38.09	43.38	15.00	-29.6	-32.6	13.7	5.30e-06	0	43	102	23068672	19	5093
2026-01-07 22:48:39.10	43.53	15.08	-29.6	-32.6	13.7	4.50e-06	0	43	102	23068672	19	5075
2026-01-07 22:48:40.11	43.69	15.15	-29.8	-33.1	13.4	9.90e-06	0	43	102	23068672	19	5281
2026-01-07 22:48:41.11	43.84	15.22	-29.8	-33.0	13.5	1.29e-05	0	43	102	23068672	19	5244
2026-01-07 22:48:42.12	44.00	15.30	-29.9	-33.4	13.2	1.83e-05	0	43	102	23068672	19	5379
2026-01-07 22:48:43.13	44.16	15.37	-29.8	-33.0	13.4	2.36e-05	0	43	102	23068672	19	5243
2026-01-07 22:48:44.14	44.32	15.45	-29.8	-33.1	13.4	1.14e-05	0	43	102	23068672	19	5259
2026-01-07 22:48:45.14	44.48	15.52	-29.8	-33.1	13.4	1.22e-05	0	43	102	23068672	19	5254
2026-01-07 22:48:46.15	44.64	15.59	-29.7	-32.9	13.6	8.30e-06	0	43	102	23068672	19	5209
2026-01-07 22:48:47.15	44.80	15.66	-29.8	-33.0	13.5	5.34e-05	0	43	102	23068672	19	5235
2026-01-07 22:48:48.16	44.96	15.74	-29.9	-33.3	13.3	6.80e-06	0	43	102	23068672	19	5341
2026-01-07 22:48:49.16	45.13	15.81	-29.9	-32.9	13.1	3.43e-05	0	43	102	23068672	20	5104
2026-01-07 22:48:50.17	45.29	15.89	-29.8	-32.7	13.3	7.78e-05	0	43	102	23068672	20	5015
2026-01-07 22:48:51.17	45.45	15.96	-29.7	-32.5	13.4	1.06e-05	0	43	102	23068672	20	4936
2026-01-07 22:48:52.18	45.62	16.03	-29.7	-32.4	13.5	7.60e-06	0	43	102	23068672	20	4897
2026-01-07 22:48:53.18	45.79	16.11	-29.7	-32.4	13.5	1.37e-05	0	43	102	23068672	20	4910
2026-01-07 22:48:54.19	45.95	16.18	-29.7	-32.3	13.6	1.37e-05	0	43	102	23068672	20	4865
2026-01-07 22:48:55.20	46.12	16.25	-29.7	-32.5	13.5	1.52e-05	0	43	102	23068672	20	4923
2026-01-07 22:48:56.21	46.29	16.33	-29.7	-32.2	13.7	1.14e-05	0	43	102	23068672	20	4839
2026-01-07 22:48:57.21	46.46	16.40	-29.7	-32.2	13.7	5.30e-06	0	43	102	23068672	20	4820
2026-01-07 22:48:58.22	46.63	16.47	-29.6	-32.1	13.7	9.10e-06	0	43	102	23068672	20	4805
2026-01-07 22:48:59.23	46.80	16.55	-29.7	-32.2	13.7	6.80e-06	0	43	102	23068672	20	4839
2026-01-07 22:49:00.24	46.97	16.62	-29.8	-33.0	13.6	7.60e-06	0	43	102	23068672	19	5196
2026-01-07 22:49:01.25	47.15	16.69	-29.7	-32.7	13.8	6.80e-06	0	43	102	23068672	19	5110
2026-01-07 22:49:02.25	47.32	16.77	-29.7	-32.8	13.7	3.80e-06	0	43	102	23068672	19	5140
2026-01-07 22:49:03.25	47.49	16.84	-29.8	-33.1	13.5	6.80e-06	0	43	102	23068672	19	5265
2026-01-07 22:49:04.26	47.67	16.91	-29.8	-32.9	13.7	1.14e-05	0	43	102	23068672	19	5170
2026-01-07 22:49:05.27	47.84	16.99	-29.7	-32.8	13.8	9.10e-06	0	43	102	23068672	19	5129
2026-01-07 22:49:06.27	48.02	17.06	-29.7	-32.6	13.9	4.50e-06	0	43	102	23068672	19	5067
2026-01-07 22:49:07.28	48.20	17.13	-29.6	-32.5	14.0	1.50e-06	0	43	102	23068672	19	5010
2026-01-07 22:49:08.28	48.37	17.21	-29.5	-32.3	13.9	3.00e-06	0	43	102	23068672	19	4941
2026-01-07 22:49:09.29	48.55	17.28	-29.5	-32.3	14.1	7.00e-07	0	43	102	23068672	19	4933
2026-01-07 22:49:10.30	48.74	17.35	-29.5	-32.2	14.0	1.50e-06	0	43	102	23068672	19	4902
2026-01-07 22:49:11.31	48.92	17.43	-29.5	-32.6	13.9	2.20e-06	0	43	102	23068672	18	5179
2026-01-07 22:49:12.31	49.10	17.50	-29.5	-32.3	14.1	3.80e-06	0	43	102	23068672	19	4938
2026-01-07 22:49:13.32	49.28	17.57	-29.5	-32.3	14.1	0.00e+00	0	43	102	23068672	19	4944
2026-01-07 22:49:14.32	49.46	17.65	-29.5	-32.2	14.1	1.50e-06	0	43	102	23068672	19	4923
2026-01-07 22:49:15.33	49.65	17.72	-29.5	-32.3	14.1	3.00e-06	0	43	102	23068672	19	4944
2026-01-07 22:49:16.34	49.83	17.79	-29.5	-32.3	14.1	3.80e-06	0	43	102	23068672	19	4943
2026-01-07 22:49:17.35	50.02	17.86	-29.5	-32.2	14.2	3.80e-06	0	43	102	23068672	19	4912
2026-01-07 22:49:18.35	50.21	17.94	-29.5	-32.3	14.1	3.00e-06	0	43	102	23068672	19	4955
2026-01-07 22:49:19.36	50.40	18.01	-29.4	-31.9	14.3	0.00e+00	0	43	102	23068672	19	4820
2026-01-07 22:49:20.37	50.58	18.08	-29.4	-31.9	14.4	7.00e-07	0	43	102	23068672	19	4799
2026-01-07 22:49:21.38	50.77	18.15	-29.2	-31.5	14.6	0.00e+00	0	43	102	23068672	19	4673
2026-01-07 22:49:22.38	50.96	18.23	-29.3	-31.7	14.5	0.00e+00	0	43	102	23068672	19	4733
2026-01-07 22:49:23.39	51.16	18.30	-29.3	-31.8	14.4	7.00e-07	0	43	102	23068672	19	4763
2026-01-07 22:49:24.40	51.35	18.37	-29.4	-31.8	14.4	0.00e+00	0	44	102	23068672	19	4786
2026-01-07 22:49:25.41	51.54	18.44	-29.3	-31.6	14.6	0.00e+00	0	43	102	23068672	19	4717
2026-01-07 22:49:26.42	51.74	18.52	-29.2	-31.5	14.6	7.00e-07	0	43	102	23068672	19	4689
2026-01-07 22:49:27.43	51.93	18.59	-29.2	-31.4	14.7	0.00e+00	0	43	102	23068672	19	4654
2026-01-07 22:49:28.44	52.13	18.66	-29.1	-31.3	14.7	3.89e-05	0	43	102	23068672	19	4599
2026-01-07 22:49:29.44	52.33	18.73	-29.2	-31.4	14.7	0.00e+00	0	43	102	23068672	19	4655
2026-01-07 22:49:30.45	52.52	18.80	-29.3	-31.6	14.6	7.00e-07	0	43	102	23068672	19	4689
2026-01-07 22:49:31.45	52.72	18.87	-29.2	-31.5	14.6	3.06e-04	0	43	102	23068672	19	4674
2026-01-07 22:49:32.45	52.92	18.94	-29.3	-32.0	14.6	4.23e-04	0	43	102	23068672	18	4959
2026-01-07 22:49:33.46	53.12	19.02	-29.2	-31.9	14.7	7.00e-07	0	43	102	23068672	18	4910
2026-01-07 22:49:34.46	53.32	19.09	-29.2	-31.8	14.8	4.27e-04	0	43	102	23068672	18	4890
2026-01-07 22:49:35.47	53.52	19.16	-29.2	-32.0	14.6	3.97e-04	0	43	102	23068672	18	4948
2026-01-07 22:49:36.47	53.73	19.23	-29.3	-32.1	14.6	0.00e+00	0	43	102	23068672	18	4999
2026-01-07 22:49:37.48	53.93	19.30	-29.4	-32.3	14.5	7.00e-07	0	43	102	23068672	18	5052
2026-01-07 22:49:38.49	54.14	19.37	-29.4	-32.4	14.4	3.00e-06	0	43	102	23068672	18	5100
2026-01-07 22:49:39.50	54.34	19.44	-29.5	-32.1	14.3	7.00e-07	0	43	102	23068672	19	4862
2026-01-07 22:49:40.50	54.55	19.51	-29.5	-32.1	14.2	9.90e-06	0	44	102	23068672	19	4885
2026-01-07 22:49:41.50	54.76	19.58	-29.5	-32.2	14.3	7.00e-07	0	43	102	23068672	19	4905
2026-01-07 22:49:42.51	54.96	19.65	-29.4	-31.8	14.5	7.00e-07	0	43	102	23068672	19	4781
2026-01-07 22:49:43.52	55.18	19.72	-29.3	-31.6	14.6	7.00e-07	0	43	102	23068672	19	4705
2026-01-07 22:49:44.52	55.38	19.79	-29.3	-31.7	14.6	0.00e+00	0	43	102	23068672	19	4730
2026-01-07 22:49:45.53	55.60	19.86	-29.3	-31.7	14.5	0.00e+00	0	43	102	23068672	19	4732
2026-01-07 22:49:46.54	55.81	19.93	-29.4	-31.8	14.5	0.00e+00	0	43	102	23068672	19	4765
2026-01-07 22:49:47.55	56.02	19.99	-29.4	-31.8	14.5	2.20e-06	0	43	102	23068672	19	4775
2026-01-07 22:49:48.56	56.24	20.06	-29.4	-32.0	14.4	7.00e-07	0	43	102	23068672	19	4832
2026-01-07 22:49:49.56	56.45	20.13	-29.5	-32.3	14.2	1.50e-06	0	43	102	23068672	19	4927
2026-01-07 22:49:50.57	56.67	20.20	-29.6	-32.5	14.0	1.50e-06	0	43	102	23068672	19	5031
2026-01-07 22:49:51.57	56.89	20.27	-29.7	-32.8	13.9	3.80e-06	0	43	102	23068672	19	5110
2026-01-07 22:49:52.58	57.10	20.34	-29.8	-33.0	13.7	1.52e-05	0	43	102	23068672	19	5187
2026-01-07 22:49:53.58	57.32	20.40	-29.9	-33.1	13.7	9.10e-06	0	43	102	23068672	19	5248
2026-01-07 22:49:54.59	57.54	20.47	-29.9	-33.4	13.5	9.10e-06	0	43	102	23068672	19	5331
2026-01-07 22:49:55.60	57.76	20.54	-29.9	-33.2	13.6	8.85e-05	0	43	102	23068672	19	5278
2026-01-07 22:49:56.60	57.99	20.60	-29.9	-33.1	13.7	6.63e-05	0	43	102	23068672	19	5228
2026-01-07 22:49:57.61	58.21	20.67	-29.9	-33.1	13.7	6.10e-06	0	43	102	23068672	19	5236
2026-01-07 22:49:58.61	58.43	20.74	-29.9	-33.2	13.6	9.15e-05	0	43	102	23068672	19	5275
2026-01-07 22:49:59.62	58.66	20.80	-29.9	-33.3	13.6	2.67e-05	0	43	102	23068672	19	5305
2026-01-07 22:50:00.60	58.88	20.87	-29.9	-32.9	13.4	1.14e-05	0	43	102	23068672	20	5057
2026-01-07 22:50:01.61	59.10	20.93	-30.1	-33.2	13.2	1.98e-05	0	43	102	23068672	20	5185
2026-01-07 22:50:02.61	59.33	21.00	-30.2	-33.6	13.0	9.23e-05	0	43	102	23068672	20	5345
2026-01-07 22:50:03.62	59.56	21.06	-30.2	-33.7	12.9	4.19e-05	0	43	102	23068672	20	5374
2026-01-07 22:50:04.63	59.79	21.13	-30.3	-33.8	12.9	4.73e-05	0	43	102	23068672	20	5387
2026-01-07 22:50:05.64	60.02	21.19	-30.3	-33.9	12.8	4.50e-05	0	43	102	23068672	20	5429
2026-01-07 22:50:06.64	60.25	21.26	-30.3	-33.9	12.8	6.10e-05	0	43	102	23068672	20	5443
2026-01-07 22:50:07.65	60.48	21.32	-30.2	-33.4	13.1	3.58e-05	0	43	102	23068672	20	5255
2026-01-07 22:50:08.66	60.72	21.38	-30.0	-33.0	13.4	1.60e-05	0	43	102	23068672	20	5089
2026-01-07 22:50:09.67	60.95	21.45	-29.9	-32.9	13.5	1.44e-05	0	43	102	23068672	20	5039
2026-01-07 22:50:10.67	61.19	21.51	-29.9	-32.9	13.5	1.14e-05	0	43	102	23068672	20	5040
2026-01-07 22:50:11.68	61.42	21.57	-29.9	-32.7	13.6	1.06e-05	0	43	102	23068672	20	4962
2026-01-07 22:50:12.69	61.66	21.63	-29.9	-32.7	13.6	4.50e-06	0	43	102	23068672	20	4974
2026-01-07 22:50:13.69	61.90	21.70	-29.9	-32.6	13.7	6.80e-06	0	43	102	23068672	20	4957
2026-01-07 22:50:14.70	62.14	21.76	-29.9	-32.7	13.6	3.80e-06	0	43	102	23068672	20	4964
2026-01-07 22:50:15.71	62.38	21.82	-29.9	-32.7	13.6	6.10e-06	0	43	102	23068672	20	4987
2026-01-07 22:50:16.71	62.62	21.88	-30.0	-32.9	13.5	9.10e-06	0	44	102	23068672	20	5056
2026-01-07 22:50:17.72	62.86	21.94	-29.9	-32.7	13.6	1.52e-05	0	43	102	23068672	20	4970
2026-01-07 22:50:18.73	63.10	22.00	-29.8	-32.4	13.8	7.60e-06	0	43	102	23068672	20	4857
2026-01-07 22:50:19.73	63.34	22.06	-29.8	-32.5	13.7	9.30e-05	0	43	102	23068672	20	4899
2026-01-07 22:50:20.73	63.59	22.12	-29.7	-32.3	13.8	4.50e-06	0	44	102	23068672	20	4825
2026-01-07 22:50:21.74	63.83	22.18	-29.7	-32.3	13.8	4.50e-06	0	43	102	23068672	20	4839
2026-01-07 22:50:22.74	64.08	22.24	-29.7	-32.3	13.8	6.10e-06	0	44	102	23068672	20	4849
2026-01-07 22:50:23.75	64.33	22.29	-29.8	-32.4	13.8	3.00e-06	0	43	102	23068672	20	4875
2026-01-07 22:50:24.76	64.57	22.35	-29.8	-32.4	13.8	6.10e-06	0	43	102	23068672	20	4862
2026-01-07 22:50:25.76	64.82	22.41	-29.8	-32.6	13.7	4.50e-06	0	43	102	23068672	20	4945
2026-01-07 22:50:26.77	65.07	22.47	-29.9	-32.7	13.7	6.10e-06	0	43	102	23068672	20	4965
2026-01-07 22:50:27.78	65.32	22.52	-30.0	-33.0	13.4	5.18e-05	0	43	102	23068672	20	5079
2026-01-07 22:50:28.78	65.57	22.58	-30.0	-33.1	13.3	3.96e-05	0	43	102	23068672	20	5141
2026-01-07 22:50:29.79	65.83	22.63	-30.2	-33.6	13.0	1.98e-05	0	44	102	23068672	20	5323
2026-01-07 22:50:30.78	66.08	22.69	-30.2	-33.7	12.9	5.56e-05	0	43	102	23068672	20	5367
2026-01-07 22:50:31.79	66.33	22.74	-30.3	-33.9	12.8	4.65e-05	0	44	102	23068672	20	5434
2026-01-07 22:50:32.80	66.59	22.80	-30.3	-33.8	12.9	7.40e-05	0	43	102	23068672	20	5410
2026-01-07 22:50:33.80	66.84	22.85	-30.2	-33.7	12.9	3.58e-05	0	43	102	23068672	20	5347
2026-01-07 22:50:34.81	67.10	22.90	-30.2	-33.6	13.0	3.66e-05	0	43	102	23068672	20	5332
2026-01-07 22:50:35.82	67.36	22.96	-30.1	-33.4	13.2	2.67e-05	0	43	102	23068672	20	5244
2026-01-07 22:50:36.83	67.62	23.01	-30.2	-33.5	13.1	4.65e-05	0	44	102	23068672	20	5267
2026-01-07 22:50:37.83	67.88	23.06	-30.2	-33.5	13.1	2.59e-05	0	43	102	23068672	20	5278
2026-01-07 22:50:38.84	68.14	23.11	-30.2	-33.7	13.0	4.27e-05	0	43	102	23068672	20	5345
2026-01-07 22:50:39.85	68.40	23.16	-30.2	-33.4	13.1	4.88e-05	0	43	102	23068672	20	5249
2026-01-07 22:50:40.85	68.66	23.21	-30.0	-33.1	13.3	2.36e-05	0	43	102	23068672	20	5126
2026-01-07 22:50:41.86	68.92	23.26	-30.0	-33.1	13.3	1.37e-05	0	43	102	23068672	20	5116
2026-01-07 22:50:42.86	69.19	23.31	-30.0	-33.1	13.4	1.29e-05	0	43	102	23068672	20	5123
2026-01-07 22:50:43.87	69.45	23.36	-30.1	-33.3	13.2	2.05e-05	0	44	102	23068672	20	5195
2026-01-07 22:50:44.87	69.71	23.41	-30.1	-33.3	13.2	2.05e-05	0	43	102	23068672	20	5188
2026-01-07 22:50:45.88	69.98	23.46	-30.2	-33.6	13.0	2.36e-05	0	43	102	23068672	20	5302
2026-01-07 22:50:46.89	70.25	23.51	-30.1	-33.3	13.3	7.32e-05	0	43	102	23068672	20	5200
2026-01-07 22:50:47.90	70.52	23.55	-30.0	-33.1	13.3	1.44e-05	0	43	102	23068672	20	5135
2026-01-07 22:50:48.91	70.79	23.60	-30.0	-33.0	13.4	1.29e-05	0	43	102	23068672	20	5066
2026-01-07 22:50:49.91	71.05	23.64	-30.0	-33.1	13.4	9.10e-06	0	43	102	23068672	20	5112
2026-01-07 22:50:50.92	71.33	23.69	-30.1	-33.1	13.4	1.29e-05	0	44	102	23068672	20	5131
2026-01-07 22:50:51.92	71.59	23.73	-30.2	-33.6	13.1	2.51e-05	0	43	102	23068672	20	5318
2026-01-07 22:50:52.93	71.87	23.78	-30.2	-33.5	13.2	2.74e-05	0	43	102	23068672	20	5262
2026-01-07 22:50:53.93	72.14	23.82	-30.3	-33.7	13.0	3.28e-05	0	44	102	23068672	20	5362
2026-01-07 22:50:54.94	72.41	23.86	-30.3	-33.7	12.9	1.17e-04	0	43	102	23068672	20	5372
2026-01-07 22:50:55.95	72.69	23.90	-30.4	-34.0	12.7	5.64e-05	0	43	102	23068672	20	5492
2026-01-07 22:50:56.96	72.96	23.95	-30.4	-34.0	12.8	7.09e-05	0	43	102	23068672	20	5478
2026-01-07 22:50:57.96	73.24	23.99	-30.5	-34.0	12.5	1.06e-04	0	43	102	23068672	21	5356
2026-01-07 22:50:58.97	73.51	24.03	-30.7	-34.4	12.2	2.04e-04	0	43	102	23068672	21	5551
2026-01-07 22:50:59.97	73.79	24.07	-30.6	-34.1	12.4	1.81e-04	0	44	102	23068672	21	5420
2026-01-07 22:51:00.98	74.06	24.11	-30.4	-33.7	12.7	1.36e-04	0	43	102	23068672	21	5233
2026-01-07 22:51:01.98	74.34	24.14	-30.3	-33.4	12.9	7.17e-05	0	44	102	23068672	21	5118
2026-01-07 22:51:02.99	74.62	24.18	-30.3	-33.4	12.8	5.11e-05	0	43	102	23068672	21	5139
2026-01-07 22:51:04.00	74.90	24.22	-30.3	-33.4	12.9	9.15e-05	0	43	102	23068672	21	5113
2026-01-07 22:51:05.00	75.18	24.26	-30.3	-33.4	12.9	1.30e-04	0	43	102	23068672	21	5118
2026-01-07 22:51:06.01	75.46	24.29	-30.3	-33.4	12.9	5.18e-05	0	44	102	23068672	21	5131
2026-01-07 22:51:07.02	75.74	24.33	-30.4	-33.6	12.8	1.90e-04	0	44	102	23068672	21	5197
2026-01-07 22:51:08.03	76.03	24.36	-30.3	-33.3	12.9	1.63e-04	0	43	102	23068672	21	5094
2026-01-07 22:51:09.03	76.31	24.39	-30.4	-33.6	12.8	5.26e-05	0	43	102	23068672	21	5184
2026-01-07 22:51:10.04	76.59	24.43	-30.5	-33.9	12.6	1.20e-04	0	44	102	23068672	21	5333
2026-01-07 22:51:11.04	76.87	24.46	-30.3	-33.4	12.9	1.57e-04	0	43	102	23068672	21	5100
2026-01-07 22:51:12.05	77.16	24.49	-30.3	-33.3	13.0	5.26e-05	0	44	102	23068672	21	5075
2026-01-07 22:51:13.06	77.44	24.52	-30.3	-33.3	13.0	4.27e-05	0	44	102	23068672	21	5074
2026-01-07 22:51:14.07	77.73	24.55	-30.3	-33.4	12.9	2.96e-04	0	43	102	23068672	21	5106
2026-01-07 22:51:15.08	78.02	24.58	-30.0	-32.5	13.5	1.75e-05	0	43	102	23068672	21	4785
2026-01-07 22:51:16.09	78.30	24.61	-29.8	-32.4	13.9	2.59e-05	0	43	102	23068672	20	4864
2026-01-07 22:51:17.10	78.59	24.64	-29.8	-32.5	13.9	3.80e-06	0	44	102	23068672	20	4878
2026-01-07 22:51:18.11	78.88	24.67	-29.7	-32.2	14.0	2.20e-06	0	43	102	23068672	20	4785
2026-01-07 22:51:19.12	79.17	24.69	-29.8	-32.3	14.0	2.20e-06	0	43	102	23068672	20	4806
2026-01-07 22:51:20.12	79.45	24.72	-29.8	-32.4	13.9	6.10e-06	0	44	102	23068672	20	4840
2026-01-07 22:51:21.13	79.74	24.75	-29.8	-32.4	13.9	4.50e-06	0	44	102	23068672	20	4871
2026-01-07 22:51:22.13	80.03	24.77	-29.7	-32.2	14.0	1.06e-05	0	43	102	23068672	20	4793
2026-01-07 22:51:23.15	80.32	24.79	-29.7	-32.2	14.0	3.80e-06	0	43	102	23068672	20	4801
2026-01-07 22:51:24.15	80.61	24.82	-29.8	-32.4	13.9	2.20e-06	0	43	102	23068672	20	4864
2026-01-07 22:51:25.15	80.90	24.84	-29.8	-32.3	14.0	5.30e-06	0	43	102	23068672	20	4809
2026-01-07 22:51:26.16	81.19	24.86	-30.0	-32.9	13.6	3.00e-06	0	44	102	23068672	20	5049
2026-01-07 22:51:27.16	81.48	24.88	-29.9	-32.7	13.7	6.10e-06	0	43	102	23068672	20	4944
2026-01-07 22:51:28.17	81.78	24.90	-29.9	-32.8	13.7	3.00e-06	0	43	102	23068672	20	5000
2026-01-07 22:51:29.18	82.07	24.92	-30.2	-33.4	13.2	1.83e-05	0	44	102	23068672	20	5229
2026-01-07 22:51:30.18	82.36	24.94	-30.3	-33.7	13.1	2.21e-05	0	43	102	23068672	20	5342
2026-01-07 22:51:31.19	82.65	24.96	-30.5	-33.9	12.6	7.01e-05	0	43	102	23068672	21	5317
2026-01-07 22:51:32.20	82.95	24.98	-30.6	-34.1	12.5	1.17e-04	0	43	102	23068672	21	5385
2026-01-07 22:51:33.21	83.24	24.99	-30.5	-33.8	12.7	8.69e-05	0	43	102	23068672	21	5275
2026-01-07 22:51:34.21	83.53	25.01	-30.3	-33.4	12.9	5.64e-05	0	44	102	23068672	21	5123
2026-01-07 22:51:35.21	83.83	25.02	-30.3	-33.2	13.1	3.12e-05	0	43	102	23068672	21	5035
2026-01-07 22:51:36.22	84.12	25.04	-30.2	-33.0	13.1	3.35e-05	0	43	102	23068672	21	4989
2026-01-07 22:51:37.22	84.41	25.05	-30.0	-32.5	13.5	9.10e-06	0	44	102	23068672	21	4803
2026-01-07 22:51:38.23	84.71	25.06	-29.9	-32.2	13.7	8.30e-06	0	44	102	23068672	21	4688
2026-01-07 22:51:39.24	85.01	25.07	-29.9	-32.3	13.6	4.50e-06	0	44	102	23068672	21	4721
2026-01-07 22:51:40.25	85.30	25.08	-30.0	-32.4	13.6	9.90e-06	0	44	102	23068672	21	4748
2026-01-07 22:51:41.25	85.60	25.09	-30.1	-32.8	13.3	1.75e-05	0	43	102	23068672	21	4885
2026-01-07 22:51:42.26	85.89	25.10	-30.0	-32.4	13.6	1.60e-05	0	44	102	23068672	21	4762
2026-01-07 22:51:43.26	86.19	25.11	-29.9	-32.1	13.8	9.10e-06	0	44	102	23068672	21	4660
2026-01-07 22:51:44.27	86.48	25.12	-29.8	-31.9	13.9	6.10e-06	0	44	102	23068672	21	4604
2026-01-07 22:51:45.27	86.78	25.13	-29.8	-31.9	13.9	4.50e-06	0	44	102	23068672	21	4580
2026-01-07 22:51:46.28	87.07	25.13	-29.6	-31.9	14.2	7.00e-07	0	43	102	23068672	20	4680
2026-01-07 22:51:47.28	87.37	25.14	-29.6	-31.9	14.2	1.50e-06	0	43	102	23068672	20	4703
2026-01-07 22:51:48.29	87.67	25.14	-29.6	-31.9	14.2	1.50e-06	0	44	102	23068672	20	4694
2026-01-07 22:51:49.30	87.96	25.15	-29.4	-31.4	14.5	0.00e+00	0	44	102	23068672	20	4516
2026-01-07 22:51:50.30	88.26	25.15	-29.3	-31.2	14.6	0.00e+00	0	44	102	23068672	20	4474
2026-01-07 22:51:51.31	88.56	25.15	-29.5	-31.6	14.4	7.00e-07	0	44	102	23068672	20	4600
2026-01-07 22:51:52.32	88.85	25.15	-29.6	-32.0	14.1	0.00e+00	0	44	102	23068672	20	4733
2026-01-07 22:51:53.32	89.15	25.15	-29.8	-32.5	13.8	4.50e-06	0	44	102	23068672	20	4903
2026-01-07 22:51:54.33	89.45	25.15	-29.9	-32.6	13.7	1.06e-05	0	44	102	23068672	20	4932
2026-01-07 22:51:55.33	89.74	25.15	-29.9	-32.6	13.8	5.30e-06	0	43	102	23068672	20	4940
2026-01-07 22:51:56.34	90.04	25.15	-29.8	-32.4	13.8	2.20e-06	0	44	102	23068672	20	4872
2026-01-07 22:51:57.35	90.34	25.15	-29.7	-32.1	14.1	7.00e-07	0	43	102	23068672	20	4750
2026-01-07 22:51:58.36	90.63	25.15	-29.6	-32.0	14.2	7.00e-07	0	44	102	23068672	20	4710
2026-01-07 22:51:59.36	90.93	25.14	-29.6	-31.8	14.3	1.50e-06	0	44	102	23068672	20	4668
2026-01-07 22:52:00.37	91.23	25.14	-29.5	-31.6	14.4	1.50e-06	0	44	102	23068672	20	4587
2026-01-07 22:52:01.38	91.52	25.13	-29.6	-31.9	14.2	7.00e-07	0	43	102	23068672	20	4701
2026-01-07 22:52:02.38	91.82	25.12	-29.8	-32.3	14.0	1.50e-06	0	43	102	23068672	20	4827
2026-01-07 22:52:03.39	92.12	25.12	-30.1	-33.1	13.4	1.06e-05	0	44	102	23068672	20	5126
2026-01-07 22:52:04.39	92.41	25.11	-30.2	-33.6	13.1	2.36e-05	0	44	102	23068672	20	5309
2026-01-07 22:52:05.39	92.70	25.10	-30.4	-34.1	12.7	7.40e-05	0	44	102	23068672	20	5502
2026-01-07 22:52:06.40	93.00	25.09	-30.4	-34.0	12.8	6.17e-05	0	44	102	23068672	20	5484
2026-01-07 22:52:07.41	93.30	25.08	-30.3	-33.9	12.9	5.49e-05	0	44	102	23068672	20	5422
2026-01-07 22:52:08.42	93.59	25.07	-30.2	-33.6	13.1	2.67e-05	0	43	102	23068672	20	5295
2026-01-07 22:52:09.42	93.89	25.06	-30.2	-33.5	13.2	2.89e-05	0	44	102	23068672	20	5260
2026-01-07 22:52:10.44	94.18	25.04	-30.2	-33.5	13.2	2.67e-05	0	44	102	23068672	20	5280
2026-01-07 22:52:11.44	94.48	25.03	-30.1	-33.3	13.3	2.13e-05	0	43	102	23068672	20	5181
2026-01-07 22:52:12.46	94.78	25.02	-30.0	-32.9	13.5	1.06e-05	0	44	102	23068672	20	5059
2026-01-07 22:52:13.46	95.07	25.00	-30.0	-33.0	13.5	1.14e-05	0	44	102	23068672	20	5073
2026-01-07 22:52:14.47	95.36	24.98	-30.1	-33.2	13.3	1.29e-05	0	43	102	23068672	20	5168
2026-01-07 22:52:15.47	95.65	24.97	-30.2	-33.5	13.2	2.44e-05	0	44	102	23068672	20	5254
2026-01-07 22:52:16.48	95.95	24.95	-30.3	-33.7	13.0	2.05e-05	0	44	102	23068672	20	5367
2026-01-07 22:52:17.49	96.24	24.93	-30.4	-34.0	12.8	7.17e-05	0	43	102	23068672	20	5483
2026-01-07 22:52:18.50	96.54	24.91	-30.4	-34.2	12.6	4.95e-05	0	44	102	23068672	20	5567
2026-01-07 22:52:19.50	96.83	24.89	-30.3	-33.5	12.8	1.10e-04	0	44	102	23068672	21	5149
2026-01-07 22:52:20.51	97.12	24.87	-30.2	-33.0	13.2	2.44e-05	0	44	102	23068672	21	4961
2026-01-07 22:52:21.52	97.41	24.85	-30.2	-33.1	13.1	2.21e-05	0	44	102	23068672	21	5002
2026-01-07 22:52:22.52	97.70	24.83	-30.1	-32.7	13.3	3.81e-05	0	44	102	23068672	21	4859
2026-01-07 22:52:23.53	97.99	24.81	-29.8	-32.0	13.8	1.06e-05	0	44	102	23068672	21	4629
2026-01-07 22:52:24.54	98.29	24.78	-29.8	-32.4	13.9	5.30e-06	0	44	102	23068672	20	4851
2026-01-07 22:52:25.55	98.58	24.76	-29.9	-32.7	13.7	3.80e-06	0	44	102	23068672	20	4976
2026-01-07 22:52:26.56	98.87	24.73	-30.2	-33.4	13.2	1.60e-05	0	44	102	23068672	20	5251
2026-01-07 22:52:27.57	99.16	24.71	-30.2	-33.4	13.2	2.51e-05	0	44	102	23068672	20	5239
2026-01-07 22:52:28.58	99.45	24.68	-29.9	-32.6	13.7	1.90e-05	0	44	102	23068672	20	4949
2026-01-07 22:52:29.58	99.73	24.65	-29.7	-32.1	14.1	1.50e-06	0	43	102	23068672	20	4747
2026-01-07 22:52:30.59	100.02	24.63	-29.6	-31.9	14.2	2.20e-06	0	43	102	23068672	20	4705
2026-01-07 22:52:31.59	100.31	24.60	-29.6	-31.9	14.2	4.50e-06	0	44	102	23068672	20	4711
2026-01-07 22:52:32.60	100.59	24.57	-29.6	-32.0	14.1	3.00e-06	0	44	102	23068672	20	4730
2026-01-07 22:52:33.61	100.88	24.54	-29.9	-32.6	13.7	3.00e-06	0	44	102	23068672	20	4948
2026-01-07 22:52:34.62	101.17	24.51	-29.8	-32.6	13.7	1.29e-05	0	44	102	23068672	20	4932
2026-01-07 22:52:35.62	101.45	24.48	-29.7	-32.2	14.0	2.20e-06	0	44	102	23068672	20	4789
2026-01-07 22:52:36.63	101.74	24.44	-29.6	-31.9	14.2	0.00e+00	0	44	102	23068672	20	4693
2026-01-07 22:52:37.64	102.02	24.41	-29.6	-31.8	14.2	6.80e-06	0	44	102	23068672	20	4678
2026-01-07 22:52:38.65	102.31	24.38	-29.5	-31.6	14.4	7.00e-07	0	43	102	23068672	20	4587
2026-01-07 22:52:39.66	102.59	24.34	-29.5	-31.7	14.3	4.50e-06	0	44	102	23068672	20	4642
2026-01-07 22:52:40.67	102.87	24.31	-29.4	-31.5	14.4	1.50e-06	0	44	102	23068672	20	4557
2026-01-07 22:52:41.68	103.15	24.27	-29.3	-31.2	14.6	7.00e-07	0	44	102	23068672	20	4464
2026-01-07 22:52:42.69	103.44	24.24	-29.2	-31.3	14.8	8.30e-06	0	44	102	23068672	19	4614
2026-01-07 22:52:43.70	103.72	24.20	-29.1	-31.2	15.0	1.50e-06	0	44	102	23068672	19	4567
2026-01-07 22:52:44.69	103.99	24.16	-29.2	-31.4	14.8	7.00e-07	0	44	102	23068672	19	4647
2026-01-07 22:52:45.70	104.27	24.12	-29.3	-31.7	14.7	3.00e-06	0	44	102	23068672	19	4714
2026-01-07 22:52:46.71	104.55	24.09	-29.4	-31.8	14.6	0.00e+00	0	44	102	23068672	19	4771
2026-01-07 22:52:47.71	104.83	24.05	-29.4	-31.8	14.6	0.00e+00	0	43	102	23068672	19	4767
2026-01-07 22:52:48.72	105.11	24.01	-29.4	-31.9	14.5	0.00e+00	0	44	102	23068672	19	4787
2026-01-07 22:52:49.73	105.38	23.97	-29.4	-31.9	14.5	7.00e-07	0	44	102	23068672	19	4783
2026-01-07 22:52:50.73	105.66	23.92	-29.2	-31.5	14.8	7.00e-07	0	44	102	23068672	19	4670
2026-01-07 22:52:51.74	105.93	23.88	-29.3	-31.7	14.6	7.00e-07	0	44	102	23068672	19	4742
2026-01-07 22:52:52.75	106.21	23.84	-29.3	-31.5	14.7	0.00e+00	0	44	102	23068672	19	4674
2026-01-07 22:52:53.75	106.48	23.80	-29.1	-31.1	15.0	0.00e+00	0	44	102	23068672	19	4524
2026-01-07 22:52:54.76	106.75	23.75	-28.9	-30.7	15.2	0.00e+00	0	44	102	23068672	19	4417
2026-01-07 22:52:55.77	107.02	23.71	-28.8	-30.5	15.4	0.00e+00	0	44	102	23068672	19	4335
2026-01-07 22:52:56.78	107.30	23.66	-28.7	-30.6	15.5	0.00e+00	0	44	102	23068672	18	4493
2026-01-07 22:52:57.78	107.57	23.62	-28.5	-30.2	15.8	0.00e+00	0	44	102	23068672	18	4367
2026-01-07 22:52:58.79	107.84	23.57	-28.3	-29.8	16.1	0.00e+00	0	44	102	23068672	18	4241
2026-01-07 22:52:59.79	108.10	23.53	-28.3	-29.7	16.1	0.00e+00	0	44	102	23068672	18	4210
2026-01-07 22:53:00.79	108.37	23.48	-28.5	-30.0	15.9	0.00e+00	0	44	102	23068672	18	4320
2026-01-07 22:53:01.80	108.64	23.43	-28.6	-30.4	15.7	0.00e+00	0	44	102	23068672	18	4437
2026-01-07 22:53:02.80	108.90	23.38	-28.8	-30.9	15.4	0.00e+00	0	43	102	23068672	18	4586
2026-01-07 22:53:03.81	109.17	23.34	-28.9	-31.2	15.2	0.00e+00	0	44	102	23068672	18	4662
2026-01-07 22:53:04.82	109.43	23.29	-28.9	-31.2	15.2	0.00e+00	0	44	102	23068672	18	4674
2026-01-07 22:53:05.82	109.70	23.24	-28.8	-30.8	15.5	0.00e+00	0	43	102	23068672	18	4547
2026-01-07 22:53:06.83	109.96	23.19	-28.6	-30.3	15.7	0.00e+00	0	43	102	23068672	18	4415
2026-01-07 22:53:07.84	110.22	23.13	-28.6	-30.3	15.7	0.00e+00	0	43	102	23068672	18	4415
2026-01-07 22:53:08.84	110.48	23.08	-28.7	-30.7	15.5	0.00e+00	0	44	102	23068672	18	4515
2026-01-07 22:53:09.85	110.75	23.03	-28.6	-30.5	15.6	0.00e+00	0	43	102	23068672	18	4467
2026-01-07 22:53:10.86	111.01	22.98	-28.7	-30.8	15.4	0.00e+00	0	43	102	23068672	18	4558
2026-01-07 22:53:11.86	111.26	22.93	-28.8	-31.0	15.3	0.00e+00	0	44	102	23068672	18	4613
2026-01-07 22:53:12.87	111.52	22.87	-28.9	-31.2	15.2	0.00e+00	0	44	102	23068672	18	4682
2026-01-07 22:53:13.88	111.78	22.82	-29.0	-31.3	15.1	0.00e+00	0	44	102	23068672	18	4722
2026-01-07 22:53:14.88	112.04	22.76	-29.1	-31.7	14.8	0.00e+00	0	44	102	23068672	18	4863
2026-01-07 22:53:15.89	112.29	22.71	-29.3	-32.2	14.6	4.50e-06	0	43	102	23068672	18	5010
2026-01-07 22:53:16.90	112.55	22.65	-29.7	-32.8	13.8	1.50e-06	0	44	102	23068672	19	5126
2026-01-07 22:53:17.91	112.80	22.60	-29.7	-32.8	13.8	2.20e-06	0	43	102	23068672	19	5118
2026-01-07 22:53:18.92	113.06	22.54	-29.9	-33.4	13.5	1.06e-05	0	43	102	23068672	19	5376
2026-01-07 22:53:19.93	113.31	22.49	-29.8	-33.1	13.6	6.80e-06	0	44	102	23068672	19	5233
2026-01-07 22:53:20.93	113.56	22.43	-29.7	-32.7	13.9	6.80e-06	0	44	102	23068672	19	5091
2026-01-07 22:53:21.94	113.81	22.37	-29.6	-32.6	13.9	1.50e-06	0	44	102	23068672	19	5051
2026-01-07 22:53:22.95	114.06	22.31	-29.7	-32.7	13.9	3.80e-06	0	43	102	23068672	19	5093
2026-01-07 22:53:23.95	114.31	22.26	-29.7	-32.7	13.9	5.30e-06	0	44	102	23068672	19	5098
2026-01-07 22:53:24.96	114.56	22.20	-29.7	-32.6	13.9	6.10e-06	0	44	102	23068672	19	5080
2026-01-07 22:53:25.97	114.80	22.14	-29.7	-32.7	13.9	7.00e-07	0	43	102	23068672	19	5092
2026-01-07 22:53:26.98	115.05	22.08	-29.7	-32.9	13.7	1.22e-05	0	43	102	23068672	19	5160
2026-01-07 22:53:27.98	115.29	22.02	-29.5	-32.2	14.2	5.30e-06	0	43	102	23068672	19	4926
2026-01-07 22:53:28.99	115.54	21.96	-29.4	-31.9	14.3	1.50e-06	0	44	102	23068672	19	4811
2026-01-07 22:53:29.99	115.78	21.90	-29.3	-31.9	14.3	2.21e-05	0	44	102	23068672	19	4809
2026-01-07 22:53:31.00	116.02	21.84	-29.4	-31.9	14.3	7.00e-07	0	44	102	23068672	19	4819
2026-01-07 22:53:32.01	116.26	21.77	-29.4	-32.1	14.1	2.20e-06	0	44	102	23068672	19	4901
2026-01-07 22:53:33.02	116.50	21.71	-29.5	-32.3	14.0	0.00e+00	0	43	102	23068672	19	4978
2026-01-07 22:53:34.02	116.74	21.65	-29.6	-32.5	13.9	3.00e-06	0	44	102	23068672	19	5037
2026-01-07 22:53:35.02	116.98	21.59	-29.6	-32.5	13.8	3.80e-06	0	44	102	23068672	19	5061
2026-01-07 22:53:36.03	117.22	21.53	-29.6	-32.7	13.8	7.60e-06	0	44	102	23068672	19	5116
2026-01-07 22:53:37.04	117.45	21.46	-29.7	-32.7	13.7	6.80e-06	0	44	102	23068672	19	5127
2026-01-07 22:53:38.05	117.69	21.40	-29.8	-33.0	13.5	9.90e-06	0	44	102	23068672	19	5222
2026-01-07 22:53:39.06	117.93	21.34	-29.7	-32.9	13.6	4.50e-06	0	44	102	23068672	19	5195
2026-01-07 22:53:40.07	118.16	21.27	-29.8	-33.2	13.4	1.90e-05	0	44	102	23068672	19	5288
2026-01-07 22:53:41.07	118.39	21.21	-29.7	-32.6	13.8	1.22e-05	0	43	102	23068672	19	5081
2026-01-07 22:53:42.08	118.62	21.14	-29.5	-32.3	14.0	6.80e-06	0	44	102	23068672	19	4966
2026-01-07 22:53:43.07	118.85	21.08	-29.5	-32.2	14.1	3.00e-06	0	44	102	23068672	19	4925
2026-01-07 22:53:44.08	119.08	21.01	-29.5	-32.2	14.1	7.00e-07	0	44	102	23068672	19	4936
2026-01-07 22:53:45.09	119.31	20.95	-29.4	-32.1	14.2	2.20e-06	0	43	102	23068672	19	4888
2026-01-07 22:53:46.09	119.54	20.88	-29.5	-32.4	14.0	2.20e-06	0	44	102	23068672	19	4991
2026-01-07 22:53:47.10	119.77	20.82	-29.5	-32.3	14.0	3.00e-06	0	44	102	23068672	19	4964
2026-01-07 22:53:48.11	119.99	20.75	-29.6	-32.6	13.8	2.20e-06	0	44	102	23068672	19	5079
2026-01-07 22:53:49.11	120.22	20.68	-29.6	-32.4	14.0	3.80e-06	0	44	102	23068672	19	5010
2026-01-07 22:53:50.12	120.44	20.62	-29.5	-32.3	14.0	0.00e+00	0	44	102	23068672	19	4954
2026-01-07 22:53:51.12	120.66	20.55	-29.6	-32.5	13.9	2.20e-06	0	44	102	23068672	19	5017
2026-01-07 22:53:52.13	120.89	20.48	-29.7	-32.8	13.7	3.80e-06	0	43	102	23068672	19	5160
2026-01-07 22:53:53.14	121.11	20.41	-29.8	-33.1	13.5	1.06e-05	0	44	102	23068672	19	5248
2026-01-07 22:53:54.14	121.33	20.35	-29.8	-33.0	13.6	6.80e-06	0	43	102	23068672	19	5203
2026-01-07 22:53:55.15	121.55	20.28	-29.9	-33.2	13.4	6.10e-06	0	44	102	23068672	19	5305
2026-01-07 22:53:56.16	121.77	20.21	-29.9	-33.3	13.4	1.52e-05	0	44	102	23068672	19	5322
2026-01-07 22:53:57.17	121.98	20.14	-29.9	-33.4	13.3	1.06e-05	0	44	102	23068672	19	5387
2026-01-07 22:53:58.17	122.20	20.07	-29.9	-33.5	13.2	2.28e-05	0	44	102	23068672	19	5405
2026-01-07 22:53:59.18	122.42	20.00	-30.2	-33.7	12.7	4.73e-05	0	43	102	23068672	20	5392
2026-01-07 22:54:00.18	122.63	19.93	-30.4	-34.4	12.2	1.65e-04	0	44	102	23068672	20	5688
2026-01-07 22:54:01.19	122.84	19.86	-30.2	-33.8	12.6	1.39e-04	0	44	102	23068672	20	5436
2026-01-07 22:54:02.19	123.05	19.80	-30.2	-33.8	12.6	9.46e-05	0	43	102	23068672	20	5443
2026-01-07 22:54:03.20	123.27	19.73	-30.3	-34.2	12.3	1.30e-04	0	43	102	23068672	20	5614
2026-01-07 22:54:04.21	123.48	19.65	-30.7	-34.7	11.5	4.72e-04	0	44	102	23068672	21	5748
2026-01-07 22:54:05.21	123.69	19.59	-30.7	-34.9	11.5	9.68e-04	0	44	102	23068672	21	5821
2026-01-07 22:54:06.21	123.89	19.52	-30.5	-34.3	11.9	5.74e-04	0	44	102	23068672	21	5553
2026-01-07 22:54:07.23	124.11	19.44	-30.4	-33.8	12.2	2.88e-04	0	44	102	23068672	21	5357
2026-01-07 22:54:08.23	124.31	19.37	-30.2	-33.4	12.5	1.72e-04	0	44	102	23068672	21	5197
2026-01-07 22:54:09.24	124.52	19.30	-30.3	-33.6	12.3	1.72e-04	0	44	102	23068672	21	5251
2026-01-07 22:54:10.25	124.72	19.23	-30.2	-33.3	12.5	1.18e-04	0	44	102	23068672	21	5152
2026-01-07 22:54:11.26	124.93	19.16	-30.5	-34.2	11.9	2.13e-04	0	44	102	23068672	21	5536
2026-01-07 22:54:12.26	125.13	19.09	-30.6	-34.5	11.7	4.41e-04	0	43	102	23068672	21	5664
2026-01-07 22:54:13.27	125.33	19.02	-30.8	-35.1	11.2	1.21e-03	0	44	102	23068672	21	5938
2026-01-07 22:54:14.27	125.54	18.95	-30.6	-34.5	11.7	8.70e-04	0	43	102	23068672	21	5656
2026-01-07 22:54:15.28	125.74	18.87	-30.2	-33.4	12.4	1.87e-04	0	44	102	23068672	21	5209
2026-01-07 22:54:16.28	125.93	18.80	-29.9	-32.4	13.1	5.11e-05	0	44	102	23068672	21	4822
2026-01-07 22:54:17.29	126.13	18.73	-29.7	-32.5	13.4	2.51e-05	0	44	102	23068672	20	4974
2026-01-07 22:54:18.29	126.33	18.66	-29.7	-32.5	13.4	1.37e-05	0	44	102	23068672	20	4953
2026-01-07 22:54:19.30	126.53	18.59	-29.8	-32.8	13.2	1.83e-05	0	44	102	23068672	20	5068
2026-01-07 22:54:20.31	126.73	18.51	-30.1	-33.5	12.7	1.17e-04	0	44	102	23068672	20	5329
2026-01-07 22:54:21.32	126.92	18.44	-30.2	-33.7	12.6	1.02e-04	0	44	102	23068672	20	5425
2026-01-07 22:54:22.32	127.11	18.37	-30.4	-34.3	12.2	2.41e-04	0	44	102	23068672	20	5637
2026-01-07 22:54:23.33	127.31	18.30	-30.2	-33.9	12.5	1.72e-04	0	44	102	23068672	20	5474
2026-01-07 22:54:24.33	127.50	18.22	-30.0	-33.3	12.8	8.23e-05	0	44	102	23068672	20	5255
2026-01-07 22:54:25.34	127.69	18.15	-29.8	-32.9	13.1	3.58e-05	0	44	102	23068672	20	5095
2026-01-07 22:54:26.35	127.88	18.08	-29.8	-32.6	13.3	1.98e-05	0	44	102	23068672	20	5001
2026-01-07 22:54:27.35	128.07	18.01	-29.8	-32.7	13.1	2.05e-05	0	44	102	23068672	20	5048
2026-01-07 22:54:28.36	128.26	17.93	-29.9	-33.0	13.0	2.51e-05	0	44	102	23068672	20	5151
2026-01-07 22:54:29.37	128.45	17.86	-30.1	-33.6	12.6	7.09e-05	0	44	102	23068672	20	5394
2026-01-07 22:54:30.36	128.63	17.79	-30.3	-34.0	12.3	1.30e-04	0	44	102	23068672	20	5560
2026-01-07 22:54:31.37	128.82	17.71	-30.3	-34.2	12.2	2.29e-04	0	44	102	23068672	20	5629
2026-01-07 22:54:32.37	129.01	17.64	-30.2	-33.8	12.4	1.72e-04	0	44	102	23068672	20	5474
2026-01-07 22:54:33.38	129.19	17.57	-30.0	-33.2	12.9	8.01e-05	0	44	102	23068672	20	5207
2026-01-07 22:54:34.39	129.38	17.49	-29.8	-32.7	13.2	3.28e-05	0	44	102	23068672	20	5037
2026-01-07 22:54:35.40	129.56	17.42	-29.7	-32.5	13.3	1.75e-05	0	44	102	23068672	20	4961
2026-01-07 22:54:36.40	129.74	17.35	-29.7	-32.5	13.3	2.13e-05	0	43	102	23068672	20	4943
2026-01-07 22:54:37.41	129.92	17.27	-29.7	-32.3	13.4	9.10e-06	0	44	102	23068672	20	4882
2026-01-07 22:54:38.41	130.10	17.20	-29.9	-32.9	13.0	2.51e-05	0	44	102	23068672	20	5102
2026-01-07 22:54:39.42	130.28	17.12	-30.1	-33.7	12.5	7.78e-05	0	44	102	23068672	20	5418
2026-01-07 22:54:40.43	130.46	17.05	-30.4	-34.6	11.8	2.71e-04	0	44	102	23068672	20	5834
2026-01-07 22:54:41.44	130.64	16.98	-30.6	-34.7	11.4	6.50e-04	0	44	102	23068672	21	5766
2026-01-07 22:54:42.45	130.82	16.90	-30.7	-35.1	11.1	1.73e-03	0	44	102	23068672	21	5962
2026-01-07 22:54:43.46	130.99	16.83	-30.6	-34.5	11.5	1.32e-03	0	44	102	23068672	21	5695
2026-01-07 22:54:44.46	131.17	16.75	-30.3	-33.7	12.1	6.21e-04	0	44	102	23068672	21	5320
2026-01-07 22:54:45.47	131.34	16.68	-30.0	-32.8	12.7	1.43e-04	0	44	102	23068672	21	4978
2026-01-07 22:54:46.47	131.51	16.61	-29.9	-32.4	12.9	4.88e-05	0	44	102	23068672	21	4847
2026-01-07 22:54:47.48	131.69	16.53	-29.9	-32.6	12.8	4.50e-05	0	44	102	23068672	21	4892
2026-01-07 22:54:48.49	131.86	16.46	-30.0	-32.8	12.6	9.99e-05	0	44	102	23068672	21	4973
2026-01-07 22:54:49.50	132.03	16.38	-30.0	-32.9	12.6	7.55e-05	0	44	102	23068672	21	5024
2026-01-07 22:54:50.51	132.20	16.31	-30.1	-33.3	12.3	1.76e-04	0	43	102	23068672	21	5172
2026-01-07 22:54:51.52	132.37	16.23	-30.2	-33.4	12.2	3.07e-04	0	44	102	23068672	21	5228
2026-01-07 22:54:52.52	132.54	16.16	-30.2	-33.4	12.2	2.48e-04	0	44	102	23068672	21	5236
2026-01-07 22:54:53.53	132.71	16.09	-30.1	-33.2	12.3	3.17e-04	0	44	102	23068672	21	5134
2026-01-07 22:54:54.53	132.87	16.01	-30.1	-33.7	12.3	1.56e-04	0	44	102	23068672	20	5468
2026-01-07 22:54:55.54	133.04	15.94	-30.0	-33.4	12.5	1.54e-04	0	44	102	23068672	20	5339
2026-01-07 22:54:56.55	133.21	15.86	-30.0	-33.4	12.6	3.34e-04	0	43	102	23068672	20	5305
2026-01-07 22:54:57.55	133.37	15.79	-30.0	-33.5	12.5	4.49e-04	0	43	102	23068672	20	5359
2026-01-07 22:54:58.55	133.53	15.72	-29.9	-33.2	12.7	1.16e-04	0	44	102	23068672	20	5236
2026-01-07 22:54:59.55	133.69	15.64	-30.0	-33.4	12.5	3.00e-04	0	44	102	23068672	20	5307
2026-01-07 22:55:00.56	133.86	15.57	-30.1	-33.6	12.3	2.37e-04	0	44	102	23068672	20	5421
2026-01-07 22:55:01.57	134.02	15.49	-30.1	-33.7	12.2	2.04e-04	0	44	102	23068672	20	5465
2026-01-07 22:55:02.58	134.18	15.42	-30.1	-33.8	12.2	2.41e-04	0	43	102	23068672	20	5500
2026-01-07 22:55:03.59	134.34	15.35	-30.0	-33.7	12.2	3.17e-04	0	44	102	23068672	20	5472
2026-01-07 22:55:04.60	134.50	15.27	-29.9	-33.2	12.5	1.66e-04	0	44	102	23068672	20	5305
2026-01-07 22:55:05.60	134.66	15.20	-29.8	-33.1	12.6	1.42e-04	0	44	102	23068672	20	5246
2026-01-07 22:55:06.60	134.81	15.12	-29.7	-32.8	12.7	1.47e-04	0	44	102	23068672	20	5149
2026-01-07 22:55:07.60	134.97	15.05	-29.7	-32.8	12.7	7.47e-05	0	44	102	23068672	20	5136
2026-01-07 22:55:08.61	135.13	14.98	-29.7	-32.8	12.8	6.94e-05	0	44	102	23068672	20	5119
2026-01-07 22:55:09.61	135.28	14.90	-29.8	-32.9	12.7	1.34e-04	0	44	102	23068672	20	5159
2026-01-07 22:55:10.62	135.44	14.83	-29.9	-33.2	12.5	9.30e-05	0	44	102	23068672	20	5287
2026-01-07 22:55:11.62	135.59	14.75	-30.0	-33.4	12.4	2.11e-04	0	44	102	23068672	20	5347
2026-01-07 22:55:12.63	135.74	14.68	-30.0	-33.5	12.4	2.08e-04	0	44	102	23068672	20	5379
2026-01-07 22:55:13.64	135.90	14.61	-30.1	-33.7	12.1	1.84e-04	0	44	102	23068672	20	5481
2026-01-07 22:55:14.64	136.05	14.53	-30.0	-33.6	12.2	3.72e-04	0	44	102	23068672	20	5416
2026-01-07 22:55:15.65	136.20	14.46	-29.9	-33.3	12.4	1.47e-04	0	44	102	23068672	20	5296
2026-01-07 22:55:16.66	136.35	14.39	-29.8	-33.0	12.6	9.76e-05	0	44	102	23068672	20	5208
2026-01-07 22:55:17.67	136.50	14.31	-29.8	-33.1	12.6	2.12e-04	0	44	102	23068672	20	5235
2026-01-07 22:55:18.68	136.65	14.24	-29.9	-33.3	12.4	1.39e-04	0	44	102	23068672	20	5312
2026-01-07 22:55:19.68	136.79	14.16	-29.8	-33.0	12.6	1.54e-04	0	44	102	23068672	20	5203
2026-01-07 22:55:20.69	136.94	14.09	-29.7	-32.7	12.8	1.33e-04	0	44	102	23068672	20	5093
2026-01-07 22:55:21.69	137.09	14.02	-29.7	-32.6	12.8	5.72e-05	0	44	102	23068672	20	5053
2026-01-07 22:55:22.69	137.23	13.94	-29.7	-32.7	12.8	7.24e-05	0	44	102	23068672	20	5079
2026-01-07 22:55:23.69	137.38	13.87	-29.7	-32.6	12.8	6.94e-05	0	44	102	23068672	20	5048
2026-01-07 22:55:24.70	137.52	13.80	-29.7	-32.6	12.8	8.85e-05	0	44	102	23068672	20	5060
2026-01-07 22:55:25.70	137.67	13.73	-29.7	-32.7	12.8	8.54e-05	0	44	102	23068672	20	5068
2026-01-07 22:55:26.71	137.81	13.65	-29.7	-32.9	12.6	8.85e-05	0	44	102	23068672	20	5151
2026-01-07 22:55:27.72	137.95	13.58	-29.8	-33.1	12.4	1.72e-04	0	44	102	23068672	20	5263
2026-01-07 22:55:28.72	138.09	13.51	-29.8	-33.0	12.5	1.03e-04	0	44	102	23068672	20	5229
2026-01-07 22:55:29.72	138.23	13.43	-29.9	-33.3	12.3	1.72e-04	0	44	102	23068672	20	5335
2026-01-07 22:55:30.73	138.37	13.36	-29.9	-33.4	12.3	2.63e-04	0	44	102	23068672	20	5364
2026-01-07 22:55:31.74	138.51	13.29	-29.9	-33.4	12.2	1.71e-04	0	44	102	23068672	20	5370
2026-01-07 22:55:32.74	138.65	13.22	-30.1	-34.0	11.8	3.18e-04	0	44	102	23068672	20	5619
2026-01-07 22:55:33.74	138.79	13.14	-30.1	-34.1	11.7	7.07e-04	0	43	102	23068672	20	5677
2026-01-07 22:55:34.75	138.93	13.07	-30.2	-34.2	11.6	5.54e-04	0	43	102	23068672	20	5732
2026-01-07 22:55:35.76	139.07	13.00	-30.2	-34.4	11.5	8.95e-04	0	44	102	23068672	20	5842
2026-01-07 22:55:36.77	139.20	12.92	-30.2	-34.4	11.5	9.06e-04	0	44	102	23068672	20	5802
2026-01-07 22:55:37.77	139.34	12.85	-30.3	-34.6	11.3	9.73e-04	0	44	102	23068672	20	5922
2026-01-07 22:55:38.78	139.47	12.78	-30.3	-34.6	11.3	1.12e-03	0	44	102	23068672	20	5905
2026-01-07 22:55:39.79	139.61	12.71	-30.2	-34.2	11.6	8.28e-04	0	44	102	23068672	20	5738
2026-01-07 22:55:40.79	139.74	12.64	-30.2	-34.4	11.5	7.52e-04	0	44	102	23068672	20	5806
2026-01-07 22:55:41.80	139.88	12.56	-30.2	-34.2	11.6	7.93e-04	0	44	102	23068672	20	5722
2026-01-07 22:55:42.81	140.01	12.49	-30.3	-34.5	11.4	7.45e-04	0	44	102	23068672	20	5851
2026-01-07 22:55:43.82	140.14	12.42	-30.2	-34.2	11.6	1.07e-03	0	44	102	23068672	20	5732
2026-01-07 22:55:44.82	140.27	12.35	-30.0	-33.6	11.9	5.77e-04	0	44	102	23068672	20	5499
2026-01-07 22:55:45.83	140.40	12.27	-29.9	-33.5	12.0	3.27e-04	0	44	102	23068672	20	5457
2026-01-07 22:55:46.84	140.53	12.20	-30.0	-33.7	11.9	3.83e-04	0	44	102	23068672	20	5527
2026-01-07 22:55:47.85	140.66	12.13	-29.9	-33.4	12.0	4.04e-04	0	44	102	23068672	20	5413
2026-01-07 22:55:48.86	140.79	12.06	-29.9	-33.5	12.0	3.13e-04	0	44	102	23068672	20	5445
2026-01-07 22:55:49.86	140.92	11.99	-30.1	-34.1	11.5	5.43e-04	0	44	102	23068672	20	5699
2026-01-07 22:55:50.87	141.05	11.92	-30.1	-34.0	11.4	7.51e-04	0	43	102	23068672	20	5671
2026-01-07 22:55:51.88	141.18	11.84	-30.2	-34.5	11.2	1.05e-03	0	44	102	23068672	20	5886
2026-01-07 22:55:52.89	141.30	11.77	-30.2	-34.4	11.1	1.36e-03	0	44	102	23068672	20	5827
2026-01-07 22:55:53.89	141.43	11.70	-30.3	-34.9	10.8	1.37e-03	0	44	102	23068672	20	6105
2026-01-07 22:55:54.90	141.56	11.63	-30.5	-35.0	10.5	3.01e-03	0	44	102	23068672	21	6014
2026-01-07 22:55:55.90	141.68	11.56	-30.5	-35.0	10.3	4.47e-03	0	44	102	23068672	21	6049
2026-01-07 22:55:56.91	141.80	11.49	-30.6	-35.4	10.1	5.99e-03	0	44	102	23068672	21	6263
2026-01-07 22:55:57.92	141.93	11.42	-30.6	-35.5	9.9	7.81e-03	0	44	102	23068672	21	6323
2026-01-07 22:55:58.93	142.05	11.35	-30.7	-35.7	9.8	9.40e-03	0	44	102	23068672	21	6430
2026-01-07 22:55:59.94	142.17	11.28	-30.7	-35.9	9.6	1.15e-02	0	44	102	23068672	21	6557
2026-01-07 22:56:00.94	142.30	11.21	-30.8	-36.3	9.3	1.53e-02	0	44	102	23068672	21	6745
2026-01-07 22:56:01.95	142.42	11.13	-30.7	-35.9	9.6	1.51e-02	0	44	102	23068672	21	6561
2026-01-07 22:56:02.95	142.54	11.06	-30.6	-35.5	9.9	1.07e-02	0	44	102	23068672	21	6344
2026-01-07 22:56:03.95	142.66	10.99	-30.5	-35.2	10.1	8.63e-03	0	44	102	23068672	21	6169
2026-01-07 22:56:04.96	142.78	10.92	-30.5	-35.5	10.2	6.10e-03	0	44	102	23068672	20	6465
2026-01-07 22:56:05.97	142.90	10.85	-30.5	-35.6	10.1	6.28e-03	0	44	102	23068672	20	6510
2026-01-07 22:56:06.98	143.02	10.78	-30.4	-35.5	10.2	6.44e-03	0	44	102	23068672	20	6458
2026-01-07 22:56:07.98	143.13	10.71	-30.5	-35.1	10.1	6.54e-03	0	44	102	23068672	21	6161
2026-01-07 22:56:08.99	143.25	10.64	-30.6	-35.4	9.9	8.98e-03	0	44	102	23068672	21	6309
2026-01-07 22:56:09.99	143.37	10.57	-30.5	-35.3	10.0	9.27e-03	0	44	102	23068672	21	6232
2026-01-07 22:56:11.00	143.48	10.50	-30.5	-35.2	10.1	7.36e-03	0	44	102	23068672	21	6172
2026-01-07 22:56:12.00	143.60	10.44	-30.5	-35.6	10.1	6.74e-03	0	44	102	23068672	20	6533
2026-01-07 22:56:13.01	143.72	10.37	-30.5	-35.6	10.1	6.88e-03	0	44	102	23068672	20	6539
2026-01-07 22:56:14.02	143.83	10.30	-30.4	-35.4	10.2	5.74e-03	0	44	102	23068672	20	6434
2026-01-07 22:56:15.03	143.95	10.23	-30.4	-35.5	10.1	7.11e-03	0	44	102	23068672	20	6492
2026-01-07 22:56:16.04	144.06	10.16	-30.4	-35.7	9.9	8.56e-03	0	44	102	23068672	20	6656
2026-01-07 22:56:17.04	144.17	10.09	-30.3	-35.1	10.3	6.56e-03	0	44	102	23068672	20	6323
2026-01-07 22:56:18.05	144.29	10.02	-30.2	-34.9	10.5	4.26e-03	0	44	102	23068672	20	6224
2026-01-07 22:56:19.05	144.40	9.95	-30.2	-34.8	10.6	3.82e-03	0	44	102	23068672	20	6143
2026-01-07 22:56:20.05	144.51	9.88	-30.2	-34.8	10.5	3.95e-03	0	44	102	23068672	20	6173
2026-01-07 22:56:21.05	144.62	9.81	-30.2	-34.9	10.5	3.72e-03	0	44	102	23068672	20	6164
2026-01-07 22:56:22.06	144.73	9.75	-30.2	-34.9	10.5	3.97e-03	0	44	102	23068672	20	6177
2026-01-07 22:56:23.07	144.84	9.68	-30.2	-34.9	10.5	4.20e-03	0	44	102	23068672	20	6185
2026-01-07 22:56:24.08	144.95	9.61	-30.3	-35.3	10.2	5.54e-03	0	44	102	23068672	20	6377
2026-01-07 22:56:25.08	145.06	9.54	-30.3	-35.1	10.4	4.94e-03	0	44	102	23068672	20	6265
2026-01-07 22:56:26.09	145.17	9.47	-30.3	-35.2	10.4	6.23e-03	0	44	102	23068672	20	6285
2026-01-07 22:56:27.10	145.28	9.40	-30.4	-35.4	10.1	6.71e-03	0	44	102	23068672	20	6445
2026-01-07 22:56:28.11	145.38	9.33	-30.4	-35.4	10.2	6.41e-03	0	44	102	23068672	20	6436
2026-01-07 22:56:29.11	145.49	9.27	-30.4	-35.5	10.0	9.00e-03	0	44	102	23068672	20	6487
2026-01-07 22:56:30.11	145.60	9.20	-30.4	-35.4	10.1	8.13e-03	0	44	102	23068672	20	6449
2026-01-07 22:56:31.12	145.70	9.13	-30.3	-35.3	10.3	6.19e-03	0	43	102	23068672	20	6396
2026-01-07 22:56:32.12	145.81	9.06	-30.4	-35.6	10.0	8.43e-03	0	44	102	23068672	20	6520
2026-01-07 22:56:33.13	145.92	9.00	-30.3	-35.0	10.4	6.82e-03	0	44	102	23068672	20	6254
2026-01-07 22:56:34.14	146.02	8.93	-30.2	-34.8	10.5	4.22e-03	0	44	102	23068672	20	6153
2026-01-07 22:56:35.15	146.13	8.86	-30.1	-34.7	10.5	5.08e-03	0	44	102	23068672	20	6136
2026-01-07 22:56:36.15	146.23	8.79	-30.1	-34.7	10.6	4.90e-03	0	43	102	23068672	20	6130
2026-01-07 22:56:37.15	146.33	8.73	-30.1	-34.8	10.5	3.98e-03	0	43	102	23068672	20	6172
2026-01-07 22:56:38.15	146.43	8.66	-30.1	-34.8	10.4	5.68e-03	0	43	102	23068672	20	6184
2026-01-07 22:56:39.16	146.54	8.59	-30.2	-35.2	10.1	7.98e-03	0	44	102	23068672	20	6396
2026-01-07 22:56:40.17	146.64	8.53	-30.1	-34.8	10.4	5.38e-03	0	44	102	23068672	20	6188
2026-01-07 22:56:41.17	146.74	8.46	-30.0	-34.4	10.7	5.96e-03	0	43	102	23068672	20	6014
2026-01-07 22:56:42.18	146.84	8.39	-30.0	-34.5	10.6	3.40e-03	0	44	102	23068672	20	6076
2026-01-07 22:56:43.19	146.94	8.33	-30.0	-34.6	10.5	3.46e-03	0	44	102	23068672	20	6160
2026-01-07 22:56:44.19	147.04	8.26	-30.0	-35.0	10.1	7.72e-03	0	44	102	23068672	20	6390
2026-01-07 22:56:45.20	147.14	8.19	-29.9	-34.6	10.4	5.28e-03	0	44	102	23068672	20	6163
2026-01-07 22:56:46.20	147.24	8.13	-29.8	-34.1	10.8	3.49e-03	0	44	102	23068672	20	5927
2026-01-07 22:56:47.21	147.34	8.06	-29.8	-34.6	10.9	4.30e-03	0	44	102	23068672	19	6264
2026-01-07 22:56:48.21	147.44	8.00	-29.9	-35.1	10.4	3.83e-03	0	43	102	23068672	19	6565
2026-01-07 22:56:49.22	147.54	7.93	-29.9	-34.9	10.6	3.68e-03	0	44	102	23068672	19	6438
2026-01-07 22:56:50.23	147.64	7.86	-30.0	-35.3	10.3	6.39e-03	0	44	102	23068672	19	6635
2026-01-07 22:56:51.24	147.74	7.80	-30.0	-35.3	10.4	7.12e-03	0	44	102	23068672	19	6622
2026-01-07 22:56:52.24	147.83	7.73	-30.0	-35.0	10.1	5.85e-03	0	43	102	23068672	20	6391
2026-01-07 22:56:53.25	147.93	7.67	-30.2	-35.5	9.8	9.62e-03	0	44	102	23068672	20	6623
2026-01-07 22:56:54.26	148.02	7.60	-30.1	-35.1	10.1	1.11e-02	0	43	102	23068672	20	6391
2026-01-07 22:56:55.27	148.12	7.54	-30.1	-35.2	10.0	7.92e-03	0	44	102	23068672	20	6440
2026-01-07 22:56:56.27	148.22	7.47	-30.3	-35.6	9.7	9.51e-03	0	44	102	23068672	20	6649
2026-01-07 22:56:57.28	148.31	7.41	-30.3	-35.6	9.6	1.42e-02	0	44	102	23068672	20	6682
2026-01-07 22:56:58.29	148.41	7.34	-30.0	-35.0	10.0	8.16e-03	0	44	102	23068672	20	6404
2026-01-07 22:56:59.29	148.50	7.28	-29.8	-34.5	10.3	6.18e-03	0	44	102	23068672	20	6181
2026-01-07 22:57:00.31	148.59	7.21	-29.7	-35.0	10.4	4.10e-03	0	44	102	23068672	19	6565
2026-01-07 22:57:01.31	148.69	7.15	-29.8	-35.2	10.3	5.93e-03	0	44	102	23068672	19	6666
2026-01-07 22:57:02.32	148.78	7.08	-31.7	-43.1	4.6	8.53e-03	0	44	102	23068672	23	13399
2026-01-07 22:57:03.33	148.87	7.02	-32.4	-47.1	3.8	1.49e+00	0	44	104	23068672	24	19558

#Closed at: 2026-01-07 22:57:03
#Recorded file [23 MB]: D:/data/31010_260108_014643.dat