passes_logs/2026/01/07/R2M6_AANII_01/R2M6_AANII_01__20260107_045154_FENGYUN_3E_rec.log

#Pass ID: 20260107_045154_FENGYUN 3E
#Satellite: FENGYUN 3E
#Configuration: FENGYUN 3E
#almurnet v.1.7.20240730
#Start time: 2026-01-07 04:55:19

#Version: 2.2.20231116
#Station: R2M6_AANII_01
#Location: 30.233357 lon 59.946436 lat
#TLE: 1 49008U 21062A   26006.26767912  .00000427  00000+0  22170-3 0  9993
#TLE: 2 49008  98.7475  11.4982 0001602 156.1158 204.0093 14.19885456233607

#Time	Az	El	Level	Level2	SNR	BER	BlckErr	Temp	State	Recorded	gain1	gain2
2026-01-07 04:55:19.30	11.53	31.70	-33.1	-44.3	3.8	8.45e-01	0	43	0	0	26	13056
2026-01-07 04:55:20.30	11.47	31.90	-33.8	-43.4	3.8	8.46e-01	0	44	104	0	27	10880
2026-01-07 04:55:21.31	11.40	32.11	-33.8	-43.5	3.8	8.47e-01	0	43	104	0	27	10943
2026-01-07 04:55:22.32	11.34	32.31	-33.8	-43.5	3.8	8.47e-01	0	43	104	0	27	10981
2026-01-07 04:55:23.33	11.27	32.52	-33.8	-43.5	3.8	8.45e-01	0	43	104	0	27	10972
2026-01-07 04:55:24.34	11.20	32.72	-33.9	-43.6	3.8	8.46e-01	0	43	104	0	27	11006
2026-01-07 04:55:25.34	11.13	32.93	-33.9	-43.6	3.8	8.45e-01	0	43	104	0	27	10998
2026-01-07 04:55:26.34	11.06	33.14	-33.9	-43.5	3.8	8.46e-01	0	44	104	0	27	10975
2026-01-07 04:55:27.35	10.99	33.35	-33.9	-43.6	3.8	8.45e-01	0	43	104	0	27	10978
2026-01-07 04:55:28.36	10.92	33.56	-33.9	-43.6	3.8	8.45e-01	0	43	104	0	27	11019
2026-01-07 04:55:29.37	10.85	33.77	-33.9	-43.5	3.8	8.47e-01	0	44	104	0	27	10946
2026-01-07 04:55:30.37	10.77	33.99	-33.8	-43.5	3.8	8.45e-01	0	43	104	0	27	10958
2026-01-07 04:55:31.37	10.70	34.20	-33.8	-43.5	3.8	8.46e-01	0	43	104	0	27	10972
2026-01-07 04:55:32.38	10.62	34.42	-33.8	-43.5	3.8	8.46e-01	0	43	104	0	27	10927
2026-01-07 04:55:33.39	10.55	34.64	-33.8	-43.5	3.8	8.46e-01	0	43	104	0	27	10933
2026-01-07 04:55:34.39	10.47	34.86	-33.8	-43.5	3.8	8.45e-01	0	43	104	0	27	10965
2026-01-07 04:55:35.40	10.39	35.08	-33.8	-43.5	3.8	8.47e-01	0	44	104	0	27	10941
2026-01-07 04:55:36.41	10.31	35.31	-33.8	-43.5	3.8	8.46e-01	0	44	104	0	27	10951
2026-01-07 04:55:37.42	10.23	35.53	-33.9	-43.6	3.8	8.45e-01	0	44	104	0	27	11024
2026-01-07 04:55:38.42	10.15	35.76	-33.9	-43.6	3.8	8.47e-01	0	44	104	0	27	11024
2026-01-07 04:55:39.43	10.06	35.99	-33.9	-43.7	3.8	8.46e-01	0	43	104	0	27	11091
2026-01-07 04:55:40.43	9.98	36.22	-33.9	-43.7	3.8	8.47e-01	0	43	104	0	27	11101
2026-01-07 04:55:41.44	9.89	36.45	-33.9	-43.6	3.8	8.47e-01	0	44	104	0	27	11046
2026-01-07 04:55:42.45	9.80	36.68	-33.9	-43.6	3.8	8.46e-01	0	44	104	0	27	11040
2026-01-07 04:55:43.46	9.71	36.92	-33.9	-43.6	3.8	8.47e-01	0	44	104	0	27	11051
2026-01-07 04:55:44.47	9.62	37.15	-33.2	-42.9	3.8	8.47e-01	0	44	104	0	27	10979
2026-01-07 04:55:45.47	9.53	37.39	-33.8	-43.4	3.8	8.47e-01	0	44	104	0	27	10860
2026-01-07 04:55:46.48	9.44	37.63	-33.7	-43.0	3.8	8.47e-01	0	44	104	0	27	10462
2026-01-07 04:55:47.47	9.35	37.87	-33.6	-42.5	3.8	8.46e-01	0	44	104	0	26	10112
2026-01-07 04:55:48.48	9.25	38.11	-33.6	-42.1	3.8	8.45e-01	0	43	104	0	27	9584
2026-01-07 04:55:49.49	9.15	38.36	-33.6	-42.1	3.8	8.46e-01	0	44	104	0	27	9637
2026-01-07 04:55:50.49	9.05	38.60	-33.6	-42.3	3.8	8.47e-01	0	44	104	0	27	9815
2026-01-07 04:55:51.50	8.95	38.85	-33.6	-42.5	3.8	8.46e-01	0	44	104	0	27	10007
2026-01-07 04:55:52.51	8.85	39.10	-33.6	-42.4	3.8	8.46e-01	0	44	104	0	27	9834
2026-01-07 04:55:53.52	8.75	39.35	-33.6	-42.3	3.8	8.46e-01	0	44	104	0	26	9805
2026-01-07 04:55:54.53	8.64	39.61	-33.4	-41.3	3.8	8.45e-01	0	44	104	0	26	8908
2026-01-07 04:55:55.53	8.53	39.86	-33.3	-40.4	4.1	8.44e-01	0	44	104	0	26	8164
2026-01-07 04:55:56.54	8.42	40.12	-33.2	-40.0	3.9	8.43e-01	0	44	104	0	26	7925
2026-01-07 04:55:57.55	8.31	40.38	-33.3	-40.4	4.1	8.42e-01	0	43	104	0	26	8186
2026-01-07 04:55:58.55	8.20	40.63	-33.4	-41.5	3.8	8.45e-01	0	44	104	0	26	9099
2026-01-07 04:55:59.55	8.09	40.89	-33.6	-42.4	3.8	8.45e-01	0	44	104	0	26	9951
2026-01-07 04:56:00.57	7.97	41.16	-33.6	-42.3	3.8	8.45e-01	0	44	104	0	27	9820
2026-01-07 04:56:01.57	7.85	41.42	-33.6	-42.3	3.8	8.46e-01	0	44	104	0	27	9782
2026-01-07 04:56:02.58	7.73	41.69	-33.5	-42.2	3.8	8.46e-01	0	44	104	0	26	9766
2026-01-07 04:56:03.58	7.61	41.96	-33.4	-41.0	3.8	8.45e-01	0	44	104	0	26	8700
2026-01-07 04:56:04.59	7.48	42.23	-33.0	-39.1	4.3	8.38e-01	0	44	104	0	26	7233
2026-01-07 04:56:05.60	7.36	42.50	-32.6	-37.5	5.0	8.02e-01	0	44	0	0	25	6361
2026-01-07 04:56:06.60	7.23	42.78	-32.3	-36.9	5.6	6.87e-01	0	44	0	0	24	6094
2026-01-07 04:56:07.61	7.10	43.05	-32.4	-37.3	5.4	7.20e-01	0	44	0	0	24	6296
2026-01-07 04:56:08.62	6.96	43.33	-31.6	-34.9	7.0	2.53e-01	0	44	102	1048576	23	5257
2026-01-07 04:56:09.63	6.83	43.61	-29.2	-30.3	11.3	1.16e-02	0	44	102	1048576	19	4103
2026-01-07 04:56:10.64	6.69	43.90	-26.7	-27.0	14.5	3.40e-06	0	44	102	1048576	14	3752
2026-01-07 04:56:11.65	6.54	44.18	-25.6	-26.2	15.9	7.49e-04	0	44	102	1048576	11	3865
2026-01-07 04:56:12.65	6.40	44.47	-24.9	-24.8	16.6	0.00e+00	0	44	102	1048576	11	3530
2026-01-07 04:56:13.66	6.25	44.75	-25.8	-26.7	15.6	0.00e+00	0	44	102	1048576	11	3971
2026-01-07 04:56:14.67	6.11	45.05	-26.5	-27.6	14.7	0.00e+00	0	44	102	1048576	12	4102
2026-01-07 04:56:15.68	5.95	45.34	-26.0	-26.6	15.3	0.00e+00	0	44	102	1048576	12	3844
2026-01-07 04:56:16.68	5.80	45.63	-26.3	-27.1	15.0	0.00e+00	0	44	102	1048576	12	3980
2026-01-07 04:56:17.69	5.64	45.93	-25.9	-26.3	15.4	0.00e+00	0	44	102	1048576	12	3790
2026-01-07 04:56:18.70	5.48	46.22	-25.4	-25.8	16.0	0.00e+00	0	44	102	1048576	11	3765
2026-01-07 04:56:19.70	5.32	46.52	-25.1	-25.1	16.4	0.00e+00	0	44	102	1048576	11	3599
2026-01-07 04:56:20.71	5.15	46.82	-24.8	-24.9	16.8	0.00e+00	0	44	102	1048576	10	3664
2026-01-07 04:56:21.71	4.98	47.12	-24.6	-25.2	16.9	0.00e+00	0	43	102	1048576	9	3819
2026-01-07 04:56:22.73	4.80	47.43	-25.2	-25.7	16.4	0.00e+00	0	44	102	1048576	10	3849
2026-01-07 04:56:23.73	4.62	47.74	-25.0	-25.4	16.6	0.00e+00	0	44	102	1048576	10	3761
2026-01-07 04:56:24.73	4.44	48.04	-24.6	-25.0	17.0	0.00e+00	0	44	102	1048576	9	3791
2026-01-07 04:56:25.74	4.26	48.35	-24.4	-24.5	17.2	0.00e+00	0	44	102	1048576	9	3675
2026-01-07 04:56:26.74	4.07	48.67	-24.1	-24.4	17.6	0.00e+00	0	44	102	1048576	8	3750
2026-01-07 04:56:27.75	3.88	48.98	-24.4	-25.0	17.2	0.00e+00	0	44	102	1048576	8	3898
2026-01-07 04:56:28.75	3.68	49.29	-24.4	-24.6	17.2	0.00e+00	0	44	102	1048576	9	3690
2026-01-07 04:56:29.76	3.48	49.61	-24.3	-24.5	17.3	0.00e+00	0	44	102	1048576	9	3672
2026-01-07 04:56:30.77	3.27	49.93	-24.6	-25.1	17.0	0.00e+00	0	44	102	1048576	9	3805
2026-01-07 04:56:31.77	3.07	50.25	-24.7	-25.2	16.9	0.00e+00	0	44	102	1048576	9	3825
2026-01-07 04:56:32.78	2.85	50.58	-24.8	-25.5	16.8	0.00e+00	0	44	102	1048576	9	3888
2026-01-07 04:56:33.78	2.63	50.90	-24.7	-25.2	17.0	0.00e+00	0	44	102	1048576	9	3825
2026-01-07 04:56:34.79	2.41	51.23	-24.9	-25.1	16.8	0.00e+00	0	44	102	1048576	10	3705
2026-01-07 04:56:35.80	2.18	51.56	-24.4	-24.6	17.2	0.00e+00	0	44	102	1048576	9	3695
2026-01-07 04:56:36.80	1.94	51.89	-24.0	-24.2	17.7	0.00e+00	0	44	102	1048576	8	3689
2026-01-07 04:56:37.81	1.70	52.22	-23.7	-23.7	17.9	0.00e+00	0	44	102	1048576	8	3594
2026-01-07 04:56:38.82	1.46	52.56	-23.7	-24.0	18.0	0.00e+00	0	44	102	1048576	7	3766
2026-01-07 04:56:39.83	1.21	52.90	-23.7	-24.1	18.0	0.00e+00	0	44	102	1048576	7	3792
2026-01-07 04:56:40.82	0.95	53.23	-24.0	-24.3	17.7	0.00e+00	0	44	102	1048576	8	3722
2026-01-07 04:56:41.83	0.69	53.57	-24.4	-25.2	17.2	0.00e+00	0	44	102	1048576	8	3925
2026-01-07 04:56:42.84	0.42	53.91	-24.7	-25.2	16.9	0.00e+00	0	44	102	1048576	9	3838
2026-01-07 04:56:43.84	0.14	54.25	-25.1	-26.1	16.5	0.00e+00	0	44	102	1048576	9	4052
2026-01-07 04:56:44.85	359.86	54.60	-24.9	-25.3	16.5	0.00e+00	0	44	102	1048576	10	3743
2026-01-07 04:56:45.86	359.57	54.95	-24.7	-24.7	17.0	0.00e+00	0	44	102	1048576	10	3604
2026-01-07 04:56:46.86	359.28	55.29	-24.4	-24.6	17.3	0.00e+00	0	44	102	1048576	9	3680
2026-01-07 04:56:47.87	358.97	55.64	-24.2	-24.6	17.5	0.00e+00	0	44	102	1048576	8	3802
2026-01-07 04:56:48.88	358.66	55.99	-24.1	-24.6	17.5	0.00e+00	0	44	102	1048576	8	3786
2026-01-07 04:56:49.89	358.33	56.35	-24.7	-25.2	16.9	0.00e+00	0	44	102	1048576	9	3824
2026-01-07 04:56:50.90	358.01	56.70	-24.4	-24.7	17.2	0.00e+00	0	44	102	1048576	9	3705
2026-01-07 04:56:51.90	357.67	57.05	-24.8	-25.6	16.8	0.00e+00	0	44	102	1048576	9	3916
2026-01-07 04:56:52.92	357.32	57.41	-25.1	-25.7	16.4	0.00e+00	0	44	102	1048576	10	3836
2026-01-07 04:56:53.92	356.97	57.77	-24.7	-24.8	16.9	0.00e+00	0	44	102	1048576	10	3628
2026-01-07 04:56:54.93	356.60	58.13	-24.8	-25.4	16.9	0.00e+00	0	44	102	1048576	9	3876
2026-01-07 04:56:55.94	356.22	58.49	-24.8	-25.6	16.7	0.00e+00	0	44	102	1048576	9	3911
2026-01-07 04:56:56.95	355.83	58.85	-24.8	-25.6	16.8	0.00e+00	0	44	102	1048576	9	3910
2026-01-07 04:56:57.95	355.44	59.21	-24.6	-25.1	17.0	0.00e+00	0	44	102	1048576	9	3801
2026-01-07 04:56:58.95	355.04	59.57	-24.9	-25.7	16.7	0.00e+00	0	44	102	1048576	9	3938
2026-01-07 04:56:59.96	354.61	59.93	-24.6	-25.0	17.1	0.00e+00	0	44	102	1048576	9	3768
2026-01-07 04:57:00.96	354.19	60.29	-24.0	-24.2	17.8	0.00e+00	0	44	102	1048576	8	3704
2026-01-07 04:57:01.96	353.74	60.65	-24.0	-24.3	17.7	0.00e+00	0	44	102	1048576	8	3712
2026-01-07 04:57:02.97	353.29	61.02	-24.3	-25.0	17.3	0.00e+00	0	44	102	1048576	8	3882
2026-01-07 04:57:03.97	352.82	61.38	-24.2	-24.7	17.5	0.00e+00	0	44	102	1048576	8	3817
2026-01-07 04:57:04.98	352.33	61.75	-24.1	-24.5	17.6	0.00e+00	0	44	102	1048576	8	3775
2026-01-07 04:57:05.99	351.83	62.11	-24.2	-24.7	17.4	0.00e+00	0	44	102	1048576	8	3824
2026-01-07 04:57:06.99	351.32	62.48	-24.0	-24.4	17.6	0.00e+00	0	44	102	1048576	8	3740
2026-01-07 04:57:08.00	350.79	62.84	-23.6	-23.4	18.1	0.00e+00	0	44	102	1048576	8	3516
2026-01-07 04:57:09.01	350.24	63.21	-23.2	-23.6	17.0	0.00e+00	0	44	102	1048576	6	3780
2026-01-07 04:57:10.02	349.67	63.57	-23.1	-23.5	18.6	0.00e+00	0	44	102	1048576	6	3737
2026-01-07 04:57:11.02	349.09	63.94	-23.5	-23.7	18.0	0.00e+00	0	44	102	1048576	7	3700
2026-01-07 04:57:12.03	348.49	64.30	-23.6	-23.9	18.0	0.00e+00	0	44	102	1048576	7	3740
2026-01-07 04:57:13.04	347.87	64.66	-23.3	-23.4	18.4	0.00e+00	0	44	102	1048576	7	3622
2026-01-07 04:57:14.05	347.23	65.03	-23.1	-23.4	18.6	0.00e+00	0	44	102	1048576	6	3731
2026-01-07 04:57:15.05	346.57	65.39	-23.0	-23.3	18.6	4.40e-04	0	44	102	1048576	6	3695
2026-01-07 04:57:16.06	345.88	65.75	-22.6	-22.4	19.1	0.00e+00	0	44	102	1048576	6	3518
2026-01-07 04:57:17.06	345.18	66.10	-22.8	-23.3	18.9	6.58e-04	0	44	102	1048576	5	3813
2026-01-07 04:57:18.07	344.45	66.46	-22.8	-23.3	18.9	7.35e-04	0	44	102	1048576	5	3811
2026-01-07 04:57:19.07	343.70	66.81	-23.1	-23.9	18.6	0.00e+00	0	44	102	1048576	5	3944
2026-01-07 04:57:20.08	342.91	67.16	-22.7	-23.0	19.0	8.31e-04	0	44	102	1048576	5	3750
2026-01-07 04:57:21.08	342.11	67.51	-22.7	-23.1	19.0	0.00e+00	0	44	102	1048576	5	3771
2026-01-07 04:57:22.07	341.29	67.85	-22.5	-22.7	19.1	0.00e+00	0	44	102	1048576	5	3666
2026-01-07 04:57:23.08	340.43	68.19	-23.4	-23.9	18.3	8.25e-04	0	44	102	1048576	6	3852
2026-01-07 04:57:24.09	339.53	68.53	-23.1	-23.5	18.3	0.00e+00	0	44	102	1048576	6	3753
2026-01-07 04:57:25.09	338.61	68.86	-23.1	-23.3	18.6	0.00e+00	0	44	102	1048576	6	3711
2026-01-07 04:57:26.10	337.65	69.20	-23.1	-23.3	18.7	2.37e-04	0	44	102	1048576	6	3707
2026-01-07 04:57:27.10	336.67	69.52	-23.2	-23.5	18.5	8.00e-06	0	44	102	1048576	6	3752
2026-01-07 04:57:28.11	335.64	69.84	-23.4	-23.9	18.3	0.00e+00	0	44	102	1048576	6	3850
2026-01-07 04:57:29.12	334.58	70.16	-23.7	-24.2	18.0	0.00e+00	0	44	102	1048576	7	3816
2026-01-07 04:57:30.12	333.49	70.47	-23.3	-23.4	18.4	9.61e-05	0	44	102	1048576	7	3623
2026-01-07 04:57:31.13	332.35	70.78	-22.9	-23.1	18.6	0.00e+00	0	44	102	1048576	6	3664
2026-01-07 04:57:32.14	331.18	71.08	-22.7	-23.2	19.0	4.87e-04	0	44	102	1048576	5	3775
2026-01-07 04:57:33.14	329.97	71.37	-22.7	-23.1	19.0	6.76e-04	0	44	102	1048576	5	3756
2026-01-07 04:57:34.15	328.72	71.65	-22.8	-23.2	18.9	0.00e+00	0	44	102	1048576	5	3791
2026-01-07 04:57:35.16	327.42	71.93	-22.7	-23.0	19.0	5.83e-04	0	44	102	1048576	5	3742
2026-01-07 04:57:36.17	326.08	72.20	-22.6	-22.9	19.1	0.00e+00	0	44	102	1048576	5	3715
2026-01-07 04:57:37.17	324.71	72.46	-22.7	-23.0	19.0	0.00e+00	0	44	102	1048576	5	3737
2026-01-07 04:57:38.18	323.28	72.71	-22.8	-23.2	18.9	0.00e+00	0	44	102	1048576	5	3778
2026-01-07 04:57:39.19	321.81	72.95	-22.3	-22.3	19.4	0.00e+00	0	44	102	1048576	5	3582
2026-01-07 04:57:40.19	320.31	73.18	-22.4	-22.5	19.2	0.00e+00	0	44	102	1048576	5	3633
2026-01-07 04:57:41.20	318.75	73.40	-22.5	-22.7	19.1	0.00e+00	0	44	102	1048576	5	3663
2026-01-07 04:57:42.20	317.17	73.60	-22.5	-22.7	19.1	0.00e+00	0	44	102	1048576	5	3676
2026-01-07 04:57:43.21	315.53	73.80	-22.6	-22.9	19.1	0.00e+00	0	44	102	1048576	5	3724
2026-01-07 04:57:44.21	313.86	73.98	-22.7	-23.1	19.0	0.00e+00	0	44	102	1048576	5	3758
2026-01-07 04:57:45.22	312.14	74.15	-22.6	-22.8	19.1	0.00e+00	0	44	102	1048576	5	3693
2026-01-07 04:57:46.22	310.40	74.31	-22.3	-22.3	19.4	0.00e+00	0	44	102	1048576	5	3589
2026-01-07 04:57:47.22	308.63	74.45	-22.3	-22.2	19.4	0.00e+00	0	44	102	1048576	5	3569
2026-01-07 04:57:48.23	306.80	74.57	-22.5	-22.6	19.2	0.00e+00	0	44	102	1048576	5	3652
2026-01-07 04:57:49.24	304.95	74.69	-22.4	-22.5	19.3	0.00e+00	0	44	102	1048576	5	3619
2026-01-07 04:57:50.24	303.09	74.78	-22.5	-22.7	19.2	0.00e+00	0	44	102	1048576	5	3675
2026-01-07 04:57:51.25	301.18	74.86	-22.5	-22.6	19.2	0.00e+00	0	44	102	1048576	5	3657
2026-01-07 04:57:52.26	299.26	74.93	-22.5	-22.6	19.2	0.00e+00	0	44	102	1048576	5	3654
2026-01-07 04:57:53.27	297.32	74.97	-22.2	-22.0	19.5	0.00e+00	0	44	102	1048576	5	3521
2026-01-07 04:57:54.27	295.39	75.00	-22.2	-22.6	19.5	0.00e+00	0	44	102	1048576	4	3747
2026-01-07 04:57:55.28	293.44	75.02	-22.3	-22.7	19.4	0.00e+00	0	44	102	1048576	4	3779
2026-01-07 04:57:56.29	291.48	75.02	-22.2	-22.5	19.5	0.00e+00	0	44	102	1048576	4	3737
2026-01-07 04:57:57.30	289.53	75.00	-22.4	-23.1	19.2	0.00e+00	0	44	102	1048576	4	3863
2026-01-07 04:57:58.30	287.60	74.96	-22.4	-22.5	19.2	0.00e+00	0	44	102	1048576	5	3623
2026-01-07 04:57:59.31	285.66	74.91	-22.5	-22.7	19.2	0.00e+00	0	44	102	1048576	5	3666
2026-01-07 04:58:00.32	283.75	74.84	-22.4	-22.5	19.3	0.00e+00	0	44	102	1048576	5	3629
2026-01-07 04:58:01.33	281.85	74.76	-22.6	-22.8	19.1	0.00e+00	0	44	102	1048576	5	3689
2026-01-07 04:58:02.33	279.99	74.66	-22.7	-23.0	19.0	0.00e+00	0	44	102	1048576	5	3734
2026-01-07 04:58:03.33	278.16	74.54	-22.9	-23.5	18.8	0.00e+00	0	44	102	1048576	5	3858
2026-01-07 04:58:04.34	276.34	74.41	-22.9	-23.5	18.7	0.00e+00	0	43	102	1048576	5	3865
2026-01-07 04:58:05.35	274.56	74.26	-22.9	-23.5	18.8	0.00e+00	0	44	102	1048576	5	3856
2026-01-07 04:58:06.35	272.83	74.10	-22.7	-23.0	19.0	3.40e-06	0	44	102	1048576	5	3747
2026-01-07 04:58:07.36	271.12	73.93	-22.7	-23.0	19.0	0.00e+00	0	44	102	1048576	5	3747
2026-01-07 04:58:08.37	269.45	73.74	-22.4	-22.5	19.2	0.00e+00	0	44	102	1048576	5	3634
2026-01-07 04:58:09.38	267.82	73.54	-22.4	-22.5	19.2	0.00e+00	0	44	102	1048576	5	3632
2026-01-07 04:58:10.38	266.25	73.33	-22.5	-22.7	19.1	0.00e+00	0	44	102	1048576	5	3674
2026-01-07 04:58:11.39	264.70	73.11	-22.9	-23.5	18.7	0.00e+00	0	44	102	1048576	5	3855
2026-01-07 04:58:12.39	263.22	72.88	-23.0	-23.2	18.6	0.00e+00	0	44	102	1048576	6	3679
2026-01-07 04:58:13.39	261.77	72.64	-22.8	-22.9	18.8	0.00e+00	0	44	102	1048576	6	3616
2026-01-07 04:58:14.40	260.36	72.38	-22.7	-23.1	19.0	0.00e+00	0	44	102	1048576	5	3756
2026-01-07 04:58:15.41	258.98	72.12	-23.1	-23.9	18.5	1.10e-06	0	44	102	1048576	5	3940
2026-01-07 04:58:16.42	257.65	71.85	-23.4	-24.1	18.2	0.00e+00	0	44	102	1048576	6	3880
2026-01-07 04:58:17.43	256.37	71.57	-23.4	-24.0	18.2	0.00e+00	0	44	102	1048576	6	3864
2026-01-07 04:58:18.43	255.13	71.28	-23.6	-24.0	18.0	0.00e+00	0	44	102	1048576	7	3757
2026-01-07 04:58:19.44	253.93	70.99	-23.3	-23.3	18.3	0.00e+00	0	44	102	1048576	7	3610
2026-01-07 04:58:20.45	252.76	70.68	-23.1	-23.4	18.5	0.00e+00	0	44	102	1048576	6	3740
2026-01-07 04:58:21.45	251.65	70.38	-22.8	-22.7	18.9	0.00e+00	0	44	102	1048576	6	3565
2026-01-07 04:58:22.46	250.56	70.06	-22.8	-22.7	18.9	0.00e+00	0	44	102	1048576	6	3577
2026-01-07 04:58:23.47	249.50	69.74	-22.9	-23.0	18.7	0.00e+00	0	44	102	1048576	6	3630
2026-01-07 04:58:24.47	248.49	69.42	-23.1	-23.4	18.4	0.00e+00	0	44	102	1048576	6	3731
2026-01-07 04:58:25.48	247.51	69.09	-23.2	-23.7	18.4	0.00e+00	0	44	102	1048576	6	3801
2026-01-07 04:58:26.48	246.57	68.76	-23.0	-23.3	18.4	0.00e+00	0	44	102	1048576	6	3698
2026-01-07 04:58:27.48	245.66	68.42	-22.6	-22.4	19.0	0.00e+00	0	44	102	1048576	6	3499
2026-01-07 04:58:28.49	244.77	68.08	-22.7	-22.5	19.0	0.00e+00	0	44	102	1048576	6	3528
2026-01-07 04:58:29.50	243.91	67.74	-22.9	-23.5	18.5	0.00e+00	0	44	102	1048576	5	3870
2026-01-07 04:58:30.51	243.08	67.39	-22.8	-23.3	18.8	0.00e+00	0	44	102	1048576	5	3810
2026-01-07 04:58:31.52	242.28	67.04	-22.6	-22.9	18.9	1.25e-03	0	44	102	1048576	5	3729
2026-01-07 04:58:32.52	241.51	66.69	-22.6	-23.0	19.0	0.00e+00	0	44	102	1048576	5	3739
2026-01-07 04:58:33.53	240.76	66.33	-22.4	-22.5	19.2	0.00e+00	0	44	102	1048576	5	3629
2026-01-07 04:58:34.53	240.04	65.98	-22.6	-22.8	19.1	0.00e+00	0	44	102	1048576	5	3690
2026-01-07 04:58:35.54	239.34	65.62	-22.8	-23.2	18.8	0.00e+00	0	44	102	1048576	5	3794
2026-01-07 04:58:36.55	238.66	65.25	-22.9	-23.4	18.7	5.70e-06	0	44	102	1048576	5	3832
2026-01-07 04:58:37.56	238.00	64.89	-23.2	-23.6	18.4	0.00e+00	0	44	102	1048576	6	3769
2026-01-07 04:58:38.56	237.37	64.53	-23.3	-23.8	18.2	1.24e-03	0	44	102	1048576	6	3817
2026-01-07 04:58:39.57	236.76	64.17	-23.0	-23.3	18.6	0.00e+00	0	44	102	1048576	6	3701
2026-01-07 04:58:40.58	236.16	63.80	-23.2	-23.6	18.4	0.00e+00	0	44	102	1048576	6	3775
2026-01-07 04:58:41.58	235.59	63.44	-23.3	-23.9	18.3	1.13e-03	0	44	102	1048576	6	3837
2026-01-07 04:58:42.59	235.02	63.07	-23.6	-23.9	18.0	0.00e+00	0	44	102	1048576	7	3731
2026-01-07 04:58:43.59	234.48	62.71	-23.8	-24.3	17.8	1.25e-03	0	44	102	1048576	7	3827
2026-01-07 04:58:44.60	233.96	62.34	-23.8	-24.4	17.7	1.18e-03	0	44	102	1048576	7	3844
2026-01-07 04:58:45.61	233.44	61.97	-23.7	-24.2	17.8	0.00e+00	0	44	102	1048576	7	3799
2026-01-07 04:58:46.62	232.95	61.60	-23.8	-24.5	17.7	1.17e-03	0	44	102	1048576	7	3862
2026-01-07 04:58:47.62	232.47	61.24	-23.9	-24.7	17.5	1.22e-03	0	44	102	1048576	7	3914
2026-01-07 04:58:48.63	232.00	60.87	-24.3	-24.9	17.3	3.40e-06	0	44	102	1048576	8	3864
2026-01-07 04:58:49.64	231.55	60.51	-24.4	-25.1	17.1	1.25e-03	0	44	102	1048576	8	3908
2026-01-07 04:58:50.64	231.11	60.14	-24.2	-24.7	17.3	1.04e-03	0	44	102	1048576	8	3803
2026-01-07 04:58:51.64	230.68	59.78	-24.2	-24.7	17.3	0.00e+00	0	44	102	1048576	8	3819
2026-01-07 04:58:52.65	230.27	59.42	-24.3	-25.0	17.2	0.00e+00	0	44	102	1048576	8	3883
2026-01-07 04:58:53.66	229.86	59.05	-24.3	-25.0	17.1	3.12e-04	0	44	102	1048576	8	3892
2026-01-07 04:58:54.67	229.47	58.69	-24.6	-25.1	16.8	0.00e+00	0	44	102	1048576	9	3819
2026-01-07 04:58:55.67	229.09	58.33	-24.6	-25.0	16.9	3.07e-04	0	44	102	1048576	9	3772
2026-01-07 04:58:56.68	228.71	57.97	-24.3	-24.3	17.3	3.67e-04	0	44	102	1048576	9	3636
2026-01-07 04:58:57.68	228.35	57.61	-24.0	-23.9	17.4	0.00e+00	0	44	102	1048576	9	3545
2026-01-07 04:58:58.69	228.00	57.26	-24.2	-24.7	17.3	2.70e-04	0	44	102	1048576	8	3816
2026-01-07 04:58:59.70	227.65	56.90	-24.5	-25.4	17.0	0.00e+00	0	44	102	1048576	8	3977
2026-01-07 04:59:00.70	227.32	56.54	-24.5	-25.4	16.9	0.00e+00	0	44	102	1048576	8	3970
2026-01-07 04:59:01.71	226.99	56.19	-24.5	-24.9	16.9	0.00e+00	0	44	102	1048576	9	3752
2026-01-07 04:59:02.71	226.68	55.84	-24.4	-24.7	17.0	0.00e+00	0	44	102	1048576	9	3708
2026-01-07 04:59:03.72	226.36	55.49	-24.4	-24.7	17.0	0.00e+00	0	44	102	1048576	9	3722
2026-01-07 04:59:04.73	226.06	55.14	-24.3	-24.5	17.2	0.00e+00	0	44	102	1048576	9	3672
2026-01-07 04:59:05.74	225.76	54.79	-24.2	-24.2	17.3	0.00e+00	0	44	102	1048576	9	3599
2026-01-07 04:59:06.74	225.48	54.44	-24.0	-23.8	17.4	0.00e+00	0	44	102	1048576	9	3516
2026-01-07 04:59:07.74	225.20	54.10	-24.1	-23.9	17.4	0.00e+00	0	44	102	1048576	9	3543
2026-01-07 04:59:08.76	224.92	53.75	-24.4	-24.6	17.1	0.00e+00	0	44	102	1048576	9	3697
2026-01-07 04:59:09.77	224.65	53.41	-24.0	-23.8	17.5	0.00e+00	0	44	102	1048576	9	3510
2026-01-07 04:59:10.77	224.39	53.07	-23.8	-23.8	17.8	0.00e+00	0	44	102	1048576	8	3625
2026-01-07 04:59:11.78	224.14	52.73	-24.1	-24.5	17.4	0.00e+00	0	44	102	1048576	8	3783
2026-01-07 04:59:12.79	223.89	52.39	-24.2	-24.8	17.2	0.00e+00	0	44	102	1048576	8	3846
2026-01-07 04:59:13.79	223.64	52.06	-24.3	-25.0	17.1	0.00e+00	0	44	102	1048576	8	3889
2026-01-07 04:59:14.80	223.40	51.73	-24.2	-24.8	17.2	0.00e+00	0	44	102	1048576	8	3854
2026-01-07 04:59:15.80	223.17	51.40	-24.4	-25.1	17.0	0.00e+00	0	44	102	1048576	8	3927
2026-01-07 04:59:16.80	222.95	51.07	-24.5	-25.4	16.7	0.00e+00	0	44	102	1048576	8	3985
2026-01-07 04:59:17.80	222.73	50.74	-24.5	-25.3	17.0	0.00e+00	0	43	102	1048576	8	3958
2026-01-07 04:59:18.81	222.51	50.42	-24.8	-25.5	16.5	0.00e+00	0	44	102	1048576	9	3896
2026-01-07 04:59:19.82	222.29	50.09	-24.6	-25.1	16.7	0.00e+00	0	44	102	1048576	9	3817
2026-01-07 04:59:20.83	222.08	49.77	-24.5	-24.8	16.9	0.00e+00	0	44	102	1048576	9	3751
2026-01-07 04:59:21.83	221.88	49.45	-24.4	-24.7	17.0	0.00e+00	0	44	102	1048576	9	3725
2026-01-07 04:59:22.84	221.68	49.13	-24.3	-24.4	17.1	0.00e+00	0	43	102	1048576	9	3658
2026-01-07 04:59:23.85	221.48	48.81	-24.1	-24.5	17.4	0.00e+00	0	44	102	1048576	8	3786
2026-01-07 04:59:24.86	221.29	48.50	-24.0	-24.3	17.4	0.00e+00	0	44	102	1048576	8	3732
2026-01-07 04:59:25.85	221.10	48.19	-24.0	-24.4	17.4	0.00e+00	0	44	102	1048576	8	3753
2026-01-07 04:59:26.86	220.92	47.88	-23.9	-24.2	17.4	0.00e+00	0	44	102	1048576	8	3702
2026-01-07 04:59:27.86	220.74	47.57	-23.8	-23.8	17.7	0.00e+00	0	44	102	1048576	8	3624
2026-01-07 04:59:28.87	220.56	47.26	-23.7	-24.1	17.8	0.00e+00	0	44	102	1048576	7	3789
2026-01-07 04:59:29.88	220.39	46.95	-23.4	-23.5	18.1	0.00e+00	0	44	102	1048576	7	3653
2026-01-07 04:59:30.89	220.22	46.65	-23.2	-23.1	18.3	0.00e+00	0	44	102	1048576	7	3572
2026-01-07 04:59:31.90	220.05	46.35	-23.3	-23.3	18.2	0.00e+00	0	44	102	1048576	7	3613
2026-01-07 04:59:32.90	219.89	46.05	-23.5	-24.3	17.9	0.00e+00	0	44	102	1048576	6	3944
2026-01-07 04:59:33.91	219.73	45.75	-23.4	-23.6	18.0	0.00e+00	0	44	102	1048576	7	3670
2026-01-07 04:59:34.91	219.57	45.46	-23.2	-23.7	18.2	0.00e+00	0	44	102	1048576	6	3804
2026-01-07 04:59:35.92	219.42	45.16	-23.4	-24.0	18.1	0.00e+00	0	44	102	1048576	6	3873
2026-01-07 04:59:36.93	219.26	44.87	-23.4	-24.0	18.0	0.00e+00	0	44	102	1048576	6	3871
2026-01-07 04:59:37.94	219.11	44.58	-23.1	-23.4	18.2	0.00e+00	0	44	102	1048576	6	3740
2026-01-07 04:59:38.94	218.97	44.29	-23.0	-23.3	18.4	0.00e+00	0	44	102	1048576	6	3707
2026-01-07 04:59:39.94	218.83	44.01	-23.1	-23.4	18.3	0.00e+00	0	44	102	1048576	6	3742
2026-01-07 04:59:40.95	218.69	43.72	-22.9	-23.1	18.5	0.00e+00	0	44	102	1048576	6	3661
2026-01-07 04:59:41.95	218.55	43.44	-22.9	-23.0	18.6	0.00e+00	0	44	102	1048576	6	3645
2026-01-07 04:59:42.96	218.41	43.16	-23.0	-23.2	18.3	0.00e+00	0	44	102	1048576	6	3681
2026-01-07 04:59:43.97	218.28	42.88	-22.9	-23.1	18.5	0.00e+00	0	44	102	1048576	6	3656
2026-01-07 04:59:44.98	218.15	42.60	-22.9	-23.0	18.6	0.00e+00	0	44	102	1048576	6	3643
2026-01-07 04:59:45.98	218.02	42.33	-23.0	-23.2	18.4	0.00e+00	0	44	102	1048576	6	3678
2026-01-07 04:59:46.98	217.89	42.06	-22.8	-22.8	18.7	0.00e+00	0	44	102	1048576	6	3594
2026-01-07 04:59:47.98	217.77	41.79	-22.6	-22.4	18.7	0.00e+00	0	44	102	1048576	6	3504
2026-01-07 04:59:48.99	217.65	41.52	-22.8	-22.8	18.6	0.00e+00	0	44	102	1048576	6	3607
2026-01-07 04:59:49.99	217.53	41.25	-22.8	-22.7	18.5	0.00e+00	0	44	102	1048576	6	3585
2026-01-07 04:59:51.00	217.41	40.99	-23.1	-23.9	18.3	0.00e+00	0	44	102	1048576	5	3961
2026-01-07 04:59:52.02	217.29	40.72	-23.1	-23.3	18.4	0.00e+00	0	44	102	1048576	6	3714
2026-01-07 04:59:53.02	217.18	40.46	-23.1	-23.4	18.3	0.00e+00	0	44	102	1048576	6	3730
2026-01-07 04:59:54.02	217.07	40.20	-23.2	-23.6	18.2	0.00e+00	0	44	102	1048576	6	3780
2026-01-07 04:59:55.03	216.96	39.94	-23.0	-23.3	18.4	0.00e+00	0	44	102	1048576	6	3705
2026-01-07 04:59:56.04	216.85	39.68	-23.0	-23.2	18.4	0.00e+00	0	44	102	1048576	6	3689
2026-01-07 04:59:57.05	216.74	39.43	-22.8	-22.7	18.7	0.00e+00	0	44	102	1048576	6	3578
2026-01-07 04:59:58.04	216.63	39.18	-22.5	-22.5	14.7	0.00e+00	0	44	102	1048576	6	3611
2026-01-07 04:59:59.05	216.53	38.93	-22.7	-22.7	18.7	0.00e+00	0	44	102	1048576	6	3571
2026-01-07 05:00:00.06	216.43	38.67	-22.6	-22.3	18.9	0.00e+00	0	43	102	1048576	6	3494
2026-01-07 05:00:01.07	216.33	38.43	-22.6	-22.8	18.8	0.00e+00	0	44	102	1048576	5	3696
2026-01-07 05:00:02.08	216.23	38.18	-22.6	-22.9	18.8	0.00e+00	0	44	102	1048576	5	3723
2026-01-07 05:00:03.08	216.13	37.94	-22.7	-23.0	18.7	0.00e+00	0	44	102	1048576	5	3755
2026-01-07 05:00:04.09	216.04	37.69	-22.8	-23.3	18.6	0.00e+00	0	44	102	1048576	5	3814
2026-01-07 05:00:05.09	215.94	37.45	-22.8	-23.3	18.6	8.96e-04	0	44	102	1048576	5	3815
2026-01-07 05:00:06.10	215.85	37.21	-23.1	-23.4	18.3	0.00e+00	0	44	102	1048576	6	3727
2026-01-07 05:00:07.11	215.76	36.97	-23.0	-23.3	18.3	9.97e-04	0	44	102	1048576	6	3722
2026-01-07 05:00:08.12	215.67	36.73	-23.2	-23.7	18.2	1.02e-03	0	44	102	1048576	6	3794
2026-01-07 05:00:09.13	215.58	36.50	-23.2	-23.7	18.1	0.00e+00	0	44	102	1048576	6	3808
2026-01-07 05:00:10.14	215.49	36.26	-23.3	-23.9	18.0	9.39e-04	0	44	102	1048576	6	3861
2026-01-07 05:00:11.15	215.40	36.03	-23.3	-23.8	18.1	8.27e-04	0	44	102	1048576	6	3828
2026-01-07 05:00:12.16	215.32	35.80	-23.2	-23.6	18.2	0.00e+00	0	44	102	1048576	6	3780
2026-01-07 05:00:13.16	215.23	35.57	-23.1	-23.4	18.3	8.50e-04	0	44	102	1048576	6	3730
2026-01-07 05:00:14.16	215.15	35.35	-23.1	-23.5	18.2	7.69e-04	0	44	102	1048576	6	3770
2026-01-07 05:00:15.17	215.07	35.12	-22.8	-22.8	18.6	0.00e+00	0	44	102	1048576	6	3609
2026-01-07 05:00:16.18	214.99	34.90	-22.7	-22.6	18.7	0.00e+00	0	44	102	1048576	6	3567
2026-01-07 05:00:17.19	214.91	34.67	-22.8	-22.8	18.6	9.68e-04	0	44	102	1048576	6	3609
2026-01-07 05:00:18.19	214.83	34.45	-22.5	-22.2	18.9	0.00e+00	0	44	102	1048576	6	3468
2026-01-07 05:00:19.20	214.75	34.23	-22.4	-22.4	19.0	9.11e-04	0	44	102	1048576	5	3617
2026-01-07 05:00:20.21	214.68	34.02	-22.4	-22.6	18.9	9.26e-04	0	44	102	1048576	5	3649
2026-01-07 05:00:21.21	214.60	33.80	-22.6	-22.8	18.8	0.00e+00	0	44	102	1048576	5	3708
2026-01-07 05:00:22.21	214.53	33.59	-22.4	-22.5	18.9	8.06e-04	0	44	102	1048576	5	3637
2026-01-07 05:00:23.22	214.46	33.37	-22.6	-22.9	18.8	0.00e+00	0	44	102	1048576	5	3718
2026-01-07 05:00:24.23	214.39	33.16	-22.7	-23.1	18.6	0.00e+00	0	44	102	1048576	5	3770
2026-01-07 05:00:25.24	214.31	32.95	-22.8	-23.2	18.6	2.52e-04	0	44	102	1048576	5	3798
2026-01-07 05:00:26.25	214.24	32.74	-22.8	-23.3	18.5	0.00e+00	0	44	102	1048576	5	3825
2026-01-07 05:00:27.26	214.17	32.53	-22.9	-23.5	18.4	0.00e+00	0	44	102	1048576	5	3858
2026-01-07 05:00:28.26	214.11	32.32	-22.9	-23.5	18.4	0.00e+00	0	44	102	1048576	5	3865
2026-01-07 05:00:29.27	214.04	32.12	-23.0	-23.2	18.1	0.00e+00	0	44	102	1048576	6	3694
2026-01-07 05:00:30.28	213.97	31.91	-22.8	-22.7	18.5	0.00e+00	0	44	102	1048576	6	3584
2026-01-07 05:00:31.28	213.91	31.71	-22.7	-23.0	18.6	0.00e+00	0	44	102	1048576	5	3754
2026-01-07 05:00:32.29	213.84	31.51	-22.7	-23.1	18.6	0.00e+00	0	44	102	1048576	5	3765
2026-01-07 05:00:33.29	213.78	31.31	-22.6	-23.0	18.7	0.00e+00	0	44	102	1048576	5	3743
2026-01-07 05:00:34.30	213.72	31.11	-22.7	-23.1	18.6	0.00e+00	0	44	102	1048576	5	3767
2026-01-07 05:00:35.32	213.65	30.91	-22.8	-23.2	18.5	0.00e+00	0	44	102	1048576	5	3804
2026-01-07 05:00:36.32	213.59	30.72	-22.6	-23.0	18.7	0.00e+00	0	44	102	1048576	5	3736
2026-01-07 05:00:37.33	213.53	30.52	-22.7	-23.1	18.6	0.00e+00	0	44	102	1048576	5	3777
2026-01-07 05:00:38.34	213.47	30.33	-22.9	-23.4	18.3	0.00e+00	0	44	102	1048576	5	3848
2026-01-07 05:00:39.35	213.41	30.14	-22.8	-23.4	18.4	0.00e+00	0	44	102	1048576	5	3829
2026-01-07 05:00:40.36	213.35	29.94	-22.8	-23.3	18.5	0.00e+00	0	44	102	1048576	5	3822
2026-01-07 05:00:41.36	213.30	29.76	-22.9	-23.5	18.4	0.00e+00	0	44	102	1048576	5	3867
2026-01-07 05:00:42.37	213.24	29.57	-23.1	-23.9	18.1	0.00e+00	0	44	102	1048576	5	3961
2026-01-07 05:00:43.38	213.18	29.38	-23.3	-23.8	18.0	0.00e+00	0	44	102	1048576	6	3820
2026-01-07 05:00:44.38	213.13	29.19	-23.1	-23.5	18.1	0.00e+00	0	44	102	1048576	6	3754
2026-01-07 05:00:45.39	213.07	29.01	-23.1	-23.5	18.1	0.00e+00	0	44	102	1048576	6	3748
2026-01-07 05:00:46.40	213.02	28.83	-23.1	-23.5	18.1	0.00e+00	0	44	102	1048576	6	3768
2026-01-07 05:00:47.41	212.96	28.64	-23.2	-23.6	18.1	0.00e+00	0	44	102	1048576	6	3771
2026-01-07 05:00:48.41	212.91	28.46	-23.2	-23.6	18.1	0.00e+00	0	44	102	1048576	6	3780
2026-01-07 05:00:49.42	212.86	28.28	-23.2	-23.7	18.1	0.00e+00	0	44	102	1048576	6	3794
2026-01-07 05:00:50.42	212.81	28.10	-23.1	-23.5	18.1	0.00e+00	0	44	102	1048576	6	3770
2026-01-07 05:00:51.43	212.76	27.92	-23.1	-23.5	18.1	0.00e+00	0	44	102	1048576	6	3755
2026-01-07 05:00:52.44	212.71	27.75	-23.1	-23.4	18.2	0.00e+00	0	44	102	1048576	6	3735
2026-01-07 05:00:53.45	212.66	27.57	-23.0	-23.3	18.3	0.00e+00	0	44	102	1048576	6	3708
2026-01-07 05:00:54.45	212.61	27.40	-23.0	-23.2	18.3	0.00e+00	0	44	102	1048576	6	3681
2026-01-07 05:00:55.46	212.56	27.22	-22.9	-23.1	18.3	0.00e+00	0	44	102	1048576	6	3671
2026-01-07 05:00:56.47	212.51	27.05	-23.0	-23.1	18.3	0.00e+00	0	44	102	1048576	6	3679
2026-01-07 05:00:57.48	212.46	26.88	-23.1	-23.4	18.2	0.00e+00	0	44	102	1048576	6	3731
2026-01-07 05:00:58.48	212.42	26.71	-23.1	-23.3	18.2	0.00e+00	0	44	102	1048576	6	3720
2026-01-07 05:00:59.49	212.37	26.54	-23.1	-23.5	18.1	0.00e+00	0	44	102	1048576	6	3748
2026-01-07 05:01:00.50	212.32	26.37	-23.0	-23.2	18.3	0.00e+00	0	44	102	1048576	6	3687
2026-01-07 05:01:01.50	212.28	26.20	-23.1	-23.3	18.1	0.00e+00	0	44	102	1048576	6	3725
2026-01-07 05:01:02.51	212.23	26.04	-23.1	-23.4	18.1	0.00e+00	0	44	102	1048576	6	3745
2026-01-07 05:01:03.51	212.19	25.87	-23.1	-23.5	18.0	0.00e+00	0	44	102	1048576	6	3768
2026-01-07 05:01:04.51	212.14	25.71	-23.2	-23.7	18.0	0.00e+00	0	44	102	1048576	6	3802
2026-01-07 05:01:05.52	212.10	25.55	-23.2	-23.7	18.0	0.00e+00	0	44	102	1048576	6	3813
2026-01-07 05:01:06.52	212.06	25.39	-23.3	-23.9	17.9	0.00e+00	0	44	102	1048576	6	3845
2026-01-07 05:01:07.53	212.01	25.22	-23.3	-23.9	17.9	0.00e+00	0	44	102	1048576	6	3852
2026-01-07 05:01:08.54	211.97	25.06	-23.3	-24.0	17.9	0.00e+00	0	44	102	1048576	6	3865
2026-01-07 05:01:09.55	211.93	24.90	-23.5	-24.2	17.6	0.00e+00	0	44	102	1048576	6	3925
2026-01-07 05:01:10.56	211.89	24.74	-23.4	-24.2	17.7	0.00e+00	0	43	102	1048576	6	3918
2026-01-07 05:01:11.56	211.85	24.59	-23.4	-24.1	17.8	0.00e+00	0	44	102	1048576	6	3892
2026-01-07 05:01:12.57	211.81	24.43	-23.5	-24.3	17.6	0.00e+00	0	44	102	1048576	6	3946
2026-01-07 05:01:13.58	211.77	24.27	-23.7	-24.2	17.4	0.00e+00	0	44	102	1048576	7	3820
2026-01-07 05:01:14.59	211.73	24.12	-23.7	-24.3	17.4	0.00e+00	0	44	102	1048576	7	3829
2026-01-07 05:01:15.59	211.69	23.97	-23.5	-23.7	17.7	0.00e+00	0	44	102	1048576	7	3708
2026-01-07 05:01:16.59	211.65	23.81	-23.3	-23.4	17.8	0.00e+00	0	44	102	1048576	7	3631
2026-01-07 05:01:17.60	211.61	23.66	-23.4	-23.5	17.8	0.00e+00	0	44	102	1048576	7	3657
2026-01-07 05:01:18.61	211.57	23.51	-23.3	-23.3	17.9	0.00e+00	0	44	102	1048576	7	3608
2026-01-07 05:01:19.60	211.54	23.36	-23.2	-23.2	17.9	0.00e+00	0	44	102	1048576	7	3583
2026-01-07 05:01:20.61	211.50	23.21	-23.2	-23.1	18.0	0.00e+00	0	44	102	1048576	7	3558
2026-01-07 05:01:21.62	211.46	23.06	-23.1	-23.5	18.0	0.00e+00	0	44	102	1048576	6	3767
2026-01-07 05:01:22.63	211.43	22.91	-23.1	-23.4	18.1	0.00e+00	0	44	102	1048576	6	3735
2026-01-07 05:01:23.64	211.39	22.77	-23.1	-23.4	18.1	0.00e+00	0	44	102	1048576	6	3735
2026-01-07 05:01:24.64	211.35	22.62	-23.0	-23.3	18.1	0.00e+00	0	44	102	1048576	6	3713
2026-01-07 05:01:25.65	211.32	22.47	-23.0	-23.3	18.1	7.27e-04	0	44	102	1048576	6	3720
2026-01-07 05:01:26.66	211.28	22.33	-23.1	-23.5	18.0	0.00e+00	0	44	102	1048576	6	3757
2026-01-07 05:01:27.66	211.25	22.19	-23.1	-23.5	18.0	7.57e-04	0	44	102	1048576	6	3767
2026-01-07 05:01:28.67	211.22	22.04	-23.2	-23.7	17.9	8.42e-04	0	44	102	1048576	6	3805
2026-01-07 05:01:29.67	211.18	21.90	-23.2	-23.7	17.9	0.00e+00	0	44	102	1048576	6	3795
2026-01-07 05:01:30.68	211.15	21.76	-23.1	-23.4	18.0	8.34e-04	0	44	102	1048576	6	3742
2026-01-07 05:01:31.68	211.12	21.62	-23.2	-23.6	17.9	2.78e-04	0	44	102	1048576	6	3778
2026-01-07 05:01:32.68	211.08	21.48	-23.1	-23.5	18.0	0.00e+00	0	44	102	1048576	6	3758
2026-01-07 05:01:33.69	211.05	21.34	-23.2	-23.6	17.9	9.27e-04	0	44	102	1048576	6	3787
2026-01-07 05:01:34.70	211.02	21.20	-23.4	-24.1	17.6	8.78e-04	0	44	102	1048576	6	3894
2026-01-07 05:01:35.71	210.99	21.07	-23.5	-24.2	17.6	0.00e+00	0	44	102	1048576	6	3921
2026-01-07 05:01:36.71	210.95	20.93	-23.3	-24.0	17.7	1.16e-03	0	44	102	1048576	6	3869
2026-01-07 05:01:37.72	210.92	20.79	-23.2	-23.7	17.8	1.30e-03	0	44	102	1048576	6	3816
2026-01-07 05:01:38.73	210.89	20.66	-23.3	-23.9	17.8	0.00e+00	0	44	102	1048576	6	3846
2026-01-07 05:01:39.74	210.86	20.52	-23.3	-23.9	17.7	1.31e-03	0	44	102	1048576	6	3860
2026-01-07 05:01:40.74	210.83	20.39	-23.3	-23.9	17.7	1.29e-03	0	44	102	1048576	6	3852
2026-01-07 05:01:41.75	210.80	20.25	-23.4	-24.2	17.6	0.00e+00	0	44	102	1048576	6	3920
2026-01-07 05:01:42.76	210.77	20.12	-23.4	-24.0	17.7	1.27e-03	0	44	102	1048576	6	3877
2026-01-07 05:01:43.76	210.74	19.99	-23.3	-24.0	17.7	0.00e+00	0	44	102	1048576	6	3872
2026-01-07 05:01:44.77	210.71	19.86	-23.3	-24.0	17.7	0.00e+00	0	44	102	1048576	6	3862
2026-01-07 05:01:45.77	210.68	19.73	-23.5	-24.4	17.5	1.16e-03	0	44	102	1048576	6	3959
2026-01-07 05:01:46.78	210.65	19.60	-23.6	-24.0	17.4	0.00e+00	0	44	102	1048576	7	3763
2026-01-07 05:01:47.79	210.62	19.47	-23.5	-23.8	17.5	0.00e+00	0	44	102	1048576	7	3729
2026-01-07 05:01:48.80	210.60	19.34	-23.5	-23.8	17.5	0.00e+00	0	44	102	1048576	7	3724
2026-01-07 05:01:49.80	210.57	19.21	-23.6	-23.9	17.4	0.00e+00	0	44	102	1048576	7	3753
2026-01-07 05:01:50.81	210.54	19.09	-23.6	-23.9	17.4	0.00e+00	0	44	102	1048576	7	3759
2026-01-07 05:01:51.82	210.51	18.96	-23.6	-24.0	17.4	0.00e+00	0	44	102	1048576	7	3760
2026-01-07 05:01:52.83	210.49	18.83	-23.6	-24.1	17.3	0.00e+00	0	44	102	1048576	7	3784
2026-01-07 05:01:53.83	210.46	18.71	-23.9	-24.7	16.9	0.00e+00	0	44	102	1048576	7	3946
2026-01-07 05:01:54.84	210.43	18.58	-23.9	-24.6	17.1	0.00e+00	0	44	102	1048576	7	3912
2026-01-07 05:01:55.84	210.41	18.46	-24.2	-24.7	16.8	0.00e+00	0	44	102	1048576	8	3821
2026-01-07 05:01:56.85	210.38	18.34	-24.0	-24.3	17.0	0.00e+00	0	44	102	1048576	8	3743
2026-01-07 05:01:57.86	210.35	18.21	-24.0	-24.3	17.0	0.00e+00	0	44	102	1048576	8	3733
2026-01-07 05:01:58.87	210.33	18.09	-24.4	-25.1	16.5	0.00e+00	0	44	102	1048576	8	3934
2026-01-07 05:01:59.87	210.30	17.97	-24.1	-24.7	16.8	0.00e+00	0	44	102	1048576	8	3825
2026-01-07 05:02:00.88	210.28	17.85	-24.3	-24.9	16.6	0.00e+00	0	44	102	1048576	8	3890
2026-01-07 05:02:01.89	210.25	17.73	-24.2	-24.8	16.7	0.00e+00	0	44	102	1048576	8	3865
2026-01-07 05:02:02.90	210.23	17.61	-24.1	-24.7	16.7	0.00e+00	0	43	102	1048576	8	3828
2026-01-07 05:02:03.91	210.20	17.49	-24.3	-24.9	16.6	0.00e+00	0	44	102	1048576	8	3885
2026-01-07 05:02:04.91	210.18	17.37	-24.2	-24.8	16.7	0.00e+00	0	44	102	1048576	8	3856
2026-01-07 05:02:05.91	210.15	17.25	-24.3	-25.0	16.6	0.00e+00	0	44	102	1048576	8	3906
2026-01-07 05:02:06.92	210.13	17.13	-24.3	-25.0	16.5	0.00e+00	0	44	102	1048576	8	3903
2026-01-07 05:02:07.93	210.11	17.02	-24.6	-25.2	16.2	0.00e+00	0	44	102	1048576	9	3844
2026-01-07 05:02:08.94	210.08	16.90	-24.5	-24.9	16.3	0.00e+00	0	44	102	1048576	9	3783
2026-01-07 05:02:09.95	210.06	16.78	-24.3	-24.5	16.6	0.00e+00	0	44	102	1048576	9	3682
2026-01-07 05:02:10.96	210.04	16.67	-24.3	-25.0	16.6	0.00e+00	0	44	102	1048576	8	3896
2026-01-07 05:02:11.97	210.01	16.55	-24.3	-25.1	16.4	0.00e+00	0	44	102	1048576	8	3921
2026-01-07 05:02:12.98	209.99	16.44	-24.4	-25.2	16.4	0.00e+00	0	44	102	1048576	8	3949
2026-01-07 05:02:13.98	209.97	16.32	-24.4	-25.3	16.4	0.00e+00	0	44	102	1048576	8	3972
2026-01-07 05:02:14.99	209.94	16.21	-24.6	-25.6	16.2	0.00e+00	0	44	102	1048576	8	4053
2026-01-07 05:02:16.00	209.92	16.10	-24.5	-25.0	16.2	0.00e+00	0	44	102	1048576	9	3798
2026-01-07 05:02:17.00	209.90	15.99	-24.6	-25.1	16.2	0.00e+00	0	44	102	1048576	9	3832
2026-01-07 05:02:18.00	209.88	15.87	-24.7	-25.3	16.1	0.00e+00	0	44	102	1048576	9	3867
2026-01-07 05:02:19.01	209.86	15.76	-24.6	-25.2	16.1	0.00e+00	0	44	102	1048576	9	3858
2026-01-07 05:02:20.02	209.83	15.65	-24.7	-25.3	16.0	0.00e+00	0	44	102	1048576	9	3882
2026-01-07 05:02:21.02	209.81	15.54	-24.6	-25.2	16.1	0.00e+00	0	44	102	1048576	9	3848
2026-01-07 05:02:22.03	209.79	15.43	-24.7	-25.3	16.0	0.00e+00	0	44	102	1048576	9	3886
2026-01-07 05:02:23.04	209.77	15.32	-24.7	-25.4	16.0	0.00e+00	0	44	102	1048576	9	3895
2026-01-07 05:02:24.05	209.75	15.21	-24.8	-25.6	15.9	0.00e+00	0	44	102	1048576	9	3937
2026-01-07 05:02:25.06	209.73	15.10	-24.7	-25.3	16.0	5.70e-06	0	44	102	1048576	9	3873
2026-01-07 05:02:26.07	209.71	15.00	-24.8	-25.5	15.9	0.00e+00	0	44	102	1048576	9	3928
2026-01-07 05:02:27.08	209.69	14.89	-24.7	-25.4	16.0	0.00e+00	0	44	102	1048576	9	3901
2026-01-07 05:02:28.08	209.67	14.78	-24.8	-25.6	15.9	0.00e+00	0	44	102	1048576	9	3942
2026-01-07 05:02:29.09	209.65	14.68	-24.7	-25.5	15.9	0.00e+00	0	44	102	1048576	9	3923
2026-01-07 05:02:30.09	209.63	14.57	-24.7	-25.4	15.9	0.00e+00	0	44	102	1048576	9	3896
2026-01-07 05:02:31.10	209.61	14.47	-24.9	-25.8	15.7	0.00e+00	0	44	102	1048576	9	4000
2026-01-07 05:02:32.11	209.59	14.36	-24.8	-25.6	15.8	0.00e+00	0	44	102	1048576	9	3957
2026-01-07 05:02:33.11	209.57	14.26	-24.8	-25.6	15.8	0.00e+00	0	44	102	1048576	9	3956
2026-01-07 05:02:34.12	209.55	14.15	-24.4	-25.3	14.6	0.00e+00	0	44	102	1048576	9	4024
2026-01-07 05:02:35.13	209.53	14.05	-25.0	-26.1	15.4	0.00e+00	0	44	102	1048576	9	4074
2026-01-07 05:02:36.14	209.51	13.94	-24.9	-25.9	15.5	0.00e+00	0	44	102	1048576	9	4017
2026-01-07 05:02:37.15	209.50	13.84	-24.9	-25.7	15.7	3.50e-04	0	44	102	1048576	9	3985
2026-01-07 05:02:38.16	209.48	13.74	-24.9	-25.8	15.7	0.00e+00	0	44	102	1048576	9	3996
2026-01-07 05:02:39.16	209.46	13.64	-24.8	-25.7	15.7	1.02e-03	0	44	102	1048576	9	3964
2026-01-07 05:02:40.17	209.44	13.53	-24.8	-25.7	15.7	2.20e-06	0	44	102	1048576	9	3979
2026-01-07 05:02:41.17	209.42	13.43	-25.0	-26.0	15.5	0.00e+00	0	44	102	1048576	9	4057
2026-01-07 05:02:42.18	209.40	13.33	-24.9	-25.9	15.6	1.02e-03	0	44	102	1048576	9	4017
2026-01-07 05:02:43.18	209.39	13.23	-24.9	-25.8	15.7	5.70e-06	0	44	102	1048576	9	3987
2026-01-07 05:02:44.19	209.37	13.13	-24.9	-25.8	15.7	2.20e-06	0	44	102	1048576	9	3996
2026-01-07 05:02:45.19	209.35	13.03	-24.9	-25.8	15.6	4.38e-04	0	44	102	1048576	9	3990
2026-01-07 05:02:46.19	209.33	12.94	-25.0	-25.9	15.6	5.70e-06	0	44	102	1048576	9	4030
2026-01-07 05:02:47.20	209.32	12.84	-25.0	-26.0	15.5	0.00e+00	0	44	102	1048576	9	4050
2026-01-07 05:02:48.20	209.30	12.74	-25.1	-25.7	15.4	9.25e-04	0	44	102	1048576	10	3878
2026-01-07 05:02:49.21	209.28	12.64	-24.9	-25.4	15.6	1.04e-03	0	44	102	1048576	10	3805
2026-01-07 05:02:50.22	209.27	12.54	-24.9	-25.3	15.6	2.20e-06	0	44	102	1048576	10	3777
2026-01-07 05:02:51.23	209.25	12.45	-25.0	-26.1	15.4	1.09e-03	0	44	102	1048576	9	4073
2026-01-07 05:02:52.23	209.23	12.35	-25.0	-26.0	15.5	9.60e-04	0	44	102	1048576	9	4049
2026-01-07 05:02:53.24	209.22	12.25	-25.0	-26.0	15.5	3.40e-06	0	44	102	1048576	9	4050
2026-01-07 05:02:54.25	209.20	12.16	-25.1	-26.2	15.4	9.60e-04	0	44	102	1048576	9	4099
2026-01-07 05:02:55.25	209.18	12.06	-25.1	-26.2	15.4	0.00e+00	0	44	102	1048576	9	4100
2026-01-07 05:02:56.26	209.17	11.97	-25.2	-25.9	15.3	0.00e+00	0	44	102	1048576	10	3921
2026-01-07 05:02:57.27	209.15	11.87	-25.3	-26.2	15.1	9.54e-04	0	44	102	1048576	10	4002
2026-01-07 05:02:58.27	209.14	11.78	-25.4	-26.5	15.0	0.00e+00	0	44	102	1048576	10	4065
2026-01-07 05:02:59.28	209.12	11.68	-25.4	-26.4	15.0	0.00e+00	0	44	102	1048576	10	4044
2026-01-07 05:03:00.28	209.10	11.59	-25.4	-26.5	14.9	0.00e+00	0	44	102	1048576	10	4077
2026-01-07 05:03:01.29	209.09	11.50	-25.4	-26.4	15.0	1.04e-03	0	44	102	1048576	10	4046
2026-01-07 05:03:02.30	209.07	11.40	-25.4	-26.4	15.0	0.00e+00	0	44	102	1048576	10	4050
2026-01-07 05:03:03.31	209.06	11.31	-25.5	-26.6	14.9	0.00e+00	0	44	102	1048576	10	4085
2026-01-07 05:03:04.32	209.04	11.22	-25.5	-26.6	14.8	1.00e-03	0	44	102	1048576	10	4100
2026-01-07 05:03:05.32	209.03	11.13	-25.6	-26.8	14.7	0.00e+00	0	44	102	1048576	10	4150
2026-01-07 05:03:06.33	209.01	11.03	-25.5	-26.7	14.8	0.00e+00	0	44	102	1048576	10	4107
2026-01-07 05:03:07.34	209.00	10.94	-25.4	-26.5	14.9	0.00e+00	0	44	102	1048576	10	4078
2026-01-07 05:03:08.35	208.98	10.85	-25.4	-26.4	14.9	0.00e+00	0	44	102	1048576	10	4049
2026-01-07 05:03:09.35	208.97	10.76	-25.4	-26.5	14.9	0.00e+00	0	44	102	1048576	10	4062
2026-01-07 05:03:10.36	208.95	10.67	-25.4	-26.3	15.0	0.00e+00	0	44	102	1048576	10	4029
2026-01-07 05:03:11.36	208.94	10.58	-25.4	-26.4	14.9	0.00e+00	0	44	102	1048576	10	4042
2026-01-07 05:03:12.37	208.93	10.49	-25.4	-26.5	14.9	0.00e+00	0	44	102	1048576	10	4079
2026-01-07 05:03:13.37	208.91	10.40	-25.5	-26.8	14.7	0.00e+00	0	44	102	1048576	10	4135
2026-01-07 05:03:14.38	208.90	10.31	-25.5	-26.7	14.7	0.00e+00	0	44	102	1048576	10	4115
2026-01-07 05:03:15.39	208.88	10.22	-25.6	-26.8	14.7	1.10e-06	0	44	102	1048576	10	4145
2026-01-07 05:03:16.39	208.87	10.14	-25.6	-26.5	14.6	0.00e+00	0	44	102	1048576	11	3960
2026-01-07 05:03:17.40	208.86	10.05	-25.7	-26.5	14.6	2.20e-06	0	44	102	1048576	11	3970
2026-01-07 05:03:18.41	208.84	9.96	-25.6	-26.3	14.6	0.00e+00	0	44	102	1048576	11	3928
2026-01-07 05:03:19.41	208.83	9.87	-25.7	-26.7	14.5	1.10e-06	0	44	102	1048576	11	4016
2026-01-07 05:03:20.41	208.81	9.79	-25.8	-26.9	14.3	0.00e+00	0	44	102	1048576	11	4074
2026-01-07 05:03:21.42	208.80	9.70	-25.8	-26.8	14.4	2.20e-06	0	44	102	1048576	11	4044
2026-01-07 05:03:22.42	208.79	9.61	-25.7	-26.6	14.5	0.00e+00	0	44	102	1048576	11	3991
2026-01-07 05:03:23.43	208.77	9.53	-25.9	-27.1	14.2	1.10e-06	0	44	102	1048576	11	4115
2026-01-07 05:03:24.44	208.76	9.44	-26.1	-27.4	14.0	1.10e-06	0	44	102	1048576	11	4206
2026-01-07 05:03:25.44	208.75	9.35	-26.2	-27.2	13.7	3.40e-06	0	44	102	1048576	12	4056
2026-01-07 05:03:26.45	208.74	9.27	-26.3	-27.4	13.7	1.14e-05	0	44	102	1048576	12	4090
2026-01-07 05:03:27.45	208.72	9.18	-26.3	-27.6	13.6	1.02e-05	0	44	102	1048576	12	4145
2026-01-07 05:03:28.46	208.71	9.10	-26.2	-27.2	13.8	1.14e-05	0	44	102	1048576	12	4058
2026-01-07 05:03:29.47	208.70	9.01	-26.3	-27.4	13.6	3.40e-06	0	44	102	1048576	12	4105
2026-01-07 05:03:30.47	208.69	8.93	-26.4	-27.3	13.4	2.86e-05	0	44	102	1048576	13	3974
2026-01-07 05:03:31.48	208.67	8.85	-26.3	-27.5	13.6	9.10e-06	0	44	102	1048576	12	4125
2026-01-07 05:03:32.49	208.66	8.76	-26.6	-27.6	13.2	2.74e-05	0	44	102	1048576	13	4063
2026-01-07 05:03:33.49	208.65	8.68	-26.5	-27.5	13.3	3.31e-05	0	44	102	1048576	13	4031
2026-01-07 05:03:34.50	208.64	8.60	-26.3	-27.0	13.5	1.02e-05	0	44	102	1048576	13	3903
2026-01-07 05:03:35.50	208.62	8.51	-26.4	-27.1	13.5	9.10e-06	0	44	102	1048576	13	3930
2026-01-07 05:03:36.50	208.61	8.43	-26.3	-27.6	13.5	1.14e-05	0	44	102	1048576	12	4146
2026-01-07 05:03:37.51	208.60	8.35	-26.5	-28.0	13.2	2.28e-05	0	44	102	1048576	12	4262
2026-01-07 05:03:38.51	208.59	8.27	-26.4	-27.8	13.3	1.83e-05	0	44	102	1048576	12	4208
2026-01-07 05:03:39.52	208.58	8.19	-26.4	-27.7	13.3	2.28e-05	0	44	102	1048576	12	4200
2026-01-07 05:03:40.52	208.56	8.11	-26.2	-27.4	13.6	1.14e-05	0	44	102	1048576	12	4098
2026-01-07 05:03:41.53	208.55	8.02	-26.2	-27.4	13.5	1.14e-05	0	44	102	1048576	12	4103
2026-01-07 05:03:42.53	208.54	7.94	-26.3	-27.5	13.5	1.83e-05	0	44	102	1048576	12	4144
2026-01-07 05:03:43.54	208.53	7.86	-26.4	-27.6	13.4	1.25e-05	0	44	102	1048576	12	4174
2026-01-07 05:03:44.55	208.52	7.78	-26.4	-27.8	13.3	1.60e-05	0	44	102	1048576	12	4222
2026-01-07 05:03:45.56	208.51	7.70	-26.3	-27.6	13.4	2.86e-05	0	44	102	1048576	12	4165
2026-01-07 05:03:46.56	208.50	7.62	-26.5	-27.9	13.2	3.08e-05	0	44	102	1048576	12	4255
2026-01-07 05:03:47.57	208.48	7.54	-26.4	-27.9	13.2	2.63e-05	0	43	102	1048576	12	4237
2026-01-07 05:03:48.58	208.47	7.46	-26.4	-27.8	13.3	2.17e-05	0	44	102	1048576	12	4208
2026-01-07 05:03:49.58	208.46	7.38	-26.5	-27.9	13.2	2.74e-05	0	44	102	1048576	12	4251
2026-01-07 05:03:50.59	208.45	7.30	-26.5	-28.0	13.1	3.66e-05	0	44	102	1048576	12	4270
2026-01-07 05:03:51.60	208.44	7.23	-25.8	-27.0	11.8	6.06e-05	0	44	102	1048576	13	4132
2026-01-07 05:03:52.60	208.43	7.15	-26.6	-27.8	12.7	4.46e-05	0	44	102	1048576	13	4114
2026-01-07 05:03:53.61	208.42	7.07	-32.4	-41.5	3.8	6.80e-01	0	44	104	1048576	24	10257
2026-01-07 05:03:54.62	208.41	6.99	-32.8	-42.4	3.8	8.46e-01	0	44	104	1048576	25	10924
2026-01-07 05:03:55.63	208.40	6.91	-33.1	-42.6	3.8	8.46e-01	0	44	104	1048576	26	10683

#Closed at: 2026-01-07 05:03:56
#Recorded file [1 MB]: D:/data/31010_260107_075605.dat