passes_logs/2026/01/07/R2M6_AANII_01/R2M6_AANII_01__20260107_085852_NOAA_20_JPSS-1_rec.log

#Pass ID: 20260107_085852_NOAA 20 (JPSS-1)
#Satellite: NOAA 20 (JPSS-1)
#Configuration: NOAA 20
#almurnet v.1.7.20240730
#Start time: 2026-01-07 08:58:52

#Version: 2.2.20231116
#Station: R2M6_AANII_01
#Location: 30.233357 lon 59.946436 lat
#TLE: 1 43013U 17073A   26006.30790171  .00000126  00000+0  80695-4 0  9991
#TLE: 2 43013  98.7629 307.3394 0001808  51.8724 308.2615 14.19533762421505

#Time	Az	El	Level	Level2	SNR	BER	BlckErr	Temp	State	Recorded	gain1	gain2
2026-01-07 08:58:52.06	118.91	6.97	-31.8	-38.7	4.6	1.36e+00	0	40	0	0	25	7942
2026-01-07 08:58:53.06	118.84	7.04	-31.9	-39.7	4.5	1.35e+00	0	41	104	0	24	8808
2026-01-07 08:58:54.07	118.77	7.11	-31.9	-39.3	6.1	3.45e-01	0	41	0	0	24	8439
2026-01-07 08:58:55.07	118.71	7.18	-31.8	-39.1	6.3	2.57e-01	0	41	102	1048576	24	8274
2026-01-07 08:58:56.08	118.64	7.25	-31.8	-39.1	6.3	2.55e-01	0	41	102	1048576	24	8290
2026-01-07 08:58:57.09	118.57	7.33	-31.9	-39.3	6.2	2.89e-01	0	41	102	1048576	24	8454
2026-01-07 08:58:58.10	118.51	7.40	-31.8	-38.9	6.4	2.81e-01	0	41	102	1048576	24	8115
2026-01-07 08:58:59.10	118.44	7.47	-31.8	-38.5	6.7	2.09e-01	0	41	102	1048576	24	7810
2026-01-07 08:59:00.11	118.37	7.54	-31.8	-38.6	6.8	1.69e-01	0	41	102	1048576	24	7846
2026-01-07 08:59:01.11	118.30	7.61	-31.8	-38.9	6.5	2.02e-01	0	41	102	1048576	24	8065
2026-01-07 08:59:02.12	118.24	7.69	-31.9	-39.0	6.4	2.25e-01	0	41	102	1048576	24	8188
2026-01-07 08:59:03.12	118.17	7.76	-32.0	-39.7	6.0	3.10e-01	0	41	102	1048576	24	8750
2026-01-07 08:59:04.13	118.10	7.83	-31.8	-38.6	6.7	2.73e-01	0	41	102	1048576	24	7876
2026-01-07 08:59:05.14	118.03	7.91	-31.6	-37.4	7.6	1.12e-01	0	41	102	1048576	24	7052
2026-01-07 08:59:06.14	117.96	7.98	-31.4	-36.5	8.4	5.85e-02	0	41	102	1048576	24	6480
2026-01-07 08:59:07.15	117.89	8.05	-31.2	-36.1	9.1	2.94e-02	0	41	102	1048576	23	6347
2026-01-07 08:59:08.15	117.82	8.13	-31.1	-35.7	9.5	1.92e-02	0	41	102	1048576	23	6125
2026-01-07 08:59:09.16	117.74	8.20	-31.0	-35.2	9.8	1.09e-02	0	41	102	1048576	23	5875
2026-01-07 08:59:10.17	117.67	8.28	-30.9	-34.9	10.1	6.86e-03	0	41	102	1048576	23	5708
2026-01-07 08:59:11.18	117.60	8.35	-30.8	-34.7	10.3	5.86e-03	0	41	102	1048576	23	5635
2026-01-07 08:59:12.18	117.53	8.43	-30.9	-34.9	10.2	6.04e-03	0	41	102	1048576	23	5711
2026-01-07 08:59:13.19	117.46	8.50	-30.8	-34.7	10.3	5.59e-03	0	41	102	1048576	23	5617
2026-01-07 08:59:14.19	117.38	8.58	-30.8	-34.6	10.4	5.26e-03	0	41	102	1048576	23	5593
2026-01-07 08:59:15.20	117.31	8.65	-30.8	-35.1	10.4	4.42e-03	0	41	102	1048576	22	5921
2026-01-07 08:59:16.21	117.24	8.73	-30.7	-34.8	10.7	3.30e-03	0	42	102	1048576	22	5767
2026-01-07 08:59:17.22	117.16	8.80	-30.8	-34.9	10.6	3.59e-03	0	42	102	1048576	22	5807
2026-01-07 08:59:18.23	117.09	8.88	-30.7	-34.7	10.8	2.76e-03	0	42	102	1048576	22	5683
2026-01-07 08:59:19.24	117.01	8.96	-30.8	-34.9	10.7	2.36e-03	0	42	102	1048576	22	5766
2026-01-07 08:59:20.24	116.94	9.03	-30.8	-35.0	10.6	2.90e-03	0	42	102	1048576	22	5853
2026-01-07 08:59:21.25	116.86	9.11	-30.8	-34.9	10.7	3.14e-03	0	42	102	1048576	22	5790
2026-01-07 08:59:22.25	116.78	9.18	-30.9	-35.2	10.5	3.67e-03	0	42	102	1048576	22	5919
2026-01-07 08:59:23.25	116.71	9.26	-30.9	-35.4	10.4	5.38e-03	0	41	102	1048576	22	5999
2026-01-07 08:59:24.26	116.63	9.34	-30.9	-35.1	10.6	4.09e-03	0	42	102	1048576	22	5839
2026-01-07 08:59:25.27	116.55	9.41	-30.8	-34.8	10.8	2.37e-03	0	42	102	1048576	22	5715
2026-01-07 08:59:26.28	116.47	9.49	-30.7	-34.6	11.0	2.65e-03	0	42	102	1048576	22	5616
2026-01-07 08:59:27.28	116.40	9.57	-30.7	-34.5	11.1	1.73e-03	0	42	102	1048576	22	5571
2026-01-07 08:59:28.29	116.32	9.65	-30.8	-34.6	11.0	2.00e-03	0	42	102	1048576	22	5635
2026-01-07 08:59:29.29	116.24	9.72	-30.6	-34.2	11.4	1.37e-03	0	42	102	1048576	22	5418
2026-01-07 08:59:30.30	116.16	9.80	-30.6	-34.1	11.4	9.42e-04	0	42	102	1048576	22	5389
2026-01-07 08:59:31.30	116.08	9.88	-30.7	-34.3	11.3	1.14e-03	0	42	102	1048576	22	5492
2026-01-07 08:59:32.31	116.00	9.96	-30.7	-34.4	11.3	1.05e-03	0	42	102	1048576	22	5494
2026-01-07 08:59:33.32	115.92	10.04	-30.7	-34.5	11.2	1.35e-03	0	42	102	1048576	22	5552
2026-01-07 08:59:34.33	115.83	10.12	-30.6	-34.2	11.4	1.25e-03	0	42	102	1048576	22	5418
2026-01-07 08:59:35.33	115.75	10.19	-30.6	-34.2	11.4	9.73e-04	0	42	102	1048576	22	5435
2026-01-07 08:59:36.33	115.67	10.27	-30.7	-34.4	11.3	1.01e-03	0	42	102	1048576	22	5500
2026-01-07 08:59:37.35	115.59	10.35	-30.7	-34.3	11.3	1.25e-03	0	42	102	1048576	22	5480
2026-01-07 08:59:38.35	115.50	10.43	-30.6	-34.0	11.6	7.87e-04	0	42	102	1048576	22	5331
2026-01-07 08:59:39.36	115.42	10.51	-30.5	-33.7	11.8	5.81e-04	0	42	102	1048576	22	5206
2026-01-07 08:59:40.37	115.34	10.59	-30.5	-33.7	11.8	4.42e-04	0	42	102	1048576	22	5227
2026-01-07 08:59:41.38	115.25	10.67	-30.6	-34.0	11.7	5.89e-04	0	42	102	1048576	22	5319
2026-01-07 08:59:42.39	115.16	10.75	-30.5	-33.8	11.7	5.80e-04	0	42	102	1048576	22	5250
2026-01-07 08:59:43.39	115.08	10.83	-30.6	-33.9	11.7	6.45e-04	0	42	102	1048576	22	5281
2026-01-07 08:59:44.39	114.99	10.91	-30.5	-33.8	11.8	4.65e-04	0	42	102	1048576	22	5230
2026-01-07 08:59:45.39	114.91	10.99	-30.5	-33.7	11.9	3.55e-04	0	42	102	1048576	22	5186
2026-01-07 08:59:46.40	114.82	11.08	-30.5	-33.7	11.8	4.81e-04	0	42	102	1048576	22	5217
2026-01-07 08:59:47.41	114.73	11.16	-30.5	-33.6	12.0	3.63e-04	0	42	102	1048576	22	5145
2026-01-07 08:59:48.42	114.64	11.24	-30.5	-33.7	11.9	3.71e-04	0	42	102	1048576	22	5199
2026-01-07 08:59:49.43	114.55	11.32	-30.5	-33.8	11.8	4.36e-04	0	42	102	1048576	22	5262
2026-01-07 08:59:50.43	114.47	11.40	-30.6	-33.9	11.8	5.15e-04	0	42	102	1048576	22	5302
2026-01-07 08:59:51.44	114.38	11.48	-30.5	-33.7	11.9	4.49e-04	0	42	102	1048576	22	5198
2026-01-07 08:59:52.44	114.29	11.57	-30.5	-33.9	11.8	3.91e-04	0	42	102	1048576	22	5273
2026-01-07 08:59:53.45	114.20	11.65	-30.5	-33.7	11.8	4.65e-04	0	42	102	1048576	22	5218
2026-01-07 08:59:54.45	114.10	11.73	-30.5	-33.6	12.0	3.81e-04	0	42	102	1048576	22	5147
2026-01-07 08:59:55.45	114.01	11.81	-30.4	-33.4	12.2	2.82e-04	0	42	102	1048576	22	5070
2026-01-07 08:59:56.46	113.92	11.90	-30.4	-33.4	12.2	2.66e-04	0	42	102	1048576	22	5085
2026-01-07 08:59:57.47	113.83	11.98	-30.5	-33.5	12.1	2.77e-04	0	42	102	1048576	22	5128
2026-01-07 08:59:58.47	113.73	12.06	-30.5	-33.6	12.0	2.97e-04	0	42	102	1048576	22	5140
2026-01-07 08:59:59.48	113.64	12.15	-30.4	-33.4	12.2	2.74e-04	0	42	102	1048576	22	5072
2026-01-07 09:00:00.48	113.55	12.23	-30.4	-33.3	12.2	2.05e-04	0	42	102	1048576	22	5036
2026-01-07 09:00:01.49	113.45	12.32	-30.5	-33.5	12.1	2.32e-04	0	42	102	1048576	22	5109
2026-01-07 09:00:02.50	113.36	12.40	-30.5	-33.6	12.1	3.12e-04	0	42	102	1048576	22	5150
2026-01-07 09:00:03.50	113.26	12.48	-30.4	-33.4	12.2	2.60e-04	0	42	102	1048576	22	5048
2026-01-07 09:00:04.51	113.16	12.57	-30.4	-33.3	12.3	1.68e-04	0	42	102	1048576	22	5024
2026-01-07 09:00:05.52	113.06	12.66	-30.3	-33.1	12.4	1.35e-04	0	42	102	1048576	22	4963
2026-01-07 09:00:06.53	112.97	12.74	-30.3	-33.0	12.5	1.16e-04	0	42	102	1048576	22	4911
2026-01-07 09:00:07.53	112.87	12.83	-30.3	-33.1	12.5	1.14e-04	0	42	102	1048576	22	4930
2026-01-07 09:00:08.53	112.77	12.91	-30.3	-33.0	12.5	1.30e-04	0	43	102	1048576	22	4894
2026-01-07 09:00:09.54	112.67	13.00	-30.2	-33.3	12.6	9.84e-05	0	42	102	1048576	21	5132
2026-01-07 09:00:10.54	112.57	13.08	-30.2	-33.3	12.7	1.05e-04	0	42	102	1048576	21	5129
2026-01-07 09:00:11.55	112.47	13.17	-30.2	-33.1	12.8	6.71e-05	0	42	102	1048576	21	5064
2026-01-07 09:00:12.55	112.37	13.26	-30.2	-33.3	12.7	6.02e-05	0	43	102	1048576	21	5122
2026-01-07 09:00:13.56	112.27	13.34	-30.2	-33.3	12.7	7.78e-05	0	43	102	1048576	21	5110
2026-01-07 09:00:14.57	112.16	13.43	-30.2	-33.2	12.7	6.56e-05	0	42	102	1048576	21	5070
2026-01-07 09:00:15.58	112.06	13.52	-30.3	-33.5	12.5	1.04e-04	0	42	102	1048576	21	5199
2026-01-07 09:00:16.58	111.96	13.60	-30.3	-33.4	12.6	1.18e-04	0	42	102	1048576	21	5151
2026-01-07 09:00:17.59	111.85	13.69	-30.2	-33.3	12.7	8.23e-05	0	43	102	1048576	21	5111
2026-01-07 09:00:18.60	111.75	13.78	-30.2	-33.2	12.7	6.94e-05	0	42	102	1048576	21	5100
2026-01-07 09:00:19.61	111.64	13.87	-30.2	-33.1	12.8	6.56e-05	0	42	102	1048576	21	5047
2026-01-07 09:00:20.62	111.53	13.96	-30.2	-33.2	12.8	6.33e-05	0	43	102	1048576	21	5081
2026-01-07 09:00:21.63	111.42	14.05	-30.2	-33.3	12.7	6.10e-05	0	43	102	1048576	21	5111
2026-01-07 09:00:22.63	111.32	14.13	-30.2	-33.2	12.8	6.63e-05	0	43	102	1048576	21	5089
2026-01-07 09:00:23.64	111.21	14.22	-30.3	-33.6	12.5	9.23e-05	0	43	102	1048576	21	5218
2026-01-07 09:00:24.65	111.10	14.31	-30.3	-33.5	12.6	9.68e-05	0	43	102	1048576	21	5195
2026-01-07 09:00:25.65	110.99	14.40	-30.3	-33.5	12.6	8.92e-05	0	42	102	1048576	21	5196
2026-01-07 09:00:26.66	110.88	14.49	-30.4	-33.7	12.5	1.23e-04	0	43	102	1048576	21	5269
2026-01-07 09:00:27.66	110.77	14.58	-30.4	-33.6	12.5	1.16e-04	0	43	102	1048576	21	5254
2026-01-07 09:00:28.67	110.66	14.67	-30.4	-33.7	12.5	1.39e-04	0	42	102	1048576	21	5275
2026-01-07 09:00:29.67	110.54	14.76	-30.4	-33.8	12.4	1.30e-04	0	43	102	1048576	21	5289
2026-01-07 09:00:30.67	110.43	14.85	-30.5	-34.0	12.3	1.42e-04	0	43	102	1048576	21	5410
2026-01-07 09:00:31.68	110.32	14.94	-30.5	-34.0	12.3	1.90e-04	0	43	102	1048576	21	5395
2026-01-07 09:00:32.69	110.20	15.03	-30.5	-33.9	12.4	1.43e-04	0	43	102	1048576	21	5348
2026-01-07 09:00:33.70	110.09	15.13	-30.5	-34.0	12.3	1.65e-04	0	43	102	1048576	21	5389
2026-01-07 09:00:34.70	109.97	15.22	-30.6	-34.1	12.3	2.23e-04	0	43	102	1048576	21	5436
2026-01-07 09:00:35.71	109.85	15.31	-30.6	-34.4	12.1	2.09e-04	0	43	102	1048576	21	5555
2026-01-07 09:00:36.71	109.74	15.40	-30.5	-34.0	12.3	2.86e-04	0	43	102	1048576	21	5390
2026-01-07 09:00:37.72	109.62	15.49	-30.4	-33.7	12.6	1.06e-04	0	43	102	1048576	21	5236
2026-01-07 09:00:38.72	109.50	15.58	-30.4	-33.8	12.5	1.10e-04	0	43	102	1048576	21	5289
2026-01-07 09:00:39.73	109.38	15.68	-30.5	-33.8	12.5	1.20e-04	0	43	102	1048576	21	5316
2026-01-07 09:00:40.74	109.26	15.77	-30.4	-33.7	12.5	1.39e-04	0	43	102	1048576	21	5260
2026-01-07 09:00:41.75	109.14	15.86	-30.4	-33.7	12.6	1.01e-04	0	43	102	1048576	21	5245
2026-01-07 09:00:42.76	109.01	15.96	-30.4	-33.7	12.6	8.77e-05	0	43	102	1048576	21	5237
2026-01-07 09:00:43.76	108.89	16.05	-30.5	-33.8	12.5	8.77e-05	0	43	102	1048576	21	5298
2026-01-07 09:00:44.77	108.77	16.14	-30.4	-33.7	12.6	1.15e-04	0	43	102	1048576	21	5265
2026-01-07 09:00:45.77	108.64	16.24	-30.4	-33.5	12.7	7.93e-05	0	43	102	1048576	21	5175
2026-01-07 09:00:46.77	108.52	16.33	-30.4	-33.7	12.6	8.92e-05	0	43	102	1048576	21	5246
2026-01-07 09:00:47.78	108.39	16.43	-30.4	-33.7	12.6	1.04e-04	0	43	102	1048576	21	5228
2026-01-07 09:00:48.79	108.27	16.52	-30.5	-33.9	12.5	9.68e-05	0	43	102	1048576	21	5309
2026-01-07 09:00:49.79	108.14	16.61	-30.5	-34.0	12.4	1.36e-04	0	43	102	1048576	21	5373
2026-01-07 09:00:50.80	108.01	16.71	-30.6	-34.3	12.2	1.37e-04	0	43	102	1048576	21	5475
2026-01-07 09:00:51.81	107.88	16.80	-30.5	-34.1	12.3	1.75e-04	0	43	102	1048576	21	5396
2026-01-07 09:00:52.81	107.75	16.90	-30.5	-34.0	12.4	1.65e-04	0	43	102	1048576	21	5380
2026-01-07 09:00:53.82	107.62	17.00	-30.5	-34.0	12.5	1.26e-04	0	43	102	1048576	21	5364
2026-01-07 09:00:54.82	107.49	17.09	-30.5	-33.8	12.6	1.11e-04	0	43	102	1048576	21	5297
2026-01-07 09:00:55.83	107.36	17.19	-30.5	-33.9	12.5	9.76e-05	0	43	102	1048576	21	5331
2026-01-07 09:00:56.84	107.22	17.28	-30.5	-33.9	12.5	1.05e-04	0	43	102	1048576	21	5344
2026-01-07 09:00:57.84	107.09	17.38	-30.5	-34.0	12.5	1.23e-04	0	43	102	1048576	21	5364
2026-01-07 09:00:58.85	106.95	17.48	-30.6	-34.1	12.4	1.38e-04	0	43	102	1048576	21	5416
2026-01-07 09:00:59.86	106.81	17.57	-30.7	-34.5	12.1	1.88e-04	0	43	102	1048576	21	5574
2026-01-07 09:01:00.87	106.68	17.67	-30.5	-34.0	12.5	1.61e-04	0	43	102	1048576	21	5366
2026-01-07 09:01:01.88	106.54	17.77	-30.5	-34.0	12.5	1.33e-04	0	43	102	1048576	21	5361
2026-01-07 09:01:02.89	106.40	17.87	-30.7	-34.5	12.1	1.79e-04	0	43	102	1048576	21	5565
2026-01-07 09:01:03.90	106.26	17.97	-30.7	-34.3	12.3	2.74e-04	0	43	102	1048576	21	5499
2026-01-07 09:01:04.91	106.12	18.06	-30.7	-34.6	12.1	2.60e-04	0	43	102	1048576	21	5605
2026-01-07 09:01:05.92	105.98	18.16	-30.6	-34.1	12.4	2.19e-04	0	43	102	1048576	21	5416
2026-01-07 09:01:06.92	105.83	18.26	-30.5	-33.7	12.7	9.91e-05	0	43	102	1048576	21	5251
2026-01-07 09:01:07.93	105.69	18.36	-30.4	-33.6	12.8	5.95e-05	0	43	102	1048576	21	5207
2026-01-07 09:01:08.94	105.54	18.46	-30.4	-33.6	12.8	6.56e-05	0	43	102	1048576	21	5203
2026-01-07 09:01:09.95	105.40	18.56	-30.4	-33.5	12.8	6.48e-05	0	43	102	1048576	21	5175
2026-01-07 09:01:10.95	105.25	18.66	-30.3	-33.3	13.0	3.73e-05	0	43	102	1048576	21	5083
2026-01-07 09:01:11.96	105.11	18.76	-30.2	-33.1	13.1	2.67e-05	0	43	102	1048576	21	5016
2026-01-07 09:01:12.96	104.96	18.86	-30.3	-33.2	13.1	2.82e-05	0	43	102	1048576	21	5030
2026-01-07 09:01:13.97	104.81	18.96	-30.2	-33.0	13.2	2.82e-05	0	43	102	1048576	21	4958
2026-01-07 09:01:14.97	104.66	19.06	-30.2	-32.9	13.3	2.13e-05	0	43	102	1048576	21	4940
2026-01-07 09:01:15.97	104.51	19.15	-30.2	-33.1	13.1	2.74e-05	0	43	102	1048576	21	5014
2026-01-07 09:01:16.98	104.35	19.26	-30.2	-32.9	13.3	2.44e-05	0	43	102	1048576	21	4930
2026-01-07 09:01:17.99	104.20	19.36	-30.2	-32.9	13.3	1.83e-05	0	43	102	1048576	21	4921
2026-01-07 09:01:19.00	104.05	19.46	-30.2	-33.0	13.2	1.06e-05	0	43	102	1048576	21	4979
2026-01-07 09:01:20.01	103.89	19.56	-30.2	-32.9	13.3	2.28e-05	0	43	102	1048576	21	4935
2026-01-07 09:01:21.01	103.73	19.66	-30.3	-33.1	13.2	2.67e-05	0	43	102	1048576	21	5020
2026-01-07 09:01:22.02	103.58	19.76	-30.2	-32.9	13.4	1.98e-05	0	43	102	1048576	21	4925
2026-01-07 09:01:23.02	103.42	19.86	-30.1	-32.8	13.4	1.44e-05	0	43	102	1048576	21	4875
2026-01-07 09:01:24.03	103.26	19.96	-30.2	-32.9	13.4	1.22e-05	0	43	102	1048576	21	4920
2026-01-07 09:01:25.04	103.10	20.07	-30.1	-32.8	13.4	1.14e-05	0	43	102	1048576	21	4888
2026-01-07 09:01:26.05	102.93	20.17	-30.2	-32.8	13.4	1.22e-05	0	43	102	1048576	21	4891
2026-01-07 09:01:27.05	102.77	20.27	-30.2	-33.0	13.3	8.30e-06	0	43	102	1048576	21	4961
2026-01-07 09:01:28.06	102.61	20.37	-30.1	-32.6	13.6	1.60e-05	0	43	102	1048576	21	4809
2026-01-07 09:01:29.05	102.45	20.47	-30.0	-32.3	13.8	3.80e-06	0	43	102	1048576	21	4701
2026-01-07 09:01:30.06	102.28	20.58	-29.9	-32.2	13.8	2.20e-06	0	43	102	1048576	21	4686
2026-01-07 09:01:31.07	102.11	20.68	-30.0	-32.4	13.7	7.60e-06	0	43	102	1048576	21	4739
2026-01-07 09:01:32.07	101.94	20.78	-30.0	-32.3	13.8	6.80e-06	0	43	102	1048576	21	4700
2026-01-07 09:01:33.07	101.77	20.89	-30.0	-32.3	13.8	3.80e-06	0	43	102	1048576	21	4701
2026-01-07 09:01:34.08	101.60	20.99	-30.1	-32.5	13.6	5.30e-06	0	43	102	1048576	21	4789
2026-01-07 09:01:35.09	101.43	21.09	-30.0	-32.4	13.8	3.80e-06	0	43	102	1048576	21	4729
2026-01-07 09:01:36.09	101.26	21.20	-30.0	-32.5	13.7	8.30e-06	0	43	102	1048576	21	4775
2026-01-07 09:01:37.10	101.08	21.30	-30.0	-32.5	13.6	8.30e-06	0	43	102	1048576	21	4780
2026-01-07 09:01:38.11	100.91	21.41	-30.2	-32.9	13.4	9.90e-06	0	43	102	1048576	21	4916
2026-01-07 09:01:39.11	100.73	21.51	-30.3	-33.1	13.3	1.52e-05	0	43	102	1048576	21	5005
2026-01-07 09:01:40.12	100.55	21.61	-30.2	-33.0	13.3	1.44e-05	0	43	102	1048576	21	4969
2026-01-07 09:01:41.13	100.37	21.72	-30.3	-33.2	13.2	1.52e-05	0	43	102	1048576	21	5024
2026-01-07 09:01:42.13	100.19	21.82	-30.3	-33.3	13.1	2.28e-05	0	43	102	1048576	21	5066
2026-01-07 09:01:43.14	100.01	21.93	-30.5	-33.6	12.9	3.81e-05	0	43	102	1048576	21	5189
2026-01-07 09:01:44.14	99.83	22.03	-30.4	-33.4	13.1	2.97e-05	0	43	102	1048576	21	5092
2026-01-07 09:01:45.15	99.64	22.14	-30.5	-33.8	12.9	4.88e-05	0	43	102	1048576	21	5245
2026-01-07 09:01:46.16	99.46	22.24	-30.4	-33.4	13.1	3.73e-05	0	43	102	1048576	21	5109
2026-01-07 09:01:47.16	99.27	22.35	-30.4	-33.5	13.1	1.67e-05	0	43	102	1048576	21	5125
2026-01-07 09:01:48.17	99.08	22.45	-30.4	-33.5	13.1	2.67e-05	0	43	102	1048576	21	5133
2026-01-07 09:01:49.17	98.90	22.56	-30.4	-33.6	13.0	3.12e-05	0	43	102	1048576	21	5153
2026-01-07 09:01:50.18	98.70	22.66	-30.5	-33.8	12.9	4.80e-05	0	43	102	1048576	21	5256
2026-01-07 09:01:51.19	98.51	22.77	-30.6	-34.0	12.8	5.49e-05	0	43	102	1048576	21	5305
2026-01-07 09:01:52.19	98.32	22.87	-30.6	-34.0	12.7	4.50e-05	0	43	102	1048576	21	5341
2026-01-07 09:01:53.20	98.13	22.98	-30.7	-34.2	12.6	9.91e-05	0	43	102	1048576	21	5407
2026-01-07 09:01:54.20	97.93	23.08	-30.6	-34.1	12.7	8.39e-05	0	43	102	1048576	21	5380
2026-01-07 09:01:55.21	97.73	23.19	-30.7	-34.3	12.6	7.70e-05	0	43	102	1048576	21	5431
2026-01-07 09:01:56.21	97.54	23.30	-30.5	-33.8	12.9	7.17e-05	0	43	102	1048576	21	5244
2026-01-07 09:01:57.22	97.33	23.40	-30.6	-33.9	12.8	5.18e-05	0	43	102	1048576	21	5300
2026-01-07 09:01:58.22	97.13	23.51	-30.6	-34.0	12.8	6.56e-05	0	43	102	1048576	21	5328
2026-01-07 09:01:59.23	96.93	23.61	-30.6	-33.9	12.9	5.26e-05	0	43	102	1048576	21	5273
2026-01-07 09:02:00.24	96.73	23.72	-30.6	-34.0	12.7	6.17e-05	0	43	102	1048576	21	5334
2026-01-07 09:02:01.24	96.52	23.83	-30.5	-33.7	13.0	4.57e-05	0	43	102	1048576	21	5219
2026-01-07 09:02:02.25	96.32	23.93	-30.4	-33.5	13.2	2.28e-05	0	43	102	1048576	21	5109
2026-01-07 09:02:03.26	96.11	24.04	-30.4	-33.3	13.3	2.89e-05	0	43	102	1048576	21	5052
2026-01-07 09:02:04.26	95.90	24.14	-30.3	-33.2	13.3	2.13e-05	0	43	102	1048576	21	5011
2026-01-07 09:02:05.26	95.69	24.25	-30.4	-33.5	13.2	2.51e-05	0	43	102	1048576	21	5112
2026-01-07 09:02:06.27	95.47	24.36	-30.4	-33.4	13.2	2.36e-05	0	43	102	1048576	21	5076
2026-01-07 09:02:07.28	95.26	24.46	-30.4	-33.5	13.2	1.60e-05	0	43	102	1048576	21	5124
2026-01-07 09:02:08.28	95.05	24.57	-30.4	-33.5	13.2	2.74e-05	0	43	102	1048576	21	5116
2026-01-07 09:02:09.29	94.83	24.68	-30.4	-33.3	13.3	2.05e-05	0	43	102	1048576	21	5031
2026-01-07 09:02:10.30	94.61	24.78	-30.3	-33.1	13.4	1.29e-05	0	43	102	1048576	21	4982
2026-01-07 09:02:11.30	94.39	24.89	-30.2	-32.9	13.6	9.90e-06	0	43	102	1048576	21	4897
2026-01-07 09:02:12.31	94.17	24.99	-30.2	-32.7	13.7	9.10e-06	0	43	102	1048576	21	4841
2026-01-07 09:02:13.32	93.94	25.10	-30.1	-32.5	13.8	7.60e-06	0	43	102	1048576	21	4767
2026-01-07 09:02:14.33	93.72	25.21	-30.1	-32.6	13.8	3.80e-06	0	43	102	1048576	21	4784
2026-01-07 09:02:15.33	93.50	25.31	-30.2	-32.7	13.7	5.30e-06	0	43	102	1048576	21	4821
2026-01-07 09:02:16.34	93.27	25.42	-30.1	-32.5	13.8	8.30e-06	0	43	102	1048576	21	4754
2026-01-07 09:02:17.34	93.04	25.52	-30.1	-32.4	13.9	3.00e-06	0	43	102	1048576	21	4733
2026-01-07 09:02:18.35	92.81	25.63	-30.1	-32.6	13.8	3.00e-06	0	43	102	1048576	21	4787
2026-01-07 09:02:19.36	92.58	25.73	-30.2	-32.8	13.7	1.06e-05	0	43	102	1048576	21	4854
2026-01-07 09:02:20.35	92.35	25.84	-30.2	-32.8	13.7	5.30e-06	0	43	102	1048576	21	4850
2026-01-07 09:02:21.35	92.11	25.94	-30.2	-32.9	13.6	4.50e-06	0	43	102	1048576	21	4915
2026-01-07 09:02:22.35	91.88	26.05	-30.2	-32.9	13.6	8.30e-06	0	43	102	1048576	21	4886
2026-01-07 09:02:23.36	91.64	26.15	-30.2	-32.7	13.8	6.10e-06	0	43	102	1048576	21	4818
2026-01-07 09:02:24.36	91.40	26.26	-30.1	-32.5	13.8	6.10e-06	0	43	102	1048576	21	4769
2026-01-07 09:02:25.37	91.16	26.36	-30.0	-32.4	13.9	3.80e-06	0	43	102	1048576	21	4716
2026-01-07 09:02:26.38	90.91	26.47	-30.0	-32.3	13.9	1.50e-06	0	43	102	1048576	21	4696
2026-01-07 09:02:27.38	90.67	26.57	-30.1	-32.4	13.9	8.30e-06	0	43	102	1048576	21	4730
2026-01-07 09:02:28.39	90.42	26.68	-30.2	-32.8	13.7	5.30e-06	0	43	102	1048576	21	4859
2026-01-07 09:02:29.39	90.18	26.78	-30.3	-33.1	13.5	1.29e-05	0	43	102	1048576	21	4960
2026-01-07 09:02:30.40	89.93	26.88	-30.3	-33.1	13.5	1.14e-05	0	43	102	1048576	21	4956
2026-01-07 09:02:31.40	89.68	26.99	-30.2	-32.9	13.6	9.10e-06	0	43	102	1048576	21	4893
2026-01-07 09:02:32.41	89.42	27.09	-30.1	-32.4	14.0	6.80e-06	0	43	102	1048576	21	4713
2026-01-07 09:02:33.41	89.17	27.19	-30.1	-32.5	13.9	2.20e-06	0	43	102	1048576	21	4752
2026-01-07 09:02:34.41	88.91	27.30	-30.1	-32.6	13.9	5.30e-06	0	43	102	1048576	21	4772
2026-01-07 09:02:35.42	88.66	27.40	-30.2	-32.9	13.7	3.80e-06	0	43	102	1048576	21	4892
2026-01-07 09:02:36.41	88.40	27.50	-30.4	-33.3	13.4	6.80e-06	0	43	102	1048576	21	5026
2026-01-07 09:02:37.42	88.14	27.60	-30.5	-33.6	13.2	2.36e-05	0	43	102	1048576	21	5138
2026-01-07 09:02:38.42	87.88	27.70	-30.6	-33.9	12.9	3.28e-05	0	43	102	1048576	21	5279
2026-01-07 09:02:39.43	87.61	27.81	-30.7	-34.2	12.8	5.11e-05	0	43	102	1048576	21	5392
2026-01-07 09:02:40.44	87.34	27.91	-30.8	-34.6	12.6	7.62e-05	0	43	102	1048576	21	5544
2026-01-07 09:02:41.45	87.08	28.01	-30.9	-34.7	12.4	1.59e-04	0	43	102	1048576	21	5601
2026-01-07 09:02:42.46	86.80	28.11	-31.0	-35.0	12.3	1.36e-04	0	43	102	1048576	21	5699
2026-01-07 09:02:43.46	86.53	28.21	-31.0	-34.5	12.3	1.87e-04	0	43	102	1048576	22	5415
2026-01-07 09:02:44.46	86.26	28.31	-31.1	-34.7	12.2	2.80e-04	0	43	102	1048576	22	5476
2026-01-07 09:02:45.47	85.99	28.41	-31.2	-35.1	11.9	4.03e-04	0	43	102	1048576	22	5631
2026-01-07 09:02:46.48	85.71	28.51	-31.2	-35.1	11.8	4.29e-04	0	43	102	1048576	22	5670
2026-01-07 09:02:47.48	85.43	28.61	-31.3	-35.4	11.6	6.82e-04	0	43	102	1048576	22	5786
2026-01-07 09:02:48.48	85.16	28.70	-31.4	-35.8	11.4	7.77e-04	0	43	102	1048576	22	5957
2026-01-07 09:02:49.48	84.88	28.80	-31.4	-35.8	11.4	8.91e-04	0	43	102	1048576	22	5956
2026-01-07 09:02:50.49	84.59	28.90	-31.4	-35.8	11.4	9.41e-04	0	43	102	1048576	22	5945
2026-01-07 09:02:51.49	84.31	29.00	-31.4	-35.9	11.3	1.14e-03	0	43	102	1048576	22	6004
2026-01-07 09:02:52.50	84.02	29.09	-31.6	-35.9	11.0	1.55e-03	0	43	102	1048576	23	5917
2026-01-07 09:02:53.50	83.73	29.19	-31.7	-36.2	10.8	2.52e-03	0	43	102	1048576	23	6042
2026-01-07 09:02:54.51	83.44	29.28	-31.7	-36.2	10.7	2.53e-03	0	43	102	1048576	23	6048
2026-01-07 09:02:55.51	83.15	29.38	-31.6	-36.1	10.8	2.93e-03	0	43	102	1048576	23	5989
2026-01-07 09:02:56.52	82.86	29.47	-31.6	-35.8	11.1	2.01e-03	0	43	102	1048576	23	5862
2026-01-07 09:02:57.52	82.56	29.57	-31.6	-36.0	10.9	2.12e-03	0	43	102	1048576	23	5956
2026-01-07 09:02:58.53	82.27	29.66	-31.8	-36.4	10.6	3.21e-03	0	43	102	1048576	23	6175
2026-01-07 09:02:59.53	81.97	29.75	-32.0	-37.2	10.0	6.19e-03	0	43	102	1048576	23	6590
2026-01-07 09:03:00.53	81.67	29.84	-32.1	-37.0	9.8	9.70e-03	0	43	102	1048576	24	6365
2026-01-07 09:03:01.53	81.37	29.94	-32.1	-37.2	9.7	9.04e-03	0	43	102	1048576	24	6453
2026-01-07 09:03:02.54	81.06	30.03	-32.0	-36.8	9.9	9.18e-03	0	43	102	1048576	24	6236
2026-01-07 09:03:03.55	80.76	30.12	-31.9	-36.6	10.1	8.34e-03	0	43	102	1048576	24	6143
2026-01-07 09:03:04.56	80.45	30.21	-31.9	-36.3	10.3	5.78e-03	0	43	102	1048576	24	6001
2026-01-07 09:03:05.56	80.14	30.30	-31.9	-36.4	10.2	5.27e-03	0	43	102	1048576	24	6060
2026-01-07 09:03:06.57	79.83	30.39	-31.9	-36.3	10.3	6.89e-03	0	43	102	1048576	24	6010
2026-01-07 09:03:07.58	79.52	30.47	-31.8	-36.1	10.5	3.39e-03	0	43	102	1048576	24	5875
2026-01-07 09:03:08.59	79.20	30.56	-31.7	-35.8	10.7	3.73e-03	0	43	102	1048576	24	5736
2026-01-07 09:03:09.60	78.88	30.65	-31.7	-35.6	10.9	2.87e-03	0	43	102	1048576	24	5639
2026-01-07 09:03:10.60	78.57	30.73	-31.8	-36.2	10.4	3.37e-03	0	43	102	1048576	24	5925
2026-01-07 09:03:11.61	78.25	30.82	-31.8	-36.2	10.4	4.63e-03	0	43	102	1048576	24	5925
2026-01-07 09:03:12.61	77.93	30.90	-31.8	-36.0	10.5	3.99e-03	0	43	102	1048576	24	5868
2026-01-07 09:03:13.62	77.60	30.99	-31.7	-35.8	10.7	3.07e-03	0	43	102	1048576	24	5754
2026-01-07 09:03:14.63	77.28	31.07	-31.7	-35.6	10.8	2.56e-03	0	43	102	1048576	24	5672
2026-01-07 09:03:15.63	76.95	31.15	-31.6	-35.3	11.1	2.18e-03	0	43	102	1048576	24	5512
2026-01-07 09:03:16.64	76.63	31.23	-31.5	-35.0	11.3	1.56e-03	0	43	102	1048576	24	5372
2026-01-07 09:03:17.64	76.30	31.31	-31.4	-34.7	11.5	9.48e-04	0	43	102	1048576	24	5255
2026-01-07 09:03:18.65	75.97	31.39	-31.4	-34.7	11.5	7.13e-04	0	43	102	1048576	24	5256
2026-01-07 09:03:19.66	75.63	31.47	-31.4	-34.7	11.5	8.32e-04	0	43	102	1048576	24	5261
2026-01-07 09:03:20.67	75.30	31.55	-31.4	-34.6	11.6	5.90e-04	0	43	102	1048576	24	5214
2026-01-07 09:03:21.67	74.96	31.62	-31.4	-34.5	11.7	5.97e-04	0	43	102	1048576	24	5194
2026-01-07 09:03:22.68	74.62	31.70	-31.4	-34.6	11.6	7.24e-04	0	43	102	1048576	24	5227
2026-01-07 09:03:23.69	74.28	31.77	-31.5	-35.0	11.3	7.28e-04	0	43	102	1048576	24	5390
2026-01-07 09:03:24.70	73.94	31.85	-31.4	-34.8	11.5	8.24e-04	0	43	102	1048576	24	5307
2026-01-07 09:03:25.70	73.60	31.92	-31.5	-34.8	11.5	9.44e-04	0	43	102	1048576	24	5319
2026-01-07 09:03:26.71	73.26	31.99	-31.4	-34.6	11.7	8.38e-04	0	43	102	1048576	24	5201
2026-01-07 09:03:27.71	72.91	32.06	-31.4	-34.6	11.7	5.67e-04	0	43	102	1048576	24	5200
2026-01-07 09:03:28.72	72.57	32.13	-31.3	-34.5	11.7	7.74e-04	0	43	102	1048576	24	5171
2026-01-07 09:03:29.73	72.22	32.20	-31.4	-34.6	11.6	6.21e-04	0	43	102	1048576	24	5209
2026-01-07 09:03:30.73	71.87	32.27	-31.4	-34.6	11.6	6.35e-04	0	43	102	1048576	24	5210
2026-01-07 09:03:31.73	71.52	32.34	-31.4	-34.6	11.6	7.19e-04	0	43	102	1048576	24	5222
2026-01-07 09:03:32.73	71.17	32.40	-31.4	-34.8	11.5	8.25e-04	0	43	102	1048576	24	5282
2026-01-07 09:03:33.74	70.82	32.47	-31.4	-34.7	11.6	7.66e-04	0	43	102	1048576	24	5259
2026-01-07 09:03:34.75	70.46	32.53	-31.3	-34.5	11.7	5.35e-04	0	43	102	1048576	24	5168
2026-01-07 09:03:35.74	70.11	32.59	-31.3	-34.7	11.9	4.49e-04	0	43	102	1048576	23	5350
2026-01-07 09:03:36.74	69.75	32.65	-31.2	-34.7	11.9	3.81e-04	0	43	102	1048576	23	5356
2026-01-07 09:03:37.75	69.39	32.71	-31.4	-35.1	11.7	5.45e-04	0	43	102	1048576	23	5504
2026-01-07 09:03:38.75	69.03	32.77	-31.3	-34.9	11.8	6.27e-04	0	43	102	1048576	23	5422
2026-01-07 09:03:39.77	68.67	32.83	-31.2	-34.4	12.1	2.89e-04	0	43	102	1048576	23	5235
2026-01-07 09:03:40.78	68.30	32.89	-31.2	-34.5	12.0	3.11e-04	0	43	102	1048576	23	5292
2026-01-07 09:03:41.78	67.94	32.94	-31.3	-34.7	11.9	4.26e-04	0	43	102	1048576	23	5366
2026-01-07 09:03:42.79	67.57	33.00	-31.2	-34.5	12.0	4.78e-04	0	43	102	1048576	23	5291
2026-01-07 09:03:43.79	67.21	33.05	-31.1	-34.2	12.2	3.27e-04	0	43	102	1048576	23	5140
2026-01-07 09:03:44.80	66.84	33.10	-30.9	-33.7	12.5	1.25e-04	0	43	102	1048576	23	4974
2026-01-07 09:03:45.81	66.47	33.15	-30.9	-33.6	12.7	6.79e-05	0	43	102	1048576	23	4914
2026-01-07 09:03:46.81	66.10	33.20	-30.9	-33.5	12.7	8.31e-05	0	43	102	1048576	23	4901
2026-01-07 09:03:47.82	65.73	33.25	-30.6	-33.4	13.1	3.28e-05	0	43	102	1048576	22	4959
2026-01-07 09:03:48.83	65.35	33.29	-30.4	-32.8	13.6	1.60e-05	0	43	102	1048576	22	4730
2026-01-07 09:03:49.84	64.98	33.34	-30.4	-32.7	13.6	5.30e-06	0	43	102	1048576	22	4700
2026-01-07 09:03:50.85	64.60	33.38	-30.3	-32.6	13.7	7.60e-06	0	43	102	1048576	22	4669
2026-01-07 09:03:51.85	64.23	33.42	-30.5	-33.0	13.4	9.90e-06	0	43	102	1048576	22	4812
2026-01-07 09:03:52.86	63.85	33.47	-30.4	-32.9	13.5	1.52e-05	0	43	102	1048576	22	4766
2026-01-07 09:03:53.87	63.47	33.51	-30.7	-33.6	13.0	1.60e-05	0	43	102	1048576	22	5026
2026-01-07 09:03:54.87	63.10	33.54	-30.6	-33.4	13.1	4.04e-05	0	43	102	1048576	22	4949
2026-01-07 09:03:55.88	62.72	33.58	-30.7	-33.5	13.1	4.11e-05	0	43	102	1048576	22	4998
2026-01-07 09:03:56.88	62.34	33.62	-30.8	-33.8	12.8	4.04e-05	0	43	102	1048576	22	5118
2026-01-07 09:03:57.88	61.96	33.65	-30.6	-33.4	13.1	3.05e-05	0	43	102	1048576	22	4952
2026-01-07 09:03:58.89	61.58	33.68	-30.6	-33.3	13.2	2.05e-05	0	43	102	1048576	22	4923
2026-01-07 09:03:59.90	61.19	33.72	-30.7	-33.5	13.1	2.74e-05	0	43	102	1048576	22	4989
2026-01-07 09:04:00.89	60.82	33.75	-30.7	-33.7	13.0	4.27e-05	0	43	102	1048576	22	5055
2026-01-07 09:04:01.90	60.43	33.77	-30.9	-34.3	12.5	7.70e-05	0	43	102	1048576	22	5301
2026-01-07 09:04:02.90	60.05	33.80	-31.0	-34.4	12.4	1.43e-04	0	43	102	1048576	22	5318
2026-01-07 09:04:03.91	59.66	33.83	-31.1	-34.8	12.2	1.42e-04	0	43	102	1048576	22	5505
2026-01-07 09:04:04.92	59.27	33.85	-30.9	-34.2	12.6	1.69e-04	0	43	102	1048576	22	5245
2026-01-07 09:04:05.93	58.89	33.87	-30.8	-33.9	12.8	7.85e-05	0	43	102	1048576	22	5117
2026-01-07 09:04:06.94	58.50	33.90	-30.8	-34.0	12.7	5.72e-05	0	43	102	1048576	22	5160
2026-01-07 09:04:07.94	58.11	33.92	-31.0	-34.3	12.5	9.46e-05	0	43	102	1048576	22	5288
2026-01-07 09:04:08.95	57.72	33.93	-30.8	-34.0	12.7	9.23e-05	0	43	102	1048576	22	5166
2026-01-07 09:04:09.95	57.34	33.95	-30.8	-33.7	12.9	6.40e-05	0	43	102	1048576	22	5062
2026-01-07 09:04:10.96	56.95	33.97	-30.7	-33.5	13.1	3.28e-05	0	43	102	1048576	22	4999
2026-01-07 09:04:11.97	56.56	33.98	-30.9	-34.0	12.7	7.09e-05	0	43	102	1048576	22	5184
2026-01-07 09:04:12.98	56.17	33.99	-30.8	-33.7	12.9	6.40e-05	0	43	102	1048576	22	5065
2026-01-07 09:04:13.99	55.78	34.00	-30.8	-33.7	12.9	4.88e-05	0	43	102	1048576	22	5063
2026-01-07 09:04:14.99	55.39	34.01	-30.7	-33.6	13.0	4.19e-05	0	43	102	1048576	22	5005
2026-01-07 09:04:16.00	55.00	34.02	-30.8	-33.9	12.8	4.42e-05	0	43	102	1048576	22	5117
2026-01-07 09:04:17.01	54.61	34.03	-30.7	-33.7	13.0	5.79e-05	0	43	102	1048576	22	5044
2026-01-07 09:04:18.00	54.22	34.03	-30.9	-34.2	12.6	8.54e-05	0	43	102	1048576	22	5256
2026-01-07 09:04:19.02	53.83	34.04	-30.7	-33.6	13.0	7.32e-05	0	43	102	1048576	22	5029
2026-01-07 09:04:20.02	53.44	34.04	-30.6	-33.4	13.2	4.11e-05	0	43	102	1048576	22	4937
2026-01-07 09:04:21.02	53.05	34.04	-30.6	-33.3	13.2	2.13e-05	0	43	102	1048576	22	4905
2026-01-07 09:04:22.03	52.66	34.04	-30.7	-33.5	13.1	2.74e-05	0	43	102	1048576	22	4981
2026-01-07 09:04:23.04	52.27	34.03	-30.6	-33.4	13.1	3.20e-05	0	43	102	1048576	22	4958
2026-01-07 09:04:24.05	51.88	34.03	-30.6	-33.4	13.1	2.51e-05	0	43	102	1048576	22	4954
2026-01-07 09:04:25.05	51.49	34.02	-30.8	-33.9	12.8	3.66e-05	0	43	102	1048576	22	5139
2026-01-07 09:04:26.06	51.10	34.02	-30.9	-34.3	12.6	7.85e-05	0	43	102	1048576	22	5301
2026-01-07 09:04:27.07	50.71	34.01	-31.1	-34.8	12.2	2.30e-04	0	43	102	1048576	22	5514
2026-01-07 09:04:28.08	50.32	34.00	-31.2	-35.0	12.1	3.34e-04	0	43	102	1048576	22	5572
2026-01-07 09:04:29.08	49.93	33.99	-31.2	-35.0	12.0	3.13e-04	0	43	102	1048576	22	5603
2026-01-07 09:04:30.09	49.54	33.97	-31.1	-34.7	12.2	3.24e-04	0	43	102	1048576	22	5459
2026-01-07 09:04:31.10	49.15	33.96	-31.2	-34.9	12.1	2.54e-04	0	43	102	1048576	22	5556
2026-01-07 09:04:32.10	48.76	33.94	-31.3	-35.5	11.7	3.92e-04	0	43	102	1048576	22	5795
2026-01-07 09:04:33.11	48.38	33.92	-31.3	-35.5	11.7	5.29e-04	0	43	102	1048576	22	5791
2026-01-07 09:04:34.12	47.99	33.91	-31.4	-35.8	11.5	9.42e-04	0	43	102	1048576	22	5918
2026-01-07 09:04:35.13	47.60	33.88	-31.3	-35.5	11.7	6.71e-04	0	43	102	1048576	22	5787
2026-01-07 09:04:36.14	47.21	33.86	-31.5	-35.5	11.3	7.47e-04	0	43	102	1048576	23	5710
2026-01-07 09:04:37.15	46.82	33.84	-31.4	-35.2	11.5	8.83e-04	0	43	102	1048576	23	5587
2026-01-07 09:04:38.15	46.44	33.81	-31.4	-35.3	11.4	1.00e-03	0	43	102	1048576	23	5637
2026-01-07 09:04:39.16	46.05	33.79	-31.6	-35.7	11.2	1.60e-03	0	43	102	1048576	23	5792
2026-01-07 09:04:40.17	45.67	33.76	-31.3	-35.0	11.6	8.28e-04	0	44	102	1048576	23	5492
2026-01-07 09:04:41.17	45.29	33.73	-31.2	-34.7	11.9	5.10e-04	0	43	102	1048576	23	5358
2026-01-07 09:04:42.17	44.91	33.70	-31.3	-34.9	11.7	4.68e-04	0	43	102	1048576	23	5431
2026-01-07 09:04:43.18	44.53	33.67	-31.4	-35.1	11.5	5.49e-04	0	43	102	1048576	23	5548
2026-01-07 09:04:44.19	44.14	33.63	-31.4	-35.3	11.5	7.57e-04	0	43	102	1048576	23	5597
2026-01-07 09:04:45.19	43.77	33.60	-31.5	-35.6	11.2	1.09e-03	0	43	102	1048576	23	5761
2026-01-07 09:04:46.21	43.38	33.56	-31.5	-35.6	11.2	1.38e-03	0	43	102	1048576	23	5735
2026-01-07 09:04:47.21	43.01	33.53	-31.5	-35.6	11.2	1.28e-03	0	43	102	1048576	23	5741
2026-01-07 09:04:48.22	42.63	33.49	-31.7	-36.0	10.9	2.07e-03	0	43	102	1048576	23	5915
2026-01-07 09:04:49.22	42.25	33.45	-31.6	-35.7	11.2	1.71e-03	0	43	102	1048576	23	5807
2026-01-07 09:04:50.23	41.88	33.40	-31.5	-35.6	11.3	1.35e-03	0	43	102	1048576	23	5742
2026-01-07 09:04:51.24	41.50	33.36	-31.5	-35.5	11.3	1.12e-03	0	43	102	1048576	23	5705
2026-01-07 09:04:52.25	41.12	33.32	-31.4	-35.3	11.4	1.11e-03	0	43	102	1048576	23	5627
2026-01-07 09:04:53.25	40.75	33.27	-31.3	-34.9	11.7	7.00e-04	0	43	102	1048576	23	5442
2026-01-07 09:04:54.25	40.39	33.22	-31.3	-34.9	11.6	5.19e-04	0	43	102	1048576	23	5452
2026-01-07 09:04:55.26	40.01	33.18	-31.4	-35.2	11.5	7.29e-04	0	43	102	1048576	23	5585
2026-01-07 09:04:56.27	39.64	33.13	-31.6	-35.8	11.0	1.43e-03	0	43	102	1048576	23	5863
2026-01-07 09:04:57.27	39.28	33.07	-31.5	-35.5	11.3	1.42e-03	0	43	102	1048576	23	5730
2026-01-07 09:04:58.28	38.91	33.02	-31.4	-35.1	11.6	9.04e-04	0	43	102	1048576	23	5508
2026-01-07 09:04:59.29	38.54	32.97	-31.3	-35.0	11.6	6.09e-04	0	43	102	1048576	23	5489
2026-01-07 09:05:00.29	38.18	32.91	-31.3	-34.8	11.7	5.74e-04	0	43	102	1048576	23	5412
2026-01-07 09:05:01.29	37.82	32.86	-31.2	-34.7	11.8	5.84e-04	0	43	102	1048576	23	5378
2026-01-07 09:05:02.30	37.46	32.80	-31.2	-34.6	11.9	4.52e-04	0	43	102	1048576	23	5338
2026-01-07 09:05:03.31	37.09	32.74	-31.1	-34.3	12.1	3.31e-04	0	43	102	1048576	23	5212
2026-01-07 09:05:04.31	36.74	32.68	-31.2	-34.6	11.9	4.47e-04	0	43	102	1048576	23	5307
2026-01-07 09:05:05.32	36.38	32.62	-31.2	-34.4	12.0	3.35e-04	0	43	102	1048576	23	5247
2026-01-07 09:05:06.32	36.02	32.56	-31.2	-34.5	11.9	3.08e-04	0	43	102	1048576	23	5282
2026-01-07 09:05:07.32	35.67	32.50	-31.3	-34.9	11.7	5.28e-04	0	43	102	1048576	23	5434
2026-01-07 09:05:08.32	35.32	32.44	-31.2	-34.5	12.0	4.32e-04	0	43	102	1048576	23	5269
2026-01-07 09:05:09.33	34.97	32.37	-31.1	-34.3	12.1	2.64e-04	0	43	102	1048576	23	5187
2026-01-07 09:05:10.33	34.62	32.31	-31.2	-34.5	11.9	3.36e-04	0	43	102	1048576	23	5281
2026-01-07 09:05:11.34	34.27	32.24	-31.2	-34.6	11.9	4.65e-04	0	43	102	1048576	23	5336
2026-01-07 09:05:12.35	33.92	32.17	-31.3	-34.8	11.7	4.31e-04	0	43	102	1048576	23	5427
2026-01-07 09:05:13.35	33.57	32.10	-31.4	-35.3	11.3	8.09e-04	0	43	102	1048576	23	5637
2026-01-07 09:05:14.36	33.23	32.03	-31.5	-35.6	11.1	1.29e-03	0	43	102	1048576	23	5757
2026-01-07 09:05:15.37	32.88	31.96	-31.7	-36.1	10.8	1.99e-03	0	43	102	1048576	23	6023
2026-01-07 09:05:16.37	32.54	31.89	-31.7	-36.1	10.7	3.09e-03	0	43	102	1048576	23	6014
2026-01-07 09:05:17.38	32.20	31.82	-31.6	-36.0	10.9	2.28e-03	0	43	102	1048576	23	5947
2026-01-07 09:05:18.39	31.86	31.74	-31.5	-35.6	11.2	1.56e-03	0	43	102	1048576	23	5770
2026-01-07 09:05:19.39	31.52	31.67	-31.5	-35.6	11.1	1.66e-03	0	43	102	1048576	23	5764
2026-01-07 09:05:20.40	31.19	31.59	-31.4	-35.3	11.4	1.16e-03	0	43	102	1048576	23	5617
2026-01-07 09:05:21.41	30.85	31.51	-31.4	-35.3	11.3	1.03e-03	0	43	102	1048576	23	5633
2026-01-07 09:05:22.41	30.52	31.44	-31.5	-35.5	11.2	1.28e-03	0	43	102	1048576	23	5735
2026-01-07 09:05:23.42	30.19	31.36	-31.5	-35.7	11.0	1.79e-03	0	43	102	1048576	23	5809
2026-01-07 09:05:24.42	29.86	31.28	-31.5	-35.5	11.2	1.50e-03	0	43	102	1048576	23	5742
2026-01-07 09:05:25.43	29.53	31.20	-31.5	-35.6	11.1	1.48e-03	0	43	102	1048576	23	5779
2026-01-07 09:05:26.43	29.21	31.12	-31.6	-35.9	10.9	1.61e-03	0	43	102	1048576	23	5904
2026-01-07 09:05:27.44	28.88	31.03	-31.8	-36.6	10.4	3.48e-03	0	43	102	1048576	23	6227
2026-01-07 09:05:28.44	28.56	30.95	-31.8	-36.4	10.6	4.72e-03	0	43	102	1048576	23	6159
2026-01-07 09:05:29.45	28.24	30.87	-31.8	-36.4	10.5	4.56e-03	0	43	102	1048576	23	6165
2026-01-07 09:05:30.46	27.92	30.78	-31.8	-36.6	10.4	4.16e-03	0	43	102	1048576	23	6236
2026-01-07 09:05:31.47	27.60	30.70	-31.8	-36.7	10.3	6.09e-03	0	43	102	1048576	23	6311
2026-01-07 09:05:32.47	27.29	30.61	-31.8	-36.5	10.5	4.69e-03	0	43	102	1048576	23	6184
2026-01-07 09:05:33.47	26.97	30.53	-31.8	-36.4	10.5	3.66e-03	0	43	102	1048576	23	6160
2026-01-07 09:05:34.48	26.66	30.44	-31.7	-36.4	10.6	3.26e-03	0	43	102	1048576	23	6133
2026-01-07 09:05:35.49	26.35	30.35	-31.7	-36.3	10.6	4.28e-03	0	43	102	1048576	23	6123
2026-01-07 09:05:36.50	26.04	30.26	-31.7	-36.1	10.7	3.28e-03	0	43	102	1048576	23	6027
2026-01-07 09:05:37.51	25.73	30.17	-31.8	-36.5	10.5	4.83e-03	0	43	102	1048576	23	6190
2026-01-07 09:05:38.51	25.43	30.08	-31.5	-35.8	10.9	2.96e-03	0	43	102	1048576	23	5856
2026-01-07 09:05:39.52	25.12	29.99	-31.5	-35.5	11.2	1.72e-03	0	43	102	1048576	23	5720
2026-01-07 09:05:40.52	24.82	29.90	-31.3	-35.1	11.5	8.75e-04	0	43	102	1048576	23	5532
2026-01-07 09:05:41.53	24.52	29.81	-31.3	-35.1	11.5	8.13e-04	0	43	102	1048576	23	5537
2026-01-07 09:05:42.54	24.22	29.72	-31.3	-35.0	11.6	8.74e-04	0	43	102	1048576	23	5503
2026-01-07 09:05:43.54	23.92	29.63	-31.2	-34.7	11.7	6.24e-04	0	43	102	1048576	23	5402
2026-01-07 09:05:44.54	23.63	29.53	-31.1	-34.4	11.9	4.64e-04	0	43	102	1048576	23	5255
2026-01-07 09:05:45.55	23.34	29.44	-31.2	-34.9	11.6	4.91e-04	0	43	102	1048576	23	5457
2026-01-07 09:05:46.56	23.04	29.34	-31.3	-35.1	11.4	8.34e-04	0	43	102	1048576	23	5570
2026-01-07 09:05:47.57	22.75	29.25	-31.4	-35.4	11.3	1.21e-03	0	43	102	1048576	23	5686
2026-01-07 09:05:48.58	22.46	29.15	-31.4	-35.4	11.2	1.35e-03	0	43	102	1048576	23	5666
2026-01-07 09:05:49.58	22.18	29.06	-31.4	-35.4	11.2	1.23e-03	0	43	102	1048576	23	5694
2026-01-07 09:05:50.59	21.89	28.96	-31.5	-35.5	11.2	1.29e-03	0	43	102	1048576	23	5741
2026-01-07 09:05:51.60	21.61	28.86	-31.3	-35.1	11.4	1.28e-03	0	43	102	1048576	23	5567
2026-01-07 09:05:52.61	21.33	28.76	-31.1	-34.5	11.9	7.03e-04	0	43	102	1048576	23	5292
2026-01-07 09:05:53.61	21.05	28.67	-31.0	-34.2	12.0	3.41e-04	0	43	102	1048576	23	5201
2026-01-07 09:05:54.62	20.77	28.57	-31.1	-34.3	12.0	2.88e-04	0	43	102	1048576	23	5207
2026-01-07 09:05:55.63	20.49	28.47	-31.1	-34.3	12.0	4.07e-04	0	43	102	1048576	23	5219
2026-01-07 09:05:56.63	20.22	28.37	-31.0	-34.0	12.2	2.55e-04	0	43	102	1048576	23	5110
2026-01-07 09:05:57.64	19.94	28.27	-31.0	-34.1	12.1	2.30e-04	0	43	102	1048576	23	5126
2026-01-07 09:05:58.65	19.67	28.17	-31.0	-34.0	12.1	1.95e-04	0	43	102	1048576	23	5115
2026-01-07 09:05:59.65	19.40	28.07	-31.0	-34.0	12.2	2.14e-04	0	43	102	1048576	23	5095
2026-01-07 09:06:00.64	19.14	27.97	-31.1	-34.3	12.0	2.88e-04	0	43	102	1048576	23	5210
2026-01-07 09:06:01.65	18.87	27.87	-31.0	-34.2	12.0	4.73e-04	0	43	102	1048576	23	5182
2026-01-07 09:06:02.65	18.61	27.77	-30.8	-33.6	12.4	1.65e-04	0	43	102	1048576	23	4946
2026-01-07 09:06:03.66	18.35	27.67	-30.7	-33.7	12.7	7.40e-05	0	43	102	1048576	22	5097
2026-01-07 09:06:04.66	18.09	27.57	-30.7	-33.7	12.7	6.10e-05	0	43	102	1048576	22	5087
2026-01-07 09:06:05.67	17.83	27.47	-30.6	-33.6	12.8	7.09e-05	0	43	102	1048576	22	5044
2026-01-07 09:06:06.67	17.57	27.37	-30.5	-33.2	13.0	4.57e-05	0	43	102	1048576	22	4895
2026-01-07 09:06:07.69	17.31	27.26	-30.4	-32.9	13.2	2.97e-05	0	43	102	1048576	22	4814
2026-01-07 09:06:08.69	17.06	27.16	-30.5	-33.0	13.2	1.90e-05	0	43	102	1048576	22	4844
2026-01-07 09:06:09.69	16.81	27.06	-30.3	-32.7	13.4	1.60e-05	0	43	102	1048576	22	4709
2026-01-07 09:06:10.70	16.56	26.95	-30.0	-32.4	13.9	7.60e-06	0	43	102	1048576	21	4722
2026-01-07 09:06:11.71	16.31	26.85	-29.8	-31.7	14.3	3.00e-06	0	43	102	1048576	21	4491
2026-01-07 09:06:12.71	16.06	26.75	-29.5	-31.6	14.7	0.00e+00	0	43	102	1048576	20	4551
2026-01-07 09:06:13.71	15.82	26.64	-29.5	-31.5	14.7	7.00e-07	0	43	102	1048576	20	4533
2026-01-07 09:06:14.72	15.57	26.54	-29.4	-31.1	15.0	0.00e+00	0	43	102	1048576	20	4407
2026-01-07 09:06:15.73	15.33	26.44	-29.3	-31.1	15.0	0.00e+00	0	43	102	1048576	20	4397
2026-01-07 09:06:16.73	15.09	26.33	-29.4	-31.8	14.8	0.00e+00	0	43	102	1048576	19	4727
2026-01-07 09:06:17.74	14.85	26.23	-29.4	-31.7	14.9	0.00e+00	0	43	102	1048576	19	4682
2026-01-07 09:06:18.75	14.61	26.12	-29.3	-31.5	15.1	0.00e+00	0	43	102	1048576	19	4644
2026-01-07 09:06:19.75	14.37	26.02	-29.3	-31.5	15.1	0.00e+00	0	43	102	1048576	19	4637
2026-01-07 09:06:20.76	14.14	25.91	-29.3	-31.5	15.1	0.00e+00	0	43	102	1048576	19	4639
2026-01-07 09:06:21.76	13.91	25.81	-29.6	-32.1	14.7	0.00e+00	0	43	102	1048576	19	4837
2026-01-07 09:06:22.77	13.67	25.70	-29.3	-31.5	15.0	0.00e+00	0	43	102	1048576	19	4639
2026-01-07 09:06:23.78	13.44	25.60	-29.2	-31.1	15.3	0.00e+00	0	43	102	1048576	19	4512
2026-01-07 09:06:24.79	13.21	25.49	-29.0	-30.8	15.4	0.00e+00	0	43	102	1048576	19	4413
2026-01-07 09:06:25.79	12.99	25.39	-29.1	-30.9	15.4	0.00e+00	0	43	102	1048576	19	4449
2026-01-07 09:06:26.80	12.76	25.28	-29.1	-30.9	15.4	0.00e+00	0	43	102	1048576	19	4447
2026-01-07 09:06:27.81	12.53	25.18	-29.0	-30.8	15.5	0.00e+00	0	43	102	1048576	19	4405
2026-01-07 09:06:28.81	12.31	25.07	-28.9	-30.6	15.6	0.00e+00	0	43	102	1048576	19	4354
2026-01-07 09:06:29.82	12.09	24.97	-29.0	-30.7	15.5	0.00e+00	0	43	102	1048576	19	4382
2026-01-07 09:06:30.83	11.87	24.86	-28.9	-30.5	15.7	0.00e+00	0	43	102	1048576	19	4322
2026-01-07 09:06:31.84	11.65	24.75	-28.9	-30.5	15.6	0.00e+00	0	43	102	1048576	19	4313
2026-01-07 09:06:32.84	11.44	24.65	-28.9	-30.5	15.6	0.00e+00	0	43	102	1048576	19	4327
2026-01-07 09:06:33.85	11.22	24.54	-28.9	-30.6	15.5	0.00e+00	0	43	102	1048576	19	4355
2026-01-07 09:06:34.85	11.01	24.44	-28.8	-30.4	15.7	0.00e+00	0	43	102	1048576	19	4283
2026-01-07 09:06:35.86	10.80	24.33	-28.8	-30.4	15.7	0.00e+00	0	43	102	1048576	19	4293
2026-01-07 09:06:36.87	10.58	24.22	-29.0	-30.6	15.5	0.00e+00	0	43	102	1048576	19	4370
2026-01-07 09:06:37.87	10.38	24.12	-29.0	-30.7	15.5	0.00e+00	0	43	102	1048576	19	4372
2026-01-07 09:06:38.88	10.17	24.01	-29.1	-30.9	15.3	0.00e+00	0	43	102	1048576	19	4460
2026-01-07 09:06:39.89	9.96	23.91	-29.1	-30.9	15.3	0.00e+00	0	43	102	1048576	19	4461
2026-01-07 09:06:40.89	9.76	23.80	-29.1	-31.0	15.3	0.00e+00	0	43	102	1048576	19	4480
2026-01-07 09:06:41.90	9.55	23.70	-29.1	-31.1	15.2	0.00e+00	0	43	102	1048576	19	4502
2026-01-07 09:06:42.91	9.35	23.59	-29.2	-31.4	15.1	0.00e+00	0	43	102	1048576	19	4601
2026-01-07 09:06:43.91	9.15	23.49	-29.3	-31.4	15.0	0.00e+00	0	43	102	1048576	19	4618
2026-01-07 09:06:44.92	8.95	23.38	-29.3	-31.6	14.9	0.00e+00	0	43	102	1048576	19	4679
2026-01-07 09:06:45.92	8.75	23.28	-29.3	-31.5	15.0	0.00e+00	0	43	102	1048576	19	4644
2026-01-07 09:06:46.92	8.56	23.17	-29.3	-31.6	14.9	0.00e+00	0	43	102	1048576	19	4683
2026-01-07 09:06:47.93	8.36	23.06	-29.5	-31.9	14.7	0.00e+00	0	43	102	1048576	19	4791
2026-01-07 09:06:48.94	8.17	22.96	-29.4	-31.7	14.9	0.00e+00	0	43	102	1048576	19	4697
2026-01-07 09:06:49.95	7.97	22.85	-29.4	-31.7	14.8	0.00e+00	0	43	102	1048576	19	4720
2026-01-07 09:06:50.96	7.78	22.75	-29.5	-31.9	14.7	0.00e+00	0	43	102	1048576	19	4795
2026-01-07 09:06:51.97	7.59	22.64	-29.4	-31.8	14.7	0.00e+00	0	43	102	1048576	19	4757
2026-01-07 09:06:52.98	7.40	22.54	-29.5	-32.1	14.6	0.00e+00	0	43	102	1048576	19	4832
2026-01-07 09:06:53.99	7.21	22.43	-29.5	-32.1	14.6	0.00e+00	0	43	102	1048576	19	4844
2026-01-07 09:06:55.00	7.03	22.33	-29.5	-32.0	14.6	0.00e+00	0	43	102	1048576	19	4806
2026-01-07 09:06:56.00	6.84	22.22	-29.6	-32.4	14.4	1.50e-06	0	43	102	1048576	19	4936
2026-01-07 09:06:57.00	6.66	22.12	-29.5	-32.1	14.6	0.00e+00	0	43	102	1048576	19	4839
2026-01-07 09:06:58.01	6.48	22.01	-29.5	-32.1	14.6	7.00e-07	0	43	102	1048576	19	4829
2026-01-07 09:06:59.02	6.29	21.91	-29.5	-32.1	14.6	0.00e+00	0	43	102	1048576	19	4830
2026-01-07 09:07:00.03	6.11	21.81	-29.6	-32.4	14.4	0.00e+00	0	43	102	1048576	19	4949
2026-01-07 09:07:01.03	5.94	21.70	-29.6	-32.2	14.5	7.00e-07	0	43	102	1048576	19	4876
2026-01-07 09:07:02.04	5.76	21.60	-29.6	-32.4	14.4	0.00e+00	0	43	102	1048576	19	4932
2026-01-07 09:07:03.04	5.58	21.50	-29.8	-32.8	14.1	1.50e-06	0	44	102	1048576	19	5100
2026-01-07 09:07:04.04	5.41	21.39	-29.7	-32.5	14.3	7.00e-07	0	43	102	1048576	19	4985
2026-01-07 09:07:05.04	5.24	21.29	-29.7	-32.5	14.3	2.20e-06	0	43	102	1048576	19	4978
2026-01-07 09:07:06.05	5.06	21.19	-29.7	-32.6	14.2	0.00e+00	0	43	102	1048576	19	5036
2026-01-07 09:07:07.06	4.89	21.08	-29.8	-32.9	14.0	1.50e-06	0	43	102	1048576	19	5143
2026-01-07 09:07:08.06	4.72	20.98	-29.9	-33.0	14.0	2.20e-06	0	43	102	1048576	19	5161
2026-01-07 09:07:09.07	4.55	20.88	-29.9	-33.1	13.9	1.50e-06	0	43	102	1048576	19	5196
2026-01-07 09:07:10.08	4.38	20.77	-30.0	-33.3	13.7	2.20e-06	0	43	102	1048576	19	5286
2026-01-07 09:07:11.08	4.22	20.67	-30.0	-33.3	13.7	5.30e-06	0	43	102	1048576	19	5294
2026-01-07 09:07:12.09	4.05	20.57	-30.0	-32.9	13.6	2.20e-06	0	43	102	1048576	20	5027
2026-01-07 09:07:13.10	3.88	20.47	-30.1	-33.2	13.4	1.06e-05	0	43	102	1048576	20	5160
2026-01-07 09:07:14.11	3.72	20.36	-30.0	-33.0	13.6	9.10e-06	0	43	102	1048576	20	5068
2026-01-07 09:07:15.11	3.56	20.26	-30.2	-33.4	13.2	1.52e-05	0	43	102	1048576	20	5237
2026-01-07 09:07:16.12	3.40	20.16	-30.1	-33.2	13.4	1.37e-05	0	43	102	1048576	20	5165
2026-01-07 09:07:17.12	3.24	20.06	-30.3	-33.7	13.1	2.82e-05	0	43	102	1048576	20	5331
2026-01-07 09:07:18.13	3.08	19.96	-30.2	-33.6	13.2	2.05e-05	0	43	102	1048576	20	5288
2026-01-07 09:07:19.14	2.92	19.86	-30.3	-33.8	13.0	3.58e-05	0	43	102	1048576	20	5396
2026-01-07 09:07:20.14	2.76	19.76	-30.3	-33.7	13.0	2.89e-05	0	43	102	1048576	20	5355
2026-01-07 09:07:21.15	2.61	19.65	-30.4	-34.0	12.9	6.17e-05	0	43	102	1048576	20	5463
2026-01-07 09:07:22.16	2.45	19.55	-30.3	-33.9	12.9	5.03e-05	0	43	102	1048576	20	5440
2026-01-07 09:07:23.17	2.30	19.45	-30.4	-34.2	12.7	7.55e-05	0	43	102	1048576	20	5560
2026-01-07 09:07:24.17	2.14	19.35	-30.4	-34.1	12.8	5.64e-05	0	43	102	1048576	20	5509
2026-01-07 09:07:25.18	1.99	19.25	-30.3	-33.8	13.0	4.95e-05	0	43	102	1048576	20	5387
2026-01-07 09:07:26.18	1.84	19.15	-30.3	-33.7	13.1	3.50e-05	0	43	102	1048576	20	5336
2026-01-07 09:07:27.19	1.69	19.05	-30.3	-33.8	13.0	4.80e-05	0	43	102	1048576	20	5375
2026-01-07 09:07:28.20	1.54	18.95	-30.3	-33.7	13.0	3.50e-05	0	43	102	1048576	20	5354
2026-01-07 09:07:29.21	1.39	18.85	-30.3	-33.7	13.0	3.05e-05	0	43	102	1048576	20	5358
2026-01-07 09:07:30.21	1.25	18.76	-30.3	-33.8	12.9	4.57e-05	0	43	102	1048576	20	5394
2026-01-07 09:07:31.22	1.10	18.66	-30.3	-33.9	12.9	4.42e-05	0	43	102	1048576	20	5433
2026-01-07 09:07:32.23	0.95	18.56	-30.4	-34.1	12.7	6.33e-05	0	43	102	1048576	20	5512
2026-01-07 09:07:33.23	0.81	18.46	-30.4	-34.0	12.8	6.40e-05	0	43	102	1048576	20	5487
2026-01-07 09:07:34.25	0.67	18.36	-30.4	-34.2	12.6	9.00e-05	0	43	102	1048576	20	5562
2026-01-07 09:07:35.25	0.53	18.26	-30.4	-34.1	12.7	7.32e-05	0	43	102	1048576	20	5528
2026-01-07 09:07:36.26	0.38	18.16	-30.5	-34.4	12.6	8.39e-05	0	44	102	1048576	20	5637
2026-01-07 09:07:37.26	0.24	18.07	-30.6	-34.2	12.3	1.44e-04	0	43	102	1048576	21	5441
2026-01-07 09:07:38.26	0.11	17.97	-30.6	-34.1	12.3	1.62e-04	0	43	102	1048576	21	5426
2026-01-07 09:07:39.28	359.97	17.87	-30.7	-34.4	12.1	2.10e-04	0	43	102	1048576	21	5547
2026-01-07 09:07:40.28	359.83	17.77	-30.8	-34.7	11.9	3.99e-04	0	43	102	1048576	21	5683
2026-01-07 09:07:41.28	359.69	17.68	-30.8	-34.8	11.9	3.49e-04	0	43	102	1048576	21	5711
2026-01-07 09:07:42.29	359.56	17.58	-30.8	-34.9	11.8	4.39e-04	0	43	102	1048576	21	5768
2026-01-07 09:07:43.30	359.42	17.48	-30.9	-35.0	11.7	4.92e-04	0	43	102	1048576	21	5806
2026-01-07 09:07:44.30	359.29	17.39	-31.0	-34.8	11.5	8.53e-04	0	43	102	1048576	22	5606
2026-01-07 09:07:45.31	359.15	17.29	-30.8	-34.3	11.9	5.52e-04	0	43	102	1048576	22	5405
2026-01-07 09:07:46.32	359.02	17.20	-30.7	-34.0	12.1	3.17e-04	0	43	102	1048576	22	5277
2026-01-07 09:07:47.32	358.89	17.10	-30.7	-34.1	12.0	2.84e-04	0	43	102	1048576	22	5295
2026-01-07 09:07:48.33	358.76	17.01	-30.8	-34.2	12.0	3.01e-04	0	43	102	1048576	22	5335
2026-01-07 09:07:49.33	358.63	16.91	-30.9	-34.6	11.6	4.39e-04	0	43	102	1048576	22	5506
2026-01-07 09:07:50.34	358.50	16.82	-30.8	-34.5	11.7	7.55e-04	0	43	102	1048576	22	5464
2026-01-07 09:07:51.35	358.37	16.72	-30.7	-34.1	11.9	4.26e-04	0	43	102	1048576	22	5325
2026-01-07 09:07:52.36	358.25	16.63	-30.7	-33.9	12.1	3.07e-04	0	43	102	1048576	22	5232
2026-01-07 09:07:53.36	358.12	16.53	-30.6	-33.7	12.2	2.08e-04	0	43	102	1048576	22	5158
2026-01-07 09:07:54.37	357.99	16.44	-30.6	-33.7	12.2	2.33e-04	0	43	102	1048576	22	5161
2026-01-07 09:07:55.37	357.87	16.35	-30.5	-33.5	12.3	1.72e-04	0	43	102	1048576	22	5084
2026-01-07 09:07:56.38	357.75	16.25	-30.5	-33.4	12.5	1.36e-04	0	43	102	1048576	22	5034
2026-01-07 09:07:57.39	357.62	16.16	-30.6	-33.8	12.2	1.85e-04	0	43	102	1048576	22	5178
2026-01-07 09:07:58.39	357.50	16.06	-30.6	-33.9	12.1	3.36e-04	0	43	102	1048576	22	5226
2026-01-07 09:07:59.40	357.38	15.97	-30.5	-33.3	12.5	1.85e-04	0	43	102	1048576	22	5009
2026-01-07 09:08:00.40	357.26	15.88	-30.4	-33.1	12.6	9.84e-05	0	43	102	1048576	22	4924
2026-01-07 09:08:01.41	357.14	15.79	-30.4	-33.1	12.6	9.15e-05	0	43	102	1048576	22	4920
2026-01-07 09:08:02.42	357.02	15.69	-30.4	-33.2	12.6	9.76e-05	0	43	102	1048576	22	4943
2026-01-07 09:08:03.42	356.90	15.60	-30.5	-33.4	12.4	1.41e-04	0	43	102	1048576	22	5029
2026-01-07 09:08:04.42	356.78	15.51	-30.4	-33.2	12.5	1.30e-04	0	43	102	1048576	22	4979
2026-01-07 09:08:05.42	356.67	15.42	-30.5	-33.4	12.3	1.52e-04	0	43	102	1048576	22	5065
2026-01-07 09:08:06.43	356.55	15.33	-30.5	-33.5	12.3	1.77e-04	0	43	102	1048576	22	5090
2026-01-07 09:08:07.44	356.44	15.24	-30.6	-33.8	12.1	2.14e-04	0	43	102	1048576	22	5196
2026-01-07 09:08:08.44	356.32	15.15	-30.6	-33.8	12.1	3.40e-04	0	44	102	1048576	22	5194
2026-01-07 09:08:09.45	356.21	15.06	-30.5	-33.6	12.2	2.08e-04	0	43	102	1048576	22	5122
2026-01-07 09:08:10.46	356.09	14.96	-30.6	-33.9	12.0	2.34e-04	0	43	102	1048576	22	5229
2026-01-07 09:08:11.46	355.98	14.88	-30.6	-33.9	12.0	4.22e-04	0	43	102	1048576	22	5255
2026-01-07 09:08:12.47	355.87	14.78	-30.6	-33.8	12.0	3.18e-04	0	43	102	1048576	22	5226
2026-01-07 09:08:13.47	355.76	14.70	-30.7	-34.3	11.7	4.59e-04	0	43	102	1048576	22	5400
2026-01-07 09:08:14.48	355.65	14.61	-30.8	-34.4	11.6	7.86e-04	0	43	102	1048576	22	5451
2026-01-07 09:08:15.49	355.54	14.52	-30.6	-34.0	11.9	4.45e-04	0	43	102	1048576	22	5276
2026-01-07 09:08:16.49	355.43	14.43	-30.6	-33.7	12.1	3.04e-04	0	43	102	1048576	22	5180
2026-01-07 09:08:17.49	355.32	14.34	-30.5	-33.5	12.2	2.48e-04	0	43	102	1048576	22	5100
2026-01-07 09:08:18.50	355.21	14.25	-30.5	-33.6	12.1	1.98e-04	0	43	102	1048576	22	5143
2026-01-07 09:08:19.50	355.10	14.16	-30.5	-33.5	12.2	2.37e-04	0	43	102	1048576	22	5094
2026-01-07 09:08:20.51	355.00	14.07	-30.5	-33.4	12.3	2.16e-04	0	43	102	1048576	22	5045
2026-01-07 09:08:21.51	354.89	13.99	-30.5	-33.5	12.2	2.20e-04	0	43	102	1048576	22	5111
2026-01-07 09:08:22.51	354.79	13.90	-30.5	-33.6	12.1	2.01e-04	0	43	102	1048576	22	5155
2026-01-07 09:08:23.51	354.68	13.81	-30.5	-33.6	12.1	3.46e-04	0	43	102	1048576	22	5158
2026-01-07 09:08:24.52	354.58	13.72	-30.4	-33.2	12.4	1.93e-04	0	43	102	1048576	22	4981
2026-01-07 09:08:25.53	354.48	13.64	-30.3	-33.0	12.6	9.38e-05	0	43	102	1048576	22	4907
2026-01-07 09:08:26.54	354.37	13.55	-30.3	-33.0	12.6	1.09e-04	0	43	102	1048576	22	4896
2026-01-07 09:08:27.55	354.27	13.46	-30.4	-33.2	12.4	1.29e-04	0	43	102	1048576	22	4964
2026-01-07 09:08:28.56	354.17	13.37	-30.5	-33.5	12.2	2.16e-04	0	43	102	1048576	22	5081
2026-01-07 09:08:29.57	354.07	13.29	-30.5	-33.5	12.1	2.41e-04	0	43	102	1048576	22	5120
2026-01-07 09:08:30.58	353.97	13.20	-30.6	-33.8	11.9	3.17e-04	0	43	102	1048576	22	5226
2026-01-07 09:08:31.59	353.87	13.12	-30.6	-33.9	11.8	5.31e-04	0	43	102	1048576	22	5261
2026-01-07 09:08:32.60	353.77	13.03	-30.7	-34.2	11.7	4.48e-04	0	44	102	1048576	22	5382
2026-01-07 09:08:33.60	353.67	12.94	-30.7	-34.3	11.6	8.12e-04	0	43	102	1048576	22	5424
2026-01-07 09:08:34.60	353.57	12.86	-30.8	-34.5	11.4	8.03e-04	0	43	102	1048576	22	5534
2026-01-07 09:08:35.61	353.47	12.77	-30.8	-34.7	11.2	1.41e-03	0	43	102	1048576	22	5626
2026-01-07 09:08:36.61	353.38	12.69	-30.8	-34.4	11.4	1.01e-03	0	43	102	1048576	22	5488
2026-01-07 09:08:37.62	353.28	12.61	-30.7	-34.4	11.5	8.29e-04	0	43	102	1048576	22	5492
2026-01-07 09:08:38.62	353.19	12.52	-30.7	-34.3	11.5	8.59e-04	0	43	102	1048576	22	5449
2026-01-07 09:08:39.63	353.09	12.44	-30.8	-34.5	11.3	1.09e-03	0	43	102	1048576	22	5552
2026-01-07 09:08:40.64	353.00	12.35	-30.9	-34.9	11.0	1.49e-03	0	43	102	1048576	22	5716
2026-01-07 09:08:41.65	352.90	12.27	-30.9	-34.8	11.1	2.03e-03	0	44	102	1048576	22	5670
2026-01-07 09:08:42.66	352.81	12.18	-30.8	-34.7	11.2	1.45e-03	0	43	102	1048576	22	5622
2026-01-07 09:08:43.66	352.72	12.10	-30.8	-34.6	11.3	1.16e-03	0	43	102	1048576	22	5577
2026-01-07 09:08:44.67	352.62	12.02	-30.8	-34.7	11.2	1.53e-03	0	43	102	1048576	22	5618
2026-01-07 09:08:45.68	352.53	11.93	-30.8	-34.7	11.2	1.40e-03	0	43	102	1048576	22	5620
2026-01-07 09:08:46.68	352.44	11.85	-30.9	-35.0	10.9	1.82e-03	0	43	102	1048576	22	5780
2026-01-07 09:08:47.68	352.35	11.77	-30.9	-34.9	11.0	2.16e-03	0	43	102	1048576	22	5728
2026-01-07 09:08:48.68	352.26	11.69	-30.9	-35.0	10.9	1.63e-03	0	43	102	1048576	22	5790
2026-01-07 09:08:49.69	352.17	11.61	-30.9	-35.1	10.8	2.51e-03	0	44	102	1048576	22	5829
2026-01-07 09:08:50.70	352.08	11.52	-30.9	-35.0	11.0	2.10e-03	0	43	102	1048576	22	5753
2026-01-07 09:08:51.71	351.99	11.44	-30.9	-35.0	10.9	1.94e-03	0	43	102	1048576	22	5774
2026-01-07 09:08:52.71	351.91	11.36	-30.9	-35.1	10.8	2.48e-03	0	43	102	1048576	22	5840
2026-01-07 09:08:53.72	351.82	11.28	-30.9	-35.1	10.8	2.72e-03	0	43	102	1048576	22	5834
2026-01-07 09:08:54.73	351.73	11.20	-30.9	-34.9	11.0	2.35e-03	0	43	102	1048576	22	5735
2026-01-07 09:08:55.74	351.64	11.12	-30.8	-34.8	11.1	1.61e-03	0	44	102	1048576	22	5670
2026-01-07 09:08:56.74	351.56	11.04	-30.9	-34.9	11.0	2.04e-03	0	43	102	1048576	22	5717
2026-01-07 09:08:57.75	351.47	10.96	-30.8	-34.8	11.0	1.99e-03	0	44	102	1048576	22	5672
2026-01-07 09:08:58.74	351.39	10.88	-30.8	-34.8	11.0	1.86e-03	0	43	102	1048576	22	5698
2026-01-07 09:08:59.75	351.30	10.80	-30.9	-35.1	10.8	2.50e-03	0	43	102	1048576	22	5813
2026-01-07 09:09:00.75	351.22	10.72	-30.9	-35.0	10.8	2.95e-03	0	43	102	1048576	22	5776
2026-01-07 09:09:01.76	351.14	10.64	-30.8	-34.9	10.9	2.12e-03	0	43	102	1048576	22	5717
2026-01-07 09:09:02.77	351.05	10.56	-30.9	-35.1	10.7	2.48e-03	0	43	102	1048576	22	5847
2026-01-07 09:09:03.77	350.97	10.48	-30.9	-35.1	10.8	2.84e-03	0	43	102	1048576	22	5813
2026-01-07 09:09:04.78	350.89	10.40	-30.9	-35.1	10.8	2.37e-03	0	43	102	1048576	22	5822
2026-01-07 09:09:05.79	350.81	10.32	-31.0	-35.2	10.7	2.74e-03	0	43	102	1048576	22	5891
2026-01-07 09:09:06.80	350.72	10.24	-31.0	-35.4	10.5	3.71e-03	0	43	102	1048576	22	5991
2026-01-07 09:09:07.80	350.64	10.16	-31.0	-35.4	10.5	3.94e-03	0	43	102	1048576	22	5992
2026-01-07 09:09:08.81	350.56	10.08	-31.1	-35.6	10.4	4.66e-03	0	43	102	1048576	22	6078
2026-01-07 09:09:09.81	350.48	10.01	-31.1	-35.7	10.3	5.06e-03	0	43	102	1048576	22	6106
2026-01-07 09:09:10.82	350.40	9.93	-31.1	-35.7	10.3	5.32e-03	0	43	102	1048576	22	6148
2026-01-07 09:09:11.83	350.33	9.85	-31.1	-35.7	10.2	5.96e-03	0	43	102	1048576	22	6147
2026-01-07 09:09:12.83	350.25	9.77	-31.1	-35.8	10.2	5.99e-03	0	43	102	1048576	22	6189
2026-01-07 09:09:13.84	350.17	9.70	-31.2	-36.0	10.0	7.33e-03	0	43	102	1048576	22	6309
2026-01-07 09:09:14.85	350.09	9.62	-31.1	-36.0	10.1	7.95e-03	0	43	102	1048576	22	6270
2026-01-07 09:09:15.86	350.01	9.54	-31.2	-36.0	10.0	7.56e-03	0	43	102	1048576	22	6297
2026-01-07 09:09:16.86	349.94	9.46	-31.2	-36.3	9.8	9.80e-03	0	43	102	1048576	22	6435
2026-01-07 09:09:17.87	349.86	9.39	-31.2	-36.1	9.9	1.05e-02	0	43	102	1048576	22	6353
2026-01-07 09:09:18.87	349.78	9.31	-31.1	-35.9	10.0	8.76e-03	0	44	102	1048576	22	6249
2026-01-07 09:09:19.88	349.71	9.23	-31.1	-36.0	10.0	7.69e-03	0	43	102	1048576	22	6309
2026-01-07 09:09:20.88	349.63	9.16	-31.2	-36.3	9.7	1.00e-02	0	43	102	1048576	22	6476
2026-01-07 09:09:21.88	349.56	9.08	-31.1	-36.0	9.9	1.09e-02	0	43	102	1048576	22	6306
2026-01-07 09:09:22.89	349.48	9.01	-31.1	-35.9	10.0	7.29e-03	0	43	102	1048576	22	6245
2026-01-07 09:09:23.90	349.41	8.93	-31.0	-35.6	10.2	6.58e-03	0	43	102	1048576	22	6118
2026-01-07 09:09:24.90	349.34	8.86	-31.0	-35.7	10.1	6.42e-03	0	44	102	1048576	22	6144
2026-01-07 09:09:25.91	349.26	8.78	-31.1	-35.9	10.0	6.97e-03	0	43	102	1048576	22	6248
2026-01-07 09:09:26.91	349.19	8.71	-31.0	-35.7	10.1	7.03e-03	0	43	102	1048576	22	6167
2026-01-07 09:09:27.92	349.12	8.63	-31.1	-35.9	10.0	7.88e-03	0	43	102	1048576	22	6234
2026-01-07 09:09:28.93	349.05	8.56	-31.1	-36.0	9.9	8.40e-03	0	43	102	1048576	22	6302
2026-01-07 09:09:29.93	348.98	8.48	-31.1	-36.0	9.9	9.08e-03	0	44	102	1048576	22	6313
2026-01-07 09:09:30.94	348.90	8.41	-31.2	-36.3	9.6	1.10e-02	0	43	102	1048576	22	6476
2026-01-07 09:09:31.95	348.83	8.33	-31.2	-36.2	9.7	1.24e-02	0	43	102	1048576	22	6443
2026-01-07 09:09:32.96	348.76	8.26	-31.2	-36.4	9.5	1.40e-02	0	43	102	1048576	22	6533
2026-01-07 09:09:33.95	348.69	8.19	-31.2	-36.3	9.6	1.45e-02	0	43	102	1048576	22	6469
2026-01-07 09:09:34.96	348.62	8.11	-31.2	-36.5	9.4	1.36e-02	0	43	102	1048576	22	6603
2026-01-07 09:09:35.96	348.55	8.04	-31.3	-36.7	9.2	1.94e-02	0	43	102	1048576	22	6750
2026-01-07 09:09:36.97	348.49	7.97	-31.2	-36.4	9.4	1.78e-02	0	44	102	1048576	22	6553
2026-01-07 09:09:37.97	348.42	7.89	-31.2	-36.4	9.4	1.57e-02	0	43	102	1048576	22	6579
2026-01-07 09:09:38.98	348.35	7.82	-31.2	-36.3	9.5	1.56e-02	0	43	102	1048576	22	6507
2026-01-07 09:09:39.99	348.28	7.75	-31.1	-36.2	9.6	1.21e-02	0	43	102	1048576	22	6438
2026-01-07 09:09:41.00	348.21	7.67	-31.1	-36.2	9.6	1.20e-02	0	43	102	1048576	22	6464
2026-01-07 09:09:42.00	348.15	7.60	-31.1	-36.0	9.7	1.22e-02	0	43	102	1048576	22	6357
2026-01-07 09:09:43.01	348.08	7.53	-31.1	-36.1	9.6	1.11e-02	0	43	102	1048576	22	6421
2026-01-07 09:09:44.01	348.01	7.46	-31.2	-36.5	9.3	1.64e-02	0	43	102	1048576	22	6649
2026-01-07 09:09:45.02	347.95	7.39	-31.1	-36.3	9.4	1.71e-02	0	44	102	1048576	22	6537
2026-01-07 09:09:46.03	347.88	7.31	-31.1	-36.4	9.4	1.57e-02	0	43	102	1048576	22	6556
2026-01-07 09:09:47.04	347.82	7.24	-31.2	-36.7	9.1	2.06e-02	0	43	102	1048576	22	6771
2026-01-07 09:09:48.04	347.75	7.17	-31.2	-36.5	9.3	2.16e-02	0	43	102	1048576	22	6622
2026-01-07 09:09:49.04	347.69	7.10	-31.1	-36.2	9.5	1.63e-02	0	43	102	1048576	22	6463
2026-01-07 09:09:50.05	347.62	7.03	-32.9	-46.2	3.8	1.49e+00	0	44	104	1048576	25	16590
2026-01-07 09:09:51.06	347.56	6.96	-33.3	-47.5	3.8	1.49e+00	0	44	104	1048576	26	18614
2026-01-07 09:09:52.07	347.49	6.89	-33.5	-48.1	3.8	1.49e+00	0	43	104	1048576	26	19279
2026-01-07 09:09:53.08	347.43	6.82	-33.7	-47.9	3.8	1.49e+00	0	43	104	1048576	27	18545

#Closed at: 2026-01-07 09:09:53
#Recorded file [1 MB]: D:/data/31010_260107_115853.dat