passes_logs/2026/01/07/R2M6_AANII_01/R2M6_AANII_01__20260107_233624_NOAA_21_JPSS-2_rec.log

#Pass ID: 20260107_233624_NOAA 21 (JPSS-2)
#Satellite: NOAA 21 (JPSS-2)
#Configuration: NOAA 21
#almurnet v.1.7.20240730
#Start time: 2026-01-07 23:36:24

#Version: 2.2.20231116
#Station: R2M6_AANII_01
#Location: 30.233357 lon 59.946436 lat
#TLE: 1 54234U 22150A   26005.56767909  .00000152  00000+0  92756-4 0  9990
#TLE: 2 54234  98.7490 306.5820 0001036 340.2747  19.8389 14.19532370163472

#Time	Az	El	Level	Level2	SNR	BER	BlckErr	Temp	State	Recorded	gain1	gain2
2026-01-07 23:36:24.78	22.45	7.04	-29.8	-34.6	4.7	1.38e+00	0	41	0	0	19	6240
2026-01-07 23:36:25.78	22.50	7.11	-30.1	-35.2	4.6	1.41e+00	0	41	104	0	20	6412
2026-01-07 23:36:26.79	22.54	7.19	-30.2	-34.7	8.4	4.11e-02	0	41	0	0	20	5989
2026-01-07 23:36:27.79	22.59	7.26	-30.4	-35.3	8.0	6.43e-02	0	41	0	3145728	20	6305
2026-01-07 23:36:28.80	22.63	7.34	-30.3	-34.9	8.3	5.38e-02	0	41	0	6291456	20	6098
2026-01-07 23:36:29.80	22.68	7.41	-30.2	-34.4	8.6	3.79e-02	0	41	0	9437184	20	5873
2026-01-07 23:36:30.81	22.72	7.49	-30.0	-33.7	9.2	2.63e-02	0	41	0	12582912	20	5555
2026-01-07 23:36:31.82	22.77	7.56	-29.9	-33.6	9.3	2.08e-02	0	41	0	15728640	20	5470
2026-01-07 23:36:32.82	22.82	7.64	-29.9	-33.9	9.5	1.47e-02	0	41	0	18874368	19	5689
2026-01-07 23:36:33.83	22.86	7.72	-29.8	-33.6	9.8	1.14e-02	0	41	0	22020096	19	5558
2026-01-07 23:36:34.83	22.91	7.79	-29.6	-32.9	10.2	7.45e-03	0	41	0	25165824	19	5298
2026-01-07 23:36:35.84	22.96	7.87	-29.3	-32.0	10.8	2.98e-03	0	41	0	28311552	19	4949
2026-01-07 23:36:36.85	23.00	7.95	-29.1	-32.1	11.1	1.63e-03	0	41	0	31457280	18	5079
2026-01-07 23:36:37.86	23.05	8.02	-29.2	-32.2	11.0	1.58e-03	0	41	0	34603008	18	5131
2026-01-07 23:36:38.87	23.10	8.10	-29.0	-31.9	11.2	1.72e-03	0	41	0	37748736	18	5028
2026-01-07 23:36:39.87	23.15	8.18	-28.8	-31.8	11.6	7.29e-04	0	41	0	40894464	17	5101
2026-01-07 23:36:40.88	23.20	8.25	-28.6	-31.3	11.9	4.23e-04	0	42	0	44040192	17	4915
2026-01-07 23:36:41.89	23.25	8.33	-28.4	-30.8	12.2	2.62e-04	0	41	0	47185920	17	4747
2026-01-07 23:36:42.89	23.29	8.41	-28.4	-31.4	12.2	2.20e-04	0	42	0	50331648	16	5045
2026-01-07 23:36:43.90	23.34	8.49	-28.4	-30.8	12.2	2.60e-04	0	41	0	53477376	17	4747
2026-01-07 23:36:44.91	23.39	8.57	-28.7	-31.4	11.9	2.68e-04	0	41	0	56623104	17	4937
2026-01-07 23:36:45.92	23.44	8.65	-28.5	-31.0	12.2	3.53e-04	0	42	0	59768832	17	4801
2026-01-07 23:36:46.92	23.49	8.73	-28.3	-30.4	12.5	1.25e-04	0	42	0	62914560	17	4615
2026-01-07 23:36:47.93	23.54	8.80	-28.2	-30.7	12.7	6.17e-05	0	42	0	66060288	16	4796
2026-01-07 23:36:48.94	23.59	8.88	-28.2	-30.7	12.7	6.94e-05	0	42	0	69206016	16	4807
2026-01-07 23:36:49.95	23.64	8.96	-28.1	-30.5	12.5	6.56e-05	0	42	0	72351744	16	4726
2026-01-07 23:36:50.96	23.69	9.04	-28.2	-30.7	12.6	6.40e-05	0	42	0	75497472	16	4801
2026-01-07 23:36:51.96	23.74	9.12	-28.1	-30.5	12.8	5.34e-05	0	42	0	78643200	16	4751
2026-01-07 23:36:52.97	23.79	9.21	-27.2	-29.3	13.0	3.43e-05	0	42	0	81788928	16	4629
2026-01-07 23:36:53.97	23.85	9.29	-28.0	-30.1	13.1	3.35e-05	0	42	0	84934656	16	4616
2026-01-07 23:36:54.98	23.90	9.37	-27.8	-30.4	13.1	3.34e-04	0	42	0	88080384	15	4815
2026-01-07 23:36:55.99	23.95	9.45	-27.7	-30.1	13.2	8.68e-04	0	42	0	91226112	15	4724
2026-01-07 23:36:57.00	24.00	9.53	-27.9	-30.4	13.1	2.51e-05	0	42	0	94371840	15	4828
2026-01-07 23:36:58.00	24.05	9.61	-27.9	-30.6	13.0	3.66e-05	0	42	0	97517568	15	4882
2026-01-07 23:36:59.01	24.11	9.69	-27.9	-30.4	13.1	2.59e-05	0	42	0	100663296	15	4834
2026-01-07 23:37:00.02	24.16	9.78	-27.8	-30.4	13.1	7.80e-04	0	42	0	103809024	15	4807
2026-01-07 23:37:01.03	24.21	9.86	-27.7	-30.1	13.3	6.13e-04	0	42	0	106954752	15	4723
2026-01-07 23:37:02.02	24.27	9.94	-27.8	-30.3	13.2	1.37e-05	0	42	0	110100480	15	4801
2026-01-07 23:37:03.03	24.32	10.02	-27.7	-30.0	13.3	2.13e-05	0	42	0	113246208	15	4703
2026-01-07 23:37:04.03	24.37	10.11	-27.7	-30.1	13.3	1.37e-05	0	42	0	116391936	15	4719
2026-01-07 23:37:05.04	24.43	10.19	-27.6	-29.7	13.6	2.40e-03	0	42	0	119537664	15	4601
2026-01-07 23:37:06.04	24.48	10.27	-27.8	-30.3	13.2	2.09e-03	0	42	0	122683392	15	4779
2026-01-07 23:37:07.04	24.54	10.36	-28.2	-30.7	12.8	5.65e-04	0	42	0	125829120	16	4805
2026-01-07 23:37:08.04	24.59	10.44	-27.8	-30.3	13.2	2.92e-03	0	42	0	128974848	15	4805
2026-01-07 23:37:09.05	24.65	10.52	-27.6	-29.8	13.5	2.32e-03	0	42	0	132120576	15	4631
2026-01-07 23:37:10.05	24.70	10.61	-27.4	-29.2	13.9	6.61e-04	0	42	0	135266304	15	4451
2026-01-07 23:37:11.06	24.76	10.69	-27.4	-29.7	13.9	2.65e-03	0	42	0	138412032	14	4692
2026-01-07 23:37:12.06	24.82	10.78	-27.4	-29.8	13.9	1.97e-03	0	42	0	141557760	14	4738
2026-01-07 23:37:13.07	24.87	10.86	-27.3	-29.6	14.0	4.45e-04	0	42	0	143654912	14	4666
2026-01-07 23:37:14.08	24.93	10.95	-27.5	-29.9	13.8	5.48e-04	0	42	0	147849216	14	4778
2026-01-07 23:37:15.09	24.99	11.04	-27.6	-29.7	13.6	1.90e-03	0	42	0	150994944	15	4593
2026-01-07 23:37:16.09	25.05	11.12	-27.7	-30.1	13.4	5.21e-04	0	42	0	154140672	15	4707
2026-01-07 23:37:17.10	25.10	11.21	-27.6	-29.7	13.6	2.30e-03	0	42	0	157286400	15	4600
2026-01-07 23:37:18.11	25.16	11.30	-27.5	-29.4	13.8	1.86e-03	0	42	0	160432128	15	4496
2026-01-07 23:37:19.12	25.22	11.39	-27.4	-29.3	13.9	4.00e-04	0	42	0	163577856	15	4471
2026-01-07 23:37:20.13	25.28	11.47	-27.5	-29.9	13.8	6.10e-06	0	42	0	166723584	14	4771
2026-01-07 23:37:21.14	25.34	11.56	-27.3	-29.5	14.1	1.38e-03	0	42	0	169869312	14	4633
2026-01-07 23:37:22.15	25.40	11.65	-27.5	-29.9	13.8	5.10e-04	0	42	0	173015040	14	4771
2026-01-07 23:37:23.15	25.46	11.74	-27.2	-29.2	14.2	1.41e-03	0	42	0	176160768	14	4550
2026-01-07 23:37:24.16	25.52	11.83	-27.2	-29.2	14.2	1.50e-06	0	42	0	179306496	14	4538
2026-01-07 23:37:25.17	25.58	11.92	-27.1	-29.1	14.3	0.00e+00	0	42	0	182452224	14	4513
2026-01-07 23:37:26.17	25.64	12.01	-27.1	-29.1	14.3	2.20e-06	0	42	0	185597952	14	4516
2026-01-07 23:37:27.18	25.70	12.10	-27.1	-29.0	14.4	1.50e-06	0	42	0	188743680	14	4485
2026-01-07 23:37:28.19	25.76	12.19	-27.1	-29.0	14.4	6.94e-04	0	42	0	191889408	14	4478
2026-01-07 23:37:29.19	25.83	12.28	-27.2	-29.2	14.3	5.39e-04	0	42	0	195035136	14	4542
2026-01-07 23:37:30.19	25.89	12.37	-27.1	-29.1	14.3	0.00e+00	0	42	0	198180864	14	4508
2026-01-07 23:37:31.20	25.95	12.46	-27.1	-29.0	14.4	7.00e-07	0	42	0	201326592	14	4488
2026-01-07 23:37:32.20	26.01	12.55	-27.2	-29.2	14.3	1.50e-06	0	42	0	204472320	14	4537
2026-01-07 23:37:33.21	26.08	12.64	-27.1	-29.1	14.3	1.52e-05	0	42	0	207618048	14	4530
2026-01-07 23:37:34.22	26.14	12.73	-27.2	-29.1	14.3	8.67e-04	0	42	0	210763776	14	4527
2026-01-07 23:37:35.23	26.21	12.82	-27.3	-29.4	14.2	1.50e-06	0	42	0	213909504	14	4623
2026-01-07 23:37:36.24	26.27	12.92	-27.1	-29.1	14.3	1.50e-06	0	42	0	217055232	14	4520
2026-01-07 23:37:37.24	26.33	13.01	-27.1	-29.0	14.5	0.00e+00	0	42	0	220200960	14	4478
2026-01-07 23:37:38.25	26.40	13.10	-27.1	-29.0	14.4	1.50e-06	0	42	0	223346688	14	4491
2026-01-07 23:37:39.25	26.47	13.19	-27.2	-29.2	14.3	7.00e-07	0	42	0	226492416	14	4553
2026-01-07 23:37:40.26	26.53	13.29	-27.0	-28.7	14.6	2.20e-06	0	42	0	229638144	14	4407
2026-01-07 23:37:41.27	26.60	13.38	-26.9	-29.1	14.7	0.00e+00	0	42	0	232783872	13	4627
2026-01-07 23:37:42.28	26.67	13.48	-27.0	-29.2	14.6	7.00e-07	0	43	0	235929600	13	4653
2026-01-07 23:37:43.28	26.73	13.57	-27.0	-28.8	14.5	1.50e-06	0	43	0	238026752	14	4433
2026-01-07 23:37:44.29	26.80	13.67	-27.2	-29.2	14.3	7.00e-07	0	43	0	242221056	14	4541
2026-01-07 23:37:45.29	26.87	13.76	-27.4	-29.3	14.0	5.30e-06	0	43	0	245366784	15	4464
2026-01-07 23:37:46.30	26.94	13.86	-27.2	-28.8	14.3	1.50e-06	0	43	0	248512512	15	4300
2026-01-07 23:37:47.30	27.00	13.95	-27.2	-29.1	14.4	7.00e-07	0	43	0	251658240	14	4516
2026-01-07 23:37:48.31	27.07	14.05	-27.3	-29.4	14.3	0.00e+00	0	43	0	254803968	14	4602
2026-01-07 23:37:49.31	27.14	14.15	-27.3	-29.5	14.2	1.50e-06	0	43	0	257949696	14	4641
2026-01-07 23:37:50.32	27.21	14.25	-27.4	-29.7	14.1	7.00e-07	0	43	0	261095424	14	4690
2026-01-07 23:37:51.33	27.28	14.34	-27.4	-29.6	14.2	2.20e-06	0	43	0	263192576	14	4669
2026-01-07 23:37:52.33	27.36	14.44	-27.4	-29.7	14.1	7.00e-07	0	43	0	267386880	14	4707
2026-01-07 23:37:53.34	27.43	14.54	-27.4	-29.8	14.0	3.80e-06	0	43	0	270532608	14	4720
2026-01-07 23:37:54.35	27.50	14.64	-27.5	-29.9	14.0	1.50e-06	0	42	0	273678336	14	4756
2026-01-07 23:37:55.35	27.57	14.74	-27.7	-29.9	13.7	2.20e-06	0	43	0	276824064	15	4654
2026-01-07 23:37:56.36	27.64	14.84	-27.7	-30.0	13.6	1.29e-05	0	43	0	279969792	15	4688
2026-01-07 23:37:57.37	27.72	14.94	-27.5	-29.4	14.0	3.80e-06	0	43	0	283115520	15	4477
2026-01-07 23:37:58.37	27.79	15.04	-27.2	-29.3	14.3	0.00e+00	0	43	0	285212672	14	4573
2026-01-07 23:37:59.37	27.86	15.14	-27.1	-28.9	14.6	1.50e-06	0	43	0	288358400	14	4463
2026-01-07 23:38:00.38	27.94	15.24	-27.0	-28.8	14.7	0.00e+00	0	43	0	292552704	14	4423
2026-01-07 23:38:01.39	28.01	15.34	-27.0	-28.8	14.6	7.00e-07	0	43	0	295698432	14	4428
2026-01-07 23:38:02.40	28.09	15.44	-27.1	-29.0	14.5	0.00e+00	0	43	0	298844160	14	4483
2026-01-07 23:38:03.40	28.17	15.54	-27.2	-29.3	14.4	0.00e+00	0	43	0	301989888	14	4557
2026-01-07 23:38:04.41	28.24	15.64	-27.0	-28.9	14.6	7.00e-07	0	43	0	305135616	14	4442
2026-01-07 23:38:05.41	28.32	15.75	-27.1	-29.1	14.5	0.00e+00	0	43	0	308281344	14	4514
2026-01-07 23:38:06.42	28.40	15.85	-27.2	-29.2	14.4	7.00e-07	0	43	0	310378496	14	4539
2026-01-07 23:38:07.42	28.48	15.95	-27.2	-29.2	14.4	1.50e-06	0	43	0	313524224	14	4549
2026-01-07 23:38:08.43	28.55	16.06	-27.2	-29.3	14.4	0.00e+00	0	43	0	317718528	14	4563
2026-01-07 23:38:09.44	28.63	16.16	-27.3	-29.4	14.3	1.50e-06	0	43	0	320864256	14	4602
2026-01-07 23:38:10.45	28.71	16.27	-27.3	-29.4	14.3	7.00e-07	0	43	0	324009984	14	4604
2026-01-07 23:38:11.46	28.79	16.37	-27.1	-29.1	14.5	1.50e-06	0	43	0	327155712	14	4490
2026-01-07 23:38:12.46	28.87	16.48	-27.1	-28.9	14.6	7.00e-07	0	43	0	330301440	14	4444
2026-01-07 23:38:13.47	28.96	16.58	-27.1	-29.1	14.6	0.00e+00	0	43	0	332398592	14	4495
2026-01-07 23:38:14.47	29.04	16.69	-27.2	-29.2	14.5	0.00e+00	0	43	0	335544320	14	4528
2026-01-07 23:38:15.49	29.12	16.80	-27.2	-29.1	14.5	7.00e-07	0	43	0	339738624	14	4512
2026-01-07 23:38:16.49	29.20	16.90	-27.2	-29.1	14.5	1.82e-03	0	43	0	342884352	14	4508
2026-01-07 23:38:17.50	29.29	17.01	-27.2	-29.2	14.5	7.00e-07	0	43	0	346030080	14	4524
2026-01-07 23:38:18.50	29.37	17.12	-27.2	-29.2	14.5	0.00e+00	0	43	0	349175808	14	4542
2026-01-07 23:38:19.51	29.46	17.23	-27.3	-29.4	14.4	0.00e+00	0	43	0	352321536	14	4595
2026-01-07 23:38:20.51	29.54	17.34	-27.3	-29.3	14.4	1.50e-06	0	43	0	355467264	14	4566
2026-01-07 23:38:21.52	29.63	17.45	-27.3	-29.4	14.4	0.00e+00	0	43	0	357564416	14	4589
2026-01-07 23:38:22.52	29.71	17.56	-27.3	-29.4	14.4	1.50e-03	0	43	0	360710144	14	4595
2026-01-07 23:38:23.54	29.80	17.67	-27.4	-29.6	14.3	1.42e-03	0	43	0	364904448	14	4655
2026-01-07 23:38:24.54	29.89	17.78	-27.3	-29.4	14.4	2.20e-06	0	43	0	368050176	14	4597
2026-01-07 23:38:25.54	29.97	17.89	-27.2	-29.2	14.5	0.00e+00	0	43	0	371195904	14	4534
2026-01-07 23:38:26.55	30.06	18.00	-27.1	-29.0	14.6	8.44e-04	0	43	0	374341632	14	4486
2026-01-07 23:38:27.56	30.15	18.11	-27.3	-29.4	14.5	7.00e-07	0	43	0	377487360	14	4576
2026-01-07 23:38:28.56	30.24	18.22	-27.2	-29.2	14.5	1.14e-03	0	43	0	380633088	14	4524
2026-01-07 23:38:29.56	30.33	18.34	-27.2	-29.2	14.6	0.00e+00	0	43	0	382730240	14	4525
2026-01-07 23:38:30.57	30.42	18.45	-27.2	-29.2	14.6	7.00e-07	0	43	0	385875968	14	4519
2026-01-07 23:38:31.57	30.52	18.56	-27.1	-29.0	14.7	3.79e-04	0	43	0	389021696	14	4453
2026-01-07 23:38:32.58	30.61	18.68	-27.1	-28.8	14.7	3.96e-04	0	43	0	392167424	14	4426
2026-01-07 23:38:33.58	30.70	18.79	-27.1	-28.9	14.8	5.24e-04	0	43	0	395313152	14	4425
2026-01-07 23:38:34.59	30.80	18.91	-27.0	-28.7	14.8	1.26e-03	0	43	0	399507456	14	4395
2026-01-07 23:38:35.59	30.89	19.02	-27.1	-28.9	14.7	6.41e-04	0	43	0	402653184	14	4443
2026-01-07 23:38:36.59	30.98	19.14	-27.2	-29.2	14.6	0.00e+00	0	43	0	404750336	14	4517
2026-01-07 23:38:37.61	31.08	19.26	-27.1	-28.8	14.8	6.86e-04	0	43	0	407896064	14	4421
2026-01-07 23:38:38.62	31.18	19.37	-26.9	-28.9	15.0	7.34e-04	0	43	0	411041792	13	4557
2026-01-07 23:38:39.62	31.28	19.49	-26.8	-28.9	15.1	6.69e-04	0	43	0	414187520	13	4535
2026-01-07 23:38:40.62	31.37	19.61	-26.8	-28.7	15.1	7.57e-04	0	43	0	417333248	13	4477
2026-01-07 23:38:41.63	31.47	19.73	-26.7	-28.5	15.2	0.00e+00	0	43	0	421527552	13	4447
2026-01-07 23:38:42.64	31.57	19.85	-26.8	-28.8	15.1	0.00e+00	0	43	0	424673280	13	4525
2026-01-07 23:38:43.64	31.67	19.96	-26.8	-28.8	15.1	1.80e-03	0	43	0	427819008	13	4537
2026-01-07 23:38:44.65	31.77	20.08	-26.8	-28.7	15.1	1.49e-03	0	43	0	429916160	13	4501
2026-01-07 23:38:45.65	31.87	20.20	-26.7	-28.6	15.2	5.03e-04	0	43	0	433061888	13	4466
2026-01-07 23:38:46.65	31.98	20.32	-26.7	-28.6	15.2	5.84e-04	0	43	0	436207616	13	4455
2026-01-07 23:38:47.65	32.08	20.45	-26.7	-28.6	15.2	1.51e-03	0	43	0	439353344	13	4469
2026-01-07 23:38:48.66	32.18	20.57	-26.6	-28.3	15.4	5.23e-04	0	43	0	442499072	13	4384
2026-01-07 23:38:49.67	32.29	20.69	-26.7	-28.5	15.3	1.58e-03	0	43	0	445644800	13	4441
2026-01-07 23:38:50.67	32.39	20.81	-26.6	-28.3	15.4	0.00e+00	0	43	0	448790528	13	4379
2026-01-07 23:38:51.68	32.50	20.94	-26.7	-28.5	15.3	3.44e-04	0	43	0	451936256	13	4427
2026-01-07 23:38:52.68	32.61	21.06	-26.6	-28.2	15.5	4.30e-04	0	43	0	455081984	13	4349
2026-01-07 23:38:53.69	32.72	21.18	-26.3	-27.5	15.8	0.00e+00	0	43	0	458227712	13	4153
2026-01-07 23:38:54.70	32.83	21.31	-26.1	-27.6	16.1	2.99e-04	0	43	0	461373440	12	4287
2026-01-07 23:38:55.70	32.94	21.44	-26.1	-27.7	16.0	2.56e-04	0	43	0	464519168	12	4328
2026-01-07 23:38:56.71	33.05	21.56	-26.1	-27.6	16.1	0.00e+00	0	43	0	467664896	12	4293
2026-01-07 23:38:57.72	33.16	21.69	-26.1	-27.5	16.1	3.17e-04	0	43	0	470810624	12	4277
2026-01-07 23:38:58.72	33.27	21.82	-26.2	-27.8	16.0	0.00e+00	0	43	0	473956352	12	4344
2026-01-07 23:38:59.73	33.38	21.94	-26.1	-27.6	16.1	0.00e+00	0	43	0	477102080	12	4291
2026-01-07 23:39:00.74	33.50	22.07	-26.1	-27.6	16.1	5.48e-04	0	43	0	480247808	12	4285
2026-01-07 23:39:01.74	33.61	22.20	-26.2	-27.8	16.0	4.24e-04	0	43	0	483393536	12	4332
2026-01-07 23:39:02.75	33.73	22.33	-26.0	-27.5	16.2	0.00e+00	0	43	0	486539264	12	4263
2026-01-07 23:39:03.76	33.85	22.46	-26.0	-27.4	16.2	0.00e+00	0	43	0	489684992	12	4238
2026-01-07 23:39:04.76	33.96	22.59	-26.0	-27.4	16.2	0.00e+00	0	43	0	492830720	12	4235
2026-01-07 23:39:05.77	34.08	22.72	-25.9	-27.2	16.3	0.00e+00	0	43	0	495976448	12	4182
2026-01-07 23:39:06.78	34.20	22.85	-25.9	-27.2	16.3	3.87e-04	0	43	0	499122176	12	4182
2026-01-07 23:39:07.79	34.33	22.99	-25.9	-27.3	16.3	0.00e+00	0	43	0	502267904	12	4201
2026-01-07 23:39:08.78	34.45	23.12	-26.1	-27.6	16.1	0.00e+00	0	43	0	505413632	12	4284
2026-01-07 23:39:09.79	34.57	23.25	-26.1	-27.6	16.1	0.00e+00	0	43	0	508559360	12	4275
2026-01-07 23:39:10.80	34.69	23.38	-26.0	-27.3	16.3	0.00e+00	0	43	0	511705088	12	4221
2026-01-07 23:39:11.81	34.82	23.52	-25.9	-27.3	16.3	0.00e+00	0	43	0	514850816	12	4198
2026-01-07 23:39:12.82	34.95	23.65	-25.9	-27.3	16.3	0.00e+00	0	43	0	517996544	12	4197
2026-01-07 23:39:13.82	35.07	23.79	-25.9	-27.3	16.3	0.00e+00	0	43	0	521142272	12	4194
2026-01-07 23:39:14.82	35.20	23.92	-26.1	-27.6	16.1	0.00e+00	0	43	0	524288000	12	4294
2026-01-07 23:39:15.83	35.33	24.06	-26.0	-27.5	16.2	0.00e+00	0	43	0	527433728	12	4248
2026-01-07 23:39:16.83	35.46	24.20	-26.0	-27.4	16.3	0.00e+00	0	43	0	530579456	12	4226
2026-01-07 23:39:17.84	35.59	24.34	-26.1	-27.7	16.1	7.00e-07	0	43	0	533725184	12	4308
2026-01-07 23:39:18.84	35.72	24.47	-26.1	-27.6	16.2	0.00e+00	0	43	0	536870912	12	4288
2026-01-07 23:39:19.85	35.86	24.61	-26.1	-27.5	16.2	0.00e+00	0	43	0	540016640	12	4273
2026-01-07 23:39:20.86	35.99	24.75	-26.1	-27.7	16.1	0.00e+00	0	43	0	543162368	12	4322
2026-01-07 23:39:21.87	36.13	24.89	-26.1	-27.6	16.2	0.00e+00	0	43	0	546308096	12	4271
2026-01-07 23:39:22.88	36.27	25.04	-26.0	-27.4	16.3	0.00e+00	0	43	0	549453824	12	4224
2026-01-07 23:39:23.88	36.40	25.18	-26.0	-27.5	16.2	0.00e+00	0	43	0	552599552	12	4256
2026-01-07 23:39:24.90	36.54	25.32	-26.1	-27.7	16.2	0.00e+00	0	43	0	555745280	12	4300
2026-01-07 23:39:25.90	36.68	25.46	-26.2	-27.9	16.1	0.00e+00	0	43	0	558891008	12	4357
2026-01-07 23:39:26.91	36.83	25.60	-26.3	-28.1	15.9	0.00e+00	0	43	0	562036736	12	4435
2026-01-07 23:39:27.91	36.97	25.75	-26.4	-28.3	15.9	0.00e+00	0	43	0	565182464	12	4465
2026-01-07 23:39:28.91	37.11	25.89	-26.4	-28.3	15.9	0.00e+00	0	43	0	568328192	12	4478
2026-01-07 23:39:29.92	37.26	26.04	-26.5	-28.1	15.7	0.00e+00	0	43	0	571473920	13	4303
2026-01-07 23:39:30.93	37.41	26.18	-26.8	-28.6	15.4	0.00e+00	0	43	0	574619648	13	4453
2026-01-07 23:39:31.94	37.56	26.33	-26.6	-28.2	15.6	0.00e+00	0	43	0	577765376	13	4348
2026-01-07 23:39:32.95	37.71	26.48	-26.7	-28.5	15.4	0.00e+00	0	43	0	580911104	13	4436
2026-01-07 23:39:33.95	37.86	26.62	-26.6	-28.3	15.6	0.00e+00	0	43	0	584056832	13	4369
2026-01-07 23:39:34.96	38.01	26.77	-26.7	-28.4	15.5	0.00e+00	0	43	0	587202560	13	4386
2026-01-07 23:39:35.97	38.16	26.92	-26.7	-28.4	15.5	0.00e+00	0	43	0	590348288	13	4383
2026-01-07 23:39:36.97	38.32	27.07	-26.8	-28.8	15.3	0.00e+00	0	43	0	593494016	13	4502
2026-01-07 23:39:37.98	38.48	27.22	-26.6	-28.5	15.4	0.00e+00	0	43	0	596639744	13	4463
2026-01-07 23:39:38.98	38.63	27.37	-26.8	-28.8	15.3	0.00e+00	0	43	0	599785472	13	4497
2026-01-07 23:39:39.99	38.79	27.52	-27.2	-29.0	15.0	0.00e+00	0	43	0	602931200	14	4442
2026-01-07 23:39:41.00	38.95	27.67	-26.9	-28.5	15.2	0.00e+00	0	43	0	606076928	14	4305
2026-01-07 23:39:42.00	39.12	27.82	-26.8	-28.0	15.5	0.00e+00	0	43	0	609222656	14	4179
2026-01-07 23:39:43.01	39.28	27.98	-26.7	-28.0	15.6	3.96e-05	0	43	0	612368384	14	4164
2026-01-07 23:39:44.01	39.45	28.13	-26.8	-28.1	15.5	0.00e+00	0	43	0	615514112	14	4209
2026-01-07 23:39:45.01	39.61	28.28	-26.8	-28.2	15.4	0.00e+00	0	43	0	618659840	14	4226
2026-01-07 23:39:46.02	39.78	28.44	-27.0	-28.7	15.2	0.00e+00	0	43	0	621805568	14	4352
2026-01-07 23:39:47.03	39.95	28.59	-26.8	-28.3	15.4	3.39e-04	0	43	0	624951296	14	4241
2026-01-07 23:39:48.03	40.12	28.75	-26.8	-28.1	15.5	0.00e+00	0	43	0	628097024	14	4203
2026-01-07 23:39:49.03	40.30	28.90	-26.8	-28.2	15.4	4.01e-04	0	43	0	631242752	14	4221
2026-01-07 23:39:50.04	40.47	29.06	-26.8	-28.1	15.5	4.27e-04	0	43	0	634388480	14	4189
2026-01-07 23:39:51.04	40.65	29.22	-26.7	-28.0	15.5	0.00e+00	0	43	0	637534208	14	4166
2026-01-07 23:39:52.05	40.83	29.37	-26.9	-28.4	15.4	2.63e-04	0	43	0	640679936	14	4272
2026-01-07 23:39:53.06	41.01	29.53	-26.7	-28.0	15.5	6.63e-05	0	43	0	643825664	14	4179
2026-01-07 23:39:54.06	41.19	29.69	-26.8	-28.1	15.5	0.00e+00	0	43	0	646971392	14	4187
2026-01-07 23:39:55.07	41.37	29.85	-27.0	-28.6	15.2	2.67e-05	0	43	0	650117120	14	4343
2026-01-07 23:39:56.07	41.56	30.01	-26.8	-28.2	15.5	0.00e+00	0	43	0	653262848	14	4226
2026-01-07 23:39:57.08	41.74	30.17	-26.8	-28.1	15.5	0.00e+00	0	43	0	656408576	14	4186
2026-01-07 23:39:58.09	41.93	30.34	-26.8	-28.2	15.5	1.56e-04	0	43	0	659554304	14	4230
2026-01-07 23:39:59.08	42.12	30.50	-26.7	-28.0	15.6	2.17e-04	0	43	0	662700032	14	4170
2026-01-07 23:40:00.09	42.32	30.66	-26.7	-27.9	15.7	0.00e+00	0	43	0	665845760	14	4135
2026-01-07 23:40:01.10	42.51	30.82	-26.6	-27.8	15.7	8.01e-05	0	43	0	668991488	14	4109
2026-01-07 23:40:02.11	42.71	30.99	-26.5	-27.5	15.9	1.14e-04	0	43	0	672137216	14	4032
2026-01-07 23:40:03.11	42.91	31.15	-26.6	-27.6	15.8	0.00e+00	0	43	0	675282944	14	4071
2026-01-07 23:40:04.12	43.11	31.32	-26.5	-27.5	15.8	7.17e-05	0	43	0	678428672	14	4034
2026-01-07 23:40:05.13	43.31	31.48	-26.5	-27.4	15.9	1.60e-05	0	43	0	681574400	14	4019
2026-01-07 23:40:06.14	43.52	31.65	-26.6	-27.7	15.8	0.00e+00	0	43	0	684720128	14	4075
2026-01-07 23:40:07.13	43.72	31.81	-26.5	-27.4	15.9	0.00e+00	0	43	0	687865856	14	4019
2026-01-07 23:40:08.14	43.93	31.98	-26.6	-27.7	15.8	0.00e+00	0	43	0	691011584	14	4078
2026-01-07 23:40:09.15	44.14	32.15	-26.7	-27.9	15.7	0.00e+00	0	43	0	694157312	14	4142
2026-01-07 23:40:10.16	44.36	32.32	-26.6	-27.7	15.8	1.06e-04	0	43	0	697303040	14	4076
2026-01-07 23:40:11.16	44.57	32.49	-26.5	-27.6	15.9	0.00e+00	0	43	0	700448768	14	4050
2026-01-07 23:40:12.17	44.79	32.66	-26.7	-27.9	15.7	0.00e+00	0	43	0	703594496	14	4130
2026-01-07 23:40:13.17	45.01	32.83	-26.6	-27.7	15.8	0.00e+00	0	43	0	706740224	14	4093
2026-01-07 23:40:14.17	45.23	33.00	-26.7	-27.9	15.7	1.22e-05	0	43	0	709885952	14	4139
2026-01-07 23:40:15.18	45.45	33.17	-26.8	-28.1	15.6	0.00e+00	0	43	0	713031680	14	4199
2026-01-07 23:40:16.18	45.68	33.34	-26.8	-28.1	15.5	0.00e+00	0	43	0	716177408	14	4205
2026-01-07 23:40:17.18	45.91	33.51	-26.9	-28.3	15.5	0.00e+00	0	43	0	719323136	14	4256
2026-01-07 23:40:18.19	46.14	33.68	-26.9	-28.4	15.4	0.00e+00	0	43	0	722468864	14	4285
2026-01-07 23:40:19.20	46.38	33.86	-27.0	-28.5	15.4	7.00e-07	0	43	0	725614592	14	4306
2026-01-07 23:40:20.20	46.61	34.03	-27.0	-28.5	15.4	0.00e+00	0	43	0	728760320	14	4305
2026-01-07 23:40:21.22	46.85	34.20	-27.2	-29.1	15.1	0.00e+00	0	43	0	731906048	14	4461
2026-01-07 23:40:22.22	47.09	34.38	-27.3	-29.4	14.9	0.00e+00	0	43	0	735051776	14	4558
2026-01-07 23:40:23.23	47.34	34.55	-27.5	-29.7	14.7	7.00e-07	0	43	0	738197504	14	4643
2026-01-07 23:40:24.23	47.58	34.73	-27.6	-29.4	14.6	0.00e+00	0	43	0	741343232	15	4453
2026-01-07 23:40:25.24	47.83	34.90	-27.6	-29.5	14.6	0.00e+00	0	43	0	744488960	15	4470
2026-01-07 23:40:26.25	48.09	35.08	-27.5	-29.3	14.7	0.00e+00	0	43	0	747634688	15	4414
2026-01-07 23:40:27.26	48.34	35.26	-27.6	-29.5	14.5	1.50e-06	0	43	0	750780416	15	4483
2026-01-07 23:40:28.26	48.60	35.43	-27.7	-29.7	14.4	1.50e-06	0	43	0	753926144	15	4547
2026-01-07 23:40:29.27	48.86	35.61	-27.7	-29.7	14.4	1.50e-06	0	43	0	757071872	15	4532
2026-01-07 23:40:30.27	49.12	35.78	-27.8	-30.0	14.2	1.50e-06	0	43	0	760217600	15	4617
2026-01-07 23:40:31.28	49.39	35.96	-27.7	-29.8	14.4	0.00e+00	0	43	0	763363328	15	4564
2026-01-07 23:40:32.29	49.65	36.14	-27.8	-30.0	14.3	7.00e-07	0	43	0	766509056	15	4631
2026-01-07 23:40:33.29	49.92	36.32	-27.9	-30.3	14.1	1.50e-06	0	43	0	769654784	15	4723
2026-01-07 23:40:34.30	50.20	36.50	-28.3	-30.5	13.9	3.80e-06	0	43	0	772800512	16	4654
2026-01-07 23:40:35.30	50.48	36.68	-28.4	-30.8	13.7	6.10e-06	0	43	0	775946240	16	4743
2026-01-07 23:40:36.30	50.75	36.85	-28.6	-30.8	13.3	1.90e-05	0	43	0	779091968	17	4641
2026-01-07 23:40:37.30	51.04	37.03	-28.6	-30.7	13.5	1.14e-05	0	43	0	782237696	17	4619
2026-01-07 23:40:38.31	51.32	37.21	-28.7	-30.9	13.3	1.22e-05	0	43	0	785383424	17	4681
2026-01-07 23:40:39.32	51.61	37.39	-28.6	-30.8	13.4	1.44e-05	0	43	0	788529152	17	4637
2026-01-07 23:40:40.32	51.90	37.57	-28.7	-30.9	13.3	1.37e-05	0	43	0	791674880	17	4674
2026-01-07 23:40:41.33	52.20	37.75	-28.7	-30.9	13.4	2.13e-05	0	43	0	794820608	17	4664
2026-01-07 23:40:42.33	52.50	37.93	-28.4	-30.4	13.6	1.22e-05	0	43	0	797966336	17	4522
2026-01-07 23:40:43.33	52.80	38.11	-28.4	-30.3	13.7	5.30e-06	0	43	0	801112064	17	4468
2026-01-07 23:40:44.34	53.11	38.29	-28.4	-30.3	13.7	8.30e-06	0	43	0	804257792	17	4483
2026-01-07 23:40:45.34	53.41	38.47	-28.6	-30.8	13.4	1.14e-05	0	43	0	807403520	17	4619
2026-01-07 23:40:46.34	53.72	38.65	-28.8	-31.2	13.2	1.60e-05	0	43	0	810549248	17	4757
2026-01-07 23:40:47.35	54.04	38.83	-28.9	-31.4	13.1	3.43e-05	0	43	0	813694976	17	4826
2026-01-07 23:40:48.36	54.36	39.01	-29.1	-31.4	12.8	5.49e-05	0	43	0	816840704	18	4726
2026-01-07 23:40:49.37	54.69	39.19	-29.1	-31.4	12.8	4.11e-05	0	43	0	819986432	18	4717
2026-01-07 23:40:50.38	55.01	39.37	-29.0	-31.3	12.8	5.95e-05	0	43	0	823132160	18	4700
2026-01-07 23:40:51.39	55.34	39.55	-29.1	-31.4	12.8	5.56e-05	0	43	0	826277888	18	4718
2026-01-07 23:40:52.40	55.68	39.74	-29.0	-31.4	12.8	6.17e-05	0	43	0	829423616	18	4714
2026-01-07 23:40:53.40	56.01	39.91	-29.1	-31.4	12.9	5.26e-05	0	43	0	832569344	18	4726
2026-01-07 23:40:54.41	56.36	40.09	-29.0	-31.3	12.9	4.80e-05	0	43	0	835715072	18	4700
2026-01-07 23:40:55.41	56.70	40.27	-29.2	-31.9	12.5	1.10e-04	0	43	0	838860800	18	4878
2026-01-07 23:40:56.42	57.05	40.45	-29.3	-32.0	12.5	1.27e-04	0	43	0	842006528	18	4920
2026-01-07 23:40:57.42	57.40	40.63	-29.4	-32.3	12.3	2.10e-04	0	43	0	845152256	18	5010
2026-01-07 23:40:58.43	57.76	40.81	-29.4	-31.9	12.2	2.58e-04	0	44	0	848297984	19	4758
2026-01-07 23:40:59.43	58.12	40.99	-29.3	-31.5	12.4	1.46e-04	0	43	0	851443712	19	4633
2026-01-07 23:41:00.43	58.48	41.17	-29.2	-31.2	12.6	1.01e-04	0	43	0	854589440	19	4547
2026-01-07 23:41:01.44	58.85	41.34	-29.1	-31.1	12.5	6.56e-05	0	43	0	857735168	19	4508
2026-01-07 23:41:02.44	59.22	41.52	-29.2	-31.2	12.6	9.30e-05	0	43	0	860880896	19	4539
2026-01-07 23:41:03.45	59.59	41.70	-29.0	-30.6	12.9	4.71e-04	0	43	0	864026624	19	4361
2026-01-07 23:41:04.45	59.97	41.87	-29.0	-31.1	13.0	3.73e-05	0	43	0	867172352	18	4610
2026-01-07 23:41:05.46	60.36	42.05	-29.0	-31.3	12.9	4.42e-05	0	43	0	870318080	18	4691
2026-01-07 23:41:06.47	60.75	42.23	-29.0	-31.2	13.0	3.81e-05	0	43	0	873463808	18	4651
2026-01-07 23:41:07.48	61.14	42.40	-29.1	-31.4	12.8	6.56e-05	0	43	0	876609536	18	4724
2026-01-07 23:41:08.48	61.54	42.57	-28.9	-31.0	13.1	3.20e-05	0	43	0	879755264	18	4595
2026-01-07 23:41:09.49	61.94	42.75	-28.9	-31.0	13.1	8.69e-05	0	43	0	882900992	18	4572
2026-01-07 23:41:10.50	62.35	42.92	-28.7	-30.6	13.4	1.60e-05	0	43	0	886046720	18	4448
2026-01-07 23:41:11.50	62.75	43.09	-28.9	-30.9	13.1	2.21e-05	0	43	0	889192448	18	4558
2026-01-07 23:41:12.51	63.17	43.26	-28.9	-31.0	13.1	2.13e-05	0	43	0	892338176	18	4568
2026-01-07 23:41:13.52	63.59	43.43	-28.9	-31.0	13.1	3.96e-05	0	43	0	895483904	18	4574
2026-01-07 23:41:14.52	64.01	43.60	-28.9	-31.0	13.1	2.36e-05	0	44	0	898629632	18	4584
2026-01-07 23:41:15.53	64.44	43.77	-28.9	-31.1	13.1	2.97e-05	0	43	0	901775360	18	4617
2026-01-07 23:41:16.54	64.87	43.94	-29.2	-31.7	12.7	6.63e-05	0	43	0	904921088	18	4820
2026-01-07 23:41:17.54	65.31	44.10	-29.2	-31.7	12.7	9.38e-05	0	44	0	908066816	18	4814
2026-01-07 23:41:18.55	65.75	44.27	-29.3	-32.1	12.4	1.23e-04	0	43	0	911212544	18	4953
2026-01-07 23:41:19.55	66.19	44.43	-29.4	-32.1	12.4	1.81e-04	0	43	0	914358272	18	4949
2026-01-07 23:41:20.56	66.64	44.59	-29.2	-31.8	12.7	1.09e-04	0	43	0	917504000	18	4824
2026-01-07 23:41:21.56	67.10	44.75	-29.3	-32.0	12.6	1.11e-04	0	43	0	920649728	18	4888
2026-01-07 23:41:22.57	67.56	44.91	-29.4	-32.2	12.4	1.74e-04	0	43	0	923795456	18	4990
2026-01-07 23:41:23.57	68.02	45.07	-29.5	-32.4	12.3	1.70e-04	0	43	0	926941184	18	5051
2026-01-07 23:41:24.58	68.49	45.23	-29.2	-31.8	12.7	1.20e-04	0	43	0	930086912	18	4843
2026-01-07 23:41:25.59	68.96	45.39	-29.2	-31.7	12.7	1.17e-04	0	43	0	933232640	18	4788
2026-01-07 23:41:26.59	69.44	45.54	-29.1	-31.4	13.0	5.11e-05	0	43	0	936378368	18	4693
2026-01-07 23:41:27.60	69.92	45.69	-28.8	-30.8	13.3	2.13e-05	0	43	0	939524096	18	4528
2026-01-07 23:41:28.61	70.41	45.84	-28.8	-30.6	13.4	2.36e-05	0	43	0	942669824	18	4463
2026-01-07 23:41:29.61	70.90	45.99	-28.7	-30.5	13.4	1.44e-05	0	43	0	945815552	18	4431
2026-01-07 23:41:30.61	71.39	46.14	-28.7	-30.6	13.4	1.14e-05	0	43	0	948961280	18	4454
2026-01-07 23:41:31.62	71.89	46.29	-28.9	-30.8	13.3	1.60e-05	0	43	0	952107008	18	4527
2026-01-07 23:41:32.63	72.40	46.43	-29.1	-31.5	12.8	4.73e-05	0	43	0	955252736	18	4736
2026-01-07 23:41:33.64	72.91	46.57	-29.0	-31.3	12.9	5.26e-05	0	43	0	958398464	18	4671
2026-01-07 23:41:34.64	73.43	46.71	-29.0	-31.2	13.0	4.73e-05	0	44	0	961544192	18	4628
2026-01-07 23:41:35.65	73.95	46.85	-29.0	-31.2	13.0	3.35e-05	0	43	0	964689920	18	4647
2026-01-07 23:41:36.65	74.47	46.99	-29.2	-31.6	12.7	1.04e-04	0	43	0	967835648	18	4773
2026-01-07 23:41:37.67	75.00	47.12	-29.0	-31.2	13.0	4.57e-05	0	43	0	970981376	18	4624
2026-01-07 23:41:38.67	75.53	47.25	-29.0	-31.3	12.9	4.95e-05	0	43	0	974127104	18	4654
2026-01-07 23:41:39.68	76.07	47.38	-29.2	-31.7	12.7	6.33e-05	0	43	0	977272832	18	4788
2026-01-07 23:41:40.69	76.61	47.51	-29.0	-31.1	13.1	3.96e-05	0	43	0	980418560	18	4603
2026-01-07 23:41:41.70	77.16	47.63	-28.9	-31.0	13.1	3.12e-05	0	43	0	983564288	18	4565
2026-01-07 23:41:42.70	77.71	47.76	-29.0	-31.1	13.1	2.82e-05	0	43	0	986710016	18	4600
2026-01-07 23:41:43.71	78.26	47.88	-29.1	-31.5	12.9	5.56e-05	0	43	0	989855744	18	4730
2026-01-07 23:41:44.71	78.82	47.99	-29.2	-31.6	12.8	7.40e-05	0	43	0	993001472	18	4788
2026-01-07 23:41:45.72	79.38	48.11	-29.1	-31.6	12.8	6.79e-05	0	43	0	996147200	18	4778
2026-01-07 23:41:46.72	79.95	48.22	-28.9	-30.9	13.2	3.12e-05	0	43	0	999292928	18	4542
2026-01-07 23:41:47.73	80.52	48.33	-28.9	-30.9	13.3	1.29e-05	0	43	0	1002438656	18	4540
2026-01-07 23:41:48.74	81.10	48.43	-28.9	-31.0	13.2	2.13e-05	0	43	0	1005584384	18	4583
2026-01-07 23:41:49.74	81.67	48.54	-29.3	-32.0	12.7	4.42e-05	0	43	0	1008730112	18	4907
2026-01-07 23:41:50.75	82.26	48.64	-29.2	-31.8	12.6	1.07e-04	0	44	0	1011875840	18	4823
2026-01-07 23:41:51.76	82.85	48.74	-28.6	-30.3	13.5	1.44e-05	0	43	0	1015021568	18	4360
2026-01-07 23:41:52.77	83.44	48.83	-28.4	-29.6	14.0	1.50e-06	0	43	0	1018167296	18	4169
2026-01-07 23:41:53.77	84.03	48.92	-28.4	-30.2	13.9	2.20e-06	0	43	0	1021313024	17	4437
2026-01-07 23:41:54.77	84.62	49.01	-28.6	-30.6	13.7	4.50e-06	0	43	0	1024458752	17	4564
2026-01-07 23:41:55.78	85.23	49.10	-28.9	-31.5	13.1	1.90e-05	0	43	0	1027604480	17	4841
2026-01-07 23:41:56.79	85.83	49.18	-28.7	-31.0	13.5	1.06e-05	0	43	0	1030750208	17	4688
2026-01-07 23:41:57.79	86.44	49.26	-28.5	-30.4	13.9	5.30e-06	0	43	0	1033895936	17	4498
2026-01-07 23:41:58.80	87.05	49.34	-28.5	-30.5	13.9	3.80e-06	0	44	0	1037041664	17	4534
2026-01-07 23:41:59.80	87.66	49.41	-28.5	-30.5	13.8	6.80e-06	0	43	0	1040187392	17	4539
2026-01-07 23:42:00.80	88.27	49.48	-28.5	-30.4	13.8	5.30e-06	0	43	0	1043333120	17	4498
2026-01-07 23:42:01.81	88.89	49.54	-28.4	-30.3	14.0	3.00e-06	0	43	0	1046478848	17	4454
2026-01-07 23:42:02.82	89.51	49.61	-28.4	-30.3	13.9	1.50e-06	0	43	0	1049624576	17	4475
2026-01-07 23:42:03.83	90.14	49.67	-28.5	-30.5	13.8	5.30e-06	0	43	0	1052770304	17	4516
2026-01-07 23:42:04.84	90.77	49.72	-28.7	-30.9	13.6	6.10e-06	0	43	0	1055916032	17	4639
2026-01-07 23:42:05.84	91.39	49.77	-28.6	-30.7	13.6	3.00e-06	0	44	0	1059061760	17	4596
2026-01-07 23:42:06.84	92.02	49.82	-28.5	-30.5	13.8	5.30e-06	0	44	0	1062207488	17	4530
2026-01-07 23:42:07.85	92.65	49.87	-28.6	-30.7	13.7	5.30e-06	0	43	0	1065353216	17	4571
2026-01-07 23:42:08.86	93.29	49.91	-28.7	-30.9	13.6	9.10e-06	0	43	0	1068498944	17	4654
2026-01-07 23:42:09.85	93.92	49.95	-28.3	-30.0	14.1	2.20e-06	0	43	0	1071644672	17	4375
2026-01-07 23:42:10.86	94.56	49.98	-28.2	-29.8	14.2	0.00e+00	0	43	0	1074790400	17	4314
2026-01-07 23:42:11.87	95.20	50.01	-28.4	-30.3	13.9	3.00e-06	0	43	0	1077936128	17	4478
2026-01-07 23:42:12.87	95.83	50.04	-28.3	-29.9	14.2	0.00e+00	0	43	0	1081081856	17	4353
2026-01-07 23:42:13.87	96.47	50.06	-28.4	-30.1	14.0	3.00e-06	0	44	0	1084227584	17	4418
2026-01-07 23:42:14.88	97.11	50.08	-28.5	-30.6	13.7	3.00e-06	0	43	0	1087373312	17	4566
2026-01-07 23:42:15.88	97.75	50.10	-28.5	-30.6	13.8	4.50e-06	0	43	0	1090519040	17	4546
2026-01-07 23:42:16.89	98.40	50.11	-28.5	-30.5	13.8	1.50e-06	0	43	0	1093664768	17	4520
2026-01-07 23:42:17.89	99.04	50.12	-28.5	-30.4	13.8	2.20e-06	0	43	0	1096810496	17	4495
2026-01-07 23:42:18.89	99.68	50.12	-28.6	-30.8	13.7	6.10e-06	0	43	0	1099956224	17	4615
2026-01-07 23:42:19.89	100.32	50.12	-28.7	-31.1	13.5	1.52e-05	0	44	0	1103101952	17	4702
2026-01-07 23:42:20.90	100.97	50.12	-29.0	-31.7	13.1	2.59e-05	0	43	0	1106247680	17	4916
2026-01-07 23:42:21.90	101.61	50.11	-29.1	-31.4	13.0	3.12e-05	0	44	0	1109393408	18	4687
2026-01-07 23:42:22.91	102.25	50.10	-29.0	-31.2	13.1	1.67e-05	0	44	0	1112539136	18	4633
2026-01-07 23:42:23.91	102.89	50.09	-28.8	-30.8	13.4	1.67e-05	0	43	0	1115684864	18	4506
2026-01-07 23:42:24.92	103.54	50.07	-28.8	-30.7	13.4	1.90e-05	0	43	0	1118830592	18	4485
2026-01-07 23:42:25.92	104.17	50.05	-28.8	-30.8	13.4	1.98e-05	0	43	0	1121976320	18	4498
2026-01-07 23:42:26.92	104.81	50.02	-29.2	-31.7	12.8	4.11e-05	0	43	0	1125122048	18	4794
2026-01-07 23:42:27.93	105.45	49.99	-29.1	-31.4	13.0	3.58e-05	0	43	0	1128267776	18	4698
2026-01-07 23:42:28.93	106.09	49.96	-29.4	-32.1	12.6	7.62e-05	0	44	0	1131413504	18	4946
2026-01-07 23:42:29.93	106.72	49.92	-28.8	-30.7	13.5	2.97e-05	0	43	0	1134559232	18	4481
2026-01-07 23:42:30.94	107.36	49.88	-28.5	-29.9	13.9	6.10e-06	0	43	0	1137704960	18	4229
2026-01-07 23:42:31.94	107.99	49.84	-28.4	-29.6	14.0	0.00e+00	0	44	0	1140850688	18	4152
2026-01-07 23:42:32.95	108.62	49.79	-28.4	-29.7	14.0	2.20e-06	0	43	0	1143996416	18	4191
2026-01-07 23:42:33.96	109.25	49.74	-28.5	-29.9	13.9	7.00e-07	0	43	0	1147142144	18	4227
2026-01-07 23:42:34.96	109.88	49.69	-28.8	-30.8	13.4	1.14e-05	0	43	0	1150287872	18	4511
2026-01-07 23:42:35.96	110.50	49.63	-29.4	-32.3	12.5	6.71e-05	0	43	0	1153433600	18	5000
2026-01-07 23:42:36.96	111.12	49.57	-29.1	-31.5	13.0	5.79e-05	0	43	0	1156579328	18	4720
2026-01-07 23:42:37.97	111.74	49.50	-28.6	-30.2	13.7	6.80e-06	0	43	0	1159725056	18	4326
2026-01-07 23:42:38.97	112.35	49.44	-28.6	-30.1	13.8	1.50e-06	0	43	0	1162870784	18	4301
2026-01-07 23:42:39.98	112.97	49.36	-28.9	-31.0	13.2	2.21e-05	0	43	0	1166016512	18	4570
2026-01-07 23:42:40.97	113.57	49.29	-29.0	-31.2	13.1	2.21e-05	0	43	0	1169162240	18	4632
2026-01-07 23:42:41.98	114.18	49.21	-29.0	-31.1	13.2	2.13e-05	0	43	0	1172307968	18	4587
2026-01-07 23:42:42.99	114.79	49.13	-29.0	-31.2	13.1	3.73e-05	0	43	0	1175453696	18	4641
2026-01-07 23:42:43.99	115.39	49.05	-29.0	-31.1	13.2	3.05e-05	0	43	0	1178599424	18	4601
2026-01-07 23:42:44.99	115.99	48.96	-29.0	-31.1	13.2	9.10e-06	0	43	0	1181745152	18	4588
2026-01-07 23:42:45.99	116.58	48.87	-28.9	-30.9	13.3	2.51e-05	0	43	0	1184890880	18	4536
2026-01-07 23:42:47.00	117.17	48.77	-29.0	-31.2	13.1	2.05e-05	0	43	0	1188036608	18	4626
2026-01-07 23:42:48.01	117.76	48.68	-29.6	-32.1	12.2	9.00e-05	0	43	0	1191182336	19	4827
2026-01-07 23:42:49.02	118.35	48.58	-30.0	-32.7	11.5	6.71e-04	0	43	0	1194328064	20	4945
2026-01-07 23:42:50.02	118.93	48.47	-29.9	-32.6	11.5	7.84e-04	0	44	0	1197473792	20	4910
2026-01-07 23:42:51.03	119.51	48.37	-29.7	-32.0	11.9	4.67e-04	0	44	0	1200619520	20	4679
2026-01-07 23:42:52.04	120.08	48.26	-29.5	-31.5	12.3	1.85e-04	0	43	0	1203765248	20	4530
2026-01-07 23:42:53.04	120.65	48.15	-29.8	-32.2	11.9	4.25e-04	0	44	0	1206910976	20	4734
2026-01-07 23:42:54.04	121.21	48.04	-29.9	-32.4	11.7	5.06e-04	0	43	0	1210056704	20	4827
2026-01-07 23:42:55.05	121.78	47.92	-29.7	-31.9	12.0	4.32e-04	0	43	0	1213202432	20	4669
2026-01-07 23:42:56.06	122.33	47.80	-29.6	-31.6	12.2	2.46e-04	0	43	0	1216348160	20	4569
2026-01-07 23:42:57.06	122.88	47.68	-29.7	-32.0	12.0	2.74e-04	0	43	0	1219493888	20	4680
2026-01-07 23:42:58.07	123.43	47.55	-29.9	-32.6	11.6	7.28e-04	0	44	0	1222639616	20	4908
2026-01-07 23:42:59.08	123.98	47.43	-29.6	-31.7	12.1	3.94e-04	0	43	0	1225785344	20	4587
2026-01-07 23:43:00.08	124.52	47.30	-29.3	-30.9	12.6	1.41e-04	0	43	0	1228931072	20	4338
2026-01-07 23:43:01.08	125.05	47.17	-29.4	-31.6	12.6	1.20e-04	0	43	0	1232076800	19	4646
2026-01-07 23:43:02.08	125.58	47.04	-29.6	-32.2	12.1	2.19e-04	0	43	0	1235222528	19	4864
2026-01-07 23:43:03.08	126.10	46.90	-29.9	-32.9	11.7	4.37e-04	0	43	0	1238368256	19	5096
2026-01-07 23:43:04.09	126.62	46.76	-29.7	-32.6	11.9	3.94e-04	0	44	0	1241513984	19	4994
2026-01-07 23:43:05.10	127.14	46.62	-29.7	-32.4	12.0	3.35e-04	0	44	0	1244659712	19	4942
2026-01-07 23:43:06.10	127.65	46.48	-29.7	-32.4	12.0	2.63e-04	0	43	0	1247805440	19	4923
2026-01-07 23:43:07.11	128.16	46.34	-29.6	-32.4	12.1	2.75e-04	0	43	0	1250951168	19	4924
2026-01-07 23:43:08.12	128.67	46.19	-29.3	-31.4	12.7	9.84e-05	0	43	0	1254096896	19	4591
2026-01-07 23:43:09.13	129.17	46.05	-29.2	-31.1	12.9	6.40e-05	0	43	0	1257242624	19	4507
2026-01-07 23:43:10.13	129.66	45.90	-29.3	-31.3	12.7	7.17e-05	0	43	0	1260388352	19	4567
2026-01-07 23:43:11.13	130.15	45.75	-29.4	-31.6	12.5	1.23e-04	0	43	0	1263534080	19	4665
2026-01-07 23:43:12.14	130.64	45.59	-29.3	-31.6	12.6	1.09e-04	0	43	0	1266679808	19	4641
2026-01-07 23:43:13.14	131.11	45.44	-29.3	-31.6	12.5	1.07e-04	0	43	0	1269825536	19	4660
2026-01-07 23:43:14.15	131.59	45.29	-29.3	-31.5	12.6	9.15e-05	0	43	0	1272971264	19	4637
2026-01-07 23:43:15.16	132.07	45.13	-29.3	-31.6	12.5	1.27e-04	0	43	0	1276116992	19	4670
2026-01-07 23:43:16.17	132.53	44.97	-29.2	-31.2	12.8	5.18e-05	0	43	0	1279262720	19	4522
2026-01-07 23:43:17.18	133.00	44.81	-29.1	-31.0	12.9	3.58e-05	0	43	0	1282408448	19	4471
2026-01-07 23:43:18.19	133.46	44.65	-29.3	-31.5	12.6	8.39e-05	0	44	0	1285554176	19	4640
2026-01-07 23:43:19.20	133.91	44.48	-29.3	-31.4	12.6	6.94e-05	0	43	0	1288699904	19	4607
2026-01-07 23:43:20.21	134.36	44.32	-29.6	-32.2	12.1	2.41e-04	0	44	0	1291845632	19	4858
2026-01-07 23:43:21.21	134.80	44.15	-29.6	-32.3	12.1	3.10e-04	0	43	0	1294991360	19	4889
2026-01-07 23:43:22.21	135.24	43.99	-29.6	-32.4	12.0	3.15e-04	0	43	0	1298137088	19	4934
2026-01-07 23:43:23.22	135.68	43.82	-29.7	-32.6	11.8	4.55e-04	0	43	0	1301282816	19	5004
2026-01-07 23:43:24.23	136.11	43.65	-29.6	-32.3	12.0	3.23e-04	0	43	0	1304428544	19	4899
2026-01-07 23:43:25.24	136.54	43.48	-29.8	-32.7	11.8	4.26e-04	0	43	0	1307574272	19	5025
2026-01-07 23:43:26.24	136.95	43.31	-29.6	-32.2	12.1	3.05e-04	0	44	0	1310720000	19	4843
2026-01-07 23:43:27.25	137.37	43.14	-29.4	-31.7	12.4	2.20e-04	0	43	0	1313865728	19	4680
2026-01-07 23:43:28.26	137.79	42.97	-29.3	-31.5	12.5	1.09e-04	0	44	0	1317011456	19	4637
2026-01-07 23:43:29.27	138.20	42.79	-29.6	-32.3	12.1	2.59e-04	0	43	0	1320157184	19	4892
2026-01-07 23:43:30.28	138.60	42.62	-29.6	-32.2	12.0	3.00e-04	0	44	0	1323302912	19	4879
2026-01-07 23:43:31.27	139.00	42.45	-29.5	-31.9	12.3	2.05e-04	0	43	0	1326448640	19	4753
2026-01-07 23:43:32.27	139.39	42.27	-29.4	-31.7	12.4	1.75e-04	0	43	0	1329594368	19	4692
2026-01-07 23:43:33.27	139.78	42.10	-29.0	-31.2	13.0	4.34e-05	0	43	0	1332740096	18	4644
2026-01-07 23:43:34.28	140.17	41.92	-28.7	-30.9	13.5	1.44e-05	0	43	0	1335885824	17	4652
2026-01-07 23:43:35.28	140.55	41.75	-28.6	-30.8	13.6	6.80e-06	0	43	0	1339031552	17	4618
2026-01-07 23:43:36.29	140.93	41.57	-28.8	-31.2	13.3	1.22e-05	0	43	0	1342177280	17	4741
2026-01-07 23:43:37.30	141.30	41.39	-28.8	-31.2	13.3	1.83e-05	0	43	0	1345323008	17	4759
2026-01-07 23:43:38.30	141.67	41.21	-28.8	-31.2	13.3	9.90e-06	0	43	0	1348468736	17	4748
2026-01-07 23:43:39.30	142.04	41.03	-28.8	-31.1	13.4	1.98e-05	0	43	0	1351614464	17	4732
2026-01-07 23:43:40.31	142.40	40.85	-28.7	-31.0	13.4	9.90e-06	0	43	0	1354760192	17	4694
2026-01-07 23:43:41.30	142.75	40.68	-28.9	-31.4	13.2	3.35e-05	0	43	0	1357905920	17	4806
2026-01-07 23:43:42.31	143.11	40.50	-28.9	-31.5	13.1	2.51e-05	0	43	0	1361051648	17	4859
2026-01-07 23:43:43.31	143.46	40.32	-29.2	-31.7	12.7	6.40e-05	0	43	0	1364197376	18	4821
2026-01-07 23:43:44.32	143.81	40.14	-29.6	-32.2	12.1	2.23e-04	0	44	0	1367343104	19	4850
2026-01-07 23:43:45.32	144.15	39.96	-29.8	-32.9	11.6	5.13e-04	0	43	0	1369440256	19	5142
2026-01-07 23:43:46.32	144.49	39.78	-30.0	-32.8	11.3	1.28e-03	0	44	0	1372585984	20	4993
2026-01-07 23:43:47.33	144.82	39.60	-29.8	-32.2	11.7	6.96e-04	0	44	0	1375731712	20	4786
2026-01-07 23:43:48.33	145.15	39.42	-29.6	-32.3	12.0	3.44e-04	0	43	0	1379926016	19	4905
2026-01-07 23:43:49.34	145.48	39.23	-29.5	-31.9	12.2	2.13e-04	0	43	0	1383071744	19	4780
2026-01-07 23:43:50.34	145.81	39.05	-29.6	-32.2	12.1	1.97e-04	0	43	0	1386217472	19	4872
2026-01-07 23:43:51.35	146.13	38.87	-29.3	-32.0	11.9	4.96e-04	0	43	0	1389363200	19	4937
2026-01-07 23:43:52.35	146.45	38.69	-29.3	-31.4	12.6	1.36e-04	0	43	0	1392508928	19	4584
2026-01-07 23:43:53.36	146.76	38.51	-29.0	-31.2	11.9	4.88e-05	0	43	0	1394606080	18	4644
2026-01-07 23:43:54.36	147.07	38.33	-28.8	-31.1	12.9	3.20e-05	0	43	0	1397751808	17	4730
2026-01-07 23:43:55.37	147.38	38.15	-28.6	-30.7	13.6	6.80e-06	0	43	0	1400897536	17	4580
2026-01-07 23:43:56.37	147.68	37.97	-28.5	-30.9	13.7	3.00e-06	0	44	0	1404043264	16	4777
2026-01-07 23:43:57.38	147.98	37.79	-28.6	-30.7	13.6	1.06e-05	0	43	0	1408237568	17	4589
2026-01-07 23:43:58.39	148.28	37.60	-28.8	-31.2	13.3	1.22e-05	0	44	0	1411383296	17	4749
2026-01-07 23:43:59.39	148.58	37.42	-28.8	-31.4	13.2	2.24e-03	0	44	0	1414529024	17	4818
2026-01-07 23:44:00.40	148.87	37.24	-28.8	-31.2	13.2	2.62e-03	0	43	0	1416626176	17	4763
2026-01-07 23:44:01.40	149.16	37.06	-28.3	-30.1	14.0	5.30e-06	0	43	0	1419771904	17	4411
2026-01-07 23:44:02.41	149.44	36.88	-27.9	-29.5	14.6	7.00e-07	0	44	0	1422917632	16	4353
2026-01-07 23:44:03.41	149.72	36.70	-27.7	-29.7	14.6	4.08e-03	0	43	0	1426063360	15	4518
2026-01-07 23:44:04.42	150.00	36.52	-27.8	-29.8	14.5	0.00e+00	0	44	0	1429209088	15	4545
2026-01-07 23:44:05.43	150.28	36.34	-27.7	-29.7	14.5	4.11e-03	0	44	0	1432354816	15	4538
2026-01-07 23:44:06.43	150.55	36.16	-27.9	-30.2	14.3	3.92e-03	0	43	0	1436549120	15	4678
2026-01-07 23:44:07.44	150.82	35.98	-28.3	-30.6	13.9	1.50e-06	0	44	0	1439694848	16	4690
2026-01-07 23:44:08.45	151.09	35.80	-28.3	-30.5	14.0	3.10e-03	0	43	0	1441792000	16	4650
2026-01-07 23:44:09.46	151.36	35.63	-28.1	-30.1	14.2	2.50e-03	0	43	0	1444937728	16	4538
2026-01-07 23:44:10.46	151.62	35.45	-28.0	-29.9	14.3	7.00e-07	0	43	0	1448083456	16	4464
2026-01-07 23:44:11.47	151.88	35.27	-28.1	-30.1	14.2	2.93e-03	0	44	0	1451229184	16	4528
2026-01-07 23:44:12.48	152.13	35.09	-28.1	-30.0	14.2	1.50e-06	0	44	0	1454374912	16	4504
2026-01-07 23:44:13.49	152.39	34.91	-28.2	-30.5	14.0	1.50e-06	0	43	0	1458569216	16	4640
2026-01-07 23:44:14.49	152.64	34.74	-28.2	-30.4	14.0	3.29e-03	0	43	0	1461714944	16	4607
2026-01-07 23:44:15.50	152.89	34.56	-28.3	-30.7	13.8	3.00e-03	0	43	0	1463812096	16	4721
2026-01-07 23:44:16.51	153.13	34.39	-28.5	-30.6	13.5	7.60e-06	0	44	0	1466957824	17	4589
2026-01-07 23:44:17.52	153.38	34.21	-28.6	-30.7	13.5	2.06e-03	0	44	0	1470103552	17	4607
2026-01-07 23:44:18.52	153.61	34.04	-28.5	-30.6	13.6	9.10e-06	0	43	0	1473249280	17	4565
2026-01-07 23:44:19.53	153.85	33.86	-28.3	-30.2	13.8	6.10e-06	0	43	0	1477443584	17	4437
2026-01-07 23:44:20.54	154.09	33.69	-28.3	-30.6	13.9	8.57e-04	0	44	0	1480589312	16	4668
2026-01-07 23:44:21.54	154.32	33.51	-28.1	-30.1	14.2	6.44e-04	0	43	0	1483735040	16	4523
2026-01-07 23:44:22.54	154.55	33.34	-28.0	-29.9	14.3	0.00e+00	0	43	0	1486880768	16	4463
2026-01-07 23:44:23.53	154.77	33.17	-28.0	-29.9	14.3	0.00e+00	0	44	0	1488977920	16	4476
2026-01-07 23:44:24.54	155.00	33.00	-27.9	-30.2	14.2	2.20e-06	0	44	0	1492123648	15	4695
2026-01-07 23:44:25.54	155.22	32.83	-27.8	-30.0	14.3	2.20e-06	0	43	0	1495269376	15	4617
2026-01-07 23:44:26.54	155.44	32.66	-27.7	-29.8	14.5	2.17e-03	0	44	0	1498415104	15	4551
2026-01-07 23:44:27.55	155.66	32.49	-27.5	-29.2	14.8	0.00e+00	0	44	0	1501560832	15	4383
2026-01-07 23:44:28.56	155.88	32.32	-27.2	-28.5	15.2	0.00e+00	0	44	0	1504706560	15	4177
2026-01-07 23:44:29.57	156.10	32.15	-27.0	-28.5	15.5	0.00e+00	0	43	0	1507852288	14	4302
2026-01-07 23:44:30.58	156.31	31.98	-27.0	-28.6	15.4	0.00e+00	0	44	0	1510998016	14	4321
2026-01-07 23:44:31.58	156.52	31.81	-27.0	-28.6	15.4	0.00e+00	0	44	0	1514143744	14	4312
2026-01-07 23:44:32.58	156.72	31.64	-26.9	-28.4	15.5	0.00e+00	0	44	0	1517289472	14	4257
2026-01-07 23:44:33.58	156.93	31.48	-26.9	-28.9	15.5	0.00e+00	0	44	0	1520435200	13	4524
2026-01-07 23:44:34.59	157.13	31.31	-26.8	-28.7	15.6	0.00e+00	0	43	0	1523580928	13	4457
2026-01-07 23:44:35.60	157.34	31.14	-26.6	-28.3	15.8	0.00e+00	0	43	0	1526726656	13	4343
2026-01-07 23:44:36.60	157.53	30.98	-26.4	-27.8	16.1	0.00e+00	0	44	0	1529872384	13	4203
2026-01-07 23:44:37.61	157.73	30.81	-26.5	-27.9	16.0	0.00e+00	0	44	0	1533018112	13	4242
2026-01-07 23:44:38.62	157.93	30.65	-26.5	-28.0	16.0	0.00e+00	0	43	0	1536163840	13	4277
2026-01-07 23:44:39.62	158.12	30.48	-26.4	-27.8	16.1	0.00e+00	0	44	0	1539309568	13	4202
2026-01-07 23:44:40.63	158.31	30.32	-26.5	-27.9	16.0	0.00e+00	0	43	0	1542455296	13	4237
2026-01-07 23:44:41.64	158.51	30.15	-26.6	-28.1	15.9	0.00e+00	0	44	0	1545601024	13	4292
2026-01-07 23:44:42.64	158.69	29.99	-26.6	-28.3	15.8	0.00e+00	0	43	0	1548746752	13	4341
2026-01-07 23:44:43.64	158.88	29.83	-26.8	-28.6	15.7	0.00e+00	0	44	0	1551892480	13	4431
2026-01-07 23:44:44.65	159.06	29.67	-26.9	-28.8	15.5	0.00e+00	0	44	0	1555038208	13	4506
2026-01-07 23:44:45.65	159.25	29.51	-27.2	-29.0	15.2	0.00e+00	0	44	0	1558183936	14	4440
2026-01-07 23:44:46.64	159.42	29.35	-27.2	-29.1	15.1	0.00e+00	0	44	0	1561329664	14	4474
2026-01-07 23:44:47.65	159.60	29.19	-27.1	-28.8	15.2	0.00e+00	0	44	0	1564475392	14	4398
2026-01-07 23:44:48.65	159.78	29.04	-27.1	-28.8	15.3	0.00e+00	0	44	0	1567621120	14	4382
2026-01-07 23:44:49.66	159.96	28.88	-27.0	-28.6	15.4	0.00e+00	0	43	0	1570766848	14	4337
2026-01-07 23:44:50.67	160.13	28.72	-26.5	-28.4	15.6	0.00e+00	0	43	0	1573912576	13	4457
2026-01-07 23:44:51.67	160.30	28.56	-26.5	-28.1	15.9	0.00e+00	0	44	0	1577058304	13	4291
2026-01-07 23:44:52.68	160.47	28.41	-26.6	-28.1	15.3	0.00e+00	0	43	0	1580204032	13	4309
2026-01-07 23:44:53.68	160.64	28.25	-26.5	-28.0	15.9	0.00e+00	0	43	0	1583349760	13	4275
2026-01-07 23:44:54.69	160.81	28.10	-26.5	-28.0	15.9	0.00e+00	0	44	0	1586495488	13	4272
2026-01-07 23:44:55.70	160.98	27.94	-26.6	-28.2	15.9	0.00e+00	0	43	0	1589641216	13	4316
2026-01-07 23:44:56.71	161.14	27.79	-26.6	-28.3	15.8	0.00e+00	0	44	0	1592786944	13	4344
2026-01-07 23:44:57.71	161.31	27.64	-26.6	-28.2	15.8	0.00e+00	0	44	0	1595932672	13	4332
2026-01-07 23:44:58.71	161.47	27.48	-26.6	-28.2	15.8	0.00e+00	0	44	0	1599078400	13	4340
2026-01-07 23:44:59.72	161.63	27.33	-26.6	-28.2	15.8	4.24e-04	0	43	0	1602224128	13	4335
2026-01-07 23:45:00.73	161.79	27.18	-26.6	-28.3	15.8	0.00e+00	0	44	0	1605369856	13	4349
2026-01-07 23:45:01.73	161.94	27.03	-26.6	-28.2	15.8	5.15e-04	0	44	0	1608515584	13	4326
2026-01-07 23:45:02.73	162.10	26.88	-26.6	-28.3	15.8	0.00e+00	0	43	0	1611661312	13	4351
2026-01-07 23:45:03.73	162.25	26.73	-26.7	-28.4	15.7	0.00e+00	0	43	0	1614807040	13	4380
2026-01-07 23:45:04.73	162.40	26.58	-26.8	-28.8	15.5	5.40e-04	0	44	0	1617952768	13	4489
2026-01-07 23:45:05.74	162.56	26.44	-26.8	-28.7	15.6	4.87e-04	0	44	0	1621098496	13	4460
2026-01-07 23:45:06.75	162.71	26.29	-26.6	-28.2	15.8	0.00e+00	0	43	0	1624244224	13	4344
2026-01-07 23:45:07.75	162.85	26.14	-26.6	-28.2	15.8	0.00e+00	0	44	0	1627389952	13	4337
2026-01-07 23:45:08.76	163.00	25.99	-26.6	-28.3	15.7	0.00e+00	0	43	0	1630535680	13	4358
2026-01-07 23:45:09.77	163.15	25.85	-26.7	-28.5	15.6	0.00e+00	0	43	0	1633681408	13	4430
2026-01-07 23:45:10.77	163.29	25.70	-26.7	-28.4	15.7	5.65e-04	0	43	0	1636827136	13	4381
2026-01-07 23:45:11.77	163.44	25.56	-26.7	-28.4	15.7	5.39e-04	0	43	0	1639972864	13	4378
2026-01-07 23:45:12.78	163.58	25.41	-26.6	-28.3	15.7	0.00e+00	0	43	0	1643118592	13	4360
2026-01-07 23:45:13.79	163.72	25.27	-26.6	-28.2	15.7	6.50e-04	0	43	0	1646264320	13	4324
2026-01-07 23:45:14.80	163.86	25.13	-26.8	-28.6	15.6	7.97e-04	0	44	0	1649410048	13	4433
2026-01-07 23:45:15.80	164.00	24.99	-26.7	-28.4	15.6	0.00e+00	0	43	0	1652555776	13	4388
2026-01-07 23:45:16.80	164.14	24.84	-26.0	-27.7	15.4	9.57e-04	0	44	0	1655701504	13	4377
2026-01-07 23:45:17.80	164.27	24.70	-26.6	-28.3	14.1	7.43e-04	0	44	0	1658847232	13	4356
2026-01-07 23:45:18.81	164.41	24.56	-26.7	-28.4	15.6	0.00e+00	0	43	0	1661992960	13	4396
2026-01-07 23:45:19.82	164.54	24.42	-26.8	-28.7	14.3	8.79e-04	0	43	0	1665138688	13	4481
2026-01-07 23:45:20.82	164.67	24.28	-26.7	-28.6	15.5	1.19e-03	0	43	0	1668284416	13	4438
2026-01-07 23:45:21.83	164.81	24.14	-26.6	-28.3	15.7	0.00e+00	0	44	0	1671430144	13	4354
2026-01-07 23:45:22.83	164.94	24.01	-26.6	-28.2	15.8	1.01e-03	0	44	0	1674575872	13	4334
2026-01-07 23:45:23.84	165.07	23.87	-26.5	-28.0	15.8	3.63e-03	0	43	0	1677721600	13	4293
2026-01-07 23:45:24.85	165.20	23.73	-26.5	-28.0	15.9	0.00e+00	0	44	0	1680867328	13	4268
2026-01-07 23:45:25.85	165.32	23.60	-26.5	-28.1	15.8	7.16e-04	0	44	0	1684013056	13	4308
2026-01-07 23:45:26.86	165.45	23.46	-26.6	-28.2	15.7	7.81e-04	0	43	0	1687158784	13	4342
2026-01-07 23:45:27.86	165.57	23.33	-26.6	-28.2	15.7	0.00e+00	0	43	0	1690304512	13	4332
2026-01-07 23:45:28.86	165.70	23.19	-26.6	-28.2	15.7	4.32e-03	0	43	0	1693450240	13	4337
2026-01-07 23:45:29.87	165.82	23.06	-26.7	-28.4	15.6	3.55e-03	0	43	0	1696595968	13	4404
2026-01-07 23:45:30.87	165.94	22.92	-26.6	-28.2	15.7	5.56e-05	0	43	0	1699741696	13	4344
2026-01-07 23:45:31.88	166.06	22.79	-26.6	-28.2	15.7	7.09e-04	0	43	0	1702887424	13	4326
2026-01-07 23:45:32.89	166.18	22.66	-26.6	-28.3	15.6	6.10e-04	0	43	0	1706033152	13	4376
2026-01-07 23:45:33.90	166.30	22.53	-26.9	-28.9	15.3	5.34e-05	0	44	0	1709178880	13	4546
2026-01-07 23:45:34.90	166.42	22.39	-26.8	-28.6	15.4	3.75e-03	0	43	0	1712324608	13	4458
2026-01-07 23:45:35.91	166.54	22.26	-26.6	-28.3	15.7	3.61e-03	0	44	0	1715470336	13	4372
2026-01-07 23:45:36.91	166.65	22.13	-26.6	-28.3	15.6	1.98e-05	0	43	0	1718616064	13	4366
2026-01-07 23:45:37.92	166.77	22.00	-26.8	-28.7	15.4	5.80e-04	0	43	0	1721761792	13	4475
2026-01-07 23:45:38.92	166.88	21.88	-26.8	-28.7	15.4	3.96e-03	0	44	0	1724907520	13	4484
2026-01-07 23:45:39.93	167.00	21.75	-27.0	-29.1	15.2	1.44e-05	0	44	0	1728053248	13	4590
2026-01-07 23:45:40.93	167.11	21.62	-26.9	-28.8	15.3	3.50e-03	0	44	0	1731198976	13	4511
2026-01-07 23:45:41.94	167.22	21.49	-26.8	-28.7	15.4	3.94e-03	0	43	0	1734344704	13	4467
2026-01-07 23:45:42.94	167.33	21.36	-26.7	-28.5	15.5	9.23e-05	0	43	0	1737490432	13	4419
2026-01-07 23:45:43.95	167.44	21.24	-26.9	-28.9	15.3	0.00e+00	0	44	0	1740636160	13	4524
2026-01-07 23:45:44.95	167.55	21.11	-26.7	-28.5	15.5	3.73e-03	0	44	0	1743781888	13	4428
2026-01-07 23:45:45.96	167.66	20.99	-26.7	-28.6	15.5	1.65e-04	0	44	0	1746927616	13	4434
2026-01-07 23:45:46.96	167.77	20.86	-26.8	-28.8	15.3	3.57e-03	0	43	0	1750073344	13	4507
2026-01-07 23:45:47.97	167.87	20.74	-26.8	-28.6	15.4	0.00e+00	0	44	0	1753219072	13	4463
2026-01-07 23:45:48.97	167.98	20.61	-26.8	-28.7	15.4	0.00e+00	0	44	0	1756364800	13	4478
2026-01-07 23:45:49.99	168.08	20.49	-26.8	-28.7	15.4	0.00e+00	0	43	0	1759510528	13	4477
2026-01-07 23:45:50.99	168.19	20.37	-26.8	-28.8	15.3	2.94e-03	0	43	0	1762656256	13	4500
2026-01-07 23:45:52.00	168.29	20.24	-27.0	-28.7	15.1	2.21e-04	0	43	0	1765801984	14	4381
2026-01-07 23:45:53.00	168.39	20.12	-26.8	-28.6	15.4	0.00e+00	0	43	0	1768947712	13	4457
2026-01-07 23:45:54.01	168.50	20.00	-26.6	-28.3	15.6	0.00e+00	0	44	0	1772093440	13	4363
2026-01-07 23:45:55.02	168.60	19.88	-26.5	-28.0	15.7	0.00e+00	0	44	0	1775239168	13	4288
2026-01-07 23:45:56.03	168.70	19.76	-26.5	-28.1	15.7	3.44e-03	0	44	0	1778384896	13	4308
2026-01-07 23:45:57.03	168.80	19.64	-26.4	-27.9	15.8	3.40e-03	0	43	0	1781530624	13	4257
2026-01-07 23:45:58.04	168.90	19.52	-26.5	-28.0	15.7	0.00e+00	0	44	0	1784676352	13	4288
2026-01-07 23:45:59.05	168.99	19.40	-26.5	-28.0	15.7	0.00e+00	0	44	0	1787822080	13	4287
2026-01-07 23:46:00.05	169.09	19.28	-26.6	-28.3	15.5	0.00e+00	0	44	0	1790967808	13	4372
2026-01-07 23:46:01.06	169.19	19.17	-26.5	-28.1	15.7	4.50e-06	0	43	0	1794113536	13	4302
2026-01-07 23:46:02.06	169.28	19.05	-26.6	-28.2	15.6	0.00e+00	0	43	0	1797259264	13	4326
2026-01-07 23:46:03.07	169.38	18.93	-26.5	-28.1	15.7	0.00e+00	0	43	0	1800404992	13	4310
2026-01-07 23:46:04.08	169.47	18.81	-26.5	-28.1	15.6	0.00e+00	0	44	0	1803550720	13	4315
2026-01-07 23:46:05.09	169.57	18.70	-26.7	-28.4	15.4	0.00e+00	0	44	0	1806696448	13	4406
2026-01-07 23:46:06.08	169.66	18.58	-26.6	-28.2	15.6	0.00e+00	0	44	0	1809842176	13	4326
2026-01-07 23:46:07.09	169.75	18.47	-26.5	-28.0	15.7	1.50e-06	0	43	0	1812987904	13	4295
2026-01-07 23:46:08.09	169.84	18.36	-26.6	-28.3	15.5	0.00e+00	0	44	0	1816133632	13	4356
2026-01-07 23:46:09.10	169.93	18.24	-26.6	-28.2	15.6	0.00e+00	0	43	0	1819279360	13	4330
2026-01-07 23:46:10.10	170.02	18.13	-26.6	-28.3	15.5	5.30e-06	0	44	0	1822425088	13	4363
2026-01-07 23:46:11.11	170.12	18.01	-26.6	-28.2	15.6	0.00e+00	0	43	0	1825570816	13	4341
2026-01-07 23:46:12.11	170.20	17.90	-26.7	-28.6	15.4	0.00e+00	0	44	0	1828716544	13	4446
2026-01-07 23:46:13.11	170.29	17.79	-26.8	-28.6	15.4	1.22e-05	0	44	0	1831862272	13	4451
2026-01-07 23:46:14.12	170.38	17.68	-26.8	-28.8	15.2	7.00e-07	0	44	0	1835008000	13	4504
2026-01-07 23:46:15.12	170.47	17.57	-26.8	-28.8	15.3	0.00e+00	0	43	0	1838153728	13	4510
2026-01-07 23:46:16.12	170.55	17.46	-27.0	-29.1	15.1	1.22e-05	0	44	0	1841299456	13	4600
2026-01-07 23:46:17.13	170.64	17.35	-27.1	-28.9	14.9	0.00e+00	0	44	0	1844445184	14	4434
2026-01-07 23:46:18.13	170.72	17.24	-27.3	-29.2	14.7	0.00e+00	0	44	0	1847590912	14	4529
2026-01-07 23:46:19.15	170.81	17.13	-27.2	-29.0	14.8	0.00e+00	0	44	0	1850736640	14	4473
2026-01-07 23:46:20.15	170.89	17.02	-27.2	-29.2	14.7	0.00e+00	0	44	0	1853882368	14	4503
2026-01-07 23:46:21.16	170.98	16.91	-27.2	-29.1	14.7	0.00e+00	0	44	0	1857028096	14	4504
2026-01-07 23:46:22.17	171.06	16.80	-27.2	-29.2	14.7	0.00e+00	0	44	0	1860173824	14	4509
2026-01-07 23:46:23.17	171.14	16.69	-27.3	-29.5	14.6	0.00e+00	0	44	0	1863319552	14	4599
2026-01-07 23:46:24.18	171.23	16.58	-27.3	-29.4	14.6	0.00e+00	0	44	0	1866465280	14	4588
2026-01-07 23:46:25.19	171.31	16.48	-27.3	-29.3	14.6	7.00e-07	0	44	0	1869611008	14	4560
2026-01-07 23:46:26.19	171.39	16.37	-27.2	-29.2	14.7	1.50e-06	0	44	0	1872756736	14	4537
2026-01-07 23:46:27.20	171.47	16.26	-27.3	-29.4	14.5	0.00e+00	0	44	0	1875902464	14	4599
2026-01-07 23:46:28.21	171.55	16.16	-27.4	-29.5	14.5	1.50e-06	0	43	0	1879048192	14	4624
2026-01-07 23:46:29.21	171.63	16.05	-27.4	-29.7	14.4	7.00e-07	0	43	0	1882193920	14	4662
2026-01-07 23:46:30.22	171.71	15.95	-27.5	-29.5	14.2	7.00e-07	0	43	0	1885339648	15	4506
2026-01-07 23:46:31.23	171.79	15.84	-26.9	-29.1	13.8	6.10e-06	0	44	0	1888485376	15	4639
2026-01-07 23:46:32.23	171.86	15.74	-27.5	-29.5	14.2	2.20e-06	0	43	0	1891631104	15	4508
2026-01-07 23:46:33.24	171.94	15.64	-27.4	-29.2	14.4	0.00e+00	0	43	0	1894776832	15	4406
2026-01-07 23:46:34.25	172.02	15.53	-27.4	-29.6	14.4	0.00e+00	0	44	0	1897922560	14	4653
2026-01-07 23:46:35.25	172.09	15.43	-27.5	-29.3	14.3	7.00e-07	0	43	0	1901068288	15	4461
2026-01-07 23:46:36.26	172.17	15.33	-27.4	-29.2	14.3	1.50e-06	0	44	0	1904214016	15	4415
2026-01-07 23:46:37.27	172.24	15.22	-27.4	-29.7	14.3	0.00e+00	0	43	0	1907359744	14	4689
2026-01-07 23:46:38.27	172.32	15.12	-27.5	-29.8	14.3	2.49e-04	0	43	0	1910505472	14	4702
2026-01-07 23:46:39.28	172.39	15.02	-26.7	-29.1	14.1	0.00e+00	0	44	0	1913651200	14	4733
2026-01-07 23:46:40.29	172.47	14.92	-27.6	-30.0	13.2	0.00e+00	0	43	0	1916796928	14	4787
2026-01-07 23:46:41.30	172.54	14.82	-27.7	-29.9	13.7	7.00e-07	0	43	0	1919942656	15	4618
2026-01-07 23:46:42.30	172.61	14.72	-27.6	-29.7	14.0	2.20e-06	0	43	0	1923088384	15	4564
2026-01-07 23:46:43.31	172.69	14.62	-27.7	-29.9	13.9	3.23e-04	0	44	0	1926234112	15	4641
2026-01-07 23:46:44.31	172.76	14.52	-27.9	-30.2	13.7	4.48e-04	0	43	0	1929379840	15	4736
2026-01-07 23:46:45.31	172.83	14.42	-27.7	-29.8	14.0	3.81e-04	0	44	0	1932525568	15	4606
2026-01-07 23:46:46.32	172.90	14.32	-27.6	-29.6	14.1	3.80e-06	0	44	0	1935671296	15	4551
2026-01-07 23:46:47.32	172.97	14.22	-27.6	-29.6	14.1	2.20e-06	0	43	0	1938817024	15	4547
2026-01-07 23:46:48.33	173.04	14.12	-27.7	-29.8	14.0	7.00e-07	0	43	0	1941962752	15	4594
2026-01-07 23:46:49.34	173.11	14.03	-27.7	-29.9	13.9	4.85e-04	0	43	0	1945108480	15	4632
2026-01-07 23:46:50.34	173.18	13.93	-27.7	-29.8	14.0	1.98e-03	0	44	0	1948254208	15	4591
2026-01-07 23:46:51.35	173.25	13.83	-27.6	-29.6	14.1	2.98e-04	0	43	0	1951399936	15	4534
2026-01-07 23:46:52.36	173.32	13.73	-27.6	-29.5	14.1	7.00e-07	0	44	0	1954545664	15	4514
2026-01-07 23:46:53.36	173.38	13.64	-27.6	-29.7	14.0	3.65e-04	0	44	0	1957691392	15	4568
2026-01-07 23:46:54.36	173.45	13.54	-27.7	-29.9	13.9	4.50e-06	0	44	0	1960837120	15	4631
2026-01-07 23:46:55.37	173.52	13.45	-27.7	-29.8	13.9	8.86e-04	0	43	0	1963982848	15	4608
2026-01-07 23:46:56.38	173.59	13.35	-27.7	-29.9	13.8	1.04e-03	0	43	0	1967128576	15	4640
2026-01-07 23:46:57.39	173.65	13.26	-27.8	-30.0	13.8	2.72e-04	0	44	0	1970274304	15	4660
2026-01-07 23:46:58.39	173.72	13.16	-27.7	-29.9	13.9	6.57e-04	0	44	0	1973420032	15	4624
2026-01-07 23:46:59.40	173.78	13.07	-27.7	-29.8	13.9	9.39e-04	0	44	0	1976565760	15	4599
2026-01-07 23:47:00.41	173.85	12.97	-27.7	-29.8	13.9	1.63e-04	0	44	0	1979711488	15	4593
2026-01-07 23:47:01.42	173.91	12.88	-27.7	-29.8	13.9	1.50e-03	0	44	0	1982857216	15	4586
2026-01-07 23:47:02.42	173.98	12.79	-27.7	-29.8	13.9	1.47e-03	0	43	0	1986002944	15	4609
2026-01-07 23:47:03.43	174.04	12.69	-27.6	-29.5	14.0	2.13e-05	0	43	0	1989148672	15	4516
2026-01-07 23:47:04.43	174.11	12.60	-27.4	-29.8	14.2	7.00e-07	0	44	0	1992294400	14	4704
2026-01-07 23:47:05.44	174.17	12.51	-27.4	-29.6	14.3	2.62e-03	0	43	0	1995440128	14	4637
2026-01-07 23:47:06.44	174.23	12.42	-27.5	-29.8	14.2	1.06e-05	0	44	0	1998585856	14	4718
2026-01-07 23:47:07.45	174.29	12.32	-27.4	-29.7	14.2	2.04e-03	0	44	0	2001731584	14	4689
2026-01-07 23:47:08.46	174.36	12.23	-27.4	-29.7	14.2	1.98e-03	0	44	0	2004877312	14	4681
2026-01-07 23:47:09.46	174.42	12.14	-27.5	-29.4	14.1	3.00e-06	0	43	0	2008023040	15	4472
2026-01-07 23:47:10.47	174.48	12.05	-27.4	-29.7	14.2	2.53e-03	0	43	0	2011168768	14	4679
2026-01-07 23:47:11.47	174.54	11.96	-27.4	-29.6	14.3	1.99e-03	0	43	0	2014314496	14	4646
2026-01-07 23:47:12.48	174.60	11.87	-27.4	-29.6	14.3	1.60e-05	0	43	0	2017460224	14	4652
2026-01-07 23:47:13.49	174.66	11.78	-27.5	-29.4	14.1	1.02e-03	0	44	0	2020605952	15	4487
2026-01-07 23:47:14.49	174.72	11.69	-27.5	-29.3	14.1	3.80e-06	0	43	0	2023751680	15	4459
2026-01-07 23:47:15.50	174.78	11.60	-27.4	-29.2	14.2	7.00e-07	0	44	0	2026897408	15	4423
2026-01-07 23:47:16.50	174.84	11.51	-27.5	-29.3	14.1	1.50e-06	0	44	0	2030043136	15	4458
2026-01-07 23:47:17.51	174.90	11.42	-27.5	-29.4	14.1	6.81e-04	0	44	0	2033188864	15	4474
2026-01-07 23:47:18.51	174.96	11.34	-27.5	-29.5	14.0	0.00e+00	0	44	0	2036334592	15	4504
2026-01-07 23:47:19.52	175.02	11.25	-27.5	-29.9	14.0	0.00e+00	0	44	0	2039480320	14	4737
2026-01-07 23:47:20.52	175.07	11.16	-27.5	-29.4	14.0	2.20e-06	0	43	0	2042626048	15	4488
2026-01-07 23:47:21.53	175.13	11.07	-27.6	-29.6	13.9	5.30e-06	0	44	0	2045771776	15	4550
2026-01-07 23:47:22.54	175.19	10.98	-27.6	-29.7	13.8	6.80e-06	0	43	0	2048917504	15	4573
2026-01-07 23:47:23.54	175.25	10.90	-27.6	-29.6	13.9	4.51e-04	0	43	0	2052063232	15	4536
2026-01-07 23:47:24.54	175.30	10.81	-27.6	-29.6	13.9	6.10e-06	0	44	0	2055208960	15	4530
2026-01-07 23:47:25.55	175.36	10.73	-27.6	-29.7	13.8	4.50e-06	0	44	0	2058354688	15	4571
2026-01-07 23:47:26.55	175.42	10.64	-27.6	-29.7	13.9	5.30e-06	0	43	0	2061500416	15	4566
2026-01-07 23:47:27.56	175.47	10.55	-27.7	-29.9	13.7	6.80e-06	0	44	0	2064646144	15	4640
2026-01-07 23:47:28.57	175.53	10.47	-27.8	-30.0	13.6	5.30e-06	0	44	0	2067791872	15	4673
2026-01-07 23:47:29.57	175.58	10.38	-27.7	-30.0	13.6	8.30e-06	0	44	0	2070937600	15	4667
2026-01-07 23:47:30.57	175.64	10.30	-27.8	-30.2	13.5	1.29e-05	0	44	0	2074083328	15	4747
2026-01-07 23:47:31.58	175.69	10.21	-27.9	-30.3	13.4	1.60e-05	0	44	0	2077229056	15	4764
2026-01-07 23:47:32.59	175.75	10.13	-27.8	-30.3	13.4	1.60e-05	0	43	0	2080374784	15	4767
2026-01-07 23:47:33.59	175.80	10.05	-27.8	-30.2	13.5	1.37e-05	0	43	0	2083520512	15	4735
2026-01-07 23:47:34.59	175.85	9.96	-27.9	-30.4	13.3	1.44e-05	0	43	0	2086666240	15	4795
2026-01-07 23:47:35.60	175.91	9.88	-27.9	-30.4	13.3	2.21e-05	0	43	0	2089811968	15	4809
2026-01-07 23:47:36.61	175.96	9.79	-27.9	-30.3	13.4	1.52e-05	0	43	0	2092957696	15	4767
2026-01-07 23:47:37.61	176.01	9.71	-27.9	-30.4	13.3	1.52e-05	0	44	0	2096103424	15	4791
2026-01-07 23:47:38.61	176.06	9.63	-27.9	-30.5	13.3	1.90e-05	0	44	0	2099249152	15	4828
2026-01-07 23:47:39.62	176.12	9.55	-28.1	-30.4	13.1	2.74e-05	0	43	0	2102394880	16	4692
2026-01-07 23:47:40.63	176.17	9.46	-28.2	-30.5	13.1	2.67e-05	0	44	0	2105540608	16	4707
2026-01-07 23:47:41.63	176.22	9.38	-28.1	-30.4	13.2	1.75e-05	0	44	0	2108686336	16	4679
2026-01-07 23:47:42.64	176.27	9.30	-28.1	-30.4	13.2	1.98e-05	0	43	0	2111832064	16	4678
2026-01-07 23:47:43.64	176.32	9.22	-28.1	-30.5	13.1	2.82e-05	0	44	0	2114977792	16	4699
2026-01-07 23:47:44.65	176.37	9.14	-28.2	-30.6	13.1	2.44e-05	0	44	0	2118123520	16	4744
2026-01-07 23:47:45.65	176.42	9.06	-28.3	-30.8	12.9	5.26e-05	0	44	0	2121269248	16	4819
2026-01-07 23:47:46.66	176.47	8.98	-28.3	-31.0	12.8	5.41e-05	0	44	0	2124414976	16	4876
2026-01-07 23:47:47.67	176.52	8.89	-28.3	-30.9	12.8	8.92e-05	0	44	0	2127560704	16	4862
2026-01-07 23:47:48.67	176.57	8.81	-28.2	-30.7	12.9	3.81e-05	0	44	0	2130706432	16	4797
2026-01-07 23:47:49.68	176.62	8.73	-28.3	-30.9	12.8	5.95e-05	0	44	0	2133852160	16	4862
2026-01-07 23:47:50.68	176.67	8.65	-28.3	-30.9	12.8	5.03e-05	0	44	0	2136997888	16	4858
2026-01-07 23:47:51.69	176.72	8.57	-28.3	-30.8	12.8	5.56e-05	0	44	0	2140143616	16	4841
2026-01-07 23:47:52.69	176.77	8.50	-28.4	-31.3	12.6	1.10e-04	0	44	0	2143289344	16	4993
