passes_logs/2026/01/07/R2M6_AANII_01/R2M6_AANII_01__20260107_080955_NOAA_21_JPSS-2_rec.log

#Pass ID: 20260107_080955_NOAA 21 (JPSS-2)
#Satellite: NOAA 21 (JPSS-2)
#Configuration: NOAA 21
#almurnet v.1.7.20240730
#Start time: 2026-01-07 08:09:55

#Version: 2.2.20231116
#Station: R2M6_AANII_01
#Location: 30.233357 lon 59.946436 lat
#TLE: 1 54234U 22150A   26005.56767909  .00000152  00000+0  92756-4 0  9990
#TLE: 2 54234  98.7490 306.5820 0001036 340.2747  19.8389 14.19532370163472

#Time	Az	El	Level	Level2	SNR	BER	BlckErr	Temp	State	Recorded	gain1	gain2
2026-01-07 08:09:55.72	93.39	7.01	-31.1	-42.5	3.8	1.49e+00	0	40	0	0	23	13408
2026-01-07 08:09:56.72	93.29	7.07	-31.1	-42.4	3.8	1.49e+00	0	41	104	0	23	13290
2026-01-07 08:09:57.72	93.18	7.13	-31.0	-42.2	3.8	1.49e+00	0	41	104	0	23	13055
2026-01-07 08:09:58.73	93.08	7.19	-31.0	-42.0	3.8	1.49e+00	0	41	104	0	23	12888
2026-01-07 08:09:59.74	92.98	7.26	-30.9	-41.9	3.8	1.49e+00	0	41	104	0	23	12762
2026-01-07 08:10:00.74	92.87	7.32	-31.0	-41.8	3.8	1.49e+00	0	41	104	0	23	12519
2026-01-07 08:10:01.74	92.77	7.38	-31.0	-41.6	3.8	1.49e+00	0	41	104	0	23	12096
2026-01-07 08:10:02.75	92.67	7.44	-31.1	-41.0	3.8	1.49e+00	0	41	104	0	23	11255
2026-01-07 08:10:03.75	92.56	7.50	-31.1	-40.0	3.9	1.49e+00	0	41	104	0	23	10052
2026-01-07 08:10:04.77	92.46	7.56	-31.1	-38.9	4.0	1.38e+00	0	41	104	0	23	8882
2026-01-07 08:10:05.78	92.35	7.62	-30.9	-36.8	5.5	1.06e+00	0	41	104	0	23	7056
2026-01-07 08:10:06.78	92.24	7.69	-30.8	-35.9	6.6	2.49e-01	0	41	102	1048576	22	6486
2026-01-07 08:10:07.79	92.14	7.75	-30.4	-34.1	8.0	1.01e-01	0	41	102	1048576	22	5548
2026-01-07 08:10:08.79	92.03	7.81	-30.0	-33.2	9.2	2.90e-02	0	41	102	1048576	21	5205
2026-01-07 08:10:09.81	91.92	7.87	-29.8	-32.7	9.7	1.29e-02	0	41	102	1048576	21	4999
2026-01-07 08:10:10.81	91.81	7.93	-29.8	-32.9	10.0	8.72e-03	0	41	102	1048576	20	5153
2026-01-07 08:10:11.82	91.71	7.99	-29.6	-32.5	10.3	5.99e-03	0	41	102	1048576	20	5016
2026-01-07 08:10:12.83	91.60	8.06	-29.8	-33.0	10.0	6.56e-03	0	41	102	1048576	20	5207
2026-01-07 08:10:13.83	91.49	8.12	-29.7	-32.6	10.2	6.33e-03	0	41	102	1048576	20	5055
2026-01-07 08:10:14.84	91.38	8.18	-29.4	-31.8	10.8	2.82e-03	0	41	102	1048576	20	4762
2026-01-07 08:10:15.85	91.27	8.24	-29.2	-31.7	11.4	1.41e-03	0	41	102	1048576	19	4791
2026-01-07 08:10:16.85	91.16	8.30	-28.9	-30.8	11.9	5.52e-04	0	41	102	1048576	19	4495
2026-01-07 08:10:17.86	91.04	8.37	-28.7	-31.0	12.2	2.68e-04	0	42	102	1048576	18	4659
2026-01-07 08:10:18.87	90.93	8.43	-28.9	-31.5	11.9	3.43e-04	0	42	102	1048576	18	4819
2026-01-07 08:10:19.88	90.82	8.49	-29.2	-32.1	11.5	7.84e-04	0	41	102	1048576	18	5047
2026-01-07 08:10:20.88	90.71	8.55	-29.0	-31.7	11.8	6.15e-04	0	41	102	1048576	18	4898
2026-01-07 08:10:21.88	90.59	8.62	-29.0	-31.6	11.8	5.10e-04	0	41	102	1048576	18	4868
2026-01-07 08:10:22.89	90.48	8.68	-28.9	-31.4	12.0	3.74e-04	0	41	102	1048576	18	4782
2026-01-07 08:10:23.90	90.37	8.74	-28.9	-31.4	12.0	3.30e-04	0	41	102	1048576	18	4784
2026-01-07 08:10:24.91	90.25	8.80	-29.0	-31.6	11.9	3.82e-04	0	42	102	1048576	18	4857
2026-01-07 08:10:25.92	90.13	8.87	-28.8	-31.1	12.2	2.57e-04	0	41	102	1048576	18	4682
2026-01-07 08:10:26.93	90.02	8.93	-28.8	-31.0	12.3	2.07e-04	0	42	102	1048576	18	4653
2026-01-07 08:10:27.94	89.90	8.99	-28.8	-30.9	12.3	1.71e-04	0	42	102	1048576	18	4631
2026-01-07 08:10:28.95	89.78	9.05	-28.7	-30.8	12.5	1.21e-04	0	42	102	1048576	18	4578
2026-01-07 08:10:29.96	89.67	9.12	-28.7	-30.9	12.4	1.20e-04	0	42	102	1048576	18	4614
2026-01-07 08:10:30.97	89.55	9.18	-28.6	-30.6	12.6	9.07e-05	0	42	102	1048576	18	4526
2026-01-07 08:10:31.97	89.43	9.24	-28.6	-30.5	12.7	8.23e-05	0	42	102	1048576	18	4475
2026-01-07 08:10:32.97	89.31	9.31	-28.6	-30.6	12.6	6.86e-05	0	42	102	1048576	18	4522
2026-01-07 08:10:33.98	89.19	9.37	-28.5	-30.3	12.8	6.86e-05	0	42	102	1048576	18	4419
2026-01-07 08:10:34.99	89.07	9.43	-28.8	-31.0	12.4	1.14e-04	0	42	102	1048576	18	4644
2026-01-07 08:10:35.99	88.95	9.49	-28.6	-30.5	12.8	9.23e-05	0	42	102	1048576	18	4488
2026-01-07 08:10:37.00	88.83	9.56	-28.4	-30.1	13.0	4.65e-05	0	42	102	1048576	18	4359
2026-01-07 08:10:38.01	88.71	9.62	-28.4	-30.1	13.1	3.66e-05	0	42	102	1048576	18	4344
2026-01-07 08:10:39.01	88.59	9.68	-28.4	-30.1	13.1	3.28e-05	0	42	102	1048576	18	4352
2026-01-07 08:10:40.02	88.46	9.75	-28.4	-29.9	13.2	2.05e-05	0	42	102	1048576	18	4282
2026-01-07 08:10:41.03	88.34	9.81	-28.4	-29.9	13.2	1.98e-05	0	42	102	1048576	18	4304
2026-01-07 08:10:42.03	88.22	9.87	-28.2	-30.1	13.4	9.90e-06	0	42	102	1048576	17	4451
2026-01-07 08:10:43.04	88.09	9.94	-28.2	-30.0	13.4	1.37e-05	0	42	102	1048576	17	4440
2026-01-07 08:10:44.04	87.97	10.00	-28.2	-30.0	13.5	1.06e-05	0	42	102	1048576	17	4423
2026-01-07 08:10:45.05	87.84	10.06	-28.0	-29.4	13.8	8.30e-06	0	42	102	1048576	17	4260
2026-01-07 08:10:46.06	87.72	10.13	-27.8	-29.1	14.0	3.80e-06	0	42	102	1048576	17	4177
2026-01-07 08:10:47.07	87.59	10.19	-27.8	-29.4	14.1	0.00e+00	0	42	102	1048576	16	4362
2026-01-07 08:10:48.07	87.46	10.25	-27.8	-29.6	14.0	1.50e-06	0	42	102	1048576	16	4395
2026-01-07 08:10:49.08	87.33	10.32	-27.8	-29.5	14.1	7.00e-07	0	42	102	1048576	16	4385
2026-01-07 08:10:50.09	87.21	10.38	-27.9	-29.7	13.9	7.00e-07	0	42	102	1048576	16	4443
2026-01-07 08:10:51.10	87.08	10.44	-27.9	-29.6	14.0	6.10e-06	0	42	102	1048576	16	4423
2026-01-07 08:10:52.10	86.95	10.51	-27.9	-29.7	14.0	2.20e-06	0	42	102	1048576	16	4425
2026-01-07 08:10:53.10	86.82	10.57	-28.0	-30.0	13.8	3.80e-06	0	42	102	1048576	16	4540
2026-01-07 08:10:54.11	86.69	10.63	-27.9	-29.7	14.0	6.80e-06	0	42	102	1048576	16	4438
2026-01-07 08:10:55.12	86.56	10.70	-27.7	-29.4	14.2	0.00e+00	0	42	102	1048576	16	4347
2026-01-07 08:10:56.12	86.43	10.76	-27.7	-29.3	14.2	7.00e-07	0	42	102	1048576	16	4328
2026-01-07 08:10:57.13	86.29	10.82	-27.8	-29.5	14.1	3.80e-06	0	42	102	1048576	16	4381
2026-01-07 08:10:58.14	86.16	10.89	-27.7	-29.2	14.3	0.00e+00	0	42	102	1048576	16	4280
2026-01-07 08:10:59.14	86.03	10.95	-27.7	-29.1	14.4	7.00e-07	0	42	102	1048576	16	4270
2026-01-07 08:11:00.15	85.89	11.01	-27.6	-29.0	14.4	7.00e-07	0	42	102	1048576	16	4227
2026-01-07 08:11:01.16	85.76	11.08	-27.8	-29.4	14.2	7.00e-07	0	42	102	1048576	16	4349
2026-01-07 08:11:02.16	85.62	11.14	-27.7	-29.1	14.4	7.00e-07	0	42	102	1048576	16	4254
2026-01-07 08:11:03.17	85.49	11.20	-27.6	-29.1	14.4	1.50e-06	0	42	102	1048576	16	4255
2026-01-07 08:11:04.18	85.35	11.27	-27.7	-29.2	14.3	7.00e-07	0	42	102	1048576	16	4297
2026-01-07 08:11:05.19	85.21	11.33	-27.7	-29.3	14.3	1.50e-06	0	42	102	1048576	16	4305
2026-01-07 08:11:06.20	85.08	11.39	-27.9	-29.8	14.0	3.00e-06	0	42	102	1048576	16	4463
2026-01-07 08:11:07.20	84.94	11.46	-27.7	-29.4	14.3	7.00e-07	0	42	102	1048576	16	4331
2026-01-07 08:11:08.20	84.80	11.52	-27.7	-29.4	14.2	7.00e-07	0	42	102	1048576	16	4335
2026-01-07 08:11:09.20	84.66	11.58	-27.8	-29.4	14.2	3.00e-06	0	42	102	1048576	16	4353
2026-01-07 08:11:10.21	84.52	11.65	-27.7	-29.3	14.3	0.00e+00	0	42	102	1048576	16	4316
2026-01-07 08:11:11.21	84.38	11.71	-27.7	-29.3	14.3	7.00e-07	0	42	102	1048576	16	4319
2026-01-07 08:11:12.22	84.24	11.78	-27.6	-29.1	14.5	0.00e+00	0	42	102	1048576	16	4252
2026-01-07 08:11:13.23	84.10	11.84	-27.7	-29.3	14.3	7.00e-07	0	42	102	1048576	16	4307
2026-01-07 08:11:14.23	83.96	11.90	-27.8	-29.4	14.3	2.20e-06	0	42	102	1048576	16	4349
2026-01-07 08:11:15.24	83.81	11.97	-27.6	-29.0	14.5	7.00e-07	0	42	102	1048576	16	4214
2026-01-07 08:11:16.25	83.67	12.03	-27.6	-29.0	14.5	7.00e-07	0	42	102	1048576	16	4231
2026-01-07 08:11:17.26	83.52	12.09	-27.7	-29.1	14.5	0.00e+00	0	42	102	1048576	16	4262
2026-01-07 08:11:18.26	83.38	12.16	-27.7	-29.1	14.5	7.00e-07	0	42	102	1048576	16	4254
2026-01-07 08:11:19.26	83.23	12.22	-27.7	-29.2	14.4	0.00e+00	0	42	102	1048576	16	4283
2026-01-07 08:11:20.28	83.09	12.28	-27.6	-29.1	14.5	7.00e-07	0	42	102	1048576	16	4248
2026-01-07 08:11:21.28	82.94	12.35	-27.7	-29.3	14.4	7.00e-07	0	42	102	1048576	16	4323
2026-01-07 08:11:22.29	82.79	12.41	-27.7	-29.2	14.4	7.00e-07	0	42	102	1048576	16	4278
2026-01-07 08:11:23.30	82.64	12.47	-27.6	-29.1	14.5	7.00e-07	0	42	102	1048576	16	4258
2026-01-07 08:11:24.31	82.49	12.54	-27.6	-28.9	14.6	0.00e+00	0	43	102	1048576	16	4194
2026-01-07 08:11:25.31	82.35	12.60	-27.6	-29.0	14.5	0.00e+00	0	43	102	1048576	16	4233
2026-01-07 08:11:26.32	82.20	12.66	-27.5	-28.8	14.7	0.00e+00	0	43	102	1048576	16	4180
2026-01-07 08:11:27.33	82.04	12.73	-27.6	-28.9	14.6	7.00e-07	0	43	102	1048576	16	4185
2026-01-07 08:11:28.33	81.89	12.79	-27.6	-29.0	14.6	0.00e+00	0	42	102	1048576	16	4223
2026-01-07 08:11:29.34	81.74	12.85	-27.7	-29.2	14.5	7.00e-07	0	43	102	1048576	16	4270
2026-01-07 08:11:30.35	81.59	12.92	-27.7	-29.1	14.5	7.00e-07	0	42	102	1048576	16	4262
2026-01-07 08:11:31.36	81.43	12.98	-27.7	-29.3	14.4	7.00e-07	0	43	102	1048576	16	4316
2026-01-07 08:11:32.36	81.28	13.04	-27.7	-29.3	14.4	1.50e-06	0	42	102	1048576	16	4306
2026-01-07 08:11:33.37	81.12	13.11	-27.8	-29.4	14.4	0.00e+00	0	43	102	1048576	16	4338
2026-01-07 08:11:34.37	80.97	13.17	-27.8	-29.4	14.4	7.00e-07	0	43	102	1048576	16	4325
2026-01-07 08:11:35.38	80.81	13.23	-27.8	-29.3	14.4	7.00e-07	0	43	102	1048576	16	4324
2026-01-07 08:11:36.39	80.66	13.30	-27.8	-29.5	14.3	7.00e-07	0	43	102	1048576	16	4359
2026-01-07 08:11:37.39	80.50	13.36	-27.9	-29.6	14.3	1.50e-06	0	43	102	1048576	16	4385
2026-01-07 08:11:38.40	80.34	13.42	-27.7	-29.2	14.4	0.00e+00	0	42	102	1048576	16	4289
2026-01-07 08:11:39.41	80.18	13.48	-27.8	-29.4	14.4	0.00e+00	0	43	102	1048576	16	4337
2026-01-07 08:11:40.41	80.02	13.55	-27.8	-29.5	14.3	7.00e-07	0	43	102	1048576	16	4372
2026-01-07 08:11:41.42	79.86	13.61	-27.8	-29.4	14.4	0.00e+00	0	43	102	1048576	16	4332
2026-01-07 08:11:42.43	79.70	13.67	-27.8	-29.4	14.4	1.50e-06	0	43	102	1048576	16	4332
2026-01-07 08:11:43.43	79.54	13.73	-27.7	-29.3	14.4	0.00e+00	0	43	102	1048576	16	4305
2026-01-07 08:11:44.44	79.38	13.80	-27.6	-28.9	14.6	2.20e-06	0	43	102	1048576	16	4210
2026-01-07 08:11:45.45	79.21	13.86	-27.6	-29.0	14.6	0.00e+00	0	43	102	1048576	16	4217
2026-01-07 08:11:46.45	79.05	13.92	-27.5	-28.8	14.7	7.00e-07	0	43	102	1048576	16	4170
2026-01-07 08:11:47.46	78.89	13.98	-27.4	-28.6	14.9	0.00e+00	0	43	102	1048576	16	4107
2026-01-07 08:11:48.47	78.72	14.05	-27.5	-28.8	14.8	0.00e+00	0	43	102	1048576	16	4155
2026-01-07 08:11:49.48	78.56	14.11	-27.5	-28.8	14.8	0.00e+00	0	43	102	1048576	16	4163
2026-01-07 08:11:50.48	78.39	14.17	-27.5	-28.7	14.8	0.00e+00	0	43	102	1048576	16	4122
2026-01-07 08:11:51.49	78.22	14.23	-27.5	-28.7	14.8	0.00e+00	0	43	102	1048576	16	4138
2026-01-07 08:11:52.50	78.05	14.29	-27.5	-28.8	14.8	0.00e+00	0	43	102	1048576	16	4168
2026-01-07 08:11:53.51	77.88	14.36	-27.6	-29.0	14.7	0.00e+00	0	43	102	1048576	16	4210
2026-01-07 08:11:54.52	77.71	14.42	-27.6	-28.9	14.7	7.00e-07	0	43	102	1048576	16	4194
2026-01-07 08:11:55.52	77.55	14.48	-27.5	-28.7	14.9	0.00e+00	0	43	102	1048576	16	4139
2026-01-07 08:11:56.53	77.37	14.54	-27.5	-28.8	14.8	7.00e-07	0	43	102	1048576	16	4151
2026-01-07 08:11:57.53	77.20	14.60	-27.5	-28.8	14.8	7.60e-06	0	43	102	1048576	16	4165
2026-01-07 08:11:58.54	77.03	14.66	-27.6	-29.0	14.7	7.00e-07	0	43	102	1048576	16	4230
2026-01-07 08:11:59.55	76.86	14.72	-27.7	-29.2	14.6	0.00e+00	0	43	102	1048576	16	4263
2026-01-07 08:12:00.55	76.69	14.78	-27.8	-29.3	14.5	5.30e-06	0	43	102	1048576	16	4309
2026-01-07 08:12:01.56	76.51	14.85	-27.8	-29.5	14.4	7.00e-07	0	43	102	1048576	16	4359
2026-01-07 08:12:02.57	76.34	14.91	-27.9	-29.6	14.3	1.50e-06	0	43	102	1048576	16	4394
2026-01-07 08:12:03.58	76.16	14.97	-27.9	-29.7	14.3	1.14e-05	0	43	102	1048576	16	4408
2026-01-07 08:12:04.59	75.98	15.03	-27.9	-29.7	14.3	7.00e-07	0	43	102	1048576	16	4411
2026-01-07 08:12:05.60	75.80	15.09	-27.8	-29.4	14.4	0.00e+00	0	43	102	1048576	16	4344
2026-01-07 08:12:06.61	75.63	15.15	-27.8	-29.5	14.4	0.00e+00	0	43	102	1048576	16	4355
2026-01-07 08:12:07.62	75.45	15.21	-27.8	-29.3	14.5	7.00e-07	0	43	102	1048576	16	4313
2026-01-07 08:12:08.63	75.27	15.27	-27.8	-29.3	14.5	0.00e+00	0	43	102	1048576	16	4304
2026-01-07 08:12:09.64	75.09	15.33	-27.6	-29.0	14.8	2.20e-06	0	43	102	1048576	16	4210
2026-01-07 08:12:10.65	74.90	15.39	-27.7	-29.2	14.6	0.00e+00	0	43	102	1048576	16	4279
2026-01-07 08:12:11.65	74.72	15.45	-27.8	-29.4	14.5	0.00e+00	0	43	102	1048576	16	4321
2026-01-07 08:12:12.66	74.54	15.51	-27.8	-29.4	14.5	7.00e-07	0	43	102	1048576	16	4339
2026-01-07 08:12:13.67	74.36	15.57	-27.9	-29.6	14.5	7.00e-07	0	43	102	1048576	16	4369
2026-01-07 08:12:14.68	74.17	15.63	-27.8	-29.3	14.6	0.00e+00	0	43	102	1048576	16	4310
2026-01-07 08:12:15.68	73.99	15.69	-27.8	-29.5	14.5	0.00e+00	0	43	102	1048576	16	4340
2026-01-07 08:12:16.69	73.80	15.74	-27.8	-29.4	14.5	0.00e+00	0	43	102	1048576	16	4321
2026-01-07 08:12:17.70	73.62	15.80	-27.7	-29.2	14.7	0.00e+00	0	43	102	1048576	16	4258
2026-01-07 08:12:18.70	73.43	15.86	-27.7	-29.2	14.6	0.00e+00	0	43	102	1048576	16	4265
2026-01-07 08:12:19.71	73.24	15.92	-27.7	-29.1	14.7	0.00e+00	0	43	102	1048576	16	4238
2026-01-07 08:12:20.72	73.06	15.98	-27.7	-29.1	14.7	7.00e-07	0	43	102	1048576	16	4231
2026-01-07 08:12:21.72	72.87	16.04	-27.8	-29.4	14.6	0.00e+00	0	43	102	1048576	16	4315
2026-01-07 08:12:22.73	72.68	16.09	-27.7	-29.2	14.7	7.00e-07	0	43	102	1048576	16	4273
2026-01-07 08:12:23.73	72.49	16.15	-27.8	-29.3	14.6	0.00e+00	0	43	102	1048576	16	4307
2026-01-07 08:12:24.74	72.30	16.21	-27.9	-29.5	14.5	1.50e-06	0	43	102	1048576	16	4365
2026-01-07 08:12:25.75	72.10	16.27	-27.9	-29.7	14.4	7.00e-07	0	43	102	1048576	16	4409
2026-01-07 08:12:26.76	71.91	16.32	-27.8	-29.5	14.5	7.00e-07	0	43	102	1048576	16	4342
2026-01-07 08:12:27.76	71.72	16.38	-27.9	-29.5	14.5	0.00e+00	0	43	102	1048576	16	4362
2026-01-07 08:12:28.77	71.52	16.44	-27.9	-29.7	14.4	2.20e-06	0	43	102	1048576	16	4414
2026-01-07 08:12:29.78	71.33	16.49	-27.9	-29.6	14.4	0.00e+00	0	43	102	1048576	16	4374
2026-01-07 08:12:30.79	71.13	16.55	-27.7	-29.3	14.6	7.00e-07	0	43	102	1048576	16	4283
2026-01-07 08:12:31.79	70.94	16.61	-27.7	-29.3	14.6	7.00e-07	0	43	102	1048576	16	4280
2026-01-07 08:12:32.79	70.74	16.66	-27.7	-29.1	14.7	1.50e-06	0	43	102	1048576	16	4245
2026-01-07 08:12:33.80	70.54	16.72	-27.8	-29.3	14.6	7.00e-07	0	43	102	1048576	16	4304
2026-01-07 08:12:34.81	70.34	16.77	-27.7	-29.1	14.8	0.00e+00	0	43	102	1048576	16	4234
2026-01-07 08:12:35.82	70.14	16.83	-27.7	-29.1	14.8	0.00e+00	0	43	102	1048576	16	4232
2026-01-07 08:12:36.83	69.94	16.88	-27.7	-29.1	14.8	0.00e+00	0	43	102	1048576	16	4224
2026-01-07 08:12:37.84	69.74	16.94	-27.5	-28.6	15.0	0.00e+00	0	43	102	1048576	16	4111
2026-01-07 08:12:38.83	69.54	16.99	-27.4	-28.5	15.1	0.00e+00	0	43	102	1048576	16	4070
2026-01-07 08:12:39.84	69.34	17.05	-27.4	-28.6	15.1	0.00e+00	0	43	102	1048576	16	4089
2026-01-07 08:12:40.85	69.14	17.10	-27.3	-28.3	15.2	0.00e+00	0	43	102	1048576	16	4020
2026-01-07 08:12:41.85	68.94	17.15	-27.2	-28.4	15.3	0.00e+00	0	43	102	1048576	15	4152
2026-01-07 08:12:42.85	68.73	17.21	-27.0	-28.0	15.5	0.00e+00	0	43	102	1048576	15	4058
2026-01-07 08:12:43.86	68.53	17.26	-27.0	-28.2	15.4	0.00e+00	0	43	102	1048576	15	4095
2026-01-07 08:12:44.86	68.32	17.31	-27.0	-28.1	15.5	0.00e+00	0	43	102	1048576	15	4078
2026-01-07 08:12:45.87	68.12	17.36	-27.1	-28.2	15.4	0.00e+00	0	43	102	1048576	15	4111
2026-01-07 08:12:46.88	67.91	17.42	-27.1	-28.4	15.3	0.00e+00	0	43	102	1048576	15	4160
2026-01-07 08:12:47.88	67.70	17.47	-27.2	-28.4	15.2	0.00e+00	0	43	102	1048576	15	4171
2026-01-07 08:12:48.88	67.49	17.52	-27.1	-28.3	15.3	0.00e+00	0	43	102	1048576	15	4140
2026-01-07 08:12:49.89	67.28	17.57	-27.2	-28.5	15.2	0.00e+00	0	43	102	1048576	15	4188
2026-01-07 08:12:50.90	67.07	17.62	-27.2	-28.6	15.2	0.00e+00	0	43	102	1048576	15	4210
2026-01-07 08:12:51.91	66.86	17.67	-27.3	-28.8	15.1	0.00e+00	0	43	102	1048576	15	4256
2026-01-07 08:12:52.91	66.65	17.72	-27.3	-28.7	15.2	0.00e+00	0	43	102	1048576	15	4231
2026-01-07 08:12:53.91	66.44	17.77	-27.3	-28.8	15.1	0.00e+00	0	43	102	1048576	15	4274
2026-01-07 08:12:54.92	66.23	17.83	-27.4	-28.9	15.0	0.00e+00	0	43	102	1048576	15	4298
2026-01-07 08:12:55.93	66.01	17.87	-27.5	-29.2	14.8	0.00e+00	0	43	102	1048576	15	4392
2026-01-07 08:12:56.94	65.80	17.92	-27.4	-29.0	15.0	0.00e+00	0	43	102	1048576	15	4328
2026-01-07 08:12:57.94	65.58	17.97	-27.3	-28.8	15.1	0.00e+00	0	43	102	1048576	15	4262
2026-01-07 08:12:58.95	65.37	18.02	-27.3	-28.8	15.1	0.00e+00	0	43	102	1048576	15	4267
2026-01-07 08:12:59.96	65.15	18.07	-27.1	-28.3	15.4	7.00e-07	0	43	102	1048576	15	4140
2026-01-07 08:13:00.97	64.93	18.12	-27.2	-28.4	15.3	0.00e+00	0	43	102	1048576	15	4163
2026-01-07 08:13:01.98	64.71	18.17	-27.0	-27.9	15.6	0.00e+00	0	43	102	1048576	15	4038
2026-01-07 08:13:02.98	64.50	18.21	-26.9	-27.7	15.7	0.00e+00	0	43	102	1048576	15	3975
2026-01-07 08:13:03.99	64.28	18.26	-24.3	-28.5	14.3	2.21e-02	0	43	102	1048576	8	5846
2026-01-07 08:13:04.99	64.06	18.31	-22.5	-29.0	14.1	2.33e-02	0	43	102	1048576	3	7631
2026-01-07 08:13:06.00	63.84	18.35	-21.5	-27.9	14.1	2.41e-02	0	43	102	1048576	3	7504
2026-01-07 08:13:07.01	63.62	18.40	-22.0	-28.1	14.3	2.23e-02	0	43	102	1048576	4	7299
2026-01-07 08:13:08.02	63.39	18.45	-24.3	-28.7	14.3	2.17e-02	0	43	102	1048576	8	5969
2026-01-07 08:13:09.03	63.17	18.49	-24.4	-28.2	14.2	2.13e-02	0	43	102	1048576	10	5575
2026-01-07 08:13:10.03	62.95	18.54	-25.6	-28.4	14.6	2.04e-02	0	43	102	1048576	11	4989
2026-01-07 08:13:11.04	62.72	18.58	-24.6	-27.8	14.6	2.08e-02	0	43	102	1048576	10	5234
2026-01-07 08:13:12.05	62.50	18.63	-24.7	-28.3	14.5	2.13e-02	0	43	102	1048576	9	5416
2026-01-07 08:13:13.06	62.27	18.67	-25.4	-28.9	14.5	2.09e-02	0	43	102	1048576	10	5379
2026-01-07 08:13:14.07	62.05	18.71	-26.0	-28.4	14.8	1.92e-02	0	43	102	1048576	12	4719
2026-01-07 08:13:15.07	61.82	18.76	-26.9	-28.8	15.7	1.41e-02	0	43	102	1048576	13	4475
2026-01-07 08:13:16.08	61.59	18.80	-26.9	-28.9	15.6	0.00e+00	0	43	102	1048576	13	4512
2026-01-07 08:13:17.09	61.36	18.84	-26.9	-28.9	15.6	0.00e+00	0	43	102	1048576	13	4520
2026-01-07 08:13:18.09	61.14	18.88	-27.1	-28.7	15.5	7.00e-07	0	43	102	1048576	14	4341
2026-01-07 08:13:19.10	60.91	18.92	-27.1	-28.8	15.4	0.00e+00	0	43	102	1048576	14	4362
2026-01-07 08:13:20.11	60.68	18.97	-26.9	-28.4	15.7	0.00e+00	0	43	102	1048576	14	4251
2026-01-07 08:13:21.12	60.45	19.01	-26.8	-28.1	15.8	0.00e+00	0	43	102	1048576	14	4188
2026-01-07 08:13:22.12	60.22	19.05	-26.8	-28.1	15.8	0.00e+00	0	43	102	1048576	14	4176
2026-01-07 08:13:23.12	59.99	19.09	-27.0	-28.4	15.6	0.00e+00	0	43	102	1048576	14	4273
2026-01-07 08:13:24.13	59.75	19.13	-26.8	-28.1	15.8	0.00e+00	0	43	102	1048576	14	4194
2026-01-07 08:13:25.14	59.52	19.16	-26.8	-28.1	15.8	0.00e+00	0	43	102	1048576	14	4168
2026-01-07 08:13:26.15	59.29	19.20	-26.8	-28.2	15.8	0.00e+00	0	43	102	1048576	14	4196
2026-01-07 08:13:27.16	59.05	19.24	-26.7	-28.0	15.9	0.00e+00	0	43	102	1048576	14	4139
2026-01-07 08:13:28.16	58.82	19.28	-26.7	-27.9	15.9	0.00e+00	0	43	102	1048576	14	4128
2026-01-07 08:13:29.17	58.58	19.32	-26.8	-28.0	15.8	0.00e+00	0	43	102	1048576	14	4159
2026-01-07 08:13:30.17	58.35	19.35	-26.8	-28.0	15.9	0.00e+00	0	43	102	1048576	14	4153
2026-01-07 08:13:31.18	58.11	19.39	-26.7	-27.9	15.9	0.00e+00	0	43	102	1048576	14	4132
2026-01-07 08:13:32.19	57.87	19.42	-26.8	-28.2	15.8	0.00e+00	0	43	102	1048576	14	4198
2026-01-07 08:13:33.19	57.64	19.46	-26.8	-28.1	15.8	0.00e+00	0	43	102	1048576	14	4180
2026-01-07 08:13:34.20	57.40	19.50	-26.8	-28.2	15.7	0.00e+00	0	43	102	1048576	14	4209
2026-01-07 08:13:35.20	57.16	19.53	-27.0	-28.4	15.6	0.00e+00	0	43	102	1048576	14	4273
2026-01-07 08:13:36.22	56.92	19.56	-26.8	-28.1	15.8	0.00e+00	0	43	102	1048576	14	4172
2026-01-07 08:13:37.23	56.68	19.60	-26.8	-28.2	15.8	0.00e+00	0	43	102	1048576	14	4205
2026-01-07 08:13:38.23	56.44	19.63	-27.0	-28.5	15.6	0.00e+00	0	43	102	1048576	14	4278
2026-01-07 08:13:39.23	56.20	19.66	-26.9	-28.2	15.7	0.00e+00	0	43	102	1048576	14	4213
2026-01-07 08:13:40.24	55.96	19.69	-26.8	-28.1	15.8	0.00e+00	0	43	102	1048576	14	4187
2026-01-07 08:13:41.25	55.72	19.73	-26.9	-28.4	15.7	0.00e+00	0	43	102	1048576	14	4256
2026-01-07 08:13:42.25	55.48	19.76	-27.1	-28.8	15.5	0.00e+00	0	43	102	1048576	14	4362
2026-01-07 08:13:43.26	55.24	19.79	-27.1	-28.9	15.4	0.00e+00	0	43	102	1048576	14	4390
2026-01-07 08:13:44.27	54.99	19.82	-27.1	-28.8	15.5	0.00e+00	0	43	102	1048576	14	4356
2026-01-07 08:13:45.28	54.75	19.85	-27.2	-28.9	15.4	0.00e+00	0	43	102	1048576	14	4397
2026-01-07 08:13:46.28	54.51	19.88	-27.1	-28.7	15.5	0.00e+00	0	43	102	1048576	14	4331
2026-01-07 08:13:47.29	54.26	19.90	-27.0	-28.6	15.5	0.00e+00	0	43	102	1048576	14	4326
2026-01-07 08:13:48.30	54.01	19.93	-27.0	-28.6	15.6	0.00e+00	0	43	102	1048576	14	4301
2026-01-07 08:13:49.31	53.77	19.96	-27.1	-28.8	15.5	0.00e+00	0	43	102	1048576	14	4358
2026-01-07 08:13:50.32	53.52	19.99	-27.2	-28.9	15.4	0.00e+00	0	43	102	1048576	14	4407
2026-01-07 08:13:51.33	53.27	20.01	-26.9	-28.3	15.7	0.00e+00	0	43	102	1048576	14	4237
2026-01-07 08:13:52.33	53.03	20.04	-26.8	-28.1	15.8	0.00e+00	0	43	102	1048576	14	4170
2026-01-07 08:13:53.34	52.78	20.07	-26.8	-28.1	15.9	0.00e+00	0	43	102	1048576	14	4185
2026-01-07 08:13:54.34	52.54	20.09	-26.8	-28.1	15.8	0.00e+00	0	43	102	1048576	14	4190
2026-01-07 08:13:55.35	52.29	20.11	-26.8	-28.0	15.9	0.00e+00	0	43	102	1048576	14	4163
2026-01-07 08:13:56.36	52.04	20.14	-26.9	-28.3	15.8	0.00e+00	0	43	102	1048576	14	4220
2026-01-07 08:13:57.37	51.79	20.16	-26.9	-28.2	15.8	0.00e+00	0	43	102	1048576	14	4206
2026-01-07 08:13:58.38	51.54	20.18	-27.1	-28.7	15.5	0.00e+00	0	43	102	1048576	14	4331
2026-01-07 08:13:59.39	51.29	20.21	-27.1	-28.8	15.5	7.00e-07	0	43	102	1048576	14	4378
2026-01-07 08:14:00.39	51.04	20.23	-27.0	-28.6	15.6	0.00e+00	0	43	102	1048576	14	4305
2026-01-07 08:14:01.40	50.79	20.25	-27.0	-28.5	15.6	0.00e+00	0	43	102	1048576	14	4279
2026-01-07 08:14:02.41	50.54	20.27	-26.9	-28.4	15.7	0.00e+00	0	43	102	1048576	14	4252
2026-01-07 08:14:03.42	50.29	20.29	-26.9	-28.4	15.7	0.00e+00	0	43	102	1048576	14	4261
2026-01-07 08:14:04.42	50.04	20.31	-27.0	-28.4	15.7	0.00e+00	0	43	102	1048576	14	4268
2026-01-07 08:14:05.43	49.79	20.33	-27.0	-28.6	15.6	0.00e+00	0	43	102	1048576	14	4304
2026-01-07 08:14:06.44	49.54	20.35	-27.0	-28.6	15.6	0.00e+00	0	43	102	1048576	14	4329
2026-01-07 08:14:07.45	49.28	20.36	-27.0	-28.6	15.6	0.00e+00	0	43	102	1048576	14	4306
2026-01-07 08:14:08.45	49.03	20.38	-27.1	-28.7	15.6	0.00e+00	0	43	102	1048576	14	4328
2026-01-07 08:14:09.46	48.78	20.40	-27.0	-28.5	15.7	0.00e+00	0	43	102	1048576	14	4281
2026-01-07 08:14:10.46	48.53	20.41	-27.1	-28.7	15.5	0.00e+00	0	43	102	1048576	14	4333
2026-01-07 08:14:11.47	48.27	20.43	-27.1	-28.7	15.5	0.00e+00	0	43	102	1048576	14	4350
2026-01-07 08:14:12.48	48.02	20.44	-27.1	-28.7	15.5	0.00e+00	0	43	102	1048576	14	4346
2026-01-07 08:14:13.49	47.77	20.46	-27.1	-28.8	15.5	0.00e+00	0	43	102	1048576	14	4371
2026-01-07 08:14:14.49	47.51	20.47	-27.0	-28.4	15.7	0.00e+00	0	43	102	1048576	14	4267
2026-01-07 08:14:15.50	47.26	20.48	-26.9	-28.4	15.7	0.00e+00	0	43	102	1048576	14	4248
2026-01-07 08:14:16.51	47.00	20.50	-26.9	-28.4	15.7	0.00e+00	0	43	102	1048576	14	4257
2026-01-07 08:14:17.52	46.75	20.51	-26.9	-28.3	15.7	0.00e+00	0	43	102	1048576	14	4243
2026-01-07 08:14:18.53	46.49	20.52	-26.8	-28.1	15.8	0.00e+00	0	43	102	1048576	14	4182
2026-01-07 08:14:19.53	46.24	20.53	-26.8	-28.1	15.8	0.00e+00	0	43	102	1048576	14	4189
2026-01-07 08:14:20.54	45.99	20.54	-26.9	-28.2	15.8	0.00e+00	0	43	102	1048576	14	4207
2026-01-07 08:14:21.55	45.73	20.55	-26.8	-28.1	15.9	0.00e+00	0	43	102	1048576	14	4181
2026-01-07 08:14:22.55	45.48	20.56	-26.9	-28.2	15.8	0.00e+00	0	43	102	1048576	14	4216
2026-01-07 08:14:23.56	45.22	20.57	-26.9	-28.4	15.7	0.00e+00	0	43	102	1048576	14	4246
2026-01-07 08:14:24.56	44.97	20.57	-27.0	-28.6	15.6	0.00e+00	0	43	102	1048576	14	4304
2026-01-07 08:14:25.56	44.71	20.58	-26.9	-28.4	15.7	0.00e+00	0	43	102	1048576	14	4270
2026-01-07 08:14:26.56	44.46	20.59	-27.0	-28.6	15.6	0.00e+00	0	43	102	1048576	14	4329
2026-01-07 08:14:27.58	44.20	20.59	-27.2	-29.0	15.4	0.00e+00	0	43	102	1048576	14	4427
2026-01-07 08:14:28.59	43.94	20.60	-26.7	-27.9	16.0	0.00e+00	0	43	102	1048576	14	4124
2026-01-07 08:14:29.58	43.69	20.60	-26.8	-28.0	15.9	0.00e+00	0	43	102	1048576	14	4161
2026-01-07 08:14:30.59	43.44	20.61	-26.8	-28.1	15.9	0.00e+00	0	43	102	1048576	14	4178
2026-01-07 08:14:31.60	43.18	20.61	-26.8	-28.0	15.9	0.00e+00	0	43	102	1048576	14	4160
2026-01-07 08:14:32.61	42.92	20.61	-26.9	-28.2	15.8	7.00e-07	0	43	102	1048576	14	4217
2026-01-07 08:14:33.62	42.67	20.62	-26.9	-28.3	15.7	0.00e+00	0	43	102	1048576	14	4238
2026-01-07 08:14:34.63	42.41	20.62	-27.0	-28.5	15.6	0.00e+00	0	43	102	1048576	14	4299
2026-01-07 08:14:35.63	42.15	20.62	-27.0	-28.5	15.6	0.00e+00	0	43	102	1048576	14	4294
2026-01-07 08:14:36.63	41.90	20.62	-26.9	-28.3	15.7	0.00e+00	0	43	102	1048576	14	4247
2026-01-07 08:14:37.64	41.64	20.62	-27.0	-28.5	15.6	0.00e+00	0	43	102	1048576	14	4285
2026-01-07 08:14:38.65	41.39	20.62	-27.0	-28.6	15.6	0.00e+00	0	43	102	1048576	14	4308
2026-01-07 08:14:39.66	41.13	20.62	-27.0	-28.5	15.6	0.00e+00	0	43	102	1048576	14	4295
2026-01-07 08:14:40.66	40.87	20.62	-27.0	-28.5	15.6	0.00e+00	0	43	102	1048576	14	4307
2026-01-07 08:14:41.67	40.62	20.61	-26.9	-28.4	15.7	0.00e+00	0	43	102	1048576	14	4251
2026-01-07 08:14:42.68	40.36	20.61	-26.8	-28.1	15.9	0.00e+00	0	43	102	1048576	14	4171
2026-01-07 08:14:43.69	40.10	20.61	-26.9	-28.3	15.8	0.00e+00	0	43	102	1048576	14	4235
2026-01-07 08:14:44.69	39.85	20.60	-26.9	-28.3	15.7	0.00e+00	0	43	102	1048576	14	4235
2026-01-07 08:14:45.69	39.60	20.60	-26.7	-28.0	15.9	0.00e+00	0	43	102	1048576	14	4144
2026-01-07 08:14:46.70	39.34	20.59	-26.7	-27.9	15.9	0.00e+00	0	43	102	1048576	14	4135
2026-01-07 08:14:47.71	39.08	20.58	-26.8	-28.0	15.9	0.00e+00	0	43	102	1048576	14	4149
2026-01-07 08:14:48.72	38.83	20.58	-26.8	-28.0	15.9	0.00e+00	0	43	102	1048576	14	4144
2026-01-07 08:14:49.72	38.57	20.57	-26.8	-28.1	15.8	0.00e+00	0	43	102	1048576	14	4175
2026-01-07 08:14:50.73	38.32	20.56	-26.8	-28.2	15.8	0.00e+00	0	43	102	1048576	14	4200
2026-01-07 08:14:51.74	38.06	20.55	-26.8	-28.0	15.9	0.00e+00	0	43	102	1048576	14	4154
2026-01-07 08:14:52.75	37.81	20.54	-26.8	-28.1	15.8	0.00e+00	0	43	102	1048576	14	4193
2026-01-07 08:14:53.75	37.55	20.53	-26.8	-28.0	15.9	0.00e+00	0	43	102	1048576	14	4154
2026-01-07 08:14:54.76	37.30	20.52	-26.8	-28.0	15.8	0.00e+00	0	43	102	1048576	14	4168
2026-01-07 08:14:55.77	37.04	20.51	-26.9	-28.3	15.7	0.00e+00	0	43	102	1048576	14	4235
2026-01-07 08:14:56.77	36.79	20.50	-26.9	-28.4	15.6	0.00e+00	0	43	102	1048576	14	4269
2026-01-07 08:14:57.78	36.54	20.49	-27.1	-28.8	15.4	0.00e+00	0	43	102	1048576	14	4367
2026-01-07 08:14:58.79	36.28	20.48	-27.1	-28.8	15.5	7.00e-07	0	43	102	1048576	14	4363
2026-01-07 08:14:59.80	36.03	20.46	-27.1	-28.8	15.4	0.00e+00	0	43	102	1048576	14	4391
2026-01-07 08:15:00.81	35.77	20.45	-27.2	-28.9	15.3	0.00e+00	0	43	102	1048576	14	4405
2026-01-07 08:15:01.81	35.52	20.44	-27.3	-29.2	15.1	0.00e+00	0	43	102	1048576	14	4502
2026-01-07 08:15:02.82	35.27	20.42	-27.2	-29.1	15.2	0.00e+00	0	43	102	1048576	14	4473
2026-01-07 08:15:03.83	35.01	20.40	-27.2	-28.9	15.3	0.00e+00	0	43	102	1048576	14	4411
2026-01-07 08:15:04.83	34.76	20.39	-27.1	-28.8	15.4	0.00e+00	0	43	102	1048576	14	4386
2026-01-07 08:15:05.83	34.51	20.37	-27.2	-28.9	15.4	0.00e+00	0	43	102	1048576	14	4403
2026-01-07 08:15:06.85	34.26	20.35	-27.0	-28.5	15.6	0.00e+00	0	43	102	1048576	14	4286
2026-01-07 08:15:07.85	34.01	20.34	-27.1	-28.7	15.5	0.00e+00	0	43	102	1048576	14	4346
2026-01-07 08:15:08.86	33.76	20.32	-26.9	-28.4	15.6	0.00e+00	0	43	102	1048576	14	4265
2026-01-07 08:15:09.86	33.51	20.30	-26.8	-28.1	15.8	0.00e+00	0	43	102	1048576	14	4183
2026-01-07 08:15:10.86	33.26	20.28	-26.8	-28.0	15.8	0.00e+00	0	43	102	1048576	14	4161
2026-01-07 08:15:11.87	33.01	20.26	-26.8	-28.1	15.8	0.00e+00	0	43	102	1048576	14	4195
2026-01-07 08:15:12.88	32.76	20.24	-26.8	-28.0	15.9	0.00e+00	0	43	102	1048576	14	4163
2026-01-07 08:15:13.88	32.51	20.22	-26.9	-28.4	15.7	0.00e+00	0	43	102	1048576	14	4256
2026-01-07 08:15:14.89	32.26	20.20	-27.2	-29.0	15.3	0.00e+00	0	43	102	1048576	14	4427
2026-01-07 08:15:15.90	32.01	20.17	-27.1	-28.9	15.4	0.00e+00	0	43	102	1048576	14	4393
2026-01-07 08:15:16.90	31.76	20.15	-27.1	-28.8	15.4	0.00e+00	0	43	102	1048576	14	4381
2026-01-07 08:15:17.90	31.52	20.13	-27.1	-28.7	15.4	0.00e+00	0	43	102	1048576	14	4350
2026-01-07 08:15:18.91	31.27	20.10	-27.1	-28.8	15.4	0.00e+00	0	43	102	1048576	14	4394
2026-01-07 08:15:19.92	31.02	20.08	-27.2	-29.1	15.2	0.00e+00	0	43	102	1048576	14	4474
2026-01-07 08:15:20.93	30.77	20.05	-27.2	-29.0	15.3	0.00e+00	0	43	102	1048576	14	4426
2026-01-07 08:15:21.93	30.53	20.03	-27.1	-28.8	15.4	0.00e+00	0	43	102	1048576	14	4374
2026-01-07 08:15:22.93	30.28	20.00	-27.1	-28.9	15.3	0.00e+00	0	43	102	1048576	14	4404
2026-01-07 08:15:23.94	30.04	19.98	-27.1	-28.7	15.4	0.00e+00	0	43	102	1048576	14	4352
2026-01-07 08:15:24.94	29.79	19.95	-27.1	-28.8	15.4	0.00e+00	0	43	102	1048576	14	4362
2026-01-07 08:15:25.94	29.55	19.92	-27.3	-29.2	15.2	7.00e-07	0	43	102	1048576	14	4499
2026-01-07 08:15:26.95	29.31	19.89	-27.2	-28.9	15.3	0.00e+00	0	43	102	1048576	14	4412
2026-01-07 08:15:27.96	29.06	19.86	-27.1	-28.7	15.4	0.00e+00	0	43	102	1048576	14	4352
2026-01-07 08:15:28.96	28.82	19.83	-27.1	-28.8	15.4	0.00e+00	0	43	102	1048576	14	4367
2026-01-07 08:15:29.97	28.58	19.81	-27.2	-29.0	15.3	0.00e+00	0	43	102	1048576	14	4439
2026-01-07 08:15:30.98	28.33	19.77	-27.2	-29.1	15.2	0.00e+00	0	43	102	1048576	14	4458
2026-01-07 08:15:31.99	28.09	19.74	-27.2	-29.0	15.2	0.00e+00	0	43	102	1048576	14	4436
2026-01-07 08:15:32.99	27.85	19.71	-27.3	-29.2	15.2	0.00e+00	0	43	102	1048576	14	4495
2026-01-07 08:15:34.00	27.61	19.68	-27.1	-28.8	15.3	0.00e+00	0	43	102	1048576	14	4390
2026-01-07 08:15:35.00	27.37	19.65	-27.1	-28.8	15.4	0.00e+00	0	43	102	1048576	14	4374
2026-01-07 08:15:36.01	27.13	19.62	-27.2	-28.9	15.3	0.00e+00	0	43	102	1048576	14	4416
2026-01-07 08:15:37.02	26.89	19.58	-27.2	-29.0	15.2	0.00e+00	0	43	102	1048576	14	4437
2026-01-07 08:15:38.03	26.65	19.55	-27.2	-29.0	15.3	0.00e+00	0	43	102	1048576	14	4429
2026-01-07 08:15:39.03	26.42	19.52	-27.1	-28.8	15.3	0.00e+00	0	43	102	1048576	14	4384
2026-01-07 08:15:40.04	26.18	19.48	-27.3	-29.3	15.1	7.00e-07	0	43	102	1048576	14	4536
2026-01-07 08:15:41.05	25.94	19.45	-27.1	-28.9	15.3	0.00e+00	0	43	102	1048576	14	4393
2026-01-07 08:15:42.05	25.70	19.41	-27.2	-29.1	15.2	0.00e+00	0	43	102	1048576	14	4449
2026-01-07 08:15:43.05	25.47	19.37	-27.1	-28.7	15.4	0.00e+00	0	43	102	1048576	14	4354
2026-01-07 08:15:44.06	25.23	19.34	-27.0	-28.4	15.6	0.00e+00	0	43	102	1048576	14	4275
2026-01-07 08:15:45.07	25.00	19.30	-27.0	-28.6	15.5	0.00e+00	0	43	102	1048576	14	4317
2026-01-07 08:15:46.08	24.76	19.26	-27.2	-29.0	15.2	0.00e+00	0	43	102	1048576	14	4438
2026-01-07 08:15:47.08	24.53	19.23	-27.0	-28.6	15.5	0.00e+00	0	43	102	1048576	14	4320
2026-01-07 08:15:48.09	24.30	19.19	-27.0	-28.5	15.5	0.00e+00	0	43	102	1048576	14	4288
2026-01-07 08:15:49.09	24.07	19.15	-27.0	-28.5	15.5	0.00e+00	0	43	102	1048576	14	4285
2026-01-07 08:15:50.10	23.83	19.11	-27.1	-28.9	15.3	0.00e+00	0	43	102	1048576	14	4398
2026-01-07 08:15:51.11	23.60	19.07	-27.0	-28.6	15.5	0.00e+00	0	43	102	1048576	14	4317
2026-01-07 08:15:52.11	23.37	19.03	-26.9	-28.4	15.6	0.00e+00	0	43	102	1048576	14	4270
2026-01-07 08:15:53.12	23.14	18.99	-26.9	-28.4	15.6	0.00e+00	0	43	102	1048576	14	4274
2026-01-07 08:15:54.13	22.91	18.95	-27.0	-28.6	15.5	0.00e+00	0	43	102	1048576	14	4305
2026-01-07 08:15:55.13	22.68	18.91	-26.8	-28.1	15.7	0.00e+00	0	43	102	1048576	14	4184
2026-01-07 08:15:56.14	22.46	18.87	-26.8	-28.1	15.7	0.00e+00	0	43	102	1048576	14	4171
2026-01-07 08:15:57.14	22.23	18.83	-26.9	-28.3	15.6	0.00e+00	0	43	102	1048576	14	4239
2026-01-07 08:15:58.15	22.00	18.78	-27.0	-28.6	15.4	0.00e+00	0	43	102	1048576	14	4322
2026-01-07 08:15:59.15	21.78	18.74	-27.0	-28.6	15.4	0.00e+00	0	43	102	1048576	14	4327
2026-01-07 08:16:00.16	21.55	18.70	-27.1	-28.7	15.4	0.00e+00	0	43	102	1048576	14	4364
2026-01-07 08:16:01.17	21.33	18.65	-27.2	-28.9	15.3	0.00e+00	0	43	102	1048576	14	4414
2026-01-07 08:16:02.18	21.10	18.61	-27.2	-29.0	15.2	0.00e+00	0	43	102	1048576	14	4440
2026-01-07 08:16:03.19	20.88	18.57	-27.1	-28.7	15.4	0.00e+00	0	43	102	1048576	14	4340
2026-01-07 08:16:04.19	20.65	18.52	-26.9	-28.4	15.6	0.00e+00	0	43	102	1048576	14	4259
2026-01-07 08:16:05.19	20.43	18.48	-26.9	-28.4	15.5	0.00e+00	0	43	102	1048576	14	4267
2026-01-07 08:16:06.20	20.21	18.43	-26.9	-28.4	15.5	7.00e-07	0	43	102	1048576	14	4273
2026-01-07 08:16:07.21	19.99	18.38	-26.9	-28.3	15.6	0.00e+00	0	43	102	1048576	14	4228
2026-01-07 08:16:08.21	19.77	18.34	-26.9	-28.3	15.6	0.00e+00	0	43	102	1048576	14	4246
2026-01-07 08:16:09.22	19.55	18.29	-27.0	-28.6	15.4	0.00e+00	0	43	102	1048576	14	4315
2026-01-07 08:16:10.22	19.33	18.25	-27.0	-28.6	15.4	0.00e+00	0	43	102	1048576	14	4315
2026-01-07 08:16:11.23	19.11	18.20	-27.1	-28.8	15.3	0.00e+00	0	43	102	1048576	14	4383
2026-01-07 08:16:12.24	18.90	18.15	-27.2	-29.0	15.2	0.00e+00	0	43	102	1048576	14	4422
2026-01-07 08:16:13.25	18.68	18.10	-27.2	-29.0	15.2	0.00e+00	0	43	102	1048576	14	4422
2026-01-07 08:16:14.25	18.46	18.06	-27.2	-29.1	15.1	0.00e+00	0	43	102	1048576	14	4466
2026-01-07 08:16:15.25	18.25	18.01	-27.1	-28.8	15.3	0.00e+00	0	43	102	1048576	14	4375
2026-01-07 08:16:16.26	18.03	17.96	-27.1	-28.8	15.3	0.00e+00	0	43	102	1048576	14	4388
2026-01-07 08:16:17.26	17.82	17.91	-27.2	-28.9	15.2	0.00e+00	0	43	102	1048576	14	4420
2026-01-07 08:16:18.27	17.61	17.86	-27.0	-28.5	15.5	0.00e+00	0	43	102	1048576	14	4281
2026-01-07 08:16:19.28	17.39	17.81	-26.9	-28.4	15.5	0.00e+00	0	43	102	1048576	14	4264
2026-01-07 08:16:20.28	17.18	17.76	-27.0	-28.5	15.4	0.00e+00	0	43	102	1048576	14	4300
2026-01-07 08:16:21.29	16.97	17.71	-27.1	-28.7	15.3	0.00e+00	0	43	102	1048576	14	4351
2026-01-07 08:16:22.30	16.76	17.66	-27.2	-29.0	15.1	0.00e+00	0	43	102	1048576	14	4449
2026-01-07 08:16:23.30	16.55	17.61	-27.2	-29.1	15.1	0.00e+00	0	43	102	1048576	14	4464
2026-01-07 08:16:24.31	16.34	17.56	-27.3	-29.2	15.0	0.00e+00	0	43	102	1048576	14	4503
2026-01-07 08:16:25.31	16.14	17.51	-27.3	-29.2	15.0	0.00e+00	0	43	102	1048576	14	4499
2026-01-07 08:16:26.31	15.93	17.45	-27.4	-29.5	14.8	0.00e+00	0	43	102	1048576	14	4600
2026-01-07 08:16:27.32	15.72	17.40	-27.5	-29.3	14.7	0.00e+00	0	43	102	1048576	15	4422
2026-01-07 08:16:28.33	15.52	17.35	-27.5	-29.3	14.7	0.00e+00	0	43	102	1048576	15	4415
2026-01-07 08:16:29.33	15.31	17.30	-27.3	-28.8	15.0	0.00e+00	0	43	102	1048576	15	4262
2026-01-07 08:16:30.34	15.11	17.24	-27.1	-28.4	15.2	0.00e+00	0	43	102	1048576	15	4156
2026-01-07 08:16:31.35	14.90	17.19	-27.1	-28.3	15.2	0.00e+00	0	43	102	1048576	15	4142
2026-01-07 08:16:32.35	14.70	17.14	-27.2	-28.4	15.2	0.00e+00	0	43	102	1048576	15	4167
2026-01-07 08:16:33.36	14.50	17.08	-27.1	-28.3	15.2	0.00e+00	0	43	102	1048576	15	4137
2026-01-07 08:16:34.37	14.29	17.03	-27.3	-28.7	15.0	0.00e+00	0	43	102	1048576	15	4233
2026-01-07 08:16:35.38	14.09	16.98	-27.4	-29.0	14.8	1.50e-06	0	43	102	1048576	15	4332
2026-01-07 08:16:36.38	13.89	16.92	-27.1	-28.4	15.2	0.00e+00	0	43	102	1048576	15	4150
2026-01-07 08:16:37.39	13.69	16.87	-27.0	-28.1	15.3	0.00e+00	0	43	102	1048576	15	4096
2026-01-07 08:16:38.39	13.50	16.81	-27.0	-28.1	15.3	0.00e+00	0	43	102	1048576	15	4090
2026-01-07 08:16:39.40	13.30	16.76	-27.1	-28.3	15.2	0.00e+00	0	43	102	1048576	15	4147
2026-01-07 08:16:40.40	13.10	16.70	-27.3	-28.8	15.0	0.00e+00	0	43	102	1048576	15	4265
2026-01-07 08:16:41.41	12.90	16.65	-27.1	-28.3	15.2	0.00e+00	0	43	102	1048576	15	4138
2026-01-07 08:16:42.42	12.71	16.59	-27.2	-28.5	15.1	0.00e+00	0	43	102	1048576	15	4195
2026-01-07 08:16:43.41	12.51	16.54	-27.2	-28.6	15.1	0.00e+00	0	43	102	1048576	15	4207
2026-01-07 08:16:44.42	12.32	16.48	-27.2	-28.5	15.1	0.00e+00	0	43	102	1048576	15	4200
2026-01-07 08:16:45.43	12.13	16.42	-27.3	-28.7	15.0	0.00e+00	0	43	102	1048576	15	4239
2026-01-07 08:16:46.44	11.93	16.37	-27.2	-28.7	15.0	0.00e+00	0	43	102	1048576	15	4234
2026-01-07 08:16:47.44	11.74	16.31	-27.2	-28.5	15.1	0.00e+00	0	43	102	1048576	15	4188
2026-01-07 08:16:48.45	11.55	16.25	-27.2	-28.5	15.1	0.00e+00	0	43	102	1048576	15	4180
2026-01-07 08:16:49.46	11.36	16.20	-27.1	-28.3	15.2	0.00e+00	0	43	102	1048576	15	4136
2026-01-07 08:16:50.46	11.17	16.14	-27.1	-28.4	15.1	0.00e+00	0	43	102	1048576	15	4148
2026-01-07 08:16:51.46	10.98	16.08	-27.2	-28.6	15.0	7.00e-07	0	43	102	1048576	15	4203
2026-01-07 08:16:52.47	10.79	16.02	-27.2	-28.5	15.1	0.00e+00	0	43	102	1048576	15	4183
2026-01-07 08:16:53.48	10.60	15.97	-27.3	-28.8	14.9	0.00e+00	0	43	102	1048576	15	4261
2026-01-07 08:16:54.49	10.42	15.91	-27.3	-28.9	14.8	0.00e+00	0	43	102	1048576	15	4303
2026-01-07 08:16:55.49	10.23	15.85	-27.3	-28.9	14.9	0.00e+00	0	43	102	1048576	15	4310
2026-01-07 08:16:56.49	10.05	15.79	-27.4	-29.0	14.8	0.00e+00	0	43	102	1048576	15	4347
2026-01-07 08:16:57.50	9.86	15.73	-27.4	-29.2	14.7	0.00e+00	0	43	102	1048576	15	4385
2026-01-07 08:16:58.51	9.68	15.67	-27.4	-29.1	14.7	0.00e+00	0	43	102	1048576	15	4365
2026-01-07 08:16:59.51	9.49	15.62	-27.4	-28.9	14.8	0.00e+00	0	43	102	1048576	15	4315
2026-01-07 08:17:00.52	9.31	15.56	-27.4	-29.1	14.7	0.00e+00	0	43	102	1048576	15	4374
2026-01-07 08:17:01.53	9.13	15.50	-27.5	-29.2	14.6	0.00e+00	0	43	102	1048576	15	4391
2026-01-07 08:17:02.53	8.95	15.44	-27.4	-29.1	14.7	1.50e-06	0	43	102	1048576	15	4373
2026-01-07 08:17:03.54	8.77	15.38	-27.6	-29.5	14.4	1.50e-06	0	43	102	1048576	15	4482
2026-01-07 08:17:04.55	8.59	15.32	-27.6	-29.5	14.4	0.00e+00	0	44	102	1048576	15	4479
2026-01-07 08:17:05.56	8.41	15.26	-27.4	-29.1	14.7	7.00e-07	0	43	102	1048576	15	4357
2026-01-07 08:17:06.56	8.23	15.20	-27.4	-28.9	14.8	7.00e-07	0	43	102	1048576	15	4308
2026-01-07 08:17:07.57	8.05	15.14	-27.4	-29.0	14.7	7.00e-07	0	43	102	1048576	15	4331
2026-01-07 08:17:08.57	7.88	15.08	-27.3	-28.9	14.8	0.00e+00	0	43	102	1048576	15	4306
2026-01-07 08:17:09.58	7.70	15.02	-27.3	-28.8	14.8	7.00e-07	0	43	102	1048576	15	4287
2026-01-07 08:17:10.58	7.53	14.96	-27.4	-29.0	14.7	7.00e-07	0	43	102	1048576	15	4335
2026-01-07 08:17:11.59	7.35	14.90	-27.3	-28.8	14.8	0.00e+00	0	43	102	1048576	15	4290
2026-01-07 08:17:12.60	7.18	14.84	-27.2	-28.6	15.0	7.00e-07	0	43	102	1048576	15	4221
2026-01-07 08:17:13.60	7.00	14.78	-27.1	-28.4	15.1	0.00e+00	0	43	102	1048576	15	4169
2026-01-07 08:17:14.61	6.83	14.72	-27.2	-28.5	15.0	0.00e+00	0	43	102	1048576	15	4184
2026-01-07 08:17:15.61	6.66	14.66	-27.3	-28.8	14.8	7.00e-07	0	43	102	1048576	15	4288
2026-01-07 08:17:16.62	6.49	14.60	-27.4	-29.0	14.7	7.00e-07	0	44	102	1048576	15	4322
2026-01-07 08:17:17.63	6.32	14.53	-27.4	-29.0	14.7	0.00e+00	0	43	102	1048576	15	4345
2026-01-07 08:17:18.63	6.15	14.47	-27.4	-29.1	14.6	1.50e-06	0	43	102	1048576	15	4366
2026-01-07 08:17:19.64	5.98	14.41	-27.4	-29.2	14.6	7.00e-07	0	43	102	1048576	15	4380
2026-01-07 08:17:20.65	5.81	14.35	-27.4	-29.1	14.6	0.00e+00	0	43	102	1048576	15	4377
2026-01-07 08:17:21.65	5.65	14.29	-27.5	-29.3	14.5	7.00e-07	0	43	102	1048576	15	4428
2026-01-07 08:17:22.66	5.48	14.23	-27.4	-29.1	14.6	0.00e+00	0	43	102	1048576	15	4364
2026-01-07 08:17:23.66	5.31	14.17	-27.4	-28.9	14.7	0.00e+00	0	43	102	1048576	15	4315
2026-01-07 08:17:24.67	5.15	14.10	-27.3	-28.9	14.7	0.00e+00	0	43	102	1048576	15	4312
2026-01-07 08:17:25.67	4.98	14.04	-27.3	-28.7	14.8	7.00e-07	0	43	102	1048576	15	4265
2026-01-07 08:17:26.68	4.82	13.98	-27.2	-28.5	15.0	0.00e+00	0	43	102	1048576	15	4190
2026-01-07 08:17:27.68	4.66	13.92	-27.2	-28.6	14.9	0.00e+00	0	43	102	1048576	15	4219
2026-01-07 08:17:28.68	4.50	13.86	-27.3	-28.7	14.9	7.00e-07	0	43	102	1048576	15	4251
2026-01-07 08:17:29.69	4.33	13.79	-27.3	-28.8	14.8	0.00e+00	0	43	102	1048576	15	4281
2026-01-07 08:17:30.70	4.17	13.73	-27.4	-29.1	14.6	0.00e+00	0	43	102	1048576	15	4364
2026-01-07 08:17:31.71	4.01	13.67	-27.5	-29.2	14.5	0.00e+00	0	44	102	1048576	15	4398
2026-01-07 08:17:32.72	3.85	13.61	-27.6	-29.4	14.4	7.00e-07	0	43	102	1048576	15	4456
2026-01-07 08:17:33.72	3.69	13.54	-27.6	-29.4	14.4	1.50e-06	0	43	102	1048576	15	4457
2026-01-07 08:17:34.72	3.53	13.48	-27.5	-29.2	14.5	7.00e-07	0	43	102	1048576	15	4411
2026-01-07 08:17:35.73	3.38	13.42	-27.5	-29.4	14.5	0.00e+00	0	43	102	1048576	15	4455
2026-01-07 08:17:36.74	3.22	13.36	-27.5	-29.3	14.5	7.00e-07	0	43	102	1048576	15	4423
2026-01-07 08:17:37.75	3.06	13.29	-27.4	-29.1	14.6	0.00e+00	0	43	102	1048576	15	4369
2026-01-07 08:17:38.76	2.91	13.23	-27.5	-29.2	14.5	0.00e+00	0	43	102	1048576	15	4400
2026-01-07 08:17:39.76	2.75	13.17	-27.4	-29.1	14.5	7.00e-07	0	43	102	1048576	15	4381
2026-01-07 08:17:40.76	2.60	13.11	-27.4	-29.1	14.6	0.00e+00	0	43	102	1048576	15	4361
2026-01-07 08:17:41.77	2.44	13.04	-27.4	-29.1	14.6	0.00e+00	0	43	102	1048576	15	4370
2026-01-07 08:17:42.77	2.29	12.98	-27.5	-29.3	14.4	7.00e-07	0	43	102	1048576	15	4431
2026-01-07 08:17:43.78	2.14	12.92	-27.5	-29.2	14.5	0.00e+00	0	43	102	1048576	15	4405
2026-01-07 08:17:44.79	1.99	12.85	-27.5	-29.4	14.4	1.50e-06	0	43	102	1048576	15	4449
2026-01-07 08:17:45.79	1.84	12.79	-27.5	-29.3	14.4	7.00e-07	0	43	102	1048576	15	4429
2026-01-07 08:17:46.79	1.69	12.73	-27.5	-29.2	14.5	0.00e+00	0	43	102	1048576	15	4392
2026-01-07 08:17:47.80	1.54	12.67	-27.5	-29.2	14.5	1.50e-06	0	43	102	1048576	15	4409
2026-01-07 08:17:48.81	1.39	12.60	-27.5	-29.3	14.4	7.00e-07	0	43	102	1048576	15	4439
2026-01-07 08:17:49.82	1.24	12.54	-27.7	-29.7	14.2	0.00e+00	0	43	102	1048576	15	4556
2026-01-07 08:17:50.82	1.09	12.48	-27.7	-29.8	14.1	2.20e-06	0	43	102	1048576	15	4587
2026-01-07 08:17:51.83	0.94	12.41	-27.8	-30.1	13.9	1.50e-06	0	43	102	1048576	15	4674
2026-01-07 08:17:52.84	0.80	12.35	-27.8	-30.1	13.9	7.00e-07	0	43	102	1048576	15	4673
2026-01-07 08:17:53.84	0.65	12.29	-27.9	-30.2	13.8	3.00e-06	0	43	102	1048576	15	4717
2026-01-07 08:17:54.85	0.51	12.22	-27.9	-30.2	13.9	3.00e-06	0	43	102	1048576	15	4701
2026-01-07 08:17:55.85	0.36	12.16	-28.2	-30.3	13.7	5.30e-06	0	43	102	1048576	16	4623
2026-01-07 08:17:56.85	0.22	12.10	-28.4	-30.8	13.4	1.44e-05	0	43	102	1048576	16	4776
2026-01-07 08:17:57.86	0.08	12.03	-28.3	-30.7	13.5	1.14e-05	0	43	102	1048576	16	4722
2026-01-07 08:17:58.87	359.93	11.97	-28.5	-31.1	13.2	1.67e-05	0	43	102	1048576	16	4860
2026-01-07 08:17:59.88	359.79	11.91	-28.4	-30.8	13.4	1.83e-05	0	43	102	1048576	16	4782
2026-01-07 08:18:00.89	359.65	11.84	-28.2	-30.5	13.5	6.80e-06	0	43	102	1048576	16	4674
2026-01-07 08:18:01.90	359.51	11.78	-28.2	-30.5	13.6	8.30e-06	0	43	102	1048576	16	4660
2026-01-07 08:18:02.90	359.37	11.72	-28.3	-30.6	13.5	1.06e-05	0	43	102	1048576	16	4698
2026-01-07 08:18:03.91	359.23	11.65	-28.2	-30.3	13.7	6.10e-06	0	43	102	1048576	16	4628
2026-01-07 08:18:04.91	359.09	11.59	-28.4	-30.9	13.3	1.22e-05	0	43	102	1048576	16	4805
2026-01-07 08:18:05.92	358.95	11.53	-28.3	-30.5	13.6	1.22e-05	0	43	102	1048576	16	4687
2026-01-07 08:18:06.92	358.82	11.46	-28.1	-30.2	13.7	3.80e-06	0	43	102	1048576	16	4587
2026-01-07 08:18:07.93	358.68	11.40	-28.1	-30.2	13.7	4.50e-06	0	43	102	1048576	16	4588
2026-01-07 08:18:08.94	358.54	11.34	-28.2	-30.4	13.6	9.90e-06	0	43	102	1048576	16	4656
2026-01-07 08:18:09.95	358.40	11.27	-28.3	-30.6	13.4	1.29e-05	0	43	102	1048576	16	4718
2026-01-07 08:18:10.95	358.27	11.21	-28.5	-31.1	13.1	3.12e-05	0	43	102	1048576	16	4880
2026-01-07 08:18:11.96	358.14	11.15	-28.4	-31.0	13.2	2.36e-05	0	43	102	1048576	16	4826
2026-01-07 08:18:12.97	358.00	11.08	-28.4	-31.1	13.1	2.67e-05	0	43	102	1048576	16	4876
2026-01-07 08:18:13.98	357.87	11.02	-28.5	-31.1	13.1	3.12e-05	0	43	102	1048576	16	4882
2026-01-07 08:18:14.98	357.73	10.96	-28.5	-31.1	13.1	2.59e-05	0	43	102	1048576	16	4886
2026-01-07 08:18:15.99	357.60	10.89	-28.5	-31.2	13.1	2.67e-05	0	43	102	1048576	16	4908
2026-01-07 08:18:16.99	357.47	10.83	-28.4	-30.6	13.1	3.35e-05	0	43	102	1048576	17	4594
2026-01-07 08:18:18.00	357.34	10.77	-28.5	-30.7	13.1	3.66e-05	0	43	102	1048576	17	4628
2026-01-07 08:18:19.01	357.21	10.70	-28.5	-30.6	13.1	2.59e-05	0	43	102	1048576	17	4619
2026-01-07 08:18:20.01	357.08	10.64	-28.5	-30.6	13.1	2.59e-05	0	43	102	1048576	17	4602
2026-01-07 08:18:21.02	356.95	10.58	-28.5	-30.7	13.0	2.67e-05	0	43	102	1048576	17	4648
2026-01-07 08:18:22.03	356.82	10.51	-28.5	-30.6	13.1	2.97e-05	0	43	102	1048576	17	4609
2026-01-07 08:18:23.04	356.69	10.45	-28.4	-30.4	13.2	2.97e-05	0	43	102	1048576	17	4554
2026-01-07 08:18:24.04	356.56	10.39	-28.4	-30.6	13.1	2.59e-05	0	43	102	1048576	17	4597
2026-01-07 08:18:25.05	356.44	10.33	-28.5	-30.8	13.0	3.43e-05	0	43	102	1048576	17	4670
2026-01-07 08:18:26.05	356.31	10.26	-28.5	-30.6	13.1	3.35e-05	0	43	102	1048576	17	4608
2026-01-07 08:18:27.04	356.19	10.20	-28.6	-31.0	12.8	5.87e-05	0	43	102	1048576	17	4727
2026-01-07 08:18:28.04	356.06	10.14	-28.6	-31.0	12.8	7.09e-05	0	43	102	1048576	17	4740
2026-01-07 08:18:29.05	355.94	10.07	-28.7	-31.1	12.7	5.11e-05	0	43	102	1048576	17	4786
2026-01-07 08:18:30.06	355.81	10.01	-28.8	-31.5	12.5	1.17e-04	0	43	102	1048576	17	4903
2026-01-07 08:18:31.06	355.69	9.95	-28.7	-31.2	12.7	8.62e-05	0	43	102	1048576	17	4805
2026-01-07 08:18:32.08	355.56	9.89	-28.8	-31.4	12.5	1.01e-04	0	43	102	1048576	17	4883
2026-01-07 08:18:33.08	355.44	9.82	-28.7	-31.2	12.7	7.32e-05	0	43	102	1048576	17	4800
2026-01-07 08:18:34.09	355.32	9.76	-28.6	-31.0	12.8	4.80e-05	0	43	102	1048576	17	4727
2026-01-07 08:18:35.09	355.20	9.70	-28.7	-31.1	12.7	5.49e-05	0	43	102	1048576	17	4771
2026-01-07 08:18:36.10	355.08	9.63	-28.6	-30.9	12.9	6.40e-05	0	43	102	1048576	17	4696
2026-01-07 08:18:37.11	354.96	9.57	-28.5	-30.8	12.9	5.18e-05	0	44	102	1048576	17	4672
2026-01-07 08:18:38.11	354.84	9.51	-28.5	-30.9	12.9	3.73e-05	0	43	102	1048576	17	4695
2026-01-07 08:18:39.12	354.72	9.45	-28.6	-31.1	12.7	6.71e-05	0	43	102	1048576	17	4769
2026-01-07 08:18:40.12	354.60	9.38	-28.8	-31.4	12.5	1.28e-04	0	43	102	1048576	17	4868
2026-01-07 08:18:41.13	354.48	9.32	-28.7	-31.2	12.6	7.40e-05	0	43	102	1048576	17	4816
2026-01-07 08:18:42.14	354.36	9.26	-28.7	-31.3	12.6	1.02e-04	0	43	102	1048576	17	4846
2026-01-07 08:18:43.15	354.24	9.20	-28.7	-31.3	12.5	1.09e-04	0	43	102	1048576	17	4849
2026-01-07 08:18:44.16	354.13	9.13	-28.8	-31.5	12.4	1.07e-04	0	43	102	1048576	17	4899
2026-01-07 08:18:45.17	354.01	9.07	-28.8	-31.5	12.4	1.45e-04	0	43	102	1048576	17	4921
2026-01-07 08:18:46.17	353.90	9.01	-28.8	-31.4	12.5	1.11e-04	0	43	102	1048576	17	4870
2026-01-07 08:18:47.18	353.78	8.95	-28.9	-31.7	12.3	1.91e-04	0	43	102	1048576	17	4970
2026-01-07 08:18:48.19	353.66	8.88	-28.7	-31.2	12.6	1.04e-04	0	43	102	1048576	17	4801
2026-01-07 08:18:49.20	353.55	8.82	-28.7	-31.3	12.5	1.20e-04	0	43	102	1048576	17	4843
2026-01-07 08:18:50.20	353.44	8.76	-28.8	-31.5	12.4	1.37e-04	0	43	102	1048576	17	4914
2026-01-07 08:18:51.20	353.32	8.70	-28.7	-31.2	12.6	1.33e-04	0	43	102	1048576	17	4799
2026-01-07 08:18:52.21	353.21	8.63	-28.6	-31.0	12.7	8.01e-05	0	43	102	1048576	17	4751
2026-01-07 08:18:53.22	353.10	8.57	-28.7	-31.2	12.5	1.21e-04	0	43	102	1048576	17	4826
2026-01-07 08:18:54.22	352.99	8.51	-28.5	-30.9	12.7	7.01e-05	0	43	102	1048576	17	4711
2026-01-07 08:18:55.23	352.87	8.45	-28.6	-31.0	12.7	8.39e-05	0	43	102	1048576	17	4739
2026-01-07 08:18:56.24	352.76	8.39	-28.6	-30.9	12.7	6.63e-05	0	43	102	1048576	17	4721
2026-01-07 08:18:57.25	352.65	8.32	-28.6	-31.1	12.6	8.31e-05	0	43	102	1048576	17	4771
2026-01-07 08:18:58.25	352.54	8.26	-28.6	-31.0	12.6	9.15e-05	0	44	102	1048576	17	4768
2026-01-07 08:18:59.26	352.43	8.20	-28.7	-31.2	12.5	1.01e-04	0	43	102	1048576	17	4819
2026-01-07 08:19:00.27	352.32	8.14	-28.8	-31.5	12.3	1.85e-04	0	43	102	1048576	17	4907
2026-01-07 08:19:01.28	352.22	8.08	-28.8	-31.5	12.3	1.72e-04	0	43	102	1048576	17	4915
2026-01-07 08:19:02.28	352.11	8.02	-28.9	-31.8	12.1	2.49e-04	0	43	102	1048576	17	5028
2026-01-07 08:19:03.28	352.00	7.95	-28.9	-31.9	12.0	2.52e-04	0	43	102	1048576	17	5074
2026-01-07 08:19:04.29	351.89	7.89	-29.1	-31.9	11.7	4.60e-04	0	43	102	1048576	18	4942
2026-01-07 08:19:05.30	351.79	7.83	-29.1	-31.9	11.7	6.38e-04	0	43	102	1048576	18	4941
2026-01-07 08:19:06.31	351.68	7.77	-29.0	-31.6	11.9	4.29e-04	0	43	102	1048576	18	4854
2026-01-07 08:19:07.31	351.58	7.71	-29.0	-31.7	11.8	3.92e-04	0	43	102	1048576	18	4874
2026-01-07 08:19:08.32	351.47	7.65	-29.0	-31.7	11.8	4.94e-04	0	43	102	1048576	18	4870
2026-01-07 08:19:09.33	351.37	7.58	-29.0	-31.6	11.9	4.97e-04	0	43	102	1048576	18	4852
2026-01-07 08:19:10.33	351.26	7.52	-29.1	-32.0	11.6	5.98e-04	0	43	102	1048576	18	4981
2026-01-07 08:19:11.34	351.16	7.46	-29.1	-31.8	11.7	8.13e-04	0	43	102	1048576	18	4929
2026-01-07 08:19:12.34	351.05	7.40	-28.9	-31.3	12.0	3.81e-04	0	43	102	1048576	18	4758
2026-01-07 08:19:13.35	350.95	7.34	-28.9	-31.2	12.1	2.78e-04	0	43	102	1048576	18	4725
2026-01-07 08:19:14.35	350.85	7.28	-28.7	-30.8	12.3	1.67e-04	0	43	102	1048576	18	4590
2026-01-07 08:19:15.36	350.75	7.22	-28.7	-30.9	12.3	1.81e-04	0	43	102	1048576	18	4613
2026-01-07 08:19:16.36	350.65	7.16	-28.6	-30.4	12.6	1.07e-04	0	43	102	1048576	18	4468
2026-01-07 08:19:17.36	350.55	7.10	-30.7	-34.9	8.8	6.42e-04	0	43	102	1048576	21	5864
2026-01-07 08:19:18.37	350.44	7.04	-32.9	-44.8	3.8	1.49e+00	0	43	104	1048576	25	14026
2026-01-07 08:19:19.37	350.35	6.98	-33.3	-45.4	3.8	1.49e+00	0	43	104	1048576	26	14530
2026-01-07 08:19:20.38	350.24	6.92	-33.5	-45.7	3.8	1.49e+00	0	43	104	1048576	26	14815

#Closed at: 2026-01-07 08:19:21
#Recorded file [1 MB]: D:/data/31010_260107_111006.dat