passes_logs/2026/01/23/planumMaritime01/planumMaritime01__20260123_162601_METOP-B_rec.log

#Pass ID: 20260123_162601_METOP-B
#Satellite: METOP-B
#Configuration: METOP-B
#Start time: 2026-01-23 16:26:06.466669

#LorettStation: 1.0.0 05.05.2024
#Station: planumMaritime01
#Location: 37.49445 lon 55.92918 lat
#TLE: 1 38771U 12049A   26022.97235704  .00000260  00000+0  13896-3 0  9998
#TLE: 2 38771  98.6736  77.2202 0003075  60.7389 299.4096 14.21426861692635

#Time	Az	El	Level	SNR
2026-01-23 16:26:08.642836	121.4	10.2	-75.6	0.0
2026-01-23 16:26:09.771369	121.4	10.3	-76.0	0.0
2026-01-23 16:26:10.896548	121.3	10.4	-75.4	0.0
2026-01-23 16:26:12.022559	121.2	10.4	-75.5	0.0
2026-01-23 16:26:13.150193	121.1	10.5	-74.6	0.0
2026-01-23 16:26:14.274865	121.0	10.6	-74.1	0.0
2026-01-23 16:26:15.402912	120.9	10.7	-74.6	0.0
2026-01-23 16:26:16.527724	120.8	10.8	-73.0	0.0
2026-01-23 16:26:17.654220	120.7	10.9	-73.0	0.0
2026-01-23 16:26:18.779106	120.6	11.0	-73.4	0.0
2026-01-23 16:26:19.905035	120.5	11.1	-72.6	0.0
2026-01-23 16:26:21.029361	120.4	11.2	-73.4	0.0
2026-01-23 16:26:22.154033	120.3	11.3	-73.6	0.0
2026-01-23 16:26:23.279109	120.2	11.4	-73.7	0.0
2026-01-23 16:26:24.405451	120.1	11.4	-73.2	0.0
2026-01-23 16:26:25.532101	120.0	11.5	-73.4	0.0
2026-01-23 16:26:26.662435	119.9	11.6	-73.2	0.0
2026-01-23 16:26:27.789596	119.8	11.7	-73.5	0.0
2026-01-23 16:26:28.917289	119.7	11.8	-72.8	0.0
2026-01-23 16:26:30.042446	119.6	11.9	-73.4	0.0
2026-01-23 16:26:31.168807	119.5	12.0	-72.8	0.7
2026-01-23 16:26:32.297366	119.4	12.1	-73.3	1.9
2026-01-23 16:26:33.425678	119.3	12.2	-72.8	1.1
2026-01-23 16:26:34.552899	119.2	12.3	-74.4	1.0
2026-01-23 16:26:35.680916	119.1	12.4	-74.2	0.8
2026-01-23 16:26:36.807263	119.0	12.5	-73.2	0.0
2026-01-23 16:26:37.933362	118.9	12.6	-73.7	0.5
2026-01-23 16:26:39.060414	118.8	12.7	-73.1	1.1
2026-01-23 16:26:40.185269	118.7	12.8	-73.3	0.0
2026-01-23 16:26:41.311508	118.5	12.9	-74.1	1.9
2026-01-23 16:26:42.439195	118.4	13.0	-73.7	0.0
2026-01-23 16:26:43.567961	118.3	13.1	-72.8	0.7
2026-01-23 16:26:44.694999	118.2	13.2	-73.2	0.9
2026-01-23 16:26:45.822159	118.1	13.3	-73.8	1.1
2026-01-23 16:26:46.946625	118.0	13.4	-72.9	0.0
2026-01-23 16:26:48.074223	117.9	13.5	-73.3	0.8
2026-01-23 16:26:49.203026	117.8	13.6	-73.3	0.0
2026-01-23 16:26:50.331048	117.6	13.7	-72.9	0.0
2026-01-23 16:26:51.457813	117.5	13.8	-72.7	0.0
2026-01-23 16:26:52.585305	117.4	13.9	-72.7	0.0
2026-01-23 16:26:53.709677	117.3	14.0	-72.2	0.0
2026-01-23 16:26:54.837294	117.2	14.1	-71.2	0.0
2026-01-23 16:26:55.963780	117.0	14.2	-71.9	0.0
2026-01-23 16:26:57.088998	116.9	14.3	-72.2	0.0
2026-01-23 16:26:58.215838	116.8	14.4	-73.0	0.0
2026-01-23 16:26:59.342717	116.7	14.5	-72.9	0.0
2026-01-23 16:27:00.469469	116.6	14.6	-73.6	0.8
2026-01-23 16:27:01.594696	116.4	14.7	-73.2	0.0
2026-01-23 16:27:02.722714	116.3	14.8	-72.8	0.0
2026-01-23 16:27:03.848752	116.2	14.9	-72.7	0.0
2026-01-23 16:27:04.973241	116.1	15.0	-73.1	0.0
2026-01-23 16:27:06.099885	115.9	15.1	-73.0	0.0
2026-01-23 16:27:07.225504	115.8	15.2	-72.9	0.0
2026-01-23 16:27:08.350421	115.7	15.3	-72.8	0.0
2026-01-23 16:27:09.476384	115.5	15.4	-74.2	0.2
2026-01-23 16:27:10.603441	115.4	15.5	-73.4	0.0
2026-01-23 16:27:11.730482	115.3	15.6	-72.5	0.0
2026-01-23 16:27:12.857134	115.1	15.7	-72.4	0.8
2026-01-23 16:27:13.983060	115.0	15.8	-72.8	0.0
2026-01-23 16:27:15.108586	114.9	15.9	-73.4	2.6
2026-01-23 16:27:16.236922	114.7	16.0	-73.6	1.5
2026-01-23 16:27:17.363729	114.6	16.1	-73.3	0.3
2026-01-23 16:27:18.490089	114.5	16.2	-73.0	0.0
2026-01-23 16:27:19.618165	114.3	16.3	-72.9	0.0
2026-01-23 16:27:20.746578	114.2	16.4	-73.2	0.2
2026-01-23 16:27:21.873217	114.0	16.5	-72.1	0.0
2026-01-23 16:27:22.997978	113.9	16.7	-72.1	0.9
2026-01-23 16:27:24.126125	113.8	16.8	-71.6	0.0
2026-01-23 16:27:25.253519	113.6	16.9	-73.0	1.0
2026-01-23 16:27:26.381371	113.5	17.0	-73.2	0.0
2026-01-23 16:27:27.510494	113.3	17.1	-73.7	1.9
2026-01-23 16:27:28.635857	113.2	17.2	-72.9	0.0
2026-01-23 16:27:29.761795	113.0	17.3	-71.4	0.0
2026-01-23 16:27:30.888360	112.9	17.4	-71.4	0.0
2026-01-23 16:27:32.013910	112.7	17.5	-72.0	0.0
2026-01-23 16:27:33.140338	112.6	17.6	-73.1	0.0
2026-01-23 16:27:34.264200	112.4	17.7	-72.1	0.0
2026-01-23 16:27:35.390631	112.3	17.9	-72.3	0.0
2026-01-23 16:27:36.517518	112.1	18.0	-71.6	0.0
2026-01-23 16:27:37.643407	112.0	18.1	-73.3	1.4
2026-01-23 16:27:38.770793	111.8	18.2	-72.6	0.0
2026-01-23 16:27:39.898854	111.6	18.3	-70.4	0.0
2026-01-23 16:27:41.025020	111.5	18.4	-71.3	0.0
2026-01-23 16:27:42.151086	111.3	18.5	-72.2	0.0
2026-01-23 16:27:43.276993	111.2	18.6	-71.8	0.0
2026-01-23 16:27:44.402875	111.0	18.8	-71.9	0.0
2026-01-23 16:27:45.527602	110.8	18.9	-72.0	0.0
2026-01-23 16:27:46.653833	110.7	19.0	-73.3	2.4
2026-01-23 16:27:47.780919	110.5	19.1	-72.8	2.7
2026-01-23 16:27:48.908949	110.3	19.2	-72.9	1.9
2026-01-23 16:27:50.035886	110.2	19.3	-71.9	0.0
2026-01-23 16:27:51.163007	110.0	19.4	-72.8	0.0
2026-01-23 16:27:52.289666	109.8	19.6	-71.4	0.0
2026-01-23 16:27:53.415716	109.6	19.7	-73.0	0.0
2026-01-23 16:27:54.539888	109.5	19.8	-72.7	0.2
2026-01-23 16:27:55.667832	109.3	19.9	-73.2	2.1
2026-01-23 16:27:56.795314	109.1	20.0	-72.6	0.9
2026-01-23 16:27:57.923832	108.9	20.1	-73.0	2.6
2026-01-23 16:27:59.051006	108.7	20.2	-72.6	1.5
2026-01-23 16:28:00.176560	108.6	20.4	-71.6	3.2
2026-01-23 16:28:01.302336	108.4	20.5	-72.4	3.7
2026-01-23 16:28:02.429768	108.2	20.6	-72.7	1.7
2026-01-23 16:28:03.557398	108.0	20.7	-72.8	0.6
2026-01-23 16:28:04.684137	107.8	20.8	-73.2	0.9
2026-01-23 16:28:05.809597	107.6	21.0	-72.0	2.1
2026-01-23 16:28:06.940715	107.4	21.1	-72.0	0.4
2026-01-23 16:28:08.066675	107.2	21.2	-72.8	2.4
2026-01-23 16:28:09.194159	107.1	21.3	-72.6	1.6
2026-01-23 16:28:10.321697	106.9	21.4	-72.8	4.1
2026-01-23 16:28:11.448309	106.7	21.5	-72.4	3.8
2026-01-23 16:28:12.577808	106.5	21.7	-72.5	2.1
2026-01-23 16:28:13.704180	106.3	21.8	-73.1	2.5
2026-01-23 16:28:14.831769	106.1	21.9	-72.1	1.7
2026-01-23 16:28:15.958317	105.9	22.0	-72.6	1.7
2026-01-23 16:28:17.086314	105.7	22.1	-73.1	2.8
2026-01-23 16:28:18.211649	105.4	22.3	-72.8	3.6
2026-01-23 16:28:19.335759	105.2	22.4	-71.9	0.0
2026-01-23 16:28:20.461489	105.0	22.5	-72.5	3.8
2026-01-23 16:28:21.586770	104.8	22.6	-71.4	1.8
2026-01-23 16:28:22.714267	104.6	22.7	-70.4	0.0
2026-01-23 16:28:23.841932	104.4	22.9	-72.1	1.7
2026-01-23 16:28:24.968537	104.2	23.0	-72.4	2.4
2026-01-23 16:28:26.095130	104.0	23.1	-72.3	2.3
2026-01-23 16:28:27.220182	103.7	23.2	-72.8	1.7
2026-01-23 16:28:28.346450	103.5	23.4	-72.0	2.2
2026-01-23 16:28:29.471125	103.3	23.5	-72.6	0.0
2026-01-23 16:28:30.597192	103.1	23.6	-72.0	3.8
2026-01-23 16:28:31.724858	102.8	23.7	-72.5	3.1
2026-01-23 16:28:32.850284	102.6	23.8	-71.8	2.1
2026-01-23 16:28:33.975456	102.4	24.0	-72.6	4.0
2026-01-23 16:28:35.101007	102.2	24.1	-72.2	4.0
2026-01-23 16:28:36.227630	101.9	24.2	-71.3	0.0
2026-01-23 16:28:37.352792	101.7	24.3	-71.8	3.2
2026-01-23 16:28:38.479054	101.4	24.4	-71.2	3.6
2026-01-23 16:28:39.605027	101.2	24.6	-71.9	5.3
2026-01-23 16:28:40.730335	101.0	24.7	-71.5	2.0
2026-01-23 16:28:41.856437	100.7	24.8	-70.9	0.0
2026-01-23 16:28:42.981775	100.5	24.9	-71.4	2.7
2026-01-23 16:28:44.107057	100.2	25.1	-72.0	5.2
2026-01-23 16:28:45.236179	100.0	25.2	-71.4	4.0
2026-01-23 16:28:46.362267	99.7	25.3	-71.7	0.0
2026-01-23 16:28:47.486823	99.5	25.4	-71.6	3.2
2026-01-23 16:28:48.615144	99.2	25.5	-71.6	2.7
2026-01-23 16:28:49.739076	99.0	25.7	-72.4	1.6
2026-01-23 16:28:50.863024	98.7	25.8	-71.9	6.1
2026-01-23 16:28:51.989233	98.4	25.9	-72.3	4.5
2026-01-23 16:28:53.114040	98.2	26.0	-71.6	2.1
2026-01-23 16:28:54.238946	97.9	26.2	-71.9	3.7
2026-01-23 16:28:55.364450	97.7	26.3	-72.5	4.4
2026-01-23 16:28:56.492257	97.4	26.4	-71.3	2.4
2026-01-23 16:28:57.618876	97.1	26.5	-71.4	2.9
2026-01-23 16:28:58.745179	96.8	26.6	-71.8	3.9
2026-01-23 16:28:59.872767	96.6	26.8	-72.7	3.4
2026-01-23 16:29:00.999262	96.3	26.9	-72.5	4.6
2026-01-23 16:29:02.126226	96.0	27.0	-72.3	4.2
2026-01-23 16:29:03.253321	95.7	27.1	-71.7	4.0
2026-01-23 16:29:04.377210	95.4	27.2	-72.1	3.3
2026-01-23 16:29:05.502990	95.2	27.4	-71.8	1.9
2026-01-23 16:29:06.629392	94.9	27.5	-72.1	4.8
2026-01-23 16:29:07.754632	94.6	27.6	-71.7	3.4
2026-01-23 16:29:08.881163	94.3	27.7	-71.9	4.2
2026-01-23 16:29:10.008585	94.0	27.8	-72.5	3.3
2026-01-23 16:29:11.134628	93.7	28.0	-71.8	3.1
2026-01-23 16:29:12.260323	93.4	28.1	-71.2	1.3
2026-01-23 16:29:13.390508	93.1	28.2	-71.5	2.4
2026-01-23 16:29:14.515800	92.8	28.3	-71.2	0.0
2026-01-23 16:29:15.642911	92.5	28.4	-69.1	0.0
2026-01-23 16:29:16.767619	92.2	28.5	-69.4	0.0
2026-01-23 16:29:17.893403	91.9	28.6	-69.9	0.0
2026-01-23 16:29:19.020292	91.6	28.8	-69.7	0.0
2026-01-23 16:29:20.147584	91.2	28.9	-69.8	0.0
2026-01-23 16:29:21.273172	90.9	29.0	-70.1	0.0
2026-01-23 16:29:22.399041	90.6	29.1	-70.5	2.1
2026-01-23 16:29:23.531815	90.3	29.2	-69.7	0.0
2026-01-23 16:29:24.658034	90.0	29.3	-70.1	0.0
2026-01-23 16:29:25.784027	89.6	29.4	-68.8	0.0
2026-01-23 16:29:26.910120	89.3	29.6	-70.8	3.2
2026-01-23 16:29:28.035893	89.0	29.7	-70.8	4.9
2026-01-23 16:29:29.161467	88.6	29.8	-71.6	2.1
2026-01-23 16:29:30.288574	88.3	29.9	-70.7	1.7
2026-01-23 16:29:31.413989	88.0	30.0	-67.8	0.0
2026-01-23 16:29:32.539433	87.6	30.1	-70.3	0.0
2026-01-23 16:29:33.664375	87.3	30.2	-71.2	2.4
2026-01-23 16:29:34.790461	86.9	30.3	-71.2	0.0
2026-01-23 16:29:35.917077	86.6	30.4	-70.3	0.0
2026-01-23 16:29:37.044769	86.3	30.5	-70.6	0.0
2026-01-23 16:29:38.171630	85.9	30.6	-71.7	0.0
2026-01-23 16:29:39.296967	85.5	30.7	-69.1	0.0
2026-01-23 16:29:40.421089	85.2	30.8	-68.8	0.0
2026-01-23 16:29:41.546953	84.8	30.9	-70.7	0.0
2026-01-23 16:29:42.672769	84.5	31.0	-70.3	3.0
2026-01-23 16:29:43.799709	84.1	31.1	-70.5	0.0
2026-01-23 16:29:44.925129	83.7	31.2	-70.1	2.8
2026-01-23 16:29:46.051509	83.4	31.3	-71.0	3.6
2026-01-23 16:29:47.177295	83.0	31.4	-71.6	4.9
2026-01-23 16:29:48.305077	82.6	31.5	-70.3	2.2
2026-01-23 16:29:49.432800	82.3	31.6	-71.0	4.7
2026-01-23 16:29:50.558900	81.9	31.7	-70.4	3.7
2026-01-23 16:29:51.685775	81.5	31.8	-70.3	0.3
2026-01-23 16:29:52.811091	81.1	31.9	-70.3	4.2
2026-01-23 16:29:53.937691	80.8	32.0	-69.5	1.7
2026-01-23 16:29:55.064283	80.4	32.1	-70.7	3.9
2026-01-23 16:29:56.191463	80.0	32.2	-71.7	5.9
2026-01-23 16:29:57.317788	79.6	32.3	-69.8	4.5
2026-01-23 16:29:58.442531	79.2	32.3	-70.1	1.9
2026-01-23 16:29:59.569242	78.8	32.4	-71.3	5.4
2026-01-23 16:30:00.695223	78.4	32.5	-71.4	1.7
2026-01-23 16:30:01.824424	78.0	32.6	-70.1	3.5
2026-01-23 16:30:02.950377	77.6	32.7	-70.1	4.4
2026-01-23 16:30:04.077368	77.2	32.7	-69.9	1.5
2026-01-23 16:30:05.203709	76.8	32.8	-69.3	0.9
2026-01-23 16:30:06.331211	76.4	32.9	-70.8	2.8
2026-01-23 16:30:07.456317	76.0	33.0	-70.8	4.3
2026-01-23 16:30:08.584050	75.6	33.0	-68.8	0.0
2026-01-23 16:30:09.708192	75.2	33.1	-69.5	0.0
2026-01-23 16:30:10.834692	74.8	33.2	-69.3	0.0
2026-01-23 16:30:11.959410	74.4	33.3	-68.8	0.6
2026-01-23 16:30:13.084178	74.0	33.3	-68.6	1.1
2026-01-23 16:30:14.210006	73.5	33.4	-66.6	0.0
2026-01-23 16:30:15.336881	73.1	33.5	-67.5	0.0
2026-01-23 16:30:16.463175	72.7	33.5	-69.3	0.0
2026-01-23 16:30:17.590761	72.3	33.6	-67.1	0.0
2026-01-23 16:30:18.719691	71.9	33.6	-68.3	0.0
2026-01-23 16:30:19.848843	71.4	33.7	-65.3	0.0
2026-01-23 16:30:20.976791	71.0	33.7	-67.2	0.0
2026-01-23 16:30:22.103658	70.6	33.8	-64.4	0.0
2026-01-23 16:30:23.229372	70.1	33.9	-69.4	0.0
2026-01-23 16:30:24.356415	69.7	33.9	-67.0	0.0
2026-01-23 16:30:25.482984	69.3	34.0	-68.6	0.0
2026-01-23 16:30:26.609519	68.8	34.0	-68.3	0.0
2026-01-23 16:30:27.735931	68.4	34.0	-66.2	0.0
2026-01-23 16:30:28.861923	68.0	34.1	-65.4	0.0
2026-01-23 16:30:29.988653	67.5	34.1	-67.0	0.0
2026-01-23 16:30:31.114963	67.1	34.2	-68.8	0.0
2026-01-23 16:30:32.240948	66.7	34.2	-69.3	0.0
2026-01-23 16:30:33.365368	66.2	34.2	-68.2	0.0
2026-01-23 16:30:34.491400	65.8	34.3	-66.8	0.0
2026-01-23 16:30:35.617332	65.3	34.3	-68.0	0.0
2026-01-23 16:30:36.742768	64.9	34.3	-66.9	0.0
2026-01-23 16:30:37.869211	64.5	34.4	-68.5	0.0
2026-01-23 16:30:38.994879	64.0	34.4	-68.0	0.0
2026-01-23 16:30:40.122898	63.6	34.4	-67.2	0.0
2026-01-23 16:30:41.251144	63.1	34.4	-67.8	0.0
2026-01-23 16:30:42.378193	62.7	34.5	-68.5	0.0
2026-01-23 16:30:43.505553	62.2	34.5	-67.2	0.0
2026-01-23 16:30:44.631411	61.8	34.5	-67.8	0.0
2026-01-23 16:30:45.759057	61.3	34.5	-65.1	0.0
2026-01-23 16:30:46.887650	60.9	34.5	-65.9	0.0
2026-01-23 16:30:48.013481	60.4	34.5	-67.1	0.0
2026-01-23 16:30:49.140650	60.0	34.5	-66.2	0.0
2026-01-23 16:30:50.267072	59.5	34.6	-66.2	0.0
2026-01-23 16:30:51.394185	59.1	34.6	-66.8	0.0
2026-01-23 16:30:52.520939	58.7	34.6	-65.7	0.0
2026-01-23 16:30:53.647830	58.2	34.6	-65.0	0.0
2026-01-23 16:30:54.773945	57.8	34.6	-66.0	0.0
2026-01-23 16:30:55.901695	57.3	34.6	-66.9	0.0
2026-01-23 16:30:57.029071	56.9	34.5	-66.3	0.0
2026-01-23 16:30:58.154673	56.4	34.5	-66.7	0.0
2026-01-23 16:30:59.282958	56.0	34.5	-67.7	0.0
2026-01-23 16:31:00.410460	55.5	34.5	-67.7	0.1
2026-01-23 16:31:01.536155	55.1	34.5	-68.0	1.0
2026-01-23 16:31:02.662824	54.6	34.5	-66.8	0.0
2026-01-23 16:31:03.791831	54.2	34.5	-67.3	0.0
2026-01-23 16:31:04.919357	53.7	34.5	-66.7	0.0
2026-01-23 16:31:06.047423	53.3	34.4	-65.6	0.0
2026-01-23 16:31:07.173641	52.8	34.4	-65.9	0.0
2026-01-23 16:31:08.299237	52.4	34.4	-65.4	0.0
2026-01-23 16:31:09.425004	51.9	34.4	-66.5	0.0
2026-01-23 16:31:10.550476	51.5	34.3	-64.7	0.0
2026-01-23 16:31:11.677278	51.1	34.3	-67.6	0.0
2026-01-23 16:31:12.803938	50.6	34.3	-66.9	0.0
2026-01-23 16:31:13.929660	50.2	34.2	-67.3	0.0
2026-01-23 16:31:15.056793	49.7	34.2	-68.1	0.0
2026-01-23 16:31:16.182114	49.3	34.2	-66.6	0.0
2026-01-23 16:31:17.309245	48.9	34.1	-67.6	0.0
2026-01-23 16:31:18.437400	48.4	34.1	-68.2	0.0
2026-01-23 16:31:19.564097	48.0	34.0	-67.4	0.0
2026-01-23 16:31:20.692207	47.6	34.0	-67.6	0.0
2026-01-23 16:31:21.819054	47.1	33.9	-68.0	0.0
2026-01-23 16:31:22.946353	46.7	33.9	-66.2	0.0
2026-01-23 16:31:24.073390	46.3	33.8	-66.5	0.0
2026-01-23 16:31:25.200241	45.8	33.8	-66.7	0.0
2026-01-23 16:31:26.327246	45.4	33.7	-65.5	0.0
2026-01-23 16:31:27.453205	45.0	33.7	-67.4	0.0
2026-01-23 16:31:28.579143	44.6	33.6	-64.7	0.0
2026-01-23 16:31:29.711222	44.1	33.6	-67.0	0.0
2026-01-23 16:31:30.837915	43.7	33.5	-66.8	0.0
2026-01-23 16:31:31.964968	43.3	33.4	-66.0	0.0
2026-01-23 16:31:33.092197	42.9	33.4	-65.1	0.0
2026-01-23 16:31:34.218609	42.5	33.3	-65.9	0.0
2026-01-23 16:31:35.345979	42.1	33.2	-64.1	0.0
2026-01-23 16:31:36.471965	41.6	33.2	-65.3	0.0
2026-01-23 16:31:37.597795	41.2	33.1	-64.5	0.0
2026-01-23 16:31:38.723797	40.8	33.0	-65.0	0.0
2026-01-23 16:31:39.849699	40.4	33.0	-64.7	0.0
2026-01-23 16:31:40.975136	40.0	32.9	-65.6	0.0
2026-01-23 16:31:42.104070	39.6	32.8	-65.8	0.0
2026-01-23 16:31:43.229036	39.2	32.7	-61.7	0.0
2026-01-23 16:31:44.356767	38.8	32.7	-66.2	0.0
2026-01-23 16:31:45.483570	38.4	32.6	-65.2	0.0
2026-01-23 16:31:46.610295	38.0	32.5	-64.3	0.0
2026-01-23 16:31:47.737189	37.6	32.4	-65.3	0.0
2026-01-23 16:31:48.864451	37.2	32.3	-64.5	0.0
2026-01-23 16:31:49.991048	36.9	32.2	-64.3	0.0
2026-01-23 16:31:51.117235	36.5	32.2	-64.4	0.0
2026-01-23 16:31:52.244539	36.1	32.1	-65.7	0.0
2026-01-23 16:31:53.371133	35.7	32.0	-64.5	0.0
2026-01-23 16:31:54.497931	35.3	31.9	-61.0	0.0
2026-01-23 16:31:55.624294	34.9	31.8	-64.9	0.0
2026-01-23 16:31:56.752446	34.6	31.7	-63.6	0.0
2026-01-23 16:31:57.879388	34.2	31.6	-62.9	0.0
2026-01-23 16:31:59.004124	33.8	31.5	-61.0	0.0
2026-01-23 16:32:00.130852	33.4	31.4	-63.8	0.0
2026-01-23 16:32:01.258921	33.1	31.3	-63.5	0.0
2026-01-23 16:32:02.385212	32.7	31.2	-63.8	0.0
2026-01-23 16:32:03.511537	32.3	31.1	-64.9	0.0
2026-01-23 16:32:04.638087	32.0	31.0	-64.2	0.0
2026-01-23 16:32:05.765211	31.6	30.9	-62.4	0.0
2026-01-23 16:32:06.894043	31.3	30.8	-62.7	0.0
2026-01-23 16:32:08.021491	30.9	30.7	-62.7	0.0
2026-01-23 16:32:09.149271	30.6	30.6	-60.4	0.0
2026-01-23 16:32:10.276266	30.2	30.5	-63.1	0.0
2026-01-23 16:32:11.402135	29.9	30.4	-62.9	0.0
2026-01-23 16:32:12.528893	29.5	30.3	-61.9	0.0
2026-01-23 16:32:13.658472	29.2	30.2	-61.0	0.0
2026-01-23 16:32:14.787283	28.8	30.1	-62.3	0.0
2026-01-23 16:32:15.915409	28.5	30.0	-63.9	0.0
2026-01-23 16:32:17.040273	28.2	29.9	-63.7	0.0
2026-01-23 16:32:18.167120	27.8	29.8	-64.1	0.0
2026-01-23 16:32:19.292108	27.5	29.7	-62.6	0.0
2026-01-23 16:32:20.416812	27.2	29.5	-62.5	0.0
2026-01-23 16:32:21.542805	26.8	29.4	-62.8	0.0
2026-01-23 16:32:22.670824	26.5	29.3	-60.8	0.0
2026-01-23 16:32:23.795645	26.2	29.2	-61.1	0.0
2026-01-23 16:32:24.920829	25.9	29.1	-61.4	0.0
2026-01-23 16:32:26.047611	25.6	29.0	-63.0	0.0
2026-01-23 16:32:27.174038	25.3	28.9	-63.0	0.0
2026-01-23 16:32:28.299452	24.9	28.8	-62.6	0.0
2026-01-23 16:32:29.424975	24.6	28.6	-62.2	0.0
2026-01-23 16:32:30.549306	24.3	28.5	-61.5	0.0
2026-01-23 16:32:31.677098	24.0	28.4	-62.5	0.0
2026-01-23 16:32:32.808154	23.7	28.3	-62.2	0.0
2026-01-23 16:32:33.937531	23.4	28.2	-64.4	0.0
2026-01-23 16:32:35.064131	23.1	28.1	-62.6	0.0
2026-01-23 16:32:36.189765	22.8	27.9	-61.8	0.0
2026-01-23 16:32:37.317849	22.5	27.8	-62.9	0.0
2026-01-23 16:32:38.444235	22.2	27.7	-63.0	0.0
2026-01-23 16:32:39.570806	21.9	27.6	-64.0	0.0
2026-01-23 16:32:40.699123	21.6	27.5	-62.4	0.0
2026-01-23 16:32:41.825765	21.4	27.4	-61.7	0.0
2026-01-23 16:32:42.952800	21.1	27.2	-60.0	0.0
2026-01-23 16:32:44.078713	20.8	27.1	-60.7	0.0
2026-01-23 16:32:45.208080	20.5	27.0	-62.1	0.0
2026-01-23 16:32:46.335083	20.2	26.9	-64.2	0.0
2026-01-23 16:32:47.460767	20.0	26.8	-62.8	0.0
2026-01-23 16:32:48.587977	19.7	26.6	-62.0	0.0
2026-01-23 16:32:49.715424	19.4	26.5	-63.1	0.0
2026-01-23 16:32:50.842802	19.1	26.4	-60.8	0.0
2026-01-23 16:32:51.967080	18.9	26.3	-61.0	0.0
2026-01-23 16:32:53.094270	18.6	26.2	-61.5	0.0
2026-01-23 16:32:54.221061	18.3	26.0	-62.9	0.0
2026-01-23 16:32:55.350437	18.1	25.9	-59.2	0.0
2026-01-23 16:32:56.477975	17.8	25.8	-61.0	0.0
2026-01-23 16:32:57.605565	17.6	25.7	-60.5	0.0
2026-01-23 16:32:58.732154	17.3	25.5	-61.6	0.0
2026-01-23 16:32:59.858232	17.1	25.4	-62.7	0.0
2026-01-23 16:33:00.983665	16.8	25.3	-61.9	0.0
2026-01-23 16:33:02.112049	16.6	25.2	-62.0	0.0
2026-01-23 16:33:03.240667	16.3	25.1	-61.7	0.0
2026-01-23 16:33:04.366852	16.1	24.9	-62.8	0.0
2026-01-23 16:33:05.493360	15.8	24.8	-62.6	0.0
2026-01-23 16:33:06.621882	15.6	24.7	-60.2	0.0
2026-01-23 16:33:07.748151	15.3	24.6	-61.0	0.0
2026-01-23 16:33:08.875506	15.1	24.5	-60.2	0.0
2026-01-23 16:33:10.002825	14.9	24.3	-60.7	0.0
2026-01-23 16:33:11.129327	14.6	24.2	-60.6	0.0
2026-01-23 16:33:12.258685	14.4	24.1	-60.9	0.0
2026-01-23 16:33:13.386300	14.2	24.0	-59.5	0.0
2026-01-23 16:33:14.514429	13.9	23.8	-60.8	0.0
2026-01-23 16:33:15.640011	13.7	23.7	-61.8	0.0
2026-01-23 16:33:16.767533	13.5	23.6	-59.0	0.0
2026-01-23 16:33:17.894888	13.3	23.5	-62.6	0.0
2026-01-23 16:33:19.023227	13.0	23.4	-61.1	0.0
2026-01-23 16:33:20.148722	12.8	23.2	-61.6	0.0
2026-01-23 16:33:21.275361	12.6	23.1	-60.2	0.0
2026-01-23 16:33:22.403416	12.4	23.0	-63.3	0.0
2026-01-23 16:33:23.531064	12.2	22.9	-58.7	0.0
2026-01-23 16:33:24.658534	12.0	22.8	-60.3	0.0
2026-01-23 16:33:25.785888	11.8	22.6	-60.4	0.0
2026-01-23 16:33:26.912278	11.5	22.5	-62.3	0.0
2026-01-23 16:33:28.040090	11.3	22.4	-63.4	0.0
2026-01-23 16:33:29.166835	11.1	22.3	-62.1	0.0
2026-01-23 16:33:30.294425	10.9	22.2	-63.9	0.0
2026-01-23 16:33:31.421116	10.7	22.0	-63.5	0.0
2026-01-23 16:33:32.548732	10.5	21.9	-61.8	0.0
2026-01-23 16:33:33.674629	10.3	21.8	-61.8	0.0
2026-01-23 16:33:34.803370	10.1	21.7	-64.2	0.0
2026-01-23 16:33:35.930605	9.9	21.6	-62.8	0.0
2026-01-23 16:33:37.057236	9.7	21.4	-62.4	0.0
2026-01-23 16:33:38.183942	9.5	21.3	-63.2	0.0
2026-01-23 16:33:39.310940	9.3	21.2	-63.0	0.0
2026-01-23 16:33:40.437295	9.2	21.1	-62.4	0.0
2026-01-23 16:33:41.562778	9.0	21.0	-59.9	0.0
2026-01-23 16:33:42.689177	8.8	20.9	-61.7	0.0
2026-01-23 16:33:43.815259	8.6	20.7	-61.0	0.0
2026-01-23 16:33:44.945204	8.4	20.6	-62.8	0.0
2026-01-23 16:33:46.070552	8.2	20.5	-64.0	0.0
2026-01-23 16:33:47.197826	8.0	20.4	-63.1	0.0
2026-01-23 16:33:48.326829	7.9	20.3	-63.0	0.0
2026-01-23 16:33:49.452640	7.7	20.2	-63.0	0.0
2026-01-23 16:33:50.579321	7.5	20.0	-63.6	0.0
2026-01-23 16:33:51.706764	7.3	19.9	-63.0	0.0
2026-01-23 16:33:52.834027	7.1	19.8	-63.0	0.0
2026-01-23 16:33:53.959887	7.0	19.7	-62.8	0.0
2026-01-23 16:33:55.085567	6.8	19.6	-62.5	0.0
2026-01-23 16:33:56.212079	6.6	19.5	-63.7	0.0
2026-01-23 16:33:57.339390	6.5	19.4	-62.2	0.0
2026-01-23 16:33:58.465802	6.3	19.2	-61.9	0.0
2026-01-23 16:33:59.593435	6.1	19.1	-63.2	0.0
2026-01-23 16:34:00.719045	6.0	19.0	-59.2	0.0
2026-01-23 16:34:01.846108	5.8	18.9	-63.0	0.0
2026-01-23 16:34:02.972438	5.6	18.8	-62.7	0.0
2026-01-23 16:34:04.100928	5.5	18.7	-62.0	0.0
2026-01-23 16:34:05.228373	5.3	18.6	-62.1	0.0
2026-01-23 16:34:06.354737	5.1	18.4	-63.5	0.0
2026-01-23 16:34:07.482067	5.0	18.3	-63.0	0.0
2026-01-23 16:34:08.608510	4.8	18.2	-60.4	0.0
2026-01-23 16:34:09.734504	4.7	18.1	-64.1	0.0
2026-01-23 16:34:10.860751	4.5	18.0	-63.4	0.0
2026-01-23 16:34:11.988041	4.4	17.9	-64.0	0.0
2026-01-23 16:34:13.113969	4.2	17.8	-64.2	0.0
2026-01-23 16:34:14.240742	4.1	17.7	-62.1	0.0
2026-01-23 16:34:15.366466	3.9	17.6	-65.4	0.0
2026-01-23 16:34:16.491287	3.8	17.5	-64.4	0.0
2026-01-23 16:34:17.617787	3.6	17.3	-64.7	0.0
2026-01-23 16:34:18.743698	3.5	17.2	-64.1	0.0
2026-01-23 16:34:19.868577	3.3	17.1	-63.8	0.0
2026-01-23 16:34:20.994915	3.2	17.0	-67.2	0.0
2026-01-23 16:34:22.123044	3.0	16.9	-65.7	0.0
2026-01-23 16:34:23.247607	2.9	16.8	-64.4	0.0
2026-01-23 16:34:24.374596	2.7	16.7	-64.7	0.0
2026-01-23 16:34:25.503296	2.6	16.6	-63.8	0.0
2026-01-23 16:34:26.630987	2.5	16.5	-61.3	0.0
2026-01-23 16:34:27.758414	2.3	16.4	-64.1	0.0
2026-01-23 16:34:28.884891	2.2	16.3	-63.7	0.0
2026-01-23 16:34:30.013297	2.1	16.2	-62.1	0.0
2026-01-23 16:34:31.140849	1.9	16.1	-65.9	0.0
2026-01-23 16:34:32.267932	1.8	16.0	-64.0	0.0
2026-01-23 16:34:33.395377	1.6	15.8	-65.4	0.0
2026-01-23 16:34:34.521034	1.5	15.7	-64.8	0.0
2026-01-23 16:34:35.646393	1.4	15.6	-64.2	0.0
2026-01-23 16:34:36.774014	1.3	15.5	-63.7	0.0
2026-01-23 16:34:37.902078	1.1	15.4	-65.1	0.0
2026-01-23 16:34:39.029701	1.0	15.3	-62.2	0.0
2026-01-23 16:34:40.155929	0.9	15.2	-62.6	0.0
2026-01-23 16:34:41.283213	0.7	15.1	-63.4	0.0
2026-01-23 16:34:42.411958	0.6	15.0	-64.7	0.0
2026-01-23 16:34:43.539233	0.5	14.9	-63.4	0.0
2026-01-23 16:34:44.666969	0.4	14.8	-63.0	0.0
2026-01-23 16:34:45.793003	0.2	14.7	-64.1	0.0
2026-01-23 16:34:46.919004	0.1	14.6	-64.5	0.0
2026-01-23 16:34:48.045645	360.0	14.5	-66.6	0.0
2026-01-23 16:34:49.170553	359.9	14.4	-65.5	0.0
2026-01-23 16:34:50.298458	359.8	14.3	-65.3	0.0
2026-01-23 16:34:51.426391	359.6	14.2	-67.0	0.0
2026-01-23 16:34:52.556049	359.5	14.1	-65.3	0.0
2026-01-23 16:34:53.681020	359.4	14.0	-66.2	0.0
2026-01-23 16:34:54.807942	359.3	13.9	-65.7	0.0
2026-01-23 16:34:55.936894	359.2	13.8	-65.3	0.0
2026-01-23 16:34:57.067236	359.0	13.7	-65.2	0.0
2026-01-23 16:34:58.194731	358.9	13.6	-65.3	0.0
2026-01-23 16:34:59.321742	358.8	13.5	-65.2	0.0
2026-01-23 16:35:00.447296	358.7	13.4	-64.1	0.0
2026-01-23 16:35:01.574483	358.6	13.3	-64.2	0.0
2026-01-23 16:35:02.699110	358.5	13.2	-64.2	0.0
2026-01-23 16:35:03.827320	358.4	13.1	-65.0	0.0
2026-01-23 16:35:04.954603	358.3	13.0	-66.9	0.0
2026-01-23 16:35:06.080117	358.2	12.9	-65.9	0.0
2026-01-23 16:35:07.207216	358.0	12.8	-65.8	0.0
2026-01-23 16:35:08.332668	357.9	12.7	-65.3	0.0
2026-01-23 16:35:09.459650	357.8	12.6	-65.9	0.0
2026-01-23 16:35:10.587250	357.7	12.5	-65.8	0.0
2026-01-23 16:35:11.715068	357.6	12.4	-65.7	0.0
2026-01-23 16:35:12.842143	357.5	12.4	-65.7	0.0
2026-01-23 16:35:13.969051	357.4	12.3	-65.2	0.0
2026-01-23 16:35:15.094810	357.3	12.2	-66.9	0.0
2026-01-23 16:35:16.221287	357.2	12.1	-63.6	0.0
2026-01-23 16:35:17.347926	357.1	12.0	-64.0	0.0
2026-01-23 16:35:18.474001	357.0	11.9	-65.9	0.0
2026-01-23 16:35:19.601383	356.9	11.8	-63.9	0.0
2026-01-23 16:35:20.725938	356.8	11.7	-62.6	0.0
2026-01-23 16:35:21.852300	356.7	11.6	-64.4	0.0
2026-01-23 16:35:22.978702	356.6	11.5	-61.8	0.0
2026-01-23 16:35:24.105025	356.5	11.4	-63.1	0.0
2026-01-23 16:35:25.231383	356.4	11.3	-63.4	0.0
2026-01-23 16:35:26.358757	356.3	11.2	-62.9	0.0
2026-01-23 16:35:27.486076	356.2	11.1	-61.9	0.0
2026-01-23 16:35:28.612250	356.1	11.1	-63.5	0.0
2026-01-23 16:35:29.738385	356.0	11.0	-63.8	0.0
2026-01-23 16:35:30.863337	355.9	10.9	-63.1	0.0
2026-01-23 16:35:31.990949	355.8	10.8	-62.6	0.0
2026-01-23 16:35:33.117478	355.7	10.7	-61.2	0.0
2026-01-23 16:35:34.245199	355.7	10.6	-62.1	0.0
2026-01-23 16:35:35.370134	355.6	10.5	-63.3	0.0
2026-01-23 16:35:36.496988	355.5	10.4	-64.0	0.0
2026-01-23 16:35:37.624139	355.4	10.3	-67.5	0.0
2026-01-23 16:35:38.751442	355.3	10.2	-70.7	0.0
2026-01-23 16:35:39.880640	355.2	10.2	-72.8	0.0
2026-01-23 16:35:41.008330	355.1	10.1	-74.1	0.0
#Closed at: 2026-01-23 16:26:01.471407