passes_logs/2026/01/23/planumMaritime01/planumMaritime01__20260123_101503_METEOR-M2_4_rec.log

#Pass ID: 20260123_101503_METEOR-M2 4
#Satellite: METEOR-M2 4
#Configuration: METEOR-M2 4
#Start time: 2026-01-23 10:15:08.403980

#LorettStation: 1.0.0 05.05.2024
#Station: planumMaritime01
#Location: 37.49445 lon 55.92918 lat
#TLE: 1 59051U 24039A   26022.29319476  .00000093  00000+0  61251-4 0  9991
#TLE: 2 59051  98.6827 343.5783 0006168 226.6585 133.4080 14.22408788 98527

#Time	Az	El	Level	SNR
2026-01-23 10:15:10.575977	122.1	10.2	-78.0	0.0
2026-01-23 10:15:11.707322	122.0	10.3	-80.8	0.0
2026-01-23 10:15:12.840415	121.9	10.4	-81.4	0.0
2026-01-23 10:15:13.976367	121.8	10.4	-79.7	0.0
2026-01-23 10:15:15.108976	121.8	10.5	-78.8	2.5
2026-01-23 10:15:16.243556	121.7	10.6	-78.9	4.9
2026-01-23 10:15:17.378754	121.6	10.7	-78.2	4.0
2026-01-23 10:15:18.513897	121.5	10.8	-78.3	5.1
2026-01-23 10:15:19.649474	121.4	10.9	-77.3	4.7
2026-01-23 10:15:20.784084	121.3	11.0	-77.3	3.7
2026-01-23 10:15:21.917645	121.2	11.1	-77.6	5.3
2026-01-23 10:15:23.053561	121.1	11.2	-76.9	5.6
2026-01-23 10:15:24.186076	121.0	11.3	-77.1	5.6
2026-01-23 10:15:25.319588	120.9	11.4	-77.0	4.3
2026-01-23 10:15:26.453965	120.8	11.5	-76.0	2.8
2026-01-23 10:15:27.589856	120.7	11.6	-76.1	4.8
2026-01-23 10:15:28.723350	120.6	11.6	-76.6	4.6
2026-01-23 10:15:29.859391	120.5	11.7	-76.0	3.5
2026-01-23 10:15:30.996134	120.4	11.8	-76.4	4.1
2026-01-23 10:15:32.131029	120.3	11.9	-76.1	5.1
2026-01-23 10:15:33.266107	120.2	12.0	-76.6	4.6
2026-01-23 10:15:34.398312	120.1	12.1	-76.8	4.4
2026-01-23 10:15:35.534879	120.0	12.2	-77.3	6.2
2026-01-23 10:15:36.670074	119.9	12.3	-77.2	7.0
2026-01-23 10:15:37.803540	119.8	12.4	-76.6	5.9
2026-01-23 10:15:38.938496	119.7	12.5	-77.0	6.8
2026-01-23 10:15:40.072493	119.6	12.6	-76.6	5.2
2026-01-23 10:15:41.206514	119.5	12.7	-76.3	3.3
2026-01-23 10:15:42.339157	119.4	12.8	-76.1	4.3
2026-01-23 10:15:43.475665	119.2	12.9	-76.9	5.2
2026-01-23 10:15:44.605363	119.1	13.0	-77.5	6.3
2026-01-23 10:15:45.736893	119.0	13.1	-77.3	6.6
2026-01-23 10:15:46.868318	118.9	13.2	-77.4	6.9
2026-01-23 10:15:47.998438	118.8	13.3	-76.2	5.3
2026-01-23 10:15:49.129235	118.7	13.4	-76.9	6.5
2026-01-23 10:15:50.260235	118.6	13.5	-76.8	6.1
2026-01-23 10:15:51.391611	118.5	13.6	-76.2	5.9
2026-01-23 10:15:52.524934	118.4	13.7	-76.2	5.2
2026-01-23 10:15:53.655905	118.2	13.8	-75.7	3.3
2026-01-23 10:15:54.786762	118.1	13.9	-75.0	2.8
2026-01-23 10:15:55.918616	118.0	14.0	-76.2	4.0
2026-01-23 10:15:57.049815	117.9	14.1	-75.2	3.5
2026-01-23 10:15:58.181878	117.8	14.2	-76.3	4.3
2026-01-23 10:15:59.315935	117.7	14.3	-76.1	4.0
2026-01-23 10:16:00.452183	117.5	14.4	-76.2	5.2
2026-01-23 10:16:01.588205	117.4	14.5	-75.8	5.0
2026-01-23 10:16:02.717967	117.3	14.6	-75.4	6.9
2026-01-23 10:16:03.849645	117.2	14.7	-75.1	3.2
2026-01-23 10:16:04.981513	117.0	14.8	-75.3	5.1
2026-01-23 10:16:06.114459	116.9	14.9	-76.0	6.0
2026-01-23 10:16:07.248471	116.8	15.0	-75.5	4.1
2026-01-23 10:16:08.382802	116.7	15.1	-76.1	6.3
2026-01-23 10:16:09.517801	116.5	15.2	-76.4	7.4
2026-01-23 10:16:10.654804	116.4	15.3	-75.5	5.7
2026-01-23 10:16:11.790312	116.3	15.4	-76.0	6.1
2026-01-23 10:16:12.926046	116.2	15.5	-75.9	3.3
2026-01-23 10:16:14.060344	116.0	15.6	-76.0	3.3
2026-01-23 10:16:15.194797	115.9	15.8	-75.4	5.2
2026-01-23 10:16:16.329760	115.8	15.9	-75.7	4.0
2026-01-23 10:16:17.461239	115.6	16.0	-75.9	7.0
2026-01-23 10:16:18.598466	115.5	16.1	-75.5	5.2
2026-01-23 10:16:19.733146	115.4	16.2	-75.9	6.1
2026-01-23 10:16:20.868221	115.2	16.3	-75.8	7.3
2026-01-23 10:16:22.001246	115.1	16.4	-76.7	7.2
2026-01-23 10:16:23.134996	114.9	16.5	-75.8	5.5
2026-01-23 10:16:24.269198	114.8	16.6	-75.7	6.5
2026-01-23 10:16:25.407318	114.7	16.7	-76.1	4.6
2026-01-23 10:16:26.542294	114.5	16.8	-75.5	6.5
2026-01-23 10:16:27.676366	114.4	16.9	-75.3	3.9
2026-01-23 10:16:28.811408	114.2	17.1	-74.9	2.8
2026-01-23 10:16:29.945389	114.1	17.2	-75.6	4.8
2026-01-23 10:16:31.076469	113.9	17.3	-75.3	4.0
2026-01-23 10:16:32.209847	113.8	17.4	-75.9	4.6
2026-01-23 10:16:33.344366	113.6	17.5	-75.5	3.7
2026-01-23 10:16:34.482591	113.5	17.6	-75.8	3.4
2026-01-23 10:16:35.619650	113.3	17.7	-74.6	1.7
2026-01-23 10:16:36.754951	113.2	17.8	-75.4	1.9
2026-01-23 10:16:37.892369	113.0	17.9	-76.2	3.1
2026-01-23 10:16:39.028857	112.9	18.1	-76.4	4.6
2026-01-23 10:16:40.164835	112.7	18.2	-76.9	5.6
2026-01-23 10:16:41.299266	112.6	18.3	-76.9	7.0
2026-01-23 10:16:42.430739	112.4	18.4	-76.1	4.9
2026-01-23 10:16:43.562637	112.3	18.5	-76.0	4.8
2026-01-23 10:16:44.695178	112.1	18.6	-77.1	6.1
2026-01-23 10:16:45.832695	111.9	18.7	-76.1	5.5
2026-01-23 10:16:46.968768	111.8	18.9	-75.8	4.6
2026-01-23 10:16:48.101768	111.6	19.0	-76.1	4.4
2026-01-23 10:16:49.234034	111.4	19.1	-76.4	3.9
2026-01-23 10:16:50.368503	111.3	19.2	-76.5	6.5
2026-01-23 10:16:51.501566	111.1	19.3	-76.5	6.8
2026-01-23 10:16:52.634777	110.9	19.4	-77.0	6.9
2026-01-23 10:16:53.768466	110.8	19.6	-76.7	4.3
2026-01-23 10:16:54.899847	110.6	19.7	-76.1	5.6
2026-01-23 10:16:56.035060	110.4	19.8	-76.3	6.0
2026-01-23 10:16:57.164563	110.3	19.9	-75.7	8.1
2026-01-23 10:16:58.291568	110.1	20.0	-75.9	4.9
2026-01-23 10:16:59.418583	109.9	20.1	-76.1	4.1
2026-01-23 10:17:00.547459	109.7	20.3	-76.9	7.4
2026-01-23 10:17:01.672806	109.6	20.4	-76.4	6.1
2026-01-23 10:17:02.800012	109.4	20.5	-75.8	5.4
2026-01-23 10:17:03.927664	109.2	20.6	-76.8	5.7
2026-01-23 10:17:05.055831	109.0	20.7	-75.8	6.8
2026-01-23 10:17:06.185465	108.8	20.8	-75.9	5.7
2026-01-23 10:17:07.314434	108.6	21.0	-76.3	6.2
2026-01-23 10:17:08.442488	108.4	21.1	-76.9	7.8
2026-01-23 10:17:09.569721	108.3	21.2	-76.4	8.2
2026-01-23 10:17:10.697984	108.1	21.3	-76.1	6.4
2026-01-23 10:17:11.828230	107.9	21.4	-76.3	7.4
2026-01-23 10:17:12.960691	107.7	21.6	-75.2	6.4
2026-01-23 10:17:14.091902	107.5	21.7	-75.8	5.3
2026-01-23 10:17:15.218481	107.3	21.8	-75.6	6.4
2026-01-23 10:17:16.347838	107.1	21.9	-76.0	6.0
2026-01-23 10:17:17.475619	106.9	22.1	-75.7	7.2
2026-01-23 10:17:18.603754	106.7	22.2	-76.4	7.6
2026-01-23 10:17:19.733476	106.5	22.3	-75.9	7.6
2026-01-23 10:17:20.864397	106.3	22.4	-75.8	5.3
2026-01-23 10:17:21.998732	106.1	22.5	-74.9	3.7
2026-01-23 10:17:23.132635	105.9	22.7	-75.9	5.1
2026-01-23 10:17:24.266549	105.7	22.8	-76.0	7.1
2026-01-23 10:17:25.402431	105.5	22.9	-75.1	3.9
2026-01-23 10:17:26.536459	105.2	23.0	-75.8	4.6
2026-01-23 10:17:27.668933	105.0	23.2	-75.4	5.5
2026-01-23 10:17:28.802084	104.8	23.3	-76.2	6.9
2026-01-23 10:17:29.935930	104.6	23.4	-76.5	5.3
2026-01-23 10:17:31.068987	104.4	23.5	-75.8	5.8
2026-01-23 10:17:32.204336	104.1	23.7	-76.3	6.8
2026-01-23 10:17:33.337742	103.9	23.8	-76.2	7.0
2026-01-23 10:17:34.470680	103.7	23.9	-75.2	5.4
2026-01-23 10:17:35.605650	103.5	24.0	-74.9	4.1
2026-01-23 10:17:36.736776	103.2	24.1	-75.7	6.2
2026-01-23 10:17:37.869352	103.0	24.3	-75.5	6.3
2026-01-23 10:17:39.005786	102.8	24.4	-75.7	7.1
2026-01-23 10:17:40.138607	102.5	24.5	-75.6	7.0
2026-01-23 10:17:41.274567	102.3	24.6	-75.6	6.5
2026-01-23 10:17:42.411678	102.1	24.8	-75.6	6.1
2026-01-23 10:17:43.544835	101.8	24.9	-75.3	5.6
2026-01-23 10:17:44.679026	101.6	25.0	-74.9	3.9
2026-01-23 10:17:45.811802	101.3	25.1	-75.2	3.8
2026-01-23 10:17:46.946031	101.1	25.3	-75.2	4.2
2026-01-23 10:17:48.079524	100.8	25.4	-75.4	5.9
2026-01-23 10:17:49.217808	100.6	25.5	-76.2	7.2
2026-01-23 10:17:50.351819	100.3	25.6	-75.2	6.3
2026-01-23 10:17:51.486264	100.1	25.8	-75.2	3.1
2026-01-23 10:17:52.617925	99.8	25.9	-75.5	7.9
2026-01-23 10:17:53.754267	99.6	26.0	-75.6	7.0
2026-01-23 10:17:54.888540	99.3	26.1	-75.6	6.7
2026-01-23 10:17:56.024472	99.0	26.3	-75.6	6.3
2026-01-23 10:17:57.156054	98.8	26.4	-75.1	5.6
2026-01-23 10:17:58.289917	98.5	26.5	-75.0	4.7
2026-01-23 10:17:59.417746	98.2	26.6	-75.3	6.8
2026-01-23 10:18:00.547074	98.0	26.8	-76.0	8.5
2026-01-23 10:18:01.675121	97.7	26.9	-75.4	7.3
2026-01-23 10:18:02.804091	97.4	27.0	-75.1	4.9
2026-01-23 10:18:03.937664	97.1	27.1	-76.1	8.9
2026-01-23 10:18:05.067434	96.9	27.3	-75.5	8.6
2026-01-23 10:18:06.195625	96.6	27.4	-75.6	7.8
2026-01-23 10:18:07.325430	96.3	27.5	-75.3	6.0
2026-01-23 10:18:08.454498	96.0	27.6	-75.9	7.8
2026-01-23 10:18:09.585842	95.7	27.8	-74.8	6.0
2026-01-23 10:18:10.713547	95.4	27.9	-76.1	8.2
2026-01-23 10:18:11.840036	95.1	28.0	-75.8	5.9
2026-01-23 10:18:12.971777	94.9	28.1	-75.5	6.3
2026-01-23 10:18:14.097965	94.6	28.2	-75.8	6.4
2026-01-23 10:18:15.224566	94.3	28.4	-75.8	6.6
2026-01-23 10:18:16.353386	94.0	28.5	-76.2	7.2
2026-01-23 10:18:17.483896	93.7	28.6	-75.5	5.1
2026-01-23 10:18:18.613309	93.4	28.7	-76.0	6.7
2026-01-23 10:18:19.739879	93.0	28.8	-75.5	6.3
2026-01-23 10:18:20.871255	92.7	29.0	-75.6	4.1
2026-01-23 10:18:22.000891	92.4	29.1	-75.5	6.0
2026-01-23 10:18:23.128657	92.1	29.2	-75.4	7.2
2026-01-23 10:18:24.261978	91.8	29.3	-74.8	5.2
2026-01-23 10:18:25.398415	91.5	29.4	-74.7	5.9
2026-01-23 10:18:26.535729	91.1	29.5	-75.3	6.0
2026-01-23 10:18:27.670755	90.8	29.7	-75.1	6.2
2026-01-23 10:18:28.807407	90.5	29.8	-75.4	6.5
2026-01-23 10:18:29.945234	90.2	29.9	-75.1	6.1
2026-01-23 10:18:31.082593	89.8	30.0	-75.4	6.1
2026-01-23 10:18:32.219611	89.5	30.1	-74.9	5.6
2026-01-23 10:18:33.354939	89.2	30.2	-74.7	4.8
2026-01-23 10:18:34.490337	88.8	30.3	-75.5	6.7
2026-01-23 10:18:35.627446	88.5	30.5	-75.3	6.1
2026-01-23 10:18:36.764666	88.1	30.6	-75.4	6.3
2026-01-23 10:18:37.902780	87.8	30.7	-75.1	6.2
2026-01-23 10:18:39.037971	87.4	30.8	-74.7	5.2
2026-01-23 10:18:40.172290	87.1	30.9	-75.7	8.2
2026-01-23 10:18:41.310132	86.7	31.0	-75.7	8.4
2026-01-23 10:18:42.448253	86.4	31.1	-75.7	8.0
2026-01-23 10:18:43.584834	86.0	31.2	-75.6	6.8
2026-01-23 10:18:44.721922	85.6	31.3	-74.0	4.2
2026-01-23 10:18:45.859289	85.3	31.4	-74.8	3.8
2026-01-23 10:18:46.994294	84.9	31.5	-74.5	5.1
2026-01-23 10:18:48.133711	84.5	31.6	-74.7	7.9
2026-01-23 10:18:49.271431	84.2	31.7	-74.9	6.0
2026-01-23 10:18:50.406630	83.8	31.8	-75.6	6.4
2026-01-23 10:18:51.543702	83.4	31.9	-73.7	2.3
2026-01-23 10:18:52.679860	83.0	32.0	-74.4	3.7
2026-01-23 10:18:53.818872	82.7	32.1	-74.4	5.3
2026-01-23 10:18:54.956241	82.3	32.2	-75.9	6.4
2026-01-23 10:18:56.092056	81.9	32.3	-72.8	0.0
2026-01-23 10:18:57.227866	81.5	32.4	-74.8	0.0
2026-01-23 10:18:58.364962	81.1	32.5	-74.5	3.2
2026-01-23 10:18:59.502667	80.7	32.6	-73.2	0.0
2026-01-23 10:19:00.639295	80.3	32.7	-71.5	0.0
2026-01-23 10:19:01.776950	79.9	32.8	-71.0	0.0
2026-01-23 10:19:02.913524	79.5	32.9	-71.4	0.0
2026-01-23 10:19:04.049364	79.1	33.0	-71.2	0.0
2026-01-23 10:19:05.188132	78.7	33.0	-72.7	0.0
2026-01-23 10:19:06.324774	78.3	33.1	-74.2	1.2
2026-01-23 10:19:07.461906	77.9	33.2	-71.5	0.0
2026-01-23 10:19:08.600964	77.5	33.3	-72.0	1.4
2026-01-23 10:19:09.737884	77.1	33.4	-75.4	2.1
2026-01-23 10:19:10.873157	76.7	33.5	-74.2	3.7
2026-01-23 10:19:12.009421	76.3	33.5	-74.3	3.7
2026-01-23 10:19:13.147545	75.9	33.6	-73.1	2.5
2026-01-23 10:19:14.284261	75.4	33.7	-74.4	2.3
2026-01-23 10:19:15.414732	75.0	33.7	-74.1	0.0
2026-01-23 10:19:16.542474	74.6	33.8	-75.0	1.9
2026-01-23 10:19:17.672714	74.2	33.9	-74.7	2.8
2026-01-23 10:19:18.801869	73.8	34.0	-73.1	1.0
2026-01-23 10:19:19.930125	73.3	34.0	-73.7	0.0
2026-01-23 10:19:21.059734	72.9	34.1	-73.6	1.9
2026-01-23 10:19:22.190578	72.5	34.1	-74.8	4.1
2026-01-23 10:19:23.318345	72.0	34.2	-74.6	2.9
2026-01-23 10:19:24.447118	71.6	34.3	-73.4	1.2
2026-01-23 10:19:25.577270	71.2	34.3	-73.7	2.8
2026-01-23 10:19:26.704419	70.7	34.4	-74.2	0.0
2026-01-23 10:19:27.835481	70.3	34.4	-74.9	3.8
2026-01-23 10:19:28.964414	69.9	34.5	-75.2	3.3
2026-01-23 10:19:30.091856	69.4	34.5	-75.3	4.1
2026-01-23 10:19:31.220062	69.0	34.6	-74.5	1.9
2026-01-23 10:19:32.347908	68.6	34.6	-76.3	3.4
2026-01-23 10:19:33.474245	68.1	34.7	-74.3	4.4
2026-01-23 10:19:34.603541	67.7	34.7	-75.2	4.3
2026-01-23 10:19:35.731303	67.2	34.7	-74.7	0.0
2026-01-23 10:19:36.861690	66.8	34.8	-75.2	0.1
2026-01-23 10:19:37.991779	66.3	34.8	-74.5	1.7
2026-01-23 10:19:39.129084	65.9	34.9	-74.4	3.0
2026-01-23 10:19:40.264798	65.4	34.9	-75.1	2.7
2026-01-23 10:19:41.398567	65.0	34.9	-75.2	4.2
2026-01-23 10:19:42.536648	64.5	34.9	-74.9	5.4
2026-01-23 10:19:43.675848	64.1	35.0	-73.9	0.8
2026-01-23 10:19:44.812226	63.6	35.0	-73.8	0.0
2026-01-23 10:19:45.948118	63.2	35.0	-73.5	0.3
2026-01-23 10:19:47.086136	62.7	35.0	-73.6	0.0
2026-01-23 10:19:48.220346	62.2	35.1	-73.7	2.4
2026-01-23 10:19:49.355383	61.8	35.1	-74.0	1.5
2026-01-23 10:19:50.492411	61.3	35.1	-69.8	0.0
2026-01-23 10:19:51.630459	60.9	35.1	-73.0	0.0
2026-01-23 10:19:52.767994	60.4	35.1	-74.5	5.0
2026-01-23 10:19:53.905809	60.0	35.1	-74.0	5.0
2026-01-23 10:19:55.040428	59.5	35.1	-73.2	2.2
2026-01-23 10:19:56.175988	59.0	35.1	-74.2	0.6
2026-01-23 10:19:57.314730	58.6	35.1	-74.1	3.2
2026-01-23 10:19:58.452535	58.1	35.1	-74.6	2.1
2026-01-23 10:19:59.589389	57.7	35.1	-71.1	0.0
2026-01-23 10:20:00.726446	57.2	35.1	-73.8	0.1
2026-01-23 10:20:01.865898	56.7	35.1	-71.1	0.0
2026-01-23 10:20:03.003044	56.3	35.1	-71.2	0.0
2026-01-23 10:20:04.140794	55.8	35.1	-72.9	0.0
2026-01-23 10:20:05.272354	55.4	35.1	-73.4	0.0
2026-01-23 10:20:06.410989	54.9	35.1	-74.3	1.8
2026-01-23 10:20:07.549428	54.5	35.0	-74.1	2.6
2026-01-23 10:20:08.687420	54.0	35.0	-73.2	0.0
2026-01-23 10:20:09.824212	53.5	35.0	-74.7	2.9
2026-01-23 10:20:10.959377	53.1	35.0	-72.8	0.0
2026-01-23 10:20:12.093256	52.6	35.0	-74.8	2.8
2026-01-23 10:20:13.223293	52.2	34.9	-72.1	0.0
2026-01-23 10:20:14.355433	51.7	34.9	-72.8	0.0
2026-01-23 10:20:15.489017	51.3	34.9	-74.5	0.0
2026-01-23 10:20:16.621493	50.8	34.8	-74.0	0.6
2026-01-23 10:20:17.752898	50.4	34.8	-74.0	2.4
2026-01-23 10:20:18.884193	49.9	34.8	-70.8	0.0
2026-01-23 10:20:20.019464	49.5	34.7	-74.0	0.0
2026-01-23 10:20:21.155768	49.1	34.7	-74.1	1.6
2026-01-23 10:20:22.290524	48.6	34.6	-74.2	3.9
2026-01-23 10:20:23.423876	48.2	34.6	-73.6	0.0
2026-01-23 10:20:24.556296	47.7	34.6	-74.0	1.9
2026-01-23 10:20:25.689399	47.3	34.5	-74.0	1.8
2026-01-23 10:20:26.821018	46.8	34.5	-73.1	0.3
2026-01-23 10:20:27.954184	46.4	34.4	-71.9	0.0
2026-01-23 10:20:29.085536	46.0	34.3	-73.7	0.0
2026-01-23 10:20:30.219284	45.5	34.3	-73.3	0.0
2026-01-23 10:20:31.348761	45.1	34.2	-71.6	0.0
2026-01-23 10:20:32.484113	44.7	34.2	-72.7	0.0
2026-01-23 10:20:33.622394	44.2	34.1	-73.5	0.0
2026-01-23 10:20:34.761167	43.8	34.1	-72.5	0.0
2026-01-23 10:20:35.897212	43.4	34.0	-73.5	1.6
2026-01-23 10:20:37.034090	43.0	33.9	-73.4	0.0
2026-01-23 10:20:38.171937	42.5	33.9	-74.3	0.0
2026-01-23 10:20:39.308067	42.1	33.8	-69.7	0.0
2026-01-23 10:20:40.445374	41.7	33.7	-74.0	1.9
2026-01-23 10:20:41.581228	41.3	33.6	-73.1	0.0
2026-01-23 10:20:42.717779	40.9	33.6	-73.4	0.3
2026-01-23 10:20:43.854531	40.4	33.5	-73.4	0.0
2026-01-23 10:20:44.990334	40.0	33.4	-74.3	1.0
2026-01-23 10:20:46.126795	39.6	33.3	-72.4	0.0
2026-01-23 10:20:47.262068	39.2	33.3	-72.8	0.0
2026-01-23 10:20:48.399925	38.8	33.2	-72.4	0.0
2026-01-23 10:20:49.536631	38.4	33.1	-70.4	0.0
2026-01-23 10:20:50.675649	38.0	33.0	-73.0	0.0
2026-01-23 10:20:51.811922	37.6	32.9	-69.4	0.0
2026-01-23 10:20:52.947265	37.2	32.8	-72.9	0.0
2026-01-23 10:20:54.083472	36.8	32.7	-72.9	0.0
2026-01-23 10:20:55.218225	36.4	32.7	-73.3	0.0
2026-01-23 10:20:56.359459	36.0	32.6	-73.2	0.0
2026-01-23 10:20:57.496781	35.6	32.5	-71.1	0.0
2026-01-23 10:20:58.635723	35.2	32.4	-68.7	0.0
2026-01-23 10:20:59.771634	34.8	32.3	-68.5	0.0
2026-01-23 10:21:00.908346	34.5	32.2	-68.7	0.0
2026-01-23 10:21:02.045922	34.1	32.1	-67.4	0.0
2026-01-23 10:21:03.182562	33.7	32.0	-66.8	0.0
2026-01-23 10:21:04.318413	33.3	31.9	-71.4	0.0
2026-01-23 10:21:05.454958	33.0	31.8	-68.3	0.0
2026-01-23 10:21:06.591171	32.6	31.7	-70.5	0.0
2026-01-23 10:21:07.727764	32.2	31.6	-70.2	0.0
2026-01-23 10:21:08.862929	31.9	31.5	-71.3	0.0
2026-01-23 10:21:09.998682	31.5	31.4	-70.1	0.0
2026-01-23 10:21:11.135938	31.1	31.3	-72.4	0.0
2026-01-23 10:21:12.272351	30.8	31.2	-71.1	0.0
2026-01-23 10:21:13.410532	30.4	31.1	-70.4	0.0
2026-01-23 10:21:14.546072	30.1	31.0	-68.0	0.0
2026-01-23 10:21:15.681878	29.7	30.9	-72.2	0.0
2026-01-23 10:21:16.819991	29.4	30.7	-71.7	0.0
2026-01-23 10:21:17.957127	29.0	30.6	-72.4	0.0
2026-01-23 10:21:19.096538	28.7	30.5	-71.8	0.0
2026-01-23 10:21:20.232746	28.3	30.4	-71.2	0.0
2026-01-23 10:21:21.371197	28.0	30.3	-70.2	0.0
2026-01-23 10:21:22.509309	27.6	30.2	-69.9	0.0
2026-01-23 10:21:23.648022	27.3	30.1	-63.8	0.0
2026-01-23 10:21:24.777874	27.0	30.0	-70.3	0.0
2026-01-23 10:21:25.908012	26.6	29.8	-69.6	0.0
2026-01-23 10:21:27.037869	26.3	29.7	-69.0	0.0
2026-01-23 10:21:28.165138	26.0	29.6	-69.3	0.0
2026-01-23 10:21:29.293699	25.7	29.5	-69.8	0.0
2026-01-23 10:21:30.426082	25.3	29.4	-69.5	0.0
2026-01-23 10:21:31.553740	25.0	29.3	-68.2	0.0
2026-01-23 10:21:32.683928	24.7	29.1	-63.7	0.0
2026-01-23 10:21:33.813555	24.4	29.0	-68.9	0.0
2026-01-23 10:21:34.943543	24.1	28.9	-70.9	0.0
2026-01-23 10:21:36.072844	23.8	28.8	-68.6	0.0
2026-01-23 10:21:37.203197	23.5	28.7	-69.9	0.0
2026-01-23 10:21:38.333151	23.2	28.6	-69.3	0.0
2026-01-23 10:21:39.464023	22.9	28.4	-69.0	0.0
2026-01-23 10:21:40.591954	22.6	28.3	-68.1	0.0
2026-01-23 10:21:41.719414	22.3	28.2	-63.3	0.0
2026-01-23 10:21:42.846015	22.0	28.1	-69.5	0.0
2026-01-23 10:21:43.975323	21.7	28.0	-65.6	0.0
2026-01-23 10:21:45.104714	21.4	27.8	-67.8	0.0
2026-01-23 10:21:46.233823	21.1	27.7	-67.8	0.0
2026-01-23 10:21:47.370144	20.8	27.6	-68.4	0.0
2026-01-23 10:21:48.508571	20.5	27.5	-70.3	0.0
2026-01-23 10:21:49.641328	20.3	27.3	-67.6	0.0
2026-01-23 10:21:50.777723	20.0	27.2	-66.2	0.0
2026-01-23 10:21:51.914300	19.7	27.1	-67.0	0.0
2026-01-23 10:21:53.052301	19.4	27.0	-65.8	0.0
2026-01-23 10:21:54.187971	19.2	26.8	-68.5	0.0
2026-01-23 10:21:55.323812	18.9	26.7	-66.2	0.0
2026-01-23 10:21:56.459682	18.6	26.6	-64.5	0.0
2026-01-23 10:21:57.596475	18.3	26.5	-67.8	0.0
2026-01-23 10:21:58.732029	18.1	26.4	-67.2	0.0
2026-01-23 10:21:59.865054	17.8	26.2	-67.8	0.0
2026-01-23 10:22:00.999236	17.6	26.1	-62.9	0.0
2026-01-23 10:22:02.137060	17.3	26.0	-68.8	0.0
2026-01-23 10:22:03.271999	17.0	25.9	-69.0	0.0
2026-01-23 10:22:04.410174	16.8	25.7	-68.2	0.0
2026-01-23 10:22:05.547320	16.5	25.6	-68.5	0.0
2026-01-23 10:22:06.686404	16.3	25.5	-68.1	0.0
2026-01-23 10:22:07.824557	16.0	25.4	-67.7	0.0
2026-01-23 10:22:08.962208	15.8	25.2	-68.3	0.0
2026-01-23 10:22:10.099528	15.5	25.1	-65.2	0.0
2026-01-23 10:22:11.235514	15.3	25.0	-65.0	0.0
2026-01-23 10:22:12.369064	15.1	24.9	-68.9	0.0
2026-01-23 10:22:13.505073	14.8	24.7	-62.7	0.0
2026-01-23 10:22:14.640315	14.6	24.6	-67.3	0.0
2026-01-23 10:22:15.775852	14.3	24.5	-68.5	0.0
2026-01-23 10:22:16.909973	14.1	24.4	-69.9	0.0
2026-01-23 10:22:18.044622	13.9	24.2	-66.9	0.0
2026-01-23 10:22:19.182504	13.7	24.1	-66.5	0.0
2026-01-23 10:22:20.317623	13.4	24.0	-67.1	0.0
2026-01-23 10:22:21.456766	13.2	23.9	-68.2	0.0
2026-01-23 10:22:22.590456	13.0	23.7	-66.2	0.0
2026-01-23 10:22:23.724896	12.8	23.6	-65.5	0.0
2026-01-23 10:22:24.855107	12.5	23.5	-68.0	0.0
2026-01-23 10:22:25.986839	12.3	23.4	-69.4	0.0
2026-01-23 10:22:27.117210	12.1	23.2	-67.2	0.0
2026-01-23 10:22:28.247967	11.9	23.1	-61.6	0.0
2026-01-23 10:22:29.379402	11.7	23.0	-69.5	0.0
2026-01-23 10:22:30.511223	11.5	22.9	-69.2	0.0
2026-01-23 10:22:31.645375	11.3	22.8	-68.6	0.0
2026-01-23 10:22:32.777167	11.0	22.6	-68.8	0.0
2026-01-23 10:22:33.908510	10.8	22.5	-70.1	0.0
2026-01-23 10:22:35.041953	10.6	22.4	-68.8	0.0
2026-01-23 10:22:36.173569	10.4	22.3	-67.3	0.0
2026-01-23 10:22:37.305007	10.2	22.1	-70.2	0.0
2026-01-23 10:22:38.436456	10.0	22.0	-63.9	0.0
2026-01-23 10:22:39.568872	9.8	21.9	-70.0	0.0
2026-01-23 10:22:40.699413	9.6	21.8	-69.2	0.0
2026-01-23 10:22:41.829955	9.4	21.7	-65.0	0.0
2026-01-23 10:22:42.962057	9.2	21.5	-68.9	0.0
2026-01-23 10:22:44.092079	9.1	21.4	-68.9	0.0
2026-01-23 10:22:45.231451	8.9	21.3	-67.2	0.0
2026-01-23 10:22:46.371390	8.7	21.2	-66.9	0.0
2026-01-23 10:22:47.511542	8.5	21.1	-63.4	0.0
2026-01-23 10:22:48.648420	8.3	20.9	-64.2	0.0
2026-01-23 10:22:49.786019	8.1	20.8	-64.9	0.0
2026-01-23 10:22:50.924759	7.9	20.7	-70.3	0.0
2026-01-23 10:22:52.064569	7.7	20.6	-69.2	0.0
2026-01-23 10:22:53.202257	7.6	20.5	-69.2	0.0
2026-01-23 10:22:54.342146	7.4	20.3	-66.6	0.0
2026-01-23 10:22:55.481000	7.2	20.2	-69.2	0.0
2026-01-23 10:22:56.618286	7.0	20.1	-65.8	0.0
2026-01-23 10:22:57.755192	6.9	20.0	-71.9	0.0
2026-01-23 10:22:58.891959	6.7	19.9	-64.6	0.0
2026-01-23 10:23:00.027052	6.5	19.8	-71.1	0.0
2026-01-23 10:23:01.159172	6.3	19.6	-71.4	0.0
2026-01-23 10:23:02.294146	6.2	19.5	-70.0	0.0
2026-01-23 10:23:03.430906	6.0	19.4	-71.0	0.0
2026-01-23 10:23:04.568160	5.8	19.3	-68.6	0.0
2026-01-23 10:23:05.705462	5.7	19.2	-65.8	0.0
2026-01-23 10:23:06.844579	5.5	19.1	-70.1	0.0
2026-01-23 10:23:07.982109	5.3	18.9	-69.6	0.0
2026-01-23 10:23:09.118416	5.2	18.8	-69.0	0.0
2026-01-23 10:23:10.253819	5.0	18.7	-66.9	0.0
2026-01-23 10:23:11.389544	4.9	18.6	-65.0	0.0
2026-01-23 10:23:12.525413	4.7	18.5	-68.3	0.0
2026-01-23 10:23:13.662586	4.5	18.4	-68.1	0.0
2026-01-23 10:23:14.802013	4.4	18.3	-64.1	0.0
2026-01-23 10:23:15.937688	4.2	18.1	-64.5	0.0
2026-01-23 10:23:17.075025	4.1	18.0	-63.9	0.0
2026-01-23 10:23:18.212452	3.9	17.9	-68.4	0.0
2026-01-23 10:23:19.347956	3.8	17.8	-66.3	0.0
2026-01-23 10:23:20.485811	3.6	17.7	-63.7	0.0
2026-01-23 10:23:21.623706	3.5	17.6	-66.5	0.0
2026-01-23 10:23:22.762671	3.3	17.5	-66.0	0.0
2026-01-23 10:23:23.900709	3.2	17.4	-65.1	0.0
2026-01-23 10:23:25.036231	3.0	17.3	-68.4	0.0
2026-01-23 10:23:26.176079	2.9	17.1	-67.1	0.0
2026-01-23 10:23:27.313409	2.7	17.0	-67.9	0.0
2026-01-23 10:23:28.452321	2.6	16.9	-67.0	0.0
2026-01-23 10:23:29.588562	2.5	16.8	-63.7	0.0
2026-01-23 10:23:30.722465	2.3	16.7	-66.2	0.0
2026-01-23 10:23:31.858499	2.2	16.6	-66.9	0.0
2026-01-23 10:23:32.995472	2.0	16.5	-68.4	0.0
2026-01-23 10:23:34.129709	1.9	16.4	-63.9	0.0
2026-01-23 10:23:35.269031	1.8	16.3	-71.3	0.0
2026-01-23 10:23:36.405345	1.6	16.2	-71.0	0.0
2026-01-23 10:23:37.540646	1.5	16.1	-66.0	0.0
2026-01-23 10:23:38.676829	1.4	16.0	-70.8	0.0
2026-01-23 10:23:39.807990	1.2	15.8	-69.0	0.0
2026-01-23 10:23:40.935064	1.1	15.7	-70.9	0.0
2026-01-23 10:23:42.064363	1.0	15.6	-70.1	0.0
2026-01-23 10:23:43.194381	0.8	15.5	-65.5	0.0
2026-01-23 10:23:44.320461	0.7	15.4	-69.0	0.0
2026-01-23 10:23:45.450496	0.6	15.3	-70.7	0.0
2026-01-23 10:23:46.580783	0.5	15.2	-68.0	0.0
2026-01-23 10:23:47.708197	0.3	15.1	-68.5	0.0
2026-01-23 10:23:48.839094	0.2	15.0	-68.5	0.0
2026-01-23 10:23:49.969051	0.1	14.9	-70.7	0.0
2026-01-23 10:23:51.097616	360.0	14.8	-68.8	0.0
2026-01-23 10:23:52.227157	359.9	14.7	-67.5	0.0
2026-01-23 10:23:53.357063	359.7	14.6	-72.2	0.0
2026-01-23 10:23:54.487589	359.6	14.5	-70.6	0.0
2026-01-23 10:23:55.615758	359.5	14.4	-70.9	0.0
2026-01-23 10:23:56.750859	359.4	14.3	-70.7	0.0
2026-01-23 10:23:57.885414	359.3	14.2	-72.2	0.0
2026-01-23 10:23:59.022815	359.1	14.1	-71.3	0.0
2026-01-23 10:24:00.159657	359.0	14.0	-70.9	0.0
2026-01-23 10:24:01.293608	358.9	13.9	-65.7	0.0
2026-01-23 10:24:02.427431	358.8	13.8	-71.2	0.0
2026-01-23 10:24:03.566123	358.7	13.7	-71.8	0.0
2026-01-23 10:24:04.705113	358.6	13.6	-69.7	0.0
2026-01-23 10:24:05.838481	358.5	13.5	-70.5	0.0
2026-01-23 10:24:06.975793	358.3	13.4	-69.5	0.0
2026-01-23 10:24:08.111878	358.2	13.3	-70.8	0.0
2026-01-23 10:24:09.249245	358.1	13.2	-71.2	0.0
2026-01-23 10:24:10.385865	358.0	13.1	-67.1	0.0
2026-01-23 10:24:11.522765	357.9	13.0	-67.3	0.0
2026-01-23 10:24:12.656529	357.8	12.9	-72.2	0.0
2026-01-23 10:24:13.794066	357.7	12.8	-71.6	0.0
2026-01-23 10:24:14.930439	357.6	12.7	-68.9	0.0
2026-01-23 10:24:16.066432	357.5	12.6	-67.2	0.0
2026-01-23 10:24:17.203808	357.4	12.5	-69.7	0.0
2026-01-23 10:24:18.339501	357.3	12.4	-70.4	0.0
2026-01-23 10:24:19.475077	357.2	12.3	-68.7	0.0
2026-01-23 10:24:20.611147	357.1	12.2	-72.0	0.0
2026-01-23 10:24:21.745209	357.0	12.1	-72.2	0.0
2026-01-23 10:24:22.882459	356.9	12.0	-71.4	0.0
2026-01-23 10:24:24.014682	356.8	11.9	-72.3	0.0
2026-01-23 10:24:25.148855	356.7	11.8	-73.3	0.0
2026-01-23 10:24:26.285339	356.6	11.7	-73.2	0.0
2026-01-23 10:24:27.420265	356.5	11.7	-69.4	0.0
2026-01-23 10:24:28.556413	356.4	11.6	-72.1	0.0
2026-01-23 10:24:29.693472	356.3	11.5	-71.8	0.0
2026-01-23 10:24:30.828142	356.2	11.4	-72.5	0.0
2026-01-23 10:24:31.960403	356.1	11.3	-72.1	0.0
2026-01-23 10:24:33.088445	356.0	11.2	-70.7	0.0
2026-01-23 10:24:34.215444	355.9	11.1	-68.4	0.0
2026-01-23 10:24:35.342176	355.8	11.0	-71.1	0.0
2026-01-23 10:24:36.472008	355.7	10.9	-70.8	0.0
2026-01-23 10:24:37.600627	355.6	10.8	-70.6	0.0
2026-01-23 10:24:38.728388	355.5	10.7	-70.8	0.0
2026-01-23 10:24:39.856446	355.4	10.6	-69.8	0.0
2026-01-23 10:24:40.986558	355.3	10.6	-67.6	0.0
2026-01-23 10:24:42.116324	355.2	10.5	-67.3	0.0
2026-01-23 10:24:43.242591	355.2	10.4	-72.9	0.0
2026-01-23 10:24:44.369491	355.1	10.3	-76.2	0.0
2026-01-23 10:24:45.495470	355.0	10.2	-77.1	0.0
2026-01-23 10:24:46.623621	354.9	10.1	-77.7	0.0
2026-01-23 10:24:47.752143	354.8	10.0	-76.8	0.0
#Closed at: 2026-01-23 10:15:03.410052