passes_logs/2026/01/23/planumMaritime01/planumMaritime01__20260123_072253_METEOR-M2_3_rec.log

#Pass ID: 20260123_072253_METEOR-M2 3
#Satellite: METEOR-M2 3
#Configuration: METEOR-M2 3
#Start time: 2026-01-23 07:22:58.668603

#LorettStation: 1.0.0 05.05.2024
#Station: planumMaritime01
#Location: 37.49445 lon 55.92918 lat
#TLE: 1 57166U 23091A   26022.30358397  .00000072  00000+0  50282-4 0  9999
#TLE: 2 57166  98.6316  80.1226 0003203 222.1269 137.9664 14.24031925133757

#Time	Az	El	Level	SNR
2026-01-23 07:23:02.867421	17.8	10.4	-68.5	0.0
2026-01-23 07:23:04.001810	17.8	10.5	-67.2	0.0
2026-01-23 07:23:05.133423	17.8	10.6	-68.4	0.0
2026-01-23 07:23:06.265921	17.9	10.7	-66.7	0.0
2026-01-23 07:23:07.398650	17.9	10.8	-68.2	0.0
2026-01-23 07:23:08.532507	17.9	10.9	-65.9	0.0
2026-01-23 07:23:09.662945	17.9	11.0	-66.9	0.0
2026-01-23 07:23:10.793818	17.9	11.1	-66.0	0.0
2026-01-23 07:23:11.923940	17.9	11.2	-65.1	0.0
2026-01-23 07:23:13.056137	17.9	11.3	-66.3	0.0
2026-01-23 07:23:14.187877	18.0	11.4	-66.5	0.0
2026-01-23 07:23:15.319438	18.0	11.5	-65.8	0.0
2026-01-23 07:23:16.449747	18.0	11.6	-63.6	0.0
2026-01-23 07:23:17.581056	18.0	11.7	-64.4	0.0
2026-01-23 07:23:18.712661	18.0	11.8	-65.3	0.0
2026-01-23 07:23:19.843668	18.0	11.9	-65.8	0.0
2026-01-23 07:23:20.977441	18.1	12.0	-65.7	0.0
2026-01-23 07:23:22.107587	18.1	12.1	-65.9	0.0
2026-01-23 07:23:23.239542	18.1	12.2	-66.0	0.0
2026-01-23 07:23:24.372842	18.1	12.3	-65.6	0.0
2026-01-23 07:23:25.502728	18.1	12.4	-67.0	0.0
2026-01-23 07:23:26.633432	18.1	12.6	-65.4	0.0
2026-01-23 07:23:27.764021	18.2	12.7	-63.3	0.0
2026-01-23 07:23:28.897159	18.2	12.8	-63.2	0.0
2026-01-23 07:23:30.028508	18.2	12.9	-65.9	0.0
2026-01-23 07:23:31.160545	18.2	13.0	-65.9	0.0
2026-01-23 07:23:32.293919	18.2	13.1	-66.0	0.0
2026-01-23 07:23:33.425664	18.2	13.2	-67.0	0.0
2026-01-23 07:23:34.558393	18.3	13.3	-62.9	0.0
2026-01-23 07:23:35.690677	18.3	13.4	-67.4	0.0
2026-01-23 07:23:36.821886	18.3	13.6	-66.1	0.0
2026-01-23 07:23:37.958048	18.3	13.7	-66.7	0.0
2026-01-23 07:23:39.092374	18.3	13.8	-66.8	0.0
2026-01-23 07:23:40.227118	18.4	13.9	-65.6	0.0
2026-01-23 07:23:41.357872	18.4	14.0	-64.5	0.0
2026-01-23 07:23:42.485077	18.4	14.1	-66.2	0.0
2026-01-23 07:23:43.613602	18.4	14.3	-65.6	0.0
2026-01-23 07:23:44.742367	18.4	14.4	-65.0	0.0
2026-01-23 07:23:45.870828	18.4	14.5	-65.5	0.0
2026-01-23 07:23:46.999859	18.5	14.6	-63.7	0.0
2026-01-23 07:23:48.127479	18.5	14.7	-64.3	0.0
2026-01-23 07:23:49.256125	18.5	14.8	-65.5	0.0
2026-01-23 07:23:50.385004	18.5	15.0	-66.5	0.0
2026-01-23 07:23:51.513119	18.5	15.1	-66.9	0.0
2026-01-23 07:23:52.640486	18.6	15.2	-66.1	0.0
2026-01-23 07:23:53.769153	18.6	15.3	-65.5	0.0
2026-01-23 07:23:54.898235	18.6	15.4	-64.4	0.0
2026-01-23 07:23:56.026003	18.6	15.6	-65.0	0.0
2026-01-23 07:23:57.154965	18.6	15.7	-64.7	0.0
2026-01-23 07:23:58.283514	18.7	15.8	-64.6	0.0
2026-01-23 07:23:59.411050	18.7	15.9	-66.5	0.0
2026-01-23 07:24:00.538243	18.7	16.1	-66.7	0.0
2026-01-23 07:24:01.666834	18.7	16.2	-65.7	0.0
2026-01-23 07:24:02.798108	18.7	16.3	-66.4	0.0
2026-01-23 07:24:03.926919	18.8	16.5	-66.1	0.0
2026-01-23 07:24:05.055038	18.8	16.6	-67.0	0.0
2026-01-23 07:24:06.186081	18.8	16.7	-65.9	0.0
2026-01-23 07:24:07.316617	18.8	16.8	-66.1	0.0
2026-01-23 07:24:08.448313	18.8	17.0	-67.5	0.0
2026-01-23 07:24:09.580771	18.9	17.1	-64.7	0.0
2026-01-23 07:24:10.713488	18.9	17.2	-67.2	0.0
2026-01-23 07:24:11.845184	18.9	17.4	-65.7	0.0
2026-01-23 07:24:12.978331	18.9	17.5	-65.5	0.0
2026-01-23 07:24:14.112275	18.9	17.6	-66.1	0.0
2026-01-23 07:24:15.242718	19.0	17.8	-64.6	0.0
2026-01-23 07:24:16.374500	19.0	17.9	-63.8	0.0
2026-01-23 07:24:17.514052	19.0	18.0	-64.6	0.0
2026-01-23 07:24:18.650990	19.0	18.2	-63.7	0.0
2026-01-23 07:24:19.787979	19.1	18.3	-66.4	0.0
2026-01-23 07:24:20.924542	19.1	18.5	-64.8	0.0
2026-01-23 07:24:22.058223	19.1	18.6	-66.3	0.0
2026-01-23 07:24:23.197463	19.1	18.7	-67.0	0.0
2026-01-23 07:24:24.334093	19.1	18.9	-66.6	0.0
2026-01-23 07:24:25.471874	19.2	19.0	-66.9	0.0
2026-01-23 07:24:26.607021	19.2	19.2	-67.4	0.0
2026-01-23 07:24:27.744693	19.2	19.3	-66.9	0.0
2026-01-23 07:24:28.883427	19.2	19.5	-66.4	0.0
2026-01-23 07:24:30.021297	19.3	19.6	-66.9	0.0
2026-01-23 07:24:31.160480	19.3	19.8	-66.8	0.0
2026-01-23 07:24:32.299032	19.3	19.9	-65.9	0.0
2026-01-23 07:24:33.437193	19.3	20.0	-66.8	0.0
2026-01-23 07:24:34.572952	19.4	20.2	-68.2	0.0
2026-01-23 07:24:35.711843	19.4	20.3	-66.9	0.0
2026-01-23 07:24:36.849933	19.4	20.5	-66.2	0.0
2026-01-23 07:24:37.987229	19.4	20.7	-65.4	0.0
2026-01-23 07:24:39.124763	19.5	20.8	-65.9	0.0
2026-01-23 07:24:40.264855	19.5	21.0	-64.6	0.0
2026-01-23 07:24:41.402848	19.5	21.1	-66.2	0.0
2026-01-23 07:24:42.541684	19.5	21.3	-65.3	0.0
2026-01-23 07:24:43.679740	19.6	21.4	-66.4	0.0
2026-01-23 07:24:44.819931	19.6	21.6	-65.2	0.0
2026-01-23 07:24:45.957063	19.6	21.8	-68.0	0.0
2026-01-23 07:24:47.095054	19.7	21.9	-67.6	0.0
2026-01-23 07:24:48.232970	19.7	22.1	-69.6	0.0
2026-01-23 07:24:49.373824	19.7	22.2	-66.5	0.0
2026-01-23 07:24:50.510911	19.7	22.4	-63.9	0.0
2026-01-23 07:24:51.649696	19.8	22.6	-65.2	0.0
2026-01-23 07:24:52.787761	19.8	22.7	-66.3	0.0
2026-01-23 07:24:53.926516	19.8	22.9	-66.1	0.0
2026-01-23 07:24:55.061380	19.9	23.1	-65.2	0.0
2026-01-23 07:24:56.196876	19.9	23.2	-67.0	0.0
2026-01-23 07:24:57.336205	19.9	23.4	-67.1	0.0
2026-01-23 07:24:58.471908	19.9	23.6	-68.8	0.0
2026-01-23 07:24:59.609746	20.0	23.7	-68.9	0.0
2026-01-23 07:25:00.749931	20.0	23.9	-68.9	0.0
2026-01-23 07:25:01.891312	20.0	24.1	-66.5	0.0
2026-01-23 07:25:03.028589	20.1	24.3	-67.9	0.0
2026-01-23 07:25:04.164871	20.1	24.4	-66.2	0.0
2026-01-23 07:25:05.301987	20.1	24.6	-66.5	0.0
2026-01-23 07:25:06.442092	20.2	24.8	-66.9	0.0
2026-01-23 07:25:07.578410	20.2	25.0	-65.9	0.0
2026-01-23 07:25:08.715019	20.2	25.2	-66.7	0.0
2026-01-23 07:25:09.853938	20.3	25.4	-67.5	0.0
2026-01-23 07:25:10.989633	20.3	25.5	-69.4	0.0
2026-01-23 07:25:12.128910	20.3	25.7	-67.4	0.0
2026-01-23 07:25:13.262002	20.4	25.9	-68.5	0.0
2026-01-23 07:25:14.399386	20.4	26.1	-67.4	0.0
2026-01-23 07:25:15.534814	20.4	26.3	-66.4	0.0
2026-01-23 07:25:16.671683	20.5	26.5	-64.8	0.0
2026-01-23 07:25:17.806281	20.5	26.7	-69.0	0.0
2026-01-23 07:25:18.942155	20.5	26.9	-68.0	0.0
2026-01-23 07:25:20.076790	20.6	27.1	-68.8	0.0
2026-01-23 07:25:21.212268	20.6	27.3	-68.0	0.0
2026-01-23 07:25:22.345698	20.6	27.5	-67.8	0.0
2026-01-23 07:25:23.477408	20.7	27.7	-69.3	0.0
2026-01-23 07:25:24.611328	20.7	27.9	-68.0	0.0
2026-01-23 07:25:25.746063	20.8	28.1	-69.7	0.0
2026-01-23 07:25:26.877199	20.8	28.3	-68.6	0.0
2026-01-23 07:25:28.009231	20.8	28.5	-70.7	0.0
2026-01-23 07:25:29.144337	20.9	28.7	-70.7	0.0
2026-01-23 07:25:30.278405	20.9	28.9	-68.9	0.0
2026-01-23 07:25:31.410579	21.0	29.1	-70.3	0.0
2026-01-23 07:25:32.544805	21.0	29.3	-70.5	0.0
2026-01-23 07:25:33.678928	21.0	29.5	-70.0	0.0
2026-01-23 07:25:34.813563	21.1	29.7	-72.1	0.0
2026-01-23 07:25:35.951485	21.1	29.9	-71.0	0.0
2026-01-23 07:25:37.086960	21.2	30.2	-70.6	0.0
2026-01-23 07:25:38.220902	21.2	30.4	-72.0	0.0
2026-01-23 07:25:39.356695	21.3	30.6	-71.1	0.0
2026-01-23 07:25:40.491049	21.3	30.8	-72.5	0.3
2026-01-23 07:25:41.628749	21.3	31.1	-71.6	0.0
2026-01-23 07:25:42.759104	21.4	31.3	-68.3	0.0
2026-01-23 07:25:43.888307	21.4	31.5	-70.0	0.0
2026-01-23 07:25:45.018016	21.5	31.7	-72.0	0.1
2026-01-23 07:25:46.145116	21.5	32.0	-72.7	0.0
2026-01-23 07:25:47.273987	21.6	32.2	-72.6	1.7
2026-01-23 07:25:48.401925	21.6	32.4	-73.1	2.5
2026-01-23 07:25:49.529674	21.7	32.7	-73.0	0.0
2026-01-23 07:25:50.659093	21.7	32.9	-71.0	0.0
2026-01-23 07:25:51.789415	21.8	33.1	-71.4	0.0
2026-01-23 07:25:52.919419	21.8	33.4	-73.5	3.8
2026-01-23 07:25:54.048649	21.9	33.6	-72.9	0.0
2026-01-23 07:25:55.176374	21.9	33.9	-72.5	0.9
2026-01-23 07:25:56.305871	22.0	34.1	-72.6	0.0
2026-01-23 07:25:57.434342	22.0	34.4	-73.9	0.3
2026-01-23 07:25:58.563141	22.1	34.6	-73.9	1.1
2026-01-23 07:25:59.691969	22.1	34.9	-72.3	1.9
2026-01-23 07:26:00.821073	22.2	35.1	-73.8	4.2
2026-01-23 07:26:01.949597	22.3	35.4	-74.1	2.4
2026-01-23 07:26:03.081408	22.3	35.7	-70.9	0.0
2026-01-23 07:26:04.209891	22.4	35.9	-74.2	2.9
2026-01-23 07:26:05.337670	22.4	36.2	-73.9	4.6
2026-01-23 07:26:06.465880	22.5	36.4	-71.6	0.7
2026-01-23 07:26:07.597429	22.6	36.7	-72.4	2.2
2026-01-23 07:26:08.734353	22.6	37.0	-72.5	1.8
2026-01-23 07:26:09.870167	22.7	37.3	-72.8	2.6
2026-01-23 07:26:11.006723	22.8	37.5	-72.4	1.7
2026-01-23 07:26:12.146130	22.8	37.8	-73.3	5.0
2026-01-23 07:26:13.283260	22.9	38.1	-73.2	2.7
2026-01-23 07:26:14.420634	23.0	38.4	-73.1	4.3
2026-01-23 07:26:15.555664	23.0	38.7	-71.6	0.0
2026-01-23 07:26:16.692036	23.1	39.0	-72.2	2.7
2026-01-23 07:26:17.826897	23.2	39.3	-73.1	5.4
2026-01-23 07:26:18.961034	23.2	39.6	-74.9	5.1
2026-01-23 07:26:20.098887	23.3	39.8	-73.9	5.4
2026-01-23 07:26:21.235881	23.4	40.1	-73.7	3.9
2026-01-23 07:26:22.373579	23.5	40.4	-73.8	6.7
2026-01-23 07:26:23.510591	23.5	40.8	-73.0	2.2
2026-01-23 07:26:24.646919	23.6	41.1	-73.4	0.0
2026-01-23 07:26:25.784404	23.7	41.4	-73.9	4.6
2026-01-23 07:26:26.924980	23.8	41.7	-74.9	6.4
2026-01-23 07:26:28.061675	23.9	42.0	-74.6	5.8
2026-01-23 07:26:29.196593	24.0	42.3	-74.1	5.1
2026-01-23 07:26:30.326036	24.0	42.6	-74.7	3.5
2026-01-23 07:26:31.458310	24.1	43.0	-73.8	4.3
2026-01-23 07:26:32.587084	24.2	43.3	-74.0	2.1
2026-01-23 07:26:33.718551	24.3	43.6	-75.3	6.6
2026-01-23 07:26:34.850604	24.4	43.9	-75.9	7.1
2026-01-23 07:26:35.981664	24.5	44.3	-74.9	6.8
2026-01-23 07:26:37.114005	24.6	44.6	-73.9	3.8
2026-01-23 07:26:38.243615	24.7	44.9	-76.0	6.1
2026-01-23 07:26:39.374884	24.8	45.3	-75.7	6.0
2026-01-23 07:26:40.506540	24.9	45.6	-75.6	5.5
2026-01-23 07:26:41.639341	25.0	46.0	-76.0	6.3
2026-01-23 07:26:42.774840	25.1	46.3	-75.5	8.0
2026-01-23 07:26:43.908556	25.2	46.7	-76.1	7.7
2026-01-23 07:26:45.040658	25.4	47.0	-74.5	5.9
2026-01-23 07:26:46.176519	25.5	47.4	-75.5	3.2
2026-01-23 07:26:47.309977	25.6	47.7	-75.3	4.8
2026-01-23 07:26:48.442746	25.7	48.1	-76.0	6.0
2026-01-23 07:26:49.577726	25.8	48.5	-75.6	7.6
2026-01-23 07:26:50.710867	26.0	48.9	-76.6	6.8
2026-01-23 07:26:51.844936	26.1	49.2	-75.5	6.4
2026-01-23 07:26:52.980662	26.2	49.6	-76.0	6.7
2026-01-23 07:26:54.114186	26.4	50.0	-75.3	4.5
2026-01-23 07:26:55.247470	26.5	50.4	-75.2	6.0
2026-01-23 07:26:56.380593	26.6	50.8	-75.4	4.5
2026-01-23 07:26:57.513529	26.8	51.1	-76.9	6.3
2026-01-23 07:26:58.647528	26.9	51.5	-77.3	6.6
2026-01-23 07:26:59.781277	27.1	51.9	-76.8	6.2
2026-01-23 07:27:00.914486	27.3	52.3	-76.1	1.8
2026-01-23 07:27:02.042105	27.4	52.7	-75.3	3.1
2026-01-23 07:27:03.169829	27.6	53.1	-76.6	3.5
2026-01-23 07:27:04.299857	27.8	53.5	-77.5	3.7
2026-01-23 07:27:05.428459	27.9	53.9	-77.1	4.7
2026-01-23 07:27:06.559426	28.1	54.4	-76.8	4.3
2026-01-23 07:27:07.688352	28.3	54.8	-77.0	4.8
2026-01-23 07:27:08.816640	28.5	55.2	-75.6	0.0
2026-01-23 07:27:09.943779	28.7	55.6	-75.8	1.6
2026-01-23 07:27:11.072761	28.9	56.0	-74.5	0.0
2026-01-23 07:27:12.201169	29.1	56.5	-76.1	4.0
2026-01-23 07:27:13.328741	29.3	56.9	-77.2	4.1
2026-01-23 07:27:14.460103	29.5	57.3	-76.0	1.9
2026-01-23 07:27:15.587987	29.8	57.8	-76.5	2.9
2026-01-23 07:27:16.713993	30.0	58.2	-76.2	2.8
2026-01-23 07:27:17.842134	30.3	58.6	-75.7	1.4
2026-01-23 07:27:18.969667	30.5	59.1	-75.2	0.2
2026-01-23 07:27:20.094639	30.8	59.5	-75.4	1.4
2026-01-23 07:27:21.222087	31.0	60.0	-75.4	0.0
2026-01-23 07:27:22.348858	31.3	60.4	-75.3	2.1
2026-01-23 07:27:23.475880	31.6	60.9	-75.0	0.2
2026-01-23 07:27:24.600208	31.9	61.3	-75.9	1.8
2026-01-23 07:27:25.727831	32.2	61.8	-75.1	0.5
2026-01-23 07:27:26.856212	32.5	62.3	-76.1	2.3
2026-01-23 07:27:27.985051	32.9	62.7	-75.3	1.7
2026-01-23 07:27:29.114098	33.2	63.2	-76.2	0.2
2026-01-23 07:27:30.245079	33.6	63.7	-75.3	1.6
2026-01-23 07:27:31.375180	34.0	64.1	-75.7	2.1
2026-01-23 07:27:32.503286	34.4	64.6	-76.5	5.1
2026-01-23 07:27:33.631112	34.8	65.1	-76.0	2.9
2026-01-23 07:27:34.759001	35.2	65.6	-75.5	0.7
2026-01-23 07:27:35.887238	35.7	66.0	-76.1	4.6
2026-01-23 07:27:37.016880	36.1	66.5	-75.8	2.8
2026-01-23 07:27:38.147656	36.6	67.0	-76.4	5.1
2026-01-23 07:27:39.277658	37.1	67.5	-75.4	3.0
2026-01-23 07:27:40.406261	37.7	68.0	-76.6	4.8
2026-01-23 07:27:41.534064	38.2	68.5	-75.6	2.5
2026-01-23 07:27:42.669011	38.8	69.0	-76.1	2.9
2026-01-23 07:27:43.803225	39.4	69.4	-76.3	3.7
2026-01-23 07:27:44.937935	40.1	69.9	-75.9	2.2
2026-01-23 07:27:46.072081	40.8	70.4	-77.5	3.3
2026-01-23 07:27:47.202596	41.5	70.9	-76.2	1.9
2026-01-23 07:27:48.335714	42.3	71.4	-76.9	0.2
2026-01-23 07:27:49.468869	43.1	71.9	-77.9	6.0
2026-01-23 07:27:50.604852	44.0	72.4	-76.4	4.7
2026-01-23 07:27:51.742607	44.9	72.9	-75.6	3.7
2026-01-23 07:27:52.879973	45.8	73.3	-77.6	5.8
2026-01-23 07:27:54.014644	46.9	73.8	-76.0	2.7
2026-01-23 07:27:55.147833	48.0	74.3	-76.2	0.1
2026-01-23 07:27:56.288569	49.1	74.8	-77.3	4.9
2026-01-23 07:27:57.426387	50.4	75.2	-76.7	4.9
2026-01-23 07:27:58.562190	51.7	75.7	-76.6	1.3
2026-01-23 07:27:59.697902	53.1	76.2	-77.0	6.8
2026-01-23 07:28:00.833511	54.7	76.6	-78.4	8.7
2026-01-23 07:28:01.970356	56.3	77.1	-77.3	5.4
2026-01-23 07:28:03.104547	58.0	77.5	-76.4	5.5
2026-01-23 07:28:04.239364	59.9	77.9	-77.2	6.0
2026-01-23 07:28:05.374015	61.9	78.3	-77.4	3.6
2026-01-23 07:28:06.508563	64.0	78.7	-76.9	2.6
2026-01-23 07:28:07.643558	66.3	79.1	-76.7	2.0
2026-01-23 07:28:08.778433	68.8	79.4	-76.3	4.2
2026-01-23 07:28:09.906804	71.4	79.8	-76.8	4.1
2026-01-23 07:28:11.039480	74.2	80.1	-76.4	5.1
2026-01-23 07:28:12.171732	77.2	80.4	-77.5	7.9
2026-01-23 07:28:13.304441	80.4	80.7	-77.2	5.9
2026-01-23 07:28:14.434443	83.7	80.9	-76.8	4.1
2026-01-23 07:28:15.564047	87.3	81.1	-75.8	5.8
2026-01-23 07:28:16.693090	90.9	81.3	-76.5	8.5
2026-01-23 07:28:17.822742	94.7	81.4	-77.2	7.1
2026-01-23 07:28:18.952239	98.6	81.5	-75.8	6.2
2026-01-23 07:28:20.084952	102.6	81.6	-76.9	8.3
2026-01-23 07:28:21.214478	106.6	81.6	-77.0	5.6
2026-01-23 07:28:22.343720	110.6	81.6	-76.6	6.6
2026-01-23 07:28:23.472440	114.6	81.5	-76.8	7.6
2026-01-23 07:28:24.603044	118.5	81.4	-77.1	9.7
2026-01-23 07:28:25.732600	122.3	81.2	-77.8	6.8
2026-01-23 07:28:26.860359	125.9	81.1	-77.4	8.6
2026-01-23 07:28:27.988461	129.4	80.9	-77.5	6.7
2026-01-23 07:28:29.117073	132.7	80.6	-77.6	8.1
2026-01-23 07:28:30.247022	135.8	80.3	-78.0	10.3
2026-01-23 07:28:31.377835	138.8	80.0	-77.4	10.3
2026-01-23 07:28:32.505723	141.5	79.7	-77.8	8.3
2026-01-23 07:28:33.635620	144.1	79.4	-78.2	10.4
2026-01-23 07:28:34.768472	146.5	79.0	-77.7	8.7
2026-01-23 07:28:35.904904	148.8	78.6	-77.6	9.7
2026-01-23 07:28:37.041728	150.9	78.2	-77.3	8.6
2026-01-23 07:28:38.181035	152.9	77.8	-78.1	9.9
2026-01-23 07:28:39.315399	154.7	77.4	-77.9	8.0
2026-01-23 07:28:40.453210	156.5	77.0	-78.4	9.2
2026-01-23 07:28:41.590506	158.1	76.5	-77.6	6.4
2026-01-23 07:28:42.729619	159.6	76.1	-77.3	7.9
2026-01-23 07:28:43.866442	161.0	75.6	-78.0	9.4
2026-01-23 07:28:45.001494	162.3	75.1	-78.8	9.7
2026-01-23 07:28:46.137618	163.5	74.7	-78.8	10.2
2026-01-23 07:28:47.275037	164.6	74.2	-78.7	7.5
2026-01-23 07:28:48.414230	165.7	73.7	-79.2	10.2
2026-01-23 07:28:49.550763	166.7	73.2	-78.7	7.8
2026-01-23 07:28:50.684248	167.7	72.7	-79.2	9.7
2026-01-23 07:28:51.816968	168.6	72.3	-79.0	7.9
2026-01-23 07:28:52.952339	169.5	71.8	-79.4	8.5
2026-01-23 07:28:54.090894	170.3	71.3	-79.1	8.0
2026-01-23 07:28:55.229366	171.0	70.8	-79.2	7.6
2026-01-23 07:28:56.368314	171.7	70.3	-79.9	9.7
2026-01-23 07:28:57.505003	172.4	69.8	-79.4	10.2
2026-01-23 07:28:58.643769	173.1	69.3	-79.8	8.4
2026-01-23 07:28:59.781927	173.7	68.8	-80.0	9.0
2026-01-23 07:29:00.919254	174.3	68.3	-80.2	8.8
2026-01-23 07:29:02.055499	174.8	67.8	-79.9	6.6
2026-01-23 07:29:03.192165	175.4	67.3	-80.2	7.6
2026-01-23 07:29:04.331452	175.9	66.9	-80.6	7.9
2026-01-23 07:29:05.464292	176.4	66.4	-80.4	7.4
2026-01-23 07:29:06.600085	176.8	65.9	-80.8	8.0
2026-01-23 07:29:07.735741	177.3	65.4	-80.7	9.0
2026-01-23 07:29:08.869551	177.7	64.9	-80.4	9.1
2026-01-23 07:29:10.005805	178.1	64.4	-80.5	10.2
2026-01-23 07:29:11.138538	178.5	64.0	-80.1	9.7
2026-01-23 07:29:12.271509	178.9	63.5	-79.9	9.8
2026-01-23 07:29:13.403918	179.2	63.0	-80.0	10.0
2026-01-23 07:29:14.537389	179.6	62.5	-79.7	9.3
2026-01-23 07:29:15.670831	179.9	62.1	-79.6	9.0
2026-01-23 07:29:16.803702	180.2	61.6	-79.8	9.8
2026-01-23 07:29:17.936933	180.6	61.1	-79.7	10.5
2026-01-23 07:29:19.072405	180.9	60.7	-79.6	10.5
2026-01-23 07:29:20.207882	181.1	60.2	-79.6	11.2
2026-01-23 07:29:21.342152	181.4	59.8	-79.5	11.3
2026-01-23 07:29:22.475091	181.7	59.3	-79.7	11.3
2026-01-23 07:29:23.612156	182.0	58.9	-79.7	11.0
2026-01-23 07:29:24.748597	182.2	58.4	-79.7	11.0
2026-01-23 07:29:25.885670	182.4	58.0	-79.6	11.2
2026-01-23 07:29:27.021796	182.7	57.5	-79.6	11.4
2026-01-23 07:29:28.157354	182.9	57.1	-79.8	11.4
2026-01-23 07:29:29.293381	183.1	56.7	-79.4	11.2
2026-01-23 07:29:30.427479	183.3	56.2	-79.5	11.2
2026-01-23 07:29:31.562907	183.6	55.8	-79.8	11.0
2026-01-23 07:29:32.699254	183.8	55.4	-79.5	12.2
2026-01-23 07:29:33.834809	184.0	54.9	-79.4	11.3
2026-01-23 07:29:34.970684	184.1	54.5	-79.4	12.0
2026-01-23 07:29:36.104436	184.3	54.1	-79.3	12.3
2026-01-23 07:29:37.237164	184.5	53.7	-79.5	11.3
2026-01-23 07:29:38.375135	184.7	53.3	-79.7	11.7
2026-01-23 07:29:39.512691	184.9	52.9	-79.6	11.9
2026-01-23 07:29:40.652331	185.0	52.5	-79.8	11.5
2026-01-23 07:29:41.792345	185.2	52.1	-79.6	11.9
2026-01-23 07:29:42.929270	185.3	51.7	-79.7	12.1
2026-01-23 07:29:44.067168	185.5	51.3	-79.3	12.1
2026-01-23 07:29:45.205978	185.6	50.9	-79.9	12.2
2026-01-23 07:29:46.344661	185.8	50.5	-79.4	12.2
2026-01-23 07:29:47.481532	185.9	50.1	-79.4	11.6
2026-01-23 07:29:48.619923	186.1	49.7	-79.2	11.7
2026-01-23 07:29:49.759969	186.2	49.3	-79.6	12.5
2026-01-23 07:29:50.898385	186.3	48.9	-79.5	11.9
2026-01-23 07:29:52.037171	186.5	48.6	-79.8	12.5
2026-01-23 07:29:53.171448	186.6	48.2	-79.6	12.5
2026-01-23 07:29:54.305200	186.7	47.8	-79.4	13.1
2026-01-23 07:29:55.438831	186.8	47.5	-79.4	13.1
2026-01-23 07:29:56.572202	187.0	47.1	-79.4	13.6
2026-01-23 07:29:57.705334	187.1	46.7	-78.7	11.7
2026-01-23 07:29:58.838237	187.2	46.4	-79.3	13.1
2026-01-23 07:29:59.971498	187.3	46.0	-78.8	12.1
2026-01-23 07:30:01.106264	187.4	45.7	-79.0	12.6
2026-01-23 07:30:02.238901	187.5	45.3	-78.9	13.5
2026-01-23 07:30:03.372389	187.6	45.0	-78.4	12.1
2026-01-23 07:30:04.509438	187.7	44.6	-78.9	12.7
2026-01-23 07:30:05.643564	187.8	44.3	-78.8	12.8
2026-01-23 07:30:06.776887	187.9	44.0	-78.3	12.3
2026-01-23 07:30:07.908994	188.0	43.6	-78.7	12.7
2026-01-23 07:30:09.042990	188.1	43.3	-78.3	12.6
2026-01-23 07:30:10.173435	188.2	43.0	-78.5	13.1
2026-01-23 07:30:11.302514	188.3	42.7	-78.4	13.2
2026-01-23 07:30:12.429980	188.4	42.3	-78.3	12.4
2026-01-23 07:30:13.560451	188.4	42.0	-78.4	12.9
2026-01-23 07:30:14.688147	188.5	41.7	-78.0	12.8
2026-01-23 07:30:15.817146	188.6	41.4	-77.9	12.3
2026-01-23 07:30:16.945131	188.7	41.1	-77.9	11.6
2026-01-23 07:30:18.077557	188.8	40.8	-78.1	12.8
2026-01-23 07:30:19.209543	188.8	40.5	-78.2	12.8
2026-01-23 07:30:20.337214	188.9	40.2	-78.0	11.9
2026-01-23 07:30:21.465528	189.0	39.9	-77.9	11.2
2026-01-23 07:30:22.593786	189.1	39.6	-77.6	11.3
2026-01-23 07:30:23.720441	189.1	39.3	-77.4	9.6
2026-01-23 07:30:24.848920	189.2	39.0	-77.7	11.0
2026-01-23 07:30:25.979152	189.3	38.7	-77.8	11.0
2026-01-23 07:30:27.106513	189.4	38.4	-77.9	10.4
2026-01-23 07:30:28.233416	189.4	38.1	-78.1	11.2
2026-01-23 07:30:29.361590	189.5	37.8	-78.0	10.2
2026-01-23 07:30:30.490753	189.6	37.6	-77.8	10.2
2026-01-23 07:30:31.622637	189.6	37.3	-78.0	11.3
2026-01-23 07:30:32.749687	189.7	37.0	-77.8	10.8
2026-01-23 07:30:33.883156	189.7	36.7	-77.4	9.0
2026-01-23 07:30:35.017872	189.8	36.5	-77.5	10.3
2026-01-23 07:30:36.151168	189.9	36.2	-77.6	10.1
2026-01-23 07:30:37.288471	189.9	35.9	-77.2	9.6
2026-01-23 07:30:38.425497	190.0	35.7	-77.8	10.5
2026-01-23 07:30:39.564183	190.1	35.4	-77.5	9.5
2026-01-23 07:30:40.700630	190.1	35.1	-77.3	9.6
2026-01-23 07:30:41.837123	190.2	34.9	-77.3	8.7
2026-01-23 07:30:42.976898	190.2	34.6	-77.4	9.0
2026-01-23 07:30:44.112398	190.3	34.4	-77.6	7.1
2026-01-23 07:30:45.247731	190.3	34.1	-77.3	8.9
2026-01-23 07:30:46.388430	190.4	33.8	-77.5	8.8
2026-01-23 07:30:47.523818	190.4	33.6	-77.7	8.6
2026-01-23 07:30:48.660501	190.5	33.3	-77.5	8.6
2026-01-23 07:30:49.799010	190.5	33.1	-77.6	9.0
2026-01-23 07:30:50.936286	190.6	32.9	-77.6	9.3
2026-01-23 07:30:52.075375	190.6	32.6	-77.3	8.7
2026-01-23 07:30:53.213671	190.7	32.4	-77.3	8.0
2026-01-23 07:30:54.351373	190.7	32.1	-77.2	8.9
2026-01-23 07:30:55.493732	190.8	31.9	-77.3	8.5
2026-01-23 07:30:56.631211	190.8	31.7	-76.8	8.5
2026-01-23 07:30:57.770098	190.9	31.4	-77.1	7.4
2026-01-23 07:30:58.909510	190.9	31.2	-76.9	7.6
2026-01-23 07:31:00.043287	191.0	31.0	-76.7	8.9
2026-01-23 07:31:01.176986	191.0	30.7	-76.8	8.5
2026-01-23 07:31:02.311363	191.1	30.5	-76.7	7.4
2026-01-23 07:31:03.450820	191.1	30.3	-76.9	7.8
2026-01-23 07:31:04.587429	191.1	30.1	-76.7	7.9
2026-01-23 07:31:05.723751	191.2	29.9	-76.7	7.9
2026-01-23 07:31:06.860522	191.2	29.6	-76.7	7.8
2026-01-23 07:31:07.997557	191.3	29.4	-77.2	8.8
2026-01-23 07:31:09.129835	191.3	29.2	-76.9	7.5
2026-01-23 07:31:10.263637	191.4	29.0	-76.5	7.6
2026-01-23 07:31:11.394808	191.4	28.8	-76.4	8.4
2026-01-23 07:31:12.527257	191.4	28.6	-76.6	6.6
2026-01-23 07:31:13.660304	191.5	28.4	-76.6	7.7
2026-01-23 07:31:14.792199	191.5	28.2	-76.5	6.4
2026-01-23 07:31:15.925417	191.6	28.0	-76.6	7.3
2026-01-23 07:31:17.060116	191.6	27.8	-76.3	6.5
2026-01-23 07:31:18.192497	191.6	27.6	-76.6	7.8
2026-01-23 07:31:19.326862	191.7	27.4	-76.7	6.3
2026-01-23 07:31:20.459837	191.7	27.2	-76.5	6.7
2026-01-23 07:31:21.592343	191.7	27.0	-76.9	6.6
2026-01-23 07:31:22.724716	191.8	26.8	-76.8	7.7
2026-01-23 07:31:23.855157	191.8	26.6	-76.2	7.1
2026-01-23 07:31:24.987991	191.8	26.4	-76.4	5.9
2026-01-23 07:31:26.121942	191.9	26.2	-76.5	6.8
2026-01-23 07:31:27.256543	191.9	26.0	-76.2	5.9
2026-01-23 07:31:28.390779	191.9	25.8	-76.5	5.8
2026-01-23 07:31:29.524126	192.0	25.6	-76.5	7.2
2026-01-23 07:31:30.658625	192.0	25.4	-76.1	4.9
2026-01-23 07:31:31.793993	192.0	25.2	-76.2	7.2
2026-01-23 07:31:32.925832	192.1	25.1	-76.8	7.3
2026-01-23 07:31:34.059354	192.1	24.9	-76.8	8.0
2026-01-23 07:31:35.192093	192.1	24.7	-76.5	6.3
2026-01-23 07:31:36.323281	192.2	24.5	-76.6	7.0
2026-01-23 07:31:37.456622	192.2	24.3	-76.3	6.3
2026-01-23 07:31:38.590556	192.2	24.2	-76.3	5.7
2026-01-23 07:31:39.722807	192.3	24.0	-76.8	7.9
2026-01-23 07:31:40.857825	192.3	23.8	-76.4	7.0
2026-01-23 07:31:41.992695	192.3	23.6	-76.6	6.5
2026-01-23 07:31:43.127562	192.4	23.5	-76.7	6.1
2026-01-23 07:31:44.263358	192.4	23.3	-77.0	5.6
2026-01-23 07:31:45.396209	192.4	23.1	-76.8	5.4
2026-01-23 07:31:46.528924	192.4	22.9	-77.0	6.0
2026-01-23 07:31:47.663091	192.5	22.8	-76.7	6.1
2026-01-23 07:31:48.797877	192.5	22.6	-76.6	5.6
2026-01-23 07:31:49.931002	192.5	22.4	-76.6	6.2
2026-01-23 07:31:51.065856	192.6	22.3	-76.8	6.8
2026-01-23 07:31:52.198728	192.6	22.1	-77.1	6.8
2026-01-23 07:31:53.329805	192.6	21.9	-77.5	7.7
2026-01-23 07:31:54.464269	192.6	21.8	-77.4	7.3
2026-01-23 07:31:55.601477	192.7	21.6	-76.9	5.8
2026-01-23 07:31:56.735855	192.7	21.5	-77.1	6.2
2026-01-23 07:31:57.869437	192.7	21.3	-76.9	7.8
2026-01-23 07:31:59.005097	192.7	21.1	-76.6	7.0
2026-01-23 07:32:00.137449	192.8	21.0	-76.7	6.5
2026-01-23 07:32:01.274212	192.8	20.8	-76.5	6.4
2026-01-23 07:32:02.412277	192.8	20.7	-76.6	6.2
2026-01-23 07:32:03.551732	192.8	20.5	-76.6	5.5
2026-01-23 07:32:04.689336	192.9	20.4	-77.0	6.6
2026-01-23 07:32:05.828064	192.9	20.2	-76.3	5.5
2026-01-23 07:32:06.963608	192.9	20.1	-76.3	5.0
2026-01-23 07:32:08.101127	192.9	19.9	-76.1	6.4
2026-01-23 07:32:09.236554	193.0	19.8	-76.6	6.7
2026-01-23 07:32:10.372626	193.0	19.6	-76.7	6.6
2026-01-23 07:32:11.509538	193.0	19.5	-77.0	6.0
2026-01-23 07:32:12.647109	193.0	19.3	-77.1	6.4
2026-01-23 07:32:13.784671	193.1	19.2	-77.0	6.4
2026-01-23 07:32:14.922046	193.1	19.0	-77.0	6.4
2026-01-23 07:32:16.050870	193.1	18.9	-77.0	6.9
2026-01-23 07:32:17.178594	193.1	18.7	-76.7	6.8
2026-01-23 07:32:18.306431	193.1	18.6	-76.8	5.5
2026-01-23 07:32:19.434697	193.2	18.5	-76.6	6.2
2026-01-23 07:32:20.562118	193.2	18.3	-77.2	7.0
2026-01-23 07:32:21.691374	193.2	18.2	-77.4	7.0
2026-01-23 07:32:22.821922	193.2	18.0	-77.2	6.3
2026-01-23 07:32:23.949749	193.3	17.9	-77.1	6.3
2026-01-23 07:32:25.077343	193.3	17.8	-76.9	6.1
2026-01-23 07:32:26.206595	193.3	17.6	-77.1	5.6
2026-01-23 07:32:27.336270	193.3	17.5	-77.2	6.6
2026-01-23 07:32:28.463912	193.3	17.4	-76.7	6.1
2026-01-23 07:32:29.597278	193.4	17.2	-77.2	7.0
2026-01-23 07:32:30.726026	193.4	17.1	-76.9	6.7
2026-01-23 07:32:31.856881	193.4	17.0	-76.8	5.6
2026-01-23 07:32:32.987366	193.4	16.8	-77.1	6.4
2026-01-23 07:32:34.120382	193.4	16.7	-77.3	7.8
2026-01-23 07:32:35.250493	193.5	16.6	-77.4	8.2
2026-01-23 07:32:36.380467	193.5	16.4	-77.9	8.3
2026-01-23 07:32:37.509971	193.5	16.3	-77.4	6.1
2026-01-23 07:32:38.639371	193.5	16.2	-77.6	7.5
2026-01-23 07:32:39.772185	193.5	16.0	-77.2	6.3
2026-01-23 07:32:40.904450	193.6	15.9	-77.1	6.9
2026-01-23 07:32:42.039468	193.6	15.8	-77.7	6.8
2026-01-23 07:32:43.173042	193.6	15.7	-77.1	7.3
2026-01-23 07:32:44.305422	193.6	15.5	-77.2	6.3
2026-01-23 07:32:45.439364	193.6	15.4	-77.0	6.6
2026-01-23 07:32:46.576933	193.7	15.3	-76.8	5.7
2026-01-23 07:32:47.709300	193.7	15.2	-77.4	6.6
2026-01-23 07:32:48.845386	193.7	15.0	-77.5	7.1
2026-01-23 07:32:49.977681	193.7	14.9	-77.4	7.4
2026-01-23 07:32:51.111345	193.7	14.8	-77.3	5.1
2026-01-23 07:32:52.244146	193.7	14.7	-77.4	6.9
2026-01-23 07:32:53.376373	193.8	14.6	-77.4	6.1
2026-01-23 07:32:54.511037	193.8	14.4	-77.4	5.9
2026-01-23 07:32:55.644412	193.8	14.3	-77.6	7.4
2026-01-23 07:32:56.778359	193.8	14.2	-77.4	4.9
2026-01-23 07:32:57.911752	193.8	14.1	-77.1	6.9
2026-01-23 07:32:59.044009	193.9	14.0	-77.5	7.6
2026-01-23 07:33:00.178752	193.9	13.8	-77.6	7.0
2026-01-23 07:33:01.311793	193.9	13.7	-77.3	6.8
2026-01-23 07:33:02.451369	193.9	13.6	-77.5	6.7
2026-01-23 07:33:03.586758	193.9	13.5	-77.5	5.5
2026-01-23 07:33:04.722140	193.9	13.4	-77.4	7.2
2026-01-23 07:33:05.856815	194.0	13.3	-77.6	5.2
2026-01-23 07:33:06.995846	194.0	13.2	-77.6	5.4
2026-01-23 07:33:08.130705	194.0	13.0	-77.4	7.1
2026-01-23 07:33:09.267345	194.0	12.9	-77.6	7.1
2026-01-23 07:33:10.406473	194.0	12.8	-78.0	5.2
2026-01-23 07:33:11.544714	194.0	12.7	-77.5	5.9
2026-01-23 07:33:12.679855	194.1	12.6	-77.6	5.5
2026-01-23 07:33:13.815616	194.1	12.5	-77.7	6.4
2026-01-23 07:33:14.953316	194.1	12.4	-78.0	7.9
2026-01-23 07:33:16.088769	194.1	12.3	-78.3	6.8
2026-01-23 07:33:17.225831	194.1	12.2	-77.5	5.7
2026-01-23 07:33:18.364045	194.1	12.0	-77.3	5.6
2026-01-23 07:33:19.500342	194.2	11.9	-78.0	4.6
2026-01-23 07:33:20.635491	194.2	11.8	-77.0	5.8
2026-01-23 07:33:21.767960	194.2	11.7	-77.4	4.7
2026-01-23 07:33:22.902144	194.2	11.6	-78.0	6.6
2026-01-23 07:33:24.032585	194.2	11.5	-77.3	6.7
2026-01-23 07:33:25.167261	194.2	11.4	-77.5	3.3
2026-01-23 07:33:26.301401	194.2	11.3	-77.6	6.2
2026-01-23 07:33:27.436917	194.3	11.2	-78.3	6.1
2026-01-23 07:33:28.571372	194.3	11.1	-77.5	6.7
2026-01-23 07:33:29.704701	194.3	11.0	-77.6	4.7
2026-01-23 07:33:30.838223	194.3	10.9	-77.2	3.7
2026-01-23 07:33:31.973953	194.3	10.8	-78.6	0.3
2026-01-23 07:33:33.108511	194.3	10.7	-79.7	0.0
2026-01-23 07:33:34.242202	194.3	10.6	-81.8	0.0
2026-01-23 07:33:35.376655	194.4	10.5	-82.8	0.0
2026-01-23 07:33:36.511222	194.4	10.4	-83.9	1.4
2026-01-23 07:33:37.647134	194.4	10.3	-84.8	0.0
2026-01-23 07:33:38.779294	194.4	10.2	-84.7	0.0
2026-01-23 07:33:39.912716	194.4	10.1	-84.5	0.0
#Closed at: 2026-01-23 07:22:53.674478