passes_logs/2026/01/10/T1/T1__20260110_134521_FENGYUN_3E_rec.log

#Pass ID: 20260110_134521_FENGYUN 3E
#Satellite: FENGYUN 3E
#Configuration: FENGYUN 3E
#almurnet v.1.7.20251203
#Start time: 2026-01-10 13:45:21

#Version: 2.0.20230620
#Station: T1
#Location: 37.570604 lon 55.790049 lat
#TLE: 1 49008U 21062A   26009.86154543 -.00000176  00000+0 -62220-4 0  9996
#TLE: 2 49008  98.7486  15.0498 0001782 147.3871 212.7416 14.19883371234110

#Time	Az	El	Level	Level2	SNR	BER	BlckErr	Temp	State	Recorded	gain1	gain2
2026-01-10 13:45:21.38	146.14	4.98	-47.3	-59.7	3.8	8.46e-01	0	38	0	0	64	15514
2026-01-10 13:45:22.38	146.12	5.05	-47.3	-59.7	3.8	8.47e-01	0	38	104	0	65	14692
2026-01-10 13:45:23.38	146.09	5.13	-47.3	-59.8	3.8	8.47e-01	0	38	104	0	65	14713
2026-01-10 13:45:24.39	146.07	5.20	-47.3	-59.7	3.8	8.47e-01	0	38	104	0	65	14646
2026-01-10 13:45:25.39	146.05	5.27	-47.3	-59.7	3.8	8.47e-01	0	38	104	0	65	14671
2026-01-10 13:45:26.40	146.02	5.34	-47.3	-59.7	3.8	8.48e-01	0	38	104	0	65	14644
2026-01-10 13:45:27.40	146.00	5.41	-47.3	-59.8	3.8	8.47e-01	0	38	104	0	65	14733
2026-01-10 13:45:28.41	145.97	5.49	-47.3	-59.7	3.8	8.47e-01	0	38	104	0	65	14655
2026-01-10 13:45:29.41	145.95	5.56	-47.3	-59.7	3.8	8.47e-01	0	38	104	0	65	14666
2026-01-10 13:45:30.42	145.93	5.63	-47.3	-59.8	3.8	8.46e-01	0	38	104	0	65	14739
2026-01-10 13:45:31.42	145.90	5.71	-47.3	-59.7	3.8	8.48e-01	0	38	104	0	65	14607
2026-01-10 13:45:32.42	145.88	5.78	-47.3	-59.8	3.8	8.47e-01	0	38	104	0	65	14780
2026-01-10 13:45:33.43	145.85	5.85	-47.3	-59.7	3.8	8.47e-01	0	38	104	0	65	14611
2026-01-10 13:45:34.43	145.83	5.93	-47.3	-59.7	3.8	8.47e-01	0	38	104	0	65	14633
2026-01-10 13:45:35.44	145.80	6.00	-47.3	-59.7	3.8	8.47e-01	0	38	104	0	65	14563
2026-01-10 13:45:36.44	145.78	6.07	-47.3	-59.7	3.8	8.46e-01	0	39	104	0	65	14641
2026-01-10 13:45:37.45	145.75	6.15	-47.3	-59.7	3.8	8.48e-01	0	39	104	0	65	14689
2026-01-10 13:45:38.45	145.73	6.22	-47.3	-59.7	3.8	8.47e-01	0	39	104	0	65	14706
2026-01-10 13:45:39.46	145.70	6.30	-47.3	-59.7	3.8	8.47e-01	0	39	104	0	65	14687
2026-01-10 13:45:40.46	145.68	6.37	-47.3	-59.7	3.8	8.46e-01	0	39	104	0	65	14611
2026-01-10 13:45:41.46	145.65	6.45	-47.3	-59.8	3.8	8.47e-01	0	39	104	0	65	14717
2026-01-10 13:45:42.47	145.63	6.52	-47.3	-59.7	3.8	8.47e-01	0	39	104	0	65	14692
2026-01-10 13:45:43.47	145.60	6.60	-47.3	-59.7	3.8	8.46e-01	0	39	104	0	65	14691
2026-01-10 13:45:44.48	145.58	6.67	-47.3	-59.7	3.8	8.47e-01	0	39	104	0	65	14650
2026-01-10 13:45:45.48	145.55	6.75	-47.3	-59.7	3.8	8.46e-01	0	39	104	0	65	14571
2026-01-10 13:45:46.49	145.52	6.83	-47.3	-59.8	3.8	8.47e-01	0	39	104	0	65	14713
2026-01-10 13:45:47.49	145.50	6.90	-47.3	-59.7	3.8	8.47e-01	0	39	104	0	65	14553
2026-01-10 13:45:48.50	145.47	6.98	-47.3	-59.8	3.8	8.47e-01	0	39	104	0	65	14741
2026-01-10 13:45:49.50	145.44	7.06	-47.3	-59.7	3.8	8.47e-01	0	39	104	0	65	14633
2026-01-10 13:45:50.50	145.42	7.13	-47.3	-59.7	3.8	8.47e-01	0	39	104	0	65	14676
2026-01-10 13:45:51.51	145.39	7.21	-47.3	-59.7	3.8	8.46e-01	0	39	104	0	65	14691
2026-01-10 13:45:52.51	145.36	7.29	-47.3	-59.8	3.8	8.46e-01	0	39	104	0	65	14749
2026-01-10 13:45:53.52	145.34	7.37	-47.3	-59.7	3.8	8.47e-01	0	39	104	0	65	14691
2026-01-10 13:45:54.52	145.31	7.44	-47.3	-59.7	3.8	8.46e-01	0	39	104	0	65	14588
2026-01-10 13:45:55.52	145.28	7.52	-47.3	-59.8	3.8	8.47e-01	0	39	104	0	65	14745
2026-01-10 13:45:56.53	145.25	7.60	-47.3	-59.8	3.8	8.46e-01	0	39	104	0	65	14709
2026-01-10 13:45:57.53	145.22	7.68	-47.3	-59.7	3.8	8.47e-01	0	40	104	0	65	14672
2026-01-10 13:45:58.54	145.20	7.76	-47.3	-59.7	3.8	8.47e-01	0	39	104	0	65	14694
2026-01-10 13:45:59.54	145.17	7.84	-47.3	-59.7	3.8	8.47e-01	0	39	104	0	65	14671
2026-01-10 13:46:00.55	145.14	7.92	-47.2	-59.7	3.8	8.48e-01	0	39	104	0	65	14614
2026-01-10 13:46:01.55	145.11	8.00	-47.3	-59.7	3.8	8.47e-01	0	39	104	0	65	14655
2026-01-10 13:46:02.55	145.08	8.08	-47.3	-59.7	3.8	8.47e-01	0	39	104	0	65	14586
2026-01-10 13:46:03.56	145.05	8.16	-47.3	-59.7	3.8	8.46e-01	0	39	104	0	65	14639
2026-01-10 13:46:04.56	145.02	8.24	-47.3	-59.7	3.8	8.46e-01	0	40	104	0	65	14614
2026-01-10 13:46:05.57	144.99	8.32	-47.3	-59.7	3.8	8.46e-01	0	39	104	0	65	14666
2026-01-10 13:46:06.57	144.97	8.40	-47.3	-59.7	3.8	8.47e-01	0	40	104	0	65	14667
2026-01-10 13:46:07.58	144.94	8.48	-47.3	-59.7	3.8	8.46e-01	0	40	104	0	65	14697
2026-01-10 13:46:08.58	144.91	8.56	-47.3	-59.8	3.8	8.46e-01	0	40	104	0	65	14766
2026-01-10 13:46:09.59	144.88	8.64	-47.3	-59.7	3.8	8.47e-01	0	40	104	0	65	14632
2026-01-10 13:46:10.59	144.85	8.72	-47.3	-59.7	3.8	8.47e-01	0	40	104	0	65	14603
2026-01-10 13:46:11.60	144.81	8.81	-47.2	-59.8	3.8	8.47e-01	0	40	104	0	65	14723
2026-01-10 13:46:12.60	144.78	8.89	-47.3	-59.7	3.8	8.47e-01	0	40	104	0	65	14688
2026-01-10 13:46:13.60	144.75	8.97	-47.3	-59.7	3.8	8.48e-01	0	40	104	0	65	14688
2026-01-10 13:46:14.61	144.72	9.06	-47.3	-59.7	3.8	8.48e-01	0	40	104	0	65	14661
2026-01-10 13:46:15.61	144.69	9.14	-47.3	-59.8	3.8	8.47e-01	0	40	104	0	65	14755
2026-01-10 13:46:16.62	144.66	9.22	-47.2	-59.8	3.8	8.48e-01	0	40	104	0	65	14720
2026-01-10 13:46:17.62	144.63	9.31	-47.3	-59.8	3.8	8.47e-01	0	40	104	0	65	14717
2026-01-10 13:46:18.63	144.60	9.39	-47.3	-59.7	3.8	8.48e-01	0	40	104	0	65	14695
2026-01-10 13:46:19.63	144.56	9.47	-47.3	-59.7	3.8	8.47e-01	0	40	104	0	65	14642
2026-01-10 13:46:20.63	144.53	9.56	-47.3	-59.8	3.8	8.49e-01	0	40	104	0	65	14726
2026-01-10 13:46:21.64	144.50	9.64	-47.3	-59.7	3.8	8.47e-01	0	40	104	0	65	14672
2026-01-10 13:46:22.64	144.47	9.73	-47.3	-59.7	3.8	8.46e-01	0	40	104	0	65	14704
2026-01-10 13:46:23.65	144.43	9.81	-47.3	-59.7	3.8	8.45e-01	0	40	104	0	65	14652
2026-01-10 13:46:24.65	144.40	9.90	-47.3	-59.7	3.8	8.47e-01	0	40	104	0	65	14704
2026-01-10 13:46:25.66	144.37	9.99	-47.3	-59.7	3.8	8.47e-01	0	40	104	0	65	14672
2026-01-10 13:46:26.66	144.34	10.07	-47.3	-59.8	3.8	8.48e-01	0	40	104	0	65	14726
2026-01-10 13:46:27.67	144.30	10.16	-47.3	-59.7	3.8	8.46e-01	0	40	104	0	65	14680
2026-01-10 13:46:28.67	144.27	10.25	-47.3	-59.7	3.8	8.46e-01	0	40	104	0	65	14674
2026-01-10 13:46:29.67	144.23	10.33	-47.3	-59.8	3.8	8.47e-01	0	40	104	0	65	14749
2026-01-10 13:46:30.68	144.20	10.42	-47.3	-59.8	3.8	8.47e-01	0	40	104	0	65	14715
2026-01-10 13:46:31.68	144.17	10.51	-47.3	-59.8	3.8	8.47e-01	0	40	104	0	65	14772
2026-01-10 13:46:32.69	144.13	10.60	-47.3	-59.7	3.8	8.46e-01	0	40	104	0	65	14604
2026-01-10 13:46:33.69	144.10	10.69	-47.3	-59.7	3.8	8.48e-01	0	40	104	0	65	14614
2026-01-10 13:46:34.70	144.06	10.77	-47.3	-59.7	3.8	8.48e-01	0	40	104	0	65	14647
2026-01-10 13:46:35.70	144.02	10.86	-47.3	-59.8	3.8	8.46e-01	0	40	104	0	65	14727
2026-01-10 13:46:36.70	143.99	10.95	-47.3	-59.8	3.8	8.47e-01	0	40	104	0	65	14715
2026-01-10 13:46:37.71	143.95	11.04	-47.3	-59.7	3.8	8.48e-01	0	40	104	0	65	14661
2026-01-10 13:46:38.71	143.92	11.13	-47.3	-59.8	3.8	8.47e-01	0	40	104	0	65	14764
2026-01-10 13:46:39.71	143.88	11.22	-47.3	-59.8	3.8	8.47e-01	0	40	104	0	65	14760
2026-01-10 13:46:40.72	143.84	11.31	-47.3	-59.7	3.8	8.48e-01	0	40	104	0	65	14670
2026-01-10 13:46:41.72	143.81	11.40	-47.3	-59.7	3.8	8.46e-01	0	40	104	0	65	14654
2026-01-10 13:46:42.73	143.77	11.50	-47.3	-59.8	3.8	8.47e-01	0	40	104	0	65	14730
2026-01-10 13:46:43.73	143.73	11.59	-47.3	-59.8	3.8	8.46e-01	0	40	104	0	65	14736
2026-01-10 13:46:44.74	143.70	11.68	-47.3	-59.8	3.8	8.47e-01	0	40	104	0	65	14709
2026-01-10 13:46:45.74	143.66	11.77	-47.3	-59.7	3.8	8.47e-01	0	40	104	0	65	14645
2026-01-10 13:46:46.75	143.62	11.86	-47.3	-59.7	3.8	8.46e-01	0	40	104	0	65	14693
2026-01-10 13:46:47.75	143.58	11.96	-47.3	-59.8	3.8	8.47e-01	0	40	104	0	65	14718
2026-01-10 13:46:48.76	143.54	12.05	-47.3	-59.7	3.8	8.46e-01	0	40	104	0	65	14653
2026-01-10 13:46:49.76	143.50	12.14	-47.3	-59.7	3.8	8.47e-01	0	40	104	0	65	14689
2026-01-10 13:46:50.76	143.47	12.24	-47.3	-59.8	3.8	8.47e-01	0	40	104	0	65	14722
2026-01-10 13:46:51.77	143.43	12.33	-47.3	-59.8	3.8	8.46e-01	0	40	104	0	65	14714
2026-01-10 13:46:52.77	143.39	12.43	-47.3	-59.8	3.8	8.48e-01	0	40	104	0	65	14775
2026-01-10 13:46:53.78	143.35	12.52	-47.2	-59.7	3.8	8.48e-01	0	40	104	0	65	14619
2026-01-10 13:46:54.78	143.31	12.62	-47.3	-59.8	3.8	8.47e-01	0	40	104	0	65	14752
2026-01-10 13:46:55.78	143.27	12.71	-47.3	-59.8	3.8	8.47e-01	0	40	104	0	65	14847
2026-01-10 13:46:56.79	143.22	12.81	-47.2	-59.7	3.8	8.46e-01	0	41	104	0	65	14658
2026-01-10 13:46:57.79	143.18	12.91	-47.3	-59.7	3.8	8.46e-01	0	40	104	0	65	14677
2026-01-10 13:46:58.80	143.14	13.00	-47.3	-59.7	3.8	8.48e-01	0	40	104	0	65	14700
2026-01-10 13:46:59.80	143.10	13.10	-47.3	-59.7	3.8	8.48e-01	0	40	104	0	65	14683
2026-01-10 13:47:00.81	143.06	13.20	-47.3	-59.8	3.8	8.47e-01	0	41	104	0	65	14766
2026-01-10 13:47:01.81	143.02	13.30	-47.3	-59.7	3.8	8.48e-01	0	40	104	0	65	14616
2026-01-10 13:47:02.82	142.97	13.40	-47.3	-59.7	3.8	8.47e-01	0	40	104	0	65	14613
2026-01-10 13:47:03.82	142.93	13.49	-47.3	-59.7	3.8	8.47e-01	0	40	104	0	65	14703
2026-01-10 13:47:04.82	142.89	13.59	-47.3	-59.8	3.8	8.46e-01	0	40	104	0	65	14712
2026-01-10 13:47:05.83	142.84	13.69	-47.3	-59.7	3.8	8.47e-01	0	41	104	0	65	14695
2026-01-10 13:47:06.83	142.80	13.79	-47.3	-59.8	3.8	8.47e-01	0	40	104	0	65	14712
2026-01-10 13:47:07.83	142.76	13.89	-47.3	-59.8	3.8	8.47e-01	0	40	104	0	65	14723
2026-01-10 13:47:08.84	142.71	13.99	-47.2	-59.8	3.8	8.47e-01	0	41	104	0	65	14748
2026-01-10 13:47:09.84	142.67	14.09	-47.3	-59.7	3.8	8.45e-01	0	41	104	0	65	14693
2026-01-10 13:47:10.85	142.62	14.20	-47.2	-59.8	3.8	8.47e-01	0	40	104	0	65	14767
2026-01-10 13:47:11.85	142.58	14.30	-47.3	-59.7	3.8	8.46e-01	0	41	104	0	65	14705
2026-01-10 13:47:12.86	142.53	14.40	-47.3	-59.7	3.8	8.46e-01	0	41	104	0	65	14695
2026-01-10 13:47:13.86	142.49	14.50	-47.3	-59.8	3.8	8.46e-01	0	41	104	0	65	14734
2026-01-10 13:47:14.87	142.44	14.61	-47.3	-59.8	3.8	8.46e-01	0	40	104	0	65	14713
2026-01-10 13:47:15.87	142.39	14.71	-47.3	-59.8	3.8	8.47e-01	0	41	104	0	65	14764
2026-01-10 13:47:16.87	142.35	14.81	-47.3	-59.8	3.8	8.47e-01	0	41	104	0	65	14735
2026-01-10 13:47:17.88	142.30	14.92	-47.3	-59.8	3.8	8.46e-01	0	41	104	0	65	14724
2026-01-10 13:47:18.84	142.25	15.02	-47.3	-59.7	3.8	8.48e-01	0	41	104	0	65	14689
2026-01-10 13:47:19.85	142.20	15.12	-47.3	-59.8	3.8	8.46e-01	0	41	104	0	65	14734
2026-01-10 13:47:20.85	142.16	15.23	-47.3	-59.8	3.8	8.48e-01	0	41	104	0	65	14747
2026-01-10 13:47:21.85	142.11	15.34	-47.3	-59.8	3.8	8.46e-01	0	40	104	0	65	14717
2026-01-10 13:47:22.86	142.06	15.44	-47.2	-59.8	3.8	8.47e-01	0	41	104	0	65	14718
2026-01-10 13:47:23.86	142.01	15.55	-47.2	-59.7	3.8	8.46e-01	0	41	104	0	65	14704
2026-01-10 13:47:24.87	141.96	15.66	-47.3	-59.8	3.8	8.46e-01	0	40	104	0	65	14826
2026-01-10 13:47:25.87	141.91	15.77	-47.2	-59.8	3.8	8.47e-01	0	41	104	0	65	14817
2026-01-10 13:47:26.88	141.86	15.87	-47.2	-59.7	3.8	8.48e-01	0	40	104	0	65	14707
2026-01-10 13:47:27.88	141.81	15.98	-47.3	-59.8	3.8	8.47e-01	0	40	104	0	65	14736
2026-01-10 13:47:28.88	141.76	16.09	-47.3	-59.8	3.8	8.46e-01	0	40	104	0	65	14722
2026-01-10 13:47:29.89	141.70	16.20	-47.3	-59.7	3.8	8.47e-01	0	41	104	0	65	14681
2026-01-10 13:47:30.89	141.65	16.31	-47.3	-59.8	3.8	8.47e-01	0	41	104	0	65	14807
2026-01-10 13:47:31.90	141.60	16.42	-47.3	-59.7	3.8	8.49e-01	0	40	104	0	65	14681
2026-01-10 13:47:32.90	141.55	16.53	-47.2	-59.8	3.8	8.46e-01	0	40	104	0	65	14769
2026-01-10 13:47:33.91	141.49	16.65	-47.2	-59.7	3.8	8.47e-01	0	41	104	0	65	14684
2026-01-10 13:47:34.91	141.44	16.76	-47.3	-59.8	3.8	8.47e-01	0	40	104	0	65	14773
2026-01-10 13:47:35.92	141.38	16.87	-47.2	-59.8	3.8	8.46e-01	0	40	104	0	65	14719
2026-01-10 13:47:36.92	141.33	16.98	-47.2	-59.7	3.8	8.47e-01	0	41	104	0	65	14695
2026-01-10 13:47:37.92	141.28	17.10	-47.2	-59.7	3.8	8.48e-01	0	41	104	0	65	14699
2026-01-10 13:47:38.93	141.22	17.21	-47.3	-59.8	3.8	8.48e-01	0	41	104	0	65	14836
2026-01-10 13:47:39.93	141.16	17.33	-47.3	-59.8	3.8	8.47e-01	0	41	104	0	65	14714
2026-01-10 13:47:40.94	141.11	17.44	-47.3	-59.7	3.8	8.47e-01	0	40	104	0	65	14629
2026-01-10 13:47:41.94	141.05	17.56	-47.3	-59.7	3.8	8.47e-01	0	41	104	0	65	14701
2026-01-10 13:47:42.95	140.99	17.67	-47.3	-59.8	3.8	8.47e-01	0	41	104	0	65	14739
2026-01-10 13:47:43.95	140.93	17.79	-47.2	-59.7	3.8	8.48e-01	0	41	104	0	65	14700
2026-01-10 13:47:44.96	140.88	17.91	-47.3	-59.8	3.8	8.46e-01	0	41	104	0	65	14716
2026-01-10 13:47:45.96	140.82	18.03	-47.2	-59.8	3.8	8.47e-01	0	41	104	0	65	14785
2026-01-10 13:47:46.96	140.76	18.14	-47.3	-59.7	3.8	8.47e-01	0	41	104	0	65	14705
2026-01-10 13:47:47.97	140.70	18.26	-47.3	-59.7	3.8	8.47e-01	0	41	104	0	65	14694
2026-01-10 13:47:48.97	140.64	18.38	-47.3	-59.7	3.8	8.46e-01	0	41	104	0	65	14648
2026-01-10 13:47:49.98	140.58	18.50	-47.3	-59.7	3.8	8.46e-01	0	41	104	0	65	14690
2026-01-10 13:47:50.98	140.52	18.62	-47.3	-59.7	3.8	8.48e-01	0	41	104	0	65	14701
2026-01-10 13:47:51.99	140.45	18.75	-47.3	-59.8	3.8	8.47e-01	0	41	104	0	65	14746
2026-01-10 13:47:52.99	140.39	18.87	-47.3	-59.7	3.8	8.46e-01	0	41	104	0	65	14705
2026-01-10 13:47:53.99	140.33	18.99	-47.2	-59.8	3.8	8.47e-01	0	41	104	0	65	14779
2026-01-10 13:47:55.00	140.27	19.11	-47.2	-59.8	3.8	8.47e-01	0	41	104	0	65	14721
2026-01-10 13:47:56.00	140.20	19.23	-47.2	-59.7	3.8	8.47e-01	0	40	104	0	65	14657
2026-01-10 13:47:57.01	140.14	19.36	-47.3	-59.8	3.8	8.46e-01	0	41	104	0	65	14719
2026-01-10 13:47:58.01	140.07	19.48	-47.3	-59.7	3.8	8.47e-01	0	41	104	0	65	14663
2026-01-10 13:47:59.01	140.01	19.61	-47.3	-59.8	3.8	8.46e-01	0	41	104	0	65	14723
2026-01-10 13:48:00.02	139.94	19.73	-47.3	-59.7	3.8	8.47e-01	0	41	104	0	65	14705
2026-01-10 13:48:01.02	139.88	19.86	-47.3	-59.8	3.8	8.47e-01	0	41	104	0	65	14743
2026-01-10 13:48:02.03	139.81	19.99	-47.3	-59.8	3.8	8.46e-01	0	41	104	0	65	14872
2026-01-10 13:48:03.03	139.74	20.12	-47.2	-59.8	3.8	8.46e-01	0	41	104	0	65	14711
2026-01-10 13:48:04.04	139.67	20.24	-47.3	-59.7	3.8	8.46e-01	0	41	104	0	65	14676
2026-01-10 13:48:05.04	139.60	20.37	-47.3	-59.7	3.8	8.47e-01	0	41	104	0	65	14676
2026-01-10 13:48:06.04	139.53	20.50	-47.3	-59.8	3.8	8.46e-01	0	41	104	0	65	14796
2026-01-10 13:48:07.05	139.46	20.63	-47.3	-59.7	3.8	8.47e-01	0	41	104	0	65	14702
2026-01-10 13:48:08.05	139.39	20.76	-47.3	-59.7	3.8	8.46e-01	0	41	104	0	65	14697
2026-01-10 13:48:09.06	139.32	20.89	-47.3	-59.7	3.8	8.46e-01	0	41	104	0	65	14699
2026-01-10 13:48:10.06	139.25	21.03	-47.3	-59.7	3.8	8.46e-01	0	41	104	0	65	14621
2026-01-10 13:48:11.06	139.18	21.16	-47.3	-59.8	3.8	8.47e-01	0	41	104	0	65	14746
2026-01-10 13:48:12.07	139.10	21.29	-47.3	-59.7	3.8	8.47e-01	0	41	104	0	65	14706
2026-01-10 13:48:13.08	139.03	21.43	-47.3	-59.8	3.8	8.47e-01	0	41	104	0	65	14835
2026-01-10 13:48:14.08	138.95	21.56	-47.3	-59.8	3.8	8.47e-01	0	41	104	0	65	14715
2026-01-10 13:48:15.08	138.88	21.69	-47.3	-59.7	3.8	8.47e-01	0	41	104	0	65	14708
2026-01-10 13:48:16.09	138.80	21.83	-47.2	-59.7	3.8	8.46e-01	0	41	104	0	65	14703
2026-01-10 13:48:17.09	138.73	21.97	-47.3	-59.8	3.8	8.47e-01	0	41	104	0	65	14811
2026-01-10 13:48:18.09	138.65	22.10	-47.3	-59.7	3.8	8.45e-01	0	41	104	0	65	14642
2026-01-10 13:48:19.10	138.57	22.24	-47.3	-59.7	3.8	8.46e-01	0	41	104	0	65	14675
2026-01-10 13:48:20.10	138.49	22.38	-47.2	-59.8	3.8	8.47e-01	0	41	104	0	65	14782
2026-01-10 13:48:21.11	138.41	22.52	-47.2	-59.8	3.8	8.47e-01	0	41	104	0	65	14726
2026-01-10 13:48:22.11	138.33	22.66	-47.2	-59.7	3.8	8.47e-01	0	41	104	0	65	14700
2026-01-10 13:48:23.11	138.25	22.80	-47.3	-59.7	3.8	8.49e-01	0	41	104	0	65	14638
2026-01-10 13:48:24.12	138.17	22.94	-47.2	-59.7	3.8	8.47e-01	0	41	104	0	65	14607
2026-01-10 13:48:25.12	138.09	23.08	-47.2	-59.8	3.8	8.47e-01	0	41	104	0	65	14743
2026-01-10 13:48:26.13	138.00	23.23	-47.2	-59.7	3.8	8.47e-01	0	40	104	0	65	14624
2026-01-10 13:48:27.13	137.92	23.37	-47.3	-59.7	3.8	8.46e-01	0	41	104	0	65	14609
2026-01-10 13:48:28.14	137.83	23.52	-47.2	-59.7	3.8	8.47e-01	0	41	104	0	65	14696
2026-01-10 13:48:29.14	137.75	23.66	-47.3	-59.7	3.8	8.46e-01	0	41	104	0	65	14704
2026-01-10 13:48:30.15	137.66	23.81	-47.3	-59.7	3.8	8.47e-01	0	40	104	0	65	14681
2026-01-10 13:48:31.15	137.57	23.95	-47.3	-59.7	3.8	8.45e-01	0	41	104	0	65	14681
2026-01-10 13:48:32.15	137.49	24.10	-47.3	-59.8	3.8	8.46e-01	0	41	104	0	65	14733
2026-01-10 13:48:33.16	137.40	24.25	-47.2	-59.7	3.8	8.46e-01	0	41	104	0	65	14641
2026-01-10 13:48:34.17	137.31	24.40	-47.2	-59.7	3.8	8.46e-01	0	41	104	0	65	14636
2026-01-10 13:48:35.17	137.22	24.55	-47.2	-59.7	3.8	8.47e-01	0	41	104	0	65	14623
2026-01-10 13:48:36.17	137.12	24.70	-47.2	-59.7	3.8	8.47e-01	0	41	104	0	65	14699
2026-01-10 13:48:37.18	137.03	24.85	-47.2	-59.7	3.8	8.47e-01	0	41	104	0	65	14689
2026-01-10 13:48:38.18	136.94	25.00	-47.2	-59.7	3.8	8.47e-01	0	41	104	0	65	14666
2026-01-10 13:48:39.19	136.84	25.15	-47.2	-59.7	3.8	8.48e-01	0	41	104	0	65	14681
2026-01-10 13:48:40.19	136.75	25.31	-47.2	-59.8	3.8	8.48e-01	0	41	104	0	65	14731
2026-01-10 13:48:41.20	136.65	25.46	-47.2	-59.7	3.8	8.47e-01	0	41	104	0	65	14624
2026-01-10 13:48:42.20	136.55	25.62	-47.2	-59.7	3.8	8.48e-01	0	41	104	0	65	14607
2026-01-10 13:48:43.21	136.46	25.77	-47.2	-59.8	3.8	8.47e-01	0	41	104	0	65	14749
2026-01-10 13:48:44.21	136.36	25.93	-47.2	-59.8	3.8	8.47e-01	0	41	104	0	65	14710
2026-01-10 13:48:45.21	136.26	26.09	-47.2	-59.7	3.8	8.47e-01	0	41	104	0	65	14698
2026-01-10 13:48:46.22	136.15	26.24	-47.2	-59.7	3.8	8.46e-01	0	41	104	0	65	14686
2026-01-10 13:48:47.22	136.05	26.40	-47.2	-59.7	3.8	8.47e-01	0	41	104	0	65	14663
2026-01-10 13:48:48.23	135.95	26.56	-47.2	-59.7	3.8	8.47e-01	0	41	104	0	65	14620
2026-01-10 13:48:49.23	135.84	26.72	-47.3	-59.7	3.8	8.46e-01	0	41	104	0	65	14618
2026-01-10 13:48:50.24	135.74	26.89	-47.2	-59.7	3.8	8.47e-01	0	41	104	0	65	14647
2026-01-10 13:48:51.24	135.63	27.05	-47.2	-59.8	3.8	8.48e-01	0	40	104	0	65	14709
2026-01-10 13:48:52.25	135.52	27.21	-47.3	-59.8	3.8	8.46e-01	0	41	104	0	65	14721
2026-01-10 13:48:53.25	135.41	27.38	-47.3	-59.8	3.8	8.47e-01	0	41	104	0	65	14716
2026-01-10 13:48:54.25	135.31	27.54	-47.2	-59.7	3.8	8.48e-01	0	41	104	0	65	14641
2026-01-10 13:48:55.26	135.19	27.71	-47.3	-59.7	3.8	8.46e-01	0	41	104	0	65	14588
2026-01-10 13:48:56.26	135.08	27.88	-47.2	-59.8	3.8	8.48e-01	0	41	104	0	65	14739
2026-01-10 13:48:57.26	134.97	28.04	-47.2	-59.8	3.8	8.47e-01	0	41	104	0	65	14730
2026-01-10 13:48:58.27	134.85	28.21	-47.2	-59.8	3.8	8.46e-01	0	41	104	0	65	14726
2026-01-10 13:48:59.27	134.74	28.38	-47.2	-59.7	3.8	8.46e-01	0	41	104	0	65	14681
2026-01-10 13:49:00.28	134.62	28.55	-47.2	-59.8	3.8	8.47e-01	0	41	104	0	65	14710
2026-01-10 13:49:01.28	134.50	28.72	-47.2	-59.7	3.8	8.48e-01	0	41	104	0	65	14606
2026-01-10 13:49:02.29	134.38	28.90	-47.2	-59.8	3.8	8.46e-01	0	41	104	0	65	14755
2026-01-10 13:49:03.29	134.26	29.07	-47.2	-59.7	3.8	8.45e-01	0	41	104	0	65	14600
2026-01-10 13:49:04.30	134.13	29.24	-47.2	-59.7	3.8	8.47e-01	0	41	104	0	65	14666
2026-01-10 13:49:05.30	134.01	29.42	-47.2	-59.7	3.8	8.48e-01	0	41	104	0	65	14673
2026-01-10 13:49:06.30	133.89	29.59	-47.2	-59.7	3.8	8.46e-01	0	41	104	0	65	14681
2026-01-10 13:49:07.31	133.76	29.77	-47.2	-59.7	3.8	8.47e-01	0	41	104	0	65	14648
2026-01-10 13:49:08.31	133.63	29.95	-47.2	-59.7	3.8	8.47e-01	0	41	104	0	65	14615
2026-01-10 13:49:09.31	133.50	30.13	-47.2	-59.8	3.8	8.48e-01	0	41	104	0	65	14747
2026-01-10 13:49:10.32	133.37	30.31	-47.2	-59.7	3.8	8.46e-01	0	41	104	0	65	14627
2026-01-10 13:49:11.32	133.24	30.49	-47.3	-59.7	3.8	8.45e-01	0	41	104	0	65	14655
2026-01-10 13:49:12.33	133.10	30.67	-47.3	-59.7	3.8	8.47e-01	0	41	104	0	65	14583
2026-01-10 13:49:13.33	132.97	30.85	-47.2	-59.7	3.8	8.46e-01	0	41	104	0	65	14675
2026-01-10 13:49:14.33	132.83	31.04	-47.2	-59.7	3.8	8.47e-01	0	41	104	0	65	14684
2026-01-10 13:49:15.34	132.69	31.22	-47.2	-59.7	3.8	8.47e-01	0	41	104	0	65	14631
2026-01-10 13:49:16.34	132.55	31.41	-47.2	-59.7	3.8	8.47e-01	0	41	104	0	65	14644
2026-01-10 13:49:17.35	132.41	31.60	-47.3	-59.7	3.8	8.47e-01	0	41	104	0	65	14703
2026-01-10 13:49:18.35	132.26	31.78	-47.2	-59.7	3.8	8.47e-01	0	41	104	0	65	14613
2026-01-10 13:49:19.36	132.12	31.97	-47.2	-59.7	3.8	8.48e-01	0	41	104	0	65	14636
2026-01-10 13:49:20.36	131.97	32.16	-47.2	-59.7	3.8	8.46e-01	0	41	104	0	65	14594
2026-01-10 13:49:21.36	131.82	32.35	-47.2	-59.7	3.8	8.47e-01	0	41	104	0	65	14685
2026-01-10 13:49:22.37	131.67	32.54	-47.2	-59.7	3.8	8.48e-01	0	41	104	0	65	14668
2026-01-10 13:49:23.37	131.52	32.74	-47.3	-59.7	3.8	8.47e-01	0	41	104	0	65	14650
2026-01-10 13:49:24.38	131.36	32.93	-47.3	-59.7	3.8	8.47e-01	0	41	104	0	65	14684
2026-01-10 13:49:25.38	131.21	33.12	-47.2	-59.7	3.8	8.48e-01	0	41	104	0	65	14701
2026-01-10 13:49:26.38	131.05	33.32	-47.2	-59.7	3.8	8.47e-01	0	41	104	0	65	14615
2026-01-10 13:49:27.39	130.89	33.52	-47.2	-59.7	3.8	8.47e-01	0	41	104	0	65	14691
2026-01-10 13:49:28.40	130.72	33.72	-47.2	-59.7	3.8	8.46e-01	0	41	104	0	65	14700
2026-01-10 13:49:29.40	130.56	33.91	-47.2	-59.7	3.8	8.46e-01	0	41	104	0	65	14688
2026-01-10 13:49:30.40	130.39	34.11	-47.2	-59.7	3.8	8.48e-01	0	41	104	0	65	14691
2026-01-10 13:49:31.41	130.23	34.31	-47.2	-59.7	3.8	8.46e-01	0	41	104	0	65	14662
2026-01-10 13:49:32.41	130.06	34.51	-47.2	-59.8	3.8	8.47e-01	0	41	104	0	65	14740
2026-01-10 13:49:33.42	129.88	34.72	-47.2	-59.7	3.8	8.48e-01	0	41	104	0	65	14641
2026-01-10 13:49:34.42	129.71	34.92	-47.2	-59.7	3.8	8.46e-01	0	41	104	0	65	14691
2026-01-10 13:49:35.42	129.53	35.13	-47.2	-59.7	3.8	8.46e-01	0	41	104	0	65	14599
2026-01-10 13:49:36.43	129.35	35.33	-47.2	-59.7	3.8	8.45e-01	0	41	104	0	65	14699
2026-01-10 13:49:37.43	129.17	35.54	-47.2	-59.7	3.8	8.47e-01	0	41	104	0	65	14667
2026-01-10 13:49:38.44	128.98	35.75	-47.2	-59.8	3.8	8.47e-01	0	41	104	0	65	14774
2026-01-10 13:49:39.44	128.80	35.95	-47.2	-59.7	3.8	8.48e-01	0	41	104	0	65	14617
2026-01-10 13:49:40.45	128.61	36.17	-47.2	-59.7	3.8	8.48e-01	0	41	104	0	65	14652
2026-01-10 13:49:41.45	128.42	36.38	-47.2	-59.7	3.8	8.47e-01	0	41	104	0	65	14573
2026-01-10 13:49:42.46	128.22	36.59	-47.2	-59.7	3.8	8.47e-01	0	41	104	0	65	14651
2026-01-10 13:49:43.46	128.03	36.80	-47.2	-59.7	3.8	8.47e-01	0	41	104	0	65	14629
2026-01-10 13:49:44.46	127.83	37.01	-47.2	-59.7	3.8	8.47e-01	0	41	104	0	65	14660
2026-01-10 13:49:45.47	127.62	37.23	-47.2	-59.7	3.8	8.46e-01	0	41	104	0	65	14693
2026-01-10 13:49:46.47	127.42	37.44	-47.2	-59.7	3.8	8.47e-01	0	41	104	0	65	14617
2026-01-10 13:49:47.48	127.21	37.66	-47.3	-59.7	3.8	8.47e-01	0	41	104	0	65	14698
2026-01-10 13:49:48.48	127.00	37.88	-47.3	-59.7	3.8	8.48e-01	0	41	104	0	65	14706
2026-01-10 13:49:49.49	126.79	38.10	-47.3	-59.7	3.8	8.48e-01	0	41	104	0	65	14636
2026-01-10 13:49:50.49	126.57	38.32	-47.2	-59.7	3.8	8.46e-01	0	41	104	0	65	14556
2026-01-10 13:49:51.49	126.36	38.54	-47.3	-59.8	3.8	8.47e-01	0	41	104	0	65	14759
2026-01-10 13:49:52.50	126.13	38.76	-47.2	-59.7	3.8	8.47e-01	0	41	104	0	65	14631
2026-01-10 13:49:53.50	125.91	38.98	-47.2	-59.7	3.8	8.46e-01	0	41	104	0	65	14656
2026-01-10 13:49:54.51	125.68	39.21	-47.2	-59.8	3.8	8.47e-01	0	41	104	0	65	14773
2026-01-10 13:49:55.51	125.45	39.43	-47.2	-59.7	3.8	8.47e-01	0	41	104	0	65	14637
2026-01-10 13:49:56.51	125.21	39.65	-47.2	-59.7	3.8	8.48e-01	0	41	104	0	65	14658
2026-01-10 13:49:57.52	124.98	39.88	-47.3	-59.7	3.8	8.47e-01	0	41	104	0	65	14627
2026-01-10 13:49:58.52	124.74	40.11	-47.3	-59.8	3.8	8.47e-01	0	41	104	0	65	14816
2026-01-10 13:49:59.52	124.49	40.33	-47.3	-59.8	3.8	8.46e-01	0	41	104	0	65	14714
2026-01-10 13:50:00.53	124.24	40.56	-47.3	-59.7	3.8	8.47e-01	0	41	104	0	65	14685
2026-01-10 13:50:01.54	123.99	40.80	-47.3	-59.8	3.8	8.47e-01	0	41	104	0	65	14793
2026-01-10 13:50:02.54	123.73	41.02	-47.3	-59.7	3.8	8.47e-01	0	41	104	0	65	14639
2026-01-10 13:50:03.54	123.48	41.25	-47.3	-59.7	3.8	8.47e-01	0	41	104	0	65	14695
2026-01-10 13:50:04.55	123.21	41.49	-47.3	-59.8	3.8	8.47e-01	0	41	104	0	65	14721
2026-01-10 13:50:05.55	122.95	41.72	-47.3	-59.7	3.8	8.47e-01	0	41	104	0	65	14652
2026-01-10 13:50:06.56	122.67	41.95	-47.3	-59.7	3.8	8.46e-01	0	41	104	0	65	14698
2026-01-10 13:50:07.56	122.40	42.19	-47.3	-59.7	3.8	8.47e-01	0	41	104	0	65	14670
2026-01-10 13:50:08.56	122.12	42.42	-47.3	-59.7	3.8	8.46e-01	0	41	104	0	65	14670
2026-01-10 13:50:09.57	121.84	42.66	-47.3	-59.8	3.8	8.47e-01	0	41	104	0	65	14743
2026-01-10 13:50:10.57	121.55	42.89	-47.3	-59.7	3.8	8.47e-01	0	41	104	0	65	14686
2026-01-10 13:50:11.58	121.26	43.13	-47.3	-59.8	3.8	8.47e-01	0	41	104	0	65	14795
2026-01-10 13:50:12.58	120.97	43.37	-47.3	-59.7	3.8	8.47e-01	0	41	104	0	65	14596
2026-01-10 13:50:13.59	120.66	43.61	-47.3	-59.7	3.8	8.47e-01	0	41	104	0	65	14672
2026-01-10 13:50:14.59	120.36	43.85	-47.3	-59.8	3.8	8.48e-01	0	41	104	0	65	14719
2026-01-10 13:50:15.60	120.05	44.09	-47.3	-59.7	3.8	8.46e-01	0	41	104	0	65	14690
2026-01-10 13:50:16.60	119.74	44.33	-47.3	-59.7	3.8	8.48e-01	0	41	104	0	65	14694
2026-01-10 13:50:17.60	119.42	44.57	-47.3	-59.7	3.8	8.47e-01	0	41	104	0	65	14651
2026-01-10 13:50:18.61	119.09	44.81	-47.3	-59.7	3.8	8.46e-01	0	41	104	0	65	14706
2026-01-10 13:50:19.61	118.77	45.05	-47.3	-59.7	3.8	8.46e-01	0	41	104	0	65	14705
2026-01-10 13:50:20.62	118.43	45.29	-47.3	-59.7	3.8	8.46e-01	0	41	104	0	65	14634
2026-01-10 13:50:21.62	118.09	45.53	-47.3	-59.7	3.8	8.47e-01	0	41	104	0	65	14668
2026-01-10 13:50:22.62	117.75	45.77	-47.3	-59.7	3.8	8.47e-01	0	41	104	0	65	14638
2026-01-10 13:50:23.63	117.40	46.02	-47.3	-59.7	3.8	8.47e-01	0	41	104	0	65	14676
2026-01-10 13:50:24.63	117.04	46.26	-47.3	-59.7	3.8	8.46e-01	0	41	104	0	65	14700
2026-01-10 13:50:25.64	116.68	46.51	-47.3	-59.7	3.8	8.48e-01	0	41	104	0	65	14620
2026-01-10 13:50:26.64	116.32	46.75	-47.3	-59.7	3.8	8.47e-01	0	41	104	0	65	14697
2026-01-10 13:50:27.64	115.95	46.99	-47.3	-59.7	3.8	8.47e-01	0	41	104	0	65	14675
2026-01-10 13:50:28.65	115.57	47.23	-47.2	-59.7	3.8	8.45e-01	0	41	104	0	65	14662
2026-01-10 13:50:29.65	115.18	47.48	-47.2	-59.7	3.8	8.47e-01	0	41	104	0	65	14689
2026-01-10 13:50:30.66	114.79	47.72	-47.3	-59.7	3.8	8.46e-01	0	41	104	0	65	14660
2026-01-10 13:50:31.66	114.40	47.96	-47.3	-59.7	3.8	8.47e-01	0	41	104	0	65	14664
2026-01-10 13:50:32.66	114.00	48.21	-47.3	-59.7	3.8	8.48e-01	0	41	104	0	65	14581
2026-01-10 13:50:33.67	113.59	48.45	-47.2	-59.8	3.8	8.47e-01	0	41	104	0	65	14725
2026-01-10 13:50:34.67	113.17	48.69	-47.3	-59.7	3.8	8.47e-01	0	41	104	0	65	14685
2026-01-10 13:50:35.68	112.75	48.94	-47.2	-59.8	3.8	8.46e-01	0	41	104	0	65	14753
2026-01-10 13:50:36.68	112.32	49.18	-47.3	-59.7	3.8	8.47e-01	0	41	104	0	65	14644
2026-01-10 13:50:37.69	111.88	49.42	-47.3	-59.8	3.8	8.45e-01	0	41	104	0	65	14729
2026-01-10 13:50:38.69	111.44	49.66	-47.3	-59.7	3.8	8.47e-01	0	41	104	0	65	14642
2026-01-10 13:50:39.69	110.99	49.90	-47.3	-59.7	3.8	8.46e-01	0	41	104	0	65	14646
2026-01-10 13:50:40.70	110.54	50.14	-47.3	-59.7	3.8	8.46e-01	0	41	104	0	65	14663
2026-01-10 13:50:41.70	110.07	50.38	-47.3	-59.8	3.8	8.47e-01	0	41	104	0	65	14793
2026-01-10 13:50:42.71	109.60	50.62	-47.3	-59.7	3.8	8.47e-01	0	41	104	0	65	14692
2026-01-10 13:50:43.71	109.12	50.85	-47.3	-59.7	3.8	8.47e-01	0	41	104	0	65	14661
2026-01-10 13:50:44.72	108.63	51.09	-47.3	-59.7	3.8	8.47e-01	0	41	104	0	65	14600
2026-01-10 13:50:45.72	108.14	51.33	-47.3	-59.7	3.8	8.46e-01	0	41	104	0	65	14634
2026-01-10 13:50:46.73	107.64	51.56	-47.3	-59.7	3.8	8.46e-01	0	41	104	0	65	14687
2026-01-10 13:50:47.73	107.13	51.79	-47.3	-59.7	3.8	8.47e-01	0	41	104	0	65	14695
2026-01-10 13:50:48.73	106.61	52.02	-47.3	-59.7	3.8	8.47e-01	0	41	104	0	65	14563
2026-01-10 13:50:49.74	106.08	52.26	-47.3	-59.7	3.8	8.48e-01	0	41	104	0	65	14577
2026-01-10 13:50:50.74	105.55	52.48	-47.3	-59.7	3.8	8.46e-01	0	41	104	0	65	14624
2026-01-10 13:50:51.74	105.01	52.71	-47.3	-59.7	3.8	8.47e-01	0	41	104	0	65	14679
2026-01-10 13:50:52.75	104.45	52.94	-47.3	-59.8	3.8	8.48e-01	0	41	104	0	65	14716
2026-01-10 13:50:53.75	103.90	53.16	-47.3	-59.7	3.8	8.47e-01	0	41	104	0	65	14687
2026-01-10 13:50:54.76	103.33	53.38	-47.3	-59.7	3.8	8.47e-01	0	41	104	0	65	14670
2026-01-10 13:50:55.76	102.75	53.60	-47.3	-59.7	3.8	8.46e-01	0	41	104	0	65	14619
2026-01-10 13:50:56.76	102.17	53.82	-47.3	-59.8	3.8	8.47e-01	0	41	104	0	65	14729
2026-01-10 13:50:57.77	101.57	54.04	-47.3	-59.7	3.8	8.47e-01	0	41	104	0	65	14666
2026-01-10 13:50:58.78	100.96	54.25	-47.3	-59.7	3.8	8.47e-01	0	41	104	0	65	14675
2026-01-10 13:50:59.78	100.35	54.46	-47.3	-59.7	3.8	8.47e-01	0	41	104	0	65	14708
2026-01-10 13:51:00.78	99.73	54.67	-47.3	-59.7	3.8	8.48e-01	0	41	104	0	65	14673
2026-01-10 13:51:01.79	99.10	54.88	-47.3	-59.7	3.8	8.47e-01	0	41	104	0	65	14633
2026-01-10 13:51:02.79	98.46	55.08	-47.3	-59.7	3.8	8.47e-01	0	41	104	0	65	14693
2026-01-10 13:51:03.80	97.80	55.28	-47.3	-59.8	3.8	8.47e-01	0	41	104	0	65	14723
2026-01-10 13:51:04.80	97.15	55.48	-47.3	-59.7	3.8	8.46e-01	0	41	104	0	65	14639
2026-01-10 13:51:05.81	96.48	55.67	-47.3	-59.7	3.8	8.46e-01	0	41	104	0	65	14699
2026-01-10 13:51:06.81	95.80	55.86	-47.3	-59.7	3.8	8.47e-01	0	41	104	0	65	14627
2026-01-10 13:51:07.82	95.11	56.05	-47.3	-59.7	3.8	8.47e-01	0	41	104	0	65	14641
2026-01-10 13:51:08.82	94.42	56.24	-47.3	-59.7	3.8	8.47e-01	0	41	104	0	65	14666
2026-01-10 13:51:09.82	93.72	56.42	-47.3	-59.7	3.8	8.47e-01	0	41	104	0	65	14678
2026-01-10 13:51:10.83	93.00	56.60	-47.3	-59.8	3.8	8.47e-01	0	41	104	0	65	14746
2026-01-10 13:51:11.83	92.28	56.77	-47.3	-59.8	3.8	8.47e-01	0	41	104	0	65	14712
2026-01-10 13:51:12.84	91.54	56.94	-47.3	-59.7	3.8	8.47e-01	0	41	104	0	65	14627
2026-01-10 13:51:13.84	90.80	57.10	-47.3	-59.7	3.8	8.46e-01	0	41	104	0	65	14671
2026-01-10 13:51:14.84	90.05	57.26	-47.3	-59.7	3.8	8.47e-01	0	41	104	0	65	14638
2026-01-10 13:51:15.85	89.29	57.42	-47.3	-59.7	3.8	8.47e-01	0	41	104	0	65	14679
2026-01-10 13:51:16.85	88.52	57.57	-47.3	-59.7	3.8	8.47e-01	0	41	104	0	65	14702
2026-01-10 13:51:17.86	87.74	57.72	-47.3	-59.7	3.8	8.46e-01	0	41	104	0	65	14678
2026-01-10 13:51:18.86	86.96	57.86	-47.3	-59.7	3.8	8.47e-01	0	41	104	0	65	14669
2026-01-10 13:51:19.87	86.16	58.00	-47.3	-59.8	3.8	8.47e-01	0	41	104	0	65	14723
2026-01-10 13:51:20.87	85.37	58.14	-47.2	-59.7	3.8	8.48e-01	0	41	104	0	65	14622
2026-01-10 13:51:21.87	84.56	58.26	-47.2	-59.7	3.8	8.47e-01	0	41	104	0	65	14632
2026-01-10 13:51:22.88	83.74	58.39	-47.3	-59.7	3.8	8.47e-01	0	41	104	0	65	14632
2026-01-10 13:51:23.88	82.92	58.51	-47.2	-59.7	3.8	8.46e-01	0	41	104	0	65	14672
2026-01-10 13:51:24.89	82.08	58.62	-47.3	-59.8	3.8	8.47e-01	0	41	104	0	65	14724
2026-01-10 13:51:25.89	81.25	58.73	-47.3	-59.7	3.8	8.47e-01	0	41	104	0	65	14654
2026-01-10 13:51:26.89	80.40	58.83	-47.2	-59.7	3.8	8.47e-01	0	41	104	0	65	14697
2026-01-10 13:51:27.90	79.55	58.92	-47.3	-59.7	3.8	8.46e-01	0	41	104	0	65	14706
2026-01-10 13:51:28.90	78.69	59.01	-47.3	-59.8	3.8	8.49e-01	0	41	104	0	65	14769
2026-01-10 13:51:29.91	77.83	59.10	-47.3	-59.8	3.8	8.47e-01	0	41	104	0	65	14727
2026-01-10 13:51:30.91	76.96	59.18	-47.3	-59.8	3.8	8.48e-01	0	41	104	0	65	14804
2026-01-10 13:51:31.92	76.08	59.25	-47.2	-59.8	3.8	8.47e-01	0	41	104	0	65	14720
2026-01-10 13:51:32.92	75.21	59.32	-47.3	-59.7	3.8	8.47e-01	0	41	104	0	65	14690
2026-01-10 13:51:33.93	74.32	59.38	-47.3	-59.8	3.8	8.46e-01	0	41	104	0	65	14748
2026-01-10 13:51:34.93	73.44	59.43	-47.3	-59.7	3.8	8.47e-01	0	41	104	0	65	14678
2026-01-10 13:51:35.93	72.55	59.48	-47.2	-59.7	3.8	8.47e-01	0	41	104	0	65	14664
2026-01-10 13:51:36.94	71.65	59.52	-47.3	-59.7	3.8	8.47e-01	0	41	104	0	65	14669
2026-01-10 13:51:37.94	70.76	59.55	-47.3	-59.7	3.8	8.48e-01	0	41	104	0	65	14617
2026-01-10 13:51:38.95	69.86	59.58	-47.3	-59.7	3.8	8.45e-01	0	41	104	0	65	14599
2026-01-10 13:51:39.95	68.96	59.61	-47.2	-59.8	3.8	8.47e-01	0	41	104	0	65	14731
2026-01-10 13:51:40.96	68.06	59.62	-47.3	-59.8	3.8	8.47e-01	0	41	104	0	65	14711
2026-01-10 13:51:41.96	67.16	59.63	-47.2	-59.7	3.8	8.47e-01	0	41	104	0	65	14693
2026-01-10 13:51:42.96	66.26	59.63	-47.2	-59.8	3.8	8.47e-01	0	41	104	0	65	14709
2026-01-10 13:51:43.97	65.35	59.63	-47.2	-59.7	3.8	8.46e-01	0	41	104	0	65	14638
2026-01-10 13:51:44.97	64.46	59.62	-47.3	-59.8	3.8	8.47e-01	0	41	104	0	65	14765
2026-01-10 13:51:45.98	63.55	59.60	-47.3	-59.7	3.8	8.47e-01	0	41	104	0	65	14674
2026-01-10 13:51:46.98	62.66	59.58	-47.3	-59.8	3.8	8.46e-01	0	41	104	0	65	14728
2026-01-10 13:51:47.98	61.76	59.55	-47.3	-59.8	3.8	8.47e-01	0	41	104	0	65	14728
2026-01-10 13:51:48.99	60.86	59.52	-47.3	-59.7	3.8	8.47e-01	0	41	104	0	65	14700
2026-01-10 13:51:49.99	59.97	59.48	-47.3	-59.7	3.8	8.47e-01	0	41	104	0	65	14687
2026-01-10 13:51:51.00	59.08	59.43	-47.3	-59.8	3.8	8.47e-01	0	41	104	0	65	14754
2026-01-10 13:51:52.00	58.20	59.37	-47.3	-59.8	3.8	8.47e-01	0	41	104	0	65	14757
2026-01-10 13:51:53.01	57.31	59.31	-47.3	-59.8	3.8	8.46e-01	0	41	104	0	65	14785
2026-01-10 13:51:54.01	56.44	59.25	-47.3	-59.8	3.8	8.47e-01	0	41	104	0	65	14724
2026-01-10 13:51:55.01	55.57	59.17	-47.2	-59.8	3.8	8.47e-01	0	41	104	0	65	14728
2026-01-10 13:51:56.02	54.69	59.09	-47.3	-59.7	3.8	8.46e-01	0	41	104	0	65	14656
2026-01-10 13:51:57.02	53.84	59.01	-47.3	-59.8	3.8	8.48e-01	0	41	104	0	65	14728
2026-01-10 13:51:58.02	52.98	58.92	-47.3	-59.8	3.8	8.46e-01	0	41	104	0	65	14799
2026-01-10 13:51:59.03	52.13	58.82	-47.3	-59.7	3.8	8.47e-01	0	41	104	0	65	14629
2026-01-10 13:52:00.03	51.29	58.72	-47.3	-59.8	3.8	8.47e-01	0	41	104	0	65	14717
2026-01-10 13:52:01.04	50.44	58.62	-47.3	-59.8	3.8	8.47e-01	0	41	104	0	65	14715
2026-01-10 13:52:02.04	49.62	58.50	-47.2	-59.7	3.8	8.46e-01	0	41	104	0	65	14700
2026-01-10 13:52:03.04	48.80	58.39	-47.3	-59.7	3.8	8.47e-01	0	41	104	0	65	14665
2026-01-10 13:52:04.05	47.98	58.26	-47.3	-59.7	3.8	8.48e-01	0	41	104	0	65	14675
2026-01-10 13:52:05.05	47.17	58.13	-47.3	-59.7	3.8	8.47e-01	0	41	104	0	65	14654
2026-01-10 13:52:06.06	46.37	58.00	-47.3	-59.7	3.8	8.46e-01	0	41	104	0	65	14666
2026-01-10 13:52:07.06	45.58	57.86	-47.3	-59.7	3.8	8.47e-01	0	41	104	0	65	14695
2026-01-10 13:52:08.07	44.79	57.72	-47.3	-59.7	3.8	8.46e-01	0	41	104	0	65	14663
2026-01-10 13:52:09.07	44.02	57.57	-47.3	-59.8	3.8	8.47e-01	0	41	104	0	65	14763
2026-01-10 13:52:10.07	43.25	57.42	-47.3	-59.8	3.8	8.46e-01	0	41	104	0	65	14713
2026-01-10 13:52:11.08	42.49	57.26	-47.3	-59.8	3.8	8.46e-01	0	41	104	0	65	14791
2026-01-10 13:52:12.08	41.75	57.10	-47.3	-59.7	3.8	8.47e-01	0	41	104	0	65	14707
2026-01-10 13:52:13.09	41.00	56.94	-47.3	-59.8	3.8	8.47e-01	0	41	104	0	65	14813
2026-01-10 13:52:14.09	40.27	56.77	-47.3	-59.8	3.8	8.48e-01	0	41	104	0	65	14778
2026-01-10 13:52:15.10	39.55	56.59	-47.3	-59.7	3.8	8.48e-01	0	41	104	0	65	14701
2026-01-10 13:52:16.10	38.84	56.42	-47.3	-59.8	3.8	8.47e-01	0	41	104	0	65	14759
2026-01-10 13:52:17.11	38.13	56.23	-47.3	-59.8	3.8	8.46e-01	0	41	104	0	65	14721
2026-01-10 13:52:18.11	37.44	56.05	-47.3	-59.7	3.8	8.48e-01	0	41	104	0	65	14695
2026-01-10 13:52:19.11	36.75	55.86	-47.3	-59.8	3.8	8.46e-01	0	41	104	0	65	14775
2026-01-10 13:52:20.12	36.07	55.67	-47.3	-59.7	3.8	8.47e-01	0	41	104	0	65	14669
2026-01-10 13:52:21.12	35.41	55.48	-47.3	-59.7	3.8	8.47e-01	0	41	104	0	65	14626
2026-01-10 13:52:22.13	34.75	55.28	-47.3	-59.8	3.8	8.47e-01	0	41	104	0	65	14774
2026-01-10 13:52:23.13	34.10	55.08	-47.3	-59.8	3.8	8.47e-01	0	41	104	0	65	14762
2026-01-10 13:52:24.14	33.46	54.88	-47.3	-59.8	3.8	8.46e-01	0	41	104	0	65	14729
2026-01-10 13:52:25.14	32.83	54.67	-47.3	-59.8	3.8	8.47e-01	0	41	104	0	65	14753
2026-01-10 13:52:26.15	32.21	54.46	-47.3	-59.8	3.8	8.46e-01	0	41	104	0	65	14730
2026-01-10 13:52:27.15	31.60	54.25	-47.3	-59.8	3.8	8.47e-01	0	41	104	0	65	14729
2026-01-10 13:52:28.15	31.00	54.04	-47.3	-59.8	3.8	8.46e-01	0	41	104	0	65	14723
2026-01-10 13:52:29.16	30.40	53.82	-47.3	-59.8	3.8	8.46e-01	0	41	104	0	65	14801
2026-01-10 13:52:30.16	29.82	53.61	-47.3	-59.8	3.8	8.45e-01	0	41	104	0	65	14743
2026-01-10 13:52:31.17	29.24	53.39	-47.3	-59.7	3.8	8.47e-01	0	41	104	0	65	14662
2026-01-10 13:52:32.17	28.68	53.17	-47.3	-59.8	3.8	8.48e-01	0	41	104	0	65	14720
2026-01-10 13:52:33.18	28.11	52.94	-47.3	-59.7	3.8	8.48e-01	0	41	104	0	65	14687
2026-01-10 13:52:34.18	27.57	52.72	-47.3	-59.8	3.8	8.47e-01	0	41	104	0	65	14776
2026-01-10 13:52:35.19	27.02	52.49	-47.3	-59.8	3.8	8.47e-01	0	41	104	0	65	14757
2026-01-10 13:52:36.19	26.49	52.26	-47.3	-59.8	3.8	8.47e-01	0	41	104	0	65	14749
2026-01-10 13:52:37.19	25.97	52.03	-47.3	-59.8	3.8	8.47e-01	0	41	104	0	65	14785
2026-01-10 13:52:38.20	25.45	51.80	-47.3	-59.8	3.8	8.48e-01	0	41	104	0	65	14797
2026-01-10 13:52:39.20	24.94	51.57	-47.3	-59.7	3.8	8.47e-01	0	41	104	0	65	14667
2026-01-10 13:52:40.21	24.44	51.33	-47.3	-59.7	3.8	8.46e-01	0	41	104	0	65	14657
2026-01-10 13:52:41.21	23.95	51.10	-47.3	-59.7	3.8	8.47e-01	0	41	104	0	65	14701
2026-01-10 13:52:42.22	23.46	50.86	-47.3	-59.8	3.8	8.47e-01	0	41	104	0	65	14840
2026-01-10 13:52:43.22	22.98	50.63	-47.3	-59.8	3.8	8.46e-01	0	41	104	0	65	14730
2026-01-10 13:52:44.23	22.51	50.39	-47.3	-59.8	3.8	8.46e-01	0	41	104	0	65	14775
2026-01-10 13:52:45.23	22.05	50.15	-47.3	-59.8	3.8	8.46e-01	0	41	104	0	65	14722
2026-01-10 13:52:46.23	21.59	49.91	-47.3	-59.7	3.8	8.46e-01	0	41	104	0	65	14659
2026-01-10 13:52:47.24	21.14	49.67	-47.3	-59.8	3.8	8.47e-01	0	41	104	0	65	14814
2026-01-10 13:52:48.24	20.70	49.43	-47.3	-59.8	3.8	8.46e-01	0	41	104	0	65	14766
2026-01-10 13:52:49.25	20.27	49.19	-47.3	-59.8	3.8	8.47e-01	0	41	104	0	65	14772
2026-01-10 13:52:50.25	19.84	48.95	-47.3	-59.8	3.8	8.45e-01	0	41	104	0	65	14791
2026-01-10 13:52:51.25	19.42	48.71	-47.3	-59.7	3.8	8.46e-01	0	41	104	0	65	14702
2026-01-10 13:52:52.26	19.01	48.47	-47.3	-59.8	3.8	8.47e-01	0	41	104	0	65	14747
2026-01-10 13:52:53.26	18.60	48.23	-47.3	-59.8	3.8	8.47e-01	0	41	104	0	65	14742
2026-01-10 13:52:54.27	18.20	47.98	-47.3	-59.8	3.8	8.47e-01	0	41	104	0	65	14723
2026-01-10 13:52:55.27	17.80	47.74	-47.3	-59.8	3.8	8.46e-01	0	41	104	0	65	14759
2026-01-10 13:52:56.28	17.41	47.50	-47.3	-59.8	3.8	8.47e-01	0	41	104	0	65	14825
2026-01-10 13:52:57.28	17.03	47.26	-47.3	-59.8	3.8	8.48e-01	0	41	104	0	65	14814
2026-01-10 13:52:58.29	16.65	47.01	-47.3	-59.8	3.8	8.46e-01	0	41	104	0	65	14775
2026-01-10 13:52:59.29	16.28	46.77	-47.3	-59.8	3.8	8.47e-01	0	41	104	0	65	14877
2026-01-10 13:53:00.30	15.91	46.53	-47.3	-59.8	3.8	8.47e-01	0	41	104	0	65	14769
2026-01-10 13:53:01.30	15.56	46.29	-47.3	-59.8	3.8	8.47e-01	0	41	104	0	65	14728
2026-01-10 13:53:02.31	15.20	46.04	-47.3	-59.8	3.8	8.45e-01	0	41	104	0	65	14783
2026-01-10 13:53:03.31	14.85	45.80	-47.3	-59.8	3.8	8.47e-01	0	41	104	0	65	14805
2026-01-10 13:53:04.31	14.51	45.56	-47.3	-59.7	3.8	8.48e-01	0	41	104	0	65	14684
2026-01-10 13:53:05.32	14.17	45.32	-47.3	-59.8	3.8	8.46e-01	0	41	104	0	65	14823
2026-01-10 13:53:06.32	13.84	45.08	-47.3	-59.8	3.8	8.47e-01	0	41	104	0	65	14767
2026-01-10 13:53:07.33	13.51	44.84	-47.3	-59.8	3.8	8.47e-01	0	41	104	0	65	14775
2026-01-10 13:53:08.33	13.19	44.60	-47.3	-59.8	3.8	8.47e-01	0	41	104	0	65	14755
2026-01-10 13:53:09.34	12.87	44.36	-47.3	-59.8	3.8	8.48e-01	0	41	104	0	65	14824
2026-01-10 13:53:10.34	12.56	44.12	-47.3	-59.8	3.8	8.46e-01	0	41	104	0	65	14797
2026-01-10 13:53:11.35	12.25	43.88	-47.3	-59.8	3.8	8.47e-01	0	41	104	0	65	14800
2026-01-10 13:53:12.35	11.95	43.64	-47.3	-59.8	3.8	8.47e-01	0	41	104	0	65	14726
2026-01-10 13:53:13.36	11.64	43.40	-47.3	-59.8	3.8	8.46e-01	0	41	104	0	65	14826
2026-01-10 13:53:14.36	11.35	43.17	-47.3	-59.8	3.8	8.47e-01	0	41	104	0	65	14780
2026-01-10 13:53:15.36	11.06	42.93	-47.3	-59.8	3.8	8.47e-01	0	41	104	0	65	14726
2026-01-10 13:53:16.37	10.77	42.70	-47.3	-59.8	3.8	8.46e-01	0	41	104	0	65	14834
2026-01-10 13:53:17.37	10.49	42.46	-47.3	-59.8	3.8	8.45e-01	0	41	104	0	65	14830
2026-01-10 13:53:18.38	10.21	42.23	-47.3	-59.8	3.8	8.46e-01	0	41	104	0	65	14762
2026-01-10 13:53:19.38	9.94	41.99	-47.3	-59.8	3.8	8.47e-01	0	41	104	0	65	14767
2026-01-10 13:53:20.39	9.67	41.76	-47.3	-59.8	3.8	8.47e-01	0	41	104	0	65	14793
2026-01-10 13:53:21.39	9.41	41.53	-47.3	-59.8	3.8	8.47e-01	0	41	104	0	65	14797
2026-01-10 13:53:22.39	9.14	41.30	-47.3	-59.8	3.8	8.45e-01	0	41	104	0	65	14822
2026-01-10 13:53:23.40	8.88	41.07	-47.3	-59.9	3.8	8.46e-01	0	41	104	0	65	14930
2026-01-10 13:53:24.40	8.63	40.84	-47.3	-59.8	3.8	8.46e-01	0	41	104	0	65	14804
2026-01-10 13:53:25.41	8.38	40.61	-47.3	-59.8	3.8	8.46e-01	0	41	104	0	65	14833
2026-01-10 13:53:26.41	8.13	40.38	-47.3	-59.9	3.8	8.46e-01	0	41	104	0	65	14920
2026-01-10 13:53:27.42	7.89	40.15	-47.3	-59.8	3.8	8.47e-01	0	41	104	0	65	14833
2026-01-10 13:53:28.42	7.65	39.93	-47.3	-59.8	3.8	8.46e-01	0	41	104	0	65	14843
2026-01-10 13:53:29.43	7.41	39.70	-47.3	-59.8	3.8	8.48e-01	0	41	104	0	65	14874
2026-01-10 13:53:30.43	7.18	39.48	-47.3	-59.8	3.8	8.47e-01	0	41	104	0	65	14796
2026-01-10 13:53:31.43	6.95	39.26	-47.3	-59.8	3.8	8.47e-01	0	41	104	0	65	14752
2026-01-10 13:53:32.44	6.72	39.03	-47.3	-59.8	3.8	8.47e-01	0	41	104	0	65	14726
2026-01-10 13:53:33.44	6.50	38.81	-47.3	-59.8	3.8	8.47e-01	0	41	104	0	65	14869
2026-01-10 13:53:34.45	6.27	38.59	-47.3	-59.8	3.8	8.46e-01	0	41	104	0	65	14747
2026-01-10 13:53:35.45	6.06	38.37	-47.3	-59.8	3.8	8.47e-01	0	41	104	0	65	14853
2026-01-10 13:53:36.46	5.84	38.15	-47.3	-59.8	3.8	8.48e-01	0	41	104	0	65	14823
2026-01-10 13:53:37.46	5.63	37.93	-47.3	-59.8	3.8	8.46e-01	0	41	104	0	65	14852
2026-01-10 13:53:38.47	5.42	37.72	-47.4	-59.8	3.8	8.46e-01	0	41	104	0	65	14844
2026-01-10 13:53:39.47	5.21	37.50	-47.4	-59.8	3.8	8.47e-01	0	41	104	0	65	14804
2026-01-10 13:53:40.48	5.01	37.28	-47.4	-59.8	3.8	8.48e-01	0	41	104	0	65	14856
2026-01-10 13:53:41.48	4.81	37.07	-47.3	-59.8	3.8	8.47e-01	0	41	104	0	65	14854
2026-01-10 13:53:42.48	4.61	36.86	-47.3	-59.8	3.8	8.47e-01	0	41	104	0	65	14854
2026-01-10 13:53:43.49	4.41	36.65	-47.3	-59.8	3.8	8.47e-01	0	41	104	0	65	14715
2026-01-10 13:53:44.49	4.22	36.44	-47.4	-59.8	3.8	8.47e-01	0	41	104	0	65	14838
2026-01-10 13:53:45.50	4.03	36.23	-47.4	-59.8	3.8	8.47e-01	0	41	104	0	65	14833
2026-01-10 13:53:46.50	3.84	36.02	-47.3	-59.8	3.8	8.47e-01	0	41	104	0	65	14751
2026-01-10 13:53:47.51	3.65	35.81	-47.4	-59.9	3.8	8.46e-01	0	41	104	0	65	14911
2026-01-10 13:53:48.51	3.47	35.60	-47.3	-59.8	3.8	8.47e-01	0	41	104	0	65	14835
2026-01-10 13:53:49.52	3.29	35.39	-47.3	-59.8	3.8	8.48e-01	0	41	104	0	65	14834
2026-01-10 13:53:50.52	3.11	35.19	-47.3	-59.8	3.8	8.47e-01	0	41	104	0	65	14783
2026-01-10 13:53:51.52	2.93	34.99	-47.4	-59.9	3.8	8.47e-01	0	41	104	0	65	14893
2026-01-10 13:53:52.53	2.76	34.78	-47.3	-59.8	3.8	8.47e-01	0	41	104	0	65	14795
2026-01-10 13:53:53.53	2.59	34.58	-47.3	-59.8	3.8	8.48e-01	0	41	104	0	65	14798
2026-01-10 13:53:54.54	2.42	34.38	-47.3	-59.8	3.8	8.48e-01	0	41	104	0	65	14807
2026-01-10 13:53:55.54	2.25	34.18	-47.4	-59.8	3.8	8.46e-01	0	41	104	0	65	14843
2026-01-10 13:53:56.55	2.08	33.98	-47.4	-59.8	3.8	8.47e-01	0	41	104	0	65	14851
2026-01-10 13:53:57.55	1.92	33.78	-47.4	-59.8	3.8	8.47e-01	0	41	104	0	65	14787
2026-01-10 13:53:58.55	1.76	33.59	-47.4	-59.8	3.8	8.46e-01	0	41	104	0	65	14862
2026-01-10 13:53:59.56	1.60	33.39	-47.4	-59.9	3.8	8.46e-01	0	41	104	0	65	14942
2026-01-10 13:54:00.56	1.44	33.20	-47.4	-59.8	3.8	8.46e-01	0	41	104	0	65	14788
2026-01-10 13:54:01.57	1.28	33.00	-47.4	-59.9	3.8	8.47e-01	0	41	104	0	65	14924
2026-01-10 13:54:02.57	1.13	32.81	-47.4	-59.9	3.8	8.47e-01	0	41	104	0	65	14885
2026-01-10 13:54:03.57	0.98	32.62	-47.4	-59.8	3.8	8.47e-01	0	41	104	0	65	14801
2026-01-10 13:54:04.58	0.83	32.43	-47.4	-59.8	3.8	8.47e-01	0	41	104	0	65	14802
2026-01-10 13:54:05.59	0.68	32.24	-47.3	-59.8	3.8	8.46e-01	0	41	104	0	65	14812
2026-01-10 13:54:06.59	0.53	32.05	-47.4	-59.9	3.8	8.47e-01	0	41	104	0	65	14989
2026-01-10 13:54:07.59	0.39	31.86	-47.4	-59.9	3.8	8.47e-01	0	41	104	0	65	14925
2026-01-10 13:54:08.60	0.24	31.67	-47.4	-59.9	3.8	8.48e-01	0	41	104	0	65	14890
2026-01-10 13:54:09.60	0.10	31.49	-47.4	-59.9	3.8	8.46e-01	0	41	104	0	65	14903
2026-01-10 13:54:10.61	359.96	31.30	-47.3	-59.8	3.8	8.46e-01	0	41	104	0	65	14846
2026-01-10 13:54:11.61	359.82	31.12	-47.4	-59.9	3.8	8.47e-01	0	41	104	0	65	14957
2026-01-10 13:54:12.62	359.69	30.93	-47.4	-59.9	3.8	8.48e-01	0	41	104	0	65	14926
2026-01-10 13:54:13.62	359.55	30.75	-47.4	-59.8	3.8	8.47e-01	0	41	104	0	65	14832
2026-01-10 13:54:14.63	359.42	30.57	-47.4	-59.9	3.8	8.46e-01	0	41	104	0	65	14930
2026-01-10 13:54:15.63	359.29	30.39	-47.4	-59.8	3.8	8.47e-01	0	41	104	0	65	14878
2026-01-10 13:54:16.64	359.16	30.21	-47.4	-59.9	3.8	8.47e-01	0	41	104	0	65	14897
2026-01-10 13:54:17.64	359.03	30.03	-47.4	-59.9	3.8	8.47e-01	0	41	104	0	65	14903
2026-01-10 13:54:18.64	358.90	29.86	-47.4	-59.9	3.8	8.47e-01	0	41	104	0	65	14885
2026-01-10 13:54:19.65	358.77	29.68	-47.4	-59.8	3.8	8.47e-01	0	41	104	0	65	14859
2026-01-10 13:54:20.65	358.65	29.50	-47.4	-59.8	3.8	8.46e-01	0	41	104	0	65	14863
2026-01-10 13:54:21.66	358.52	29.33	-47.4	-59.9	3.8	8.46e-01	0	41	104	0	65	14899
2026-01-10 13:54:22.66	358.40	29.16	-47.4	-59.9	3.8	8.47e-01	0	41	104	0	65	14936
2026-01-10 13:54:23.66	358.28	28.98	-47.4	-59.8	3.8	8.47e-01	0	41	104	0	65	14869
2026-01-10 13:54:24.67	358.16	28.81	-47.4	-59.9	3.8	8.47e-01	0	41	104	0	65	14951
2026-01-10 13:54:25.67	358.05	28.64	-47.4	-59.9	3.8	8.46e-01	0	41	104	0	65	14884
2026-01-10 13:54:26.68	357.93	28.47	-47.4	-59.9	3.8	8.47e-01	0	41	104	0	65	14890
2026-01-10 13:54:27.68	357.81	28.30	-47.4	-59.8	3.8	8.47e-01	0	41	104	0	65	14874
2026-01-10 13:54:28.69	357.70	28.13	-47.4	-59.8	3.8	8.47e-01	0	41	104	0	65	14877
2026-01-10 13:54:29.69	357.59	27.97	-47.4	-59.9	3.8	8.47e-01	0	41	104	0	65	14892
2026-01-10 13:54:30.69	357.47	27.80	-47.4	-59.8	3.8	8.47e-01	0	41	104	0	65	14849
2026-01-10 13:54:31.70	357.36	27.63	-47.4	-59.9	3.8	8.47e-01	0	41	104	0	65	14992
2026-01-10 13:54:32.71	357.25	27.47	-47.4	-59.9	3.8	8.47e-01	0	41	104	0	65	14915
2026-01-10 13:54:33.71	357.14	27.31	-47.4	-59.9	3.8	8.46e-01	0	41	104	0	65	14928
2026-01-10 13:54:34.71	357.04	27.14	-47.4	-59.9	3.8	8.47e-01	0	41	104	0	65	14974
2026-01-10 13:54:35.72	356.93	26.98	-47.4	-59.8	3.8	8.48e-01	0	40	104	0	65	14863
2026-01-10 13:54:36.72	356.83	26.82	-47.4	-59.9	3.8	8.48e-01	0	41	104	0	65	14888
2026-01-10 13:54:37.73	356.72	26.66	-47.4	-59.9	3.8	8.47e-01	0	41	104	0	65	14880
2026-01-10 13:54:38.73	356.62	26.50	-47.4	-59.9	3.8	8.47e-01	0	41	104	0	65	14948
2026-01-10 13:54:39.74	356.52	26.34	-47.4	-59.9	3.8	8.47e-01	0	41	104	0	65	14966
2026-01-10 13:54:40.74	356.42	26.18	-47.4	-59.9	3.8	8.46e-01	0	41	104	0	65	14945
2026-01-10 13:54:41.75	356.32	26.03	-47.4	-59.8	3.8	8.46e-01	0	41	104	0	65	14856
2026-01-10 13:54:42.75	356.22	25.87	-47.4	-59.9	3.8	8.46e-01	0	41	104	0	65	14930
2026-01-10 13:54:43.75	356.12	25.72	-47.4	-59.9	3.8	8.47e-01	0	41	104	0	65	14912
2026-01-10 13:54:44.76	356.02	25.56	-47.4	-59.9	3.8	8.47e-01	0	41	104	0	65	14999
2026-01-10 13:54:45.76	355.93	25.41	-47.5	-59.9	3.8	8.46e-01	0	41	104	0	65	14947
2026-01-10 13:54:46.77	355.83	25.25	-47.5	-59.9	3.8	8.47e-01	0	41	104	0	65	14952
2026-01-10 13:54:47.77	355.74	25.10	-47.4	-59.8	3.8	8.47e-01	0	41	104	0	65	14867
2026-01-10 13:54:48.78	355.65	24.95	-47.4	-59.8	3.8	8.46e-01	0	41	104	0	65	14866
2026-01-10 13:54:49.78	355.56	24.80	-47.5	-59.8	3.8	8.45e-01	0	41	104	0	65	14858
2026-01-10 13:54:50.78	355.46	24.65	-47.5	-60.0	3.8	8.46e-01	0	41	104	0	65	15053
2026-01-10 13:54:51.79	355.37	24.50	-47.4	-59.9	3.8	8.47e-01	0	41	104	0	65	14932
2026-01-10 13:54:52.79	355.29	24.35	-47.4	-59.9	3.8	8.47e-01	0	41	104	0	65	14964
2026-01-10 13:54:53.80	355.20	24.20	-47.4	-59.9	3.8	8.46e-01	0	41	104	0	65	14967
2026-01-10 13:54:54.80	355.11	24.06	-47.4	-59.9	3.8	8.48e-01	0	41	104	0	65	14954
2026-01-10 13:54:55.80	355.02	23.91	-47.5	-59.9	3.8	8.46e-01	0	41	104	0	65	15026
2026-01-10 13:54:56.81	354.94	23.77	-47.5	-60.0	3.8	8.48e-01	0	41	104	0	65	15097
2026-01-10 13:54:57.81	354.85	23.62	-47.4	-60.0	3.8	8.46e-01	0	41	104	0	65	15099
2026-01-10 13:54:58.82	354.77	23.48	-47.4	-59.9	3.8	8.47e-01	0	41	104	0	65	14908
2026-01-10 13:54:59.82	354.68	23.34	-47.4	-60.0	3.8	8.47e-01	0	41	104	0	65	15092
2026-01-10 13:55:00.83	354.60	23.19	-47.5	-59.9	3.8	8.46e-01	0	41	104	0	65	14958
2026-01-10 13:55:01.83	354.52	23.05	-47.5	-59.9	3.8	8.47e-01	0	41	104	0	65	14925
2026-01-10 13:55:02.84	354.44	22.91	-47.5	-59.9	3.8	8.48e-01	0	41	104	0	65	14928
2026-01-10 13:55:03.84	354.36	22.77	-47.5	-59.9	3.8	8.48e-01	0	41	104	0	65	14912
2026-01-10 13:55:04.85	354.28	22.63	-47.5	-59.9	3.8	8.47e-01	0	41	104	0	65	14924
2026-01-10 13:55:05.85	354.20	22.49	-47.5	-59.9	3.8	8.46e-01	0	41	104	0	65	14990
2026-01-10 13:55:06.85	354.12	22.35	-47.4	-59.9	3.8	8.48e-01	0	41	104	0	65	14948
2026-01-10 13:55:07.86	354.04	22.22	-47.5	-59.9	3.8	8.46e-01	0	40	104	0	65	14960
2026-01-10 13:55:08.86	353.97	22.08	-47.5	-59.9	3.8	8.45e-01	0	41	104	0	65	15038
2026-01-10 13:55:09.86	353.89	21.94	-47.5	-59.9	3.8	8.46e-01	0	41	104	0	65	14902
2026-01-10 13:55:10.87	353.82	21.81	-47.5	-59.9	3.8	8.46e-01	0	41	104	0	65	15044
2026-01-10 13:55:11.87	353.74	21.67	-47.5	-59.9	3.8	8.48e-01	0	41	104	0	65	14929
2026-01-10 13:55:12.88	353.67	21.54	-47.5	-59.9	3.8	8.46e-01	0	41	104	0	65	14932
2026-01-10 13:55:13.88	353.59	21.41	-47.5	-59.9	3.8	8.47e-01	0	41	104	0	65	14990
2026-01-10 13:55:14.88	353.52	21.27	-47.5	-59.9	3.8	8.47e-01	0	41	104	0	65	15000
2026-01-10 13:55:15.89	353.45	21.14	-47.5	-59.9	3.8	8.47e-01	0	41	104	0	65	14976
2026-01-10 13:55:16.89	353.38	21.01	-47.5	-59.9	3.8	8.47e-01	0	41	104	0	65	14992
2026-01-10 13:55:17.90	353.31	20.88	-47.5	-59.9	3.8	8.48e-01	0	41	104	0	65	14885
2026-01-10 13:55:18.90	353.24	20.75	-47.5	-59.9	3.8	8.46e-01	0	41	104	0	65	15027
2026-01-10 13:55:19.91	353.17	20.62	-47.5	-59.9	3.8	8.46e-01	0	41	104	0	65	14949
2026-01-10 13:55:20.91	353.10	20.49	-47.5	-59.9	3.8	8.46e-01	0	41	104	0	65	15045
2026-01-10 13:55:21.91	353.03	20.36	-47.5	-59.9	3.8	8.47e-01	0	41	104	0	65	15028
2026-01-10 13:55:22.92	352.96	20.23	-47.5	-59.9	3.8	8.47e-01	0	41	104	0	65	15036
2026-01-10 13:55:23.92	352.90	20.11	-47.4	-59.9	3.8	8.45e-01	0	41	104	0	65	14984
2026-01-10 13:55:24.93	352.83	19.98	-47.5	-59.9	3.8	8.47e-01	0	40	104	0	65	15029
2026-01-10 13:55:25.93	352.77	19.85	-47.5	-59.9	3.8	8.45e-01	0	41	104	0	65	14970
2026-01-10 13:55:26.94	352.70	19.73	-47.5	-59.9	3.8	8.46e-01	0	41	104	0	65	14904
2026-01-10 13:55:27.94	352.63	19.60	-47.5	-60.0	3.8	8.47e-01	0	41	104	0	65	15065
2026-01-10 13:55:28.95	352.57	19.48	-47.5	-59.9	3.8	8.48e-01	0	41	104	0	65	15008
2026-01-10 13:55:29.95	352.51	19.36	-47.5	-60.0	3.8	8.47e-01	0	41	104	0	65	15077
2026-01-10 13:55:30.95	352.44	19.23	-47.5	-60.0	3.8	8.47e-01	0	41	104	0	65	15081
2026-01-10 13:55:31.96	352.38	19.11	-47.5	-60.0	3.8	8.47e-01	0	41	104	0	65	15061
2026-01-10 13:55:32.96	352.32	18.99	-47.5	-59.9	3.8	8.47e-01	0	41	104	0	65	15043
2026-01-10 13:55:33.97	352.26	18.87	-47.5	-59.9	3.8	8.48e-01	0	41	104	0	65	14950
2026-01-10 13:55:34.97	352.20	18.75	-47.5	-60.0	3.8	8.47e-01	0	41	104	0	65	15137
2026-01-10 13:55:35.98	352.14	18.63	-47.5	-60.0	3.8	8.47e-01	0	41	104	0	65	15080
2026-01-10 13:55:36.98	352.08	18.51	-47.5	-59.9	3.8	8.47e-01	0	41	104	0	65	15027
2026-01-10 13:55:37.99	352.02	18.39	-47.5	-59.9	3.8	8.46e-01	0	41	104	0	65	15034
2026-01-10 13:55:38.99	351.96	18.27	-47.5	-59.9	3.8	8.47e-01	0	41	104	0	65	15004
2026-01-10 13:55:39.99	351.90	18.15	-47.5	-60.0	3.8	8.47e-01	0	41	104	0	65	15085
2026-01-10 13:55:41.00	351.84	18.03	-47.5	-60.0	3.8	8.46e-01	0	41	104	0	65	15100
2026-01-10 13:55:42.01	351.78	17.92	-47.5	-59.9	3.8	8.47e-01	0	41	104	0	65	14978
2026-01-10 13:55:43.01	351.73	17.80	-47.5	-59.9	3.8	8.47e-01	0	41	104	0	65	15046
2026-01-10 13:55:44.01	351.67	17.68	-47.5	-59.9	3.8	8.45e-01	0	41	104	0	65	15048
2026-01-10 13:55:45.02	351.61	17.57	-47.5	-59.9	3.8	8.48e-01	0	41	104	0	65	14988
2026-01-10 13:55:46.02	351.56	17.45	-47.5	-60.0	3.8	8.47e-01	0	41	104	0	65	15160
2026-01-10 13:55:47.03	351.50	17.34	-47.5	-60.0	3.8	8.46e-01	0	41	104	0	65	15096
2026-01-10 13:55:48.03	351.45	17.22	-47.5	-60.0	3.8	8.46e-01	0	41	104	0	65	15179
2026-01-10 13:55:49.03	351.39	17.11	-47.5	-59.9	3.8	8.45e-01	0	41	104	0	65	14964
2026-01-10 13:55:50.04	351.34	17.00	-47.5	-59.9	3.8	8.46e-01	0	41	104	0	65	14946
2026-01-10 13:55:51.04	351.29	16.89	-47.5	-60.0	3.8	8.48e-01	0	41	104	0	65	15078
2026-01-10 13:55:52.05	351.23	16.77	-47.5	-59.9	3.8	8.46e-01	0	41	104	0	65	15044
2026-01-10 13:55:53.05	351.18	16.66	-47.5	-60.0	3.8	8.47e-01	0	41	104	0	65	15106
2026-01-10 13:55:54.06	351.13	16.55	-47.5	-59.9	3.8	8.46e-01	0	41	104	0	65	14989
2026-01-10 13:55:55.06	351.08	16.44	-47.5	-60.0	3.8	8.47e-01	0	41	104	0	65	15096
2026-01-10 13:55:56.06	351.03	16.33	-47.5	-59.9	3.8	8.47e-01	0	41	104	0	65	14972
2026-01-10 13:55:57.07	350.97	16.22	-47.5	-59.9	3.8	8.47e-01	0	41	104	0	65	14991
2026-01-10 13:55:58.07	350.92	16.11	-47.5	-60.0	3.8	8.47e-01	0	41	104	0	65	15059
2026-01-10 13:55:59.08	350.87	16.00	-47.5	-60.0	3.8	8.48e-01	0	41	104	0	65	15068
2026-01-10 13:56:00.08	350.82	15.90	-47.5	-59.9	3.8	8.47e-01	0	41	104	0	65	15001
2026-01-10 13:56:01.09	350.77	15.79	-47.5	-60.0	3.8	8.46e-01	0	41	104	0	65	15163
2026-01-10 13:56:02.09	350.73	15.68	-47.5	-59.9	3.8	8.47e-01	0	41	104	0	65	15030
2026-01-10 13:56:03.10	350.68	15.57	-47.5	-59.9	3.8	8.46e-01	0	41	104	0	65	14989
2026-01-10 13:56:04.10	350.63	15.47	-47.5	-60.0	3.8	8.48e-01	0	41	104	0	65	15091
2026-01-10 13:56:05.11	350.58	15.36	-47.5	-60.0	3.8	8.46e-01	0	41	104	0	65	15069
2026-01-10 13:56:06.11	350.53	15.26	-47.5	-60.0	3.8	8.47e-01	0	41	104	0	65	15056
2026-01-10 13:56:07.11	350.49	15.15	-47.5	-59.9	3.8	8.46e-01	0	41	104	0	65	15040
2026-01-10 13:56:08.12	350.44	15.05	-47.5	-60.0	3.8	8.47e-01	0	41	104	0	65	15092
2026-01-10 13:56:09.12	350.39	14.94	-47.5	-59.9	3.8	8.47e-01	0	41	104	0	65	15008
2026-01-10 13:56:10.13	350.35	14.84	-47.5	-59.9	3.8	8.45e-01	0	41	104	0	65	15005
2026-01-10 13:56:11.13	350.30	14.74	-47.5	-59.9	3.8	8.46e-01	0	41	104	0	65	14979
2026-01-10 13:56:12.14	350.26	14.63	-47.5	-59.9	3.8	8.47e-01	0	41	104	0	65	15000
2026-01-10 13:56:13.14	350.21	14.53	-47.4	-59.9	3.8	8.48e-01	0	41	104	0	65	15007
2026-01-10 13:56:14.14	350.17	14.43	-47.4	-59.9	3.8	8.48e-01	0	41	104	0	65	15033
2026-01-10 13:56:15.15	350.12	14.33	-47.4	-59.9	3.8	8.47e-01	0	41	104	0	65	15002
2026-01-10 13:56:16.15	350.08	14.23	-47.4	-59.9	3.8	8.47e-01	0	41	104	0	65	15050
2026-01-10 13:56:17.16	350.03	14.12	-47.4	-59.9	3.8	8.47e-01	0	41	104	0	65	15009
2026-01-10 13:56:18.16	349.99	14.02	-47.4	-60.0	3.8	8.47e-01	0	41	104	0	65	15155
2026-01-10 13:56:19.17	349.95	13.92	-47.5	-60.0	3.8	8.47e-01	0	41	104	0	65	15071
2026-01-10 13:56:20.17	349.90	13.82	-47.5	-60.0	3.8	8.46e-01	0	41	104	0	65	15074
2026-01-10 13:56:21.18	349.86	13.72	-47.5	-59.9	3.8	8.46e-01	0	41	104	0	65	15047
2026-01-10 13:56:22.18	349.82	13.63	-47.5	-60.0	3.8	8.46e-01	0	41	104	0	65	15130
2026-01-10 13:56:23.18	349.78	13.53	-47.5	-59.9	3.8	8.47e-01	0	41	104	0	65	15002
2026-01-10 13:56:24.19	349.74	13.43	-47.5	-59.9	3.8	8.47e-01	0	41	104	0	65	15007
2026-01-10 13:56:25.19	349.69	13.33	-47.5	-60.0	3.8	8.47e-01	0	41	104	0	65	15119
2026-01-10 13:56:26.19	349.65	13.23	-47.5	-59.9	3.8	8.47e-01	0	41	104	0	65	15004
2026-01-10 13:56:27.20	349.61	13.14	-47.5	-59.9	3.8	8.47e-01	0	41	104	0	65	15017
2026-01-10 13:56:28.20	349.57	13.04	-47.5	-59.9	3.8	8.48e-01	0	41	104	0	65	15034
2026-01-10 13:56:29.21	349.53	12.94	-47.5	-59.9	3.8	8.47e-01	0	41	104	0	65	14919
2026-01-10 13:56:30.21	349.49	12.85	-47.5	-60.0	3.8	8.46e-01	0	41	104	0	65	15068
2026-01-10 13:56:31.22	349.45	12.75	-47.6	-59.9	3.8	8.45e-01	0	41	104	0	65	15014
2026-01-10 13:56:32.22	349.41	12.66	-47.6	-59.9	3.8	8.47e-01	0	41	104	0	65	15002
2026-01-10 13:56:33.23	349.37	12.56	-47.6	-60.0	3.8	8.47e-01	0	41	104	0	65	15175
2026-01-10 13:56:34.23	349.34	12.47	-47.6	-60.0	3.8	8.46e-01	0	41	104	0	65	15061
2026-01-10 13:56:35.23	349.30	12.37	-47.5	-59.9	3.8	8.48e-01	0	41	104	0	65	15013
2026-01-10 13:56:36.24	349.26	12.28	-47.6	-60.0	3.8	8.47e-01	0	41	104	0	65	15078
2026-01-10 13:56:37.24	349.22	12.19	-47.6	-60.0	3.8	8.47e-01	0	41	104	0	65	15075
2026-01-10 13:56:38.25	349.18	12.09	-47.6	-60.0	3.8	8.47e-01	0	40	104	0	65	15105
2026-01-10 13:56:39.25	349.15	12.00	-47.6	-60.0	3.8	8.48e-01	0	41	104	0	65	15148
2026-01-10 13:56:40.25	349.11	11.91	-47.5	-59.9	3.8	8.46e-01	0	41	104	0	65	15014
2026-01-10 13:56:41.26	349.07	11.82	-47.5	-59.9	3.8	8.47e-01	0	41	104	0	65	15044
2026-01-10 13:56:42.26	349.04	11.73	-47.5	-60.0	3.8	8.46e-01	0	41	104	0	65	15077
2026-01-10 13:56:43.27	349.00	11.63	-47.6	-60.0	3.8	8.47e-01	0	41	104	0	65	15089
2026-01-10 13:56:44.27	348.96	11.54	-47.5	-59.9	3.8	8.47e-01	0	41	104	0	65	14965
2026-01-10 13:56:45.28	348.93	11.45	-47.5	-59.9	3.8	8.46e-01	0	41	104	0	65	15019
2026-01-10 13:56:46.28	348.89	11.36	-47.6	-59.9	3.8	8.46e-01	0	41	104	0	65	14944
2026-01-10 13:56:47.28	348.86	11.27	-47.5	-59.9	3.8	8.48e-01	0	41	104	0	65	14993
2026-01-10 13:56:48.29	348.82	11.18	-47.5	-60.0	3.8	8.46e-01	0	41	104	0	65	15071
2026-01-10 13:56:49.29	348.79	11.09	-47.6	-59.9	3.8	8.47e-01	0	41	104	0	65	15035
2026-01-10 13:56:50.30	348.75	11.00	-47.5	-59.9	3.8	8.47e-01	0	41	104	0	65	15032
2026-01-10 13:56:51.30	348.72	10.91	-47.6	-60.0	3.8	8.46e-01	0	40	104	0	65	15104
2026-01-10 13:56:52.31	348.68	10.83	-47.5	-60.0	3.8	8.47e-01	0	41	104	0	65	15166
2026-01-10 13:56:53.31	348.65	10.74	-47.5	-59.9	3.8	8.47e-01	0	41	104	0	65	15051
2026-01-10 13:56:54.31	348.62	10.65	-47.5	-60.0	3.8	8.47e-01	0	40	104	0	65	15115
2026-01-10 13:56:55.32	348.58	10.56	-47.5	-59.9	3.8	8.47e-01	0	40	104	0	65	14978
2026-01-10 13:56:56.32	348.55	10.47	-47.6	-60.0	3.8	8.46e-01	0	41	104	0	65	15058
2026-01-10 13:56:57.32	348.52	10.39	-47.6	-59.9	3.8	8.47e-01	0	41	104	0	65	15043
2026-01-10 13:56:58.33	348.48	10.30	-47.6	-59.9	3.8	8.48e-01	0	41	104	0	65	14987
2026-01-10 13:56:59.33	348.45	10.21	-47.5	-59.9	3.8	8.47e-01	0	41	104	0	65	14983
2026-01-10 13:57:00.34	348.42	10.13	-47.6	-59.9	3.8	8.47e-01	0	41	104	0	65	14972
2026-01-10 13:57:01.34	348.39	10.04	-47.6	-60.0	3.8	8.48e-01	0	41	104	0	65	15104
2026-01-10 13:57:02.35	348.35	9.96	-47.6	-59.9	3.8	8.47e-01	0	41	104	0	65	14903
2026-01-10 13:57:03.35	348.32	9.87	-47.6	-59.9	3.8	8.48e-01	0	41	104	0	65	15043
2026-01-10 13:57:04.35	348.29	9.79	-47.6	-60.0	3.8	8.46e-01	0	41	104	0	65	15062
2026-01-10 13:57:05.36	348.26	9.70	-47.6	-59.9	3.8	8.47e-01	0	41	104	0	65	14975
2026-01-10 13:57:06.36	348.23	9.62	-47.6	-59.9	3.8	8.47e-01	0	41	104	0	65	14959
2026-01-10 13:57:07.37	348.20	9.53	-47.5	-59.9	3.8	8.46e-01	0	41	104	0	65	14909
2026-01-10 13:57:08.37	348.17	9.45	-47.5	-59.9	3.8	8.46e-01	0	41	104	0	65	14939
2026-01-10 13:57:09.38	348.14	9.37	-47.6	-60.0	3.8	8.47e-01	0	41	104	0	65	15135
2026-01-10 13:57:10.38	348.11	9.28	-47.6	-60.0	3.8	8.46e-01	0	41	104	0	65	15061
2026-01-10 13:57:11.39	348.08	9.20	-47.6	-60.0	3.8	8.45e-01	0	41	104	0	65	15060
2026-01-10 13:57:12.39	348.05	9.12	-47.5	-59.9	3.8	8.48e-01	0	41	104	0	65	14988
2026-01-10 13:57:13.39	348.02	9.03	-47.5	-59.9	3.8	8.48e-01	0	41	104	0	65	15019
2026-01-10 13:57:14.40	347.99	8.95	-47.5	-59.9	3.8	8.46e-01	0	41	104	0	65	14950
2026-01-10 13:57:15.40	347.96	8.87	-47.6	-59.9	3.8	8.46e-01	0	41	104	0	65	15035
2026-01-10 13:57:16.41	347.93	8.79	-47.6	-59.9	3.8	8.47e-01	0	41	104	0	65	14913
2026-01-10 13:57:17.41	347.90	8.71	-47.6	-59.9	3.8	8.46e-01	0	41	104	0	65	14993
2026-01-10 13:57:18.42	347.87	8.63	-47.5	-59.9	3.8	8.48e-01	0	41	104	0	65	15016
2026-01-10 13:57:19.42	347.84	8.54	-47.5	-59.9	3.8	8.47e-01	0	41	104	0	65	14989
2026-01-10 13:57:20.42	347.81	8.46	-47.5	-59.9	3.8	8.47e-01	0	41	104	0	65	14956
2026-01-10 13:57:21.43	347.78	8.38	-47.5	-59.9	3.8	8.48e-01	0	41	104	0	65	14981
2026-01-10 13:57:22.43	347.76	8.30	-47.5	-59.9	3.8	8.48e-01	0	41	104	0	65	14956
2026-01-10 13:57:23.44	347.73	8.22	-47.5	-59.9	3.8	8.47e-01	0	41	104	0	65	14995
2026-01-10 13:57:24.44	347.70	8.14	-47.5	-59.9	3.8	8.48e-01	0	41	104	0	65	14990
2026-01-10 13:57:25.45	347.67	8.06	-47.5	-59.9	3.8	8.47e-01	0	41	104	0	65	14911
2026-01-10 13:57:26.45	347.65	7.98	-47.5	-59.9	3.8	8.46e-01	0	41	104	0	65	14995
2026-01-10 13:57:27.46	347.62	7.91	-47.4	-59.9	3.8	8.47e-01	0	41	104	0	65	14999
2026-01-10 13:57:28.46	347.59	7.83	-47.5	-59.9	3.8	8.48e-01	0	41	104	0	65	14899
2026-01-10 13:57:29.47	347.56	7.75	-47.4	-59.9	3.8	8.46e-01	0	41	104	0	65	14921
2026-01-10 13:57:30.47	347.54	7.67	-47.4	-59.9	3.8	8.47e-01	0	41	104	0	65	15033
2026-01-10 13:57:31.47	347.51	7.59	-47.4	-60.0	3.8	8.46e-01	0	41	104	0	65	15073
2026-01-10 13:57:32.48	347.48	7.51	-47.4	-59.9	3.8	8.47e-01	0	41	104	0	65	14983
2026-01-10 13:57:33.48	347.46	7.44	-47.4	-59.9	3.8	8.47e-01	0	41	104	0	65	14923
2026-01-10 13:57:34.49	347.43	7.36	-47.4	-59.9	3.8	8.47e-01	0	41	104	0	65	14887
2026-01-10 13:57:35.49	347.41	7.28	-47.3	-59.9	3.8	8.48e-01	0	41	104	0	65	14912
2026-01-10 13:57:36.50	347.38	7.20	-47.3	-59.9	3.8	8.47e-01	0	41	104	0	65	14955
2026-01-10 13:57:37.50	347.36	7.13	-47.3	-59.9	3.8	8.47e-01	0	41	104	0	65	14926
2026-01-10 13:57:38.51	347.33	7.05	-47.4	-59.8	3.8	8.47e-01	0	41	104	0	65	14878
2026-01-10 13:57:39.51	347.30	6.98	-47.3	-59.9	3.8	8.47e-01	0	40	104	0	65	14899
2026-01-10 13:57:40.52	347.28	6.90	-47.4	-59.9	3.8	8.47e-01	0	41	104	0	65	14961
2026-01-10 13:57:41.52	347.25	6.82	-47.4	-59.9	3.8	8.47e-01	0	40	104	0	65	14977
2026-01-10 13:57:42.53	347.23	6.75	-47.4	-59.8	3.8	8.47e-01	0	41	104	0	65	14842
