passes_logs/2026/01/10/T1/T1__20260110_112132_NOAA_20_JPSS-1_rec.log

#Pass ID: 20260110_112132_NOAA 20 (JPSS-1)
#Satellite: NOAA 20 (JPSS-1)
#Configuration: NOAA 20
#almurnet v.1.7.20251203
#Start time: 2026-01-10 11:21:32

#Version: 2.0.20230620
#Station: T1
#Location: 37.570604 lon 55.790049 lat
#TLE: 1 43013U 17073A   26009.69119415  .00000109  00000+0  72598-4 0  9996
#TLE: 2 43013  98.7631 310.6868 0001678  46.7442 313.3874 14.19534878421981

#Time	Az	El	Level	Level2	SNR	BER	BlckErr	Temp	State	Recorded	gain1	gain2
2026-01-10 11:21:32.46	207.06	5.02	-50.5	-65.7	3.8	1.49e+00	0	40	0	0	72	20915
2026-01-10 11:21:33.46	207.14	5.08	-50.5	-65.7	3.8	1.49e+00	0	40	104	0	72	20935
2026-01-10 11:21:34.46	207.22	5.15	-50.5	-65.7	3.8	1.49e+00	0	41	104	0	72	20818
2026-01-10 11:21:35.47	207.30	5.21	-50.4	-65.7	3.8	1.49e+00	0	41	104	0	72	20961
2026-01-10 11:21:36.47	207.39	5.27	-50.5	-65.7	3.8	1.49e+00	0	41	104	0	72	20977
2026-01-10 11:21:37.48	207.47	5.33	-50.4	-65.7	3.8	1.49e+00	0	41	104	0	72	20900
2026-01-10 11:21:38.48	207.55	5.39	-50.5	-65.7	3.8	1.49e+00	0	41	104	0	72	20849
2026-01-10 11:21:39.49	207.63	5.46	-50.4	-65.6	3.8	1.49e+00	0	41	104	0	72	20770
2026-01-10 11:21:40.49	207.72	5.52	-50.4	-65.6	3.8	1.49e+00	0	41	104	0	72	20724
2026-01-10 11:21:41.50	207.80	5.58	-50.4	-65.6	3.8	1.49e+00	0	41	104	0	72	20690
2026-01-10 11:21:42.50	207.88	5.64	-50.4	-65.6	3.8	1.49e+00	0	41	104	0	72	20612
2026-01-10 11:21:43.50	207.97	5.70	-50.4	-65.6	3.8	1.49e+00	0	41	104	0	72	20694
2026-01-10 11:21:44.51	208.05	5.77	-50.4	-65.7	3.8	1.49e+00	0	41	104	0	72	20781
2026-01-10 11:21:45.51	208.14	5.83	-50.4	-65.7	3.8	1.49e+00	0	41	104	0	72	20782
2026-01-10 11:21:46.52	208.22	5.89	-50.4	-65.7	3.8	1.49e+00	0	41	104	0	72	20868
2026-01-10 11:21:47.52	208.31	5.95	-50.4	-65.7	3.8	1.49e+00	0	41	104	0	72	20831
2026-01-10 11:21:48.53	208.40	6.02	-50.4	-65.7	3.8	1.49e+00	0	41	104	0	72	20874
2026-01-10 11:21:49.53	208.48	6.08	-50.4	-65.7	3.8	1.49e+00	0	41	104	0	72	20917
2026-01-10 11:21:50.54	208.57	6.14	-50.4	-65.7	3.8	1.49e+00	0	41	104	0	72	20828
2026-01-10 11:21:51.54	208.66	6.21	-50.4	-65.7	3.8	1.49e+00	0	41	104	0	72	20820
2026-01-10 11:21:52.54	208.74	6.27	-50.4	-65.7	3.8	1.49e+00	0	41	104	0	72	20885
2026-01-10 11:21:53.55	208.83	6.33	-50.4	-65.7	3.8	1.49e+00	0	41	104	0	72	20802
2026-01-10 11:21:54.55	208.92	6.40	-50.4	-65.5	3.8	1.49e+00	0	41	104	0	72	20492
2026-01-10 11:21:55.56	209.01	6.46	-50.4	-65.3	3.8	1.49e+00	0	41	104	0	72	20063
2026-01-10 11:21:56.56	209.10	6.52	-50.4	-65.2	3.8	1.49e+00	0	41	104	0	72	19738
2026-01-10 11:21:57.56	209.19	6.59	-50.4	-65.0	3.8	1.49e+00	0	41	104	0	72	19362
2026-01-10 11:21:58.57	209.28	6.65	-50.4	-65.0	3.8	1.49e+00	0	41	104	0	72	19378
2026-01-10 11:21:59.57	209.37	6.72	-50.4	-65.2	3.8	1.49e+00	0	41	104	0	72	19697
2026-01-10 11:22:00.58	209.46	6.78	-50.4	-65.3	3.8	1.49e+00	0	42	104	0	72	20008
2026-01-10 11:22:01.58	209.55	6.84	-50.4	-65.4	3.8	1.49e+00	0	41	104	0	72	20274
2026-01-10 11:22:02.59	209.64	6.91	-50.4	-65.4	3.8	1.49e+00	0	42	104	0	72	20147
2026-01-10 11:22:03.59	209.73	6.97	-50.4	-65.3	3.8	1.49e+00	0	42	104	0	72	19932
2026-01-10 11:22:04.60	209.82	7.04	-50.4	-65.0	3.8	1.49e+00	0	42	104	0	72	19348
2026-01-10 11:22:05.60	209.92	7.10	-50.4	-64.8	3.8	1.49e+00	0	42	104	0	72	18886
2026-01-10 11:22:06.60	210.01	7.17	-50.3	-64.5	3.8	1.49e+00	0	42	104	0	72	18234
2026-01-10 11:22:07.61	210.10	7.23	-50.3	-64.3	3.8	1.49e+00	0	42	104	0	72	17792
2026-01-10 11:22:08.61	210.20	7.30	-50.3	-64.1	3.8	1.49e+00	0	41	104	0	72	17354
2026-01-10 11:22:09.62	210.29	7.36	-50.3	-64.0	3.8	1.49e+00	0	41	104	0	72	17183
2026-01-10 11:22:10.62	210.38	7.43	-50.3	-64.1	3.8	1.49e+00	0	42	104	0	72	17446
2026-01-10 11:22:11.63	210.48	7.49	-50.3	-64.2	3.8	1.49e+00	0	42	104	0	72	17519
2026-01-10 11:22:12.63	210.57	7.56	-50.3	-64.2	3.8	1.49e+00	0	42	104	0	72	17540
2026-01-10 11:22:13.63	210.67	7.62	-50.3	-64.2	3.8	1.49e+00	0	42	104	0	72	17503
2026-01-10 11:22:14.64	210.77	7.69	-50.3	-64.2	3.8	1.49e+00	0	42	104	0	72	17487
2026-01-10 11:22:15.64	210.86	7.75	-50.3	-64.4	3.8	1.49e+00	0	42	104	0	72	17920
2026-01-10 11:22:16.65	210.96	7.82	-50.4	-64.9	3.8	1.49e+00	0	42	104	0	72	18972
2026-01-10 11:22:17.65	211.06	7.88	-50.4	-65.4	3.8	1.49e+00	0	42	104	0	72	20197
2026-01-10 11:22:18.66	211.16	7.95	-50.4	-65.3	3.8	1.49e+00	0	42	104	0	72	20005
2026-01-10 11:22:19.66	211.25	8.02	-50.3	-63.5	3.8	1.49e+00	0	42	104	0	72	16174
2026-01-10 11:22:20.67	211.35	8.08	-50.0	-60.5	4.8	1.26e+00	0	42	0	0	72	11471
2026-01-10 11:22:21.67	211.45	8.15	-49.6	-57.6	6.7	4.15e-01	0	42	0	2097152	71	8726
2026-01-10 11:22:22.67	211.55	8.21	-48.9	-55.2	9.0	9.47e-02	0	42	0	4194304	69	7439
2026-01-10 11:22:23.68	211.65	8.28	-48.2	-53.4	11.0	4.68e-03	0	42	0	5242880	68	6367
2026-01-10 11:22:24.68	211.75	8.35	-47.4	-51.7	12.5	4.59e-04	0	42	0	7340032	66	5916
2026-01-10 11:22:25.69	211.85	8.41	-46.8	-50.8	13.5	4.65e-05	0	42	0	9437184	65	5617
2026-01-10 11:22:26.69	211.95	8.48	-46.5	-50.2	14.1	3.00e-06	0	42	0	11534336	65	5248
2026-01-10 11:22:27.70	212.06	8.55	-46.3	-49.8	14.5	1.50e-06	0	42	0	13631488	64	5325
2026-01-10 11:22:28.70	212.16	8.61	-46.3	-49.8	14.4	7.00e-07	0	42	0	14680064	64	5329
2026-01-10 11:22:29.71	212.26	8.68	-46.5	-50.2	14.1	1.50e-06	0	42	0	16777216	64	5587
2026-01-10 11:22:30.71	212.36	8.75	-46.8	-50.7	13.6	3.80e-06	0	42	0	18874368	64	5892
2026-01-10 11:22:31.72	212.47	8.82	-47.3	-51.7	12.6	2.67e-05	0	42	0	20971520	65	6250
2026-01-10 11:22:32.72	212.57	8.88	-47.9	-52.7	11.6	2.20e-04	0	42	0	23068672	66	6629
2026-01-10 11:22:33.72	212.68	8.95	-48.3	-53.8	10.5	2.67e-03	0	42	0	24117248	67	7048
2026-01-10 11:22:34.73	212.78	9.02	-48.6	-54.7	9.5	9.59e-03	0	42	0	26214400	67	7834
2026-01-10 11:22:35.73	212.89	9.09	-47.2	-51.3	13.0	1.80e-02	0	42	0	28311552	66	5631
2026-01-10 11:22:36.74	212.99	9.15	-47.2	-51.4	13.0	2.05e-05	0	42	0	30408704	65	6032
2026-01-10 11:22:37.74	213.10	9.22	-49.4	-56.9	7.6	6.20e-03	0	42	0	32505856	69	8994
2026-01-10 11:22:38.75	213.21	9.29	-48.9	-55.4	8.9	2.19e-01	0	42	0	33554432	69	7572
2026-01-10 11:22:39.75	213.31	9.36	-48.4	-53.6	11.1	1.83e-02	0	42	0	35651584	68	6557
2026-01-10 11:22:40.75	213.42	9.42	-48.1	-53.0	11.5	4.38e-03	0	42	0	37748736	68	6097
2026-01-10 11:22:41.75	213.53	9.49	-48.2	-53.2	11.3	9.71e-04	0	42	0	39845888	68	6259
2026-01-10 11:22:42.76	213.64	9.56	-47.8	-52.6	11.8	8.35e-04	0	42	0	41943040	67	6170
2026-01-10 11:22:43.76	213.75	9.63	-47.5	-52.0	12.4	2.27e-04	0	42	0	42991616	67	5760
2026-01-10 11:22:44.76	213.86	9.70	-47.2	-51.4	13.0	5.79e-05	0	42	0	45088768	66	5690
2026-01-10 11:22:45.76	213.96	9.77	-46.9	-50.9	13.6	1.37e-05	0	43	0	47185920	65	5665
2026-01-10 11:22:46.77	214.08	9.84	-46.6	-50.3	14.1	7.00e-07	0	42	0	49283072	65	5312
2026-01-10 11:22:47.77	214.19	9.90	-46.7	-50.5	13.9	1.50e-06	0	42	0	51380224	65	5443
2026-01-10 11:22:48.77	214.30	9.97	-46.5	-50.1	14.3	2.20e-06	0	42	0	52428800	65	5203
2026-01-10 11:22:49.78	214.41	10.04	-46.3	-49.8	14.6	7.00e-07	0	42	0	54525952	64	5303
2026-01-10 11:22:50.78	214.52	10.11	-46.3	-49.8	14.6	0.00e+00	0	42	0	56623104	64	5314
2026-01-10 11:22:51.78	214.64	10.18	-46.4	-49.9	14.5	0.00e+00	0	42	0	58720256	64	5392
2026-01-10 11:22:52.79	214.75	10.25	-46.4	-49.9	14.5	7.00e-07	0	42	0	60817408	64	5397
2026-01-10 11:22:53.79	214.86	10.32	-46.2	-49.7	14.8	0.00e+00	0	42	0	61865984	64	5243
2026-01-10 11:22:54.79	214.98	10.39	-46.3	-49.7	14.8	0.00e+00	0	42	0	63963136	64	5249
2026-01-10 11:22:55.79	215.09	10.46	-46.1	-49.5	14.9	7.00e-07	0	42	0	66060288	64	5144
2026-01-10 11:22:56.80	215.21	10.53	-46.0	-49.3	15.1	0.00e+00	0	42	0	68157440	64	5036
2026-01-10 11:22:57.80	215.33	10.60	-46.0	-49.4	15.0	7.00e-07	0	43	0	69206016	64	5066
2026-01-10 11:22:58.81	215.44	10.67	-45.9	-49.2	15.3	0.00e+00	0	42	0	71303168	63	5232
2026-01-10 11:22:59.81	215.56	10.74	-45.8	-49.0	15.5	0.00e+00	0	43	0	73400320	63	5110
2026-01-10 11:23:00.81	215.68	10.81	-45.8	-49.0	15.6	0.00e+00	0	43	0	75497472	63	5116
2026-01-10 11:23:01.82	215.80	10.88	-45.9	-49.1	15.4	0.00e+00	0	42	0	77594624	63	5204
2026-01-10 11:23:02.82	215.92	10.95	-45.9	-49.1	15.4	0.00e+00	0	43	0	79691776	63	5205
2026-01-10 11:23:03.82	216.04	11.02	-45.9	-49.1	15.5	0.00e+00	0	43	0	80740352	63	5167
2026-01-10 11:23:04.82	216.16	11.09	-45.9	-49.1	15.4	0.00e+00	0	42	0	82837504	63	5206
2026-01-10 11:23:05.83	216.28	11.16	-45.9	-49.1	15.5	0.00e+00	0	42	0	84934656	63	5187
2026-01-10 11:23:06.83	216.40	11.23	-45.9	-49.2	15.4	0.00e+00	0	43	0	87031808	63	5222
2026-01-10 11:23:07.83	216.52	11.30	-46.0	-49.3	15.3	0.00e+00	0	42	0	88080384	63	5280
2026-01-10 11:23:08.84	216.64	11.37	-45.9	-49.2	15.4	0.00e+00	0	43	0	90177536	63	5247
2026-01-10 11:23:09.84	216.77	11.44	-45.9	-49.1	15.5	0.00e+00	0	43	0	92274688	63	5173
2026-01-10 11:23:10.84	216.89	11.51	-45.8	-49.0	15.6	0.00e+00	0	43	0	94371840	63	5117
2026-01-10 11:23:11.84	217.01	11.58	-45.8	-49.0	15.6	0.00e+00	0	43	0	96468992	63	5106
2026-01-10 11:23:12.84	217.14	11.65	-45.8	-48.9	15.6	0.00e+00	0	43	0	97517568	63	5098
2026-01-10 11:23:13.85	217.26	11.72	-45.8	-49.0	15.6	0.00e+00	0	43	0	99614720	63	5101
2026-01-10 11:23:14.85	217.39	11.79	-45.8	-49.0	15.6	0.00e+00	0	43	0	101711872	63	5123
2026-01-10 11:23:15.85	217.52	11.87	-45.9	-49.1	15.5	0.00e+00	0	42	0	103809024	63	5162
2026-01-10 11:23:16.86	217.64	11.94	-45.9	-49.1	15.5	0.00e+00	0	43	0	105906176	63	5202
2026-01-10 11:23:17.86	217.77	12.01	-45.9	-49.1	15.5	0.00e+00	0	43	0	106954752	63	5186
2026-01-10 11:23:18.86	217.90	12.08	-46.0	-49.3	15.3	0.00e+00	0	43	0	109051904	63	5317
2026-01-10 11:23:19.86	218.03	12.15	-46.0	-49.3	15.2	0.00e+00	0	43	0	111149056	63	5340
2026-01-10 11:23:20.87	218.16	12.22	-46.0	-49.4	15.3	0.00e+00	0	43	0	113246208	63	5346
2026-01-10 11:23:21.87	218.29	12.29	-46.0	-49.4	15.3	0.00e+00	0	43	0	115343360	63	5343
2026-01-10 11:23:22.87	218.42	12.37	-45.9	-49.2	15.4	0.00e+00	0	43	0	116391936	63	5257
2026-01-10 11:23:23.88	218.55	12.44	-46.0	-49.3	15.3	0.00e+00	0	43	0	118489088	63	5306
2026-01-10 11:23:24.88	218.68	12.51	-46.0	-49.3	15.3	0.00e+00	0	43	0	120586240	63	5284
2026-01-10 11:23:25.88	218.81	12.58	-46.1	-49.4	15.3	0.00e+00	0	43	0	122683392	63	5355
2026-01-10 11:23:26.89	218.95	12.66	-46.0	-49.3	15.4	0.00e+00	0	43	0	124780544	63	5282
2026-01-10 11:23:27.89	219.08	12.73	-45.8	-49.0	15.6	0.00e+00	0	43	0	125829120	63	5119
2026-01-10 11:23:28.89	219.22	12.80	-46.0	-49.1	15.5	0.00e+00	0	43	0	127926272	63	5217
2026-01-10 11:23:29.90	219.35	12.87	-45.8	-48.9	15.7	0.00e+00	0	43	0	130023424	63	5057
2026-01-10 11:23:30.90	219.49	12.94	-45.8	-48.9	15.7	0.00e+00	0	43	0	132120576	63	5069
2026-01-10 11:23:31.90	219.62	13.02	-45.7	-48.7	15.9	0.00e+00	0	43	0	133169152	63	4977
2026-01-10 11:23:32.91	219.76	13.09	-45.8	-48.9	15.7	0.00e+00	0	43	0	135266304	63	5076
2026-01-10 11:23:33.91	219.90	13.16	-45.8	-48.9	15.7	0.00e+00	0	43	0	137363456	63	5081
2026-01-10 11:23:34.92	220.04	13.24	-45.8	-48.9	15.8	0.00e+00	0	43	0	139460608	63	5046
2026-01-10 11:23:35.92	220.18	13.31	-45.8	-48.8	15.8	0.00e+00	0	43	0	141557760	63	5033
2026-01-10 11:23:36.92	220.32	13.38	-45.7	-48.7	15.9	0.00e+00	0	43	0	142606336	63	4978
2026-01-10 11:23:37.93	220.46	13.45	-45.7	-48.7	16.0	0.00e+00	0	43	0	144703488	63	4955
2026-01-10 11:23:38.93	220.60	13.53	-45.6	-48.6	16.0	0.00e+00	0	43	0	146800640	63	4907
2026-01-10 11:23:39.93	220.74	13.60	-45.7	-48.7	15.9	0.00e+00	0	43	0	148897792	63	4964
2026-01-10 11:23:40.93	220.88	13.67	-45.6	-48.6	16.0	0.00e+00	0	43	0	150994944	63	4906
2026-01-10 11:23:41.94	221.02	13.75	-45.6	-48.7	16.0	0.00e+00	0	43	0	152043520	63	4948
2026-01-10 11:23:42.94	221.17	13.82	-45.7	-48.8	15.9	0.00e+00	0	43	0	154140672	63	4997
2026-01-10 11:23:43.94	221.31	13.89	-45.7	-48.8	15.9	0.00e+00	0	43	0	156237824	63	4997
2026-01-10 11:23:44.94	221.46	13.97	-45.6	-48.6	16.0	0.00e+00	0	43	0	158334976	63	4920
2026-01-10 11:23:45.95	221.60	14.04	-45.7	-48.8	15.9	0.00e+00	0	43	0	160432128	63	5021
2026-01-10 11:23:46.95	221.75	14.11	-45.7	-48.8	15.8	0.00e+00	0	43	0	161480704	63	5024
2026-01-10 11:23:47.95	221.90	14.19	-45.8	-48.9	15.8	0.00e+00	0	43	0	163577856	63	5061
2026-01-10 11:23:48.95	222.04	14.26	-45.8	-48.9	15.8	0.00e+00	0	43	0	165675008	63	5068
2026-01-10 11:23:49.96	222.19	14.33	-45.8	-48.9	15.8	0.00e+00	0	43	0	167772160	63	5054
2026-01-10 11:23:50.96	222.34	14.41	-45.8	-48.9	15.8	0.00e+00	0	43	0	169869312	63	5055
2026-01-10 11:23:51.96	222.49	14.48	-45.8	-48.9	15.8	0.00e+00	0	43	0	170917888	63	5047
2026-01-10 11:23:52.97	222.64	14.55	-45.7	-48.8	15.8	0.00e+00	0	43	0	173015040	63	5025
2026-01-10 11:23:53.97	222.80	14.63	-45.7	-48.8	15.9	0.00e+00	0	43	0	175112192	63	5010
2026-01-10 11:23:54.97	222.95	14.70	-45.8	-48.8	15.9	0.00e+00	0	43	0	177209344	63	5024
2026-01-10 11:23:55.98	223.10	14.78	-45.6	-48.6	16.1	0.00e+00	0	43	0	179306496	63	4916
2026-01-10 11:23:56.98	223.26	14.85	-45.7	-48.7	16.0	0.00e+00	0	43	0	180355072	63	4960
2026-01-10 11:23:57.98	223.41	14.92	-45.7	-48.7	16.0	0.00e+00	0	43	0	182452224	63	4952
2026-01-10 11:23:58.99	223.57	15.00	-45.7	-48.8	15.9	0.00e+00	0	43	0	184549376	63	5002
2026-01-10 11:23:59.99	223.72	15.07	-45.7	-48.7	16.0	0.00e+00	0	43	0	186646528	63	4974
2026-01-10 11:24:00.99	223.88	15.14	-45.7	-48.6	16.1	0.00e+00	0	43	0	187695104	63	4918
2026-01-10 11:24:02.00	224.04	15.22	-45.7	-48.7	16.0	0.00e+00	0	43	0	189792256	63	4973
2026-01-10 11:24:03.00	224.19	15.29	-45.6	-48.6	16.1	0.00e+00	0	43	0	191889408	63	4900
2026-01-10 11:24:04.00	224.35	15.37	-45.6	-48.5	16.2	0.00e+00	0	43	0	193986560	63	4863
2026-01-10 11:24:05.01	224.51	15.44	-45.6	-48.5	16.2	0.00e+00	0	43	0	196083712	63	4841
2026-01-10 11:24:06.01	224.67	15.52	-45.5	-48.5	16.3	0.00e+00	0	43	0	198180864	63	4836
2026-01-10 11:24:07.02	224.84	15.59	-45.6	-48.5	16.2	0.00e+00	0	43	0	199229440	63	4840
2026-01-10 11:24:08.02	225.00	15.66	-45.6	-48.6	16.2	0.00e+00	0	43	0	201326592	63	4871
2026-01-10 11:24:09.02	225.16	15.74	-45.5	-48.4	16.3	0.00e+00	0	43	0	203423744	63	4768
2026-01-10 11:24:10.02	225.32	15.81	-45.5	-48.4	16.3	0.00e+00	0	43	0	205520896	62	5093
2026-01-10 11:24:11.03	225.49	15.89	-45.5	-48.4	16.3	0.00e+00	0	43	0	206569472	62	5098
2026-01-10 11:24:12.03	225.65	15.96	-45.5	-48.3	16.4	0.00e+00	0	43	0	208666624	62	5029
2026-01-10 11:24:13.03	225.82	16.03	-45.4	-48.3	16.5	0.00e+00	0	43	0	210763776	62	4995
2026-01-10 11:24:14.03	225.99	16.11	-45.4	-48.2	16.5	0.00e+00	0	43	0	212860928	62	4965
2026-01-10 11:24:15.04	226.15	16.18	-45.3	-48.1	16.6	0.00e+00	0	43	0	214958080	62	4902
2026-01-10 11:24:16.04	226.32	16.26	-45.2	-48.0	16.7	0.00e+00	0	43	0	216006656	62	4848
2026-01-10 11:24:17.04	226.49	16.33	-45.3	-48.1	16.7	0.00e+00	0	43	0	218103808	62	4903
2026-01-10 11:24:18.05	226.66	16.40	-45.3	-48.0	16.7	0.00e+00	0	43	0	220200960	62	4869
2026-01-10 11:24:19.05	226.83	16.48	-45.3	-48.0	16.7	0.00e+00	0	43	0	222298112	62	4863
2026-01-10 11:24:20.05	227.00	16.55	-45.2	-48.0	16.8	0.00e+00	0	43	0	224395264	62	4821
2026-01-10 11:24:21.06	227.18	16.63	-45.2	-48.0	16.8	0.00e+00	0	43	0	225443840	62	4825
2026-01-10 11:24:22.06	227.35	16.70	-45.2	-47.9	16.8	0.00e+00	0	43	0	227540992	62	4802
2026-01-10 11:24:23.06	227.53	16.77	-45.1	-47.9	16.9	0.00e+00	0	43	0	229638144	62	4763
2026-01-10 11:24:24.06	227.70	16.85	-45.2	-48.0	16.8	0.00e+00	0	43	0	231735296	62	4852
2026-01-10 11:24:25.06	227.88	16.92	-45.3	-48.0	16.8	0.00e+00	0	43	0	233832448	62	4862
2026-01-10 11:24:26.07	228.05	17.00	-45.3	-48.1	16.7	0.00e+00	0	43	0	234881024	62	4881
2026-01-10 11:24:27.07	228.23	17.07	-45.2	-48.0	16.8	0.00e+00	0	43	0	236978176	62	4831
2026-01-10 11:24:28.07	228.41	17.14	-45.2	-48.0	16.8	0.00e+00	0	43	0	239075328	62	4836
2026-01-10 11:24:29.07	228.59	17.22	-45.3	-48.1	16.7	0.00e+00	0	43	0	241172480	62	4876
2026-01-10 11:24:30.08	228.77	17.29	-45.3	-48.2	16.6	0.00e+00	0	43	0	243269632	62	4940
2026-01-10 11:24:31.08	228.95	17.36	-45.3	-48.2	16.6	0.00e+00	0	43	0	244318208	62	4946
2026-01-10 11:24:32.08	229.13	17.44	-45.4	-48.2	16.6	0.00e+00	0	43	0	246415360	62	4950
2026-01-10 11:24:33.08	229.31	17.51	-45.4	-48.3	16.5	0.00e+00	0	43	0	248512512	62	4996
2026-01-10 11:24:34.09	229.50	17.59	-45.5	-48.4	16.5	0.00e+00	0	43	0	250609664	62	5047
2026-01-10 11:24:35.09	229.68	17.66	-45.6	-48.4	16.4	0.00e+00	0	43	0	251658240	62	5092
2026-01-10 11:24:36.10	229.87	17.73	-45.7	-48.6	16.2	0.00e+00	0	43	0	253755392	62	5212
2026-01-10 11:24:37.10	230.05	17.81	-45.7	-48.6	16.2	0.00e+00	0	43	0	255852544	62	5189
2026-01-10 11:24:38.10	230.24	17.88	-45.7	-48.7	16.2	0.00e+00	0	43	0	257949696	62	5226
2026-01-10 11:24:39.10	230.43	17.95	-45.7	-48.7	16.1	0.00e+00	0	43	0	260046848	62	5243
2026-01-10 11:24:40.10	230.62	18.02	-45.7	-48.6	16.3	0.00e+00	0	43	0	261095424	62	5177
2026-01-10 11:24:41.11	230.81	18.10	-45.5	-48.4	16.4	0.00e+00	0	43	0	263192576	62	5081
2026-01-10 11:24:42.11	231.00	18.17	-45.5	-48.3	16.5	0.00e+00	0	43	0	265289728	62	5022
2026-01-10 11:24:43.11	231.19	18.24	-45.4	-48.3	16.5	0.00e+00	0	43	0	267386880	62	5013
2026-01-10 11:24:44.12	231.38	18.32	-45.4	-48.3	16.6	0.00e+00	0	43	0	269484032	62	4994
2026-01-10 11:24:45.12	231.57	18.39	-45.3	-48.1	16.8	0.00e+00	0	43	0	270532608	62	4884
2026-01-10 11:24:46.12	231.77	18.46	-45.1	-47.9	16.9	0.00e+00	0	43	0	272629760	62	4772
2026-01-10 11:24:47.12	231.96	18.53	-45.2	-47.9	16.9	0.00e+00	0	43	0	274726912	62	4800
2026-01-10 11:24:48.13	232.16	18.61	-45.2	-48.0	16.9	0.00e+00	0	43	0	276824064	62	4825
2026-01-10 11:24:49.13	232.36	18.68	-45.1	-47.8	17.0	0.00e+00	0	43	0	278921216	62	4754
2026-01-10 11:24:50.13	232.55	18.75	-45.0	-47.8	17.1	0.00e+00	0	43	0	279969792	62	4706
2026-01-10 11:24:51.14	232.75	18.82	-45.0	-47.7	17.1	0.00e+00	0	43	0	282066944	62	4690
2026-01-10 11:24:52.14	232.95	18.89	-45.0	-47.7	17.2	0.00e+00	0	43	0	284164096	62	4667
2026-01-10 11:24:53.14	233.15	18.96	-45.0	-47.7	17.1	0.00e+00	0	43	0	286261248	62	4673
2026-01-10 11:24:54.15	233.36	19.04	-44.8	-47.5	17.3	0.00e+00	0	43	0	288358400	61	4836
2026-01-10 11:24:55.15	233.56	19.11	-44.8	-47.5	17.3	0.00e+00	0	43	0	289406976	61	4821
2026-01-10 11:24:56.15	233.76	19.18	-44.6	-47.2	17.6	0.00e+00	0	43	0	291504128	61	4669
2026-01-10 11:24:57.15	233.96	19.25	-44.5	-47.1	17.7	0.00e+00	0	43	0	293601280	60	4888
2026-01-10 11:24:58.16	234.17	19.32	-44.4	-47.0	17.8	0.00e+00	0	43	0	295698432	60	4850
2026-01-10 11:24:59.16	234.38	19.39	-44.4	-47.0	17.8	0.00e+00	0	43	0	297795584	60	4825
2026-01-10 11:25:00.16	234.58	19.46	-44.4	-47.0	17.8	0.00e+00	0	43	0	298844160	60	4825
2026-01-10 11:25:01.17	234.79	19.53	-44.5	-47.1	17.7	0.00e+00	0	43	0	300941312	60	4904
2026-01-10 11:25:02.17	235.00	19.60	-44.6	-47.2	17.6	0.00e+00	0	43	0	303038464	60	4942
2026-01-10 11:25:03.17	235.21	19.67	-44.5	-47.1	17.7	0.00e+00	0	43	0	305135616	60	4919
2026-01-10 11:25:04.17	235.42	19.74	-44.4	-47.0	17.9	0.00e+00	0	43	0	306184192	60	4835
2026-01-10 11:25:05.18	235.63	19.81	-44.4	-46.9	17.9	0.00e+00	0	43	0	308281344	60	4792
2026-01-10 11:25:06.18	235.85	19.88	-44.3	-46.9	17.9	0.00e+00	0	43	0	310378496	60	4764
2026-01-10 11:25:07.18	236.06	19.95	-44.3	-46.8	18.0	0.00e+00	0	43	0	312475648	60	4735
2026-01-10 11:25:08.18	236.27	20.02	-44.3	-46.8	17.9	0.00e+00	0	43	0	314572800	60	4759
2026-01-10 11:25:09.19	236.49	20.09	-44.4	-46.9	17.9	0.00e+00	0	43	0	315621376	60	4803
2026-01-10 11:25:10.19	236.71	20.16	-44.4	-47.0	17.8	0.00e+00	0	43	0	317718528	60	4843
2026-01-10 11:25:11.19	236.92	20.23	-44.4	-47.0	17.8	0.00e+00	0	43	0	319815680	60	4825
2026-01-10 11:25:12.20	237.14	20.30	-44.6	-47.2	17.7	0.00e+00	0	43	0	321912832	60	4932
2026-01-10 11:25:13.20	237.36	20.36	-44.5	-47.1	17.8	0.00e+00	0	43	0	324009984	60	4879
2026-01-10 11:25:14.20	237.58	20.43	-44.6	-47.2	17.7	0.00e+00	0	43	0	325058560	60	4928
2026-01-10 11:25:15.20	237.80	20.50	-44.6	-47.2	17.7	0.00e+00	0	43	0	327155712	60	4936
2026-01-10 11:25:16.20	238.02	20.57	-44.6	-47.2	17.7	0.00e+00	0	43	0	329252864	60	4935
2026-01-10 11:25:17.21	238.25	20.63	-44.5	-47.1	17.8	0.00e+00	0	43	0	331350016	60	4873
2026-01-10 11:25:18.21	238.47	20.70	-44.5	-47.1	17.7	0.00e+00	0	43	0	333447168	60	4876
2026-01-10 11:25:19.21	238.70	20.77	-44.6	-47.1	17.7	0.00e+00	0	43	0	334495744	60	4921
2026-01-10 11:25:20.21	238.92	20.83	-44.6	-47.2	17.7	0.00e+00	0	43	0	336592896	60	4927
2026-01-10 11:25:21.22	239.15	20.90	-44.6	-47.2	17.7	0.00e+00	0	43	0	338690048	60	4945
2026-01-10 11:25:22.22	239.38	20.96	-44.7	-47.3	17.6	0.00e+00	0	43	0	340787200	60	4996
2026-01-10 11:25:23.23	239.61	21.03	-44.8	-47.4	17.5	0.00e+00	0	43	0	342884352	60	5058
2026-01-10 11:25:24.23	239.84	21.09	-44.8	-47.4	17.5	0.00e+00	0	43	0	343932928	60	5046
2026-01-10 11:25:25.23	240.07	21.16	-44.8	-47.4	17.4	0.00e+00	0	43	0	346030080	60	5091
2026-01-10 11:25:26.24	240.30	21.22	-44.7	-47.3	17.5	0.00e+00	0	43	0	348127232	60	5007
2026-01-10 11:25:27.24	240.53	21.29	-44.7	-47.3	17.5	0.00e+00	0	43	0	350224384	60	5009
2026-01-10 11:25:28.24	240.76	21.35	-44.8	-47.4	17.4	0.00e+00	0	43	0	352321536	60	5098
2026-01-10 11:25:29.25	241.00	21.42	-44.9	-47.6	17.3	0.00e+00	0	43	0	353370112	60	5161
2026-01-10 11:25:30.25	241.23	21.48	-45.0	-47.6	17.3	0.00e+00	0	43	0	355467264	60	5206
2026-01-10 11:25:31.26	241.47	21.54	-45.1	-47.8	17.0	0.00e+00	0	43	0	357564416	60	5315
2026-01-10 11:25:32.26	241.71	21.61	-45.2	-47.9	17.0	0.00e+00	0	43	0	359661568	61	5059
2026-01-10 11:25:33.26	241.95	21.67	-45.2	-48.0	16.9	0.00e+00	0	43	0	361758720	61	5108
2026-01-10 11:25:34.27	242.19	21.73	-45.3	-48.1	16.8	0.00e+00	0	43	0	362807296	61	5172
2026-01-10 11:25:35.27	242.43	21.79	-45.3	-48.1	16.8	0.00e+00	0	43	0	364904448	61	5177
2026-01-10 11:25:36.27	242.67	21.85	-45.3	-48.1	16.8	0.00e+00	0	43	0	367001600	61	5183
2026-01-10 11:25:37.28	242.91	21.91	-45.3	-48.1	16.8	0.00e+00	0	43	0	369098752	61	5181
2026-01-10 11:25:38.28	243.15	21.97	-45.2	-47.9	16.9	0.00e+00	0	43	0	370147328	61	5091
2026-01-10 11:25:39.28	243.40	22.03	-45.2	-48.0	16.9	0.00e+00	0	43	0	372244480	61	5124
2026-01-10 11:25:40.28	243.64	22.09	-45.4	-48.1	16.8	0.00e+00	0	43	0	374341632	61	5218
2026-01-10 11:25:41.29	243.89	22.15	-45.4	-48.2	16.7	0.00e+00	0	43	0	376438784	61	5266
2026-01-10 11:25:42.29	244.13	22.21	-45.4	-48.2	16.7	0.00e+00	0	43	0	378535936	61	5258
2026-01-10 11:25:43.29	244.38	22.27	-45.4	-48.2	16.6	0.00e+00	0	43	0	379584512	61	5273
2026-01-10 11:25:44.29	244.63	22.33	-45.4	-48.2	16.6	0.00e+00	0	43	0	381681664	61	5262
2026-01-10 11:25:45.30	244.88	22.39	-45.5	-48.3	16.6	0.00e+00	0	43	0	383778816	61	5299
2026-01-10 11:25:46.30	245.13	22.44	-45.3	-48.1	16.7	0.00e+00	0	43	0	385875968	61	5209
2026-01-10 11:25:47.30	245.38	22.50	-45.3	-48.1	16.8	0.00e+00	0	43	0	387973120	61	5176
2026-01-10 11:25:48.31	245.63	22.56	-45.3	-48.0	16.8	0.00e+00	0	43	0	389021696	61	5147
2026-01-10 11:25:49.30	245.88	22.61	-45.1	-47.8	17.1	0.00e+00	0	43	0	391118848	61	4995
2026-01-10 11:25:50.31	246.14	22.67	-45.1	-47.8	17.0	0.00e+00	0	43	0	393216000	61	5003
2026-01-10 11:25:51.31	246.39	22.72	-45.1	-47.9	17.0	0.00e+00	0	43	0	395313152	61	5056
2026-01-10 11:25:52.31	246.64	22.78	-45.2	-48.0	16.9	0.00e+00	0	43	0	397410304	61	5117
2026-01-10 11:25:53.32	246.90	22.83	-45.4	-48.2	16.7	0.00e+00	0	43	0	398458880	61	5252
2026-01-10 11:25:54.32	247.16	22.89	-45.5	-48.3	16.6	0.00e+00	0	43	0	400556032	61	5330
2026-01-10 11:25:55.32	247.42	22.94	-45.6	-48.5	16.4	0.00e+00	0	43	0	402653184	61	5405
2026-01-10 11:25:56.32	247.67	22.99	-45.7	-48.6	16.3	0.00e+00	0	43	0	404750336	61	5489
2026-01-10 11:25:57.33	247.94	23.04	-45.7	-48.6	16.3	0.00e+00	0	43	0	406847488	62	5210
2026-01-10 11:25:58.33	248.20	23.10	-45.9	-48.9	16.0	0.00e+00	0	43	0	407896064	62	5366
2026-01-10 11:25:59.34	248.46	23.15	-45.8	-48.8	16.1	0.00e+00	0	43	0	409993216	62	5333
2026-01-10 11:26:00.34	248.72	23.20	-45.8	-48.8	16.1	0.00e+00	0	43	0	412090368	62	5337
2026-01-10 11:26:01.34	248.98	23.25	-45.9	-48.9	16.1	0.00e+00	0	43	0	414187520	62	5365
2026-01-10 11:26:02.34	249.25	23.30	-45.8	-48.8	16.1	0.00e+00	0	43	0	415236096	62	5326
2026-01-10 11:26:03.35	249.51	23.35	-45.9	-48.9	16.0	0.00e+00	0	43	0	417333248	62	5369
2026-01-10 11:26:04.35	249.78	23.40	-46.0	-49.0	15.9	0.00e+00	0	43	0	419430400	62	5462
2026-01-10 11:26:05.36	250.05	23.44	-46.2	-49.3	15.7	0.00e+00	0	43	0	421527552	62	5617
2026-01-10 11:26:06.36	250.31	23.49	-46.3	-49.5	15.4	0.00e+00	0	43	0	423624704	63	5440
2026-01-10 11:26:07.36	250.58	23.54	-46.5	-49.7	15.3	0.00e+00	0	43	0	425721856	63	5558
2026-01-10 11:26:08.37	250.85	23.58	-46.5	-49.8	15.1	0.00e+00	0	43	0	426770432	63	5615
2026-01-10 11:26:09.37	251.12	23.63	-46.5	-49.7	15.2	0.00e+00	0	43	0	428867584	63	5585
2026-01-10 11:26:10.37	251.39	23.68	-46.4	-49.7	15.2	0.00e+00	0	43	0	430964736	63	5550
2026-01-10 11:26:11.37	251.66	23.72	-46.2	-49.4	15.5	0.00e+00	0	43	0	433061888	63	5365
2026-01-10 11:26:12.38	251.93	23.76	-46.2	-49.3	15.6	0.00e+00	0	43	0	434110464	63	5324
2026-01-10 11:26:13.37	252.20	23.81	-46.0	-49.1	15.8	0.00e+00	0	43	0	436207616	63	5211
2026-01-10 11:26:14.38	252.48	23.85	-46.0	-49.1	15.8	0.00e+00	0	43	0	438304768	63	5197
2026-01-10 11:26:15.38	252.75	23.89	-45.9	-49.0	15.9	0.00e+00	0	43	0	440401920	63	5110
2026-01-10 11:26:16.38	253.02	23.93	-45.9	-48.9	16.1	0.00e+00	0	43	0	442499072	63	5046
2026-01-10 11:26:17.38	253.30	23.98	-45.9	-48.9	16.0	0.00e+00	0	43	0	443547648	63	5073
2026-01-10 11:26:18.39	253.57	24.02	-46.1	-49.2	15.7	0.00e+00	0	43	0	445644800	63	5244
2026-01-10 11:26:19.39	253.85	24.06	-46.2	-49.4	15.5	0.00e+00	0	43	0	447741952	63	5370
2026-01-10 11:26:20.40	254.13	24.10	-46.4	-49.7	15.2	0.00e+00	0	43	0	449839104	63	5556
2026-01-10 11:26:21.40	254.41	24.13	-46.5	-49.9	15.0	0.00e+00	0	43	0	451936256	63	5696
2026-01-10 11:26:22.40	254.68	24.17	-46.6	-49.9	15.0	0.00e+00	0	43	0	452984832	63	5700
2026-01-10 11:26:23.41	254.97	24.21	-46.5	-49.8	15.1	0.00e+00	0	43	0	455081984	63	5624
2026-01-10 11:26:24.41	255.25	24.25	-46.4	-49.7	15.2	0.00e+00	0	43	0	457179136	63	5556
2026-01-10 11:26:25.41	255.53	24.28	-46.3	-49.5	15.4	0.00e+00	0	43	0	459276288	63	5438
2026-01-10 11:26:26.41	255.81	24.32	-46.3	-49.4	15.5	0.00e+00	0	43	0	461373440	63	5393
2026-01-10 11:26:27.41	256.09	24.35	-46.3	-49.5	15.4	0.00e+00	0	43	0	462422016	63	5436
2026-01-10 11:26:28.41	256.37	24.39	-46.4	-49.7	15.2	0.00e+00	0	43	0	464519168	63	5568
2026-01-10 11:26:29.42	256.65	24.42	-46.6	-50.0	15.0	0.00e+00	0	43	0	466616320	63	5723
2026-01-10 11:26:30.42	256.94	24.45	-46.6	-50.1	14.8	0.00e+00	0	43	0	468713472	64	5466
2026-01-10 11:26:31.42	257.22	24.48	-46.7	-50.3	14.6	7.00e-07	0	43	0	470810624	64	5596
2026-01-10 11:26:32.43	257.51	24.52	-46.9	-50.5	14.4	7.00e-07	0	43	0	471859200	64	5740
2026-01-10 11:26:33.43	257.79	24.55	-46.8	-50.3	14.5	0.00e+00	0	43	0	473956352	64	5644
2026-01-10 11:26:34.43	258.08	24.58	-46.8	-50.3	14.5	7.00e-07	0	43	0	476053504	64	5615
2026-01-10 11:26:35.44	258.36	24.61	-46.8	-50.3	14.5	0.00e+00	0	43	0	478150656	64	5615
2026-01-10 11:26:36.44	258.65	24.63	-46.5	-49.9	14.9	7.00e-07	0	43	0	479199232	64	5373
2026-01-10 11:26:37.44	258.94	24.66	-46.4	-49.7	15.2	0.00e+00	0	43	0	481296384	64	5236
2026-01-10 11:26:38.44	259.22	24.69	-46.4	-49.6	15.2	0.00e+00	0	43	0	483393536	64	5211
2026-01-10 11:26:39.45	259.51	24.72	-46.3	-49.6	15.3	0.00e+00	0	43	0	485490688	64	5163
2026-01-10 11:26:40.45	259.80	24.74	-46.3	-49.6	15.2	0.00e+00	0	43	0	487587840	64	5201
2026-01-10 11:26:41.45	260.09	24.77	-46.5	-49.8	15.0	0.00e+00	0	43	0	488636416	64	5318
2026-01-10 11:26:42.45	260.38	24.79	-46.5	-49.9	15.0	0.00e+00	0	43	0	490733568	64	5375
2026-01-10 11:26:43.45	260.67	24.81	-46.5	-49.9	14.9	0.00e+00	0	43	0	492830720	64	5383
2026-01-10 11:26:44.46	260.96	24.84	-46.4	-49.8	15.1	0.00e+00	0	43	0	494927872	64	5286
2026-01-10 11:26:45.46	261.25	24.86	-46.3	-49.6	15.3	0.00e+00	0	43	0	497025024	64	5163
2026-01-10 11:26:46.46	261.54	24.88	-46.1	-49.4	15.5	0.00e+00	0	43	0	498073600	64	5057
2026-01-10 11:26:47.47	261.83	24.90	-46.0	-49.1	15.7	0.00e+00	0	43	0	500170752	63	5208
2026-01-10 11:26:48.47	262.13	24.92	-45.8	-48.8	16.1	0.00e+00	0	43	0	502267904	63	5037
2026-01-10 11:26:49.47	262.42	24.94	-45.6	-48.6	16.3	0.00e+00	0	43	0	504365056	63	4898
2026-01-10 11:26:50.48	262.71	24.96	-45.5	-48.4	16.4	0.00e+00	0	43	0	506462208	63	4791
2026-01-10 11:26:51.48	263.00	24.97	-45.6	-48.5	16.4	0.00e+00	0	43	0	507510784	63	4861
2026-01-10 11:26:52.48	263.30	24.99	-45.5	-48.5	16.4	0.00e+00	0	43	0	509607936	63	4834
2026-01-10 11:26:53.48	263.59	25.01	-45.6	-48.5	16.4	0.00e+00	0	43	0	511705088	63	4843
2026-01-10 11:26:54.48	263.88	25.02	-45.6	-48.5	16.4	0.00e+00	0	43	0	513802240	63	4844
2026-01-10 11:26:55.49	264.18	25.04	-45.7	-48.7	16.2	0.00e+00	0	43	0	515899392	63	4929
2026-01-10 11:26:56.49	264.47	25.05	-45.7	-48.6	16.2	0.00e+00	0	43	0	516947968	63	4925
2026-01-10 11:26:57.49	264.77	25.06	-45.6	-48.5	16.4	0.00e+00	0	43	0	519045120	63	4828
2026-01-10 11:26:58.50	265.06	25.07	-45.5	-48.3	16.5	0.00e+00	0	43	0	521142272	63	4758
2026-01-10 11:26:59.50	265.36	25.08	-45.6	-48.5	16.3	0.00e+00	0	43	0	523239424	63	4866
2026-01-10 11:27:00.50	265.65	25.10	-45.7	-48.6	16.3	0.00e+00	0	43	0	524288000	63	4892
2026-01-10 11:27:01.51	265.95	25.10	-45.8	-48.8	16.1	0.00e+00	0	43	0	526385152	63	4992
2026-01-10 11:27:02.51	266.24	25.11	-45.9	-48.9	16.0	0.00e+00	0	43	0	528482304	63	5064
2026-01-10 11:27:03.51	266.54	25.12	-46.0	-49.1	15.8	0.00e+00	0	43	0	530579456	63	5164
2026-01-10 11:27:04.51	266.83	25.13	-46.3	-49.5	15.3	0.00e+00	0	43	0	532676608	63	5462
2026-01-10 11:27:05.51	267.13	25.14	-46.4	-49.7	15.2	1.50e-06	0	43	0	533725184	63	5546
2026-01-10 11:27:06.52	267.43	25.14	-46.5	-49.8	15.1	0.00e+00	0	43	0	535822336	63	5613
2026-01-10 11:27:07.52	267.72	25.15	-46.3	-49.6	15.3	0.00e+00	0	43	0	537919488	63	5508
2026-01-10 11:27:08.52	268.02	25.15	-46.0	-49.1	15.7	0.00e+00	0	43	0	540016640	63	5200
2026-01-10 11:27:09.53	268.31	25.15	-45.9	-49.0	15.9	0.00e+00	0	43	0	542113792	63	5114
2026-01-10 11:27:10.53	268.61	25.16	-45.8	-48.8	16.1	0.00e+00	0	43	0	543162368	63	4991
2026-01-10 11:27:11.53	268.91	25.16	-45.6	-48.6	16.3	0.00e+00	0	43	0	545259520	63	4892
2026-01-10 11:27:12.54	269.20	25.16	-45.6	-48.6	16.2	0.00e+00	0	43	0	547356672	63	4917
2026-01-10 11:27:13.54	269.50	25.16	-45.6	-48.6	16.3	0.00e+00	0	43	0	549453824	63	4912
2026-01-10 11:27:14.54	269.79	25.16	-45.7	-48.7	16.2	0.00e+00	0	43	0	551550976	63	4947
2026-01-10 11:27:15.54	270.09	25.16	-45.7	-48.8	16.1	0.00e+00	0	43	0	552599552	63	5004
2026-01-10 11:27:16.55	270.39	25.15	-45.7	-48.8	16.1	0.00e+00	0	43	0	554696704	63	4995
2026-01-10 11:27:17.55	270.68	25.15	-45.9	-49.0	15.9	0.00e+00	0	43	0	556793856	63	5107
2026-01-10 11:27:18.56	270.98	25.15	-45.8	-48.8	16.1	0.00e+00	0	43	0	558891008	63	5023
2026-01-10 11:27:19.56	271.28	25.14	-45.8	-48.8	16.1	0.00e+00	0	43	0	560988160	63	5015
2026-01-10 11:27:20.56	271.57	25.14	-45.8	-48.8	16.1	0.00e+00	0	43	0	562036736	63	5028
2026-01-10 11:27:21.56	271.87	25.13	-45.6	-48.6	16.3	0.00e+00	0	43	0	564133888	63	4875
2026-01-10 11:27:22.56	272.16	25.12	-45.4	-48.2	16.6	0.00e+00	0	43	0	566231040	62	4980
2026-01-10 11:27:23.57	272.46	25.12	-45.3	-48.1	16.7	0.00e+00	0	43	0	568328192	62	4899
2026-01-10 11:27:24.57	272.75	25.11	-45.4	-48.3	16.6	0.00e+00	0	43	0	570425344	62	5012
2026-01-10 11:27:25.57	273.05	25.10	-45.5	-48.4	16.5	0.00e+00	0	43	0	571473920	62	5087
2026-01-10 11:27:26.58	273.34	25.09	-45.7	-48.7	16.2	0.00e+00	0	43	0	573571072	62	5222
2026-01-10 11:27:27.59	273.64	25.08	-45.8	-48.8	16.1	0.00e+00	0	43	0	575668224	62	5288
2026-01-10 11:27:28.59	273.94	25.06	-45.8	-48.8	16.1	0.00e+00	0	43	0	577765376	62	5295
2026-01-10 11:27:29.59	274.23	25.05	-45.7	-48.7	16.2	0.00e+00	0	43	0	578813952	62	5262
2026-01-10 11:27:30.59	274.52	25.04	-45.8	-48.7	16.1	0.00e+00	0	43	0	580911104	62	5266
2026-01-10 11:27:31.59	274.82	25.02	-45.7	-48.6	16.2	0.00e+00	0	43	0	583008256	62	5207
2026-01-10 11:27:32.59	275.11	25.01	-45.4	-48.2	16.6	0.00e+00	0	43	0	585105408	62	4968
2026-01-10 11:27:33.60	275.40	24.99	-45.2	-48.0	16.9	0.00e+00	0	43	0	587202560	62	4818
2026-01-10 11:27:34.60	275.70	24.98	-45.2	-48.0	16.9	0.00e+00	0	43	0	588251136	62	4828
2026-01-10 11:27:35.60	275.99	24.96	-45.3	-48.1	16.7	0.00e+00	0	43	0	590348288	62	4917
2026-01-10 11:27:36.61	276.28	24.94	-45.6	-48.5	16.4	0.00e+00	0	43	0	592445440	62	5103
2026-01-10 11:27:37.61	276.57	24.92	-45.9	-48.9	16.0	0.00e+00	0	43	0	594542592	62	5363
2026-01-10 11:27:38.61	276.86	24.90	-46.2	-49.3	15.6	0.00e+00	0	43	0	596639744	62	5639
2026-01-10 11:27:39.61	277.15	24.88	-46.3	-49.5	15.4	0.00e+00	0	43	0	597688320	63	5437
2026-01-10 11:27:40.62	277.45	24.86	-46.2	-49.4	15.5	0.00e+00	0	43	0	599785472	63	5386
2026-01-10 11:27:41.62	277.74	24.84	-46.1	-49.3	15.6	0.00e+00	0	43	0	601882624	63	5321
2026-01-10 11:27:42.62	278.03	24.82	-46.0	-49.1	15.8	0.00e+00	0	43	0	603979776	63	5199
2026-01-10 11:27:43.62	278.31	24.80	-46.1	-49.2	15.7	0.00e+00	0	43	0	606076928	63	5243
2026-01-10 11:27:44.63	278.61	24.77	-46.1	-49.2	15.7	0.00e+00	0	43	0	607125504	63	5241
2026-01-10 11:27:45.63	278.89	24.75	-46.2	-49.3	15.7	0.00e+00	0	43	0	609222656	63	5298
2026-01-10 11:27:46.63	279.18	24.72	-46.1	-49.1	15.8	0.00e+00	0	43	0	611319808	63	5211
2026-01-10 11:27:47.64	279.47	24.70	-45.7	-48.7	16.2	0.00e+00	0	43	0	613416960	63	4938
2026-01-10 11:27:48.64	279.76	24.67	-45.6	-48.6	16.3	0.00e+00	0	43	0	615514112	63	4872
2026-01-10 11:27:49.64	280.04	24.64	-45.8	-48.8	16.1	0.00e+00	0	43	0	616562688	63	4992
2026-01-10 11:27:50.65	280.33	24.61	-45.8	-48.8	16.1	0.00e+00	0	43	0	618659840	63	5024
2026-01-10 11:27:51.65	280.62	24.59	-46.1	-49.2	15.7	0.00e+00	0	43	0	620756992	63	5231
2026-01-10 11:27:52.65	280.90	24.56	-46.1	-49.2	15.8	0.00e+00	0	43	0	622854144	63	5238
2026-01-10 11:27:53.66	281.19	24.53	-46.1	-49.2	15.6	0.00e+00	0	43	0	624951296	63	5271
2026-01-10 11:27:54.66	281.47	24.49	-46.1	-49.2	15.7	0.00e+00	0	43	0	625999872	63	5259
2026-01-10 11:27:55.66	281.75	24.46	-46.0	-49.0	15.9	0.00e+00	0	43	0	628097024	63	5124
2026-01-10 11:27:56.67	282.04	24.43	-45.7	-48.6	16.3	0.00e+00	0	43	0	630194176	63	4908
2026-01-10 11:27:57.67	282.32	24.40	-45.6	-48.6	16.3	0.00e+00	0	43	0	632291328	63	4871
2026-01-10 11:27:58.67	282.60	24.36	-45.7	-48.7	16.2	0.00e+00	0	43	0	634388480	63	4938
2026-01-10 11:27:59.68	282.89	24.33	-45.8	-48.7	16.1	0.00e+00	0	43	0	635437056	63	4971
2026-01-10 11:28:00.68	283.17	24.29	-45.8	-48.8	16.1	0.00e+00	0	43	0	637534208	63	5008
2026-01-10 11:28:01.68	283.45	24.26	-45.9	-48.9	15.9	0.00e+00	0	43	0	639631360	63	5076
2026-01-10 11:28:02.69	283.73	24.22	-45.8	-48.7	16.1	0.00e+00	0	43	0	641728512	63	4982
2026-01-10 11:28:03.69	284.00	24.18	-45.5	-48.3	16.5	0.00e+00	0	43	0	642777088	63	4755
2026-01-10 11:28:04.69	284.28	24.15	-45.3	-48.1	16.8	0.00e+00	0	43	0	644874240	62	4872
2026-01-10 11:28:05.70	284.56	24.11	-45.1	-47.8	17.1	0.00e+00	0	43	0	646971392	62	4719
2026-01-10 11:28:06.70	284.84	24.07	-45.2	-47.9	16.9	0.00e+00	0	43	0	649068544	62	4803
2026-01-10 11:28:07.71	285.12	24.03	-45.1	-47.9	17.0	0.00e+00	0	43	0	651165696	62	4770
2026-01-10 11:28:08.71	285.39	23.99	-45.2	-48.0	16.9	0.00e+00	0	43	0	653262848	62	4834
2026-01-10 11:28:09.72	285.67	23.95	-45.2	-48.0	16.8	0.00e+00	0	43	0	654311424	62	4855
2026-01-10 11:28:10.72	285.94	23.91	-45.2	-47.9	16.9	0.00e+00	0	43	0	656408576	62	4802
2026-01-10 11:28:11.72	286.21	23.87	-45.2	-48.0	16.8	0.00e+00	0	44	0	658505728	62	4848
2026-01-10 11:28:12.73	286.49	23.82	-45.3	-48.0	16.8	0.00e+00	0	43	0	660602880	62	4864
2026-01-10 11:28:13.73	286.76	23.78	-45.2	-48.0	16.8	0.00e+00	0	43	0	661651456	62	4853
2026-01-10 11:28:14.73	287.03	23.74	-45.2	-48.0	16.9	0.00e+00	0	43	0	663748608	62	4840
2026-01-10 11:28:15.74	287.30	23.69	-45.1	-47.9	17.0	0.00e+00	0	43	0	665845760	62	4772
2026-01-10 11:28:16.74	287.57	23.65	-44.9	-47.7	17.2	0.00e+00	0	43	0	667942912	61	4927
2026-01-10 11:28:17.75	287.84	23.60	-44.9	-47.6	17.2	0.00e+00	0	43	0	670040064	61	4913
2026-01-10 11:28:18.75	288.11	23.55	-44.8	-47.5	17.3	0.00e+00	0	43	0	671088640	61	4863
2026-01-10 11:28:19.75	288.37	23.51	-44.7	-47.3	17.4	0.00e+00	0	43	0	673185792	61	4757
2026-01-10 11:28:20.75	288.64	23.46	-44.7	-47.3	17.6	0.00e+00	0	43	0	675282944	61	4710
2026-01-10 11:28:21.76	288.91	23.41	-44.6	-47.2	17.6	0.00e+00	0	43	0	677380096	61	4686
2026-01-10 11:28:22.76	289.17	23.37	-44.7	-47.2	17.5	0.00e+00	0	43	0	679477248	61	4705
2026-01-10 11:28:23.76	289.43	23.32	-44.6	-47.2	17.6	0.00e+00	0	43	0	680525824	61	4673
2026-01-10 11:28:24.77	289.70	23.27	-44.4	-47.0	17.8	0.00e+00	0	43	0	682622976	60	4837
2026-01-10 11:28:25.77	289.96	23.22	-44.3	-46.8	18.0	0.00e+00	0	43	0	684720128	60	4722
2026-01-10 11:28:26.77	290.22	23.17	-44.2	-46.7	18.1	0.00e+00	0	43	0	686817280	60	4676
2026-01-10 11:28:27.77	290.48	23.12	-44.1	-46.6	18.1	0.00e+00	0	43	0	688914432	60	4634
2026-01-10 11:28:28.77	290.74	23.07	-44.0	-46.5	18.3	0.00e+00	0	43	0	689963008	60	4554
2026-01-10 11:28:29.78	291.00	23.01	-44.1	-46.6	18.2	0.00e+00	0	43	0	692060160	60	4604
2026-01-10 11:28:30.78	291.26	22.96	-44.2	-46.7	18.1	0.00e+00	0	43	0	694157312	60	4685
2026-01-10 11:28:31.79	291.52	22.91	-44.2	-46.7	18.1	0.00e+00	0	43	0	696254464	60	4662
2026-01-10 11:28:32.79	291.77	22.85	-44.0	-46.5	18.3	0.00e+00	0	43	0	698351616	60	4547
2026-01-10 11:28:33.79	292.03	22.80	-44.0	-46.4	18.3	0.00e+00	0	43	0	699400192	60	4525
2026-01-10 11:28:34.80	292.28	22.75	-44.0	-46.5	18.3	0.00e+00	0	43	0	701497344	60	4546
2026-01-10 11:28:35.80	292.54	22.69	-44.0	-46.3	18.3	0.00e+00	0	43	0	703594496	59	4750
2026-01-10 11:28:36.81	292.79	22.64	-44.2	-46.6	18.1	0.00e+00	0	43	0	705691648	59	4892
2026-01-10 11:28:37.81	293.04	22.58	-44.3	-46.8	17.9	0.00e+00	0	43	0	706740224	59	4988
2026-01-10 11:28:38.81	293.29	22.53	-44.5	-47.0	17.7	0.00e+00	0	43	0	708837376	59	5157
2026-01-10 11:28:39.81	293.54	22.47	-44.7	-47.3	17.5	0.00e+00	0	43	0	710934528	60	5027
2026-01-10 11:28:40.81	293.79	22.41	-44.8	-47.4	17.4	0.00e+00	0	43	0	713031680	60	5080
2026-01-10 11:28:41.81	294.04	22.36	-44.7	-47.3	17.5	0.00e+00	0	43	0	715128832	60	5036
2026-01-10 11:28:42.82	294.29	22.30	-44.7	-47.2	17.5	0.00e+00	0	43	0	716177408	60	4979
2026-01-10 11:28:43.82	294.53	22.24	-44.6	-47.2	17.6	0.00e+00	0	43	0	718274560	60	4960
2026-01-10 11:28:44.83	294.78	22.18	-44.6	-47.2	17.6	0.00e+00	0	43	0	720371712	60	4930
2026-01-10 11:28:45.83	295.03	22.12	-44.5	-47.1	17.7	0.00e+00	0	43	0	722468864	60	4876
2026-01-10 11:28:46.83	295.27	22.06	-44.6	-47.2	17.6	0.00e+00	0	43	0	724566016	60	4931
2026-01-10 11:28:47.83	295.51	22.00	-44.6	-47.1	17.6	0.00e+00	0	43	0	725614592	60	4914
2026-01-10 11:28:48.83	295.75	21.94	-44.5	-47.0	17.8	0.00e+00	0	43	0	727711744	60	4826
2026-01-10 11:28:49.84	296.00	21.88	-44.5	-47.0	17.8	0.00e+00	0	43	0	729808896	60	4846
2026-01-10 11:28:50.84	296.24	21.82	-44.6	-47.1	17.6	0.00e+00	0	43	0	731906048	60	4919
2026-01-10 11:28:51.84	296.47	21.76	-44.6	-47.1	17.6	0.00e+00	0	43	0	734003200	60	4909
2026-01-10 11:28:52.84	296.71	21.70	-44.8	-47.4	17.4	0.00e+00	0	43	0	735051776	60	5076
2026-01-10 11:28:53.85	296.95	21.64	-45.1	-47.8	17.0	0.00e+00	0	43	0	737148928	60	5319
2026-01-10 11:28:54.85	297.19	21.58	-45.4	-48.2	16.6	0.00e+00	0	43	0	739246080	61	5271
2026-01-10 11:28:55.85	297.42	21.51	-45.7	-48.6	16.2	0.00e+00	0	43	0	741343232	61	5502
2026-01-10 11:28:56.86	297.66	21.45	-45.7	-48.7	16.1	0.00e+00	0	43	0	743440384	62	5278
2026-01-10 11:28:57.86	297.89	21.39	-45.8	-48.9	16.0	0.00e+00	0	43	0	744488960	62	5368
2026-01-10 11:28:58.86	298.12	21.33	-45.9	-49.0	15.9	0.00e+00	0	43	0	746586112	62	5421
2026-01-10 11:28:59.86	298.35	21.26	-46.0	-49.1	15.8	0.00e+00	0	43	0	748683264	62	5470
2026-01-10 11:29:00.87	298.59	21.20	-46.0	-49.0	15.8	0.00e+00	0	43	0	750780416	62	5446
2026-01-10 11:29:01.87	298.82	21.13	-46.0	-49.1	15.8	0.00e+00	0	43	0	752877568	62	5466
2026-01-10 11:29:02.87	299.04	21.07	-45.9	-48.9	15.9	0.00e+00	0	43	0	753926144	62	5382
2026-01-10 11:29:03.88	299.27	21.00	-45.7	-48.6	16.2	0.00e+00	0	43	0	756023296	62	5214
2026-01-10 11:29:04.88	299.50	20.94	-45.6	-48.5	16.4	0.00e+00	0	43	0	758120448	62	5103
2026-01-10 11:29:05.88	299.73	20.87	-45.3	-48.2	16.7	0.00e+00	0	43	0	760217600	62	4934
2026-01-10 11:29:06.88	299.95	20.81	-45.3	-48.1	16.8	0.00e+00	0	43	0	761266176	62	4874
2026-01-10 11:29:07.89	300.18	20.74	-45.1	-47.8	17.0	0.00e+00	0	43	0	763363328	62	4734
2026-01-10 11:29:08.89	300.40	20.68	-45.1	-47.8	17.0	0.00e+00	0	43	0	765460480	62	4756
2026-01-10 11:29:09.89	300.62	20.61	-45.1	-47.9	16.9	0.00e+00	0	43	0	767557632	62	4766
2026-01-10 11:29:10.90	300.84	20.54	-45.3	-48.1	16.7	0.00e+00	0	43	0	769654784	62	4898
2026-01-10 11:29:11.90	301.06	20.48	-45.3	-48.2	16.7	0.00e+00	0	43	0	770703360	62	4933
2026-01-10 11:29:12.90	301.28	20.41	-45.5	-48.4	16.4	0.00e+00	0	43	0	772800512	62	5063
2026-01-10 11:29:13.91	301.50	20.34	-45.6	-48.5	16.3	0.00e+00	0	43	0	774897664	62	5142
2026-01-10 11:29:14.91	301.72	20.27	-45.5	-48.5	16.4	0.00e+00	0	43	0	776994816	62	5106
2026-01-10 11:29:15.92	301.94	20.20	-45.6	-48.5	16.3	0.00e+00	0	43	0	779091968	62	5151
2026-01-10 11:29:16.92	302.15	20.14	-45.6	-48.6	16.2	0.00e+00	0	43	0	780140544	62	5178
2026-01-10 11:29:17.93	302.37	20.07	-45.7	-48.7	16.1	0.00e+00	0	43	0	782237696	62	5275
2026-01-10 11:29:18.93	302.58	20.00	-45.8	-48.8	16.0	0.00e+00	0	43	0	784334848	62	5295
2026-01-10 11:29:19.93	302.79	19.93	-45.8	-48.9	16.0	0.00e+00	0	43	0	786432000	62	5341
2026-01-10 11:29:20.94	303.01	19.86	-45.8	-48.7	16.1	0.00e+00	0	43	0	788529152	62	5277
2026-01-10 11:29:21.94	303.22	19.79	-45.6	-48.4	16.3	0.00e+00	0	43	0	789577728	62	5100
2026-01-10 11:29:22.94	303.43	19.72	-45.4	-48.2	16.6	0.00e+00	0	43	0	791674880	62	4982
2026-01-10 11:29:23.94	303.64	19.66	-45.4	-48.2	16.6	0.00e+00	0	43	0	793772032	62	4977
2026-01-10 11:29:24.95	303.85	19.58	-45.3	-48.1	16.7	0.00e+00	0	43	0	795869184	62	4901
2026-01-10 11:29:25.95	304.05	19.52	-45.2	-48.0	16.8	0.00e+00	0	43	0	797966336	62	4816
2026-01-10 11:29:26.95	304.26	19.45	-45.2	-48.0	16.8	0.00e+00	0	43	0	799014912	62	4815
2026-01-10 11:29:27.96	304.47	19.38	-45.4	-48.2	16.6	0.00e+00	0	43	0	801112064	62	4979
2026-01-10 11:29:28.96	304.67	19.31	-45.4	-48.3	16.5	0.00e+00	0	43	0	803209216	62	5005
2026-01-10 11:29:29.96	304.87	19.23	-45.5	-48.4	16.4	0.00e+00	0	43	0	805306368	62	5092
2026-01-10 11:29:30.96	305.08	19.16	-45.4	-48.3	16.5	0.00e+00	0	43	0	807403520	62	5009
2026-01-10 11:29:31.97	305.28	19.09	-45.2	-48.1	16.7	0.00e+00	0	43	0	808452096	62	4897
2026-01-10 11:29:32.97	305.48	19.02	-45.3	-48.2	16.6	0.00e+00	0	43	0	810549248	62	4938
2026-01-10 11:29:33.97	305.68	18.95	-45.3	-48.2	16.6	0.00e+00	0	43	0	812646400	62	4958
2026-01-10 11:29:34.97	305.88	18.88	-45.4	-48.3	16.5	0.00e+00	0	43	0	814743552	62	5010
2026-01-10 11:29:35.98	306.08	18.81	-45.4	-48.3	16.5	0.00e+00	0	43	0	816840704	62	5012
2026-01-10 11:29:36.98	306.27	18.74	-45.5	-48.5	16.3	0.00e+00	0	43	0	817889280	62	5103
2026-01-10 11:29:37.98	306.47	18.67	-45.5	-48.5	16.3	0.00e+00	0	43	0	819986432	62	5121
2026-01-10 11:29:38.98	306.66	18.60	-45.6	-48.6	16.2	0.00e+00	0	43	0	822083584	62	5176
2026-01-10 11:29:39.99	306.86	18.52	-45.5	-48.4	16.4	0.00e+00	0	44	0	824180736	62	5079
2026-01-10 11:29:40.99	307.05	18.45	-45.5	-48.4	16.4	0.00e+00	0	43	0	825229312	62	5087
2026-01-10 11:29:41.99	307.25	18.38	-45.6	-48.6	16.2	0.00e+00	0	43	0	827326464	62	5196
2026-01-10 11:29:43.00	307.44	18.31	-45.8	-48.9	15.9	0.00e+00	0	43	0	829423616	62	5362
2026-01-10 11:29:44.00	307.63	18.24	-46.0	-49.2	15.6	0.00e+00	0	43	0	831520768	62	5536
2026-01-10 11:29:45.00	307.82	18.16	-46.2	-49.5	15.3	0.00e+00	0	43	0	833617920	63	5412
2026-01-10 11:29:46.00	308.01	18.09	-46.2	-49.5	15.3	0.00e+00	0	43	0	834666496	63	5450
2026-01-10 11:29:47.01	308.20	18.02	-46.2	-49.5	15.3	0.00e+00	0	43	0	836763648	63	5444
2026-01-10 11:29:48.01	308.38	17.95	-46.2	-49.6	15.3	0.00e+00	0	43	0	838860800	63	5472
2026-01-10 11:29:49.01	308.57	17.87	-46.0	-49.2	15.6	0.00e+00	0	43	0	840957952	63	5235
2026-01-10 11:29:50.02	308.76	17.80	-45.7	-48.8	16.0	0.00e+00	0	43	0	843055104	63	4984
2026-01-10 11:29:51.02	308.94	17.73	-45.3	-48.3	16.5	0.00e+00	0	43	0	844103680	62	4994
2026-01-10 11:29:52.02	309.12	17.66	-45.2	-48.2	16.5	0.00e+00	0	43	0	846200832	62	4953
2026-01-10 11:29:53.02	309.31	17.58	-45.4	-48.5	16.3	0.00e+00	0	43	0	848297984	62	5104
2026-01-10 11:29:54.03	309.49	17.51	-45.6	-48.8	16.0	0.00e+00	0	43	0	850395136	62	5300
2026-01-10 11:29:55.03	309.67	17.44	-45.9	-49.1	15.6	0.00e+00	0	44	0	852492288	62	5526
2026-01-10 11:29:56.04	309.85	17.36	-46.1	-49.5	15.3	0.00e+00	0	43	0	853540864	62	5731
2026-01-10 11:29:57.04	310.03	17.29	-46.1	-49.5	15.3	0.00e+00	0	43	0	855638016	62	5742
2026-01-10 11:29:58.04	310.21	17.22	-46.1	-49.4	15.4	0.00e+00	0	43	0	857735168	62	5676
2026-01-10 11:29:59.05	310.39	17.15	-46.0	-49.2	15.6	0.00e+00	0	43	0	859832320	62	5556
2026-01-10 11:30:00.05	310.57	17.07	-45.8	-48.9	15.8	0.00e+00	0	43	0	861929472	62	5361
2026-01-10 11:30:01.05	310.74	17.00	-45.6	-48.6	16.1	0.00e+00	0	43	0	862978048	62	5178
2026-01-10 11:30:02.06	310.92	16.93	-45.5	-48.5	16.2	0.00e+00	0	43	0	865075200	62	5141
2026-01-10 11:30:03.05	311.09	16.85	-45.7	-48.7	16.1	0.00e+00	0	43	0	867172352	62	5235
2026-01-10 11:30:04.06	311.27	16.78	-45.8	-48.8	15.9	0.00e+00	0	43	0	869269504	62	5335
2026-01-10 11:30:05.06	311.44	16.71	-45.9	-49.0	15.7	0.00e+00	0	43	0	870318080	62	5456
2026-01-10 11:30:06.06	311.61	16.63	-46.0	-49.2	15.6	0.00e+00	0	43	0	872415232	62	5536
2026-01-10 11:30:07.07	311.78	16.56	-46.0	-49.2	15.5	0.00e+00	0	43	0	874512384	62	5584
2026-01-10 11:30:08.07	311.95	16.49	-45.9	-49.0	15.7	0.00e+00	0	43	0	876609536	62	5460
2026-01-10 11:30:09.07	312.12	16.41	-45.7	-48.8	15.9	0.00e+00	0	43	0	878706688	62	5328
2026-01-10 11:30:10.08	312.29	16.34	-45.7	-48.9	15.9	0.00e+00	0	43	0	879755264	62	5342
2026-01-10 11:30:11.08	312.46	16.27	-45.7	-48.8	15.9	0.00e+00	0	44	0	881852416	62	5319
2026-01-10 11:30:12.09	312.63	16.19	-45.6	-48.8	15.9	0.00e+00	0	43	0	883949568	62	5308
2026-01-10 11:30:13.09	312.80	16.12	-45.5	-48.7	16.0	0.00e+00	0	43	0	886046720	62	5243
2026-01-10 11:30:14.09	312.96	16.05	-45.6	-48.8	15.9	0.00e+00	0	43	0	888143872	62	5317
2026-01-10 11:30:15.10	313.13	15.97	-45.9	-49.2	15.6	0.00e+00	0	43	0	889192448	62	5539
2026-01-10 11:30:16.10	313.29	15.90	-46.0	-49.5	15.3	0.00e+00	0	43	0	891289600	62	5724
2026-01-10 11:30:17.10	313.45	15.83	-46.0	-49.5	15.3	0.00e+00	0	43	0	893386752	62	5733
2026-01-10 11:30:18.11	313.62	15.75	-46.0	-49.3	15.3	0.00e+00	0	43	0	895483904	62	5656
2026-01-10 11:30:19.11	313.78	15.68	-45.9	-49.2	15.5	0.00e+00	0	43	0	897581056	62	5530
2026-01-10 11:30:20.11	313.94	15.61	-45.9	-49.2	15.5	0.00e+00	0	43	0	898629632	62	5549
2026-01-10 11:30:21.12	314.10	15.53	-45.8	-49.1	15.6	0.00e+00	0	43	0	900726784	62	5466
2026-01-10 11:30:22.12	314.26	15.46	-45.8	-49.0	15.7	0.00e+00	0	43	0	902823936	62	5435
2026-01-10 11:30:23.12	314.42	15.39	-45.7	-48.8	15.9	0.00e+00	0	43	0	904921088	62	5335
2026-01-10 11:30:24.13	314.58	15.31	-45.7	-48.8	15.8	0.00e+00	0	43	0	907018240	62	5324
2026-01-10 11:30:25.13	314.73	15.24	-45.9	-49.1	15.6	0.00e+00	0	43	0	908066816	62	5491
2026-01-10 11:30:26.13	314.89	15.17	-46.1	-49.4	15.3	0.00e+00	0	43	0	910163968	62	5671
2026-01-10 11:30:27.13	315.05	15.09	-46.3	-49.7	15.0	0.00e+00	0	43	0	912261120	63	5546
2026-01-10 11:30:28.14	315.20	15.02	-46.4	-49.9	14.7	0.00e+00	0	43	0	914358272	63	5697
2026-01-10 11:30:29.14	315.36	14.95	-46.4	-49.9	14.8	0.00e+00	0	43	0	916455424	63	5668
2026-01-10 11:30:30.14	315.51	14.87	-46.3	-49.7	14.9	0.00e+00	0	43	0	917504000	63	5555
2026-01-10 11:30:31.15	315.66	14.80	-46.0	-49.3	15.3	0.00e+00	0	43	0	919601152	63	5310
2026-01-10 11:30:32.15	315.81	14.73	-45.7	-48.9	15.8	0.00e+00	0	43	0	921698304	63	5064
2026-01-10 11:30:33.15	315.97	14.65	-45.6	-48.8	15.8	0.00e+00	0	43	0	923795456	63	4987
2026-01-10 11:30:34.16	316.12	14.58	-45.5	-48.7	15.9	0.00e+00	0	43	0	924844032	63	4971
2026-01-10 11:30:35.16	316.27	14.51	-45.5	-48.8	15.8	0.00e+00	0	43	0	926941184	62	5306
2026-01-10 11:30:36.16	316.42	14.44	-45.6	-49.0	15.6	0.00e+00	0	43	0	929038336	62	5447
2026-01-10 11:30:37.16	316.56	14.36	-45.7	-49.3	15.4	0.00e+00	0	43	0	931135488	62	5615
2026-01-10 11:30:38.17	316.71	14.29	-45.8	-49.4	15.2	0.00e+00	0	44	0	933232640	62	5715
2026-01-10 11:30:39.17	316.86	14.22	-46.0	-49.7	15.0	0.00e+00	0	43	0	935329792	62	5867
2026-01-10 11:30:40.17	317.00	14.14	-46.0	-49.7	15.0	0.00e+00	0	43	0	936378368	62	5856
2026-01-10 11:30:41.18	317.15	14.07	-46.0	-49.6	15.1	0.00e+00	0	43	0	938475520	62	5801
2026-01-10 11:30:42.18	317.30	14.00	-45.9	-49.4	15.2	0.00e+00	0	43	0	940572672	62	5691
2026-01-10 11:30:43.18	317.44	13.93	-45.8	-49.2	15.5	0.00e+00	0	43	0	942669824	62	5547
2026-01-10 11:30:44.18	317.58	13.85	-45.6	-48.9	15.7	0.00e+00	0	43	0	943718400	62	5390
2026-01-10 11:30:45.19	317.73	13.78	-45.6	-48.8	15.8	0.00e+00	0	44	0	945815552	62	5304
2026-01-10 11:30:46.19	317.87	13.71	-45.6	-48.8	15.8	0.00e+00	0	43	0	947912704	62	5329
2026-01-10 11:30:47.19	318.01	13.64	-45.6	-48.8	15.8	0.00e+00	0	43	0	950009856	62	5326
2026-01-10 11:30:48.20	318.15	13.56	-45.7	-49.0	15.6	0.00e+00	0	43	0	952107008	62	5447
2026-01-10 11:30:49.20	318.29	13.49	-45.7	-49.1	15.5	0.00e+00	0	44	0	953155584	62	5492
2026-01-10 11:30:50.20	318.43	13.42	-45.8	-49.3	15.3	0.00e+00	0	43	0	955252736	62	5638
2026-01-10 11:30:51.20	318.57	13.35	-45.9	-49.5	15.2	0.00e+00	0	43	0	957349888	62	5732
2026-01-10 11:30:52.21	318.71	13.28	-46.0	-49.7	14.9	0.00e+00	0	43	0	959447040	62	5866
2026-01-10 11:30:53.21	318.85	13.20	-46.0	-49.7	15.0	0.00e+00	0	43	0	961544192	62	5871
2026-01-10 11:30:54.21	318.98	13.13	-45.9	-49.5	15.1	0.00e+00	0	43	0	962592768	62	5749
2026-01-10 11:30:55.22	319.12	13.06	-45.9	-49.4	15.2	0.00e+00	0	43	0	964689920	62	5713
2026-01-10 11:30:56.22	319.26	12.99	-45.9	-49.4	15.2	0.00e+00	0	43	0	966787072	62	5685
2026-01-10 11:30:57.22	319.39	12.92	-45.9	-49.3	15.2	0.00e+00	0	43	0	968884224	62	5653
2026-01-10 11:30:58.23	319.53	12.85	-45.8	-49.2	15.4	0.00e+00	0	43	0	970981376	62	5546
2026-01-10 11:30:59.23	319.66	12.77	-45.9	-49.2	15.4	0.00e+00	0	43	0	972029952	62	5584
2026-01-10 11:31:00.23	319.79	12.70	-45.8	-49.2	15.4	0.00e+00	0	43	0	974127104	62	5561
2026-01-10 11:31:01.23	319.92	12.63	-46.0	-49.5	15.1	0.00e+00	0	44	0	976224256	62	5764
2026-01-10 11:31:02.23	320.06	12.56	-45.9	-49.5	15.1	0.00e+00	0	43	0	978321408	62	5763
2026-01-10 11:31:03.23	320.19	12.49	-45.9	-49.6	15.0	0.00e+00	0	44	0	980418560	62	5847
2026-01-10 11:31:04.24	320.32	12.42	-46.1	-49.9	14.7	1.50e-06	0	43	0	981467136	62	6033
2026-01-10 11:31:05.24	320.45	12.35	-46.0	-49.8	14.8	0.00e+00	0	43	0	983564288	62	5980
2026-01-10 11:31:06.24	320.58	12.28	-46.1	-49.9	14.7	0.00e+00	0	43	0	985661440	62	6044
2026-01-10 11:31:07.25	320.71	12.20	-46.1	-50.0	14.6	0.00e+00	0	43	0	987758592	62	6066
2026-01-10 11:31:08.25	320.84	12.13	-46.2	-50.1	14.5	0.00e+00	0	43	0	988807168	63	5810
2026-01-10 11:31:09.25	320.96	12.06	-46.3	-50.0	14.6	0.00e+00	0	44	0	990904320	63	5746
2026-01-10 11:31:10.26	321.09	11.99	-46.2	-49.7	14.9	7.00e-07	0	43	0	993001472	63	5537
2026-01-10 11:31:11.26	321.22	11.92	-46.1	-49.5	15.1	0.00e+00	0	43	0	995098624	63	5429
2026-01-10 11:31:12.26	321.34	11.85	-46.1	-49.5	15.1	0.00e+00	0	43	0	997195776	63	5436
2026-01-10 11:31:13.27	321.47	11.78	-46.0	-49.4	15.2	0.00e+00	0	43	0	999292928	63	5345
2026-01-10 11:31:14.27	321.59	11.71	-45.9	-49.3	15.3	0.00e+00	0	43	0	1000341504	63	5298
2026-01-10 11:31:15.28	321.72	11.64	-45.9	-49.3	15.3	0.00e+00	0	43	0	1002438656	63	5308
2026-01-10 11:31:16.28	321.84	11.57	-45.9	-49.3	15.2	0.00e+00	0	43	0	1004535808	63	5332
2026-01-10 11:31:17.28	321.97	11.50	-45.9	-49.4	15.2	0.00e+00	0	44	0	1006632960	63	5344
2026-01-10 11:31:18.28	322.09	11.43	-45.9	-49.5	15.1	0.00e+00	0	43	0	1007681536	63	5407
2026-01-10 11:31:19.29	322.21	11.36	-46.0	-49.5	15.1	0.00e+00	0	44	0	1009778688	63	5410
2026-01-10 11:31:20.29	322.33	11.29	-46.0	-49.6	15.0	0.00e+00	0	43	0	1011875840	63	5467
2026-01-10 11:31:21.30	322.45	11.22	-46.1	-49.6	15.0	0.00e+00	0	43	0	1013972992	63	5488
2026-01-10 11:31:22.30	322.57	11.15	-46.2	-49.8	14.8	3.80e-06	0	44	0	1016070144	63	5594
2026-01-10 11:31:23.31	322.69	11.08	-46.2	-49.7	14.8	0.00e+00	0	43	0	1017118720	63	5584
2026-01-10 11:31:24.31	322.81	11.01	-46.2	-49.8	14.8	0.00e+00	0	43	0	1019215872	63	5613
2026-01-10 11:31:25.31	322.93	10.94	-46.1	-49.7	14.8	0.00e+00	0	43	0	1021313024	63	5573
2026-01-10 11:31:26.31	323.05	10.87	-46.0	-49.8	14.8	0.00e+00	0	44	0	1023410176	63	5603
2026-01-10 11:31:27.32	323.17	10.80	-46.0	-49.9	14.7	7.00e-07	0	44	0	1025507328	63	5662
2026-01-10 11:31:28.32	323.28	10.73	-45.9	-50.0	14.6	7.00e-07	0	44	0	1026555904	63	5767
2026-01-10 11:31:29.32	323.40	10.67	-45.9	-50.1	14.4	3.00e-06	0	43	0	1028653056	63	5806
2026-01-10 11:31:30.32	323.52	10.60	-45.9	-50.2	14.4	0.00e+00	0	44	0	1030750208	63	5876
2026-01-10 11:31:31.33	323.63	10.53	-45.9	-50.4	14.1	7.00e-07	0	44	0	1032847360	63	6014
2026-01-10 11:31:32.33	323.75	10.46	-45.9	-50.3	14.1	2.20e-06	0	44	0	1034944512	63	5982
2026-01-10 11:31:33.33	323.86	10.39	-46.0	-50.6	13.9	2.20e-06	0	43	0	1035993088	63	6153
2026-01-10 11:31:34.34	323.98	10.32	-46.0	-50.6	13.9	4.50e-06	0	44	0	1038090240	63	6155
2026-01-10 11:31:35.34	324.09	10.25	-45.9	-50.5	14.0	1.50e-06	0	44	0	1040187392	63	6071
2026-01-10 11:31:36.34	324.20	10.19	-45.9	-50.4	14.1	2.20e-06	0	44	0	1042284544	63	6058
2026-01-10 11:31:37.34	324.31	10.12	-45.8	-50.3	14.2	2.20e-06	0	44	0	1044381696	63	5977
2026-01-10 11:31:38.34	324.43	10.05	-45.8	-50.4	14.1	7.00e-07	0	43	0	1045430272	63	5997
2026-01-10 11:31:39.35	324.54	9.98	-45.9	-50.3	14.1	7.00e-07	0	44	0	1047527424	63	5973
2026-01-10 11:31:40.35	324.65	9.91	-45.9	-50.2	14.2	7.00e-07	0	44	0	1049624576	63	5904
2026-01-10 11:31:41.35	324.76	9.85	-46.0	-50.3	14.2	0.00e+00	0	43	0	1051721728	63	5955
2026-01-10 11:31:42.36	324.87	9.78	-46.0	-50.4	14.1	3.80e-06	0	44	0	1052770304	63	5994
2026-01-10 11:31:43.36	324.98	9.71	-46.2	-50.4	14.1	1.50e-06	0	44	0	1054867456	63	6021
2026-01-10 11:31:44.36	325.09	9.64	-46.2	-50.4	14.1	1.52e-05	0	44	0	1056964608	63	6005
2026-01-10 11:31:45.37	325.20	9.57	-46.3	-50.4	14.1	6.80e-06	0	43	0	1059061760	63	6014
2026-01-10 11:31:46.37	325.30	9.51	-46.3	-50.3	14.1	1.50e-06	0	44	0	1061158912	63	5967
2026-01-10 11:31:47.37	325.41	9.44	-46.4	-50.5	13.9	2.20e-06	0	43	0	1062207488	63	6117
2026-01-10 11:31:48.38	325.52	9.37	-46.5	-50.6	13.8	6.10e-06	0	44	0	1064304640	63	6196
2026-01-10 11:31:49.38	325.62	9.31	-46.4	-50.6	13.8	3.00e-06	0	44	0	1066401792	63	6158
2026-01-10 11:31:50.39	325.73	9.24	-46.5	-50.8	13.6	3.80e-06	0	43	0	1068498944	63	6314
2026-01-10 11:31:51.39	325.84	9.17	-46.5	-50.7	13.7	9.10e-06	0	44	0	1070596096	63	6247
2026-01-10 11:31:52.39	325.94	9.10	-46.6	-50.9	13.4	1.52e-05	0	43	0	1071644672	64	6023
2026-01-10 11:31:53.40	326.05	9.04	-46.7	-51.0	13.3	2.05e-05	0	44	0	1073741824	64	6113
2026-01-10 11:31:54.40	326.15	8.97	-48.9	-65.3	3.7	6.68e-01	0	44	104	1074790400	69	23720
2026-01-10 11:31:55.41	326.26	8.90	-50.7	-65.9	3.8	1.49e+00	0	43	104	1074790400	72	21439
2026-01-10 11:31:56.41	326.36	8.84	-50.5	-66.1	3.8	1.49e+00	0	43	104	1074790400	72	21813
2026-01-10 11:31:57.42	326.46	8.77	-50.4	-66.1	3.8	1.49e+00	0	43	104	1074790400	72	21974
2026-01-10 11:31:58.42	326.56	8.71	-50.5	-66.2	3.8	1.49e+00	0	43	104	1074790400	72	22165
2026-01-10 11:31:59.42	326.67	8.64	-50.8	-66.2	3.8	1.49e+00	0	43	104	1074790400	72	22185
2026-01-10 11:32:00.43	326.77	8.57	-50.8	-66.3	3.8	1.49e+00	0	43	104	1074790400	72	22345
2026-01-10 11:32:01.43	326.87	8.51	-51.1	-66.3	3.8	1.49e+00	0	43	104	1074790400	72	22381
2026-01-10 11:32:02.44	326.97	8.44	-50.8	-66.3	3.8	1.49e+00	0	43	104	1074790400	72	22373
2026-01-10 11:32:03.44	327.07	8.38	-51.0	-66.3	3.8	1.49e+00	0	44	104	1074790400	72	22406
2026-01-10 11:32:04.45	327.17	8.31	-50.9	-66.3	3.8	1.49e+00	0	43	104	1074790400	72	22386
2026-01-10 11:32:05.45	327.27	8.24	-50.9	-66.3	3.8	1.49e+00	0	43	104	1074790400	72	22413
2026-01-10 11:32:06.45	327.37	8.18	-49.5	-65.9	3.8	1.49e+00	0	44	104	1074790400	71	22703
2026-01-10 11:32:07.46	327.47	8.11	-51.0	-66.3	3.8	1.49e+00	0	43	104	1074790400	72	22470
2026-01-10 11:32:08.46	327.57	8.05	-51.1	-66.3	3.8	1.49e+00	0	43	104	1074790400	73	21138
2026-01-10 11:32:09.47	327.67	7.98	-51.2	-66.3	3.8	1.49e+00	0	43	104	1074790400	73	21159
2026-01-10 11:32:10.47	327.76	7.92	-51.1	-66.3	3.8	1.49e+00	0	44	104	1074790400	73	21101
2026-01-10 11:32:11.47	327.86	7.85	-51.0	-66.3	3.8	1.49e+00	0	44	104	1074790400	73	21104
2026-01-10 11:32:12.48	327.96	7.79	-51.1	-66.3	3.8	1.49e+00	0	43	104	1074790400	73	21077
2026-01-10 11:32:13.48	328.05	7.72	-50.9	-66.3	3.8	1.49e+00	0	43	104	1074790400	73	21047
2026-01-10 11:32:14.49	328.15	7.66	-50.9	-66.3	3.8	1.49e+00	0	43	104	1074790400	73	21119
2026-01-10 11:32:15.49	328.24	7.59	-50.9	-66.2	3.8	1.49e+00	0	43	104	1074790400	73	21009
2026-01-10 11:32:16.50	328.34	7.53	-50.9	-66.3	3.8	1.49e+00	0	43	104	1074790400	73	21033
2026-01-10 11:32:17.50	328.43	7.47	-50.9	-66.2	3.8	1.49e+00	0	43	104	1074790400	73	20960
2026-01-10 11:32:18.51	328.53	7.40	-50.9	-66.2	3.8	1.49e+00	0	43	104	1074790400	73	20972
2026-01-10 11:32:19.51	328.62	7.34	-50.9	-66.2	3.8	1.49e+00	0	44	104	1074790400	73	20934
2026-01-10 11:32:20.51	328.71	7.27	-50.9	-66.3	3.8	1.49e+00	0	43	104	1074790400	73	21040
2026-01-10 11:32:21.52	328.81	7.21	-50.9	-66.2	3.8	1.49e+00	0	43	104	1074790400	73	20956
2026-01-10 11:32:22.52	328.90	7.14	-50.9	-66.2	3.8	1.49e+00	0	44	104	1074790400	73	20959
2026-01-10 11:32:23.52	328.99	7.08	-50.9	-66.2	3.8	1.49e+00	0	43	104	1074790400	73	21000
2026-01-10 11:32:24.53	329.08	7.02	-50.9	-66.3	3.8	1.49e+00	0	44	104	1074790400	73	21020
2026-01-10 11:32:25.53	329.18	6.95	-50.9	-66.2	3.8	1.49e+00	0	43	104	1074790400	73	20992
2026-01-10 11:32:26.54	329.27	6.89	-50.9	-66.2	3.8	1.49e+00	0	43	104	1074790400	73	20986
2026-01-10 11:32:27.54	329.36	6.83	-50.9	-66.2	3.8	1.49e+00	0	43	104	1074790400	73	20964
2026-01-10 11:32:28.55	329.45	6.76	-50.9	-66.2	3.8	1.49e+00	0	43	104	1074790400	73	20854
2026-01-10 11:32:29.55	329.54	6.70	-50.9	-66.2	3.8	1.49e+00	0	43	104	1074790400	73	20974
2026-01-10 11:32:30.56	329.63	6.64	-50.9	-66.2	3.8	1.49e+00	0	44	104	1074790400	73	20924
2026-01-10 11:32:31.56	329.72	6.57	-50.9	-66.2	3.8	1.49e+00	0	43	104	1074790400	73	20907
2026-01-10 11:32:32.56	329.81	6.51	-50.9	-66.2	3.8	1.49e+00	0	44	104	1074790400	73	20938
2026-01-10 11:32:33.57	329.89	6.45	-50.9	-66.2	3.8	1.49e+00	0	43	104	1074790400	73	20875
2026-01-10 11:32:34.57	329.98	6.39	-50.9	-66.2	3.8	1.49e+00	0	44	104	1074790400	73	20977
2026-01-10 11:32:35.57	330.07	6.32	-50.9	-66.2	3.8	1.49e+00	0	44	104	1074790400	73	20945
2026-01-10 11:32:36.58	330.16	6.26	-50.9	-66.2	3.8	1.49e+00	0	44	104	1074790400	73	20925
2026-01-10 11:32:37.58	330.24	6.20	-50.9	-66.2	3.8	1.49e+00	0	43	104	1074790400	73	20872
2026-01-10 11:32:38.59	330.33	6.14	-50.9	-66.2	3.8	1.49e+00	0	43	104	1074790400	73	20890
2026-01-10 11:32:39.59	330.42	6.07	-50.9	-66.2	3.8	1.49e+00	0	44	104	1074790400	73	20795
2026-01-10 11:32:40.60	330.50	6.01	-50.9	-66.2	3.8	1.49e+00	0	43	104	1074790400	73	20957
2026-01-10 11:32:41.60	330.59	5.95	-50.9	-66.2	3.8	1.49e+00	0	43	104	1074790400	73	20886
2026-01-10 11:32:42.60	330.67	5.89	-50.9	-66.2	3.8	1.49e+00	0	44	104	1074790400	73	20893
2026-01-10 11:32:43.61	330.76	5.83	-50.9	-66.2	3.8	1.49e+00	0	43	104	1074790400	73	20913
2026-01-10 11:32:44.61	330.84	5.76	-50.9	-66.2	3.8	1.49e+00	0	43	104	1074790400	73	20915
2026-01-10 11:32:45.62	330.93	5.70	-50.9	-66.2	3.8	1.49e+00	0	43	104	1074790400	73	20839
2026-01-10 11:32:46.62	331.01	5.64	-50.9	-66.2	3.8	1.49e+00	0	43	104	1074790400	73	20889
2026-01-10 11:32:47.63	331.10	5.58	-50.9	-66.2	3.8	1.49e+00	0	44	104	1074790400	73	20990
2026-01-10 11:32:48.63	331.18	5.52	-50.9	-66.2	3.8	1.49e+00	0	43	104	1074790400	73	20840
2026-01-10 11:32:49.64	331.26	5.46	-50.9	-66.2	3.8	1.49e+00	0	44	104	1074790400	73	20982
2026-01-10 11:32:50.64	331.35	5.40	-50.9	-66.2	3.8	1.49e+00	0	44	104	1074790400	73	20894
2026-01-10 11:32:51.64	331.43	5.34	-50.9	-66.2	3.8	1.49e+00	0	43	104	1074790400	73	20901
2026-01-10 11:32:52.65	331.51	5.27	-50.9	-66.2	3.8	1.49e+00	0	43	104	1074790400	73	20879
2026-01-10 11:32:53.65	331.59	5.21	-50.9	-66.2	3.8	1.49e+00	0	43	104	1074790400	73	20859
2026-01-10 11:32:54.65	331.67	5.15	-50.9	-66.2	3.8	1.49e+00	0	44	104	1074790400	73	20891
2026-01-10 11:32:55.66	331.75	5.09	-50.9	-66.2	3.8	1.49e+00	0	44	104	1074790400	73	20846
2026-01-10 11:32:56.66	331.84	5.03	-50.9	-66.2	3.8	1.49e+00	0	44	104	1074790400	73	20849
2026-01-10 11:32:57.67	331.92	4.97	-50.9	-66.2	3.8	1.49e+00	0	43	104	1074790400	73	20861

#Closed at: 2026-01-10 11:32:58
#Recorded file [1074 MB]: D:/Data/31040_260110_142132.dat