passes_logs/2026/01/10/T1/T1__20260110_074218_SUOMI_NPP_rec.log

#Pass ID: 20260110_074218_SUOMI NPP
#Satellite: SUOMI NPP
#Configuration: NPP
#almurnet v.1.7.20251203
#Start time: 2026-01-10 07:42:18

#Version: 2.0.20230620
#Station: T1
#Location: 37.570604 lon 55.790049 lat
#TLE: 1 37849U 11061A   26008.83076692  .00000095  00000+0  66074-4 0  9997
#TLE: 2 37849  98.7806 310.9327 0002533  74.3004 285.8451 14.19523607735834

#Time	Az	El	Level	Level2	SNR	BER	BlckErr	Temp	State	Recorded	gain1	gain2
2026-01-10 07:42:18.97	85.86	5.02	-52.2	-67.4	3.8	1.49e+00	0	41	0	0	76	20108
2026-01-10 07:42:19.97	85.75	5.07	-52.2	-67.3	3.8	1.49e+00	0	41	104	0	75	21256
2026-01-10 07:42:20.98	85.64	5.12	-52.2	-67.3	3.8	1.49e+00	0	41	104	0	75	21133
2026-01-10 07:42:21.98	85.53	5.17	-52.2	-67.3	3.8	1.49e+00	0	41	104	0	75	21194
2026-01-10 07:42:22.99	85.42	5.22	-52.2	-67.3	3.8	1.49e+00	0	41	104	0	75	21155
2026-01-10 07:42:23.99	85.30	5.27	-52.2	-67.3	3.8	1.49e+00	0	41	104	0	75	21207
2026-01-10 07:42:25.00	85.19	5.32	-52.2	-67.3	3.8	1.49e+00	0	41	104	0	75	21172
2026-01-10 07:42:26.00	85.08	5.37	-52.2	-67.3	3.8	1.49e+00	0	41	104	0	75	21107
2026-01-10 07:42:27.00	84.97	5.42	-52.2	-67.3	3.8	1.49e+00	0	41	104	0	75	21113
2026-01-10 07:42:28.01	84.85	5.47	-52.2	-67.3	3.8	1.49e+00	0	41	104	0	75	21163
2026-01-10 07:42:29.01	84.74	5.52	-52.2	-67.3	3.8	1.49e+00	0	41	104	0	75	21059
2026-01-10 07:42:30.02	84.62	5.57	-52.2	-67.3	3.8	1.49e+00	0	41	104	0	75	21043
2026-01-10 07:42:31.02	84.51	5.62	-52.2	-67.3	3.8	1.49e+00	0	41	104	0	75	21190
2026-01-10 07:42:32.02	84.39	5.67	-52.2	-67.3	3.8	1.49e+00	0	41	104	0	75	21168
2026-01-10 07:42:33.03	84.28	5.72	-52.2	-67.3	3.8	1.49e+00	0	41	104	0	75	21141
2026-01-10 07:42:34.03	84.16	5.77	-52.2	-67.3	3.8	1.49e+00	0	41	104	0	75	21187
2026-01-10 07:42:35.04	84.05	5.82	-52.2	-67.3	3.8	1.49e+00	0	41	104	0	75	21116
2026-01-10 07:42:36.04	83.93	5.87	-52.2	-67.3	3.8	1.49e+00	0	41	104	0	75	21158
2026-01-10 07:42:37.05	83.81	5.92	-52.2	-67.3	3.8	1.49e+00	0	41	104	0	75	21154
2026-01-10 07:42:38.05	83.69	5.96	-52.2	-67.3	3.8	1.49e+00	0	41	104	0	75	21157
2026-01-10 07:42:39.05	83.58	6.01	-52.2	-67.3	3.8	1.49e+00	0	42	104	0	75	21135
2026-01-10 07:42:40.06	83.46	6.06	-52.2	-67.3	3.8	1.49e+00	0	42	104	0	75	21184
2026-01-10 07:42:41.06	83.34	6.11	-52.2	-67.3	3.8	1.49e+00	0	42	104	0	75	21116
2026-01-10 07:42:42.07	83.22	6.16	-52.2	-67.3	3.8	1.49e+00	0	42	104	0	75	21085
2026-01-10 07:42:43.07	83.10	6.21	-52.1	-67.3	3.8	1.49e+00	0	42	104	0	75	21093
2026-01-10 07:42:44.08	82.98	6.26	-52.2	-67.2	3.8	1.49e+00	0	42	104	0	75	21017
2026-01-10 07:42:45.08	82.86	6.31	-52.2	-67.2	3.8	1.49e+00	0	42	104	0	75	20997
2026-01-10 07:42:46.08	82.74	6.36	-52.1	-67.2	3.8	1.49e+00	0	42	104	0	75	20932
2026-01-10 07:42:47.09	82.62	6.41	-52.1	-67.2	3.8	1.49e+00	0	42	104	0	75	20961
2026-01-10 07:42:48.09	82.50	6.46	-52.1	-67.2	3.8	1.49e+00	0	42	104	0	75	20867
2026-01-10 07:42:49.09	82.37	6.51	-52.2	-67.2	3.8	1.49e+00	0	42	104	0	75	20905
2026-01-10 07:42:50.09	82.25	6.56	-52.1	-67.2	3.8	1.49e+00	0	42	104	0	75	20920
2026-01-10 07:42:51.10	82.13	6.61	-52.1	-67.2	3.8	1.49e+00	0	42	104	0	75	20992
2026-01-10 07:42:52.10	82.01	6.65	-52.1	-67.2	3.8	1.49e+00	0	42	104	0	75	20923
2026-01-10 07:42:53.11	81.88	6.70	-52.2	-67.2	3.8	1.49e+00	0	42	104	0	75	20939
2026-01-10 07:42:54.11	81.76	6.75	-52.1	-67.2	3.8	1.49e+00	0	42	104	0	75	20897
2026-01-10 07:42:55.12	81.63	6.80	-52.1	-67.2	3.8	1.49e+00	0	42	104	0	75	20949
2026-01-10 07:42:56.12	81.51	6.85	-52.2	-67.2	3.8	1.49e+00	0	42	104	0	75	20896
2026-01-10 07:42:57.12	81.38	6.90	-52.1	-67.2	3.8	1.49e+00	0	42	104	0	75	20978
2026-01-10 07:42:58.13	81.26	6.95	-52.1	-67.2	3.8	1.49e+00	0	42	104	0	75	20971
2026-01-10 07:42:59.13	81.13	7.00	-52.2	-67.3	3.8	1.49e+00	0	42	104	0	75	21058
2026-01-10 07:43:00.14	81.00	7.05	-52.1	-67.2	3.8	1.49e+00	0	42	104	0	75	20903
2026-01-10 07:43:01.14	80.88	7.10	-52.1	-67.2	3.8	1.49e+00	0	42	104	0	75	20883
2026-01-10 07:43:02.14	80.75	7.14	-52.1	-67.1	3.8	1.49e+00	0	42	104	0	75	20725
2026-01-10 07:43:03.15	80.62	7.19	-52.1	-67.1	3.8	1.49e+00	0	42	104	0	75	20646
2026-01-10 07:43:04.15	80.49	7.24	-52.1	-67.0	3.8	1.49e+00	0	42	104	0	75	20479
2026-01-10 07:43:05.16	80.36	7.29	-52.1	-67.0	3.8	1.49e+00	0	42	104	0	75	20444
2026-01-10 07:43:06.16	80.23	7.34	-52.1	-67.0	3.8	1.49e+00	0	42	104	0	75	20493
2026-01-10 07:43:07.17	80.10	7.39	-52.1	-67.1	3.8	1.49e+00	0	42	104	0	75	20647
2026-01-10 07:43:08.17	79.97	7.44	-52.1	-67.1	3.8	1.49e+00	0	42	104	0	75	20567
2026-01-10 07:43:09.18	79.84	7.49	-52.1	-67.0	3.8	1.49e+00	0	42	104	0	75	20495
2026-01-10 07:43:10.18	79.71	7.53	-52.1	-67.1	3.8	1.49e+00	0	42	104	0	75	20542
2026-01-10 07:43:11.18	79.58	7.58	-52.1	-67.0	3.8	1.49e+00	0	42	104	0	75	20461
2026-01-10 07:43:12.19	79.45	7.63	-52.1	-67.0	3.8	1.49e+00	0	42	104	0	75	20388
2026-01-10 07:43:13.20	79.31	7.68	-52.1	-67.0	3.8	1.49e+00	0	43	104	0	75	20346
2026-01-10 07:43:14.20	79.18	7.73	-52.1	-66.8	3.8	1.49e+00	0	42	104	0	75	20000
2026-01-10 07:43:15.20	79.05	7.78	-52.1	-66.7	3.8	1.49e+00	0	42	104	0	75	19767
2026-01-10 07:43:16.21	78.91	7.82	-52.1	-66.7	3.8	1.49e+00	0	43	104	0	75	19641
2026-01-10 07:43:17.21	78.78	7.87	-52.1	-66.7	3.8	1.49e+00	0	42	104	0	75	19654
2026-01-10 07:43:18.22	78.64	7.92	-52.1	-66.8	3.8	1.49e+00	0	42	104	0	75	19876
2026-01-10 07:43:19.22	78.51	7.97	-52.1	-67.0	3.8	1.49e+00	0	43	104	0	75	20349
2026-01-10 07:43:20.23	78.37	8.02	-52.1	-67.2	3.8	1.49e+00	0	42	104	0	75	20794
2026-01-10 07:43:21.23	78.24	8.06	-52.1	-67.3	3.8	1.49e+00	0	42	104	0	75	21079
2026-01-10 07:43:22.24	78.10	8.11	-52.1	-67.3	3.8	1.49e+00	0	42	104	0	75	21089
2026-01-10 07:43:23.24	77.96	8.16	-52.1	-67.3	3.8	1.49e+00	0	43	104	0	75	21105
2026-01-10 07:43:24.24	77.83	8.21	-52.1	-67.1	3.8	1.49e+00	0	42	104	0	75	20638
2026-01-10 07:43:25.25	77.69	8.25	-52.1	-66.5	3.8	1.49e+00	0	42	104	0	75	19283
2026-01-10 07:43:26.25	77.55	8.30	-52.1	-65.9	3.8	1.49e+00	0	42	104	0	75	18061
2026-01-10 07:43:27.26	77.41	8.35	-52.0	-65.5	3.8	1.49e+00	0	43	104	0	75	17185
2026-01-10 07:43:28.26	77.27	8.40	-52.0	-65.6	3.8	1.49e+00	0	43	104	0	75	17342
2026-01-10 07:43:29.27	77.13	8.44	-52.1	-66.6	3.8	1.49e+00	0	43	104	0	75	19428
2026-01-10 07:43:30.27	76.99	8.49	-52.1	-66.9	3.8	1.49e+00	0	43	104	0	75	20203
2026-01-10 07:43:31.28	76.85	8.54	-52.0	-64.6	3.9	1.49e+00	0	43	104	0	75	15479
2026-01-10 07:43:32.28	76.71	8.59	-51.5	-60.9	5.5	1.06e+00	0	43	0	1048576	75	10077
2026-01-10 07:43:33.29	76.57	8.63	-51.0	-58.1	7.8	1.23e-01	0	43	0	2097152	74	7768
2026-01-10 07:43:34.29	76.43	8.68	-50.4	-56.2	9.7	2.21e-02	0	43	0	4194304	72	7015
2026-01-10 07:43:35.30	76.28	8.73	-49.9	-55.1	10.9	4.49e-03	0	43	0	6291456	71	6506
2026-01-10 07:43:36.30	76.14	8.77	-49.8	-54.7	11.3	1.43e-03	0	43	0	8388608	71	6226
2026-01-10 07:43:37.30	76.00	8.82	-49.8	-54.8	11.2	1.42e-03	0	43	0	10485760	71	6323
2026-01-10 07:43:38.31	75.85	8.87	-50.4	-56.2	9.8	5.32e-03	0	43	0	11534336	71	7411
2026-01-10 07:43:39.31	75.71	8.91	-51.0	-58.3	7.6	2.99e-02	0	43	0	13631488	72	8965
2026-01-10 07:43:40.32	75.56	8.96	-51.7	-61.5	5.2	4.55e-01	0	43	0	15728640	73	12164
2026-01-10 07:43:41.32	75.42	9.01	-52.0	-65.2	3.8	1.35e+00	0	43	104	16777216	74	17572
2026-01-10 07:43:42.32	75.27	9.05	-52.0	-64.4	3.9	1.49e+00	0	43	104	16777216	74	15968
2026-01-10 07:43:43.33	75.13	9.10	-50.1	-55.4	10.7	1.47e-02	0	43	0	16777216	72	6353
2026-01-10 07:43:44.33	74.98	9.14	-52.1	-64.7	4.0	4.38e-01	0	43	0	18874368	74	16646
2026-01-10 07:43:45.33	74.83	9.19	-52.0	-66.2	3.8	1.49e+00	0	43	104	18874368	74	19701
2026-01-10 07:43:46.34	74.68	9.24	-51.0	-57.9	8.3	1.14e+00	0	43	0	18874368	72	8469
2026-01-10 07:43:47.34	74.54	9.28	-52.2	-66.8	3.8	1.49e+00	0	43	104	18874368	75	19892
2026-01-10 07:43:48.34	74.39	9.33	-50.9	-57.7	8.3	1.04e-01	0	43	0	18874368	73	7833
2026-01-10 07:43:49.34	74.24	9.37	-50.6	-56.7	9.3	3.55e-02	0	43	0	20971520	73	6974
2026-01-10 07:43:50.35	74.09	9.42	-50.6	-56.7	9.3	2.71e-02	0	43	0	23068672	73	7008
2026-01-10 07:43:51.35	73.94	9.46	-50.1	-55.5	10.6	6.74e-03	0	43	0	25165824	72	6434
2026-01-10 07:43:52.42	73.78	9.51	-49.8	-54.7	11.4	1.29e-03	0	43	0	27262976	71	6209
2026-01-10 07:43:53.33	73.64	9.55	-49.6	-54.2	11.9	7.74e-04	0	43	0	28311552	71	5892
2026-01-10 07:43:54.52	73.46	9.61	-49.4	-53.7	12.4	2.17e-04	0	43	0	30408704	70	5914
2026-01-10 07:43:55.38	73.33	9.64	-49.2	-53.4	12.8	1.31e-04	0	43	0	32505856	70	5684
2026-01-10 07:43:56.52	73.16	9.70	-49.1	-53.2	13.0	3.81e-05	0	43	0	34603008	70	5558
2026-01-10 07:43:57.38	73.03	9.73	-48.7	-52.4	13.8	7.60e-06	0	43	0	35651584	69	5382
2026-01-10 07:43:58.53	72.85	9.78	-48.6	-52.2	14.0	1.50e-06	0	43	0	38797312	68	5553
2026-01-10 07:43:59.39	72.72	9.82	-48.5	-52.1	14.1	7.00e-07	0	43	0	39845888	68	5504
2026-01-10 07:44:00.53	72.55	9.87	-48.2	-51.6	14.5	7.00e-07	0	43	0	41943040	68	5183
2026-01-10 07:44:01.39	72.41	9.91	-47.8	-51.1	15.0	0.00e+00	0	43	0	44040192	67	5163
2026-01-10 07:44:02.54	72.24	9.96	-47.6	-50.8	15.2	0.00e+00	0	43	0	46137344	67	5001
2026-01-10 07:44:03.40	72.10	10.00	-47.5	-50.7	15.3	0.00e+00	0	43	0	47185920	67	4933
2026-01-10 07:44:04.55	71.92	10.05	-47.5	-50.7	15.3	0.00e+00	0	43	0	49283072	66	5264
2026-01-10 07:44:05.40	71.79	10.09	-47.6	-50.7	15.3	0.00e+00	0	43	0	51380224	66	5274
2026-01-10 07:44:06.55	71.61	10.14	-47.7	-51.0	15.0	0.00e+00	0	43	0	53477376	66	5459
2026-01-10 07:44:07.41	71.48	10.17	-47.7	-51.0	15.0	0.00e+00	0	43	0	54525952	66	5428
2026-01-10 07:44:08.55	71.30	10.22	-47.8	-51.1	15.0	0.00e+00	0	43	0	56623104	66	5469
2026-01-10 07:44:09.41	71.16	10.26	-47.8	-51.1	14.9	0.00e+00	0	43	0	58720256	66	5513
2026-01-10 07:44:10.56	70.98	10.31	-47.6	-50.8	15.2	7.00e-07	0	43	0	60817408	66	5333
2026-01-10 07:44:11.42	70.84	10.35	-47.6	-50.8	15.3	0.00e+00	0	43	0	61865984	66	5301
2026-01-10 07:44:12.57	70.66	10.40	-47.2	-50.1	15.9	0.00e+00	0	43	0	65011712	66	4913
2026-01-10 07:44:13.43	70.52	10.43	-47.1	-50.0	16.0	0.00e+00	0	43	0	66060288	66	4843
2026-01-10 07:44:14.58	70.34	10.48	-47.2	-50.1	15.9	0.00e+00	0	43	0	68157440	66	4926
2026-01-10 07:44:15.43	70.20	10.52	-47.3	-50.4	15.6	0.00e+00	0	43	0	70254592	66	5046
2026-01-10 07:44:16.58	70.01	10.56	-47.2	-50.4	15.7	0.00e+00	0	43	0	72351744	66	5065
2026-01-10 07:44:17.44	69.88	10.60	-47.2	-50.4	15.6	0.00e+00	0	43	0	73400320	66	5076
2026-01-10 07:44:18.58	69.69	10.65	-47.3	-50.6	15.4	0.00e+00	0	43	0	75497472	66	5183
2026-01-10 07:44:19.44	69.55	10.68	-47.4	-50.7	15.3	0.00e+00	0	43	0	77594624	66	5236
2026-01-10 07:44:20.64	69.36	10.73	-47.7	-51.1	14.9	0.00e+00	0	43	0	79691776	66	5492
2026-01-10 07:44:21.49	69.22	10.77	-47.8	-51.3	14.7	7.00e-07	0	43	0	81788928	66	5656
2026-01-10 07:44:22.70	69.02	10.82	-48.0	-51.7	14.4	7.00e-07	0	43	0	83886080	66	5872
2026-01-10 07:44:23.56	68.88	10.85	-48.0	-51.6	14.5	1.50e-06	0	43	0	84934656	66	5830
2026-01-10 07:44:24.71	68.69	10.90	-47.9	-51.5	14.6	0.00e+00	0	43	0	87031808	66	5739
2026-01-10 07:44:25.60	68.54	10.94	-48.0	-51.6	14.4	7.00e-07	0	43	0	89128960	66	5843
2026-01-10 07:44:26.79	68.34	10.98	-47.9	-51.5	14.5	0.00e+00	0	43	0	91226112	66	5739
2026-01-10 07:44:27.65	68.20	11.02	-47.9	-51.4	14.7	7.00e-07	0	43	0	93323264	66	5672
2026-01-10 07:44:28.99	67.97	11.07	-47.6	-51.0	15.0	0.00e+00	0	43	0	95420416	66	5445
2026-01-10 07:44:29.71	67.85	11.10	-47.7	-51.1	14.9	0.00e+00	0	43	0	96468992	66	5489
2026-01-10 07:44:30.99	67.64	11.15	-47.5	-50.8	15.3	0.00e+00	0	43	0	99614720	66	5287
2026-01-10 07:44:31.71	67.52	11.18	-47.4	-50.7	15.3	0.00e+00	0	43	0	100663296	66	5271
2026-01-10 07:44:33.00	67.30	11.23	-47.4	-50.6	15.5	0.00e+00	0	43	0	102760448	66	5172
2026-01-10 07:44:33.71	67.18	11.26	-47.3	-50.5	15.6	0.00e+00	0	43	0	103809024	66	5110
2026-01-10 07:44:35.01	66.96	11.31	-47.6	-51.0	15.1	0.00e+00	0	43	0	106954752	66	5403
2026-01-10 07:44:35.72	66.84	11.34	-47.7	-51.1	15.0	0.00e+00	0	43	0	108003328	66	5489
2026-01-10 07:44:37.01	66.62	11.39	-47.9	-51.4	14.6	1.50e-06	0	43	0	110100480	66	5708
2026-01-10 07:44:37.73	66.50	11.42	-48.1	-51.8	14.3	0.00e+00	0	43	0	112197632	66	5963
2026-01-10 07:44:39.03	66.27	11.47	-48.0	-51.6	14.5	0.00e+00	0	43	0	114294784	66	5806
2026-01-10 07:44:39.75	66.15	11.49	-47.8	-51.3	14.8	0.00e+00	0	43	0	115343360	66	5603
2026-01-10 07:44:41.04	65.93	11.54	-47.7	-51.1	14.9	0.00e+00	0	43	0	118489088	66	5504
2026-01-10 07:44:41.75	65.80	11.57	-47.6	-51.0	15.1	1.50e-06	0	43	0	119537664	66	5451
2026-01-10 07:44:43.04	65.58	11.62	-47.6	-51.0	15.1	0.00e+00	0	43	0	121634816	66	5419
2026-01-10 07:44:43.76	65.45	11.64	-47.6	-50.9	15.1	0.00e+00	0	43	0	122683392	66	5356
2026-01-10 07:44:45.05	65.23	11.69	-47.5	-50.8	15.2	0.00e+00	0	43	0	125829120	66	5304
2026-01-10 07:44:45.76	65.11	11.72	-47.5	-50.8	15.3	0.00e+00	0	43	0	126877696	66	5282
2026-01-10 07:44:47.05	64.88	11.77	-47.5	-50.8	15.2	0.00e+00	0	43	0	128974848	66	5328
2026-01-10 07:44:47.77	64.75	11.79	-47.5	-50.8	15.3	0.00e+00	0	43	0	130023424	66	5291
2026-01-10 07:44:49.06	64.53	11.84	-47.6	-51.0	15.1	0.00e+00	0	43	0	133169152	66	5442
2026-01-10 07:44:49.87	64.38	11.87	-47.8	-51.4	14.7	0.00e+00	0	43	0	134217728	66	5657
2026-01-10 07:44:51.02	64.18	11.91	-47.9	-51.5	14.6	7.00e-07	0	43	0	136314880	66	5759
2026-01-10 07:44:51.87	64.03	11.94	-47.9	-51.5	14.6	0.00e+00	0	43	0	138412032	66	5760
2026-01-10 07:44:53.02	63.82	11.98	-48.1	-51.8	14.3	0.00e+00	0	43	0	140509184	66	5966
2026-01-10 07:44:53.88	63.67	12.01	-47.9	-51.4	14.6	7.00e-07	0	44	0	141557760	66	5711
2026-01-10 07:44:55.02	63.47	12.05	-47.7	-51.2	14.9	0.00e+00	0	43	0	143654912	66	5537
2026-01-10 07:44:55.88	63.31	12.08	-47.7	-51.2	15.0	0.00e+00	0	43	0	145752064	66	5532
2026-01-10 07:44:57.04	63.10	12.12	-47.5	-50.9	15.2	0.00e+00	0	43	0	147849216	66	5352
2026-01-10 07:44:57.90	62.95	12.15	-47.5	-50.8	15.2	0.00e+00	0	43	0	149946368	66	5333
2026-01-10 07:44:59.14	62.73	12.19	-47.6	-51.0	15.1	0.00e+00	0	43	0	152043520	66	5404
2026-01-10 07:45:00.39	62.50	12.23	-47.8	-51.3	14.7	0.00e+00	0	43	0	154140672	66	5656
2026-01-10 07:45:01.30	62.34	12.27	-47.9	-51.5	14.5	0.00e+00	0	43	0	156237824	66	5783
2026-01-10 07:45:02.31	62.15	12.30	-48.1	-51.8	14.3	1.50e-06	0	43	0	158334976	66	5936
2026-01-10 07:45:03.31	61.97	12.33	-48.2	-51.9	14.1	7.00e-07	0	43	0	159383552	67	5710
2026-01-10 07:45:04.31	61.79	12.36	-48.2	-52.1	14.0	7.00e-07	0	43	0	161480704	67	5794
2026-01-10 07:45:05.32	61.60	12.40	-48.3	-52.2	13.9	1.50e-06	0	43	0	163577856	67	5876
2026-01-10 07:45:06.32	61.42	12.43	-48.0	-51.8	14.3	1.50e-06	0	43	0	165675008	67	5603
2026-01-10 07:45:07.32	61.24	12.46	-48.1	-51.9	14.2	0.00e+00	0	43	0	167772160	67	5677
2026-01-10 07:45:08.34	61.05	12.49	-47.9	-51.6	14.5	7.00e-07	0	43	0	168820736	67	5490
2026-01-10 07:45:09.37	60.86	12.53	-47.6	-51.1	15.0	0.00e+00	0	43	0	170917888	67	5171
2026-01-10 07:45:10.37	60.67	12.56	-47.5	-50.8	15.3	0.00e+00	0	43	0	173015040	66	5298
2026-01-10 07:45:11.37	60.49	12.59	-47.1	-50.1	15.9	0.00e+00	0	43	0	175112192	66	4915
2026-01-10 07:45:12.45	60.29	12.62	-46.9	-49.9	16.0	0.00e+00	0	43	0	177209344	65	5096
2026-01-10 07:45:13.35	60.12	12.65	-47.0	-50.0	16.0	0.00e+00	0	43	0	178257920	65	5131
2026-01-10 07:45:14.42	59.92	12.68	-47.1	-50.1	15.9	0.00e+00	0	43	0	180355072	65	5194
2026-01-10 07:45:15.28	59.76	12.71	-46.9	-49.9	16.1	0.00e+00	0	43	0	182452224	65	5083
2026-01-10 07:45:16.43	59.54	12.74	-47.0	-50.0	16.1	0.00e+00	0	43	0	184549376	65	5131
2026-01-10 07:45:17.29	59.38	12.77	-47.0	-50.0	16.0	0.00e+00	0	43	0	185597952	65	5154
2026-01-10 07:45:18.43	59.17	12.80	-46.9	-49.9	16.2	0.00e+00	0	43	0	187695104	65	5058
2026-01-10 07:45:19.29	59.00	12.83	-46.9	-49.9	16.2	0.00e+00	0	43	0	189792256	65	5048
2026-01-10 07:45:20.44	58.79	12.86	-47.1	-50.2	15.9	0.00e+00	0	43	0	191889408	65	5229
2026-01-10 07:45:21.30	58.62	12.88	-47.1	-50.2	15.9	0.00e+00	0	43	0	192937984	65	5220
2026-01-10 07:45:22.45	58.41	12.92	-47.0	-50.0	16.1	0.00e+00	0	44	0	196083712	65	5112
2026-01-10 07:45:23.31	58.24	12.94	-46.9	-49.9	16.1	0.00e+00	0	43	0	197132288	65	5085
2026-01-10 07:45:24.45	58.03	12.97	-46.9	-49.9	16.2	0.00e+00	0	43	0	199229440	65	5079
2026-01-10 07:45:25.31	57.86	13.00	-46.9	-49.8	16.2	0.00e+00	0	43	0	201326592	65	5019
2026-01-10 07:45:26.45	57.64	13.03	-46.9	-49.9	16.1	0.00e+00	0	44	0	203423744	65	5087
2026-01-10 07:45:27.31	57.48	13.05	-47.2	-50.2	15.8	0.00e+00	0	43	0	204472320	65	5273
2026-01-10 07:45:28.65	57.22	13.09	-47.4	-50.6	15.5	0.00e+00	0	43	0	207618048	65	5522
2026-01-10 07:45:29.37	57.08	13.10	-47.5	-50.8	15.3	0.00e+00	0	43	0	208666624	65	5609
2026-01-10 07:45:30.66	56.84	13.14	-47.8	-51.2	15.0	0.00e+00	0	43	0	210763776	66	5562
2026-01-10 07:45:31.37	56.70	13.16	-48.0	-51.5	14.7	0.00e+00	0	43	0	211812352	66	5751
2026-01-10 07:45:32.66	56.45	13.19	-48.0	-51.6	14.6	0.00e+00	0	43	0	214958080	66	5822
2026-01-10 07:45:33.38	56.31	13.21	-47.9	-51.4	14.7	0.00e+00	0	43	0	216006656	66	5710
2026-01-10 07:45:34.67	56.06	13.24	-47.8	-51.3	14.9	0.00e+00	0	43	0	218103808	66	5593
2026-01-10 07:45:35.46	55.91	13.26	-47.9	-51.5	14.7	0.00e+00	0	43	0	220200960	66	5747
2026-01-10 07:45:36.61	55.68	13.29	-48.1	-51.7	14.5	1.50e-06	0	43	0	222298112	66	5862
2026-01-10 07:45:37.47	55.52	13.31	-48.1	-51.7	14.5	7.00e-07	0	43	0	223346688	66	5882
2026-01-10 07:45:38.62	55.29	13.33	-47.9	-51.4	14.7	0.00e+00	0	43	0	225443840	66	5705
2026-01-10 07:45:39.47	55.13	13.35	-47.8	-51.3	14.8	7.00e-07	0	43	0	227540992	66	5640
2026-01-10 07:45:40.62	54.90	13.38	-47.7	-51.1	15.0	7.00e-07	0	43	0	229638144	66	5516
2026-01-10 07:45:41.48	54.73	13.40	-47.7	-51.1	15.0	0.00e+00	0	43	0	231735296	66	5501
2026-01-10 07:45:42.63	54.51	13.42	-47.7	-51.1	15.0	7.00e-07	0	43	0	233832448	66	5516
2026-01-10 07:45:43.49	54.34	13.44	-47.8	-51.3	14.9	0.00e+00	0	44	0	234881024	66	5596
2026-01-10 07:45:44.64	54.11	13.47	-47.8	-51.3	14.8	0.00e+00	0	43	0	236978176	66	5632
2026-01-10 07:45:45.49	53.94	13.49	-47.7	-51.1	14.9	7.00e-07	0	43	0	239075328	66	5518
2026-01-10 07:45:46.64	53.72	13.51	-47.5	-50.8	15.3	0.00e+00	0	43	0	241172480	66	5336
2026-01-10 07:45:47.50	53.55	13.53	-47.5	-50.8	15.3	0.00e+00	0	44	0	242221056	66	5326
2026-01-10 07:45:48.64	53.32	13.55	-47.4	-50.6	15.5	0.00e+00	0	43	0	244318208	66	5211
2026-01-10 07:45:49.50	53.15	13.57	-47.2	-50.4	15.7	0.00e+00	0	43	0	246415360	66	5056
2026-01-10 07:45:50.65	52.92	13.59	-47.2	-50.4	15.7	0.00e+00	0	43	0	248512512	66	5069
2026-01-10 07:45:51.75	52.70	13.61	-47.3	-50.5	15.6	0.00e+00	0	44	0	250609664	66	5121
2026-01-10 07:45:52.61	52.53	13.63	-47.2	-50.4	15.7	0.00e+00	0	44	0	251658240	66	5047
2026-01-10 07:45:54.11	52.23	13.66	-47.1	-50.2	15.9	0.00e+00	0	43	0	254803968	66	4927
2026-01-10 07:45:54.82	52.09	13.67	-47.0	-50.1	15.9	0.00e+00	0	43	0	255852544	65	5189
2026-01-10 07:45:56.11	51.83	13.69	-47.2	-50.4	15.7	0.00e+00	0	43	0	258998272	65	5347
2026-01-10 07:45:56.83	51.69	13.71	-47.3	-50.5	15.6	0.00e+00	0	43	0	260046848	65	5448
2026-01-10 07:45:58.11	51.43	13.73	-47.4	-50.6	15.5	0.00e+00	0	43	0	262144000	65	5506
2026-01-10 07:45:58.83	51.29	13.74	-47.4	-50.6	15.5	0.00e+00	0	43	0	264241152	65	5514
2026-01-10 07:46:00.12	51.03	13.76	-47.5	-50.8	15.3	0.00e+00	0	43	0	266338304	65	5651
2026-01-10 07:46:00.90	50.87	13.77	-47.5	-50.9	15.2	0.00e+00	0	43	0	267386880	65	5669
2026-01-10 07:46:02.19	50.61	13.79	-47.5	-50.9	15.2	0.00e+00	0	44	0	270532608	65	5676
2026-01-10 07:46:02.91	50.47	13.81	-47.4	-50.7	15.3	7.00e-07	0	43	0	271581184	65	5563
2026-01-10 07:46:04.19	50.21	13.82	-47.3	-50.5	15.5	0.00e+00	0	43	0	273678336	65	5454
2026-01-10 07:46:04.91	50.06	13.84	-47.2	-50.4	15.5	0.00e+00	0	43	0	274726912	65	5391
2026-01-10 07:46:06.20	49.80	13.85	-47.2	-50.3	15.7	0.00e+00	0	44	0	277872640	65	5335
2026-01-10 07:46:06.92	49.66	13.86	-47.2	-50.4	15.6	0.00e+00	0	43	0	278921216	65	5370
2026-01-10 07:46:08.20	49.40	13.88	-47.3	-50.5	15.6	0.00e+00	0	43	0	281018368	65	5411
2026-01-10 07:46:09.19	49.20	13.90	-47.3	-50.5	15.5	0.00e+00	0	43	0	283115520	65	5459
2026-01-10 07:46:10.20	48.99	13.91	-47.3	-50.6	15.5	7.00e-07	0	44	0	285212672	65	5498
2026-01-10 07:46:11.20	48.79	13.92	-47.3	-50.5	15.5	0.00e+00	0	43	0	287309824	65	5449
2026-01-10 07:46:12.20	48.59	13.93	-47.4	-50.7	15.4	0.00e+00	0	43	0	289406976	65	5544
2026-01-10 07:46:13.20	48.38	13.95	-47.4	-50.7	15.4	0.00e+00	0	43	0	290455552	65	5565
2026-01-10 07:46:14.21	48.18	13.96	-47.7	-51.2	14.9	0.00e+00	0	43	0	292552704	66	5547
2026-01-10 07:46:15.21	47.97	13.97	-47.8	-51.3	14.8	0.00e+00	0	43	0	294649856	66	5642
2026-01-10 07:46:16.24	47.76	13.98	-47.7	-51.1	15.0	0.00e+00	0	43	0	296747008	66	5523
2026-01-10 07:46:17.27	47.55	13.99	-47.6	-51.1	15.1	0.00e+00	0	43	0	298844160	66	5477
2026-01-10 07:46:18.28	47.35	14.00	-47.5	-50.9	15.2	0.00e+00	0	43	0	299892736	66	5367
2026-01-10 07:46:19.34	47.13	14.01	-47.4	-50.6	15.5	0.00e+00	0	44	0	301989888	66	5213
2026-01-10 07:46:20.24	46.95	14.02	-47.3	-50.5	15.6	0.00e+00	0	44	0	304087040	66	5146
2026-01-10 07:46:21.27	46.74	14.03	-47.4	-50.7	15.5	0.00e+00	0	44	0	306184192	66	5224
2026-01-10 07:46:22.44	46.50	14.04	-47.3	-50.5	15.6	0.00e+00	0	43	0	308281344	66	5125
2026-01-10 07:46:23.34	46.31	14.05	-47.2	-50.4	15.7	0.00e+00	0	43	0	309329920	66	5067
2026-01-10 07:46:24.38	46.10	14.06	-47.2	-50.4	15.7	0.00e+00	0	44	0	311427072	66	5071
2026-01-10 07:46:25.27	45.92	14.06	-47.2	-50.4	15.7	0.00e+00	0	43	0	313524224	66	5042
2026-01-10 07:46:26.41	45.68	14.07	-47.0	-50.1	15.9	0.00e+00	0	43	0	315621376	65	5204
2026-01-10 07:46:27.28	45.51	14.08	-47.0	-50.1	15.9	0.00e+00	0	43	0	317718528	65	5190
2026-01-10 07:46:28.42	45.27	14.09	-47.0	-50.2	15.8	0.00e+00	0	43	0	318767104	65	5234
2026-01-10 07:46:29.28	45.09	14.09	-47.1	-50.3	15.7	0.00e+00	0	43	0	320864256	65	5297
2026-01-10 07:46:30.43	44.86	14.10	-47.1	-50.3	15.7	0.00e+00	0	43	0	322961408	65	5335
2026-01-10 07:46:31.29	44.68	14.10	-47.2	-50.4	15.6	0.00e+00	0	43	0	325058560	65	5347
2026-01-10 07:46:32.44	44.45	14.11	-47.2	-50.4	15.6	0.00e+00	0	43	0	327155712	65	5388
2026-01-10 07:46:33.30	44.27	14.11	-47.2	-50.5	15.5	0.00e+00	0	43	0	328204288	65	5418
2026-01-10 07:46:34.51	44.02	14.12	-47.2	-50.4	15.5	0.00e+00	0	44	0	330301440	65	5398
2026-01-10 07:46:35.37	43.84	14.12	-47.2	-50.4	15.6	0.00e+00	0	44	0	332398592	65	5374
2026-01-10 07:46:36.51	43.61	14.13	-47.2	-50.4	15.6	0.00e+00	0	43	0	334495744	65	5362
2026-01-10 07:46:37.37	43.43	14.13	-47.1	-50.2	15.8	0.00e+00	0	43	0	335544320	65	5235
2026-01-10 07:46:38.64	43.17	14.13	-46.9	-49.9	16.0	0.00e+00	0	43	0	338690048	65	5083
2026-01-10 07:46:39.36	43.02	14.13	-46.8	-49.7	16.2	0.00e+00	0	43	0	339738624	65	4980
2026-01-10 07:46:40.65	42.76	14.14	-46.6	-49.6	16.3	0.00e+00	0	43	0	341835776	65	4877
2026-01-10 07:46:41.36	42.61	14.14	-46.6	-49.6	16.3	0.00e+00	0	43	0	343932928	65	4874
2026-01-10 07:46:42.65	42.34	14.14	-46.7	-49.7	16.2	0.00e+00	0	43	0	346030080	65	4959
2026-01-10 07:46:43.37	42.19	14.14	-46.8	-49.9	16.0	0.00e+00	0	43	0	347078656	65	5055
2026-01-10 07:46:44.66	41.93	14.14	-46.9	-50.1	15.8	0.00e+00	0	43	0	350224384	65	5169
2026-01-10 07:46:45.49	41.76	14.14	-47.2	-50.4	15.5	0.00e+00	0	43	0	351272960	65	5399
2026-01-10 07:46:46.63	41.52	14.14	-47.1	-50.4	15.5	0.00e+00	0	44	0	353370112	65	5393
2026-01-10 07:46:47.70	41.30	14.14	-47.1	-50.5	15.4	0.00e+00	0	43	0	355467264	65	5434
2026-01-10 07:46:48.56	41.12	14.14	-47.0	-50.3	15.5	0.00e+00	0	43	0	357564416	65	5320
2026-01-10 07:46:49.71	40.89	14.14	-47.0	-50.3	15.5	0.00e+00	0	44	0	359661568	65	5298
2026-01-10 07:46:50.84	40.66	14.14	-46.9	-50.2	15.5	0.00e+00	0	43	0	361758720	65	5247
2026-01-10 07:46:51.70	40.48	14.14	-47.0	-50.4	15.2	0.00e+00	0	43	0	362807296	65	5391
2026-01-10 07:46:52.84	40.24	14.13	-47.2	-50.7	15.0	0.00e+00	0	43	0	364904448	65	5534
2026-01-10 07:46:53.70	40.07	14.13	-47.3	-50.8	14.8	7.00e-07	0	43	0	367001600	65	5649
2026-01-10 07:46:54.85	39.83	14.13	-47.3	-50.9	14.7	0.00e+00	0	44	0	369098752	65	5674
2026-01-10 07:46:55.71	39.65	14.12	-47.2	-50.9	14.7	0.00e+00	0	43	0	370147328	65	5671
2026-01-10 07:46:56.85	39.42	14.12	-47.3	-51.0	14.6	0.00e+00	0	43	0	372244480	65	5725
2026-01-10 07:46:57.71	39.24	14.12	-47.1	-50.8	14.8	0.00e+00	0	44	0	374341632	65	5606
2026-01-10 07:46:59.04	38.97	14.11	-47.0	-50.6	15.0	0.00e+00	0	43	0	376438784	65	5467
2026-01-10 07:46:59.75	38.82	14.11	-46.9	-50.4	15.1	0.00e+00	0	43	0	378535936	65	5356
2026-01-10 07:47:01.04	38.56	14.10	-46.9	-50.4	15.1	0.00e+00	0	43	0	380633088	65	5402
2026-01-10 07:47:01.76	38.41	14.10	-46.6	-50.1	15.4	0.00e+00	0	43	0	381681664	65	5173
2026-01-10 07:47:03.05	38.14	14.09	-46.5	-49.9	15.5	0.00e+00	0	43	0	383778816	65	5088
2026-01-10 07:47:03.76	38.00	14.08	-46.5	-49.9	15.5	0.00e+00	0	44	0	385875968	64	5387
2026-01-10 07:47:05.05	37.73	14.07	-46.3	-49.7	15.8	0.00e+00	0	43	0	387973120	64	5229
2026-01-10 07:47:05.77	37.59	14.07	-46.4	-49.7	15.7	0.00e+00	0	43	0	389021696	64	5256
2026-01-10 07:47:07.05	37.32	14.06	-46.5	-49.9	15.5	0.00e+00	0	44	0	392167424	64	5386
2026-01-10 07:47:07.77	37.18	14.05	-46.6	-50.0	15.4	0.00e+00	0	44	0	393216000	64	5453
2026-01-10 07:47:09.06	36.91	14.04	-46.5	-49.9	15.6	0.00e+00	0	44	0	395313152	64	5350
2026-01-10 07:47:09.98	36.72	14.04	-46.8	-50.3	15.1	0.00e+00	0	43	0	397410304	64	5650
2026-01-10 07:47:10.99	36.52	14.03	-46.8	-50.3	15.2	7.00e-07	0	43	0	399507456	64	5623
2026-01-10 07:47:11.99	36.31	14.02	-46.9	-50.4	15.1	0.00e+00	0	43	0	400556032	64	5709
2026-01-10 07:47:13.00	36.11	14.01	-46.7	-50.1	15.3	0.00e+00	0	43	0	402653184	64	5507
2026-01-10 07:47:14.00	35.90	14.00	-46.5	-49.9	15.6	0.00e+00	0	44	0	404750336	64	5349
2026-01-10 07:47:15.01	35.70	13.99	-46.4	-49.7	15.8	0.00e+00	0	43	0	406847488	64	5239
2026-01-10 07:47:16.01	35.49	13.98	-46.1	-49.3	16.1	0.00e+00	0	43	0	408944640	64	5006
2026-01-10 07:47:17.01	35.29	13.97	-46.1	-49.3	16.1	0.00e+00	0	43	0	409993216	64	5031
2026-01-10 07:47:18.02	35.08	13.95	-46.0	-49.2	16.2	0.00e+00	0	43	0	412090368	64	4957
2026-01-10 07:47:19.00	34.88	13.94	-46.1	-49.4	16.0	0.00e+00	0	43	0	414187520	64	5058
2026-01-10 07:47:20.01	34.68	13.93	-46.2	-49.5	15.9	0.00e+00	0	43	0	416284672	64	5108
2026-01-10 07:47:21.01	34.48	13.92	-46.4	-49.8	15.6	0.00e+00	0	43	0	418381824	64	5327
2026-01-10 07:47:22.01	34.27	13.90	-46.4	-49.8	15.7	0.00e+00	0	43	0	419430400	64	5283
2026-01-10 07:47:23.01	34.07	13.89	-46.5	-49.7	15.7	0.00e+00	0	43	0	421527552	64	5270
2026-01-10 07:47:24.02	33.87	13.88	-46.4	-49.7	15.8	0.00e+00	0	43	0	423624704	64	5222
2026-01-10 07:47:25.02	33.66	13.86	-46.3	-49.4	16.0	0.00e+00	0	44	0	425721856	64	5070
2026-01-10 07:47:26.02	33.46	13.85	-46.6	-49.8	15.6	0.00e+00	0	43	0	427819008	64	5299
2026-01-10 07:47:27.02	33.26	13.83	-46.6	-49.8	15.5	0.00e+00	0	44	0	428867584	64	5323
2026-01-10 07:47:28.02	33.06	13.82	-46.5	-49.8	15.5	0.00e+00	0	44	0	430964736	64	5311
2026-01-10 07:47:29.02	32.86	13.80	-46.7	-50.1	15.3	0.00e+00	0	43	0	433061888	64	5480
2026-01-10 07:47:30.03	32.65	13.79	-46.7	-50.1	15.2	0.00e+00	0	43	0	435159040	64	5505
2026-01-10 07:47:31.03	32.45	13.77	-46.6	-50.0	15.3	0.00e+00	0	43	0	436207616	64	5434
2026-01-10 07:47:32.03	32.25	13.76	-46.6	-50.0	15.3	0.00e+00	0	44	0	438304768	64	5421
2026-01-10 07:47:33.04	32.05	13.74	-46.7	-50.1	15.2	0.00e+00	0	44	0	440401920	64	5484
2026-01-10 07:47:34.04	31.85	13.72	-46.5	-49.9	15.4	0.00e+00	0	44	0	442499072	64	5390
2026-01-10 07:47:35.04	31.65	13.71	-46.7	-50.1	15.2	0.00e+00	0	44	0	444596224	64	5479
2026-01-10 07:47:36.05	31.45	13.69	-46.6	-49.9	15.4	0.00e+00	0	43	0	445644800	64	5381
2026-01-10 07:47:37.05	31.25	13.67	-46.6	-50.0	15.3	0.00e+00	0	44	0	447741952	64	5416
2026-01-10 07:47:38.05	31.05	13.65	-46.5	-49.8	15.5	0.00e+00	0	43	0	449839104	64	5299
2026-01-10 07:47:39.05	30.85	13.63	-46.5	-49.7	15.6	0.00e+00	0	44	0	451936256	64	5223
2026-01-10 07:47:40.06	30.65	13.61	-46.2	-49.3	15.9	0.00e+00	0	44	0	454033408	64	5024
2026-01-10 07:47:41.06	30.45	13.59	-46.1	-49.0	16.3	0.00e+00	0	43	0	455081984	63	5156
2026-01-10 07:47:42.06	30.25	13.57	-46.2	-49.3	16.0	0.00e+00	0	43	0	457179136	63	5329
2026-01-10 07:47:43.07	30.05	13.55	-46.2	-49.3	16.0	0.00e+00	0	44	0	459276288	63	5330
2026-01-10 07:47:44.07	29.86	13.53	-46.4	-49.6	15.8	0.00e+00	0	43	0	461373440	63	5479
2026-01-10 07:47:45.15	29.64	13.51	-46.2	-49.3	16.0	0.00e+00	0	44	0	463470592	63	5317
2026-01-10 07:47:46.05	29.46	13.49	-46.0	-49.2	16.2	0.00e+00	0	43	0	464519168	63	5226
2026-01-10 07:47:47.19	29.24	13.47	-46.0	-49.2	16.1	0.00e+00	0	43	0	466616320	63	5235
2026-01-10 07:47:48.11	29.06	13.45	-45.9	-49.1	16.2	0.00e+00	0	43	0	468713472	63	5172
2026-01-10 07:47:49.27	28.83	13.42	-45.8	-49.0	16.3	0.00e+00	0	43	0	470810624	63	5126
2026-01-10 07:47:50.13	28.66	13.40	-45.8	-49.1	16.2	0.00e+00	0	44	0	472907776	63	5175
2026-01-10 07:47:51.27	28.44	13.38	-46.1	-49.4	15.9	0.00e+00	0	44	0	475004928	63	5400
2026-01-10 07:47:52.13	28.27	13.36	-46.2	-49.6	15.7	0.00e+00	0	43	0	476053504	63	5496
2026-01-10 07:47:53.28	28.05	13.33	-46.4	-50.0	15.3	0.00e+00	0	44	0	478150656	63	5755
2026-01-10 07:47:54.14	27.88	13.31	-46.5	-50.1	15.1	0.00e+00	0	44	0	480247808	63	5807
2026-01-10 07:47:55.65	27.59	13.28	-46.4	-49.9	15.4	0.00e+00	0	43	0	482344960	63	5709
2026-01-10 07:47:56.37	27.45	13.26	-46.5	-50.1	15.2	0.00e+00	0	44	0	484442112	63	5806
2026-01-10 07:47:57.65	27.20	13.23	-46.5	-50.0	15.3	0.00e+00	0	43	0	486539264	63	5742
2026-01-10 07:47:58.37	27.06	13.21	-46.5	-50.0	15.3	0.00e+00	0	44	0	487587840	63	5730
2026-01-10 07:47:59.66	26.81	13.18	-46.6	-50.1	15.1	0.00e+00	0	43	0	490733568	64	5520
2026-01-10 07:48:00.38	26.67	13.16	-46.4	-49.9	15.3	0.00e+00	0	44	0	491782144	64	5371
2026-01-10 07:48:01.67	26.43	13.13	-46.3	-49.8	15.4	0.00e+00	0	44	0	493879296	64	5283
2026-01-10 07:48:02.50	26.27	13.10	-46.4	-49.8	15.4	0.00e+00	0	44	0	495976448	64	5316
2026-01-10 07:48:03.64	26.05	13.08	-46.3	-49.7	15.4	0.00e+00	0	44	0	498073600	64	5271
2026-01-10 07:48:04.50	25.88	13.05	-46.4	-49.8	15.3	0.00e+00	0	44	0	499122176	64	5338
2026-01-10 07:48:05.65	25.66	13.02	-46.4	-49.9	15.3	0.00e+00	0	44	0	501219328	64	5349
2026-01-10 07:48:06.83	25.44	12.99	-46.4	-49.8	15.4	0.00e+00	0	43	0	504365056	64	5316
2026-01-10 07:48:07.69	25.28	12.97	-46.3	-49.7	15.5	0.00e+00	0	44	0	505413632	64	5220
2026-01-10 07:48:08.83	25.06	12.93	-46.2	-49.6	15.6	0.00e+00	0	44	0	507510784	64	5177
2026-01-10 07:48:09.69	24.90	12.91	-46.1	-49.4	15.8	0.00e+00	0	43	0	509607936	64	5062
2026-01-10 07:48:10.84	24.68	12.88	-46.1	-49.3	15.9	0.00e+00	0	44	0	511705088	63	5288
2026-01-10 07:48:11.70	24.52	12.85	-46.1	-49.3	15.9	0.00e+00	0	43	0	512753664	63	5306
2026-01-10 07:48:12.84	24.30	12.82	-46.2	-49.4	15.8	0.00e+00	0	43	0	514850816	63	5376
2026-01-10 07:48:13.70	24.14	12.80	-46.1	-49.4	15.8	0.00e+00	0	43	0	516947968	63	5343
2026-01-10 07:48:14.85	23.93	12.76	-46.3	-49.6	15.6	0.00e+00	0	44	0	519045120	63	5501
2026-01-10 07:48:15.71	23.76	12.74	-46.1	-49.3	15.9	0.00e+00	0	44	0	520093696	63	5299
2026-01-10 07:48:16.92	23.54	12.70	-46.2	-49.5	15.6	0.00e+00	0	43	0	523239424	63	5425
2026-01-10 07:48:17.78	23.38	12.67	-46.2	-49.5	15.7	0.00e+00	0	44	0	524288000	63	5414
2026-01-10 07:48:18.97	23.16	12.64	-46.1	-49.3	15.8	0.00e+00	0	44	0	526385152	63	5312
2026-01-10 07:48:19.84	23.00	12.61	-46.1	-49.2	15.9	0.00e+00	0	44	0	528482304	63	5279
2026-01-10 07:48:20.98	22.79	12.58	-45.9	-48.9	16.2	0.00e+00	0	43	0	530579456	63	5095
2026-01-10 07:48:21.84	22.63	12.55	-45.8	-48.9	16.2	0.00e+00	0	43	0	531628032	63	5084
2026-01-10 07:48:22.99	22.41	12.51	-45.7	-48.8	16.3	0.00e+00	0	43	0	533725184	63	5011
2026-01-10 07:48:23.85	22.26	12.49	-45.6	-48.7	16.4	0.00e+00	0	44	0	535822336	63	4963
2026-01-10 07:48:24.99	22.05	12.45	-45.5	-48.7	16.4	0.00e+00	0	44	0	537919488	63	4939
2026-01-10 07:48:25.86	21.89	12.42	-45.6	-48.9	16.2	0.00e+00	0	44	0	538968064	63	5061
2026-01-10 07:48:27.00	21.68	12.39	-45.6	-49.0	16.1	0.00e+00	0	44	0	542113792	63	5125
2026-01-10 07:48:27.86	21.52	12.36	-45.6	-49.0	16.0	0.00e+00	0	44	0	543162368	63	5157
2026-01-10 07:48:29.01	21.31	12.32	-45.6	-49.1	16.0	0.00e+00	0	44	0	545259520	63	5192
2026-01-10 07:48:29.86	21.16	12.29	-45.7	-49.4	15.7	0.00e+00	0	44	0	547356672	63	5391
2026-01-10 07:48:31.01	20.95	12.25	-45.8	-49.6	15.5	0.00e+00	0	44	0	549453824	63	5497
2026-01-10 07:48:31.87	20.80	12.22	-46.0	-49.9	15.2	0.00e+00	0	44	0	550502400	63	5672
2026-01-10 07:48:33.02	20.59	12.18	-46.1	-50.0	15.1	0.00e+00	0	43	0	552599552	63	5755
2026-01-10 07:48:33.88	20.43	12.16	-46.3	-50.1	14.9	0.00e+00	0	44	0	554696704	63	5854
2026-01-10 07:48:35.02	20.23	12.12	-46.5	-50.4	14.7	0.00e+00	0	43	0	556793856	63	6017
2026-01-10 07:48:35.89	20.07	12.09	-46.5	-50.3	14.7	0.00e+00	0	44	0	557842432	63	5965
2026-01-10 07:48:37.03	19.87	12.05	-46.6	-50.4	14.6	0.00e+00	0	44	0	560988160	63	6013
2026-01-10 07:48:37.89	19.72	12.02	-46.5	-50.3	14.7	0.00e+00	0	44	0	562036736	64	5615
2026-01-10 07:48:39.04	19.51	11.98	-46.3	-50.0	14.9	7.00e-07	0	44	0	564133888	64	5459
2026-01-10 07:48:39.90	19.36	11.95	-46.3	-50.0	15.0	0.00e+00	0	44	0	566231040	64	5408
2026-01-10 07:48:41.05	19.16	11.91	-46.4	-50.1	14.9	0.00e+00	0	44	0	568328192	64	5475
2026-01-10 07:48:42.10	18.97	11.87	-46.4	-49.9	14.9	0.00e+00	0	44	0	570425344	64	5401
2026-01-10 07:48:43.16	18.79	11.83	-46.4	-49.9	15.1	0.00e+00	0	44	0	572522496	64	5344
2026-01-10 07:48:44.02	18.64	11.80	-46.5	-49.9	15.0	0.00e+00	0	44	0	573571072	64	5382
2026-01-10 07:48:45.17	18.44	11.76	-46.4	-49.9	15.0	7.00e-07	0	43	0	575668224	64	5356
2026-01-10 07:48:46.03	18.29	11.72	-46.4	-49.8	15.0	0.00e+00	0	44	0	577765376	64	5335
2026-01-10 07:48:47.18	18.09	11.68	-46.4	-49.9	15.0	0.00e+00	0	43	0	579862528	64	5353
2026-01-10 07:48:48.04	17.94	11.65	-46.5	-50.2	14.7	0.00e+00	0	44	0	580911104	64	5551
2026-01-10 07:48:49.18	17.74	11.61	-46.4	-50.1	14.8	0.00e+00	0	44	0	583008256	64	5488
2026-01-10 07:48:50.04	17.59	11.58	-46.2	-50.1	14.8	0.00e+00	0	44	0	585105408	64	5471
2026-01-10 07:48:51.19	17.39	11.53	-46.3	-50.2	14.6	7.00e-07	0	43	0	587202560	64	5580
2026-01-10 07:48:52.05	17.24	11.50	-46.3	-50.3	14.6	0.00e+00	0	43	0	588251136	64	5644
2026-01-10 07:48:53.34	17.02	11.45	-46.0	-50.1	14.7	0.00e+00	0	44	0	591396864	64	5498
2026-01-10 07:48:54.05	16.90	11.42	-46.1	-50.2	14.6	0.00e+00	0	44	0	592445440	64	5586
2026-01-10 07:48:55.34	16.68	11.37	-46.1	-50.4	14.4	0.00e+00	0	44	0	594542592	64	5707
2026-01-10 07:48:56.06	16.56	11.35	-46.1	-50.5	14.5	0.00e+00	0	43	0	596639744	63	6076
2026-01-10 07:48:57.62	16.30	11.29	-46.3	-50.9	14.0	2.20e-06	0	43	0	598736896	63	6375
2026-01-10 07:48:58.33	16.18	11.26	-46.1	-50.7	14.2	3.00e-06	0	44	0	600834048	63	6229
2026-01-10 07:48:59.62	15.96	11.21	-46.0	-50.5	14.4	7.00e-07	0	44	0	602931200	63	6085
2026-01-10 07:49:00.34	15.84	11.18	-46.0	-50.4	14.4	0.00e+00	0	44	0	603979776	63	6051
2026-01-10 07:49:01.63	15.62	11.13	-45.9	-50.2	14.7	0.00e+00	0	43	0	606076928	63	5864
2026-01-10 07:49:02.35	15.50	11.10	-45.7	-49.7	15.1	0.00e+00	0	44	0	608174080	63	5543
2026-01-10 07:49:03.63	15.29	11.05	-45.8	-49.7	15.1	0.00e+00	0	43	0	610271232	63	5555
2026-01-10 07:49:04.35	15.17	11.02	-45.8	-49.5	15.3	0.00e+00	0	44	0	611319808	63	5462
2026-01-10 07:49:05.64	14.96	10.97	-46.1	-49.7	15.1	0.00e+00	0	44	0	614465536	63	5577
2026-01-10 07:49:06.45	14.82	10.93	-46.5	-50.2	14.6	0.00e+00	0	44	0	615514112	63	5917
2026-01-10 07:49:07.59	14.63	10.89	-46.7	-50.6	14.2	0.00e+00	0	44	0	617611264	64	5795
2026-01-10 07:49:08.45	14.49	10.85	-46.9	-50.9	13.8	5.30e-06	0	44	0	619708416	64	6061
2026-01-10 07:49:09.60	14.30	10.81	-47.1	-51.3	13.4	1.60e-05	0	44	0	621805568	64	6332
2026-01-10 07:49:10.73	14.12	10.76	-47.3	-51.8	12.9	3.58e-05	0	43	0	623902720	65	6293
2026-01-10 07:49:11.59	13.98	10.72	-47.1	-51.6	13.2	4.88e-05	0	44	0	624951296	65	6154
2026-01-10 07:49:13.09	13.74	10.66	-47.0	-51.7	13.1	4.65e-05	0	43	0	628097024	65	6222
2026-01-10 07:49:13.80	13.62	10.63	-46.9	-51.4	13.3	1.67e-05	0	44	0	629145600	65	6028
2026-01-10 07:49:15.09	13.41	10.58	-46.7	-51.2	13.5	1.37e-05	0	44	0	632291328	65	5864
2026-01-10 07:49:15.81	13.30	10.55	-46.5	-50.9	13.8	5.30e-06	0	44	0	633339904	65	5665
2026-01-10 07:49:17.09	13.09	10.49	-46.4	-50.7	14.0	7.00e-07	0	44	0	635437056	64	5876
2026-01-10 07:49:17.81	12.98	10.46	-46.3	-50.6	14.1	3.80e-06	0	43	0	636485632	64	5827
2026-01-10 07:49:19.10	12.77	10.41	-46.1	-50.6	14.2	2.20e-06	0	43	0	639631360	64	5789
2026-01-10 07:49:19.91	12.64	10.38	-46.2	-51.0	13.8	1.50e-06	0	44	0	640679936	63	6424
2026-01-10 07:49:21.06	12.46	10.33	-46.2	-51.2	13.6	6.10e-06	0	43	0	642777088	63	6588
2026-01-10 07:49:22.15	12.29	10.28	-46.3	-51.9	12.9	2.67e-05	0	43	0	644874240	63	7151
2026-01-10 07:49:23.20	12.13	10.23	-46.4	-52.6	12.1	9.53e-05	0	44	0	646971392	63	7755
2026-01-10 07:49:24.27	11.96	10.19	-46.6	-53.3	11.4	7.73e-04	0	44	0	649068544	63	8437
2026-01-10 07:49:25.13	11.82	10.15	-46.7	-53.5	11.1	1.16e-03	0	44	0	651165696	64	8086
2026-01-10 07:49:26.60	11.59	10.09	-47.1	-54.3	10.2	4.34e-03	0	44	0	653262848	64	8945
2026-01-10 07:49:27.31	11.48	10.06	-47.3	-54.5	10.0	6.01e-03	0	44	0	654311424	65	8632
2026-01-10 07:49:28.60	11.28	10.00	-47.2	-53.9	10.7	5.28e-03	0	44	0	657457152	65	8013
2026-01-10 07:49:29.32	11.17	9.97	-47.1	-53.6	10.9	2.82e-03	0	43	0	658505728	65	7790
2026-01-10 07:49:30.61	10.97	9.91	-47.0	-53.5	11.0	1.55e-03	0	43	0	660602880	65	7650
2026-01-10 07:49:31.32	10.87	9.88	-46.8	-52.9	11.7	8.04e-04	0	44	0	662700032	65	7161
2026-01-10 07:49:32.61	10.67	9.82	-46.6	-52.9	11.7	6.20e-04	0	43	0	664797184	65	7164
2026-01-10 07:49:33.33	10.56	9.79	-46.6	-53.0	11.5	7.50e-04	0	44	0	665845760	65	7265
2026-01-10 07:49:34.62	10.36	9.74	-46.4	-52.9	11.7	6.93e-04	0	44	0	668991488	64	7547
2026-01-10 07:49:35.33	10.26	9.70	-46.5	-53.0	11.6	5.39e-04	0	44	0	670040064	64	7651
2026-01-10 07:49:36.63	10.06	9.65	-46.4	-52.6	11.9	3.12e-04	0	44	0	672137216	64	7338
2026-01-10 07:49:37.58	9.92	9.60	-46.3	-52.2	12.3	2.00e-04	0	44	0	674234368	64	7025
2026-01-10 07:49:38.59	9.76	9.56	-46.4	-52.1	12.5	2.15e-04	0	44	0	676331520	64	6901
2026-01-10 07:49:39.96	9.56	9.50	-46.5	-52.0	12.4	2.05e-04	0	43	0	678428672	64	6851
2026-01-10 07:49:40.67	9.45	9.47	-46.4	-51.8	12.6	8.77e-05	0	44	0	679477248	64	6698
2026-01-10 07:49:41.96	9.26	9.41	-46.4	-51.6	13.0	4.95e-05	0	43	0	682622976	64	6515
2026-01-10 07:49:42.68	9.16	9.37	-46.4	-51.6	12.9	5.18e-05	0	44	0	683671552	64	6570
2026-01-10 07:49:43.97	8.97	9.32	-46.4	-51.4	13.1	3.20e-05	0	44	0	685768704	64	6407
2026-01-10 07:49:44.68	8.86	9.28	-46.4	-51.4	13.1	2.89e-05	0	43	0	686817280	64	6375
2026-01-10 07:49:45.97	8.67	9.23	-46.5	-51.3	13.2	1.83e-05	0	44	0	689963008	64	6301
2026-01-10 07:49:46.68	8.57	9.19	-46.6	-51.4	13.1	3.05e-05	0	44	0	691011584	64	6361
2026-01-10 07:49:48.07	8.37	9.13	-46.7	-51.2	13.3	1.60e-05	0	44	0	694157312	64	6241
2026-01-10 07:49:49.06	8.22	9.08	-46.6	-51.0	13.5	1.75e-05	0	44	0	695205888	64	6078
2026-01-10 07:49:50.38	8.03	9.02	-46.6	-51.0	13.5	6.10e-06	0	44	0	698351616	64	6084
2026-01-10 07:49:51.10	7.93	8.99	-49.2	-61.3	4.9	3.55e-02	0	44	0	699400192	69	15024
2026-01-10 07:49:52.38	7.74	8.93	-49.1	-66.2	3.8	1.49e+00	0	44	104	699400192	70	24796
2026-01-10 07:49:53.20	7.63	8.89	-49.7	-66.3	3.8	1.49e+00	0	44	104	699400192	70	25121
2026-01-10 07:49:54.65	7.42	8.83	-50.8	-66.3	3.8	1.49e+00	0	44	104	699400192	72	22434
2026-01-10 07:49:55.36	7.32	8.79	-51.0	-66.4	3.8	1.49e+00	0	44	104	699400192	72	22576
2026-01-10 07:49:56.66	7.14	8.73	-51.0	-66.4	3.8	1.49e+00	0	44	104	699400192	72	22717
2026-01-10 07:49:57.37	7.03	8.70	-51.0	-66.5	3.8	1.49e+00	0	44	104	699400192	73	21523
2026-01-10 07:49:58.66	6.85	8.64	-51.3	-66.5	3.8	1.49e+00	0	44	104	699400192	73	21546
2026-01-10 07:49:59.38	6.75	8.61	-51.1	-66.5	3.8	1.49e+00	0	44	104	699400192	73	21614
2026-01-10 07:50:00.67	6.57	8.55	-50.8	-66.5	3.8	1.49e+00	0	44	104	699400192	73	21693
2026-01-10 07:50:01.39	6.47	8.51	-51.3	-66.5	3.8	1.49e+00	0	44	104	699400192	73	21719
2026-01-10 07:50:02.68	6.29	8.45	-51.2	-66.6	3.8	1.49e+00	0	44	104	699400192	73	21807
2026-01-10 07:50:03.40	6.19	8.42	-51.4	-66.6	3.8	1.49e+00	0	43	104	699400192	73	21799
2026-01-10 07:50:04.72	6.01	8.36	-51.2	-66.6	3.8	1.49e+00	0	43	104	699400192	73	21812
2026-01-10 07:50:05.44	5.91	8.32	-51.3	-66.5	3.8	1.49e+00	0	44	104	699400192	73	21747
2026-01-10 07:50:06.78	5.73	8.26	-51.3	-66.6	3.8	1.49e+00	0	43	104	699400192	73	21821
2026-01-10 07:50:07.49	5.63	8.22	-51.4	-66.6	3.8	1.49e+00	0	44	104	699400192	73	21762
2026-01-10 07:50:08.79	5.45	8.16	-51.0	-66.6	3.8	1.49e+00	0	43	104	699400192	73	21790
2026-01-10 07:50:09.50	5.36	8.13	-51.4	-66.5	3.8	1.49e+00	0	44	104	699400192	73	21651
2026-01-10 07:50:10.79	5.18	8.07	-51.4	-66.5	3.8	1.49e+00	0	44	104	699400192	73	21579
2026-01-10 07:50:11.51	5.09	8.03	-51.3	-66.5	3.8	1.49e+00	0	44	104	699400192	73	21655
2026-01-10 07:50:12.80	4.91	7.97	-51.4	-66.5	3.8	1.49e+00	0	43	104	699400192	73	21711
2026-01-10 07:50:13.52	4.82	7.94	-51.3	-66.5	3.8	1.49e+00	0	44	104	699400192	73	21741
2026-01-10 07:50:14.81	4.65	7.88	-51.3	-66.5	3.8	1.49e+00	0	44	104	699400192	73	21638
2026-01-10 07:50:15.53	4.55	7.84	-51.2	-66.5	3.8	1.49e+00	0	44	104	699400192	73	21628
2026-01-10 07:50:16.82	4.38	7.78	-51.2	-66.5	3.8	1.49e+00	0	43	104	699400192	73	21675
2026-01-10 07:50:17.54	4.28	7.75	-51.2	-66.5	3.8	1.49e+00	0	44	104	699400192	73	21660
2026-01-10 07:50:18.83	4.11	7.68	-51.2	-66.5	3.8	1.49e+00	0	44	104	699400192	73	21527
2026-01-10 07:50:19.54	4.02	7.65	-51.2	-66.4	3.8	1.49e+00	0	43	104	699400192	73	21480
2026-01-10 07:50:20.84	3.85	7.59	-51.1	-66.5	3.8	1.49e+00	0	44	104	699400192	73	21527
2026-01-10 07:50:21.55	3.76	7.55	-51.2	-66.5	3.8	1.49e+00	0	44	104	699400192	73	21517
2026-01-10 07:50:22.84	3.59	7.49	-51.2	-66.5	3.8	1.49e+00	0	43	104	699400192	73	21603
2026-01-10 07:50:23.56	3.50	7.46	-51.1	-66.4	3.8	1.49e+00	0	44	104	699400192	73	21478
2026-01-10 07:50:24.85	3.33	7.39	-51.1	-66.5	3.8	1.49e+00	0	44	104	699400192	73	21518
2026-01-10 07:50:25.57	3.24	7.36	-51.1	-66.4	3.8	1.49e+00	0	44	104	699400192	73	21467
2026-01-10 07:50:26.86	3.07	7.30	-51.2	-66.4	3.8	1.49e+00	0	44	104	699400192	73	21477
2026-01-10 07:50:27.58	2.98	7.26	-51.1	-66.5	3.8	1.49e+00	0	44	104	699400192	73	21535
2026-01-10 07:50:28.87	2.82	7.20	-51.2	-66.4	3.8	1.49e+00	0	44	104	699400192	73	21474
2026-01-10 07:50:29.59	2.73	7.17	-51.2	-66.4	3.8	1.49e+00	0	44	104	699400192	73	21475
2026-01-10 07:50:30.88	2.56	7.10	-51.2	-66.5	3.8	1.49e+00	0	44	104	699400192	73	21563
2026-01-10 07:50:31.59	2.48	7.07	-51.1	-66.4	3.8	1.49e+00	0	44	104	699400192	73	21442
2026-01-10 07:50:32.89	2.31	7.01	-51.1	-66.5	3.8	1.49e+00	0	43	104	699400192	73	21533
2026-01-10 07:50:33.60	2.22	6.97	-51.1	-66.4	3.8	1.49e+00	0	44	104	699400192	73	21506
2026-01-10 07:50:34.89	2.06	6.91	-51.1	-66.4	3.8	1.49e+00	0	44	104	699400192	73	21469
2026-01-10 07:50:35.61	1.97	6.87	-51.1	-66.5	3.8	1.49e+00	0	44	104	699400192	73	21544
2026-01-10 07:50:36.90	1.81	6.81	-51.1	-66.4	3.8	1.49e+00	0	44	104	699400192	73	21428
2026-01-10 07:50:37.62	1.73	6.78	-51.1	-66.4	3.8	1.49e+00	0	44	104	699400192	73	21438
2026-01-10 07:50:38.91	1.57	6.71	-51.1	-66.5	3.8	1.49e+00	0	44	104	699400192	73	21529
2026-01-10 07:50:39.63	1.48	6.68	-51.1	-66.4	3.8	1.49e+00	0	44	104	699400192	73	21447
2026-01-10 07:50:40.92	1.32	6.61	-51.1	-66.4	3.8	1.49e+00	0	44	104	699400192	73	21506
2026-01-10 07:50:41.64	1.23	6.58	-51.1	-66.5	3.8	1.49e+00	0	43	104	699400192	73	21564
2026-01-10 07:50:42.93	1.08	6.52	-51.1	-66.4	3.8	1.49e+00	0	44	104	699400192	73	21465
2026-01-10 07:50:43.65	0.99	6.48	-51.1	-66.5	3.8	1.49e+00	0	44	104	699400192	73	21575
2026-01-10 07:50:44.94	0.84	6.42	-51.1	-66.5	3.8	1.49e+00	0	44	104	699400192	73	21560
2026-01-10 07:50:45.66	0.75	6.38	-51.1	-66.4	3.8	1.49e+00	0	44	104	699400192	73	21417
2026-01-10 07:50:46.95	0.60	6.32	-51.1	-66.5	3.8	1.49e+00	0	44	104	699400192	73	21511
2026-01-10 07:50:47.67	0.51	6.28	-51.1	-66.4	3.8	1.49e+00	0	43	104	699400192	73	21465
2026-01-10 07:50:48.96	0.36	6.22	-51.1	-66.4	3.8	1.49e+00	0	44	104	699400192	73	21491
2026-01-10 07:50:49.67	0.27	6.19	-51.2	-66.4	3.8	1.49e+00	0	44	104	699400192	73	21468
2026-01-10 07:50:50.97	0.12	6.12	-51.1	-66.4	3.8	1.49e+00	0	44	104	699400192	73	21501
2026-01-10 07:50:51.68	0.04	6.09	-51.2	-66.4	3.8	1.49e+00	0	44	104	699400192	73	21449
2026-01-10 07:50:52.97	359.89	6.02	-51.1	-66.5	3.8	1.49e+00	0	44	104	699400192	73	21565
2026-01-10 07:50:53.69	359.80	5.99	-51.1	-66.4	3.8	1.49e+00	0	44	104	699400192	73	21498
2026-01-10 07:50:54.98	359.65	5.92	-51.1	-66.5	3.8	1.49e+00	0	44	104	699400192	73	21638
2026-01-10 07:50:55.70	359.57	5.89	-51.1	-66.5	3.8	1.49e+00	0	44	104	699400192	73	21532
2026-01-10 07:50:56.99	359.42	5.83	-51.2	-66.5	3.8	1.49e+00	0	44	104	699400192	73	21555
2026-01-10 07:50:57.71	359.34	5.79	-51.1	-66.4	3.8	1.49e+00	0	43	104	699400192	73	21500
2026-01-10 07:50:59.00	359.19	5.73	-51.1	-66.5	3.8	1.49e+00	0	44	104	699400192	73	21510
2026-01-10 07:50:59.72	359.11	5.69	-51.2	-66.4	3.8	1.49e+00	0	44	104	699400192	73	21503
2026-01-10 07:51:01.01	358.96	5.63	-51.2	-66.4	3.8	1.49e+00	0	44	104	699400192	73	21487
2026-01-10 07:51:01.73	358.88	5.59	-51.2	-66.5	3.8	1.49e+00	0	44	104	699400192	73	21583
2026-01-10 07:51:03.02	358.73	5.53	-51.2	-66.4	3.8	1.49e+00	0	44	104	699400192	73	21485
2026-01-10 07:51:03.74	358.65	5.49	-51.2	-66.5	3.8	1.49e+00	0	44	104	699400192	73	21537
2026-01-10 07:51:05.03	358.51	5.43	-51.2	-66.5	3.8	1.49e+00	0	44	104	699400192	73	21515
2026-01-10 07:51:05.74	358.43	5.39	-51.2	-66.5	3.8	1.49e+00	0	44	104	699400192	73	21537
2026-01-10 07:51:07.04	358.28	5.33	-51.2	-66.5	3.8	1.49e+00	0	44	104	699400192	73	21522
2026-01-10 07:51:07.75	358.20	5.30	-51.2	-66.5	3.8	1.49e+00	0	44	104	699400192	73	21579
2026-01-10 07:51:09.05	358.06	5.23	-51.2	-66.5	3.8	1.49e+00	0	44	104	699400192	73	21666
2026-01-10 07:51:09.76	357.98	5.20	-51.2	-66.5	3.8	1.49e+00	0	44	104	699400192	73	21656
2026-01-10 07:51:11.05	357.84	5.13	-51.2	-66.5	3.8	1.49e+00	0	44	104	699400192	73	21554
2026-01-10 07:51:11.77	357.76	5.10	-51.2	-66.5	3.8	1.49e+00	0	44	104	699400192	73	21532
2026-01-10 07:51:13.06	357.62	5.03	-51.2	-66.5	3.8	1.49e+00	0	44	104	699400192	73	21540
2026-01-10 07:51:13.78	357.54	5.00	-51.2	-66.5	3.8	1.49e+00	0	44	104	699400192	73	21595

#Closed at: 2026-01-10 07:51:15
#Recorded file [699 MB]: D:/Data/31040_260110_104218.dat