passes_logs/2026/01/10/T1/T1__20260110_224026_NOAA_21_JPSS-2_rec.log

#Pass ID: 20260110_224026_NOAA 21 (JPSS-2)
#Satellite: NOAA 21 (JPSS-2)
#Configuration: NOAA 21
#almurnet v.1.7.20251203
#Start time: 2026-01-10 22:40:28

#Version: 2.0.20230620
#Station: T1
#Location: 37.570604 lon 55.790049 lat
#TLE: 1 54234U 22150A   26009.79679979  .00000100  00000+0  68070-4 0  9993
#TLE: 2 54234  98.7494 310.7596 0000833 322.2782  37.8335 14.19533646164071

#Time	Az	El	Level	Level2	SNR	BER	BlckErr	Temp	State	Recorded	gain1	gain2
2026-01-10 22:40:28.13	24.28	5.09	-49.8	-63.2	3.8	1.49e+00	0	37	0	0	71	16538
2026-01-10 22:40:29.13	24.34	5.16	-49.8	-63.2	3.8	1.49e+00	0	37	104	0	70	17550
2026-01-10 22:40:30.13	24.40	5.22	-49.8	-63.1	3.8	1.49e+00	0	37	104	0	70	17447
2026-01-10 22:40:31.14	24.46	5.29	-49.8	-63.2	3.8	1.49e+00	0	37	104	0	70	17644
2026-01-10 22:40:32.14	24.52	5.35	-49.8	-63.2	3.8	1.49e+00	0	37	104	0	70	17638
2026-01-10 22:40:33.14	24.58	5.42	-49.8	-63.2	3.8	1.49e+00	0	37	104	0	70	17587
2026-01-10 22:40:34.15	24.64	5.49	-49.8	-63.2	3.8	1.49e+00	0	37	104	0	70	17504
2026-01-10 22:40:35.15	24.70	5.55	-49.8	-63.2	3.8	1.49e+00	0	37	104	0	70	17483
2026-01-10 22:40:36.16	24.76	5.62	-49.8	-63.2	3.8	1.49e+00	0	37	104	0	70	17508
2026-01-10 22:40:37.16	24.83	5.69	-49.8	-63.2	3.8	1.49e+00	0	38	104	0	70	17501
2026-01-10 22:40:38.17	24.89	5.76	-49.8	-63.2	3.8	1.49e+00	0	38	104	0	70	17502
2026-01-10 22:40:39.17	24.95	5.82	-49.8	-63.1	3.8	1.49e+00	0	37	104	0	70	17433
2026-01-10 22:40:40.17	25.01	5.89	-49.8	-63.1	3.8	1.49e+00	0	38	104	0	70	17475
2026-01-10 22:40:41.18	25.08	5.96	-49.8	-63.1	3.8	1.49e+00	0	38	104	0	70	17476
2026-01-10 22:40:42.18	25.14	6.02	-49.8	-63.1	3.8	1.49e+00	0	38	104	0	70	17467
2026-01-10 22:40:43.19	25.20	6.09	-49.8	-63.2	3.8	1.49e+00	0	38	104	0	70	17545
2026-01-10 22:40:44.19	25.27	6.16	-49.8	-63.2	3.8	1.49e+00	0	38	104	0	70	17565
2026-01-10 22:40:45.20	25.33	6.23	-49.8	-63.2	3.8	1.49e+00	0	38	104	0	70	17539
2026-01-10 22:40:46.20	25.40	6.30	-49.8	-63.2	3.8	1.49e+00	0	38	104	0	70	17548
2026-01-10 22:40:47.20	25.46	6.37	-49.8	-63.2	3.8	1.49e+00	0	38	104	0	70	17539
2026-01-10 22:40:48.21	25.53	6.43	-49.8	-63.2	3.8	1.49e+00	0	38	104	0	70	17570
2026-01-10 22:40:49.21	25.59	6.50	-49.8	-63.2	3.8	1.49e+00	0	38	104	0	70	17583
2026-01-10 22:40:50.22	25.66	6.57	-49.8	-63.2	3.8	1.49e+00	0	38	104	0	70	17515
2026-01-10 22:40:51.22	25.72	6.64	-49.8	-63.2	3.8	1.49e+00	0	38	104	0	70	17573
2026-01-10 22:40:52.23	25.79	6.71	-49.8	-63.2	3.8	1.49e+00	0	38	104	0	70	17499
2026-01-10 22:40:53.23	25.86	6.78	-49.8	-63.2	3.8	1.49e+00	0	38	104	0	70	17490
2026-01-10 22:40:54.24	25.92	6.85	-49.8	-63.1	3.8	1.49e+00	0	38	104	0	70	17474
2026-01-10 22:40:55.24	25.99	6.92	-49.8	-63.1	3.8	1.49e+00	0	38	104	0	70	17432
2026-01-10 22:40:56.24	26.06	6.99	-49.8	-63.1	3.8	1.49e+00	0	38	104	0	70	17423
2026-01-10 22:40:57.25	26.13	7.06	-49.8	-63.1	3.8	1.49e+00	0	38	104	0	70	17470
2026-01-10 22:40:58.25	26.19	7.13	-49.8	-63.2	3.8	1.49e+00	0	38	104	0	70	17525
2026-01-10 22:40:59.26	26.26	7.20	-49.8	-63.2	3.8	1.49e+00	0	38	104	0	70	17565
2026-01-10 22:41:00.26	26.33	7.27	-49.8	-63.2	3.8	1.49e+00	0	38	104	0	70	17538
2026-01-10 22:41:01.27	26.40	7.34	-49.8	-63.1	3.8	1.49e+00	0	38	104	0	70	17434
2026-01-10 22:41:02.27	26.47	7.41	-49.8	-63.1	3.8	1.49e+00	0	38	104	0	70	17303
2026-01-10 22:41:03.28	26.54	7.48	-49.8	-63.0	3.8	1.49e+00	0	38	104	0	70	17108
2026-01-10 22:41:04.28	26.61	7.55	-49.8	-62.9	3.8	1.49e+00	0	38	104	0	70	16891
2026-01-10 22:41:05.28	26.68	7.62	-49.8	-62.7	3.8	1.49e+00	0	38	104	0	70	16660
2026-01-10 22:41:06.29	26.75	7.70	-49.8	-62.7	3.8	1.49e+00	0	38	104	0	70	16694
2026-01-10 22:41:07.29	26.82	7.77	-49.8	-62.7	3.8	1.49e+00	0	38	104	0	70	16671
2026-01-10 22:41:08.30	26.89	7.84	-49.8	-62.8	3.8	1.49e+00	0	39	104	0	70	16753
2026-01-10 22:41:09.30	26.96	7.91	-49.8	-62.9	3.8	1.49e+00	0	39	104	0	70	16993
2026-01-10 22:41:10.31	27.04	7.98	-49.8	-62.8	3.8	1.49e+00	0	39	104	0	70	16861
2026-01-10 22:41:11.31	27.11	8.06	-49.8	-62.7	3.8	1.49e+00	0	39	104	0	70	16530
2026-01-10 22:41:12.31	27.18	8.13	-49.8	-62.5	3.8	1.49e+00	0	39	104	0	70	16172
2026-01-10 22:41:13.32	27.25	8.20	-49.7	-62.2	3.8	1.49e+00	0	39	104	0	70	15681
2026-01-10 22:41:14.32	27.33	8.27	-49.7	-62.1	3.8	1.49e+00	0	39	104	0	70	15453
2026-01-10 22:41:15.33	27.40	8.35	-49.7	-62.0	3.8	1.49e+00	0	39	104	0	70	15273
2026-01-10 22:41:16.33	27.47	8.42	-49.7	-62.1	3.8	1.49e+00	0	39	104	0	70	15412
2026-01-10 22:41:17.33	27.55	8.49	-49.7	-62.2	3.8	1.49e+00	0	39	104	0	70	15620
2026-01-10 22:41:18.34	27.62	8.57	-49.7	-62.2	3.8	1.49e+00	0	39	104	0	70	15662
2026-01-10 22:41:19.35	27.70	8.64	-49.7	-61.9	3.8	1.49e+00	0	39	104	0	70	15116
2026-01-10 22:41:20.35	27.77	8.72	-49.6	-61.4	3.9	1.49e+00	0	39	104	0	70	14289
2026-01-10 22:41:21.35	27.85	8.79	-49.6	-60.2	4.1	1.48e+00	0	39	104	0	70	12489
2026-01-10 22:41:22.36	27.93	8.86	-49.4	-59.2	4.3	1.46e+00	0	39	104	0	70	11131
2026-01-10 22:41:23.36	28.00	8.94	-49.3	-59.1	4.0	1.34e+00	0	39	104	0	70	10988
2026-01-10 22:41:24.37	28.08	9.01	-49.2	-57.6	5.0	1.11e+00	0	39	0	0	70	9271
2026-01-10 22:41:25.37	28.16	9.09	-49.2	-57.7	5.0	6.50e-01	0	39	0	0	70	9294
2026-01-10 22:41:26.37	28.23	9.16	-49.6	-61.0	3.9	1.36e+00	0	39	104	0	70	13691
2026-01-10 22:41:27.38	28.31	9.24	-49.8	-63.1	3.8	1.49e+00	0	39	104	0	70	17421
2026-01-10 22:41:28.38	28.39	9.31	-46.2	-50.0	12.0	1.07e-04	0	39	0	0	63	5760
2026-01-10 22:41:29.38	28.47	9.39	-46.4	-50.5	11.2	2.81e-02	0	39	0	0	65	5448
2026-01-10 22:41:30.39	28.55	9.47	-44.9	-47.8	14.1	7.00e-07	0	39	0	0	61	5030
2026-01-10 22:41:31.39	28.63	9.54	-44.9	-47.9	14.0	7.00e-07	0	39	0	0	61	5074
2026-01-10 22:41:32.39	28.71	9.62	-44.4	-47.2	14.8	0.00e+00	0	39	0	0	60	4954
2026-01-10 22:41:33.40	28.79	9.69	-44.6	-47.4	14.6	0.00e+00	0	39	0	0	60	5066
2026-01-10 22:41:34.40	28.87	9.77	-44.5	-47.4	14.6	0.00e+00	0	39	0	0	60	5048
2026-01-10 22:41:35.40	28.95	9.85	-44.5	-47.3	14.6	7.00e-07	0	39	0	0	60	5037
2026-01-10 22:41:36.41	29.03	9.92	-44.2	-46.8	15.1	0.00e+00	0	39	0	0	60	4750
2026-01-10 22:41:37.41	29.11	10.00	-44.1	-46.8	15.2	0.00e+00	0	39	0	0	60	4720
2026-01-10 22:41:38.41	29.19	10.08	-44.0	-46.5	15.4	0.00e+00	0	39	0	0	59	4855
2026-01-10 22:41:39.42	29.28	10.16	-43.9	-46.4	15.5	0.00e+00	0	39	0	0	59	4798
2026-01-10 22:41:40.42	29.36	10.23	-43.8	-46.2	15.8	0.00e+00	0	39	0	0	59	4684
2026-01-10 22:41:41.42	29.44	10.31	-43.8	-46.2	15.8	0.00e+00	0	39	0	0	59	4678
2026-01-10 22:41:42.43	29.53	10.39	-43.5	-45.9	16.1	0.00e+00	0	39	0	0	59	4501
2026-01-10 22:41:43.43	29.61	10.47	-43.5	-45.9	16.1	0.00e+00	0	39	0	0	58	4766
2026-01-10 22:41:44.44	29.70	10.55	-43.4	-45.7	16.3	0.00e+00	0	39	0	0	58	4686
2026-01-10 22:41:45.44	29.78	10.62	-43.4	-45.7	16.3	0.00e+00	0	39	0	0	58	4664
2026-01-10 22:41:46.45	29.87	10.70	-43.4	-45.6	16.4	0.00e+00	0	39	0	0	58	4648
2026-01-10 22:41:47.45	29.95	10.78	-43.5	-45.8	16.2	0.00e+00	0	39	0	0	58	4715
2026-01-10 22:41:48.46	30.04	10.86	-43.5	-45.8	16.2	0.00e+00	0	39	0	0	58	4756
2026-01-10 22:41:49.46	30.13	10.94	-43.4	-45.7	16.4	0.00e+00	0	39	0	0	58	4652
2026-01-10 22:41:50.46	30.21	11.02	-43.4	-45.6	16.4	0.00e+00	0	39	0	0	58	4647
2026-01-10 22:41:51.46	30.30	11.10	-43.4	-45.6	16.4	0.00e+00	0	39	0	0	58	4621
2026-01-10 22:41:52.47	30.39	11.18	-43.3	-45.5	16.5	0.00e+00	0	39	0	0	58	4595
2026-01-10 22:41:53.47	30.48	11.26	-43.4	-45.6	16.4	0.00e+00	0	39	0	0	58	4631
2026-01-10 22:41:54.47	30.57	11.34	-43.4	-45.6	16.4	0.00e+00	0	39	0	0	58	4647
2026-01-10 22:41:55.48	30.66	11.42	-43.2	-45.5	16.5	0.00e+00	0	39	0	0	58	4557
2026-01-10 22:41:56.48	30.75	11.50	-43.4	-45.6	16.4	0.00e+00	0	39	0	0	58	4624
2026-01-10 22:41:57.48	30.84	11.58	-43.4	-45.6	16.5	0.00e+00	0	39	0	0	58	4601
2026-01-10 22:41:58.49	30.93	11.66	-43.4	-45.6	16.4	0.00e+00	0	39	0	0	58	4635
2026-01-10 22:41:59.49	31.02	11.75	-43.3	-45.5	16.5	0.00e+00	0	40	0	0	58	4572
2026-01-10 22:42:00.50	31.11	11.83	-43.2	-45.4	16.7	0.00e+00	0	39	0	0	58	4505
2026-01-10 22:42:01.50	31.21	11.91	-43.3	-45.4	16.6	0.00e+00	0	39	0	0	58	4532
2026-01-10 22:42:02.50	31.30	11.99	-43.2	-45.3	16.7	0.00e+00	0	39	0	0	58	4476
2026-01-10 22:42:03.51	31.39	12.07	-43.3	-45.5	16.5	0.00e+00	0	39	0	0	58	4555
2026-01-10 22:42:04.51	31.49	12.16	-43.5	-45.7	16.4	0.00e+00	0	39	0	0	58	4680
2026-01-10 22:42:05.51	31.58	12.24	-43.2	-45.4	16.7	0.00e+00	0	39	0	0	58	4494
2026-01-10 22:42:06.51	31.68	12.32	-43.1	-45.3	16.8	0.00e+00	0	39	0	0	58	4447
2026-01-10 22:42:07.52	31.77	12.41	-43.3	-45.5	16.6	0.00e+00	0	40	0	0	58	4559
2026-01-10 22:42:08.52	31.87	12.49	-43.0	-45.1	16.9	0.00e+00	0	39	0	0	57	4643
2026-01-10 22:42:09.53	31.97	12.57	-43.1	-45.3	16.8	0.00e+00	0	39	0	0	57	4717
2026-01-10 22:42:10.53	32.06	12.66	-43.0	-45.2	16.8	0.00e+00	0	39	0	0	57	4674
2026-01-10 22:42:11.53	32.16	12.74	-43.0	-45.3	16.8	0.00e+00	0	39	0	0	57	4708
2026-01-10 22:42:12.54	32.26	12.82	-42.9	-45.0	17.0	0.00e+00	0	40	0	0	57	4584
2026-01-10 22:42:13.54	32.36	12.91	-42.9	-45.1	16.9	0.00e+00	0	40	0	0	57	4629
2026-01-10 22:42:14.55	32.46	12.99	-42.9	-45.0	17.1	0.00e+00	0	39	0	0	57	4566
2026-01-10 22:42:15.55	32.56	13.08	-42.8	-45.0	17.1	0.00e+00	0	39	0	0	57	4550
2026-01-10 22:42:16.55	32.66	13.16	-42.9	-45.1	17.0	0.00e+00	0	40	0	0	57	4608
2026-01-10 22:42:17.55	32.76	13.25	-42.9	-45.0	17.0	0.00e+00	0	40	0	0	57	4597
2026-01-10 22:42:18.56	32.86	13.33	-42.9	-45.0	17.0	0.00e+00	0	39	0	0	57	4590
2026-01-10 22:42:19.56	32.96	13.42	-43.0	-45.1	17.0	0.00e+00	0	40	0	0	57	4637
2026-01-10 22:42:20.56	33.06	13.51	-43.1	-45.3	16.9	0.00e+00	0	40	0	0	57	4709
2026-01-10 22:42:21.57	33.17	13.59	-43.0	-45.2	17.0	0.00e+00	0	40	0	0	57	4654
2026-01-10 22:42:22.57	33.27	13.68	-43.1	-45.2	16.9	0.00e+00	0	40	0	0	57	4702
2026-01-10 22:42:23.58	33.37	13.77	-43.1	-45.2	16.9	0.00e+00	0	39	0	0	57	4690
2026-01-10 22:42:24.58	33.48	13.85	-43.2	-45.4	16.7	0.00e+00	0	39	0	0	57	4791
2026-01-10 22:42:25.58	33.58	13.94	-43.0	-45.1	17.1	0.00e+00	0	40	0	0	57	4600
2026-01-10 22:42:26.59	33.69	14.03	-43.0	-45.2	16.9	0.00e+00	0	40	0	0	57	4656
2026-01-10 22:42:27.59	33.80	14.12	-43.0	-45.1	17.0	0.00e+00	0	40	0	0	57	4646
2026-01-10 22:42:28.59	33.90	14.20	-43.0	-45.2	17.0	0.00e+00	0	39	0	0	57	4660
2026-01-10 22:42:29.60	34.01	14.29	-42.9	-45.1	17.0	0.00e+00	0	40	0	0	57	4602
2026-01-10 22:42:30.60	34.12	14.38	-42.9	-45.0	17.2	0.00e+00	0	39	0	0	57	4555
2026-01-10 22:42:31.60	34.23	14.47	-42.9	-45.0	17.1	0.00e+00	0	40	0	0	57	4573
2026-01-10 22:42:32.61	34.34	14.56	-42.9	-45.0	17.2	0.00e+00	0	40	0	0	57	4572
2026-01-10 22:42:33.61	34.45	14.65	-42.8	-44.9	17.3	0.00e+00	0	40	0	0	57	4499
2026-01-10 22:42:34.62	34.56	14.74	-42.9	-45.0	17.2	0.00e+00	0	40	0	0	57	4566
2026-01-10 22:42:35.62	34.67	14.82	-42.9	-45.1	17.1	0.00e+00	0	40	0	0	57	4617
2026-01-10 22:42:36.62	34.79	14.91	-42.9	-45.1	17.1	0.00e+00	0	39	0	0	57	4611
2026-01-10 22:42:37.63	34.90	15.00	-43.0	-45.1	17.1	0.00e+00	0	40	0	0	57	4637
2026-01-10 22:42:38.63	35.01	15.09	-43.0	-45.2	17.1	0.00e+00	0	40	0	0	57	4666
2026-01-10 22:42:39.63	35.13	15.18	-43.2	-45.4	16.9	0.00e+00	0	40	0	0	57	4763
2026-01-10 22:42:40.64	35.24	15.28	-43.1	-45.3	16.9	0.00e+00	0	40	0	0	57	4750
2026-01-10 22:42:41.64	35.36	15.37	-43.3	-45.5	16.7	0.00e+00	0	40	0	0	57	4858
2026-01-10 22:42:42.64	35.47	15.46	-43.1	-45.2	17.0	0.00e+00	0	40	0	0	57	4686
2026-01-10 22:42:43.65	35.59	15.55	-42.9	-45.0	17.2	0.00e+00	0	40	0	0	57	4596
2026-01-10 22:42:44.65	35.71	15.64	-42.9	-45.0	17.2	0.00e+00	0	40	0	0	57	4570
2026-01-10 22:42:45.65	35.83	15.73	-43.0	-45.1	17.2	0.00e+00	0	40	0	0	57	4616
2026-01-10 22:42:46.66	35.95	15.82	-42.9	-45.0	17.2	0.00e+00	0	40	0	0	57	4591
2026-01-10 22:42:47.66	36.07	15.92	-43.0	-45.1	17.2	0.00e+00	0	40	0	0	57	4606
2026-01-10 22:42:48.67	36.19	16.01	-42.9	-45.0	17.3	0.00e+00	0	40	0	0	57	4575
2026-01-10 22:42:49.67	36.31	16.10	-43.1	-45.2	17.0	0.00e+00	0	40	0	0	57	4705
2026-01-10 22:42:50.67	36.43	16.19	-42.9	-45.0	17.2	0.00e+00	0	40	0	0	57	4572
2026-01-10 22:42:51.68	36.55	16.29	-43.0	-45.2	17.1	0.00e+00	0	40	0	0	57	4657
2026-01-10 22:42:52.68	36.68	16.38	-43.0	-45.1	17.2	0.00e+00	0	40	0	0	57	4607
2026-01-10 22:42:53.68	36.80	16.48	-43.0	-45.1	17.2	0.00e+00	0	40	0	0	57	4614
2026-01-10 22:42:54.68	36.92	16.57	-42.8	-44.9	17.4	0.00e+00	0	40	0	0	57	4507
2026-01-10 22:42:55.69	37.05	16.66	-42.8	-44.8	17.4	0.00e+00	0	40	0	0	57	4492
2026-01-10 22:42:56.69	37.18	16.76	-42.8	-44.9	17.4	0.00e+00	0	40	0	0	57	4505
2026-01-10 22:42:57.69	37.30	16.85	-42.9	-45.0	17.3	0.00e+00	0	40	0	0	57	4550
2026-01-10 22:42:58.70	37.43	16.95	-42.8	-44.8	17.4	0.00e+00	0	40	0	0	57	4480
2026-01-10 22:42:59.70	37.56	17.04	-42.8	-44.8	17.4	0.00e+00	0	40	0	0	57	4469
2026-01-10 22:43:00.70	37.69	17.14	-42.9	-45.0	17.3	0.00e+00	0	40	0	0	57	4551
2026-01-10 22:43:01.71	37.82	17.23	-42.9	-44.9	17.4	0.00e+00	0	40	0	0	57	4514
2026-01-10 22:43:02.71	37.95	17.33	-42.7	-44.8	17.5	0.00e+00	0	40	0	0	57	4449
2026-01-10 22:43:03.71	38.08	17.43	-42.9	-45.0	17.3	0.00e+00	0	40	0	0	57	4563
2026-01-10 22:43:04.71	38.22	17.52	-42.8	-44.9	17.4	0.00e+00	0	40	0	0	57	4517
2026-01-10 22:43:05.72	38.35	17.62	-42.8	-44.8	17.4	0.00e+00	0	40	0	0	57	4492
2026-01-10 22:43:06.72	38.48	17.71	-42.8	-44.9	17.4	0.00e+00	0	40	0	0	57	4519
2026-01-10 22:43:07.73	38.62	17.81	-42.8	-44.9	17.4	0.00e+00	0	40	0	0	57	4499
2026-01-10 22:43:08.73	38.76	17.91	-42.8	-44.9	17.4	0.00e+00	0	40	0	0	57	4516
2026-01-10 22:43:09.73	38.89	18.01	-42.8	-44.8	17.5	0.00e+00	0	40	0	0	57	4489
2026-01-10 22:43:10.74	39.03	18.11	-42.8	-44.8	17.5	0.00e+00	0	40	0	0	57	4456
2026-01-10 22:43:11.74	39.17	18.20	-42.8	-44.8	17.5	0.00e+00	0	40	0	0	57	4478
2026-01-10 22:43:12.74	39.31	18.30	-42.7	-44.7	17.6	0.00e+00	0	40	0	0	57	4422
2026-01-10 22:43:13.74	39.45	18.40	-42.8	-44.8	17.5	0.00e+00	0	40	0	0	57	4476
2026-01-10 22:43:14.75	39.59	18.50	-42.8	-44.8	17.5	0.00e+00	0	40	0	0	57	4478
2026-01-10 22:43:15.75	39.73	18.60	-42.8	-44.7	17.6	0.00e+00	0	40	0	0	57	4439
2026-01-10 22:43:16.76	39.88	18.70	-42.8	-44.8	17.6	0.00e+00	0	40	0	0	57	4464
2026-01-10 22:43:17.76	40.02	18.80	-42.7	-44.8	17.6	0.00e+00	0	40	0	0	57	4444
2026-01-10 22:43:18.77	40.17	18.90	-42.8	-44.8	17.6	0.00e+00	0	40	0	0	57	4471
2026-01-10 22:43:19.77	40.31	19.00	-42.7	-44.8	17.6	0.00e+00	0	40	0	0	57	4449
2026-01-10 22:43:20.77	40.46	19.09	-42.8	-44.8	17.5	0.00e+00	0	40	0	0	57	4485
2026-01-10 22:43:21.77	40.60	19.19	-42.8	-44.8	17.5	0.00e+00	0	40	0	0	57	4486
2026-01-10 22:43:22.78	40.75	19.30	-42.8	-44.8	17.5	0.00e+00	0	40	0	0	57	4486
2026-01-10 22:43:23.78	40.90	19.40	-42.7	-44.7	17.6	0.00e+00	0	40	0	0	57	4441
2026-01-10 22:43:24.78	41.05	19.50	-42.8	-44.8	17.6	0.00e+00	0	40	0	0	57	4442
2026-01-10 22:43:25.78	41.20	19.60	-42.7	-44.7	17.7	0.00e+00	0	40	0	0	57	4395
2026-01-10 22:43:26.78	41.36	19.70	-42.7	-44.7	17.6	0.00e+00	0	40	0	0	57	4412
2026-01-10 22:43:27.79	41.51	19.80	-42.5	-44.4	17.9	0.00e+00	0	40	0	0	57	4280
2026-01-10 22:43:28.79	41.66	19.90	-42.5	-44.5	17.8	0.00e+00	0	40	0	0	56	4550
2026-01-10 22:43:29.79	41.82	20.00	-42.5	-44.4	17.9	0.00e+00	0	40	0	0	56	4511
2026-01-10 22:43:30.80	41.98	20.11	-42.4	-44.3	18.0	0.00e+00	0	40	0	0	56	4486
2026-01-10 22:43:31.80	42.13	20.21	-42.4	-44.3	18.0	0.00e+00	0	40	0	0	56	4477
2026-01-10 22:43:32.80	42.29	20.31	-42.4	-44.3	18.0	0.00e+00	0	40	0	0	56	4448
2026-01-10 22:43:33.80	42.45	20.41	-42.4	-44.3	18.0	0.00e+00	0	40	0	0	56	4484
2026-01-10 22:43:34.81	42.61	20.52	-42.4	-44.3	18.1	0.00e+00	0	40	0	0	56	4454
2026-01-10 22:43:35.81	42.77	20.62	-42.4	-44.3	18.0	0.00e+00	0	40	0	0	56	4459
2026-01-10 22:43:36.82	42.94	20.73	-42.2	-44.1	18.2	0.00e+00	0	40	0	0	56	4377
2026-01-10 22:43:37.82	43.10	20.83	-42.2	-44.1	18.2	0.00e+00	0	40	0	0	56	4372
2026-01-10 22:43:38.82	43.27	20.93	-42.2	-44.1	18.3	0.00e+00	0	40	0	0	56	4346
2026-01-10 22:43:39.83	43.43	21.04	-42.2	-44.1	18.2	0.00e+00	0	40	0	0	56	4376
2026-01-10 22:43:40.83	43.60	21.14	-42.3	-44.2	18.1	0.00e+00	0	40	0	0	56	4419
2026-01-10 22:43:41.84	43.77	21.25	-42.2	-44.0	18.3	0.00e+00	0	40	0	0	56	4336
2026-01-10 22:43:42.84	43.94	21.35	-42.1	-43.9	18.4	0.00e+00	0	40	0	0	56	4279
2026-01-10 22:43:43.84	44.11	21.46	-41.8	-43.6	18.5	0.00e+00	0	40	0	0	55	4389
2026-01-10 22:43:44.85	44.28	21.56	-41.8	-43.7	18.5	0.00e+00	0	40	0	0	55	4400
2026-01-10 22:43:45.85	44.45	21.67	-41.8	-43.6	18.5	0.00e+00	0	40	0	0	55	4387
2026-01-10 22:43:46.86	44.63	21.77	-41.8	-43.6	18.6	0.00e+00	0	40	0	0	55	4378
2026-01-10 22:43:47.86	44.80	21.88	-41.6	-43.4	18.8	0.00e+00	0	40	0	0	55	4251
2026-01-10 22:43:48.86	44.98	21.98	-41.7	-43.6	18.6	0.00e+00	0	40	0	0	55	4346
2026-01-10 22:43:49.87	45.15	22.09	-41.8	-43.6	18.6	0.00e+00	0	40	0	0	55	4365
2026-01-10 22:43:50.87	45.33	22.20	-41.7	-43.5	18.7	0.00e+00	0	40	0	0	55	4335
2026-01-10 22:43:51.87	45.51	22.30	-41.6	-43.5	18.5	0.00e+00	0	40	0	0	55	4305
2026-01-10 22:43:52.88	45.69	22.41	-41.7	-43.6	18.6	0.00e+00	0	40	0	0	55	4359
2026-01-10 22:43:53.88	45.88	22.51	-41.6	-43.4	18.7	0.00e+00	0	40	0	0	55	4288
2026-01-10 22:43:54.88	46.06	22.62	-41.6	-43.5	18.6	0.00e+00	0	40	0	0	55	4293
2026-01-10 22:43:55.88	46.24	22.73	-41.6	-43.5	18.6	0.00e+00	0	40	0	0	55	4295
2026-01-10 22:43:56.89	46.43	22.84	-41.5	-43.3	18.8	0.00e+00	0	40	0	0	54	4465
2026-01-10 22:43:57.89	46.62	22.94	-41.5	-43.3	18.8	0.00e+00	0	40	0	0	54	4481
2026-01-10 22:43:58.89	46.80	23.05	-41.6	-43.4	18.7	0.00e+00	0	40	0	0	54	4511
2026-01-10 22:43:59.89	46.99	23.16	-41.6	-43.4	18.7	0.00e+00	0	40	0	0	54	4505
2026-01-10 22:44:00.90	47.18	23.27	-41.7	-43.5	18.6	0.00e+00	0	40	0	0	54	4584
2026-01-10 22:44:01.90	47.38	23.37	-41.8	-43.6	18.6	0.00e+00	0	40	0	0	54	4625
2026-01-10 22:44:02.90	47.57	23.48	-41.7	-43.6	18.6	0.00e+00	0	40	0	0	54	4599
2026-01-10 22:44:03.90	47.76	23.59	-41.8	-43.6	18.5	0.00e+00	0	40	0	0	54	4640
2026-01-10 22:44:04.91	47.96	23.70	-41.7	-43.5	18.6	0.00e+00	0	40	0	0	54	4571
2026-01-10 22:44:05.91	48.16	23.80	-41.7	-43.5	18.6	0.00e+00	0	40	0	0	54	4570
2026-01-10 22:44:06.91	48.35	23.91	-41.6	-43.4	18.7	0.00e+00	0	40	0	0	54	4528
2026-01-10 22:44:07.92	48.56	24.02	-41.5	-43.3	18.7	0.00e+00	0	40	0	0	54	4491
2026-01-10 22:44:08.92	48.76	24.13	-41.6	-43.4	18.6	0.00e+00	0	40	0	0	54	4543
2026-01-10 22:44:09.93	48.96	24.24	-41.5	-43.3	18.8	0.00e+00	0	40	0	0	54	4451
2026-01-10 22:44:10.93	49.16	24.35	-41.5	-43.3	18.8	0.00e+00	0	40	0	0	54	4482
2026-01-10 22:44:11.93	49.37	24.46	-41.7	-43.5	18.7	0.00e+00	0	40	0	0	54	4572
2026-01-10 22:44:12.94	49.58	24.57	-41.8	-43.6	18.6	0.00e+00	0	40	0	0	54	4650
2026-01-10 22:44:13.94	49.79	24.67	-41.8	-43.7	18.6	0.00e+00	0	40	0	0	54	4675
2026-01-10 22:44:14.95	50.00	24.78	-41.8	-43.7	18.6	0.00e+00	0	40	0	0	54	4654
2026-01-10 22:44:15.95	50.21	24.89	-41.8	-43.7	18.6	0.00e+00	0	40	0	0	54	4659
2026-01-10 22:44:16.95	50.42	25.00	-41.9	-43.8	18.5	0.00e+00	0	40	0	0	54	4707
2026-01-10 22:44:17.96	50.64	25.11	-41.9	-43.8	18.4	0.00e+00	0	40	0	0	54	4731
2026-01-10 22:44:18.96	50.85	25.22	-41.9	-43.8	18.4	0.00e+00	0	40	0	0	54	4732
2026-01-10 22:44:19.96	51.07	25.33	-42.0	-43.8	18.3	0.00e+00	0	40	0	0	54	4759
2026-01-10 22:44:20.96	51.28	25.44	-42.1	-43.9	18.3	0.00e+00	0	40	0	0	54	4810
2026-01-10 22:44:21.97	51.51	25.55	-42.0	-43.9	18.3	0.00e+00	0	40	0	0	54	4797
2026-01-10 22:44:22.97	51.73	25.66	-42.1	-44.0	18.2	0.00e+00	0	40	0	0	54	4841
2026-01-10 22:44:23.97	51.95	25.77	-42.2	-44.1	18.2	0.00e+00	0	40	0	0	55	4614
2026-01-10 22:44:24.98	52.17	25.88	-42.2	-44.1	18.1	0.00e+00	0	40	0	0	55	4632
2026-01-10 22:44:25.98	52.40	25.99	-42.4	-44.3	18.0	0.00e+00	0	40	0	0	55	4729
2026-01-10 22:44:26.98	52.63	26.09	-42.5	-44.4	17.9	0.00e+00	0	40	0	0	55	4801
2026-01-10 22:44:27.99	52.86	26.20	-42.5	-44.5	17.9	0.00e+00	0	40	0	0	55	4830
2026-01-10 22:44:28.99	53.09	26.31	-42.4	-44.4	18.0	0.00e+00	0	40	0	0	55	4765
2026-01-10 22:44:30.00	53.32	26.42	-42.4	-44.4	17.9	0.00e+00	0	40	0	0	55	4784
2026-01-10 22:44:31.00	53.55	26.53	-42.4	-44.3	17.9	0.00e+00	0	40	0	0	55	4759
2026-01-10 22:44:32.01	53.79	26.64	-42.3	-44.2	18.0	0.00e+00	0	40	0	0	55	4683
2026-01-10 22:44:33.01	54.03	26.75	-42.4	-44.3	18.0	0.00e+00	0	40	0	0	55	4733
2026-01-10 22:44:34.01	54.27	26.86	-42.3	-44.3	18.0	0.00e+00	0	40	0	0	55	4712
2026-01-10 22:44:35.02	54.51	26.97	-42.3	-44.2	18.1	0.00e+00	0	40	0	0	55	4697
2026-01-10 22:44:36.02	54.75	27.08	-42.4	-44.3	18.0	0.00e+00	0	40	0	0	55	4737
2026-01-10 22:44:37.02	54.99	27.19	-42.4	-44.4	17.9	0.00e+00	0	40	0	0	55	4774
2026-01-10 22:44:38.03	55.24	27.30	-42.6	-44.5	17.8	0.00e+00	0	40	0	0	55	4849
2026-01-10 22:44:39.03	55.48	27.40	-42.5	-44.5	17.8	0.00e+00	0	40	0	0	55	4832
2026-01-10 22:44:40.04	55.73	27.51	-42.5	-44.4	17.9	0.00e+00	0	40	0	0	55	4800
2026-01-10 22:44:41.04	55.98	27.62	-42.8	-44.8	17.7	0.00e+00	0	40	0	0	56	4730
2026-01-10 22:44:42.04	56.23	27.73	-43.0	-44.9	17.6	0.00e+00	0	40	0	0	56	4808
2026-01-10 22:44:43.05	56.49	27.84	-43.0	-45.0	17.5	0.00e+00	0	40	0	0	56	4852
2026-01-10 22:44:44.05	56.74	27.94	-43.0	-45.0	17.6	0.00e+00	0	40	0	0	56	4848
2026-01-10 22:44:45.05	57.00	28.05	-43.1	-45.1	17.4	0.00e+00	0	40	0	0	56	4919
2026-01-10 22:44:46.06	57.26	28.16	-42.9	-44.8	17.7	0.00e+00	0	40	0	0	56	4757
2026-01-10 22:44:47.06	57.52	28.27	-42.7	-44.6	17.9	0.00e+00	0	40	0	0	56	4645
2026-01-10 22:44:48.06	57.78	28.37	-42.7	-44.6	17.9	0.00e+00	0	40	0	0	56	4627
2026-01-10 22:44:49.06	58.04	28.48	-42.7	-44.6	17.9	0.00e+00	0	40	0	0	56	4643
2026-01-10 22:44:50.07	58.31	28.59	-42.9	-44.8	17.7	0.00e+00	0	40	0	0	56	4758
2026-01-10 22:44:51.07	58.58	28.69	-42.8	-44.8	17.8	0.00e+00	0	40	0	0	56	4707
2026-01-10 22:44:52.08	58.85	28.80	-42.9	-44.9	17.7	0.00e+00	0	40	0	0	56	4777
2026-01-10 22:44:53.08	59.12	28.90	-43.0	-45.0	17.6	0.00e+00	0	40	0	0	56	4844
2026-01-10 22:44:54.08	59.39	29.01	-43.1	-45.1	17.5	0.00e+00	0	40	0	0	56	4885
2026-01-10 22:44:55.09	59.66	29.11	-43.0	-45.0	17.5	0.00e+00	0	40	0	0	56	4827
2026-01-10 22:44:56.09	59.94	29.22	-42.9	-44.9	17.6	0.00e+00	0	40	0	0	56	4772
2026-01-10 22:44:57.09	60.22	29.32	-42.9	-44.8	17.7	0.00e+00	0	40	0	0	56	4729
2026-01-10 22:44:58.10	60.50	29.43	-42.6	-44.5	18.1	0.00e+00	0	40	0	0	56	4567
2026-01-10 22:44:59.10	60.78	29.53	-42.5	-44.4	18.1	0.00e+00	0	40	0	0	56	4542
2026-01-10 22:45:00.10	61.06	29.64	-42.6	-44.5	18.1	0.00e+00	0	40	0	0	56	4559
2026-01-10 22:45:01.10	61.34	29.74	-42.5	-44.4	18.1	0.00e+00	0	40	0	0	56	4535
2026-01-10 22:45:02.10	61.63	29.84	-42.5	-44.4	18.1	0.00e+00	0	40	0	0	56	4523
2026-01-10 22:45:03.11	61.92	29.94	-42.7	-44.6	18.0	0.00e+00	0	40	0	0	56	4622
2026-01-10 22:45:04.11	62.21	30.04	-42.6	-44.6	18.0	0.00e+00	0	40	0	0	56	4600
2026-01-10 22:45:05.12	62.50	30.15	-42.7	-44.7	17.9	0.00e+00	0	40	0	0	56	4676
2026-01-10 22:45:06.12	62.79	30.25	-42.7	-44.6	18.0	0.00e+00	0	40	0	0	56	4649
2026-01-10 22:45:07.13	63.09	30.35	-42.8	-44.8	17.9	0.00e+00	0	40	0	0	56	4707
2026-01-10 22:45:08.13	63.39	30.45	-42.8	-44.7	18.0	0.00e+00	0	40	0	0	56	4680
2026-01-10 22:45:09.13	63.69	30.55	-42.7	-44.6	18.1	0.00e+00	0	40	0	0	56	4614
2026-01-10 22:45:10.14	63.99	30.65	-42.6	-44.4	18.2	0.00e+00	0	40	0	0	56	4541
2026-01-10 22:45:11.14	64.29	30.75	-42.5	-44.4	18.2	0.00e+00	0	40	0	0	56	4530
2026-01-10 22:45:12.14	64.60	30.84	-42.5	-44.4	18.3	0.00e+00	0	40	0	0	56	4495
2026-01-10 22:45:13.14	64.90	30.94	-42.6	-44.5	18.2	0.00e+00	0	40	0	0	56	4553
2026-01-10 22:45:14.14	65.21	31.04	-42.6	-44.5	18.2	0.00e+00	0	40	0	0	56	4567
2026-01-10 22:45:15.15	65.52	31.13	-42.6	-44.4	18.2	0.00e+00	0	40	0	0	56	4544
2026-01-10 22:45:16.15	65.83	31.23	-42.4	-44.3	18.4	0.00e+00	0	40	0	0	56	4470
2026-01-10 22:45:17.15	66.15	31.33	-42.5	-44.4	18.4	0.00e+00	0	41	0	0	56	4498
2026-01-10 22:45:18.16	66.46	31.42	-42.6	-44.5	18.2	0.00e+00	0	40	0	0	56	4577
2026-01-10 22:45:19.16	66.78	31.51	-42.8	-44.7	18.0	0.00e+00	0	40	0	0	56	4680
2026-01-10 22:45:20.16	67.10	31.61	-42.9	-44.8	17.9	0.00e+00	0	40	0	0	56	4755
2026-01-10 22:45:21.16	67.42	31.70	-42.9	-44.9	17.9	0.00e+00	0	40	0	0	56	4769
2026-01-10 22:45:22.17	67.74	31.79	-42.9	-44.8	17.8	0.00e+00	0	40	0	0	56	4751
2026-01-10 22:45:23.17	68.07	31.88	-42.9	-44.9	17.9	0.00e+00	0	40	0	0	56	4771
2026-01-10 22:45:24.18	68.40	31.97	-43.0	-44.9	17.9	0.00e+00	0	40	0	0	56	4803
2026-01-10 22:45:25.18	68.72	32.06	-42.9	-44.8	17.9	0.00e+00	0	40	0	0	56	4757
2026-01-10 22:45:26.19	69.06	32.15	-42.9	-44.8	18.0	0.00e+00	0	40	0	0	56	4752
2026-01-10 22:45:27.19	69.39	32.24	-43.0	-44.9	17.8	0.00e+00	0	40	0	0	56	4807
2026-01-10 22:45:28.19	69.72	32.33	-43.3	-45.2	17.6	0.00e+00	0	40	0	0	57	4697
2026-01-10 22:45:29.20	70.06	32.42	-43.4	-45.5	17.3	0.00e+00	0	40	0	0	57	4821
2026-01-10 22:45:30.20	70.39	32.50	-43.6	-45.6	17.2	0.00e+00	0	40	0	0	57	4907
2026-01-10 22:45:31.21	70.73	32.59	-43.6	-45.6	17.2	0.00e+00	0	40	0	0	57	4920
2026-01-10 22:45:32.21	71.07	32.67	-43.6	-45.6	17.2	0.00e+00	0	40	0	0	57	4899
2026-01-10 22:45:33.21	71.42	32.75	-43.5	-45.5	17.4	0.00e+00	0	40	0	0	57	4847
2026-01-10 22:45:34.22	71.76	32.84	-43.3	-45.3	17.5	0.00e+00	0	40	0	0	57	4739
2026-01-10 22:45:35.22	72.11	32.92	-43.4	-45.3	17.4	0.00e+00	0	40	0	0	57	4758
2026-01-10 22:45:36.22	72.45	33.00	-43.5	-45.5	17.3	0.00e+00	0	40	0	0	57	4839
2026-01-10 22:45:37.23	72.81	33.08	-43.6	-45.7	17.2	0.00e+00	0	40	0	0	57	4937
2026-01-10 22:45:38.23	73.16	33.16	-43.8	-45.8	17.1	0.00e+00	0	40	0	0	58	4759
2026-01-10 22:45:39.24	73.51	33.23	-43.8	-45.9	17.1	0.00e+00	0	40	0	0	58	4769
2026-01-10 22:45:40.24	73.86	33.31	-43.6	-45.6	17.3	0.00e+00	0	40	0	0	58	4624
2026-01-10 22:45:41.25	74.22	33.39	-43.5	-45.5	17.4	0.00e+00	0	40	0	0	58	4583
2026-01-10 22:45:42.25	74.58	33.46	-43.5	-45.5	17.3	0.00e+00	0	40	0	0	58	4591
2026-01-10 22:45:43.25	74.94	33.53	-43.4	-45.4	17.3	0.00e+00	0	40	0	0	58	4511
2026-01-10 22:45:44.26	75.30	33.61	-43.6	-45.6	17.2	0.00e+00	0	40	0	0	58	4615
2026-01-10 22:45:45.26	75.66	33.68	-43.7	-45.7	17.2	0.00e+00	0	40	0	0	58	4681
2026-01-10 22:45:46.26	76.03	33.75	-43.6	-45.6	17.3	0.00e+00	0	40	0	0	58	4621
2026-01-10 22:45:47.27	76.39	33.82	-43.5	-45.6	17.4	0.00e+00	0	41	0	0	58	4601
2026-01-10 22:45:48.27	76.76	33.89	-43.6	-45.7	17.3	0.00e+00	0	40	0	0	58	4658
2026-01-10 22:45:49.27	77.13	33.95	-43.6	-45.7	17.2	0.00e+00	0	40	0	0	58	4654
2026-01-10 22:45:50.28	77.50	34.02	-43.8	-45.8	17.0	0.00e+00	0	40	0	0	58	4759
2026-01-10 22:45:51.28	77.87	34.08	-43.8	-45.8	17.1	0.00e+00	0	40	0	0	58	4750
2026-01-10 22:45:52.29	78.25	34.15	-43.9	-46.0	17.1	0.00e+00	0	40	0	0	58	4815
2026-01-10 22:45:53.29	78.62	34.21	-43.8	-45.9	17.2	0.00e+00	0	41	0	0	58	4771
2026-01-10 22:45:54.29	78.99	34.27	-43.8	-45.9	17.1	0.00e+00	0	40	0	0	58	4794
2026-01-10 22:45:55.30	79.37	34.33	-43.8	-45.9	17.1	0.00e+00	0	40	0	0	58	4795
2026-01-10 22:45:56.30	79.75	34.39	-43.9	-46.0	17.0	0.00e+00	0	40	0	0	58	4824
2026-01-10 22:45:57.30	80.13	34.45	-43.8	-45.9	17.1	0.00e+00	0	40	0	0	58	4784
2026-01-10 22:45:58.31	80.52	34.50	-43.7	-45.7	17.3	0.00e+00	0	40	0	0	58	4683
2026-01-10 22:45:59.31	80.90	34.56	-43.6	-45.6	17.5	0.00e+00	0	40	0	0	58	4639
2026-01-10 22:46:00.31	81.28	34.61	-43.6	-45.6	17.4	0.00e+00	0	40	0	0	58	4630
2026-01-10 22:46:01.32	81.67	34.66	-43.7	-45.7	17.3	0.00e+00	0	40	0	0	58	4691
2026-01-10 22:46:02.32	82.05	34.71	-43.7	-45.8	17.1	0.00e+00	0	40	0	0	58	4742
2026-01-10 22:46:03.32	82.44	34.76	-43.7	-45.8	17.1	0.00e+00	0	40	0	0	58	4756
2026-01-10 22:46:04.33	82.83	34.81	-43.7	-45.8	17.2	0.00e+00	0	40	0	0	58	4709
2026-01-10 22:46:05.34	83.22	34.86	-43.6	-45.7	17.3	0.00e+00	0	40	0	0	58	4696
2026-01-10 22:46:06.34	83.61	34.90	-43.7	-45.7	17.3	0.00e+00	0	40	0	0	58	4703
2026-01-10 22:46:07.34	84.00	34.95	-43.8	-45.9	17.2	0.00e+00	0	40	0	0	58	4767
2026-01-10 22:46:08.34	84.40	34.99	-43.8	-45.9	17.1	0.00e+00	0	40	0	0	58	4805
2026-01-10 22:46:09.34	84.79	35.03	-43.9	-46.1	17.0	0.00e+00	0	40	0	0	58	4895
2026-01-10 22:46:10.35	85.19	35.07	-44.1	-46.3	16.8	0.00e+00	0	40	0	0	58	4993
2026-01-10 22:46:11.35	85.58	35.11	-44.1	-46.3	16.8	0.00e+00	0	41	0	0	58	5011
2026-01-10 22:46:12.36	85.98	35.14	-44.2	-46.4	16.6	0.00e+00	0	40	0	0	59	4804
2026-01-10 22:46:13.36	86.38	35.18	-44.3	-46.5	16.5	0.00e+00	0	40	0	0	59	4839
2026-01-10 22:46:14.36	86.77	35.21	-44.2	-46.4	16.7	0.00e+00	0	40	0	0	59	4786
2026-01-10 22:46:15.36	87.17	35.24	-44.2	-46.3	16.8	0.00e+00	0	40	0	0	59	4749
2026-01-10 22:46:16.37	87.58	35.28	-44.0	-46.1	17.0	0.00e+00	0	40	0	0	59	4620
2026-01-10 22:46:17.37	87.98	35.30	-43.9	-46.0	16.9	0.00e+00	0	40	0	0	59	4592
2026-01-10 22:46:18.37	88.38	35.33	-43.8	-46.0	17.0	0.00e+00	0	40	0	0	59	4557
2026-01-10 22:46:19.38	88.78	35.36	-43.9	-46.0	17.1	0.00e+00	0	40	0	0	59	4569
2026-01-10 22:46:20.38	89.18	35.38	-44.1	-46.2	16.9	0.00e+00	0	40	0	0	59	4680
2026-01-10 22:46:21.38	89.58	35.41	-44.1	-46.2	16.9	0.00e+00	0	40	0	0	59	4673
2026-01-10 22:46:22.39	89.99	35.43	-44.0	-46.0	17.0	0.00e+00	0	40	0	0	59	4594
2026-01-10 22:46:23.39	90.39	35.45	-43.7	-45.7	17.3	0.00e+00	0	41	0	0	59	4409
2026-01-10 22:46:24.40	90.80	35.47	-43.8	-45.9	17.2	0.00e+00	0	40	0	0	59	4510
2026-01-10 22:46:25.40	91.21	35.48	-43.9	-46.0	17.1	0.00e+00	0	40	0	0	59	4547
2026-01-10 22:46:26.41	91.62	35.50	-43.9	-45.9	17.1	0.00e+00	0	40	0	0	59	4541
2026-01-10 22:46:27.41	92.02	35.51	-43.7	-45.8	17.3	0.00e+00	0	40	0	0	59	4456
2026-01-10 22:46:28.41	92.43	35.52	-43.8	-45.9	17.3	0.00e+00	0	40	0	0	59	4495
2026-01-10 22:46:29.42	92.84	35.53	-43.9	-45.9	17.1	0.00e+00	0	41	0	0	59	4544
2026-01-10 22:46:30.42	93.24	35.54	-43.8	-45.8	17.2	0.00e+00	0	41	0	0	59	4474
2026-01-10 22:46:31.42	93.65	35.55	-43.7	-45.6	17.4	0.00e+00	0	41	0	0	59	4391
2026-01-10 22:46:32.43	94.06	35.56	-43.6	-45.6	17.5	0.00e+00	0	40	0	0	59	4346
2026-01-10 22:46:33.43	94.46	35.56	-43.6	-45.6	17.6	0.00e+00	0	40	0	0	59	4342
2026-01-10 22:46:34.44	94.88	35.56	-43.6	-45.6	17.4	0.00e+00	0	41	0	0	59	4391
2026-01-10 22:46:35.44	95.28	35.56	-43.7	-45.8	17.4	0.00e+00	0	40	0	0	59	4444
2026-01-10 22:46:36.44	95.69	35.56	-43.8	-45.8	17.4	0.00e+00	0	40	0	0	59	4468
2026-01-10 22:46:37.45	96.10	35.56	-43.7	-45.7	17.4	0.00e+00	0	40	0	0	59	4441
2026-01-10 22:46:38.45	96.51	35.56	-43.6	-45.6	17.4	0.00e+00	0	41	0	0	59	4374
2026-01-10 22:46:39.45	96.91	35.55	-43.8	-45.8	17.3	0.00e+00	0	41	0	0	59	4462
2026-01-10 22:46:40.45	97.32	35.54	-43.9	-45.9	17.1	0.00e+00	0	41	0	0	59	4526
2026-01-10 22:46:41.46	97.73	35.54	-43.8	-45.9	17.2	0.00e+00	0	41	0	0	59	4502
2026-01-10 22:46:42.46	98.13	35.53	-43.8	-45.9	17.2	0.00e+00	0	41	0	0	59	4498
2026-01-10 22:46:43.47	98.54	35.51	-44.0	-46.1	17.1	0.00e+00	0	41	0	0	59	4600
2026-01-10 22:46:44.47	98.95	35.50	-44.1	-46.2	16.9	0.00e+00	0	41	0	0	59	4685
2026-01-10 22:46:45.47	99.35	35.49	-44.0	-46.1	17.0	0.00e+00	0	40	0	0	59	4640
2026-01-10 22:46:46.48	99.76	35.47	-44.0	-46.1	17.1	0.00e+00	0	40	0	0	59	4605
2026-01-10 22:46:47.48	100.17	35.45	-44.0	-46.1	17.1	0.00e+00	0	40	0	0	59	4613
2026-01-10 22:46:48.48	100.57	35.43	-43.9	-45.9	17.2	0.00e+00	0	40	0	0	59	4537
2026-01-10 22:46:49.49	100.98	35.41	-44.1	-46.2	17.0	0.00e+00	0	40	0	0	59	4667
2026-01-10 22:46:50.49	101.38	35.39	-44.0	-46.1	17.0	0.00e+00	0	41	0	0	59	4629
2026-01-10 22:46:51.49	101.78	35.36	-44.0	-46.1	17.0	0.00e+00	0	40	0	0	59	4632
2026-01-10 22:46:52.50	102.19	35.34	-44.2	-46.3	16.9	0.00e+00	0	41	0	0	59	4728
2026-01-10 22:46:53.50	102.59	35.31	-44.2	-46.4	16.9	0.00e+00	0	41	0	0	59	4760
2026-01-10 22:46:54.50	102.99	35.28	-44.4	-46.5	16.7	0.00e+00	0	40	0	0	59	4868
2026-01-10 22:46:55.51	103.39	35.25	-44.6	-46.7	16.5	0.00e+00	0	41	0	0	59	4979
2026-01-10 22:46:56.51	103.79	35.22	-44.7	-47.0	16.3	0.00e+00	0	40	0	0	60	4818
2026-01-10 22:46:57.51	104.19	35.18	-44.4	-46.6	16.7	0.00e+00	0	41	0	0	60	4608
2026-01-10 22:46:58.52	104.59	35.15	-44.4	-46.5	16.7	0.00e+00	0	40	0	0	60	4568
2026-01-10 22:46:59.52	104.99	35.11	-44.1	-46.2	16.9	0.00e+00	0	40	0	0	60	4438
2026-01-10 22:47:00.52	105.38	35.08	-43.9	-46.0	17.2	0.00e+00	0	40	0	0	59	4551
2026-01-10 22:47:01.53	105.78	35.04	-43.9	-46.0	17.2	0.00e+00	0	41	0	0	59	4548
2026-01-10 22:47:02.53	106.18	35.00	-44.0	-46.0	17.1	0.00e+00	0	41	0	0	59	4587
2026-01-10 22:47:03.54	106.57	34.95	-44.0	-46.1	17.1	0.00e+00	0	41	0	0	59	4616
2026-01-10 22:47:04.54	106.96	34.91	-43.9	-46.0	17.2	0.00e+00	0	41	0	0	59	4546
2026-01-10 22:47:05.54	107.35	34.86	-44.0	-46.1	17.1	0.00e+00	0	41	0	0	59	4611
2026-01-10 22:47:06.55	107.75	34.82	-44.1	-46.2	17.0	0.00e+00	0	41	0	0	59	4683
2026-01-10 22:47:07.55	108.14	34.77	-44.2	-46.3	16.9	0.00e+00	0	41	0	0	59	4745
2026-01-10 22:47:08.56	108.53	34.72	-44.3	-46.4	16.8	0.00e+00	0	40	0	0	59	4787
2026-01-10 22:47:09.56	108.91	34.67	-44.4	-46.6	16.6	0.00e+00	0	41	0	0	59	4877
2026-01-10 22:47:10.56	109.30	34.62	-44.4	-46.6	16.7	0.00e+00	0	40	0	0	59	4876
2026-01-10 22:47:11.57	109.69	34.56	-44.1	-46.2	17.0	0.00e+00	0	41	0	0	59	4674
2026-01-10 22:47:12.57	110.07	34.51	-44.0	-46.0	17.2	0.00e+00	0	41	0	0	59	4576
2026-01-10 22:47:13.57	110.45	34.45	-44.0	-46.1	17.1	0.00e+00	0	41	0	0	59	4619
2026-01-10 22:47:14.58	110.83	34.40	-44.1	-46.1	17.1	0.00e+00	0	40	0	0	59	4626
2026-01-10 22:47:15.58	111.21	34.34	-44.1	-46.1	17.1	0.00e+00	0	40	0	0	59	4639
2026-01-10 22:47:16.58	111.59	34.28	-44.2	-46.3	17.0	0.00e+00	0	41	0	0	59	4711
2026-01-10 22:47:17.59	111.97	34.22	-44.1	-46.2	17.0	0.00e+00	0	41	0	0	59	4686
2026-01-10 22:47:18.59	112.34	34.15	-44.1	-46.1	17.1	0.00e+00	0	40	0	0	59	4646
2026-01-10 22:47:19.57	112.71	34.09	-44.0	-46.1	17.1	0.00e+00	0	41	0	0	59	4629
2026-01-10 22:47:20.58	113.08	34.03	-44.0	-46.1	17.2	0.00e+00	0	40	0	0	59	4612
2026-01-10 22:47:21.58	113.45	33.96	-43.9	-45.9	17.3	0.00e+00	0	40	0	0	59	4542
2026-01-10 22:47:22.58	113.82	33.90	-43.7	-45.8	17.5	0.00e+00	0	41	0	0	59	4445
2026-01-10 22:47:23.59	114.19	33.83	-43.9	-45.9	17.3	0.00e+00	0	40	0	0	59	4527
2026-01-10 22:47:24.59	114.56	33.76	-44.2	-46.3	17.0	0.00e+00	0	41	0	0	59	4707
2026-01-10 22:47:25.59	114.92	33.69	-44.5	-46.7	16.6	0.00e+00	0	40	0	0	59	4932
2026-01-10 22:47:26.60	115.29	33.62	-44.3	-46.5	16.8	0.00e+00	0	41	0	0	59	4827
2026-01-10 22:47:27.60	115.65	33.54	-44.0	-46.1	17.1	0.00e+00	0	40	0	0	59	4625
2026-01-10 22:47:28.61	116.01	33.47	-43.9	-45.9	17.2	0.00e+00	0	40	0	0	59	4511
2026-01-10 22:47:29.61	116.37	33.39	-44.0	-46.0	17.2	0.00e+00	0	41	0	0	59	4570
2026-01-10 22:47:30.61	116.73	33.32	-44.2	-46.2	17.0	0.00e+00	0	41	0	0	59	4693
2026-01-10 22:47:31.61	117.08	33.24	-44.1	-46.1	17.2	0.00e+00	0	41	0	0	59	4632
2026-01-10 22:47:32.61	117.44	33.16	-44.0	-46.0	17.3	0.00e+00	0	41	0	0	59	4589
2026-01-10 22:47:33.62	117.79	33.08	-44.1	-46.2	17.1	0.00e+00	0	41	0	0	59	4668
2026-01-10 22:47:34.62	118.14	33.01	-44.2	-46.2	17.1	0.00e+00	0	41	0	0	59	4697
2026-01-10 22:47:35.63	118.49	32.92	-44.2	-46.3	17.1	0.00e+00	0	40	0	0	59	4711
2026-01-10 22:47:36.63	118.84	32.84	-44.0	-46.0	17.3	0.00e+00	0	41	0	0	59	4582
2026-01-10 22:47:37.64	119.19	32.76	-43.8	-45.8	17.6	0.00e+00	0	41	0	0	59	4457
2026-01-10 22:47:38.64	119.53	32.68	-43.8	-45.8	17.5	0.00e+00	0	41	0	0	59	4463
2026-01-10 22:47:39.64	119.87	32.59	-43.6	-45.5	17.8	0.00e+00	0	41	0	0	59	4325
2026-01-10 22:47:40.65	120.21	32.51	-43.5	-45.4	17.9	0.00e+00	0	40	0	0	58	4523
2026-01-10 22:47:41.65	120.55	32.42	-43.6	-45.5	17.8	0.00e+00	0	41	0	0	58	4591
2026-01-10 22:47:42.66	120.89	32.33	-43.6	-45.6	17.7	0.00e+00	0	41	0	0	58	4635
2026-01-10 22:47:43.66	121.22	32.25	-43.7	-45.7	17.6	0.00e+00	0	41	0	0	58	4691
2026-01-10 22:47:44.67	121.56	32.16	-43.7	-45.7	17.7	0.00e+00	0	41	0	0	58	4658
2026-01-10 22:47:45.66	121.89	32.07	-43.6	-45.6	17.8	0.00e+00	0	41	0	0	58	4626
2026-01-10 22:47:46.67	122.22	31.98	-43.6	-45.5	17.8	0.00e+00	0	41	0	0	58	4586
2026-01-10 22:47:47.67	122.55	31.89	-43.6	-45.6	17.7	0.00e+00	0	41	0	0	58	4616
2026-01-10 22:47:48.67	122.87	31.80	-43.5	-45.5	17.9	0.00e+00	0	41	0	0	58	4550
2026-01-10 22:47:49.68	123.20	31.70	-43.5	-45.4	18.0	0.00e+00	0	41	0	0	58	4516
2026-01-10 22:47:50.68	123.52	31.61	-43.5	-45.4	18.0	0.00e+00	0	41	0	0	58	4520
2026-01-10 22:47:51.68	123.84	31.52	-43.3	-45.3	18.1	0.00e+00	0	41	0	0	58	4443
2026-01-10 22:47:52.69	124.16	31.42	-43.4	-45.3	18.1	0.00e+00	0	41	0	0	58	4475
2026-01-10 22:47:53.69	124.48	31.33	-43.4	-45.4	18.0	0.00e+00	0	41	0	0	58	4502
2026-01-10 22:47:54.69	124.79	31.23	-43.5	-45.4	18.0	0.00e+00	0	41	0	0	58	4513
2026-01-10 22:47:55.69	125.10	31.14	-43.5	-45.4	17.9	0.00e+00	0	41	0	0	58	4543
2026-01-10 22:47:56.70	125.42	31.04	-43.7	-45.6	17.8	0.00e+00	0	40	0	0	58	4625
2026-01-10 22:47:57.70	125.73	30.94	-43.6	-45.5	17.9	0.00e+00	0	41	0	0	58	4573
2026-01-10 22:47:58.70	126.03	30.84	-43.6	-45.5	17.9	0.00e+00	0	41	0	0	58	4591
2026-01-10 22:47:59.71	126.34	30.74	-43.5	-45.5	17.9	0.00e+00	0	41	0	0	58	4560
2026-01-10 22:48:00.71	126.64	30.65	-43.4	-45.3	18.1	0.00e+00	0	41	0	0	58	4484
2026-01-10 22:48:01.71	126.95	30.55	-43.4	-45.2	18.2	0.00e+00	0	41	0	0	58	4441
2026-01-10 22:48:02.72	127.25	30.44	-43.5	-45.4	18.0	0.00e+00	0	41	0	0	58	4515
2026-01-10 22:48:03.72	127.55	30.34	-43.6	-45.6	17.9	0.00e+00	0	41	0	0	58	4611
2026-01-10 22:48:04.72	127.84	30.24	-43.7	-45.6	17.8	0.00e+00	0	41	0	0	58	4644
2026-01-10 22:48:05.72	128.14	30.14	-43.7	-45.7	17.8	0.00e+00	0	40	0	0	58	4682
2026-01-10 22:48:06.73	128.43	30.04	-43.9	-45.8	17.7	0.00e+00	0	41	0	0	58	4748
2026-01-10 22:48:07.73	128.72	29.94	-43.8	-45.7	17.8	0.00e+00	0	41	0	0	58	4685
2026-01-10 22:48:08.74	129.01	29.83	-43.5	-45.4	18.1	0.00e+00	0	41	0	0	58	4502
2026-01-10 22:48:09.74	129.30	29.73	-43.3	-45.2	18.2	0.00e+00	0	41	0	0	58	4418
2026-01-10 22:48:10.75	129.59	29.63	-43.2	-45.1	18.3	0.00e+00	0	41	0	0	58	4356
2026-01-10 22:48:11.75	129.87	29.52	-43.2	-45.0	18.3	0.00e+00	0	41	0	0	58	4338
2026-01-10 22:48:12.75	130.15	29.42	-43.2	-45.1	18.3	0.00e+00	0	41	0	0	58	4342
2026-01-10 22:48:13.76	130.44	29.31	-43.0	-44.9	18.4	0.00e+00	0	40	0	0	58	4280
2026-01-10 22:48:14.76	130.71	29.21	-43.0	-44.9	18.4	0.00e+00	0	41	0	0	58	4275
2026-01-10 22:48:15.76	130.99	29.10	-43.0	-44.9	18.5	0.00e+00	0	41	0	0	58	4255
2026-01-10 22:48:16.77	131.27	29.00	-43.1	-44.9	18.5	0.00e+00	0	41	0	0	58	4274
2026-01-10 22:48:17.77	131.54	28.89	-43.1	-45.0	18.5	0.00e+00	0	41	0	0	58	4308
2026-01-10 22:48:18.77	131.81	28.78	-43.0	-44.9	18.6	0.00e+00	0	41	0	0	58	4248
2026-01-10 22:48:19.78	132.08	28.68	-43.1	-44.9	18.5	0.00e+00	0	41	0	0	58	4289
2026-01-10 22:48:20.78	132.35	28.57	-43.3	-45.1	18.3	0.00e+00	0	41	0	0	58	4376
2026-01-10 22:48:21.78	132.62	28.46	-43.5	-45.3	18.0	0.00e+00	0	41	0	0	58	4490
2026-01-10 22:48:22.79	132.88	28.36	-43.6	-45.5	17.9	0.00e+00	0	41	0	0	58	4577
2026-01-10 22:48:23.79	133.15	28.25	-43.6	-45.6	18.0	0.00e+00	0	41	0	0	58	4609
2026-01-10 22:48:24.80	133.41	28.14	-43.5	-45.4	18.1	0.00e+00	0	41	0	0	58	4533
2026-01-10 22:48:25.80	133.67	28.03	-43.3	-45.2	18.3	0.00e+00	0	41	0	0	58	4407
2026-01-10 22:48:26.81	133.93	27.92	-43.3	-45.2	18.3	0.00e+00	0	41	0	0	58	4406
2026-01-10 22:48:27.81	134.18	27.81	-43.4	-45.2	18.2	0.00e+00	0	41	0	0	58	4424
2026-01-10 22:48:28.81	134.44	27.71	-43.3	-45.1	18.3	0.00e+00	0	41	0	0	58	4389
2026-01-10 22:48:29.81	134.69	27.60	-43.2	-45.0	18.5	0.00e+00	0	41	0	0	58	4334
2026-01-10 22:48:30.82	134.94	27.49	-43.1	-44.9	18.5	0.00e+00	0	41	0	0	58	4285
2026-01-10 22:48:31.82	135.19	27.38	-43.1	-45.0	18.5	0.00e+00	0	40	0	0	58	4298
2026-01-10 22:48:32.83	135.44	27.27	-43.3	-45.2	18.4	0.00e+00	0	41	0	0	58	4419
2026-01-10 22:48:33.83	135.68	27.16	-43.2	-45.0	18.5	0.00e+00	0	41	0	0	58	4319
2026-01-10 22:48:34.83	135.93	27.05	-43.1	-45.0	18.6	0.00e+00	0	41	0	0	58	4300
2026-01-10 22:48:35.84	136.17	26.94	-43.2	-45.1	18.4	0.00e+00	0	41	0	0	58	4357
2026-01-10 22:48:36.84	136.41	26.83	-43.3	-45.1	18.4	0.00e+00	0	41	0	0	58	4380
2026-01-10 22:48:37.84	136.65	26.72	-43.2	-45.1	18.5	0.00e+00	0	41	0	0	58	4347
2026-01-10 22:48:38.85	136.89	26.61	-43.3	-45.2	18.4	0.00e+00	0	41	0	0	58	4405
2026-01-10 22:48:39.85	137.13	26.50	-43.2	-45.0	18.6	0.00e+00	0	41	0	0	58	4318
2026-01-10 22:48:40.86	137.36	26.39	-43.1	-45.0	18.6	0.00e+00	0	41	0	0	58	4305
2026-01-10 22:48:41.86	137.60	26.28	-43.3	-45.1	18.4	0.00e+00	0	41	0	0	58	4390
2026-01-10 22:48:42.86	137.83	26.17	-43.4	-45.3	18.3	0.00e+00	0	41	0	0	58	4459
2026-01-10 22:48:43.86	138.06	26.06	-43.5	-45.4	18.2	0.00e+00	0	41	0	0	58	4527
2026-01-10 22:48:44.87	138.29	25.95	-43.5	-45.4	18.3	0.00e+00	0	41	0	0	58	4495
2026-01-10 22:48:45.87	138.51	25.84	-43.4	-45.3	18.4	0.00e+00	0	41	0	0	58	4450
2026-01-10 22:48:46.88	138.74	25.73	-43.4	-45.3	18.4	0.00e+00	0	41	0	0	58	4457
2026-01-10 22:48:47.88	138.96	25.62	-43.3	-45.2	18.5	0.00e+00	0	41	0	0	58	4392
2026-01-10 22:48:48.89	139.19	25.51	-43.3	-45.2	18.5	0.00e+00	0	41	0	0	58	4416
2026-01-10 22:48:49.89	139.41	25.40	-43.4	-45.2	18.4	0.00e+00	0	41	0	0	58	4430
2026-01-10 22:48:50.89	139.63	25.29	-43.1	-44.9	18.7	0.00e+00	0	41	0	0	58	4269
2026-01-10 22:48:51.89	139.84	25.18	-43.0	-44.9	18.8	0.00e+00	0	41	0	0	58	4246
2026-01-10 22:48:52.90	140.06	25.07	-43.0	-44.8	18.8	0.00e+00	0	41	0	0	58	4242
2026-01-10 22:48:53.90	140.28	24.96	-43.1	-44.9	18.7	0.00e+00	0	41	0	0	58	4277
2026-01-10 22:48:54.90	140.49	24.85	-43.0	-44.8	18.8	0.00e+00	0	41	0	0	58	4210
2026-01-10 22:48:55.91	140.70	24.74	-43.0	-44.8	18.8	0.00e+00	0	41	0	0	58	4235
2026-01-10 22:48:56.91	140.91	24.63	-43.1	-45.0	18.7	0.00e+00	0	41	0	0	58	4292
2026-01-10 22:48:57.92	141.12	24.52	-43.0	-44.9	18.7	0.00e+00	0	41	0	0	58	4243
2026-01-10 22:48:58.92	141.33	24.41	-43.1	-44.9	18.6	0.00e+00	0	41	0	0	58	4278
2026-01-10 22:48:59.92	141.54	24.30	-43.1	-44.9	18.6	0.00e+00	0	41	0	0	58	4282
2026-01-10 22:49:00.92	141.74	24.19	-43.1	-44.9	18.7	0.00e+00	0	41	0	0	58	4266
2026-01-10 22:49:01.93	141.94	24.08	-43.0	-44.9	18.7	0.00e+00	0	41	0	0	58	4252
2026-01-10 22:49:02.93	142.15	23.97	-43.1	-44.9	18.6	0.00e+00	0	41	0	0	58	4290
2026-01-10 22:49:03.94	142.35	23.86	-43.1	-45.0	18.6	0.00e+00	0	41	0	0	58	4311
2026-01-10 22:49:04.94	142.55	23.75	-43.3	-45.1	18.5	0.00e+00	0	41	0	0	58	4390
2026-01-10 22:49:05.94	142.74	23.64	-43.2	-45.1	18.5	0.00e+00	0	41	0	0	58	4362
2026-01-10 22:49:06.94	142.94	23.54	-43.2	-45.1	18.6	0.00e+00	0	41	0	0	58	4350
2026-01-10 22:49:07.95	143.14	23.43	-43.2	-45.0	18.6	0.00e+00	0	41	0	0	58	4321
2026-01-10 22:49:08.96	143.33	23.32	-43.3	-45.2	18.5	0.00e+00	0	41	0	0	58	4398
2026-01-10 22:49:09.96	143.52	23.21	-43.3	-45.1	18.5	0.00e+00	0	41	0	0	58	4385
2026-01-10 22:49:10.96	143.72	23.10	-43.4	-45.3	18.3	0.00e+00	0	41	0	0	58	4463
2026-01-10 22:49:11.97	143.91	22.99	-43.5	-45.3	18.3	0.00e+00	0	41	0	0	58	4486
2026-01-10 22:49:12.97	144.10	22.88	-43.6	-45.5	18.2	0.00e+00	0	41	0	0	58	4549
2026-01-10 22:49:13.97	144.28	22.78	-43.6	-45.5	18.2	0.00e+00	0	41	0	0	58	4577
2026-01-10 22:49:14.98	144.47	22.67	-43.7	-45.6	18.1	0.00e+00	0	41	0	0	58	4625
2026-01-10 22:49:15.98	144.65	22.56	-43.7	-45.6	18.1	0.00e+00	0	41	0	0	58	4618
2026-01-10 22:49:16.98	144.84	22.45	-43.8	-45.7	18.0	0.00e+00	0	41	0	0	58	4681
2026-01-10 22:49:17.98	145.02	22.34	-43.8	-45.7	18.0	0.00e+00	0	41	0	0	58	4687
2026-01-10 22:49:18.99	145.20	22.24	-43.7	-45.6	18.1	0.00e+00	0	41	0	0	58	4635
2026-01-10 22:49:19.99	145.38	22.13	-43.7	-45.6	18.0	0.00e+00	0	41	0	0	58	4646
2026-01-10 22:49:21.00	145.56	22.02	-43.6	-45.5	18.1	0.00e+00	0	41	0	0	58	4594
2026-01-10 22:49:22.00	145.74	21.92	-43.6	-45.5	18.1	0.00e+00	0	41	0	0	58	4581
2026-01-10 22:49:23.00	145.92	21.81	-43.6	-45.6	18.1	0.00e+00	0	41	0	0	58	4625
2026-01-10 22:49:24.01	146.09	21.70	-43.7	-45.7	17.9	0.00e+00	0	41	0	0	58	4686
2026-01-10 22:49:25.01	146.27	21.60	-43.7	-45.6	18.0	0.00e+00	0	41	0	0	58	4638
2026-01-10 22:49:26.01	146.44	21.49	-43.7	-45.6	18.0	0.00e+00	0	41	0	0	58	4648
2026-01-10 22:49:27.02	146.61	21.38	-43.9	-45.8	17.8	0.00e+00	0	41	0	0	58	4755
2026-01-10 22:49:28.02	146.78	21.28	-43.9	-45.8	17.8	0.00e+00	0	41	0	0	58	4756
2026-01-10 22:49:29.03	146.95	21.17	-43.9	-45.8	17.8	0.00e+00	0	41	0	0	58	4758
2026-01-10 22:49:30.03	147.12	21.07	-44.0	-45.9	17.8	0.00e+00	0	41	0	0	58	4805
2026-01-10 22:49:31.03	147.29	20.96	-44.0	-45.9	17.8	0.00e+00	0	41	0	0	58	4787
2026-01-10 22:49:32.04	147.46	20.86	-44.0	-45.9	17.8	0.00e+00	0	41	0	0	58	4794
2026-01-10 22:49:33.04	147.62	20.75	-43.8	-45.7	18.0	0.00e+00	0	41	0	0	58	4683
2026-01-10 22:49:34.04	147.78	20.65	-43.8	-45.7	18.0	0.00e+00	0	41	0	0	58	4695
2026-01-10 22:49:35.04	147.95	20.54	-43.8	-45.7	18.0	0.00e+00	0	41	0	0	58	4659
2026-01-10 22:49:36.04	148.11	20.44	-43.8	-45.7	17.9	0.00e+00	0	41	0	0	58	4705
2026-01-10 22:49:37.05	148.27	20.34	-43.9	-45.8	17.9	0.00e+00	0	41	0	0	58	4741
2026-01-10 22:49:38.05	148.43	20.23	-43.9	-45.8	17.9	0.00e+00	0	41	0	0	58	4742
2026-01-10 22:49:39.05	148.59	20.13	-43.9	-45.9	17.8	0.00e+00	0	41	0	0	58	4776
2026-01-10 22:49:40.06	148.75	20.02	-44.0	-45.9	17.8	0.00e+00	0	41	0	0	58	4797
2026-01-10 22:49:41.06	148.90	19.92	-43.9	-45.8	17.9	0.00e+00	0	41	0	0	58	4759
2026-01-10 22:49:42.06	149.06	19.82	-43.8	-45.7	18.0	0.00e+00	0	41	0	0	58	4671
2026-01-10 22:49:43.07	149.21	19.72	-43.7	-45.6	18.1	0.00e+00	0	41	0	0	58	4639
2026-01-10 22:49:44.07	149.37	19.61	-43.7	-45.6	18.1	0.00e+00	0	41	0	0	58	4606
2026-01-10 22:49:45.07	149.52	19.51	-43.5	-45.4	18.3	0.00e+00	0	41	0	0	58	4500
2026-01-10 22:49:46.07	149.67	19.41	-43.5	-45.3	18.3	0.00e+00	0	41	0	0	58	4485
2026-01-10 22:49:47.08	149.82	19.31	-43.5	-45.4	18.2	0.00e+00	0	41	0	0	58	4525
2026-01-10 22:49:48.08	149.97	19.21	-43.5	-45.4	18.2	0.00e+00	0	41	0	0	58	4523
2026-01-10 22:49:49.08	150.12	19.11	-43.5	-45.4	18.2	0.00e+00	0	41	0	0	58	4531
2026-01-10 22:49:50.09	150.27	19.00	-43.5	-45.4	18.3	0.00e+00	0	41	0	0	58	4500
2026-01-10 22:49:51.09	150.42	18.90	-43.5	-45.3	18.3	0.00e+00	0	41	0	0	58	4487
2026-01-10 22:49:52.09	150.56	18.80	-43.4	-45.3	18.4	0.00e+00	0	41	0	0	58	4456
2026-01-10 22:49:53.09	150.71	18.70	-43.4	-45.3	18.4	0.00e+00	0	41	0	0	58	4451
2026-01-10 22:49:54.10	150.85	18.60	-43.4	-45.3	18.4	0.00e+00	0	41	0	0	58	4450
2026-01-10 22:49:55.10	150.99	18.50	-43.6	-45.4	18.2	0.00e+00	0	41	0	0	58	4542
2026-01-10 22:49:56.10	151.14	18.40	-43.5	-45.4	18.3	0.00e+00	0	41	0	0	58	4529
2026-01-10 22:49:57.11	151.28	18.30	-43.6	-45.5	18.2	0.00e+00	0	41	0	0	58	4572
2026-01-10 22:49:58.11	151.42	18.20	-43.6	-45.5	18.2	0.00e+00	0	41	0	0	58	4569
2026-01-10 22:49:59.11	151.56	18.11	-43.7	-45.7	18.0	0.00e+00	0	41	0	0	58	4665
2026-01-10 22:50:00.12	151.70	18.01	-43.7	-45.7	18.0	0.00e+00	0	41	0	0	58	4676
2026-01-10 22:50:01.12	151.83	17.91	-43.8	-45.8	17.9	0.00e+00	0	41	0	0	58	4750
2026-01-10 22:50:02.12	151.97	17.81	-43.9	-45.8	17.8	0.00e+00	0	41	0	0	58	4753
2026-01-10 22:50:03.13	152.11	17.71	-43.9	-45.9	17.8	0.00e+00	0	41	0	0	58	4782
2026-01-10 22:50:04.13	152.24	17.61	-44.0	-45.9	17.7	0.00e+00	0	41	0	0	58	4801
2026-01-10 22:50:05.13	152.38	17.52	-43.8	-45.8	17.9	0.00e+00	0	41	0	0	58	4724
2026-01-10 22:50:06.14	152.51	17.42	-43.9	-45.9	17.8	1.77e-03	0	41	0	0	58	4781
2026-01-10 22:50:07.14	152.64	17.32	-43.9	-45.8	17.8	0.00e+00	0	41	0	0	58	4756
2026-01-10 22:50:08.14	152.77	17.22	-43.9	-45.9	17.8	0.00e+00	0	41	0	0	58	4780
2026-01-10 22:50:09.15	152.91	17.13	-44.0	-46.0	17.7	4.00e-03	0	41	0	0	58	4829
2026-01-10 22:50:10.15	153.04	17.03	-44.0	-46.0	17.6	0.00e+00	0	41	0	0	58	4856
2026-01-10 22:50:11.16	153.17	16.93	-44.0	-46.0	17.6	0.00e+00	0	41	0	0	58	4857
2026-01-10 22:50:12.16	153.30	16.84	-44.1	-46.1	17.6	0.00e+00	0	41	0	0	58	4883
2026-01-10 22:50:13.16	153.42	16.74	-44.1	-46.1	17.6	0.00e+00	0	41	0	0	58	4905
2026-01-10 22:50:14.17	153.55	16.65	-44.2	-46.2	17.5	0.00e+00	0	41	0	0	59	4696
2026-01-10 22:50:15.17	153.68	16.55	-44.2	-46.2	17.5	0.00e+00	0	41	0	0	59	4686
2026-01-10 22:50:16.17	153.80	16.46	-44.1	-46.1	17.6	0.00e+00	0	41	0	0	59	4621
2026-01-10 22:50:17.18	153.93	16.36	-44.2	-46.2	17.5	0.00e+00	0	41	0	0	59	4681
2026-01-10 22:50:18.18	154.05	16.27	-44.2	-46.2	17.5	0.00e+00	0	41	0	0	59	4677
2026-01-10 22:50:19.18	154.17	16.17	-44.2	-46.2	17.5	0.00e+00	0	41	0	0	59	4670
2026-01-10 22:50:20.19	154.30	16.08	-44.1	-46.1	17.5	0.00e+00	0	41	0	0	59	4645
2026-01-10 22:50:21.19	154.42	15.99	-44.2	-46.3	17.4	0.00e+00	0	41	0	0	59	4721
2026-01-10 22:50:22.20	154.54	15.89	-44.3	-46.3	17.3	0.00e+00	0	41	0	0	59	4730
2026-01-10 22:50:23.20	154.66	15.80	-44.2	-46.3	17.4	0.00e+00	0	41	0	0	59	4711
2026-01-10 22:50:24.20	154.78	15.71	-44.2	-46.3	17.3	0.00e+00	0	41	0	0	59	4727
2026-01-10 22:50:25.21	154.90	15.61	-44.3	-46.3	17.3	0.00e+00	0	41	0	0	59	4749
2026-01-10 22:50:26.21	155.02	15.52	-44.3	-46.4	17.2	0.00e+00	0	41	0	0	59	4780
2026-01-10 22:50:27.22	155.14	15.43	-44.4	-46.5	17.1	0.00e+00	0	41	0	0	59	4859
2026-01-10 22:50:28.22	155.25	15.34	-44.3	-46.4	17.2	0.00e+00	0	41	0	0	59	4803
2026-01-10 22:50:29.22	155.37	15.24	-44.4	-46.5	17.1	0.00e+00	0	41	0	0	59	4863
2026-01-10 22:50:30.23	155.49	15.15	-44.4	-46.5	17.0	0.00e+00	0	41	0	0	59	4869
2026-01-10 22:50:31.23	155.60	15.06	-44.5	-46.6	17.0	0.00e+00	0	41	0	0	59	4892
2026-01-10 22:50:32.23	155.71	14.97	-44.6	-46.7	16.9	0.00e+00	0	41	0	0	59	4965
2026-01-10 22:50:33.24	155.83	14.88	-44.5	-46.7	16.9	0.00e+00	0	41	0	0	59	4950
2026-01-10 22:50:34.24	155.94	14.79	-44.5	-46.6	17.0	0.00e+00	0	41	0	0	59	4922
2026-01-10 22:50:35.24	156.05	14.70	-44.6	-46.8	16.9	0.00e+00	0	41	0	0	60	4728
2026-01-10 22:50:36.24	156.16	14.61	-44.5	-46.7	17.0	0.00e+00	0	41	0	0	60	4701
2026-01-10 22:50:37.25	156.27	14.52	-44.5	-46.7	17.0	0.00e+00	0	41	0	0	60	4699
2026-01-10 22:50:38.25	156.38	14.43	-44.5	-46.7	17.1	0.00e+00	0	41	0	0	60	4656
2026-01-10 22:50:39.26	156.49	14.34	-44.4	-46.5	17.2	0.00e+00	0	41	0	0	60	4591
2026-01-10 22:50:40.26	156.60	14.25	-44.3	-46.4	17.3	0.00e+00	0	41	0	0	60	4532
2026-01-10 22:50:41.26	156.71	14.16	-44.4	-46.5	17.3	0.00e+00	0	41	0	0	60	4564
2026-01-10 22:50:42.26	156.82	14.07	-44.5	-46.6	17.1	0.00e+00	0	41	0	0	60	4633
2026-01-10 22:50:43.27	156.93	13.98	-44.4	-46.6	17.2	0.00e+00	0	41	0	0	60	4602
2026-01-10 22:50:44.27	157.03	13.90	-44.5	-46.6	17.1	0.00e+00	0	41	0	0	60	4648
2026-01-10 22:50:45.28	157.14	13.81	-44.4	-46.5	17.2	0.00e+00	0	41	0	0	60	4587
2026-01-10 22:50:46.28	157.24	13.72	-44.5	-46.7	17.0	0.00e+00	0	41	0	0	60	4654
2026-01-10 22:50:47.28	157.35	13.63	-44.6	-46.7	17.0	0.00e+00	0	41	0	0	60	4663
2026-01-10 22:50:48.29	157.45	13.54	-44.7	-46.8	16.9	0.00e+00	0	41	0	0	60	4733
2026-01-10 22:50:49.29	157.56	13.46	-44.5	-46.6	17.0	0.00e+00	0	41	0	0	60	4650
2026-01-10 22:50:50.30	157.66	13.37	-44.7	-46.8	16.9	0.00e+00	0	41	0	0	60	4723
2026-01-10 22:50:51.30	157.76	13.28	-44.7	-46.8	16.8	0.00e+00	0	41	0	0	60	4739
2026-01-10 22:50:52.30	157.86	13.20	-44.7	-46.8	16.8	2.91e-02	0	41	0	0	60	4732
2026-01-10 22:50:53.31	157.96	13.11	-44.8	-47.0	16.6	0.00e+00	0	41	0	0	60	4845
2026-01-10 22:50:54.31	158.06	13.02	-44.8	-47.0	16.6	0.00e+00	0	41	0	0	60	4838
2026-01-10 22:50:55.31	158.16	12.94	-44.8	-47.0	16.7	2.24e-02	0	41	0	0	60	4816
2026-01-10 22:50:56.31	158.26	12.85	-44.9	-47.0	16.6	0.00e+00	0	41	0	0	60	4862
2026-01-10 22:50:57.32	158.36	12.77	-44.9	-47.1	16.5	0.00e+00	0	41	0	0	60	4897
2026-01-10 22:50:58.32	158.46	12.68	-44.9	-47.1	16.5	0.00e+00	0	41	0	0	60	4882
2026-01-10 22:50:59.33	158.56	12.60	-44.9	-47.0	16.6	0.00e+00	0	41	0	0	60	4869
2026-01-10 22:51:00.33	158.66	12.51	-44.9	-47.1	16.5	0.00e+00	0	41	0	0	60	4913
2026-01-10 22:51:01.33	158.75	12.43	-44.9	-47.1	16.5	0.00e+00	0	41	0	0	60	4893
2026-01-10 22:51:02.34	158.85	12.34	-44.9	-47.2	16.5	0.00e+00	0	41	0	0	60	4938
2026-01-10 22:51:03.34	158.94	12.26	-44.7	-46.9	16.7	0.00e+00	0	41	0	0	60	4795
2026-01-10 22:51:04.35	159.04	12.18	-44.7	-46.9	16.7	0.00e+00	0	41	0	0	60	4789
2026-01-10 22:51:05.35	159.13	12.09	-44.7	-46.9	16.8	0.00e+00	0	41	0	0	60	4769
2026-01-10 22:51:06.35	159.23	12.01	-44.8	-47.0	16.7	0.00e+00	0	41	0	0	60	4822
2026-01-10 22:51:07.36	159.32	11.93	-44.7	-46.9	16.8	0.00e+00	0	41	0	0	60	4779
2026-01-10 22:51:08.36	159.42	11.84	-44.9	-47.1	16.6	0.00e+00	0	41	0	0	60	4876
2026-01-10 22:51:09.36	159.51	11.76	-44.9	-47.1	13.5	0.00e+00	0	41	0	0	60	4918
2026-01-10 22:51:10.36	159.60	11.68	-44.7	-46.9	16.8	0.00e+00	0	41	0	0	60	4774
2026-01-10 22:51:11.37	159.69	11.60	-44.8	-47.0	16.6	0.00e+00	0	41	0	0	60	4862
2026-01-10 22:51:12.38	159.78	11.51	-44.8	-47.0	16.7	0.00e+00	0	41	0	0	60	4827
2026-01-10 22:51:13.38	159.87	11.43	-44.8	-47.0	16.7	0.00e+00	0	41	0	0	60	4824
2026-01-10 22:51:14.38	159.96	11.35	-44.9	-47.1	16.6	0.00e+00	0	41	0	0	60	4882
2026-01-10 22:51:15.39	160.05	11.27	-45.0	-47.2	16.4	2.04e-02	0	41	0	0	61	4675
2026-01-10 22:51:16.39	160.14	11.19	-45.1	-47.3	16.3	0.00e+00	0	41	0	0	61	4759
2026-01-10 22:51:17.39	160.23	11.11	-45.0	-47.3	16.3	0.00e+00	0	41	0	0	61	4717
2026-01-10 22:51:18.40	160.32	11.03	-44.9	-47.1	16.5	2.26e-03	0	41	0	0	61	4618
2026-01-10 22:51:19.40	160.41	10.95	-45.1	-47.4	16.2	0.00e+00	0	41	0	0	61	4760
2026-01-10 22:51:20.40	160.49	10.87	-45.2	-47.5	16.1	0.00e+00	0	41	0	0	61	4842
2026-01-10 22:51:21.41	160.58	10.78	-45.3	-47.6	16.0	0.00e+00	0	41	0	0	61	4880
2026-01-10 22:51:22.41	160.67	10.70	-45.3	-47.6	16.0	0.00e+00	0	41	0	0	61	4922
2026-01-10 22:51:23.41	160.75	10.63	-45.4	-47.8	15.8	0.00e+00	0	41	0	0	61	5001
2026-01-10 22:51:24.42	160.84	10.55	-45.5	-47.9	15.7	0.00e+00	0	41	0	0	61	5088
2026-01-10 22:51:25.42	160.92	10.47	-45.5	-47.9	15.7	0.00e+00	0	41	0	0	61	5075
2026-01-10 22:51:26.43	161.01	10.39	-45.5	-48.0	15.6	0.00e+00	0	41	0	0	61	5112
2026-01-10 22:51:27.43	161.09	10.31	-45.5	-48.0	15.6	0.00e+00	0	41	0	0	61	5112
2026-01-10 22:51:28.43	161.18	10.23	-45.7	-48.2	15.4	0.00e+00	0	41	0	0	61	5223
2026-01-10 22:51:29.44	161.26	10.15	-45.8	-48.3	15.3	0.00e+00	0	41	0	0	62	5003
2026-01-10 22:51:30.44	161.34	10.07	-45.7	-48.2	15.4	0.00e+00	0	41	0	0	62	4930
2026-01-10 22:51:31.44	161.42	9.99	-45.8	-48.3	15.3	0.00e+00	0	41	0	0	62	5013
2026-01-10 22:51:32.45	161.51	9.92	-45.8	-48.3	15.3	0.00e+00	0	41	0	0	62	5016
2026-01-10 22:51:33.45	161.59	9.84	-45.7	-48.2	15.3	0.00e+00	0	41	0	0	62	4961
2026-01-10 22:51:34.46	161.67	9.76	-45.7	-48.2	15.4	0.00e+00	0	41	0	0	62	4945
2026-01-10 22:51:35.46	161.75	9.68	-45.7	-48.2	15.3	0.00e+00	0	41	0	0	62	4945
2026-01-10 22:51:36.46	161.83	9.61	-45.8	-48.4	15.2	0.00e+00	0	41	0	0	62	5062
2026-01-10 22:51:37.46	161.91	9.53	-45.7	-48.2	15.3	0.00e+00	0	41	0	0	62	4948
2026-01-10 22:51:38.47	161.99	9.45	-45.7	-48.2	15.3	1.02e-03	0	41	0	0	62	4936
2026-01-10 22:51:39.47	162.07	9.38	-45.7	-48.1	15.4	0.00e+00	0	41	0	0	62	4909
2026-01-10 22:51:40.48	162.15	9.30	-45.7	-48.2	15.3	0.00e+00	0	41	0	0	62	4932
2026-01-10 22:51:41.48	162.23	9.22	-45.7	-48.2	15.3	1.51e-02	0	41	0	0	62	4965
2026-01-10 22:51:42.48	162.30	9.15	-45.8	-48.3	15.2	0.00e+00	0	41	0	0	62	4999
2026-01-10 22:51:43.49	162.38	9.07	-45.8	-48.2	15.2	0.00e+00	0	41	0	0	62	4981
2026-01-10 22:51:44.49	162.46	8.99	-46.0	-48.6	15.0	0.00e+00	0	41	0	0	62	5191
2026-01-10 22:51:45.50	162.54	8.92	-51.8	-64.5	3.8	1.49e+00	0	41	104	0	74	16152
2026-01-10 22:51:46.50	162.61	8.84	-51.9	-65.0	3.8	1.49e+00	0	41	104	0	74	17281
2026-01-10 22:51:47.51	162.69	8.77	-52.0	-65.2	3.8	1.49e+00	0	41	104	0	74	17613
2026-01-10 22:51:48.51	162.77	8.69	-52.1	-65.3	3.8	1.49e+00	0	41	104	0	74	17816
2026-01-10 22:51:49.51	162.84	8.62	-52.4	-65.4	3.8	1.49e+00	0	41	104	0	75	17015
2026-01-10 22:51:50.52	162.92	8.54	-52.3	-65.4	3.8	1.49e+00	0	41	104	0	75	17060
2026-01-10 22:51:51.52	162.99	8.47	-52.1	-65.5	3.8	1.49e+00	0	41	104	0	75	17122
2026-01-10 22:51:52.53	163.06	8.39	-52.4	-65.5	3.8	1.49e+00	0	41	104	0	75	17176
2026-01-10 22:51:53.53	163.14	8.32	-52.5	-65.5	3.8	1.49e+00	0	41	104	0	75	17225
2026-01-10 22:51:54.54	163.21	8.25	-52.6	-65.5	3.8	1.49e+00	0	41	104	0	75	17279
2026-01-10 22:51:55.54	163.29	8.17	-52.5	-65.6	3.8	1.49e+00	0	41	104	0	75	17290
2026-01-10 22:51:56.55	163.36	8.10	-52.6	-65.6	3.8	1.49e+00	0	41	104	0	75	17291
2026-01-10 22:51:57.55	163.43	8.03	-52.5	-65.6	3.8	1.49e+00	0	41	104	0	75	17310
2026-01-10 22:51:58.55	163.50	7.95	-52.4	-65.6	3.8	1.49e+00	0	41	104	0	75	17338
2026-01-10 22:51:59.56	163.58	7.88	-52.7	-65.6	3.8	1.49e+00	0	41	104	0	75	17305
2026-01-10 22:52:00.56	163.65	7.81	-52.6	-65.6	3.8	1.49e+00	0	41	104	0	75	17389
2026-01-10 22:52:01.57	163.72	7.73	-52.6	-65.6	3.8	1.49e+00	0	41	104	0	75	17348
2026-01-10 22:52:02.57	163.79	7.66	-52.7	-65.6	3.8	1.49e+00	0	41	104	0	75	17340
2026-01-10 22:52:03.58	163.86	7.59	-52.7	-65.6	3.8	1.49e+00	0	41	104	0	76	16445
2026-01-10 22:52:04.58	163.93	7.52	-52.7	-65.6	3.8	1.49e+00	0	41	104	0	76	16440
2026-01-10 22:52:05.58	164.00	7.45	-52.6	-65.6	3.8	1.49e+00	0	41	104	0	76	16453
2026-01-10 22:52:06.59	164.07	7.37	-52.6	-65.6	3.8	1.49e+00	0	41	104	0	76	16359
2026-01-10 22:52:07.59	164.14	7.30	-52.7	-65.6	3.8	1.49e+00	0	41	104	0	76	16413
2026-01-10 22:52:08.60	164.21	7.23	-52.6	-65.6	3.8	1.49e+00	0	41	104	0	76	16447
2026-01-10 22:52:09.60	164.27	7.16	-52.5	-65.6	3.8	1.49e+00	0	41	104	0	76	16348
2026-01-10 22:52:10.61	164.34	7.09	-52.4	-65.6	3.8	1.49e+00	0	41	104	0	76	16380
2026-01-10 22:52:11.61	164.41	7.02	-52.5	-65.6	3.8	1.49e+00	0	41	104	0	76	16325
2026-01-10 22:52:12.62	164.48	6.94	-52.5	-65.6	3.8	1.49e+00	0	41	104	0	76	16322
2026-01-10 22:52:13.62	164.55	6.87	-52.5	-65.6	3.8	1.49e+00	0	41	104	0	76	16335
2026-01-10 22:52:14.63	164.61	6.80	-52.5	-65.6	3.8	1.49e+00	0	41	104	0	76	16405
2026-01-10 22:52:15.63	164.68	6.73	-52.5	-65.6	3.8	1.49e+00	0	41	104	0	76	16333
2026-01-10 22:52:16.63	164.75	6.66	-52.5	-65.6	3.8	1.49e+00	0	41	104	0	76	16319
2026-01-10 22:52:17.64	164.81	6.59	-52.5	-65.6	3.8	1.49e+00	0	41	104	0	76	16328
2026-01-10 22:52:18.64	164.88	6.52	-52.5	-65.5	3.8	1.49e+00	0	41	104	0	76	16248
2026-01-10 22:52:19.64	164.94	6.45	-52.5	-65.5	3.8	1.49e+00	0	41	104	0	76	16284
2026-01-10 22:52:20.65	165.01	6.38	-52.5	-65.6	3.8	1.49e+00	0	41	104	0	76	16339
2026-01-10 22:52:21.66	165.07	6.31	-52.5	-65.6	3.8	1.49e+00	0	41	104	0	76	16338
2026-01-10 22:52:22.66	165.14	6.25	-52.5	-65.5	3.8	1.49e+00	0	41	104	0	76	16260
2026-01-10 22:52:23.66	165.20	6.18	-52.5	-65.5	3.8	1.49e+00	0	41	104	0	76	16231
2026-01-10 22:52:24.67	165.27	6.11	-52.5	-65.5	3.8	1.49e+00	0	41	104	0	76	16291
2026-01-10 22:52:25.67	165.33	6.04	-52.5	-65.5	3.8	1.49e+00	0	41	104	0	76	16263
2026-01-10 22:52:26.68	165.39	5.97	-52.5	-65.5	3.8	1.49e+00	0	41	104	0	76	16301
2026-01-10 22:52:27.68	165.46	5.90	-52.5	-65.5	3.8	1.49e+00	0	41	104	0	76	16265
2026-01-10 22:52:28.68	165.52	5.83	-52.5	-65.5	3.8	1.49e+00	0	41	104	0	76	16294
2026-01-10 22:52:29.69	165.58	5.76	-52.5	-65.5	3.8	1.49e+00	0	41	104	0	76	16276
2026-01-10 22:52:30.69	165.64	5.70	-52.5	-65.5	3.8	1.49e+00	0	41	104	0	76	16289
2026-01-10 22:52:31.70	165.71	5.63	-52.5	-65.5	3.8	1.49e+00	0	41	104	0	76	16291
2026-01-10 22:52:32.70	165.77	5.56	-52.5	-65.5	3.8	1.49e+00	0	41	104	0	76	16245
2026-01-10 22:52:33.71	165.83	5.49	-52.5	-65.5	3.8	1.49e+00	0	41	104	0	76	16236
2026-01-10 22:52:34.71	165.89	5.43	-52.5	-65.5	3.8	1.49e+00	0	41	104	0	76	16271
2026-01-10 22:52:35.71	165.95	5.36	-52.5	-65.5	3.8	1.49e+00	0	42	104	0	76	16274
2026-01-10 22:52:36.72	166.01	5.29	-52.5	-65.5	3.8	1.49e+00	0	41	104	0	76	16276
2026-01-10 22:52:37.72	166.07	5.22	-52.5	-65.6	3.8	1.49e+00	0	41	104	0	76	16320
2026-01-10 22:52:38.73	166.13	5.16	-52.5	-65.5	3.8	1.49e+00	0	41	104	0	76	16297
2026-01-10 22:52:39.73	166.19	5.09	-52.5	-65.5	3.8	1.49e+00	0	41	104	0	76	16279
2026-01-10 22:52:40.73	166.25	5.02	-52.4	-65.5	3.8	1.49e+00	0	42	104	0	76	16217
2026-01-10 22:52:41.74	166.31	4.96	-52.5	-65.5	3.8	1.49e+00	0	41	104	0	76	16308

#Closed at: 2026-01-10 22:52:42
#Recorded file [0 MB]: D:/Data/31040_260111_014028.dat