passes_logs/2026/01/10/T1/T1__20260110_110009_SUOMI_NPP_rec.log

#Pass ID: 20260110_110009_SUOMI NPP
#Satellite: SUOMI NPP
#Configuration: NPP
#almurnet v.1.7.20251203
#Start time: 2026-01-10 11:00:08

#Version: 2.0.20230620
#Station: T1
#Location: 37.570604 lon 55.790049 lat
#TLE: 1 37849U 11061A   26009.81756760  .00000113  00000+0  74747-4 0  9994
#TLE: 2 37849  98.7806 311.9110 0002525  72.5604 287.5848 14.19524046735974

#Time	Az	El	Level	Level2	SNR	BER	BlckErr	Temp	State	Recorded	gain1	gain2
2026-01-10 11:00:08.51	192.34	4.97	-49.8	-65.7	3.8	1.49e+00	0	40	0	0	70	23494
2026-01-10 11:00:09.51	192.40	5.04	-49.8	-65.8	3.8	1.49e+00	0	40	104	0	70	23609
2026-01-10 11:00:10.51	192.46	5.10	-49.8	-65.8	3.8	1.49e+00	0	40	104	0	70	23592
2026-01-10 11:00:11.52	192.52	5.17	-49.8	-65.7	3.8	1.49e+00	0	40	104	0	70	23399
2026-01-10 11:00:12.52	192.57	5.24	-49.8	-65.8	3.8	1.49e+00	0	40	104	0	70	23592
2026-01-10 11:00:13.52	192.63	5.30	-49.8	-65.8	3.8	1.49e+00	0	40	104	0	70	23601
2026-01-10 11:00:14.53	192.69	5.37	-49.8	-65.7	3.8	1.49e+00	0	40	104	0	70	23496
2026-01-10 11:00:15.53	192.75	5.44	-49.8	-65.7	3.8	1.49e+00	0	40	104	0	70	23436
2026-01-10 11:00:16.54	192.81	5.51	-49.8	-65.7	3.8	1.49e+00	0	40	104	0	70	23365
2026-01-10 11:00:17.54	192.87	5.58	-49.8	-65.6	3.8	1.49e+00	0	40	104	0	70	23291
2026-01-10 11:00:18.54	192.93	5.64	-49.8	-65.5	3.8	1.49e+00	0	40	104	0	70	22954
2026-01-10 11:00:19.55	192.99	5.71	-49.8	-65.5	3.8	1.49e+00	0	40	104	0	70	22808
2026-01-10 11:00:20.55	193.05	5.78	-49.8	-65.5	3.8	1.49e+00	0	40	104	0	70	22826
2026-01-10 11:00:21.55	193.11	5.85	-49.7	-65.5	3.8	1.49e+00	0	40	104	0	70	22953
2026-01-10 11:00:22.56	193.17	5.92	-49.8	-65.5	3.8	1.49e+00	0	40	104	0	70	22984
2026-01-10 11:00:23.56	193.23	5.99	-49.8	-65.6	3.8	1.49e+00	0	40	104	0	70	23100
2026-01-10 11:00:24.56	193.29	6.06	-49.8	-65.6	3.8	1.49e+00	0	41	104	0	70	23177
2026-01-10 11:00:25.57	193.35	6.13	-49.8	-65.6	3.8	1.49e+00	0	41	104	0	70	23150
2026-01-10 11:00:26.57	193.41	6.20	-49.8	-65.5	3.8	1.49e+00	0	41	104	0	70	23036
2026-01-10 11:00:27.58	193.48	6.27	-49.8	-65.4	3.8	1.49e+00	0	41	104	0	70	22721
2026-01-10 11:00:28.58	193.54	6.33	-49.7	-65.2	3.8	1.49e+00	0	41	104	0	70	22235
2026-01-10 11:00:29.58	193.60	6.40	-49.7	-65.0	3.8	1.49e+00	0	41	104	0	70	21725
2026-01-10 11:00:30.59	193.67	6.48	-49.7	-64.9	3.8	1.49e+00	0	41	104	0	70	21357
2026-01-10 11:00:31.59	193.73	6.55	-49.7	-64.7	3.8	1.49e+00	0	41	104	0	70	20964
2026-01-10 11:00:32.60	193.79	6.62	-49.7	-64.6	3.8	1.49e+00	0	41	104	0	70	20736
2026-01-10 11:00:33.60	193.86	6.69	-49.7	-64.5	3.8	1.49e+00	0	41	104	0	70	20426
2026-01-10 11:00:34.60	193.92	6.76	-49.7	-64.4	3.8	1.49e+00	0	41	104	0	70	20187
2026-01-10 11:00:35.61	193.98	6.83	-49.7	-64.4	3.8	1.49e+00	0	41	104	0	70	20150
2026-01-10 11:00:36.61	194.05	6.90	-49.7	-64.4	3.8	1.49e+00	0	41	104	0	70	20275
2026-01-10 11:00:37.61	194.11	6.97	-49.7	-64.3	3.8	1.49e+00	0	41	104	0	70	19937
2026-01-10 11:00:38.62	194.18	7.04	-49.7	-64.3	3.8	1.49e+00	0	41	104	0	70	19861
2026-01-10 11:00:39.62	194.24	7.11	-49.7	-64.2	3.8	1.49e+00	0	41	104	0	70	19761
2026-01-10 11:00:40.63	194.31	7.19	-49.7	-64.3	3.8	1.49e+00	0	41	104	0	70	19858
2026-01-10 11:00:41.63	194.38	7.26	-49.7	-64.4	3.8	1.49e+00	0	41	104	0	70	20289
2026-01-10 11:00:42.63	194.44	7.33	-49.7	-64.7	3.8	1.49e+00	0	41	104	0	70	20967
2026-01-10 11:00:43.64	194.51	7.40	-49.7	-65.3	3.8	1.49e+00	0	41	104	0	70	22372
2026-01-10 11:00:44.64	194.58	7.47	-49.8	-65.7	3.8	1.49e+00	0	41	104	0	70	23351
2026-01-10 11:00:45.65	194.65	7.55	-49.7	-65.4	3.8	1.49e+00	0	41	104	0	70	22774
2026-01-10 11:00:46.65	194.71	7.62	-49.7	-64.1	3.8	1.49e+00	0	41	104	0	70	19576
2026-01-10 11:00:47.66	194.78	7.69	-49.6	-62.0	4.2	1.49e+00	0	41	104	0	70	15256
2026-01-10 11:00:48.66	194.85	7.77	-49.3	-59.6	5.3	1.01e+00	0	41	0	1048576	70	11624
2026-01-10 11:00:49.66	194.92	7.84	-49.0	-57.5	6.8	2.35e-01	0	41	0	3145728	70	9128
2026-01-10 11:00:50.67	194.99	7.91	-48.5	-55.6	8.7	7.67e-02	0	41	0	5242880	69	7722
2026-01-10 11:00:51.67	195.06	7.99	-48.1	-54.3	10.0	1.92e-02	0	41	0	7340032	68	7121
2026-01-10 11:00:52.67	195.13	8.06	-47.5	-52.9	11.3	1.72e-03	0	41	0	8388608	67	6410
2026-01-10 11:00:53.68	195.20	8.13	-47.2	-52.2	12.1	4.41e-04	0	41	0	10485760	66	6228
2026-01-10 11:00:54.68	195.27	8.21	-46.8	-51.4	12.8	1.60e-04	0	41	0	12582912	65	6022
2026-01-10 11:00:55.68	195.34	8.28	-46.7	-51.2	13.1	3.89e-05	0	41	0	14680064	65	5862
2026-01-10 11:00:56.69	195.41	8.36	-46.7	-51.2	13.0	2.97e-05	0	41	0	15728640	65	5914
2026-01-10 11:00:57.69	195.48	8.43	-46.5	-50.8	13.4	2.05e-05	0	42	0	17825792	65	5654
2026-01-10 11:00:58.70	195.55	8.51	-46.7	-51.1	13.1	1.90e-05	0	42	0	19922944	65	5824
2026-01-10 11:00:59.70	195.63	8.58	-46.9	-51.6	12.6	8.92e-05	0	41	0	22020096	65	6198
2026-01-10 11:01:00.71	195.70	8.66	-47.2	-52.2	12.1	1.77e-04	0	41	0	24117248	65	6609
2026-01-10 11:01:01.71	195.77	8.73	-47.6	-53.0	11.2	6.48e-04	0	41	0	26214400	65	7284
2026-01-10 11:01:02.72	195.84	8.81	-47.9	-53.9	10.3	3.71e-03	0	41	0	27262976	66	7586
2026-01-10 11:01:03.72	195.92	8.89	-48.2	-54.8	9.4	1.11e-02	0	41	0	29360128	67	7942
2026-01-10 11:01:04.72	195.99	8.96	-48.4	-55.6	8.5	2.70e-02	0	42	0	31457280	67	8707
2026-01-10 11:01:05.73	196.07	9.04	-48.6	-56.5	7.7	5.64e-02	0	42	0	33554432	67	9635
2026-01-10 11:01:06.73	196.14	9.12	-47.4	-52.2	12.0	3.47e-02	0	42	0	34603008	66	6218
2026-01-10 11:01:07.73	196.22	9.19	-48.9	-56.4	8.0	1.46e-03	0	42	0	36700160	68	9052
2026-01-10 11:01:08.74	196.29	9.27	-49.2	-58.0	6.6	1.60e-01	0	42	0	38797312	69	10290
2026-01-10 11:01:09.74	196.37	9.35	-48.2	-53.7	10.5	1.10e-01	0	42	0	40894464	68	6629
2026-01-10 11:01:10.74	196.44	9.42	-49.2	-58.2	6.5	1.65e-02	0	42	0	42991616	69	10459
2026-01-10 11:01:11.74	196.52	9.50	-48.4	-54.4	9.8	4.59e-01	0	42	0	44040192	68	7173
2026-01-10 11:01:12.74	196.60	9.58	-47.3	-52.0	12.2	1.16e-03	0	42	0	46137344	66	6118
2026-01-10 11:01:13.75	196.68	9.66	-46.7	-50.8	13.5	2.21e-05	0	42	0	48234496	65	5622
2026-01-10 11:01:14.75	196.75	9.73	-46.2	-49.9	14.4	0.00e+00	0	42	0	50331648	64	5372
2026-01-10 11:01:15.75	196.83	9.81	-46.1	-49.7	14.6	7.00e-07	0	42	0	52428800	64	5276
2026-01-10 11:01:16.76	196.91	9.89	-46.1	-49.6	14.8	0.00e+00	0	42	0	53477376	63	5518
2026-01-10 11:01:17.76	196.99	9.97	-46.0	-49.5	14.9	0.00e+00	0	42	0	55574528	63	5442
2026-01-10 11:01:18.76	197.07	10.05	-46.0	-49.6	14.9	0.00e+00	0	42	0	57671680	63	5484
2026-01-10 11:01:19.76	197.15	10.13	-46.0	-49.5	14.9	0.00e+00	0	42	0	59768832	63	5463
2026-01-10 11:01:20.76	197.23	10.21	-45.9	-49.5	14.9	7.00e-07	0	42	0	61865984	63	5443
2026-01-10 11:01:21.76	197.31	10.29	-45.8	-49.3	15.0	0.00e+00	0	42	0	62914560	63	5337
2026-01-10 11:01:22.77	197.39	10.37	-45.8	-49.3	15.0	0.00e+00	0	42	0	65011712	63	5295
2026-01-10 11:01:23.77	197.47	10.45	-45.7	-49.2	15.1	0.00e+00	0	42	0	67108864	63	5226
2026-01-10 11:01:24.77	197.55	10.53	-45.7	-49.2	15.0	0.00e+00	0	42	0	69206016	63	5229
2026-01-10 11:01:25.77	197.64	10.61	-45.7	-49.1	15.2	7.00e-07	0	42	0	71303168	63	5204
2026-01-10 11:01:26.78	197.72	10.69	-45.7	-49.1	15.2	0.00e+00	0	42	0	72351744	63	5162
2026-01-10 11:01:27.77	197.80	10.77	-45.6	-49.0	15.3	0.00e+00	0	42	0	74448896	63	5116
2026-01-10 11:01:28.77	197.88	10.85	-45.7	-49.1	15.2	0.00e+00	0	42	0	76546048	63	5178
2026-01-10 11:01:29.77	197.97	10.93	-45.7	-49.1	15.2	0.00e+00	0	42	0	78643200	63	5171
2026-01-10 11:01:30.77	198.05	11.01	-45.7	-49.1	15.1	0.00e+00	0	42	0	79691776	63	5203
2026-01-10 11:01:31.78	198.14	11.09	-45.6	-49.1	15.2	0.00e+00	0	42	0	81788928	63	5172
2026-01-10 11:01:32.78	198.22	11.17	-45.7	-49.2	15.0	0.00e+00	0	42	0	83886080	63	5260
2026-01-10 11:01:33.78	198.31	11.25	-45.6	-49.1	15.1	0.00e+00	0	42	0	85983232	63	5170
2026-01-10 11:01:34.78	198.40	11.34	-45.6	-49.1	15.0	0.00e+00	0	42	0	88080384	63	5199
2026-01-10 11:01:35.78	198.48	11.42	-45.7	-49.2	14.9	0.00e+00	0	42	0	89128960	63	5244
2026-01-10 11:01:36.78	198.57	11.50	-45.6	-49.2	14.7	0.00e+00	0	42	0	91226112	63	5269
2026-01-10 11:01:37.78	198.66	11.58	-45.6	-49.2	14.6	0.00e+00	0	42	0	93323264	62	5558
2026-01-10 11:01:38.78	198.74	11.67	-45.7	-49.4	14.2	0.00e+00	0	42	0	95420416	62	5710
2026-01-10 11:01:39.78	198.83	11.75	-45.4	-49.0	14.2	0.00e+00	0	42	0	97517568	62	5463
2026-01-10 11:01:40.79	198.92	11.83	-45.4	-49.3	13.7	4.50e-06	0	42	0	98566144	62	5616
2026-01-10 11:01:41.79	199.01	11.92	-45.2	-49.1	13.5	1.06e-05	0	42	0	100663296	62	5504
2026-01-10 11:01:42.79	199.10	12.00	-45.1	-49.2	13.1	1.52e-05	0	42	0	102760448	62	5559
2026-01-10 11:01:43.79	199.19	12.09	-45.0	-49.1	13.1	2.74e-05	0	42	0	104857600	61	5843
2026-01-10 11:01:44.80	199.29	12.17	-44.9	-49.0	13.0	3.28e-05	0	42	0	106954752	61	5767
2026-01-10 11:01:45.80	199.38	12.26	-44.9	-49.1	13.2	3.05e-05	0	42	0	108003328	61	5795
2026-01-10 11:01:46.80	199.47	12.34	-44.9	-49.0	13.2	2.59e-05	0	42	0	110100480	61	5769
2026-01-10 11:01:47.81	199.56	12.43	-45.2	-49.2	13.5	1.37e-05	0	42	0	112197632	61	5856
2026-01-10 11:01:48.80	199.65	12.51	-45.3	-49.1	13.7	4.50e-06	0	42	0	114294784	61	5825
2026-01-10 11:01:49.81	199.75	12.60	-45.5	-49.2	13.9	5.30e-06	0	42	0	115343360	61	5911
2026-01-10 11:01:50.81	199.84	12.68	-45.7	-49.3	14.4	1.50e-06	0	42	0	117440512	61	5933
2026-01-10 11:01:51.81	199.94	12.77	-45.6	-49.0	15.0	0.00e+00	0	42	0	119537664	62	5412
2026-01-10 11:01:52.81	200.03	12.85	-45.7	-48.9	15.4	7.00e-07	0	42	0	121634816	62	5365
2026-01-10 11:01:53.81	200.13	12.94	-45.7	-48.9	15.5	0.00e+00	0	42	0	123731968	62	5378
2026-01-10 11:01:54.81	200.22	13.03	-45.9	-49.1	15.4	0.00e+00	0	42	0	124780544	62	5498
2026-01-10 11:01:55.82	200.32	13.12	-45.9	-49.0	15.4	0.00e+00	0	42	0	126877696	62	5462
2026-01-10 11:01:56.82	200.42	13.20	-45.9	-49.1	15.3	0.00e+00	0	42	0	128974848	62	5489
2026-01-10 11:01:57.81	200.52	13.29	-45.8	-49.0	15.4	0.00e+00	0	42	0	131072000	62	5426
2026-01-10 11:01:58.82	200.62	13.38	-45.9	-49.1	15.4	7.00e-07	0	42	0	133169152	62	5472
2026-01-10 11:01:59.82	200.72	13.47	-45.8	-49.1	15.4	0.00e+00	0	42	0	134217728	62	5476
2026-01-10 11:02:00.82	200.82	13.55	-45.8	-49.1	15.5	0.00e+00	0	42	0	136314880	62	5471
2026-01-10 11:02:01.82	200.92	13.64	-45.7	-48.9	15.6	0.00e+00	0	42	0	138412032	62	5402
2026-01-10 11:02:02.82	201.02	13.73	-45.7	-49.0	15.6	0.00e+00	0	42	0	140509184	62	5404
2026-01-10 11:02:03.81	201.12	13.82	-45.6	-48.8	15.7	0.00e+00	0	42	0	142606336	62	5321
2026-01-10 11:02:04.82	201.22	13.91	-45.5	-48.7	15.7	0.00e+00	0	42	0	143654912	62	5239
2026-01-10 11:02:05.82	201.32	14.00	-45.3	-48.5	15.8	0.00e+00	0	42	0	145752064	62	5140
2026-01-10 11:02:06.82	201.42	14.09	-45.5	-48.8	15.4	0.00e+00	0	42	0	147849216	62	5314
2026-01-10 11:02:07.82	201.53	14.18	-45.3	-48.6	15.6	0.00e+00	0	42	0	149946368	62	5189
2026-01-10 11:02:08.83	201.63	14.27	-45.3	-48.6	15.6	0.00e+00	0	42	0	152043520	62	5164
2026-01-10 11:02:09.83	201.74	14.36	-45.3	-48.5	15.8	0.00e+00	0	42	0	153092096	62	5144
2026-01-10 11:02:10.83	201.84	14.45	-45.3	-48.4	15.8	0.00e+00	0	42	0	155189248	62	5088
2026-01-10 11:02:11.83	201.95	14.54	-45.4	-48.7	15.8	0.00e+00	0	42	0	157286400	62	5235
2026-01-10 11:02:12.83	202.06	14.63	-45.5	-48.7	15.7	0.00e+00	0	42	0	159383552	62	5264
2026-01-10 11:02:13.84	202.17	14.72	-45.3	-48.5	15.9	0.00e+00	0	42	0	160432128	62	5128
2026-01-10 11:02:14.84	202.27	14.81	-45.4	-48.6	15.9	0.00e+00	0	42	0	162529280	62	5163
2026-01-10 11:02:15.84	202.38	14.91	-45.3	-48.5	16.0	0.00e+00	0	42	0	164626432	62	5118
2026-01-10 11:02:16.84	202.49	15.00	-45.4	-48.6	15.9	0.00e+00	0	42	0	166723584	62	5178
2026-01-10 11:02:17.85	202.60	15.09	-45.6	-48.8	15.8	0.00e+00	0	42	0	168820736	62	5296
2026-01-10 11:02:18.85	202.71	15.18	-45.5	-48.7	15.9	0.00e+00	0	42	0	169869312	62	5222
2026-01-10 11:02:19.85	202.83	15.28	-45.6	-48.8	15.9	0.00e+00	0	42	0	171966464	62	5281
2026-01-10 11:02:20.85	202.94	15.37	-45.5	-48.6	16.1	0.00e+00	0	42	0	174063616	62	5166
2026-01-10 11:02:21.85	203.05	15.46	-45.6	-48.6	16.0	0.00e+00	0	42	0	176160768	62	5207
2026-01-10 11:02:22.86	203.16	15.56	-45.5	-48.5	16.2	0.00e+00	0	42	0	178257920	62	5117
2026-01-10 11:02:23.86	203.28	15.65	-45.6	-48.6	16.0	0.00e+00	0	42	0	179306496	62	5189
2026-01-10 11:02:24.86	203.39	15.74	-45.8	-48.9	15.7	0.00e+00	0	42	0	181403648	62	5388
2026-01-10 11:02:25.87	203.51	15.84	-45.8	-48.8	15.8	0.00e+00	0	42	0	183500800	62	5312
2026-01-10 11:02:26.87	203.63	15.93	-45.7	-48.7	16.0	0.00e+00	0	42	0	185597952	62	5226
2026-01-10 11:02:27.87	203.74	16.03	-45.7	-48.8	15.9	0.00e+00	0	42	0	187695104	62	5287
2026-01-10 11:02:28.87	203.86	16.12	-45.7	-48.8	15.8	0.00e+00	0	42	0	188743680	62	5304
2026-01-10 11:02:29.88	203.98	16.22	-45.8	-48.8	15.8	0.00e+00	0	42	0	190840832	62	5311
2026-01-10 11:02:30.88	204.10	16.32	-45.8	-48.8	15.8	0.00e+00	0	42	0	192937984	62	5320
2026-01-10 11:02:31.88	204.22	16.41	-45.9	-49.1	15.6	0.00e+00	0	42	0	195035136	62	5473
2026-01-10 11:02:32.88	204.34	16.51	-45.9	-49.0	15.6	0.00e+00	0	42	0	197132288	62	5449
2026-01-10 11:02:33.88	204.46	16.61	-45.8	-48.8	15.8	0.00e+00	0	42	0	198180864	62	5313
2026-01-10 11:02:34.88	204.58	16.70	-45.9	-49.0	15.7	0.00e+00	0	42	0	200278016	62	5419
2026-01-10 11:02:35.89	204.71	16.80	-46.0	-49.2	15.5	0.00e+00	0	42	0	202375168	62	5565
2026-01-10 11:02:36.89	204.83	16.90	-45.9	-49.1	15.7	0.00e+00	0	42	0	204472320	62	5481
2026-01-10 11:02:37.89	204.96	16.99	-45.9	-49.1	15.6	0.00e+00	0	43	0	205520896	62	5495
2026-01-10 11:02:38.89	205.08	17.09	-45.9	-49.1	15.6	0.00e+00	0	42	0	207618048	62	5495
2026-01-10 11:02:39.89	205.21	17.19	-46.0	-49.2	15.5	0.00e+00	0	42	0	209715200	62	5562
2026-01-10 11:02:40.89	205.33	17.29	-46.1	-49.4	15.3	0.00e+00	0	42	0	211812352	62	5674
2026-01-10 11:02:41.89	205.46	17.39	-45.9	-49.1	15.6	0.00e+00	0	42	0	213909504	62	5509
2026-01-10 11:02:42.89	205.59	17.49	-45.9	-49.1	15.6	0.00e+00	0	42	0	214958080	62	5518
2026-01-10 11:02:43.89	205.72	17.59	-45.8	-48.9	15.8	0.00e+00	0	42	0	217055232	62	5350
2026-01-10 11:02:44.89	205.85	17.68	-45.9	-49.0	15.7	0.00e+00	0	42	0	219152384	62	5430
2026-01-10 11:02:45.89	205.98	17.78	-45.9	-49.0	15.7	0.00e+00	0	42	0	221249536	62	5456
2026-01-10 11:02:46.89	206.11	17.88	-45.8	-48.8	15.9	0.00e+00	0	42	0	223346688	62	5321
2026-01-10 11:02:47.89	206.24	17.98	-45.7	-48.8	15.9	0.00e+00	0	42	0	224395264	62	5310
2026-01-10 11:02:48.89	206.38	18.08	-45.7	-48.7	16.0	0.00e+00	0	42	0	226492416	62	5258
2026-01-10 11:02:49.90	206.51	18.19	-45.7	-48.7	16.0	0.00e+00	0	42	0	228589568	62	5243
2026-01-10 11:02:50.90	206.65	18.29	-45.6	-48.6	16.1	0.00e+00	0	43	0	230686720	62	5176
2026-01-10 11:02:51.90	206.78	18.39	-45.6	-48.6	16.1	0.00e+00	0	42	0	231735296	62	5200
2026-01-10 11:02:52.90	206.92	18.49	-45.8	-48.8	15.9	0.00e+00	0	42	0	233832448	62	5332
2026-01-10 11:02:53.91	207.06	18.59	-45.7	-48.7	16.0	0.00e+00	0	43	0	235929600	62	5236
2026-01-10 11:02:54.91	207.20	18.69	-45.8	-48.9	15.8	0.00e+00	0	42	0	238026752	62	5382
2026-01-10 11:02:55.91	207.34	18.80	-45.8	-48.9	15.8	0.00e+00	0	42	0	240123904	62	5384
2026-01-10 11:02:56.92	207.48	18.90	-46.0	-49.2	15.6	0.00e+00	0	42	0	242221056	62	5559
2026-01-10 11:02:57.92	207.62	19.00	-46.1	-49.3	15.4	0.00e+00	0	42	0	243269632	62	5628
2026-01-10 11:02:58.92	207.77	19.11	-46.3	-49.7	15.1	0.00e+00	0	42	0	245366784	63	5537
2026-01-10 11:02:59.92	207.91	19.21	-46.2	-49.5	15.2	0.00e+00	0	42	0	247463936	63	5426
2026-01-10 11:03:00.91	208.05	19.31	-46.2	-49.5	15.3	0.00e+00	0	42	0	249561088	63	5412
2026-01-10 11:03:01.92	208.20	19.42	-46.3	-49.6	15.1	0.00e+00	0	42	0	250609664	63	5494
2026-01-10 11:03:02.92	208.34	19.52	-46.3	-49.6	15.2	0.00e+00	0	42	0	252706816	63	5473
2026-01-10 11:03:03.92	208.49	19.62	-46.2	-49.4	15.3	0.00e+00	0	42	0	254803968	63	5365
2026-01-10 11:03:04.93	208.64	19.73	-46.2	-49.4	15.3	0.00e+00	0	42	0	256901120	63	5396
2026-01-10 11:03:05.93	208.79	19.83	-46.3	-49.6	15.2	0.00e+00	0	42	0	258998272	63	5469
2026-01-10 11:03:06.93	208.94	19.94	-46.1	-49.2	15.5	0.00e+00	0	42	0	260046848	63	5236
2026-01-10 11:03:07.93	209.09	20.05	-46.2	-49.3	15.4	0.00e+00	0	42	0	262144000	63	5333
2026-01-10 11:03:08.93	209.24	20.15	-46.2	-49.4	15.4	0.00e+00	0	42	0	264241152	63	5346
2026-01-10 11:03:09.93	209.40	20.26	-46.0	-49.1	15.7	0.00e+00	0	42	0	266338304	63	5171
2026-01-10 11:03:10.93	209.55	20.36	-46.0	-49.1	15.6	0.00e+00	0	42	0	268435456	63	5185
2026-01-10 11:03:11.93	209.71	20.47	-45.9	-49.0	15.7	0.00e+00	0	42	0	269484032	63	5130
2026-01-10 11:03:12.94	209.86	20.58	-45.9	-49.0	15.7	0.00e+00	0	42	0	271581184	63	5141
2026-01-10 11:03:13.93	210.02	20.68	-45.9	-49.0	15.7	0.00e+00	0	42	0	273678336	63	5129
2026-01-10 11:03:14.94	210.18	20.79	-45.9	-49.0	15.7	0.00e+00	0	42	0	275775488	63	5114
2026-01-10 11:03:15.93	210.34	20.90	-45.9	-49.0	15.8	0.00e+00	0	42	0	276824064	63	5131
2026-01-10 11:03:16.93	210.50	21.00	-46.0	-49.1	15.7	0.00e+00	0	42	0	278921216	63	5188
2026-01-10 11:03:17.93	210.66	21.11	-46.1	-49.3	15.4	0.00e+00	0	43	0	281018368	63	5308
2026-01-10 11:03:18.93	210.82	21.22	-46.1	-49.4	15.4	0.00e+00	0	42	0	283115520	63	5343
2026-01-10 11:03:19.93	210.99	21.33	-46.1	-49.3	15.5	0.00e+00	0	42	0	285212672	63	5309
2026-01-10 11:03:20.94	211.15	21.44	-46.1	-49.3	15.4	0.00e+00	0	42	0	286261248	63	5310
2026-01-10 11:03:21.94	211.32	21.55	-46.2	-49.4	15.3	0.00e+00	0	42	0	288358400	63	5385
2026-01-10 11:03:22.94	211.49	21.65	-46.4	-49.8	15.0	0.00e+00	0	42	0	290455552	63	5643
2026-01-10 11:03:23.95	211.66	21.77	-46.4	-49.7	15.0	0.00e+00	0	42	0	292552704	63	5577
2026-01-10 11:03:24.95	211.83	21.87	-46.4	-49.7	15.1	0.00e+00	0	42	0	294649856	63	5536
2026-01-10 11:03:25.95	212.00	21.98	-46.3	-49.6	15.1	0.00e+00	0	42	0	295698432	63	5515
2026-01-10 11:03:26.95	212.17	22.09	-46.2	-49.4	15.3	0.00e+00	0	42	0	297795584	63	5398
2026-01-10 11:03:27.95	212.34	22.20	-46.2	-49.4	15.4	0.00e+00	0	42	0	299892736	63	5355
2026-01-10 11:03:28.96	212.52	22.31	-46.0	-49.2	15.6	0.00e+00	0	42	0	301989888	63	5231
2026-01-10 11:03:29.96	212.69	22.43	-45.9	-48.9	15.9	0.00e+00	0	42	0	304087040	63	5092
2026-01-10 11:03:30.96	212.87	22.54	-45.7	-48.7	16.0	0.00e+00	0	43	0	305135616	63	4980
2026-01-10 11:03:31.97	213.05	22.65	-45.7	-48.6	16.1	0.00e+00	0	42	0	307232768	63	4918
2026-01-10 11:03:32.97	213.23	22.76	-45.7	-48.6	16.1	0.00e+00	0	43	0	309329920	63	4915
2026-01-10 11:03:33.97	213.41	22.87	-45.7	-48.7	16.0	0.00e+00	0	42	0	311427072	63	4960
2026-01-10 11:03:34.97	213.59	22.98	-45.8	-48.8	16.0	0.00e+00	0	43	0	313524224	63	5000
2026-01-10 11:03:35.97	213.78	23.09	-45.9	-48.9	15.8	0.00e+00	0	42	0	314572800	63	5093
2026-01-10 11:03:36.97	213.96	23.20	-45.9	-49.0	15.7	0.00e+00	0	43	0	316669952	63	5136
2026-01-10 11:03:37.98	214.15	23.32	-46.1	-49.2	15.6	0.00e+00	0	43	0	318767104	63	5250
2026-01-10 11:03:38.98	214.33	23.43	-45.9	-48.9	15.8	0.00e+00	0	42	0	320864256	63	5098
2026-01-10 11:03:39.98	214.52	23.54	-45.7	-48.7	16.0	0.00e+00	0	42	0	321912832	63	4968
2026-01-10 11:03:40.98	214.71	23.65	-45.7	-48.6	16.1	0.00e+00	0	42	0	324009984	63	4919
2026-01-10 11:03:41.98	214.90	23.77	-45.6	-48.5	16.2	0.00e+00	0	43	0	326107136	63	4867
2026-01-10 11:03:42.97	215.09	23.88	-45.5	-48.4	16.3	0.00e+00	0	43	0	328204288	63	4807
2026-01-10 11:03:43.97	215.29	23.99	-45.3	-48.1	16.6	0.00e+00	0	43	0	330301440	62	4900
2026-01-10 11:03:44.97	215.48	24.11	-45.3	-48.0	16.7	0.00e+00	0	43	0	331350016	62	4868
2026-01-10 11:03:45.97	215.68	24.22	-45.4	-48.3	16.4	0.00e+00	0	43	0	333447168	62	5002
2026-01-10 11:03:46.97	215.88	24.33	-45.3	-48.1	16.6	0.00e+00	0	43	0	335544320	62	4918
2026-01-10 11:03:47.98	216.08	24.45	-45.5	-48.4	16.3	0.00e+00	0	42	0	337641472	62	5063
2026-01-10 11:03:48.98	216.28	24.56	-45.7	-48.7	16.1	0.00e+00	0	43	0	339738624	62	5254
2026-01-10 11:03:49.98	216.48	24.67	-45.8	-48.8	16.0	0.00e+00	0	43	0	340787200	62	5320
2026-01-10 11:03:50.98	216.68	24.79	-45.8	-48.9	15.8	0.00e+00	0	43	0	342884352	62	5399
2026-01-10 11:03:51.98	216.89	24.90	-45.8	-48.9	15.8	0.00e+00	0	43	0	344981504	62	5390
2026-01-10 11:03:52.98	217.09	25.02	-45.9	-49.0	15.8	0.00e+00	0	43	0	347078656	62	5457
2026-01-10 11:03:53.98	217.30	25.13	-45.9	-49.1	15.8	0.00e+00	0	43	0	349175808	62	5472
2026-01-10 11:03:54.98	217.51	25.25	-45.6	-48.6	16.2	0.00e+00	0	43	0	350224384	62	5175
2026-01-10 11:03:55.99	217.72	25.36	-45.6	-48.5	16.3	0.00e+00	0	43	0	352321536	62	5147
2026-01-10 11:03:56.99	217.94	25.48	-45.5	-48.3	16.4	0.00e+00	0	42	0	354418688	62	5033
2026-01-10 11:03:57.99	218.15	25.59	-45.4	-48.2	16.5	0.00e+00	0	42	0	356515840	62	4981
2026-01-10 11:03:58.99	218.37	25.71	-45.4	-48.2	16.5	0.00e+00	0	43	0	357564416	62	4978
2026-01-10 11:03:59.99	218.58	25.82	-45.7	-48.6	16.2	0.00e+00	0	43	0	359661568	62	5172
2026-01-10 11:04:00.99	218.80	25.93	-45.6	-48.5	16.2	0.00e+00	0	43	0	361758720	62	5150
2026-01-10 11:04:02.00	219.02	26.05	-45.5	-48.3	16.4	0.00e+00	0	43	0	363855872	62	5030
2026-01-10 11:04:03.00	219.24	26.17	-45.6	-48.5	16.2	0.00e+00	0	43	0	365953024	62	5145
2026-01-10 11:04:04.00	219.47	26.28	-45.7	-48.6	16.1	0.00e+00	0	43	0	367001600	62	5189
2026-01-10 11:04:05.00	219.69	26.40	-45.7	-48.6	16.2	0.00e+00	0	43	0	369098752	62	5171
2026-01-10 11:04:06.01	219.92	26.51	-45.6	-48.5	16.3	0.00e+00	0	42	0	371195904	62	5113
2026-01-10 11:04:07.01	220.15	26.63	-45.7	-48.7	16.1	0.00e+00	0	43	0	373293056	62	5219
2026-01-10 11:04:08.01	220.38	26.74	-45.5	-48.4	16.4	0.00e+00	0	43	0	375390208	62	5057
2026-01-10 11:04:09.01	220.61	26.86	-45.5	-48.4	16.4	0.00e+00	0	43	0	376438784	62	5052
2026-01-10 11:04:10.01	220.84	26.97	-45.6	-48.4	16.4	0.00e+00	0	43	0	378535936	62	5093
2026-01-10 11:04:11.01	221.08	27.09	-45.6	-48.4	16.4	0.00e+00	0	42	0	380633088	62	5086
2026-01-10 11:04:12.01	221.31	27.20	-45.5	-48.4	16.4	0.00e+00	0	43	0	382730240	62	5077
2026-01-10 11:04:13.01	221.55	27.32	-45.5	-48.4	16.4	0.00e+00	0	43	0	384827392	62	5050
2026-01-10 11:04:14.01	221.79	27.43	-45.4	-48.2	16.6	0.00e+00	0	43	0	385875968	62	4968
2026-01-10 11:04:15.02	222.03	27.55	-45.2	-48.0	16.7	0.00e+00	0	43	0	387973120	62	4845
2026-01-10 11:04:16.02	222.28	27.66	-45.1	-47.9	16.9	0.00e+00	0	43	0	390070272	62	4770
2026-01-10 11:04:17.02	222.52	27.78	-45.1	-47.8	17.0	0.00e+00	0	43	0	392167424	62	4737
2026-01-10 11:04:18.02	222.77	27.89	-45.3	-48.1	16.8	0.00e+00	0	43	0	394264576	62	4872
2026-01-10 11:04:19.02	223.02	28.01	-45.1	-47.9	16.9	0.00e+00	0	43	0	395313152	62	4770
2026-01-10 11:04:20.02	223.26	28.12	-45.5	-48.4	16.5	0.00e+00	0	43	0	397410304	62	5057
2026-01-10 11:04:21.02	223.52	28.24	-45.5	-48.4	16.4	0.00e+00	0	43	0	399507456	62	5067
2026-01-10 11:04:22.03	223.77	28.35	-45.6	-48.4	16.3	0.00e+00	0	43	0	401604608	62	5098
2026-01-10 11:04:23.02	224.02	28.47	-45.8	-48.7	16.1	0.00e+00	0	43	0	402653184	62	5245
2026-01-10 11:04:24.03	224.28	28.58	-45.6	-48.5	16.3	0.00e+00	0	43	0	404750336	62	5134
2026-01-10 11:04:25.02	224.54	28.69	-45.7	-48.7	16.2	0.00e+00	0	43	0	406847488	62	5227
2026-01-10 11:04:26.03	224.80	28.81	-45.8	-48.8	16.0	0.00e+00	0	43	0	408944640	62	5309
2026-01-10 11:04:27.03	225.07	28.92	-45.9	-48.9	16.0	0.00e+00	0	43	0	411041792	62	5369
2026-01-10 11:04:28.03	225.33	29.04	-45.9	-48.8	16.0	0.00e+00	0	43	0	412090368	62	5333
2026-01-10 11:04:29.03	225.60	29.15	-46.0	-48.9	15.9	0.00e+00	0	43	0	414187520	62	5401
2026-01-10 11:04:30.03	225.86	29.26	-46.0	-49.0	15.9	0.00e+00	0	43	0	416284672	63	5124
2026-01-10 11:04:31.03	226.13	29.38	-46.1	-49.2	15.7	0.00e+00	0	43	0	418381824	63	5246
2026-01-10 11:04:32.04	226.41	29.49	-46.5	-49.7	15.2	0.00e+00	0	43	0	420478976	63	5571
2026-01-10 11:04:33.04	226.68	29.60	-47.2	-50.5	14.9	7.00e-07	0	43	0	421527552	64	5759
2026-01-10 11:04:34.04	226.96	29.71	-46.6	-49.9	14.9	0.00e+00	0	43	0	423624704	64	5358
2026-01-10 11:04:35.05	227.24	29.83	-46.5	-49.8	15.0	0.00e+00	0	43	0	425721856	64	5303
2026-01-10 11:04:36.05	227.52	29.94	-46.4	-49.7	15.1	0.00e+00	0	43	0	427819008	64	5227
2026-01-10 11:04:37.05	227.80	30.05	-46.4	-49.7	15.1	0.00e+00	0	43	0	429916160	64	5225
2026-01-10 11:04:38.06	228.08	30.16	-46.5	-49.8	15.1	0.00e+00	0	43	0	430964736	64	5303
2026-01-10 11:04:39.06	228.37	30.27	-46.6	-50.0	14.8	0.00e+00	0	43	0	433061888	64	5456
2026-01-10 11:04:40.06	228.65	30.38	-47.0	-50.6	14.2	7.00e-07	0	43	0	435159040	64	5830
2026-01-10 11:04:41.06	228.94	30.49	-47.1	-50.8	14.1	0.00e+00	0	43	0	437256192	64	5964
2026-01-10 11:04:42.07	229.24	30.60	-47.6	-51.5	13.4	7.60e-06	0	43	0	439353344	65	6101
2026-01-10 11:04:43.07	229.53	30.71	-47.7	-51.7	13.2	1.90e-05	0	43	0	440401920	65	6251
2026-01-10 11:04:44.07	229.82	30.82	-47.7	-51.8	13.1	2.13e-05	0	43	0	442499072	66	5946
2026-01-10 11:04:45.07	230.12	30.93	-47.9	-52.2	12.7	4.65e-05	0	43	0	444596224	66	6247
2026-01-10 11:04:46.07	230.42	31.04	-48.0	-52.4	12.5	1.49e-04	0	43	0	446693376	66	6365
2026-01-10 11:04:47.07	230.72	31.14	-47.8	-52.0	12.7	8.85e-05	0	43	0	447741952	66	6123
2026-01-10 11:04:48.07	231.02	31.25	-47.8	-52.0	12.8	3.66e-05	0	43	0	449839104	66	6109
2026-01-10 11:04:49.07	231.32	31.36	-47.7	-51.9	12.9	3.28e-05	0	43	0	451936256	66	6048
2026-01-10 11:04:50.07	231.63	31.46	-47.9	-52.4	12.5	9.30e-05	0	43	0	454033408	66	6350
2026-01-10 11:04:51.07	231.94	31.57	-48.3	-53.1	11.8	2.94e-04	0	43	0	456130560	67	6531
2026-01-10 11:04:52.07	232.25	31.67	-48.4	-53.3	11.6	4.49e-04	0	43	0	457179136	67	6674
2026-01-10 11:04:53.07	232.56	31.78	-48.5	-53.4	11.4	7.14e-04	0	43	0	459276288	67	6784
2026-01-10 11:04:54.07	232.87	31.88	-48.1	-52.4	12.5	3.14e-04	0	43	0	461373440	67	6035
2026-01-10 11:04:55.07	233.19	31.99	-47.9	-52.0	12.8	8.54e-05	0	43	0	463470592	67	5787
2026-01-10 11:04:56.07	233.51	32.09	-47.8	-51.8	13.0	2.97e-05	0	43	0	465567744	67	5639
2026-01-10 11:04:57.06	233.83	32.19	-47.8	-51.9	13.1	4.50e-05	0	43	0	466616320	67	5657
2026-01-10 11:04:58.07	234.15	32.29	-47.8	-52.0	13.0	4.11e-05	0	43	0	468713472	67	5724
2026-01-10 11:04:59.07	234.47	32.39	-48.1	-52.3	12.6	1.04e-04	0	43	0	470810624	67	5984
2026-01-10 11:05:00.07	234.80	32.49	-48.1	-52.3	12.6	6.56e-05	0	43	0	472907776	67	5984
2026-01-10 11:05:01.07	235.13	32.59	-48.5	-53.2	11.7	1.77e-04	0	43	0	475004928	67	6592
2026-01-10 11:05:02.07	235.46	32.69	-48.3	-52.9	12.0	2.81e-04	0	43	0	476053504	67	6378
2026-01-10 11:05:03.07	235.79	32.79	-48.6	-53.5	11.5	5.00e-04	0	43	0	478150656	67	6869
2026-01-10 11:05:04.07	236.12	32.89	-48.4	-53.3	11.6	9.77e-04	0	43	0	480247808	67	6681
2026-01-10 11:05:05.08	236.46	32.98	-48.4	-53.3	11.6	7.67e-04	0	43	0	482344960	67	6674
2026-01-10 11:05:06.08	236.80	33.08	-48.2	-52.6	12.2	2.70e-04	0	43	0	483393536	67	6187
2026-01-10 11:05:07.08	237.14	33.18	-48.2	-52.6	12.4	2.04e-04	0	43	0	485490688	67	6158
2026-01-10 11:05:08.08	237.48	33.27	-48.2	-52.5	12.4	9.38e-05	0	43	0	487587840	67	6082
2026-01-10 11:05:09.08	237.82	33.36	-47.9	-52.0	12.9	6.25e-05	0	43	0	489684992	67	5732
2026-01-10 11:05:10.08	238.17	33.46	-47.8	-51.8	13.0	5.03e-05	0	43	0	491782144	67	5640
2026-01-10 11:05:11.08	238.52	33.55	-48.4	-52.9	12.1	1.07e-04	0	43	0	492830720	67	6400
2026-01-10 11:05:12.09	238.87	33.64	-48.5	-53.2	11.8	2.90e-04	0	43	0	494927872	67	6580
2026-01-10 11:05:13.09	239.22	33.73	-48.3	-52.8	12.2	6.11e-04	0	43	0	497025024	67	6285
2026-01-10 11:05:14.09	239.57	33.82	-47.8	-51.9	13.0	5.87e-05	0	43	0	499122176	67	5696
2026-01-10 11:05:15.09	239.93	33.90	-47.3	-51.0	13.8	7.60e-06	0	43	0	501219328	66	5457
2026-01-10 11:05:16.10	240.29	33.99	-46.7	-50.0	14.9	7.00e-07	0	43	0	502267904	65	5150
2026-01-10 11:05:17.10	240.65	34.08	-46.4	-49.6	15.4	7.00e-07	0	43	0	504365056	64	5193
2026-01-10 11:05:18.11	241.01	34.16	-46.6	-49.8	15.1	0.00e+00	0	43	0	506462208	64	5328
2026-01-10 11:05:19.11	241.38	34.25	-47.2	-50.8	14.2	7.00e-07	0	43	0	508559360	65	5609
2026-01-10 11:05:20.11	241.74	34.33	-47.9	-52.0	13.1	6.80e-06	0	43	0	510656512	66	6076
2026-01-10 11:05:21.11	242.11	34.41	-48.1	-52.3	12.7	4.50e-05	0	43	0	511705088	66	6320
2026-01-10 11:05:22.11	242.47	34.49	-47.7	-51.7	13.3	1.29e-05	0	43	0	513802240	66	5902
2026-01-10 11:05:23.11	242.84	34.57	-47.4	-51.0	13.8	1.06e-05	0	43	0	515899392	66	5464
2026-01-10 11:05:24.11	243.22	34.65	-47.0	-50.5	14.5	7.00e-07	0	43	0	517996544	65	5426
2026-01-10 11:05:25.11	243.59	34.73	-46.6	-49.9	15.1	0.00e+00	0	43	0	519045120	65	5043
2026-01-10 11:05:26.11	243.96	34.81	-46.2	-49.3	15.7	0.00e+00	0	43	0	521142272	64	4992
2026-01-10 11:05:27.11	244.34	34.88	-45.9	-48.9	16.2	0.00e+00	0	43	0	523239424	63	5062
2026-01-10 11:05:28.11	244.72	34.96	-45.8	-48.7	16.3	0.00e+00	0	43	0	525336576	63	4947
2026-01-10 11:05:29.11	245.10	35.03	-46.0	-48.9	16.1	0.00e+00	0	43	0	527433728	63	5089
2026-01-10 11:05:30.11	245.48	35.10	-46.4	-49.6	15.5	0.00e+00	0	43	0	528482304	63	5482
2026-01-10 11:05:31.11	245.86	35.17	-46.7	-50.0	15.0	0.00e+00	0	43	0	530579456	64	5427
2026-01-10 11:05:32.11	246.25	35.24	-46.8	-50.1	14.9	7.00e-07	0	43	0	532676608	64	5518
2026-01-10 11:05:33.11	246.64	35.31	-46.5	-49.7	15.3	0.00e+00	0	43	0	534773760	64	5260
2026-01-10 11:05:34.12	247.03	35.37	-46.1	-49.2	15.8	0.00e+00	0	43	0	536870912	64	4941
2026-01-10 11:05:35.12	247.42	35.44	-45.7	-48.6	16.4	0.00e+00	0	43	0	537919488	63	4895
2026-01-10 11:05:36.12	247.81	35.50	-45.7	-48.6	16.5	0.00e+00	0	43	0	540016640	63	4880
2026-01-10 11:05:37.12	248.20	35.56	-46.1	-49.1	16.0	0.00e+00	0	43	0	542113792	63	5193
2026-01-10 11:05:38.12	248.59	35.63	-46.5	-49.7	15.5	0.00e+00	0	43	0	544210944	63	5554
2026-01-10 11:05:39.13	248.99	35.69	-46.4	-49.5	15.6	0.00e+00	0	43	0	546308096	63	5432
2026-01-10 11:05:40.13	249.39	35.74	-46.1	-49.0	16.1	0.00e+00	0	43	0	547356672	63	5133
2026-01-10 11:05:41.13	249.79	35.80	-46.0	-48.9	16.2	0.00e+00	0	43	0	549453824	63	5056
2026-01-10 11:05:42.13	250.19	35.86	-46.0	-49.0	16.2	0.00e+00	0	43	0	551550976	63	5104
2026-01-10 11:05:43.14	250.59	35.91	-46.2	-49.3	15.9	0.00e+00	0	43	0	553648128	63	5281
2026-01-10 11:05:44.14	251.00	35.96	-46.5	-49.6	15.5	0.00e+00	0	43	0	554696704	63	5494
2026-01-10 11:05:45.14	251.40	36.01	-46.4	-49.6	15.6	0.00e+00	0	43	0	556793856	63	5474
2026-01-10 11:05:46.14	251.80	36.06	-46.4	-49.4	15.8	0.00e+00	0	43	0	558891008	63	5366
2026-01-10 11:05:47.15	252.21	36.11	-46.3	-49.3	15.8	0.00e+00	0	43	0	560988160	63	5323
2026-01-10 11:05:48.15	252.62	36.16	-46.6	-49.8	15.3	0.00e+00	0	43	0	563085312	63	5648
2026-01-10 11:05:49.15	253.03	36.20	-47.1	-50.6	14.6	0.00e+00	0	43	0	564133888	64	5818
2026-01-10 11:05:50.15	253.44	36.25	-47.3	-50.8	14.4	0.00e+00	0	43	0	566231040	65	5635
2026-01-10 11:05:51.16	253.85	36.29	-47.2	-50.6	14.6	1.50e-06	0	43	0	568328192	65	5511
2026-01-10 11:05:52.16	254.26	36.33	-46.7	-49.9	15.3	7.00e-07	0	43	0	570425344	65	5074
2026-01-10 11:05:53.16	254.68	36.37	-46.6	-49.8	15.4	0.00e+00	0	43	0	572522496	65	4995
2026-01-10 11:05:54.16	255.09	36.41	-46.5	-49.6	15.6	0.00e+00	0	43	0	573571072	64	5179
2026-01-10 11:05:55.16	255.50	36.44	-46.3	-49.3	15.8	0.00e+00	0	43	0	575668224	64	5031
2026-01-10 11:05:56.16	255.92	36.47	-46.2	-49.1	16.0	0.00e+00	0	43	0	577765376	64	4912
2026-01-10 11:05:57.16	256.34	36.51	-46.2	-49.1	16.1	0.00e+00	0	43	0	579862528	63	5190
2026-01-10 11:05:58.16	256.75	36.54	-46.4	-49.4	15.8	0.00e+00	0	43	0	581959680	63	5400
2026-01-10 11:05:59.16	257.17	36.57	-46.6	-49.8	15.5	0.00e+00	0	43	0	583008256	64	5281
2026-01-10 11:06:00.16	257.59	36.59	-47.0	-50.4	14.9	0.00e+00	0	43	0	585105408	64	5665
2026-01-10 11:06:01.16	258.01	36.62	-47.2	-50.7	14.6	0.00e+00	0	43	0	587202560	65	5567
2026-01-10 11:06:02.17	258.43	36.64	-47.4	-51.1	14.3	1.50e-06	0	43	0	589299712	65	5810
2026-01-10 11:06:03.17	258.85	36.67	-47.4	-51.0	14.4	1.50e-06	0	43	0	591396864	65	5753
2026-01-10 11:06:04.17	259.27	36.69	-46.9	-50.1	15.1	0.00e+00	0	43	0	592445440	65	5178
2026-01-10 11:06:05.17	259.69	36.71	-46.9	-50.2	15.1	0.00e+00	0	43	0	594542592	65	5262
2026-01-10 11:06:06.17	260.11	36.72	-47.0	-50.4	15.0	0.00e+00	0	43	0	596639744	65	5354
2026-01-10 11:06:07.17	260.53	36.74	-47.1	-50.6	14.8	0.00e+00	0	43	0	598736896	65	5465
2026-01-10 11:06:08.17	260.96	36.75	-47.0	-50.4	14.9	0.00e+00	0	43	0	599785472	65	5380
2026-01-10 11:06:09.18	261.38	36.76	-47.1	-50.5	14.9	0.00e+00	0	43	0	601882624	65	5413
2026-01-10 11:06:10.18	261.81	36.77	-47.3	-50.8	14.5	0.00e+00	0	43	0	603979776	65	5656
2026-01-10 11:06:11.17	262.22	36.78	-47.3	-50.8	14.5	7.00e-07	0	43	0	606076928	65	5598
2026-01-10 11:06:12.18	262.65	36.79	-47.2	-50.7	14.6	1.50e-06	0	43	0	608174080	65	5562
2026-01-10 11:06:13.18	263.08	36.79	-47.3	-50.8	14.6	7.00e-07	0	43	0	609222656	65	5641
2026-01-10 11:06:14.18	263.50	36.80	-47.2	-50.7	14.7	0.00e+00	0	43	0	611319808	65	5531
2026-01-10 11:06:15.18	263.92	36.80	-47.3	-50.8	14.6	0.00e+00	0	43	0	613416960	65	5629
2026-01-10 11:06:16.18	264.35	36.80	-47.4	-50.8	14.6	7.00e-07	0	43	0	615514112	65	5644
2026-01-10 11:06:17.18	264.77	36.80	-46.9	-50.1	15.3	0.00e+00	0	43	0	617611264	65	5195
2026-01-10 11:06:18.19	265.20	36.79	-47.2	-50.5	15.0	0.00e+00	0	43	0	618659840	65	5433
2026-01-10 11:06:19.19	265.62	36.79	-47.3	-50.7	14.8	0.00e+00	0	43	0	620756992	66	5265
2026-01-10 11:06:20.19	266.04	36.78	-47.3	-50.7	14.7	0.00e+00	0	43	0	622854144	66	5247
2026-01-10 11:06:21.19	266.47	36.77	-47.4	-50.9	14.5	0.00e+00	0	43	0	624951296	66	5357
2026-01-10 11:06:22.19	266.89	36.76	-47.3	-50.6	14.9	0.00e+00	0	43	0	627048448	66	5195
2026-01-10 11:06:23.20	267.32	36.75	-47.6	-51.1	14.5	0.00e+00	0	43	0	628097024	66	5492
2026-01-10 11:06:24.20	267.74	36.74	-47.8	-51.6	13.9	3.00e-06	0	43	0	630194176	66	5800
2026-01-10 11:06:25.20	268.16	36.72	-48.0	-51.9	13.7	7.00e-07	0	43	0	632291328	66	6025
2026-01-10 11:06:26.20	268.58	36.71	-47.9	-51.7	13.8	3.80e-06	0	43	0	634388480	66	5868
2026-01-10 11:06:27.20	269.00	36.69	-47.6	-51.3	14.3	7.60e-06	0	43	0	635437056	66	5627
2026-01-10 11:06:28.20	269.42	36.67	-47.3	-50.8	14.7	0.00e+00	0	43	0	637534208	66	5287
2026-01-10 11:06:29.20	269.84	36.64	-47.3	-50.7	14.8	0.00e+00	0	43	0	639631360	66	5277
2026-01-10 11:06:30.20	270.26	36.62	-47.1	-50.5	15.0	7.00e-07	0	43	0	641728512	66	5112
2026-01-10 11:06:31.21	270.68	36.59	-47.2	-50.5	15.0	0.00e+00	0	43	0	643825664	66	5134
2026-01-10 11:06:32.20	271.10	36.57	-47.1	-50.5	15.1	0.00e+00	0	43	0	644874240	66	5107
2026-01-10 11:06:33.20	271.51	36.54	-47.6	-51.3	14.4	0.00e+00	0	43	0	646971392	66	5604
2026-01-10 11:06:34.20	271.93	36.51	-48.4	-52.5	13.0	6.80e-06	0	43	0	649068544	67	6110
2026-01-10 11:06:35.20	272.34	36.48	-49.1	-53.8	12.0	1.33e-04	0	43	0	651165696	68	6672
2026-01-10 11:06:36.20	272.76	36.44	-49.2	-53.8	12.1	2.74e-04	0	43	0	653262848	68	6690
2026-01-10 11:06:37.20	273.17	36.41	-48.4	-52.3	13.4	4.57e-05	0	43	0	654311424	68	5647
2026-01-10 11:06:38.21	273.59	36.37	-48.4	-52.3	13.5	9.90e-06	0	43	0	656408576	68	5614
2026-01-10 11:06:39.21	274.00	36.33	-48.5	-52.6	13.2	1.44e-05	0	43	0	658505728	68	5826
2026-01-10 11:06:40.21	274.41	36.29	-48.5	-52.5	13.3	2.97e-05	0	43	0	660602880	68	5724
2026-01-10 11:06:41.21	274.82	36.25	-48.3	-52.1	13.6	1.22e-05	0	43	0	662700032	68	5501
2026-01-10 11:06:42.21	275.23	36.21	-47.7	-51.1	14.5	7.00e-07	0	43	0	663748608	67	5200
2026-01-10 11:06:43.21	275.64	36.16	-47.5	-50.8	14.8	0.00e+00	0	43	0	665845760	66	5321
2026-01-10 11:06:44.21	276.04	36.11	-47.9	-51.5	14.2	7.00e-07	0	43	0	667942912	66	5741
2026-01-10 11:06:45.22	276.45	36.07	-48.5	-52.6	13.1	4.50e-06	0	43	0	670040064	67	6185
2026-01-10 11:06:46.22	276.86	36.02	-49.0	-53.5	12.4	7.09e-05	0	43	0	672137216	68	6443
2026-01-10 11:06:47.22	277.26	35.97	-48.8	-53.0	12.9	1.28e-04	0	43	0	673185792	68	6091
2026-01-10 11:06:48.22	277.66	35.91	-48.2	-51.9	13.9	6.80e-06	0	43	0	675282944	68	5356
2026-01-10 11:06:49.22	278.06	35.86	-48.1	-51.7	14.2	3.80e-06	0	43	0	677380096	68	5242
2026-01-10 11:06:50.22	278.46	35.81	-48.7	-52.7	13.1	1.60e-05	0	43	0	679477248	68	5922
2026-01-10 11:06:51.22	278.86	35.75	-49.7	-54.7	11.2	3.06e-04	0	43	0	680525824	69	6961
2026-01-10 11:06:52.23	279.26	35.69	-49.6	-54.4	11.5	9.89e-04	0	43	0	682622976	70	6362
2026-01-10 11:06:53.23	279.65	35.63	-49.3	-53.9	12.0	5.90e-04	0	43	0	684720128	70	6041
2026-01-10 11:06:54.23	280.05	35.57	-49.5	-54.2	11.6	4.01e-04	0	43	0	686817280	70	6246
2026-01-10 11:06:55.23	280.44	35.51	-49.7	-54.8	11.0	1.44e-03	0	43	0	688914432	70	6697
2026-01-10 11:06:56.23	280.83	35.44	-50.2	-56.1	9.8	4.76e-03	0	43	0	689963008	71	7334
2026-01-10 11:06:57.24	281.22	35.38	-50.2	-56.0	9.8	1.26e-02	0	43	0	692060160	71	7240
2026-01-10 11:06:58.24	281.61	35.31	-50.1	-55.8	10.3	7.67e-03	0	43	0	694157312	71	7050
2026-01-10 11:06:59.24	282.00	35.25	-49.7	-54.9	11.0	2.51e-03	0	43	0	696254464	71	6351
2026-01-10 11:07:00.24	282.38	35.18	-49.7	-54.8	11.1	1.27e-03	0	43	0	698351616	70	6661
2026-01-10 11:07:01.24	282.76	35.11	-49.8	-55.0	10.7	2.22e-03	0	43	0	699400192	70	6862
2026-01-10 11:07:02.24	283.14	35.04	-50.5	-56.9	8.8	8.78e-03	0	43	0	701497344	71	8070
2026-01-10 11:07:03.24	283.52	34.96	-50.6	-57.1	8.8	3.18e-02	0	43	0	703594496	71	8221
2026-01-10 11:07:04.24	283.90	34.89	-50.5	-56.9	8.9	3.52e-02	0	43	0	705691648	72	7591
2026-01-10 11:07:05.25	284.28	34.81	-50.4	-56.5	9.3	2.59e-02	0	43	0	707788800	72	7237
2026-01-10 11:07:06.25	284.65	34.74	-49.9	-55.3	10.6	5.74e-03	0	43	0	708837376	71	6668
2026-01-10 11:07:07.25	285.03	34.66	-49.5	-54.3	11.6	2.36e-03	0	43	0	710934528	70	6305
2026-01-10 11:07:08.25	285.40	34.58	-48.9	-53.2	12.7	8.92e-05	0	43	0	713031680	69	5878
2026-01-10 11:07:09.25	285.77	34.50	-48.3	-52.1	13.8	9.10e-06	0	43	0	715128832	68	5465
2026-01-10 11:07:10.25	286.13	34.42	-48.1	-51.7	14.2	3.80e-06	0	43	0	716177408	68	5247
2026-01-10 11:07:11.25	286.50	34.34	-48.1	-51.6	14.2	1.50e-06	0	43	0	718274560	68	5217
2026-01-10 11:07:12.25	286.86	34.26	-48.0	-51.5	14.2	3.80e-06	0	43	0	720371712	67	5441
2026-01-10 11:07:13.25	287.22	34.18	-47.9	-51.4	14.4	1.50e-06	0	43	0	722468864	67	5384
2026-01-10 11:07:14.25	287.58	34.09	-47.9	-51.5	14.2	7.00e-07	0	43	0	724566016	67	5430
2026-01-10 11:07:15.26	287.94	34.00	-48.3	-52.0	13.8	4.50e-06	0	43	0	725614592	67	5756
2026-01-10 11:07:16.26	288.30	33.92	-48.5	-52.4	13.4	1.06e-05	0	43	0	727711744	67	6026
2026-01-10 11:07:17.26	288.65	33.83	-49.3	-53.9	12.1	5.72e-05	0	43	0	729808896	69	6353
2026-01-10 11:07:18.26	289.01	33.74	-49.3	-53.8	12.0	2.31e-04	0	43	0	731906048	69	6315
2026-01-10 11:07:19.26	289.36	33.65	-48.8	-53.0	12.9	1.07e-04	0	43	0	734003200	69	5736
2026-01-10 11:07:20.26	289.70	33.56	-48.5	-52.4	13.5	2.51e-05	0	43	0	735051776	68	5688
2026-01-10 11:07:21.26	290.05	33.47	-48.2	-52.0	13.9	3.00e-06	0	43	0	737148928	68	5426
2026-01-10 11:07:22.26	290.40	33.38	-48.3	-52.2	13.6	5.30e-06	0	43	0	739246080	68	5570
2026-01-10 11:07:23.27	290.74	33.29	-48.7	-52.8	13.0	1.37e-05	0	43	0	741343232	68	5984
2026-01-10 11:07:24.27	291.08	33.19	-49.0	-53.3	12.5	5.34e-05	0	43	0	743440384	68	6341
2026-01-10 11:07:25.27	291.42	33.10	-48.5	-52.4	13.4	1.83e-05	0	43	0	744488960	68	5715
2026-01-10 11:07:26.28	291.76	33.00	-47.6	-51.1	14.6	5.30e-06	0	43	0	746586112	67	5176
2026-01-10 11:07:27.28	292.10	32.91	-47.0	-50.0	15.6	0.00e+00	0	43	0	748683264	66	4868
2026-01-10 11:07:28.28	292.43	32.81	-47.1	-50.2	15.4	0.00e+00	0	43	0	750780416	65	5267
2026-01-10 11:07:29.28	292.76	32.71	-47.4	-50.7	14.9	0.00e+00	0	43	0	752877568	65	5577
2026-01-10 11:07:30.28	293.09	32.61	-47.5	-51.0	14.7	0.00e+00	0	43	0	753926144	65	5779
2026-01-10 11:07:31.28	293.42	32.51	-47.6	-51.1	14.5	0.00e+00	0	43	0	756023296	65	5816
2026-01-10 11:07:32.29	293.74	32.41	-47.3	-50.7	14.9	7.00e-07	0	43	0	758120448	65	5553
2026-01-10 11:07:33.29	294.07	32.31	-47.3	-50.6	15.0	0.00e+00	0	43	0	760217600	65	5492
2026-01-10 11:07:34.29	294.39	32.21	-47.6	-51.1	14.6	0.00e+00	0	43	0	761266176	66	5491
2026-01-10 11:07:35.29	294.71	32.11	-48.2	-52.1	13.4	3.80e-06	0	43	0	763363328	67	5835
2026-01-10 11:07:36.29	295.02	32.01	-48.7	-52.9	12.7	3.89e-05	0	43	0	765460480	67	6418
2026-01-10 11:07:37.29	295.34	31.91	-48.9	-53.3	12.6	2.23e-04	0	43	0	767557632	68	6278
2026-01-10 11:07:38.30	295.66	31.80	-47.7	-51.3	14.3	3.80e-06	0	43	0	769654784	67	5315
2026-01-10 11:07:39.29	295.96	31.70	-46.3	-49.2	16.3	0.00e+00	0	43	0	770703360	64	4952
2026-01-10 11:07:40.29	296.27	31.60	-45.5	-48.1	17.5	0.00e+00	0	43	0	772800512	62	4877
2026-01-10 11:07:41.29	296.58	31.49	-45.7	-48.3	17.3	0.00e+00	0	43	0	774897664	62	5012
2026-01-10 11:07:42.29	296.88	31.39	-46.2	-49.1	16.6	0.00e+00	0	43	0	776994816	63	5165
2026-01-10 11:07:43.29	297.19	31.28	-46.8	-49.8	15.7	0.00e+00	0	43	0	779091968	64	5337
2026-01-10 11:07:44.29	297.49	31.17	-47.1	-50.4	15.2	0.00e+00	0	43	0	780140544	64	5677
2026-01-10 11:07:45.29	297.79	31.07	-46.7	-49.7	15.8	0.00e+00	0	43	0	782237696	64	5274
2026-01-10 11:07:46.29	298.09	30.96	-46.2	-49.1	16.4	0.00e+00	0	43	0	784334848	64	4871
2026-01-10 11:07:47.29	298.38	30.85	-46.1	-48.9	16.7	0.00e+00	0	43	0	786432000	63	5087
2026-01-10 11:07:48.29	298.68	30.74	-46.3	-49.1	16.5	0.00e+00	0	43	0	787480576	63	5189
2026-01-10 11:07:49.29	298.97	30.64	-46.5	-49.4	16.2	0.00e+00	0	43	0	789577728	63	5388
2026-01-10 11:07:50.29	299.26	30.53	-47.0	-50.2	15.4	0.00e+00	0	43	0	791674880	64	5551
2026-01-10 11:07:51.29	299.54	30.42	-47.1	-50.4	15.2	0.00e+00	0	43	0	793772032	65	5378
2026-01-10 11:07:52.29	299.83	30.31	-46.8	-50.0	15.6	0.00e+00	0	43	0	795869184	65	5124
2026-01-10 11:07:53.30	300.12	30.20	-46.1	-48.9	16.5	0.00e+00	0	43	0	796917760	64	4798
2026-01-10 11:07:54.30	300.40	30.09	-45.6	-48.2	17.3	0.00e+00	0	43	0	799014912	62	4980
2026-01-10 11:07:55.30	300.68	29.98	-45.9	-48.7	16.9	0.00e+00	0	43	0	801112064	62	5228
2026-01-10 11:07:56.30	300.96	29.87	-45.9	-48.7	16.8	0.00e+00	0	43	0	803209216	62	5237
2026-01-10 11:07:57.30	301.23	29.75	-46.7	-49.7	15.8	0.00e+00	0	43	0	805306368	63	5588
2026-01-10 11:07:58.30	301.51	29.64	-46.9	-50.1	15.4	0.00e+00	0	43	0	806354944	64	5485
2026-01-10 11:07:59.31	301.78	29.53	-46.7	-49.8	15.7	0.00e+00	0	43	0	808452096	64	5340
2026-01-10 11:08:00.31	302.05	29.42	-46.0	-48.8	16.6	0.00e+00	0	43	0	810549248	63	5021
2026-01-10 11:08:01.31	302.32	29.31	-45.4	-48.0	17.5	0.00e+00	0	43	0	812646400	62	4848
2026-01-10 11:08:02.31	302.59	29.19	-45.6	-48.3	17.2	0.00e+00	0	43	0	814743552	62	4988
2026-01-10 11:08:03.32	302.86	29.08	-46.1	-49.0	16.5	0.00e+00	0	43	0	815792128	62	5432
2026-01-10 11:08:04.32	303.12	28.97	-46.9	-50.1	15.4	0.00e+00	0	43	0	817889280	64	5466
2026-01-10 11:08:05.32	303.38	28.86	-47.0	-50.3	15.2	0.00e+00	0	43	0	819986432	64	5616
2026-01-10 11:08:06.32	303.64	28.74	-46.6	-49.7	15.7	0.00e+00	0	43	0	822083584	64	5265
2026-01-10 11:08:07.32	303.90	28.63	-45.9	-48.7	16.8	0.00e+00	0	43	0	824180736	63	4954
2026-01-10 11:08:08.32	304.16	28.52	-45.5	-48.2	17.2	0.00e+00	0	43	0	825229312	63	4677
2026-01-10 11:08:09.32	304.41	28.40	-45.6	-48.3	17.2	0.00e+00	0	43	0	827326464	62	5018
2026-01-10 11:08:10.32	304.66	28.29	-46.3	-49.3	16.2	0.00e+00	0	43	0	829423616	63	5317
2026-01-10 11:08:11.32	304.92	28.18	-46.8	-50.1	15.4	0.00e+00	0	43	0	831520768	64	5478
2026-01-10 11:08:12.32	305.16	28.06	-47.0	-50.4	15.2	0.00e+00	0	43	0	832569344	64	5660
2026-01-10 11:08:13.32	305.41	27.95	-46.8	-49.9	15.5	0.00e+00	0	43	0	834666496	64	5374
2026-01-10 11:08:14.32	305.66	27.83	-46.2	-49.2	16.2	0.00e+00	0	43	0	836763648	64	4933
2026-01-10 11:08:15.33	305.90	27.72	-45.7	-48.3	17.1	0.00e+00	0	43	0	838860800	63	4735
2026-01-10 11:08:16.32	306.14	27.61	-45.4	-47.9	17.4	0.00e+00	0	43	0	840957952	62	4796
2026-01-10 11:08:17.32	306.38	27.49	-45.2	-47.8	17.6	0.00e+00	0	43	0	842006528	62	4709
2026-01-10 11:08:18.32	306.62	27.38	-45.7	-48.3	17.1	0.00e+00	0	43	0	844103680	62	5016
2026-01-10 11:08:19.32	306.86	27.26	-46.5	-49.4	16.1	0.00e+00	0	43	0	846200832	63	5391
2026-01-10 11:08:20.32	307.10	27.15	-46.6	-49.6	15.7	0.00e+00	0	43	0	848297984	64	5214
2026-01-10 11:08:21.33	307.33	27.03	-46.3	-49.3	16.1	0.00e+00	0	43	0	850395136	64	4984
2026-01-10 11:08:22.32	307.56	26.92	-46.0	-48.8	16.6	0.00e+00	0	43	0	851443712	63	5013
2026-01-10 11:08:23.32	307.79	26.81	-45.7	-48.5	16.9	0.00e+00	0	43	0	853540864	63	4837
2026-01-10 11:08:24.32	308.02	26.69	-45.9	-48.7	16.7	0.00e+00	0	43	0	855638016	63	4959
2026-01-10 11:08:25.33	308.25	26.58	-46.4	-49.4	16.0	0.00e+00	0	43	0	857735168	63	5365
2026-01-10 11:08:26.33	308.48	26.46	-46.8	-50.0	15.3	0.00e+00	0	43	0	859832320	64	5445
2026-01-10 11:08:27.33	308.70	26.35	-46.9	-50.2	15.2	0.00e+00	0	43	0	860880896	64	5559
2026-01-10 11:08:28.32	308.92	26.23	-47.0	-50.4	15.0	7.00e-07	0	43	0	862978048	64	5668
2026-01-10 11:08:29.33	309.14	26.12	-46.4	-49.4	15.9	0.00e+00	0	43	0	865075200	64	5094
2026-01-10 11:08:30.33	309.36	26.00	-46.0	-48.8	16.6	0.00e+00	0	43	0	867172352	63	5021
2026-01-10 11:08:31.33	309.58	25.89	-45.7	-48.5	16.8	0.00e+00	0	43	0	868220928	63	4827
2026-01-10 11:08:32.33	309.80	25.78	-45.7	-48.5	16.8	0.00e+00	0	43	0	870318080	63	4864
2026-01-10 11:08:33.33	310.01	25.66	-46.2	-49.2	16.1	0.00e+00	0	43	0	872415232	63	5276
2026-01-10 11:08:34.33	310.23	25.55	-46.8	-50.2	15.2	0.00e+00	0	43	0	874512384	64	5547
2026-01-10 11:08:35.33	310.44	25.44	-47.2	-51.0	14.4	0.00e+00	0	43	0	876609536	65	5728
2026-01-10 11:08:36.34	310.65	25.32	-47.4	-51.3	14.0	3.00e-06	0	43	0	877658112	65	5986
2026-01-10 11:08:37.34	310.86	25.21	-47.1	-50.8	14.5	0.00e+00	0	43	0	879755264	65	5636
2026-01-10 11:08:38.34	311.07	25.09	-46.3	-49.5	15.7	0.00e+00	0	43	0	881852416	64	5155
2026-01-10 11:08:39.35	311.28	24.98	-45.9	-48.9	16.4	0.00e+00	0	43	0	883949568	63	5093
2026-01-10 11:08:40.34	311.48	24.87	-45.3	-48.1	17.1	0.00e+00	0	43	0	886046720	62	4901
2026-01-10 11:08:41.35	311.68	24.75	-45.1	-47.9	17.3	0.00e+00	0	43	0	887095296	62	4771
2026-01-10 11:08:42.35	311.88	24.64	-45.0	-47.6	17.5	0.00e+00	0	43	0	889192448	61	4924
2026-01-10 11:08:43.35	312.08	24.53	-45.4	-48.2	17.0	0.00e+00	0	43	0	891289600	61	5234
2026-01-10 11:08:44.35	312.28	24.41	-45.8	-48.7	16.6	0.00e+00	0	43	0	893386752	62	5263
2026-01-10 11:08:45.35	312.48	24.30	-46.2	-49.3	16.0	0.00e+00	0	43	0	894435328	62	5598
2026-01-10 11:08:46.35	312.68	24.19	-46.3	-49.5	15.8	0.00e+00	0	43	0	896532480	63	5412
2026-01-10 11:08:47.35	312.87	24.08	-46.2	-49.3	15.9	0.00e+00	0	43	0	898629632	63	5339
2026-01-10 11:08:48.35	313.07	23.96	-46.1	-49.1	16.2	0.00e+00	0	43	0	900726784	63	5171
2026-01-10 11:08:49.36	313.26	23.85	-45.8	-48.7	16.5	0.00e+00	0	43	0	902823936	63	4966
2026-01-10 11:08:50.36	313.45	23.74	-45.4	-48.2	17.0	0.00e+00	0	43	0	903872512	62	4934
2026-01-10 11:08:51.36	313.64	23.63	-45.2	-47.9	17.3	0.00e+00	0	43	0	905969664	62	4783
2026-01-10 11:08:52.36	313.83	23.52	-45.1	-47.7	17.5	0.00e+00	0	43	0	908066816	62	4661
2026-01-10 11:08:53.36	314.01	23.40	-45.3	-47.9	17.2	0.00e+00	0	43	0	910163968	62	4803
2026-01-10 11:08:54.37	314.20	23.29	-45.4	-48.1	16.9	0.00e+00	0	43	0	912261120	62	4922
2026-01-10 11:08:55.37	314.39	23.18	-45.7	-48.5	16.7	0.00e+00	0	43	0	913309696	62	5147
2026-01-10 11:08:56.37	314.57	23.07	-45.6	-48.4	16.7	0.00e+00	0	43	0	915406848	62	5061
2026-01-10 11:08:57.37	314.75	22.96	-45.4	-48.1	17.0	0.00e+00	0	43	0	917504000	62	4917
2026-01-10 11:08:58.37	314.93	22.85	-45.3	-48.0	17.1	0.00e+00	0	43	0	919601152	62	4844
2026-01-10 11:08:59.38	315.11	22.74	-44.9	-47.5	17.5	0.00e+00	0	43	0	921698304	61	4856
2026-01-10 11:09:00.38	315.29	22.63	-44.7	-47.3	17.8	0.00e+00	0	43	0	922746880	61	4711
2026-01-10 11:09:01.38	315.47	22.52	-44.6	-47.1	17.9	0.00e+00	0	43	0	924844032	61	4614
2026-01-10 11:09:02.38	315.64	22.41	-44.7	-47.2	17.8	0.00e+00	0	43	0	926941184	61	4684
2026-01-10 11:09:03.38	315.81	22.30	-44.8	-47.5	17.5	0.00e+00	0	43	0	929038336	61	4842
2026-01-10 11:09:04.38	315.99	22.19	-45.1	-47.9	17.2	0.00e+00	0	43	0	931135488	61	5061
2026-01-10 11:09:05.38	316.16	22.08	-45.2	-48.0	17.1	0.00e+00	0	43	0	932184064	61	5125
2026-01-10 11:09:06.38	316.33	21.97	-45.5	-48.4	16.7	0.00e+00	0	43	0	934281216	61	5369
2026-01-10 11:09:07.39	316.50	21.86	-45.4	-48.3	16.7	0.00e+00	0	43	0	936378368	61	5328
2026-01-10 11:09:08.39	316.67	21.76	-45.4	-48.3	16.8	0.00e+00	0	43	0	938475520	61	5304
2026-01-10 11:09:09.39	316.84	21.65	-45.2	-48.0	17.0	0.00e+00	0	43	0	940572672	61	5150
2026-01-10 11:09:10.39	317.00	21.54	-45.1	-47.8	17.3	0.00e+00	0	43	0	941621248	61	5000
2026-01-10 11:09:11.39	317.17	21.43	-45.0	-47.7	17.3	0.00e+00	0	43	0	943718400	61	4960
2026-01-10 11:09:12.40	317.33	21.32	-44.8	-47.5	17.5	0.00e+00	0	43	0	945815552	61	4826
2026-01-10 11:09:13.40	317.50	21.22	-44.8	-47.4	17.5	0.00e+00	0	43	0	947912704	61	4810
2026-01-10 11:09:14.40	317.66	21.11	-44.8	-47.4	17.5	0.00e+00	0	43	0	948961280	61	4804
2026-01-10 11:09:15.41	317.82	21.00	-44.9	-47.5	17.4	0.00e+00	0	43	0	951058432	61	4854
2026-01-10 11:09:16.41	317.98	20.89	-44.9	-47.6	17.3	0.00e+00	0	43	0	953155584	61	4920
2026-01-10 11:09:17.41	318.14	20.79	-45.0	-47.7	17.2	0.00e+00	0	43	0	955252736	61	4981
2026-01-10 11:09:18.42	318.30	20.68	-45.1	-47.8	17.1	0.00e+00	0	43	0	957349888	61	5033
2026-01-10 11:09:19.42	318.45	20.58	-45.2	-48.1	16.9	0.00e+00	0	43	0	958398464	61	5187
2026-01-10 11:09:20.42	318.61	20.47	-45.4	-48.3	16.7	0.00e+00	0	43	0	960495616	61	5283
2026-01-10 11:09:21.42	318.76	20.36	-45.2	-48.1	16.9	0.00e+00	0	43	0	962592768	61	5190
2026-01-10 11:09:22.42	318.92	20.26	-45.2	-48.1	16.9	0.00e+00	0	43	0	964689920	61	5171
2026-01-10 11:09:23.42	319.07	20.16	-45.2	-48.1	16.9	0.00e+00	0	43	0	966787072	61	5177
2026-01-10 11:09:24.42	319.22	20.05	-45.1	-48.0	16.9	0.00e+00	0	43	0	967835648	61	5134
2026-01-10 11:09:25.42	319.37	19.95	-45.3	-48.1	16.8	0.00e+00	0	43	0	969932800	61	5214
2026-01-10 11:09:26.42	319.52	19.84	-44.9	-47.7	17.2	0.00e+00	0	43	0	972029952	61	4983
2026-01-10 11:09:27.42	319.67	19.74	-45.0	-47.8	17.3	0.00e+00	0	43	0	974127104	61	4999
2026-01-10 11:09:28.42	319.81	19.64	-44.9	-47.7	17.2	0.00e+00	0	43	0	976224256	61	4964
2026-01-10 11:09:29.42	319.96	19.53	-44.9	-47.8	17.2	0.00e+00	0	43	0	977272832	61	4994
2026-01-10 11:09:30.42	320.11	19.43	-44.9	-47.7	17.2	0.00e+00	0	43	0	979369984	61	4948
2026-01-10 11:09:31.42	320.25	19.33	-45.0	-47.8	17.1	0.00e+00	0	43	0	981467136	61	5007
2026-01-10 11:09:32.42	320.39	19.22	-45.1	-47.9	17.0	0.00e+00	0	43	0	983564288	61	5079
2026-01-10 11:09:33.42	320.54	19.12	-45.0	-47.8	17.1	0.00e+00	0	43	0	985661440	61	5007
2026-01-10 11:09:34.43	320.68	19.02	-45.0	-47.7	17.3	0.00e+00	0	43	0	986710016	61	4960
2026-01-10 11:09:35.43	320.82	18.92	-44.9	-47.7	17.2	0.00e+00	0	43	0	988807168	61	4934
2026-01-10 11:09:36.42	320.96	18.82	-44.7	-47.4	17.5	0.00e+00	0	43	0	990904320	61	4769
2026-01-10 11:09:37.42	321.10	18.71	-44.8	-47.5	17.4	0.00e+00	0	43	0	993001472	61	4827
2026-01-10 11:09:38.42	321.23	18.61	-44.7	-47.3	17.5	0.00e+00	0	43	0	994050048	61	4759
2026-01-10 11:09:39.43	321.37	18.51	-44.6	-47.2	17.6	0.00e+00	0	43	0	996147200	61	4680
2026-01-10 11:09:40.43	321.51	18.41	-44.7	-47.3	17.5	0.00e+00	0	43	0	998244352	61	4753
2026-01-10 11:09:41.43	321.64	18.31	-44.7	-47.3	17.5	0.00e+00	0	43	0	1000341504	61	4736
2026-01-10 11:09:42.43	321.78	18.21	-44.9	-47.5	17.3	0.00e+00	0	43	0	1002438656	61	4854
2026-01-10 11:09:43.43	321.91	18.11	-45.3	-48.1	16.8	0.00e+00	0	43	0	1003487232	61	5184
2026-01-10 11:09:44.43	322.05	18.01	-45.5	-48.3	16.6	0.00e+00	0	43	0	1005584384	61	5305
2026-01-10 11:09:45.44	322.18	17.91	-45.9	-48.9	16.1	0.00e+00	0	43	0	1007681536	62	5369
2026-01-10 11:09:46.44	322.31	17.81	-46.1	-49.3	15.7	0.00e+00	0	43	0	1009778688	62	5608
2026-01-10 11:09:47.44	322.44	17.71	-46.1	-49.4	15.6	0.00e+00	0	43	0	1011875840	62	5671
2026-01-10 11:09:48.45	322.57	17.62	-46.4	-50.1	14.9	0.00e+00	0	43	0	1012924416	63	5817
2026-01-10 11:09:49.45	322.70	17.52	-46.4	-50.1	14.8	0.00e+00	0	43	0	1015021568	63	5846
2026-01-10 11:09:50.45	322.83	17.42	-46.6	-50.6	14.3	7.00e-07	0	43	0	1017118720	63	6183
2026-01-10 11:09:51.46	322.96	17.32	-46.6	-50.7	14.1	2.20e-06	0	43	0	1019215872	64	5916
2026-01-10 11:09:52.45	323.08	17.22	-46.6	-50.5	14.4	1.50e-06	0	43	0	1020264448	64	5771
2026-01-10 11:09:53.45	323.21	17.13	-46.7	-50.6	14.3	3.00e-06	0	43	0	1022361600	64	5841
2026-01-10 11:09:54.46	323.33	17.03	-46.6	-50.4	14.5	2.20e-06	0	43	0	1024458752	64	5673
2026-01-10 11:09:55.46	323.46	16.93	-46.3	-49.9	15.0	0.00e+00	0	43	0	1026555904	64	5343
2026-01-10 11:09:56.46	323.58	16.84	-46.4	-49.9	14.9	0.00e+00	0	43	0	1028653056	64	5361
2026-01-10 11:09:57.46	323.70	16.74	-46.1	-49.3	15.5	0.00e+00	0	43	0	1030750208	64	5005
2026-01-10 11:09:58.46	323.82	16.65	-46.2	-49.4	15.5	0.00e+00	0	43	0	1031798784	63	5388
2026-01-10 11:09:59.46	323.94	16.55	-46.0	-49.0	15.8	0.00e+00	0	43	0	1033895936	63	5150
2026-01-10 11:10:00.46	324.06	16.45	-45.6	-48.6	16.4	0.00e+00	0	43	0	1035993088	63	4884
2026-01-10 11:10:01.45	324.18	16.36	-45.8	-48.8	16.2	0.00e+00	0	43	0	1038090240	63	4988
2026-01-10 11:10:02.46	324.30	16.26	-45.7	-48.7	16.2	0.00e+00	0	43	0	1039138816	63	4949
2026-01-10 11:10:03.46	324.42	16.17	-45.6	-48.6	16.3	0.00e+00	0	43	0	1041235968	63	4896
2026-01-10 11:10:04.46	324.54	16.08	-45.9	-49.0	15.9	0.00e+00	0	43	0	1043333120	63	5145
2026-01-10 11:10:05.46	324.65	15.98	-46.0	-49.2	15.7	0.00e+00	0	43	0	1045430272	63	5251
2026-01-10 11:10:06.47	324.77	15.89	-46.3	-49.7	15.2	0.00e+00	0	43	0	1047527424	63	5553
2026-01-10 11:10:07.46	324.89	15.79	-46.3	-49.9	15.0	0.00e+00	0	43	0	1048576000	63	5712
2026-01-10 11:10:08.47	325.00	15.70	-46.0	-49.6	15.3	0.00e+00	0	43	0	1050673152	63	5524
2026-01-10 11:10:09.47	325.11	15.61	-46.0	-49.9	15.0	0.00e+00	0	43	0	1052770304	63	5696
2026-01-10 11:10:10.47	325.23	15.52	-45.9	-49.8	15.1	0.00e+00	0	43	0	1054867456	63	5636
2026-01-10 11:10:11.47	325.34	15.42	-45.8	-49.7	15.2	0.00e+00	0	43	0	1056964608	63	5587
2026-01-10 11:10:12.47	325.45	15.33	-45.9	-49.8	15.0	0.00e+00	0	43	0	1058013184	63	5653
2026-01-10 11:10:13.48	325.56	15.24	-45.6	-49.3	15.6	0.00e+00	0	43	0	1060110336	63	5321
2026-01-10 11:10:14.48	325.67	15.15	-45.6	-49.3	15.5	0.00e+00	0	43	0	1062207488	62	5635
2026-01-10 11:10:15.48	325.78	15.05	-45.6	-49.1	15.8	0.00e+00	0	43	0	1064304640	62	5496
2026-01-10 11:10:16.49	325.89	14.96	-45.4	-48.7	16.1	0.00e+00	0	43	0	1065353216	62	5262
2026-01-10 11:10:17.49	326.00	14.87	-45.4	-48.7	16.2	0.00e+00	0	43	0	1067450368	62	5220
2026-01-10 11:10:18.49	326.11	14.78	-45.5	-48.8	16.0	0.00e+00	0	43	0	1069547520	62	5326
2026-01-10 11:10:19.49	326.22	14.69	-45.4	-48.6	16.2	0.00e+00	0	43	0	1071644672	62	5201
2026-01-10 11:10:20.49	326.32	14.60	-45.6	-48.8	16.0	0.00e+00	0	43	0	1073741824	62	5338
2026-01-10 11:10:21.49	326.43	14.51	-45.6	-48.8	16.0	0.00e+00	0	43	0	1074790400	62	5321
2026-01-10 11:10:22.49	326.54	14.42	-45.7	-49.0	15.9	0.00e+00	0	43	0	1076887552	62	5404
2026-01-10 11:10:23.50	326.64	14.33	-45.9	-49.2	15.7	0.00e+00	0	43	0	1078984704	62	5556
2026-01-10 11:10:24.50	326.75	14.24	-45.8	-49.0	15.8	0.00e+00	0	43	0	1081081856	62	5461
2026-01-10 11:10:25.50	326.85	14.15	-46.0	-49.3	15.6	0.00e+00	0	43	0	1083179008	62	5624
2026-01-10 11:10:26.50	326.95	14.06	-46.1	-49.4	15.5	0.00e+00	0	43	0	1084227584	62	5691
2026-01-10 11:10:27.50	327.06	13.98	-46.1	-49.4	15.5	0.00e+00	0	43	0	1086324736	62	5675
2026-01-10 11:10:28.50	327.16	13.89	-46.0	-49.4	15.5	0.00e+00	0	43	0	1088421888	62	5657
2026-01-10 11:10:29.50	327.26	13.80	-45.8	-49.0	15.8	0.00e+00	0	43	0	1090519040	62	5405
2026-01-10 11:10:30.50	327.36	13.71	-45.7	-49.0	15.8	0.00e+00	0	43	0	1092616192	62	5403
2026-01-10 11:10:31.50	327.46	13.62	-45.6	-48.8	16.0	0.00e+00	0	43	0	1093664768	62	5297
2026-01-10 11:10:32.50	327.56	13.54	-45.5	-48.7	16.1	0.00e+00	0	43	0	1095761920	62	5251
2026-01-10 11:10:33.50	327.66	13.45	-45.6	-48.8	16.1	0.00e+00	0	43	0	1097859072	62	5282
2026-01-10 11:10:34.50	327.76	13.36	-45.6	-48.7	16.1	0.00e+00	0	43	0	1099956224	62	5236
2026-01-10 11:10:35.50	327.85	13.28	-45.5	-48.5	16.2	0.00e+00	0	43	0	1101004800	62	5127
2026-01-10 11:10:36.50	327.95	13.19	-45.4	-48.4	16.3	0.00e+00	0	43	0	1103101952	62	5076
2026-01-10 11:10:37.50	328.05	13.10	-45.5	-48.5	16.2	0.00e+00	0	43	0	1105199104	62	5119
2026-01-10 11:10:38.50	328.14	13.02	-45.7	-48.7	16.0	0.00e+00	0	43	0	1107296256	62	5245
2026-01-10 11:10:39.50	328.24	12.93	-45.7	-48.8	16.0	0.00e+00	0	43	0	1109393408	62	5284
2026-01-10 11:10:40.50	328.34	12.85	-45.8	-48.9	15.9	0.00e+00	0	43	0	1110441984	62	5377
2026-01-10 11:10:41.50	328.43	12.76	-45.9	-49.1	15.6	0.00e+00	0	43	0	1112539136	62	5526
2026-01-10 11:10:42.50	328.52	12.68	-46.0	-49.4	15.4	0.00e+00	0	43	0	1114636288	62	5657
2026-01-10 11:10:43.50	328.62	12.59	-45.9	-49.4	15.4	0.00e+00	0	43	0	1116733440	62	5681
2026-01-10 11:10:44.50	328.71	12.51	-46.0	-49.5	15.3	0.00e+00	0	43	0	1118830592	62	5736
2026-01-10 11:10:45.51	328.80	12.42	-45.9	-49.4	15.3	0.00e+00	0	43	0	1119879168	62	5707
2026-01-10 11:10:46.51	328.90	12.34	-46.1	-49.7	15.1	0.00e+00	0	43	0	1121976320	62	5864
2026-01-10 11:10:47.51	328.99	12.26	-46.0	-49.5	15.2	0.00e+00	0	43	0	1124073472	62	5741
2026-01-10 11:10:48.51	329.08	12.17	-46.1	-49.7	15.1	0.00e+00	0	43	0	1126170624	63	5530
2026-01-10 11:10:49.51	329.17	12.09	-46.2	-49.9	14.9	0.00e+00	0	43	0	1128267776	63	5658
2026-01-10 11:10:50.52	329.26	12.00	-46.2	-49.9	14.8	0.00e+00	0	43	0	1129316352	63	5677
2026-01-10 11:10:51.52	329.35	11.92	-46.2	-49.7	15.0	0.00e+00	0	43	0	1131413504	63	5582
2026-01-10 11:10:52.52	329.44	11.84	-46.2	-49.7	15.0	0.00e+00	0	43	0	1133510656	63	5574
2026-01-10 11:10:53.52	329.53	11.76	-46.1	-49.5	15.2	0.00e+00	0	43	0	1135607808	63	5440
2026-01-10 11:10:54.52	329.62	11.67	-46.1	-49.4	15.2	7.00e-07	0	43	0	1137704960	63	5396
2026-01-10 11:10:55.52	329.71	11.59	-46.2	-49.5	15.1	0.00e+00	0	43	0	1138753536	63	5457
2026-01-10 11:10:56.53	329.79	11.51	-46.1	-49.4	15.3	0.00e+00	0	43	0	1140850688	63	5375
2026-01-10 11:10:57.53	329.88	11.43	-46.2	-49.5	15.2	0.00e+00	0	43	0	1142947840	63	5451
2026-01-10 11:10:58.53	329.97	11.35	-46.2	-49.6	15.0	0.00e+00	0	43	0	1145044992	63	5521
2026-01-10 11:10:59.53	330.05	11.27	-46.2	-49.5	15.2	0.00e+00	0	43	0	1146093568	63	5460
2026-01-10 11:11:00.53	330.14	11.19	-46.2	-49.6	15.1	0.00e+00	0	43	0	1148190720	63	5493
2026-01-10 11:11:01.53	330.22	11.10	-46.2	-49.7	15.0	0.00e+00	0	43	0	1150287872	63	5550
2026-01-10 11:11:02.53	330.31	11.02	-46.1	-49.6	15.1	0.00e+00	0	43	0	1152385024	63	5490
2026-01-10 11:11:03.53	330.39	10.94	-46.2	-49.7	14.9	0.00e+00	0	43	0	1154482176	63	5571
2026-01-10 11:11:04.53	330.48	10.86	-46.3	-49.8	14.8	0.00e+00	0	43	0	1155530752	63	5656
2026-01-10 11:11:05.54	330.56	10.78	-46.1	-49.5	15.1	0.00e+00	0	43	0	1157627904	63	5460
2026-01-10 11:11:06.54	330.64	10.70	-46.3	-49.9	14.7	0.00e+00	0	43	0	1159725056	63	5708
2026-01-10 11:11:07.54	330.73	10.62	-46.3	-49.8	14.8	0.00e+00	0	43	0	1161822208	63	5645
2026-01-10 11:11:08.54	330.81	10.55	-46.2	-49.8	14.8	0.00e+00	0	43	0	1163919360	63	5625
2026-01-10 11:11:09.54	330.89	10.47	-46.3	-49.8	14.8	0.00e+00	0	43	0	1164967936	63	5651
2026-01-10 11:11:10.54	330.97	10.39	-46.2	-49.7	15.0	0.00e+00	0	43	0	1167065088	63	5546
2026-01-10 11:11:11.54	331.05	10.31	-46.1	-49.5	15.1	0.00e+00	0	43	0	1169162240	63	5460
2026-01-10 11:11:12.54	331.13	10.23	-46.1	-49.5	15.2	0.00e+00	0	43	0	1171259392	63	5404
2026-01-10 11:11:13.54	331.21	10.15	-46.0	-49.4	15.3	7.00e-07	0	43	0	1172307968	63	5346
2026-01-10 11:11:14.54	331.29	10.07	-46.1	-49.5	15.1	0.00e+00	0	43	0	1174405120	63	5433
2026-01-10 11:11:15.54	331.37	10.00	-45.9	-49.3	15.3	0.00e+00	0	43	0	1176502272	63	5311
2026-01-10 11:11:16.54	331.45	9.92	-45.9	-49.4	15.2	0.00e+00	0	43	0	1178599424	63	5361
2026-01-10 11:11:17.54	331.53	9.84	-45.7	-49.1	15.4	0.00e+00	0	43	0	1180696576	63	5211
2026-01-10 11:11:18.54	331.61	9.76	-45.7	-49.1	15.5	0.00e+00	0	43	0	1181745152	63	5190
2026-01-10 11:11:19.54	331.68	9.69	-45.6	-49.0	15.6	0.00e+00	0	43	0	1183842304	63	5108
2026-01-10 11:11:20.54	331.76	9.61	-45.6	-49.1	15.5	0.00e+00	0	43	0	1185939456	63	5161
2026-01-10 11:11:21.54	331.84	9.53	-45.5	-49.0	15.6	0.00e+00	0	43	0	1188036608	62	5407
2026-01-10 11:11:22.54	331.91	9.46	-45.6	-49.1	15.4	0.00e+00	0	43	0	1190133760	62	5497
2026-01-10 11:11:23.55	331.99	9.38	-45.6	-49.1	15.5	0.00e+00	0	43	0	1191182336	62	5484
2026-01-10 11:11:24.54	332.07	9.31	-45.7	-49.2	15.4	0.00e+00	0	43	0	1193279488	62	5542
2026-01-10 11:11:25.54	332.14	9.23	-45.6	-49.1	15.5	0.00e+00	0	43	0	1195376640	62	5469
2026-01-10 11:11:26.55	332.22	9.15	-45.7	-49.1	15.4	0.00e+00	0	43	0	1197473792	62	5503
2026-01-10 11:11:27.55	332.29	9.08	-45.5	-48.8	15.8	0.00e+00	0	43	0	1199570944	62	5292
2026-01-10 11:11:28.55	332.36	9.00	-46.3	-50.0	14.7	0.00e+00	0	43	0	1200619520	63	5786
2026-01-10 11:11:29.55	332.44	8.93	-50.2	-65.6	3.8	1.49e+00	0	43	104	1201668096	71	21871
2026-01-10 11:11:30.56	332.51	8.85	-50.7	-66.1	3.8	1.49e+00	0	43	104	1201668096	72	21941
2026-01-10 11:11:31.56	332.59	8.78	-50.0	-66.3	3.8	1.49e+00	0	43	104	1201668096	71	23666
2026-01-10 11:11:32.57	332.66	8.70	-50.3	-66.3	3.8	1.49e+00	0	43	104	1201668096	72	22495
2026-01-10 11:11:33.57	332.73	8.63	-51.1	-66.4	3.8	1.49e+00	0	43	104	1201668096	72	22624
2026-01-10 11:11:34.57	332.80	8.55	-50.9	-66.4	3.8	1.49e+00	0	43	104	1201668096	72	22645
2026-01-10 11:11:35.57	332.88	8.48	-50.9	-66.4	3.8	1.49e+00	0	43	104	1201668096	72	22774
