passes_logs/2026/01/10/T1/T1__20260110_201242_KHAYYAM_rec.log

#Pass ID: 20260110_201242_KHAYYAM
#Satellite: KHAYYAM
#Configuration: KHAYYAM_480M
#almurnet v.1.7.20251203
#Start time: 2026-01-10 20:12:43

#Version: 2.0.20230620
#Station: T1
#Location: 37.570604 lon 55.790049 lat
#TLE: 1 53370U 22096A   26009.83775054  .00006427  00000+0  26206-3 0  9990
#TLE: 2 53370  97.3557 276.9405 0001290  95.9016 264.2369 15.24785942190459

#Time	Az	El	Level	Level2	SNR	BER	BlckErr	Temp	State	Recorded	gain1	gain2
2026-01-10 20:12:43.27	32.10	5.09	-49.5	-55.1	3.5	0.00e+00	0	45	0	0	69	29364
2026-01-10 20:12:44.27	32.22	5.15	-49.5	-55.1	3.7	0.00e+00	0	46	104	0	69	29298
2026-01-10 20:12:45.28	32.34	5.22	-49.5	-55.1	3.7	0.00e+00	0	46	104	0	69	29322
2026-01-10 20:12:46.28	32.46	5.29	-49.5	-55.1	3.7	0.00e+00	0	46	104	0	69	29295
2026-01-10 20:12:47.28	32.58	5.36	-49.5	-55.0	3.7	0.00e+00	0	46	104	0	69	29042
2026-01-10 20:12:48.29	32.70	5.43	-49.5	-55.1	3.7	0.00e+00	0	46	104	0	69	29337
2026-01-10 20:12:49.29	32.82	5.50	-49.5	-55.1	3.7	0.00e+00	0	47	104	0	69	29321
2026-01-10 20:12:50.30	32.95	5.57	-49.5	-55.1	3.7	0.00e+00	0	47	104	0	69	29350
2026-01-10 20:12:51.30	33.07	5.63	-49.5	-55.1	3.7	0.00e+00	0	47	104	0	69	29293
2026-01-10 20:12:52.31	33.19	5.70	-49.5	-55.1	3.7	0.00e+00	0	47	104	0	69	29341
2026-01-10 20:12:53.31	33.32	5.77	-49.5	-55.1	3.7	0.00e+00	0	47	104	0	69	29345
2026-01-10 20:12:54.31	33.44	5.84	-49.5	-55.1	3.7	0.00e+00	0	47	104	0	69	29362
2026-01-10 20:12:55.32	33.57	5.91	-49.5	-55.1	3.7	0.00e+00	0	47	104	0	69	29359
2026-01-10 20:12:56.32	33.70	5.98	-49.5	-55.1	3.7	0.00e+00	0	47	104	0	69	29226
2026-01-10 20:12:57.33	33.82	6.05	-49.5	-55.0	3.7	0.00e+00	0	47	104	0	69	29140
2026-01-10 20:12:58.33	33.95	6.12	-49.4	-55.0	3.7	0.00e+00	0	47	104	0	69	29115
2026-01-10 20:12:59.33	34.08	6.19	-49.4	-55.1	3.7	0.00e+00	0	47	104	0	69	29199
2026-01-10 20:13:00.34	34.21	6.26	-49.4	-55.0	3.7	0.00e+00	0	47	104	0	69	29123
2026-01-10 20:13:01.34	34.34	6.33	-49.5	-55.1	3.7	0.00e+00	0	47	104	0	69	29272
2026-01-10 20:13:02.34	34.47	6.40	-49.5	-55.1	3.7	0.00e+00	0	47	104	0	69	29253
2026-01-10 20:13:03.35	34.61	6.47	-49.5	-55.1	3.7	0.00e+00	0	48	104	0	69	29365
2026-01-10 20:13:04.35	34.74	6.54	-49.5	-55.1	3.7	0.00e+00	0	47	104	0	69	29342
2026-01-10 20:13:05.35	34.87	6.62	-49.5	-55.1	3.7	0.00e+00	0	48	104	0	69	29426
2026-01-10 20:13:06.36	35.01	6.69	-49.5	-55.1	3.7	0.00e+00	0	48	104	0	69	29410
2026-01-10 20:13:07.36	35.14	6.76	-49.5	-55.1	3.7	0.00e+00	0	48	104	0	69	29321
2026-01-10 20:13:08.37	35.28	6.83	-49.5	-55.2	3.7	0.00e+00	0	48	104	0	69	29484
2026-01-10 20:13:09.37	35.42	6.90	-49.5	-55.1	3.7	0.00e+00	0	48	104	0	69	29376
2026-01-10 20:13:10.38	35.56	6.97	-49.5	-55.1	3.7	0.00e+00	0	48	104	0	69	29345
2026-01-10 20:13:11.38	35.69	7.05	-49.5	-55.1	3.7	0.00e+00	0	48	104	0	69	29250
2026-01-10 20:13:12.38	35.83	7.12	-49.5	-55.1	3.7	0.00e+00	0	48	104	0	69	29313
2026-01-10 20:13:13.39	35.98	7.19	-49.5	-55.1	3.7	0.00e+00	0	48	104	0	69	29275
2026-01-10 20:13:14.39	36.12	7.26	-49.5	-55.1	3.7	0.00e+00	0	48	104	0	69	29272
2026-01-10 20:13:15.40	36.26	7.34	-49.5	-55.1	3.7	0.00e+00	0	48	104	0	69	29329
2026-01-10 20:13:16.40	36.40	7.41	-49.5	-55.1	3.7	0.00e+00	0	48	104	0	69	29433
2026-01-10 20:13:17.40	36.55	7.48	-49.5	-55.1	3.7	0.00e+00	0	48	104	0	69	29337
2026-01-10 20:13:18.41	36.69	7.56	-49.5	-55.1	3.7	0.00e+00	0	48	104	0	69	29303
2026-01-10 20:13:19.41	36.84	7.63	-49.5	-55.1	3.7	0.00e+00	0	49	104	0	69	29425
2026-01-10 20:13:20.42	36.98	7.70	-49.5	-55.1	3.7	0.00e+00	0	49	104	0	69	29394
2026-01-10 20:13:21.42	37.13	7.78	-49.5	-55.1	3.7	0.00e+00	0	49	104	0	69	29453
2026-01-10 20:13:22.43	37.28	7.85	-49.5	-55.1	3.7	0.00e+00	0	49	104	0	69	29419
2026-01-10 20:13:23.43	37.43	7.92	-49.5	-55.1	3.7	0.00e+00	0	49	104	0	69	29358
2026-01-10 20:13:24.43	37.58	8.00	-49.5	-55.1	3.7	0.00e+00	0	49	104	0	69	29430
2026-01-10 20:13:25.44	37.73	8.07	-49.5	-55.1	3.7	0.00e+00	0	49	104	0	69	29395
2026-01-10 20:13:26.44	37.88	8.15	-49.5	-55.1	3.7	0.00e+00	0	49	104	0	69	29415
2026-01-10 20:13:27.45	38.04	8.22	-49.5	-55.1	3.7	0.00e+00	0	49	104	0	69	29349
2026-01-10 20:13:28.45	38.19	8.30	-49.4	-55.1	3.7	0.00e+00	0	49	104	0	69	29313
2026-01-10 20:13:29.46	38.35	8.37	-49.5	-55.1	3.7	0.00e+00	0	49	104	0	69	29408
2026-01-10 20:13:30.46	38.50	8.45	-49.5	-55.1	3.7	0.00e+00	0	49	104	0	69	29432
2026-01-10 20:13:31.47	38.66	8.52	-49.5	-55.1	3.7	0.00e+00	0	49	104	0	69	29352
2026-01-10 20:13:32.47	38.82	8.60	-49.4	-55.1	3.7	0.00e+00	0	49	104	0	69	29369
2026-01-10 20:13:33.48	38.98	8.67	-49.4	-55.1	3.7	0.00e+00	0	49	104	0	69	29386
2026-01-10 20:13:34.48	39.14	8.75	-49.5	-55.1	3.7	0.00e+00	0	49	104	0	69	29410
2026-01-10 20:13:35.48	39.30	8.82	-49.5	-55.1	3.7	0.00e+00	0	49	104	0	69	29353
2026-01-10 20:13:36.49	39.46	8.90	-49.5	-55.1	3.7	0.00e+00	0	49	104	0	69	29378
2026-01-10 20:13:37.49	39.63	8.97	-49.4	-55.1	3.7	0.00e+00	0	49	104	0	69	29319
2026-01-10 20:13:38.50	39.79	9.05	-49.5	-55.1	3.7	0.00e+00	0	49	104	0	69	29394
2026-01-10 20:13:39.50	39.96	9.13	-49.5	-55.1	3.7	0.00e+00	0	49	104	0	69	29380
2026-01-10 20:13:40.51	40.12	9.20	-49.5	-55.1	3.7	0.00e+00	0	49	104	0	69	29416
2026-01-10 20:13:41.51	40.29	9.28	-49.5	-55.1	3.7	0.00e+00	0	49	104	0	69	29338
2026-01-10 20:13:42.51	40.46	9.36	-49.5	-55.1	3.7	0.00e+00	0	49	104	0	69	29382
2026-01-10 20:13:43.52	40.63	9.43	-49.5	-55.1	3.7	0.00e+00	0	49	104	0	69	29356
2026-01-10 20:13:44.52	40.80	9.51	-49.5	-55.1	3.7	0.00e+00	0	49	104	0	69	29425
2026-01-10 20:13:45.53	40.97	9.59	-49.5	-55.1	3.7	0.00e+00	0	50	104	0	69	29329
2026-01-10 20:13:46.53	41.14	9.67	-49.5	-55.1	3.7	0.00e+00	0	50	104	0	69	29423
2026-01-10 20:13:47.54	41.32	9.74	-49.5	-55.1	3.7	0.00e+00	0	50	104	0	69	29329
2026-01-10 20:13:48.54	41.49	9.82	-49.5	-55.1	3.7	0.00e+00	0	49	104	0	69	29381
2026-01-10 20:13:49.54	41.67	9.90	-49.5	-55.1	3.7	0.00e+00	0	50	104	0	69	29307
2026-01-10 20:13:50.55	41.85	9.98	-49.5	-55.1	3.7	0.00e+00	0	50	104	0	69	29261
2026-01-10 20:13:51.55	42.03	10.05	-49.5	-55.1	3.7	0.00e+00	0	50	104	0	69	29337
2026-01-10 20:13:52.56	42.21	10.13	-49.5	-55.1	3.7	0.00e+00	0	50	104	0	69	29373
2026-01-10 20:13:53.56	42.39	10.21	-49.5	-55.1	3.7	0.00e+00	0	50	104	0	69	29382
2026-01-10 20:13:54.56	42.57	10.29	-49.5	-55.1	3.7	0.00e+00	0	50	104	0	69	29379
2026-01-10 20:13:55.57	42.75	10.37	-49.5	-55.1	3.7	0.00e+00	0	50	104	0	69	29378
2026-01-10 20:13:56.57	42.94	10.44	-49.5	-55.1	3.7	0.00e+00	0	50	104	0	69	29352
2026-01-10 20:13:57.58	43.12	10.52	-49.5	-55.1	3.7	0.00e+00	0	50	104	0	69	29417
2026-01-10 20:13:58.58	43.31	10.60	-49.5	-55.1	3.7	0.00e+00	0	50	104	0	69	29459
2026-01-10 20:13:59.59	43.50	10.68	-49.5	-55.1	3.7	0.00e+00	0	50	104	0	69	29374
2026-01-10 20:14:00.59	43.69	10.76	-49.5	-55.1	3.7	0.00e+00	0	50	104	0	69	29328
2026-01-10 20:14:01.60	43.88	10.84	-49.5	-55.1	3.7	0.00e+00	0	50	104	0	69	29466
2026-01-10 20:14:02.60	44.07	10.92	-49.5	-55.1	3.7	0.00e+00	0	50	104	0	69	29408
2026-01-10 20:14:03.60	44.26	11.00	-49.5	-55.1	3.7	0.00e+00	0	50	104	0	69	29290
2026-01-10 20:14:04.61	44.46	11.08	-49.5	-55.1	3.7	0.00e+00	0	50	104	0	69	29384
2026-01-10 20:14:05.61	44.65	11.16	-49.5	-55.1	3.7	0.00e+00	0	50	104	0	69	29346
2026-01-10 20:14:06.61	44.85	11.24	-49.5	-55.1	3.7	0.00e+00	0	50	104	0	69	29405
2026-01-10 20:14:07.62	45.05	11.32	-49.5	-55.1	3.7	0.00e+00	0	50	104	0	69	29390
2026-01-10 20:14:08.62	45.25	11.39	-49.5	-55.1	3.7	0.00e+00	0	50	104	0	69	29371
2026-01-10 20:14:09.63	45.45	11.48	-49.5	-55.1	3.7	0.00e+00	0	50	104	0	69	29393
2026-01-10 20:14:10.63	45.65	11.55	-49.5	-55.2	3.7	0.00e+00	0	50	104	0	69	29487
2026-01-10 20:14:11.64	45.85	11.64	-49.5	-55.1	3.7	0.00e+00	0	50	104	0	69	29453
2026-01-10 20:14:12.64	46.06	11.71	-49.5	-55.1	3.7	0.00e+00	0	50	104	0	69	29378
2026-01-10 20:14:13.65	46.27	11.80	-49.5	-55.1	3.7	0.00e+00	0	50	104	0	69	29327
2026-01-10 20:14:14.65	46.47	11.88	-49.5	-55.1	3.7	0.00e+00	0	50	104	0	69	29410
2026-01-10 20:14:15.65	46.68	11.95	-49.5	-55.1	3.7	0.00e+00	0	50	104	0	69	29372
2026-01-10 20:14:16.66	46.89	12.04	-49.5	-55.1	3.7	0.00e+00	0	50	104	0	69	29461
2026-01-10 20:14:17.66	47.10	12.12	-49.5	-55.1	3.7	0.00e+00	0	50	104	0	69	29454
2026-01-10 20:14:18.67	47.32	12.20	-49.5	-55.1	3.7	0.00e+00	0	50	104	0	69	29396
2026-01-10 20:14:19.67	47.53	12.28	-49.5	-55.1	3.7	0.00e+00	0	50	104	0	69	29407
2026-01-10 20:14:20.68	47.75	12.36	-49.5	-55.1	3.7	0.00e+00	0	50	104	0	69	29310
2026-01-10 20:14:21.68	47.96	12.44	-49.5	-55.1	3.7	0.00e+00	0	51	104	0	69	29468
2026-01-10 20:14:22.69	48.18	12.52	-49.5	-55.1	3.7	0.00e+00	0	50	104	0	69	29356
2026-01-10 20:14:23.69	48.40	12.60	-49.4	-55.1	3.7	0.00e+00	0	50	104	0	69	29403
2026-01-10 20:14:24.69	48.62	12.68	-49.4	-55.1	3.7	0.00e+00	0	50	104	0	69	29336
2026-01-10 20:14:25.70	48.85	12.76	-49.5	-55.1	3.7	0.00e+00	0	50	104	0	69	29430
2026-01-10 20:14:26.70	49.07	12.84	-49.5	-55.1	3.7	0.00e+00	0	50	104	0	69	29424
2026-01-10 20:14:27.71	49.30	12.92	-49.5	-55.1	3.7	0.00e+00	0	51	104	0	69	29396
2026-01-10 20:14:28.71	49.52	13.00	-49.5	-55.1	3.7	0.00e+00	0	50	104	0	69	29442
2026-01-10 20:14:29.71	49.75	13.08	-49.4	-55.1	3.7	0.00e+00	0	50	104	0	69	29369
2026-01-10 20:14:30.72	49.98	13.16	-49.5	-55.1	3.7	0.00e+00	0	50	104	0	69	29360
2026-01-10 20:14:31.72	50.21	13.24	-49.5	-55.1	3.7	0.00e+00	0	50	104	0	69	29400
2026-01-10 20:14:32.73	50.45	13.32	-49.5	-55.1	3.7	0.00e+00	0	50	104	0	69	29440
2026-01-10 20:14:33.73	50.68	13.40	-49.5	-55.1	3.7	0.00e+00	0	50	104	0	69	29410
2026-01-10 20:14:34.74	50.92	13.49	-49.5	-55.1	3.7	0.00e+00	0	50	104	0	69	29392
2026-01-10 20:14:35.74	51.16	13.57	-49.4	-55.1	3.7	0.00e+00	0	50	104	0	69	29383
2026-01-10 20:14:36.75	51.40	13.65	-49.5	-55.2	3.7	0.00e+00	0	50	104	0	69	29488
2026-01-10 20:14:37.75	51.64	13.73	-49.5	-55.1	3.7	0.00e+00	0	50	104	0	69	29355
2026-01-10 20:14:38.75	51.88	13.81	-49.5	-55.1	3.7	0.00e+00	0	51	104	0	69	29476
2026-01-10 20:14:39.76	52.13	13.89	-49.5	-55.2	3.7	0.00e+00	0	50	104	0	69	29515
2026-01-10 20:14:40.76	52.37	13.97	-49.5	-55.1	3.7	0.00e+00	0	50	104	0	69	29365
2026-01-10 20:14:41.77	52.62	14.05	-49.5	-55.1	3.7	0.00e+00	0	51	104	0	69	29399
2026-01-10 20:14:42.77	52.87	14.13	-49.5	-55.1	3.7	0.00e+00	0	50	104	0	69	29423
2026-01-10 20:14:43.78	53.12	14.21	-49.5	-55.1	3.7	0.00e+00	0	51	104	0	69	29385
2026-01-10 20:14:44.78	53.37	14.29	-49.5	-55.1	3.7	0.00e+00	0	50	104	0	69	29474
2026-01-10 20:14:45.79	53.63	14.37	-49.5	-55.1	3.7	0.00e+00	0	51	104	0	69	29407
2026-01-10 20:14:46.79	53.88	14.45	-49.5	-55.2	3.7	0.00e+00	0	50	104	0	69	29531
2026-01-10 20:14:47.80	54.14	14.53	-49.5	-55.1	3.7	0.00e+00	0	51	104	0	69	29406
2026-01-10 20:14:48.80	54.40	14.61	-49.5	-55.1	3.7	0.00e+00	0	51	104	0	69	29397
2026-01-10 20:14:49.81	54.66	14.69	-49.5	-55.1	3.7	0.00e+00	0	50	104	0	69	29397
2026-01-10 20:14:50.81	54.92	14.76	-49.5	-55.1	3.7	0.00e+00	0	50	104	0	69	29465
2026-01-10 20:14:51.81	55.18	14.84	-49.5	-55.1	3.7	0.00e+00	0	51	104	0	69	29413
2026-01-10 20:14:52.82	55.45	14.92	-49.5	-55.1	3.7	0.00e+00	0	51	104	0	69	29415
2026-01-10 20:14:53.82	55.71	15.00	-49.5	-55.1	3.7	0.00e+00	0	51	104	0	69	29381
2026-01-10 20:14:54.83	55.98	15.08	-49.5	-55.2	3.7	0.00e+00	0	51	104	0	69	29502
2026-01-10 20:14:55.83	56.25	15.16	-49.5	-55.1	3.7	0.00e+00	0	51	104	0	69	29452
2026-01-10 20:14:56.84	56.53	15.24	-49.5	-55.1	3.7	0.00e+00	0	51	104	0	69	29483
2026-01-10 20:14:57.84	56.80	15.31	-49.5	-55.1	3.7	0.00e+00	0	51	104	0	69	29433
2026-01-10 20:14:58.85	57.07	15.39	-49.5	-55.2	3.7	0.00e+00	0	51	104	0	69	29498
2026-01-10 20:14:59.85	57.35	15.47	-49.5	-55.1	3.7	0.00e+00	0	51	104	0	69	29473
2026-01-10 20:15:00.85	57.63	15.55	-49.5	-55.1	3.7	0.00e+00	0	51	104	0	69	29361
2026-01-10 20:15:01.86	57.91	15.62	-49.5	-55.2	3.7	0.00e+00	0	51	104	0	69	29487
2026-01-10 20:15:02.86	58.19	15.70	-49.5	-55.1	3.7	0.00e+00	0	51	104	0	69	29386
2026-01-10 20:15:03.87	58.48	15.78	-49.5	-55.2	3.7	0.00e+00	0	51	104	0	69	29511
2026-01-10 20:15:04.87	58.76	15.85	-49.5	-55.1	3.7	0.00e+00	0	51	104	0	69	29446
2026-01-10 20:15:05.87	59.05	15.93	-49.5	-55.1	3.7	0.00e+00	0	51	104	0	69	29455
2026-01-10 20:15:06.88	59.34	16.00	-49.5	-55.2	3.7	0.00e+00	0	51	104	0	69	29502
2026-01-10 20:15:07.88	59.62	16.08	-49.5	-55.2	3.7	0.00e+00	0	51	104	0	69	29493
2026-01-10 20:15:08.88	59.92	16.15	-49.5	-55.1	3.7	0.00e+00	0	51	104	0	69	29386
2026-01-10 20:15:09.89	60.21	16.23	-49.5	-55.2	3.7	0.00e+00	0	51	104	0	69	29492
2026-01-10 20:15:10.90	60.51	16.30	-49.5	-55.1	3.7	0.00e+00	0	51	104	0	69	29480
2026-01-10 20:15:11.90	60.80	16.38	-49.5	-55.1	3.7	0.00e+00	0	51	104	0	69	29444
2026-01-10 20:15:12.90	61.10	16.45	-49.5	-55.1	3.7	0.00e+00	0	51	104	0	69	29469
2026-01-10 20:15:13.91	61.40	16.53	-49.5	-55.1	3.7	0.00e+00	0	51	104	0	69	29444
2026-01-10 20:15:14.91	61.71	16.60	-49.5	-55.1	3.7	0.00e+00	0	51	104	0	69	29429
2026-01-10 20:15:15.92	62.01	16.67	-49.5	-55.1	3.7	0.00e+00	0	51	104	0	69	29399
2026-01-10 20:15:16.92	62.32	16.74	-49.5	-55.1	3.7	0.00e+00	0	51	104	0	69	29481
2026-01-10 20:15:17.93	62.63	16.81	-49.5	-55.1	3.7	0.00e+00	0	51	104	0	69	29379
2026-01-10 20:15:18.93	62.93	16.89	-49.5	-55.1	3.7	0.00e+00	0	51	104	0	69	29410
2026-01-10 20:15:19.94	63.25	16.96	-49.5	-55.2	3.7	0.00e+00	0	51	104	0	69	29484
2026-01-10 20:15:20.94	63.56	17.03	-49.5	-55.1	3.7	0.00e+00	0	51	104	0	69	29460
2026-01-10 20:15:21.94	63.87	17.10	-49.5	-55.1	3.7	0.00e+00	0	51	104	0	69	29446
2026-01-10 20:15:22.95	64.19	17.17	-49.5	-55.2	3.7	0.00e+00	0	51	104	0	69	29532
2026-01-10 20:15:23.95	64.50	17.23	-49.5	-55.2	3.7	0.00e+00	0	51	104	0	69	29526
2026-01-10 20:15:24.96	64.83	17.30	-49.5	-55.2	3.7	0.00e+00	0	51	104	0	69	29484
2026-01-10 20:15:25.96	65.15	17.37	-49.4	-55.1	3.7	0.00e+00	0	51	104	0	69	29482
2026-01-10 20:15:26.96	65.47	17.44	-49.5	-55.1	3.7	0.00e+00	0	51	104	0	69	29473
2026-01-10 20:15:27.97	65.79	17.51	-49.5	-55.1	3.7	0.00e+00	0	51	104	0	69	29402
2026-01-10 20:15:28.97	66.12	17.57	-49.5	-55.1	3.7	0.00e+00	0	51	104	0	69	29387
2026-01-10 20:15:29.98	66.45	17.64	-49.5	-55.1	3.7	0.00e+00	0	51	104	0	69	29420
2026-01-10 20:15:30.98	66.78	17.70	-49.5	-55.1	3.7	0.00e+00	0	51	104	0	69	29458
2026-01-10 20:15:31.99	67.11	17.77	-49.5	-55.1	3.7	0.00e+00	0	51	104	0	69	29482
2026-01-10 20:15:32.99	67.44	17.83	-49.5	-55.1	3.7	0.00e+00	0	51	104	0	69	29467
2026-01-10 20:15:33.99	67.77	17.89	-49.4	-55.2	3.7	0.00e+00	0	51	104	0	69	29564
2026-01-10 20:15:35.00	68.11	17.96	-49.5	-55.2	3.7	0.00e+00	0	51	104	0	69	29533
2026-01-10 20:15:36.00	68.45	18.02	-49.5	-55.2	3.7	0.00e+00	0	51	104	0	69	29579
2026-01-10 20:15:37.01	68.79	18.08	-49.5	-55.1	3.7	0.00e+00	0	51	104	0	69	29464
2026-01-10 20:15:38.01	69.13	18.14	-49.5	-55.1	3.7	0.00e+00	0	51	104	0	69	29460
2026-01-10 20:15:39.02	69.47	18.20	-49.5	-55.1	3.7	0.00e+00	0	51	104	0	69	29447
2026-01-10 20:15:40.02	69.81	18.26	-49.5	-55.1	3.7	0.00e+00	0	51	104	0	69	29399
2026-01-10 20:15:41.03	70.16	18.32	-49.5	-55.1	3.7	0.00e+00	0	51	104	0	69	29413
2026-01-10 20:15:42.03	70.51	18.38	-49.5	-55.1	3.7	0.00e+00	0	51	104	0	69	29458
2026-01-10 20:15:43.03	70.85	18.43	-49.5	-55.1	3.7	0.00e+00	0	51	104	0	69	29447
2026-01-10 20:15:44.04	71.21	18.49	-49.5	-55.2	3.7	0.00e+00	0	51	104	0	69	29505
2026-01-10 20:15:45.04	71.56	18.55	-49.5	-55.2	3.7	0.00e+00	0	51	104	0	69	29529
2026-01-10 20:15:46.05	71.91	18.60	-49.5	-55.2	3.7	0.00e+00	0	51	104	0	69	29522
2026-01-10 20:15:47.05	72.26	18.65	-49.5	-55.2	3.7	0.00e+00	0	51	104	0	69	29524
2026-01-10 20:15:48.06	72.62	18.71	-49.5	-55.1	3.6	0.00e+00	0	51	104	0	69	29473
2026-01-10 20:15:49.06	72.98	18.76	-49.5	-55.2	3.7	0.00e+00	0	51	104	0	69	29569
2026-01-10 20:15:50.07	73.34	18.81	-49.5	-55.2	3.7	0.00e+00	0	51	104	0	69	29498
2026-01-10 20:15:51.07	73.70	18.86	-49.5	-55.2	3.7	0.00e+00	0	51	104	0	69	29511
2026-01-10 20:15:52.07	74.06	18.91	-49.5	-55.2	3.7	0.00e+00	0	51	104	0	69	29509
2026-01-10 20:15:53.08	74.42	18.96	-49.5	-55.1	3.7	0.00e+00	0	51	104	0	69	29400
2026-01-10 20:15:54.08	74.79	19.01	-49.5	-55.1	3.7	0.00e+00	0	51	104	0	69	29397
2026-01-10 20:15:55.09	75.15	19.06	-49.5	-55.2	3.7	0.00e+00	0	51	104	0	69	29496
2026-01-10 20:15:56.09	75.52	19.10	-49.5	-55.1	3.7	0.00e+00	0	51	104	0	69	29461
2026-01-10 20:15:57.10	75.89	19.15	-49.5	-55.2	3.7	0.00e+00	0	51	104	0	69	29543
2026-01-10 20:15:58.10	76.26	19.19	-49.5	-55.2	3.7	0.00e+00	0	51	104	0	69	29525
2026-01-10 20:15:59.11	76.63	19.24	-49.5	-55.1	3.7	0.00e+00	0	51	104	0	69	29466
2026-01-10 20:16:00.11	77.00	19.28	-49.5	-55.2	3.7	0.00e+00	0	51	104	0	69	29485
2026-01-10 20:16:01.11	77.37	19.32	-49.5	-55.2	3.7	0.00e+00	0	51	104	0	69	29486
2026-01-10 20:16:02.12	77.75	19.36	-49.5	-55.2	3.7	0.00e+00	0	51	104	0	69	29575
2026-01-10 20:16:03.12	78.12	19.40	-49.5	-55.1	3.7	0.00e+00	0	51	104	0	69	29459
2026-01-10 20:16:04.13	78.50	19.44	-49.5	-55.1	3.7	0.00e+00	0	51	104	0	69	29430
2026-01-10 20:16:05.13	78.88	19.48	-49.5	-55.2	3.7	0.00e+00	0	51	104	0	69	29554
2026-01-10 20:16:06.14	79.26	19.51	-49.5	-55.1	3.7	0.00e+00	0	51	104	0	69	29454
2026-01-10 20:16:07.14	79.63	19.55	-49.5	-55.2	3.7	0.00e+00	0	51	104	0	69	29500
2026-01-10 20:16:08.14	80.01	19.58	-49.5	-55.2	3.7	0.00e+00	0	51	104	0	69	29528
2026-01-10 20:16:09.15	80.40	19.61	-49.5	-55.1	3.7	0.00e+00	0	51	104	0	69	29454
2026-01-10 20:16:10.15	80.78	19.65	-49.5	-55.2	3.7	0.00e+00	0	51	104	0	69	29543
2026-01-10 20:16:11.16	81.16	19.68	-49.5	-55.1	3.7	0.00e+00	0	51	104	0	69	29461
2026-01-10 20:16:12.16	81.55	19.71	-49.5	-55.1	3.7	0.00e+00	0	51	104	0	69	29471
2026-01-10 20:16:13.16	81.93	19.74	-49.5	-55.2	3.7	0.00e+00	0	51	104	0	69	29512
2026-01-10 20:16:14.17	82.32	19.76	-49.5	-55.1	3.7	0.00e+00	0	51	104	0	69	29439
2026-01-10 20:16:15.17	82.70	19.79	-49.5	-55.1	3.7	0.00e+00	0	51	104	0	69	29452
2026-01-10 20:16:16.18	83.09	19.82	-49.5	-55.2	3.7	0.00e+00	0	51	104	0	69	29513
2026-01-10 20:16:17.18	83.48	19.84	-49.5	-55.1	3.7	0.00e+00	0	51	104	0	69	29474
2026-01-10 20:16:18.19	83.87	19.86	-49.5	-55.2	3.7	0.00e+00	0	51	104	0	69	29500
2026-01-10 20:16:19.19	84.26	19.89	-49.5	-55.2	3.7	0.00e+00	0	51	104	0	69	29501
2026-01-10 20:16:20.20	84.65	19.91	-49.5	-55.1	3.7	0.00e+00	0	51	104	0	69	29469
2026-01-10 20:16:21.20	85.04	19.93	-49.5	-55.1	3.7	0.00e+00	0	51	104	0	69	29481
2026-01-10 20:16:22.21	85.43	19.95	-49.5	-55.2	3.7	0.00e+00	0	51	104	0	69	29522
2026-01-10 20:16:23.21	85.82	19.96	-49.5	-55.2	3.7	0.00e+00	0	51	104	0	69	29486
2026-01-10 20:16:24.21	86.22	19.98	-49.5	-55.2	3.7	0.00e+00	0	51	104	0	69	29571
2026-01-10 20:16:25.22	86.61	19.99	-49.5	-55.2	3.7	0.00e+00	0	51	104	0	69	29492
2026-01-10 20:16:26.22	87.00	20.01	-49.5	-55.1	3.7	0.00e+00	0	51	104	0	69	29410
2026-01-10 20:16:27.23	87.40	20.02	-49.5	-55.1	3.7	0.00e+00	0	51	104	0	69	29428
2026-01-10 20:16:28.23	87.79	20.03	-49.5	-55.1	3.7	0.00e+00	0	51	104	0	69	29400
2026-01-10 20:16:29.24	88.19	20.04	-49.5	-55.2	3.7	0.00e+00	0	51	104	0	69	29493
2026-01-10 20:16:30.24	88.58	20.05	-49.5	-55.1	3.7	0.00e+00	0	51	104	0	69	29452
2026-01-10 20:16:31.25	88.98	20.06	-49.5	-55.2	3.7	0.00e+00	0	51	104	0	69	29509
2026-01-10 20:16:32.25	89.37	20.07	-49.5	-55.1	3.7	0.00e+00	0	51	104	0	69	29407
2026-01-10 20:16:33.25	89.77	20.07	-49.5	-55.2	3.7	0.00e+00	0	51	104	0	69	29536
2026-01-10 20:16:34.26	90.16	20.07	-49.5	-55.1	3.7	0.00e+00	0	51	104	0	69	29483
2026-01-10 20:16:35.27	90.56	20.08	-49.5	-55.2	3.7	0.00e+00	0	51	104	0	69	29614
2026-01-10 20:16:36.27	90.96	20.08	-49.5	-55.2	3.7	0.00e+00	0	51	104	0	69	29541
2026-01-10 20:16:37.27	91.35	20.08	-49.5	-55.1	3.7	0.00e+00	0	51	104	0	69	29473
2026-01-10 20:16:38.28	91.75	20.08	-49.5	-55.1	3.7	0.00e+00	0	51	104	0	69	29483
2026-01-10 20:16:39.28	92.14	20.08	-49.5	-55.1	3.7	0.00e+00	0	51	104	0	69	29444
2026-01-10 20:16:40.28	92.54	20.07	-49.5	-55.2	3.7	0.00e+00	0	51	104	0	69	29513
2026-01-10 20:16:41.29	92.94	20.07	-49.5	-55.1	3.7	0.00e+00	0	51	104	0	69	29356
2026-01-10 20:16:42.29	93.33	20.06	-49.5	-55.2	3.7	0.00e+00	0	51	104	0	69	29517
2026-01-10 20:16:43.30	93.73	20.06	-49.5	-55.2	3.7	0.00e+00	0	52	104	0	69	29531
2026-01-10 20:16:44.30	94.12	20.05	-49.5	-55.1	3.7	0.00e+00	0	51	104	0	69	29478
2026-01-10 20:16:45.31	94.52	20.04	-49.5	-55.2	3.7	0.00e+00	0	51	104	0	69	29492
2026-01-10 20:16:46.31	94.91	20.03	-49.5	-55.1	3.7	0.00e+00	0	51	104	0	69	29477
2026-01-10 20:16:47.32	95.31	20.02	-49.5	-55.2	3.7	0.00e+00	0	52	104	0	69	29495
2026-01-10 20:16:48.32	95.70	20.00	-49.5	-55.2	3.6	0.00e+00	0	51	104	0	69	29593
2026-01-10 20:16:49.32	96.09	19.99	-49.5	-55.1	3.7	0.00e+00	0	51	104	0	69	29468
2026-01-10 20:16:50.33	96.49	19.97	-49.5	-55.1	3.7	0.00e+00	0	51	104	0	69	29462
2026-01-10 20:16:51.33	96.88	19.96	-49.5	-55.2	3.7	0.00e+00	0	51	104	0	69	29487
2026-01-10 20:16:52.34	97.27	19.94	-49.5	-55.1	3.7	0.00e+00	0	51	104	0	69	29425
2026-01-10 20:16:53.34	97.66	19.92	-49.5	-55.1	3.7	0.00e+00	0	51	104	0	69	29467
2026-01-10 20:16:54.34	98.05	19.90	-49.5	-55.2	3.7	0.00e+00	0	51	104	0	69	29516
2026-01-10 20:16:55.35	98.45	19.88	-49.5	-55.1	3.7	0.00e+00	0	51	104	0	69	29424
2026-01-10 20:16:56.35	98.84	19.86	-49.5	-55.2	3.7	0.00e+00	0	51	104	0	69	29488
2026-01-10 20:16:57.36	99.23	19.83	-49.5	-55.2	3.7	0.00e+00	0	51	104	0	69	29509
2026-01-10 20:16:58.36	99.61	19.81	-49.5	-55.2	3.7	0.00e+00	0	51	104	0	69	29494
2026-01-10 20:16:59.37	100.00	19.78	-49.5	-55.2	3.7	0.00e+00	0	51	104	0	69	29585
2026-01-10 20:17:00.37	100.39	19.76	-49.5	-55.2	3.7	0.00e+00	0	51	104	0	69	29494
2026-01-10 20:17:01.38	100.78	19.73	-49.5	-55.2	3.7	0.00e+00	0	51	104	0	69	29503
2026-01-10 20:17:02.38	101.16	19.70	-49.5	-55.2	3.7	0.00e+00	0	51	104	0	69	29551
2026-01-10 20:17:03.38	101.55	19.67	-49.5	-55.2	3.7	0.00e+00	0	51	104	0	69	29530
2026-01-10 20:17:04.39	101.93	19.64	-49.5	-55.1	3.7	0.00e+00	0	51	104	0	69	29459
2026-01-10 20:17:05.39	102.31	19.60	-49.5	-55.2	3.7	0.00e+00	0	51	104	0	69	29532
2026-01-10 20:17:06.39	102.69	19.57	-49.5	-55.1	3.7	0.00e+00	0	51	104	0	69	29471
2026-01-10 20:17:07.40	103.08	19.54	-49.5	-55.2	3.7	0.00e+00	0	51	104	0	69	29573
2026-01-10 20:17:08.41	103.46	19.50	-49.5	-55.1	3.7	0.00e+00	0	51	104	0	69	29394
2026-01-10 20:17:09.41	103.84	19.46	-49.5	-55.2	3.7	0.00e+00	0	51	104	0	69	29488
2026-01-10 20:17:10.41	104.22	19.43	-49.5	-55.2	3.7	0.00e+00	0	51	104	0	69	29505
2026-01-10 20:17:11.42	104.59	19.39	-49.5	-55.2	3.7	0.00e+00	0	51	104	0	69	29540
2026-01-10 20:17:12.42	104.97	19.35	-49.5	-55.2	3.7	0.00e+00	0	52	104	0	69	29503
2026-01-10 20:17:13.43	105.35	19.31	-49.5	-55.1	3.7	0.00e+00	0	51	104	0	69	29446
2026-01-10 20:17:14.43	105.72	19.26	-49.5	-55.2	3.7	0.00e+00	0	51	104	0	69	29515
2026-01-10 20:17:15.44	106.09	19.22	-49.5	-55.2	3.7	0.00e+00	0	51	104	0	69	29529
2026-01-10 20:17:16.44	106.46	19.18	-49.5	-55.2	3.7	0.00e+00	0	51	104	0	69	29578
2026-01-10 20:17:17.45	106.84	19.13	-49.5	-55.2	3.7	0.00e+00	0	51	104	0	69	29490
2026-01-10 20:17:18.45	107.20	19.09	-49.5	-55.2	3.7	0.00e+00	0	51	104	0	69	29558
2026-01-10 20:17:19.45	107.57	19.04	-49.5	-55.1	3.7	0.00e+00	0	51	104	0	69	29455
2026-01-10 20:17:20.45	107.93	18.99	-49.5	-55.2	3.7	0.00e+00	0	51	104	0	69	29493
2026-01-10 20:17:21.45	108.30	18.94	-49.5	-55.2	3.7	0.00e+00	0	51	104	0	69	29594
2026-01-10 20:17:22.46	108.66	18.90	-49.5	-55.2	3.7	0.00e+00	0	52	104	0	69	29507
2026-01-10 20:17:23.46	109.03	18.84	-49.5	-55.2	3.7	0.00e+00	0	51	104	0	69	29534
2026-01-10 20:17:24.46	109.39	18.79	-49.5	-55.2	3.7	0.00e+00	0	51	104	0	69	29507
2026-01-10 20:17:25.47	109.75	18.74	-49.5	-55.2	3.7	0.00e+00	0	51	104	0	69	29521
2026-01-10 20:17:26.48	110.11	18.69	-49.5	-55.1	3.7	0.00e+00	0	51	104	0	69	29476
2026-01-10 20:17:27.48	110.46	18.63	-49.5	-55.2	3.7	0.00e+00	0	51	104	0	69	29504
2026-01-10 20:17:28.48	110.82	18.58	-49.5	-55.2	3.7	0.00e+00	0	51	104	0	69	29521
2026-01-10 20:17:29.49	111.17	18.53	-49.5	-55.2	3.7	0.00e+00	0	51	104	0	69	29497
2026-01-10 20:17:30.49	111.52	18.47	-49.5	-55.2	3.7	0.00e+00	0	52	104	0	69	29543
2026-01-10 20:17:31.50	111.88	18.41	-49.5	-55.2	3.7	0.00e+00	0	51	104	0	69	29511
2026-01-10 20:17:32.50	112.23	18.35	-49.5	-55.2	3.7	0.00e+00	0	51	104	0	69	29510
2026-01-10 20:17:33.51	112.58	18.30	-49.5	-55.2	3.7	0.00e+00	0	51	104	0	69	29609
2026-01-10 20:17:34.51	112.92	18.24	-49.5	-55.1	3.7	0.00e+00	0	51	104	0	69	29442
2026-01-10 20:17:35.51	113.26	18.18	-49.5	-55.2	3.7	0.00e+00	0	51	104	0	69	29590
2026-01-10 20:17:36.52	113.61	18.12	-49.5	-55.2	3.7	0.00e+00	0	51	104	0	69	29530
2026-01-10 20:17:37.52	113.95	18.06	-49.5	-55.2	3.7	0.00e+00	0	51	104	0	69	29505
2026-01-10 20:17:38.53	114.29	17.99	-49.5	-55.2	3.7	0.00e+00	0	51	104	0	69	29495
2026-01-10 20:17:39.53	114.63	17.93	-49.5	-55.2	3.7	0.00e+00	0	51	104	0	69	29499
2026-01-10 20:17:40.54	114.97	17.87	-49.5	-55.2	3.7	0.00e+00	0	51	104	0	69	29546
2026-01-10 20:17:41.54	115.30	17.80	-49.5	-55.2	3.7	0.00e+00	0	51	104	0	69	29597
2026-01-10 20:17:42.54	115.64	17.74	-49.5	-55.2	3.7	0.00e+00	0	51	104	0	69	29529
2026-01-10 20:17:43.55	115.97	17.67	-49.5	-55.2	3.7	0.00e+00	0	51	104	0	69	29522
2026-01-10 20:17:44.55	116.30	17.61	-49.5	-55.1	3.7	0.00e+00	0	51	104	0	69	29399
2026-01-10 20:17:45.56	116.63	17.54	-49.6	-55.2	3.7	0.00e+00	0	51	104	0	69	29548
2026-01-10 20:17:46.56	116.96	17.47	-49.5	-55.2	3.7	0.00e+00	0	52	104	0	69	29543
2026-01-10 20:17:47.57	117.28	17.41	-49.5	-55.2	3.7	0.00e+00	0	51	104	0	69	29543
2026-01-10 20:17:48.57	117.61	17.34	-49.5	-55.2	3.7	0.00e+00	0	51	104	0	69	29528
2026-01-10 20:17:49.57	117.93	17.27	-49.5	-55.2	3.7	0.00e+00	0	51	104	0	69	29595
2026-01-10 20:17:50.58	118.25	17.20	-49.5	-55.2	3.7	0.00e+00	0	51	104	0	69	29512
2026-01-10 20:17:51.58	118.57	17.13	-49.5	-55.2	3.7	0.00e+00	0	52	104	0	69	29487
2026-01-10 20:17:52.59	118.89	17.06	-49.5	-55.1	3.7	0.00e+00	0	51	104	0	69	29458
2026-01-10 20:17:53.59	119.20	16.99	-49.5	-55.2	3.7	0.00e+00	0	51	104	0	69	29581
2026-01-10 20:17:54.59	119.51	16.92	-49.5	-55.2	3.7	0.00e+00	0	52	104	0	69	29490
2026-01-10 20:17:55.60	119.83	16.85	-49.5	-55.2	3.7	0.00e+00	0	51	104	0	69	29559
2026-01-10 20:17:56.60	120.14	16.78	-49.5	-55.1	3.7	0.00e+00	0	51	104	0	69	29446
2026-01-10 20:17:57.61	120.45	16.70	-49.5	-55.2	3.7	0.00e+00	0	51	104	0	69	29542
2026-01-10 20:17:58.61	120.75	16.63	-49.5	-55.2	3.7	0.00e+00	0	51	104	0	69	29574
2026-01-10 20:17:59.61	121.06	16.56	-49.5	-55.1	3.7	0.00e+00	0	52	104	0	69	29476
2026-01-10 20:18:00.62	121.36	16.48	-49.5	-55.1	3.7	0.00e+00	0	51	104	0	69	29483
2026-01-10 20:18:01.62	121.66	16.41	-49.5	-55.2	3.7	0.00e+00	0	51	104	0	69	29585
2026-01-10 20:18:02.63	121.97	16.34	-49.5	-55.2	3.7	0.00e+00	0	51	104	0	69	29628
2026-01-10 20:18:03.63	122.26	16.26	-49.5	-55.2	3.7	0.00e+00	0	51	104	0	69	29592
2026-01-10 20:18:04.63	122.56	16.19	-49.5	-55.2	3.7	0.00e+00	0	51	104	0	69	29498
2026-01-10 20:18:05.64	122.86	16.11	-49.5	-55.2	3.7	0.00e+00	0	52	104	0	69	29495
2026-01-10 20:18:06.64	123.15	16.04	-49.5	-55.2	3.7	0.00e+00	0	51	104	0	69	29491
2026-01-10 20:18:07.65	123.44	15.96	-49.5	-55.2	3.7	0.00e+00	0	51	104	0	69	29536
2026-01-10 20:18:08.65	123.73	15.88	-49.5	-55.2	3.7	0.00e+00	0	51	104	0	69	29521
2026-01-10 20:18:09.65	124.02	15.81	-49.5	-55.2	3.7	0.00e+00	0	51	104	0	69	29543
2026-01-10 20:18:10.66	124.30	15.73	-49.5	-55.2	3.7	0.00e+00	0	51	104	0	69	29527
2026-01-10 20:18:11.66	124.59	15.65	-49.5	-55.2	3.7	0.00e+00	0	51	104	0	69	29532
2026-01-10 20:18:12.67	124.87	15.57	-49.5	-55.2	3.7	0.00e+00	0	51	104	0	69	29629
2026-01-10 20:18:13.67	125.15	15.50	-49.5	-55.1	3.6	0.00e+00	0	51	104	0	69	29432
2026-01-10 20:18:14.68	125.43	15.42	-49.5	-55.2	3.7	0.00e+00	0	51	104	0	69	29586
2026-01-10 20:18:15.68	125.71	15.34	-49.5	-55.2	3.7	0.00e+00	0	51	104	0	69	29560
2026-01-10 20:18:16.69	125.99	15.26	-49.5	-55.1	3.7	0.00e+00	0	51	104	0	69	29464
2026-01-10 20:18:17.69	126.26	15.18	-49.5	-55.2	3.7	0.00e+00	0	51	104	0	69	29577
2026-01-10 20:18:18.69	126.53	15.10	-49.5	-55.2	3.7	0.00e+00	0	52	104	0	69	29529
2026-01-10 20:18:19.70	126.81	15.02	-49.5	-55.1	3.7	0.00e+00	0	52	104	0	69	29366
2026-01-10 20:18:20.70	127.08	14.95	-49.5	-55.1	3.7	0.00e+00	0	52	104	0	69	29398
2026-01-10 20:18:21.71	127.35	14.87	-49.5	-55.1	3.7	0.00e+00	0	51	104	0	69	29391
2026-01-10 20:18:22.71	127.61	14.79	-49.5	-55.2	3.7	0.00e+00	0	51	104	0	69	29536
2026-01-10 20:18:23.72	127.88	14.71	-49.5	-55.2	3.7	0.00e+00	0	52	104	0	69	29519
2026-01-10 20:18:24.72	128.14	14.63	-49.5	-55.2	3.7	0.00e+00	0	51	104	0	69	29538
2026-01-10 20:18:25.72	128.40	14.55	-49.5	-55.2	3.7	0.00e+00	0	52	104	0	69	29507
2026-01-10 20:18:26.73	128.66	14.47	-49.5	-55.2	3.7	0.00e+00	0	51	104	0	69	29531
2026-01-10 20:18:27.73	128.92	14.39	-49.5	-55.2	3.7	0.00e+00	0	51	104	0	69	29603
2026-01-10 20:18:28.74	129.17	14.31	-49.5	-55.2	3.7	0.00e+00	0	52	104	0	69	29536
2026-01-10 20:18:29.74	129.43	14.23	-49.5	-55.2	3.7	0.00e+00	0	51	104	0	69	29492
2026-01-10 20:18:30.74	129.68	14.14	-49.5	-55.2	3.7	0.00e+00	0	51	104	0	69	29516
2026-01-10 20:18:31.75	129.93	14.06	-49.5	-55.1	3.7	0.00e+00	0	51	104	0	69	29470
2026-01-10 20:18:32.75	130.18	13.98	-49.5	-55.2	3.7	0.00e+00	0	51	104	0	69	29526
2026-01-10 20:18:33.75	130.43	13.90	-49.5	-55.2	3.7	0.00e+00	0	51	104	0	69	29532
2026-01-10 20:18:34.76	130.68	13.82	-49.5	-55.2	3.7	0.00e+00	0	52	104	0	69	29539
2026-01-10 20:18:35.76	130.92	13.74	-49.5	-55.1	3.7	0.00e+00	0	51	104	0	69	29432
2026-01-10 20:18:36.77	131.17	13.66	-49.5	-55.2	3.7	0.00e+00	0	51	104	0	69	29485
2026-01-10 20:18:37.77	131.41	13.58	-49.5	-55.1	3.7	0.00e+00	0	52	104	0	69	29458
2026-01-10 20:18:38.78	131.65	13.50	-49.5	-55.2	3.7	0.00e+00	0	51	104	0	69	29573
2026-01-10 20:18:39.78	131.89	13.41	-49.5	-55.1	3.7	0.00e+00	0	51	104	0	69	29482
2026-01-10 20:18:40.79	132.13	13.33	-49.5	-55.2	3.7	0.00e+00	0	51	104	0	69	29615
2026-01-10 20:18:41.79	132.36	13.25	-49.5	-55.2	3.7	0.00e+00	0	52	104	0	69	29573
2026-01-10 20:18:42.79	132.59	13.17	-49.5	-55.1	3.7	0.00e+00	0	51	104	0	69	29446
2026-01-10 20:18:43.80	132.83	13.09	-49.5	-55.2	3.7	0.00e+00	0	52	104	0	69	29533
2026-01-10 20:18:44.80	133.06	13.01	-49.5	-55.1	3.7	0.00e+00	0	51	104	0	69	29480
2026-01-10 20:18:45.81	133.29	12.93	-49.5	-55.1	3.7	0.00e+00	0	52	104	0	69	29439
2026-01-10 20:18:46.81	133.52	12.85	-49.5	-55.1	3.7	0.00e+00	0	52	104	0	69	29452
2026-01-10 20:18:47.82	133.75	12.76	-49.5	-55.1	3.7	0.00e+00	0	52	104	0	69	29472
2026-01-10 20:18:48.82	133.97	12.68	-49.5	-55.2	3.7	0.00e+00	0	51	104	0	69	29527
2026-01-10 20:18:49.83	134.19	12.60	-49.5	-55.2	3.7	0.00e+00	0	51	104	0	69	29535
2026-01-10 20:18:50.83	134.42	12.52	-49.5	-55.2	3.7	0.00e+00	0	51	104	0	69	29653
2026-01-10 20:18:51.84	134.64	12.44	-49.5	-55.2	3.7	0.00e+00	0	51	104	0	69	29492
2026-01-10 20:18:52.84	134.86	12.36	-49.5	-55.2	3.7	0.00e+00	0	52	104	0	69	29522
2026-01-10 20:18:53.84	135.07	12.28	-49.5	-55.2	3.7	0.00e+00	0	52	104	0	69	29596
2026-01-10 20:18:54.85	135.29	12.19	-49.5	-55.2	3.7	0.00e+00	0	51	104	0	69	29532
2026-01-10 20:18:55.85	135.51	12.11	-49.5	-55.2	3.7	0.00e+00	0	52	104	0	69	29488
2026-01-10 20:18:56.86	135.72	12.03	-49.5	-55.2	3.7	0.00e+00	0	51	104	0	69	29542
2026-01-10 20:18:57.86	135.93	11.95	-49.5	-55.1	3.7	0.00e+00	0	51	104	0	69	29459
2026-01-10 20:18:58.87	136.14	11.87	-49.5	-55.2	3.7	0.00e+00	0	51	104	0	69	29527
2026-01-10 20:18:59.87	136.35	11.79	-49.5	-55.2	3.7	0.00e+00	0	51	104	0	69	29558
2026-01-10 20:19:00.87	136.56	11.71	-49.5	-55.1	3.7	0.00e+00	0	52	104	0	69	29480
2026-01-10 20:19:01.88	136.77	11.63	-49.5	-55.2	3.7	0.00e+00	0	52	104	0	69	29488
2026-01-10 20:19:02.89	136.98	11.55	-49.5	-55.2	3.7	0.00e+00	0	51	104	0	69	29500
2026-01-10 20:19:03.89	137.18	11.46	-49.5	-55.2	3.7	0.00e+00	0	52	104	0	69	29575
2026-01-10 20:19:04.89	137.38	11.38	-49.5	-55.1	3.7	0.00e+00	0	51	104	0	69	29463
2026-01-10 20:19:05.90	137.58	11.30	-49.5	-55.2	3.7	0.00e+00	0	52	104	0	69	29549
2026-01-10 20:19:06.90	137.78	11.22	-49.5	-55.2	3.7	0.00e+00	0	52	104	0	69	29538
2026-01-10 20:19:07.91	137.98	11.14	-49.5	-55.2	3.7	0.00e+00	0	52	104	0	69	29538
2026-01-10 20:19:08.91	138.18	11.06	-49.5	-55.2	3.7	0.00e+00	0	52	104	0	69	29520
2026-01-10 20:19:09.91	138.37	10.98	-49.5	-55.1	3.7	0.00e+00	0	52	104	0	69	29434
2026-01-10 20:19:10.92	138.57	10.90	-49.5	-55.2	3.7	0.00e+00	0	51	104	0	69	29566
2026-01-10 20:19:11.92	138.76	10.82	-49.5	-55.2	3.7	0.00e+00	0	52	104	0	69	29508
2026-01-10 20:19:12.93	138.96	10.74	-49.5	-55.2	3.7	0.00e+00	0	51	104	0	69	29543
2026-01-10 20:19:13.93	139.15	10.66	-49.5	-55.2	3.7	0.00e+00	0	52	104	0	69	29558
2026-01-10 20:19:14.94	139.34	10.58	-49.5	-55.2	3.7	0.00e+00	0	52	104	0	69	29514
2026-01-10 20:19:15.94	139.53	10.50	-49.5	-55.2	3.7	0.00e+00	0	52	104	0	69	29612
2026-01-10 20:19:16.95	139.72	10.42	-49.5	-55.2	3.7	0.00e+00	0	52	104	0	69	29512
2026-01-10 20:19:17.95	139.90	10.34	-49.5	-55.2	3.7	0.00e+00	0	52	104	0	69	29631
2026-01-10 20:19:18.95	140.09	10.26	-49.5	-55.2	3.7	0.00e+00	0	52	104	0	69	29609
2026-01-10 20:19:19.96	140.27	10.19	-49.5	-55.2	3.7	0.00e+00	0	51	104	0	69	29543
2026-01-10 20:19:20.96	140.45	10.11	-49.5	-55.2	3.7	0.00e+00	0	51	104	0	69	29526
2026-01-10 20:19:21.97	140.63	10.03	-49.5	-55.2	3.7	0.00e+00	0	51	104	0	69	29498
2026-01-10 20:19:22.97	140.81	9.95	-49.5	-55.1	3.7	0.00e+00	0	52	104	0	69	29367
2026-01-10 20:19:23.98	140.99	9.87	-49.5	-55.1	3.7	0.00e+00	0	52	104	0	69	29437
2026-01-10 20:19:24.98	141.17	9.79	-49.5	-55.1	3.7	0.00e+00	0	52	104	0	69	29457
2026-01-10 20:19:25.98	141.35	9.71	-49.5	-55.1	3.7	0.00e+00	0	51	104	0	69	29483
2026-01-10 20:19:26.99	141.52	9.63	-49.5	-55.2	3.7	0.00e+00	0	51	104	0	69	29576
2026-01-10 20:19:27.99	141.70	9.56	-49.5	-55.2	3.7	0.00e+00	0	52	104	0	69	29578
2026-01-10 20:19:29.00	141.87	9.48	-49.5	-55.2	3.6	0.00e+00	0	51	104	0	69	29547
2026-01-10 20:19:30.00	142.04	9.40	-49.5	-55.2	3.7	0.00e+00	0	52	104	0	69	29511
2026-01-10 20:19:31.01	142.22	9.32	-49.5	-55.2	3.7	0.00e+00	0	52	104	0	69	29600
2026-01-10 20:19:32.01	142.39	9.25	-49.5	-55.2	3.7	0.00e+00	0	52	104	0	69	29489
2026-01-10 20:19:33.01	142.55	9.17	-49.5	-55.2	3.7	0.00e+00	0	52	104	0	69	29512
2026-01-10 20:19:34.02	142.72	9.09	-49.5	-55.2	3.7	0.00e+00	0	52	104	0	69	29490
2026-01-10 20:19:35.02	142.89	9.01	-49.5	-55.2	3.7	0.00e+00	0	52	104	0	69	29514
2026-01-10 20:19:36.03	143.05	8.94	-49.5	-55.2	3.7	0.00e+00	0	51	104	0	69	29505
2026-01-10 20:19:37.03	143.22	8.86	-49.5	-55.2	3.7	0.00e+00	0	51	104	0	69	29528
2026-01-10 20:19:38.04	143.38	8.78	-49.5	-55.2	3.7	0.00e+00	0	51	104	0	69	29559
2026-01-10 20:19:39.04	143.55	8.71	-49.5	-55.1	3.7	0.00e+00	0	52	104	0	69	29450
2026-01-10 20:19:40.04	143.71	8.63	-49.5	-55.2	3.7	0.00e+00	0	51	104	0	69	29521
2026-01-10 20:19:41.05	143.87	8.55	-49.5	-55.1	3.7	0.00e+00	0	51	104	0	69	29476
2026-01-10 20:19:42.05	144.03	8.48	-49.5	-55.2	3.7	0.00e+00	0	52	104	0	69	29492
2026-01-10 20:19:43.06	144.19	8.40	-49.5	-55.2	3.7	0.00e+00	0	52	104	0	69	29579
2026-01-10 20:19:44.06	144.34	8.33	-49.5	-55.2	3.7	0.00e+00	0	52	104	0	69	29613
2026-01-10 20:19:45.07	144.50	8.25	-49.5	-55.2	3.7	0.00e+00	0	51	104	0	69	29607
2026-01-10 20:19:46.07	144.65	8.17	-49.5	-55.2	3.7	0.00e+00	0	52	104	0	69	29558
2026-01-10 20:19:47.07	144.81	8.10	-49.5	-55.2	3.7	0.00e+00	0	51	104	0	69	29506
2026-01-10 20:19:48.08	144.96	8.02	-49.5	-55.2	3.7	0.00e+00	0	52	104	0	69	29522
2026-01-10 20:19:49.08	145.12	7.95	-49.5	-55.2	3.7	0.00e+00	0	52	104	0	69	29609
2026-01-10 20:19:50.09	145.27	7.87	-49.5	-55.2	3.7	0.00e+00	0	51	104	0	69	29541
2026-01-10 20:19:51.09	145.42	7.80	-49.5	-55.2	3.7	0.00e+00	0	52	104	0	69	29515
2026-01-10 20:19:52.09	145.57	7.72	-49.5	-55.2	3.7	0.00e+00	0	51	104	0	69	29589
2026-01-10 20:19:53.10	145.72	7.65	-49.5	-55.2	3.7	0.00e+00	0	52	104	0	69	29573
2026-01-10 20:19:54.10	145.86	7.58	-49.5	-55.2	3.7	0.00e+00	0	52	104	0	69	29644
2026-01-10 20:19:55.10	146.01	7.50	-49.5	-55.2	3.7	0.00e+00	0	52	104	0	69	29585
2026-01-10 20:19:56.11	146.16	7.43	-49.5	-55.2	3.7	0.00e+00	0	51	104	0	69	29527
2026-01-10 20:19:57.11	146.30	7.35	-49.5	-55.2	3.7	0.00e+00	0	52	104	0	69	29602
2026-01-10 20:19:58.12	146.45	7.28	-49.5	-55.2	3.7	0.00e+00	0	52	104	0	69	29545
2026-01-10 20:19:59.12	146.59	7.21	-49.5	-55.2	3.7	0.00e+00	0	51	104	0	69	29538
2026-01-10 20:20:00.13	146.73	7.13	-49.5	-55.2	3.7	0.00e+00	0	51	104	0	69	29507
2026-01-10 20:20:01.13	146.87	7.06	-49.5	-55.2	3.7	0.00e+00	0	52	104	0	69	29484
2026-01-10 20:20:02.14	147.02	6.99	-49.5	-55.2	3.7	0.00e+00	0	52	104	0	69	29532
2026-01-10 20:20:03.14	147.15	6.91	-49.5	-55.2	3.7	0.00e+00	0	51	104	0	69	29496
2026-01-10 20:20:04.14	147.29	6.84	-49.5	-55.2	3.7	0.00e+00	0	52	104	0	69	29576
2026-01-10 20:20:05.15	147.43	6.77	-49.5	-55.2	3.7	0.00e+00	0	51	104	0	69	29525
2026-01-10 20:20:06.15	147.57	6.70	-49.5	-55.2	3.7	0.00e+00	0	52	104	0	69	29601
2026-01-10 20:20:07.16	147.71	6.62	-49.5	-55.2	3.7	0.00e+00	0	52	104	0	69	29571
2026-01-10 20:20:08.16	147.84	6.55	-49.5	-55.2	3.7	0.00e+00	0	51	104	0	69	29580
2026-01-10 20:20:09.17	147.98	6.48	-49.5	-55.2	3.7	0.00e+00	0	51	104	0	69	29568
2026-01-10 20:20:10.17	148.11	6.41	-49.5	-55.2	3.7	0.00e+00	0	51	104	0	69	29604
2026-01-10 20:20:11.17	148.24	6.34	-49.5	-55.2	3.7	0.00e+00	0	52	104	0	69	29582
2026-01-10 20:20:12.18	148.38	6.27	-49.5	-55.2	3.7	0.00e+00	0	52	104	0	69	29524
2026-01-10 20:20:13.18	148.51	6.19	-49.5	-55.2	3.7	0.00e+00	0	52	104	0	69	29507
2026-01-10 20:20:14.19	148.64	6.12	-49.5	-55.2	3.7	0.00e+00	0	51	104	0	69	29565
2026-01-10 20:20:15.19	148.77	6.05	-49.5	-55.1	3.7	0.00e+00	0	52	104	0	69	29475
2026-01-10 20:20:16.19	148.90	5.98	-49.5	-55.2	3.7	0.00e+00	0	51	104	0	69	29554
2026-01-10 20:20:17.20	149.03	5.91	-49.5	-55.2	3.7	0.00e+00	0	52	104	0	69	29574
2026-01-10 20:20:18.20	149.15	5.84	-49.5	-55.2	3.7	0.00e+00	0	51	104	0	69	29613
2026-01-10 20:20:19.21	149.28	5.77	-49.5	-55.2	3.7	0.00e+00	0	52	104	0	69	29585
2026-01-10 20:20:20.21	149.41	5.70	-49.5	-55.2	3.7	0.00e+00	0	52	104	0	69	29549
2026-01-10 20:20:21.22	149.53	5.63	-49.5	-55.2	3.7	0.00e+00	0	51	104	0	69	29506
2026-01-10 20:20:22.22	149.66	5.56	-49.5	-55.2	3.7	0.00e+00	0	51	104	0	69	29568
2026-01-10 20:20:23.23	149.78	5.49	-49.5	-55.2	3.7	0.00e+00	0	52	104	0	69	29535
2026-01-10 20:20:24.23	149.90	5.42	-49.5	-55.2	3.7	0.00e+00	0	52	104	0	69	29548
2026-01-10 20:20:25.23	150.03	5.35	-49.5	-55.2	3.7	0.00e+00	0	51	104	0	69	29583
2026-01-10 20:20:26.24	150.15	5.28	-49.5	-55.2	3.7	0.00e+00	0	52	104	0	69	29593
2026-01-10 20:20:27.24	150.27	5.21	-49.5	-55.2	3.7	0.00e+00	0	52	104	0	69	29597
2026-01-10 20:20:28.24	150.39	5.14	-49.5	-55.2	3.7	0.00e+00	0	52	104	0	69	29638
2026-01-10 20:20:29.25	150.51	5.08	-49.5	-55.2	3.7	0.00e+00	0	52	104	0	69	29617
2026-01-10 20:20:30.26	150.63	5.01	-49.5	-55.2	3.7	0.00e+00	0	51	104	0	69	29670
2026-01-10 20:20:31.26	150.75	4.94	-49.5	-55.2	3.7	0.00e+00	0	52	104	0	69	29625

#Closed at: 2026-01-10 20:20:32
#Recorded file [0 MB]: D:/Data/31040_260110_231243.dat