passes_logs/2026/01/10/T1/T1__20260110_080159_NOAA_20_JPSS-1_rec.log

#Pass ID: 20260110_080159_NOAA 20 (JPSS-1)
#Satellite: NOAA 20 (JPSS-1)
#Configuration: NOAA 20
#almurnet v.1.7.20251203
#Start time: 2026-01-10 08:02:00

#Version: 2.0.20230620
#Station: T1
#Location: 37.570604 lon 55.790049 lat
#TLE: 1 43013U 17073A   26009.26828276  .00000112  00000+0  74203-4 0  9990
#TLE: 2 43013  98.7631 310.2683 0001700  47.4387 312.6933 14.19534764421920

#Time	Az	El	Level	Level2	SNR	BER	BlckErr	Temp	State	Recorded	gain1	gain2
2026-01-10 08:02:00.78	99.57	5.08	-50.5	-65.7	3.8	1.49e+00	0	41	0	0	72	20880
2026-01-10 08:02:01.78	99.47	5.14	-50.4	-65.7	3.8	1.49e+00	0	41	104	0	72	20814
2026-01-10 08:02:02.79	99.38	5.20	-50.4	-65.7	3.8	1.49e+00	0	41	104	0	72	20868
2026-01-10 08:02:03.79	99.28	5.25	-50.5	-65.7	3.8	1.49e+00	0	41	104	0	72	20794
2026-01-10 08:02:04.80	99.19	5.31	-50.4	-65.7	3.8	1.49e+00	0	41	104	0	72	20788
2026-01-10 08:02:05.80	99.09	5.37	-50.4	-65.7	3.8	1.49e+00	0	41	104	0	72	20809
2026-01-10 08:02:06.81	98.99	5.43	-50.5	-65.7	3.8	1.49e+00	0	41	104	0	72	20808
2026-01-10 08:02:07.81	98.90	5.48	-50.4	-65.7	3.8	1.49e+00	0	41	104	0	72	20831
2026-01-10 08:02:08.82	98.80	5.54	-50.5	-65.7	3.8	1.49e+00	0	41	104	0	72	20949
2026-01-10 08:02:09.82	98.70	5.60	-50.5	-65.7	3.8	1.49e+00	0	41	104	0	72	20812
2026-01-10 08:02:10.82	98.61	5.65	-50.4	-65.7	3.8	1.49e+00	0	41	104	0	72	20893
2026-01-10 08:02:11.83	98.51	5.71	-50.5	-65.7	3.8	1.49e+00	0	41	104	0	72	20892
2026-01-10 08:02:12.83	98.41	5.77	-50.5	-65.7	3.8	1.49e+00	0	41	104	0	72	20839
2026-01-10 08:02:13.84	98.31	5.83	-50.5	-65.7	3.8	1.49e+00	0	41	104	0	72	20860
2026-01-10 08:02:14.84	98.21	5.88	-50.5	-65.7	3.8	1.49e+00	0	42	104	0	72	20939
2026-01-10 08:02:15.85	98.11	5.94	-50.5	-65.7	3.8	1.49e+00	0	42	104	0	72	20899
2026-01-10 08:02:16.85	98.01	6.00	-50.5	-65.7	3.8	1.49e+00	0	42	104	0	72	20934
2026-01-10 08:02:17.85	97.91	6.06	-50.5	-65.7	3.8	1.49e+00	0	42	104	0	72	20909
2026-01-10 08:02:18.86	97.81	6.12	-50.5	-65.7	3.8	1.49e+00	0	42	104	0	72	20950
2026-01-10 08:02:19.86	97.71	6.17	-50.5	-65.7	3.8	1.49e+00	0	42	104	0	72	20809
2026-01-10 08:02:20.87	97.60	6.23	-50.5	-65.7	3.8	1.49e+00	0	42	104	0	72	20871
2026-01-10 08:02:21.87	97.50	6.29	-50.4	-65.7	3.8	1.49e+00	0	42	104	0	72	20810
2026-01-10 08:02:22.87	97.40	6.35	-50.5	-65.6	3.8	1.49e+00	0	42	104	0	72	20711
2026-01-10 08:02:23.88	97.30	6.40	-50.5	-65.6	3.8	1.49e+00	0	42	104	0	72	20599
2026-01-10 08:02:24.89	97.19	6.46	-50.4	-65.5	3.8	1.49e+00	0	42	104	0	72	20532
2026-01-10 08:02:25.89	97.09	6.52	-50.4	-65.5	3.8	1.49e+00	0	42	104	0	72	20403
2026-01-10 08:02:26.89	96.99	6.58	-50.4	-65.5	3.8	1.49e+00	0	42	104	0	72	20382
2026-01-10 08:02:27.90	96.88	6.64	-50.4	-65.4	3.8	1.49e+00	0	42	104	0	72	20291
2026-01-10 08:02:28.90	96.78	6.69	-50.4	-65.4	3.8	1.49e+00	0	42	104	0	72	20255
2026-01-10 08:02:29.91	96.67	6.75	-50.5	-65.5	3.8	1.49e+00	0	42	104	0	72	20356
2026-01-10 08:02:30.91	96.56	6.81	-50.4	-65.4	3.8	1.49e+00	0	42	104	0	72	20300
2026-01-10 08:02:31.92	96.46	6.87	-50.5	-65.5	3.8	1.49e+00	0	42	104	0	72	20308
2026-01-10 08:02:32.92	96.35	6.93	-50.5	-65.4	3.8	1.49e+00	0	42	104	0	72	20301
2026-01-10 08:02:33.93	96.24	6.99	-50.4	-65.4	3.8	1.49e+00	0	42	104	0	72	20233
2026-01-10 08:02:34.93	96.13	7.04	-50.4	-65.4	3.8	1.49e+00	0	42	104	0	72	20128
2026-01-10 08:02:35.93	96.03	7.10	-50.4	-65.4	3.8	1.49e+00	0	42	104	0	72	20171
2026-01-10 08:02:36.94	95.92	7.16	-50.4	-65.2	3.8	1.49e+00	0	42	104	0	72	19804
2026-01-10 08:02:37.94	95.81	7.22	-50.4	-65.2	3.8	1.49e+00	0	42	104	0	72	19785
2026-01-10 08:02:38.95	95.70	7.28	-50.4	-65.1	3.8	1.49e+00	0	43	104	0	72	19552
2026-01-10 08:02:39.95	95.59	7.34	-50.4	-65.1	3.8	1.49e+00	0	42	104	0	72	19569
2026-01-10 08:02:40.96	95.48	7.40	-50.4	-65.2	3.8	1.49e+00	0	42	104	0	72	19836
2026-01-10 08:02:41.96	95.37	7.45	-50.4	-65.4	3.8	1.49e+00	0	42	104	0	72	20286
2026-01-10 08:02:42.97	95.26	7.51	-50.4	-65.6	3.8	1.49e+00	0	42	104	0	72	20562
2026-01-10 08:02:43.97	95.14	7.57	-50.4	-65.6	3.8	1.49e+00	0	43	104	0	72	20726
2026-01-10 08:02:44.97	95.03	7.63	-50.4	-65.7	3.8	1.49e+00	0	42	104	0	72	20883
2026-01-10 08:02:45.98	94.92	7.69	-50.4	-65.7	3.8	1.49e+00	0	43	104	0	72	20805
2026-01-10 08:02:46.98	94.81	7.75	-50.4	-65.5	3.8	1.49e+00	0	42	104	0	72	20537
2026-01-10 08:02:47.99	94.69	7.81	-50.4	-65.3	3.8	1.49e+00	0	43	104	0	72	19944
2026-01-10 08:02:48.99	94.58	7.87	-50.4	-64.9	3.8	1.49e+00	0	42	104	0	72	19135
2026-01-10 08:02:49.99	94.46	7.92	-50.4	-64.3	3.8	1.49e+00	0	43	104	0	72	17825
2026-01-10 08:02:51.00	94.35	7.98	-50.4	-64.0	3.8	1.49e+00	0	43	104	0	72	17171
2026-01-10 08:02:52.00	94.23	8.04	-50.3	-63.8	3.8	1.49e+00	0	42	104	0	72	16836
2026-01-10 08:02:53.00	94.12	8.10	-50.3	-64.3	3.8	1.49e+00	0	42	104	0	72	17736
2026-01-10 08:02:54.01	94.00	8.16	-50.4	-65.2	3.8	1.49e+00	0	43	104	0	72	19730
2026-01-10 08:02:55.02	93.88	8.22	-50.4	-65.5	3.8	1.49e+00	0	43	104	0	72	20442
2026-01-10 08:02:56.02	93.76	8.28	-50.3	-63.7	3.8	1.49e+00	0	43	104	0	72	16677
2026-01-10 08:02:57.02	93.65	8.34	-50.0	-60.7	4.7	1.40e+00	0	43	0	0	72	11708
2026-01-10 08:02:58.03	93.53	8.40	-49.7	-58.1	6.4	5.36e-01	0	43	0	2097152	71	9235
2026-01-10 08:02:59.03	93.41	8.46	-49.2	-56.1	8.3	8.90e-02	0	43	0	4194304	70	7748
2026-01-10 08:03:00.04	93.29	8.52	-48.6	-54.3	10.1	2.02e-02	0	43	0	6291456	69	6688
2026-01-10 08:03:01.04	93.17	8.57	-48.4	-53.7	10.7	4.91e-03	0	43	0	7340032	68	6619
2026-01-10 08:03:02.05	93.05	8.63	-48.3	-53.5	10.9	1.93e-03	0	43	0	9437184	68	6460
2026-01-10 08:03:03.05	92.93	8.69	-48.5	-54.1	10.3	2.74e-03	0	43	0	11534336	68	6934
2026-01-10 08:03:04.06	92.81	8.75	-48.8	-54.9	9.6	6.99e-03	0	43	0	13631488	68	7555
2026-01-10 08:03:05.06	92.68	8.81	-49.3	-56.5	7.9	5.19e-02	0	43	0	14680064	69	8624
2026-01-10 08:03:06.06	92.56	8.87	-49.8	-58.6	6.0	1.99e-01	0	43	0	16777216	70	10395
2026-01-10 08:03:07.07	92.44	8.93	-50.2	-61.6	4.4	6.67e-01	0	43	0	18874368	70	14644
2026-01-10 08:03:08.07	92.32	8.99	-50.4	-64.4	3.8	1.43e+00	0	43	104	18874368	71	19054
2026-01-10 08:03:09.07	92.19	9.05	-50.5	-65.6	3.8	1.49e+00	0	43	104	18874368	71	21991
2026-01-10 08:03:10.08	92.07	9.11	-49.8	-58.9	5.7	1.38e+00	0	43	104	18874368	71	10163
2026-01-10 08:03:11.24	91.92	9.18	-50.3	-63.1	4.0	8.14e-01	0	43	0	19922944	71	16327
2026-01-10 08:03:12.13	91.81	9.23	-50.3	-64.3	3.8	1.49e+00	0	43	104	19922944	71	18833
2026-01-10 08:03:13.27	91.67	9.30	-49.5	-57.1	7.6	1.11e+00	0	43	0	19922944	70	8663
2026-01-10 08:03:14.20	91.55	9.35	-50.5	-65.6	3.8	1.49e+00	0	43	104	19922944	71	21924
2026-01-10 08:03:15.38	91.40	9.42	-49.9	-58.9	5.8	1.28e+00	0	43	0	19922944	71	10092
2026-01-10 08:03:16.24	91.29	9.47	-50.0	-59.2	5.6	3.99e-01	0	43	0	20971520	71	10434
2026-01-10 08:03:17.59	91.12	9.55	-50.0	-59.6	5.4	5.56e-01	0	43	0	24117248	71	11027
2026-01-10 08:03:18.31	91.03	9.59	-50.1	-59.6	5.4	5.94e-01	0	43	0	25165824	71	10972
2026-01-10 08:03:19.60	90.86	9.67	-50.2	-60.3	5.0	7.56e-01	0	43	0	27262976	71	11855
2026-01-10 08:03:20.32	90.77	9.71	-50.5	-63.6	3.8	7.20e-01	0	43	104	28311552	71	17384
2026-01-10 08:03:21.61	90.60	9.79	-50.2	-61.0	4.0	1.49e+00	0	43	104	28311552	71	12823
2026-01-10 08:03:22.35	90.50	9.83	-49.7	-57.7	7.3	1.05e-01	0	43	0	28311552	70	9313
2026-01-10 08:03:23.64	90.33	9.91	-49.9	-58.5	4.5	1.49e+00	0	43	104	29360128	71	9612
2026-01-10 08:03:24.41	90.23	9.95	-48.7	-54.5	10.1	1.69e-02	0	43	0	29360128	69	6829
2026-01-10 08:03:25.69	90.06	10.03	-47.7	-52.4	12.1	5.23e-04	0	43	0	32505856	67	6037
2026-01-10 08:03:26.47	89.96	10.08	-47.4	-51.6	12.9	1.10e-04	0	43	0	33554432	66	5846
2026-01-10 08:03:27.76	89.79	10.15	-47.1	-51.1	13.4	9.10e-06	0	43	0	35651584	66	5514
2026-01-10 08:03:28.56	89.68	10.20	-47.0	-51.0	13.5	9.90e-06	0	43	0	37748736	66	5436
2026-01-10 08:03:29.70	89.53	10.27	-47.1	-51.0	13.6	1.22e-05	0	43	0	39845888	66	5444
2026-01-10 08:03:30.74	89.39	10.33	-47.2	-51.2	13.4	1.37e-05	0	43	0	41943040	66	5550
2026-01-10 08:03:31.74	89.25	10.39	-47.1	-51.1	13.4	1.22e-05	0	43	0	42991616	66	5514
2026-01-10 08:03:32.74	89.12	10.45	-47.1	-51.1	13.4	1.06e-05	0	43	0	45088768	66	5510
2026-01-10 08:03:33.74	88.98	10.51	-47.1	-51.1	13.5	1.06e-05	0	43	0	47185920	66	5484
2026-01-10 08:03:34.75	88.84	10.57	-47.0	-50.9	13.6	8.30e-06	0	43	0	49283072	66	5385
2026-01-10 08:03:35.75	88.70	10.62	-47.0	-50.9	13.7	6.80e-06	0	43	0	51380224	66	5372
2026-01-10 08:03:36.75	88.56	10.68	-47.1	-51.0	13.6	8.30e-06	0	43	0	52428800	66	5443
2026-01-10 08:03:37.76	88.42	10.74	-47.0	-50.8	13.7	9.10e-06	0	43	0	54525952	66	5340
2026-01-10 08:03:38.76	88.28	10.80	-47.1	-51.0	13.6	6.80e-06	0	43	0	56623104	66	5435
2026-01-10 08:03:39.76	88.14	10.86	-47.1	-51.1	13.5	6.10e-06	0	43	0	58720256	66	5501
2026-01-10 08:03:40.78	88.00	10.92	-47.1	-51.2	13.4	6.80e-06	0	43	0	60817408	66	5538
2026-01-10 08:03:41.78	87.86	10.98	-47.1	-51.1	13.5	8.30e-06	0	43	0	61865984	66	5486
2026-01-10 08:03:42.85	87.71	11.04	-46.9	-50.8	13.7	3.00e-06	0	43	0	63963136	65	5626
2026-01-10 08:03:43.74	87.58	11.09	-46.9	-50.8	13.7	3.80e-06	0	43	0	66060288	65	5654
2026-01-10 08:03:44.76	87.44	11.15	-47.0	-51.2	13.4	1.14e-05	0	43	0	68157440	65	5878
2026-01-10 08:03:45.76	87.29	11.21	-47.1	-51.3	13.2	2.97e-05	0	43	0	69206016	65	5976
2026-01-10 08:03:46.77	87.15	11.27	-47.0	-51.2	13.4	1.90e-05	0	43	0	71303168	65	5868
2026-01-10 08:03:47.77	87.00	11.33	-47.1	-51.2	13.4	2.05e-05	0	43	0	73400320	65	5865
2026-01-10 08:03:48.77	86.86	11.39	-47.1	-51.2	13.4	1.29e-05	0	43	0	75497472	65	5880
2026-01-10 08:03:49.77	86.71	11.45	-47.1	-51.3	13.3	4.42e-05	0	43	0	77594624	65	5928
2026-01-10 08:03:50.77	86.56	11.51	-47.1	-51.2	13.4	2.21e-05	0	43	0	78643200	65	5905
2026-01-10 08:03:51.78	86.42	11.57	-47.0	-51.0	13.6	1.52e-05	0	43	0	80740352	65	5776
2026-01-10 08:03:52.78	86.27	11.62	-46.9	-51.0	13.6	1.14e-05	0	43	0	82837504	65	5732
2026-01-10 08:03:53.78	86.12	11.68	-47.0	-51.0	13.5	1.29e-05	0	43	0	84934656	65	5782
2026-01-10 08:03:54.83	85.96	11.74	-46.9	-50.9	13.7	5.30e-06	0	43	0	87031808	65	5660
2026-01-10 08:03:55.74	85.83	11.80	-46.9	-50.9	13.7	4.50e-06	0	43	0	88080384	65	5689
2026-01-10 08:03:56.92	85.65	11.87	-46.8	-50.9	13.7	3.80e-06	0	43	0	90177536	65	5676
2026-01-10 08:03:57.78	85.52	11.92	-46.9	-51.0	13.5	6.10e-06	0	43	0	92274688	65	5782
2026-01-10 08:03:59.10	85.32	11.99	-46.8	-50.9	13.7	6.10e-06	0	43	0	94371840	65	5673
2026-01-10 08:03:59.82	85.21	12.03	-46.8	-50.9	13.7	4.50e-06	0	43	0	96468992	65	5678
2026-01-10 08:04:01.11	85.01	12.11	-46.9	-51.0	13.6	5.30e-06	0	43	0	98566144	65	5782
2026-01-10 08:04:01.82	84.91	12.15	-46.9	-51.0	13.6	6.10e-06	0	43	0	99614720	65	5747
2026-01-10 08:04:03.11	84.71	12.23	-47.0	-51.1	13.5	9.10e-06	0	43	0	101711872	65	5839
2026-01-10 08:04:03.88	84.59	12.27	-46.9	-51.0	13.6	6.80e-06	0	43	0	103809024	65	5771
2026-01-10 08:04:05.17	84.39	12.34	-46.8	-50.9	13.7	8.30e-06	0	43	0	105906176	65	5712
2026-01-10 08:04:05.98	84.26	12.39	-46.8	-50.9	13.7	4.50e-06	0	43	0	108003328	65	5680
2026-01-10 08:04:07.13	84.08	12.46	-46.8	-50.9	13.8	5.30e-06	0	43	0	110100480	65	5659
2026-01-10 08:04:08.22	83.91	12.52	-46.8	-50.8	13.8	9.10e-06	0	43	0	112197632	65	5618
2026-01-10 08:04:09.26	83.75	12.58	-46.8	-50.7	13.9	1.50e-06	0	43	0	113246208	65	5564
2026-01-10 08:04:10.26	83.59	12.64	-46.7	-50.5	14.1	1.50e-06	0	43	0	115343360	65	5429
2026-01-10 08:04:11.47	83.40	12.71	-46.6	-50.3	14.3	1.50e-06	0	43	0	117440512	65	5318
2026-01-10 08:04:12.36	83.25	12.76	-46.5	-50.2	14.4	7.00e-07	0	43	0	119537664	65	5239
2026-01-10 08:04:13.37	83.09	12.81	-46.6	-50.3	14.3	0.00e+00	0	43	0	121634816	65	5318
2026-01-10 08:04:14.37	82.93	12.87	-46.6	-50.2	14.4	1.50e-06	0	43	0	123731968	65	5267
2026-01-10 08:04:15.37	82.77	12.93	-46.5	-50.1	14.5	0.00e+00	0	43	0	124780544	65	5198
2026-01-10 08:04:16.38	82.61	12.99	-46.5	-50.0	14.6	0.00e+00	0	43	0	126877696	65	5150
2026-01-10 08:04:17.38	82.44	13.04	-46.4	-49.9	14.7	0.00e+00	0	43	0	128974848	64	5388
2026-01-10 08:04:18.38	82.28	13.10	-46.3	-49.9	14.8	0.00e+00	0	43	0	131072000	64	5350
2026-01-10 08:04:19.39	82.12	13.16	-46.2	-49.8	14.8	1.50e-06	0	43	0	133169152	64	5296
2026-01-10 08:04:20.39	81.95	13.21	-46.3	-49.8	14.8	0.00e+00	0	43	0	134217728	64	5319
2026-01-10 08:04:21.40	81.78	13.27	-46.3	-49.9	14.8	0.00e+00	0	43	0	136314880	64	5356
2026-01-10 08:04:22.40	81.62	13.33	-46.1	-49.7	15.0	0.00e+00	0	43	0	138412032	64	5219
2026-01-10 08:04:23.40	81.45	13.38	-46.1	-49.5	15.1	0.00e+00	0	43	0	140509184	64	5140
2026-01-10 08:04:24.41	81.28	13.44	-46.0	-49.5	15.1	0.00e+00	0	43	0	142606336	64	5127
2026-01-10 08:04:25.46	81.11	13.50	-46.1	-49.5	15.1	0.00e+00	0	43	0	143654912	64	5142
2026-01-10 08:04:26.40	80.95	13.55	-46.1	-49.5	15.1	0.00e+00	0	43	0	145752064	64	5148
2026-01-10 08:04:27.40	80.78	13.61	-46.1	-49.5	15.2	0.00e+00	0	43	0	147849216	64	5103
2026-01-10 08:04:28.40	80.61	13.66	-46.1	-49.5	15.2	0.00e+00	0	43	0	149946368	64	5123
2026-01-10 08:04:29.41	80.44	13.72	-46.0	-49.3	15.4	0.00e+00	0	43	0	152043520	64	4987
2026-01-10 08:04:30.41	80.27	13.77	-46.0	-49.3	15.4	0.00e+00	0	43	0	153092096	64	4993
2026-01-10 08:04:31.41	80.09	13.83	-46.0	-49.3	15.5	0.00e+00	0	43	0	155189248	63	5284
2026-01-10 08:04:32.41	79.92	13.88	-46.1	-49.3	15.4	0.00e+00	0	43	0	157286400	63	5290
2026-01-10 08:04:33.42	79.75	13.94	-46.0	-49.2	15.5	0.00e+00	0	43	0	159383552	63	5251
2026-01-10 08:04:34.42	79.57	13.99	-46.0	-49.1	15.6	0.00e+00	0	43	0	160432128	63	5195
2026-01-10 08:04:35.42	79.40	14.05	-46.0	-49.1	15.6	0.00e+00	0	43	0	162529280	63	5212
2026-01-10 08:04:36.42	79.22	14.10	-46.0	-49.2	15.5	0.00e+00	0	43	0	164626432	63	5243
2026-01-10 08:04:37.43	79.05	14.16	-46.0	-49.2	15.5	7.00e-07	0	43	0	166723584	63	5271
2026-01-10 08:04:38.43	78.87	14.21	-45.9	-49.1	15.7	0.00e+00	0	43	0	168820736	63	5178
2026-01-10 08:04:39.44	78.69	14.27	-45.8	-48.9	15.8	7.00e-07	0	43	0	169869312	63	5094
2026-01-10 08:04:40.44	78.51	14.32	-45.8	-49.0	15.8	0.00e+00	0	43	0	171966464	63	5102
2026-01-10 08:04:41.44	78.34	14.37	-45.8	-48.9	15.8	0.00e+00	0	43	0	174063616	63	5060
2026-01-10 08:04:42.45	78.15	14.43	-45.8	-48.9	15.8	0.00e+00	0	43	0	176160768	63	5069
2026-01-10 08:04:43.45	77.98	14.48	-45.9	-49.0	15.8	0.00e+00	0	43	0	178257920	63	5104
2026-01-10 08:04:44.46	77.79	14.53	-45.7	-48.7	16.1	0.00e+00	0	43	0	179306496	63	4945
2026-01-10 08:04:45.46	77.61	14.59	-45.7	-48.7	16.0	0.00e+00	0	43	0	181403648	63	4945
2026-01-10 08:04:46.46	77.43	14.64	-45.6	-48.6	16.2	0.00e+00	0	43	0	183500800	63	4872
2026-01-10 08:04:47.46	77.25	14.69	-45.4	-48.3	16.4	0.00e+00	0	43	0	185597952	62	5013
2026-01-10 08:04:48.47	77.06	14.75	-45.5	-48.5	16.3	0.00e+00	0	43	0	187695104	62	5107
2026-01-10 08:04:49.47	76.88	14.80	-45.6	-48.7	16.1	0.00e+00	0	44	0	188743680	62	5220
2026-01-10 08:04:50.47	76.70	14.85	-45.5	-48.4	16.3	0.00e+00	0	43	0	190840832	62	5092
2026-01-10 08:04:51.47	76.51	14.90	-45.4	-48.4	16.4	0.00e+00	0	43	0	192937984	62	5046
2026-01-10 08:04:52.48	76.32	14.95	-45.5	-48.5	16.2	0.00e+00	0	43	0	195035136	62	5124
2026-01-10 08:04:53.48	76.14	15.01	-45.5	-48.4	16.3	0.00e+00	0	43	0	197132288	62	5090
2026-01-10 08:04:54.49	75.95	15.06	-45.6	-48.5	16.2	0.00e+00	0	43	0	198180864	62	5142
2026-01-10 08:04:55.49	75.76	15.11	-45.5	-48.4	16.3	0.00e+00	0	43	0	200278016	62	5083
2026-01-10 08:04:56.49	75.57	15.16	-45.4	-48.3	16.5	0.00e+00	0	43	0	202375168	62	4996
2026-01-10 08:04:57.49	75.39	15.21	-45.5	-48.4	16.3	0.00e+00	0	44	0	204472320	62	5081
2026-01-10 08:04:58.50	75.19	15.26	-45.5	-48.4	16.3	0.00e+00	0	43	0	206569472	62	5097
2026-01-10 08:04:59.50	75.00	15.31	-45.5	-48.4	16.3	0.00e+00	0	43	0	207618048	62	5095
2026-01-10 08:05:00.50	74.81	15.36	-45.5	-48.5	16.3	0.00e+00	0	43	0	209715200	62	5125
2026-01-10 08:05:01.51	74.62	15.41	-45.6	-48.6	16.1	0.00e+00	0	44	0	211812352	62	5188
2026-01-10 08:05:02.51	74.43	15.46	-45.7	-48.7	16.1	0.00e+00	0	43	0	213909504	62	5232
2026-01-10 08:05:03.51	74.24	15.51	-45.7	-48.7	16.1	0.00e+00	0	43	0	214958080	62	5251
2026-01-10 08:05:04.52	74.04	15.56	-45.8	-48.8	15.9	0.00e+00	0	43	0	217055232	62	5339
2026-01-10 08:05:05.52	73.85	15.61	-45.8	-48.8	16.0	0.00e+00	0	43	0	219152384	62	5304
2026-01-10 08:05:06.52	73.65	15.66	-45.8	-48.9	15.9	0.00e+00	0	43	0	221249536	62	5363
2026-01-10 08:05:07.53	73.46	15.71	-46.0	-49.1	15.7	0.00e+00	0	43	0	223346688	62	5497
2026-01-10 08:05:08.53	73.26	15.76	-45.8	-48.8	15.9	0.00e+00	0	43	0	224395264	62	5328
2026-01-10 08:05:09.53	73.06	15.81	-45.8	-48.8	15.9	0.00e+00	0	43	0	226492416	62	5323
2026-01-10 08:05:10.54	72.87	15.85	-45.7	-48.7	16.1	0.00e+00	0	43	0	228589568	62	5242
2026-01-10 08:05:11.54	72.67	15.90	-45.7	-48.7	16.1	0.00e+00	0	44	0	230686720	62	5261
2026-01-10 08:05:12.54	72.47	15.95	-45.7	-48.6	16.2	0.00e+00	0	43	0	232783872	62	5189
2026-01-10 08:05:13.54	72.27	16.00	-45.6	-48.6	16.2	0.00e+00	0	44	0	233832448	62	5160
2026-01-10 08:05:14.54	72.07	16.04	-45.6	-48.6	16.2	0.00e+00	0	43	0	235929600	62	5172
2026-01-10 08:05:15.55	71.87	16.09	-45.7	-48.6	16.2	0.00e+00	0	43	0	238026752	62	5194
2026-01-10 08:05:16.55	71.67	16.14	-45.7	-48.7	16.1	0.00e+00	0	43	0	240123904	62	5254
2026-01-10 08:05:17.55	71.47	16.18	-45.7	-48.7	16.1	0.00e+00	0	43	0	242221056	62	5232
2026-01-10 08:05:18.55	71.26	16.23	-45.7	-48.6	16.2	0.00e+00	0	44	0	243269632	62	5217
2026-01-10 08:05:19.56	71.06	16.27	-45.5	-48.4	16.4	0.00e+00	0	43	0	245366784	62	5091
2026-01-10 08:05:20.56	70.86	16.32	-45.4	-48.3	16.5	0.00e+00	0	43	0	247463936	62	5010
2026-01-10 08:05:21.56	70.65	16.36	-45.3	-48.2	16.6	0.00e+00	0	43	0	249561088	62	4951
2026-01-10 08:05:22.57	70.45	16.41	-45.3	-48.2	16.6	0.00e+00	0	43	0	251658240	62	4927
2026-01-10 08:05:23.57	70.24	16.45	-45.2	-48.0	16.8	0.00e+00	0	43	0	252706816	62	4828
2026-01-10 08:05:24.57	70.04	16.50	-45.2	-48.0	16.7	0.00e+00	0	43	0	254803968	62	4859
2026-01-10 08:05:25.57	69.83	16.54	-45.2	-47.9	16.9	0.00e+00	0	43	0	256901120	62	4813
2026-01-10 08:05:26.58	69.62	16.58	-45.2	-48.0	16.8	0.00e+00	0	44	0	258998272	62	4818
2026-01-10 08:05:27.58	69.41	16.63	-45.2	-48.0	16.8	0.00e+00	0	44	0	260046848	62	4832
2026-01-10 08:05:28.58	69.20	16.67	-45.2	-48.0	16.8	0.00e+00	0	44	0	262144000	62	4828
2026-01-10 08:05:29.58	69.00	16.71	-45.1	-47.9	16.9	0.00e+00	0	43	0	264241152	62	4783
2026-01-10 08:05:30.59	68.78	16.76	-45.3	-48.1	16.7	0.00e+00	0	43	0	266338304	62	4887
2026-01-10 08:05:31.59	68.57	16.80	-45.2	-48.0	16.8	0.00e+00	0	43	0	268435456	62	4848
2026-01-10 08:05:32.59	68.36	16.84	-45.2	-48.0	16.8	0.00e+00	0	43	0	270532608	62	4836
2026-01-10 08:05:33.60	68.15	16.88	-45.1	-47.8	16.9	0.00e+00	0	44	0	271581184	62	4753
2026-01-10 08:05:34.60	67.94	16.92	-45.1	-47.8	16.9	0.00e+00	0	43	0	273678336	62	4754
2026-01-10 08:05:35.60	67.73	16.96	-45.2	-48.0	16.8	0.00e+00	0	44	0	275775488	62	4815
2026-01-10 08:05:36.60	67.51	17.00	-45.2	-47.9	16.8	0.00e+00	0	44	0	277872640	62	4809
2026-01-10 08:05:37.60	67.30	17.04	-45.1	-47.9	16.9	0.00e+00	0	43	0	278921216	62	4775
2026-01-10 08:05:38.64	67.08	17.08	-45.1	-47.8	17.0	0.00e+00	0	43	0	281018368	62	4732
2026-01-10 08:05:39.67	66.86	17.12	-45.1	-47.9	16.9	0.00e+00	0	43	0	283115520	62	4777
2026-01-10 08:05:40.69	66.64	17.16	-45.1	-47.8	17.0	0.00e+00	0	43	0	285212672	62	4725
2026-01-10 08:05:41.69	66.42	17.20	-45.2	-48.0	16.9	0.00e+00	0	43	0	287309824	62	4820
2026-01-10 08:05:42.70	66.20	17.24	-45.1	-47.9	16.9	0.00e+00	0	44	0	289406976	62	4762
2026-01-10 08:05:43.77	65.97	17.28	-45.2	-48.0	16.8	0.00e+00	0	43	0	290455552	62	4834
2026-01-10 08:05:44.66	65.78	17.31	-45.1	-47.8	17.0	0.00e+00	0	44	0	292552704	62	4732
2026-01-10 08:05:45.79	65.53	17.36	-45.1	-47.8	17.0	0.00e+00	0	44	0	294649856	62	4731
2026-01-10 08:05:46.66	65.34	17.39	-45.2	-47.9	16.9	0.00e+00	0	43	0	296747008	62	4806
2026-01-10 08:05:47.80	65.09	17.43	-45.3	-48.2	16.6	0.00e+00	0	44	0	298844160	62	4933
2026-01-10 08:05:48.82	64.87	17.46	-45.3	-48.1	16.7	0.00e+00	0	44	0	299892736	62	4912
2026-01-10 08:05:50.00	64.61	17.51	-45.2	-48.0	16.8	0.00e+00	0	44	0	303038464	62	4842
2026-01-10 08:05:50.86	64.42	17.54	-45.2	-48.0	16.8	0.00e+00	0	44	0	304087040	62	4851
2026-01-10 08:05:52.01	64.17	17.58	-45.3	-48.1	16.7	0.00e+00	0	44	0	306184192	62	4921
2026-01-10 08:05:52.87	63.98	17.61	-45.4	-48.2	16.6	0.00e+00	0	43	0	308281344	62	4956
2026-01-10 08:05:54.01	63.72	17.64	-45.2	-48.0	16.8	0.00e+00	0	43	0	310378496	62	4857
2026-01-10 08:05:54.88	63.53	17.67	-45.2	-48.0	16.8	0.00e+00	0	44	0	311427072	62	4832
2026-01-10 08:05:56.02	63.27	17.71	-45.0	-47.8	17.0	0.00e+00	0	44	0	313524224	62	4706
2026-01-10 08:05:56.88	63.08	17.74	-45.1	-47.9	16.9	0.00e+00	0	44	0	315621376	62	4761
2026-01-10 08:05:58.03	62.82	17.78	-45.1	-47.8	17.0	0.00e+00	0	44	0	317718528	62	4742
2026-01-10 08:05:58.89	62.63	17.80	-45.2	-47.9	16.9	0.00e+00	0	44	0	319815680	62	4790
2026-01-10 08:06:00.06	62.37	17.84	-45.1	-47.9	16.9	0.00e+00	0	43	0	321912832	62	4781
2026-01-10 08:06:01.32	62.08	17.88	-45.2	-48.0	16.8	0.00e+00	0	44	0	324009984	62	4818
2026-01-10 08:06:02.04	61.92	17.90	-45.3	-48.1	16.7	0.00e+00	0	43	0	325058560	62	4892
2026-01-10 08:06:03.33	61.63	17.94	-45.2	-48.0	16.8	0.00e+00	0	44	0	327155712	62	4841
2026-01-10 08:06:04.05	61.47	17.96	-45.3	-48.1	16.6	0.00e+00	0	43	0	329252864	62	4923
2026-01-10 08:06:05.34	61.17	18.00	-45.3	-48.1	16.7	0.00e+00	0	44	0	331350016	62	4897
2026-01-10 08:06:06.05	61.01	18.02	-45.3	-48.1	16.7	0.00e+00	0	44	0	332398592	62	4913
2026-01-10 08:06:07.35	60.71	18.06	-45.5	-48.5	16.4	0.00e+00	0	44	0	335544320	62	5105
2026-01-10 08:06:08.06	60.55	18.08	-45.6	-48.6	16.2	0.00e+00	0	44	0	336592896	62	5188
2026-01-10 08:06:09.58	60.20	18.12	-45.7	-48.7	16.1	0.00e+00	0	44	0	339738624	62	5276
2026-01-10 08:06:10.29	60.04	18.14	-45.8	-48.8	16.0	0.00e+00	0	43	0	340787200	62	5290
2026-01-10 08:06:11.59	59.74	18.17	-45.9	-49.0	15.8	0.00e+00	0	44	0	342884352	62	5423
2026-01-10 08:06:12.30	59.58	18.19	-45.9	-48.9	15.9	0.00e+00	0	44	0	344981504	62	5395
2026-01-10 08:06:13.59	59.28	18.22	-45.9	-49.0	15.8	0.00e+00	0	44	0	347078656	62	5447
2026-01-10 08:06:14.31	59.11	18.24	-45.9	-49.0	15.8	0.00e+00	0	44	0	348127232	62	5424
2026-01-10 08:06:15.60	58.82	18.27	-45.8	-48.8	16.0	0.00e+00	0	44	0	350224384	62	5312
2026-01-10 08:06:16.32	58.65	18.29	-45.7	-48.7	16.1	0.00e+00	0	44	0	352321536	62	5229
2026-01-10 08:06:17.61	58.35	18.32	-45.7	-48.6	16.2	0.00e+00	0	44	0	354418688	62	5195
2026-01-10 08:06:18.32	58.18	18.34	-45.6	-48.6	16.2	0.00e+00	0	44	0	355467264	62	5163
2026-01-10 08:06:19.61	57.88	18.37	-45.7	-48.6	16.2	0.00e+00	0	44	0	358612992	62	5204
2026-01-10 08:06:20.33	57.72	18.38	-45.6	-48.6	16.3	0.00e+00	0	44	0	359661568	62	5160
2026-01-10 08:06:21.62	57.41	18.41	-45.8	-48.8	16.1	0.00e+00	0	43	0	361758720	62	5284
2026-01-10 08:06:22.34	57.25	18.43	-45.8	-48.8	16.0	0.00e+00	0	43	0	362807296	62	5308
2026-01-10 08:06:23.63	56.94	18.45	-45.9	-48.9	15.9	0.00e+00	0	44	0	365953024	62	5378
2026-01-10 08:06:24.52	56.73	18.47	-45.9	-49.0	15.8	0.00e+00	0	44	0	367001600	62	5431
2026-01-10 08:06:25.53	56.50	18.49	-45.9	-49.0	15.9	0.00e+00	0	43	0	369098752	62	5418
2026-01-10 08:06:26.53	56.26	18.51	-46.0	-49.1	15.8	0.00e+00	0	43	0	371195904	62	5466
2026-01-10 08:06:27.53	56.03	18.53	-46.1	-49.2	15.6	0.00e+00	0	44	0	373293056	62	5563
2026-01-10 08:06:28.53	55.79	18.55	-46.2	-49.4	15.4	0.00e+00	0	44	0	375390208	63	5367
2026-01-10 08:06:29.54	55.55	18.57	-46.2	-49.5	15.3	0.00e+00	0	44	0	376438784	63	5431
2026-01-10 08:06:30.54	55.32	18.58	-46.2	-49.5	15.3	0.00e+00	0	44	0	378535936	63	5432
2026-01-10 08:06:31.54	55.08	18.60	-46.2	-49.4	15.4	0.00e+00	0	44	0	380633088	63	5376
2026-01-10 08:06:32.58	54.83	18.62	-46.1	-49.3	15.5	0.00e+00	0	44	0	382730240	63	5311
2026-01-10 08:06:33.58	54.60	18.63	-46.1	-49.3	15.6	0.00e+00	0	44	0	384827392	63	5281
2026-01-10 08:06:34.58	54.36	18.65	-46.1	-49.2	15.6	0.00e+00	0	43	0	385875968	63	5267
2026-01-10 08:06:35.58	54.12	18.66	-46.1	-49.2	15.6	0.00e+00	0	43	0	387973120	63	5252
2026-01-10 08:06:36.75	53.84	18.68	-46.0	-49.2	15.7	0.00e+00	0	43	0	390070272	63	5241
2026-01-10 08:06:37.64	53.63	18.69	-46.1	-49.2	15.7	0.00e+00	0	43	0	392167424	63	5239
2026-01-10 08:06:38.78	53.36	18.71	-46.1	-49.2	15.6	0.00e+00	0	44	0	394264576	63	5261
2026-01-10 08:06:39.70	53.14	18.72	-46.1	-49.3	15.5	0.00e+00	0	43	0	396361728	63	5313
2026-01-10 08:06:40.88	52.86	18.74	-46.2	-49.5	15.4	0.00e+00	0	43	0	398458880	63	5416
2026-01-10 08:06:41.74	52.65	18.75	-46.2	-49.4	15.4	0.00e+00	0	43	0	399507456	63	5371
2026-01-10 08:06:43.09	52.33	18.76	-46.1	-49.3	15.5	0.00e+00	0	44	0	402653184	63	5309
2026-01-10 08:06:43.81	52.16	18.77	-46.1	-49.3	15.6	0.00e+00	0	43	0	403701760	63	5298
2026-01-10 08:06:45.10	51.85	18.78	-46.0	-49.2	15.7	0.00e+00	0	44	0	405798912	63	5229
2026-01-10 08:06:45.81	51.68	18.79	-46.1	-49.3	15.6	0.00e+00	0	43	0	406847488	63	5305
2026-01-10 08:06:47.10	51.37	18.80	-46.0	-49.2	15.6	0.00e+00	0	44	0	409993216	63	5234
2026-01-10 08:06:47.87	51.18	18.81	-46.0	-49.2	15.7	0.00e+00	0	44	0	411041792	63	5237
2026-01-10 08:06:49.15	50.88	18.82	-46.0	-49.1	15.7	0.00e+00	0	43	0	413138944	63	5193
2026-01-10 08:06:49.87	50.70	18.82	-45.9	-49.0	15.8	0.00e+00	0	44	0	415236096	63	5128
2026-01-10 08:06:51.16	50.39	18.83	-45.9	-49.0	15.8	0.00e+00	0	44	0	417333248	63	5122
2026-01-10 08:06:51.88	50.22	18.84	-45.9	-49.0	15.9	0.00e+00	0	44	0	418381824	63	5107
2026-01-10 08:06:53.16	49.91	18.84	-45.9	-49.0	15.8	0.00e+00	0	44	0	421527552	63	5128
2026-01-10 08:06:53.88	49.74	18.85	-46.0	-49.1	15.8	0.00e+00	0	44	0	422576128	63	5173
2026-01-10 08:06:55.20	49.42	18.86	-46.0	-49.2	15.6	0.00e+00	0	44	0	424673280	63	5248
2026-01-10 08:06:55.92	49.25	18.86	-46.1	-49.2	15.6	0.00e+00	0	44	0	425721856	63	5266
2026-01-10 08:06:57.29	48.92	18.86	-46.1	-49.3	15.5	0.00e+00	0	44	0	428867584	63	5315
2026-01-10 08:06:58.00	48.75	18.87	-46.2	-49.4	15.5	0.00e+00	0	44	0	429916160	63	5342
2026-01-10 08:06:59.29	48.44	18.87	-46.1	-49.3	15.5	0.00e+00	0	44	0	433061888	63	5309
2026-01-10 08:07:00.01	48.26	18.87	-46.0	-49.1	15.7	0.00e+00	0	44	0	434110464	63	5195
2026-01-10 08:07:01.30	47.95	18.87	-45.9	-48.9	15.9	0.00e+00	0	44	0	436207616	63	5093
2026-01-10 08:07:02.01	47.78	18.87	-45.8	-48.8	16.0	0.00e+00	0	44	0	437256192	63	5018
2026-01-10 08:07:03.30	47.47	18.88	-45.6	-48.5	16.3	0.00e+00	0	44	0	440401920	63	4840
2026-01-10 08:07:04.02	47.30	18.88	-45.5	-48.4	16.4	0.00e+00	0	43	0	441450496	63	4801
2026-01-10 08:07:05.31	46.99	18.88	-45.6	-48.5	16.3	0.00e+00	0	44	0	443547648	63	4839
2026-01-10 08:07:06.02	46.82	18.87	-45.6	-48.5	16.3	0.00e+00	0	44	0	445644800	63	4864
2026-01-10 08:07:07.31	46.51	18.87	-45.6	-48.6	16.2	0.00e+00	0	44	0	447741952	63	4873
2026-01-10 08:07:08.03	46.33	18.87	-45.6	-48.6	16.2	0.00e+00	0	44	0	448790528	63	4910
2026-01-10 08:07:09.32	46.02	18.87	-45.6	-48.6	16.2	0.00e+00	0	43	0	450887680	63	4895
2026-01-10 08:07:10.15	45.82	18.87	-45.6	-48.5	16.3	0.00e+00	0	44	0	452984832	63	4836
2026-01-10 08:07:11.60	45.47	18.86	-45.6	-48.6	16.2	0.00e+00	0	44	0	456130560	63	4876
2026-01-10 08:07:12.32	45.30	18.86	-45.6	-48.6	16.2	0.00e+00	0	43	0	457179136	63	4892
2026-01-10 08:07:13.61	44.99	18.85	-45.5	-48.4	16.4	0.00e+00	0	44	0	459276288	63	4781
2026-01-10 08:07:14.33	44.82	18.85	-45.4	-48.2	16.6	0.00e+00	0	44	0	460324864	62	4970
2026-01-10 08:07:15.62	44.51	18.84	-45.3	-48.2	16.6	0.00e+00	0	44	0	463470592	62	4938
2026-01-10 08:07:16.33	44.33	18.84	-45.3	-48.1	16.6	0.00e+00	0	44	0	464519168	62	4926
2026-01-10 08:07:17.62	44.02	18.83	-45.1	-47.9	16.9	0.00e+00	0	44	0	466616320	62	4797
2026-01-10 08:07:18.34	43.85	18.82	-45.1	-47.8	17.0	0.00e+00	0	44	0	468713472	62	4755
2026-01-10 08:07:19.63	43.54	18.81	-45.2	-48.0	16.8	0.00e+00	0	44	0	470810624	62	4818
2026-01-10 08:07:20.51	43.33	18.80	-45.1	-47.9	16.9	0.00e+00	0	43	0	471859200	62	4774
2026-01-10 08:07:21.66	43.06	18.79	-45.2	-48.0	16.8	0.00e+00	0	44	0	475004928	62	4844
2026-01-10 08:07:22.52	42.85	18.79	-45.3	-48.1	16.7	0.00e+00	0	43	0	476053504	62	4878
2026-01-10 08:07:23.66	42.58	18.77	-45.1	-47.8	16.9	0.00e+00	0	44	0	478150656	62	4737
2026-01-10 08:07:24.83	42.30	18.76	-45.1	-47.9	16.9	0.00e+00	0	44	0	480247808	62	4768
2026-01-10 08:07:25.85	42.05	18.75	-45.1	-47.9	16.9	0.00e+00	0	44	0	482344960	62	4764
2026-01-10 08:07:26.85	41.81	18.74	-45.0	-47.7	17.1	0.00e+00	0	44	0	484442112	62	4684
2026-01-10 08:07:27.85	41.58	18.73	-44.9	-47.6	17.1	0.00e+00	0	44	0	486539264	61	4903
2026-01-10 08:07:28.86	41.33	18.71	-45.0	-47.7	17.1	0.00e+00	0	44	0	487587840	61	4943
2026-01-10 08:07:29.86	41.10	18.70	-44.9	-47.7	17.1	0.00e+00	0	44	0	489684992	61	4933
2026-01-10 08:07:30.86	40.86	18.69	-44.9	-47.7	17.0	0.00e+00	0	43	0	491782144	61	4963
2026-01-10 08:07:31.86	40.62	18.67	-44.8	-47.6	17.1	0.00e+00	0	44	0	493879296	61	4880
2026-01-10 08:07:32.87	40.38	18.66	-44.7	-47.4	17.4	0.00e+00	0	44	0	495976448	61	4761
2026-01-10 08:07:33.87	40.14	18.64	-44.6	-47.3	17.5	0.00e+00	0	44	0	497025024	61	4711
2026-01-10 08:07:34.87	39.91	18.63	-44.6	-47.3	17.4	0.00e+00	0	44	0	499122176	61	4716
2026-01-10 08:07:35.97	39.65	18.61	-44.7	-47.3	17.4	0.00e+00	0	44	0	501219328	61	4722
2026-01-10 08:07:36.86	39.44	18.60	-44.7	-47.3	17.4	0.00e+00	0	44	0	503316480	61	4749
2026-01-10 08:07:37.87	39.20	18.58	-44.7	-47.3	17.3	0.00e+00	0	44	0	504365056	61	4748
2026-01-10 08:07:38.87	38.96	18.56	-44.7	-47.3	17.4	0.00e+00	0	44	0	506462208	61	4751
2026-01-10 08:07:39.88	38.72	18.54	-44.8	-47.5	17.3	0.00e+00	0	43	0	508559360	61	4816
2026-01-10 08:07:40.88	38.49	18.52	-44.8	-47.5	17.2	0.00e+00	0	44	0	510656512	61	4867
2026-01-10 08:07:41.88	38.25	18.50	-44.8	-47.6	17.2	0.00e+00	0	43	0	512753664	61	4881
2026-01-10 08:07:42.88	38.02	18.48	-44.9	-47.7	17.0	0.00e+00	0	44	0	514850816	61	4935
2026-01-10 08:07:43.89	37.78	18.46	-44.9	-47.7	17.0	0.00e+00	0	44	0	515899392	61	4951
2026-01-10 08:07:44.89	37.55	18.44	-44.9	-47.6	17.1	0.00e+00	0	44	0	517996544	61	4907
2026-01-10 08:07:45.89	37.31	18.42	-44.9	-47.7	17.0	0.00e+00	0	43	0	520093696	61	4948
2026-01-10 08:07:46.90	37.08	18.40	-45.0	-47.8	17.0	0.00e+00	0	44	0	522190848	61	4997
2026-01-10 08:07:47.90	36.84	18.38	-45.0	-47.8	16.9	0.00e+00	0	44	0	523239424	61	5027
2026-01-10 08:07:48.95	36.60	18.36	-45.0	-47.9	16.8	0.00e+00	0	44	0	525336576	61	5061
2026-01-10 08:07:49.88	36.38	18.33	-45.1	-47.9	16.8	0.00e+00	0	44	0	527433728	61	5095
2026-01-10 08:07:50.89	36.15	18.31	-45.0	-47.8	16.9	0.00e+00	0	44	0	529530880	61	5019
2026-01-10 08:07:51.89	35.92	18.29	-44.9	-47.8	16.9	0.00e+00	0	44	0	531628032	61	5000
2026-01-10 08:07:52.90	35.68	18.26	-45.1	-47.9	16.8	0.00e+00	0	44	0	532676608	61	5074
2026-01-10 08:07:53.90	35.45	18.24	-45.1	-48.0	16.7	0.00e+00	0	44	0	534773760	61	5141
2026-01-10 08:07:54.90	35.22	18.21	-45.2	-48.1	16.6	0.00e+00	0	43	0	536870912	61	5194
2026-01-10 08:07:55.90	34.99	18.19	-45.3	-48.3	16.5	0.00e+00	0	44	0	538968064	61	5287
2026-01-10 08:07:56.90	34.76	18.16	-45.4	-48.4	16.4	0.00e+00	0	44	0	541065216	61	5351
2026-01-10 08:07:57.90	34.53	18.13	-45.4	-48.5	16.3	0.00e+00	0	44	0	542113792	61	5412
2026-01-10 08:07:58.91	34.30	18.11	-45.4	-48.5	16.2	0.00e+00	0	43	0	544210944	61	5447
2026-01-10 08:07:59.91	34.07	18.08	-45.3	-48.5	16.3	0.00e+00	0	44	0	546308096	61	5414
2026-01-10 08:08:00.96	33.83	18.05	-45.3	-48.5	16.3	0.00e+00	0	43	0	548405248	61	5404
2026-01-10 08:08:01.88	33.63	18.02	-45.3	-48.4	16.3	0.00e+00	0	44	0	549453824	61	5398
2026-01-10 08:08:02.89	33.40	18.00	-45.4	-48.6	16.2	0.00e+00	0	44	0	551550976	61	5467
2026-01-10 08:08:03.89	33.17	17.97	-45.4	-48.5	16.2	0.00e+00	0	43	0	553648128	61	5433
2026-01-10 08:08:04.89	32.94	17.94	-45.5	-48.6	16.1	0.00e+00	0	44	0	555745280	61	5523
2026-01-10 08:08:05.90	32.71	17.91	-45.6	-48.7	16.0	0.00e+00	0	44	0	557842432	61	5556
2026-01-10 08:08:06.90	32.49	17.88	-45.7	-48.8	15.9	0.00e+00	0	44	0	558891008	62	5336
2026-01-10 08:08:07.90	32.26	17.84	-45.8	-48.9	15.9	0.00e+00	0	43	0	560988160	62	5363
2026-01-10 08:08:08.90	32.04	17.81	-45.8	-49.0	15.8	0.00e+00	0	44	0	563085312	62	5415
2026-01-10 08:08:09.91	31.81	17.78	-45.7	-48.8	16.0	0.00e+00	0	44	0	565182464	62	5293
2026-01-10 08:08:10.91	31.59	17.75	-45.6	-48.7	16.1	0.00e+00	0	44	0	567279616	62	5248
2026-01-10 08:08:11.91	31.37	17.72	-45.5	-48.5	16.2	0.00e+00	0	44	0	568328192	62	5152
2026-01-10 08:08:12.92	31.14	17.68	-45.6	-48.6	16.2	0.00e+00	0	44	0	570425344	62	5173
2026-01-10 08:08:13.95	30.91	17.65	-45.6	-48.6	16.2	0.00e+00	0	44	0	572522496	62	5189
2026-01-10 08:08:14.98	30.69	17.61	-45.5	-48.6	16.2	0.00e+00	0	44	0	574619648	62	5171
2026-01-10 08:08:15.98	30.46	17.58	-45.6	-48.6	16.2	0.00e+00	0	44	0	576716800	62	5192
2026-01-10 08:08:16.99	30.24	17.55	-45.6	-48.6	16.1	0.00e+00	0	44	0	577765376	62	5179
2026-01-10 08:08:17.99	30.02	17.51	-45.7	-48.7	16.0	0.00e+00	0	43	0	579862528	62	5273
2026-01-10 08:08:18.99	29.80	17.48	-45.6	-48.7	16.1	0.00e+00	0	44	0	581959680	62	5230
2026-01-10 08:08:19.99	29.58	17.44	-45.6	-48.6	16.1	0.00e+00	0	44	0	584056832	62	5183
2026-01-10 08:08:20.99	29.36	17.40	-45.6	-48.6	16.2	0.00e+00	0	43	0	586153984	62	5189
2026-01-10 08:08:22.00	29.14	17.37	-45.6	-48.6	16.2	0.00e+00	0	43	0	587202560	62	5196
2026-01-10 08:08:23.00	28.93	17.33	-45.5	-48.5	16.3	0.00e+00	0	44	0	589299712	62	5112
2026-01-10 08:08:24.01	28.71	17.29	-45.6	-48.6	16.2	0.00e+00	0	44	0	591396864	62	5180
2026-01-10 08:08:25.01	28.49	17.26	-45.6	-48.6	16.1	0.00e+00	0	43	0	593494016	62	5202
2026-01-10 08:08:26.02	28.27	17.22	-45.5	-48.6	16.1	0.00e+00	0	43	0	595591168	62	5210
2026-01-10 08:08:27.02	28.06	17.18	-45.6	-48.8	16.0	0.00e+00	0	44	0	596639744	62	5312
2026-01-10 08:08:28.02	27.84	17.14	-45.6	-48.9	15.8	0.00e+00	0	44	0	598736896	62	5387
2026-01-10 08:08:29.02	27.63	17.10	-45.6	-49.0	15.8	0.00e+00	0	43	0	600834048	62	5413
2026-01-10 08:08:30.02	27.42	17.06	-45.5	-48.9	15.9	0.00e+00	0	44	0	602931200	62	5346
2026-01-10 08:08:31.03	27.20	17.02	-45.4	-48.8	16.0	0.00e+00	0	43	0	605028352	62	5281
2026-01-10 08:08:32.03	26.99	16.98	-45.3	-48.7	16.0	0.00e+00	0	43	0	606076928	62	5242
2026-01-10 08:08:33.03	26.78	16.94	-45.3	-48.6	16.1	0.00e+00	0	43	0	608174080	62	5210
2026-01-10 08:08:34.03	26.57	16.90	-45.2	-48.5	16.2	0.00e+00	0	44	0	610271232	62	5134
2026-01-10 08:08:35.04	26.35	16.86	-45.4	-48.8	16.0	0.00e+00	0	44	0	612368384	62	5281
2026-01-10 08:08:36.04	26.14	16.82	-45.4	-48.9	15.9	0.00e+00	0	44	0	614465536	62	5348
2026-01-10 08:08:37.05	25.93	16.78	-45.6	-49.0	15.8	0.00e+00	0	44	0	615514112	62	5410
2026-01-10 08:08:38.05	25.72	16.73	-45.7	-49.1	15.6	0.00e+00	0	44	0	617611264	62	5506
2026-01-10 08:08:39.05	25.52	16.69	-45.8	-49.2	15.6	0.00e+00	0	43	0	619708416	62	5531
2026-01-10 08:08:40.06	25.31	16.65	-45.9	-49.3	15.5	0.00e+00	0	44	0	621805568	62	5604
2026-01-10 08:08:41.06	25.10	16.61	-45.9	-49.2	15.5	0.00e+00	0	44	0	623902720	62	5577
2026-01-10 08:08:42.06	24.89	16.56	-46.0	-49.4	15.4	0.00e+00	0	44	0	624951296	62	5662
2026-01-10 08:08:43.18	24.66	16.51	-46.0	-49.3	15.4	0.00e+00	0	43	0	627048448	62	5648
2026-01-10 08:08:44.07	24.48	16.48	-46.0	-49.2	15.5	0.00e+00	0	43	0	629145600	62	5590
2026-01-10 08:08:45.09	24.27	16.43	-46.0	-49.3	15.4	0.00e+00	0	44	0	631242752	62	5626
2026-01-10 08:08:46.09	24.07	16.39	-46.0	-49.4	15.4	0.00e+00	0	44	0	633339904	62	5668
2026-01-10 08:08:47.10	23.86	16.34	-46.1	-49.6	15.2	0.00e+00	0	44	0	634388480	62	5792
2026-01-10 08:08:48.10	23.66	16.30	-46.1	-49.6	15.2	0.00e+00	0	44	0	636485632	62	5796
2026-01-10 08:08:49.10	23.46	16.25	-46.1	-49.6	15.1	0.00e+00	0	43	0	638582784	62	5821
2026-01-10 08:08:50.11	23.25	16.21	-46.1	-49.6	15.1	0.00e+00	0	44	0	640679936	62	5849
2026-01-10 08:08:51.11	23.05	16.16	-45.9	-49.3	15.4	0.00e+00	0	44	0	641728512	62	5632
2026-01-10 08:08:52.11	22.85	16.11	-46.0	-49.5	15.3	0.00e+00	0	44	0	643825664	62	5738
2026-01-10 08:08:53.12	22.65	16.07	-45.8	-49.3	15.5	0.00e+00	0	44	0	645922816	62	5608
2026-01-10 08:08:54.12	22.45	16.02	-45.6	-49.0	15.7	0.00e+00	0	44	0	648019968	62	5460
2026-01-10 08:08:55.12	22.25	15.97	-45.7	-49.2	15.6	0.00e+00	0	44	0	650117120	62	5548
2026-01-10 08:08:56.17	22.05	15.92	-45.8	-49.2	15.5	0.00e+00	0	44	0	652214272	62	5551
2026-01-10 08:08:57.06	21.87	15.88	-45.9	-49.3	15.4	0.00e+00	0	44	0	653262848	62	5653
2026-01-10 08:08:58.40	21.61	15.82	-45.9	-49.3	15.4	0.00e+00	0	44	0	656408576	62	5629
2026-01-10 08:08:59.11	21.47	15.78	-45.9	-49.3	15.4	0.00e+00	0	44	0	657457152	62	5642
2026-01-10 08:09:00.64	21.17	15.71	-46.0	-49.4	15.3	0.00e+00	0	44	0	660602880	62	5678
2026-01-10 08:09:01.36	21.03	15.68	-46.0	-49.4	15.3	0.00e+00	0	44	0	661651456	62	5719
2026-01-10 08:09:02.65	20.78	15.61	-46.0	-49.5	15.3	0.00e+00	0	44	0	663748608	62	5764
2026-01-10 08:09:03.37	20.64	15.58	-46.1	-49.6	15.1	0.00e+00	0	44	0	664797184	62	5832
2026-01-10 08:09:04.79	20.37	15.51	-46.1	-49.7	15.1	7.00e-07	0	44	0	667942912	62	5879
2026-01-10 08:09:05.50	20.23	15.47	-46.1	-49.8	15.0	0.00e+00	0	44	0	668991488	62	5930
2026-01-10 08:09:06.79	19.99	15.41	-46.0	-49.7	15.0	7.00e-07	0	44	0	672137216	62	5894
2026-01-10 08:09:07.51	19.85	15.37	-46.1	-49.8	14.9	0.00e+00	0	43	0	673185792	62	5947
2026-01-10 08:09:08.80	19.61	15.31	-46.1	-49.8	14.9	0.00e+00	0	43	0	675282944	62	5972
2026-01-10 08:09:09.51	19.47	15.27	-46.1	-49.8	15.0	0.00e+00	0	44	0	676331520	62	5948
2026-01-10 08:09:10.80	19.23	15.21	-46.1	-49.6	15.1	0.00e+00	0	44	0	679477248	62	5840
2026-01-10 08:09:11.52	19.09	15.17	-46.2	-49.7	15.1	0.00e+00	0	44	0	680525824	62	5863
2026-01-10 08:09:12.81	18.85	15.11	-46.1	-49.4	15.3	0.00e+00	0	44	0	682622976	63	5394
2026-01-10 08:09:13.53	18.72	15.07	-46.1	-49.4	15.3	0.00e+00	0	43	0	684720128	63	5349
2026-01-10 08:09:14.82	18.48	15.00	-46.1	-49.3	15.4	0.00e+00	0	43	0	686817280	63	5315
2026-01-10 08:09:15.53	18.35	14.97	-46.1	-49.3	15.4	0.00e+00	0	44	0	687865856	63	5334
2026-01-10 08:09:16.82	18.11	14.90	-46.2	-49.5	15.2	0.00e+00	0	44	0	689963008	63	5412
2026-01-10 08:09:17.54	17.98	14.86	-46.3	-49.6	15.1	0.00e+00	0	44	0	692060160	63	5518
2026-01-10 08:09:18.86	17.74	14.79	-46.5	-49.9	14.8	7.00e-07	0	44	0	694157312	63	5696
2026-01-10 08:09:19.58	17.60	14.76	-46.6	-50.0	14.7	0.00e+00	0	44	0	695205888	63	5774
2026-01-10 08:09:20.87	17.37	14.69	-46.6	-50.2	14.4	0.00e+00	0	44	0	698351616	64	5564
2026-01-10 08:09:21.58	17.24	14.65	-46.7	-50.4	14.3	1.50e-06	0	44	0	699400192	64	5669
2026-01-10 08:09:22.87	17.01	14.58	-46.5	-50.2	14.4	7.00e-07	0	44	0	701497344	64	5579
2026-01-10 08:09:23.59	16.88	14.55	-46.4	-50.1	14.5	7.00e-07	0	43	0	703594496	64	5510
2026-01-10 08:09:25.07	16.61	14.47	-46.3	-50.3	14.3	7.00e-07	0	44	0	705691648	64	5641
2026-01-10 08:09:25.79	16.49	14.43	-46.3	-50.4	14.3	7.00e-07	0	44	0	707788800	64	5693
2026-01-10 08:09:27.14	16.25	14.36	-46.2	-50.4	14.2	4.50e-06	0	44	0	709885952	64	5722
2026-01-10 08:09:27.86	16.12	14.32	-46.2	-50.4	14.2	0.00e+00	0	44	0	710934528	64	5719
2026-01-10 08:09:29.15	15.89	14.25	-46.2	-50.5	14.1	2.20e-06	0	43	0	714080256	64	5763
2026-01-10 08:09:30.20	15.71	14.19	-46.2	-50.5	14.1	1.50e-06	0	44	0	715128832	64	5775
2026-01-10 08:09:31.09	15.55	14.14	-46.2	-50.6	14.0	7.00e-07	0	44	0	717225984	64	5803
2026-01-10 08:09:32.22	15.35	14.08	-46.0	-50.3	14.3	7.00e-07	0	44	0	719323136	64	5631
2026-01-10 08:09:33.08	15.20	14.04	-46.0	-50.2	14.5	1.50e-06	0	44	0	721420288	63	5920
2026-01-10 08:09:34.23	15.00	13.97	-46.0	-50.3	14.4	7.00e-07	0	44	0	723517440	63	5931
2026-01-10 08:09:35.09	14.86	13.93	-46.0	-50.2	14.4	0.00e+00	0	44	0	724566016	63	5916
2026-01-10 08:09:36.33	14.64	13.86	-46.1	-50.3	14.4	1.50e-06	0	44	0	726663168	63	5950
2026-01-10 08:09:37.18	14.50	13.81	-46.1	-50.3	14.4	0.00e+00	0	44	0	728760320	63	5964
2026-01-10 08:09:38.33	14.30	13.75	-46.2	-50.4	14.3	7.00e-07	0	44	0	730857472	63	6005
2026-01-10 08:09:39.19	14.16	13.70	-46.3	-50.3	14.4	0.00e+00	0	44	0	731906048	63	5947
2026-01-10 08:09:40.42	13.95	13.63	-46.6	-50.5	14.2	1.50e-06	0	44	0	735051776	63	6110
2026-01-10 08:09:41.28	13.80	13.59	-46.6	-50.5	14.1	1.50e-06	0	44	0	736100352	64	5728
2026-01-10 08:09:42.51	13.60	13.52	-46.6	-50.4	14.1	3.00e-06	0	44	0	738197504	64	5719
2026-01-10 08:09:43.36	13.46	13.47	-46.5	-50.3	14.2	7.00e-07	0	44	0	740294656	64	5629
2026-01-10 08:09:44.51	13.26	13.41	-46.4	-50.2	14.3	3.00e-06	0	44	0	742391808	64	5592
2026-01-10 08:09:45.37	13.12	13.36	-46.2	-50.1	14.5	1.50e-06	0	44	0	743440384	64	5508
2026-01-10 08:09:46.64	12.91	13.29	-46.0	-49.8	14.7	0.00e+00	0	44	0	746586112	64	5332
2026-01-10 08:09:47.36	12.79	13.25	-46.0	-49.8	14.8	0.00e+00	0	43	0	747634688	63	5628
2026-01-10 08:09:48.85	12.55	13.16	-46.0	-49.8	14.9	0.00e+00	0	44	0	750780416	63	5617
2026-01-10 08:09:49.57	12.43	13.12	-45.9	-49.8	14.9	0.00e+00	0	44	0	751828992	63	5600
2026-01-10 08:09:50.86	12.22	13.05	-46.0	-49.9	14.8	0.00e+00	0	44	0	753926144	63	5688
2026-01-10 08:09:51.58	12.11	13.01	-45.9	-49.8	14.8	0.00e+00	0	44	0	756023296	63	5631
2026-01-10 08:09:52.86	11.90	12.94	-45.7	-49.8	14.9	0.00e+00	0	44	0	758120448	63	5597
2026-01-10 08:09:53.58	11.78	12.89	-45.7	-49.9	14.8	0.00e+00	0	44	0	759169024	63	5657
2026-01-10 08:09:54.87	11.58	12.82	-45.5	-49.8	14.9	0.00e+00	0	44	0	761266176	62	5941
2026-01-10 08:09:55.58	11.46	12.78	-45.4	-49.6	15.0	0.00e+00	0	43	0	763363328	62	5849
2026-01-10 08:09:56.88	11.26	12.71	-45.4	-49.6	15.0	0.00e+00	0	44	0	765460480	62	5843
2026-01-10 08:09:57.64	11.14	12.66	-45.3	-49.7	15.0	0.00e+00	0	43	0	766509056	62	5870
2026-01-10 08:09:59.26	10.88	12.57	-45.3	-49.4	15.2	0.00e+00	0	44	0	769654784	62	5722
2026-01-10 08:09:59.84	10.79	12.54	-45.3	-49.4	15.2	0.00e+00	0	44	0	770703360	62	5710
2026-01-10 08:10:01.44	10.54	12.45	-45.5	-49.5	15.2	0.00e+00	0	44	0	773849088	62	5726
2026-01-10 08:10:02.02	10.45	12.41	-45.4	-49.4	15.2	7.00e-07	0	44	0	774897664	62	5686
2026-01-10 08:10:03.61	10.21	12.32	-45.5	-49.3	15.3	0.00e+00	0	44	0	778043392	62	5642
2026-01-10 08:10:04.19	10.12	12.29	-45.6	-49.3	15.3	0.00e+00	0	44	0	779091968	62	5654
2026-01-10 08:10:05.84	9.87	12.19	-45.5	-49.1	15.5	0.00e+00	0	44	0	782237696	62	5518
2026-01-10 08:10:06.41	9.78	12.16	-45.5	-49.1	15.5	0.00e+00	0	44	0	783286272	62	5523
2026-01-10 08:10:08.00	9.54	12.07	-45.6	-49.2	15.4	0.00e+00	0	44	0	786432000	62	5561
2026-01-10 08:10:08.58	9.45	12.03	-45.4	-49.0	15.6	0.00e+00	0	43	0	787480576	62	5450
2026-01-10 08:10:10.17	9.21	11.94	-45.2	-48.7	15.9	0.00e+00	0	43	0	790626304	62	5269
2026-01-10 08:10:11.08	9.07	11.89	-45.2	-48.7	15.9	0.00e+00	0	44	0	791674880	62	5252
2026-01-10 08:10:12.08	8.93	11.83	-45.0	-48.5	16.1	0.00e+00	0	44	0	793772032	62	5138
2026-01-10 08:10:13.08	8.78	11.77	-45.1	-48.5	16.0	0.00e+00	0	44	0	795869184	62	5157
2026-01-10 08:10:14.08	8.63	11.72	-45.2	-48.7	15.9	0.00e+00	0	44	0	797966336	62	5251
2026-01-10 08:10:15.16	8.47	11.65	-45.4	-48.9	15.7	0.00e+00	0	44	0	800063488	62	5354
2026-01-10 08:10:16.06	8.34	11.60	-45.3	-48.7	15.9	0.00e+00	0	44	0	801112064	62	5256
2026-01-10 08:10:17.20	8.17	11.53	-45.2	-48.6	16.0	0.00e+00	0	44	0	803209216	62	5217
2026-01-10 08:10:18.12	8.04	11.48	-45.2	-48.7	16.0	0.00e+00	0	44	0	805306368	62	5222
2026-01-10 08:10:19.30	7.87	11.41	-45.0	-48.5	16.1	0.00e+00	0	44	0	807403520	62	5122
2026-01-10 08:10:20.16	7.74	11.36	-45.0	-48.6	16.0	0.00e+00	0	44	0	809500672	62	5162
2026-01-10 08:10:21.51	7.55	11.28	-44.9	-48.3	16.2	0.00e+00	0	44	0	811597824	61	5306
2026-01-10 08:10:22.23	7.45	11.24	-44.9	-48.3	16.3	0.00e+00	0	44	0	812646400	61	5306
2026-01-10 08:10:23.52	7.26	11.17	-45.0	-48.3	16.3	0.00e+00	0	44	0	815792128	61	5295
2026-01-10 08:10:24.24	7.16	11.12	-45.0	-48.3	16.2	0.00e+00	0	44	0	816840704	61	5305
2026-01-10 08:10:25.80	6.94	11.03	-45.0	-48.3	16.2	0.00e+00	0	44	0	819986432	61	5318
2026-01-10 08:10:26.51	6.84	10.99	-45.0	-48.3	16.2	0.00e+00	0	44	0	821035008	61	5311
2026-01-10 08:10:27.80	6.66	10.91	-45.0	-48.4	16.1	0.00e+00	0	44	0	823132160	61	5393
2026-01-10 08:10:28.51	6.56	10.87	-45.0	-48.5	16.1	0.00e+00	0	44	0	825229312	61	5410
2026-01-10 08:10:29.80	6.38	10.80	-45.0	-48.6	15.9	0.00e+00	0	44	0	827326464	61	5517
2026-01-10 08:10:30.52	6.28	10.75	-45.0	-48.7	15.9	0.00e+00	0	44	0	828375040	61	5536
2026-01-10 08:10:31.81	6.10	10.68	-44.9	-48.6	15.9	0.00e+00	0	44	0	831520768	61	5515
2026-01-10 08:10:32.53	6.00	10.64	-45.0	-48.8	15.8	0.00e+00	0	44	0	832569344	61	5625
2026-01-10 08:10:33.82	5.83	10.56	-45.0	-48.8	15.7	0.00e+00	0	44	0	834666496	61	5610
2026-01-10 08:10:34.58	5.72	10.52	-45.1	-48.9	15.6	0.00e+00	0	44	0	835715072	61	5688
2026-01-10 08:10:35.87	5.55	10.44	-45.0	-48.6	15.9	0.00e+00	0	44	0	838860800	61	5510
2026-01-10 08:10:36.67	5.44	10.39	-45.1	-48.6	15.9	0.00e+00	0	44	0	839909376	61	5525
2026-01-10 08:10:38.13	5.25	10.31	-45.3	-48.8	15.8	0.00e+00	0	44	0	843055104	61	5611
2026-01-10 08:10:38.85	5.15	10.26	-45.3	-48.7	15.8	0.00e+00	0	44	0	844103680	61	5572
2026-01-10 08:10:40.13	4.98	10.19	-45.6	-49.1	15.4	0.00e+00	0	44	0	846200832	61	5817
2026-01-10 08:10:40.85	4.88	10.15	-45.6	-49.0	15.5	0.00e+00	0	44	0	848297984	61	5786
2026-01-10 08:10:42.14	4.71	10.07	-45.7	-49.2	15.4	0.00e+00	0	44	0	850395136	61	5869
2026-01-10 08:10:42.86	4.62	10.03	-45.8	-49.4	15.1	7.00e-07	0	44	0	851443712	62	5717
2026-01-10 08:10:44.15	4.45	9.95	-45.8	-49.4	15.2	0.00e+00	0	44	0	854589440	62	5658
2026-01-10 08:10:45.02	4.34	9.90	-45.7	-49.2	15.3	0.00e+00	0	44	0	855638016	62	5579
2026-01-10 08:10:46.17	4.19	9.83	-45.7	-49.1	15.4	0.00e+00	0	44	0	857735168	62	5525
2026-01-10 08:10:47.26	4.05	9.77	-45.8	-49.1	15.4	0.00e+00	0	44	0	859832320	62	5476
2026-01-10 08:10:48.30	3.91	9.71	-45.8	-49.1	15.4	0.00e+00	0	44	0	861929472	62	5486
2026-01-10 08:10:49.50	3.76	9.64	-45.7	-49.1	15.4	0.00e+00	0	44	0	864026624	62	5485
2026-01-10 08:10:50.36	3.65	9.59	-45.6	-49.0	15.5	0.00e+00	0	44	0	866123776	62	5460
2026-01-10 08:10:51.71	3.48	9.51	-45.0	-48.9	15.6	0.00e+00	0	44	0	868220928	62	5382
2026-01-10 08:10:52.43	3.39	9.47	-44.7	-48.8	15.7	0.00e+00	0	44	0	869269504	61	5599
2026-01-10 08:10:53.72	3.23	9.39	-44.5	-48.8	15.7	0.00e+00	0	44	0	872415232	61	5633
2026-01-10 08:10:54.44	3.14	9.35	-44.5	-48.9	15.6	0.00e+00	0	44	0	873463808	61	5681
2026-01-10 08:10:55.73	2.98	9.27	-44.8	-49.1	15.4	0.00e+00	0	44	0	875560960	61	5792
2026-01-10 08:10:56.44	2.89	9.23	-45.1	-49.2	15.3	0.00e+00	0	44	0	877658112	61	5889
2026-01-10 08:10:57.73	2.73	9.15	-45.3	-49.1	15.4	0.00e+00	0	44	0	879755264	61	5820
2026-01-10 08:10:58.56	2.63	9.10	-45.4	-49.1	15.4	0.00e+00	0	44	0	880803840	61	5789
2026-01-10 08:10:59.71	2.48	9.04	-45.7	-49.4	15.1	0.00e+00	0	44	0	882900992	62	5666
2026-01-10 08:11:00.78	2.35	8.97	-46.6	-52.0	12.8	0.00e+00	0	44	0	884998144	63	7268
2026-01-10 08:11:01.64	2.25	8.92	-50.5	-65.8	3.8	1.30e+00	0	44	104	886046720	71	22353
2026-01-10 08:11:02.79	2.11	8.86	-50.1	-66.0	3.8	1.49e+00	0	44	104	886046720	71	22950
2026-01-10 08:11:03.65	2.01	8.80	-50.7	-66.2	3.8	1.49e+00	0	44	104	886046720	72	22015
2026-01-10 08:11:04.80	1.87	8.74	-50.3	-66.2	3.8	1.49e+00	0	44	104	886046720	72	22080
2026-01-10 08:11:05.66	1.77	8.69	-50.7	-66.2	3.8	1.49e+00	0	44	104	886046720	72	22196
2026-01-10 08:11:06.81	1.63	8.62	-51.0	-66.3	3.8	1.49e+00	0	44	104	886046720	72	22303
2026-01-10 08:11:07.67	1.53	8.57	-51.1	-66.3	3.8	1.49e+00	0	44	104	886046720	72	22405
2026-01-10 08:11:08.82	1.39	8.50	-51.0	-66.3	3.8	1.49e+00	0	44	104	886046720	72	22509
2026-01-10 08:11:09.68	1.29	8.45	-50.8	-66.4	3.8	1.49e+00	0	44	104	886046720	72	22583
2026-01-10 08:11:10.83	1.15	8.38	-51.2	-66.4	3.8	1.49e+00	0	44	104	886046720	73	21281
2026-01-10 08:11:11.69	1.05	8.33	-51.0	-66.4	3.8	1.49e+00	0	44	104	886046720	73	21311
2026-01-10 08:11:12.83	0.92	8.27	-51.1	-66.4	3.8	1.49e+00	0	44	104	886046720	73	21289
2026-01-10 08:11:13.69	0.82	8.22	-51.2	-66.4	3.8	1.49e+00	0	44	104	886046720	73	21393
2026-01-10 08:11:14.84	0.69	8.15	-51.2	-66.4	3.8	1.49e+00	0	44	104	886046720	73	21326
2026-01-10 08:11:15.70	0.59	8.10	-51.0	-66.4	3.8	1.49e+00	0	44	104	886046720	73	21391
2026-01-10 08:11:16.85	0.46	8.03	-51.2	-66.4	3.8	1.49e+00	0	44	104	886046720	73	21372
2026-01-10 08:11:17.71	0.36	7.98	-51.1	-66.4	3.8	1.49e+00	0	44	104	886046720	73	21397
2026-01-10 08:11:18.86	0.23	7.91	-51.2	-66.4	3.8	1.49e+00	0	44	104	886046720	73	21387
2026-01-10 08:11:19.72	0.13	7.86	-51.2	-66.4	3.8	1.49e+00	0	44	104	886046720	73	21431
2026-01-10 08:11:20.87	0.01	7.80	-51.3	-66.4	3.8	1.49e+00	0	44	104	886046720	73	21373
2026-01-10 08:11:21.73	359.91	7.75	-51.0	-66.3	3.8	1.49e+00	0	44	104	886046720	73	21241
2026-01-10 08:11:22.88	359.78	7.68	-51.2	-66.4	3.8	1.49e+00	0	44	104	886046720	73	21366
2026-01-10 08:11:23.74	359.69	7.63	-51.1	-66.4	3.8	1.49e+00	0	44	104	886046720	73	21348
2026-01-10 08:11:24.88	359.56	7.56	-51.2	-66.4	3.8	1.49e+00	0	43	104	886046720	73	21375
2026-01-10 08:11:25.74	359.47	7.51	-51.1	-66.4	3.8	1.49e+00	0	44	104	886046720	73	21320
2026-01-10 08:11:26.89	359.34	7.45	-51.1	-66.4	3.8	1.49e+00	0	44	104	886046720	73	21278
2026-01-10 08:11:27.75	359.25	7.40	-50.9	-66.3	3.8	1.49e+00	0	44	104	886046720	73	21251
2026-01-10 08:11:28.90	359.12	7.33	-51.1	-66.3	3.8	1.49e+00	0	44	104	886046720	73	21248
2026-01-10 08:11:29.76	359.03	7.28	-51.0	-66.3	3.8	1.49e+00	0	44	104	886046720	73	21248
2026-01-10 08:11:30.91	358.90	7.21	-51.0	-66.4	3.8	1.49e+00	0	44	104	886046720	73	21266
2026-01-10 08:11:31.77	358.81	7.16	-51.0	-66.4	3.8	1.49e+00	0	44	104	886046720	73	21289
2026-01-10 08:11:32.92	358.69	7.09	-51.0	-66.4	3.8	1.49e+00	0	44	104	886046720	73	21281
2026-01-10 08:11:33.78	358.60	7.04	-51.0	-66.3	3.8	1.49e+00	0	44	104	886046720	73	21253
2026-01-10 08:11:34.93	358.48	6.98	-51.0	-66.3	3.8	1.49e+00	0	44	104	886046720	73	21232
2026-01-10 08:11:35.79	358.38	6.93	-51.0	-66.3	3.8	1.49e+00	0	44	104	886046720	73	21169
2026-01-10 08:11:36.94	358.26	6.86	-51.0	-66.3	3.8	1.49e+00	0	44	104	886046720	73	21149
2026-01-10 08:11:37.80	358.17	6.81	-51.0	-66.3	3.8	1.49e+00	0	44	104	886046720	73	21140
2026-01-10 08:11:38.95	358.05	6.75	-51.0	-66.3	3.8	1.49e+00	0	44	104	886046720	73	21205
2026-01-10 08:11:39.81	357.96	6.70	-51.0	-66.3	3.8	1.49e+00	0	44	104	886046720	73	21075
2026-01-10 08:11:40.95	357.85	6.63	-51.0	-66.3	3.8	1.49e+00	0	44	104	886046720	73	21101
2026-01-10 08:11:41.82	357.76	6.58	-51.0	-66.3	3.8	1.49e+00	0	44	104	886046720	73	21228
2026-01-10 08:11:42.96	357.64	6.51	-51.0	-66.3	3.8	1.49e+00	0	44	104	886046720	73	21106
2026-01-10 08:11:43.82	357.55	6.47	-51.0	-66.3	3.8	1.49e+00	0	44	104	886046720	73	21167
2026-01-10 08:11:44.97	357.43	6.40	-51.0	-66.3	3.8	1.49e+00	0	44	104	886046720	73	21085
2026-01-10 08:11:45.83	357.35	6.35	-51.0	-66.3	3.8	1.49e+00	0	44	104	886046720	73	21209
2026-01-10 08:11:46.98	357.23	6.28	-51.0	-66.3	3.8	1.49e+00	0	44	104	886046720	73	21194
2026-01-10 08:11:47.84	357.15	6.23	-51.0	-66.3	3.8	1.49e+00	0	44	104	886046720	73	21114
2026-01-10 08:11:48.99	357.03	6.17	-51.0	-66.3	3.8	1.49e+00	0	44	104	886046720	73	21177
2026-01-10 08:11:49.85	356.94	6.12	-51.0	-66.3	3.8	1.49e+00	0	44	104	886046720	73	21196
2026-01-10 08:11:51.00	356.83	6.05	-51.0	-66.3	3.8	1.49e+00	0	44	104	886046720	73	21203
2026-01-10 08:11:51.85	356.75	6.00	-51.0	-66.3	3.8	1.49e+00	0	44	104	886046720	73	21157
2026-01-10 08:11:53.00	356.63	5.94	-51.0	-66.3	3.8	1.49e+00	0	44	104	886046720	73	21112
2026-01-10 08:11:53.86	356.55	5.89	-51.0	-66.3	3.8	1.49e+00	0	44	104	886046720	73	21109
2026-01-10 08:11:55.01	356.44	5.82	-51.0	-66.3	3.8	1.49e+00	0	44	104	886046720	73	21192
2026-01-10 08:11:55.87	356.35	5.77	-51.0	-66.3	3.8	1.49e+00	0	44	104	886046720	73	21146
2026-01-10 08:11:57.02	356.24	5.71	-51.0	-66.3	3.8	1.49e+00	0	44	104	886046720	73	21113
2026-01-10 08:11:57.88	356.16	5.66	-51.0	-66.3	3.8	1.49e+00	0	44	104	886046720	73	21062
2026-01-10 08:11:59.03	356.05	5.59	-51.0	-66.3	3.8	1.49e+00	0	44	104	886046720	73	21110
2026-01-10 08:11:59.89	355.97	5.55	-51.0	-66.2	3.8	1.49e+00	0	44	104	886046720	73	21010
2026-01-10 08:12:01.03	355.86	5.48	-51.0	-66.3	3.8	1.49e+00	0	44	104	886046720	73	21120
2026-01-10 08:12:01.90	355.77	5.43	-51.0	-66.3	3.8	1.49e+00	0	44	104	886046720	73	21091
2026-01-10 08:12:03.04	355.67	5.37	-51.0	-66.3	3.8	1.49e+00	0	44	104	886046720	73	21075
2026-01-10 08:12:03.90	355.59	5.32	-51.0	-66.3	3.8	1.49e+00	0	44	104	886046720	73	21102
2026-01-10 08:12:05.05	355.48	5.25	-51.0	-66.3	3.8	1.49e+00	0	44	104	886046720	73	21121
2026-01-10 08:12:05.92	355.40	5.20	-51.0	-66.3	3.8	1.49e+00	0	44	104	886046720	73	21093
2026-01-10 08:12:07.06	355.29	5.14	-51.0	-66.3	3.8	1.49e+00	0	44	104	886046720	73	21137
2026-01-10 08:12:07.94	355.21	5.09	-51.0	-66.3	3.8	1.49e+00	0	44	104	886046720	73	21184
2026-01-10 08:12:09.09	355.10	5.02	-51.0	-66.3	3.8	1.49e+00	0	43	104	886046720	73	21126
2026-01-10 08:12:09.95	355.02	4.98	-51.0	-66.3	3.8	1.49e+00	0	44	104	886046720	73	21097

#Closed at: 2026-01-10 08:12:11
#Recorded file [886 MB]: D:/Data/31040_260110_110200.dat