passes_logs/2026/01/10/T1/T1__20260110_215102_NOAA_20_JPSS-1_rec.log

#Pass ID: 20260110_215102_NOAA 20 (JPSS-1)
#Satellite: NOAA 20 (JPSS-1)
#Configuration: NOAA 20
#almurnet v.1.7.20251203
#Start time: 2026-01-10 21:51:03

#Version: 2.0.20230620
#Station: T1
#Location: 37.570604 lon 55.790049 lat
#TLE: 1 43013U 17073A   26009.69119415  .00000109  00000+0  72598-4 0  9996
#TLE: 2 43013  98.7631 310.6868 0001678  46.7442 313.3874 14.19534878421981

#Time	Az	El	Level	Level2	SNR	BER	BlckErr	Temp	State	Recorded	gain1	gain2
2026-01-10 21:51:03.90	34.36	5.09	-49.9	-65.3	3.8	1.49e+00	0	37	0	0	71	21223
2026-01-10 21:51:04.90	34.46	5.14	-49.9	-65.3	3.8	1.49e+00	0	37	104	0	70	22371
2026-01-10 21:51:05.90	34.57	5.19	-49.9	-65.3	3.8	1.49e+00	0	37	104	0	70	22378
2026-01-10 21:51:06.90	34.67	5.24	-49.9	-65.3	3.8	1.49e+00	0	37	104	0	70	22415
2026-01-10 21:51:07.91	34.78	5.30	-49.9	-65.3	3.8	1.49e+00	0	37	104	0	70	22387
2026-01-10 21:51:08.91	34.89	5.35	-49.9	-65.3	3.8	1.49e+00	0	37	104	0	70	22402
2026-01-10 21:51:09.92	35.00	5.40	-49.9	-65.3	3.8	1.49e+00	0	37	104	0	70	22336
2026-01-10 21:51:10.92	35.10	5.45	-49.9	-65.3	3.8	1.49e+00	0	37	104	0	70	22467
2026-01-10 21:51:11.92	35.21	5.50	-49.9	-65.3	3.8	1.49e+00	0	37	104	0	70	22344
2026-01-10 21:51:12.93	35.32	5.55	-49.9	-65.3	3.8	1.49e+00	0	37	104	0	70	22406
2026-01-10 21:51:13.93	35.43	5.60	-49.9	-65.3	3.8	1.49e+00	0	38	104	0	70	22456
2026-01-10 21:51:14.94	35.54	5.66	-49.9	-65.3	3.8	1.49e+00	0	37	104	0	70	22424
2026-01-10 21:51:15.94	35.65	5.71	-49.9	-65.3	3.8	1.49e+00	0	38	104	0	70	22470
2026-01-10 21:51:16.95	35.76	5.76	-49.9	-65.3	3.8	1.49e+00	0	38	104	0	70	22354
2026-01-10 21:51:17.95	35.87	5.81	-49.9	-65.2	3.8	1.49e+00	0	38	104	0	70	22235
2026-01-10 21:51:18.96	35.98	5.86	-49.9	-65.3	3.8	1.49e+00	0	38	104	0	70	22299
2026-01-10 21:51:19.96	36.09	5.92	-49.9	-65.3	3.8	1.49e+00	0	38	104	0	70	22326
2026-01-10 21:51:20.97	36.21	5.97	-49.9	-65.2	3.8	1.49e+00	0	38	104	0	70	22235
2026-01-10 21:51:21.97	36.32	6.02	-49.9	-65.3	3.8	1.49e+00	0	38	104	0	70	22304
2026-01-10 21:51:22.97	36.43	6.07	-49.9	-65.3	3.8	1.49e+00	0	38	104	0	70	22295
2026-01-10 21:51:23.98	36.54	6.12	-49.9	-65.3	3.8	1.49e+00	0	38	104	0	70	22353
2026-01-10 21:51:24.98	36.66	6.17	-49.9	-65.3	3.8	1.49e+00	0	38	104	0	70	22293
2026-01-10 21:51:25.99	36.77	6.23	-49.9	-65.3	3.8	1.49e+00	0	38	104	0	70	22344
2026-01-10 21:51:26.99	36.88	6.28	-49.9	-65.3	3.8	1.49e+00	0	38	104	0	70	22293
2026-01-10 21:51:28.00	37.00	6.33	-49.9	-65.3	3.8	1.49e+00	0	38	104	0	70	22272
2026-01-10 21:51:29.00	37.11	6.38	-49.9	-65.3	3.8	1.49e+00	0	38	104	0	70	22311
2026-01-10 21:51:30.00	37.23	6.43	-49.9	-65.3	3.8	1.49e+00	0	38	104	0	70	22349
2026-01-10 21:51:31.01	37.34	6.49	-49.9	-65.3	3.8	1.49e+00	0	38	104	0	70	22282
2026-01-10 21:51:32.01	37.46	6.54	-49.9	-65.2	3.8	1.49e+00	0	38	104	0	70	22183
2026-01-10 21:51:33.02	37.58	6.59	-49.9	-65.3	3.8	1.49e+00	0	38	104	0	70	22269
2026-01-10 21:51:34.02	37.69	6.64	-49.9	-65.3	3.8	1.49e+00	0	38	104	0	70	22265
2026-01-10 21:51:35.02	37.81	6.69	-49.9	-65.3	3.8	1.49e+00	0	38	104	0	70	22340
2026-01-10 21:51:36.03	37.93	6.74	-49.9	-65.2	3.8	1.49e+00	0	38	104	0	70	22225
2026-01-10 21:51:37.03	38.05	6.80	-49.9	-65.3	3.8	1.49e+00	0	38	104	0	70	22323
2026-01-10 21:51:38.04	38.16	6.85	-49.9	-65.2	3.8	1.49e+00	0	38	104	0	70	22249
2026-01-10 21:51:39.04	38.28	6.90	-49.9	-65.2	3.8	1.49e+00	0	39	104	0	70	22104
2026-01-10 21:51:40.05	38.40	6.95	-49.9	-65.2	3.8	1.49e+00	0	38	104	0	70	22151
2026-01-10 21:51:41.05	38.52	7.00	-49.9	-65.2	3.8	1.49e+00	0	38	104	0	70	22216
2026-01-10 21:51:42.05	38.64	7.06	-49.9	-65.2	3.8	1.49e+00	0	39	104	0	70	22080
2026-01-10 21:51:43.06	38.76	7.11	-49.9	-65.2	3.8	1.49e+00	0	38	104	0	70	22197
2026-01-10 21:51:44.06	38.88	7.16	-49.9	-65.2	3.8	1.49e+00	0	38	104	0	70	22195
2026-01-10 21:51:45.07	39.00	7.21	-49.9	-65.2	3.8	1.49e+00	0	38	104	0	70	22188
2026-01-10 21:51:46.07	39.13	7.26	-49.9	-65.2	3.8	1.49e+00	0	38	104	0	70	22050
2026-01-10 21:51:47.07	39.25	7.32	-49.9	-65.2	3.8	1.49e+00	0	38	104	0	70	22103
2026-01-10 21:51:48.08	39.37	7.37	-49.9	-65.2	3.8	1.49e+00	0	38	104	0	70	22086
2026-01-10 21:51:49.08	39.49	7.42	-49.9	-65.2	3.8	1.49e+00	0	39	104	0	70	22052
2026-01-10 21:51:50.09	39.62	7.47	-49.9	-65.2	3.8	1.49e+00	0	39	104	0	70	22104
2026-01-10 21:51:51.09	39.74	7.52	-49.9	-65.2	3.8	1.49e+00	0	38	104	0	70	22205
2026-01-10 21:51:52.10	39.87	7.58	-49.9	-65.3	3.8	1.49e+00	0	39	104	0	70	22321
2026-01-10 21:51:53.10	39.99	7.63	-49.9	-65.2	3.8	1.49e+00	0	39	104	0	70	22244
2026-01-10 21:51:54.11	40.12	7.68	-49.9	-65.3	3.8	1.49e+00	0	39	104	0	70	22353
2026-01-10 21:51:55.11	40.24	7.73	-49.9	-65.3	3.8	1.49e+00	0	39	104	0	70	22280
2026-01-10 21:51:56.11	40.37	7.78	-49.9	-65.2	3.8	1.49e+00	0	39	104	0	70	22262
2026-01-10 21:51:57.12	40.49	7.83	-49.9	-65.2	3.8	1.49e+00	0	39	104	0	70	22233
2026-01-10 21:51:58.12	40.62	7.89	-49.9	-65.3	3.8	1.49e+00	0	39	104	0	70	22346
2026-01-10 21:51:59.13	40.75	7.94	-49.9	-65.2	3.8	1.49e+00	0	39	104	0	70	22201
2026-01-10 21:52:00.13	40.87	7.99	-49.9	-65.2	3.8	1.49e+00	0	39	104	0	70	22117
2026-01-10 21:52:01.14	41.00	8.04	-49.9	-65.2	3.8	1.49e+00	0	39	104	0	70	22048
2026-01-10 21:52:02.14	41.13	8.09	-49.9	-65.1	3.8	1.49e+00	0	39	104	0	70	22007
2026-01-10 21:52:03.15	41.26	8.15	-49.8	-65.1	3.8	1.49e+00	0	39	104	0	70	21899
2026-01-10 21:52:04.15	41.39	8.20	-49.8	-65.2	3.8	1.49e+00	0	39	104	0	70	22172
2026-01-10 21:52:05.15	41.52	8.25	-49.9	-65.2	3.8	1.49e+00	0	39	104	0	70	22210
2026-01-10 21:52:06.16	41.65	8.30	-49.9	-65.2	3.8	1.49e+00	0	39	104	0	70	22237
2026-01-10 21:52:07.16	41.78	8.35	-49.9	-65.2	3.8	1.49e+00	0	39	104	0	70	22150
2026-01-10 21:52:08.17	41.91	8.40	-49.9	-65.2	3.8	1.49e+00	0	39	104	0	70	22236
2026-01-10 21:52:09.17	42.04	8.46	-49.9	-65.2	3.8	1.49e+00	0	39	104	0	70	22101
2026-01-10 21:52:10.18	42.18	8.51	-49.8	-65.1	3.8	1.49e+00	0	39	104	0	70	21831
2026-01-10 21:52:11.18	42.31	8.56	-49.9	-65.1	3.8	1.49e+00	0	39	104	0	70	21805
2026-01-10 21:52:12.19	42.44	8.61	-49.8	-65.0	3.8	1.49e+00	0	39	104	0	70	21725
2026-01-10 21:52:13.19	42.58	8.66	-49.8	-65.1	3.8	1.49e+00	0	39	104	0	70	21794
2026-01-10 21:52:14.19	42.71	8.71	-49.9	-65.2	3.8	1.49e+00	0	39	104	0	70	22045
2026-01-10 21:52:15.20	42.84	8.77	-49.9	-65.3	3.8	1.49e+00	0	39	104	0	70	22297
2026-01-10 21:52:16.20	42.98	8.82	-49.9	-65.2	3.8	1.49e+00	0	39	104	0	70	22055
2026-01-10 21:52:17.21	43.11	8.87	-49.8	-64.8	3.8	1.49e+00	0	39	104	0	70	21167
2026-01-10 21:52:18.21	43.25	8.92	-49.8	-64.1	3.8	1.49e+00	0	39	104	0	70	19606
2026-01-10 21:52:19.22	43.39	8.97	-49.7	-63.0	3.8	1.49e+00	0	39	104	0	70	17142
2026-01-10 21:52:20.22	43.52	9.02	-49.6	-61.6	4.2	1.46e+00	0	39	0	0	70	14579
2026-01-10 21:52:21.22	43.66	9.07	-49.7	-62.7	4.0	1.43e+00	0	39	0	0	70	16519
2026-01-10 21:52:22.23	43.80	9.13	-49.7	-64.2	3.8	1.49e+00	0	39	104	0	70	19644
2026-01-10 21:52:23.23	43.94	9.18	-48.2	-54.1	10.0	2.10e-01	0	39	0	0	68	6882
2026-01-10 21:52:24.24	44.07	9.23	-49.2	-57.3	6.6	1.92e-01	0	39	0	2097152	69	9414
2026-01-10 21:52:25.24	44.21	9.28	-46.4	-50.3	13.5	3.73e-05	0	39	0	4194304	64	5642
2026-01-10 21:52:26.24	44.35	9.33	-46.3	-50.2	13.7	9.90e-06	0	39	0	5242880	64	5550
2026-01-10 21:52:27.25	44.49	9.38	-46.0	-49.7	14.3	1.50e-06	0	39	0	7340032	63	5560
2026-01-10 21:52:28.25	44.63	9.43	-46.1	-49.8	14.2	2.20e-06	0	39	0	9437184	63	5615
2026-01-10 21:52:29.25	44.77	9.48	-45.8	-49.4	14.6	1.50e-06	0	39	0	11534336	63	5346
2026-01-10 21:52:30.25	44.91	9.53	-45.5	-48.8	15.2	0.00e+00	0	39	0	13631488	63	4985
2026-01-10 21:52:31.26	45.06	9.59	-45.3	-48.6	15.4	0.00e+00	0	39	0	14680064	62	5168
2026-01-10 21:52:32.26	45.20	9.64	-45.4	-48.7	15.4	0.00e+00	0	39	0	16777216	62	5237
2026-01-10 21:52:33.27	45.34	9.69	-45.3	-48.5	15.5	0.00e+00	0	39	0	18874368	62	5151
2026-01-10 21:52:34.27	45.49	9.74	-45.3	-48.5	15.6	0.00e+00	0	39	0	20971520	62	5144
2026-01-10 21:52:35.28	45.63	9.79	-45.3	-48.5	15.5	0.00e+00	0	39	0	23068672	62	5156
2026-01-10 21:52:36.28	45.77	9.84	-45.4	-48.7	15.4	0.00e+00	0	39	0	24117248	62	5220
2026-01-10 21:52:37.29	45.92	9.89	-45.4	-48.6	15.5	0.00e+00	0	39	0	26214400	62	5181
2026-01-10 21:52:38.29	46.06	9.94	-45.3	-48.6	15.5	0.00e+00	0	39	0	28311552	62	5162
2026-01-10 21:52:39.29	46.21	9.99	-45.5	-48.8	15.2	0.00e+00	0	39	0	30408704	62	5338
2026-01-10 21:52:40.29	46.36	10.04	-45.4	-48.6	15.4	0.00e+00	0	39	0	32505856	62	5181
2026-01-10 21:52:41.30	46.50	10.09	-45.4	-48.6	15.5	0.00e+00	0	39	0	33554432	62	5187
2026-01-10 21:52:42.30	46.65	10.14	-45.4	-48.6	15.5	0.00e+00	0	39	0	35651584	62	5175
2026-01-10 21:52:43.31	46.80	10.19	-45.3	-48.6	15.5	0.00e+00	0	39	0	37748736	62	5161
2026-01-10 21:52:44.31	46.95	10.24	-45.4	-48.6	15.5	0.00e+00	0	39	0	39845888	62	5194
2026-01-10 21:52:45.31	47.09	10.29	-45.3	-48.5	15.6	0.00e+00	0	39	0	41943040	62	5122
2026-01-10 21:52:46.31	47.24	10.34	-45.3	-48.4	15.6	0.00e+00	0	39	0	42991616	62	5100
2026-01-10 21:52:47.32	47.39	10.39	-45.4	-48.7	15.4	0.00e+00	0	39	0	45088768	62	5233
2026-01-10 21:52:48.32	47.54	10.44	-45.5	-48.8	15.2	0.00e+00	0	39	0	47185920	62	5311
2026-01-10 21:52:49.33	47.69	10.49	-45.5	-48.8	15.3	0.00e+00	0	39	0	49283072	62	5285
2026-01-10 21:52:50.33	47.84	10.54	-45.5	-48.8	15.3	0.00e+00	0	39	0	51380224	62	5316
2026-01-10 21:52:51.33	48.00	10.59	-45.4	-48.6	15.5	0.00e+00	0	39	0	52428800	62	5217
2026-01-10 21:52:52.34	48.15	10.64	-45.4	-48.7	15.4	0.00e+00	0	39	0	54525952	62	5231
2026-01-10 21:52:53.34	48.30	10.69	-45.4	-48.6	15.5	0.00e+00	0	39	0	56623104	62	5206
2026-01-10 21:52:54.35	48.46	10.74	-45.4	-48.6	15.6	0.00e+00	0	39	0	58720256	62	5168
2026-01-10 21:52:55.35	48.61	10.79	-45.3	-48.4	15.7	0.00e+00	0	39	0	60817408	62	5086
2026-01-10 21:52:56.35	48.76	10.84	-45.3	-48.4	15.7	0.00e+00	0	39	0	61865984	62	5079
2026-01-10 21:52:57.36	48.92	10.89	-45.4	-48.6	15.5	0.00e+00	0	39	0	63963136	62	5215
2026-01-10 21:52:58.36	49.07	10.94	-45.4	-48.5	15.6	0.00e+00	0	39	0	66060288	62	5154
2026-01-10 21:52:59.36	49.23	10.99	-45.4	-48.6	15.5	0.00e+00	0	39	0	68157440	62	5212
2026-01-10 21:53:00.37	49.38	11.04	-45.5	-48.7	15.4	0.00e+00	0	39	0	70254592	62	5248
2026-01-10 21:53:01.37	49.54	11.09	-45.5	-48.7	15.4	0.00e+00	0	39	0	71303168	62	5268
2026-01-10 21:53:02.38	49.70	11.13	-45.5	-48.7	15.4	0.00e+00	0	39	0	73400320	62	5274
2026-01-10 21:53:03.38	49.86	11.18	-45.4	-48.6	15.5	0.00e+00	0	39	0	75497472	62	5200
2026-01-10 21:53:04.38	50.01	11.23	-45.5	-48.8	15.3	0.00e+00	0	39	0	77594624	62	5309
2026-01-10 21:53:05.39	50.17	11.28	-45.4	-48.6	15.5	0.00e+00	0	39	0	78643200	62	5205
2026-01-10 21:53:06.39	50.33	11.33	-45.4	-48.6	15.5	0.00e+00	0	39	0	80740352	62	5213
2026-01-10 21:53:07.39	50.49	11.38	-45.5	-48.7	15.4	0.00e+00	0	39	0	82837504	62	5243
2026-01-10 21:53:08.39	50.65	11.43	-45.4	-48.7	15.5	0.00e+00	0	39	0	84934656	62	5219
2026-01-10 21:53:09.40	50.81	11.47	-45.4	-48.5	15.6	0.00e+00	0	39	0	87031808	62	5151
2026-01-10 21:53:10.40	50.97	11.52	-45.6	-48.8	15.3	0.00e+00	0	39	0	89128960	62	5331
2026-01-10 21:53:11.40	51.13	11.57	-45.6	-48.8	15.3	7.00e-07	0	39	0	90177536	62	5336
2026-01-10 21:53:12.41	51.30	11.62	-45.5	-48.7	15.5	0.00e+00	0	39	0	92274688	62	5247
2026-01-10 21:53:13.41	51.46	11.67	-45.4	-48.7	15.5	0.00e+00	0	39	0	94371840	62	5225
2026-01-10 21:53:14.41	51.62	11.71	-45.6	-48.8	15.3	0.00e+00	0	39	0	96468992	62	5330
2026-01-10 21:53:15.42	51.79	11.76	-45.6	-48.9	15.3	0.00e+00	0	39	0	97517568	62	5344
2026-01-10 21:53:16.42	51.95	11.81	-45.6	-48.8	15.3	0.00e+00	0	39	0	99614720	62	5334
2026-01-10 21:53:17.42	52.12	11.85	-45.7	-49.0	15.2	0.00e+00	0	39	0	101711872	62	5419
2026-01-10 21:53:18.42	52.28	11.90	-45.7	-49.0	15.1	0.00e+00	0	39	0	103809024	62	5454
2026-01-10 21:53:19.43	52.45	11.95	-45.8	-49.2	15.0	0.00e+00	0	39	0	105906176	62	5534
2026-01-10 21:53:20.43	52.61	12.00	-45.8	-49.2	15.0	0.00e+00	0	39	0	106954752	62	5546
2026-01-10 21:53:21.43	52.78	12.04	-45.7	-49.1	15.1	0.00e+00	0	39	0	109051904	62	5488
2026-01-10 21:53:22.43	52.95	12.09	-45.8	-49.2	15.0	0.00e+00	0	39	0	111149056	62	5531
2026-01-10 21:53:23.44	53.12	12.14	-45.7	-49.1	15.1	0.00e+00	0	39	0	113246208	62	5487
2026-01-10 21:53:24.44	53.28	12.18	-45.8	-49.3	14.9	0.00e+00	0	39	0	115343360	62	5594
2026-01-10 21:53:25.45	53.45	12.23	-46.0	-49.5	14.7	0.00e+00	0	39	0	116391936	62	5727
2026-01-10 21:53:26.45	53.62	12.27	-46.0	-49.5	14.7	7.00e-07	0	39	0	118489088	62	5734
2026-01-10 21:53:27.45	53.79	12.32	-46.0	-49.4	14.7	0.00e+00	0	39	0	120586240	62	5721
2026-01-10 21:53:28.45	53.96	12.37	-46.0	-49.5	14.6	0.00e+00	0	39	0	122683392	62	5766
2026-01-10 21:53:29.46	54.13	12.41	-46.1	-49.6	14.6	0.00e+00	0	39	0	124780544	62	5829
2026-01-10 21:53:30.46	54.31	12.46	-46.1	-49.7	14.5	7.00e-07	0	39	0	125829120	62	5900
2026-01-10 21:53:31.46	54.48	12.50	-46.1	-49.7	14.5	7.00e-07	0	39	0	127926272	62	5882
2026-01-10 21:53:32.47	54.65	12.55	-46.2	-49.7	14.5	1.50e-06	0	39	0	130023424	63	5586
2026-01-10 21:53:33.47	54.82	12.59	-46.2	-49.8	14.4	0.00e+00	0	40	0	132120576	63	5625
2026-01-10 21:53:34.48	55.00	12.64	-46.2	-49.8	14.3	7.00e-07	0	40	0	134217728	63	5642
2026-01-10 21:53:35.48	55.17	12.68	-46.2	-49.9	14.3	1.50e-06	0	40	0	135266304	63	5663
2026-01-10 21:53:36.48	55.35	12.73	-46.3	-50.0	14.3	7.00e-07	0	40	0	137363456	63	5723
2026-01-10 21:53:37.49	55.52	12.77	-46.2	-49.8	14.4	0.00e+00	0	39	0	139460608	63	5632
2026-01-10 21:53:38.49	55.70	12.82	-46.3	-49.9	14.3	7.00e-07	0	40	0	141557760	63	5697
2026-01-10 21:53:39.49	55.87	12.86	-46.3	-50.0	14.2	1.50e-06	0	39	0	142606336	63	5729
2026-01-10 21:53:40.50	56.05	12.90	-46.4	-50.1	14.1	0.00e+00	0	40	0	144703488	63	5809
2026-01-10 21:53:41.50	56.23	12.95	-46.4	-50.2	14.0	3.00e-06	0	40	0	146800640	63	5892
2026-01-10 21:53:42.51	56.41	12.99	-46.5	-50.3	13.9	3.00e-06	0	40	0	148897792	63	5965
2026-01-10 21:53:43.51	56.58	13.04	-46.5	-50.3	14.0	3.00e-06	0	39	0	150994944	63	5963
2026-01-10 21:53:44.51	56.76	13.08	-46.5	-50.2	14.0	3.00e-06	0	40	0	152043520	63	5905
2026-01-10 21:53:45.52	56.94	13.12	-46.5	-50.2	14.0	5.30e-06	0	39	0	154140672	63	5922
2026-01-10 21:53:46.52	57.12	13.16	-46.5	-50.3	13.9	3.00e-06	0	40	0	156237824	63	5971
2026-01-10 21:53:47.53	57.30	13.21	-46.5	-50.3	13.9	4.50e-06	0	39	0	158334976	63	5968
2026-01-10 21:53:48.53	57.48	13.25	-46.5	-50.2	14.0	2.20e-06	0	39	0	160432128	63	5877
2026-01-10 21:53:49.54	57.67	13.29	-46.5	-50.2	14.1	2.20e-06	0	39	0	161480704	63	5879
2026-01-10 21:53:50.54	57.85	13.33	-46.4	-50.1	14.1	7.00e-07	0	40	0	163577856	63	5842
2026-01-10 21:53:51.54	58.03	13.38	-46.4	-50.1	14.1	7.00e-07	0	39	0	165675008	63	5843
2026-01-10 21:53:52.55	58.21	13.42	-46.4	-50.1	14.2	2.20e-06	0	39	0	167772160	63	5799
2026-01-10 21:53:53.55	58.40	13.46	-46.5	-50.3	13.9	2.20e-06	0	40	0	169869312	63	5969
2026-01-10 21:53:54.55	58.58	13.50	-46.5	-50.2	14.0	3.80e-06	0	39	0	170917888	63	5876
2026-01-10 21:53:55.56	58.77	13.54	-46.6	-50.4	13.8	4.50e-06	0	40	0	173015040	63	6023
2026-01-10 21:53:56.56	58.95	13.58	-46.6	-50.4	13.8	3.80e-06	0	40	0	175112192	63	6052
2026-01-10 21:53:57.56	59.13	13.62	-46.7	-50.6	13.7	5.30e-06	0	40	0	177209344	64	5790
2026-01-10 21:53:58.57	59.32	13.67	-46.7	-50.6	13.5	7.60e-06	0	40	0	179306496	64	5828
2026-01-10 21:53:59.57	59.51	13.71	-46.8	-50.7	13.5	1.14e-05	0	40	0	180355072	64	5895
2026-01-10 21:54:00.57	59.69	13.75	-46.7	-50.7	13.5	7.60e-06	0	40	0	182452224	64	5862
2026-01-10 21:54:01.58	59.88	13.79	-46.8	-50.8	13.4	1.22e-05	0	39	0	184549376	64	5954
2026-01-10 21:54:02.58	60.07	13.83	-46.7	-50.7	13.4	1.67e-05	0	40	0	186646528	64	5907
2026-01-10 21:54:03.59	60.26	13.87	-46.6	-50.5	13.7	1.06e-05	0	40	0	188743680	64	5740
2026-01-10 21:54:04.59	60.45	13.90	-46.6	-50.5	13.6	7.60e-06	0	40	0	189792256	64	5760
2026-01-10 21:54:05.59	60.64	13.94	-46.4	-50.3	13.9	5.30e-06	0	40	0	191889408	64	5602
2026-01-10 21:54:06.60	60.83	13.98	-46.4	-50.2	14.0	2.20e-06	0	40	0	193986560	64	5536
2026-01-10 21:54:07.60	61.02	14.02	-46.3	-50.0	14.2	2.20e-06	0	40	0	196083712	64	5427
2026-01-10 21:54:08.60	61.21	14.06	-46.4	-50.1	14.1	1.50e-06	0	40	0	198180864	64	5468
2026-01-10 21:54:09.61	61.40	14.10	-46.3	-49.9	14.3	2.20e-06	0	40	0	199229440	64	5357
2026-01-10 21:54:10.61	61.59	14.14	-46.3	-49.9	14.3	1.50e-06	0	40	0	201326592	64	5368
2026-01-10 21:54:11.61	61.78	14.17	-46.3	-49.9	14.3	0.00e+00	0	40	0	203423744	64	5366
2026-01-10 21:54:12.62	61.98	14.21	-46.2	-49.9	14.3	7.00e-07	0	40	0	205520896	64	5341
2026-01-10 21:54:13.62	62.17	14.25	-46.3	-50.0	14.2	0.00e+00	0	39	0	207618048	64	5451
2026-01-10 21:54:14.62	62.36	14.29	-46.4	-50.1	14.1	7.00e-07	0	40	0	208666624	64	5474
2026-01-10 21:54:15.63	62.56	14.32	-46.3	-49.9	14.3	3.80e-06	0	40	0	210763776	64	5395
2026-01-10 21:54:16.63	62.75	14.36	-46.3	-50.0	14.2	1.50e-06	0	40	0	212860928	64	5405
2026-01-10 21:54:17.63	62.95	14.39	-46.1	-49.7	14.4	1.50e-06	0	40	0	214958080	64	5277
2026-01-10 21:54:18.64	63.14	14.43	-46.2	-49.8	14.4	0.00e+00	0	40	0	216006656	64	5292
2026-01-10 21:54:19.65	63.34	14.47	-46.1	-49.6	14.6	0.00e+00	0	39	0	218103808	64	5185
2026-01-10 21:54:20.65	63.54	14.50	-45.8	-49.2	15.0	0.00e+00	0	40	0	220200960	63	5237
2026-01-10 21:54:21.65	63.73	14.54	-45.7	-48.9	15.3	0.00e+00	0	40	0	222298112	63	5095
2026-01-10 21:54:22.66	63.93	14.57	-45.6	-48.8	15.4	0.00e+00	0	40	0	224395264	63	5038
2026-01-10 21:54:23.66	64.13	14.61	-45.5	-48.6	15.6	0.00e+00	0	39	0	225443840	63	4919
2026-01-10 21:54:24.66	64.33	14.64	-45.3	-48.4	15.8	0.00e+00	0	39	0	227540992	62	5072
2026-01-10 21:54:25.67	64.53	14.68	-45.2	-48.2	16.0	0.00e+00	0	39	0	229638144	62	4973
2026-01-10 21:54:26.67	64.73	14.71	-45.3	-48.3	15.9	0.00e+00	0	40	0	231735296	62	5013
2026-01-10 21:54:27.67	64.92	14.74	-45.3	-48.3	15.9	0.00e+00	0	40	0	233832448	62	5024
2026-01-10 21:54:28.68	65.13	14.78	-45.3	-48.3	16.0	0.00e+00	0	40	0	234881024	62	5011
2026-01-10 21:54:29.68	65.33	14.81	-45.4	-48.5	15.7	0.00e+00	0	40	0	236978176	62	5129
2026-01-10 21:54:30.68	65.53	14.84	-45.4	-48.5	15.8	0.00e+00	0	39	0	239075328	62	5104
2026-01-10 21:54:31.69	65.73	14.88	-45.5	-48.6	15.7	0.00e+00	0	39	0	241172480	62	5191
2026-01-10 21:54:32.69	65.93	14.91	-45.5	-48.7	15.6	0.00e+00	0	39	0	243269632	62	5233
2026-01-10 21:54:33.69	66.13	14.94	-45.4	-48.5	15.8	0.00e+00	0	39	0	244318208	62	5111
2026-01-10 21:54:34.70	66.34	14.97	-45.3	-48.4	15.8	0.00e+00	0	40	0	246415360	62	5081
2026-01-10 21:54:35.70	66.54	15.00	-45.3	-48.4	15.9	0.00e+00	0	40	0	248512512	62	5077
2026-01-10 21:54:36.70	66.74	15.03	-45.4	-48.5	15.9	0.00e+00	0	39	0	250609664	62	5103
2026-01-10 21:54:37.71	66.95	15.06	-45.3	-48.3	15.9	0.00e+00	0	39	0	252706816	62	5036
2026-01-10 21:54:38.71	67.15	15.09	-45.3	-48.3	15.9	0.00e+00	0	39	0	253755392	62	5039
2026-01-10 21:54:39.72	67.36	15.13	-45.3	-48.3	15.9	0.00e+00	0	39	0	255852544	62	5017
2026-01-10 21:54:40.72	67.56	15.15	-45.3	-48.3	16.0	0.00e+00	0	39	0	257949696	62	5010
2026-01-10 21:54:41.72	67.77	15.18	-45.3	-48.4	15.9	0.00e+00	0	40	0	260046848	62	5070
2026-01-10 21:54:42.73	67.97	15.21	-45.3	-48.3	15.9	0.00e+00	0	40	0	262144000	62	5027
2026-01-10 21:54:43.73	68.18	15.24	-45.4	-48.5	15.8	0.00e+00	0	40	0	263192576	62	5150
2026-01-10 21:54:44.74	68.39	15.27	-45.5	-48.6	15.7	0.00e+00	0	39	0	265289728	62	5172
2026-01-10 21:54:45.74	68.59	15.30	-45.6	-48.8	15.5	0.00e+00	0	40	0	267386880	62	5286
2026-01-10 21:54:46.74	68.80	15.33	-45.6	-48.8	15.5	0.00e+00	0	40	0	269484032	62	5325
2026-01-10 21:54:47.75	69.01	15.36	-45.7	-48.8	15.5	0.00e+00	0	40	0	271581184	62	5334
2026-01-10 21:54:48.75	69.22	15.38	-45.7	-48.9	15.4	0.00e+00	0	40	0	272629760	62	5379
2026-01-10 21:54:49.75	69.43	15.41	-45.8	-49.0	15.3	0.00e+00	0	40	0	274726912	62	5427
2026-01-10 21:54:50.76	69.64	15.44	-45.7	-49.0	15.4	0.00e+00	0	40	0	276824064	62	5416
2026-01-10 21:54:51.76	69.84	15.46	-45.8	-49.1	15.2	0.00e+00	0	40	0	278921216	62	5509
2026-01-10 21:54:52.77	70.06	15.49	-45.8	-49.1	15.2	0.00e+00	0	40	0	281018368	62	5526
2026-01-10 21:54:53.77	70.27	15.51	-45.9	-49.2	15.1	0.00e+00	0	40	0	282066944	62	5560
2026-01-10 21:54:54.77	70.48	15.54	-45.8	-49.1	15.2	0.00e+00	0	39	0	284164096	62	5504
2026-01-10 21:54:55.78	70.69	15.56	-45.9	-49.2	15.1	0.00e+00	0	39	0	286261248	62	5588
2026-01-10 21:54:56.78	70.90	15.59	-46.0	-49.3	15.0	0.00e+00	0	40	0	288358400	62	5649
2026-01-10 21:54:57.78	71.11	15.61	-45.9	-49.2	15.0	0.00e+00	0	40	0	289406976	62	5586
2026-01-10 21:54:58.79	71.32	15.64	-45.9	-49.3	15.1	0.00e+00	0	40	0	291504128	62	5596
2026-01-10 21:54:59.79	71.53	15.66	-45.9	-49.2	15.1	0.00e+00	0	40	0	293601280	62	5569
2026-01-10 21:55:00.79	71.75	15.68	-45.8	-49.1	15.2	0.00e+00	0	40	0	295698432	62	5503
2026-01-10 21:55:01.79	71.96	15.71	-45.9	-49.2	15.1	0.00e+00	0	39	0	297795584	62	5531
2026-01-10 21:55:02.80	72.17	15.73	-45.8	-49.1	15.3	0.00e+00	0	40	0	298844160	62	5481
2026-01-10 21:55:03.80	72.39	15.75	-45.8	-49.0	15.3	0.00e+00	0	40	0	300941312	62	5426
2026-01-10 21:55:04.81	72.60	15.77	-45.8	-49.0	15.2	0.00e+00	0	39	0	303038464	62	5464
2026-01-10 21:55:05.81	72.81	15.80	-45.8	-49.0	15.3	0.00e+00	0	39	0	305135616	62	5454
2026-01-10 21:55:06.81	73.03	15.82	-45.8	-49.0	15.3	0.00e+00	0	40	0	307232768	62	5454
2026-01-10 21:55:07.82	73.24	15.84	-45.8	-49.1	15.2	0.00e+00	0	40	0	308281344	62	5498
2026-01-10 21:55:08.82	73.46	15.86	-45.9	-49.3	15.1	0.00e+00	0	40	0	310378496	62	5604
2026-01-10 21:55:09.83	73.68	15.88	-46.0	-49.4	14.9	0.00e+00	0	40	0	312475648	62	5685
2026-01-10 21:55:10.83	73.89	15.90	-46.0	-49.3	15.0	0.00e+00	0	40	0	314572800	62	5634
2026-01-10 21:55:11.83	74.11	15.92	-46.0	-49.3	15.0	0.00e+00	0	40	0	316669952	62	5643
2026-01-10 21:55:12.83	74.32	15.94	-45.8	-49.1	15.2	0.00e+00	0	40	0	317718528	62	5516
2026-01-10 21:55:13.84	74.54	15.96	-45.6	-48.9	15.4	0.00e+00	0	40	0	319815680	62	5351
2026-01-10 21:55:14.84	74.75	15.97	-45.6	-48.8	15.5	0.00e+00	0	40	0	321912832	62	5317
2026-01-10 21:55:15.85	74.97	15.99	-45.6	-48.8	15.5	0.00e+00	0	40	0	324009984	62	5308
2026-01-10 21:55:16.85	75.19	16.01	-45.5	-48.6	15.7	0.00e+00	0	40	0	326107136	62	5208
2026-01-10 21:55:17.85	75.41	16.03	-45.5	-48.7	15.7	0.00e+00	0	40	0	327155712	62	5219
2026-01-10 21:55:18.85	75.62	16.04	-45.5	-48.7	15.6	0.00e+00	0	40	0	329252864	62	5234
2026-01-10 21:55:19.86	75.84	16.06	-45.6	-48.7	15.6	0.00e+00	0	40	0	331350016	62	5241
2026-01-10 21:55:20.86	76.06	16.08	-45.5	-48.6	15.7	0.00e+00	0	40	0	333447168	62	5200
2026-01-10 21:55:21.86	76.28	16.09	-45.5	-48.7	15.6	0.00e+00	0	40	0	335544320	62	5244
2026-01-10 21:55:22.87	76.50	16.11	-45.6	-48.8	15.6	0.00e+00	0	40	0	336592896	62	5300
2026-01-10 21:55:23.87	76.72	16.12	-45.6	-48.8	15.5	0.00e+00	0	40	0	338690048	62	5298
2026-01-10 21:55:24.87	76.93	16.14	-45.7	-48.9	15.3	0.00e+00	0	40	0	340787200	62	5401
2026-01-10 21:55:25.88	77.16	16.15	-45.8	-49.1	15.2	0.00e+00	0	40	0	342884352	62	5484
2026-01-10 21:55:26.88	77.37	16.16	-45.8	-49.1	15.2	0.00e+00	0	39	0	344981504	62	5481
2026-01-10 21:55:27.89	77.60	16.18	-45.8	-49.1	15.2	0.00e+00	0	40	0	346030080	62	5470
2026-01-10 21:55:28.89	77.81	16.19	-45.8	-49.1	15.3	0.00e+00	0	40	0	348127232	62	5473
2026-01-10 21:55:29.89	78.03	16.20	-45.7	-49.0	15.3	0.00e+00	0	40	0	350224384	62	5403
2026-01-10 21:55:30.89	78.25	16.21	-45.7	-48.9	15.4	0.00e+00	0	40	0	352321536	62	5369
2026-01-10 21:55:31.90	78.48	16.23	-45.7	-49.0	15.4	0.00e+00	0	39	0	354418688	62	5406
2026-01-10 21:55:32.90	78.70	16.24	-45.5	-48.7	15.6	0.00e+00	0	40	0	355467264	62	5251
2026-01-10 21:55:33.90	78.92	16.25	-45.6	-48.7	15.6	0.00e+00	0	40	0	357564416	62	5268
2026-01-10 21:55:34.91	79.14	16.26	-45.5	-48.6	15.7	0.00e+00	0	40	0	359661568	62	5194
2026-01-10 21:55:35.91	79.36	16.27	-45.4	-48.5	15.7	0.00e+00	0	40	0	361758720	62	5159
2026-01-10 21:55:36.92	79.58	16.28	-45.4	-48.5	15.9	0.00e+00	0	40	0	362807296	62	5119
2026-01-10 21:55:37.92	79.80	16.29	-45.3	-48.4	15.9	0.00e+00	0	40	0	364904448	62	5099
2026-01-10 21:55:38.92	80.02	16.30	-45.3	-48.4	15.8	0.00e+00	0	40	0	367001600	62	5099
2026-01-10 21:55:39.93	80.25	16.31	-45.4	-48.5	15.8	0.00e+00	0	40	0	369098752	62	5159
2026-01-10 21:55:40.93	80.47	16.31	-45.6	-48.8	15.5	0.00e+00	0	40	0	371195904	62	5327
2026-01-10 21:55:41.94	80.69	16.32	-45.5	-48.7	15.6	0.00e+00	0	40	0	372244480	62	5229
2026-01-10 21:55:42.94	80.91	16.33	-45.4	-48.6	15.7	0.00e+00	0	39	0	374341632	62	5194
2026-01-10 21:55:43.94	81.13	16.34	-45.4	-48.6	15.7	0.00e+00	0	40	0	376438784	62	5214
2026-01-10 21:55:44.95	81.36	16.34	-45.4	-48.6	15.6	0.00e+00	0	40	0	378535936	62	5211
2026-01-10 21:55:45.95	81.58	16.35	-45.5	-48.7	15.6	0.00e+00	0	39	0	380633088	62	5259
2026-01-10 21:55:46.95	81.80	16.35	-45.4	-48.7	15.6	0.00e+00	0	39	0	381681664	62	5219
2026-01-10 21:55:47.95	82.02	16.36	-45.4	-48.6	15.7	0.00e+00	0	40	0	383778816	62	5183
2026-01-10 21:55:48.96	82.25	16.36	-45.4	-48.6	15.6	0.00e+00	0	40	0	385875968	62	5218
2026-01-10 21:55:49.96	82.47	16.37	-45.4	-48.6	15.7	0.00e+00	0	39	0	387973120	62	5168
2026-01-10 21:55:50.96	82.69	16.37	-45.3	-48.5	15.8	0.00e+00	0	40	0	390070272	62	5122
2026-01-10 21:55:51.97	82.91	16.38	-45.3	-48.4	15.9	0.00e+00	0	40	0	391118848	62	5075
2026-01-10 21:55:52.97	83.14	16.38	-45.2	-48.3	16.0	0.00e+00	0	39	0	393216000	62	5000
2026-01-10 21:55:53.97	83.36	16.38	-45.1	-48.3	16.0	0.00e+00	0	40	0	395313152	62	5004
2026-01-10 21:55:54.97	83.58	16.38	-45.2	-48.4	15.9	0.00e+00	0	39	0	397410304	62	5049
2026-01-10 21:55:55.98	83.80	16.39	-45.3	-48.5	15.8	0.00e+00	0	40	0	399507456	62	5117
2026-01-10 21:55:56.98	84.03	16.39	-45.4	-48.6	15.7	0.00e+00	0	40	0	400556032	62	5204
2026-01-10 21:55:57.98	84.25	16.39	-45.3	-48.6	15.7	0.00e+00	0	39	0	402653184	62	5175
2026-01-10 21:55:58.99	84.47	16.39	-45.3	-48.6	15.6	0.00e+00	0	40	0	404750336	62	5194
2026-01-10 21:55:59.99	84.70	16.39	-45.3	-48.6	15.7	0.00e+00	0	39	0	406847488	62	5201
2026-01-10 21:56:00.99	84.92	16.39	-45.2	-48.4	15.9	0.00e+00	0	39	0	407896064	62	5080
2026-01-10 21:56:02.00	85.14	16.39	-45.2	-48.3	15.9	0.00e+00	0	40	0	409993216	62	5031
2026-01-10 21:56:03.00	85.37	16.39	-45.2	-48.3	16.0	0.00e+00	0	40	0	412090368	62	5026
2026-01-10 21:56:04.00	85.59	16.39	-45.1	-48.1	16.2	0.00e+00	0	40	0	414187520	62	4923
2026-01-10 21:56:05.01	85.81	16.39	-45.0	-48.0	16.2	0.00e+00	0	40	0	416284672	62	4854
2026-01-10 21:56:06.01	86.03	16.38	-45.1	-48.2	16.1	0.00e+00	0	39	0	418381824	61	5222
2026-01-10 21:56:07.01	86.26	16.38	-45.0	-48.1	16.2	0.00e+00	0	40	0	419430400	61	5184
2026-01-10 21:56:08.02	86.48	16.38	-45.0	-48.1	16.2	0.00e+00	0	40	0	421527552	61	5173
2026-01-10 21:56:09.02	86.70	16.38	-45.1	-48.3	16.0	0.00e+00	0	40	0	423624704	61	5309
2026-01-10 21:56:10.03	86.93	16.37	-45.0	-48.2	16.1	0.00e+00	0	40	0	425721856	61	5230
2026-01-10 21:56:11.03	87.15	16.37	-45.0	-48.2	16.1	0.00e+00	0	40	0	426770432	61	5244
2026-01-10 21:56:12.04	87.37	16.36	-45.1	-48.2	16.1	0.00e+00	0	40	0	428867584	61	5234
2026-01-10 21:56:13.04	87.60	16.36	-45.2	-48.4	15.9	0.00e+00	0	40	0	430964736	61	5354
2026-01-10 21:56:14.04	87.82	16.35	-45.3	-48.4	15.8	0.00e+00	0	40	0	433061888	61	5395
2026-01-10 21:56:15.05	88.04	16.35	-45.4	-48.5	15.7	0.00e+00	0	40	0	435159040	61	5444
2026-01-10 21:56:16.05	88.26	16.34	-45.4	-48.6	15.7	0.00e+00	0	40	0	436207616	61	5482
2026-01-10 21:56:17.05	88.48	16.33	-45.4	-48.6	15.7	0.00e+00	0	40	0	438304768	61	5522
2026-01-10 21:56:18.05	88.71	16.33	-45.3	-48.5	15.8	0.00e+00	0	40	0	440401920	61	5433
2026-01-10 21:56:19.06	88.93	16.32	-45.3	-48.4	15.8	0.00e+00	0	40	0	442499072	61	5396
2026-01-10 21:56:20.06	89.15	16.31	-45.3	-48.5	15.8	0.00e+00	0	40	0	444596224	61	5413
2026-01-10 21:56:21.06	89.37	16.30	-45.2	-48.3	16.0	0.00e+00	0	40	0	445644800	61	5303
2026-01-10 21:56:22.07	89.60	16.29	-45.0	-48.1	16.2	0.00e+00	0	40	0	447741952	61	5180
2026-01-10 21:56:23.07	89.82	16.29	-45.0	-48.1	16.2	0.00e+00	0	40	0	449839104	61	5168
2026-01-10 21:56:24.07	90.04	16.28	-45.0	-48.1	16.2	0.00e+00	0	40	0	451936256	61	5160
2026-01-10 21:56:25.08	90.26	16.27	-45.2	-48.3	15.9	0.00e+00	0	40	0	454033408	61	5312
2026-01-10 21:56:26.08	90.48	16.26	-45.2	-48.2	16.0	0.00e+00	0	40	0	455081984	61	5254
2026-01-10 21:56:27.09	90.70	16.25	-45.2	-48.2	16.1	0.00e+00	0	40	0	457179136	61	5239
2026-01-10 21:56:28.09	90.92	16.23	-45.1	-48.2	16.1	0.00e+00	0	40	0	459276288	61	5238
2026-01-10 21:56:29.10	91.15	16.22	-45.2	-48.2	16.1	0.00e+00	0	40	0	461373440	61	5269
2026-01-10 21:56:30.10	91.37	16.21	-45.2	-48.2	16.0	0.00e+00	0	40	0	463470592	61	5260
2026-01-10 21:56:31.11	91.59	16.20	-45.1	-48.1	16.1	0.00e+00	0	40	0	464519168	61	5195
2026-01-10 21:56:32.11	91.81	16.19	-44.9	-47.9	16.3	0.00e+00	0	40	0	466616320	61	5062
2026-01-10 21:56:33.11	92.03	16.17	-44.9	-47.8	16.4	0.00e+00	0	40	0	468713472	61	5017
2026-01-10 21:56:34.12	92.25	16.16	-44.9	-47.8	16.4	0.00e+00	0	40	0	470810624	61	5023
2026-01-10 21:56:35.12	92.47	16.15	-44.9	-47.8	16.4	0.00e+00	0	40	0	472907776	61	5039
2026-01-10 21:56:36.12	92.69	16.13	-44.9	-47.8	16.4	0.00e+00	0	40	0	473956352	61	5038
2026-01-10 21:56:37.13	92.91	16.12	-44.8	-47.7	16.5	0.00e+00	0	40	0	476053504	61	4976
2026-01-10 21:56:38.13	93.13	16.10	-44.9	-47.8	16.4	0.00e+00	0	40	0	478150656	61	5013
2026-01-10 21:56:39.14	93.35	16.09	-44.9	-47.7	16.5	0.00e+00	0	40	0	480247808	61	4968
2026-01-10 21:56:40.14	93.56	16.07	-44.9	-47.7	16.5	0.00e+00	0	40	0	481296384	61	4983
2026-01-10 21:56:41.15	93.78	16.05	-44.8	-47.7	16.5	0.00e+00	0	40	0	483393536	61	4949
2026-01-10 21:56:42.15	94.00	16.04	-44.8	-47.6	16.6	0.00e+00	0	40	0	485490688	61	4921
2026-01-10 21:56:43.15	94.22	16.02	-44.8	-47.6	16.6	0.00e+00	0	40	0	487587840	61	4918
2026-01-10 21:56:44.15	94.44	16.00	-44.9	-47.8	16.4	0.00e+00	0	40	0	489684992	61	5002
2026-01-10 21:56:45.16	94.66	15.99	-44.8	-47.6	16.6	0.00e+00	0	40	0	491782144	61	4903
2026-01-10 21:56:46.16	94.87	15.97	-44.8	-47.6	16.6	0.00e+00	0	40	0	492830720	61	4915
2026-01-10 21:56:47.17	95.09	15.95	-44.7	-47.5	16.7	0.00e+00	0	40	0	494927872	61	4834
2026-01-10 21:56:48.17	95.31	15.93	-44.7	-47.4	16.8	0.00e+00	0	40	0	497025024	61	4813
2026-01-10 21:56:49.17	95.52	15.91	-44.6	-47.4	16.8	0.00e+00	0	40	0	499122176	61	4781
2026-01-10 21:56:50.18	95.74	15.89	-44.7	-47.5	16.7	0.00e+00	0	40	0	500170752	61	4853
2026-01-10 21:56:51.18	95.96	15.87	-44.8	-47.6	16.6	0.00e+00	0	40	0	502267904	61	4923
2026-01-10 21:56:52.18	96.17	15.85	-44.9	-47.8	16.4	0.00e+00	0	40	0	504365056	61	5036
2026-01-10 21:56:53.19	96.39	15.83	-45.0	-47.9	16.3	0.00e+00	0	40	0	506462208	61	5060
2026-01-10 21:56:54.19	96.60	15.81	-45.1	-48.0	16.3	0.00e+00	0	40	0	508559360	61	5143
2026-01-10 21:56:55.19	96.82	15.79	-45.2	-48.2	16.0	0.00e+00	0	40	0	509607936	61	5251
2026-01-10 21:56:56.19	97.03	15.77	-45.2	-48.2	16.1	7.00e-07	0	40	0	511705088	61	5239
2026-01-10 21:56:57.20	97.25	15.75	-45.2	-48.1	16.1	0.00e+00	0	40	0	513802240	61	5210
2026-01-10 21:56:58.20	97.46	15.72	-44.9	-47.7	16.5	0.00e+00	0	39	0	515899392	61	4981
2026-01-10 21:56:59.21	97.67	15.70	-44.8	-47.7	16.5	0.00e+00	0	40	0	517996544	61	4951
2026-01-10 21:57:00.21	97.89	15.68	-44.6	-47.4	16.8	0.00e+00	0	40	0	519045120	61	4779
2026-01-10 21:57:01.21	98.10	15.65	-44.5	-47.2	17.0	0.00e+00	0	40	0	521142272	60	4968
2026-01-10 21:57:02.22	98.31	15.63	-44.4	-47.2	17.0	0.00e+00	0	40	0	523239424	60	4940
2026-01-10 21:57:03.22	98.53	15.61	-44.4	-47.1	17.1	0.00e+00	0	40	0	525336576	60	4888
2026-01-10 21:57:04.22	98.74	15.58	-44.2	-46.9	17.3	0.00e+00	0	40	0	527433728	60	4775
2026-01-10 21:57:05.23	98.95	15.56	-44.2	-46.9	17.3	0.00e+00	0	40	0	528482304	60	4787
2026-01-10 21:57:06.23	99.16	15.53	-44.3	-46.9	17.3	0.00e+00	0	40	0	530579456	60	4802
2026-01-10 21:57:07.23	99.37	15.50	-44.3	-47.0	17.2	0.00e+00	0	40	0	532676608	60	4834
2026-01-10 21:57:08.23	99.58	15.48	-44.3	-47.0	17.2	0.00e+00	0	39	0	534773760	60	4817
2026-01-10 21:57:09.24	99.79	15.45	-44.3	-47.0	17.2	0.00e+00	0	40	0	536870912	60	4838
2026-01-10 21:57:10.24	100.00	15.43	-44.3	-47.0	17.2	0.00e+00	0	40	0	537919488	60	4834
2026-01-10 21:57:11.24	100.21	15.40	-44.4	-47.0	17.1	0.00e+00	0	40	0	540016640	60	4859
2026-01-10 21:57:12.25	100.42	15.37	-44.4	-47.2	17.1	0.00e+00	0	40	0	542113792	60	4929
2026-01-10 21:57:13.25	100.63	15.34	-44.5	-47.3	16.9	0.00e+00	0	40	0	544210944	60	5001
2026-01-10 21:57:14.25	100.84	15.32	-44.6	-47.4	16.8	0.00e+00	0	39	0	546308096	60	5077
2026-01-10 21:57:15.25	101.04	15.29	-44.5	-47.3	16.9	0.00e+00	0	40	0	547356672	60	5001
2026-01-10 21:57:16.26	101.25	15.26	-44.6	-47.3	16.9	0.00e+00	0	39	0	549453824	60	5037
2026-01-10 21:57:17.26	101.46	15.23	-44.4	-47.2	17.0	0.00e+00	0	40	0	551550976	60	4949
2026-01-10 21:57:18.26	101.67	15.20	-44.5	-47.2	17.0	0.00e+00	0	40	0	553648128	60	4954
2026-01-10 21:57:19.27	101.87	15.17	-44.3	-47.0	17.2	0.00e+00	0	40	0	554696704	60	4834
2026-01-10 21:57:20.28	102.08	15.14	-44.2	-46.8	17.4	0.00e+00	0	40	0	556793856	60	4748
2026-01-10 21:57:21.27	102.29	15.11	-44.1	-46.8	17.4	0.00e+00	0	40	0	558891008	60	4716
2026-01-10 21:57:22.28	102.49	15.08	-44.1	-46.7	17.4	0.00e+00	0	40	0	560988160	60	4704
2026-01-10 21:57:23.28	102.70	15.05	-44.2	-46.8	17.4	0.00e+00	0	40	0	563085312	60	4736
2026-01-10 21:57:24.28	102.90	15.02	-44.3	-46.9	17.3	0.00e+00	0	40	0	564133888	60	4809
2026-01-10 21:57:25.29	103.11	14.99	-44.3	-47.0	17.2	0.00e+00	0	39	0	566231040	60	4835
2026-01-10 21:57:26.29	103.31	14.96	-44.5	-47.3	16.9	0.00e+00	0	40	0	568328192	60	5031
2026-01-10 21:57:27.29	103.51	14.93	-44.7	-47.6	16.7	0.00e+00	0	40	0	570425344	60	5165
2026-01-10 21:57:28.29	103.71	14.89	-44.9	-47.8	16.4	0.00e+00	0	40	0	572522496	60	5325
2026-01-10 21:57:29.30	103.92	14.86	-44.9	-47.9	16.4	0.00e+00	0	40	0	573571072	60	5358
2026-01-10 21:57:30.30	104.12	14.83	-45.1	-48.1	16.1	0.00e+00	0	40	0	575668224	60	5482
2026-01-10 21:57:31.30	104.32	14.79	-45.1	-48.0	16.2	0.00e+00	0	40	0	577765376	60	5462
2026-01-10 21:57:32.30	104.52	14.76	-45.0	-47.9	16.3	0.00e+00	0	39	0	579862528	60	5376
2026-01-10 21:57:33.30	104.72	14.73	-45.0	-48.0	16.2	0.00e+00	0	40	0	581959680	60	5408
2026-01-10 21:57:34.31	104.92	14.69	-44.9	-47.9	16.4	0.00e+00	0	40	0	583008256	60	5348
2026-01-10 21:57:35.31	105.12	14.66	-44.9	-47.8	16.4	0.00e+00	0	39	0	585105408	60	5300
2026-01-10 21:57:36.31	105.32	14.63	-45.0	-48.0	16.2	0.00e+00	0	40	0	587202560	60	5429
2026-01-10 21:57:37.32	105.52	14.59	-45.0	-48.0	16.2	0.00e+00	0	40	0	589299712	60	5416
2026-01-10 21:57:38.32	105.72	14.56	-45.1	-48.0	16.2	0.00e+00	0	40	0	591396864	60	5462
2026-01-10 21:57:39.32	105.92	14.52	-45.0	-47.9	16.3	0.00e+00	0	40	0	592445440	60	5375
2026-01-10 21:57:40.33	106.11	14.48	-45.0	-47.9	16.3	0.00e+00	0	40	0	594542592	60	5366
2026-01-10 21:57:41.33	106.31	14.45	-44.9	-47.7	16.5	0.00e+00	0	40	0	596639744	60	5277
2026-01-10 21:57:42.33	106.51	14.41	-44.8	-47.7	16.5	0.00e+00	0	39	0	598736896	60	5244
2026-01-10 21:57:43.34	106.70	14.38	-44.9	-47.8	16.4	0.00e+00	0	40	0	599785472	60	5294
2026-01-10 21:57:44.34	106.90	14.34	-45.0	-48.0	16.2	0.00e+00	0	40	0	601882624	60	5406
2026-01-10 21:57:45.34	107.09	14.30	-45.2	-48.3	16.0	0.00e+00	0	40	0	603979776	61	5282
2026-01-10 21:57:46.35	107.29	14.27	-45.4	-48.6	15.7	0.00e+00	0	40	0	606076928	61	5478
2026-01-10 21:57:47.35	107.48	14.23	-45.7	-49.0	15.3	0.00e+00	0	40	0	608174080	62	5447
2026-01-10 21:57:48.35	107.68	14.19	-46.0	-49.4	14.8	0.00e+00	0	40	0	610271232	62	5715
2026-01-10 21:57:49.36	107.87	14.15	-46.1	-49.6	14.7	0.00e+00	0	40	0	611319808	62	5808
2026-01-10 21:57:50.36	108.06	14.12	-46.3	-50.0	14.3	7.00e-07	0	40	0	613416960	63	5753
2026-01-10 21:57:51.36	108.26	14.08	-46.4	-50.0	14.2	7.00e-07	0	40	0	615514112	63	5759
2026-01-10 21:57:52.37	108.45	14.04	-46.4	-50.1	14.1	3.80e-06	0	40	0	617611264	63	5844
2026-01-10 21:57:53.37	108.64	14.00	-46.5	-50.2	14.0	4.50e-06	0	40	0	618659840	63	5914
2026-01-10 21:57:54.37	108.83	13.96	-46.5	-50.2	14.0	3.00e-06	0	40	0	620756992	63	5892
2026-01-10 21:57:55.37	109.02	13.92	-46.6	-50.3	13.9	3.80e-06	0	40	0	622854144	63	5976
2026-01-10 21:57:56.38	109.21	13.88	-46.6	-50.4	13.9	1.50e-06	0	40	0	624951296	63	6032
2026-01-10 21:57:57.38	109.40	13.84	-46.6	-50.4	13.7	7.60e-06	0	40	0	627048448	64	5710
2026-01-10 21:57:58.39	109.59	13.80	-46.5	-50.4	13.8	4.50e-06	0	40	0	628097024	64	5680
2026-01-10 21:57:59.39	109.78	13.76	-46.6	-50.4	13.7	7.60e-06	0	40	0	630194176	64	5688
2026-01-10 21:58:00.39	109.97	13.72	-46.5	-50.3	13.8	6.10e-06	0	40	0	632291328	64	5649
2026-01-10 21:58:01.40	110.15	13.68	-46.3	-50.1	14.1	3.80e-06	0	40	0	634388480	64	5467
2026-01-10 21:58:02.40	110.34	13.64	-46.3	-50.1	14.1	1.50e-06	0	40	0	636485632	64	5479
2026-01-10 21:58:03.40	110.53	13.60	-46.3	-50.0	14.1	7.00e-07	0	40	0	637534208	64	5459
2026-01-10 21:58:04.41	110.71	13.56	-46.2	-49.9	14.2	1.50e-06	0	40	0	639631360	64	5391
2026-01-10 21:58:05.41	110.90	13.52	-46.1	-49.7	14.4	0.00e+00	0	40	0	641728512	64	5241
2026-01-10 21:58:06.41	111.08	13.48	-46.1	-49.7	14.4	1.50e-06	0	39	0	643825664	64	5248
2026-01-10 21:58:07.42	111.27	13.43	-46.1	-49.8	14.3	7.00e-07	0	40	0	645922816	64	5311
2026-01-10 21:58:08.42	111.45	13.39	-46.2	-49.9	14.2	3.00e-06	0	40	0	646971392	64	5366
2026-01-10 21:58:09.42	111.64	13.35	-46.2	-49.9	14.2	7.00e-07	0	39	0	649068544	64	5397
2026-01-10 21:58:10.43	111.82	13.31	-46.3	-50.1	14.1	3.00e-06	0	40	0	651165696	64	5474
2026-01-10 21:58:11.43	112.00	13.26	-46.4	-50.3	13.8	2.20e-06	0	40	0	653262848	64	5626
2026-01-10 21:58:12.44	112.18	13.22	-46.5	-50.4	13.7	7.60e-06	0	40	0	655360000	64	5710
2026-01-10 21:58:13.44	112.37	13.18	-46.6	-50.6	13.5	6.80e-06	0	40	0	656408576	64	5835
2026-01-10 21:58:14.44	112.55	13.13	-46.7	-50.8	13.4	1.52e-05	0	40	0	658505728	64	5933
2026-01-10 21:58:15.44	112.73	13.09	-46.7	-50.8	13.3	1.90e-05	0	40	0	660602880	64	5975
2026-01-10 21:58:16.45	112.91	13.05	-46.8	-50.8	13.2	1.75e-05	0	40	0	662700032	64	5992
2026-01-10 21:58:17.45	113.09	13.00	-46.7	-50.7	13.4	1.37e-05	0	40	0	664797184	64	5908
2026-01-10 21:58:18.45	113.26	12.96	-46.7	-50.8	13.3	1.37e-05	0	40	0	665845760	64	5954
2026-01-10 21:58:19.46	113.44	12.92	-46.5	-50.4	13.7	1.22e-05	0	40	0	667942912	64	5679
2026-01-10 21:58:20.46	113.62	12.87	-46.3	-50.0	14.1	2.20e-06	0	40	0	670040064	64	5459
2026-01-10 21:58:21.47	113.80	12.83	-46.3	-50.0	14.1	1.50e-06	0	40	0	672137216	64	5441
2026-01-10 21:58:22.47	113.98	12.78	-46.3	-50.0	14.1	7.00e-07	0	40	0	673185792	64	5408
2026-01-10 21:58:23.47	114.15	12.74	-46.3	-49.9	14.2	7.00e-07	0	40	0	675282944	64	5368
2026-01-10 21:58:24.48	114.33	12.69	-46.3	-50.0	14.1	1.50e-06	0	40	0	677380096	64	5441
2026-01-10 21:58:25.48	114.50	12.65	-46.2	-49.8	14.3	2.20e-06	0	40	0	679477248	64	5332
2026-01-10 21:58:26.48	114.68	12.60	-46.2	-49.8	14.2	7.00e-07	0	40	0	681574400	64	5326
2026-01-10 21:58:27.49	114.85	12.56	-46.1	-49.7	14.4	1.50e-06	0	40	0	682622976	64	5235
2026-01-10 21:58:28.49	115.03	12.51	-46.1	-49.6	14.4	7.00e-07	0	40	0	684720128	64	5188
2026-01-10 21:58:29.49	115.20	12.47	-46.1	-49.6	14.5	7.00e-07	0	40	0	686817280	64	5174
2026-01-10 21:58:30.50	115.37	12.42	-45.8	-49.1	15.0	0.00e+00	0	40	0	688914432	63	5178
2026-01-10 21:58:31.50	115.54	12.37	-45.7	-49.0	15.2	0.00e+00	0	40	0	691011584	63	5136
2026-01-10 21:58:32.50	115.71	12.33	-45.6	-48.9	15.3	0.00e+00	0	40	0	692060160	63	5048
2026-01-10 21:58:33.50	115.89	12.28	-45.6	-48.9	15.2	0.00e+00	0	40	0	694157312	63	5070
2026-01-10 21:58:34.51	116.06	12.24	-45.7	-49.0	15.1	0.00e+00	0	40	0	696254464	63	5133
2026-01-10 21:58:35.51	116.23	12.19	-45.7	-49.0	15.1	0.00e+00	0	40	0	698351616	63	5109
2026-01-10 21:58:36.51	116.40	12.14	-45.9	-49.3	14.8	0.00e+00	0	39	0	700448768	63	5318
2026-01-10 21:58:37.52	116.57	12.10	-46.0	-49.4	14.7	7.00e-07	0	40	0	701497344	63	5394
2026-01-10 21:58:38.52	116.73	12.05	-46.0	-49.4	14.7	0.00e+00	0	40	0	703594496	63	5369
2026-01-10 21:58:39.52	116.90	12.00	-46.0	-49.4	14.7	0.00e+00	0	40	0	705691648	63	5378
2026-01-10 21:58:40.53	117.07	11.95	-46.1	-49.6	14.6	7.00e-07	0	40	0	707788800	63	5473
2026-01-10 21:58:41.53	117.24	11.91	-46.1	-49.7	14.5	0.00e+00	0	40	0	709885952	63	5544
2026-01-10 21:58:42.53	117.40	11.86	-46.2	-49.8	14.3	2.20e-06	0	40	0	710934528	63	5619
2026-01-10 21:58:43.54	117.57	11.81	-46.2	-49.9	14.2	0.00e+00	0	40	0	713031680	63	5698
2026-01-10 21:58:44.54	117.73	11.76	-46.2	-49.8	14.3	0.00e+00	0	40	0	715128832	63	5646
2026-01-10 21:58:45.55	117.90	11.72	-46.2	-49.8	14.3	7.00e-07	0	40	0	717225984	63	5620
2026-01-10 21:58:46.55	118.06	11.67	-46.1	-49.7	14.4	0.00e+00	0	40	0	719323136	63	5538
2026-01-10 21:58:47.56	118.23	11.62	-46.1	-49.6	14.5	0.00e+00	0	40	0	720371712	63	5494
2026-01-10 21:58:48.56	118.39	11.57	-45.8	-49.2	14.9	0.00e+00	0	40	0	722468864	63	5266
2026-01-10 21:58:49.56	118.55	11.52	-45.7	-49.0	15.1	0.00e+00	0	40	0	724566016	63	5109
2026-01-10 21:58:50.57	118.72	11.47	-45.6	-48.9	15.1	7.00e-07	0	40	0	726663168	63	5078
2026-01-10 21:58:51.57	118.88	11.43	-45.5	-48.6	15.4	0.00e+00	0	40	0	728760320	62	5212
2026-01-10 21:58:52.57	119.04	11.38	-45.4	-48.5	15.6	0.00e+00	0	40	0	729808896	62	5132
2026-01-10 21:58:53.58	119.20	11.33	-45.4	-48.5	15.6	0.00e+00	0	40	0	731906048	62	5147
2026-01-10 21:58:54.58	119.36	11.28	-45.5	-48.7	15.4	0.00e+00	0	40	0	734003200	62	5269
2026-01-10 21:58:55.58	119.52	11.23	-45.5	-48.8	15.3	0.00e+00	0	40	0	736100352	62	5302
2026-01-10 21:58:56.58	119.68	11.18	-45.6	-48.9	15.1	0.00e+00	0	40	0	737148928	62	5389
2026-01-10 21:58:57.59	119.84	11.13	-45.7	-49.0	15.1	0.00e+00	0	40	0	739246080	62	5426
2026-01-10 21:58:58.59	120.00	11.08	-45.7	-49.0	15.1	0.00e+00	0	40	0	741343232	62	5423
2026-01-10 21:58:59.59	120.15	11.03	-45.7	-49.0	15.0	0.00e+00	0	40	0	743440384	62	5464
2026-01-10 21:59:00.60	120.31	10.99	-45.6	-48.9	15.2	0.00e+00	0	40	0	745537536	62	5374
2026-01-10 21:59:01.60	120.47	10.94	-45.6	-48.9	15.1	1.50e-06	0	40	0	747634688	62	5385
2026-01-10 21:59:02.60	120.62	10.89	-45.6	-48.8	15.2	0.00e+00	0	40	0	748683264	62	5334
2026-01-10 21:59:03.60	120.78	10.84	-45.5	-48.8	15.3	0.00e+00	0	40	0	750780416	62	5307
2026-01-10 21:59:04.61	120.93	10.79	-45.7	-49.0	15.0	7.00e-07	0	40	0	752877568	62	5435
2026-01-10 21:59:05.61	121.09	10.74	-45.8	-49.2	14.9	0.00e+00	0	40	0	754974720	62	5549
2026-01-10 21:59:06.61	121.24	10.69	-45.7	-49.1	15.0	1.50e-06	0	40	0	756023296	62	5470
2026-01-10 21:59:07.62	121.40	10.64	-45.8	-49.3	14.8	7.00e-07	0	40	0	758120448	62	5594
2026-01-10 21:59:08.62	121.55	10.59	-45.7	-49.2	14.9	0.00e+00	0	40	0	760217600	62	5533
2026-01-10 21:59:09.63	121.70	10.54	-45.8	-49.2	14.9	0.00e+00	0	40	0	762314752	62	5546
2026-01-10 21:59:10.63	121.85	10.49	-45.7	-49.1	14.9	0.00e+00	0	40	0	764411904	62	5487
2026-01-10 21:59:11.63	122.00	10.44	-45.6	-48.9	15.1	0.00e+00	0	40	0	765460480	62	5343
2026-01-10 21:59:12.64	122.16	10.39	-45.5	-48.8	15.2	0.00e+00	0	40	0	767557632	62	5301
2026-01-10 21:59:13.64	122.31	10.34	-45.4	-48.6	15.4	0.00e+00	0	40	0	769654784	62	5172
2026-01-10 21:59:14.64	122.46	10.28	-45.5	-48.7	15.3	0.00e+00	0	40	0	771751936	62	5260
2026-01-10 21:59:15.64	122.60	10.23	-45.5	-48.8	15.2	0.00e+00	0	40	0	773849088	62	5327
2026-01-10 21:59:16.65	122.75	10.18	-45.7	-49.1	14.9	0.00e+00	0	40	0	774897664	62	5476
2026-01-10 21:59:17.65	122.90	10.13	-45.8	-49.3	14.7	0.00e+00	0	40	0	776994816	62	5602
2026-01-10 21:59:18.65	123.05	10.08	-45.9	-49.4	14.6	1.50e-06	0	40	0	779091968	62	5702
2026-01-10 21:59:19.66	123.20	10.03	-45.9	-49.5	14.5	1.50e-06	0	40	0	781189120	62	5745
2026-01-10 21:59:20.66	123.35	9.98	-46.0	-49.5	14.5	0.00e+00	0	40	0	783286272	62	5756
2026-01-10 21:59:21.66	123.49	9.93	-45.9	-49.5	14.5	1.50e-06	0	40	0	784334848	62	5725
2026-01-10 21:59:22.67	123.64	9.88	-45.8	-49.3	14.6	7.00e-07	0	40	0	786432000	62	5624
2026-01-10 21:59:23.67	123.78	9.83	-45.8	-49.2	14.7	0.00e+00	0	40	0	788529152	62	5572
2026-01-10 21:59:24.67	123.93	9.78	-45.8	-49.2	14.8	7.00e-07	0	40	0	790626304	62	5541
2026-01-10 21:59:25.67	124.07	9.72	-45.6	-49.0	15.0	0.00e+00	0	40	0	792723456	62	5431
2026-01-10 21:59:26.68	124.22	9.67	-45.6	-48.9	15.1	0.00e+00	0	40	0	793772032	62	5344
2026-01-10 21:59:27.68	124.36	9.62	-45.7	-49.1	14.8	0.00e+00	0	40	0	795869184	62	5478
2026-01-10 21:59:28.68	124.50	9.57	-45.7	-49.1	14.8	0.00e+00	0	40	0	797966336	62	5511
2026-01-10 21:59:29.69	124.65	9.52	-45.9	-49.4	14.5	0.00e+00	0	40	0	800063488	62	5720
2026-01-10 21:59:30.69	124.79	9.47	-45.9	-49.5	14.5	7.00e-07	0	40	0	801112064	62	5725
2026-01-10 21:59:31.70	124.93	9.42	-46.0	-49.6	14.3	0.00e+00	0	40	0	803209216	62	5834
2026-01-10 21:59:32.70	125.07	9.36	-46.0	-49.7	14.2	3.00e-06	0	40	0	805306368	62	5856
2026-01-10 21:59:33.70	125.21	9.31	-46.1	-49.8	14.1	1.50e-06	0	40	0	807403520	62	5975
2026-01-10 21:59:34.71	125.35	9.26	-46.1	-49.8	14.1	2.20e-06	0	40	0	809500672	62	5960
2026-01-10 21:59:35.71	125.49	9.21	-46.1	-49.8	14.1	7.00e-07	0	40	0	810549248	62	5940
2026-01-10 21:59:36.71	125.63	9.16	-45.9	-49.4	14.5	1.50e-06	0	40	0	812646400	62	5715
2026-01-10 21:59:37.72	125.77	9.11	-45.8	-49.4	14.5	7.00e-07	0	40	0	814743552	62	5693
2026-01-10 21:59:38.72	125.91	9.05	-45.8	-49.4	14.5	0.00e+00	0	40	0	816840704	62	5684
2026-01-10 21:59:39.73	126.05	9.00	-48.5	-55.1	9.3	3.88e-04	0	40	0	818937856	67	8199
2026-01-10 21:59:40.73	126.18	8.95	-50.3	-65.2	3.8	1.49e+00	0	40	104	818937856	71	20801
2026-01-10 21:59:41.74	126.32	8.90	-50.5	-65.6	3.8	1.49e+00	0	40	104	818937856	71	21979
2026-01-10 21:59:42.74	126.46	8.85	-50.6	-65.8	3.8	1.49e+00	0	40	104	818937856	71	22265
2026-01-10 21:59:43.75	126.59	8.79	-50.5	-65.8	3.8	1.49e+00	0	40	104	818937856	71	22491
2026-01-10 21:59:44.75	126.73	8.74	-50.5	-65.9	3.8	1.49e+00	0	40	104	818937856	71	22643
2026-01-10 21:59:45.75	126.86	8.69	-50.3	-65.9	3.8	1.49e+00	0	40	104	818937856	71	22657
2026-01-10 21:59:46.76	127.00	8.64	-50.6	-65.9	3.8	1.49e+00	0	40	104	818937856	72	21409
2026-01-10 21:59:47.76	127.13	8.59	-50.7	-65.9	3.8	1.49e+00	0	40	104	818937856	72	21502
2026-01-10 21:59:48.76	127.27	8.53	-50.6	-66.0	3.8	1.49e+00	0	40	104	818937856	72	21537
2026-01-10 21:59:49.77	127.40	8.48	-50.7	-65.9	3.8	1.49e+00	0	40	104	818937856	72	21497
2026-01-10 21:59:50.77	127.53	8.43	-50.7	-66.0	3.8	1.49e+00	0	40	104	818937856	72	21555
2026-01-10 21:59:51.78	127.66	8.38	-50.5	-66.0	3.8	1.49e+00	0	40	104	818937856	72	21565
2026-01-10 21:59:52.78	127.80	8.32	-50.5	-66.0	3.8	1.49e+00	0	40	104	818937856	72	21666
2026-01-10 21:59:53.79	127.93	8.27	-50.4	-66.0	3.8	1.49e+00	0	40	104	818937856	72	21674
2026-01-10 21:59:54.79	128.06	8.22	-50.5	-66.0	3.8	1.49e+00	0	40	104	818937856	72	21588
2026-01-10 21:59:55.79	128.19	8.17	-50.4	-66.0	3.8	1.49e+00	0	40	104	818937856	72	21687
2026-01-10 21:59:56.80	128.32	8.12	-50.4	-66.0	3.8	1.49e+00	0	40	104	818937856	72	21743
2026-01-10 21:59:57.80	128.45	8.06	-50.5	-66.1	3.8	1.49e+00	0	40	104	818937856	72	21783
2026-01-10 21:59:58.81	128.58	8.01	-50.5	-66.0	3.8	1.49e+00	0	40	104	818937856	72	21659
2026-01-10 21:59:59.81	128.71	7.96	-50.7	-66.0	3.8	1.49e+00	0	40	104	818937856	72	21709
2026-01-10 22:00:00.81	128.83	7.91	-50.7	-66.0	3.8	1.49e+00	0	40	104	818937856	72	21592
2026-01-10 22:00:01.82	128.96	7.85	-50.7	-66.0	3.8	1.49e+00	0	40	104	818937856	72	21523
2026-01-10 22:00:02.82	129.09	7.80	-50.6	-66.0	3.8	1.49e+00	0	40	104	818937856	72	21667
2026-01-10 22:00:03.83	129.22	7.75	-50.7	-66.0	3.8	1.49e+00	0	40	104	818937856	72	21595
2026-01-10 22:00:04.83	129.34	7.70	-50.6	-66.0	3.8	1.49e+00	0	39	104	818937856	72	21590
2026-01-10 22:00:05.84	129.47	7.64	-50.7	-66.0	3.8	1.49e+00	0	40	104	818937856	72	21571
2026-01-10 22:00:06.84	129.59	7.59	-50.7	-66.0	3.8	1.49e+00	0	40	104	818937856	72	21623
2026-01-10 22:00:07.84	129.72	7.54	-50.6	-66.0	3.8	1.49e+00	0	40	104	818937856	72	21568
2026-01-10 22:00:08.85	129.84	7.49	-50.6	-66.0	3.8	1.49e+00	0	40	104	818937856	72	21656
2026-01-10 22:00:09.85	129.97	7.43	-50.7	-66.0	3.8	1.49e+00	0	40	104	818937856	72	21603
2026-01-10 22:00:10.86	130.09	7.38	-50.7	-66.0	3.8	1.49e+00	0	40	104	818937856	72	21564
2026-01-10 22:00:11.86	130.22	7.33	-50.6	-66.0	3.8	1.49e+00	0	40	104	818937856	72	21558
2026-01-10 22:00:12.87	130.34	7.28	-50.6	-66.0	3.8	1.49e+00	0	40	104	818937856	72	21624
2026-01-10 22:00:13.87	130.46	7.22	-50.6	-66.0	3.8	1.49e+00	0	40	104	818937856	72	21570
2026-01-10 22:00:14.88	130.58	7.17	-50.6	-66.0	3.8	1.49e+00	0	40	104	818937856	72	21635
2026-01-10 22:00:15.88	130.71	7.12	-50.6	-65.9	3.8	1.49e+00	0	40	104	818937856	72	21464
2026-01-10 22:00:16.88	130.83	7.07	-50.6	-66.0	3.8	1.49e+00	0	40	104	818937856	72	21568
2026-01-10 22:00:17.89	130.95	7.01	-50.6	-66.0	3.8	1.49e+00	0	40	104	818937856	72	21552
2026-01-10 22:00:18.89	131.07	6.96	-50.6	-65.9	3.8	1.49e+00	0	40	104	818937856	72	21454
2026-01-10 22:00:19.90	131.19	6.91	-50.6	-66.0	3.8	1.49e+00	0	40	104	818937856	72	21535
2026-01-10 22:00:20.90	131.31	6.86	-50.7	-66.0	3.8	1.49e+00	0	40	104	818937856	72	21583
2026-01-10 22:00:21.90	131.43	6.80	-50.6	-66.0	3.8	1.49e+00	0	40	104	818937856	72	21515
2026-01-10 22:00:22.91	131.55	6.75	-50.6	-66.0	3.8	1.49e+00	0	40	104	818937856	72	21507
2026-01-10 22:00:23.91	131.66	6.70	-50.6	-66.0	3.8	1.49e+00	0	40	104	818937856	72	21522
2026-01-10 22:00:24.92	131.78	6.65	-50.6	-65.9	3.8	1.49e+00	0	40	104	818937856	72	21459
2026-01-10 22:00:25.92	131.90	6.59	-50.6	-65.9	3.8	1.49e+00	0	40	104	818937856	72	21505
2026-01-10 22:00:26.93	132.02	6.54	-50.6	-65.9	3.8	1.49e+00	0	40	104	818937856	72	21504
2026-01-10 22:00:27.93	132.13	6.49	-50.6	-65.9	3.8	1.49e+00	0	40	104	818937856	72	21417
2026-01-10 22:00:28.94	132.25	6.44	-50.6	-66.0	3.8	1.49e+00	0	40	104	818937856	72	21526
2026-01-10 22:00:29.94	132.37	6.38	-50.6	-66.0	3.8	1.49e+00	0	40	104	818937856	72	21540
2026-01-10 22:00:30.94	132.48	6.33	-50.6	-66.0	3.8	1.49e+00	0	40	104	818937856	72	21570
2026-01-10 22:00:31.95	132.60	6.28	-50.6	-65.9	3.8	1.49e+00	0	40	104	818937856	72	21416
2026-01-10 22:00:32.95	132.71	6.23	-50.6	-65.9	3.8	1.49e+00	0	40	104	818937856	72	21494
2026-01-10 22:00:33.96	132.83	6.17	-50.6	-66.0	3.8	1.49e+00	0	40	104	818937856	72	21509
2026-01-10 22:00:34.96	132.94	6.12	-50.6	-65.9	3.8	1.49e+00	0	39	104	818937856	72	21462
2026-01-10 22:00:35.96	133.05	6.07	-50.6	-66.0	3.8	1.49e+00	0	40	104	818937856	72	21596
2026-01-10 22:00:36.97	133.17	6.02	-50.6	-65.9	3.8	1.49e+00	0	39	104	818937856	72	21505
2026-01-10 22:00:37.97	133.28	5.96	-50.6	-66.0	3.8	1.49e+00	0	40	104	818937856	72	21508
2026-01-10 22:00:38.98	133.39	5.91	-50.6	-66.0	3.8	1.49e+00	0	40	104	818937856	72	21508
2026-01-10 22:00:39.98	133.50	5.86	-50.6	-65.9	3.8	1.49e+00	0	40	104	818937856	72	21458
2026-01-10 22:00:40.99	133.62	5.81	-50.6	-66.0	3.8	1.49e+00	0	40	104	818937856	72	21598
2026-01-10 22:00:41.99	133.73	5.75	-50.6	-66.0	3.8	1.49e+00	0	40	104	818937856	72	21534
2026-01-10 22:00:42.99	133.84	5.70	-50.6	-65.9	3.8	1.49e+00	0	40	104	818937856	72	21489
2026-01-10 22:00:44.00	133.95	5.65	-50.6	-65.9	3.8	1.49e+00	0	40	104	818937856	72	21435
2026-01-10 22:00:45.00	134.06	5.60	-50.6	-65.9	3.8	1.49e+00	0	40	104	818937856	72	21444
2026-01-10 22:00:46.01	134.17	5.55	-50.6	-65.9	3.8	1.49e+00	0	40	104	818937856	72	21437
2026-01-10 22:00:47.01	134.28	5.49	-50.6	-66.0	3.8	1.49e+00	0	40	104	818937856	72	21515
2026-01-10 22:00:48.02	134.39	5.44	-50.6	-65.9	3.8	1.49e+00	0	40	104	818937856	72	21487
2026-01-10 22:00:49.02	134.49	5.39	-50.6	-65.9	3.8	1.49e+00	0	40	104	818937856	72	21473
2026-01-10 22:00:50.03	134.60	5.34	-50.6	-65.9	3.8	1.49e+00	0	39	104	818937856	72	21472
2026-01-10 22:00:51.03	134.71	5.28	-50.6	-66.0	3.8	1.49e+00	0	40	104	818937856	72	21531
2026-01-10 22:00:52.03	134.82	5.23	-50.6	-65.9	3.8	1.49e+00	0	40	104	818937856	72	21404
2026-01-10 22:00:53.04	134.93	5.18	-50.6	-65.9	3.8	1.49e+00	0	40	104	818937856	72	21497
2026-01-10 22:00:54.04	135.03	5.13	-50.6	-65.9	3.8	1.49e+00	0	40	104	818937856	72	21438
2026-01-10 22:00:55.05	135.14	5.08	-50.6	-65.9	3.8	1.49e+00	0	40	104	818937856	72	21495
2026-01-10 22:00:56.05	135.24	5.02	-50.6	-65.9	3.8	1.49e+00	0	40	104	818937856	72	21461
2026-01-10 22:00:57.06	135.35	4.97	-50.6	-65.9	3.8	1.49e+00	0	40	104	818937856	72	21442

#Closed at: 2026-01-10 22:00:58
#Recorded file [818 MB]: D:/Data/31040_260111_005103.dat