passes_logs/2026/01/10/T1/T1__20260110_035446_FENGYUN_3E_rec.log

#Pass ID: 20260110_035446_FENGYUN 3E
#Satellite: FENGYUN 3E
#Configuration: FENGYUN 3E
#almurnet v.1.7.20251203
#Start time: 2026-01-10 03:54:49

#Version: 2.0.20230620
#Station: T1
#Location: 37.570604 lon 55.790049 lat
#TLE: 1 49008U 21062A   26009.29780149 -.00000002  00000+0  19895-4 0  9997
#TLE: 2 49008  98.7484  14.4929 0001744 148.2300 211.8982 14.19883977234036

#Time	Az	El	Level	Level2	SNR	BER	BlckErr	Temp	State	Recorded	gain1	gain2
2026-01-10 03:54:49.02	16.71	5.17	-51.3	-63.0	3.8	8.45e-01	0	41	0	0	73	13442
2026-01-10 03:54:50.02	16.71	5.24	-51.3	-62.7	3.8	8.47e-01	0	41	104	0	72	13874
2026-01-10 03:54:51.02	16.72	5.31	-51.3	-62.5	3.8	8.47e-01	0	41	104	0	72	13419
2026-01-10 03:54:52.03	16.73	5.38	-51.3	-62.1	3.8	8.46e-01	0	41	104	0	72	12958
2026-01-10 03:54:53.03	16.73	5.46	-51.3	-61.9	3.8	8.46e-01	0	41	104	0	72	12645
2026-01-10 03:54:54.03	16.74	5.53	-51.2	-61.5	3.8	8.46e-01	0	41	104	0	72	12043
2026-01-10 03:54:55.04	16.75	5.60	-51.2	-61.3	3.8	8.47e-01	0	42	104	0	72	11718
2026-01-10 03:54:56.04	16.76	5.67	-51.1	-61.2	3.8	8.46e-01	0	41	104	0	72	11558
2026-01-10 03:54:57.04	16.76	5.75	-51.1	-61.0	3.8	8.45e-01	0	42	104	0	72	11319
2026-01-10 03:54:58.05	16.77	5.82	-51.1	-61.1	3.8	8.46e-01	0	41	104	0	72	11422
2026-01-10 03:54:59.05	16.78	5.89	-51.1	-61.2	3.9	8.47e-01	0	42	104	0	72	11570
2026-01-10 03:55:00.06	16.78	5.97	-51.2	-61.4	3.8	8.46e-01	0	42	104	0	72	11848
2026-01-10 03:55:01.06	16.79	6.04	-51.2	-61.4	3.8	8.46e-01	0	42	104	0	72	11904
2026-01-10 03:55:02.07	16.80	6.12	-51.2	-61.9	3.8	8.48e-01	0	42	104	0	72	12537
2026-01-10 03:55:03.07	16.81	6.19	-51.3	-62.2	3.8	8.47e-01	0	42	104	0	72	12985
2026-01-10 03:55:04.08	16.81	6.27	-51.3	-62.2	3.8	8.46e-01	0	42	104	0	72	13042
2026-01-10 03:55:05.08	16.82	6.34	-51.3	-62.3	3.8	8.47e-01	0	42	104	0	72	13236
2026-01-10 03:55:06.09	16.83	6.42	-51.3	-62.4	3.8	8.46e-01	0	42	104	0	72	13356
2026-01-10 03:55:07.09	16.83	6.49	-51.3	-62.3	3.8	8.46e-01	0	42	104	0	72	13235
2026-01-10 03:55:08.09	16.84	6.57	-51.3	-62.4	3.8	8.47e-01	0	42	104	0	72	13278
2026-01-10 03:55:09.10	16.85	6.64	-51.3	-62.4	3.8	8.47e-01	0	42	104	0	72	13394
2026-01-10 03:55:10.10	16.86	6.72	-51.3	-62.4	3.8	8.48e-01	0	42	104	0	72	13349
2026-01-10 03:55:11.11	16.86	6.80	-51.4	-62.6	3.8	8.47e-01	0	42	104	0	72	13619
2026-01-10 03:55:12.11	16.87	6.87	-51.4	-62.8	3.8	8.48e-01	0	42	104	0	72	14007
2026-01-10 03:55:13.12	16.88	6.95	-51.4	-62.8	3.8	8.45e-01	0	42	104	0	72	14034
2026-01-10 03:55:14.12	16.88	7.03	-51.3	-62.7	3.8	8.47e-01	0	42	104	0	72	13796
2026-01-10 03:55:15.13	16.89	7.10	-51.3	-62.2	3.8	8.47e-01	0	42	104	0	72	13104
2026-01-10 03:55:16.13	16.90	7.18	-51.2	-61.5	3.8	8.46e-01	0	42	104	0	72	11970
2026-01-10 03:55:17.14	16.91	7.26	-51.0	-60.0	4.1	8.42e-01	0	42	0	0	72	10076
2026-01-10 03:55:18.14	16.91	7.34	-50.8	-58.8	4.5	8.25e-01	0	42	0	0	72	8854
2026-01-10 03:55:19.14	16.92	7.41	-50.6	-57.5	5.1	7.82e-01	0	42	0	0	72	7626
2026-01-10 03:55:20.15	16.93	7.49	-50.4	-56.6	5.8	6.86e-01	0	42	0	0	71	7216
2026-01-10 03:55:21.15	16.94	7.57	-50.1	-55.7	6.5	2.85e-01	0	42	0	7340032	71	6529
2026-01-10 03:55:22.16	16.94	7.65	-49.7	-54.6	7.5	1.29e-01	0	43	0	14680064	70	6085
2026-01-10 03:55:23.16	16.95	7.73	-49.5	-54.1	8.0	7.30e-02	0	42	0	22020096	69	6122
2026-01-10 03:55:24.17	16.96	7.81	-49.3	-53.6	8.4	5.18e-02	0	42	0	29360128	69	5782
2026-01-10 03:55:25.17	16.97	7.89	-49.2	-53.4	8.7	3.87e-02	0	43	0	36700160	69	5645
2026-01-10 03:55:26.17	16.97	7.97	-49.0	-52.9	9.2	2.58e-02	0	42	0	44040192	68	5632
2026-01-10 03:55:27.18	16.98	8.05	-49.0	-53.0	9.1	2.80e-02	0	42	0	51380224	68	5679
2026-01-10 03:55:28.19	16.99	8.13	-48.9	-52.6	9.5	1.89e-02	0	43	0	58720256	68	5461
2026-01-10 03:55:29.19	17.00	8.21	-48.9	-52.7	9.5	1.69e-02	0	43	0	65011712	68	5470
2026-01-10 03:55:30.19	17.00	8.29	-48.9	-52.6	9.5	1.62e-02	0	43	0	72351744	68	5433
2026-01-10 03:55:31.20	17.01	8.37	-48.9	-52.6	9.5	1.50e-02	0	43	0	79691776	68	5462
2026-01-10 03:55:32.20	17.02	8.45	-48.9	-52.6	9.5	1.61e-02	0	43	0	87031808	68	5460
2026-01-10 03:55:33.21	17.03	8.54	-48.9	-52.7	9.5	1.47e-02	0	43	0	94371840	68	5465
2026-01-10 03:55:34.21	17.03	8.62	-48.9	-52.8	9.4	1.83e-02	0	43	0	101711872	68	5536
2026-01-10 03:55:35.21	17.04	8.70	-49.1	-53.1	9.0	2.20e-02	0	43	0	109051904	68	5745
2026-01-10 03:55:36.22	17.05	8.78	-49.4	-53.6	8.5	3.65e-02	0	43	0	116391936	68	6106
2026-01-10 03:55:37.22	17.06	8.87	-49.5	-54.1	8.0	5.76e-02	0	43	0	123731968	68	6432
2026-01-10 03:55:38.22	17.06	8.95	-49.8	-54.7	7.4	1.02e-01	0	43	0	131072000	68	6904
2026-01-10 03:55:39.23	17.07	9.03	-50.2	-55.8	6.4	2.56e-01	0	43	0	138412032	69	7416
2026-01-10 03:55:40.24	17.08	9.12	-49.8	-54.7	7.5	4.03e-02	0	43	0	145752064	69	6564
2026-01-10 03:55:41.29	17.09	9.20	-51.7	-62.9	3.8	8.46e-01	0	43	104	146800640	72	14136
2026-01-10 03:55:42.16	17.09	9.28	-45.9	-48.0	14.3	2.28e-05	0	43	0	148897792	62	4495
2026-01-10 03:55:43.48	17.10	9.39	-45.7	-47.7	14.6	0.00e+00	0	43	0	158334976	61	4645
2026-01-10 03:55:44.20	17.11	9.45	-48.6	-52.5	9.4	1.31e-02	0	43	0	163577856	67	5693
2026-01-10 03:55:45.76	17.12	9.58	-45.3	-47.0	15.3	0.00e+00	0	43	0	175112192	61	4282
2026-01-10 03:55:46.39	17.13	9.63	-44.9	-46.5	15.8	0.00e+00	0	43	0	179306496	60	4288
2026-01-10 03:55:47.83	17.14	9.76	-44.9	-46.6	15.7	0.00e+00	0	43	0	189792256	60	4306
2026-01-10 03:55:48.55	17.14	9.82	-44.5	-46.0	16.2	0.00e+00	0	43	0	195035136	59	4270
2026-01-10 03:55:49.83	17.15	9.93	-44.4	-45.8	16.4	0.00e+00	0	43	0	204472320	58	4441
2026-01-10 03:55:50.55	17.16	9.99	-44.3	-45.8	16.4	0.00e+00	0	43	0	209715200	58	4416
2026-01-10 03:55:51.84	17.17	10.10	-44.3	-45.8	16.4	0.00e+00	0	43	0	219152384	58	4412
2026-01-10 03:55:52.55	17.18	10.17	-44.3	-45.8	16.4	0.00e+00	0	43	0	223346688	58	4421
2026-01-10 03:55:53.84	17.19	10.28	-44.1	-45.5	16.7	0.00e+00	0	43	0	232783872	58	4282
2026-01-10 03:55:54.56	17.19	10.34	-44.1	-45.5	16.7	0.00e+00	0	43	0	238026752	58	4284
2026-01-10 03:55:55.85	17.20	10.45	-44.1	-45.6	16.7	0.00e+00	0	43	0	247463936	58	4322
2026-01-10 03:55:56.67	17.21	10.53	-43.9	-45.2	17.0	0.00e+00	0	43	0	253755392	58	4141
2026-01-10 03:55:58.13	17.22	10.66	-43.6	-44.9	17.3	0.00e+00	0	43	0	264241152	57	4233
2026-01-10 03:55:59.26	17.23	10.76	-43.7	-45.0	17.2	0.00e+00	0	43	0	272629760	57	4284
2026-01-10 03:56:00.12	17.24	10.83	-43.1	-44.4	17.9	0.00e+00	0	43	0	278921216	57	3963
2026-01-10 03:56:01.27	17.25	10.94	-43.3	-44.6	17.7	0.00e+00	0	43	0	286261248	57	4058
2026-01-10 03:56:02.13	17.25	11.01	-43.1	-44.4	17.8	0.00e+00	0	43	0	293601280	57	3990
2026-01-10 03:56:03.28	17.26	11.12	-43.1	-44.3	17.9	0.00e+00	0	43	0	300941312	56	4189
2026-01-10 03:56:04.14	17.27	11.20	-43.1	-44.3	17.9	0.00e+00	0	43	0	307232768	56	4190
2026-01-10 03:56:05.28	17.28	11.30	-43.1	-44.3	17.9	0.00e+00	0	43	0	315621376	56	4189
2026-01-10 03:56:06.14	17.29	11.38	-43.2	-44.4	17.8	0.00e+00	0	43	0	321912832	56	4237
2026-01-10 03:56:07.29	17.30	11.48	-43.2	-44.4	17.9	0.00e+00	0	43	0	330301440	56	4223
2026-01-10 03:56:08.15	17.30	11.56	-43.1	-44.4	17.9	0.00e+00	0	43	0	336592896	56	4208
2026-01-10 03:56:09.50	17.31	11.69	-43.2	-44.5	17.8	0.00e+00	0	43	0	346030080	56	4248
2026-01-10 03:56:10.22	17.32	11.75	-43.2	-44.4	17.9	0.00e+00	0	43	0	351272960	56	4220
2026-01-10 03:56:11.51	17.33	11.87	-43.0	-44.3	18.0	0.00e+00	0	43	0	360710144	56	4149
2026-01-10 03:56:12.22	17.34	11.94	-43.2	-44.4	17.9	0.00e+00	0	43	0	365953024	56	4228
2026-01-10 03:56:13.51	17.35	12.06	-42.9	-44.1	18.2	0.00e+00	0	43	0	375390208	56	4080
2026-01-10 03:56:14.23	17.35	12.13	-42.9	-44.0	18.3	0.00e+00	0	43	0	380633088	56	4042
2026-01-10 03:56:15.52	17.36	12.25	-42.9	-44.0	18.3	0.00e+00	0	43	0	390070272	56	4050
2026-01-10 03:56:16.24	17.37	12.32	-42.8	-44.0	18.3	0.00e+00	0	43	0	395313152	56	4031
2026-01-10 03:56:17.53	17.38	12.44	-43.0	-44.1	18.2	0.00e+00	0	43	0	404750336	56	4085
2026-01-10 03:56:18.24	17.39	12.51	-42.9	-44.1	18.3	0.00e+00	0	43	0	408944640	56	4053
2026-01-10 03:56:19.53	17.40	12.63	-42.8	-43.9	18.4	0.00e+00	0	43	0	418381824	56	3985
2026-01-10 03:56:20.25	17.41	12.70	-42.8	-44.0	18.3	0.00e+00	0	43	0	423624704	56	4009
2026-01-10 03:56:21.54	17.42	12.83	-42.6	-43.7	18.6	0.00e+00	0	43	0	433061888	56	3902
2026-01-10 03:56:22.25	17.42	12.90	-42.8	-43.9	18.4	0.00e+00	0	43	0	438304768	56	3978
2026-01-10 03:56:23.54	17.43	13.02	-42.8	-43.9	18.4	0.00e+00	0	43	0	447741952	56	3983
2026-01-10 03:56:24.26	17.44	13.09	-42.6	-43.7	18.5	0.00e+00	0	43	0	452984832	55	4118
2026-01-10 03:56:25.55	17.45	13.22	-42.7	-43.8	18.4	0.00e+00	0	43	0	462422016	55	4172
2026-01-10 03:56:26.27	17.46	13.29	-42.6	-43.7	18.5	0.00e+00	0	43	0	466616320	55	4118
2026-01-10 03:56:27.56	17.47	13.42	-42.7	-43.8	18.5	0.00e+00	0	43	0	476053504	55	4151
2026-01-10 03:56:28.27	17.48	13.49	-42.5	-43.6	18.6	0.00e+00	0	43	0	482344960	55	4070
2026-01-10 03:56:29.56	17.49	13.62	-42.5	-43.5	18.7	0.00e+00	0	43	0	490733568	55	4046
2026-01-10 03:56:30.28	17.49	13.69	-42.5	-43.6	18.6	0.00e+00	0	43	0	495976448	55	4071
2026-01-10 03:56:31.57	17.51	13.82	-42.5	-43.5	18.7	0.00e+00	0	43	0	505413632	55	4044
2026-01-10 03:56:32.29	17.51	13.90	-42.5	-43.6	18.6	0.00e+00	0	43	0	510656512	55	4062
2026-01-10 03:56:33.58	17.52	14.03	-42.6	-43.7	18.6	0.00e+00	0	43	0	520093696	55	4101
2026-01-10 03:56:34.56	17.53	14.13	-42.6	-43.6	18.6	0.00e+00	0	43	0	527433728	55	4094
2026-01-10 03:56:35.56	17.54	14.23	-42.4	-43.5	18.8	0.00e+00	0	43	0	533725184	55	4015
2026-01-10 03:56:36.57	17.55	14.33	-42.5	-43.6	18.7	0.00e+00	0	43	0	541065216	55	4057
2026-01-10 03:56:37.57	17.56	14.44	-42.4	-43.4	18.8	0.00e+00	0	43	0	549453824	55	3997
2026-01-10 03:56:38.57	17.57	14.54	-42.3	-43.4	18.9	0.00e+00	0	43	0	555745280	55	3960
2026-01-10 03:56:39.58	17.58	14.65	-42.1	-43.2	19.1	0.00e+00	0	43	0	563085312	55	3876
2026-01-10 03:56:40.58	17.59	14.75	-42.1	-43.1	19.1	0.00e+00	0	43	0	570425344	55	3864
2026-01-10 03:56:41.59	17.60	14.86	-42.3	-43.3	18.9	0.00e+00	0	43	0	577765376	55	3932
2026-01-10 03:56:42.59	17.61	14.96	-42.3	-43.4	18.9	0.00e+00	0	43	0	585105408	54	4197
2026-01-10 03:56:43.69	17.62	15.08	-42.0	-43.1	19.2	0.00e+00	0	43	0	593494016	54	4055
2026-01-10 03:56:44.57	17.63	15.17	-42.1	-43.1	19.1	0.00e+00	0	44	0	598736896	54	4078
2026-01-10 03:56:45.71	17.64	15.30	-41.9	-42.9	19.3	0.00e+00	0	44	0	607125504	54	3987
2026-01-10 03:56:46.65	17.65	15.40	-42.1	-43.1	19.2	0.00e+00	0	44	0	614465536	54	4064
2026-01-10 03:56:47.65	17.65	15.51	-42.1	-43.1	19.2	0.00e+00	0	43	0	621805568	54	4068
2026-01-10 03:56:48.66	17.66	15.62	-42.2	-43.2	19.0	0.00e+00	0	44	0	629145600	54	4140
2026-01-10 03:56:49.66	17.67	15.73	-42.0	-43.0	19.2	0.00e+00	0	44	0	636485632	54	4027
2026-01-10 03:56:50.66	17.68	15.84	-41.9	-42.9	19.3	0.00e+00	0	43	0	642777088	54	3993
2026-01-10 03:56:51.67	17.69	15.95	-41.9	-42.9	19.4	0.00e+00	0	43	0	650117120	54	3961
2026-01-10 03:56:52.67	17.70	16.06	-42.0	-43.0	19.3	0.00e+00	0	43	0	658505728	54	4025
2026-01-10 03:56:53.67	17.71	16.17	-41.9	-42.9	19.4	0.00e+00	0	44	0	664797184	54	3969
2026-01-10 03:56:54.68	17.72	16.28	-42.0	-43.0	19.3	0.00e+00	0	44	0	672137216	54	4014
2026-01-10 03:56:55.68	17.73	16.39	-41.9	-42.9	19.4	0.00e+00	0	43	0	679477248	54	3967
2026-01-10 03:56:56.68	17.74	16.51	-42.0	-43.0	19.3	0.00e+00	0	43	0	686817280	54	4022
2026-01-10 03:56:57.69	17.75	16.62	-41.8	-42.9	19.4	0.00e+00	0	43	0	694157312	54	3961
2026-01-10 03:56:58.69	17.76	16.73	-41.9	-42.9	19.4	0.00e+00	0	44	0	701497344	54	3978
2026-01-10 03:56:59.72	17.77	16.85	-41.8	-42.8	19.5	0.00e+00	0	43	0	708837376	54	3927
2026-01-10 03:57:00.72	17.78	16.97	-41.8	-42.8	19.5	0.00e+00	0	43	0	716177408	54	3944
2026-01-10 03:57:01.72	17.79	17.08	-41.7	-42.8	19.5	0.00e+00	0	44	0	723517440	54	3918
2026-01-10 03:57:02.73	17.80	17.20	-41.8	-42.8	19.4	0.00e+00	0	44	0	730857472	54	3958
2026-01-10 03:57:03.73	17.81	17.32	-41.6	-42.7	19.6	0.00e+00	0	44	0	738197504	53	4100
2026-01-10 03:57:04.74	17.82	17.43	-41.6	-42.6	19.7	0.00e+00	0	43	0	744488960	53	4076
2026-01-10 03:57:05.74	17.84	17.55	-41.6	-42.6	19.7	0.00e+00	0	44	0	751828992	53	4080
2026-01-10 03:57:06.74	17.85	17.67	-41.5	-42.5	19.8	0.00e+00	0	44	0	759169024	53	4022
2026-01-10 03:57:07.74	17.86	17.79	-41.7	-42.7	19.5	0.00e+00	0	44	0	766509056	53	4124
2026-01-10 03:57:08.74	17.87	17.91	-41.7	-42.7	19.6	0.00e+00	0	43	0	773849088	53	4120
2026-01-10 03:57:09.75	17.88	18.03	-41.5	-42.5	19.7	0.00e+00	0	44	0	781189120	53	4030
2026-01-10 03:57:10.75	17.89	18.15	-41.5	-42.6	19.7	0.00e+00	0	43	0	788529152	53	4053
2026-01-10 03:57:11.75	17.90	18.27	-41.5	-42.5	19.7	0.00e+00	0	44	0	795869184	53	4037
2026-01-10 03:57:12.76	17.91	18.39	-41.4	-42.4	19.8	0.00e+00	0	44	0	803209216	53	3994
2026-01-10 03:57:13.76	17.92	18.52	-41.4	-42.4	19.8	0.00e+00	0	44	0	809500672	53	3990
2026-01-10 03:57:14.76	17.93	18.64	-41.3	-42.3	19.9	0.00e+00	0	43	0	816840704	53	3950
2026-01-10 03:57:15.85	17.94	18.78	-41.2	-42.2	20.1	0.00e+00	0	44	0	825229312	53	3898
2026-01-10 03:57:16.72	17.95	18.88	-41.2	-42.2	20.1	0.00e+00	0	44	0	831520768	53	3886
2026-01-10 03:57:18.03	17.97	19.05	-41.2	-42.2	20.1	0.00e+00	0	44	0	840957952	53	3894
2026-01-10 03:57:18.75	17.97	19.14	-41.1	-42.1	20.2	0.00e+00	0	44	0	846200832	52	4074
2026-01-10 03:57:20.04	17.99	19.30	-41.2	-42.1	20.1	0.00e+00	0	44	0	855638016	52	4097
2026-01-10 03:57:20.75	18.00	19.39	-41.0	-42.0	20.3	0.00e+00	0	44	0	860880896	52	4020
2026-01-10 03:57:22.05	18.01	19.56	-41.0	-42.0	20.3	0.00e+00	0	44	0	870318080	52	4007
2026-01-10 03:57:22.76	18.02	19.65	-40.9	-41.9	20.4	0.00e+00	0	44	0	874512384	52	3977
2026-01-10 03:57:24.05	18.03	19.81	-40.9	-41.8	20.4	0.00e+00	0	44	0	883949568	52	3950
2026-01-10 03:57:24.77	18.04	19.91	-40.8	-41.8	20.4	0.00e+00	0	44	0	889192448	52	3928
2026-01-10 03:57:26.06	18.06	20.07	-40.7	-41.7	20.5	0.00e+00	0	44	0	898629632	52	3889
2026-01-10 03:57:26.77	18.07	20.17	-40.8	-41.7	20.5	0.00e+00	0	43	0	903872512	52	3909
2026-01-10 03:57:28.07	18.08	20.34	-40.9	-41.9	20.3	0.00e+00	0	44	0	913309696	52	3983
2026-01-10 03:57:28.78	18.09	20.43	-40.8	-41.8	20.4	0.00e+00	0	44	0	918552576	52	3928
2026-01-10 03:57:30.13	18.11	20.61	-40.7	-41.7	20.5	0.00e+00	0	44	0	927989760	52	3870
2026-01-10 03:57:30.85	18.11	20.71	-40.7	-41.6	20.6	0.00e+00	0	44	0	933232640	52	3844
2026-01-10 03:57:32.14	18.13	20.88	-40.8	-41.7	20.5	0.00e+00	0	44	0	942669824	52	3894
2026-01-10 03:57:33.19	18.14	21.02	-40.8	-41.7	20.5	0.00e+00	0	43	0	950009856	52	3913
2026-01-10 03:57:34.08	18.15	21.15	-40.7	-41.7	20.6	0.00e+00	0	44	0	957349888	52	3873
2026-01-10 03:57:35.22	18.17	21.30	-40.8	-41.8	20.5	0.00e+00	0	44	0	964689920	52	3921
2026-01-10 03:57:36.08	18.18	21.42	-41.0	-41.9	20.3	0.00e+00	0	44	0	970981376	52	3994
2026-01-10 03:57:37.23	18.19	21.58	-40.9	-41.9	20.4	0.00e+00	0	44	0	979369984	52	3979
2026-01-10 03:57:38.09	18.20	21.70	-41.0	-42.0	20.3	0.00e+00	0	44	0	985661440	52	4035
2026-01-10 03:57:39.33	18.22	21.87	-41.0	-42.0	20.3	0.00e+00	0	44	0	995098624	52	4019
2026-01-10 03:57:40.18	18.23	21.99	-41.0	-42.0	20.3	0.00e+00	0	44	0	1001390080	52	4010
2026-01-10 03:57:41.33	18.24	22.15	-41.0	-41.9	20.4	0.00e+00	0	44	0	1008730112	52	3990
2026-01-10 03:57:42.19	18.25	22.28	-41.0	-42.0	20.3	0.00e+00	0	44	0	1015021568	52	4015
2026-01-10 03:57:43.50	18.27	22.47	-41.0	-42.0	20.3	0.00e+00	0	44	0	1024458752	52	4008
2026-01-10 03:57:44.22	18.28	22.57	-41.0	-42.0	20.3	0.00e+00	0	44	0	1029701632	52	4010
2026-01-10 03:57:45.50	18.30	22.75	-41.0	-41.9	20.4	0.00e+00	0	44	0	1039138816	52	4001
2026-01-10 03:57:46.22	18.30	22.86	-41.1	-42.1	20.2	0.00e+00	0	44	0	1044381696	52	4058
2026-01-10 03:57:47.78	18.33	23.09	-41.1	-42.0	20.3	0.00e+00	0	44	0	1055916032	52	4049
2026-01-10 03:57:48.49	18.33	23.19	-41.0	-42.0	20.2	0.00e+00	0	44	0	1061158912	52	4023
2026-01-10 03:57:49.78	18.35	23.38	-41.1	-42.0	20.3	0.00e+00	0	44	0	1070596096	52	4038
2026-01-10 03:57:50.50	18.36	23.49	-41.0	-41.9	20.4	0.00e+00	0	44	0	1074790400	52	3998
2026-01-10 03:57:51.78	18.38	23.68	-40.9	-41.8	20.5	0.00e+00	0	44	0	1084227584	52	3939
2026-01-10 03:57:52.50	18.39	23.79	-40.9	-41.8	20.5	0.00e+00	0	44	0	1089470464	52	3957
2026-01-10 03:57:53.79	18.41	23.99	-40.9	-41.8	20.5	0.00e+00	0	44	0	1098907648	52	3954
2026-01-10 03:57:54.50	18.42	24.10	-40.8	-41.7	20.5	0.00e+00	0	44	0	1104150528	52	3909
2026-01-10 03:57:55.79	18.43	24.30	-40.6	-41.5	20.8	0.00e+00	0	44	0	1113587712	51	4033
2026-01-10 03:57:56.51	18.44	24.41	-40.8	-41.7	20.6	0.00e+00	0	44	0	1118830592	51	4140
2026-01-10 03:57:57.80	18.46	24.61	-40.7	-41.6	20.7	0.00e+00	0	44	0	1128267776	51	4093
2026-01-10 03:57:58.52	18.47	24.72	-40.7	-41.6	20.7	0.00e+00	0	44	0	1133510656	51	4066
2026-01-10 03:57:59.80	18.49	24.92	-40.5	-41.4	20.9	0.00e+00	0	44	0	1141899264	51	4002
2026-01-10 03:58:00.52	18.50	25.04	-40.5	-41.4	20.9	0.00e+00	0	44	0	1148190720	51	3988
2026-01-10 03:58:01.81	18.52	25.24	-40.6	-41.5	20.9	0.00e+00	0	44	0	1156579328	51	4012
2026-01-10 03:58:02.53	18.53	25.36	-40.5	-41.4	21.0	0.00e+00	0	44	0	1161822208	51	3967
2026-01-10 03:58:03.82	18.55	25.57	-40.5	-41.4	20.9	0.00e+00	0	44	0	1171259392	51	3996
2026-01-10 03:58:04.54	18.56	25.68	-40.4	-41.2	21.1	0.00e+00	0	44	0	1176502272	51	3912
2026-01-10 03:58:05.82	18.58	25.89	-40.4	-41.2	21.1	0.00e+00	0	44	0	1185939456	51	3912
2026-01-10 03:58:06.54	18.59	26.01	-40.4	-41.3	21.1	0.00e+00	0	44	0	1191182336	51	3928
2026-01-10 03:58:07.83	18.61	26.22	-40.3	-41.2	21.2	0.00e+00	0	44	0	1200619520	51	3887
2026-01-10 03:58:08.55	18.62	26.34	-40.2	-41.1	21.3	0.00e+00	0	44	0	1205862400	51	3839
2026-01-10 03:58:09.83	18.64	26.56	-40.3	-41.2	21.1	0.00e+00	0	44	0	1215299584	51	3900
2026-01-10 03:58:10.55	18.65	26.68	-40.3	-41.2	21.2	0.00e+00	0	44	0	1219493888	51	3884
2026-01-10 03:58:11.84	18.67	26.90	-40.3	-41.2	21.1	0.00e+00	0	44	0	1228931072	51	3907
2026-01-10 03:58:12.56	18.68	27.02	-40.2	-41.1	21.3	0.00e+00	0	44	0	1234173952	51	3828
2026-01-10 03:58:13.85	18.70	27.24	-40.1	-41.0	21.4	0.00e+00	0	44	0	1243611136	51	3803
2026-01-10 03:58:14.56	18.71	27.36	-40.3	-41.2	21.2	0.00e+00	0	44	0	1248854016	51	3878
2026-01-10 03:58:15.85	18.73	27.59	-40.2	-41.1	21.3	0.00e+00	0	44	0	1258291200	51	3848
2026-01-10 03:58:16.57	18.75	27.71	-40.2	-41.1	21.3	0.00e+00	0	44	0	1263534080	51	3849
2026-01-10 03:58:17.86	18.77	27.94	-40.3	-41.2	21.2	0.00e+00	0	44	0	1272971264	51	3889
2026-01-10 03:58:18.58	18.78	28.07	-40.3	-41.1	21.3	0.00e+00	0	44	0	1278214144	51	3865
2026-01-10 03:58:19.87	18.80	28.30	-40.2	-41.1	21.3	0.00e+00	0	44	0	1286602752	51	3851
2026-01-10 03:58:20.58	18.81	28.43	-40.2	-41.1	21.3	0.00e+00	0	44	0	1292894208	51	3848
2026-01-10 03:58:21.87	18.83	28.66	-40.4	-41.3	21.2	0.00e+00	0	43	0	1302331392	51	3922
2026-01-10 03:58:22.59	18.85	28.79	-40.3	-41.1	21.2	0.00e+00	0	44	0	1306525696	51	3867
2026-01-10 03:58:24.08	18.87	29.07	-40.2	-41.1	21.3	0.00e+00	0	44	0	1318060032	51	3853
2026-01-10 03:58:24.80	18.89	29.20	-40.1	-41.0	21.4	0.00e+00	0	44	0	1323302912	51	3812
2026-01-10 03:58:26.15	18.91	29.45	-40.2	-41.1	21.3	0.00e+00	0	44	0	1332740096	50	4086
2026-01-10 03:58:26.87	18.92	29.58	-40.2	-41.1	21.3	0.00e+00	0	44	0	1337982976	50	4093
2026-01-10 03:58:28.16	18.94	29.83	-40.3	-41.2	21.2	0.00e+00	0	44	0	1347420160	50	4100
2026-01-10 03:58:29.21	18.96	30.03	-40.2	-41.1	21.3	0.00e+00	0	44	0	1354760192	50	4089
2026-01-10 03:58:30.09	18.98	30.19	-40.2	-41.1	21.3	0.00e+00	0	44	0	1361051648	50	4080
2026-01-10 03:58:31.23	19.00	30.41	-40.2	-41.1	21.3	0.00e+00	0	44	0	1369440256	50	4070
2026-01-10 03:58:32.09	19.02	30.58	-40.3	-41.2	21.3	0.00e+00	0	44	0	1375731712	50	4112
2026-01-10 03:58:33.24	19.04	30.81	-40.2	-41.1	21.3	0.00e+00	0	44	0	1384120320	50	4084
2026-01-10 03:58:34.10	19.06	30.97	-40.0	-40.9	21.5	0.00e+00	0	44	0	1390411776	50	3989
2026-01-10 03:58:35.32	19.08	31.22	-40.0	-40.9	21.5	0.00e+00	0	44	0	1398800384	50	3999
2026-01-10 03:58:36.18	19.10	31.39	-40.1	-41.0	21.4	0.00e+00	0	44	0	1405091840	50	4011
2026-01-10 03:58:37.39	19.12	31.63	-40.2	-41.1	21.4	0.00e+00	0	44	0	1413480448	50	4053
2026-01-10 03:58:38.25	19.14	31.80	-40.0	-40.9	21.4	0.00e+00	0	44	0	1419771904	50	3998
2026-01-10 03:58:39.40	19.16	32.04	-40.1	-41.0	21.4	0.00e+00	0	44	0	1428160512	50	4032
2026-01-10 03:58:40.26	19.18	32.21	-40.1	-41.0	21.4	0.00e+00	0	44	0	1434451968	50	4035
2026-01-10 03:58:41.41	19.20	32.45	-40.4	-41.3	21.2	0.00e+00	0	44	0	1442840576	50	4167
2026-01-10 03:58:42.27	19.22	32.63	-40.4	-41.3	21.1	0.00e+00	0	44	0	1449132032	50	4192
2026-01-10 03:58:43.61	19.25	32.91	-40.3	-41.2	21.2	0.00e+00	0	44	0	1458569216	50	4125
2026-01-10 03:58:44.32	19.26	33.06	-40.4	-41.3	21.2	0.00e+00	0	44	0	1463812096	50	4152
2026-01-10 03:58:45.61	19.29	33.33	-40.4	-41.3	21.2	0.00e+00	0	44	0	1473249280	50	4161
2026-01-10 03:58:46.33	19.30	33.49	-40.4	-41.3	21.2	0.00e+00	0	44	0	1478492160	50	4148
2026-01-10 03:58:47.62	19.33	33.77	-40.4	-41.3	21.2	0.00e+00	0	44	0	1487929344	50	4173
2026-01-10 03:58:48.33	19.35	33.92	-40.4	-41.3	21.2	0.00e+00	0	44	0	1493172224	50	4166
2026-01-10 03:58:49.62	19.38	34.20	-40.4	-41.3	21.2	0.00e+00	0	44	0	1502609408	50	4158
2026-01-10 03:58:50.50	19.40	34.39	-40.5	-41.4	21.0	0.00e+00	0	44	0	1507852288	50	4235
2026-01-10 03:58:51.65	19.42	34.65	-40.5	-41.5	21.1	0.00e+00	0	44	0	1516240896	50	4244
2026-01-10 03:58:52.72	19.45	34.89	-40.5	-41.4	21.1	0.00e+00	0	44	0	1524629504	50	4223
2026-01-10 03:58:53.75	19.47	35.12	-40.4	-41.4	21.1	0.00e+00	0	44	0	1531969536	50	4197
2026-01-10 03:58:54.94	19.50	35.39	-40.5	-41.4	21.1	0.00e+00	0	44	0	1540358144	50	4233
2026-01-10 03:58:55.81	19.52	35.59	-40.3	-41.2	21.2	0.00e+00	0	44	0	1546649600	50	4136
2026-01-10 03:58:57.12	19.55	35.89	-40.3	-41.2	21.2	0.00e+00	0	44	0	1556086784	50	4143
2026-01-10 03:58:57.84	19.57	36.06	-40.3	-41.2	21.3	0.00e+00	0	44	0	1561329664	50	4127
2026-01-10 03:58:59.13	19.60	36.36	-40.2	-41.1	21.4	0.00e+00	0	44	0	1570766848	50	4071
2026-01-10 03:58:59.85	19.62	36.53	-40.1	-41.1	21.4	0.00e+00	0	44	0	1576009728	50	4066
2026-01-10 03:59:01.14	19.65	36.84	-40.0	-41.0	21.5	0.00e+00	0	44	0	1585446912	50	4008
2026-01-10 03:59:01.87	19.67	37.01	-40.1	-41.0	21.5	0.00e+00	0	44	0	1590689792	50	4036
2026-01-10 03:59:03.16	19.71	37.32	-40.1	-41.0	21.4	0.00e+00	0	44	0	1600126976	50	4037
2026-01-10 03:59:03.96	19.73	37.52	-40.2	-41.1	21.4	0.00e+00	0	44	0	1605369856	50	4073
2026-01-10 03:59:05.10	19.76	37.79	-40.3	-41.2	21.3	0.00e+00	0	44	0	1613758464	50	4119
2026-01-10 03:59:06.20	19.79	38.07	-40.5	-41.4	21.1	0.00e+00	0	44	0	1622147072	50	4218
2026-01-10 03:59:07.23	19.82	38.32	-40.5	-41.4	21.0	0.00e+00	0	44	0	1629487104	50	4242
2026-01-10 03:59:08.23	19.84	38.57	-40.5	-41.4	21.1	0.00e+00	0	44	0	1636827136	50	4220
2026-01-10 03:59:09.44	19.88	38.88	-40.4	-41.3	21.3	0.00e+00	0	44	0	1645215744	50	4152
2026-01-10 03:59:10.33	19.90	39.10	-40.3	-41.2	21.3	0.00e+00	0	44	0	1651507200	50	4134
2026-01-10 03:59:11.47	19.94	39.40	-40.3	-41.1	21.3	0.00e+00	0	44	0	1659895808	50	4093
2026-01-10 03:59:12.41	19.97	39.64	-40.4	-41.3	21.2	0.00e+00	0	44	0	1666187264	50	4170
2026-01-10 03:59:13.42	20.00	39.90	-40.4	-41.3	21.3	0.00e+00	0	44	0	1673527296	50	4148
2026-01-10 03:59:14.42	20.03	40.16	-40.3	-41.2	21.3	0.00e+00	0	44	0	1680867328	50	4114
2026-01-10 03:59:15.42	20.06	40.43	-40.2	-41.1	21.4	0.00e+00	0	44	0	1688207360	50	4060
2026-01-10 03:59:16.43	20.09	40.70	-40.3	-41.1	21.4	0.00e+00	0	44	0	1695547392	50	4096
2026-01-10 03:59:17.43	20.12	40.96	-40.2	-41.1	21.4	0.00e+00	0	44	0	1702887424	50	4063
2026-01-10 03:59:18.44	20.15	41.24	-40.2	-41.1	21.4	0.00e+00	0	44	0	1710227456	50	4063
2026-01-10 03:59:19.44	20.19	41.51	-40.3	-41.2	21.3	0.00e+00	0	44	0	1717567488	50	4101
2026-01-10 03:59:20.45	20.22	41.79	-40.4	-41.3	21.3	0.00e+00	0	44	0	1724907520	50	4153
2026-01-10 03:59:21.45	20.25	42.06	-40.4	-41.3	21.2	0.00e+00	0	44	0	1732247552	50	4174
2026-01-10 03:59:22.45	20.29	42.34	-40.4	-41.3	21.2	0.00e+00	0	44	0	1738539008	50	4188
2026-01-10 03:59:23.46	20.32	42.62	-40.3	-41.2	21.3	0.00e+00	0	44	0	1745879040	50	4122
2026-01-10 03:59:24.49	20.36	42.91	-40.7	-41.6	21.0	0.00e+00	0	44	0	1754267648	50	4314
2026-01-10 03:59:25.49	20.40	43.20	-40.8	-41.7	20.9	0.00e+00	0	44	0	1760559104	50	4369
2026-01-10 03:59:26.49	20.43	43.49	-40.9	-41.8	20.8	0.00e+00	0	44	0	1767899136	51	4168
2026-01-10 03:59:27.50	20.47	43.78	-41.0	-42.0	20.6	0.00e+00	0	44	0	1775239168	51	4258
2026-01-10 03:59:28.50	20.51	44.07	-40.9	-41.9	20.8	0.00e+00	0	44	0	1782579200	51	4194
2026-01-10 03:59:29.51	20.55	44.37	-40.6	-41.5	21.1	0.00e+00	0	44	0	1789919232	51	4043
2026-01-10 03:59:30.51	20.58	44.66	-40.7	-41.6	21.0	0.00e+00	0	44	0	1797259264	51	4087
2026-01-10 03:59:31.51	20.62	44.96	-40.7	-41.6	21.0	0.00e+00	0	44	0	1804599296	51	4078
2026-01-10 03:59:32.51	20.67	45.26	-40.7	-41.7	20.9	0.00e+00	0	44	0	1811939328	51	4101
2026-01-10 03:59:33.52	20.71	45.56	-40.9	-41.8	20.8	0.00e+00	0	44	0	1819279360	51	4183
2026-01-10 03:59:34.52	20.75	45.87	-41.1	-42.1	20.5	0.00e+00	0	44	0	1826619392	51	4306
2026-01-10 03:59:35.52	20.79	46.18	-41.2	-42.1	20.5	0.00e+00	0	44	0	1833959424	52	4073
2026-01-10 03:59:36.52	20.83	46.49	-41.3	-42.3	20.3	0.00e+00	0	44	0	1841299456	52	4159
2026-01-10 03:59:37.53	20.88	46.80	-41.5	-42.5	20.1	0.00e+00	0	44	0	1847590912	52	4243
2026-01-10 03:59:38.53	20.92	47.11	-41.4	-42.4	20.1	0.00e+00	0	44	0	1854930944	52	4222
2026-01-10 03:59:39.53	20.97	47.43	-41.2	-42.2	20.3	0.00e+00	0	44	0	1862270976	52	4107
2026-01-10 03:59:40.54	21.02	47.75	-41.4	-42.3	20.2	0.00e+00	0	44	0	1869611008	52	4188
2026-01-10 03:59:41.54	21.06	48.07	-41.3	-42.2	20.3	0.00e+00	0	44	0	1876951040	52	4134
2026-01-10 03:59:42.54	21.11	48.40	-41.3	-42.3	20.3	0.00e+00	0	44	0	1884291072	52	4157
2026-01-10 03:59:43.55	21.16	48.73	-41.4	-42.4	20.2	0.00e+00	0	44	0	1891631104	52	4198
2026-01-10 03:59:44.55	21.21	49.06	-41.5	-42.5	20.2	0.00e+00	0	44	0	1898971136	52	4243
2026-01-10 03:59:45.56	21.27	49.39	-41.4	-42.3	20.2	0.00e+00	0	44	0	1905262592	52	4185
2026-01-10 03:59:46.56	21.32	49.72	-41.7	-42.7	19.9	0.00e+00	0	44	0	1912602624	52	4362
2026-01-10 03:59:47.56	21.37	50.06	-41.9	-42.9	19.8	0.00e+00	0	44	0	1919942656	53	4196
2026-01-10 03:59:48.57	21.43	50.40	-41.8	-42.8	19.8	0.00e+00	0	44	0	1927282688	53	4172
2026-01-10 03:59:49.57	21.48	50.74	-41.7	-42.7	19.9	0.00e+00	0	44	0	1934622720	53	4104
2026-01-10 03:59:50.58	21.54	51.09	-41.8	-42.7	19.8	0.00e+00	0	44	0	1941962752	53	4134
2026-01-10 03:59:51.58	21.60	51.43	-41.7	-42.7	19.9	0.00e+00	0	44	0	1949302784	53	4101
2026-01-10 03:59:52.58	21.66	51.78	-41.7	-42.7	19.9	0.00e+00	0	44	0	1956642816	53	4102
2026-01-10 03:59:53.59	21.72	52.14	-41.7	-42.7	20.0	0.00e+00	0	44	0	1963982848	53	4102
2026-01-10 03:59:54.59	21.78	52.49	-41.8	-42.8	19.8	0.00e+00	0	44	0	1971322880	53	4153
2026-01-10 03:59:55.59	21.85	52.85	-41.7	-42.6	19.9	0.00e+00	0	44	0	1978662912	53	4092
2026-01-10 03:59:56.69	21.92	53.24	-41.9	-42.9	19.8	0.00e+00	0	44	0	1986002944	54	3962
2026-01-10 03:59:57.55	21.98	53.55	-42.0	-43.0	19.7	0.00e+00	0	44	0	1992294400	54	4008
2026-01-10 03:59:58.70	22.06	53.97	-41.9	-42.9	19.7	0.00e+00	0	44	0	2000683008	54	3995
2026-01-10 03:59:59.65	22.12	54.32	-42.0	-42.9	19.7	0.00e+00	0	44	0	2008023040	54	4003
2026-01-10 04:00:00.66	22.19	54.69	-41.9	-42.9	19.7	0.00e+00	0	44	0	2014314496	54	3976
2026-01-10 04:00:01.66	22.27	55.06	-41.9	-42.8	19.8	0.00e+00	0	44	0	2021654528	54	3958
2026-01-10 04:00:02.67	22.34	55.44	-42.0	-43.0	19.7	0.00e+00	0	44	0	2028994560	54	4009
2026-01-10 04:00:03.67	22.42	55.82	-41.9	-42.9	19.7	0.00e+00	0	44	0	2036334592	54	3991
2026-01-10 04:00:04.68	22.50	56.20	-42.1	-43.1	19.5	0.00e+00	0	44	0	2043674624	54	4077
2026-01-10 04:00:05.68	22.58	56.58	-42.3	-43.3	19.3	0.00e+00	0	44	0	2051014656	54	4165
2026-01-10 04:00:06.68	22.67	56.97	-42.4	-43.5	19.1	0.00e+00	0	44	0	2058354688	54	4243
2026-01-10 04:00:07.69	22.76	57.36	-42.1	-43.1	19.5	0.00e+00	0	44	0	2065694720	54	4083
2026-01-10 04:00:08.69	22.84	57.75	-41.9	-42.9	19.7	0.00e+00	0	44	0	2073034752	54	3971
2026-01-10 04:00:09.69	22.94	58.14	-41.8	-42.8	19.9	0.00e+00	0	44	0	2080374784	54	3915
2026-01-10 04:00:10.73	23.03	58.55	-41.5	-42.5	20.1	0.00e+00	0	44	0	2087714816	53	4020
2026-01-10 04:00:11.77	23.13	58.97	-42.0	-43.0	19.6	0.00e+00	0	44	0	2095054848	53	4276
2026-01-10 04:00:12.69	23.23	59.34	-41.7	-42.7	19.9	0.00e+00	0	44	0	2101346304	53	4110
2026-01-10 04:00:13.70	23.33	59.74	-42.0	-43.0	19.6	0.00e+00	0	44	0	2108686336	53	4261
2026-01-10 04:00:14.70	23.43	60.15	-42.2	-43.2	19.4	0.00e+00	0	44	0	2116026368	53	4357
2026-01-10 04:00:15.70	23.54	60.56	-41.9	-42.9	19.7	0.00e+00	0	44	0	2123366400	53	4217
2026-01-10 04:00:16.95	23.68	61.07	-42.0	-43.0	19.4	0.00e+00	0	44	0	2132803584	53	4276
2026-01-10 04:00:17.82	23.79	61.43	-41.4	-42.3	20.2	0.00e+00	0	44	0	2138046464	53	3938
2026-01-10 04:00:18.96	23.92	61.90	-41.2	-42.1	20.5	0.00e+00	0	44	0	2146435072	53	3846
2026-01-10 04:00:19.82	24.03	62.26	-41.3	-42.2	20.4	0.00e+00	0	44	0	2153775104	53	3906
2026-01-10 04:00:20.97	24.18	62.75	-41.4	-42.4	20.2	0.00e+00	0	44	0	2162163712	53	3984
2026-01-10 04:00:21.83	24.29	63.11	-40.7	-41.6	20.9	0.00e+00	0	44	0	2167406592	52	3837
2026-01-10 04:00:22.98	24.45	63.60	-40.8	-41.7	20.9	0.00e+00	0	44	0	2175795200	51	4141
2026-01-10 04:00:23.84	24.57	63.97	-40.7	-41.5	21.0	0.00e+00	0	44	0	2182086656	51	4047
2026-01-10 04:00:24.98	24.74	64.46	-40.7	-41.6	21.0	0.00e+00	0	44	0	2190475264	51	4069
2026-01-10 04:00:25.84	24.88	64.83	-40.7	-41.6	21.0	0.00e+00	0	44	0	2196766720	51	4069
2026-01-10 04:00:26.99	25.06	65.33	-40.1	-41.0	21.5	0.00e+00	0	44	0	2205155328	50	4021
2026-01-10 04:00:27.85	25.20	65.71	-40.6	-41.5	21.0	0.00e+00	0	44	0	2211446784	50	4245
2026-01-10 04:00:29.00	25.40	66.22	-40.7	-41.6	21.0	0.00e+00	0	44	0	2219835392	50	4319
2026-01-10 04:00:29.86	25.56	66.60	-40.8	-41.8	20.8	0.00e+00	0	44	0	2225078272	51	4150
2026-01-10 04:00:31.00	25.77	67.10	-40.8	-41.7	20.9	0.00e+00	0	44	0	2233466880	51	4114
2026-01-10 04:00:31.86	25.94	67.49	-40.9	-41.8	20.8	0.00e+00	0	44	0	2239758336	51	4186
2026-01-10 04:00:33.14	26.20	68.06	-40.7	-41.6	20.9	0.00e+00	0	44	0	2249195520	51	4088
2026-01-10 04:00:33.87	26.36	68.39	-40.4	-41.3	21.2	0.00e+00	0	44	0	2254438400	51	3932
2026-01-10 04:00:35.16	26.64	68.98	-40.2	-41.1	21.4	0.00e+00	0	44	0	2263875584	51	3825
2026-01-10 04:00:35.87	26.81	69.30	-40.4	-41.3	21.3	0.00e+00	0	44	0	2269118464	51	3922
2026-01-10 04:00:37.16	27.13	69.89	-40.5	-41.4	21.2	0.00e+00	0	44	0	2278555648	51	3980
2026-01-10 04:00:37.88	27.31	70.22	-40.0	-40.8	21.4	0.00e+00	0	44	0	2283798528	50	3930
2026-01-10 04:00:39.17	27.66	70.82	-40.3	-41.2	21.4	0.00e+00	0	44	0	2292187136	51	3886
2026-01-10 04:00:39.98	27.89	71.19	-40.4	-41.3	21.3	0.00e+00	0	44	0	2298478592	51	3928
2026-01-10 04:00:41.12	28.23	71.72	-40.7	-41.6	21.0	0.00e+00	0	44	0	2306867200	51	4063
2026-01-10 04:00:42.22	28.58	72.23	-40.6	-41.5	21.0	0.00e+00	0	44	0	2315255808	51	4042
2026-01-10 04:00:43.24	28.93	72.71	-40.5	-41.4	21.1	0.00e+00	0	44	0	2322595840	51	3970
2026-01-10 04:00:44.47	29.37	73.29	-40.3	-41.2	21.3	0.00e+00	0	44	0	2330984448	50	4110
2026-01-10 04:00:45.36	29.71	73.70	-40.4	-41.2	21.3	0.00e+00	0	44	0	2337275904	50	4143
2026-01-10 04:00:46.50	30.17	74.24	-40.6	-41.5	21.1	0.00e+00	0	44	0	2345664512	50	4256
2026-01-10 04:00:47.36	30.55	74.65	-40.3	-41.1	21.4	0.00e+00	0	44	0	2351955968	50	4097
2026-01-10 04:00:48.50	31.07	75.19	-40.3	-41.1	21.2	0.00e+00	0	44	0	2360344576	50	4094
2026-01-10 04:00:49.36	31.49	75.60	-39.9	-40.8	21.7	0.00e+00	0	44	0	2366636032	50	3926
2026-01-10 04:00:50.51	32.10	76.14	-39.6	-40.5	22.0	0.00e+00	0	44	0	2375024640	50	3788
2026-01-10 04:00:51.37	32.59	76.55	-39.8	-40.6	21.8	0.00e+00	0	44	0	2381316096	50	3849
2026-01-10 04:00:52.52	33.29	77.10	-39.8	-40.7	21.8	0.00e+00	0	44	0	2389704704	50	3879
2026-01-10 04:00:53.38	33.85	77.51	-39.6	-40.4	22.0	0.00e+00	0	44	0	2395996160	49	3996
2026-01-10 04:00:54.52	34.66	78.05	-39.1	-39.9	22.4	0.00e+00	0	44	0	2403336192	49	3772
2026-01-10 04:00:55.39	35.33	78.46	-39.0	-39.8	22.5	0.00e+00	0	44	0	2409627648	48	3950
2026-01-10 04:00:56.53	36.28	79.00	-39.0	-39.9	22.4	0.00e+00	0	44	0	2418016256	48	3967
2026-01-10 04:00:57.39	37.07	79.41	-39.0	-39.9	22.4	0.00e+00	0	44	0	2424307712	48	3975
2026-01-10 04:00:58.54	38.22	79.95	-39.0	-39.8	22.5	0.00e+00	0	44	0	2432696320	48	3948
2026-01-10 04:00:59.40	39.17	80.35	-39.0	-39.8	22.5	0.00e+00	0	44	0	2438987776	48	3933
2026-01-10 04:01:00.55	40.56	80.89	-38.9	-39.7	22.6	0.00e+00	0	44	0	2447376384	48	3907
2026-01-10 04:01:01.41	41.72	81.28	-38.7	-39.6	22.7	0.00e+00	0	44	0	2453667840	48	3831
2026-01-10 04:01:02.55	43.43	81.81	-39.0	-39.8	22.5	0.00e+00	0	44	0	2462056448	48	3956
2026-01-10 04:01:03.41	44.88	82.20	-39.2	-40.0	22.4	0.00e+00	0	44	0	2467299328	48	4035
2026-01-10 04:01:04.56	47.05	82.71	-39.1	-39.9	22.4	0.00e+00	0	44	0	2475687936	48	3996
2026-01-10 04:01:05.42	48.88	83.09	-39.0	-39.9	22.5	0.00e+00	0	44	0	2481979392	48	3963
2026-01-10 04:01:06.56	51.64	83.57	-39.2	-40.1	22.3	0.00e+00	0	44	0	2490368000	48	4061
2026-01-10 04:01:07.42	54.01	83.93	-38.9	-39.7	22.6	0.00e+00	0	44	0	2496659456	48	3884
2026-01-10 04:01:08.57	57.66	84.39	-39.0	-39.9	22.4	0.00e+00	0	44	0	2505048064	48	3973
2026-01-10 04:01:09.42	60.75	84.72	-39.3	-40.2	22.1	0.00e+00	0	44	0	2511339520	48	4108
2026-01-10 04:01:10.61	65.75	85.14	-39.3	-40.2	22.2	0.00e+00	0	44	0	2519728128	48	4111
2026-01-10 04:01:11.46	69.87	85.42	-39.5	-40.3	22.1	0.00e+00	0	44	0	2526019584	48	4175
2026-01-10 04:01:12.61	76.26	85.75	-39.4	-40.3	22.1	0.00e+00	0	44	0	2534408192	48	4156
2026-01-10 04:01:13.47	81.67	85.96	-39.3	-40.1	22.2	0.00e+00	0	44	0	2540699648	48	4094
2026-01-10 04:01:14.61	89.66	86.17	-39.1	-40.0	22.4	0.00e+00	0	44	0	2549088256	48	4016
2026-01-10 04:01:15.47	96.20	86.28	-39.2	-40.1	22.2	0.00e+00	0	44	0	2555379712	48	4068
2026-01-10 04:01:16.62	105.40	86.35	-39.5	-40.4	22.0	0.00e+00	0	44	0	2563768320	48	4226
2026-01-10 04:01:17.48	112.36	86.34	-39.7	-40.6	21.8	0.00e+00	0	44	0	2569011200	48	4294
2026-01-10 04:01:18.62	121.33	86.24	-39.3	-40.1	22.1	0.00e+00	0	44	0	2577399808	48	4098
2026-01-10 04:01:19.48	127.68	86.10	-39.2	-40.0	22.3	0.00e+00	0	44	0	2583691264	48	4044
2026-01-10 04:01:20.63	135.40	85.86	-39.3	-40.2	22.2	0.00e+00	0	44	0	2592079872	48	4115
2026-01-10 04:01:21.49	140.54	85.63	-39.4	-40.3	22.1	0.00e+00	0	44	0	2598371328	48	4152
2026-01-10 04:01:22.63	146.53	85.29	-39.6	-40.5	21.9	0.00e+00	0	44	0	2606759936	48	4250
2026-01-10 04:01:23.49	150.46	84.99	-39.8	-40.7	21.7	0.00e+00	0	44	0	2613051392	49	4125
2026-01-10 04:01:24.64	155.03	84.57	-39.4	-40.3	22.0	0.00e+00	0	44	0	2621440000	49	3922
2026-01-10 04:01:25.79	158.92	84.12	-39.1	-40.0	22.4	0.00e+00	0	44	0	2629828608	49	3799
2026-01-10 04:01:26.65	161.45	83.77	-39.1	-39.9	22.3	0.00e+00	0	44	0	2635071488	48	4002
2026-01-10 04:01:27.79	164.38	83.29	-39.2	-40.1	22.3	0.00e+00	0	44	0	2643460096	48	4068
2026-01-10 04:01:28.65	166.33	82.91	-39.3	-40.1	22.3	0.00e+00	0	44	0	2649751552	48	4087
2026-01-10 04:01:29.80	168.62	82.40	-39.0	-39.9	22.5	0.00e+00	0	44	0	2658140160	48	3971
2026-01-10 04:01:30.66	170.14	82.02	-39.3	-40.1	22.2	0.00e+00	0	44	0	2664431616	48	4093
2026-01-10 04:01:31.81	171.96	81.49	-39.2	-40.1	22.3	0.00e+00	0	44	0	2672820224	48	4055
2026-01-10 04:01:32.67	173.18	81.09	-39.1	-40.0	22.3	0.00e+00	0	44	0	2679111680	48	4020
2026-01-10 04:01:33.91	174.75	80.52	-39.1	-39.9	22.5	0.00e+00	0	44	0	2687500288	48	3979
2026-01-10 04:01:34.76	175.72	80.12	-39.0	-39.8	22.5	0.00e+00	0	44	0	2693791744	48	3955
2026-01-10 04:01:35.91	176.91	79.58	-39.1	-40.0	22.4	0.00e+00	0	44	0	2702180352	48	4009
2026-01-10 04:01:36.77	177.72	79.17	-39.1	-40.0	22.4	0.00e+00	0	44	0	2708471808	48	4021
2026-01-10 04:01:37.92	178.72	78.63	-39.3	-40.1	22.3	0.00e+00	0	44	0	2716860416	48	4079
2026-01-10 04:01:38.78	179.40	78.22	-39.3	-40.2	22.2	0.00e+00	0	44	0	2723151872	48	4106
2026-01-10 04:01:40.15	180.39	77.57	-39.6	-40.4	22.0	0.00e+00	0	44	0	2732589056	49	3987
2026-01-10 04:01:40.86	180.87	77.23	-39.9	-40.8	21.5	0.00e+00	0	44	0	2737831936	49	4149
2026-01-10 04:01:42.15	181.67	76.61	-40.3	-41.2	21.3	0.00e+00	0	44	0	2747269120	50	4119
2026-01-10 04:01:42.87	182.08	76.27	-40.3	-41.2	21.3	0.00e+00	0	44	0	2752512000	50	4120
2026-01-10 04:01:44.16	182.77	75.66	-40.1	-41.0	21.4	0.00e+00	0	44	0	2761949184	50	4008
2026-01-10 04:01:44.92	183.15	75.30	-40.4	-41.3	21.3	0.00e+00	0	44	0	2767192064	50	4176
2026-01-10 04:01:46.21	183.75	74.68	-40.5	-41.4	21.1	0.00e+00	0	44	0	2776629248	50	4236
2026-01-10 04:01:47.01	184.10	74.31	-40.3	-41.2	21.4	0.00e+00	0	44	0	2782920704	50	4121
2026-01-10 04:01:48.17	184.58	73.76	-40.3	-41.1	21.4	0.00e+00	0	44	0	2790260736	50	4093
2026-01-10 04:01:49.02	184.90	73.36	-40.3	-41.2	21.3	0.00e+00	0	44	0	2797600768	50	4106
2026-01-10 04:01:50.17	185.32	72.82	-40.4	-41.2	21.3	0.00e+00	0	44	0	2805989376	50	4138
2026-01-10 04:01:51.03	185.62	72.41	-40.7	-41.5	20.9	0.00e+00	0	44	0	2811232256	50	4291
2026-01-10 04:01:52.18	185.99	71.88	-40.9	-41.9	20.7	0.00e+00	0	44	0	2819620864	51	4205
2026-01-10 04:01:53.04	186.26	71.47	-41.0	-41.9	20.7	0.00e+00	0	44	0	2825912320	51	4225
2026-01-10 04:01:54.19	186.59	70.94	-41.0	-41.9	20.7	0.00e+00	0	44	0	2834300928	51	4209
2026-01-10 04:01:55.04	186.83	70.55	-40.9	-41.8	20.8	0.00e+00	0	44	0	2840592384	51	4156
2026-01-10 04:01:56.19	187.13	70.02	-40.8	-41.7	20.8	0.00e+00	0	44	0	2848980992	51	4116
2026-01-10 04:01:57.05	187.35	69.62	-40.7	-41.6	21.0	0.00e+00	0	44	0	2855272448	51	4065
2026-01-10 04:01:58.20	187.63	69.10	-40.7	-41.7	20.8	0.00e+00	0	44	0	2863661056	51	4105
2026-01-10 04:01:59.06	187.82	68.70	-40.6	-41.6	20.9	0.00e+00	0	44	0	2869952512	51	4064
2026-01-10 04:02:00.20	188.07	68.19	-40.5	-41.4	21.2	0.00e+00	0	44	0	2877292544	51	3974
2026-01-10 04:02:01.06	188.25	67.80	-40.2	-41.1	21.4	0.00e+00	0	44	0	2883584000	51	3849
2026-01-10 04:02:02.21	188.48	67.28	-40.0	-40.9	21.6	0.00e+00	0	44	0	2891972608	50	3974
2026-01-10 04:02:03.29	188.69	66.80	-40.0	-40.9	21.6	0.00e+00	0	44	0	2900361216	50	3990
2026-01-10 04:02:04.15	188.85	66.42	-40.3	-41.2	21.3	0.00e+00	0	44	0	2906652672	50	4115
2026-01-10 04:02:05.30	189.05	65.91	-40.5	-41.4	21.2	0.00e+00	0	44	0	2915041280	50	4215
2026-01-10 04:02:06.16	189.20	65.53	-40.5	-41.4	21.1	0.00e+00	0	44	0	2920284160	50	4206
2026-01-10 04:02:07.31	189.38	65.03	-40.6	-41.5	21.0	0.00e+00	0	44	0	2928672768	50	4258
2026-01-10 04:02:08.17	189.52	64.65	-40.6	-41.5	21.0	0.00e+00	0	44	0	2934964224	50	4275
2026-01-10 04:02:09.31	189.69	64.16	-40.8	-41.7	20.9	0.00e+00	0	44	0	2943352832	51	4126
2026-01-10 04:02:10.17	189.82	63.79	-40.8	-41.7	20.9	0.00e+00	0	44	0	2949644288	51	4123
2026-01-10 04:02:11.32	189.98	63.29	-40.8	-41.7	20.8	0.00e+00	0	44	0	2958032896	51	4122
2026-01-10 04:02:12.18	190.09	62.93	-40.7	-41.6	20.9	0.00e+00	0	44	0	2964324352	51	4094
2026-01-10 04:02:13.44	190.26	62.39	-41.1	-42.0	20.6	0.00e+00	0	44	0	2973761536	51	4269
2026-01-10 04:02:14.18	190.35	62.08	-41.2	-42.2	20.4	0.00e+00	0	44	0	2979004416	51	4346
2026-01-10 04:02:15.74	190.54	61.43	-41.2	-42.2	20.4	0.00e+00	0	44	0	2989490176	52	4105
2026-01-10 04:02:16.45	190.62	61.14	-41.4	-42.3	20.2	0.00e+00	0	44	0	2994733056	52	4177
2026-01-10 04:02:17.74	190.77	60.60	-41.7	-42.7	19.8	0.00e+00	0	44	0	3004170240	53	4132
2026-01-10 04:02:18.46	190.85	60.31	-42.0	-43.0	19.5	0.00e+00	0	44	0	3009413120	53	4284
2026-01-10 04:02:19.75	190.99	59.78	-42.4	-43.5	19.1	0.00e+00	0	44	0	3018850304	54	4253
2026-01-10 04:02:20.46	191.06	59.49	-42.5	-43.5	19.1	0.00e+00	0	44	0	3024093184	54	4267
2026-01-10 04:02:21.75	191.19	58.98	-42.6	-43.6	19.0	0.00e+00	0	44	0	3033530368	54	4337
2026-01-10 04:02:22.47	191.26	58.69	-42.6	-43.7	18.8	0.00e+00	0	44	0	3038773248	54	4361
2026-01-10 04:02:23.76	191.38	58.17	-42.4	-43.5	19.2	0.00e+00	0	44	0	3048210432	54	4261
2026-01-10 04:02:24.57	191.46	57.85	-42.4	-43.5	19.1	0.00e+00	0	44	0	3053453312	54	4258
2026-01-10 04:02:25.72	191.56	57.40	-42.1	-43.1	19.5	0.00e+00	0	44	0	3061841920	54	4064
2026-01-10 04:02:26.77	191.65	57.00	-41.8	-42.8	19.8	0.00e+00	0	44	0	3069181952	54	3934
2026-01-10 04:02:27.64	191.72	56.66	-41.6	-42.6	19.9	0.00e+00	0	44	0	3075473408	54	3833
2026-01-10 04:02:28.79	191.82	56.22	-41.7	-42.7	19.9	0.00e+00	0	44	0	3083862016	54	3891
2026-01-10 04:02:29.65	191.89	55.89	-41.9	-42.8	19.7	0.00e+00	0	44	0	3090153472	54	3958
2026-01-10 04:02:30.79	191.98	55.46	-42.2	-43.2	19.3	0.00e+00	0	44	0	3098542080	54	4136
2026-01-10 04:02:31.65	192.04	55.13	-42.2	-43.2	19.4	0.00e+00	0	44	0	3104833536	54	4110
2026-01-10 04:02:32.80	192.13	54.70	-42.0	-43.0	19.6	0.00e+00	0	44	0	3113222144	54	4016
2026-01-10 04:02:33.66	192.19	54.38	-41.9	-42.9	19.7	0.00e+00	0	44	0	3119513600	54	3959
2026-01-10 04:02:34.81	192.27	53.96	-41.8	-42.8	19.8	0.00e+00	0	44	0	3127902208	54	3915
2026-01-10 04:02:35.67	192.33	53.65	-41.6	-42.6	20.0	0.00e+00	0	44	0	3133145088	54	3852
2026-01-10 04:02:36.81	192.41	53.23	-41.6	-42.6	20.0	0.00e+00	0	44	0	3141533696	53	4074
2026-01-10 04:02:37.67	192.46	52.92	-41.6	-42.6	19.9	0.00e+00	0	44	0	3148873728	53	4095
2026-01-10 04:02:39.04	192.55	52.43	-41.8	-42.8	19.7	0.00e+00	0	44	0	3158310912	53	4181
2026-01-10 04:02:39.76	192.59	52.17	-41.8	-42.8	19.8	0.00e+00	0	44	0	3163553792	53	4161
2026-01-10 04:02:41.27	192.69	51.64	-41.8	-42.8	19.8	0.00e+00	0	44	0	3174039552	53	4163
2026-01-10 04:02:41.99	192.73	51.39	-41.7	-42.6	19.9	0.00e+00	0	44	0	3179282432	53	4093
2026-01-10 04:02:43.27	192.80	50.95	-41.6	-42.6	20.0	0.00e+00	0	44	0	3188719616	53	4074
2026-01-10 04:02:43.99	192.84	50.70	-41.7	-42.6	19.9	0.00e+00	0	44	0	3193962496	53	4093
2026-01-10 04:02:45.28	192.92	50.26	-41.8	-42.8	19.8	0.00e+00	0	44	0	3203399680	53	4163
2026-01-10 04:02:46.00	192.96	50.01	-41.8	-42.8	19.8	0.00e+00	0	44	0	3208642560	53	4172
2026-01-10 04:02:47.29	193.02	49.58	-41.8	-42.8	19.8	0.00e+00	0	44	0	3218079744	53	4156
2026-01-10 04:02:48.00	193.06	49.34	-41.7	-42.7	19.9	0.00e+00	0	44	0	3223322624	53	4107
2026-01-10 04:02:49.29	193.13	48.91	-41.4	-42.4	20.1	0.00e+00	0	44	0	3231711232	53	3977
2026-01-10 04:02:50.12	193.17	48.64	-41.3	-42.2	20.3	0.00e+00	0	44	0	3238002688	53	3887
2026-01-10 04:02:51.60	193.24	48.16	-41.1	-42.0	20.5	0.00e+00	0	44	0	3248488448	52	4039
2026-01-10 04:02:52.32	193.28	47.92	-41.1	-42.0	20.5	0.00e+00	0	44	0	3253731328	52	4035
2026-01-10 04:02:53.60	193.34	47.51	-40.9	-41.8	20.7	0.00e+00	0	44	0	3263168512	52	3949
2026-01-10 04:02:54.32	193.37	47.28	-40.9	-41.8	20.6	0.00e+00	0	44	0	3268411392	52	3939
2026-01-10 04:02:55.61	193.43	46.87	-40.9	-41.8	20.6	0.00e+00	0	44	0	3277848576	52	3953
2026-01-10 04:02:56.33	193.46	46.65	-40.9	-41.9	20.4	0.00e+00	0	44	0	3283091456	52	3962
2026-01-10 04:02:57.62	193.52	46.24	-40.9	-41.9	20.6	0.00e+00	0	44	0	3292528640	52	3963
2026-01-10 04:02:58.48	193.55	45.98	-41.0	-41.9	20.5	0.00e+00	0	44	0	3298820096	52	3997
2026-01-10 04:02:59.63	193.60	45.62	-41.0	-42.0	20.4	0.00e+00	0	44	0	3307208704	52	4023
2026-01-10 04:03:00.49	193.64	45.36	-41.2	-42.2	20.2	0.00e+00	0	44	0	3313500160	52	4105
2026-01-10 04:03:01.63	193.68	45.02	-40.9	-41.9	20.6	0.00e+00	0	44	0	3320840192	52	3971
2026-01-10 04:03:02.76	193.73	44.68	-40.9	-41.8	20.7	0.00e+00	0	44	0	3329228800	52	3951
2026-01-10 04:03:03.63	193.76	44.42	-40.9	-41.8	20.7	0.00e+00	0	44	0	3335520256	52	3930
2026-01-10 04:03:04.77	193.81	44.08	-40.7	-41.6	20.9	0.00e+00	0	44	0	3343908864	51	4070
2026-01-10 04:03:05.63	193.84	43.83	-40.5	-41.5	21.1	0.00e+00	0	44	0	3350200320	51	4005
2026-01-10 04:03:06.77	193.88	43.50	-40.5	-41.4	21.0	0.00e+00	0	44	0	3358588928	51	4004
2026-01-10 04:03:07.63	193.91	43.25	-40.5	-41.4	21.1	0.00e+00	0	44	0	3364880384	51	3976
2026-01-10 04:03:08.78	193.95	42.92	-40.4	-41.3	21.1	0.00e+00	0	44	0	3373268992	51	3958
2026-01-10 04:03:09.64	193.98	42.67	-40.6	-41.5	20.8	0.00e+00	0	44	0	3379560448	51	4037
2026-01-10 04:03:10.78	194.02	42.35	-40.6	-41.5	20.9	0.00e+00	0	44	0	3386900480	51	4045
2026-01-10 04:03:11.64	194.05	42.11	-40.7	-41.6	20.9	0.00e+00	0	44	0	3393191936	51	4072
2026-01-10 04:03:12.93	194.10	41.75	-40.8	-41.7	20.8	0.00e+00	0	44	0	3402629120	51	4138
2026-01-10 04:03:13.65	194.12	41.55	-40.8	-41.7	20.8	0.00e+00	0	44	0	3407872000	51	4122
2026-01-10 04:03:14.94	194.16	41.20	-40.8	-41.7	20.7	0.00e+00	0	44	0	3417309184	51	4136
2026-01-10 04:03:15.66	194.19	41.00	-40.7	-41.6	20.9	0.00e+00	0	44	0	3422552064	51	4087
2026-01-10 04:03:16.94	194.23	40.66	-40.8	-41.7	20.9	0.00e+00	0	44	0	3431989248	51	4118
2026-01-10 04:03:17.66	194.25	40.46	-40.7	-41.6	20.9	0.00e+00	0	44	0	3437232128	51	4079
2026-01-10 04:03:18.95	194.29	40.12	-40.4	-41.3	21.2	0.00e+00	0	44	0	3446669312	51	3948
2026-01-10 04:03:19.66	194.31	39.93	-40.4	-41.2	20.9	0.00e+00	0	44	0	3450863616	51	3913
2026-01-10 04:03:20.95	194.35	39.60	-40.4	-41.3	21.0	0.00e+00	0	44	0	3460300800	51	3949
2026-01-10 04:03:21.67	194.37	39.41	-40.3	-41.2	21.2	0.00e+00	0	44	0	3466592256	51	3905
2026-01-10 04:03:22.96	194.41	39.08	-40.1	-40.9	21.5	0.00e+00	0	44	0	3474980864	50	4001
2026-01-10 04:03:23.67	194.43	38.89	-40.1	-40.9	21.5	0.00e+00	0	44	0	3480223744	50	3998
2026-01-10 04:03:24.96	194.46	38.57	-40.1	-41.0	21.4	0.00e+00	0	44	0	3489660928	50	4016
2026-01-10 04:03:25.68	194.48	38.38	-40.1	-40.9	21.5	0.00e+00	0	44	0	3494903808	50	3994
2026-01-10 04:03:27.15	194.52	38.02	-40.1	-41.0	21.4	0.00e+00	0	44	0	3505389568	50	4030
2026-01-10 04:03:27.86	194.54	37.84	-40.2	-41.1	21.4	0.00e+00	0	44	0	3510632448	50	4061
2026-01-10 04:03:29.18	194.58	37.52	-40.3	-41.2	21.3	0.00e+00	0	44	0	3520069632	50	4102
2026-01-10 04:03:29.90	194.60	37.34	-40.4	-41.2	21.1	0.00e+00	0	44	0	3525312512	50	4144
2026-01-10 04:03:31.25	194.63	37.01	-40.3	-41.2	21.2	0.00e+00	0	44	0	3534749696	50	4126
2026-01-10 04:03:31.97	194.65	36.84	-40.4	-41.2	21.2	0.00e+00	0	44	0	3539992576	50	4145
2026-01-10 04:03:33.26	194.68	36.53	-40.5	-41.4	21.1	0.00e+00	0	44	0	3549429760	50	4199
2026-01-10 04:03:33.98	194.70	36.36	-40.4	-41.3	21.1	0.00e+00	0	44	0	3554672640	50	4176
2026-01-10 04:03:35.27	194.73	36.05	-40.5	-41.4	21.1	0.00e+00	0	44	0	3564109824	50	4230
2026-01-10 04:03:35.98	194.75	35.89	-40.5	-41.4	20.9	0.00e+00	0	44	0	3569352704	50	4224
2026-01-10 04:03:37.27	194.78	35.59	-40.5	-41.4	21.0	0.00e+00	0	44	0	3578789888	50	4238
2026-01-10 04:03:37.99	194.80	35.42	-40.4	-41.3	21.2	0.00e+00	0	44	0	3584032768	50	4187
2026-01-10 04:03:39.28	194.83	35.13	-40.5	-41.4	21.0	0.00e+00	0	44	0	3593469952	50	4203
2026-01-10 04:03:40.09	194.85	34.94	-40.5	-41.5	21.0	0.00e+00	0	44	0	3598712832	50	4246
2026-01-10 04:03:41.55	194.88	34.61	-40.4	-41.3	21.2	0.00e+00	0	44	0	3609198592	50	4171
2026-01-10 04:03:42.27	194.90	34.45	-40.3	-41.2	21.3	0.00e+00	0	44	0	3614441472	50	4131
2026-01-10 04:03:43.56	194.93	34.17	-40.3	-41.2	21.3	0.00e+00	0	44	0	3623878656	50	4128
2026-01-10 04:03:44.27	194.94	34.01	-40.3	-41.2	21.3	0.00e+00	0	44	0	3629121536	50	4115
2026-01-10 04:03:45.56	194.97	33.73	-40.3	-41.2	21.2	0.00e+00	0	44	0	3638558720	50	4144
2026-01-10 04:03:46.28	194.98	33.57	-40.3	-41.2	21.2	0.00e+00	0	44	0	3643801600	50	4115
2026-01-10 04:03:47.57	195.01	33.29	-40.2	-41.1	21.3	0.00e+00	0	44	0	3653238784	50	4088
2026-01-10 04:03:48.29	195.03	33.14	-40.2	-41.1	21.3	0.00e+00	0	44	0	3658481664	50	4075
2026-01-10 04:03:49.57	195.05	32.87	-40.2	-41.1	21.3	0.00e+00	0	44	0	3667918848	50	4088
2026-01-10 04:03:50.29	195.07	32.71	-40.3	-41.2	21.3	0.00e+00	0	44	0	3672113152	50	4109
2026-01-10 04:03:51.58	195.10	32.44	-40.2	-41.1	21.3	0.00e+00	0	44	0	3681550336	50	4097
2026-01-10 04:03:52.30	195.11	32.29	-40.2	-41.1	21.3	0.00e+00	0	44	0	3686793216	50	4097
2026-01-10 04:03:53.59	195.14	32.03	-40.2	-41.1	21.3	0.00e+00	0	44	0	3696230400	50	4071
2026-01-10 04:03:54.30	195.15	31.88	-40.3	-41.2	21.3	0.00e+00	0	44	0	3701473280	50	4110
2026-01-10 04:03:55.59	195.17	31.62	-40.2	-41.1	21.4	0.00e+00	0	44	0	3710910464	50	4068
2026-01-10 04:03:56.31	195.19	31.47	-40.2	-41.1	21.4	0.00e+00	0	44	0	3716153344	50	4053
2026-01-10 04:03:57.60	195.21	31.21	-40.2	-41.1	21.3	0.00e+00	0	44	0	3725590528	50	4073
2026-01-10 04:03:58.31	195.23	31.07	-40.3	-41.2	21.3	0.00e+00	0	44	0	3729784832	50	4107
2026-01-10 04:03:59.60	195.25	30.81	-40.1	-41.0	21.4	0.00e+00	0	44	0	3739222016	50	4045
2026-01-10 04:04:00.32	195.26	30.67	-40.1	-41.0	21.5	0.00e+00	0	44	0	3745513472	50	4014
2026-01-10 04:04:01.61	195.29	30.42	-40.3	-41.2	21.3	0.00e+00	0	44	0	3753902080	50	4106
2026-01-10 04:04:02.33	195.30	30.28	-40.3	-41.1	21.2	0.00e+00	0	44	0	3759144960	50	4098
2026-01-10 04:04:03.62	195.32	30.03	-40.1	-41.0	21.4	0.00e+00	0	44	0	3768582144	50	4034
2026-01-10 04:04:04.33	195.34	29.89	-40.2	-41.1	21.4	0.00e+00	0	44	0	3773825024	50	4056
2026-01-10 04:04:05.62	195.36	29.65	-40.2	-41.1	21.4	0.00e+00	0	44	0	3783262208	50	4055
2026-01-10 04:04:06.34	195.37	29.51	-40.3	-41.2	21.3	0.00e+00	0	44	0	3788505088	50	4101
2026-01-10 04:04:07.67	195.39	29.26	-40.3	-41.2	21.3	0.00e+00	0	44	0	3797942272	50	4104
2026-01-10 04:04:08.65	195.41	29.08	-40.4	-41.2	21.2	0.00e+00	0	44	0	3805282304	50	4142
2026-01-10 04:04:09.99	195.43	28.83	-40.4	-41.3	21.1	0.00e+00	0	44	0	3814719488	50	4191
2026-01-10 04:04:10.73	195.45	28.69	-40.4	-41.3	21.1	0.00e+00	0	44	0	3819962368	50	4165
2026-01-10 04:04:12.02	195.47	28.46	-40.5	-41.4	21.1	0.00e+00	0	44	0	3829399552	50	4205
2026-01-10 04:04:12.74	195.48	28.33	-40.5	-41.4	21.0	0.00e+00	0	44	0	3834642432	50	4231
2026-01-10 04:04:14.02	195.50	28.10	-40.6	-41.5	21.0	0.00e+00	0	44	0	3844079616	50	4265
2026-01-10 04:04:14.74	195.51	27.97	-40.6	-41.5	20.9	0.00e+00	0	44	0	3849322496	50	4282
2026-01-10 04:04:16.03	195.53	27.74	-40.6	-41.5	20.9	0.00e+00	0	44	0	3858759680	50	4280
2026-01-10 04:04:16.74	195.54	27.61	-40.7	-41.6	20.9	0.00e+00	0	44	0	3862953984	50	4304
2026-01-10 04:04:18.05	195.56	27.38	-40.6	-41.5	20.9	0.00e+00	0	44	0	3872391168	50	4285
2026-01-10 04:04:18.76	195.58	27.26	-40.6	-41.5	20.9	0.00e+00	0	44	0	3877634048	50	4266
2026-01-10 04:04:20.05	195.60	27.03	-40.7	-41.6	20.9	0.00e+00	0	44	0	3887071232	50	4302
2026-01-10 04:04:20.77	195.61	26.91	-40.6	-41.5	20.9	0.00e+00	0	44	0	3892314112	50	4272
2026-01-10 04:04:22.05	195.63	26.69	-40.6	-41.5	20.7	0.00e+00	0	44	0	3901751296	50	4286
2026-01-10 04:04:22.77	195.64	26.57	-40.7	-41.6	20.8	0.00e+00	0	44	0	3906994176	50	4326
2026-01-10 04:04:24.06	195.66	26.35	-40.8	-41.7	20.7	0.00e+00	0	44	0	3916431360	51	4126
2026-01-10 04:04:24.78	195.67	26.23	-40.7	-41.7	20.8	0.00e+00	0	44	0	3921674240	51	4099
2026-01-10 04:04:26.07	195.69	26.01	-40.7	-41.7	20.8	0.00e+00	0	44	0	3931111424	51	4110
2026-01-10 04:04:26.88	195.70	25.88	-40.7	-41.6	20.8	0.00e+00	0	44	0	3936354304	51	4088
2026-01-10 04:04:28.03	195.71	25.69	-40.8	-41.8	20.7	0.00e+00	0	44	0	3944742912	51	4150
2026-01-10 04:04:28.88	195.73	25.55	-40.8	-41.7	20.7	0.00e+00	0	44	0	3951034368	51	4114
2026-01-10 04:04:30.03	195.74	25.36	-40.8	-41.7	20.7	0.00e+00	0	44	0	3959422976	51	4134
2026-01-10 04:04:30.89	195.75	25.22	-40.8	-41.8	20.7	0.00e+00	0	44	0	3965714432	51	4155
2026-01-10 04:04:32.03	195.77	25.04	-40.9	-41.8	20.6	0.00e+00	0	44	0	3974103040	51	4180
2026-01-10 04:04:32.89	195.78	24.90	-41.0	-42.0	20.4	0.00e+00	0	44	0	3980394496	51	4260
2026-01-10 04:04:34.10	195.80	24.71	-41.0	-41.9	20.5	0.00e+00	0	44	0	3988783104	51	4233
2026-01-10 04:04:34.96	195.81	24.57	-41.1	-42.1	20.3	0.00e+00	0	44	0	3995074560	51	4307
2026-01-10 04:04:36.11	195.83	24.39	-41.1	-42.0	20.4	0.00e+00	0	44	0	4003463168	51	4283
2026-01-10 04:04:36.97	195.84	24.26	-41.0	-42.0	20.4	0.00e+00	0	44	0	4009754624	51	4253
2026-01-10 04:04:38.12	195.85	24.08	-41.0	-41.9	20.5	0.00e+00	0	44	0	4017094656	51	4237
2026-01-10 04:04:38.98	195.86	23.95	-41.0	-42.0	20.5	0.00e+00	0	44	0	4024434688	51	4244
2026-01-10 04:04:40.12	195.88	23.77	-41.0	-42.0	20.5	0.00e+00	0	44	0	4032823296	51	4243
2026-01-10 04:04:40.98	195.89	23.64	-41.0	-42.0	20.4	0.00e+00	0	44	0	4038066176	51	4262
2026-01-10 04:04:42.13	195.91	23.47	-41.1	-42.0	20.4	0.00e+00	0	44	0	4046454784	51	4289
2026-01-10 04:04:42.99	195.92	23.34	-41.1	-42.0	20.3	0.00e+00	0	44	0	4052746240	51	4291
2026-01-10 04:04:44.13	195.93	23.17	-41.2	-42.2	20.2	0.00e+00	0	44	0	4061134848	51	4359
2026-01-10 04:04:44.99	195.94	23.04	-41.2	-42.2	20.1	0.00e+00	0	44	0	4067426304	52	4137
2026-01-10 04:04:46.14	195.96	22.87	-41.1	-42.1	20.3	0.00e+00	0	44	0	4075814912	52	4054
2026-01-10 04:04:47.31	195.97	22.70	-41.0	-42.0	20.4	0.00e+00	0	44	0	4084203520	52	4020
2026-01-10 04:04:48.34	195.98	22.55	-40.9	-41.9	20.4	0.00e+00	0	44	0	4091543552	52	3985
2026-01-10 04:04:49.34	196.00	22.40	-41.0	-41.9	20.4	0.00e+00	0	44	0	4098883584	52	3995
2026-01-10 04:04:50.55	196.01	22.23	-41.0	-42.0	20.3	0.00e+00	0	44	0	4107272192	52	4034
2026-01-10 04:04:51.44	196.02	22.10	-41.0	-41.9	20.4	0.00e+00	0	44	0	4113563648	52	3995
2026-01-10 04:04:52.58	196.04	21.94	-41.0	-42.0	20.4	0.00e+00	0	44	0	4121952256	52	4030
2026-01-10 04:04:53.43	196.05	21.82	-41.1	-42.1	20.2	0.00e+00	0	44	0	4128243712	52	4074
2026-01-10 04:04:54.58	196.06	21.65	-41.0	-42.0	20.4	0.00e+00	0	44	0	4136632320	52	4009
2026-01-10 04:04:55.44	196.07	21.53	-41.1	-42.0	20.3	0.00e+00	0	44	0	4142923776	52	4044
2026-01-10 04:04:56.58	196.08	21.37	-41.2	-42.1	20.2	0.00e+00	0	44	0	4151312384	52	4093
2026-01-10 04:04:57.44	196.09	21.25	-41.2	-42.1	20.2	0.00e+00	0	44	0	4157603840	52	4085
2026-01-10 04:04:58.59	196.11	21.10	-41.1	-42.0	20.3	0.00e+00	0	44	0	4165992448	52	4048
2026-01-10 04:04:59.45	196.12	20.98	-41.2	-42.2	20.2	0.00e+00	0	44	0	4171235328	52	4111
2026-01-10 04:05:00.60	196.13	20.82	-41.3	-42.2	20.1	0.00e+00	0	44	0	4179623936	52	4129
2026-01-10 04:05:01.46	196.14	20.70	-41.2	-42.1	20.2	0.00e+00	0	44	0	4185915392	52	4094
2026-01-10 04:05:02.63	196.15	20.55	-41.2	-42.2	20.1	0.00e+00	0	44	0	4194304000	52	4127
2026-01-10 04:05:03.50	196.16	20.43	-41.2	-42.2	20.1	0.00e+00	0	44	0	4200595456	52	4126
2026-01-10 04:05:04.64	196.17	20.28	-41.3	-42.3	20.0	0.00e+00	0	44	0	4208984064	52	4151
2026-01-10 04:05:05.50	196.18	20.16	-41.3	-42.3	20.0	0.00e+00	0	44	0	4215275520	52	4159
2026-01-10 04:05:06.65	196.20	20.01	-41.4	-42.3	20.0	0.00e+00	0	44	0	4223664128	52	4189
2026-01-10 04:05:07.51	196.20	19.90	-41.4	-42.4	19.9	0.00e+00	0	44	0	4229955584	52	4203
2026-01-10 04:05:08.65	196.22	19.75	-41.5	-42.5	19.8	0.00e+00	0	44	0	4238344192	52	4261
2026-01-10 04:05:09.51	196.23	19.64	-41.4	-42.4	19.9	0.00e+00	0	44	0	4244635648	52	4223
2026-01-10 04:05:10.66	196.24	19.49	-41.4	-42.4	19.9	0.00e+00	0	44	0	4253024256	52	4211
2026-01-10 04:05:11.63	196.25	19.36	-41.4	-42.4	19.9	0.00e+00	0	44	0	4259315712	52	4222
2026-01-10 04:05:12.80	196.26	19.21	-41.5	-42.4	19.9	0.00e+00	0	44	0	4267704320	52	4239
2026-01-10 04:05:13.66	196.27	19.10	-41.5	-42.4	19.8	0.00e+00	0	44	0	4273995776	52	4239
2026-01-10 04:05:15.01	196.28	18.93	-41.5	-42.4	19.8	0.00e+00	0	44	0	4283432960	52	4241
2026-01-10 04:05:15.73	196.29	18.84	-41.6	-42.6	19.7	0.00e+00	0	44	0	4289724416	52	4294
2026-01-10 04:05:17.26	196.31	18.65	-41.5	-42.5	19.8	0.00e+00	0	44	0	4300210176	52	4279
2026-01-10 04:05:17.97	196.31	18.56	-41.6	-42.6	19.7	0.00e+00	0	44	0	4305453056	52	4296
2026-01-10 04:05:19.27	196.33	18.40	-41.6	-42.6	19.7	0.00e+00	0	44	0	4314890240	52	4321
2026-01-10 04:05:19.98	196.34	18.31	-41.6	-42.6	19.7	0.00e+00	0	44	0	4320133120	52	4330
2026-01-10 04:05:21.27	196.35	18.16	-41.5	-42.6	19.7	0.00e+00	0	44	0	4329570304	52	4299
2026-01-10 04:05:21.99	196.36	18.07	-41.6	-42.6	19.7	0.00e+00	0	44	0	4334813184	52	4330
2026-01-10 04:05:23.28	196.37	17.91	-41.5	-42.6	19.7	0.00e+00	0	44	0	4344250368	52	4304
2026-01-10 04:05:24.02	196.38	17.82	-41.6	-42.6	19.7	0.00e+00	0	44	0	4349493248	52	4314
2026-01-10 04:05:25.31	196.39	17.67	-41.7	-42.7	19.6	0.00e+00	0	44	0	4357881856	52	4372
2026-01-10 04:05:26.03	196.39	17.58	-41.7	-42.7	19.6	0.00e+00	0	44	0	4364173312	52	4384
2026-01-10 04:05:27.32	196.41	17.43	-41.7	-42.8	19.6	0.00e+00	0	44	0	4372561920	52	4396
2026-01-10 04:05:28.04	196.41	17.34	-41.6	-42.7	19.6	0.00e+00	0	44	0	4377804800	52	4341
2026-01-10 04:05:29.32	196.43	17.19	-41.7	-42.7	19.6	0.00e+00	0	44	0	4387241984	52	4362
2026-01-10 04:05:30.04	196.43	17.11	-41.7	-42.7	19.6	0.00e+00	0	44	0	4392484864	52	4374
2026-01-10 04:05:31.33	196.45	16.96	-41.7	-42.7	19.6	0.00e+00	0	44	0	4401922048	52	4366
2026-01-10 04:05:32.05	196.45	16.87	-41.6	-42.7	19.6	0.00e+00	0	44	0	4407164928	52	4361
2026-01-10 04:05:33.34	196.46	16.72	-41.7	-42.7	19.5	0.00e+00	0	44	0	4416602112	52	4387
2026-01-10 04:05:34.06	196.47	16.64	-41.7	-42.7	19.6	0.00e+00	0	44	0	4421844992	52	4374
2026-01-10 04:05:35.35	196.48	16.49	-41.7	-42.8	19.5	0.00e+00	0	44	0	4431282176	52	4395
2026-01-10 04:05:36.06	196.49	16.41	-41.8	-42.8	19.5	0.00e+00	0	44	0	4435476480	53	4177
2026-01-10 04:05:37.35	196.50	16.27	-41.8	-42.8	19.4	0.00e+00	0	44	0	4444913664	53	4177
2026-01-10 04:05:38.08	196.51	16.18	-41.8	-42.9	19.4	0.00e+00	0	44	0	4450156544	53	4217
2026-01-10 04:05:39.69	196.52	16.00	-41.9	-43.0	19.3	0.00e+00	0	44	0	4462739456	53	4243
2026-01-10 04:05:40.52	196.53	15.91	-41.9	-42.9	19.3	0.00e+00	0	44	0	4467982336	53	4242
2026-01-10 04:05:41.67	196.54	15.78	-41.9	-43.0	19.3	0.00e+00	0	44	0	4476370944	53	4256
2026-01-10 04:05:42.53	196.55	15.69	-41.9	-43.0	19.3	0.00e+00	0	44	0	4482662400	53	4275
2026-01-10 04:05:43.67	196.56	15.56	-42.0	-43.1	19.2	0.00e+00	0	44	0	4491051008	53	4303
2026-01-10 04:05:44.53	196.57	15.47	-42.0	-43.1	19.2	0.00e+00	0	44	0	4497342464	53	4299
2026-01-10 04:05:45.68	196.58	15.34	-42.0	-43.1	19.1	0.00e+00	0	44	0	4505731072	53	4332
2026-01-10 04:05:46.54	196.58	15.25	-42.0	-43.1	19.1	0.00e+00	0	44	0	4512022528	53	4327
2026-01-10 04:05:47.68	196.59	15.12	-42.1	-43.2	19.1	0.00e+00	0	44	0	4520411136	53	4362
2026-01-10 04:05:48.62	196.60	15.02	-42.2	-43.3	19.0	0.00e+00	0	44	0	4526702592	53	4409
2026-01-10 04:05:49.78	196.61	14.90	-42.2	-43.3	19.0	0.00e+00	0	44	0	4535091200	53	4400
2026-01-10 04:05:50.64	196.62	14.81	-42.3	-43.4	18.9	0.00e+00	0	44	0	4541382656	53	4459
2026-01-10 04:05:51.79	196.63	14.68	-42.3	-43.4	18.8	0.00e+00	0	44	0	4549771264	54	4230
2026-01-10 04:05:52.64	196.64	14.59	-42.2	-43.4	18.9	0.00e+00	0	44	0	4556062720	54	4197
2026-01-10 04:05:53.79	196.65	14.47	-42.4	-43.5	18.7	0.00e+00	0	44	0	4564451328	54	4279
2026-01-10 04:05:54.65	196.65	14.38	-42.4	-43.5	18.8	0.00e+00	0	44	0	4569694208	54	4273
2026-01-10 04:05:55.80	196.66	14.26	-42.5	-43.7	18.6	0.00e+00	0	44	0	4578082816	54	4359
2026-01-10 04:05:56.66	196.67	14.17	-42.6	-43.7	18.5	0.00e+00	0	44	0	4584374272	54	4382
2026-01-10 04:05:57.81	196.68	14.05	-42.8	-43.9	18.4	0.00e+00	0	44	0	4592762880	54	4475
2026-01-10 04:05:58.66	196.69	13.97	-42.7	-43.9	18.4	0.00e+00	0	44	0	4599054336	55	4199
2026-01-10 04:05:59.81	196.70	13.85	-42.7	-43.9	18.4	0.00e+00	0	44	0	4607442944	55	4212
2026-01-10 04:06:00.66	196.70	13.76	-42.7	-43.9	18.4	0.00e+00	0	44	0	4613734400	55	4209
2026-01-10 04:06:01.82	196.71	13.64	-42.8	-44.0	18.3	0.00e+00	0	44	0	4622123008	55	4243
2026-01-10 04:06:02.68	196.72	13.56	-42.8	-44.0	18.2	0.00e+00	0	44	0	4628414464	55	4275
2026-01-10 04:06:03.86	196.73	13.44	-42.9	-44.1	18.2	0.00e+00	0	44	0	4636803072	55	4301
2026-01-10 04:06:04.72	196.74	13.35	-42.9	-44.1	18.2	0.00e+00	0	44	0	4643094528	55	4306
2026-01-10 04:06:05.90	196.75	13.23	-43.0	-44.2	18.1	0.00e+00	0	44	0	4651483136	55	4342
2026-01-10 04:06:06.76	196.75	13.15	-43.0	-44.1	18.1	0.00e+00	0	44	0	4657774592	55	4336
2026-01-10 04:06:07.94	196.76	13.03	-43.0	-44.2	18.0	0.00e+00	0	44	0	4666163200	55	4376
2026-01-10 04:06:08.80	196.77	12.95	-43.1	-44.3	17.9	0.00e+00	0	44	0	4672454656	55	4425
2026-01-10 04:06:09.94	196.78	12.83	-43.1	-44.3	17.9	0.00e+00	0	44	0	4680843264	55	4441
2026-01-10 04:06:10.80	196.78	12.75	-43.2	-44.4	17.9	0.00e+00	0	44	0	4687134720	55	4459
2026-01-10 04:06:11.95	196.79	12.64	-43.2	-44.5	17.8	0.00e+00	0	44	0	4695523328	55	4509
2026-01-10 04:06:12.81	196.80	12.55	-43.4	-44.7	17.7	0.00e+00	0	44	0	4700766208	56	4341
2026-01-10 04:06:13.95	196.81	12.44	-43.4	-44.7	17.7	0.00e+00	0	44	0	4709154816	56	4352
2026-01-10 04:06:14.81	196.81	12.36	-43.5	-44.7	17.7	0.00e+00	0	44	0	4715446272	56	4383
2026-01-10 04:06:15.96	196.82	12.25	-43.5	-44.7	17.6	0.00e+00	0	44	0	4723834880	56	4381
2026-01-10 04:06:16.81	196.83	12.17	-43.5	-44.8	17.6	0.00e+00	0	44	0	4730126336	56	4392
2026-01-10 04:06:17.96	196.84	12.06	-43.5	-44.7	17.6	0.00e+00	0	44	0	4738514944	56	4387
2026-01-10 04:06:18.82	196.85	11.98	-43.5	-44.8	17.6	0.00e+00	0	44	0	4744806400	56	4404
2026-01-10 04:06:20.00	196.85	11.86	-43.6	-44.9	17.5	0.00e+00	0	44	0	4753195008	56	4458
2026-01-10 04:06:20.86	196.86	11.78	-43.6	-44.9	17.4	0.00e+00	0	44	0	4759486464	56	4464
2026-01-10 04:06:22.04	196.87	11.67	-43.7	-45.0	17.3	0.00e+00	0	44	0	4767875072	56	4531
2026-01-10 04:06:22.90	196.88	11.59	-43.8	-45.1	17.3	0.00e+00	0	44	0	4774166528	56	4548
2026-01-10 04:06:24.05	196.88	11.49	-43.8	-45.1	17.3	0.00e+00	0	44	0	4782555136	57	4301
2026-01-10 04:06:24.91	196.89	11.41	-43.8	-45.1	17.2	0.00e+00	0	44	0	4788846592	57	4294
