passes_logs/2026/01/10/T1/T1__20260110_005112_AQUA_rec.log

#Pass ID: 20260110_005112_AQUA
#Satellite: AQUA
#Configuration: AQUA
#almurnet v.1.7.20251203
#Start time: 2026-01-10 00:51:13

#Version: 2.0.20230620
#Station: T1
#Location: 37.570604 lon 55.790049 lat
#TLE: 1 27424U 02022A   26009.00333547  .00001046  00000+0  21942-3 0  9998
#TLE: 2 27424  98.4075 335.3304 0002025  85.7625 349.1392 14.61808998260011

#Time	Az	El	Level	Level2	SNR	BER	BlckErr	Temp	State	Recorded	gain1	gain2
2026-01-10 00:51:13.26	20.60	5.08	-50.5	-73.2	3.8	7.46e-01	0	41	104	0	71	52422
2026-01-10 00:51:14.26	20.64	5.15	-50.5	-73.2	3.8	7.45e-01	0	41	104	0	71	52399
2026-01-10 00:51:15.27	20.68	5.23	-50.6	-73.2	3.8	7.43e-01	0	42	104	0	71	52577
2026-01-10 00:51:16.27	20.72	5.30	-50.5	-73.2	3.8	7.44e-01	0	41	104	0	71	52532
2026-01-10 00:51:17.27	20.76	5.37	-50.5	-73.2	3.8	7.47e-01	0	41	104	0	71	52547
2026-01-10 00:51:18.28	20.79	5.45	-50.5	-73.2	3.8	7.45e-01	0	42	104	0	71	52393
2026-01-10 00:51:19.28	20.83	5.52	-50.5	-73.2	3.8	7.45e-01	0	42	104	0	71	52220
2026-01-10 00:51:20.29	20.87	5.60	-50.5	-73.1	3.8	7.48e-01	0	42	104	0	71	52013
2026-01-10 00:51:21.29	20.91	5.67	-50.5	-73.0	3.8	7.49e-01	0	42	104	0	71	51529
2026-01-10 00:51:22.30	20.95	5.75	-50.5	-72.9	3.8	7.49e-01	0	42	104	0	71	50911
2026-01-10 00:51:23.30	20.99	5.82	-50.5	-72.9	3.8	7.48e-01	0	42	104	0	71	50438
2026-01-10 00:51:24.30	21.03	5.90	-50.5	-72.9	3.8	7.47e-01	0	42	104	0	71	50444
2026-01-10 00:51:25.31	21.07	5.97	-50.5	-72.8	3.8	7.46e-01	0	42	104	0	71	50101
2026-01-10 00:51:26.31	21.12	6.05	-50.5	-72.8	3.8	7.47e-01	0	42	104	0	71	50234
2026-01-10 00:51:27.32	21.16	6.13	-50.5	-72.8	3.8	7.46e-01	0	42	104	0	71	50145
2026-01-10 00:51:28.32	21.20	6.20	-50.5	-72.8	3.8	7.45e-01	0	42	104	0	71	50025
2026-01-10 00:51:29.33	21.24	6.28	-50.5	-72.8	3.8	7.46e-01	0	42	104	0	71	49933
2026-01-10 00:51:30.33	21.28	6.36	-50.5	-72.8	3.8	7.46e-01	0	42	104	0	71	50387
2026-01-10 00:51:31.34	21.32	6.43	-50.5	-72.9	3.8	7.49e-01	0	42	104	0	71	50821
2026-01-10 00:51:32.34	21.36	6.51	-50.5	-73.0	3.8	7.49e-01	0	42	104	0	71	51445
2026-01-10 00:51:33.34	21.41	6.59	-50.5	-73.2	3.8	7.47e-01	0	42	104	0	71	52454
2026-01-10 00:51:34.35	21.45	6.67	-50.5	-73.3	3.8	7.46e-01	0	42	104	0	71	53268
2026-01-10 00:51:35.35	21.49	6.74	-50.5	-73.3	3.8	7.44e-01	0	42	104	0	71	53038
2026-01-10 00:51:36.36	21.54	6.82	-50.5	-72.9	3.8	7.44e-01	0	42	104	0	71	50704
2026-01-10 00:51:37.36	21.58	6.90	-50.5	-72.3	3.8	7.49e-01	0	42	104	0	71	47571
2026-01-10 00:51:38.36	21.62	6.98	-50.5	-71.5	3.8	7.44e-01	0	42	104	0	71	43340
2026-01-10 00:51:39.37	21.67	7.06	-50.5	-70.1	4.1	7.34e-01	0	42	104	0	71	36819
2026-01-10 00:51:40.37	21.71	7.14	-50.5	-69.4	4.3	7.34e-01	0	42	104	0	71	33740
2026-01-10 00:51:41.38	21.75	7.22	-50.4	-68.9	4.0	7.41e-01	0	42	104	0	71	31898
2026-01-10 00:51:42.38	21.80	7.30	-50.5	-68.4	4.7	7.16e-01	0	42	104	0	71	30190
2026-01-10 00:51:43.39	21.84	7.38	-50.4	-68.3	4.8	7.18e-01	0	42	104	0	71	29726
2026-01-10 00:51:44.39	21.89	7.46	-50.5	-69.1	4.4	7.43e-01	0	42	104	0	71	32664
2026-01-10 00:51:45.39	21.93	7.54	-50.5	-68.8	4.5	7.24e-01	0	43	104	0	71	31493
2026-01-10 00:51:46.40	21.98	7.62	-50.4	-68.8	4.3	7.23e-01	0	43	104	0	71	31745
2026-01-10 00:51:47.40	22.02	7.70	-50.4	-68.6	4.6	7.19e-01	0	43	104	0	71	30842
2026-01-10 00:51:48.41	22.07	7.79	-50.4	-67.8	4.9	7.10e-01	0	43	0	0	71	28130
2026-01-10 00:51:49.41	22.12	7.87	-50.4	-67.4	5.3	7.05e-01	0	43	0	0	71	26767
2026-01-10 00:51:50.41	22.16	7.95	-50.4	-66.8	5.6	6.97e-01	0	42	0	0	71	25045
2026-01-10 00:51:51.42	22.21	8.03	-50.4	-66.3	6.0	6.85e-01	0	43	0	1572864	71	23605
2026-01-10 00:51:52.42	22.25	8.12	-50.4	-66.1	6.1	6.83e-01	0	43	0	3145728	71	23122
2026-01-10 00:51:53.43	22.30	8.20	-50.4	-66.0	6.2	6.80e-01	0	42	0	4718592	71	23005
2026-01-10 00:51:54.43	22.35	8.28	-50.4	-66.5	5.8	6.89e-01	0	43	0	6291456	71	24166
2026-01-10 00:51:55.44	22.40	8.37	-50.4	-66.5	5.8	6.88e-01	0	43	0	7864320	71	24345
2026-01-10 00:51:56.44	22.45	8.45	-50.4	-66.6	5.7	6.93e-01	0	43	0	8912896	71	24628
2026-01-10 00:51:57.44	22.49	8.54	-50.4	-66.5	5.8	6.90e-01	0	43	0	9961472	71	24254
2026-01-10 00:51:58.45	22.54	8.62	-50.4	-66.2	6.0	6.85e-01	0	43	0	11534336	71	23510
2026-01-10 00:51:59.45	22.59	8.71	-50.3	-65.6	6.4	6.73e-01	0	43	0	13107200	71	21925
2026-01-10 00:52:00.46	22.64	8.79	-50.3	-65.0	6.9	6.61e-01	0	43	0	15204352	71	20516
2026-01-10 00:52:01.46	22.69	8.88	-50.3	-64.8	7.2	6.59e-01	0	43	0	16777216	71	19957
2026-01-10 00:52:02.47	22.74	8.96	-50.3	-64.7	7.3	6.58e-01	0	43	0	18874368	71	19835
2026-01-10 00:52:03.47	22.79	9.05	-50.3	-65.6	6.6	6.75e-01	0	43	0	20971520	71	21877
2026-01-10 00:52:04.48	22.84	9.14	-50.7	-66.3	6.0	6.87e-01	0	43	0	22020096	71	23650
2026-01-10 00:52:05.48	22.89	9.22	-50.5	-65.2	6.8	6.66e-01	0	43	0	23592960	73	18651
2026-01-10 00:52:06.48	22.94	9.31	-50.5	-70.8	3.7	7.48e-01	0	43	104	25165824	72	37643
2026-01-10 00:52:07.49	22.99	9.40	-51.5	-70.2	3.8	7.28e-01	0	43	104	25165824	73	33056
2026-01-10 00:52:08.49	23.04	9.48	-50.2	-55.8	16.6	6.04e-01	0	43	0	26214400	72	6652
2026-01-10 00:52:09.50	23.09	9.57	-50.2	-55.7	16.5	6.06e-01	0	43	0	28311552	72	6600
2026-01-10 00:52:10.50	23.15	9.66	-49.7	-54.6	17.9	6.05e-01	0	43	0	29884416	71	6137
2026-01-10 00:52:11.50	23.20	9.75	-49.7	-54.5	17.9	6.04e-01	0	43	0	31981568	71	6078
2026-01-10 00:52:12.51	23.25	9.84	-49.7	-54.5	18.0	6.02e-01	0	43	0	34078720	71	6084
2026-01-10 00:52:13.51	23.30	9.93	-49.7	-54.3	18.0	6.03e-01	0	43	0	35651584	71	5957
2026-01-10 00:52:14.51	23.36	10.02	-49.7	-54.4	18.0	6.03e-01	0	43	0	37748736	71	6028
2026-01-10 00:52:15.52	23.41	10.11	-49.6	-54.2	18.3	6.03e-01	0	43	0	39321600	71	5878
2026-01-10 00:52:16.56	23.47	10.20	-49.4	-53.7	18.7	6.03e-01	0	43	0	41418752	70	5909
2026-01-10 00:52:17.55	23.52	10.29	-48.9	-52.9	19.5	6.04e-01	0	43	0	43515904	69	5706
2026-01-10 00:52:18.55	23.57	10.38	-48.8	-52.8	19.7	6.05e-01	0	43	0	45088768	69	5599
2026-01-10 00:52:19.56	23.63	10.48	-48.6	-52.4	20.0	6.05e-01	0	43	0	47185920	69	5394
2026-01-10 00:52:20.56	23.69	10.57	-48.3	-52.1	20.4	6.03e-01	0	43	0	48758784	68	5482
2026-01-10 00:52:21.56	23.74	10.66	-48.2	-51.9	20.6	6.02e-01	0	43	0	50855936	68	5348
2026-01-10 00:52:22.57	23.80	10.75	-48.2	-51.8	20.6	6.05e-01	0	43	0	52953088	68	5314
2026-01-10 00:52:23.56	23.85	10.85	-48.0	-51.5	20.9	6.04e-01	0	43	0	54525952	68	5143
2026-01-10 00:52:24.57	23.91	10.94	-47.8	-51.2	21.2	6.04e-01	0	43	0	56623104	67	5221
2026-01-10 00:52:25.57	23.97	11.03	-47.8	-51.2	21.1	6.05e-01	0	43	0	58195968	67	5239
2026-01-10 00:52:26.57	24.02	11.13	-47.7	-51.1	21.2	6.02e-01	0	43	0	60293120	67	5199
2026-01-10 00:52:27.58	24.08	11.22	-47.8	-51.2	21.1	6.02e-01	0	43	0	61865984	67	5273
2026-01-10 00:52:28.98	24.16	11.35	-47.9	-51.2	21.2	6.04e-01	0	43	0	64487424	67	5266
2026-01-10 00:52:29.69	24.20	11.42	-47.8	-51.1	21.2	6.05e-01	0	43	0	66060288	67	5204
2026-01-10 00:52:30.99	24.28	11.55	-47.9	-51.3	21.1	6.04e-01	0	43	0	68681728	67	5309
2026-01-10 00:52:31.70	24.32	11.61	-47.8	-51.2	21.1	6.03e-01	0	43	0	69730304	67	5275
2026-01-10 00:52:32.99	24.40	11.74	-47.8	-51.3	21.1	6.05e-01	0	43	0	72351744	67	5301
2026-01-10 00:52:33.71	24.44	11.81	-47.6	-51.2	21.2	6.04e-01	0	43	0	73400320	67	5274
2026-01-10 00:52:34.99	24.52	11.93	-47.6	-51.2	21.2	6.04e-01	0	43	0	76021760	67	5271
2026-01-10 00:52:35.71	24.56	12.00	-47.5	-51.2	21.2	6.03e-01	0	43	0	77594624	67	5239
2026-01-10 00:52:37.08	24.65	12.14	-47.4	-51.1	21.3	6.06e-01	0	43	0	79691776	66	5488
2026-01-10 00:52:37.80	24.69	12.21	-47.4	-51.2	21.1	6.05e-01	0	43	0	81264640	66	5544
2026-01-10 00:52:39.17	24.78	12.34	-47.3	-51.0	21.4	6.04e-01	0	43	0	83886080	66	5458
2026-01-10 00:52:39.89	24.82	12.42	-47.2	-50.9	21.6	6.04e-01	0	43	0	84934656	66	5352
2026-01-10 00:52:41.27	24.91	12.55	-47.1	-50.9	21.5	6.05e-01	0	43	0	87556096	66	5370
2026-01-10 00:52:41.99	24.95	12.63	-47.2	-50.9	21.5	6.05e-01	0	43	0	89128960	66	5391
2026-01-10 00:52:43.28	25.04	12.75	-47.1	-50.7	21.7	6.03e-01	0	43	0	91750400	66	5273
2026-01-10 00:52:44.00	25.08	12.83	-47.1	-50.7	21.7	6.01e-01	0	43	0	92798976	66	5240
2026-01-10 00:52:45.28	25.17	12.96	-47.1	-50.8	21.7	6.04e-01	0	43	0	95420416	66	5291
2026-01-10 00:52:46.00	25.21	13.03	-47.2	-50.8	21.6	6.05e-01	0	43	0	96468992	66	5328
2026-01-10 00:52:47.29	25.30	13.16	-47.1	-51.0	21.5	6.04e-01	0	43	0	99090432	66	5419
2026-01-10 00:52:48.01	25.35	13.24	-46.9	-50.7	21.8	6.05e-01	0	44	0	100663296	65	5568
2026-01-10 00:52:49.30	25.43	13.37	-46.9	-50.6	21.8	6.02e-01	0	43	0	102760448	65	5513
2026-01-10 00:52:50.11	25.49	13.45	-47.0	-50.7	21.8	6.05e-01	0	44	0	104333312	65	5564
2026-01-10 00:52:51.26	25.56	13.57	-47.0	-50.6	21.9	6.02e-01	0	43	0	106430464	65	5500
2026-01-10 00:52:52.12	25.62	13.66	-47.1	-50.7	21.8	6.05e-01	0	43	0	108003328	65	5535
2026-01-10 00:52:53.27	25.70	13.79	-47.2	-50.7	21.8	6.04e-01	0	43	0	110100480	65	5541
2026-01-10 00:52:54.13	25.76	13.88	-47.2	-50.6	21.9	6.03e-01	0	43	0	111673344	65	5526
2026-01-10 00:52:55.28	25.84	14.00	-47.2	-50.6	21.9	6.03e-01	0	43	0	114294784	65	5492
2026-01-10 00:52:56.13	25.90	14.09	-47.2	-50.5	22.0	6.04e-01	0	43	0	115867648	65	5431
2026-01-10 00:52:57.28	25.98	14.21	-47.3	-50.5	22.0	6.05e-01	0	43	0	117964800	65	5444
2026-01-10 00:52:58.14	26.04	14.31	-47.3	-50.6	21.9	6.04e-01	0	44	0	119537664	65	5472
2026-01-10 00:52:59.32	26.13	14.43	-47.2	-50.5	22.0	6.06e-01	0	43	0	121634816	65	5421
2026-01-10 00:53:00.18	26.19	14.53	-47.3	-50.6	21.9	6.08e-01	0	44	0	123207680	65	5503
2026-01-10 00:53:01.33	26.27	14.65	-47.2	-50.5	22.0	6.05e-01	0	43	0	125304832	65	5434
2026-01-10 00:53:02.18	26.33	14.75	-47.2	-50.5	22.0	6.05e-01	0	43	0	126877696	65	5435
2026-01-10 00:53:03.33	26.42	14.87	-47.3	-50.6	21.9	6.03e-01	0	43	0	128974848	65	5486
2026-01-10 00:53:04.20	26.48	14.97	-47.3	-50.6	22.0	6.06e-01	0	43	0	130547712	65	5484
2026-01-10 00:53:05.53	26.58	15.12	-47.1	-50.4	22.1	6.04e-01	0	43	0	133169152	65	5391
2026-01-10 00:53:06.25	26.64	15.20	-47.1	-50.5	22.1	6.03e-01	0	43	0	134742016	65	5411
2026-01-10 00:53:07.54	26.73	15.34	-47.1	-50.6	22.0	6.04e-01	0	43	0	136839168	65	5474
2026-01-10 00:53:08.26	26.79	15.42	-46.9	-50.5	22.1	6.04e-01	0	43	0	138412032	65	5440
2026-01-10 00:53:09.55	26.89	15.57	-46.7	-50.4	22.2	6.07e-01	0	43	0	140509184	65	5389
2026-01-10 00:53:10.26	26.94	15.65	-46.7	-50.4	22.2	6.06e-01	0	43	0	142082048	65	5376
2026-01-10 00:53:11.55	27.05	15.80	-46.6	-50.4	22.2	6.04e-01	0	44	0	144703488	65	5375
2026-01-10 00:53:12.27	27.10	15.88	-46.6	-50.4	22.2	6.03e-01	0	44	0	145752064	65	5370
2026-01-10 00:53:13.56	27.21	16.03	-46.5	-50.2	22.4	6.04e-01	0	43	0	148373504	65	5223
2026-01-10 00:53:14.28	27.26	16.11	-46.6	-50.3	22.3	6.03e-01	0	44	0	149422080	64	5608
2026-01-10 00:53:15.57	27.37	16.26	-46.6	-50.3	22.3	6.03e-01	0	43	0	152043520	64	5598
2026-01-10 00:53:16.29	27.43	16.35	-46.7	-50.2	22.4	6.04e-01	0	43	0	153616384	64	5591
2026-01-10 00:53:17.57	27.53	16.50	-46.6	-50.1	22.5	6.04e-01	0	43	0	155713536	64	5472
2026-01-10 00:53:18.29	27.59	16.59	-46.7	-50.1	22.4	6.04e-01	0	43	0	157286400	64	5522
2026-01-10 00:53:19.66	27.71	16.75	-46.8	-50.1	22.5	6.05e-01	0	44	0	159907840	64	5470
2026-01-10 00:53:20.38	27.77	16.83	-46.8	-50.2	22.4	6.05e-01	0	43	0	160956416	64	5529
2026-01-10 00:53:21.67	27.88	16.99	-46.9	-50.2	22.4	6.04e-01	0	43	0	163577856	64	5549
2026-01-10 00:53:22.39	27.94	17.08	-46.8	-50.1	22.5	6.06e-01	0	43	0	164626432	64	5522
2026-01-10 00:53:23.68	28.05	17.23	-46.9	-50.2	22.4	6.05e-01	0	44	0	167247872	64	5566
2026-01-10 00:53:24.39	28.11	17.32	-46.9	-50.2	22.5	6.04e-01	0	44	0	168820736	64	5546
2026-01-10 00:53:25.68	28.22	17.48	-46.9	-50.1	22.6	6.04e-01	0	44	0	170917888	64	5479
2026-01-10 00:53:26.40	28.29	17.57	-47.0	-50.1	22.6	6.05e-01	0	44	0	172490752	64	5489
2026-01-10 00:53:27.69	28.40	17.73	-47.1	-50.1	22.5	6.06e-01	0	43	0	174587904	64	5515
2026-01-10 00:53:28.41	28.47	17.82	-47.0	-50.1	22.5	6.05e-01	0	43	0	176160768	64	5519
2026-01-10 00:53:29.70	28.58	17.98	-46.9	-50.0	22.7	6.05e-01	0	43	0	178782208	64	5425
2026-01-10 00:53:30.42	28.65	18.07	-47.0	-50.1	22.5	6.03e-01	0	44	0	179830784	64	5492
2026-01-10 00:53:31.70	28.77	18.23	-46.9	-50.0	22.7	6.01e-01	0	43	0	182452224	64	5433
2026-01-10 00:53:32.69	28.86	18.36	-47.0	-50.0	22.5	6.04e-01	0	44	0	184025088	64	5461
2026-01-10 00:53:33.69	28.95	18.49	-47.1	-50.1	22.5	6.04e-01	0	44	0	186122240	64	5497
2026-01-10 00:53:34.70	29.05	18.62	-47.2	-50.1	22.6	6.04e-01	0	44	0	187695104	64	5511
2026-01-10 00:53:35.70	29.15	18.75	-47.2	-50.1	22.6	6.04e-01	0	44	0	189792256	65	5191
2026-01-10 00:53:36.70	29.24	18.88	-47.1	-50.1	22.6	6.01e-01	0	44	0	191889408	65	5191
2026-01-10 00:53:37.70	29.34	19.01	-47.0	-50.1	22.7	6.04e-01	0	43	0	193462272	65	5160
2026-01-10 00:53:38.75	29.44	19.15	-46.9	-50.0	22.7	6.01e-01	0	44	0	195559424	65	5109
2026-01-10 00:53:39.69	29.54	19.27	-47.0	-50.0	22.7	6.04e-01	0	44	0	197132288	65	5159
2026-01-10 00:53:40.69	29.64	19.40	-46.9	-50.1	22.6	6.04e-01	0	44	0	199229440	65	5177
2026-01-10 00:53:41.70	29.74	19.54	-46.8	-49.9	22.8	6.03e-01	0	44	0	200802304	65	5082
2026-01-10 00:53:42.70	29.84	19.67	-46.8	-50.0	22.7	6.04e-01	0	43	0	202899456	65	5118
2026-01-10 00:53:43.70	29.94	19.81	-46.8	-50.0	22.7	6.04e-01	0	44	0	204996608	65	5136
2026-01-10 00:53:44.71	30.05	19.94	-46.9	-50.1	22.6	6.04e-01	0	44	0	206569472	65	5197
2026-01-10 00:53:45.71	30.15	20.08	-47.0	-50.2	22.6	6.03e-01	0	44	0	208666624	65	5243
2026-01-10 00:53:46.71	30.26	20.22	-47.1	-50.2	22.5	6.04e-01	0	44	0	210763776	65	5248
2026-01-10 00:53:47.71	30.36	20.36	-47.2	-50.1	22.6	6.03e-01	0	44	0	212336640	65	5215
2026-01-10 00:53:48.72	30.47	20.50	-47.1	-50.1	22.6	6.04e-01	0	44	0	214433792	65	5216
2026-01-10 00:53:49.72	30.58	20.64	-47.0	-50.2	22.6	6.04e-01	0	44	0	216006656	65	5235
2026-01-10 00:53:50.72	30.69	20.78	-46.6	-50.0	22.7	6.03e-01	0	44	0	218103808	65	5155
2026-01-10 00:53:51.73	30.80	20.92	-46.5	-50.2	22.6	6.02e-01	0	44	0	219676672	64	5541
2026-01-10 00:53:52.78	30.92	21.07	-46.2	-50.1	22.6	6.04e-01	0	44	0	221773824	64	5500
2026-01-10 00:53:53.64	31.01	21.19	-46.3	-50.2	22.5	6.03e-01	0	44	0	223346688	64	5556
2026-01-10 00:53:54.79	31.14	21.36	-46.4	-50.2	22.5	6.05e-01	0	44	0	225443840	64	5588
2026-01-10 00:53:55.65	31.24	21.48	-46.5	-50.3	22.5	6.04e-01	0	43	0	227016704	64	5595
2026-01-10 00:53:56.79	31.37	21.64	-46.8	-50.2	22.5	6.04e-01	0	44	0	229113856	64	5587
2026-01-10 00:53:57.65	31.47	21.77	-47.1	-50.3	22.5	6.03e-01	0	44	0	231211008	64	5601
2026-01-10 00:53:58.80	31.61	21.94	-47.1	-50.1	22.6	6.06e-01	0	44	0	233308160	64	5519
2026-01-10 00:53:59.66	31.71	22.07	-47.1	-50.2	22.6	6.06e-01	0	44	0	234881024	64	5535
2026-01-10 00:54:00.81	31.85	22.24	-47.2	-50.3	22.5	6.05e-01	0	44	0	236978176	65	5283
2026-01-10 00:54:01.67	31.95	22.36	-47.2	-50.4	22.3	6.03e-01	0	44	0	238551040	65	5359
2026-01-10 00:54:02.81	32.09	22.54	-47.3	-50.4	22.3	6.04e-01	0	44	0	240648192	65	5391
2026-01-10 00:54:03.67	32.20	22.66	-47.2	-50.4	22.4	6.04e-01	0	44	0	242221056	65	5358
2026-01-10 00:54:04.95	32.36	22.86	-47.2	-50.3	22.5	6.02e-01	0	44	0	244842496	65	5303
2026-01-10 00:54:05.66	32.45	22.97	-47.3	-50.4	22.3	6.02e-01	0	44	0	245891072	65	5388
2026-01-10 00:54:06.95	32.61	23.16	-47.3	-50.3	22.5	6.03e-01	0	44	0	248512512	65	5285
2026-01-10 00:54:07.67	32.71	23.28	-47.3	-50.3	22.5	6.03e-01	0	44	0	249561088	65	5287
2026-01-10 00:54:09.25	32.91	23.52	-47.5	-50.5	22.3	6.04e-01	0	43	0	252706816	65	5447
2026-01-10 00:54:09.84	32.99	23.61	-47.5	-50.6	22.2	6.05e-01	0	44	0	253755392	65	5478
2026-01-10 00:54:11.41	33.20	23.86	-47.5	-50.8	22.0	6.04e-01	0	44	0	256901120	65	5598
2026-01-10 00:54:12.01	33.28	23.96	-47.3	-50.6	22.2	6.04e-01	0	44	0	257949696	65	5468
2026-01-10 00:54:13.59	33.49	24.21	-47.1	-50.3	22.4	6.03e-01	0	44	0	261095424	65	5331
2026-01-10 00:54:14.21	33.58	24.31	-47.1	-50.3	22.4	6.01e-01	0	44	0	262144000	65	5313
2026-01-10 00:54:15.85	33.81	24.57	-47.1	-50.3	22.5	6.03e-01	0	44	0	265289728	65	5320
2026-01-10 00:54:16.42	33.89	24.66	-47.1	-50.3	22.5	6.03e-01	0	44	0	266338304	65	5296
2026-01-10 00:54:18.00	34.11	24.92	-47.2	-50.4	22.4	6.02e-01	0	44	0	268959744	65	5348
2026-01-10 00:54:18.58	34.20	25.02	-47.3	-50.4	22.4	6.04e-01	0	44	0	270008320	65	5362
2026-01-10 00:54:20.15	34.43	25.27	-47.4	-50.4	22.3	6.03e-01	0	44	0	273154048	65	5402
2026-01-10 00:54:20.78	34.52	25.38	-47.2	-50.3	22.4	6.04e-01	0	44	0	274202624	65	5332
2026-01-10 00:54:22.22	34.73	25.62	-46.8	-50.2	22.6	6.03e-01	0	44	0	276824064	65	5225
2026-01-10 00:54:22.94	34.84	25.74	-46.6	-50.1	22.6	6.04e-01	0	44	0	278396928	65	5207
2026-01-10 00:54:24.23	35.04	25.96	-46.6	-50.3	22.5	6.04e-01	0	44	0	281018368	65	5302
2026-01-10 00:54:24.94	35.15	26.08	-46.7	-50.3	22.5	6.04e-01	0	44	0	282066944	65	5321
2026-01-10 00:54:26.23	35.35	26.30	-47.0	-50.3	22.5	6.03e-01	0	44	0	284688384	65	5327
2026-01-10 00:54:26.95	35.46	26.43	-47.1	-50.3	22.5	6.02e-01	0	44	0	285736960	65	5295
2026-01-10 00:54:28.23	35.67	26.65	-47.1	-50.2	22.6	6.06e-01	0	44	0	288358400	65	5270
2026-01-10 00:54:28.98	35.79	26.78	-47.1	-50.2	22.6	6.06e-01	0	44	0	289931264	65	5278
2026-01-10 00:54:30.27	36.00	27.00	-47.1	-50.5	22.3	6.05e-01	0	44	0	292028416	65	5422
2026-01-10 00:54:31.08	36.13	27.15	-47.2	-50.5	22.4	6.04e-01	0	44	0	293601280	65	5407
2026-01-10 00:54:32.55	36.38	27.41	-47.5	-50.6	22.2	6.06e-01	0	44	0	296222720	65	5518
2026-01-10 00:54:33.26	36.50	27.53	-47.4	-50.3	22.5	6.05e-01	0	44	0	297795584	65	5335
2026-01-10 00:54:34.55	36.72	27.76	-47.0	-49.9	22.8	6.05e-01	0	44	0	300417024	65	5094
2026-01-10 00:54:35.27	36.84	27.89	-46.8	-49.9	22.8	6.04e-01	0	44	0	301465600	65	5087
2026-01-10 00:54:36.56	37.07	28.13	-46.8	-50.1	22.8	6.03e-01	0	44	0	304087040	65	5169
2026-01-10 00:54:37.28	37.19	28.26	-46.7	-50.1	22.7	6.06e-01	0	44	0	305135616	65	5198
2026-01-10 00:54:38.57	37.42	28.50	-46.5	-50.0	22.8	6.02e-01	0	44	0	307757056	65	5140
2026-01-10 00:54:39.28	37.55	28.63	-46.4	-49.9	22.9	6.05e-01	0	44	0	308805632	64	5393
2026-01-10 00:54:40.57	37.79	28.87	-46.6	-49.9	22.9	6.06e-01	0	44	0	311427072	64	5368
2026-01-10 00:54:41.29	37.92	29.00	-46.8	-50.1	22.8	6.02e-01	0	44	0	312999936	64	5474
2026-01-10 00:54:42.58	38.16	29.24	-47.0	-50.0	22.9	6.06e-01	0	44	0	315097088	64	5407
2026-01-10 00:54:43.30	38.30	29.38	-47.0	-50.0	22.9	6.03e-01	0	44	0	316669952	64	5441
2026-01-10 00:54:44.59	38.55	29.62	-47.1	-50.1	22.7	6.05e-01	0	44	0	318767104	64	5509
2026-01-10 00:54:45.31	38.69	29.76	-47.2	-50.2	22.6	6.04e-01	0	44	0	320339968	65	5251
2026-01-10 00:54:46.68	38.96	30.02	-47.2	-50.1	22.8	6.04e-01	0	44	0	322961408	65	5178
2026-01-10 00:54:47.66	39.15	30.21	-47.1	-49.9	22.9	6.02e-01	0	44	0	324534272	65	5079
2026-01-10 00:54:48.98	39.42	30.47	-47.1	-49.9	22.9	6.03e-01	0	44	0	327155712	65	5075
2026-01-10 00:54:49.70	39.57	30.61	-47.1	-49.9	22.9	6.05e-01	0	44	0	328728576	65	5075
2026-01-10 00:54:50.99	39.84	30.86	-47.2	-50.0	22.9	6.04e-01	0	44	0	330825728	65	5120
2026-01-10 00:54:51.70	39.99	31.00	-47.2	-50.0	22.8	6.03e-01	0	44	0	332398592	65	5151
2026-01-10 00:54:52.99	40.26	31.26	-47.2	-50.1	22.7	6.04e-01	0	44	0	334495744	65	5202
2026-01-10 00:54:53.71	40.42	31.40	-47.3	-50.2	22.6	6.02e-01	0	44	0	336068608	65	5272
2026-01-10 00:54:55.00	40.70	31.66	-47.2	-50.1	22.7	6.04e-01	0	44	0	338690048	65	5213
2026-01-10 00:54:55.71	40.85	31.81	-47.3	-50.1	22.7	6.04e-01	0	44	0	339738624	65	5205
2026-01-10 00:54:57.08	41.16	32.08	-47.3	-50.1	22.8	6.04e-01	0	44	0	342360064	65	5182
2026-01-10 00:54:57.80	41.32	32.23	-47.2	-50.0	22.8	6.06e-01	0	44	0	343932928	65	5155
2026-01-10 00:54:59.15	41.64	32.51	-47.4	-50.2	22.6	6.03e-01	0	44	0	346554368	65	5276
2026-01-10 00:54:59.87	41.80	32.65	-47.5	-50.4	22.5	6.04e-01	0	44	0	347602944	65	5348
2026-01-10 00:55:01.16	42.11	32.92	-47.4	-50.4	22.5	6.03e-01	0	44	0	350224384	65	5341
2026-01-10 00:55:02.22	42.36	33.14	-47.4	-50.4	22.5	6.02e-01	0	44	0	352321536	65	5352
2026-01-10 00:55:03.11	42.58	33.33	-47.4	-50.5	22.4	6.07e-01	0	44	0	353894400	65	5405
2026-01-10 00:55:04.25	42.86	33.57	-47.5	-50.5	22.4	6.04e-01	0	44	0	355991552	65	5444
2026-01-10 00:55:05.11	43.07	33.75	-47.5	-50.5	22.4	6.06e-01	0	44	0	357564416	65	5451
2026-01-10 00:55:06.30	43.37	34.00	-47.6	-50.6	22.3	6.05e-01	0	44	0	359661568	65	5504
2026-01-10 00:55:07.16	43.59	34.18	-47.7	-50.8	22.2	6.05e-01	0	44	0	361234432	66	5293
2026-01-10 00:55:08.31	43.89	34.43	-47.8	-50.9	22.1	6.05e-01	0	44	0	363331584	66	5359
2026-01-10 00:55:09.17	44.12	34.61	-47.7	-50.7	22.2	6.05e-01	0	44	0	364904448	66	5268
2026-01-10 00:55:10.31	44.42	34.86	-47.9	-51.1	21.9	6.04e-01	0	44	0	367001600	66	5507
2026-01-10 00:55:11.18	44.65	35.05	-47.9	-51.0	22.0	6.06e-01	0	44	0	369098752	66	5431
2026-01-10 00:55:12.32	44.97	35.30	-48.0	-51.1	21.9	6.03e-01	0	44	0	371195904	66	5470
2026-01-10 00:55:13.18	45.20	35.49	-48.1	-51.1	21.9	6.06e-01	0	44	0	372768768	66	5517
2026-01-10 00:55:14.33	45.53	35.74	-48.1	-51.1	21.8	6.06e-01	0	44	0	374865920	66	5521
2026-01-10 00:55:15.19	45.77	35.93	-48.0	-51.1	21.8	6.04e-01	0	44	0	376438784	66	5527
2026-01-10 00:55:16.34	46.11	36.18	-48.0	-51.3	21.7	6.05e-01	0	44	0	378535936	66	5601
2026-01-10 00:55:17.20	46.36	36.37	-47.8	-51.2	21.8	6.06e-01	0	44	0	380108800	66	5575
2026-01-10 00:55:18.34	46.70	36.63	-47.9	-51.2	21.7	6.03e-01	0	44	0	382205952	66	5576
2026-01-10 00:55:19.21	46.96	36.82	-48.1	-51.4	21.6	6.06e-01	0	44	0	383778816	66	5678
2026-01-10 00:55:20.37	47.31	37.08	-48.2	-51.4	21.6	6.04e-01	0	44	0	385875968	67	5366
2026-01-10 00:55:21.23	47.58	37.27	-48.1	-51.2	21.8	6.04e-01	0	44	0	387448832	67	5219
2026-01-10 00:55:22.38	47.94	37.53	-48.1	-51.1	21.9	6.06e-01	0	44	0	390070272	67	5210
2026-01-10 00:55:23.24	48.21	37.73	-48.2	-51.3	21.8	6.04e-01	0	44	0	391643136	67	5282
2026-01-10 00:55:24.53	48.63	38.02	-48.1	-51.2	21.8	6.04e-01	0	44	0	393740288	67	5241
2026-01-10 00:55:25.24	48.86	38.18	-48.1	-51.2	21.8	6.03e-01	0	44	0	395313152	67	5261
2026-01-10 00:55:26.74	49.36	38.53	-48.1	-51.2	21.8	6.03e-01	0	44	0	397934592	67	5256
2026-01-10 00:55:27.46	49.61	38.69	-48.2	-51.3	21.8	6.04e-01	0	44	0	399507456	67	5298
2026-01-10 00:55:28.75	50.05	38.99	-48.2	-51.4	21.7	6.02e-01	0	44	0	401604608	67	5343
2026-01-10 00:55:29.46	50.30	39.15	-48.2	-51.3	21.7	6.04e-01	0	44	0	403177472	67	5329
2026-01-10 00:55:30.76	50.76	39.45	-48.2	-51.3	21.6	6.03e-01	0	44	0	405798912	67	5340
2026-01-10 00:55:31.47	51.01	39.62	-48.2	-51.3	21.7	6.05e-01	0	44	0	406847488	67	5333
2026-01-10 00:55:32.76	51.48	39.92	-48.2	-51.3	21.7	6.05e-01	0	44	0	409468928	67	5302
2026-01-10 00:55:33.48	51.75	40.08	-48.1	-51.1	21.9	6.05e-01	0	44	0	410517504	67	5217
2026-01-10 00:55:34.77	52.23	40.38	-48.1	-51.2	21.8	6.03e-01	0	44	0	413138944	67	5274
2026-01-10 00:55:35.48	52.50	40.55	-48.0	-51.1	21.9	6.05e-01	0	44	0	414187520	67	5186
2026-01-10 00:55:36.77	53.00	40.85	-47.9	-50.9	22.1	6.03e-01	0	44	0	416808960	67	5077
2026-01-10 00:55:37.49	53.28	41.02	-47.7	-50.6	22.4	6.05e-01	0	44	0	418381824	67	4903
2026-01-10 00:55:38.78	53.79	41.32	-47.5	-50.3	22.7	6.03e-01	0	44	0	420478976	66	5012
2026-01-10 00:55:39.50	54.08	41.48	-47.6	-50.5	22.5	6.05e-01	0	44	0	422051840	66	5127
2026-01-10 00:55:40.79	54.61	41.79	-47.3	-50.0	22.9	6.03e-01	0	44	0	424148992	66	4860
2026-01-10 00:55:41.51	54.91	41.95	-47.4	-50.1	22.8	6.05e-01	0	44	0	425721856	66	4925
2026-01-10 00:55:42.80	55.45	42.25	-47.2	-49.9	23.0	6.03e-01	0	44	0	428343296	66	4780
2026-01-10 00:55:43.51	55.75	42.42	-47.0	-49.7	23.2	6.04e-01	0	44	0	429391872	66	4679
2026-01-10 00:55:44.80	56.31	42.72	-46.9	-49.6	23.3	6.02e-01	0	44	0	432013312	65	4888
2026-01-10 00:55:45.52	56.63	42.89	-46.9	-49.5	23.4	6.03e-01	0	44	0	433061888	65	4842
2026-01-10 00:55:46.81	57.20	43.19	-46.9	-49.6	23.2	6.03e-01	0	44	0	435683328	65	4904
2026-01-10 00:55:47.53	57.53	43.35	-46.8	-49.5	23.4	6.02e-01	0	44	0	437256192	65	4851
2026-01-10 00:55:48.82	58.12	43.65	-46.7	-49.4	23.5	6.04e-01	0	44	0	439353344	65	4791
2026-01-10 00:55:49.54	58.46	43.82	-46.7	-49.4	23.6	6.05e-01	0	44	0	440926208	65	4762
2026-01-10 00:55:50.82	59.06	44.11	-46.7	-49.3	23.7	6.04e-01	0	44	0	443023360	65	4715
2026-01-10 00:55:51.69	59.48	44.31	-46.9	-49.5	23.4	6.06e-01	0	44	0	444596224	65	4824
2026-01-10 00:55:53.15	60.19	44.65	-46.7	-49.3	23.6	6.04e-01	0	44	0	447741952	65	4715
2026-01-10 00:55:53.87	60.55	44.81	-46.7	-49.3	23.6	6.05e-01	0	44	0	448790528	65	4744
2026-01-10 00:55:55.16	61.20	45.10	-46.7	-49.3	23.7	6.02e-01	0	44	0	451411968	65	4710
2026-01-10 00:55:55.88	61.57	45.26	-46.8	-49.4	23.6	6.04e-01	0	44	0	452460544	65	4767
2026-01-10 00:55:57.16	62.23	45.55	-46.7	-49.3	23.7	6.04e-01	0	44	0	455081984	65	4716
2026-01-10 00:55:57.96	62.65	45.73	-46.7	-49.3	23.7	6.05e-01	0	44	0	456654848	65	4730
2026-01-10 00:55:59.11	63.26	45.99	-46.8	-49.4	23.5	6.05e-01	0	44	0	458752000	65	4779
2026-01-10 00:56:00.20	63.86	46.23	-46.8	-49.4	23.5	6.05e-01	0	44	0	460849152	65	4795
2026-01-10 00:56:01.24	64.43	46.45	-46.9	-49.5	23.5	6.03e-01	0	44	0	462946304	65	4828
2026-01-10 00:56:02.24	64.98	46.67	-47.0	-49.6	23.3	6.05e-01	0	44	0	464519168	65	4915
2026-01-10 00:56:03.45	65.67	46.93	-46.7	-49.4	23.6	6.05e-01	0	44	0	466616320	65	4764
2026-01-10 00:56:04.34	66.18	47.12	-46.9	-49.7	23.3	6.03e-01	0	44	0	468713472	65	4935
2026-01-10 00:56:05.40	66.80	47.34	-46.9	-49.5	23.4	6.04e-01	0	44	0	470286336	65	4868
2026-01-10 00:56:06.26	67.31	47.52	-46.8	-49.4	23.6	6.05e-01	0	44	0	472383488	65	4770
2026-01-10 00:56:07.40	67.99	47.76	-47.0	-49.6	23.4	6.04e-01	0	44	0	474480640	65	4903
2026-01-10 00:56:08.26	68.51	47.94	-46.8	-49.4	23.5	6.04e-01	0	44	0	476053504	65	4789
2026-01-10 00:56:09.41	69.22	48.17	-46.9	-49.6	23.4	6.03e-01	0	44	0	478150656	65	4876
2026-01-10 00:56:10.27	69.75	48.34	-47.0	-49.7	23.2	6.05e-01	0	44	0	479723520	65	4978
2026-01-10 00:56:11.41	70.47	48.57	-47.1	-49.8	23.2	6.03e-01	0	44	0	481820672	65	5028
2026-01-10 00:56:12.27	71.02	48.73	-46.9	-49.6	23.4	6.05e-01	0	44	0	483393536	65	4891
2026-01-10 00:56:13.42	71.76	48.95	-47.0	-49.7	23.2	6.05e-01	0	44	0	485490688	65	4982
2026-01-10 00:56:14.28	72.33	49.12	-46.8	-49.5	23.4	6.05e-01	0	44	0	487063552	65	4863
2026-01-10 00:56:15.43	73.09	49.33	-46.9	-49.7	23.3	6.04e-01	0	44	0	489160704	65	4927
2026-01-10 00:56:16.30	73.67	49.49	-47.1	-49.8	23.2	6.05e-01	0	44	0	491257856	65	5025
2026-01-10 00:56:17.63	74.58	49.72	-46.9	-49.6	23.3	6.02e-01	0	44	0	493355008	65	4918
2026-01-10 00:56:18.34	75.07	49.85	-46.9	-49.6	23.3	6.03e-01	0	44	0	494927872	65	4914
2026-01-10 00:56:19.63	75.96	50.07	-47.2	-49.9	23.0	6.04e-01	0	44	0	497025024	65	5100
2026-01-10 00:56:20.35	76.47	50.19	-47.0	-49.7	23.2	6.01e-01	0	44	0	498597888	65	4950
2026-01-10 00:56:21.64	77.39	50.40	-47.1	-49.8	23.1	6.03e-01	0	44	0	500695040	65	5038
2026-01-10 00:56:22.36	77.91	50.52	-47.1	-49.9	23.0	6.05e-01	0	44	0	502267904	65	5092
2026-01-10 00:56:23.65	78.84	50.72	-47.2	-50.0	22.9	6.03e-01	0	44	0	504889344	65	5143
2026-01-10 00:56:24.36	79.37	50.82	-46.9	-49.6	23.3	6.03e-01	0	44	0	505937920	65	4906
2026-01-10 00:56:25.65	80.32	51.01	-47.2	-50.0	22.9	6.04e-01	0	44	0	508559360	65	5108
2026-01-10 00:56:26.56	81.01	51.14	-47.1	-49.9	23.1	6.06e-01	0	44	0	510132224	65	5048
2026-01-10 00:56:27.57	81.77	51.28	-47.0	-49.8	23.1	6.03e-01	0	44	0	512229376	65	5024
2026-01-10 00:56:28.58	82.54	51.41	-46.9	-49.7	23.3	6.04e-01	0	44	0	513802240	65	4941
2026-01-10 00:56:29.58	83.31	51.54	-47.3	-50.3	22.7	6.05e-01	0	44	0	515899392	65	5313
2026-01-10 00:56:30.98	84.40	51.71	-47.0	-49.9	23.0	6.05e-01	0	44	0	518520832	65	5096
2026-01-10 00:56:31.70	84.97	51.80	-47.0	-49.9	23.1	6.04e-01	0	44	0	520093696	65	5091
2026-01-10 00:56:32.99	85.99	51.94	-47.3	-50.3	22.7	6.03e-01	0	44	0	522190848	65	5296
2026-01-10 00:56:33.71	86.56	52.01	-47.0	-49.8	23.1	6.03e-01	0	44	0	523763712	65	5039
2026-01-10 00:56:35.00	87.60	52.14	-47.0	-49.9	23.1	6.04e-01	0	44	0	525860864	65	5053
2026-01-10 00:56:35.71	88.17	52.21	-47.1	-50.0	23.1	6.03e-01	0	44	0	527433728	65	5102
2026-01-10 00:56:37.00	89.22	52.33	-47.2	-50.1	22.9	6.04e-01	0	44	0	530055168	65	5196
2026-01-10 00:56:37.72	89.81	52.39	-47.1	-50.0	22.9	6.05e-01	0	44	0	531103744	65	5145
2026-01-10 00:56:39.12	90.96	52.49	-47.3	-50.2	22.8	6.05e-01	0	44	0	533725184	65	5245
2026-01-10 00:56:39.84	91.56	52.55	-47.5	-50.4	22.7	6.03e-01	0	44	0	535298048	65	5349
2026-01-10 00:56:41.20	92.69	52.63	-47.5	-50.2	22.7	6.01e-01	0	44	0	537395200	65	5265
2026-01-10 00:56:41.91	93.28	52.68	-47.3	-50.2	22.8	6.05e-01	0	44	0	538968064	65	5248
2026-01-10 00:56:43.28	94.43	52.75	-47.4	-50.4	22.5	6.04e-01	0	44	0	541589504	65	5378
2026-01-10 00:56:44.00	95.03	52.78	-47.3	-50.2	22.7	6.04e-01	0	44	0	542638080	65	5271
2026-01-10 00:56:45.29	96.12	52.83	-47.6	-50.5	22.6	6.04e-01	0	44	0	545259520	65	5403
2026-01-10 00:56:46.00	96.72	52.86	-47.5	-50.3	22.8	6.04e-01	0	44	0	546832384	65	5285
2026-01-10 00:56:47.29	97.81	52.89	-47.5	-50.3	22.7	6.03e-01	0	44	0	548929536	65	5326
2026-01-10 00:56:48.01	98.43	52.91	-47.5	-50.4	22.6	6.02e-01	0	44	0	550502400	65	5352
2026-01-10 00:56:49.29	99.51	52.92	-47.4	-50.2	22.8	6.04e-01	0	44	0	552599552	65	5246
2026-01-10 00:56:50.01	100.13	52.93	-47.3	-50.1	22.9	6.05e-01	0	44	0	554172416	65	5165
2026-01-10 00:56:51.30	101.22	52.93	-47.4	-50.3	22.7	6.04e-01	0	44	0	556793856	65	5291
2026-01-10 00:56:52.02	101.84	52.93	-47.5	-50.2	22.8	6.03e-01	0	44	0	557842432	65	5270
2026-01-10 00:56:53.31	102.93	52.92	-47.5	-50.3	22.6	6.08e-01	0	44	0	560463872	65	5309
2026-01-10 00:56:54.03	103.55	52.90	-47.4	-50.2	22.9	6.05e-01	0	44	0	561512448	65	5220
2026-01-10 00:56:55.32	104.64	52.87	-47.7	-50.6	22.5	6.04e-01	0	44	0	564133888	66	5198
2026-01-10 00:56:56.03	105.24	52.85	-47.5	-50.4	22.7	6.07e-01	0	44	0	565706752	66	5051
2026-01-10 00:56:57.32	106.33	52.81	-47.7	-50.8	22.3	6.03e-01	0	44	0	567803904	66	5296
2026-01-10 00:56:58.04	106.94	52.78	-47.7	-50.7	22.4	6.04e-01	0	44	0	569376768	66	5250
2026-01-10 00:56:59.33	108.02	52.71	-47.8	-50.6	22.5	6.02e-01	0	44	0	571473920	66	5210
2026-01-10 00:57:00.04	108.62	52.68	-47.8	-50.8	22.3	6.03e-01	0	44	0	573046784	66	5294
2026-01-10 00:57:01.33	109.70	52.60	-48.0	-50.9	22.2	6.04e-01	0	44	0	575143936	66	5376
2026-01-10 00:57:02.05	110.29	52.55	-47.7	-50.6	22.5	6.03e-01	0	44	0	576716800	66	5197
2026-01-10 00:57:03.34	111.36	52.46	-47.5	-50.2	22.9	6.03e-01	0	44	0	579338240	66	4965
2026-01-10 00:57:04.06	111.95	52.40	-47.8	-50.6	22.4	6.06e-01	0	44	0	580386816	66	5196
2026-01-10 00:57:05.35	113.01	52.29	-47.7	-50.5	22.6	6.03e-01	0	44	0	583008256	66	5124
2026-01-10 00:57:06.16	113.67	52.22	-47.6	-50.4	22.6	6.03e-01	0	44	0	584581120	66	5068
2026-01-10 00:57:07.62	114.84	52.08	-47.7	-50.6	22.5	6.03e-01	0	44	0	587202560	66	5189
2026-01-10 00:57:08.34	115.42	52.00	-47.7	-50.7	22.4	6.04e-01	0	44	0	588251136	66	5247
2026-01-10 00:57:09.63	116.45	51.86	-47.6	-50.4	22.6	6.05e-01	0	44	0	590872576	66	5082
2026-01-10 00:57:10.35	117.02	51.78	-47.6	-50.5	22.6	6.00e-01	0	44	0	592445440	66	5107
2026-01-10 00:57:11.64	118.03	51.63	-47.2	-50.0	23.1	6.04e-01	0	44	0	594542592	66	4859
2026-01-10 00:57:12.36	118.59	51.54	-47.7	-50.6	22.5	6.05e-01	0	44	0	596115456	66	5191
2026-01-10 00:57:13.65	119.58	51.37	-47.9	-50.7	22.3	6.05e-01	0	44	0	598212608	66	5266
2026-01-10 00:57:14.51	120.24	51.26	-47.8	-50.6	22.5	6.05e-01	0	44	0	600309760	66	5184
2026-01-10 00:57:15.65	121.10	51.10	-47.7	-50.6	22.5	6.05e-01	0	44	0	602406912	66	5170
2026-01-10 00:57:16.72	121.90	50.95	-47.7	-50.6	22.4	6.04e-01	0	44	0	604504064	66	5198
2026-01-10 00:57:17.58	122.54	50.82	-47.8	-50.8	22.3	6.03e-01	0	44	0	606076928	66	5283
2026-01-10 00:57:18.73	123.38	50.64	-47.7	-50.9	22.2	6.03e-01	0	44	0	608174080	66	5360
2026-01-10 00:57:19.83	124.18	50.47	-47.5	-50.6	22.5	6.04e-01	0	44	0	610271232	66	5174
2026-01-10 00:57:20.86	124.92	50.31	-47.8	-50.8	22.3	6.05e-01	0	44	0	611844096	66	5316
2026-01-10 00:57:21.86	125.63	50.14	-48.0	-51.0	22.1	6.03e-01	0	44	0	613941248	66	5408
2026-01-10 00:57:22.86	126.33	49.97	-48.0	-51.0	22.1	6.06e-01	0	44	0	616038400	66	5424
2026-01-10 00:57:23.87	127.03	49.80	-47.8	-50.6	22.4	6.03e-01	0	44	0	617611264	66	5213
2026-01-10 00:57:24.87	127.72	49.62	-47.8	-50.7	22.3	6.03e-01	0	44	0	619708416	66	5279
2026-01-10 00:57:25.87	128.40	49.44	-47.9	-50.9	22.2	6.02e-01	0	44	0	621281280	66	5354
2026-01-10 00:57:26.88	129.08	49.25	-47.8	-50.7	22.3	6.03e-01	0	44	0	623378432	66	5265
2026-01-10 00:57:27.88	129.74	49.07	-48.0	-50.9	22.2	6.04e-01	0	44	0	624951296	66	5376
2026-01-10 00:57:28.88	130.39	48.88	-47.8	-50.7	22.3	6.02e-01	0	44	0	627048448	66	5259
2026-01-10 00:57:29.89	131.04	48.68	-47.9	-50.8	22.2	6.03e-01	0	44	0	629145600	66	5309
2026-01-10 00:57:30.90	131.69	48.48	-47.6	-50.5	22.5	6.03e-01	0	44	0	630718464	66	5143
2026-01-10 00:57:31.91	132.32	48.28	-47.7	-50.6	22.4	6.04e-01	0	44	0	632815616	66	5213
2026-01-10 00:57:32.99	132.99	48.06	-48.0	-51.1	22.0	6.06e-01	0	44	0	634912768	66	5474
2026-01-10 00:57:33.85	133.52	47.89	-47.8	-50.7	22.3	6.06e-01	0	44	0	636485632	66	5248
2026-01-10 00:57:35.00	134.22	47.65	-47.7	-50.5	22.5	6.04e-01	0	44	0	638582784	66	5151
2026-01-10 00:57:35.86	134.73	47.47	-47.9	-50.9	22.2	6.03e-01	0	44	0	640155648	66	5351
2026-01-10 00:57:37.00	135.40	47.23	-47.9	-50.8	22.2	6.01e-01	0	44	0	642252800	66	5333
2026-01-10 00:57:37.86	135.90	47.05	-47.7	-50.6	22.4	6.04e-01	0	44	0	643825664	66	5216
2026-01-10 00:57:39.01	136.56	46.80	-47.6	-50.5	22.6	6.02e-01	0	44	0	645922816	66	5128
2026-01-10 00:57:39.87	137.04	46.62	-47.8	-50.6	22.4	6.04e-01	0	44	0	647495680	66	5212
2026-01-10 00:57:41.02	137.69	46.36	-47.9	-50.8	22.2	6.04e-01	0	44	0	649592832	66	5336
2026-01-10 00:57:41.88	138.16	46.18	-47.7	-50.6	22.4	6.06e-01	0	44	0	651165696	66	5189
2026-01-10 00:57:43.02	138.78	45.92	-47.6	-50.6	22.5	6.04e-01	0	44	0	653787136	66	5160
2026-01-10 00:57:43.88	139.24	45.73	-47.9	-51.0	22.1	6.03e-01	0	44	0	655360000	66	5405
2026-01-10 00:57:45.03	139.84	45.47	-47.8	-50.7	22.3	6.03e-01	0	44	0	657457152	66	5257
2026-01-10 00:57:45.89	140.29	45.28	-47.8	-50.7	22.3	6.03e-01	0	44	0	659030016	66	5279
2026-01-10 00:57:47.04	140.88	45.02	-48.0	-51.0	22.1	6.04e-01	0	44	0	661127168	66	5462
2026-01-10 00:57:47.90	141.31	44.82	-48.0	-50.9	22.2	6.03e-01	0	44	0	662700032	66	5390
2026-01-10 00:57:49.04	141.88	44.56	-47.6	-50.4	22.6	6.06e-01	0	44	0	664797184	66	5083
2026-01-10 00:57:49.90	142.30	44.36	-47.4	-50.3	22.8	6.03e-01	0	44	0	666370048	66	5016
2026-01-10 00:57:51.05	142.85	44.10	-47.6	-50.6	22.4	6.06e-01	0	44	0	668467200	66	5213
2026-01-10 00:57:51.91	143.26	43.90	-47.5	-50.5	22.6	6.04e-01	0	44	0	670040064	66	5136
2026-01-10 00:57:53.05	143.80	43.64	-47.5	-50.4	22.7	6.03e-01	0	44	0	672137216	66	5055
2026-01-10 00:57:53.91	144.19	43.44	-47.7	-50.5	22.5	6.04e-01	0	44	0	674234368	66	5143
2026-01-10 00:57:55.05	144.71	43.17	-47.8	-50.7	22.4	6.03e-01	0	44	0	676331520	66	5238
2026-01-10 00:57:55.91	145.10	42.97	-47.7	-50.6	22.5	6.03e-01	0	44	0	677904384	66	5183
2026-01-10 00:57:57.09	145.62	42.70	-47.7	-50.5	22.5	6.02e-01	0	44	0	680001536	66	5149
2026-01-10 00:57:57.95	146.00	42.49	-47.8	-50.7	22.3	6.04e-01	0	44	0	681574400	66	5272
2026-01-10 00:57:59.13	146.50	42.22	-47.9	-50.8	22.3	6.06e-01	0	44	0	683671552	66	5292
2026-01-10 00:58:00.39	147.03	41.92	-47.8	-50.7	22.3	6.01e-01	0	44	0	686292992	66	5277
2026-01-10 00:58:01.15	147.35	41.74	-47.8	-50.7	22.3	6.05e-01	0	44	0	687341568	66	5261
2026-01-10 00:58:02.44	147.88	41.44	-47.8	-50.7	22.4	6.02e-01	0	44	0	689963008	66	5230
2026-01-10 00:58:03.16	148.17	41.27	-48.0	-51.0	22.0	6.04e-01	0	44	0	691535872	66	5445
2026-01-10 00:58:04.47	148.69	40.97	-48.1	-51.2	21.8	6.05e-01	0	44	0	693633024	66	5577
2026-01-10 00:58:05.18	148.97	40.80	-48.0	-51.1	22.0	6.03e-01	0	44	0	695205888	66	5495
2026-01-10 00:58:06.54	149.49	40.48	-48.1	-51.1	21.9	6.03e-01	0	44	0	697827328	67	5187
2026-01-10 00:58:07.25	149.76	40.32	-47.9	-50.8	22.2	6.04e-01	0	44	0	698875904	67	5017
2026-01-10 00:58:08.54	150.25	40.01	-47.7	-50.6	22.5	6.03e-01	0	44	0	701497344	67	4881
2026-01-10 00:58:09.26	150.51	39.85	-47.8	-50.7	22.4	6.04e-01	0	44	0	702545920	67	4972
2026-01-10 00:58:10.66	151.02	39.52	-48.0	-51.0	22.1	6.05e-01	0	44	0	705167360	67	5104
2026-01-10 00:58:11.67	151.38	39.29	-48.2	-51.3	21.8	6.02e-01	0	44	0	707264512	67	5302
2026-01-10 00:58:12.97	151.84	38.99	-48.2	-51.2	21.8	5.99e-01	0	44	0	709885952	67	5275
2026-01-10 00:58:13.69	152.09	38.82	-48.1	-51.1	22.0	6.03e-01	0	44	0	710934528	67	5161
2026-01-10 00:58:14.98	152.53	38.52	-48.0	-50.9	22.1	6.05e-01	0	44	0	713555968	67	5099
2026-01-10 00:58:15.69	152.77	38.36	-48.1	-51.1	22.0	6.06e-01	0	44	0	714604544	67	5169
2026-01-10 00:58:16.99	153.20	38.06	-47.9	-50.8	22.3	6.06e-01	0	44	0	717225984	67	5021
2026-01-10 00:58:17.70	153.43	37.90	-47.9	-50.8	22.2	6.02e-01	0	44	0	718798848	67	5034
2026-01-10 00:58:18.99	153.85	37.60	-47.8	-50.8	22.3	6.04e-01	0	44	0	720896000	67	4986
2026-01-10 00:58:19.71	154.08	37.44	-47.8	-50.8	22.3	6.04e-01	0	44	0	722468864	67	4997
2026-01-10 00:58:21.17	154.53	37.11	-47.7	-50.7	22.3	6.04e-01	0	44	0	725090304	67	4934
2026-01-10 00:58:22.18	154.84	36.88	-47.8	-50.7	22.3	6.02e-01	0	44	0	727187456	67	4942
2026-01-10 00:58:23.50	155.24	36.58	-47.5	-50.4	22.6	6.04e-01	0	44	0	729284608	66	5055
2026-01-10 00:58:24.21	155.46	36.42	-47.8	-50.7	22.3	6.05e-01	0	44	0	730857472	66	5223
2026-01-10 00:58:25.85	155.94	36.06	-47.7	-50.6	22.5	6.05e-01	0	44	0	734003200	66	5165
2026-01-10 00:58:26.42	156.10	35.93	-47.6	-50.5	22.5	6.05e-01	0	44	0	735051776	66	5112
2026-01-10 00:58:28.01	156.56	35.58	-47.4	-50.2	22.9	6.05e-01	0	44	0	738197504	66	4943
2026-01-10 00:58:28.59	156.72	35.45	-47.3	-50.1	22.8	6.07e-01	0	44	0	738721792	66	4921
2026-01-10 00:58:30.17	157.16	35.10	-46.9	-49.7	23.2	6.03e-01	0	44	0	741867520	65	4981
2026-01-10 00:58:30.75	157.32	34.98	-46.9	-49.8	23.1	6.04e-01	0	44	0	742916096	65	5016
2026-01-10 00:58:32.38	157.75	34.62	-46.8	-49.5	23.4	6.04e-01	0	44	0	746061824	65	4860
2026-01-10 00:58:32.95	157.91	34.50	-46.9	-49.7	23.3	6.01e-01	0	44	0	747110400	65	4953
2026-01-10 00:58:34.55	158.32	34.15	-46.6	-49.3	23.6	6.05e-01	0	44	0	750256128	65	4725
2026-01-10 00:58:35.12	158.47	34.03	-46.7	-49.3	23.6	6.05e-01	0	44	0	751304704	65	4754
2026-01-10 00:58:36.70	158.87	33.69	-46.6	-49.2	23.7	6.05e-01	0	44	0	753926144	65	4696
2026-01-10 00:58:37.65	159.11	33.49	-46.7	-49.3	23.6	6.04e-01	0	44	0	756023296	65	4747
2026-01-10 00:58:39.04	159.45	33.20	-46.7	-49.4	23.6	6.05e-01	0	44	0	758644736	65	4784
2026-01-10 00:58:39.75	159.62	33.05	-46.6	-49.3	23.7	6.04e-01	0	44	0	760217600	65	4707
2026-01-10 00:58:41.04	159.93	32.78	-46.6	-49.3	23.6	6.05e-01	0	44	0	762314752	65	4736
2026-01-10 00:58:41.76	160.10	32.63	-46.4	-49.1	23.8	6.02e-01	0	44	0	763887616	64	4882
2026-01-10 00:58:43.05	160.40	32.36	-46.3	-49.0	23.9	6.03e-01	0	44	0	765984768	64	4824
2026-01-10 00:58:43.76	160.56	32.22	-46.2	-48.9	23.9	6.06e-01	0	44	0	767557632	64	4796
2026-01-10 00:58:45.06	160.86	31.95	-46.3	-49.0	23.9	6.05e-01	0	44	0	769654784	64	4820
2026-01-10 00:58:45.77	161.02	31.81	-46.4	-49.0	23.9	6.07e-01	0	44	0	771227648	64	4832
2026-01-10 00:58:47.06	161.31	31.54	-46.5	-49.1	23.8	6.04e-01	0	44	0	773849088	64	4889
2026-01-10 00:58:47.78	161.46	31.40	-46.5	-49.1	23.8	6.06e-01	0	44	0	774897664	64	4892
2026-01-10 00:58:49.07	161.74	31.14	-46.5	-49.1	23.8	6.03e-01	0	44	0	777519104	64	4912
2026-01-10 00:58:49.78	161.89	31.00	-46.6	-49.3	23.6	6.01e-01	0	44	0	778567680	64	5000
2026-01-10 00:58:51.08	162.17	30.74	-46.5	-49.1	23.8	6.03e-01	0	44	0	781189120	64	4889
2026-01-10 00:58:51.87	162.33	30.58	-46.4	-49.0	23.9	6.04e-01	0	44	0	782761984	64	4829
2026-01-10 00:58:53.02	162.57	30.36	-46.5	-49.0	23.9	6.04e-01	0	44	0	784859136	64	4869
2026-01-10 00:58:53.88	162.74	30.19	-46.5	-49.1	23.8	6.04e-01	0	44	0	786432000	64	4883
2026-01-10 00:58:55.02	162.97	29.97	-46.5	-49.1	23.8	6.04e-01	0	44	0	788529152	64	4882
2026-01-10 00:58:55.89	163.14	29.80	-46.5	-49.1	23.8	6.05e-01	0	44	0	790102016	64	4892
2026-01-10 00:58:57.03	163.37	29.58	-46.5	-49.2	23.7	6.04e-01	0	44	0	792199168	64	4944
2026-01-10 00:58:57.89	163.53	29.42	-46.7	-49.4	23.4	6.03e-01	0	44	0	793772032	64	5090
2026-01-10 00:58:59.04	163.75	29.20	-46.5	-49.1	23.8	6.03e-01	0	44	0	795869184	64	4913
2026-01-10 00:58:59.90	163.91	29.04	-46.5	-49.2	23.7	6.04e-01	0	44	0	797442048	64	4933
2026-01-10 00:59:01.04	164.13	28.82	-46.6	-49.2	23.6	6.03e-01	0	44	0	800063488	64	4953
2026-01-10 00:59:01.90	164.29	28.66	-46.6	-49.2	23.7	6.01e-01	0	44	0	801636352	64	4931
2026-01-10 00:59:03.05	164.50	28.45	-46.6	-49.2	23.7	6.06e-01	0	44	0	803733504	64	4948
2026-01-10 00:59:03.91	164.65	28.29	-46.6	-49.2	23.6	6.03e-01	0	44	0	805306368	64	4978
2026-01-10 00:59:05.06	164.85	28.08	-46.5	-49.1	23.7	6.08e-01	0	44	0	807403520	64	4906
2026-01-10 00:59:05.92	165.01	27.92	-46.5	-49.1	23.7	6.03e-01	0	44	0	808976384	64	4921
2026-01-10 00:59:07.06	165.20	27.71	-46.6	-49.2	23.6	6.02e-01	0	44	0	811073536	64	4977
2026-01-10 00:59:08.22	165.40	27.50	-46.7	-49.4	23.5	6.02e-01	0	44	0	813170688	64	5087
2026-01-10 00:59:09.08	165.55	27.35	-46.8	-49.4	23.4	6.03e-01	0	44	0	814743552	64	5096
2026-01-10 00:59:10.59	165.80	27.08	-47.0	-49.6	23.2	6.02e-01	0	44	0	817889280	64	5209
2026-01-10 00:59:11.31	165.92	26.95	-47.0	-49.7	23.2	6.05e-01	0	44	0	818937856	64	5250
2026-01-10 00:59:12.60	166.13	26.72	-47.1	-49.8	23.2	6.05e-01	0	44	0	821559296	64	5295
2026-01-10 00:59:13.32	166.25	26.60	-47.1	-49.8	23.0	6.05e-01	0	44	0	823132160	64	5340
2026-01-10 00:59:14.61	166.45	26.37	-47.1	-49.8	23.1	6.05e-01	0	44	0	825229312	64	5324
2026-01-10 00:59:15.33	166.57	26.25	-47.0	-49.8	23.1	6.05e-01	0	44	0	826802176	64	5323
2026-01-10 00:59:16.62	166.77	26.02	-47.0	-49.8	23.1	6.05e-01	0	44	0	828899328	64	5319
2026-01-10 00:59:17.33	166.88	25.90	-46.9	-49.7	23.1	6.03e-01	0	44	0	830472192	64	5254
2026-01-10 00:59:18.62	167.08	25.68	-46.9	-49.7	23.3	6.03e-01	0	44	0	832569344	64	5222
2026-01-10 00:59:19.50	167.21	25.53	-46.8	-49.6	23.3	6.03e-01	0	44	0	834666496	64	5209
2026-01-10 00:59:20.64	167.38	25.34	-46.9	-49.6	23.3	6.05e-01	0	44	0	836763648	64	5209
2026-01-10 00:59:21.71	167.54	25.16	-46.9	-49.8	23.1	6.06e-01	0	44	0	838860800	64	5283
2026-01-10 00:59:22.75	167.69	24.99	-47.1	-50.0	23.0	6.05e-01	0	44	0	840433664	64	5405
2026-01-10 00:59:23.74	167.83	24.83	-47.0	-49.9	22.9	6.02e-01	0	44	0	842530816	64	5401
2026-01-10 00:59:24.94	168.00	24.63	-47.0	-50.0	22.9	6.05e-01	0	44	0	844627968	64	5434
2026-01-10 00:59:25.80	168.13	24.49	-47.1	-50.0	22.9	6.06e-01	0	44	0	846200832	64	5464
2026-01-10 00:59:26.95	168.29	24.30	-47.0	-50.0	22.9	6.01e-01	0	44	0	848297984	64	5426
2026-01-10 00:59:27.81	168.41	24.16	-47.1	-50.1	22.8	6.02e-01	0	44	0	849870848	64	5483
2026-01-10 00:59:28.95	168.56	23.98	-47.1	-50.1	22.8	6.02e-01	0	44	0	851968000	64	5511
2026-01-10 00:59:29.81	168.68	23.84	-47.2	-50.2	22.7	6.04e-01	0	44	0	854065152	65	5221
2026-01-10 00:59:30.96	168.83	23.66	-47.2	-50.2	22.7	6.04e-01	0	44	0	856162304	65	5220
2026-01-10 00:59:31.82	168.95	23.52	-47.2	-50.1	22.8	6.05e-01	0	44	0	857735168	65	5169
2026-01-10 00:59:32.96	169.10	23.34	-47.2	-50.1	22.8	6.02e-01	0	44	0	859832320	65	5189
2026-01-10 00:59:33.82	169.21	23.21	-47.2	-50.0	22.8	6.04e-01	0	44	0	861405184	65	5156
2026-01-10 00:59:35.05	169.37	23.02	-47.2	-50.1	22.8	6.07e-01	0	44	0	863502336	65	5185
2026-01-10 00:59:35.91	169.48	22.89	-47.1	-50.0	22.8	6.06e-01	0	44	0	865075200	65	5140
2026-01-10 00:59:37.06	169.62	22.71	-47.1	-50.0	22.8	6.02e-01	0	44	0	867172352	65	5139
2026-01-10 00:59:37.92	169.73	22.58	-46.9	-49.8	23.0	6.05e-01	0	44	0	868745216	65	5026
2026-01-10 00:59:39.07	169.87	22.40	-47.0	-50.0	22.9	6.03e-01	0	44	0	871366656	65	5114
2026-01-10 00:59:39.93	169.98	22.28	-47.1	-50.0	22.8	6.05e-01	0	44	0	872939520	65	5146
2026-01-10 00:59:41.07	170.11	22.10	-47.0	-50.0	22.9	6.04e-01	0	44	0	875036672	65	5112
2026-01-10 00:59:42.02	170.23	21.96	-47.0	-50.0	22.8	6.06e-01	0	44	0	876609536	65	5125
2026-01-10 00:59:43.03	170.35	21.81	-47.0	-50.0	22.9	6.05e-01	0	44	0	878706688	65	5129
2026-01-10 00:59:44.03	170.46	21.67	-46.9	-50.0	22.9	6.03e-01	0	44	0	880279552	65	5105
2026-01-10 00:59:45.03	170.58	21.52	-46.8	-49.8	23.0	6.05e-01	0	44	0	882376704	65	5028
2026-01-10 00:59:46.04	170.70	21.37	-46.9	-50.0	22.9	6.06e-01	0	44	0	883949568	65	5103
2026-01-10 00:59:47.04	170.81	21.23	-47.1	-50.1	22.7	6.06e-01	0	44	0	886046720	65	5181
2026-01-10 00:59:48.04	170.93	21.08	-47.0	-49.9	22.9	6.03e-01	0	44	0	888143872	65	5091
2026-01-10 00:59:49.05	171.04	20.94	-47.0	-50.0	22.8	6.04e-01	0	44	0	889716736	65	5133
2026-01-10 00:59:50.05	171.15	20.79	-47.1	-50.1	22.8	6.04e-01	0	44	0	891813888	65	5182
2026-01-10 00:59:51.05	171.26	20.65	-47.1	-50.1	22.7	6.05e-01	0	44	0	893911040	65	5181
2026-01-10 00:59:52.06	171.37	20.51	-47.0	-50.0	22.8	6.03e-01	0	44	0	895483904	65	5152
2026-01-10 00:59:53.06	171.48	20.37	-47.0	-50.1	22.7	6.04e-01	0	44	0	897581056	65	5169
2026-01-10 00:59:54.06	171.58	20.23	-46.9	-50.1	22.7	6.05e-01	0	44	0	899153920	65	5170
2026-01-10 00:59:55.07	171.69	20.09	-46.8	-50.1	22.7	6.04e-01	0	44	0	901251072	65	5180
2026-01-10 00:59:56.27	171.82	19.93	-46.8	-50.0	22.7	6.02e-01	0	44	0	903348224	65	5157
2026-01-10 00:59:57.13	171.91	19.81	-46.7	-50.0	22.8	6.06e-01	0	44	0	904921088	65	5151
2026-01-10 00:59:58.52	172.05	19.62	-46.8	-50.1	22.7	6.04e-01	0	44	0	907542528	65	5184
2026-01-10 00:59:59.24	172.12	19.52	-46.8	-50.0	22.7	6.03e-01	0	44	0	909115392	65	5151
2026-01-10 01:00:00.75	172.28	19.32	-47.0	-50.3	22.5	6.04e-01	0	44	0	911736832	65	5288
2026-01-10 01:00:01.47	172.35	19.22	-46.9	-50.0	22.3	6.05e-01	0	44	0	913309696	65	5157
2026-01-10 01:00:02.76	172.48	19.05	-47.0	-50.1	22.6	6.03e-01	0	44	0	915406848	65	5213
2026-01-10 01:00:03.48	172.55	18.95	-47.0	-50.0	22.8	6.04e-01	0	44	0	916979712	65	5144
2026-01-10 01:00:04.77	172.67	18.78	-47.0	-50.0	22.8	6.04e-01	0	44	0	919601152	65	5116
2026-01-10 01:00:05.48	172.74	18.69	-46.9	-49.9	22.9	6.05e-01	0	44	0	920649728	65	5091
2026-01-10 01:00:06.77	172.86	18.52	-46.9	-49.9	22.9	6.03e-01	0	44	0	923271168	65	5087
2026-01-10 01:00:07.49	172.93	18.43	-47.0	-50.0	22.8	6.05e-01	0	44	0	924319744	65	5104
2026-01-10 01:00:08.78	173.05	18.26	-47.0	-49.9	22.8	6.05e-01	0	44	0	926941184	65	5088
2026-01-10 01:00:09.49	173.12	18.17	-47.0	-49.9	22.9	6.03e-01	0	44	0	927989760	65	5079
2026-01-10 01:00:10.78	173.24	18.01	-46.8	-49.8	23.0	6.05e-01	0	44	0	930611200	65	4986
2026-01-10 01:00:11.50	173.30	17.91	-46.8	-49.8	23.0	6.05e-01	0	44	0	931659776	65	5001
2026-01-10 01:00:12.79	173.42	17.75	-46.8	-49.8	23.0	6.05e-01	0	44	0	934281216	65	5000
2026-01-10 01:00:13.61	173.49	17.65	-46.7	-49.7	23.1	6.05e-01	0	44	0	935854080	65	4950
2026-01-10 01:00:15.09	173.63	17.46	-46.8	-49.8	23.0	6.04e-01	0	44	0	938475520	65	5016
2026-01-10 01:00:15.81	173.69	17.37	-46.8	-49.8	23.0	6.02e-01	0	44	0	940048384	65	4996
2026-01-10 01:00:17.28	173.82	17.19	-46.7	-49.7	23.0	6.03e-01	0	44	0	942669824	65	4952
2026-01-10 01:00:18.28	173.91	17.07	-46.7	-49.7	23.1	6.04e-01	0	44	0	944766976	65	4934
2026-01-10 01:00:19.28	173.99	16.95	-46.7	-49.7	23.1	6.05e-01	0	44	0	946339840	65	4932
2026-01-10 01:00:20.29	174.08	16.82	-46.7	-49.7	23.0	6.04e-01	0	44	0	948436992	65	4954
2026-01-10 01:00:21.29	174.16	16.70	-46.6	-49.6	23.1	6.04e-01	0	44	0	950534144	65	4915
2026-01-10 01:00:22.30	174.25	16.58	-46.7	-49.7	23.0	6.05e-01	0	44	0	952107008	65	4938
2026-01-10 01:00:23.30	174.33	16.46	-46.7	-49.7	23.0	6.06e-01	0	44	0	954204160	65	4953
2026-01-10 01:00:24.30	174.41	16.34	-46.8	-49.8	23.0	6.00e-01	0	44	0	955777024	65	4987
2026-01-10 01:00:25.31	174.49	16.22	-46.8	-49.8	22.9	6.04e-01	0	43	0	957874176	65	5004
2026-01-10 01:00:26.39	174.58	16.10	-46.9	-49.8	22.9	6.04e-01	0	44	0	959971328	65	5034
2026-01-10 01:00:27.25	174.65	15.99	-46.8	-49.7	22.9	6.05e-01	0	44	0	961544192	65	4970
2026-01-10 01:00:28.40	174.74	15.86	-46.9	-49.9	22.8	6.04e-01	0	44	0	963641344	65	5095
2026-01-10 01:00:29.26	174.81	15.76	-46.8	-49.8	22.8	6.04e-01	0	44	0	965214208	65	5029
2026-01-10 01:00:30.41	174.90	15.63	-46.8	-49.9	22.7	6.07e-01	0	44	0	967311360	65	5078
2026-01-10 01:00:31.26	174.97	15.53	-46.8	-49.9	22.8	6.06e-01	0	44	0	968884224	65	5083
2026-01-10 01:00:32.41	175.06	15.40	-46.7	-49.8	22.9	6.06e-01	0	44	0	970981376	65	5007
2026-01-10 01:00:33.27	175.12	15.30	-46.8	-50.0	22.7	6.03e-01	0	44	0	972554240	65	5101
2026-01-10 01:00:34.42	175.21	15.17	-46.7	-49.9	22.8	6.05e-01	0	44	0	975175680	65	5069
2026-01-10 01:00:35.28	175.27	15.07	-46.6	-49.9	22.8	6.05e-01	0	44	0	976748544	65	5086
2026-01-10 01:00:36.44	175.36	14.94	-46.5	-49.9	22.8	6.04e-01	0	44	0	978845696	65	5063
2026-01-10 01:00:37.30	175.42	14.85	-46.6	-50.0	22.7	6.03e-01	0	44	0	980418560	65	5101
2026-01-10 01:00:38.45	175.51	14.72	-46.6	-50.0	22.6	6.02e-01	0	44	0	982515712	65	5153
2026-01-10 01:00:39.31	175.57	14.62	-46.6	-50.1	22.6	6.03e-01	0	44	0	984088576	65	5182
2026-01-10 01:00:40.45	175.66	14.50	-46.6	-50.1	22.6	6.06e-01	0	44	0	986185728	65	5181
2026-01-10 01:00:41.31	175.72	14.40	-46.6	-50.1	22.5	6.05e-01	0	44	0	987758592	65	5205
2026-01-10 01:00:42.65	175.81	14.26	-46.5	-49.9	22.8	6.05e-01	0	44	0	990380032	65	5062
2026-01-10 01:00:43.37	175.86	14.18	-46.6	-50.0	22.6	6.04e-01	0	44	0	991952896	65	5143
2026-01-10 01:00:44.66	175.96	14.04	-46.7	-50.1	22.3	6.03e-01	0	44	0	994050048	65	5187
2026-01-10 01:00:45.38	176.01	13.96	-46.7	-50.1	22.5	6.04e-01	0	44	0	995622912	65	5200
2026-01-10 01:00:46.67	176.10	13.82	-46.7	-50.1	22.5	6.01e-01	0	44	0	997720064	65	5189
2026-01-10 01:00:47.38	176.14	13.75	-46.7	-50.1	22.5	6.03e-01	0	44	0	999292928	65	5207
2026-01-10 01:00:48.67	176.23	13.61	-46.6	-50.0	22.6	6.05e-01	0	44	0	1001914368	65	5151
2026-01-10 01:00:49.49	176.29	13.52	-46.7	-50.2	22.5	6.03e-01	0	44	0	1002962944	65	5226
2026-01-10 01:00:50.63	176.36	13.40	-46.7	-50.2	22.4	6.02e-01	0	44	0	1005060096	65	5254
2026-01-10 01:00:51.49	176.42	13.31	-46.8	-50.3	22.3	6.03e-01	0	44	0	1007157248	65	5332
2026-01-10 01:00:52.64	176.50	13.19	-46.7	-50.2	22.4	6.04e-01	0	44	0	1009254400	65	5266
2026-01-10 01:00:53.77	176.57	13.08	-46.7	-50.2	22.4	6.03e-01	0	44	0	1011351552	65	5267
2026-01-10 01:00:54.81	176.64	12.97	-46.8	-50.2	22.4	6.03e-01	0	44	0	1013448704	65	5266
2026-01-10 01:00:55.98	176.72	12.85	-46.8	-50.1	22.4	6.05e-01	0	44	0	1015545856	65	5200
2026-01-10 01:00:56.84	176.77	12.76	-46.8	-50.2	22.4	6.02e-01	0	43	0	1017118720	65	5239
2026-01-10 01:00:57.99	176.85	12.64	-46.9	-50.2	22.4	6.05e-01	0	44	0	1019215872	65	5276
2026-01-10 01:00:58.85	176.90	12.55	-47.1	-50.4	22.2	6.03e-01	0	44	0	1020788736	65	5355
2026-01-10 01:00:59.99	176.97	12.44	-47.0	-50.3	22.3	6.03e-01	0	44	0	1022885888	65	5328
2026-01-10 01:01:00.85	177.03	12.35	-47.1	-50.3	22.3	6.05e-01	0	44	0	1024458752	65	5326
2026-01-10 01:01:02.00	177.10	12.24	-47.2	-50.5	22.0	6.04e-01	0	43	0	1026555904	65	5442
2026-01-10 01:01:02.85	177.15	12.15	-47.3	-50.6	22.0	6.05e-01	0	44	0	1028128768	65	5497
2026-01-10 01:01:04.00	177.22	12.04	-47.2	-50.5	22.1	6.03e-01	0	44	0	1030225920	65	5408
2026-01-10 01:01:04.86	177.27	11.95	-47.1	-50.4	22.1	6.04e-01	0	44	0	1031798784	65	5388
2026-01-10 01:01:06.01	177.34	11.84	-47.1	-50.4	22.1	6.04e-01	0	44	0	1034420224	65	5389
2026-01-10 01:01:06.87	177.39	11.76	-47.1	-50.4	22.2	6.03e-01	0	44	0	1035993088	65	5354
2026-01-10 01:01:08.10	177.47	11.64	-47.1	-50.5	22.1	6.06e-01	0	44	0	1038090240	65	5428
2026-01-10 01:01:08.96	177.52	11.55	-47.1	-50.5	22.0	6.04e-01	0	44	0	1039663104	65	5462
2026-01-10 01:01:10.10	177.59	11.44	-47.0	-50.6	21.9	6.03e-01	0	44	0	1041760256	65	5489
2026-01-10 01:01:10.96	177.64	11.36	-47.1	-50.7	21.9	6.04e-01	0	44	0	1043333120	65	5529
2026-01-10 01:01:12.11	177.70	11.25	-47.1	-50.6	22.0	6.03e-01	0	44	0	1045430272	65	5487
2026-01-10 01:01:13.02	177.76	11.16	-47.0	-50.6	21.9	6.03e-01	0	44	0	1047527424	65	5527
2026-01-10 01:01:14.03	177.81	11.07	-47.0	-50.7	21.8	6.05e-01	0	43	0	1049100288	65	5541
2026-01-10 01:01:15.04	177.87	10.97	-46.8	-50.5	21.9	6.04e-01	0	44	0	1051197440	65	5461
2026-01-10 01:01:16.04	177.93	10.88	-46.9	-50.6	21.9	6.06e-01	0	44	0	1052770304	65	5489
2026-01-10 01:01:17.04	177.98	10.78	-46.9	-50.7	21.7	6.04e-01	0	44	0	1054867456	65	5592
2026-01-10 01:01:18.05	178.04	10.69	-46.7	-50.7	21.7	6.05e-01	0	44	0	1056440320	65	5563
2026-01-10 01:01:19.05	178.10	10.59	-46.7	-50.9	21.6	6.06e-01	0	44	0	1058537472	65	5704
2026-01-10 01:01:20.05	178.15	10.50	-46.7	-50.8	21.6	6.04e-01	0	44	0	1060634624	65	5637
2026-01-10 01:01:21.05	178.20	10.41	-46.6	-50.8	21.6	6.03e-01	0	44	0	1062207488	65	5646
2026-01-10 01:01:22.06	178.26	10.32	-46.6	-50.9	21.4	6.05e-01	0	44	0	1064304640	65	5705
2026-01-10 01:01:23.06	178.31	10.22	-46.6	-50.9	21.6	6.04e-01	0	44	0	1066401792	65	5663
2026-01-10 01:01:24.06	178.37	10.13	-46.6	-51.0	21.4	6.04e-01	0	44	0	1067974656	65	5730
2026-01-10 01:01:25.06	178.42	10.04	-46.7	-50.9	21.6	6.03e-01	0	44	0	1070071808	65	5668
2026-01-10 01:01:26.07	178.47	9.95	-46.5	-50.8	21.6	6.05e-01	0	43	0	1071644672	65	5611
2026-01-10 01:01:27.20	178.53	9.85	-46.6	-51.0	21.4	6.03e-01	0	44	0	1073741824	65	5744
2026-01-10 01:01:28.06	178.58	9.77	-46.4	-50.8	21.5	6.05e-01	0	44	0	1075314688	64	5951
2026-01-10 01:01:29.20	178.64	9.67	-46.4	-50.9	21.4	6.01e-01	0	43	0	1077936128	64	6031
2026-01-10 01:01:30.06	178.68	9.59	-46.4	-50.9	21.5	6.04e-01	0	43	0	1079508992	64	6014
2026-01-10 01:01:31.21	178.74	9.49	-46.4	-50.9	21.4	6.05e-01	0	44	0	1081606144	64	6014
2026-01-10 01:01:32.07	178.79	9.41	-46.4	-51.0	21.4	6.02e-01	0	44	0	1083179008	64	6062
2026-01-10 01:01:33.60	178.86	9.28	-46.4	-51.0	21.3	6.02e-01	0	44	0	1085800448	64	6087
2026-01-10 01:01:34.31	178.90	9.22	-46.5	-51.0	21.3	6.06e-01	0	43	0	1087373312	64	6123
2026-01-10 01:01:35.60	178.96	9.10	-46.5	-51.2	21.2	6.04e-01	0	44	0	1089470464	64	6226
2026-01-10 01:01:36.32	179.00	9.04	-46.5	-51.2	21.2	6.03e-01	0	43	0	1091043328	64	6212
2026-01-10 01:01:37.61	179.06	8.93	-52.2	-72.6	3.6	7.44e-01	0	43	104	1092091904	75	38889
2026-01-10 01:01:38.33	179.10	8.87	-52.2	-72.7	3.9	7.43e-01	0	44	104	1092091904	75	39536
2026-01-10 01:01:39.62	179.16	8.76	-52.9	-74.2	3.8	7.43e-01	0	44	104	1092091904	76	43993
2026-01-10 01:01:40.34	179.20	8.69	-53.2	-74.2	3.8	7.42e-01	0	44	104	1092091904	76	44145
2026-01-10 01:01:41.63	179.26	8.58	-53.0	-74.3	3.8	7.44e-01	0	44	104	1092091904	76	44677
2026-01-10 01:01:42.34	179.29	8.52	-53.9	-74.3	3.8	7.45e-01	0	44	104	1092091904	78	40032
2026-01-10 01:01:43.67	179.36	8.41	-54.0	-74.4	3.8	7.44e-01	0	44	104	1092091904	78	40317
2026-01-10 01:01:44.39	179.39	8.35	-53.8	-74.4	3.8	7.44e-01	0	44	104	1092091904	78	40390
2026-01-10 01:01:45.74	179.45	8.23	-53.9	-74.4	3.8	7.45e-01	0	43	104	1092091904	79	38163
2026-01-10 01:01:46.46	179.49	8.17	-53.9	-74.4	3.8	7.47e-01	0	44	104	1092091904	79	38228
2026-01-10 01:01:47.81	179.55	8.06	-54.1	-74.5	3.8	7.47e-01	0	43	104	1092091904	78	40585
2026-01-10 01:01:48.53	179.58	8.00	-54.1	-74.5	3.8	7.47e-01	0	43	104	1092091904	79	38429
2026-01-10 01:01:49.82	179.64	7.89	-54.2	-74.5	3.8	7.46e-01	0	44	104	1092091904	79	38501
2026-01-10 01:01:50.54	179.67	7.83	-54.3	-74.5	3.8	7.43e-01	0	43	104	1092091904	79	38455
2026-01-10 01:01:51.83	179.73	7.73	-54.1	-74.5	3.8	7.47e-01	0	44	104	1092091904	79	38485
2026-01-10 01:01:52.55	179.77	7.67	-53.7	-74.5	3.8	7.45e-01	0	44	104	1092091904	79	38604
2026-01-10 01:01:53.84	179.82	7.56	-54.4	-74.5	3.8	7.47e-01	0	44	104	1092091904	79	38617
2026-01-10 01:01:54.56	179.86	7.50	-54.2	-74.5	3.8	7.43e-01	0	44	104	1092091904	79	38645
2026-01-10 01:01:55.85	179.91	7.40	-54.3	-74.6	3.8	7.46e-01	0	43	104	1092091904	79	38689
2026-01-10 01:01:56.57	179.94	7.34	-54.2	-74.5	3.8	7.48e-01	0	44	104	1092091904	79	38678
2026-01-10 01:01:57.86	180.00	7.24	-54.4	-74.5	3.8	7.43e-01	0	44	104	1092091904	79	38531
2026-01-10 01:01:58.57	180.03	7.18	-54.4	-74.5	3.8	7.46e-01	0	44	104	1092091904	79	38670
2026-01-10 01:01:59.87	180.09	7.07	-54.1	-74.6	3.8	7.44e-01	0	44	104	1092091904	79	38748
2026-01-10 01:02:00.58	180.12	7.02	-54.3	-74.5	3.8	7.47e-01	0	43	104	1092091904	79	38645
2026-01-10 01:02:01.87	180.17	6.91	-54.3	-74.6	3.8	7.46e-01	0	44	104	1092091904	79	38738
2026-01-10 01:02:02.59	180.21	6.86	-54.0	-74.6	3.8	7.42e-01	0	43	104	1092091904	79	38782
2026-01-10 01:02:03.88	180.26	6.76	-54.0	-74.5	3.8	7.47e-01	0	44	104	1092091904	79	38593
2026-01-10 01:02:04.60	180.29	6.70	-53.5	-74.5	3.8	7.45e-01	0	43	104	1092091904	79	38486
2026-01-10 01:02:05.89	180.34	6.60	-53.8	-74.5	3.8	7.47e-01	0	44	104	1092091904	78	40763
2026-01-10 01:02:06.61	180.37	6.54	-53.8	-74.5	3.8	7.46e-01	0	43	104	1092091904	78	40796
2026-01-10 01:02:07.90	180.43	6.44	-53.8	-74.5	3.8	7.46e-01	0	44	104	1092091904	78	40645
2026-01-10 01:02:08.62	180.46	6.38	-53.8	-74.5	3.8	7.45e-01	0	44	104	1092091904	78	40765
2026-01-10 01:02:09.91	180.51	6.28	-53.8	-74.5	3.8	7.47e-01	0	43	104	1092091904	78	40799
2026-01-10 01:02:10.63	180.54	6.23	-53.8	-74.5	3.8	7.43e-01	0	43	104	1092091904	78	40700
2026-01-10 01:02:11.92	180.59	6.13	-53.8	-74.5	3.8	7.46e-01	0	43	104	1092091904	78	40712
2026-01-10 01:02:12.64	180.62	6.07	-53.8	-74.5	3.8	7.47e-01	0	43	104	1092091904	78	40668
2026-01-10 01:02:13.93	180.67	5.97	-53.8	-74.5	3.8	7.47e-01	0	44	104	1092091904	78	40722
2026-01-10 01:02:14.65	180.70	5.92	-53.8	-74.5	3.8	7.45e-01	0	43	104	1092091904	78	40678
2026-01-10 01:02:15.94	180.75	5.82	-53.8	-74.5	3.8	7.43e-01	0	43	104	1092091904	78	40711
2026-01-10 01:02:16.65	180.78	5.77	-53.8	-74.5	3.8	7.45e-01	0	43	104	1092091904	78	40812
2026-01-10 01:02:17.95	180.83	5.67	-53.8	-74.5	3.8	7.46e-01	0	43	104	1092091904	78	40774
2026-01-10 01:02:18.66	180.86	5.61	-53.8	-74.5	3.8	7.44e-01	0	43	104	1092091904	78	40724
2026-01-10 01:02:19.95	180.91	5.52	-53.8	-74.5	3.8	7.47e-01	0	44	104	1092091904	78	40757
2026-01-10 01:02:20.67	180.94	5.46	-53.8	-74.5	3.8	7.41e-01	0	44	104	1092091904	78	40635
2026-01-10 01:02:21.96	180.99	5.37	-53.8	-74.5	3.8	7.45e-01	0	43	104	1092091904	78	40688
2026-01-10 01:02:22.68	181.02	5.31	-53.8	-74.5	3.8	7.44e-01	0	44	104	1092091904	78	40710
2026-01-10 01:02:23.97	181.07	5.22	-53.8	-74.5	3.8	7.48e-01	0	43	104	1092091904	78	40746
2026-01-10 01:02:24.69	181.09	5.16	-53.8	-74.5	3.8	7.46e-01	0	43	104	1092091904	78	40668
2026-01-10 01:02:25.98	181.14	5.07	-53.8	-74.5	3.8	7.47e-01	0	43	104	1092091904	78	40660
2026-01-10 01:02:26.69	181.17	5.02	-53.8	-74.4	3.8	7.45e-01	0	43	104	1092091904	78	40508
2026-01-10 01:02:27.99	181.22	4.92	-53.8	-74.5	3.8	7.44e-01	0	43	104	1092091904	78	40680

#Closed at: 2026-01-10 01:02:28
#Recorded file [1092 MB]: D:/Data/31040_260110_035113.dat