passes_logs/2026/01/10/T1/T1__20260110_013010_NOAA_20_JPSS-1_rec.log

#Pass ID: 20260110_013010_NOAA 20 (JPSS-1)
#Satellite: NOAA 20 (JPSS-1)
#Configuration: NOAA 20
#almurnet v.1.7.20251203
#Start time: 2026-01-10 01:30:11

#Version: 2.0.20230620
#Station: T1
#Location: 37.570604 lon 55.790049 lat
#TLE: 1 43013U 17073A   26009.26828276  .00000112  00000+0  74203-4 0  9990
#TLE: 2 43013  98.7631 310.2683 0001700  47.4387 312.6933 14.19534764421920

#Time	Az	El	Level	Level2	SNR	BER	BlckErr	Temp	State	Recorded	gain1	gain2
2026-01-10 01:30:11.57	5.65	5.08	-51.1	-67.1	3.8	1.49e+00	0	38	0	0	73	23291
2026-01-10 01:30:12.57	5.57	5.14	-51.0	-66.8	3.8	1.49e+00	0	38	104	0	74	21231
2026-01-10 01:30:13.57	5.48	5.20	-51.0	-66.9	3.8	1.49e+00	0	38	104	0	74	21303
2026-01-10 01:30:14.58	5.39	5.26	-51.0	-66.9	3.8	1.49e+00	0	38	104	0	74	21294
2026-01-10 01:30:15.58	5.31	5.32	-51.0	-66.9	3.8	1.49e+00	0	38	104	0	74	21283
2026-01-10 01:30:16.59	5.22	5.38	-51.0	-66.9	3.8	1.49e+00	0	38	104	0	74	21305
2026-01-10 01:30:17.59	5.13	5.44	-51.0	-66.9	3.8	1.49e+00	0	38	104	0	74	21274
2026-01-10 01:30:18.59	5.04	5.50	-51.0	-66.9	3.8	1.49e+00	0	38	104	0	74	21333
2026-01-10 01:30:19.60	4.95	5.56	-51.0	-66.9	3.8	1.49e+00	0	38	104	0	74	21292
2026-01-10 01:30:20.61	4.86	5.62	-51.0	-66.9	3.8	1.49e+00	0	38	104	0	74	21317
2026-01-10 01:30:21.61	4.77	5.67	-51.0	-66.9	3.8	1.49e+00	0	38	104	0	74	21398
2026-01-10 01:30:22.61	4.68	5.73	-51.0	-66.9	3.8	1.49e+00	0	38	104	0	74	21291
2026-01-10 01:30:23.62	4.59	5.79	-51.0	-66.9	3.8	1.49e+00	0	38	104	0	74	21377
2026-01-10 01:30:24.62	4.50	5.85	-51.0	-66.9	3.8	1.49e+00	0	38	104	0	74	21379
2026-01-10 01:30:25.63	4.41	5.91	-51.0	-66.9	3.8	1.49e+00	0	38	104	0	74	21343
2026-01-10 01:30:26.63	4.32	5.97	-51.0	-66.9	3.8	1.49e+00	0	38	104	0	74	21370
2026-01-10 01:30:27.64	4.22	6.03	-51.0	-66.9	3.8	1.49e+00	0	38	104	0	74	21370
2026-01-10 01:30:28.64	4.13	6.09	-51.0	-66.9	3.8	1.49e+00	0	38	104	0	74	21319
2026-01-10 01:30:29.65	4.04	6.15	-51.0	-66.9	3.8	1.49e+00	0	38	104	0	74	21338
2026-01-10 01:30:30.65	3.94	6.21	-51.0	-66.9	3.8	1.49e+00	0	38	104	0	74	21361
2026-01-10 01:30:31.65	3.85	6.27	-51.0	-66.9	3.8	1.49e+00	0	39	104	0	74	21324
2026-01-10 01:30:32.66	3.76	6.33	-51.0	-66.9	3.8	1.49e+00	0	39	104	0	74	21351
2026-01-10 01:30:33.66	3.66	6.39	-51.0	-66.9	3.8	1.49e+00	0	38	104	0	74	21288
2026-01-10 01:30:34.67	3.56	6.45	-51.0	-66.9	3.8	1.49e+00	0	39	104	0	74	21328
2026-01-10 01:30:35.67	3.47	6.51	-51.0	-66.9	3.8	1.49e+00	0	39	104	0	74	21468
2026-01-10 01:30:36.68	3.37	6.58	-51.0	-66.9	3.8	1.49e+00	0	39	104	0	74	21269
2026-01-10 01:30:37.68	3.28	6.64	-51.0	-66.9	3.8	1.49e+00	0	39	104	0	74	21324
2026-01-10 01:30:38.69	3.18	6.70	-51.0	-66.8	3.8	1.49e+00	0	39	104	0	74	21252
2026-01-10 01:30:39.69	3.08	6.76	-51.0	-66.8	3.8	1.49e+00	0	39	104	0	74	21215
2026-01-10 01:30:40.70	2.98	6.82	-51.0	-66.8	3.8	1.49e+00	0	39	104	0	74	21175
2026-01-10 01:30:41.70	2.89	6.88	-51.0	-66.8	3.8	1.49e+00	0	39	104	0	74	21135
2026-01-10 01:30:42.70	2.79	6.94	-51.0	-66.8	3.8	1.49e+00	0	39	104	0	74	21226
2026-01-10 01:30:43.71	2.69	7.00	-51.0	-66.8	3.8	1.49e+00	0	39	104	0	74	21244
2026-01-10 01:30:44.71	2.59	7.06	-51.0	-66.8	3.8	1.49e+00	0	39	104	0	74	21180
2026-01-10 01:30:45.72	2.49	7.12	-51.0	-66.8	3.8	1.49e+00	0	39	104	0	74	21097
2026-01-10 01:30:46.72	2.39	7.18	-51.0	-66.7	3.8	1.49e+00	0	39	104	0	74	20940
2026-01-10 01:30:47.73	2.29	7.25	-51.0	-66.6	3.8	1.49e+00	0	39	104	0	74	20668
2026-01-10 01:30:48.73	2.19	7.31	-51.0	-66.5	3.8	1.49e+00	0	39	104	0	73	21668
2026-01-10 01:30:49.73	2.09	7.37	-50.9	-66.4	3.8	1.49e+00	0	39	104	0	73	21405
2026-01-10 01:30:50.74	1.98	7.43	-50.9	-66.3	3.8	1.49e+00	0	39	104	0	73	21211
2026-01-10 01:30:51.74	1.88	7.49	-50.9	-66.3	3.8	1.49e+00	0	39	104	0	73	21121
2026-01-10 01:30:52.75	1.78	7.55	-50.9	-66.2	3.8	1.49e+00	0	39	104	0	73	21000
2026-01-10 01:30:53.75	1.68	7.61	-50.9	-66.1	3.8	1.49e+00	0	39	104	0	73	20755
2026-01-10 01:30:54.76	1.57	7.68	-50.9	-66.0	3.8	1.49e+00	0	39	104	0	73	20358
2026-01-10 01:30:55.76	1.47	7.74	-50.9	-65.9	3.8	1.49e+00	0	39	104	0	73	20125
2026-01-10 01:30:56.76	1.36	7.80	-50.9	-65.8	3.8	1.49e+00	0	39	104	0	73	20020
2026-01-10 01:30:57.77	1.26	7.86	-50.9	-66.0	3.8	1.49e+00	0	39	104	0	73	20436
2026-01-10 01:30:58.77	1.15	7.92	-50.9	-66.3	3.8	1.49e+00	0	39	104	0	73	21048
2026-01-10 01:30:59.78	1.05	7.98	-51.0	-66.7	3.8	1.49e+00	0	39	104	0	73	22209
2026-01-10 01:31:00.78	0.94	8.05	-51.0	-66.9	3.8	1.49e+00	0	39	104	0	73	22686
2026-01-10 01:31:01.79	0.83	8.11	-51.0	-66.7	3.8	1.49e+00	0	39	104	0	73	22037
2026-01-10 01:31:02.79	0.72	8.17	-50.9	-65.9	3.8	1.49e+00	0	39	104	0	73	20193
2026-01-10 01:31:03.79	0.62	8.23	-50.8	-64.5	3.8	1.49e+00	0	39	104	0	73	17206
2026-01-10 01:31:04.80	0.51	8.30	-50.7	-62.8	4.4	1.44e+00	0	39	0	0	73	14097
2026-01-10 01:31:05.80	0.40	8.36	-50.6	-61.3	5.0	8.07e-01	0	39	0	1048576	73	11895
2026-01-10 01:31:06.81	0.29	8.42	-50.4	-60.2	5.7	5.46e-01	0	39	0	3145728	72	11073
2026-01-10 01:31:07.81	0.18	8.48	-50.3	-59.1	6.6	3.01e-01	0	39	0	5242880	72	9774
2026-01-10 01:31:08.81	0.07	8.54	-50.1	-58.3	7.3	1.71e-01	0	40	0	7340032	72	8922
2026-01-10 01:31:09.82	359.96	8.61	-50.0	-57.8	7.8	9.53e-02	0	39	0	8388608	72	8411
2026-01-10 01:31:10.82	359.85	8.67	-49.8	-57.0	8.6	5.15e-02	0	40	0	10485760	71	8089
2026-01-10 01:31:11.83	359.73	8.73	-49.7	-56.4	9.2	3.34e-02	0	39	0	12582912	71	7611
2026-01-10 01:31:12.83	359.62	8.79	-49.7	-56.3	9.3	2.04e-02	0	40	0	14680064	71	7533
2026-01-10 01:31:13.84	359.51	8.86	-49.5	-55.9	9.7	1.36e-02	0	40	0	16777216	71	7195
2026-01-10 01:31:14.84	359.40	8.92	-49.6	-56.1	9.5	1.32e-02	0	40	0	18874368	71	7348
2026-01-10 01:31:15.84	359.28	8.98	-49.7	-56.7	8.9	2.19e-02	0	40	0	19922944	71	7827
2026-01-10 01:31:16.85	359.17	9.05	-50.0	-57.5	8.1	4.14e-02	0	40	0	22020096	71	8612
2026-01-10 01:31:17.85	359.05	9.11	-50.5	-60.1	5.8	1.25e-01	0	40	0	24117248	71	11640
2026-01-10 01:31:18.85	358.94	9.17	-50.5	-64.0	4.0	6.19e-01	0	40	0	25165824	71	18247
2026-01-10 01:31:19.86	358.82	9.23	-48.7	-54.4	11.3	2.67e-01	0	40	0	25165824	69	6769
2026-01-10 01:31:20.86	358.71	9.30	-48.1	-53.5	12.3	5.44e-04	0	40	0	27262976	68	6461
2026-01-10 01:31:21.87	358.59	9.36	-49.6	-57.3	8.4	2.27e-04	0	40	0	29360128	69	9403
2026-01-10 01:31:22.87	358.47	9.42	-48.0	-53.5	12.3	3.89e-03	0	40	0	30408704	68	6443
2026-01-10 01:31:23.87	358.35	9.49	-47.7	-53.2	12.4	2.02e-04	0	40	0	32505856	67	6596
2026-01-10 01:31:24.87	358.24	9.55	-47.8	-53.2	12.4	1.49e-04	0	40	0	34603008	67	6612
2026-01-10 01:31:25.88	358.12	9.61	-48.0	-53.1	12.5	1.03e-04	0	40	0	36700160	67	6552
2026-01-10 01:31:26.88	358.00	9.67	-47.8	-53.0	12.7	9.46e-05	0	40	0	38797312	67	6431
2026-01-10 01:31:27.95	357.87	9.74	-47.9	-52.9	12.7	7.17e-05	0	40	0	40894464	67	6393
2026-01-10 01:31:28.86	357.76	9.80	-47.9	-53.0	12.7	6.86e-05	0	40	0	41943040	67	6433
2026-01-10 01:31:29.86	357.64	9.86	-48.0	-53.0	12.7	9.46e-05	0	40	0	44040192	67	6442
2026-01-10 01:31:30.86	357.52	9.93	-47.9	-52.9	12.8	8.31e-05	0	39	0	46137344	67	6358
2026-01-10 01:31:31.87	357.39	9.99	-47.9	-52.8	12.9	5.64e-05	0	40	0	48234496	67	6302
2026-01-10 01:31:32.87	357.27	10.05	-48.0	-52.8	12.9	6.48e-05	0	40	0	49283072	67	6325
2026-01-10 01:31:33.87	357.15	10.12	-48.0	-52.8	12.8	6.17e-05	0	40	0	51380224	67	6320
2026-01-10 01:31:34.87	357.03	10.18	-48.0	-52.8	12.9	4.65e-05	0	39	0	53477376	67	6286
2026-01-10 01:31:35.88	356.90	10.24	-48.0	-52.7	13.0	5.11e-05	0	40	0	55574528	67	6238
2026-01-10 01:31:36.88	356.78	10.31	-48.0	-52.7	13.0	2.89e-05	0	40	0	57671680	67	6243
2026-01-10 01:31:37.88	356.65	10.37	-48.0	-52.7	13.0	3.89e-05	0	40	0	58720256	67	6264
2026-01-10 01:31:38.88	356.52	10.43	-48.0	-52.8	13.0	4.80e-05	0	40	0	60817408	67	6280
2026-01-10 01:31:39.95	356.39	10.50	-48.0	-52.8	12.9	5.26e-05	0	40	0	62914560	67	6319
2026-01-10 01:31:40.81	356.28	10.56	-48.0	-52.8	12.9	4.80e-05	0	40	0	65011712	67	6306
2026-01-10 01:31:41.95	356.14	10.63	-47.8	-52.7	13.0	5.18e-05	0	40	0	67108864	67	6235
2026-01-10 01:31:42.81	356.03	10.68	-47.9	-52.6	13.1	3.73e-05	0	40	0	68157440	67	6196
2026-01-10 01:31:43.96	355.88	10.76	-47.8	-52.6	13.2	3.43e-05	0	40	0	70254592	67	6134
2026-01-10 01:31:44.82	355.77	10.81	-47.9	-52.7	13.1	2.82e-05	0	40	0	72351744	67	6207
2026-01-10 01:31:45.96	355.62	10.88	-47.8	-52.7	13.1	2.74e-05	0	40	0	74448896	67	6208
2026-01-10 01:31:46.82	355.51	10.94	-47.7	-52.4	13.3	1.37e-05	0	40	0	75497472	67	6059
2026-01-10 01:31:47.97	355.36	11.01	-47.7	-52.6	13.2	2.82e-05	0	40	0	77594624	67	6136
2026-01-10 01:31:48.83	355.24	11.06	-47.5	-52.4	13.4	1.98e-05	0	40	0	79691776	67	6013
2026-01-10 01:31:50.02	355.09	11.14	-47.4	-52.3	13.6	1.44e-05	0	40	0	81788928	66	6276
2026-01-10 01:31:50.89	354.97	11.20	-47.6	-52.3	13.5	9.90e-06	0	40	0	83886080	66	6299
2026-01-10 01:31:52.03	354.82	11.27	-47.4	-52.1	13.7	6.10e-06	0	40	0	85983232	66	6176
2026-01-10 01:31:52.88	354.71	11.32	-47.3	-52.1	13.8	8.30e-06	0	40	0	87031808	66	6142
2026-01-10 01:31:54.03	354.55	11.40	-47.1	-51.9	13.9	3.80e-06	0	40	0	89128960	66	6051
2026-01-10 01:31:54.89	354.43	11.45	-47.1	-51.9	13.9	2.20e-06	0	40	0	91226112	66	6036
2026-01-10 01:31:56.04	354.28	11.52	-47.1	-51.8	14.0	0.00e+00	0	40	0	93323264	66	5970
2026-01-10 01:31:56.90	354.16	11.58	-47.0	-51.9	13.9	7.00e-07	0	40	0	94371840	66	6016
2026-01-10 01:31:58.04	354.01	11.65	-46.8	-51.9	13.9	3.00e-06	0	40	0	96468992	65	6393
2026-01-10 01:31:58.90	353.89	11.71	-46.8	-51.8	14.1	2.20e-06	0	40	0	98566144	65	6298
2026-01-10 01:32:00.05	353.73	11.78	-46.5	-51.7	14.1	7.00e-07	0	40	0	100663296	65	6238
2026-01-10 01:32:00.91	353.61	11.83	-46.7	-51.7	14.2	3.00e-06	0	40	0	102760448	65	6205
2026-01-10 01:32:02.05	353.45	11.91	-46.6	-51.8	14.0	7.00e-07	0	40	0	104857600	65	6297
2026-01-10 01:32:02.91	353.33	11.96	-46.4	-51.7	14.1	2.20e-06	0	40	0	105906176	64	6607
2026-01-10 01:32:04.06	353.17	12.03	-46.3	-51.9	14.0	1.50e-06	0	40	0	108003328	64	6754
2026-01-10 01:32:05.32	352.99	12.11	-46.1	-51.7	14.1	7.00e-07	0	40	0	110100480	64	6628
2026-01-10 01:32:06.26	352.86	12.17	-46.0	-51.6	14.2	1.50e-06	0	40	0	112197632	64	6545
2026-01-10 01:32:07.26	352.71	12.24	-46.0	-51.8	14.0	2.20e-06	0	40	0	114294784	64	6688
2026-01-10 01:32:08.26	352.57	12.30	-46.0	-51.7	14.3	2.20e-06	0	40	0	116391936	63	6985
2026-01-10 01:32:09.26	352.43	12.37	-46.1	-51.8	14.1	0.00e+00	0	40	0	117440512	63	7112
2026-01-10 01:32:10.26	352.28	12.43	-46.0	-51.9	14.1	1.50e-06	0	40	0	119537664	63	7170
2026-01-10 01:32:11.27	352.14	12.49	-46.0	-51.8	14.2	7.00e-07	0	40	0	121634816	63	7044
2026-01-10 01:32:12.27	351.99	12.56	-46.1	-51.8	14.1	0.00e+00	0	40	0	123731968	63	7105
2026-01-10 01:32:13.27	351.84	12.62	-46.2	-51.8	14.1	7.00e-07	0	40	0	125829120	63	7076
2026-01-10 01:32:14.28	351.70	12.68	-46.4	-51.7	14.2	1.50e-06	0	40	0	126877696	63	7007
2026-01-10 01:32:15.28	351.55	12.75	-46.6	-51.7	14.2	7.00e-07	0	40	0	128974848	63	7021
2026-01-10 01:32:16.28	351.40	12.81	-46.7	-51.8	14.2	3.00e-06	0	40	0	131072000	63	7081
2026-01-10 01:32:17.29	351.25	12.88	-46.8	-51.8	14.1	7.00e-07	0	40	0	133169152	64	6652
2026-01-10 01:32:18.29	351.10	12.94	-46.9	-51.8	14.2	3.80e-06	0	40	0	135266304	64	6648
2026-01-10 01:32:19.29	350.95	13.00	-46.9	-51.5	14.4	0.00e+00	0	40	0	136314880	64	6473
2026-01-10 01:32:20.30	350.80	13.07	-47.1	-51.6	14.3	3.00e-06	0	40	0	138412032	65	6179
2026-01-10 01:32:21.30	350.65	13.13	-47.2	-51.6	14.3	3.00e-06	0	40	0	140509184	65	6141
2026-01-10 01:32:22.30	350.49	13.19	-47.5	-51.6	14.3	0.00e+00	0	40	0	142606336	65	6176
2026-01-10 01:32:23.30	350.34	13.26	-47.6	-51.7	14.2	7.00e-07	0	40	0	144703488	65	6233
2026-01-10 01:32:24.31	350.18	13.32	-47.8	-51.7	14.2	0.00e+00	0	40	0	145752064	66	5900
2026-01-10 01:32:25.31	350.03	13.38	-47.9	-51.7	14.2	1.50e-06	0	40	0	147849216	66	5923
2026-01-10 01:32:26.31	349.88	13.45	-48.0	-51.8	14.1	1.50e-06	0	40	0	149946368	66	5984
2026-01-10 01:32:27.34	349.72	13.51	-48.0	-51.8	14.1	3.00e-06	0	40	0	152043520	66	5991
2026-01-10 01:32:28.37	349.55	13.58	-48.0	-51.8	14.1	7.00e-07	0	40	0	154140672	66	5965
2026-01-10 01:32:29.38	349.40	13.64	-48.0	-51.9	14.1	3.00e-06	0	40	0	155189248	66	5994
2026-01-10 01:32:30.38	349.24	13.70	-47.9	-51.8	14.1	3.00e-06	0	40	0	157286400	66	5982
2026-01-10 01:32:31.46	349.07	13.77	-47.8	-51.8	14.2	0.00e+00	0	40	0	159383552	66	5951
2026-01-10 01:32:32.35	348.92	13.83	-47.8	-51.9	14.1	2.20e-06	0	40	0	161480704	66	5998
2026-01-10 01:32:33.49	348.74	13.90	-47.7	-51.9	14.1	7.00e-07	0	40	0	163577856	66	6010
2026-01-10 01:32:34.35	348.60	13.95	-47.6	-51.8	14.2	2.20e-06	0	40	0	164626432	66	5959
2026-01-10 01:32:35.49	348.42	14.02	-47.6	-51.8	14.2	3.80e-06	0	40	0	166723584	66	5937
2026-01-10 01:32:36.35	348.28	14.08	-47.6	-51.7	14.2	1.50e-06	0	40	0	168820736	66	5908
2026-01-10 01:32:37.50	348.09	14.15	-47.7	-51.8	14.2	7.00e-07	0	40	0	170917888	66	5991
2026-01-10 01:32:38.36	347.95	14.20	-47.6	-51.7	14.3	1.50e-06	0	40	0	171966464	66	5866
2026-01-10 01:32:39.51	347.76	14.28	-47.8	-51.7	14.3	7.00e-07	0	40	0	175112192	66	5906
2026-01-10 01:32:40.37	347.62	14.33	-48.0	-51.8	14.2	7.00e-07	0	40	0	176160768	66	5982
2026-01-10 01:32:41.51	347.43	14.40	-48.0	-51.9	14.1	1.50e-06	0	40	0	178257920	66	6002
2026-01-10 01:32:42.37	347.29	14.45	-48.1	-52.0	14.0	3.00e-06	0	40	0	180355072	66	6115
2026-01-10 01:32:43.53	347.10	14.53	-48.3	-52.3	13.7	3.80e-06	0	40	0	182452224	67	5926
2026-01-10 01:32:44.39	346.95	14.58	-48.3	-52.3	13.7	9.10e-06	0	40	0	183500800	67	5926
2026-01-10 01:32:45.60	346.75	14.65	-48.2	-52.2	13.7	7.60e-06	0	40	0	185597952	67	5923
2026-01-10 01:32:46.46	346.60	14.71	-48.2	-52.2	13.8	3.00e-06	0	40	0	187695104	67	5911
2026-01-10 01:32:47.68	346.40	14.78	-48.2	-52.4	13.6	4.50e-06	0	40	0	189792256	67	6017
2026-01-10 01:32:48.54	346.25	14.84	-48.1	-52.3	13.7	5.30e-06	0	40	0	191889408	67	5943
2026-01-10 01:32:49.69	346.05	14.91	-48.0	-52.2	13.7	4.50e-06	0	40	0	193986560	67	5923
2026-01-10 01:32:50.55	345.91	14.96	-47.9	-52.1	13.9	4.50e-06	0	40	0	195035136	67	5849
2026-01-10 01:32:51.70	345.71	15.03	-47.8	-52.1	13.9	5.30e-06	0	40	0	197132288	67	5793
2026-01-10 01:32:52.62	345.55	15.09	-47.7	-52.2	13.8	5.30e-06	0	40	0	199229440	67	5916
2026-01-10 01:32:53.80	345.34	15.16	-47.6	-52.1	13.9	7.00e-07	0	40	0	201326592	67	5807
2026-01-10 01:32:54.73	345.18	15.21	-47.7	-52.2	13.8	5.30e-06	0	40	0	203423744	67	5884
2026-01-10 01:32:55.91	344.97	15.29	-47.7	-52.1	13.9	6.10e-06	0	40	0	205520896	67	5850
2026-01-10 01:32:56.81	344.81	15.34	-47.7	-52.1	13.8	6.10e-06	0	40	0	206569472	67	5841
2026-01-10 01:32:57.83	344.63	15.40	-47.7	-52.0	13.9	4.50e-06	0	40	0	208666624	67	5787
2026-01-10 01:32:58.84	344.45	15.46	-47.8	-52.1	13.9	2.20e-06	0	40	0	210763776	67	5838
2026-01-10 01:32:59.84	344.27	15.52	-47.8	-52.1	13.9	3.00e-06	0	40	0	212860928	67	5830
2026-01-10 01:33:00.84	344.09	15.58	-47.7	-52.0	14.0	1.50e-06	0	40	0	214958080	67	5737
2026-01-10 01:33:01.85	343.91	15.64	-47.6	-51.9	14.1	2.20e-06	0	40	0	216006656	67	5694
2026-01-10 01:33:02.85	343.73	15.70	-47.5	-51.8	14.2	3.00e-06	0	40	0	218103808	67	5604
2026-01-10 01:33:03.85	343.55	15.76	-47.4	-51.6	14.4	7.00e-07	0	40	0	220200960	66	5812
2026-01-10 01:33:04.86	343.36	15.82	-47.3	-51.4	14.5	7.00e-07	0	40	0	222298112	66	5709
2026-01-10 01:33:05.86	343.18	15.88	-47.3	-51.3	14.7	0.00e+00	0	40	0	224395264	66	5629
2026-01-10 01:33:06.86	343.00	15.94	-47.3	-51.4	14.7	0.00e+00	0	40	0	225443840	66	5676
2026-01-10 01:33:07.87	342.81	16.00	-47.3	-51.1	14.9	0.00e+00	0	40	0	227540992	66	5517
2026-01-10 01:33:08.87	342.62	16.06	-47.3	-51.0	15.0	0.00e+00	0	40	0	229638144	66	5418
2026-01-10 01:33:09.87	342.44	16.12	-47.3	-51.0	15.1	0.00e+00	0	40	0	231735296	66	5410
2026-01-10 01:33:10.88	342.25	16.18	-47.3	-50.9	15.1	0.00e+00	0	40	0	233832448	66	5361
2026-01-10 01:33:11.88	342.06	16.24	-47.4	-51.0	15.1	0.00e+00	0	40	0	234881024	66	5403
2026-01-10 01:33:12.88	341.87	16.30	-47.4	-50.9	15.1	0.00e+00	0	40	0	236978176	66	5346
2026-01-10 01:33:13.88	341.68	16.35	-47.4	-50.9	15.1	0.00e+00	0	40	0	239075328	66	5370
2026-01-10 01:33:14.89	341.49	16.41	-47.4	-50.9	15.1	0.00e+00	0	40	0	241172480	66	5360
2026-01-10 01:33:15.89	341.30	16.47	-47.5	-50.8	15.2	0.00e+00	0	40	0	243269632	66	5339
2026-01-10 01:33:16.89	341.11	16.53	-47.4	-50.7	15.3	0.00e+00	0	40	0	244318208	66	5265
2026-01-10 01:33:17.90	340.92	16.59	-47.2	-50.5	15.5	0.00e+00	0	40	0	246415360	66	5143
2026-01-10 01:33:18.97	340.71	16.65	-47.2	-50.5	15.5	0.00e+00	0	40	0	248512512	66	5136
2026-01-10 01:33:19.86	340.54	16.70	-47.2	-50.5	15.6	0.00e+00	0	40	0	250609664	66	5120
2026-01-10 01:33:21.00	340.32	16.76	-46.9	-50.1	15.9	0.00e+00	0	40	0	252706816	65	5188
2026-01-10 01:33:21.86	340.15	16.81	-46.8	-49.9	16.1	0.00e+00	0	40	0	253755392	65	5084
2026-01-10 01:33:23.00	339.92	16.87	-46.9	-50.0	16.0	0.00e+00	0	40	0	255852544	65	5157
2026-01-10 01:33:23.86	339.76	16.92	-46.8	-49.8	16.2	0.00e+00	0	40	0	257949696	65	5012
2026-01-10 01:33:25.01	339.53	16.99	-46.8	-49.8	16.2	0.00e+00	0	40	0	260046848	65	5010
2026-01-10 01:33:25.86	339.36	17.03	-46.8	-49.8	16.2	0.00e+00	0	40	0	261095424	65	5000
2026-01-10 01:33:27.01	339.13	17.10	-46.6	-49.7	16.4	0.00e+00	0	40	0	263192576	65	4936
2026-01-10 01:33:27.87	338.96	17.15	-46.4	-49.5	16.5	0.00e+00	0	40	0	265289728	64	5129
2026-01-10 01:33:29.02	338.73	17.21	-46.2	-49.3	16.7	0.00e+00	0	40	0	267386880	64	4998
2026-01-10 01:33:29.88	338.56	17.26	-46.2	-49.4	16.7	0.00e+00	0	40	0	269484032	64	5042
2026-01-10 01:33:31.02	338.33	17.32	-46.3	-49.4	16.6	0.00e+00	0	40	0	271581184	64	5072
2026-01-10 01:33:31.88	338.15	17.36	-46.2	-49.2	16.8	0.00e+00	0	40	0	272629760	64	4966
2026-01-10 01:33:33.03	337.92	17.43	-46.2	-49.2	16.8	0.00e+00	0	40	0	274726912	64	4964
2026-01-10 01:33:33.89	337.74	17.47	-46.3	-49.2	16.8	0.00e+00	0	40	0	276824064	64	4963
2026-01-10 01:33:35.03	337.51	17.53	-46.4	-49.3	16.7	0.00e+00	0	40	0	278921216	64	4986
2026-01-10 01:33:35.89	337.33	17.58	-46.3	-49.1	16.9	0.00e+00	0	40	0	279969792	64	4901
2026-01-10 01:33:37.04	337.09	17.64	-46.0	-49.0	17.0	0.00e+00	0	40	0	282066944	64	4827
2026-01-10 01:33:37.90	336.92	17.69	-46.1	-49.2	16.9	0.00e+00	0	40	0	284164096	63	5263
2026-01-10 01:33:39.04	336.68	17.74	-46.0	-49.3	16.8	0.00e+00	0	40	0	286261248	63	5281
2026-01-10 01:33:39.90	336.50	17.79	-45.9	-49.2	16.8	0.00e+00	0	40	0	288358400	63	5262
2026-01-10 01:33:41.05	336.26	17.85	-46.1	-49.3	16.8	0.00e+00	0	40	0	290455552	63	5282
2026-01-10 01:33:41.91	336.08	17.89	-46.1	-49.2	16.9	0.00e+00	0	40	0	291504128	63	5223
2026-01-10 01:33:43.05	335.84	17.95	-46.2	-49.1	17.0	0.00e+00	0	40	0	293601280	63	5192
2026-01-10 01:33:43.91	335.66	18.00	-46.3	-49.1	17.0	0.00e+00	0	40	0	295698432	63	5197
2026-01-10 01:33:45.06	335.41	18.05	-46.2	-49.0	17.1	0.00e+00	0	40	0	297795584	63	5107
2026-01-10 01:33:45.92	335.23	18.10	-46.3	-49.0	17.0	0.00e+00	0	40	0	298844160	63	5152
2026-01-10 01:33:47.07	334.98	18.15	-46.2	-49.1	17.0	0.00e+00	0	40	0	300941312	63	5210
2026-01-10 01:33:47.93	334.80	18.20	-46.1	-49.2	16.9	0.00e+00	0	40	0	303038464	63	5230
2026-01-10 01:33:49.08	334.55	18.25	-46.2	-49.3	16.8	0.00e+00	0	40	0	305135616	63	5280
2026-01-10 01:33:49.94	334.37	18.30	-46.3	-49.4	16.7	0.00e+00	0	40	0	307232768	63	5378
2026-01-10 01:33:51.08	334.12	18.35	-46.5	-49.6	16.6	0.00e+00	0	40	0	309329920	63	5480
2026-01-10 01:33:52.36	333.84	18.41	-46.5	-49.5	16.6	0.00e+00	0	40	0	311427072	63	5408
2026-01-10 01:33:53.07	333.69	18.45	-46.6	-49.6	16.5	0.00e+00	0	40	0	312475648	63	5472
2026-01-10 01:33:54.37	333.40	18.51	-46.7	-49.7	16.3	0.00e+00	0	40	0	314572800	64	5273
2026-01-10 01:33:55.08	333.25	18.54	-46.5	-49.5	16.6	0.00e+00	0	40	0	316669952	64	5107
2026-01-10 01:33:56.37	332.96	18.60	-46.5	-49.4	16.6	0.00e+00	0	40	0	318767104	64	5084
2026-01-10 01:33:57.09	332.80	18.64	-46.4	-49.4	16.6	0.00e+00	0	40	0	319815680	64	5071
2026-01-10 01:33:58.49	332.49	18.70	-46.4	-49.5	16.5	0.00e+00	0	40	0	322961408	64	5147
2026-01-10 01:33:59.20	332.34	18.74	-46.4	-49.6	16.5	0.00e+00	0	40	0	324009984	64	5181
2026-01-10 01:34:00.59	332.03	18.80	-46.3	-49.4	16.6	0.00e+00	0	40	0	327155712	64	5085
2026-01-10 01:34:01.57	331.81	18.84	-46.4	-49.5	16.6	0.00e+00	0	40	0	328204288	64	5110
2026-01-10 01:34:02.58	331.58	18.89	-46.3	-49.4	16.6	0.00e+00	0	40	0	330301440	64	5050
2026-01-10 01:34:03.58	331.36	18.93	-46.2	-49.1	16.9	0.00e+00	0	40	0	332398592	64	4889
2026-01-10 01:34:04.58	331.13	18.98	-46.1	-48.9	17.1	0.00e+00	0	40	0	334495744	64	4794
2026-01-10 01:34:05.58	330.90	19.02	-46.2	-49.0	17.0	0.00e+00	0	40	0	335544320	64	4824
2026-01-10 01:34:06.59	330.67	19.06	-46.1	-48.9	17.2	0.00e+00	0	40	0	337641472	64	4772
2026-01-10 01:34:07.59	330.45	19.11	-46.1	-48.8	17.2	0.00e+00	0	40	0	339738624	64	4749
2026-01-10 01:34:08.59	330.22	19.15	-46.0	-48.7	17.3	0.00e+00	0	40	0	341835776	64	4696
2026-01-10 01:34:09.60	329.99	19.19	-46.0	-48.7	17.3	0.00e+00	0	40	0	343932928	63	4981
2026-01-10 01:34:10.60	329.76	19.23	-46.0	-48.8	17.3	0.00e+00	0	40	0	344981504	63	4993
2026-01-10 01:34:11.60	329.53	19.27	-45.9	-48.7	17.4	0.00e+00	0	40	0	347078656	63	4929
2026-01-10 01:34:12.61	329.29	19.31	-46.0	-48.8	17.3	0.00e+00	0	40	0	349175808	63	5007
2026-01-10 01:34:13.85	329.01	19.36	-45.9	-48.8	17.3	0.00e+00	0	40	0	351272960	63	4995
2026-01-10 01:34:14.73	328.80	19.40	-45.9	-48.8	17.3	0.00e+00	0	40	0	353370112	63	5024
2026-01-10 01:34:15.88	328.53	19.44	-45.8	-48.7	17.4	0.00e+00	0	40	0	355467264	63	4969
2026-01-10 01:34:16.74	328.33	19.48	-45.8	-48.6	17.5	0.00e+00	0	40	0	356515840	63	4915
2026-01-10 01:34:17.88	328.07	19.52	-45.8	-48.7	17.4	0.00e+00	0	40	0	358612992	63	4969
2026-01-10 01:34:18.74	327.86	19.55	-45.9	-48.8	17.3	0.00e+00	0	40	0	360710144	63	4998
2026-01-10 01:34:19.89	327.59	19.60	-45.9	-48.8	17.3	0.00e+00	0	40	0	362807296	63	4988
2026-01-10 01:34:20.75	327.39	19.63	-46.0	-48.7	17.4	0.00e+00	0	40	0	364904448	63	4977
2026-01-10 01:34:21.90	327.12	19.67	-46.0	-48.7	17.4	0.00e+00	0	40	0	367001600	63	4949
2026-01-10 01:34:22.76	326.91	19.70	-45.9	-48.5	17.6	0.00e+00	0	40	0	368050176	63	4843
2026-01-10 01:34:23.90	326.64	19.74	-45.9	-48.5	17.6	0.00e+00	0	40	0	370147328	63	4828
2026-01-10 01:34:24.76	326.44	19.77	-45.9	-48.5	17.6	0.00e+00	0	40	0	372244480	63	4834
2026-01-10 01:34:26.01	326.14	19.82	-45.9	-48.5	17.5	0.00e+00	0	40	0	374341632	63	4854
2026-01-10 01:34:26.86	325.94	19.85	-45.8	-48.4	17.7	0.00e+00	0	40	0	375390208	63	4778
2026-01-10 01:34:28.01	325.66	19.88	-45.9	-48.5	17.6	0.00e+00	0	40	0	378535936	63	4834
2026-01-10 01:34:28.86	325.46	19.91	-45.9	-48.6	17.5	0.00e+00	0	40	0	379584512	63	4887
2026-01-10 01:34:30.11	325.16	19.95	-45.9	-48.7	17.4	0.00e+00	0	40	0	381681664	63	4957
2026-01-10 01:34:30.96	324.95	19.98	-46.0	-48.9	17.2	0.00e+00	0	40	0	383778816	63	5072
2026-01-10 01:34:32.11	324.67	20.02	-46.0	-49.0	17.1	0.00e+00	0	40	0	385875968	63	5114
2026-01-10 01:34:33.43	324.35	20.06	-46.0	-49.0	17.2	0.00e+00	0	40	0	387973120	63	5110
2026-01-10 01:34:34.15	324.18	20.08	-45.9	-48.9	17.2	0.00e+00	0	40	0	390070272	63	5050
2026-01-10 01:34:35.44	323.86	20.12	-46.2	-49.0	17.1	0.00e+00	0	40	0	392167424	63	5144
2026-01-10 01:34:36.16	323.69	20.14	-46.2	-49.0	17.1	0.00e+00	0	40	0	393216000	63	5141
2026-01-10 01:34:37.49	323.36	20.18	-46.3	-49.1	17.0	0.00e+00	0	40	0	396361728	63	5212
2026-01-10 01:34:38.21	323.18	20.20	-46.4	-49.2	17.0	0.00e+00	0	40	0	397410304	63	5220
2026-01-10 01:34:39.50	322.87	20.24	-46.5	-49.3	16.8	0.00e+00	0	40	0	399507456	63	5302
2026-01-10 01:34:40.22	322.69	20.26	-46.4	-49.2	16.9	0.00e+00	0	40	0	400556032	63	5228
2026-01-10 01:34:41.63	322.34	20.29	-46.4	-49.2	17.0	0.00e+00	0	40	0	403701760	63	5230
2026-01-10 01:34:42.35	322.17	20.31	-46.5	-49.3	16.8	0.00e+00	0	40	0	404750336	63	5299
2026-01-10 01:34:43.73	321.82	20.35	-46.4	-49.2	16.9	0.00e+00	0	40	0	407896064	63	5241
2026-01-10 01:34:44.45	321.65	20.37	-46.5	-49.4	16.8	0.00e+00	0	40	0	408944640	63	5352
2026-01-10 01:34:45.73	321.33	20.40	-46.5	-49.4	16.7	0.00e+00	0	40	0	411041792	63	5393
2026-01-10 01:34:46.45	321.15	20.42	-46.5	-49.5	16.7	0.00e+00	0	40	0	413138944	63	5414
2026-01-10 01:34:47.74	320.83	20.45	-46.6	-49.7	16.5	0.00e+00	0	40	0	415236096	63	5536
2026-01-10 01:34:48.46	320.65	20.46	-46.6	-49.8	16.3	0.00e+00	0	40	0	416284672	63	5615
2026-01-10 01:34:49.75	320.33	20.49	-46.7	-49.8	16.4	0.00e+00	0	40	0	418381824	63	5624
2026-01-10 01:34:50.46	320.15	20.51	-46.7	-49.8	16.2	0.00e+00	0	40	0	420478976	64	5335
2026-01-10 01:34:51.75	319.82	20.54	-46.8	-49.9	16.2	0.00e+00	0	40	0	422576128	64	5365
2026-01-10 01:34:52.50	319.64	20.55	-46.9	-50.0	16.1	0.00e+00	0	40	0	423624704	64	5435
2026-01-10 01:34:53.79	319.31	20.58	-46.9	-50.0	16.1	0.00e+00	0	40	0	426770432	64	5427
2026-01-10 01:34:54.57	319.12	20.59	-46.9	-50.1	16.0	0.00e+00	0	40	0	427819008	64	5482
2026-01-10 01:34:55.86	318.79	20.62	-46.9	-50.0	16.0	0.00e+00	0	40	0	429916160	64	5459
2026-01-10 01:34:56.58	318.61	20.63	-46.9	-50.0	16.1	0.00e+00	0	40	0	432013312	64	5438
2026-01-10 01:34:57.87	318.28	20.65	-47.0	-50.2	15.9	0.00e+00	0	40	0	434110464	64	5566
2026-01-10 01:34:58.66	318.08	20.67	-47.1	-50.2	15.9	0.00e+00	0	40	0	435159040	64	5575
2026-01-10 01:34:59.81	317.79	20.69	-47.2	-50.4	15.7	0.00e+00	0	40	0	437256192	65	5376
2026-01-10 01:35:00.67	317.57	20.70	-47.2	-50.4	15.6	0.00e+00	0	40	0	439353344	65	5399
2026-01-10 01:35:01.81	317.29	20.72	-47.3	-50.5	15.6	0.00e+00	0	40	0	441450496	65	5425
2026-01-10 01:35:02.67	317.07	20.73	-47.3	-50.5	15.6	0.00e+00	0	40	0	443547648	65	5428
2026-01-10 01:35:03.82	316.77	20.75	-47.3	-50.6	15.5	0.00e+00	0	40	0	445644800	65	5490
2026-01-10 01:35:04.68	316.56	20.76	-47.3	-50.6	15.5	0.00e+00	0	40	0	446693376	65	5477
2026-01-10 01:35:05.92	316.24	20.78	-47.4	-50.6	15.5	0.00e+00	0	40	0	448790528	65	5496
2026-01-10 01:35:06.78	316.02	20.79	-47.4	-50.7	15.4	0.00e+00	0	40	0	450887680	65	5561
2026-01-10 01:35:07.99	315.71	20.80	-47.3	-50.6	15.4	0.00e+00	0	40	0	452984832	65	5528
2026-01-10 01:35:08.85	315.49	20.81	-47.3	-50.7	15.4	0.00e+00	0	40	0	455081984	65	5561
2026-01-10 01:35:10.06	315.18	20.83	-47.2	-50.6	15.5	0.00e+00	0	40	0	457179136	65	5514
2026-01-10 01:35:10.91	314.97	20.83	-47.3	-50.7	15.4	0.00e+00	0	40	0	458227712	65	5570
2026-01-10 01:35:12.12	314.66	20.85	-47.4	-50.7	15.4	0.00e+00	0	40	0	460324864	65	5574
2026-01-10 01:35:12.99	314.43	20.85	-47.3	-50.5	15.6	0.00e+00	0	40	0	462422016	65	5454
2026-01-10 01:35:14.13	314.14	20.86	-47.2	-50.4	15.7	0.00e+00	0	40	0	464519168	65	5367
2026-01-10 01:35:14.99	313.92	20.87	-47.4	-50.5	15.6	0.00e+00	0	41	0	466616320	65	5459
2026-01-10 01:35:16.14	313.63	20.88	-47.3	-50.4	15.7	0.00e+00	0	40	0	468713472	65	5383
2026-01-10 01:35:17.05	313.39	20.88	-47.4	-50.6	15.5	0.00e+00	0	40	0	469762048	65	5483
2026-01-10 01:35:18.05	313.14	20.89	-47.5	-50.7	15.4	0.00e+00	0	40	0	471859200	65	5553
2026-01-10 01:35:19.05	312.88	20.90	-47.4	-50.7	15.4	0.00e+00	0	40	0	473956352	65	5539
2026-01-10 01:35:20.05	312.62	20.90	-47.5	-50.7	15.3	7.00e-07	0	40	0	476053504	65	5579
2026-01-10 01:35:21.06	312.36	20.90	-47.5	-50.7	15.4	0.00e+00	0	40	0	477102080	65	5565
2026-01-10 01:35:22.06	312.10	20.91	-47.5	-50.7	15.4	0.00e+00	0	40	0	479199232	65	5567
2026-01-10 01:35:23.06	311.85	20.91	-47.5	-50.7	15.4	0.00e+00	0	40	0	481296384	65	5547
2026-01-10 01:35:24.07	311.59	20.91	-47.5	-50.8	15.3	0.00e+00	0	40	0	483393536	65	5619
2026-01-10 01:35:25.07	311.33	20.91	-47.6	-50.9	15.3	0.00e+00	0	40	0	485490688	65	5664
2026-01-10 01:35:26.08	311.07	20.92	-47.5	-50.9	15.3	0.00e+00	0	40	0	486539264	65	5658
2026-01-10 01:35:27.08	310.81	20.92	-47.4	-50.7	15.4	0.00e+00	0	40	0	488636416	65	5575
2026-01-10 01:35:28.08	310.56	20.92	-47.3	-50.7	15.4	0.00e+00	0	40	0	490733568	65	5549
2026-01-10 01:35:29.08	310.30	20.92	-47.3	-50.7	15.4	0.00e+00	0	40	0	492830720	65	5532
2026-01-10 01:35:30.09	310.04	20.91	-47.2	-50.5	15.6	0.00e+00	0	40	0	494927872	65	5424
2026-01-10 01:35:31.09	309.78	20.91	-47.1	-50.3	15.8	0.00e+00	0	40	0	495976448	65	5317
2026-01-10 01:35:32.09	309.52	20.91	-47.2	-50.3	15.8	0.00e+00	0	40	0	498073600	65	5312
2026-01-10 01:35:33.10	309.27	20.91	-47.1	-50.2	15.9	0.00e+00	0	40	0	500170752	65	5246
2026-01-10 01:35:34.10	309.01	20.90	-47.1	-50.2	15.9	0.00e+00	0	40	0	502267904	65	5250
2026-01-10 01:35:35.10	308.75	20.90	-47.2	-50.2	15.8	0.00e+00	0	40	0	504365056	65	5273
2026-01-10 01:35:36.11	308.49	20.89	-47.2	-50.2	15.9	0.00e+00	0	40	0	505413632	65	5270
2026-01-10 01:35:37.11	308.23	20.89	-47.1	-50.2	15.9	0.00e+00	0	40	0	507510784	65	5245
2026-01-10 01:35:38.11	307.98	20.88	-47.1	-50.1	16.0	0.00e+00	0	40	0	509607936	65	5207
2026-01-10 01:35:39.47	307.63	20.87	-47.1	-50.1	16.0	0.00e+00	0	40	0	511705088	65	5187
2026-01-10 01:35:40.22	307.44	20.87	-47.0	-50.0	16.1	0.00e+00	0	40	0	513802240	65	5148
2026-01-10 01:35:41.51	307.11	20.85	-47.0	-50.0	16.1	0.00e+00	0	40	0	515899392	65	5155
2026-01-10 01:35:42.22	306.92	20.85	-47.0	-49.9	16.2	0.00e+00	0	40	0	516947968	65	5093
2026-01-10 01:35:43.51	306.59	20.84	-47.0	-50.0	16.1	0.00e+00	0	40	0	520093696	65	5101
2026-01-10 01:35:44.23	306.41	20.83	-47.0	-50.0	16.2	0.00e+00	0	40	0	521142272	65	5109
2026-01-10 01:35:45.52	306.08	20.82	-46.9	-49.8	16.2	0.00e+00	0	40	0	523239424	65	5033
2026-01-10 01:35:46.24	305.89	20.81	-46.9	-49.8	16.3	0.00e+00	0	40	0	524288000	65	5005
2026-01-10 01:35:47.53	305.57	20.79	-46.9	-49.8	16.3	0.00e+00	0	40	0	527433728	65	5038
2026-01-10 01:35:48.24	305.38	20.78	-46.9	-49.8	16.3	0.00e+00	0	40	0	528482304	65	5034
2026-01-10 01:35:49.53	305.06	20.77	-46.6	-49.4	16.7	0.00e+00	0	40	0	530579456	65	4793
2026-01-10 01:35:50.25	304.87	20.76	-46.5	-49.2	16.9	0.00e+00	0	40	0	532676608	64	4967
2026-01-10 01:35:51.72	304.50	20.74	-46.3	-49.0	17.1	0.00e+00	0	40	0	534773760	64	4864
2026-01-10 01:35:52.43	304.32	20.72	-46.3	-49.0	17.1	0.00e+00	0	40	0	536870912	64	4850
2026-01-10 01:35:53.72	303.99	20.70	-46.3	-49.0	17.1	0.00e+00	0	40	0	538968064	64	4865
2026-01-10 01:35:54.43	303.81	20.69	-46.3	-49.0	17.1	0.00e+00	0	40	0	540016640	64	4843
2026-01-10 01:35:55.72	303.48	20.67	-46.4	-49.1	17.0	0.00e+00	0	40	0	542113792	64	4886
2026-01-10 01:35:56.44	303.30	20.66	-46.3	-49.0	17.1	0.00e+00	0	40	0	544210944	64	4830
2026-01-10 01:35:57.73	302.97	20.64	-46.3	-49.0	17.0	0.00e+00	0	40	0	546308096	64	4859
2026-01-10 01:35:58.45	302.79	20.62	-46.2	-48.9	17.1	0.00e+00	0	40	0	547356672	64	4810
2026-01-10 01:35:59.74	302.47	20.60	-46.3	-49.0	17.1	0.00e+00	0	40	0	550502400	64	4828
2026-01-10 01:36:00.45	302.29	20.58	-46.3	-49.0	17.1	0.00e+00	0	40	0	551550976	64	4861
2026-01-10 01:36:01.74	301.96	20.56	-46.2	-48.8	17.3	0.00e+00	0	40	0	553648128	64	4755
2026-01-10 01:36:02.50	301.77	20.54	-46.1	-48.8	17.3	0.00e+00	0	40	0	555745280	64	4727
2026-01-10 01:36:03.79	301.45	20.52	-46.1	-48.7	17.3	0.00e+00	0	40	0	557842432	64	4696
2026-01-10 01:36:04.57	301.25	20.50	-46.1	-48.7	17.4	0.00e+00	0	40	0	558891008	64	4674
2026-01-10 01:36:05.86	300.93	20.47	-46.0	-48.6	17.5	0.00e+00	0	40	0	562036736	64	4613
2026-01-10 01:36:06.58	300.75	20.45	-46.0	-48.6	17.6	0.00e+00	0	40	0	563085312	63	4901
2026-01-10 01:36:07.87	300.43	20.42	-45.8	-48.4	17.8	0.00e+00	0	40	0	565182464	63	4770
2026-01-10 01:36:08.59	300.25	20.41	-45.8	-48.3	17.8	0.00e+00	0	40	0	566231040	63	4745
2026-01-10 01:36:09.88	299.93	20.37	-45.8	-48.3	17.9	0.00e+00	0	40	0	569376768	63	4717
2026-01-10 01:36:10.59	299.75	20.36	-45.7	-48.2	17.9	0.00e+00	0	40	0	570425344	63	4699
2026-01-10 01:36:11.88	299.43	20.32	-45.6	-48.1	18.0	0.00e+00	0	40	0	572522496	63	4623
2026-01-10 01:36:12.60	299.25	20.30	-45.6	-48.1	18.1	0.00e+00	0	40	0	574619648	63	4605
2026-01-10 01:36:13.89	298.93	20.27	-45.7	-48.2	17.9	0.00e+00	0	40	0	576716800	63	4679
2026-01-10 01:36:14.60	298.76	20.25	-45.8	-48.3	17.9	0.00e+00	0	40	0	577765376	63	4727
2026-01-10 01:36:16.07	298.40	20.21	-46.0	-48.5	17.6	0.00e+00	0	40	0	580911104	63	4863
2026-01-10 01:36:16.79	298.22	20.19	-46.0	-48.6	17.5	0.00e+00	0	40	0	581959680	63	4920
2026-01-10 01:36:18.15	297.89	20.15	-46.1	-48.8	17.4	0.00e+00	0	40	0	585105408	63	4997
2026-01-10 01:36:18.87	297.71	20.13	-46.2	-48.8	17.3	0.00e+00	0	40	0	586153984	63	5041
2026-01-10 01:36:20.16	297.40	20.09	-46.1	-48.8	17.4	0.00e+00	0	40	0	588251136	63	4999
2026-01-10 01:36:20.88	297.22	20.07	-46.0	-48.6	17.5	0.00e+00	0	40	0	589299712	63	4921
2026-01-10 01:36:22.31	296.87	20.02	-45.8	-48.3	17.9	0.00e+00	0	40	0	592445440	63	4732
2026-01-10 01:36:23.03	296.70	20.00	-45.8	-48.3	17.8	0.00e+00	0	40	0	593494016	63	4741
2026-01-10 01:36:24.32	296.38	19.96	-45.9	-48.4	17.8	0.00e+00	0	40	0	596639744	63	4782
2026-01-10 01:36:25.04	296.21	19.93	-45.9	-48.4	17.7	0.00e+00	0	40	0	597688320	63	4791
2026-01-10 01:36:26.32	295.90	19.89	-46.0	-48.6	17.6	0.00e+00	0	40	0	599785472	63	4878
2026-01-10 01:36:27.04	295.73	19.87	-46.1	-48.7	17.4	0.00e+00	0	40	0	600834048	63	4981
2026-01-10 01:36:28.33	295.42	19.82	-46.3	-48.9	17.2	0.00e+00	0	40	0	603979776	63	5097
2026-01-10 01:36:29.05	295.25	19.80	-46.3	-49.0	17.2	0.00e+00	0	40	0	605028352	63	5115
2026-01-10 01:36:30.34	294.94	19.75	-46.6	-49.3	16.9	0.00e+00	0	40	0	607125504	63	5308
2026-01-10 01:36:31.10	294.76	19.73	-46.6	-49.3	16.9	0.00e+00	0	40	0	609222656	63	5306
2026-01-10 01:36:32.39	294.45	19.68	-46.6	-49.4	16.8	0.00e+00	0	40	0	611319808	63	5366
2026-01-10 01:36:33.17	294.27	19.65	-46.6	-49.4	16.7	0.00e+00	0	40	0	612368384	64	5057
2026-01-10 01:36:34.67	293.91	19.60	-46.7	-49.5	16.5	0.00e+00	0	40	0	615514112	64	5148
2026-01-10 01:36:35.38	293.74	19.57	-46.8	-49.7	16.5	0.00e+00	0	40	0	616562688	64	5223
2026-01-10 01:36:36.86	293.39	19.51	-46.7	-49.5	16.6	0.00e+00	0	40	0	619708416	64	5131
2026-01-10 01:36:37.58	293.23	19.49	-46.7	-49.4	16.6	0.00e+00	0	40	0	620756992	64	5100
2026-01-10 01:36:38.87	292.92	19.44	-46.6	-49.4	16.7	0.00e+00	0	40	0	623902720	64	5087
2026-01-10 01:36:39.58	292.76	19.41	-46.7	-49.4	16.7	0.00e+00	0	40	0	624951296	64	5088
2026-01-10 01:36:40.87	292.46	19.36	-46.8	-49.6	16.5	0.00e+00	0	40	0	627048448	64	5212
2026-01-10 01:36:41.59	292.29	19.33	-46.8	-49.6	16.5	0.00e+00	0	40	0	628097024	64	5217
2026-01-10 01:36:42.88	291.99	19.27	-47.1	-50.0	16.1	0.00e+00	0	40	0	631242752	64	5457
2026-01-10 01:36:43.59	291.83	19.25	-47.2	-50.3	15.9	0.00e+00	0	40	0	632291328	65	5286
2026-01-10 01:36:44.88	291.53	19.19	-47.1	-50.1	16.0	0.00e+00	0	40	0	634388480	65	5218
2026-01-10 01:36:45.60	291.36	19.16	-47.2	-50.2	15.9	0.00e+00	0	40	0	636485632	65	5261
2026-01-10 01:36:47.24	290.99	19.09	-47.3	-50.4	15.8	0.00e+00	0	40	0	639631360	65	5360
2026-01-10 01:36:47.81	290.86	19.07	-47.2	-50.2	15.9	0.00e+00	0	40	0	640679936	65	5253
2026-01-10 01:36:49.59	290.45	18.99	-47.1	-50.1	16.0	0.00e+00	0	40	0	643825664	65	5216
2026-01-10 01:36:50.17	290.32	18.97	-47.2	-50.2	15.9	0.00e+00	0	40	0	644874240	65	5271
2026-01-10 01:36:51.75	289.96	18.90	-47.1	-50.1	16.0	0.00e+00	0	40	0	648019968	65	5199
2026-01-10 01:36:52.35	289.83	18.87	-47.0	-50.0	16.0	0.00e+00	0	40	0	649068544	65	5157
2026-01-10 01:36:53.92	289.48	18.80	-47.0	-50.0	16.0	0.00e+00	0	40	0	652214272	65	5152
2026-01-10 01:36:54.51	289.34	18.77	-47.0	-50.1	16.1	0.00e+00	0	40	0	653262848	65	5163
2026-01-10 01:36:56.09	288.99	18.70	-47.0	-50.0	16.1	0.00e+00	0	40	0	655360000	65	5148
2026-01-10 01:36:56.70	288.86	18.67	-47.1	-50.1	16.0	0.00e+00	0	40	0	656408576	65	5169
2026-01-10 01:36:58.44	288.47	18.59	-47.1	-50.1	16.0	0.00e+00	0	40	0	660602880	65	5185
2026-01-10 01:36:59.01	288.34	18.56	-47.2	-50.2	15.9	0.00e+00	0	40	0	661651456	65	5266
2026-01-10 01:37:00.59	288.00	18.49	-47.4	-50.5	15.6	0.00e+00	0	40	0	663748608	65	5446
2026-01-10 01:37:01.18	287.87	18.46	-47.4	-50.6	15.5	0.00e+00	0	40	0	664797184	65	5485
2026-01-10 01:37:02.75	287.52	18.38	-47.4	-50.6	15.5	0.00e+00	0	40	0	667942912	65	5501
2026-01-10 01:37:03.34	287.39	18.36	-47.4	-50.6	15.5	0.00e+00	0	40	0	668991488	65	5502
2026-01-10 01:37:04.92	287.05	18.28	-47.5	-50.6	15.5	0.00e+00	0	40	0	672137216	65	5510
2026-01-10 01:37:05.52	286.92	18.25	-47.4	-50.5	15.6	0.00e+00	0	40	0	673185792	65	5439
2026-01-10 01:37:07.10	286.58	18.17	-47.0	-50.0	16.1	0.00e+00	0	40	0	676331520	65	5134
2026-01-10 01:37:07.91	286.41	18.13	-47.0	-49.9	16.2	0.00e+00	0	40	0	677380096	65	5080
2026-01-10 01:37:09.06	286.16	18.07	-47.0	-50.0	16.1	0.00e+00	0	40	0	680525824	65	5120
2026-01-10 01:37:09.92	285.98	18.03	-47.1	-50.0	16.1	0.00e+00	0	40	0	681574400	65	5154
2026-01-10 01:37:11.06	285.74	17.97	-47.2	-50.2	15.9	0.00e+00	0	40	0	683671552	65	5259
2026-01-10 01:37:11.92	285.55	17.93	-47.3	-50.3	15.7	0.00e+00	0	40	0	685768704	65	5332
2026-01-10 01:37:13.12	285.30	17.86	-47.3	-50.4	15.7	0.00e+00	0	40	0	687865856	65	5377
2026-01-10 01:37:13.97	285.12	17.82	-47.4	-50.6	15.5	0.00e+00	0	40	0	688914432	65	5484
2026-01-10 01:37:15.12	284.88	17.76	-47.5	-50.7	15.4	0.00e+00	0	40	0	691011584	65	5587
2026-01-10 01:37:15.98	284.70	17.72	-47.5	-50.8	15.3	0.00e+00	0	40	0	693108736	65	5628
2026-01-10 01:37:17.13	284.46	17.66	-47.6	-50.8	15.3	0.00e+00	0	40	0	695205888	65	5644
2026-01-10 01:37:17.99	284.28	17.61	-47.5	-50.7	15.4	0.00e+00	0	40	0	697303040	65	5575
2026-01-10 01:37:19.14	284.04	17.55	-47.5	-50.6	15.5	0.00e+00	0	40	0	699400192	65	5524
2026-01-10 01:37:20.12	283.84	17.50	-47.4	-50.6	15.5	0.00e+00	0	40	0	700448768	65	5496
2026-01-10 01:37:21.12	283.64	17.44	-47.4	-50.5	15.6	0.00e+00	0	40	0	702545920	65	5416
2026-01-10 01:37:22.13	283.43	17.39	-47.4	-50.6	15.5	0.00e+00	0	40	0	704643072	65	5465
2026-01-10 01:37:23.13	283.23	17.33	-47.5	-50.7	15.5	0.00e+00	0	40	0	706740224	65	5531
2026-01-10 01:37:24.13	283.02	17.28	-47.5	-50.7	15.4	0.00e+00	0	40	0	708837376	65	5571
2026-01-10 01:37:25.14	282.82	17.22	-47.5	-50.7	15.4	0.00e+00	0	40	0	709885952	65	5566
2026-01-10 01:37:26.14	282.62	17.17	-47.5	-50.7	15.4	0.00e+00	0	40	0	711983104	65	5544
2026-01-10 01:37:27.15	282.41	17.11	-47.4	-50.6	15.5	0.00e+00	0	40	0	714080256	65	5486
2026-01-10 01:37:28.15	282.21	17.06	-47.5	-50.7	15.4	0.00e+00	0	40	0	716177408	65	5555
2026-01-10 01:37:29.15	282.02	17.00	-47.4	-50.6	15.5	0.00e+00	0	40	0	717225984	65	5497
2026-01-10 01:37:30.16	281.81	16.95	-47.4	-50.6	15.4	0.00e+00	0	40	0	719323136	65	5525
2026-01-10 01:37:31.16	281.62	16.89	-47.5	-50.7	15.4	0.00e+00	0	40	0	721420288	65	5575
2026-01-10 01:37:32.20	281.41	16.83	-47.3	-50.4	15.6	0.00e+00	0	40	0	723517440	65	5396
2026-01-10 01:37:33.20	281.22	16.77	-47.3	-50.5	15.6	0.00e+00	0	40	0	725614592	65	5415
2026-01-10 01:37:34.26	281.01	16.71	-47.3	-50.4	15.7	0.00e+00	0	40	0	727711744	65	5347
2026-01-10 01:37:35.15	280.83	16.66	-47.2	-50.2	15.8	0.00e+00	0	40	0	728760320	65	5257
2026-01-10 01:37:36.30	280.61	16.60	-47.2	-50.4	15.8	0.00e+00	0	40	0	730857472	65	5343
2026-01-10 01:37:37.16	280.45	16.55	-47.3	-50.4	15.6	0.00e+00	0	40	0	732954624	65	5401
2026-01-10 01:37:38.31	280.22	16.48	-47.5	-50.7	15.4	0.00e+00	0	40	0	735051776	65	5555
2026-01-10 01:37:39.31	280.03	16.42	-47.5	-50.8	15.3	0.00e+00	0	40	0	737148928	65	5618
2026-01-10 01:37:40.49	279.81	16.36	-47.6	-51.0	15.1	0.00e+00	0	40	0	739246080	65	5732
2026-01-10 01:37:41.34	279.64	16.31	-47.7	-51.1	15.0	0.00e+00	0	40	0	740294656	66	5466
2026-01-10 01:37:42.49	279.43	16.24	-47.7	-51.0	15.1	0.00e+00	0	40	0	742391808	66	5426
2026-01-10 01:37:43.35	279.26	16.19	-47.6	-50.9	15.1	0.00e+00	0	40	0	744488960	66	5400
2026-01-10 01:37:44.50	279.05	16.12	-47.5	-50.8	15.3	0.00e+00	0	40	0	746586112	66	5300
2026-01-10 01:37:45.36	278.89	16.07	-47.4	-50.6	15.4	7.00e-07	0	40	0	747634688	66	5199
2026-01-10 01:37:46.50	278.67	16.00	-47.3	-50.4	15.6	0.00e+00	0	40	0	749731840	66	5096
2026-01-10 01:37:47.36	278.51	15.95	-47.2	-50.4	15.7	0.00e+00	0	40	0	751828992	66	5049
2026-01-10 01:37:48.51	278.30	15.88	-47.2	-50.3	15.7	0.00e+00	0	40	0	753926144	66	5019
2026-01-10 01:37:49.37	278.14	15.83	-47.2	-50.4	15.6	0.00e+00	0	40	0	756023296	66	5084
2026-01-10 01:37:50.52	277.93	15.76	-47.3	-50.5	15.5	0.00e+00	0	40	0	758120448	66	5144
2026-01-10 01:37:51.38	277.78	15.71	-47.6	-50.8	15.2	0.00e+00	0	40	0	759169024	66	5334
2026-01-10 01:37:52.53	277.57	15.64	-47.7	-51.0	15.1	0.00e+00	0	40	0	761266176	66	5424
2026-01-10 01:37:53.39	277.41	15.59	-47.8	-51.2	14.9	0.00e+00	0	40	0	763363328	66	5539
2026-01-10 01:37:54.53	277.20	15.52	-47.9	-51.3	14.7	0.00e+00	0	40	0	765460480	66	5635
2026-01-10 01:37:55.39	277.05	15.47	-47.9	-51.4	14.7	7.00e-07	0	40	0	766509056	66	5663
2026-01-10 01:37:56.65	276.82	15.40	-47.8	-51.3	14.7	7.00e-07	0	40	0	769654784	66	5613
2026-01-10 01:37:57.37	276.70	15.35	-47.8	-51.3	14.8	0.00e+00	0	40	0	770703360	66	5599
2026-01-10 01:37:58.66	276.47	15.27	-47.8	-51.4	14.7	0.00e+00	0	40	0	772800512	66	5658
2026-01-10 01:37:59.37	276.34	15.23	-47.8	-51.3	14.8	7.00e-07	0	40	0	774897664	66	5605
2026-01-10 01:38:00.66	276.11	15.15	-47.9	-51.4	14.7	7.00e-07	0	40	0	776994816	66	5682
2026-01-10 01:38:01.38	275.99	15.11	-48.0	-51.5	14.6	2.20e-06	0	40	0	778043392	66	5751
2026-01-10 01:38:02.67	275.76	15.03	-48.0	-51.6	14.5	0.00e+00	0	40	0	780140544	66	5804
2026-01-10 01:38:03.49	275.62	14.98	-48.1	-51.6	14.4	0.00e+00	0	40	0	782237696	66	5852
2026-01-10 01:38:04.64	275.42	14.91	-48.1	-51.7	14.4	7.00e-07	0	40	0	784334848	66	5873
2026-01-10 01:38:05.71	275.24	14.84	-48.1	-51.7	14.4	3.00e-06	0	40	0	786432000	66	5862
2026-01-10 01:38:06.74	275.06	14.78	-48.1	-51.6	14.4	0.00e+00	0	40	0	788529152	66	5824
2026-01-10 01:38:07.74	274.89	14.72	-48.1	-51.6	14.4	1.50e-06	0	40	0	789577728	66	5825
2026-01-10 01:38:08.74	274.72	14.65	-48.0	-51.6	14.4	1.50e-06	0	40	0	791674880	66	5826
2026-01-10 01:38:09.74	274.55	14.59	-48.0	-51.6	14.4	0.00e+00	0	40	0	793772032	66	5818
2026-01-10 01:38:10.74	274.38	14.53	-48.0	-51.5	14.5	1.50e-06	0	40	0	795869184	66	5766
2026-01-10 01:38:11.75	274.21	14.47	-48.0	-51.5	14.5	0.00e+00	0	40	0	797966336	66	5782
2026-01-10 01:38:12.75	274.04	14.40	-48.1	-51.6	14.4	0.00e+00	0	40	0	799014912	66	5830
2026-01-10 01:38:13.76	273.87	14.34	-48.1	-51.7	14.3	7.00e-07	0	40	0	801112064	66	5878
2026-01-10 01:38:14.76	273.71	14.28	-48.1	-51.7	14.3	0.00e+00	0	40	0	803209216	66	5899
2026-01-10 01:38:15.76	273.54	14.22	-48.1	-51.7	14.3	0.00e+00	0	40	0	805306368	66	5894
2026-01-10 01:38:16.77	273.38	14.15	-48.2	-51.8	14.2	1.50e-06	0	40	0	807403520	66	5956
2026-01-10 01:38:17.77	273.21	14.09	-48.1	-51.7	14.3	0.00e+00	0	40	0	808452096	66	5878
2026-01-10 01:38:18.77	273.05	14.03	-48.0	-51.5	14.5	2.20e-06	0	40	0	810549248	66	5760
2026-01-10 01:38:19.77	272.89	13.96	-47.9	-51.3	14.7	0.00e+00	0	40	0	812646400	66	5639
2026-01-10 01:38:20.95	272.70	13.89	-47.8	-51.3	14.7	0.00e+00	0	40	0	814743552	66	5600
2026-01-10 01:38:21.83	272.55	13.84	-47.8	-51.1	14.9	0.00e+00	0	40	0	816840704	66	5515
2026-01-10 01:38:23.15	272.34	13.75	-47.7	-51.0	15.0	0.00e+00	0	40	0	818937856	66	5459
2026-01-10 01:38:24.28	272.16	13.68	-47.7	-51.1	14.9	0.00e+00	0	40	0	821035008	66	5475
2026-01-10 01:38:25.14	272.03	13.63	-47.6	-50.8	15.2	7.00e-07	0	40	0	823132160	66	5318
2026-01-10 01:38:26.28	271.85	13.55	-47.5	-50.7	15.3	0.00e+00	0	40	0	825229312	66	5247
2026-01-10 01:38:27.14	271.71	13.50	-47.5	-50.7	15.3	0.00e+00	0	40	0	826277888	66	5242
2026-01-10 01:38:28.31	271.53	13.43	-47.5	-50.7	15.3	0.00e+00	0	40	0	828375040	66	5266
2026-01-10 01:38:29.17	271.39	13.37	-47.5	-50.8	15.2	0.00e+00	0	40	0	830472192	66	5280
2026-01-10 01:38:30.31	271.22	13.30	-47.6	-50.9	15.1	0.00e+00	0	40	0	832569344	66	5364
2026-01-10 01:38:31.18	271.08	13.24	-47.5	-50.8	15.2	0.00e+00	0	40	0	833617920	66	5281
2026-01-10 01:38:32.32	270.91	13.17	-47.5	-50.8	15.1	0.00e+00	0	40	0	835715072	66	5325
2026-01-10 01:38:33.18	270.77	13.12	-47.4	-50.7	15.3	7.00e-07	0	40	0	837812224	66	5265
2026-01-10 01:38:34.52	270.57	13.03	-47.4	-50.7	15.3	0.00e+00	0	40	0	839909376	66	5253
2026-01-10 01:38:35.23	270.46	12.99	-47.3	-50.6	15.4	0.00e+00	0	40	0	842006528	66	5204
2026-01-10 01:38:36.53	270.27	12.90	-47.2	-50.4	15.6	0.00e+00	0	40	0	844103680	66	5078
2026-01-10 01:38:37.24	270.16	12.86	-47.2	-50.4	15.5	0.00e+00	0	40	0	845152256	66	5097
2026-01-10 01:38:38.53	269.97	12.78	-47.2	-50.3	15.6	0.00e+00	0	40	0	848297984	66	5025
2026-01-10 01:38:39.26	269.86	12.73	-47.1	-50.3	15.7	0.00e+00	0	40	0	849346560	66	5001
2026-01-10 01:38:40.55	269.66	12.65	-47.1	-50.2	15.8	0.00e+00	0	40	0	851443712	66	4936
2026-01-10 01:38:41.27	269.56	12.60	-47.0	-50.1	15.8	0.00e+00	0	40	0	852492288	66	4913
2026-01-10 01:38:42.56	269.37	12.52	-47.1	-50.2	15.8	0.00e+00	0	40	0	855638016	66	4954
2026-01-10 01:38:43.28	269.26	12.47	-47.1	-50.2	15.7	0.00e+00	0	40	0	856686592	66	4975
2026-01-10 01:38:44.56	269.08	12.39	-47.1	-50.2	15.8	0.00e+00	0	40	0	858783744	66	4938
2026-01-10 01:38:45.28	268.97	12.35	-47.0	-50.1	15.8	0.00e+00	0	40	0	860880896	66	4893
2026-01-10 01:38:46.57	268.78	12.26	-47.0	-50.2	15.8	0.00e+00	0	40	0	862978048	66	4932
2026-01-10 01:38:47.29	268.68	12.22	-47.0	-50.0	15.9	0.00e+00	0	40	0	864026624	66	4869
2026-01-10 01:38:48.69	268.48	12.13	-46.9	-50.0	15.9	0.00e+00	0	40	0	867172352	65	5132
2026-01-10 01:38:49.68	268.34	12.06	-46.9	-49.9	15.9	0.00e+00	0	40	0	869269504	65	5099
2026-01-10 01:38:51.00	268.15	11.98	-46.8	-49.9	16.1	0.00e+00	0	40	0	871366656	65	5046
2026-01-10 01:38:51.71	268.05	11.94	-46.8	-49.8	16.1	0.00e+00	0	40	0	872415232	65	5017
2026-01-10 01:38:53.00	267.87	11.85	-46.8	-49.8	16.1	0.00e+00	0	40	0	874512384	65	5015
2026-01-10 01:38:53.72	267.77	11.81	-46.8	-49.8	16.1	0.00e+00	0	40	0	876609536	65	5028
2026-01-10 01:38:55.01	267.59	11.72	-46.9	-49.9	15.9	0.00e+00	0	40	0	878706688	65	5095
2026-01-10 01:38:55.73	267.49	11.68	-46.8	-49.8	16.0	0.00e+00	0	40	0	879755264	65	5040
2026-01-10 01:38:57.01	267.31	11.60	-46.8	-49.8	16.0	0.00e+00	0	40	0	882900992	65	5025
2026-01-10 01:38:57.73	267.21	11.55	-46.9	-49.9	16.0	0.00e+00	0	40	0	883949568	65	5061
2026-01-10 01:38:59.06	267.03	11.47	-46.8	-49.8	16.1	0.00e+00	0	40	0	886046720	65	5004
2026-01-10 01:38:59.77	266.93	11.42	-46.8	-49.8	16.1	0.00e+00	0	40	0	888143872	65	5002
2026-01-10 01:39:01.18	266.74	11.33	-46.8	-49.8	16.1	0.00e+00	0	40	0	890241024	65	4984
2026-01-10 01:39:01.90	266.65	11.28	-46.8	-49.8	16.1	0.00e+00	0	40	0	891289600	65	5003
2026-01-10 01:39:03.19	266.47	11.20	-46.7	-49.7	16.1	0.00e+00	0	40	0	894435328	65	4963
2026-01-10 01:39:03.91	266.38	11.16	-46.7	-49.7	16.2	0.00e+00	0	40	0	895483904	65	4944
2026-01-10 01:39:05.31	266.19	11.07	-46.8	-49.8	16.0	0.00e+00	0	40	0	897581056	65	5011
2026-01-10 01:39:06.02	266.09	11.02	-46.8	-49.9	16.0	0.00e+00	0	40	0	899678208	65	5053
2026-01-10 01:39:07.31	265.92	10.94	-46.8	-49.8	16.1	0.00e+00	0	40	0	901775360	65	5006
2026-01-10 01:39:08.03	265.83	10.89	-46.9	-49.9	15.9	0.00e+00	0	40	0	902823936	65	5062
2026-01-10 01:39:09.32	265.66	10.81	-47.0	-50.1	15.7	0.00e+00	0	40	0	905969664	65	5180
2026-01-10 01:39:10.03	265.57	10.77	-46.9	-50.0	15.8	0.00e+00	0	40	0	907018240	65	5135
2026-01-10 01:39:11.32	265.40	10.68	-47.0	-50.1	15.7	0.00e+00	0	40	0	909115392	65	5186
2026-01-10 01:39:12.04	265.31	10.64	-47.1	-50.2	15.7	0.00e+00	0	40	0	910163968	65	5251
2026-01-10 01:39:13.33	265.14	10.56	-47.1	-50.3	15.5	0.00e+00	0	40	0	913309696	65	5290
2026-01-10 01:39:14.05	265.05	10.51	-47.2	-50.3	15.5	0.00e+00	0	40	0	914358272	65	5327
2026-01-10 01:39:15.33	264.89	10.43	-47.2	-50.4	15.4	0.00e+00	0	40	0	916455424	65	5373
2026-01-10 01:39:16.21	264.78	10.37	-47.2	-50.4	15.3	0.00e+00	0	40	0	918552576	65	5399
2026-01-10 01:39:17.36	264.63	10.30	-47.2	-50.4	15.4	0.00e+00	0	40	0	920649728	65	5346
2026-01-10 01:39:18.44	264.49	10.23	-47.1	-50.3	15.5	0.00e+00	0	40	0	922746880	65	5308
2026-01-10 01:39:19.30	264.39	10.18	-47.2	-50.4	15.4	0.00e+00	0	40	0	923795456	65	5389
2026-01-10 01:39:20.45	264.24	10.10	-47.2	-50.5	15.3	0.00e+00	0	40	0	925892608	65	5420
2026-01-10 01:39:21.31	264.14	10.05	-47.2	-50.6	15.2	0.00e+00	0	40	0	927989760	65	5475
2026-01-10 01:39:22.45	264.00	9.98	-47.1	-50.4	15.4	0.00e+00	0	40	0	930086912	65	5384
2026-01-10 01:39:23.31	263.89	9.92	-47.1	-50.5	15.3	0.00e+00	0	40	0	932184064	65	5414
2026-01-10 01:39:24.46	263.75	9.85	-47.1	-50.6	15.2	0.00e+00	0	40	0	934281216	65	5493
2026-01-10 01:39:25.32	263.64	9.79	-47.2	-50.7	15.1	0.00e+00	0	40	0	935329792	65	5532
2026-01-10 01:39:26.47	263.51	9.72	-47.2	-50.6	15.2	0.00e+00	0	40	0	937426944	65	5490
2026-01-10 01:39:27.33	263.40	9.67	-47.2	-50.6	15.1	0.00e+00	0	40	0	939524096	65	5506
2026-01-10 01:39:28.56	263.25	9.59	-47.1	-50.5	15.3	0.00e+00	0	40	0	941621248	65	5437
2026-01-10 01:39:29.42	263.15	9.54	-47.2	-50.6	15.2	0.00e+00	0	40	0	942669824	65	5485
2026-01-10 01:39:30.64	263.01	9.46	-47.2	-50.5	15.3	0.00e+00	0	40	0	945815552	65	5403
2026-01-10 01:39:31.50	262.90	9.40	-47.1	-50.3	15.4	0.00e+00	0	40	0	946864128	65	5330
2026-01-10 01:39:32.71	262.76	9.33	-47.2	-50.4	15.4	0.00e+00	0	40	0	948961280	65	5363
2026-01-10 01:39:33.57	262.66	9.27	-47.2	-50.4	15.3	0.00e+00	0	40	0	951058432	65	5369
2026-01-10 01:39:34.71	262.53	9.20	-47.3	-50.6	15.1	0.00e+00	0	40	0	953155584	65	5509
2026-01-10 01:39:35.57	262.43	9.15	-47.2	-50.5	15.2	0.00e+00	0	40	0	955252736	65	5426
2026-01-10 01:39:36.71	262.29	9.08	-47.3	-50.6	15.1	0.00e+00	0	40	0	957349888	65	5484
2026-01-10 01:39:37.58	262.19	9.02	-48.4	-52.2	13.6	0.00e+00	0	40	0	958398464	67	5917
2026-01-10 01:39:38.73	262.06	8.95	-52.1	-67.1	3.8	1.49e+00	0	40	104	959447040	74	21757
2026-01-10 01:39:39.59	261.96	8.90	-52.3	-67.4	3.8	1.49e+00	0	40	104	959447040	75	21363
2026-01-10 01:39:40.73	261.83	8.82	-52.4	-67.5	3.8	1.49e+00	0	40	104	959447040	75	21673
2026-01-10 01:39:41.60	261.73	8.77	-52.5	-67.6	3.8	1.49e+00	0	40	104	959447040	75	21848
2026-01-10 01:39:42.74	261.61	8.70	-52.6	-67.7	3.8	1.49e+00	0	40	104	959447040	75	22050
2026-01-10 01:39:43.60	261.51	8.65	-52.6	-67.7	3.8	1.49e+00	0	40	104	959447040	75	22106
2026-01-10 01:39:44.75	261.38	8.57	-52.6	-67.8	3.8	1.49e+00	0	40	104	959447040	75	22267
2026-01-10 01:39:45.61	261.28	8.52	-52.6	-67.7	3.8	1.49e+00	0	40	104	959447040	75	22252
2026-01-10 01:39:46.76	261.16	8.45	-52.7	-67.8	3.8	1.49e+00	0	40	104	959447040	75	22297
2026-01-10 01:39:47.62	261.06	8.39	-52.7	-67.8	3.8	1.49e+00	0	40	104	959447040	75	22273
2026-01-10 01:39:48.77	260.93	8.32	-52.7	-67.8	3.8	1.49e+00	0	40	104	959447040	76	21162
2026-01-10 01:39:49.63	260.84	8.27	-52.6	-67.8	3.8	1.49e+00	0	40	104	959447040	76	21211
2026-01-10 01:39:50.78	260.71	8.20	-52.7	-67.8	3.8	1.49e+00	0	40	104	959447040	76	21221
2026-01-10 01:39:51.64	260.62	8.14	-52.6	-67.8	3.8	1.49e+00	0	40	104	959447040	76	21176
2026-01-10 01:39:52.79	260.50	8.07	-52.6	-67.8	3.8	1.49e+00	0	40	104	959447040	76	21172
2026-01-10 01:39:53.65	260.40	8.02	-52.6	-67.8	3.8	1.49e+00	0	40	104	959447040	76	21201
2026-01-10 01:39:54.79	260.28	7.95	-52.6	-67.8	3.8	1.49e+00	0	40	104	959447040	76	21255
2026-01-10 01:39:55.65	260.19	7.90	-52.6	-67.8	3.8	1.49e+00	0	40	104	959447040	76	21222
2026-01-10 01:39:56.80	260.07	7.83	-52.7	-67.8	3.8	1.49e+00	0	40	104	959447040	76	21197
2026-01-10 01:39:57.66	259.98	7.77	-52.7	-67.8	3.8	1.49e+00	0	40	104	959447040	76	21151
2026-01-10 01:39:58.81	259.86	7.70	-52.6	-67.8	3.8	1.49e+00	0	40	104	959447040	76	21195
2026-01-10 01:39:59.67	259.77	7.65	-52.6	-67.8	3.8	1.49e+00	0	40	104	959447040	76	21105
2026-01-10 01:40:00.82	259.65	7.58	-52.6	-67.8	3.8	1.49e+00	0	40	104	959447040	76	21108
2026-01-10 01:40:01.68	259.56	7.53	-52.6	-67.8	3.8	1.49e+00	0	40	104	959447040	76	21093
2026-01-10 01:40:02.83	259.44	7.45	-52.6	-67.8	3.8	1.49e+00	0	40	104	959447040	76	21101
2026-01-10 01:40:03.69	259.35	7.40	-52.6	-67.8	3.8	1.49e+00	0	40	104	959447040	76	21058
2026-01-10 01:40:04.83	259.23	7.33	-52.6	-67.8	3.8	1.49e+00	0	40	104	959447040	76	21089
2026-01-10 01:40:05.70	259.14	7.28	-52.6	-67.8	3.8	1.49e+00	0	40	104	959447040	76	21055
2026-01-10 01:40:06.84	259.03	7.21	-52.6	-67.7	3.8	1.49e+00	0	40	104	959447040	76	20993
2026-01-10 01:40:07.70	258.94	7.16	-52.6	-67.8	3.8	1.49e+00	0	40	104	959447040	76	21096
2026-01-10 01:40:08.85	258.82	7.09	-52.6	-67.7	3.8	1.49e+00	0	40	104	959447040	76	20976
2026-01-10 01:40:09.71	258.74	7.03	-52.6	-67.8	3.8	1.49e+00	0	40	104	959447040	76	21054
2026-01-10 01:40:10.86	258.62	6.96	-52.6	-67.8	3.8	1.49e+00	0	40	104	959447040	76	21038
2026-01-10 01:40:11.72	258.54	6.91	-52.6	-67.8	3.8	1.49e+00	0	40	104	959447040	76	21105
2026-01-10 01:40:12.87	258.42	6.84	-52.6	-67.8	3.8	1.49e+00	0	40	104	959447040	76	21124
2026-01-10 01:40:13.73	258.34	6.79	-52.6	-67.8	3.8	1.49e+00	0	40	104	959447040	76	21081
2026-01-10 01:40:14.88	258.22	6.72	-52.6	-67.8	3.8	1.49e+00	0	40	104	959447040	76	21033
2026-01-10 01:40:15.74	258.14	6.67	-52.6	-67.7	3.8	1.49e+00	0	40	104	959447040	76	20962
2026-01-10 01:40:16.88	258.03	6.60	-52.6	-67.8	3.8	1.49e+00	0	40	104	959447040	76	21057
2026-01-10 01:40:17.75	257.94	6.55	-52.6	-67.7	3.8	1.49e+00	0	40	104	959447040	76	20994
2026-01-10 01:40:18.89	257.83	6.48	-52.6	-67.7	3.8	1.49e+00	0	40	104	959447040	76	20968
2026-01-10 01:40:19.75	257.75	6.42	-52.6	-67.7	3.8	1.49e+00	0	40	104	959447040	76	21006
2026-01-10 01:40:20.90	257.64	6.36	-52.6	-67.8	3.8	1.49e+00	0	40	104	959447040	76	21061
2026-01-10 01:40:21.76	257.56	6.30	-52.6	-67.8	3.8	1.49e+00	0	40	104	959447040	76	21028
2026-01-10 01:40:22.91	257.45	6.23	-52.6	-67.7	3.8	1.49e+00	0	40	104	959447040	76	20956
2026-01-10 01:40:23.77	257.37	6.18	-52.6	-67.7	3.8	1.49e+00	0	40	104	959447040	76	20994
2026-01-10 01:40:24.92	257.26	6.11	-52.6	-67.7	3.8	1.49e+00	0	40	104	959447040	76	20968
2026-01-10 01:40:25.78	257.18	6.06	-52.6	-67.7	3.8	1.49e+00	0	40	104	959447040	76	20977
2026-01-10 01:40:26.93	257.07	5.99	-52.6	-67.8	3.8	1.49e+00	0	40	104	959447040	76	21082
2026-01-10 01:40:27.79	256.99	5.94	-52.6	-67.7	3.8	1.49e+00	0	40	104	959447040	76	20996
2026-01-10 01:40:28.94	256.89	5.87	-52.6	-67.8	3.8	1.49e+00	0	40	104	959447040	76	21029
2026-01-10 01:40:29.80	256.81	5.82	-52.6	-67.8	3.8	1.49e+00	0	40	104	959447040	76	21057
2026-01-10 01:40:30.95	256.70	5.75	-52.6	-67.8	3.8	1.49e+00	0	40	104	959447040	76	21021
2026-01-10 01:40:31.81	256.62	5.70	-52.6	-67.8	3.8	1.49e+00	0	40	104	959447040	76	21149
2026-01-10 01:40:32.96	256.52	5.63	-52.6	-67.8	3.8	1.49e+00	0	40	104	959447040	76	21036
2026-01-10 01:40:33.82	256.44	5.58	-52.6	-67.7	3.8	1.49e+00	0	40	104	959447040	76	20915
2026-01-10 01:40:34.97	256.34	5.51	-52.6	-67.8	3.8	1.49e+00	0	40	104	959447040	76	21065
2026-01-10 01:40:35.83	256.26	5.46	-52.6	-67.7	3.8	1.49e+00	0	40	104	959447040	76	20993
2026-01-10 01:40:36.97	256.16	5.40	-52.6	-67.8	3.8	1.49e+00	0	40	104	959447040	76	21101
2026-01-10 01:40:37.84	256.08	5.34	-52.6	-67.8	3.8	1.49e+00	0	40	104	959447040	76	21038
2026-01-10 01:40:38.98	255.98	5.28	-52.6	-67.8	3.8	1.49e+00	0	40	104	959447040	76	21049
2026-01-10 01:40:39.84	255.90	5.23	-52.6	-67.8	3.8	1.49e+00	0	40	104	959447040	76	21079
2026-01-10 01:40:40.99	255.80	5.16	-52.6	-67.7	3.8	1.49e+00	0	40	104	959447040	76	20995
2026-01-10 01:40:41.85	255.72	5.11	-52.6	-67.8	3.8	1.49e+00	0	40	104	959447040	76	21106
2026-01-10 01:40:43.00	255.62	5.04	-52.6	-67.7	3.8	1.49e+00	0	40	104	959447040	76	21001
2026-01-10 01:40:43.86	255.55	4.99	-52.6	-67.8	3.8	1.49e+00	0	40	104	959447040	76	21057

#Closed at: 2026-01-10 01:40:45
#Recorded file [959 MB]: D:/Data/31040_260110_043011.dat