passes_logs/2026/01/10/T1/T1__20260110_230957_SUOMI_NPP_rec.log

#Pass ID: 20260110_230957_SUOMI NPP
#Satellite: SUOMI NPP
#Configuration: NPP
#almurnet v.1.7.20251203
#Start time: 2026-01-10 23:09:58

#Version: 2.0.20230620
#Station: T1
#Location: 37.570604 lon 55.790049 lat
#TLE: 1 37849U 11061A   26009.81756760  .00000113  00000+0  74747-4 0  9994
#TLE: 2 37849  98.7806 311.9110 0002525  72.5604 287.5848 14.19524046735974

#Time	Az	El	Level	Level2	SNR	BER	BlckErr	Temp	State	Recorded	gain1	gain2
2026-01-10 23:09:58.45	20.75	5.06	-51.4	-67.1	3.8	1.49e+00	0	39	0	0	74	21843
2026-01-10 23:09:59.45	20.79	5.13	-51.4	-67.1	3.8	1.49e+00	0	40	104	0	73	23112
2026-01-10 23:10:00.45	20.82	5.20	-51.4	-67.0	3.8	1.49e+00	0	39	104	0	73	22981
2026-01-10 23:10:01.46	20.86	5.27	-51.4	-67.1	3.8	1.49e+00	0	39	104	0	73	23133
2026-01-10 23:10:02.46	20.90	5.34	-51.4	-67.0	3.8	1.49e+00	0	40	104	0	73	22998
2026-01-10 23:10:03.47	20.94	5.41	-51.4	-67.0	3.8	1.49e+00	0	40	104	0	73	23008
2026-01-10 23:10:04.47	20.97	5.48	-51.4	-67.0	3.8	1.49e+00	0	40	104	0	73	22907
2026-01-10 23:10:05.47	21.01	5.55	-51.4	-67.0	3.8	1.49e+00	0	40	104	0	73	22902
2026-01-10 23:10:06.48	21.05	5.62	-51.4	-67.0	3.8	1.49e+00	0	40	104	0	73	22894
2026-01-10 23:10:07.48	21.09	5.70	-51.4	-67.0	3.8	1.49e+00	0	40	104	0	73	22809
2026-01-10 23:10:08.49	21.13	5.77	-51.4	-67.0	3.8	1.49e+00	0	40	104	0	73	22858
2026-01-10 23:10:09.49	21.17	5.84	-51.4	-67.0	3.8	1.49e+00	0	40	104	0	73	22889
2026-01-10 23:10:10.50	21.20	5.91	-51.4	-66.9	3.8	1.49e+00	0	40	104	0	73	22714
2026-01-10 23:10:11.50	21.24	5.98	-51.4	-67.0	3.8	1.49e+00	0	40	104	0	73	22877
2026-01-10 23:10:12.51	21.28	6.05	-51.4	-66.9	3.8	1.49e+00	0	40	104	0	73	22681
2026-01-10 23:10:13.51	21.32	6.13	-51.4	-66.9	3.8	1.49e+00	0	40	104	0	73	22648
2026-01-10 23:10:14.51	21.36	6.20	-51.4	-67.0	3.8	1.49e+00	0	40	104	0	73	22786
2026-01-10 23:10:15.52	21.40	6.27	-51.4	-66.9	3.8	1.49e+00	0	40	104	0	73	22651
2026-01-10 23:10:16.53	21.44	6.34	-51.4	-66.9	3.8	1.49e+00	0	40	104	0	73	22779
2026-01-10 23:10:17.53	21.48	6.42	-51.4	-67.0	3.8	1.49e+00	0	40	104	0	73	22925
2026-01-10 23:10:18.53	21.52	6.49	-51.4	-67.1	3.8	1.49e+00	0	40	104	0	73	23046
2026-01-10 23:10:19.54	21.56	6.56	-51.4	-67.1	3.8	1.49e+00	0	40	104	0	73	23075
2026-01-10 23:10:20.54	21.60	6.64	-51.4	-67.0	3.8	1.49e+00	0	40	104	0	73	23033
2026-01-10 23:10:21.55	21.64	6.71	-51.4	-67.0	3.8	1.49e+00	0	40	104	0	73	22897
2026-01-10 23:10:22.55	21.68	6.78	-51.4	-66.8	3.8	1.49e+00	0	40	104	0	73	22491
2026-01-10 23:10:23.55	21.73	6.86	-51.4	-66.6	3.8	1.49e+00	0	40	104	0	73	21895
2026-01-10 23:10:24.56	21.77	6.93	-51.4	-66.3	3.8	1.49e+00	0	41	104	0	73	21173
2026-01-10 23:10:25.56	21.81	7.01	-51.3	-66.1	3.8	1.49e+00	0	40	104	0	73	20591
2026-01-10 23:10:26.57	21.85	7.08	-51.3	-65.7	3.8	1.49e+00	0	40	104	0	73	19778
2026-01-10 23:10:27.57	21.89	7.16	-51.3	-65.6	3.8	1.49e+00	0	41	104	0	73	19494
2026-01-10 23:10:28.58	21.93	7.23	-51.3	-65.5	3.8	1.49e+00	0	41	104	0	73	19203
2026-01-10 23:10:29.58	21.98	7.31	-51.3	-65.3	3.8	1.49e+00	0	41	104	0	73	18776
2026-01-10 23:10:30.59	22.02	7.38	-51.3	-65.4	3.8	1.49e+00	0	41	104	0	73	19105
2026-01-10 23:10:31.59	22.06	7.46	-51.3	-65.6	3.8	1.49e+00	0	41	104	0	73	19423
2026-01-10 23:10:32.59	22.10	7.53	-51.3	-65.5	3.8	1.49e+00	0	41	104	0	73	19268
2026-01-10 23:10:33.60	22.15	7.61	-51.3	-65.6	3.8	1.49e+00	0	41	104	0	73	19551
2026-01-10 23:10:34.60	22.19	7.69	-51.3	-65.4	3.8	1.49e+00	0	41	104	0	73	19007
2026-01-10 23:10:35.61	22.23	7.76	-51.3	-65.1	3.8	1.49e+00	0	41	104	0	73	18513
2026-01-10 23:10:36.61	22.28	7.84	-51.3	-64.8	3.8	1.49e+00	0	41	104	0	73	17883
2026-01-10 23:10:37.62	22.32	7.92	-51.3	-64.4	4.0	1.49e+00	0	41	104	0	73	17046
2026-01-10 23:10:38.62	22.37	7.99	-51.2	-64.1	4.1	1.48e+00	0	41	0	0	73	16315
2026-01-10 23:10:39.63	22.41	8.07	-51.2	-64.0	3.9	1.47e+00	0	41	104	0	73	16278
2026-01-10 23:10:40.63	22.45	8.15	-51.2	-63.8	4.1	1.46e+00	0	41	104	0	73	15825
2026-01-10 23:10:41.64	22.50	8.23	-51.2	-63.4	4.2	1.41e+00	0	41	0	0	73	15120
2026-01-10 23:10:42.64	22.54	8.30	-51.2	-63.7	4.1	1.42e+00	0	41	0	0	73	15633
2026-01-10 23:10:43.64	22.59	8.38	-51.2	-63.4	4.2	1.40e+00	0	41	0	0	73	15202
2026-01-10 23:10:44.65	22.64	8.46	-51.2	-63.1	4.3	1.38e+00	0	41	0	0	73	14644
2026-01-10 23:10:45.65	22.68	8.54	-51.1	-62.7	4.4	1.30e+00	0	41	0	0	73	14018
2026-01-10 23:10:46.66	22.73	8.62	-51.1	-62.3	4.6	1.14e+00	0	41	0	2097152	73	13362
2026-01-10 23:10:47.66	22.77	8.70	-51.1	-62.1	4.7	9.24e-01	0	41	0	4194304	73	12968
2026-01-10 23:10:48.66	22.82	8.78	-51.1	-62.0	4.7	8.16e-01	0	41	0	6291456	73	12886
2026-01-10 23:10:49.67	22.87	8.86	-51.0	-61.4	5.0	7.33e-01	0	41	0	8388608	73	12081
2026-01-10 23:10:50.67	22.91	8.94	-51.0	-61.7	4.9	7.30e-01	0	41	0	9437184	73	12435
2026-01-10 23:10:51.68	22.96	9.02	-51.0	-61.6	4.9	7.23e-01	0	41	0	11534336	73	12328
2026-01-10 23:10:52.68	23.01	9.10	-51.1	-62.2	4.6	8.22e-01	0	41	0	13631488	73	13216
2026-01-10 23:10:53.69	23.05	9.18	-51.4	-67.0	3.8	1.37e+00	0	41	104	14680064	73	22950
2026-01-10 23:10:54.69	23.10	9.26	-50.3	-57.2	5.1	1.49e+00	0	41	104	14680064	72	7856
2026-01-10 23:10:55.69	23.15	9.34	-50.3	-56.5	9.4	1.51e-03	0	41	0	15728640	71	7678
2026-01-10 23:10:56.70	23.20	9.42	-49.3	-54.3	11.6	9.55e-03	0	41	0	17825792	70	6294
2026-01-10 23:10:57.70	23.25	9.51	-49.3	-54.2	11.6	1.80e-03	0	41	0	18874368	70	6273
2026-01-10 23:10:58.70	23.29	9.59	-49.3	-54.3	11.5	7.00e-04	0	41	0	20971520	70	6305
2026-01-10 23:10:59.71	23.34	9.67	-49.4	-54.4	11.5	6.08e-04	0	41	0	23068672	70	6372
2026-01-10 23:11:00.71	23.39	9.75	-49.2	-53.9	12.0	5.39e-04	0	41	0	25165824	70	6028
2026-01-10 23:11:01.72	23.44	9.84	-49.4	-54.3	11.6	3.07e-04	0	42	0	27262976	70	6312
2026-01-10 23:11:02.72	23.49	9.92	-49.0	-53.5	12.3	2.15e-04	0	42	0	28311552	70	5780
2026-01-10 23:11:03.72	23.54	10.00	-49.2	-53.8	12.1	1.93e-04	0	42	0	30408704	69	6330
2026-01-10 23:11:04.73	23.59	10.09	-48.6	-52.7	13.2	8.46e-05	0	41	0	32505856	69	5539
2026-01-10 23:11:05.73	23.64	10.17	-48.6	-52.7	13.2	7.60e-06	0	41	0	34603008	68	5902
2026-01-10 23:11:06.74	23.69	10.25	-48.4	-52.4	13.5	1.52e-05	0	41	0	36700160	68	5691
2026-01-10 23:11:07.74	23.74	10.34	-48.4	-52.3	13.6	4.50e-06	0	41	0	37748736	68	5633
2026-01-10 23:11:08.74	23.80	10.42	-48.3	-52.2	13.7	7.00e-07	0	42	0	39845888	68	5534
2026-01-10 23:11:09.75	23.85	10.51	-48.2	-51.9	14.0	4.50e-06	0	42	0	41943040	68	5387
2026-01-10 23:11:10.75	23.90	10.59	-48.2	-52.0	13.9	1.50e-06	0	41	0	44040192	68	5415
2026-01-10 23:11:11.75	23.95	10.68	-48.0	-51.7	14.2	7.00e-07	0	42	0	46137344	68	5277
2026-01-10 23:11:12.76	24.00	10.76	-48.1	-51.8	14.1	7.00e-07	0	42	0	47185920	68	5311
2026-01-10 23:11:13.76	24.06	10.85	-48.0	-51.7	14.3	1.50e-06	0	42	0	49283072	68	5263
2026-01-10 23:11:14.76	24.11	10.94	-48.1	-51.8	14.0	1.50e-06	0	42	0	51380224	67	5639
2026-01-10 23:11:15.77	24.16	11.02	-47.8	-51.4	14.4	7.00e-07	0	42	0	53477376	67	5359
2026-01-10 23:11:16.77	24.22	11.11	-47.7	-51.3	14.4	1.50e-06	0	42	0	55574528	67	5325
2026-01-10 23:11:17.77	24.27	11.20	-47.7	-51.3	14.6	7.00e-07	0	41	0	56623104	66	5602
2026-01-10 23:11:18.78	24.32	11.28	-47.6	-51.1	14.8	1.50e-06	0	41	0	58720256	66	5475
2026-01-10 23:11:19.78	24.38	11.37	-47.8	-51.4	14.5	0.00e+00	0	42	0	60817408	66	5669
2026-01-10 23:11:20.78	24.43	11.46	-47.5	-50.9	14.9	0.00e+00	0	42	0	62914560	66	5384
2026-01-10 23:11:21.79	24.49	11.55	-47.6	-51.0	14.8	0.00e+00	0	42	0	63963136	66	5447
2026-01-10 23:11:22.79	24.54	11.64	-47.5	-51.0	14.8	0.00e+00	0	41	0	66060288	66	5429
2026-01-10 23:11:23.79	24.60	11.73	-47.3	-50.6	15.2	0.00e+00	0	42	0	68157440	66	5218
2026-01-10 23:11:24.79	24.65	11.81	-47.5	-50.9	14.9	0.00e+00	0	42	0	70254592	66	5394
2026-01-10 23:11:25.80	24.71	11.91	-47.5	-51.0	14.9	0.00e+00	0	42	0	72351744	66	5427
2026-01-10 23:11:26.80	24.77	11.99	-47.4	-50.8	15.0	0.00e+00	0	42	0	74448896	66	5339
2026-01-10 23:11:27.80	24.82	12.08	-47.5	-50.9	14.9	0.00e+00	0	42	0	75497472	66	5402
2026-01-10 23:11:28.80	24.88	12.17	-47.2	-50.5	15.3	0.00e+00	0	42	0	77594624	66	5134
2026-01-10 23:11:29.80	24.94	12.27	-47.1	-50.4	15.4	0.00e+00	0	42	0	79691776	66	5061
2026-01-10 23:11:30.81	25.00	12.36	-47.1	-50.4	15.4	0.00e+00	0	42	0	81788928	65	5401
2026-01-10 23:11:31.81	25.05	12.45	-46.9	-50.2	15.6	0.00e+00	0	42	0	82837504	65	5261
2026-01-10 23:11:32.82	25.11	12.54	-46.7	-50.0	15.8	0.00e+00	0	42	0	84934656	65	5111
2026-01-10 23:11:33.82	25.17	12.63	-46.7	-49.9	15.9	0.00e+00	0	42	0	87031808	65	5044
2026-01-10 23:11:34.82	25.23	12.72	-46.8	-49.9	15.9	0.00e+00	0	42	0	89128960	65	5082
2026-01-10 23:11:35.82	25.29	12.82	-46.8	-49.9	15.9	0.00e+00	0	41	0	91226112	65	5088
2026-01-10 23:11:36.83	25.35	12.91	-46.6	-49.7	16.1	0.00e+00	0	42	0	92274688	65	4946
2026-01-10 23:11:37.83	25.41	13.00	-46.5	-49.5	16.3	0.00e+00	0	42	0	94371840	65	4864
2026-01-10 23:11:38.83	25.47	13.10	-46.6	-49.6	16.2	0.00e+00	0	42	0	96468992	65	4918
2026-01-10 23:11:39.84	25.53	13.19	-46.6	-49.6	16.2	0.00e+00	0	42	0	98566144	64	5207
2026-01-10 23:11:40.84	25.59	13.29	-46.6	-49.7	16.1	0.00e+00	0	42	0	100663296	64	5277
2026-01-10 23:11:41.84	25.65	13.38	-46.6	-49.6	16.2	0.00e+00	0	42	0	101711872	64	5189
2026-01-10 23:11:42.85	25.72	13.48	-46.3	-49.2	16.6	0.00e+00	0	42	0	103809024	64	4961
2026-01-10 23:11:43.85	25.78	13.57	-46.6	-49.6	16.2	0.00e+00	0	42	0	105906176	64	5192
2026-01-10 23:11:44.85	25.84	13.67	-46.6	-49.7	16.1	0.00e+00	0	42	0	108003328	64	5246
2026-01-10 23:11:45.86	25.90	13.76	-46.5	-49.5	16.3	0.00e+00	0	42	0	110100480	64	5114
2026-01-10 23:11:46.86	25.97	13.86	-46.7	-49.8	16.0	0.00e+00	0	42	0	111149056	64	5303
2026-01-10 23:11:47.86	26.03	13.96	-46.9	-50.1	15.8	0.00e+00	0	42	0	113246208	64	5480
2026-01-10 23:11:48.87	26.10	14.05	-46.6	-49.7	16.2	0.00e+00	0	42	0	115343360	64	5219
2026-01-10 23:11:49.87	26.16	14.15	-46.4	-49.3	16.4	0.00e+00	0	42	0	117440512	64	5039
2026-01-10 23:11:50.88	26.23	14.25	-46.5	-49.5	16.3	0.00e+00	0	42	0	119537664	64	5122
2026-01-10 23:11:51.88	26.29	14.35	-46.6	-49.6	16.3	0.00e+00	0	42	0	120586240	64	5180
2026-01-10 23:11:52.89	26.36	14.45	-46.6	-49.6	16.3	0.00e+00	0	42	0	122683392	64	5196
2026-01-10 23:11:53.89	26.42	14.55	-46.4	-49.3	16.5	0.00e+00	0	42	0	124780544	64	5009
2026-01-10 23:11:54.89	26.49	14.65	-46.4	-49.4	16.5	0.00e+00	0	42	0	126877696	64	5052
2026-01-10 23:11:55.90	26.56	14.75	-46.4	-49.4	16.4	0.00e+00	0	42	0	127926272	64	5083
2026-01-10 23:11:56.90	26.62	14.85	-46.3	-49.3	16.5	0.00e+00	0	42	0	130023424	64	5000
2026-01-10 23:11:57.90	26.69	14.95	-46.3	-49.3	16.5	0.00e+00	0	42	0	132120576	64	5023
2026-01-10 23:11:58.91	26.76	15.05	-46.3	-49.3	16.5	0.00e+00	0	42	0	134217728	64	5007
2026-01-10 23:11:59.91	26.83	15.15	-46.1	-49.1	16.7	0.00e+00	0	42	0	136314880	64	4888
2026-01-10 23:12:00.91	26.90	15.25	-46.0	-49.0	16.9	0.00e+00	0	42	0	137363456	64	4829
2026-01-10 23:12:01.92	26.97	15.35	-46.2	-49.2	16.7	0.00e+00	0	42	0	139460608	63	5233
2026-01-10 23:12:02.92	27.04	15.46	-46.0	-48.9	17.0	0.00e+00	0	42	0	141557760	63	5089
2026-01-10 23:12:03.92	27.11	15.56	-46.1	-49.1	16.8	0.00e+00	0	42	0	143654912	63	5202
2026-01-10 23:12:04.92	27.18	15.66	-45.8	-48.7	17.2	0.00e+00	0	42	0	145752064	63	4937
2026-01-10 23:12:05.93	27.25	15.77	-46.1	-49.1	16.8	0.00e+00	0	42	0	146800640	63	5189
2026-01-10 23:12:06.93	27.32	15.87	-45.9	-48.8	17.1	0.00e+00	0	42	0	148897792	63	5003
2026-01-10 23:12:07.93	27.40	15.97	-45.9	-48.9	17.1	0.00e+00	0	42	0	150994944	63	5043
2026-01-10 23:12:08.93	27.47	16.08	-46.1	-49.1	16.8	0.00e+00	0	42	0	153092096	63	5197
2026-01-10 23:12:09.94	27.54	16.18	-46.0	-48.9	17.0	0.00e+00	0	42	0	155189248	63	5088
2026-01-10 23:12:10.94	27.62	16.29	-46.1	-49.1	16.8	0.00e+00	0	42	0	156237824	63	5181
2026-01-10 23:12:11.94	27.69	16.40	-46.1	-49.1	16.9	0.00e+00	0	42	0	158334976	63	5175
2026-01-10 23:12:12.95	27.77	16.50	-46.1	-49.1	16.9	0.00e+00	0	42	0	160432128	63	5168
2026-01-10 23:12:13.95	27.84	16.61	-46.0	-48.9	17.1	0.00e+00	0	42	0	162529280	63	5076
2026-01-10 23:12:14.96	27.92	16.72	-45.9	-48.8	17.1	0.00e+00	0	42	0	164626432	63	5012
2026-01-10 23:12:15.96	27.99	16.82	-46.0	-48.8	17.1	0.00e+00	0	42	0	165675008	63	5032
2026-01-10 23:12:16.96	28.07	16.93	-45.9	-48.8	17.1	0.00e+00	0	42	0	167772160	63	5005
2026-01-10 23:12:17.96	28.15	17.04	-45.9	-48.7	17.2	0.00e+00	0	42	0	169869312	63	4982
2026-01-10 23:12:18.97	28.23	17.15	-45.9	-48.7	17.2	0.00e+00	0	42	0	171966464	63	4963
2026-01-10 23:12:19.97	28.31	17.26	-46.1	-48.9	17.0	0.00e+00	0	42	0	174063616	63	5066
2026-01-10 23:12:20.97	28.38	17.37	-46.1	-48.9	17.1	0.00e+00	0	42	0	175112192	63	5046
2026-01-10 23:12:21.97	28.46	17.48	-46.1	-48.8	17.2	0.00e+00	0	42	0	177209344	63	5035
2026-01-10 23:12:22.98	28.54	17.59	-46.2	-48.9	17.1	0.00e+00	0	42	0	179306496	63	5087
2026-01-10 23:12:23.98	28.63	17.70	-46.0	-48.7	17.3	0.00e+00	0	42	0	181403648	63	4932
2026-01-10 23:12:24.98	28.71	17.82	-46.0	-48.7	17.3	0.00e+00	0	42	0	183500800	63	4929
2026-01-10 23:12:25.99	28.79	17.93	-46.1	-48.8	17.2	0.00e+00	0	42	0	184549376	63	5021
2026-01-10 23:12:26.99	28.87	18.04	-46.1	-48.7	17.2	0.00e+00	0	42	0	186646528	63	4945
2026-01-10 23:12:27.99	28.95	18.15	-46.2	-48.9	17.0	0.00e+00	0	42	0	188743680	63	5095
2026-01-10 23:12:29.00	29.04	18.27	-46.2	-48.9	17.1	0.00e+00	0	42	0	190840832	63	5049
2026-01-10 23:12:30.00	29.12	18.38	-46.2	-48.8	17.1	0.00e+00	0	42	0	192937984	63	5038
2026-01-10 23:12:31.00	29.21	18.50	-46.0	-48.7	17.3	0.00e+00	0	42	0	193986560	63	4931
2026-01-10 23:12:32.00	29.29	18.61	-46.1	-48.7	17.3	0.00e+00	0	42	0	196083712	63	4957
2026-01-10 23:12:33.00	29.38	18.73	-46.1	-48.8	17.2	0.00e+00	0	42	0	198180864	63	5011
2026-01-10 23:12:34.01	29.47	18.84	-46.1	-48.7	17.2	0.00e+00	0	42	0	200278016	63	4969
2026-01-10 23:12:35.01	29.55	18.96	-46.1	-48.7	17.2	0.00e+00	0	42	0	201326592	63	4967
2026-01-10 23:12:36.02	29.64	19.08	-46.1	-48.8	17.2	0.00e+00	0	42	0	203423744	63	4989
2026-01-10 23:12:37.02	29.73	19.20	-46.0	-48.6	17.4	0.00e+00	0	42	0	205520896	63	4873
2026-01-10 23:12:38.02	29.82	19.31	-46.2	-48.9	17.1	0.00e+00	0	42	0	207618048	63	5087
2026-01-10 23:12:39.03	29.91	19.43	-46.1	-48.8	17.2	0.00e+00	0	42	0	209715200	63	4990
2026-01-10 23:12:40.03	30.00	19.55	-46.0	-48.6	17.4	0.00e+00	0	42	0	210763776	63	4889
2026-01-10 23:12:41.03	30.09	19.67	-46.2	-48.8	17.2	0.00e+00	0	42	0	212860928	63	5033
2026-01-10 23:12:42.04	30.18	19.79	-46.0	-48.6	17.4	0.00e+00	0	42	0	214958080	63	4915
2026-01-10 23:12:43.04	30.28	19.91	-46.0	-48.6	17.3	0.00e+00	0	42	0	217055232	63	4910
2026-01-10 23:12:44.04	30.37	20.03	-46.1	-48.7	17.3	0.00e+00	0	42	0	219152384	63	4931
2026-01-10 23:12:45.05	30.46	20.16	-46.1	-48.7	17.3	0.00e+00	0	42	0	220200960	63	4969
2026-01-10 23:12:46.05	30.56	20.28	-46.1	-48.7	17.3	0.00e+00	0	42	0	222298112	63	4966
2026-01-10 23:12:47.06	30.65	20.40	-46.2	-48.8	17.2	0.00e+00	0	42	0	224395264	63	5002
2026-01-10 23:12:48.06	30.75	20.52	-46.0	-48.5	17.4	0.00e+00	0	42	0	226492416	63	4867
2026-01-10 23:12:49.06	30.85	20.65	-46.1	-48.7	17.3	0.00e+00	0	42	0	228589568	63	4954
2026-01-10 23:12:50.07	30.95	20.77	-46.1	-48.8	17.3	0.00e+00	0	42	0	229638144	63	4990
2026-01-10 23:12:51.07	31.04	20.90	-46.1	-48.8	17.2	0.00e+00	0	42	0	231735296	63	5032
2026-01-10 23:12:52.07	31.14	21.02	-46.1	-48.8	17.3	0.00e+00	0	42	0	233832448	63	4994
2026-01-10 23:12:53.08	31.24	21.15	-46.0	-48.6	17.4	0.00e+00	0	42	0	235929600	63	4921
2026-01-10 23:12:54.08	31.34	21.28	-46.4	-49.1	16.9	0.00e+00	0	42	0	238026752	63	5217
2026-01-10 23:12:55.08	31.45	21.40	-46.1	-48.7	17.3	0.00e+00	0	42	0	239075328	63	4972
2026-01-10 23:12:56.09	31.55	21.53	-46.3	-49.1	17.0	0.00e+00	0	42	0	241172480	63	5164
2026-01-10 23:12:57.09	31.65	21.66	-46.3	-49.1	16.9	0.00e+00	0	42	0	243269632	63	5185
2026-01-10 23:12:58.09	31.75	21.79	-46.3	-49.1	17.0	0.00e+00	0	42	0	245366784	63	5187
2026-01-10 23:12:59.09	31.86	21.92	-46.3	-49.0	17.0	0.00e+00	0	42	0	246415360	63	5144
2026-01-10 23:13:00.09	31.97	22.05	-46.2	-48.9	17.2	0.00e+00	0	42	0	248512512	63	5087
2026-01-10 23:13:01.10	32.07	22.18	-46.1	-48.8	17.3	0.00e+00	0	42	0	250609664	63	5004
2026-01-10 23:13:02.10	32.18	22.31	-46.0	-48.7	17.4	0.00e+00	0	42	0	252706816	63	4952
2026-01-10 23:13:03.10	32.29	22.44	-46.0	-48.7	17.4	0.00e+00	0	42	0	254803968	63	4953
2026-01-10 23:13:04.11	32.40	22.57	-46.0	-48.7	17.3	0.00e+00	0	42	0	256901120	63	4959
2026-01-10 23:13:05.11	32.51	22.71	-46.1	-48.7	17.3	0.00e+00	0	42	0	257949696	63	4977
2026-01-10 23:13:06.11	32.62	22.84	-45.9	-48.5	17.5	0.00e+00	0	42	0	260046848	63	4857
2026-01-10 23:13:07.12	32.73	22.97	-46.1	-48.8	17.3	0.00e+00	0	42	0	262144000	63	5010
2026-01-10 23:13:08.12	32.84	23.11	-46.3	-48.9	17.1	0.00e+00	0	42	0	264241152	63	5097
2026-01-10 23:13:09.12	32.96	23.24	-46.3	-48.9	17.2	0.00e+00	0	42	0	265289728	63	5094
2026-01-10 23:13:10.13	33.07	23.38	-46.2	-48.9	17.2	0.00e+00	0	42	0	267386880	63	5049
2026-01-10 23:13:11.13	33.19	23.52	-46.2	-48.9	17.2	0.00e+00	0	42	0	269484032	63	5059
2026-01-10 23:13:12.13	33.30	23.65	-46.3	-49.1	17.0	0.00e+00	0	42	0	271581184	63	5182
2026-01-10 23:13:13.13	33.42	23.79	-46.2	-49.0	17.1	0.00e+00	0	42	0	273678336	63	5110
2026-01-10 23:13:14.13	33.54	23.93	-46.1	-48.9	17.2	0.00e+00	0	42	0	274726912	63	5042
2026-01-10 23:13:15.14	33.66	24.07	-46.3	-49.1	17.0	0.00e+00	0	42	0	276824064	63	5174
2026-01-10 23:13:16.14	33.78	24.21	-46.1	-48.9	17.2	0.00e+00	0	42	0	278921216	63	5057
2026-01-10 23:13:17.14	33.90	24.35	-46.1	-48.9	17.2	0.00e+00	0	42	0	281018368	63	5074
2026-01-10 23:13:18.14	34.03	24.49	-46.2	-49.0	17.1	0.00e+00	0	42	0	283115520	63	5138
2026-01-10 23:13:19.14	34.15	24.63	-46.3	-49.1	17.1	0.00e+00	0	42	0	284164096	63	5171
2026-01-10 23:13:20.15	34.28	24.77	-46.2	-49.0	17.1	0.00e+00	0	42	0	286261248	63	5109
2026-01-10 23:13:21.15	34.40	24.91	-46.3	-49.1	17.1	0.00e+00	0	42	0	288358400	63	5168
2026-01-10 23:13:22.16	34.53	25.06	-46.5	-49.3	16.9	0.00e+00	0	42	0	290455552	63	5311
2026-01-10 23:13:23.16	34.66	25.20	-46.4	-49.1	17.0	0.00e+00	0	42	0	292552704	63	5198
2026-01-10 23:13:24.16	34.79	25.35	-46.7	-49.5	16.5	0.00e+00	0	42	0	293601280	64	5157
2026-01-10 23:13:25.16	34.92	25.49	-46.6	-49.4	16.7	0.00e+00	0	42	0	295698432	64	5092
2026-01-10 23:13:26.17	35.05	25.64	-46.7	-49.6	16.5	0.00e+00	0	42	0	297795584	64	5161
2026-01-10 23:13:27.17	35.18	25.79	-46.6	-49.5	16.6	0.00e+00	0	42	0	299892736	64	5120
2026-01-10 23:13:28.17	35.32	25.93	-46.6	-49.4	16.7	0.00e+00	0	42	0	301989888	64	5078
2026-01-10 23:13:29.18	35.45	26.08	-46.6	-49.4	16.8	0.00e+00	0	42	0	303038464	64	5059
2026-01-10 23:13:30.18	35.59	26.23	-46.5	-49.3	16.7	0.00e+00	0	42	0	305135616	64	5005
2026-01-10 23:13:31.18	35.73	26.38	-46.8	-49.6	16.5	0.00e+00	0	42	0	307232768	64	5194
2026-01-10 23:13:32.19	35.87	26.53	-46.7	-49.5	16.6	0.00e+00	0	42	0	309329920	64	5117
2026-01-10 23:13:33.19	36.01	26.68	-46.6	-49.4	16.7	0.00e+00	0	42	0	310378496	64	5069
2026-01-10 23:13:34.19	36.15	26.83	-46.8	-49.7	16.5	0.00e+00	0	42	0	312475648	64	5226
2026-01-10 23:13:35.20	36.29	26.98	-47.0	-49.8	16.4	0.00e+00	0	42	0	314572800	64	5336
2026-01-10 23:13:36.20	36.44	27.14	-46.9	-49.7	16.4	0.00e+00	0	42	0	316669952	64	5259
2026-01-10 23:13:37.20	36.58	27.29	-46.9	-49.8	16.3	0.00e+00	0	42	0	318767104	64	5297
2026-01-10 23:13:38.21	36.73	27.44	-46.8	-49.6	16.4	0.00e+00	0	42	0	319815680	64	5188
2026-01-10 23:13:39.21	36.88	27.60	-46.7	-49.5	16.6	0.00e+00	0	43	0	321912832	64	5136
2026-01-10 23:13:40.21	37.03	27.75	-46.9	-49.8	16.3	0.00e+00	0	42	0	324009984	64	5302
2026-01-10 23:13:41.22	37.18	27.91	-47.2	-50.2	15.9	0.00e+00	0	43	0	326107136	65	5255
2026-01-10 23:13:42.22	37.33	28.07	-47.3	-50.3	15.9	0.00e+00	0	42	0	328204288	65	5310
2026-01-10 23:13:43.22	37.49	28.22	-47.4	-50.5	15.7	0.00e+00	0	42	0	329252864	65	5426
2026-01-10 23:13:44.23	37.64	28.38	-47.2	-50.3	15.9	0.00e+00	0	42	0	331350016	65	5282
2026-01-10 23:13:45.23	37.80	28.54	-47.5	-50.7	15.5	0.00e+00	0	42	0	333447168	65	5545
2026-01-10 23:13:46.23	37.96	28.70	-47.5	-50.7	15.6	0.00e+00	0	42	0	335544320	66	5259
2026-01-10 23:13:47.23	38.12	28.86	-47.8	-51.1	15.1	7.00e-07	0	42	0	337641472	66	5512
2026-01-10 23:13:48.24	38.28	29.02	-47.9	-51.3	14.9	1.50e-06	0	42	0	338690048	66	5632
2026-01-10 23:13:49.24	38.44	29.18	-48.1	-51.6	14.7	0.00e+00	0	43	0	340787200	67	5492
2026-01-10 23:13:50.24	38.61	29.34	-48.2	-51.8	14.5	0.00e+00	0	42	0	342884352	67	5621
2026-01-10 23:13:51.24	38.77	29.51	-48.4	-52.1	14.2	0.00e+00	0	42	0	344981504	67	5790
2026-01-10 23:13:52.25	38.94	29.67	-48.4	-52.0	14.3	0.00e+00	0	42	0	347078656	67	5761
2026-01-10 23:13:53.25	39.11	29.83	-48.2	-51.7	14.5	7.00e-07	0	42	0	348127232	67	5550
2026-01-10 23:13:54.25	39.28	30.00	-48.0	-51.3	15.0	0.00e+00	0	42	0	350224384	67	5306
2026-01-10 23:13:55.26	39.46	30.17	-48.0	-51.3	15.0	7.00e-07	0	42	0	352321536	67	5295
2026-01-10 23:13:56.26	39.63	30.33	-48.1	-51.5	14.8	0.00e+00	0	42	0	354418688	67	5423
2026-01-10 23:13:57.26	39.81	30.50	-48.2	-51.6	14.7	0.00e+00	0	42	0	356515840	67	5511
2026-01-10 23:13:58.27	39.99	30.67	-48.0	-51.4	14.8	0.00e+00	0	42	0	357564416	67	5393
2026-01-10 23:13:59.27	40.17	30.83	-47.9	-51.1	15.1	0.00e+00	0	42	0	359661568	67	5216
2026-01-10 23:14:00.27	40.35	31.00	-47.6	-50.8	15.5	0.00e+00	0	42	0	361758720	67	4985
2026-01-10 23:14:01.28	40.54	31.17	-47.6	-50.8	15.5	0.00e+00	0	42	0	363855872	67	5001
2026-01-10 23:14:02.28	40.72	31.34	-47.8	-51.0	15.2	0.00e+00	0	42	0	364904448	67	5145
2026-01-10 23:14:03.29	40.91	31.52	-47.6	-50.7	15.6	0.00e+00	0	42	0	367001600	67	4933
2026-01-10 23:14:04.29	41.10	31.69	-47.8	-51.0	15.3	0.00e+00	0	42	0	369098752	67	5107
2026-01-10 23:14:05.29	41.30	31.86	-47.8	-50.9	15.3	0.00e+00	0	42	0	371195904	67	5095
2026-01-10 23:14:06.30	41.49	32.03	-47.9	-51.2	15.1	7.00e-07	0	43	0	373293056	67	5241
2026-01-10 23:14:07.30	41.69	32.21	-48.0	-51.4	14.9	0.00e+00	0	42	0	374341632	67	5345
2026-01-10 23:14:08.30	41.88	32.38	-48.2	-51.7	14.7	0.00e+00	0	42	0	376438784	67	5545
2026-01-10 23:14:09.30	42.08	32.56	-47.9	-51.2	15.0	0.00e+00	0	42	0	378535936	67	5269
2026-01-10 23:14:10.30	42.29	32.73	-47.8	-51.1	15.2	0.00e+00	0	42	0	380633088	67	5162
2026-01-10 23:14:11.30	42.49	32.91	-47.5	-50.6	15.6	0.00e+00	0	42	0	382730240	67	4924
2026-01-10 23:14:12.30	42.70	33.08	-47.2	-50.2	16.1	0.00e+00	0	42	0	383778816	66	4936
2026-01-10 23:14:13.31	42.91	33.26	-46.7	-49.5	16.6	0.00e+00	0	42	0	385875968	65	4839
2026-01-10 23:14:14.31	43.12	33.44	-46.8	-49.6	16.6	0.00e+00	0	42	0	387973120	65	4894
2026-01-10 23:14:15.31	43.33	33.62	-46.7	-49.5	16.7	0.00e+00	0	42	0	390070272	65	4846
2026-01-10 23:14:16.31	43.55	33.80	-46.7	-49.5	16.6	0.00e+00	0	42	0	392167424	65	4847
2026-01-10 23:14:17.32	43.77	33.98	-47.1	-50.0	16.1	0.00e+00	0	42	0	393216000	65	5134
2026-01-10 23:14:18.32	43.99	34.16	-47.2	-50.2	16.0	0.00e+00	0	42	0	395313152	65	5221
2026-01-10 23:14:19.32	44.21	34.34	-47.3	-50.4	15.8	0.00e+00	0	43	0	397410304	65	5357
2026-01-10 23:14:20.33	44.44	34.52	-47.4	-50.5	15.8	0.00e+00	0	43	0	399507456	65	5412
2026-01-10 23:14:21.33	44.66	34.71	-47.5	-50.6	15.6	0.00e+00	0	42	0	401604608	65	5504
2026-01-10 23:14:22.33	44.89	34.89	-47.3	-50.2	16.0	0.00e+00	0	42	0	402653184	65	5269
2026-01-10 23:14:23.33	45.13	35.07	-47.4	-50.4	15.7	0.00e+00	0	42	0	404750336	65	5395
2026-01-10 23:14:24.33	45.36	35.26	-47.2	-50.2	16.0	0.00e+00	0	42	0	406847488	65	5250
2026-01-10 23:14:25.34	45.60	35.44	-47.0	-49.8	16.3	0.00e+00	0	42	0	408944640	65	5033
2026-01-10 23:14:26.34	45.84	35.63	-47.1	-50.0	16.2	0.00e+00	0	42	0	409993216	65	5128
2026-01-10 23:14:27.34	46.08	35.81	-47.0	-49.8	16.4	0.00e+00	0	42	0	412090368	65	5032
2026-01-10 23:14:28.35	46.33	36.00	-47.1	-50.0	16.3	0.00e+00	0	42	0	414187520	65	5126
2026-01-10 23:14:29.35	46.58	36.19	-46.8	-49.6	16.6	0.00e+00	0	42	0	416284672	65	4882
2026-01-10 23:14:30.35	46.83	36.37	-47.0	-49.8	16.4	0.00e+00	0	42	0	418381824	65	5040
2026-01-10 23:14:31.35	47.09	36.56	-47.1	-50.0	16.2	0.00e+00	0	42	0	420478976	65	5135
2026-01-10 23:14:32.36	47.35	36.75	-47.0	-49.9	16.3	0.00e+00	0	42	0	421527552	65	5080
2026-01-10 23:14:33.36	47.61	36.94	-47.1	-50.0	16.2	0.00e+00	0	42	0	423624704	65	5118
2026-01-10 23:14:34.36	47.87	37.13	-46.7	-49.4	16.7	0.00e+00	0	43	0	425721856	65	4800
2026-01-10 23:14:35.36	48.14	37.32	-46.5	-49.2	17.0	0.00e+00	0	42	0	427819008	64	4927
2026-01-10 23:14:36.37	48.41	37.51	-46.2	-48.8	17.3	0.00e+00	0	42	0	428867584	64	4729
2026-01-10 23:14:37.37	48.68	37.70	-46.2	-48.9	17.3	0.00e+00	0	42	0	430964736	64	4766
2026-01-10 23:14:38.37	48.95	37.89	-46.2	-48.8	17.3	0.00e+00	0	42	0	433061888	64	4749
2026-01-10 23:14:39.38	49.24	38.08	-46.3	-48.9	17.3	0.00e+00	0	42	0	435159040	64	4808
2026-01-10 23:14:40.38	49.52	38.27	-46.3	-48.9	17.2	0.00e+00	0	42	0	437256192	64	4797
2026-01-10 23:14:41.38	49.80	38.46	-46.5	-49.2	17.0	0.00e+00	0	42	0	438304768	64	4944
2026-01-10 23:14:42.39	50.09	38.66	-46.7	-49.5	16.8	0.00e+00	0	42	0	440401920	64	5111
2026-01-10 23:14:43.39	50.39	38.85	-46.4	-49.1	17.1	0.00e+00	0	42	0	442499072	64	4888
2026-01-10 23:14:44.39	50.68	39.04	-46.9	-49.7	16.6	0.00e+00	0	42	0	444596224	64	5241
2026-01-10 23:14:45.39	50.98	39.23	-46.6	-49.2	16.9	0.00e+00	0	42	0	446693376	64	4971
2026-01-10 23:14:46.40	51.29	39.43	-46.8	-49.5	16.7	0.00e+00	0	42	0	447741952	64	5132
2026-01-10 23:14:47.40	51.59	39.62	-46.5	-49.1	17.1	0.00e+00	0	42	0	449839104	64	4910
2026-01-10 23:14:48.40	51.90	39.81	-46.4	-49.0	17.1	0.00e+00	0	43	0	451936256	64	4853
2026-01-10 23:14:49.41	52.22	40.01	-46.5	-49.2	17.0	0.00e+00	0	42	0	454033408	64	4928
2026-01-10 23:14:50.41	52.54	40.20	-46.6	-49.3	16.8	0.00e+00	0	42	0	456130560	64	5036
2026-01-10 23:14:51.41	52.86	40.39	-46.3	-49.0	17.2	0.00e+00	0	42	0	457179136	64	4818
2026-01-10 23:14:52.42	53.18	40.59	-46.4	-49.1	17.1	0.00e+00	0	43	0	459276288	64	4900
2026-01-10 23:14:53.42	53.51	40.78	-46.6	-49.3	16.8	0.00e+00	0	42	0	461373440	64	4986
2026-01-10 23:14:54.42	53.84	40.98	-46.8	-49.5	16.7	0.00e+00	0	42	0	463470592	64	5140
2026-01-10 23:14:55.42	54.18	41.17	-46.9	-49.6	16.5	0.00e+00	0	42	0	465567744	64	5211
2026-01-10 23:14:56.43	54.52	41.37	-47.5	-50.6	15.7	0.00e+00	0	43	0	466616320	65	5477
2026-01-10 23:14:57.43	54.87	41.56	-47.2	-50.1	16.1	0.00e+00	0	42	0	468713472	65	5196
2026-01-10 23:14:58.44	55.22	41.75	-46.9	-49.7	16.5	0.00e+00	0	42	0	470810624	65	4976
2026-01-10 23:14:59.44	55.57	41.95	-46.9	-49.7	16.6	0.00e+00	0	42	0	472907776	65	4936
2026-01-10 23:15:00.44	55.93	42.14	-46.7	-49.4	16.8	0.00e+00	0	42	0	473956352	65	4787
2026-01-10 23:15:01.44	56.29	42.33	-46.8	-49.6	16.6	0.00e+00	0	42	0	476053504	65	4879
2026-01-10 23:15:02.45	56.66	42.53	-46.9	-49.7	16.5	0.00e+00	0	42	0	478150656	65	4946
2026-01-10 23:15:03.45	57.03	42.72	-46.9	-49.8	16.4	0.00e+00	0	42	0	480247808	65	4995
2026-01-10 23:15:04.45	57.40	42.91	-46.6	-49.4	16.8	0.00e+00	0	42	0	482344960	65	4795
2026-01-10 23:15:05.45	57.78	43.10	-46.3	-48.9	17.3	0.00e+00	0	42	0	483393536	64	4782
2026-01-10 23:15:06.46	58.17	43.30	-46.4	-49.1	17.0	0.00e+00	0	42	0	485490688	64	4906
2026-01-10 23:15:07.46	58.56	43.49	-46.8	-49.6	16.6	0.00e+00	0	42	0	487587840	64	5189
2026-01-10 23:15:08.46	58.95	43.68	-46.8	-49.6	16.6	0.00e+00	0	42	0	489684992	64	5184
2026-01-10 23:15:09.46	59.35	43.87	-47.1	-49.9	16.3	0.00e+00	0	42	0	491782144	64	5390
2026-01-10 23:15:10.47	59.75	44.06	-46.8	-49.6	16.6	0.00e+00	0	42	0	492830720	64	5187
2026-01-10 23:15:11.47	60.16	44.25	-46.6	-49.3	16.9	0.00e+00	0	42	0	494927872	64	5028
2026-01-10 23:15:12.47	60.57	44.43	-46.9	-49.7	16.6	0.00e+00	0	42	0	497025024	64	5256
2026-01-10 23:15:13.48	60.99	44.62	-47.0	-49.9	16.3	0.00e+00	0	42	0	499122176	64	5350
2026-01-10 23:15:14.48	61.41	44.81	-47.3	-50.3	16.0	0.00e+00	0	42	0	501219328	65	5304
2026-01-10 23:15:15.48	61.84	44.99	-47.6	-50.7	15.7	0.00e+00	0	42	0	502267904	65	5536
2026-01-10 23:15:16.49	62.27	45.18	-47.8	-51.0	15.3	0.00e+00	0	43	0	504365056	66	5432
2026-01-10 23:15:17.49	62.71	45.36	-48.1	-51.5	14.8	0.00e+00	0	42	0	506462208	66	5755
2026-01-10 23:15:18.49	63.15	45.55	-48.1	-51.5	14.9	0.00e+00	0	42	0	508559360	67	5433
2026-01-10 23:15:19.50	63.60	45.73	-47.6	-50.8	15.4	0.00e+00	0	43	0	510656512	67	4998
2026-01-10 23:15:20.50	64.05	45.91	-47.2	-50.2	16.1	0.00e+00	0	42	0	511705088	66	4939
2026-01-10 23:15:21.50	64.51	46.09	-46.9	-49.8	16.5	0.00e+00	0	43	0	513802240	65	5003
2026-01-10 23:15:22.50	64.97	46.27	-46.8	-49.6	16.6	0.00e+00	0	43	0	515899392	65	4877
2026-01-10 23:15:23.51	65.44	46.45	-46.8	-49.6	16.7	0.00e+00	0	42	0	517996544	65	4914
2026-01-10 23:15:24.51	65.91	46.62	-46.7	-49.4	16.8	0.00e+00	0	43	0	520093696	65	4810
2026-01-10 23:15:25.51	66.39	46.80	-46.6	-49.2	17.0	0.00e+00	0	43	0	521142272	64	4982
2026-01-10 23:15:26.52	66.87	46.97	-46.2	-48.8	17.3	0.00e+00	0	43	0	523239424	64	4722
2026-01-10 23:15:27.52	67.36	47.14	-46.4	-49.0	17.2	0.00e+00	0	42	0	525336576	64	4849
2026-01-10 23:15:28.52	67.86	47.31	-46.2	-48.8	17.4	0.00e+00	0	42	0	527433728	64	4724
2026-01-10 23:15:29.52	68.35	47.48	-46.3	-48.9	17.3	0.00e+00	0	42	0	529530880	64	4771
2026-01-10 23:15:30.52	68.86	47.65	-46.3	-48.9	17.3	0.00e+00	0	43	0	530579456	64	4783
2026-01-10 23:15:31.53	69.37	47.82	-46.4	-49.0	17.2	0.00e+00	0	43	0	532676608	64	4866
2026-01-10 23:15:32.53	69.89	47.98	-46.4	-49.1	17.1	0.00e+00	0	42	0	534773760	64	4894
2026-01-10 23:15:33.53	70.41	48.14	-46.6	-49.2	17.0	0.00e+00	0	42	0	536870912	64	4969
2026-01-10 23:15:34.54	70.94	48.30	-46.6	-49.3	17.0	0.00e+00	0	42	0	537919488	64	5001
2026-01-10 23:15:35.54	71.47	48.46	-46.6	-49.4	16.9	0.00e+00	0	42	0	540016640	64	5061
2026-01-10 23:15:36.54	72.00	48.61	-46.5	-49.2	17.0	0.00e+00	0	43	0	542113792	64	4962
2026-01-10 23:15:37.55	72.55	48.77	-46.8	-49.6	16.6	0.00e+00	0	43	0	544210944	64	5190
2026-01-10 23:15:38.55	73.10	48.92	-46.8	-49.6	16.5	0.00e+00	0	42	0	546308096	64	5209
2026-01-10 23:15:39.55	73.65	49.07	-46.6	-49.2	17.0	0.00e+00	0	43	0	547356672	64	4974
2026-01-10 23:15:40.55	74.21	49.21	-46.2	-48.7	17.5	0.00e+00	0	42	0	549453824	64	4704
2026-01-10 23:15:41.56	74.78	49.36	-46.2	-48.8	17.4	0.00e+00	0	42	0	551550976	64	4729
2026-01-10 23:15:42.56	75.34	49.50	-46.6	-49.4	16.9	0.00e+00	0	43	0	553648128	64	5059
2026-01-10 23:15:43.56	75.92	49.64	-46.6	-49.3	16.8	0.00e+00	0	43	0	555745280	64	5038
2026-01-10 23:15:44.56	76.50	49.78	-46.8	-49.5	16.7	0.00e+00	0	42	0	556793856	64	5132
2026-01-10 23:15:45.56	77.08	49.91	-47.0	-49.9	16.4	0.00e+00	0	42	0	558891008	64	5359
2026-01-10 23:15:46.57	77.67	50.04	-47.4	-50.4	15.8	0.00e+00	0	42	0	560988160	65	5397
2026-01-10 23:15:47.57	78.27	50.17	-47.3	-50.2	16.1	0.00e+00	0	42	0	563085312	65	5256
2026-01-10 23:15:48.57	78.87	50.30	-46.9	-49.7	16.5	0.00e+00	0	42	0	565182464	65	4965
2026-01-10 23:15:49.58	79.48	50.42	-47.2	-50.1	16.1	0.00e+00	0	43	0	566231040	65	5205
2026-01-10 23:15:50.58	80.08	50.54	-48.1	-51.5	14.8	7.00e-07	0	43	0	568328192	66	5743
2026-01-10 23:15:51.58	80.70	50.65	-48.0	-51.4	14.8	0.00e+00	0	43	0	570425344	67	5383
2026-01-10 23:15:52.59	81.32	50.77	-47.9	-51.3	15.0	0.00e+00	0	43	0	572522496	67	5318
2026-01-10 23:15:53.59	81.94	50.88	-47.6	-50.9	15.4	0.00e+00	0	43	0	574619648	66	5361
2026-01-10 23:15:54.59	82.57	50.99	-47.4	-50.6	15.8	0.00e+00	0	42	0	575668224	66	5161
2026-01-10 23:15:55.60	83.21	51.09	-47.1	-50.1	16.1	0.00e+00	0	42	0	577765376	66	4923
2026-01-10 23:15:56.61	83.85	51.19	-46.7	-49.5	16.7	0.00e+00	0	42	0	579862528	65	4868
2026-01-10 23:15:57.61	84.49	51.29	-46.6	-49.4	16.8	0.00e+00	0	43	0	581959680	65	4786
2026-01-10 23:15:58.61	85.14	51.38	-46.6	-49.5	16.8	0.00e+00	0	43	0	584056832	64	5112
2026-01-10 23:15:59.61	85.78	51.47	-46.0	-48.6	17.5	0.00e+00	0	42	0	585105408	64	4647
2026-01-10 23:16:00.61	86.44	51.55	-45.6	-48.1	18.0	0.00e+00	0	42	0	587202560	63	4634
2026-01-10 23:16:01.62	87.10	51.64	-46.0	-48.5	17.6	0.00e+00	0	42	0	589299712	63	4868
2026-01-10 23:16:02.62	87.76	51.72	-46.7	-49.5	16.7	0.00e+00	0	43	0	591396864	64	5129
2026-01-10 23:16:03.62	88.42	51.79	-46.9	-49.8	16.4	0.00e+00	0	42	0	592445440	64	5339
2026-01-10 23:16:04.63	89.09	51.86	-46.9	-49.9	16.4	0.00e+00	0	42	0	594542592	64	5342
2026-01-10 23:16:05.63	89.76	51.93	-46.9	-49.9	16.4	0.00e+00	0	43	0	596639744	65	5057
2026-01-10 23:16:06.63	90.43	51.99	-46.9	-49.9	16.3	0.00e+00	0	42	0	598736896	65	5042
2026-01-10 23:16:07.64	91.11	52.05	-46.3	-48.9	17.2	0.00e+00	0	42	0	600834048	64	4814
2026-01-10 23:16:08.64	91.79	52.11	-45.8	-48.3	17.9	0.00e+00	0	43	0	601882624	63	4712
2026-01-10 23:16:09.64	92.47	52.16	-45.8	-48.3	17.9	0.00e+00	0	43	0	603979776	63	4737
2026-01-10 23:16:10.65	93.16	52.20	-46.5	-49.2	17.1	0.00e+00	0	42	0	606076928	63	5269
2026-01-10 23:16:11.65	93.84	52.25	-46.9	-49.8	16.4	0.00e+00	0	42	0	608174080	64	5327
2026-01-10 23:16:12.65	94.53	52.29	-46.6	-49.4	16.9	0.00e+00	0	43	0	610271232	64	5069
2026-01-10 23:16:13.66	95.22	52.32	-46.5	-49.2	17.0	0.00e+00	0	43	0	611319808	64	4981
2026-01-10 23:16:14.66	95.91	52.35	-46.8	-49.6	16.6	0.00e+00	0	43	0	613416960	64	5160
2026-01-10 23:16:15.66	96.60	52.38	-46.9	-49.6	16.6	0.00e+00	0	42	0	615514112	64	5211
2026-01-10 23:16:16.66	97.29	52.40	-46.2	-48.8	17.4	0.00e+00	0	42	0	617611264	64	4737
2026-01-10 23:16:17.67	97.99	52.42	-46.4	-49.1	17.2	0.00e+00	0	42	0	619708416	64	4886
2026-01-10 23:16:18.67	98.68	52.43	-47.2	-50.2	16.0	0.00e+00	0	42	0	620756992	65	5269
2026-01-10 23:16:19.67	99.38	52.44	-47.4	-50.5	15.8	0.00e+00	0	42	0	622854144	66	5139
2026-01-10 23:16:20.67	100.07	52.44	-47.0	-49.9	16.4	0.00e+00	0	43	0	624951296	65	5075
2026-01-10 23:16:21.68	100.77	52.44	-46.5	-49.1	17.1	0.00e+00	0	43	0	627048448	64	4924
2026-01-10 23:16:22.68	101.47	52.44	-47.1	-50.0	16.3	0.00e+00	0	42	0	629145600	64	5430
2026-01-10 23:16:23.69	102.17	52.43	-48.0	-51.3	15.0	0.00e+00	0	43	0	630194176	66	5608
2026-01-10 23:16:24.69	102.86	52.42	-48.1	-51.4	15.0	0.00e+00	0	43	0	632291328	67	5354
2026-01-10 23:16:25.69	103.55	52.40	-47.8	-51.0	15.3	0.00e+00	0	43	0	634388480	67	5152
2026-01-10 23:16:26.69	104.24	52.38	-46.7	-49.5	16.7	0.00e+00	0	43	0	636485632	65	4830
2026-01-10 23:16:27.70	104.94	52.36	-46.3	-48.9	17.3	0.00e+00	0	43	0	637534208	64	4804
2026-01-10 23:16:28.70	105.63	52.33	-45.9	-48.4	17.8	0.00e+00	0	43	0	639631360	63	4793
2026-01-10 23:16:29.70	106.32	52.29	-45.9	-48.4	17.8	0.00e+00	0	42	0	641728512	63	4790
2026-01-10 23:16:30.70	107.01	52.26	-46.1	-48.7	17.6	0.00e+00	0	42	0	643825664	63	4975
2026-01-10 23:16:31.71	107.70	52.22	-46.1	-48.6	17.7	0.00e+00	0	43	0	645922816	63	4893
2026-01-10 23:16:32.72	108.39	52.17	-46.0	-48.5	17.7	0.00e+00	0	43	0	648019968	63	4857
2026-01-10 23:16:33.72	109.07	52.12	-45.9	-48.5	17.8	0.00e+00	0	42	0	649068544	63	4839
2026-01-10 23:16:34.72	109.75	52.06	-45.6	-48.1	18.1	0.00e+00	0	43	0	651165696	63	4608
2026-01-10 23:16:35.73	110.43	52.01	-45.6	-48.0	18.2	0.00e+00	0	43	0	653262848	62	4816
2026-01-10 23:16:36.73	111.10	51.94	-45.8	-48.3	17.9	0.00e+00	0	43	0	655360000	62	4988
2026-01-10 23:16:37.73	111.77	51.88	-45.9	-48.4	17.9	0.00e+00	0	43	0	656408576	62	5056
2026-01-10 23:16:38.73	112.44	51.81	-46.3	-48.9	17.3	0.00e+00	0	42	0	658505728	63	5077
2026-01-10 23:16:39.73	113.10	51.74	-46.4	-49.1	17.2	0.00e+00	0	43	0	660602880	63	5200
2026-01-10 23:16:40.74	113.77	51.66	-46.3	-48.9	17.4	0.00e+00	0	43	0	662700032	63	5060
2026-01-10 23:16:41.74	114.43	51.58	-46.3	-48.9	17.5	0.00e+00	0	43	0	664797184	63	5063
2026-01-10 23:16:42.74	115.08	51.49	-46.9	-49.7	16.6	0.00e+00	0	43	0	665845760	64	5228
2026-01-10 23:16:43.75	115.73	51.40	-47.4	-50.5	15.8	0.00e+00	0	42	0	667942912	65	5411
2026-01-10 23:16:44.75	116.38	51.31	-47.1	-49.9	16.3	0.00e+00	0	43	0	670040064	65	5095
2026-01-10 23:16:45.76	117.03	51.21	-46.5	-49.2	17.0	0.00e+00	0	43	0	672137216	64	4966
2026-01-10 23:16:46.76	117.67	51.11	-46.1	-48.7	17.5	0.00e+00	0	42	0	674234368	64	4688
2026-01-10 23:16:47.76	118.30	51.01	-46.2	-48.7	17.5	0.00e+00	0	42	0	675282944	64	4693
2026-01-10 23:16:48.76	118.93	50.90	-46.2	-48.7	17.6	0.00e+00	0	43	0	677380096	63	4938
2026-01-10 23:16:49.77	119.56	50.79	-45.4	-47.8	18.3	0.00e+00	0	43	0	679477248	62	4706
2026-01-10 23:16:50.77	120.18	50.68	-45.4	-47.7	18.4	0.00e+00	0	43	0	681574400	62	4678
2026-01-10 23:16:51.78	120.80	50.56	-46.4	-49.0	17.3	0.00e+00	0	43	0	683671552	63	5154
2026-01-10 23:16:52.78	121.41	50.45	-47.3	-50.3	15.9	0.00e+00	0	43	0	684720128	65	5321
2026-01-10 23:16:53.78	122.02	50.32	-47.5	-50.6	15.7	0.00e+00	0	42	0	686817280	65	5511
2026-01-10 23:16:54.78	122.62	50.20	-47.1	-50.1	16.1	0.00e+00	0	43	0	688914432	65	5217
2026-01-10 23:16:55.78	123.21	50.07	-46.5	-49.3	17.0	0.00e+00	0	42	0	691011584	64	5006
2026-01-10 23:16:56.79	123.81	49.94	-46.3	-49.0	17.3	0.00e+00	0	43	0	693108736	64	4851
2026-01-10 23:16:57.79	124.40	49.81	-46.3	-49.0	17.2	0.00e+00	0	42	0	694157312	64	4857
2026-01-10 23:16:58.80	124.98	49.67	-46.7	-49.5	16.8	0.00e+00	0	43	0	696254464	64	5122
2026-01-10 23:16:59.80	125.56	49.53	-46.7	-49.4	16.8	0.00e+00	0	42	0	698351616	64	5074
2026-01-10 23:17:00.80	126.13	49.39	-46.6	-49.2	16.8	0.00e+00	0	43	0	700448768	64	4970
2026-01-10 23:17:01.81	126.70	49.24	-46.6	-49.3	17.0	0.00e+00	0	42	0	702545920	64	4986
2026-01-10 23:17:02.81	127.26	49.10	-47.2	-50.1	16.2	0.00e+00	0	43	0	703594496	65	5174
2026-01-10 23:17:03.81	127.81	48.95	-46.9	-49.7	16.5	0.00e+00	0	42	0	705691648	65	4962
2026-01-10 23:17:04.82	128.37	48.80	-46.3	-48.9	17.2	0.00e+00	0	42	0	707788800	64	4788
2026-01-10 23:17:05.82	128.91	48.64	-45.7	-48.1	18.1	0.00e+00	0	43	0	709885952	63	4623
2026-01-10 23:17:06.83	129.46	48.49	-46.1	-48.7	17.6	0.00e+00	0	42	0	710934528	63	4937
2026-01-10 23:17:07.83	129.99	48.33	-46.6	-49.3	17.0	0.00e+00	0	42	0	713031680	64	4993
2026-01-10 23:17:08.83	130.52	48.17	-47.8	-50.9	15.3	0.00e+00	0	43	0	715128832	66	5401
2026-01-10 23:17:09.83	131.04	48.01	-48.2	-51.7	14.7	0.00e+00	0	43	0	717225984	67	5550
2026-01-10 23:17:10.84	131.56	47.84	-48.4	-51.9	14.4	0.00e+00	0	43	0	719323136	67	5680
2026-01-10 23:17:11.84	132.07	47.68	-48.5	-52.1	14.2	7.00e-07	0	42	0	720371712	67	5823
2026-01-10 23:17:12.84	132.58	47.51	-48.3	-51.7	14.6	7.00e-07	0	43	0	722468864	67	5531
2026-01-10 23:17:13.84	133.08	47.34	-48.1	-51.4	14.9	0.00e+00	0	43	0	724566016	67	5388
2026-01-10 23:17:14.84	133.58	47.17	-49.1	-52.9	13.5	4.50e-06	0	43	0	726663168	68	6054
2026-01-10 23:17:15.84	134.07	47.00	-50.1	-54.9	11.6	1.50e-04	0	43	0	728760320	70	6777
2026-01-10 23:17:16.85	134.56	46.83	-50.2	-55.2	11.2	1.60e-03	0	43	0	729808896	71	6616
2026-01-10 23:17:17.85	135.03	46.65	-50.0	-54.6	11.9	1.90e-03	0	43	0	731906048	71	6174
2026-01-10 23:17:18.86	135.51	46.47	-49.6	-53.8	12.7	2.71e-04	0	42	0	734003200	71	5617
2026-01-10 23:17:19.84	135.97	46.30	-49.6	-53.9	12.7	3.66e-05	0	42	0	736100352	70	5994
2026-01-10 23:17:20.84	136.44	46.12	-49.7	-54.1	12.4	1.50e-04	0	42	0	738197504	70	6194
2026-01-10 23:17:21.84	136.90	45.94	-49.1	-53.0	13.4	6.63e-05	0	43	0	739246080	70	5415
2026-01-10 23:17:22.85	137.35	45.76	-48.8	-52.6	13.9	8.30e-06	0	43	0	741343232	69	5503
2026-01-10 23:17:23.85	137.80	45.58	-49.1	-53.1	13.4	5.30e-06	0	43	0	743440384	69	5831
2026-01-10 23:17:24.85	138.24	45.39	-49.9	-54.5	11.9	2.77e-04	0	43	0	745537536	70	6465
2026-01-10 23:17:25.86	138.69	45.21	-50.6	-56.2	10.1	2.92e-03	0	43	0	747634688	72	6996
2026-01-10 23:17:26.86	139.12	45.02	-50.5	-55.9	10.6	5.70e-03	0	43	0	748683264	72	6797
2026-01-10 23:17:27.86	139.55	44.84	-50.4	-55.5	10.9	2.69e-03	0	43	0	750780416	72	6461
2026-01-10 23:17:28.87	139.97	44.65	-50.0	-54.7	11.9	7.24e-04	0	43	0	752877568	71	6203
2026-01-10 23:17:29.87	140.39	44.46	-50.6	-55.8	10.7	1.16e-03	0	43	0	754974720	71	7094
2026-01-10 23:17:30.87	140.81	44.27	-50.7	-56.4	9.9	5.69e-03	0	43	0	756023296	72	7141
2026-01-10 23:17:31.88	141.22	44.08	-51.3	-58.4	7.9	3.50e-02	0	43	0	758120448	73	8505
2026-01-10 23:17:32.89	141.63	43.89	-51.4	-58.9	7.6	1.59e-01	0	43	0	760217600	73	9022
2026-01-10 23:17:33.89	142.03	43.70	-51.2	-58.1	8.3	3.19e-02	0	43	0	762314752	73	8244
2026-01-10 23:17:34.89	142.42	43.51	-51.3	-58.4	8.0	3.77e-02	0	43	0	764411904	73	8494
2026-01-10 23:17:35.90	142.81	43.31	-51.9	-61.0	5.7	1.30e-01	0	43	0	766509056	74	10885
2026-01-10 23:17:36.90	143.20	43.12	-52.2	-63.4	4.4	8.04e-01	0	43	0	767557632	75	13425
2026-01-10 23:17:37.90	143.58	42.93	-51.9	-61.0	5.7	6.79e-01	0	43	0	769654784	75	10212
2026-01-10 23:17:38.91	143.96	42.73	-51.5	-58.6	7.7	1.35e-01	0	43	0	771751936	74	8253
2026-01-10 23:17:39.91	144.33	42.54	-52.1	-62.1	5.0	2.21e-02	0	43	0	773849088	74	12351
2026-01-10 23:17:40.91	144.70	42.35	-52.6	-67.6	3.8	1.49e+00	0	43	104	773849088	75	21958
2026-01-10 23:17:41.92	145.06	42.15	-52.6	-67.2	3.8	1.49e+00	0	42	104	773849088	75	20971
2026-01-10 23:17:42.92	145.42	41.96	-51.3	-58.2	8.0	1.37e+00	0	43	0	773849088	74	7896
2026-01-10 23:17:43.92	145.78	41.77	-51.2	-57.9	8.4	5.73e-02	0	43	0	774897664	74	7624
2026-01-10 23:17:44.93	146.13	41.57	-50.3	-55.4	11.0	6.62e-03	0	43	0	776994816	72	6351
2026-01-10 23:17:45.93	146.48	41.37	-49.7	-54.2	12.3	5.05e-04	0	43	0	779091968	71	5874
2026-01-10 23:17:46.93	146.82	41.18	-49.4	-53.4	13.0	7.24e-05	0	43	0	781189120	70	5705
2026-01-10 23:17:47.94	147.16	40.98	-48.9	-52.7	13.8	9.90e-06	0	43	0	783286272	69	5546
2026-01-10 23:17:48.94	147.49	40.79	-49.4	-53.5	12.9	1.06e-05	0	43	0	784334848	69	6089
2026-01-10 23:17:49.94	147.82	40.60	-50.3	-55.4	11.0	3.42e-04	0	42	0	786432000	71	6739
2026-01-10 23:17:50.94	148.15	40.40	-49.7	-54.2	12.2	5.54e-04	0	43	0	788529152	71	5906
2026-01-10 23:17:51.95	148.47	40.20	-49.0	-52.8	13.6	2.89e-05	0	43	0	790626304	70	5293
2026-01-10 23:17:52.95	148.79	40.01	-48.5	-51.9	14.5	2.20e-06	0	43	0	792723456	69	5075
2026-01-10 23:17:53.95	149.11	39.82	-48.2	-51.4	15.0	7.00e-07	0	43	0	793772032	68	5098
2026-01-10 23:17:54.95	149.42	39.62	-49.0	-52.7	13.8	4.50e-06	0	43	0	795869184	68	5882
2026-01-10 23:17:55.96	149.73	39.43	-50.2	-55.0	11.4	1.57e-04	0	43	0	797966336	70	6869
2026-01-10 23:17:56.96	150.03	39.23	-50.6	-56.2	10.2	3.36e-03	0	43	0	800063488	71	7402
2026-01-10 23:17:57.96	150.33	39.04	-49.5	-53.9	12.5	2.75e-04	0	43	0	801112064	71	5657
2026-01-10 23:17:58.96	150.63	38.85	-48.4	-51.8	14.5	7.00e-07	0	43	0	803209216	68	5338
2026-01-10 23:17:59.97	150.92	38.65	-47.6	-50.6	15.6	0.00e+00	0	43	0	805306368	67	4903
2026-01-10 23:18:00.97	151.21	38.46	-48.0	-51.3	15.1	0.00e+00	0	43	0	807403520	67	5304
2026-01-10 23:18:01.97	151.50	38.27	-48.4	-51.9	14.4	0.00e+00	0	43	0	809500672	67	5657
2026-01-10 23:18:02.98	151.79	38.07	-48.8	-52.4	14.1	7.00e-07	0	43	0	810549248	68	5683
2026-01-10 23:18:03.98	152.07	37.88	-48.9	-52.7	13.8	7.00e-07	0	43	0	812646400	68	5876
2026-01-10 23:18:04.98	152.34	37.69	-48.6	-52.2	14.3	2.20e-06	0	43	0	814743552	68	5529
2026-01-10 23:18:05.99	152.62	37.50	-47.7	-50.9	15.4	0.00e+00	0	43	0	816840704	67	5050
2026-01-10 23:18:06.99	152.89	37.31	-47.2	-50.2	16.0	0.00e+00	0	43	0	818937856	66	4948
2026-01-10 23:18:07.99	153.16	37.11	-46.9	-49.8	16.4	0.00e+00	0	43	0	819986432	65	4988
2026-01-10 23:18:09.00	153.42	36.92	-46.8	-49.6	16.6	0.00e+00	0	43	0	822083584	65	4891
2026-01-10 23:18:10.00	153.69	36.73	-46.9	-49.8	16.4	0.00e+00	0	43	0	824180736	65	5000
2026-01-10 23:18:11.00	153.94	36.54	-46.9	-49.7	16.5	0.00e+00	0	43	0	826277888	65	4977
2026-01-10 23:18:12.00	154.20	36.36	-47.7	-50.9	15.4	0.00e+00	0	43	0	828375040	65	5684
2026-01-10 23:18:13.01	154.45	36.17	-47.3	-50.4	15.8	0.00e+00	0	43	0	829423616	66	5062
2026-01-10 23:18:14.01	154.70	35.98	-47.2	-50.1	16.1	0.00e+00	0	43	0	831520768	66	4906
2026-01-10 23:18:15.01	154.95	35.79	-46.7	-49.4	16.8	0.00e+00	0	43	0	833617920	65	4783
2026-01-10 23:18:16.01	155.19	35.61	-46.7	-49.5	16.7	0.00e+00	0	43	0	835715072	65	4828
2026-01-10 23:18:17.02	155.44	35.42	-46.7	-49.4	16.7	0.00e+00	0	43	0	837812224	65	4797
2026-01-10 23:18:18.02	155.68	35.23	-47.2	-50.1	16.1	0.00e+00	0	43	0	838860800	65	5213
2026-01-10 23:18:19.03	155.91	35.05	-47.6	-50.8	15.3	0.00e+00	0	43	0	840957952	66	5305
2026-01-10 23:18:20.03	156.15	34.86	-48.2	-51.8	14.5	0.00e+00	0	43	0	843055104	67	5607
2026-01-10 23:18:21.04	156.38	34.68	-48.6	-52.3	13.9	1.50e-06	0	43	0	845152256	67	5978
2026-01-10 23:18:22.04	156.61	34.49	-49.2	-53.2	13.2	1.75e-05	0	43	0	847249408	68	6266
2026-01-10 23:18:23.04	156.83	34.31	-49.5	-54.0	12.4	6.40e-05	0	43	0	848297984	69	6491
2026-01-10 23:18:24.05	157.06	34.13	-49.6	-54.3	12.2	2.29e-04	0	43	0	850395136	70	6292
2026-01-10 23:18:25.05	157.28	33.95	-49.2	-53.3	13.0	1.33e-04	0	43	0	852492288	70	5655
2026-01-10 23:18:26.05	157.50	33.76	-48.9	-52.8	13.6	9.90e-06	0	43	0	854589440	69	5608
2026-01-10 23:18:27.05	157.71	33.58	-48.4	-51.9	14.5	7.00e-07	0	43	0	856686592	68	5354
2026-01-10 23:18:28.05	157.93	33.40	-47.8	-51.1	15.2	0.00e+00	0	43	0	857735168	67	5183
2026-01-10 23:18:29.06	158.14	33.22	-47.4	-50.4	15.8	0.00e+00	0	43	0	859832320	66	5085
2026-01-10 23:18:30.06	158.35	33.05	-47.6	-50.8	15.4	0.00e+00	0	43	0	861929472	66	5306
2026-01-10 23:18:31.06	158.56	32.87	-48.0	-51.3	14.8	0.00e+00	0	43	0	864026624	66	5648
2026-01-10 23:18:32.07	158.76	32.69	-48.5	-52.4	13.9	3.80e-06	0	43	0	865075200	67	5993
2026-01-10 23:18:33.07	158.97	32.51	-48.9	-53.0	13.4	5.30e-06	0	43	0	867172352	68	6113
2026-01-10 23:18:34.08	159.17	32.34	-48.8	-52.9	13.5	2.67e-05	0	43	0	869269504	68	6014
2026-01-10 23:18:35.08	159.37	32.16	-48.5	-52.3	14.1	1.50e-06	0	43	0	871366656	68	5633
2026-01-10 23:18:36.09	159.57	31.98	-48.2	-51.8	14.6	2.20e-06	0	43	0	873463808	68	5314
2026-01-10 23:18:37.09	159.76	31.81	-47.8	-51.2	15.0	0.00e+00	0	43	0	874512384	67	5232
2026-01-10 23:18:38.09	159.95	31.64	-47.3	-50.3	15.8	0.00e+00	0	43	0	876609536	66	5022
2026-01-10 23:18:39.10	160.14	31.46	-47.3	-50.3	15.8	0.00e+00	0	43	0	878706688	66	5032
2026-01-10 23:18:40.10	160.33	31.29	-47.2	-50.1	16.0	0.00e+00	0	43	0	880803840	66	4920
2026-01-10 23:18:41.10	160.52	31.12	-47.1	-50.0	16.2	0.00e+00	0	43	0	882900992	66	4816
2026-01-10 23:18:42.11	160.70	30.95	-46.4	-49.4	16.3	0.00e+00	0	43	0	883949568	65	4765
2026-01-10 23:18:43.11	160.89	30.78	-47.0	-49.8	16.3	0.00e+00	0	43	0	886046720	65	5040
2026-01-10 23:18:44.11	161.07	30.61	-47.4	-50.5	15.7	0.00e+00	0	43	0	888143872	65	5433
2026-01-10 23:18:45.11	161.25	30.44	-47.8	-51.0	15.0	0.00e+00	0	42	0	890241024	66	5451
2026-01-10 23:18:46.11	161.42	30.28	-48.3	-51.9	14.3	0.00e+00	0	42	0	892338176	67	5722
2026-01-10 23:18:47.12	161.60	30.11	-49.0	-53.0	13.5	4.50e-06	0	43	0	893386752	68	6073
2026-01-10 23:18:48.12	161.77	29.94	-49.1	-53.1	13.3	9.10e-06	0	43	0	895483904	69	5830
2026-01-10 23:18:49.12	161.94	29.77	-49.4	-53.7	12.7	9.84e-05	0	43	0	897581056	69	6240
2026-01-10 23:18:50.13	162.12	29.61	-49.4	-53.6	12.7	9.30e-05	0	43	0	899678208	69	6191
2026-01-10 23:18:51.13	162.28	29.44	-49.5	-53.9	12.5	2.10e-04	0	43	0	901775360	69	6374
2026-01-10 23:18:52.13	162.45	29.28	-48.9	-52.8	13.6	1.37e-05	0	43	0	902823936	69	5636
2026-01-10 23:18:53.14	162.62	29.12	-48.5	-52.2	14.2	1.50e-06	0	43	0	904921088	68	5538
2026-01-10 23:18:54.14	162.78	28.95	-47.7	-50.9	15.3	1.50e-06	0	43	0	907018240	67	5055
2026-01-10 23:18:55.14	162.94	28.79	-47.1	-50.1	16.0	0.00e+00	0	43	0	909115392	66	4903
2026-01-10 23:18:56.15	163.10	28.63	-46.9	-49.8	16.3	0.00e+00	0	43	0	911212544	65	5000
2026-01-10 23:18:57.15	163.26	28.47	-46.7	-49.5	16.6	0.00e+00	0	43	0	912261120	65	4832
2026-01-10 23:18:58.15	163.42	28.31	-46.7	-49.4	16.8	0.00e+00	0	43	0	914358272	65	4811
2026-01-10 23:18:59.16	163.58	28.15	-47.1	-50.0	16.1	0.00e+00	0	43	0	916455424	65	5154
2026-01-10 23:19:00.16	163.73	27.99	-47.0	-49.9	16.2	0.00e+00	0	43	0	918552576	65	5082
2026-01-10 23:19:01.16	163.88	27.84	-47.1	-50.2	16.0	0.00e+00	0	43	0	919601152	65	5226
2026-01-10 23:19:02.17	164.04	27.68	-47.1	-50.1	16.0	0.00e+00	0	43	0	921698304	65	5177
2026-01-10 23:19:03.17	164.18	27.52	-46.9	-49.8	16.3	0.00e+00	0	43	0	923795456	65	5016
2026-01-10 23:19:04.17	164.33	27.37	-47.0	-49.9	16.2	0.00e+00	0	43	0	925892608	65	5078
2026-01-10 23:19:05.17	164.48	27.21	-46.5	-49.3	16.8	0.00e+00	0	43	0	927989760	64	5004
2026-01-10 23:19:06.18	164.63	27.06	-46.5	-49.2	16.9	0.00e+00	0	43	0	929038336	64	4966
2026-01-10 23:19:07.18	164.77	26.90	-46.4	-49.0	17.0	0.00e+00	0	43	0	931135488	64	4868
2026-01-10 23:19:08.18	164.91	26.75	-46.2	-48.8	17.2	0.00e+00	0	43	0	933232640	64	4750
2026-01-10 23:19:09.19	165.06	26.60	-46.2	-48.8	17.3	0.00e+00	0	43	0	935329792	64	4728
2026-01-10 23:19:10.19	165.20	26.45	-46.7	-49.5	16.7	0.00e+00	0	43	0	937426944	64	5119
2026-01-10 23:19:11.19	165.34	26.30	-47.3	-50.3	15.8	0.00e+00	0	43	0	938475520	65	5314
2026-01-10 23:19:12.19	165.47	26.15	-47.5	-50.6	15.5	0.00e+00	0	43	0	940572672	65	5523
2026-01-10 23:19:13.19	165.61	26.00	-47.8	-51.1	15.0	0.00e+00	0	43	0	942669824	66	5522
2026-01-10 23:19:14.20	165.75	25.85	-48.1	-51.6	14.5	7.00e-07	0	43	0	944766976	67	5493
2026-01-10 23:19:15.20	165.88	25.70	-48.3	-51.9	14.4	0.00e+00	0	43	0	946864128	67	5666
2026-01-10 23:19:16.20	166.01	25.55	-49.0	-53.1	13.3	2.13e-05	0	43	0	947912704	68	6132
2026-01-10 23:19:17.21	166.14	25.41	-49.0	-53.1	13.2	3.50e-05	0	43	0	950009856	69	5811
2026-01-10 23:19:18.21	166.27	25.26	-49.3	-53.6	12.7	3.89e-05	0	43	0	952107008	69	6161
2026-01-10 23:19:19.21	166.40	25.12	-49.3	-53.6	12.7	1.37e-04	0	43	0	954204160	69	6161
2026-01-10 23:19:20.22	166.53	24.97	-49.0	-52.9	13.4	1.83e-05	0	43	0	956301312	69	5674
2026-01-10 23:19:21.22	166.66	24.83	-49.0	-53.0	13.3	1.06e-05	0	43	0	957349888	69	5781
2026-01-10 23:19:22.22	166.79	24.68	-48.4	-52.0	14.3	8.30e-06	0	43	0	959447040	68	5429
2026-01-10 23:19:23.23	166.91	24.54	-47.9	-51.2	15.0	7.00e-07	0	43	0	961544192	67	5248
2026-01-10 23:19:24.23	167.03	24.40	-47.5	-50.7	15.4	0.00e+00	0	43	0	963641344	67	4933
2026-01-10 23:19:25.23	167.16	24.25	-46.9	-49.9	16.1	0.00e+00	0	43	0	964689920	65	5083
2026-01-10 23:19:26.23	167.28	24.11	-46.7	-49.6	16.4	0.00e+00	0	43	0	966787072	65	4914
2026-01-10 23:19:27.24	167.40	23.97	-46.7	-49.6	16.5	0.00e+00	0	43	0	968884224	65	4890
2026-01-10 23:19:28.24	167.52	23.83	-46.5	-49.3	16.7	0.00e+00	0	43	0	970981376	64	5002
2026-01-10 23:19:29.24	167.64	23.69	-46.6	-49.4	16.6	0.00e+00	0	43	0	973078528	64	5085
2026-01-10 23:19:30.25	167.76	23.56	-46.8	-49.7	16.4	0.00e+00	0	43	0	975175680	64	5225
2026-01-10 23:19:31.25	167.87	23.42	-47.0	-49.9	16.1	0.00e+00	0	43	0	976224256	64	5399
2026-01-10 23:19:32.25	167.99	23.28	-47.4	-50.5	15.6	0.00e+00	0	43	0	978321408	65	5452
2026-01-10 23:19:33.25	168.10	23.14	-47.5	-50.8	15.3	0.00e+00	0	43	0	980418560	65	5622
2026-01-10 23:19:34.25	168.22	23.01	-47.9	-51.3	14.8	0.00e+00	0	43	0	982515712	66	5627
2026-01-10 23:19:35.26	168.33	22.87	-48.1	-51.7	14.5	0.00e+00	0	43	0	983564288	66	5880
2026-01-10 23:19:36.26	168.44	22.74	-48.0	-51.6	14.5	0.00e+00	0	43	0	985661440	67	5509
2026-01-10 23:19:37.26	168.55	22.60	-48.1	-51.7	14.4	7.00e-07	0	43	0	987758592	67	5576
2026-01-10 23:19:38.26	168.66	22.47	-48.0	-51.5	14.6	0.00e+00	0	43	0	989855744	67	5431
2026-01-10 23:19:39.27	168.77	22.34	-47.5	-50.8	15.3	0.00e+00	0	43	0	991952896	66	5280
2026-01-10 23:19:40.27	168.88	22.20	-47.4	-50.7	15.4	0.00e+00	0	43	0	993001472	66	5235
2026-01-10 23:19:41.27	168.99	22.07	-47.3	-50.4	15.6	0.00e+00	0	43	0	995098624	66	5094
2026-01-10 23:19:42.28	169.09	21.94	-47.1	-50.1	15.9	0.00e+00	0	43	0	997195776	66	4923
2026-01-10 23:19:43.28	169.20	21.81	-46.9	-49.8	16.2	0.00e+00	0	43	0	999292928	65	5036
2026-01-10 23:19:44.28	169.30	21.68	-46.8	-49.7	16.3	0.00e+00	0	43	0	1001390080	65	4977
2026-01-10 23:19:45.29	169.41	21.55	-46.8	-49.7	16.3	0.00e+00	0	43	0	1002438656	65	4962
2026-01-10 23:19:46.29	169.51	21.42	-46.8	-49.8	16.2	0.00e+00	0	43	0	1004535808	65	5023
2026-01-10 23:19:47.29	169.61	21.29	-46.9	-49.9	16.1	0.00e+00	0	43	0	1006632960	65	5063
2026-01-10 23:19:48.30	169.71	21.16	-46.9	-50.0	16.0	0.00e+00	0	43	0	1008730112	65	5112
2026-01-10 23:19:49.30	169.81	21.04	-47.2	-50.3	15.8	0.00e+00	0	43	0	1010827264	65	5297
2026-01-10 23:19:50.30	169.91	20.91	-47.1	-50.2	15.9	0.00e+00	0	43	0	1011875840	65	5233
2026-01-10 23:19:51.31	170.01	20.78	-46.9	-49.9	16.2	0.00e+00	0	42	0	1013972992	65	5071
2026-01-10 23:19:52.31	170.11	20.66	-47.1	-50.1	16.0	0.00e+00	0	43	0	1016070144	65	5192
2026-01-10 23:19:53.31	170.21	20.53	-46.9	-49.8	16.2	0.00e+00	0	43	0	1018167296	65	5008
2026-01-10 23:19:54.32	170.30	20.41	-46.7	-49.6	16.4	0.00e+00	0	43	0	1020264448	65	4909
2026-01-10 23:19:55.32	170.40	20.28	-46.6	-49.4	16.3	0.00e+00	0	43	0	1021313024	65	4799
2026-01-10 23:19:56.32	170.50	20.16	-46.5	-49.4	16.6	0.00e+00	0	43	0	1023410176	65	4777
2026-01-10 23:19:57.33	170.59	20.04	-46.5	-49.5	16.5	0.00e+00	0	43	0	1025507328	64	5128
2026-01-10 23:19:58.33	170.68	19.92	-46.3	-49.2	16.8	0.00e+00	0	43	0	1027604480	64	4964
2026-01-10 23:19:59.33	170.78	19.79	-46.2	-49.1	16.9	0.00e+00	0	43	0	1028653056	64	4888
2026-01-10 23:20:00.33	170.87	19.67	-46.0	-48.8	17.1	0.00e+00	0	43	0	1030750208	64	4758
2026-01-10 23:20:01.33	170.96	19.55	-46.0	-48.8	17.2	0.00e+00	0	43	0	1032847360	63	5001
2026-01-10 23:20:02.34	171.05	19.43	-46.2	-49.0	17.0	0.00e+00	0	43	0	1034944512	63	5131
2026-01-10 23:20:03.34	171.14	19.31	-46.5	-49.4	16.6	0.00e+00	0	43	0	1037041664	63	5374
2026-01-10 23:20:04.35	171.23	19.19	-46.4	-49.2	16.9	0.00e+00	0	43	0	1038090240	63	5253
2026-01-10 23:20:05.35	171.32	19.07	-46.3	-49.2	16.9	0.00e+00	0	43	0	1040187392	63	5222
2026-01-10 23:20:06.35	171.41	18.96	-46.4	-49.3	16.8	0.00e+00	0	43	0	1042284544	63	5294
2026-01-10 23:20:07.35	171.50	18.84	-46.4	-49.3	16.8	0.00e+00	0	43	0	1044381696	63	5294
2026-01-10 23:20:08.36	171.58	18.72	-46.6	-49.5	16.6	0.00e+00	0	43	0	1046478848	63	5406
2026-01-10 23:20:09.36	171.67	18.60	-46.6	-49.5	16.6	0.00e+00	0	43	0	1047527424	63	5425
2026-01-10 23:20:10.36	171.75	18.49	-46.6	-49.4	16.5	0.00e+00	0	43	0	1049624576	64	5090
2026-01-10 23:20:11.37	171.84	18.37	-46.8	-49.7	16.3	0.00e+00	0	43	0	1051721728	64	5276
2026-01-10 23:20:12.37	171.92	18.26	-47.0	-50.0	16.0	0.00e+00	0	42	0	1053818880	64	5464
2026-01-10 23:20:13.37	172.01	18.14	-47.4	-50.6	15.4	0.00e+00	0	43	0	1055916032	65	5498
2026-01-10 23:20:14.37	172.09	18.03	-47.4	-50.7	15.4	0.00e+00	0	43	0	1056964608	65	5537
2026-01-10 23:20:15.38	172.17	17.91	-47.5	-50.8	15.3	0.00e+00	0	43	0	1059061760	65	5601
2026-01-10 23:20:16.38	172.26	17.80	-47.5	-50.8	15.2	0.00e+00	0	43	0	1061158912	65	5616
2026-01-10 23:20:17.38	172.34	17.69	-47.6	-50.9	15.1	0.00e+00	0	43	0	1063256064	65	5717
2026-01-10 23:20:18.39	172.42	17.57	-47.6	-50.9	15.1	0.00e+00	0	43	0	1065353216	65	5688
2026-01-10 23:20:19.39	172.50	17.46	-47.6	-50.9	15.1	0.00e+00	0	43	0	1066401792	66	5390
2026-01-10 23:20:20.39	172.58	17.35	-47.8	-51.3	14.8	0.00e+00	0	43	0	1068498944	66	5622
2026-01-10 23:20:21.40	172.66	17.24	-47.9	-51.4	14.7	0.00e+00	0	43	0	1070596096	66	5682
2026-01-10 23:20:22.40	172.74	17.13	-47.7	-51.1	14.9	0.00e+00	0	43	0	1072693248	66	5509
2026-01-10 23:20:23.40	172.81	17.02	-47.8	-51.3	14.7	0.00e+00	0	42	0	1074790400	66	5652
2026-01-10 23:20:24.40	172.89	16.91	-47.6	-51.0	15.0	0.00e+00	0	43	0	1075838976	66	5415
2026-01-10 23:20:25.41	172.97	16.80	-47.4	-50.8	15.3	0.00e+00	0	43	0	1077936128	66	5296
2026-01-10 23:20:26.41	173.04	16.69	-47.5	-50.8	15.2	7.00e-07	0	43	0	1080033280	66	5302
2026-01-10 23:20:27.41	173.12	16.58	-47.4	-50.7	15.3	0.00e+00	0	43	0	1082130432	66	5251
2026-01-10 23:20:28.41	173.20	16.47	-47.5	-50.9	15.1	0.00e+00	0	43	0	1083179008	66	5352
2026-01-10 23:20:29.42	173.27	16.37	-47.4	-50.7	15.4	0.00e+00	0	43	0	1085276160	66	5227
2026-01-10 23:20:30.42	173.34	16.26	-47.2	-50.4	15.6	0.00e+00	0	43	0	1087373312	66	5059
2026-01-10 23:20:31.42	173.42	16.15	-47.2	-50.4	15.6	0.00e+00	0	43	0	1089470464	66	5066
2026-01-10 23:20:32.43	173.49	16.05	-47.0	-50.2	15.8	0.00e+00	0	43	0	1091567616	66	4929
2026-01-10 23:20:33.43	173.56	15.94	-47.0	-50.1	15.8	0.00e+00	0	43	0	1092616192	66	4895
2026-01-10 23:20:34.43	173.64	15.83	-46.9	-50.0	16.0	0.00e+00	0	43	0	1094713344	65	5101
2026-01-10 23:20:35.43	173.71	15.73	-46.9	-49.9	16.0	0.00e+00	0	43	0	1096810496	65	5066
2026-01-10 23:20:36.44	173.78	15.62	-46.7	-49.7	16.2	0.00e+00	0	43	0	1098907648	65	4974
2026-01-10 23:20:37.44	173.85	15.52	-46.5	-49.5	16.4	0.00e+00	0	43	0	1101004800	65	4828
2026-01-10 23:20:38.44	173.92	15.42	-46.6	-49.7	16.2	0.00e+00	0	43	0	1102053376	65	4943
2026-01-10 23:20:39.45	173.99	15.31	-46.6	-49.7	16.2	0.00e+00	0	43	0	1104150528	65	4979
2026-01-10 23:20:40.45	174.06	15.21	-46.5	-49.5	16.4	0.00e+00	0	43	0	1106247680	64	5135
2026-01-10 23:20:41.45	174.13	15.11	-46.4	-49.5	16.5	0.00e+00	0	43	0	1108344832	64	5112
2026-01-10 23:20:42.46	174.20	15.00	-46.2	-49.2	16.7	0.00e+00	0	43	0	1110441984	64	4953
2026-01-10 23:20:43.46	174.27	14.90	-46.2	-49.2	16.7	0.00e+00	0	43	0	1111490560	64	4944
2026-01-10 23:20:44.46	174.33	14.80	-46.2	-49.1	16.7	0.00e+00	0	43	0	1113587712	64	4921
2026-01-10 23:20:45.47	174.40	14.70	-46.3	-49.3	16.6	0.00e+00	0	43	0	1115684864	64	4988
2026-01-10 23:20:46.47	174.47	14.60	-46.2	-49.2	16.7	0.00e+00	0	43	0	1117782016	64	4927
2026-01-10 23:20:47.47	174.54	14.50	-46.2	-49.2	16.7	0.00e+00	0	43	0	1119879168	64	4951
2026-01-10 23:20:48.48	174.60	14.40	-46.2	-49.1	16.7	0.00e+00	0	43	0	1120927744	64	4921
2026-01-10 23:20:49.48	174.67	14.30	-46.3	-49.3	16.6	0.00e+00	0	43	0	1123024896	64	4984
2026-01-10 23:20:50.48	174.73	14.20	-46.2	-49.2	16.7	0.00e+00	0	43	0	1125122048	64	4927
2026-01-10 23:20:51.49	174.80	14.10	-46.1	-49.0	16.8	0.00e+00	0	43	0	1127219200	64	4868
2026-01-10 23:20:52.49	174.86	14.00	-46.3	-49.2	16.6	0.00e+00	0	43	0	1129316352	64	4979
2026-01-10 23:20:53.49	174.93	13.91	-46.3	-49.2	16.6	0.00e+00	0	43	0	1130364928	64	4982
2026-01-10 23:20:54.50	174.99	13.81	-46.4	-49.4	16.4	0.00e+00	0	43	0	1132462080	64	5070
2026-01-10 23:20:55.50	175.05	13.71	-46.4	-49.4	16.4	0.00e+00	0	43	0	1134559232	64	5097
2026-01-10 23:20:56.50	175.12	13.61	-46.4	-49.5	16.4	0.00e+00	0	43	0	1136656384	64	5137
2026-01-10 23:20:57.51	175.18	13.52	-46.5	-49.6	16.3	0.00e+00	0	43	0	1138753536	64	5205
2026-01-10 23:20:58.51	175.24	13.42	-46.6	-49.7	16.2	0.00e+00	0	43	0	1139802112	64	5228
2026-01-10 23:20:59.51	175.30	13.32	-46.6	-49.7	16.2	0.00e+00	0	42	0	1141899264	64	5232
2026-01-10 23:21:00.52	175.36	13.23	-46.6	-49.8	16.1	0.00e+00	0	43	0	1143996416	64	5292
2026-01-10 23:21:01.52	175.42	13.13	-46.6	-49.8	16.1	0.00e+00	0	43	0	1146093568	64	5302
2026-01-10 23:21:02.52	175.48	13.04	-47.0	-50.3	15.7	0.00e+00	0	43	0	1147142144	64	5606
2026-01-10 23:21:03.52	175.54	12.94	-46.7	-49.9	16.0	0.00e+00	0	43	0	1149239296	64	5361
2026-01-10 23:21:04.53	175.60	12.85	-46.8	-49.9	15.9	0.00e+00	0	43	0	1151336448	64	5396
2026-01-10 23:21:05.53	175.66	12.76	-46.8	-49.9	16.0	0.00e+00	0	43	0	1153433600	64	5374
2026-01-10 23:21:06.53	175.72	12.66	-46.7	-49.7	16.1	0.00e+00	0	43	0	1155530752	64	5258
2026-01-10 23:21:07.53	175.78	12.57	-46.6	-49.5	16.3	0.00e+00	0	43	0	1156579328	64	5156
2026-01-10 23:21:08.54	175.84	12.48	-46.6	-49.5	15.8	9.68e-05	0	43	0	1158676480	64	5155
2026-01-10 23:21:09.54	175.90	12.38	-46.4	-49.3	16.5	0.00e+00	0	43	0	1160773632	64	5005
2026-01-10 23:21:10.54	175.95	12.29	-46.5	-49.5	16.3	0.00e+00	0	43	0	1162870784	64	5121
2026-01-10 23:21:11.55	176.01	12.20	-46.5	-49.5	16.4	0.00e+00	0	43	0	1164967936	64	5145
2026-01-10 23:21:12.55	176.07	12.11	-46.3	-49.2	16.6	0.00e+00	0	43	0	1166016512	64	4973
2026-01-10 23:21:13.55	176.13	12.02	-46.5	-49.5	16.3	0.00e+00	0	43	0	1168113664	64	5131
2026-01-10 23:21:14.56	176.18	11.93	-46.3	-49.2	16.6	0.00e+00	0	43	0	1170210816	64	4957
2026-01-10 23:21:15.56	176.24	11.84	-46.3	-49.2	16.6	0.00e+00	0	43	0	1172307968	64	4979
2026-01-10 23:21:16.56	176.29	11.75	-46.3	-49.3	16.5	0.00e+00	0	43	0	1174405120	64	4998
2026-01-10 23:21:17.56	176.35	11.66	-46.3	-49.3	16.5	5.56e-05	0	42	0	1175453696	64	5033
2026-01-10 23:21:18.57	176.40	11.57	-46.3	-49.3	16.5	0.00e+00	0	43	0	1177550848	64	5038
2026-01-10 23:21:19.57	176.46	11.48	-46.1	-49.2	16.6	0.00e+00	0	43	0	1179648000	64	4950
2026-01-10 23:21:20.57	176.51	11.39	-46.3	-49.5	16.3	0.00e+00	0	43	0	1181745152	64	5108
2026-01-10 23:21:21.58	176.57	11.30	-46.2	-49.3	16.4	0.00e+00	0	43	0	1183842304	64	5027
2026-01-10 23:21:22.58	176.62	11.21	-46.3	-49.6	16.2	0.00e+00	0	43	0	1184890880	64	5176
2026-01-10 23:21:23.58	176.67	11.12	-46.2	-49.6	16.2	0.00e+00	0	43	0	1186988032	64	5166
2026-01-10 23:21:24.59	176.73	11.03	-46.3	-49.7	16.1	0.00e+00	0	43	0	1189085184	64	5240
2026-01-10 23:21:25.59	176.78	10.95	-46.2	-49.6	16.1	0.00e+00	0	43	0	1191182336	64	5211
2026-01-10 23:21:26.60	176.83	10.86	-46.3	-49.9	15.9	0.00e+00	0	43	0	1193279488	64	5358
2026-01-10 23:21:27.60	176.89	10.77	-46.4	-50.0	15.8	0.00e+00	0	43	0	1194328064	64	5443
2026-01-10 23:21:28.60	176.94	10.69	-46.4	-50.1	15.7	0.00e+00	0	43	0	1196425216	64	5510
2026-01-10 23:21:29.61	176.99	10.60	-46.5	-50.3	15.5	0.00e+00	0	43	0	1198522368	64	5597
2026-01-10 23:21:30.61	177.04	10.51	-46.7	-50.5	15.3	0.00e+00	0	43	0	1200619520	64	5774
2026-01-10 23:21:31.61	177.09	10.43	-46.5	-50.3	15.5	0.00e+00	0	43	0	1202716672	64	5623
