passes_logs/2026/01/10/T1/T1__20260110_071839_KHAYYAM_rec.log

#Pass ID: 20260110_071839_KHAYYAM
#Satellite: KHAYYAM
#Configuration: KHAYYAM_480M
#almurnet v.1.7.20251203
#Start time: 2026-01-10 07:18:40

#Version: 2.0.20230620
#Station: T1
#Location: 37.570604 lon 55.790049 lat
#TLE: 1 53370U 22096A   26009.31274807  .00006498  00000+0  26496-3 0  9992
#TLE: 2 53370  97.3557 276.4248 0001271  95.0973 265.0410 15.24779729190374

#Time	Az	El	Level	Level2	SNR	BER	BlckErr	Temp	State	Recorded	gain1	gain2
2026-01-10 07:18:40.70	142.45	5.14	-53.7	-58.1	3.6	0.00e+00	0	45	0	0	79	23399
2026-01-10 07:18:41.70	142.40	5.22	-53.7	-58.1	3.7	0.00e+00	0	46	104	0	78	24690
2026-01-10 07:18:42.71	142.34	5.30	-53.7	-58.1	3.7	0.00e+00	0	46	104	0	78	24667
2026-01-10 07:18:43.71	142.29	5.38	-53.7	-58.1	3.7	0.00e+00	0	46	104	0	78	24720
2026-01-10 07:18:44.71	142.23	5.46	-53.7	-58.1	3.7	0.00e+00	0	46	104	0	78	24615
2026-01-10 07:18:45.72	142.18	5.54	-53.7	-58.1	3.7	0.00e+00	0	46	104	0	78	24642
2026-01-10 07:18:46.72	142.12	5.62	-53.7	-58.1	3.7	0.00e+00	0	46	104	0	78	24615
2026-01-10 07:18:47.73	142.06	5.70	-53.7	-58.1	3.7	0.00e+00	0	46	104	0	78	24596
2026-01-10 07:18:48.73	142.01	5.79	-53.7	-58.1	3.7	0.00e+00	0	46	104	0	78	24720
2026-01-10 07:18:49.73	141.95	5.87	-53.7	-58.1	3.7	0.00e+00	0	46	104	0	78	24677
2026-01-10 07:18:50.74	141.89	5.95	-53.7	-58.1	3.7	0.00e+00	0	46	104	0	78	24593
2026-01-10 07:18:51.74	141.83	6.03	-53.7	-58.1	3.7	0.00e+00	0	47	104	0	78	24635
2026-01-10 07:18:52.75	141.77	6.12	-53.7	-58.1	3.7	0.00e+00	0	47	104	0	78	24652
2026-01-10 07:18:53.75	141.71	6.20	-53.7	-58.1	3.7	0.00e+00	0	47	104	0	78	24729
2026-01-10 07:18:54.75	141.66	6.29	-53.7	-58.1	3.7	0.00e+00	0	47	104	0	78	24607
2026-01-10 07:18:55.76	141.59	6.37	-53.7	-58.1	3.7	0.00e+00	0	47	104	0	78	24567
2026-01-10 07:18:56.76	141.53	6.46	-53.6	-58.1	3.7	0.00e+00	0	47	104	0	78	24647
2026-01-10 07:18:57.77	141.47	6.54	-53.6	-58.1	3.7	0.00e+00	0	47	104	0	78	24582
2026-01-10 07:18:58.77	141.41	6.63	-53.7	-58.1	3.7	0.00e+00	0	47	104	0	78	24593
2026-01-10 07:18:59.77	141.35	6.71	-53.6	-58.1	3.7	0.00e+00	0	47	104	0	78	24623
2026-01-10 07:19:00.78	141.29	6.80	-53.6	-58.1	3.7	0.00e+00	0	47	104	0	78	24548
2026-01-10 07:19:01.78	141.22	6.89	-53.6	-58.1	3.7	0.00e+00	0	47	104	0	78	24575
2026-01-10 07:19:02.79	141.16	6.98	-53.6	-58.1	3.7	0.00e+00	0	47	104	0	78	24545
2026-01-10 07:19:03.79	141.09	7.06	-53.6	-58.1	3.7	0.00e+00	0	48	104	0	78	24571
2026-01-10 07:19:04.80	141.03	7.15	-53.6	-58.1	3.7	0.00e+00	0	48	104	0	78	24581
2026-01-10 07:19:05.80	140.96	7.24	-53.6	-58.1	3.7	0.00e+00	0	47	104	0	78	24651
2026-01-10 07:19:06.81	140.90	7.33	-53.6	-58.1	3.7	0.00e+00	0	48	104	0	78	24555
2026-01-10 07:19:07.81	140.83	7.42	-53.7	-58.1	3.7	0.00e+00	0	48	104	0	78	24542
2026-01-10 07:19:08.81	140.77	7.51	-53.6	-58.0	3.7	0.00e+00	0	48	104	0	78	24520
2026-01-10 07:19:09.82	140.70	7.60	-53.6	-58.0	3.7	0.00e+00	0	48	104	0	78	24491
2026-01-10 07:19:10.83	140.63	7.69	-53.6	-58.0	3.7	0.00e+00	0	48	104	0	78	24391
2026-01-10 07:19:11.83	140.56	7.78	-53.6	-58.1	3.7	0.00e+00	0	48	104	0	78	24568
2026-01-10 07:19:12.83	140.49	7.87	-53.6	-58.0	3.7	0.00e+00	0	48	104	0	78	24429
2026-01-10 07:19:13.84	140.42	7.96	-53.6	-58.0	3.7	0.00e+00	0	48	104	0	78	24412
2026-01-10 07:19:14.84	140.35	8.05	-53.6	-58.0	3.7	0.00e+00	0	48	104	0	78	24340
2026-01-10 07:19:15.85	140.28	8.15	-53.6	-58.0	3.7	0.00e+00	0	48	104	0	78	24320
2026-01-10 07:19:16.85	140.21	8.24	-53.6	-58.0	3.7	0.00e+00	0	48	104	0	78	24292
2026-01-10 07:19:17.86	140.14	8.33	-53.6	-58.0	3.7	0.00e+00	0	48	104	0	78	24308
2026-01-10 07:19:18.86	140.07	8.43	-53.6	-58.0	3.7	0.00e+00	0	48	104	0	78	24470
2026-01-10 07:19:19.87	139.99	8.52	-53.6	-58.0	3.7	0.00e+00	0	48	104	0	78	24398
2026-01-10 07:19:20.87	139.92	8.61	-53.6	-58.0	3.7	0.00e+00	0	48	104	0	78	24522
2026-01-10 07:19:21.87	139.85	8.71	-53.6	-58.1	3.7	0.00e+00	0	48	104	0	78	24536
2026-01-10 07:19:22.88	139.77	8.81	-53.6	-58.0	3.7	0.00e+00	0	48	104	0	78	24507
2026-01-10 07:19:23.88	139.70	8.90	-53.6	-58.0	3.7	0.00e+00	0	49	104	0	78	24514
2026-01-10 07:19:24.89	139.62	9.00	-53.6	-58.0	3.7	0.00e+00	0	48	104	0	78	24520
2026-01-10 07:19:25.89	139.54	9.09	-53.5	-58.0	3.7	0.00e+00	0	49	104	0	78	24507
2026-01-10 07:19:26.89	139.46	9.19	-53.5	-58.1	3.7	0.00e+00	0	49	104	0	78	24582
2026-01-10 07:19:27.89	139.39	9.29	-53.7	-58.0	3.7	0.00e+00	0	49	104	0	78	24504
2026-01-10 07:19:28.90	139.31	9.39	-53.6	-58.2	3.7	0.00e+00	0	49	104	0	78	24808
2026-01-10 07:19:29.90	139.23	9.49	-53.5	-58.1	3.7	0.00e+00	0	49	104	0	78	24547
2026-01-10 07:19:30.91	139.15	9.59	-53.8	-58.3	3.7	0.00e+00	0	49	104	0	78	25293
2026-01-10 07:19:31.96	139.06	9.69	-53.9	-58.4	3.7	0.00e+00	0	49	104	0	78	25501
2026-01-10 07:19:32.88	138.99	9.78	-53.8	-58.3	3.7	0.00e+00	0	49	104	0	78	25160
2026-01-10 07:19:33.88	138.91	9.88	-53.7	-58.1	3.7	0.00e+00	0	49	104	0	78	24805
2026-01-10 07:19:34.88	138.82	9.98	-53.7	-58.1	3.7	0.00e+00	0	49	104	0	78	24580
2026-01-10 07:19:35.88	138.74	10.08	-53.6	-58.1	3.7	0.00e+00	0	49	104	0	78	24760
2026-01-10 07:19:36.88	138.65	10.19	-53.8	-58.3	3.7	0.00e+00	0	49	104	0	78	25195
2026-01-10 07:19:37.89	138.57	10.29	-53.8	-58.3	3.7	0.00e+00	0	49	104	0	78	25128
2026-01-10 07:19:38.89	138.48	10.39	-53.8	-58.3	3.7	0.00e+00	0	49	104	0	78	25193
2026-01-10 07:19:39.89	138.40	10.50	-53.8	-58.2	3.7	0.00e+00	0	49	104	0	78	24840
2026-01-10 07:19:40.90	138.31	10.60	-53.7	-58.2	3.7	0.00e+00	0	49	104	0	78	25045
2026-01-10 07:19:41.90	138.22	10.71	-53.7	-58.0	3.7	0.00e+00	0	49	104	0	78	24493
2026-01-10 07:19:42.90	138.13	10.81	-53.8	-58.3	3.7	0.00e+00	0	49	104	0	78	25244
2026-01-10 07:19:43.91	138.04	10.92	-54.0	-58.4	3.7	0.00e+00	0	49	104	0	78	25533
2026-01-10 07:19:44.91	137.95	11.02	-53.7	-58.2	3.7	0.00e+00	0	49	104	0	78	24815
2026-01-10 07:19:45.91	137.86	11.13	-53.9	-58.2	3.7	0.00e+00	0	49	104	0	78	24987
2026-01-10 07:19:46.97	137.76	11.24	-54.0	-58.4	3.7	0.00e+00	0	49	104	0	78	25568
2026-01-10 07:19:47.87	137.68	11.34	-54.0	-58.4	3.7	0.00e+00	0	49	104	0	78	25489
2026-01-10 07:19:48.88	137.58	11.45	-54.0	-58.4	3.7	0.00e+00	0	49	104	0	78	25410
2026-01-10 07:19:49.88	137.49	11.56	-54.0	-58.3	3.7	0.00e+00	0	49	104	0	78	25271
2026-01-10 07:19:50.88	137.39	11.67	-54.0	-58.4	3.7	0.00e+00	0	49	104	0	78	25564
2026-01-10 07:19:51.89	137.29	11.78	-53.9	-58.3	3.7	0.00e+00	0	49	104	0	78	25351
2026-01-10 07:19:52.89	137.20	11.89	-54.0	-58.4	3.7	0.00e+00	0	49	104	0	78	25596
2026-01-10 07:19:53.89	137.10	12.00	-53.9	-58.3	3.7	0.00e+00	0	49	104	0	78	25253
2026-01-10 07:19:54.89	137.00	12.11	-53.8	-58.3	3.7	0.00e+00	0	49	104	0	78	25145
2026-01-10 07:19:55.90	136.90	12.23	-53.7	-58.0	3.7	0.00e+00	0	50	104	0	78	24386
2026-01-10 07:19:56.90	136.80	12.34	-54.0	-58.4	3.7	0.00e+00	0	50	104	0	78	25547
2026-01-10 07:19:57.95	136.69	12.46	-53.8	-58.0	3.7	0.00e+00	0	50	104	0	78	24513
2026-01-10 07:19:58.87	136.59	12.57	-53.9	-58.2	3.7	0.00e+00	0	49	104	0	78	24942
2026-01-10 07:19:59.88	136.49	12.68	-53.9	-58.3	3.7	0.00e+00	0	50	104	0	78	25107
2026-01-10 07:20:00.88	136.38	12.80	-53.8	-58.1	3.7	0.00e+00	0	50	104	0	78	24547
2026-01-10 07:20:01.88	136.28	12.91	-54.0	-58.2	3.7	0.00e+00	0	50	104	0	78	24956
2026-01-10 07:20:02.89	136.17	13.03	-54.1	-58.5	3.7	0.00e+00	0	50	104	0	78	25715
2026-01-10 07:20:03.89	136.06	13.15	-54.0	-58.4	3.7	0.00e+00	0	50	104	0	78	25439
2026-01-10 07:20:04.89	135.95	13.27	-54.0	-58.3	3.7	0.00e+00	0	50	104	0	78	25222
2026-01-10 07:20:05.89	135.84	13.39	-54.1	-58.4	3.7	0.00e+00	0	50	104	0	78	25559
2026-01-10 07:20:06.89	135.73	13.51	-53.9	-58.4	3.7	0.00e+00	0	50	104	0	78	25675
2026-01-10 07:20:07.90	135.61	13.63	-53.7	-58.2	3.7	0.00e+00	0	50	104	0	78	25014
2026-01-10 07:20:08.90	135.50	13.75	-54.0	-58.5	3.7	0.00e+00	0	50	104	0	78	25754
2026-01-10 07:20:09.95	135.38	13.88	-53.8	-58.3	3.7	0.00e+00	0	50	104	0	78	25169
2026-01-10 07:20:10.85	135.27	13.99	-53.7	-58.2	3.7	0.00e+00	0	50	104	0	78	25011
2026-01-10 07:20:11.99	135.14	14.13	-53.7	-58.1	3.7	0.00e+00	0	50	104	0	78	24698
2026-01-10 07:20:12.84	135.04	14.24	-53.7	-58.3	3.7	0.00e+00	0	50	104	0	78	25141
2026-01-10 07:20:13.99	134.90	14.38	-53.6	-58.2	3.7	0.00e+00	0	50	104	0	78	24880
2026-01-10 07:20:14.85	134.80	14.49	-53.9	-58.2	3.7	0.00e+00	0	50	104	0	78	24984
2026-01-10 07:20:16.00	134.66	14.63	-53.9	-58.1	3.7	0.00e+00	0	50	104	0	78	24640
2026-01-10 07:20:16.86	134.55	14.74	-53.7	-58.2	3.7	0.00e+00	0	50	104	0	78	25019
2026-01-10 07:20:18.00	134.41	14.89	-53.9	-58.2	3.7	0.00e+00	0	50	104	0	78	24841
2026-01-10 07:20:18.86	134.30	15.00	-54.0	-58.3	3.7	0.00e+00	0	50	104	0	78	25175
2026-01-10 07:20:20.01	134.15	15.15	-53.7	-57.7	3.7	0.00e+00	0	50	104	0	78	23606
2026-01-10 07:20:20.87	134.04	15.26	-53.9	-58.2	3.7	0.00e+00	0	50	104	0	78	24997
2026-01-10 07:20:22.01	133.89	15.41	-54.0	-58.2	3.7	0.00e+00	0	50	104	0	78	24894
2026-01-10 07:20:22.87	133.78	15.52	-53.8	-58.0	3.7	0.00e+00	0	50	104	0	78	24410
2026-01-10 07:20:24.15	133.61	15.69	-53.7	-57.6	3.7	0.00e+00	0	50	104	0	78	23387
2026-01-10 07:20:24.86	133.51	15.78	-53.8	-58.0	3.7	0.00e+00	0	50	104	0	78	24502
2026-01-10 07:20:26.15	133.34	15.96	-53.8	-58.0	3.7	0.00e+00	0	50	104	0	78	24320
2026-01-10 07:20:26.87	133.24	16.05	-53.9	-58.1	3.7	0.00e+00	0	50	104	0	78	24655
2026-01-10 07:20:28.16	133.06	16.23	-53.9	-58.1	3.7	0.00e+00	0	50	104	0	78	24556
2026-01-10 07:20:28.88	132.96	16.33	-53.8	-58.0	3.7	0.00e+00	0	50	104	0	78	24317
2026-01-10 07:20:30.16	132.77	16.50	-54.0	-58.2	3.7	0.00e+00	0	50	104	0	78	24838
2026-01-10 07:20:31.06	132.64	16.63	-54.2	-58.6	3.7	0.00e+00	0	50	104	0	79	24663
2026-01-10 07:20:32.52	132.43	16.83	-54.0	-58.3	3.7	0.00e+00	0	50	104	0	79	23918
2026-01-10 07:20:33.23	132.33	16.93	-53.9	-58.2	3.7	0.00e+00	0	50	104	0	79	23470
2026-01-10 07:20:34.52	132.13	17.11	-53.7	-58.1	3.7	0.00e+00	0	50	104	0	79	23395
2026-01-10 07:20:35.24	132.02	17.22	-53.6	-58.1	3.7	0.00e+00	0	50	104	0	79	23251
2026-01-10 07:20:36.53	131.83	17.40	-53.6	-58.1	3.7	0.00e+00	0	50	104	0	79	23347
2026-01-10 07:20:37.25	131.72	17.51	-53.6	-58.1	3.7	0.00e+00	0	50	104	0	79	23263
2026-01-10 07:20:38.53	131.52	17.69	-53.4	-57.4	3.7	0.00e+00	0	50	104	0	78	22791
2026-01-10 07:20:39.25	131.40	17.80	-53.4	-57.5	3.7	0.00e+00	0	50	104	0	78	23039
2026-01-10 07:20:40.54	131.20	17.99	-53.4	-57.4	3.7	0.00e+00	0	50	104	0	78	22830
2026-01-10 07:20:41.26	131.08	18.09	-53.5	-57.6	3.7	0.00e+00	0	50	104	0	78	23331
2026-01-10 07:20:42.55	130.87	18.28	-53.7	-58.0	3.7	0.00e+00	0	50	104	0	78	24276
2026-01-10 07:20:43.27	130.75	18.39	-53.8	-58.1	3.7	0.00e+00	0	50	104	0	78	24792
2026-01-10 07:20:44.56	130.53	18.58	-53.9	-58.2	3.7	0.00e+00	0	50	104	0	78	25092
2026-01-10 07:20:45.28	130.41	18.69	-53.9	-58.3	3.7	0.00e+00	0	50	104	0	78	25154
2026-01-10 07:20:46.68	130.17	18.91	-53.9	-58.2	3.7	0.00e+00	0	50	104	0	78	24934
2026-01-10 07:20:47.66	130.00	19.06	-53.4	-57.6	3.7	0.00e+00	0	50	104	0	78	23384
2026-01-10 07:20:48.99	129.77	19.26	-53.8	-58.1	3.7	0.00e+00	0	50	104	0	78	24725
2026-01-10 07:20:49.70	129.64	19.37	-53.6	-58.0	3.7	0.00e+00	0	50	104	0	78	24485
2026-01-10 07:20:50.99	129.41	19.58	-53.9	-58.3	3.7	0.00e+00	0	50	104	0	78	25106
2026-01-10 07:20:51.71	129.28	19.69	-53.9	-58.1	3.7	0.00e+00	0	50	104	0	78	24692
2026-01-10 07:20:53.00	129.04	19.89	-53.7	-58.1	3.7	0.00e+00	0	51	104	0	78	24567
2026-01-10 07:20:53.71	128.90	20.01	-53.8	-58.1	3.7	0.00e+00	0	51	104	0	78	24609
2026-01-10 07:20:55.00	128.66	20.22	-54.2	-58.5	3.7	0.00e+00	0	51	104	0	79	24408
2026-01-10 07:20:55.72	128.52	20.33	-54.2	-58.4	3.7	0.00e+00	0	51	104	0	79	24225
2026-01-10 07:20:57.09	128.25	20.56	-54.2	-58.4	3.7	0.00e+00	0	51	104	0	79	24154
2026-01-10 07:20:58.08	128.06	20.72	-54.2	-58.5	3.7	0.00e+00	0	50	104	0	79	24481
2026-01-10 07:20:59.40	127.80	20.94	-54.2	-58.5	3.7	0.00e+00	0	50	104	0	79	24301
2026-01-10 07:21:00.12	127.65	21.06	-54.0	-58.2	3.7	0.00e+00	0	50	104	0	79	23446
2026-01-10 07:21:01.76	127.31	21.33	-54.2	-58.5	3.7	0.00e+00	0	51	104	0	79	24319
2026-01-10 07:21:02.33	127.19	21.43	-54.2	-58.5	3.7	0.00e+00	0	51	104	0	79	24464
2026-01-10 07:21:04.13	126.81	21.73	-53.7	-58.2	3.7	0.00e+00	0	51	104	0	79	23526
2026-01-10 07:21:04.71	126.69	21.83	-54.1	-58.6	3.7	0.00e+00	0	51	104	0	79	24683
2026-01-10 07:21:06.30	126.34	22.11	-53.6	-58.3	3.7	0.00e+00	0	51	104	0	79	23947
2026-01-10 07:21:06.87	126.22	22.21	-53.6	-58.3	3.7	0.00e+00	0	51	104	0	79	23735
2026-01-10 07:21:08.46	125.86	22.48	-53.5	-58.2	3.7	0.00e+00	0	50	104	0	79	23426
2026-01-10 07:21:09.05	125.73	22.59	-53.5	-58.2	3.7	0.00e+00	0	51	104	0	78	24984
2026-01-10 07:21:10.63	125.36	22.87	-54.0	-58.4	3.7	0.00e+00	0	51	104	0	78	25428
2026-01-10 07:21:11.23	125.22	22.97	-54.1	-58.5	3.7	0.00e+00	0	51	104	0	78	25792
2026-01-10 07:21:12.95	124.81	23.28	-54.2	-58.5	3.7	0.00e+00	0	50	104	0	79	24273
2026-01-10 07:21:13.53	124.67	23.39	-54.3	-58.6	3.7	0.00e+00	0	51	104	0	79	24742
2026-01-10 07:21:15.10	124.29	23.67	-54.2	-58.6	3.7	0.00e+00	0	51	104	0	79	24572
2026-01-10 07:21:15.69	124.15	23.78	-54.1	-58.3	3.7	0.00e+00	0	50	104	0	79	23882
2026-01-10 07:21:17.27	123.75	24.07	-54.2	-58.6	3.7	0.00e+00	0	51	104	0	79	24534
2026-01-10 07:21:17.87	123.60	24.18	-54.0	-58.3	3.7	0.00e+00	0	51	104	0	79	23859
2026-01-10 07:21:19.45	123.19	24.48	-54.1	-58.5	3.7	0.00e+00	0	51	104	0	79	24446
2026-01-10 07:21:20.05	123.03	24.59	-54.1	-58.5	3.7	0.00e+00	0	51	104	0	79	24378
2026-01-10 07:21:21.62	122.61	24.89	-54.2	-58.6	3.7	0.00e+00	0	51	104	0	79	24758
2026-01-10 07:21:22.20	122.46	25.00	-54.2	-58.7	3.7	0.00e+00	0	51	104	0	79	24857
2026-01-10 07:21:23.87	122.00	25.32	-54.2	-58.5	3.7	0.00e+00	0	51	104	0	79	24415
2026-01-10 07:21:24.44	121.84	25.43	-54.2	-58.6	3.7	0.00e+00	0	51	104	0	79	24753
2026-01-10 07:21:26.02	121.39	25.73	-54.2	-58.6	3.7	0.00e+00	0	51	104	0	79	24559
2026-01-10 07:21:26.62	121.22	25.85	-54.3	-58.6	3.7	0.00e+00	0	51	104	0	79	24733
2026-01-10 07:21:28.54	120.66	26.22	-54.3	-58.7	3.7	0.00e+00	0	51	104	0	79	24968
2026-01-10 07:21:29.11	120.49	26.34	-54.3	-58.7	3.7	0.00e+00	0	51	104	0	79	24811
2026-01-10 07:21:30.72	120.01	26.65	-54.3	-58.8	3.7	0.00e+00	0	51	104	0	79	25129
2026-01-10 07:21:31.29	119.83	26.77	-54.3	-58.8	3.7	0.00e+00	0	51	104	0	79	25126
2026-01-10 07:21:32.90	119.33	27.09	-54.3	-58.7	3.7	0.00e+00	0	51	104	0	79	25093
2026-01-10 07:21:33.47	119.15	27.20	-54.2	-58.7	3.7	0.00e+00	0	51	104	0	79	24861
2026-01-10 07:21:35.06	118.64	27.53	-53.8	-58.3	3.7	0.00e+00	0	51	104	0	79	23738
2026-01-10 07:21:35.87	118.38	27.69	-53.7	-58.3	3.7	0.00e+00	0	51	104	0	79	23732
2026-01-10 07:21:37.02	118.00	27.92	-53.7	-58.3	3.7	0.00e+00	0	51	104	0	79	23710
2026-01-10 07:21:37.88	117.71	28.10	-53.9	-58.3	3.7	0.00e+00	0	51	104	0	79	23934
2026-01-10 07:21:39.03	117.32	28.34	-54.0	-58.5	3.7	0.00e+00	0	51	104	0	79	24330
2026-01-10 07:21:39.89	117.02	28.51	-54.3	-58.7	3.7	0.00e+00	0	51	104	0	79	24991
2026-01-10 07:21:41.12	116.59	28.77	-54.2	-58.6	3.6	0.00e+00	0	51	104	0	79	24694
2026-01-10 07:21:41.98	116.29	28.95	-54.3	-58.7	3.7	0.00e+00	0	51	104	0	79	24844
2026-01-10 07:21:43.12	115.88	29.19	-54.3	-58.6	3.7	0.00e+00	0	51	104	0	79	24784
2026-01-10 07:21:43.98	115.57	29.37	-53.9	-58.4	3.7	0.00e+00	0	51	104	0	79	24091
2026-01-10 07:21:45.13	115.14	29.61	-54.1	-58.5	3.7	0.00e+00	0	51	104	0	79	24385
2026-01-10 07:21:45.99	114.82	29.79	-54.0	-58.5	3.7	0.00e+00	0	51	104	0	79	24400
2026-01-10 07:21:47.13	114.38	30.03	-54.0	-58.6	3.7	0.00e+00	0	51	104	0	79	24629
2026-01-10 07:21:48.15	113.99	30.25	-53.9	-58.6	3.7	0.00e+00	0	51	104	0	79	24570
2026-01-10 07:21:49.15	113.60	30.46	-54.0	-58.6	3.7	0.00e+00	0	51	104	0	79	24728
2026-01-10 07:21:50.16	113.19	30.67	-53.5	-58.3	3.7	0.00e+00	0	51	104	0	78	25260
2026-01-10 07:21:51.16	112.79	30.88	-53.7	-58.2	3.7	0.00e+00	0	51	104	0	78	25018
2026-01-10 07:21:52.45	112.26	31.16	-53.7	-58.3	3.7	0.00e+00	0	51	104	0	78	25099
2026-01-10 07:21:53.20	111.95	31.32	-53.8	-58.2	3.7	0.00e+00	0	51	104	0	78	25086
2026-01-10 07:21:54.49	111.40	31.60	-53.4	-58.2	3.7	0.00e+00	0	51	104	0	78	24917
2026-01-10 07:21:55.29	111.06	31.77	-53.5	-58.2	3.7	0.00e+00	0	51	104	0	78	24928
2026-01-10 07:21:56.45	110.55	32.02	-54.2	-58.6	3.7	0.00e+00	0	51	104	0	79	24617
2026-01-10 07:21:57.31	110.17	32.20	-54.1	-58.6	3.7	0.00e+00	0	51	104	0	79	24526
2026-01-10 07:21:58.46	109.66	32.45	-54.4	-58.7	3.6	0.00e+00	0	51	104	0	79	24980
2026-01-10 07:21:59.31	109.27	32.63	-54.3	-58.7	3.7	0.00e+00	0	51	104	0	79	25048
2026-01-10 07:22:00.46	108.74	32.87	-54.2	-58.7	3.7	0.00e+00	0	51	104	0	79	24841
2026-01-10 07:22:01.32	108.34	33.06	-54.3	-58.7	3.7	0.00e+00	0	51	104	0	79	24988
2026-01-10 07:22:02.47	107.80	33.30	-54.1	-58.4	3.7	0.00e+00	0	51	104	0	79	24189
2026-01-10 07:22:03.33	107.38	33.49	-54.2	-58.6	3.7	0.00e+00	0	51	104	0	79	24726
2026-01-10 07:22:04.51	106.81	33.74	-54.1	-58.6	3.7	0.00e+00	0	51	104	0	79	24637
2026-01-10 07:22:05.36	106.39	33.92	-54.1	-58.5	3.7	0.00e+00	0	51	104	0	79	24492
2026-01-10 07:22:06.51	105.81	34.16	-54.3	-58.7	3.7	0.00e+00	0	51	104	0	79	24973
2026-01-10 07:22:07.37	105.37	34.34	-54.3	-58.8	3.7	0.00e+00	0	51	104	0	79	25183
2026-01-10 07:22:08.64	104.72	34.61	-54.1	-58.6	3.7	0.00e+00	0	51	104	0	79	24687
2026-01-10 07:22:09.36	104.34	34.76	-54.1	-58.6	3.7	0.00e+00	0	51	104	0	79	24612
2026-01-10 07:22:10.65	103.66	35.03	-54.2	-58.6	3.7	0.00e+00	0	51	104	0	79	24793
2026-01-10 07:22:11.37	103.27	35.18	-54.3	-58.5	3.7	0.00e+00	0	51	104	0	79	24497
2026-01-10 07:22:12.66	102.57	35.44	-54.2	-58.4	3.7	0.00e+00	0	51	104	0	79	24204
2026-01-10 07:22:13.37	102.17	35.59	-54.2	-58.4	3.7	0.00e+00	0	51	104	0	79	24210
2026-01-10 07:22:14.66	101.45	35.85	-53.7	-58.2	3.7	0.00e+00	0	51	104	0	79	23440
2026-01-10 07:22:15.49	100.98	36.02	-53.9	-58.4	3.7	0.00e+00	0	51	104	0	79	24068
2026-01-10 07:22:16.64	100.32	36.25	-54.1	-58.6	3.7	0.00e+00	0	51	104	0	79	24741
2026-01-10 07:22:17.50	99.82	36.42	-54.3	-58.8	3.7	0.00e+00	0	51	104	0	79	25150
2026-01-10 07:22:18.64	99.15	36.64	-54.4	-58.8	3.7	0.00e+00	0	51	104	0	79	25303
2026-01-10 07:22:19.50	98.63	36.81	-54.1	-58.6	3.7	0.00e+00	0	51	104	0	79	24678
2026-01-10 07:22:20.65	97.94	37.03	-54.2	-58.8	3.7	0.00e+00	0	51	104	0	79	25133
2026-01-10 07:22:21.51	97.41	37.19	-54.3	-58.8	3.7	0.00e+00	0	51	104	0	79	25153
2026-01-10 07:22:22.66	96.70	37.41	-54.4	-58.8	3.7	0.00e+00	0	51	104	0	79	25163
2026-01-10 07:22:23.52	96.16	37.57	-54.2	-58.7	3.7	0.00e+00	0	51	104	0	79	25008
2026-01-10 07:22:24.67	95.43	37.77	-54.1	-58.7	3.7	0.00e+00	0	51	104	0	79	24882
2026-01-10 07:22:25.53	94.87	37.93	-54.2	-58.8	3.7	0.00e+00	0	51	104	0	79	25170
2026-01-10 07:22:26.67	94.13	38.13	-54.2	-58.8	3.7	0.00e+00	0	51	104	0	79	25102
2026-01-10 07:22:27.60	93.52	38.29	-54.2	-58.7	3.7	0.00e+00	0	51	104	0	79	24961
2026-01-10 07:22:28.60	92.85	38.46	-54.3	-58.7	3.7	0.00e+00	0	51	104	0	79	25055
2026-01-10 07:22:29.86	92.01	38.67	-54.1	-58.6	3.7	0.00e+00	0	51	104	0	79	24706
2026-01-10 07:22:30.65	91.47	38.80	-53.7	-58.5	3.7	0.00e+00	0	51	104	0	79	24325
2026-01-10 07:22:31.80	90.68	38.99	-53.8	-58.5	3.7	0.00e+00	0	51	104	0	79	24499
2026-01-10 07:22:32.80	89.98	39.14	-54.3	-58.8	3.7	0.00e+00	0	51	104	0	79	25325
2026-01-10 07:22:33.96	89.17	39.32	-54.2	-58.7	3.7	0.00e+00	0	51	104	0	79	25016
2026-01-10 07:22:34.84	88.54	39.45	-53.4	-58.3	3.7	0.00e+00	0	51	104	0	78	25277
2026-01-10 07:22:35.98	87.72	39.61	-53.5	-58.3	3.7	0.00e+00	0	51	104	0	78	25332
2026-01-10 07:22:36.84	87.10	39.73	-53.6	-58.5	3.7	0.00e+00	0	51	104	0	78	25743
2026-01-10 07:22:37.99	86.26	39.89	-53.5	-58.3	3.7	0.00e+00	0	51	104	0	78	25248
2026-01-10 07:22:38.85	85.63	40.00	-53.3	-58.2	3.7	0.00e+00	0	51	104	0	78	24896
2026-01-10 07:22:39.99	84.78	40.14	-53.3	-58.1	3.7	0.00e+00	0	51	104	0	78	24760
2026-01-10 07:22:40.85	84.14	40.25	-53.8	-58.5	3.7	0.00e+00	0	51	104	0	78	25788
2026-01-10 07:22:42.00	83.27	40.38	-53.6	-58.3	3.7	0.00e+00	0	51	104	0	78	25255
2026-01-10 07:22:42.86	82.62	40.48	-53.3	-58.3	3.7	0.00e+00	0	51	104	0	78	25132
2026-01-10 07:22:44.00	81.75	40.60	-53.2	-58.2	3.7	0.00e+00	0	51	104	0	78	24986
2026-01-10 07:22:44.86	81.09	40.68	-53.7	-58.5	3.7	0.00e+00	0	51	104	0	78	25852
2026-01-10 07:22:46.01	80.20	40.79	-54.0	-58.6	3.7	0.00e+00	0	51	104	0	78	26189
2026-01-10 07:22:46.87	79.53	40.87	-54.0	-58.7	3.7	0.00e+00	0	51	104	0	78	26309
2026-01-10 07:22:48.01	78.63	40.97	-54.0	-58.6	3.7	0.00e+00	0	51	104	0	78	26022
2026-01-10 07:22:48.87	77.96	41.03	-54.4	-58.9	3.7	0.00e+00	0	51	104	0	79	25586
2026-01-10 07:22:50.02	77.05	41.12	-54.3	-58.7	3.7	0.00e+00	0	51	104	0	79	25089
2026-01-10 07:22:50.88	76.36	41.18	-54.2	-58.7	3.7	0.00e+00	0	51	104	0	79	25036
2026-01-10 07:22:52.02	75.45	41.24	-54.2	-58.7	3.7	0.00e+00	0	51	104	0	79	24997
2026-01-10 07:22:52.88	74.76	41.29	-54.3	-58.9	3.7	0.00e+00	0	51	104	0	79	25419
2026-01-10 07:22:54.03	73.84	41.35	-54.2	-58.7	3.7	0.00e+00	0	51	104	0	79	25092
2026-01-10 07:22:54.89	73.14	41.39	-54.0	-58.4	3.7	0.00e+00	0	51	104	0	79	24175
2026-01-10 07:22:56.03	72.22	41.43	-54.0	-58.4	3.7	0.00e+00	0	51	104	0	79	24124
2026-01-10 07:22:56.89	71.53	41.45	-54.2	-58.5	3.7	0.00e+00	0	51	104	0	79	24393
2026-01-10 07:22:58.04	70.59	41.48	-54.5	-58.8	3.7	0.00e+00	0	51	104	0	79	25189
2026-01-10 07:22:58.90	69.89	41.50	-54.0	-58.5	3.7	0.00e+00	0	51	104	0	79	24462
2026-01-10 07:23:00.14	68.88	41.51	-54.0	-58.5	3.7	0.00e+00	0	51	104	0	79	24483
2026-01-10 07:23:01.00	68.18	41.52	-54.5	-58.9	3.7	0.00e+00	0	51	104	0	79	25613
2026-01-10 07:23:02.14	67.26	41.52	-54.5	-58.9	3.7	0.00e+00	0	51	104	0	79	25455
2026-01-10 07:23:03.00	66.56	41.51	-54.5	-58.9	3.7	0.00e+00	0	51	104	0	79	25627
2026-01-10 07:23:04.15	65.62	41.49	-54.5	-58.9	3.7	0.00e+00	0	51	104	0	79	25571
2026-01-10 07:23:05.01	64.92	41.48	-54.6	-58.9	3.7	0.00e+00	0	51	104	0	79	25634
2026-01-10 07:23:06.15	64.00	41.45	-54.4	-58.8	3.7	0.00e+00	0	51	104	0	79	25152
2026-01-10 07:23:07.01	63.30	41.42	-54.3	-58.7	3.7	0.00e+00	0	51	104	0	79	24938
2026-01-10 07:23:08.16	62.37	41.38	-54.3	-58.6	3.7	0.00e+00	0	51	104	0	79	24770
2026-01-10 07:23:09.02	61.68	41.34	-54.5	-58.8	3.7	0.00e+00	0	51	104	0	79	25382
2026-01-10 07:23:10.17	60.76	41.28	-54.6	-58.9	3.7	0.00e+00	0	51	104	0	79	25577
2026-01-10 07:23:11.02	60.08	41.23	-54.5	-59.0	3.7	0.00e+00	0	51	104	0	79	25753
2026-01-10 07:23:12.17	59.16	41.16	-54.6	-59.0	3.7	0.00e+00	0	51	104	0	79	25777
2026-01-10 07:23:13.03	58.48	41.10	-54.4	-58.8	3.7	0.00e+00	0	51	104	0	79	25257
2026-01-10 07:23:14.18	57.57	41.01	-54.4	-58.8	3.7	0.00e+00	0	51	104	0	79	25112
2026-01-10 07:23:15.04	56.90	40.95	-54.3	-58.4	3.7	0.00e+00	0	51	104	0	79	24224
2026-01-10 07:23:16.19	56.00	40.85	-54.3	-58.6	3.7	0.00e+00	0	51	104	0	79	24577
2026-01-10 07:23:17.05	55.33	40.77	-54.3	-58.6	3.7	0.00e+00	0	51	104	0	79	24605
2026-01-10 07:23:18.19	54.45	40.66	-54.4	-58.7	3.7	0.00e+00	0	51	104	0	79	25002
2026-01-10 07:23:19.05	53.79	40.57	-54.4	-58.8	3.7	0.00e+00	0	51	104	0	79	25211
2026-01-10 07:23:20.20	52.91	40.45	-54.4	-58.8	3.7	0.00e+00	0	51	104	0	79	25236
2026-01-10 07:23:21.10	52.23	40.35	-54.1	-58.4	3.7	0.00e+00	0	51	104	0	79	24153
2026-01-10 07:23:22.28	51.35	40.21	-54.2	-58.3	3.7	0.00e+00	0	51	104	0	79	23817
2026-01-10 07:23:23.14	50.71	40.10	-54.4	-58.5	3.7	0.00e+00	0	51	104	0	79	24508
2026-01-10 07:23:24.50	49.70	39.93	-54.4	-58.8	3.7	0.00e+00	0	51	104	0	79	25111
2026-01-10 07:23:25.21	49.18	39.84	-54.1	-58.2	3.7	0.00e+00	0	51	104	0	79	23602
2026-01-10 07:23:26.51	48.24	39.66	-54.2	-58.4	3.7	0.00e+00	0	51	104	0	79	24045
2026-01-10 07:23:27.22	47.73	39.56	-54.2	-58.4	3.7	0.00e+00	0	51	104	0	79	24113
2026-01-10 07:23:28.51	46.81	39.37	-54.3	-58.7	3.7	0.00e+00	0	51	104	0	79	25001
2026-01-10 07:23:29.23	46.30	39.27	-54.2	-58.6	3.7	0.00e+00	0	51	104	0	79	24608
2026-01-10 07:23:30.52	45.40	39.07	-54.0	-58.2	3.7	0.00e+00	0	51	104	0	79	23660
2026-01-10 07:23:31.23	44.91	38.96	-54.1	-58.4	3.7	0.00e+00	0	51	104	0	79	23988
2026-01-10 07:23:32.53	44.02	38.75	-54.4	-58.7	3.7	0.00e+00	0	51	104	0	79	24914
2026-01-10 07:23:33.24	43.54	38.63	-54.2	-58.4	3.7	0.00e+00	0	51	104	0	79	24122
2026-01-10 07:23:34.53	42.68	38.42	-54.2	-58.4	3.7	0.00e+00	0	51	104	0	79	24159
2026-01-10 07:23:35.25	42.20	38.29	-54.3	-58.7	3.7	0.00e+00	0	51	104	0	79	24809
2026-01-10 07:23:36.54	41.36	38.07	-53.9	-58.0	3.7	0.00e+00	0	51	104	0	79	22959
2026-01-10 07:23:37.26	40.89	37.94	-53.9	-58.0	3.7	0.00e+00	0	51	104	0	79	23101
2026-01-10 07:23:38.64	40.01	37.69	-53.4	-57.8	3.7	0.00e+00	0	51	104	0	78	23699
2026-01-10 07:23:39.36	39.56	37.56	-53.4	-57.7	3.7	0.00e+00	0	51	104	0	78	23497
2026-01-10 07:23:40.65	38.75	37.32	-53.6	-57.6	3.7	0.00e+00	0	51	104	0	78	23367
2026-01-10 07:23:41.37	38.31	37.19	-53.7	-57.7	3.7	0.00e+00	0	51	104	0	78	23630
2026-01-10 07:23:42.78	37.45	36.92	-53.9	-58.1	3.7	0.00e+00	0	51	104	0	78	24530
2026-01-10 07:23:43.50	37.02	36.78	-54.1	-58.3	3.7	0.00e+00	0	51	104	0	78	25329
2026-01-10 07:23:44.85	36.22	36.52	-54.2	-58.5	3.7	0.00e+00	0	51	104	0	79	24439
2026-01-10 07:23:45.57	35.80	36.38	-54.3	-58.8	3.7	0.00e+00	0	51	104	0	79	25225
2026-01-10 07:23:46.86	35.05	36.12	-52.7	-55.9	3.7	0.00e+00	0	51	104	0	77	20230
2026-01-10 07:23:47.58	34.64	35.98	-52.5	-55.7	3.7	0.00e+00	0	51	104	0	77	19741
2026-01-10 07:23:48.87	33.92	35.72	-52.5	-55.6	3.7	0.00e+00	0	51	104	0	76	20826
2026-01-10 07:23:49.59	33.52	35.58	-51.7	-54.6	3.7	0.00e+00	0	51	104	0	75	19692
2026-01-10 07:23:50.89	32.81	35.31	-52.5	-55.6	3.7	0.00e+00	0	51	104	0	75	21940
2026-01-10 07:23:51.60	32.42	35.16	-53.2	-56.7	3.7	0.00e+00	0	51	104	0	77	22209
2026-01-10 07:23:52.89	31.74	34.90	-53.0	-56.4	3.7	0.00e+00	0	51	104	0	77	21506
2026-01-10 07:23:53.61	31.36	34.75	-52.5	-55.5	3.7	0.00e+00	0	51	104	0	77	19473
2026-01-10 07:23:55.25	30.51	34.41	-52.3	-55.2	3.7	0.00e+00	0	51	104	0	76	19882
2026-01-10 07:23:55.82	30.22	34.29	-53.4	-57.0	3.7	0.00e+00	0	51	104	0	77	23042
2026-01-10 07:23:57.42	29.42	33.95	-53.9	-58.0	3.7	0.00e+00	0	51	104	0	78	24427
2026-01-10 07:23:57.99	29.14	33.83	-53.7	-57.5	3.7	0.00e+00	0	51	104	0	78	23059
2026-01-10 07:23:59.57	28.37	33.50	-53.6	-58.1	3.7	0.00e+00	0	51	104	0	78	24734
2026-01-10 07:24:00.16	28.09	33.37	-53.5	-58.1	3.7	0.00e+00	0	51	104	0	78	24545
2026-01-10 07:24:01.74	27.34	33.04	-53.7	-58.3	3.7	0.00e+00	0	51	104	0	78	25273
2026-01-10 07:24:02.36	27.05	32.90	-53.9	-58.3	3.7	0.00e+00	0	51	104	0	78	25247
2026-01-10 07:24:03.94	26.33	32.57	-53.8	-58.1	3.7	0.00e+00	0	51	104	0	78	24695
2026-01-10 07:24:04.53	26.06	32.44	-53.9	-58.2	3.7	0.00e+00	0	51	104	0	78	25017
2026-01-10 07:24:06.10	25.37	32.11	-53.0	-57.7	3.7	0.00e+00	0	51	104	0	78	23641
2026-01-10 07:24:07.07	24.94	31.90	-52.3	-57.4	3.7	0.00e+00	0	51	104	0	76	25635
2026-01-10 07:24:08.08	24.51	31.69	-52.4	-57.6	3.7	0.00e+00	0	51	104	0	76	26084
2026-01-10 07:24:09.08	24.09	31.47	-53.3	-58.2	3.7	0.00e+00	0	51	104	0	77	26453
2026-01-10 07:24:10.09	23.67	31.26	-53.9	-58.4	3.7	0.00e+00	0	51	104	0	78	25626
2026-01-10 07:24:11.09	23.25	31.05	-54.0	-58.4	3.7	0.00e+00	0	51	104	0	78	25493
2026-01-10 07:24:12.15	22.82	30.82	-54.0	-58.4	3.7	0.00e+00	0	51	104	0	78	25607
2026-01-10 07:24:13.03	22.47	30.64	-53.9	-58.3	3.7	0.00e+00	0	51	104	0	78	25148
2026-01-10 07:24:14.17	22.02	30.40	-53.9	-58.1	3.7	0.00e+00	0	51	104	0	78	24708
2026-01-10 07:24:15.13	21.65	30.19	-53.7	-57.9	3.7	0.00e+00	0	51	104	0	78	24035
2026-01-10 07:24:16.31	21.20	29.95	-53.4	-57.2	3.7	0.00e+00	0	51	104	0	78	22289
2026-01-10 07:24:17.17	20.88	29.77	-53.5	-57.5	3.7	0.00e+00	0	51	104	0	78	23036
2026-01-10 07:24:18.50	20.38	29.49	-53.7	-57.9	3.7	0.00e+00	0	51	104	0	78	24164
2026-01-10 07:24:19.22	20.12	29.34	-53.9	-58.2	3.7	0.00e+00	0	51	104	0	78	24856
2026-01-10 07:24:20.70	19.59	29.03	-54.1	-58.4	3.7	0.00e+00	0	51	104	0	78	25576
2026-01-10 07:24:21.42	19.33	28.88	-54.1	-58.5	3.7	0.00e+00	0	51	104	0	78	25792
2026-01-10 07:24:22.79	18.85	28.60	-54.0	-58.4	3.7	0.00e+00	0	51	104	0	78	25557
2026-01-10 07:24:23.50	18.61	28.45	-54.0	-58.4	3.7	0.00e+00	0	51	104	0	78	25576
2026-01-10 07:24:24.79	18.17	28.19	-53.6	-58.0	3.7	0.00e+00	0	51	104	0	78	24333
2026-01-10 07:24:25.51	17.93	28.04	-53.7	-58.1	3.7	0.00e+00	0	51	104	0	78	24570
2026-01-10 07:24:26.80	17.51	27.78	-53.6	-57.8	3.7	0.00e+00	0	51	104	0	78	23884
2026-01-10 07:24:27.52	17.27	27.63	-53.7	-58.0	3.7	0.00e+00	0	51	104	0	78	24352
2026-01-10 07:24:28.81	16.86	27.38	-54.0	-58.6	3.7	0.00e+00	0	51	104	0	78	26258
2026-01-10 07:24:29.52	16.63	27.23	-54.0	-58.5	3.7	0.00e+00	0	51	104	0	78	25841
2026-01-10 07:24:30.81	16.23	26.98	-54.0	-58.6	3.7	0.00e+00	0	51	104	0	78	25981
2026-01-10 07:24:31.58	16.00	26.82	-53.8	-58.3	3.7	0.00e+00	0	51	104	0	78	25097
2026-01-10 07:24:32.87	15.60	26.57	-53.8	-58.1	3.7	0.00e+00	0	51	104	0	78	24670
2026-01-10 07:24:33.66	15.37	26.41	-53.9	-58.0	3.7	0.00e+00	0	51	104	0	78	24514
2026-01-10 07:24:35.13	14.94	26.13	-53.7	-57.8	3.7	0.00e+00	0	51	104	0	78	23706
2026-01-10 07:24:35.85	14.73	25.99	-53.5	-57.5	3.7	0.00e+00	0	51	104	0	78	23052
2026-01-10 07:24:37.13	14.36	25.74	-53.9	-58.0	3.7	0.00e+00	0	51	104	0	78	24265
2026-01-10 07:24:37.85	14.16	25.60	-53.9	-58.1	3.7	0.00e+00	0	51	104	0	78	24798
2026-01-10 07:24:39.14	13.80	25.35	-53.5	-57.8	3.7	0.00e+00	0	51	104	0	78	23793
2026-01-10 07:24:39.86	13.60	25.22	-53.5	-58.1	3.7	0.00e+00	0	51	104	0	78	24572
2026-01-10 07:24:41.15	13.26	24.97	-53.6	-58.3	3.7	0.00e+00	0	51	104	0	78	25358
2026-01-10 07:24:42.01	13.03	24.81	-53.4	-58.1	3.7	0.00e+00	0	51	104	0	78	24538
2026-01-10 07:24:43.16	12.72	24.59	-52.9	-57.1	3.7	0.00e+00	0	51	104	0	77	23383
2026-01-10 07:24:44.02	12.50	24.43	-52.8	-56.8	3.7	0.00e+00	0	51	104	0	77	22440
2026-01-10 07:24:45.16	12.21	24.22	-52.6	-56.0	3.7	0.00e+00	0	51	104	0	77	20576
2026-01-10 07:24:46.02	11.99	24.07	-52.8	-56.7	3.7	0.00e+00	0	51	104	0	77	22137
2026-01-10 07:24:47.17	11.71	23.85	-52.5	-55.9	3.7	0.00e+00	0	51	104	0	76	21406
2026-01-10 07:24:48.03	11.49	23.70	-53.0	-56.5	3.7	0.00e+00	0	51	104	0	76	23127
2026-01-10 07:24:49.18	11.22	23.49	-52.4	-55.5	3.7	0.00e+00	0	51	104	0	76	20444
2026-01-10 07:24:50.04	11.01	23.34	-52.5	-55.7	3.7	0.00e+00	0	51	104	0	76	20928
2026-01-10 07:24:51.18	10.74	23.13	-52.8	-56.1	3.7	0.00e+00	0	51	104	0	76	21955
2026-01-10 07:24:52.04	10.54	22.98	-52.9	-56.2	3.7	0.00e+00	0	51	104	0	76	22341
2026-01-10 07:24:53.19	10.28	22.78	-53.0	-56.5	3.7	0.00e+00	0	51	104	0	76	23078
2026-01-10 07:24:54.05	10.08	22.63	-53.1	-56.8	3.7	0.00e+00	0	51	104	0	76	23749
2026-01-10 07:24:55.19	9.82	22.43	-53.4	-57.4	3.7	0.00e+00	0	51	104	0	78	22831
2026-01-10 07:24:56.05	9.63	22.28	-53.3	-57.2	3.7	0.00e+00	0	51	104	0	77	23559
2026-01-10 07:24:57.20	9.38	22.08	-53.5	-57.6	3.7	0.00e+00	0	51	104	0	77	24675
2026-01-10 07:24:58.06	9.20	21.93	-53.5	-57.6	3.7	0.00e+00	0	51	104	0	77	24640
2026-01-10 07:24:59.21	8.95	21.74	-53.4	-57.4	3.7	0.00e+00	0	51	104	0	77	24125
2026-01-10 07:25:00.32	8.72	21.55	-53.0	-56.8	3.7	0.00e+00	0	51	104	0	77	22445
2026-01-10 07:25:01.18	8.54	21.41	-52.6	-56.3	3.7	0.00e+00	0	51	104	0	77	21258
2026-01-10 07:25:02.33	8.30	21.21	-52.3	-55.8	3.7	0.00e+00	0	51	104	0	76	21317
2026-01-10 07:25:03.19	8.13	21.07	-52.7	-56.8	3.7	0.00e+00	0	51	104	0	76	23740
2026-01-10 07:25:04.33	7.90	20.88	-53.5	-57.9	3.7	0.00e+00	0	51	104	0	77	25578
2026-01-10 07:25:05.19	7.73	20.74	-52.7	-56.8	3.7	0.00e+00	0	51	104	0	77	22551
2026-01-10 07:25:06.36	7.50	20.55	-53.5	-57.9	3.7	0.00e+00	0	51	104	0	77	25539
2026-01-10 07:25:07.22	7.34	20.41	-53.2	-57.4	3.7	0.00e+00	0	51	104	0	77	24101
2026-01-10 07:25:08.36	7.12	20.23	-53.1	-57.2	3.7	0.00e+00	0	51	104	0	77	23505
2026-01-10 07:25:09.22	6.96	20.09	-52.9	-56.9	3.7	0.00e+00	0	51	104	0	77	22626
2026-01-10 07:25:10.50	6.72	19.89	-52.3	-56.4	3.7	0.00e+00	0	51	104	0	76	22809
2026-01-10 07:25:11.21	6.59	19.78	-52.2	-56.4	3.7	0.00e+00	0	51	104	0	76	22769
2026-01-10 07:25:12.50	6.36	19.58	-51.1	-56.4	3.7	0.00e+00	0	51	104	0	73	26926
2026-01-10 07:25:13.22	6.23	19.46	-51.0	-55.8	3.7	0.00e+00	0	51	104	0	73	25138
2026-01-10 07:25:14.51	6.00	19.26	-51.1	-55.6	3.7	0.00e+00	0	51	104	0	73	24784
2026-01-10 07:25:15.23	5.88	19.15	-51.0	-55.7	3.7	0.00e+00	0	51	104	0	73	25022
2026-01-10 07:25:16.52	5.65	18.96	-51.3	-55.6	3.7	0.00e+00	0	51	104	0	73	24662
2026-01-10 07:25:17.24	5.53	18.85	-51.5	-55.7	3.7	0.00e+00	0	51	104	0	73	25030
2026-01-10 07:25:18.53	5.31	18.65	-51.8	-56.0	3.7	0.00e+00	0	51	104	0	74	24284
2026-01-10 07:25:19.24	5.20	18.55	-51.9	-56.1	3.7	0.00e+00	0	51	104	0	74	24643
2026-01-10 07:25:20.53	4.98	18.35	-52.2	-56.4	3.7	0.00e+00	0	51	104	0	75	24192
2026-01-10 07:25:21.25	4.87	18.25	-52.2	-56.4	3.7	0.00e+00	0	51	104	0	75	24164
2026-01-10 07:25:22.58	4.65	18.05	-52.4	-56.6	3.7	0.00e+00	0	51	104	0	75	24735
2026-01-10 07:25:23.30	4.54	17.95	-52.5	-56.7	3.7	0.00e+00	0	51	104	0	75	25054
2026-01-10 07:25:24.65	4.33	17.75	-52.4	-56.7	3.7	0.00e+00	0	51	104	0	75	24829
2026-01-10 07:25:25.37	4.21	17.65	-52.6	-56.8	3.7	0.00e+00	0	51	104	0	75	25220
2026-01-10 07:25:26.66	4.02	17.46	-52.8	-57.0	3.7	0.00e+00	0	51	104	0	76	24336
2026-01-10 07:25:27.38	3.91	17.36	-52.9	-57.0	3.7	0.00e+00	0	51	104	0	76	24484
2026-01-10 07:25:28.81	3.69	17.16	-53.2	-57.1	3.7	0.00e+00	0	51	104	0	76	24648
2026-01-10 07:25:29.53	3.59	17.06	-53.1	-57.1	3.7	0.00e+00	0	51	104	0	76	24581
2026-01-10 07:25:30.82	3.40	16.88	-52.8	-57.0	3.7	0.00e+00	0	51	104	0	76	24522
2026-01-10 07:25:31.53	3.29	16.78	-53.1	-57.3	3.7	0.00e+00	0	51	104	0	76	25115
2026-01-10 07:25:32.82	3.11	16.60	-51.5	-56.6	3.7	0.00e+00	0	51	104	0	75	24585
2026-01-10 07:25:33.54	3.01	16.50	-52.1	-56.7	3.7	0.00e+00	0	51	104	0	74	26423
2026-01-10 07:25:34.83	2.83	16.33	-51.2	-56.5	3.7	0.00e+00	0	51	104	0	74	25746
2026-01-10 07:25:35.55	2.73	16.23	-51.3	-56.7	3.7	0.00e+00	0	51	104	0	74	26344
2026-01-10 07:25:36.83	2.55	16.06	-51.8	-57.1	3.7	0.00e+00	0	51	104	0	74	27698
2026-01-10 07:25:37.55	2.45	15.96	-52.2	-57.4	3.7	0.00e+00	0	51	104	0	75	26983
2026-01-10 07:25:38.84	2.28	15.79	-52.7	-57.8	3.7	0.00e+00	0	51	104	0	76	26733
2026-01-10 07:25:39.70	2.17	15.68	-52.5	-57.8	3.7	0.00e+00	0	51	104	0	76	26845
2026-01-10 07:25:40.85	2.02	15.53	-52.5	-57.7	3.7	0.00e+00	0	51	104	0	76	26410
2026-01-10 07:25:41.71	1.91	15.41	-52.8	-57.7	3.7	0.00e+00	0	51	104	0	76	26420
2026-01-10 07:25:42.85	1.76	15.27	-52.2	-56.4	3.7	0.00e+00	0	51	104	0	76	22859
2026-01-10 07:25:43.71	1.65	15.16	-52.0	-57.5	3.7	0.00e+00	0	51	104	0	76	25819
2026-01-10 07:25:44.86	1.51	15.01	-51.4	-56.0	3.7	0.00e+00	0	51	104	0	74	24513
2026-01-10 07:25:45.72	1.40	14.90	-51.2	-55.9	3.7	0.00e+00	0	51	104	0	74	24041
2026-01-10 07:25:46.90	1.25	14.75	-50.9	-55.7	3.7	0.00e+00	0	51	104	0	73	24941
2026-01-10 07:25:47.76	1.15	14.64	-51.2	-55.8	3.7	0.00e+00	0	51	104	0	73	25185
2026-01-10 07:25:48.90	1.01	14.50	-52.5	-56.5	3.7	0.00e+00	0	51	104	0	75	24278
2026-01-10 07:25:49.76	0.91	14.39	-52.5	-56.4	3.7	0.00e+00	0	51	104	0	75	24223
2026-01-10 07:25:50.91	0.77	14.25	-51.4	-56.7	3.7	0.00e+00	0	51	104	0	74	26482
2026-01-10 07:25:51.81	0.67	14.14	-51.2	-56.6	3.7	0.00e+00	0	51	104	0	74	26057
2026-01-10 07:25:52.99	0.53	13.99	-51.7	-56.9	3.7	0.00e+00	0	51	104	0	74	27107
2026-01-10 07:25:53.85	0.43	13.89	-51.0	-56.5	3.7	0.00e+00	0	51	104	0	74	25976
2026-01-10 07:25:55.00	0.30	13.75	-51.7	-56.9	3.7	0.00e+00	0	51	104	0	74	26983
2026-01-10 07:25:55.86	0.21	13.65	-52.4	-57.2	3.7	0.00e+00	0	51	104	0	75	26533
2026-01-10 07:25:57.00	0.08	13.51	-52.9	-57.4	3.7	0.00e+00	0	51	104	0	76	25643
2026-01-10 07:25:57.86	359.99	13.41	-53.1	-57.4	3.7	0.00e+00	0	51	104	0	76	25644
2026-01-10 07:25:59.01	359.86	13.27	-53.1	-57.5	3.7	0.00e+00	0	51	104	0	76	25730
2026-01-10 07:25:59.87	359.77	13.17	-52.7	-56.8	3.7	0.00e+00	0	51	104	0	77	22382
2026-01-10 07:26:01.02	359.65	13.04	-52.8	-56.9	3.7	0.00e+00	0	51	104	0	77	22739
2026-01-10 07:26:01.88	359.56	12.94	-52.4	-56.5	3.7	0.00e+00	0	51	104	0	76	23144
2026-01-10 07:26:03.03	359.44	12.81	-52.6	-56.7	3.7	0.00e+00	0	51	104	0	76	23628
2026-01-10 07:26:03.88	359.35	12.71	-52.7	-56.7	3.7	0.00e+00	0	51	104	0	76	23666
2026-01-10 07:26:05.13	359.22	12.57	-52.8	-56.8	3.7	0.00e+00	0	51	104	0	76	23773
2026-01-10 07:26:05.98	359.13	12.47	-52.8	-56.8	3.7	0.00e+00	0	51	104	0	76	23891
2026-01-10 07:26:07.13	359.02	12.34	-52.8	-56.8	3.7	0.00e+00	0	51	104	0	76	23796
2026-01-10 07:26:07.99	358.93	12.25	-52.0	-56.8	3.7	0.00e+00	0	51	104	0	76	23804
2026-01-10 07:26:09.14	358.82	12.12	-53.4	-57.8	3.7	0.00e+00	0	51	104	0	77	25345
2026-01-10 07:26:10.10	358.73	12.01	-52.4	-57.0	3.7	0.00e+00	0	51	104	0	76	24346
2026-01-10 07:26:11.29	358.61	11.88	-53.0	-57.5	3.7	0.00e+00	0	51	104	0	76	25798
2026-01-10 07:26:12.14	358.53	11.79	-53.1	-57.4	3.7	0.00e+00	0	51	104	0	77	24086
2026-01-10 07:26:13.50	358.40	11.64	-53.3	-57.7	3.7	0.00e+00	0	51	104	0	77	24917
2026-01-10 07:26:14.21	358.33	11.56	-53.4	-57.9	3.7	0.00e+00	0	51	104	0	77	25595
2026-01-10 07:26:15.50	358.21	11.42	-53.4	-58.1	3.7	0.00e+00	0	51	104	0	77	26084
2026-01-10 07:26:16.22	358.15	11.35	-53.4	-58.2	3.7	0.00e+00	0	51	104	0	77	26288
2026-01-10 07:26:17.51	358.03	11.21	-51.6	-57.4	3.7	0.00e+00	0	51	104	0	75	27008
2026-01-10 07:26:18.23	357.97	11.13	-51.4	-57.3	3.7	0.00e+00	0	51	104	0	74	28364
2026-01-10 07:26:19.52	357.85	11.00	-48.5	-55.3	3.7	0.00e+00	0	51	104	0	68	31878
2026-01-10 07:26:20.24	357.79	10.92	-49.5	-56.0	3.7	0.00e+00	0	51	104	0	70	30823
2026-01-10 07:26:21.53	357.67	10.79	-48.4	-55.2	3.8	0.00e+00	0	51	104	0	68	31398
2026-01-10 07:26:22.24	357.61	10.71	-48.6	-55.3	3.7	0.00e+00	0	51	104	0	68	31799
2026-01-10 07:26:23.54	357.50	10.58	-48.9	-55.6	3.7	0.00e+00	0	51	104	0	69	31029
2026-01-10 07:26:24.25	357.44	10.50	-49.6	-56.1	3.7	0.00e+00	0	51	104	0	70	31107
2026-01-10 07:26:25.54	357.33	10.37	-50.8	-56.8	3.7	0.00e+00	0	51	104	0	72	29951
2026-01-10 07:26:26.26	357.27	10.30	-51.3	-57.0	3.7	0.00e+00	0	51	104	0	73	29115
2026-01-10 07:26:27.65	357.15	10.16	-50.9	-56.7	3.7	0.00e+00	0	51	104	0	73	28091
2026-01-10 07:26:28.36	357.10	10.09	-51.0	-56.7	3.7	0.00e+00	0	51	104	0	72	29754
2026-01-10 07:26:29.65	356.99	9.96	-50.8	-56.5	3.7	0.00e+00	0	51	104	0	72	29057
2026-01-10 07:26:30.69	356.91	9.85	-49.6	-55.6	3.7	0.00e+00	0	51	104	0	71	27669
2026-01-10 07:26:32.00	356.80	9.72	-48.4	-54.8	3.8	0.00e+00	0	51	104	0	68	29829
2026-01-10 07:26:32.72	356.75	9.65	-48.0	-54.5	3.8	0.00e+00	0	51	104	0	68	28883
2026-01-10 07:26:34.01	356.64	9.53	-47.2	-53.7	3.9	0.00e+00	0	51	104	0	66	29669
2026-01-10 07:26:34.72	356.59	9.46	-47.7	-54.1	3.8	0.00e+00	0	51	104	0	66	31140
2026-01-10 07:26:36.01	356.49	9.33	-47.0	-53.6	3.9	0.00e+00	0	51	104	0	64	32753
2026-01-10 07:26:36.73	356.43	9.26	-49.5	-55.6	3.7	0.00e+00	0	51	104	0	69	30960
2026-01-10 07:26:38.02	356.34	9.14	-47.9	-54.3	3.8	0.00e+00	0	51	104	0	67	29854
2026-01-10 07:26:38.73	356.28	9.07	-46.3	-52.9	4.0	0.00e+00	0	51	104	0	64	30237
2026-01-10 07:26:40.03	356.19	8.95	-49.1	-55.4	3.7	0.00e+00	0	52	104	0	68	32115
2026-01-10 07:26:40.74	356.13	8.88	-47.2	-54.0	3.9	0.00e+00	0	51	104	0	66	30693
2026-01-10 07:26:42.03	356.04	8.76	-52.8	-57.9	3.7	0.00e+00	0	52	104	0	77	25467
2026-01-10 07:26:42.75	355.99	8.69	-53.0	-58.0	3.7	0.00e+00	0	51	104	0	78	24349
2026-01-10 07:26:44.04	355.89	8.57	-53.8	-58.1	3.7	0.00e+00	0	51	104	0	78	24739
2026-01-10 07:26:44.76	355.84	8.50	-53.3	-58.3	3.7	0.00e+00	0	51	104	0	78	25214
2026-01-10 07:26:46.05	355.75	8.38	-53.1	-58.1	3.7	0.00e+00	0	51	104	0	77	26016
2026-01-10 07:26:46.77	355.70	8.32	-54.3	-58.8	3.7	0.00e+00	0	51	104	0	79	25256
2026-01-10 07:26:48.06	355.61	8.20	-53.9	-58.5	3.7	0.00e+00	0	51	104	0	79	24490
2026-01-10 07:26:48.78	355.56	8.13	-53.9	-58.5	3.7	0.00e+00	0	51	104	0	79	24353
2026-01-10 07:26:50.07	355.47	8.01	-53.8	-58.5	3.7	0.00e+00	0	52	104	0	78	25963
2026-01-10 07:26:50.79	355.42	7.95	-53.9	-58.4	3.7	0.00e+00	0	52	104	0	79	24236
2026-01-10 07:26:52.08	355.34	7.83	-53.8	-58.6	3.7	0.00e+00	0	51	104	0	79	24701
2026-01-10 07:26:52.79	355.29	7.77	-54.2	-58.6	3.7	0.00e+00	0	51	104	0	78	26146
2026-01-10 07:26:54.08	355.21	7.65	-54.1	-58.6	3.7	0.00e+00	0	51	104	0	79	24707
2026-01-10 07:26:54.80	355.16	7.59	-54.6	-58.9	3.7	0.00e+00	0	51	104	0	79	25604
2026-01-10 07:26:56.09	355.07	7.48	-54.0	-58.6	3.7	0.00e+00	0	51	104	0	79	24657
2026-01-10 07:26:56.81	355.03	7.41	-54.5	-58.8	3.7	0.00e+00	0	51	104	0	79	25383
2026-01-10 07:26:58.10	354.94	7.30	-54.3	-58.8	3.7	0.00e+00	0	52	104	0	79	25326
2026-01-10 07:26:58.82	354.90	7.24	-54.3	-58.9	3.7	0.00e+00	0	51	104	0	79	25623
2026-01-10 07:27:00.11	354.82	7.12	-53.6	-58.5	3.7	0.00e+00	0	51	104	0	79	24418
2026-01-10 07:27:00.83	354.77	7.06	-54.5	-59.0	3.7	0.00e+00	0	51	104	0	79	25801
2026-01-10 07:27:02.12	354.69	6.95	-54.4	-59.0	3.7	0.00e+00	0	51	104	0	79	25763
2026-01-10 07:27:02.83	354.65	6.89	-54.6	-59.0	3.7	0.00e+00	0	51	104	0	79	25933
2026-01-10 07:27:04.13	354.57	6.78	-54.4	-58.9	3.7	0.00e+00	0	51	104	0	79	25459
2026-01-10 07:27:04.89	354.52	6.71	-54.4	-58.9	3.7	0.00e+00	0	51	104	0	79	25438
2026-01-10 07:27:06.18	354.45	6.60	-54.2	-58.7	3.7	0.00e+00	0	51	104	0	79	24911
2026-01-10 07:27:06.98	354.40	6.54	-54.2	-58.5	3.7	0.00e+00	0	51	104	0	79	24332
2026-01-10 07:27:08.12	354.33	6.44	-53.9	-58.4	3.7	0.00e+00	0	51	104	0	78	25533
2026-01-10 07:27:09.16	354.27	6.35	-54.0	-58.4	3.7	0.00e+00	0	51	104	0	78	25585
2026-01-10 07:27:10.35	354.20	6.25	-54.0	-58.4	3.7	0.00e+00	0	51	104	0	78	25645
2026-01-10 07:27:11.21	354.15	6.18	-54.0	-58.4	3.7	0.00e+00	0	51	104	0	78	25584
2026-01-10 07:27:12.36	354.09	6.09	-54.0	-58.4	3.7	0.00e+00	0	51	104	0	78	25626
2026-01-10 07:27:13.22	354.04	6.02	-54.0	-58.4	3.7	0.00e+00	0	51	104	0	78	25603
2026-01-10 07:27:14.37	353.97	5.92	-54.0	-58.4	3.7	0.00e+00	0	51	104	0	78	25604
2026-01-10 07:27:15.23	353.92	5.85	-54.0	-58.4	3.7	0.00e+00	0	51	104	0	78	25668
2026-01-10 07:27:16.37	353.86	5.76	-54.0	-58.4	3.7	0.00e+00	0	51	104	0	78	25627
2026-01-10 07:27:17.24	353.81	5.69	-54.0	-58.4	3.7	0.00e+00	0	51	104	0	78	25458
2026-01-10 07:27:18.38	353.75	5.60	-54.0	-58.4	3.7	0.00e+00	0	51	104	0	78	25507
2026-01-10 07:27:19.25	353.70	5.53	-54.0	-58.4	3.7	0.00e+00	0	51	104	0	78	25570
2026-01-10 07:27:20.39	353.64	5.43	-53.9	-58.4	3.7	0.00e+00	0	51	104	0	78	25436
2026-01-10 07:27:21.25	353.60	5.37	-54.0	-58.4	3.7	0.00e+00	0	51	104	0	78	25614
2026-01-10 07:27:22.40	353.53	5.27	-54.0	-58.4	3.7	0.00e+00	0	51	104	0	78	25484
2026-01-10 07:27:23.26	353.49	5.21	-54.0	-58.4	3.7	0.00e+00	0	51	104	0	78	25561
2026-01-10 07:27:24.41	353.43	5.12	-54.0	-58.4	3.7	0.00e+00	0	51	104	0	78	25477
2026-01-10 07:27:25.27	353.38	5.05	-53.9	-58.4	3.7	0.00e+00	0	51	104	0	78	25461
2026-01-10 07:27:26.42	353.33	4.96	-54.0	-58.4	3.7	0.00e+00	0	51	104	0	78	25505

#Closed at: 2026-01-10 07:27:27
#Recorded file [0 MB]: D:/Data/31040_260110_101840.dat