passes_logs/2026/01/10/T1/T1__20260110_020900_FENGYUN_3D_rec.log

#Pass ID: 20260110_020900_FENGYUN 3D
#Satellite: FENGYUN 3D
#Configuration: FENGYUN 3D
#almurnet v.1.7.20251203
#Start time: 2026-01-10 02:09:00

#Version: 2.0.20230620
#Station: T1
#Location: 37.570604 lon 55.790049 lat
#TLE: 1 43010U 17072A   26009.29492227  .00000158  00000+0  96483-4 0  9996
#TLE: 2 43010  98.9936 341.0229 0002153 117.3665 242.7729 14.19694440422446

#Time	Az	El	Level	Level2	SNR	BER	BlckErr	Temp	State	Recorded	gain1	gain2
2026-01-10 02:09:00.21	14.32	5.01	-50.3	-64.1	3.8	8.46e-01	0	36	0	0	72	17286
2026-01-10 02:09:01.21	14.30	5.08	-51.4	-63.8	3.8	8.47e-01	0	37	104	0	74	15050
2026-01-10 02:09:02.21	14.28	5.15	-51.4	-63.9	3.8	8.47e-01	0	37	104	0	74	15105
2026-01-10 02:09:03.22	14.26	5.22	-51.3	-63.9	3.8	8.46e-01	0	36	104	0	74	15053
2026-01-10 02:09:04.22	14.25	5.29	-51.4	-63.9	3.8	8.47e-01	0	37	104	0	74	15062
2026-01-10 02:09:05.23	14.23	5.37	-51.3	-63.7	3.8	8.47e-01	0	37	104	0	74	14864
2026-01-10 02:09:06.23	14.21	5.44	-51.3	-63.6	3.8	8.47e-01	0	37	104	0	74	14681
2026-01-10 02:09:07.23	14.20	5.51	-51.3	-63.6	3.8	8.46e-01	0	37	104	0	74	14554
2026-01-10 02:09:08.24	14.18	5.58	-51.3	-63.4	3.8	8.48e-01	0	37	104	0	74	14364
2026-01-10 02:09:09.24	14.16	5.66	-51.3	-63.3	3.8	8.48e-01	0	37	104	0	74	14178
2026-01-10 02:09:10.24	14.14	5.73	-51.3	-63.3	3.8	8.48e-01	0	37	104	0	74	14084
2026-01-10 02:09:11.25	14.12	5.80	-51.3	-63.2	3.8	8.47e-01	0	37	104	0	74	13944
2026-01-10 02:09:12.25	14.11	5.87	-51.3	-63.1	3.8	8.47e-01	0	37	104	0	74	13778
2026-01-10 02:09:13.26	14.09	5.95	-51.3	-63.1	3.8	8.47e-01	0	37	104	0	74	13806
2026-01-10 02:09:14.26	14.07	6.02	-51.2	-62.9	3.8	8.47e-01	0	37	104	0	74	13520
2026-01-10 02:09:15.27	14.05	6.10	-51.2	-62.8	3.8	8.47e-01	0	37	104	0	74	13409
2026-01-10 02:09:16.27	14.03	6.17	-51.2	-62.7	3.8	8.47e-01	0	37	104	0	74	13157
2026-01-10 02:09:17.28	14.01	6.24	-51.2	-62.6	3.8	8.47e-01	0	37	104	0	74	13038
2026-01-10 02:09:18.28	14.00	6.32	-51.2	-62.6	3.8	8.46e-01	0	37	104	0	74	12987
2026-01-10 02:09:19.28	13.98	6.39	-51.2	-62.4	3.8	8.47e-01	0	37	104	0	74	12671
2026-01-10 02:09:20.29	13.96	6.47	-51.2	-62.4	3.8	8.48e-01	0	37	104	0	74	12749
2026-01-10 02:09:21.29	13.94	6.54	-51.2	-62.5	3.8	8.47e-01	0	37	104	0	74	12900
2026-01-10 02:09:22.30	13.92	6.62	-51.2	-62.7	3.8	8.46e-01	0	37	104	0	74	13154
2026-01-10 02:09:23.30	13.90	6.69	-51.2	-63.0	3.8	8.46e-01	0	37	104	0	74	13706
2026-01-10 02:09:24.31	13.88	6.77	-51.3	-63.5	3.8	8.47e-01	0	37	104	0	74	14392
2026-01-10 02:09:25.31	13.86	6.85	-51.3	-63.8	3.8	8.48e-01	0	38	104	0	74	14946
2026-01-10 02:09:26.31	13.84	6.92	-51.3	-64.0	3.8	8.47e-01	0	37	104	0	74	15246
2026-01-10 02:09:27.32	13.82	7.00	-51.3	-63.7	3.8	8.47e-01	0	38	104	0	74	14864
2026-01-10 02:09:28.32	13.80	7.08	-51.2	-63.1	3.8	8.47e-01	0	38	104	0	74	13840
2026-01-10 02:09:29.33	13.78	7.15	-51.1	-62.1	3.8	8.48e-01	0	38	104	0	74	12244
2026-01-10 02:09:30.33	13.76	7.23	-50.9	-60.4	4.2	8.43e-01	0	38	0	0	73	10678
2026-01-10 02:09:31.33	13.74	7.31	-50.7	-59.2	4.6	8.23e-01	0	38	0	0	73	9378
2026-01-10 02:09:32.34	13.72	7.38	-50.4	-57.8	5.3	7.60e-01	0	38	0	0	72	8426
2026-01-10 02:09:33.35	13.70	7.46	-50.0	-56.4	6.3	3.36e-01	0	38	0	3145728	72	7175
2026-01-10 02:09:34.35	13.68	7.54	-49.8	-55.6	7.1	1.94e-01	0	38	0	9437184	71	6897
2026-01-10 02:09:35.35	13.66	7.62	-49.4	-54.6	8.0	1.08e-01	0	38	0	14680064	70	6570
2026-01-10 02:09:36.36	13.64	7.70	-49.0	-53.7	8.9	4.39e-02	0	38	0	19922944	70	5916
2026-01-10 02:09:37.36	13.62	7.78	-48.7	-53.2	9.4	2.38e-02	0	38	0	26214400	69	5902
2026-01-10 02:09:38.36	13.60	7.85	-48.5	-52.7	9.9	1.36e-02	0	38	0	31457280	69	5566
2026-01-10 02:09:39.37	13.57	7.93	-48.2	-52.2	10.5	5.95e-03	0	38	0	37748736	68	5556
2026-01-10 02:09:40.37	13.55	8.01	-48.0	-51.9	10.8	4.09e-03	0	38	0	42991616	68	5399
2026-01-10 02:09:41.37	13.53	8.09	-47.5	-51.1	11.4	1.54e-03	0	38	0	49283072	66	5513
2026-01-10 02:09:42.38	13.51	8.17	-47.4	-50.9	11.7	1.00e-03	0	38	0	54525952	66	5382
2026-01-10 02:09:43.38	13.49	8.25	-47.3	-50.8	11.7	7.80e-04	0	38	0	59768832	66	5333
2026-01-10 02:09:44.39	13.46	8.33	-47.2	-50.7	12.0	6.59e-04	0	38	0	66060288	66	5220
2026-01-10 02:09:45.39	13.44	8.41	-47.2	-50.7	11.9	5.37e-04	0	38	0	71303168	66	5253
2026-01-10 02:09:46.39	13.42	8.50	-47.2	-50.7	11.9	5.57e-04	0	38	0	76546048	66	5244
2026-01-10 02:09:47.40	13.40	8.58	-47.4	-50.9	11.7	7.63e-04	0	38	0	82837504	66	5368
2026-01-10 02:09:48.40	13.37	8.66	-47.5	-51.1	11.5	1.15e-03	0	38	0	88080384	66	5477
2026-01-10 02:09:49.40	13.35	8.74	-47.9	-51.8	10.7	3.18e-03	0	38	0	93323264	66	5968
2026-01-10 02:09:50.41	13.33	8.82	-48.2	-52.4	10.1	6.45e-03	0	38	0	99614720	67	6010
2026-01-10 02:09:51.42	13.31	8.91	-48.9	-53.6	9.0	2.25e-02	0	38	0	104857600	68	6547
2026-01-10 02:09:52.42	13.28	8.99	-49.4	-54.6	8.0	6.13e-02	0	38	0	111149056	69	6959
2026-01-10 02:09:53.42	13.26	9.07	-48.0	-51.9	10.7	8.49e-02	0	38	0	116391936	68	5358
2026-01-10 02:09:54.43	13.23	9.15	-47.7	-51.6	11.1	7.90e-04	0	38	0	122683392	65	6166
2026-01-10 02:09:55.43	13.21	9.24	-50.3	-57.9	5.1	8.47e-01	0	38	104	123731968	72	8536
2026-01-10 02:09:56.43	13.19	9.32	-45.7	-48.7	14.0	1.75e-04	0	38	0	128974848	63	4932
2026-01-10 02:09:57.43	13.16	9.40	-45.9	-48.9	14.0	0.00e+00	0	38	0	134217728	62	5366
2026-01-10 02:09:58.43	13.14	9.49	-50.2	-57.9	5.2	7.52e-01	0	38	0	137363456	71	9059
2026-01-10 02:09:59.44	13.11	9.57	-50.0	-57.5	5.5	5.33e-01	0	38	0	140509184	71	8624
2026-01-10 02:10:00.44	13.09	9.66	-49.9	-57.2	5.7	5.69e-01	0	38	0	144703488	71	8291
2026-01-10 02:10:01.44	13.07	9.74	-49.4	-55.4	7.2	2.31e-01	0	38	0	150994944	70	7193
2026-01-10 02:10:02.44	13.04	9.83	-48.9	-54.2	8.5	6.15e-02	0	38	0	156237824	69	6583
2026-01-10 02:10:03.57	13.01	9.92	-48.2	-52.7	10.0	2.12e-02	0	38	0	162529280	68	5857
2026-01-10 02:10:04.43	12.99	10.00	-47.3	-51.1	11.6	2.56e-03	0	38	0	167772160	66	5493
2026-01-10 02:10:05.58	12.96	10.10	-46.3	-49.6	13.1	1.22e-04	0	38	0	174063616	64	5175
2026-01-10 02:10:06.44	12.94	10.17	-46.2	-49.4	13.3	6.06e-05	0	38	0	178257920	64	5079
2026-01-10 02:10:07.59	12.91	10.27	-45.8	-48.8	14.0	1.48e-05	0	38	0	185597952	63	5030
2026-01-10 02:10:08.60	12.88	10.36	-45.6	-48.6	14.3	1.10e-06	0	38	0	190840832	62	5177
2026-01-10 02:10:09.78	12.85	10.46	-45.6	-48.6	14.2	1.10e-06	0	38	0	197132288	62	5201
2026-01-10 02:10:10.67	12.83	10.54	-45.5	-48.5	14.5	0.00e+00	0	38	0	202375168	62	5109
2026-01-10 02:10:11.82	12.80	10.64	-45.1	-47.8	15.1	0.00e+00	0	39	0	208666624	62	4757
2026-01-10 02:10:12.68	12.78	10.71	-45.2	-48.1	14.8	0.00e+00	0	38	0	213909504	61	5166
2026-01-10 02:10:13.82	12.75	10.81	-44.9	-47.6	15.3	1.10e-06	0	38	0	220200960	61	4907
2026-01-10 02:10:14.69	12.72	10.89	-44.7	-47.4	15.5	1.10e-06	0	38	0	225443840	61	4777
2026-01-10 02:10:15.83	12.69	10.99	-44.7	-47.3	15.6	0.00e+00	0	39	0	231735296	60	5025
2026-01-10 02:10:16.69	12.67	11.07	-44.3	-46.8	16.1	0.00e+00	0	39	0	235929600	60	4742
2026-01-10 02:10:17.84	12.64	11.17	-43.8	-46.2	16.6	0.00e+00	0	39	0	243269632	59	4689
2026-01-10 02:10:18.69	12.61	11.25	-43.7	-46.0	16.9	0.00e+00	0	39	0	247463936	59	4582
2026-01-10 02:10:19.84	12.58	11.35	-43.6	-46.0	16.9	0.00e+00	0	39	0	253755392	59	4576
2026-01-10 02:10:20.70	12.56	11.43	-43.5	-45.8	17.1	0.00e+00	0	39	0	258998272	59	4463
2026-01-10 02:10:21.86	12.52	11.54	-43.4	-45.8	17.1	0.00e+00	0	39	0	265289728	58	4708
2026-01-10 02:10:22.72	12.50	11.62	-43.2	-45.5	17.4	0.00e+00	0	39	0	270532608	58	4588
2026-01-10 02:10:23.87	12.46	11.72	-43.2	-45.5	17.4	0.00e+00	0	38	0	276824064	58	4588
2026-01-10 02:10:24.72	12.44	11.80	-43.3	-45.6	17.3	0.00e+00	0	39	0	282066944	58	4627
2026-01-10 02:10:26.03	12.40	11.92	-43.3	-45.5	17.4	0.00e+00	0	38	0	289406976	58	4592
2026-01-10 02:10:26.75	12.38	11.99	-43.2	-45.4	17.5	0.00e+00	0	39	0	292552704	58	4538
2026-01-10 02:10:28.28	12.34	12.13	-43.2	-45.5	17.4	0.00e+00	0	39	0	301989888	58	4566
2026-01-10 02:10:28.99	12.31	12.20	-43.3	-45.5	17.4	0.00e+00	0	39	0	305135616	58	4561
2026-01-10 02:10:30.28	12.27	12.32	-43.2	-45.4	17.6	0.00e+00	0	39	0	312475648	58	4504
2026-01-10 02:10:31.00	12.25	12.38	-43.2	-45.4	17.6	0.00e+00	0	39	0	316669952	58	4502
2026-01-10 02:10:32.29	12.21	12.51	-43.1	-45.3	17.6	0.00e+00	0	39	0	324009984	58	4473
2026-01-10 02:10:33.00	12.19	12.57	-43.1	-45.3	17.7	0.00e+00	0	39	0	328204288	58	4467
2026-01-10 02:10:34.29	12.15	12.70	-43.1	-45.2	17.7	0.00e+00	0	39	0	335544320	58	4432
2026-01-10 02:10:35.01	12.13	12.77	-43.0	-45.1	17.8	0.00e+00	0	39	0	339738624	57	4636
2026-01-10 02:10:36.30	12.09	12.89	-42.9	-45.0	17.9	0.00e+00	0	39	0	347078656	57	4587
2026-01-10 02:10:37.08	12.06	12.96	-43.1	-45.2	17.7	0.00e+00	0	39	0	351272960	57	4694
2026-01-10 02:10:38.69	12.01	13.12	-43.0	-45.2	17.7	0.00e+00	0	39	0	359661568	57	4702
2026-01-10 02:10:39.52	11.99	13.20	-43.0	-45.1	17.8	0.00e+00	0	39	0	364904448	57	4651
2026-01-10 02:10:40.66	11.95	13.31	-43.0	-45.1	17.9	0.00e+00	0	39	0	371195904	57	4637
2026-01-10 02:10:41.52	11.92	13.40	-42.9	-45.1	17.9	0.00e+00	0	39	0	376438784	57	4608
2026-01-10 02:10:42.68	11.88	13.51	-42.8	-45.0	18.0	0.00e+00	0	39	0	382730240	57	4561
2026-01-10 02:10:43.54	11.85	13.60	-42.7	-44.8	18.2	0.00e+00	0	39	0	386924544	57	4466
2026-01-10 02:10:44.69	11.81	13.71	-42.7	-44.8	18.2	0.00e+00	0	39	0	394264576	57	4453
2026-01-10 02:10:45.55	11.79	13.80	-42.6	-44.7	18.3	0.00e+00	0	39	0	398458880	57	4420
2026-01-10 02:10:46.69	11.75	13.91	-42.6	-44.8	18.3	0.00e+00	0	39	0	404750336	57	4445
2026-01-10 02:10:47.62	11.71	14.00	-42.5	-44.6	18.4	0.00e+00	0	39	0	409993216	57	4377
2026-01-10 02:10:48.62	11.68	14.10	-42.6	-44.7	18.3	0.00e+00	0	39	0	416284672	57	4395
2026-01-10 02:10:49.85	11.64	14.23	-42.6	-44.7	18.4	0.00e+00	0	39	0	422576128	56	4663
2026-01-10 02:10:50.74	11.61	14.32	-42.5	-44.6	18.5	0.00e+00	0	39	0	427819008	56	4609
2026-01-10 02:10:52.09	11.56	14.46	-42.5	-44.6	18.5	0.00e+00	0	39	0	435159040	56	4608
2026-01-10 02:10:52.81	11.53	14.53	-42.5	-44.6	18.5	0.00e+00	0	39	0	439353344	56	4612
2026-01-10 02:10:54.10	11.49	14.66	-42.4	-44.5	18.5	0.00e+00	0	39	0	446693376	56	4589
2026-01-10 02:10:54.81	11.46	14.74	-42.3	-44.4	18.7	0.00e+00	0	39	0	450887680	56	4504
2026-01-10 02:10:56.10	11.41	14.87	-42.2	-44.3	18.7	0.00e+00	0	39	0	458227712	56	4475
2026-01-10 02:10:56.87	11.38	14.95	-42.2	-44.2	18.8	0.00e+00	0	39	0	462422016	56	4426
2026-01-10 02:10:58.16	11.34	15.09	-42.2	-44.2	18.8	0.00e+00	0	39	0	469762048	56	4434
2026-01-10 02:10:58.97	11.31	15.17	-42.1	-44.2	18.9	0.00e+00	0	39	0	473956352	56	4400
2026-01-10 02:11:00.11	11.26	15.29	-42.1	-44.2	18.9	0.00e+00	0	39	0	480247808	56	4409
2026-01-10 02:11:01.21	11.22	15.41	-42.2	-44.2	18.8	0.00e+00	0	39	0	486539264	56	4436
2026-01-10 02:11:02.25	11.18	15.52	-42.1	-44.2	18.9	0.00e+00	0	39	0	492830720	56	4409
2026-01-10 02:11:03.25	11.14	15.63	-42.1	-44.1	18.9	0.00e+00	0	39	0	498073600	56	4376
2026-01-10 02:11:04.25	11.10	15.73	-42.0	-44.1	19.0	0.00e+00	0	39	0	503316480	56	4353
2026-01-10 02:11:05.25	11.06	15.84	-41.8	-43.8	19.1	0.00e+00	0	39	0	509607936	55	4487
2026-01-10 02:11:06.54	11.01	15.98	-41.7	-43.8	19.1	0.00e+00	0	39	0	516947968	55	4461
2026-01-10 02:11:07.26	10.98	16.06	-41.8	-43.8	19.0	0.00e+00	0	39	0	521142272	55	4483
2026-01-10 02:11:08.55	10.93	16.20	-41.7	-43.7	19.1	0.00e+00	0	39	0	528482304	55	4439
2026-01-10 02:11:09.27	10.90	16.28	-41.7	-43.7	19.2	0.00e+00	0	39	0	532676608	55	4393
2026-01-10 02:11:10.56	10.85	16.42	-41.7	-43.7	19.2	0.00e+00	0	39	0	538968064	55	4426
2026-01-10 02:11:11.28	10.82	16.50	-41.7	-43.7	19.2	0.00e+00	0	39	0	543162368	55	4441
2026-01-10 02:11:12.57	10.77	16.65	-41.6	-43.6	19.3	0.00e+00	0	39	0	550502400	55	4357
2026-01-10 02:11:13.28	10.74	16.73	-41.7	-43.7	19.2	0.00e+00	0	39	0	554696704	55	4397
2026-01-10 02:11:14.67	10.68	16.88	-41.6	-43.6	19.3	0.00e+00	0	39	0	563085312	55	4347
2026-01-10 02:11:15.66	10.64	17.00	-41.5	-43.5	19.3	0.00e+00	0	39	0	568328192	55	4332
2026-01-10 02:11:16.98	10.58	17.15	-41.6	-43.6	19.2	0.00e+00	0	39	0	575668224	55	4386
2026-01-10 02:11:17.70	10.55	17.23	-41.6	-43.6	19.3	0.00e+00	0	39	0	579862528	55	4342
2026-01-10 02:11:18.99	10.49	17.38	-41.5	-43.4	19.5	0.00e+00	0	39	0	587202560	54	4534
2026-01-10 02:11:19.70	10.46	17.46	-41.5	-43.5	19.5	0.00e+00	0	39	0	590348288	54	4549
2026-01-10 02:11:20.99	10.40	17.61	-41.5	-43.4	19.5	0.00e+00	0	39	0	597688320	54	4543
2026-01-10 02:11:21.71	10.37	17.69	-41.5	-43.4	19.5	0.00e+00	0	39	0	601882624	54	4507
2026-01-10 02:11:23.00	10.31	17.84	-41.5	-43.5	19.5	0.00e+00	0	39	0	609222656	54	4554
2026-01-10 02:11:23.72	10.28	17.93	-41.5	-43.4	19.5	0.00e+00	0	39	0	613416960	54	4517
2026-01-10 02:11:25.00	10.22	18.08	-41.6	-43.5	19.4	0.00e+00	0	39	0	620756992	54	4553
2026-01-10 02:11:25.72	10.19	18.16	-41.5	-43.4	19.5	0.00e+00	0	39	0	624951296	54	4525
2026-01-10 02:11:27.17	10.12	18.34	-41.5	-43.5	19.4	0.00e+00	0	39	0	633339904	54	4551
2026-01-10 02:11:27.89	10.08	18.42	-41.5	-43.4	19.5	0.00e+00	0	39	0	636485632	54	4516
2026-01-10 02:11:29.27	10.02	18.59	-41.6	-43.5	19.5	0.00e+00	0	39	0	644874240	54	4553
2026-01-10 02:11:29.98	9.98	18.67	-41.6	-43.5	19.4	0.00e+00	0	39	0	649068544	54	4590
2026-01-10 02:11:31.27	9.92	18.83	-41.6	-43.5	19.5	0.00e+00	0	39	0	656408576	54	4567
2026-01-10 02:11:31.99	9.88	18.92	-41.6	-43.5	19.4	0.00e+00	0	39	0	659554304	54	4586
2026-01-10 02:11:33.28	9.82	19.08	-41.5	-43.4	19.5	0.00e+00	0	39	0	666894336	54	4527
2026-01-10 02:11:34.00	9.78	19.17	-41.6	-43.4	19.5	0.00e+00	0	39	0	671088640	54	4537
2026-01-10 02:11:35.29	9.72	19.32	-41.5	-43.3	19.6	0.00e+00	0	39	0	678428672	54	4483
2026-01-10 02:11:36.01	9.68	19.41	-41.4	-43.3	19.6	0.00e+00	0	39	0	682622976	54	4475
2026-01-10 02:11:37.30	9.62	19.58	-41.4	-43.3	19.7	0.00e+00	0	39	0	689963008	54	4462
2026-01-10 02:11:38.01	9.58	19.66	-41.4	-43.3	19.7	0.00e+00	0	39	0	694157312	54	4462
2026-01-10 02:11:39.30	9.51	19.83	-41.4	-43.2	19.7	0.00e+00	0	39	0	701497344	54	4438
2026-01-10 02:11:40.01	9.47	19.92	-41.4	-43.2	19.7	0.00e+00	0	39	0	705691648	54	4424
2026-01-10 02:11:41.31	9.41	20.08	-41.3	-43.2	19.8	0.00e+00	0	39	0	711983104	54	4415
2026-01-10 02:11:42.22	9.36	20.20	-41.3	-43.1	19.8	0.00e+00	0	39	0	717225984	54	4380
2026-01-10 02:11:43.22	9.30	20.33	-41.2	-43.1	19.9	0.00e+00	0	39	0	723517440	54	4349
2026-01-10 02:11:44.22	9.25	20.46	-41.3	-43.2	19.8	0.00e+00	0	39	0	728760320	54	4394
2026-01-10 02:11:45.22	9.19	20.59	-41.4	-43.2	19.7	0.00e+00	0	39	0	734003200	54	4433
2026-01-10 02:11:46.23	9.14	20.72	-41.3	-43.1	19.8	0.00e+00	0	39	0	740294656	54	4390
2026-01-10 02:11:47.23	9.08	20.85	-41.2	-43.0	19.9	0.00e+00	0	39	0	745537536	54	4338
2026-01-10 02:11:48.23	9.02	20.98	-41.3	-43.2	19.8	0.00e+00	0	39	0	751828992	54	4419
2026-01-10 02:11:49.23	8.97	21.12	-41.4	-43.2	19.7	0.00e+00	0	39	0	757071872	54	4428
2026-01-10 02:11:50.28	8.91	21.26	-41.3	-43.1	19.8	0.00e+00	0	39	0	763363328	54	4369
2026-01-10 02:11:51.14	8.86	21.37	-41.2	-43.1	19.9	0.00e+00	0	39	0	767557632	54	4350
2026-01-10 02:11:52.29	8.79	21.53	-41.1	-43.0	20.0	0.00e+00	0	39	0	773849088	54	4300
2026-01-10 02:11:53.15	8.74	21.64	-41.0	-42.8	20.1	0.00e+00	0	39	0	779091968	54	4232
2026-01-10 02:11:54.30	8.67	21.80	-40.9	-42.7	20.2	0.00e+00	0	39	0	785383424	53	4438
2026-01-10 02:11:55.16	8.62	21.92	-40.9	-42.6	20.3	0.00e+00	0	39	0	790626304	53	4390
2026-01-10 02:11:56.30	8.55	22.07	-40.9	-42.7	20.2	0.00e+00	0	39	0	796917760	53	4410
2026-01-10 02:11:57.17	8.49	22.20	-40.8	-42.6	20.4	0.00e+00	0	39	0	802160640	53	4374
2026-01-10 02:11:58.31	8.42	22.35	-40.6	-42.4	20.5	0.00e+00	0	39	0	808452096	53	4272
2026-01-10 02:11:59.17	8.37	22.47	-40.6	-42.4	20.5	0.00e+00	0	39	0	812646400	53	4255
2026-01-10 02:12:00.31	8.30	22.63	-40.6	-42.4	20.6	0.00e+00	0	39	0	818937856	53	4249
2026-01-10 02:12:01.17	8.24	22.76	-40.5	-42.2	20.7	0.00e+00	0	39	0	824180736	52	4429
2026-01-10 02:12:02.32	8.17	22.92	-40.4	-42.2	20.8	0.00e+00	0	39	0	830472192	52	4392
2026-01-10 02:12:03.18	8.11	23.04	-40.4	-42.2	20.8	0.00e+00	0	39	0	835715072	52	4406
2026-01-10 02:12:04.43	8.03	23.22	-40.5	-42.2	20.7	0.00e+00	0	39	0	842006528	52	4435
2026-01-10 02:12:05.15	7.98	23.32	-40.5	-42.2	20.7	0.00e+00	0	39	0	846200832	52	4434
2026-01-10 02:12:06.45	7.89	23.51	-40.4	-42.1	20.8	0.00e+00	0	39	0	853540864	52	4381
2026-01-10 02:12:07.16	7.84	23.62	-40.3	-42.1	20.9	0.00e+00	0	39	0	857735168	52	4349
2026-01-10 02:12:08.45	7.76	23.81	-40.4	-42.1	20.8	0.00e+00	0	39	0	865075200	52	4373
2026-01-10 02:12:09.17	7.71	23.91	-40.4	-42.1	20.8	0.00e+00	0	39	0	869269504	52	4377
2026-01-10 02:12:10.83	7.59	24.16	-40.4	-42.1	20.9	0.00e+00	0	39	0	878706688	52	4373
2026-01-10 02:12:11.40	7.55	24.24	-40.4	-42.1	20.8	0.00e+00	0	39	0	881852416	52	4374
2026-01-10 02:12:12.98	7.44	24.48	-40.5	-42.2	20.7	0.00e+00	0	39	0	890241024	52	4436
2026-01-10 02:12:13.58	7.39	24.57	-40.5	-42.2	20.7	0.00e+00	0	39	0	894435328	52	4426
2026-01-10 02:12:15.16	7.28	24.81	-40.4	-42.1	20.8	0.00e+00	0	39	0	902823936	52	4391
2026-01-10 02:12:15.73	7.23	24.90	-40.3	-42.1	20.8	0.00e+00	0	39	0	905969664	52	4361
2026-01-10 02:12:17.31	7.12	25.14	-40.4	-42.2	20.8	0.00e+00	0	39	0	914358272	52	4396
2026-01-10 02:12:17.88	7.07	25.23	-40.4	-42.1	20.8	0.00e+00	0	39	0	918552576	52	4374
2026-01-10 02:12:19.47	6.95	25.48	-40.4	-42.2	20.8	0.00e+00	0	39	0	926941184	52	4401
2026-01-10 02:12:20.05	6.91	25.57	-40.3	-42.0	20.9	0.00e+00	0	39	0	930086912	52	4336
2026-01-10 02:12:21.63	6.78	25.82	-40.3	-42.0	20.9	0.00e+00	0	39	0	939524096	52	4335
2026-01-10 02:12:22.47	6.72	25.95	-40.2	-42.0	21.0	0.00e+00	0	39	0	943718400	52	4298
2026-01-10 02:12:23.62	6.62	26.13	-40.1	-41.8	21.1	0.00e+00	0	39	0	950009856	52	4239
2026-01-10 02:12:24.76	6.53	26.31	-40.2	-41.9	21.0	0.00e+00	0	39	0	957349888	52	4278
2026-01-10 02:12:25.62	6.46	26.45	-40.2	-42.0	21.0	0.00e+00	0	39	0	961544192	52	4296
2026-01-10 02:12:26.77	6.37	26.64	-40.2	-42.0	21.0	0.00e+00	0	39	0	967835648	52	4302
2026-01-10 02:12:27.63	6.29	26.78	-40.2	-42.0	21.0	0.00e+00	0	39	0	973078528	52	4310
2026-01-10 02:12:28.77	6.20	26.97	-40.4	-42.1	20.9	0.00e+00	0	39	0	979369984	52	4379
2026-01-10 02:12:29.63	6.12	27.11	-40.4	-42.2	20.8	0.00e+00	0	39	0	984612864	52	4417
2026-01-10 02:12:30.78	6.03	27.30	-40.4	-42.2	20.8	0.00e+00	0	39	0	990904320	52	4421
2026-01-10 02:12:31.64	5.95	27.44	-40.4	-42.2	20.8	0.00e+00	0	39	0	995098624	52	4394
2026-01-10 02:12:32.78	5.85	27.63	-40.5	-42.2	20.8	0.00e+00	0	39	0	1002438656	52	4439
2026-01-10 02:12:33.64	5.77	27.78	-40.5	-42.2	20.8	0.00e+00	0	39	0	1006632960	52	4434
2026-01-10 02:12:34.79	5.67	27.97	-40.4	-42.1	20.9	0.00e+00	0	39	0	1012924416	52	4367
2026-01-10 02:12:35.65	5.59	28.12	-40.2	-41.9	21.0	0.00e+00	0	39	0	1018167296	52	4289
2026-01-10 02:12:37.02	5.46	28.36	-40.2	-41.9	21.1	0.00e+00	0	39	0	1025507328	52	4268
2026-01-10 02:12:37.73	5.40	28.48	-40.0	-41.8	21.2	0.00e+00	0	39	0	1029701632	52	4205
2026-01-10 02:12:39.03	5.27	28.70	-40.0	-41.7	21.3	0.00e+00	0	39	0	1037041664	51	4403
2026-01-10 02:12:39.74	5.21	28.83	-39.9	-41.6	21.4	0.00e+00	0	39	0	1041235968	51	4384
2026-01-10 02:12:41.03	5.08	29.05	-39.9	-41.6	21.4	0.00e+00	0	39	0	1048576000	51	4383
2026-01-10 02:12:41.75	5.01	29.18	-39.9	-41.6	21.4	0.00e+00	0	39	0	1052770304	51	4385
2026-01-10 02:12:43.04	4.88	29.41	-40.0	-41.7	21.4	0.00e+00	0	39	0	1060110336	51	4407
2026-01-10 02:12:43.75	4.81	29.54	-39.9	-41.7	21.4	0.00e+00	0	39	0	1063256064	51	4395
2026-01-10 02:12:45.04	4.68	29.77	-39.9	-41.6	21.4	0.00e+00	0	39	0	1070596096	51	4367
2026-01-10 02:12:45.76	4.61	29.90	-39.9	-41.6	21.4	0.00e+00	0	39	0	1074790400	51	4374
2026-01-10 02:12:47.04	4.48	30.13	-39.9	-41.6	21.4	0.00e+00	0	39	0	1082130432	51	4364
2026-01-10 02:12:47.76	4.40	30.27	-39.8	-41.5	21.5	0.00e+00	0	39	0	1086324736	51	4308
2026-01-10 02:12:49.05	4.26	30.50	-39.8	-41.5	21.5	0.00e+00	0	39	0	1093664768	51	4324
2026-01-10 02:12:49.77	4.19	30.64	-39.9	-41.6	21.5	0.00e+00	0	39	0	1097859072	51	4351
2026-01-10 02:12:51.06	4.05	30.88	-39.9	-41.7	21.4	0.00e+00	0	39	0	1104150528	51	4402
2026-01-10 02:12:52.22	3.92	31.09	-39.8	-41.5	21.6	0.00e+00	0	39	0	1111490560	51	4317
2026-01-10 02:12:53.08	3.82	31.26	-39.8	-41.5	21.5	0.00e+00	0	39	0	1115684864	51	4337
2026-01-10 02:12:54.22	3.69	31.47	-39.8	-41.5	21.5	0.00e+00	0	39	0	1123024896	51	4338
2026-01-10 02:12:55.09	3.59	31.64	-39.9	-41.6	21.4	0.00e+00	0	39	0	1127219200	51	4379
2026-01-10 02:12:56.31	3.45	31.87	-39.8	-41.5	21.5	0.00e+00	0	39	0	1134559232	51	4325
2026-01-10 02:12:57.17	3.35	32.04	-39.7	-41.4	21.6	0.00e+00	0	39	0	1138753536	51	4268
2026-01-10 02:12:58.32	3.21	32.26	-39.7	-41.5	21.6	0.00e+00	0	39	0	1146093568	51	4294
2026-01-10 02:12:59.18	3.11	32.43	-39.6	-41.3	21.7	0.00e+00	0	39	0	1150287872	51	4232
2026-01-10 02:13:00.49	2.95	32.69	-39.7	-41.4	21.6	0.00e+00	0	39	0	1157627904	51	4268
2026-01-10 02:13:01.20	2.86	32.83	-39.7	-41.4	21.6	0.00e+00	0	39	0	1161822208	51	4291
2026-01-10 02:13:02.49	2.70	33.09	-39.8	-41.5	21.5	0.00e+00	0	39	0	1169162240	51	4313
2026-01-10 02:13:03.21	2.61	33.23	-39.8	-41.5	21.5	0.00e+00	0	39	0	1173356544	51	4325
2026-01-10 02:13:04.50	2.45	33.49	-39.8	-41.5	21.6	0.00e+00	0	39	0	1180696576	51	4305
2026-01-10 02:13:05.22	2.35	33.63	-39.8	-41.5	21.6	0.00e+00	0	39	0	1184890880	51	4304
2026-01-10 02:13:06.51	2.18	33.90	-39.7	-41.4	21.6	0.00e+00	0	39	0	1191182336	51	4285
2026-01-10 02:13:07.22	2.09	34.04	-39.7	-41.4	21.6	0.00e+00	0	39	0	1195376640	51	4281
2026-01-10 02:13:08.51	1.91	34.31	-39.6	-41.3	21.7	0.00e+00	0	39	0	1202716672	51	4220
2026-01-10 02:13:09.23	1.82	34.46	-39.6	-41.3	21.7	0.00e+00	0	39	0	1206910976	51	4233
2026-01-10 02:13:10.52	1.64	34.73	-39.6	-41.3	21.7	0.00e+00	0	39	0	1214251008	51	4228
2026-01-10 02:13:11.23	1.54	34.88	-39.7	-41.4	21.7	0.00e+00	0	39	0	1218445312	51	4250
2026-01-10 02:13:12.52	1.35	35.15	-39.8	-41.5	21.6	0.00e+00	0	39	0	1225785344	51	4317
2026-01-10 02:13:13.24	1.25	35.30	-39.7	-41.4	21.6	0.00e+00	0	39	0	1229979648	51	4280
2026-01-10 02:13:14.53	1.06	35.58	-39.7	-41.4	21.6	0.00e+00	0	39	0	1236271104	51	4284
2026-01-10 02:13:15.25	0.95	35.73	-39.8	-41.5	21.6	0.00e+00	0	39	0	1240465408	51	4307
2026-01-10 02:13:16.54	0.76	36.01	-39.8	-41.5	21.6	0.00e+00	0	39	0	1247805440	51	4311
2026-01-10 02:13:17.25	0.65	36.16	-39.8	-41.5	21.6	0.00e+00	0	39	0	1251999744	51	4332
2026-01-10 02:13:18.54	0.45	36.44	-39.8	-41.5	21.6	0.00e+00	0	39	0	1259339776	51	4322
2026-01-10 02:13:19.26	0.34	36.60	-39.8	-41.5	21.6	0.00e+00	0	39	0	1263534080	51	4319
2026-01-10 02:13:20.55	0.14	36.89	-39.6	-41.3	21.8	0.00e+00	0	39	0	1270874112	51	4212
2026-01-10 02:13:21.26	0.02	37.04	-39.6	-41.3	21.8	0.00e+00	0	39	0	1275068416	51	4215
2026-01-10 02:13:22.56	359.81	37.33	-39.6	-41.2	21.8	0.00e+00	0	39	0	1281359872	51	4190
2026-01-10 02:13:23.27	359.69	37.49	-39.7	-41.4	21.7	0.00e+00	0	39	0	1285554176	51	4264
2026-01-10 02:13:24.57	359.47	37.79	-39.7	-41.4	21.7	0.00e+00	0	39	0	1292894208	51	4269
2026-01-10 02:13:25.28	359.35	37.95	-39.6	-41.3	21.8	0.00e+00	0	39	0	1297088512	51	4204
2026-01-10 02:13:26.59	359.13	38.25	-39.6	-41.3	21.8	0.00e+00	0	39	0	1304428544	51	4202
2026-01-10 02:13:27.30	359.00	38.41	-39.6	-41.3	21.8	0.00e+00	0	39	0	1308622848	51	4224
2026-01-10 02:13:28.69	358.76	38.73	-39.7	-41.4	21.7	0.00e+00	0	39	0	1315962880	51	4283
2026-01-10 02:13:29.66	358.58	38.96	-39.8	-41.5	21.6	0.00e+00	0	39	0	1322254336	51	4310
2026-01-10 02:13:30.98	358.34	39.27	-39.8	-41.5	21.5	0.00e+00	0	39	0	1329594368	51	4337
2026-01-10 02:13:31.70	358.20	39.43	-39.8	-41.6	21.5	0.00e+00	0	39	0	1332740096	51	4344
2026-01-10 02:13:32.99	357.96	39.74	-39.7	-41.4	21.6	0.00e+00	0	39	0	1340080128	51	4279
2026-01-10 02:13:33.71	357.82	39.91	-39.7	-41.4	21.6	0.00e+00	0	39	0	1344274432	51	4279
2026-01-10 02:13:35.00	357.57	40.22	-39.9	-41.6	21.5	0.00e+00	0	39	0	1351614464	51	4352
2026-01-10 02:13:35.71	357.43	40.39	-40.0	-41.8	21.3	0.00e+00	0	39	0	1355808768	51	4458
2026-01-10 02:13:37.00	357.17	40.70	-40.3	-42.0	21.1	0.00e+00	0	39	0	1363148800	51	4593
2026-01-10 02:13:37.72	357.02	40.88	-40.3	-42.1	21.1	0.00e+00	0	39	0	1367343104	51	4619
2026-01-10 02:13:39.04	356.75	41.20	-40.3	-42.1	21.1	0.00e+00	0	39	0	1374683136	51	4615
2026-01-10 02:13:39.76	356.59	41.37	-40.1	-41.8	21.3	0.00e+00	0	39	0	1378877440	51	4466
2026-01-10 02:13:41.05	356.32	41.69	-39.9	-41.6	21.5	0.00e+00	0	39	0	1386217472	51	4356
2026-01-10 02:13:41.76	356.16	41.87	-39.9	-41.7	21.5	0.00e+00	0	39	0	1390411776	51	4396
2026-01-10 02:13:43.06	355.88	42.19	-39.9	-41.6	21.5	0.00e+00	0	39	0	1396703232	51	4382
2026-01-10 02:13:43.77	355.72	42.37	-39.9	-41.6	21.5	0.00e+00	0	39	0	1400897536	51	4370
2026-01-10 02:13:45.06	355.42	42.69	-40.0	-41.7	21.4	0.00e+00	0	39	0	1408237568	51	4408
2026-01-10 02:13:45.78	355.25	42.87	-40.0	-41.7	21.4	0.00e+00	0	39	0	1412431872	51	4436
2026-01-10 02:13:47.07	354.95	43.20	-40.1	-41.9	21.3	0.00e+00	0	39	0	1419771904	51	4505
2026-01-10 02:13:47.78	354.78	43.38	-40.1	-41.8	21.3	0.00e+00	0	39	0	1423966208	51	4491
2026-01-10 02:13:49.07	354.47	43.71	-40.0	-41.7	21.4	0.00e+00	0	39	0	1431306240	51	4432
2026-01-10 02:13:49.87	354.27	43.91	-40.0	-41.7	21.4	0.00e+00	0	39	0	1435500544	51	4429
2026-01-10 02:13:51.01	353.98	44.21	-39.9	-41.7	21.5	0.00e+00	0	39	0	1441792000	51	4392
2026-01-10 02:13:51.87	353.76	44.43	-39.9	-41.6	21.5	0.00e+00	0	39	0	1447034880	51	4370
2026-01-10 02:13:53.02	353.46	44.73	-39.9	-41.6	21.5	0.00e+00	0	39	0	1453326336	51	4372
2026-01-10 02:13:53.88	353.24	44.95	-40.0	-41.8	21.4	0.00e+00	0	39	0	1458569216	51	4453
2026-01-10 02:13:55.02	352.93	45.25	-40.0	-41.8	21.4	0.00e+00	0	39	0	1464860672	51	4455
2026-01-10 02:13:55.88	352.70	45.48	-40.1	-41.8	21.3	0.00e+00	0	39	0	1469054976	51	4473
2026-01-10 02:13:57.03	352.38	45.78	-40.1	-41.9	21.3	0.00e+00	0	39	0	1475346432	51	4500
2026-01-10 02:13:57.89	352.13	46.01	-40.0	-41.8	21.4	0.00e+00	0	39	0	1480589312	51	4442
2026-01-10 02:13:59.04	351.80	46.32	-40.0	-41.7	21.4	0.00e+00	0	39	0	1486880768	51	4401
2026-01-10 02:13:59.90	351.55	46.55	-40.0	-41.7	21.5	0.00e+00	0	39	0	1492123648	51	4398
2026-01-10 02:14:01.19	351.17	46.89	-39.9	-41.5	21.6	0.00e+00	0	39	0	1499463680	51	4336
2026-01-10 02:14:01.91	350.95	47.09	-39.8	-41.5	21.6	0.00e+00	0	39	0	1502609408	51	4324
2026-01-10 02:14:03.20	350.55	47.43	-40.1	-41.8	21.4	0.00e+00	0	39	0	1509949440	51	4464
2026-01-10 02:14:03.92	350.32	47.63	-40.2	-41.9	21.3	0.00e+00	0	39	0	1514143744	51	4522
2026-01-10 02:14:05.21	349.91	47.98	-40.3	-42.0	21.1	0.00e+00	0	39	0	1521483776	51	4593
2026-01-10 02:14:05.99	349.66	48.19	-40.4	-42.2	21.0	0.00e+00	0	39	0	1525678080	51	4681
2026-01-10 02:14:07.18	349.26	48.51	-40.5	-42.2	20.9	0.00e+00	0	39	0	1533018112	51	4701
2026-01-10 02:14:08.23	348.91	48.80	-40.5	-42.3	20.9	0.00e+00	0	39	0	1539309568	51	4712
2026-01-10 02:14:09.12	348.60	49.05	-40.6	-42.4	20.8	0.00e+00	0	39	0	1543503872	51	4794
2026-01-10 02:14:10.26	348.20	49.36	-40.7	-42.5	20.6	0.00e+00	0	39	0	1549795328	52	4563
2026-01-10 02:14:11.12	347.90	49.59	-40.5	-42.3	20.8	0.00e+00	0	39	0	1555038208	52	4457
2026-01-10 02:14:12.26	347.48	49.91	-40.5	-42.3	20.8	0.00e+00	0	39	0	1561329664	52	4458
2026-01-10 02:14:13.12	347.16	50.15	-40.6	-42.3	20.8	0.00e+00	0	39	0	1566572544	52	4493
2026-01-10 02:14:14.26	346.73	50.46	-40.9	-42.7	20.4	0.00e+00	0	39	0	1572864000	52	4679
2026-01-10 02:14:15.12	346.40	50.70	-41.0	-42.8	20.4	0.00e+00	0	39	0	1578106880	52	4726
2026-01-10 02:14:16.27	345.95	51.02	-40.8	-42.6	20.6	0.00e+00	0	39	0	1584398336	52	4607
2026-01-10 02:14:17.13	345.61	51.26	-40.8	-42.6	20.5	0.00e+00	0	39	0	1588592640	52	4637
2026-01-10 02:14:18.44	345.08	51.62	-40.8	-42.6	20.6	0.00e+00	0	39	0	1595932672	52	4607
2026-01-10 02:14:19.15	344.79	51.82	-40.8	-42.5	20.6	0.00e+00	0	39	0	1600126976	52	4596
2026-01-10 02:14:20.44	344.24	52.17	-40.8	-42.5	20.6	0.00e+00	0	39	0	1607467008	52	4580
2026-01-10 02:14:21.16	343.93	52.37	-40.8	-42.5	20.6	0.00e+00	0	39	0	1611661312	52	4582
2026-01-10 02:14:22.45	343.36	52.73	-40.5	-42.2	20.9	0.00e+00	0	39	0	1619001344	52	4425
2026-01-10 02:14:23.16	343.05	52.93	-40.4	-42.1	21.0	0.00e+00	0	39	0	1623195648	52	4357
2026-01-10 02:14:24.79	342.30	53.38	-40.7	-42.5	20.6	0.00e+00	0	39	0	1631584256	52	4572
2026-01-10 02:14:25.36	342.04	53.53	-40.9	-42.7	20.4	0.00e+00	0	39	0	1635778560	52	4695
2026-01-10 02:14:26.97	341.27	53.98	-41.1	-42.9	20.3	0.00e+00	0	39	0	1644167168	52	4766
2026-01-10 02:14:27.54	340.99	54.13	-40.9	-42.7	20.5	0.00e+00	0	39	0	1647312896	52	4666
2026-01-10 02:14:29.13	340.20	54.57	-40.7	-42.5	20.6	0.00e+00	0	39	0	1656750080	52	4570
2026-01-10 02:14:29.82	339.85	54.76	-40.5	-42.3	20.8	0.00e+00	0	39	0	1659895808	52	4452
2026-01-10 02:14:31.25	339.11	55.15	-40.7	-42.4	20.7	0.00e+00	0	39	0	1668284416	52	4531
2026-01-10 02:14:31.97	338.73	55.34	-40.6	-42.4	20.7	0.00e+00	0	39	0	1672478720	52	4519
2026-01-10 02:14:33.26	338.03	55.69	-40.4	-42.2	20.9	0.00e+00	0	39	0	1679818752	52	4408
2026-01-10 02:14:33.98	337.63	55.89	-40.5	-42.2	20.9	0.00e+00	0	39	0	1684013056	52	4441
2026-01-10 02:14:35.27	336.91	56.23	-40.7	-42.5	20.7	0.00e+00	0	39	0	1691353088	52	4559
2026-01-10 02:14:35.98	336.50	56.42	-40.7	-42.5	20.4	0.00e+00	0	39	0	1694498816	52	4575
2026-01-10 02:14:37.28	335.75	56.76	-40.6	-42.4	20.5	0.00e+00	0	39	0	1701838848	52	4525
2026-01-10 02:14:38.26	335.16	57.02	-40.5	-42.3	20.5	0.00e+00	0	39	0	1708130304	52	4488
2026-01-10 02:14:39.26	334.55	57.28	-40.5	-42.4	20.5	0.00e+00	0	39	0	1713373184	52	4518
2026-01-10 02:14:40.27	333.93	57.54	-40.5	-42.3	20.6	0.00e+00	0	39	0	1718616064	52	4468
2026-01-10 02:14:41.27	333.30	57.80	-40.5	-42.3	20.6	0.00e+00	0	39	0	1724907520	52	4478
2026-01-10 02:14:42.27	332.65	58.06	-40.5	-42.4	20.5	0.00e+00	0	39	0	1730150400	52	4500
2026-01-10 02:14:43.28	331.99	58.31	-40.3	-42.1	20.8	0.00e+00	0	39	0	1736441856	52	4347
2026-01-10 02:14:44.28	331.32	58.56	-40.1	-41.9	20.9	0.00e+00	0	39	0	1741684736	52	4271
2026-01-10 02:14:45.28	330.64	58.81	-40.1	-41.9	20.9	0.00e+00	0	39	0	1746927616	52	4278
2026-01-10 02:14:46.35	329.89	59.07	-40.4	-42.2	20.7	0.00e+00	0	39	0	1753219072	52	4408
2026-01-10 02:14:47.24	329.26	59.28	-40.6	-42.4	20.5	0.00e+00	0	39	0	1758461952	52	4525
2026-01-10 02:14:48.38	328.44	59.55	-40.6	-42.4	20.5	0.00e+00	0	39	0	1764753408	52	4532
2026-01-10 02:14:49.31	327.76	59.77	-40.3	-42.1	20.8	0.00e+00	0	39	0	1769996288	52	4347
2026-01-10 02:14:50.48	326.88	60.04	-40.1	-41.8	21.0	0.00e+00	0	39	0	1776287744	52	4234
2026-01-10 02:14:51.34	326.23	60.24	-40.1	-41.8	21.0	0.00e+00	0	39	0	1781530624	52	4231
2026-01-10 02:14:52.49	325.33	60.50	-40.1	-41.9	20.9	0.00e+00	0	39	0	1787822080	52	4289
2026-01-10 02:14:53.35	324.65	60.68	-40.2	-42.0	20.9	0.00e+00	0	39	0	1792016384	52	4307
2026-01-10 02:14:54.49	323.74	60.93	-40.2	-42.0	20.9	0.00e+00	0	39	0	1799356416	52	4299
2026-01-10 02:14:55.35	323.03	61.11	-40.2	-42.0	20.8	0.00e+00	0	39	0	1803550720	52	4337
2026-01-10 02:14:56.50	322.08	61.35	-40.2	-42.0	20.9	0.00e+00	0	39	0	1809842176	52	4297
2026-01-10 02:14:57.35	321.36	61.52	-40.1	-41.9	20.9	0.00e+00	0	39	0	1815085056	52	4285
2026-01-10 02:14:58.50	320.37	61.74	-40.0	-41.8	21.0	0.00e+00	0	39	0	1821376512	51	4485
2026-01-10 02:14:59.36	319.62	61.91	-39.9	-41.7	21.2	0.00e+00	0	39	0	1826619392	51	4410
2026-01-10 02:15:00.50	318.61	62.12	-40.0	-41.8	21.1	0.00e+00	0	39	0	1832910848	51	4478
2026-01-10 02:15:01.37	317.83	62.28	-40.0	-41.8	21.1	0.00e+00	0	39	0	1838153728	51	4475
2026-01-10 02:15:02.51	316.78	62.48	-39.6	-41.3	21.5	0.00e+00	0	39	0	1844445184	51	4227
2026-01-10 02:15:03.37	315.99	62.62	-39.7	-41.5	21.4	0.00e+00	0	39	0	1848639488	51	4295
2026-01-10 02:15:04.52	314.91	62.81	-39.8	-41.5	21.3	0.00e+00	0	39	0	1855979520	51	4339
2026-01-10 02:15:05.38	314.09	62.95	-39.8	-41.6	21.2	0.00e+00	0	39	0	1860173824	51	4363
2026-01-10 02:15:06.53	312.98	63.12	-39.7	-41.5	21.3	0.00e+00	0	39	0	1866465280	51	4334
2026-01-10 02:15:07.40	312.13	63.24	-39.5	-41.3	21.6	0.00e+00	0	39	0	1871708160	51	4210
2026-01-10 02:15:08.72	310.82	63.42	-39.4	-41.1	21.8	0.00e+00	0	39	0	1879048192	50	4359
2026-01-10 02:15:09.44	310.10	63.52	-39.3	-41.0	21.8	0.00e+00	0	39	0	1883242496	50	4327
2026-01-10 02:15:10.72	308.80	63.67	-39.1	-40.8	21.9	0.00e+00	0	39	0	1890582528	50	4233
2026-01-10 02:15:11.44	308.07	63.76	-39.0	-40.7	22.0	0.00e+00	0	39	0	1894776832	50	4165
2026-01-10 02:15:12.73	306.74	63.90	-39.3	-41.0	21.8	0.00e+00	0	39	0	1902116864	50	4326
2026-01-10 02:15:13.45	305.99	63.97	-39.2	-41.0	21.8	0.00e+00	0	39	0	1905262592	50	4293
2026-01-10 02:15:14.74	304.63	64.09	-39.1	-40.9	21.9	0.00e+00	0	39	0	1912602624	50	4251
2026-01-10 02:15:15.46	303.87	64.15	-39.2	-40.9	21.9	0.00e+00	0	39	0	1916796928	50	4263
2026-01-10 02:15:16.74	302.50	64.25	-38.9	-40.7	22.0	0.00e+00	0	39	0	1924136960	49	4395
2026-01-10 02:15:17.46	301.73	64.30	-38.7	-40.4	22.3	0.00e+00	0	39	0	1928331264	49	4274
2026-01-10 02:15:18.75	300.34	64.37	-38.6	-40.3	22.4	0.00e+00	0	39	0	1935671296	49	4225
2026-01-10 02:15:19.47	299.56	64.41	-39.0	-40.7	22.0	0.00e+00	0	39	0	1939865600	49	4437
2026-01-10 02:15:20.76	298.15	64.47	-39.2	-40.9	21.8	0.00e+00	0	39	0	1946157056	49	4538
2026-01-10 02:15:21.47	297.38	64.49	-39.1	-40.8	21.9	0.00e+00	0	39	0	1950351360	49	4492
2026-01-10 02:15:22.76	295.96	64.53	-38.6	-40.3	22.4	0.00e+00	0	39	0	1957691392	49	4218
2026-01-10 02:15:23.48	295.17	64.54	-38.7	-40.4	22.3	0.00e+00	0	39	0	1961885696	49	4287
2026-01-10 02:15:24.77	293.75	64.56	-39.1	-40.8	22.0	0.00e+00	0	39	0	1969225728	49	4457
2026-01-10 02:15:25.48	292.97	64.56	-39.1	-40.9	21.9	0.00e+00	0	39	0	1973420032	49	4501
2026-01-10 02:15:26.77	291.55	64.55	-38.9	-40.6	22.1	0.00e+00	0	39	0	1980760064	49	4349
2026-01-10 02:15:27.57	290.67	64.54	-38.7	-40.4	22.3	0.00e+00	0	39	0	1984954368	49	4270
2026-01-10 02:15:28.72	289.41	64.51	-38.6	-40.3	22.4	0.00e+00	0	39	0	1991245824	49	4201
2026-01-10 02:15:29.81	288.21	64.48	-38.6	-40.3	22.3	0.00e+00	0	39	0	1997537280	49	4242
2026-01-10 02:15:30.85	287.08	64.43	-38.6	-40.3	22.4	0.00e+00	0	39	0	2003828736	49	4198
2026-01-10 02:15:31.84	286.00	64.38	-38.6	-40.3	22.4	0.00e+00	0	39	0	2009071616	49	4227
2026-01-10 02:15:32.84	284.92	64.33	-38.6	-40.3	22.4	0.00e+00	0	39	0	2014314496	49	4230
2026-01-10 02:15:33.84	283.85	64.26	-38.7	-40.4	22.3	0.00e+00	0	39	0	2020605952	49	4265
2026-01-10 02:15:34.85	282.77	64.19	-38.7	-40.4	22.3	0.00e+00	0	39	0	2025848832	49	4266
2026-01-10 02:15:35.85	281.70	64.10	-38.6	-40.3	22.4	0.00e+00	0	39	0	2031091712	49	4211
2026-01-10 02:15:36.85	280.65	64.01	-38.7	-40.4	22.3	0.00e+00	0	39	0	2037383168	49	4253
2026-01-10 02:15:37.86	279.59	63.91	-39.0	-40.7	22.0	0.00e+00	0	39	0	2042626048	49	4422
2026-01-10 02:15:38.86	278.56	63.81	-39.0	-40.8	22.0	0.00e+00	0	39	0	2048917504	49	4448
2026-01-10 02:15:39.86	277.53	63.70	-38.9	-40.6	22.1	0.00e+00	0	39	0	2054160384	49	4378
2026-01-10 02:15:40.87	276.50	63.58	-38.9	-40.6	22.1	0.00e+00	0	39	0	2060451840	49	4373
2026-01-10 02:15:41.87	275.50	63.45	-39.0	-40.7	22.1	0.00e+00	0	39	0	2065694720	49	4416
2026-01-10 02:15:42.87	274.50	63.31	-39.3	-41.0	21.7	0.00e+00	0	39	0	2070937600	49	4591
2026-01-10 02:15:43.87	273.52	63.17	-39.4	-41.2	21.6	0.00e+00	0	39	0	2077229056	49	4688
2026-01-10 02:15:44.97	272.45	63.01	-39.3	-41.1	21.7	0.00e+00	0	39	0	2083520512	49	4618
2026-01-10 02:15:45.86	271.60	62.87	-39.2	-41.0	21.8	0.00e+00	0	39	0	2087714816	49	4550
2026-01-10 02:15:46.91	270.60	62.70	-39.3	-41.1	21.7	0.00e+00	0	39	0	2094006272	49	4616
2026-01-10 02:15:47.79	269.78	62.56	-39.4	-41.1	21.6	0.00e+00	0	39	0	2099249152	49	4641
2026-01-10 02:15:48.93	268.73	62.36	-39.5	-41.2	21.6	0.00e+00	0	39	0	2105540608	49	4686
2026-01-10 02:15:49.79	267.95	62.21	-39.5	-41.3	21.5	0.00e+00	0	39	0	2109734912	49	4726
2026-01-10 02:15:50.94	266.92	62.00	-39.5	-41.3	21.5	0.00e+00	0	39	0	2116026368	49	4717
2026-01-10 02:15:51.80	266.17	61.83	-39.4	-41.1	21.7	0.00e+00	0	39	0	2121269248	49	4620
2026-01-10 02:15:52.95	265.17	61.61	-39.6	-41.4	21.4	0.00e+00	0	39	0	2127560704	49	4777
2026-01-10 02:15:53.81	264.44	61.44	-39.9	-41.7	21.2	0.00e+00	0	39	0	2132803584	50	4652
2026-01-10 02:15:55.00	263.44	61.19	-39.9	-41.7	21.2	0.00e+00	0	39	0	2139095040	50	4668
2026-01-10 02:15:55.86	262.73	61.01	-39.5	-41.2	21.6	0.00e+00	0	39	0	2144337920	50	4432
2026-01-10 02:15:57.01	261.80	60.77	-39.5	-41.2	21.6	0.00e+00	0	39	0	2150629376	50	4434
2026-01-10 02:15:57.87	261.11	60.58	-39.7	-41.5	21.4	0.00e+00	0	39	0	2155872256	50	4554
2026-01-10 02:15:59.01	260.22	60.33	-39.9	-41.7	21.2	0.00e+00	0	39	0	2162163712	50	4660
2026-01-10 02:15:59.87	259.55	60.13	-39.9	-41.7	21.2	0.00e+00	0	39	0	2166358016	50	4670
2026-01-10 02:16:01.01	258.69	59.87	-39.8	-41.6	21.3	0.00e+00	0	39	0	2173698048	50	4615
2026-01-10 02:16:01.87	258.05	59.67	-39.8	-41.5	21.3	0.00e+00	0	39	0	2177892352	50	4578
2026-01-10 02:16:03.02	257.22	59.40	-39.8	-41.6	21.3	0.00e+00	0	39	0	2184183808	50	4632
2026-01-10 02:16:03.88	256.60	59.19	-39.9	-41.6	21.2	0.00e+00	0	39	0	2189426688	50	4643
2026-01-10 02:16:05.02	255.80	58.91	-39.7	-41.4	21.4	0.00e+00	0	39	0	2195718144	50	4514
2026-01-10 02:16:05.88	255.20	58.70	-39.8	-41.5	21.3	0.00e+00	0	39	0	2200961024	50	4594
2026-01-10 02:16:07.03	254.43	58.42	-40.4	-42.2	20.7	0.00e+00	0	39	0	2207252480	51	4685
2026-01-10 02:16:07.89	253.86	58.20	-40.3	-42.1	20.8	0.00e+00	0	39	0	2211446784	51	4619
2026-01-10 02:16:09.04	253.11	57.91	-39.9	-41.7	21.2	0.00e+00	0	39	0	2218786816	51	4402
2026-01-10 02:16:09.90	252.56	57.69	-39.9	-41.6	21.3	0.00e+00	0	39	0	2222981120	51	4376
2026-01-10 02:16:11.04	251.84	57.39	-40.3	-42.1	20.9	0.00e+00	0	39	0	2229272576	51	4602
2026-01-10 02:16:11.90	251.31	57.17	-40.1	-41.9	21.0	0.00e+00	0	39	0	2234515456	51	4537
2026-01-10 02:16:13.05	250.62	56.87	-39.8	-41.6	21.3	0.00e+00	0	39	0	2240806912	51	4349
2026-01-10 02:16:13.91	250.11	56.64	-39.9	-41.7	21.2	0.00e+00	0	39	0	2246049792	51	4401
2026-01-10 02:16:15.05	249.45	56.34	-40.1	-41.8	21.1	0.00e+00	0	39	0	2252341248	51	4491
2026-01-10 02:16:15.91	248.96	56.11	-40.2	-41.9	21.0	0.00e+00	0	39	0	2256535552	51	4541
2026-01-10 02:16:17.05	248.32	55.80	-40.0	-41.8	21.1	0.00e+00	0	39	0	2262827008	51	4464
2026-01-10 02:16:17.91	247.85	55.57	-40.1	-41.9	21.0	0.00e+00	0	39	0	2268069888	51	4535
2026-01-10 02:16:19.06	247.23	55.25	-40.3	-42.1	20.8	0.00e+00	0	39	0	2274361344	51	4643
2026-01-10 02:16:19.92	246.78	55.02	-40.4	-42.2	20.8	0.00e+00	0	39	0	2279604224	51	4653
2026-01-10 02:16:21.06	246.19	54.71	-40.3	-42.1	20.8	0.00e+00	0	39	0	2285895680	51	4638
2026-01-10 02:16:21.92	245.75	54.47	-40.3	-42.1	20.8	0.00e+00	0	39	0	2291138560	51	4630
2026-01-10 02:16:23.07	245.18	54.16	-40.3	-42.1	20.9	0.00e+00	0	39	0	2297430016	51	4604
2026-01-10 02:16:23.92	244.76	53.92	-40.2	-42.0	20.9	0.00e+00	0	39	0	2302672896	51	4571
2026-01-10 02:16:25.07	244.21	53.60	-40.1	-41.9	21.0	0.00e+00	0	39	0	2308964352	51	4529
2026-01-10 02:16:26.10	243.73	53.32	-40.1	-41.8	21.1	0.00e+00	0	39	0	2314207232	51	4480
2026-01-10 02:16:27.28	243.19	52.99	-40.1	-41.9	21.1	0.00e+00	0	39	0	2320498688	51	4518
2026-01-10 02:16:28.17	242.79	52.74	-40.2	-42.0	21.0	0.00e+00	0	39	0	2325741568	51	4547
2026-01-10 02:16:29.31	242.29	52.43	-40.4	-42.2	20.8	0.00e+00	0	39	0	2332033024	51	4656
2026-01-10 02:16:30.17	241.91	52.19	-40.4	-42.1	20.8	0.00e+00	0	39	0	2337275904	51	4633
2026-01-10 02:16:31.31	241.43	51.87	-40.3	-42.1	20.9	0.00e+00	0	39	0	2343567360	51	4600
2026-01-10 02:16:32.32	241.01	51.59	-40.3	-42.1	20.9	0.00e+00	0	39	0	2349858816	51	4609
2026-01-10 02:16:33.49	240.53	51.26	-40.3	-42.1	20.8	0.00e+00	0	39	0	2356150272	51	4640
2026-01-10 02:16:34.35	240.19	51.03	-40.3	-42.1	20.8	0.00e+00	0	39	0	2360344576	51	4627
2026-01-10 02:16:35.50	239.73	50.71	-40.3	-42.1	20.8	0.00e+00	0	39	0	2366636032	51	4641
2026-01-10 02:16:36.36	239.40	50.47	-40.0	-41.8	21.1	0.00e+00	0	39	0	2371878912	51	4476
2026-01-10 02:16:37.50	238.97	50.15	-40.0	-41.7	21.1	0.00e+00	0	39	0	2378170368	51	4438
2026-01-10 02:16:38.36	238.65	49.91	-40.0	-41.8	21.1	0.00e+00	0	39	0	2383413248	51	4462
2026-01-10 02:16:39.51	238.23	49.59	-40.2	-42.0	20.9	0.00e+00	0	39	0	2389704704	51	4557
2026-01-10 02:16:40.37	237.92	49.36	-40.1	-41.9	21.0	0.00e+00	0	39	0	2394947584	51	4522
2026-01-10 02:16:41.52	237.52	49.04	-40.2	-42.0	21.0	0.00e+00	0	39	0	2401239040	51	4549
2026-01-10 02:16:42.38	237.22	48.80	-40.1	-41.8	21.0	0.00e+00	0	39	0	2405433344	51	4484
2026-01-10 02:16:43.54	236.83	48.49	-39.9	-41.6	21.2	0.00e+00	0	39	0	2412773376	51	4386
2026-01-10 02:16:44.40	236.54	48.25	-39.8	-41.6	21.2	0.00e+00	0	39	0	2416967680	51	4366
2026-01-10 02:16:45.61	236.14	47.92	-39.8	-41.6	21.2	0.00e+00	0	39	0	2424307712	51	4370
2026-01-10 02:16:46.47	235.87	47.69	-39.9	-41.6	21.2	0.00e+00	0	39	0	2428502016	51	4381
2026-01-10 02:16:47.62	235.50	47.37	-39.8	-41.6	21.3	0.00e+00	0	39	0	2435842048	51	4341
2026-01-10 02:16:48.48	235.24	47.14	-39.6	-41.3	21.5	0.00e+00	0	39	0	2440036352	51	4215
2026-01-10 02:16:49.62	234.89	46.83	-39.2	-40.9	21.9	0.00e+00	0	39	0	2446327808	50	4269
2026-01-10 02:16:50.48	234.63	46.60	-39.2	-40.9	21.8	0.00e+00	0	39	0	2451570688	50	4287
2026-01-10 02:16:51.62	234.30	46.30	-39.2	-41.0	21.8	0.00e+00	0	39	0	2457862144	50	4293
2026-01-10 02:16:52.49	234.05	46.06	-39.3	-41.0	21.7	0.00e+00	0	39	0	2463105024	50	4340
2026-01-10 02:16:53.63	233.72	45.76	-39.3	-41.0	21.7	0.00e+00	0	39	0	2469396480	50	4323
2026-01-10 02:16:54.67	233.43	45.48	-39.2	-41.0	21.8	0.00e+00	0	39	0	2474639360	50	4293
2026-01-10 02:16:55.66	233.16	45.22	-39.2	-41.0	21.8	0.00e+00	0	39	0	2480930816	50	4293
2026-01-10 02:16:56.87	232.83	44.90	-39.4	-41.1	21.7	0.00e+00	0	39	0	2487222272	50	4355
2026-01-10 02:16:57.73	232.60	44.68	-39.5	-41.2	21.5	0.00e+00	0	39	0	2492465152	50	4416
2026-01-10 02:16:59.10	232.25	44.32	-39.5	-41.3	21.5	0.00e+00	0	39	0	2499805184	50	4474
2026-01-10 02:16:59.81	232.07	44.14	-39.6	-41.4	21.4	0.00e+00	0	39	0	2503999488	50	4510
2026-01-10 02:17:01.11	231.74	43.80	-39.5	-41.3	21.5	0.00e+00	0	39	0	2511339520	50	4447
2026-01-10 02:17:01.82	231.56	43.62	-39.4	-41.2	21.6	0.00e+00	0	39	0	2515533824	50	4399
2026-01-10 02:17:03.11	231.25	43.29	-39.3	-41.0	21.7	0.00e+00	0	39	0	2522873856	50	4332
2026-01-10 02:17:03.83	231.08	43.10	-39.2	-41.0	21.8	0.00e+00	0	39	0	2527068160	50	4298
2026-01-10 02:17:05.12	230.77	42.77	-39.1	-40.9	21.9	0.00e+00	0	39	0	2534408192	50	4246
2026-01-10 02:17:05.83	230.61	42.59	-39.1	-40.8	21.9	0.00e+00	0	39	0	2537553920	50	4222
2026-01-10 02:17:07.12	230.32	42.27	-39.1	-40.9	21.9	0.00e+00	0	39	0	2544893952	50	4253
2026-01-10 02:17:07.84	230.15	42.09	-39.3	-41.0	21.7	0.00e+00	0	39	0	2549088256	50	4319
2026-01-10 02:17:09.14	229.87	41.77	-39.3	-41.1	21.7	0.00e+00	0	39	0	2556428288	50	4361
2026-01-10 02:17:09.85	229.71	41.59	-39.3	-41.1	21.7	0.00e+00	0	39	0	2560622592	50	4358
2026-01-10 02:17:11.15	229.43	41.27	-39.4	-41.2	21.6	0.00e+00	0	39	0	2567962624	50	4408
2026-01-10 02:17:12.21	229.21	41.01	-39.4	-41.2	21.6	0.00e+00	0	39	0	2574254080	50	4406
2026-01-10 02:17:13.07	229.03	40.80	-39.2	-41.0	21.7	0.00e+00	0	39	0	2578448384	50	4295
2026-01-10 02:17:14.22	228.80	40.52	-39.2	-40.9	21.8	0.00e+00	0	39	0	2584739840	50	4273
2026-01-10 02:17:15.08	228.62	40.31	-39.2	-41.0	21.7	0.00e+00	0	39	0	2589982720	50	4309
2026-01-10 02:17:16.31	228.38	40.01	-39.3	-41.0	21.7	0.00e+00	0	39	0	2596274176	50	4297
2026-01-10 02:17:17.17	228.21	39.81	-39.3	-41.0	21.7	0.00e+00	0	39	0	2601517056	50	4320
2026-01-10 02:17:18.31	227.99	39.54	-39.3	-41.0	21.6	0.00e+00	0	39	0	2607808512	50	4337
2026-01-10 02:17:19.17	227.83	39.33	-39.3	-41.1	21.6	0.00e+00	0	39	0	2613051392	50	4341
2026-01-10 02:17:20.44	227.59	39.03	-39.4	-41.2	21.5	0.00e+00	0	39	0	2620391424	50	4397
2026-01-10 02:17:21.17	227.46	38.86	-39.3	-41.1	21.6	0.00e+00	0	39	0	2624585728	50	4350
2026-01-10 02:17:22.65	227.19	38.52	-39.2	-41.0	21.7	0.00e+00	0	39	0	2631925760	50	4300
2026-01-10 02:17:23.37	227.06	38.35	-39.1	-40.8	21.8	0.00e+00	0	39	0	2636120064	50	4229
2026-01-10 02:17:24.66	226.84	38.05	-39.1	-40.9	21.8	0.00e+00	0	39	0	2643460096	50	4247
2026-01-10 02:17:25.38	226.71	37.89	-39.1	-40.8	21.8	0.00e+00	0	39	0	2647654400	50	4212
2026-01-10 02:17:26.79	226.47	37.57	-39.1	-40.8	21.8	0.00e+00	0	39	0	2656043008	50	4222
2026-01-10 02:17:27.51	226.35	37.41	-39.1	-40.9	21.7	0.00e+00	0	39	0	2660237312	50	4265
2026-01-10 02:17:28.86	226.13	37.10	-39.3	-41.1	21.6	0.00e+00	0	39	0	2667577344	50	4358
2026-01-10 02:17:29.58	226.01	36.94	-39.3	-41.1	21.5	0.00e+00	0	39	0	2671771648	50	4377
2026-01-10 02:17:30.86	225.81	36.66	-39.3	-41.1	21.5	0.00e+00	0	39	0	2679111680	50	4374
2026-01-10 02:17:31.57	225.69	36.50	-39.4	-41.1	21.5	0.00e+00	0	39	0	2682257408	50	4385
2026-01-10 02:17:32.86	225.49	36.22	-39.4	-41.1	21.5	0.00e+00	0	39	0	2689597440	50	4384
2026-01-10 02:17:33.58	225.38	36.06	-39.4	-41.1	21.5	0.00e+00	0	39	0	2693791744	50	4369
2026-01-10 02:17:34.87	225.19	35.78	-39.2	-40.9	21.6	0.00e+00	0	39	0	2701131776	50	4284
2026-01-10 02:17:35.59	225.08	35.62	-39.2	-41.0	21.6	0.00e+00	0	39	0	2705326080	50	4299
2026-01-10 02:17:36.87	224.89	35.35	-39.2	-41.0	21.6	0.00e+00	0	39	0	2712666112	50	4313
2026-01-10 02:17:37.59	224.78	35.19	-39.2	-41.0	21.6	0.00e+00	0	39	0	2716860416	50	4306
2026-01-10 02:17:39.25	224.54	34.84	-39.2	-41.0	21.6	0.00e+00	0	39	0	2725249024	50	4308
2026-01-10 02:17:39.83	224.46	34.72	-39.3	-41.0	21.6	0.00e+00	0	39	0	2729443328	50	4323
2026-01-10 02:17:41.40	224.24	34.39	-39.1	-40.9	21.7	0.00e+00	0	39	0	2737831936	50	4251
2026-01-10 02:17:41.99	224.16	34.27	-39.2	-40.9	21.7	0.00e+00	0	39	0	2740977664	50	4289
2026-01-10 02:17:43.57	223.95	33.94	-39.4	-41.1	21.5	0.00e+00	0	39	0	2750414848	50	4352
2026-01-10 02:17:44.16	223.87	33.82	-39.3	-41.1	21.6	0.00e+00	0	39	0	2753560576	50	4361
2026-01-10 02:17:45.76	223.66	33.49	-39.6	-41.4	21.3	0.00e+00	0	39	0	2762997760	50	4497
2026-01-10 02:17:46.34	223.58	33.37	-39.7	-41.5	21.2	0.00e+00	0	39	0	2766143488	50	4595
2026-01-10 02:17:47.94	223.38	33.05	-39.7	-41.5	21.2	0.00e+00	0	39	0	2774532096	50	4553
2026-01-10 02:17:48.52	223.30	32.93	-39.7	-41.5	21.2	0.00e+00	0	39	0	2777677824	50	4567
2026-01-10 02:17:50.10	223.10	32.62	-39.6	-41.4	21.3	0.00e+00	0	39	0	2787115008	50	4497
2026-01-10 02:17:50.70	223.03	32.50	-39.5	-41.3	21.4	0.00e+00	0	39	0	2790260736	50	4443
2026-01-10 02:17:52.28	222.84	32.19	-39.3	-41.1	21.6	0.00e+00	0	39	0	2798649344	50	4343
2026-01-10 02:17:53.10	222.74	32.03	-39.3	-41.0	21.6	0.00e+00	0	39	0	2803892224	50	4335
2026-01-10 02:17:54.25	222.60	31.81	-39.3	-41.0	21.6	0.00e+00	0	39	0	2810183680	50	4320
2026-01-10 02:17:55.11	222.50	31.64	-39.3	-41.0	21.7	0.00e+00	0	39	0	2815426560	50	4319
2026-01-10 02:17:56.25	222.37	31.42	-39.3	-41.0	21.6	0.00e+00	0	39	0	2821718016	50	4337
2026-01-10 02:17:57.11	222.27	31.26	-39.4	-41.1	21.5	0.00e+00	0	39	0	2825912320	50	4383
2026-01-10 02:17:58.26	222.14	31.04	-39.4	-41.1	21.5	0.00e+00	0	39	0	2833252352	50	4388
2026-01-10 02:17:59.12	222.05	30.88	-39.4	-41.1	21.5	0.00e+00	0	39	0	2837446656	50	4380
2026-01-10 02:18:00.26	221.92	30.66	-39.4	-41.1	21.5	0.00e+00	0	39	0	2843738112	50	4386
2026-01-10 02:18:01.12	221.83	30.50	-39.4	-41.2	21.5	0.00e+00	0	39	0	2848980992	50	4403
2026-01-10 02:18:02.27	221.71	30.29	-39.5	-41.3	21.4	0.00e+00	0	39	0	2855272448	50	4451
2026-01-10 02:18:03.13	221.61	30.13	-39.6	-41.4	21.3	0.00e+00	0	39	0	2860515328	50	4520
2026-01-10 02:18:04.52	221.47	29.87	-39.6	-41.4	21.2	0.00e+00	0	39	0	2867855360	50	4533
2026-01-10 02:18:05.23	221.39	29.75	-39.6	-41.4	21.3	0.00e+00	0	39	0	2872049664	50	4519
2026-01-10 02:18:06.76	221.24	29.47	-39.7	-41.5	21.2	0.00e+00	0	39	0	2880438272	50	4557
2026-01-10 02:18:07.47	221.17	29.34	-39.7	-41.5	21.2	0.00e+00	0	39	0	2884632576	50	4586
2026-01-10 02:18:08.77	221.04	29.11	-39.7	-41.5	21.2	0.00e+00	0	39	0	2891972608	50	4554
2026-01-10 02:18:09.48	220.97	28.98	-39.7	-41.5	21.2	0.00e+00	0	39	0	2896166912	50	4588
2026-01-10 02:18:10.77	220.84	28.75	-39.7	-41.5	21.2	0.00e+00	0	39	0	2903506944	50	4560
2026-01-10 02:18:11.49	220.77	28.63	-39.7	-41.4	21.2	0.00e+00	0	39	0	2906652672	50	4539
2026-01-10 02:18:12.77	220.65	28.40	-39.8	-41.6	21.1	0.00e+00	0	39	0	2913992704	50	4622
2026-01-10 02:18:13.49	220.58	28.28	-39.7	-41.5	21.2	0.00e+00	0	39	0	2918187008	50	4562
2026-01-10 02:18:14.78	220.46	28.06	-39.8	-41.5	21.2	0.00e+00	0	39	0	2925527040	50	4589
2026-01-10 02:18:15.61	220.38	27.91	-39.8	-41.6	21.1	0.00e+00	0	39	0	2929721344	50	4619
2026-01-10 02:18:16.75	220.28	27.72	-39.8	-41.6	21.1	0.00e+00	0	39	0	2937061376	50	4610
2026-01-10 02:18:17.62	220.20	27.57	-39.8	-41.5	21.1	0.00e+00	0	39	0	2941255680	50	4592
2026-01-10 02:18:18.76	220.10	27.38	-39.7	-41.4	21.2	0.00e+00	0	39	0	2948595712	50	4535
2026-01-10 02:18:19.62	220.02	27.24	-39.7	-41.4	21.2	0.00e+00	0	39	0	2952790016	50	4539
2026-01-10 02:18:20.77	219.92	27.04	-39.7	-41.4	21.3	0.00e+00	0	39	0	2959081472	50	4532
2026-01-10 02:18:21.62	219.85	26.90	-39.7	-41.5	21.2	0.00e+00	0	39	0	2964324352	50	4551
2026-01-10 02:18:22.77	219.75	26.71	-39.7	-41.5	21.2	0.00e+00	0	39	0	2970615808	50	4549
2026-01-10 02:18:23.63	219.68	26.57	-39.7	-41.5	21.2	0.00e+00	0	39	0	2975858688	50	4550
2026-01-10 02:18:24.77	219.58	26.39	-39.8	-41.5	21.1	0.00e+00	0	39	0	2982150144	50	4586
2026-01-10 02:18:25.64	219.51	26.25	-39.8	-41.6	21.1	0.00e+00	0	39	0	2986344448	50	4615
2026-01-10 02:18:26.91	219.41	26.04	-39.8	-41.5	21.1	0.00e+00	0	39	0	2993684480	50	4594
2026-01-10 02:18:27.62	219.35	25.93	-39.8	-41.6	21.1	0.00e+00	0	39	0	2997878784	50	4611
2026-01-10 02:18:28.91	219.25	25.72	-39.9	-41.7	21.0	0.00e+00	0	39	0	3005218816	50	4659
2026-01-10 02:18:29.63	219.19	25.61	-40.0	-41.8	20.9	0.00e+00	0	39	0	3009413120	50	4716
2026-01-10 02:18:31.19	219.07	25.36	-39.9	-41.7	21.0	0.00e+00	0	39	0	3017801728	50	4658
2026-01-10 02:18:31.90	219.01	25.25	-39.8	-41.6	21.0	0.00e+00	0	39	0	3021996032	50	4641
2026-01-10 02:18:33.19	218.91	25.05	-39.8	-41.6	21.0	0.00e+00	0	39	0	3029336064	50	4633
2026-01-10 02:18:33.90	218.86	24.94	-39.8	-41.6	21.0	0.00e+00	0	39	0	3033530368	50	4627
2026-01-10 02:18:35.19	218.76	24.74	-39.9	-41.7	21.0	0.00e+00	0	39	0	3040870400	50	4677
2026-01-10 02:18:35.91	218.71	24.63	-39.9	-41.6	21.0	0.00e+00	0	39	0	3045064704	50	4643
2026-01-10 02:18:37.19	218.61	24.44	-39.9	-41.7	21.0	0.00e+00	0	39	0	3051356160	50	4667
2026-01-10 02:18:37.91	218.56	24.33	-39.8	-41.6	21.0	0.00e+00	0	39	0	3055550464	50	4641
2026-01-10 02:18:39.20	218.47	24.13	-39.9	-41.7	21.0	0.00e+00	0	39	0	3062890496	50	4655
2026-01-10 02:18:39.92	218.42	24.03	-39.9	-41.7	21.0	0.00e+00	0	39	0	3067084800	50	4668
2026-01-10 02:18:41.21	218.32	23.83	-39.9	-41.7	21.0	0.00e+00	0	39	0	3074424832	50	4694
2026-01-10 02:18:41.97	218.27	23.72	-39.9	-41.7	20.9	0.00e+00	0	40	0	3078619136	50	4700
2026-01-10 02:18:43.26	218.18	23.53	-40.1	-41.9	20.8	0.00e+00	0	39	0	3085959168	50	4771
2026-01-10 02:18:43.98	218.13	23.43	-40.1	-41.9	20.8	0.00e+00	0	40	0	3090153472	50	4804
2026-01-10 02:18:45.26	218.04	23.24	-40.1	-41.9	20.8	0.00e+00	0	39	0	3097493504	50	4782
2026-01-10 02:18:45.98	218.00	23.13	-40.1	-41.9	20.8	0.00e+00	0	39	0	3101687808	50	4800
2026-01-10 02:18:47.27	217.91	22.95	-40.1	-42.0	20.7	0.00e+00	0	39	0	3107979264	51	4555
2026-01-10 02:18:47.99	217.86	22.85	-40.2	-42.0	20.7	0.00e+00	0	39	0	3112173568	51	4588
2026-01-10 02:18:49.28	217.78	22.66	-40.2	-42.0	20.7	0.00e+00	0	39	0	3119513600	51	4580
2026-01-10 02:18:49.99	217.73	22.56	-40.2	-42.0	20.7	0.00e+00	0	39	0	3123707904	51	4575
2026-01-10 02:18:51.28	217.65	22.38	-40.2	-42.0	20.7	0.00e+00	0	39	0	3131047936	51	4581
2026-01-10 02:18:52.00	217.60	22.28	-40.2	-42.0	20.7	0.00e+00	0	39	0	3135242240	51	4596
2026-01-10 02:18:53.29	217.52	22.10	-40.2	-42.1	20.6	0.00e+00	0	39	0	3142582272	51	4602
2026-01-10 02:18:54.01	217.48	22.00	-40.2	-42.0	20.6	0.00e+00	0	39	0	3145728000	51	4578
2026-01-10 02:18:55.29	217.40	21.82	-40.3	-42.1	20.6	0.00e+00	0	39	0	3153068032	51	4626
2026-01-10 02:18:56.08	217.35	21.71	-40.4	-42.2	20.5	0.00e+00	0	39	0	3158310912	51	4663
2026-01-10 02:18:57.68	217.25	21.49	-40.3	-42.1	20.6	0.00e+00	0	39	0	3166699520	51	4626
2026-01-10 02:18:58.26	217.22	21.41	-40.3	-42.1	20.6	0.00e+00	0	39	0	3169845248	51	4625
2026-01-10 02:19:00.04	217.11	21.17	-40.5	-42.3	20.4	0.00e+00	0	39	0	3180331008	51	4708
2026-01-10 02:19:00.62	217.08	21.09	-40.4	-42.2	20.5	0.00e+00	0	39	0	3183476736	51	4696
2026-01-10 02:19:02.19	216.99	20.89	-40.5	-42.3	20.4	0.00e+00	0	39	0	3191865344	51	4737
2026-01-10 02:19:02.78	216.95	20.81	-40.6	-42.4	20.4	0.00e+00	0	39	0	3196059648	51	4769
2026-01-10 02:19:04.36	216.86	20.60	-40.6	-42.4	20.2	0.00e+00	0	39	0	3204448256	52	4533
2026-01-10 02:19:04.95	216.83	20.52	-40.6	-42.4	20.2	0.00e+00	0	39	0	3207593984	52	4537
2026-01-10 02:19:06.52	216.74	20.32	-40.7	-42.5	20.1	0.00e+00	0	39	0	3217031168	52	4598
2026-01-10 02:19:07.09	216.71	20.24	-40.8	-42.6	20.0	0.00e+00	0	39	0	3220176896	52	4646
2026-01-10 02:19:08.67	216.62	20.04	-40.8	-42.6	20.0	0.00e+00	0	39	0	3228565504	52	4635
2026-01-10 02:19:09.26	216.59	19.96	-40.8	-42.7	20.0	0.00e+00	0	39	0	3231711232	52	4659
2026-01-10 02:19:10.98	216.50	19.74	-40.9	-42.8	19.9	0.00e+00	0	39	0	3242196992	52	4743
2026-01-10 02:19:11.55	216.47	19.67	-41.0	-42.9	19.8	0.00e+00	0	39	0	3245342720	52	4787
2026-01-10 02:19:13.13	216.38	19.47	-41.0	-42.9	19.8	0.00e+00	0	39	0	3253731328	52	4784
2026-01-10 02:19:13.73	216.35	19.39	-40.9	-42.8	19.9	0.00e+00	0	39	0	3256877056	52	4745
2026-01-10 02:19:15.31	216.27	19.20	-41.0	-42.9	19.8	0.00e+00	0	39	0	3266314240	52	4794
2026-01-10 02:19:15.88	216.24	19.12	-41.1	-43.0	19.7	0.00e+00	0	40	0	3269459968	52	4834
2026-01-10 02:19:17.47	216.16	18.93	-41.0	-42.9	19.8	0.00e+00	0	39	0	3277848576	52	4781
2026-01-10 02:19:18.04	216.13	18.86	-41.0	-42.9	19.8	0.00e+00	0	39	0	3280994304	52	4772
2026-01-10 02:19:19.64	216.05	18.66	-41.0	-42.9	19.7	0.00e+00	0	39	0	3290431488	52	4812
2026-01-10 02:19:20.35	216.01	18.57	-41.0	-42.9	19.8	0.00e+00	0	39	0	3294625792	52	4777
2026-01-10 02:19:21.64	215.95	18.42	-40.9	-42.8	19.8	0.00e+00	0	39	0	3301965824	52	4750
2026-01-10 02:19:22.36	215.92	18.33	-40.9	-42.8	19.9	0.00e+00	0	39	0	3306160128	52	4738
2026-01-10 02:19:23.65	215.85	18.18	-40.9	-42.8	19.9	0.00e+00	0	40	0	3312451584	52	4726
2026-01-10 02:19:24.36	215.82	18.09	-41.0	-42.8	19.8	0.00e+00	0	40	0	3316645888	52	4755
2026-01-10 02:19:25.66	215.76	17.94	-40.9	-42.7	19.9	0.00e+00	0	39	0	3323985920	52	4701
2026-01-10 02:19:26.37	215.73	17.85	-40.9	-42.8	19.9	0.00e+00	0	40	0	3328180224	52	4709
2026-01-10 02:19:27.66	215.66	17.70	-40.9	-42.7	19.9	0.00e+00	0	39	0	3335520256	52	4680
2026-01-10 02:19:28.38	215.63	17.62	-40.9	-42.7	19.9	0.00e+00	0	40	0	3339714560	52	4696
2026-01-10 02:19:29.67	215.57	17.46	-40.8	-42.6	20.0	0.00e+00	0	39	0	3347054592	52	4645
2026-01-10 02:19:30.39	215.54	17.38	-40.8	-42.7	20.0	0.00e+00	0	39	0	3351248896	52	4662
2026-01-10 02:19:31.68	215.48	17.23	-40.9	-42.7	19.9	0.00e+00	0	40	0	3358588928	52	4700
2026-01-10 02:19:32.48	215.45	17.14	-40.9	-42.7	19.9	0.00e+00	0	40	0	3362783232	52	4691
2026-01-10 02:19:33.62	215.39	17.01	-40.9	-42.7	19.9	0.00e+00	0	39	0	3369074688	52	4697
2026-01-10 02:19:34.48	215.36	16.91	-40.9	-42.8	19.9	0.00e+00	0	39	0	3374317568	52	4710
2026-01-10 02:19:35.63	215.31	16.78	-41.0	-42.8	19.8	0.00e+00	0	40	0	3380609024	52	4747
2026-01-10 02:19:36.74	215.26	16.65	-41.0	-42.9	19.8	0.00e+00	0	39	0	3386900480	52	4763
2026-01-10 02:19:37.60	215.22	16.56	-41.0	-42.9	19.7	0.00e+00	0	39	0	3391094784	52	4769
2026-01-10 02:19:39.12	215.16	16.39	-41.2	-43.1	19.6	0.00e+00	0	39	0	3400531968	53	4608
2026-01-10 02:19:39.83	215.13	16.31	-41.3	-43.2	19.5	0.00e+00	0	39	0	3403677696	53	4684
2026-01-10 02:19:41.13	215.07	16.16	-41.4	-43.3	19.4	0.00e+00	0	40	0	3411017728	53	4713
2026-01-10 02:19:41.84	215.04	16.08	-41.3	-43.2	19.4	0.00e+00	0	39	0	3415212032	53	4676
2026-01-10 02:19:43.13	214.99	15.94	-41.4	-43.3	19.4	0.00e+00	0	40	0	3422552064	53	4707
2026-01-10 02:19:43.85	214.96	15.86	-41.4	-43.3	19.3	0.00e+00	0	40	0	3426746368	53	4752
2026-01-10 02:19:45.14	214.91	15.72	-41.6	-43.5	19.1	0.00e+00	0	39	0	3434086400	53	4852
2026-01-10 02:19:46.00	214.87	15.63	-41.6	-43.5	19.1	0.00e+00	0	40	0	3438280704	54	4592
2026-01-10 02:19:47.14	214.83	15.51	-41.6	-43.5	19.2	0.00e+00	0	39	0	3445620736	54	4569
2026-01-10 02:19:48.21	214.78	15.39	-41.7	-43.7	19.0	0.00e+00	0	40	0	3450863616	54	4653
2026-01-10 02:19:49.24	214.74	15.28	-41.8	-43.7	19.0	0.00e+00	0	39	0	3457155072	54	4680
2026-01-10 02:19:50.24	214.71	15.17	-41.8	-43.8	18.9	0.00e+00	0	40	0	3462397952	54	4730
2026-01-10 02:19:51.24	214.67	15.07	-41.8	-43.8	18.9	0.00e+00	0	39	0	3468689408	54	4729
2026-01-10 02:19:52.24	214.63	14.96	-41.9	-43.9	18.8	0.00e+00	0	39	0	3473932288	54	4782
2026-01-10 02:19:53.25	214.59	14.86	-42.0	-43.9	18.7	0.00e+00	0	39	0	3479175168	54	4812
2026-01-10 02:19:54.54	214.54	14.72	-42.0	-44.0	18.7	0.00e+00	0	39	0	3486515200	54	4858
2026-01-10 02:19:55.25	214.51	14.65	-42.0	-44.0	18.6	0.00e+00	0	39	0	3490709504	54	4862
2026-01-10 02:19:56.54	214.47	14.51	-42.1	-44.1	18.6	0.00e+00	0	39	0	3498049536	54	4886
2026-01-10 02:19:57.26	214.44	14.44	-42.1	-44.1	18.5	0.00e+00	0	39	0	3502243840	54	4917
2026-01-10 02:19:58.55	214.39	14.31	-42.2	-44.2	18.5	0.00e+00	0	39	0	3509583872	55	4687
2026-01-10 02:19:59.27	214.37	14.23	-42.3	-44.3	18.4	0.00e+00	0	40	0	3513778176	55	4727
2026-01-10 02:20:00.55	214.32	14.10	-42.2	-44.3	18.4	0.00e+00	0	40	0	3520069632	55	4707
2026-01-10 02:20:01.27	214.29	14.03	-42.2	-44.2	18.4	0.00e+00	0	40	0	3524263936	55	4697
2026-01-10 02:20:02.56	214.25	13.90	-42.4	-44.5	18.2	0.00e+00	0	39	0	3531603968	55	4820
2026-01-10 02:20:03.28	214.22	13.82	-42.3	-44.3	18.3	0.00e+00	0	39	0	3535798272	55	4758
2026-01-10 02:20:04.57	214.18	13.69	-42.5	-44.5	18.1	0.00e+00	0	39	0	3543138304	55	4866
2026-01-10 02:20:05.28	214.15	13.62	-42.5	-44.6	18.1	0.00e+00	0	39	0	3547332608	55	4878
2026-01-10 02:20:06.57	214.11	13.49	-42.6	-44.7	18.0	0.00e+00	0	40	0	3554672640	55	4941
2026-01-10 02:20:07.29	214.08	13.42	-42.5	-44.5	18.1	0.00e+00	0	39	0	3558866944	55	4866
2026-01-10 02:20:08.58	214.04	13.30	-42.6	-44.7	18.0	0.00e+00	0	39	0	3566206976	55	4934
2026-01-10 02:20:09.29	214.01	13.23	-42.8	-44.8	18.0	0.00e+00	0	40	0	3569352704	56	4757
2026-01-10 02:20:10.59	213.97	13.10	-42.8	-44.9	18.0	0.00e+00	0	40	0	3576692736	56	4761
2026-01-10 02:20:11.30	213.95	13.03	-42.7	-44.8	18.1	0.00e+00	0	39	0	3580887040	56	4709
2026-01-10 02:20:12.59	213.90	12.90	-42.8	-44.9	17.9	0.00e+00	0	40	0	3588227072	56	4793
2026-01-10 02:20:13.52	213.87	12.81	-42.9	-45.0	17.9	0.00e+00	0	40	0	3593469952	56	4824
2026-01-10 02:20:14.52	213.84	12.72	-42.9	-45.0	17.8	0.00e+00	0	40	0	3599761408	56	4852
2026-01-10 02:20:15.52	213.81	12.62	-43.1	-45.2	17.7	0.00e+00	0	39	0	3605004288	56	4932
2026-01-10 02:20:16.53	213.78	12.52	-43.2	-45.3	17.6	0.00e+00	0	40	0	3610247168	57	4725
2026-01-10 02:20:17.53	213.74	12.43	-43.1	-45.3	17.6	0.00e+00	0	39	0	3616538624	57	4708
2026-01-10 02:20:18.53	213.71	12.33	-43.0	-45.1	17.7	0.00e+00	0	40	0	3621781504	57	4619
2026-01-10 02:20:19.53	213.68	12.24	-43.0	-45.1	17.7	0.00e+00	0	39	0	3627024384	57	4613
2026-01-10 02:20:20.54	213.65	12.14	-43.1	-45.2	17.6	0.00e+00	0	40	0	3633315840	57	4701
2026-01-10 02:20:21.54	213.62	12.05	-43.1	-45.2	17.6	0.00e+00	0	39	0	3638558720	57	4675
2026-01-10 02:20:22.54	213.59	11.95	-43.1	-45.2	17.6	0.00e+00	0	40	0	3643801600	57	4699
2026-01-10 02:20:23.54	213.56	11.86	-43.2	-45.4	17.4	0.00e+00	0	39	0	3650093056	57	4760
2026-01-10 02:20:24.54	213.53	11.77	-43.2	-45.3	17.5	0.00e+00	0	39	0	3655335936	57	4719
2026-01-10 02:20:25.55	213.50	11.67	-43.1	-45.2	17.6	0.00e+00	0	40	0	3661627392	57	4702
2026-01-10 02:20:26.55	213.47	11.58	-43.1	-45.3	17.5	0.00e+00	0	40	0	3666870272	57	4714
2026-01-10 02:20:27.56	213.44	11.49	-43.2	-45.4	17.4	0.00e+00	0	39	0	3672113152	57	4784
2026-01-10 02:20:28.56	213.41	11.40	-43.2	-45.3	17.4	0.00e+00	0	39	0	3678404608	57	4759
2026-01-10 02:20:29.56	213.38	11.31	-43.3	-45.5	17.3	0.00e+00	0	39	0	3683647488	57	4818
2026-01-10 02:20:30.56	213.35	11.22	-43.3	-45.5	17.3	0.00e+00	0	39	0	3689938944	57	4848
2026-01-10 02:20:31.57	213.32	11.12	-43.2	-45.4	17.4	0.00e+00	0	39	0	3695181824	57	4767
2026-01-10 02:20:32.57	213.29	11.03	-43.3	-45.5	17.3	0.00e+00	0	40	0	3700424704	57	4815
2026-01-10 02:20:33.57	213.26	10.94	-43.4	-45.5	17.3	0.00e+00	0	40	0	3706716160	57	4852
2026-01-10 02:20:34.58	213.23	10.85	-43.3	-45.5	17.3	0.00e+00	0	39	0	3711959040	57	4834
2026-01-10 02:20:35.58	213.20	10.76	-43.4	-45.6	17.2	0.00e+00	0	40	0	3717201920	57	4910
2026-01-10 02:20:36.58	213.18	10.67	-43.4	-45.6	17.2	0.00e+00	0	39	0	3723493376	57	4878
2026-01-10 02:20:37.58	213.15	10.59	-43.3	-45.4	17.3	0.00e+00	0	39	0	3728736256	57	4803
2026-01-10 02:20:38.58	213.12	10.50	-43.4	-45.6	17.2	0.00e+00	0	40	0	3735027712	57	4872
2026-01-10 02:20:39.58	213.09	10.41	-43.3	-45.5	17.2	0.00e+00	0	39	0	3740270592	57	4850
2026-01-10 02:20:40.59	213.07	10.32	-43.3	-45.5	17.3	0.00e+00	0	40	0	3745513472	57	4824
