passes_logs/2026/01/10/T1/T1__20260110_115928_FENGYUN_3D_rec.log

#Pass ID: 20260110_115928_FENGYUN 3D
#Satellite: FENGYUN 3D
#Configuration: FENGYUN 3D
#almurnet v.1.7.20251203
#Start time: 2026-01-10 11:59:27

#Version: 2.0.20230620
#Station: T1
#Location: 37.570604 lon 55.790049 lat
#TLE: 1 43010U 17072A   26009.92921666 -.00000228  00000+0 -86059-4 0  9998
#TLE: 2 43010  98.9936 341.6668 0002176 116.7510 243.3888 14.19693142422537

#Time	Az	El	Level	Level2	SNR	BER	BlckErr	Temp	State	Recorded	gain1	gain2
2026-01-10 11:59:27.70	160.99	4.98	-50.3	-62.4	3.8	8.48e-01	0	41	0	0	72	14327
2026-01-10 11:59:28.70	160.99	5.05	-50.2	-62.2	3.8	8.48e-01	0	41	104	0	72	13964
2026-01-10 11:59:29.70	161.00	5.12	-50.2	-62.2	3.8	8.47e-01	0	41	104	0	72	13954
2026-01-10 11:59:30.71	161.00	5.20	-50.2	-62.2	3.8	8.47e-01	0	41	104	0	72	13914
2026-01-10 11:59:31.71	161.00	5.27	-50.2	-62.2	3.8	8.46e-01	0	41	104	0	72	13982
2026-01-10 11:59:32.71	161.01	5.34	-50.2	-62.2	3.8	8.46e-01	0	41	104	0	72	14022
2026-01-10 11:59:33.72	161.01	5.41	-50.2	-62.3	3.8	8.46e-01	0	41	104	0	72	14072
2026-01-10 11:59:34.72	161.01	5.49	-50.2	-62.3	3.8	8.48e-01	0	41	104	0	72	14105
2026-01-10 11:59:35.72	161.02	5.56	-50.2	-62.3	3.8	8.47e-01	0	41	104	0	72	14154
2026-01-10 11:59:36.73	161.02	5.63	-50.2	-62.3	3.8	8.47e-01	0	41	104	0	72	14167
2026-01-10 11:59:37.73	161.03	5.71	-50.2	-62.3	3.8	8.47e-01	0	41	104	0	72	14115
2026-01-10 11:59:38.74	161.03	5.78	-50.2	-62.2	3.8	8.46e-01	0	41	104	0	72	14041
2026-01-10 11:59:39.74	161.03	5.86	-50.2	-62.1	3.8	8.47e-01	0	41	104	0	72	13778
2026-01-10 11:59:40.75	161.04	5.93	-50.1	-61.9	3.8	8.46e-01	0	41	104	0	72	13523
2026-01-10 11:59:41.75	161.04	6.01	-50.1	-61.6	3.8	8.46e-01	0	41	104	0	72	12981
2026-01-10 11:59:42.76	161.04	6.08	-50.1	-61.4	3.8	8.47e-01	0	42	104	0	72	12668
2026-01-10 11:59:43.76	161.05	6.16	-50.0	-61.0	3.8	8.46e-01	0	42	104	0	72	12123
2026-01-10 11:59:44.77	161.05	6.23	-50.0	-60.6	3.8	8.45e-01	0	41	104	0	71	12345
2026-01-10 11:59:45.77	161.06	6.31	-50.0	-60.3	3.9	8.45e-01	0	42	104	0	71	11840
2026-01-10 11:59:46.77	161.06	6.38	-49.9	-59.6	4.0	8.44e-01	0	42	104	0	71	10947
2026-01-10 11:59:47.78	161.06	6.46	-49.8	-58.9	4.2	8.39e-01	0	42	0	0	71	10164
2026-01-10 11:59:48.78	161.07	6.54	-49.7	-58.3	4.4	8.34e-01	0	42	0	0	71	9431
2026-01-10 11:59:49.79	161.07	6.61	-49.5	-57.5	4.7	8.10e-01	0	42	0	0	71	8600
2026-01-10 11:59:50.79	161.07	6.69	-49.3	-56.8	5.0	7.85e-01	0	42	0	0	70	8403
2026-01-10 11:59:51.80	161.08	6.77	-49.1	-55.9	5.6	7.06e-01	0	42	0	0	70	7626
2026-01-10 11:59:52.80	161.08	6.84	-48.8	-55.1	6.1	3.79e-01	0	42	0	4194304	69	7352
2026-01-10 11:59:53.80	161.09	6.92	-48.5	-54.3	6.8	1.95e-01	0	42	0	10485760	69	6702
2026-01-10 11:59:54.81	161.09	7.00	-48.2	-53.5	7.6	1.36e-01	0	42	0	15728640	68	6424
2026-01-10 11:59:55.81	161.09	7.08	-48.0	-52.9	8.2	7.60e-02	0	42	0	22020096	68	6052
2026-01-10 11:59:56.81	161.10	7.15	-47.4	-51.9	9.0	3.47e-02	0	42	0	27262976	66	6008
2026-01-10 11:59:57.82	161.10	7.23	-47.1	-51.4	9.5	2.18e-02	0	42	0	32505856	66	5707
2026-01-10 11:59:58.82	161.10	7.31	-46.6	-50.4	10.5	5.82e-03	0	42	0	38797312	65	5382
2026-01-10 11:59:59.83	161.11	7.39	-46.3	-49.9	11.1	3.45e-03	0	42	0	44040192	64	5395
2026-01-10 12:00:00.83	161.11	7.47	-46.0	-49.6	11.5	1.35e-03	0	42	0	49283072	64	5166
2026-01-10 12:00:01.83	161.12	7.55	-45.6	-48.9	12.2	5.27e-04	0	42	0	55574528	63	5068
2026-01-10 12:00:02.84	161.12	7.63	-45.2	-48.3	12.8	1.26e-04	0	42	0	60817408	62	5009
2026-01-10 12:00:03.84	161.12	7.71	-45.0	-48.0	13.1	5.03e-05	0	42	0	67108864	62	4819
2026-01-10 12:00:04.84	161.13	7.79	-44.8	-47.7	13.4	2.86e-05	0	42	0	72351744	61	4949
2026-01-10 12:00:05.84	161.13	7.87	-44.6	-47.4	13.7	1.25e-05	0	42	0	77594624	61	4792
2026-01-10 12:00:06.85	161.14	7.95	-44.3	-47.0	14.1	3.40e-06	0	42	0	83886080	60	4856
2026-01-10 12:00:07.85	161.14	8.03	-44.3	-47.0	14.1	1.10e-06	0	42	0	89128960	60	4862
2026-01-10 12:00:08.86	161.14	8.11	-44.4	-47.2	13.9	1.10e-06	0	42	0	95420416	60	4952
2026-01-10 12:00:09.86	161.15	8.19	-44.7	-47.6	13.5	2.30e-02	0	42	0	100663296	61	4904
2026-01-10 12:00:10.87	161.15	8.28	-44.6	-47.5	13.6	1.14e-05	0	42	0	105906176	61	4854
2026-01-10 12:00:11.87	161.16	8.36	-45.1	-48.2	12.9	3.08e-05	0	42	0	112197632	61	5247
2026-01-10 12:00:12.87	161.16	8.44	-45.7	-49.1	12.0	2.35e-02	0	42	0	117440512	63	5178
2026-01-10 12:00:13.88	161.16	8.52	-46.3	-50.0	11.1	1.60e-03	0	42	0	122683392	63	5738
2026-01-10 12:00:14.88	161.17	8.61	-47.0	-51.1	9.9	8.05e-03	0	42	0	128974848	64	6152
2026-01-10 12:00:15.89	161.17	8.69	-47.6	-52.4	8.5	2.89e-02	0	43	0	134217728	66	6364
2026-01-10 12:00:16.89	161.18	8.77	-48.4	-54.2	6.8	1.63e-01	0	43	0	140509184	67	7393
2026-01-10 12:00:17.89	161.18	8.86	-49.1	-56.1	5.5	4.16e-01	0	42	0	145752064	68	8712
2026-01-10 12:00:18.90	161.18	8.94	-49.7	-58.8	4.2	8.32e-01	0	42	0	145752064	70	10605
2026-01-10 12:00:19.90	161.19	9.02	-50.0	-61.0	3.8	8.46e-01	0	42	104	145752064	70	13632
2026-01-10 12:00:20.91	161.19	9.11	-49.6	-58.2	4.4	8.46e-01	0	42	104	145752064	70	9900
2026-01-10 12:00:21.91	161.20	9.19	-46.1	-49.7	11.4	1.81e-02	0	43	0	148897792	64	5226
2026-01-10 12:00:22.91	161.20	9.28	-49.9	-60.3	3.9	8.02e-01	0	43	104	150994944	71	11887
2026-01-10 12:00:23.91	161.20	9.36	-48.4	-53.8	7.2	8.34e-01	0	42	104	150994944	68	6689
2026-01-10 12:00:24.92	161.21	9.45	-44.4	-47.1	14.1	4.16e-04	0	43	0	155189248	60	4911
2026-01-10 12:00:25.92	161.21	9.54	-45.3	-48.5	12.7	1.60e-05	0	43	0	160432128	61	5424
2026-01-10 12:00:26.92	161.22	9.62	-45.0	-47.9	13.0	2.28e-05	0	43	0	165675008	61	5084
2026-01-10 12:00:27.93	161.22	9.71	-44.2	-46.9	14.3	0.00e+00	0	43	0	171966464	60	4801
2026-01-10 12:00:28.93	161.22	9.79	-44.0	-46.6	14.6	0.00e+00	0	43	0	177209344	59	4879
2026-01-10 12:00:29.93	161.23	9.88	-43.2	-45.6	15.5	0.00e+00	0	43	0	183500800	58	4651
2026-01-10 12:00:30.94	161.23	9.97	-42.8	-45.2	15.9	0.00e+00	0	43	0	188743680	57	4669
2026-01-10 12:00:31.93	161.24	10.06	-42.8	-45.2	16.0	0.00e+00	0	43	0	193986560	57	4664
2026-01-10 12:00:32.94	161.24	10.14	-42.5	-44.8	16.3	1.30e-04	0	43	0	200278016	57	4455
2026-01-10 12:00:33.94	161.24	10.23	-42.6	-44.9	16.3	0.00e+00	0	43	0	205520896	56	4765
2026-01-10 12:00:34.94	161.25	10.32	-42.1	-44.4	16.7	0.00e+00	0	43	0	210763776	56	4515
2026-01-10 12:00:35.95	161.25	10.41	-42.0	-44.2	16.9	4.03e-03	0	43	0	217055232	56	4440
2026-01-10 12:00:36.95	161.26	10.50	-41.7	-43.9	17.0	0.00e+00	0	43	0	222298112	55	4516
2026-01-10 12:00:37.95	161.26	10.59	-41.7	-43.9	17.1	0.00e+00	0	43	0	228589568	55	4518
2026-01-10 12:00:38.96	161.26	10.68	-41.7	-43.9	17.0	9.52e-04	0	43	0	233832448	55	4525
2026-01-10 12:00:39.96	161.27	10.77	-41.5	-43.7	17.2	0.00e+00	0	43	0	239075328	55	4419
2026-01-10 12:00:40.96	161.27	10.86	-41.5	-43.6	17.3	0.00e+00	0	43	0	245366784	55	4385
2026-01-10 12:00:41.97	161.28	10.95	-41.5	-43.6	17.3	0.00e+00	0	43	0	250609664	54	4622
2026-01-10 12:00:42.97	161.28	11.04	-41.5	-43.6	17.3	0.00e+00	0	43	0	256901120	54	4636
2026-01-10 12:00:43.98	161.29	11.14	-41.4	-43.6	17.4	0.00e+00	0	43	0	262144000	54	4600
2026-01-10 12:00:44.98	161.29	11.23	-41.3	-43.5	17.5	0.00e+00	0	43	0	267386880	54	4549
2026-01-10 12:00:45.99	161.29	11.32	-41.4	-43.5	17.4	0.00e+00	0	43	0	273678336	54	4571
2026-01-10 12:00:46.99	161.30	11.41	-41.3	-43.4	17.5	0.00e+00	0	43	0	278921216	54	4526
2026-01-10 12:00:47.99	161.30	11.51	-41.4	-43.5	17.4	0.00e+00	0	43	0	284164096	54	4573
2026-01-10 12:00:49.00	161.31	11.60	-41.2	-43.3	17.6	0.00e+00	0	43	0	290455552	54	4472
2026-01-10 12:00:50.00	161.31	11.69	-41.3	-43.4	17.6	0.00e+00	0	43	0	295698432	54	4501
2026-01-10 12:00:51.01	161.31	11.79	-41.3	-43.4	17.5	0.00e+00	0	43	0	301989888	54	4526
2026-01-10 12:00:52.01	161.32	11.88	-41.3	-43.4	17.6	0.00e+00	0	43	0	307232768	54	4502
2026-01-10 12:00:53.01	161.32	11.98	-41.1	-43.2	17.7	0.00e+00	0	43	0	312475648	54	4434
2026-01-10 12:00:54.01	161.33	12.07	-41.1	-43.2	17.7	0.00e+00	0	43	0	318767104	54	4416
2026-01-10 12:00:55.02	161.33	12.17	-41.0	-43.1	17.8	0.00e+00	0	43	0	324009984	54	4381
2026-01-10 12:00:56.02	161.34	12.26	-41.2	-43.3	17.7	0.00e+00	0	43	0	330301440	54	4451
2026-01-10 12:00:57.02	161.34	12.36	-41.2	-43.3	17.7	0.00e+00	0	43	0	335544320	54	4451
2026-01-10 12:00:58.02	161.34	12.46	-41.2	-43.3	17.7	0.00e+00	0	43	0	340787200	54	4447
2026-01-10 12:00:59.02	161.35	12.55	-41.2	-43.3	17.7	0.00e+00	0	43	0	347078656	54	4447
2026-01-10 12:01:00.03	161.35	12.65	-41.2	-43.3	17.7	0.00e+00	0	43	0	352321536	54	4464
2026-01-10 12:01:01.03	161.36	12.75	-41.1	-43.2	17.8	0.00e+00	0	43	0	357564416	54	4413
2026-01-10 12:01:02.03	161.36	12.85	-40.9	-43.0	17.9	0.00e+00	0	43	0	363855872	53	4581
2026-01-10 12:01:03.03	161.37	12.94	-40.9	-43.0	17.9	0.00e+00	0	43	0	369098752	53	4583
2026-01-10 12:01:04.03	161.37	13.04	-40.8	-42.8	18.1	0.00e+00	0	43	0	374341632	53	4483
2026-01-10 12:01:05.04	161.38	13.14	-40.8	-42.8	18.1	0.00e+00	0	43	0	380633088	53	4472
2026-01-10 12:01:06.04	161.38	13.24	-40.8	-42.9	18.1	0.00e+00	0	43	0	385875968	53	4496
2026-01-10 12:01:07.05	161.38	13.34	-40.7	-42.8	18.1	0.00e+00	0	43	0	392167424	53	4467
2026-01-10 12:01:08.05	161.39	13.44	-40.7	-42.8	18.2	0.00e+00	0	43	0	397410304	53	4445
2026-01-10 12:01:09.05	161.39	13.55	-40.6	-42.7	18.2	0.00e+00	0	43	0	403701760	53	4408
2026-01-10 12:01:10.05	161.40	13.65	-40.8	-42.8	18.0	0.00e+00	0	43	0	408944640	53	4478
2026-01-10 12:01:11.05	161.40	13.75	-40.7	-42.7	18.2	0.00e+00	0	43	0	414187520	53	4425
2026-01-10 12:01:12.06	161.41	13.85	-40.5	-42.5	18.3	0.00e+00	0	43	0	420478976	53	4338
2026-01-10 12:01:13.06	161.41	13.95	-40.6	-42.6	18.3	0.00e+00	0	43	0	425721856	53	4372
2026-01-10 12:01:14.06	161.42	14.06	-40.6	-42.6	18.3	0.00e+00	0	43	0	430964736	53	4387
2026-01-10 12:01:15.07	161.42	14.16	-40.6	-42.7	18.2	0.00e+00	0	43	0	437256192	53	4408
2026-01-10 12:01:16.07	161.42	14.27	-40.6	-42.7	18.2	0.00e+00	0	43	0	442499072	53	4401
2026-01-10 12:01:17.07	161.43	14.37	-40.7	-42.7	18.2	0.00e+00	0	43	0	447741952	53	4432
2026-01-10 12:01:18.08	161.43	14.48	-40.5	-42.5	18.4	0.00e+00	0	43	0	454033408	53	4330
2026-01-10 12:01:19.08	161.44	14.58	-40.4	-42.5	18.4	0.00e+00	0	43	0	459276288	52	4556
2026-01-10 12:01:20.08	161.44	14.69	-40.3	-42.3	18.5	0.00e+00	0	43	0	465567744	52	4487
2026-01-10 12:01:21.09	161.45	14.79	-40.4	-42.4	18.5	0.00e+00	0	43	0	470810624	52	4500
2026-01-10 12:01:22.09	161.45	14.90	-40.4	-42.4	18.5	0.00e+00	0	43	0	476053504	52	4503
2026-01-10 12:01:23.09	161.46	15.01	-40.3	-42.3	18.5	0.00e+00	0	43	0	482344960	52	4488
2026-01-10 12:01:24.09	161.46	15.12	-40.4	-42.4	18.5	0.00e+00	0	43	0	487587840	52	4497
2026-01-10 12:01:25.10	161.47	15.23	-40.2	-42.2	18.7	0.00e+00	0	43	0	492830720	52	4412
2026-01-10 12:01:26.10	161.47	15.33	-40.4	-42.5	18.4	0.00e+00	0	43	0	499122176	52	4550
2026-01-10 12:01:27.10	161.47	15.44	-40.2	-42.2	18.6	0.00e+00	0	43	0	504365056	52	4438
2026-01-10 12:01:28.10	161.48	15.55	-40.2	-42.2	18.7	0.00e+00	0	43	0	510656512	52	4412
2026-01-10 12:01:29.11	161.48	15.66	-40.1	-42.1	18.8	0.00e+00	0	43	0	515899392	52	4359
2026-01-10 12:01:30.11	161.49	15.77	-40.1	-42.1	18.8	0.00e+00	0	43	0	521142272	52	4342
2026-01-10 12:01:31.11	161.49	15.89	-40.0	-42.0	18.9	0.00e+00	0	43	0	527433728	52	4328
2026-01-10 12:01:32.12	161.50	16.00	-40.1	-42.1	18.8	0.00e+00	0	43	0	532676608	52	4347
2026-01-10 12:01:33.12	161.50	16.11	-40.0	-42.0	18.9	0.00e+00	0	43	0	538968064	52	4312
2026-01-10 12:01:34.13	161.51	16.22	-40.1	-42.0	18.9	0.00e+00	0	43	0	544210944	52	4335
2026-01-10 12:01:35.13	161.51	16.34	-40.1	-42.1	18.8	0.00e+00	0	43	0	549453824	52	4342
2026-01-10 12:01:36.13	161.52	16.45	-39.9	-41.9	19.0	0.00e+00	0	43	0	555745280	51	4523
2026-01-10 12:01:37.13	161.52	16.56	-40.0	-41.9	19.0	0.00e+00	0	43	0	560988160	51	4528
2026-01-10 12:01:38.13	161.53	16.68	-40.0	-41.9	19.0	0.00e+00	0	43	0	566231040	51	4529
2026-01-10 12:01:39.14	161.53	16.80	-40.0	-42.0	19.0	0.00e+00	0	43	0	572522496	51	4558
2026-01-10 12:01:40.14	161.54	16.91	-39.9	-41.9	19.1	0.00e+00	0	43	0	577765376	51	4505
2026-01-10 12:01:41.14	161.54	17.03	-40.0	-41.9	19.0	0.00e+00	0	43	0	584056832	51	4539
2026-01-10 12:01:42.15	161.55	17.15	-39.9	-41.8	19.1	0.00e+00	0	43	0	589299712	51	4463
2026-01-10 12:01:43.15	161.55	17.26	-39.7	-41.6	19.3	0.00e+00	0	43	0	594542592	51	4376
2026-01-10 12:01:44.15	161.56	17.38	-39.7	-41.7	19.3	0.00e+00	0	43	0	600834048	51	4395
2026-01-10 12:01:45.15	161.56	17.50	-39.6	-41.5	19.4	0.00e+00	0	43	0	606076928	51	4320
2026-01-10 12:01:46.16	161.57	17.62	-39.6	-41.5	19.4	0.00e+00	0	43	0	612368384	51	4299
2026-01-10 12:01:47.16	161.57	17.74	-39.5	-41.4	19.5	0.00e+00	0	43	0	617611264	51	4272
2026-01-10 12:01:48.17	161.58	17.86	-39.5	-41.4	19.5	0.00e+00	0	43	0	622854144	51	4285
2026-01-10 12:01:49.17	161.58	17.98	-39.5	-41.4	19.5	0.00e+00	0	43	0	629145600	51	4284
2026-01-10 12:01:50.17	161.59	18.11	-39.5	-41.4	19.5	0.00e+00	0	43	0	634388480	51	4277
2026-01-10 12:01:51.17	161.59	18.23	-39.5	-41.4	19.5	0.00e+00	0	43	0	639631360	51	4286
2026-01-10 12:01:52.18	161.60	18.35	-39.4	-41.3	19.6	0.00e+00	0	43	0	645922816	50	4482
2026-01-10 12:01:53.18	161.60	18.47	-39.4	-41.3	19.6	0.00e+00	0	43	0	651165696	50	4474
2026-01-10 12:01:54.18	161.61	18.60	-39.4	-41.3	19.6	0.00e+00	0	43	0	657457152	50	4448
2026-01-10 12:01:55.19	161.61	18.72	-39.4	-41.3	19.6	0.00e+00	0	43	0	662700032	50	4467
2026-01-10 12:01:56.19	161.62	18.85	-39.2	-41.1	18.1	0.00e+00	0	43	0	667942912	50	4377
2026-01-10 12:01:57.19	161.62	18.98	-39.2	-41.1	19.8	0.00e+00	0	43	0	674234368	50	4381
2026-01-10 12:01:58.19	161.63	19.10	-39.2	-41.1	19.8	0.00e+00	0	43	0	679477248	50	4384
2026-01-10 12:01:59.20	161.63	19.23	-39.1	-41.0	19.9	3.81e-03	0	43	0	684720128	50	4323
2026-01-10 12:02:00.20	161.64	19.36	-39.1	-40.9	19.9	0.00e+00	0	43	0	691011584	50	4282
2026-01-10 12:02:01.21	161.64	19.49	-39.0	-40.9	20.0	0.00e+00	0	43	0	696254464	50	4270
2026-01-10 12:02:02.21	161.65	19.62	-39.0	-40.9	19.9	5.78e-03	0	43	0	702545920	50	4274
2026-01-10 12:02:03.22	161.65	19.75	-39.0	-40.9	20.0	0.00e+00	0	43	0	707788800	50	4270
2026-01-10 12:02:04.22	161.66	19.88	-39.0	-40.8	20.0	0.00e+00	0	43	0	713031680	50	4236
2026-01-10 12:02:05.22	161.66	20.01	-38.9	-40.7	20.1	7.33e-03	0	44	0	719323136	49	4436
2026-01-10 12:02:06.23	161.67	20.15	-38.9	-40.7	20.1	0.00e+00	0	43	0	724566016	49	4437
2026-01-10 12:02:07.23	161.67	20.28	-39.0	-40.8	20.0	0.00e+00	0	43	0	730857472	49	4477
2026-01-10 12:02:08.23	161.68	20.41	-38.9	-40.8	20.1	0.00e+00	0	43	0	736100352	49	4442
2026-01-10 12:02:09.24	161.68	20.55	-39.0	-40.8	20.0	0.00e+00	0	43	0	741343232	49	4472
2026-01-10 12:02:10.24	161.69	20.68	-39.0	-40.8	20.0	0.00e+00	0	43	0	747634688	49	4474
2026-01-10 12:02:11.24	161.69	20.82	-39.0	-40.8	20.0	0.00e+00	0	44	0	752877568	49	4466
2026-01-10 12:02:12.25	161.70	20.96	-38.9	-40.7	20.0	0.00e+00	0	43	0	758120448	49	4441
2026-01-10 12:02:13.25	161.71	21.09	-38.9	-40.7	20.1	0.00e+00	0	43	0	764411904	49	4428
2026-01-10 12:02:14.25	161.71	21.23	-38.9	-40.7	20.1	0.00e+00	0	43	0	769654784	49	4423
2026-01-10 12:02:15.26	161.72	21.37	-38.7	-40.6	20.2	0.00e+00	0	43	0	775946240	49	4358
2026-01-10 12:02:16.26	161.72	21.51	-38.8	-40.7	20.1	0.00e+00	0	43	0	781189120	49	4403
2026-01-10 12:02:17.26	161.73	21.65	-38.9	-40.8	20.1	0.00e+00	0	43	0	786432000	49	4452
2026-01-10 12:02:18.27	161.73	21.79	-38.8	-40.6	20.2	0.00e+00	0	43	0	792723456	49	4386
2026-01-10 12:02:19.27	161.74	21.93	-38.7	-40.6	20.2	2.39e-04	0	43	0	797966336	49	4375
2026-01-10 12:02:20.27	161.74	22.08	-38.8	-40.7	20.1	0.00e+00	0	43	0	804257792	49	4392
2026-01-10 12:02:21.27	161.75	22.22	-38.8	-40.7	20.1	0.00e+00	0	43	0	809500672	49	4396
2026-01-10 12:02:22.28	161.76	22.37	-38.8	-40.6	20.1	1.10e-06	0	44	0	814743552	49	4379
2026-01-10 12:02:23.28	161.76	22.51	-38.7	-40.6	20.2	0.00e+00	0	43	0	821035008	49	4361
2026-01-10 12:02:24.28	161.77	22.66	-38.7	-40.6	20.2	0.00e+00	0	44	0	826277888	49	4369
2026-01-10 12:02:25.29	161.77	22.81	-38.8	-40.7	20.1	0.00e+00	0	43	0	831520768	49	4411
2026-01-10 12:02:26.29	161.78	22.95	-38.7	-40.6	20.2	0.00e+00	0	43	0	837812224	49	4361
2026-01-10 12:02:27.29	161.78	23.10	-38.6	-40.4	20.3	0.00e+00	0	44	0	843055104	49	4286
2026-01-10 12:02:28.30	161.79	23.25	-38.6	-40.4	20.3	0.00e+00	0	43	0	848297984	49	4275
2026-01-10 12:02:29.30	161.80	23.40	-38.6	-40.4	20.3	0.00e+00	0	43	0	854589440	49	4289
2026-01-10 12:02:30.30	161.80	23.55	-38.6	-40.4	20.3	0.00e+00	0	44	0	859832320	49	4289
2026-01-10 12:02:31.30	161.81	23.70	-38.6	-40.4	20.3	0.00e+00	0	43	0	866123776	49	4289
2026-01-10 12:02:32.31	161.81	23.86	-38.6	-40.4	20.3	0.00e+00	0	43	0	871366656	49	4275
2026-01-10 12:02:33.31	161.82	24.01	-38.6	-40.4	20.3	0.00e+00	0	43	0	877658112	49	4285
2026-01-10 12:02:34.32	161.83	24.17	-38.6	-40.4	20.3	0.00e+00	0	43	0	882900992	49	4282
2026-01-10 12:02:35.32	161.83	24.32	-38.5	-40.3	20.4	0.00e+00	0	43	0	888143872	49	4233
2026-01-10 12:02:36.32	161.84	24.48	-38.5	-40.3	20.5	0.00e+00	0	44	0	894435328	48	4468
2026-01-10 12:02:37.32	161.84	24.64	-38.5	-40.3	20.4	0.00e+00	0	44	0	899678208	48	4488
2026-01-10 12:02:38.32	161.85	24.80	-38.4	-40.2	20.5	0.00e+00	0	44	0	904921088	48	4420
2026-01-10 12:02:39.32	161.86	24.96	-38.3	-40.1	20.4	0.00e+00	0	43	0	911212544	48	4377
2026-01-10 12:02:40.33	161.86	25.12	-38.3	-40.1	20.6	0.00e+00	0	44	0	916455424	48	4364
2026-01-10 12:02:41.33	161.87	25.28	-38.4	-40.2	20.6	0.00e+00	0	44	0	921698304	48	4401
2026-01-10 12:02:42.33	161.87	25.44	-38.2	-40.0	20.7	0.00e+00	0	43	0	927989760	48	4321
2026-01-10 12:02:43.34	161.88	25.61	-38.2	-40.0	20.7	0.00e+00	0	44	0	933232640	48	4325
2026-01-10 12:02:44.34	161.89	25.77	-38.2	-40.0	20.7	0.00e+00	0	43	0	939524096	48	4317
2026-01-10 12:02:45.35	161.89	25.94	-38.2	-40.0	20.7	0.00e+00	0	44	0	944766976	48	4322
2026-01-10 12:02:46.35	161.90	26.10	-38.2	-40.0	20.8	0.00e+00	0	43	0	951058432	48	4296
2026-01-10 12:02:47.35	161.91	26.27	-38.1	-39.9	20.8	0.00e+00	0	44	0	956301312	48	4273
2026-01-10 12:02:48.35	161.91	26.44	-38.1	-39.9	20.8	0.00e+00	0	44	0	961544192	48	4284
2026-01-10 12:02:49.36	161.92	26.61	-38.2	-40.0	20.8	0.00e+00	0	43	0	967835648	48	4296
2026-01-10 12:02:50.36	161.93	26.78	-38.1	-39.9	20.8	0.00e+00	0	44	0	973078528	48	4260
2026-01-10 12:02:51.36	161.93	26.95	-38.2	-40.0	20.8	0.00e+00	0	44	0	978321408	48	4311
2026-01-10 12:02:52.37	161.94	27.13	-38.2	-40.0	20.8	0.00e+00	0	43	0	984612864	48	4307
2026-01-10 12:02:53.37	161.95	27.30	-38.3	-40.0	20.7	0.00e+00	0	44	0	989855744	48	4337
2026-01-10 12:02:54.38	161.95	27.48	-38.2	-40.0	20.8	0.00e+00	0	44	0	995098624	48	4307
2026-01-10 12:02:55.38	161.96	27.65	-38.3	-40.0	20.7	0.00e+00	0	44	0	1001390080	48	4340
2026-01-10 12:02:56.38	161.97	27.83	-38.3	-40.1	20.6	0.00e+00	0	43	0	1006632960	48	4386
2026-01-10 12:02:57.39	161.97	28.01	-38.4	-40.2	20.6	0.00e+00	0	43	0	1012924416	48	4399
2026-01-10 12:02:58.39	161.98	28.19	-38.3	-40.2	20.6	0.00e+00	0	44	0	1018167296	48	4392
2026-01-10 12:02:59.39	161.99	28.37	-38.3	-40.1	20.6	0.00e+00	0	43	0	1023410176	48	4362
2026-01-10 12:03:00.40	161.99	28.56	-38.4	-40.2	20.6	0.00e+00	0	44	0	1029701632	48	4405
2026-01-10 12:03:01.40	162.00	28.74	-38.4	-40.2	20.6	0.00e+00	0	43	0	1034944512	48	4413
2026-01-10 12:03:02.40	162.01	28.92	-38.3	-40.1	20.6	0.00e+00	0	44	0	1041235968	48	4359
2026-01-10 12:03:03.41	162.01	29.11	-38.2	-40.0	20.7	0.00e+00	0	43	0	1046478848	48	4314
2026-01-10 12:03:04.41	162.02	29.30	-38.2	-40.0	20.7	0.00e+00	0	44	0	1051721728	48	4319
2026-01-10 12:03:05.41	162.03	29.49	-38.2	-40.1	20.7	0.00e+00	0	44	0	1058013184	48	4346
2026-01-10 12:03:06.42	162.04	29.68	-38.2	-40.1	20.7	0.00e+00	0	43	0	1063256064	48	4346
2026-01-10 12:03:07.42	162.04	29.87	-38.2	-40.0	20.7	0.00e+00	0	43	0	1068498944	48	4328
2026-01-10 12:03:08.42	162.05	30.06	-38.2	-40.0	20.7	0.00e+00	0	44	0	1074790400	48	4315
2026-01-10 12:03:09.42	162.06	30.25	-38.2	-40.0	20.7	0.00e+00	0	43	0	1080033280	48	4338
2026-01-10 12:03:10.43	162.07	30.45	-38.2	-40.1	20.7	0.00e+00	0	44	0	1086324736	48	4344
2026-01-10 12:03:11.43	162.07	30.64	-38.2	-40.0	20.7	0.00e+00	0	44	0	1091567616	48	4321
2026-01-10 12:03:12.44	162.08	30.84	-38.2	-40.1	20.7	0.00e+00	0	44	0	1096810496	48	4342
2026-01-10 12:03:13.44	162.09	31.04	-38.1	-39.9	20.8	0.00e+00	0	44	0	1103101952	48	4291
2026-01-10 12:03:14.44	162.10	31.24	-38.1	-39.9	20.8	0.00e+00	0	44	0	1108344832	48	4254
2026-01-10 12:03:15.45	162.10	31.45	-38.0	-39.8	20.9	0.00e+00	0	44	0	1113587712	48	4239
2026-01-10 12:03:16.45	162.11	31.65	-38.1	-39.9	20.8	0.00e+00	0	43	0	1119879168	48	4272
2026-01-10 12:03:17.45	162.12	31.85	-38.0	-39.8	20.9	0.00e+00	0	43	0	1125122048	48	4233
2026-01-10 12:03:18.46	162.13	32.06	-38.0	-39.8	21.0	0.00e+00	0	44	0	1131413504	48	4195
2026-01-10 12:03:19.46	162.13	32.27	-37.7	-39.5	20.9	0.00e+00	0	44	0	1136656384	47	4303
2026-01-10 12:03:20.46	162.14	32.48	-37.5	-39.3	21.0	0.00e+00	0	44	0	1141899264	47	4228
2026-01-10 12:03:21.46	162.15	32.69	-37.6	-39.4	21.0	0.00e+00	0	44	0	1148190720	47	4263
2026-01-10 12:03:22.47	162.16	32.90	-37.7	-39.5	20.9	0.00e+00	0	44	0	1153433600	47	4337
2026-01-10 12:03:23.47	162.17	33.11	-37.7	-39.5	20.9	0.00e+00	0	44	0	1159725056	47	4339
2026-01-10 12:03:24.47	162.17	33.33	-37.8	-39.6	20.8	0.00e+00	0	43	0	1164967936	47	4379
2026-01-10 12:03:25.48	162.18	33.54	-37.8	-39.6	20.8	0.00e+00	0	44	0	1170210816	47	4361
2026-01-10 12:03:26.48	162.19	33.76	-37.8	-39.6	20.8	0.00e+00	0	43	0	1176502272	47	4371
2026-01-10 12:03:27.49	162.20	33.98	-37.8	-39.6	20.8	0.00e+00	0	44	0	1181745152	47	4369
2026-01-10 12:03:28.49	162.21	34.20	-37.6	-39.4	21.0	0.00e+00	0	43	0	1186988032	47	4290
2026-01-10 12:03:29.49	162.22	34.42	-37.5	-39.3	21.1	0.00e+00	0	44	0	1193279488	47	4214
2026-01-10 12:03:30.50	162.23	34.65	-37.5	-39.2	21.1	0.00e+00	0	43	0	1198522368	46	4430
2026-01-10 12:03:31.50	162.23	34.88	-37.6	-39.4	21.0	0.00e+00	0	43	0	1204813824	46	4496
2026-01-10 12:03:32.50	162.24	35.10	-37.7	-39.5	20.9	0.00e+00	0	43	0	1210056704	46	4583
2026-01-10 12:03:33.50	162.25	35.33	-37.9	-39.7	20.7	0.00e+00	0	44	0	1215299584	46	4695
2026-01-10 12:03:34.51	162.26	35.56	-38.0	-39.8	20.7	0.00e+00	0	44	0	1221591040	46	4729
2026-01-10 12:03:35.51	162.27	35.80	-37.9	-39.7	20.7	0.00e+00	0	44	0	1226833920	46	4698
2026-01-10 12:03:36.52	162.28	36.03	-37.6	-39.4	21.1	0.00e+00	0	44	0	1233125376	46	4504
2026-01-10 12:03:37.52	162.29	36.27	-37.3	-39.1	21.2	0.00e+00	0	44	0	1238368256	46	4362
2026-01-10 12:03:38.52	162.30	36.50	-37.2	-39.0	21.4	0.00e+00	0	44	0	1243611136	46	4306
2026-01-10 12:03:39.53	162.31	36.75	-37.1	-38.9	21.5	0.00e+00	0	44	0	1249902592	46	4258
2026-01-10 12:03:40.53	162.32	36.99	-37.2	-38.9	21.4	0.00e+00	0	44	0	1255145472	46	4273
2026-01-10 12:03:41.53	162.33	37.23	-37.2	-38.9	21.4	0.00e+00	0	43	0	1260388352	46	4281
2026-01-10 12:03:42.53	162.34	37.47	-37.2	-38.9	21.4	0.00e+00	0	43	0	1266679808	46	4289
2026-01-10 12:03:43.54	162.35	37.72	-37.3	-39.0	21.3	0.00e+00	0	44	0	1271922688	46	4330
2026-01-10 12:03:44.54	162.36	37.97	-37.4	-39.2	21.2	0.00e+00	0	44	0	1277165568	46	4425
2026-01-10 12:03:45.55	162.37	38.22	-37.5	-39.3	21.2	0.00e+00	0	44	0	1283457024	46	4443
2026-01-10 12:03:46.55	162.38	38.47	-37.7	-39.5	21.0	0.00e+00	0	44	0	1288699904	46	4556
2026-01-10 12:03:47.55	162.39	38.73	-37.8	-39.6	20.9	0.00e+00	0	44	0	1294991360	46	4647
2026-01-10 12:03:48.55	162.40	38.98	-37.9	-39.7	20.7	0.00e+00	0	44	0	1300234240	46	4689
2026-01-10 12:03:49.56	162.41	39.24	-37.8	-39.6	20.8	0.00e+00	0	44	0	1306525696	46	4640
2026-01-10 12:03:50.56	162.42	39.50	-37.8	-39.6	20.9	0.00e+00	0	44	0	1311768576	46	4626
2026-01-10 12:03:51.56	162.43	39.76	-38.0	-39.8	20.8	0.00e+00	0	44	0	1317011456	46	4717
2026-01-10 12:03:52.56	162.44	40.02	-37.9	-39.7	20.8	0.00e+00	0	44	0	1323302912	46	4662
2026-01-10 12:03:53.56	162.45	40.29	-38.0	-39.8	20.7	0.00e+00	0	44	0	1328545792	46	4746
2026-01-10 12:03:54.57	162.46	40.56	-38.0	-39.8	20.7	0.00e+00	0	44	0	1333788672	46	4741
2026-01-10 12:03:55.57	162.47	40.83	-38.0	-39.9	20.7	0.00e+00	0	43	0	1340080128	46	4769
2026-01-10 12:03:56.57	162.48	41.10	-38.1	-39.9	20.6	0.00e+00	0	44	0	1345323008	46	4780
2026-01-10 12:03:57.58	162.50	41.37	-38.2	-40.0	20.5	0.00e+00	0	43	0	1350565888	47	4588
2026-01-10 12:03:58.58	162.51	41.65	-38.1	-40.0	20.6	0.00e+00	0	44	0	1356857344	47	4547
2026-01-10 12:03:59.58	162.52	41.93	-38.0	-39.9	20.7	0.00e+00	0	44	0	1362100224	47	4496
2026-01-10 12:04:00.58	162.53	42.21	-38.1	-39.9	20.6	0.00e+00	0	44	0	1368391680	47	4533
2026-01-10 12:04:01.59	162.54	42.49	-38.1	-39.9	20.6	0.00e+00	0	44	0	1373634560	47	4524
2026-01-10 12:04:02.59	162.55	42.77	-38.1	-39.9	20.6	0.00e+00	0	43	0	1378877440	47	4531
2026-01-10 12:04:03.59	162.57	43.06	-38.2	-40.1	20.5	0.00e+00	0	44	0	1385168896	47	4607
2026-01-10 12:04:04.60	162.58	43.35	-38.2	-40.0	20.6	0.00e+00	0	44	0	1390411776	47	4576
2026-01-10 12:04:05.60	162.59	43.64	-38.2	-40.0	20.6	0.00e+00	0	44	0	1396703232	47	4583
2026-01-10 12:04:06.61	162.60	43.94	-38.0	-39.8	20.7	0.00e+00	0	44	0	1401946112	47	4474
2026-01-10 12:04:07.61	162.62	44.23	-38.1	-39.9	20.7	0.00e+00	0	44	0	1407188992	47	4519
2026-01-10 12:04:08.61	162.63	44.53	-37.9	-39.7	20.8	0.00e+00	0	43	0	1413480448	47	4421
2026-01-10 12:04:09.61	162.64	44.83	-38.0	-39.8	20.8	0.00e+00	0	44	0	1418723328	47	4455
2026-01-10 12:04:10.62	162.66	45.13	-38.0	-39.8	20.8	0.00e+00	0	44	0	1423966208	47	4464
2026-01-10 12:04:11.62	162.67	45.44	-37.9	-39.7	20.9	0.00e+00	0	44	0	1430257664	47	4397
2026-01-10 12:04:12.62	162.69	45.74	-37.8	-39.5	21.0	0.00e+00	0	44	0	1435500544	47	4340
2026-01-10 12:04:13.63	162.70	46.05	-37.9	-39.6	21.0	0.00e+00	0	44	0	1441792000	47	4376
2026-01-10 12:04:14.62	162.71	46.36	-38.1	-39.9	20.7	0.00e+00	0	44	0	1447034880	47	4531
2026-01-10 12:04:15.63	162.73	46.68	-38.1	-39.9	20.7	0.00e+00	0	44	0	1452277760	47	4528
2026-01-10 12:04:16.63	162.74	46.99	-38.0	-39.8	20.8	0.00e+00	0	44	0	1458569216	47	4487
2026-01-10 12:04:17.64	162.76	47.31	-37.9	-39.7	20.9	0.00e+00	0	44	0	1463812096	47	4400
2026-01-10 12:04:18.64	162.77	47.63	-37.9	-39.6	21.0	0.00e+00	0	44	0	1469054976	47	4384
2026-01-10 12:04:19.64	162.79	47.96	-37.7	-39.4	21.2	0.00e+00	0	44	0	1475346432	47	4276
2026-01-10 12:04:20.65	162.81	48.28	-37.8	-39.5	21.1	0.00e+00	0	44	0	1480589312	47	4331
2026-01-10 12:04:21.65	162.82	48.61	-38.0	-39.8	20.9	0.00e+00	0	44	0	1486880768	47	4453
2026-01-10 12:04:22.66	162.84	48.95	-38.0	-39.8	20.8	0.00e+00	0	44	0	1492123648	47	4445
2026-01-10 12:04:23.66	162.86	49.28	-38.1	-39.9	20.8	0.00e+00	0	44	0	1497366528	47	4508
2026-01-10 12:04:24.66	162.87	49.61	-38.1	-39.9	20.8	0.00e+00	0	44	0	1503657984	47	4523
2026-01-10 12:04:25.67	162.89	49.95	-38.2	-40.0	20.6	0.00e+00	0	43	0	1508900864	47	4580
2026-01-10 12:04:26.67	162.91	50.29	-38.1	-39.9	20.7	0.00e+00	0	44	0	1515192320	47	4504
2026-01-10 12:04:27.67	162.93	50.64	-38.1	-39.9	20.8	0.00e+00	0	44	0	1520435200	47	4500
2026-01-10 12:04:28.67	162.94	50.98	-38.1	-39.9	20.7	0.00e+00	0	44	0	1525678080	47	4518
2026-01-10 12:04:29.67	162.96	51.33	-38.4	-40.2	20.5	0.00e+00	0	44	0	1531969536	47	4669
2026-01-10 12:04:30.68	162.98	51.68	-38.9	-40.7	20.3	0.00e+00	0	44	0	1537212416	48	4698
2026-01-10 12:04:31.68	163.00	52.04	-39.3	-41.2	19.9	0.00e+00	0	44	0	1542455296	49	4677
2026-01-10 12:04:32.69	163.02	52.40	-39.6	-41.4	19.6	0.00e+00	0	44	0	1548746752	49	4808
2026-01-10 12:04:33.69	163.04	52.75	-39.6	-41.5	19.6	0.00e+00	0	44	0	1553989632	49	4850
2026-01-10 12:04:34.69	163.06	53.11	-39.7	-41.6	19.5	0.00e+00	0	43	0	1560281088	50	4632
2026-01-10 12:04:35.69	163.08	53.48	-39.7	-41.6	19.5	0.00e+00	0	44	0	1565523968	50	4644
2026-01-10 12:04:36.70	163.10	53.85	-39.4	-41.2	19.8	0.00e+00	0	44	0	1570766848	50	4435
2026-01-10 12:04:37.70	163.13	54.22	-39.5	-41.3	19.7	0.00e+00	0	43	0	1577058304	50	4481
2026-01-10 12:04:38.70	163.15	54.59	-39.7	-41.6	19.5	0.00e+00	0	44	0	1582301184	50	4626
2026-01-10 12:04:39.71	163.17	54.96	-39.7	-41.6	19.6	0.00e+00	0	44	0	1588592640	50	4602
2026-01-10 12:04:40.71	163.20	55.34	-39.2	-41.0	20.1	0.00e+00	0	44	0	1593835520	50	4322
2026-01-10 12:04:41.71	163.22	55.72	-38.9	-40.7	20.3	0.00e+00	0	44	0	1599078400	49	4423
2026-01-10 12:04:42.72	163.24	56.11	-39.2	-41.0	20.1	0.00e+00	0	44	0	1605369856	49	4567
2026-01-10 12:04:43.72	163.27	56.49	-39.1	-41.0	20.1	0.00e+00	0	44	0	1610612736	49	4549
2026-01-10 12:04:44.72	163.30	56.88	-38.9	-40.7	20.4	0.00e+00	0	44	0	1615855616	49	4414
2026-01-10 12:04:45.72	163.32	57.27	-38.7	-40.5	20.5	0.00e+00	0	44	0	1622147072	49	4326
2026-01-10 12:04:46.73	163.35	57.66	-38.9	-40.7	20.3	0.00e+00	0	44	0	1627389952	49	4431
2026-01-10 12:04:47.73	163.38	58.06	-39.0	-40.8	20.2	0.00e+00	0	44	0	1633681408	49	4474
2026-01-10 12:04:48.74	163.41	58.46	-38.6	-40.4	20.5	0.00e+00	0	44	0	1638924288	49	4289
2026-01-10 12:04:49.74	163.44	58.86	-38.7	-40.5	20.5	0.00e+00	0	44	0	1644167168	49	4316
2026-01-10 12:04:50.74	163.47	59.27	-39.1	-40.9	20.1	0.00e+00	0	44	0	1650458624	49	4536
2026-01-10 12:04:51.74	163.50	59.67	-38.4	-40.2	20.8	0.00e+00	0	44	0	1655701504	48	4398
2026-01-10 12:04:52.75	163.53	60.08	-37.8	-39.6	21.0	0.00e+00	0	44	0	1660944384	47	4343
2026-01-10 12:04:53.75	163.56	60.50	-38.1	-39.9	20.7	0.00e+00	0	44	0	1667235840	47	4522
2026-01-10 12:04:54.75	163.60	60.91	-38.4	-40.3	20.5	0.00e+00	0	44	0	1672478720	47	4714
2026-01-10 12:04:55.76	163.63	61.33	-38.1	-39.8	20.8	0.00e+00	0	44	0	1678770176	47	4486
2026-01-10 12:04:56.76	163.67	61.75	-37.7	-39.5	21.1	0.00e+00	0	44	0	1684013056	47	4310
2026-01-10 12:04:57.76	163.70	62.17	-37.6	-39.4	21.2	0.00e+00	0	44	0	1689255936	47	4252
2026-01-10 12:04:58.76	163.74	62.60	-37.6	-39.4	21.2	0.00e+00	0	44	0	1695547392	47	4263
2026-01-10 12:04:59.77	163.78	63.03	-37.5	-39.2	21.3	0.00e+00	0	44	0	1700790272	46	4424
2026-01-10 12:05:00.77	163.82	63.46	-37.2	-38.9	21.5	0.00e+00	0	44	0	1707081728	46	4266
2026-01-10 12:05:01.77	163.86	63.89	-37.2	-39.0	21.5	0.00e+00	0	44	0	1712324608	46	4311
2026-01-10 12:05:02.77	163.91	64.32	-37.4	-39.2	21.3	0.00e+00	0	43	0	1717567488	46	4394
2026-01-10 12:05:03.78	163.95	64.77	-37.4	-39.2	21.3	0.00e+00	0	44	0	1723858944	46	4408
2026-01-10 12:05:04.78	164.00	65.21	-37.3	-39.0	21.4	0.00e+00	0	44	0	1729101824	46	4339
2026-01-10 12:05:05.78	164.05	65.65	-37.1	-38.9	21.5	0.00e+00	0	44	0	1734344704	46	4251
2026-01-10 12:05:06.78	164.10	66.09	-37.1	-38.9	21.5	0.00e+00	0	44	0	1740636160	46	4255
2026-01-10 12:05:07.79	164.15	66.55	-37.2	-38.9	21.5	0.00e+00	0	44	0	1745879040	46	4283
2026-01-10 12:05:08.79	164.21	67.00	-37.0	-38.8	21.6	0.00e+00	0	44	0	1751121920	46	4196
2026-01-10 12:05:09.80	164.27	67.45	-37.2	-38.9	21.6	0.00e+00	0	44	0	1757413376	46	4262
2026-01-10 12:05:10.80	164.32	67.91	-37.0	-38.8	21.6	0.00e+00	0	44	0	1762656256	46	4203
2026-01-10 12:05:11.80	164.39	68.36	-36.6	-38.2	22.0	0.00e+00	0	44	0	1768947712	45	4192
2026-01-10 12:05:12.80	164.45	68.82	-36.6	-38.3	22.0	0.00e+00	0	44	0	1774190592	45	4230
2026-01-10 12:05:13.81	164.52	69.29	-37.1	-38.9	21.5	0.00e+00	0	43	0	1780482048	45	4521
2026-01-10 12:05:14.81	164.59	69.75	-36.7	-38.4	21.8	0.00e+00	0	44	0	1785724928	45	4276
2026-01-10 12:05:15.81	164.66	70.22	-36.4	-38.1	22.1	0.00e+00	0	44	0	1790967808	44	4377
2026-01-10 12:05:16.82	164.74	70.69	-36.8	-38.5	21.8	0.00e+00	0	43	0	1797259264	44	4575
2026-01-10 12:05:17.82	164.82	71.16	-36.7	-38.4	21.9	0.00e+00	0	43	0	1802502144	44	4540
2026-01-10 12:05:18.82	164.91	71.64	-36.6	-38.3	22.0	0.00e+00	0	44	0	1807745024	44	4450
2026-01-10 12:05:19.83	165.00	72.12	-36.6	-38.3	22.0	0.00e+00	0	44	0	1814036480	44	4469
2026-01-10 12:05:20.83	165.10	72.59	-36.5	-38.3	22.0	0.00e+00	0	44	0	1819279360	44	4448
2026-01-10 12:05:21.83	165.20	73.07	-36.1	-37.8	22.3	0.00e+00	0	44	0	1824522240	44	4225
2026-01-10 12:05:22.84	165.31	73.56	-36.1	-37.8	22.3	0.00e+00	0	44	0	1830813696	44	4221
2026-01-10 12:05:23.84	165.42	74.04	-36.3	-38.0	22.1	0.00e+00	0	43	0	1836056576	44	4336
2026-01-10 12:05:24.84	165.54	74.52	-36.5	-38.3	21.9	0.00e+00	0	44	0	1842348032	44	4461
2026-01-10 12:05:25.84	165.67	75.01	-36.3	-38.0	22.1	0.00e+00	0	44	0	1847590912	44	4330
2026-01-10 12:05:26.85	165.81	75.50	-36.4	-38.1	22.0	0.00e+00	0	43	0	1852833792	44	4375
2026-01-10 12:05:27.85	165.96	75.99	-36.2	-38.0	22.2	0.00e+00	0	44	0	1859125248	44	4302
2026-01-10 12:05:28.86	166.12	76.49	-36.1	-37.8	22.4	0.00e+00	0	44	0	1864368128	44	4199
2026-01-10 12:05:29.86	166.29	76.98	-36.1	-37.8	22.3	0.00e+00	0	44	0	1870659584	44	4227
2026-01-10 12:05:30.86	166.47	77.48	-36.1	-37.8	22.3	0.00e+00	0	43	0	1875902464	44	4237
2026-01-10 12:05:31.87	166.68	77.98	-35.6	-37.3	22.5	0.00e+00	0	44	0	1881145344	43	4238
2026-01-10 12:05:32.87	166.89	78.47	-35.7	-37.4	22.5	0.00e+00	0	44	0	1887436800	43	4275
2026-01-10 12:05:33.87	167.13	78.97	-35.6	-37.3	22.5	0.00e+00	0	44	0	1892679680	43	4208
2026-01-10 12:05:34.87	167.39	79.47	-35.5	-37.3	22.5	0.00e+00	0	44	0	1897922560	43	4197
2026-01-10 12:05:35.87	167.68	79.97	-35.1	-36.8	22.9	0.00e+00	0	44	0	1904214016	42	4226
2026-01-10 12:05:36.88	168.00	80.48	-35.1	-36.8	22.9	0.00e+00	0	44	0	1909456896	42	4209
2026-01-10 12:05:37.88	168.35	80.98	-35.2	-36.9	22.8	0.00e+00	0	44	0	1915748352	42	4270
2026-01-10 12:05:38.88	168.74	81.49	-34.9	-36.6	23.0	0.00e+00	0	44	0	1920991232	41	4385
2026-01-10 12:05:39.89	169.19	82.00	-34.4	-36.0	23.5	0.00e+00	0	44	0	1926234112	40	4316
2026-01-10 12:05:40.89	169.69	82.50	-34.6	-36.2	23.3	0.00e+00	0	44	0	1932525568	40	4441
2026-01-10 12:05:41.89	170.27	83.00	-34.7	-36.4	23.1	0.00e+00	0	44	0	1937768448	40	4506
2026-01-10 12:05:42.90	170.94	83.51	-34.9	-36.6	23.0	0.00e+00	0	44	0	1943011328	40	4639
2026-01-10 12:05:43.90	171.72	84.02	-35.1	-36.8	22.8	0.00e+00	0	43	0	1949302784	40	4730
2026-01-10 12:05:44.90	172.65	84.52	-35.0	-36.7	22.9	0.00e+00	0	44	0	1954545664	40	4681
2026-01-10 12:05:45.90	173.76	85.03	-35.3	-37.0	22.7	0.00e+00	0	44	0	1960837120	41	4550
2026-01-10 12:05:46.91	175.14	85.53	-35.2	-36.8	22.9	0.00e+00	0	44	0	1966080000	41	4491
2026-01-10 12:05:47.91	176.85	86.03	-35.2	-36.9	22.9	0.00e+00	0	44	0	1971322880	41	4508
2026-01-10 12:05:48.91	179.05	86.53	-35.4	-37.1	22.7	0.00e+00	0	44	0	1977614336	41	4616
2026-01-10 12:05:49.91	181.97	87.02	-35.7	-37.4	22.4	0.00e+00	0	44	0	1982857216	41	4782
2026-01-10 12:05:50.91	186.03	87.49	-35.7	-37.5	22.3	0.00e+00	0	44	0	1989148672	42	4555
2026-01-10 12:05:51.92	192.03	87.96	-35.8	-37.6	22.3	0.00e+00	0	44	0	1994391552	42	4602
2026-01-10 12:05:52.92	201.27	88.39	-36.3	-38.0	21.9	0.00e+00	0	44	0	1999634432	43	4593
2026-01-10 12:05:53.92	216.35	88.74	-36.8	-38.6	21.6	0.00e+00	0	44	0	2005925888	44	4604
2026-01-10 12:05:54.92	240.03	88.95	-36.3	-38.0	22.1	0.00e+00	0	44	0	2011168768	43	4575
2026-01-10 12:05:55.93	268.57	88.93	-36.3	-38.0	22.1	0.00e+00	0	44	0	2016411648	43	4581
2026-01-10 12:05:56.93	290.71	88.69	-36.3	-38.0	22.2	0.00e+00	0	44	0	2022703104	43	4562
2026-01-10 12:05:57.93	304.54	88.31	-36.0	-37.7	22.4	0.00e+00	0	44	0	2027945984	42	4664
2026-01-10 12:05:58.93	313.06	87.88	-35.9	-37.6	22.4	0.00e+00	0	44	0	2033188864	42	4624
2026-01-10 12:05:59.93	318.60	87.42	-35.8	-37.5	22.4	0.00e+00	0	44	0	2039480320	43	4331
2026-01-10 12:06:00.94	322.47	86.93	-35.9	-37.6	22.3	0.00e+00	0	44	0	2044723200	43	4382
2026-01-10 12:06:01.94	325.24	86.44	-35.4	-37.1	22.7	0.00e+00	0	44	0	2051014656	42	4362
2026-01-10 12:06:02.95	327.36	85.94	-35.3	-37.1	22.7	0.00e+00	0	44	0	2056257536	42	4344
2026-01-10 12:06:03.95	329.00	85.44	-35.3	-37.0	22.7	0.00e+00	0	44	0	2062548992	42	4301
2026-01-10 12:06:04.95	330.31	84.94	-34.9	-36.6	23.0	0.00e+00	0	44	0	2067791872	41	4359
2026-01-10 12:06:05.95	331.39	84.44	-34.8	-36.5	23.1	0.00e+00	0	44	0	2073034752	41	4299
2026-01-10 12:06:06.95	332.28	83.93	-34.4	-36.1	23.3	0.00e+00	0	44	0	2079326208	40	4357
2026-01-10 12:06:07.96	333.05	83.42	-34.6	-36.2	23.3	0.00e+00	0	44	0	2084569088	40	4431
2026-01-10 12:06:08.96	333.70	82.92	-34.5	-36.2	23.3	0.00e+00	0	44	0	2089811968	40	4412
2026-01-10 12:06:09.96	334.26	82.41	-34.3	-35.9	23.5	0.00e+00	0	44	0	2096103424	40	4274
2026-01-10 12:06:10.97	334.76	81.91	-34.9	-36.6	23.0	0.00e+00	0	44	0	2101346304	40	4624
2026-01-10 12:06:11.97	335.19	81.40	-35.1	-36.9	22.8	0.00e+00	0	44	0	2106589184	40	4764
2026-01-10 12:06:12.97	335.58	80.90	-35.1	-36.8	22.9	0.00e+00	0	44	0	2112880640	41	4485
2026-01-10 12:06:13.97	335.92	80.40	-35.1	-36.8	22.9	0.00e+00	0	44	0	2118123520	41	4456
2026-01-10 12:06:14.97	336.23	79.90	-35.1	-36.8	22.9	0.00e+00	0	44	0	2124414976	41	4447
2026-01-10 12:06:15.98	336.52	79.39	-35.1	-36.8	22.9	0.00e+00	0	44	0	2129657856	41	4460
2026-01-10 12:06:16.98	336.77	78.89	-35.2	-36.9	22.8	0.00e+00	0	44	0	2134900736	41	4528
2026-01-10 12:06:17.98	337.01	78.39	-35.2	-36.9	22.8	0.00e+00	0	44	0	2141192192	41	4533
2026-01-10 12:06:18.99	337.22	77.89	-35.5	-37.2	22.6	0.00e+00	0	44	0	2146435072	41	4671
2026-01-10 12:06:19.99	337.42	77.40	-35.5	-37.2	22.6	0.00e+00	0	44	0	2151677952	41	4654
2026-01-10 12:06:20.99	337.60	76.90	-35.6	-37.3	22.6	0.00e+00	0	44	0	2157969408	41	4748
2026-01-10 12:06:22.00	337.77	76.41	-35.9	-37.7	22.3	0.00e+00	0	44	0	2163212288	42	4665
2026-01-10 12:06:23.00	337.93	75.92	-35.6	-37.3	22.6	0.00e+00	0	44	0	2168455168	42	4446
2026-01-10 12:06:24.00	338.08	75.43	-35.6	-37.3	22.6	0.00e+00	0	44	0	2174746624	42	4447
2026-01-10 12:06:25.01	338.21	74.94	-36.1	-37.8	22.2	0.00e+00	0	44	0	2179989504	42	4740
2026-01-10 12:06:26.01	338.34	74.45	-36.0	-37.7	22.3	0.00e+00	0	44	0	2186280960	42	4687
2026-01-10 12:06:27.01	338.46	73.97	-35.9	-37.6	22.4	0.00e+00	0	44	0	2191523840	42	4628
2026-01-10 12:06:28.02	338.57	73.48	-36.2	-37.9	22.1	0.00e+00	0	44	0	2197815296	43	4541
2026-01-10 12:06:29.02	338.68	73.00	-36.0	-37.7	22.4	0.00e+00	0	44	0	2203058176	43	4407
2026-01-10 12:06:30.02	338.78	72.52	-36.1	-37.8	22.3	0.00e+00	0	44	0	2208301056	43	4467
2026-01-10 12:06:31.03	338.88	72.04	-36.3	-38.0	22.1	0.00e+00	0	44	0	2214592512	43	4574
2026-01-10 12:06:32.03	338.97	71.57	-36.3	-38.0	22.1	0.00e+00	0	44	0	2219835392	43	4579
2026-01-10 12:06:33.03	339.05	71.10	-36.5	-38.2	22.0	0.00e+00	0	44	0	2225078272	43	4702
2026-01-10 12:06:34.04	339.13	70.63	-36.6	-38.3	21.9	0.00e+00	0	44	0	2231369728	43	4737
2026-01-10 12:06:35.04	339.21	70.16	-36.6	-38.4	21.8	0.00e+00	0	43	0	2236612608	43	4766
2026-01-10 12:06:36.04	339.29	69.69	-36.6	-38.3	21.9	0.00e+00	0	43	0	2241855488	43	4745
2026-01-10 12:06:37.04	339.36	69.23	-36.6	-38.3	21.9	0.00e+00	0	44	0	2248146944	43	4754
2026-01-10 12:06:38.05	339.42	68.77	-36.7	-38.4	21.8	0.00e+00	0	44	0	2253389824	43	4794
2026-01-10 12:06:39.05	339.49	68.31	-37.1	-38.8	21.6	0.00e+00	0	44	0	2259681280	44	4757
2026-01-10 12:06:40.05	339.55	67.85	-36.9	-38.7	21.7	0.00e+00	0	43	0	2264924160	44	4667
2026-01-10 12:06:41.06	339.61	67.39	-36.7	-38.4	21.9	0.00e+00	0	44	0	2271215616	44	4502
2026-01-10 12:06:42.06	339.67	66.94	-36.9	-38.6	21.7	0.00e+00	0	44	0	2276458496	44	4640
2026-01-10 12:06:43.06	339.72	66.50	-37.2	-39.0	21.4	0.00e+00	0	44	0	2281701376	45	4574
2026-01-10 12:06:44.06	339.77	66.05	-37.3	-39.1	21.4	0.00e+00	0	44	0	2287992832	45	4603
2026-01-10 12:06:45.07	339.82	65.60	-37.1	-38.9	21.5	0.00e+00	0	44	0	2293235712	45	4512
2026-01-10 12:06:46.07	339.87	65.16	-37.3	-39.1	21.3	0.00e+00	0	44	0	2298478592	45	4628
2026-01-10 12:06:47.07	339.92	64.72	-37.3	-39.0	21.4	0.00e+00	0	44	0	2304770048	45	4579
2026-01-10 12:06:48.07	339.96	64.29	-37.3	-39.0	21.5	0.00e+00	0	44	0	2310012928	45	4595
2026-01-10 12:06:49.08	340.01	63.85	-37.3	-39.0	21.5	0.00e+00	0	44	0	2315255808	45	4572
2026-01-10 12:06:50.08	340.05	63.42	-37.2	-39.0	21.5	0.00e+00	0	44	0	2321547264	45	4580
2026-01-10 12:06:51.08	340.09	62.99	-37.2	-38.9	21.6	0.00e+00	0	44	0	2326790144	45	4517
2026-01-10 12:06:52.09	340.13	62.56	-37.3	-39.0	21.5	0.00e+00	0	44	0	2333081600	45	4575
2026-01-10 12:06:53.09	340.17	62.14	-37.6	-39.4	21.2	0.00e+00	0	44	0	2338324480	45	4770
2026-01-10 12:06:54.09	340.21	61.72	-37.4	-39.1	21.4	0.00e+00	0	44	0	2343567360	46	4382
2026-01-10 12:06:55.10	340.24	61.29	-37.2	-38.9	21.6	0.00e+00	0	44	0	2349858816	46	4251
2026-01-10 12:06:56.10	340.28	60.88	-37.3	-39.0	21.5	0.00e+00	0	44	0	2355101696	46	4326
2026-01-10 12:06:57.10	340.31	60.47	-37.6	-39.4	21.2	0.00e+00	0	44	0	2361393152	46	4497
2026-01-10 12:06:58.11	340.34	60.05	-37.6	-39.4	21.2	0.00e+00	0	44	0	2366636032	46	4517
2026-01-10 12:06:59.11	340.38	59.65	-37.7	-39.5	21.1	0.00e+00	0	44	0	2371878912	46	4552
2026-01-10 12:07:00.11	340.41	59.24	-37.8	-39.6	21.1	0.00e+00	0	44	0	2378170368	46	4620
2026-01-10 12:07:01.11	340.44	58.84	-38.0	-39.8	20.9	0.00e+00	0	44	0	2383413248	46	4732
2026-01-10 12:07:02.12	340.47	58.44	-38.2	-40.0	20.7	0.00e+00	0	44	0	2388656128	46	4839
2026-01-10 12:07:03.12	340.50	58.04	-38.3	-40.1	20.6	0.00e+00	0	44	0	2394947584	47	4626
2026-01-10 12:07:04.12	340.52	57.65	-38.4	-40.2	20.5	0.00e+00	0	44	0	2400190464	47	4700
2026-01-10 12:07:05.13	340.55	57.25	-38.6	-40.5	20.3	0.00e+00	0	44	0	2406481920	47	4830
2026-01-10 12:07:06.13	340.58	56.86	-38.3	-40.1	20.6	0.00e+00	0	43	0	2411724800	47	4646
2026-01-10 12:07:07.13	340.60	56.48	-38.4	-40.2	20.6	0.00e+00	0	44	0	2416967680	47	4660
2026-01-10 12:07:08.13	340.63	56.09	-38.6	-40.4	20.3	0.00e+00	0	44	0	2423259136	47	4812
2026-01-10 12:07:09.14	340.65	55.71	-39.0	-40.9	20.1	0.00e+00	0	44	0	2428502016	48	4808
2026-01-10 12:07:10.14	340.68	55.33	-39.1	-41.0	20.0	0.00e+00	0	44	0	2433744896	48	4861
2026-01-10 12:07:11.14	340.70	54.96	-38.9	-40.7	20.3	0.00e+00	0	44	0	2440036352	48	4674
2026-01-10 12:07:12.15	340.72	54.58	-38.7	-40.5	20.5	0.00e+00	0	44	0	2445279232	48	4586
2026-01-10 12:07:13.15	340.75	54.21	-38.8	-40.6	20.4	0.00e+00	0	44	0	2451570688	48	4650
2026-01-10 12:07:14.15	340.77	53.85	-39.0	-40.8	20.5	0.00e+00	0	44	0	2456813568	48	4732
2026-01-10 12:07:15.16	340.79	53.48	-39.2	-40.9	20.4	0.00e+00	0	44	0	2462056448	48	4814
2026-01-10 12:07:16.16	340.81	53.12	-39.0	-40.8	20.5	0.00e+00	0	44	0	2468347904	49	4463
2026-01-10 12:07:17.16	340.83	52.76	-38.8	-40.5	20.7	0.00e+00	0	44	0	2473590784	49	4328
2026-01-10 12:07:18.17	340.85	52.40	-38.6	-40.3	20.9	0.00e+00	0	44	0	2479882240	49	4215
2026-01-10 12:07:19.17	340.87	52.04	-38.5	-40.3	20.9	0.00e+00	0	44	0	2485125120	49	4206
2026-01-10 12:07:20.17	340.89	51.69	-38.7	-40.4	20.8	0.00e+00	0	44	0	2490368000	48	4508
2026-01-10 12:07:21.17	340.91	51.34	-38.6	-40.4	20.8	0.00e+00	0	44	0	2496659456	48	4507
2026-01-10 12:07:22.18	340.93	50.99	-38.5	-40.3	21.0	0.00e+00	0	44	0	2501902336	48	4445
2026-01-10 12:07:23.18	340.95	50.65	-38.5	-40.2	21.0	0.00e+00	0	44	0	2507145216	48	4433
2026-01-10 12:07:24.18	340.97	50.31	-38.1	-39.8	21.3	0.00e+00	0	44	0	2513436672	48	4226
2026-01-10 12:07:25.18	340.99	49.97	-37.8	-39.5	21.4	0.00e+00	0	44	0	2518679552	47	4292
2026-01-10 12:07:26.19	341.00	49.63	-37.6	-39.3	21.6	0.00e+00	0	44	0	2524971008	47	4200
2026-01-10 12:07:27.19	341.02	49.30	-37.7	-39.4	21.4	0.00e+00	0	44	0	2530213888	47	4278
2026-01-10 12:07:28.19	341.04	48.97	-38.1	-39.8	21.1	0.00e+00	0	44	0	2535456768	47	4476
2026-01-10 12:07:29.20	341.05	48.63	-38.3	-40.0	20.9	0.00e+00	0	44	0	2541748224	47	4591
2026-01-10 12:07:30.20	341.07	48.31	-38.4	-40.2	20.8	0.00e+00	0	44	0	2546991104	47	4654
2026-01-10 12:07:31.20	341.09	47.98	-38.3	-40.0	20.9	0.00e+00	0	44	0	2553282560	47	4584
2026-01-10 12:07:32.21	341.10	47.66	-38.0	-39.7	21.1	0.00e+00	0	44	0	2558525440	47	4438
2026-01-10 12:07:33.21	341.12	47.34	-37.7	-39.4	21.5	0.00e+00	0	44	0	2563768320	47	4244
2026-01-10 12:07:34.21	341.13	47.02	-37.5	-39.2	21.6	0.00e+00	0	44	0	2570059776	47	4152
2026-01-10 12:07:35.22	341.15	46.71	-37.5	-39.2	21.7	0.00e+00	0	44	0	2575302656	46	4395
2026-01-10 12:07:36.22	341.16	46.39	-37.4	-39.1	21.7	0.00e+00	0	44	0	2580545536	46	4361
2026-01-10 12:07:37.22	341.18	46.09	-37.6	-39.2	21.6	0.00e+00	0	44	0	2586836992	46	4436
2026-01-10 12:07:38.22	341.19	45.78	-37.6	-39.3	21.5	0.00e+00	0	44	0	2592079872	46	4490
2026-01-10 12:07:39.23	341.21	45.47	-37.7	-39.5	21.4	0.00e+00	0	44	0	2598371328	46	4547
2026-01-10 12:07:40.23	341.22	45.17	-37.8	-39.5	21.4	0.00e+00	0	44	0	2603614208	46	4560
2026-01-10 12:07:41.24	341.24	44.87	-37.8	-39.5	21.4	0.00e+00	0	44	0	2608857088	46	4565
2026-01-10 12:07:42.24	341.25	44.57	-37.6	-39.3	21.5	0.00e+00	0	44	0	2615148544	46	4476
2026-01-10 12:07:43.24	341.26	44.27	-37.6	-39.3	21.5	0.00e+00	0	44	0	2620391424	46	4453
2026-01-10 12:07:44.24	341.28	43.98	-37.5	-39.2	21.6	0.00e+00	0	44	0	2625634304	46	4417
2026-01-10 12:07:45.25	341.29	43.68	-37.6	-39.3	21.5	0.00e+00	0	44	0	2631925760	46	4452
2026-01-10 12:07:46.25	341.30	43.40	-37.7	-39.4	21.5	0.00e+00	0	44	0	2637168640	46	4518
2026-01-10 12:07:47.25	341.32	43.11	-37.8	-39.5	21.3	0.00e+00	0	44	0	2643460096	46	4575
2026-01-10 12:07:48.25	341.33	42.82	-37.8	-39.6	21.3	0.00e+00	0	44	0	2648702976	46	4603
2026-01-10 12:07:49.26	341.34	42.54	-37.7	-39.5	21.4	0.00e+00	0	44	0	2653945856	46	4550
2026-01-10 12:07:50.26	341.35	42.26	-37.7	-39.4	21.3	0.00e+00	0	44	0	2660237312	46	4535
2026-01-10 12:07:51.26	341.37	41.98	-37.7	-39.4	21.4	0.00e+00	0	44	0	2665480192	46	4520
2026-01-10 12:07:52.26	341.38	41.70	-37.5	-39.2	21.6	0.00e+00	0	44	0	2671771648	46	4421
2026-01-10 12:07:53.27	341.39	41.43	-37.5	-39.2	21.6	0.00e+00	0	44	0	2677014528	46	4402
2026-01-10 12:07:54.27	341.40	41.16	-37.5	-39.2	21.6	0.00e+00	0	44	0	2682257408	46	4429
2026-01-10 12:07:55.28	341.41	40.88	-37.5	-39.1	21.6	0.00e+00	0	44	0	2688548864	46	4390
2026-01-10 12:07:56.28	341.42	40.62	-37.3	-38.9	21.8	0.00e+00	0	44	0	2693791744	46	4287
2026-01-10 12:07:57.28	341.44	40.35	-37.2	-38.9	21.8	0.00e+00	0	44	0	2699034624	46	4268
2026-01-10 12:07:58.28	341.45	40.09	-37.3	-39.0	21.8	0.00e+00	0	44	0	2705326080	46	4294
2026-01-10 12:07:59.29	341.46	39.82	-37.3	-39.0	21.8	0.00e+00	0	44	0	2710568960	46	4323
2026-01-10 12:08:00.29	341.47	39.56	-37.4	-39.1	21.7	0.00e+00	0	44	0	2715811840	46	4350
2026-01-10 12:08:01.29	341.48	39.30	-37.4	-39.1	21.6	0.00e+00	0	44	0	2722103296	46	4388
2026-01-10 12:08:02.29	341.49	39.05	-37.5	-39.2	21.5	0.00e+00	0	44	0	2727346176	46	4440
2026-01-10 12:08:03.29	341.50	38.79	-37.6	-39.3	21.5	0.00e+00	0	44	0	2733637632	46	4454
2026-01-10 12:08:04.30	341.51	38.54	-37.4	-39.1	21.7	0.00e+00	0	44	0	2738880512	46	4362
2026-01-10 12:08:05.30	341.52	38.29	-37.4	-39.1	21.7	0.00e+00	0	44	0	2745171968	46	4368
2026-01-10 12:08:06.30	341.53	38.04	-37.4	-39.1	21.7	0.00e+00	0	44	0	2750414848	46	4343
2026-01-10 12:08:07.31	341.54	37.79	-37.2	-38.9	21.8	0.00e+00	0	44	0	2755657728	46	4267
2026-01-10 12:08:08.31	341.55	37.55	-37.2	-38.9	21.8	0.00e+00	0	44	0	2761949184	46	4266
2026-01-10 12:08:09.32	341.56	37.30	-37.2	-38.9	21.9	0.00e+00	0	44	0	2767192064	46	4248
2026-01-10 12:08:10.32	341.57	37.06	-37.3	-39.0	21.8	0.00e+00	0	44	0	2772434944	46	4293
2026-01-10 12:08:11.33	341.58	36.82	-37.3	-39.0	21.7	0.00e+00	0	44	0	2778726400	46	4338
2026-01-10 12:08:12.33	341.59	36.58	-37.4	-39.1	21.7	0.00e+00	0	44	0	2783969280	46	4358
2026-01-10 12:08:13.33	341.60	36.34	-37.4	-39.1	21.6	0.00e+00	0	44	0	2789212160	46	4388
2026-01-10 12:08:14.33	341.61	36.11	-37.4	-39.1	21.6	0.00e+00	0	44	0	2795503616	46	4390
2026-01-10 12:08:15.33	341.62	35.88	-37.4	-39.1	21.6	0.00e+00	0	44	0	2800746496	46	4371
2026-01-10 12:08:16.34	341.63	35.64	-37.4	-39.1	21.7	0.00e+00	0	44	0	2807037952	46	4352
2026-01-10 12:08:17.34	341.64	35.41	-37.2	-38.9	21.8	0.00e+00	0	44	0	2812280832	46	4287
2026-01-10 12:08:18.34	341.65	35.19	-37.3	-39.0	21.7	0.00e+00	0	44	0	2817523712	46	4337
2026-01-10 12:08:19.35	341.66	34.96	-37.3	-39.0	21.7	0.00e+00	0	44	0	2823815168	46	4322
2026-01-10 12:08:20.35	341.67	34.73	-37.3	-39.0	21.7	0.00e+00	0	44	0	2829058048	46	4339
2026-01-10 12:08:21.36	341.68	34.51	-37.4	-39.1	21.7	0.00e+00	0	44	0	2835349504	46	4371
2026-01-10 12:08:22.36	341.69	34.29	-37.5	-39.2	21.6	0.00e+00	0	44	0	2840592384	46	4431
2026-01-10 12:08:23.36	341.70	34.07	-37.6	-39.3	21.5	0.00e+00	0	44	0	2845835264	46	4462
2026-01-10 12:08:24.37	341.71	33.85	-37.6	-39.4	21.4	0.00e+00	0	44	0	2852126720	46	4500
2026-01-10 12:08:25.37	341.71	33.63	-37.7	-39.4	21.3	0.00e+00	0	44	0	2857369600	46	4544
2026-01-10 12:08:26.38	341.72	33.41	-37.8	-39.6	21.2	0.00e+00	0	44	0	2862612480	46	4611
2026-01-10 12:08:27.38	341.73	33.20	-37.8	-39.5	21.3	0.00e+00	0	44	0	2868903936	46	4585
2026-01-10 12:08:28.38	341.74	32.99	-37.8	-39.5	21.3	0.00e+00	0	44	0	2874146816	46	4582
2026-01-10 12:08:29.39	341.75	32.78	-37.8	-39.5	21.3	0.00e+00	0	44	0	2880438272	46	4571
2026-01-10 12:08:30.39	341.76	32.57	-37.8	-39.6	21.2	0.00e+00	0	44	0	2885681152	46	4608
2026-01-10 12:08:31.39	341.77	32.36	-37.8	-39.5	21.3	0.00e+00	0	44	0	2890924032	46	4583
2026-01-10 12:08:32.40	341.77	32.15	-37.8	-39.5	21.3	0.00e+00	0	44	0	2897215488	46	4591
2026-01-10 12:08:33.40	341.78	31.95	-37.8	-39.5	21.3	0.00e+00	0	44	0	2902458368	46	4598
2026-01-10 12:08:34.40	341.79	31.74	-37.9	-39.7	21.2	0.00e+00	0	44	0	2908749824	46	4661
2026-01-10 12:08:35.41	341.80	31.54	-37.9	-39.7	21.1	0.00e+00	0	44	0	2913992704	46	4679
2026-01-10 12:08:36.41	341.81	31.34	-38.0	-39.8	21.1	0.00e+00	0	44	0	2919235584	46	4710
2026-01-10 12:08:37.41	341.81	31.14	-37.9	-39.6	21.2	0.00e+00	0	44	0	2925527040	46	4642
2026-01-10 12:08:38.42	341.82	30.94	-37.9	-39.6	21.2	0.00e+00	0	44	0	2930769920	46	4644
2026-01-10 12:08:39.42	341.83	30.74	-38.0	-39.7	21.1	0.00e+00	0	44	0	2936012800	46	4704
2026-01-10 12:08:40.42	341.84	30.55	-37.9	-39.6	21.2	0.00e+00	0	44	0	2942304256	46	4647
2026-01-10 12:08:41.42	341.85	30.36	-37.9	-39.7	21.2	0.00e+00	0	44	0	2947547136	46	4673
2026-01-10 12:08:42.42	341.85	30.16	-38.0	-39.7	21.1	0.00e+00	0	44	0	2953838592	46	4700
2026-01-10 12:08:43.43	341.86	29.97	-38.0	-39.8	21.1	0.00e+00	0	44	0	2959081472	46	4730
2026-01-10 12:08:44.43	341.87	29.78	-38.1	-39.9	21.0	0.00e+00	0	44	0	2964324352	46	4779
2026-01-10 12:08:45.43	341.88	29.59	-38.1	-39.9	21.0	0.00e+00	0	44	0	2970615808	47	4505
2026-01-10 12:08:46.43	341.89	29.41	-38.1	-39.9	21.0	0.00e+00	0	44	0	2975858688	47	4505
2026-01-10 12:08:47.44	341.89	29.22	-38.1	-39.8	21.0	0.00e+00	0	44	0	2981101568	47	4478
2026-01-10 12:08:48.44	341.90	29.03	-38.1	-39.8	21.0	0.00e+00	0	44	0	2987393024	47	4477
2026-01-10 12:08:49.44	341.91	28.85	-38.1	-39.9	21.0	0.00e+00	0	44	0	2992635904	47	4504
2026-01-10 12:08:50.44	341.92	28.67	-38.2	-39.9	20.9	0.00e+00	0	44	0	2997878784	47	4533
2026-01-10 12:08:51.44	341.92	28.49	-38.0	-39.8	21.1	0.00e+00	0	44	0	3004170240	47	4444
2026-01-10 12:08:52.45	341.93	28.30	-37.8	-39.6	21.2	0.00e+00	0	44	0	3009413120	47	4356
2026-01-10 12:08:53.45	341.94	28.12	-37.9	-39.6	21.2	0.00e+00	0	44	0	3015704576	47	4377
2026-01-10 12:08:54.45	341.95	27.95	-37.9	-39.6	21.2	0.00e+00	0	44	0	3020947456	47	4373
2026-01-10 12:08:55.45	341.95	27.77	-37.9	-39.6	21.2	0.00e+00	0	44	0	3027238912	47	4375
2026-01-10 12:08:56.46	341.96	27.59	-37.9	-39.6	21.2	0.00e+00	0	44	0	3032481792	47	4358
2026-01-10 12:08:57.46	341.97	27.42	-37.8	-39.5	21.3	0.00e+00	0	44	0	3037724672	47	4297
2026-01-10 12:08:58.46	341.97	27.25	-37.8	-39.5	21.3	0.00e+00	0	44	0	3044016128	47	4304
2026-01-10 12:08:59.47	341.98	27.07	-37.8	-39.5	21.3	0.00e+00	0	44	0	3049259008	47	4316
2026-01-10 12:09:00.47	341.99	26.90	-37.9	-39.6	21.2	0.00e+00	0	44	0	3054501888	47	4345
2026-01-10 12:09:01.47	342.00	26.73	-37.9	-39.6	21.2	0.00e+00	0	44	0	3060793344	47	4349
2026-01-10 12:09:02.47	342.00	26.56	-37.8	-39.5	21.3	0.00e+00	0	44	0	3066036224	47	4328
2026-01-10 12:09:03.48	342.01	26.39	-37.9	-39.6	21.2	0.00e+00	0	44	0	3071279104	47	4378
2026-01-10 12:09:04.48	342.02	26.23	-38.0	-39.7	21.1	0.00e+00	0	44	0	3077570560	47	4425
2026-01-10 12:09:05.48	342.02	26.06	-38.0	-39.7	21.1	0.00e+00	0	44	0	3082813440	47	4436
2026-01-10 12:09:06.49	342.03	25.89	-38.0	-39.8	21.0	0.00e+00	0	44	0	3089104896	47	4455
2026-01-10 12:09:07.49	342.04	25.73	-38.1	-39.8	21.0	0.00e+00	0	44	0	3094347776	47	4490
2026-01-10 12:09:08.49	342.04	25.57	-38.2	-39.9	20.9	0.00e+00	0	44	0	3099590656	47	4526
2026-01-10 12:09:09.50	342.05	25.40	-38.2	-39.9	20.9	0.00e+00	0	44	0	3105882112	47	4542
2026-01-10 12:09:10.50	342.06	25.24	-38.1	-39.9	20.9	0.00e+00	0	44	0	3111124992	47	4523
2026-01-10 12:09:11.50	342.06	25.08	-38.2	-40.0	20.8	0.00e+00	0	44	0	3117416448	47	4567
2026-01-10 12:09:12.50	342.07	24.92	-38.2	-40.0	20.8	0.00e+00	0	44	0	3122659328	47	4582
2026-01-10 12:09:13.51	342.08	24.77	-38.2	-40.0	20.8	0.00e+00	0	44	0	3127902208	47	4582
2026-01-10 12:09:14.51	342.09	24.61	-38.2	-40.0	20.8	0.00e+00	0	44	0	3134193664	47	4561
2026-01-10 12:09:15.51	342.09	24.45	-38.2	-39.9	20.9	0.00e+00	0	44	0	3139436544	47	4542
2026-01-10 12:09:16.52	342.10	24.30	-38.1	-39.8	20.9	0.00e+00	0	44	0	3144679424	47	4487
2026-01-10 12:09:17.52	342.11	24.14	-38.0	-39.8	21.0	0.00e+00	0	44	0	3150970880	47	4452
2026-01-10 12:09:18.52	342.11	23.99	-38.1	-39.9	20.9	0.00e+00	0	44	0	3156213760	47	4505
2026-01-10 12:09:19.52	342.12	23.84	-38.0	-39.8	21.0	0.00e+00	0	44	0	3162505216	47	4455
2026-01-10 12:09:20.52	342.12	23.69	-38.0	-39.7	21.0	0.00e+00	0	44	0	3167748096	47	4439
2026-01-10 12:09:21.52	342.13	23.53	-38.0	-39.7	21.0	0.00e+00	0	44	0	3172990976	47	4435
2026-01-10 12:09:22.53	342.14	23.38	-38.0	-39.7	21.0	0.00e+00	0	44	0	3179282432	47	4438
2026-01-10 12:09:23.53	342.14	23.23	-38.0	-39.7	21.0	0.00e+00	0	44	0	3184525312	47	4437
2026-01-10 12:09:24.53	342.15	23.09	-38.0	-39.7	21.1	0.00e+00	0	44	0	3189768192	47	4429
2026-01-10 12:09:25.54	342.16	22.94	-38.0	-39.8	21.0	0.00e+00	0	44	0	3196059648	47	4455
2026-01-10 12:09:26.54	342.16	22.79	-38.1	-39.8	21.0	0.00e+00	0	44	0	3201302528	47	4485
2026-01-10 12:09:27.54	342.17	22.65	-38.2	-40.0	20.8	0.00e+00	0	44	0	3206545408	47	4558
2026-01-10 12:09:28.55	342.18	22.50	-38.1	-39.9	20.9	0.00e+00	0	44	0	3212836864	47	4500
2026-01-10 12:09:29.55	342.18	22.36	-38.1	-39.9	20.9	0.00e+00	0	44	0	3218079744	47	4497
2026-01-10 12:09:30.55	342.19	22.21	-38.2	-40.0	20.8	0.00e+00	0	44	0	3224371200	47	4565
2026-01-10 12:09:31.55	342.19	22.07	-38.3	-40.1	20.7	0.00e+00	0	44	0	3229614080	47	4622
2026-01-10 12:09:32.55	342.20	21.93	-38.2	-40.0	20.8	0.00e+00	0	44	0	3235905536	47	4598
2026-01-10 12:09:33.56	342.21	21.79	-38.2	-40.1	20.8	0.00e+00	0	44	0	3241148416	47	4604
2026-01-10 12:09:34.56	342.21	21.65	-38.3	-40.1	20.7	0.00e+00	0	44	0	3246391296	47	4644
2026-01-10 12:09:35.56	342.22	21.51	-38.3	-40.1	20.7	0.00e+00	0	44	0	3252682752	47	4637
2026-01-10 12:09:36.56	342.23	21.37	-38.4	-40.2	20.7	0.00e+00	0	44	0	3257925632	47	4663
2026-01-10 12:09:37.57	342.23	21.23	-38.4	-40.2	20.6	0.00e+00	0	44	0	3263168512	47	4705
2026-01-10 12:09:38.57	342.24	21.10	-38.4	-40.2	20.6	0.00e+00	0	44	0	3269459968	47	4700
2026-01-10 12:09:39.57	342.24	20.96	-38.5	-40.3	20.6	0.00e+00	0	44	0	3274702848	47	4718
2026-01-10 12:09:40.58	342.25	20.82	-38.6	-40.3	20.5	0.00e+00	0	44	0	3279945728	47	4755
2026-01-10 12:09:41.58	342.26	20.69	-38.6	-40.4	20.5	0.00e+00	0	44	0	3286237184	47	4777
2026-01-10 12:09:42.58	342.26	20.56	-38.7	-40.5	20.4	0.00e+00	0	44	0	3291480064	47	4827
2026-01-10 12:09:43.58	342.27	20.42	-38.7	-40.5	20.4	0.00e+00	0	44	0	3297771520	47	4819
2026-01-10 12:09:44.58	342.27	20.29	-38.8	-40.6	20.5	0.00e+00	0	44	0	3303014400	48	4615
2026-01-10 12:09:45.59	342.28	20.16	-38.8	-40.6	20.5	0.00e+00	0	44	0	3308257280	48	4633
2026-01-10 12:09:46.59	342.29	20.03	-38.8	-40.6	20.5	0.00e+00	0	44	0	3314548736	48	4608
2026-01-10 12:09:47.60	342.29	19.90	-38.8	-40.7	20.5	0.00e+00	0	44	0	3319791616	48	4653
2026-01-10 12:09:48.60	342.30	19.77	-39.0	-40.8	20.3	0.00e+00	0	44	0	3326083072	48	4719
2026-01-10 12:09:49.60	342.30	19.64	-39.0	-40.8	20.3	0.00e+00	0	44	0	3331325952	48	4733
2026-01-10 12:09:50.61	342.31	19.51	-39.1	-40.9	20.2	0.00e+00	0	44	0	3336568832	48	4789
2026-01-10 12:09:51.61	342.32	19.38	-39.1	-40.9	20.3	0.00e+00	0	44	0	3342860288	48	4766
2026-01-10 12:09:52.62	342.32	19.25	-39.1	-40.8	20.3	0.00e+00	0	44	0	3348103168	48	4748
2026-01-10 12:09:53.62	342.33	19.13	-39.1	-40.9	20.2	0.00e+00	0	44	0	3353346048	48	4780
2026-01-10 12:09:54.62	342.33	19.00	-39.2	-40.9	20.2	0.00e+00	0	44	0	3359637504	48	4811
2026-01-10 12:09:55.62	342.34	18.87	-39.2	-41.0	20.1	0.00e+00	0	44	0	3364880384	49	4568
2026-01-10 12:09:56.63	342.35	18.75	-39.3	-41.1	20.0	0.00e+00	0	44	0	3371171840	49	4632
2026-01-10 12:09:57.63	342.35	18.63	-39.3	-41.1	20.1	0.00e+00	0	44	0	3376414720	49	4629
2026-01-10 12:09:58.63	342.36	18.50	-39.4	-41.2	19.9	0.00e+00	0	44	0	3381657600	49	4677
2026-01-10 12:09:59.64	342.36	18.38	-39.6	-41.4	19.8	0.00e+00	0	44	0	3387949056	49	4769
2026-01-10 12:10:00.64	342.37	18.26	-39.4	-41.3	19.9	0.00e+00	0	44	0	3393191936	49	4710
2026-01-10 12:10:01.64	342.37	18.14	-39.5	-41.3	19.9	0.00e+00	0	44	0	3398434816	49	4722
2026-01-10 12:10:02.65	342.38	18.01	-39.5	-41.3	19.9	0.00e+00	0	44	0	3404726272	49	4743
2026-01-10 12:10:03.65	342.39	17.89	-39.6	-41.4	19.7	0.00e+00	0	44	0	3409969152	49	4797
2026-01-10 12:10:04.66	342.39	17.77	-39.6	-41.5	19.7	0.00e+00	0	44	0	3416260608	49	4825
2026-01-10 12:10:05.66	342.40	17.65	-39.6	-41.5	19.7	0.00e+00	0	44	0	3421503488	49	4815
2026-01-10 12:10:06.66	342.40	17.54	-39.7	-41.6	19.6	0.00e+00	0	44	0	3426746368	50	4622
2026-01-10 12:10:07.67	342.41	17.42	-39.8	-41.6	19.6	0.00e+00	0	44	0	3433037824	50	4641
2026-01-10 12:10:08.67	342.41	17.30	-39.8	-41.7	19.5	0.00e+00	0	44	0	3438280704	50	4658
2026-01-10 12:10:09.67	342.42	17.18	-39.9	-41.8	19.5	0.00e+00	0	44	0	3444572160	50	4707
2026-01-10 12:10:10.68	342.43	17.07	-39.9	-41.7	19.5	0.00e+00	0	44	0	3449815040	50	4696
2026-01-10 12:10:11.68	342.43	16.95	-39.9	-41.8	19.4	0.00e+00	0	44	0	3455057920	50	4741
2026-01-10 12:10:12.68	342.44	16.84	-39.9	-41.8	19.4	0.00e+00	0	44	0	3461349376	50	4744
2026-01-10 12:10:13.69	342.44	16.72	-39.9	-41.9	19.4	0.00e+00	0	44	0	3466592256	50	4760
2026-01-10 12:10:14.69	342.45	16.61	-39.9	-41.8	19.4	0.00e+00	0	44	0	3471835136	50	4751
2026-01-10 12:10:15.69	342.45	16.49	-40.0	-41.9	19.3	0.00e+00	0	44	0	3478126592	50	4799
2026-01-10 12:10:16.70	342.46	16.38	-40.0	-41.9	19.3	0.00e+00	0	44	0	3483369472	50	4814
2026-01-10 12:10:17.70	342.47	16.27	-40.1	-42.1	19.2	0.00e+00	0	44	0	3489660928	50	4871
2026-01-10 12:10:18.71	342.47	16.15	-40.1	-42.1	19.1	0.00e+00	0	44	0	3494903808	50	4882
2026-01-10 12:10:19.71	342.48	16.04	-40.1	-42.1	19.2	0.00e+00	0	44	0	3500146688	51	4602
2026-01-10 12:10:20.71	342.48	15.93	-40.0	-42.0	19.2	0.00e+00	0	44	0	3506438144	51	4569
2026-01-10 12:10:21.71	342.49	15.82	-40.0	-42.0	19.2	0.00e+00	0	44	0	3511681024	51	4573
2026-01-10 12:10:22.72	342.49	15.71	-40.1	-42.1	19.1	0.00e+00	0	44	0	3517972480	51	4634
2026-01-10 12:10:23.72	342.50	15.60	-40.1	-42.1	19.1	0.00e+00	0	44	0	3523215360	51	4631
2026-01-10 12:10:24.73	342.50	15.49	-40.0	-42.1	19.1	0.00e+00	0	44	0	3528458240	51	4599
2026-01-10 12:10:25.73	342.51	15.38	-40.1	-42.2	19.0	0.00e+00	0	44	0	3534749696	51	4654
2026-01-10 12:10:26.73	342.52	15.28	-40.2	-42.2	19.0	0.00e+00	0	44	0	3539992576	51	4687
2026-01-10 12:10:27.74	342.52	15.17	-40.2	-42.3	18.9	0.00e+00	0	44	0	3545235456	51	4721
2026-01-10 12:10:28.74	342.53	15.06	-40.2	-42.2	19.0	0.00e+00	0	44	0	3551526912	51	4683
2026-01-10 12:10:29.75	342.53	14.95	-40.3	-42.3	18.9	0.00e+00	0	44	0	3556769792	51	4733
2026-01-10 12:10:30.75	342.54	14.85	-40.2	-42.2	19.0	0.00e+00	0	44	0	3562012672	51	4667
2026-01-10 12:10:31.75	342.54	14.74	-40.2	-42.2	19.0	0.00e+00	0	44	0	3568304128	51	4677
2026-01-10 12:10:32.75	342.55	14.64	-40.1	-42.2	19.0	0.00e+00	0	44	0	3573547008	51	4653
2026-01-10 12:10:33.75	342.55	14.53	-40.2	-42.2	18.9	0.00e+00	0	44	0	3579838464	51	4687
2026-01-10 12:10:34.76	342.56	14.43	-40.2	-42.2	19.0	0.00e+00	0	44	0	3585081344	51	4686
2026-01-10 12:10:35.76	342.56	14.32	-40.2	-42.3	18.9	0.00e+00	0	44	0	3591372800	51	4706
2026-01-10 12:10:36.76	342.57	14.22	-40.3	-42.4	18.8	0.00e+00	0	44	0	3596615680	51	4768
2026-01-10 12:10:37.76	342.57	14.12	-40.3	-42.4	18.8	0.00e+00	0	44	0	3601858560	51	4792
2026-01-10 12:10:38.77	342.58	14.01	-40.4	-42.5	18.7	0.00e+00	0	44	0	3608150016	51	4832
2026-01-10 12:10:39.77	342.59	13.91	-40.5	-42.6	18.6	0.00e+00	0	44	0	3613392896	51	4878
2026-01-10 12:10:40.77	342.59	13.81	-40.5	-42.6	18.6	0.00e+00	0	44	0	3618635776	51	4894
2026-01-10 12:10:41.78	342.60	13.71	-40.4	-42.5	18.6	0.00e+00	0	44	0	3624927232	51	4867
2026-01-10 12:10:42.78	342.60	13.61	-40.6	-42.7	18.5	0.00e+00	0	44	0	3630170112	51	4980
2026-01-10 12:10:43.78	342.61	13.51	-40.6	-42.8	18.4	0.00e+00	0	44	0	3635412992	51	4991
2026-01-10 12:10:44.78	342.61	13.41	-40.3	-42.5	18.7	0.00e+00	0	44	0	3641704448	51	4827
2026-01-10 12:10:45.78	342.62	13.31	-40.3	-42.4	18.7	0.00e+00	0	44	0	3646947328	51	4789
2026-01-10 12:10:46.79	342.62	13.21	-40.3	-42.4	18.7	0.00e+00	0	44	0	3653238784	51	4783
2026-01-10 12:10:47.79	342.63	13.11	-40.4	-42.6	18.6	0.00e+00	0	44	0	3658481664	51	4889
2026-01-10 12:10:48.79	342.63	13.01	-40.3	-42.4	18.7	0.00e+00	0	44	0	3663724544	51	4787
2026-01-10 12:10:49.80	342.64	12.91	-40.4	-42.5	18.6	0.00e+00	0	44	0	3670016000	51	4857
