passes_logs/2026/01/10/T1/T1__20260110_094003_NOAA_20_JPSS-1_rec.log

#Pass ID: 20260110_094003_NOAA 20 (JPSS-1)
#Satellite: NOAA 20 (JPSS-1)
#Configuration: NOAA 20
#almurnet v.1.7.20251203
#Start time: 2026-01-10 09:40:06

#Version: 2.0.20230620
#Station: T1
#Location: 37.570604 lon 55.790049 lat
#TLE: 1 43013U 17073A   26009.69119415  .00000109  00000+0  72598-4 0  9996
#TLE: 2 43013  98.7631 310.6868 0001678  46.7442 313.3874 14.19534878421981

#Time	Az	El	Level	Level2	SNR	BER	BlckErr	Temp	State	Recorded	gain1	gain2
2026-01-10 09:40:06.01	152.11	5.15	-50.1	-65.5	3.8	1.49e+00	0	37	0	0	72	20422
2026-01-10 09:40:07.01	152.10	5.22	-50.1	-65.6	3.8	1.49e+00	0	38	104	0	72	20629
2026-01-10 09:40:08.02	152.08	5.29	-50.1	-65.6	3.8	1.49e+00	0	38	104	0	72	20668
2026-01-10 09:40:09.02	152.07	5.37	-50.1	-65.6	3.8	1.49e+00	0	38	104	0	72	20700
2026-01-10 09:40:10.02	152.06	5.44	-50.1	-65.7	3.8	1.49e+00	0	38	104	0	72	20794
2026-01-10 09:40:11.03	152.04	5.51	-50.1	-65.7	3.8	1.49e+00	0	38	104	0	72	20813
2026-01-10 09:40:12.03	152.03	5.59	-50.1	-65.6	3.8	1.49e+00	0	38	104	0	72	20742
2026-01-10 09:40:13.04	152.02	5.66	-50.1	-65.6	3.8	1.49e+00	0	38	104	0	72	20602
2026-01-10 09:40:14.04	152.00	5.73	-50.1	-65.5	3.8	1.49e+00	0	38	104	0	72	20390
2026-01-10 09:40:15.04	151.99	5.81	-50.1	-65.4	3.8	1.49e+00	0	38	104	0	72	20179
2026-01-10 09:40:16.05	151.98	5.88	-50.1	-65.3	3.8	1.49e+00	0	38	104	0	72	19854
2026-01-10 09:40:17.05	151.96	5.96	-50.1	-65.0	3.8	1.49e+00	0	38	104	0	72	19371
2026-01-10 09:40:18.06	151.95	6.03	-50.1	-64.9	3.8	1.49e+00	0	38	104	0	72	19161
2026-01-10 09:40:19.06	151.94	6.11	-50.1	-64.7	3.8	1.49e+00	0	38	104	0	72	18684
2026-01-10 09:40:20.06	151.92	6.18	-50.1	-64.6	3.8	1.49e+00	0	38	104	0	72	18336
2026-01-10 09:40:21.07	151.91	6.26	-50.0	-64.3	3.8	1.49e+00	0	38	104	0	72	17692
2026-01-10 09:40:22.07	151.89	6.33	-50.0	-63.9	3.8	1.49e+00	0	38	104	0	72	16919
2026-01-10 09:40:23.07	151.88	6.41	-50.0	-63.6	3.8	1.48e+00	0	38	104	0	72	16325
2026-01-10 09:40:24.08	151.87	6.48	-50.0	-63.0	3.9	1.48e+00	0	38	104	0	72	15238
2026-01-10 09:40:25.08	151.85	6.56	-50.0	-62.1	4.2	1.43e+00	0	38	0	0	71	14668
2026-01-10 09:40:26.08	151.84	6.64	-49.9	-61.5	4.4	1.35e+00	0	38	0	0	71	13580
2026-01-10 09:40:27.09	151.82	6.71	-49.8	-60.4	4.9	9.54e-01	0	38	0	2097152	71	12026
2026-01-10 09:40:28.09	151.81	6.79	-49.7	-59.9	5.1	7.32e-01	0	38	0	4194304	71	11369
2026-01-10 09:40:29.09	151.79	6.87	-49.6	-59.3	5.5	5.69e-01	0	38	0	5242880	71	10597
2026-01-10 09:40:30.10	151.78	6.94	-49.5	-58.4	6.1	3.30e-01	0	38	0	7340032	71	9535
2026-01-10 09:40:31.10	151.76	7.02	-49.3	-57.5	6.8	2.37e-01	0	38	0	9437184	70	9149
2026-01-10 09:40:32.10	151.75	7.10	-49.2	-57.0	7.3	1.59e-01	0	39	0	11534336	70	8648
2026-01-10 09:40:33.11	151.74	7.18	-49.0	-56.1	8.3	6.27e-02	0	38	0	13631488	70	7730
2026-01-10 09:40:34.11	151.72	7.25	-48.8	-55.5	8.8	4.27e-02	0	39	0	14680064	69	7704
2026-01-10 09:40:35.11	151.71	7.33	-48.6	-54.7	9.6	1.80e-02	0	39	0	16777216	69	7040
2026-01-10 09:40:36.12	151.69	7.41	-48.4	-54.3	10.1	9.11e-03	0	38	0	18874368	68	7058
2026-01-10 09:40:37.12	151.67	7.49	-48.1	-53.4	11.0	3.00e-03	0	38	0	20971520	68	6382
2026-01-10 09:40:38.12	151.66	7.57	-47.6	-52.6	11.7	1.10e-03	0	39	0	23068672	67	6153
2026-01-10 09:40:39.13	151.64	7.65	-47.4	-52.1	12.2	4.42e-04	0	39	0	24117248	66	6169
2026-01-10 09:40:40.13	151.63	7.73	-47.2	-51.7	12.6	1.27e-04	0	39	0	26214400	66	5900
2026-01-10 09:40:41.13	151.61	7.81	-47.0	-51.4	12.9	6.86e-05	0	38	0	28311552	66	5676
2026-01-10 09:40:42.13	151.60	7.89	-46.9	-51.0	13.3	2.97e-05	0	39	0	30408704	65	5776
2026-01-10 09:40:43.14	151.58	7.97	-46.8	-50.9	13.4	1.75e-05	0	39	0	32505856	65	5709
2026-01-10 09:40:44.14	151.56	8.05	-46.8	-50.9	13.4	9.90e-06	0	39	0	33554432	65	5681
2026-01-10 09:40:45.15	151.55	8.13	-46.8	-51.0	13.3	2.59e-05	0	39	0	35651584	65	5760
2026-01-10 09:40:46.15	151.53	8.21	-47.0	-51.3	13.0	2.28e-05	0	39	0	37748736	65	5968
2026-01-10 09:40:47.15	151.52	8.29	-47.3	-51.8	12.5	1.05e-04	0	39	0	39845888	65	6329
2026-01-10 09:40:48.15	151.50	8.37	-47.5	-52.3	12.0	1.62e-04	0	39	0	41943040	65	6656
2026-01-10 09:40:49.15	151.48	8.46	-47.9	-53.1	11.1	5.49e-04	0	39	0	42991616	66	6958
2026-01-10 09:40:50.16	151.47	8.54	-48.2	-54.1	10.1	5.19e-03	0	39	0	45088768	67	7327
2026-01-10 09:40:51.16	151.45	8.62	-48.6	-55.2	9.0	1.61e-02	0	39	0	47185920	67	8309
2026-01-10 09:40:52.16	151.43	8.70	-49.2	-56.8	7.6	4.98e-02	0	39	0	49283072	68	9421
2026-01-10 09:40:53.17	151.42	8.79	-49.5	-58.6	6.0	1.53e-01	0	39	0	51380224	69	10906
2026-01-10 09:40:54.17	151.40	8.87	-49.8	-60.6	4.8	6.32e-01	0	39	0	52428800	70	12991
2026-01-10 09:40:55.17	151.38	8.95	-50.0	-62.6	4.1	1.30e+00	0	39	0	53477376	70	16498
2026-01-10 09:40:56.18	151.36	9.04	-50.1	-64.4	3.8	1.48e+00	0	39	104	53477376	70	20128
2026-01-10 09:40:57.18	151.35	9.12	-49.3	-56.8	7.5	1.31e-01	0	39	0	54525952	70	8454
2026-01-10 09:40:58.18	151.33	9.21	-48.7	-55.1	9.6	5.28e-03	0	39	0	55574528	68	7753
2026-01-10 09:40:59.18	151.31	9.29	-50.0	-64.4	3.8	1.47e+00	0	39	104	56623104	71	19064
2026-01-10 09:41:00.18	151.29	9.37	-49.1	-56.2	8.2	1.00e-01	0	39	0	56623104	70	7883
2026-01-10 09:41:01.18	151.28	9.46	-47.9	-53.1	11.2	9.28e-04	0	39	0	58720256	67	6548
2026-01-10 09:41:02.18	151.26	9.55	-47.9	-53.0	11.3	8.15e-04	0	39	0	60817408	67	6487
2026-01-10 09:41:03.18	151.24	9.63	-47.5	-52.3	12.0	1.82e-02	0	39	0	61865984	67	5947
2026-01-10 09:41:04.18	151.22	9.72	-46.9	-51.1	13.3	3.43e-05	0	39	0	63963136	65	5794
2026-01-10 09:41:05.18	151.20	9.80	-46.3	-50.0	14.4	3.00e-06	0	39	0	66060288	64	5432
2026-01-10 09:41:06.19	151.19	9.89	-46.0	-49.4	15.0	9.40e-03	0	39	0	68157440	64	5083
2026-01-10 09:41:07.19	151.17	9.98	-45.9	-49.3	15.3	0.00e+00	0	39	0	70254592	63	5285
2026-01-10 09:41:08.19	151.15	10.06	-45.9	-49.3	15.3	0.00e+00	0	39	0	71303168	63	5297
2026-01-10 09:41:09.20	151.13	10.15	-46.0	-49.3	15.3	0.00e+00	0	39	0	73400320	63	5327
2026-01-10 09:41:10.20	151.11	10.24	-45.7	-48.9	15.7	0.00e+00	0	39	0	75497472	63	5043
2026-01-10 09:41:11.20	151.09	10.33	-45.7	-48.9	15.6	0.00e+00	0	39	0	77594624	63	5058
2026-01-10 09:41:12.20	151.07	10.42	-45.7	-48.8	15.7	0.00e+00	0	39	0	78643200	63	5011
2026-01-10 09:41:13.20	151.05	10.50	-45.6	-48.8	15.8	0.00e+00	0	39	0	80740352	63	5009
2026-01-10 09:41:14.20	151.03	10.59	-45.6	-48.8	15.8	8.22e-04	0	39	0	82837504	63	4987
2026-01-10 09:41:15.21	151.01	10.68	-45.5	-48.6	15.9	0.00e+00	0	39	0	84934656	63	4908
2026-01-10 09:41:16.21	150.99	10.77	-45.5	-48.6	15.9	0.00e+00	0	39	0	87031808	63	4920
2026-01-10 09:41:17.21	150.97	10.86	-45.6	-48.7	15.8	0.00e+00	0	39	0	88080384	63	4971
2026-01-10 09:41:18.22	150.95	10.95	-45.6	-48.8	15.8	0.00e+00	0	39	0	90177536	63	5010
2026-01-10 09:41:19.22	150.93	11.04	-45.7	-48.8	15.8	0.00e+00	0	39	0	92274688	63	5018
2026-01-10 09:41:20.22	150.91	11.14	-45.7	-48.9	15.7	0.00e+00	0	39	0	94371840	63	5072
2026-01-10 09:41:21.22	150.89	11.23	-45.5	-48.7	16.0	0.00e+00	0	39	0	96468992	63	4940
2026-01-10 09:41:22.22	150.87	11.32	-45.5	-48.6	16.0	0.00e+00	0	39	0	97517568	63	4904
2026-01-10 09:41:23.23	150.85	11.41	-45.5	-48.6	16.1	7.09e-05	0	39	0	99614720	62	5174
2026-01-10 09:41:24.23	150.83	11.50	-45.4	-48.5	16.1	0.00e+00	0	39	0	101711872	62	5149
2026-01-10 09:41:25.23	150.81	11.60	-45.5	-48.6	16.1	0.00e+00	0	39	0	103809024	62	5167
2026-01-10 09:41:26.23	150.79	11.69	-45.4	-48.5	16.1	1.72e-04	0	39	0	105906176	62	5134
2026-01-10 09:41:27.24	150.77	11.78	-45.3	-48.4	16.2	0.00e+00	0	39	0	106954752	62	5064
2026-01-10 09:41:28.24	150.75	11.88	-45.3	-48.4	16.3	0.00e+00	0	39	0	109051904	62	5051
2026-01-10 09:41:29.24	150.72	11.97	-45.2	-48.2	16.4	0.00e+00	0	39	0	111149056	62	4983
2026-01-10 09:41:30.24	150.70	12.06	-45.2	-48.2	16.4	0.00e+00	0	39	0	113246208	62	4971
2026-01-10 09:41:31.25	150.68	12.16	-45.2	-48.3	16.4	0.00e+00	0	39	0	115343360	62	4986
2026-01-10 09:41:32.25	150.66	12.26	-45.2	-48.3	16.4	0.00e+00	0	39	0	116391936	62	5016
2026-01-10 09:41:33.25	150.64	12.35	-45.3	-48.4	16.3	0.00e+00	0	39	0	118489088	62	5072
2026-01-10 09:41:34.25	150.61	12.45	-45.3	-48.4	16.2	0.00e+00	0	39	0	120586240	62	5081
2026-01-10 09:41:35.26	150.59	12.54	-45.2	-48.2	16.5	0.00e+00	0	39	0	122683392	62	4956
2026-01-10 09:41:36.26	150.57	12.64	-45.2	-48.2	16.5	0.00e+00	0	39	0	123731968	62	4969
2026-01-10 09:41:37.26	150.54	12.74	-45.2	-48.2	16.5	0.00e+00	0	39	0	125829120	62	4964
2026-01-10 09:41:38.26	150.52	12.83	-45.1	-48.1	16.6	0.00e+00	0	39	0	127926272	62	4907
2026-01-10 09:41:39.27	150.50	12.93	-45.1	-48.1	16.6	0.00e+00	0	39	0	130023424	62	4881
2026-01-10 09:41:40.27	150.47	13.03	-45.1	-48.0	16.7	0.00e+00	0	40	0	132120576	62	4835
2026-01-10 09:41:41.27	150.45	13.13	-45.0	-47.8	16.8	0.00e+00	0	39	0	134217728	61	5036
2026-01-10 09:41:42.27	150.43	13.23	-45.0	-47.9	16.8	0.00e+00	0	39	0	135266304	61	5051
2026-01-10 09:41:43.27	150.40	13.33	-44.9	-47.8	16.9	0.00e+00	0	40	0	137363456	61	5010
2026-01-10 09:41:44.28	150.38	13.43	-45.0	-47.9	16.8	0.00e+00	0	39	0	139460608	61	5049
2026-01-10 09:41:45.28	150.35	13.53	-45.0	-47.9	16.8	0.00e+00	0	39	0	141557760	61	5058
2026-01-10 09:41:46.28	150.33	13.63	-45.0	-47.8	16.9	0.00e+00	0	39	0	142606336	61	5027
2026-01-10 09:41:47.28	150.30	13.73	-45.1	-47.9	16.7	0.00e+00	0	39	0	144703488	61	5094
2026-01-10 09:41:48.29	150.28	13.83	-45.1	-47.9	16.8	0.00e+00	0	40	0	146800640	61	5056
2026-01-10 09:41:49.29	150.25	13.93	-45.0	-47.8	16.9	0.00e+00	0	39	0	148897792	61	4991
2026-01-10 09:41:50.29	150.23	14.04	-45.0	-47.8	16.9	0.00e+00	0	40	0	150994944	61	5004
2026-01-10 09:41:51.29	150.20	14.14	-44.9	-47.7	17.0	0.00e+00	0	40	0	152043520	61	4960
2026-01-10 09:41:52.29	150.18	14.24	-44.9	-47.7	17.0	0.00e+00	0	39	0	154140672	61	4947
2026-01-10 09:41:53.30	150.15	14.35	-44.9	-47.7	17.0	0.00e+00	0	39	0	156237824	61	4970
2026-01-10 09:41:54.30	150.13	14.45	-44.8	-47.6	17.1	0.00e+00	0	40	0	158334976	61	4907
2026-01-10 09:41:55.30	150.10	14.56	-44.8	-47.6	17.2	0.00e+00	0	39	0	160432128	61	4882
2026-01-10 09:41:56.30	150.07	14.66	-44.8	-47.5	17.2	0.00e+00	0	40	0	161480704	61	4866
2026-01-10 09:41:57.31	150.05	14.77	-44.7	-47.5	17.2	0.00e+00	0	39	0	163577856	61	4815
2026-01-10 09:41:58.31	150.02	14.87	-44.7	-47.4	17.3	0.00e+00	0	39	0	165675008	61	4786
2026-01-10 09:41:59.31	149.99	14.98	-44.7	-47.5	17.3	0.00e+00	0	39	0	167772160	61	4825
2026-01-10 09:42:00.31	149.97	15.09	-44.7	-47.5	17.3	0.00e+00	0	39	0	168820736	61	4837
2026-01-10 09:42:01.31	149.94	15.19	-44.7	-47.5	17.2	0.00e+00	0	40	0	170917888	61	4859
2026-01-10 09:42:02.32	149.91	15.30	-44.7	-47.5	17.3	0.00e+00	0	39	0	173015040	61	4838
2026-01-10 09:42:03.32	149.88	15.41	-44.7	-47.5	17.3	0.00e+00	0	40	0	175112192	61	4851
2026-01-10 09:42:04.32	149.85	15.52	-44.8	-47.7	17.1	0.00e+00	0	40	0	177209344	61	4932
2026-01-10 09:42:05.32	149.83	15.63	-44.7	-47.5	17.3	0.00e+00	0	39	0	179306496	61	4838
2026-01-10 09:42:06.32	149.80	15.74	-44.8	-47.5	17.3	0.00e+00	0	40	0	180355072	61	4838
2026-01-10 09:42:07.32	149.77	15.85	-44.8	-47.6	17.2	0.00e+00	0	39	0	182452224	61	4880
2026-01-10 09:42:08.33	149.74	15.96	-44.7	-47.4	17.4	0.00e+00	0	39	0	184549376	61	4789
2026-01-10 09:42:09.33	149.71	16.07	-44.7	-47.3	17.4	0.00e+00	0	39	0	186646528	61	4747
2026-01-10 09:42:10.33	149.68	16.18	-44.6	-47.3	17.5	0.00e+00	0	39	0	187695104	61	4720
2026-01-10 09:42:11.33	149.65	16.29	-44.7	-47.3	17.5	0.00e+00	0	40	0	189792256	61	4723
2026-01-10 09:42:12.34	149.62	16.41	-44.7	-47.3	17.4	0.00e+00	0	39	0	191889408	61	4754
2026-01-10 09:42:13.34	149.59	16.52	-44.6	-47.2	17.6	0.00e+00	0	40	0	193986560	61	4663
2026-01-10 09:42:14.34	149.56	16.63	-44.7	-47.3	17.6	0.00e+00	0	40	0	196083712	61	4708
2026-01-10 09:42:15.34	149.53	16.75	-44.7	-47.3	17.5	0.00e+00	0	40	0	197132288	61	4721
2026-01-10 09:42:16.34	149.50	16.86	-44.6	-47.2	17.6	0.00e+00	0	39	0	199229440	61	4699
2026-01-10 09:42:17.35	149.47	16.98	-44.6	-47.2	17.6	0.00e+00	0	40	0	201326592	61	4702
2026-01-10 09:42:18.35	149.43	17.09	-44.7	-47.3	17.6	0.00e+00	0	40	0	203423744	61	4718
2026-01-10 09:42:19.35	149.40	17.21	-44.7	-47.4	17.5	0.00e+00	0	40	0	205520896	61	4761
2026-01-10 09:42:20.35	149.37	17.32	-44.7	-47.4	17.4	0.00e+00	0	40	0	206569472	61	4781
2026-01-10 09:42:21.36	149.34	17.44	-44.8	-47.4	17.4	0.00e+00	0	40	0	208666624	61	4797
2026-01-10 09:42:22.35	149.30	17.56	-44.7	-47.4	17.5	0.00e+00	0	40	0	210763776	61	4775
2026-01-10 09:42:23.36	149.27	17.68	-44.7	-47.3	17.5	0.00e+00	0	40	0	212860928	61	4746
2026-01-10 09:42:24.36	149.24	17.80	-44.6	-47.3	17.6	0.00e+00	0	40	0	213909504	61	4724
2026-01-10 09:42:25.36	149.20	17.92	-44.7	-47.4	17.5	0.00e+00	0	40	0	216006656	61	4769
2026-01-10 09:42:26.37	149.17	18.04	-44.7	-47.3	17.6	0.00e+00	0	40	0	218103808	61	4735
2026-01-10 09:42:27.37	149.14	18.16	-44.6	-47.2	17.6	0.00e+00	0	40	0	220200960	61	4701
2026-01-10 09:42:28.37	149.10	18.28	-44.6	-47.2	17.7	0.00e+00	0	40	0	222298112	61	4662
2026-01-10 09:42:29.38	149.07	18.40	-44.6	-47.2	17.6	0.00e+00	0	40	0	224395264	61	4698
2026-01-10 09:42:30.38	149.03	18.53	-44.6	-47.2	17.6	0.00e+00	0	40	0	225443840	61	4700
2026-01-10 09:42:31.38	149.00	18.65	-44.7	-47.3	17.6	0.00e+00	0	40	0	227540992	61	4750
2026-01-10 09:42:32.38	148.96	18.77	-44.7	-47.3	17.6	0.00e+00	0	40	0	229638144	61	4711
2026-01-10 09:42:33.39	148.93	18.90	-44.7	-47.3	17.6	0.00e+00	0	40	0	231735296	61	4718
2026-01-10 09:42:34.39	148.89	19.02	-44.7	-47.3	17.6	0.00e+00	0	40	0	232783872	61	4749
2026-01-10 09:42:35.39	148.85	19.15	-44.8	-47.4	17.5	0.00e+00	0	40	0	234881024	61	4806
2026-01-10 09:42:36.40	148.82	19.28	-44.8	-47.4	17.5	0.00e+00	0	39	0	236978176	61	4804
2026-01-10 09:42:37.40	148.78	19.40	-44.8	-47.4	17.5	0.00e+00	0	40	0	239075328	61	4786
2026-01-10 09:42:38.40	148.74	19.53	-44.8	-47.5	17.5	0.00e+00	0	40	0	241172480	61	4818
2026-01-10 09:42:39.41	148.70	19.66	-44.7	-47.3	17.6	0.00e+00	0	40	0	242221056	61	4730
2026-01-10 09:42:40.40	148.66	19.79	-44.7	-47.3	17.6	0.00e+00	0	40	0	244318208	61	4757
2026-01-10 09:42:41.41	148.63	19.92	-44.6	-47.2	17.7	0.00e+00	0	40	0	246415360	61	4682
2026-01-10 09:42:42.41	148.59	20.05	-44.7	-47.2	17.7	0.00e+00	0	40	0	248512512	61	4694
2026-01-10 09:42:43.41	148.55	20.18	-44.7	-47.2	17.7	0.00e+00	0	39	0	250609664	61	4678
2026-01-10 09:42:44.41	148.51	20.31	-44.6	-47.1	17.8	0.00e+00	0	40	0	251658240	61	4625
2026-01-10 09:42:45.42	148.47	20.44	-44.6	-47.2	17.8	0.00e+00	0	40	0	253755392	61	4658
2026-01-10 09:42:46.42	148.43	20.58	-44.7	-47.3	17.7	0.00e+00	0	40	0	255852544	61	4712
2026-01-10 09:42:47.42	148.39	20.71	-44.7	-47.2	17.8	0.00e+00	0	40	0	257949696	61	4683
2026-01-10 09:42:48.43	148.35	20.84	-44.7	-47.3	17.7	0.00e+00	0	40	0	260046848	61	4720
2026-01-10 09:42:49.42	148.30	20.98	-44.7	-47.3	17.7	0.00e+00	0	40	0	261095424	61	4730
2026-01-10 09:42:50.43	148.26	21.11	-44.8	-47.3	17.7	0.00e+00	0	40	0	263192576	61	4758
2026-01-10 09:42:51.43	148.22	21.25	-44.6	-47.2	17.8	0.00e+00	0	40	0	265289728	61	4681
2026-01-10 09:42:52.43	148.18	21.39	-44.5	-47.0	17.9	0.00e+00	0	40	0	267386880	61	4589
2026-01-10 09:42:53.43	148.13	21.53	-44.6	-47.1	17.9	0.00e+00	0	40	0	269484032	61	4629
2026-01-10 09:42:54.44	148.09	21.67	-44.5	-47.0	18.0	0.00e+00	0	40	0	270532608	61	4571
2026-01-10 09:42:55.44	148.05	21.80	-44.5	-46.9	18.0	0.00e+00	0	39	0	272629760	60	4813
2026-01-10 09:42:56.44	148.00	21.94	-44.5	-46.9	18.0	0.00e+00	0	40	0	274726912	60	4801
2026-01-10 09:42:57.44	147.96	22.08	-44.4	-46.9	18.1	0.00e+00	0	40	0	276824064	60	4773
2026-01-10 09:42:58.44	147.91	22.23	-44.5	-47.0	18.0	0.00e+00	0	40	0	277872640	60	4832
2026-01-10 09:42:59.45	147.87	22.37	-44.6	-47.1	17.9	0.00e+00	0	40	0	279969792	60	4921
2026-01-10 09:43:00.45	147.82	22.51	-44.6	-47.2	17.8	0.00e+00	0	40	0	282066944	60	4939
2026-01-10 09:43:01.45	147.77	22.66	-44.7	-47.4	17.7	0.00e+00	0	40	0	284164096	60	5046
2026-01-10 09:43:02.45	147.73	22.80	-44.6	-47.3	17.7	0.00e+00	0	40	0	286261248	60	5005
2026-01-10 09:43:03.46	147.68	22.95	-44.7	-47.4	17.7	0.00e+00	0	40	0	287309824	60	5057
2026-01-10 09:43:04.46	147.63	23.09	-44.8	-47.5	17.6	0.00e+00	0	40	0	289406976	60	5130
2026-01-10 09:43:05.46	147.58	23.24	-44.7	-47.4	17.6	0.00e+00	0	40	0	291504128	60	5075
2026-01-10 09:43:06.46	147.53	23.39	-44.6	-47.3	17.8	0.00e+00	0	40	0	293601280	60	4985
2026-01-10 09:43:07.46	147.48	23.54	-44.7	-47.4	17.7	0.00e+00	0	40	0	295698432	60	5062
2026-01-10 09:43:08.47	147.43	23.69	-44.6	-47.2	17.8	0.00e+00	0	40	0	296747008	60	4973
2026-01-10 09:43:09.47	147.38	23.84	-44.6	-47.3	17.8	0.00e+00	0	40	0	298844160	60	4987
2026-01-10 09:43:10.47	147.33	23.99	-44.7	-47.3	17.7	0.00e+00	0	40	0	300941312	60	5026
2026-01-10 09:43:11.47	147.28	24.14	-44.8	-47.4	17.6	0.00e+00	0	40	0	303038464	60	5095
2026-01-10 09:43:12.48	147.23	24.30	-44.9	-47.6	17.5	0.00e+00	0	40	0	305135616	60	5188
2026-01-10 09:43:13.48	147.18	24.45	-44.9	-47.6	17.4	0.00e+00	0	40	0	306184192	60	5185
2026-01-10 09:43:14.48	147.12	24.60	-45.0	-47.7	17.3	0.00e+00	0	40	0	308281344	60	5272
2026-01-10 09:43:15.48	147.07	24.76	-45.2	-48.0	17.1	0.00e+00	0	40	0	310378496	61	5108
2026-01-10 09:43:16.49	147.02	24.92	-45.1	-47.8	17.2	0.00e+00	0	40	0	312475648	61	5035
2026-01-10 09:43:17.49	146.96	25.08	-45.2	-47.9	17.1	0.00e+00	0	40	0	314572800	61	5080
2026-01-10 09:43:18.49	146.91	25.23	-45.2	-48.0	17.1	0.00e+00	0	40	0	315621376	61	5121
2026-01-10 09:43:19.49	146.85	25.39	-45.3	-48.0	17.0	0.00e+00	0	40	0	317718528	61	5156
2026-01-10 09:43:20.50	146.79	25.55	-45.4	-48.1	16.9	0.00e+00	0	40	0	319815680	61	5216
2026-01-10 09:43:21.50	146.74	25.72	-45.4	-48.2	16.9	0.00e+00	0	40	0	321912832	61	5247
2026-01-10 09:43:22.50	146.68	25.88	-45.5	-48.3	16.8	0.00e+00	0	40	0	322961408	61	5327
2026-01-10 09:43:23.50	146.62	26.04	-45.7	-48.6	16.6	0.00e+00	0	40	0	325058560	61	5468
2026-01-10 09:43:24.50	146.56	26.20	-45.7	-48.6	16.5	0.00e+00	0	40	0	327155712	62	5192
2026-01-10 09:43:25.51	146.50	26.37	-45.8	-48.7	16.4	0.00e+00	0	40	0	329252864	62	5257
2026-01-10 09:43:26.51	146.44	26.54	-45.8	-48.8	16.3	0.00e+00	0	40	0	331350016	62	5295
2026-01-10 09:43:27.51	146.38	26.70	-45.9	-48.8	16.2	0.00e+00	0	40	0	332398592	62	5338
2026-01-10 09:43:28.51	146.32	26.87	-45.9	-48.9	16.3	0.00e+00	0	40	0	334495744	62	5351
2026-01-10 09:43:29.51	146.26	27.04	-45.9	-48.9	16.2	0.00e+00	0	40	0	336592896	62	5372
2026-01-10 09:43:30.52	146.19	27.21	-46.0	-49.1	16.1	0.00e+00	0	40	0	338690048	62	5465
2026-01-10 09:43:31.52	146.13	27.38	-46.2	-49.2	15.9	0.00e+00	0	40	0	340787200	62	5584
2026-01-10 09:43:32.52	146.06	27.55	-46.2	-49.3	15.8	0.00e+00	0	40	0	341835776	63	5319
2026-01-10 09:43:33.53	146.00	27.73	-46.3	-49.5	15.7	0.00e+00	0	40	0	343932928	63	5411
2026-01-10 09:43:34.53	145.93	27.90	-46.4	-49.6	15.5	0.00e+00	0	40	0	346030080	63	5504
2026-01-10 09:43:35.53	145.87	28.08	-46.5	-49.8	15.4	0.00e+00	0	40	0	348127232	63	5604
2026-01-10 09:43:36.53	145.80	28.25	-46.6	-50.0	15.2	0.00e+00	0	40	0	350224384	63	5726
2026-01-10 09:43:37.53	145.73	28.43	-46.7	-50.1	15.0	0.00e+00	0	40	0	351272960	64	5494
2026-01-10 09:43:38.53	145.66	28.61	-46.8	-50.2	14.9	0.00e+00	0	40	0	353370112	64	5559
2026-01-10 09:43:39.54	145.59	28.79	-46.9	-50.4	14.7	1.50e-06	0	40	0	355467264	64	5702
2026-01-10 09:43:40.54	145.52	28.97	-47.1	-50.6	14.5	1.50e-06	0	40	0	357564416	64	5841
2026-01-10 09:43:41.54	145.45	29.15	-47.2	-50.8	14.4	1.50e-06	0	40	0	359661568	65	5595
2026-01-10 09:43:42.54	145.38	29.33	-47.3	-50.9	14.2	7.00e-07	0	40	0	360710144	65	5668
2026-01-10 09:43:43.54	145.31	29.52	-47.3	-51.0	14.1	2.20e-06	0	40	0	362807296	65	5759
2026-01-10 09:43:44.55	145.23	29.71	-47.4	-51.1	14.0	3.80e-06	0	40	0	364904448	65	5829
2026-01-10 09:43:45.55	145.16	29.89	-47.3	-51.1	14.0	7.00e-07	0	40	0	367001600	65	5808
2026-01-10 09:43:46.55	145.08	30.08	-47.4	-51.2	13.9	1.50e-06	0	40	0	368050176	65	5876
2026-01-10 09:43:47.55	145.00	30.27	-47.4	-51.2	13.8	1.50e-06	0	40	0	370147328	65	5886
2026-01-10 09:43:48.56	144.93	30.46	-47.4	-51.2	13.9	4.50e-06	0	40	0	372244480	65	5910
2026-01-10 09:43:49.56	144.85	30.65	-47.5	-51.4	13.7	6.10e-06	0	40	0	374341632	65	6024
2026-01-10 09:43:50.56	144.77	30.84	-47.7	-51.7	13.5	9.90e-06	0	40	0	376438784	66	5887
2026-01-10 09:43:51.56	144.69	31.04	-47.8	-51.7	13.4	1.22e-05	0	40	0	377487360	66	5912
2026-01-10 09:43:52.57	144.60	31.23	-47.9	-52.1	13.0	1.67e-05	0	39	0	379584512	66	6138
2026-01-10 09:43:53.57	144.52	31.43	-47.9	-52.0	13.1	2.13e-05	0	39	0	381681664	66	6100
2026-01-10 09:43:54.57	144.44	31.62	-47.9	-52.0	13.1	3.20e-05	0	40	0	383778816	66	6113
2026-01-10 09:43:55.57	144.35	31.82	-48.1	-52.4	12.6	8.69e-05	0	40	0	385875968	67	6053
2026-01-10 09:43:56.57	144.27	32.02	-48.1	-52.4	12.7	8.39e-05	0	40	0	386924544	67	6021
2026-01-10 09:43:57.58	144.18	32.23	-48.3	-52.8	12.3	8.23e-05	0	40	0	389021696	67	6286
2026-01-10 09:43:58.58	144.09	32.43	-48.3	-52.8	12.3	2.01e-04	0	40	0	391118848	67	6285
2026-01-10 09:43:59.58	144.00	32.63	-48.4	-52.8	12.2	1.37e-04	0	40	0	393216000	67	6333
2026-01-10 09:44:00.58	143.91	32.84	-48.4	-53.0	12.1	1.58e-04	0	40	0	395313152	67	6465
2026-01-10 09:44:01.58	143.82	33.04	-48.4	-52.9	12.2	2.17e-04	0	40	0	396361728	67	6390
2026-01-10 09:44:02.59	143.73	33.25	-48.3	-52.7	12.4	2.06e-04	0	40	0	398458880	67	6244
2026-01-10 09:44:03.59	143.64	33.46	-48.3	-52.8	12.2	3.29e-04	0	40	0	400556032	67	6312
2026-01-10 09:44:04.59	143.54	33.67	-48.3	-52.7	12.3	1.57e-04	0	40	0	402653184	67	6254
2026-01-10 09:44:05.59	143.44	33.88	-48.4	-52.9	12.2	1.98e-04	0	40	0	404750336	67	6374
2026-01-10 09:44:06.60	143.35	34.10	-48.3	-52.9	12.2	2.00e-04	0	40	0	405798912	67	6355
2026-01-10 09:44:07.60	143.25	34.31	-48.3	-52.9	12.2	1.85e-04	0	40	0	407896064	67	6377
2026-01-10 09:44:08.60	143.15	34.53	-48.4	-53.0	12.1	2.94e-04	0	40	0	409993216	67	6471
2026-01-10 09:44:09.61	143.04	34.74	-48.4	-52.9	12.3	2.04e-04	0	40	0	412090368	67	6350
2026-01-10 09:44:10.61	142.94	34.96	-48.2	-52.6	12.5	1.75e-04	0	40	0	413138944	67	6170
2026-01-10 09:44:11.61	142.84	35.18	-48.1	-52.4	12.7	1.12e-04	0	40	0	415236096	67	5995
2026-01-10 09:44:12.61	142.73	35.40	-48.1	-52.3	12.7	7.01e-05	0	40	0	417333248	67	5986
2026-01-10 09:44:13.61	142.62	35.63	-48.0	-52.1	13.0	5.49e-05	0	40	0	419430400	67	5833
2026-01-10 09:44:14.61	142.51	35.85	-47.9	-52.1	13.0	5.26e-05	0	40	0	421527552	67	5799
2026-01-10 09:44:15.62	142.40	36.08	-48.0	-52.1	12.9	5.11e-05	0	40	0	423624704	67	5843
2026-01-10 09:44:16.62	142.29	36.30	-48.0	-52.3	12.8	4.11e-05	0	40	0	424673280	67	5955
2026-01-10 09:44:17.62	142.18	36.53	-48.0	-52.3	12.8	7.17e-05	0	40	0	426770432	67	5963
2026-01-10 09:44:18.62	142.06	36.76	-48.1	-52.4	12.7	5.95e-05	0	40	0	428867584	67	6010
2026-01-10 09:44:19.62	141.94	36.99	-48.1	-52.4	12.6	3.89e-05	0	40	0	430964736	67	6053
2026-01-10 09:44:20.63	141.82	37.23	-48.1	-52.3	12.8	8.69e-05	0	40	0	432013312	67	5964
2026-01-10 09:44:21.63	141.70	37.46	-48.3	-52.7	12.4	7.09e-05	0	40	0	434110464	67	6231
2026-01-10 09:44:22.63	141.58	37.70	-48.2	-52.6	12.4	1.23e-04	0	40	0	436207616	67	6142
2026-01-10 09:44:23.63	141.46	37.94	-48.2	-52.6	12.4	1.54e-04	0	40	0	438304768	67	6188
2026-01-10 09:44:24.64	141.33	38.18	-48.2	-52.6	12.3	1.57e-04	0	40	0	440401920	67	6193
2026-01-10 09:44:25.64	141.20	38.42	-48.4	-52.9	12.2	2.40e-04	0	40	0	441450496	67	6391
2026-01-10 09:44:26.64	141.07	38.66	-48.3	-52.8	12.2	2.53e-04	0	40	0	443547648	67	6315
2026-01-10 09:44:27.64	140.94	38.90	-48.3	-52.9	12.1	2.73e-04	0	40	0	445644800	67	6417
2026-01-10 09:44:28.64	140.81	39.15	-48.3	-52.9	12.2	2.48e-04	0	40	0	447741952	67	6383
2026-01-10 09:44:29.64	140.67	39.40	-48.3	-52.9	12.2	3.33e-04	0	40	0	449839104	67	6400
2026-01-10 09:44:30.65	140.53	39.65	-48.1	-52.6	12.5	1.52e-04	0	40	0	450887680	67	6146
2026-01-10 09:44:31.65	140.39	39.90	-48.2	-52.7	12.4	1.30e-04	0	40	0	452984832	67	6258
2026-01-10 09:44:32.65	140.25	40.15	-48.1	-52.5	12.6	9.15e-05	0	40	0	455081984	67	6070
2026-01-10 09:44:33.65	140.10	40.40	-48.0	-52.1	13.0	4.42e-05	0	40	0	457179136	67	5810
2026-01-10 09:44:34.65	139.96	40.66	-47.9	-52.1	13.0	4.57e-05	0	40	0	458227712	67	5802
2026-01-10 09:44:35.65	139.81	40.91	-47.8	-51.9	13.2	2.82e-05	0	40	0	460324864	67	5668
2026-01-10 09:44:36.66	139.65	41.17	-47.9	-52.0	13.1	2.74e-05	0	40	0	462422016	67	5729
2026-01-10 09:44:37.66	139.50	41.43	-47.7	-51.7	13.4	1.75e-05	0	40	0	464519168	67	5560
2026-01-10 09:44:38.66	139.34	41.69	-47.5	-51.5	13.6	1.37e-05	0	40	0	466616320	67	5410
2026-01-10 09:44:39.66	139.18	41.96	-47.5	-51.3	13.7	6.80e-06	0	40	0	467664896	67	5340
2026-01-10 09:44:40.67	139.02	42.22	-47.4	-51.1	13.9	3.80e-06	0	40	0	469762048	66	5502
2026-01-10 09:44:41.67	138.86	42.49	-47.2	-50.8	14.3	0.00e+00	0	40	0	471859200	66	5312
2026-01-10 09:44:42.67	138.69	42.76	-47.2	-50.7	14.3	1.50e-06	0	40	0	473956352	66	5272
2026-01-10 09:44:43.67	138.52	43.03	-47.1	-50.6	14.5	0.00e+00	0	40	0	476053504	66	5218
2026-01-10 09:44:44.68	138.34	43.30	-47.2	-50.7	14.4	0.00e+00	0	40	0	477102080	66	5251
2026-01-10 09:44:45.68	138.16	43.57	-47.0	-50.5	14.6	1.50e-06	0	40	0	479199232	66	5111
2026-01-10 09:44:46.68	137.99	43.85	-46.9	-50.3	14.8	0.00e+00	0	40	0	481296384	65	5315
2026-01-10 09:44:47.68	137.80	44.12	-46.7	-50.0	15.1	0.00e+00	0	40	0	483393536	65	5125
2026-01-10 09:44:48.68	137.62	44.40	-46.6	-49.8	15.2	0.00e+00	0	40	0	485490688	65	5025
2026-01-10 09:44:49.69	137.42	44.68	-46.4	-49.6	15.5	0.00e+00	0	40	0	486539264	64	5194
2026-01-10 09:44:50.69	137.23	44.96	-46.5	-49.7	15.4	0.00e+00	0	40	0	488636416	64	5277
2026-01-10 09:44:51.69	137.04	45.24	-46.4	-49.6	15.4	0.00e+00	0	40	0	490733568	64	5202
2026-01-10 09:44:52.69	136.84	45.53	-46.2	-49.3	15.8	0.00e+00	0	40	0	492830720	64	4986
2026-01-10 09:44:53.70	136.63	45.82	-46.0	-49.0	16.0	0.00e+00	0	40	0	494927872	64	4856
2026-01-10 09:44:54.70	136.42	46.10	-46.0	-48.9	16.3	0.00e+00	0	40	0	495976448	63	5058
2026-01-10 09:44:55.70	136.21	46.39	-46.0	-48.9	16.2	0.00e+00	0	40	0	498073600	63	5095
2026-01-10 09:44:56.70	136.00	46.68	-45.9	-48.9	16.2	0.00e+00	0	40	0	500170752	63	5042
2026-01-10 09:44:57.70	135.78	46.97	-46.0	-48.9	16.3	0.00e+00	0	40	0	502267904	63	5060
2026-01-10 09:44:58.70	135.55	47.27	-45.9	-48.7	16.3	0.00e+00	0	40	0	503316480	63	4973
2026-01-10 09:44:59.71	135.32	47.56	-45.9	-48.8	16.3	0.00e+00	0	40	0	505413632	63	5022
2026-01-10 09:45:00.71	135.09	47.86	-46.1	-49.1	16.0	0.00e+00	0	40	0	507510784	63	5167
2026-01-10 09:45:01.71	134.85	48.16	-46.2	-49.2	15.9	0.00e+00	0	40	0	509607936	63	5246
2026-01-10 09:45:02.71	134.61	48.46	-46.3	-49.4	15.7	0.00e+00	0	40	0	511705088	63	5376
2026-01-10 09:45:03.71	134.37	48.76	-46.2	-49.3	15.8	0.00e+00	0	40	0	512753664	63	5311
2026-01-10 09:45:04.72	134.11	49.06	-46.2	-49.2	15.9	0.00e+00	0	40	0	514850816	63	5279
2026-01-10 09:45:05.72	133.86	49.37	-46.1	-49.1	16.1	0.00e+00	0	40	0	516947968	63	5165
2026-01-10 09:45:06.72	133.59	49.67	-46.0	-49.0	16.2	0.00e+00	0	40	0	519045120	63	5107
2026-01-10 09:45:07.72	133.33	49.98	-45.8	-48.6	16.4	0.00e+00	0	40	0	521142272	63	4920
2026-01-10 09:45:08.72	133.06	50.29	-45.6	-48.5	16.6	0.00e+00	0	40	0	522190848	63	4822
2026-01-10 09:45:09.73	132.77	50.60	-45.5	-48.3	16.8	0.00e+00	0	40	0	524288000	63	4730
2026-01-10 09:45:10.73	132.49	50.91	-45.0	-47.7	17.4	0.00e+00	0	40	0	526385152	62	4670
2026-01-10 09:45:11.73	132.20	51.22	-44.8	-47.4	17.7	0.00e+00	0	40	0	528482304	61	4771
2026-01-10 09:45:12.73	131.90	51.54	-44.8	-47.4	17.7	0.00e+00	0	40	0	530579456	61	4771
2026-01-10 09:45:13.73	131.60	51.85	-44.9	-47.5	17.6	0.00e+00	0	40	0	531628032	61	4823
2026-01-10 09:45:14.74	131.29	52.17	-44.8	-47.4	17.7	0.00e+00	0	40	0	533725184	61	4772
2026-01-10 09:45:15.74	130.97	52.49	-44.8	-47.4	17.6	0.00e+00	0	40	0	535822336	61	4809
2026-01-10 09:45:16.74	130.65	52.81	-44.9	-47.5	17.6	0.00e+00	0	40	0	537919488	61	4828
2026-01-10 09:45:17.74	130.32	53.13	-44.8	-47.4	17.6	0.00e+00	0	40	0	540016640	61	4786
2026-01-10 09:45:18.75	129.98	53.45	-44.7	-47.2	17.8	0.00e+00	0	40	0	541065216	61	4682
2026-01-10 09:45:19.75	129.64	53.77	-44.5	-47.0	18.0	0.00e+00	0	40	0	543162368	60	4861
2026-01-10 09:45:20.75	129.28	54.09	-44.8	-47.5	17.5	0.00e+00	0	40	0	545259520	60	5131
2026-01-10 09:45:21.75	128.92	54.42	-45.2	-48.0	17.1	0.00e+00	0	40	0	547356672	60	5419
2026-01-10 09:45:22.75	128.55	54.74	-45.3	-48.1	16.9	0.00e+00	0	40	0	549453824	61	5205
2026-01-10 09:45:23.76	128.17	55.07	-45.3	-48.1	17.0	0.00e+00	0	40	0	550502400	61	5165
2026-01-10 09:45:24.76	127.79	55.39	-45.5	-48.3	16.8	0.00e+00	0	40	0	552599552	61	5287
2026-01-10 09:45:25.76	127.39	55.72	-46.1	-49.1	16.0	0.00e+00	0	40	0	554696704	62	5507
2026-01-10 09:45:26.76	126.98	56.05	-46.3	-49.4	15.7	0.00e+00	0	40	0	556793856	63	5365
2026-01-10 09:45:27.77	126.57	56.38	-46.5	-49.6	15.5	0.00e+00	0	40	0	558891008	63	5521
2026-01-10 09:45:28.77	126.14	56.70	-46.9	-50.3	14.8	7.00e-07	0	40	0	559939584	64	5607
2026-01-10 09:45:29.77	125.71	57.03	-47.6	-51.5	13.5	1.50e-06	0	40	0	562036736	65	6080
2026-01-10 09:45:30.77	125.26	57.36	-48.2	-52.6	12.4	7.70e-05	0	40	0	564133888	66	6535
2026-01-10 09:45:31.77	124.80	57.69	-48.4	-53.1	11.9	2.84e-04	0	40	0	566231040	67	6500
2026-01-10 09:45:32.78	124.33	58.02	-48.6	-53.5	11.5	8.25e-04	0	40	0	567279616	67	6827
2026-01-10 09:45:33.78	123.85	58.35	-48.4	-53.0	12.1	7.61e-04	0	40	0	569376768	67	6428
2026-01-10 09:45:34.78	123.36	58.68	-48.0	-52.2	12.8	9.00e-05	0	40	0	571473920	67	5883
2026-01-10 09:45:35.79	122.85	59.01	-47.8	-51.9	13.2	3.58e-05	0	40	0	573571072	67	5673
2026-01-10 09:45:36.79	122.33	59.34	-47.5	-51.3	13.7	2.36e-05	0	40	0	575668224	67	5340
2026-01-10 09:45:37.79	121.80	59.66	-47.0	-50.6	14.4	0.00e+00	0	40	0	576716800	66	5175
2026-01-10 09:45:38.80	121.26	59.99	-46.7	-50.0	15.1	7.00e-07	0	40	0	578813952	65	5116
2026-01-10 09:45:39.80	120.70	60.32	-46.4	-49.6	15.4	0.00e+00	0	40	0	580911104	64	5213
2026-01-10 09:45:40.80	120.13	60.64	-46.2	-49.3	15.7	0.00e+00	0	40	0	583008256	64	5041
2026-01-10 09:45:41.80	119.54	60.97	-46.1	-49.1	15.9	0.00e+00	0	40	0	585105408	64	4926
2026-01-10 09:45:42.80	118.94	61.29	-45.7	-48.5	16.5	0.00e+00	0	40	0	586153984	63	4842
2026-01-10 09:45:43.81	118.31	61.62	-45.4	-48.1	16.9	0.00e+00	0	40	0	588251136	62	4896
2026-01-10 09:45:44.81	117.68	61.94	-44.9	-47.5	17.5	0.00e+00	0	40	0	590348288	61	4825
2026-01-10 09:45:45.81	117.02	62.26	-44.4	-46.9	18.0	0.00e+00	0	40	0	592445440	60	4777
2026-01-10 09:45:46.81	116.36	62.57	-44.2	-46.7	18.3	0.00e+00	0	40	0	594542592	60	4657
2026-01-10 09:45:47.81	115.67	62.89	-44.5	-47.1	17.9	0.00e+00	0	40	0	595591168	60	4892
2026-01-10 09:45:48.82	114.96	63.20	-44.6	-47.1	17.9	0.00e+00	0	40	0	597688320	60	4905
2026-01-10 09:45:49.82	114.23	63.51	-44.3	-46.8	18.1	0.00e+00	0	40	0	599785472	60	4718
2026-01-10 09:45:50.82	113.49	63.82	-44.5	-47.0	17.9	0.00e+00	0	40	0	601882624	60	4849
2026-01-10 09:45:51.83	112.72	64.13	-44.7	-47.2	17.8	0.00e+00	0	40	0	603979776	60	4953
2026-01-10 09:45:52.83	111.93	64.43	-44.7	-47.3	17.7	0.00e+00	0	40	0	605028352	60	5000
2026-01-10 09:45:53.83	111.13	64.73	-45.1	-47.7	17.3	0.00e+00	0	40	0	607125504	60	5258
2026-01-10 09:45:54.83	110.30	65.02	-45.4	-48.2	16.8	0.00e+00	0	40	0	609222656	61	5251
2026-01-10 09:45:55.83	109.45	65.32	-45.7	-48.6	16.4	0.00e+00	0	40	0	611319808	62	5201
2026-01-10 09:45:56.83	108.58	65.60	-45.9	-48.8	16.3	0.00e+00	0	40	0	612368384	62	5305
2026-01-10 09:45:57.84	107.68	65.89	-46.4	-49.5	15.6	0.00e+00	0	40	0	614465536	63	5445
2026-01-10 09:45:58.84	106.76	66.17	-46.7	-50.1	14.9	0.00e+00	0	40	0	616562688	64	5490
2026-01-10 09:45:59.84	105.82	66.44	-46.9	-50.3	14.7	7.00e-07	0	40	0	618659840	64	5636
2026-01-10 09:46:00.84	104.86	66.71	-47.0	-50.5	14.4	7.00e-07	0	40	0	620756992	64	5765
2026-01-10 09:46:01.84	103.87	66.98	-47.2	-50.8	14.1	1.50e-06	0	40	0	621805568	65	5650
2026-01-10 09:46:02.85	102.84	67.24	-47.3	-51.0	13.8	2.20e-06	0	39	0	623902720	65	5779
2026-01-10 09:46:03.85	101.80	67.49	-47.2	-51.0	14.1	3.80e-06	0	40	0	625999872	65	5725
2026-01-10 09:46:04.85	100.74	67.73	-47.3	-51.2	13.8	3.80e-06	0	40	0	628097024	65	5876
2026-01-10 09:46:05.85	99.65	67.97	-47.2	-51.0	14.0	7.00e-07	0	40	0	630194176	65	5735
2026-01-10 09:46:06.86	98.52	68.21	-47.1	-50.8	14.2	1.50e-06	0	40	0	631242752	65	5608
2026-01-10 09:46:07.86	97.38	68.43	-47.0	-50.6	14.3	2.20e-06	0	40	0	633339904	65	5528
2026-01-10 09:46:08.86	96.21	68.65	-46.7	-50.2	14.8	0.00e+00	0	40	0	635437056	65	5234
2026-01-10 09:46:09.87	95.00	68.86	-46.5	-49.9	15.0	0.00e+00	0	40	0	637534208	64	5354
2026-01-10 09:46:10.87	93.78	69.06	-46.1	-49.2	15.8	0.00e+00	0	40	0	639631360	63	5265
2026-01-10 09:46:11.87	92.54	69.26	-45.5	-48.4	16.5	0.00e+00	0	40	0	640679936	63	4788
2026-01-10 09:46:12.87	91.27	69.44	-45.8	-48.7	16.3	0.00e+00	0	40	0	642777088	63	4965
2026-01-10 09:46:13.88	89.97	69.61	-46.1	-49.2	15.7	0.00e+00	0	40	0	644874240	63	5276
2026-01-10 09:46:14.88	88.65	69.78	-46.3	-49.6	15.4	0.00e+00	0	40	0	646971392	63	5474
2026-01-10 09:46:15.89	87.30	69.93	-45.9	-49.0	16.0	0.00e+00	0	40	0	649068544	63	5158
2026-01-10 09:46:16.89	85.94	70.08	-45.7	-48.7	16.3	0.00e+00	0	40	0	650117120	63	4953
2026-01-10 09:46:17.89	84.56	70.21	-46.0	-49.1	16.0	0.00e+00	0	40	0	652214272	63	5194
2026-01-10 09:46:18.89	83.16	70.34	-46.6	-50.0	15.1	0.00e+00	0	40	0	654311424	63	5764
2026-01-10 09:46:19.89	81.74	70.45	-46.4	-49.7	15.3	0.00e+00	0	40	0	656408576	64	5261
2026-01-10 09:46:20.90	80.29	70.55	-46.3	-49.4	15.5	0.00e+00	0	40	0	657457152	64	5097
2026-01-10 09:46:21.90	78.84	70.64	-46.5	-49.7	15.3	0.00e+00	0	40	0	659554304	64	5270
2026-01-10 09:46:22.90	77.38	70.72	-46.6	-49.9	15.1	0.00e+00	0	40	0	661651456	64	5376
2026-01-10 09:46:23.90	75.90	70.78	-46.5	-49.8	15.2	0.00e+00	0	40	0	663748608	64	5326
2026-01-10 09:46:24.91	74.40	70.84	-46.5	-49.9	15.1	0.00e+00	0	40	0	665845760	64	5356
2026-01-10 09:46:25.91	72.91	70.88	-46.4	-49.6	15.4	0.00e+00	0	40	0	666894336	64	5188
2026-01-10 09:46:26.91	71.41	70.90	-46.5	-49.9	15.1	0.00e+00	0	40	0	668991488	64	5343
2026-01-10 09:46:27.92	69.90	70.92	-46.9	-50.3	14.7	0.00e+00	0	40	0	671088640	64	5598
2026-01-10 09:46:28.92	68.39	70.93	-46.8	-50.1	14.8	0.00e+00	0	40	0	673185792	64	5522
2026-01-10 09:46:29.92	66.89	70.92	-46.4	-49.7	15.3	0.00e+00	0	40	0	675282944	64	5231
2026-01-10 09:46:30.92	65.39	70.90	-45.7	-48.6	16.4	0.00e+00	0	40	0	676331520	63	4911
2026-01-10 09:46:31.92	63.89	70.86	-45.4	-48.2	16.8	0.00e+00	0	40	0	678428672	62	4944
2026-01-10 09:46:32.92	62.40	70.82	-45.8	-48.8	16.3	0.00e+00	0	40	0	680525824	62	5295
2026-01-10 09:46:33.93	60.91	70.76	-46.2	-49.3	15.8	0.00e+00	0	40	0	682622976	63	5282
2026-01-10 09:46:34.93	59.44	70.69	-46.0	-49.0	16.1	0.00e+00	0	40	0	684720128	63	5110
2026-01-10 09:46:35.93	57.98	70.61	-45.8	-48.6	16.4	0.00e+00	0	40	0	685768704	63	4920
2026-01-10 09:46:36.94	56.52	70.51	-45.8	-48.7	16.3	0.00e+00	0	40	0	687865856	63	4967
2026-01-10 09:46:37.94	55.09	70.41	-45.8	-48.7	16.3	0.00e+00	0	40	0	689963008	63	4965
2026-01-10 09:46:38.94	53.68	70.29	-45.9	-48.8	16.2	0.00e+00	0	40	0	692060160	63	5016
2026-01-10 09:46:39.94	52.29	70.17	-46.0	-49.0	16.1	0.00e+00	0	40	0	694157312	63	5105
2026-01-10 09:46:40.95	50.90	70.03	-46.5	-49.7	15.4	0.00e+00	0	40	0	695205888	63	5538
2026-01-10 09:46:41.95	49.55	69.88	-46.9	-50.3	14.6	0.00e+00	0	40	0	697303040	64	5636
2026-01-10 09:46:42.95	48.22	69.72	-47.2	-50.9	14.2	1.50e-06	0	40	0	699400192	65	5658
2026-01-10 09:46:43.95	46.91	69.56	-47.1	-50.7	14.4	7.00e-07	0	40	0	701497344	65	5557
2026-01-10 09:46:44.96	45.62	69.38	-47.2	-50.9	14.1	1.50e-06	0	40	0	702545920	65	5680
2026-01-10 09:46:45.96	44.36	69.19	-47.7	-51.7	13.4	3.80e-06	0	40	0	704643072	66	5858
2026-01-10 09:46:46.96	43.12	69.00	-47.9	-52.1	12.9	2.89e-05	0	40	0	706740224	66	6142
2026-01-10 09:46:47.96	41.92	68.79	-48.1	-52.3	12.6	1.04e-04	0	40	0	708837376	66	6342
2026-01-10 09:46:48.97	40.72	68.58	-47.9	-52.0	13.0	4.34e-05	0	40	0	710934528	66	6086
2026-01-10 09:46:49.97	39.56	68.36	-47.9	-52.1	12.9	7.93e-05	0	40	0	713031680	66	6194
2026-01-10 09:46:50.97	38.43	68.13	-47.9	-52.2	12.9	5.72e-05	0	40	0	714080256	66	6203
2026-01-10 09:46:51.98	37.31	67.89	-48.0	-52.4	12.7	4.50e-05	0	40	0	716177408	66	6355
2026-01-10 09:46:52.98	36.23	67.65	-48.0	-52.3	12.7	6.25e-05	0	40	0	718274560	66	6288
2026-01-10 09:46:53.98	35.18	67.41	-48.3	-52.9	12.2	1.38e-04	0	40	0	720371712	67	6379
2026-01-10 09:46:54.98	34.15	67.15	-48.3	-52.8	12.2	1.36e-04	0	40	0	721420288	67	6337
2026-01-10 09:46:55.98	33.14	66.89	-47.9	-52.2	12.9	1.52e-04	0	40	0	723517440	67	5872
2026-01-10 09:46:56.99	32.15	66.63	-47.2	-50.8	14.2	3.80e-06	0	40	0	725614592	66	5328
2026-01-10 09:46:57.99	31.20	66.35	-46.7	-50.1	14.9	0.00e+00	0	40	0	727711744	65	5167
2026-01-10 09:46:58.99	30.27	66.08	-46.4	-49.5	15.5	0.00e+00	0	40	0	729808896	64	5142
2026-01-10 09:47:00.00	29.35	65.80	-46.1	-49.1	15.8	0.00e+00	0	40	0	730857472	64	4901
2026-01-10 09:47:00.99	28.47	65.52	-46.2	-49.3	15.7	0.00e+00	0	40	0	732954624	64	4988
2026-01-10 09:47:01.99	27.61	65.23	-46.0	-49.0	16.1	0.00e+00	0	40	0	735051776	63	5120
2026-01-10 09:47:03.00	26.76	64.93	-45.6	-48.4	16.7	0.00e+00	0	40	0	737148928	63	4790
2026-01-10 09:47:04.00	25.95	64.64	-45.2	-47.9	17.1	0.00e+00	0	40	0	739246080	62	4799
2026-01-10 09:47:05.00	25.15	64.34	-44.9	-47.5	17.4	0.00e+00	0	40	0	740294656	61	4866
2026-01-10 09:47:06.01	24.37	64.03	-44.8	-47.3	17.7	0.00e+00	0	40	0	742391808	61	4739
2026-01-10 09:47:07.01	23.61	63.73	-44.8	-47.3	17.7	0.00e+00	0	40	0	744488960	61	4759
2026-01-10 09:47:08.01	22.87	63.42	-44.8	-47.4	17.6	0.00e+00	0	40	0	746586112	61	4772
2026-01-10 09:47:09.01	22.16	63.11	-44.8	-47.4	17.6	0.00e+00	0	40	0	747634688	61	4771
2026-01-10 09:47:10.02	21.45	62.79	-44.7	-47.4	17.7	0.00e+00	0	40	0	749731840	61	4765
2026-01-10 09:47:11.02	20.77	62.48	-44.9	-47.7	17.3	0.00e+00	0	40	0	751828992	61	4940
2026-01-10 09:47:12.02	20.11	62.16	-44.9	-47.6	17.4	0.00e+00	0	40	0	753926144	61	4911
2026-01-10 09:47:13.02	19.47	61.84	-45.2	-47.9	17.1	0.00e+00	0	40	0	756023296	61	5069
2026-01-10 09:47:14.02	18.84	61.52	-45.5	-48.3	16.8	0.00e+00	0	40	0	758120448	61	5299
2026-01-10 09:47:15.03	18.22	61.20	-45.6	-48.4	16.6	0.00e+00	0	40	0	759169024	61	5402
2026-01-10 09:47:16.02	17.63	60.88	-45.7	-48.6	16.5	0.00e+00	0	40	0	761266176	62	5182
2026-01-10 09:47:17.02	17.05	60.56	-45.8	-48.8	16.3	0.00e+00	0	40	0	763363328	62	5313
2026-01-10 09:47:18.03	16.48	60.23	-46.1	-49.2	15.9	0.00e+00	0	40	0	765460480	62	5567
2026-01-10 09:47:19.01	15.94	59.91	-46.2	-49.3	15.8	0.00e+00	0	40	0	766509056	63	5289
2026-01-10 09:47:20.02	15.39	59.58	-46.5	-49.6	15.5	0.00e+00	0	40	0	768606208	63	5510
2026-01-10 09:47:21.02	14.87	59.25	-47.0	-50.5	14.5	0.00e+00	0	40	0	770703360	64	5740
2026-01-10 09:47:22.02	14.36	58.93	-47.4	-51.2	13.9	7.00e-07	0	40	0	772800512	65	5860
2026-01-10 09:47:23.02	13.86	58.60	-47.1	-50.6	14.4	2.20e-06	0	40	0	774897664	65	5523
2026-01-10 09:47:24.03	13.36	58.27	-46.9	-50.3	14.7	7.00e-07	0	40	0	775946240	65	5311
2026-01-10 09:47:25.02	12.89	57.95	-46.9	-50.3	14.7	0.00e+00	0	40	0	778043392	65	5326
2026-01-10 09:47:26.03	12.43	57.61	-47.1	-50.7	14.3	7.00e-07	0	40	0	780140544	65	5570
2026-01-10 09:47:27.03	11.97	57.29	-47.3	-51.0	14.0	2.20e-06	0	40	0	782237696	65	5741
2026-01-10 09:47:28.03	11.53	56.96	-47.4	-51.3	13.7	3.00e-06	0	40	0	784334848	65	5960
2026-01-10 09:47:29.03	11.10	56.63	-47.2	-50.9	14.1	5.30e-06	0	40	0	785383424	65	5696
2026-01-10 09:47:30.03	10.68	56.31	-46.7	-50.0	15.0	7.00e-07	0	40	0	787480576	65	5147
2026-01-10 09:47:31.03	10.27	55.98	-46.4	-49.6	15.4	0.00e+00	0	40	0	789577728	64	5180
2026-01-10 09:47:32.03	9.87	55.66	-46.1	-49.0	16.0	0.00e+00	0	40	0	791674880	63	5144
2026-01-10 09:47:33.03	9.48	55.33	-45.7	-48.5	16.5	0.00e+00	0	40	0	792723456	63	4851
2026-01-10 09:47:34.04	9.09	55.00	-45.4	-48.2	16.9	0.00e+00	0	40	0	794820608	62	4943
2026-01-10 09:47:35.04	8.71	54.68	-45.4	-48.1	16.9	0.00e+00	0	40	0	796917760	62	4916
2026-01-10 09:47:36.05	8.34	54.36	-45.3	-48.0	17.0	0.00e+00	0	40	0	799014912	62	4869
2026-01-10 09:47:37.04	7.99	54.04	-45.1	-47.8	17.2	0.00e+00	0	40	0	801112064	62	4756
2026-01-10 09:47:38.05	7.64	53.71	-45.1	-47.8	17.2	0.00e+00	0	40	0	802160640	62	4751
2026-01-10 09:47:39.05	7.30	53.39	-45.0	-47.7	17.3	0.00e+00	0	40	0	804257792	62	4666
2026-01-10 09:47:40.05	6.96	53.07	-44.6	-47.2	17.8	0.00e+00	0	40	0	806354944	61	4660
2026-01-10 09:47:41.05	6.63	52.76	-44.6	-47.2	17.8	0.00e+00	0	40	0	808452096	61	4658
2026-01-10 09:47:42.06	6.31	52.44	-45.0	-47.7	17.3	0.00e+00	0	40	0	810549248	61	4944
2026-01-10 09:47:43.06	6.00	52.12	-45.1	-47.8	17.2	0.00e+00	0	40	0	811597824	61	5010
2026-01-10 09:47:44.06	5.69	51.81	-45.3	-48.0	17.0	0.00e+00	0	40	0	813694976	61	5148
2026-01-10 09:47:45.06	5.39	51.49	-45.6	-48.5	16.6	0.00e+00	0	40	0	815792128	61	5427
2026-01-10 09:47:46.06	5.10	51.18	-46.2	-49.2	15.9	0.00e+00	0	40	0	817889280	62	5591
2026-01-10 09:47:47.06	4.81	50.87	-46.5	-49.6	15.5	0.00e+00	0	40	0	819986432	63	5516
2026-01-10 09:47:48.07	4.53	50.56	-46.5	-49.6	15.5	0.00e+00	0	40	0	821035008	63	5517
2026-01-10 09:47:49.07	4.25	50.25	-46.5	-49.7	15.5	0.00e+00	0	40	0	823132160	63	5530
2026-01-10 09:47:50.07	3.98	49.94	-46.6	-49.9	15.2	0.00e+00	0	40	0	825229312	64	5361
2026-01-10 09:47:51.08	3.71	49.64	-46.9	-50.4	14.7	0.00e+00	0	40	0	827326464	64	5665
2026-01-10 09:47:52.08	3.45	49.33	-47.0	-50.6	14.4	0.00e+00	0	40	0	829423616	64	5835
2026-01-10 09:47:53.08	3.20	49.03	-47.0	-50.5	14.5	0.00e+00	0	40	0	830472192	64	5769
2026-01-10 09:47:54.08	2.95	48.73	-47.0	-50.6	14.5	1.50e-06	0	40	0	832569344	64	5835
2026-01-10 09:47:55.08	2.71	48.43	-47.1	-50.7	14.3	7.00e-07	0	40	0	834666496	64	5914
2026-01-10 09:47:56.08	2.47	48.13	-47.2	-51.0	14.1	1.50e-06	0	40	0	836763648	65	5747
2026-01-10 09:47:57.09	2.23	47.83	-47.3	-51.0	14.0	2.20e-06	0	40	0	838860800	65	5775
2026-01-10 09:47:58.09	2.00	47.54	-47.2	-50.9	14.1	0.00e+00	0	40	0	839909376	65	5720
2026-01-10 09:47:59.09	1.77	47.24	-47.1	-50.8	14.2	3.00e-06	0	40	0	842006528	65	5621
2026-01-10 09:48:00.09	1.55	46.95	-47.0	-50.6	14.4	1.50e-06	0	40	0	844103680	65	5524
2026-01-10 09:48:01.09	1.33	46.66	-46.9	-50.4	14.6	0.00e+00	0	40	0	846200832	65	5400
2026-01-10 09:48:02.09	1.12	46.37	-46.8	-50.3	14.7	7.00e-07	0	40	0	847249408	65	5303
2026-01-10 09:48:03.09	0.91	46.09	-46.8	-50.2	14.8	0.00e+00	0	40	0	849346560	65	5257
2026-01-10 09:48:04.10	0.70	45.80	-46.7	-50.0	14.9	0.00e+00	0	40	0	851443712	65	5152
2026-01-10 09:48:05.10	0.50	45.51	-46.6	-49.9	15.1	0.00e+00	0	40	0	853540864	65	5082
2026-01-10 09:48:06.10	0.30	45.23	-46.7	-50.1	14.9	7.00e-07	0	40	0	855638016	65	5171
2026-01-10 09:48:07.11	0.10	44.95	-46.8	-50.2	14.8	7.00e-07	0	40	0	856686592	65	5262
2026-01-10 09:48:08.11	359.91	44.67	-46.8	-50.4	14.6	0.00e+00	0	40	0	858783744	65	5365
2026-01-10 09:48:09.11	359.73	44.39	-46.9	-50.4	14.6	0.00e+00	0	40	0	860880896	65	5402
2026-01-10 09:48:10.12	359.54	44.11	-47.0	-50.7	14.3	0.00e+00	0	40	0	862978048	65	5547
2026-01-10 09:48:11.11	359.36	43.84	-46.9	-50.5	14.5	7.00e-07	0	40	0	865075200	65	5455
2026-01-10 09:48:12.12	359.18	43.57	-46.9	-50.6	14.4	0.00e+00	0	40	0	866123776	65	5480
2026-01-10 09:48:13.12	359.00	43.30	-47.1	-50.9	14.1	2.20e-06	0	40	0	868220928	65	5677
2026-01-10 09:48:14.12	358.83	43.03	-47.6	-51.6	13.3	5.30e-06	0	39	0	870318080	65	6201
2026-01-10 09:48:15.12	358.66	42.76	-47.9	-52.1	13.0	2.67e-05	0	39	0	872415232	66	6153
2026-01-10 09:48:16.13	358.49	42.49	-48.0	-52.3	12.7	3.81e-05	0	40	0	874512384	66	6325
2026-01-10 09:48:17.13	358.33	42.23	-47.9	-52.2	12.8	6.56e-05	0	40	0	875560960	66	6250
2026-01-10 09:48:18.13	358.17	41.96	-47.9	-52.2	12.9	5.41e-05	0	40	0	877658112	66	6221
2026-01-10 09:48:19.13	358.01	41.70	-47.7	-51.8	13.2	4.88e-05	0	40	0	879755264	66	5970
2026-01-10 09:48:20.13	357.86	41.44	-47.6	-51.7	13.3	2.67e-05	0	40	0	881852416	66	5887
2026-01-10 09:48:21.14	357.70	41.18	-47.6	-51.6	13.5	1.60e-05	0	40	0	883949568	66	5790
2026-01-10 09:48:22.14	357.55	40.93	-47.7	-51.7	13.3	1.22e-05	0	40	0	884998144	66	5862
2026-01-10 09:48:23.14	357.40	40.67	-47.4	-51.3	13.7	3.80e-06	0	40	0	887095296	66	5638
2026-01-10 09:48:24.14	357.26	40.42	-47.5	-51.4	13.7	4.50e-06	0	40	0	889192448	66	5666
2026-01-10 09:48:25.14	357.11	40.17	-47.4	-51.3	13.7	2.20e-06	0	40	0	891289600	66	5641
2026-01-10 09:48:26.14	356.97	39.92	-47.5	-51.5	13.6	8.30e-06	0	40	0	892338176	66	5731
2026-01-10 09:48:27.15	356.83	39.67	-47.5	-51.3	13.8	1.22e-05	0	40	0	894435328	66	5623
2026-01-10 09:48:28.15	356.69	39.42	-47.6	-51.5	13.6	9.10e-06	0	40	0	896532480	66	5740
2026-01-10 09:48:29.15	356.56	39.17	-47.4	-51.2	13.8	3.80e-06	0	40	0	898629632	66	5571
2026-01-10 09:48:30.16	356.43	38.93	-47.3	-50.9	14.0	3.00e-06	0	40	0	900726784	66	5383
2026-01-10 09:48:31.16	356.29	38.69	-46.9	-50.4	14.6	7.00e-07	0	40	0	901775360	65	5376
2026-01-10 09:48:32.16	356.17	38.44	-46.8	-50.2	14.8	0.00e+00	0	40	0	903872512	65	5250
2026-01-10 09:48:33.16	356.04	38.21	-46.7	-50.1	14.9	0.00e+00	0	40	0	905969664	65	5199
2026-01-10 09:48:34.17	355.91	37.97	-46.6	-50.1	14.9	0.00e+00	0	40	0	908066816	65	5171
2026-01-10 09:48:35.17	355.79	37.73	-46.7	-50.3	14.7	0.00e+00	0	40	0	910163968	65	5288
2026-01-10 09:48:36.17	355.67	37.50	-46.9	-50.6	14.4	7.00e-07	0	40	0	911212544	65	5501
2026-01-10 09:48:37.17	355.55	37.26	-46.9	-50.6	14.4	7.00e-07	0	40	0	913309696	65	5467
2026-01-10 09:48:38.18	355.43	37.03	-46.9	-50.5	14.4	7.00e-07	0	40	0	915406848	65	5450
2026-01-10 09:48:39.18	355.31	36.80	-46.7	-50.3	14.7	0.00e+00	0	40	0	917504000	65	5317
2026-01-10 09:48:40.18	355.20	36.57	-46.7	-50.3	14.7	7.00e-07	0	40	0	919601152	65	5335
2026-01-10 09:48:41.18	355.09	36.34	-46.8	-50.5	14.5	0.00e+00	0	40	0	920649728	65	5464
2026-01-10 09:48:42.19	354.98	36.12	-47.0	-50.9	14.2	7.00e-07	0	40	0	922746880	65	5663
2026-01-10 09:48:43.19	354.87	35.89	-47.1	-51.0	13.9	3.80e-06	0	40	0	924844032	65	5774
2026-01-10 09:48:44.19	354.76	35.67	-47.2	-51.2	13.8	3.00e-06	0	40	0	926941184	65	5913
2026-01-10 09:48:45.19	354.65	35.45	-47.2	-51.2	13.8	5.30e-06	0	40	0	929038336	65	5856
2026-01-10 09:48:46.19	354.55	35.23	-47.2	-50.9	14.1	3.00e-06	0	40	0	930086912	65	5692
2026-01-10 09:48:47.19	354.44	35.01	-47.2	-51.0	14.0	7.00e-07	0	40	0	932184064	65	5725
2026-01-10 09:48:48.19	354.34	34.79	-47.1	-50.8	14.2	1.50e-06	0	40	0	934281216	65	5617
2026-01-10 09:48:49.20	354.24	34.57	-47.2	-51.0	14.1	7.00e-07	0	40	0	936378368	65	5731
2026-01-10 09:48:50.20	354.14	34.36	-47.2	-51.0	14.0	2.20e-06	0	40	0	937426944	65	5748
2026-01-10 09:48:51.20	354.04	34.15	-47.3	-51.1	13.9	3.80e-06	0	40	0	939524096	65	5803
2026-01-10 09:48:52.20	353.95	33.94	-47.3	-51.1	13.9	5.30e-06	0	39	0	941621248	65	5836
2026-01-10 09:48:53.20	353.85	33.73	-47.4	-51.2	13.8	3.80e-06	0	40	0	943718400	65	5918
2026-01-10 09:48:54.21	353.75	33.51	-47.5	-51.4	13.6	5.30e-06	0	40	0	945815552	65	6041
2026-01-10 09:48:55.21	353.66	33.31	-47.6	-51.6	13.4	1.37e-05	0	40	0	946864128	65	6163
2026-01-10 09:48:56.21	353.57	33.10	-47.6	-51.8	13.1	2.36e-05	0	40	0	948961280	66	5961
2026-01-10 09:48:57.21	353.48	32.90	-47.6	-51.9	13.1	3.28e-05	0	40	0	951058432	66	6028
2026-01-10 09:48:58.22	353.39	32.69	-47.8	-52.1	12.9	5.72e-05	0	40	0	953155584	66	6193
2026-01-10 09:48:59.22	353.30	32.49	-47.8	-52.1	12.9	6.86e-05	0	39	0	955252736	66	6176
2026-01-10 09:49:00.22	353.21	32.29	-47.8	-52.1	12.9	3.58e-05	0	40	0	956301312	66	6132
2026-01-10 09:49:01.23	353.13	32.09	-47.7	-51.8	13.2	2.67e-05	0	40	0	958398464	66	5942
2026-01-10 09:49:02.23	353.04	31.89	-47.7	-51.7	13.3	2.36e-05	0	40	0	960495616	66	5911
2026-01-10 09:49:03.23	352.96	31.69	-47.7	-51.8	13.2	2.51e-05	0	40	0	962592768	66	5927
2026-01-10 09:49:04.23	352.88	31.49	-47.8	-51.8	13.2	2.74e-05	0	40	0	964689920	66	5982
2026-01-10 09:49:05.24	352.79	31.30	-47.8	-51.9	13.0	4.19e-05	0	40	0	965738496	66	6056
2026-01-10 09:49:06.24	352.71	31.10	-47.7	-51.8	13.2	2.59e-05	0	40	0	967835648	66	5927
2026-01-10 09:49:07.24	352.63	30.91	-47.8	-51.9	13.0	3.35e-05	0	40	0	969932800	66	6054
2026-01-10 09:49:08.24	352.56	30.72	-47.7	-51.9	13.0	3.81e-05	0	40	0	972029952	66	6038
2026-01-10 09:49:09.24	352.48	30.53	-47.8	-52.0	13.0	4.19e-05	0	40	0	974127104	66	6097
2026-01-10 09:49:10.24	352.40	30.34	-47.7	-52.0	13.0	3.35e-05	0	40	0	975175680	66	6069
2026-01-10 09:49:11.24	352.33	30.15	-47.8	-52.0	12.9	4.27e-05	0	40	0	977272832	66	6125
2026-01-10 09:49:12.25	352.25	29.97	-47.7	-51.9	13.0	4.34e-05	0	40	0	979369984	66	6043
2026-01-10 09:49:13.25	352.18	29.78	-47.7	-51.9	13.0	3.66e-05	0	40	0	981467136	66	6043
2026-01-10 09:49:14.25	352.10	29.60	-47.7	-52.0	13.0	4.42e-05	0	40	0	982515712	66	6064
2026-01-10 09:49:15.25	352.03	29.41	-47.6	-51.7	13.2	3.28e-05	0	40	0	984612864	66	5908
2026-01-10 09:49:16.26	351.96	29.23	-47.6	-51.7	13.2	2.82e-05	0	40	0	986710016	66	5901
2026-01-10 09:49:17.26	351.89	29.05	-47.6	-51.6	13.3	1.83e-05	0	40	0	988807168	66	5839
2026-01-10 09:49:18.26	351.82	28.87	-47.6	-51.6	13.4	2.82e-05	0	40	0	990904320	66	5829
2026-01-10 09:49:19.26	351.75	28.69	-47.6	-51.7	13.3	1.37e-05	0	40	0	991952896	66	5858
2026-01-10 09:49:20.26	351.68	28.52	-47.7	-51.8	13.2	2.51e-05	0	40	0	994050048	66	5948
2026-01-10 09:49:21.27	351.61	28.34	-47.8	-51.9	13.1	3.12e-05	0	40	0	996147200	66	6014
2026-01-10 09:49:22.27	351.55	28.16	-47.6	-51.7	13.3	2.74e-05	0	40	0	998244352	66	5871
2026-01-10 09:49:23.27	351.48	27.99	-47.6	-51.6	13.3	1.83e-05	0	40	0	1000341504	66	5811
2026-01-10 09:49:24.27	351.42	27.81	-47.4	-51.4	13.6	1.52e-05	0	40	0	1001390080	66	5668
2026-01-10 09:49:25.28	351.35	27.64	-47.2	-51.1	13.8	3.00e-06	0	40	0	1003487232	66	5518
2026-01-10 09:49:26.28	351.29	27.47	-47.1	-51.0	13.9	3.00e-06	0	40	0	1005584384	66	5426
2026-01-10 09:49:27.28	351.23	27.30	-47.0	-51.0	13.9	1.50e-06	0	40	0	1007681536	66	5431
2026-01-10 09:49:28.28	351.16	27.13	-46.7	-50.6	14.3	7.00e-07	0	40	0	1009778688	65	5493
2026-01-10 09:49:29.29	351.10	26.96	-46.8	-50.7	14.3	0.00e+00	0	40	0	1010827264	65	5545
2026-01-10 09:49:30.29	351.04	26.79	-46.8	-50.7	14.2	7.00e-07	0	40	0	1012924416	65	5581
2026-01-10 09:49:31.29	350.98	26.63	-46.7	-50.5	14.4	2.20e-06	0	40	0	1015021568	65	5450
2026-01-10 09:49:32.29	350.92	26.46	-46.8	-50.6	14.3	1.50e-06	0	40	0	1017118720	65	5499
2026-01-10 09:49:33.30	350.86	26.30	-46.9	-50.7	14.2	2.20e-06	0	40	0	1019215872	65	5542
2026-01-10 09:49:34.30	350.80	26.14	-46.9	-50.7	14.2	7.00e-07	0	40	0	1020264448	65	5559
2026-01-10 09:49:35.30	350.75	25.97	-46.9	-50.7	14.2	2.20e-06	0	40	0	1022361600	65	5570
2026-01-10 09:49:36.30	350.69	25.81	-46.8	-50.7	14.2	1.50e-06	0	40	0	1024458752	65	5577
2026-01-10 09:49:37.31	350.63	25.65	-46.7	-50.6	14.3	0.00e+00	0	40	0	1026555904	65	5514
2026-01-10 09:49:38.31	350.58	25.49	-46.4	-50.3	14.6	7.00e-07	0	40	0	1028653056	64	5637
2026-01-10 09:49:39.31	350.52	25.33	-46.3	-50.3	14.6	0.00e+00	0	40	0	1029701632	64	5612
2026-01-10 09:49:40.31	350.47	25.18	-46.2	-50.1	14.8	0.00e+00	0	40	0	1031798784	64	5486
2026-01-10 09:49:41.31	350.41	25.02	-46.1	-50.0	14.8	0.00e+00	0	40	0	1033895936	64	5452
2026-01-10 09:49:42.32	350.36	24.86	-46.1	-50.0	14.9	7.00e-07	0	40	0	1035993088	64	5443
2026-01-10 09:49:43.32	350.31	24.71	-46.0	-49.9	15.0	0.00e+00	0	40	0	1037041664	64	5363
2026-01-10 09:49:44.32	350.25	24.55	-46.0	-49.8	15.1	0.00e+00	0	40	0	1039138816	64	5308
2026-01-10 09:49:45.32	350.20	24.40	-46.0	-49.6	15.3	0.00e+00	0	40	0	1041235968	63	5513
2026-01-10 09:49:46.32	350.15	24.25	-45.9	-49.5	15.5	0.00e+00	0	40	0	1043333120	63	5413
2026-01-10 09:49:47.32	350.10	24.10	-45.8	-49.3	15.6	0.00e+00	0	40	0	1045430272	63	5309
2026-01-10 09:49:48.33	350.05	23.95	-45.9	-49.4	15.6	0.00e+00	0	40	0	1046478848	63	5374
2026-01-10 09:49:49.33	350.00	23.80	-45.9	-49.3	15.6	0.00e+00	0	40	0	1048576000	63	5335
2026-01-10 09:49:50.33	349.95	23.65	-45.9	-49.2	15.7	0.00e+00	0	40	0	1050673152	63	5271
2026-01-10 09:49:51.33	349.90	23.50	-45.9	-49.1	15.8	0.00e+00	0	40	0	1052770304	63	5207
2026-01-10 09:49:52.33	349.86	23.35	-45.8	-49.0	15.9	0.00e+00	0	40	0	1054867456	63	5147
2026-01-10 09:49:53.33	349.81	23.21	-45.8	-49.0	15.9	0.00e+00	0	40	0	1055916032	63	5152
2026-01-10 09:49:54.34	349.76	23.06	-45.8	-49.0	15.8	0.00e+00	0	40	0	1058013184	63	5159
2026-01-10 09:49:55.34	349.71	22.91	-45.8	-49.0	15.9	0.00e+00	0	40	0	1060110336	63	5159
2026-01-10 09:49:56.34	349.67	22.77	-45.8	-49.1	15.8	0.00e+00	0	40	0	1062207488	63	5166
2026-01-10 09:49:57.34	349.62	22.63	-45.8	-49.1	15.8	0.00e+00	0	40	0	1064304640	63	5206
2026-01-10 09:49:58.34	349.58	22.49	-46.0	-49.2	15.7	0.00e+00	0	40	0	1065353216	63	5277
2026-01-10 09:49:59.34	349.53	22.34	-46.1	-49.4	15.5	0.00e+00	0	40	0	1067450368	63	5361
2026-01-10 09:50:00.35	349.49	22.20	-46.1	-49.5	15.4	0.00e+00	0	40	0	1069547520	63	5409
2026-01-10 09:50:01.35	349.44	22.06	-46.2	-49.5	15.4	0.00e+00	0	40	0	1071644672	63	5405
2026-01-10 09:50:02.35	349.40	21.92	-46.1	-49.3	15.6	0.00e+00	0	40	0	1072693248	63	5327
2026-01-10 09:50:03.35	349.36	21.78	-46.3	-49.5	15.4	0.00e+00	0	40	0	1074790400	63	5448
2026-01-10 09:50:04.36	349.31	21.64	-46.3	-49.6	15.3	0.00e+00	0	40	0	1076887552	63	5500
2026-01-10 09:50:05.36	349.27	21.51	-46.4	-49.6	15.3	0.00e+00	0	40	0	1078984704	63	5520
2026-01-10 09:50:06.36	349.23	21.37	-46.3	-49.6	15.3	0.00e+00	0	40	0	1081081856	63	5511
2026-01-10 09:50:07.36	349.19	21.24	-46.4	-49.8	15.1	0.00e+00	0	40	0	1082130432	63	5604
2026-01-10 09:50:08.36	349.15	21.10	-46.3	-49.7	15.2	0.00e+00	0	40	0	1084227584	63	5559
2026-01-10 09:50:09.37	349.11	20.97	-46.4	-49.8	15.1	0.00e+00	0	40	0	1086324736	63	5628
2026-01-10 09:50:10.37	349.07	20.83	-46.4	-49.8	15.0	0.00e+00	0	40	0	1088421888	63	5651
2026-01-10 09:50:11.37	349.03	20.70	-46.3	-49.8	15.1	0.00e+00	0	40	0	1090519040	63	5626
2026-01-10 09:50:12.37	348.99	20.57	-46.5	-50.0	14.9	0.00e+00	0	40	0	1091567616	63	5739
2026-01-10 09:50:13.38	348.95	20.43	-46.5	-50.0	14.9	7.00e-07	0	40	0	1093664768	63	5784
2026-01-10 09:50:14.38	348.91	20.30	-46.5	-50.0	14.9	0.00e+00	0	40	0	1095761920	63	5760
2026-01-10 09:50:15.38	348.87	20.17	-46.6	-50.1	14.8	7.00e-07	0	40	0	1097859072	63	5841
2026-01-10 09:50:16.38	348.83	20.04	-46.5	-50.1	14.8	1.50e-06	0	40	0	1099956224	63	5807
2026-01-10 09:50:17.39	348.79	19.91	-46.5	-50.2	14.7	0.00e+00	0	40	0	1101004800	63	5874
2026-01-10 09:50:18.39	348.76	19.79	-46.5	-50.2	14.7	0.00e+00	0	40	0	1103101952	63	5918
2026-01-10 09:50:19.39	348.72	19.66	-46.3	-50.3	14.5	7.00e-07	0	40	0	1105199104	63	5991
2026-01-10 09:50:20.39	348.68	19.53	-46.3	-50.4	14.5	0.00e+00	0	40	0	1107296256	63	5993
2026-01-10 09:50:21.40	348.65	19.40	-46.2	-50.5	14.4	7.00e-07	0	40	0	1109393408	63	6074
2026-01-10 09:50:22.40	348.61	19.28	-46.1	-50.4	14.5	0.00e+00	0	40	0	1110441984	63	6010
2026-01-10 09:50:23.40	348.57	19.15	-46.1	-50.6	14.3	0.00e+00	0	40	0	1112539136	63	6145
2026-01-10 09:50:24.40	348.54	19.03	-46.1	-50.6	14.3	0.00e+00	0	40	0	1114636288	63	6144
2026-01-10 09:50:25.40	348.50	18.91	-46.2	-50.6	14.2	2.20e-06	0	40	0	1116733440	63	6177
2026-01-10 09:50:26.41	348.47	18.78	-46.2	-50.5	14.3	7.00e-07	0	40	0	1118830592	63	6111
2026-01-10 09:50:27.41	348.43	18.66	-46.2	-50.5	14.3	7.00e-07	0	40	0	1119879168	63	6118
2026-01-10 09:50:28.41	348.40	18.54	-46.2	-50.5	14.4	7.00e-07	0	40	0	1121976320	63	6070
2026-01-10 09:50:29.41	348.37	18.42	-46.2	-50.5	14.3	7.00e-07	0	40	0	1124073472	63	6105
2026-01-10 09:50:30.42	348.33	18.29	-46.3	-50.6	14.2	7.00e-07	0	40	0	1126170624	63	6190
2026-01-10 09:50:31.42	348.30	18.17	-46.2	-50.5	14.3	1.50e-06	0	40	0	1127219200	63	6121
2026-01-10 09:50:32.42	348.27	18.05	-46.3	-50.7	14.2	0.00e+00	0	40	0	1129316352	63	6207
2026-01-10 09:50:33.42	348.23	17.94	-46.2	-50.6	14.3	7.00e-07	0	40	0	1131413504	63	6135
2026-01-10 09:50:34.43	348.20	17.82	-46.3	-50.6	14.2	1.50e-06	0	40	0	1133510656	63	6184
2026-01-10 09:50:35.43	348.17	17.70	-46.2	-50.7	14.1	0.00e+00	0	40	0	1135607808	63	6226
2026-01-10 09:50:36.43	348.14	17.58	-46.2	-50.6	14.1	2.20e-06	0	40	0	1136656384	63	6202
2026-01-10 09:50:37.43	348.11	17.46	-46.2	-50.7	14.1	0.00e+00	0	40	0	1138753536	63	6258
2026-01-10 09:50:38.43	348.07	17.35	-46.3	-50.7	14.1	0.00e+00	0	40	0	1140850688	63	6233
2026-01-10 09:50:39.44	348.04	17.23	-46.4	-50.7	14.1	0.00e+00	0	40	0	1142947840	63	6244
2026-01-10 09:50:40.44	348.01	17.12	-46.5	-50.7	14.1	1.50e-06	0	40	0	1145044992	63	6260
2026-01-10 09:50:41.44	347.98	17.00	-46.7	-50.9	13.9	1.50e-06	0	40	0	1146093568	63	6392
2026-01-10 09:50:42.44	347.95	16.89	-46.6	-50.8	13.9	2.20e-06	0	40	0	1148190720	64	5970
2026-01-10 09:50:43.45	347.92	16.77	-46.7	-50.8	13.9	3.80e-06	0	40	0	1150287872	64	5962
2026-01-10 09:50:44.45	347.89	16.66	-46.8	-51.0	13.8	5.30e-06	0	40	0	1152385024	64	6078
2026-01-10 09:50:45.45	347.86	16.55	-46.8	-50.9	13.8	2.20e-06	0	40	0	1154482176	64	6041
2026-01-10 09:50:46.45	347.83	16.43	-46.8	-51.0	13.7	2.20e-06	0	40	0	1155530752	64	6080
2026-01-10 09:50:47.45	347.80	16.32	-46.9	-51.1	13.6	1.06e-05	0	40	0	1157627904	64	6184
2026-01-10 09:50:48.45	347.78	16.21	-46.9	-51.1	13.6	1.44e-05	0	40	0	1159725056	64	6154
2026-01-10 09:50:49.46	347.75	16.10	-46.9	-51.2	13.6	1.14e-05	0	40	0	1161822208	64	6226
2026-01-10 09:50:50.46	347.72	15.99	-46.9	-51.2	13.5	1.06e-05	0	40	0	1163919360	64	6269
2026-01-10 09:50:51.46	347.69	15.88	-46.9	-51.2	13.5	1.14e-05	0	40	0	1164967936	64	6240
2026-01-10 09:50:52.46	347.66	15.77	-47.1	-51.4	13.3	1.37e-05	0	40	0	1167065088	64	6356
2026-01-10 09:50:53.46	347.64	15.66	-47.1	-51.4	13.3	3.12e-05	0	40	0	1169162240	64	6400
2026-01-10 09:50:54.47	347.61	15.55	-47.1	-51.4	13.3	1.90e-05	0	40	0	1171259392	64	6359
2026-01-10 09:50:55.47	347.58	15.45	-47.1	-51.5	13.2	2.51e-05	0	40	0	1172307968	64	6442
2026-01-10 09:50:56.47	347.55	15.34	-47.2	-51.5	13.2	2.28e-05	0	40	0	1174405120	65	6088
2026-01-10 09:50:57.48	347.53	15.23	-47.2	-51.5	13.2	1.90e-05	0	40	0	1176502272	65	6076
2026-01-10 09:50:58.48	347.50	15.13	-47.2	-51.5	13.2	2.59e-05	0	40	0	1178599424	65	6093
2026-01-10 09:50:59.48	347.47	15.02	-47.2	-51.5	13.2	2.44e-05	0	40	0	1180696576	65	6069
2026-01-10 09:51:00.48	347.45	14.91	-47.2	-51.5	13.2	1.98e-05	0	40	0	1181745152	65	6076
2026-01-10 09:51:01.49	347.42	14.81	-47.3	-51.6	13.1	2.67e-05	0	40	0	1183842304	65	6158
2026-01-10 09:51:02.49	347.40	14.70	-47.2	-51.5	13.2	2.05e-05	0	40	0	1185939456	65	6095
2026-01-10 09:51:03.49	347.37	14.60	-47.1	-51.3	13.3	1.90e-05	0	40	0	1188036608	65	5990
2026-01-10 09:51:04.50	347.35	14.50	-47.2	-51.5	13.2	2.36e-05	0	40	0	1190133760	65	6090
2026-01-10 09:51:05.50	347.32	14.39	-47.1	-51.5	13.2	2.05e-05	0	40	0	1191182336	65	6083
2026-01-10 09:51:06.50	347.30	14.29	-47.2	-51.6	13.1	2.82e-05	0	40	0	1193279488	65	6140
2026-01-10 09:51:07.50	347.27	14.19	-47.1	-51.5	13.2	2.74e-05	0	40	0	1195376640	65	6100
2026-01-10 09:51:08.51	347.25	14.08	-47.0	-51.3	13.3	2.51e-05	0	40	0	1197473792	65	5983
2026-01-10 09:51:09.51	347.22	13.98	-47.0	-51.4	13.3	1.52e-05	0	40	0	1199570944	65	5999
2026-01-10 09:51:10.51	347.20	13.88	-47.0	-51.4	13.2	2.51e-05	0	40	0	1200619520	65	6059
2026-01-10 09:51:11.51	347.18	13.78	-47.0	-51.5	13.2	1.75e-05	0	40	0	1202716672	65	6090
2026-01-10 09:51:12.51	347.15	13.68	-46.8	-51.3	13.3	1.06e-05	0	40	0	1204813824	65	5992
2026-01-10 09:51:13.52	347.13	13.58	-46.7	-51.2	13.4	1.44e-05	0	40	0	1206910976	65	5918
2026-01-10 09:51:14.52	347.11	13.48	-46.7	-51.2	13.4	1.29e-05	0	39	0	1209008128	65	5871
2026-01-10 09:51:15.52	347.08	13.38	-46.8	-51.3	13.4	1.37e-05	0	40	0	1210056704	65	5925
2026-01-10 09:51:16.53	347.06	13.28	-46.7	-51.1	13.5	1.37e-05	0	40	0	1212153856	65	5845
2026-01-10 09:51:17.52	347.04	13.19	-46.6	-50.9	13.7	9.90e-06	0	40	0	1214251008	65	5719
2026-01-10 09:51:18.53	347.01	13.09	-46.7	-51.1	13.5	9.90e-06	0	40	0	1216348160	65	5823
2026-01-10 09:51:19.53	346.99	12.99	-46.8	-51.1	13.5	9.90e-06	0	40	0	1218445312	65	5815
2026-01-10 09:51:20.53	346.97	12.89	-46.7	-51.0	13.6	1.06e-05	0	40	0	1219493888	65	5769
2026-01-10 09:51:21.54	346.95	12.80	-46.7	-50.9	13.6	5.30e-06	0	40	0	1221591040	65	5719
2026-01-10 09:51:22.54	346.93	12.70	-46.7	-51.0	13.6	3.80e-06	0	40	0	1223688192	65	5760
2026-01-10 09:51:23.54	346.90	12.60	-46.6	-50.9	13.6	9.90e-06	0	40	0	1225785344	65	5714
2026-01-10 09:51:24.54	346.88	12.51	-46.6	-50.9	13.7	3.00e-06	0	40	0	1226833920	65	5662
2026-01-10 09:51:25.55	346.86	12.41	-46.5	-50.8	13.7	2.20e-06	0	40	0	1228931072	65	5645
2026-01-10 09:51:26.55	346.84	12.32	-46.3	-50.9	13.7	1.22e-05	0	40	0	1231028224	64	6033
2026-01-10 09:51:27.55	346.82	12.22	-46.1	-50.8	13.7	3.00e-06	0	40	0	1233125376	64	5983
2026-01-10 09:51:28.55	346.80	12.13	-46.0	-50.8	13.8	3.80e-06	0	40	0	1235222528	64	5931
2026-01-10 09:51:29.55	346.78	12.04	-46.0	-50.9	13.7	4.50e-06	0	40	0	1236271104	63	6386
2026-01-10 09:51:30.56	346.76	11.94	-46.0	-50.9	13.8	3.00e-06	0	40	0	1238368256	63	6349
2026-01-10 09:51:31.56	346.74	11.85	-46.0	-51.0	13.7	6.10e-06	0	40	0	1240465408	63	6443
2026-01-10 09:51:32.56	346.72	11.76	-45.8	-50.9	13.7	1.50e-06	0	40	0	1242562560	63	6392
2026-01-10 09:51:33.57	346.70	11.66	-45.8	-51.0	13.7	4.50e-06	0	40	0	1244659712	63	6429
