passes_logs/2026/01/10/T1/T1__20260110_152621_FENGYUN_3E_rec.log

#Pass ID: 20260110_152621_FENGYUN 3E
#Satellite: FENGYUN 3E
#Configuration: FENGYUN 3E
#almurnet v.1.7.20251203
#Start time: 2026-01-10 15:26:22

#Version: 2.0.20230620
#Station: T1
#Location: 37.570604 lon 55.790049 lat
#TLE: 1 49008U 21062A   26009.86154543 -.00000176  00000+0 -62220-4 0  9996
#TLE: 2 49008  98.7486  15.0498 0001782 147.3871 212.7416 14.19883371234110

#Time	Az	El	Level	Level2	SNR	BER	BlckErr	Temp	State	Recorded	gain1	gain2
2026-01-10 15:26:22.94	200.19	5.10	-47.1	-59.5	3.8	8.47e-01	0	40	0	0	63	16006
2026-01-10 15:26:23.94	200.26	5.16	-47.0	-59.4	3.8	8.47e-01	0	40	104	0	64	14916
2026-01-10 15:26:24.94	200.33	5.23	-47.0	-59.3	3.8	8.46e-01	0	41	104	0	64	14820
2026-01-10 15:26:25.95	200.40	5.29	-47.0	-59.4	3.8	8.48e-01	0	41	104	0	64	14936
2026-01-10 15:26:26.95	200.47	5.36	-47.0	-59.4	3.8	8.47e-01	0	41	104	0	64	14968
2026-01-10 15:26:27.96	200.54	5.42	-47.0	-59.4	3.8	8.47e-01	0	41	104	0	64	14904
2026-01-10 15:26:28.96	200.61	5.49	-47.0	-59.4	3.8	8.47e-01	0	41	104	0	64	14987
2026-01-10 15:26:29.97	200.69	5.55	-47.0	-59.4	3.8	8.47e-01	0	41	104	0	64	14954
2026-01-10 15:26:30.97	200.76	5.62	-47.0	-59.4	3.8	8.46e-01	0	41	104	0	64	14887
2026-01-10 15:26:31.98	200.83	5.68	-47.0	-59.4	3.8	8.47e-01	0	41	104	0	64	14940
2026-01-10 15:26:32.98	200.91	5.75	-47.0	-59.3	3.8	8.47e-01	0	41	104	0	64	14864
2026-01-10 15:26:33.98	200.98	5.81	-47.0	-59.4	3.8	8.47e-01	0	41	104	0	64	14955
2026-01-10 15:26:34.99	201.05	5.88	-47.0	-59.3	3.8	8.47e-01	0	41	104	0	64	14874
2026-01-10 15:26:35.99	201.13	5.95	-47.0	-59.5	3.8	8.46e-01	0	41	104	0	64	15089
2026-01-10 15:26:37.00	201.20	6.01	-47.0	-59.4	3.8	8.47e-01	0	41	104	0	64	14964
2026-01-10 15:26:38.00	201.28	6.08	-47.0	-59.4	3.8	8.48e-01	0	41	104	0	64	14960
2026-01-10 15:26:39.00	201.35	6.14	-46.9	-59.4	3.8	8.47e-01	0	41	104	0	64	14935
2026-01-10 15:26:40.01	201.43	6.21	-47.0	-59.4	3.8	8.47e-01	0	41	104	0	64	14968
2026-01-10 15:26:41.01	201.50	6.28	-47.0	-59.4	3.8	8.47e-01	0	41	104	0	64	15021
2026-01-10 15:26:42.02	201.58	6.35	-47.0	-59.4	3.8	8.47e-01	0	41	104	0	64	15019
2026-01-10 15:26:43.02	201.65	6.41	-47.0	-59.4	3.8	8.46e-01	0	41	104	0	64	15006
2026-01-10 15:26:44.03	201.73	6.48	-47.0	-59.4	3.8	8.46e-01	0	41	104	0	64	14965
2026-01-10 15:26:45.03	201.81	6.55	-47.0	-59.4	3.8	8.47e-01	0	42	104	0	64	14959
2026-01-10 15:26:46.04	201.89	6.61	-47.0	-59.4	3.8	8.46e-01	0	41	104	0	64	14894
2026-01-10 15:26:47.04	201.96	6.68	-47.0	-59.4	3.8	8.47e-01	0	41	104	0	64	14992
2026-01-10 15:26:48.04	202.04	6.75	-47.0	-59.4	3.8	8.47e-01	0	41	104	0	64	14990
2026-01-10 15:26:49.05	202.12	6.82	-47.0	-59.4	3.8	8.45e-01	0	42	104	0	64	15004
2026-01-10 15:26:50.06	202.20	6.88	-47.0	-59.4	3.8	8.46e-01	0	42	104	0	64	14962
2026-01-10 15:26:51.06	202.28	6.95	-47.0	-59.5	3.8	8.46e-01	0	42	104	0	64	15060
2026-01-10 15:26:52.06	202.36	7.02	-46.9	-59.4	3.8	8.47e-01	0	42	104	0	64	14927
2026-01-10 15:26:53.07	202.44	7.09	-47.0	-59.4	3.8	8.47e-01	0	42	104	0	64	14977
2026-01-10 15:26:54.07	202.52	7.16	-47.0	-59.4	3.8	8.46e-01	0	42	104	0	64	14953
2026-01-10 15:26:55.07	202.60	7.22	-47.0	-59.4	3.8	8.46e-01	0	42	104	0	64	14965
2026-01-10 15:26:56.08	202.68	7.29	-47.0	-59.4	3.8	8.48e-01	0	42	104	0	64	14900
2026-01-10 15:26:57.08	202.76	7.36	-47.0	-59.4	3.8	8.47e-01	0	42	104	0	64	14925
2026-01-10 15:26:58.09	202.84	7.43	-46.9	-59.4	3.8	8.46e-01	0	42	104	0	64	14970
2026-01-10 15:26:59.09	202.92	7.50	-47.0	-59.3	3.8	8.46e-01	0	42	104	0	64	14878
2026-01-10 15:27:00.10	203.01	7.57	-47.0	-59.4	3.8	8.47e-01	0	42	104	0	64	14977
2026-01-10 15:27:01.10	203.09	7.64	-46.9	-59.4	3.8	8.47e-01	0	42	104	0	64	14976
2026-01-10 15:27:02.11	203.17	7.71	-47.0	-59.4	3.8	8.47e-01	0	42	104	0	64	14919
2026-01-10 15:27:03.11	203.26	7.78	-47.0	-59.4	3.8	8.47e-01	0	42	104	0	64	15037
2026-01-10 15:27:04.11	203.34	7.85	-47.0	-59.3	3.8	8.48e-01	0	42	104	0	64	14862
2026-01-10 15:27:05.12	203.42	7.92	-46.9	-59.4	3.8	8.47e-01	0	42	104	0	64	14949
2026-01-10 15:27:06.12	203.51	7.99	-47.0	-59.4	3.8	8.46e-01	0	42	104	0	64	14998
2026-01-10 15:27:07.13	203.59	8.06	-46.9	-59.4	3.8	8.46e-01	0	42	104	0	64	14941
2026-01-10 15:27:08.13	203.68	8.13	-47.0	-59.4	3.8	8.48e-01	0	42	104	0	64	14959
2026-01-10 15:27:09.13	203.76	8.20	-47.0	-59.4	3.8	8.46e-01	0	42	104	0	64	14927
2026-01-10 15:27:10.14	203.85	8.27	-46.9	-59.4	3.8	8.47e-01	0	42	104	0	64	14927
2026-01-10 15:27:11.14	203.94	8.34	-47.0	-59.5	3.8	8.48e-01	0	42	104	0	64	15096
2026-01-10 15:27:12.15	204.02	8.41	-47.0	-59.4	3.8	8.46e-01	0	42	104	0	64	14963
2026-01-10 15:27:13.15	204.11	8.48	-46.9	-59.4	3.8	8.47e-01	0	42	104	0	64	14935
2026-01-10 15:27:14.16	204.20	8.55	-47.0	-59.4	3.8	8.46e-01	0	42	104	0	64	14886
2026-01-10 15:27:15.16	204.29	8.62	-47.0	-59.4	3.8	8.48e-01	0	42	104	0	64	14987
2026-01-10 15:27:16.17	204.38	8.70	-47.0	-59.4	3.8	8.45e-01	0	42	104	0	64	14966
2026-01-10 15:27:17.17	204.47	8.77	-47.0	-59.4	3.8	8.48e-01	0	42	104	0	64	14924
2026-01-10 15:27:18.17	204.56	8.84	-47.0	-59.4	3.8	8.47e-01	0	42	104	0	64	15024
2026-01-10 15:27:19.18	204.65	8.91	-47.0	-59.4	3.8	8.46e-01	0	42	104	0	64	14954
2026-01-10 15:27:20.18	204.74	8.98	-47.0	-59.4	3.8	8.47e-01	0	42	104	0	64	14886
2026-01-10 15:27:21.19	204.83	9.05	-47.0	-59.4	3.8	8.47e-01	0	42	104	0	64	14975
2026-01-10 15:27:22.19	204.92	9.13	-47.0	-59.4	3.8	8.47e-01	0	42	104	0	64	14947
2026-01-10 15:27:23.20	205.01	9.20	-47.0	-59.4	3.8	8.47e-01	0	42	104	0	64	14971
2026-01-10 15:27:24.20	205.10	9.27	-47.0	-59.4	3.8	8.46e-01	0	43	104	0	64	15017
2026-01-10 15:27:25.21	205.20	9.34	-47.0	-59.4	3.8	8.46e-01	0	42	104	0	64	14981
2026-01-10 15:27:26.21	205.29	9.42	-47.0	-59.4	3.8	8.46e-01	0	42	104	0	64	14884
2026-01-10 15:27:27.21	205.38	9.49	-47.0	-59.4	3.8	8.47e-01	0	43	104	0	64	14944
2026-01-10 15:27:28.22	205.48	9.56	-47.0	-59.5	3.8	8.47e-01	0	43	104	0	64	15106
2026-01-10 15:27:29.22	205.57	9.64	-47.0	-59.4	3.8	8.47e-01	0	42	104	0	64	14975
2026-01-10 15:27:30.23	205.67	9.71	-47.0	-59.4	3.8	8.48e-01	0	43	104	0	64	15014
2026-01-10 15:27:31.23	205.76	9.78	-47.0	-59.4	3.8	8.46e-01	0	42	104	0	64	14983
2026-01-10 15:27:32.24	205.86	9.86	-46.9	-59.4	3.8	8.47e-01	0	43	104	0	64	14948
2026-01-10 15:27:33.24	205.95	9.93	-47.0	-59.4	3.8	8.46e-01	0	42	104	0	64	14950
2026-01-10 15:27:34.24	206.05	10.01	-47.0	-59.5	3.8	8.48e-01	0	43	104	0	64	15061
2026-01-10 15:27:35.25	206.15	10.08	-46.9	-59.4	3.8	8.47e-01	0	43	104	0	64	14893
2026-01-10 15:27:36.25	206.24	10.15	-47.0	-59.4	3.8	8.47e-01	0	42	104	0	64	14885
2026-01-10 15:27:37.26	206.34	10.23	-47.0	-59.4	3.8	8.47e-01	0	42	104	0	64	15034
2026-01-10 15:27:38.26	206.44	10.30	-47.0	-59.4	3.8	8.47e-01	0	43	104	0	64	14980
2026-01-10 15:27:39.27	206.54	10.38	-47.0	-59.4	3.8	8.46e-01	0	43	104	0	64	14948
2026-01-10 15:27:40.27	206.64	10.45	-47.0	-59.4	3.8	8.47e-01	0	43	104	0	64	14911
2026-01-10 15:27:41.28	206.74	10.53	-47.0	-59.4	3.8	8.47e-01	0	43	104	0	64	14964
2026-01-10 15:27:42.28	206.84	10.60	-47.0	-59.4	3.8	8.46e-01	0	43	104	0	64	14900
2026-01-10 15:27:43.28	206.94	10.68	-47.0	-59.4	3.8	8.47e-01	0	43	104	0	64	14928
2026-01-10 15:27:44.29	207.04	10.76	-47.0	-59.4	3.8	8.46e-01	0	43	104	0	64	14981
2026-01-10 15:27:45.29	207.14	10.83	-46.9	-59.4	3.8	8.46e-01	0	43	104	0	64	14991
2026-01-10 15:27:46.30	207.25	10.91	-47.0	-59.4	3.8	8.47e-01	0	43	104	0	64	14984
2026-01-10 15:27:47.30	207.35	10.98	-47.0	-59.4	3.8	8.48e-01	0	43	104	0	64	14901
2026-01-10 15:27:48.31	207.46	11.06	-47.0	-59.4	3.8	8.47e-01	0	43	104	0	64	15004
2026-01-10 15:27:49.31	207.56	11.14	-47.0	-59.4	3.8	8.46e-01	0	43	104	0	64	15013
2026-01-10 15:27:50.32	207.66	11.21	-47.0	-59.4	3.8	8.46e-01	0	43	104	0	64	14976
2026-01-10 15:27:51.32	207.77	11.29	-46.9	-59.5	3.8	8.47e-01	0	43	104	0	64	15060
2026-01-10 15:27:52.32	207.87	11.37	-47.0	-59.4	3.8	8.47e-01	0	43	104	0	64	14988
2026-01-10 15:27:53.33	207.98	11.44	-47.0	-59.4	3.8	8.46e-01	0	43	104	0	64	15006
2026-01-10 15:27:54.33	208.09	11.52	-47.0	-59.4	3.8	8.47e-01	0	43	104	0	64	14928
2026-01-10 15:27:55.34	208.20	11.60	-47.0	-59.4	3.8	8.47e-01	0	43	104	0	64	14970
2026-01-10 15:27:56.34	208.30	11.68	-47.0	-59.4	3.8	8.46e-01	0	43	104	0	64	15034
2026-01-10 15:27:57.35	208.41	11.75	-47.0	-59.4	3.8	8.47e-01	0	43	104	0	64	14911
2026-01-10 15:27:58.35	208.52	11.83	-46.9	-59.4	3.8	8.46e-01	0	43	104	0	64	15029
2026-01-10 15:27:59.36	208.63	11.91	-46.9	-59.4	3.8	8.47e-01	0	43	104	0	64	15039
2026-01-10 15:28:00.36	208.74	11.99	-46.9	-59.4	3.8	8.47e-01	0	43	104	0	64	14959
2026-01-10 15:28:01.36	208.85	12.07	-47.0	-59.4	3.8	8.46e-01	0	43	104	0	64	14956
2026-01-10 15:28:02.37	208.96	12.14	-47.0	-59.4	3.8	8.46e-01	0	43	104	0	64	14954
2026-01-10 15:28:03.37	209.07	12.22	-47.0	-59.4	3.8	8.46e-01	0	43	104	0	64	15003
2026-01-10 15:28:04.38	209.19	12.30	-47.0	-59.4	3.8	8.46e-01	0	43	104	0	64	15006
2026-01-10 15:28:05.38	209.30	12.38	-47.0	-59.4	3.8	8.47e-01	0	43	104	0	64	14938
2026-01-10 15:28:06.39	209.41	12.46	-47.0	-59.4	3.8	8.46e-01	0	43	104	0	64	14930
2026-01-10 15:28:07.39	209.53	12.54	-47.0	-59.4	3.8	8.46e-01	0	43	104	0	64	14901
2026-01-10 15:28:08.40	209.64	12.62	-47.0	-59.4	3.8	8.48e-01	0	43	104	0	64	15000
2026-01-10 15:28:09.40	209.76	12.70	-47.0	-59.4	3.8	8.47e-01	0	43	104	0	64	15002
2026-01-10 15:28:10.41	209.88	12.78	-47.0	-59.4	3.8	8.46e-01	0	43	104	0	64	14976
2026-01-10 15:28:11.41	209.99	12.86	-47.0	-59.4	3.8	8.46e-01	0	43	104	0	64	14993
2026-01-10 15:28:12.41	210.11	12.94	-47.0	-59.4	3.8	8.47e-01	0	43	104	0	64	14971
2026-01-10 15:28:13.42	210.23	13.02	-47.0	-59.5	3.8	8.46e-01	0	43	104	0	64	15055
2026-01-10 15:28:14.42	210.35	13.10	-47.0	-59.4	3.8	8.47e-01	0	43	104	0	64	14944
2026-01-10 15:28:15.43	210.46	13.18	-47.0	-59.4	3.8	8.46e-01	0	43	104	0	64	14974
2026-01-10 15:28:16.43	210.58	13.26	-47.0	-59.4	3.8	8.49e-01	0	43	104	0	64	14942
2026-01-10 15:28:17.44	210.71	13.34	-47.0	-59.4	3.8	8.47e-01	0	43	104	0	64	14946
2026-01-10 15:28:18.44	210.83	13.42	-47.0	-59.4	3.8	8.46e-01	0	43	104	0	64	14953
2026-01-10 15:28:19.45	210.95	13.50	-47.0	-59.5	3.8	8.46e-01	0	43	104	0	64	15086
2026-01-10 15:28:20.45	211.07	13.58	-47.0	-59.5	3.8	8.47e-01	0	43	104	0	64	15092
2026-01-10 15:28:21.45	211.19	13.67	-47.0	-59.4	3.8	8.48e-01	0	43	104	0	64	15040
2026-01-10 15:28:22.46	211.32	13.75	-47.0	-59.5	3.8	8.46e-01	0	43	104	0	64	15055
2026-01-10 15:28:23.46	211.44	13.83	-47.0	-59.4	3.8	8.48e-01	0	43	104	0	64	14971
2026-01-10 15:28:24.47	211.57	13.91	-47.0	-59.4	3.8	8.47e-01	0	43	104	0	64	15023
2026-01-10 15:28:25.47	211.69	13.99	-47.0	-59.4	3.8	8.47e-01	0	43	104	0	64	14950
2026-01-10 15:28:26.48	211.82	14.08	-47.0	-59.4	3.8	8.46e-01	0	43	104	0	64	14955
2026-01-10 15:28:27.48	211.94	14.16	-47.0	-59.4	3.8	8.46e-01	0	43	104	0	64	15020
2026-01-10 15:28:28.48	212.07	14.24	-47.0	-59.5	3.8	8.47e-01	0	43	104	0	64	15070
2026-01-10 15:28:29.49	212.20	14.32	-47.0	-59.4	3.8	8.46e-01	0	43	104	0	64	14918
2026-01-10 15:28:30.49	212.33	14.41	-47.0	-59.4	3.8	8.47e-01	0	43	104	0	64	14929
2026-01-10 15:28:31.50	212.46	14.49	-47.0	-59.4	3.8	8.47e-01	0	43	104	0	64	14956
2026-01-10 15:28:32.50	212.59	14.57	-47.0	-59.4	3.8	8.47e-01	0	43	104	0	64	14958
2026-01-10 15:28:33.51	212.72	14.66	-47.0	-59.3	3.8	8.47e-01	0	43	104	0	64	14866
2026-01-10 15:28:34.51	212.85	14.74	-47.0	-59.4	3.8	8.46e-01	0	43	104	0	64	14965
2026-01-10 15:28:35.52	212.99	14.82	-47.1	-59.4	3.8	8.46e-01	0	43	104	0	64	14994
2026-01-10 15:28:36.52	213.12	14.91	-47.0	-59.4	3.8	8.46e-01	0	43	104	0	64	14943
2026-01-10 15:28:37.52	213.25	14.99	-47.0	-59.4	3.8	8.47e-01	0	43	104	0	64	14889
2026-01-10 15:28:38.53	213.39	15.07	-47.1	-59.4	3.8	8.47e-01	0	43	104	0	64	14988
2026-01-10 15:28:39.53	213.52	15.16	-47.1	-59.4	3.8	8.47e-01	0	43	104	0	64	15030
2026-01-10 15:28:40.54	213.66	15.24	-47.1	-59.4	3.8	8.47e-01	0	43	104	0	64	14961
2026-01-10 15:28:41.54	213.80	15.33	-47.1	-59.4	3.8	8.47e-01	0	43	104	0	64	14950
2026-01-10 15:28:42.54	213.93	15.41	-47.1	-59.4	3.8	8.47e-01	0	43	104	0	64	14907
2026-01-10 15:28:43.55	214.07	15.50	-47.1	-59.4	3.8	8.47e-01	0	43	104	0	64	14954
2026-01-10 15:28:44.55	214.21	15.58	-47.1	-59.4	3.8	8.47e-01	0	43	104	0	64	14977
2026-01-10 15:28:45.56	214.35	15.67	-47.1	-59.4	3.8	8.46e-01	0	43	104	0	64	14940
2026-01-10 15:28:46.56	214.49	15.75	-47.1	-59.4	3.8	8.48e-01	0	43	104	0	64	15012
2026-01-10 15:28:47.57	214.64	15.84	-47.1	-59.4	3.8	8.48e-01	0	43	104	0	64	15021
2026-01-10 15:28:48.57	214.78	15.92	-47.1	-59.4	3.8	8.47e-01	0	43	104	0	64	14962
2026-01-10 15:28:49.58	214.92	16.01	-47.1	-59.4	3.8	8.46e-01	0	43	104	0	64	15039
2026-01-10 15:28:50.58	215.06	16.09	-47.1	-59.4	3.8	8.48e-01	0	43	104	0	64	14996
2026-01-10 15:28:51.59	215.21	16.18	-47.1	-59.4	3.8	8.47e-01	0	43	104	0	64	14920
2026-01-10 15:28:52.59	215.36	16.26	-47.1	-59.4	3.8	8.47e-01	0	43	104	0	64	14963
2026-01-10 15:28:53.59	215.50	16.35	-47.1	-59.4	3.8	8.46e-01	0	43	104	0	64	15047
2026-01-10 15:28:54.60	215.65	16.44	-47.1	-59.4	3.8	8.47e-01	0	43	104	0	64	14969
2026-01-10 15:28:55.60	215.80	16.52	-47.1	-59.4	3.8	8.47e-01	0	43	104	0	64	14963
2026-01-10 15:28:56.61	215.95	16.61	-47.1	-59.4	3.8	8.47e-01	0	43	104	0	64	15043
2026-01-10 15:28:57.61	216.10	16.69	-47.1	-59.4	3.8	8.48e-01	0	43	104	0	64	14954
2026-01-10 15:28:58.61	216.25	16.78	-47.1	-59.4	3.8	8.47e-01	0	43	104	0	64	14959
2026-01-10 15:28:59.62	216.40	16.87	-47.1	-59.4	3.8	8.47e-01	0	43	104	0	64	14927
2026-01-10 15:29:00.62	216.55	16.95	-47.1	-59.4	3.8	8.47e-01	0	43	104	0	64	15000
2026-01-10 15:29:01.63	216.70	17.04	-47.1	-59.4	3.8	8.47e-01	0	43	104	0	64	14975
2026-01-10 15:29:02.63	216.86	17.13	-47.1	-59.4	3.8	8.47e-01	0	43	104	0	64	14986
2026-01-10 15:29:03.63	217.01	17.22	-47.1	-59.4	3.8	8.47e-01	0	43	104	0	64	14962
2026-01-10 15:29:04.64	217.17	17.30	-47.1	-59.4	3.8	8.46e-01	0	43	104	0	64	15029
2026-01-10 15:29:05.64	217.32	17.39	-47.1	-59.4	3.8	8.47e-01	0	43	104	0	64	14939
2026-01-10 15:29:06.65	217.48	17.48	-47.1	-59.5	3.8	8.47e-01	0	43	104	0	64	15064
2026-01-10 15:29:07.65	217.64	17.57	-47.0	-59.4	3.8	8.46e-01	0	43	104	0	64	14965
2026-01-10 15:29:08.66	217.80	17.65	-47.1	-59.4	3.8	8.47e-01	0	43	104	0	64	15009
2026-01-10 15:29:09.66	217.96	17.74	-47.0	-59.4	3.8	8.46e-01	0	43	104	0	64	14928
2026-01-10 15:29:10.67	218.12	17.83	-47.0	-59.4	3.8	8.47e-01	0	43	104	0	64	14907
2026-01-10 15:29:11.67	218.28	17.92	-47.0	-59.4	3.8	8.47e-01	0	43	104	0	64	15014
2026-01-10 15:29:12.67	218.44	18.01	-47.0	-59.4	3.8	8.48e-01	0	43	104	0	64	15043
2026-01-10 15:29:13.68	218.61	18.09	-47.0	-59.4	3.8	8.47e-01	0	43	104	0	64	14886
2026-01-10 15:29:14.68	218.77	18.18	-47.0	-59.4	3.8	8.46e-01	0	43	104	0	64	15015
2026-01-10 15:29:15.69	218.94	18.27	-47.0	-59.4	3.8	8.47e-01	0	43	104	0	64	14983
2026-01-10 15:29:16.69	219.11	18.36	-47.0	-59.4	3.8	8.46e-01	0	43	104	0	64	15015
2026-01-10 15:29:17.70	219.27	18.45	-47.0	-59.4	3.8	8.48e-01	0	43	104	0	64	14921
2026-01-10 15:29:18.70	219.44	18.54	-47.0	-59.4	3.8	8.46e-01	0	43	104	0	64	14961
2026-01-10 15:29:19.71	219.61	18.63	-47.0	-59.5	3.8	8.47e-01	0	43	104	0	64	15067
2026-01-10 15:29:20.71	219.78	18.71	-47.0	-59.4	3.8	8.47e-01	0	43	104	0	64	14947
2026-01-10 15:29:21.71	219.95	18.80	-47.0	-59.4	3.8	8.46e-01	0	43	104	0	64	14936
2026-01-10 15:29:22.72	220.13	18.89	-47.0	-59.4	3.8	8.47e-01	0	43	104	0	64	14959
2026-01-10 15:29:23.73	220.30	18.98	-47.0	-59.4	3.8	8.46e-01	0	43	104	0	64	14924
2026-01-10 15:29:24.73	220.48	19.07	-47.0	-59.4	3.8	8.46e-01	0	43	104	0	64	14986
2026-01-10 15:29:25.73	220.65	19.16	-47.0	-59.4	3.8	8.47e-01	0	43	104	0	64	14926
2026-01-10 15:29:26.74	220.83	19.25	-47.0	-59.4	3.8	8.47e-01	0	43	104	0	64	14952
2026-01-10 15:29:27.74	221.00	19.34	-47.0	-59.4	3.8	8.48e-01	0	43	104	0	64	14981
2026-01-10 15:29:28.75	221.18	19.43	-47.0	-59.4	3.8	8.46e-01	0	43	104	0	64	14894
2026-01-10 15:29:29.75	221.36	19.52	-47.0	-59.4	3.8	8.46e-01	0	43	104	0	64	15005
2026-01-10 15:29:30.76	221.54	19.61	-47.0	-59.4	3.8	8.46e-01	0	43	104	0	64	14998
2026-01-10 15:29:31.76	221.72	19.70	-47.0	-59.4	3.8	8.47e-01	0	43	104	0	64	14968
2026-01-10 15:29:32.77	221.91	19.79	-46.9	-59.4	3.8	8.47e-01	0	44	104	0	64	14996
2026-01-10 15:29:33.77	222.09	19.88	-47.0	-59.4	3.8	8.48e-01	0	44	104	0	64	15032
2026-01-10 15:29:34.77	222.27	19.96	-46.9	-59.4	3.8	8.49e-01	0	43	104	0	64	14944
2026-01-10 15:29:35.78	222.46	20.05	-47.0	-59.4	3.8	8.46e-01	0	43	104	0	64	14991
2026-01-10 15:29:36.78	222.65	20.14	-47.0	-59.4	3.8	8.46e-01	0	43	104	0	64	15028
2026-01-10 15:29:37.79	222.84	20.23	-47.0	-59.4	3.8	8.46e-01	0	43	104	0	64	14941
2026-01-10 15:29:38.79	223.02	20.32	-47.0	-59.4	3.8	8.49e-01	0	43	104	0	64	14939
2026-01-10 15:29:39.80	223.21	20.41	-47.0	-59.4	3.8	8.47e-01	0	44	104	0	64	15003
2026-01-10 15:29:40.80	223.40	20.50	-47.0	-59.4	3.8	8.46e-01	0	43	104	0	64	15018
2026-01-10 15:29:41.81	223.60	20.59	-47.0	-59.5	3.8	8.47e-01	0	43	104	0	64	15069
2026-01-10 15:29:42.81	223.79	20.68	-47.0	-59.4	3.8	8.47e-01	0	44	104	0	64	14892
2026-01-10 15:29:43.82	223.99	20.77	-47.0	-59.4	3.8	8.47e-01	0	43	104	0	64	14941
2026-01-10 15:29:44.82	224.18	20.86	-47.0	-59.4	3.8	8.47e-01	0	43	104	0	64	15025
2026-01-10 15:29:45.82	224.38	20.95	-47.0	-59.4	3.8	8.46e-01	0	43	104	0	64	15017
2026-01-10 15:29:46.83	224.58	21.04	-47.0	-59.4	3.8	8.47e-01	0	43	104	0	64	14988
2026-01-10 15:29:47.83	224.77	21.13	-47.0	-59.4	3.8	8.47e-01	0	44	104	0	64	14994
2026-01-10 15:29:48.84	224.97	21.22	-47.0	-59.4	3.8	8.47e-01	0	43	104	0	64	14932
2026-01-10 15:29:49.84	225.17	21.31	-47.0	-59.4	3.8	8.47e-01	0	44	104	0	64	14955
2026-01-10 15:29:50.85	225.38	21.40	-47.0	-59.4	3.8	8.48e-01	0	43	104	0	64	14936
2026-01-10 15:29:51.85	225.58	21.49	-47.0	-59.4	3.8	8.47e-01	0	44	104	0	64	15000
2026-01-10 15:29:52.86	225.79	21.58	-47.0	-59.4	3.8	8.48e-01	0	44	104	0	64	14896
2026-01-10 15:29:53.86	225.99	21.67	-47.0	-59.4	3.8	8.46e-01	0	44	104	0	64	14964
2026-01-10 15:29:54.86	226.20	21.76	-47.0	-59.4	3.8	8.47e-01	0	44	104	0	64	15010
2026-01-10 15:29:55.87	226.41	21.85	-47.0	-59.4	3.8	8.46e-01	0	43	104	0	64	15030
2026-01-10 15:29:56.88	226.62	21.94	-47.0	-59.4	3.8	8.47e-01	0	44	104	0	64	14998
2026-01-10 15:29:57.88	226.83	22.03	-47.0	-59.4	3.8	8.48e-01	0	43	104	0	64	15003
2026-01-10 15:29:58.88	227.04	22.11	-47.0	-59.4	3.8	8.46e-01	0	44	104	0	64	14939
2026-01-10 15:29:59.89	227.25	22.20	-47.0	-59.4	3.8	8.47e-01	0	43	104	0	64	14942
2026-01-10 15:30:00.89	227.46	22.29	-47.0	-59.4	3.8	8.46e-01	0	44	104	0	64	14909
2026-01-10 15:30:01.90	227.68	22.38	-47.0	-59.4	3.8	8.46e-01	0	44	104	0	64	15034
2026-01-10 15:30:02.90	227.89	22.47	-47.0	-59.4	3.8	8.48e-01	0	44	104	0	64	14967
2026-01-10 15:30:03.90	228.11	22.56	-47.0	-59.4	3.8	8.46e-01	0	44	104	0	64	15051
2026-01-10 15:30:04.91	228.33	22.65	-47.0	-59.4	3.8	8.48e-01	0	44	104	0	64	15021
2026-01-10 15:30:05.91	228.55	22.73	-47.0	-59.4	3.8	8.48e-01	0	44	104	0	64	15051
2026-01-10 15:30:06.92	228.77	22.82	-47.0	-59.4	3.8	8.46e-01	0	43	104	0	64	14958
2026-01-10 15:30:07.92	228.99	22.91	-47.0	-59.4	3.8	8.47e-01	0	44	104	0	64	15000
2026-01-10 15:30:08.93	229.22	23.00	-47.0	-59.4	3.8	8.47e-01	0	44	104	0	64	14956
2026-01-10 15:30:09.93	229.44	23.09	-47.0	-59.4	3.8	8.47e-01	0	43	104	0	64	14953
2026-01-10 15:30:10.94	229.67	23.18	-47.0	-59.5	3.8	8.47e-01	0	44	104	0	64	15055
2026-01-10 15:30:11.94	229.90	23.26	-47.0	-59.4	3.8	8.47e-01	0	43	104	0	64	15038
2026-01-10 15:30:12.94	230.12	23.35	-47.0	-59.4	3.8	8.48e-01	0	44	104	0	64	14949
2026-01-10 15:30:13.95	230.35	23.44	-47.0	-59.4	3.8	8.46e-01	0	43	104	0	64	15028
2026-01-10 15:30:14.96	230.59	23.52	-47.0	-59.4	3.8	8.46e-01	0	43	104	0	64	15025
2026-01-10 15:30:15.96	230.82	23.61	-47.0	-59.4	3.8	8.48e-01	0	43	104	0	64	14882
2026-01-10 15:30:16.96	231.05	23.70	-47.0	-59.4	3.8	8.47e-01	0	43	104	0	64	14975
2026-01-10 15:30:17.97	231.29	23.78	-47.0	-59.4	3.8	8.46e-01	0	44	104	0	64	14953
2026-01-10 15:30:18.97	231.52	23.87	-47.0	-59.4	3.8	8.47e-01	0	43	104	0	64	14992
2026-01-10 15:30:19.97	231.76	23.96	-47.0	-59.4	3.8	8.46e-01	0	44	104	0	64	14973
2026-01-10 15:30:20.98	232.00	24.04	-47.0	-59.4	3.8	8.48e-01	0	44	104	0	64	14883
2026-01-10 15:30:21.98	232.24	24.13	-47.0	-59.4	3.8	8.48e-01	0	44	104	0	64	14913
2026-01-10 15:30:22.99	232.48	24.21	-47.0	-59.3	3.8	8.47e-01	0	43	104	0	64	14865
2026-01-10 15:30:23.99	232.72	24.30	-47.0	-59.3	3.8	8.47e-01	0	44	104	0	64	14851
2026-01-10 15:30:24.99	232.96	24.38	-47.0	-59.5	3.8	8.47e-01	0	43	104	0	64	15057
2026-01-10 15:30:26.00	233.21	24.47	-47.0	-59.4	3.8	8.45e-01	0	44	104	0	64	14998
2026-01-10 15:30:27.00	233.46	24.55	-47.0	-59.4	3.8	8.46e-01	0	44	104	0	64	14929
2026-01-10 15:30:28.01	233.70	24.64	-47.0	-59.4	3.8	8.47e-01	0	44	104	0	64	15024
2026-01-10 15:30:29.01	233.95	24.72	-47.0	-59.4	3.8	8.47e-01	0	44	104	0	64	14896
2026-01-10 15:30:30.02	234.20	24.80	-47.0	-59.4	3.8	8.47e-01	0	44	104	0	64	14972
2026-01-10 15:30:31.02	234.45	24.89	-47.0	-59.5	3.8	8.47e-01	0	44	104	0	64	15060
2026-01-10 15:30:32.03	234.71	24.97	-47.0	-59.4	3.8	8.47e-01	0	44	104	0	64	14955
2026-01-10 15:30:33.03	234.96	25.05	-47.0	-59.4	3.8	8.47e-01	0	44	104	0	64	14971
2026-01-10 15:30:34.04	235.22	25.13	-47.0	-59.4	3.8	8.47e-01	0	43	104	0	64	14921
2026-01-10 15:30:35.04	235.47	25.21	-47.0	-59.3	3.8	8.48e-01	0	44	104	0	64	14872
2026-01-10 15:30:36.05	235.73	25.30	-47.0	-59.4	3.8	8.47e-01	0	44	104	0	64	14955
2026-01-10 15:30:37.05	235.99	25.38	-47.0	-59.4	3.8	8.47e-01	0	43	104	0	64	14948
2026-01-10 15:30:38.05	236.25	25.46	-47.0	-59.4	3.8	8.47e-01	0	44	104	0	64	14925
2026-01-10 15:30:39.06	236.51	25.54	-47.0	-59.4	3.8	8.46e-01	0	44	104	0	64	14940
2026-01-10 15:30:40.06	236.78	25.62	-47.0	-59.4	3.8	8.48e-01	0	44	104	0	64	14998
2026-01-10 15:30:41.07	237.04	25.70	-47.0	-59.4	3.8	8.48e-01	0	44	104	0	64	14964
2026-01-10 15:30:42.07	237.31	25.78	-47.0	-59.4	3.8	8.47e-01	0	43	104	0	64	14931
2026-01-10 15:30:43.07	237.57	25.85	-47.0	-59.4	3.8	8.47e-01	0	44	104	0	64	15016
2026-01-10 15:30:44.08	237.84	25.93	-47.0	-59.4	3.8	8.47e-01	0	44	104	0	64	15023
2026-01-10 15:30:45.08	238.11	26.01	-47.0	-59.4	3.8	8.47e-01	0	44	104	0	64	14937
2026-01-10 15:30:46.08	238.38	26.09	-47.0	-59.4	3.8	8.47e-01	0	44	104	0	64	14958
2026-01-10 15:30:47.09	238.65	26.17	-47.0	-59.4	3.8	8.46e-01	0	44	104	0	64	14988
2026-01-10 15:30:48.10	238.93	26.24	-47.0	-59.4	3.8	8.46e-01	0	44	104	0	64	14939
2026-01-10 15:30:49.10	239.20	26.32	-47.0	-59.4	3.8	8.47e-01	0	44	104	0	64	14972
2026-01-10 15:30:50.10	239.48	26.39	-47.0	-59.5	3.8	8.47e-01	0	44	104	0	64	15081
2026-01-10 15:30:51.11	239.76	26.47	-47.0	-59.4	3.8	8.47e-01	0	44	104	0	64	14930
2026-01-10 15:30:52.11	240.03	26.54	-47.0	-59.4	3.8	8.48e-01	0	44	104	0	64	14984
2026-01-10 15:30:53.12	240.32	26.62	-47.0	-59.4	3.8	8.47e-01	0	43	104	0	64	14943
2026-01-10 15:30:54.12	240.60	26.69	-47.0	-59.4	3.8	8.47e-01	0	44	104	0	64	15038
2026-01-10 15:30:55.12	240.88	26.76	-47.0	-59.4	3.8	8.46e-01	0	44	104	0	64	14982
2026-01-10 15:30:56.13	241.16	26.84	-47.0	-59.4	3.8	8.48e-01	0	44	104	0	64	14939
2026-01-10 15:30:57.13	241.45	26.91	-47.0	-59.4	3.8	8.47e-01	0	43	104	0	64	15011
2026-01-10 15:30:58.14	241.73	26.98	-47.0	-59.4	3.8	8.46e-01	0	44	104	0	64	14913
2026-01-10 15:30:59.14	242.02	27.05	-47.0	-59.4	3.8	8.46e-01	0	44	104	0	64	14992
2026-01-10 15:31:00.15	242.31	27.12	-47.0	-59.4	3.8	8.47e-01	0	44	104	0	64	15001
2026-01-10 15:31:01.15	242.60	27.19	-47.0	-59.4	3.8	8.47e-01	0	44	104	0	64	15005
2026-01-10 15:31:02.16	242.89	27.26	-47.0	-59.4	3.8	8.47e-01	0	44	104	0	64	15031
2026-01-10 15:31:03.16	243.18	27.33	-46.9	-59.4	3.8	8.46e-01	0	44	104	0	64	14955
2026-01-10 15:31:04.16	243.48	27.40	-47.0	-59.4	3.8	8.48e-01	0	44	104	0	64	14952
2026-01-10 15:31:05.17	243.77	27.46	-47.0	-59.4	3.8	8.47e-01	0	44	104	0	64	14886
2026-01-10 15:31:06.18	244.07	27.53	-47.0	-59.4	3.8	8.47e-01	0	43	104	0	64	14914
2026-01-10 15:31:07.18	244.37	27.60	-47.0	-59.4	3.8	8.46e-01	0	44	104	0	64	15017
2026-01-10 15:31:08.18	244.66	27.66	-47.0	-59.4	3.8	8.47e-01	0	44	104	0	64	14898
2026-01-10 15:31:09.19	244.97	27.73	-46.9	-59.4	3.8	8.48e-01	0	44	104	0	64	14908
2026-01-10 15:31:10.19	245.27	27.79	-47.0	-59.4	3.8	8.48e-01	0	44	104	0	64	14959
2026-01-10 15:31:11.19	245.57	27.85	-47.0	-59.4	3.8	8.47e-01	0	44	104	0	64	14956
2026-01-10 15:31:12.20	245.87	27.91	-47.0	-59.4	3.8	8.46e-01	0	44	104	0	64	14978
2026-01-10 15:31:13.20	246.17	27.98	-47.0	-59.4	3.8	8.46e-01	0	44	104	0	64	14887
2026-01-10 15:31:14.21	246.48	28.04	-47.0	-59.4	3.8	8.47e-01	0	44	104	0	64	14973
2026-01-10 15:31:15.21	246.79	28.10	-46.9	-59.4	3.8	8.46e-01	0	44	104	0	64	14894
2026-01-10 15:31:16.22	247.10	28.16	-46.9	-59.4	3.8	8.47e-01	0	44	104	0	64	14958
2026-01-10 15:31:17.22	247.40	28.22	-47.0	-59.4	3.8	8.48e-01	0	44	104	0	64	14986
2026-01-10 15:31:18.23	247.72	28.27	-47.0	-59.4	3.8	8.47e-01	0	44	104	0	64	14939
2026-01-10 15:31:19.23	248.03	28.33	-47.0	-59.4	3.8	8.47e-01	0	44	104	0	64	14931
2026-01-10 15:31:20.23	248.34	28.39	-47.0	-59.3	3.8	8.46e-01	0	44	104	0	64	14839
2026-01-10 15:31:21.24	248.65	28.44	-46.9	-59.4	3.8	8.46e-01	0	44	104	0	64	14893
2026-01-10 15:31:22.24	248.96	28.50	-46.9	-59.4	3.8	8.47e-01	0	44	104	0	64	14924
2026-01-10 15:31:23.25	249.28	28.55	-47.0	-59.4	3.8	8.46e-01	0	44	104	0	64	14935
2026-01-10 15:31:24.25	249.60	28.60	-47.0	-59.4	3.8	8.46e-01	0	44	104	0	64	14935
2026-01-10 15:31:25.25	249.91	28.66	-47.0	-59.4	3.8	8.47e-01	0	44	104	0	64	14966
2026-01-10 15:31:26.26	250.23	28.71	-47.0	-59.4	3.8	8.47e-01	0	44	104	0	64	14972
2026-01-10 15:31:27.26	250.55	28.76	-47.0	-59.4	3.8	8.47e-01	0	44	104	0	64	14954
2026-01-10 15:31:28.27	250.87	28.81	-47.0	-59.4	3.8	8.48e-01	0	43	104	0	64	14958
2026-01-10 15:31:29.27	251.19	28.86	-46.9	-59.4	3.8	8.47e-01	0	43	104	0	64	14951
2026-01-10 15:31:30.28	251.52	28.91	-47.0	-59.4	3.8	8.47e-01	0	44	104	0	64	14930
2026-01-10 15:31:31.28	251.84	28.95	-47.0	-59.4	3.8	8.46e-01	0	44	104	0	64	14982
2026-01-10 15:31:32.29	252.16	29.00	-47.0	-59.4	3.8	8.46e-01	0	44	104	0	64	14887
2026-01-10 15:31:33.29	252.49	29.04	-46.9	-59.4	3.8	8.47e-01	0	44	104	0	64	14960
2026-01-10 15:31:34.29	252.81	29.09	-46.9	-59.4	3.8	8.45e-01	0	44	104	0	64	14947
2026-01-10 15:31:35.30	253.14	29.13	-46.9	-59.4	3.8	8.47e-01	0	44	104	0	64	14950
2026-01-10 15:31:36.30	253.47	29.17	-47.0	-59.4	3.8	8.47e-01	0	44	104	0	64	14945
2026-01-10 15:31:37.31	253.80	29.22	-47.0	-59.4	3.8	8.47e-01	0	44	104	0	64	14963
2026-01-10 15:31:38.31	254.13	29.26	-47.0	-59.4	3.8	8.47e-01	0	44	104	0	64	15001
2026-01-10 15:31:39.32	254.46	29.30	-47.0	-59.4	3.8	8.46e-01	0	44	104	0	64	14991
2026-01-10 15:31:40.32	254.79	29.34	-47.0	-59.4	3.8	8.47e-01	0	44	104	0	64	15001
2026-01-10 15:31:41.33	255.12	29.37	-47.0	-59.4	3.8	8.46e-01	0	44	104	0	64	14994
2026-01-10 15:31:42.33	255.45	29.41	-47.0	-59.4	3.8	8.47e-01	0	44	104	0	64	14986
2026-01-10 15:31:43.33	255.78	29.45	-47.0	-59.4	3.8	8.47e-01	0	44	104	0	64	14963
2026-01-10 15:31:44.34	256.12	29.48	-47.0	-59.4	3.8	8.46e-01	0	44	104	0	64	14926
2026-01-10 15:31:45.35	256.45	29.51	-47.0	-59.5	3.8	8.48e-01	0	44	104	0	64	15079
2026-01-10 15:31:46.35	256.79	29.55	-47.0	-59.4	3.8	8.48e-01	0	44	104	0	64	15008
2026-01-10 15:31:47.35	257.12	29.58	-47.0	-59.4	3.8	8.46e-01	0	44	104	0	64	14977
2026-01-10 15:31:48.36	257.46	29.61	-47.0	-59.5	3.8	8.47e-01	0	44	104	0	64	15059
2026-01-10 15:31:49.36	257.80	29.64	-47.0	-59.4	3.8	8.46e-01	0	44	104	0	64	14991
2026-01-10 15:31:50.37	258.14	29.67	-47.0	-59.4	3.8	8.47e-01	0	44	104	0	64	14974
2026-01-10 15:31:51.37	258.47	29.70	-47.0	-59.4	3.8	8.46e-01	0	44	104	0	64	14982
2026-01-10 15:31:52.38	258.81	29.72	-47.0	-59.4	3.8	8.47e-01	0	44	104	0	64	14952
2026-01-10 15:31:53.38	259.15	29.75	-47.0	-59.4	3.8	8.46e-01	0	44	104	0	64	14982
2026-01-10 15:31:54.39	259.49	29.77	-47.0	-59.4	3.8	8.47e-01	0	44	104	0	64	14890
2026-01-10 15:31:55.39	259.83	29.80	-47.0	-59.4	3.8	8.48e-01	0	44	104	0	64	15018
2026-01-10 15:31:56.39	260.17	29.82	-47.0	-59.4	3.8	8.48e-01	0	44	104	0	64	14989
2026-01-10 15:31:57.40	260.52	29.84	-47.0	-59.4	3.8	8.46e-01	0	43	104	0	64	14997
2026-01-10 15:31:58.40	260.86	29.86	-47.0	-59.4	3.8	8.47e-01	0	44	104	0	64	15045
2026-01-10 15:31:59.41	261.20	29.88	-47.0	-59.4	3.8	8.47e-01	0	44	104	0	64	14953
2026-01-10 15:32:00.41	261.54	29.90	-47.0	-59.4	3.8	8.47e-01	0	44	104	0	64	14943
2026-01-10 15:32:01.41	261.88	29.91	-47.0	-59.3	3.8	8.46e-01	0	44	104	0	64	14872
2026-01-10 15:32:02.42	262.23	29.93	-47.0	-59.4	3.8	8.47e-01	0	44	104	0	64	14931
2026-01-10 15:32:03.42	262.57	29.94	-47.0	-59.4	3.8	8.47e-01	0	44	104	0	64	14940
2026-01-10 15:32:04.43	262.91	29.96	-47.0	-59.4	3.8	8.46e-01	0	44	104	0	64	14941
2026-01-10 15:32:05.43	263.26	29.97	-47.0	-59.4	3.8	8.46e-01	0	44	104	0	64	14998
2026-01-10 15:32:06.44	263.60	29.98	-47.0	-59.3	3.8	8.47e-01	0	44	104	0	64	14841
2026-01-10 15:32:07.44	263.95	29.99	-47.0	-59.3	3.8	8.47e-01	0	44	104	0	64	14832
2026-01-10 15:32:08.45	264.29	30.00	-47.0	-59.4	3.8	8.48e-01	0	44	104	0	64	14915
2026-01-10 15:32:09.45	264.64	30.01	-47.0	-59.4	3.8	8.47e-01	0	44	104	0	64	14903
2026-01-10 15:32:10.45	264.98	30.02	-47.0	-59.3	3.8	8.46e-01	0	44	104	0	64	14852
2026-01-10 15:32:11.46	265.33	30.02	-47.0	-59.4	3.8	8.46e-01	0	44	104	0	64	14963
2026-01-10 15:32:12.46	265.67	30.03	-46.9	-59.4	3.8	8.46e-01	0	44	104	0	64	14956
2026-01-10 15:32:13.47	266.02	30.03	-47.0	-59.4	3.8	8.47e-01	0	44	104	0	64	14943
2026-01-10 15:32:14.47	266.36	30.03	-47.0	-59.3	3.8	8.48e-01	0	44	104	0	64	14831
2026-01-10 15:32:15.48	266.71	30.03	-47.0	-59.4	3.8	8.47e-01	0	44	104	0	64	14937
2026-01-10 15:32:16.48	267.05	30.03	-47.0	-59.4	3.8	8.47e-01	0	44	104	0	64	14924
2026-01-10 15:32:17.49	267.40	30.03	-47.0	-59.3	3.8	8.47e-01	0	44	104	0	64	14856
2026-01-10 15:32:18.49	267.74	30.03	-47.0	-59.5	3.8	8.47e-01	0	44	104	0	64	15066
2026-01-10 15:32:19.50	268.09	30.03	-47.0	-59.4	3.8	8.47e-01	0	44	104	0	64	14944
2026-01-10 15:32:20.50	268.43	30.02	-47.0	-59.4	3.8	8.46e-01	0	44	104	0	64	14946
2026-01-10 15:32:21.51	268.78	30.02	-47.0	-59.4	3.8	8.47e-01	0	44	104	0	64	14948
2026-01-10 15:32:22.51	269.13	30.01	-47.0	-59.4	3.8	8.47e-01	0	44	104	0	64	15021
2026-01-10 15:32:23.52	269.47	30.00	-47.0	-59.4	3.8	8.47e-01	0	44	104	0	64	14954
2026-01-10 15:32:24.52	269.82	30.00	-47.0	-59.4	3.8	8.47e-01	0	44	104	0	64	14917
2026-01-10 15:32:25.52	270.16	29.99	-47.0	-59.4	3.8	8.47e-01	0	44	104	0	64	15011
2026-01-10 15:32:26.53	270.50	29.98	-47.0	-59.4	3.8	8.47e-01	0	44	104	0	64	14965
2026-01-10 15:32:27.53	270.85	29.96	-47.0	-59.4	3.8	8.47e-01	0	44	104	0	64	14967
2026-01-10 15:32:28.54	271.19	29.95	-47.0	-59.4	3.8	8.47e-01	0	44	104	0	64	14981
2026-01-10 15:32:29.54	271.53	29.94	-47.0	-59.4	3.8	8.48e-01	0	44	104	0	64	14926
2026-01-10 15:32:30.55	271.88	29.92	-47.0	-59.4	3.8	8.48e-01	0	44	104	0	64	14923
2026-01-10 15:32:31.55	272.22	29.90	-47.0	-59.4	3.8	8.47e-01	0	44	104	0	64	14966
2026-01-10 15:32:32.56	272.56	29.89	-47.0	-59.4	3.8	8.47e-01	0	44	104	0	64	14927
2026-01-10 15:32:33.56	272.90	29.87	-47.0	-59.3	3.8	8.47e-01	0	44	104	0	64	14874
2026-01-10 15:32:34.56	273.25	29.85	-47.0	-59.4	3.8	8.47e-01	0	44	104	0	64	14946
2026-01-10 15:32:35.57	273.59	29.83	-47.0	-59.4	3.8	8.48e-01	0	44	104	0	64	14976
2026-01-10 15:32:36.57	273.93	29.81	-47.0	-59.4	3.8	8.47e-01	0	44	104	0	64	14886
2026-01-10 15:32:37.58	274.27	29.78	-47.0	-59.4	3.8	8.47e-01	0	44	104	0	64	15030
2026-01-10 15:32:38.58	274.61	29.76	-47.0	-59.4	3.8	8.46e-01	0	44	104	0	64	15014
2026-01-10 15:32:39.59	274.95	29.73	-47.0	-59.3	3.8	8.48e-01	0	44	104	0	64	14862
2026-01-10 15:32:40.59	275.29	29.71	-47.0	-59.4	3.8	8.44e-01	0	44	104	0	64	14894
2026-01-10 15:32:41.60	275.63	29.68	-47.0	-59.4	3.8	8.47e-01	0	44	104	0	64	15012
2026-01-10 15:32:42.60	275.96	29.65	-47.0	-59.4	3.8	8.46e-01	0	44	104	0	64	14938
2026-01-10 15:32:43.60	276.30	29.62	-47.0	-59.4	3.8	8.46e-01	0	44	104	0	64	14963
2026-01-10 15:32:44.61	276.64	29.59	-47.0	-59.4	3.8	8.46e-01	0	44	104	0	64	14912
2026-01-10 15:32:45.61	276.97	29.56	-46.9	-59.3	3.8	8.46e-01	0	44	104	0	64	14871
2026-01-10 15:32:46.62	277.31	29.53	-47.0	-59.4	3.8	8.46e-01	0	44	104	0	64	14976
2026-01-10 15:32:47.62	277.64	29.50	-47.0	-59.3	3.8	8.46e-01	0	44	104	0	64	14879
2026-01-10 15:32:48.63	277.97	29.46	-47.0	-59.4	3.8	8.47e-01	0	44	104	0	64	14955
2026-01-10 15:32:49.63	278.31	29.43	-47.0	-59.4	3.8	8.47e-01	0	44	104	0	64	14954
2026-01-10 15:32:50.64	278.64	29.39	-47.0	-59.4	3.8	8.46e-01	0	44	104	0	64	14964
2026-01-10 15:32:51.64	278.97	29.35	-47.0	-59.4	3.8	8.46e-01	0	44	104	0	64	14987
2026-01-10 15:32:52.64	279.30	29.32	-47.0	-59.4	3.8	8.46e-01	0	44	104	0	64	14993
2026-01-10 15:32:53.65	279.63	29.28	-47.0	-59.3	3.8	8.47e-01	0	44	104	0	64	14873
2026-01-10 15:32:54.65	279.96	29.24	-47.0	-59.4	3.8	8.47e-01	0	44	104	0	64	14929
2026-01-10 15:32:55.66	280.29	29.19	-47.0	-59.4	3.8	8.47e-01	0	44	104	0	64	14988
2026-01-10 15:32:56.66	280.61	29.15	-47.0	-59.3	3.8	8.47e-01	0	44	104	0	64	14870
2026-01-10 15:32:57.67	280.94	29.11	-47.0	-59.4	3.8	8.46e-01	0	44	104	0	64	14922
2026-01-10 15:32:58.67	281.27	29.07	-47.0	-59.4	3.8	8.47e-01	0	44	104	0	64	14933
2026-01-10 15:32:59.67	281.59	29.02	-47.0	-59.3	3.8	8.47e-01	0	44	104	0	64	14867
2026-01-10 15:33:00.68	281.92	28.98	-47.0	-59.4	3.8	8.47e-01	0	44	104	0	64	14920
2026-01-10 15:33:01.68	282.24	28.93	-47.0	-59.4	3.8	8.47e-01	0	44	104	0	64	14921
2026-01-10 15:33:02.69	282.56	28.88	-47.0	-59.4	3.8	8.46e-01	0	44	104	0	64	14991
2026-01-10 15:33:03.69	282.88	28.83	-46.9	-59.3	3.8	8.46e-01	0	44	104	0	64	14860
2026-01-10 15:33:04.70	283.20	28.78	-47.0	-59.3	3.8	8.46e-01	0	44	104	0	64	14821
2026-01-10 15:33:05.70	283.52	28.73	-47.0	-59.4	3.8	8.47e-01	0	44	104	0	64	14949
2026-01-10 15:33:06.71	283.84	28.68	-47.0	-59.4	3.8	8.47e-01	0	44	104	0	64	14961
2026-01-10 15:33:07.71	284.16	28.63	-47.0	-59.4	3.8	8.48e-01	0	44	104	0	64	14949
2026-01-10 15:33:08.71	284.47	28.58	-47.0	-59.3	3.8	8.47e-01	0	44	104	0	64	14878
2026-01-10 15:33:09.72	284.79	28.53	-47.0	-59.4	3.8	8.47e-01	0	44	104	0	64	14901
2026-01-10 15:33:10.72	285.10	28.47	-47.0	-59.3	3.8	8.46e-01	0	44	104	0	64	14875
2026-01-10 15:33:11.73	285.41	28.42	-47.0	-59.4	3.8	8.47e-01	0	44	104	0	64	14929
2026-01-10 15:33:12.73	285.73	28.36	-47.0	-59.4	3.8	8.47e-01	0	44	104	0	64	14956
2026-01-10 15:33:13.74	286.04	28.30	-46.9	-59.4	3.8	8.47e-01	0	44	104	0	64	14940
2026-01-10 15:33:14.74	286.35	28.25	-47.0	-59.4	3.8	8.47e-01	0	44	104	0	64	14939
2026-01-10 15:33:15.75	286.66	28.19	-47.0	-59.4	3.8	8.46e-01	0	44	104	0	64	14974
2026-01-10 15:33:16.75	286.96	28.13	-47.0	-59.4	3.8	8.47e-01	0	44	104	0	64	15033
2026-01-10 15:33:17.76	287.27	28.07	-47.0	-59.4	3.8	8.47e-01	0	44	104	0	64	15038
2026-01-10 15:33:18.76	287.57	28.01	-47.0	-59.4	3.8	8.48e-01	0	44	104	0	64	14976
2026-01-10 15:33:19.76	287.88	27.95	-47.0	-59.4	3.8	8.48e-01	0	44	104	0	64	14965
2026-01-10 15:33:20.77	288.18	27.89	-47.0	-59.4	3.8	8.48e-01	0	44	104	0	64	14970
2026-01-10 15:33:21.77	288.48	27.82	-47.0	-59.4	3.8	8.48e-01	0	44	104	0	64	14965
2026-01-10 15:33:22.78	288.78	27.76	-47.0	-59.4	3.8	8.46e-01	0	44	104	0	64	14972
2026-01-10 15:33:23.78	289.08	27.70	-47.0	-59.3	3.8	8.47e-01	0	44	104	0	64	14864
2026-01-10 15:33:24.79	289.38	27.63	-47.0	-59.4	3.8	8.47e-01	0	44	104	0	64	14948
2026-01-10 15:33:25.79	289.68	27.57	-47.0	-59.5	3.8	8.47e-01	0	44	104	0	64	15053
2026-01-10 15:33:26.80	289.98	27.50	-47.0	-59.4	3.8	8.46e-01	0	44	104	0	64	14954
2026-01-10 15:33:27.80	290.27	27.43	-47.0	-59.4	3.8	8.47e-01	0	44	104	0	64	14906
2026-01-10 15:33:28.81	290.56	27.37	-47.0	-59.4	3.8	8.48e-01	0	44	104	0	64	14920
2026-01-10 15:33:29.81	290.85	27.30	-47.0	-59.4	3.8	8.47e-01	0	44	104	0	64	14971
2026-01-10 15:33:30.82	291.15	27.23	-47.0	-59.4	3.8	8.47e-01	0	44	104	0	64	14908
2026-01-10 15:33:31.82	291.44	27.16	-47.0	-59.4	3.8	8.47e-01	0	44	104	0	64	15019
2026-01-10 15:33:32.82	291.72	27.09	-47.0	-59.4	3.8	8.47e-01	0	44	104	0	64	14993
2026-01-10 15:33:33.83	292.01	27.02	-47.0	-59.4	3.8	8.47e-01	0	44	104	0	64	14929
2026-01-10 15:33:34.83	292.30	26.95	-47.0	-59.4	3.8	8.46e-01	0	44	104	0	64	14902
2026-01-10 15:33:35.84	292.58	26.88	-47.0	-59.4	3.8	8.47e-01	0	44	104	0	64	14963
2026-01-10 15:33:36.84	292.86	26.81	-47.0	-59.4	3.8	8.47e-01	0	44	104	0	64	14979
2026-01-10 15:33:37.85	293.15	26.74	-47.0	-59.4	3.8	8.47e-01	0	44	104	0	64	14945
2026-01-10 15:33:38.85	293.43	26.66	-47.0	-59.3	3.8	8.46e-01	0	44	104	0	64	14877
2026-01-10 15:33:39.86	293.71	26.59	-47.0	-59.3	3.8	8.47e-01	0	44	104	0	64	14878
2026-01-10 15:33:40.86	293.99	26.52	-47.0	-59.4	3.8	8.46e-01	0	44	104	0	64	15028
2026-01-10 15:33:41.86	294.26	26.44	-47.0	-59.4	3.8	8.47e-01	0	44	104	0	64	15048
2026-01-10 15:33:42.87	294.54	26.37	-47.0	-59.4	3.8	8.46e-01	0	44	104	0	64	14915
2026-01-10 15:33:43.87	294.81	26.29	-46.9	-59.4	3.8	8.45e-01	0	44	104	0	64	14947
2026-01-10 15:33:44.88	295.09	26.22	-47.0	-59.4	3.8	8.46e-01	0	44	104	0	64	14941
2026-01-10 15:33:45.88	295.36	26.14	-47.0	-59.3	3.8	8.46e-01	0	44	104	0	64	14845
2026-01-10 15:33:46.89	295.63	26.06	-47.0	-59.4	3.8	8.47e-01	0	44	104	0	64	14905
2026-01-10 15:33:47.89	295.90	25.99	-47.0	-59.4	3.8	8.48e-01	0	44	104	0	64	14954
2026-01-10 15:33:48.90	296.17	25.91	-47.0	-59.4	3.8	8.46e-01	0	44	104	0	64	14958
2026-01-10 15:33:49.90	296.43	25.83	-47.0	-59.4	3.8	8.47e-01	0	44	104	0	64	14883
2026-01-10 15:33:50.90	296.70	25.75	-47.0	-59.3	3.8	8.46e-01	0	44	104	0	64	14867
2026-01-10 15:33:51.91	296.96	25.67	-47.0	-59.4	3.8	8.46e-01	0	44	104	0	64	14917
2026-01-10 15:33:52.91	297.23	25.59	-47.0	-59.4	3.8	8.48e-01	0	44	104	0	64	14935
2026-01-10 15:33:53.92	297.49	25.51	-46.9	-59.4	3.8	8.45e-01	0	44	104	0	64	14969
2026-01-10 15:33:54.92	297.75	25.43	-47.0	-59.4	3.8	8.46e-01	0	44	104	0	64	14970
2026-01-10 15:33:55.92	298.01	25.35	-47.0	-59.4	3.8	8.46e-01	0	44	104	0	64	14927
2026-01-10 15:33:56.93	298.26	25.27	-47.0	-59.4	3.8	8.46e-01	0	44	104	0	64	15020
2026-01-10 15:33:57.93	298.52	25.19	-46.9	-59.4	3.8	8.46e-01	0	44	104	0	64	14886
2026-01-10 15:33:58.94	298.78	25.11	-47.0	-59.4	3.8	8.47e-01	0	44	104	0	64	14955
2026-01-10 15:33:59.94	299.03	25.03	-47.0	-59.4	3.8	8.47e-01	0	44	104	0	64	14969
2026-01-10 15:34:00.95	299.28	24.95	-47.0	-59.4	3.8	8.47e-01	0	44	104	0	64	14944
2026-01-10 15:34:01.95	299.53	24.86	-47.0	-59.4	3.8	8.46e-01	0	44	104	0	64	15027
2026-01-10 15:34:02.96	299.78	24.78	-46.9	-59.4	3.8	8.47e-01	0	44	104	0	64	14940
2026-01-10 15:34:03.96	300.03	24.70	-47.0	-59.3	3.8	8.47e-01	0	43	104	0	64	14875
2026-01-10 15:34:04.96	300.28	24.62	-47.0	-59.4	3.8	8.47e-01	0	44	104	0	64	14953
2026-01-10 15:34:05.97	300.53	24.53	-47.0	-59.4	3.8	8.47e-01	0	44	104	0	64	14992
2026-01-10 15:34:06.97	300.77	24.45	-47.0	-59.4	3.8	8.47e-01	0	44	104	0	64	14979
2026-01-10 15:34:07.98	301.01	24.36	-47.0	-59.4	3.8	8.47e-01	0	44	104	0	64	14897
2026-01-10 15:34:08.98	301.26	24.28	-47.0	-59.4	3.8	8.47e-01	0	44	104	0	64	14899
2026-01-10 15:34:09.99	301.50	24.19	-47.0	-59.4	3.8	8.45e-01	0	44	104	0	64	14978
2026-01-10 15:34:10.99	301.74	24.11	-47.0	-59.4	3.8	8.47e-01	0	44	104	0	64	14992
2026-01-10 15:34:11.99	301.97	24.03	-47.0	-59.3	3.8	8.46e-01	0	44	104	0	64	14854
2026-01-10 15:34:13.00	302.21	23.94	-47.0	-59.4	3.8	8.47e-01	0	44	104	0	64	14954
2026-01-10 15:34:14.00	302.45	23.85	-47.0	-59.4	3.8	8.47e-01	0	44	104	0	64	14954
2026-01-10 15:34:15.00	302.68	23.77	-47.0	-59.4	3.8	8.47e-01	0	44	104	0	64	14987
2026-01-10 15:34:16.01	302.92	23.68	-47.0	-59.4	3.8	8.47e-01	0	44	104	0	64	15035
2026-01-10 15:34:17.01	303.15	23.60	-47.0	-59.4	3.8	8.46e-01	0	44	104	0	64	15009
2026-01-10 15:34:18.02	303.38	23.51	-47.0	-59.4	3.8	8.47e-01	0	44	104	0	64	14888
2026-01-10 15:34:19.02	303.61	23.42	-46.9	-59.4	3.8	8.47e-01	0	44	104	0	64	14961
2026-01-10 15:34:20.03	303.84	23.34	-47.0	-59.4	3.8	8.47e-01	0	44	104	0	64	15020
2026-01-10 15:34:21.03	304.06	23.25	-47.0	-59.4	3.8	8.47e-01	0	43	104	0	64	14964
2026-01-10 15:34:22.04	304.29	23.16	-47.0	-59.4	3.8	8.48e-01	0	44	104	0	64	14992
2026-01-10 15:34:23.04	304.51	23.08	-47.0	-59.5	3.8	8.47e-01	0	44	104	0	64	15087
2026-01-10 15:34:24.04	304.74	22.99	-47.0	-59.4	3.8	8.46e-01	0	44	104	0	64	14925
2026-01-10 15:34:25.05	304.96	22.90	-47.0	-59.4	3.8	8.47e-01	0	44	104	0	64	14970
2026-01-10 15:34:26.05	305.18	22.81	-47.0	-59.4	3.8	8.46e-01	0	44	104	0	64	14982
2026-01-10 15:34:27.06	305.40	22.73	-46.9	-59.4	3.8	8.46e-01	0	44	104	0	64	14915
2026-01-10 15:34:28.06	305.62	22.64	-47.0	-59.5	3.8	8.47e-01	0	44	104	0	64	15079
2026-01-10 15:34:29.07	305.84	22.55	-47.0	-59.4	3.8	8.47e-01	0	44	104	0	64	14978
2026-01-10 15:34:30.07	306.05	22.46	-47.0	-59.4	3.8	8.47e-01	0	44	104	0	64	14975
2026-01-10 15:34:31.08	306.27	22.37	-47.0	-59.4	3.8	8.48e-01	0	44	104	0	64	14996
2026-01-10 15:34:32.08	306.48	22.29	-46.9	-59.4	3.8	8.47e-01	0	44	104	0	64	14938
2026-01-10 15:34:33.08	306.69	22.20	-46.9	-59.4	3.8	8.47e-01	0	44	104	0	64	14903
2026-01-10 15:34:34.09	306.90	22.11	-47.0	-59.4	3.8	8.46e-01	0	44	104	0	64	14969
2026-01-10 15:34:35.09	307.11	22.02	-47.0	-59.4	3.8	8.47e-01	0	44	104	0	64	14977
2026-01-10 15:34:36.10	307.32	21.93	-47.0	-59.4	3.8	8.46e-01	0	44	104	0	64	15007
2026-01-10 15:34:37.10	307.53	21.84	-47.0	-59.4	3.8	8.47e-01	0	44	104	0	64	15001
2026-01-10 15:34:38.10	307.74	21.76	-47.0	-59.4	3.8	8.46e-01	0	44	104	0	64	14988
2026-01-10 15:34:39.11	307.94	21.67	-47.0	-59.4	3.8	8.46e-01	0	44	104	0	64	15016
2026-01-10 15:34:40.11	308.15	21.58	-47.0	-59.4	3.8	8.46e-01	0	44	104	0	64	14902
2026-01-10 15:34:41.12	308.35	21.49	-47.0	-59.4	3.8	8.48e-01	0	44	104	0	64	14964
2026-01-10 15:34:42.12	308.55	21.40	-47.0	-59.4	3.8	8.47e-01	0	44	104	0	64	14898
2026-01-10 15:34:43.13	308.75	21.31	-47.0	-59.4	3.8	8.47e-01	0	44	104	0	64	14947
2026-01-10 15:34:44.13	308.95	21.22	-47.0	-59.4	3.8	8.46e-01	0	44	104	0	64	15010
2026-01-10 15:34:45.13	309.15	21.14	-47.0	-59.4	3.8	8.47e-01	0	44	104	0	64	15001
2026-01-10 15:34:46.14	309.35	21.05	-47.0	-59.3	3.8	8.46e-01	0	44	104	0	64	14875
2026-01-10 15:34:47.14	309.55	20.96	-47.0	-59.4	3.8	8.46e-01	0	44	104	0	64	15014
2026-01-10 15:34:48.15	309.74	20.87	-47.0	-59.4	3.8	8.47e-01	0	44	104	0	64	14950
2026-01-10 15:34:49.15	309.94	20.78	-47.0	-59.4	3.8	8.47e-01	0	44	104	0	64	14967
2026-01-10 15:34:50.16	310.13	20.69	-47.0	-59.4	3.8	8.46e-01	0	44	104	0	64	14934
2026-01-10 15:34:51.16	310.32	20.60	-47.0	-59.4	3.8	8.47e-01	0	44	104	0	64	15047
2026-01-10 15:34:52.16	310.51	20.51	-47.0	-59.4	3.8	8.47e-01	0	44	104	0	64	14971
2026-01-10 15:34:53.17	310.70	20.42	-46.9	-59.4	3.8	8.46e-01	0	44	104	0	64	14967
2026-01-10 15:34:54.17	310.89	20.33	-46.9	-59.5	3.8	8.47e-01	0	44	104	0	64	15065
2026-01-10 15:34:55.17	311.08	20.25	-47.0	-59.4	3.8	8.47e-01	0	44	104	0	64	15031
2026-01-10 15:34:56.18	311.27	20.16	-46.9	-59.4	3.8	8.46e-01	0	44	104	0	64	15017
2026-01-10 15:34:57.18	311.45	20.07	-46.9	-59.4	3.8	8.46e-01	0	44	104	0	64	14955
2026-01-10 15:34:58.19	311.64	19.98	-47.0	-59.4	3.8	8.46e-01	0	44	104	0	64	14975
2026-01-10 15:34:59.19	311.82	19.89	-46.9	-59.4	3.8	8.49e-01	0	44	104	0	64	15004
2026-01-10 15:35:00.20	312.00	19.80	-47.0	-59.4	3.8	8.47e-01	0	44	104	0	64	14997
2026-01-10 15:35:01.20	312.18	19.71	-46.9	-59.4	3.8	8.47e-01	0	44	104	0	64	14993
2026-01-10 15:35:02.20	312.36	19.62	-47.0	-59.4	3.8	8.48e-01	0	44	104	0	64	14982
2026-01-10 15:35:03.21	312.54	19.53	-46.9	-59.5	3.8	8.46e-01	0	44	104	0	64	15111
2026-01-10 15:35:04.21	312.72	19.45	-47.0	-59.5	3.8	8.47e-01	0	44	104	0	64	15079
2026-01-10 15:35:05.22	312.90	19.36	-47.0	-59.5	3.8	8.47e-01	0	44	104	0	64	15108
2026-01-10 15:35:06.22	313.08	19.27	-47.0	-59.4	3.8	8.46e-01	0	44	104	0	64	15012
2026-01-10 15:35:07.23	313.25	19.18	-47.0	-59.4	3.8	8.47e-01	0	44	104	0	64	14938
2026-01-10 15:35:08.23	313.43	19.09	-46.9	-59.4	3.8	8.48e-01	0	44	104	0	64	14951
2026-01-10 15:35:09.24	313.60	19.00	-47.0	-59.4	3.8	8.46e-01	0	44	104	0	64	14978
2026-01-10 15:35:10.24	313.77	18.92	-47.0	-59.4	3.8	8.47e-01	0	44	104	0	64	14935
2026-01-10 15:35:11.24	313.94	18.83	-47.0	-59.4	3.8	8.47e-01	0	44	104	0	64	14982
2026-01-10 15:35:12.25	314.11	18.74	-47.0	-59.4	3.8	8.47e-01	0	44	104	0	64	14982
2026-01-10 15:35:13.25	314.28	18.65	-47.0	-59.4	3.8	8.46e-01	0	44	104	0	64	14907
2026-01-10 15:35:14.26	314.45	18.56	-47.0	-59.4	3.8	8.46e-01	0	44	104	0	64	14922
2026-01-10 15:35:15.26	314.62	18.48	-47.0	-59.4	3.8	8.47e-01	0	44	104	0	64	15002
2026-01-10 15:35:16.27	314.79	18.39	-47.0	-59.4	3.8	8.46e-01	0	44	104	0	64	14962
2026-01-10 15:35:17.27	314.95	18.30	-47.0	-59.4	3.8	8.47e-01	0	44	104	0	64	14948
2026-01-10 15:35:18.28	315.12	18.21	-47.0	-59.4	3.8	8.47e-01	0	44	104	0	64	14911
2026-01-10 15:35:19.28	315.28	18.12	-47.0	-59.4	3.8	8.47e-01	0	44	104	0	64	14987
2026-01-10 15:35:20.29	315.45	18.04	-47.0	-59.5	3.8	8.46e-01	0	44	104	0	64	15052
2026-01-10 15:35:21.29	315.61	17.95	-47.0	-59.4	3.8	8.47e-01	0	44	104	0	64	14969
2026-01-10 15:35:22.30	315.77	17.86	-47.0	-59.4	3.8	8.47e-01	0	44	104	0	64	14976
2026-01-10 15:35:23.30	315.93	17.77	-47.0	-59.4	3.8	8.47e-01	0	44	104	0	64	14976
2026-01-10 15:35:24.30	316.09	17.69	-47.0	-59.4	3.8	8.47e-01	0	44	104	0	64	14994
2026-01-10 15:35:25.31	316.25	17.60	-47.0	-59.4	3.8	8.47e-01	0	44	104	0	64	14889
2026-01-10 15:35:26.31	316.40	17.51	-47.0	-59.4	3.8	8.46e-01	0	44	104	0	64	14979
2026-01-10 15:35:27.32	316.56	17.43	-47.0	-59.4	3.8	8.47e-01	0	44	104	0	64	14909
2026-01-10 15:35:28.32	316.72	17.34	-47.0	-59.4	3.8	8.47e-01	0	44	104	0	64	14954
2026-01-10 15:35:29.33	316.87	17.25	-47.0	-59.4	3.8	8.47e-01	0	44	104	0	64	14959
2026-01-10 15:35:30.33	317.03	17.17	-47.0	-59.4	3.8	8.47e-01	0	44	104	0	64	15007
2026-01-10 15:35:31.34	317.18	17.08	-47.0	-59.4	3.8	8.46e-01	0	44	104	0	64	14977
2026-01-10 15:35:32.34	317.33	16.99	-47.0	-59.4	3.8	8.47e-01	0	44	104	0	64	15002
2026-01-10 15:35:33.34	317.48	16.91	-47.0	-59.4	3.8	8.47e-01	0	44	104	0	64	14908
2026-01-10 15:35:34.35	317.64	16.82	-47.0	-59.4	3.8	8.48e-01	0	44	104	0	64	14974
2026-01-10 15:35:35.35	317.79	16.74	-47.0	-59.4	3.8	8.48e-01	0	44	104	0	64	15047
2026-01-10 15:35:36.36	317.94	16.65	-47.0	-59.4	3.8	8.47e-01	0	44	104	0	64	15037
2026-01-10 15:35:37.36	318.08	16.57	-47.0	-59.4	3.8	8.47e-01	0	44	104	0	64	14972
2026-01-10 15:35:38.36	318.23	16.48	-47.0	-59.4	3.8	8.46e-01	0	44	104	0	64	14991
2026-01-10 15:35:39.37	318.38	16.39	-47.0	-59.4	3.8	8.47e-01	0	44	104	0	64	14995
2026-01-10 15:35:40.37	318.52	16.31	-47.0	-59.4	3.8	8.47e-01	0	44	104	0	64	14956
2026-01-10 15:35:41.38	318.67	16.22	-47.0	-59.4	3.8	8.47e-01	0	44	104	0	64	15037
2026-01-10 15:35:42.38	318.81	16.14	-47.0	-59.4	3.8	8.47e-01	0	44	104	0	64	14906
2026-01-10 15:35:43.39	318.96	16.05	-47.0	-59.4	3.8	8.47e-01	0	44	104	0	64	14979
2026-01-10 15:35:44.39	319.10	15.97	-47.0	-59.4	3.8	8.46e-01	0	44	104	0	64	15003
2026-01-10 15:35:45.40	319.24	15.88	-47.0	-59.4	3.8	8.47e-01	0	44	104	0	64	14924
2026-01-10 15:35:46.40	319.38	15.80	-47.0	-59.4	3.8	8.46e-01	0	44	104	0	64	15014
2026-01-10 15:35:47.40	319.52	15.72	-47.0	-59.4	3.8	8.47e-01	0	44	104	0	64	14963
2026-01-10 15:35:48.41	319.66	15.63	-47.0	-59.4	3.8	8.46e-01	0	44	104	0	64	15043
2026-01-10 15:35:49.41	319.80	15.55	-47.0	-59.4	3.8	8.47e-01	0	44	104	0	64	14959
2026-01-10 15:35:50.42	319.94	15.46	-47.0	-59.4	3.8	8.46e-01	0	44	104	0	64	14911
2026-01-10 15:35:51.42	320.08	15.38	-47.0	-59.4	3.8	8.47e-01	0	44	104	0	64	14931
2026-01-10 15:35:52.43	320.21	15.30	-47.0	-59.4	3.8	8.46e-01	0	44	104	0	64	14945
2026-01-10 15:35:53.43	320.35	15.21	-47.0	-59.4	3.8	8.47e-01	0	44	104	0	64	15022
2026-01-10 15:35:54.43	320.48	15.13	-47.0	-59.4	3.8	8.47e-01	0	44	104	0	64	14978
2026-01-10 15:35:55.44	320.62	15.05	-47.0	-59.5	3.8	8.47e-01	0	44	104	0	64	15136
2026-01-10 15:35:56.44	320.75	14.96	-47.0	-59.4	3.8	8.48e-01	0	44	104	0	64	15044
2026-01-10 15:35:57.45	320.89	14.88	-47.0	-59.4	3.8	8.46e-01	0	44	104	0	64	14961
2026-01-10 15:35:58.45	321.02	14.80	-47.0	-59.4	3.8	8.47e-01	0	44	104	0	64	14931
2026-01-10 15:35:59.46	321.15	14.71	-47.0	-59.5	3.8	8.47e-01	0	44	104	0	64	15072
2026-01-10 15:36:00.46	321.28	14.63	-47.0	-59.4	3.8	8.47e-01	0	44	104	0	64	15039
2026-01-10 15:36:01.47	321.41	14.55	-46.9	-59.4	3.8	8.47e-01	0	44	104	0	64	14978
2026-01-10 15:36:02.47	321.54	14.47	-47.0	-59.4	3.8	8.47e-01	0	44	104	0	64	14984
2026-01-10 15:36:03.48	321.67	14.39	-47.0	-59.4	3.8	8.47e-01	0	44	104	0	64	15043
2026-01-10 15:36:04.48	321.80	14.30	-47.0	-59.4	3.8	8.46e-01	0	44	104	0	64	14985
2026-01-10 15:36:05.48	321.92	14.22	-47.0	-59.4	3.8	8.46e-01	0	44	104	0	64	14995
2026-01-10 15:36:06.49	322.05	14.14	-47.0	-59.5	3.8	8.47e-01	0	44	104	0	64	15075
2026-01-10 15:36:07.49	322.18	14.06	-47.0	-59.4	3.8	8.47e-01	0	44	104	0	64	15021
2026-01-10 15:36:08.50	322.30	13.98	-47.0	-59.4	3.8	8.47e-01	0	44	104	0	64	14912
2026-01-10 15:36:09.50	322.43	13.90	-47.0	-59.4	3.8	8.47e-01	0	44	104	0	64	15013
2026-01-10 15:36:10.51	322.55	13.81	-47.0	-59.4	3.8	8.46e-01	0	44	104	0	64	14998
2026-01-10 15:36:11.51	322.68	13.73	-47.0	-59.4	3.8	8.47e-01	0	44	104	0	64	14993
2026-01-10 15:36:12.52	322.80	13.65	-47.0	-59.5	3.8	8.46e-01	0	44	104	0	64	15078
2026-01-10 15:36:13.52	322.92	13.57	-47.0	-59.5	3.8	8.47e-01	0	44	104	0	64	15084
2026-01-10 15:36:14.52	323.04	13.49	-47.0	-59.4	3.8	8.47e-01	0	44	104	0	64	15028
2026-01-10 15:36:15.53	323.16	13.41	-47.0	-59.4	3.8	8.47e-01	0	44	104	0	64	15015
2026-01-10 15:36:16.53	323.28	13.33	-47.0	-59.4	3.8	8.48e-01	0	44	104	0	64	15034
2026-01-10 15:36:17.54	323.40	13.25	-47.0	-59.4	3.8	8.47e-01	0	43	104	0	64	15024
2026-01-10 15:36:18.54	323.52	13.17	-47.0	-59.4	3.8	8.47e-01	0	44	104	0	64	14980
2026-01-10 15:36:19.55	323.64	13.09	-47.0	-59.4	3.8	8.47e-01	0	44	104	0	64	15044
2026-01-10 15:36:20.55	323.76	13.01	-47.0	-59.4	3.8	8.46e-01	0	44	104	0	64	14882
2026-01-10 15:36:21.56	323.88	12.93	-47.0	-59.4	3.8	8.48e-01	0	44	104	0	64	15001
2026-01-10 15:36:22.56	323.99	12.86	-47.0	-59.4	3.8	8.47e-01	0	44	104	0	64	14947
2026-01-10 15:36:23.57	324.11	12.78	-47.0	-59.4	3.8	8.46e-01	0	44	104	0	64	14934
2026-01-10 15:36:24.57	324.22	12.70	-47.0	-59.4	3.8	8.47e-01	0	44	104	0	64	15036
2026-01-10 15:36:25.57	324.34	12.62	-47.0	-59.4	3.8	8.47e-01	0	44	104	0	64	14993
2026-01-10 15:36:26.58	324.45	12.54	-47.0	-59.4	3.8	8.47e-01	0	44	104	0	64	14961
2026-01-10 15:36:27.58	324.57	12.46	-47.0	-59.4	3.8	8.46e-01	0	44	104	0	64	14994
2026-01-10 15:36:28.59	324.68	12.38	-47.0	-59.4	3.8	8.46e-01	0	44	104	0	64	14967
2026-01-10 15:36:29.59	324.79	12.31	-47.0	-59.4	3.8	8.47e-01	0	44	104	0	64	14968
2026-01-10 15:36:30.60	324.90	12.23	-47.0	-59.5	3.8	8.47e-01	0	44	104	0	64	15116
2026-01-10 15:36:31.60	325.01	12.15	-47.0	-59.4	3.8	8.47e-01	0	44	104	0	64	15001
2026-01-10 15:36:32.60	325.12	12.07	-47.0	-59.4	3.8	8.47e-01	0	44	104	0	64	15004
2026-01-10 15:36:33.61	325.24	11.99	-47.0	-59.4	3.8	8.46e-01	0	44	104	0	64	15030
2026-01-10 15:36:34.61	325.34	11.92	-47.0	-59.4	3.8	8.48e-01	0	44	104	0	64	14927
2026-01-10 15:36:35.62	325.45	11.84	-47.0	-59.4	3.8	8.47e-01	0	44	104	0	64	14970
2026-01-10 15:36:36.62	325.56	11.76	-46.9	-59.4	3.8	8.47e-01	0	44	104	0	64	14940
2026-01-10 15:36:37.63	325.67	11.69	-47.0	-59.4	3.8	8.46e-01	0	44	104	0	64	14964
2026-01-10 15:36:38.63	325.78	11.61	-47.0	-59.4	3.8	8.48e-01	0	44	104	0	64	15011
2026-01-10 15:36:39.64	325.89	11.53	-47.0	-59.5	3.8	8.47e-01	0	44	104	0	64	15058
2026-01-10 15:36:40.64	325.99	11.46	-47.0	-59.4	3.8	8.46e-01	0	44	104	0	64	14997
2026-01-10 15:36:41.64	326.10	11.38	-47.0	-59.4	3.8	8.47e-01	0	44	104	0	64	15038
2026-01-10 15:36:42.65	326.20	11.30	-47.0	-59.4	3.8	8.47e-01	0	44	104	0	64	14989
2026-01-10 15:36:43.65	326.31	11.23	-47.0	-59.4	3.8	8.48e-01	0	44	104	0	64	14988
2026-01-10 15:36:44.66	326.41	11.15	-47.0	-59.4	3.8	8.47e-01	0	44	104	0	64	14976
2026-01-10 15:36:45.66	326.52	11.08	-47.0	-59.4	3.8	8.47e-01	0	44	104	0	64	14907
2026-01-10 15:36:46.67	326.62	11.00	-47.0	-59.4	3.8	8.46e-01	0	44	104	0	64	14985
2026-01-10 15:36:47.67	326.72	10.93	-47.0	-59.4	3.8	8.48e-01	0	44	104	0	64	14979
2026-01-10 15:36:48.67	326.82	10.85	-47.0	-59.4	3.8	8.48e-01	0	44	104	0	64	14957
2026-01-10 15:36:49.68	326.93	10.78	-46.9	-59.4	3.8	8.47e-01	0	44	104	0	64	14925
2026-01-10 15:36:50.68	327.03	10.70	-47.0	-59.4	3.8	8.47e-01	0	44	104	0	64	14928
2026-01-10 15:36:51.69	327.13	10.63	-47.0	-59.4	3.8	8.47e-01	0	44	104	0	64	14931
2026-01-10 15:36:52.69	327.23	10.55	-47.0	-59.4	3.8	8.47e-01	0	44	104	0	64	14906
2026-01-10 15:36:53.69	327.33	10.48	-47.0	-59.5	3.8	8.47e-01	0	44	104	0	64	15056
2026-01-10 15:36:54.70	327.43	10.40	-47.0	-59.4	3.8	8.47e-01	0	44	104	0	64	15031
2026-01-10 15:36:55.70	327.53	10.33	-47.0	-59.4	3.8	8.47e-01	0	44	104	0	64	15040
2026-01-10 15:36:56.71	327.63	10.26	-47.0	-59.4	3.8	8.47e-01	0	44	104	0	64	15031
2026-01-10 15:36:57.71	327.72	10.18	-47.0	-59.5	3.8	8.46e-01	0	44	104	0	64	15076
2026-01-10 15:36:58.72	327.82	10.11	-47.0	-59.5	3.8	8.48e-01	0	44	104	0	64	15072
2026-01-10 15:36:59.72	327.92	10.03	-47.0	-59.4	3.8	8.46e-01	0	44	104	0	64	15032
2026-01-10 15:37:00.73	328.01	9.96	-47.0	-59.5	3.8	8.45e-01	0	44	104	0	64	15062
2026-01-10 15:37:01.73	328.11	9.89	-47.0	-59.4	3.8	8.47e-01	0	44	104	0	64	15012
2026-01-10 15:37:02.73	328.20	9.82	-47.0	-59.4	3.8	8.46e-01	0	44	104	0	64	15050
2026-01-10 15:37:03.74	328.30	9.74	-47.0	-59.4	3.8	8.47e-01	0	44	104	0	64	15020
2026-01-10 15:37:04.74	328.39	9.67	-47.0	-59.5	3.8	8.47e-01	0	44	104	0	64	15065
2026-01-10 15:37:05.75	328.49	9.60	-47.0	-59.4	3.8	8.48e-01	0	44	104	0	64	15006
2026-01-10 15:37:06.75	328.58	9.52	-47.0	-59.5	3.8	8.46e-01	0	44	104	0	64	15068
2026-01-10 15:37:07.76	328.68	9.45	-47.0	-59.4	3.8	8.47e-01	0	44	104	0	64	15015
2026-01-10 15:37:08.76	328.77	9.38	-47.0	-59.5	3.8	8.46e-01	0	44	104	0	64	15107
2026-01-10 15:37:09.77	328.86	9.31	-47.0	-59.5	3.8	8.46e-01	0	44	104	0	64	15059
2026-01-10 15:37:10.77	328.95	9.24	-47.0	-59.4	3.8	8.46e-01	0	44	104	0	64	14982
2026-01-10 15:37:11.77	329.05	9.16	-47.0	-59.4	3.8	8.47e-01	0	44	104	0	64	15003
2026-01-10 15:37:12.78	329.14	9.09	-47.0	-59.4	3.8	8.47e-01	0	44	104	0	64	14975
2026-01-10 15:37:13.78	329.23	9.02	-47.0	-59.4	3.8	8.47e-01	0	44	104	0	64	14959
2026-01-10 15:37:14.79	329.32	8.95	-47.0	-59.4	3.8	8.46e-01	0	44	104	0	64	14970
2026-01-10 15:37:15.79	329.41	8.88	-47.0	-59.5	3.8	8.45e-01	0	44	104	0	64	15054
2026-01-10 15:37:16.80	329.50	8.81	-46.9	-59.4	3.8	8.47e-01	0	44	104	0	64	14926
2026-01-10 15:37:17.80	329.59	8.74	-46.9	-59.4	3.8	8.46e-01	0	44	104	0	64	14932
2026-01-10 15:37:18.81	329.68	8.67	-47.0	-59.4	3.8	8.46e-01	0	44	104	0	64	15008
2026-01-10 15:37:19.81	329.76	8.60	-47.0	-59.4	3.8	8.46e-01	0	44	104	0	64	15047
2026-01-10 15:37:20.81	329.85	8.53	-47.0	-59.4	3.8	8.47e-01	0	44	104	0	64	15009
2026-01-10 15:37:21.82	329.94	8.46	-47.0	-59.4	3.8	8.48e-01	0	44	104	0	64	14984
2026-01-10 15:37:22.82	330.03	8.39	-47.0	-59.4	3.8	8.47e-01	0	44	104	0	64	15050
2026-01-10 15:37:23.83	330.11	8.32	-47.0	-59.4	3.8	8.47e-01	0	44	104	0	64	14949
2026-01-10 15:37:24.83	330.20	8.25	-47.0	-59.5	3.8	8.47e-01	0	44	104	0	64	15089
2026-01-10 15:37:25.84	330.29	8.18	-47.0	-59.4	3.8	8.47e-01	0	44	104	0	64	15044
2026-01-10 15:37:26.84	330.37	8.11	-47.0	-59.4	3.8	8.46e-01	0	44	104	0	64	14994
2026-01-10 15:37:27.85	330.46	8.04	-47.0	-59.4	3.8	8.46e-01	0	44	104	0	64	15031
2026-01-10 15:37:28.85	330.54	7.97	-47.0	-59.4	3.8	8.47e-01	0	44	104	0	64	15044
2026-01-10 15:37:29.85	330.62	7.90	-47.0	-59.4	3.8	8.47e-01	0	44	104	0	64	15025
2026-01-10 15:37:30.86	330.71	7.83	-47.0	-59.4	3.8	8.48e-01	0	44	104	0	64	14951
2026-01-10 15:37:31.86	330.79	7.76	-47.0	-59.4	3.8	8.48e-01	0	44	104	0	64	15019
2026-01-10 15:37:32.87	330.88	7.69	-47.0	-59.4	3.8	8.47e-01	0	44	104	0	64	14970
2026-01-10 15:37:33.87	330.96	7.62	-47.0	-59.4	3.8	8.46e-01	0	44	104	0	64	15019
2026-01-10 15:37:34.88	331.04	7.55	-47.0	-59.4	3.8	8.46e-01	0	44	104	0	64	15000
2026-01-10 15:37:35.88	331.12	7.49	-47.0	-59.4	3.8	8.46e-01	0	44	104	0	64	15011
2026-01-10 15:37:36.88	331.21	7.42	-47.0	-59.4	3.8	8.46e-01	0	44	104	0	64	14913
2026-01-10 15:37:37.89	331.29	7.35	-47.0	-59.4	3.8	8.46e-01	0	44	104	0	64	14985
2026-01-10 15:37:38.89	331.37	7.28	-47.0	-59.4	3.8	8.46e-01	0	44	104	0	64	15049
2026-01-10 15:37:39.90	331.45	7.21	-47.0	-59.4	3.8	8.47e-01	0	44	104	0	64	14964
2026-01-10 15:37:40.90	331.53	7.15	-47.0	-59.4	3.8	8.46e-01	0	44	104	0	64	15013
2026-01-10 15:37:41.91	331.61	7.08	-47.0	-59.4	3.8	8.46e-01	0	44	104	0	64	14986
2026-01-10 15:37:42.91	331.69	7.01	-47.0	-59.4	3.8	8.46e-01	0	44	104	0	64	14960
2026-01-10 15:37:43.91	331.77	6.95	-47.0	-59.4	3.8	8.47e-01	0	44	104	0	64	14934
2026-01-10 15:37:44.92	331.85	6.88	-47.0	-59.4	3.8	8.46e-01	0	44	104	0	64	14982
2026-01-10 15:37:45.92	331.93	6.81	-47.0	-59.4	3.8	8.47e-01	0	44	104	0	64	15040
2026-01-10 15:37:46.93	332.00	6.74	-47.0	-59.4	3.8	8.46e-01	0	44	104	0	64	14941
2026-01-10 15:37:47.93	332.08	6.68	-47.0	-59.4	3.8	8.48e-01	0	44	104	0	64	14993
2026-01-10 15:37:48.94	332.16	6.61	-47.0	-59.4	3.8	8.47e-01	0	44	104	0	64	15030
2026-01-10 15:37:49.94	332.24	6.54	-47.0	-59.4	3.8	8.47e-01	0	44	104	0	64	14992
2026-01-10 15:37:50.94	332.31	6.48	-47.0	-59.5	3.8	8.47e-01	0	44	104	0	64	15082
2026-01-10 15:37:51.95	332.39	6.41	-47.0	-59.4	3.8	8.45e-01	0	44	104	0	64	14921
2026-01-10 15:37:52.95	332.47	6.35	-47.0	-59.5	3.8	8.46e-01	0	44	104	0	64	15090
2026-01-10 15:37:53.96	332.54	6.28	-47.0	-59.4	3.8	8.47e-01	0	44	104	0	64	14944
2026-01-10 15:37:54.96	332.62	6.21	-47.0	-59.5	3.8	8.46e-01	0	44	104	0	64	15078
2026-01-10 15:37:55.97	332.69	6.15	-47.0	-59.4	3.8	8.47e-01	0	44	104	0	64	15033
2026-01-10 15:37:56.97	332.77	6.08	-47.0	-59.4	3.8	8.47e-01	0	44	104	0	64	15011
2026-01-10 15:37:57.98	332.84	6.02	-47.0	-59.4	3.8	8.46e-01	0	44	104	0	64	15002
2026-01-10 15:37:58.98	332.92	5.95	-47.0	-59.5	3.8	8.47e-01	0	44	104	0	64	15078
2026-01-10 15:37:59.98	332.99	5.89	-47.0	-59.4	3.8	8.47e-01	0	44	104	0	64	15036
2026-01-10 15:38:00.99	333.07	5.82	-47.0	-59.5	3.8	8.47e-01	0	44	104	0	64	15052
2026-01-10 15:38:01.99	333.14	5.76	-47.0	-59.4	3.8	8.46e-01	0	44	104	0	64	15023
2026-01-10 15:38:03.00	333.21	5.69	-47.0	-59.4	3.8	8.46e-01	0	44	104	0	64	14924
2026-01-10 15:38:04.00	333.29	5.63	-47.0	-59.4	3.8	8.47e-01	0	44	104	0	64	15041
2026-01-10 15:38:05.01	333.36	5.56	-47.0	-59.4	3.8	8.47e-01	0	44	104	0	64	15035
2026-01-10 15:38:06.01	333.43	5.50	-47.0	-59.4	3.8	8.46e-01	0	44	104	0	64	14962
2026-01-10 15:38:07.01	333.50	5.44	-47.0	-59.4	3.8	8.46e-01	0	44	104	0	64	14933
2026-01-10 15:38:08.02	333.57	5.37	-47.0	-59.5	3.8	8.46e-01	0	44	104	0	64	15081
2026-01-10 15:38:09.02	333.65	5.31	-47.0	-59.5	3.8	8.46e-01	0	44	104	0	64	15066
2026-01-10 15:38:10.02	333.72	5.24	-47.0	-59.4	3.8	8.48e-01	0	44	104	0	64	14953
2026-01-10 15:38:11.03	333.79	5.18	-47.0	-59.4	3.8	8.47e-01	0	44	104	0	64	14980
2026-01-10 15:38:12.03	333.86	5.12	-47.0	-59.4	3.8	8.46e-01	0	44	104	0	64	15035
2026-01-10 15:38:13.04	333.93	5.05	-47.0	-59.4	3.8	8.47e-01	0	44	104	0	64	15015
2026-01-10 15:38:14.04	334.00	4.99	-47.0	-59.4	3.8	8.46e-01	0	44	104	0	64	14991

#Closed at: 2026-01-10 15:38:15
#Recorded file [0 MB]: D:/Data/31040_260110_182622.dat