passes_logs/2026/01/10/T1/T1__20260110_022853_AQUA_rec.log

#Pass ID: 20260110_022853_AQUA
#Satellite: AQUA
#Configuration: AQUA
#almurnet v.1.7.20251203
#Start time: 2026-01-10 02:28:55

#Version: 2.0.20230620
#Station: T1
#Location: 37.570604 lon 55.790049 lat
#TLE: 1 27424U 02022A   26009.00333547  .00001046  00000+0  21942-3 0  9998
#TLE: 2 27424  98.4075 335.3304 0002025  85.7625 349.1392 14.61808998260011

#Time	Az	El	Level	Level2	SNR	BER	BlckErr	Temp	State	Recorded	gain1	gain2
2026-01-10 02:28:55.23	6.34	5.12	-50.7	-73.9	3.9	7.43e-01	0	37	0	0	71	56861
2026-01-10 02:28:56.22	6.27	5.19	-51.0	-73.8	3.8	7.46e-01	0	38	104	0	72	52958
2026-01-10 02:28:57.23	6.20	5.26	-51.1	-73.8	3.8	7.44e-01	0	38	104	0	72	53010
2026-01-10 02:28:58.23	6.13	5.33	-51.1	-73.8	3.8	7.44e-01	0	38	104	0	72	53104
2026-01-10 02:28:59.24	6.06	5.40	-51.1	-73.8	3.8	7.45e-01	0	38	104	0	72	52841
2026-01-10 02:29:00.24	5.99	5.46	-51.0	-73.8	3.8	7.48e-01	0	38	104	0	72	52855
2026-01-10 02:29:01.25	5.92	5.53	-51.0	-73.7	3.8	7.46e-01	0	38	104	0	72	52654
2026-01-10 02:29:02.25	5.85	5.60	-51.0	-73.7	3.8	7.45e-01	0	38	104	0	72	52699
2026-01-10 02:29:03.26	5.77	5.68	-51.1	-73.7	3.8	7.47e-01	0	38	104	0	72	52667
2026-01-10 02:29:04.26	5.70	5.75	-51.0	-73.7	3.8	7.45e-01	0	38	104	0	72	52496
2026-01-10 02:29:05.26	5.63	5.82	-51.0	-73.7	3.8	7.44e-01	0	38	104	0	72	52568
2026-01-10 02:29:06.27	5.56	5.89	-51.0	-73.7	3.8	7.45e-01	0	38	104	0	72	52650
2026-01-10 02:29:07.27	5.48	5.96	-51.0	-73.7	3.8	7.47e-01	0	38	104	0	72	52724
2026-01-10 02:29:08.27	5.41	6.03	-51.0	-73.7	3.8	7.47e-01	0	38	104	0	72	52741
2026-01-10 02:29:09.28	5.33	6.10	-51.1	-73.8	3.8	7.48e-01	0	38	104	0	72	52975
2026-01-10 02:29:10.28	5.26	6.17	-51.1	-73.7	3.8	7.45e-01	0	38	104	0	72	52756
2026-01-10 02:29:11.29	5.18	6.24	-51.1	-73.8	3.8	7.47e-01	0	38	104	0	72	52880
2026-01-10 02:29:12.29	5.11	6.31	-51.1	-73.8	3.8	7.47e-01	0	38	104	0	72	52929
2026-01-10 02:29:13.30	5.03	6.39	-51.1	-73.8	3.8	7.47e-01	0	38	104	0	72	52963
2026-01-10 02:29:14.30	4.95	6.46	-51.1	-73.8	3.8	7.47e-01	0	38	104	0	72	52940
2026-01-10 02:29:15.31	4.87	6.53	-51.0	-73.7	3.8	7.42e-01	0	38	104	0	72	52733
2026-01-10 02:29:16.31	4.80	6.60	-51.0	-73.7	3.8	7.47e-01	0	38	104	0	72	52541
2026-01-10 02:29:17.31	4.72	6.67	-51.0	-73.7	3.8	7.44e-01	0	38	104	0	72	52254
2026-01-10 02:29:18.32	4.64	6.75	-51.0	-73.6	3.8	7.45e-01	0	38	104	0	72	51922
2026-01-10 02:29:19.32	4.56	6.82	-51.0	-73.6	3.8	7.49e-01	0	38	104	0	72	51776
2026-01-10 02:29:20.33	4.48	6.89	-51.0	-73.5	3.8	7.45e-01	0	39	104	0	72	51215
2026-01-10 02:29:21.33	4.40	6.97	-50.9	-73.5	3.8	7.44e-01	0	39	104	0	72	51115
2026-01-10 02:29:22.34	4.32	7.04	-51.0	-73.4	3.8	7.43e-01	0	38	104	0	72	50897
2026-01-10 02:29:23.34	4.24	7.11	-51.0	-73.3	3.8	7.46e-01	0	39	104	0	72	50308
2026-01-10 02:29:24.35	4.16	7.19	-51.0	-73.2	3.8	7.47e-01	0	39	104	0	72	49575
2026-01-10 02:29:25.35	4.08	7.26	-51.0	-73.1	3.8	7.47e-01	0	39	104	0	72	48929
2026-01-10 02:29:26.36	3.99	7.33	-51.0	-73.0	3.8	7.44e-01	0	39	104	0	72	48422
2026-01-10 02:29:27.36	3.91	7.41	-51.0	-73.0	3.8	7.48e-01	0	39	104	0	72	48289
2026-01-10 02:29:28.37	3.83	7.48	-51.0	-73.1	3.8	7.44e-01	0	39	104	0	72	48760
2026-01-10 02:29:29.37	3.74	7.56	-51.0	-73.4	3.8	7.47e-01	0	39	104	0	72	50493
2026-01-10 02:29:30.37	3.66	7.63	-51.0	-73.7	3.8	7.47e-01	0	39	104	0	72	52214
2026-01-10 02:29:31.38	3.57	7.71	-51.0	-73.8	3.8	7.48e-01	0	39	104	0	72	53070
2026-01-10 02:29:32.38	3.49	7.78	-51.0	-73.5	3.8	7.47e-01	0	39	104	0	72	51339
2026-01-10 02:29:33.38	3.40	7.86	-51.0	-72.7	3.8	7.45e-01	0	39	104	0	72	46834
2026-01-10 02:29:34.39	3.32	7.93	-50.8	-71.5	3.8	7.42e-01	0	39	104	0	72	40597
2026-01-10 02:29:35.39	3.23	8.01	-50.7	-70.2	3.8	7.44e-01	0	39	104	0	72	35020
2026-01-10 02:29:36.40	3.14	8.09	-50.5	-68.9	3.8	7.41e-01	0	39	104	0	72	30076
2026-01-10 02:29:37.40	3.05	8.16	-50.3	-68.1	3.8	7.46e-01	0	39	104	0	72	27430
2026-01-10 02:29:38.41	2.97	8.24	-50.1	-67.2	3.8	7.47e-01	0	39	104	0	72	24907
2026-01-10 02:29:39.41	2.88	8.32	-49.9	-66.4	3.8	7.43e-01	0	39	104	0	71	23883
2026-01-10 02:29:40.41	2.79	8.39	-49.8	-65.8	3.8	7.48e-01	0	39	104	0	71	22497
2026-01-10 02:29:41.42	2.70	8.47	-49.6	-65.2	3.8	7.47e-01	0	39	104	0	71	20871
2026-01-10 02:29:42.42	2.61	8.55	-49.3	-64.6	3.8	7.45e-01	0	39	104	0	70	20743
2026-01-10 02:29:43.43	2.52	8.62	-49.4	-64.7	3.8	7.46e-01	0	39	104	0	70	20992
2026-01-10 02:29:44.43	2.42	8.70	-49.3	-64.5	3.8	7.44e-01	0	39	104	0	70	20334
2026-01-10 02:29:45.44	2.33	8.78	-49.3	-64.6	3.8	7.45e-01	0	39	104	0	70	20558
2026-01-10 02:29:46.44	2.24	8.86	-49.4	-64.9	3.8	7.46e-01	0	39	104	0	70	21299
2026-01-10 02:29:47.45	2.15	8.94	-49.6	-65.6	3.8	7.48e-01	0	39	104	0	70	23126
2026-01-10 02:29:48.45	2.05	9.01	-50.0	-66.7	3.8	7.46e-01	0	39	104	0	70	26405
2026-01-10 02:29:49.45	1.96	9.09	-50.2	-68.1	3.8	7.44e-01	0	39	104	0	71	29209
2026-01-10 02:29:50.46	1.86	9.17	-50.2	-66.9	3.9	7.44e-01	0	40	104	0	71	25319
2026-01-10 02:29:51.46	1.77	9.25	-50.2	-66.2	3.8	7.49e-01	0	39	104	0	71	23407
2026-01-10 02:29:52.47	1.67	9.33	-50.3	-71.2	3.9	7.40e-01	0	40	104	0	72	39254
2026-01-10 02:29:53.47	1.57	9.41	-49.9	-66.0	3.9	7.41e-01	0	39	104	0	70	24301
2026-01-10 02:29:54.47	1.48	9.49	-48.4	-61.5	3.8	7.45e-01	0	39	104	0	68	16232
2026-01-10 02:29:55.48	1.38	9.57	-48.4	-61.5	3.8	7.46e-01	0	39	104	0	68	16252
2026-01-10 02:29:56.48	1.28	9.65	-48.6	-61.4	3.8	7.49e-01	0	39	104	0	68	16035
2026-01-10 02:29:57.48	1.18	9.73	-48.4	-61.3	3.8	7.43e-01	0	39	104	0	68	15789
2026-01-10 02:29:58.49	1.08	9.81	-48.5	-61.5	3.8	7.46e-01	0	39	104	0	68	16155
2026-01-10 02:29:59.49	0.98	9.89	-48.7	-61.7	3.8	7.45e-01	0	40	104	0	68	16540
2026-01-10 02:30:00.49	0.88	9.97	-50.7	-65.7	3.8	7.49e-01	0	40	104	0	71	22159
2026-01-10 02:30:01.50	0.78	10.05	-50.9	-71.2	3.9	7.41e-01	0	39	104	0	72	39237
2026-01-10 02:30:02.50	0.68	10.13	-51.4	-70.3	3.8	7.45e-01	0	39	104	0	73	33322
2026-01-10 02:30:03.51	0.57	10.21	-51.4	-71.6	3.9	7.44e-01	0	39	104	0	73	39078
2026-01-10 02:30:04.51	0.47	10.30	-51.3	-68.1	3.8	7.43e-01	0	39	104	0	73	26128
2026-01-10 02:30:05.52	0.36	10.38	-51.5	-68.5	3.8	7.45e-01	0	39	104	0	73	27155
2026-01-10 02:30:06.52	0.26	10.46	-51.7	-68.5	3.8	7.46e-01	0	40	104	0	74	25839
2026-01-10 02:30:07.53	0.15	10.54	-51.2	-67.0	3.8	7.49e-01	0	40	104	0	74	21721
2026-01-10 02:30:08.53	0.05	10.63	-51.0	-65.9	3.8	7.47e-01	0	40	104	0	74	19080
2026-01-10 02:30:09.53	359.94	10.71	-51.4	-66.5	3.8	7.48e-01	0	40	104	0	73	21588
2026-01-10 02:30:10.54	359.83	10.79	-52.1	-71.7	3.8	7.45e-01	0	40	104	0	75	35252
2026-01-10 02:30:11.54	359.73	10.87	-50.5	-64.9	3.9	7.42e-01	0	40	104	0	73	18067
2026-01-10 02:30:12.54	359.62	10.96	-48.3	-61.3	3.8	7.43e-01	0	40	104	0	68	15898
2026-01-10 02:30:13.54	359.51	11.04	-48.2	-61.2	3.8	7.45e-01	0	40	104	0	68	15632
2026-01-10 02:30:14.55	359.40	11.13	-48.1	-61.1	3.8	7.44e-01	0	40	104	0	68	15425
2026-01-10 02:30:15.55	359.29	11.21	-47.6	-60.9	3.8	7.44e-01	0	40	104	0	67	16058
2026-01-10 02:30:16.55	359.18	11.29	-47.7	-60.9	3.8	7.47e-01	0	39	104	0	67	16049
2026-01-10 02:30:17.55	359.06	11.38	-47.9	-61.2	3.8	7.45e-01	0	40	104	0	67	16624
2026-01-10 02:30:18.56	358.95	11.46	-51.1	-66.0	3.8	7.45e-01	0	40	104	0	72	21706
2026-01-10 02:30:19.56	358.84	11.55	-51.6	-66.7	4.0	7.44e-01	0	40	104	0	75	19687
2026-01-10 02:30:20.57	358.72	11.63	-49.8	-63.3	3.8	7.44e-01	0	40	104	0	70	17843
2026-01-10 02:30:21.57	358.61	11.72	-50.0	-63.7	3.8	7.41e-01	0	40	104	0	72	16656
2026-01-10 02:30:22.58	358.49	11.80	-49.5	-62.8	3.8	7.49e-01	0	40	104	0	70	16701
2026-01-10 02:30:23.58	358.37	11.89	-49.6	-62.9	3.8	7.47e-01	0	40	104	0	70	16956
2026-01-10 02:30:24.58	358.25	11.98	-49.6	-62.7	3.8	7.46e-01	0	40	104	0	70	16682
2026-01-10 02:30:25.66	358.13	12.07	-48.1	-61.2	3.8	7.42e-01	0	40	104	0	68	15615
2026-01-10 02:30:26.52	358.03	12.14	-47.7	-60.8	3.8	7.44e-01	0	40	104	0	67	15859
2026-01-10 02:30:27.67	357.89	12.24	-52.7	-68.8	3.7	7.47e-01	0	40	104	0	75	25139
2026-01-10 02:30:28.64	357.77	12.33	-49.8	-63.1	3.8	7.48e-01	0	40	104	0	71	16410
2026-01-10 02:30:29.64	357.65	12.41	-48.7	-61.9	3.7	7.46e-01	0	40	104	0	68	16926
2026-01-10 02:30:30.86	357.50	12.52	-48.1	-60.9	3.7	7.46e-01	0	40	104	0	68	15099
2026-01-10 02:30:31.73	357.39	12.60	-47.7	-50.9	21.7	6.02e-01	0	40	0	0	67	5078
2026-01-10 02:30:33.10	357.22	12.72	-47.6	-50.8	21.9	6.03e-01	0	40	0	2621440	67	4988
2026-01-10 02:30:33.82	357.14	12.78	-47.5	-50.7	22.1	6.03e-01	0	40	0	4194304	67	4934
2026-01-10 02:30:35.11	356.97	12.89	-47.5	-50.7	22.1	6.05e-01	0	40	0	6291456	66	5236
2026-01-10 02:30:35.82	356.88	12.96	-47.6	-50.7	22.0	6.02e-01	0	40	0	7864320	66	5276
2026-01-10 02:30:37.12	356.72	13.07	-47.5	-50.6	22.1	6.02e-01	0	40	0	9961472	66	5209
2026-01-10 02:30:37.88	356.62	13.14	-47.6	-50.7	22.1	6.03e-01	0	40	0	11534336	66	5276
2026-01-10 02:30:39.17	356.45	13.25	-47.7	-50.9	21.8	6.03e-01	0	40	0	14155776	66	5373
2026-01-10 02:30:39.88	356.36	13.32	-47.7	-51.0	21.8	6.04e-01	0	40	0	15204352	66	5419
2026-01-10 02:30:41.17	356.19	13.43	-47.8	-51.2	21.6	5.99e-01	0	40	0	17825792	66	5529
2026-01-10 02:30:42.03	356.08	13.51	-47.7	-51.0	21.8	6.04e-01	0	40	0	19398656	66	5439
2026-01-10 02:30:43.18	355.93	13.61	-47.6	-50.9	21.9	6.02e-01	0	40	0	21495808	66	5352
2026-01-10 02:30:44.04	355.81	13.69	-47.5	-50.7	22.0	5.99e-01	0	40	0	23068672	66	5272
2026-01-10 02:30:45.19	355.66	13.79	-47.7	-50.9	21.9	6.02e-01	0	40	0	25165824	66	5368
2026-01-10 02:30:46.05	355.54	13.87	-47.7	-50.9	22.0	6.04e-01	0	40	0	26738688	66	5361
2026-01-10 02:30:47.19	355.39	13.97	-47.5	-50.6	22.2	6.01e-01	0	40	0	28835840	66	5204
2026-01-10 02:30:48.05	355.27	14.05	-47.4	-50.5	22.3	6.04e-01	0	40	0	30408704	66	5140
2026-01-10 02:30:49.22	355.11	14.16	-47.4	-50.5	22.3	6.01e-01	0	40	0	33030144	66	5153
2026-01-10 02:30:50.07	354.99	14.24	-47.4	-50.4	22.4	6.01e-01	0	40	0	34603008	66	5096
2026-01-10 02:30:51.30	354.82	14.35	-47.3	-50.5	22.3	6.01e-01	0	40	0	36700160	66	5132
2026-01-10 02:30:52.16	354.70	14.43	-47.2	-50.4	22.4	6.02e-01	0	40	0	38273024	66	5044
2026-01-10 02:30:53.39	354.52	14.54	-47.3	-50.4	22.3	6.03e-01	0	40	0	40894464	66	5100
2026-01-10 02:30:54.25	354.40	14.62	-47.3	-50.5	22.3	6.02e-01	0	40	0	42467328	66	5116
2026-01-10 02:30:55.40	354.24	14.73	-47.3	-50.5	22.3	6.04e-01	0	40	0	44564480	66	5105
2026-01-10 02:30:56.26	354.11	14.81	-47.3	-50.4	22.4	6.01e-01	0	40	0	46137344	66	5079
2026-01-10 02:30:57.53	353.93	14.93	-47.6	-50.7	22.1	6.03e-01	0	40	0	48234496	66	5240
2026-01-10 02:30:58.25	353.82	14.99	-47.4	-50.5	22.4	6.06e-01	0	40	0	49807360	66	5102
2026-01-10 02:30:59.54	353.63	15.11	-47.6	-50.6	22.2	6.02e-01	0	40	0	52428800	66	5209
2026-01-10 02:31:00.26	353.52	15.18	-47.5	-50.6	22.3	6.02e-01	0	40	0	53477376	66	5166
2026-01-10 02:31:01.83	353.29	15.33	-47.5	-50.6	22.3	6.04e-01	0	40	0	56623104	66	5163
2026-01-10 02:31:02.42	353.20	15.38	-47.6	-50.6	22.3	6.03e-01	0	40	0	57671680	66	5163
2026-01-10 02:31:04.00	352.96	15.53	-47.5	-50.5	22.4	6.03e-01	0	40	0	60817408	66	5128
2026-01-10 02:31:04.58	352.87	15.59	-47.5	-50.5	22.4	6.02e-01	0	40	0	61865984	66	5106
2026-01-10 02:31:06.15	352.63	15.74	-47.5	-50.5	22.4	5.99e-01	0	40	0	64487424	66	5116
2026-01-10 02:31:06.73	352.54	15.79	-47.4	-50.4	22.5	6.06e-01	0	40	0	65536000	66	5044
2026-01-10 02:31:08.37	352.28	15.95	-47.3	-50.4	22.4	6.03e-01	0	40	0	68681728	66	5097
2026-01-10 02:31:08.94	352.19	16.00	-47.3	-50.6	22.4	6.01e-01	0	40	0	69730304	66	5172
2026-01-10 02:31:10.53	351.94	16.16	-47.2	-50.6	22.3	6.00e-01	0	40	0	72876032	66	5213
2026-01-10 02:31:11.10	351.84	16.21	-47.1	-50.4	22.5	6.05e-01	0	40	0	73924608	66	5047
2026-01-10 02:31:13.07	351.52	16.40	-47.0	-50.2	22.6	6.02e-01	0	40	0	77594624	66	4966
2026-01-10 02:31:13.64	351.43	16.46	-47.0	-50.2	22.7	6.03e-01	0	40	0	78643200	66	4944
2026-01-10 02:31:15.25	351.17	16.61	-47.1	-50.2	22.6	6.02e-01	0	40	0	81788928	66	4968
2026-01-10 02:31:15.82	351.07	16.67	-47.1	-50.2	22.7	6.03e-01	0	40	0	82837504	66	4947
2026-01-10 02:31:17.40	350.81	16.82	-47.2	-50.1	22.8	6.03e-01	0	40	0	85458944	66	4900
2026-01-10 02:31:18.00	350.71	16.88	-47.2	-50.1	22.8	6.02e-01	0	40	0	87031808	66	4876
2026-01-10 02:31:19.58	350.44	17.03	-47.4	-50.3	22.6	6.02e-01	0	40	0	89653248	66	4994
2026-01-10 02:31:20.18	350.34	17.09	-47.3	-50.1	22.8	6.04e-01	0	40	0	90701824	66	4885
2026-01-10 02:31:21.85	350.05	17.25	-47.2	-50.2	22.7	6.03e-01	0	40	0	93847552	66	4945
2026-01-10 02:31:22.43	349.95	17.31	-47.2	-50.2	22.7	6.04e-01	0	40	0	94896128	66	4952
2026-01-10 02:31:24.02	349.67	17.47	-47.1	-50.4	22.6	6.00e-01	0	40	0	98041856	66	5046
2026-01-10 02:31:24.59	349.57	17.52	-47.0	-50.3	22.6	6.02e-01	0	40	0	99090432	66	4993
2026-01-10 02:31:26.55	349.22	17.72	-46.6	-50.2	22.7	6.02e-01	0	40	0	102760448	65	5234
2026-01-10 02:31:27.12	349.12	17.77	-46.7	-50.3	22.6	6.00e-01	0	40	0	103809024	65	5335
2026-01-10 02:31:28.70	348.83	17.93	-46.5	-50.2	22.7	6.05e-01	0	40	0	106954752	64	5566
2026-01-10 02:31:29.32	348.72	17.99	-46.6	-50.3	22.6	5.99e-01	0	40	0	108003328	64	5645
2026-01-10 02:31:30.89	348.43	18.15	-46.6	-50.4	22.6	6.01e-01	0	40	0	111149056	64	5658
2026-01-10 02:31:31.50	348.32	18.21	-46.6	-50.4	22.5	6.01e-01	0	40	0	112197632	64	5685
2026-01-10 02:31:33.07	348.02	18.36	-46.5	-50.2	22.7	6.03e-01	0	40	0	114819072	64	5549
2026-01-10 02:31:33.85	347.88	18.44	-46.5	-50.2	22.7	6.01e-01	0	40	0	116391936	64	5582
2026-01-10 02:31:35.14	347.63	18.57	-46.5	-50.3	22.7	6.03e-01	0	40	0	119013376	64	5598
2026-01-10 02:31:36.06	347.46	18.66	-46.5	-50.4	22.5	6.03e-01	0	40	0	120586240	64	5671
2026-01-10 02:31:37.39	347.20	18.80	-46.5	-50.4	22.6	6.03e-01	0	40	0	123207680	64	5662
2026-01-10 02:31:38.10	347.06	18.87	-46.6	-50.4	22.5	6.01e-01	0	40	0	124256256	64	5685
2026-01-10 02:31:39.74	346.74	19.03	-46.9	-50.3	22.6	6.03e-01	0	40	0	127401984	64	5633
2026-01-10 02:31:40.32	346.63	19.09	-47.1	-50.3	22.6	6.02e-01	0	40	0	128450560	64	5635
2026-01-10 02:31:41.91	346.31	19.25	-47.2	-50.2	22.7	6.02e-01	0	40	0	131596288	65	5258
2026-01-10 02:31:42.48	346.20	19.31	-47.3	-50.3	22.7	6.00e-01	0	40	0	132644864	65	5316
2026-01-10 02:31:44.06	345.88	19.47	-47.4	-50.3	22.6	6.04e-01	0	40	0	135790592	65	5310
2026-01-10 02:31:44.79	345.73	19.54	-47.4	-50.3	22.7	6.03e-01	0	40	0	136839168	65	5297
2026-01-10 02:31:46.08	345.47	19.67	-47.3	-50.2	22.7	6.03e-01	0	40	0	139460608	65	5272
2026-01-10 02:31:46.99	345.28	19.76	-47.3	-50.3	22.6	6.02e-01	0	40	0	141033472	65	5309
2026-01-10 02:31:48.00	345.07	19.87	-47.3	-50.3	22.6	6.02e-01	0	40	0	143130624	65	5305
2026-01-10 02:31:49.00	344.86	19.97	-47.4	-50.3	22.6	6.02e-01	0	40	0	144703488	65	5333
2026-01-10 02:31:50.01	344.65	20.07	-47.4	-50.3	22.6	6.03e-01	0	40	0	146800640	65	5308
2026-01-10 02:31:51.01	344.43	20.17	-47.5	-50.5	22.5	6.04e-01	0	40	0	148897792	65	5409
2026-01-10 02:31:52.02	344.22	20.27	-47.4	-50.4	22.6	6.03e-01	0	40	0	150470656	65	5354
2026-01-10 02:31:53.02	344.00	20.38	-47.3	-50.4	22.6	6.04e-01	0	40	0	152567808	65	5393
2026-01-10 02:31:54.02	343.79	20.48	-47.3	-50.5	22.5	6.01e-01	0	40	0	154140672	65	5454
2026-01-10 02:31:55.03	343.56	20.58	-47.1	-50.5	22.5	6.04e-01	0	40	0	156237824	65	5432
2026-01-10 02:31:56.03	343.34	20.68	-47.1	-50.5	22.5	6.01e-01	0	40	0	158334976	65	5407
2026-01-10 02:31:57.03	343.12	20.78	-47.1	-50.4	22.6	6.02e-01	0	40	0	159907840	65	5370
2026-01-10 02:31:58.03	342.90	20.89	-47.3	-50.5	22.5	6.01e-01	0	40	0	162004992	65	5454
2026-01-10 02:31:59.04	342.67	20.99	-47.4	-50.7	22.3	6.03e-01	0	40	0	163577856	65	5534
2026-01-10 02:32:00.04	342.45	21.09	-47.4	-50.6	22.4	6.04e-01	0	40	0	165675008	65	5527
2026-01-10 02:32:01.05	342.22	21.19	-47.2	-50.6	22.4	6.03e-01	0	40	0	167772160	65	5482
2026-01-10 02:32:02.05	341.99	21.29	-47.0	-50.6	22.4	6.00e-01	0	40	0	169345024	65	5484
2026-01-10 02:32:03.05	341.76	21.40	-46.8	-50.5	22.5	6.05e-01	0	40	0	171442176	65	5452
2026-01-10 02:32:04.06	341.52	21.50	-46.5	-50.3	22.6	6.01e-01	0	40	0	173015040	65	5334
2026-01-10 02:32:05.06	341.29	21.60	-46.5	-50.4	22.6	6.02e-01	0	40	0	175112192	65	5347
2026-01-10 02:32:06.06	341.05	21.70	-46.6	-50.4	21.3	6.01e-01	0	40	0	176685056	65	5369
2026-01-10 02:32:07.07	340.81	21.80	-46.7	-50.3	22.7	6.03e-01	0	40	0	178782208	65	5319
2026-01-10 02:32:08.15	340.55	21.91	-47.1	-50.4	22.6	6.01e-01	0	40	0	180879360	65	5367
2026-01-10 02:32:09.03	340.34	22.00	-47.3	-50.4	22.6	6.02e-01	0	40	0	182452224	65	5400
2026-01-10 02:32:10.17	340.06	22.12	-47.5	-50.5	22.5	6.02e-01	0	40	0	184549376	65	5451
2026-01-10 02:32:11.04	339.85	22.21	-47.7	-50.7	22.3	6.03e-01	0	40	0	186122240	65	5590
2026-01-10 02:32:12.18	339.57	22.32	-47.7	-50.8	22.2	6.04e-01	0	40	0	188219392	66	5326
2026-01-10 02:32:13.14	339.33	22.42	-47.5	-50.7	22.4	6.04e-01	0	40	0	190316544	66	5235
2026-01-10 02:32:14.14	339.08	22.52	-47.6	-50.8	22.3	6.03e-01	0	40	0	191889408	66	5304
2026-01-10 02:32:15.14	338.83	22.62	-47.3	-50.5	22.5	6.03e-01	0	40	0	193986560	66	5141
2026-01-10 02:32:16.15	338.57	22.72	-47.4	-50.5	22.5	6.04e-01	0	41	0	196083712	66	5133
2026-01-10 02:32:17.15	338.32	22.82	-47.6	-50.5	22.6	6.02e-01	0	40	0	197656576	66	5150
2026-01-10 02:32:18.15	338.06	22.92	-47.4	-50.3	22.8	6.01e-01	0	40	0	199753728	66	5003
2026-01-10 02:32:19.16	337.80	23.02	-47.5	-50.4	22.6	6.01e-01	0	40	0	201326592	66	5092
2026-01-10 02:32:20.52	337.45	23.16	-47.6	-50.6	22.4	6.03e-01	0	40	0	203948032	66	5216
2026-01-10 02:32:21.29	337.24	23.24	-47.5	-50.6	22.4	6.03e-01	0	40	0	205520896	66	5169
2026-01-10 02:32:22.58	336.90	23.36	-47.5	-50.7	22.3	6.01e-01	0	41	0	208142336	66	5267
2026-01-10 02:32:23.29	336.71	23.44	-47.5	-50.7	22.4	6.02e-01	0	40	0	209190912	66	5226
2026-01-10 02:32:24.58	336.37	23.56	-47.6	-50.7	22.4	6.02e-01	0	40	0	211812352	66	5223
2026-01-10 02:32:25.30	336.17	23.63	-47.6	-50.6	22.4	6.01e-01	0	40	0	212860928	66	5216
2026-01-10 02:32:26.59	335.82	23.76	-47.8	-50.8	22.3	6.00e-01	0	41	0	215482368	66	5311
2026-01-10 02:32:27.52	335.57	23.85	-47.7	-50.7	22.4	6.02e-01	0	40	0	217055232	66	5222
2026-01-10 02:32:28.52	335.29	23.95	-47.7	-50.6	22.5	6.04e-01	0	41	0	219152384	66	5196
2026-01-10 02:32:29.52	335.02	24.05	-47.7	-50.7	22.4	6.03e-01	0	40	0	220725248	66	5231
2026-01-10 02:32:30.53	334.74	24.15	-47.6	-50.7	22.4	6.00e-01	0	41	0	222822400	66	5230
2026-01-10 02:32:31.53	334.45	24.24	-47.6	-50.6	22.4	6.02e-01	0	41	0	224919552	66	5207
2026-01-10 02:32:32.53	334.17	24.34	-47.5	-50.5	22.6	6.03e-01	0	40	0	226492416	66	5128
2026-01-10 02:32:33.54	333.89	24.44	-47.5	-50.5	22.6	6.02e-01	0	40	0	228589568	66	5129
2026-01-10 02:32:34.54	333.60	24.53	-47.5	-50.5	22.6	6.01e-01	0	40	0	230162432	66	5154
2026-01-10 02:32:35.54	333.31	24.63	-47.5	-50.5	22.6	6.02e-01	0	40	0	232259584	66	5132
2026-01-10 02:32:36.55	333.02	24.72	-47.6	-50.6	22.5	6.02e-01	0	41	0	233832448	66	5185
2026-01-10 02:32:37.55	332.73	24.82	-47.5	-50.4	22.7	6.01e-01	0	40	0	235929600	66	5078
2026-01-10 02:32:38.55	332.43	24.91	-47.6	-50.6	22.5	6.03e-01	0	41	0	238026752	66	5164
2026-01-10 02:32:39.55	332.14	25.01	-47.5	-50.5	22.6	6.03e-01	0	40	0	239599616	66	5136
2026-01-10 02:32:40.56	331.84	25.10	-47.4	-50.5	22.5	6.02e-01	0	40	0	241696768	66	5130
2026-01-10 02:32:41.56	331.54	25.19	-47.3	-50.5	22.5	6.01e-01	0	40	0	243269632	66	5117
2026-01-10 02:32:42.57	331.23	25.29	-47.5	-50.6	22.4	6.01e-01	0	40	0	245366784	66	5210
2026-01-10 02:32:43.57	330.93	25.38	-47.5	-50.6	22.5	6.00e-01	0	40	0	247463936	66	5193
2026-01-10 02:32:44.57	330.63	25.47	-47.5	-50.5	22.5	6.02e-01	0	40	0	249036800	66	5150
2026-01-10 02:32:45.58	330.32	25.56	-47.4	-50.5	22.6	6.02e-01	0	40	0	251133952	66	5104
2026-01-10 02:32:46.58	330.01	25.65	-47.2	-50.4	22.7	6.01e-01	0	40	0	252706816	66	5077
2026-01-10 02:32:47.58	329.70	25.74	-47.0	-50.4	22.7	6.03e-01	0	40	0	254803968	66	5093
2026-01-10 02:32:48.59	329.38	25.83	-46.8	-50.3	22.8	6.05e-01	0	40	0	256901120	65	5300
2026-01-10 02:32:49.59	329.07	25.92	-46.9	-50.4	22.7	6.01e-01	0	40	0	258473984	65	5356
2026-01-10 02:32:50.59	328.75	26.01	-47.1	-50.4	22.7	6.03e-01	0	40	0	260571136	65	5364
2026-01-10 02:32:51.75	328.38	26.11	-47.4	-50.6	22.5	6.04e-01	0	40	0	262668288	65	5474
2026-01-10 02:32:52.63	328.10	26.19	-47.4	-50.4	22.6	6.02e-01	0	40	0	264241152	65	5386
2026-01-10 02:32:53.77	327.73	26.29	-47.4	-50.5	22.6	6.04e-01	0	40	0	266338304	65	5419
2026-01-10 02:32:54.63	327.46	26.36	-47.3	-50.4	22.7	6.02e-01	0	40	0	267911168	65	5368
2026-01-10 02:32:55.78	327.08	26.46	-47.3	-50.2	22.8	6.01e-01	0	40	0	270008320	65	5279
2026-01-10 02:32:56.64	326.80	26.53	-47.3	-50.3	22.8	6.01e-01	0	40	0	271581184	65	5326
2026-01-10 02:32:58.09	326.32	26.65	-47.5	-50.5	22.6	6.00e-01	0	40	0	274726912	65	5437
2026-01-10 02:32:58.81	326.08	26.71	-47.4	-50.4	22.7	6.02e-01	0	40	0	275775488	65	5367
2026-01-10 02:33:00.29	325.59	26.83	-47.4	-50.6	22.6	6.01e-01	0	40	0	278396928	65	5467
2026-01-10 02:33:01.01	325.35	26.89	-47.2	-50.4	22.7	6.04e-01	0	40	0	279969792	65	5370
2026-01-10 02:33:02.34	324.90	27.00	-47.2	-50.4	22.7	6.02e-01	0	40	0	282591232	65	5378
2026-01-10 02:33:03.06	324.66	27.05	-47.1	-50.3	22.8	6.04e-01	0	41	0	283639808	65	5292
2026-01-10 02:33:04.43	324.19	27.16	-47.1	-50.3	22.8	6.00e-01	0	40	0	286261248	65	5284
2026-01-10 02:33:05.15	323.94	27.22	-47.0	-50.1	22.9	6.01e-01	0	40	0	287834112	65	5209
2026-01-10 02:33:06.44	323.50	27.31	-47.2	-50.2	22.9	6.04e-01	0	41	0	289931264	65	5245
2026-01-10 02:33:07.16	323.25	27.37	-47.1	-50.1	23.0	6.02e-01	0	41	0	291504128	65	5189
2026-01-10 02:33:08.44	322.80	27.46	-47.1	-50.0	23.0	6.02e-01	0	40	0	294125568	65	5146
2026-01-10 02:33:09.16	322.55	27.52	-47.1	-50.1	23.0	6.03e-01	0	41	0	295174144	65	5183
2026-01-10 02:33:10.45	322.10	27.61	-47.0	-50.0	23.1	6.03e-01	0	41	0	297795584	65	5144
2026-01-10 02:33:11.17	321.85	27.66	-47.1	-50.1	23.0	6.01e-01	0	41	0	298844160	65	5194
2026-01-10 02:33:12.73	321.29	27.77	-47.1	-50.1	23.0	6.02e-01	0	41	0	301989888	65	5177
2026-01-10 02:33:13.44	321.04	27.82	-47.2	-50.2	22.8	6.02e-01	0	41	0	303038464	65	5243
2026-01-10 02:33:14.73	320.58	27.91	-47.2	-50.2	22.9	6.03e-01	0	41	0	305659904	65	5245
2026-01-10 02:33:15.44	320.32	27.96	-47.1	-50.1	23.0	6.02e-01	0	41	0	307232768	65	5182
2026-01-10 02:33:16.73	319.86	28.04	-47.0	-50.0	23.0	6.00e-01	0	41	0	309329920	65	5149
2026-01-10 02:33:17.45	319.59	28.09	-46.9	-49.9	23.1	6.03e-01	0	41	0	310902784	65	5094
2026-01-10 02:33:18.74	319.12	28.17	-47.2	-50.2	22.9	6.00e-01	0	40	0	312999936	65	5238
2026-01-10 02:33:19.45	318.86	28.22	-47.1	-50.1	22.9	6.03e-01	0	41	0	314572800	65	5213
2026-01-10 02:33:20.74	318.39	28.30	-47.0	-49.9	23.2	6.03e-01	0	41	0	317194240	65	5052
2026-01-10 02:33:21.51	318.11	28.35	-47.0	-50.0	23.1	6.03e-01	0	41	0	318242816	65	5113
2026-01-10 02:33:22.80	317.63	28.42	-46.9	-49.9	23.2	6.02e-01	0	41	0	320864256	65	5066
2026-01-10 02:33:23.51	317.36	28.47	-47.0	-50.1	23.0	6.02e-01	0	41	0	321912832	65	5170
2026-01-10 02:33:24.82	316.87	28.54	-47.1	-50.1	23.0	6.01e-01	0	41	0	324534272	65	5176
2026-01-10 02:33:25.66	316.56	28.59	-47.0	-49.9	23.2	5.99e-01	0	41	0	326107136	65	5064
2026-01-10 02:33:27.11	316.01	28.67	-47.1	-50.0	23.0	6.03e-01	0	41	0	328728576	65	5148
2026-01-10 02:33:27.83	315.74	28.71	-47.2	-50.2	22.9	6.00e-01	0	41	0	330301440	65	5220
2026-01-10 02:33:29.12	315.25	28.77	-47.1	-50.1	23.0	6.05e-01	0	41	0	332398592	65	5190
2026-01-10 02:33:29.84	314.98	28.81	-47.1	-50.0	23.1	6.03e-01	0	41	0	333971456	65	5111
2026-01-10 02:33:31.13	314.49	28.87	-47.2	-50.2	23.0	6.01e-01	0	41	0	336592896	65	5224
2026-01-10 02:33:31.89	314.19	28.91	-47.1	-50.0	23.1	6.00e-01	0	41	0	337641472	65	5130
2026-01-10 02:33:33.18	313.70	28.97	-47.1	-50.0	23.1	6.03e-01	0	41	0	340262912	65	5109
2026-01-10 02:33:33.96	313.40	29.01	-47.5	-50.4	22.7	6.02e-01	0	40	0	341835776	65	5368
2026-01-10 02:33:35.14	312.94	29.06	-47.0	-49.8	23.3	6.01e-01	0	40	0	343932928	65	5009
2026-01-10 02:33:36.00	312.61	29.10	-47.3	-50.2	22.8	6.04e-01	0	41	0	345505792	65	5242
2026-01-10 02:33:37.15	312.16	29.14	-47.7	-50.7	22.4	6.01e-01	0	41	0	347602944	66	5244
2026-01-10 02:33:38.01	311.83	29.18	-46.8	-49.5	23.6	6.00e-01	0	41	0	349175808	65	4826
2026-01-10 02:33:39.15	311.38	29.22	-47.1	-49.8	23.2	6.03e-01	0	40	0	351272960	65	5021
2026-01-10 02:33:40.01	311.04	29.25	-47.6	-50.4	22.7	6.01e-01	0	41	0	352845824	65	5394
2026-01-10 02:33:41.16	310.59	29.30	-47.0	-49.7	23.3	6.01e-01	0	41	0	355467264	65	4973
2026-01-10 02:33:42.02	310.25	29.33	-47.6	-50.5	22.5	6.01e-01	0	41	0	357040128	66	5122
2026-01-10 02:33:43.16	309.80	29.36	-47.9	-50.9	22.2	6.01e-01	0	41	0	359137280	66	5382
2026-01-10 02:33:44.02	309.46	29.39	-47.2	-50.0	23.1	6.02e-01	0	41	0	360710144	66	4817
2026-01-10 02:33:45.16	309.01	29.43	-47.3	-50.1	23.0	6.01e-01	0	41	0	362807296	66	4879
2026-01-10 02:33:46.10	308.64	29.45	-48.1	-51.1	22.0	6.05e-01	0	41	0	364380160	66	5521
2026-01-10 02:33:47.28	308.17	29.48	-47.6	-50.4	22.7	6.07e-01	0	41	0	367001600	66	5068
2026-01-10 02:33:48.14	307.83	29.51	-47.2	-49.8	23.2	6.04e-01	0	41	0	368574464	66	4750
2026-01-10 02:33:49.51	307.28	29.54	-47.3	-50.0	22.9	6.04e-01	0	41	0	370671616	66	4848
2026-01-10 02:33:50.23	306.99	29.56	-47.3	-49.9	23.2	6.04e-01	0	41	0	372244480	65	5091
2026-01-10 02:33:51.72	306.40	29.59	-47.3	-50.0	23.1	6.03e-01	0	41	0	374865920	65	5113
2026-01-10 02:33:52.44	306.11	29.60	-47.7	-50.5	22.5	6.02e-01	0	41	0	376438784	67	4834
2026-01-10 02:33:53.84	305.54	29.63	-47.7	-50.7	22.3	6.01e-01	0	41	0	379060224	66	5232
2026-01-10 02:33:54.55	305.26	29.64	-46.9	-49.6	23.5	5.99e-01	0	41	0	380108800	65	4895
2026-01-10 02:33:55.85	304.74	29.66	-46.9	-49.6	23.3	6.05e-01	0	41	0	382730240	65	4924
2026-01-10 02:33:56.56	304.45	29.67	-47.4	-50.3	22.9	6.01e-01	0	41	0	384303104	65	5322
2026-01-10 02:33:57.85	303.93	29.68	-47.0	-49.7	23.4	6.01e-01	0	41	0	386400256	66	4698
2026-01-10 02:33:58.56	303.64	29.69	-48.2	-51.4	21.7	6.02e-01	0	41	0	387973120	67	5372
2026-01-10 02:33:59.85	303.12	29.70	-47.8	-50.8	22.3	6.04e-01	0	41	0	390070272	66	5333
2026-01-10 02:34:00.57	302.83	29.70	-46.7	-49.3	23.4	6.05e-01	0	41	0	391643136	65	4759
2026-01-10 02:34:01.86	302.31	29.71	-47.3	-50.2	22.7	6.01e-01	0	40	0	394264576	66	4934
2026-01-10 02:34:02.58	302.02	29.71	-47.5	-50.5	22.7	6.03e-01	0	41	0	395313152	65	5408
2026-01-10 02:34:03.87	301.50	29.71	-47.5	-50.4	22.8	6.01e-01	0	41	0	397934592	66	5066
2026-01-10 02:34:04.71	301.16	29.71	-47.1	-49.9	23.2	6.06e-01	0	41	0	399507456	66	4810
2026-01-10 02:34:05.86	300.69	29.71	-46.9	-49.6	23.4	6.02e-01	0	41	0	401604608	65	4874
2026-01-10 02:34:06.72	300.35	29.71	-47.8	-50.8	22.2	6.00e-01	0	41	0	403177472	66	5332
2026-01-10 02:34:07.86	299.88	29.71	-47.8	-50.8	22.4	6.02e-01	0	41	0	405274624	66	5287
2026-01-10 02:34:08.72	299.54	29.70	-47.7	-50.6	22.6	6.02e-01	0	40	0	406847488	66	5172
2026-01-10 02:34:09.87	299.07	29.69	-47.6	-50.4	22.7	6.01e-01	0	41	0	408944640	66	5083
2026-01-10 02:34:10.73	298.72	29.69	-47.5	-50.3	22.7	6.04e-01	0	40	0	410517504	67	4712
2026-01-10 02:34:11.87	298.26	29.67	-47.8	-50.7	22.5	6.02e-01	0	41	0	412614656	66	5233
2026-01-10 02:34:12.73	297.92	29.66	-47.3	-49.9	23.2	6.03e-01	0	41	0	414711808	66	4799
2026-01-10 02:34:13.99	297.41	29.65	-47.4	-50.1	23.0	6.01e-01	0	40	0	416808960	66	4878
2026-01-10 02:34:14.71	297.12	29.63	-47.7	-50.5	22.6	6.02e-01	0	41	0	418381824	66	5157
2026-01-10 02:34:15.99	296.61	29.61	-47.8	-50.6	22.5	6.02e-01	0	41	0	420478976	66	5207
2026-01-10 02:34:16.71	296.32	29.60	-47.4	-50.1	23.0	6.01e-01	0	41	0	422051840	66	4911
2026-01-10 02:34:18.00	295.80	29.58	-47.4	-50.1	22.9	6.03e-01	0	41	0	424148992	66	4924
2026-01-10 02:34:18.72	295.51	29.56	-47.5	-50.2	22.9	6.02e-01	0	41	0	425721856	66	4966
2026-01-10 02:34:20.01	294.99	29.53	-47.4	-50.1	22.9	6.01e-01	0	40	0	427819008	66	4910
2026-01-10 02:34:20.72	294.71	29.51	-48.0	-50.9	22.3	6.03e-01	0	41	0	429391872	66	5395
2026-01-10 02:34:22.01	294.20	29.48	-47.6	-50.3	22.8	6.06e-01	0	41	0	432013312	66	5033
2026-01-10 02:34:22.73	293.91	29.46	-48.3	-51.5	21.7	6.02e-01	0	41	0	433061888	67	5408
2026-01-10 02:34:24.02	293.40	29.42	-47.9	-50.8	22.3	6.01e-01	0	41	0	435683328	67	5025
2026-01-10 02:34:24.73	293.11	29.40	-48.6	-51.7	21.4	6.02e-01	0	41	0	436731904	68	5277
2026-01-10 02:34:26.03	292.60	29.36	-48.4	-51.7	21.5	6.05e-01	0	41	0	439353344	67	5583
2026-01-10 02:34:26.74	292.32	29.34	-47.5	-50.4	22.6	6.01e-01	0	41	0	440926208	67	4795
2026-01-10 02:34:28.03	291.81	29.29	-48.0	-51.1	21.9	6.01e-01	0	41	0	443023360	67	5211
2026-01-10 02:34:28.75	291.53	29.27	-47.4	-50.2	22.8	6.03e-01	0	41	0	444596224	66	4978
2026-01-10 02:34:30.04	291.02	29.22	-47.7	-50.5	22.4	6.04e-01	0	41	0	446693376	67	4859
2026-01-10 02:34:30.75	290.74	29.19	-48.0	-50.9	22.3	6.04e-01	0	41	0	448266240	66	5341
2026-01-10 02:34:32.05	290.24	29.14	-47.3	-49.9	23.1	6.02e-01	0	41	0	450887680	66	4778
2026-01-10 02:34:32.76	289.96	29.11	-47.9	-50.8	22.2	6.01e-01	0	41	0	451936256	66	5332
2026-01-10 02:34:34.05	289.46	29.06	-47.3	-50.0	23.0	6.01e-01	0	41	0	454557696	66	4836
2026-01-10 02:34:34.77	289.18	29.02	-48.4	-51.7	21.5	6.05e-01	0	41	0	455606272	67	5563
2026-01-10 02:34:36.06	288.68	28.96	-47.2	-50.0	23.0	6.02e-01	0	40	0	458227712	66	4830
2026-01-10 02:34:36.77	288.41	28.93	-48.4	-51.7	21.5	6.04e-01	0	41	0	459276288	67	5531
2026-01-10 02:34:38.08	287.90	28.87	-47.3	-50.0	23.0	6.04e-01	0	41	0	461897728	66	4853
2026-01-10 02:34:38.80	287.63	28.83	-48.4	-51.5	21.7	6.01e-01	0	41	0	463470592	67	5403
2026-01-10 02:34:40.13	287.12	28.76	-48.2	-51.2	22.0	6.02e-01	0	40	0	466092032	67	5220
2026-01-10 02:34:40.85	286.85	28.73	-48.6	-51.8	21.2	6.00e-01	0	41	0	467140608	67	5655
2026-01-10 02:34:42.14	286.36	28.66	-48.4	-51.5	21.6	6.04e-01	0	41	0	469762048	67	5406
2026-01-10 02:34:43.17	285.97	28.60	-48.7	-51.8	21.3	6.03e-01	0	41	0	471334912	69	5022
2026-01-10 02:34:44.17	285.59	28.55	-47.8	-50.6	22.5	6.01e-01	0	41	0	473432064	67	4884
2026-01-10 02:34:45.17	285.22	28.49	-48.8	-51.9	21.2	6.03e-01	0	41	0	475004928	68	5392
2026-01-10 02:34:46.17	284.85	28.43	-48.1	-51.0	22.2	6.01e-01	0	41	0	477102080	68	4821
2026-01-10 02:34:47.18	284.47	28.37	-48.7	-51.9	21.3	6.02e-01	0	41	0	479199232	68	5365
2026-01-10 02:34:48.18	284.10	28.31	-48.3	-51.4	21.8	6.01e-01	0	41	0	480772096	68	5058
2026-01-10 02:34:49.18	283.73	28.25	-48.7	-51.9	21.3	6.03e-01	0	41	0	482869248	68	5389
2026-01-10 02:34:50.18	283.36	28.18	-48.1	-51.1	22.1	6.04e-01	0	40	0	484442112	68	4871
2026-01-10 02:34:51.25	282.97	28.12	-48.4	-51.5	21.7	6.02e-01	0	41	0	486539264	68	5116
2026-01-10 02:34:52.11	282.66	28.06	-48.2	-51.2	22.0	6.02e-01	0	41	0	488112128	68	4938
2026-01-10 02:34:53.50	282.15	27.97	-48.4	-51.4	21.8	6.03e-01	0	41	0	490733568	68	5068
2026-01-10 02:34:54.21	281.90	27.92	-48.5	-51.6	21.6	5.99e-01	0	41	0	492306432	68	5185
2026-01-10 02:34:55.50	281.43	27.83	-47.9	-50.7	22.4	6.01e-01	0	41	0	494403584	67	4967
2026-01-10 02:34:56.22	281.18	27.78	-48.0	-50.9	22.2	6.03e-01	0	41	0	495976448	67	5088
2026-01-10 02:34:57.51	280.72	27.69	-48.2	-51.2	22.0	6.02e-01	0	41	0	498597888	67	5238
2026-01-10 02:34:58.23	280.46	27.64	-48.2	-51.1	22.0	6.01e-01	0	41	0	499646464	67	5204
2026-01-10 02:34:59.85	279.89	27.52	-48.2	-51.2	21.9	6.06e-01	0	41	0	502792192	67	5258
2026-01-10 02:35:00.42	279.69	27.48	-48.1	-51.1	22.0	6.03e-01	0	41	0	503840768	67	5171
2026-01-10 02:35:02.00	279.14	27.36	-48.1	-51.0	22.0	6.01e-01	0	41	0	506986496	67	5115
2026-01-10 02:35:02.60	278.93	27.31	-48.0	-51.0	22.1	6.01e-01	0	41	0	508035072	67	5108
2026-01-10 02:35:04.18	278.39	27.19	-48.4	-51.5	21.7	6.01e-01	0	41	0	510656512	67	5423
2026-01-10 02:35:04.91	278.13	27.14	-48.3	-51.3	21.8	6.01e-01	0	41	0	512229376	67	5293
2026-01-10 02:35:06.20	277.69	27.03	-48.5	-51.5	21.7	6.05e-01	0	41	0	514850816	67	5429
2026-01-10 02:35:06.91	277.45	26.98	-48.6	-51.7	21.5	6.03e-01	0	41	0	515899392	67	5534
2026-01-10 02:35:08.20	277.02	26.87	-48.0	-50.9	22.2	6.01e-01	0	41	0	518520832	67	5056
2026-01-10 02:35:09.18	276.69	26.80	-48.3	-51.3	21.9	6.00e-01	0	41	0	520093696	67	5297
2026-01-10 02:35:10.50	276.25	26.69	-48.4	-51.5	21.6	6.02e-01	0	41	0	522715136	67	5447
2026-01-10 02:35:11.21	276.01	26.63	-48.3	-51.3	21.8	6.00e-01	0	41	0	524288000	67	5300
2026-01-10 02:35:12.50	275.59	26.52	-48.1	-51.1	22.0	6.02e-01	0	41	0	526385152	67	5191
2026-01-10 02:35:13.22	275.35	26.46	-48.4	-51.4	21.7	6.02e-01	0	41	0	527958016	67	5393
2026-01-10 02:35:14.51	274.93	26.35	-48.3	-51.3	21.8	6.01e-01	0	41	0	530055168	67	5325
2026-01-10 02:35:15.23	274.69	26.29	-48.2	-51.2	21.9	6.03e-01	0	41	0	531628032	67	5269
2026-01-10 02:35:16.52	274.28	26.18	-48.3	-51.3	21.8	6.02e-01	0	41	0	534249472	67	5334
2026-01-10 02:35:17.23	274.05	26.11	-48.3	-51.4	21.8	6.03e-01	0	41	0	535298048	67	5361
2026-01-10 02:35:18.52	273.64	26.00	-48.7	-51.9	21.3	6.00e-01	0	41	0	537919488	67	5674
2026-01-10 02:35:19.24	273.41	25.94	-48.6	-51.7	21.5	5.99e-01	0	41	0	538968064	68	5276
2026-01-10 02:35:20.53	273.00	25.82	-48.3	-51.3	21.9	6.03e-01	0	41	0	541589504	68	5003
2026-01-10 02:35:21.25	272.78	25.76	-48.4	-51.3	21.8	5.98e-01	0	41	0	543162368	68	5040
2026-01-10 02:35:22.54	272.37	25.64	-48.8	-51.9	21.4	6.03e-01	0	41	0	545259520	68	5373
2026-01-10 02:35:23.25	272.15	25.58	-49.0	-52.2	21.0	6.04e-01	0	41	0	546832384	68	5568
2026-01-10 02:35:24.54	271.76	25.46	-49.0	-52.3	21.0	6.01e-01	0	41	0	548929536	68	5597
2026-01-10 02:35:25.26	271.54	25.39	-48.7	-51.8	21.3	6.02e-01	0	41	0	550502400	68	5311
2026-01-10 02:35:26.55	271.14	25.27	-48.7	-51.9	21.4	6.01e-01	0	41	0	552599552	68	5348
2026-01-10 02:35:27.26	270.93	25.21	-48.7	-51.9	21.3	6.00e-01	0	41	0	554172416	68	5401
2026-01-10 02:35:28.55	270.54	25.09	-48.5	-51.7	21.5	6.03e-01	0	41	0	556793856	68	5239
2026-01-10 02:35:29.27	270.32	25.02	-48.4	-51.5	21.7	6.00e-01	0	41	0	557842432	68	5123
2026-01-10 02:35:30.57	269.94	24.90	-48.3	-51.4	21.7	6.01e-01	0	41	0	560463872	68	5085
2026-01-10 02:35:31.29	269.73	24.83	-48.4	-51.6	21.6	6.00e-01	0	41	0	561512448	68	5183
2026-01-10 02:35:32.64	269.33	24.70	-48.4	-51.7	21.5	6.02e-01	0	41	0	564133888	68	5224
2026-01-10 02:35:33.36	269.12	24.63	-48.3	-51.5	21.7	5.98e-01	0	41	0	565706752	68	5103
2026-01-10 02:35:34.65	268.75	24.51	-48.5	-51.6	21.6	6.02e-01	0	41	0	567803904	68	5187
2026-01-10 02:35:35.37	268.54	24.44	-48.5	-51.6	21.6	6.04e-01	0	41	0	569376768	68	5179
2026-01-10 02:35:36.78	268.14	24.30	-48.8	-52.0	21.2	6.02e-01	0	41	0	571998208	68	5435
2026-01-10 02:35:37.50	267.93	24.23	-48.7	-51.9	21.3	6.03e-01	0	41	0	573571072	68	5391
2026-01-10 02:35:38.79	267.57	24.11	-48.6	-51.7	21.5	6.04e-01	0	41	0	575668224	68	5264
2026-01-10 02:35:39.51	267.37	24.04	-48.6	-51.6	21.6	6.00e-01	0	41	0	577241088	68	5206
2026-01-10 02:35:40.80	267.01	23.91	-48.5	-51.6	21.5	6.05e-01	0	41	0	579338240	68	5212
2026-01-10 02:35:41.52	266.81	23.84	-48.5	-51.6	21.5	6.00e-01	0	41	0	580911104	68	5217
2026-01-10 02:35:42.81	266.46	23.71	-48.5	-51.5	21.6	6.02e-01	0	41	0	583532544	68	5159
2026-01-10 02:35:43.52	266.26	23.64	-48.5	-51.6	21.6	6.02e-01	0	41	0	584581120	68	5179
2026-01-10 02:35:44.81	265.91	23.52	-48.6	-51.8	21.4	6.02e-01	0	41	0	587202560	68	5304
2026-01-10 02:35:45.53	265.72	23.44	-48.6	-51.8	21.4	6.01e-01	0	41	0	588251136	68	5307
2026-01-10 02:35:46.82	265.37	23.31	-48.4	-51.5	21.7	6.02e-01	0	41	0	590872576	68	5105
2026-01-10 02:35:47.66	265.15	23.23	-48.6	-51.6	21.6	6.04e-01	0	41	0	592445440	68	5203
2026-01-10 02:35:49.13	264.76	23.08	-48.7	-51.8	21.4	6.01e-01	0	41	0	595066880	68	5327
2026-01-10 02:35:49.84	264.58	23.01	-48.7	-51.9	21.0	6.01e-01	0	41	0	596639744	68	5364
2026-01-10 02:35:51.14	264.24	22.88	-48.6	-51.7	21.5	6.02e-01	0	41	0	598736896	68	5248
2026-01-10 02:35:51.85	264.06	22.81	-48.5	-51.7	21.4	6.01e-01	0	41	0	600309760	68	5257
2026-01-10 02:35:53.14	263.73	22.68	-48.4	-51.6	21.6	6.01e-01	0	41	0	602931200	68	5188
2026-01-10 02:35:53.90	263.53	22.60	-48.4	-51.6	21.6	6.04e-01	0	41	0	603979776	68	5160
2026-01-10 02:35:55.19	263.21	22.47	-48.5	-51.7	21.5	6.02e-01	0	41	0	606601216	68	5256
2026-01-10 02:35:55.91	263.03	22.40	-48.6	-51.8	21.4	6.01e-01	0	41	0	607649792	68	5294
2026-01-10 02:35:57.20	262.71	22.27	-48.4	-51.5	21.6	6.04e-01	0	41	0	610271232	68	5159
2026-01-10 02:35:57.91	262.53	22.20	-48.4	-51.5	21.6	6.05e-01	0	41	0	611844096	68	5152
2026-01-10 02:35:59.20	262.21	22.07	-48.4	-51.5	21.6	6.02e-01	0	41	0	613941248	68	5159
2026-01-10 02:35:59.92	262.04	21.99	-48.3	-51.4	21.8	6.03e-01	0	41	0	615514112	68	5072
2026-01-10 02:36:01.21	261.73	21.86	-48.2	-51.3	21.8	6.01e-01	0	41	0	617611264	68	5031
2026-01-10 02:36:02.20	261.49	21.76	-48.4	-51.5	21.6	6.01e-01	0	41	0	619708416	68	5138
2026-01-10 02:36:03.20	261.25	21.66	-48.5	-51.7	21.5	6.02e-01	0	41	0	621805568	68	5240
2026-01-10 02:36:04.20	261.01	21.56	-48.4	-51.6	21.5	6.01e-01	0	41	0	623378432	68	5196
2026-01-10 02:36:05.20	260.78	21.45	-48.3	-51.4	21.7	6.02e-01	0	41	0	625475584	68	5070
2026-01-10 02:36:06.21	260.54	21.35	-48.3	-51.4	21.7	6.01e-01	0	41	0	627048448	68	5073
2026-01-10 02:36:07.20	260.31	21.25	-48.4	-51.5	21.7	6.00e-01	0	41	0	629145600	68	5121
2026-01-10 02:36:08.21	260.08	21.15	-48.5	-51.7	21.5	6.02e-01	0	41	0	630718464	68	5232
2026-01-10 02:36:09.21	259.85	21.04	-48.5	-51.6	21.5	6.01e-01	0	41	0	632815616	68	5217
2026-01-10 02:36:10.25	259.61	20.94	-48.4	-51.5	21.7	6.01e-01	0	41	0	634912768	68	5101
2026-01-10 02:36:11.29	259.38	20.83	-48.3	-51.3	21.8	6.03e-01	0	41	0	636485632	68	5019
2026-01-10 02:36:12.17	259.18	20.74	-48.3	-51.4	21.7	6.02e-01	0	41	0	638582784	68	5069
2026-01-10 02:36:13.51	258.88	20.60	-48.4	-51.6	21.5	6.02e-01	0	41	0	640679936	68	5204
2026-01-10 02:36:14.22	258.73	20.53	-48.4	-51.6	21.6	6.02e-01	0	41	0	642252800	68	5190
2026-01-10 02:36:15.71	258.40	20.38	-48.2	-51.3	21.7	6.00e-01	0	41	0	644874240	68	5036
2026-01-10 02:36:16.42	258.25	20.31	-48.2	-51.3	21.8	6.03e-01	0	41	0	646447104	68	5019
2026-01-10 02:36:17.80	257.95	20.17	-48.3	-51.4	21.7	6.04e-01	0	41	0	649068544	68	5066
2026-01-10 02:36:18.51	257.80	20.09	-48.3	-51.4	21.7	6.02e-01	0	41	0	650117120	68	5059
2026-01-10 02:36:19.80	257.52	19.96	-48.3	-51.4	21.7	6.01e-01	0	41	0	652738560	68	5093
2026-01-10 02:36:20.52	257.37	19.89	-48.3	-51.4	21.7	6.01e-01	0	41	0	653787136	68	5063
2026-01-10 02:36:21.80	257.10	19.76	-48.3	-51.4	20.7	6.01e-01	0	41	0	656408576	68	5071
2026-01-10 02:36:22.52	256.95	19.68	-48.3	-51.4	21.7	6.00e-01	0	41	0	657981440	68	5096
2026-01-10 02:36:23.81	256.68	19.55	-48.4	-51.6	21.5	6.04e-01	0	41	0	660078592	68	5209
2026-01-10 02:36:24.52	256.54	19.48	-48.5	-51.7	21.4	6.05e-01	0	41	0	661651456	68	5246
2026-01-10 02:36:25.81	256.28	19.35	-48.4	-51.5	21.6	6.03e-01	0	41	0	663748608	68	5119
2026-01-10 02:36:26.53	256.13	19.28	-48.2	-51.2	21.9	6.02e-01	0	41	0	665321472	68	4968
2026-01-10 02:36:27.82	255.87	19.15	-48.3	-51.3	21.8	5.99e-01	0	41	0	667418624	68	5000
2026-01-10 02:36:28.65	255.71	19.06	-48.3	-51.3	21.8	6.04e-01	0	41	0	669515776	68	5015
2026-01-10 02:36:30.13	255.41	18.91	-48.4	-51.5	21.6	6.02e-01	0	41	0	672137216	68	5127
2026-01-10 02:36:31.26	255.19	18.80	-48.4	-51.5	21.6	6.01e-01	0	41	0	674234368	68	5138
2026-01-10 02:36:32.12	255.02	18.71	-48.4	-51.6	21.5	6.04e-01	0	41	0	675807232	68	5174
2026-01-10 02:36:33.26	254.80	18.60	-48.3	-51.4	21.7	6.00e-01	0	41	0	677904384	68	5063
2026-01-10 02:36:34.12	254.64	18.51	-48.3	-51.4	21.6	6.05e-01	0	41	0	679477248	68	5088
2026-01-10 02:36:35.33	254.41	18.39	-48.3	-51.4	21.7	6.04e-01	0	41	0	681574400	68	5095
2026-01-10 02:36:36.19	254.24	18.30	-48.3	-51.4	21.7	6.02e-01	0	41	0	683671552	68	5065
2026-01-10 02:36:37.40	254.02	18.18	-48.3	-51.4	21.6	6.01e-01	0	41	0	685768704	68	5083
2026-01-10 02:36:38.26	253.86	18.10	-48.3	-51.4	21.6	6.03e-01	0	41	0	687341568	68	5081
2026-01-10 02:36:39.41	253.64	17.98	-48.3	-51.4	21.7	6.02e-01	0	41	0	689438720	68	5073
2026-01-10 02:36:40.27	253.49	17.90	-48.4	-51.4	21.7	6.04e-01	0	41	0	691011584	68	5075
2026-01-10 02:36:41.41	253.28	17.78	-48.4	-51.4	21.6	6.01e-01	0	41	0	693108736	68	5082
2026-01-10 02:36:42.27	253.12	17.70	-48.4	-51.4	21.7	6.04e-01	0	41	0	694681600	68	5085
2026-01-10 02:36:43.61	252.88	17.56	-48.4	-51.5	21.6	6.01e-01	0	41	0	697303040	68	5110
2026-01-10 02:36:44.32	252.75	17.49	-48.4	-51.5	21.6	6.05e-01	0	41	0	698875904	68	5123
2026-01-10 02:36:45.61	252.53	17.37	-48.3	-51.4	21.7	6.02e-01	0	41	0	700973056	68	5063
2026-01-10 02:36:46.33	252.40	17.29	-48.3	-51.4	21.6	6.02e-01	0	41	0	702545920	68	5087
2026-01-10 02:36:47.62	252.17	17.17	-48.4	-51.6	21.5	6.05e-01	0	41	0	704643072	68	5186
2026-01-10 02:36:48.33	252.05	17.10	-48.4	-51.6	21.4	6.04e-01	0	41	0	706215936	68	5173
2026-01-10 02:36:49.63	251.83	16.97	-48.5	-51.6	21.4	6.02e-01	0	41	0	708313088	68	5214
2026-01-10 02:36:50.34	251.70	16.90	-48.3	-51.4	21.6	6.03e-01	0	41	0	709885952	68	5087
2026-01-10 02:36:51.63	251.49	16.77	-48.3	-51.3	21.8	6.02e-01	0	41	0	712507392	68	5001
2026-01-10 02:36:52.35	251.36	16.70	-48.3	-51.3	21.8	6.06e-01	0	41	0	713555968	68	4993
2026-01-10 02:36:53.65	251.15	16.58	-48.3	-51.3	21.8	6.02e-01	0	41	0	716177408	68	5005
2026-01-10 02:36:54.37	251.03	16.51	-48.4	-51.4	21.6	6.03e-01	0	41	0	717225984	68	5075
2026-01-10 02:36:55.66	250.81	16.38	-48.4	-51.5	21.6	6.00e-01	0	41	0	719847424	68	5101
2026-01-10 02:36:56.73	250.64	16.28	-48.4	-51.4	21.6	6.01e-01	0	41	0	721944576	68	5088
2026-01-10 02:36:57.59	250.50	16.20	-48.4	-51.4	21.6	6.04e-01	0	41	0	723517440	68	5088
2026-01-10 02:36:58.73	250.31	16.09	-48.4	-51.5	21.6	6.01e-01	0	41	0	725614592	68	5106
2026-01-10 02:36:59.59	250.17	16.00	-48.5	-51.6	21.5	6.01e-01	0	41	0	727187456	68	5183
2026-01-10 02:37:00.74	249.99	15.89	-48.5	-51.7	21.4	6.02e-01	0	41	0	729284608	68	5251
2026-01-10 02:37:01.60	249.85	15.81	-48.5	-51.6	21.4	6.01e-01	0	41	0	730857472	68	5214
2026-01-10 02:37:02.74	249.68	15.70	-48.5	-51.6	21.4	6.02e-01	0	41	0	732954624	68	5171
2026-01-10 02:37:03.60	249.54	15.62	-48.5	-51.6	21.4	6.04e-01	0	41	0	735051776	68	5198
2026-01-10 02:37:04.93	249.33	15.49	-48.4	-51.5	21.5	6.02e-01	0	41	0	737148928	68	5117
2026-01-10 02:37:05.65	249.22	15.42	-48.4	-51.5	21.5	6.03e-01	0	41	0	738721792	68	5128
2026-01-10 02:37:06.94	249.03	15.30	-48.4	-51.5	21.5	6.02e-01	0	41	0	741343232	68	5134
2026-01-10 02:37:07.66	248.92	15.23	-48.4	-51.5	21.5	6.02e-01	0	41	0	742391808	68	5116
2026-01-10 02:37:08.95	248.72	15.11	-48.4	-51.6	21.4	6.02e-01	0	41	0	745013248	68	5168
2026-01-10 02:37:09.67	248.62	15.04	-48.5	-51.6	21.3	6.02e-01	0	41	0	746061824	68	5212
2026-01-10 02:37:10.96	248.42	14.92	-48.6	-51.7	21.3	6.02e-01	0	41	0	748683264	68	5252
2026-01-10 02:37:11.67	248.32	14.86	-48.5	-51.6	21.4	6.02e-01	0	41	0	749731840	68	5211
2026-01-10 02:37:12.96	248.13	14.74	-48.6	-51.7	21.3	6.02e-01	0	41	0	752353280	68	5241
2026-01-10 02:37:13.68	248.02	14.67	-48.6	-51.8	21.2	6.02e-01	0	41	0	753926144	68	5281
2026-01-10 02:37:14.97	247.84	14.55	-48.6	-51.7	21.3	6.01e-01	0	41	0	756023296	68	5257
2026-01-10 02:37:15.68	247.74	14.48	-48.4	-51.4	21.5	6.03e-01	0	41	0	757596160	68	5091
2026-01-10 02:37:17.08	247.54	14.35	-48.4	-51.4	21.6	6.02e-01	0	41	0	760217600	68	5063
2026-01-10 02:37:18.07	247.39	14.26	-48.4	-51.5	21.5	6.04e-01	0	41	0	761790464	68	5105
2026-01-10 02:37:19.40	247.21	14.14	-48.5	-51.6	21.3	6.04e-01	0	41	0	764411904	68	5194
2026-01-10 02:37:20.11	247.11	14.07	-48.5	-51.7	21.3	6.04e-01	0	41	0	765984768	68	5225
2026-01-10 02:37:21.75	246.88	13.92	-48.6	-51.8	21.2	6.04e-01	0	41	0	768606208	68	5294
2026-01-10 02:37:22.33	246.80	13.87	-48.6	-51.7	21.2	6.03e-01	0	41	0	770179072	68	5267
2026-01-10 02:37:23.93	246.58	13.73	-48.5	-51.7	21.2	6.03e-01	0	41	0	772800512	68	5258
2026-01-10 02:37:24.51	246.51	13.67	-48.5	-51.7	21.2	6.02e-01	0	41	0	773849088	68	5271
2026-01-10 02:37:26.08	246.29	13.53	-48.4	-51.6	21.4	6.01e-01	0	41	0	776994816	68	5164
2026-01-10 02:37:26.79	246.20	13.47	-48.4	-51.5	21.4	6.00e-01	0	41	0	778043392	68	5115
2026-01-10 02:37:28.08	246.03	13.35	-48.4	-51.5	21.5	6.05e-01	0	41	0	780664832	68	5116
2026-01-10 02:37:28.80	245.93	13.29	-48.4	-51.5	21.4	6.03e-01	0	41	0	782237696	68	5141
2026-01-10 02:37:30.08	245.77	13.17	-48.5	-51.7	21.3	6.03e-01	0	41	0	784334848	68	5220
2026-01-10 02:37:30.80	245.67	13.11	-48.5	-51.7	21.2	6.03e-01	0	41	0	785907712	68	5262
2026-01-10 02:37:32.13	245.50	12.99	-48.8	-52.0	20.9	6.00e-01	0	41	0	788529152	68	5445
2026-01-10 02:37:32.85	245.41	12.92	-48.7	-51.9	21.0	6.03e-01	0	41	0	789577728	68	5401
2026-01-10 02:37:34.14	245.24	12.81	-48.9	-52.1	20.8	6.03e-01	0	41	0	792199168	68	5512
2026-01-10 02:37:34.86	245.15	12.75	-48.7	-51.9	21.0	6.00e-01	0	41	0	793247744	68	5382
2026-01-10 02:37:36.27	244.98	12.62	-48.6	-51.8	21.1	6.01e-01	0	41	0	795869184	68	5321
2026-01-10 02:37:36.99	244.89	12.56	-48.6	-51.8	21.1	6.02e-01	0	41	0	797442048	68	5313
2026-01-10 02:37:38.28	244.73	12.44	-48.7	-51.9	21.0	6.02e-01	0	41	0	800063488	68	5363
2026-01-10 02:37:39.00	244.64	12.38	-48.7	-51.9	21.0	6.03e-01	0	41	0	801112064	68	5388
2026-01-10 02:37:40.29	244.48	12.27	-48.7	-51.9	21.0	6.04e-01	0	41	0	803733504	68	5359
2026-01-10 02:37:41.01	244.39	12.21	-48.6	-51.8	21.1	5.98e-01	0	41	0	804782080	68	5326
2026-01-10 02:37:42.30	244.24	12.09	-48.7	-51.9	21.0	6.00e-01	0	41	0	807403520	68	5390
2026-01-10 02:37:43.01	244.15	12.03	-48.7	-52.0	20.9	6.03e-01	0	41	0	808452096	68	5415
2026-01-10 02:37:44.30	244.00	11.92	-48.8	-52.1	20.9	6.03e-01	0	41	0	811073536	68	5474
2026-01-10 02:37:45.10	243.90	11.85	-48.8	-52.1	20.8	6.02e-01	0	41	0	812646400	68	5496
2026-01-10 02:37:46.24	243.77	11.75	-48.8	-52.0	20.9	6.00e-01	0	41	0	814743552	68	5457
2026-01-10 02:37:47.31	243.64	11.66	-48.9	-52.2	20.7	6.00e-01	0	41	0	816840704	68	5575
2026-01-10 02:37:48.34	243.52	11.57	-48.9	-52.1	20.8	6.01e-01	0	41	0	818937856	68	5519
2026-01-10 02:37:49.34	243.41	11.49	-48.9	-52.2	20.7	6.01e-01	0	41	0	820510720	68	5547
2026-01-10 02:37:50.34	243.29	11.40	-48.9	-52.1	20.7	6.03e-01	0	41	0	822607872	68	5527
2026-01-10 02:37:51.34	243.18	11.32	-48.9	-52.2	20.7	6.03e-01	0	41	0	824180736	68	5542
2026-01-10 02:37:52.35	243.06	11.23	-48.9	-52.2	20.7	6.03e-01	0	41	0	826277888	68	5564
2026-01-10 02:37:53.35	242.95	11.15	-48.9	-52.3	20.6	6.02e-01	0	41	0	827850752	68	5609
2026-01-10 02:37:54.36	242.84	11.06	-49.0	-52.3	20.5	6.02e-01	0	41	0	829947904	68	5641
2026-01-10 02:37:55.36	242.73	10.98	-49.0	-52.4	20.4	6.03e-01	0	41	0	832045056	68	5718
2026-01-10 02:37:56.37	242.62	10.90	-48.9	-52.2	20.7	6.03e-01	0	41	0	833617920	68	5562
2026-01-10 02:37:57.37	242.51	10.81	-48.9	-52.2	20.6	6.04e-01	0	41	0	835715072	68	5564
2026-01-10 02:37:58.37	242.40	10.73	-48.9	-52.3	20.6	6.03e-01	0	41	0	837287936	68	5597
2026-01-10 02:37:59.37	242.29	10.65	-48.9	-52.3	20.6	6.02e-01	0	41	0	839385088	68	5605
2026-01-10 02:38:00.38	242.18	10.56	-48.9	-52.3	20.5	6.03e-01	0	41	0	841482240	68	5616
2026-01-10 02:38:01.38	242.07	10.48	-49.0	-52.4	20.5	6.01e-01	0	41	0	843055104	68	5666
2026-01-10 02:38:02.38	241.97	10.40	-49.0	-52.4	20.4	6.03e-01	0	41	0	845152256	68	5707
2026-01-10 02:38:03.39	241.86	10.31	-49.1	-52.5	20.4	6.03e-01	0	41	0	846725120	68	5726
2026-01-10 02:38:04.39	241.76	10.23	-48.9	-52.3	20.6	6.01e-01	0	41	0	848822272	68	5600
2026-01-10 02:38:05.39	241.65	10.15	-49.0	-52.4	20.4	6.02e-01	0	41	0	850919424	68	5709
2026-01-10 02:38:06.39	241.55	10.07	-49.1	-52.5	20.3	5.99e-01	0	41	0	852492288	68	5780
2026-01-10 02:38:07.40	241.44	9.99	-49.1	-52.6	20.2	6.03e-01	0	41	0	854589440	68	5810
2026-01-10 02:38:08.40	241.34	9.91	-49.1	-52.6	20.2	6.04e-01	0	41	0	856162304	68	5849
2026-01-10 02:38:09.41	241.24	9.82	-49.2	-52.8	20.0	6.02e-01	0	41	0	858259456	69	5608
2026-01-10 02:38:10.41	241.14	9.74	-49.2	-52.7	20.1	6.01e-01	0	41	0	859832320	69	5573
2026-01-10 02:38:11.41	241.04	9.66	-49.2	-52.7	20.1	6.03e-01	0	41	0	861929472	69	5556
2026-01-10 02:38:12.45	240.93	9.58	-49.2	-52.7	20.1	6.03e-01	0	41	0	864026624	69	5569
2026-01-10 02:38:13.48	240.83	9.50	-49.2	-52.7	20.1	6.02e-01	0	41	0	866123776	69	5566
2026-01-10 02:38:14.48	240.73	9.42	-49.2	-52.6	20.3	6.02e-01	0	41	0	867696640	69	5493
2026-01-10 02:38:15.53	240.63	9.33	-49.0	-52.4	20.4	6.03e-01	0	41	0	869793792	69	5397
2026-01-10 02:38:16.41	240.54	9.26	-49.0	-52.5	20.4	6.02e-01	0	41	0	871366656	69	5404
2026-01-10 02:38:17.55	240.43	9.17	-49.0	-52.5	20.3	5.99e-01	0	41	0	873463808	69	5409
2026-01-10 02:38:18.42	240.35	9.10	-49.1	-52.5	20.3	6.01e-01	0	41	0	875036672	69	5447
2026-01-10 02:38:19.56	240.24	9.01	-50.0	-53.9	19.2	6.00e-01	0	41	0	877133824	70	6033
2026-01-10 02:38:20.42	240.16	8.95	-54.0	-73.2	3.8	7.48e-01	0	41	104	877658112	78	35190
2026-01-10 02:38:21.57	240.05	8.86	-54.3	-74.2	3.8	7.46e-01	0	41	104	877658112	79	37243
2026-01-10 02:38:22.43	239.97	8.79	-54.4	-74.4	3.8	7.49e-01	0	41	104	877658112	79	38039
2026-01-10 02:38:23.58	239.86	8.70	-54.5	-74.5	3.8	7.47e-01	0	41	104	877658112	79	38641
2026-01-10 02:38:24.44	239.78	8.63	-54.4	-74.6	3.8	7.44e-01	0	41	104	877658112	79	39010
2026-01-10 02:38:25.59	239.67	8.54	-54.2	-74.7	3.8	7.47e-01	0	41	104	877658112	79	39325
2026-01-10 02:38:26.45	239.60	8.48	-54.4	-74.7	3.8	7.44e-01	0	41	104	877658112	79	39477
2026-01-10 02:38:27.61	239.49	8.39	-54.3	-74.7	3.8	7.48e-01	0	41	104	877658112	79	39566
2026-01-10 02:38:28.47	239.41	8.32	-54.6	-74.8	3.8	7.44e-01	0	41	104	877658112	79	39642
2026-01-10 02:38:29.70	239.30	8.23	-54.3	-74.8	3.8	7.46e-01	0	41	104	877658112	79	39595
2026-01-10 02:38:30.56	239.22	8.16	-54.4	-74.8	3.8	7.45e-01	0	41	104	877658112	79	39680
2026-01-10 02:38:31.71	239.12	8.07	-54.3	-74.8	3.8	7.44e-01	0	41	104	877658112	79	39737
2026-01-10 02:38:32.57	239.04	8.01	-54.3	-74.8	3.8	7.46e-01	0	41	104	877658112	79	39811
2026-01-10 02:38:33.72	238.94	7.92	-54.2	-74.8	3.8	7.46e-01	0	41	104	877658112	79	39802
2026-01-10 02:38:34.58	238.87	7.86	-54.0	-74.8	3.8	7.45e-01	0	41	104	877658112	79	39800
2026-01-10 02:38:35.73	238.77	7.77	-54.2	-74.8	3.8	7.47e-01	0	41	104	877658112	79	39904
2026-01-10 02:38:36.59	238.69	7.70	-54.2	-74.8	3.8	7.46e-01	0	41	104	877658112	79	39722
2026-01-10 02:38:37.74	238.59	7.62	-54.1	-74.8	3.8	7.45e-01	0	41	104	877658112	79	39780
2026-01-10 02:38:38.60	238.52	7.55	-54.3	-74.8	3.8	7.45e-01	0	41	104	877658112	79	39640
2026-01-10 02:38:39.75	238.42	7.47	-54.4	-74.8	3.8	7.47e-01	0	41	104	877658112	79	39658
2026-01-10 02:38:40.61	238.35	7.40	-54.4	-74.7	3.8	7.47e-01	0	41	104	877658112	79	39585
2026-01-10 02:38:41.75	238.25	7.32	-54.2	-74.7	3.8	7.44e-01	0	41	104	877658112	79	39521
2026-01-10 02:38:42.62	238.18	7.25	-54.2	-74.8	3.8	7.47e-01	0	41	104	877658112	79	39652
2026-01-10 02:38:43.76	238.09	7.17	-54.2	-74.7	3.8	7.46e-01	0	41	104	877658112	79	39471
2026-01-10 02:38:44.62	238.02	7.10	-54.1	-74.7	3.8	7.45e-01	0	41	104	877658112	79	39521
2026-01-10 02:38:45.77	237.92	7.02	-54.2	-74.7	3.8	7.45e-01	0	41	104	877658112	79	39462
2026-01-10 02:38:46.63	237.85	6.96	-54.2	-74.7	3.8	7.48e-01	0	41	104	877658112	79	39327
2026-01-10 02:38:47.78	237.76	6.87	-54.2	-74.7	3.8	7.43e-01	0	41	104	877658112	79	39411
2026-01-10 02:38:48.64	237.69	6.81	-54.1	-74.7	3.8	7.46e-01	0	41	104	877658112	79	39496
2026-01-10 02:38:49.79	237.60	6.73	-54.2	-74.7	3.8	7.46e-01	0	41	104	877658112	79	39421
2026-01-10 02:38:50.65	237.53	6.66	-54.2	-74.7	3.8	7.44e-01	0	41	104	877658112	79	39281
2026-01-10 02:38:51.80	237.44	6.58	-54.1	-74.7	3.8	7.43e-01	0	41	104	877658112	79	39444
2026-01-10 02:38:52.66	237.37	6.52	-54.1	-74.7	3.8	7.46e-01	0	41	104	877658112	79	39387
2026-01-10 02:38:53.80	237.28	6.43	-54.1	-74.7	3.8	7.46e-01	0	41	104	877658112	79	39388
2026-01-10 02:38:54.67	237.21	6.37	-54.1	-74.7	3.8	7.46e-01	0	41	104	877658112	79	39340
2026-01-10 02:38:55.81	237.12	6.29	-54.1	-74.7	3.8	7.45e-01	0	41	104	877658112	79	39337
2026-01-10 02:38:56.67	237.05	6.23	-54.1	-74.7	3.8	7.43e-01	0	41	104	877658112	79	39356
2026-01-10 02:38:57.82	236.97	6.15	-54.1	-74.7	3.8	7.47e-01	0	41	104	877658112	79	39355
2026-01-10 02:38:58.68	236.90	6.08	-54.2	-74.7	3.8	7.43e-01	0	41	104	877658112	79	39239
2026-01-10 02:38:59.83	236.81	6.00	-54.2	-74.7	3.8	7.49e-01	0	41	104	877658112	79	39347
2026-01-10 02:39:00.66	236.75	5.94	-54.2	-74.7	3.8	7.45e-01	0	41	104	877658112	79	39290
2026-01-10 02:39:01.81	236.66	5.86	-54.1	-74.7	3.8	7.46e-01	0	41	104	877658112	79	39335
2026-01-10 02:39:02.67	236.60	5.80	-54.1	-74.7	3.8	7.44e-01	0	41	104	877658112	79	39412
2026-01-10 02:39:03.81	236.52	5.72	-54.2	-74.7	3.8	7.49e-01	0	41	104	877658112	79	39439
2026-01-10 02:39:04.68	236.45	5.66	-54.2	-74.7	3.8	7.48e-01	0	41	104	877658112	79	39297
2026-01-10 02:39:05.82	236.37	5.58	-54.2	-74.7	3.8	7.44e-01	0	42	104	877658112	79	39254
2026-01-10 02:39:06.68	236.30	5.52	-54.2	-74.7	3.8	7.44e-01	0	41	104	877658112	79	39301
2026-01-10 02:39:07.83	236.22	5.44	-54.1	-74.7	3.8	7.49e-01	0	41	104	877658112	79	39256
2026-01-10 02:39:08.69	236.16	5.38	-54.1	-74.7	3.8	7.45e-01	0	41	104	877658112	79	39351
2026-01-10 02:39:09.84	236.08	5.30	-54.1	-74.7	3.8	7.45e-01	0	41	104	877658112	79	39278
2026-01-10 02:39:10.70	236.01	5.24	-54.1	-74.7	3.8	7.45e-01	0	41	104	877658112	79	39215
2026-01-10 02:39:11.85	235.93	5.16	-54.2	-74.7	3.8	7.48e-01	0	41	104	877658112	79	39434
2026-01-10 02:39:12.71	235.87	5.10	-54.1	-74.7	3.8	7.47e-01	0	41	104	877658112	79	39294
2026-01-10 02:39:13.86	235.79	5.02	-54.1	-74.7	3.8	7.42e-01	0	42	104	877658112	79	39351
2026-01-10 02:39:14.72	235.73	4.96	-54.1	-74.7	3.8	7.46e-01	0	41	104	877658112	79	39276

#Closed at: 2026-01-10 02:39:15
#Recorded file [877 MB]: D:/Data/31040_260110_052855.dat