passes_logs/2026/01/10/T1/T1__20260110_010343_FENGYUN_3G_rec.log

#Pass ID: 20260110_010343_FENGYUN 3G
#Satellite: FENGYUN 3G
#Configuration: FENGYUN 3G
#almurnet v.1.7.20251203
#Start time: 2026-01-10 01:03:45

#Version: 2.0.20230620
#Station: T1
#Location: 37.570604 lon 55.790049 lat
#TLE: 1 56232U 23055A   26009.25964270  .00031369  00000+0  49445-3 0  9995
#TLE: 2 56232  49.9935  85.5429 0004254   0.7108 359.3865 15.53213378155304

#Time	Az	El	Level	Level2	SNR	BER	BlckErr	Temp	State	Recorded	gain1	gain2
2026-01-10 01:03:45.37	241.65	5.18	-51.7	-70.4	3.8	8.38e-01	0	42	0	0	75	30212
2026-01-10 01:03:46.37	241.56	5.25	-51.7	-70.4	3.8	8.38e-01	0	42	104	0	75	30200
2026-01-10 01:03:47.37	241.48	5.33	-51.7	-70.4	3.8	8.46e-01	0	42	104	0	75	30251
2026-01-10 01:03:48.38	241.39	5.41	-51.7	-70.5	3.8	8.46e-01	0	42	104	0	75	30488
2026-01-10 01:03:49.38	241.30	5.49	-51.7	-70.5	3.8	8.46e-01	0	42	104	0	75	30539
2026-01-10 01:03:50.39	241.21	5.56	-51.7	-70.5	3.8	8.47e-01	0	42	104	0	75	30621
2026-01-10 01:03:51.39	241.12	5.64	-51.7	-70.5	3.8	8.47e-01	0	42	104	0	75	30574
2026-01-10 01:03:52.39	241.03	5.72	-51.7	-70.5	3.8	8.47e-01	0	42	104	0	75	30633
2026-01-10 01:03:53.40	240.94	5.80	-51.7	-70.5	3.8	8.46e-01	0	42	104	0	75	30509
2026-01-10 01:03:54.40	240.85	5.88	-51.7	-70.5	3.8	8.46e-01	0	42	104	0	75	30392
2026-01-10 01:03:55.41	240.75	5.96	-51.7	-70.4	3.8	8.46e-01	0	42	104	0	75	30170
2026-01-10 01:03:56.41	240.66	6.04	-51.7	-70.3	3.8	8.47e-01	0	42	104	0	75	29892
2026-01-10 01:03:57.42	240.57	6.12	-51.7	-70.3	3.8	8.48e-01	0	42	104	0	75	29715
2026-01-10 01:03:58.42	240.47	6.20	-51.7	-70.3	3.8	8.48e-01	0	42	104	0	75	29808
2026-01-10 01:03:59.42	240.38	6.28	-51.7	-70.3	3.8	8.48e-01	0	42	104	0	75	29889
2026-01-10 01:04:00.43	240.28	6.36	-51.7	-70.4	3.8	8.47e-01	0	42	104	0	75	30273
2026-01-10 01:04:01.43	240.18	6.44	-51.7	-70.4	3.8	8.47e-01	0	42	104	0	75	30340
2026-01-10 01:04:02.44	240.08	6.52	-51.7	-70.4	3.8	8.47e-01	0	42	104	0	75	30244
2026-01-10 01:04:03.44	239.99	6.60	-51.7	-70.4	3.8	8.47e-01	0	42	104	0	75	30113
2026-01-10 01:04:04.45	239.89	6.68	-51.7	-70.4	3.8	8.46e-01	0	42	104	0	75	30125
2026-01-10 01:04:05.45	239.79	6.77	-51.7	-70.4	3.8	8.46e-01	0	42	104	0	75	30260
2026-01-10 01:04:06.45	239.69	6.85	-51.7	-70.5	3.8	8.47e-01	0	42	104	0	75	30399
2026-01-10 01:04:07.46	239.58	6.93	-51.7	-70.5	3.8	8.47e-01	0	42	104	0	75	30477
2026-01-10 01:04:08.46	239.48	7.02	-51.7	-70.4	3.8	8.47e-01	0	42	104	0	75	30288
2026-01-10 01:04:09.47	239.38	7.10	-51.7	-70.3	3.8	8.47e-01	0	42	104	0	75	29972
2026-01-10 01:04:10.47	239.27	7.18	-51.7	-70.2	3.8	8.46e-01	0	42	104	0	75	29649
2026-01-10 01:04:11.47	239.17	7.27	-51.7	-70.2	3.8	8.47e-01	0	42	104	0	75	29377
2026-01-10 01:04:12.48	239.06	7.35	-51.7	-70.1	3.8	8.47e-01	0	42	104	0	75	29072
2026-01-10 01:04:13.48	238.95	7.44	-51.7	-69.9	3.8	8.47e-01	0	42	104	0	75	28665
2026-01-10 01:04:14.49	238.84	7.52	-51.7	-69.8	3.8	8.48e-01	0	42	104	0	75	28215
2026-01-10 01:04:15.49	238.74	7.61	-51.6	-69.5	3.8	8.48e-01	0	42	104	0	75	27142
2026-01-10 01:04:16.50	238.63	7.70	-51.7	-69.2	3.8	8.45e-01	0	42	104	0	75	26442
2026-01-10 01:04:17.50	238.52	7.78	-51.6	-69.2	3.8	8.48e-01	0	42	104	0	75	26402
2026-01-10 01:04:18.51	238.40	7.87	-51.6	-69.5	3.8	8.48e-01	0	42	104	0	75	27384
2026-01-10 01:04:19.51	238.29	7.96	-51.7	-70.0	3.8	8.46e-01	0	42	104	0	75	28866
2026-01-10 01:04:20.52	238.18	8.05	-51.7	-70.3	3.8	8.47e-01	0	42	104	0	75	29995
2026-01-10 01:04:21.52	238.06	8.13	-51.7	-70.4	3.8	8.47e-01	0	42	104	0	75	30044
2026-01-10 01:04:22.52	237.95	8.22	-51.7	-70.0	3.8	8.46e-01	0	42	104	0	75	28915
2026-01-10 01:04:23.53	237.83	8.31	-51.6	-69.6	3.8	8.47e-01	0	42	104	0	75	27589
2026-01-10 01:04:24.53	237.71	8.40	-51.7	-69.5	3.8	8.47e-01	0	42	104	0	75	27308
2026-01-10 01:04:25.54	237.59	8.49	-51.6	-69.2	3.8	8.48e-01	0	42	104	0	75	26405
2026-01-10 01:04:26.54	237.48	8.58	-51.5	-67.0	3.9	8.47e-01	0	42	104	0	75	20532
2026-01-10 01:04:27.55	237.35	8.67	-51.3	-63.0	6.2	7.69e-01	0	42	0	0	74	13670
2026-01-10 01:04:28.55	237.23	8.76	-50.9	-60.0	9.0	7.69e-01	0	42	0	0	73	10276
2026-01-10 01:04:29.56	237.11	8.85	-50.2	-56.9	12.3	9.58e-02	0	42	0	0	72	7604
2026-01-10 01:04:30.56	236.99	8.94	-49.4	-54.9	14.6	8.52e-04	0	42	0	0	70	6731
2026-01-10 01:04:31.57	236.86	9.04	-48.7	-53.4	16.1	8.52e-04	0	42	0	0	69	6026
2026-01-10 01:04:32.57	236.74	9.13	-48.3	-52.6	16.8	1.10e-06	0	42	0	0	68	5811
2026-01-10 01:04:33.58	236.61	9.22	-49.3	-54.5	15.5	0.00e+00	0	42	0	0	69	6831
2026-01-10 01:04:34.58	236.48	9.32	-48.2	-52.5	16.7	0.00e+00	0	42	0	0	68	5724
2026-01-10 01:04:35.74	236.33	9.42	-45.8	-48.7	20.4	1.67e-04	0	42	0	0	63	4962
2026-01-10 01:04:36.63	236.22	9.51	-48.6	-53.1	16.6	0.00e+00	0	42	0	0	67	6566
2026-01-10 01:04:37.68	236.08	9.61	-46.7	-50.0	18.7	1.60e-05	0	42	0	0	65	5153
2026-01-10 01:04:38.72	235.94	9.71	-45.1	-47.9	21.5	1.60e-05	0	42	0	0	62	4763
2026-01-10 01:04:39.87	235.79	9.81	-44.5	-47.1	22.2	0.00e+00	0	42	0	0	60	4896
2026-01-10 01:04:40.73	235.67	9.90	-44.5	-47.0	22.3	0.00e+00	0	42	0	0	60	4863
2026-01-10 01:04:41.88	235.51	10.01	-44.6	-47.2	22.2	0.00e+00	0	42	0	0	60	4935
2026-01-10 01:04:42.74	235.40	10.09	-44.4	-46.9	22.5	0.00e+00	0	42	0	0	60	4763
2026-01-10 01:04:43.89	235.24	10.20	-44.2	-46.7	22.6	0.00e+00	0	42	0	0	60	4705
2026-01-10 01:04:44.75	235.12	10.29	-44.1	-46.6	22.7	0.00e+00	0	42	0	0	60	4611
2026-01-10 01:04:45.89	234.96	10.40	-44.2	-46.7	22.6	0.00e+00	0	42	0	0	60	4700
2026-01-10 01:04:46.75	234.83	10.48	-44.2	-46.7	22.6	0.00e+00	0	42	0	0	60	4662
2026-01-10 01:04:47.90	234.67	10.60	-44.5	-47.0	22.3	0.00e+00	0	42	0	0	60	4837
2026-01-10 01:04:48.75	234.55	10.68	-44.7	-47.2	22.2	0.00e+00	0	42	0	0	60	4969
2026-01-10 01:04:49.90	234.38	10.79	-44.6	-47.2	22.2	0.00e+00	0	42	0	0	60	4945
2026-01-10 01:04:50.76	234.25	10.88	-44.6	-47.2	22.1	0.00e+00	0	42	0	0	60	4956
2026-01-10 01:04:51.91	234.08	11.00	-44.6	-47.1	22.3	0.00e+00	0	42	0	0	60	4911
2026-01-10 01:04:52.77	233.95	11.08	-44.4	-47.0	22.4	0.00e+00	0	42	0	0	60	4822
2026-01-10 01:04:54.03	233.76	11.21	-44.1	-46.5	22.8	0.00e+00	0	42	0	0	60	4594
2026-01-10 01:04:54.76	233.65	11.29	-44.1	-46.6	22.8	0.00e+00	0	42	0	0	59	4886
2026-01-10 01:04:56.24	233.42	11.44	-44.0	-46.4	23.0	0.00e+00	0	42	0	0	59	4797
2026-01-10 01:04:57.25	233.26	11.54	-43.8	-46.2	23.1	0.00e+00	0	42	0	0	59	4698
2026-01-10 01:04:58.55	233.05	11.68	-44.0	-46.4	23.0	0.00e+00	0	43	0	0	59	4800
2026-01-10 01:04:59.27	232.94	11.75	-43.9	-46.3	23.1	0.00e+00	0	42	0	0	59	4759
2026-01-10 01:05:00.56	232.73	11.89	-43.6	-46.0	23.4	0.00e+00	0	42	0	0	59	4556
2026-01-10 01:05:01.28	232.61	11.96	-43.7	-46.0	23.4	0.00e+00	0	42	0	0	59	4570
2026-01-10 01:05:02.57	232.40	12.10	-43.7	-46.0	23.3	0.00e+00	0	42	0	0	59	4597
2026-01-10 01:05:03.28	232.28	12.17	-43.7	-46.1	23.3	0.00e+00	0	42	0	0	59	4619
2026-01-10 01:05:04.57	232.07	12.31	-43.9	-46.3	23.1	0.00e+00	0	43	0	0	59	4747
2026-01-10 01:05:05.29	231.94	12.39	-44.0	-46.4	23.0	0.00e+00	0	42	0	0	59	4769
2026-01-10 01:05:06.58	231.72	12.53	-44.0	-46.4	23.0	0.00e+00	0	42	0	0	59	4813
2026-01-10 01:05:07.30	231.60	12.61	-44.1	-46.5	22.9	0.00e+00	0	43	0	0	59	4855
2026-01-10 01:05:08.59	231.38	12.75	-43.8	-46.1	23.3	0.00e+00	0	42	0	0	59	4643
2026-01-10 01:05:09.30	231.25	12.82	-43.5	-45.9	23.5	0.00e+00	0	42	0	0	59	4502
2026-01-10 01:05:10.69	231.00	12.98	-43.4	-45.7	23.7	0.00e+00	0	42	0	0	58	4673
2026-01-10 01:05:11.68	230.82	13.08	-43.3	-45.6	23.8	0.00e+00	0	42	0	0	58	4608
2026-01-10 01:05:13.00	230.58	13.23	-43.4	-45.7	23.6	0.00e+00	0	43	0	0	58	4699
2026-01-10 01:05:13.72	230.45	13.31	-43.5	-45.8	23.5	0.00e+00	0	42	0	0	58	4738
2026-01-10 01:05:15.01	230.21	13.46	-43.5	-45.8	23.6	0.00e+00	0	43	0	0	58	4707
2026-01-10 01:05:15.72	230.08	13.54	-43.6	-45.9	23.5	0.00e+00	0	42	0	0	58	4779
2026-01-10 01:05:17.01	229.84	13.68	-43.5	-45.8	23.6	0.00e+00	0	42	0	0	58	4750
2026-01-10 01:05:17.73	229.70	13.76	-43.6	-45.9	23.6	0.00e+00	0	42	0	0	58	4782
2026-01-10 01:05:19.03	229.45	13.91	-43.4	-45.8	23.6	0.00e+00	0	42	0	0	58	4709
2026-01-10 01:05:19.75	229.31	13.99	-43.5	-45.8	23.7	0.00e+00	0	42	0	0	58	4718
2026-01-10 01:05:21.04	229.05	14.14	-43.3	-45.6	23.9	0.00e+00	0	42	0	0	58	4623
2026-01-10 01:05:21.76	228.91	14.22	-43.3	-45.6	23.9	0.00e+00	0	42	0	0	58	4600
2026-01-10 01:05:23.05	228.65	14.37	-43.1	-45.4	24.1	0.00e+00	0	42	0	0	58	4495
2026-01-10 01:05:23.76	228.50	14.46	-43.0	-45.3	24.1	0.00e+00	0	42	0	0	58	4465
2026-01-10 01:05:25.05	228.24	14.61	-42.8	-45.0	24.4	0.00e+00	0	42	0	0	57	4578
2026-01-10 01:05:25.77	228.09	14.69	-42.8	-45.0	24.3	0.00e+00	0	43	0	0	57	4590
2026-01-10 01:05:27.06	227.82	14.85	-42.7	-44.9	24.6	0.00e+00	0	42	0	0	57	4495
2026-01-10 01:05:27.78	227.67	14.93	-42.8	-44.9	24.5	0.00e+00	0	43	0	0	57	4542
2026-01-10 01:05:29.07	227.39	15.08	-42.9	-45.1	24.4	0.00e+00	0	42	0	0	57	4609
2026-01-10 01:05:29.79	227.24	15.17	-42.8	-45.0	24.4	0.00e+00	0	42	0	0	57	4586
2026-01-10 01:05:31.07	226.96	15.32	-43.0	-45.2	24.3	0.00e+00	0	42	0	0	57	4672
2026-01-10 01:05:31.92	226.77	15.43	-43.0	-45.2	24.3	0.00e+00	0	42	0	0	57	4663
2026-01-10 01:05:33.06	226.52	15.57	-42.8	-45.0	24.4	0.00e+00	0	42	0	0	57	4562
2026-01-10 01:05:34.16	226.27	15.70	-42.8	-45.0	24.5	0.00e+00	0	42	0	0	57	4569
2026-01-10 01:05:35.21	226.03	15.83	-42.5	-44.7	24.7	0.00e+00	0	42	0	0	57	4394
2026-01-10 01:05:36.32	225.77	15.96	-42.3	-44.4	24.9	0.00e+00	0	43	0	0	56	4536
2026-01-10 01:05:37.18	225.57	16.07	-42.1	-44.2	25.2	0.00e+00	0	42	0	0	56	4402
2026-01-10 01:05:38.33	225.30	16.21	-42.0	-44.1	25.2	0.00e+00	0	43	0	0	56	4367
2026-01-10 01:05:39.19	225.10	16.32	-41.8	-43.9	25.3	0.00e+00	0	42	0	0	55	4535
2026-01-10 01:05:40.33	224.82	16.46	-42.0	-44.1	25.1	0.00e+00	0	42	0	0	55	4645
2026-01-10 01:05:41.19	224.61	16.57	-42.4	-44.5	24.8	0.00e+00	0	43	0	0	55	4846
2026-01-10 01:05:42.34	224.33	16.71	-42.5	-44.6	24.7	0.00e+00	0	42	0	0	55	4913
2026-01-10 01:05:43.20	224.12	16.82	-42.5	-44.6	24.6	0.00e+00	0	42	0	0	55	4917
2026-01-10 01:05:44.35	223.83	16.97	-42.4	-44.6	24.7	0.00e+00	0	42	0	0	55	4897
2026-01-10 01:05:45.21	223.61	17.08	-42.5	-44.7	24.6	0.00e+00	0	42	0	0	55	4956
2026-01-10 01:05:46.35	223.32	17.22	-42.4	-44.6	24.7	0.00e+00	0	42	0	0	55	4871
2026-01-10 01:05:47.21	223.10	17.33	-42.1	-44.2	25.0	0.00e+00	0	42	0	0	55	4695
2026-01-10 01:05:48.36	222.80	17.48	-41.9	-44.0	25.3	0.00e+00	0	42	0	0	55	4549
2026-01-10 01:05:49.22	222.57	17.59	-41.8	-43.9	25.2	0.00e+00	0	43	0	0	55	4540
2026-01-10 01:05:50.37	222.26	17.74	-41.8	-43.9	25.2	0.00e+00	0	42	0	0	55	4527
2026-01-10 01:05:51.23	222.03	17.85	-41.5	-43.5	25.6	0.00e+00	0	42	0	0	54	4575
2026-01-10 01:05:52.37	221.72	18.00	-41.7	-43.8	25.4	0.00e+00	0	42	0	0	54	4713
2026-01-10 01:05:53.24	221.48	18.12	-42.0	-44.1	25.1	0.00e+00	0	42	0	0	54	4912
2026-01-10 01:05:54.38	221.16	18.27	-42.0	-44.2	25.1	0.00e+00	0	42	0	0	54	4933
2026-01-10 01:05:55.24	220.92	18.38	-42.0	-44.1	25.2	0.00e+00	0	42	0	0	54	4889
2026-01-10 01:05:56.39	220.59	18.53	-42.0	-44.1	25.1	0.00e+00	0	42	0	0	54	4912
2026-01-10 01:05:57.25	220.34	18.64	-41.9	-44.0	25.2	0.00e+00	0	42	0	0	54	4866
2026-01-10 01:05:58.40	220.01	18.80	-41.8	-43.9	25.3	0.00e+00	0	42	0	0	54	4766
2026-01-10 01:05:59.26	219.76	18.91	-41.8	-43.9	25.3	0.00e+00	0	42	0	0	54	4768
2026-01-10 01:06:00.40	219.42	19.06	-41.7	-43.8	25.5	0.00e+00	0	42	0	0	54	4720
2026-01-10 01:06:01.26	219.16	19.18	-41.6	-43.7	25.5	0.00e+00	0	42	0	0	54	4655
2026-01-10 01:06:02.41	218.81	19.33	-41.9	-44.0	25.2	0.00e+00	0	42	0	0	54	4819
2026-01-10 01:06:03.27	218.54	19.45	-41.8	-43.9	25.4	0.00e+00	0	43	0	0	54	4770
2026-01-10 01:06:04.53	218.15	19.62	-41.7	-43.8	25.5	0.00e+00	0	42	0	0	54	4731
2026-01-10 01:06:05.25	217.93	19.71	-41.6	-43.7	25.5	0.00e+00	0	42	0	0	54	4660
2026-01-10 01:06:06.74	217.45	19.91	-41.6	-43.6	25.5	0.00e+00	0	42	0	0	54	4650
2026-01-10 01:06:07.46	217.22	20.01	-41.8	-43.8	25.4	0.00e+00	0	42	0	0	54	4759
2026-01-10 01:06:08.75	216.80	20.19	-41.4	-43.5	25.7	0.00e+00	0	42	0	0	54	4568
2026-01-10 01:06:09.47	216.57	20.28	-41.3	-43.4	25.8	0.00e+00	0	42	0	0	54	4498
2026-01-10 01:06:10.76	216.14	20.46	-41.3	-43.4	25.8	0.00e+00	0	42	0	0	54	4504
2026-01-10 01:06:11.47	215.90	20.55	-41.2	-43.2	26.0	0.00e+00	0	42	0	0	54	4400
2026-01-10 01:06:12.76	215.46	20.73	-40.8	-42.8	26.4	0.00e+00	0	42	0	0	53	4456
2026-01-10 01:06:13.48	215.22	20.83	-40.7	-42.6	26.5	0.00e+00	0	42	0	0	53	4380
2026-01-10 01:06:14.77	214.77	21.00	-40.7	-42.7	26.3	0.00e+00	0	42	0	0	53	4413
2026-01-10 01:06:15.49	214.52	21.10	-40.9	-42.9	26.2	0.00e+00	0	42	0	0	53	4518
2026-01-10 01:06:16.78	214.06	21.28	-41.2	-43.2	26.0	0.00e+00	0	42	0	0	53	4699
2026-01-10 01:06:17.49	213.81	21.37	-41.4	-43.4	25.8	0.00e+00	0	42	0	0	53	4778
2026-01-10 01:06:18.79	213.34	21.55	-41.5	-43.6	25.7	0.00e+00	0	42	0	0	53	4892
2026-01-10 01:06:19.50	213.08	21.65	-41.6	-43.6	25.6	0.00e+00	0	42	0	0	53	4919
2026-01-10 01:06:20.79	212.60	21.82	-41.3	-43.3	25.8	0.00e+00	0	42	0	0	53	4752
2026-01-10 01:06:21.72	212.26	21.95	-41.0	-43.0	26.2	0.00e+00	0	42	0	0	53	4569
2026-01-10 01:06:22.72	211.88	22.08	-41.0	-43.0	26.2	0.00e+00	0	42	0	0	53	4562
2026-01-10 01:06:23.72	211.50	22.22	-40.9	-42.9	26.2	0.00e+00	0	42	0	0	53	4544
2026-01-10 01:06:24.73	211.11	22.36	-40.7	-42.6	26.5	0.00e+00	0	42	0	0	53	4382
2026-01-10 01:06:25.73	210.72	22.49	-40.4	-42.3	26.8	0.00e+00	0	42	0	0	52	4481
2026-01-10 01:06:26.73	210.33	22.63	-40.5	-42.5	26.6	0.00e+00	0	42	0	0	52	4573
2026-01-10 01:06:27.73	209.93	22.76	-40.6	-42.6	26.6	0.00e+00	0	42	0	0	52	4615
2026-01-10 01:06:28.78	209.51	22.90	-40.6	-42.6	26.5	0.00e+00	0	42	0	0	52	4626
2026-01-10 01:06:29.70	209.14	23.02	-40.6	-42.6	26.6	0.00e+00	0	42	0	0	52	4630
2026-01-10 01:06:30.85	208.67	23.18	-40.8	-42.8	26.4	0.00e+00	0	42	0	0	52	4740
2026-01-10 01:06:31.74	208.30	23.30	-40.9	-42.9	26.2	0.00e+00	0	42	0	0	52	4792
2026-01-10 01:06:32.88	207.82	23.45	-40.8	-42.8	26.3	0.00e+00	0	42	0	0	52	4743
2026-01-10 01:06:33.81	207.43	23.57	-40.7	-42.7	26.5	0.00e+00	0	42	0	0	52	4670
2026-01-10 01:06:34.98	206.93	23.72	-40.7	-42.6	26.5	0.00e+00	0	42	0	0	52	4651
2026-01-10 01:06:35.84	206.56	23.83	-40.5	-42.5	26.6	0.00e+00	0	42	0	0	52	4571
2026-01-10 01:06:36.99	206.06	23.98	-40.5	-42.5	26.6	0.00e+00	0	42	0	0	52	4556
2026-01-10 01:06:37.85	205.68	24.09	-40.6	-42.6	26.6	0.00e+00	0	42	0	0	52	4616
2026-01-10 01:06:39.00	205.17	24.24	-40.2	-42.2	26.9	0.00e+00	0	42	0	0	52	4400
2026-01-10 01:06:39.85	204.79	24.35	-40.3	-42.2	26.9	0.00e+00	0	42	0	0	52	4427
2026-01-10 01:06:41.00	204.27	24.50	-40.2	-42.1	26.9	0.00e+00	0	42	0	0	52	4389
2026-01-10 01:06:41.86	203.88	24.60	-40.2	-42.1	27.0	0.00e+00	0	42	0	0	52	4375
2026-01-10 01:06:43.01	203.35	24.75	-40.1	-42.1	27.1	0.00e+00	0	42	0	0	52	4345
2026-01-10 01:06:43.87	202.95	24.85	-40.2	-42.1	26.9	0.00e+00	0	42	0	0	52	4383
2026-01-10 01:06:45.01	202.42	24.99	-40.5	-42.5	26.7	0.00e+00	0	42	0	0	52	4557
2026-01-10 01:06:45.87	202.01	25.10	-40.4	-42.3	26.8	0.00e+00	0	42	0	0	52	4489
2026-01-10 01:06:47.02	201.46	25.24	-40.3	-42.3	26.8	0.00e+00	0	42	0	0	52	4471
2026-01-10 01:06:47.88	201.05	25.34	-40.1	-42.0	27.0	0.00e+00	0	42	0	0	52	4336
2026-01-10 01:06:49.03	200.49	25.47	-40.1	-42.0	27.0	0.00e+00	0	42	0	0	52	4336
2026-01-10 01:06:49.89	200.07	25.57	-40.1	-42.0	27.0	0.00e+00	0	43	0	0	52	4339
2026-01-10 01:06:51.03	199.51	25.70	-40.1	-42.0	27.1	0.00e+00	0	42	0	0	52	4329
2026-01-10 01:06:51.89	199.08	25.80	-40.1	-42.0	27.1	0.00e+00	0	42	0	0	52	4314
2026-01-10 01:06:53.04	198.50	25.93	-40.2	-42.2	26.9	0.00e+00	0	42	0	0	52	4394
2026-01-10 01:06:53.90	198.07	26.03	-40.2	-42.1	26.9	0.00e+00	0	42	0	0	52	4375
2026-01-10 01:06:55.05	197.48	26.15	-40.0	-42.0	27.1	0.00e+00	0	42	0	0	52	4294
2026-01-10 01:06:55.90	197.04	26.24	-40.0	-41.9	27.2	0.00e+00	0	42	0	0	51	4526
2026-01-10 01:06:57.05	196.45	26.36	-40.1	-42.0	27.2	0.00e+00	0	42	0	0	51	4565
2026-01-10 01:06:57.91	196.00	26.45	-40.0	-42.0	27.1	0.00e+00	0	42	0	0	51	4548
2026-01-10 01:06:59.09	195.38	26.57	-40.1	-42.0	27.0	0.00e+00	0	42	0	0	51	4585
2026-01-10 01:06:59.95	194.92	26.66	-40.2	-42.1	27.0	0.00e+00	0	42	0	0	51	4612
2026-01-10 01:07:01.10	194.31	26.77	-39.9	-41.8	27.4	0.00e+00	0	42	0	0	51	4451
2026-01-10 01:07:02.43	193.59	26.90	-39.9	-41.8	27.3	0.00e+00	0	42	0	0	51	4471
2026-01-10 01:07:03.15	193.20	26.97	-39.8	-41.7	27.3	0.00e+00	0	42	0	0	51	4436
2026-01-10 01:07:04.44	192.50	27.09	-39.9	-41.9	27.3	0.00e+00	0	42	0	0	51	4495
2026-01-10 01:07:05.16	192.10	27.15	-39.9	-41.8	27.4	0.00e+00	0	42	0	0	51	4457
2026-01-10 01:07:06.48	191.37	27.26	-40.1	-42.0	27.1	0.00e+00	0	42	0	0	51	4577
2026-01-10 01:07:07.20	190.97	27.33	-40.1	-42.0	27.1	0.00e+00	0	42	0	0	51	4587
2026-01-10 01:07:08.48	190.26	27.43	-39.7	-41.6	27.5	0.00e+00	0	42	0	0	51	4368
2026-01-10 01:07:09.20	189.85	27.49	-39.4	-41.3	27.7	0.00e+00	0	42	0	0	50	4459
2026-01-10 01:07:10.49	189.12	27.59	-39.3	-41.2	27.8	0.00e+00	0	42	0	0	50	4410
2026-01-10 01:07:11.21	188.71	27.64	-39.5	-41.4	27.5	0.00e+00	0	42	0	0	50	4494
2026-01-10 01:07:12.50	187.98	27.73	-39.5	-41.4	27.6	0.00e+00	0	42	0	0	50	4504
2026-01-10 01:07:13.21	187.57	27.78	-39.4	-41.3	27.7	0.00e+00	0	42	0	0	50	4457
2026-01-10 01:07:14.50	186.82	27.87	-39.3	-41.1	27.8	0.00e+00	0	42	0	0	50	4390
2026-01-10 01:07:15.22	186.41	27.92	-39.5	-41.4	27.7	0.00e+00	0	42	0	0	50	4503
2026-01-10 01:07:16.86	185.45	28.02	-39.5	-41.3	27.7	0.00e+00	0	42	0	0	50	4479
2026-01-10 01:07:17.43	185.12	28.05	-39.8	-41.7	27.4	0.00e+00	0	42	0	0	50	4680
2026-01-10 01:07:19.01	184.19	28.14	-40.1	-42.1	27.1	0.00e+00	0	42	0	0	50	4873
2026-01-10 01:07:19.61	183.83	28.17	-40.2	-42.1	27.1	0.00e+00	0	42	0	0	51	4651
2026-01-10 01:07:21.27	182.85	28.25	-40.2	-42.1	27.0	0.00e+00	0	42	0	0	51	4641
2026-01-10 01:07:21.84	182.51	28.27	-40.2	-42.1	27.1	0.00e+00	0	42	0	0	51	4626
2026-01-10 01:07:23.43	181.56	28.34	-40.3	-42.2	27.0	0.00e+00	0	42	0	0	51	4676
2026-01-10 01:07:24.01	181.21	28.36	-40.4	-42.3	26.9	0.00e+00	0	42	0	0	51	4759
2026-01-10 01:07:25.59	180.26	28.42	-40.4	-42.4	26.8	0.00e+00	0	42	0	0	51	4787
2026-01-10 01:07:26.48	179.72	28.45	-40.5	-42.4	26.8	0.00e+00	0	42	0	0	51	4786
2026-01-10 01:07:27.62	179.04	28.48	-40.3	-42.3	26.9	0.00e+00	0	42	0	0	51	4715
2026-01-10 01:07:28.48	178.52	28.50	-40.1	-42.0	27.1	0.00e+00	0	42	0	0	51	4586
2026-01-10 01:07:29.62	177.83	28.53	-39.9	-41.8	27.2	0.00e+00	0	42	0	0	51	4479
2026-01-10 01:07:30.48	177.30	28.54	-39.9	-41.8	27.3	0.00e+00	0	42	0	0	51	4467
2026-01-10 01:07:31.63	176.60	28.56	-40.2	-42.1	27.0	0.00e+00	0	42	0	0	51	4613
2026-01-10 01:07:32.49	176.08	28.57	-40.2	-42.1	27.1	0.00e+00	0	42	0	0	51	4633
2026-01-10 01:07:33.64	175.38	28.58	-40.1	-42.1	26.9	0.00e+00	0	42	0	0	51	4599
2026-01-10 01:07:34.50	174.86	28.59	-40.0	-41.8	27.2	0.00e+00	0	42	0	0	51	4493
2026-01-10 01:07:35.64	174.16	28.59	-40.0	-41.9	27.3	0.00e+00	0	42	0	0	51	4508
2026-01-10 01:07:36.50	173.64	28.59	-40.0	-42.0	27.2	0.00e+00	0	42	0	0	51	4549
2026-01-10 01:07:37.65	172.94	28.58	-40.0	-41.9	27.3	0.00e+00	0	42	0	0	51	4523
2026-01-10 01:07:38.51	172.42	28.58	-40.1	-42.0	27.2	0.00e+00	0	42	0	0	51	4564
2026-01-10 01:07:39.66	171.72	28.57	-40.2	-42.1	27.1	0.00e+00	0	42	0	0	51	4624
2026-01-10 01:07:40.80	171.02	28.55	-40.1	-42.0	27.1	0.00e+00	0	42	0	0	51	4575
2026-01-10 01:07:41.84	170.39	28.53	-40.0	-42.0	27.2	0.00e+00	0	42	0	0	51	4558
2026-01-10 01:07:42.83	169.79	28.51	-40.2	-42.1	27.1	0.00e+00	0	42	0	0	51	4628
2026-01-10 01:07:43.84	169.18	28.49	-40.2	-42.2	26.9	0.00e+00	0	42	0	0	51	4667
2026-01-10 01:07:44.84	168.58	28.46	-40.1	-42.0	27.2	0.00e+00	0	42	0	0	51	4564
2026-01-10 01:07:45.84	167.97	28.43	-40.1	-42.0	27.1	0.00e+00	0	42	0	0	51	4581
2026-01-10 01:07:46.84	167.37	28.40	-40.2	-42.2	27.0	0.00e+00	0	42	0	0	51	4675
2026-01-10 01:07:47.85	166.77	28.36	-40.4	-42.3	26.9	0.00e+00	0	42	0	0	51	4753
2026-01-10 01:07:48.85	166.17	28.32	-40.5	-42.5	26.8	0.00e+00	0	42	0	0	51	4854
2026-01-10 01:07:49.85	165.57	28.28	-40.3	-42.2	27.0	0.00e+00	0	42	0	0	51	4697
2026-01-10 01:07:50.85	164.98	28.23	-40.0	-41.9	27.2	0.00e+00	0	42	0	0	51	4535
2026-01-10 01:07:51.86	164.38	28.18	-40.2	-42.1	27.1	0.00e+00	0	42	0	0	51	4643
2026-01-10 01:07:52.86	163.79	28.13	-40.4	-42.4	26.9	0.00e+00	0	42	0	0	51	4766
2026-01-10 01:07:53.90	163.18	28.08	-40.5	-42.4	26.9	0.00e+00	0	42	0	0	51	4813
2026-01-10 01:07:54.94	162.57	28.02	-40.2	-42.2	27.0	0.00e+00	0	42	0	0	51	4675
2026-01-10 01:07:55.83	162.05	27.96	-40.2	-42.1	27.0	0.00e+00	0	42	0	0	51	4644
2026-01-10 01:07:57.13	161.29	27.88	-40.2	-42.1	27.1	0.00e+00	0	42	0	0	51	4634
2026-01-10 01:07:57.85	160.88	27.83	-40.2	-42.2	27.0	0.00e+00	0	42	0	0	51	4654
2026-01-10 01:07:59.14	160.13	27.75	-40.3	-42.2	26.9	0.00e+00	0	42	0	0	51	4687
2026-01-10 01:07:59.86	159.72	27.69	-40.4	-42.3	26.9	0.00e+00	0	42	0	0	51	4746
2026-01-10 01:08:01.14	158.99	27.60	-40.3	-42.3	26.9	0.00e+00	0	42	0	0	51	4725
2026-01-10 01:08:01.89	158.57	27.54	-40.1	-42.1	27.1	0.00e+00	0	42	0	0	51	4610
2026-01-10 01:08:03.18	157.84	27.44	-39.8	-41.7	27.4	0.00e+00	0	42	0	0	51	4438
2026-01-10 01:08:03.97	157.40	27.38	-39.8	-41.8	27.3	0.00e+00	0	42	0	0	51	4449
2026-01-10 01:08:05.26	156.68	27.27	-40.0	-41.9	27.3	0.00e+00	0	42	0	0	51	4520
2026-01-10 01:08:05.97	156.29	27.21	-39.8	-41.8	27.2	0.00e+00	0	42	0	0	51	4453
2026-01-10 01:08:07.27	155.57	27.09	-40.0	-41.9	27.3	0.00e+00	0	42	0	0	51	4510
2026-01-10 01:08:07.98	155.19	27.03	-40.0	-41.9	27.3	0.00e+00	0	42	0	0	51	4518
2026-01-10 01:08:09.27	154.49	26.91	-39.5	-41.4	27.7	0.00e+00	0	43	0	0	51	4254
2026-01-10 01:08:10.20	153.98	26.82	-39.3	-41.1	27.9	0.00e+00	0	42	0	0	50	4389
2026-01-10 01:08:11.20	153.45	26.73	-39.3	-41.2	27.9	0.00e+00	0	42	0	0	50	4398
2026-01-10 01:08:12.20	152.92	26.63	-39.6	-41.5	27.6	0.00e+00	0	42	0	0	50	4560
2026-01-10 01:08:13.20	152.39	26.53	-40.1	-42.0	27.2	0.00e+00	0	42	0	0	50	4852
2026-01-10 01:08:14.21	151.86	26.42	-40.6	-42.6	26.7	0.00e+00	0	42	0	0	51	4872
2026-01-10 01:08:15.21	151.34	26.32	-40.6	-42.6	26.6	0.00e+00	0	42	0	0	52	4632
2026-01-10 01:08:16.21	150.83	26.21	-40.4	-42.4	26.8	0.00e+00	0	42	0	0	52	4516
2026-01-10 01:08:17.25	150.30	26.10	-40.0	-42.0	27.1	0.00e+00	0	42	0	0	52	4331
2026-01-10 01:08:18.28	149.77	25.99	-40.0	-41.9	27.1	0.00e+00	0	42	0	0	52	4291
2026-01-10 01:08:19.28	149.27	25.88	-40.1	-42.1	27.1	0.00e+00	0	42	0	0	51	4610
2026-01-10 01:08:20.37	148.72	25.75	-40.4	-42.4	26.8	0.00e+00	0	42	0	0	51	4811
2026-01-10 01:08:21.26	148.28	25.65	-40.3	-42.3	26.8	0.00e+00	0	42	0	0	51	4731
2026-01-10 01:08:22.40	147.72	25.52	-40.4	-42.4	26.8	0.00e+00	0	42	0	0	51	4778
2026-01-10 01:08:23.26	147.31	25.42	-40.7	-42.7	26.6	0.00e+00	0	42	0	0	51	4943
2026-01-10 01:08:24.41	146.75	25.28	-40.6	-42.6	26.6	0.00e+00	0	42	0	0	52	4629
2026-01-10 01:08:25.27	146.34	25.18	-40.6	-42.6	26.6	0.00e+00	0	42	0	0	52	4607
2026-01-10 01:08:26.41	145.80	25.04	-40.5	-42.4	26.7	0.00e+00	0	42	0	0	52	4537
2026-01-10 01:08:27.27	145.40	24.94	-40.7	-42.7	26.5	0.00e+00	0	42	0	0	52	4678
2026-01-10 01:08:28.42	144.86	24.80	-40.8	-42.8	26.5	0.00e+00	0	42	0	0	52	4716
2026-01-10 01:08:29.28	144.46	24.69	-40.7	-42.7	26.5	0.00e+00	0	42	0	0	52	4684
2026-01-10 01:08:30.42	143.94	24.55	-40.5	-42.5	26.7	0.00e+00	0	42	0	0	52	4562
2026-01-10 01:08:31.28	143.55	24.44	-40.6	-42.7	26.4	0.00e+00	0	42	0	0	52	4653
2026-01-10 01:08:32.43	143.04	24.29	-40.8	-42.8	26.4	0.00e+00	0	42	0	0	52	4723
2026-01-10 01:08:33.29	142.65	24.18	-40.5	-42.5	26.7	0.00e+00	0	42	0	0	52	4554
2026-01-10 01:08:34.43	142.15	24.04	-40.5	-42.5	26.7	0.00e+00	0	42	0	0	52	4552
2026-01-10 01:08:35.29	141.78	23.93	-40.2	-42.2	27.0	0.00e+00	0	42	0	0	52	4398
2026-01-10 01:08:36.55	141.23	23.76	-40.2	-42.1	27.0	0.00e+00	0	42	0	0	52	4389
2026-01-10 01:08:37.30	140.91	23.67	-40.1	-42.0	27.0	0.00e+00	0	42	0	0	52	4326
2026-01-10 01:08:38.75	140.30	23.48	-40.4	-42.4	26.8	0.00e+00	0	42	0	0	52	4497
2026-01-10 01:08:39.46	140.00	23.38	-40.6	-42.6	26.6	0.00e+00	0	42	0	0	52	4623
2026-01-10 01:08:40.75	139.47	23.21	-40.9	-42.9	26.3	0.00e+00	0	42	0	0	52	4796
2026-01-10 01:08:41.47	139.17	23.12	-40.9	-42.9	26.3	0.00e+00	0	42	0	0	52	4805
2026-01-10 01:08:42.76	138.65	22.94	-40.7	-42.8	26.4	0.00e+00	0	42	0	0	52	4718
2026-01-10 01:08:43.47	138.36	22.85	-40.6	-42.6	26.5	0.00e+00	0	42	0	0	52	4628
2026-01-10 01:08:44.76	137.85	22.68	-40.5	-42.5	26.7	0.00e+00	0	42	0	0	52	4551
2026-01-10 01:08:45.48	137.57	22.58	-40.6	-42.6	26.6	0.00e+00	0	42	0	0	52	4636
2026-01-10 01:08:46.77	137.06	22.41	-40.8	-42.8	26.4	0.00e+00	0	42	0	0	52	4735
2026-01-10 01:08:47.56	136.76	22.30	-41.0	-43.0	26.1	0.00e+00	0	42	0	0	52	4845
2026-01-10 01:08:48.71	136.32	22.15	-41.0	-43.0	26.1	0.00e+00	0	42	0	0	52	4843
2026-01-10 01:08:49.57	135.99	22.03	-41.0	-43.0	26.2	0.00e+00	0	42	0	0	52	4850
2026-01-10 01:08:50.72	135.56	21.87	-41.0	-43.1	26.2	0.00e+00	0	42	0	0	52	4873
2026-01-10 01:08:51.85	135.15	21.72	-41.1	-43.1	26.1	0.00e+00	0	42	0	0	52	4907
2026-01-10 01:08:52.71	134.83	21.60	-41.2	-43.2	26.0	0.00e+00	0	42	0	0	52	4965
2026-01-10 01:08:53.86	134.42	21.45	-41.1	-43.1	26.1	0.00e+00	0	42	0	0	53	4636
2026-01-10 01:08:54.72	134.11	21.33	-41.0	-43.0	26.2	0.00e+00	0	42	0	0	53	4587
2026-01-10 01:08:55.87	133.70	21.17	-40.9	-43.0	26.3	0.00e+00	0	42	0	0	53	4549
2026-01-10 01:08:56.73	133.40	21.06	-41.1	-43.2	26.0	0.00e+00	0	42	0	0	53	4655
2026-01-10 01:08:57.87	133.00	20.90	-41.3	-43.3	25.9	0.00e+00	0	42	0	0	53	4754
2026-01-10 01:08:58.74	132.71	20.79	-41.5	-43.6	25.7	0.00e+00	0	42	0	0	53	4891
2026-01-10 01:08:59.88	132.32	20.63	-41.7	-43.8	25.5	0.00e+00	0	42	0	0	54	4752
2026-01-10 01:09:00.74	132.03	20.51	-41.8	-44.0	25.3	0.00e+00	0	42	0	0	54	4819
2026-01-10 01:09:01.89	131.65	20.36	-41.5	-43.6	25.6	0.00e+00	0	42	0	0	54	4626
2026-01-10 01:09:02.75	131.36	20.24	-41.3	-43.4	25.8	0.00e+00	0	42	0	0	54	4524
2026-01-10 01:09:03.90	130.99	20.09	-41.4	-43.4	25.8	0.00e+00	0	42	0	0	54	4530
2026-01-10 01:09:04.81	130.70	19.96	-41.5	-43.6	25.7	0.00e+00	0	42	0	0	54	4617
2026-01-10 01:09:05.97	130.33	19.81	-41.6	-43.7	25.5	0.00e+00	0	42	0	0	54	4701
2026-01-10 01:09:06.83	130.06	19.69	-41.6	-43.7	25.6	0.00e+00	0	42	0	0	54	4674
2026-01-10 01:09:07.97	129.70	19.54	-41.7	-43.8	25.4	0.00e+00	0	42	0	0	54	4718
2026-01-10 01:09:08.83	129.44	19.42	-41.6	-43.6	25.5	0.00e+00	0	42	0	0	54	4644
2026-01-10 01:09:09.98	129.09	19.27	-41.8	-43.9	25.4	0.00e+00	0	42	0	0	54	4806
2026-01-10 01:09:10.84	128.83	19.16	-41.8	-43.9	25.4	0.00e+00	0	42	0	0	54	4777
2026-01-10 01:09:11.99	128.48	19.00	-41.8	-43.9	25.4	0.00e+00	0	42	0	0	54	4800
2026-01-10 01:09:12.85	128.23	18.89	-42.0	-44.1	25.2	0.00e+00	0	42	0	0	54	4913
2026-01-10 01:09:14.00	127.89	18.74	-42.0	-44.1	25.3	0.00e+00	0	42	0	0	54	4884
2026-01-10 01:09:14.86	127.65	18.62	-41.8	-43.9	25.4	0.00e+00	0	42	0	0	54	4768
2026-01-10 01:09:16.00	127.32	18.47	-41.6	-43.7	25.5	0.00e+00	0	42	0	0	54	4686
2026-01-10 01:09:16.86	127.08	18.36	-41.8	-43.9	25.3	0.00e+00	0	42	0	0	54	4791
2026-01-10 01:09:18.10	126.73	18.20	-41.9	-44.0	25.3	0.00e+00	0	42	0	0	54	4817
2026-01-10 01:09:18.96	126.49	18.09	-42.0	-44.1	25.2	0.00e+00	0	42	0	0	54	4892
2026-01-10 01:09:20.11	126.18	17.94	-42.1	-44.2	25.0	0.00e+00	0	42	0	0	54	4971
2026-01-10 01:09:20.96	125.95	17.83	-42.0	-44.1	25.1	0.00e+00	0	42	0	0	54	4923
2026-01-10 01:09:22.11	125.64	17.68	-42.0	-44.2	25.1	0.00e+00	0	42	0	0	54	4946
2026-01-10 01:09:22.97	125.41	17.57	-42.2	-44.3	25.0	0.00e+00	0	42	0	0	54	5016
2026-01-10 01:09:24.11	125.11	17.42	-42.2	-44.4	24.9	0.00e+00	0	42	0	0	55	4769
2026-01-10 01:09:25.12	124.85	17.29	-42.4	-44.6	24.7	0.00e+00	0	42	0	0	55	4885
2026-01-10 01:09:26.30	124.55	17.14	-42.2	-44.3	24.9	0.00e+00	0	42	0	0	55	4753
2026-01-10 01:09:27.16	124.33	17.03	-42.2	-44.4	24.9	0.00e+00	0	42	0	0	55	4792
2026-01-10 01:09:28.51	123.99	16.86	-42.1	-44.3	25.0	0.00e+00	0	42	0	0	55	4735
2026-01-10 01:09:29.23	123.81	16.77	-42.3	-44.4	24.8	0.00e+00	0	42	0	0	55	4793
2026-01-10 01:09:30.72	123.45	16.58	-42.4	-44.6	24.7	0.00e+00	0	42	0	0	55	4878
2026-01-10 01:09:31.44	123.27	16.49	-42.6	-44.8	24.5	0.00e+00	0	42	0	0	55	5024
2026-01-10 01:09:32.73	122.96	16.33	-42.9	-45.1	24.3	0.00e+00	0	42	0	0	56	4914
2026-01-10 01:09:33.45	122.79	16.24	-42.9	-45.2	24.3	0.00e+00	0	42	0	0	56	4930
2026-01-10 01:09:34.74	122.49	16.08	-42.7	-44.9	24.5	0.00e+00	0	42	0	0	56	4811
2026-01-10 01:09:35.46	122.32	15.99	-42.9	-45.1	24.4	0.00e+00	0	42	0	0	56	4900
2026-01-10 01:09:36.75	122.03	15.84	-42.7	-44.9	24.5	0.00e+00	0	42	0	0	56	4789
2026-01-10 01:09:37.46	121.86	15.75	-42.7	-44.9	24.5	0.00e+00	0	42	0	0	56	4787
2026-01-10 01:09:38.75	121.57	15.59	-42.8	-45.0	24.5	0.00e+00	0	42	0	0	56	4846
2026-01-10 01:09:39.58	121.39	15.49	-42.8	-45.0	24.5	0.00e+00	0	42	0	0	56	4825
2026-01-10 01:09:40.73	121.13	15.35	-43.0	-45.2	24.2	0.00e+00	0	42	0	0	56	4970
2026-01-10 01:09:41.59	120.95	15.25	-43.0	-45.2	24.2	0.00e+00	0	42	0	0	56	4969
2026-01-10 01:09:43.11	120.62	15.07	-43.2	-45.5	23.9	0.00e+00	0	42	0	0	57	4853
2026-01-10 01:09:43.83	120.47	14.98	-43.3	-45.6	23.9	0.00e+00	0	42	0	0	57	4897
2026-01-10 01:09:45.12	120.19	14.83	-43.7	-46.1	23.5	0.00e+00	0	42	0	0	58	4875
2026-01-10 01:09:45.83	120.05	14.75	-43.6	-45.9	23.6	0.00e+00	0	42	0	0	58	4800
2026-01-10 01:09:47.12	119.78	14.60	-43.7	-46.1	23.5	0.00e+00	0	42	0	0	58	4872
2026-01-10 01:09:47.87	119.63	14.51	-43.7	-46.1	23.4	0.00e+00	0	42	0	0	58	4879
2026-01-10 01:09:49.16	119.36	14.36	-43.6	-45.9	23.6	0.00e+00	0	42	0	0	58	4772
2026-01-10 01:09:49.99	119.20	14.26	-43.6	-45.9	23.6	0.00e+00	0	42	0	0	58	4800
2026-01-10 01:09:51.14	118.97	14.13	-43.5	-45.8	23.7	0.00e+00	0	42	0	0	58	4718
2026-01-10 01:09:52.24	118.75	14.00	-43.7	-46.0	23.5	0.00e+00	0	42	0	0	58	4850
2026-01-10 01:09:53.27	118.55	13.89	-43.7	-46.1	23.4	0.00e+00	0	42	0	0	58	4884
2026-01-10 01:09:54.27	118.36	13.77	-43.9	-46.3	23.3	0.00e+00	0	42	0	0	58	4987
2026-01-10 01:09:55.27	118.17	13.66	-44.1	-46.5	23.0	0.00e+00	0	42	0	0	58	5138
2026-01-10 01:09:56.28	117.98	13.55	-44.0	-46.4	23.1	0.00e+00	0	42	0	0	58	5096
2026-01-10 01:09:57.28	117.80	13.44	-44.0	-46.5	23.0	0.00e+00	0	42	0	0	58	5113
2026-01-10 01:09:58.28	117.61	13.32	-44.0	-46.4	23.0	0.00e+00	0	42	0	0	58	5087
2026-01-10 01:09:59.29	117.43	13.21	-44.0	-46.4	23.1	0.00e+00	0	42	0	0	58	5071
2026-01-10 01:10:00.29	117.25	13.10	-43.9	-46.3	23.2	0.00e+00	0	42	0	0	58	5012
2026-01-10 01:10:01.29	117.07	12.99	-43.9	-46.3	23.2	0.00e+00	0	42	0	0	58	4993
2026-01-10 01:10:02.30	116.89	12.88	-44.1	-46.5	23.0	0.00e+00	0	42	0	0	58	5145
2026-01-10 01:10:03.30	116.71	12.77	-44.2	-46.6	22.8	0.00e+00	0	42	0	0	59	4917
2026-01-10 01:10:04.30	116.54	12.66	-44.2	-46.7	22.8	0.00e+00	0	42	0	0	59	4928
2026-01-10 01:10:05.31	116.36	12.55	-44.5	-47.0	22.5	0.00e+00	0	42	0	0	59	5112
2026-01-10 01:10:06.31	116.19	12.45	-44.3	-46.8	22.6	0.00e+00	0	42	0	0	59	5032
2026-01-10 01:10:07.36	116.02	12.34	-44.4	-46.9	22.6	0.00e+00	0	42	0	0	59	5052
2026-01-10 01:10:08.25	115.87	12.24	-44.4	-46.9	22.5	0.00e+00	0	42	0	0	59	5090
2026-01-10 01:10:09.39	115.68	12.12	-44.3	-46.8	22.7	0.00e+00	0	42	0	0	59	4987
2026-01-10 01:10:10.32	115.52	12.02	-44.4	-46.9	22.5	0.00e+00	0	42	0	0	59	5098
2026-01-10 01:10:11.50	115.33	11.90	-44.5	-47.0	22.5	0.00e+00	0	42	0	0	59	5119
2026-01-10 01:10:12.35	115.20	11.81	-44.5	-47.0	22.5	0.00e+00	0	42	0	0	59	5108
2026-01-10 01:10:13.50	115.01	11.69	-44.5	-47.1	22.4	0.00e+00	0	42	0	0	59	5162
2026-01-10 01:10:14.36	114.88	11.60	-44.6	-47.2	22.3	0.00e+00	0	42	0	0	59	5254
2026-01-10 01:10:15.51	114.70	11.48	-44.7	-47.2	22.2	0.00e+00	0	42	0	0	59	5255
2026-01-10 01:10:16.37	114.56	11.39	-44.6	-47.2	22.2	0.00e+00	0	42	0	0	60	4953
2026-01-10 01:10:17.51	114.39	11.28	-44.6	-47.2	22.2	0.00e+00	0	42	0	0	60	4928
2026-01-10 01:10:18.37	114.26	11.19	-44.6	-47.2	22.2	0.00e+00	0	42	0	0	60	4953
2026-01-10 01:10:19.52	114.08	11.07	-44.8	-47.4	22.0	0.00e+00	0	42	0	0	60	5052
2026-01-10 01:10:20.37	113.96	10.99	-45.0	-47.7	21.7	0.00e+00	0	42	0	0	60	5256
2026-01-10 01:10:21.52	113.79	10.87	-45.0	-47.7	21.7	0.00e+00	0	42	0	0	60	5231
2026-01-10 01:10:22.38	113.66	10.79	-45.2	-47.9	21.5	0.00e+00	0	42	0	0	60	5345
2026-01-10 01:10:23.53	113.49	10.67	-45.3	-48.0	21.3	0.00e+00	0	42	0	0	61	5158
2026-01-10 01:10:24.39	113.37	10.59	-45.3	-48.0	21.3	0.00e+00	0	42	0	0	61	5157
2026-01-10 01:10:25.63	113.19	10.47	-45.2	-47.9	21.5	0.00e+00	0	42	0	0	61	5051
2026-01-10 01:10:26.48	113.07	10.38	-45.1	-47.8	21.5	0.00e+00	0	42	0	0	61	5036
2026-01-10 01:10:27.63	112.91	10.27	-45.1	-47.8	21.5	0.00e+00	0	42	0	0	61	5018
2026-01-10 01:10:28.49	112.79	10.19	-44.9	-47.6	21.8	0.00e+00	0	42	0	0	61	4876
2026-01-10 01:10:29.63	112.64	10.08	-44.9	-47.6	21.7	0.00e+00	0	42	0	0	61	4878
2026-01-10 01:10:30.49	112.52	10.00	-44.9	-47.5	21.8	0.00e+00	0	42	0	0	61	4848
2026-01-10 01:10:31.64	112.36	9.89	-44.9	-47.6	21.7	0.00e+00	0	42	0	0	61	4911
2026-01-10 01:10:32.61	112.23	9.79	-45.0	-47.8	21.6	0.00e+00	0	42	0	0	61	4985
2026-01-10 01:10:33.79	112.08	9.68	-45.3	-48.1	21.3	0.00e+00	0	42	0	0	61	5165
2026-01-10 01:10:34.65	111.97	9.60	-45.5	-48.3	21.0	0.00e+00	0	42	0	0	61	5334
2026-01-10 01:10:36.00	111.79	9.47	-45.5	-48.4	20.9	0.00e+00	0	42	0	0	61	5378
2026-01-10 01:10:36.72	111.70	9.41	-45.6	-48.6	20.7	0.00e+00	0	42	0	0	61	5467
2026-01-10 01:10:38.01	111.53	9.29	-45.8	-48.8	20.5	0.00e+00	0	42	0	0	62	5333
2026-01-10 01:10:38.73	111.44	9.22	-45.9	-48.9	20.4	0.00e+00	0	42	0	0	62	5348
2026-01-10 01:10:40.02	111.28	9.10	-45.7	-48.7	20.6	0.00e+00	0	42	0	0	62	5250
2026-01-10 01:10:40.74	111.19	9.04	-45.8	-48.8	20.5	0.00e+00	0	42	0	0	62	5317
2026-01-10 01:10:42.03	111.03	8.92	-51.7	-67.5	4.1	7.38e-03	0	42	0	0	74	22942
2026-01-10 01:10:42.74	110.94	8.85	-52.1	-70.6	3.8	7.38e-03	0	42	104	0	74	32896
2026-01-10 01:10:44.04	110.79	8.74	-52.2	-70.8	3.8	8.06e-01	0	42	104	0	75	31801
2026-01-10 01:10:44.75	110.70	8.67	-52.3	-71.0	3.8	8.06e-01	0	42	104	0	75	32393
2026-01-10 01:10:46.04	110.55	8.56	-52.3	-71.2	3.8	8.47e-01	0	42	104	0	75	32952
2026-01-10 01:10:46.76	110.46	8.49	-52.4	-71.1	3.8	8.47e-01	0	42	104	0	75	32914
2026-01-10 01:10:48.05	110.31	8.38	-52.3	-71.2	3.8	8.48e-01	0	42	104	0	75	33238
2026-01-10 01:10:48.77	110.23	8.31	-52.3	-71.3	3.8	8.48e-01	0	42	104	0	75	33383
2026-01-10 01:10:50.06	110.08	8.20	-52.3	-71.3	3.8	8.47e-01	0	42	104	0	75	33592
2026-01-10 01:10:50.78	110.00	8.14	-52.3	-71.3	3.8	8.47e-01	0	42	104	0	75	33523
2026-01-10 01:10:52.07	109.85	8.02	-52.3	-71.4	3.8	8.47e-01	0	42	104	0	75	33731
2026-01-10 01:10:52.79	109.77	7.96	-52.4	-71.4	3.8	8.47e-01	0	42	104	0	75	33721
2026-01-10 01:10:54.08	109.63	7.85	-52.4	-71.4	3.8	8.46e-01	0	42	104	0	75	33925
2026-01-10 01:10:54.80	109.55	7.79	-52.4	-71.4	3.8	8.46e-01	0	42	104	0	75	33872
2026-01-10 01:10:56.09	109.41	7.68	-52.5	-71.4	3.8	8.47e-01	0	42	104	0	75	33864
2026-01-10 01:10:56.80	109.33	7.62	-52.4	-71.4	3.8	8.46e-01	0	42	104	0	75	33905
2026-01-10 01:10:58.09	109.19	7.51	-52.3	-71.4	3.8	8.47e-01	0	42	104	0	75	34030
2026-01-10 01:10:58.81	109.11	7.44	-52.3	-71.4	3.8	8.47e-01	0	42	104	0	75	33993
2026-01-10 01:11:00.11	108.98	7.34	-52.3	-71.4	3.8	8.47e-01	0	42	104	0	75	33943
2026-01-10 01:11:00.82	108.90	7.28	-52.3	-71.5	3.8	8.47e-01	0	42	104	0	75	34099
2026-01-10 01:11:02.11	108.77	7.17	-52.5	-71.4	3.8	8.48e-01	0	42	104	0	75	34035
2026-01-10 01:11:02.83	108.69	7.11	-52.5	-71.4	3.8	8.47e-01	0	42	104	0	75	33991
2026-01-10 01:11:04.12	108.56	7.00	-52.6	-71.4	3.8	8.47e-01	0	42	104	0	75	33811
2026-01-10 01:11:05.09	108.46	6.92	-52.6	-71.4	3.8	8.47e-01	0	42	104	0	75	33926
2026-01-10 01:11:06.10	108.36	6.84	-52.5	-71.4	3.8	8.46e-01	0	42	104	0	75	33984
2026-01-10 01:11:07.10	108.26	6.75	-52.5	-71.4	3.8	8.48e-01	0	42	104	0	75	33787
2026-01-10 01:11:08.11	108.16	6.67	-52.5	-71.4	3.8	8.48e-01	0	42	104	0	75	33857
2026-01-10 01:11:09.11	108.06	6.59	-52.5	-71.4	3.8	8.47e-01	0	42	104	0	75	33815
2026-01-10 01:11:10.11	107.97	6.51	-52.5	-71.4	3.8	8.48e-01	0	42	104	0	75	33774
2026-01-10 01:11:11.12	107.87	6.43	-52.5	-71.4	3.8	8.47e-01	0	42	104	0	75	33713
2026-01-10 01:11:12.12	107.77	6.35	-52.5	-71.4	3.8	8.47e-01	0	42	104	0	75	33791
2026-01-10 01:11:13.13	107.68	6.27	-52.5	-71.4	3.8	8.47e-01	0	42	104	0	75	33782
2026-01-10 01:11:14.13	107.58	6.19	-52.5	-71.4	3.8	8.47e-01	0	42	104	0	75	33848
2026-01-10 01:11:15.14	107.49	6.11	-52.5	-71.4	3.8	8.47e-01	0	42	104	0	75	33814
2026-01-10 01:11:16.14	107.39	6.03	-52.5	-71.4	3.8	8.48e-01	0	42	104	0	75	33747
2026-01-10 01:11:17.14	107.30	5.95	-52.5	-71.4	3.8	8.47e-01	0	42	104	0	75	33773
2026-01-10 01:11:18.15	107.21	5.87	-52.5	-71.4	3.8	8.47e-01	0	42	104	0	75	33856
2026-01-10 01:11:19.15	107.12	5.79	-52.5	-71.3	3.8	8.46e-01	0	42	104	0	75	33662
2026-01-10 01:11:20.16	107.03	5.71	-52.5	-71.4	3.8	8.46e-01	0	42	104	0	75	33838
2026-01-10 01:11:21.16	106.94	5.64	-52.5	-71.3	3.8	8.46e-01	0	42	104	0	75	33674
2026-01-10 01:11:22.17	106.85	5.56	-52.5	-71.3	3.8	8.47e-01	0	42	104	0	75	33654
2026-01-10 01:11:23.17	106.76	5.48	-52.5	-71.3	3.8	8.48e-01	0	42	104	0	75	33629
2026-01-10 01:11:24.18	106.67	5.40	-52.5	-71.3	3.8	8.48e-01	0	42	104	0	75	33622
2026-01-10 01:11:25.18	106.58	5.33	-52.5	-71.4	3.8	8.46e-01	0	42	104	0	75	33697
2026-01-10 01:11:26.18	106.50	5.25	-52.5	-71.3	3.8	8.47e-01	0	42	104	0	75	33648
2026-01-10 01:11:27.19	106.41	5.17	-52.5	-71.4	3.8	8.47e-01	0	42	104	0	75	33700
2026-01-10 01:11:28.19	106.33	5.10	-52.5	-71.3	3.8	8.47e-01	0	42	104	0	75	33624
2026-01-10 01:11:29.19	106.24	5.02	-52.5	-71.4	3.8	8.47e-01	0	42	104	0	75	33732
2026-01-10 01:11:30.20	106.16	4.95	-52.5	-71.4	3.8	8.48e-01	0	42	104	0	75	33697

#Closed at: 2026-01-10 01:11:31
#Recorded file [0 MB]: D:/Data/31040_260110_040345.dat