passes_logs/2026/01/10/T1/T1__20260110_235216_AQUA_rec.log

#Pass ID: 20260110_235216_AQUA
#Satellite: AQUA
#Configuration: AQUA
#almurnet v.1.7.20251203
#Start time: 2026-01-10 23:52:18

#Version: 2.0.20230620
#Station: T1
#Location: 37.570604 lon 55.790049 lat
#TLE: 1 27424U 02022A   26009.89520876  .00001045  00000+0  21914-3 0  9996
#TLE: 2 27424  98.4076 336.2372 0002032  84.5955   1.0356 14.61811442260144

#Time	Az	El	Level	Level2	SNR	BER	BlckErr	Temp	State	Recorded	gain1	gain2
2026-01-10 23:52:18.30	33.15	5.11	-52.4	-73.5	3.8	7.48e-01	0	41	0	0	75	42950
2026-01-10 23:52:19.30	33.26	5.17	-52.4	-73.5	3.8	7.45e-01	0	41	104	0	75	42939
2026-01-10 23:52:20.31	33.37	5.23	-52.4	-73.4	3.8	7.44e-01	0	41	104	0	75	42873
2026-01-10 23:52:21.31	33.47	5.29	-52.4	-73.4	3.8	7.47e-01	0	41	104	0	75	42870
2026-01-10 23:52:22.31	33.58	5.35	-52.4	-73.4	3.8	7.51e-01	0	41	104	0	75	42807
2026-01-10 23:52:23.32	33.69	5.41	-52.4	-73.4	3.8	7.49e-01	0	41	104	0	75	42643
2026-01-10 23:52:24.32	33.80	5.47	-52.4	-73.4	3.8	7.46e-01	0	41	104	0	75	42594
2026-01-10 23:52:25.33	33.91	5.53	-52.4	-73.4	3.8	7.47e-01	0	41	104	0	75	42612
2026-01-10 23:52:26.33	34.02	5.59	-52.4	-73.4	3.8	7.47e-01	0	41	104	0	75	42677
2026-01-10 23:52:27.34	34.13	5.65	-52.4	-73.4	3.8	7.46e-01	0	41	104	0	75	42484
2026-01-10 23:52:28.34	34.24	5.71	-52.4	-73.4	3.8	7.48e-01	0	41	104	0	75	42590
2026-01-10 23:52:29.35	34.35	5.77	-52.4	-73.4	3.8	7.45e-01	0	41	104	0	75	42686
2026-01-10 23:52:30.35	34.47	5.83	-52.4	-73.4	3.8	7.46e-01	0	41	104	0	75	42707
2026-01-10 23:52:31.35	34.58	5.89	-52.4	-73.4	3.8	7.49e-01	0	41	104	0	75	42868
2026-01-10 23:52:32.36	34.69	5.95	-52.4	-73.4	3.8	7.48e-01	0	41	104	0	75	42853
2026-01-10 23:52:33.36	34.81	6.01	-52.4	-73.4	3.8	7.46e-01	0	41	104	0	75	42891
2026-01-10 23:52:34.36	34.92	6.07	-52.4	-73.4	3.8	7.45e-01	0	41	104	0	75	42906
2026-01-10 23:52:35.37	35.03	6.13	-52.4	-73.4	3.8	7.47e-01	0	42	104	0	75	42895
2026-01-10 23:52:36.37	35.15	6.19	-52.4	-73.4	3.8	7.44e-01	0	41	104	0	75	42826
2026-01-10 23:52:37.38	35.27	6.25	-52.4	-73.4	3.8	7.46e-01	0	41	104	0	75	42822
2026-01-10 23:52:38.38	35.38	6.31	-52.4	-73.4	3.8	7.49e-01	0	41	104	0	75	42636
2026-01-10 23:52:39.39	35.50	6.37	-52.4	-73.3	3.8	7.47e-01	0	42	104	0	75	42361
2026-01-10 23:52:40.39	35.62	6.43	-52.4	-73.3	3.8	7.46e-01	0	42	104	0	75	42280
2026-01-10 23:52:41.40	35.73	6.49	-52.4	-73.3	3.8	7.46e-01	0	42	104	0	75	42354
2026-01-10 23:52:42.40	35.85	6.55	-52.4	-73.4	3.8	7.47e-01	0	42	104	0	75	42487
2026-01-10 23:52:43.40	35.97	6.61	-52.4	-73.4	3.8	7.45e-01	0	42	104	0	75	42579
2026-01-10 23:52:44.41	36.09	6.67	-52.4	-73.3	3.8	7.44e-01	0	42	104	0	75	42386
2026-01-10 23:52:45.42	36.21	6.73	-52.4	-73.3	3.8	7.47e-01	0	42	104	0	75	42138
2026-01-10 23:52:46.42	36.33	6.79	-52.4	-73.3	3.8	7.45e-01	0	42	104	0	75	41986
2026-01-10 23:52:47.42	36.45	6.85	-52.4	-73.2	3.8	7.46e-01	0	42	104	0	75	41831
2026-01-10 23:52:48.43	36.57	6.91	-52.4	-73.2	3.8	7.48e-01	0	42	104	0	75	41727
2026-01-10 23:52:49.43	36.69	6.97	-52.4	-73.2	3.8	7.46e-01	0	42	104	0	75	41836
2026-01-10 23:52:50.44	36.82	7.04	-52.4	-73.2	3.8	7.45e-01	0	42	104	0	75	41793
2026-01-10 23:52:51.44	36.94	7.10	-52.4	-73.2	3.8	7.47e-01	0	42	104	0	75	41784
2026-01-10 23:52:52.45	37.06	7.16	-52.4	-73.2	3.8	7.45e-01	0	42	104	0	75	41594
2026-01-10 23:52:53.45	37.19	7.22	-52.4	-73.2	3.8	7.45e-01	0	42	104	0	75	41650
2026-01-10 23:52:54.46	37.31	7.28	-52.4	-73.2	3.8	7.46e-01	0	42	104	0	75	41676
2026-01-10 23:52:55.46	37.44	7.34	-52.4	-73.3	3.8	7.48e-01	0	42	104	0	75	41958
2026-01-10 23:52:56.47	37.56	7.40	-52.4	-73.3	3.8	7.43e-01	0	42	104	0	75	42389
2026-01-10 23:52:57.47	37.69	7.46	-52.4	-73.4	3.8	7.47e-01	0	42	104	0	75	42542
2026-01-10 23:52:58.47	37.81	7.53	-52.4	-73.4	3.8	7.46e-01	0	42	104	0	75	42454
2026-01-10 23:52:59.48	37.94	7.59	-52.4	-73.2	3.8	7.46e-01	0	42	104	0	75	41784
2026-01-10 23:53:00.48	38.07	7.65	-52.4	-73.0	3.8	7.46e-01	0	42	104	0	75	40901
2026-01-10 23:53:01.49	38.20	7.71	-52.4	-73.0	3.8	7.46e-01	0	42	104	0	75	40537
2026-01-10 23:53:02.49	38.33	7.77	-52.4	-73.1	3.8	7.46e-01	0	42	104	0	75	41035
2026-01-10 23:53:03.50	38.46	7.84	-52.4	-73.2	3.8	7.45e-01	0	42	104	0	75	41783
2026-01-10 23:53:04.50	38.59	7.90	-52.4	-73.3	3.8	7.49e-01	0	42	104	0	75	42338
2026-01-10 23:53:05.51	38.72	7.96	-52.4	-73.3	3.8	7.46e-01	0	42	104	0	75	42330
2026-01-10 23:53:06.51	38.85	8.02	-52.4	-73.3	3.8	7.48e-01	0	42	104	0	75	42222
2026-01-10 23:53:07.51	38.98	8.08	-52.4	-73.3	3.8	7.47e-01	0	42	104	0	75	42249
2026-01-10 23:53:08.52	39.11	8.14	-52.4	-73.4	3.8	7.48e-01	0	42	104	0	75	42694
2026-01-10 23:53:09.52	39.25	8.21	-52.4	-73.4	3.8	7.45e-01	0	42	104	0	75	42740
2026-01-10 23:53:10.53	39.38	8.27	-52.4	-73.3	3.8	7.48e-01	0	42	104	0	75	42388
2026-01-10 23:53:11.53	39.51	8.33	-52.4	-73.2	3.8	7.48e-01	0	42	104	0	75	41874
2026-01-10 23:53:12.54	39.65	8.39	-52.4	-73.0	3.8	7.47e-01	0	42	104	0	75	40876
2026-01-10 23:53:13.54	39.79	8.46	-52.4	-72.7	3.8	7.43e-01	0	42	104	0	75	39211
2026-01-10 23:53:14.55	39.92	8.52	-52.4	-72.2	3.8	7.46e-01	0	42	104	0	75	37362
2026-01-10 23:53:15.55	40.06	8.58	-52.4	-71.9	3.8	7.43e-01	0	43	104	0	75	35958
2026-01-10 23:53:16.55	40.20	8.64	-52.4	-72.0	3.8	7.47e-01	0	42	104	0	75	36386
2026-01-10 23:53:17.56	40.33	8.71	-52.4	-72.5	3.8	7.44e-01	0	42	104	0	75	38686
2026-01-10 23:53:18.56	40.47	8.77	-52.4	-73.1	3.8	7.49e-01	0	42	104	0	75	41246
2026-01-10 23:53:19.57	40.61	8.83	-52.4	-73.2	3.8	7.45e-01	0	42	104	0	75	41670
2026-01-10 23:53:20.57	40.75	8.89	-52.4	-72.8	3.8	7.46e-01	0	43	104	0	75	39828
2026-01-10 23:53:21.58	40.89	8.96	-52.4	-72.2	3.8	7.45e-01	0	43	104	0	75	37118
2026-01-10 23:53:22.58	41.03	9.02	-52.4	-70.6	3.9	7.41e-01	0	43	104	0	75	30754
2026-01-10 23:53:23.59	41.18	9.08	-50.4	-60.1	11.0	6.11e-01	0	43	104	0	72	10971
2026-01-10 23:53:24.59	41.32	9.14	-51.8	-69.6	5.1	7.26e-01	0	43	0	1572864	74	29175
2026-01-10 23:53:25.59	41.46	9.21	-51.4	-65.4	5.1	6.82e-01	0	43	104	1572864	74	18085
2026-01-10 23:53:26.60	41.60	9.27	-49.5	-60.7	12.1	6.09e-01	0	43	0	2621440	69	14041
2026-01-10 23:53:27.60	41.75	9.33	-48.6	-56.8	14.9	6.06e-01	0	43	0	4718592	69	8910
2026-01-10 23:53:28.61	41.89	9.39	-47.7	-53.6	18.7	6.03e-01	0	43	0	6815744	67	6942
2026-01-10 23:53:29.61	42.04	9.46	-47.6	-53.5	18.7	6.04e-01	0	43	0	8388608	67	6867
2026-01-10 23:53:30.61	42.18	9.52	-47.4	-52.9	19.3	6.01e-01	0	42	0	10485760	66	6790
2026-01-10 23:53:31.61	42.33	9.58	-47.8	-52.4	19.8	6.05e-01	0	43	0	12058624	66	6370
2026-01-10 23:53:32.62	42.48	9.65	-48.4	-52.3	19.9	6.02e-01	0	43	0	14155776	67	5972
2026-01-10 23:53:33.62	42.63	9.71	-48.4	-52.0	20.2	6.05e-01	0	42	0	16252928	67	5781
2026-01-10 23:53:34.63	42.78	9.77	-48.3	-51.9	20.3	6.01e-01	0	43	0	17825792	67	5678
2026-01-10 23:53:35.63	42.93	9.83	-48.1	-52.0	20.2	6.04e-01	0	43	0	19922944	67	5727
2026-01-10 23:53:36.63	43.08	9.90	-47.9	-52.0	20.2	6.03e-01	0	43	0	21495808	67	5760
2026-01-10 23:53:37.64	43.23	9.96	-47.8	-51.9	20.4	6.04e-01	0	43	0	23592960	67	5662
2026-01-10 23:53:38.64	43.38	10.02	-48.1	-51.8	20.5	6.04e-01	0	43	0	25165824	67	5616
2026-01-10 23:53:39.64	43.53	10.09	-48.2	-51.8	20.4	6.05e-01	0	43	0	27262976	67	5613
2026-01-10 23:53:40.65	43.68	10.15	-48.3	-51.8	20.3	6.04e-01	0	43	0	29360128	67	5646
2026-01-10 23:53:41.65	43.84	10.21	-48.1	-51.7	20.6	6.03e-01	0	43	0	30932992	67	5531
2026-01-10 23:53:42.65	43.99	10.27	-47.8	-51.7	20.5	6.03e-01	0	43	0	33030144	67	5585
2026-01-10 23:53:43.66	44.15	10.34	-47.5	-51.6	20.6	6.02e-01	0	43	0	34603008	67	5502
2026-01-10 23:53:44.66	44.30	10.40	-47.2	-51.7	20.5	6.03e-01	0	43	0	36700160	66	5876
2026-01-10 23:53:45.67	44.46	10.46	-47.0	-51.8	20.5	6.03e-01	0	43	0	38797312	66	5928
2026-01-10 23:53:46.67	44.62	10.53	-46.9	-51.7	20.6	6.06e-01	0	43	0	40370176	65	6267
2026-01-10 23:53:47.67	44.77	10.59	-47.0	-51.6	20.7	6.06e-01	0	43	0	42467328	65	6143
2026-01-10 23:53:48.68	44.93	10.65	-47.3	-51.5	20.7	6.02e-01	0	43	0	44040192	65	6095
2026-01-10 23:53:49.68	45.09	10.72	-47.5	-51.6	20.7	6.03e-01	0	43	0	46137344	65	6135
2026-01-10 23:53:50.69	45.25	10.78	-47.8	-51.7	20.6	6.03e-01	0	43	0	48234496	66	5897
2026-01-10 23:53:51.69	45.41	10.84	-47.8	-51.8	20.5	6.04e-01	0	43	0	49807360	66	5934
2026-01-10 23:53:52.69	45.58	10.91	-47.9	-51.7	20.6	6.04e-01	0	43	0	51904512	66	5919
2026-01-10 23:53:53.70	45.74	10.97	-47.8	-51.5	20.7	6.04e-01	0	43	0	53477376	66	5771
2026-01-10 23:53:54.70	45.90	11.03	-48.0	-51.6	20.7	6.01e-01	0	43	0	55574528	66	5829
2026-01-10 23:53:55.71	46.07	11.10	-48.1	-51.5	20.7	6.03e-01	0	43	0	57671680	66	5782
2026-01-10 23:53:56.71	46.23	11.16	-48.1	-51.4	20.9	6.03e-01	0	43	0	59244544	66	5705
2026-01-10 23:53:57.71	46.39	11.22	-48.2	-51.5	20.8	6.02e-01	0	43	0	61341696	66	5766
2026-01-10 23:53:58.71	46.56	11.28	-48.3	-51.7	20.6	6.02e-01	0	43	0	62914560	67	5536
2026-01-10 23:53:59.72	46.73	11.35	-48.2	-51.5	20.7	6.04e-01	0	43	0	65011712	67	5447
2026-01-10 23:54:00.72	46.89	11.41	-48.1	-51.5	20.7	6.05e-01	0	43	0	66584576	67	5463
2026-01-10 23:54:01.72	47.06	11.47	-47.9	-51.4	20.8	6.04e-01	0	43	0	68681728	67	5374
2026-01-10 23:54:02.73	47.23	11.54	-47.9	-51.4	20.8	6.05e-01	0	43	0	70778880	67	5391
2026-01-10 23:54:03.73	47.40	11.60	-48.0	-51.5	20.8	6.02e-01	0	43	0	72351744	67	5414
2026-01-10 23:54:04.73	47.57	11.66	-48.2	-51.7	20.6	6.03e-01	0	43	0	74448896	67	5556
2026-01-10 23:54:05.74	47.74	11.72	-48.2	-51.5	20.8	6.03e-01	0	43	0	76021760	67	5461
2026-01-10 23:54:06.74	47.92	11.79	-48.0	-51.3	21.0	6.02e-01	0	43	0	78118912	67	5297
2026-01-10 23:54:07.74	48.09	11.85	-48.0	-51.2	21.0	6.03e-01	0	43	0	79691776	67	5263
2026-01-10 23:54:08.74	48.26	11.91	-47.9	-51.1	21.2	6.03e-01	0	43	0	81788928	67	5216
2026-01-10 23:54:09.75	48.44	11.97	-48.0	-51.1	21.2	6.04e-01	0	43	0	83886080	67	5198
2026-01-10 23:54:10.75	48.61	12.04	-48.0	-51.1	21.2	6.03e-01	0	43	0	85458944	67	5190
2026-01-10 23:54:11.75	48.79	12.10	-48.0	-51.2	21.1	6.03e-01	0	43	0	87556096	67	5221
2026-01-10 23:54:12.76	48.96	12.16	-48.1	-51.3	21.1	6.03e-01	0	43	0	89653248	67	5280
2026-01-10 23:54:13.76	49.14	12.22	-48.1	-51.3	20.5	6.05e-01	0	43	0	91226112	67	5303
2026-01-10 23:54:14.76	49.32	12.29	-48.1	-51.3	21.0	6.05e-01	0	43	0	93323264	67	5301
2026-01-10 23:54:15.76	49.50	12.35	-47.9	-51.1	21.2	6.02e-01	0	43	0	94896128	67	5184
2026-01-10 23:54:16.76	49.68	12.41	-48.0	-51.3	21.0	6.02e-01	0	43	0	96993280	67	5281
2026-01-10 23:54:17.77	49.86	12.47	-48.0	-51.2	21.1	6.06e-01	0	43	0	98566144	67	5235
2026-01-10 23:54:18.77	50.04	12.53	-47.8	-51.1	21.2	6.05e-01	0	43	0	100663296	67	5184
2026-01-10 23:54:19.78	50.22	12.60	-47.8	-51.1	21.1	6.02e-01	0	43	0	102760448	67	5202
2026-01-10 23:54:20.78	50.40	12.66	-47.6	-50.9	21.3	6.02e-01	0	43	0	104333312	67	5079
2026-01-10 23:54:21.79	50.59	12.72	-47.6	-51.1	21.2	6.03e-01	0	43	0	106430464	67	5193
2026-01-10 23:54:22.79	50.77	12.78	-47.6	-51.1	21.1	6.05e-01	0	43	0	108003328	67	5207
2026-01-10 23:54:23.79	50.96	12.84	-47.6	-50.9	21.4	6.05e-01	0	43	0	110100480	67	5100
2026-01-10 23:54:24.80	51.15	12.91	-47.6	-50.9	21.4	6.04e-01	0	43	0	111673344	67	5070
2026-01-10 23:54:25.80	51.33	12.97	-47.7	-51.1	21.2	6.03e-01	0	43	0	113770496	67	5164
2026-01-10 23:54:26.81	51.52	13.03	-47.7	-51.0	21.3	6.02e-01	0	43	0	115867648	67	5133
2026-01-10 23:54:27.81	51.71	13.09	-47.7	-51.1	21.2	6.03e-01	0	43	0	117440512	67	5178
2026-01-10 23:54:28.81	51.90	13.15	-47.8	-51.1	21.2	6.04e-01	0	43	0	119537664	67	5181
2026-01-10 23:54:29.81	52.09	13.21	-47.7	-51.0	21.0	6.01e-01	0	43	0	121634816	67	5107
2026-01-10 23:54:30.82	52.28	13.27	-47.7	-50.9	21.3	6.03e-01	0	43	0	123207680	67	5090
2026-01-10 23:54:31.82	52.47	13.33	-47.9	-51.1	21.2	6.04e-01	0	43	0	125304832	67	5186
2026-01-10 23:54:32.82	52.66	13.39	-47.8	-50.9	21.4	6.04e-01	0	43	0	126877696	67	5096
2026-01-10 23:54:33.82	52.86	13.46	-47.8	-50.9	21.4	6.02e-01	0	43	0	128974848	67	5056
2026-01-10 23:54:34.83	53.05	13.52	-47.8	-50.9	21.4	6.03e-01	0	43	0	130547712	67	5082
2026-01-10 23:54:35.83	53.25	13.58	-47.7	-50.8	21.5	6.04e-01	0	43	0	132644864	67	5034
2026-01-10 23:54:36.84	53.45	13.64	-47.7	-50.8	21.5	6.02e-01	0	43	0	134742016	67	4994
2026-01-10 23:54:37.84	53.64	13.70	-47.7	-50.8	21.6	6.02e-01	0	43	0	136314880	67	4987
2026-01-10 23:54:38.84	53.84	13.76	-47.8	-50.9	21.5	6.06e-01	0	43	0	138412032	67	5044
2026-01-10 23:54:39.85	54.04	13.82	-47.8	-50.9	21.4	6.05e-01	0	43	0	139984896	67	5084
2026-01-10 23:54:40.85	54.24	13.88	-47.8	-50.8	21.5	6.02e-01	0	43	0	142082048	67	5024
2026-01-10 23:54:41.85	54.44	13.94	-47.7	-50.7	21.5	6.06e-01	0	43	0	143654912	67	4974
2026-01-10 23:54:42.85	54.64	14.00	-47.6	-50.6	21.7	6.03e-01	0	43	0	145752064	67	4907
2026-01-10 23:54:43.85	54.84	14.06	-47.7	-50.7	21.6	6.05e-01	0	43	0	147849216	67	4965
2026-01-10 23:54:44.86	55.05	14.11	-47.7	-50.8	21.6	6.02e-01	0	43	0	149422080	67	4987
2026-01-10 23:54:45.86	55.25	14.17	-47.7	-50.7	21.6	6.02e-01	0	43	0	151519232	67	4969
2026-01-10 23:54:46.86	55.45	14.23	-47.6	-50.7	21.6	6.01e-01	0	43	0	153092096	67	4942
2026-01-10 23:54:47.87	55.66	14.29	-47.6	-50.6	21.7	6.05e-01	0	43	0	155189248	67	4889
2026-01-10 23:54:48.87	55.87	14.35	-47.7	-50.7	21.6	6.03e-01	0	43	0	157286400	67	4942
2026-01-10 23:54:49.87	56.07	14.41	-47.6	-50.6	21.7	6.03e-01	0	43	0	158859264	67	4923
2026-01-10 23:54:50.87	56.28	14.47	-47.5	-50.6	21.7	6.03e-01	0	43	0	160956416	67	4895
2026-01-10 23:54:51.88	56.49	14.52	-47.7	-50.7	21.6	6.04e-01	0	43	0	162529280	67	4966
2026-01-10 23:54:52.88	56.70	14.58	-47.5	-50.5	21.8	6.02e-01	0	43	0	164626432	67	4862
2026-01-10 23:54:53.89	56.91	14.64	-47.7	-50.7	21.7	6.01e-01	0	43	0	166723584	67	4944
2026-01-10 23:54:54.89	57.12	14.70	-47.7	-50.7	21.7	6.05e-01	0	43	0	168296448	67	4948
2026-01-10 23:54:55.89	57.33	14.75	-47.7	-50.7	21.6	6.04e-01	0	43	0	170393600	67	4977
2026-01-10 23:54:56.90	57.55	14.81	-47.8	-50.8	21.6	6.02e-01	0	43	0	171966464	67	5004
2026-01-10 23:54:57.90	57.76	14.87	-47.7	-50.6	21.7	6.02e-01	0	43	0	174063616	67	4914
2026-01-10 23:54:58.90	57.98	14.93	-47.7	-50.7	21.7	6.02e-01	0	43	0	175636480	67	4937
2026-01-10 23:54:59.90	58.19	14.98	-47.7	-50.6	21.7	6.05e-01	0	43	0	177733632	67	4894
2026-01-10 23:55:00.91	58.41	15.04	-47.7	-50.6	21.6	6.04e-01	0	43	0	179830784	67	4925
2026-01-10 23:55:01.91	58.63	15.09	-47.7	-50.7	21.6	6.05e-01	0	43	0	181403648	67	4958
2026-01-10 23:55:02.91	58.84	15.15	-47.7	-50.7	21.6	6.04e-01	0	43	0	183500800	67	4941
2026-01-10 23:55:03.92	59.06	15.21	-47.7	-50.6	21.6	6.03e-01	0	43	0	185073664	67	4926
2026-01-10 23:55:04.92	59.28	15.26	-47.6	-50.5	21.7	6.03e-01	0	43	0	187170816	67	4864
2026-01-10 23:55:05.92	59.50	15.32	-47.6	-50.5	21.8	6.04e-01	0	43	0	189267968	67	4832
2026-01-10 23:55:06.93	59.73	15.37	-47.6	-50.6	21.8	6.05e-01	0	43	0	190840832	67	4874
2026-01-10 23:55:07.93	59.95	15.43	-47.6	-50.6	21.7	6.04e-01	0	43	0	192937984	67	4914
2026-01-10 23:55:08.93	60.17	15.48	-47.6	-50.7	21.6	6.05e-01	0	43	0	194510848	67	4939
2026-01-10 23:55:09.94	60.40	15.53	-47.5	-50.6	21.8	6.05e-01	0	43	0	196608000	67	4875
2026-01-10 23:55:10.94	60.62	15.59	-47.7	-50.7	21.6	6.05e-01	0	43	0	198705152	67	4937
2026-01-10 23:55:11.95	60.85	15.64	-47.6	-50.6	21.7	6.04e-01	0	43	0	200278016	67	4906
2026-01-10 23:55:12.95	61.08	15.70	-47.6	-50.5	21.8	6.02e-01	0	43	0	202375168	67	4843
2026-01-10 23:55:13.96	61.31	15.75	-47.6	-50.5	21.8	6.04e-01	0	43	0	203948032	67	4858
2026-01-10 23:55:14.96	61.53	15.80	-47.6	-50.6	21.8	6.03e-01	0	43	0	206045184	67	4874
2026-01-10 23:55:15.96	61.76	15.85	-47.7	-50.7	21.7	6.03e-01	0	43	0	208142336	67	4941
2026-01-10 23:55:16.97	61.99	15.91	-47.6	-50.6	21.8	6.02e-01	0	43	0	209715200	67	4889
2026-01-10 23:55:17.97	62.23	15.96	-47.5	-50.5	21.8	6.06e-01	0	43	0	211812352	67	4833
2026-01-10 23:55:18.97	62.46	16.01	-47.5	-50.4	22.0	6.05e-01	0	43	0	213385216	66	5061
2026-01-10 23:55:19.97	62.69	16.06	-47.6	-50.5	21.8	6.02e-01	0	43	0	215482368	66	5133
2026-01-10 23:55:20.98	62.92	16.11	-47.6	-50.5	21.8	6.02e-01	0	43	0	217055232	66	5141
2026-01-10 23:55:21.98	63.16	16.16	-47.5	-50.4	21.9	6.03e-01	0	43	0	219152384	66	5099
2026-01-10 23:55:22.99	63.39	16.21	-47.3	-50.2	22.1	6.06e-01	0	43	0	221249536	66	4966
2026-01-10 23:55:23.99	63.63	16.26	-47.4	-50.3	22.0	6.01e-01	0	43	0	222822400	66	5005
2026-01-10 23:55:24.99	63.87	16.31	-47.4	-50.3	22.0	6.05e-01	0	43	0	224919552	66	5000
2026-01-10 23:55:26.00	64.11	16.36	-47.7	-50.6	21.7	6.05e-01	0	43	0	226492416	66	5196
2026-01-10 23:55:27.00	64.34	16.41	-47.6	-50.5	21.8	6.03e-01	0	43	0	228589568	66	5125
2026-01-10 23:55:28.01	64.58	16.46	-47.6	-50.5	21.9	6.04e-01	0	43	0	230686720	66	5116
2026-01-10 23:55:29.01	64.82	16.51	-47.6	-50.5	21.8	6.04e-01	0	43	0	232259584	66	5136
2026-01-10 23:55:30.01	65.06	16.56	-47.6	-50.4	21.9	6.06e-01	0	43	0	234356736	66	5094
2026-01-10 23:55:31.01	65.31	16.60	-47.6	-50.4	21.9	6.04e-01	0	43	0	235929600	66	5087
2026-01-10 23:55:32.02	65.55	16.65	-47.7	-50.7	21.7	6.03e-01	0	43	0	238026752	66	5221
2026-01-10 23:55:33.02	65.79	16.70	-47.7	-50.6	21.7	6.03e-01	0	43	0	240123904	66	5177
2026-01-10 23:55:34.03	66.04	16.74	-47.6	-50.5	21.8	6.04e-01	0	43	0	241696768	66	5133
2026-01-10 23:55:35.03	66.28	16.79	-47.5	-50.4	21.9	6.03e-01	0	43	0	243793920	66	5071
2026-01-10 23:55:36.03	66.53	16.84	-47.5	-50.4	21.9	6.05e-01	0	43	0	245366784	66	5074
2026-01-10 23:55:37.04	66.78	16.88	-47.7	-50.6	21.7	6.03e-01	0	43	0	247463936	66	5212
2026-01-10 23:55:38.04	67.02	16.93	-47.7	-50.7	21.7	6.03e-01	0	43	0	249036800	66	5247
2026-01-10 23:55:39.04	67.27	16.97	-47.6	-50.5	21.8	6.01e-01	0	43	0	251133952	66	5120
2026-01-10 23:55:40.05	67.52	17.01	-47.6	-50.5	21.9	6.04e-01	0	43	0	253231104	66	5117
2026-01-10 23:55:41.05	67.77	17.06	-47.6	-50.6	21.8	6.01e-01	0	43	0	254803968	66	5180
2026-01-10 23:55:42.05	68.02	17.10	-47.7	-50.6	21.7	6.03e-01	0	43	0	256901120	66	5207
2026-01-10 23:55:43.06	68.27	17.14	-47.7	-50.6	21.7	6.04e-01	0	43	0	258473984	66	5196
2026-01-10 23:55:44.06	68.52	17.19	-47.7	-50.5	21.8	6.06e-01	0	43	0	260571136	66	5159
2026-01-10 23:55:45.06	68.78	17.23	-47.7	-50.6	21.8	6.04e-01	0	43	0	262668288	66	5172
2026-01-10 23:55:46.07	69.03	17.27	-47.7	-50.7	21.7	6.04e-01	0	43	0	264241152	66	5235
2026-01-10 23:55:47.07	69.28	17.31	-47.7	-50.6	21.7	6.05e-01	0	43	0	266338304	66	5205
2026-01-10 23:55:48.07	69.54	17.35	-47.6	-50.5	21.9	6.01e-01	0	43	0	267911168	66	5101
2026-01-10 23:55:49.08	69.80	17.39	-47.5	-50.4	22.0	6.05e-01	0	43	0	270008320	66	5069
2026-01-10 23:55:50.08	70.05	17.43	-47.6	-50.5	21.8	6.02e-01	0	43	0	272105472	66	5152
2026-01-10 23:55:51.09	70.31	17.47	-47.6	-50.6	21.8	6.05e-01	0	43	0	273678336	66	5179
2026-01-10 23:55:52.09	70.57	17.51	-47.6	-50.5	21.9	6.02e-01	0	43	0	275775488	66	5123
2026-01-10 23:55:53.09	70.82	17.55	-47.6	-50.6	21.8	6.03e-01	0	43	0	277348352	66	5175
2026-01-10 23:55:54.10	71.09	17.59	-47.7	-50.6	21.7	6.04e-01	0	43	0	279445504	66	5216
2026-01-10 23:55:55.10	71.34	17.63	-47.8	-50.7	21.7	6.05e-01	0	43	0	281018368	66	5271
2026-01-10 23:55:56.10	71.60	17.66	-47.7	-50.6	21.7	6.03e-01	0	43	0	283115520	66	5216
2026-01-10 23:55:57.11	71.87	17.70	-47.6	-50.5	21.9	6.04e-01	0	43	0	285212672	66	5120
2026-01-10 23:55:58.11	72.13	17.73	-47.5	-50.4	21.9	6.04e-01	0	43	0	286785536	66	5082
2026-01-10 23:55:59.11	72.39	17.77	-47.6	-50.5	21.9	6.04e-01	0	43	0	288882688	66	5133
2026-01-10 23:56:00.12	72.65	17.81	-47.6	-50.5	21.9	6.04e-01	0	43	0	290455552	66	5135
2026-01-10 23:56:01.12	72.92	17.84	-47.6	-50.5	21.9	6.03e-01	0	43	0	292552704	66	5112
2026-01-10 23:56:02.12	73.18	17.87	-47.5	-50.3	22.1	6.04e-01	0	43	0	294649856	66	5013
2026-01-10 23:56:03.13	73.45	17.91	-47.5	-50.4	22.0	6.05e-01	0	43	0	296222720	66	5057
2026-01-10 23:56:04.13	73.71	17.94	-47.6	-50.4	22.0	6.02e-01	0	43	0	298319872	66	5087
2026-01-10 23:56:05.14	73.98	17.97	-47.7	-50.6	21.8	6.04e-01	0	43	0	299892736	66	5203
2026-01-10 23:56:06.14	74.25	18.00	-47.6	-50.5	21.9	6.05e-01	0	43	0	301989888	66	5144
2026-01-10 23:56:07.14	74.51	18.04	-47.5	-50.4	21.9	6.03e-01	0	43	0	303562752	66	5097
2026-01-10 23:56:08.14	74.78	18.07	-47.7	-50.6	21.8	6.05e-01	0	43	0	305659904	66	5189
2026-01-10 23:56:09.15	75.05	18.10	-47.7	-50.6	21.8	6.04e-01	0	43	0	307757056	66	5192
2026-01-10 23:56:10.15	75.32	18.13	-47.6	-50.5	21.9	6.03e-01	0	43	0	309329920	66	5107
2026-01-10 23:56:11.15	75.59	18.16	-47.6	-50.5	21.9	6.03e-01	0	43	0	311427072	66	5116
2026-01-10 23:56:12.16	75.86	18.19	-47.7	-50.5	21.9	6.03e-01	0	43	0	313524224	66	5156
2026-01-10 23:56:13.16	76.13	18.21	-47.6	-50.5	21.9	6.02e-01	0	43	0	315097088	66	5142
2026-01-10 23:56:14.16	76.40	18.24	-47.6	-50.5	21.9	6.03e-01	0	43	0	317194240	66	5159
2026-01-10 23:56:15.17	76.67	18.27	-47.6	-50.5	21.9	6.02e-01	0	43	0	318767104	66	5155
2026-01-10 23:56:16.17	76.95	18.29	-47.6	-50.6	21.8	6.04e-01	0	43	0	320864256	66	5209
2026-01-10 23:56:17.17	77.22	18.32	-47.6	-50.6	21.8	6.02e-01	0	43	0	322437120	66	5164
2026-01-10 23:56:18.18	77.49	18.35	-47.6	-50.6	21.9	6.04e-01	0	43	0	324534272	66	5174
2026-01-10 23:56:19.18	77.77	18.37	-47.7	-50.6	21.8	6.01e-01	0	43	0	326631424	66	5180
2026-01-10 23:56:20.18	78.04	18.39	-47.6	-50.5	21.9	6.03e-01	0	43	0	328204288	66	5142
2026-01-10 23:56:21.19	78.32	18.42	-47.7	-50.6	21.8	6.03e-01	0	43	0	330301440	66	5191
2026-01-10 23:56:22.19	78.59	18.44	-47.6	-50.5	21.9	6.03e-01	0	43	0	331874304	66	5154
2026-01-10 23:56:23.19	78.86	18.46	-47.5	-50.4	22.0	6.05e-01	0	43	0	333971456	66	5086
2026-01-10 23:56:24.19	79.14	18.48	-47.5	-50.4	21.9	6.06e-01	0	43	0	335544320	66	5098
2026-01-10 23:56:25.20	79.42	18.51	-47.6	-50.6	21.8	6.07e-01	0	43	0	337641472	66	5171
2026-01-10 23:56:26.20	79.69	18.53	-47.6	-50.6	21.8	6.00e-01	0	43	0	339738624	66	5211
2026-01-10 23:56:27.20	79.97	18.55	-47.6	-50.6	21.8	6.03e-01	0	43	0	341311488	66	5181
2026-01-10 23:56:28.21	80.25	18.57	-47.5	-50.4	22.0	6.03e-01	0	43	0	343408640	66	5078
2026-01-10 23:56:29.21	80.53	18.58	-47.5	-50.4	21.9	6.03e-01	0	43	0	345505792	66	5088
2026-01-10 23:56:30.21	80.80	18.60	-47.4	-50.4	22.0	6.03e-01	0	43	0	347078656	66	5090
2026-01-10 23:56:31.22	81.08	18.62	-47.5	-50.5	21.9	6.04e-01	0	43	0	349175808	66	5131
2026-01-10 23:56:32.22	81.36	18.64	-47.4	-50.5	21.9	6.04e-01	0	43	0	350748672	66	5126
2026-01-10 23:56:33.22	81.64	18.65	-47.4	-50.5	21.9	6.03e-01	0	43	0	352845824	66	5116
2026-01-10 23:56:34.22	81.92	18.67	-47.5	-50.5	21.8	6.05e-01	0	43	0	354418688	66	5148
2026-01-10 23:56:35.23	82.20	18.68	-47.5	-50.5	21.9	6.02e-01	0	43	0	356515840	66	5116
2026-01-10 23:56:36.23	82.48	18.70	-47.5	-50.5	21.8	6.06e-01	0	43	0	358612992	66	5157
2026-01-10 23:56:37.23	82.76	18.71	-47.4	-50.4	22.0	6.03e-01	0	43	0	360185856	66	5048
2026-01-10 23:56:38.23	83.04	18.72	-47.4	-50.4	21.9	6.03e-01	0	43	0	362283008	66	5092
2026-01-10 23:56:39.24	83.32	18.74	-47.4	-50.4	22.0	6.04e-01	0	43	0	363855872	66	5074
2026-01-10 23:56:40.24	83.60	18.75	-47.3	-50.3	22.0	6.03e-01	0	43	0	365953024	66	5027
2026-01-10 23:56:41.25	83.89	18.76	-47.3	-50.5	22.0	6.02e-01	0	43	0	367525888	66	5120
2026-01-10 23:56:42.25	84.17	18.77	-47.3	-50.5	21.9	6.03e-01	0	43	0	369623040	66	5132
2026-01-10 23:56:43.25	84.45	18.78	-47.3	-50.4	22.0	6.02e-01	0	43	0	371720192	66	5086
2026-01-10 23:56:44.25	84.73	18.79	-47.4	-50.4	22.0	6.03e-01	0	43	0	373293056	66	5095
2026-01-10 23:56:45.26	85.01	18.80	-47.3	-50.3	22.1	6.02e-01	0	43	0	375390208	66	5018
2026-01-10 23:56:46.26	85.30	18.81	-47.4	-50.4	22.0	6.05e-01	0	43	0	377487360	66	5095
2026-01-10 23:56:47.27	85.58	18.81	-47.5	-50.6	21.8	6.04e-01	0	43	0	379060224	66	5180
2026-01-10 23:56:48.27	85.86	18.82	-47.5	-50.5	21.9	6.04e-01	0	43	0	381157376	66	5145
2026-01-10 23:56:49.28	86.15	18.83	-47.3	-50.4	22.0	6.00e-01	0	43	0	382730240	66	5079
2026-01-10 23:56:50.28	86.43	18.83	-47.3	-50.5	22.0	6.02e-01	0	43	0	384827392	66	5104
2026-01-10 23:56:51.28	86.71	18.84	-47.3	-50.5	21.9	6.05e-01	0	43	0	386400256	66	5133
2026-01-10 23:56:52.29	87.00	18.84	-47.4	-50.7	21.7	6.03e-01	0	43	0	388497408	66	5231
2026-01-10 23:56:53.29	87.28	18.84	-47.4	-50.8	21.6	6.03e-01	0	43	0	390594560	66	5281
2026-01-10 23:56:54.29	87.56	18.85	-47.4	-50.8	21.6	6.04e-01	0	43	0	392167424	66	5314
2026-01-10 23:56:55.29	87.84	18.85	-47.2	-50.5	22.0	6.03e-01	0	43	0	394264576	66	5103
2026-01-10 23:56:56.29	88.13	18.85	-47.4	-50.6	21.9	6.06e-01	0	43	0	395837440	66	5198
2026-01-10 23:56:57.30	88.41	18.85	-47.4	-50.5	21.9	6.02e-01	0	43	0	397934592	66	5133
2026-01-10 23:56:58.30	88.69	18.85	-47.4	-50.4	22.0	6.04e-01	0	43	0	399507456	66	5053
2026-01-10 23:56:59.30	88.98	18.85	-47.3	-50.3	22.1	6.04e-01	0	43	0	401604608	66	5010
2026-01-10 23:57:00.31	89.26	18.85	-47.4	-50.4	22.1	6.02e-01	0	43	0	403701760	66	5047
2026-01-10 23:57:01.31	89.54	18.85	-47.5	-50.6	21.8	6.03e-01	0	43	0	405274624	66	5169
2026-01-10 23:57:02.31	89.83	18.84	-47.5	-50.6	21.8	6.05e-01	0	43	0	407371776	66	5213
2026-01-10 23:57:03.32	90.11	18.84	-47.4	-50.5	21.9	6.03e-01	0	43	0	408944640	66	5105
2026-01-10 23:57:04.32	90.39	18.84	-47.3	-50.3	22.1	6.04e-01	0	43	0	411041792	66	5008
2026-01-10 23:57:05.32	90.68	18.83	-47.3	-50.3	22.1	6.03e-01	0	43	0	413138944	66	5016
2026-01-10 23:57:06.32	90.96	18.83	-47.3	-50.4	22.0	6.04e-01	0	43	0	414711808	66	5056
2026-01-10 23:57:07.33	91.24	18.82	-47.3	-50.4	22.0	6.04e-01	0	43	0	416808960	66	5064
2026-01-10 23:57:08.33	91.53	18.81	-47.4	-50.4	21.9	6.03e-01	0	43	0	418381824	66	5070
2026-01-10 23:57:09.33	91.81	18.81	-47.6	-50.6	21.7	6.04e-01	0	43	0	420478976	66	5172
2026-01-10 23:57:10.34	92.09	18.80	-47.5	-50.5	21.9	6.03e-01	0	43	0	422576128	66	5107
2026-01-10 23:57:11.34	92.37	18.79	-47.4	-50.3	22.1	6.03e-01	0	43	0	424148992	66	5018
2026-01-10 23:57:12.34	92.65	18.78	-47.4	-50.3	22.1	6.03e-01	0	43	0	426246144	66	5028
2026-01-10 23:57:13.35	92.94	18.77	-47.5	-50.4	22.1	6.04e-01	0	43	0	427819008	66	5061
2026-01-10 23:57:14.35	93.22	18.76	-47.5	-50.3	22.1	6.02e-01	0	43	0	429916160	66	5036
2026-01-10 23:57:15.36	93.50	18.75	-47.6	-50.4	22.0	6.04e-01	0	43	0	432013312	66	5077
2026-01-10 23:57:16.36	93.78	18.74	-47.6	-50.4	22.0	6.05e-01	0	43	0	433586176	66	5081
2026-01-10 23:57:17.36	94.06	18.73	-47.5	-50.4	22.0	6.04e-01	0	43	0	435683328	66	5077
2026-01-10 23:57:18.37	94.35	18.71	-47.4	-50.3	22.0	6.02e-01	0	43	0	437256192	66	5040
2026-01-10 23:57:19.37	94.63	18.70	-47.5	-50.4	22.0	6.07e-01	0	43	0	439353344	66	5057
2026-01-10 23:57:20.37	94.91	18.68	-47.6	-50.5	21.9	6.04e-01	0	43	0	440926208	66	5137
2026-01-10 23:57:21.38	95.19	18.67	-47.5	-50.4	21.9	6.03e-01	0	43	0	443023360	66	5075
2026-01-10 23:57:22.38	95.47	18.65	-47.4	-50.2	22.1	6.04e-01	0	43	0	445120512	66	4962
2026-01-10 23:57:23.38	95.75	18.64	-47.5	-50.4	22.0	6.04e-01	0	43	0	446693376	66	5065
2026-01-10 23:57:24.39	96.03	18.62	-47.6	-50.5	21.9	6.04e-01	0	43	0	448790528	66	5113
2026-01-10 23:57:25.39	96.31	18.60	-47.6	-50.5	21.9	6.05e-01	0	43	0	450363392	66	5106
2026-01-10 23:57:26.39	96.59	18.58	-47.4	-50.3	22.1	6.03e-01	0	43	0	452460544	66	5003
2026-01-10 23:57:27.40	96.87	18.57	-47.5	-50.3	22.1	6.02e-01	0	43	0	454033408	66	5010
2026-01-10 23:57:28.40	97.14	18.55	-47.4	-50.3	22.1	6.04e-01	0	43	0	456130560	66	4986
2026-01-10 23:57:29.40	97.42	18.53	-47.5	-50.3	22.1	6.01e-01	0	43	0	458227712	66	5008
2026-01-10 23:57:30.41	97.70	18.51	-47.4	-50.2	22.1	6.01e-01	0	43	0	459800576	66	4979
2026-01-10 23:57:31.41	97.97	18.49	-47.3	-50.1	22.2	6.03e-01	0	43	0	461897728	66	4916
2026-01-10 23:57:32.41	98.25	18.46	-47.4	-50.3	22.1	6.05e-01	0	43	0	463994880	66	4988
2026-01-10 23:57:33.42	98.53	18.44	-47.4	-50.3	22.1	6.02e-01	0	43	0	465567744	66	5023
2026-01-10 23:57:34.42	98.80	18.42	-47.5	-50.3	22.0	6.04e-01	0	43	0	467664896	66	5036
2026-01-10 23:57:35.43	99.08	18.39	-47.4	-50.2	22.1	6.03e-01	0	43	0	469237760	66	4965
2026-01-10 23:57:36.43	99.35	18.37	-47.3	-50.1	22.2	6.04e-01	0	43	0	471334912	66	4922
2026-01-10 23:57:37.44	99.63	18.35	-47.4	-50.2	22.2	6.05e-01	0	43	0	472907776	66	4928
2026-01-10 23:57:38.44	99.90	18.32	-47.5	-50.3	22.1	6.04e-01	0	43	0	475004928	66	5024
2026-01-10 23:57:39.44	100.18	18.29	-47.6	-50.4	21.9	6.04e-01	0	43	0	477102080	66	5083
2026-01-10 23:57:40.44	100.45	18.27	-47.5	-50.3	22.0	6.02e-01	0	43	0	478674944	66	5006
2026-01-10 23:57:41.44	100.72	18.24	-47.3	-50.1	22.1	6.03e-01	0	43	0	480772096	66	4919
2026-01-10 23:57:42.45	100.99	18.21	-47.4	-50.2	22.1	6.02e-01	0	43	0	482344960	66	4941
2026-01-10 23:57:43.45	101.26	18.19	-47.4	-50.3	22.1	6.05e-01	0	43	0	484442112	66	4999
2026-01-10 23:57:44.45	101.53	18.16	-47.5	-50.4	22.0	6.04e-01	0	43	0	486014976	66	5052
2026-01-10 23:57:45.45	101.80	18.13	-47.5	-50.3	22.0	6.04e-01	0	43	0	488112128	66	5015
2026-01-10 23:57:46.46	102.08	18.10	-47.3	-50.1	22.2	6.02e-01	0	43	0	490209280	66	4912
2026-01-10 23:57:47.46	102.34	18.07	-47.3	-50.1	22.2	6.05e-01	0	43	0	491782144	66	4871
2026-01-10 23:57:48.46	102.61	18.04	-47.4	-50.2	22.1	6.01e-01	0	43	0	493879296	66	4967
2026-01-10 23:57:49.46	102.88	18.00	-47.5	-50.3	22.0	6.05e-01	0	43	0	495976448	66	5025
2026-01-10 23:57:50.47	103.15	17.97	-47.6	-50.5	21.8	6.02e-01	0	43	0	497549312	66	5108
2026-01-10 23:57:51.47	103.42	17.94	-47.3	-50.1	22.1	6.04e-01	0	43	0	499646464	66	4902
2026-01-10 23:57:52.47	103.68	17.91	-47.2	-50.0	22.3	6.04e-01	0	43	0	501219328	66	4844
2026-01-10 23:57:53.48	103.95	17.87	-47.4	-50.2	22.1	6.02e-01	0	43	0	503316480	66	4969
2026-01-10 23:57:54.48	104.21	17.84	-47.5	-50.3	22.0	6.02e-01	0	43	0	504889344	66	5038
2026-01-10 23:57:55.49	104.48	17.80	-47.5	-50.3	22.0	6.04e-01	0	43	0	506986496	66	5009
2026-01-10 23:57:56.49	104.74	17.77	-47.4	-50.2	22.1	6.04e-01	0	43	0	509083648	66	4943
2026-01-10 23:57:57.49	105.01	17.73	-47.3	-50.0	22.2	6.06e-01	0	43	0	510656512	66	4870
2026-01-10 23:57:58.50	105.27	17.70	-47.3	-50.2	22.1	6.02e-01	0	43	0	512753664	66	4932
2026-01-10 23:57:59.50	105.53	17.66	-47.4	-50.2	22.1	6.03e-01	0	43	0	514326528	66	4962
2026-01-10 23:58:00.50	105.79	17.62	-47.4	-50.3	22.0	6.03e-01	0	43	0	516423680	66	5020
2026-01-10 23:58:01.51	106.05	17.59	-47.3	-50.2	22.1	6.03e-01	0	43	0	518520832	66	4951
2026-01-10 23:58:02.51	106.31	17.55	-47.3	-50.1	22.2	6.04e-01	0	43	0	520093696	66	4906
2026-01-10 23:58:03.51	106.57	17.51	-47.2	-50.1	22.3	6.03e-01	0	43	0	522190848	66	4874
2026-01-10 23:58:04.52	106.83	17.47	-47.3	-50.1	22.2	6.03e-01	0	43	0	523763712	66	4877
2026-01-10 23:58:05.51	107.09	17.43	-47.3	-50.1	22.2	6.05e-01	0	43	0	525860864	66	4922
2026-01-10 23:58:06.52	107.35	17.39	-47.4	-50.2	22.0	6.01e-01	0	43	0	527433728	66	4964
2026-01-10 23:58:07.52	107.60	17.35	-47.4	-50.2	22.1	6.05e-01	0	43	0	529530880	66	4979
2026-01-10 23:58:08.52	107.86	17.31	-47.4	-50.2	22.1	6.02e-01	0	43	0	531628032	66	4957
2026-01-10 23:58:09.53	108.11	17.27	-47.3	-50.1	22.2	6.06e-01	0	43	0	533200896	66	4883
2026-01-10 23:58:10.53	108.37	17.23	-47.2	-50.0	22.3	6.02e-01	0	43	0	535298048	66	4824
2026-01-10 23:58:11.54	108.62	17.18	-47.3	-50.1	22.2	6.02e-01	0	43	0	536870912	66	4885
2026-01-10 23:58:12.54	108.88	17.14	-47.3	-50.1	22.2	6.04e-01	0	43	0	538968064	66	4886
2026-01-10 23:58:13.55	109.13	17.10	-47.3	-50.1	22.2	6.02e-01	0	43	0	541065216	66	4904
2026-01-10 23:58:14.55	109.38	17.05	-47.2	-50.0	22.2	6.03e-01	0	43	0	542638080	66	4859
2026-01-10 23:58:15.55	109.63	17.01	-47.3	-50.2	22.1	6.04e-01	0	43	0	544735232	66	4938
2026-01-10 23:58:16.56	109.88	16.96	-47.3	-50.1	22.1	6.02e-01	0	43	0	546308096	66	4913
2026-01-10 23:58:17.56	110.13	16.92	-47.4	-50.3	22.0	6.02e-01	0	43	0	548405248	66	5022
2026-01-10 23:58:18.56	110.38	16.87	-47.3	-50.2	22.1	6.03e-01	0	43	0	550502400	66	4976
2026-01-10 23:58:19.57	110.63	16.83	-47.3	-50.2	22.1	6.04e-01	0	43	0	552075264	66	4970
2026-01-10 23:58:20.57	110.87	16.78	-47.3	-50.2	22.1	6.02e-01	0	43	0	554172416	66	4941
2026-01-10 23:58:21.57	111.12	16.74	-47.1	-50.0	22.3	6.03e-01	0	43	0	555745280	66	4831
2026-01-10 23:58:22.58	111.37	16.69	-47.2	-50.1	22.2	6.03e-01	0	43	0	557842432	66	4876
2026-01-10 23:58:23.58	111.61	16.64	-47.2	-50.1	22.2	6.04e-01	0	43	0	559415296	66	4917
2026-01-10 23:58:24.59	111.85	16.59	-47.3	-50.2	22.1	6.05e-01	0	43	0	561512448	66	4948
2026-01-10 23:58:25.59	112.10	16.55	-47.2	-50.2	22.1	6.04e-01	0	43	0	563609600	66	4938
2026-01-10 23:58:26.59	112.34	16.50	-47.3	-50.2	22.0	6.04e-01	0	43	0	565182464	66	4983
2026-01-10 23:58:27.60	112.58	16.45	-47.3	-50.2	22.1	6.06e-01	0	43	0	567279616	66	4951
2026-01-10 23:58:28.60	112.82	16.40	-47.4	-50.3	22.0	6.03e-01	0	43	0	568852480	66	5022
2026-01-10 23:58:29.60	113.06	16.35	-47.3	-50.1	22.2	6.05e-01	0	43	0	570949632	66	4898
2026-01-10 23:58:30.61	113.30	16.30	-47.3	-50.1	22.2	6.03e-01	0	43	0	573046784	66	4886
2026-01-10 23:58:31.61	113.54	16.25	-47.3	-50.1	22.2	6.05e-01	0	43	0	574619648	66	4920
2026-01-10 23:58:32.62	113.78	16.20	-47.3	-50.1	22.2	6.02e-01	0	43	0	576716800	66	4885
2026-01-10 23:58:33.62	114.01	16.15	-47.3	-50.0	22.2	6.05e-01	0	43	0	578289664	66	4868
2026-01-10 23:58:34.62	114.25	16.10	-47.4	-50.2	22.2	6.02e-01	0	43	0	580386816	66	4936
2026-01-10 23:58:35.62	114.48	16.05	-47.4	-50.2	22.1	6.06e-01	0	43	0	582483968	66	4957
2026-01-10 23:58:36.63	114.72	16.00	-47.4	-50.2	22.1	6.04e-01	0	43	0	584056832	66	4972
2026-01-10 23:58:37.63	114.95	15.94	-47.3	-50.1	22.1	6.04e-01	0	43	0	586153984	66	4913
2026-01-10 23:58:38.63	115.18	15.89	-47.2	-50.0	22.2	6.03e-01	0	43	0	587726848	66	4850
2026-01-10 23:58:39.63	115.41	15.84	-47.3	-50.1	22.2	6.06e-01	0	43	0	589824000	66	4896
2026-01-10 23:58:40.63	115.64	15.79	-47.3	-50.1	22.2	6.03e-01	0	43	0	591396864	66	4919
2026-01-10 23:58:41.64	115.87	15.73	-47.3	-50.1	22.1	6.03e-01	0	43	0	593494016	66	4910
2026-01-10 23:58:42.64	116.10	15.68	-47.4	-50.2	22.1	6.04e-01	0	43	0	595591168	66	4973
2026-01-10 23:58:43.64	116.33	15.63	-47.3	-50.1	22.2	6.05e-01	0	43	0	597164032	66	4912
2026-01-10 23:58:44.65	116.56	15.57	-47.3	-50.1	22.2	6.02e-01	0	43	0	599261184	66	4893
2026-01-10 23:58:45.65	116.78	15.52	-47.3	-50.1	22.2	6.05e-01	0	43	0	600834048	66	4880
2026-01-10 23:58:46.66	117.01	15.46	-47.4	-50.2	22.1	6.04e-01	0	43	0	602931200	66	4971
2026-01-10 23:58:47.66	117.23	15.41	-47.4	-50.2	22.1	6.02e-01	0	43	0	605028352	66	4952
2026-01-10 23:58:48.66	117.46	15.35	-47.3	-50.1	22.2	6.02e-01	0	43	0	606601216	66	4915
2026-01-10 23:58:49.67	117.68	15.30	-47.2	-50.1	22.2	6.04e-01	0	43	0	608698368	66	4876
2026-01-10 23:58:50.67	117.90	15.24	-47.3	-50.2	22.1	6.06e-01	0	43	0	610271232	66	4936
2026-01-10 23:58:51.68	118.12	15.19	-47.3	-50.2	22.1	6.07e-01	0	43	0	612368384	66	4930
2026-01-10 23:58:52.68	118.34	15.13	-47.3	-50.1	22.1	6.05e-01	0	43	0	614465536	66	4924
2026-01-10 23:58:53.68	118.56	15.08	-47.2	-50.1	22.2	6.04e-01	0	43	0	616038400	66	4899
2026-01-10 23:58:54.68	118.78	15.02	-47.3	-50.2	22.1	6.02e-01	0	43	0	618135552	66	4949
2026-01-10 23:58:55.69	119.00	14.96	-47.3	-50.2	22.1	6.02e-01	0	44	0	619708416	66	4948
2026-01-10 23:58:56.69	119.22	14.91	-47.3	-50.2	22.1	6.04e-01	0	43	0	621805568	66	4940
2026-01-10 23:58:57.70	119.43	14.85	-47.3	-50.2	22.1	6.04e-01	0	43	0	623378432	66	4936
2026-01-10 23:58:58.70	119.65	14.79	-47.4	-50.3	22.0	6.03e-01	0	43	0	625475584	66	5000
2026-01-10 23:58:59.70	119.86	14.73	-47.5	-50.3	21.9	6.04e-01	0	43	0	627572736	66	5027
2026-01-10 23:59:00.71	120.08	14.67	-47.4	-50.2	22.0	6.05e-01	0	43	0	629145600	66	4983
2026-01-10 23:59:01.71	120.29	14.62	-47.4	-50.2	22.1	6.03e-01	0	43	0	631242752	66	4944
2026-01-10 23:59:02.71	120.50	14.56	-47.4	-50.2	22.0	6.03e-01	0	43	0	632815616	66	4963
2026-01-10 23:59:03.72	120.71	14.50	-47.5	-50.3	21.9	6.06e-01	0	43	0	634912768	66	5032
2026-01-10 23:59:04.72	120.92	14.44	-47.5	-50.4	21.9	6.04e-01	0	43	0	637009920	66	5098
2026-01-10 23:59:05.72	121.13	14.38	-47.4	-50.3	22.0	6.05e-01	0	43	0	638582784	66	5003
2026-01-10 23:59:06.73	121.34	14.32	-47.4	-50.3	22.0	6.03e-01	0	43	0	640679936	66	4996
2026-01-10 23:59:07.73	121.55	14.27	-47.6	-50.5	21.9	6.03e-01	0	43	0	642252800	66	5103
2026-01-10 23:59:08.74	121.75	14.21	-47.6	-50.5	21.8	6.03e-01	0	43	0	644349952	66	5106
2026-01-10 23:59:09.74	121.96	14.15	-47.6	-50.4	21.9	6.05e-01	0	43	0	646447104	66	5091
2026-01-10 23:59:10.74	122.16	14.09	-47.6	-50.5	21.8	6.04e-01	0	43	0	648019968	66	5104
2026-01-10 23:59:11.75	122.37	14.03	-47.5	-50.4	21.9	6.04e-01	0	43	0	650117120	66	5075
2026-01-10 23:59:12.75	122.57	13.97	-47.7	-50.6	21.7	6.04e-01	0	43	0	651689984	66	5181
2026-01-10 23:59:13.75	122.77	13.91	-47.6	-50.5	21.8	6.04e-01	0	43	0	653787136	66	5139
2026-01-10 23:59:14.76	122.98	13.85	-47.6	-50.5	21.7	6.05e-01	0	43	0	655884288	66	5143
2026-01-10 23:59:15.76	123.18	13.79	-47.5	-50.4	21.8	6.04e-01	0	43	0	657457152	66	5096
2026-01-10 23:59:16.76	123.37	13.73	-47.6	-50.5	21.8	6.02e-01	0	43	0	659554304	66	5106
2026-01-10 23:59:17.76	123.57	13.67	-47.6	-50.5	21.7	6.05e-01	0	43	0	661127168	66	5149
2026-01-10 23:59:18.77	123.77	13.60	-47.6	-50.5	21.8	6.04e-01	0	43	0	663224320	66	5108
2026-01-10 23:59:19.77	123.97	13.54	-47.4	-50.3	21.9	6.05e-01	0	43	0	664797184	66	5013
2026-01-10 23:59:20.77	124.16	13.48	-47.5	-50.4	21.9	6.03e-01	0	43	0	666894336	66	5050
2026-01-10 23:59:21.78	124.36	13.42	-47.5	-50.3	21.9	6.04e-01	0	43	0	668991488	66	5038
2026-01-10 23:59:22.78	124.56	13.36	-47.5	-50.4	21.9	6.05e-01	0	43	0	670564352	66	5046
2026-01-10 23:59:23.78	124.75	13.30	-47.5	-50.4	21.9	6.03e-01	0	43	0	672661504	66	5066
2026-01-10 23:59:24.79	124.94	13.24	-47.5	-50.5	21.8	6.00e-01	0	43	0	674234368	66	5114
2026-01-10 23:59:25.79	125.13	13.18	-47.5	-50.4	21.8	6.01e-01	0	43	0	676331520	66	5077
2026-01-10 23:59:26.80	125.33	13.11	-47.6	-50.5	21.7	6.02e-01	0	43	0	677904384	66	5159
2026-01-10 23:59:27.80	125.52	13.05	-47.6	-50.5	21.7	6.03e-01	0	43	0	680001536	66	5136
2026-01-10 23:59:28.81	125.71	12.99	-47.6	-50.5	21.7	6.02e-01	0	43	0	682098688	66	5157
2026-01-10 23:59:29.81	125.90	12.93	-47.5	-50.3	21.8	6.05e-01	0	43	0	683671552	66	5039
2026-01-10 23:59:30.81	126.08	12.87	-47.5	-50.4	21.8	6.03e-01	0	44	0	685768704	66	5076
2026-01-10 23:59:31.82	126.27	12.80	-47.6	-50.5	21.6	6.03e-01	0	43	0	687865856	66	5155
2026-01-10 23:59:32.82	126.46	12.74	-47.7	-50.6	21.6	6.03e-01	0	43	0	689438720	66	5203
2026-01-10 23:59:33.82	126.64	12.68	-47.8	-50.7	21.2	6.04e-01	0	43	0	691535872	66	5277
2026-01-10 23:59:34.83	126.83	12.62	-47.7	-50.6	21.6	6.04e-01	0	43	0	693108736	66	5205
2026-01-10 23:59:35.83	127.01	12.55	-47.7	-50.7	21.5	6.02e-01	0	43	0	695205888	66	5245
2026-01-10 23:59:36.83	127.19	12.49	-47.6	-50.6	21.7	6.05e-01	0	43	0	696778752	66	5180
2026-01-10 23:59:37.84	127.38	12.43	-47.6	-50.5	21.7	6.03e-01	0	43	0	698875904	66	5158
2026-01-10 23:59:38.83	127.56	12.37	-47.5	-50.6	21.7	6.05e-01	0	43	0	700973056	66	5167
2026-01-10 23:59:39.84	127.74	12.30	-47.6	-50.6	21.6	6.04e-01	0	43	0	702545920	66	5204
2026-01-10 23:59:40.84	127.92	12.24	-47.5	-50.6	21.6	6.04e-01	0	43	0	704643072	66	5196
2026-01-10 23:59:41.84	128.10	12.18	-47.5	-50.7	21.5	6.05e-01	0	43	0	706215936	66	5226
2026-01-10 23:59:42.85	128.28	12.11	-47.5	-50.7	21.5	6.05e-01	0	43	0	708313088	66	5271
2026-01-10 23:59:43.85	128.45	12.05	-47.6	-50.8	21.4	6.04e-01	0	43	0	709885952	66	5323
2026-01-10 23:59:44.85	128.63	11.99	-47.5	-50.7	21.5	6.02e-01	0	43	0	711983104	66	5249
2026-01-10 23:59:45.86	128.81	11.93	-47.6	-50.7	21.5	6.04e-01	0	43	0	714080256	66	5250
2026-01-10 23:59:46.86	128.98	11.86	-47.5	-50.5	21.7	6.04e-01	0	43	0	715653120	66	5139
2026-01-10 23:59:47.86	129.15	11.80	-47.6	-50.6	21.6	6.01e-01	0	43	0	717750272	66	5198
2026-01-10 23:59:48.86	129.33	11.74	-47.6	-50.6	21.5	6.02e-01	0	43	0	719847424	66	5211
2026-01-10 23:59:49.87	129.50	11.67	-47.6	-50.7	21.5	6.04e-01	0	43	0	721420288	66	5233
2026-01-10 23:59:50.86	129.67	11.61	-47.7	-50.8	21.5	6.04e-01	0	43	0	723517440	66	5283
2026-01-10 23:59:51.87	129.84	11.55	-47.7	-50.8	21.4	6.03e-01	0	43	0	725090304	66	5312
2026-01-10 23:59:52.87	130.01	11.48	-47.7	-50.8	21.5	6.02e-01	0	43	0	727187456	66	5291
2026-01-10 23:59:53.87	130.18	11.42	-47.7	-50.8	21.4	6.03e-01	0	43	0	728760320	66	5323
2026-01-10 23:59:54.88	130.35	11.36	-47.8	-50.9	21.3	6.04e-01	0	43	0	730857472	66	5378
2026-01-10 23:59:55.88	130.52	11.29	-47.8	-50.9	21.3	6.02e-01	0	43	0	732954624	66	5383
2026-01-10 23:59:56.88	130.69	11.23	-47.9	-51.1	21.1	6.01e-01	0	43	0	734527488	66	5478
2026-01-10 23:59:57.88	130.85	11.17	-48.0	-51.1	21.1	6.04e-01	0	43	0	736624640	66	5525
2026-01-10 23:59:58.89	131.02	11.10	-47.9	-51.1	21.1	6.02e-01	0	44	0	738197504	66	5483
2026-01-10 23:59:59.89	131.18	11.04	-48.0	-51.1	21.0	6.05e-01	0	43	0	740294656	66	5526
2026-01-11 00:00:00.89	131.35	10.97	-47.9	-51.1	21.1	6.03e-01	0	43	0	741867520	66	5468
2026-01-11 00:00:01.90	131.51	10.91	-48.0	-51.2	21.0	6.04e-01	0	43	0	743964672	66	5558
2026-01-11 00:00:02.90	131.67	10.85	-48.0	-51.2	21.0	6.03e-01	0	43	0	746061824	66	5543
2026-01-11 00:00:03.90	131.84	10.78	-47.9	-51.1	21.1	6.02e-01	0	43	0	747634688	66	5497
2026-01-11 00:00:04.91	132.00	10.72	-47.9	-51.1	21.1	6.05e-01	0	43	0	749731840	66	5469
2026-01-11 00:00:05.91	132.16	10.66	-47.9	-51.0	20.1	6.00e-01	0	43	0	751304704	66	5437
2026-01-11 00:00:06.91	132.32	10.59	-47.9	-51.0	21.1	6.04e-01	0	43	0	753401856	66	5450
2026-01-11 00:00:07.92	132.48	10.53	-47.9	-51.0	21.1	6.03e-01	0	43	0	755499008	66	5459
2026-01-11 00:00:08.92	132.64	10.47	-47.9	-51.0	21.2	6.01e-01	0	43	0	757071872	66	5409
2026-01-11 00:00:09.92	132.79	10.40	-47.9	-51.1	21.1	6.06e-01	0	43	0	759169024	66	5479
2026-01-11 00:00:10.93	132.95	10.34	-48.0	-51.2	21.0	6.01e-01	0	43	0	760741888	66	5535
2026-01-11 00:00:11.93	133.11	10.27	-48.0	-51.2	21.0	6.05e-01	0	43	0	762839040	66	5545
2026-01-11 00:00:12.93	133.26	10.21	-48.1	-51.3	20.8	6.04e-01	0	43	0	764936192	66	5633
2026-01-11 00:00:13.93	133.42	10.15	-48.1	-51.3	20.9	6.07e-01	0	43	0	766509056	66	5638
2026-01-11 00:00:14.94	133.57	10.08	-48.0	-51.3	20.9	6.04e-01	0	43	0	768606208	66	5615
2026-01-11 00:00:15.94	133.72	10.02	-48.1	-51.4	20.8	6.04e-01	0	43	0	770179072	66	5678
2026-01-11 00:00:16.94	133.88	9.96	-48.0	-51.3	20.9	6.02e-01	0	44	0	772276224	66	5604
2026-01-11 00:00:17.95	134.03	9.89	-48.1	-51.4	20.8	6.02e-01	0	43	0	773849088	66	5691
2026-01-11 00:00:18.95	134.18	9.83	-48.2	-51.5	20.7	6.03e-01	0	44	0	775946240	67	5433
2026-01-11 00:00:19.95	134.33	9.77	-48.2	-51.5	20.7	6.04e-01	0	43	0	778043392	67	5448
2026-01-11 00:00:20.95	134.48	9.70	-48.3	-51.7	20.5	6.04e-01	0	43	0	779616256	67	5531
2026-01-11 00:00:21.96	134.63	9.64	-48.2	-51.5	20.7	6.02e-01	0	43	0	781713408	67	5429
2026-01-11 00:00:22.96	134.78	9.57	-48.2	-51.5	20.6	6.06e-01	0	43	0	783286272	67	5459
2026-01-11 00:00:23.96	134.93	9.51	-48.2	-51.5	20.6	6.05e-01	0	43	0	785383424	67	5441
2026-01-11 00:00:24.97	135.07	9.45	-48.1	-51.4	20.7	6.04e-01	0	43	0	787480576	67	5379
2026-01-11 00:00:25.97	135.22	9.38	-48.1	-51.3	20.8	6.03e-01	0	43	0	789053440	67	5310
2026-01-11 00:00:26.97	135.37	9.32	-48.1	-51.4	20.7	6.02e-01	0	44	0	791150592	67	5390
2026-01-11 00:00:27.98	135.51	9.26	-48.2	-51.5	20.6	6.03e-01	0	43	0	792723456	67	5463
2026-01-11 00:00:28.98	135.66	9.19	-48.3	-51.6	20.5	6.03e-01	0	43	0	794820608	67	5515
2026-01-11 00:00:29.98	135.80	9.13	-48.3	-51.6	20.5	6.05e-01	0	43	0	796917760	67	5483
2026-01-11 00:00:30.99	135.94	9.07	-48.3	-51.6	20.5	6.04e-01	0	43	0	798490624	67	5508
2026-01-11 00:00:31.99	136.09	9.00	-48.3	-51.7	20.4	6.06e-01	0	43	0	800587776	67	5557
2026-01-11 00:00:32.99	136.23	8.94	-53.4	-73.4	3.5	7.48e-01	0	44	104	802160640	77	38178
2026-01-11 00:00:33.99	136.37	8.88	-53.6	-73.5	3.8	7.46e-01	0	43	104	802160640	78	36452
2026-01-11 00:00:35.00	136.51	8.81	-53.6	-73.9	3.8	7.48e-01	0	43	104	802160640	78	37958
2026-01-11 00:00:36.00	136.65	8.75	-54.0	-74.0	3.8	7.47e-01	0	43	104	802160640	78	38279
2026-01-11 00:00:37.01	136.79	8.69	-53.4	-74.0	3.8	7.43e-01	0	43	104	802160640	78	38581
2026-01-11 00:00:38.01	136.93	8.63	-54.1	-74.0	3.8	7.43e-01	0	43	104	802160640	79	36476
2026-01-11 00:00:39.02	137.07	8.56	-54.1	-74.1	3.8	7.44e-01	0	43	104	802160640	79	36791
2026-01-11 00:00:40.02	137.20	8.50	-53.9	-74.2	3.8	7.43e-01	0	44	104	802160640	79	37028
2026-01-11 00:00:41.03	137.34	8.44	-54.2	-74.2	3.8	7.46e-01	0	43	104	802160640	79	36982
2026-01-11 00:00:42.03	137.48	8.37	-53.5	-74.2	3.7	7.47e-01	0	44	104	802160640	78	39339
2026-01-11 00:00:43.03	137.61	8.31	-54.3	-74.2	3.8	7.45e-01	0	43	104	802160640	79	37169
2026-01-11 00:00:44.04	137.75	8.25	-54.0	-74.2	3.8	7.45e-01	0	43	104	802160640	79	37324
2026-01-11 00:00:45.04	137.88	8.18	-54.0	-74.2	3.8	7.48e-01	0	43	104	802160640	79	37373
2026-01-11 00:00:46.05	138.02	8.12	-54.2	-74.3	3.8	7.45e-01	0	43	104	802160640	79	37393
2026-01-11 00:00:47.05	138.15	8.06	-54.4	-74.2	3.8	7.46e-01	0	44	104	802160640	79	37294
2026-01-11 00:00:48.06	138.28	8.00	-53.8	-74.3	3.8	7.48e-01	0	44	104	802160640	79	37427
2026-01-11 00:00:49.06	138.42	7.93	-53.9	-74.2	3.8	7.48e-01	0	43	104	802160640	79	37354
2026-01-11 00:00:50.07	138.55	7.87	-53.3	-74.3	3.8	7.42e-01	0	43	104	802160640	78	39598
2026-01-11 00:00:51.07	138.68	7.81	-53.6	-74.2	3.8	7.46e-01	0	43	104	802160640	78	39534
2026-01-11 00:00:52.07	138.81	7.75	-53.9	-74.3	3.8	7.46e-01	0	44	104	802160640	78	39719
2026-01-11 00:00:53.08	138.94	7.68	-53.9	-74.2	3.8	7.45e-01	0	43	104	802160640	78	39559
2026-01-11 00:00:54.08	139.07	7.62	-53.9	-74.2	3.8	7.45e-01	0	43	104	802160640	78	39560
2026-01-11 00:00:55.09	139.20	7.56	-53.9	-74.2	3.8	7.45e-01	0	43	104	802160640	78	39483
2026-01-11 00:00:56.09	139.33	7.50	-53.9	-74.2	3.8	7.48e-01	0	43	104	802160640	78	39484
2026-01-11 00:00:57.09	139.45	7.44	-53.8	-74.2	3.8	7.46e-01	0	44	104	802160640	78	39437
2026-01-11 00:00:58.10	139.58	7.37	-53.9	-74.2	3.8	7.46e-01	0	43	104	802160640	78	39534
2026-01-11 00:00:59.10	139.71	7.31	-53.9	-74.2	3.8	7.44e-01	0	44	104	802160640	78	39505
2026-01-11 00:01:00.11	139.83	7.25	-53.8	-74.2	3.8	7.45e-01	0	43	104	802160640	78	39577
2026-01-11 00:01:01.11	139.96	7.19	-53.8	-74.2	3.8	7.45e-01	0	44	104	802160640	78	39507
2026-01-11 00:01:02.12	140.08	7.12	-53.8	-74.2	3.8	7.44e-01	0	43	104	802160640	78	39416
2026-01-11 00:01:03.12	140.21	7.06	-53.8	-74.2	3.8	7.47e-01	0	44	104	802160640	78	39237
2026-01-11 00:01:04.13	140.33	7.00	-53.8	-74.2	3.8	7.47e-01	0	43	104	802160640	78	39277
2026-01-11 00:01:05.13	140.45	6.94	-53.8	-74.2	3.8	7.46e-01	0	43	104	802160640	78	39270
2026-01-11 00:01:06.13	140.57	6.88	-53.8	-74.2	3.8	7.49e-01	0	43	104	802160640	78	39375
2026-01-11 00:01:07.14	140.70	6.82	-53.8	-74.2	3.8	7.44e-01	0	43	104	802160640	78	39331
2026-01-11 00:01:08.14	140.82	6.75	-53.8	-74.2	3.8	7.47e-01	0	44	104	802160640	78	39356
2026-01-11 00:01:09.15	140.94	6.69	-53.8	-74.2	3.8	7.48e-01	0	43	104	802160640	78	39331
2026-01-11 00:01:10.15	141.06	6.63	-53.8	-74.2	3.8	7.48e-01	0	44	104	802160640	78	39371
2026-01-11 00:01:11.16	141.18	6.57	-53.8	-74.2	3.8	7.44e-01	0	44	104	802160640	78	39377
2026-01-11 00:01:12.16	141.30	6.51	-53.8	-74.2	3.8	7.46e-01	0	44	104	802160640	78	39310
2026-01-11 00:01:13.16	141.42	6.45	-53.8	-74.2	3.8	7.46e-01	0	43	104	802160640	78	39413
2026-01-11 00:01:14.17	141.54	6.39	-53.8	-74.2	3.8	7.45e-01	0	43	104	802160640	78	39425
2026-01-11 00:01:15.17	141.65	6.33	-53.8	-74.2	3.8	7.45e-01	0	44	104	802160640	78	39387
2026-01-11 00:01:16.18	141.77	6.26	-53.8	-74.2	3.8	7.46e-01	0	44	104	802160640	78	39436
2026-01-11 00:01:17.18	141.89	6.20	-53.8	-74.2	3.8	7.49e-01	0	44	104	802160640	78	39302
2026-01-11 00:01:18.18	142.00	6.14	-53.8	-74.2	3.8	7.46e-01	0	43	104	802160640	78	39407
2026-01-11 00:01:19.19	142.12	6.08	-53.8	-74.2	3.8	7.45e-01	0	44	104	802160640	78	39304
2026-01-11 00:01:20.19	142.23	6.02	-53.8	-74.2	3.8	7.44e-01	0	44	104	802160640	78	39369
2026-01-11 00:01:21.20	142.35	5.96	-53.8	-74.2	3.8	7.47e-01	0	44	104	802160640	78	39393
2026-01-11 00:01:22.20	142.46	5.90	-53.8	-74.2	3.8	7.46e-01	0	43	104	802160640	78	39293
2026-01-11 00:01:23.20	142.57	5.84	-53.8	-74.2	3.8	7.46e-01	0	44	104	802160640	78	39254
2026-01-11 00:01:24.21	142.69	5.78	-53.8	-74.2	3.8	7.48e-01	0	44	104	802160640	78	39189
2026-01-11 00:01:25.21	142.80	5.72	-53.8	-74.2	3.8	7.47e-01	0	43	104	802160640	78	39313
2026-01-11 00:01:26.22	142.91	5.66	-53.8	-74.2	3.8	7.43e-01	0	43	104	802160640	78	39348
2026-01-11 00:01:27.22	143.02	5.60	-53.8	-74.2	3.8	7.48e-01	0	44	104	802160640	78	39372
2026-01-11 00:01:28.23	143.14	5.54	-53.8	-74.2	3.8	7.48e-01	0	43	104	802160640	78	39382
2026-01-11 00:01:29.23	143.25	5.48	-53.8	-74.2	3.8	7.48e-01	0	43	104	802160640	78	39383
2026-01-11 00:01:30.23	143.36	5.42	-53.8	-74.2	3.8	7.43e-01	0	44	104	802160640	78	39327
2026-01-11 00:01:31.24	143.47	5.36	-53.8	-74.2	3.8	7.47e-01	0	44	104	802160640	78	39278
2026-01-11 00:01:32.24	143.58	5.30	-53.8	-74.2	3.8	7.45e-01	0	43	104	802160640	78	39354
2026-01-11 00:01:33.25	143.68	5.24	-53.8	-74.2	3.8	7.48e-01	0	44	104	802160640	78	39308
2026-01-11 00:01:34.25	143.79	5.18	-53.8	-74.2	3.8	7.45e-01	0	44	104	802160640	78	39380
2026-01-11 00:01:35.26	143.90	5.12	-5
