passes_logs/2026/01/10/T1/T1__20260110_053525_FENGYUN_3E_rec.log

#Pass ID: 20260110_053525_FENGYUN 3E
#Satellite: FENGYUN 3E
#Configuration: FENGYUN 3E
#almurnet v.1.7.20251203
#Start time: 2026-01-10 05:35:25

#Version: 2.0.20230620
#Station: T1
#Location: 37.570604 lon 55.790049 lat
#TLE: 1 49008U 21062A   26009.29780149 -.00000002  00000+0  19895-4 0  9997
#TLE: 2 49008  98.7484  14.4929 0001744 148.2300 211.8982 14.19883977234036

#Time	Az	El	Level	Level2	SNR	BER	BlckErr	Temp	State	Recorded	gain1	gain2
2026-01-10 05:35:25.94	6.73	5.04	-52.6	-63.8	3.8	8.46e-01	0	37	0	0	74	13933
2026-01-10 05:35:26.94	6.65	5.10	-51.5	-63.2	3.8	8.47e-01	0	37	104	0	73	13804
2026-01-10 05:35:27.95	6.57	5.16	-51.5	-63.3	3.8	8.47e-01	0	37	104	0	73	13936
2026-01-10 05:35:28.95	6.49	5.23	-51.5	-63.1	3.8	8.48e-01	0	37	104	0	73	13650
2026-01-10 05:35:29.95	6.41	5.29	-51.5	-63.1	3.8	8.46e-01	0	37	104	0	73	13671
2026-01-10 05:35:30.96	6.33	5.35	-51.5	-63.1	3.8	8.47e-01	0	38	104	0	73	13724
2026-01-10 05:35:31.97	6.25	5.41	-51.5	-63.2	3.8	8.48e-01	0	37	104	0	73	13748
2026-01-10 05:35:32.97	6.17	5.47	-51.5	-63.1	3.8	8.46e-01	0	37	104	0	73	13714
2026-01-10 05:35:33.97	6.09	5.54	-51.5	-63.2	3.8	8.47e-01	0	38	104	0	73	13742
2026-01-10 05:35:34.98	6.01	5.60	-51.5	-63.2	3.8	8.46e-01	0	38	104	0	73	13791
2026-01-10 05:35:35.98	5.93	5.66	-51.5	-63.3	3.8	8.47e-01	0	38	104	0	73	13941
2026-01-10 05:35:36.99	5.85	5.72	-51.5	-63.3	3.8	8.47e-01	0	38	104	0	73	14005
2026-01-10 05:35:37.99	5.77	5.78	-51.5	-63.2	3.8	8.48e-01	0	38	104	0	73	13884
2026-01-10 05:35:39.00	5.68	5.85	-51.5	-63.3	3.8	8.47e-01	0	38	104	0	73	13966
2026-01-10 05:35:40.00	5.60	5.91	-51.5	-63.3	3.8	8.48e-01	0	38	104	0	73	14026
2026-01-10 05:35:41.01	5.52	5.97	-51.5	-63.3	3.8	8.49e-01	0	38	104	0	73	13946
2026-01-10 05:35:42.01	5.43	6.04	-51.5	-63.2	3.8	8.46e-01	0	38	104	0	73	13873
2026-01-10 05:35:43.01	5.35	6.10	-51.5	-63.3	3.8	8.47e-01	0	38	104	0	73	13925
2026-01-10 05:35:44.02	5.27	6.16	-51.5	-63.3	3.8	8.47e-01	0	38	104	0	73	13909
2026-01-10 05:35:45.02	5.18	6.22	-51.5	-63.3	3.8	8.47e-01	0	38	104	0	73	13922
2026-01-10 05:35:46.03	5.10	6.29	-51.5	-63.2	3.8	8.48e-01	0	38	104	0	73	13842
2026-01-10 05:35:47.03	5.01	6.35	-51.5	-63.3	3.8	8.47e-01	0	38	104	0	73	13990
2026-01-10 05:35:48.03	4.93	6.41	-51.5	-63.3	3.8	8.47e-01	0	38	104	0	73	13951
2026-01-10 05:35:49.04	4.84	6.48	-51.5	-63.3	3.8	8.46e-01	0	38	104	0	73	13989
2026-01-10 05:35:50.04	4.75	6.54	-51.5	-63.4	3.8	8.47e-01	0	38	104	0	73	14075
2026-01-10 05:35:51.05	4.67	6.60	-51.5	-63.4	3.8	8.47e-01	0	38	104	0	73	14051
2026-01-10 05:35:52.05	4.58	6.67	-51.5	-63.3	3.8	8.46e-01	0	38	104	0	73	14008
2026-01-10 05:35:53.05	4.49	6.73	-51.5	-63.4	3.8	8.47e-01	0	38	104	0	73	14087
2026-01-10 05:35:54.06	4.40	6.80	-51.5	-63.2	3.8	8.46e-01	0	38	104	0	73	13854
2026-01-10 05:35:55.06	4.31	6.86	-51.5	-63.1	3.8	8.46e-01	0	38	104	0	73	13676
2026-01-10 05:35:56.07	4.22	6.92	-51.5	-62.9	3.8	8.47e-01	0	38	104	0	73	13341
2026-01-10 05:35:57.07	4.13	6.99	-51.5	-62.8	3.8	8.47e-01	0	38	104	0	73	13134
2026-01-10 05:35:58.07	4.05	7.05	-51.4	-62.7	3.8	8.46e-01	0	38	104	0	73	12966
2026-01-10 05:35:59.08	3.95	7.12	-51.4	-62.4	3.8	8.46e-01	0	39	104	0	73	12601
2026-01-10 05:36:00.08	3.86	7.18	-51.4	-62.3	3.8	8.48e-01	0	39	104	0	73	12416
2026-01-10 05:36:01.09	3.77	7.25	-51.4	-62.0	3.8	8.46e-01	0	39	104	0	73	12068
2026-01-10 05:36:02.09	3.68	7.31	-51.3	-61.7	3.8	8.46e-01	0	38	104	0	73	11610
2026-01-10 05:36:03.09	3.59	7.37	-51.3	-61.4	3.8	8.45e-01	0	39	104	0	73	11190
2026-01-10 05:36:04.10	3.50	7.44	-51.2	-61.0	3.9	8.45e-01	0	39	104	0	73	10681
2026-01-10 05:36:05.10	3.40	7.50	-51.2	-60.8	3.9	8.44e-01	0	39	104	0	73	10516
2026-01-10 05:36:06.11	3.31	7.57	-51.2	-61.0	4.0	8.45e-01	0	39	104	0	73	10657
2026-01-10 05:36:07.11	3.22	7.63	-51.3	-61.4	3.9	8.45e-01	0	39	104	0	73	11188
2026-01-10 05:36:08.12	3.12	7.70	-51.4	-62.1	3.8	8.46e-01	0	39	104	0	73	12176
2026-01-10 05:36:09.12	3.03	7.76	-51.5	-63.1	3.8	8.47e-01	0	39	104	0	73	13578
2026-01-10 05:36:10.13	2.93	7.83	-51.5	-63.2	3.8	8.48e-01	0	39	104	0	73	13777
2026-01-10 05:36:11.13	2.84	7.90	-51.4	-62.2	3.8	8.47e-01	0	39	104	0	73	12275
2026-01-10 05:36:12.13	2.74	7.96	-51.2	-60.2	4.1	8.43e-01	0	39	104	0	73	9764
2026-01-10 05:36:13.14	2.64	8.03	-50.8	-57.9	5.0	8.01e-01	0	39	0	0	72	7964
2026-01-10 05:36:14.14	2.55	8.09	-50.3	-56.0	6.3	2.97e-01	0	39	0	2097152	71	6752
2026-01-10 05:36:15.15	2.45	8.16	-49.8	-54.5	7.7	1.19e-01	0	39	0	9437184	70	6029
2026-01-10 05:36:16.15	2.35	8.22	-49.1	-53.1	9.2	3.81e-02	0	39	0	16777216	69	5407
2026-01-10 05:36:17.16	2.25	8.29	-48.8	-52.3	10.0	1.08e-02	0	39	0	24117248	68	5224
2026-01-10 05:36:18.16	2.16	8.36	-48.0	-51.0	11.1	2.33e-03	0	39	0	31457280	66	5093
2026-01-10 05:36:19.16	2.06	8.42	-47.4	-50.1	12.1	2.93e-04	0	39	0	37748736	65	4837
2026-01-10 05:36:20.17	1.96	8.49	-46.9	-49.3	12.9	6.98e-05	0	39	0	45088768	64	4686
2026-01-10 05:36:21.17	1.86	8.56	-46.4	-48.6	13.7	1.60e-05	0	39	0	52428800	63	4561
2026-01-10 05:36:22.18	1.76	8.62	-46.2	-48.3	14.0	6.80e-06	0	39	0	59768832	63	4419
2026-01-10 05:36:23.18	1.66	8.69	-45.9	-47.8	14.5	1.10e-06	0	39	0	67108864	62	4432
2026-01-10 05:36:24.18	1.55	8.75	-45.7	-47.7	14.7	0.00e+00	0	39	0	74448896	62	4344
2026-01-10 05:36:25.19	1.45	8.82	-46.1	-48.2	14.1	3.40e-06	0	39	0	81788928	62	4615
2026-01-10 05:36:26.19	1.35	8.89	-46.4	-48.5	13.8	6.80e-06	0	39	0	89128960	62	4800
2026-01-10 05:36:27.20	1.25	8.96	-47.2	-49.8	12.5	6.63e-05	0	39	0	96468992	63	5223
2026-01-10 05:36:28.20	1.14	9.02	-47.9	-50.9	11.3	9.59e-04	0	39	0	103809024	65	5306
2026-01-10 05:36:29.41	1.02	9.10	-47.7	-50.4	11.7	3.64e-03	0	39	0	112197632	66	4733
2026-01-10 05:36:30.30	0.93	9.16	-46.5	-48.6	13.8	3.40e-06	0	39	0	118489088	63	4578
2026-01-10 05:36:31.62	0.79	9.25	-51.0	-57.7	5.2	7.81e-01	0	39	0	123731968	71	8177
2026-01-10 05:36:32.34	0.71	9.30	-50.4	-55.3	6.8	6.22e-01	0	39	0	124780544	71	6240
2026-01-10 05:36:33.84	0.55	9.40	-45.2	-46.9	15.4	0.00e+00	0	39	0	135266304	61	4213
2026-01-10 05:36:34.55	0.48	9.45	-45.6	-47.4	14.9	0.00e+00	0	39	0	140509184	61	4449
2026-01-10 05:36:35.84	0.34	9.53	-45.1	-46.7	15.6	0.00e+00	0	39	0	149946368	60	4369
2026-01-10 05:36:36.55	0.26	9.58	-45.0	-46.6	15.7	0.00e+00	0	39	0	155189248	60	4318
2026-01-10 05:36:37.84	0.12	9.67	-45.0	-46.7	15.7	0.00e+00	0	39	0	164626432	60	4357
2026-01-10 05:36:38.56	0.05	9.72	-45.1	-46.8	15.6	0.00e+00	0	39	0	169869312	60	4398
2026-01-10 05:36:39.84	359.91	9.81	-44.7	-46.4	15.9	0.00e+00	0	39	0	179306496	60	4217
2026-01-10 05:36:40.56	359.83	9.85	-44.8	-46.5	15.9	0.00e+00	0	39	0	184549376	60	4249
2026-01-10 05:36:41.85	359.69	9.94	-44.7	-46.4	15.9	0.00e+00	0	39	0	192937984	60	4213
2026-01-10 05:36:42.61	359.60	9.99	-44.6	-46.3	16.0	0.00e+00	0	39	0	199229440	60	4185
2026-01-10 05:36:44.25	359.42	10.10	-44.2	-45.9	16.4	0.00e+00	0	40	0	210763776	59	4197
2026-01-10 05:36:44.82	359.36	10.14	-44.5	-46.1	16.1	0.00e+00	0	39	0	214958080	58	4597
2026-01-10 05:36:46.43	359.18	10.25	-44.3	-46.0	16.2	0.00e+00	0	39	0	226492416	58	4515
2026-01-10 05:36:47.01	359.11	10.29	-44.1	-45.8	16.4	0.00e+00	0	39	0	230686720	58	4416
2026-01-10 05:36:48.60	358.93	10.40	-43.9	-45.6	16.7	0.00e+00	0	39	0	242221056	58	4292
2026-01-10 05:36:49.17	358.87	10.44	-43.9	-45.6	16.6	0.00e+00	0	39	0	246415360	58	4320
2026-01-10 05:36:50.76	358.68	10.55	-43.4	-45.2	17.0	0.00e+00	0	39	0	257949696	57	4355
2026-01-10 05:36:51.33	358.62	10.59	-43.6	-45.4	16.8	0.00e+00	0	39	0	262144000	57	4476
2026-01-10 05:36:52.91	358.43	10.70	-43.4	-45.2	17.0	0.00e+00	0	39	0	273678336	57	4362
2026-01-10 05:36:53.50	358.37	10.74	-43.4	-45.2	17.1	0.00e+00	0	39	0	277872640	57	4343
2026-01-10 05:36:55.07	358.18	10.85	-43.3	-45.1	17.1	0.00e+00	0	39	0	288358400	56	4593
2026-01-10 05:36:56.01	358.07	10.91	-43.2	-45.0	17.3	0.00e+00	0	39	0	295698432	56	4507
2026-01-10 05:36:57.01	357.95	10.98	-43.2	-45.1	17.2	0.00e+00	0	39	0	303038464	56	4552
2026-01-10 05:36:58.01	357.83	11.05	-43.2	-45.1	17.1	0.00e+00	0	39	0	310378496	56	4590
2026-01-10 05:36:59.02	357.71	11.12	-43.3	-45.3	17.0	0.00e+00	0	39	0	317718528	56	4663
2026-01-10 05:37:00.02	357.59	11.19	-43.2	-45.1	17.1	0.00e+00	0	39	0	324009984	56	4592
2026-01-10 05:37:01.02	357.47	11.26	-43.4	-45.4	16.9	0.00e+00	0	39	0	331350016	56	4722
2026-01-10 05:37:02.03	357.35	11.33	-43.3	-45.3	17.0	0.00e+00	0	40	0	338690048	56	4662
2026-01-10 05:37:03.03	357.23	11.40	-43.3	-45.2	17.0	0.00e+00	0	39	0	346030080	56	4641
2026-01-10 05:37:04.03	357.11	11.47	-43.4	-45.3	17.0	0.00e+00	0	39	0	353370112	56	4682
2026-01-10 05:37:05.03	356.98	11.54	-43.3	-45.2	17.1	0.00e+00	0	40	0	360710144	56	4601
2026-01-10 05:37:06.04	356.86	11.61	-43.3	-45.3	17.0	0.00e+00	0	39	0	368050176	56	4667
2026-01-10 05:37:07.04	356.73	11.68	-43.3	-45.2	17.1	0.00e+00	0	39	0	375390208	56	4616
2026-01-10 05:37:08.05	356.61	11.75	-43.2	-45.1	17.2	0.00e+00	0	40	0	382730240	56	4560
2026-01-10 05:37:09.05	356.48	11.82	-43.1	-45.0	17.3	0.00e+00	0	40	0	390070272	56	4522
2026-01-10 05:37:10.05	356.36	11.89	-43.0	-44.9	17.3	0.00e+00	0	39	0	397410304	56	4487
2026-01-10 05:37:11.05	356.23	11.96	-43.0	-44.9	17.4	0.00e+00	0	40	0	403701760	56	4459
2026-01-10 05:37:12.05	356.10	12.03	-42.9	-44.8	17.5	0.00e+00	0	39	0	411041792	56	4410
2026-01-10 05:37:13.06	355.97	12.10	-43.0	-44.9	17.4	0.00e+00	0	40	0	418381824	56	4462
2026-01-10 05:37:14.06	355.84	12.17	-43.0	-44.8	17.5	0.00e+00	0	39	0	425721856	56	4431
2026-01-10 05:37:15.06	355.71	12.24	-43.0	-44.8	17.5	0.00e+00	0	40	0	433061888	56	4434
2026-01-10 05:37:16.06	355.58	12.31	-43.2	-45.0	17.3	0.00e+00	0	39	0	440401920	56	4520
2026-01-10 05:37:17.16	355.44	12.39	-43.2	-44.9	17.4	0.00e+00	0	40	0	447741952	56	4490
2026-01-10 05:37:18.04	355.32	12.45	-43.3	-45.0	17.3	0.00e+00	0	40	0	454033408	56	4533
2026-01-10 05:37:19.18	355.17	12.53	-43.3	-44.9	17.4	0.00e+00	0	40	0	462422016	56	4493
2026-01-10 05:37:20.04	355.06	12.59	-43.4	-45.0	17.4	0.00e+00	0	39	0	468713472	56	4518
2026-01-10 05:37:21.19	354.91	12.67	-43.4	-44.9	17.4	0.00e+00	0	40	0	477102080	56	4473
2026-01-10 05:37:22.05	354.79	12.73	-43.4	-44.9	17.5	0.00e+00	0	40	0	483393536	56	4467
2026-01-10 05:37:23.19	354.64	12.81	-43.4	-44.9	17.5	0.00e+00	0	40	0	491782144	56	4451
2026-01-10 05:37:24.05	354.52	12.87	-43.4	-44.8	17.5	0.00e+00	0	40	0	498073600	56	4431
2026-01-10 05:37:25.20	354.37	12.95	-43.3	-44.7	17.6	0.00e+00	0	40	0	506462208	56	4368
2026-01-10 05:37:26.06	354.25	13.02	-43.0	-44.4	17.9	0.00e+00	0	40	0	512753664	56	4223
2026-01-10 05:37:27.20	354.09	13.10	-43.2	-44.6	17.8	0.00e+00	0	40	0	521142272	56	4318
2026-01-10 05:37:28.06	353.97	13.16	-43.4	-44.8	17.6	0.00e+00	0	40	0	527433728	56	4415
2026-01-10 05:37:29.21	353.82	13.24	-43.1	-44.4	17.9	0.00e+00	0	40	0	534773760	56	4233
2026-01-10 05:37:30.07	353.70	13.30	-43.2	-44.4	17.9	0.00e+00	0	40	0	541065216	56	4231
2026-01-10 05:37:31.39	353.51	13.39	-43.1	-44.3	18.0	0.00e+00	0	40	0	550502400	56	4192
2026-01-10 05:37:32.11	353.41	13.45	-43.0	-44.3	18.1	0.00e+00	0	40	0	555745280	56	4151
2026-01-10 05:37:33.39	353.23	13.54	-43.2	-44.4	18.0	0.00e+00	0	40	0	565182464	56	4219
2026-01-10 05:37:34.11	353.13	13.59	-43.1	-44.3	18.1	0.00e+00	0	40	0	570425344	56	4160
2026-01-10 05:37:35.40	352.94	13.68	-43.0	-44.2	18.1	0.00e+00	0	40	0	579862528	56	4145
2026-01-10 05:37:36.18	352.83	13.74	-42.9	-44.1	18.3	0.00e+00	0	40	0	585105408	56	4057
2026-01-10 05:37:37.77	352.60	13.85	-43.0	-44.3	18.1	0.00e+00	0	40	0	596639744	56	4146
2026-01-10 05:37:38.35	352.52	13.89	-43.0	-44.2	18.2	0.00e+00	0	40	0	600834048	56	4121
2026-01-10 05:37:39.95	352.28	14.00	-43.2	-44.5	17.9	0.00e+00	0	40	0	612368384	56	4257
2026-01-10 05:37:40.53	352.20	14.05	-43.3	-44.5	17.9	0.00e+00	0	40	0	616562688	56	4269
2026-01-10 05:37:42.10	351.97	14.16	-43.2	-44.5	17.9	0.00e+00	0	40	0	628097024	56	4248
2026-01-10 05:37:42.68	351.88	14.20	-43.1	-44.3	18.1	0.00e+00	0	40	0	632291328	56	4189
2026-01-10 05:37:44.26	351.64	14.31	-43.3	-44.5	17.9	0.00e+00	0	40	0	643825664	56	4272
2026-01-10 05:37:44.87	351.55	14.35	-43.3	-44.6	17.8	0.00e+00	0	40	0	648019968	56	4315
2026-01-10 05:37:46.45	351.32	14.47	-43.3	-44.5	17.9	0.00e+00	0	40	0	659554304	56	4269
2026-01-10 05:37:47.02	351.23	14.51	-43.1	-44.3	18.1	0.00e+00	0	39	0	663748608	56	4184
2026-01-10 05:37:48.62	350.99	14.62	-43.3	-44.6	17.9	0.00e+00	0	40	0	675282944	56	4319
2026-01-10 05:37:49.19	350.90	14.66	-43.4	-44.7	17.8	0.00e+00	0	40	0	679477248	56	4366
2026-01-10 05:37:51.04	350.61	14.80	-43.2	-44.4	18.0	0.00e+00	0	39	0	693108736	56	4225
2026-01-10 05:37:51.61	350.52	14.84	-43.1	-44.3	18.1	0.00e+00	0	40	0	697303040	56	4186
2026-01-10 05:37:53.19	350.28	14.95	-43.3	-44.5	18.0	0.00e+00	0	40	0	707788800	56	4255
2026-01-10 05:37:53.83	350.18	14.99	-43.2	-44.4	18.0	0.00e+00	0	40	0	713031680	56	4242
2026-01-10 05:37:55.26	349.95	15.10	-43.2	-44.4	18.1	0.00e+00	0	40	0	723517440	56	4202
2026-01-10 05:37:55.98	349.84	15.15	-43.1	-44.3	18.2	0.00e+00	0	40	0	728760320	56	4152
2026-01-10 05:37:57.27	349.63	15.24	-42.8	-44.0	18.5	0.00e+00	0	40	0	738197504	56	4008
2026-01-10 05:37:57.99	349.52	15.29	-42.8	-43.9	18.5	0.00e+00	0	40	0	742391808	56	4000
2026-01-10 05:37:59.28	349.31	15.38	-42.9	-44.1	18.4	0.00e+00	0	40	0	751828992	56	4068
2026-01-10 05:38:00.07	349.18	15.44	-42.8	-44.0	18.5	0.00e+00	0	40	0	758120448	56	4007
2026-01-10 05:38:01.53	348.95	15.54	-42.8	-44.0	18.5	0.00e+00	0	40	0	768606208	56	4008
2026-01-10 05:38:02.25	348.83	15.60	-42.9	-44.0	18.4	0.00e+00	0	40	0	773849088	56	4035
2026-01-10 05:38:03.54	348.62	15.69	-42.6	-43.8	18.6	0.00e+00	0	40	0	783286272	56	3930
2026-01-10 05:38:04.26	348.50	15.74	-42.4	-43.6	18.7	0.00e+00	0	40	0	788529152	55	4066
2026-01-10 05:38:05.55	348.29	15.83	-42.4	-43.5	18.8	0.00e+00	0	40	0	797966336	55	4040
2026-01-10 05:38:06.27	348.17	15.88	-42.4	-43.5	18.8	0.00e+00	0	40	0	803209216	55	4032
2026-01-10 05:38:07.56	347.95	15.97	-42.4	-43.5	18.8	0.00e+00	0	40	0	811597824	55	4022
2026-01-10 05:38:08.27	347.83	16.02	-42.3	-43.4	18.9	0.00e+00	0	40	0	816840704	55	3977
2026-01-10 05:38:09.56	347.61	16.12	-42.2	-43.3	18.9	0.00e+00	0	40	0	826277888	55	3958
2026-01-10 05:38:10.28	347.49	16.17	-42.3	-43.5	18.8	0.00e+00	0	40	0	831520768	55	4014
2026-01-10 05:38:11.57	347.27	16.26	-42.4	-43.6	18.7	0.00e+00	0	40	0	840957952	55	4059
2026-01-10 05:38:12.28	347.15	16.31	-42.4	-43.6	18.7	0.00e+00	0	40	0	846200832	55	4082
2026-01-10 05:38:13.63	346.92	16.40	-42.5	-43.7	18.7	0.00e+00	0	40	0	855638016	55	4104
2026-01-10 05:38:14.35	346.79	16.46	-42.4	-43.6	18.7	0.00e+00	0	39	0	860880896	55	4077
2026-01-10 05:38:15.64	346.57	16.55	-42.3	-43.5	18.8	0.00e+00	0	40	0	870318080	55	4013
2026-01-10 05:38:16.36	346.44	16.60	-42.4	-43.6	18.7	0.00e+00	0	40	0	875560960	55	4060
2026-01-10 05:38:17.77	346.20	16.70	-42.4	-43.6	18.8	0.00e+00	0	40	0	886046720	55	4058
2026-01-10 05:38:18.49	346.07	16.75	-42.4	-43.7	18.7	0.00e+00	0	40	0	890241024	55	4116
2026-01-10 05:38:19.84	345.83	16.84	-42.3	-43.5	18.8	0.00e+00	0	40	0	900726784	55	4046
2026-01-10 05:38:20.56	345.70	16.89	-42.4	-43.6	18.7	0.00e+00	0	39	0	905969664	55	4082
2026-01-10 05:38:21.85	345.47	16.98	-42.1	-43.4	18.9	0.00e+00	0	40	0	915406848	55	3959
2026-01-10 05:38:22.56	345.34	17.03	-42.1	-43.3	19.0	0.00e+00	0	40	0	920649728	55	3944
2026-01-10 05:38:23.85	345.11	17.12	-42.1	-43.3	19.0	0.00e+00	0	39	0	930086912	55	3946
2026-01-10 05:38:24.57	344.98	17.17	-42.1	-43.3	19.1	0.00e+00	0	40	0	934281216	55	3920
2026-01-10 05:38:25.86	344.74	17.26	-42.0	-43.2	19.1	0.00e+00	0	40	0	943718400	54	4116
2026-01-10 05:38:26.58	344.61	17.32	-42.0	-43.1	19.2	0.00e+00	0	40	0	948961280	54	4082
2026-01-10 05:38:27.86	344.38	17.40	-42.0	-43.2	19.2	0.00e+00	0	40	0	958398464	54	4104
2026-01-10 05:38:28.58	344.24	17.45	-42.0	-43.1	19.2	0.00e+00	0	40	0	963641344	54	4081
2026-01-10 05:38:29.87	344.00	17.54	-42.0	-43.1	19.2	0.00e+00	0	40	0	973078528	54	4077
2026-01-10 05:38:30.58	343.87	17.59	-41.8	-42.9	19.4	0.00e+00	0	40	0	978321408	54	3992
2026-01-10 05:38:31.87	343.63	17.68	-41.7	-42.8	19.5	0.00e+00	0	40	0	987758592	54	3919
2026-01-10 05:38:32.59	343.49	17.73	-41.8	-42.8	19.5	0.00e+00	0	40	0	993001472	54	3952
2026-01-10 05:38:33.88	343.25	17.82	-41.8	-42.8	19.5	0.00e+00	0	40	0	1002438656	54	3945
2026-01-10 05:38:34.59	343.11	17.87	-41.7	-42.7	19.6	0.00e+00	0	40	0	1007681536	54	3913
2026-01-10 05:38:35.88	342.87	17.96	-41.8	-42.8	19.5	0.00e+00	0	40	0	1016070144	54	3938
2026-01-10 05:38:36.60	342.73	18.01	-41.8	-42.8	19.5	0.00e+00	0	40	0	1021313024	54	3926
2026-01-10 05:38:38.08	342.44	18.11	-42.0	-43.0	19.3	0.00e+00	0	40	0	1031798784	54	4037
2026-01-10 05:38:38.80	342.30	18.16	-42.0	-43.0	19.3	0.00e+00	0	40	0	1038090240	54	4042
2026-01-10 05:38:40.17	342.04	18.25	-42.0	-43.0	19.3	0.00e+00	0	40	0	1047527424	54	4029
2026-01-10 05:38:40.89	341.89	18.30	-42.1	-43.1	19.2	0.00e+00	0	40	0	1052770304	54	4091
2026-01-10 05:38:42.24	341.63	18.39	-42.1	-43.2	19.2	0.00e+00	0	40	0	1062207488	54	4106
2026-01-10 05:38:42.95	341.49	18.44	-42.2	-43.3	19.1	0.00e+00	0	40	0	1067450368	54	4161
2026-01-10 05:38:44.24	341.23	18.53	-42.2	-43.3	19.1	0.00e+00	0	40	0	1076887552	54	4166
2026-01-10 05:38:44.96	341.09	18.57	-42.2	-43.2	19.1	0.00e+00	0	40	0	1082130432	54	4142
2026-01-10 05:38:46.25	340.83	18.66	-42.0	-43.1	19.3	0.00e+00	0	40	0	1091567616	54	4064
2026-01-10 05:38:46.97	340.68	18.71	-41.9	-43.0	19.3	0.00e+00	0	40	0	1096810496	54	4024
2026-01-10 05:38:48.25	340.43	18.79	-41.8	-42.9	19.4	0.00e+00	0	40	0	1106247680	54	3977
2026-01-10 05:38:48.97	340.28	18.84	-41.8	-42.9	19.4	0.00e+00	0	40	0	1110441984	54	3964
2026-01-10 05:38:50.26	340.02	18.93	-41.6	-42.7	19.6	0.00e+00	0	40	0	1119879168	54	3891
2026-01-10 05:38:51.07	339.85	18.98	-41.6	-42.7	19.6	0.00e+00	0	40	0	1126170624	53	4110
2026-01-10 05:38:52.53	339.55	19.08	-41.6	-42.6	19.7	0.00e+00	0	40	0	1136656384	53	4097
2026-01-10 05:38:53.25	339.40	19.13	-41.6	-42.6	19.7	0.00e+00	0	40	0	1141899264	53	4057
2026-01-10 05:38:54.73	339.09	19.22	-41.6	-42.6	19.7	0.00e+00	0	40	0	1152385024	53	4093
2026-01-10 05:38:55.44	338.94	19.27	-41.6	-42.7	19.6	0.00e+00	0	40	0	1157627904	53	4131
2026-01-10 05:38:56.74	338.67	19.35	-41.7	-42.8	19.5	0.00e+00	0	40	0	1167065088	53	4183
2026-01-10 05:38:57.45	338.52	19.40	-41.7	-42.8	19.5	0.00e+00	0	40	0	1172307968	53	4180
2026-01-10 05:38:58.74	338.25	19.48	-41.7	-42.9	19.4	0.00e+00	0	40	0	1181745152	53	4212
2026-01-10 05:38:59.46	338.09	19.53	-41.8	-43.0	19.3	0.00e+00	0	40	0	1186988032	53	4256
2026-01-10 05:39:00.76	337.82	19.61	-41.9	-43.0	19.3	0.00e+00	0	40	0	1196425216	53	4264
2026-01-10 05:39:01.48	337.66	19.66	-41.8	-42.9	19.4	0.00e+00	0	40	0	1201668096	53	4216
2026-01-10 05:39:02.77	337.38	19.74	-41.9	-43.0	19.3	0.00e+00	0	40	0	1210056704	53	4268
2026-01-10 05:39:03.49	337.23	19.78	-41.9	-43.0	19.3	0.00e+00	0	40	0	1215299584	53	4265
2026-01-10 05:39:04.78	336.95	19.86	-41.9	-43.0	19.3	0.00e+00	0	40	0	1224736768	53	4266
2026-01-10 05:39:05.57	336.78	19.91	-41.8	-42.9	19.4	0.00e+00	0	40	0	1231028224	53	4221
2026-01-10 05:39:06.72	336.52	19.99	-41.8	-42.8	19.5	0.00e+00	0	40	0	1239416832	53	4185
2026-01-10 05:39:07.81	336.28	20.05	-41.7	-42.8	19.5	0.00e+00	0	40	0	1246756864	53	4189
2026-01-10 05:39:08.84	336.06	20.12	-41.7	-42.8	19.5	0.00e+00	0	40	0	1254096896	53	4162
2026-01-10 05:39:09.84	335.83	20.18	-41.7	-42.8	19.5	0.00e+00	0	40	0	1261436928	53	4171
2026-01-10 05:39:10.84	335.61	20.24	-41.7	-42.8	19.5	0.00e+00	0	40	0	1268776960	53	4151
2026-01-10 05:39:11.84	335.39	20.30	-41.6	-42.7	19.6	0.00e+00	0	40	0	1276116992	53	4126
2026-01-10 05:39:12.85	335.16	20.36	-41.6	-42.6	19.6	0.00e+00	0	40	0	1283457024	53	4085
2026-01-10 05:39:13.85	334.94	20.42	-41.4	-42.4	19.9	0.00e+00	0	40	0	1290797056	53	3970
2026-01-10 05:39:14.85	334.71	20.48	-41.3	-42.3	19.9	0.00e+00	0	40	0	1298137088	53	3957
2026-01-10 05:39:15.85	334.48	20.54	-41.3	-42.3	19.9	0.00e+00	0	40	0	1305477120	53	3954
2026-01-10 05:39:16.85	334.25	20.60	-41.4	-42.4	19.9	0.00e+00	0	40	0	1312817152	53	3985
2026-01-10 05:39:17.86	334.02	20.66	-41.3	-42.3	19.9	0.00e+00	0	40	0	1319108608	53	3933
2026-01-10 05:39:18.86	333.79	20.72	-41.3	-42.3	19.9	0.00e+00	0	40	0	1326448640	53	3949
2026-01-10 05:39:19.86	333.56	20.77	-41.3	-42.4	19.9	0.00e+00	0	40	0	1333788672	53	3978
2026-01-10 05:39:20.86	333.33	20.83	-41.4	-42.4	19.8	0.00e+00	0	40	0	1341128704	53	3992
2026-01-10 05:39:21.86	333.10	20.89	-41.4	-42.4	19.9	0.00e+00	0	40	0	1348468736	53	3981
2026-01-10 05:39:22.87	332.86	20.95	-41.5	-42.5	19.8	0.00e+00	0	40	0	1355808768	53	4011
2026-01-10 05:39:23.87	332.63	21.00	-41.3	-42.3	19.9	0.00e+00	0	40	0	1363148800	53	3928
2026-01-10 05:39:24.87	332.39	21.06	-41.3	-42.3	19.9	0.00e+00	0	40	0	1370488832	53	3937
2026-01-10 05:39:25.88	332.15	21.12	-41.3	-42.3	19.9	0.00e+00	0	40	0	1376780288	53	3938
2026-01-10 05:39:26.88	331.91	21.17	-41.3	-42.4	19.9	0.00e+00	0	40	0	1384120320	53	3959
2026-01-10 05:39:27.88	331.68	21.23	-41.5	-42.5	19.7	0.00e+00	0	40	0	1391460352	53	4022
2026-01-10 05:39:28.89	331.44	21.28	-41.4	-42.4	19.8	0.00e+00	0	40	0	1398800384	53	4002
2026-01-10 05:39:29.89	331.20	21.34	-41.3	-42.3	19.9	0.00e+00	0	40	0	1406140416	53	3949
2026-01-10 05:39:30.89	330.96	21.39	-41.5	-42.5	19.8	0.00e+00	0	40	0	1413480448	53	4015
2026-01-10 05:39:31.98	330.69	21.45	-41.2	-42.2	20.0	0.00e+00	0	40	0	1420820480	53	3897
2026-01-10 05:39:32.87	330.48	21.49	-41.2	-42.2	20.0	0.00e+00	0	40	0	1428160512	53	3877
2026-01-10 05:39:33.90	330.23	21.55	-41.0	-42.0	20.2	0.00e+00	0	40	0	1435500544	52	4022
2026-01-10 05:39:34.90	329.98	21.60	-41.1	-42.0	20.2	0.00e+00	0	40	0	1442840576	52	4047
2026-01-10 05:39:35.91	329.74	21.65	-41.1	-42.1	20.1	0.00e+00	0	40	0	1450180608	52	4089
2026-01-10 05:39:36.91	329.49	21.70	-41.1	-42.1	20.1	0.00e+00	0	40	0	1457520640	52	4071
2026-01-10 05:39:37.91	329.24	21.75	-41.0	-42.0	20.2	0.00e+00	0	40	0	1463812096	52	4023
2026-01-10 05:39:38.91	329.00	21.80	-41.1	-42.1	20.1	0.00e+00	0	40	0	1471152128	52	4068
2026-01-10 05:39:39.91	328.75	21.85	-41.2	-42.2	20.1	0.00e+00	0	40	0	1478492160	52	4122
2026-01-10 05:39:40.92	328.50	21.90	-41.2	-42.1	20.1	0.00e+00	0	40	0	1485832192	52	4098
2026-01-10 05:39:41.92	328.25	21.95	-41.2	-42.2	20.1	0.00e+00	0	40	0	1493172224	52	4108
2026-01-10 05:39:42.92	328.00	22.00	-41.2	-42.1	20.1	0.00e+00	0	40	0	1500512256	52	4085
2026-01-10 05:39:43.93	327.74	22.05	-41.1	-42.1	20.1	0.00e+00	0	40	0	1507852288	52	4073
2026-01-10 05:39:44.93	327.49	22.10	-41.1	-42.1	20.2	0.00e+00	0	40	0	1515192320	52	4075
2026-01-10 05:39:45.93	327.24	22.14	-41.1	-42.1	20.2	0.00e+00	0	40	0	1522532352	52	4055
2026-01-10 05:39:46.93	326.99	22.19	-41.0	-42.0	20.2	0.00e+00	0	40	0	1528823808	52	4009
2026-01-10 05:39:47.94	326.73	22.24	-41.0	-42.1	20.2	0.00e+00	0	40	0	1536163840	52	4053
2026-01-10 05:39:48.94	326.47	22.28	-41.0	-42.0	20.3	0.00e+00	0	40	0	1543503872	52	4023
2026-01-10 05:39:49.94	326.22	22.33	-40.9	-41.9	20.3	0.00e+00	0	40	0	1550843904	52	3990
2026-01-10 05:39:50.95	325.96	22.37	-40.9	-41.9	20.3	0.00e+00	0	40	0	1558183936	52	3984
2026-01-10 05:39:51.95	325.70	22.41	-40.8	-41.8	20.4	0.00e+00	0	40	0	1565523968	52	3948
2026-01-10 05:39:52.95	325.44	22.46	-40.7	-41.7	20.5	0.00e+00	0	40	0	1572864000	52	3887
2026-01-10 05:39:53.95	325.18	22.50	-40.8	-41.7	20.4	0.00e+00	0	40	0	1580204032	52	3908
2026-01-10 05:39:54.95	324.92	22.54	-40.7	-41.6	20.6	0.00e+00	0	40	0	1587544064	52	3847
2026-01-10 05:39:55.96	324.66	22.58	-40.7	-41.6	20.5	0.00e+00	0	40	0	1594884096	52	3858
2026-01-10 05:39:56.96	324.40	22.62	-40.8	-41.7	20.5	0.00e+00	0	40	0	1602224128	52	3904
2026-01-10 05:39:57.96	324.14	22.66	-40.8	-41.8	20.4	0.00e+00	0	40	0	1608515584	52	3931
2026-01-10 05:39:58.96	323.88	22.70	-40.8	-41.8	20.4	0.00e+00	0	40	0	1615855616	52	3934
2026-01-10 05:39:59.97	323.61	22.74	-41.0	-41.9	20.3	0.00e+00	0	40	0	1623195648	52	3989
2026-01-10 05:40:00.97	323.35	22.78	-41.0	-42.0	20.2	0.00e+00	0	40	0	1630535680	52	4025
2026-01-10 05:40:01.97	323.08	22.82	-41.0	-42.0	20.2	0.00e+00	0	40	0	1637875712	52	4016
2026-01-10 05:40:02.97	322.82	22.86	-41.1	-42.1	20.1	0.00e+00	0	40	0	1645215744	52	4073
2026-01-10 05:40:03.97	322.55	22.89	-41.1	-42.1	20.2	0.00e+00	0	40	0	1652555776	52	4053
2026-01-10 05:40:04.97	322.29	22.93	-41.1	-42.1	20.1	0.00e+00	0	40	0	1659895808	52	4089
2026-01-10 05:40:05.98	322.02	22.96	-41.2	-42.2	20.1	0.00e+00	0	40	0	1667235840	52	4111
2026-01-10 05:40:06.98	321.75	23.00	-41.1	-42.1	20.1	0.00e+00	0	40	0	1673527296	52	4088
2026-01-10 05:40:07.98	321.48	23.03	-41.0	-42.0	20.2	0.00e+00	0	40	0	1680867328	52	4039
2026-01-10 05:40:09.01	321.21	23.07	-41.1	-42.0	20.2	0.00e+00	0	40	0	1689255936	52	4050
2026-01-10 05:40:10.01	320.94	23.10	-41.0	-42.0	20.2	0.00e+00	0	40	0	1695547392	52	4045
2026-01-10 05:40:11.01	320.67	23.13	-41.2	-42.2	20.1	0.00e+00	0	40	0	1702887424	52	4107
2026-01-10 05:40:12.02	320.39	23.17	-41.1	-42.1	20.1	0.00e+00	0	40	0	1710227456	52	4075
2026-01-10 05:40:13.02	320.12	23.20	-41.0	-41.9	20.3	0.00e+00	0	40	0	1717567488	52	3997
2026-01-10 05:40:14.02	319.85	23.23	-41.0	-41.9	20.3	0.00e+00	0	40	0	1724907520	52	4004
2026-01-10 05:40:15.03	319.58	23.26	-40.8	-41.8	20.4	0.00e+00	0	40	0	1732247552	52	3928
2026-01-10 05:40:16.03	319.30	23.29	-40.8	-41.8	20.4	0.00e+00	0	40	0	1739587584	52	3938
2026-01-10 05:40:17.03	319.03	23.31	-40.9	-41.8	20.4	0.00e+00	0	40	0	1746927616	52	3955
2026-01-10 05:40:18.04	318.75	23.34	-40.8	-41.8	20.4	0.00e+00	0	40	0	1754267648	52	3927
2026-01-10 05:40:19.04	318.48	23.37	-40.9	-41.9	20.4	0.00e+00	0	40	0	1760559104	52	3960
2026-01-10 05:40:20.04	318.21	23.40	-40.8	-41.7	20.4	0.00e+00	0	40	0	1768947712	52	3908
2026-01-10 05:40:21.05	317.93	23.42	-40.8	-41.8	20.4	0.00e+00	0	40	0	1776287744	52	3921
2026-01-10 05:40:22.05	317.65	23.45	-40.8	-41.9	20.3	0.00e+00	0	40	0	1782579200	52	3992
2026-01-10 05:40:23.05	317.38	23.47	-40.7	-41.9	20.3	0.00e+00	0	40	0	1789919232	52	3981
2026-01-10 05:40:24.06	317.10	23.49	-40.7	-41.9	20.3	0.00e+00	0	40	0	1797259264	52	3992
2026-01-10 05:40:25.06	316.82	23.52	-40.6	-41.7	20.5	0.00e+00	0	40	0	1804599296	51	4136
2026-01-10 05:40:26.10	316.53	23.54	-40.8	-41.8	20.4	0.00e+00	0	40	0	1811939328	51	4190
2026-01-10 05:40:27.14	316.24	23.56	-41.0	-42.0	20.3	0.00e+00	0	40	0	1819279360	51	4260
2026-01-10 05:40:28.06	315.99	23.58	-41.1	-42.1	20.2	0.00e+00	0	40	0	1826619392	51	4303
2026-01-10 05:40:29.07	315.71	23.60	-41.2	-42.2	20.1	0.00e+00	0	40	0	1833959424	51	4349
2026-01-10 05:40:30.07	315.43	23.62	-41.0	-42.0	20.3	0.00e+00	0	40	0	1840250880	51	4273
2026-01-10 05:40:31.07	315.15	23.64	-40.9	-41.8	20.4	0.00e+00	0	40	0	1847590912	51	4189
2026-01-10 05:40:32.36	314.79	23.66	-40.8	-41.8	20.5	0.00e+00	0	40	0	1857028096	51	4167
2026-01-10 05:40:33.11	314.58	23.67	-40.9	-41.9	20.4	0.00e+00	0	40	0	1862270976	51	4209
2026-01-10 05:40:34.39	314.22	23.70	-40.9	-41.8	20.4	0.00e+00	0	40	0	1871708160	51	4169
2026-01-10 05:40:35.18	314.00	23.71	-41.0	-41.9	20.3	0.00e+00	0	40	0	1877999616	51	4230
2026-01-10 05:40:36.72	313.57	23.73	-41.0	-42.0	20.3	0.00e+00	0	40	0	1888485376	51	4272
2026-01-10 05:40:37.43	313.37	23.74	-41.0	-42.0	20.3	0.00e+00	0	40	0	1893728256	51	4270
2026-01-10 05:40:38.88	312.96	23.76	-41.0	-41.9	20.3	0.00e+00	0	40	0	1904214016	51	4236
2026-01-10 05:40:39.59	312.76	23.77	-40.8	-41.8	20.5	0.00e+00	0	40	0	1909456896	51	4152
2026-01-10 05:40:40.88	312.40	23.78	-41.0	-41.9	20.3	0.00e+00	0	40	0	1918894080	51	4238
2026-01-10 05:40:41.60	312.20	23.79	-40.8	-41.8	20.5	0.00e+00	0	40	0	1924136960	51	4149
2026-01-10 05:40:42.89	311.83	23.80	-40.8	-41.8	20.5	0.00e+00	0	40	0	1933574144	51	4154
2026-01-10 05:40:43.60	311.63	23.81	-40.8	-41.7	20.5	0.00e+00	0	40	0	1938817024	51	4143
2026-01-10 05:40:45.09	311.21	23.82	-40.8	-41.7	20.5	0.00e+00	0	40	0	1949302784	51	4124
2026-01-10 05:40:46.09	310.93	23.83	-40.9	-41.9	20.4	0.00e+00	0	40	0	1956642816	51	4195
2026-01-10 05:40:47.41	310.55	23.84	-40.9	-41.9	20.3	0.00e+00	0	40	0	1966080000	51	4221
2026-01-10 05:40:48.13	310.35	23.84	-41.0	-41.9	20.3	0.00e+00	0	40	0	1971322880	51	4230
2026-01-10 05:40:49.73	309.90	23.85	-41.1	-42.1	20.2	0.00e+00	0	40	0	1982857216	51	4305
2026-01-10 05:40:50.30	309.74	23.85	-41.0	-42.0	20.3	0.00e+00	0	40	0	1987051520	51	4257
2026-01-10 05:40:51.90	309.28	23.86	-41.1	-42.0	20.2	0.00e+00	0	40	0	1998585856	51	4274
2026-01-10 05:40:52.47	309.12	23.86	-41.1	-42.0	20.2	0.00e+00	0	40	0	2002780160	51	4280
2026-01-10 05:40:54.06	308.67	23.86	-41.1	-42.0	20.3	0.00e+00	0	40	0	2014314496	51	4275
2026-01-10 05:40:54.65	308.50	23.86	-41.0	-42.0	20.3	0.00e+00	0	40	0	2018508800	51	4265
2026-01-10 05:40:56.26	308.05	23.86	-41.1	-42.1	20.2	0.00e+00	0	40	0	2030043136	51	4295
2026-01-10 05:40:56.83	307.89	23.86	-41.0	-41.9	20.3	0.00e+00	0	40	0	2034237440	51	4223
2026-01-10 05:40:58.42	307.44	23.86	-41.0	-42.0	20.3	0.00e+00	0	40	0	2045771776	51	4246
2026-01-10 05:40:59.00	307.27	23.86	-40.9	-41.9	20.4	0.00e+00	0	40	0	2049966080	51	4194
2026-01-10 05:41:00.58	306.82	23.85	-41.0	-41.9	20.3	0.00e+00	0	40	0	2060451840	51	4241
2026-01-10 05:41:01.16	306.66	23.85	-41.0	-42.0	20.3	0.00e+00	0	40	0	2065694720	51	4262
2026-01-10 05:41:02.99	306.14	23.84	-40.9	-41.9	20.4	0.00e+00	0	40	0	2078277632	51	4204
2026-01-10 05:41:03.56	305.98	23.84	-40.9	-41.9	20.4	0.00e+00	0	40	0	2082471936	51	4202
2026-01-10 05:41:05.15	305.53	23.83	-40.8	-41.8	20.5	0.00e+00	0	40	0	2094006272	51	4167
2026-01-10 05:41:05.72	305.37	23.82	-40.8	-41.7	20.5	0.00e+00	0	40	0	2098200576	51	4120
2026-01-10 05:41:07.32	304.92	23.81	-40.9	-41.9	20.4	0.00e+00	0	40	0	2109734912	51	4205
2026-01-10 05:41:07.89	304.76	23.80	-41.0	-41.9	20.3	0.00e+00	0	40	0	2113929216	51	4241
2026-01-10 05:41:09.47	304.31	23.79	-40.9	-41.8	20.4	0.00e+00	0	40	0	2125463552	51	4171
2026-01-10 05:41:10.07	304.14	23.78	-40.9	-41.8	20.5	0.00e+00	0	40	0	2129657856	51	4158
2026-01-10 05:41:11.77	303.66	23.76	-40.9	-41.8	20.4	0.00e+00	0	40	0	2142240768	51	4161
2026-01-10 05:41:12.38	303.49	23.75	-40.9	-41.8	20.4	0.00e+00	0	40	0	2146435072	51	4185
2026-01-10 05:41:13.95	303.05	23.73	-41.0	-41.9	20.3	0.00e+00	0	40	0	2157969408	51	4211
2026-01-10 05:41:14.52	302.89	23.73	-41.0	-41.9	20.3	0.00e+00	0	40	0	2161115136	51	4219
2026-01-10 05:41:16.10	302.45	23.70	-41.1	-42.0	20.2	0.00e+00	0	40	0	2172649472	51	4287
2026-01-10 05:41:17.05	302.18	23.69	-41.1	-42.1	20.2	0.00e+00	0	40	0	2179989504	51	4297
2026-01-10 05:41:18.06	301.90	23.67	-41.1	-42.0	20.2	0.00e+00	0	40	0	2187329536	51	4287
2026-01-10 05:41:19.06	301.62	23.65	-40.9	-41.9	20.4	0.00e+00	0	40	0	2194669568	51	4204
2026-01-10 05:41:20.06	301.34	23.64	-40.8	-41.8	20.4	0.00e+00	0	40	0	2202009600	51	4149
2026-01-10 05:41:21.06	301.06	23.62	-40.8	-41.8	20.5	0.00e+00	0	40	0	2209349632	51	4146
2026-01-10 05:41:22.18	300.74	23.60	-41.0	-41.9	20.3	0.00e+00	0	40	0	2216689664	51	4225
2026-01-10 05:41:23.04	300.51	23.58	-41.0	-42.0	20.2	0.00e+00	0	40	0	2222981120	51	4268
2026-01-10 05:41:24.18	300.19	23.55	-41.1	-42.0	20.2	0.00e+00	0	40	0	2231369728	51	4276
2026-01-10 05:41:25.04	299.95	23.54	-41.0	-41.9	20.3	0.00e+00	0	40	0	2237661184	51	4230
2026-01-10 05:41:26.19	299.63	23.51	-41.0	-41.9	20.3	0.00e+00	0	40	0	2246049792	51	4237
2026-01-10 05:41:27.05	299.39	23.49	-40.9	-41.9	20.4	0.00e+00	0	40	0	2252341248	51	4200
2026-01-10 05:41:28.20	299.07	23.46	-40.9	-41.9	20.4	0.00e+00	0	40	0	2260729856	51	4217
2026-01-10 05:41:29.34	298.76	23.44	-41.0	-41.9	20.3	0.00e+00	0	40	0	2269118464	51	4221
2026-01-10 05:41:30.20	298.52	23.41	-41.0	-42.0	20.3	0.00e+00	0	40	0	2275409920	51	4247
2026-01-10 05:41:31.35	298.21	23.38	-41.1	-42.1	20.2	0.00e+00	0	40	0	2282749952	51	4292
2026-01-10 05:41:32.21	297.97	23.36	-41.1	-42.1	20.2	0.00e+00	0	40	0	2289041408	51	4303
2026-01-10 05:41:33.35	297.66	23.33	-41.0	-41.9	20.3	0.00e+00	0	40	0	2297430016	51	4213
2026-01-10 05:41:34.21	297.42	23.31	-40.9	-41.8	20.4	0.00e+00	0	40	0	2303721472	51	4168
2026-01-10 05:41:35.35	297.11	23.27	-40.8	-41.8	20.5	0.00e+00	0	40	0	2312110080	51	4146
2026-01-10 05:41:36.21	296.87	23.25	-40.8	-41.7	20.5	0.00e+00	0	40	0	2318401536	51	4126
2026-01-10 05:41:37.43	296.54	23.21	-40.8	-41.8	20.4	0.00e+00	0	40	0	2326790144	51	4157
2026-01-10 05:41:38.29	296.31	23.19	-40.7	-41.7	20.5	0.00e+00	0	40	0	2333081600	51	4106
2026-01-10 05:41:39.50	295.98	23.15	-40.8	-41.7	20.4	0.00e+00	0	40	0	2342518784	51	4139
2026-01-10 05:41:40.36	295.75	23.12	-40.8	-41.7	20.5	0.00e+00	0	40	0	2347761664	51	4134
2026-01-10 05:41:41.51	295.44	23.08	-40.8	-41.7	20.5	0.00e+00	0	40	0	2356150272	51	4129
2026-01-10 05:41:42.37	295.21	23.05	-40.8	-41.7	20.5	0.00e+00	0	40	0	2362441728	51	4131
2026-01-10 05:41:43.51	294.90	23.02	-41.0	-41.9	20.3	0.00e+00	0	40	0	2370830336	51	4226
2026-01-10 05:41:44.37	294.67	22.99	-40.9	-41.8	20.4	0.00e+00	0	40	0	2377121792	51	4171
2026-01-10 05:41:45.52	294.36	22.95	-41.0	-41.9	20.3	0.00e+00	0	40	0	2385510400	51	4215
2026-01-10 05:41:46.38	294.13	22.91	-40.9	-41.8	20.4	0.00e+00	0	40	0	2391801856	51	4188
2026-01-10 05:41:47.53	293.82	22.87	-40.8	-41.8	20.5	0.00e+00	0	40	0	2400190464	51	4146
2026-01-10 05:41:48.38	293.60	22.84	-40.9	-41.8	20.4	0.00e+00	0	40	0	2405433344	51	4181
2026-01-10 05:41:49.53	293.29	22.80	-40.7	-41.6	20.6	0.00e+00	0	40	0	2413821952	51	4077
2026-01-10 05:41:50.39	293.07	22.77	-40.7	-41.6	20.6	0.00e+00	0	40	0	2420113408	51	4063
2026-01-10 05:41:51.53	292.76	22.72	-40.7	-41.6	20.6	0.00e+00	0	40	0	2428502016	51	4074
2026-01-10 05:41:52.39	292.54	22.69	-40.9	-41.8	20.4	0.00e+00	0	40	0	2434793472	51	4158
2026-01-10 05:41:53.53	292.24	22.64	-40.9	-41.9	20.3	0.00e+00	0	40	0	2443182080	51	4205
2026-01-10 05:41:54.39	292.01	22.61	-40.9	-41.8	20.4	0.00e+00	0	40	0	2449473536	51	4164
2026-01-10 05:41:55.62	291.69	22.56	-40.8	-41.7	20.5	0.00e+00	0	40	0	2457862144	51	4131
2026-01-10 05:41:56.48	291.47	22.52	-40.8	-41.8	20.5	0.00e+00	0	40	0	2464153600	51	4159
2026-01-10 05:41:57.63	291.17	22.47	-40.7	-41.6	20.6	0.00e+00	0	40	0	2472542208	51	4093
2026-01-10 05:41:58.48	290.95	22.43	-40.7	-41.6	20.6	0.00e+00	0	40	0	2478833664	51	4085
2026-01-10 05:41:59.63	290.65	22.38	-40.7	-41.7	20.6	0.00e+00	0	40	0	2487222272	51	4101
2026-01-10 05:42:00.49	290.43	22.35	-40.8	-41.7	20.5	0.00e+00	0	40	0	2493513728	51	4115
2026-01-10 05:42:01.63	290.14	22.30	-40.8	-41.8	20.4	0.00e+00	0	40	0	2501902336	51	4159
2026-01-10 05:42:02.62	289.88	22.25	-40.9	-41.8	20.4	0.00e+00	0	40	0	2509242368	51	4171
2026-01-10 05:42:03.63	289.63	22.21	-41.0	-41.9	20.4	0.00e+00	0	40	0	2515533824	51	4220
2026-01-10 05:42:04.85	289.32	22.15	-40.9	-41.9	20.4	0.00e+00	0	40	0	2524971008	51	4202
2026-01-10 05:42:05.73	289.09	22.11	-41.0	-41.9	20.3	0.00e+00	0	40	0	2531262464	51	4232
2026-01-10 05:42:07.10	288.75	22.04	-41.1	-42.0	20.2	0.00e+00	0	40	0	2541748224	51	4281
2026-01-10 05:42:07.81	288.57	22.01	-40.9	-41.9	20.4	0.00e+00	0	40	0	2545942528	51	4210
2026-01-10 05:42:09.10	288.24	21.95	-41.1	-42.0	20.2	0.00e+00	0	40	0	2555379712	51	4280
2026-01-10 05:42:09.82	288.06	21.91	-41.0	-41.9	20.3	0.00e+00	0	40	0	2560622592	51	4214
2026-01-10 05:42:11.11	287.74	21.85	-41.0	-41.9	20.3	0.00e+00	0	40	0	2570059776	51	4223
2026-01-10 05:42:11.83	287.56	21.81	-41.0	-42.0	20.3	0.00e+00	0	40	0	2575302656	51	4244
2026-01-10 05:42:13.12	287.24	21.75	-40.9	-41.8	20.4	0.00e+00	0	40	0	2584739840	51	4183
2026-01-10 05:42:13.83	287.07	21.71	-40.9	-41.8	20.4	0.00e+00	0	40	0	2589982720	51	4186
2026-01-10 05:42:15.12	286.75	21.65	-40.8	-41.8	20.4	0.00e+00	0	40	0	2599419904	51	4157
2026-01-10 05:42:16.08	286.51	21.60	-40.8	-41.7	20.5	0.00e+00	0	40	0	2605711360	51	4130
2026-01-10 05:42:17.40	286.19	21.53	-41.0	-41.9	20.3	0.00e+00	0	40	0	2615148544	51	4231
2026-01-10 05:42:18.11	286.02	21.49	-41.0	-42.0	20.3	0.00e+00	0	40	0	2620391424	51	4256
2026-01-10 05:42:19.77	285.61	21.40	-41.2	-42.1	20.0	0.00e+00	0	40	0	2632974336	52	4098
2026-01-10 05:42:20.34	285.47	21.37	-41.3	-42.2	20.0	0.00e+00	0	40	0	2637168640	52	4134
2026-01-10 05:42:22.16	285.04	21.27	-41.4	-42.4	19.9	0.00e+00	0	40	0	2649751552	52	4207
2026-01-10 05:42:22.73	284.90	21.24	-41.4	-42.4	19.8	0.00e+00	0	40	0	2653945856	52	4203
2026-01-10 05:42:24.31	284.52	21.15	-41.3	-42.2	20.0	0.00e+00	0	40	0	2665480192	52	4144
2026-01-10 05:42:24.93	284.37	21.12	-41.3	-42.3	19.9	0.00e+00	0	40	0	2669674496	52	4155
2026-01-10 05:42:26.50	284.00	21.03	-41.1	-42.0	20.1	0.00e+00	0	40	0	2681208832	52	4051
2026-01-10 05:42:27.09	283.86	21.00	-41.0	-42.0	20.2	0.00e+00	0	40	0	2685403136	52	4015
2026-01-10 05:42:28.66	283.49	20.91	-41.1	-42.0	20.2	0.00e+00	0	40	0	2696937472	52	4035
2026-01-10 05:42:29.28	283.35	20.87	-41.0	-42.0	20.2	0.00e+00	0	40	0	2701131776	52	4006
2026-01-10 05:42:30.86	282.98	20.78	-40.9	-41.8	20.3	0.00e+00	0	40	0	2712666112	52	3957
2026-01-10 05:42:31.54	282.82	20.74	-41.0	-41.9	20.2	0.00e+00	0	40	0	2717908992	52	3989
2026-01-10 05:42:32.97	282.49	20.66	-41.0	-42.0	20.2	0.00e+00	0	40	0	2728394752	52	4025
2026-01-10 05:42:33.69	282.33	20.62	-41.1	-42.0	20.1	0.00e+00	0	40	0	2732589056	52	4035
2026-01-10 05:42:34.98	282.03	20.54	-41.1	-42.1	20.1	0.00e+00	0	40	0	2742026240	52	4068
2026-01-10 05:42:35.70	281.87	20.50	-41.1	-42.0	20.2	0.00e+00	0	40	0	2747269120	52	4036
2026-01-10 05:42:36.99	281.57	20.42	-41.2	-42.1	20.1	0.00e+00	0	40	0	2756706304	52	4087
2026-01-10 05:42:37.70	281.41	20.38	-41.2	-42.2	20.0	0.00e+00	0	40	0	2761949184	52	4101
2026-01-10 05:42:39.06	281.10	20.29	-41.2	-42.2	20.0	0.00e+00	0	40	0	2772434944	52	4119
2026-01-10 05:42:39.77	280.94	20.25	-41.4	-42.3	19.9	0.00e+00	0	40	0	2776629248	52	4193
2026-01-10 05:42:41.15	280.63	20.17	-41.4	-42.4	19.8	0.00e+00	0	40	0	2787115008	52	4217
2026-01-10 05:42:41.87	280.47	20.12	-41.4	-42.3	19.9	0.00e+00	0	40	0	2792357888	52	4181
2026-01-10 05:42:43.24	280.17	20.04	-41.3	-42.3	19.9	0.00e+00	0	40	0	2801795072	52	4154
2026-01-10 05:42:43.96	280.01	19.99	-41.4	-42.3	19.9	0.00e+00	0	40	0	2807037952	52	4193
2026-01-10 05:42:45.25	279.73	19.91	-41.3	-42.2	20.0	0.00e+00	0	40	0	2816475136	52	4139
2026-01-10 05:42:45.96	279.57	19.87	-41.2	-42.1	20.1	0.00e+00	0	40	0	2821718016	52	4090
2026-01-10 05:42:47.25	279.29	19.79	-41.3	-42.3	20.0	0.00e+00	0	40	0	2831155200	52	4146
2026-01-10 05:42:47.97	279.13	19.74	-41.1	-42.1	20.1	0.00e+00	0	40	0	2836398080	52	4069
2026-01-10 05:42:49.26	278.85	19.66	-41.2	-42.2	20.0	0.00e+00	0	40	0	2845835264	52	4101
2026-01-10 05:42:49.97	278.70	19.61	-41.2	-42.1	20.1	0.00e+00	0	40	0	2851078144	52	4083
2026-01-10 05:42:51.26	278.42	19.53	-41.3	-42.3	19.9	0.00e+00	0	40	0	2860515328	52	4169
2026-01-10 05:42:52.11	278.24	19.48	-41.3	-42.3	19.9	0.00e+00	0	40	0	2865758208	52	4156
2026-01-10 05:42:53.25	278.00	19.40	-41.4	-42.4	19.8	0.00e+00	0	40	0	2874146816	52	4227
2026-01-10 05:42:54.32	277.77	19.33	-41.5	-42.4	19.8	0.00e+00	0	40	0	2882535424	52	4232
2026-01-10 05:42:55.35	277.55	19.27	-41.5	-42.5	19.7	0.00e+00	0	40	0	2889875456	52	4244
2026-01-10 05:42:56.35	277.34	19.20	-41.6	-42.5	19.7	0.00e+00	0	40	0	2897215488	52	4291
2026-01-10 05:42:57.35	277.13	19.14	-41.5	-42.5	19.7	0.00e+00	0	40	0	2904555520	52	4287
2026-01-10 05:42:58.36	276.92	19.07	-41.4	-42.4	19.8	0.00e+00	0	40	0	2910846976	52	4220
2026-01-10 05:42:59.36	276.72	19.00	-41.5	-42.5	19.7	0.00e+00	0	40	0	2918187008	52	4277
2026-01-10 05:43:00.36	276.51	18.94	-41.4	-42.4	19.8	0.00e+00	0	40	0	2925527040	52	4209
2026-01-10 05:43:01.37	276.30	18.87	-41.5	-42.5	19.7	0.00e+00	0	40	0	2932867072	52	4262
2026-01-10 05:43:02.37	276.10	18.80	-41.5	-42.4	19.7	0.00e+00	0	40	0	2940207104	52	4240
2026-01-10 05:43:03.37	275.89	18.74	-41.5	-42.5	19.7	0.00e+00	0	40	0	2947547136	52	4254
2026-01-10 05:43:04.37	275.69	18.67	-41.6	-42.6	19.6	0.00e+00	0	40	0	2954887168	52	4305
2026-01-10 05:43:05.38	275.49	18.60	-41.6	-42.6	19.6	0.00e+00	0	40	0	2962227200	52	4323
2026-01-10 05:43:06.38	275.29	18.53	-41.6	-42.6	19.6	0.00e+00	0	40	0	2968518656	52	4328
2026-01-10 05:43:07.38	275.09	18.47	-41.8	-42.8	19.4	0.00e+00	0	40	0	2975858688	53	4162
2026-01-10 05:43:08.38	274.89	18.40	-41.7	-42.7	19.5	0.00e+00	0	40	0	2983198720	53	4128
2026-01-10 05:43:09.47	274.67	18.32	-41.9	-42.9	19.3	0.00e+00	0	40	0	2991587328	53	4220
2026-01-10 05:43:10.35	274.50	18.26	-41.8	-42.8	19.4	0.00e+00	0	40	0	2997878784	53	4191
2026-01-10 05:43:11.49	274.27	18.19	-41.7	-42.7	19.5	0.00e+00	0	40	0	3006267392	53	4112
2026-01-10 05:43:12.35	274.10	18.13	-41.7	-42.8	19.4	0.00e+00	0	40	0	3012558848	53	4153
2026-01-10 05:43:13.50	273.88	18.05	-41.9	-42.9	19.3	0.00e+00	0	40	0	3020947456	53	4240
2026-01-10 05:43:14.36	273.71	17.99	-42.0	-43.1	19.1	0.00e+00	0	40	0	3027238912	53	4302
2026-01-10 05:43:15.50	273.49	17.91	-42.0	-43.1	19.1	0.00e+00	0	40	0	3034578944	53	4294
2026-01-10 05:43:16.36	273.33	17.85	-42.1	-43.2	19.1	0.00e+00	0	40	0	3040870400	53	4342
2026-01-10 05:43:17.50	273.11	17.77	-42.1	-43.1	19.1	0.00e+00	0	40	0	3049259008	53	4327
2026-01-10 05:43:18.36	272.95	17.71	-42.1	-43.1	19.1	0.00e+00	0	40	0	3055550464	53	4327
2026-01-10 05:43:19.50	272.73	17.63	-42.2	-43.2	19.0	0.00e+00	0	40	0	3063939072	53	4369
2026-01-10 05:43:20.36	272.57	17.57	-41.9	-43.0	19.2	0.00e+00	0	40	0	3070230528	53	4249
2026-01-10 05:43:21.51	272.35	17.49	-41.8	-42.8	19.3	0.00e+00	0	40	0	3078619136	53	4158
2026-01-10 05:43:22.37	272.19	17.43	-41.8	-42.8	19.3	0.00e+00	0	40	0	3084910592	53	4159
2026-01-10 05:43:23.52	271.98	17.35	-41.7	-42.7	19.4	0.00e+00	0	40	0	3093299200	53	4132
2026-01-10 05:43:24.38	271.82	17.29	-41.7	-42.7	19.4	0.00e+00	0	40	0	3098542080	53	4136
2026-01-10 05:43:25.52	271.61	17.21	-41.8	-42.8	19.4	0.00e+00	0	40	0	3106930688	53	4160
2026-01-10 05:43:26.38	271.45	17.15	-41.9	-43.0	19.2	0.00e+00	0	40	0	3113222144	53	4243
2026-01-10 05:43:27.53	271.24	17.07	-42.1	-43.2	19.0	0.00e+00	0	40	0	3121610752	53	4347
2026-01-10 05:43:28.40	271.08	17.01	-42.1	-43.2	19.0	0.00e+00	0	40	0	3127902208	53	4348
2026-01-10 05:43:29.55	270.88	16.93	-42.1	-43.2	19.0	0.00e+00	0	40	0	3136290816	53	4360
2026-01-10 05:43:30.41	270.72	16.87	-42.1	-43.2	19.0	0.00e+00	0	40	0	3142582272	53	4348
2026-01-10 05:43:31.55	270.52	16.79	-42.1	-43.1	19.0	0.00e+00	0	40	0	3150970880	53	4330
2026-01-10 05:43:32.41	270.36	16.73	-42.1	-43.1	19.0	0.00e+00	0	40	0	3157262336	53	4333
2026-01-10 05:43:33.56	270.16	16.65	-42.0	-43.0	19.1	0.00e+00	0	40	0	3165650944	53	4266
2026-01-10 05:43:34.42	270.01	16.59	-41.9	-43.0	19.2	0.00e+00	0	40	0	3171942400	53	4246
2026-01-10 05:43:35.57	269.81	16.50	-41.8	-42.9	19.3	0.00e+00	0	40	0	3179282432	53	4199
2026-01-10 05:43:36.43	269.65	16.44	-42.0	-43.0	19.1	0.00e+00	0	40	0	3185573888	53	4288
2026-01-10 05:43:37.58	269.45	16.36	-41.9	-43.0	19.2	0.00e+00	0	40	0	3193962496	53	4251
2026-01-10 05:43:38.44	269.31	16.30	-42.1	-43.1	19.0	0.00e+00	0	40	0	3200253952	53	4328
2026-01-10 05:43:39.63	269.10	16.22	-42.0	-43.0	19.1	0.00e+00	0	40	0	3208642560	53	4284
2026-01-10 05:43:40.49	268.95	16.15	-42.1	-43.2	19.0	0.00e+00	0	40	0	3214934016	53	4346
2026-01-10 05:43:41.63	268.76	16.07	-42.3	-43.4	18.8	0.00e+00	0	40	0	3223322624	54	4205
2026-01-10 05:43:42.49	268.61	16.01	-42.5	-43.6	18.6	0.00e+00	0	40	0	3229614080	54	4306
2026-01-10 05:43:43.64	268.42	15.93	-42.4	-43.5	18.7	0.00e+00	0	40	0	3238002688	54	4254
2026-01-10 05:43:44.50	268.27	15.87	-42.5	-43.5	18.6	0.00e+00	0	40	0	3244294144	54	4281
2026-01-10 05:43:45.65	268.08	15.79	-42.5	-43.6	18.6	0.00e+00	0	40	0	3252682752	54	4325
2026-01-10 05:43:46.60	267.92	15.72	-42.5	-43.6	18.6	0.00e+00	0	40	0	3260022784	54	4299
2026-01-10 05:43:47.80	267.72	15.63	-42.6	-43.7	18.5	0.00e+00	0	40	0	3268411392	54	4365
2026-01-10 05:43:48.66	267.58	15.57	-42.6	-43.7	18.5	0.00e+00	0	40	0	3274702848	54	4368
2026-01-10 05:43:50.01	267.36	15.47	-42.7	-43.8	18.4	0.00e+00	0	40	0	3284140032	54	4431
2026-01-10 05:43:50.73	267.24	15.42	-42.8	-43.9	18.3	0.00e+00	0	40	0	3289382912	55	4201
2026-01-10 05:43:52.24	267.00	15.31	-42.8	-43.9	18.3	0.00e+00	0	40	0	3299868672	55	4223
2026-01-10 05:43:52.95	266.88	15.26	-42.8	-43.9	18.2	0.00e+00	0	40	0	3305111552	55	4241
2026-01-10 05:43:54.24	266.68	15.17	-42.7	-43.8	18.4	0.00e+00	0	40	0	3314548736	55	4158
2026-01-10 05:43:54.96	266.56	15.12	-42.7	-43.8	18.4	0.00e+00	0	40	0	3319791616	55	4151
2026-01-10 05:43:56.25	266.36	15.03	-42.6	-43.6	18.5	0.00e+00	0	40	0	3329228800	55	4092
2026-01-10 05:43:56.96	266.24	14.98	-42.5	-43.6	18.5	0.00e+00	0	40	0	3334471680	55	4053
2026-01-10 05:43:58.25	266.04	14.88	-42.4	-43.5	18.7	0.00e+00	0	40	0	3343908864	55	4010
2026-01-10 05:43:58.97	265.93	14.83	-42.4	-43.5	18.7	0.00e+00	0	40	0	3349151744	55	4015
2026-01-10 05:44:00.26	265.73	14.74	-42.4	-43.5	18.6	0.00e+00	0	40	0	3358588928	55	4022
2026-01-10 05:44:00.97	265.62	14.69	-42.4	-43.5	18.7	0.00e+00	0	40	0	3362783232	55	4018
2026-01-10 05:44:02.26	265.42	14.60	-42.5	-43.6	18.6	0.00e+00	0	40	0	3372220416	55	4076
2026-01-10 05:44:02.98	265.31	14.54	-42.9	-43.9	18.4	0.00e+00	0	40	0	3377463296	56	4004
2026-01-10 05:44:04.27	265.11	14.45	-42.8	-43.9	18.4	0.00e+00	0	40	0	3386900480	56	3972
2026-01-10 05:44:04.98	265.00	14.40	-42.8	-43.9	18.4	0.00e+00	0	40	0	3392143360	56	3986
2026-01-10 05:44:06.28	264.80	14.31	-42.8	-43.9	18.4	0.00e+00	0	40	0	3401580544	56	3962
2026-01-10 05:44:06.99	264.70	14.26	-42.9	-44.0	18.3	0.00e+00	0	40	0	3406823424	56	4014
2026-01-10 05:44:08.28	264.50	14.16	-42.7	-43.8	18.5	0.00e+00	0	40	0	3416260608	56	3948
2026-01-10 05:44:09.00	264.40	14.11	-42.8	-43.9	18.4	0.00e+00	0	40	0	3421503488	56	3982
2026-01-10 05:44:10.29	264.20	14.02	-42.9	-44.0	18.3	0.00e+00	0	40	0	3429892096	56	4031
2026-01-10 05:44:11.00	264.10	13.97	-43.0	-44.1	18.2	0.00e+00	0	40	0	3436183552	56	4066
2026-01-10 05:44:12.29	263.91	13.88	-42.9	-44.0	18.3	0.00e+00	0	40	0	3444572160	56	4029
2026-01-10 05:44:13.01	263.80	13.82	-43.0	-44.1	18.2	0.00e+00	0	40	0	3449815040	56	4070
2026-01-10 05:44:14.29	263.62	13.73	-43.0	-44.2	18.1	0.00e+00	0	40	0	3459252224	56	4113
2026-01-10 05:44:15.01	263.51	13.68	-43.1	-44.3	18.0	0.00e+00	0	40	0	3464495104	56	4157
2026-01-10 05:44:16.30	263.33	13.59	-43.2	-44.3	18.0	0.00e+00	0	40	0	3473932288	56	4178
2026-01-10 05:44:17.14	263.21	13.53	-43.2	-44.4	17.9	0.00e+00	0	40	0	3480223744	56	4217
2026-01-10 05:44:18.29	263.04	13.45	-43.4	-44.5	17.7	0.00e+00	0	40	0	3487563776	56	4281
2026-01-10 05:44:19.15	262.92	13.39	-43.4	-44.5	17.7	0.00e+00	0	40	0	3494903808	56	4289
2026-01-10 05:44:20.29	262.76	13.30	-43.5	-44.6	17.6	0.00e+00	0	40	0	3503292416	56	4334
2026-01-10 05:44:21.44	262.60	13.22	-43.4	-44.6	17.7	0.00e+00	0	40	0	3510632448	56	4317
2026-01-10 05:44:22.30	262.48	13.16	-43.4	-44.6	17.7	0.00e+00	0	40	0	3516923904	56	4326
2026-01-10 05:44:23.45	262.32	13.08	-43.3	-44.5	17.8	0.00e+00	0	40	0	3525312512	56	4255
2026-01-10 05:44:24.31	262.20	13.02	-43.3	-44.4	17.7	0.00e+00	0	40	0	3531603968	56	4228
2026-01-10 05:44:25.45	262.04	12.94	-43.3	-44.4	17.8	0.00e+00	0	40	0	3539992576	56	4234
2026-01-10 05:44:26.31	261.92	12.88	-43.3	-44.4	17.8	0.00e+00	0	40	0	3546284032	56	4241
2026-01-10 05:44:27.46	261.77	12.79	-43.3	-44.4	17.8	0.00e+00	0	40	0	3554672640	56	4233
2026-01-10 05:44:28.32	261.65	12.73	-43.4	-44.5	17.7	0.00e+00	0	40	0	3560964096	56	4272
2026-01-10 05:44:29.46	261.49	12.65	-43.2	-44.4	17.9	0.00e+00	0	40	0	3569352704	56	4207
2026-01-10 05:44:30.32	261.38	12.59	-43.3	-44.4	17.8	0.00e+00	0	40	0	3574595584	56	4242
2026-01-10 05:44:31.47	261.22	12.51	-43.3	-44.5	17.8	0.00e+00	0	40	0	3582984192	56	4249
2026-01-10 05:44:32.33	261.11	12.45	-43.3	-44.5	17.7	0.00e+00	0	40	0	3589275648	56	4254
2026-01-10 05:44:33.48	260.96	12.37	-43.3	-44.5	17.8	0.00e+00	0	40	0	3597664256	56	4245
2026-01-10 05:44:34.34	260.84	12.31	-43.4	-44.6	17.7	0.00e+00	0	40	0	3603955712	56	4307
2026-01-10 05:44:35.48	260.69	12.23	-43.5	-44.7	17.6	0.00e+00	0	40	0	3612344320	56	4350
2026-01-10 05:44:36.34	260.58	12.16	-43.5	-44.7	17.5	0.00e+00	0	40	0	3618635776	56	4350
2026-01-10 05:44:37.48	260.43	12.08	-43.4	-44.6	17.6	0.00e+00	0	40	0	3627024384	56	4337
2026-01-10 05:44:38.34	260.32	12.02	-43.3	-44.5	17.7	0.00e+00	0	40	0	3633315840	56	4265
2026-01-10 05:44:39.49	260.17	11.94	-43.4	-44.6	17.6	0.00e+00	0	40	0	3641704448	56	4300
2026-01-10 05:44:40.35	260.06	11.88	-43.3	-44.5	17.7	0.00e+00	0	40	0	3647995904	56	4275
2026-01-10 05:44:41.50	259.92	11.80	-43.4	-44.6	17.6	0.00e+00	0	40	0	3655335936	56	4334
2026-01-10 05:44:42.36	259.81	11.74	-43.5	-44.7	17.5	0.00e+00	0	40	0	3661627392	56	4362
2026-01-10 05:44:43.51	259.66	11.66	-43.5	-44.7	17.5	0.00e+00	0	40	0	3670016000	56	4390
2026-01-10 05:44:44.36	259.56	11.60	-43.7	-44.9	17.3	0.00e+00	0	40	0	3676307456	56	4467
2026-01-10 05:44:45.51	259.41	11.52	-43.8	-45.0	17.2	0.00e+00	0	40	0	3684696064	56	4524
2026-01-10 05:44:46.37	259.31	11.46	-43.8	-45.1	17.1	0.00e+00	0	40	0	3690987520	57	4320
2026-01-10 05:44:47.52	259.16	11.38	-44.0	-45.3	16.8	0.00e+00	0	40	0	3699376128	57	4437
2026-01-10 05:44:48.44	259.05	11.31	-43.9	-45.1	17.0	0.00e+00	0	40	0	3705667584	57	4335
2026-01-10 05:44:49.44	258.93	11.25	-43.9	-45.2	17.0	0.00e+00	0	40	0	3713007616	57	4378
2026-01-10 05:44:50.44	258.81	11.18	-43.9	-45.2	17.0	0.00e+00	0	40	0	3720347648	57	4363
2026-01-10 05:44:51.45	258.68	11.11	-43.8	-45.0	17.1	0.00e+00	0	40	0	3727687680	57	4286
2026-01-10 05:44:52.45	258.56	11.04	-43.8	-45.0	17.2	0.00e+00	0	40	0	3735027712	57	4282
2026-01-10 05:44:53.45	258.44	10.97	-43.6	-44.9	17.3	0.00e+00	0	40	0	3742367744	57	4197
2026-01-10 05:44:54.46	258.32	10.90	-43.7	-44.9	17.3	0.00e+00	0	40	0	3749707776	57	4198
2026-01-10 05:44:55.46	258.20	10.83	-43.6	-44.8	17.3	0.00e+00	0	40	0	3757047808	57	4186
2026-01-10 05:44:56.46	258.08	10.76	-43.5	-44.7	17.4	0.00e+00	0	40	0	3763339264	57	4130
2026-01-10 05:44:57.47	257.96	10.69	-43.6	-44.7	17.4	0.00e+00	0	40	0	3770679296	57	4142
2026-01-10 05:44:58.47	257.85	10.62	-43.7	-44.9	17.3	0.00e+00	0	40	0	3778019328	57	4198
2026-01-10 05:44:59.47	257.73	10.55	-43.9	-45.1	17.1	0.00e+00	0	40	0	3785359360	57	4311
2026-01-10 05:45:00.47	257.61	10.48	-43.9	-45.2	17.0	0.00e+00	0	40	0	3792699392	57	4349
2026-01-10 05:45:01.48	257.50	10.41	-44.1	-45.4	16.8	0.00e+00	0	40	0	3800039424	57	4446
2026-01-10 05:45:02.48	257.38	10.34	-44.3	-45.6	16.6	0.00e+00	0	40	0	3807379456	57	4552
2026-01-10 05:45:03.48	257.27	10.27	-44.3	-45.7	16.5	0.00e+00	0	40	0	3814719488	58	4345
2026-01-10 05:45:04.48	257.15	10.20	-44.4	-45.7	16.5	0.00e+00	0	40	0	3821010944	58	4364
2026-01-10 05:45:05.48	257.04	10.14	-44.5	-45.8	16.4	0.00e+00	0	40	0	3828350976	58	4423
2026-01-10 05:45:06.49	256.92	10.07	-44.5	-45.8	16.3	0.00e+00	0	40	0	3835691008	58	4423
2026-01-10 05:45:07.49	256.81	10.00	-44.4	-45.7	16.5	0.00e+00	0	40	0	3843031040	58	4362
2026-01-10 05:45:08.50	256.70	9.93	-44.3	-45.6	16.5	0.00e+00	0	40	0	3850371072	58	4307
2026-01-10 05:45:09.50	256.59	9.86	-44.2	-45.5	16.6	0.00e+00	0	40	0	3857711104	58	4282
2026-01-10 05:45:10.50	256.48	9.79	-44.2	-45.5	16.7	0.00e+00	0	40	0	3865051136	58	4244
2026-01-10 05:45:11.50	256.37	9.73	-44.2	-45.5	16.7	0.00e+00	0	40	0	3872391168	58	4255
2026-01-10 05:45:12.51	256.26	9.66	-44.0	-45.3	16.8	0.00e+00	0	40	0	3879731200	58	4157
2026-01-10 05:45:13.51	256.15	9.59	-44.1	-45.4	16.7	0.00e+00	0	40	0	3887071232	58	4214
2026-01-10 05:45:14.51	256.04	9.52	-44.1	-45.3	16.8	0.00e+00	0	40	0	3894411264	58	4191
2026-01-10 05:45:15.51	255.93	9.45	-44.0	-45.2	16.9	0.00e+00	0	40	0	3901751296	58	4142
2026-01-10 05:45:16.52	255.82	9.39	-44.0	-45.3	16.7	0.00e+00	0	40	0	3908042752	58	4170
2026-01-10 05:45:17.52	255.71	9.32	-43.9	-45.2	16.9	0.00e+00	0	40	0	3915382784	58	4115
2026-01-10 05:45:18.53	255.61	9.25	-43.9	-45.2	16.8	0.00e+00	0	40	0	3922722816	58	4128
2026-01-10 05:45:19.53	255.50	9.18	-44.0	-45.3	16.8	0.00e+00	0	40	0	3930062848	58	4174
2026-01-10 05:45:20.53	255.39	9.11	-44.0	-45.3	16.8	0.00e+00	0	40	0	3937402880	58	4172
2026-01-10 05:45:21.54	255.29	9.05	-44.0	-45.3	16.8	0.00e+00	0	40	0	3944742912	58	4177
2026-01-10 05:45:22.54	255.18	8.98	-44.5	-45.9	16.3	0.00e+00	0	40	0	3952082944	58	4448
2026-01-10 05:45:23.54	255.08	8.91	-52.6	-62.7	3.8	8.47e-01	0	40	104	3954180096	74	12238
2026-01-10 05:45:24.55	254.97	8.85	-52.8	-63.7	3.8	8.47e-01	0	40	104	3954180096	75	12968
2026-01-10 05:45:25.55	254.87	8.78	-52.9	-63.8	3.8	8.46e-01	0	40	104	3954180096	75	13213
2026-01-10 05:45:26.56	254.77	8.71	-53.2	-63.9	3.8	8.47e-01	0	40	104	3954180096	75	13306
2026-01-10 05:45:27.59	254.66	8.64	-53.2	-64.0	3.8	8.48e-01	0	40	104	3954180096	75	13437
2026-01-10 05:45:28.59	254.56	8.58	-53.3	-64.0	3.8	8.49e-01	0	40	104	3954180096	75	13504
2026-01-10 05:45:29.59	254.46	8.51	-53.3	-64.2	3.8	8.47e-01	0	40	104	3954180096	76	12981
2026-01-10 05:45:30.60	254.36	8.44	-53.3	-64.2	3.8	8.46e-01	0	40	104	3954180096	76	13013
2026-01-10 05:45:31.60	254.26	8.38	-53.4	-64.2	3.8	8.47e-01	0	40	104	3954180096	76	13039
2026-01-10 05:45:32.60	254.16	8.31	-53.4	-64.2	3.8	8.47e-01	0	40	104	3954180096	76	13020
2026-01-10 05:45:33.61	254.06	8.24	-53.4	-64.2	3.8	8.47e-01	0	40	104	3954180096	76	13038
2026-01-10 05:45:34.61	253.96	8.18	-53.4	-64.2	3.8	8.47e-01	0	40	104	3954180096	76	13062
2026-01-10 05:45:35.62	253.86	8.11	-53.3	-64.2	3.8	8.46e-01	0	40	104	3954180096	76	13080
2026-01-10 05:45:36.62	253.76	8.04	-53.3	-64.2	3.8	8.46e-01	0	40	104	3954180096	76	13058
2026-01-10 05:45:37.62	253.66	7.98	-53.3	-64.2	3.8	8.46e-01	0	40	104	3954180096	76	13077
2026-01-10 05:45:38.63	253.56	7.91	-53.2	-64.3	3.8	8.47e-01	0	40	104	3954180096	76	13112
2026-01-10 05:45:39.63	253.47	7.85	-53.3	-64.2	3.8	8.46e-01	0	40	104	3954180096	76	13082
2026-01-10 05:45:40.64	253.37	7.78	-53.3	-64.2	3.8	8.49e-01	0	40	104	3954180096	76	13080
2026-01-10 05:45:41.64	253.27	7.72	-53.3	-64.2	3.8	8.45e-01	0	40	104	3954180096	76	13056
2026-01-10 05:45:42.65	253.18	7.65	-53.3	-64.2	3.8	8.46e-01	0	40	104	3954180096	76	13101
2026-01-10 05:45:43.65	253.08	7.58	-53.3	-64.2	3.8	8.47e-01	0	40	104	3954180096	76	13060
