passes_logs/2026/01/10/T1/T1__20260110_103008_NOAA_21_JPSS-2_rec.log

#Pass ID: 20260110_103008_NOAA 21 (JPSS-2)
#Satellite: NOAA 21 (JPSS-2)
#Configuration: NOAA 21
#almurnet v.1.7.20251203
#Start time: 2026-01-10 10:30:08

#Version: 2.0.20230620
#Station: T1
#Location: 37.570604 lon 55.790049 lat
#TLE: 1 54234U 22150A   26009.79679979  .00000100  00000+0  68070-4 0  9993
#TLE: 2 54234  98.7494 310.7596 0000833 322.2782  37.8335 14.19533646164071

#Time	Az	El	Level	Level2	SNR	BER	BlckErr	Temp	State	Recorded	gain1	gain2
2026-01-10 10:30:08.50	178.49	5.02	-50.5	-64.2	3.8	1.49e+00	0	37	0	0	73	16612
2026-01-10 10:30:09.49	178.52	5.09	-48.6	-63.7	3.8	1.49e+00	0	38	104	0	69	19743
2026-01-10 10:30:10.50	178.55	5.17	-48.6	-63.6	3.8	1.49e+00	0	38	104	0	69	19591
2026-01-10 10:30:11.51	178.59	5.24	-48.7	-63.6	3.8	1.49e+00	0	38	104	0	69	19454
2026-01-10 10:30:12.51	178.62	5.31	-48.7	-63.6	3.8	1.49e+00	0	38	104	0	69	19507
2026-01-10 10:30:13.51	178.66	5.38	-48.7	-63.5	3.8	1.49e+00	0	38	104	0	69	19349
2026-01-10 10:30:14.52	178.69	5.45	-48.7	-63.5	3.8	1.49e+00	0	38	104	0	69	19317
2026-01-10 10:30:15.52	178.73	5.52	-48.7	-63.5	3.8	1.49e+00	0	38	104	0	69	19323
2026-01-10 10:30:16.53	178.76	5.59	-48.6	-63.5	3.8	1.49e+00	0	38	104	0	69	19371
2026-01-10 10:30:17.53	178.79	5.67	-48.6	-63.6	3.8	1.49e+00	0	38	104	0	69	19513
2026-01-10 10:30:18.53	178.83	5.74	-48.6	-63.7	3.8	1.49e+00	0	38	104	0	69	19667
2026-01-10 10:30:19.54	178.86	5.81	-48.6	-63.7	3.8	1.49e+00	0	38	104	0	69	19631
2026-01-10 10:30:20.54	178.90	5.88	-48.6	-63.7	3.8	1.49e+00	0	38	104	0	69	19738
2026-01-10 10:30:21.55	178.94	5.96	-48.6	-63.7	3.8	1.49e+00	0	38	104	0	69	19791
2026-01-10 10:30:22.55	178.97	6.03	-48.6	-63.8	3.8	1.49e+00	0	38	104	0	69	19858
2026-01-10 10:30:23.56	179.01	6.10	-48.6	-63.8	3.8	1.49e+00	0	38	104	0	69	19964
2026-01-10 10:30:24.56	179.04	6.18	-48.7	-63.8	3.8	1.49e+00	0	38	104	0	69	19994
2026-01-10 10:30:25.56	179.08	6.25	-48.6	-63.8	3.8	1.49e+00	0	39	104	0	69	20007
2026-01-10 10:30:26.57	179.12	6.32	-48.6	-63.7	3.8	1.49e+00	0	39	104	0	69	19756
2026-01-10 10:30:27.57	179.15	6.40	-48.6	-63.5	3.8	1.49e+00	0	38	104	0	69	19316
2026-01-10 10:30:28.58	179.19	6.47	-48.6	-63.2	3.8	1.49e+00	0	39	104	0	69	18646
2026-01-10 10:30:29.58	179.23	6.55	-48.5	-62.7	3.8	1.49e+00	0	38	104	0	69	17572
2026-01-10 10:30:30.59	179.26	6.62	-48.5	-62.1	3.8	1.49e+00	0	39	104	0	69	16447
2026-01-10 10:30:31.59	179.30	6.69	-48.5	-61.3	4.0	1.48e+00	0	39	104	0	68	15875
2026-01-10 10:30:32.60	179.34	6.77	-48.5	-60.9	4.0	1.48e+00	0	39	104	0	68	15152
2026-01-10 10:30:33.60	179.38	6.85	-48.4	-60.8	4.1	1.48e+00	0	39	104	0	68	14969
2026-01-10 10:30:34.61	179.41	6.92	-48.4	-61.2	4.0	1.48e+00	0	39	104	0	68	15652
2026-01-10 10:30:35.61	179.45	7.00	-48.4	-62.2	3.8	1.49e+00	0	39	104	0	68	17680
2026-01-10 10:30:36.61	179.49	7.07	-48.4	-63.0	3.8	1.49e+00	0	39	104	0	68	19298
2026-01-10 10:30:37.62	179.53	7.15	-48.5	-63.6	3.8	1.49e+00	0	39	104	0	68	20548
2026-01-10 10:30:38.63	179.57	7.23	-48.6	-62.9	3.8	1.49e+00	0	39	104	0	68	19039
2026-01-10 10:30:39.63	179.60	7.30	-48.4	-60.2	4.2	1.49e+00	0	39	104	0	68	14029
2026-01-10 10:30:40.63	179.64	7.38	-48.1	-57.6	5.3	1.06e+00	0	39	0	0	68	10402
2026-01-10 10:30:41.64	179.68	7.46	-47.3	-54.9	7.4	1.86e-01	0	39	0	0	66	8511
2026-01-10 10:30:42.64	179.72	7.53	-46.8	-53.0	9.2	3.48e-02	0	39	0	0	65	7276
2026-01-10 10:30:43.65	179.76	7.61	-46.2	-51.3	10.9	3.89e-03	0	39	0	0	64	6315
2026-01-10 10:30:44.65	179.80	7.69	-45.6	-49.9	12.4	2.55e-04	0	39	0	0	63	5712
2026-01-10 10:30:45.66	179.84	7.77	-45.1	-48.9	13.5	2.30e-04	0	39	0	0	62	5390
2026-01-10 10:30:46.66	179.88	7.84	-44.7	-48.3	14.1	3.80e-06	0	39	0	0	61	5290
2026-01-10 10:30:47.66	179.92	7.92	-44.3	-47.7	14.6	0.00e+00	0	39	0	0	60	5236
2026-01-10 10:30:48.67	179.96	8.00	-44.0	-47.2	15.1	1.38e-04	0	39	0	0	60	4970
2026-01-10 10:30:49.67	180.00	8.08	-44.0	-47.1	15.2	0.00e+00	0	39	0	0	59	5182
2026-01-10 10:30:50.68	180.04	8.16	-44.0	-47.0	15.2	0.00e+00	0	39	0	0	59	5143
2026-01-10 10:30:51.68	180.08	8.24	-44.1	-47.3	15.0	3.43e-05	0	39	0	0	59	5293
2026-01-10 10:30:52.69	180.13	8.32	-44.4	-47.7	14.7	7.00e-07	0	39	0	0	59	5539
2026-01-10 10:30:53.69	180.17	8.40	-44.6	-48.1	14.3	0.00e+00	0	39	0	0	59	5801
2026-01-10 10:30:54.69	180.21	8.48	-45.0	-49.0	13.4	9.10e-06	0	39	0	0	60	6063
2026-01-10 10:30:55.70	180.25	8.56	-45.5	-49.8	12.6	6.48e-05	0	39	0	0	61	6277
2026-01-10 10:30:56.70	180.29	8.64	-46.0	-50.8	11.5	5.48e-04	0	39	0	0	62	6718
2026-01-10 10:30:57.71	180.34	8.72	-46.5	-52.0	10.3	4.22e-03	0	39	0	0	63	7246
2026-01-10 10:30:58.71	180.38	8.80	-46.7	-52.9	9.2	1.28e-02	0	39	0	0	64	7629
2026-01-10 10:30:59.72	180.42	8.88	-47.1	-54.4	7.8	5.85e-02	0	39	0	0	64	8968
2026-01-10 10:31:00.72	180.46	8.96	-47.4	-55.6	6.6	1.60e-01	0	40	0	0	65	9793
2026-01-10 10:31:01.73	180.51	9.04	-47.6	-56.9	5.7	3.81e-01	0	40	0	0	65	11350
2026-01-10 10:31:02.73	180.55	9.13	-47.7	-57.3	5.3	5.40e-01	0	40	0	0	66	11270
2026-01-10 10:31:03.73	180.59	9.21	-47.4	-56.2	6.2	4.60e-01	0	39	0	0	66	9905
2026-01-10 10:31:04.74	180.64	9.29	-48.3	-58.4	4.8	3.46e-01	0	40	0	0	67	12092
2026-01-10 10:31:05.74	180.68	9.37	-47.0	-52.0	10.2	1.89e-01	0	40	0	0	66	6084
2026-01-10 10:31:06.74	180.73	9.46	-47.9	-58.6	4.7	2.29e-01	0	40	0	0	66	13030
2026-01-10 10:31:07.75	180.77	9.54	-47.4	-52.7	9.4	2.11e-01	0	39	0	0	66	6589
2026-01-10 10:31:08.75	180.82	9.62	-46.5	-50.6	11.7	9.60e-04	0	40	0	0	65	5479
2026-01-10 10:31:09.75	180.86	9.71	-45.6	-48.8	13.6	4.95e-05	0	40	0	0	63	5035
2026-01-10 10:31:10.76	180.91	9.79	-45.0	-47.9	14.5	0.00e+00	0	40	0	0	62	4789
2026-01-10 10:31:11.76	180.95	9.88	-44.8	-47.5	14.9	0.00e+00	0	40	0	0	61	4843
2026-01-10 10:31:12.76	181.00	9.96	-44.9	-47.6	14.8	7.00e-07	0	40	0	0	61	4891
2026-01-10 10:31:13.76	181.04	10.04	-44.8	-47.4	15.0	0.00e+00	0	40	0	0	61	4801
2026-01-10 10:31:14.77	181.09	10.13	-44.7	-47.3	15.1	0.00e+00	0	40	0	0	61	4726
2026-01-10 10:31:15.77	181.14	10.21	-44.5	-47.1	15.3	0.00e+00	0	40	0	0	61	4620
2026-01-10 10:31:16.78	181.18	10.30	-44.4	-47.0	15.4	0.00e+00	0	40	0	0	60	4851
2026-01-10 10:31:17.78	181.23	10.39	-44.1	-46.6	15.8	0.00e+00	0	40	0	0	60	4638
2026-01-10 10:31:18.78	181.28	10.47	-44.0	-46.4	16.0	0.00e+00	0	40	0	0	59	4770
2026-01-10 10:31:19.79	181.32	10.56	-43.9	-46.3	16.1	0.00e+00	0	40	0	0	59	4709
2026-01-10 10:31:20.79	181.37	10.65	-43.8	-46.2	16.2	0.00e+00	0	40	0	0	59	4675
2026-01-10 10:31:21.79	181.42	10.73	-43.8	-46.2	16.2	0.00e+00	0	40	0	0	59	4675
2026-01-10 10:31:22.80	181.47	10.82	-43.6	-45.9	16.4	0.00e+00	0	40	0	0	59	4542
2026-01-10 10:31:23.80	181.52	10.91	-43.5	-46.0	16.4	0.00e+00	0	40	0	0	59	4551
2026-01-10 10:31:24.80	181.57	11.00	-43.4	-45.8	16.5	0.00e+00	0	40	0	0	58	4758
2026-01-10 10:31:25.81	181.62	11.09	-43.4	-45.9	16.5	0.00e+00	0	40	0	0	58	4768
2026-01-10 10:31:26.81	181.67	11.17	-43.4	-45.8	16.5	0.00e+00	0	40	0	0	58	4747
2026-01-10 10:31:27.81	181.71	11.26	-43.4	-45.8	16.5	0.00e+00	0	40	0	0	58	4749
2026-01-10 10:31:28.82	181.77	11.35	-43.4	-45.8	16.6	0.00e+00	0	40	0	0	58	4719
2026-01-10 10:31:29.82	181.82	11.44	-43.4	-45.7	16.6	0.00e+00	0	40	0	0	58	4705
2026-01-10 10:31:30.82	181.87	11.53	-43.5	-45.8	16.6	0.00e+00	0	40	0	0	58	4748
2026-01-10 10:31:31.82	181.92	11.62	-43.5	-45.8	16.6	5.77e-03	0	40	0	0	58	4741
2026-01-10 10:31:32.83	181.97	11.71	-43.3	-45.7	16.7	0.00e+00	0	40	0	0	58	4674
2026-01-10 10:31:33.83	182.02	11.80	-43.4	-45.7	16.6	0.00e+00	0	40	0	0	58	4703
2026-01-10 10:31:34.84	182.07	11.89	-43.4	-45.7	16.7	4.19e-03	0	40	0	0	58	4687
2026-01-10 10:31:35.84	182.12	11.99	-43.3	-45.6	16.8	0.00e+00	0	40	0	0	58	4621
2026-01-10 10:31:36.85	182.18	12.08	-43.4	-45.7	16.7	0.00e+00	0	40	0	0	58	4665
2026-01-10 10:31:37.85	182.23	12.17	-43.3	-45.6	16.7	0.00e+00	0	40	0	0	58	4641
2026-01-10 10:31:38.86	182.28	12.26	-43.3	-45.5	16.8	0.00e+00	0	40	0	0	58	4592
2026-01-10 10:31:39.86	182.34	12.36	-43.3	-45.5	16.8	0.00e+00	0	40	0	0	58	4579
2026-01-10 10:31:40.87	182.39	12.45	-43.3	-45.5	16.8	0.00e+00	0	40	0	0	58	4577
2026-01-10 10:31:41.87	182.44	12.54	-43.3	-45.6	16.8	0.00e+00	0	40	0	0	58	4619
2026-01-10 10:31:42.87	182.50	12.64	-43.3	-45.5	16.9	0.00e+00	0	40	0	0	58	4576
2026-01-10 10:31:43.88	182.55	12.73	-43.4	-45.6	16.8	0.00e+00	0	40	0	0	58	4610
2026-01-10 10:31:44.88	182.61	12.82	-43.4	-45.6	16.8	0.00e+00	0	40	0	0	58	4617
2026-01-10 10:31:45.88	182.66	12.92	-43.2	-45.4	16.9	0.00e+00	0	40	0	0	58	4540
2026-01-10 10:31:46.89	182.72	13.01	-43.2	-45.4	16.9	0.00e+00	0	40	0	0	58	4540
2026-01-10 10:31:47.89	182.77	13.11	-43.2	-45.4	17.0	0.00e+00	0	40	0	0	58	4496
2026-01-10 10:31:48.90	182.83	13.21	-43.2	-45.4	16.9	0.00e+00	0	40	0	0	58	4502
2026-01-10 10:31:49.90	182.89	13.30	-43.3	-45.5	16.9	0.00e+00	0	40	0	0	58	4580
2026-01-10 10:31:50.90	182.94	13.40	-43.2	-45.4	17.0	0.00e+00	0	40	0	0	58	4515
2026-01-10 10:31:51.90	183.00	13.50	-43.2	-45.3	17.0	5.56e-05	0	40	0	0	58	4482
2026-01-10 10:31:52.90	183.06	13.59	-43.2	-45.3	17.1	0.00e+00	0	40	0	0	58	4471
2026-01-10 10:31:53.91	183.12	13.69	-43.1	-45.2	17.1	0.00e+00	0	41	0	0	58	4437
2026-01-10 10:31:54.91	183.18	13.79	-42.9	-45.1	17.2	1.73e-03	0	40	0	0	57	4618
2026-01-10 10:31:55.92	183.23	13.89	-42.8	-45.0	17.4	0.00e+00	0	40	0	0	57	4557
2026-01-10 10:31:56.92	183.29	13.99	-42.9	-45.0	17.3	0.00e+00	0	40	0	0	57	4598
2026-01-10 10:31:57.92	183.35	14.08	-42.8	-44.9	17.4	3.43e-04	0	40	0	0	57	4534
2026-01-10 10:31:58.93	183.41	14.18	-42.9	-45.1	17.2	0.00e+00	0	40	0	0	57	4603
2026-01-10 10:31:59.93	183.47	14.28	-42.8	-44.9	17.4	0.00e+00	0	40	0	0	57	4532
2026-01-10 10:32:00.93	183.53	14.38	-43.0	-45.1	17.3	0.00e+00	0	40	0	0	57	4604
2026-01-10 10:32:01.94	183.60	14.49	-42.9	-45.0	17.3	0.00e+00	0	40	0	0	57	4591
2026-01-10 10:32:02.94	183.66	14.59	-43.0	-45.0	17.3	0.00e+00	0	40	0	0	57	4590
2026-01-10 10:32:03.95	183.72	14.69	-42.9	-45.0	17.3	0.00e+00	0	40	0	0	57	4562
2026-01-10 10:32:04.95	183.78	14.79	-43.0	-45.1	17.3	0.00e+00	0	40	0	0	57	4605
2026-01-10 10:32:05.95	183.84	14.89	-42.9	-45.0	17.4	0.00e+00	0	40	0	0	57	4552
2026-01-10 10:32:06.96	183.91	15.00	-42.9	-45.0	17.3	0.00e+00	0	40	0	0	57	4553
2026-01-10 10:32:07.96	183.97	15.10	-42.9	-45.0	17.3	0.00e+00	0	40	0	0	57	4566
2026-01-10 10:32:08.96	184.03	15.20	-43.0	-45.1	17.2	0.00e+00	0	40	0	0	57	4626
2026-01-10 10:32:09.96	184.10	15.30	-43.1	-45.2	17.1	0.00e+00	0	41	0	0	57	4660
2026-01-10 10:32:10.97	184.16	15.41	-43.0	-45.1	17.3	0.00e+00	0	40	0	0	57	4604
2026-01-10 10:32:11.97	184.23	15.51	-42.8	-44.9	17.4	0.00e+00	0	41	0	0	57	4513
2026-01-10 10:32:12.98	184.29	15.62	-42.9	-44.9	17.4	0.00e+00	0	40	0	0	57	4522
2026-01-10 10:32:13.98	184.36	15.73	-42.8	-44.9	17.4	0.00e+00	0	41	0	0	57	4503
2026-01-10 10:32:14.99	184.43	15.83	-42.8	-44.9	17.4	0.00e+00	0	40	0	0	57	4508
2026-01-10 10:32:15.99	184.49	15.94	-42.9	-44.9	17.4	0.00e+00	0	40	0	0	57	4532
2026-01-10 10:32:17.00	184.56	16.05	-42.8	-44.9	17.4	0.00e+00	0	40	0	0	57	4524
2026-01-10 10:32:18.00	184.63	16.15	-42.8	-44.9	17.4	0.00e+00	0	40	0	0	57	4526
2026-01-10 10:32:19.00	184.70	16.26	-42.8	-44.9	17.4	0.00e+00	0	40	0	0	57	4523
2026-01-10 10:32:20.01	184.77	16.37	-42.7	-44.8	17.5	0.00e+00	0	40	0	0	57	4465
2026-01-10 10:32:21.01	184.84	16.48	-42.7	-44.8	17.5	0.00e+00	0	40	0	0	57	4474
2026-01-10 10:32:22.01	184.91	16.59	-42.8	-44.9	17.5	0.00e+00	0	40	0	0	57	4518
2026-01-10 10:32:23.01	184.98	16.69	-42.7	-44.8	17.5	0.00e+00	0	40	0	0	57	4478
2026-01-10 10:32:24.02	185.05	16.81	-42.7	-44.8	17.6	0.00e+00	0	41	0	0	57	4463
2026-01-10 10:32:25.02	185.12	16.92	-42.8	-44.9	17.4	0.00e+00	0	40	0	0	57	4542
2026-01-10 10:32:26.03	185.19	17.03	-42.7	-44.8	17.5	0.00e+00	0	41	0	0	57	4478
2026-01-10 10:32:27.03	185.26	17.14	-42.8	-44.9	17.4	0.00e+00	0	40	0	0	57	4537
2026-01-10 10:32:28.03	185.34	17.25	-42.7	-44.8	17.5	0.00e+00	0	41	0	0	57	4486
2026-01-10 10:32:29.04	185.41	17.36	-42.7	-44.8	17.5	0.00e+00	0	40	0	0	57	4486
2026-01-10 10:32:30.04	185.48	17.48	-42.7	-44.8	17.5	0.00e+00	0	40	0	0	57	4493
2026-01-10 10:32:31.04	185.56	17.59	-42.7	-44.8	17.5	0.00e+00	0	41	0	0	57	4455
2026-01-10 10:32:32.05	185.63	17.70	-42.8	-44.9	17.4	0.00e+00	0	40	0	0	57	4505
2026-01-10 10:32:33.05	185.71	17.82	-42.8	-44.9	17.4	0.00e+00	0	41	0	0	57	4518
2026-01-10 10:32:34.05	185.78	17.93	-42.7	-44.9	17.5	0.00e+00	0	41	0	0	57	4496
2026-01-10 10:32:35.05	185.86	18.05	-42.8	-44.9	17.4	0.00e+00	0	41	0	0	57	4510
2026-01-10 10:32:36.06	185.94	18.16	-42.7	-44.8	17.5	0.00e+00	0	41	0	0	57	4473
2026-01-10 10:32:37.06	186.01	18.28	-42.8	-44.9	17.4	0.00e+00	0	41	0	0	57	4513
2026-01-10 10:32:38.06	186.09	18.39	-42.7	-44.8	17.5	0.00e+00	0	40	0	0	57	4481
2026-01-10 10:32:39.06	186.17	18.51	-42.8	-44.9	17.4	0.00e+00	0	41	0	0	57	4511
2026-01-10 10:32:40.07	186.25	18.63	-42.9	-45.0	17.4	0.00e+00	0	41	0	0	57	4550
2026-01-10 10:32:41.07	186.33	18.75	-42.8	-44.9	17.4	0.00e+00	0	41	0	0	57	4516
2026-01-10 10:32:42.07	186.41	18.87	-42.9	-45.0	17.4	0.00e+00	0	41	0	0	57	4558
2026-01-10 10:32:43.08	186.49	18.99	-42.9	-45.0	17.4	0.00e+00	0	41	0	0	57	4565
2026-01-10 10:32:44.08	186.57	19.10	-43.0	-45.1	17.3	0.00e+00	0	41	0	0	57	4617
2026-01-10 10:32:45.09	186.66	19.23	-42.9	-45.0	17.3	0.00e+00	0	41	0	0	57	4586
2026-01-10 10:32:46.09	186.74	19.35	-43.0	-45.1	17.3	0.00e+00	0	41	0	0	57	4639
2026-01-10 10:32:47.09	186.82	19.47	-43.1	-45.2	17.2	0.00e+00	0	41	0	0	57	4675
2026-01-10 10:32:48.10	186.91	19.59	-43.1	-45.2	17.2	0.00e+00	0	41	0	0	57	4699
2026-01-10 10:32:49.10	186.99	19.71	-43.1	-45.2	17.2	0.00e+00	0	40	0	0	57	4673
2026-01-10 10:32:50.10	187.08	19.83	-43.0	-45.1	17.2	0.00e+00	0	41	0	0	57	4647
2026-01-10 10:32:51.10	187.16	19.96	-43.0	-45.1	17.3	0.00e+00	0	41	0	0	57	4633
2026-01-10 10:32:52.10	187.25	20.08	-42.9	-45.0	17.3	0.00e+00	0	41	0	0	57	4570
2026-01-10 10:32:53.10	187.34	20.21	-43.0	-45.0	17.3	0.00e+00	0	41	0	0	57	4594
2026-01-10 10:32:54.11	187.43	20.33	-43.0	-45.0	17.3	0.00e+00	0	41	0	0	57	4585
2026-01-10 10:32:55.11	187.51	20.46	-42.8	-44.9	17.4	0.00e+00	0	41	0	0	57	4505
2026-01-10 10:32:56.11	187.60	20.58	-42.7	-44.8	17.5	0.00e+00	0	41	0	0	57	4452
2026-01-10 10:32:57.12	187.70	20.71	-42.8	-44.8	17.5	0.00e+00	0	41	0	0	57	4478
2026-01-10 10:32:58.12	187.79	20.84	-42.8	-44.8	17.5	0.00e+00	0	41	0	0	57	4457
2026-01-10 10:32:59.12	187.88	20.97	-42.8	-44.8	17.5	0.00e+00	0	41	0	0	57	4482
2026-01-10 10:33:00.13	187.97	21.09	-42.6	-44.6	17.6	0.00e+00	0	41	0	0	57	4389
2026-01-10 10:33:01.13	188.06	21.22	-42.5	-44.5	17.8	0.00e+00	0	41	0	0	57	4303
2026-01-10 10:33:02.13	188.16	21.35	-42.4	-44.4	17.9	0.00e+00	0	41	0	0	56	4508
2026-01-10 10:33:03.14	188.25	21.48	-42.4	-44.4	17.9	0.00e+00	0	41	0	0	56	4505
2026-01-10 10:33:04.14	188.35	21.61	-42.4	-44.4	17.9	0.00e+00	0	41	0	0	56	4508
2026-01-10 10:33:05.14	188.44	21.75	-42.3	-44.2	18.1	0.00e+00	0	41	0	0	56	4406
2026-01-10 10:33:06.15	188.54	21.88	-42.2	-44.2	18.1	0.00e+00	0	41	0	0	56	4407
2026-01-10 10:33:07.15	188.64	22.01	-42.1	-44.0	18.2	0.00e+00	0	41	0	0	56	4339
2026-01-10 10:33:08.15	188.74	22.14	-41.8	-43.7	18.4	0.00e+00	0	41	0	0	55	4431
2026-01-10 10:33:09.16	188.84	22.28	-41.6	-43.5	18.5	0.00e+00	0	41	0	0	55	4318
2026-01-10 10:33:10.16	188.94	22.41	-41.6	-43.5	18.6	0.00e+00	0	41	0	0	55	4299
2026-01-10 10:33:11.17	189.04	22.55	-41.5	-43.3	18.7	0.00e+00	0	41	0	0	55	4229
2026-01-10 10:33:12.17	189.14	22.69	-41.4	-43.2	18.8	0.00e+00	0	41	0	0	54	4432
2026-01-10 10:33:13.17	189.25	22.82	-41.4	-43.2	18.8	0.00e+00	0	41	0	0	54	4431
2026-01-10 10:33:14.18	189.35	22.96	-41.4	-43.2	18.8	0.00e+00	0	41	0	0	54	4408
2026-01-10 10:33:15.18	189.45	23.10	-41.4	-43.3	18.8	0.00e+00	0	41	0	0	54	4453
2026-01-10 10:33:16.18	189.56	23.24	-41.6	-43.4	18.6	0.00e+00	0	41	0	0	54	4539
2026-01-10 10:33:17.19	189.67	23.38	-41.5	-43.3	18.7	0.00e+00	0	41	0	0	54	4479
2026-01-10 10:33:18.19	189.77	23.51	-41.5	-43.3	18.7	0.00e+00	0	41	0	0	54	4487
2026-01-10 10:33:19.19	189.88	23.65	-41.4	-43.2	18.8	0.00e+00	0	41	0	0	54	4436
2026-01-10 10:33:20.20	189.99	23.80	-41.5	-43.4	18.7	0.00e+00	0	41	0	0	54	4496
2026-01-10 10:33:21.20	190.10	23.94	-41.5	-43.4	18.7	0.00e+00	0	41	0	0	54	4500
2026-01-10 10:33:22.20	190.21	24.08	-41.6	-43.4	18.7	0.00e+00	0	41	0	0	54	4514
2026-01-10 10:33:23.21	190.33	24.22	-41.5	-43.3	18.8	0.00e+00	0	41	0	0	54	4452
2026-01-10 10:33:24.21	190.44	24.37	-41.6	-43.4	18.7	0.00e+00	0	41	0	0	54	4532
2026-01-10 10:33:25.21	190.55	24.51	-41.6	-43.4	18.7	0.00e+00	0	41	0	0	54	4503
2026-01-10 10:33:26.22	190.67	24.66	-41.7	-43.5	18.6	0.00e+00	0	41	0	0	54	4598
2026-01-10 10:33:27.22	190.78	24.80	-41.7	-43.5	18.6	0.00e+00	0	41	0	0	54	4589
2026-01-10 10:33:28.22	190.90	24.95	-41.8	-43.6	18.6	0.00e+00	0	41	0	0	54	4619
2026-01-10 10:33:29.22	191.02	25.10	-41.8	-43.7	18.5	0.00e+00	0	41	0	0	54	4664
2026-01-10 10:33:30.23	191.14	25.24	-41.8	-43.6	18.5	0.00e+00	0	41	0	0	54	4630
2026-01-10 10:33:31.23	191.26	25.39	-41.8	-43.7	18.5	0.00e+00	0	41	0	0	54	4660
2026-01-10 10:33:32.23	191.38	25.54	-41.9	-43.8	18.4	0.00e+00	0	41	0	0	54	4741
2026-01-10 10:33:33.24	191.51	25.69	-41.9	-43.8	18.4	0.00e+00	0	41	0	0	54	4714
2026-01-10 10:33:34.24	191.63	25.84	-42.0	-43.8	18.4	0.00e+00	0	41	0	0	54	4758
2026-01-10 10:33:35.24	191.75	25.99	-42.1	-43.9	18.3	0.00e+00	0	41	0	0	54	4802
2026-01-10 10:33:36.25	191.88	26.15	-42.1	-43.9	18.3	0.00e+00	0	41	0	0	54	4802
2026-01-10 10:33:37.25	192.01	26.30	-42.1	-44.0	18.2	0.00e+00	0	41	0	0	54	4839
2026-01-10 10:33:38.25	192.14	26.45	-42.3	-44.2	18.0	0.00e+00	0	41	0	0	55	4691
2026-01-10 10:33:39.26	192.27	26.61	-42.2	-44.2	18.0	0.00e+00	0	41	0	0	55	4656
2026-01-10 10:33:40.26	192.40	26.76	-42.2	-44.1	18.1	0.00e+00	0	41	0	0	55	4638
2026-01-10 10:33:41.26	192.53	26.92	-42.4	-44.3	17.9	0.00e+00	0	41	0	0	55	4714
2026-01-10 10:33:42.27	192.66	27.08	-42.4	-44.3	17.9	0.00e+00	0	41	0	0	55	4754
2026-01-10 10:33:43.27	192.80	27.23	-42.6	-44.5	17.7	0.00e+00	0	41	0	0	55	4832
2026-01-10 10:33:44.28	192.94	27.39	-42.6	-44.6	17.6	0.00e+00	0	41	0	0	55	4877
2026-01-10 10:33:45.28	193.07	27.55	-42.9	-44.8	17.5	0.00e+00	0	41	0	0	56	4744
2026-01-10 10:33:46.28	193.21	27.71	-42.9	-44.9	17.5	0.00e+00	0	41	0	0	56	4761
2026-01-10 10:33:47.28	193.35	27.87	-42.9	-44.9	17.5	0.00e+00	0	41	0	0	56	4771
2026-01-10 10:33:48.29	193.49	28.03	-42.9	-44.9	17.5	0.00e+00	0	41	0	0	56	4765
2026-01-10 10:33:49.29	193.64	28.19	-43.0	-45.0	17.4	0.00e+00	0	41	0	0	56	4837
2026-01-10 10:33:50.29	193.78	28.35	-43.1	-45.1	17.4	0.00e+00	0	41	0	0	56	4879
2026-01-10 10:33:51.30	193.93	28.52	-43.1	-45.1	17.3	0.00e+00	0	41	0	0	56	4915
2026-01-10 10:33:52.30	194.07	28.68	-43.1	-45.1	17.3	0.00e+00	0	41	0	0	56	4919
2026-01-10 10:33:53.30	194.22	28.85	-43.2	-45.3	17.2	0.00e+00	0	41	0	0	57	4709
2026-01-10 10:33:54.31	194.37	29.01	-43.1	-45.1	17.3	0.00e+00	0	41	0	0	57	4639
2026-01-10 10:33:55.31	194.52	29.18	-43.2	-45.2	17.2	0.00e+00	0	41	0	0	57	4661
2026-01-10 10:33:56.31	194.68	29.35	-43.0	-44.9	17.4	0.00e+00	0	41	0	0	57	4533
2026-01-10 10:33:57.32	194.83	29.52	-42.8	-44.8	17.5	0.00e+00	0	41	0	0	57	4473
2026-01-10 10:33:58.32	194.99	29.68	-42.9	-44.9	17.5	0.00e+00	0	41	0	0	57	4507
2026-01-10 10:33:59.32	195.15	29.85	-42.8	-44.8	17.6	0.00e+00	0	41	0	0	57	4465
2026-01-10 10:34:00.33	195.31	30.02	-42.8	-44.7	17.6	0.00e+00	0	41	0	0	57	4430
2026-01-10 10:34:01.33	195.47	30.20	-42.8	-44.7	17.6	0.00e+00	0	41	0	0	57	4441
2026-01-10 10:34:02.33	195.63	30.37	-42.8	-44.8	17.6	0.00e+00	0	41	0	0	57	4449
2026-01-10 10:34:03.34	195.80	30.54	-42.7	-44.7	17.7	0.00e+00	0	41	0	0	57	4424
2026-01-10 10:34:04.34	195.96	30.71	-42.7	-44.6	17.7	0.00e+00	0	41	0	0	57	4376
2026-01-10 10:34:05.35	196.13	30.89	-42.6	-44.6	17.8	0.00e+00	0	41	0	0	57	4360
2026-01-10 10:34:06.35	196.30	31.06	-42.5	-44.5	17.9	0.00e+00	0	41	0	0	57	4317
2026-01-10 10:34:07.35	196.47	31.24	-42.5	-44.4	17.9	0.00e+00	0	41	0	0	57	4287
2026-01-10 10:34:08.36	196.65	31.42	-42.5	-44.4	18.0	0.00e+00	0	41	0	0	56	4517
2026-01-10 10:34:09.36	196.82	31.59	-42.5	-44.4	17.9	0.00e+00	0	41	0	0	56	4544
2026-01-10 10:34:10.37	197.00	31.77	-42.5	-44.4	18.0	0.00e+00	0	41	0	0	56	4511
2026-01-10 10:34:11.37	197.18	31.95	-42.5	-44.5	17.9	0.00e+00	0	41	0	0	56	4552
2026-01-10 10:34:12.37	197.36	32.13	-42.5	-44.4	18.0	0.00e+00	0	41	0	0	56	4536
2026-01-10 10:34:13.37	197.54	32.31	-42.6	-44.6	17.8	0.00e+00	0	41	0	0	56	4618
2026-01-10 10:34:14.38	197.73	32.49	-42.6	-44.6	17.9	0.00e+00	0	41	0	0	56	4601
2026-01-10 10:34:15.38	197.92	32.67	-42.6	-44.5	18.0	0.00e+00	0	41	0	0	56	4563
2026-01-10 10:34:16.38	198.10	32.86	-42.5	-44.4	18.0	0.00e+00	0	41	0	0	56	4541
2026-01-10 10:34:17.39	198.30	33.04	-42.6	-44.5	17.9	0.00e+00	0	41	0	0	56	4579
2026-01-10 10:34:18.39	198.49	33.22	-42.6	-44.5	17.9	0.00e+00	0	41	0	0	56	4579
2026-01-10 10:34:19.39	198.69	33.41	-42.8	-44.8	17.7	0.00e+00	0	41	0	0	56	4724
2026-01-10 10:34:20.39	198.88	33.59	-43.0	-45.0	17.5	0.00e+00	0	41	0	0	56	4832
2026-01-10 10:34:21.40	199.08	33.78	-43.1	-45.1	17.4	0.00e+00	0	41	0	0	56	4915
2026-01-10 10:34:22.40	199.29	33.97	-43.2	-45.3	17.2	0.00e+00	0	41	0	0	57	4720
2026-01-10 10:34:23.41	199.49	34.16	-43.5	-45.5	17.0	0.00e+00	0	41	0	0	57	4867
2026-01-10 10:34:24.41	199.70	34.35	-43.7	-45.8	16.7	0.00e+00	0	41	0	0	58	4749
2026-01-10 10:34:25.41	199.91	34.54	-43.9	-46.0	16.5	0.00e+00	0	41	0	0	58	4844
2026-01-10 10:34:26.42	200.12	34.73	-44.1	-46.3	16.3	0.00e+00	0	41	0	0	58	4994
2026-01-10 10:34:27.42	200.33	34.92	-44.2	-46.4	16.1	0.00e+00	0	41	0	0	59	4801
2026-01-10 10:34:28.42	200.55	35.11	-44.4	-46.8	15.8	0.00e+00	0	41	0	0	59	4994
2026-01-10 10:34:29.42	200.77	35.30	-44.4	-46.7	15.8	0.00e+00	0	41	0	0	59	4965
2026-01-10 10:34:30.43	200.99	35.50	-44.3	-46.6	16.0	0.00e+00	0	41	0	0	59	4907
2026-01-10 10:34:31.43	201.22	35.69	-44.3	-46.6	16.0	0.00e+00	0	41	0	0	59	4880
2026-01-10 10:34:32.43	201.44	35.88	-44.3	-46.5	16.1	0.00e+00	0	41	0	0	59	4854
2026-01-10 10:34:33.44	201.67	36.08	-44.1	-46.4	16.2	0.00e+00	0	41	0	0	59	4761
2026-01-10 10:34:34.44	201.90	36.28	-44.1	-46.4	16.2	0.00e+00	0	41	0	0	59	4772
2026-01-10 10:34:35.45	202.14	36.47	-44.1	-46.3	16.3	0.00e+00	0	41	0	0	59	4726
2026-01-10 10:34:36.45	202.38	36.67	-44.2	-46.5	16.1	0.00e+00	0	41	0	0	59	4822
2026-01-10 10:34:37.45	202.62	36.87	-44.3	-46.6	16.0	0.00e+00	0	41	0	0	59	4913
2026-01-10 10:34:38.45	202.86	37.07	-44.3	-46.5	16.1	0.00e+00	0	41	0	0	59	4857
2026-01-10 10:34:39.46	203.11	37.27	-44.3	-46.5	16.1	0.00e+00	0	41	0	0	59	4850
2026-01-10 10:34:40.46	203.36	37.47	-44.2	-46.4	16.2	0.00e+00	0	41	0	0	59	4811
2026-01-10 10:34:41.47	203.61	37.67	-44.1	-46.2	16.4	0.00e+00	0	41	0	0	59	4690
2026-01-10 10:34:42.47	203.87	37.87	-44.1	-46.3	16.3	0.00e+00	0	41	0	0	59	4727
2026-01-10 10:34:43.47	204.13	38.07	-44.1	-46.3	16.3	0.00e+00	0	41	0	0	59	4723
2026-01-10 10:34:44.48	204.39	38.27	-44.0	-46.2	16.3	0.00e+00	0	41	0	0	59	4689
2026-01-10 10:34:45.48	204.65	38.47	-44.3	-46.5	16.0	0.00e+00	0	41	0	0	59	4847
2026-01-10 10:34:46.48	204.92	38.68	-44.6	-46.9	15.5	0.00e+00	0	41	0	0	59	5091
2026-01-10 10:34:47.49	205.20	38.88	-44.6	-47.0	15.4	0.00e+00	0	41	0	0	59	5118
2026-01-10 10:34:48.49	205.47	39.09	-44.7	-47.2	15.4	0.00e+00	0	41	0	0	60	4931
2026-01-10 10:34:49.49	205.75	39.29	-44.6	-47.0	15.5	0.00e+00	0	41	0	0	60	4828
2026-01-10 10:34:50.49	206.03	39.49	-44.6	-47.0	15.6	0.00e+00	0	41	0	0	60	4825
2026-01-10 10:34:51.50	206.32	39.70	-44.7	-47.1	15.5	0.00e+00	0	41	0	0	60	4898
2026-01-10 10:34:52.50	206.60	39.91	-44.8	-47.3	15.4	0.00e+00	0	41	0	0	60	4984
2026-01-10 10:34:53.50	206.90	40.11	-44.9	-47.3	15.3	0.00e+00	0	41	0	0	60	5020
2026-01-10 10:34:54.50	207.19	40.32	-44.9	-47.4	15.3	0.00e+00	0	41	0	0	60	5052
2026-01-10 10:34:55.50	207.49	40.53	-44.6	-47.0	15.6	0.00e+00	0	41	0	0	60	4837
2026-01-10 10:34:56.51	207.80	40.74	-44.5	-46.8	15.8	0.00e+00	0	41	0	0	60	4728
2026-01-10 10:34:57.51	208.10	40.94	-44.5	-46.8	15.8	0.00e+00	0	41	0	0	60	4718
2026-01-10 10:34:58.51	208.42	41.15	-44.4	-46.7	15.9	0.00e+00	0	41	0	0	60	4688
2026-01-10 10:34:59.52	208.73	41.36	-44.4	-46.8	15.9	0.00e+00	0	41	0	0	60	4707
2026-01-10 10:35:00.52	209.05	41.57	-44.6	-47.0	15.7	0.00e+00	0	41	0	0	60	4826
2026-01-10 10:35:01.52	209.38	41.78	-44.6	-46.9	15.8	0.00e+00	0	41	0	0	60	4766
2026-01-10 10:35:02.52	209.70	41.98	-44.5	-46.7	15.9	0.00e+00	0	41	0	0	60	4695
2026-01-10 10:35:03.53	210.04	42.19	-44.4	-46.8	15.8	0.00e+00	0	41	0	0	60	4730
2026-01-10 10:35:04.53	210.37	42.40	-44.6	-47.0	15.6	0.00e+00	0	41	0	0	60	4858
2026-01-10 10:35:05.53	210.71	42.61	-44.5	-46.9	15.8	0.00e+00	0	41	0	0	60	4800
2026-01-10 10:35:06.54	211.06	42.82	-44.6	-47.0	15.6	0.00e+00	0	41	0	0	60	4860
2026-01-10 10:35:07.54	211.41	43.03	-44.8	-47.3	15.4	0.00e+00	0	41	0	0	60	5008
2026-01-10 10:35:08.54	211.76	43.24	-45.0	-47.5	15.1	0.00e+00	0	41	0	0	60	5141
2026-01-10 10:35:09.55	212.12	43.45	-45.3	-47.9	14.8	0.00e+00	0	41	0	0	61	5085
2026-01-10 10:35:10.55	212.49	43.66	-45.5	-48.1	14.6	7.00e-07	0	41	0	0	61	5218
2026-01-10 10:35:11.55	212.85	43.87	-45.4	-48.0	14.6	7.00e-07	0	41	0	0	61	5153
2026-01-10 10:35:12.56	213.23	44.08	-45.2	-47.8	14.9	0.00e+00	0	41	0	0	61	4987
2026-01-10 10:35:13.56	213.61	44.29	-45.0	-47.5	15.1	0.00e+00	0	41	0	0	61	4868
2026-01-10 10:35:14.56	213.99	44.49	-45.0	-47.5	15.2	0.00e+00	0	41	0	0	61	4859
2026-01-10 10:35:15.57	214.38	44.70	-45.0	-47.5	15.2	7.00e-07	0	41	0	0	61	4832
2026-01-10 10:35:16.57	214.77	44.91	-45.0	-47.5	15.2	0.00e+00	0	41	0	0	61	4816
2026-01-10 10:35:17.58	215.17	45.12	-44.9	-47.4	15.3	0.00e+00	0	41	0	0	61	4766
2026-01-10 10:35:18.58	215.57	45.33	-44.6	-47.0	15.6	0.00e+00	0	41	0	0	61	4586
2026-01-10 10:35:19.58	215.98	45.53	-44.4	-46.7	16.0	0.00e+00	0	41	0	0	60	4691
2026-01-10 10:35:20.59	216.40	45.74	-44.3	-46.5	16.1	0.00e+00	0	41	0	0	60	4575
2026-01-10 10:35:21.59	216.81	45.94	-44.3	-46.5	16.1	0.00e+00	0	41	0	0	60	4596
2026-01-10 10:35:22.59	217.24	46.15	-44.2	-46.4	16.2	0.00e+00	0	41	0	0	60	4541
2026-01-10 10:35:23.60	217.67	46.35	-44.2	-46.4	16.3	0.00e+00	0	41	0	0	60	4519
2026-01-10 10:35:24.60	218.10	46.56	-44.4	-46.6	16.1	0.00e+00	0	41	0	0	60	4641
2026-01-10 10:35:25.60	218.54	46.76	-44.4	-46.6	16.1	0.00e+00	0	41	0	0	60	4632
2026-01-10 10:35:26.61	218.99	46.96	-44.6	-46.9	15.9	0.00e+00	0	41	0	0	60	4773
2026-01-10 10:35:27.61	219.44	47.16	-44.6	-47.0	15.7	0.00e+00	0	41	0	0	60	4835
2026-01-10 10:35:28.61	219.90	47.36	-44.6	-46.9	15.6	0.00e+00	0	41	0	0	60	4811
2026-01-10 10:35:29.62	220.37	47.56	-44.6	-46.9	15.6	0.00e+00	0	41	0	0	60	4786
2026-01-10 10:35:30.62	220.84	47.76	-44.7	-47.0	15.6	0.00e+00	0	41	0	0	60	4864
2026-01-10 10:35:31.62	221.31	47.95	-44.6	-47.0	15.6	0.00e+00	0	41	0	0	60	4841
2026-01-10 10:35:32.63	221.80	48.15	-44.6	-47.0	15.6	0.00e+00	0	41	0	0	60	4836
2026-01-10 10:35:33.63	222.28	48.34	-44.8	-47.1	15.5	0.00e+00	0	41	0	0	60	4907
2026-01-10 10:35:34.64	222.78	48.54	-45.0	-47.4	15.3	0.00e+00	0	41	0	0	60	5055
2026-01-10 10:35:35.64	223.28	48.73	-44.9	-47.3	15.3	0.00e+00	0	41	0	0	60	5011
2026-01-10 10:35:36.65	223.79	48.92	-45.0	-47.4	15.1	0.00e+00	0	41	0	0	60	5092
2026-01-10 10:35:37.65	224.30	49.11	-44.7	-47.0	15.5	0.00e+00	0	41	0	0	60	4869
2026-01-10 10:35:38.65	224.82	49.29	-44.5	-46.8	15.7	0.00e+00	0	41	0	0	60	4748
2026-01-10 10:35:39.66	225.34	49.48	-44.5	-46.8	15.8	0.00e+00	0	41	0	0	60	4736
2026-01-10 10:35:40.66	225.87	49.66	-44.6	-47.0	15.7	0.00e+00	0	41	0	0	60	4825
2026-01-10 10:35:41.66	226.41	49.84	-44.5	-46.8	15.8	0.00e+00	0	41	0	0	60	4738
2026-01-10 10:35:42.67	226.96	50.02	-44.5	-46.9	15.8	0.00e+00	0	41	0	0	60	4799
2026-01-10 10:35:43.67	227.51	50.20	-44.5	-46.8	15.9	0.00e+00	0	41	0	0	60	4742
2026-01-10 10:35:44.67	228.06	50.37	-44.1	-46.3	16.3	0.00e+00	0	41	0	0	60	4480
2026-01-10 10:35:45.68	228.63	50.54	-44.0	-46.2	16.3	0.00e+00	0	41	0	0	59	4684
2026-01-10 10:35:46.68	229.19	50.71	-43.9	-46.0	16.5	0.00e+00	0	41	0	0	59	4561
2026-01-10 10:35:47.69	229.77	50.88	-43.7	-45.8	16.7	0.00e+00	0	41	0	0	59	4471
2026-01-10 10:35:48.69	230.35	51.05	-43.7	-45.8	16.8	0.00e+00	0	41	0	0	59	4474
2026-01-10 10:35:49.69	230.94	51.21	-43.6	-45.7	16.8	0.00e+00	0	41	0	0	59	4429
2026-01-10 10:35:50.70	231.54	51.37	-43.6	-45.6	16.9	0.00e+00	0	41	0	0	59	4388
2026-01-10 10:35:51.70	232.14	51.53	-43.4	-45.4	17.1	0.00e+00	0	41	0	0	58	4542
2026-01-10 10:35:52.70	232.74	51.69	-43.4	-45.4	17.2	0.00e+00	0	41	0	0	58	4515
2026-01-10 10:35:53.71	233.36	51.84	-43.3	-45.3	17.2	0.00e+00	0	41	0	0	58	4485
2026-01-10 10:35:54.71	233.98	51.99	-43.4	-45.5	17.2	0.00e+00	0	41	0	0	58	4555
2026-01-10 10:35:55.71	234.60	52.13	-43.5	-45.6	17.0	0.00e+00	0	41	0	0	58	4603
2026-01-10 10:35:56.72	235.24	52.28	-43.5	-45.6	17.0	0.00e+00	0	41	0	0	58	4609
2026-01-10 10:35:57.72	235.88	52.42	-43.4	-45.5	17.1	0.00e+00	0	41	0	0	58	4547
2026-01-10 10:35:58.72	236.52	52.55	-43.5	-45.6	17.0	0.00e+00	0	41	0	0	58	4623
2026-01-10 10:35:59.73	237.17	52.69	-43.4	-45.4	17.2	0.00e+00	0	41	0	0	58	4529
2026-01-10 10:36:00.73	237.83	52.82	-43.3	-45.4	17.2	0.00e+00	0	41	0	0	58	4527
2026-01-10 10:36:01.73	238.48	52.94	-43.5	-45.5	17.1	0.00e+00	0	41	0	0	58	4582
2026-01-10 10:36:02.74	239.16	53.07	-43.5	-45.5	17.0	0.00e+00	0	41	0	0	58	4581
2026-01-10 10:36:03.74	239.83	53.19	-43.6	-45.7	16.9	0.00e+00	0	41	0	0	58	4660
2026-01-10 10:36:04.74	240.50	53.30	-43.5	-45.6	17.0	0.00e+00	0	41	0	0	58	4614
2026-01-10 10:36:05.75	241.19	53.42	-43.2	-45.2	17.4	0.00e+00	0	42	0	0	58	4411
2026-01-10 10:36:06.75	241.88	53.52	-43.2	-45.2	17.3	0.00e+00	0	41	0	0	58	4396
2026-01-10 10:36:07.75	242.57	53.63	-43.5	-45.6	16.8	0.00e+00	0	41	0	0	58	4623
2026-01-10 10:36:08.76	243.27	53.73	-44.0	-46.2	16.1	0.00e+00	0	41	0	0	58	4978
2026-01-10 10:36:09.76	243.97	53.82	-44.0	-46.2	16.2	0.00e+00	0	42	0	0	58	4967
2026-01-10 10:36:10.76	244.68	53.92	-43.5	-45.6	16.9	0.00e+00	0	42	0	0	58	4638
2026-01-10 10:36:11.77	245.39	54.00	-43.5	-45.5	16.9	0.00e+00	0	42	0	0	58	4591
2026-01-10 10:36:12.77	246.11	54.09	-43.3	-45.4	16.9	0.00e+00	0	41	0	0	58	4503
2026-01-10 10:36:13.77	246.82	54.17	-43.7	-45.8	16.7	0.00e+00	0	42	0	0	58	4727
2026-01-10 10:36:14.78	247.55	54.24	-43.4	-45.5	17.1	0.00e+00	0	41	0	0	58	4553
2026-01-10 10:36:15.78	248.28	54.31	-43.4	-45.4	17.2	0.00e+00	0	41	0	0	58	4516
2026-01-10 10:36:16.79	249.01	54.38	-43.1	-45.1	17.4	0.00e+00	0	41	0	0	58	4369
2026-01-10 10:36:17.79	249.74	54.44	-43.4	-45.4	17.1	0.00e+00	0	41	0	0	58	4540
2026-01-10 10:36:18.80	250.49	54.50	-43.2	-45.2	17.3	0.00e+00	0	42	0	0	58	4423
2026-01-10 10:36:19.80	251.22	54.55	-43.1	-45.1	17.5	0.00e+00	0	41	0	0	58	4353
2026-01-10 10:36:20.80	251.96	54.59	-42.9	-44.8	17.7	0.00e+00	0	41	0	0	57	4492
2026-01-10 10:36:21.80	252.71	54.64	-43.0	-44.9	17.6	0.00e+00	0	41	0	0	57	4535
2026-01-10 10:36:22.81	253.46	54.68	-43.2	-45.3	17.3	0.00e+00	0	42	0	0	57	4708
2026-01-10 10:36:23.81	254.20	54.71	-43.2	-45.2	17.5	0.00e+00	0	41	0	0	57	4663
2026-01-10 10:36:24.81	254.95	54.74	-43.1	-45.1	17.5	0.00e+00	0	41	0	0	57	4634
2026-01-10 10:36:25.82	255.71	54.76	-43.1	-45.0	17.6	0.00e+00	0	41	0	0	57	4591
2026-01-10 10:36:26.82	256.46	54.78	-43.1	-45.2	17.3	0.00e+00	0	41	0	0	57	4655
2026-01-10 10:36:27.83	257.22	54.79	-43.2	-45.2	17.3	0.00e+00	0	41	0	0	57	4683
2026-01-10 10:36:28.83	257.97	54.80	-43.1	-45.1	17.5	0.00e+00	0	42	0	0	57	4612
2026-01-10 10:36:29.83	258.72	54.81	-42.9	-44.9	17.7	0.00e+00	0	41	0	0	57	4524
2026-01-10 10:36:30.84	259.48	54.81	-43.2	-45.2	17.3	0.00e+00	0	42	0	0	57	4687
2026-01-10 10:36:31.84	260.23	54.80	-43.5	-45.6	16.8	0.00e+00	0	41	0	0	57	4915
2026-01-10 10:36:32.84	260.98	54.79	-43.6	-45.7	16.8	0.00e+00	0	41	0	0	57	4936
2026-01-10 10:36:33.85	261.74	54.77	-43.4	-45.4	17.2	0.00e+00	0	41	0	0	57	4783
2026-01-10 10:36:34.85	262.49	54.75	-43.3	-45.3	17.2	0.00e+00	0	41	0	0	57	4721
2026-01-10 10:36:35.86	263.24	54.73	-43.4	-45.5	16.8	0.00e+00	0	41	0	0	57	4856
2026-01-10 10:36:36.86	263.99	54.70	-43.7	-45.9	16.6	0.00e+00	0	41	0	0	58	4791
2026-01-10 10:36:37.86	264.74	54.67	-43.7	-45.9	16.8	0.00e+00	0	42	0	0	58	4781
2026-01-10 10:36:38.87	265.49	54.63	-43.4	-45.4	17.2	0.00e+00	0	41	0	0	58	4541
2026-01-10 10:36:39.87	266.23	54.58	-43.0	-45.0	17.6	0.00e+00	0	41	0	0	58	4327
2026-01-10 10:36:40.87	266.97	54.53	-43.0	-45.0	17.5	0.00e+00	0	41	0	0	57	4552
2026-01-10 10:36:41.88	267.71	54.48	-43.0	-45.0	17.4	0.00e+00	0	41	0	0	57	4584
2026-01-10 10:36:42.88	268.44	54.42	-43.0	-44.9	17.5	0.00e+00	0	41	0	0	57	4523
2026-01-10 10:36:43.88	269.17	54.36	-43.1	-45.1	17.5	0.00e+00	0	41	0	0	57	4631
2026-01-10 10:36:44.89	269.91	54.29	-43.3	-45.3	17.2	0.00e+00	0	41	0	0	57	4738
2026-01-10 10:36:45.89	270.63	54.22	-43.3	-45.4	17.1	0.00e+00	0	42	0	0	57	4769
2026-01-10 10:36:46.89	271.35	54.15	-43.2	-45.3	17.3	0.00e+00	0	41	0	0	57	4706
2026-01-10 10:36:47.90	272.07	54.06	-42.9	-44.8	17.7	0.00e+00	0	42	0	0	57	4474
2026-01-10 10:36:48.90	272.79	53.98	-42.7	-44.6	17.9	0.00e+00	0	42	0	0	57	4343
2026-01-10 10:36:49.90	273.49	53.89	-42.8	-44.7	17.7	0.00e+00	0	42	0	0	57	4410
2026-01-10 10:36:50.91	274.20	53.80	-43.0	-45.0	17.4	0.00e+00	0	42	0	0	57	4557
2026-01-10 10:36:51.91	274.90	53.70	-43.1	-45.1	17.4	0.00e+00	0	41	0	0	57	4615
2026-01-10 10:36:52.91	275.59	53.60	-43.4	-45.5	17.2	0.00e+00	0	41	0	0	57	4825
2026-01-10 10:36:53.92	276.29	53.50	-43.5	-45.5	17.1	0.00e+00	0	41	0	0	57	4869
2026-01-10 10:36:54.92	276.97	53.39	-43.5	-45.6	17.0	0.00e+00	0	42	0	0	57	4913
2026-01-10 10:36:55.93	277.66	53.27	-43.4	-45.5	17.1	0.00e+00	0	41	0	0	57	4828
2026-01-10 10:36:56.93	278.33	53.16	-43.6	-45.7	16.9	0.00e+00	0	42	0	0	57	4930
2026-01-10 10:36:57.93	279.00	53.04	-43.6	-45.6	17.0	0.00e+00	0	41	0	0	57	4919
2026-01-10 10:36:58.94	279.67	52.91	-43.4	-45.4	17.2	0.00e+00	0	42	0	0	57	4780
2026-01-10 10:36:59.94	280.32	52.79	-43.4	-45.5	17.2	0.00e+00	0	41	0	0	57	4829
2026-01-10 10:37:00.94	280.98	52.65	-43.3	-45.4	17.3	0.00e+00	0	41	0	0	57	4784
2026-01-10 10:37:01.95	281.63	52.52	-43.4	-45.5	17.1	0.00e+00	0	41	0	0	57	4820
2026-01-10 10:37:02.95	282.27	52.38	-43.3	-45.3	17.1	0.00e+00	0	41	0	0	57	4754
2026-01-10 10:37:03.95	282.90	52.24	-43.4	-45.4	17.1	0.00e+00	0	41	0	0	57	4783
2026-01-10 10:37:04.96	283.53	52.10	-43.7	-45.7	16.8	0.00e+00	0	42	0	0	58	4702
2026-01-10 10:37:05.96	284.15	51.95	-43.9	-46.1	16.5	0.00e+00	0	42	0	0	58	4895
2026-01-10 10:37:06.97	284.77	51.80	-44.3	-46.6	16.0	0.00e+00	0	41	0	0	59	4878
2026-01-10 10:37:07.97	285.38	51.65	-44.6	-47.0	15.8	7.00e-07	0	42	0	0	59	5118
2026-01-10 10:37:08.97	285.99	51.49	-44.5	-46.8	15.9	0.00e+00	0	42	0	0	59	5020
2026-01-10 10:37:09.98	286.59	51.33	-44.7	-47.1	15.5	0.00e+00	0	42	0	0	60	4905
2026-01-10 10:37:10.98	287.18	51.17	-44.5	-46.8	15.9	0.00e+00	0	41	0	0	60	4737
2026-01-10 10:37:11.99	287.77	51.01	-44.1	-46.3	16.5	0.00e+00	0	42	0	0	60	4457
2026-01-10 10:37:12.99	288.34	50.85	-43.9	-46.1	16.6	0.00e+00	0	42	0	0	59	4614
2026-01-10 10:37:13.99	288.91	50.68	-43.9	-46.0	16.7	0.00e+00	0	42	0	0	59	4584
2026-01-10 10:37:15.00	289.49	50.51	-44.1	-46.2	16.5	0.00e+00	0	42	0	0	59	4701
2026-01-10 10:37:16.00	290.04	50.33	-44.2	-46.4	16.4	0.00e+00	0	41	0	0	59	4768
2026-01-10 10:37:17.00	290.60	50.16	-44.0	-46.2	16.5	0.00e+00	0	42	0	0	59	4692
2026-01-10 10:37:18.01	291.15	49.98	-43.8	-45.9	16.7	0.00e+00	0	42	0	0	59	4517
2026-01-10 10:37:19.01	291.69	49.80	-43.9	-46.1	16.6	0.00e+00	0	41	0	0	59	4624
2026-01-10 10:37:20.02	292.22	49.62	-43.9	-46.0	16.7	0.00e+00	0	42	0	0	59	4589
2026-01-10 10:37:21.02	292.75	49.44	-43.9	-46.1	16.6	0.00e+00	0	41	0	0	59	4608
2026-01-10 10:37:22.02	293.27	49.26	-44.2	-46.3	16.4	0.00e+00	0	42	0	0	59	4755
2026-01-10 10:37:23.02	293.78	49.07	-44.4	-46.6	16.1	0.00e+00	0	41	0	0	59	4906
2026-01-10 10:37:24.03	294.30	48.88	-44.7	-47.1	15.7	0.00e+00	0	42	0	0	59	5166
2026-01-10 10:37:25.03	294.80	48.69	-44.4	-46.7	16.0	0.00e+00	0	41	0	0	59	4969
2026-01-10 10:37:26.03	295.29	48.50	-44.5	-46.8	15.8	0.00e+00	0	42	0	0	59	5029
2026-01-10 10:37:27.04	295.79	48.31	-44.7	-47.0	15.7	0.00e+00	0	42	0	0	60	4836
2026-01-10 10:37:28.04	296.27	48.12	-44.7	-47.0	15.8	0.00e+00	0	42	0	0	60	4817
2026-01-10 10:37:29.04	296.75	47.92	-44.5	-46.8	16.0	0.00e+00	0	42	0	0	60	4719
2026-01-10 10:37:30.05	297.23	47.73	-44.4	-46.7	16.0	0.00e+00	0	42	0	0	60	4694
2026-01-10 10:37:31.05	297.69	47.53	-44.5	-46.8	15.9	0.00e+00	0	42	0	0	60	4751
2026-01-10 10:37:32.06	298.16	47.33	-44.7	-47.2	15.6	0.00e+00	0	42	0	0	60	4931
2026-01-10 10:37:33.06	298.61	47.13	-45.0	-47.5	15.3	0.00e+00	0	42	0	0	60	5147
2026-01-10 10:37:34.07	299.06	46.93	-44.7	-47.1	15.7	0.00e+00	0	42	0	0	60	4913
2026-01-10 10:37:35.07	299.51	46.73	-44.6	-46.9	15.9	0.00e+00	0	42	0	0	60	4791
2026-01-10 10:37:36.07	299.94	46.53	-44.3	-46.6	16.2	0.00e+00	0	42	0	0	60	4613
2026-01-10 10:37:37.08	300.38	46.32	-44.3	-46.6	16.2	0.00e+00	0	42	0	0	60	4620
2026-01-10 10:37:38.08	300.81	46.12	-44.3	-46.6	16.2	0.00e+00	0	42	0	0	60	4613
2026-01-10 10:37:39.09	301.23	45.92	-44.4	-46.7	16.2	0.00e+00	0	42	0	0	60	4659
2026-01-10 10:37:40.09	301.65	45.71	-44.4	-46.8	16.0	0.00e+00	0	42	0	0	60	4720
2026-01-10 10:37:41.09	302.06	45.51	-44.5	-46.9	16.0	0.00e+00	0	42	0	0	60	4771
2026-01-10 10:37:42.09	302.46	45.30	-44.7	-47.1	15.7	0.00e+00	0	41	0	0	60	4910
2026-01-10 10:37:43.10	302.87	45.10	-44.7	-47.1	15.7	0.00e+00	0	41	0	0	60	4906
2026-01-10 10:37:44.10	303.26	44.89	-44.6	-46.9	15.9	0.00e+00	0	41	0	0	60	4786
2026-01-10 10:37:45.11	303.65	44.68	-44.8	-47.2	15.6	0.00e+00	0	42	0	0	60	4933
2026-01-10 10:37:46.11	304.04	44.48	-45.2	-47.7	15.1	7.00e-07	0	42	0	0	61	4965
2026-01-10 10:37:47.12	304.42	44.27	-45.4	-48.0	14.8	0.00e+00	0	42	0	0	61	5124
2026-01-10 10:37:48.12	304.80	44.06	-45.4	-48.0	14.7	0.00e+00	0	42	0	0	61	5156
2026-01-10 10:37:49.12	305.16	43.85	-45.5	-48.2	14.6	7.00e-07	0	42	0	0	61	5230
2026-01-10 10:37:50.13	305.53	43.64	-45.3	-47.8	15.0	0.00e+00	0	41	0	0	61	5038
2026-01-10 10:37:51.13	305.89	43.44	-44.9	-47.3	15.5	0.00e+00	0	42	0	0	61	4729
2026-01-10 10:37:52.14	306.25	43.23	-44.7	-47.1	15.7	0.00e+00	0	42	0	0	61	4628
2026-01-10 10:37:53.14	306.60	43.02	-44.6	-47.0	15.8	0.00e+00	0	41	0	0	61	4582
2026-01-10 10:37:54.14	306.95	42.81	-44.7	-47.1	15.6	0.00e+00	0	42	0	0	61	4628
2026-01-10 10:37:55.14	307.29	42.60	-44.6	-47.0	15.7	0.00e+00	0	41	0	0	61	4563
2026-01-10 10:37:56.15	307.64	42.39	-45.0	-47.5	15.3	0.00e+00	0	42	0	0	61	4826
2026-01-10 10:37:57.15	307.97	42.19	-45.0	-47.5	15.3	0.00e+00	0	42	0	0	61	4824
2026-01-10 10:37:58.15	308.30	41.98	-44.8	-47.3	15.5	0.00e+00	0	42	0	0	61	4724
2026-01-10 10:37:59.16	308.63	41.77	-44.8	-47.2	15.5	0.00e+00	0	42	0	0	61	4683
2026-01-10 10:38:00.16	308.95	41.56	-44.7	-47.0	15.7	0.00e+00	0	42	0	0	61	4598
2026-01-10 10:38:01.16	309.27	41.36	-44.5	-46.8	15.8	0.00e+00	0	42	0	0	61	4479
2026-01-10 10:38:02.17	309.58	41.15	-44.7	-47.1	15.6	0.00e+00	0	42	0	0	61	4616
2026-01-10 10:38:03.17	309.89	40.94	-45.0	-47.5	15.3	0.00e+00	0	41	0	0	61	4845
2026-01-10 10:38:04.18	310.20	40.73	-45.1	-47.6	15.1	0.00e+00	0	42	0	0	61	4926
2026-01-10 10:38:05.18	310.50	40.53	-45.2	-47.7	15.1	0.00e+00	0	41	0	0	61	4977
2026-01-10 10:38:06.18	310.80	40.32	-45.2	-47.8	15.0	0.00e+00	0	42	0	0	61	4993
2026-01-10 10:38:07.18	311.09	40.12	-45.2	-47.7	15.1	0.00e+00	0	42	0	0	61	4954
2026-01-10 10:38:08.18	311.38	39.91	-45.3	-47.8	15.0	0.00e+00	0	42	0	0	61	5012
2026-01-10 10:38:09.19	311.67	39.71	-45.2	-47.8	15.0	0.00e+00	0	42	0	0	61	4984
2026-01-10 10:38:10.19	311.96	39.50	-44.8	-47.2	15.6	0.00e+00	0	42	0	0	61	4678
2026-01-10 10:38:11.20	312.24	39.30	-44.6	-47.0	15.8	0.00e+00	0	41	0	0	61	4572
2026-01-10 10:38:12.20	312.51	39.09	-44.5	-46.9	15.9	0.00e+00	0	41	0	0	61	4509
2026-01-10 10:38:13.21	312.79	38.89	-44.5	-46.8	16.0	0.00e+00	0	41	0	0	60	4726
2026-01-10 10:38:14.21	313.06	38.69	-44.1	-46.3	16.5	0.00e+00	0	41	0	0	60	4493
2026-01-10 10:38:15.21	313.33	38.49	-43.9	-46.1	16.7	0.00e+00	0	41	0	0	59	4606
2026-01-10 10:38:16.22	313.59	38.28	-44.0	-46.1	16.6	0.00e+00	0	42	0	0	59	4622
2026-01-10 10:38:17.22	313.85	38.08	-44.0	-46.1	16.6	0.00e+00	0	42	0	0	59	4617
2026-01-10 10:38:18.22	314.11	37.88	-44.2	-46.4	16.2	0.00e+00	0	42	0	0	59	4789
2026-01-10 10:38:19.22	314.36	37.68	-44.3	-46.5	16.1	0.00e+00	0	41	0	0	59	4867
2026-01-10 10:38:20.23	314.62	37.48	-44.6	-46.9	15.7	0.00e+00	0	41	0	0	59	5078
2026-01-10 10:38:21.23	314.86	37.29	-44.5	-46.8	16.0	0.00e+00	0	42	0	0	59	4989
2026-01-10 10:38:22.23	315.11	37.09	-44.3	-46.5	16.2	0.00e+00	0	42	0	0	59	4837
2026-01-10 10:38:23.24	315.35	36.89	-44.2	-46.4	16.4	0.00e+00	0	41	0	0	59	4766
2026-01-10 10:38:24.24	315.59	36.69	-44.0	-46.1	16.6	0.00e+00	0	42	0	0	59	4639
2026-01-10 10:38:25.24	315.83	36.50	-44.0	-46.1	16.6	0.00e+00	0	42	0	0	59	4647
2026-01-10 10:38:26.25	316.06	36.30	-43.9	-46.1	16.6	0.00e+00	0	42	0	0	59	4624
2026-01-10 10:38:27.25	316.29	36.11	-43.9	-46.1	16.5	0.00e+00	0	41	0	0	59	4638
2026-01-10 10:38:28.25	316.52	35.91	-43.9	-46.0	16.6	0.00e+00	0	42	0	0	59	4592
2026-01-10 10:38:29.25	316.75	35.72	-43.9	-46.1	16.5	0.00e+00	0	42	0	0	59	4608
2026-01-10 10:38:30.26	316.97	35.53	-43.9	-46.1	16.6	0.00e+00	0	42	0	0	59	4605
2026-01-10 10:38:31.26	317.19	35.34	-43.9	-46.0	16.6	0.00e+00	0	42	0	0	59	4592
2026-01-10 10:38:32.27	317.41	35.14	-43.6	-45.7	17.0	0.00e+00	0	42	0	0	59	4402
2026-01-10 10:38:33.27	317.63	34.95	-43.4	-45.5	17.2	0.00e+00	0	42	0	0	58	4556
2026-01-10 10:38:34.27	317.84	34.77	-43.3	-45.3	17.3	0.00e+00	0	42	0	0	58	4481
2026-01-10 10:38:35.28	318.05	34.57	-43.2	-45.3	17.4	0.00e+00	0	42	0	0	58	4451
2026-01-10 10:38:36.28	318.26	34.39	-43.3	-45.4	17.2	0.00e+00	0	42	0	0	58	4503
2026-01-10 10:38:37.29	318.47	34.20	-43.6	-45.7	16.9	0.00e+00	0	42	0	0	58	4669
2026-01-10 10:38:38.29	318.67	34.01	-43.8	-46.0	16.7	0.00e+00	0	42	0	0	58	4843
2026-01-10 10:38:39.29	318.87	33.83	-43.8	-46.0	16.7	0.00e+00	0	42	0	0	58	4837
2026-01-10 10:38:40.30	319.07	33.64	-43.8	-46.0	16.7	0.00e+00	0	42	0	0	58	4826
2026-01-10 10:38:41.30	319.27	33.46	-43.7	-45.8	16.9	0.00e+00	0	42	0	0	58	4745
2026-01-10 10:38:42.30	319.46	33.27	-43.3	-45.4	17.3	0.00e+00	0	42	0	0	58	4533
2026-01-10 10:38:43.31	319.66	33.09	-43.1	-45.2	17.5	0.00e+00	0	42	0	0	58	4401
2026-01-10 10:38:44.31	319.85	32.91	-43.3	-45.4	17.2	0.00e+00	0	42	0	0	58	4526
2026-01-10 10:38:45.31	320.04	32.73	-43.2	-45.3	17.3	0.00e+00	0	41	0	0	58	4491
2026-01-10 10:38:46.32	320.22	32.54	-43.1	-45.2	17.4	0.00e+00	0	42	0	0	58	4426
2026-01-10 10:38:47.32	320.41	32.36	-42.9	-44.9	17.6	0.00e+00	0	42	0	0	57	4536
2026-01-10 10:38:48.32	320.59	32.19	-42.8	-44.8	17.7	0.00e+00	0	42	0	0	57	4475
2026-01-10 10:38:49.33	320.77	32.01	-42.8	-44.8	17.8	0.00e+00	0	42	0	0	57	4485
2026-01-10 10:38:50.33	320.95	31.83	-42.8	-44.8	17.8	0.00e+00	0	42	0	0	57	4465
2026-01-10 10:38:51.33	321.13	31.65	-42.8	-44.8	17.8	0.00e+00	0	42	0	0	57	4473
2026-01-10 10:38:52.34	321.30	31.48	-42.7	-44.6	18.0	0.00e+00	0	42	0	0	57	4375
2026-01-10 10:38:53.34	321.47	31.30	-42.4	-44.3	18.2	0.00e+00	0	42	0	0	56	4479
2026-01-10 10:38:54.34	321.65	31.13	-42.5	-44.4	18.2	0.00e+00	0	42	0	0	56	4503
2026-01-10 10:38:55.34	321.81	30.95	-42.4	-44.3	18.2	0.00e+00	0	42	0	0	56	4486
2026-01-10 10:38:56.35	321.98	30.78	-42.4	-44.4	18.2	0.00e+00	0	41	0	0	56	4502
2026-01-10 10:38:57.35	322.15	30.61	-42.6	-44.6	18.0	0.00e+00	0	42	0	0	56	4611
2026-01-10 10:38:58.35	322.31	30.44	-42.7	-44.7	17.8	0.00e+00	0	42	0	0	56	4678
2026-01-10 10:38:59.35	322.47	30.27	-42.9	-44.9	17.6	0.00e+00	0	42	0	0	56	4779
2026-01-10 10:39:00.35	322.64	30.10	-42.8	-44.8	17.7	0.00e+00	0	42	0	0	56	4735
2026-01-10 10:39:01.35	322.79	29.93	-42.8	-44.9	17.6	0.00e+00	0	42	0	0	56	4777
2026-01-10 10:39:02.35	322.95	29.76	-43.0	-45.0	17.5	0.00e+00	0	42	0	0	56	4848
2026-01-10 10:39:03.36	323.11	29.59	-42.8	-44.9	17.6	0.00e+00	0	42	0	0	56	4772
2026-01-10 10:39:04.37	323.26	29.42	-42.8	-44.8	17.7	0.00e+00	0	42	0	0	56	4723
2026-01-10 10:39:05.36	323.42	29.26	-42.8	-44.8	17.8	0.00e+00	0	42	0	0	56	4732
2026-01-10 10:39:06.37	323.57	29.09	-42.7	-44.7	17.8	0.00e+00	0	42	0	0	56	4675
2026-01-10 10:39:07.36	323.72	28.93	-42.5	-44.5	18.1	0.00e+00	0	42	0	0	56	4552
2026-01-10 10:39:08.36	323.86	28.77	-42.4	-44.3	18.2	0.00e+00	0	42	0	0	56	4457
2026-01-10 10:39:09.37	324.01	28.60	-42.4	-44.3	18.2	0.00e+00	0	42	0	0	56	4469
2026-01-10 10:39:10.37	324.16	28.44	-42.5	-44.4	18.1	0.00e+00	0	42	0	0	56	4524
2026-01-10 10:39:11.38	324.30	28.28	-42.5	-44.5	18.0	0.00e+00	0	42	0	0	56	4574
2026-01-10 10:39:12.38	324.44	28.12	-42.6	-44.6	17.9	0.00e+00	0	42	0	0	56	4626
2026-01-10 10:39:13.39	324.59	27.96	-42.5	-44.5	18.0	0.00e+00	0	42	0	0	56	4582
2026-01-10 10:39:14.39	324.73	27.80	-42.5	-44.5	18.0	0.00e+00	0	42	0	0	56	4588
2026-01-10 10:39:15.39	324.86	27.64	-42.5	-44.5	18.1	0.00e+00	0	42	0	0	56	4557
2026-01-10 10:39:16.39	325.00	27.48	-42.4	-44.4	18.1	0.00e+00	0	42	0	0	56	4502
2026-01-10 10:39:17.40	325.14	27.33	-42.5	-44.4	18.1	0.00e+00	0	42	0	0	56	4542
2026-01-10 10:39:18.40	325.27	27.17	-42.4	-44.4	18.1	0.00e+00	0	42	0	0	56	4501
2026-01-10 10:39:19.41	325.41	27.01	-42.5	-44.5	18.0	0.00e+00	0	42	0	0	56	4552
2026-01-10 10:39:20.41	325.54	26.86	-42.6	-44.5	18.0	0.00e+00	0	42	0	0	56	4592
2026-01-10 10:39:21.41	325.67	26.71	-42.7	-44.7	17.8	0.00e+00	0	42	0	0	56	4658
2026-01-10 10:39:22.42	325.80	26.55	-42.5	-44.4	18.0	0.00e+00	0	42	0	0	56	4536
2026-01-10 10:39:23.42	325.93	26.40	-42.5	-44.4	18.0	0.00e+00	0	42	0	0	56	4543
2026-01-10 10:39:24.42	326.06	26.25	-42.6	-44.5	17.9	0.00e+00	0	42	0	0	56	4582
2026-01-10 10:39:25.43	326.18	26.10	-42.6	-44.5	18.0	0.00e+00	0	42	0	0	56	4580
2026-01-10 10:39:26.43	326.31	25.95	-42.5	-44.5	18.0	0.00e+00	0	42	0	0	56	4551
2026-01-10 10:39:27.43	326.43	25.80	-42.6	-44.5	18.0	0.00e+00	0	42	0	0	56	4576
2026-01-10 10:39:28.44	326.56	25.65	-42.5	-44.5	18.0	0.00e+00	0	42	0	0	56	4567
2026-01-10 10:39:29.44	326.68	25.50	-42.4	-44.3	18.1	0.00e+00	0	42	0	0	56	4474
2026-01-10 10:39:30.45	326.80	25.35	-42.3	-44.2	18.2	0.00e+00	0	42	0	0	56	4436
2026-01-10 10:39:31.45	326.92	25.20	-42.3	-44.2	18.2	0.00e+00	0	42	0	0	56	4434
2026-01-10 10:39:32.45	327.04	25.06	-42.3	-44.2	18.3	0.00e+00	0	42	0	0	56	4410
2026-01-10 10:39:33.46	327.15	24.91	-42.3	-44.3	18.2	0.00e+00	0	42	0	0	56	4459
2026-01-10 10:39:34.46	327.27	24.77	-42.4	-44.4	18.1	0.00e+00	0	42	0	0	56	4500
2026-01-10 10:39:35.46	327.38	24.62	-42.3	-44.3	18.1	0.00e+00	0	42	0	0	56	4475
2026-01-10 10:39:36.46	327.50	24.48	-42.3	-44.4	18.0	0.00e+00	0	42	0	0	56	4499
2026-01-10 10:39:37.47	327.61	24.34	-42.2	-44.3	18.1	0.00e+00	0	42	0	0	56	4466
2026-01-10 10:39:38.47	327.72	24.19	-42.2	-44.3	18.1	0.00e+00	0	42	0	0	56	4468
2026-01-10 10:39:39.47	327.84	24.05	-42.3	-44.4	18.0	0.00e+00	0	42	0	0	56	4508
2026-01-10 10:39:40.48	327.95	23.91	-42.2	-44.3	18.1	0.00e+00	0	42	0	0	56	4450
2026-01-10 10:39:41.48	328.06	23.77	-42.2	-44.2	18.1	0.00e+00	0	42	0	0	56	4436
2026-01-10 10:39:42.49	328.17	23.63	-42.3	-44.3	18.1	0.00e+00	0	42	0	0	56	4447
2026-01-10 10:39:43.49	328.27	23.49	-42.3	-44.2	18.2	0.00e+00	0	42	0	0	56	4433
2026-01-10 10:39:44.49	328.38	23.35	-42.3	-44.2	18.2	0.00e+00	0	42	0	0	56	4429
2026-01-10 10:39:45.50	328.49	23.22	-42.2	-44.2	18.2	0.00e+00	0	42	0	0	56	4404
2026-01-10 10:39:46.50	328.59	23.08	-42.3	-44.2	18.2	0.00e+00	0	42	0	0	56	4416
2026-01-10 10:39:47.50	328.69	22.94	-42.4	-44.3	18.1	0.00e+00	0	42	0	0	56	4465
2026-01-10 10:39:48.51	328.80	22.81	-42.2	-44.1	18.3	0.00e+00	0	42	0	0	56	4380
2026-01-10 10:39:49.51	328.90	22.67	-42.2	-44.2	18.2	0.00e+00	0	42	0	0	56	4393
2026-01-10 10:39:50.51	329.00	22.54	-42.3	-44.2	18.2	0.00e+00	0	42	0	0	56	4430
2026-01-10 10:39:51.52	329.10	22.40	-42.3	-44.2	18.2	0.00e+00	0	42	0	0	56	4393
2026-01-10 10:39:52.52	329.20	22.27	-42.3	-44.2	18.1	0.00e+00	0	42	0	0	56	4422
2026-01-10 10:39:53.53	329.30	22.14	-42.4	-44.3	18.1	0.00e+00	0	42	0	0	56	4448
2026-01-10 10:39:54.53	329.40	22.01	-42.3	-44.2	18.2	0.00e+00	0	42	0	0	56	4410
2026-01-10 10:39:55.54	329.50	21.87	-42.4	-44.3	18.1	0.00e+00	0	42	0	0	56	4485
2026-01-10 10:39:56.54	329.59	21.74	-42.4	-44.4	18.0	0.00e+00	0	42	0	0	56	4511
2026-01-10 10:39:57.54	329.69	21.61	-42.5	-44.4	18.0	0.00e+00	0	42	0	0	56	4543
2026-01-10 10:39:58.55	329.79	21.48	-42.6	-44.6	17.8	0.00e+00	0	42	0	0	56	4624
2026-01-10 10:39:59.55	329.88	21.35	-42.6	-44.6	17.8	0.00e+00	0	42	0	0	56	4632
2026-01-10 10:40:00.55	329.97	21.23	-42.6	-44.6	17.8	0.00e+00	0	42	0	0	56	4648
2026-01-10 10:40:01.55	330.07	21.10	-42.6	-44.6	17.8	0.00e+00	0	42	0	0	56	4644
2026-01-10 10:40:02.56	330.16	20.97	-42.6	-44.6	17.8	0.00e+00	0	42	0	0	56	4645
2026-01-10 10:40:03.56	330.25	20.84	-42.7	-44.7	17.7	0.00e+00	0	42	0	0	56	4691
2026-01-10 10:40:04.57	330.34	20.72	-42.7	-44.8	17.7	0.00e+00	0	42	0	0	56	4723
2026-01-10 10:40:05.57	330.43	20.59	-42.8	-44.8	17.6	0.00e+00	0	42	0	0	56	4757
2026-01-10 10:40:06.57	330.52	20.47	-42.8	-44.9	17.6	0.00e+00	0	42	0	0	56	4760
2026-01-10 10:40:07.58	330.61	20.34	-42.8	-44.8	17.6	0.00e+00	0	42	0	0	56	4744
2026-01-10 10:40:08.58	330.70	20.22	-42.9	-44.9	17.5	0.00e+00	0	42	0	0	56	4810
2026-01-10 10:40:09.58	330.78	20.10	-42.9	-44.9	17.5	0.00e+00	0	42	0	0	56	4806
2026-01-10 10:40:10.59	330.87	19.97	-42.8	-44.8	17.5	0.00e+00	0	42	0	0	56	4757
2026-01-10 10:40:11.59	330.96	19.85	-42.7	-44.7	17.7	0.00e+00	0	42	0	0	56	4658
2026-01-10 10:40:12.59	331.04	19.73	-42.8	-44.8	17.6	0.00e+00	0	42	0	0	56	4711
2026-01-10 10:40:13.60	331.13	19.61	-42.8	-44.9	17.5	0.00e+00	0	42	0	0	56	4761
2026-01-10 10:40:14.60	331.21	19.49	-42.6	-44.6	17.7	0.00e+00	0	42	0	0	56	4620
2026-01-10 10:40:15.60	331.29	19.37	-42.4	-44.4	17.9	0.00e+00	0	42	0	0	56	4526
2026-01-10 10:40:16.61	331.38	19.25	-42.4	-44.4	17.9	0.00e+00	0	42	0	0	56	4516
2026-01-10 10:40:17.61	331.46	19.13	-42.4	-44.3	17.9	0.00e+00	0	42	0	0	56	4487
2026-01-10 10:40:18.62	331.54	19.01	-42.3	-44.3	17.9	0.00e+00	0	42	0	0	56	4492
2026-01-10 10:40:19.62	331.62	18.89	-42.2	-44.2	18.0	0.00e+00	0	42	0	0	56	4436
2026-01-10 10:40:20.62	331.70	18.78	-42.3	-44.3	18.0	0.00e+00	0	42	0	0	56	4491
2026-01-10 10:40:21.63	331.78	18.66	-42.3	-44.4	17.9	0.00e+00	0	42	0	0	56	4520
2026-01-10 10:40:22.63	331.86	18.54	-42.4	-44.5	17.9	0.00e+00	0	42	0	0	56	4550
2026-01-10 10:40:23.64	331.94	18.42	-42.4	-44.6	17.8	0.00e+00	0	42	0	0	56	4605
2026-01-10 10:40:24.64	332.02	18.31	-42.3	-44.4	18.0	0.00e+00	0	42	0	0	56	4500
2026-01-10 10:40:25.64	332.10	18.19	-42.2	-44.3	18.1	0.00e+00	0	42	0	0	56	4443
2026-01-10 10:40:26.65	332.17	18.08	-42.3	-44.4	18.0	0.00e+00	0	42	0	0	56	4494
2026-01-10 10:40:27.65	332.25	17.97	-42.2	-44.2	18.1	0.00e+00	0	42	0	0	56	4432
2026-01-10 10:40:28.65	332.32	17.85	-42.2	-44.3	18.1	0.00e+00	0	42	0	0	56	4446
2026-01-10 10:40:29.66	332.40	17.74	-42.2	-44.2	18.2	0.00e+00	0	42	0	0	56	4427
2026-01-10 10:40:30.66	332.47	17.63	-42.3	-44.3	18.1	0.00e+00	0	42	0	0	56	4448
2026-01-10 10:40:31.66	332.55	17.52	-42.4	-44.4	18.0	0.00e+00	0	42	0	0	56	4494
2026-01-10 10:40:32.67	332.62	17.40	-42.4	-44.4	18.0	0.00e+00	0	42	0	0	56	4501
2026-01-10 10:40:33.67	332.70	17.29	-42.4	-44.3	18.1	0.00e+00	0	42	0	0	56	4467
2026-01-10 10:40:34.67	332.77	17.18	-42.4	-44.4	18.0	0.00e+00	0	42	0	0	56	4515
2026-01-10 10:40:35.67	332.84	17.07	-42.5	-44.5	17.9	0.00e+00	0	42	0	0	56	4569
2026-01-10 10:40:36.68	332.91	16.96	-42.5	-44.5	17.9	0.00e+00	0	42	0	0	56	4583
2026-01-10 10:40:37.68	332.98	16.85	-42.5	-44.5	17.9	0.00e+00	0	42	0	0	56	4574
2026-01-10 10:40:38.68	333.05	16.74	-42.5	-44.6	17.8	0.00e+00	0	42	0	0	56	4632
2026-01-10 10:40:39.69	333.13	16.63	-42.5	-44.6	17.8	0.00e+00	0	42	0	0	56	4632
2026-01-10 10:40:40.69	333.20	16.53	-42.6	-44.7	17.6	0.00e+00	0	42	0	0	56	4697
2026-01-10 10:40:41.70	333.27	16.42	-42.7	-44.8	17.5	0.00e+00	0	42	0	0	56	4757
2026-01-10 10:40:42.70	333.33	16.31	-42.7	-44.8	17.6	0.00e+00	0	42	0	0	56	4719
2026-01-10 10:40:43.70	333.40	16.21	-42.9	-44.9	17.4	0.00e+00	0	42	0	0	56	4813
2026-01-10 10:40:44.71	333.47	16.10	-42.9	-45.0	17.4	0.00e+00	0	42	0	0	56	4844
2026-01-10 10:40:45.71	333.54	15.99	-43.0	-45.1	17.3	0.00e+00	0	42	0	0	56	4880
2026-01-10 10:40:46.71	333.60	15.89	-43.1	-45.2	17.2	0.00e+00	0	42	0	0	56	4928
2026-01-10 10:40:47.72	333.67	15.78	-43.1	-45.2	17.2	0.00e+00	0	42	0	0	56	4965
2026-01-10 10:40:48.72	333.74	15.68	-43.2	-45.3	17.1	0.00e+00	0	42	0	0	57	4746
2026-01-10 10:40:49.73	333.80	15.57	-43.2	-45.3	17.0	0.00e+00	0	42	0	0	57	4755
2026-01-10 10:40:50.73	333.87	15.47	-43.2	-45.4	17.0	0.00e+00	0	42	0	0	57	4775
2026-01-10 10:40:51.73	333.93	15.37	-43.3	-45.5	16.9	0.00e+00	0	42	0	0	57	4852
2026-01-10 10:40:52.74	334.00	15.26	-43.2	-45.4	17.0	0.00e+00	0	42	0	0	57	4790
2026-01-10 10:40:53.74	334.06	15.16	-43.1	-45.4	17.0	0.00e+00	0	42	0	0	57	4773
2026-01-10 10:40:54.74	334.13	15.06	-43.2	-45.6	16.8	0.00e+00	0	42	0	0	57	4888
2026-01-10 10:40:55.74	334.19	14.96	-43.0	-45.4	17.0	0.00e+00	0	42	0	0	57	4782
2026-01-10 10:40:56.75	334.25	14.86	-43.1	-45.4	16.9	0.00e+00	0	42	0	0	57	4813
2026-01-10 10:40:57.75	334.32	14.76	-43.0	-45.4	17.0	0.00e+00	0	42	0	0	57	4783
2026-01-10 10:40:58.76	334.38	14.66	-43.1	-45.5	16.9	0.00e+00	0	42	0	0	57	4816
2026-01-10 10:40:59.76	334.44	14.56	-43.1	-45.5	16.9	0.00e+00	0	42	0	0	57	4825
2026-01-10 10:41:00.76	334.50	14.46	-43.1	-45.4	17.0	0.00e+00	0	42	0	0	57	4811
2026-01-10 10:41:01.77	334.56	14.36	-43.2	-45.4	17.0	0.00e+00	0	42	0	0	57	4799
2026-01-10 10:41:02.77	334.62	14.26	-43.2	-45.4	16.9	0.00e+00	0	42	0	0	57	4811
2026-01-10 10:41:03.77	334.68	14.16	-43.3	-45.4	16.9	0.00e+00	0	42	0	0	57	4808
2026-01-10 10:41:04.78	334.74	14.06	-43.3	-45.5	16.9	0.00e+00	0	42	0	0	57	4826
2026-01-10 10:41:05.78	334.80	13.96	-43.4	-45.5	16.9	0.00e+00	0	42	0	0	57	4842
2026-01-10 10:41:06.79	334.86	13.86	-43.4	-45.6	16.8	0.00e+00	0	42	0	0	57	4890
2026-01-10 10:41:07.78	334.92	13.77	-43.4	-45.6	16.8	0.00e+00	0	42	0	0	57	4898
2026-01-10 10:41:08.78	334.98	13.67	-43.3	-45.6	16.8	0.00e+00	0	42	0	0	57	4892
2026-01-10 10:41:09.78	335.04	13.58	-43.3	-45.5	16.8	0.00e+00	0	42	0	0	57	4869
2026-01-10 10:41:10.79	335.09	13.48	-43.3	-45.6	16.7	0.00e+00	0	42	0	0	57	4897
2026-01-10 10:41:11.79	335.15	13.38	-43.2	-45.6	16.8	0.00e+00	0	42	0	0	57	4871
2026-01-10 10:41:12.79	335.21	13.29	-43.3	-45.6	16.7	0.00e+00	0	42	0	0	57	4923
2026-01-10 10:41:13.80	335.27	13.19	-43.4	-45.7	16.6	0.00e+00	0	42	0	0	57	4956
2026-01-10 10:41:14.80	335.32	13.10	-43.3	-45.6	16.7	0.00e+00	0	42	0	0	57	4903
2026-01-10 10:41:15.80	335.38	13.01	-43.5	-45.7	16.6	0.00e+00	0	42	0	0	57	4978
2026-01-10 10:41:16.81	335.43	12.91	-43.5	-45.8	16.5	0.00e+00	0	42	0	0	57	4993
2026-01-10 10:41:17.81	335.49	12.82	-43.6	-45.9	16.4	0.00e+00	0	42	0	0	57	5076
2026-01-10 10:41:18.81	335.54	12.72	-43.6	-45.9	16.4	0.00e+00	0	42	0	0	57	5055
2026-01-10 10:41:19.82	335.60	12.63	-43.7	-45.9	16.4	0.00e+00	0	42	0	0	57	5099
2026-01-10 10:41:20.82	335.65	12.54	-43.7	-46.0	16.3	0.00e+00	0	42	0	0	58	4830
2026-01-10 10:41:21.82	335.71	12.45	-43.9	-46.3	16.1	0.00e+00	0	42	0	0	58	4988
2026-01-10 10:41:22.83	335.76	12.35	-43.9	-46.3	16.1	0.00e+00	0	42	0	0	58	5000
2026-01-10 10:41:23.83	335.81	12.26	-43.7	-46.0	16.3	0.00e+00	0	42	0	0	58	4852
2026-01-10 10:41:24.84	335.87	12.17	-43.6	-46.0	16.4	0.00e+00	0	42	0	0	58	4817
2026-01-10 10:41:25.84	335.92	12.08	-43.5	-45.8	16.5	0.00e+00	0	42	0	0	58	4747
2026-01-10 10:41:26.85	335.97	11.99	-43.5	-46.0	16.4	0.00e+00	0	42	0	0	58	4825
2026-01-10 10:41:27.85	336.03	11.90	-43.6	-46.0	16.3	0.00e+00	0	42	0	0	58	4854
2026-01-10 10:41:28.85	336.08	11.81	-43.6	-46.2	16.2	0.00e+00	0	42	0	0	58	4930
2026-01-10 10:41:29.86	336.13	11.72	-43.5	-46.0	16.3	0.00e+00	0	42	0	0	58	4840
2026-01-10 10:41:30.86	336.18	11.63	-43.5	-46.1	16.2	0.00e+00	0	42	0	0	58	4917
2026-01-10 10:41:31.86	336.23	11.54	-43.4	-46.0	16.3	0.00e+00	0	42	0	0	58	4825
2026-01-10 10:41:32.86	336.28	11.45	-43.5	-46.1	16.2	0.00e+00	0	42	0	0	58	4908
2026-01-10 10:41:33.87	336.33	11.36	-43.6	-46.3	16.0	0.00e+00	0	42	0	0	58	5010
2026-01-10 10:41:34.87	336.38	11.28	-43.6	-46.3	16.0	0.00e+00	0	42	0	0	58	5023
2026-01-10 10:41:35.87	336.43	11.19	-43.7	-46.4	16.0	0.00e+00	0	42	0	0	58	5056
2026-01-10 10:41:36.88	336.48	11.10	-43.6	-46.2	16.1	0.00e+00	0	42	0	0	58	4972
2026-01-10 10:41:37.88	336.53	11.01	-43.7	-46.3	16.0	0.00e+00	0	42	0	0	58	4998
2026-01-10 10:41:38.88	336.58	10.93	-43.7	-46.3	16.0	0.00e+00	0	42	0	0	58	5024
2026-01-10 10:41:39.89	336.63	10.84	-43.6	-46.2	16.1	0.00e+00	0	42	0	0	58	4957
2026-01-10 10:41:40.89	336.68	10.75	-43.7	-46.3	15.9	0.00e+00	0	42	0	0	58	5037
2026-01-10 10:41:41.89	336.73	10.67	-43.6	-46.1	16.1	0.00e+00	0	42	0	0	58	4918
2026-01-10 10:41:42.90	336.78	10.58	-43.7	-46.2	16.1	0.00e+00	0	42	0	0	58	4937
2026-01-10 10:41:43.90	336.82	10.50	-43.6	-46.1	16.2	0.00e+00	0	42	0	0	58	4907
2026-01-10 10:41:44.90	336.87	10.41	-43.6	-46.1	16.2	0.00e+00	0	42	0	0	58	4876
2026-01-10 10:41:45.90	336.92	10.33	-43.6	-46.0	16.3	0.00e+00	0	42	0	0	58	4849
2026-01-10 10:41:46.91	336.97	10.24	-43.7	-46.2	16.1	0.00e+00	0	42	0	0	58	4944
2026-01-10 10:41:47.91	337.01	10.16	-43.6	-46.0	16.3	0.00e+00	0	42	0	0	58	4824
2026-01-10 10:41:48.91	337.06	10.07	-43.7	-46.1	16.2	0.00e+00	0	42	0	0	58	4898
2026-01-10 10:41:49.92	337.11	9.99	-43.6	-46.1	16.2	0.00e+00	0	42	0	0	58	4879
2026-01-10 10:41:50.92	337.15	9.90	-43.6	-46.0	16.2	0.00e+00	0	42	0	0	58	4848
2026-01-10 10:41:51.92	337.20	9.82	-43.5	-46.0	16.3	0.00e+00	0	42	0	0	58	4830
2026-01-10 10:41:52.93	337.24	9.74	-43.6	-46.1	16.1	0.00e+00	0	42	0	0	58	4884
2026-01-10 10:41:53.93	337.29	9.66	-43.6	-46.1	16.1	0.00e+00	0	42	0	0	58	4918
2026-01-10 10:41:54.94	337.34	9.57	-43.6	-46.1	16.2	0.00e+00	0	42	0	0	58	4881
2026-01-10 10:41:55.94	337.38	9.49	-43.6	-46.1	16.1	0.00e+00	0	42	0	0	58	4887
2026-01-10 10:41:56.94	337.43	9.41	-43.7	-46.2	16.0	0.00e+00	0	42	0	0	58	4961
2026-01-10 10:41:57.94	337.47	9.33	-43.7	-46.3	15.9	0.00e+00	0	42	0	0	58	4995
2026-01-10 10:41:58.94	337.51	9.25	-43.6	-46.2	16.0	0.00e+00	0	42	0	0	58	4958
2026-01-10 10:41:59.95	337.56	9.16	-43.7	-46.3	15.9	0.00e+00	0	42	0	0	58	5014
2026-01-10 10:42:00.95	337.60	9.08	-43.8	-46.4	15.8	0.00e+00	0	42	0	0	58	5059
2026-01-10 10:42:01.96	337.65	9.00	-49.5	-62.4	3.8	1.61e-03	0	42	104	0	69	16933
2026-01-10 10:42:02.96	337.69	8.92	-50.2	-63.8	3.8	1.49e+00	0	42	104	0	71	17790
2026-01-10 10:42:03.97	337.73	8.84	-50.7	-64.2	3.8	1.49e+00	0	42	104	0	72	17504
2026-01-10 10:42:04.97	337.78	8.76	-49.9	-64.0	3.8	1.49e+00	0	42	104	0	71	18134
2026-01-10 10:42:05.98	337.82	8.68	-50.6	-64.0	3.8	1.49e+00	0	42	104	0	72	17180
2026-01-10 10:42:06.98	337.86	8.60	-50.6	-64.1	3.8	1.49e+00	0	42	104	0	72	17330
2026-01-10 10:42:07.99	337.90	8.52	-50.6	-64.2	3.8	1.49e+00	0	42	104	0	71	18562
2026-01-10 10:42:08.99	337.95	8.44	-50.9	-64.2	3.8	1.49e+00	0	42	104	0	72	17490
2026-01-10 10:42:09.99	337.99	8.36	-50.9	-64.2	3.8	1.49e+00	0	42	104	0	72	17538
2026-01-10 10:42:11.00	338.03	8.29	-50.4	-64.2	3.8	1.49e+00	0	42	104	0	72	17558
2026-01-10 10:42:12.00	338.07	8.21	-51.0	-64.2	3.8	1.49e+00	0	42	104	0	72	17532
2026-01-10 10:42:13.01	338.11	8.13	-51.2	-64.2	3.8	1.49e+00	0	42	104	0	73	16537
2026-01-10 10:42:14.01	338.15	8.05	-51.0	-64.2	3.8	1.49e+00	0	42	104	0	73	16596
2026-01-10 10:42:15.02	338.20	7.97	-51.2	-64.2	3.8	1.49e+00	0	42	104	0	73	16580
2026-01-10 10:42:16.02	338.24	7.90	-51.1	-64.2	3.8	1.49e+00	0	42	104	0	73	16630
2026-01-10 10:42:17.03	338.28	7.82	-50.9	-64.2	3.8	1.49e+00	0	42	104	0	73	16622
2026-01-10 10:42:18.03	338.32	7.74	-50.9	-64.2	3.8	1.49e+00	0	42	104	0	73	16629
2026-01-10 10:42:19.04	338.36	7.66	-51.0	-64.2	3.8	1.49e+00	0	42	104	0	73	16616
2026-01-10 10:42:20.04	338.40	7.59	-51.1	-64.2	3.8	1.49e+00	0	42	104	0	73	16573
2026-01-10 10:42:21.04	338.44	7.51	-51.2	-64.2	3.8	1.49e+00	0	42	104	0	73	16545
2026-01-10 10:42:22.05	338.48	7.43	-51.1	-64.2	3.8	1.49e+00	0	42	104	0	73	16544
2026-01-10 10:42:23.05	338.52	7.36	-51.1	-64.2	3.8	1.49e+00	0	42	104	0	73	16583
2026-01-10 10:42:24.05	338.56	7.28	-51.1	-64.2	3.8	1.49e+00	0	42	104	0	73	16569
2026-01-10 10:42:25.06	338.60	7.21	-51.1	-64.2	3.8	1.49e+00	0	42	104	0	73	16517
2026-01-10 10:42:26.06	338.64	7.13	-50.9	-64.2	3.8	1.49e+00	0	42	104	0	73	16563
2026-01-10 10:42:27.07	338.67	7.06	-51.0	-64.1	3.8	1.49e+00	0	42	104	0	73	16460
2026-01-10 10:42:28.07	338.71	6.98	-51.0	-64.2	3.8	1.49e+00	0	42	104	0	73	16520
2026-01-10 10:42:29.08	338.75	6.91	-51.0	-64.1	3.8	1.49e+00	0	42	104	0	73	16443
2026-01-10 10:42:30.08	338.79	6.83	-51.0	-64.1	3.8	1.49e+00	0	42	104	0	73	16404
2026-01-10 10:42:31.09	338.83	6.76	-51.0	-64.1	3.8	1.49e+00	0	42	104	0	73	16442
2026-01-10 10:42:32.09	338.87	6.69	-51.0	-64.1	3.8	1.49e+00	0	42	104	0	73	16460
2026-01-10 10:42:33.09	338.90	6.61	-51.0	-64.1	3.8	1.49e+00	0	42	104	0	73	16481
2026-01-10 10:42:34.10	338.94	6.54	-51.0	-64.1	3.8	1.49e+00	0	42	104	0	73	16463
2026-01-10 10:42:35.10	338.98	6.46	-51.0	-64.1	3.8	1.49e+00	0	42	104	0	73	16433
2026-01-10 10:42:36.11	339.02	6.39	-51.0	-64.1	3.8	1.49e+00	0	42	104	0	73	16416
2026-01-10 10:42:37.11	339.05	6.32	-51.0	-64.1	3.8	1.49e+00	0	42	104	0	73	16471
2026-01-10 10:42:38.12	339.09	6.24	-51.0	-64.1	3.8	1.49e+00	0	42	104	0	73	16480
2026-01-10 10:42:39.12	339.13	6.17	-51.0	-64.1	3.8	1.49e+00	0	42	104	0	73	16471
2026-01-10 10:42:40.13	339.16	6.10	-51.0	-64.1	3.8	1.49e+00	0	42	104	0	73	16457
2026-01-10 10:42:41.13	339.20	6.03	-51.0	-64.1	3.8	1.49e+00	0	42	104	0	73	16480
2026-01-10 10:42:42.13	339.24	5.96	-51.0	-64.1	3.8	1.49e+00	0	42	104	0	73	16423
2026-01-10 10:42:43.14	339.27	5.88	-51.0	-64.1	3.8	1.49e+00	0	42	104	0	73	16447
