passes_logs/2026/01/10/T1/T1__20260110_002857_FENGYUN_3D_rec.log

#Pass ID: 20260110_002857_FENGYUN 3D
#Satellite: FENGYUN 3D
#Configuration: FENGYUN 3D
#almurnet v.1.7.20251203
#Start time: 2026-01-10 00:28:59

#Version: 2.0.20230620
#Station: T1
#Location: 37.570604 lon 55.790049 lat
#TLE: 1 43010U 17072A   26009.29492227  .00000158  00000+0  96483-4 0  9996
#TLE: 2 43010  98.9936 341.0229 0002153 117.3665 242.7729 14.19694440422446

#Time	Az	El	Level	Level2	SNR	BER	BlckErr	Temp	State	Recorded	gain1	gain2
2026-01-10 00:28:59.18	27.52	5.13	-50.3	-62.9	3.8	8.46e-01	0	41	104	0	71	16022
2026-01-10 00:29:00.18	27.59	5.19	-50.3	-62.9	3.8	8.47e-01	0	41	104	0	71	15991
2026-01-10 00:29:01.18	27.67	5.25	-50.3	-62.9	3.8	8.46e-01	0	41	104	0	71	15944
2026-01-10 00:29:02.19	27.74	5.31	-50.3	-62.8	3.8	8.46e-01	0	41	104	0	71	15941
2026-01-10 00:29:03.19	27.82	5.38	-50.3	-62.9	3.8	8.47e-01	0	41	104	0	71	16008
2026-01-10 00:29:04.20	27.90	5.44	-50.3	-62.8	3.8	8.48e-01	0	41	104	0	71	15941
2026-01-10 00:29:05.20	27.97	5.50	-50.3	-62.8	3.8	8.46e-01	0	42	104	0	71	15842
2026-01-10 00:29:06.20	28.05	5.56	-50.3	-62.8	3.8	8.47e-01	0	41	104	0	71	15832
2026-01-10 00:29:07.21	28.13	5.63	-50.3	-62.8	3.8	8.47e-01	0	42	104	0	71	15842
2026-01-10 00:29:08.22	28.20	5.69	-50.3	-62.8	3.8	8.48e-01	0	42	104	0	71	15865
2026-01-10 00:29:09.22	28.28	5.75	-50.3	-62.8	3.8	8.47e-01	0	42	104	0	71	15873
2026-01-10 00:29:10.22	28.36	5.82	-50.3	-62.8	3.8	8.48e-01	0	42	104	0	71	15866
2026-01-10 00:29:11.23	28.44	5.88	-50.3	-62.8	3.8	8.47e-01	0	42	104	0	71	15835
2026-01-10 00:29:12.23	28.52	5.95	-50.3	-62.9	3.8	8.47e-01	0	42	104	0	71	15954
2026-01-10 00:29:13.23	28.60	6.01	-50.3	-62.8	3.8	8.46e-01	0	42	104	0	71	15941
2026-01-10 00:29:14.24	28.68	6.07	-50.3	-62.8	3.8	8.46e-01	0	42	104	0	71	15860
2026-01-10 00:29:15.24	28.76	6.14	-50.3	-62.7	3.8	8.48e-01	0	42	104	0	71	15750
2026-01-10 00:29:16.25	28.84	6.20	-50.3	-62.8	3.8	8.46e-01	0	42	104	0	71	15830
2026-01-10 00:29:17.25	28.92	6.27	-50.3	-62.8	3.8	8.46e-01	0	42	104	0	71	15765
2026-01-10 00:29:18.26	29.00	6.33	-50.3	-62.7	3.8	8.47e-01	0	42	104	0	71	15641
2026-01-10 00:29:19.26	29.08	6.40	-50.3	-62.7	3.8	8.48e-01	0	42	104	0	71	15673
2026-01-10 00:29:20.27	29.17	6.46	-50.3	-62.7	3.8	8.47e-01	0	42	104	0	71	15637
2026-01-10 00:29:21.27	29.25	6.52	-50.3	-62.7	3.8	8.46e-01	0	42	104	0	71	15617
2026-01-10 00:29:22.28	29.33	6.59	-50.2	-62.6	3.8	8.47e-01	0	42	104	0	71	15556
2026-01-10 00:29:23.28	29.41	6.65	-50.3	-62.6	3.8	8.46e-01	0	42	104	0	71	15459
2026-01-10 00:29:24.28	29.50	6.72	-50.3	-62.6	3.8	8.46e-01	0	42	104	0	71	15467
2026-01-10 00:29:25.29	29.58	6.79	-50.3	-62.6	3.8	8.47e-01	0	42	104	0	71	15430
2026-01-10 00:29:26.29	29.66	6.85	-50.3	-62.6	3.8	8.47e-01	0	42	104	0	71	15427
2026-01-10 00:29:27.30	29.75	6.92	-50.3	-62.6	3.8	8.47e-01	0	42	104	0	71	15462
2026-01-10 00:29:28.30	29.83	6.98	-50.3	-62.6	3.8	8.47e-01	0	42	104	0	71	15423
2026-01-10 00:29:29.31	29.92	7.05	-50.2	-62.7	3.8	8.46e-01	0	42	104	0	71	15614
2026-01-10 00:29:30.31	30.00	7.11	-50.3	-62.7	3.8	8.47e-01	0	42	104	0	71	15743
2026-01-10 00:29:31.32	30.09	7.18	-50.3	-62.8	3.8	8.47e-01	0	42	104	0	71	15826
2026-01-10 00:29:32.32	30.17	7.25	-50.3	-62.9	3.8	8.47e-01	0	42	104	0	71	15962
2026-01-10 00:29:33.32	30.26	7.31	-50.3	-62.8	3.8	8.48e-01	0	43	104	0	71	15885
2026-01-10 00:29:34.33	30.35	7.38	-50.3	-62.8	3.8	8.46e-01	0	43	104	0	71	15868
2026-01-10 00:29:35.33	30.44	7.44	-50.3	-62.9	3.8	8.47e-01	0	43	104	0	71	15968
2026-01-10 00:29:36.34	30.52	7.51	-50.3	-62.8	3.8	8.46e-01	0	43	104	0	71	15939
2026-01-10 00:29:37.34	30.61	7.58	-50.3	-62.9	3.8	8.47e-01	0	43	104	0	71	16008
2026-01-10 00:29:38.35	30.70	7.65	-50.3	-62.9	3.8	8.47e-01	0	43	104	0	71	16020
2026-01-10 00:29:39.35	30.79	7.71	-50.3	-62.9	3.8	8.48e-01	0	43	104	0	71	16000
2026-01-10 00:29:40.35	30.88	7.78	-50.3	-62.9	3.8	8.47e-01	0	43	104	0	71	16030
2026-01-10 00:29:41.36	30.97	7.85	-50.3	-62.9	3.8	8.47e-01	0	43	104	0	71	16005
2026-01-10 00:29:42.36	31.06	7.91	-50.3	-62.8	3.8	8.47e-01	0	43	104	0	71	15847
2026-01-10 00:29:43.37	31.15	7.98	-50.3	-62.8	3.8	8.47e-01	0	43	104	0	71	15891
2026-01-10 00:29:44.37	31.24	8.05	-50.3	-62.8	3.8	8.48e-01	0	43	104	0	71	15828
2026-01-10 00:29:45.37	31.33	8.12	-50.3	-62.7	3.8	8.46e-01	0	43	104	0	71	15614
2026-01-10 00:29:46.38	31.42	8.18	-50.2	-62.5	3.8	8.48e-01	0	43	104	0	71	15271
2026-01-10 00:29:47.38	31.51	8.25	-50.2	-62.2	3.8	8.47e-01	0	43	104	0	71	14841
2026-01-10 00:29:48.39	31.61	8.32	-50.2	-62.0	3.8	8.47e-01	0	43	104	0	71	14508
2026-01-10 00:29:49.39	31.70	8.39	-50.2	-61.8	3.8	8.48e-01	0	43	104	0	71	14096
2026-01-10 00:29:50.40	31.79	8.46	-50.2	-61.8	3.8	8.48e-01	0	43	104	0	71	14114
2026-01-10 00:29:51.40	31.88	8.52	-50.2	-62.1	3.8	8.48e-01	0	43	104	0	71	14661
2026-01-10 00:29:52.41	31.98	8.59	-50.2	-62.4	3.8	8.46e-01	0	43	104	0	71	15165
2026-01-10 00:29:53.41	32.07	8.66	-50.3	-62.6	3.8	8.47e-01	0	43	104	0	71	15440
2026-01-10 00:29:54.41	32.17	8.73	-50.2	-62.4	3.8	8.47e-01	0	43	104	0	71	15132
2026-01-10 00:29:55.42	32.26	8.80	-50.1	-61.5	3.8	8.46e-01	0	43	104	0	71	13694
2026-01-10 00:29:56.42	32.36	8.87	-50.0	-60.8	3.8	8.46e-01	0	43	104	0	71	12557
2026-01-10 00:29:57.43	32.46	8.94	-49.9	-59.9	4.1	8.44e-01	0	43	0	0	71	11320
2026-01-10 00:29:58.43	32.55	9.01	-49.8	-58.9	4.3	8.33e-01	0	43	0	0	71	10076
2026-01-10 00:29:59.44	32.65	9.08	-49.5	-57.4	4.9	8.20e-01	0	43	0	0	71	8495
2026-01-10 00:30:00.44	32.75	9.15	-50.2	-61.8	3.8	7.99e-01	0	43	104	1048576	71	14072
2026-01-10 00:30:01.47	32.85	9.22	-50.2	-60.8	3.8	8.46e-01	0	43	104	1048576	71	12615
2026-01-10 00:30:02.47	32.94	9.29	-47.3	-51.1	10.6	8.18e-04	0	43	0	3145728	65	5847
2026-01-10 00:30:03.47	33.04	9.36	-46.5	-49.8	11.9	2.33e-02	0	43	0	8388608	65	5015
2026-01-10 00:30:04.48	33.14	9.43	-44.5	-47.1	14.7	0.00e+00	0	43	0	14680064	60	4899
2026-01-10 00:30:05.48	33.24	9.50	-44.2	-46.7	15.2	0.00e+00	0	43	0	19922944	60	4668
2026-01-10 00:30:06.49	33.34	9.57	-44.0	-46.5	15.4	0.00e+00	0	43	0	26214400	59	4820
2026-01-10 00:30:07.49	33.44	9.64	-43.7	-46.0	15.9	0.00e+00	0	43	0	31457280	59	4577
2026-01-10 00:30:08.50	33.55	9.71	-43.5	-45.8	16.1	0.00e+00	0	43	0	36700160	59	4466
2026-01-10 00:30:09.50	33.65	9.78	-43.6	-45.9	16.0	0.00e+00	0	43	0	42991616	58	4802
2026-01-10 00:30:10.50	33.75	9.85	-43.6	-45.9	16.0	0.00e+00	0	43	0	48234496	58	4793
2026-01-10 00:30:11.51	33.85	9.92	-43.3	-45.6	16.3	0.00e+00	0	43	0	53477376	58	4631
2026-01-10 00:30:12.51	33.95	9.99	-43.3	-45.6	16.3	0.00e+00	0	43	0	59768832	58	4610
2026-01-10 00:30:13.51	34.06	10.06	-43.4	-45.7	16.2	0.00e+00	0	43	0	65011712	58	4668
2026-01-10 00:30:14.52	34.16	10.14	-43.0	-45.2	16.7	0.00e+00	0	43	0	71303168	58	4425
2026-01-10 00:30:15.52	34.27	10.21	-43.0	-45.2	16.7	0.00e+00	0	43	0	76546048	58	4429
2026-01-10 00:30:16.53	34.37	10.28	-43.0	-45.2	16.7	0.00e+00	0	43	0	81788928	58	4418
2026-01-10 00:30:17.53	34.48	10.35	-42.7	-44.8	17.1	0.00e+00	0	43	0	88080384	57	4464
2026-01-10 00:30:18.53	34.58	10.42	-42.7	-44.8	17.2	0.00e+00	0	43	0	93323264	57	4453
2026-01-10 00:30:19.54	34.69	10.49	-42.7	-44.8	17.1	0.00e+00	0	43	0	99614720	57	4452
2026-01-10 00:30:20.54	34.80	10.57	-42.5	-44.6	17.3	0.00e+00	0	43	0	104857600	57	4344
2026-01-10 00:30:21.54	34.90	10.64	-42.5	-44.5	17.4	0.00e+00	0	43	0	110100480	56	4583
2026-01-10 00:30:22.54	35.01	10.71	-42.4	-44.5	17.4	0.00e+00	0	43	0	116391936	56	4578
2026-01-10 00:30:23.55	35.12	10.78	-42.5	-44.6	17.4	0.00e+00	0	43	0	121634816	56	4600
2026-01-10 00:30:24.55	35.23	10.85	-42.5	-44.6	17.4	0.00e+00	0	43	0	126877696	56	4608
2026-01-10 00:30:25.55	35.34	10.93	-42.6	-44.7	17.3	0.00e+00	0	44	0	133169152	56	4655
2026-01-10 00:30:26.56	35.45	11.00	-42.4	-44.5	17.5	0.00e+00	0	43	0	138412032	56	4573
2026-01-10 00:30:27.56	35.56	11.07	-42.6	-44.7	17.3	0.00e+00	0	43	0	143654912	56	4663
2026-01-10 00:30:28.56	35.67	11.15	-42.4	-44.5	17.4	0.00e+00	0	44	0	149946368	56	4585
2026-01-10 00:30:29.56	35.78	11.22	-42.6	-44.8	17.2	0.00e+00	0	44	0	155189248	56	4726
2026-01-10 00:30:30.56	35.89	11.29	-42.5	-44.6	17.4	0.00e+00	0	44	0	161480704	56	4620
2026-01-10 00:30:31.57	36.00	11.37	-42.3	-44.4	17.6	0.00e+00	0	43	0	166723584	56	4511
2026-01-10 00:30:32.57	36.12	11.44	-42.4	-44.5	17.5	0.00e+00	0	44	0	173015040	56	4561
2026-01-10 00:30:33.57	36.23	11.51	-42.3	-44.4	17.6	0.00e+00	0	43	0	178257920	56	4510
2026-01-10 00:30:34.57	36.34	11.59	-42.1	-44.2	17.8	0.00e+00	0	43	0	183500800	56	4410
2026-01-10 00:30:35.58	36.46	11.66	-42.2	-44.2	17.8	0.00e+00	0	43	0	189792256	56	4427
2026-01-10 00:30:36.58	36.57	11.73	-42.0	-44.1	17.9	0.00e+00	0	43	0	195035136	56	4356
2026-01-10 00:30:37.59	36.69	11.81	-42.1	-44.1	17.9	0.00e+00	0	44	0	200278016	56	4376
2026-01-10 00:30:38.59	36.81	11.88	-41.9	-43.9	18.0	0.00e+00	0	43	0	206569472	55	4501
2026-01-10 00:30:39.59	36.92	11.96	-41.9	-43.9	17.9	0.00e+00	0	44	0	211812352	55	4534
2026-01-10 00:30:40.60	37.04	12.03	-41.9	-43.9	17.9	0.00e+00	0	43	0	218103808	55	4545
2026-01-10 00:30:41.95	37.20	12.13	-41.9	-43.9	17.9	0.00e+00	0	44	0	225443840	55	4521
2026-01-10 00:30:42.70	37.29	12.19	-41.9	-43.9	17.8	0.00e+00	0	43	0	229638144	55	4533
2026-01-10 00:30:43.99	37.44	12.29	-41.9	-44.0	17.6	0.00e+00	0	43	0	236978176	55	4579
2026-01-10 00:30:44.71	37.53	12.34	-42.0	-44.1	17.5	0.00e+00	0	43	0	241172480	55	4607
2026-01-10 00:30:45.99	37.68	12.44	-41.9	-44.0	17.5	0.00e+00	0	43	0	247463936	55	4562
2026-01-10 00:30:46.71	37.77	12.49	-41.8	-44.0	17.4	0.00e+00	0	44	0	251658240	55	4550
2026-01-10 00:30:48.00	37.93	12.59	-41.8	-43.9	17.4	0.00e+00	0	44	0	258998272	55	4535
2026-01-10 00:30:48.71	38.01	12.64	-41.9	-44.0	17.3	0.00e+00	0	43	0	263192576	55	4586
2026-01-10 00:30:50.00	38.17	12.74	-41.7	-43.9	17.4	0.00e+00	0	43	0	270532608	55	4509
2026-01-10 00:30:50.72	38.26	12.79	-41.8	-43.9	17.4	0.00e+00	0	43	0	274726912	55	4529
2026-01-10 00:30:52.01	38.42	12.89	-41.8	-43.9	17.5	0.00e+00	0	44	0	282066944	55	4507
2026-01-10 00:30:52.72	38.51	12.94	-41.8	-44.0	17.4	0.00e+00	0	43	0	286261248	55	4560
2026-01-10 00:30:54.01	38.67	13.04	-42.0	-44.1	17.4	0.00e+00	0	43	0	292552704	55	4615
2026-01-10 00:30:54.73	38.76	13.10	-42.0	-44.1	17.5	0.00e+00	0	44	0	296747008	55	4615
2026-01-10 00:30:56.02	38.92	13.19	-42.0	-44.1	17.5	0.00e+00	0	44	0	304087040	55	4632
2026-01-10 00:30:56.74	39.02	13.25	-42.0	-44.1	17.6	0.00e+00	0	43	0	308281344	55	4642
2026-01-10 00:30:58.03	39.18	13.35	-42.0	-44.1	17.7	0.00e+00	0	43	0	315621376	55	4626
2026-01-10 00:30:58.74	39.27	13.40	-42.1	-44.2	17.7	0.00e+00	0	44	0	319815680	55	4667
2026-01-10 00:31:00.03	39.44	13.50	-42.0	-44.0	17.8	0.00e+00	0	44	0	327155712	55	4592
2026-01-10 00:31:00.75	39.53	13.56	-41.9	-44.0	17.9	0.00e+00	0	44	0	331350016	55	4551
2026-01-10 00:31:02.03	39.70	13.65	-41.6	-43.6	18.3	0.00e+00	0	44	0	338690048	55	4346
2026-01-10 00:31:02.75	39.79	13.71	-41.7	-43.7	18.2	0.00e+00	0	44	0	341835776	55	4398
2026-01-10 00:31:04.04	39.96	13.81	-41.5	-43.5	18.3	0.00e+00	0	44	0	349175808	55	4299
2026-01-10 00:31:04.76	40.06	13.86	-41.5	-43.5	18.3	0.00e+00	0	44	0	353370112	55	4300
2026-01-10 00:31:06.05	40.23	13.96	-41.5	-43.5	18.3	0.00e+00	0	44	0	360710144	54	4574
2026-01-10 00:31:06.76	40.32	14.02	-41.5	-43.5	18.4	0.00e+00	0	44	0	364904448	54	4556
2026-01-10 00:31:08.26	40.53	14.14	-41.5	-43.4	18.4	0.00e+00	0	44	0	373293056	54	4529
2026-01-10 00:31:08.98	40.62	14.19	-41.6	-43.5	18.3	0.00e+00	0	44	0	377487360	54	4581
2026-01-10 00:31:10.27	40.80	14.29	-41.5	-43.5	18.4	0.00e+00	0	44	0	384827392	54	4561
2026-01-10 00:31:10.98	40.89	14.35	-41.5	-43.4	18.5	0.00e+00	0	44	0	389021696	54	4524
2026-01-10 00:31:12.27	41.07	14.45	-41.4	-43.4	18.5	0.00e+00	0	44	0	396361728	54	4504
2026-01-10 00:31:12.99	41.17	14.50	-41.5	-43.5	18.5	0.00e+00	0	44	0	399507456	54	4549
2026-01-10 00:31:14.28	41.35	14.60	-41.4	-43.4	18.6	0.00e+00	0	44	0	406847488	54	4497
2026-01-10 00:31:15.00	41.45	14.66	-41.3	-43.2	18.7	0.00e+00	0	44	0	411041792	54	4440
2026-01-10 00:31:16.29	41.63	14.76	-41.2	-43.1	18.9	0.00e+00	0	44	0	418381824	54	4384
2026-01-10 00:31:17.10	41.74	14.83	-41.3	-43.2	18.8	0.00e+00	0	44	0	422576128	54	4439
2026-01-10 00:31:18.25	41.91	14.92	-41.3	-43.3	18.8	0.00e+00	0	44	0	428867584	54	4443
2026-01-10 00:31:19.31	42.06	15.00	-41.4	-43.3	18.8	0.00e+00	0	44	0	435159040	54	4455
2026-01-10 00:31:20.35	42.21	15.08	-41.3	-43.3	18.8	0.00e+00	0	44	0	441450496	54	4445
2026-01-10 00:31:21.35	42.35	15.16	-41.3	-43.2	18.9	0.00e+00	0	43	0	446693376	54	4414
2026-01-10 00:31:22.35	42.50	15.24	-41.2	-43.1	18.8	0.00e+00	0	43	0	451936256	54	4382
2026-01-10 00:31:23.35	42.64	15.32	-41.1	-42.9	19.1	0.00e+00	0	44	0	458227712	54	4286
2026-01-10 00:31:24.36	42.79	15.40	-40.9	-42.8	19.2	0.00e+00	0	44	0	463470592	53	4462
2026-01-10 00:31:25.36	42.93	15.48	-41.0	-42.9	19.1	0.00e+00	0	44	0	469762048	53	4536
2026-01-10 00:31:26.36	43.08	15.56	-41.1	-43.0	19.1	0.00e+00	0	44	0	475004928	53	4550
2026-01-10 00:31:27.37	43.23	15.64	-41.1	-43.0	19.0	0.00e+00	0	44	0	480247808	53	4565
2026-01-10 00:31:28.37	43.38	15.72	-41.0	-42.9	19.2	0.00e+00	0	44	0	486539264	53	4499
2026-01-10 00:31:29.37	43.53	15.80	-40.9	-42.8	19.2	0.00e+00	0	44	0	491782144	53	4462
2026-01-10 00:31:30.38	43.68	15.88	-41.0	-42.9	19.1	0.00e+00	0	44	0	498073600	53	4530
2026-01-10 00:31:31.38	43.83	15.96	-41.1	-42.9	19.1	0.00e+00	0	44	0	503316480	53	4536
2026-01-10 00:31:32.39	43.99	16.04	-41.0	-42.9	19.2	0.00e+00	0	44	0	508559360	53	4503
2026-01-10 00:31:33.47	44.15	16.12	-41.0	-42.8	19.2	0.00e+00	0	44	0	514850816	53	4480
2026-01-10 00:31:34.36	44.29	16.19	-41.0	-42.9	19.1	0.00e+00	0	44	0	520093696	53	4512
2026-01-10 00:31:35.37	44.45	16.27	-41.0	-42.9	19.2	0.00e+00	0	44	0	525336576	53	4497
2026-01-10 00:31:36.37	44.60	16.35	-40.8	-42.7	19.4	0.00e+00	0	44	0	531628032	53	4403
2026-01-10 00:31:37.37	44.76	16.43	-40.9	-42.8	19.3	0.00e+00	0	44	0	536870912	53	4444
2026-01-10 00:31:38.38	44.92	16.52	-40.8	-42.7	19.4	0.00e+00	0	44	0	543162368	53	4414
2026-01-10 00:31:39.38	45.07	16.60	-40.8	-42.6	19.4	0.00e+00	0	44	0	548405248	53	4388
2026-01-10 00:31:40.38	45.23	16.68	-40.9	-42.7	19.4	0.00e+00	0	44	0	553648128	53	4421
2026-01-10 00:31:41.39	45.39	16.76	-40.8	-42.7	19.4	0.00e+00	0	44	0	559939584	53	4397
2026-01-10 00:31:42.39	45.55	16.84	-40.9	-42.8	19.3	0.00e+00	0	44	0	565182464	53	4459
2026-01-10 00:31:43.39	45.72	16.92	-40.8	-42.7	19.4	0.00e+00	0	44	0	570425344	53	4399
2026-01-10 00:31:44.40	45.88	17.00	-40.8	-42.6	19.4	0.00e+00	0	44	0	576716800	53	4388
2026-01-10 00:31:45.40	46.04	17.08	-40.7	-42.6	19.5	0.00e+00	0	44	0	581959680	53	4361
2026-01-10 00:31:46.45	46.21	17.16	-40.8	-42.7	19.4	0.00e+00	0	44	0	588251136	53	4396
2026-01-10 00:31:47.39	46.37	17.24	-40.6	-42.5	19.6	0.00e+00	0	44	0	593494016	53	4302
2026-01-10 00:31:48.39	46.53	17.32	-40.7	-42.5	19.6	0.00e+00	0	43	0	598736896	53	4317
2026-01-10 00:31:49.39	46.70	17.40	-40.5	-42.3	19.7	0.00e+00	0	44	0	605028352	53	4228
2026-01-10 00:31:50.39	46.87	17.48	-40.4	-42.2	19.9	0.00e+00	0	44	0	610271232	52	4414
2026-01-10 00:31:51.39	47.03	17.56	-40.4	-42.3	19.8	0.00e+00	0	44	0	615514112	52	4444
2026-01-10 00:31:52.39	47.20	17.64	-40.4	-42.2	19.9	0.00e+00	0	44	0	621805568	52	4429
2026-01-10 00:31:53.40	47.38	17.73	-40.6	-42.5	19.7	0.00e+00	0	44	0	627048448	52	4548
2026-01-10 00:31:54.40	47.55	17.81	-40.6	-42.5	19.7	0.00e+00	0	44	0	632291328	52	4547
2026-01-10 00:31:55.40	47.72	17.89	-40.5	-42.3	19.8	0.00e+00	0	44	0	638582784	52	4456
2026-01-10 00:31:56.41	47.89	17.97	-40.5	-42.3	19.8	0.00e+00	0	44	0	643825664	52	4486
2026-01-10 00:31:57.41	48.06	18.05	-40.6	-42.4	19.7	0.00e+00	0	44	0	649068544	52	4515
2026-01-10 00:31:58.42	48.24	18.13	-40.6	-42.4	19.7	0.00e+00	0	44	0	655360000	52	4521
2026-01-10 00:31:59.42	48.42	18.21	-40.7	-42.5	19.6	0.00e+00	0	44	0	660602880	52	4576
2026-01-10 00:32:00.42	48.59	18.30	-40.5	-42.4	19.8	0.00e+00	0	44	0	666894336	52	4497
2026-01-10 00:32:01.47	48.78	18.38	-40.4	-42.3	19.9	0.00e+00	0	44	0	672137216	52	4451
2026-01-10 00:32:02.36	48.94	18.45	-40.4	-42.2	19.9	0.00e+00	0	44	0	677380096	52	4429
2026-01-10 00:32:03.51	49.14	18.55	-40.3	-42.1	20.0	0.00e+00	0	44	0	683671552	52	4354
2026-01-10 00:32:04.37	49.30	18.62	-40.3	-42.2	20.0	0.00e+00	0	44	0	688914432	52	4393
2026-01-10 00:32:05.52	49.50	18.71	-40.3	-42.1	20.0	0.00e+00	0	44	0	695205888	52	4386
2026-01-10 00:32:06.37	49.66	18.78	-40.3	-42.1	20.0	0.00e+00	0	44	0	700448768	52	4379
2026-01-10 00:32:07.52	49.87	18.87	-40.2	-42.1	20.1	0.00e+00	0	44	0	706740224	52	4342
2026-01-10 00:32:08.38	50.03	18.94	-40.2	-42.0	20.1	0.00e+00	0	44	0	711983104	52	4324
2026-01-10 00:32:09.53	50.24	19.03	-40.2	-42.0	20.1	0.00e+00	0	44	0	718274560	52	4329
2026-01-10 00:32:10.39	50.40	19.10	-40.2	-42.0	20.1	0.00e+00	0	44	0	722468864	52	4325
2026-01-10 00:32:11.54	50.61	19.20	-40.3	-42.1	20.1	0.00e+00	0	44	0	728760320	52	4348
2026-01-10 00:32:12.40	50.77	19.27	-40.3	-42.1	20.1	0.00e+00	0	44	0	734003200	52	4346
2026-01-10 00:32:13.55	50.99	19.36	-40.3	-42.2	20.0	0.00e+00	0	44	0	740294656	52	4393
2026-01-10 00:32:14.41	51.15	19.43	-40.3	-42.1	20.1	0.00e+00	0	44	0	745537536	52	4348
2026-01-10 00:32:15.63	51.39	19.53	-40.2	-42.0	20.2	0.00e+00	0	44	0	751828992	52	4298
2026-01-10 00:32:16.49	51.55	19.60	-40.0	-41.8	20.3	0.00e+00	0	44	0	757071872	52	4220
2026-01-10 00:32:17.64	51.77	19.69	-40.0	-41.8	20.3	0.00e+00	0	44	0	763363328	52	4221
2026-01-10 00:32:18.50	51.94	19.76	-40.0	-41.8	20.3	0.00e+00	0	44	0	768606208	52	4228
2026-01-10 00:32:19.64	52.16	19.85	-40.1	-41.9	20.3	0.00e+00	0	44	0	774897664	52	4252
2026-01-10 00:32:20.51	52.33	19.92	-40.2	-42.0	20.1	0.00e+00	0	44	0	779091968	52	4319
2026-01-10 00:32:21.65	52.55	20.01	-40.2	-41.9	20.2	0.00e+00	0	44	0	786432000	52	4289
2026-01-10 00:32:22.51	52.72	20.08	-40.1	-41.8	20.3	0.00e+00	0	44	0	790626304	52	4239
2026-01-10 00:32:23.66	52.95	20.17	-40.1	-41.9	20.4	0.00e+00	0	44	0	796917760	51	4497
2026-01-10 00:32:24.52	53.12	20.24	-40.1	-41.8	20.4	0.00e+00	0	44	0	802160640	51	4481
2026-01-10 00:32:25.67	53.36	20.34	-40.1	-41.9	20.4	0.00e+00	0	44	0	808452096	51	4503
2026-01-10 00:32:26.53	53.53	20.41	-40.2	-42.0	20.3	0.00e+00	0	44	0	813694976	51	4551
2026-01-10 00:32:27.67	53.76	20.50	-40.2	-42.0	20.2	0.00e+00	0	44	0	819986432	51	4583
2026-01-10 00:32:28.53	53.94	20.57	-40.2	-42.0	20.2	0.00e+00	0	44	0	825229312	51	4583
2026-01-10 00:32:29.68	54.17	20.66	-40.2	-42.0	20.2	0.00e+00	0	44	0	831520768	51	4591
2026-01-10 00:32:30.54	54.35	20.73	-40.2	-42.0	20.3	0.00e+00	0	44	0	835715072	51	4559
2026-01-10 00:32:31.69	54.59	20.82	-40.0	-41.7	20.5	0.00e+00	0	44	0	843055104	51	4431
2026-01-10 00:32:32.55	54.76	20.89	-39.9	-41.6	20.6	0.00e+00	0	44	0	847249408	51	4377
2026-01-10 00:32:33.69	55.00	20.98	-39.7	-41.4	20.8	0.00e+00	0	44	0	853540864	51	4273
2026-01-10 00:32:34.55	55.18	21.04	-39.7	-41.4	20.8	0.00e+00	0	44	0	858783744	51	4285
2026-01-10 00:32:35.70	55.43	21.14	-39.8	-41.6	20.6	0.00e+00	0	44	0	865075200	51	4372
2026-01-10 00:32:36.56	55.61	21.20	-39.8	-41.6	20.7	0.00e+00	0	44	0	870318080	51	4346
2026-01-10 00:32:37.70	55.85	21.29	-39.8	-41.5	20.7	0.00e+00	0	44	0	876609536	51	4334
2026-01-10 00:32:38.56	56.04	21.36	-39.8	-41.5	20.7	0.00e+00	0	44	0	880803840	51	4330
2026-01-10 00:32:39.71	56.28	21.45	-39.8	-41.5	20.7	0.00e+00	0	44	0	887095296	51	4336
2026-01-10 00:32:40.84	56.53	21.54	-39.8	-41.5	20.7	0.00e+00	0	44	0	894435328	51	4325
2026-01-10 00:32:41.88	56.75	21.62	-39.7	-41.5	20.8	0.00e+00	0	44	0	899678208	51	4298
2026-01-10 00:32:42.87	56.97	21.70	-39.8	-41.5	20.7	0.00e+00	0	44	0	905969664	51	4324
2026-01-10 00:32:43.88	57.19	21.78	-39.8	-41.5	20.8	0.00e+00	0	44	0	911212544	51	4321
2026-01-10 00:32:44.88	57.41	21.85	-39.8	-41.5	20.8	0.00e+00	0	44	0	916455424	51	4321
2026-01-10 00:32:45.88	57.64	21.93	-39.8	-41.7	20.3	0.00e+00	0	44	0	922746880	51	4395
2026-01-10 00:32:46.89	57.86	22.01	-39.9	-41.7	20.3	0.00e+00	0	44	0	927989760	51	4434
2026-01-10 00:32:47.89	58.09	22.09	-39.9	-41.8	20.2	0.00e+00	0	44	0	933232640	51	4453
2026-01-10 00:32:48.89	58.31	22.16	-39.8	-41.7	20.3	0.00e+00	0	44	0	939524096	51	4395
2026-01-10 00:32:49.90	58.54	22.24	-39.7	-41.5	20.5	0.00e+00	0	44	0	944766976	51	4308
2026-01-10 00:32:50.95	58.78	22.32	-39.6	-41.4	20.5	0.00e+00	0	44	0	951058432	51	4274
2026-01-10 00:32:51.84	58.98	22.39	-39.5	-41.3	20.7	0.00e+00	0	44	0	956301312	50	4458
2026-01-10 00:32:52.98	59.25	22.48	-39.2	-41.0	21.0	0.00e+00	0	44	0	962592768	50	4306
2026-01-10 00:32:53.84	59.44	22.54	-39.2	-41.0	20.9	0.00e+00	0	44	0	966787072	50	4330
2026-01-10 00:32:54.98	59.71	22.63	-39.4	-41.2	20.8	0.00e+00	0	44	0	973078528	50	4401
2026-01-10 00:32:55.84	59.91	22.69	-39.5	-41.3	20.7	0.00e+00	0	44	0	978321408	50	4474
2026-01-10 00:32:56.99	60.18	22.78	-39.6	-41.5	20.5	0.00e+00	0	44	0	984612864	50	4565
2026-01-10 00:32:57.85	60.38	22.84	-39.7	-41.5	20.5	0.00e+00	0	44	0	989855744	50	4578
2026-01-10 00:32:59.00	60.65	22.93	-39.7	-41.5	20.5	0.00e+00	0	44	0	996147200	50	4563
2026-01-10 00:32:59.86	60.86	22.99	-39.4	-41.2	20.8	0.00e+00	0	44	0	1001390080	50	4398
2026-01-10 00:33:01.01	61.13	23.08	-39.1	-40.9	21.1	0.00e+00	0	44	0	1007681536	50	4263
2026-01-10 00:33:01.87	61.34	23.14	-39.1	-40.8	21.1	0.00e+00	0	44	0	1012924416	50	4231
2026-01-10 00:33:03.02	61.62	23.22	-39.1	-40.9	21.1	0.00e+00	0	44	0	1018167296	50	4262
2026-01-10 00:33:03.88	61.82	23.29	-39.1	-40.9	21.1	0.00e+00	0	44	0	1023410176	50	4252
2026-01-10 00:33:05.02	62.10	23.37	-39.2	-41.0	20.9	0.00e+00	0	44	0	1029701632	50	4333
2026-01-10 00:33:05.89	62.31	23.43	-39.3	-41.1	20.9	0.00e+00	0	44	0	1034944512	50	4355
2026-01-10 00:33:07.03	62.59	23.51	-39.3	-41.1	20.8	0.00e+00	0	44	0	1041235968	50	4372
2026-01-10 00:33:07.88	62.80	23.58	-39.3	-41.1	20.8	0.00e+00	0	44	0	1046478848	50	4387
2026-01-10 00:33:09.03	63.09	23.66	-39.3	-41.1	20.9	0.00e+00	0	44	0	1052770304	50	4350
2026-01-10 00:33:09.89	63.30	23.72	-39.3	-41.1	20.9	0.00e+00	0	44	0	1056964608	50	4349
2026-01-10 00:33:11.04	63.59	23.80	-39.1	-40.9	21.0	0.00e+00	0	44	0	1064304640	50	4270
2026-01-10 00:33:11.90	63.81	23.86	-39.1	-40.8	21.1	0.00e+00	0	44	0	1068498944	50	4241
2026-01-10 00:33:13.04	64.09	23.94	-39.1	-40.8	21.1	0.00e+00	0	44	0	1074790400	50	4228
2026-01-10 00:33:13.90	64.31	24.00	-39.1	-40.9	21.1	0.00e+00	0	44	0	1080033280	50	4253
2026-01-10 00:33:15.05	64.60	24.08	-39.2	-41.0	20.9	0.00e+00	0	44	0	1086324736	50	4324
2026-01-10 00:33:15.91	64.82	24.14	-39.1	-40.9	21.0	0.00e+00	0	44	0	1091567616	50	4285
2026-01-10 00:33:17.05	65.12	24.22	-39.1	-40.9	21.1	0.00e+00	0	44	0	1097859072	50	4262
2026-01-10 00:33:17.92	65.34	24.27	-39.2	-41.0	21.0	0.00e+00	0	44	0	1102053376	50	4306
2026-01-10 00:33:19.06	65.63	24.35	-39.1	-40.9	21.1	0.00e+00	0	44	0	1109393408	50	4260
2026-01-10 00:33:19.92	65.86	24.41	-39.2	-41.0	21.0	0.00e+00	0	44	0	1113587712	50	4315
2026-01-10 00:33:21.07	66.16	24.49	-39.2	-40.9	21.0	0.00e+00	0	44	0	1120927744	50	4283
2026-01-10 00:33:21.93	66.38	24.54	-39.0	-40.7	21.2	0.00e+00	0	44	0	1125122048	50	4190
2026-01-10 00:33:23.07	66.68	24.62	-38.9	-40.7	21.2	0.00e+00	0	44	0	1131413504	49	4405
2026-01-10 00:33:23.93	66.91	24.67	-39.0	-40.8	21.2	0.00e+00	0	44	0	1136656384	49	4450
2026-01-10 00:33:25.08	67.22	24.75	-39.1	-40.8	21.1	0.00e+00	0	44	0	1142947840	49	4485
2026-01-10 00:33:26.24	67.52	24.82	-39.1	-40.9	21.1	0.00e+00	0	44	0	1149239296	49	4512
2026-01-10 00:33:27.10	67.75	24.88	-39.2	-41.0	21.0	0.00e+00	0	44	0	1154482176	49	4554
2026-01-10 00:33:28.60	68.16	24.97	-39.1	-40.8	21.1	0.00e+00	0	44	0	1162870784	49	4489
2026-01-10 00:33:29.32	68.35	25.02	-39.0	-40.8	21.1	0.00e+00	0	44	0	1166016512	49	4478
2026-01-10 00:33:30.61	68.70	25.10	-39.1	-40.9	21.0	0.00e+00	0	44	0	1173356544	49	4502
2026-01-10 00:33:31.32	68.90	25.14	-39.2	-41.0	21.0	0.00e+00	0	44	0	1177550848	49	4548
2026-01-10 00:33:32.61	69.25	25.22	-39.1	-40.9	21.0	0.00e+00	0	44	0	1184890880	49	4534
2026-01-10 00:33:33.33	69.45	25.26	-39.1	-40.8	21.1	0.00e+00	0	44	0	1189085184	49	4487
2026-01-10 00:33:34.61	69.80	25.34	-38.7	-40.5	21.4	0.00e+00	0	44	0	1196425216	49	4314
2026-01-10 00:33:35.47	70.04	25.39	-38.8	-40.5	21.4	0.00e+00	0	44	0	1201668096	49	4318
2026-01-10 00:33:36.62	70.35	25.46	-38.8	-40.6	21.4	0.00e+00	0	44	0	1207959552	49	4361
2026-01-10 00:33:37.48	70.59	25.51	-38.9	-40.7	21.3	0.00e+00	0	44	0	1212153856	49	4407
2026-01-10 00:33:38.63	70.92	25.57	-38.7	-40.5	21.5	0.00e+00	0	44	0	1219493888	49	4295
2026-01-10 00:33:39.76	71.23	25.64	-38.7	-40.5	21.4	0.00e+00	0	44	0	1225785344	49	4312
2026-01-10 00:33:40.62	71.47	25.69	-38.8	-40.6	21.3	0.00e+00	0	44	0	1229979648	49	4375
2026-01-10 00:33:41.77	71.80	25.75	-38.8	-40.5	21.4	0.00e+00	0	44	0	1237319680	49	4331
2026-01-10 00:33:42.63	72.04	25.80	-38.8	-40.5	21.4	0.00e+00	0	44	0	1241513984	49	4326
2026-01-10 00:33:43.78	72.37	25.86	-38.8	-40.6	21.4	0.00e+00	0	44	0	1247805440	49	4349
2026-01-10 00:33:44.64	72.62	25.91	-38.9	-40.6	21.3	0.00e+00	0	44	0	1253048320	49	4376
2026-01-10 00:33:45.78	72.94	25.97	-38.8	-40.6	21.3	0.00e+00	0	44	0	1259339776	49	4373
2026-01-10 00:33:46.64	73.19	26.01	-38.8	-40.6	21.4	0.00e+00	0	44	0	1264582656	49	4351
2026-01-10 00:33:47.79	73.52	26.07	-38.9	-40.6	21.3	0.00e+00	0	44	0	1270874112	49	4376
2026-01-10 00:33:48.64	73.77	26.12	-38.8	-40.6	21.3	0.00e+00	0	44	0	1275068416	49	4354
2026-01-10 00:33:49.79	74.10	26.18	-38.9	-40.6	21.3	0.00e+00	0	44	0	1281359872	49	4388
2026-01-10 00:33:50.65	74.35	26.22	-38.8	-40.6	21.3	0.00e+00	0	44	0	1286602752	49	4379
2026-01-10 00:33:51.80	74.69	26.27	-38.8	-40.6	21.3	0.00e+00	0	44	0	1292894208	49	4368
2026-01-10 00:33:52.70	74.95	26.32	-38.7	-40.5	21.4	0.00e+00	0	44	0	1298137088	49	4327
2026-01-10 00:33:53.90	75.30	26.38	-38.8	-40.6	21.4	0.00e+00	0	44	0	1304428544	49	4346
2026-01-10 00:33:54.75	75.55	26.42	-38.9	-40.7	21.3	0.00e+00	0	44	0	1309671424	49	4419
2026-01-10 00:33:56.09	75.95	26.48	-38.7	-40.4	21.4	0.00e+00	0	44	0	1317011456	49	4288
2026-01-10 00:33:56.81	76.16	26.51	-38.6	-40.4	21.5	0.00e+00	0	44	0	1321205760	49	4252
2026-01-10 00:33:58.10	76.55	26.57	-38.7	-40.5	21.4	0.00e+00	0	44	0	1328545792	49	4318
2026-01-10 00:33:58.82	76.76	26.60	-38.8	-40.6	21.4	0.00e+00	0	44	0	1332740096	49	4363
2026-01-10 00:34:00.11	77.15	26.66	-38.9	-40.7	21.2	0.00e+00	0	44	0	1340080128	49	4417
2026-01-10 00:34:00.87	77.38	26.69	-38.9	-40.7	21.3	0.00e+00	0	44	0	1344274432	49	4417
2026-01-10 00:34:02.16	77.76	26.74	-38.9	-40.7	21.2	0.00e+00	0	44	0	1351614464	49	4437
2026-01-10 00:34:02.97	78.01	26.78	-38.8	-40.6	21.4	0.00e+00	0	44	0	1355808768	49	4341
2026-01-10 00:34:04.12	78.36	26.82	-38.7	-40.5	21.4	0.00e+00	0	44	0	1362100224	49	4319
2026-01-10 00:34:05.22	78.69	26.87	-38.8	-40.6	21.3	0.00e+00	0	44	0	1368391680	49	4373
2026-01-10 00:34:06.25	79.00	26.90	-38.7	-40.5	21.4	0.00e+00	0	44	0	1374683136	49	4314
2026-01-10 00:34:07.25	79.31	26.94	-38.6	-40.4	21.5	0.00e+00	0	44	0	1379926016	49	4271
2026-01-10 00:34:08.26	79.62	26.98	-38.5	-40.2	21.7	0.00e+00	0	44	0	1385168896	49	4186
2026-01-10 00:34:09.26	79.92	27.02	-38.5	-40.2	21.7	0.00e+00	0	44	0	1391460352	48	4432
2026-01-10 00:34:10.26	80.23	27.05	-38.6	-40.3	21.6	0.00e+00	0	44	0	1396703232	48	4475
2026-01-10 00:34:11.27	80.54	27.09	-38.5	-40.3	21.6	0.00e+00	0	44	0	1402994688	48	4460
2026-01-10 00:34:12.27	80.85	27.12	-38.6	-40.3	21.6	0.00e+00	0	44	0	1408237568	48	4490
2026-01-10 00:34:13.27	81.16	27.15	-38.6	-40.3	21.6	0.00e+00	0	44	0	1414529024	48	4467
2026-01-10 00:34:14.27	81.47	27.18	-38.5	-40.2	21.7	0.00e+00	0	44	0	1419771904	48	4417
2026-01-10 00:34:15.28	81.78	27.22	-38.5	-40.3	21.7	0.00e+00	0	44	0	1425014784	48	4446
2026-01-10 00:34:16.28	82.09	27.25	-38.7	-40.5	21.4	0.00e+00	0	44	0	1431306240	48	4570
2026-01-10 00:34:17.28	82.40	27.28	-38.8	-40.6	21.3	0.00e+00	0	44	0	1436549120	48	4609
2026-01-10 00:34:18.30	82.72	27.30	-38.8	-40.5	21.4	0.00e+00	0	44	0	1441792000	48	4597
2026-01-10 00:34:19.30	83.03	27.33	-38.8	-40.5	21.4	0.00e+00	0	44	0	1448083456	48	4596
2026-01-10 00:34:20.37	83.37	27.36	-38.7	-40.5	21.4	0.00e+00	0	44	0	1454374912	48	4587
2026-01-10 00:34:21.26	83.64	27.38	-38.8	-40.5	21.4	0.00e+00	0	44	0	1458569216	48	4597
2026-01-10 00:34:22.61	84.07	27.42	-38.8	-40.7	21.3	0.00e+00	0	44	0	1465909248	48	4658
2026-01-10 00:34:23.33	84.29	27.43	-38.9	-40.8	21.2	0.00e+00	0	44	0	1470103552	48	4714
2026-01-10 00:34:24.62	84.70	27.46	-38.8	-40.6	21.3	0.00e+00	0	44	0	1477443584	48	4639
2026-01-10 00:34:25.33	84.92	27.48	-38.8	-40.6	21.4	0.00e+00	0	44	0	1481637888	48	4609
2026-01-10 00:34:26.63	85.33	27.51	-38.7	-40.5	21.4	0.00e+00	0	44	0	1488977920	48	4592
2026-01-10 00:34:27.34	85.56	27.52	-38.7	-40.6	21.4	0.00e+00	0	44	0	1493172224	48	4599
2026-01-10 00:34:28.63	85.97	27.55	-38.6	-40.3	21.6	0.00e+00	0	44	0	1500512256	48	4488
2026-01-10 00:34:29.46	86.23	27.56	-38.6	-40.4	21.5	0.00e+00	0	44	0	1504706560	48	4506
2026-01-10 00:34:30.61	86.60	27.58	-38.5	-40.3	21.6	0.00e+00	0	44	0	1510998016	48	4460
2026-01-10 00:34:31.47	86.87	27.60	-38.6	-40.3	21.6	0.00e+00	0	44	0	1516240896	48	4477
2026-01-10 00:34:32.61	87.23	27.61	-38.6	-40.4	21.6	0.00e+00	0	44	0	1522532352	48	4499
2026-01-10 00:34:33.75	87.59	27.63	-38.6	-40.4	21.5	0.00e+00	0	44	0	1528823808	48	4524
2026-01-10 00:34:34.60	87.87	27.64	-38.6	-40.4	21.6	0.00e+00	0	44	0	1534066688	48	4494
2026-01-10 00:34:35.75	88.23	27.66	-38.5	-40.3	21.6	0.00e+00	0	44	0	1540358144	48	4456
2026-01-10 00:34:36.61	88.51	27.67	-38.6	-40.3	21.6	0.00e+00	0	44	0	1545601024	48	4476
2026-01-10 00:34:37.75	88.87	27.68	-38.6	-40.3	21.6	0.00e+00	0	44	0	1551892480	48	4483
2026-01-10 00:34:38.61	89.15	27.69	-38.4	-40.2	21.7	0.00e+00	0	44	0	1556086784	48	4412
2026-01-10 00:34:39.76	89.51	27.70	-38.5	-40.2	21.7	0.00e+00	0	44	0	1562378240	48	4425
2026-01-10 00:34:40.62	89.79	27.71	-38.6	-40.3	21.6	0.00e+00	0	44	0	1567621120	48	4480
2026-01-10 00:34:41.76	90.15	27.71	-38.7	-40.5	21.5	0.00e+00	0	44	0	1573912576	48	4571
2026-01-10 00:34:42.62	90.43	27.72	-38.7	-40.5	21.4	0.00e+00	0	44	0	1579155456	48	4587
2026-01-10 00:34:43.77	90.80	27.73	-38.8	-40.5	21.4	0.00e+00	0	44	0	1585446912	48	4591
2026-01-10 00:34:44.63	91.07	27.73	-38.7	-40.5	21.5	0.00e+00	0	44	0	1590689792	48	4547
2026-01-10 00:34:45.77	91.44	27.73	-38.6	-40.4	21.6	0.00e+00	0	44	0	1596981248	48	4494
2026-01-10 00:34:46.63	91.71	27.74	-38.7	-40.5	21.5	0.00e+00	0	44	0	1601175552	48	4564
2026-01-10 00:34:48.11	92.19	27.74	-38.7	-40.4	21.5	0.00e+00	0	44	0	1609564160	48	4544
2026-01-10 00:34:48.83	92.42	27.74	-38.6	-40.3	21.6	0.00e+00	0	44	0	1613758464	48	4487
2026-01-10 00:34:50.12	92.83	27.74	-38.7	-40.5	21.4	0.00e+00	0	44	0	1621098496	48	4584
2026-01-10 00:34:50.83	93.06	27.74	-38.6	-40.4	21.5	0.00e+00	0	44	0	1625292800	48	4536
2026-01-10 00:34:52.12	93.47	27.73	-38.7	-40.4	21.5	0.00e+00	0	44	0	1632632832	48	4534
2026-01-10 00:34:52.84	93.71	27.73	-38.7	-40.4	21.5	0.00e+00	0	44	0	1636827136	48	4532
2026-01-10 00:34:54.13	94.12	27.72	-38.5	-40.3	21.6	0.00e+00	0	44	0	1644167168	48	4448
2026-01-10 00:34:54.84	94.35	27.72	-38.6	-40.3	21.6	0.00e+00	0	44	0	1647312896	48	4471
2026-01-10 00:34:56.14	94.76	27.71	-38.5	-40.3	21.6	0.00e+00	0	44	0	1654652928	48	4458
2026-01-10 00:34:57.06	95.06	27.70	-38.6	-40.4	21.6	0.00e+00	0	44	0	1659895808	48	4507
2026-01-10 00:34:58.06	95.38	27.70	-38.6	-40.4	21.6	0.00e+00	0	44	0	1666187264	48	4506
2026-01-10 00:34:59.45	95.82	27.68	-38.7	-40.5	21.4	0.00e+00	0	44	0	1673527296	48	4575
2026-01-10 00:35:00.20	96.06	27.68	-38.8	-40.6	21.3	0.00e+00	0	44	0	1677721600	48	4649
2026-01-10 00:35:01.48	96.47	27.66	-38.8	-40.6	21.4	0.00e+00	0	44	0	1685061632	48	4602
2026-01-10 00:35:02.25	96.72	27.65	-38.8	-40.6	21.4	0.00e+00	0	44	0	1689255936	48	4609
2026-01-10 00:35:03.54	97.13	27.63	-38.8	-40.6	21.3	0.00e+00	0	44	0	1696595968	48	4631
2026-01-10 00:35:04.25	97.35	27.62	-38.8	-40.6	21.3	0.00e+00	0	44	0	1700790272	48	4628
2026-01-10 00:35:05.55	97.77	27.60	-39.0	-40.8	21.2	0.00e+00	0	44	0	1708130304	48	4736
2026-01-10 00:35:06.26	97.99	27.59	-38.9	-40.7	21.2	0.00e+00	0	44	0	1712324608	48	4692
2026-01-10 00:35:07.55	98.40	27.57	-38.9	-40.7	21.3	0.00e+00	0	44	0	1719664640	48	4667
2026-01-10 00:35:08.27	98.63	27.56	-38.9	-40.7	21.2	0.00e+00	0	44	0	1723858944	48	4693
2026-01-10 00:35:09.62	99.06	27.53	-38.7	-40.4	21.5	0.00e+00	0	44	0	1731198976	48	4543
2026-01-10 00:35:10.34	99.29	27.52	-38.6	-40.3	21.6	0.00e+00	0	44	0	1735393280	48	4487
2026-01-10 00:35:11.68	99.71	27.49	-38.6	-40.4	21.5	0.00e+00	0	44	0	1742733312	48	4505
2026-01-10 00:35:12.67	100.03	27.47	-38.7	-40.5	21.4	0.00e+00	0	44	0	1747976192	48	4567
2026-01-10 00:35:13.97	100.44	27.44	-38.9	-40.7	21.3	0.00e+00	0	44	0	1755316224	48	4663
2026-01-10 00:35:14.69	100.66	27.42	-38.8	-40.7	21.3	0.00e+00	0	44	0	1759510528	48	4654
2026-01-10 00:35:15.98	101.07	27.39	-38.8	-40.6	21.4	0.00e+00	0	44	0	1766850560	48	4604
2026-01-10 00:35:16.69	101.29	27.37	-38.8	-40.5	21.4	0.00e+00	0	44	0	1771044864	48	4582
2026-01-10 00:35:17.98	101.70	27.34	-38.7	-40.5	21.5	0.00e+00	0	44	0	1778384896	48	4560
2026-01-10 00:35:18.70	101.92	27.32	-38.7	-40.5	21.5	0.00e+00	0	44	0	1781530624	48	4547
2026-01-10 00:35:19.99	102.32	27.28	-38.7	-40.5	21.5	0.00e+00	0	44	0	1788870656	48	4554
2026-01-10 00:35:20.71	102.55	27.26	-38.7	-40.4	21.5	0.00e+00	0	44	0	1793064960	48	4533
2026-01-10 00:35:22.00	102.95	27.22	-38.7	-40.5	21.5	0.00e+00	0	44	0	1800404992	48	4565
2026-01-10 00:35:22.71	103.17	27.20	-38.5	-40.3	21.6	0.00e+00	0	44	0	1804599296	48	4463
2026-01-10 00:35:24.00	103.57	27.16	-38.5	-40.2	21.7	0.00e+00	0	44	0	1811939328	48	4422
2026-01-10 00:35:24.72	103.79	27.13	-38.6	-40.4	21.6	0.00e+00	0	44	0	1816133632	48	4496
2026-01-10 00:35:26.01	104.19	27.09	-38.8	-40.5	21.4	0.00e+00	0	44	0	1823473664	48	4593
2026-01-10 00:35:26.72	104.41	27.07	-38.9	-40.7	21.3	0.00e+00	0	44	0	1827667968	48	4670
2026-01-10 00:35:28.01	104.81	27.02	-39.0	-40.9	21.1	0.00e+00	0	44	0	1833959424	48	4760
2026-01-10 00:35:28.73	105.03	26.99	-39.0	-40.8	21.1	0.00e+00	0	44	0	1838153728	48	4741
2026-01-10 00:35:30.35	105.52	26.94	-39.0	-40.8	21.2	0.00e+00	0	44	0	1847590912	48	4713
2026-01-10 00:35:30.92	105.70	26.91	-39.1	-40.9	21.1	0.00e+00	0	44	0	1850736640	48	4767
2026-01-10 00:35:32.52	106.19	26.85	-38.9	-40.7	21.3	0.00e+00	0	44	0	1859125248	49	4393
2026-01-10 00:35:33.09	106.36	26.83	-38.9	-40.7	21.3	0.00e+00	0	44	0	1863319552	49	4397
2026-01-10 00:35:34.75	106.86	26.76	-39.0	-40.8	21.2	0.00e+00	0	44	0	1871708160	49	4488
2026-01-10 00:35:35.33	107.04	26.74	-39.1	-40.9	21.1	0.00e+00	0	44	0	1875902464	49	4522
2026-01-10 00:35:36.90	107.51	26.67	-39.2	-41.1	21.0	0.00e+00	0	44	0	1884291072	49	4610
2026-01-10 00:35:37.51	107.69	26.65	-39.3	-41.1	20.9	0.00e+00	0	44	0	1887436800	49	4625
2026-01-10 00:35:39.08	108.16	26.58	-38.8	-40.6	21.4	0.00e+00	0	44	0	1896873984	49	4369
2026-01-10 00:35:40.04	108.45	26.53	-38.8	-40.5	21.4	0.00e+00	0	44	0	1902116864	49	4335
2026-01-10 00:35:41.04	108.75	26.49	-38.8	-40.6	21.4	0.00e+00	0	44	0	1907359744	49	4376
2026-01-10 00:35:42.04	109.05	26.44	-38.9	-40.7	21.3	0.00e+00	0	44	0	1913651200	49	4395
2026-01-10 00:35:43.05	109.34	26.40	-39.0	-40.7	21.2	0.00e+00	0	44	0	1918894080	49	4439
2026-01-10 00:35:44.05	109.64	26.35	-39.1	-40.9	21.1	0.00e+00	0	44	0	1924136960	49	4507
2026-01-10 00:35:45.05	109.93	26.30	-39.0	-40.8	21.1	0.00e+00	0	44	0	1930428416	49	4460
2026-01-10 00:35:46.06	110.23	26.25	-39.0	-40.8	21.1	0.00e+00	0	44	0	1935671296	49	4479
2026-01-10 00:35:47.06	110.52	26.20	-39.1	-40.9	21.1	0.00e+00	0	44	0	1940914176	49	4524
2026-01-10 00:35:48.06	110.82	26.15	-39.1	-40.9	21.1	0.00e+00	0	44	0	1947205632	49	4533
2026-01-10 00:35:49.07	111.11	26.10	-39.0	-40.8	21.1	0.00e+00	0	44	0	1952448512	49	4475
2026-01-10 00:35:50.07	111.40	26.05	-39.1	-40.9	21.1	0.00e+00	0	44	0	1958739968	49	4503
2026-01-10 00:35:51.07	111.69	25.99	-39.1	-40.9	21.0	0.00e+00	0	44	0	1963982848	49	4529
2026-01-10 00:35:52.08	111.98	25.94	-39.2	-41.0	20.9	0.00e+00	0	44	0	1970274304	49	4581
2026-01-10 00:35:53.08	112.27	25.89	-39.2	-41.0	21.0	0.00e+00	0	44	0	1975517184	49	4577
2026-01-10 00:35:54.46	112.66	25.81	-38.9	-40.7	21.2	0.00e+00	0	44	0	1982857216	49	4414
2026-01-10 00:35:55.22	112.88	25.77	-38.8	-40.6	21.4	0.00e+00	0	44	0	1987051520	49	4345
2026-01-10 00:35:56.85	113.34	25.68	-38.8	-40.6	21.4	0.00e+00	0	44	0	1996488704	49	4372
2026-01-10 00:35:57.42	113.50	25.65	-38.9	-40.7	21.3	0.00e+00	0	44	0	1999634432	49	4404
2026-01-10 00:35:59.00	113.95	25.56	-39.1	-41.0	21.0	0.00e+00	0	44	0	2009071616	49	4552
2026-01-10 00:35:59.58	114.11	25.52	-39.1	-41.0	21.0	0.00e+00	0	44	0	2012217344	49	4548
2026-01-10 00:36:01.16	114.55	25.43	-39.2	-41.1	20.9	0.00e+00	0	44	0	2020605952	49	4600
2026-01-10 00:36:01.92	114.76	25.39	-39.3	-41.1	20.9	0.00e+00	0	44	0	2024800256	49	4625
2026-01-10 00:36:03.21	115.12	25.31	-39.4	-41.2	20.8	0.00e+00	0	44	0	2032140288	49	4702
2026-01-10 00:36:03.93	115.32	25.26	-39.4	-41.1	20.9	0.00e+00	0	44	0	2036334592	49	4650
2026-01-10 00:36:05.22	115.67	25.19	-39.3	-41.1	20.9	0.00e+00	0	44	0	2043674624	49	4630
2026-01-10 00:36:05.93	115.87	25.14	-39.4	-41.2	20.9	0.00e+00	0	44	0	2047868928	49	4657
2026-01-10 00:36:07.24	116.22	25.06	-39.5	-41.3	20.7	0.00e+00	0	44	0	2055208960	49	4741
2026-01-10 00:36:07.96	116.42	25.02	-39.5	-41.3	20.7	0.00e+00	0	44	0	2059403264	49	4723
2026-01-10 00:36:09.25	116.77	24.93	-39.4	-41.2	20.8	0.00e+00	0	44	0	2066743296	49	4669
2026-01-10 00:36:09.96	116.96	24.89	-39.4	-41.2	20.8	0.00e+00	0	44	0	2069889024	49	4678
2026-01-10 00:36:11.25	117.31	24.81	-39.5	-41.3	20.7	0.00e+00	0	44	0	2077229056	49	4755
2026-01-10 00:36:11.96	117.50	24.76	-39.3	-41.1	20.9	0.00e+00	0	44	0	2081423360	49	4627
2026-01-10 00:36:13.25	117.84	24.68	-39.1	-40.9	21.0	0.00e+00	0	44	0	2088763392	49	4528
2026-01-10 00:36:13.97	118.03	24.63	-39.2	-41.0	21.0	0.00e+00	0	44	0	2092957696	49	4554
2026-01-10 00:36:15.26	118.37	24.55	-39.2	-41.1	20.9	0.00e+00	0	44	0	2100297728	49	4602
2026-01-10 00:36:15.98	118.56	24.50	-39.2	-41.0	21.0	0.00e+00	0	44	0	2104492032	49	4567
2026-01-10 00:36:17.27	118.90	24.41	-39.3	-41.1	20.9	0.00e+00	0	44	0	2110783488	49	4646
2026-01-10 00:36:17.98	119.09	24.36	-39.3	-41.2	20.9	0.00e+00	0	44	0	2114977792	49	4659
2026-01-10 00:36:19.28	119.43	24.28	-39.4	-41.2	20.8	0.00e+00	0	44	0	2122317824	49	4690
2026-01-10 00:36:19.99	119.61	24.23	-39.3	-41.1	20.8	0.00e+00	0	44	0	2126512128	49	4643
2026-01-10 00:36:21.28	119.94	24.14	-39.4	-41.3	20.7	0.00e+00	0	44	0	2133852160	49	4714
2026-01-10 00:36:22.00	120.13	24.09	-39.4	-41.3	20.7	0.00e+00	0	44	0	2138046464	49	4726
2026-01-10 00:36:23.29	120.46	24.00	-39.5	-41.4	20.6	0.00e+00	0	44	0	2145386496	49	4774
2026-01-10 00:36:24.01	120.64	23.95	-39.5	-41.3	20.6	0.00e+00	0	44	0	2149580800	49	4745
2026-01-10 00:36:25.30	120.97	23.86	-39.5	-41.3	20.6	0.00e+00	0	44	0	2156920832	49	4741
2026-01-10 00:36:26.01	121.15	23.81	-39.4	-41.3	20.7	0.00e+00	0	44	0	2160066560	49	4719
2026-01-10 00:36:27.30	121.47	23.72	-39.4	-41.2	20.7	0.00e+00	0	44	0	2167406592	49	4696
2026-01-10 00:36:28.02	121.65	23.67	-39.3	-41.1	20.9	0.00e+00	0	44	0	2171600896	49	4634
2026-01-10 00:36:29.30	121.97	23.57	-39.4	-41.2	20.8	0.00e+00	0	44	0	2178940928	49	4675
2026-01-10 00:36:30.08	122.16	23.52	-39.5	-41.3	20.7	0.00e+00	0	44	0	2183135232	49	4714
2026-01-10 00:36:31.58	122.53	23.41	-39.5	-41.3	20.7	0.00e+00	0	44	0	2191523840	49	4750
2026-01-10 00:36:32.30	122.71	23.36	-39.5	-41.3	20.7	0.00e+00	0	44	0	2195718144	49	4733
2026-01-10 00:36:33.59	123.02	23.26	-39.4	-41.2	20.7	0.00e+00	0	44	0	2203058176	49	4697
2026-01-10 00:36:34.30	123.20	23.21	-39.4	-41.2	20.8	0.00e+00	0	44	0	2207252480	49	4671
2026-01-10 00:36:35.60	123.51	23.11	-39.4	-41.2	20.8	0.00e+00	0	44	0	2214592512	49	4673
2026-01-10 00:36:36.31	123.68	23.06	-39.3	-41.1	20.9	0.00e+00	0	44	0	2218786816	49	4630
2026-01-10 00:36:37.60	123.99	22.97	-39.5	-41.3	20.7	0.00e+00	0	44	0	2226126848	49	4719
2026-01-10 00:36:38.32	124.16	22.91	-39.6	-41.4	20.6	0.00e+00	0	44	0	2229272576	49	4779
2026-01-10 00:36:39.61	124.47	22.81	-39.6	-41.4	20.6	0.00e+00	0	44	0	2236612608	49	4790
2026-01-10 00:36:40.32	124.64	22.76	-39.5	-41.3	20.7	0.00e+00	0	44	0	2240806912	49	4736
2026-01-10 00:36:41.61	124.94	22.66	-39.6	-41.4	20.6	0.00e+00	0	44	0	2248146944	49	4786
2026-01-10 00:36:42.33	125.11	22.61	-39.6	-41.4	20.6	0.00e+00	0	44	0	2252341248	49	4797
2026-01-10 00:36:43.62	125.41	22.51	-39.6	-41.4	20.5	0.00e+00	0	44	0	2259681280	49	4803
2026-01-10 00:36:44.34	125.58	22.46	-39.6	-41.4	20.6	0.00e+00	0	44	0	2263875584	49	4796
2026-01-10 00:36:45.64	125.88	22.36	-39.6	-41.4	20.6	0.00e+00	0	44	0	2271215616	49	4779
2026-01-10 00:36:46.36	126.04	22.30	-39.7	-41.5	20.5	0.00e+00	0	44	0	2275409920	49	4836
2026-01-10 00:36:47.65	126.34	22.20	-39.6	-41.4	20.6	0.00e+00	0	44	0	2282749952	49	4796
2026-01-10 00:36:48.37	126.50	22.15	-39.6	-41.4	20.6	0.00e+00	0	44	0	2286944256	49	4796
2026-01-10 00:36:49.66	126.79	22.05	-39.8	-41.6	20.4	0.00e+00	0	44	0	2293235712	50	4623
2026-01-10 00:36:50.38	126.96	21.99	-39.9	-41.8	20.3	0.00e+00	0	44	0	2297430016	50	4718
2026-01-10 00:36:51.67	127.24	21.89	-40.0	-41.9	20.2	0.00e+00	0	44	0	2304770048	50	4773
2026-01-10 00:36:52.38	127.40	21.83	-40.1	-42.0	20.0	0.00e+00	0	44	0	2308964352	50	4860
2026-01-10 00:36:53.67	127.69	21.73	-40.0	-41.9	20.1	0.00e+00	0	44	0	2316304384	50	4813
2026-01-10 00:36:54.39	127.85	21.68	-40.1	-42.0	20.1	0.00e+00	0	44	0	2320498688	50	4818
2026-01-10 00:36:55.68	128.13	21.58	-39.9	-41.8	20.3	0.00e+00	0	44	0	2327838720	50	4722
2026-01-10 00:36:56.40	128.29	21.52	-39.9	-41.8	20.3	0.00e+00	0	44	0	2330984448	50	4707
2026-01-10 00:36:57.69	128.57	21.42	-39.8	-41.6	20.4	0.00e+00	0	44	0	2338324480	50	4642
2026-01-10 00:36:58.67	128.78	21.34	-39.8	-41.6	20.4	0.00e+00	0	44	0	2344615936	50	4624
2026-01-10 00:36:59.68	129.00	21.26	-39.9	-41.8	20.2	0.00e+00	0	44	0	2349858816	50	4712
2026-01-10 00:37:00.68	129.21	21.18	-39.9	-41.7	20.3	0.00e+00	0	44	0	2356150272	50	4690
2026-01-10 00:37:01.68	129.43	21.10	-40.0	-41.8	20.2	0.00e+00	0	44	0	2361393152	50	4733
2026-01-10 00:37:02.69	129.64	21.02	-40.0	-41.8	20.2	0.00e+00	0	44	0	2366636032	50	4752
2026-01-10 00:37:03.69	129.85	20.94	-40.0	-41.9	20.1	0.00e+00	0	44	0	2372927488	50	4773
2026-01-10 00:37:04.69	130.06	20.86	-40.1	-41.9	20.1	0.00e+00	0	44	0	2378170368	50	4810
2026-01-10 00:37:05.69	130.27	20.78	-40.1	-41.9	20.1	0.00e+00	0	44	0	2383413248	50	4805
2026-01-10 00:37:06.76	130.49	20.69	-40.0	-41.9	20.1	0.00e+00	0	44	0	2389704704	50	4793
2026-01-10 00:37:07.64	130.68	20.62	-40.0	-41.9	20.1	0.00e+00	0	44	0	2394947584	50	4782
2026-01-10 00:37:08.78	130.91	20.53	-40.0	-41.9	20.1	0.00e+00	0	44	0	2401239040	50	4791
2026-01-10 00:37:09.65	131.09	20.46	-40.1	-42.0	20.0	0.00e+00	0	44	0	2406481920	50	4847
2026-01-10 00:37:10.79	131.32	20.37	-40.2	-42.0	19.9	0.00e+00	0	44	0	2412773376	51	4593
2026-01-10 00:37:11.65	131.49	20.30	-40.2	-42.1	19.9	0.00e+00	0	44	0	2416967680	51	4610
2026-01-10 00:37:12.80	131.73	20.21	-40.2	-42.1	19.9	0.00e+00	0	44	0	2423259136	51	4638
2026-01-10 00:37:13.66	131.90	20.14	-40.3	-42.2	19.8	0.00e+00	0	44	0	2428502016	51	4665
2026-01-10 00:37:14.80	132.13	20.04	-40.3	-42.1	19.9	0.00e+00	0	44	0	2434793472	51	4643
2026-01-10 00:37:15.66	132.30	19.97	-40.2	-42.1	19.9	0.00e+00	0	44	0	2440036352	51	4621
2026-01-10 00:37:16.81	132.52	19.88	-40.3	-42.2	19.8	0.00e+00	0	44	0	2446327808	51	4688
2026-01-10 00:37:17.67	132.69	19.81	-40.3	-42.2	19.8	0.00e+00	0	44	0	2450522112	51	4697
2026-01-10 00:37:18.81	132.91	19.72	-40.4	-42.3	19.7	0.00e+00	0	44	0	2457862144	51	4744
2026-01-10 00:37:19.67	133.08	19.65	-40.5	-42.5	19.6	0.00e+00	0	44	0	2462056448	51	4818
2026-01-10 00:37:20.82	133.30	19.55	-40.6	-42.6	19.5	0.00e+00	0	44	0	2469396480	51	4897
2026-01-10 00:37:21.73	133.48	19.48	-40.6	-42.6	19.5	0.00e+00	0	44	0	2473590784	51	4893
2026-01-10 00:37:22.91	133.70	19.38	-40.6	-42.6	19.4	0.00e+00	0	44	0	2480930816	52	4603
2026-01-10 00:37:23.82	133.88	19.31	-40.8	-42.7	19.2	0.00e+00	0	44	0	2485125120	52	4701
2026-01-10 00:37:25.00	134.10	19.21	-40.7	-42.6	19.3	0.00e+00	0	44	0	2492465152	52	4644
2026-01-10 00:37:25.86	134.26	19.14	-40.6	-42.6	19.4	0.00e+00	0	44	0	2496659456	52	4613
2026-01-10 00:37:27.00	134.48	19.05	-40.8	-42.7	19.3	0.00e+00	0	44	0	2503999488	52	4682
2026-01-10 00:37:27.86	134.64	18.98	-40.7	-42.7	19.3	0.00e+00	0	44	0	2508193792	52	4663
2026-01-10 00:37:29.00	134.85	18.89	-40.7	-42.6	19.3	0.00e+00	0	44	0	2514485248	52	4625
2026-01-10 00:37:29.86	135.01	18.82	-40.7	-42.6	19.3	0.00e+00	0	44	0	2519728128	52	4618
2026-01-10 00:37:31.01	135.22	18.72	-40.7	-42.7	19.2	0.00e+00	0	44	0	2526019584	52	4671
2026-01-10 00:37:31.87	135.37	18.65	-40.8	-42.7	19.2	0.00e+00	0	44	0	2531262464	52	4683
2026-01-10 00:37:33.02	135.58	18.56	-40.7	-42.6	19.3	0.00e+00	0	44	0	2537553920	52	4645
2026-01-10 00:37:33.88	135.74	18.49	-40.7	-42.7	19.3	0.00e+00	0	44	0	2542796800	52	4667
2026-01-10 00:37:35.03	135.94	18.39	-40.8	-42.8	19.2	0.00e+00	0	44	0	2549088256	52	4733
2026-01-10 00:37:35.89	136.10	18.32	-40.9	-42.8	19.1	0.00e+00	0	44	0	2553282560	52	4759
2026-01-10 00:37:37.10	136.31	18.22	-41.0	-42.9	19.0	0.00e+00	0	44	0	2560622592	52	4808
2026-01-10 00:37:37.96	136.46	18.15	-40.9	-42.9	19.1	0.00e+00	0	44	0	2564816896	52	4781
2026-01-10 00:37:39.15	136.67	18.06	-40.9	-42.9	19.1	0.00e+00	0	44	0	2572156928	52	4786
2026-01-10 00:37:40.01	136.82	17.99	-41.0	-42.9	19.0	0.00e+00	0	44	0	2576351232	52	4811
2026-01-10 00:37:41.16	137.02	17.89	-40.9	-42.9	19.1	0.00e+00	0	44	0	2583691264	52	4767
2026-01-10 00:37:42.02	137.17	17.82	-40.9	-42.9	19.1	0.00e+00	0	44	0	2587885568	52	4785
2026-01-10 00:37:43.16	137.37	17.73	-40.9	-42.8	19.2	0.00e+00	0	44	0	2594177024	52	4734
2026-01-10 00:37:44.03	137.52	17.66	-40.8	-42.7	19.2	0.00e+00	0	44	0	2599419904	52	4701
2026-01-10 00:37:45.18	137.71	17.56	-40.7	-42.6	19.4	0.00e+00	0	44	0	2605711360	52	4616
2026-01-10 00:37:46.14	137.87	17.48	-40.7	-42.6	19.3	0.00e+00	0	44	0	2610954240	52	4633
2026-01-10 00:37:47.31	138.07	17.39	-40.7	-42.7	19.3	0.00e+00	0	44	0	2618294272	52	4675
2026-01-10 00:37:48.17	138.21	17.32	-40.9	-42.8	19.1	0.00e+00	0	44	0	2622488576	52	4752
2026-01-10 00:37:49.51	138.44	17.21	-40.8	-42.8	19.2	0.00e+00	0	44	0	2629828608	52	4715
2026-01-10 00:37:50.22	138.56	17.15	-40.7	-42.6	19.3	0.00e+00	0	44	0	2634022912	52	4650
2026-01-10 00:37:51.51	138.77	17.05	-40.7	-42.6	19.4	0.00e+00	0	44	0	2641362944	52	4620
2026-01-10 00:37:52.23	138.89	16.99	-40.7	-42.6	19.3	0.00e+00	0	44	0	2645557248	52	4633
2026-01-10 00:37:53.52	139.10	16.88	-40.7	-42.7	19.3	0.00e+00	0	44	0	2652897280	52	4656
2026-01-10 00:37:54.24	139.21	16.83	-40.8	-42.7	19.3	0.00e+00	0	44	0	2657091584	52	4673
2026-01-10 00:37:55.53	139.42	16.72	-40.9	-42.8	19.2	0.00e+00	0	44	0	2664431616	52	4738
2026-01-10 00:37:56.25	139.54	16.66	-40.9	-42.9	19.1	0.00e+00	0	44	0	2668625920	52	4760
2026-01-10 00:37:57.54	139.74	16.56	-41.0	-43.0	19.0	0.00e+00	0	44	0	2674917376	52	4862
2026-01-10 00:37:58.25	139.85	16.50	-41.0	-43.0	19.0	0.00e+00	0	44	0	2679111680	52	4825
2026-01-10 00:37:59.54	140.06	16.40	-41.1	-43.1	18.9	0.00e+00	0	44	0	2686451712	52	4892
2026-01-10 00:38:00.26	140.17	16.34	-41.1	-43.1	18.9	0.00e+00	0	44	0	2690646016	52	4907
2026-01-10 00:38:01.58	140.38	16.23	-41.1	-43.1	18.9	0.00e+00	0	44	0	2697986048	52	4913
2026-01-10 00:38:02.29	140.49	16.17	-41.1	-43.1	18.9	0.00e+00	0	44	0	2702180352	52	4894
2026-01-10 00:38:03.65	140.70	16.06	-41.2	-43.2	18.8	0.00e+00	0	44	0	2709520384	53	4683
2026-01-10 00:38:04.36	140.81	16.01	-41.3	-43.3	18.7	0.00e+00	0	44	0	2713714688	53	4706
2026-01-10 00:38:05.65	141.00	15.90	-41.4	-43.4	18.6	0.00e+00	0	44	0	2721054720	53	4775
2026-01-10 00:38:06.37	141.11	15.84	-41.3	-43.3	18.7	0.00e+00	0	44	0	2725249024	53	4718
2026-01-10 00:38:07.79	141.33	15.73	-41.3	-43.4	18.6	0.00e+00	0	44	0	2732589056	53	4762
2026-01-10 00:38:08.50	141.44	15.67	-41.4	-43.4	18.6	0.00e+00	0	44	0	2736783360	53	4802
2026-01-10 00:38:09.80	141.63	15.57	-41.4	-43.4	18.6	0.00e+00	0	44	0	2744123392	53	4777
2026-01-10 00:38:10.51	141.74	15.51	-41.5	-43.5	18.5	0.00e+00	0	44	0	2748317696	53	4854
2026-01-10 00:38:11.80	141.93	15.41	-41.5	-43.6	18.4	0.00e+00	0	44	0	2755657728	53	4879
2026-01-10 00:38:12.52	142.03	15.35	-41.5	-43.6	18.4	0.00e+00	0	44	0	2759852032	53	4894
2026-01-10 00:38:13.81	142.22	15.25	-41.7	-43.8	18.3	0.00e+00	0	44	0	2767192064	53	4998
2026-01-10 00:38:14.53	142.33	15.19	-41.6	-43.7	18.3	0.00e+00	0	44	0	2771386368	54	4694
2026-01-10 00:38:15.82	142.51	15.09	-41.6	-43.7	18.3	0.00e+00	0	44	0	2777677824	54	4685
2026-01-10 00:38:16.56	142.62	15.03	-41.6	-43.7	18.3	0.00e+00	0	44	0	2781872128	54	4692
2026-01-10 00:38:17.85	142.81	14.93	-41.6	-43.6	18.4	0.00e+00	0	44	0	2789212160	54	4651
2026-01-10 00:38:18.57	142.91	14.87	-41.5	-43.6	18.4	0.00e+00	0	44	0	2793406464	54	4619
2026-01-10 00:38:19.86	143.09	14.77	-41.4	-43.4	18.6	0.00e+00	0	44	0	2800746496	54	4540
2026-01-10 00:38:20.58	143.19	14.71	-41.5	-43.5	18.5	0.00e+00	0	44	0	2804940800	54	4581
2026-01-10 00:38:21.87	143.37	14.61	-41.5	-43.5	18.5	0.00e+00	0	44	0	2812280832	54	4549
2026-01-10 00:38:22.58	143.47	14.55	-41.5	-43.5	18.5	0.00e+00	0	44	0	2816475136	54	4557
2026-01-10 00:38:23.87	143.65	14.45	-41.5	-43.5	18.5	0.00e+00	0	44	0	2823815168	54	4555
2026-01-10 00:38:24.59	143.75	14.39	-41.4	-43.4	18.6	0.00e+00	0	44	0	2828009472	54	4518
2026-01-10 00:38:25.88	143.93	14.29	-41.6	-43.6	18.4	0.00e+00	0	44	0	2835349504	54	4612
2026-01-10 00:38:26.59	144.03	14.24	-41.5	-43.5	18.4	0.00e+00	0	44	0	2838495232	54	4596
2026-01-10 00:38:27.88	144.20	14.13	-41.6	-43.6	18.3	0.00e+00	0	44	0	2845835264	54	4640
2026-01-10 00:38:28.60	144.30	14.08	-41.6	-43.6	18.3	0.00e+00	0	44	0	2850029568	54	4640
2026-01-10 00:38:29.89	144.47	13.98	-41.7	-43.7	18.3	0.00e+00	0	44	0	2857369600	54	4686
2026-01-10 00:38:30.67	144.58	13.92	-41.6	-43.6	18.3	0.00e+00	0	44	0	2861563904	54	4650
2026-01-10 00:38:31.85	144.74	13.82	-41.7	-43.7	18.3	0.00e+00	0	44	0	2867855360	54	4670
2026-01-10 00:38:32.71	144.85	13.76	-41.7	-43.7	18.3	0.00e+00	0	44	0	2873098240	54	4669
2026-01-10 00:38:33.85	145.00	13.67	-41.6	-43.7	18.3	0.00e+00	0	44	0	2879389696	54	4660
2026-01-10 00:38:34.71	145.11	13.60	-41.5	-43.5	18.4	0.00e+00	0	44	0	2884632576	54	4582
2026-01-10 00:38:35.86	145.27	13.51	-41.5	-43.5	18.4	0.00e+00	0	44	0	2890924032	54	4596
2026-01-10 00:38:36.72	145.38	13.44	-41.7	-43.7	18.3	0.00e+00	0	44	0	2896166912	54	4681
2026-01-10 00:38:37.87	145.53	13.36	-41.7	-43.7	18.2	0.00e+00	0	44	0	2902458368	54	4703
2026-01-10 00:38:38.72	145.64	13.29	-41.7	-43.7	18.2	0.00e+00	0	44	0	2906652672	54	4700
2026-01-10 00:38:39.87	145.78	13.20	-41.9	-43.9	18.0	0.00e+00	0	44	0	2913992704	54	4811
2026-01-10 00:38:40.73	145.89	13.14	-41.8	-43.9	18.1	0.00e+00	0	44	0	2918187008	54	4763
2026-01-10 00:38:41.88	146.04	13.05	-41.9	-44.0	18.0	0.00e+00	0	44	0	2924478464	54	4842
2026-01-10 00:38:42.74	146.15	12.98	-41.9	-44.0	18.0	0.00e+00	0	44	0	2929721344	54	4827
2026-01-10 00:38:43.89	146.29	12.89	-41.9	-44.1	17.9	0.00e+00	0	44	0	2936012800	54	4873
2026-01-10 00:38:44.74	146.40	12.83	-42.1	-44.2	17.8	0.00e+00	0	44	0	2941255680	54	4951
2026-01-10 00:38:45.89	146.54	12.74	-42.0	-44.1	17.8	0.00e+00	0	44	0	2947547136	54	4921
2026-01-10 00:38:46.75	146.65	12.67	-42.0	-44.2	17.8	0.00e+00	0	44	0	2951741440	54	4939
2026-01-10 00:38:47.90	146.79	12.59	-42.1	-44.2	17.8	0.00e+00	0	44	0	2959081472	54	4955
2026-01-10 00:38:48.76	146.89	12.52	-42.2	-44.3	17.7	0.00e+00	0	44	0	2963275776	55	4735
2026-01-10 00:38:49.90	147.03	12.43	-42.0	-44.1	17.8	0.00e+00	0	44	0	2969567232	55	4644
2026-01-10 00:38:50.76	147.14	12.37	-42.1	-44.2	17.8	0.00e+00	0	44	0	2974810112	55	4666
2026-01-10 00:38:51.91	147.28	12.28	-42.1	-44.1	17.8	0.00e+00	0	44	0	2981101568	55	4636
2026-01-10 00:38:52.77	147.38	12.22	-42.0	-44.1	17.8	0.00e+00	0	44	0	2986344448	55	4619
2026-01-10 00:38:54.06	147.53	12.12	-42.2	-44.2	17.7	0.00e+00	0	44	0	2993684480	55	4699
2026-01-10 00:38:54.77	147.62	12.07	-42.1	-44.2	17.8	0.00e+00	0	44	0	2997878784	55	4664
2026-01-10 00:38:56.25	147.79	11.95	-42.1	-44.3	17.7	0.00e+00	0	44	0	3005218816	55	4708
2026-01-10 00:38:57.24	147.91	11.88	-42.2	-44.3	17.6	0.00e+00	0	44	0	3011510272	55	4731
2026-01-10 00:38:58.24	148.03	11.81	-42.3	-44.4	17.5	0.00e+00	0	44	0	3016753152	55	4811
2026-01-10 00:38:59.25	148.14	11.73	-42.4	-44.5	17.4	0.00e+00	0	44	0	3021996032	55	4863
2026-01-10 00:39:00.24	148.26	11.66	-42.1	-44.3	17.6	0.00e+00	0	44	0	3028287488	55	4727
2026-01-10 00:39:01.23	148.37	11.58	-42.4	-44.6	17.4	0.00e+00	0	44	0	3033530368	55	4874
2026-01-10 00:39:02.23	148.49	11.51	-42.3	-44.5	17.5	0.00e+00	0	44	0	3039821824	55	4826
2026-01-10 00:39:03.30	148.61	11.43	-42.4	-44.6	17.4	0.00e+00	0	44	0	3045064704	55	4875
2026-01-10 00:39:04.16	148.71	11.36	-42.5	-44.6	17.3	0.00e+00	0	44	0	3050307584	55	4921
2026-01-10 00:39:05.31	148.84	11.28	-42.6	-44.8	17.1	0.00e+00	0	44	0	3056599040	55	4995
2026-01-10 00:39:06.29	148.95	11.21	-42.5	-44.7	17.2	0.00e+00	0	44	0	3061841920	55	4966
2026-01-10 00:39:07.30	149.06	11.13	-42.6	-44.8	17.2	0.00e+00	0	44	0	3068133376	55	4985
2026-01-10 00:39:08.30	149.17	11.06	-42.6	-44.8	17.1	0.00e+00	0	44	0	3073376256	55	5040
2026-01-10 00:39:09.30	149.28	10.99	-42.7	-44.9	17.1	0.00e+00	0	44	0	3078619136	56	4806
2026-01-10 00:39:10.31	149.39	10.91	-42.7	-44.9	17.1	0.00e+00	0	44	0	3084910592	56	4778
2026-01-10 00:39:11.31	149.50	10.84	-42.9	-45.1	16.9	0.00e+00	0	44	0	3090153472	56	4917
2026-01-10 00:39:12.31	149.61	10.76	-42.8	-45.0	17.1	0.00e+00	0	44	0	3095396352	56	4834
2026-01-10 00:39:13.32	149.72	10.69	-42.8	-45.0	17.0	0.00e+00	0	44	0	3101687808	56	4864
2026-01-10 00:39:14.32	149.83	10.62	-42.9	-45.2	16.9	0.00e+00	0	44	0	3106930688	56	4942
2026-01-10 00:39:15.33	149.94	10.54	-42.9	-45.2	16.9	0.00e+00	0	44	0	3113222144	56	4952
2026-01-10 00:39:16.33	150.04	10.47	-43.0	-45.3	16.8	0.00e+00	0	44	0	3118465024	56	4998
2026-01-10 00:39:17.33	150.15	10.40	-43.0	-45.2	16.8	0.00e+00	0	44	0	3124756480	56	4976
2026-01-10 00:39:18.41	150.26	10.32	-43.0	-45.3	16.8	0.00e+00	0	44	0	3129999360	56	5007
2026-01-10 00:39:19.27	150.36	10.26	-43.2	-45.5	16.6	0.00e+00	0	44	0	3135242240	57	4817
2026-01-10 00:39:20.63	150.50	10.16	-43.0	-45.3	16.8	0.00e+00	0	44	0	3142582272	57	4712
2026-01-10 00:39:21.34	150.57	10.11	-43.0	-45.2	16.7	0.00e+00	0	44	0	3146776576	57	4701
2026-01-10 00:39:22.86	150.73	10.00	-43.2	-45.4	16.6	0.00e+00	0	44	0	3155165184	57	4805
2026-01-10 00:39:23.57	150.80	9.95	-43.2	-45.5	16.5	0.00e+00	0	44	0	3159359488	57	4826
2026-01-10 00:39:24.86	150.94	9.86	-43.3	-45.6	16.4	0.00e+00	0	44	0	3166699520	57	4876
2026-01-10 00:39:25.58	151.01	9.81	-43.0	-45.3	16.7	0.00e+00	0	44	0	3170893824	57	4726
2026-01-10 00:39:26.87	151.14	9.71	-43.1	-45.4	16.6	0.00e+00	0	44	0	3178233856	57	4765
2026-01-10 00:39:27.58	151.21	9.66	-43.1	-45.3	16.6	0.00e+00	0	44	0	3182428160	57	4757
2026-01-10 00:39:28.87	151.34	9.57	-43.2	-45.5	16.5	0.00e+00	0	44	0	3189768192	57	4817
2026-01-10 00:39:29.59	151.42	9.52	-43.3	-45.6	16.4	0.00e+00	0	44	0	3192913920	57	4917
2026-01-10 00:39:30.88	151.54	9.43	-43.3	-45.6	16.3	0.00e+00	0	44	0	3200253952	57	4922
2026-01-10 00:39:31.63	151.62	9.38	-43.3	-45.6	16.4	8.01e-05	0	44	0	3204448256	57	4905
2026-01-10 00:39:32.91	151.75	9.29	-43.5	-45.8	16.2	0.00e+00	0	44	0	3211788288	57	5006
2026-01-10 00:39:33.63	151.82	9.24	-43.5	-45.9	16.1	0.00e+00	0	44	0	3215982592	57	5049
2026-01-10 00:39:34.92	151.94	9.14	-43.5	-45.8	16.1	0.00e+00	0	44	0	3223322624	57	5011
2026-01-10 00:39:35.64	152.01	9.09	-43.7	-46.1	15.9	0.00e+00	0	44	0	3227516928	57	5162
2026-01-10 00:39:36.93	152.14	9.00	-51.0	-62.8	3.8	9.03e-02	0	44	104	3233808384	72	15042
2026-01-10 00:39:37.65	152.21	8.95	-50.9	-63.5	3.8	8.48e-01	0	44	104	3233808384	72	16199
2026-01-10 00:39:38.94	152.33	8.86	-51.2	-63.6	3.8	8.46e-01	0	44	104	3233808384	73	15563
2026-01-10 00:39:39.66	152.40	8.81	-51.6	-63.7	3.8	8.47e-01	0	44	104	3233808384	73	15668
2026-01-10 00:39:40.95	152.52	8.72	-51.7	-63.8	3.8	8.47e-01	0	44	104	3233808384	73	15941
2026-01-10 00:39:41.67	152.59	8.67	-51.7	-63.9	3.8	8.46e-01	0	44	104	3233808384	74	15145
2026-01-10 00:39:42.96	152.72	8.58	-51.8	-64.0	3.8	8.47e-01	0	44	104	3233808384	74	15264
2026-01-10 00:39:43.68	152.78	8.53	-51.9	-64.0	3.8	8.46e-01	0	44	104	3233808384	74	15315
2026-01-10 00:39:44.96	152.90	8.45	-51.9	-64.1	3.8	8.47e-01	0	44	104	3233808384	74	15451
2026-01-10 00:39:45.68	152.97	8.40	-52.0	-64.1	3.8	8.47e-01	0	44	104	3233808384	74	15501
2026-01-10 00:39:46.97	153.09	8.31	-52.1	-64.1	3.8	8.46e-01	0	44	104	3233808384	74	15554
2026-01-10 00:39:47.69	153.16	8.26	-52.0	-64.1	3.8	8.47e-01	0	44	104	3233808384	74	15565
2026-01-10 00:39:48.98	153.27	8.17	-52.1	-64.2	3.8	8.48e-01	0	44	104	3233808384	74	15609
2026-01-10 00:39:49.70	153.34	8.12	-52.1	-64.2	3.8	8.47e-01	0	44	104	3233808384	74	15661
2026-01-10 00:39:50.99	153.46	8.03	-51.9	-64.2	3.8	8.46e-01	0	44	104	3233808384	74	15661
2026-01-10 00:39:51.71	153.52	7.98	-52.2	-64.2	3.8	8.48e-01	0	44	104	3233808384	75	14757
2026-01-10 00:39:53.00	153.64	7.90	-52.1	-64.2	3.8	8.45e-01	0	44	104	3233808384	75	14810
2026-01-10 00:39:53.72	153.70	7.85	-52.2	-64.2	3.8	8.46e-01	0	44	104	3233808384	75	14828
2026-01-10 00:39:55.01	153.82	7.76	-52.2	-64.2	3.8	8.47e-01	0	44	104	3233808384	75	14848
2026-01-10 00:39:55.73	153.88	7.71	-52.1	-64.2	3.8	8.47e-01	0	44	104	3233808384	75	14825
2026-01-10 00:39:57.02	154.00	7.62	-52.1	-64.2	3.8	8.47e-01	0	44	104	3233808384	75	14795
2026-01-10 00:39:57.73	154.06	7.58	-52.0	-64.2	3.8	8.47e-01	0	44	104	3233808384	75	14810
2026-01-10 00:39:59.03	154.18	7.49	-51.8	-64.2	3.8	8.46e-01	0	44	104	3233808384	75	14853
2026-01-10 00:39:59.74	154.24	7.44	-52.0	-64.2	3.8	8.47e-01	0	44	104	3233808384	75	14804
2026-01-10 00:40:01.04	154.35	7.35	-52.0	-64.2	3.8	8.47e-01	0	44	104	3233808384	75	14732
2026-01-10 00:40:01.75	154.41	7.31	-52.0	-64.2	3.8	8.46e-01	0	44	104	3233808384	75	14714
2026-01-10 00:40:03.04	154.52	7.22	-52.0	-64.2	3.8	8.46e-01	0	44	104	3233808384	75	14721
2026-01-10 00:40:03.76	154.59	7.17	-52.0	-64.2	3.8	8.46e-01	0	44	104	3233808384	75	14736
2026-01-10 00:40:05.05	154.70	7.09	-52.0	-64.2	3.8	8.47e-01	0	44	104	3233808384	75	14787
2026-01-10 00:40:05.77	154.76	7.04	-52.0	-64.1	3.8	8.47e-01	0	44	104	3233808384	75	14688
2026-01-10 00:40:07.06	154.87	6.95	-52.0	-64.2	3.8	8.45e-01	0	44	104	3233808384	75	14737
2026-01-10 00:40:07.78	154.93	6.90	-52.0	-64.2	3.8	8.47e-01	0	44	104	3233808384	75	14761
2026-01-10 00:40:09.07	155.04	6.82	-52.0	-64.2	3.8	8.48e-01	0	44	104	3233808384	75	14739
2026-01-10 00:40:09.79	155.10	6.77	-52.0	-64.2	3.8	8.48e-01	0	44	104	3233808384	75	14732
2026-01-10 00:40:11.08	155.20	6.69	-52.0	-64.2	3.8	8.45e-01	0	44	104	3233808384	75	14723
2026-01-10 00:40:11.80	155.26	6.64	-52.0	-64.2	3.8	8.46e-01	0	44	104	3233808384	75	14778
2026-01-10 00:40:13.09	155.37	6.56	-52.0	-64.2	3.8	8.48e-01	0	44	104	3233808384	75	14738
2026-01-10 00:40:13.81	155.43	6.51	-51.9	-64.2	3.8	8.47e-01	0	44	104	3233808384	75	14714
2026-01-10 00:40:15.10	155.54	6.42	-52.0	-64.2	3.8	8.47e-01	0	44	104	3233808384	75	14725
2026-01-10 00:40:15.81	155.59	6.38	-52.0	-64.1	3.8	8.47e-01	0	44	104	3233808384	75	14701
2026-01-10 00:40:17.11	155.70	6.29	-52.0	-64.2	3.8	8.47e-01	0	44	104	3233808384	75	14712
2026-01-10 00:40:17.82	155.76	6.25	-52.0	-64.1	3.8	8.47e-01	0	44	104	3233808384	75	14667
2026-01-10 00:40:19.11	155.86	6.16	-52.0	-64.2	3.8	8.48e-01	0	44	104	3233808384	75	14744
2026-01-10 00:40:19.83	155.92	6.12	-52.0	-64.2	3.8	8.47e-01	0	44	104	3233808384	75	14755
2026-01-10 00:40:21.12	156.02	6.03	-52.0	-64.2	3.8	8.46e-01	0	44	104	3233808384	75	14730
2026-01-10 00:40:21.84	156.08	5.99	-52.0	-64.2	3.8	8.47e-01	0	44	104	3233808384	75	14741
2026-01-10 00:40:23.13	156.18	5.90	-51.9	-64.1	3.8	8.47e-01	0	44	104	3233808384	75	14707
2026-01-10 00:40:23.85	156.24	5.86	-52.0	-64.1	3.8	8.48e-01	0	44	104	3233808384	75	14697
2026-01-10 00:40:25.14	156.34	5.77	-51.9	-64.2	3.8	8.46e-01	0	44	104	3233808384	75	14723
2026-01-10 00:40:25.86	156.40	5.73	-51.9	-64.1	3.8	8.47e-01	0	44	104	3233808384	75	14673
2026-01-10 00:40:27.15	156.50	5.65	-52.0	-64.1	3.8	8.48e-01	0	44	104	3233808384	75	14666
2026-01-10 00:40:27.87	156.55	5.60	-52.0	-64.1	3.8	8.47e-01	0	44	104	3233808384	75	14651
2026-01-10 00:40:29.16	156.65	5.52	-51.9	-64.1	3.8	8.46e-01	0	44	104	3233808384	75	14680
2026-01-10 00:40:29.88	156.71	5.47	-52.0	-64.2	3.8	8.47e-01	0	44	104	3233808384	75	14724
2026-01-10 00:40:31.17	156.81	5.39	-52.0	-64.1	3.8	8.47e-01	0	44	104	3233808384	75	14655
2026-01-10 00:40:31.89	156.86	5.34	-51.9	-64.1	3.8	8.46e-01	0	44	104	3233808384	75	14655
2026-01-10 00:40:33.18	156.96	5.26	-51.9	-64.2	3.8	8.48e-01	0	44	104	3233808384	75	14732
2026-01-10 00:40:33.90	157.01	5.22	-51.9	-64.1	3.8	8.47e-01	0	44	104	3233808384	75	14661
2026-01-10 00:40:35.19	157.11	5.14	-51.9	-64.1	3.8	8.47e-01	0	44	104	3233808384	75	14667
2026-01-10 00:40:35.90	157.16	5.09	-51.9	-64.2	3.8	8.47e-01	0	44	104	3233808384	75	14717
