passes_logs/2026/01/10/T1/T1__20260110_233038_NOAA_20_JPSS-1_rec.log

#Pass ID: 20260110_233038_NOAA 20 (JPSS-1)
#Satellite: NOAA 20 (JPSS-1)
#Configuration: NOAA 20
#almurnet v.1.7.20251203
#Start time: 2026-01-10 23:30:38

#Version: 2.0.20230620
#Station: T1
#Location: 37.570604 lon 55.790049 lat
#TLE: 1 43013U 17073A   26009.69119415  .00000109  00000+0  72598-4 0  9996
#TLE: 2 43013  98.7631 310.6868 0001678  46.7442 313.3874 14.19534878421981

#Time	Az	El	Level	Level2	SNR	BER	BlckErr	Temp	State	Recorded	gain1	gain2
2026-01-10 23:30:38.37	17.57	5.03	-51.7	-67.0	3.8	1.49e+00	0	40	0	0	74	21695
2026-01-10 23:30:39.37	17.58	5.10	-51.7	-67.0	3.8	1.49e+00	0	40	104	0	74	21747
2026-01-10 23:30:40.38	17.60	5.17	-51.7	-66.9	3.8	1.49e+00	0	40	104	0	74	21452
2026-01-10 23:30:41.38	17.61	5.24	-51.7	-66.9	3.8	1.49e+00	0	41	104	0	74	21285
2026-01-10 23:30:42.39	17.63	5.31	-51.7	-66.8	3.8	1.49e+00	0	40	104	0	74	21141
2026-01-10 23:30:43.39	17.64	5.39	-51.7	-66.6	3.8	1.49e+00	0	40	104	0	74	20734
2026-01-10 23:30:44.40	17.65	5.46	-51.7	-66.5	3.8	1.49e+00	0	40	104	0	74	20487
2026-01-10 23:30:45.40	17.67	5.53	-51.7	-66.2	3.8	1.49e+00	0	41	104	0	74	19833
2026-01-10 23:30:46.40	17.68	5.60	-51.7	-66.0	3.8	1.49e+00	0	41	104	0	74	19253
2026-01-10 23:30:47.41	17.70	5.68	-51.7	-65.9	3.8	1.49e+00	0	41	104	0	74	18999
2026-01-10 23:30:48.41	17.71	5.75	-51.6	-65.7	3.8	1.49e+00	0	41	104	0	74	18521
2026-01-10 23:30:49.42	17.72	5.82	-51.6	-65.7	3.8	1.49e+00	0	41	104	0	74	18668
2026-01-10 23:30:50.42	17.74	5.90	-51.6	-65.6	3.8	1.49e+00	0	41	104	0	74	18398
2026-01-10 23:30:51.43	17.75	5.97	-51.7	-65.8	3.8	1.49e+00	0	41	104	0	74	18816
2026-01-10 23:30:52.43	17.77	6.04	-51.7	-65.7	3.8	1.49e+00	0	41	104	0	74	18712
2026-01-10 23:30:53.44	17.78	6.12	-51.6	-65.9	3.8	1.49e+00	0	41	104	0	74	19003
2026-01-10 23:30:54.44	17.80	6.19	-51.7	-66.2	3.8	1.49e+00	0	41	104	0	74	19645
2026-01-10 23:30:55.45	17.81	6.27	-51.7	-66.3	3.8	1.49e+00	0	41	104	0	74	19846
2026-01-10 23:30:56.45	17.82	6.34	-51.7	-66.4	3.8	1.49e+00	0	41	104	0	74	20097
2026-01-10 23:30:57.45	17.84	6.42	-51.7	-66.4	3.8	1.49e+00	0	41	104	0	74	20134
2026-01-10 23:30:58.46	17.85	6.49	-51.7	-66.3	3.8	1.49e+00	0	41	104	0	74	20048
2026-01-10 23:30:59.46	17.87	6.57	-51.7	-66.3	3.8	1.49e+00	0	41	104	0	74	20069
2026-01-10 23:31:00.47	17.88	6.64	-51.7	-66.2	3.8	1.49e+00	0	41	104	0	74	19663
2026-01-10 23:31:01.47	17.90	6.72	-51.7	-66.2	3.8	1.49e+00	0	41	104	0	74	19822
2026-01-10 23:31:02.48	17.91	6.79	-51.7	-66.2	3.8	1.49e+00	0	41	104	0	74	19650
2026-01-10 23:31:03.48	17.93	6.87	-51.7	-66.3	3.8	1.49e+00	0	41	104	0	74	19937
2026-01-10 23:31:04.48	17.94	6.95	-51.7	-66.3	3.8	1.49e+00	0	41	104	0	74	19955
2026-01-10 23:31:05.49	17.96	7.02	-51.7	-66.3	3.8	1.49e+00	0	41	104	0	74	20049
2026-01-10 23:31:06.49	17.97	7.10	-51.7	-66.3	3.8	1.49e+00	0	41	104	0	74	19851
2026-01-10 23:31:07.50	17.99	7.18	-51.7	-66.1	3.8	1.49e+00	0	41	104	0	74	19591
2026-01-10 23:31:08.50	18.00	7.26	-51.6	-65.7	3.8	1.49e+00	0	41	104	0	74	18524
2026-01-10 23:31:09.50	18.02	7.33	-51.6	-65.2	3.8	1.49e+00	0	41	104	0	74	17611
2026-01-10 23:31:10.51	18.03	7.41	-51.6	-64.5	3.8	1.49e+00	0	41	104	0	74	16167
2026-01-10 23:31:11.51	18.05	7.49	-51.5	-63.9	4.1	1.46e+00	0	41	0	0	74	15172
2026-01-10 23:31:12.52	18.06	7.57	-51.4	-62.6	4.5	1.29e+00	0	41	0	0	74	13096
2026-01-10 23:31:13.52	18.08	7.65	-51.4	-62.2	4.6	1.02e+00	0	41	0	2097152	74	12477
2026-01-10 23:31:14.53	18.10	7.73	-51.3	-61.5	4.9	8.13e-01	0	41	0	4194304	74	11533
2026-01-10 23:31:15.53	18.11	7.80	-51.3	-61.3	5.1	6.19e-01	0	41	0	6291456	74	11234
2026-01-10 23:31:16.53	18.13	7.88	-51.1	-60.5	5.6	4.79e-01	0	42	0	8388608	74	10190
2026-01-10 23:31:17.54	18.14	7.96	-51.0	-59.9	6.0	4.66e-01	0	42	0	9437184	74	9592
2026-01-10 23:31:18.54	18.16	8.04	-51.0	-59.9	6.0	3.69e-01	0	42	0	11534336	74	9539
2026-01-10 23:31:19.55	18.17	8.12	-51.0	-59.8	6.1	2.69e-01	0	41	0	13631488	73	9994
2026-01-10 23:31:20.55	18.19	8.20	-50.9	-59.4	6.4	2.86e-01	0	41	0	15728640	73	9530
2026-01-10 23:31:21.56	18.21	8.28	-50.9	-59.2	6.5	2.70e-01	0	42	0	17825792	73	9356
2026-01-10 23:31:22.56	18.22	8.36	-50.9	-59.3	6.4	2.39e-01	0	42	0	18874368	73	9440
2026-01-10 23:31:23.57	18.24	8.45	-50.8	-58.9	6.8	2.09e-01	0	42	0	20971520	73	9030
2026-01-10 23:31:24.57	18.25	8.53	-50.9	-59.4	6.4	1.89e-01	0	42	0	23068672	73	9497
2026-01-10 23:31:25.57	18.27	8.61	-50.8	-58.7	7.0	1.46e-01	0	42	0	25165824	73	8773
2026-01-10 23:31:26.58	18.29	8.69	-50.8	-58.9	6.8	1.76e-01	0	42	0	27262976	73	8994
2026-01-10 23:31:27.58	18.30	8.77	-50.8	-59.0	6.7	1.47e-01	0	42	0	28311552	73	9107
2026-01-10 23:31:28.59	18.32	8.86	-50.9	-59.2	6.6	1.91e-01	0	42	0	30408704	73	9320
2026-01-10 23:31:29.59	18.34	8.94	-51.0	-59.6	6.2	2.43e-01	0	42	0	32505856	73	9820
2026-01-10 23:31:30.59	18.35	9.02	-51.0	-59.8	6.0	3.28e-01	0	42	0	34603008	73	10055
2026-01-10 23:31:31.60	18.37	9.10	-51.5	-63.4	4.2	4.81e-01	0	42	0	35651584	73	15217
2026-01-10 23:31:32.60	18.39	9.19	-51.5	-66.8	3.8	1.49e+00	0	42	104	35651584	73	22456
2026-01-10 23:31:33.60	18.40	9.27	-50.7	-58.1	7.1	1.49e+00	0	42	104	35651584	73	8267
2026-01-10 23:31:34.61	18.42	9.36	-48.9	-53.2	12.8	2.23e-04	0	42	0	36700160	69	5864
2026-01-10 23:31:35.61	18.44	9.44	-48.9	-53.4	12.6	2.55e-04	0	42	0	38797312	69	6060
2026-01-10 23:31:36.62	18.45	9.53	-49.1	-53.7	12.1	2.81e-02	0	42	0	40894464	70	5867
2026-01-10 23:31:37.62	18.47	9.61	-48.8	-53.0	12.9	3.20e-05	0	42	0	41943040	69	5741
2026-01-10 23:31:38.63	18.49	9.70	-48.9	-53.2	12.8	4.04e-05	0	42	0	44040192	69	5890
2026-01-10 23:31:39.63	18.51	9.78	-48.9	-53.2	12.6	6.02e-05	0	42	0	46137344	69	5904
2026-01-10 23:31:40.63	18.52	9.87	-49.0	-53.4	12.4	6.10e-05	0	42	0	48234496	69	6054
2026-01-10 23:31:41.63	18.54	9.95	-48.4	-52.3	13.7	3.28e-05	0	42	0	50331648	68	5621
2026-01-10 23:31:42.63	18.56	10.04	-48.6	-52.6	13.4	3.05e-05	0	42	0	51380224	68	5817
2026-01-10 23:31:43.64	18.58	10.13	-48.3	-52.1	13.8	6.10e-06	0	42	0	53477376	68	5506
2026-01-10 23:31:44.64	18.59	10.21	-47.8	-51.3	14.5	3.80e-06	0	42	0	55574528	67	5329
2026-01-10 23:31:45.64	18.61	10.30	-47.6	-51.0	14.8	0.00e+00	0	42	0	57671680	67	5159
2026-01-10 23:31:46.65	18.63	10.39	-47.5	-50.8	14.9	0.00e+00	0	42	0	59768832	67	5034
2026-01-10 23:31:47.65	18.65	10.48	-47.6	-51.0	14.8	0.00e+00	0	42	0	60817408	66	5445
2026-01-10 23:31:48.65	18.66	10.56	-47.6	-51.0	14.9	0.00e+00	0	42	0	62914560	66	5412
2026-01-10 23:31:49.66	18.68	10.65	-47.3	-50.5	15.3	1.50e-06	0	42	0	65011712	66	5124
2026-01-10 23:31:50.66	18.70	10.74	-47.4	-50.8	15.1	0.00e+00	0	42	0	67108864	66	5281
2026-01-10 23:31:51.66	18.72	10.83	-47.4	-50.7	15.1	0.00e+00	0	42	0	69206016	66	5255
2026-01-10 23:31:52.67	18.74	10.92	-47.3	-50.6	15.3	0.00e+00	0	42	0	70254592	66	5162
2026-01-10 23:31:53.67	18.76	11.01	-47.3	-50.5	15.3	7.00e-07	0	42	0	72351744	66	5144
2026-01-10 23:31:54.67	18.77	11.10	-47.3	-50.6	15.3	0.00e+00	0	42	0	74448896	66	5164
2026-01-10 23:31:55.68	18.79	11.19	-47.1	-50.2	15.7	0.00e+00	0	42	0	76546048	66	4943
2026-01-10 23:31:56.68	18.81	11.28	-47.1	-50.3	15.5	0.00e+00	0	42	0	78643200	66	5024
2026-01-10 23:31:57.68	18.83	11.37	-47.1	-50.2	15.7	0.00e+00	0	42	0	79691776	66	4937
2026-01-10 23:31:58.69	18.85	11.46	-47.0	-50.1	15.7	0.00e+00	0	42	0	81788928	65	5204
2026-01-10 23:31:59.69	18.87	11.56	-47.0	-50.1	15.8	0.00e+00	0	42	0	83886080	65	5160
2026-01-10 23:32:00.70	18.89	11.65	-46.9	-49.9	15.9	0.00e+00	0	42	0	85983232	65	5094
2026-01-10 23:32:01.70	18.91	11.74	-46.7	-49.7	16.2	0.00e+00	0	42	0	88080384	65	4952
2026-01-10 23:32:02.70	18.92	11.83	-46.9	-50.1	15.7	0.00e+00	0	42	0	89128960	65	5197
2026-01-10 23:32:03.70	18.94	11.93	-46.7	-49.8	16.1	0.00e+00	0	42	0	91226112	65	5005
2026-01-10 23:32:04.70	18.96	12.02	-46.8	-49.8	16.0	0.00e+00	0	42	0	93323264	65	5038
2026-01-10 23:32:05.71	18.98	12.11	-46.8	-49.9	16.0	0.00e+00	0	42	0	95420416	65	5057
2026-01-10 23:32:06.71	19.00	12.21	-46.6	-49.6	16.2	0.00e+00	0	42	0	96468992	65	4925
2026-01-10 23:32:07.71	19.02	12.30	-46.7	-49.8	16.1	0.00e+00	0	42	0	98566144	65	4995
2026-01-10 23:32:08.72	19.04	12.40	-46.7	-49.7	16.2	0.00e+00	0	42	0	100663296	65	4981
2026-01-10 23:32:09.72	19.06	12.49	-46.9	-50.0	15.9	0.00e+00	0	42	0	102760448	65	5123
2026-01-10 23:32:10.72	19.08	12.59	-46.9	-50.0	15.8	0.00e+00	0	42	0	104857600	65	5150
2026-01-10 23:32:11.72	19.10	12.68	-46.7	-49.7	16.2	0.00e+00	0	42	0	106954752	65	4952
2026-01-10 23:32:12.73	19.12	12.78	-46.7	-49.7	16.3	0.00e+00	0	42	0	108003328	65	4939
2026-01-10 23:32:13.73	19.14	12.88	-46.7	-49.7	16.2	0.00e+00	0	42	0	110100480	65	4943
2026-01-10 23:32:14.73	19.16	12.98	-46.7	-49.6	16.3	0.00e+00	0	42	0	112197632	65	4924
2026-01-10 23:32:15.73	19.18	13.07	-46.5	-49.5	16.4	0.00e+00	0	42	0	114294784	65	4834
2026-01-10 23:32:16.73	19.20	13.17	-46.6	-49.6	16.3	0.00e+00	0	42	0	115343360	65	4871
2026-01-10 23:32:17.74	19.22	13.27	-46.7	-49.7	16.3	0.00e+00	0	42	0	117440512	65	4942
2026-01-10 23:32:18.74	19.24	13.37	-46.7	-49.7	16.2	0.00e+00	0	42	0	119537664	65	4971
2026-01-10 23:32:19.74	19.26	13.47	-46.6	-49.6	16.4	0.00e+00	0	42	0	121634816	65	4872
2026-01-10 23:32:20.75	19.29	13.57	-46.6	-49.5	16.4	0.00e+00	0	42	0	123731968	65	4850
2026-01-10 23:32:21.75	19.31	13.67	-46.7	-49.6	16.3	0.00e+00	0	43	0	124780544	65	4920
2026-01-10 23:32:22.75	19.33	13.77	-46.6	-49.6	16.3	0.00e+00	0	42	0	126877696	65	4879
2026-01-10 23:32:23.75	19.35	13.87	-46.6	-49.6	16.4	0.00e+00	0	42	0	128974848	65	4887
2026-01-10 23:32:24.76	19.37	13.97	-46.4	-49.4	16.6	0.00e+00	0	42	0	131072000	64	5054
2026-01-10 23:32:25.76	19.39	14.07	-46.5	-49.5	16.5	0.00e+00	0	43	0	133169152	64	5109
2026-01-10 23:32:26.77	19.41	14.18	-46.5	-49.5	16.5	0.00e+00	0	42	0	134217728	64	5116
2026-01-10 23:32:27.77	19.44	14.28	-46.4	-49.4	16.6	0.00e+00	0	42	0	136314880	64	5055
2026-01-10 23:32:28.77	19.46	14.38	-46.4	-49.4	16.5	0.00e+00	0	42	0	138412032	64	5098
2026-01-10 23:32:29.78	19.48	14.48	-46.4	-49.5	16.5	0.00e+00	0	42	0	140509184	64	5113
2026-01-10 23:32:30.78	19.50	14.59	-46.3	-49.3	16.6	0.00e+00	0	43	0	142606336	64	5031
2026-01-10 23:32:31.78	19.52	14.69	-46.4	-49.4	16.6	0.00e+00	0	43	0	143654912	64	5077
2026-01-10 23:32:32.79	19.55	14.80	-46.3	-49.4	16.6	0.00e+00	0	42	0	145752064	64	5055
2026-01-10 23:32:33.79	19.57	14.90	-46.3	-49.3	16.7	0.00e+00	0	42	0	147849216	64	5011
2026-01-10 23:32:34.80	19.59	15.01	-46.3	-49.4	16.6	0.00e+00	0	42	0	149946368	64	5071
2026-01-10 23:32:35.80	19.62	15.12	-46.4	-49.5	16.4	0.00e+00	0	42	0	152043520	64	5137
2026-01-10 23:32:36.80	19.64	15.22	-46.5	-49.7	16.3	0.00e+00	0	43	0	153092096	64	5239
2026-01-10 23:32:37.80	19.66	15.33	-46.5	-49.6	16.4	0.00e+00	0	42	0	155189248	64	5196
2026-01-10 23:32:38.81	19.69	15.44	-46.4	-49.5	16.4	0.00e+00	0	43	0	157286400	64	5158
2026-01-10 23:32:39.81	19.71	15.54	-46.5	-49.6	16.4	0.00e+00	0	43	0	159383552	64	5204
2026-01-10 23:32:40.81	19.73	15.65	-46.6	-49.8	16.2	0.00e+00	0	42	0	160432128	64	5293
2026-01-10 23:32:41.82	19.76	15.76	-46.6	-49.7	16.3	0.00e+00	0	42	0	162529280	64	5260
2026-01-10 23:32:42.82	19.78	15.87	-46.6	-49.8	16.2	0.00e+00	0	42	0	164626432	64	5290
2026-01-10 23:32:43.82	19.80	15.98	-46.6	-49.8	16.2	0.00e+00	0	43	0	166723584	64	5297
2026-01-10 23:32:44.83	19.83	16.09	-46.7	-49.9	16.1	0.00e+00	0	43	0	168820736	64	5398
2026-01-10 23:32:45.83	19.85	16.20	-46.7	-49.9	16.2	0.00e+00	0	43	0	169869312	64	5342
2026-01-10 23:32:46.83	19.88	16.31	-46.8	-49.9	16.1	0.00e+00	0	42	0	171966464	64	5390
2026-01-10 23:32:47.83	19.90	16.43	-46.8	-50.0	16.0	0.00e+00	0	43	0	174063616	64	5434
2026-01-10 23:32:48.83	19.93	16.54	-46.9	-50.1	15.9	0.00e+00	0	43	0	176160768	64	5505
2026-01-10 23:32:49.84	19.95	16.65	-46.9	-50.2	15.9	0.00e+00	0	43	0	178257920	64	5544
2026-01-10 23:32:50.84	19.98	16.77	-47.0	-50.2	15.9	0.00e+00	0	42	0	179306496	64	5530
2026-01-10 23:32:51.84	20.00	16.88	-47.0	-50.1	15.9	0.00e+00	0	42	0	181403648	64	5515
2026-01-10 23:32:52.84	20.03	16.99	-47.0	-50.1	15.9	0.00e+00	0	43	0	183500800	64	5508
2026-01-10 23:32:53.85	20.05	17.11	-47.0	-50.1	15.9	0.00e+00	0	43	0	185597952	64	5500
2026-01-10 23:32:54.85	20.08	17.23	-46.9	-50.1	16.0	0.00e+00	0	42	0	187695104	64	5490
2026-01-10 23:32:55.85	20.10	17.34	-47.0	-50.2	15.8	0.00e+00	0	43	0	188743680	64	5561
2026-01-10 23:32:56.86	20.13	17.46	-46.9	-50.1	16.0	0.00e+00	0	43	0	190840832	64	5477
2026-01-10 23:32:57.86	20.15	17.58	-47.1	-50.3	15.8	0.00e+00	0	42	0	192937984	64	5614
2026-01-10 23:32:58.87	20.18	17.70	-47.0	-50.2	15.9	0.00e+00	0	43	0	195035136	64	5542
2026-01-10 23:32:59.87	20.21	17.81	-47.1	-50.3	15.8	0.00e+00	0	43	0	197132288	64	5601
2026-01-10 23:33:00.87	20.23	17.93	-47.2	-50.4	15.7	0.00e+00	0	43	0	198180864	65	5389
2026-01-10 23:33:01.88	20.26	18.05	-47.1	-50.4	15.7	0.00e+00	0	43	0	200278016	65	5378
2026-01-10 23:33:02.88	20.29	18.17	-47.2	-50.6	15.5	0.00e+00	0	43	0	202375168	65	5481
2026-01-10 23:33:03.89	20.32	18.29	-47.2	-50.6	15.5	0.00e+00	0	43	0	204472320	65	5486
2026-01-10 23:33:04.89	20.34	18.42	-47.3	-50.7	15.4	0.00e+00	0	43	0	206569472	65	5556
2026-01-10 23:33:05.89	20.37	18.54	-47.3	-50.8	15.3	0.00e+00	0	43	0	207618048	65	5619
2026-01-10 23:33:06.90	20.40	18.66	-47.3	-50.7	15.4	0.00e+00	0	43	0	209715200	65	5556
2026-01-10 23:33:07.90	20.43	18.78	-47.4	-50.8	15.3	0.00e+00	0	43	0	211812352	65	5627
2026-01-10 23:33:08.90	20.45	18.91	-47.4	-50.9	15.2	0.00e+00	0	43	0	213909504	65	5671
2026-01-10 23:33:09.91	20.48	19.03	-47.4	-50.9	15.2	7.00e-07	0	43	0	216006656	65	5692
2026-01-10 23:33:10.91	20.51	19.16	-47.5	-51.0	15.1	0.00e+00	0	43	0	217055232	65	5744
2026-01-10 23:33:11.91	20.54	19.28	-47.6	-51.1	15.0	7.00e-07	0	43	0	219152384	65	5840
2026-01-10 23:33:12.92	20.57	19.41	-47.5	-51.0	15.1	0.00e+00	0	43	0	221249536	65	5764
2026-01-10 23:33:13.92	20.60	19.54	-47.5	-51.0	15.1	0.00e+00	0	43	0	223346688	65	5736
2026-01-10 23:33:14.93	20.63	19.67	-47.6	-51.0	15.2	7.00e-07	0	43	0	225443840	65	5739
2026-01-10 23:33:15.93	20.66	19.79	-47.6	-51.0	15.1	0.00e+00	0	43	0	226492416	65	5740
2026-01-10 23:33:16.93	20.69	19.92	-47.7	-51.1	15.0	0.00e+00	0	43	0	228589568	66	5495
2026-01-10 23:33:17.94	20.72	20.05	-47.6	-50.9	15.2	0.00e+00	0	43	0	230686720	66	5400
2026-01-10 23:33:18.94	20.75	20.18	-47.7	-51.0	15.1	7.00e-07	0	43	0	232783872	66	5456
2026-01-10 23:33:19.95	20.78	20.31	-47.7	-51.1	15.1	0.00e+00	0	43	0	233832448	66	5488
2026-01-10 23:33:20.95	20.81	20.45	-47.7	-51.1	15.1	0.00e+00	0	43	0	235929600	66	5471
2026-01-10 23:33:21.95	20.84	20.58	-47.7	-51.1	15.1	0.00e+00	0	43	0	238026752	66	5487
2026-01-10 23:33:22.96	20.87	20.71	-47.6	-51.0	15.2	7.00e-07	0	43	0	240123904	66	5410
2026-01-10 23:33:23.96	20.90	20.85	-47.7	-51.0	15.1	0.00e+00	0	43	0	242221056	66	5462
2026-01-10 23:33:24.96	20.93	20.98	-47.6	-51.0	15.2	0.00e+00	0	43	0	243269632	66	5412
2026-01-10 23:33:25.97	20.97	21.12	-47.7	-51.1	15.1	0.00e+00	0	43	0	245366784	66	5468
2026-01-10 23:33:26.97	21.00	21.25	-47.7	-51.0	15.1	0.00e+00	0	43	0	247463936	66	5440
2026-01-10 23:33:27.97	21.03	21.39	-47.7	-51.1	15.1	0.00e+00	0	43	0	249561088	66	5500
2026-01-10 23:33:28.98	21.06	21.53	-47.8	-51.1	15.0	0.00e+00	0	43	0	251658240	66	5511
2026-01-10 23:33:29.98	21.10	21.66	-47.7	-50.9	15.2	0.00e+00	0	43	0	252706816	66	5399
2026-01-10 23:33:30.98	21.13	21.80	-47.7	-51.0	15.2	0.00e+00	0	43	0	254803968	66	5419
2026-01-10 23:33:31.99	21.16	21.94	-47.6	-50.9	15.2	0.00e+00	0	43	0	256901120	66	5391
2026-01-10 23:33:32.99	21.20	22.08	-47.7	-51.0	15.2	0.00e+00	0	43	0	258998272	66	5411
2026-01-10 23:33:33.99	21.23	22.22	-47.7	-51.0	15.2	0.00e+00	0	43	0	261095424	66	5430
2026-01-10 23:33:35.00	21.27	22.37	-47.7	-51.1	15.1	7.00e-07	0	43	0	262144000	66	5478
2026-01-10 23:33:36.00	21.30	22.51	-47.7	-50.9	15.2	0.00e+00	0	43	0	264241152	66	5399
2026-01-10 23:33:37.01	21.34	22.65	-47.7	-50.9	15.2	0.00e+00	0	43	0	266338304	66	5402
2026-01-10 23:33:38.01	21.37	22.80	-47.6	-50.8	15.4	0.00e+00	0	43	0	268435456	66	5327
2026-01-10 23:33:39.01	21.41	22.94	-47.5	-50.7	15.4	0.00e+00	0	43	0	270532608	66	5274
2026-01-10 23:33:40.01	21.44	23.09	-47.5	-50.7	15.5	0.00e+00	0	43	0	271581184	66	5252
2026-01-10 23:33:41.02	21.48	23.24	-47.5	-50.7	15.5	0.00e+00	0	43	0	273678336	66	5268
2026-01-10 23:33:42.02	21.51	23.38	-47.4	-50.6	15.6	0.00e+00	0	43	0	275775488	66	5202
2026-01-10 23:33:43.02	21.55	23.53	-47.3	-50.5	15.7	0.00e+00	0	43	0	277872640	66	5136
2026-01-10 23:33:44.02	21.59	23.68	-47.3	-50.4	15.8	0.00e+00	0	43	0	279969792	66	5092
2026-01-10 23:33:45.03	21.62	23.83	-47.2	-50.4	15.8	0.00e+00	0	43	0	281018368	66	5072
2026-01-10 23:33:46.03	21.66	23.98	-47.3	-50.5	15.7	0.00e+00	0	43	0	283115520	66	5122
2026-01-10 23:33:47.03	21.70	24.14	-47.1	-50.2	16.0	0.00e+00	0	43	0	285212672	66	4954
2026-01-10 23:33:48.04	21.74	24.29	-47.0	-50.2	16.0	0.00e+00	0	43	0	287309824	65	5220
2026-01-10 23:33:49.04	21.78	24.44	-47.0	-50.1	16.1	0.00e+00	0	43	0	289406976	65	5199
2026-01-10 23:33:50.04	21.81	24.60	-46.9	-50.0	16.2	0.00e+00	0	43	0	290455552	65	5120
2026-01-10 23:33:51.05	21.85	24.75	-47.1	-50.1	16.0	0.00e+00	0	43	0	292552704	65	5217
2026-01-10 23:33:52.05	21.89	24.91	-47.0	-50.1	16.1	0.00e+00	0	43	0	294649856	65	5196
2026-01-10 23:33:53.05	21.93	25.07	-47.1	-50.1	16.0	0.00e+00	0	43	0	296747008	65	5217
2026-01-10 23:33:54.05	21.97	25.23	-47.1	-50.2	16.0	0.00e+00	0	43	0	297795584	65	5224
2026-01-10 23:33:55.05	22.01	25.38	-47.1	-50.2	16.0	0.00e+00	0	43	0	299892736	65	5234
2026-01-10 23:33:56.06	22.06	25.55	-47.2	-50.2	16.0	0.00e+00	0	43	0	301989888	65	5278
2026-01-10 23:33:57.06	22.10	25.71	-47.3	-50.4	15.8	0.00e+00	0	43	0	304087040	65	5356
2026-01-10 23:33:58.07	22.14	25.87	-47.3	-50.4	15.8	0.00e+00	0	43	0	306184192	65	5372
2026-01-10 23:33:59.07	22.18	26.03	-47.3	-50.3	15.9	0.00e+00	0	43	0	307232768	65	5333
2026-01-10 23:34:00.07	22.22	26.20	-47.3	-50.5	15.7	0.00e+00	0	43	0	309329920	65	5424
2026-01-10 23:34:01.08	22.27	26.36	-47.4	-50.6	15.6	0.00e+00	0	43	0	311427072	65	5480
2026-01-10 23:34:02.08	22.31	26.53	-47.5	-50.8	15.5	0.00e+00	0	43	0	313524224	65	5600
2026-01-10 23:34:03.09	22.35	26.70	-47.5	-50.7	15.6	0.00e+00	0	43	0	315621376	65	5533
2026-01-10 23:34:04.09	22.40	26.86	-47.7	-50.9	15.3	0.00e+00	0	43	0	316669952	65	5721
2026-01-10 23:34:05.09	22.44	27.03	-47.8	-51.1	15.2	0.00e+00	0	43	0	318767104	66	5481
2026-01-10 23:34:06.10	22.49	27.20	-47.9	-51.3	15.0	0.00e+00	0	43	0	320864256	66	5613
2026-01-10 23:34:07.10	22.53	27.38	-47.9	-51.2	15.0	0.00e+00	0	43	0	322961408	66	5590
2026-01-10 23:34:08.11	22.58	27.55	-48.0	-51.5	14.8	0.00e+00	0	43	0	325058560	66	5727
2026-01-10 23:34:09.11	22.63	27.72	-48.1	-51.6	14.6	0.00e+00	0	43	0	326107136	67	5527
2026-01-10 23:34:10.11	22.67	27.90	-48.2	-51.7	14.5	0.00e+00	0	43	0	328204288	67	5573
2026-01-10 23:34:11.12	22.72	28.07	-48.3	-51.8	14.4	0.00e+00	0	43	0	330301440	67	5624
2026-01-10 23:34:12.12	22.77	28.25	-48.3	-51.8	14.5	0.00e+00	0	43	0	332398592	67	5635
2026-01-10 23:34:13.12	22.82	28.43	-48.3	-51.9	14.4	7.00e-07	0	43	0	334495744	67	5676
2026-01-10 23:34:14.13	22.87	28.61	-48.4	-52.0	14.3	7.00e-07	0	43	0	335544320	67	5763
2026-01-10 23:34:15.13	22.91	28.79	-48.4	-52.0	14.3	0.00e+00	0	43	0	337641472	67	5751
2026-01-10 23:34:16.13	22.96	28.97	-48.4	-52.0	14.3	3.00e-06	0	43	0	339738624	67	5749
2026-01-10 23:34:17.14	23.01	29.15	-48.4	-52.0	14.3	1.50e-06	0	43	0	341835776	67	5728
2026-01-10 23:34:18.14	23.07	29.34	-48.3	-51.9	14.4	0.00e+00	0	43	0	343932928	67	5686
2026-01-10 23:34:19.15	23.12	29.52	-48.3	-51.8	14.5	7.00e-07	0	43	0	344981504	67	5642
2026-01-10 23:34:20.15	23.17	29.71	-48.3	-51.8	14.5	7.00e-07	0	43	0	347078656	67	5613
2026-01-10 23:34:21.15	23.22	29.89	-48.3	-51.9	14.4	7.00e-07	0	43	0	349175808	67	5696
2026-01-10 23:34:22.16	23.27	30.08	-48.3	-51.8	14.5	7.00e-07	0	43	0	351272960	67	5627
2026-01-10 23:34:23.16	23.33	30.27	-48.3	-51.9	14.4	7.00e-07	0	43	0	352321536	67	5680
2026-01-10 23:34:24.16	23.38	30.46	-48.5	-52.1	14.2	1.50e-06	0	43	0	354418688	67	5837
2026-01-10 23:34:25.17	23.44	30.66	-48.5	-52.1	14.2	7.00e-07	0	43	0	356515840	67	5838
2026-01-10 23:34:26.17	23.49	30.85	-48.5	-52.2	14.1	3.00e-06	0	43	0	358612992	67	5887
2026-01-10 23:34:27.18	23.55	31.05	-48.6	-52.4	13.9	4.50e-06	0	43	0	360710144	67	6038
2026-01-10 23:34:28.18	23.61	31.24	-48.6	-52.4	13.9	0.00e+00	0	43	0	362807296	67	5997
2026-01-10 23:34:29.18	23.66	31.44	-48.8	-52.7	13.8	4.50e-06	0	43	0	363855872	68	5903
2026-01-10 23:34:30.19	23.72	31.64	-48.8	-52.6	13.8	4.50e-06	0	43	0	365953024	68	5852
2026-01-10 23:34:31.19	23.78	31.84	-48.8	-52.7	13.7	3.00e-06	0	43	0	368050176	68	5921
2026-01-10 23:34:32.19	23.84	32.04	-48.8	-52.8	13.6	9.90e-06	0	43	0	370147328	68	5971
2026-01-10 23:34:33.20	23.90	32.25	-48.7	-52.7	13.8	3.80e-06	0	43	0	371195904	68	5901
2026-01-10 23:34:34.20	23.96	32.45	-48.6	-52.6	13.9	5.30e-06	0	43	0	373293056	68	5827
2026-01-10 23:34:35.20	24.02	32.65	-48.4	-52.4	14.1	6.10e-06	0	43	0	375390208	68	5710
2026-01-10 23:34:36.20	24.08	32.86	-48.4	-52.4	14.1	4.50e-06	0	43	0	377487360	68	5686
2026-01-10 23:34:37.21	24.15	33.07	-48.3	-52.2	14.3	7.00e-07	0	43	0	379584512	68	5566
2026-01-10 23:34:38.21	24.21	33.28	-48.2	-52.0	14.5	7.00e-07	0	43	0	380633088	68	5433
2026-01-10 23:34:39.21	24.28	33.49	-48.2	-52.0	14.5	0.00e+00	0	43	0	382730240	68	5405
2026-01-10 23:34:40.22	24.34	33.70	-48.1	-51.7	14.8	0.00e+00	0	43	0	384827392	68	5255
2026-01-10 23:34:41.22	24.41	33.92	-48.1	-51.7	14.8	0.00e+00	0	43	0	386924544	68	5219
2026-01-10 23:34:42.22	24.47	34.13	-47.8	-51.2	15.1	0.00e+00	0	43	0	389021696	67	5279
2026-01-10 23:34:43.22	24.54	34.35	-47.7	-51.0	15.3	0.00e+00	0	43	0	390070272	67	5131
2026-01-10 23:34:44.23	24.61	34.57	-47.6	-50.9	15.5	0.00e+00	0	43	0	392167424	67	5047
2026-01-10 23:34:45.23	24.68	34.79	-47.6	-50.7	15.6	0.00e+00	0	43	0	394264576	67	4967
2026-01-10 23:34:46.23	24.75	35.01	-47.6	-50.7	15.6	0.00e+00	0	43	0	396361728	67	4967
2026-01-10 23:34:47.24	24.82	35.23	-47.6	-50.7	15.6	0.00e+00	0	43	0	398458880	67	4957
2026-01-10 23:34:48.24	24.89	35.46	-47.6	-50.7	15.6	0.00e+00	0	43	0	399507456	67	4981
2026-01-10 23:34:49.25	24.97	35.69	-47.5	-50.7	15.7	0.00e+00	0	43	0	401604608	67	4927
2026-01-10 23:34:50.25	25.04	35.91	-47.5	-50.7	15.7	0.00e+00	0	43	0	403701760	67	4929
2026-01-10 23:34:51.25	25.12	36.14	-47.4	-50.5	15.8	0.00e+00	0	43	0	405798912	66	5138
2026-01-10 23:34:52.26	25.19	36.37	-47.4	-50.4	15.9	0.00e+00	0	43	0	407896064	66	5093
2026-01-10 23:34:53.26	25.27	36.61	-47.3	-50.3	16.0	0.00e+00	0	43	0	408944640	66	5028
2026-01-10 23:34:54.26	25.35	36.84	-47.1	-50.1	16.2	0.00e+00	0	43	0	411041792	66	4893
2026-01-10 23:34:55.27	25.43	37.08	-47.1	-50.1	16.2	0.00e+00	0	43	0	413138944	66	4890
2026-01-10 23:34:56.27	25.51	37.31	-47.2	-50.2	16.1	0.00e+00	0	43	0	415236096	66	4978
2026-01-10 23:34:57.27	25.59	37.55	-47.4	-50.4	15.9	0.00e+00	0	43	0	417333248	66	5070
2026-01-10 23:34:58.28	25.67	37.79	-47.4	-50.5	15.8	0.00e+00	0	43	0	418381824	66	5138
2026-01-10 23:34:59.28	25.76	38.04	-47.5	-50.7	15.7	0.00e+00	0	43	0	420478976	66	5227
2026-01-10 23:35:00.29	25.84	38.28	-47.6	-50.7	15.7	0.00e+00	0	43	0	422576128	66	5244
2026-01-10 23:35:01.29	25.93	38.53	-47.6	-50.7	15.6	0.00e+00	0	43	0	424673280	66	5255
2026-01-10 23:35:02.30	26.02	38.78	-47.5	-50.6	15.7	0.00e+00	0	43	0	425721856	66	5214
2026-01-10 23:35:03.30	26.11	39.03	-47.6	-50.6	15.7	0.00e+00	0	43	0	427819008	66	5215
2026-01-10 23:35:04.30	26.20	39.28	-47.5	-50.6	15.8	0.00e+00	0	43	0	429916160	66	5164
2026-01-10 23:35:05.30	26.29	39.53	-47.6	-50.6	15.7	0.00e+00	0	43	0	432013312	66	5198
2026-01-10 23:35:06.31	26.38	39.78	-47.4	-50.4	15.9	0.00e+00	0	43	0	434110464	66	5054
2026-01-10 23:35:07.31	26.48	40.04	-47.5	-50.6	15.8	0.00e+00	0	43	0	435159040	66	5179
2026-01-10 23:35:08.31	26.57	40.30	-47.6	-50.7	15.6	0.00e+00	0	43	0	437256192	66	5269
2026-01-10 23:35:09.32	26.67	40.56	-47.7	-50.8	15.5	0.00e+00	0	43	0	439353344	66	5316
2026-01-10 23:35:10.32	26.77	40.82	-47.9	-51.2	15.2	0.00e+00	0	43	0	441450496	66	5532
2026-01-10 23:35:11.32	26.87	41.08	-47.8	-51.1	15.3	0.00e+00	0	43	0	443547648	66	5468
2026-01-10 23:35:12.33	26.97	41.35	-47.8	-51.1	15.3	0.00e+00	0	43	0	444596224	66	5481
2026-01-10 23:35:13.33	27.07	41.62	-47.8	-51.1	15.3	0.00e+00	0	43	0	446693376	66	5469
2026-01-10 23:35:14.34	27.18	41.89	-47.8	-51.0	15.3	0.00e+00	0	43	0	448790528	66	5455
2026-01-10 23:35:15.34	27.29	42.16	-47.7	-50.9	15.5	0.00e+00	0	43	0	450887680	66	5361
2026-01-10 23:35:16.34	27.40	42.43	-47.7	-50.9	15.4	0.00e+00	0	43	0	452984832	66	5372
2026-01-10 23:35:17.35	27.51	42.71	-47.7	-50.9	15.5	0.00e+00	0	43	0	454033408	66	5366
2026-01-10 23:35:18.35	27.62	42.99	-47.8	-51.0	15.3	0.00e+00	0	43	0	456130560	66	5444
2026-01-10 23:35:19.36	27.73	43.27	-47.9	-51.2	15.2	0.00e+00	0	43	0	458227712	66	5564
2026-01-10 23:35:20.36	27.85	43.55	-48.1	-51.5	14.9	0.00e+00	0	43	0	460324864	66	5728
2026-01-10 23:35:21.36	27.97	43.83	-48.2	-51.7	14.7	7.00e-07	0	43	0	462422016	67	5553
2026-01-10 23:35:22.37	28.09	44.12	-48.4	-51.9	14.4	0.00e+00	0	43	0	463470592	67	5708
2026-01-10 23:35:23.37	28.21	44.40	-48.5	-52.1	14.2	1.50e-06	0	43	0	465567744	67	5837
2026-01-10 23:35:24.37	28.34	44.69	-48.5	-52.1	14.3	3.80e-06	0	43	0	467664896	67	5826
2026-01-10 23:35:25.37	28.46	44.98	-48.3	-51.8	14.6	1.50e-06	0	43	0	469762048	67	5631
2026-01-10 23:35:26.38	28.59	45.28	-48.2	-51.7	14.7	0.00e+00	0	43	0	471859200	67	5555
2026-01-10 23:35:27.38	28.72	45.57	-48.3	-51.9	14.5	0.00e+00	0	43	0	472907776	67	5665
2026-01-10 23:35:28.39	28.86	45.87	-48.3	-51.8	14.6	2.20e-06	0	43	0	475004928	67	5631
2026-01-10 23:35:29.39	28.99	46.17	-48.2	-51.7	14.7	0.00e+00	0	43	0	477102080	67	5551
2026-01-10 23:35:30.40	29.13	46.47	-48.3	-51.8	14.5	0.00e+00	0	43	0	479199232	67	5638
2026-01-10 23:35:31.40	29.28	46.77	-48.3	-52.0	14.4	0.00e+00	0	43	0	481296384	67	5729
2026-01-10 23:35:32.40	29.42	47.08	-48.3	-51.9	14.5	0.00e+00	0	43	0	482344960	67	5683
2026-01-10 23:35:33.40	29.57	47.38	-48.5	-52.3	14.1	2.20e-06	0	43	0	484442112	67	5938
2026-01-10 23:35:34.41	29.72	47.69	-48.8	-52.6	13.9	5.30e-06	0	43	0	486539264	68	5806
2026-01-10 23:35:35.41	29.87	48.01	-48.8	-52.7	13.8	3.00e-06	0	43	0	488636416	68	5919
2026-01-10 23:35:36.41	30.03	48.32	-48.8	-52.8	13.8	7.60e-06	0	43	0	489684992	68	5932
2026-01-10 23:35:37.41	30.18	48.63	-48.5	-52.2	14.2	3.00e-06	0	43	0	491782144	68	5591
2026-01-10 23:35:38.42	30.35	48.95	-48.2	-51.8	14.8	1.50e-06	0	43	0	493879296	68	5301
2026-01-10 23:35:39.42	30.51	49.27	-47.5	-50.6	15.8	0.00e+00	0	43	0	495976448	66	5213
2026-01-10 23:35:40.42	30.68	49.59	-47.2	-50.3	16.1	0.00e+00	0	43	0	498073600	66	4993
2026-01-10 23:35:41.43	30.85	49.92	-47.1	-50.1	16.3	0.00e+00	0	43	0	499122176	66	4889
2026-01-10 23:35:42.43	31.03	50.24	-46.8	-49.7	16.6	0.00e+00	0	43	0	501219328	65	4935
2026-01-10 23:35:43.43	31.21	50.57	-46.4	-49.1	17.2	0.00e+00	0	43	0	503316480	64	4875
2026-01-10 23:35:44.44	31.40	50.90	-46.2	-48.8	17.5	0.00e+00	0	43	0	505413632	64	4715
2026-01-10 23:35:45.44	31.58	51.23	-45.8	-48.2	18.1	0.00e+00	0	43	0	507510784	63	4697
2026-01-10 23:35:46.44	31.77	51.56	-45.6	-48.0	18.3	0.00e+00	0	43	0	508559360	63	4576
2026-01-10 23:35:47.44	31.97	51.90	-45.3	-47.6	18.6	0.00e+00	0	43	0	510656512	62	4610
2026-01-10 23:35:48.44	32.17	52.24	-45.1	-47.4	18.9	0.00e+00	0	43	0	512753664	62	4504
2026-01-10 23:35:49.45	32.38	52.58	-45.0	-47.3	18.9	0.00e+00	0	43	0	514850816	62	4487
2026-01-10 23:35:50.45	32.59	52.92	-45.1	-47.4	18.9	0.00e+00	0	43	0	516947968	61	4761
2026-01-10 23:35:51.45	32.80	53.26	-44.9	-47.2	19.1	0.00e+00	0	43	0	517996544	61	4665
2026-01-10 23:35:52.46	33.02	53.61	-44.9	-47.1	19.1	0.00e+00	0	43	0	520093696	61	4632
2026-01-10 23:35:53.46	33.25	53.96	-44.8	-47.1	19.1	0.00e+00	0	43	0	522190848	61	4620
2026-01-10 23:35:54.46	33.48	54.31	-44.7	-47.0	19.3	0.00e+00	0	43	0	524288000	61	4549
2026-01-10 23:35:55.47	33.71	54.66	-44.8	-47.1	19.2	0.00e+00	0	43	0	526385152	61	4604
2026-01-10 23:35:56.47	33.96	55.01	-44.7	-46.9	19.3	0.00e+00	0	43	0	527433728	61	4535
2026-01-10 23:35:57.48	34.20	55.37	-44.7	-46.9	19.3	0.00e+00	0	43	0	529530880	61	4531
2026-01-10 23:35:58.48	34.46	55.73	-44.8	-47.0	19.1	0.00e+00	0	43	0	531628032	61	4591
2026-01-10 23:35:59.48	34.72	56.09	-45.0	-47.3	19.0	0.00e+00	0	43	0	533725184	61	4722
2026-01-10 23:36:00.48	34.99	56.45	-45.4	-47.7	18.6	0.00e+00	0	43	0	535822336	61	4980
2026-01-10 23:36:01.49	35.26	56.81	-45.7	-48.2	18.1	0.00e+00	0	43	0	536870912	62	4938
2026-01-10 23:36:02.49	35.54	57.18	-45.9	-48.5	17.9	0.00e+00	0	43	0	538968064	62	5118
2026-01-10 23:36:03.49	35.83	57.54	-46.0	-48.5	17.8	0.00e+00	0	43	0	541065216	62	5147
2026-01-10 23:36:04.50	36.13	57.91	-46.0	-48.5	17.9	0.00e+00	0	43	0	543162368	62	5117
2026-01-10 23:36:05.50	36.44	58.28	-45.5	-47.9	18.4	0.00e+00	0	43	0	545259520	62	4774
2026-01-10 23:36:06.50	36.75	58.65	-45.4	-47.7	18.6	0.00e+00	0	43	0	546308096	62	4690
2026-01-10 23:36:07.51	37.07	59.03	-45.1	-47.4	18.9	0.00e+00	0	43	0	548405248	62	4504
2026-01-10 23:36:08.51	37.40	59.40	-45.0	-47.2	19.0	0.00e+00	0	43	0	550502400	62	4427
2026-01-10 23:36:09.51	37.74	59.77	-44.9	-47.1	19.1	0.00e+00	0	43	0	552599552	61	4629
2026-01-10 23:36:10.51	38.09	60.15	-44.8	-47.0	19.2	0.00e+00	0	43	0	553648128	61	4582
2026-01-10 23:36:11.52	38.46	60.53	-44.6	-46.8	19.4	0.00e+00	0	43	0	555745280	61	4465
2026-01-10 23:36:12.52	38.83	60.91	-44.3	-46.5	19.7	0.00e+00	0	43	0	557842432	60	4567
2026-01-10 23:36:13.53	39.22	61.29	-44.0	-46.1	20.0	0.00e+00	0	43	0	559939584	60	4378
2026-01-10 23:36:14.53	39.61	61.67	-43.7	-45.7	20.3	0.00e+00	0	43	0	562036736	59	4418
2026-01-10 23:36:15.53	40.02	62.05	-43.6	-45.7	20.3	0.00e+00	0	43	0	563085312	59	4394
2026-01-10 23:36:16.53	40.44	62.44	-43.8	-45.9	20.2	0.00e+00	0	43	0	565182464	59	4494
2026-01-10 23:36:17.54	40.88	62.82	-44.1	-46.3	19.8	0.00e+00	0	43	0	567279616	59	4719
2026-01-10 23:36:18.54	41.32	63.21	-44.4	-46.6	19.6	0.00e+00	0	43	0	569376768	59	4875
2026-01-10 23:36:19.54	41.79	63.59	-44.6	-46.8	19.3	0.00e+00	0	43	0	571473920	59	4987
2026-01-10 23:36:20.55	42.27	63.98	-44.7	-47.0	19.2	0.00e+00	0	43	0	572522496	60	4820
2026-01-10 23:36:21.55	42.76	64.37	-44.7	-47.0	19.2	0.00e+00	0	43	0	574619648	60	4820
2026-01-10 23:36:22.55	43.27	64.75	-44.9	-47.2	19.1	0.00e+00	0	43	0	576716800	60	4929
2026-01-10 23:36:23.56	43.80	65.14	-45.4	-47.7	18.6	0.00e+00	0	43	0	578813952	61	4955
2026-01-10 23:36:24.56	44.35	65.53	-45.9	-48.4	17.9	0.00e+00	0	43	0	580911104	62	5069
2026-01-10 23:36:25.56	44.92	65.91	-46.4	-49.0	17.4	0.00e+00	0	43	0	581959680	63	5145
2026-01-10 23:36:26.57	45.51	66.30	-46.7	-49.4	17.0	0.00e+00	0	43	0	584056832	64	5056
2026-01-10 23:36:27.57	46.12	66.69	-46.8	-49.6	16.7	0.00e+00	0	43	0	586153984	64	5174
2026-01-10 23:36:28.57	46.75	67.07	-47.2	-50.1	16.2	0.00e+00	0	43	0	588251136	65	5192
2026-01-10 23:36:29.58	47.40	67.46	-47.6	-50.7	15.7	0.00e+00	0	43	0	590348288	65	5539
2026-01-10 23:36:30.58	48.08	67.84	-48.0	-51.3	15.1	0.00e+00	0	43	0	591396864	66	5645
2026-01-10 23:36:31.58	48.79	68.23	-48.2	-51.6	14.8	7.00e-07	0	43	0	593494016	67	5499
2026-01-10 23:36:32.58	49.52	68.61	-47.9	-51.2	15.1	0.00e+00	0	43	0	595591168	67	5237
2026-01-10 23:36:33.59	50.28	68.99	-47.7	-50.9	15.5	0.00e+00	0	43	0	597688320	67	5053
2026-01-10 23:36:34.59	51.07	69.37	-47.5	-50.6	15.8	0.00e+00	0	43	0	599785472	66	5178
2026-01-10 23:36:35.59	51.89	69.74	-47.7	-50.8	15.6	0.00e+00	0	43	0	600834048	66	5300
2026-01-10 23:36:36.59	52.75	70.11	-47.4	-50.4	16.0	0.00e+00	0	43	0	602931200	66	5054
2026-01-10 23:36:37.59	53.63	70.48	-47.3	-50.3	16.1	0.00e+00	0	43	0	605028352	66	5032
2026-01-10 23:36:38.60	54.57	70.85	-47.3	-50.2	16.0	0.00e+00	0	43	0	607125504	66	4976
2026-01-10 23:36:39.60	55.53	71.21	-47.5	-50.6	15.8	0.00e+00	0	43	0	608174080	66	5199
2026-01-10 23:36:40.60	56.53	71.57	-47.7	-50.8	15.6	0.00e+00	0	43	0	610271232	66	5301
2026-01-10 23:36:41.61	57.59	71.93	-48.0	-51.2	15.1	0.00e+00	0	43	0	612368384	66	5564
2026-01-10 23:36:42.61	58.68	72.28	-48.3	-51.7	14.8	7.00e-07	0	43	0	614465536	67	5539
2026-01-10 23:36:43.62	59.82	72.62	-48.5	-52.1	14.2	7.00e-07	0	43	0	616562688	67	5799
2026-01-10 23:36:44.62	61.00	72.96	-48.6	-52.3	14.1	1.50e-06	0	43	0	617611264	67	5929
2026-01-10 23:36:45.62	62.24	73.29	-48.3	-51.8	14.5	7.00e-07	0	43	0	619708416	67	5646
2026-01-10 23:36:46.62	63.52	73.62	-47.9	-51.2	15.1	0.00e+00	0	43	0	621805568	67	5269
2026-01-10 23:36:47.63	64.87	73.94	-47.6	-50.7	15.7	0.00e+00	0	43	0	623902720	67	4932
2026-01-10 23:36:48.63	66.26	74.25	-47.3	-50.3	16.1	0.00e+00	0	43	0	625999872	66	5000
2026-01-10 23:36:49.63	67.72	74.55	-47.3	-50.2	16.1	0.00e+00	0	43	0	627048448	66	4964
2026-01-10 23:36:50.63	69.23	74.85	-47.4	-50.4	16.0	0.00e+00	0	43	0	629145600	66	5060
2026-01-10 23:36:51.64	70.81	75.13	-47.3	-50.3	16.1	0.00e+00	0	43	0	631242752	66	4989
2026-01-10 23:36:52.64	72.45	75.40	-47.0	-49.9	16.4	0.00e+00	0	43	0	633339904	66	4791
2026-01-10 23:36:53.64	74.15	75.66	-47.4	-50.4	16.0	0.00e+00	0	43	0	635437056	66	5075
2026-01-10 23:36:54.65	75.92	75.92	-47.9	-51.1	15.4	0.00e+00	0	43	0	636485632	66	5503
2026-01-10 23:36:55.65	77.75	76.15	-48.2	-51.7	14.7	7.00e-07	0	43	0	638582784	67	5530
2026-01-10 23:36:56.65	79.64	76.37	-48.2	-51.8	14.6	7.00e-07	0	43	0	640679936	67	5623
2026-01-10 23:36:57.66	81.61	76.58	-48.1	-51.6	14.8	7.00e-07	0	43	0	642777088	67	5478
2026-01-10 23:36:58.66	83.62	76.78	-48.3	-51.9	14.6	0.00e+00	0	43	0	644874240	67	5678
2026-01-10 23:36:59.66	85.69	76.95	-48.5	-52.2	14.3	0.00e+00	0	43	0	645922816	67	5861
2026-01-10 23:37:00.67	87.84	77.11	-48.9	-52.8	13.6	3.80e-06	0	43	0	648019968	68	5980
2026-01-10 23:37:01.67	90.02	77.26	-48.9	-53.0	13.6	7.60e-06	0	43	0	650117120	68	6072
2026-01-10 23:37:02.67	92.24	77.38	-48.3	-51.9	14.6	2.20e-06	0	43	0	652214272	68	5345
2026-01-10 23:37:03.68	94.53	77.49	-48.2	-51.6	14.9	0.00e+00	0	43	0	654311424	68	5194
2026-01-10 23:37:04.68	96.84	77.57	-48.4	-51.9	14.7	0.00e+00	0	43	0	655360000	68	5390
2026-01-10 23:37:05.68	99.17	77.64	-48.4	-51.9	14.6	0.00e+00	0	43	0	657457152	68	5369
2026-01-10 23:37:06.69	101.55	77.68	-48.7	-52.4	14.2	0.00e+00	0	43	0	659554304	68	5696
2026-01-10 23:37:07.69	103.91	77.71	-48.6	-52.3	14.3	1.50e-06	0	43	0	661651456	68	5629
2026-01-10 23:37:08.70	106.31	77.71	-48.3	-51.8	14.7	7.00e-07	0	43	0	663748608	68	5333
2026-01-10 23:37:09.70	108.68	77.70	-48.1	-51.4	15.2	7.00e-07	0	43	0	664797184	68	5053
2026-01-10 23:37:10.70	111.05	77.66	-48.4	-51.8	14.7	0.00e+00	0	43	0	666894336	68	5310
2026-01-10 23:37:11.71	113.41	77.60	-48.8	-52.5	14.0	0.00e+00	0	43	0	668991488	68	5781
2026-01-10 23:37:12.71	115.73	77.53	-49.3	-53.5	13.1	2.67e-05	0	43	0	671088640	69	6078
2026-01-10 23:37:13.72	118.04	77.43	-49.2	-53.4	13.2	2.36e-05	0	43	0	672137216	69	6010
2026-01-10 23:37:14.72	120.29	77.31	-49.1	-53.0	13.5	6.80e-06	0	43	0	674234368	69	5758
2026-01-10 23:37:15.72	122.49	77.18	-49.2	-53.0	13.5	3.80e-06	0	43	0	676331520	69	5754
2026-01-10 23:37:16.73	124.66	77.03	-49.4	-53.4	13.1	2.97e-05	0	43	0	678428672	69	6037
2026-01-10 23:37:17.73	126.76	76.86	-49.4	-53.5	13.1	2.89e-05	0	43	0	680525824	69	6082
2026-01-10 23:37:18.73	128.80	76.67	-49.3	-53.3	13.3	1.37e-05	0	43	0	681574400	69	5937
2026-01-10 23:37:19.74	130.80	76.47	-49.8	-54.3	12.3	7.85e-05	0	43	0	683671552	70	6279
2026-01-10 23:37:20.74	132.72	76.25	-50.0	-54.6	11.9	3.34e-04	0	43	0	685768704	70	6542
2026-01-10 23:37:21.74	134.57	76.02	-49.6	-53.9	12.6	6.68e-04	0	43	0	687865856	71	5682
2026-01-10 23:37:22.75	136.38	75.78	-49.1	-53.0	13.4	6.80e-06	0	43	0	689963008	70	5439
2026-01-10 23:37:23.75	138.11	75.52	-49.6	-53.8	12.7	1.37e-05	0	43	0	691011584	70	5950
2026-01-10 23:37:24.75	139.77	75.26	-49.7	-54.0	12.6	8.16e-05	0	43	0	693108736	70	6086
2026-01-10 23:37:25.75	141.38	74.98	-49.7	-54.0	12.6	9.53e-05	0	43	0	695205888	70	6096
2026-01-10 23:37:26.76	142.93	74.69	-49.8	-54.2	12.4	1.28e-04	0	43	0	697303040	70	6266
2026-01-10 23:37:27.76	144.41	74.39	-49.7	-54.2	12.4	1.52e-04	0	43	0	699400192	70	6245
2026-01-10 23:37:28.77	145.85	74.08	-49.2	-53.3	13.1	4.57e-05	0	43	0	700448768	70	5646
2026-01-10 23:37:29.77	147.21	73.76	-48.8	-52.6	14.0	3.00e-06	0	43	0	702545920	69	5473
2026-01-10 23:37:30.78	148.53	73.44	-48.6	-52.1	14.4	7.00e-07	0	43	0	704643072	69	5207
2026-01-10 23:37:31.78	149.79	73.11	-48.3	-51.6	15.0	7.00e-07	0	43	0	706740224	68	5178
2026-01-10 23:37:32.78	150.99	72.77	-48.3	-51.6	14.9	0.00e+00	0	43	0	708837376	68	5204
2026-01-10 23:37:33.79	152.16	72.43	-47.5	-50.5	15.8	0.00e+00	0	43	0	709885952	67	4854
2026-01-10 23:37:34.79	153.27	72.08	-46.7	-49.3	17.0	0.00e+00	0	43	0	711983104	65	4749
2026-01-10 23:37:35.79	154.33	71.73	-46.6	-49.3	17.1	0.00e+00	0	43	0	714080256	65	4748
2026-01-10 23:37:36.80	155.37	71.37	-47.3	-50.2	16.2	0.00e+00	0	43	0	716177408	65	5244
2026-01-10 23:37:37.80	156.35	71.00	-47.2	-50.0	16.4	0.00e+00	0	43	0	718274560	65	5158
2026-01-10 23:37:38.80	157.29	70.64	-47.3	-50.2	16.1	0.00e+00	0	43	0	719323136	65	5265
2026-01-10 23:37:39.81	158.20	70.27	-47.4	-50.4	16.0	0.00e+00	0	43	0	721420288	65	5345
2026-01-10 23:37:40.81	159.07	69.90	-47.4	-50.4	16.0	0.00e+00	0	43	0	723517440	65	5368
2026-01-10 23:37:41.81	159.91	69.52	-47.9	-51.1	15.3	0.00e+00	0	43	0	725614592	66	5509
2026-01-10 23:37:42.81	160.71	69.15	-48.6	-52.2	14.2	7.00e-07	0	43	0	726663168	67	5889
2026-01-10 23:37:43.82	161.49	68.76	-48.8	-52.4	14.1	7.00e-07	0	43	0	728760320	68	5679
2026-01-10 23:37:44.82	162.24	68.38	-48.9	-52.7	13.9	1.50e-06	0	43	0	730857472	68	5866
2026-01-10 23:37:45.82	162.95	68.00	-49.3	-53.4	13.3	1.98e-05	0	43	0	732954624	69	6000
2026-01-10 23:37:46.83	163.65	67.61	-48.7	-52.4	14.2	1.50e-06	0	43	0	735051776	69	5362
2026-01-10 23:37:47.83	164.31	67.23	-48.3	-51.6	15.0	0.00e+00	0	43	0	737148928	68	5199
2026-01-10 23:37:48.83	164.95	66.85	-47.6	-50.6	15.7	0.00e+00	0	43	0	738197504	67	4898
2026-01-10 23:37:49.84	165.58	66.46	-47.2	-50.1	16.3	0.00e+00	0	43	0	740294656	66	4896
2026-01-10 23:37:50.84	166.17	66.07	-46.5	-49.2	17.1	0.00e+00	0	43	0	742391808	65	4684
2026-01-10 23:37:51.84	166.75	65.68	-46.2	-48.8	17.5	0.00e+00	0	43	0	744488960	64	4719
2026-01-10 23:37:52.85	167.31	65.29	-45.7	-48.1	18.2	0.00e+00	0	43	0	745537536	63	4635
2026-01-10 23:37:53.85	167.84	64.90	-45.0	-47.3	18.9	0.00e+00	0	43	0	747634688	62	4486
2026-01-10 23:37:54.85	168.36	64.52	-45.0	-47.3	18.9	0.00e+00	0	43	0	749731840	62	4478
2026-01-10 23:37:55.85	168.86	64.13	-45.0	-47.2	19.0	0.00e+00	0	43	0	751828992	61	4690
2026-01-10 23:37:56.86	169.35	63.74	-44.2	-46.3	19.9	0.00e+00	0	43	0	753926144	60	4479
2026-01-10 23:37:57.86	169.82	63.35	-44.2	-46.3	19.9	0.00e+00	0	43	0	754974720	60	4461
2026-01-10 23:37:58.86	170.28	62.97	-44.8	-47.0	19.2	0.00e+00	0	43	0	757071872	60	4845
2026-01-10 23:37:59.87	170.72	62.58	-45.0	-47.3	19.0	0.00e+00	0	43	0	759169024	60	4986
2026-01-10 23:38:00.87	171.14	62.20	-44.9	-47.1	19.1	0.00e+00	0	43	0	761266176	60	4909
2026-01-10 23:38:01.87	171.56	61.81	-44.8	-47.1	19.2	0.00e+00	0	43	0	763363328	60	4878
2026-01-10 23:38:02.88	171.96	61.43	-45.0	-47.3	18.9	0.00e+00	0	43	0	764411904	60	5019
2026-01-10 23:38:03.88	172.35	61.05	-45.5	-47.9	18.4	0.00e+00	0	43	0	766509056	61	5072
2026-01-10 23:38:04.89	172.73	60.66	-46.7	-49.5	16.8	0.00e+00	0	43	0	768606208	64	5125
2026-01-10 23:38:05.89	173.10	60.28	-47.9	-51.1	15.2	0.00e+00	0	43	0	770703360	66	5522
2026-01-10 23:38:06.89	173.45	59.91	-48.0	-51.3	15.1	0.00e+00	0	43	0	772800512	66	5599
2026-01-10 23:38:07.90	173.80	59.53	-46.8	-49.5	16.7	0.00e+00	0	43	0	773849088	65	4858
2026-01-10 23:38:08.90	174.13	59.15	-46.6	-49.3	17.1	0.00e+00	0	43	0	775946240	65	4710
2026-01-10 23:38:09.91	174.46	58.77	-47.2	-50.1	16.2	0.00e+00	0	43	0	778043392	65	5217
2026-01-10 23:38:10.91	174.78	58.40	-48.4	-51.8	14.6	0.00e+00	0	43	0	780140544	67	5645
2026-01-10 23:38:11.91	175.09	58.03	-48.2	-51.6	14.8	0.00e+00	0	43	0	782237696	67	5505
2026-01-10 23:38:12.92	175.39	57.66	-47.7	-50.8	15.5	0.00e+00	0	43	0	783286272	67	4992
2026-01-10 23:38:13.92	175.68	57.29	-47.1	-49.9	16.3	0.00e+00	0	43	0	785383424	66	4787
2026-01-10 23:38:14.92	175.97	56.93	-46.5	-49.2	17.1	0.00e+00	0	43	0	787480576	65	4667
2026-01-10 23:38:15.93	176.25	56.56	-46.0	-48.5	17.7	0.00e+00	0	43	0	789577728	64	4585
2026-01-10 23:38:16.93	176.52	56.20	-46.0	-48.5	17.8	0.00e+00	0	43	0	791674880	63	4843
2026-01-10 23:38:17.93	176.78	55.84	-46.2	-48.7	17.6	0.00e+00	0	43	0	792723456	63	4981
2026-01-10 23:38:18.94	177.04	55.47	-46.1	-48.8	17.6	0.00e+00	0	43	0	794820608	63	4993
2026-01-10 23:38:19.94	177.29	55.12	-45.6	-48.0	18.3	0.00e+00	0	43	0	796917760	63	4595
2026-01-10 23:38:20.94	177.53	54.76	-45.0	-47.4	18.8	0.00e+00	0	43	0	799014912	62	4511
2026-01-10 23:38:21.95	177.77	54.41	-45.2	-47.7	18.6	0.00e+00	0	43	0	800063488	62	4653
2026-01-10 23:38:22.95	178.00	54.06	-45.9	-48.5	17.9	0.00e+00	0	43	0	802160640	62	5107
2026-01-10 23:38:23.95	178.23	53.71	-46.3	-49.0	17.4	0.00e+00	0	43	0	804257792	63	5134
2026-01-10 23:38:24.96	178.45	53.36	-46.2	-48.8	17.4	0.00e+00	0	43	0	806354944	63	5019
2026-01-10 23:38:25.96	178.67	53.01	-46.0	-48.5	17.8	0.00e+00	0	43	0	808452096	63	4830
2026-01-10 23:38:26.96	178.88	52.67	-46.6	-49.3	17.0	0.00e+00	0	43	0	809500672	63	5286
2026-01-10 23:38:27.97	179.09	52.32	-47.3	-50.3	16.0	0.00e+00	0	43	0	811597824	65	5329
2026-01-10 23:38:28.97	179.29	51.99	-47.6	-50.8	15.5	0.00e+00	0	43	0	813694976	65	5616
2026-01-10 23:38:29.98	179.49	51.65	-47.7	-50.8	15.5	0.00e+00	0	43	0	815792128	66	5327
2026-01-10 23:38:30.98	179.68	51.31	-48.2	-51.6	14.7	7.00e-07	0	43	0	817889280	67	5484
2026-01-10 23:38:31.98	179.87	50.98	-49.2	-53.3	13.3	3.80e-06	0	43	0	818937856	69	5932
2026-01-10 23:38:32.99	180.06	50.64	-50.1	-54.9	11.6	1.26e-04	0	43	0	821035008	70	6785
2026-01-10 23:38:33.99	180.24	50.31	-50.1	-54.8	11.6	9.11e-04	0	43	0	823132160	71	6309
2026-01-10 23:38:34.99	180.42	49.99	-50.0	-54.6	11.8	3.36e-04	0	43	0	825229312	71	6167
2026-01-10 23:38:36.00	180.59	49.66	-49.7	-54.1	12.4	2.39e-04	0	43	0	827326464	71	5840
2026-01-10 23:38:37.00	180.76	49.34	-50.0	-54.6	11.9	4.09e-04	0	43	0	828375040	71	6195
2026-01-10 23:38:38.00	180.93	49.02	-50.0	-54.8	11.6	6.32e-04	0	43	0	830472192	71	6316
2026-01-10 23:38:39.01	181.09	48.69	-49.8	-54.3	12.1	4.16e-04	0	43	0	832569344	71	5986
2026-01-10 23:38:40.01	181.25	48.38	-49.5	-53.6	12.9	1.56e-04	0	43	0	834666496	70	5828
2026-01-10 23:38:41.01	181.41	48.06	-49.2	-53.2	13.3	2.51e-05	0	43	0	836763648	70	5533
2026-01-10 23:38:42.02	181.57	47.75	-49.4	-53.5	13.0	4.34e-05	0	43	0	837812224	70	5748
2026-01-10 23:38:43.02	181.72	47.44	-49.9	-54.3	12.1	6.33e-05	0	43	0	839909376	70	6305
2026-01-10 23:38:44.02	181.86	47.13	-50.2	-55.0	11.4	5.81e-04	0	43	0	842006528	70	6855
2026-01-10 23:38:45.03	182.01	46.82	-49.5	-53.8	12.6	2.55e-04	0	43	0	844103680	70	5968
2026-01-10 23:38:46.03	182.15	46.52	-48.7	-52.4	14.1	1.29e-05	0	43	0	846200832	69	5381
2026-01-10 23:38:47.03	182.29	46.21	-48.0	-51.3	15.2	0.00e+00	0	43	0	847249408	68	4993
2026-01-10 23:38:48.04	182.43	45.91	-47.8	-50.9	15.3	0.00e+00	0	43	0	849346560	67	5089
2026-01-10 23:38:49.04	182.56	45.61	-47.4	-50.4	15.9	0.00e+00	0	43	0	851443712	66	5087
2026-01-10 23:38:50.04	182.70	45.32	-47.3	-50.2	16.1	0.00e+00	0	43	0	853540864	66	4947
2026-01-10 23:38:51.05	182.83	45.02	-46.6	-49.2	17.0	0.00e+00	0	43	0	855638016	65	4702
2026-01-10 23:38:52.05	182.95	44.73	-46.3	-48.9	17.3	0.00e+00	0	43	0	856686592	64	4808
2026-01-10 23:38:53.05	183.08	44.44	-46.5	-49.2	17.1	0.00e+00	0	43	0	858783744	64	4934
2026-01-10 23:38:54.06	183.20	44.15	-46.6	-49.3	16.9	0.00e+00	0	43	0	860880896	64	5016
2026-01-10 23:38:55.06	183.32	43.86	-47.1	-50.0	16.3	0.00e+00	0	43	0	862978048	64	5431
2026-01-10 23:38:56.06	183.44	43.58	-47.4	-50.4	15.9	0.00e+00	0	43	0	864026624	65	5377
2026-01-10 23:38:57.06	183.56	43.30	-47.5	-50.7	15.6	0.00e+00	0	43	0	866123776	65	5537
2026-01-10 23:38:58.07	183.67	43.01	-47.2	-50.1	16.1	0.00e+00	0	43	0	868220928	65	5218
2026-01-10 23:38:59.07	183.79	42.74	-46.8	-49.6	16.6	0.00e+00	0	43	0	870318080	65	4924
2026-01-10 23:39:00.07	183.90	42.46	-46.2	-48.8	17.3	0.00e+00	0	43	0	872415232	64	4754
2026-01-10 23:39:01.06	184.01	42.19	-46.0	-48.4	17.8	0.00e+00	0	43	0	873463808	63	4795
2026-01-10 23:39:02.06	184.11	41.91	-45.8	-48.2	18.1	0.00e+00	0	43	0	875560960	63	4666
2026-01-10 23:39:03.07	184.22	41.64	-46.1	-48.5	17.8	0.00e+00	0	43	0	877658112	63	4868
2026-01-10 23:39:04.07	184.32	41.37	-46.5	-49.1	17.2	0.00e+00	0	43	0	879755264	63	5205
2026-01-10 23:39:05.07	184.43	41.11	-47.0	-49.8	16.5	0.00e+00	0	43	0	881852416	64	5332
2026-01-10 23:39:06.08	184.53	40.84	-47.7	-50.8	15.4	0.00e+00	0	43	0	882900992	65	5648
2026-01-10 23:39:07.08	184.63	40.58	-48.2	-51.6	14.7	0.00e+00	0	43	0	884998144	67	5468
2026-01-10 23:39:08.08	184.72	40.31	-48.0	-51.4	15.0	0.00e+00	0	43	0	887095296	67	5342
2026-01-10 23:39:09.09	184.82	40.05	-47.7	-50.8	15.4	0.00e+00	0	43	0	889192448	67	5041
2026-01-10 23:39:10.09	184.91	39.80	-47.3	-50.4	15.9	0.00e+00	0	43	0	891289600	66	5045
2026-01-10 23:39:11.09	185.01	39.54	-46.9	-49.8	16.4	0.00e+00	0	43	0	892338176	65	5016
2026-01-10 23:39:12.10	185.10	39.28	-46.7	-49.5	16.7	0.00e+00	0	43	0	894435328	65	4869
2026-01-10 23:39:13.10	185.19	39.03	-47.0	-49.9	16.4	0.00e+00	0	43	0	896532480	65	5045
2026-01-10 23:39:14.10	185.28	38.78	-47.0	-49.9	16.4	0.00e+00	0	43	0	898629632	65	5060
2026-01-10 23:39:15.11	185.37	38.53	-47.3	-50.3	16.0	0.00e+00	0	43	0	900726784	65	5330
2026-01-10 23:39:16.11	185.45	38.28	-47.8	-51.0	15.4	0.00e+00	0	43	0	901775360	66	5404
2026-01-10 23:39:17.11	185.54	38.04	-48.3	-51.8	14.6	0.00e+00	0	43	0	903872512	67	5594
2026-01-10 23:39:18.12	185.62	37.79	-48.9	-52.8	13.7	5.30e-06	0	43	0	905969664	68	5942
2026-01-10 23:39:19.12	185.71	37.55	-49.4	-53.8	12.7	3.35e-05	0	43	0	908066816	69	6297
2026-01-10 23:39:20.12	185.79	37.31	-49.5	-54.1	12.4	1.40e-04	0	43	0	910163968	69	6521
2026-01-10 23:39:21.13	185.87	37.07	-49.4	-53.7	12.6	1.10e-04	0	43	0	911212544	69	6273
2026-01-10 23:39:22.13	185.95	36.83	-49.1	-53.2	13.2	3.89e-05	0	43	0	913309696	69	5906
2026-01-10 23:39:23.14	186.03	36.59	-48.5	-52.2	14.2	9.10e-06	0	43	0	915406848	69	5225
2026-01-10 23:39:24.14	186.10	36.36	-48.3	-51.8	14.6	0.00e+00	0	43	0	917504000	68	5301
2026-01-10 23:39:25.15	186.18	36.13	-48.2	-51.6	14.9	0.00e+00	0	43	0	919601152	68	5160
2026-01-10 23:39:26.15	186.26	35.90	-47.5	-50.6	15.7	0.00e+00	0	43	0	920649728	66	5168
2026-01-10 23:39:27.15	186.33	35.67	-47.3	-50.4	15.9	0.00e+00	0	43	0	922746880	66	5071
2026-01-10 23:39:28.16	186.40	35.44	-47.4	-50.5	15.8	0.00e+00	0	43	0	924844032	66	5129
2026-01-10 23:39:29.16	186.48	35.21	-47.6	-50.8	15.5	0.00e+00	0	43	0	926941184	66	5310
2026-01-10 23:39:30.17	186.55	34.99	-47.9	-51.3	15.0	0.00e+00	0	43	0	927989760	66	5614
2026-01-10 23:39:31.17	186.62	34.77	-48.4	-52.0	14.3	0.00e+00	0	43	0	930086912	67	5732
2026-01-10 23:39:32.17	186.69	34.54	-48.9	-52.7	13.8	3.00e-06	0	43	0	932184064	68	5881
2026-01-10 23:39:33.18	186.76	34.32	-49.4	-53.5	12.9	1.52e-05	0	43	0	934281216	69	6127
2026-01-10 23:39:34.18	186.82	34.11	-49.8	-54.4	12.1	9.91e-05	0	43	0	936378368	70	6413
2026-01-10 23:39:35.18	186.89	33.89	-50.2	-55.2	11.2	7.50e-04	0	43	0	937426944	70	7018
2026-01-10 23:39:36.18	186.96	33.67	-50.4	-55.7	10.7	2.15e-03	0	43	0	939524096	71	6964
2026-01-10 23:39:37.19	187.02	33.46	-50.4	-55.6	10.8	3.03e-03	0	43	0	941621248	71	6916
2026-01-10 23:39:38.19	187.09	33.25	-50.3	-55.5	10.9	2.57e-03	0	43	0	943718400	71	6851
2026-01-10 23:39:39.19	187.15	33.04	-50.0	-54.8	11.5	1.28e-03	0	43	0	945815552	71	6340
2026-01-10 23:39:40.20	187.21	32.82	-49.7	-54.1	12.3	3.30e-04	0	43	0	946864128	71	5797
2026-01-10 23:39:41.20	187.28	32.62	-49.4	-53.6	12.8	1.04e-04	0	43	0	948961280	70	5817
2026-01-10 23:39:42.21	187.34	32.41	-49.2	-53.1	13.3	2.51e-05	0	43	0	951058432	70	5509
2026-01-10 23:39:43.21	187.40	32.20	-48.9	-52.6	13.8	8.30e-06	0	43	0	953155584	69	5525
2026-01-10 23:39:44.21	187.46	32.00	-48.9	-52.6	13.9	2.20e-06	0	43	0	955252736	69	5500
2026-01-10 23:39:45.22	187.52	31.80	-48.8	-52.4	14.0	3.80e-06	0	43	0	956301312	69	5398
2026-01-10 23:39:46.22	187.58	31.60	-48.9	-52.6	13.8	1.50e-06	0	43	0	958398464	69	5517
2026-01-10 23:39:47.22	187.63	31.40	-49.0	-52.8	13.6	3.80e-06	0	43	0	960495616	69	5618
2026-01-10 23:39:48.23	187.69	31.20	-49.0	-52.8	13.6	9.10e-06	0	43	0	962592768	69	5632
2026-01-10 23:39:49.23	187.75	31.00	-48.8	-52.5	13.9	2.20e-06	0	43	0	964689920	69	5462
2026-01-10 23:39:50.23	187.80	30.80	-48.8	-52.5	13.9	7.00e-07	0	43	0	965738496	69	5435
2026-01-10 23:39:51.24	187.86	30.61	-48.6	-52.2	14.2	4.50e-06	0	43	0	967835648	69	5266
2026-01-10 23:39:52.24	187.91	30.41	-48.5	-52.0	14.4	7.00e-07	0	43	0	969932800	69	5158
2026-01-10 23:39:53.25	187.97	30.22	-48.4	-52.0	14.5	0.00e+00	0	43	0	972029952	68	5412
2026-01-10 23:39:54.25	188.02	30.03	-48.4	-51.9	14.5	1.50e-06	0	43	0	974127104	68	5376
2026-01-10 23:39:55.25	188.07	29.84	-48.4	-52.0	14.5	0.00e+00	0	43	0	975175680	68	5406
2026-01-10 23:39:56.25	188.13	29.65	-48.3	-51.8	14.7	0.00e+00	0	43	0	977272832	68	5283
2026-01-10 23:39:57.26	188.18	29.46	-48.3	-51.8	14.6	0.00e+00	0	43	0	979369984	68	5333
2026-01-10 23:39:58.26	188.23	29.28	-48.1	-51.6	14.9	7.00e-07	0	43	0	981467136	68	5165
2026-01-10 23:39:59.26	188.28	29.09	-48.1	-51.5	14.9	0.00e+00	0	43	0	982515712	68	5155
2026-01-10 23:40:00.26	188.33	28.91	-48.0	-51.4	15.0	0.00e+00	0	43	0	984612864	68	5084
2026-01-10 23:40:01.27	188.38	28.73	-47.7	-51.0	15.2	0.00e+00	0	43	0	986710016	67	5132
2026-01-10 23:40:02.27	188.43	28.55	-47.6	-50.9	15.4	0.00e+00	0	43	0	988807168	67	5060
2026-01-10 23:40:03.27	188.48	28.37	-47.6	-50.8	15.4	0.00e+00	0	43	0	990904320	67	5037
2026-01-10 23:40:04.28	188.53	28.19	-47.4	-50.5	15.7	0.00e+00	0	43	0	993001472	66	5148
2026-01-10 23:40:05.28	188.57	28.01	-47.2	-50.3	16.0	0.00e+00	0	43	0	994050048	66	4986
2026-01-10 23:40:06.28	188.62	27.83	-47.2	-50.3	16.0	0.00e+00	0	43	0	996147200	66	4984
2026-01-10 23:40:07.29	188.67	27.66	-47.0	-50.0	16.2	0.00e+00	0	43	0	998244352	66	4832
2026-01-10 23:40:08.29	188.71	27.48	-47.1	-50.1	16.1	0.00e+00	0	43	0	1000341504	66	4876
2026-01-10 23:40:09.29	188.76	27.31	-46.9	-49.8	16.3	0.00e+00	0	43	0	1001390080	65	5019
2026-01-10 23:40:10.29	188.80	27.14	-46.9	-49.8	16.4	0.00e+00	0	43	0	1003487232	65	5023
2026-01-10 23:40:11.29	188.85	26.97	-46.9	-49.9	16.4	0.00e+00	0	43	0	1005584384	65	5042
2026-01-10 23:40:12.30	188.89	26.79	-46.8	-49.7	16.5	0.00e+00	0	43	0	1007681536	65	4946
2026-01-10 23:40:13.30	188.94	26.62	-46.9	-49.8	16.4	0.00e+00	0	43	0	1009778688	65	5011
2026-01-10 23:40:14.30	188.98	26.46	-46.9	-49.9	16.3	0.00e+00	0	43	0	1010827264	65	5058
2026-01-10 23:40:15.31	189.02	26.29	-46.8	-49.7	16.4	0.00e+00	0	43	0	1012924416	65	4967
2026-01-10 23:40:16.31	189.06	26.12	-46.8	-49.7	16.4	0.00e+00	0	43	0	1015021568	65	4981
2026-01-10 23:40:17.31	189.11	25.96	-46.8	-49.7	16.5	0.00e+00	0	43	0	1017118720	65	4955
2026-01-10 23:40:18.32	189.15	25.79	-46.8	-49.8	16.4	0.00e+00	0	43	0	1019215872	65	4993
2026-01-10 23:40:19.32	189.19	25.63	-46.8	-49.8	16.4	0.00e+00	0	43	0	1020264448	65	5000
2026-01-10 23:40:20.33	189.23	25.47	-46.8	-49.7	16.4	0.00e+00	0	43	0	1022361600	65	4969
2026-01-10 23:40:21.33	189.27	25.31	-46.8	-49.7	16.4	0.00e+00	0	43	0	1024458752	65	4982
2026-01-10 23:40:22.33	189.31	25.15	-46.8	-49.7	16.5	0.00e+00	0	43	0	1026555904	65	4928
2026-01-10 23:40:23.34	189.35	24.99	-46.7	-49.6	16.5	0.00e+00	0	43	0	1028653056	65	4887
2026-01-10 23:40:24.34	189.39	24.83	-46.7	-49.5	16.6	0.00e+00	0	43	0	1029701632	65	4844
2026-01-10 23:40:25.35	189.43	24.67	-46.7	-49.5	16.6	0.00e+00	0	43	0	1031798784	65	4843
2026-01-10 23:40:26.35	189.47	24.51	-46.6	-49.4	16.7	0.00e+00	0	43	0	1033895936	65	4802
2026-01-10 23:40:27.35	189.51	24.36	-46.5	-49.3	16.8	0.00e+00	0	43	0	1035993088	65	4726
2026-01-10 23:40:28.35	189.54	24.20	-46.4	-49.2	16.9	0.00e+00	0	43	0	1038090240	64	4955
2026-01-10 23:40:29.36	189.58	24.05	-46.4	-49.1	17.0	0.00e+00	0	43	0	1039138816	64	4898
2026-01-10 23:40:30.36	189.62	23.90	-46.2	-48.9	17.2	0.00e+00	0	43	0	1041235968	64	4778
2026-01-10 23:40:31.36	189.66	23.74	-46.1	-48.8	17.3	0.00e+00	0	43	0	1043333120	64	4723
2026-01-10 23:40:32.37	189.69	23.59	-46.0	-48.6	17.5	0.00e+00	0	43	0	1045430272	63	4893
2026-01-10 23:40:33.37	189.73	23.44	-46.0	-48.6	17.5	0.00e+00	0	43	0	1046478848	63	4916
2026-01-10 23:40:34.37	189.77	23.29	-46.0	-48.6	17.5	0.00e+00	0	43	0	1048576000	63	4915
2026-01-10 23:40:35.38	189.80	23.14	-46.0	-48.7	17.5	0.00e+00	0	43	0	1050673152	63	4932
2026-01-10 23:40:36.38	189.84	23.00	-46.0	-48.6	17.5	0.00e+00	0	43	0	1052770304	63	4923
2026-01-10 23:40:37.39	189.87	22.85	-45.9	-48.6	17.6	0.00e+00	0	43	0	1054867456	63	4890
2026-01-10 23:40:38.39	189.91	22.70	-45.9	-48.6	17.5	0.00e+00	0	43	0	1055916032	63	4875
2026-01-10 23:40:39.40	189.94	22.56	-46.0	-48.7	17.4	0.00e+00	0	43	0	1058013184	63	4970
2026-01-10 23:40:40.40	189.98	22.41	-46.0	-48.7	17.5	0.00e+00	0	43	0	1060110336	63	4944
2026-01-10 23:40:41.40	190.01	22.27	-46.0	-48.7	17.5	0.00e+00	0	43	0	1062207488	63	4932
2026-01-10 23:40:42.41	190.04	22.13	-46.0	-48.7	17.5	0.00e+00	0	43	0	1064304640	63	4927
2026-01-10 23:40:43.41	190.08	21.98	-46.0	-48.7	17.5	0.00e+00	0	43	0	1065353216	63	4946
2026-01-10 23:40:44.41	190.11	21.84	-46.0	-48.7	17.4	0.00e+00	0	43	0	1067450368	63	4953
2026-01-10 23:40:45.42	190.14	21.70	-46.1	-48.8	17.3	0.00e+00	0	43	0	1069547520	63	5000
2026-01-10 23:40:46.42	190.18	21.56	-46.1	-48.8	17.3	0.00e+00	0	43	0	1071644672	63	5031
2026-01-10 23:40:47.42	190.21	21.42	-46.1	-48.9	17.2	0.00e+00	0	43	0	1073741824	63	5055
2026-01-10 23:40:48.43	190.24	21.28	-46.2	-49.0	17.2	0.00e+00	0	43	0	1074790400	63	5119
2026-01-10 23:40:49.43	190.27	21.15	-46.3	-49.1	17.0	0.00e+00	0	43	0	1076887552	63	5186
2026-01-10 23:40:50.43	190.30	21.01	-46.2	-49.0	17.1	0.00e+00	0	43	0	1078984704	63	5115
2026-01-10 23:40:51.44	190.34	20.87	-46.3	-49.1	17.0	0.00e+00	0	43	0	1081081856	63	5174
2026-01-10 23:40:52.44	190.37	20.74	-46.3	-49.0	17.1	0.00e+00	0	43	0	1083179008	63	5146
2026-01-10 23:40:53.44	190.40	20.61	-46.2	-49.0	17.2	0.00e+00	0	43	0	1084227584	63	5105
2026-01-10 23:40:54.45	190.43	20.47	-46.3	-49.0	17.1	0.00e+00	0	43	0	1086324736	63	5154
2026-01-10 23:40:55.45	190.46	20.34	-46.3	-49.1	17.0	0.00e+00	0	43	0	1088421888	63	5182
2026-01-10 23:40:56.45	190.49	20.21	-46.3	-49.0	17.0	0.00e+00	0	43	0	1090519040	63	5155
2026-01-10 23:40:57.46	190.52	20.07	-46.3	-49.1	17.0	0.00e+00	0	43	0	1092616192	63	5208
2026-01-10 23:40:58.46	190.55	19.94	-46.3	-49.1	17.0	0.00e+00	0	43	0	1093664768	63	5177
2026-01-10 23:40:59.46	190.58	19.81	-46.4	-49.2	16.9	0.00e+00	0	43	0	1095761920	63	5233
2026-01-10 23:41:00.46	190.61	19.68	-46.4	-49.2	17.0	0.00e+00	0	43	0	1097859072	63	5228
2026-01-10 23:41:01.47	190.64	19.55	-46.4	-49.2	16.9	0.00e+00	0	43	0	1099956224	63	5230
2026-01-10 23:41:02.47	190.66	19.43	-46.4	-49.2	16.9	0.00e+00	0	43	0	1101004800	63	5234
2026-01-10 23:41:03.47	190.69	19.30	-46.4	-49.3	16.8	0.00e+00	0	43	0	1103101952	63	5283
2026-01-10 23:41:04.48	190.72	19.17	-46.4	-49.3	16.8	0.00e+00	0	43	0	1105199104	63	5287
2026-01-10 23:41:05.48	190.75	19.04	-46.4	-49.3	16.8	0.00e+00	0	43	0	1107296256	63	5301
2026-01-10 23:41:06.48	190.78	18.92	-46.5	-49.3	16.8	0.00e+00	0	43	0	1109393408	63	5325
2026-01-10 23:41:07.49	190.81	18.79	-46.6	-49.5	16.6	0.00e+00	0	43	0	1111490560	63	5417
2026-01-10 23:41:08.49	190.83	18.67	-46.6	-49.5	16.6	0.00e+00	0	43	0	1112539136	63	5433
2026-01-10 23:41:09.50	190.86	18.54	-46.6	-49.6	16.5	0.00e+00	0	43	0	1114636288	63	5477
2026-01-10 23:41:10.50	190.89	18.42	-46.6	-49.5	16.4	0.00e+00	0	43	0	1116733440	64	5153
2026-01-10 23:41:11.50	190.91	18.30	-46.6	-49.6	16.5	0.00e+00	0	43	0	1118830592	64	5171
2026-01-10 23:41:12.51	190.94	18.18	-46.7	-49.7	16.3	0.00e+00	0	43	0	1119879168	64	5238
2026-01-10 23:41:13.51	190.97	18.05	-46.7	-49.7	16.3	0.00e+00	0	43	0	1121976320	64	5245
2026-01-10 23:41:14.51	190.99	17.93	-46.7	-49.7	16.3	0.00e+00	0	43	0	1124073472	64	5268
2026-01-10 23:41:15.52	191.02	17.81	-46.8	-49.8	16.2	0.00e+00	0	43	0	1126170624	64	5318
2026-01-10 23:41:16.52	191.05	17.69	-46.8	-49.9	16.1	0.00e+00	0	43	0	1128267776	64	5379
2026-01-10 23:41:17.53	191.07	17.57	-46.8	-49.9	16.1	0.00e+00	0	43	0	1129316352	64	5364
2026-01-10 23:41:18.53	191.10	17.45	-46.8	-49.9	16.1	0.00e+00	0	43	0	1131413504	64	5349
2026-01-10 23:41:19.53	191.12	17.34	-46.8	-49.9	16.1	0.00e+00	0	43	0	1133510656	64	5366
2026-01-10 23:41:20.54	191.15	17.22	-46.8	-49.8	16.1	0.00e+00	0	43	0	1135607808	64	5322
2026-01-10 23:41:21.54	191.17	17.10	-46.8	-49.9	16.1	0.00e+00	0	43	0	1137704960	64	5357
2026-01-10 23:41:22.54	191.20	16.99	-46.8	-49.9	16.1	0.00e+00	0	43	0	1138753536	64	5377
2026-01-10 23:41:23.55	191.22	16.87	-46.8	-49.9	16.1	0.00e+00	0	43	0	1140850688	64	5351
2026-01-10 23:41:24.55	191.25	16.75	-46.8	-49.9	16.0	0.00e+00	0	43	0	1142947840	64	5378
2026-01-10 23:41:25.56	191.27	16.64	-46.8	-49.8	16.1	0.00e+00	0	43	0	1145044992	64	5329
2026-01-10 23:41:26.56	191.30	16.53	-46.7	-49.8	16.2	0.00e+00	0	43	0	1147142144	64	5283
2026-01-10 23:41:27.56	191.32	16.41	-46.8	-49.9	16.1	0.00e+00	0	43	0	1148190720	64	5356
2026-01-10 23:41:28.56	191.35	16.30	-46.8	-49.8	16.1	0.00e+00	0	43	0	1150287872	64	5338
2026-01-10 23:41:29.57	191.37	16.19	-46.7	-49.8	16.2	0.00e+00	0	43	0	1152385024	64	5286
2026-01-10 23:41:30.57	191.39	16.07	-46.7	-49.9	16.1	0.00e+00	0	43	0	1154482176	64	5341
2026-01-10 23:41:31.57	191.42	15.96	-46.7	-49.7	16.2	0.00e+00	0	43	0	1156579328	64	5273
2026-01-10 23:41:32.57	191.44	15.85	-46.6	-49.7	16.2	0.00e+00	0	43	0	1157627904	64	5268
2026-01-10 23:41:33.58	191.46	15.74	-46.5	-49.5	16.4	0.00e+00	0	43	0	1159725056	64	5149
2026-01-10 23:41:34.58	191.49	15.63	-46.5	-49.6	16.3	0.00e+00	0	43	0	1161822208	64	5160
2026-01-10 23:41:35.59	191.51	15.52	-46.6	-49.6	16.3	0.00e+00	0	43	0	1163919360	64	5203
2026-01-10 23:41:36.59	191.53	15.41	-46.5	-49.6	16.3	0.00e+00	0	43	0	1166016512	64	5190
2026-01-10 23:41:37.59	191.55	15.30	-46.6	-49.7	16.2	0.00e+00	0	43	0	1167065088	64	5225
2026-01-10 23:41:38.60	191.58	15.19	-46.6	-49.7	16.2	0.00e+00	0	43	0	1169162240	64	5219
2026-01-10 23:41:39.60	191.60	15.09	-46.5	-49.5	16.4	0.00e+00	0	43	0	1171259392	64	5128
2026-01-10 23:41:40.61	191.62	14.98	-46.5	-49.6	16.3	0.00e+00	0	43	0	1173356544	64	5163
2026-01-10 23:41:41.61	191.64	14.87	-46.4	-49.4	16.4	0.00e+00	0	43	0	1174405120	64	5093
2026-01-10 23:41:42.61	191.66	14.77	-46.5	-49.5	16.3	0.00e+00	0	43	0	1176502272	64	5143
2026-01-10 23:41:43.62	191.69	14.66	-46.5	-49.5	16.3	0.00e+00	0	43	0	1178599424	64	5153
2026-01-10 23:41:44.62	191.71	14.56	-46.4	-49.4	16.4	0.00e+00	0	43	0	1180696576	64	5091
2026-01-10 23:41:45.62	191.73	14.45	-46.5	-49.5	16.3	0.00e+00	0	43	0	1182793728	64	5149
2026-01-10 23:41:46.63	191.75	14.35	-46.6	-49.6	16.2	0.00e+00	0	43	0	1184890880	64	5191
2026-01-10 23:41:47.63	191.77	14.24	-46.6	-49.6	16.2	0.00e+00	0	43	0	1185939456	64	5216
2026-01-10 23:41:48.63	191.79	14.14	-46.6	-49.7	16.1	0.00e+00	0	43	0	1188036608	64	5249
2026-01-10 23:41:49.64	191.81	14.04	-46.6	-49.6	16.2	0.00e+00	0	43	0	1190133760	64	5213
2026-01-10 23:41:50.64	191.84	13.93	-46.7	-49.8	16.0	0.00e+00	0	43	0	1192230912	64	5311
2026-01-10 23:41:51.64	191.86	13.83	-46.6	-49.7	16.1	0.00e+00	0	43	0	1193279488	64	5228
2026-01-10 23:41:52.64	191.88	13.73	-46.7	-49.8	16.0	0.00e+00	0	43	0	1195376640	64	5312
2026-01-10 23:41:53.65	191.90	13.63	-46.7	-49.8	16.0	0.00e+00	0	43	0	1197473792	64	5329
2026-01-10 23:41:54.65	191.92	13.53	-46.7	-49.8	16.0	0.00e+00	0	43	0	1199570944	64	5331
2026-01-10 23:41:55.66	191.94	13.43	-46.8	-49.9	15.9	0.00e+00	0	43	0	1201668096	64	5389
2026-01-10 23:41:56.66	191.96	13.33	-46.8	-49.9	15.9	0.00e+00	0	43	0	1202716672	64	5402
2026-01-10 23:41:57.66	191.98	13.23	-46.7	-49.9	15.9	0.00e+00	0	43	0	1204813824	64	5391
2026-01-10 23:41:58.67	192.00	13.13	-46.8	-50.1	15.7	0.00e+00	0	43	0	1206910976	64	5489
2026-01-10 23:41:59.67	192.02	13.03	-46.8	-50.1	15.7	0.00e+00	0	43	0	1209008128	64	5501
2026-01-10 23:42:00.68	192.04	12.93	-46.7	-50.0	15.8	0.00e+00	0	43	0	1211105280	64	5412
2026-01-10 23:42:01.68	192.06	12.83	-46.8	-50.1	15.7	0.00e+00	0	43	0	1212153856	64	5480
2026-01-10 23:42:02.68	192.08	12.73	-46.8	-50.1	15.7	0.00e+00	0	43	0	1214251008	64	5504
2026-01-10 23:42:03.69	192.10	12.64	-46.9	-50.2	15.5	0.00e+00	0	43	0	1216348160	64	5566
2026-01-10 23:42:04.69	192.12	12.54	-46.8	-50.1	15.6	7.00e-07	0	43	0	1218445312	64	5513
2026-01-10 23:42:05.69	192.13	12.44	-46.8	-50.1	15.7	0.00e+00	0	43	0	1220542464	64	5512
2026-01-10 23:42:06.70	192.15	12.35	-46.9	-50.3	15.4	0.00e+00	0	43	0	1221591040	64	5640
2026-01-10 23:42:07.70	192.17	12.25	-46.9	-50.3	15.5	0.00e+00	0	43	0	1223688192	64	5615
2026-01-10 23:42:08.70	192.19	12.15	-46.9	-50.3	15.5	0.00e+00	0	43	0	1225785344	64	5603
2026-01-10 23:42:09.71	192.21	12.06	-47.0	-50.3	15.4	0.00e+00	0	43	0	1227882496	64	5641
2026-01-10 23:42:10.71	192.23	11.96	-47.0	-50.4	15.4	0.00e+00	0	43	0	1229979648	64	5692
