passes_logs/2026/01/10/T1/T1__20260110_041655_FENGYUN_3G_rec.log

#Pass ID: 20260110_041655_FENGYUN 3G
#Satellite: FENGYUN 3G
#Configuration: FENGYUN 3G
#almurnet v.1.7.20251203
#Start time: 2026-01-10 04:16:56

#Version: 2.0.20230620
#Station: T1
#Location: 37.570604 lon 55.790049 lat
#TLE: 1 56232U 23055A   26009.25964270  .00031369  00000+0  49445-3 0  9995
#TLE: 2 56232  49.9935  85.5429 0004254   0.7108 359.3865 15.53213378155304

#Time	Az	El	Level	Level2	SNR	BER	BlckErr	Temp	State	Recorded	gain1	gain2
2026-01-10 04:16:56.71	252.87	5.10	-52.0	-71.0	3.8	8.48e-01	0	41	0	0	76	30470
2026-01-10 04:16:57.71	252.69	5.15	-52.0	-71.0	3.8	8.38e-01	0	41	104	0	76	30438
2026-01-10 04:16:58.71	252.52	5.20	-52.0	-70.9	3.8	8.47e-01	0	41	104	0	76	30309
2026-01-10 04:16:59.72	252.34	5.25	-52.0	-70.9	3.8	8.46e-01	0	41	104	0	76	30250
2026-01-10 04:17:00.72	252.16	5.31	-52.0	-70.9	3.8	8.46e-01	0	41	104	0	76	30300
2026-01-10 04:17:01.73	251.98	5.36	-52.0	-71.0	3.8	8.47e-01	0	41	104	0	76	30384
2026-01-10 04:17:02.73	251.80	5.41	-52.0	-70.9	3.8	8.47e-01	0	41	104	0	76	30309
2026-01-10 04:17:03.73	251.62	5.46	-52.0	-71.0	3.8	8.47e-01	0	41	104	0	76	30421
2026-01-10 04:17:04.74	251.43	5.52	-52.0	-71.0	3.8	8.47e-01	0	41	104	0	76	30549
2026-01-10 04:17:05.75	251.25	5.57	-52.0	-71.0	3.8	8.47e-01	0	41	104	0	76	30385
2026-01-10 04:17:06.75	251.06	5.62	-52.0	-71.0	3.8	8.47e-01	0	41	104	0	76	30393
2026-01-10 04:17:07.75	250.88	5.67	-52.0	-71.0	3.8	8.47e-01	0	41	104	0	76	30439
2026-01-10 04:17:08.76	250.69	5.73	-52.0	-70.9	3.8	8.47e-01	0	42	104	0	76	30311
2026-01-10 04:17:09.76	250.50	5.78	-52.0	-70.9	3.8	8.46e-01	0	41	104	0	76	30317
2026-01-10 04:17:10.76	250.32	5.83	-52.0	-70.9	3.8	8.46e-01	0	42	104	0	76	30321
2026-01-10 04:17:11.77	250.12	5.88	-52.0	-70.9	3.8	8.46e-01	0	42	104	0	76	30325
2026-01-10 04:17:12.77	249.93	5.93	-52.0	-70.9	3.8	8.47e-01	0	42	104	0	76	30203
2026-01-10 04:17:13.78	249.74	5.99	-52.0	-71.0	3.8	8.47e-01	0	42	104	0	76	30414
2026-01-10 04:17:14.78	249.55	6.04	-52.0	-70.9	3.8	8.47e-01	0	42	104	0	76	30316
2026-01-10 04:17:15.78	249.36	6.09	-52.0	-70.9	3.8	8.47e-01	0	42	104	0	76	30328
2026-01-10 04:17:16.79	249.16	6.14	-52.0	-70.9	3.8	8.47e-01	0	42	104	0	76	30268
2026-01-10 04:17:17.79	248.97	6.19	-52.0	-70.9	3.8	8.47e-01	0	42	104	0	76	30307
2026-01-10 04:17:18.78	248.77	6.24	-52.0	-70.9	3.8	8.47e-01	0	42	104	0	76	30284
2026-01-10 04:17:19.79	248.57	6.30	-52.0	-70.9	3.8	8.47e-01	0	42	104	0	76	30190
2026-01-10 04:17:20.79	248.38	6.35	-52.0	-70.9	3.8	8.47e-01	0	42	104	0	76	30212
2026-01-10 04:17:21.79	248.18	6.40	-52.0	-70.9	3.8	8.47e-01	0	42	104	0	76	30118
2026-01-10 04:17:22.80	247.98	6.45	-52.0	-70.8	3.8	8.47e-01	0	42	104	0	76	29870
2026-01-10 04:17:23.80	247.78	6.50	-52.0	-70.8	3.8	8.47e-01	0	42	104	0	76	29847
2026-01-10 04:17:24.81	247.57	6.55	-52.0	-70.8	3.8	8.47e-01	0	42	104	0	76	29844
2026-01-10 04:17:25.81	247.37	6.60	-52.0	-70.9	3.8	8.48e-01	0	42	104	0	76	30043
2026-01-10 04:17:26.82	247.16	6.65	-52.0	-70.9	3.8	8.48e-01	0	42	104	0	76	30140
2026-01-10 04:17:27.82	246.96	6.70	-52.0	-70.9	3.8	8.47e-01	0	42	104	0	76	30282
2026-01-10 04:17:28.83	246.75	6.76	-52.0	-70.9	3.8	8.49e-01	0	42	104	0	76	30156
2026-01-10 04:17:29.83	246.55	6.81	-52.0	-70.9	3.8	8.49e-01	0	42	104	0	76	30155
2026-01-10 04:17:30.84	246.34	6.86	-52.0	-70.9	3.8	8.47e-01	0	42	104	0	76	30042
2026-01-10 04:17:31.84	246.13	6.91	-52.0	-70.8	3.8	8.46e-01	0	42	104	0	76	29871
2026-01-10 04:17:32.85	245.92	6.96	-52.0	-70.8	3.8	8.46e-01	0	42	104	0	76	29795
2026-01-10 04:17:33.85	245.71	7.01	-52.0	-70.8	3.8	8.46e-01	0	42	104	0	76	30026
2026-01-10 04:17:34.85	245.49	7.06	-52.0	-70.9	3.8	8.46e-01	0	42	104	0	76	30151
2026-01-10 04:17:35.86	245.28	7.11	-52.0	-70.9	3.8	8.46e-01	0	42	104	0	76	30174
2026-01-10 04:17:36.86	245.07	7.16	-52.0	-70.9	3.8	8.48e-01	0	42	104	0	76	30083
2026-01-10 04:17:37.87	244.85	7.21	-52.0	-70.8	3.8	8.47e-01	0	42	104	0	76	29897
2026-01-10 04:17:38.87	244.63	7.25	-52.0	-70.6	3.8	8.47e-01	0	42	104	0	76	29111
2026-01-10 04:17:39.88	244.42	7.30	-52.0	-70.5	3.8	8.47e-01	0	42	104	0	76	28800
2026-01-10 04:17:40.88	244.20	7.35	-52.0	-70.4	3.8	8.46e-01	0	42	104	0	76	28492
2026-01-10 04:17:41.89	243.98	7.40	-51.9	-70.5	3.8	8.47e-01	0	42	104	0	75	30682
2026-01-10 04:17:42.89	243.76	7.45	-52.0	-70.7	3.8	8.47e-01	0	42	104	0	75	31171
2026-01-10 04:17:43.89	243.54	7.50	-52.0	-70.8	3.8	8.47e-01	0	42	104	0	75	31501
2026-01-10 04:17:44.90	243.31	7.55	-52.0	-70.8	3.8	8.46e-01	0	42	104	0	75	31713
2026-01-10 04:17:45.90	243.09	7.60	-52.0	-70.8	3.8	8.46e-01	0	42	104	0	75	31731
2026-01-10 04:17:46.91	242.86	7.64	-52.0	-70.8	3.8	8.48e-01	0	42	104	0	75	31712
2026-01-10 04:17:47.91	242.64	7.69	-52.0	-70.8	3.8	8.47e-01	0	42	104	0	75	31561
2026-01-10 04:17:48.91	242.41	7.74	-52.0	-70.7	3.8	8.47e-01	0	43	104	0	75	31372
2026-01-10 04:17:49.92	242.18	7.79	-51.9	-70.6	3.8	8.48e-01	0	43	104	0	75	31085
2026-01-10 04:17:50.92	241.96	7.83	-52.0	-70.7	3.8	8.46e-01	0	42	104	0	75	31133
2026-01-10 04:17:51.93	241.73	7.88	-52.0	-70.7	3.8	8.46e-01	0	43	104	0	75	31251
2026-01-10 04:17:52.93	241.50	7.93	-52.0	-70.7	3.8	8.47e-01	0	43	104	0	75	31427
2026-01-10 04:17:53.94	241.26	7.97	-52.0	-70.8	3.8	8.47e-01	0	43	104	0	75	31748
2026-01-10 04:17:54.94	241.03	8.02	-52.0	-70.9	3.8	8.47e-01	0	43	104	0	75	32111
2026-01-10 04:17:55.95	240.79	8.07	-52.0	-70.9	3.8	8.47e-01	0	43	104	0	75	32047
2026-01-10 04:17:56.95	240.56	8.11	-52.0	-70.9	3.8	8.47e-01	0	43	104	0	75	32039
2026-01-10 04:17:57.95	240.33	8.16	-52.0	-70.8	3.8	8.48e-01	0	43	104	0	75	31746
2026-01-10 04:17:58.96	240.09	8.20	-52.0	-70.7	3.8	8.48e-01	0	43	104	0	75	31309
2026-01-10 04:17:59.97	239.85	8.25	-52.0	-70.7	3.8	8.46e-01	0	43	104	0	75	31348
2026-01-10 04:18:00.97	239.61	8.29	-52.0	-70.6	3.8	8.48e-01	0	43	104	0	75	30976
2026-01-10 04:18:01.97	239.37	8.34	-51.9	-70.5	3.8	8.48e-01	0	43	104	0	75	30491
2026-01-10 04:18:02.98	239.13	8.38	-51.9	-70.5	3.8	8.46e-01	0	43	104	0	75	30706
2026-01-10 04:18:03.98	238.89	8.43	-51.9	-70.5	3.8	8.47e-01	0	43	104	0	75	30601
2026-01-10 04:18:04.99	238.64	8.47	-51.9	-70.4	3.8	8.47e-01	0	43	104	0	75	30291
2026-01-10 04:18:05.99	238.40	8.52	-51.9	-70.5	3.8	8.48e-01	0	43	104	0	75	30618
2026-01-10 04:18:07.00	238.15	8.56	-52.0	-70.8	3.8	8.49e-01	0	43	104	0	75	31594
2026-01-10 04:18:08.00	237.91	8.60	-52.0	-70.8	3.8	8.46e-01	0	43	104	0	75	31687
2026-01-10 04:18:09.01	237.66	8.65	-51.9	-70.6	3.8	8.46e-01	0	43	104	0	75	30795
2026-01-10 04:18:10.01	237.41	8.69	-52.0	-70.5	3.8	8.46e-01	0	43	104	0	75	30712
2026-01-10 04:18:11.01	237.16	8.73	-52.0	-70.6	3.8	8.47e-01	0	43	104	0	75	30916
2026-01-10 04:18:12.02	236.91	8.77	-51.9	-70.1	3.8	8.47e-01	0	43	104	0	75	29311
2026-01-10 04:18:13.02	236.66	8.81	-51.9	-69.5	3.8	8.48e-01	0	43	104	0	75	27091
2026-01-10 04:18:14.03	236.41	8.86	-51.9	-68.0	4.0	8.47e-01	0	43	104	0	75	22937
2026-01-10 04:18:15.03	236.16	8.90	-51.7	-64.8	5.2	8.47e-01	0	43	0	0	75	15941
2026-01-10 04:18:16.04	235.90	8.94	-51.3	-61.2	8.3	7.75e-01	0	43	0	0	74	11073
2026-01-10 04:18:17.04	235.65	8.98	-50.7	-58.0	11.5	9.70e-02	0	43	0	0	73	8139
2026-01-10 04:18:18.05	235.39	9.02	-49.8	-55.3	14.5	9.70e-02	0	43	0	0	71	6665
2026-01-10 04:18:19.05	235.13	9.06	-52.0	-68.3	3.8	5.06e-04	0	43	104	0	74	25156
2026-01-10 04:18:20.47	234.77	9.11	-49.9	-55.4	14.1	3.59e-01	0	43	0	0	71	6724
2026-01-10 04:18:21.19	234.58	9.14	-48.2	-52.1	17.6	8.78e-04	0	43	0	0	68	5487
2026-01-10 04:18:22.47	234.25	9.19	-47.5	-51.0	19.0	8.78e-04	0	43	0	0	65	5746
2026-01-10 04:18:23.19	234.07	9.22	-49.9	-55.4	14.2	0.00e+00	0	43	0	0	70	7198
2026-01-10 04:18:24.48	233.73	9.27	-46.6	-49.7	19.9	0.00e+00	0	43	0	0	65	4954
2026-01-10 04:18:25.20	233.54	9.30	-46.0	-49.0	20.6	0.00e+00	0	43	0	0	64	4815
2026-01-10 04:18:26.49	233.20	9.34	-45.9	-48.7	21.0	0.00e+00	0	43	0	0	63	4942
2026-01-10 04:18:27.21	233.01	9.37	-45.9	-48.8	20.9	0.00e+00	0	43	0	0	63	4992
2026-01-10 04:18:28.53	232.66	9.42	-45.9	-48.7	21.0	0.00e+00	0	43	0	0	63	4948
2026-01-10 04:18:29.25	232.47	9.44	-45.7	-48.5	21.2	0.00e+00	0	43	0	0	63	4844
2026-01-10 04:18:30.53	232.13	9.49	-45.9	-48.7	20.9	0.00e+00	0	43	0	0	63	4968
2026-01-10 04:18:31.25	231.94	9.52	-46.0	-48.9	20.8	0.00e+00	0	43	0	0	63	5047
2026-01-10 04:18:32.68	231.55	9.57	-45.7	-48.5	21.2	0.00e+00	0	43	0	0	63	4822
2026-01-10 04:18:33.65	231.29	9.60	-45.6	-48.3	21.3	0.00e+00	0	43	0	0	63	4718
2026-01-10 04:18:34.66	231.02	9.63	-45.3	-48.0	21.6	0.00e+00	0	43	0	0	62	4823
2026-01-10 04:18:35.66	230.75	9.67	-45.2	-47.9	21.7	0.00e+00	0	43	0	0	62	4765
2026-01-10 04:18:36.66	230.48	9.70	-45.3	-47.9	21.6	0.00e+00	0	43	0	0	62	4803
2026-01-10 04:18:37.66	230.21	9.73	-45.2	-47.8	21.8	0.00e+00	0	43	0	0	62	4731
2026-01-10 04:18:38.67	229.93	9.77	-45.3	-48.0	21.6	0.00e+00	0	43	0	0	62	4829
2026-01-10 04:18:39.67	229.66	9.80	-45.5	-48.2	21.4	0.00e+00	0	43	0	0	62	4948
2026-01-10 04:18:40.67	229.38	9.83	-45.7	-48.4	21.3	0.00e+00	0	43	0	0	62	5100
2026-01-10 04:18:41.68	229.10	9.86	-45.8	-48.6	21.1	0.00e+00	0	43	0	0	62	5164
2026-01-10 04:18:42.82	228.79	9.90	-45.9	-48.7	21.0	0.00e+00	0	43	0	0	62	5229
2026-01-10 04:18:43.72	228.54	9.92	-46.1	-48.9	20.8	0.00e+00	0	43	0	0	62	5386
2026-01-10 04:18:44.86	228.22	9.96	-46.3	-49.3	20.5	0.00e+00	0	43	0	0	63	5303
2026-01-10 04:18:45.78	227.96	9.98	-46.4	-49.4	20.4	0.00e+00	0	43	0	0	63	5349
2026-01-10 04:18:46.96	227.63	10.02	-46.5	-49.5	20.2	0.00e+00	0	43	0	0	63	5457
2026-01-10 04:18:47.82	227.39	10.04	-46.3	-49.3	20.4	0.00e+00	0	43	0	0	63	5321
2026-01-10 04:18:48.97	227.07	10.07	-46.1	-48.9	20.8	0.00e+00	0	43	0	0	63	5082
2026-01-10 04:18:49.83	226.83	10.10	-46.2	-49.1	20.6	0.00e+00	0	43	0	0	63	5188
2026-01-10 04:18:50.97	226.50	10.13	-46.3	-49.1	20.6	0.00e+00	0	43	0	0	63	5218
2026-01-10 04:18:51.83	226.26	10.15	-46.0	-48.9	20.8	0.00e+00	0	43	0	0	63	5058
2026-01-10 04:18:52.98	225.93	10.18	-46.0	-48.8	20.8	0.00e+00	0	43	0	0	63	5034
2026-01-10 04:18:53.84	225.69	10.20	-46.2	-49.1	20.6	0.00e+00	0	43	0	0	63	5183
2026-01-10 04:18:54.99	225.36	10.23	-46.3	-49.2	20.4	0.00e+00	0	43	0	0	63	5274
2026-01-10 04:18:55.85	225.11	10.25	-46.3	-49.3	20.2	0.00e+00	0	43	0	0	63	5318
2026-01-10 04:18:56.99	224.79	10.28	-46.3	-49.2	20.4	0.00e+00	0	43	0	0	63	5268
2026-01-10 04:18:57.85	224.54	10.30	-46.5	-49.5	20.2	0.00e+00	0	43	0	0	63	5424
2026-01-10 04:18:59.00	224.21	10.33	-46.5	-49.4	20.3	0.00e+00	0	43	0	0	63	5400
2026-01-10 04:18:59.86	223.96	10.34	-46.1	-49.0	20.7	0.00e+00	0	43	0	0	63	5111
2026-01-10 04:19:01.01	223.63	10.37	-46.2	-49.0	20.6	0.00e+00	0	43	0	0	63	5151
2026-01-10 04:19:01.87	223.38	10.39	-46.1	-48.9	20.7	0.00e+00	0	43	0	0	63	5090
2026-01-10 04:19:03.01	223.05	10.41	-46.2	-49.2	20.5	0.00e+00	0	43	0	0	63	5221
2026-01-10 04:19:03.87	222.80	10.43	-46.0	-48.9	20.8	0.00e+00	0	43	0	0	63	5067
2026-01-10 04:19:05.02	222.46	10.45	-45.8	-48.6	21.0	0.00e+00	0	43	0	0	63	4902
2026-01-10 04:19:05.88	222.21	10.47	-45.6	-48.4	21.2	0.00e+00	0	43	0	0	63	4769
2026-01-10 04:19:07.02	221.88	10.49	-45.8	-48.6	21.1	0.00e+00	0	43	0	0	63	4896
2026-01-10 04:19:07.88	221.62	10.51	-45.7	-48.6	21.1	0.00e+00	0	43	0	0	63	4871
2026-01-10 04:19:09.03	221.29	10.53	-45.8	-48.7	21.0	0.00e+00	0	43	0	0	63	4949
2026-01-10 04:19:09.89	221.03	10.54	-45.7	-48.6	21.1	0.00e+00	0	43	0	0	63	4910
2026-01-10 04:19:11.07	220.69	10.56	-45.6	-48.4	21.2	0.00e+00	0	43	0	0	63	4808
2026-01-10 04:19:11.93	220.43	10.57	-45.5	-48.3	21.4	0.00e+00	0	43	0	0	63	4744
2026-01-10 04:19:13.08	220.09	10.59	-45.8	-48.6	21.1	0.00e+00	0	43	0	0	63	4895
2026-01-10 04:19:13.94	219.84	10.60	-45.9	-48.7	21.0	0.00e+00	0	43	0	0	63	4971
2026-01-10 04:19:15.08	219.50	10.62	-45.9	-48.7	21.0	0.00e+00	0	43	0	0	63	4962
2026-01-10 04:19:15.94	219.25	10.63	-45.9	-48.8	21.0	0.00e+00	0	43	0	0	63	4993
2026-01-10 04:19:17.09	218.91	10.65	-46.2	-49.2	20.6	0.00e+00	0	43	0	0	63	5234
2026-01-10 04:19:17.95	218.65	10.66	-46.1	-49.1	20.7	0.00e+00	0	43	0	0	63	5166
2026-01-10 04:19:19.09	218.31	10.67	-46.1	-49.1	20.7	0.00e+00	0	43	0	0	63	5166
2026-01-10 04:19:19.95	218.05	10.68	-46.2	-49.2	20.5	0.00e+00	0	43	0	0	63	5231
2026-01-10 04:19:21.10	217.71	10.69	-46.0	-48.9	20.8	0.00e+00	0	43	0	0	63	5070
2026-01-10 04:19:21.96	217.46	10.70	-46.0	-48.8	20.9	0.00e+00	0	43	0	0	63	5010
2026-01-10 04:19:23.11	217.11	10.71	-45.9	-48.8	20.9	0.00e+00	0	43	0	0	63	4997
2026-01-10 04:19:23.97	216.85	10.72	-45.9	-48.7	20.9	0.00e+00	0	43	0	0	63	4978
2026-01-10 04:19:25.11	216.51	10.73	-45.6	-48.4	21.3	0.00e+00	0	43	0	0	63	4776
2026-01-10 04:19:25.97	216.26	10.74	-45.5	-48.2	21.4	0.00e+00	0	43	0	0	63	4705
2026-01-10 04:19:27.12	215.91	10.75	-45.3	-47.9	21.7	0.00e+00	0	43	0	0	62	4812
2026-01-10 04:19:27.98	215.65	10.75	-45.2	-47.8	21.8	0.00e+00	0	43	0	0	62	4745
2026-01-10 04:19:29.13	215.31	10.76	-45.0	-47.6	22.0	0.00e+00	0	43	0	0	62	4634
2026-01-10 04:19:29.99	215.05	10.76	-45.0	-47.6	22.0	0.00e+00	0	43	0	0	61	4893
2026-01-10 04:19:31.13	214.71	10.77	-44.9	-47.5	22.1	0.00e+00	0	43	0	0	61	4827
2026-01-10 04:19:32.06	214.43	10.77	-45.0	-47.6	22.0	0.00e+00	0	43	0	0	61	4889
2026-01-10 04:19:33.25	214.07	10.78	-45.0	-47.6	22.0	0.00e+00	0	43	0	0	61	4916
2026-01-10 04:19:34.14	213.80	10.78	-45.3	-47.9	21.7	0.00e+00	0	43	0	0	61	5087
2026-01-10 04:19:35.28	213.46	10.78	-45.3	-47.9	21.7	0.00e+00	0	43	0	0	61	5088
2026-01-10 04:19:36.15	213.20	10.78	-45.3	-47.9	21.7	0.00e+00	0	43	0	0	61	5082
2026-01-10 04:19:37.29	212.86	10.78	-45.4	-48.1	21.6	0.00e+00	0	43	0	0	61	5169
2026-01-10 04:19:38.15	212.60	10.79	-45.4	-48.1	21.5	0.00e+00	0	43	0	0	61	5182
2026-01-10 04:19:39.30	212.25	10.79	-45.3	-47.9	21.7	0.00e+00	0	43	0	0	61	5060
2026-01-10 04:19:40.16	211.99	10.78	-45.3	-47.9	21.7	0.00e+00	0	43	0	0	61	5098
2026-01-10 04:19:41.31	211.65	10.78	-45.2	-47.8	21.8	0.00e+00	0	43	0	0	61	5037
2026-01-10 04:19:42.17	211.39	10.78	-45.2	-47.8	21.8	0.00e+00	0	43	0	0	61	5035
2026-01-10 04:19:43.31	211.04	10.78	-45.4	-48.1	21.6	0.00e+00	0	43	0	0	61	5164
2026-01-10 04:19:44.18	210.78	10.78	-45.4	-48.1	21.6	0.00e+00	0	43	0	0	61	5185
2026-01-10 04:19:45.32	210.44	10.77	-45.2	-47.8	21.8	0.00e+00	0	43	0	0	61	5024
2026-01-10 04:19:46.18	210.18	10.77	-45.1	-47.7	21.9	0.00e+00	0	43	0	0	61	4935
2026-01-10 04:19:47.33	209.84	10.76	-44.7	-47.2	22.3	0.00e+00	0	43	0	0	61	4676
2026-01-10 04:19:48.19	209.58	10.76	-44.6	-47.1	22.5	0.00e+00	0	43	0	0	61	4601
2026-01-10 04:19:49.33	209.23	10.75	-44.7	-47.1	22.4	0.00e+00	0	43	0	0	61	4648
2026-01-10 04:19:50.20	208.97	10.75	-44.7	-47.2	22.3	0.00e+00	0	43	0	0	61	4685
2026-01-10 04:19:51.34	208.63	10.74	-44.8	-47.3	22.3	0.00e+00	0	43	0	0	61	4750
2026-01-10 04:19:52.20	208.37	10.73	-45.0	-47.6	22.1	0.00e+00	0	43	0	0	61	4880
2026-01-10 04:19:53.35	208.03	10.72	-45.2	-47.8	21.8	0.00e+00	0	43	0	0	61	4999
2026-01-10 04:19:54.21	207.77	10.71	-45.2	-47.9	21.7	0.00e+00	0	43	0	0	61	5061
2026-01-10 04:19:55.36	207.43	10.70	-45.3	-48.0	21.7	0.00e+00	0	43	0	0	61	5126
2026-01-10 04:19:56.22	207.17	10.69	-45.3	-48.0	21.6	0.00e+00	0	43	0	0	61	5102
2026-01-10 04:19:57.37	206.83	10.68	-45.2	-47.9	21.7	0.00e+00	0	43	0	0	61	5061
2026-01-10 04:19:58.23	206.57	10.67	-45.0	-47.7	21.9	0.00e+00	0	43	0	0	61	4927
2026-01-10 04:19:59.37	206.23	10.66	-44.8	-47.3	22.2	0.00e+00	0	44	0	0	61	4748
2026-01-10 04:20:00.23	205.98	10.65	-44.7	-47.2	22.3	0.00e+00	0	43	0	0	61	4692
2026-01-10 04:20:01.38	205.64	10.63	-44.6	-47.1	22.4	0.00e+00	0	43	0	0	61	4620
2026-01-10 04:20:02.24	205.38	10.62	-44.7	-47.2	22.3	0.00e+00	0	43	0	0	61	4689
2026-01-10 04:20:03.39	205.04	10.60	-44.8	-47.4	22.2	0.00e+00	0	43	0	0	61	4798
2026-01-10 04:20:04.25	204.79	10.59	-45.0	-47.6	21.9	0.00e+00	0	43	0	0	61	4923
2026-01-10 04:20:05.39	204.45	10.57	-45.2	-47.9	21.7	0.00e+00	0	43	0	0	61	5062
2026-01-10 04:20:06.25	204.19	10.56	-45.5	-48.3	21.4	0.00e+00	0	43	0	0	61	5283
2026-01-10 04:20:07.40	203.86	10.54	-45.5	-48.3	21.3	0.00e+00	0	43	0	0	61	5323
2026-01-10 04:20:08.26	203.60	10.53	-45.5	-48.4	21.2	0.00e+00	0	43	0	0	61	5393
2026-01-10 04:20:09.41	203.26	10.51	-45.7	-48.7	21.0	0.00e+00	0	43	0	0	62	5257
2026-01-10 04:20:10.27	203.01	10.49	-45.7	-48.7	21.0	0.00e+00	0	43	0	0	62	5259
2026-01-10 04:20:11.42	202.68	10.47	-45.7	-48.6	21.0	0.00e+00	0	43	0	0	62	5200
2026-01-10 04:20:12.28	202.42	10.45	-45.4	-48.2	21.4	0.00e+00	0	43	0	0	62	4967
2026-01-10 04:20:13.42	202.09	10.43	-45.1	-47.8	21.8	0.00e+00	0	43	0	0	62	4738
2026-01-10 04:20:14.28	201.84	10.41	-45.2	-47.8	21.8	0.00e+00	0	43	0	0	62	4737
2026-01-10 04:20:15.43	201.51	10.39	-45.2	-47.9	21.7	0.00e+00	0	43	0	0	62	4777
2026-01-10 04:20:16.29	201.26	10.37	-45.4	-48.1	21.5	0.00e+00	0	43	0	0	62	4897
2026-01-10 04:20:17.44	200.92	10.35	-45.6	-48.3	21.3	0.00e+00	0	43	0	0	62	5038
2026-01-10 04:20:18.30	200.67	10.33	-45.9	-48.7	20.9	0.00e+00	0	43	0	0	62	5252
2026-01-10 04:20:19.45	200.34	10.30	-46.1	-49.0	20.7	0.00e+00	0	43	0	0	62	5429
2026-01-10 04:20:20.31	200.10	10.28	-46.2	-49.2	20.5	0.00e+00	0	43	0	0	63	5227
2026-01-10 04:20:21.46	199.77	10.25	-46.2	-49.2	20.5	0.00e+00	0	43	0	0	63	5279
2026-01-10 04:20:22.31	199.52	10.23	-46.4	-49.5	20.3	0.00e+00	0	43	0	0	63	5408
2026-01-10 04:20:23.46	199.19	10.20	-46.3	-49.4	20.3	0.00e+00	0	43	0	0	63	5381
2026-01-10 04:20:24.32	198.95	10.18	-46.2	-49.3	20.4	0.00e+00	0	44	0	0	63	5283
2026-01-10 04:20:25.47	198.62	10.15	-46.1	-49.1	20.5	0.00e+00	0	43	0	0	63	5198
2026-01-10 04:20:26.33	198.38	10.13	-46.0	-49.0	20.7	0.00e+00	0	43	0	0	63	5113
2026-01-10 04:20:27.48	198.05	10.10	-45.8	-48.8	20.9	0.00e+00	0	43	0	0	63	4984
2026-01-10 04:20:28.34	197.81	10.08	-45.7	-48.6	21.1	0.00e+00	0	43	0	0	63	4882
2026-01-10 04:20:29.49	197.48	10.04	-45.9	-48.8	20.9	0.00e+00	0	43	0	0	63	5037
2026-01-10 04:20:30.35	197.24	10.02	-46.1	-49.1	20.6	0.00e+00	0	43	0	0	63	5187
2026-01-10 04:20:31.62	196.89	9.98	-46.2	-49.3	20.4	0.00e+00	0	43	0	0	63	5288
2026-01-10 04:20:32.34	196.68	9.96	-46.4	-49.5	20.2	0.00e+00	0	43	0	0	63	5446
2026-01-10 04:20:33.63	196.32	9.92	-46.5	-49.6	20.1	0.00e+00	0	43	0	0	63	5514
2026-01-10 04:20:34.34	196.13	9.90	-46.5	-49.7	20.0	0.00e+00	0	43	0	0	63	5530
2026-01-10 04:20:35.63	195.77	9.86	-46.4	-49.5	20.2	0.00e+00	0	43	0	0	63	5442
2026-01-10 04:20:36.35	195.57	9.84	-46.4	-49.6	20.2	0.00e+00	0	43	0	0	63	5490
2026-01-10 04:20:37.64	195.21	9.80	-46.3	-49.4	20.3	0.00e+00	0	43	0	0	63	5349
2026-01-10 04:20:38.45	194.99	9.77	-46.3	-49.4	20.3	0.00e+00	0	43	0	0	63	5365
2026-01-10 04:20:39.60	194.68	9.74	-46.3	-49.4	20.3	0.00e+00	0	43	0	0	63	5373
2026-01-10 04:20:40.64	194.39	9.70	-46.5	-49.7	20.0	0.00e+00	0	43	0	0	63	5556
2026-01-10 04:20:41.63	194.12	9.67	-46.7	-50.0	19.8	0.00e+00	0	43	0	0	63	5737
2026-01-10 04:20:42.84	193.79	9.63	-46.6	-49.9	19.8	0.00e+00	0	43	0	0	64	5367
2026-01-10 04:20:43.70	193.56	9.60	-46.7	-50.1	19.5	0.00e+00	0	43	0	0	64	5477
2026-01-10 04:20:44.85	193.25	9.56	-46.4	-49.6	20.0	0.00e+00	0	43	0	0	64	5204
2026-01-10 04:20:45.71	193.02	9.53	-46.4	-49.6	20.0	0.00e+00	0	43	0	0	64	5168
2026-01-10 04:20:46.85	192.71	9.49	-46.0	-49.0	20.5	0.00e+00	0	43	0	0	64	4868
2026-01-10 04:20:47.71	192.48	9.46	-46.0	-49.0	20.6	0.00e+00	0	44	0	0	63	5134
2026-01-10 04:20:48.86	192.18	9.42	-45.8	-48.8	20.8	0.00e+00	0	43	0	0	63	4988
2026-01-10 04:20:49.72	191.95	9.39	-45.6	-48.6	21.0	0.00e+00	0	43	0	0	63	4881
2026-01-10 04:20:50.86	191.65	9.34	-45.5	-48.4	21.1	0.00e+00	0	43	0	0	63	4800
2026-01-10 04:20:51.73	191.42	9.31	-45.6	-48.6	21.0	0.00e+00	0	43	0	0	63	4884
2026-01-10 04:20:52.87	191.12	9.27	-45.8	-48.9	20.7	0.00e+00	0	43	0	0	63	5058
2026-01-10 04:20:53.73	190.90	9.24	-46.0	-49.1	20.6	0.00e+00	0	44	0	0	63	5210
2026-01-10 04:20:54.91	190.59	9.19	-46.3	-49.6	20.0	0.00e+00	0	43	0	0	63	5507
2026-01-10 04:20:55.77	190.36	9.16	-46.4	-49.8	19.9	0.00e+00	0	43	0	0	63	5631
2026-01-10 04:20:56.92	190.07	9.11	-46.6	-50.0	19.7	0.00e+00	0	43	0	0	63	5743
2026-01-10 04:20:57.78	189.84	9.08	-46.6	-50.0	19.7	0.00e+00	0	43	0	0	63	5783
2026-01-10 04:20:58.92	189.55	9.03	-46.4	-49.8	19.9	0.00e+00	0	43	0	0	63	5612
2026-01-10 04:20:59.78	189.33	9.00	-50.1	-57.5	14.7	0.00e+00	0	44	0	0	70	9116
2026-01-10 04:21:00.93	189.04	8.95	-52.1	-70.3	3.7	4.29e-02	0	43	104	0	74	31665
2026-01-10 04:21:01.79	188.82	8.92	-52.2	-70.4	3.9	8.43e-01	0	43	104	0	74	31837
2026-01-10 04:21:02.94	188.53	8.87	-52.1	-71.4	3.8	8.48e-01	0	44	104	0	75	33946
2026-01-10 04:21:03.80	188.31	8.84	-52.6	-71.5	3.8	8.48e-01	0	43	104	0	75	34305
2026-01-10 04:21:04.95	188.02	8.79	-52.8	-71.6	3.8	8.46e-01	0	43	104	0	76	32701
2026-01-10 04:21:05.81	187.81	8.75	-52.9	-71.6	3.8	8.47e-01	0	44	104	0	76	32632
2026-01-10 04:21:06.96	187.52	8.70	-52.8	-71.6	3.8	8.47e-01	0	44	104	0	76	32868
2026-01-10 04:21:07.82	187.31	8.67	-52.9	-71.7	3.8	8.47e-01	0	43	104	0	76	32958
2026-01-10 04:21:08.97	187.02	8.62	-52.9	-71.6	3.8	8.46e-01	0	43	104	0	76	32925
2026-01-10 04:21:09.83	186.81	8.58	-52.9	-71.7	3.8	8.46e-01	0	43	104	0	76	33033
2026-01-10 04:21:10.97	186.53	8.53	-52.9	-71.7	3.8	8.46e-01	0	44	104	0	76	33120
2026-01-10 04:21:11.84	186.32	8.49	-53.0	-71.7	3.8	8.48e-01	0	44	104	0	76	33171
2026-01-10 04:21:12.98	186.04	8.45	-52.9	-71.7	3.8	8.48e-01	0	43	104	0	76	33078
2026-01-10 04:21:13.84	185.83	8.41	-52.9	-71.7	3.8	8.46e-01	0	44	104	0	76	33097
2026-01-10 04:21:14.99	185.56	8.36	-53.0	-71.7	3.8	8.47e-01	0	44	104	0	76	33135
2026-01-10 04:21:15.86	185.35	8.32	-53.0	-71.7	3.8	8.47e-01	0	43	104	0	76	32981
2026-01-10 04:21:17.00	185.07	8.27	-52.9	-71.7	3.8	8.47e-01	0	44	104	0	76	33251
2026-01-10 04:21:17.86	184.87	8.23	-53.0	-71.7	3.8	8.47e-01	0	44	104	0	76	33042
2026-01-10 04:21:19.01	184.60	8.18	-52.9	-71.7	3.8	8.46e-01	0	44	104	0	76	33201
2026-01-10 04:21:19.87	184.39	8.14	-53.1	-71.7	3.8	8.46e-01	0	43	104	0	76	33133
2026-01-10 04:21:21.02	184.12	8.08	-53.0	-71.7	3.8	8.46e-01	0	43	104	0	76	33159
2026-01-10 04:21:21.88	183.92	8.04	-52.9	-71.7	3.8	8.47e-01	0	44	104	0	76	33112
2026-01-10 04:21:23.03	183.65	7.99	-53.0	-71.7	3.8	8.47e-01	0	44	104	0	76	33229
2026-01-10 04:21:23.89	183.45	7.95	-53.0	-71.7	3.8	8.47e-01	0	44	104	0	76	33112
2026-01-10 04:21:25.04	183.19	7.90	-52.8	-71.7	3.8	8.47e-01	0	44	104	0	76	33178
2026-01-10 04:21:25.90	182.99	7.86	-52.8	-71.6	3.8	8.47e-01	0	43	104	0	76	32923
2026-01-10 04:21:27.05	182.73	7.80	-52.8	-71.7	3.8	8.47e-01	0	43	104	0	76	33071
2026-01-10 04:21:27.91	182.53	7.76	-52.8	-71.6	3.8	8.47e-01	0	43	104	0	76	32910
2026-01-10 04:21:29.06	182.27	7.71	-52.8	-71.7	3.8	8.47e-01	0	44	104	0	76	32948
2026-01-10 04:21:29.92	182.07	7.67	-52.8	-71.7	3.8	8.47e-01	0	43	104	0	76	33078
2026-01-10 04:21:31.07	181.82	7.61	-52.8	-71.7	3.8	8.46e-01	0	44	104	0	76	32966
2026-01-10 04:21:31.93	181.62	7.57	-52.8	-71.7	3.8	8.46e-01	0	44	104	0	76	33069
2026-01-10 04:21:33.08	181.37	7.52	-52.8	-71.6	3.8	8.47e-01	0	44	104	0	76	32870
2026-01-10 04:21:33.94	181.18	7.47	-52.8	-71.7	3.8	8.47e-01	0	44	104	0	76	33004
2026-01-10 04:21:35.08	180.92	7.42	-52.8	-71.7	3.8	8.47e-01	0	43	104	0	76	32934
2026-01-10 04:21:35.95	180.73	7.38	-52.8	-71.7	3.8	8.47e-01	0	44	104	0	76	32983
2026-01-10 04:21:37.09	180.48	7.32	-52.8	-71.7	3.8	8.47e-01	0	43	104	0	76	33025
2026-01-10 04:21:37.95	180.30	7.28	-52.8	-71.7	3.8	8.46e-01	0	43	104	0	76	32992
2026-01-10 04:21:39.10	180.05	7.22	-52.8	-71.7	3.8	8.46e-01	0	43	104	0	76	33003
2026-01-10 04:21:39.96	179.86	7.18	-52.8	-71.7	3.8	8.48e-01	0	44	104	0	76	33028
2026-01-10 04:21:41.11	179.61	7.12	-52.8	-71.7	3.8	8.49e-01	0	44	104	0	76	32979
2026-01-10 04:21:41.97	179.43	7.08	-52.8	-71.7	3.8	8.49e-01	0	44	104	0	76	32989
2026-01-10 04:21:43.12	179.19	7.02	-52.8	-71.7	3.8	8.47e-01	0	44	104	0	76	33011
2026-01-10 04:21:43.98	179.00	6.98	-52.8	-71.7	3.8	8.48e-01	0	44	104	0	76	32989
2026-01-10 04:21:45.13	178.76	6.92	-52.8	-71.6	3.8	8.46e-01	0	44	104	0	76	32904
2026-01-10 04:21:45.99	178.58	6.88	-52.8	-71.7	3.8	8.46e-01	0	44	104	0	76	33060
2026-01-10 04:21:47.14	178.34	6.82	-52.8	-71.7	3.8	8.46e-01	0	44	104	0	76	32950
2026-01-10 04:21:48.00	178.16	6.78	-52.8	-71.7	3.8	8.46e-01	0	43	104	0	76	32934
2026-01-10 04:21:49.15	177.92	6.72	-52.8	-71.7	3.8	8.48e-01	0	44	104	0	76	33039
2026-01-10 04:21:50.01	177.75	6.68	-52.8	-71.7	3.8	8.48e-01	0	44	104	0	76	33007
2026-01-10 04:21:51.16	177.51	6.62	-52.8	-71.7	3.8	8.47e-01	0	43	104	0	76	33065
2026-01-10 04:21:52.02	177.34	6.58	-52.8	-71.6	3.8	8.47e-01	0	44	104	0	76	32841
2026-01-10 04:21:53.16	177.11	6.52	-52.8	-71.7	3.8	8.46e-01	0	44	104	0	76	32974
2026-01-10 04:21:54.03	176.93	6.47	-52.8	-71.6	3.8	8.47e-01	0	43	104	0	76	32902
2026-01-10 04:21:55.17	176.70	6.41	-52.8	-71.6	3.8	8.47e-01	0	44	104	0	76	32897
2026-01-10 04:21:56.03	176.53	6.37	-52.8	-71.6	3.8	8.47e-01	0	44	104	0	76	32895
2026-01-10 04:21:57.18	176.30	6.31	-52.8	-71.6	3.8	8.46e-01	0	44	104	0	76	32812
2026-01-10 04:21:58.04	176.13	6.27	-52.8	-71.6	3.8	8.46e-01	0	44	104	0	76	32889
2026-01-10 04:21:59.19	175.90	6.21	-52.8	-71.7	3.8	8.47e-01	0	43	104	0	76	32946
2026-01-10 04:22:00.05	175.73	6.16	-52.8	-71.6	3.8	8.47e-01	0	44	104	0	76	32891
2026-01-10 04:22:01.20	175.51	6.10	-52.8	-71.6	3.8	8.47e-01	0	44	104	0	76	32882
2026-01-10 04:22:02.06	175.34	6.06	-52.8	-71.6	3.8	8.47e-01	0	44	104	0	76	32898
2026-01-10 04:22:03.21	175.12	6.00	-52.8	-71.6	3.8	8.48e-01	0	44	104	0	76	32833
2026-01-10 04:22:04.07	174.96	5.96	-52.8	-71.6	3.8	8.46e-01	0	44	104	0	76	32848
2026-01-10 04:22:05.22	174.74	5.90	-52.8	-71.6	3.8	8.46e-01	0	44	104	0	76	32889
2026-01-10 04:22:06.08	174.57	5.85	-52.8	-71.6	3.8	8.47e-01	0	44	104	0	76	32868
2026-01-10 04:22:07.23	174.36	5.79	-52.8	-71.6	3.8	8.47e-01	0	44	104	0	76	32896
2026-01-10 04:22:08.09	174.19	5.75	-52.8	-71.7	3.8	8.47e-01	0	43	104	0	76	32945
2026-01-10 04:22:09.23	173.98	5.69	-52.8	-71.6	3.8	8.47e-01	0	43	104	0	76	32917
2026-01-10 04:22:10.10	173.82	5.64	-52.8	-71.6	3.8	8.47e-01	0	44	104	0	76	32817
2026-01-10 04:22:11.24	173.61	5.58	-52.8	-71.6	3.8	8.47e-01	0	44	104	0	76	32914
2026-01-10 04:22:12.10	173.45	5.54	-52.8	-71.6	3.8	8.47e-01	0	43	104	0	76	32869
2026-01-10 04:22:13.25	173.24	5.48	-52.8	-71.7	3.8	8.47e-01	0	43	104	0	76	32974
2026-01-10 04:22:14.11	173.08	5.43	-52.8	-71.6	3.8	8.47e-01	0	43	104	0	76	32872
2026-01-10 04:22:15.26	172.87	5.37	-52.8	-71.6	3.8	8.47e-01	0	44	104	0	76	32848
2026-01-10 04:22:16.12	172.72	5.33	-52.8	-71.7	3.8	8.47e-01	0	43	104	0	76	33008
2026-01-10 04:22:17.27	172.51	5.27	-52.8	-71.6	3.8	8.48e-01	0	44	104	0	76	32875
2026-01-10 04:22:18.13	172.36	5.22	-52.8	-71.6	3.8	8.48e-01	0	44	104	0	76	32794
2026-01-10 04:22:19.28	172.15	5.16	-52.8	-71.7	3.8	8.47e-01	0	43	104	0	76	32996
2026-01-10 04:22:20.14	172.00	5.12	-52.8	-71.6	3.8	8.47e-01	0	43	104	0	76	32927
2026-01-10 04:22:21.29	171.80	5.05	-52.8	-71.6	3.8	8.47e-01	0	43	104	0	76	32885
2026-01-10 04:22:22.15	171.65	5.01	-52.8	-71.6	3.8	8.47e-01	0	44	104	0	76	32907
2026-01-10 04:22:23.30	171.44	4.95	-52.8	-71.6	3.8	8.47e-01	0	43	104	0	76	32859

#Closed at: 2026-01-10 04:22:24
#Recorded file [0 MB]: D:/Data/31040_260110_071656.dat