passes_logs/2026/01/10/T1/T1__20260110_091937_SUOMI_NPP_rec.log

#Pass ID: 20260110_091937_SUOMI NPP
#Satellite: SUOMI NPP
#Configuration: NPP
#almurnet v.1.7.20251203
#Start time: 2026-01-10 09:19:38

#Version: 2.0.20230620
#Station: T1
#Location: 37.570604 lon 55.790049 lat
#TLE: 1 37849U 11061A   26009.81756760  .00000113  00000+0  74747-4 0  9994
#TLE: 2 37849  98.7806 311.9110 0002525  72.5604 287.5848 14.19524046735974

#Time	Az	El	Level	Level2	SNR	BER	BlckErr	Temp	State	Recorded	gain1	gain2
2026-01-10 09:19:38.36	139.15	5.09	-50.4	-65.6	3.8	1.49e+00	0	39	0	0	72	20711
2026-01-10 09:19:39.35	139.11	5.16	-50.4	-65.5	3.8	1.49e+00	0	39	104	0	72	20477
2026-01-10 09:19:40.35	139.08	5.23	-50.4	-65.5	3.8	1.49e+00	0	39	104	0	72	20326
2026-01-10 09:19:41.34	139.04	5.30	-50.4	-65.4	3.8	1.49e+00	0	39	104	0	72	20276
2026-01-10 09:19:42.34	139.01	5.37	-50.4	-65.4	3.8	1.49e+00	0	39	104	0	72	20084
2026-01-10 09:19:43.34	138.97	5.44	-50.4	-65.3	3.8	1.49e+00	0	39	104	0	72	19928
2026-01-10 09:19:44.34	138.94	5.51	-50.3	-65.1	3.8	1.49e+00	0	39	104	0	72	19580
2026-01-10 09:19:45.33	138.90	5.58	-50.3	-64.9	3.8	1.49e+00	0	39	104	0	72	19119
2026-01-10 09:19:46.33	138.87	5.66	-50.3	-64.7	3.8	1.49e+00	0	39	104	0	72	18580
2026-01-10 09:19:47.33	138.83	5.73	-50.3	-64.3	3.8	1.49e+00	0	39	104	0	72	17872
2026-01-10 09:19:48.32	138.79	5.80	-50.3	-63.8	3.8	1.49e+00	0	39	104	0	72	16868
2026-01-10 09:19:49.32	138.76	5.87	-50.3	-63.7	3.8	1.49e+00	0	39	104	0	72	16567
2026-01-10 09:19:50.31	138.72	5.94	-50.2	-63.3	3.8	1.48e+00	0	39	104	0	72	15805
2026-01-10 09:19:51.30	138.68	6.01	-50.2	-62.9	4.0	1.47e+00	0	39	104	0	72	15168
2026-01-10 09:19:52.30	138.65	6.09	-50.2	-62.7	4.0	1.47e+00	0	39	104	0	72	14759
2026-01-10 09:19:53.30	138.61	6.16	-50.2	-62.6	4.1	1.44e+00	0	39	0	0	72	14574
2026-01-10 09:19:54.29	138.57	6.23	-50.2	-62.7	3.9	1.46e+00	0	39	104	0	72	14812
2026-01-10 09:19:55.29	138.54	6.30	-50.2	-62.7	4.0	1.47e+00	0	39	104	0	72	14878
2026-01-10 09:19:56.29	138.50	6.38	-50.2	-62.9	4.0	1.47e+00	0	39	104	0	72	15198
2026-01-10 09:19:57.29	138.46	6.45	-50.3	-63.5	3.9	1.48e+00	0	40	104	0	72	16298
2026-01-10 09:19:58.29	138.42	6.53	-50.3	-64.0	3.8	1.49e+00	0	40	104	0	72	17152
2026-01-10 09:19:59.29	138.38	6.60	-50.3	-64.4	3.8	1.49e+00	0	40	104	0	72	18015
2026-01-10 09:20:00.29	138.34	6.67	-50.3	-64.7	3.8	1.49e+00	0	39	104	0	72	18709
2026-01-10 09:20:01.29	138.30	6.75	-50.3	-64.9	3.8	1.49e+00	0	40	104	0	72	18981
2026-01-10 09:20:02.29	138.26	6.82	-50.3	-64.9	3.8	1.49e+00	0	40	104	0	72	19124
2026-01-10 09:20:03.28	138.23	6.90	-50.3	-64.7	3.8	1.49e+00	0	40	104	0	72	18533
2026-01-10 09:20:04.28	138.19	6.97	-50.3	-64.3	3.8	1.49e+00	0	39	104	0	72	17871
2026-01-10 09:20:05.28	138.15	7.05	-50.2	-63.6	3.8	1.49e+00	0	40	104	0	72	16453
2026-01-10 09:20:06.27	138.11	7.12	-50.2	-62.7	4.0	1.48e+00	0	40	104	0	72	14879
2026-01-10 09:20:07.27	138.07	7.20	-50.1	-62.1	4.2	1.42e+00	0	40	0	0	72	13734
2026-01-10 09:20:08.27	138.03	7.27	-50.0	-60.5	4.7	1.22e+00	0	40	0	0	72	11456
2026-01-10 09:20:09.26	137.99	7.35	-49.8	-59.0	5.6	5.90e-01	0	40	0	2097152	71	10219
2026-01-10 09:20:10.26	137.94	7.42	-49.5	-57.6	6.7	3.05e-01	0	40	0	4194304	71	8703
2026-01-10 09:20:11.26	137.90	7.50	-49.2	-56.1	8.1	1.06e-01	0	40	0	6291456	70	7750
2026-01-10 09:20:12.25	137.86	7.58	-48.6	-54.4	9.8	2.20e-02	0	40	0	8388608	69	6750
2026-01-10 09:20:13.26	137.82	7.65	-48.1	-53.1	11.2	3.98e-03	0	40	0	9437184	68	6147
2026-01-10 09:20:14.25	137.78	7.73	-47.3	-51.6	12.5	2.27e-04	0	40	0	11534336	66	5836
2026-01-10 09:20:15.25	137.74	7.81	-46.7	-50.5	13.7	1.52e-05	0	40	0	13631488	65	5406
2026-01-10 09:20:16.25	137.69	7.89	-46.3	-49.8	14.3	3.80e-06	0	40	0	15728640	64	5297
2026-01-10 09:20:17.24	137.65	7.96	-46.1	-49.5	14.6	0.00e+00	0	40	0	16777216	64	5111
2026-01-10 09:20:18.24	137.61	8.04	-45.9	-49.2	15.0	0.00e+00	0	40	0	18874368	63	5258
2026-01-10 09:20:19.24	137.57	8.12	-46.0	-49.3	14.9	0.00e+00	0	40	0	20971520	63	5316
2026-01-10 09:20:20.24	137.52	8.20	-46.1	-49.6	14.6	0.00e+00	0	40	0	23068672	63	5484
2026-01-10 09:20:21.23	137.48	8.28	-46.6	-50.4	13.8	3.00e-06	0	40	0	25165824	63	6027
2026-01-10 09:20:22.23	137.44	8.35	-47.0	-51.2	13.0	1.37e-05	0	40	0	26214400	64	6240
2026-01-10 09:20:23.23	137.39	8.43	-47.6	-52.3	11.9	1.10e-04	0	40	0	28311552	65	6688
2026-01-10 09:20:24.23	137.35	8.51	-48.1	-53.5	10.7	1.29e-03	0	40	0	30408704	66	7263
2026-01-10 09:20:25.23	137.30	8.59	-48.7	-55.0	9.1	1.23e-02	0	40	0	32505856	67	8165
2026-01-10 09:20:26.23	137.26	8.67	-49.3	-56.6	7.7	4.89e-02	0	40	0	34603008	69	8707
2026-01-10 09:20:27.22	137.21	8.75	-49.5	-57.5	6.8	1.12e-01	0	40	0	35651584	69	9664
2026-01-10 09:20:28.22	137.17	8.83	-49.8	-58.8	5.8	3.26e-01	0	40	0	37748736	70	10547
2026-01-10 09:20:29.22	137.12	8.91	-50.0	-60.6	4.7	6.52e-01	0	40	0	39845888	70	13046
2026-01-10 09:20:30.21	137.08	8.99	-50.2	-62.7	4.0	1.26e+00	0	40	0	40894464	71	15651
2026-01-10 09:20:31.21	137.03	9.07	-50.3	-64.4	3.8	1.49e+00	0	40	104	40894464	71	18966
2026-01-10 09:20:32.20	136.98	9.15	-49.1	-55.9	8.2	9.07e-02	0	40	0	40894464	70	7586
2026-01-10 09:20:33.19	136.94	9.23	-48.0	-53.2	11.2	1.14e-03	0	40	0	42991616	67	6619
2026-01-10 09:20:34.18	136.89	9.32	-50.3	-63.8	3.8	1.35e+00	0	40	104	42991616	71	17721
2026-01-10 09:20:35.18	136.84	9.40	-47.7	-52.2	12.0	2.30e-03	0	40	0	42991616	67	5905
2026-01-10 09:20:36.17	136.80	9.48	-49.0	-56.0	8.2	2.42e-02	0	41	0	45088768	68	8568
2026-01-10 09:20:37.17	136.75	9.56	-48.1	-53.0	11.4	1.37e-03	0	41	0	47185920	68	6087
2026-01-10 09:20:38.16	136.70	9.64	-48.0	-52.9	11.4	1.23e-03	0	40	0	48234496	68	6045
2026-01-10 09:20:39.16	136.65	9.73	-47.7	-52.6	11.6	6.63e-04	0	40	0	50331648	67	6174
2026-01-10 09:20:40.16	136.60	9.81	-48.2	-53.8	10.4	2.44e-03	0	41	0	52428800	67	7080
2026-01-10 09:20:41.15	136.56	9.89	-48.5	-54.7	9.4	9.28e-03	0	41	0	54525952	67	7811
2026-01-10 09:20:42.14	136.51	9.98	-48.6	-54.8	9.4	1.07e-02	0	40	0	55574528	67	7953
2026-01-10 09:20:43.13	136.46	10.06	-48.4	-54.1	10.1	6.41e-03	0	40	0	57671680	67	7336
2026-01-10 09:20:44.13	136.41	10.14	-48.1	-53.4	10.9	6.19e-03	0	41	0	59768832	67	6734
2026-01-10 09:20:45.12	136.36	10.23	-47.5	-52.1	12.1	1.03e-03	0	41	0	61865984	67	5831
2026-01-10 09:20:46.12	136.31	10.31	-46.9	-50.8	13.5	2.28e-05	0	40	0	63963136	65	5602
2026-01-10 09:20:47.12	136.26	10.40	-46.3	-49.7	14.6	2.20e-06	0	40	0	65011712	64	5279
2026-01-10 09:20:48.11	136.21	10.48	-46.0	-49.1	15.3	7.00e-07	0	41	0	67108864	63	5204
2026-01-10 09:20:49.10	136.16	10.57	-45.8	-48.9	15.5	0.00e+00	0	41	0	69206016	63	5053
2026-01-10 09:20:50.10	136.10	10.65	-45.3	-48.1	16.3	0.00e+00	0	41	0	71303168	62	4913
2026-01-10 09:20:51.10	136.05	10.74	-45.0	-47.7	16.6	0.00e+00	0	41	0	72351744	62	4687
2026-01-10 09:20:52.09	136.00	10.82	-45.1	-47.9	16.5	0.00e+00	0	41	0	74448896	61	5057
2026-01-10 09:20:53.09	135.95	10.91	-45.2	-48.0	16.3	0.00e+00	0	41	0	76546048	61	5128
2026-01-10 09:20:54.08	135.89	11.00	-45.6	-48.7	15.6	0.00e+00	0	41	0	78643200	61	5560
2026-01-10 09:20:55.08	135.84	11.09	-46.1	-49.5	14.9	0.00e+00	0	41	0	80740352	62	5755
2026-01-10 09:20:56.08	135.79	11.17	-46.6	-50.3	14.2	7.00e-07	0	41	0	81788928	63	5951
2026-01-10 09:20:57.07	135.73	11.26	-46.9	-50.9	13.5	5.30e-06	0	41	0	83886080	64	6044
2026-01-10 09:20:58.07	135.68	11.35	-47.2	-51.5	13.0	3.50e-05	0	41	0	85983232	65	6077
2026-01-10 09:20:59.06	135.63	11.44	-47.1	-51.4	13.1	3.43e-05	0	41	0	88080384	65	6015
2026-01-10 09:21:00.06	135.57	11.52	-46.5	-50.3	14.1	1.14e-05	0	41	0	89128960	65	5328
2026-01-10 09:21:01.05	135.52	11.61	-46.0	-49.5	14.9	0.00e+00	0	41	0	91226112	64	5112
2026-01-10 09:21:02.05	135.46	11.70	-45.7	-48.9	15.5	0.00e+00	0	40	0	93323264	63	5053
2026-01-10 09:21:03.05	135.40	11.79	-45.3	-48.3	16.1	0.00e+00	0	41	0	95420416	62	5003
2026-01-10 09:21:04.04	135.35	11.88	-44.9	-47.7	16.7	0.00e+00	0	41	0	97517568	61	4933
2026-01-10 09:21:05.04	135.29	11.97	-44.9	-47.6	16.8	0.00e+00	0	41	0	98566144	61	4888
2026-01-10 09:21:06.04	135.23	12.06	-44.7	-47.4	16.9	0.00e+00	0	41	0	100663296	61	4790
2026-01-10 09:21:07.03	135.18	12.15	-44.7	-47.4	16.9	0.00e+00	0	41	0	102760448	61	4786
2026-01-10 09:21:08.03	135.12	12.24	-45.1	-48.0	16.4	0.00e+00	0	41	0	104857600	61	5113
2026-01-10 09:21:09.03	135.06	12.34	-45.4	-48.4	16.0	0.00e+00	0	41	0	105906176	61	5357
2026-01-10 09:21:10.02	135.00	12.43	-45.9	-49.2	15.2	0.00e+00	0	41	0	108003328	62	5571
2026-01-10 09:21:11.02	134.94	12.52	-46.5	-50.1	14.4	7.00e-07	0	41	0	110100480	63	5818
2026-01-10 09:21:12.02	134.88	12.61	-46.6	-50.4	14.0	7.00e-07	0	41	0	112197632	64	5692
2026-01-10 09:21:13.01	134.82	12.70	-46.7	-50.5	14.0	3.00e-06	0	41	0	114294784	64	5748
2026-01-10 09:21:14.01	134.76	12.80	-46.5	-50.2	14.3	0.00e+00	0	41	0	115343360	64	5545
2026-01-10 09:21:15.00	134.70	12.89	-46.2	-49.7	14.7	0.00e+00	0	41	0	117440512	64	5252
2026-01-10 09:21:15.99	134.64	12.98	-45.6	-48.6	15.8	0.00e+00	0	41	0	119537664	63	4917
2026-01-10 09:21:16.99	134.58	13.08	-45.2	-48.0	16.4	0.00e+00	0	41	0	121634816	62	4859
2026-01-10 09:21:17.98	134.52	13.17	-45.0	-47.8	16.6	0.00e+00	0	41	0	122683392	62	4731
2026-01-10 09:21:18.98	134.46	13.26	-45.0	-47.7	16.7	0.00e+00	0	41	0	124780544	62	4695
2026-01-10 09:21:19.97	134.40	13.36	-44.8	-47.4	17.0	0.00e+00	0	41	0	126877696	61	4796
2026-01-10 09:21:20.97	134.33	13.45	-45.1	-47.9	16.5	0.00e+00	0	41	0	128974848	61	5053
2026-01-10 09:21:21.96	134.27	13.55	-45.3	-48.2	16.3	0.00e+00	0	41	0	131072000	61	5251
2026-01-10 09:21:22.96	134.21	13.64	-45.6	-48.7	15.8	0.00e+00	0	41	0	132120576	61	5546
2026-01-10 09:21:23.95	134.14	13.74	-46.0	-49.4	15.2	0.00e+00	0	41	0	134217728	62	5659
2026-01-10 09:21:24.95	134.08	13.84	-46.4	-49.9	14.6	0.00e+00	0	41	0	136314880	63	5675
2026-01-10 09:21:25.95	134.01	13.93	-46.5	-50.1	14.5	7.00e-07	0	41	0	138412032	63	5832
2026-01-10 09:21:26.94	133.95	14.03	-46.3	-49.7	14.8	0.00e+00	0	41	0	139460608	63	5571
2026-01-10 09:21:27.94	133.88	14.13	-46.0	-49.3	15.3	0.00e+00	0	41	0	141557760	63	5286
2026-01-10 09:21:28.93	133.82	14.23	-45.6	-48.7	15.8	0.00e+00	0	41	0	143654912	63	4949
2026-01-10 09:21:29.92	133.75	14.32	-45.3	-48.2	16.3	0.00e+00	0	41	0	145752064	62	4970
2026-01-10 09:21:30.92	133.68	14.42	-45.1	-47.9	16.5	0.00e+00	0	41	0	147849216	62	4789
2026-01-10 09:21:31.92	133.61	14.52	-45.1	-47.8	16.6	0.00e+00	0	41	0	148897792	62	4758
2026-01-10 09:21:32.91	133.55	14.62	-45.1	-47.9	16.5	0.00e+00	0	41	0	150994944	61	5077
2026-01-10 09:21:33.91	133.48	14.72	-45.1	-48.0	16.5	0.00e+00	0	41	0	153092096	61	5113
2026-01-10 09:21:34.91	133.41	14.82	-45.4	-48.3	16.2	0.00e+00	0	41	0	155189248	61	5306
2026-01-10 09:21:35.90	133.34	14.92	-45.5	-48.6	16.0	0.00e+00	0	41	0	156237824	61	5469
2026-01-10 09:21:36.90	133.27	15.02	-45.9	-49.2	15.4	0.00e+00	0	41	0	158334976	62	5530
2026-01-10 09:21:37.89	133.20	15.12	-46.0	-49.3	15.3	0.00e+00	0	41	0	160432128	62	5629
2026-01-10 09:21:38.89	133.13	15.22	-45.9	-49.2	15.4	0.00e+00	0	41	0	162529280	62	5534
2026-01-10 09:21:39.89	133.06	15.33	-45.9	-49.0	15.5	0.00e+00	0	41	0	164626432	62	5462
2026-01-10 09:21:40.88	132.98	15.43	-45.6	-48.6	15.9	0.00e+00	0	41	0	165675008	62	5186
2026-01-10 09:21:41.88	132.91	15.53	-45.3	-48.2	16.3	0.00e+00	0	41	0	167772160	62	4944
2026-01-10 09:21:42.87	132.84	15.63	-45.0	-47.8	16.7	0.00e+00	0	41	0	169869312	62	4736
2026-01-10 09:21:43.87	132.76	15.74	-44.9	-47.6	16.8	0.00e+00	0	41	0	171966464	61	4903
2026-01-10 09:21:44.86	132.69	15.84	-45.0	-47.8	16.7	0.00e+00	0	41	0	173015040	61	5024
2026-01-10 09:21:45.85	132.62	15.94	-45.2	-48.1	16.4	0.00e+00	0	41	0	175112192	61	5194
2026-01-10 09:21:46.84	132.54	16.05	-45.4	-48.4	16.1	0.00e+00	0	41	0	177209344	61	5351
2026-01-10 09:21:47.84	132.47	16.15	-45.6	-48.7	15.8	0.00e+00	0	41	0	179306496	61	5573
2026-01-10 09:21:48.82	132.39	16.26	-45.9	-49.2	15.4	0.00e+00	0	41	0	181403648	62	5560
2026-01-10 09:21:49.82	132.31	16.36	-45.8	-49.1	15.5	0.00e+00	0	41	0	182452224	62	5503
2026-01-10 09:21:50.82	132.24	16.47	-45.7	-48.9	15.7	0.00e+00	0	41	0	184549376	62	5362
2026-01-10 09:21:51.81	132.16	16.58	-45.5	-48.5	16.0	0.00e+00	0	41	0	186646528	62	5154
2026-01-10 09:21:52.81	132.08	16.68	-45.4	-48.4	16.2	0.00e+00	0	41	0	188743680	62	5065
2026-01-10 09:21:53.81	132.00	16.79	-45.0	-47.9	16.6	0.00e+00	0	41	0	189792256	62	4766
2026-01-10 09:21:54.80	131.92	16.90	-44.9	-47.7	16.7	0.00e+00	0	41	0	191889408	61	4977
2026-01-10 09:21:55.81	131.84	17.01	-45.0	-47.9	16.6	0.00e+00	0	41	0	193986560	61	5042
2026-01-10 09:21:56.81	131.76	17.12	-45.1	-48.0	16.5	0.00e+00	0	41	0	196083712	61	5110
2026-01-10 09:21:57.80	131.68	17.23	-45.0	-47.8	16.6	0.00e+00	0	41	0	198180864	61	5036
2026-01-10 09:21:58.80	131.59	17.34	-45.3	-48.2	16.3	0.00e+00	0	41	0	199229440	61	5254
2026-01-10 09:21:59.80	131.51	17.45	-45.4	-48.4	16.1	0.00e+00	0	41	0	201326592	61	5381
2026-01-10 09:22:00.79	131.43	17.56	-45.3	-48.3	16.3	0.00e+00	0	41	0	203423744	61	5292
2026-01-10 09:22:01.79	131.34	17.67	-45.2	-48.1	16.4	0.00e+00	0	41	0	205520896	61	5193
2026-01-10 09:22:02.79	131.26	17.78	-45.3	-48.2	16.3	0.00e+00	0	41	0	207618048	61	5257
2026-01-10 09:22:03.79	131.17	17.89	-45.0	-47.8	16.7	0.00e+00	0	41	0	208666624	61	5031
2026-01-10 09:22:04.78	131.09	18.00	-45.0	-47.8	16.7	0.00e+00	0	41	0	210763776	61	5027
2026-01-10 09:22:05.78	131.00	18.12	-45.0	-47.8	16.7	0.00e+00	0	41	0	212860928	61	5014
2026-01-10 09:22:06.78	130.91	18.23	-45.1	-47.9	16.6	0.00e+00	0	41	0	214958080	61	5066
2026-01-10 09:22:07.78	130.82	18.35	-45.2	-48.1	16.4	0.00e+00	0	41	0	217055232	61	5187
2026-01-10 09:22:08.78	130.74	18.46	-45.4	-48.4	16.2	0.00e+00	0	41	0	218103808	61	5376
2026-01-10 09:22:09.77	130.65	18.57	-45.4	-48.4	16.1	0.00e+00	0	41	0	220200960	61	5387
2026-01-10 09:22:10.76	130.56	18.69	-45.3	-48.2	16.4	0.00e+00	0	41	0	222298112	61	5232
2026-01-10 09:22:11.76	130.47	18.80	-45.2	-48.0	16.5	0.00e+00	0	41	0	224395264	61	5147
2026-01-10 09:22:12.75	130.38	18.92	-45.2	-48.0	16.5	0.00e+00	0	41	0	225443840	61	5157
2026-01-10 09:22:13.75	130.28	19.04	-45.0	-47.8	16.7	0.00e+00	0	41	0	227540992	61	4987
2026-01-10 09:22:14.75	130.19	19.15	-45.3	-48.1	16.4	0.00e+00	0	41	0	229638144	61	5199
2026-01-10 09:22:15.74	130.10	19.27	-45.5	-48.5	16.0	0.00e+00	0	41	0	231735296	61	5459
2026-01-10 09:22:16.73	130.00	19.39	-45.5	-48.5	16.0	0.00e+00	0	41	0	233832448	61	5438
2026-01-10 09:22:17.73	129.91	19.50	-45.6	-48.7	15.9	0.00e+00	0	41	0	234881024	62	5250
2026-01-10 09:22:18.72	129.81	19.62	-45.8	-48.9	15.7	0.00e+00	0	41	0	236978176	62	5371
2026-01-10 09:22:19.71	129.72	19.74	-45.8	-48.9	15.7	0.00e+00	0	41	0	239075328	62	5378
2026-01-10 09:22:20.70	129.62	19.86	-45.8	-49.0	15.6	7.00e-07	0	41	0	241172480	62	5416
2026-01-10 09:22:21.70	129.52	19.98	-45.7	-48.7	15.9	0.00e+00	0	41	0	242221056	62	5265
2026-01-10 09:22:22.69	129.42	20.10	-45.7	-48.7	15.9	0.00e+00	0	41	0	244318208	62	5276
2026-01-10 09:22:23.68	129.32	20.22	-46.0	-49.1	15.5	0.00e+00	0	41	0	246415360	62	5502
2026-01-10 09:22:24.67	129.22	20.34	-45.9	-49.0	15.6	0.00e+00	0	41	0	248512512	62	5445
2026-01-10 09:22:25.67	129.12	20.46	-45.9	-49.1	15.5	0.00e+00	0	41	0	250609664	62	5476
2026-01-10 09:22:26.67	129.02	20.59	-46.3	-49.6	15.0	0.00e+00	0	41	0	251658240	63	5488
2026-01-10 09:22:27.67	128.92	20.71	-46.4	-49.7	14.9	0.00e+00	0	41	0	253755392	63	5582
2026-01-10 09:22:28.66	128.81	20.83	-46.2	-49.5	15.2	0.00e+00	0	41	0	255852544	63	5426
2026-01-10 09:22:29.66	128.71	20.96	-45.9	-49.1	15.6	0.00e+00	0	41	0	257949696	63	5176
2026-01-10 09:22:30.65	128.60	21.08	-45.9	-49.0	15.7	0.00e+00	0	41	0	258998272	63	5106
2026-01-10 09:22:31.65	128.50	21.21	-45.7	-48.7	15.8	0.00e+00	0	41	0	261095424	63	4977
2026-01-10 09:22:32.64	128.39	21.33	-45.4	-48.3	16.3	0.00e+00	0	41	0	263192576	62	5017
2026-01-10 09:22:33.63	128.28	21.46	-45.4	-48.2	16.4	0.00e+00	0	41	0	265289728	62	4955
2026-01-10 09:22:34.63	128.17	21.59	-45.6	-48.5	16.1	0.00e+00	0	41	0	267386880	62	5153
2026-01-10 09:22:35.62	128.06	21.71	-45.6	-48.6	16.0	0.00e+00	0	41	0	268435456	62	5207
2026-01-10 09:22:36.62	127.95	21.84	-45.9	-49.0	15.6	0.00e+00	0	41	0	270532608	62	5428
2026-01-10 09:22:37.62	127.84	21.97	-45.9	-49.0	15.6	0.00e+00	0	41	0	272629760	62	5453
2026-01-10 09:22:38.62	127.72	22.10	-45.8	-48.9	15.8	0.00e+00	0	41	0	274726912	62	5347
2026-01-10 09:22:39.61	127.61	22.23	-45.6	-48.7	15.9	0.00e+00	0	41	0	275775488	62	5229
2026-01-10 09:22:40.61	127.50	22.36	-45.5	-48.6	16.0	0.00e+00	0	41	0	277872640	62	5171
2026-01-10 09:22:41.60	127.38	22.49	-45.6	-48.6	15.9	0.00e+00	0	41	0	279969792	62	5212
2026-01-10 09:22:42.60	127.26	22.62	-45.8	-48.9	15.7	0.00e+00	0	41	0	282066944	62	5402
2026-01-10 09:22:43.60	127.15	22.75	-45.9	-49.2	15.4	0.00e+00	0	41	0	284164096	62	5566
2026-01-10 09:22:44.59	127.03	22.88	-46.1	-49.4	15.2	0.00e+00	0	41	0	285212672	62	5712
2026-01-10 09:22:45.59	126.91	23.02	-46.2	-49.6	15.0	0.00e+00	0	41	0	287309824	63	5525
2026-01-10 09:22:46.59	126.79	23.15	-46.0	-49.3	15.3	0.00e+00	0	41	0	289406976	63	5324
2026-01-10 09:22:47.58	126.66	23.28	-46.1	-49.5	15.3	0.00e+00	0	41	0	291504128	63	5410
2026-01-10 09:22:48.58	126.54	23.42	-46.1	-49.3	15.3	0.00e+00	0	41	0	292552704	63	5315
2026-01-10 09:22:49.57	126.42	23.55	-46.1	-49.3	15.4	0.00e+00	0	41	0	294649856	63	5306
2026-01-10 09:22:50.57	126.29	23.69	-46.1	-49.2	15.4	0.00e+00	0	41	0	296747008	63	5263
2026-01-10 09:22:51.57	126.16	23.82	-46.0	-49.1	15.5	0.00e+00	0	41	0	298844160	63	5203
2026-01-10 09:22:52.56	126.04	23.96	-46.0	-49.1	15.6	0.00e+00	0	41	0	300941312	63	5213
2026-01-10 09:22:53.55	125.91	24.10	-46.0	-49.1	15.5	0.00e+00	0	41	0	301989888	63	5187
2026-01-10 09:22:54.55	125.78	24.23	-45.9	-49.0	15.6	0.00e+00	0	41	0	304087040	63	5141
2026-01-10 09:22:55.55	125.65	24.37	-45.9	-49.0	15.8	0.00e+00	0	41	0	306184192	63	5114
2026-01-10 09:22:56.54	125.52	24.51	-46.0	-49.1	15.6	0.00e+00	0	41	0	308281344	63	5173
2026-01-10 09:22:57.53	125.39	24.65	-46.2	-49.4	15.2	0.00e+00	0	41	0	309329920	63	5398
2026-01-10 09:22:58.53	125.25	24.79	-46.5	-49.9	14.7	0.00e+00	0	41	0	311427072	63	5721
2026-01-10 09:22:59.53	125.11	24.93	-46.5	-50.0	14.7	0.00e+00	0	41	0	313524224	63	5727
2026-01-10 09:23:00.52	124.98	25.07	-46.4	-49.8	14.9	0.00e+00	0	41	0	315621376	63	5648
2026-01-10 09:23:01.52	124.84	25.21	-46.2	-49.5	15.2	0.00e+00	0	41	0	317718528	63	5418
2026-01-10 09:23:02.51	124.70	25.35	-46.2	-49.4	15.3	0.00e+00	0	41	0	318767104	63	5360
2026-01-10 09:23:03.51	124.56	25.50	-45.9	-49.0	15.6	0.00e+00	0	41	0	320864256	63	5145
2026-01-10 09:23:04.51	124.42	25.64	-46.2	-49.4	15.3	0.00e+00	0	41	0	322961408	63	5371
2026-01-10 09:23:05.51	124.27	25.79	-46.1	-49.2	15.5	0.00e+00	0	41	0	325058560	63	5268
2026-01-10 09:23:06.51	124.13	25.93	-46.5	-50.0	14.7	0.00e+00	0	41	0	326107136	63	5727
2026-01-10 09:23:07.50	123.98	26.07	-46.0	-49.1	15.5	0.00e+00	0	41	0	328204288	63	5218
2026-01-10 09:23:08.50	123.83	26.22	-45.8	-48.8	15.9	0.00e+00	0	41	0	330301440	63	5002
2026-01-10 09:23:09.49	123.69	26.37	-45.4	-48.3	16.3	0.00e+00	0	41	0	332398592	62	5012
2026-01-10 09:23:10.49	123.54	26.51	-45.5	-48.4	16.2	0.00e+00	0	41	0	334495744	62	5078
2026-01-10 09:23:11.48	123.39	26.66	-45.4	-48.2	16.4	0.00e+00	0	41	0	335544320	62	4979
2026-01-10 09:23:12.48	123.23	26.81	-45.6	-48.5	16.1	0.00e+00	0	41	0	337641472	62	5143
2026-01-10 09:23:13.47	123.08	26.96	-46.0	-49.1	15.6	0.00e+00	0	41	0	339738624	62	5524
2026-01-10 09:23:14.47	122.92	27.11	-46.6	-50.0	14.7	0.00e+00	0	41	0	341835776	63	5767
2026-01-10 09:23:15.46	122.77	27.25	-46.2	-49.4	15.2	0.00e+00	0	41	0	343932928	63	5402
2026-01-10 09:23:16.45	122.61	27.40	-46.2	-49.5	15.2	0.00e+00	0	41	0	344981504	63	5431
2026-01-10 09:23:17.45	122.45	27.56	-46.0	-49.1	15.6	0.00e+00	0	41	0	347078656	63	5203
2026-01-10 09:23:18.45	122.28	27.71	-46.0	-49.1	15.5	0.00e+00	0	41	0	349175808	63	5211
2026-01-10 09:23:19.44	122.12	27.86	-45.9	-49.0	15.7	0.00e+00	0	41	0	351272960	63	5124
2026-01-10 09:23:20.43	121.96	28.01	-46.1	-49.3	15.4	0.00e+00	0	41	0	352321536	63	5306
2026-01-10 09:23:21.43	121.79	28.16	-46.3	-49.6	15.1	7.00e-07	0	41	0	354418688	63	5514
2026-01-10 09:23:22.42	121.62	28.32	-46.5	-49.9	14.7	0.00e+00	0	41	0	356515840	63	5714
2026-01-10 09:23:23.42	121.45	28.47	-46.3	-49.5	15.2	0.00e+00	0	41	0	358612992	63	5463
2026-01-10 09:23:24.41	121.28	28.63	-46.2	-49.5	15.2	0.00e+00	0	41	0	360710144	63	5416
2026-01-10 09:23:25.41	121.11	28.78	-46.5	-49.9	14.8	0.00e+00	0	41	0	361758720	63	5687
2026-01-10 09:23:26.41	120.93	28.94	-46.5	-49.9	14.9	0.00e+00	0	41	0	363855872	63	5687
2026-01-10 09:23:27.40	120.76	29.09	-46.5	-50.0	14.7	7.00e-07	0	41	0	365953024	63	5738
2026-01-10 09:23:28.40	120.58	29.25	-46.4	-49.8	14.9	0.00e+00	0	41	0	368050176	63	5642
2026-01-10 09:23:29.40	120.40	29.41	-46.2	-49.6	15.1	0.00e+00	0	41	0	369098752	63	5468
2026-01-10 09:23:30.39	120.22	29.57	-46.2	-49.5	15.2	0.00e+00	0	41	0	371195904	63	5445
2026-01-10 09:23:31.39	120.03	29.73	-46.0	-49.2	15.5	0.00e+00	0	41	0	373293056	63	5279
2026-01-10 09:23:32.39	119.84	29.89	-46.0	-49.3	15.5	0.00e+00	0	41	0	375390208	63	5291
2026-01-10 09:23:33.38	119.66	30.05	-46.1	-49.4	15.3	0.00e+00	0	41	0	377487360	63	5386
2026-01-10 09:23:34.38	119.47	30.21	-46.1	-49.4	15.3	0.00e+00	0	41	0	378535936	63	5400
2026-01-10 09:23:35.37	119.28	30.37	-46.4	-49.8	15.0	0.00e+00	0	41	0	380633088	63	5596
2026-01-10 09:23:36.37	119.08	30.53	-46.3	-49.7	15.1	0.00e+00	0	41	0	382730240	63	5544
2026-01-10 09:23:37.36	118.89	30.69	-46.4	-49.8	15.0	0.00e+00	0	41	0	384827392	63	5608
2026-01-10 09:23:38.36	118.69	30.85	-46.5	-49.9	14.8	0.00e+00	0	41	0	386924544	63	5657
2026-01-10 09:23:39.36	118.49	31.02	-46.8	-50.4	14.3	7.00e-07	0	41	0	387973120	64	5661
2026-01-10 09:23:40.36	118.29	31.18	-46.8	-50.3	14.3	0.00e+00	0	41	0	390070272	64	5638
2026-01-10 09:23:41.35	118.09	31.34	-47.1	-50.8	14.0	1.50e-06	0	41	0	392167424	64	5937
2026-01-10 09:23:42.35	117.88	31.51	-47.1	-50.8	13.9	3.80e-06	0	41	0	394264576	64	5969
2026-01-10 09:23:43.34	117.67	31.67	-47.0	-50.7	13.9	2.20e-06	0	41	0	395313152	64	5922
2026-01-10 09:23:44.34	117.46	31.84	-46.9	-50.5	14.1	4.50e-06	0	41	0	397410304	65	5434
2026-01-10 09:23:45.34	117.25	32.01	-46.9	-50.5	14.2	7.00e-07	0	41	0	399507456	65	5410
2026-01-10 09:23:46.34	117.04	32.17	-47.0	-50.7	13.9	1.50e-06	0	41	0	401604608	65	5537
2026-01-10 09:23:47.34	116.82	32.34	-47.0	-50.7	14.0	0.00e+00	0	41	0	403701760	65	5546
2026-01-10 09:23:48.33	116.60	32.51	-46.9	-50.6	14.1	2.20e-06	0	41	0	404750336	65	5499
2026-01-10 09:23:49.32	116.38	32.67	-46.8	-50.4	14.3	3.00e-06	0	41	0	406847488	65	5373
2026-01-10 09:23:50.32	116.16	32.84	-46.6	-50.0	14.6	0.00e+00	0	41	0	408944640	65	5158
2026-01-10 09:23:51.32	115.93	33.01	-46.5	-49.9	14.8	0.00e+00	0	41	0	411041792	64	5368
2026-01-10 09:23:52.32	115.70	33.18	-46.4	-49.7	15.0	0.00e+00	0	41	0	412090368	64	5255
2026-01-10 09:23:53.31	115.47	33.35	-46.8	-50.5	14.2	0.00e+00	0	41	0	414187520	64	5725
2026-01-10 09:23:54.31	115.24	33.52	-47.0	-50.8	13.8	1.50e-06	0	41	0	416284672	64	5951
2026-01-10 09:23:55.30	115.00	33.69	-47.1	-50.9	13.8	5.30e-06	0	41	0	418381824	64	6030
2026-01-10 09:23:56.30	114.77	33.86	-46.9	-50.6	14.0	0.00e+00	0	41	0	420478976	64	5830
2026-01-10 09:23:57.30	114.52	34.04	-46.7	-50.3	14.5	0.00e+00	0	41	0	421527552	64	5599
2026-01-10 09:23:58.30	114.28	34.21	-46.5	-50.0	14.7	0.00e+00	0	41	0	423624704	64	5452
2026-01-10 09:23:59.29	114.04	34.38	-46.6	-50.3	14.4	0.00e+00	0	41	0	425721856	64	5636
2026-01-10 09:24:00.28	113.79	34.55	-46.5	-50.1	14.5	0.00e+00	0	41	0	427819008	64	5490
2026-01-10 09:24:01.28	113.54	34.72	-46.4	-50.0	14.7	0.00e+00	0	41	0	428867584	64	5411
2026-01-10 09:24:02.28	113.28	34.90	-46.3	-49.8	14.8	0.00e+00	0	41	0	430964736	64	5310
2026-01-10 09:24:03.28	113.03	35.07	-47.0	-50.8	13.9	2.20e-06	0	41	0	433061888	64	5959
2026-01-10 09:24:04.27	112.77	35.24	-47.3	-51.3	13.4	4.50e-06	0	41	0	435159040	65	5983
2026-01-10 09:24:05.26	112.51	35.42	-47.8	-52.2	12.5	1.37e-05	0	41	0	437256192	66	6274
2026-01-10 09:24:06.26	112.24	35.59	-47.9	-52.2	12.4	9.99e-05	0	41	0	438304768	66	6261
2026-01-10 09:24:07.26	111.97	35.77	-47.9	-52.3	12.5	1.27e-04	0	41	0	440401920	66	6283
2026-01-10 09:24:08.25	111.71	35.94	-47.8	-52.2	12.6	8.39e-05	0	41	0	442499072	66	6235
2026-01-10 09:24:09.24	111.43	36.11	-47.9	-52.3	12.4	1.39e-04	0	41	0	444596224	66	6313
2026-01-10 09:24:10.24	111.16	36.29	-47.7	-51.9	12.8	7.62e-05	0	41	0	445644800	66	6037
2026-01-10 09:24:11.23	110.88	36.46	-47.3	-51.3	13.5	1.83e-05	0	41	0	447741952	66	5603
2026-01-10 09:24:12.23	110.60	36.64	-47.0	-50.7	14.0	3.80e-06	0	41	0	449839104	65	5575
2026-01-10 09:24:13.23	110.31	36.82	-46.8	-50.3	14.3	7.00e-07	0	41	0	451936256	65	5313
2026-01-10 09:24:14.22	110.02	36.99	-46.8	-50.4	14.3	7.00e-07	0	41	0	454033408	65	5394
2026-01-10 09:24:15.22	109.73	37.17	-46.7	-50.2	14.5	7.00e-07	0	41	0	455081984	65	5238
2026-01-10 09:24:16.22	109.43	37.34	-46.0	-49.0	15.6	0.00e+00	0	41	0	457179136	64	4857
2026-01-10 09:24:17.21	109.14	37.52	-46.0	-49.0	15.7	7.00e-07	0	41	0	459276288	63	5122
2026-01-10 09:24:18.21	108.84	37.70	-46.1	-49.2	15.5	0.00e+00	0	41	0	461373440	63	5231
2026-01-10 09:24:19.20	108.53	37.87	-46.6	-50.1	14.6	0.00e+00	0	41	0	462422016	64	5507
2026-01-10 09:24:20.19	108.23	38.04	-46.7	-50.3	14.5	1.50e-06	0	41	0	464519168	64	5596
2026-01-10 09:24:21.19	107.92	38.22	-46.7	-50.1	14.6	0.00e+00	0	41	0	466616320	64	5487
2026-01-10 09:24:22.19	107.60	38.40	-46.6	-50.1	14.6	0.00e+00	0	41	0	468713472	64	5502
2026-01-10 09:24:23.18	107.28	38.57	-46.6	-50.0	14.7	0.00e+00	0	41	0	470810624	64	5454
2026-01-10 09:24:24.18	106.96	38.75	-46.9	-50.6	14.1	0.00e+00	0	41	0	471859200	64	5844
2026-01-10 09:24:25.18	106.63	38.92	-47.0	-50.8	13.9	5.30e-06	0	41	0	473956352	64	5958
2026-01-10 09:24:26.17	106.31	39.10	-47.1	-50.9	13.9	2.20e-06	0	41	0	476053504	64	6059
2026-01-10 09:24:27.17	105.97	39.27	-47.3	-51.2	13.6	7.60e-06	0	41	0	478150656	65	5901
2026-01-10 09:24:28.17	105.64	39.45	-47.5	-51.6	13.0	2.67e-05	0	41	0	480247808	65	6167
2026-01-10 09:24:29.17	105.30	39.63	-47.3	-51.3	13.4	2.05e-05	0	41	0	481296384	65	5985
2026-01-10 09:24:30.16	104.96	39.80	-47.2	-51.1	13.6	1.22e-05	0	41	0	483393536	65	5854
2026-01-10 09:24:31.15	104.61	39.97	-47.1	-50.8	13.8	9.10e-06	0	41	0	485490688	65	5644
2026-01-10 09:24:32.15	104.26	40.15	-46.8	-50.4	14.3	0.00e+00	0	41	0	487587840	65	5352
2026-01-10 09:24:33.15	103.90	40.32	-46.4	-49.7	14.9	0.00e+00	0	41	0	488636416	64	5259
2026-01-10 09:24:34.15	103.54	40.49	-46.2	-49.5	15.2	0.00e+00	0	41	0	490733568	64	5108
2026-01-10 09:24:35.14	103.18	40.66	-46.5	-50.0	14.7	0.00e+00	0	41	0	492830720	64	5421
2026-01-10 09:24:36.14	102.82	40.84	-47.1	-51.0	13.8	1.50e-06	0	41	0	494927872	64	6070
2026-01-10 09:24:37.14	102.45	41.01	-47.4	-51.5	13.2	1.83e-05	0	41	0	497025024	65	6082
2026-01-10 09:24:38.14	102.07	41.18	-47.0	-50.6	14.0	1.06e-05	0	41	0	498073600	65	5509
2026-01-10 09:24:39.14	101.69	41.35	-46.3	-49.5	15.1	0.00e+00	0	41	0	500170752	64	5144
2026-01-10 09:24:40.13	101.31	41.52	-46.1	-49.2	15.4	0.00e+00	0	41	0	502267904	64	4969
2026-01-10 09:24:41.13	100.92	41.69	-46.2	-49.4	15.3	0.00e+00	0	41	0	504365056	64	5078
2026-01-10 09:24:42.13	100.53	41.86	-46.3	-49.6	15.0	0.00e+00	0	41	0	506462208	64	5183
2026-01-10 09:24:43.13	100.14	42.03	-46.6	-50.0	14.6	0.00e+00	0	41	0	507510784	64	5446
2026-01-10 09:24:44.12	99.74	42.19	-46.7	-50.2	14.6	1.50e-06	0	41	0	509607936	64	5549
2026-01-10 09:24:45.12	99.34	42.36	-46.5	-49.9	14.7	0.00e+00	0	41	0	511705088	64	5378
2026-01-10 09:24:46.12	98.93	42.52	-46.5	-50.0	14.6	0.00e+00	0	41	0	513802240	64	5441
2026-01-10 09:24:47.12	98.52	42.69	-46.9	-50.6	14.1	0.00e+00	0	41	0	514850816	64	5838
2026-01-10 09:24:48.12	98.10	42.85	-47.1	-51.0	13.7	2.20e-06	0	41	0	516947968	64	6067
2026-01-10 09:24:49.11	97.69	43.01	-46.9	-50.6	14.1	5.30e-06	0	41	0	519045120	65	5503
2026-01-10 09:24:50.11	97.26	43.17	-46.0	-49.3	15.4	0.00e+00	0	41	0	521142272	64	4985
2026-01-10 09:24:51.11	96.83	43.33	-45.2	-48.3	16.3	0.00e+00	0	41	0	523239424	62	5002
2026-01-10 09:24:52.11	96.40	43.49	-44.9	-47.8	16.7	0.00e+00	0	41	0	524288000	61	5014
2026-01-10 09:24:53.11	95.96	43.65	-44.2	-46.9	17.6	0.00e+00	0	41	0	526385152	60	4769
2026-01-10 09:24:54.11	95.52	43.81	-43.7	-46.2	18.2	0.00e+00	0	41	0	528482304	59	4657
2026-01-10 09:24:55.11	95.07	43.96	-44.4	-47.0	17.4	0.00e+00	0	41	0	530579456	59	5148
2026-01-10 09:24:56.11	94.62	44.12	-45.6	-48.7	16.0	0.00e+00	0	41	0	531628032	61	5590
2026-01-10 09:24:57.11	94.17	44.27	-46.4	-50.2	14.5	0.00e+00	0	41	0	533725184	63	5859
2026-01-10 09:24:58.11	93.71	44.42	-46.6	-50.6	14.0	7.00e-07	0	41	0	535822336	63	6186
2026-01-10 09:24:59.10	93.25	44.57	-46.1	-49.9	14.7	0.00e+00	0	41	0	537919488	63	5694
2026-01-10 09:25:00.10	92.78	44.72	-46.3	-50.3	14.5	7.00e-07	0	41	0	540016640	63	5927
2026-01-10 09:25:01.10	92.31	44.87	-46.0	-49.5	15.1	0.00e+00	0	41	0	541065216	63	5461
2026-01-10 09:25:02.10	91.83	45.01	-45.8	-49.2	15.4	0.00e+00	0	41	0	543162368	63	5246
2026-01-10 09:25:03.09	91.35	45.15	-45.7	-48.9	15.8	0.00e+00	0	41	0	545259520	63	5100
2026-01-10 09:25:04.09	90.87	45.29	-45.5	-48.7	15.7	0.00e+00	0	41	0	547356672	63	4949
2026-01-10 09:25:05.09	90.38	45.43	-45.3	-48.5	16.1	0.00e+00	0	41	0	549453824	62	5144
2026-01-10 09:25:06.08	89.89	45.57	-45.0	-48.1	16.4	0.00e+00	0	41	0	550502400	61	5208
2026-01-10 09:25:07.08	89.39	45.71	-45.0	-48.2	16.4	0.00e+00	0	41	0	552599552	61	5247
2026-01-10 09:25:08.08	88.88	45.84	-44.8	-47.8	16.8	0.00e+00	0	41	0	554696704	61	4988
2026-01-10 09:25:09.08	88.38	45.97	-44.4	-47.3	17.2	0.00e+00	0	41	0	556793856	60	4996
2026-01-10 09:25:10.08	87.87	46.10	-44.7	-47.6	16.9	0.00e+00	0	41	0	557842432	60	5184
2026-01-10 09:25:11.07	87.36	46.23	-45.1	-48.2	16.3	0.00e+00	0	41	0	559939584	61	5259
2026-01-10 09:25:12.07	86.84	46.35	-45.3	-48.5	16.1	0.00e+00	0	41	0	562036736	61	5418
2026-01-10 09:25:13.07	86.31	46.48	-46.3	-50.1	14.5	7.00e-07	0	41	0	564133888	63	5810
2026-01-10 09:25:14.06	85.79	46.60	-46.9	-51.4	13.1	1.22e-05	0	41	0	566231040	64	6401
2026-01-10 09:25:15.06	85.26	46.72	-47.0	-51.5	13.1	6.71e-05	0	41	0	567279616	65	6081
2026-01-10 09:25:16.06	84.72	46.83	-47.5	-52.7	11.9	1.07e-04	0	41	0	569376768	65	6979
2026-01-10 09:25:17.05	84.19	46.94	-47.9	-54.0	10.5	4.55e-04	0	41	0	571473920	66	7638
2026-01-10 09:25:18.05	83.64	47.06	-48.0	-54.3	10.1	6.47e-03	0	41	0	573571072	66	7923
2026-01-10 09:25:19.05	83.09	47.16	-47.9	-54.0	10.6	6.43e-03	0	41	0	574619648	66	7632
2026-01-10 09:25:20.05	82.54	47.27	-47.6	-53.0	11.4	1.84e-03	0	41	0	576716800	66	6834
2026-01-10 09:25:21.04	81.99	47.37	-47.4	-52.5	11.9	9.39e-04	0	41	0	578813952	66	6486
2026-01-10 09:25:22.04	81.43	47.47	-47.2	-52.2	12.3	2.73e-04	0	41	0	580911104	66	6212
2026-01-10 09:25:23.04	80.87	47.57	-47.3	-52.4	12.1	1.19e-04	0	41	0	583008256	66	6355
2026-01-10 09:25:24.03	80.31	47.67	-47.2	-51.9	12.6	1.74e-04	0	41	0	584056832	66	6037
2026-01-10 09:25:25.03	79.74	47.76	-47.2	-51.7	12.9	6.94e-05	0	41	0	586153984	66	5891
2026-01-10 09:25:26.03	79.17	47.85	-46.5	-50.4	14.2	9.90e-06	0	41	0	588251136	64	5685
2026-01-10 09:25:27.02	78.60	47.93	-46.5	-50.4	14.1	1.50e-06	0	41	0	590348288	64	5690
2026-01-10 09:25:28.01	78.03	48.02	-46.3	-50.1	14.4	0.00e+00	0	41	0	592445440	64	5497
2026-01-10 09:25:29.01	77.44	48.10	-46.3	-50.1	14.5	7.00e-07	0	41	0	593494016	64	5492
2026-01-10 09:25:30.01	76.86	48.17	-46.1	-49.7	14.8	0.00e+00	0	41	0	595591168	64	5270
2026-01-10 09:25:31.01	76.27	48.25	-46.3	-50.1	14.5	0.00e+00	0	41	0	597688320	64	5469
2026-01-10 09:25:32.01	75.68	48.32	-46.2	-49.9	14.6	1.50e-06	0	41	0	599785472	64	5346
2026-01-10 09:25:33.00	75.09	48.39	-45.9	-49.5	15.0	0.00e+00	0	41	0	600834048	63	5408
2026-01-10 09:25:34.00	74.50	48.45	-45.7	-49.2	15.4	0.00e+00	0	41	0	602931200	63	5235
2026-01-10 09:25:35.00	73.90	48.51	-45.8	-49.4	15.2	0.00e+00	0	41	0	605028352	63	5352
2026-01-10 09:25:35.99	73.30	48.57	-46.1	-49.9	14.7	0.00e+00	0	41	0	607125504	63	5711
2026-01-10 09:25:36.99	72.70	48.63	-46.3	-50.3	14.4	7.00e-07	0	41	0	609222656	63	5954
2026-01-10 09:25:37.98	72.10	48.68	-45.6	-49.0	15.5	0.00e+00	0	41	0	610271232	63	5137
2026-01-10 09:25:38.98	71.50	48.73	-45.3	-48.5	16.0	0.00e+00	0	41	0	612368384	62	5156
2026-01-10 09:25:39.98	70.89	48.77	-44.8	-47.8	16.5	0.00e+00	0	41	0	614465536	61	5041
2026-01-10 09:25:40.97	70.28	48.81	-44.5	-47.5	16.9	0.00e+00	0	41	0	616562688	60	5131
2026-01-10 09:25:41.97	69.67	48.85	-44.2	-47.0	17.4	0.00e+00	0	41	0	618659840	60	4860
2026-01-10 09:25:42.96	69.06	48.88	-44.2	-46.9	17.4	0.00e+00	0	41	0	619708416	59	5082
2026-01-10 09:25:43.96	68.45	48.91	-44.8	-47.8	16.7	0.00e+00	0	41	0	621805568	60	5299
2026-01-10 09:25:44.96	67.83	48.94	-45.5	-48.9	15.7	0.00e+00	0	41	0	623902720	61	5671
2026-01-10 09:25:45.96	67.22	48.97	-46.0	-49.6	15.0	1.50e-06	0	41	0	625999872	62	5830
2026-01-10 09:25:46.95	66.61	48.98	-46.0	-49.6	14.9	0.00e+00	0	41	0	627048448	62	5848
2026-01-10 09:25:47.95	65.99	49.00	-46.2	-50.2	14.3	7.00e-07	0	41	0	629145600	63	5905
2026-01-10 09:25:48.94	65.38	49.01	-46.1	-50.1	14.3	3.80e-06	0	41	0	631242752	63	5829
2026-01-10 09:25:49.94	64.76	49.02	-45.2	-48.5	15.9	7.00e-07	0	41	0	633339904	62	5159
2026-01-10 09:25:50.94	64.14	49.03	-45.2	-48.5	15.9	0.00e+00	0	41	0	635437056	62	5158
2026-01-10 09:25:51.94	63.52	49.03	-45.7	-49.4	15.1	0.00e+00	0	41	0	636485632	62	5701
2026-01-10 09:25:52.94	62.90	49.03	-46.1	-50.1	14.4	0.00e+00	0	41	0	638582784	62	6158
2026-01-10 09:25:53.93	62.28	49.03	-46.1	-50.1	14.4	1.50e-06	0	41	0	640679936	63	5801
2026-01-10 09:25:54.93	61.66	49.02	-45.6	-49.1	15.4	0.00e+00	0	41	0	642777088	63	5167
2026-01-10 09:25:55.93	61.04	49.01	-45.1	-48.2	16.3	0.00e+00	0	41	0	643825664	62	4978
2026-01-10 09:25:56.93	60.43	48.99	-45.0	-48.2	16.3	0.00e+00	0	41	0	645922816	61	5230
2026-01-10 09:25:57.92	59.82	48.97	-45.0	-48.1	16.3	0.00e+00	0	41	0	648019968	61	5189
2026-01-10 09:25:58.92	59.20	48.95	-44.9	-48.0	16.6	0.00e+00	0	41	0	650117120	61	5103
2026-01-10 09:25:59.92	58.58	48.92	-44.5	-47.3	17.0	0.00e+00	0	41	0	652214272	60	5036
2026-01-10 09:26:00.92	57.97	48.89	-44.7	-47.6	16.9	0.00e+00	0	41	0	653262848	60	5215
2026-01-10 09:26:01.92	57.35	48.86	-45.1	-48.3	16.2	0.00e+00	0	41	0	655360000	60	5622
2026-01-10 09:26:02.92	56.74	48.82	-45.5	-49.0	15.5	0.00e+00	0	41	0	657457152	61	5745
2026-01-10 09:26:03.92	56.13	48.78	-45.3	-48.6	15.9	0.00e+00	0	41	0	659554304	62	5206
2026-01-10 09:26:04.92	55.52	48.74	-45.8	-49.5	15.2	0.00e+00	0	41	0	661651456	62	5765
2026-01-10 09:26:05.92	54.92	48.69	-46.3	-50.3	14.4	0.00e+00	0	41	0	662700032	63	5968
2026-01-10 09:26:06.92	54.31	48.64	-46.1	-50.0	14.5	0.00e+00	0	41	0	664797184	63	5751
2026-01-10 09:26:07.91	53.72	48.59	-45.7	-49.2	15.4	0.00e+00	0	41	0	666894336	63	5249
2026-01-10 09:26:08.91	53.11	48.53	-45.5	-48.9	15.6	0.00e+00	0	41	0	668991488	63	5091
2026-01-10 09:26:09.91	52.52	48.47	-45.9	-49.7	14.9	0.00e+00	0	41	0	670040064	62	5889
2026-01-10 09:26:10.90	51.93	48.40	-46.3	-50.2	14.4	1.50e-06	0	41	0	672137216	63	5891
2026-01-10 09:26:11.90	51.33	48.34	-46.4	-50.4	14.2	0.00e+00	0	41	0	674234368	63	5994
2026-01-10 09:26:12.89	50.75	48.27	-46.5	-50.5	14.1	1.50e-06	0	41	0	676331520	63	6095
2026-01-10 09:26:13.89	50.16	48.19	-46.4	-50.3	14.2	2.20e-06	0	41	0	678428672	64	5632
2026-01-10 09:26:14.89	49.58	48.12	-46.2	-50.0	14.5	0.00e+00	0	41	0	679477248	64	5424
2026-01-10 09:26:15.89	48.99	48.04	-45.7	-49.2	15.4	0.00e+00	0	41	0	681574400	63	5220
2026-01-10 09:26:16.88	48.42	47.96	-45.7	-49.2	15.4	0.00e+00	0	41	0	683671552	62	5531
2026-01-10 09:26:17.88	47.84	47.87	-45.6	-49.0	15.6	0.00e+00	0	41	0	685768704	62	5445
2026-01-10 09:26:18.88	47.27	47.78	-46.3	-50.2	14.5	0.00e+00	0	41	0	687865856	63	5872
2026-01-10 09:26:19.88	46.70	47.69	-46.8	-51.1	13.5	0.00e+00	0	41	0	688914432	64	6143
2026-01-10 09:26:20.88	46.14	47.60	-46.5	-50.5	14.1	7.60e-06	0	41	0	691011584	64	5782
2026-01-10 09:26:21.88	45.57	47.50	-46.6	-50.6	13.9	0.00e+00	0	41	0	693108736	64	5852
2026-01-10 09:26:22.87	45.02	47.40	-46.2	-49.8	14.8	3.80e-06	0	41	0	695205888	64	5302
2026-01-10 09:26:23.87	44.47	47.30	-46.1	-49.6	15.0	0.00e+00	0	41	0	696254464	63	5519
2026-01-10 09:26:24.87	43.91	47.19	-46.1	-49.6	15.0	0.00e+00	0	41	0	698351616	63	5516
2026-01-10 09:26:25.86	43.37	47.08	-46.5	-50.3	14.3	0.00e+00	0	41	0	700448768	63	5969
2026-01-10 09:26:26.86	42.83	46.97	-46.3	-50.0	14.6	0.00e+00	0	41	0	702545920	63	5761
2026-01-10 09:26:27.85	42.29	46.86	-46.2	-49.8	14.8	0.00e+00	0	41	0	704643072	63	5654
2026-01-10 09:26:28.85	41.76	46.75	-46.4	-50.3	14.1	7.00e-07	0	41	0	705691648	63	5940
2026-01-10 09:26:29.85	41.23	46.63	-46.7	-50.9	13.6	2.20e-06	0	41	0	707788800	64	6058
2026-01-10 09:26:30.85	40.70	46.51	-46.6	-50.7	14.0	3.80e-06	0	41	0	709885952	64	5879
2026-01-10 09:26:31.84	40.18	46.39	-46.7	-50.8	13.8	9.90e-06	0	41	0	711983104	64	5931
2026-01-10 09:26:32.84	39.66	46.26	-46.4	-50.3	14.3	7.00e-07	0	41	0	713031680	64	5616
2026-01-10 09:26:33.83	39.15	46.14	-46.3	-50.0	14.5	3.00e-06	0	41	0	715128832	64	5454
2026-01-10 09:26:34.83	38.64	46.01	-46.6	-50.7	13.7	1.50e-06	0	41	0	717225984	64	5885
2026-01-10 09:26:35.83	38.13	45.88	-46.4	-50.3	14.2	3.00e-06	0	41	0	719323136	64	5655
2026-01-10 09:26:36.83	37.63	45.74	-45.9	-49.5	15.1	7.00e-07	0	41	0	721420288	63	5406
2026-01-10 09:26:37.82	37.13	45.61	-45.5	-48.9	15.7	0.00e+00	0	41	0	722468864	62	5351
2026-01-10 09:26:38.82	36.64	45.47	-45.6	-48.9	15.7	0.00e+00	0	41	0	724566016	62	5395
2026-01-10 09:26:39.82	36.15	45.33	-45.7	-49.1	15.6	0.00e+00	0	41	0	726663168	62	5494
2026-01-10 09:26:40.81	35.67	45.19	-45.6	-49.0	15.7	0.00e+00	0	41	0	728760320	62	5419
2026-01-10 09:26:41.81	35.19	45.05	-45.5	-48.7	15.9	0.00e+00	0	41	0	730857472	62	5260
2026-01-10 09:26:42.81	34.71	44.91	-45.5	-48.8	15.9	0.00e+00	0	41	0	731906048	62	5286
2026-01-10 09:26:43.81	34.24	44.76	-46.0	-49.6	15.1	0.00e+00	0	41	0	734003200	62	5808
2026-01-10 09:26:44.81	33.77	44.61	-46.5	-50.5	14.1	0.00e+00	0	41	0	736100352	63	6098
2026-01-10 09:26:45.80	33.31	44.47	-46.3	-50.0	14.7	7.00e-07	0	41	0	738197504	63	5724
2026-01-10 09:26:46.80	32.85	44.32	-45.5	-48.6	15.9	0.00e+00	0	41	0	739246080	62	5213
2026-01-10 09:26:47.80	32.40	44.16	-45.4	-48.5	16.0	0.00e+00	0	41	0	741343232	62	5156
2026-01-10 09:26:48.79	31.95	44.01	-45.8	-49.3	15.3	0.00e+00	0	41	0	743440384	62	5631
2026-01-10 09:26:49.79	31.50	43.86	-46.6	-50.6	14.1	0.00e+00	0	41	0	745537536	63	6173
2026-01-10 09:26:50.78	31.07	43.70	-46.2	-49.9	14.8	0.00e+00	0	41	0	747634688	63	5676
2026-01-10 09:26:51.78	30.63	43.55	-45.9	-49.3	15.4	0.00e+00	0	41	0	748683264	63	5300
2026-01-10 09:26:52.78	30.19	43.39	-45.6	-48.8	15.9	0.00e+00	0	41	0	750780416	63	5012
2026-01-10 09:26:53.77	29.77	43.23	-45.5	-48.7	15.9	0.00e+00	0	41	0	752877568	62	5259
2026-01-10 09:26:54.77	29.34	43.07	-45.4	-48.6	16.0	0.00e+00	0	41	0	754974720	62	5187
2026-01-10 09:26:55.77	28.92	42.91	-45.3	-48.4	16.2	0.00e+00	0	41	0	756023296	62	5089
2026-01-10 09:26:56.77	28.51	42.74	-44.7	-47.6	17.0	0.00e+00	0	41	0	758120448	61	4882
2026-01-10 09:26:57.76	28.10	42.58	-44.5	-47.3	17.1	0.00e+00	0	41	0	760217600	61	4757
2026-01-10 09:26:58.76	27.69	42.42	-44.6	-47.5	17.0	0.00e+00	0	41	0	762314752	60	5134
2026-01-10 09:26:59.76	27.29	42.25	-45.0	-48.0	16.5	0.00e+00	0	41	0	764411904	60	5447
2026-01-10 09:27:00.76	26.89	42.09	-44.8	-47.8	16.7	0.00e+00	0	41	0	765460480	60	5316
2026-01-10 09:27:01.75	26.50	41.92	-45.0	-48.0	16.5	0.00e+00	0	41	0	767557632	60	5453
2026-01-10 09:27:02.75	26.11	41.75	-44.8	-47.7	16.8	0.00e+00	0	41	0	769654784	60	5279
2026-01-10 09:27:03.75	25.72	41.58	-45.4	-48.5	16.2	0.00e+00	0	41	0	771751936	61	5441
2026-01-10 09:27:04.75	25.33	41.41	-46.1	-49.5	15.1	0.00e+00	0	41	0	772800512	62	5778
2026-01-10 09:27:05.75	24.96	41.24	-46.7	-50.6	14.1	0.00e+00	0	41	0	774897664	63	6136
2026-01-10 09:27:06.74	24.58	41.08	-46.7	-50.6	14.0	6.10e-06	0	41	0	776994816	64	5804
2026-01-10 09:27:07.74	24.21	40.90	-47.4	-52.1	12.5	8.46e-05	0	41	0	779091968	65	6528
2026-01-10 09:27:08.74	23.85	40.73	-47.4	-52.2	12.4	1.92e-04	0	41	0	781189120	66	6204
2026-01-10 09:27:09.74	23.48	40.56	-47.5	-52.4	12.2	3.18e-04	0	41	0	782237696	66	6389
2026-01-10 09:27:10.74	23.12	40.39	-46.9	-51.1	13.5	8.23e-05	0	41	0	784334848	65	5854
2026-01-10 09:27:11.73	22.77	40.22	-46.5	-50.5	14.0	5.30e-06	0	41	0	786432000	65	5457
2026-01-10 09:27:12.73	22.42	40.04	-46.3	-50.1	14.4	0.00e+00	0	41	0	788529152	64	5487
2026-01-10 09:27:13.73	22.07	39.87	-46.1	-49.6	15.1	0.00e+00	0	41	0	790626304	63	5523
2026-01-10 09:27:14.73	21.73	39.70	-45.8	-49.2	15.4	0.00e+00	0	41	0	791674880	63	5226
2026-01-10 09:27:15.73	21.39	39.52	-46.2	-49.8	15.0	0.00e+00	0	41	0	793772032	63	5612
2026-01-10 09:27:16.73	21.05	39.35	-46.6	-50.4	14.4	0.00e+00	0	41	0	795869184	63	6006
2026-01-10 09:27:17.72	20.72	39.17	-46.8	-50.8	13.7	9.10e-06	0	41	0	797966336	64	5976
2026-01-10 09:27:18.72	20.39	39.00	-47.0	-51.2	13.4	1.29e-05	0	41	0	800063488	64	6241
2026-01-10 09:27:19.71	20.07	38.82	-46.6	-50.4	14.1	1.06e-05	0	41	0	801112064	64	5717
2026-01-10 09:27:20.71	19.74	38.65	-46.6	-50.5	14.1	2.20e-06	0	41	0	803209216	64	5772
2026-01-10 09:27:21.71	19.43	38.47	-46.6	-50.4	14.2	0.00e+00	0	41	0	805306368	64	5722
2026-01-10 09:27:22.70	19.11	38.30	-46.5	-50.4	14.3	7.00e-07	0	41	0	807403520	64	5688
2026-01-10 09:27:23.70	18.80	38.12	-46.8	-51.1	13.5	2.20e-06	0	41	0	808452096	64	6142
2026-01-10 09:27:24.70	18.49	37.95	-47.3	-52.2	12.3	5.26e-05	0	41	0	810549248	65	6631
2026-01-10 09:27:25.70	18.19	37.77	-47.5	-53.0	11.5	5.16e-04	0	41	0	812646400	65	7254
2026-01-10 09:27:26.69	17.89	37.60	-47.4	-52.7	11.8	9.34e-04	0	41	0	814743552	65	7027
2026-01-10 09:27:27.69	17.59	37.42	-47.0	-51.7	12.8	1.58e-04	0	41	0	816840704	65	6263
2026-01-10 09:27:28.69	17.29	37.25	-47.2	-51.9	12.7	6.94e-05	0	41	0	817889280	65	6350
2026-01-10 09:27:29.69	17.00	37.07	-47.7	-52.8	11.6	2.30e-04	0	41	0	819986432	66	6699
2026-01-10 09:27:30.69	16.71	36.89	-48.3	-54.2	10.4	4.19e-03	0	41	0	822083584	67	7407
2026-01-10 09:27:31.69	16.42	36.72	-48.5	-54.6	10.0	7.67e-03	0	41	0	824180736	67	7781
2026-01-10 09:27:32.68	16.14	36.55	-47.9	-53.0	11.6	1.39e-03	0	41	0	825229312	67	6443
2026-01-10 09:27:33.68	15.86	36.37	-47.4	-51.8	12.8	9.99e-05	0	41	0	827326464	66	5970
2026-01-10 09:27:34.68	15.59	36.20	-46.5	-50.1	14.5	4.50e-06	0	41	0	829423616	65	5184
2026-01-10 09:27:35.68	15.31	36.02	-46.1	-49.5	15.1	0.00e+00	0	41	0	831520768	64	5113
2026-01-10 09:27:36.67	15.04	35.85	-45.8	-49.0	15.6	0.00e+00	0	41	0	833617920	63	5128
2026-01-10 09:27:37.67	14.78	35.67	-45.8	-48.9	15.7	0.00e+00	0	41	0	834666496	63	5098
2026-01-10 09:27:38.67	14.51	35.50	-45.9	-49.2	15.5	0.00e+00	0	41	0	836763648	63	5265
2026-01-10 09:27:39.67	14.25	35.33	-46.0	-49.4	15.3	0.00e+00	0	41	0	838860800	63	5356
2026-01-10 09:27:40.67	13.99	35.15	-46.3	-49.9	14.9	0.00e+00	0	41	0	840957952	63	5692
2026-01-10 09:27:41.66	13.73	34.98	-46.4	-50.0	14.8	0.00e+00	0	41	0	843055104	63	5737
2026-01-10 09:27:42.66	13.48	34.81	-46.5	-50.3	14.3	7.00e-07	0	41	0	844103680	64	5597
2026-01-10 09:27:43.65	13.23	34.64	-46.6	-50.4	14.2	2.20e-06	0	41	0	846200832	64	5683
2026-01-10 09:27:44.65	12.98	34.46	-47.3	-51.5	13.2	1.29e-05	0	41	0	848297984	65	6108
2026-01-10 09:27:45.65	12.74	34.29	-47.8	-52.4	12.2	7.85e-05	0	41	0	850395136	66	6417
2026-01-10 09:27:46.65	12.49	34.12	-48.1	-53.2	11.4	6.75e-04	0	41	0	851443712	66	7025
2026-01-10 09:27:47.64	12.26	33.95	-47.6	-52.4	12.2	6.90e-04	0	41	0	853540864	67	6023
2026-01-10 09:27:48.64	12.02	33.78	-47.7	-52.5	12.1	3.67e-04	0	41	0	855638016	67	6127
2026-01-10 09:27:49.64	11.78	33.61	-47.5	-52.3	12.4	3.09e-04	0	41	0	857735168	66	6295
2026-01-10 09:27:50.64	11.55	33.44	-47.2	-51.6	13.0	8.08e-05	0	41	0	859832320	66	5846
2026-01-10 09:27:51.64	11.32	33.27	-46.8	-50.8	13.8	4.80e-05	0	41	0	860880896	65	5654
2026-01-10 09:27:52.64	11.09	33.10	-46.7	-50.6	14.0	6.10e-06	0	41	0	862978048	65	5522
2026-01-10 09:27:53.64	10.86	32.93	-46.2	-49.6	14.9	0.00e+00	0	41	0	865075200	64	5214
2026-01-10 09:27:54.64	10.64	32.76	-46.1	-49.4	15.2	0.00e+00	0	41	0	867172352	63	5366
2026-01-10 09:27:55.63	10.42	32.60	-45.9	-49.1	15.6	0.00e+00	0	41	0	869269504	63	5201
2026-01-10 09:27:56.63	10.20	32.43	-46.1	-49.4	15.3	0.00e+00	0	41	0	870318080	63	5349
2026-01-10 09:27:57.63	9.98	32.26	-46.4	-50.1	14.5	0.00e+00	0	41	0	872415232	64	5473
2026-01-10 09:27:58.62	9.77	32.10	-47.2	-51.5	13.3	7.00e-07	0	41	0	874512384	65	6086
2026-01-10 09:27:59.62	9.56	31.93	-47.6	-52.3	12.4	6.33e-05	0	41	0	876609536	66	6296
2026-01-10 09:28:00.62	9.35	31.77	-47.7	-52.5	12.2	2.06e-04	0	41	0	877658112	66	6474
2026-01-10 09:28:01.61	9.14	31.60	-47.7	-52.4	12.2	2.82e-04	0	41	0	879755264	66	6377
2026-01-10 09:28:02.61	8.94	31.44	-46.9	-50.8	13.8	2.51e-05	0	41	0	881852416	65	5628
2026-01-10 09:28:03.61	8.73	31.27	-46.4	-49.8	14.8	5.30e-06	0	41	0	883949568	64	5315
2026-01-10 09:28:04.60	8.53	31.11	-45.6	-48.7	15.9	0.00e+00	0	41	0	886046720	63	4950
2026-01-10 09:28:05.60	8.33	30.95	-45.5	-48.5	16.1	0.00e+00	0	41	0	887095296	63	4866
2026-01-10 09:28:06.59	8.14	30.79	-45.7	-48.7	15.9	0.00e+00	0	41	0	889192448	62	5278
2026-01-10 09:28:07.60	7.94	30.62	-46.3	-49.6	15.1	0.00e+00	0	41	0	891289600	63	5501
2026-01-10 09:28:08.59	7.75	30.46	-46.5	-50.0	14.8	0.00e+00	0	41	0	893386752	63	5767
2026-01-10 09:28:09.59	7.56	30.30	-46.9	-50.8	13.8	3.00e-06	0	41	0	894435328	64	5963
2026-01-10 09:28:10.59	7.37	30.14	-47.2	-51.4	13.3	1.22e-05	0	41	0	896532480	65	6013
2026-01-10 09:28:11.58	7.18	29.98	-47.7	-52.3	12.4	6.94e-05	0	41	0	898629632	65	6678
2026-01-10 09:28:12.58	7.00	29.82	-47.7	-52.5	12.2	2.10e-04	0	41	0	900726784	66	6427
2026-01-10 09:28:13.58	6.81	29.67	-47.3	-51.6	13.1	5.11e-05	0	41	0	902823936	66	5820
2026-01-10 09:28:14.57	6.63	29.51	-47.0	-51.1	13.6	8.30e-06	0	41	0	903872512	65	5798
2026-01-10 09:28:15.57	6.45	29.35	-47.0	-51.1	13.5	3.00e-06	0	41	0	905969664	65	5849
2026-01-10 09:28:16.57	6.27	29.19	-46.7	-50.5	14.2	3.80e-06	0	41	0	908066816	65	5409
2026-01-10 09:28:17.57	6.09	29.04	-46.5	-50.2	14.4	0.00e+00	0	41	0	910163968	64	5570
2026-01-10 09:28:18.57	5.92	28.88	-46.6	-50.3	14.3	0.00e+00	0	41	0	912261120	64	5636
2026-01-10 09:28:19.57	5.75	28.73	-46.5	-50.1	14.5	7.00e-07	0	41	0	913309696	64	5482
2026-01-10 09:28:20.57	5.57	28.57	-46.2	-49.7	14.9	0.00e+00	0	41	0	915406848	64	5224
2026-01-10 09:28:21.56	5.41	28.42	-45.9	-49.2	15.5	0.00e+00	0	41	0	917504000	63	5227
2026-01-10 09:28:22.56	5.24	28.26	-46.1	-49.4	15.2	0.00e+00	0	41	0	919601152	63	5384
2026-01-10 09:28:23.56	5.07	28.11	-45.9	-49.2	15.3	0.00e+00	0	41	0	920649728	63	5229
2026-01-10 09:28:24.55	4.91	27.96	-46.0	-49.3	15.4	0.00e+00	0	41	0	922746880	63	5312
2026-01-10 09:28:25.55	4.74	27.81	-45.9	-49.1	15.5	0.00e+00	0	41	0	924844032	63	5216
2026-01-10 09:28:26.55	4.58	27.66	-46.0	-49.3	15.3	0.00e+00	0	41	0	926941184	63	5338
2026-01-10 09:28:27.55	4.42	27.51	-45.9	-49.2	15.5	0.00e+00	0	41	0	929038336	63	5237
2026-01-10 09:28:28.54	4.26	27.36	-45.9	-49.2	15.5	0.00e+00	0	41	0	930086912	63	5235
2026-01-10 09:28:29.54	4.11	27.21	-46.2	-49.7	15.0	0.00e+00	0	41	0	932184064	63	5564
2026-01-10 09:28:30.54	3.95	27.06	-46.4	-49.9	14.8	0.00e+00	0	41	0	934281216	63	5703
2026-01-10 09:28:31.54	3.80	26.91	-46.6	-50.3	14.5	0.00e+00	0	41	0	936378368	64	5629
2026-01-10 09:28:32.53	3.64	26.76	-47.2	-51.4	13.2	1.06e-05	0	41	0	937426944	65	6038
2026-01-10 09:28:33.53	3.49	26.62	-47.5	-52.0	12.6	7.62e-05	0	41	0	939524096	65	6493
2026-01-10 09:28:34.53	3.34	26.47	-47.6	-52.2	12.5	1.58e-04	0	41	0	941621248	66	6210
2026-01-10 09:28:35.53	3.19	26.32	-47.7	-52.4	12.2	8.46e-05	0	41	0	943718400	66	6404
2026-01-10 09:28:36.53	3.05	26.18	-47.5	-51.9	12.7	6.02e-05	0	41	0	945815552	66	6060
2026-01-10 09:28:37.52	2.90	26.03	-47.3	-51.6	13.1	3.20e-05	0	41	0	946864128	66	5808
2026-01-10 09:28:38.52	2.76	25.89	-47.1	-51.3	13.4	1.75e-05	0	41	0	948961280	66	5593
2026-01-10 09:28:39.52	2.61	25.74	-47.1	-51.2	13.4	3.80e-06	0	41	0	951058432	65	5900
2026-01-10 09:28:40.52	2.47	25.60	-46.7	-50.6	14.0	6.80e-06	0	41	0	953155584	65	5500
2026-01-10 09:28:41.51	2.33	25.46	-46.5	-50.4	14.3	1.50e-06	0	41	0	955252736	64	5668
2026-01-10 09:28:42.51	2.19	25.32	-46.3	-50.0	14.6	0.00e+00	0	41	0	956301312	64	5418
2026-01-10 09:28:43.51	2.06	25.18	-45.9	-49.4	15.3	0.00e+00	0	41	0	958398464	63	5373
2026-01-10 09:28:44.51	1.92	25.04	-45.6	-48.9	15.7	0.00e+00	0	41	0	960495616	63	5078
2026-01-10 09:28:45.51	1.78	24.89	-45.5	-48.6	16.0	0.00e+00	0	41	0	962592768	62	5208
2026-01-10 09:28:46.51	1.65	24.75	-45.5	-48.7	16.0	0.00e+00	0	41	0	963641344	62	5227
2026-01-10 09:28:47.50	1.52	24.62	-45.6	-48.8	15.9	0.00e+00	0	41	0	965738496	62	5303
2026-01-10 09:28:48.50	1.39	24.48	-45.7	-49.0	15.7	0.00e+00	0	41	0	967835648	62	5427
2026-01-10 09:28:49.50	1.25	24.34	-45.9	-49.4	15.2	0.00e+00	0	41	0	969932800	62	5709
2026-01-10 09:28:50.49	1.13	24.20	-46.1	-49.8	14.9	0.00e+00	0	41	0	972029952	62	5982
2026-01-10 09:28:51.48	1.00	24.07	-46.1	-50.0	14.7	7.00e-07	0	41	0	973078528	63	5752
2026-01-10 09:28:52.48	0.87	23.93	-46.1	-50.0	14.7	0.00e+00	0	41	0	975175680	63	5741
2026-01-10 09:28:53.48	0.75	23.80	-46.1	-50.0	14.6	7.00e-07	0	41	0	977272832	63	5782
2026-01-10 09:28:54.48	0.62	23.66	-46.0	-49.8	14.8	7.00e-07	0	41	0	979369984	63	5649
2026-01-10 09:28:55.47	0.50	23.53	-45.9	-49.6	15.0	0.00e+00	0	41	0	981467136	63	5476
2026-01-10 09:28:56.47	0.38	23.39	-45.8	-49.4	15.3	0.00e+00	0	41	0	982515712	63	5348
2026-01-10 09:28:57.47	0.25	23.26	-45.7	-49.2	15.4	0.00e+00	0	41	0	984612864	63	5241
2026-01-10 09:28:58.46	0.13	23.13	-45.7	-49.1	15.5	0.00e+00	0	41	0	986710016	63	5169
2026-01-10 09:28:59.46	0.01	22.99	-45.7	-49.0	15.6	0.00e+00	0	41	0	988807168	63	5115
2026-01-10 09:29:00.46	359.90	22.86	-45.6	-48.9	15.7	0.00e+00	0	41	0	989855744	63	5069
2026-01-10 09:29:01.46	359.78	22.73	-45.4	-48.6	16.0	0.00e+00	0	41	0	991952896	62	5171
2026-01-10 09:29:02.46	359.66	22.60	-45.2	-48.3	16.3	0.00e+00	0	41	0	994050048	62	5010
2026-01-10 09:29:03.47	359.54	22.47	-45.3	-48.5	16.1	0.00e+00	0	41	0	996147200	62	5101
2026-01-10 09:29:04.47	359.43	22.34	-45.2	-48.3	16.3	0.00e+00	0	41	0	998244352	62	5011
2026-01-10 09:29:05.47	359.32	22.21	-45.2	-48.4	16.2	0.00e+00	0	41	0	999292928	62	5047
2026-01-10 09:29:06.47	359.20	22.08	-45.5	-48.7	15.9	0.00e+00	0	41	0	1001390080	62	5234
2026-01-10 09:29:07.48	359.09	21.95	-45.5	-48.8	15.8	0.00e+00	0	41	0	1003487232	62	5282
2026-01-10 09:29:08.48	358.98	21.82	-46.0	-49.5	15.2	0.00e+00	0	41	0	1005584384	62	5763
2026-01-10 09:29:09.48	358.87	21.69	-46.2	-49.7	15.0	0.00e+00	0	41	0	1007681536	62	5898
2026-01-10 09:29:10.48	358.76	21.57	-46.4	-50.1	14.6	0.00e+00	0	41	0	1008730112	63	5797
2026-01-10 09:29:11.48	358.65	21.44	-46.5	-50.2	14.5	0.00e+00	0	41	0	1010827264	63	5919
2026-01-10 09:29:12.49	358.55	21.31	-46.5	-50.2	14.4	0.00e+00	0	41	0	1012924416	63	5905
2026-01-10 09:29:13.49	358.44	21.19	-46.4	-50.0	14.6	7.00e-07	0	41	0	1015021568	63	5777
2026-01-10 09:29:14.49	358.33	21.06	-46.3	-49.9	14.8	7.00e-07	0	41	0	1016070144	63	5674
2026-01-10 09:29:15.49	358.23	20.94	-46.2	-49.6	15.0	0.00e+00	0	41	0	1018167296	63	5492
2026-01-10 09:29:16.50	358.13	20.82	-46.0	-49.3	15.3	0.00e+00	0	41	0	1020264448	63	5318
2026-01-10 09:29:17.50	358.02	20.69	-45.9	-49.2	15.4	0.00e+00	0	41	0	1022361600	63	5230
2026-01-10 09:29:18.50	357.92	20.57	-45.9	-49.2	15.4	0.00e+00	0	41	0	1024458752	63	5229
2026-01-10 09:29:19.51	357.82	20.45	-45.9	-49.1	15.5	0.00e+00	0	41	0	1025507328	63	5179
2026-01-10 09:29:20.51	357.72	20.32	-46.0	-49.3	15.2	0.00e+00	0	41	0	1027604480	63	5315
2026-01-10 09:29:21.51	357.62	20.20	-46.0	-49.3	15.3	0.00e+00	0	41	0	1029701632	63	5303
2026-01-10 09:29:22.52	357.52	20.08	-46.2	-49.7	14.9	0.00e+00	0	41	0	1031798784	63	5589
2026-01-10 09:29:23.52	357.42	19.96	-46.1	-49.6	15.0	0.00e+00	0	41	0	1033895936	63	5478
2026-01-10 09:29:24.52	357.33	19.84	-46.1	-49.7	14.9	0.00e+00	0	41	0	1034944512	63	5588
2026-01-10 09:29:25.53	357.23	19.72	-46.1	-49.9	14.7	7.00e-07	0	41	0	1037041664	63	5661
2026-01-10 09:29:26.53	357.13	19.60	-46.2	-50.0	14.7	0.00e+00	0	41	0	1039138816	63	5727
2026-01-10 09:29:27.53	357.04	19.48	-45.9	-49.6	14.8	0.00e+00	0	41	0	1041235968	63	5517
2026-01-10 09:29:28.53	356.94	19.37	-45.9	-49.7	14.9	0.00e+00	0	41	0	1043333120	63	5547
2026-01-10 09:29:29.53	356.85	19.25	-45.9	-49.8	14.9	0.00e+00	0	41	0	1044381696	63	5603
2026-01-10 09:29:30.54	356.76	19.13	-45.7	-49.3	15.2	0.00e+00	0	41	0	1046478848	63	5329
2026-01-10 09:29:31.54	356.67	19.02	-45.7	-49.3	15.3	0.00e+00	0	41	0	1048576000	63	5328
2026-01-10 09:29:32.54	356.58	18.90	-45.6	-49.2	15.4	0.00e+00	0	41	0	1050673152	63	5246
2026-01-10 09:29:33.54	356.49	18.78	-45.5	-49.0	15.6	0.00e+00	0	41	0	1052770304	62	5418
2026-01-10 09:29:34.55	356.40	18.67	-45.4	-48.7	15.9	0.00e+00	0	41	0	1053818880	62	5252
2026-01-10 09:29:35.55	356.31	18.55	-45.4	-48.7	15.8	0.00e+00	0	41	0	1055916032	62	5253
2026-01-10 09:29:36.55	356.22	18.44	-45.4	-48.6	16.0	0.00e+00	0	41	0	1058013184	62	5190
2026-01-10 09:29:37.55	356.13	18.33	-45.2	-48.2	16.3	0.00e+00	0	41	0	1060110336	62	4979
2026-01-10 09:29:38.55	356.04	18.21	-45.3	-48.4	16.1	0.00e+00	0	41	0	1062207488	62	5082
2026-01-10 09:29:39.56	355.96	18.10	-45.3	-48.4	16.1	0.00e+00	0	41	0	1063256064	62	5079
2026-01-10 09:29:40.56	355.87	17.99	-45.0	-48.1	16.4	0.00e+00	0	41	0	1065353216	62	4887
2026-01-10 09:29:41.56	355.79	17.87	-45.2	-48.4	16.2	0.00e+00	0	41	0	1067450368	62	5073
2026-01-10 09:29:42.57	355.70	17.76	-45.3	-48.5	16.0	0.00e+00	0	41	0	1069547520	62	5138
2026-01-10 09:29:43.57	355.62	17.65	-45.3	-48.6	16.0	0.00e+00	0	41	0	1071644672	62	5169
2026-01-10 09:29:44.57	355.54	17.54	-45.5	-48.7	15.8	0.00e+00	0	41	0	1072693248	62	5261
2026-01-10 09:29:45.57	355.45	17.43	-45.7	-49.1	15.5	0.00e+00	0	41	0	1074790400	62	5472
2026-01-10 09:29:46.57	355.37	17.32	-45.9	-49.4	15.2	0.00e+00	0	41	0	1076887552	62	5683
2026-01-10 09:29:47.58	355.29	17.21	-46.2	-49.7	14.9	0.00e+00	0	41	0	1078984704	62	5881
2026-01-10 09:29:48.58	355.21	17.10	-46.4	-49.9	14.7	0.00e+00	0	41	0	1080033280	63	5721
2026-01-10 09:29:49.58	355.13	16.99	-46.6	-50.3	14.3	0.00e+00	0	41	0	1082130432	63	5945
2026-01-10 09:29:50.58	355.05	16.89	-46.6	-50.6	13.9	3.00e-06	0	41	0	1084227584	64	5846
2026-01-10 09:29:51.59	354.97	16.78	-46.4	-50.6	13.9	3.80e-06	0	41	0	1086324736	64	5794
2026-01-10 09:29:52.59	354.89	16.67	-46.6	-51.1	13.5	6.10e-06	0	41	0	1088421888	64	6134
2026-01-10 09:29:53.59	354.82	16.56	-46.7	-51.4	13.1	1.22e-05	0	41	0	1089470464	64	6379
2026-01-10 09:29:54.60	354.74	16.46	-46.8	-51.6	12.9	1.98e-05	0	41	0	1091567616	64	6567
2026-01-10 09:29:55.60	354.66	16.35	-46.7	-51.6	12.9	5.03e-05	0	41	0	1093664768	64	6554
2026-01-10 09:29:56.60	354.59	16.25	-46.7	-51.6	12.9	2.82e-05	0	41	0	1095761920	64	6555
2026-01-10 09:29:57.61	354.51	16.14	-46.7	-51.7	12.9	5.64e-05	0	41	0	1097859072	64	6578
2026-01-10 09:29:58.61	354.44	16.04	-46.7	-51.5	13.0	4.19e-05	0	41	0	1098907648	64	6456
2026-01-10 09:29:59.61	354.36	15.93	-46.8	-51.6	12.9	1.75e-05	0	41	0	1101004800	64	6529
2026-01-10 09:30:00.61	354.29	15.83	-46.7	-51.3	13.2	2.36e-05	0	41	0	1103101952	64	6304
2026-01-10 09:30:01.62	354.22	15.72	-46.6	-50.9	13.6	9.10e-06	0	41	0	1105199104	64	6058
2026-01-10 09:30:02.62	354.14	15.62	-46.7	-51.1	13.4	1.83e-05	0	41	0	1107296256	64	6141
2026-01-10 09:30:03.62	354.07	15.52	-46.5	-50.6	13.9	5.30e-06	0	41	0	1108344832	64	5826
2026-01-10 09:30:04.62	354.00	15.41	-46.6	-50.7	13.8	3.80e-06	0	41	0	1110441984	64	5889
2026-01-10 09:30:05.62	353.93	15.31	-46.5	-50.6	14.0	4.50e-06	0	41	0	1112539136	64	5808
2026-01-10 09:30:06.63	353.86	15.21	-46.4	-50.4	14.1	2.20e-06	0	41	0	1114636288	64	5671
2026-01-10 09:30:07.63	353.79	15.11	-46.4	-50.2	14.2	4.50e-06	0	41	0	1116733440	64	5578
2026-01-10 09:30:08.63	353.72	15.01	-46.5	-50.4	14.1	7.00e-07	0	41	0	1117782016	64	5705
2026-01-10 09:30:09.64	353.65	14.91	-46.4	-50.2	14.3	7.00e-07	0	41	0	1119879168	64	5591
2026-01-10 09:30:10.64	353.58	14.81	-46.5	-50.4	14.1	2.20e-06	0	41	0	1121976320	64	5712
2026-01-10 09:30:11.64	353.51	14.71	-46.5	-50.6	13.9	3.00e-06	0	41	0	1124073472	64	5795
2026-01-10 09:30:12.65	353.45	14.61	-46.4	-50.4	14.1	3.00e-06	0	41	0	1125122048	64	5710
2026-01-10 09:30:13.65	353.38	14.51	-46.4	-50.4	14.1	0.00e+00	0	41	0	1127219200	64	5686
2026-01-10 09:30:14.65	353.31	14.41	-46.5	-50.6	13.9	3.00e-06	0	41	0	1129316352	64	5852
2026-01-10 09:30:15.65	353.25	14.31	-46.3	-50.2	14.4	3.80e-06	0	41	0	1131413504	64	5534
2026-01-10 09:30:16.66	353.18	14.21	-46.6	-50.7	13.8	4.50e-06	0	41	0	1133510656	64	5919
2026-01-10 09:30:17.66	353.12	14.12	-46.6	-50.8	13.7	3.00e-06	0	40	0	1134559232	64	5941
2026-01-10 09:30:18.66	353.05	14.02	-46.5	-50.6	13.9	8.30e-06	0	41	0	1136656384	64	5814
2026-01-10 09:30:19.66	352.99	13.92	-46.5	-50.9	13.6	3.00e-06	0	41	0	1138753536	64	6017
2026-01-10 09:30:20.66	352.92	13.83	-46.4	-50.7	13.8	3.80e-06	0	41	0	1140850688	64	5886
2026-01-10 09:30:21.67	352.86	13.73	-46.4	-50.6	13.9	6.80e-06	0	41	0	1142947840	64	5828
2026-01-10 09:30:22.67	352.80	13.63	-46.3	-50.5	14.0	4.50e-06	0	41	0	1143996416	64	5743
2026-01-10 09:30:23.67	352.73	13.54	-46.2	-50.4	14.1	0.00e+00	0	41	0	1146093568	64	5667
2026-01-10 09:30:24.67	352.67	13.44	-46.3	-50.4	14.0	0.00e+00	0	41	0	1148190720	64	5692
2026-01-10 09:30:25.67	352.61	13.35	-46.3	-50.5	14.0	2.20e-06	0	41	0	1150287872	64	5751
2026-01-10 09:30:26.67	352.55	13.25	-46.1	-50.4	14.0	2.20e-06	0	41	0	1152385024	64	5711
2026-01-10 09:30:27.68	352.49	13.16	-45.9	-50.2	14.3	3.80e-06	0	41	0	1153433600	63	5870
2026-01-10 09:30:28.68	352.43	13.06	-45.8	-50.2	14.3	3.00e-06	0	41	0	1155530752	63	5921
2026-01-10 09:30:29.68	352.37	12.97	-45.7	-50.5	14.0	2.20e-06	0	41	0	1157627904	63	6090
2026-01-10 09:30:30.68	352.31	12.88	-45.2	-50.3	14.2	2.20e-06	0	41	0	1159725056	62	6308
2026-01-10 09:30:31.69	352.25	12.78	-45.1	-50.7	13.8	7.00e-07	0	41	0	1161822208	62	6613
2026-01-10 09:30:32.69	352.19	12.69	-45.0	-50.8	13.7	3.00e-06	0	41	0	1162870784	61	7065
2026-01-10 09:30:33.69	352.13	12.60	-44.7	-50.7	13.8	2.20e-06	0	41	0	1164967936	61	7014
2026-01-10 09:30:34.69	352.07	12.51	-44.7	-51.1	13.5	7.60e-06	0	41	0	1167065088	61	7292
2026-01-10 09:30:35.69	352.02	12.42	-44.8	-51.2	13.3	1.06e-05	0	41	0	1169162240	61	7418
2026-01-10 09:30:36.69	351.96	12.33	-44.8	-51.1	13.3	1.37e-05	0	41	0	1170210816	61	7343
2026-01-10 09:30:37.70	351.90	12.23	-44.9	-51.4	13.1	1.98e-05	0	40	0	1172307968	61	7547
2026-01-10 09:30:38.70	351.85	12.14	-45.1	-51.5	13.0	3.81e-05	0	41	0	1174405120	61	7661
2026-01-10 09:30:39.70	351.79	12.05	-45.3	-51.7	12.7	4.95e-05	0	41	0	1176502272	61	7898
2026-01-10 09:30:40.70	351.73	11.96	-45.6	-51.7	12.8	5.95e-05	0	41	0	1178599424	61	7833
2026-01-10 09:30:41.70	351.68	11.87	-45.9	-52.0	12.5	7.85e-05	0	41	0	1179648000	62	7648
2026-01-10 09:30:42.70	351.62	11.78	-46.1	-52.0	12.5	1.02e-04	0	41	0	1181745152	62	7663
2026-01-10 09:30:43.71	351.57	11.69	-46.3	-52.0	12.5	9.68e-05	0	41	0	1183842304	63	7238
2026-01-10 09:30:44.71	351.51	11.61	-46.3	-51.9	12.6	9.68e-05	0	41	0	1185939456	63	7163
2026-01-10 09:30:45.71	351.46	11.52	-46.2	-51.7	12.7	6.33e-05	0	41	0	1188036608	63	6997
2026-01-10 09:30:46.71	351.41	11.43	-46.3	-51.7	12.7	8.69e-05	0	41	0	1189085184	63	7017
2026-01-10 09:30:47.71	351.35	11.34	-46.1	-51.4	13.1	4.50e-05	0	41	0	1191182336	63	6742
2026-01-10 09:30:48.71	351.30	11.25	-46.1	-51.3	13.1	1.75e-05	0	41	0	1193279488	63	6718
2026-01-10 09:30:49.72	351.25	11.17	-46.1	-51.3	13.2	3.05e-05	0	41	0	1195376640	63	6718
2026-01-10 09:30:50.72	351.20	11.08	-45.9	-51.0	13.4	1.22e-05	0	41	0	1197473792	63	6473
2026-01-10 09:30:51.72	351.14	10.99	-45.9	-51.2	13.3	2.05e-05	0	41	0	1198522368	63	6585
2026-01-10 09:30:52.72	351.09	10.91	-45.7	-50.9	13.6	1.22e-05	0	41	0	1200619520	63	6378
2026-01-10 09:30:53.72	351.04	10.82	-45.2	-50.3	14.1	1.50e-06	0	41	0	1202716672	62	6335
2026-01-10 09:30:54.73	350.99	10.73	-45.2	-50.3	14.1	0.00e+00	0	41	0	1204813824	62	6312
2026-01-10 09:30:55.73	350.94	10.65	-45.3	-50.3	14.1	0.00e+00	0	41	0	1206910976	62	6303
2026-01-10 09:30:56.73	350.89	10.56	-45.3	-50.2	14.2	7.00e-07	0	41	0	1207959552	62	6245
2026-01-10 09:30:57.73	350.84	10.48	-45.4	-50.1	14.4	0.00e+00	0	41	0	1210056704	62	6134
2026-01-10 09:30:58.74	350.79	10.39	-45.5	-50.1	14.4	7.00e-07	0	41	0	1212153856	62	6137
2026-01-10 09:30:59.74	350.74	10.31	-45.7	-50.0	14.4	0.00e+00	0	41	0	1214251008	62	6126
2026-01-10 09:31:00.74	350.69	10.22	-45.6	-49.8	14.6	0.00e+00	0	41	0	1215299584	62	5969
2026-01-10 09:31:01.75	350.64	10.14	-46.0	-50.2	14.2	1.50e-06	0	41	0	1217396736	62	6229
2026-01-10 09:31:02.75	350.59	10.05	-45.9	-49.9	14.5	7.00e-07	0	41	0	1219493888	62	6031
2026-01-10 09:31:03.75	350.54	9.97	-46.3	-50.2	14.2	7.00e-07	0	41	0	1221591040	63	5872
2026-01-10 09:31:04.75	350.50	9.89	-46.3	-50.2	14.2	3.00e-06	0	41	0	1223688192	63	5901
2026-01-10 09:31:05.76	350.45	9.80	-46.2	-50.0	14.4	0.00e+00	0	41	0	1224736768	63	5726
