passes_logs/2026/01/10/T1/T1__20260110_121400_NOAA_21_JPSS-2_rec.log

#Pass ID: 20260110_121400_NOAA 21 (JPSS-2)
#Satellite: NOAA 21 (JPSS-2)
#Configuration: NOAA 21
#almurnet v.1.7.20251203
#Start time: 2026-01-10 12:14:02

#Version: 2.0.20230620
#Station: T1
#Location: 37.570604 lon 55.790049 lat
#TLE: 1 54234U 22150A   26009.79679979  .00000100  00000+0  68070-4 0  9993
#TLE: 2 54234  98.7494 310.7596 0000833 322.2782  37.8335 14.19533646164071

#Time	Az	El	Level	Level2	SNR	BER	BlckErr	Temp	State	Recorded	gain1	gain2
2026-01-10 12:14:02.51	241.82	5.09	-50.4	-63.5	3.8	1.49e+00	0	42	0	0	72	16286
2026-01-10 12:14:03.51	241.94	5.13	-50.4	-63.5	3.8	1.49e+00	0	42	104	0	72	16216
2026-01-10 12:14:04.51	242.07	5.17	-50.4	-63.5	3.8	1.49e+00	0	42	104	0	72	16237
2026-01-10 12:14:05.52	242.20	5.21	-50.4	-63.5	3.8	1.49e+00	0	42	104	0	72	16285
2026-01-10 12:14:06.52	242.32	5.25	-50.4	-63.5	3.8	1.49e+00	0	42	104	0	72	16189
2026-01-10 12:14:07.52	242.45	5.29	-50.4	-63.6	3.8	1.49e+00	0	42	104	0	72	16340
2026-01-10 12:14:08.53	242.58	5.33	-50.4	-63.5	3.8	1.49e+00	0	42	104	0	72	16230
2026-01-10 12:14:09.53	242.71	5.37	-50.4	-63.5	3.8	1.49e+00	0	42	104	0	72	16247
2026-01-10 12:14:10.53	242.83	5.41	-50.4	-63.5	3.8	1.49e+00	0	42	104	0	72	16250
2026-01-10 12:14:11.54	242.96	5.45	-50.4	-63.5	3.8	1.49e+00	0	42	104	0	72	16226
2026-01-10 12:14:12.54	243.09	5.49	-50.4	-63.5	3.8	1.49e+00	0	42	104	0	72	16239
2026-01-10 12:14:13.55	243.22	5.53	-50.4	-63.5	3.8	1.49e+00	0	42	104	0	72	16260
2026-01-10 12:14:14.55	243.35	5.57	-50.4	-63.5	3.8	1.49e+00	0	42	104	0	72	16299
2026-01-10 12:14:15.55	243.48	5.61	-50.4	-63.5	3.8	1.49e+00	0	43	104	0	72	16259
2026-01-10 12:14:16.56	243.61	5.65	-50.4	-63.5	3.8	1.49e+00	0	42	104	0	72	16220
2026-01-10 12:14:17.57	243.75	5.69	-50.4	-63.5	3.8	1.49e+00	0	42	104	0	72	16204
2026-01-10 12:14:18.57	243.88	5.73	-50.4	-63.5	3.8	1.49e+00	0	43	104	0	72	16222
2026-01-10 12:14:19.57	244.01	5.77	-50.4	-63.5	3.8	1.49e+00	0	43	104	0	72	16192
2026-01-10 12:14:20.58	244.14	5.81	-50.4	-63.5	3.8	1.49e+00	0	43	104	0	72	16262
2026-01-10 12:14:21.58	244.27	5.85	-50.4	-63.5	3.8	1.49e+00	0	43	104	0	72	16142
2026-01-10 12:14:22.59	244.41	5.89	-50.4	-63.5	3.8	1.49e+00	0	43	104	0	72	16279
2026-01-10 12:14:23.59	244.54	5.93	-50.4	-63.5	3.8	1.49e+00	0	43	104	0	72	16255
2026-01-10 12:14:24.59	244.67	5.97	-50.4	-63.5	3.8	1.49e+00	0	43	104	0	72	16230
2026-01-10 12:14:25.60	244.81	6.01	-50.4	-63.5	3.8	1.49e+00	0	43	104	0	72	16197
2026-01-10 12:14:26.60	244.94	6.05	-50.4	-63.5	3.8	1.49e+00	0	43	104	0	72	16288
2026-01-10 12:14:27.60	245.07	6.09	-50.4	-63.5	3.8	1.49e+00	0	43	104	0	72	16165
2026-01-10 12:14:28.61	245.21	6.13	-50.4	-63.5	3.8	1.49e+00	0	43	104	0	72	16253
2026-01-10 12:14:29.61	245.35	6.17	-50.4	-63.5	3.8	1.49e+00	0	43	104	0	72	16260
2026-01-10 12:14:30.62	245.48	6.21	-50.4	-63.5	3.8	1.49e+00	0	43	104	0	72	16256
2026-01-10 12:14:31.62	245.62	6.25	-50.4	-63.5	3.8	1.49e+00	0	43	104	0	72	16265
2026-01-10 12:14:32.63	245.75	6.29	-50.4	-63.5	3.8	1.49e+00	0	43	104	0	72	16213
2026-01-10 12:14:33.63	245.89	6.33	-50.4	-63.5	3.8	1.49e+00	0	43	104	0	72	16221
2026-01-10 12:14:34.64	246.03	6.37	-50.4	-63.5	3.8	1.49e+00	0	43	104	0	72	16192
2026-01-10 12:14:35.64	246.17	6.40	-50.4	-63.5	3.8	1.49e+00	0	43	104	0	72	16147
2026-01-10 12:14:36.64	246.30	6.44	-50.4	-63.5	3.8	1.49e+00	0	43	104	0	72	16199
2026-01-10 12:14:37.65	246.44	6.48	-50.4	-63.5	3.8	1.49e+00	0	43	104	0	72	16224
2026-01-10 12:14:38.65	246.58	6.52	-50.4	-63.5	3.8	1.49e+00	0	43	104	0	72	16189
2026-01-10 12:14:39.66	246.72	6.56	-50.4	-63.5	3.8	1.49e+00	0	43	104	0	72	16230
2026-01-10 12:14:40.66	246.86	6.60	-50.4	-63.5	3.8	1.49e+00	0	43	104	0	72	16187
2026-01-10 12:14:41.67	247.00	6.64	-50.4	-63.5	3.8	1.49e+00	0	43	104	0	72	16173
2026-01-10 12:14:42.67	247.14	6.67	-50.4	-63.5	3.8	1.49e+00	0	43	104	0	72	16197
2026-01-10 12:14:43.67	247.28	6.71	-50.4	-63.5	3.8	1.49e+00	0	43	104	0	72	16249
2026-01-10 12:14:44.68	247.42	6.75	-50.4	-63.5	3.8	1.49e+00	0	43	104	0	72	16157
2026-01-10 12:14:45.68	247.56	6.79	-50.4	-63.4	3.8	1.49e+00	0	43	104	0	72	16116
2026-01-10 12:14:46.69	247.70	6.83	-50.4	-63.4	3.8	1.49e+00	0	43	104	0	72	16103
2026-01-10 12:14:47.69	247.84	6.86	-50.4	-63.4	3.8	1.49e+00	0	43	104	0	72	16081
2026-01-10 12:14:48.70	247.98	6.90	-50.4	-63.4	3.8	1.49e+00	0	43	104	0	72	16113
2026-01-10 12:14:49.70	248.13	6.94	-50.4	-63.4	3.8	1.49e+00	0	43	104	0	72	16110
2026-01-10 12:14:50.70	248.27	6.98	-50.4	-63.4	3.8	1.49e+00	0	43	104	0	72	16095
2026-01-10 12:14:51.71	248.41	7.01	-50.4	-63.5	3.8	1.49e+00	0	43	104	0	72	16213
2026-01-10 12:14:52.71	248.55	7.05	-50.4	-63.5	3.8	1.49e+00	0	43	104	0	72	16219
2026-01-10 12:14:53.72	248.70	7.09	-50.4	-63.5	3.8	1.49e+00	0	43	104	0	72	16128
2026-01-10 12:14:54.72	248.84	7.13	-50.4	-63.5	3.8	1.49e+00	0	43	104	0	72	16166
2026-01-10 12:14:55.72	248.99	7.16	-50.4	-63.4	3.8	1.49e+00	0	43	104	0	72	16124
2026-01-10 12:14:56.73	249.13	7.20	-50.4	-63.4	3.8	1.49e+00	0	43	104	0	72	16069
2026-01-10 12:14:57.73	249.28	7.24	-50.4	-63.4	3.8	1.49e+00	0	43	104	0	72	15960
2026-01-10 12:14:58.74	249.42	7.27	-50.4	-63.4	3.8	1.49e+00	0	43	104	0	72	15996
2026-01-10 12:14:59.74	249.57	7.31	-50.4	-63.4	3.8	1.49e+00	0	43	104	0	72	16034
2026-01-10 12:15:00.75	249.72	7.35	-50.3	-63.4	3.8	1.49e+00	0	43	104	0	72	16075
2026-01-10 12:15:01.75	249.86	7.38	-50.4	-63.4	3.8	1.49e+00	0	43	104	0	72	16084
2026-01-10 12:15:02.75	250.01	7.42	-50.4	-63.5	3.8	1.49e+00	0	43	104	0	72	16196
2026-01-10 12:15:03.76	250.16	7.45	-50.4	-63.5	3.8	1.49e+00	0	43	104	0	72	16194
2026-01-10 12:15:04.76	250.30	7.49	-50.4	-63.5	3.8	1.49e+00	0	43	104	0	72	16174
2026-01-10 12:15:05.77	250.45	7.53	-50.4	-63.4	3.8	1.49e+00	0	43	104	0	72	16106
2026-01-10 12:15:06.77	250.60	7.56	-50.4	-63.4	3.8	1.49e+00	0	43	104	0	72	16074
2026-01-10 12:15:07.77	250.75	7.60	-50.3	-63.3	3.8	1.49e+00	0	43	104	0	72	15936
2026-01-10 12:15:08.78	250.90	7.63	-50.3	-63.3	3.8	1.49e+00	0	43	104	0	72	15824
2026-01-10 12:15:09.78	251.05	7.67	-50.3	-63.3	3.8	1.49e+00	0	43	104	0	72	15819
2026-01-10 12:15:10.79	251.20	7.70	-50.3	-63.2	3.8	1.49e+00	0	43	104	0	72	15654
2026-01-10 12:15:11.79	251.35	7.74	-50.3	-63.1	3.8	1.49e+00	0	43	104	0	72	15459
2026-01-10 12:15:12.79	251.50	7.77	-50.3	-63.1	3.8	1.49e+00	0	43	104	0	72	15420
2026-01-10 12:15:13.80	251.65	7.81	-50.3	-63.1	3.8	1.49e+00	0	43	104	0	72	15415
2026-01-10 12:15:14.80	251.80	7.84	-50.3	-63.2	3.8	1.49e+00	0	43	104	0	72	15601
2026-01-10 12:15:15.81	251.95	7.88	-50.4	-63.3	3.8	1.49e+00	0	43	104	0	72	15779
2026-01-10 12:15:16.81	252.10	7.91	-50.3	-63.4	3.8	1.49e+00	0	43	104	0	72	15956
2026-01-10 12:15:17.82	252.26	7.95	-50.4	-63.4	3.8	1.49e+00	0	43	104	0	72	16038
2026-01-10 12:15:18.82	252.41	7.98	-50.3	-63.4	3.8	1.49e+00	0	43	104	0	72	16077
2026-01-10 12:15:19.83	252.56	8.02	-50.4	-63.4	3.8	1.49e+00	0	43	104	0	72	16085
2026-01-10 12:15:20.83	252.71	8.05	-50.4	-63.3	3.8	1.49e+00	0	43	104	0	72	15905
2026-01-10 12:15:21.83	252.87	8.09	-50.3	-63.1	3.8	1.49e+00	0	44	104	0	72	15575
2026-01-10 12:15:22.84	253.02	8.12	-50.3	-62.9	3.8	1.49e+00	0	43	104	0	72	15205
2026-01-10 12:15:23.85	253.18	8.15	-50.3	-62.8	3.8	1.49e+00	0	43	104	0	72	15041
2026-01-10 12:15:24.85	253.33	8.19	-50.3	-63.0	3.8	1.49e+00	0	43	104	0	72	15334
2026-01-10 12:15:25.85	253.48	8.22	-50.3	-63.2	3.8	1.49e+00	0	43	104	0	72	15703
2026-01-10 12:15:26.86	253.64	8.25	-50.4	-63.4	3.8	1.49e+00	0	43	104	0	72	16021
2026-01-10 12:15:27.86	253.80	8.29	-50.4	-63.4	3.8	1.49e+00	0	44	104	0	72	16122
2026-01-10 12:15:28.87	253.95	8.32	-50.4	-63.4	3.8	1.49e+00	0	43	104	0	72	15999
2026-01-10 12:15:29.87	254.11	8.35	-50.4	-63.2	3.8	1.49e+00	0	43	104	0	72	15738
2026-01-10 12:15:30.88	254.27	8.39	-50.3	-63.1	3.8	1.49e+00	0	43	104	0	72	15525
2026-01-10 12:15:31.88	254.42	8.42	-50.3	-63.1	3.8	1.49e+00	0	43	104	0	72	15526
2026-01-10 12:15:32.89	254.58	8.45	-50.4	-63.2	3.8	1.49e+00	0	43	104	0	72	15611
2026-01-10 12:15:33.89	254.74	8.48	-50.4	-63.4	3.8	1.49e+00	0	43	104	0	72	15967
2026-01-10 12:15:34.89	254.89	8.51	-50.4	-63.3	3.8	1.49e+00	0	43	104	0	72	15896
2026-01-10 12:15:35.90	255.05	8.55	-50.3	-62.7	3.8	1.49e+00	0	44	104	0	72	14745
2026-01-10 12:15:36.90	255.21	8.58	-50.2	-61.6	3.9	1.49e+00	0	44	104	0	72	13010
2026-01-10 12:15:37.91	255.37	8.61	-50.1	-60.5	4.1	1.48e+00	0	43	104	0	72	11526
2026-01-10 12:15:38.91	255.53	8.64	-50.2	-61.2	4.0	1.48e+00	0	44	104	0	72	12384
2026-01-10 12:15:39.91	255.69	8.67	-50.3	-63.0	3.8	1.49e+00	0	44	104	0	72	15333
2026-01-10 12:15:40.92	255.85	8.70	-50.2	-62.2	3.8	1.49e+00	0	43	104	0	72	13967
2026-01-10 12:15:41.93	256.01	8.74	-49.6	-57.1	5.5	1.05e+00	0	44	0	0	71	8236
2026-01-10 12:15:42.93	256.17	8.77	-48.2	-52.9	9.2	4.15e-02	0	44	0	0	68	6034
2026-01-10 12:15:43.93	256.33	8.80	-46.6	-50.1	12.0	6.10e-04	0	44	0	0	65	5205
2026-01-10 12:15:44.94	256.49	8.83	-45.5	-48.3	13.9	1.90e-05	0	44	0	0	63	4747
2026-01-10 12:15:45.94	256.66	8.86	-44.8	-47.4	14.8	0.00e+00	0	44	0	0	61	4790
2026-01-10 12:15:46.95	256.82	8.89	-44.6	-47.1	15.1	0.00e+00	0	44	0	0	61	4641
2026-01-10 12:15:47.95	256.98	8.92	-44.8	-47.4	14.8	0.00e+00	0	44	0	0	61	4772
2026-01-10 12:15:48.95	257.14	8.95	-45.4	-48.3	14.0	2.20e-06	0	44	0	0	61	5288
2026-01-10 12:15:49.96	257.31	8.98	-46.2	-49.4	12.8	3.43e-05	0	44	0	0	63	5366
2026-01-10 12:15:50.96	257.47	9.01	-47.1	-50.9	11.2	4.45e-04	0	43	0	0	64	6038
2026-01-10 12:15:51.97	257.63	9.04	-47.7	-52.1	10.0	2.57e-03	0	43	0	0	66	6157
2026-01-10 12:15:52.97	257.80	9.07	-48.1	-53.1	8.9	6.31e-03	0	43	0	0	66	6950
2026-01-10 12:15:53.97	257.96	9.10	-48.3	-53.3	8.9	7.10e-03	0	44	0	0	67	6658
2026-01-10 12:15:54.98	258.13	9.13	-46.9	-50.7	11.4	3.17e-04	0	44	0	0	64	5876
2026-01-10 12:15:55.98	258.29	9.15	-49.0	-55.1	7.1	9.34e-02	0	43	0	0	68	7764
2026-01-10 12:15:56.99	258.46	9.18	-47.0	-50.9	11.1	8.18e-03	0	44	0	0	66	5387
2026-01-10 12:15:57.99	258.62	9.21	-46.8	-50.5	11.6	9.09e-04	0	44	0	0	65	5417
2026-01-10 12:15:58.99	258.79	9.24	-46.8	-50.4	11.6	7.39e-04	0	44	0	0	65	5398
2026-01-10 12:16:00.00	258.95	9.27	-46.6	-50.1	12.0	3.04e-04	0	44	0	0	64	5507
2026-01-10 12:16:01.00	259.12	9.30	-46.2	-49.6	12.5	1.10e-04	0	44	0	0	64	5175
2026-01-10 12:16:02.01	259.29	9.32	-46.0	-49.1	13.1	3.66e-05	0	44	0	0	63	5210
2026-01-10 12:16:03.01	259.45	9.35	-45.6	-48.5	13.7	9.90e-06	0	44	0	0	63	4846
2026-01-10 12:16:04.01	259.62	9.38	-45.1	-47.8	14.3	2.20e-06	0	44	0	0	62	4759
2026-01-10 12:16:05.02	259.79	9.41	-44.9	-47.6	14.6	0.00e+00	0	44	0	0	61	4887
2026-01-10 12:16:06.02	259.95	9.43	-44.7	-47.3	14.9	0.00e+00	0	44	0	0	61	4749
2026-01-10 12:16:07.02	260.12	9.46	-44.9	-47.6	14.7	0.00e+00	0	44	0	0	61	4880
2026-01-10 12:16:08.03	260.29	9.49	-44.9	-47.5	14.7	2.20e-06	0	43	0	0	61	4858
2026-01-10 12:16:09.03	260.46	9.51	-44.6	-47.3	14.9	0.00e+00	0	44	0	0	61	4710
2026-01-10 12:16:10.04	260.63	9.54	-44.5	-47.0	15.2	0.00e+00	0	43	0	0	61	4582
2026-01-10 12:16:11.04	260.80	9.57	-44.3	-46.9	15.4	0.00e+00	0	44	0	0	60	4765
2026-01-10 12:16:12.04	260.97	9.59	-44.3	-46.7	15.5	0.00e+00	0	44	0	0	60	4701
2026-01-10 12:16:13.05	261.14	9.62	-44.2	-46.7	15.5	0.00e+00	0	44	0	0	60	4678
2026-01-10 12:16:14.05	261.31	9.64	-44.2	-46.6	15.6	0.00e+00	0	44	0	0	60	4641
2026-01-10 12:16:15.05	261.48	9.67	-44.0	-46.4	15.9	0.00e+00	0	44	0	0	60	4499
2026-01-10 12:16:16.06	261.65	9.69	-44.0	-46.4	15.8	0.00e+00	0	43	0	0	60	4502
2026-01-10 12:16:17.06	261.82	9.72	-44.1	-46.4	15.8	0.00e+00	0	44	0	0	60	4543
2026-01-10 12:16:18.06	261.99	9.74	-44.2	-46.6	15.7	0.00e+00	0	44	0	0	60	4603
2026-01-10 12:16:19.06	262.16	9.77	-44.1	-46.4	15.8	0.00e+00	0	43	0	0	60	4527
2026-01-10 12:16:20.07	262.33	9.79	-44.1	-46.4	15.8	0.00e+00	0	44	0	0	60	4507
2026-01-10 12:16:21.07	262.51	9.82	-44.1	-46.4	15.8	0.00e+00	0	44	0	0	60	4530
2026-01-10 12:16:22.08	262.68	9.84	-44.2	-46.5	15.7	0.00e+00	0	44	0	0	60	4591
2026-01-10 12:16:23.08	262.85	9.86	-44.0	-46.3	15.9	0.00e+00	0	44	0	0	59	4708
2026-01-10 12:16:24.08	263.02	9.89	-43.8	-46.1	16.0	0.00e+00	0	44	0	0	59	4650
2026-01-10 12:16:25.08	263.20	9.91	-43.9	-46.3	15.9	0.00e+00	0	44	0	0	59	4720
2026-01-10 12:16:26.09	263.37	9.93	-43.9	-46.3	15.9	0.00e+00	0	43	0	0	59	4712
2026-01-10 12:16:27.09	263.54	9.96	-43.9	-46.3	15.9	0.00e+00	0	43	0	0	59	4732
2026-01-10 12:16:28.09	263.72	9.98	-43.9	-46.3	15.8	0.00e+00	0	44	0	0	59	4730
2026-01-10 12:16:29.10	263.89	10.00	-43.9	-46.3	15.9	0.00e+00	0	43	0	0	59	4714
2026-01-10 12:16:30.10	264.07	10.02	-43.9	-46.3	15.9	0.00e+00	0	44	0	0	59	4715
2026-01-10 12:16:31.10	264.24	10.05	-43.8	-46.2	16.0	0.00e+00	0	44	0	0	59	4655
2026-01-10 12:16:32.11	264.42	10.07	-43.9	-46.2	16.0	0.00e+00	0	44	0	0	59	4658
2026-01-10 12:16:33.11	264.59	10.09	-44.0	-46.3	15.8	0.00e+00	0	44	0	0	59	4730
2026-01-10 12:16:34.11	264.77	10.11	-44.0	-46.2	15.9	0.00e+00	0	43	0	0	59	4698
2026-01-10 12:16:35.12	264.94	10.13	-43.9	-46.2	15.9	0.00e+00	0	44	0	0	59	4670
2026-01-10 12:16:36.12	265.12	10.15	-43.9	-46.2	16.0	0.00e+00	0	44	0	0	59	4670
2026-01-10 12:16:37.12	265.29	10.17	-43.9	-46.2	16.0	0.00e+00	0	44	0	0	59	4665
2026-01-10 12:16:38.13	265.47	10.19	-47.2	-61.7	3.8	1.49e+00	0	44	104	0	66	18550
2026-01-10 12:16:39.13	265.65	10.21	-47.4	-61.8	3.8	1.49e+00	0	44	104	0	66	18946
2026-01-10 12:16:40.14	265.82	10.23	-47.2	-61.7	3.8	1.49e+00	0	44	104	0	66	18727
2026-01-10 12:16:41.14	266.00	10.25	-47.3	-61.7	3.8	1.49e+00	0	44	104	0	66	18675
2026-01-10 12:16:42.15	266.18	10.27	-47.2	-61.8	3.8	1.49e+00	0	44	104	0	66	18734
2026-01-10 12:16:43.15	266.36	10.29	-47.3	-61.8	3.8	1.49e+00	0	44	104	0	66	18748
2026-01-10 12:16:44.16	266.54	10.31	-47.2	-61.8	3.8	1.49e+00	0	43	104	0	66	18798
2026-01-10 12:16:45.16	266.71	10.33	-47.2	-61.7	3.8	1.49e+00	0	44	104	0	66	18662
2026-01-10 12:16:46.16	266.89	10.35	-47.2	-61.7	3.8	1.49e+00	0	44	104	0	66	18662
2026-01-10 12:16:47.17	267.07	10.37	-47.2	-61.7	3.8	1.49e+00	0	44	104	0	66	18625
2026-01-10 12:16:48.17	267.25	10.39	-47.2	-61.7	3.8	1.49e+00	0	44	104	0	66	18587
2026-01-10 12:16:49.18	267.43	10.40	-47.2	-61.7	3.8	1.49e+00	0	44	104	0	66	18570
2026-01-10 12:16:50.18	267.61	10.42	-47.2	-61.7	3.8	1.49e+00	0	44	104	0	66	18529
2026-01-10 12:16:51.19	267.79	10.44	-47.2	-61.7	3.8	1.49e+00	0	44	104	0	66	18521
2026-01-10 12:16:52.19	267.97	10.46	-47.2	-61.7	3.8	1.49e+00	0	44	104	0	66	18575
2026-01-10 12:16:53.19	268.14	10.47	-47.2	-61.7	3.8	1.49e+00	0	44	104	0	66	18559
2026-01-10 12:16:54.20	268.33	10.49	-47.2	-61.7	3.8	1.49e+00	0	44	104	0	66	18531
2026-01-10 12:16:55.20	268.51	10.51	-47.2	-61.7	3.8	1.49e+00	0	44	104	0	66	18616
2026-01-10 12:16:56.21	268.69	10.52	-47.2	-61.7	3.8	1.49e+00	0	44	104	0	66	18719
2026-01-10 12:16:57.21	268.87	10.54	-47.2	-61.7	3.8	1.49e+00	0	44	104	0	66	18690
2026-01-10 12:16:58.22	269.05	10.55	-47.3	-61.7	3.8	1.49e+00	0	43	104	0	66	18666
2026-01-10 12:16:59.22	269.23	10.57	-47.3	-61.7	3.8	1.49e+00	0	44	104	0	66	18645
2026-01-10 12:17:00.23	269.41	10.59	-47.2	-61.8	3.8	1.49e+00	0	44	104	0	66	18732
2026-01-10 12:17:01.23	269.59	10.60	-47.2	-61.7	3.8	1.49e+00	0	43	104	0	66	18691
2026-01-10 12:17:02.23	269.77	10.62	-47.2	-61.7	3.8	1.49e+00	0	44	104	0	66	18681
2026-01-10 12:17:03.24	269.95	10.63	-47.2	-61.7	3.8	1.49e+00	0	44	104	0	66	18664
2026-01-10 12:17:04.24	270.14	10.64	-47.2	-61.7	3.8	1.49e+00	0	44	104	0	66	18683
2026-01-10 12:17:05.25	270.32	10.66	-47.2	-61.7	3.8	1.49e+00	0	44	104	0	66	18670
2026-01-10 12:17:06.25	270.50	10.67	-47.3	-61.7	3.8	1.49e+00	0	44	104	0	66	18645
2026-01-10 12:17:07.26	270.68	10.69	-47.2	-61.7	3.8	1.49e+00	0	44	104	0	66	18625
2026-01-10 12:17:08.26	270.87	10.70	-47.2	-61.7	3.8	1.49e+00	0	44	104	0	66	18687
2026-01-10 12:17:09.27	271.05	10.71	-47.2	-61.7	3.8	1.49e+00	0	44	104	0	66	18678
2026-01-10 12:17:10.27	271.23	10.73	-47.3	-61.7	3.8	1.49e+00	0	44	104	0	66	18691
2026-01-10 12:17:11.28	271.41	10.74	-47.3	-61.7	3.8	1.49e+00	0	44	104	0	66	18691
2026-01-10 12:17:12.28	271.60	10.75	-47.2	-61.7	3.8	1.49e+00	0	44	104	0	66	18685
2026-01-10 12:17:13.28	271.78	10.76	-47.3	-61.7	3.8	1.49e+00	0	44	104	0	66	18718
2026-01-10 12:17:14.29	271.96	10.77	-47.2	-61.7	3.8	1.49e+00	0	44	104	0	66	18702
2026-01-10 12:17:15.29	272.15	10.79	-47.3	-61.8	3.8	1.49e+00	0	44	104	0	66	18775
2026-01-10 12:17:16.30	272.33	10.80	-47.2	-61.8	3.8	1.49e+00	0	44	104	0	66	18791
2026-01-10 12:17:17.30	272.51	10.81	-47.2	-61.8	3.8	1.49e+00	0	43	104	0	66	18754
2026-01-10 12:17:18.30	272.70	10.82	-47.2	-61.8	3.8	1.49e+00	0	44	104	0	66	18795
2026-01-10 12:17:19.30	272.88	10.83	-47.2	-61.7	3.8	1.49e+00	0	44	104	0	66	18704
2026-01-10 12:17:20.30	273.06	10.84	-47.2	-61.7	3.8	1.49e+00	0	44	104	0	66	18721
2026-01-10 12:17:21.31	273.25	10.85	-47.2	-61.8	3.8	1.49e+00	0	44	104	0	66	18768
2026-01-10 12:17:22.31	273.43	10.86	-47.3	-61.7	3.8	1.49e+00	0	44	104	0	66	18675
2026-01-10 12:17:23.31	273.62	10.87	-47.2	-61.8	3.8	1.49e+00	0	44	104	0	66	18744
2026-01-10 12:17:24.32	273.80	10.88	-47.2	-61.7	3.8	1.49e+00	0	44	104	0	66	18710
2026-01-10 12:17:25.32	273.99	10.89	-47.2	-61.8	3.8	1.49e+00	0	44	104	0	66	18829
2026-01-10 12:17:26.33	274.17	10.90	-47.2	-61.8	3.8	1.49e+00	0	44	104	0	66	18778
2026-01-10 12:17:27.33	274.36	10.91	-47.2	-61.8	3.8	1.49e+00	0	44	104	0	66	18741
2026-01-10 12:17:28.33	274.54	10.91	-47.2	-61.8	3.8	1.49e+00	0	43	104	0	66	18732
2026-01-10 12:17:29.34	274.73	10.92	-47.2	-61.8	3.8	1.49e+00	0	44	104	0	66	18746
2026-01-10 12:17:30.35	274.91	10.93	-47.2	-61.8	3.8	1.49e+00	0	44	104	0	66	18749
2026-01-10 12:17:31.35	275.10	10.94	-47.2	-61.7	3.8	1.49e+00	0	44	104	0	66	18678
2026-01-10 12:17:32.35	275.28	10.94	-47.2	-61.7	3.8	1.49e+00	0	44	104	0	66	18681
2026-01-10 12:17:33.36	275.47	10.95	-47.3	-61.8	3.8	1.49e+00	0	44	104	0	66	18782
2026-01-10 12:17:34.36	275.65	10.96	-47.2	-61.8	3.8	1.49e+00	0	44	104	0	66	18787
2026-01-10 12:17:35.37	275.84	10.96	-47.2	-61.8	3.8	1.49e+00	0	44	104	0	66	18743
2026-01-10 12:17:36.37	276.03	10.97	-47.2	-61.7	3.8	1.49e+00	0	44	104	0	66	18715
2026-01-10 12:17:37.37	276.21	10.98	-47.2	-61.8	3.8	1.49e+00	0	44	104	0	66	18756
2026-01-10 12:17:38.38	276.40	10.98	-47.2	-61.8	3.8	1.49e+00	0	44	104	0	66	18780
2026-01-10 12:17:39.38	276.58	10.99	-47.2	-61.7	3.8	1.49e+00	0	44	104	0	66	18724
2026-01-10 12:17:40.38	276.77	10.99	-47.3	-61.8	3.8	1.49e+00	0	44	104	0	66	18813
2026-01-10 12:17:41.39	276.96	11.00	-47.3	-61.8	3.8	1.49e+00	0	44	104	0	66	18782
2026-01-10 12:17:42.39	277.14	11.00	-47.3	-61.8	3.8	1.49e+00	0	44	104	0	66	18772
2026-01-10 12:17:43.40	277.33	11.01	-47.3	-61.8	3.8	1.49e+00	0	44	104	0	66	18768
2026-01-10 12:17:44.40	277.51	11.01	-47.2	-61.8	3.8	1.49e+00	0	44	104	0	66	18747
2026-01-10 12:17:45.41	277.70	11.01	-47.2	-61.7	3.8	1.49e+00	0	44	104	0	66	18689
2026-01-10 12:17:46.41	277.89	11.02	-47.2	-61.7	3.8	1.49e+00	0	44	104	0	66	18695
2026-01-10 12:17:47.42	278.07	11.02	-47.2	-61.7	3.8	1.49e+00	0	44	104	0	66	18624
2026-01-10 12:17:48.42	278.26	11.02	-47.2	-61.7	3.8	1.49e+00	0	44	104	0	66	18686
2026-01-10 12:17:49.42	278.44	11.03	-47.2	-61.7	3.8	1.49e+00	0	44	104	0	66	18725
2026-01-10 12:17:50.43	278.63	11.03	-47.2	-61.8	3.8	1.49e+00	0	44	104	0	66	18748
2026-01-10 12:17:51.43	278.82	11.03	-47.2	-61.7	3.8	1.49e+00	0	44	104	0	66	18726
2026-01-10 12:17:52.44	279.01	11.03	-47.2	-61.7	3.8	1.49e+00	0	44	104	0	66	18689
2026-01-10 12:17:53.44	279.19	11.03	-47.2	-61.7	3.8	1.49e+00	0	43	104	0	66	18693
2026-01-10 12:17:54.44	279.38	11.03	-47.2	-61.8	3.8	1.49e+00	0	44	104	0	66	18735
2026-01-10 12:17:55.45	279.56	11.04	-47.2	-61.7	3.8	1.49e+00	0	44	104	0	66	18730
2026-01-10 12:17:56.45	279.75	11.04	-47.2	-61.7	3.8	1.49e+00	0	44	104	0	66	18726
2026-01-10 12:17:57.46	279.94	11.04	-47.2	-61.7	3.8	1.49e+00	0	44	104	0	66	18681
2026-01-10 12:17:58.46	280.12	11.04	-47.2	-61.7	3.8	1.49e+00	0	44	104	0	66	18683
2026-01-10 12:17:59.47	280.31	11.04	-47.2	-61.7	3.8	1.49e+00	0	44	104	0	66	18707
2026-01-10 12:18:00.47	280.50	11.04	-47.2	-61.8	3.8	1.49e+00	0	44	104	0	66	18836
2026-01-10 12:18:01.48	280.68	11.04	-47.2	-61.7	3.8	1.49e+00	0	44	104	0	66	18711
2026-01-10 12:18:02.48	280.87	11.04	-47.2	-61.8	3.8	1.49e+00	0	44	104	0	66	18799
2026-01-10 12:18:03.48	281.06	11.03	-47.2	-61.8	3.8	1.49e+00	0	44	104	0	66	18763
2026-01-10 12:18:04.49	281.24	11.03	-47.2	-61.8	3.8	1.49e+00	0	44	104	0	66	18736
2026-01-10 12:18:05.49	281.43	11.03	-47.2	-61.7	3.8	1.49e+00	0	44	104	0	66	18694
2026-01-10 12:18:06.50	281.62	11.03	-47.2	-61.7	3.8	1.49e+00	0	44	104	0	66	18685
2026-01-10 12:18:07.50	281.80	11.03	-47.2	-61.7	3.8	1.49e+00	0	44	104	0	66	18708
2026-01-10 12:18:08.50	281.99	11.02	-47.2	-61.8	3.8	1.49e+00	0	44	104	0	66	18775
2026-01-10 12:18:09.51	282.17	11.02	-47.2	-61.7	3.8	1.49e+00	0	44	104	0	66	18634
2026-01-10 12:18:10.51	282.36	11.02	-47.2	-61.8	3.8	1.49e+00	0	44	104	0	66	18757
2026-01-10 12:18:11.52	282.55	11.02	-47.2	-61.7	3.8	1.49e+00	0	44	104	0	66	18671
2026-01-10 12:18:12.52	282.73	11.01	-47.2	-61.8	3.8	1.49e+00	0	44	104	0	66	18739
2026-01-10 12:18:13.53	282.92	11.01	-47.2	-61.7	3.8	1.49e+00	0	44	104	0	66	18714
2026-01-10 12:18:14.53	283.10	11.00	-47.2	-61.7	3.8	1.49e+00	0	44	104	0	66	18674
2026-01-10 12:18:15.54	283.29	11.00	-47.2	-61.7	3.8	1.49e+00	0	44	104	0	66	18712
2026-01-10 12:18:16.54	283.48	10.99	-47.2	-61.8	3.8	1.49e+00	0	44	104	0	66	18785
2026-01-10 12:18:17.55	283.66	10.99	-47.2	-61.7	3.8	1.49e+00	0	44	104	0	66	18720
2026-01-10 12:18:18.55	283.85	10.98	-47.2	-61.7	3.8	1.49e+00	0	44	104	0	66	18658
2026-01-10 12:18:19.55	284.03	10.98	-47.2	-61.7	3.8	1.49e+00	0	44	104	0	66	18670
2026-01-10 12:18:20.56	284.22	10.97	-47.2	-61.8	3.8	1.49e+00	0	44	104	0	66	18780
2026-01-10 12:18:21.56	284.41	10.97	-47.2	-61.7	3.8	1.49e+00	0	44	104	0	66	18666
2026-01-10 12:18:22.56	284.59	10.96	-47.2	-61.7	3.8	1.49e+00	0	44	104	0	66	18684
2026-01-10 12:18:23.57	284.78	10.96	-47.2	-61.8	3.8	1.49e+00	0	44	104	0	66	18757
2026-01-10 12:18:24.57	284.96	10.95	-47.2	-61.8	3.8	1.49e+00	0	44	104	0	66	18773
2026-01-10 12:18:25.58	285.15	10.94	-47.2	-61.7	3.8	1.49e+00	0	44	104	0	66	18718
2026-01-10 12:18:26.58	285.33	10.93	-47.2	-61.8	3.8	1.49e+00	0	44	104	0	66	18738
2026-01-10 12:18:27.59	285.52	10.93	-47.2	-61.7	3.8	1.49e+00	0	44	104	0	66	18655
2026-01-10 12:18:28.59	285.70	10.92	-47.2	-61.7	3.8	1.49e+00	0	44	104	0	66	18690
2026-01-10 12:18:29.60	285.89	10.91	-47.2	-61.7	3.8	1.49e+00	0	44	104	0	66	18661
2026-01-10 12:18:30.60	286.07	10.90	-47.2	-61.7	3.8	1.49e+00	0	44	104	0	66	18715
2026-01-10 12:18:31.61	286.26	10.89	-47.2	-61.8	3.8	1.49e+00	0	44	104	0	66	18781
2026-01-10 12:18:32.61	286.44	10.88	-47.2	-61.8	3.8	1.49e+00	0	44	104	0	66	18733
2026-01-10 12:18:33.62	286.63	10.88	-47.2	-61.7	3.8	1.49e+00	0	44	104	0	66	18698
2026-01-10 12:18:34.62	286.81	10.87	-47.2	-61.8	3.8	1.49e+00	0	44	104	0	66	18747
2026-01-10 12:18:35.62	286.99	10.86	-47.2	-61.7	3.8	1.49e+00	0	44	104	0	66	18654
2026-01-10 12:18:36.63	287.18	10.85	-47.2	-61.8	3.8	1.49e+00	0	44	104	0	66	18732
2026-01-10 12:18:37.63	287.36	10.84	-47.3	-61.7	3.8	1.49e+00	0	44	104	0	66	18625
2026-01-10 12:18:38.63	287.54	10.83	-47.2	-61.8	3.8	1.49e+00	0	44	104	0	66	18736
2026-01-10 12:18:39.64	287.73	10.82	-47.2	-61.7	3.8	1.49e+00	0	44	104	0	66	18713
2026-01-10 12:18:40.64	287.91	10.80	-47.2	-61.7	3.8	1.49e+00	0	44	104	0	66	18684
2026-01-10 12:18:41.64	288.09	10.79	-47.3	-61.7	3.8	1.49e+00	0	44	104	0	66	18682
2026-01-10 12:18:42.65	288.28	10.78	-47.3	-61.8	3.8	1.49e+00	0	44	104	0	66	18753
2026-01-10 12:18:43.65	288.46	10.77	-47.3	-61.7	3.8	1.49e+00	0	44	104	0	66	18715
2026-01-10 12:18:44.66	288.65	10.76	-47.3	-61.8	3.8	1.49e+00	0	44	104	0	66	18755
2026-01-10 12:18:45.66	288.83	10.75	-47.3	-61.7	3.8	1.49e+00	0	44	104	0	66	18655
2026-01-10 12:18:46.66	289.01	10.73	-47.3	-61.7	3.8	1.49e+00	0	44	104	0	66	18710
2026-01-10 12:18:47.67	289.19	10.72	-47.3	-61.7	3.8	1.49e+00	0	44	104	0	66	18717
2026-01-10 12:18:48.67	289.37	10.71	-47.3	-61.7	3.8	1.49e+00	0	44	104	0	66	18683
2026-01-10 12:18:49.68	289.56	10.70	-47.3	-61.7	3.8	1.49e+00	0	44	104	0	66	18711
2026-01-10 12:18:50.68	289.74	10.68	-47.3	-61.7	3.8	1.49e+00	0	44	104	0	66	18676
2026-01-10 12:18:51.69	289.92	10.67	-47.3	-61.7	3.8	1.49e+00	0	44	104	0	66	18666
2026-01-10 12:18:52.69	290.10	10.65	-47.3	-61.8	3.8	1.49e+00	0	44	104	0	66	18739
2026-01-10 12:18:53.69	290.28	10.64	-47.3	-61.7	3.8	1.49e+00	0	44	104	0	66	18711
2026-01-10 12:18:54.70	290.47	10.63	-47.3	-61.7	3.8	1.49e+00	0	44	104	0	66	18656
2026-01-10 12:18:55.70	290.65	10.61	-47.3	-61.7	3.8	1.49e+00	0	44	104	0	66	18722
2026-01-10 12:18:56.71	290.83	10.60	-47.3	-61.7	3.8	1.49e+00	0	44	104	0	66	18663
2026-01-10 12:18:57.71	291.01	10.58	-47.3	-61.7	3.8	1.49e+00	0	44	104	0	66	18697
2026-01-10 12:18:58.72	291.19	10.57	-47.3	-61.7	3.8	1.49e+00	0	44	104	0	66	18685
2026-01-10 12:18:59.72	291.37	10.55	-47.3	-61.8	3.8	1.49e+00	0	44	104	0	66	18765
2026-01-10 12:19:00.73	291.55	10.53	-47.3	-61.8	3.8	1.49e+00	0	44	104	0	66	18740
2026-01-10 12:19:01.73	291.73	10.52	-47.3	-61.7	3.8	1.49e+00	0	44	104	0	66	18665
2026-01-10 12:19:02.73	291.91	10.50	-47.3	-61.7	3.8	1.49e+00	0	44	104	0	66	18625
2026-01-10 12:19:03.74	292.09	10.48	-47.3	-61.7	3.8	1.49e+00	0	44	104	0	66	18662
2026-01-10 12:19:04.74	292.27	10.47	-47.3	-61.7	3.8	1.49e+00	0	44	104	0	66	18699
2026-01-10 12:19:05.75	292.45	10.45	-47.3	-61.7	3.8	1.49e+00	0	44	104	0	66	18680
2026-01-10 12:19:06.75	292.63	10.43	-47.3	-61.7	3.8	1.49e+00	0	44	104	0	66	18696
2026-01-10 12:19:07.75	292.80	10.42	-47.3	-61.7	3.8	1.49e+00	0	44	104	0	66	18676
2026-01-10 12:19:08.76	292.98	10.40	-47.3	-61.8	3.8	1.49e+00	0	44	104	0	66	18764
2026-01-10 12:19:09.76	293.16	10.38	-47.3	-61.7	3.8	1.49e+00	0	44	104	0	66	18720
2026-01-10 12:19:10.77	293.34	10.36	-47.3	-61.7	3.8	1.49e+00	0	44	104	0	66	18617
2026-01-10 12:19:11.77	293.52	10.34	-47.3	-61.7	3.8	1.49e+00	0	44	104	0	66	18637
2026-01-10 12:19:12.78	293.70	10.33	-47.3	-61.7	3.8	1.49e+00	0	44	104	0	66	18688
2026-01-10 12:19:13.78	293.87	10.31	-47.3	-61.8	3.8	1.49e+00	0	44	104	0	66	18758
2026-01-10 12:19:14.78	294.05	10.29	-47.3	-61.7	3.8	1.49e+00	0	44	104	0	66	18693
2026-01-10 12:19:15.79	294.23	10.27	-47.3	-61.7	3.8	1.49e+00	0	44	104	0	66	18681
2026-01-10 12:19:16.79	294.40	10.25	-47.3	-61.8	3.8	1.49e+00	0	44	104	0	66	18749
2026-01-10 12:19:17.80	294.58	10.23	-47.3	-61.7	3.8	1.49e+00	0	44	104	0	66	18673
2026-01-10 12:19:18.80	294.76	10.21	-47.3	-61.7	3.8	1.49e+00	0	44	104	0	66	18669
2026-01-10 12:19:19.81	294.93	10.19	-47.3	-61.8	3.8	1.49e+00	0	44	104	0	66	18739
2026-01-10 12:19:20.81	295.11	10.17	-47.3	-61.7	3.8	1.49e+00	0	44	104	0	66	18715
2026-01-10 12:19:21.82	295.29	10.15	-47.3	-61.7	3.8	1.49e+00	0	44	104	0	66	18683
2026-01-10 12:19:22.82	295.46	10.13	-47.3	-61.8	3.8	1.49e+00	0	44	104	0	66	18775
2026-01-10 12:19:23.83	295.64	10.10	-47.3	-61.7	3.8	1.49e+00	0	44	104	0	66	18720
2026-01-10 12:19:24.83	295.81	10.08	-47.3	-61.8	3.8	1.49e+00	0	44	104	0	66	18751
2026-01-10 12:19:25.83	295.98	10.06	-47.3	-61.7	3.8	1.49e+00	0	44	104	0	66	18724
2026-01-10 12:19:26.84	296.16	10.04	-47.3	-61.7	3.8	1.49e+00	0	44	104	0	66	18623
2026-01-10 12:19:27.84	296.33	10.02	-47.3	-61.7	3.8	1.49e+00	0	44	104	0	66	18696
2026-01-10 12:19:28.85	296.51	10.00	-47.3	-61.8	3.8	1.49e+00	0	44	104	0	66	18755
2026-01-10 12:19:29.85	296.68	9.97	-47.3	-61.7	3.8	1.49e+00	0	44	104	0	66	18692
2026-01-10 12:19:30.86	296.86	9.95	-47.3	-61.8	3.8	1.49e+00	0	44	104	0	66	18779
2026-01-10 12:19:31.86	297.03	9.93	-47.3	-61.8	3.8	1.49e+00	0	44	104	0	66	18790
2026-01-10 12:19:32.86	297.20	9.91	-47.3	-61.7	3.8	1.49e+00	0	44	104	0	66	18614
2026-01-10 12:19:33.87	297.37	9.88	-47.3	-61.8	3.8	1.49e+00	0	44	104	0	66	18736
2026-01-10 12:19:34.87	297.54	9.86	-47.3	-61.7	3.8	1.49e+00	0	44	104	0	66	18678
2026-01-10 12:19:35.87	297.72	9.84	-47.3	-61.7	3.8	1.49e+00	0	44	104	0	66	18703
2026-01-10 12:19:36.88	297.89	9.81	-47.3	-61.7	3.8	1.49e+00	0	44	104	0	66	18670
2026-01-10 12:19:37.88	298.06	9.79	-47.3	-61.7	3.8	1.49e+00	0	44	104	0	66	18724
2026-01-10 12:19:38.89	298.23	9.76	-47.3	-61.8	3.8	1.49e+00	0	44	104	0	66	18733
2026-01-10 12:19:39.89	298.40	9.74	-47.3	-61.7	3.8	1.49e+00	0	44	104	0	66	18725
2026-01-10 12:19:40.89	298.57	9.71	-47.3	-61.8	3.8	1.49e+00	0	44	104	0	66	18835
2026-01-10 12:19:41.90	298.74	9.69	-47.4	-61.7	3.8	1.49e+00	0	44	104	0	66	18720
2026-01-10 12:19:42.90	298.91	9.66	-47.3	-61.7	3.8	1.49e+00	0	44	104	0	66	18695
2026-01-10 12:19:43.91	299.08	9.64	-47.3	-61.7	3.8	1.49e+00	0	44	104	0	66	18683
2026-01-10 12:19:44.91	299.25	9.61	-47.3	-61.7	3.8	1.49e+00	0	44	104	0	66	18671
2026-01-10 12:19:45.92	299.42	9.59	-47.3	-61.8	3.8	1.49e+00	0	44	104	0	66	18806
2026-01-10 12:19:46.92	299.59	9.56	-47.3	-61.8	3.8	1.49e+00	0	44	104	0	66	18765
2026-01-10 12:19:47.93	299.76	9.54	-47.3	-61.8	3.8	1.49e+00	0	44	104	0	66	18764
2026-01-10 12:19:48.93	299.93	9.51	-47.3	-61.7	3.8	1.49e+00	0	44	104	0	66	18718
2026-01-10 12:19:49.94	300.10	9.48	-47.3	-61.7	3.8	1.49e+00	0	44	104	0	66	18628
2026-01-10 12:19:50.94	300.26	9.46	-47.3	-61.8	3.8	1.49e+00	0	44	104	0	66	18733
2026-01-10 12:19:51.95	300.43	9.43	-47.3	-61.8	3.8	1.49e+00	0	44	104	0	66	18784
2026-01-10 12:19:52.95	300.60	9.40	-47.3	-61.8	3.8	1.49e+00	0	44	104	0	66	18740
2026-01-10 12:19:53.95	300.76	9.38	-47.3	-61.7	3.8	1.49e+00	0	44	104	0	66	18678
2026-01-10 12:19:54.96	300.93	9.35	-47.3	-61.7	3.8	1.49e+00	0	44	104	0	66	18674
2026-01-10 12:19:55.96	301.10	9.32	-47.3	-61.8	3.8	1.49e+00	0	44	104	0	66	18770
2026-01-10 12:19:56.97	301.26	9.29	-47.3	-61.8	3.8	1.49e+00	0	44	104	0	66	18773
2026-01-10 12:19:57.97	301.43	9.27	-47.3	-61.8	3.8	1.49e+00	0	44	104	0	66	18808
2026-01-10 12:19:58.97	301.59	9.24	-47.3	-61.7	3.8	1.49e+00	0	44	104	0	66	18642
2026-01-10 12:19:59.98	301.76	9.21	-47.3	-61.7	3.8	1.49e+00	0	44	104	0	66	18693
2026-01-10 12:20:00.98	301.92	9.18	-47.3	-61.7	3.8	1.49e+00	0	44	104	0	66	18722
2026-01-10 12:20:01.99	302.09	9.15	-47.3	-61.7	3.8	1.49e+00	0	44	104	0	66	18721
2026-01-10 12:20:02.99	302.25	9.13	-47.3	-61.7	3.8	1.49e+00	0	44	104	0	66	18680
2026-01-10 12:20:04.00	302.41	9.10	-47.3	-61.7	3.8	1.49e+00	0	44	104	0	66	18695
2026-01-10 12:20:05.00	302.58	9.07	-47.3	-61.8	3.8	1.49e+00	0	44	104	0	66	18739
2026-01-10 12:20:06.00	302.74	9.04	-47.3	-61.7	3.8	1.49e+00	0	44	104	0	66	18719
2026-01-10 12:20:07.01	302.90	9.01	-47.3	-61.8	3.8	1.49e+00	0	44	104	0	66	18732
2026-01-10 12:20:08.01	303.06	8.98	-47.3	-61.7	3.8	1.49e+00	0	44	104	0	66	18715
2026-01-10 12:20:09.02	303.23	8.95	-47.3	-61.7	3.8	1.49e+00	0	44	104	0	66	18730
2026-01-10 12:20:10.02	303.39	8.92	-47.3	-61.8	3.8	1.49e+00	0	44	104	0	66	18733
2026-01-10 12:20:11.03	303.55	8.89	-47.3	-61.8	3.8	1.49e+00	0	44	104	0	66	18748
2026-01-10 12:20:12.03	303.71	8.86	-47.3	-61.7	3.8	1.49e+00	0	44	104	0	66	18717
2026-01-10 12:20:13.03	303.87	8.83	-47.3	-61.7	3.8	1.49e+00	0	44	104	0	66	18666
2026-01-10 12:20:14.04	304.03	8.80	-47.3	-61.8	3.8	1.49e+00	0	44	104	0	66	18775
2026-01-10 12:20:15.04	304.19	8.77	-47.3	-61.7	3.8	1.49e+00	0	44	104	0	66	18662
2026-01-10 12:20:16.05	304.35	8.74	-47.3	-61.7	3.8	1.49e+00	0	44	104	0	66	18723
2026-01-10 12:20:17.05	304.51	8.71	-47.3	-61.8	3.8	1.49e+00	0	44	104	0	66	18817
2026-01-10 12:20:18.06	304.67	8.68	-47.3	-61.7	3.8	1.49e+00	0	44	104	0	66	18686
2026-01-10 12:20:19.06	304.83	8.64	-47.3	-61.8	3.8	1.49e+00	0	44	104	0	66	18754
2026-01-10 12:20:20.06	304.99	8.61	-47.3	-61.8	3.8	1.49e+00	0	44	104	0	66	18747
2026-01-10 12:20:21.07	305.15	8.58	-47.3	-61.7	3.8	1.49e+00	0	44	104	0	66	18703
2026-01-10 12:20:22.07	305.30	8.55	-47.3	-61.7	3.8	1.49e+00	0	44	104	0	66	18671
2026-01-10 12:20:23.08	305.46	8.52	-47.3	-61.8	3.8	1.49e+00	0	44	104	0	66	18808
2026-01-10 12:20:24.08	305.62	8.49	-47.3	-61.7	3.8	1.49e+00	0	44	104	0	66	18666
2026-01-10 12:20:25.09	305.78	8.45	-47.3	-61.7	3.8	1.49e+00	0	44	104	0	66	18690
2026-01-10 12:20:26.09	305.93	8.42	-47.3	-61.7	3.8	1.49e+00	0	44	104	0	66	18716
2026-01-10 12:20:27.10	306.09	8.39	-47.3	-61.7	3.8	1.49e+00	0	44	104	0	66	18712
2026-01-10 12:20:28.10	306.24	8.36	-47.3	-61.7	3.8	1.49e+00	0	44	104	0	66	18723
2026-01-10 12:20:29.11	306.40	8.32	-47.3	-61.8	3.8	1.49e+00	0	44	104	0	66	18748
2026-01-10 12:20:30.11	306.55	8.29	-47.3	-61.7	3.8	1.49e+00	0	44	104	0	66	18703
2026-01-10 12:20:31.12	306.71	8.26	-47.3	-61.7	3.8	1.49e+00	0	44	104	0	66	18717
2026-01-10 12:20:32.12	306.86	8.23	-47.3	-61.7	3.8	1.49e+00	0	44	104	0	66	18690
2026-01-10 12:20:33.12	307.02	8.19	-47.3	-61.7	3.8	1.49e+00	0	44	104	0	66	18715
2026-01-10 12:20:34.13	307.17	8.16	-47.3	-61.7	3.8	1.49e+00	0	44	104	0	66	18703
2026-01-10 12:20:35.13	307.32	8.13	-47.3	-61.7	3.8	1.49e+00	0	44	104	0	66	18665
2026-01-10 12:20:36.14	307.48	8.09	-47.3	-61.7	3.8	1.49e+00	0	44	104	0	66	18728
2026-01-10 12:20:37.14	307.63	8.06	-47.3	-61.7	3.8	1.49e+00	0	44	104	0	66	18657
2026-01-10 12:20:38.14	307.78	8.03	-47.3	-61.7	3.8	1.49e+00	0	44	104	0	66	18646
2026-01-10 12:20:39.15	307.94	7.99	-47.3	-61.7	3.8	1.49e+00	0	44	104	0	66	18723
2026-01-10 12:20:40.15	308.09	7.96	-47.3	-61.7	3.8	1.49e+00	0	44	104	0	66	18667
2026-01-10 12:20:41.16	308.24	7.92	-47.3	-61.7	3.8	1.49e+00	0	44	104	0	66	18702
2026-01-10 12:20:42.16	308.39	7.89	-47.3	-61.8	3.8	1.49e+00	0	44	104	0	66	18748
2026-01-10 12:20:43.17	308.54	7.85	-47.3	-61.8	3.8	1.49e+00	0	44	104	0	66	18732
2026-01-10 12:20:44.17	308.69	7.82	-47.3	-61.7	3.8	1.49e+00	0	44	104	0	66	18715
2026-01-10 12:20:45.18	308.84	7.78	-47.3	-61.7	3.8	1.49e+00	0	44	104	0	66	18715
2026-01-10 12:20:46.18	308.99	7.75	-47.3	-61.8	3.8	1.49e+00	0	44	104	0	66	18763
2026-01-10 12:20:47.18	309.14	7.72	-47.3	-61.7	3.8	1.49e+00	0	44	104	0	66	18654
2026-01-10 12:20:48.19	309.29	7.68	-47.3	-61.7	3.8	1.49e+00	0	44	104	0	66	18704
2026-01-10 12:20:49.19	309.44	7.65	-47.3	-61.7	3.8	1.49e+00	0	44	104	0	66	18613
2026-01-10 12:20:50.20	309.58	7.61	-47.3	-61.7	3.8	1.49e+00	0	44	104	0	66	18579
2026-01-10 12:20:51.20	309.73	7.57	-47.3	-61.7	3.8	1.49e+00	0	44	104	0	66	18589
2026-01-10 12:20:52.20	309.88	7.54	-47.3	-61.8	3.8	1.49e+00	0	44	104	0	66	18741
2026-01-10 12:20:53.21	310.03	7.50	-47.3	-61.8	3.8	1.49e+00	0	44	104	0	66	18801
2026-01-10 12:20:54.21	310.17	7.47	-47.3	-61.7	3.8	1.49e+00	0	44	104	0	66	18656
2026-01-10 12:20:55.22	310.32	7.43	-47.3	-61.7	3.8	1.49e+00	0	44	104	0	66	18713
2026-01-10 12:20:56.22	310.47	7.40	-47.3	-61.7	3.8	1.49e+00	0	44	104	0	66	18656
2026-01-10 12:20:57.23	310.61	7.36	-47.3	-61.7	3.8	1.49e+00	0	44	104	0	66	18718
2026-01-10 12:20:58.23	310.76	7.32	-47.3	-61.7	3.8	1.49e+00	0	44	104	0	66	18669
2026-01-10 12:20:59.23	310.90	7.29	-47.3	-61.7	3.8	1.49e+00	0	44	104	0	66	18638
2026-01-10 12:21:00.24	311.05	7.25	-47.3	-61.7	3.8	1.49e+00	0	44	104	0	66	18674
2026-01-10 12:21:01.24	311.19	7.21	-47.3	-61.7	3.8	1.49e+00	0	44	104	0	66	18728
2026-01-10 12:21:02.25	311.34	7.18	-47.3	-61.7	3.8	1.49e+00	0	44	104	0	66	18694
2026-01-10 12:21:03.25	311.48	7.14	-47.3	-61.7	3.8	1.49e+00	0	44	104	0	66	18665
2026-01-10 12:21:04.26	311.62	7.10	-47.3	-61.8	3.8	1.49e+00	0	44	104	0	66	18737
2026-01-10 12:21:05.26	311.76	7.07	-47.3	-61.7	3.8	1.49e+00	0	44	104	0	66	18699
2026-01-10 12:21:06.27	311.91	7.03	-47.3	-61.7	3.8	1.49e+00	0	44	104	0	66	18645
2026-01-10 12:21:07.27	312.05	6.99	-47.3	-61.7	3.8	1.49e+00	0	44	104	0	66	18666
2026-01-10 12:21:08.27	312.19	6.96	-47.3	-61.7	3.8	1.49e+00	0	44	104	0	66	18685
2026-01-10 12:21:09.28	312.33	6.92	-47.3	-61.7	3.8	1.49e+00	0	44	104	0	66	18723
2026-01-10 12:21:10.29	312.48	6.88	-47.3	-61.7	3.8	1.49e+00	0	44	104	0	66	18655
2026-01-10 12:21:11.29	312.62	6.85	-47.3	-61.7	3.8	1.49e+00	0	44	104	0	66	18713
2026-01-10 12:21:12.29	312.76	6.81	-47.3	-61.7	3.8	1.49e+00	0	44	104	0	66	18706
2026-01-10 12:21:13.30	312.90	6.77	-47.3	-61.7	3.8	1.49e+00	0	44	104	0	66	18688
2026-01-10 12:21:14.30	313.04	6.73	-47.3	-61.7	3.8	1.49e+00	0	44	104	0	66	18702
2026-01-10 12:21:15.31	313.18	6.69	-47.3	-61.7	3.8	1.49e+00	0	44	104	0	66	18700
2026-01-10 12:21:16.31	313.31	6.66	-47.3	-61.7	3.8	1.49e+00	0	44	104	0	66	18693
2026-01-10 12:21:17.32	313.45	6.62	-47.3	-61.7	3.8	1.49e+00	0	44	104	0	66	18650
2026-01-10 12:21:18.32	313.59	6.58	-47.3	-61.7	3.8	1.49e+00	0	44	104	0	66	18662
2026-01-10 12:21:19.33	313.73	6.54	-47.3	-61.8	3.8	1.49e+00	0	44	104	0	66	18792
2026-01-10 12:21:20.33	313.87	6.50	-47.3	-61.7	3.8	1.49e+00	0	44	104	0	66	18617
2026-01-10 12:21:21.33	314.00	6.47	-47.3	-61.7	3.8	1.49e+00	0	44	104	0	66	18730
2026-01-10 12:21:22.34	314.14	6.43	-47.3	-61.7	3.8	1.49e+00	0	44	104	0	66	18677
2026-01-10 12:21:23.34	314.28	6.39	-47.3	-61.8	3.8	1.49e+00	0	44	104	0	66	18797
2026-01-10 12:21:24.35	314.42	6.35	-47.3	-61.7	3.8	1.49e+00	0	44	104	0	66	18677
2026-01-10 12:21:25.35	314.55	6.31	-47.3	-61.7	3.8	1.49e+00	0	44	104	0	66	18710
2026-01-10 12:21:26.36	314.69	6.27	-47.3	-61.7	3.8	1.49e+00	0	44	104	0	66	18589
2026-01-10 12:21:27.36	314.82	6.24	-47.3	-61.7	3.8	1.49e+00	0	44	104	0	66	18724
2026-01-10 12:21:28.37	314.96	6.20	-47.3	-61.7	3.8	1.49e+00	0	44	104	0	66	18708
2026-01-10 12:21:29.37	315.09	6.16	-47.3	-61.8	3.8	1.49e+00	0	44	104	0	66	18752
2026-01-10 12:21:30.38	315.23	6.12	-47.3	-61.7	3.8	1.49e+00	0	44	104	0	66	18686
2026-01-10 12:21:31.38	315.36	6.08	-47.3	-61.7	3.8	1.49e+00	0	44	104	0	66	18700
2026-01-10 12:21:32.38	315.49	6.04	-47.3	-61.7	3.8	1.49e+00	0	44	104	0	66	18717
2026-01-10 12:21:33.39	315.63	6.00	-47.3	-61.8	3.8	1.49e+00	0	44	104	0	66	18771
2026-01-10 12:21:34.39	315.76	5.96	-47.3	-61.8	3.8	1.49e+00	0	44	104	0	66	18735
2026-01-10 12:21:35.40	315.89	5.92	-47.3	-61.7	3.8	1.49e+00	0	44	104	0	66	18694
2026-01-10 12:21:36.40	316.02	5.88	-47.3	-61.7	3.8	1.49e+00	0	44	104	0	66	18717
2026-01-10 12:21:37.41	316.16	5.84	-47.3	-61.7	3.8	1.49e+00	0	44	104	0	66	18664
2026-01-10 12:21:38.41	316.29	5.81	-47.3	-61.7	3.8	1.49e+00	0	44	104	0	66	18690
2026-01-10 12:21:39.42	316.42	5.77	-47.3	-61.7	3.8	1.49e+00	0	44	104	0	66	18723
2026-01-10 12:21:40.42	316.55	5.73	-47.3	-61.8	3.8	1.49e+00	0	44	104	0	66	18766
2026-01-10 12:21:41.43	316.68	5.69	-47.3	-61.7	3.8	1.49e+00	0	44	104	0	66	18617
2026-01-10 12:21:42.43	316.81	5.65	-47.3	-61.8	3.8	1.49e+00	0	44	104	0	66	18759
2026-01-10 12:21:43.44	316.94	5.61	-47.3	-61.7	3.8	1.49e+00	0	44	104	0	66	18694
2026-01-10 12:21:44.44	317.07	5.57	-47.3	-61.7	3.8	1.49e+00	0	44	104	0	66	18706
2026-01-10 12:21:45.44	317.20	5.53	-47.3	-61.7	3.8	1.49e+00	0	44	104	0	66	18731
2026-01-10 12:21:46.45	317.33	5.49	-47.3	-61.7	3.8	1.49e+00	0	44	104	0	66	18680
2026-01-10 12:21:47.45	317.45	5.45	-47.3	-61.8	3.8	1.49e+00	0	44	104	0	66	18734
2026-01-10 12:21:48.46	317.58	5.41	-47.3	-61.7	3.8	1.49e+00	0	44	104	0	66	18680
2026-01-10 12:21:49.46	317.71	5.37	-47.3	-61.7	3.8	1.49e+00	0	44	104	0	66	18705
2026-01-10 12:21:50.47	317.84	5.33	-47.3	-61.7	3.8	1.49e+00	0	44	104	0	66	18729
2026-01-10 12:21:51.47	317.97	5.29	-47.3	-61.8	3.8	1.49e+00	0	44	104	0	66	18732
2026-01-10 12:21:52.47	318.09	5.25	-47.3	-61.7	3.8	1.49e+00	0	44	104	0	66	18679
2026-01-10 12:21:53.48	318.22	5.21	-47.3	-61.7	3.8	1.49e+00	0	44	104	0	66	18717
2026-01-10 12:21:54.48	318.34	5.17	-47.3	-61.7	3.8	1.49e+00	0	44	104	0	66	18673
2026-01-10 12:21:55.49	318.47	5.13	-47.3	-61.7	3.8	1.49e+00	0	44	104	0	66	18639
2026-01-10 12:21:56.49	318.59	5.09	-47.3	-61.7	3.8	1.49e+00	0	44	104	0	66	18692
2026-01-10 12:21:57.50	318.72	5.04	-47.3	-61.7	3.8	1.49e+00	0	44	104	0	66	18708
2026-01-10 12:21:58.50	318.84	5.00	-47.3	-61.7	3.8	1.49e+00	0	44	104	0	66	18660

#Closed at: 2026-01-10 12:21:59
#Recorded file [0 MB]: D:/Data/31040_260110_151402.dat