passes_logs/2026/01/26/PlanumMoscow/PlanumMoscow__20260126_174039_METEOR-M2_3_rec.log

#Pass ID: 20260126_174039_METEOR-M2 3
#Satellite: METEOR-M2 3
#Configuration: METEOR-M2 3
#Start time: 2026-01-26 17:40:44.865746

#LorettStation: 1.0.0 05.05.2024
#Station: PlanumMoscow
#Location: 37.6253844 lon 55.6713361 lat
#TLE: 1 57166U 23091A   25293.99389264  .00000062  00000+0  46113-4 0  9997
#TLE: 2 57166  98.6457 348.4330 0004759 135.3141 224.8422 14.24016546120475

#Time	Az	El	Level	SNR
2026-01-26 17:44:23.331361	156.7	29.9	-63.6	10.8
2026-01-26 17:44:24.454120	156.7	30.1	-64.1	11.9
2026-01-26 17:44:25.573372	156.7	30.4	-64.5	13.1
2026-01-26 17:44:26.695626	156.6	30.6	-64.4	12.6
2026-01-26 17:44:27.816918	156.6	30.8	-64.5	12.8
2026-01-26 17:44:28.941172	156.6	31.0	-64.7	13.8
2026-01-26 17:44:30.063433	156.6	31.3	-64.0	12.4
2026-01-26 17:44:31.185687	156.5	31.5	-64.2	12.9
2026-01-26 17:44:32.306940	156.5	31.7	-64.3	12.5
2026-01-26 17:44:33.429232	156.5	32.0	-63.9	12.2
2026-01-26 17:44:34.550485	156.5	32.2	-64.1	11.9
2026-01-26 17:44:35.672243	156.4	32.4	-64.3	14.2
2026-01-26 17:44:36.794497	156.4	32.7	-64.2	13.0
2026-01-26 17:44:37.916749	156.4	32.9	-64.0	13.3
2026-01-26 17:44:39.038507	156.3	33.1	-64.2	13.6
2026-01-26 17:44:40.160760	156.3	33.4	-64.4	13.3
2026-01-26 17:44:41.283014	156.3	33.6	-64.6	13.6
2026-01-26 17:44:42.405267	156.2	33.9	-63.6	12.5
2026-01-26 17:44:43.527521	156.2	34.1	-64.0	12.4
2026-01-26 17:44:44.650782	156.2	34.4	-64.6	13.9
2026-01-26 17:44:45.773036	156.1	34.6	-64.6	13.3
2026-01-26 17:44:46.895289	156.1	34.9	-64.5	13.8
2026-01-26 17:44:48.017543	156.1	35.1	-64.7	13.6
2026-01-26 17:44:49.139796	156.0	35.4	-64.6	13.5
2026-01-26 17:44:50.261553	156.0	35.7	-64.8	14.3
2026-01-26 17:44:51.383807	156.0	35.9	-64.6	13.9
2026-01-26 17:44:52.507564	155.9	36.2	-64.8	13.6
2026-01-26 17:44:53.631819	155.9	36.5	-64.7	14.0
2026-01-26 17:44:54.755072	155.9	36.7	-65.0	14.2
2026-01-26 17:44:55.877326	155.8	37.0	-64.6	14.3
2026-01-26 17:44:56.999083	155.8	37.3	-64.7	14.4
2026-01-26 17:44:58.121337	155.7	37.5	-64.3	13.3
2026-01-26 17:44:59.243590	155.7	37.8	-64.5	13.9
2026-01-26 17:45:00.370845	155.6	38.1	-64.7	14.2
2026-01-26 17:45:01.493098	155.6	38.4	-64.7	13.8
2026-01-26 17:45:02.615352	155.6	38.7	-64.0	12.2
2026-01-26 17:45:03.737605	155.5	39.0	-64.6	13.8
2026-01-26 17:45:04.859859	155.5	39.3	-64.7	14.3
2026-01-26 17:45:05.981626	155.4	39.5	-64.9	14.5
2026-01-26 17:45:07.103384	155.4	39.8	-64.9	14.1
2026-01-26 17:45:08.225182	155.3	40.1	-64.9	14.2
2026-01-26 17:45:09.347435	155.3	40.4	-64.5	13.9
2026-01-26 17:45:10.469696	155.2	40.7	-64.6	13.5
2026-01-26 17:45:11.591950	155.2	41.0	-64.6	13.7
2026-01-26 17:45:12.714203	155.1	41.4	-64.8	13.5
2026-01-26 17:45:13.836985	155.1	41.7	-65.0	12.6
2026-01-26 17:45:14.959238	155.0	42.0	-64.7	13.5
2026-01-26 17:45:16.081004	155.0	42.3	-64.6	13.9
2026-01-26 17:45:17.204258	154.9	42.6	-64.8	13.7
2026-01-26 17:45:18.325552	154.8	42.9	-64.8	13.1
2026-01-26 17:45:19.447310	154.8	43.3	-64.9	13.2
2026-01-26 17:45:20.570076	154.7	43.6	-64.8	13.0
2026-01-26 17:45:21.692330	154.7	43.9	-64.8	13.6
2026-01-26 17:45:22.814583	154.6	44.3	-65.0	14.1
2026-01-26 17:45:23.936877	154.5	44.6	-65.3	13.4
2026-01-26 17:45:25.061139	154.5	44.9	-65.1	12.6
2026-01-26 17:45:26.182905	154.4	45.3	-65.3	13.0
2026-01-26 17:45:27.304688	154.3	45.6	-65.3	12.9
2026-01-26 17:45:28.426941	154.3	46.0	-65.0	12.4
2026-01-26 17:45:29.549195	154.2	46.3	-65.5	12.5
2026-01-26 17:45:30.671456	154.1	46.7	-65.4	12.5
2026-01-26 17:45:31.793710	154.0	47.0	-65.0	11.2
2026-01-26 17:45:32.917469	154.0	47.4	-65.1	12.3
2026-01-26 17:45:34.039763	153.9	47.7	-64.9	12.5
2026-01-26 17:45:35.162016	153.8	48.1	-65.3	11.5
2026-01-26 17:45:36.284277	153.7	48.5	-65.0	12.2
2026-01-26 17:45:37.406531	153.6	48.8	-65.1	11.0
2026-01-26 17:45:38.528801	153.5	49.2	-65.7	12.2
2026-01-26 17:45:39.651078	153.4	49.6	-65.1	11.7
2026-01-26 17:45:40.771847	153.3	50.0	-65.6	12.3
2026-01-26 17:45:41.894100	153.2	50.4	-65.7	12.1
2026-01-26 17:45:43.015857	153.2	50.7	-65.9	12.2
2026-01-26 17:45:44.137153	153.1	51.1	-65.3	11.7
2026-01-26 17:45:45.259407	152.9	51.5	-65.5	11.8
2026-01-26 17:45:46.381710	152.8	51.9	-65.8	12.1
2026-01-26 17:45:47.503963	152.7	52.3	-65.6	11.6
2026-01-26 17:45:48.626216	152.6	52.7	-65.7	12.0
2026-01-26 17:45:49.750480	152.5	53.1	-65.5	10.4
2026-01-26 17:45:50.873733	152.4	53.5	-65.8	10.5
2026-01-26 17:45:51.995995	152.3	54.0	-66.0	10.2
2026-01-26 17:45:53.117258	152.1	54.4	-66.1	10.3
2026-01-26 17:45:54.239554	152.0	54.8	-66.4	10.7
2026-01-26 17:45:55.361808	151.9	55.2	-66.5	11.2
2026-01-26 17:45:56.483565	151.7	55.6	-66.6	10.7
2026-01-26 17:45:57.605819	151.6	56.1	-66.5	11.0
2026-01-26 17:45:58.730081	151.4	56.5	-66.3	10.2
2026-01-26 17:45:59.851374	151.3	56.9	-66.3	10.0
2026-01-26 17:46:00.973628	151.1	57.4	-66.5	9.7
2026-01-26 17:46:02.095393	151.0	57.8	-65.7	9.3
2026-01-26 17:46:03.217175	150.8	58.2	-66.5	9.5
2026-01-26 17:46:04.339428	150.6	58.7	-66.1	8.3
2026-01-26 17:46:05.461185	150.4	59.1	-65.6	7.9
2026-01-26 17:46:06.588440	150.3	59.6	-66.4	8.5
2026-01-26 17:46:07.710693	150.1	60.1	-65.9	7.5
2026-01-26 17:46:08.832947	149.9	60.5	-66.5	8.9
2026-01-26 17:46:09.955200	149.7	61.0	-66.5	8.2
2026-01-26 17:46:11.077454	149.4	61.4	-66.2	8.9
2026-01-26 17:46:12.199707	149.2	61.9	-66.4	9.1
2026-01-26 17:46:13.321960	149.0	62.4	-66.0	8.6
2026-01-26 17:46:14.448719	148.7	62.9	-66.5	8.8
2026-01-26 17:46:15.570476	148.5	63.3	-66.5	9.6
2026-01-26 17:46:16.692730	148.2	63.8	-66.0	9.4
2026-01-26 17:46:17.814983	148.0	64.3	-66.1	9.5
2026-01-26 17:46:18.937237	147.7	64.8	-66.6	9.8
2026-01-26 17:46:20.059026	147.4	65.3	-66.3	9.5
2026-01-26 17:46:21.181280	147.1	65.8	-66.4	9.6
2026-01-26 17:46:22.303533	146.7	66.2	-66.4	9.5
2026-01-26 17:46:23.452304	146.4	66.8	-66.1	8.7
2026-01-26 17:46:24.574086	146.0	67.2	-66.5	9.0
2026-01-26 17:46:25.696339	145.6	67.7	-66.4	8.6
2026-01-26 17:46:26.818592	145.2	68.2	-66.4	9.0
2026-01-26 17:46:27.940846	144.8	68.7	-66.2	8.1
2026-01-26 17:46:29.062628	144.4	69.3	-66.4	8.6
2026-01-26 17:46:30.184889	143.9	69.8	-66.6	8.6
2026-01-26 17:46:31.306647	143.4	70.3	-66.8	8.2
2026-01-26 17:46:32.427918	142.9	70.8	-66.5	8.2
2026-01-26 17:46:33.550171	142.4	71.3	-66.4	7.7
2026-01-26 17:46:34.672425	141.8	71.8	-66.1	7.6
2026-01-26 17:46:35.794678	141.2	72.3	-66.4	7.8
2026-01-26 17:46:36.916932	140.5	72.8	-66.5	8.1
2026-01-26 17:46:38.039185	139.8	73.3	-66.3	7.7
2026-01-26 17:46:39.161438	139.1	73.8	-66.9	7.7
2026-01-26 17:46:40.282701	138.3	74.3	-66.7	7.6
2026-01-26 17:46:41.404954	137.5	74.8	-66.8	7.7
2026-01-26 17:46:42.527208	136.6	75.4	-66.7	7.6
2026-01-26 17:46:43.649461	135.6	75.9	-66.4	8.1
2026-01-26 17:46:44.771715	134.5	76.4	-66.2	7.8
2026-01-26 17:46:45.893999	133.4	76.9	-66.1	8.4
2026-01-26 17:46:47.016252	132.2	77.4	-66.4	7.3
2026-01-26 17:46:48.138010	130.9	77.8	-66.3	8.5
2026-01-26 17:46:49.263264	129.4	78.3	-66.5	8.5
2026-01-26 17:46:50.385030	127.8	78.8	-65.9	8.0
2026-01-26 17:46:51.506818	126.1	79.3	-66.0	8.8
2026-01-26 17:46:52.629072	124.2	79.7	-66.3	9.6
2026-01-26 17:46:53.751333	122.2	80.2	-66.1	9.9
2026-01-26 17:46:54.873586	119.9	80.6	-65.4	8.8
2026-01-26 17:46:55.997840	117.5	81.1	-65.8	9.3
2026-01-26 17:46:57.119598	114.8	81.5	-65.7	10.1
2026-01-26 17:46:58.241356	111.8	81.9	-65.2	9.1
2026-01-26 17:46:59.363609	108.5	82.2	-65.6	10.4
2026-01-26 17:47:00.485863	104.9	82.6	-66.0	9.7
2026-01-26 17:47:01.608116	101.0	82.9	-66.1	9.8
2026-01-26 17:47:02.730370	96.8	83.1	-65.9	9.7
2026-01-26 17:47:03.852623	92.2	83.4	-66.5	10.3
2026-01-26 17:47:04.975886	87.3	83.5	-66.4	10.0
2026-01-26 17:47:06.100140	82.2	83.7	-66.3	9.6
2026-01-26 17:47:07.222393	76.9	83.8	-66.0	8.6
2026-01-26 17:47:08.343655	71.6	83.8	-66.6	9.8
2026-01-26 17:47:09.468909	66.2	83.8	-66.1	9.4
2026-01-26 17:47:10.591171	60.9	83.7	-66.4	8.8
2026-01-26 17:47:11.713464	55.7	83.6	-66.4	9.5
2026-01-26 17:47:12.835717	50.9	83.4	-66.6	9.8
2026-01-26 17:47:13.962477	46.3	83.1	-66.6	9.2
2026-01-26 17:47:15.084730	42.0	82.9	-66.7	9.6
2026-01-26 17:47:16.206984	38.1	82.6	-66.0	9.1
2026-01-26 17:47:17.329237	34.5	82.2	-65.9	9.6
2026-01-26 17:47:18.451490	31.2	81.9	-65.8	10.9
2026-01-26 17:47:19.573744	28.2	81.5	-65.5	10.2
2026-01-26 17:47:20.695997	25.4	81.1	-64.5	8.3
2026-01-26 17:47:21.819251	22.9	80.7	-64.6	8.3
2026-01-26 17:47:22.945514	20.7	80.2	-65.2	10.2
2026-01-26 17:47:24.068768	18.6	79.8	-64.4	9.5
2026-01-26 17:47:25.193022	16.7	79.3	-64.4	9.2
2026-01-26 17:47:26.316781	15.0	78.8	-64.6	7.8
2026-01-26 17:47:27.439035	13.4	78.4	-65.5	10.2
2026-01-26 17:47:28.561288	11.9	77.9	-65.4	8.2
2026-01-26 17:47:29.683541	10.6	77.4	-65.1	8.2
2026-01-26 17:47:30.805795	9.4	76.9	-65.8	8.8
2026-01-26 17:47:31.926562	8.2	76.4	-65.5	8.5
2026-01-26 17:47:33.048816	7.2	75.9	-65.1	7.2
2026-01-26 17:47:34.171069	6.2	75.4	-65.4	8.0
2026-01-26 17:47:35.293322	5.3	74.9	-65.4	8.9
2026-01-26 17:47:36.415584	4.4	74.4	-65.3	8.0
2026-01-26 17:47:37.537837	3.6	73.9	-65.8	8.1
2026-01-26 17:47:38.660132	2.9	73.4	-65.2	8.1
2026-01-26 17:47:39.786891	2.2	72.9	-64.8	8.4
2026-01-26 17:47:40.909144	1.6	72.3	-65.3	8.6
2026-01-26 17:47:42.030902	0.9	71.8	-64.4	7.8
2026-01-26 17:47:43.152699	0.4	71.3	-65.0	8.3
2026-01-26 17:47:44.274953	359.8	70.8	-65.0	8.1
2026-01-26 17:47:45.397215	359.3	70.3	-64.7	8.7
2026-01-26 17:47:46.519468	358.8	69.8	-64.1	7.8
2026-01-26 17:47:47.641226	358.3	69.3	-64.9	8.7
2026-01-26 17:47:48.762519	357.9	68.8	-64.9	7.6
2026-01-26 17:47:49.884773	357.5	68.3	-65.4	8.3
2026-01-26 17:47:51.007034	357.1	67.8	-64.6	7.6
2026-01-26 17:47:52.129288	356.7	67.3	-64.9	7.1
2026-01-26 17:47:53.251574	356.4	66.8	-63.8	5.3
2026-01-26 17:47:54.373827	356.0	66.3	-64.8	7.0
2026-01-26 17:47:55.496080	355.7	65.8	-64.4	6.5
2026-01-26 17:47:56.622412	355.4	65.3	-64.0	6.4
2026-01-26 17:47:57.744665	355.1	64.8	-64.1	4.8
2026-01-26 17:47:58.866919	354.8	64.4	-63.9	6.2
2026-01-26 17:47:59.989172	354.5	63.9	-63.6	6.0
2026-01-26 17:48:01.111433	354.2	63.4	-64.0	6.8
2026-01-26 17:48:02.235687	354.0	62.9	-64.2	6.8
2026-01-26 17:48:03.357941	353.7	62.5	-64.2	5.1
2026-01-26 17:48:04.479738	353.5	62.0	-64.1	4.7
2026-01-26 17:48:05.601992	353.3	61.5	-64.7	4.7
2026-01-26 17:48:06.724254	353.1	61.1	-63.8	4.9
2026-01-26 17:48:07.846507	352.9	60.6	-63.3	4.6
2026-01-26 17:48:08.968804	352.7	60.1	-63.4	4.4
2026-01-26 17:48:10.091058	352.5	59.7	-63.1	5.5
2026-01-26 17:48:11.215312	352.3	59.2	-64.0	5.4
2026-01-26 17:48:12.337574	352.1	58.8	-63.7	5.4
2026-01-26 17:48:13.459333	351.9	58.3	-63.4	5.2
2026-01-26 17:48:14.581115	351.8	57.9	-63.7	4.8
2026-01-26 17:48:15.703369	351.6	57.5	-63.7	5.3
2026-01-26 17:48:16.823679	351.4	57.0	-63.8	4.1
2026-01-26 17:48:17.945932	351.3	56.6	-64.5	5.1
2026-01-26 17:48:19.067690	351.1	56.2	-63.9	4.7
2026-01-26 17:48:20.189984	351.0	55.7	-64.4	4.8
2026-01-26 17:48:21.311246	350.9	55.3	-64.2	5.4
2026-01-26 17:48:22.432052	350.7	54.9	-64.0	4.7
2026-01-26 17:48:23.554306	350.6	54.5	-64.2	5.0
2026-01-26 17:48:24.676111	350.5	54.1	-63.8	4.9
2026-01-26 17:48:25.798364	350.3	53.6	-64.2	3.8
2026-01-26 17:48:26.920618	350.2	53.2	-64.0	4.3
2026-01-26 17:48:28.042879	350.1	52.8	-63.2	3.5
2026-01-26 17:48:29.165132	350.0	52.4	-63.9	3.5
2026-01-26 17:48:30.286946	349.9	52.0	-63.7	2.9
2026-01-26 17:48:31.409200	349.8	51.6	-63.4	4.0
2026-01-26 17:48:32.530966	349.7	51.2	-63.1	3.7
2026-01-26 17:48:33.653219	349.6	50.9	-63.4	2.5
2026-01-26 17:48:34.774512	349.5	50.5	-63.4	3.9
2026-01-26 17:48:35.896765	349.4	50.1	-63.6	3.6
2026-01-26 17:48:37.019019	349.3	49.7	-63.5	3.6
2026-01-26 17:48:38.140288	349.2	49.3	-63.0	3.6
2026-01-26 17:48:39.262542	349.1	49.0	-63.6	3.1
2026-01-26 17:48:40.384330	349.0	48.6	-63.6	3.6
2026-01-26 17:48:41.506583	348.9	48.2	-63.6	4.4
2026-01-26 17:48:42.629350	348.9	47.9	-63.6	3.8
2026-01-26 17:48:43.752108	348.8	47.5	-63.5	4.0
2026-01-26 17:48:44.874400	348.7	47.1	-63.7	4.3
2026-01-26 17:48:45.997171	348.6	46.8	-62.8	4.1
2026-01-26 17:48:47.119432	348.5	46.4	-62.6	4.2
2026-01-26 17:48:48.241222	348.5	46.1	-62.9	3.9
2026-01-26 17:48:49.363475	348.4	45.7	-62.9	4.6
2026-01-26 17:48:50.485729	348.3	45.4	-63.2	4.7
2026-01-26 17:48:51.607982	348.3	45.0	-63.3	5.5
2026-01-26 17:48:52.729747	348.2	44.7	-63.3	5.4
2026-01-26 17:48:53.852001	348.1	44.4	-63.0	6.0
2026-01-26 17:48:54.976294	348.1	44.0	-63.0	5.5
2026-01-26 17:48:56.098548	348.0	43.7	-62.7	5.8
2026-01-26 17:48:57.220809	347.9	43.4	-62.5	5.9
2026-01-26 17:48:58.344095	347.9	43.1	-62.3	4.7
2026-01-26 17:48:59.467349	347.8	42.7	-62.4	4.8
2026-01-26 17:49:00.589602	347.8	42.4	-62.7	5.8
2026-01-26 17:49:01.711856	347.7	42.1	-62.5	5.1
2026-01-26 17:49:02.834614	347.7	41.8	-62.5	5.6
2026-01-26 17:49:03.956868	347.6	41.5	-62.5	5.7
2026-01-26 17:49:05.080121	347.6	41.2	-62.6	5.3
2026-01-26 17:49:06.202375	347.5	40.9	-62.0	5.4
2026-01-26 17:49:07.324637	347.5	40.6	-62.9	6.1
2026-01-26 17:49:08.446890	347.4	40.3	-62.3	4.9
2026-01-26 17:49:09.568648	347.4	40.0	-62.3	5.8
2026-01-26 17:49:10.690455	347.3	39.7	-62.1	6.0
2026-01-26 17:49:11.812709	347.3	39.4	-62.0	5.5
2026-01-26 17:49:12.934971	347.2	39.1	-62.0	4.7
2026-01-26 17:49:14.058225	347.2	38.8	-61.7	5.2
2026-01-26 17:49:15.180517	347.1	38.5	-61.8	4.9
2026-01-26 17:49:16.302771	347.1	38.2	-62.2	5.1
2026-01-26 17:49:17.425024	347.0	38.0	-62.3	5.6
2026-01-26 17:49:18.551783	347.0	37.7	-62.2	5.0
2026-01-26 17:49:19.673086	347.0	37.4	-61.6	4.9
2026-01-26 17:49:20.795340	346.9	37.1	-62.2	5.5
2026-01-26 17:49:21.919594	346.9	36.9	-62.2	6.1
2026-01-26 17:49:23.048363	346.8	36.6	-62.3	6.1
2026-01-26 17:49:24.170658	346.8	36.3	-62.0	5.4
2026-01-26 17:49:25.292911	346.8	36.1	-61.4	5.9
2026-01-26 17:49:26.414669	346.7	35.8	-61.5	5.1
2026-01-26 17:49:27.536931	346.7	35.5	-61.6	4.6
2026-01-26 17:49:28.659185	346.7	35.3	-61.4	4.3
2026-01-26 17:49:29.785439	346.6	35.0	-62.3	5.6
2026-01-26 17:49:30.907731	346.6	34.8	-61.6	4.9
2026-01-26 17:49:32.029985	346.6	34.5	-61.8	4.8
2026-01-26 17:49:33.152246	346.5	34.3	-62.2	5.9
2026-01-26 17:49:34.274509	346.5	34.0	-61.8	5.9
2026-01-26 17:49:35.396298	346.5	33.8	-62.1	6.2
2026-01-26 17:49:36.518552	346.4	33.5	-62.0	5.1
2026-01-26 17:49:37.640318	346.4	33.3	-62.1	5.1
2026-01-26 17:49:38.762571	346.4	33.0	-62.6	5.7
2026-01-26 17:49:39.884824	346.3	32.8	-62.1	5.9
2026-01-26 17:49:41.007624	346.3	32.6	-62.1	6.1
2026-01-26 17:49:42.129382	346.3	32.3	-61.9	6.1
2026-01-26 17:49:43.253636	346.3	32.1	-62.3	6.2
2026-01-26 17:49:44.374906	346.2	31.9	-62.0	5.8
2026-01-26 17:49:45.499203	346.2	31.6	-62.1	5.7
2026-01-26 17:49:46.620466	346.2	31.4	-62.3	5.5
2026-01-26 17:49:47.742728	346.2	31.2	-62.2	6.2
2026-01-26 17:49:48.864486	346.1	31.0	-62.2	5.8
2026-01-26 17:49:49.987739	346.1	30.7	-62.4	5.8
2026-01-26 17:49:51.109033	346.1	30.5	-62.5	5.8
2026-01-26 17:49:52.231286	346.1	30.3	-62.8	5.5
2026-01-26 17:49:53.353547	346.0	30.1	-62.7	5.9
2026-01-26 17:49:54.477801	346.0	29.9	-62.7	5.4
2026-01-26 17:49:55.599094	346.0	29.7	-62.7	5.7
2026-01-26 17:49:56.721347	346.0	29.4	-62.6	5.7
2026-01-26 17:49:57.843600	345.9	29.2	-62.3	5.4
2026-01-26 17:49:58.965854	345.9	29.0	-62.6	5.9
2026-01-26 17:50:00.090108	345.9	28.8	-62.2	5.6
2026-01-26 17:50:01.212402	345.9	28.6	-62.5	6.0
2026-01-26 17:50:02.334655	345.8	28.4	-62.7	6.1
2026-01-26 17:50:03.456445	345.8	28.2	-62.4	5.7
2026-01-26 17:50:04.578698	345.8	28.0	-62.5	6.6
2026-01-26 17:50:05.700992	345.8	27.8	-62.2	5.5
2026-01-26 17:50:06.823245	345.8	27.6	-62.2	5.5
2026-01-26 17:50:07.945003	345.7	27.4	-62.1	5.5
2026-01-26 17:50:09.066770	345.7	27.2	-62.4	5.0
2026-01-26 17:50:10.189023	345.7	27.0	-62.2	5.3
2026-01-26 17:50:11.311321	345.7	26.8	-62.4	5.4
2026-01-26 17:50:12.433574	345.7	26.6	-62.2	5.6
2026-01-26 17:50:13.555340	345.6	26.4	-61.8	5.0
2026-01-26 17:50:14.678594	345.6	26.2	-62.3	5.4
2026-01-26 17:50:15.800888	345.6	26.1	-61.9	5.6
2026-01-26 17:50:16.923151	345.6	25.9	-61.6	4.5
2026-01-26 17:50:18.045413	345.6	25.7	-62.4	5.4
2026-01-26 17:50:19.167667	345.6	25.5	-62.0	5.2
2026-01-26 17:50:20.289920	345.5	25.3	-61.9	5.2
2026-01-26 17:50:21.412215	345.5	25.1	-62.1	5.6
2026-01-26 17:50:22.534468	345.5	25.0	-62.3	5.7
2026-01-26 17:50:23.656730	345.5	24.8	-61.8	4.9
2026-01-26 17:50:24.778488	345.5	24.6	-61.8	4.9
2026-01-26 17:50:25.900780	345.5	24.4	-62.0	4.6
2026-01-26 17:50:27.023033	345.4	24.3	-62.3	4.8
2026-01-26 17:50:28.145287	345.4	24.1	-62.5	5.1
2026-01-26 17:50:29.267540	345.4	23.9	-62.2	5.7
2026-01-26 17:50:30.389794	345.4	23.7	-61.1	3.8
2026-01-26 17:50:31.512047	345.4	23.6	-61.7	4.7
2026-01-26 17:50:32.634301	345.4	23.4	-62.3	4.9
2026-01-26 17:50:33.756059	345.4	23.2	-62.5	4.8
2026-01-26 17:50:34.878312	345.3	23.1	-61.9	5.3
2026-01-26 17:50:36.000566	345.3	22.9	-62.2	4.7
2026-01-26 17:50:37.122819	345.3	22.7	-61.6	4.5
2026-01-26 17:50:38.245073	345.3	22.6	-61.9	4.5
2026-01-26 17:50:39.367326	345.3	22.4	-62.1	5.5
2026-01-26 17:50:40.489580	345.3	22.2	-62.6	5.7
2026-01-26 17:50:41.611338	345.3	22.1	-61.9	4.5
2026-01-26 17:50:42.733591	345.3	21.9	-62.8	5.9
2026-01-26 17:50:43.855348	345.2	21.8	-62.3	4.7
2026-01-26 17:50:44.977602	345.2	21.6	-62.7	5.2
2026-01-26 17:50:46.099855	345.2	21.4	-62.5	4.9
2026-01-26 17:50:47.221613	345.2	21.3	-62.4	5.2
2026-01-26 17:50:48.343866	345.2	21.1	-62.7	4.9
2026-01-26 17:50:49.466120	345.2	21.0	-62.6	5.8
2026-01-26 17:50:50.593374	345.2	20.8	-62.5	6.0
2026-01-26 17:50:51.715628	345.2	20.7	-61.7	4.6
2026-01-26 17:50:52.837881	345.1	20.5	-61.6	4.4
2026-01-26 17:50:53.960135	345.1	20.4	-62.5	5.7
2026-01-26 17:50:55.082388	345.1	20.2	-61.8	4.8
2026-01-26 17:50:56.204642	345.1	20.1	-62.0	5.1
2026-01-26 17:50:57.326895	345.1	19.9	-62.7	4.9
2026-01-26 17:50:58.450654	345.1	19.8	-61.6	4.4
2026-01-26 17:50:59.572917	345.1	19.6	-61.5	4.4
2026-01-26 17:51:00.695171	345.1	19.5	-62.7	5.0
2026-01-26 17:51:01.817425	345.1	19.3	-62.6	4.9
2026-01-26 17:51:02.940214	345.0	19.2	-62.7	5.5
2026-01-26 17:51:04.062468	345.0	19.1	-62.5	5.6
2026-01-26 17:51:05.184721	345.0	18.9	-61.6	3.9
2026-01-26 17:51:06.306479	345.0	18.8	-62.2	4.7
2026-01-26 17:51:07.428236	345.0	18.6	-62.3	5.4
2026-01-26 17:51:08.550490	345.0	18.5	-61.8	4.9
2026-01-26 17:51:09.672743	345.0	18.4	-62.4	5.1
2026-01-26 17:51:10.795005	345.0	18.2	-62.5	5.1
2026-01-26 17:51:11.917794	345.0	18.1	-62.0	5.1
2026-01-26 17:51:13.040047	345.0	18.0	-62.3	4.9
2026-01-26 17:51:14.162300	345.0	17.8	-62.7	5.2
2026-01-26 17:51:15.283565	344.9	17.7	-61.9	4.2
2026-01-26 17:51:16.405826	344.9	17.5	-62.9	5.0
2026-01-26 17:51:17.527616	344.9	17.4	-62.6	5.6
2026-01-26 17:51:18.649870	344.9	17.3	-63.0	5.1
2026-01-26 17:51:19.771646	344.9	17.2	-63.1	6.1
2026-01-26 17:51:20.893900	344.9	17.0	-62.7	5.3
2026-01-26 17:51:22.015666	344.9	16.9	-62.2	5.2
2026-01-26 17:51:23.137958	344.9	16.8	-62.9	5.7
2026-01-26 17:51:24.262716	344.9	16.6	-62.7	5.3
2026-01-26 17:51:25.384978	344.9	16.5	-62.3	4.4
2026-01-26 17:51:26.507231	344.9	16.4	-62.6	4.8
2026-01-26 17:51:27.629485	344.9	16.2	-62.6	4.8
2026-01-26 17:51:28.752274	344.9	16.1	-62.7	4.8
2026-01-26 17:51:29.874528	344.8	16.0	-62.7	5.4
2026-01-26 17:51:30.997790	344.8	15.9	-62.6	5.2
2026-01-26 17:51:32.125044	344.8	15.7	-62.7	4.5
2026-01-26 17:51:33.247338	344.8	15.6	-62.5	4.7
2026-01-26 17:51:34.370591	344.8	15.5	-62.8	5.0
2026-01-26 17:51:35.492856	344.8	15.4	-62.9	5.3
2026-01-26 17:51:36.614119	344.8	15.3	-63.2	5.0
2026-01-26 17:51:37.737372	344.8	15.1	-62.7	5.5
2026-01-26 17:51:38.859674	344.8	15.0	-63.0	5.5
2026-01-26 17:51:39.981432	344.8	14.9	-62.9	4.7
2026-01-26 17:51:41.103686	344.8	14.8	-62.9	4.9
2026-01-26 17:51:42.225939	344.8	14.7	-63.0	4.9
2026-01-26 17:51:43.348193	344.8	14.5	-62.6	4.2
2026-01-26 17:51:44.470488	344.8	14.4	-63.2	4.6
2026-01-26 17:51:45.592245	344.8	14.3	-63.0	5.3
2026-01-26 17:51:46.714505	344.8	14.2	-63.0	5.4
2026-01-26 17:51:47.836759	344.7	14.1	-63.1	4.9
2026-01-26 17:51:48.961053	344.7	14.0	-62.6	4.2
2026-01-26 17:51:50.083306	344.7	13.8	-62.6	3.8
2026-01-26 17:51:51.205569	344.7	13.7	-63.6	5.4
2026-01-26 17:51:52.327822	344.7	13.6	-63.4	5.3
2026-01-26 17:51:53.450075	344.7	13.5	-63.7	5.4
2026-01-26 17:51:54.572368	344.7	13.4	-63.4	5.6
2026-01-26 17:51:55.695621	344.7	13.3	-63.5	5.4
2026-01-26 17:51:56.817378	344.7	13.2	-63.4	5.1
2026-01-26 17:51:57.939145	344.7	13.1	-62.9	5.4
2026-01-26 17:51:59.061439	344.7	12.9	-63.2	5.5
2026-01-26 17:52:00.183692	344.7	12.8	-63.4	5.0
2026-01-26 17:52:01.304962	344.7	12.7	-63.5	5.9
2026-01-26 17:52:02.427215	344.7	12.6	-63.6	5.3
2026-01-26 17:52:03.549469	344.7	12.5	-63.4	5.4
2026-01-26 17:52:04.671266	344.7	12.4	-63.7	6.3
2026-01-26 17:52:05.796520	344.7	12.3	-63.2	4.7
2026-01-26 17:52:06.921783	344.7	12.2	-62.8	5.4
2026-01-26 17:52:08.044036	344.7	12.1	-62.8	5.2
2026-01-26 17:52:09.166290	344.7	12.0	-63.0	5.7
2026-01-26 17:52:10.288584	344.6	11.9	-62.2	3.0
2026-01-26 17:52:11.410341	344.6	11.8	-62.6	5.1
2026-01-26 17:52:12.532108	344.6	11.7	-62.5	4.1
2026-01-26 17:52:13.654361	344.6	11.6	-62.5	4.6
2026-01-26 17:52:14.776169	344.6	11.4	-62.8	5.2
2026-01-26 17:52:15.898422	344.6	11.3	-62.3	3.7
2026-01-26 17:52:17.020675	344.6	11.2	-62.9	4.2
2026-01-26 17:52:18.142928	344.6	11.1	-63.6	5.2
2026-01-26 17:52:19.264686	344.6	11.0	-62.8	4.8
2026-01-26 17:52:20.386445	344.6	10.9	-63.5	5.8
2026-01-26 17:52:21.509699	344.6	10.8	-63.8	6.0
2026-01-26 17:52:22.631484	344.6	10.7	-63.3	5.7
2026-01-26 17:52:23.753738	344.6	10.6	-63.7	5.8
2026-01-26 17:52:24.875031	344.6	10.5	-63.4	5.8
2026-01-26 17:52:25.997285	344.6	10.4	-63.2	6.2
2026-01-26 17:52:27.121051	344.6	10.3	-62.6	6.4
2026-01-26 17:52:28.242810	344.6	10.2	-62.9	5.5
2026-01-26 17:52:29.369569	344.6	10.1	-62.9	5.5
2026-01-26 17:52:30.491863	344.6	10.0	-63.1	4.8
2026-01-26 17:52:31.614117	344.6	9.9	-63.3	5.6
2026-01-26 17:52:32.736379	344.6	9.8	-63.8	6.2
2026-01-26 17:52:33.858633	344.6	9.7	-64.0	6.1
2026-01-26 17:52:34.982423	344.6	9.7	-64.1	5.0
2026-01-26 17:52:36.104676	344.6	9.6	-64.0	5.0
2026-01-26 17:52:37.231435	344.6	9.5	-63.8	4.7
2026-01-26 17:52:38.357689	344.6	9.4	-63.1	4.1
2026-01-26 17:52:39.479470	344.6	9.3	-63.5	4.0
2026-01-26 17:52:40.601723	344.6	9.2	-64.2	5.2
2026-01-26 17:52:41.723977	344.5	9.1	-64.1	5.3
2026-01-26 17:52:42.845743	344.5	9.0	-64.3	4.7
2026-01-26 17:52:43.967501	344.5	8.9	-64.2	6.3
2026-01-26 17:52:45.091299	344.5	8.8	-63.3	2.6
2026-01-26 17:52:46.214553	344.5	8.7	-63.7	5.2
2026-01-26 17:52:47.336318	344.5	8.6	-64.1	5.0
2026-01-26 17:52:48.458571	344.5	8.5	-63.4	5.8
2026-01-26 17:52:49.580825	344.5	8.4	-63.9	5.2
2026-01-26 17:52:50.703117	344.5	8.3	-63.7	4.7
2026-01-26 17:52:51.825370	344.5	8.2	-63.3	5.3
2026-01-26 17:52:52.946641	344.5	8.2	-63.7	4.9
2026-01-26 17:52:54.070895	344.5	8.1	-63.7	5.3
2026-01-26 17:52:55.192717	344.5	8.0	-63.2	4.7
2026-01-26 17:52:56.314970	344.5	7.9	-63.3	5.8
2026-01-26 17:52:57.437233	344.5	7.8	-63.7	6.3
2026-01-26 17:52:58.559486	344.5	7.7	-61.3	2.9
2026-01-26 17:52:59.681779	344.5	7.6	-63.4	5.5
2026-01-26 17:53:00.803538	344.5	7.5	-63.2	3.3
2026-01-26 17:53:01.929297	344.5	7.4	-63.6	6.6
2026-01-26 17:53:03.051557	344.5	7.4	-63.6	4.9
2026-01-26 17:53:04.173348	344.5	7.3	-64.0	5.5
2026-01-26 17:53:05.295602	344.5	7.2	-62.8	3.0
2026-01-26 17:53:06.417855	344.5	7.1	-62.7	2.7
2026-01-26 17:53:07.540118	344.5	7.0	-63.4	4.0
2026-01-26 17:53:08.662372	344.5	6.9	-63.9	2.5
2026-01-26 17:53:09.783170	344.5	6.8	-63.2	3.8
2026-01-26 17:53:10.905423	344.5	6.7	-63.5	4.3
2026-01-26 17:53:12.027677	344.5	6.7	-63.0	3.0
2026-01-26 17:53:13.149442	344.5	6.6	-63.8	3.7
2026-01-26 17:53:14.272695	344.5	6.5	-63.1	2.0
2026-01-26 17:53:15.394989	344.5	6.4	-63.0	1.0
2026-01-26 17:53:16.517242	344.5	6.3	-63.0	2.1
2026-01-26 17:53:17.638040	344.5	6.2	-63.2	0.8
2026-01-26 17:53:18.760293	344.5	6.2	-63.0	1.8
2026-01-26 17:53:19.882060	344.5	6.1	-64.3	2.8
2026-01-26 17:53:21.004353	344.5	6.0	-64.9	1.6
2026-01-26 17:53:22.126606	344.5	5.9	-66.2	0.0
2026-01-26 17:53:23.248364	344.5	5.8	-66.8	0.0
2026-01-26 17:53:24.370626	344.5	5.7	-67.8	0.0
2026-01-26 17:53:25.492416	344.5	5.7	-67.7	1.4
2026-01-26 17:53:26.614669	344.5	5.6	-67.4	2.3
2026-01-26 17:53:27.736931	344.5	5.5	-66.9	0.8
2026-01-26 17:53:28.859184	344.5	5.4	-64.3	0.0
2026-01-26 17:53:29.981438	344.5	5.3	-66.9	0.0
2026-01-26 17:53:31.102732	344.5	5.2	-66.1	0.0
2026-01-26 17:53:32.224985	344.5	5.2	-66.3	0.0
2026-01-26 17:53:33.347247	344.5	5.1	-67.0	0.0
2026-01-26 17:53:34.468509	344.5	5.0	-65.6	0.0
#Closed at: 2026-01-26 17:40:39.867113