passes_logs/2026/01/26/PlanumMoscow/PlanumMoscow__20260126_071159_METOP-B_rec.log

#Pass ID: 20260126_071159_METOP-B
#Satellite: METOP-B
#Configuration: METOP-B
#Start time: 2026-01-26 07:12:04.253981

#LorettStation: 1.0.0 05.05.2024
#Station: PlanumMoscow
#Location: 37.6253844 lon 55.6713361 lat
#TLE: 1 38771U 12049A   25293.92766658  .00000266  00000+0  14193-3 0  9996
#TLE: 2 38771  98.6882 344.7603 0001609 341.5209  18.5909 14.21379342679275

#Time	Az	El	Level	SNR
2026-01-26 07:15:42.758481	18.3	29.4	-61.5	4.9
2026-01-26 07:15:43.880247	18.3	29.6	-61.9	3.3
2026-01-26 07:15:45.002021	18.3	29.8	-61.9	4.8
2026-01-26 07:15:46.122787	18.4	30.1	-61.1	3.0
2026-01-26 07:15:47.243574	18.4	30.3	-61.9	4.3
2026-01-26 07:15:48.365331	18.4	30.5	-61.6	4.5
2026-01-26 07:15:49.487584	18.4	30.7	-61.5	0.0
2026-01-26 07:15:50.608845	18.4	30.9	-61.7	3.7
2026-01-26 07:15:51.730108	18.4	31.2	-61.4	3.2
2026-01-26 07:15:52.850407	18.5	31.4	-61.5	3.5
2026-01-26 07:15:53.972164	18.5	31.6	-61.3	2.7
2026-01-26 07:15:55.094425	18.5	31.8	-62.5	5.2
2026-01-26 07:15:56.216679	18.5	32.1	-62.5	4.8
2026-01-26 07:15:57.338436	18.5	32.3	-61.3	1.4
2026-01-26 07:15:58.460246	18.5	32.5	-61.1	2.0
2026-01-26 07:15:59.582004	18.6	32.8	-62.1	1.7
2026-01-26 07:16:00.702771	18.6	33.0	-61.5	3.7
2026-01-26 07:16:01.824558	18.6	33.2	-62.1	2.7
2026-01-26 07:16:02.945820	18.6	33.5	-60.5	1.0
2026-01-26 07:16:04.068074	18.6	33.7	-61.7	4.5
2026-01-26 07:16:05.189832	18.7	34.0	-61.0	0.6
2026-01-26 07:16:06.312085	18.7	34.2	-60.7	3.0
2026-01-26 07:16:07.434346	18.7	34.5	-60.7	0.8
2026-01-26 07:16:08.556154	18.7	34.7	-61.0	0.7
2026-01-26 07:16:09.681407	18.7	35.0	-61.1	0.7
2026-01-26 07:16:10.803661	18.8	35.2	-60.0	1.7
2026-01-26 07:16:11.925418	18.8	35.5	-61.1	0.0
2026-01-26 07:16:13.047712	18.8	35.7	-60.6	1.0
2026-01-26 07:16:14.169965	18.8	36.0	-60.0	0.0
2026-01-26 07:16:15.292731	18.8	36.3	-60.1	1.9
2026-01-26 07:16:16.414984	18.9	36.5	-59.6	2.0
2026-01-26 07:16:17.540287	18.9	36.8	-60.3	0.0
2026-01-26 07:16:18.662540	18.9	37.1	-60.0	0.0
2026-01-26 07:16:19.783800	18.9	37.3	-61.7	3.8
2026-01-26 07:16:20.905558	19.0	37.6	-61.2	1.0
2026-01-26 07:16:22.027315	19.0	37.9	-60.5	0.3
2026-01-26 07:16:23.149109	19.0	38.2	-60.1	0.0
2026-01-26 07:16:24.270371	19.0	38.4	-59.9	0.0
2026-01-26 07:16:25.395138	19.1	38.7	-61.4	2.6
2026-01-26 07:16:26.517391	19.1	39.0	-61.3	2.6
2026-01-26 07:16:27.638683	19.1	39.3	-62.3	3.5
2026-01-26 07:16:28.760449	19.1	39.6	-61.3	3.0
2026-01-26 07:16:29.882206	19.2	39.9	-61.1	4.0
2026-01-26 07:16:31.003531	19.2	40.2	-60.7	1.7
2026-01-26 07:16:32.125784	19.2	40.5	-61.5	4.0
2026-01-26 07:16:33.250543	19.2	40.8	-59.8	1.7
2026-01-26 07:16:34.372300	19.3	41.1	-59.3	0.0
2026-01-26 07:16:35.493570	19.3	41.4	-61.0	3.9
2026-01-26 07:16:36.615823	19.3	41.7	-61.1	3.4
2026-01-26 07:16:37.737581	19.3	42.0	-60.5	1.2
2026-01-26 07:16:38.859872	19.4	42.3	-60.3	3.6
2026-01-26 07:16:39.980639	19.4	42.6	-60.5	1.8
2026-01-26 07:16:41.101908	19.4	43.0	-60.4	1.0
2026-01-26 07:16:42.227162	19.5	43.3	-61.1	2.6
2026-01-26 07:16:43.348455	19.5	43.6	-60.6	2.4
2026-01-26 07:16:44.470708	19.5	43.9	-61.1	3.0
2026-01-26 07:16:45.592489	19.6	44.3	-60.8	2.7
2026-01-26 07:16:46.713751	19.6	44.6	-60.4	0.0
2026-01-26 07:16:47.835509	19.6	44.9	-60.5	2.1
2026-01-26 07:16:48.956305	19.7	45.3	-60.6	0.0
2026-01-26 07:16:50.079558	19.7	45.6	-60.4	1.0
2026-01-26 07:16:51.200864	19.7	46.0	-60.3	0.0
2026-01-26 07:16:52.323117	19.8	46.3	-60.4	0.0
2026-01-26 07:16:53.444875	19.8	46.7	-61.5	0.0
2026-01-26 07:16:54.566632	19.9	47.0	-61.2	0.0
2026-01-26 07:16:55.687405	19.9	47.4	-61.4	0.0
2026-01-26 07:16:56.809163	19.9	47.7	-60.0	0.0
2026-01-26 07:16:57.931425	20.0	48.1	-61.0	0.0
2026-01-26 07:16:59.052717	20.0	48.5	-60.8	0.0
2026-01-26 07:17:00.174475	20.1	48.8	-61.7	0.0
2026-01-26 07:17:01.296728	20.1	49.2	-60.9	0.0
2026-01-26 07:17:02.419486	20.1	49.6	-61.1	0.0
2026-01-26 07:17:03.541739	20.2	50.0	-61.2	1.7
2026-01-26 07:17:04.664029	20.2	50.3	-61.3	0.9
2026-01-26 07:17:05.788788	20.3	50.7	-61.4	3.7
2026-01-26 07:17:06.911049	20.3	51.1	-60.5	2.3
2026-01-26 07:17:08.032807	20.4	51.5	-61.0	3.2
2026-01-26 07:17:09.154602	20.4	51.9	-61.4	4.5
2026-01-26 07:17:10.276856	20.5	52.3	-61.3	3.1
2026-01-26 07:17:11.398126	20.5	52.7	-61.0	2.9
2026-01-26 07:17:12.519884	20.6	53.1	-61.6	3.1
2026-01-26 07:17:13.644642	20.6	53.5	-60.5	2.2
2026-01-26 07:17:14.764941	20.7	53.9	-61.4	3.2
2026-01-26 07:17:15.886699	20.8	54.3	-62.2	4.1
2026-01-26 07:17:17.008465	20.8	54.8	-62.0	3.7
2026-01-26 07:17:18.130718	20.9	55.2	-61.9	3.3
2026-01-26 07:17:19.251523	21.0	55.6	-61.7	1.7
2026-01-26 07:17:20.373280	21.0	56.0	-62.6	5.0
2026-01-26 07:17:21.494055	21.1	56.5	-62.2	3.0
2026-01-26 07:17:22.615812	21.2	56.9	-62.3	2.4
2026-01-26 07:17:23.738066	21.2	57.3	-62.2	1.9
2026-01-26 07:17:24.860358	21.3	57.8	-62.4	2.7
2026-01-26 07:17:25.982611	21.4	58.2	-62.6	1.8
2026-01-26 07:17:27.104378	21.5	58.7	-62.7	3.4
2026-01-26 07:17:28.226631	21.5	59.1	-62.6	1.0
2026-01-26 07:17:29.347892	21.6	59.6	-62.7	2.6
2026-01-26 07:17:30.470711	21.7	60.0	-62.3	2.8
2026-01-26 07:17:31.592468	21.8	60.5	-62.4	3.3
2026-01-26 07:17:32.714730	21.9	61.0	-62.4	0.9
2026-01-26 07:17:33.836983	22.0	61.4	-61.7	0.2
2026-01-26 07:17:34.959258	22.1	61.9	-63.3	4.5
2026-01-26 07:17:36.080552	22.2	62.4	-62.7	4.1
2026-01-26 07:17:37.202310	22.3	62.9	-63.3	5.5
2026-01-26 07:17:38.324068	22.4	63.3	-62.5	1.0
2026-01-26 07:17:39.445344	22.5	63.8	-63.8	5.5
2026-01-26 07:17:40.567627	22.7	64.3	-64.1	6.0
2026-01-26 07:17:41.691408	22.8	64.8	-64.0	4.5
2026-01-26 07:17:42.813661	22.9	65.3	-63.8	5.9
2026-01-26 07:17:43.934933	23.1	65.8	-64.2	6.2
2026-01-26 07:17:45.057691	23.2	66.3	-64.6	5.2
2026-01-26 07:17:46.178998	23.4	66.8	-64.5	5.2
2026-01-26 07:17:47.304261	23.5	67.3	-64.8	5.4
2026-01-26 07:17:48.426043	23.7	67.8	-65.2	5.0
2026-01-26 07:17:49.548297	23.9	68.3	-65.6	5.9
2026-01-26 07:17:50.670550	24.0	68.8	-65.1	4.0
2026-01-26 07:17:51.791856	24.2	69.3	-65.2	4.6
2026-01-26 07:17:52.915119	24.4	69.9	-65.4	4.8
2026-01-26 07:17:54.037381	24.7	70.4	-65.5	5.0
2026-01-26 07:17:55.157151	24.9	70.9	-65.7	5.1
2026-01-26 07:17:56.278937	25.1	71.4	-65.6	6.0
2026-01-26 07:17:57.400696	25.4	72.0	-65.7	5.8
2026-01-26 07:17:58.522950	25.7	72.5	-65.7	5.0
2026-01-26 07:17:59.645203	26.0	73.0	-65.8	3.7
2026-01-26 07:18:00.767457	26.3	73.6	-66.0	6.6
2026-01-26 07:18:01.889710	26.6	74.1	-65.9	4.1
2026-01-26 07:18:03.011469	27.0	74.7	-65.8	4.2
2026-01-26 07:18:04.132244	27.3	75.2	-66.0	5.1
2026-01-26 07:18:05.254039	27.8	75.7	-66.2	4.9
2026-01-26 07:18:06.376292	28.2	76.3	-66.0	6.3
2026-01-26 07:18:07.498050	28.7	76.8	-66.1	5.0
2026-01-26 07:18:08.619337	29.2	77.4	-66.1	5.6
2026-01-26 07:18:09.741591	29.8	77.9	-66.2	6.6
2026-01-26 07:18:10.863347	30.4	78.5	-65.7	5.5
2026-01-26 07:18:11.988638	31.1	79.0	-65.5	3.3
2026-01-26 07:18:13.111892	31.9	79.6	-65.8	4.8
2026-01-26 07:18:14.233658	32.8	80.1	-66.1	3.8
2026-01-26 07:18:15.355415	33.7	80.7	-66.1	3.3
2026-01-26 07:18:16.476706	34.8	81.2	-66.4	3.4
2026-01-26 07:18:17.598465	36.0	81.8	-66.8	2.8
2026-01-26 07:18:18.720727	37.4	82.3	-67.0	2.6
2026-01-26 07:18:19.841988	39.1	82.8	-66.9	1.8
2026-01-26 07:18:20.964789	40.9	83.4	-66.6	1.9
2026-01-26 07:18:22.086546	43.1	83.9	-67.7	1.9
2026-01-26 07:18:23.208799	45.7	84.4	-68.0	1.9
2026-01-26 07:18:24.330557	48.9	84.9	-67.8	0.0
2026-01-26 07:18:25.452315	52.7	85.4	-68.1	0.0
2026-01-26 07:18:26.574568	57.4	85.8	-67.7	0.0
2026-01-26 07:18:27.696362	63.2	86.3	-67.7	0.0
2026-01-26 07:18:28.817624	70.4	86.6	-68.3	0.0
2026-01-26 07:18:29.938398	79.2	87.0	-67.4	0.1
2026-01-26 07:18:31.058668	89.7	87.2	-67.7	0.2
2026-01-26 07:18:32.180457	101.6	87.3	-67.9	2.1
2026-01-26 07:18:33.302710	114.0	87.3	-67.8	2.2
2026-01-26 07:18:34.424486	125.8	87.2	-67.8	3.0
2026-01-26 07:18:35.546740	136.2	86.9	-67.4	4.5
2026-01-26 07:18:36.669498	144.9	86.6	-67.4	3.5
2026-01-26 07:18:37.790791	151.9	86.2	-67.2	4.2
2026-01-26 07:18:38.912549	157.6	85.8	-67.2	4.1
2026-01-26 07:18:40.034315	162.1	85.3	-67.1	4.6
2026-01-26 07:18:41.156568	165.9	84.8	-67.5	5.2
2026-01-26 07:18:42.278325	168.9	84.3	-67.4	5.4
2026-01-26 07:18:43.400625	171.5	83.8	-67.2	5.1
2026-01-26 07:18:44.523384	173.7	83.3	-67.1	6.1
2026-01-26 07:18:45.645637	175.5	82.8	-67.3	5.9
2026-01-26 07:18:46.767890	177.1	82.2	-67.1	5.9
2026-01-26 07:18:47.888705	178.5	81.7	-67.3	6.0
2026-01-26 07:18:49.010462	179.7	81.1	-67.3	5.4
2026-01-26 07:18:50.132724	180.8	80.6	-67.5	5.3
2026-01-26 07:18:51.254978	181.7	80.1	-68.0	5.0
2026-01-26 07:18:52.376239	182.6	79.5	-67.9	5.5
2026-01-26 07:18:53.497539	183.3	79.0	-67.9	5.3
2026-01-26 07:18:54.619297	184.0	78.4	-67.7	5.4
2026-01-26 07:18:55.741557	184.7	77.9	-67.4	5.6
2026-01-26 07:18:56.863811	185.2	77.3	-67.5	4.2
2026-01-26 07:18:57.986064	185.8	76.8	-67.7	5.3
2026-01-26 07:18:59.106866	186.2	76.2	-67.5	4.4
2026-01-26 07:19:00.233625	186.7	75.7	-67.6	5.0
2026-01-26 07:19:01.355383	187.1	75.1	-67.9	5.1
2026-01-26 07:19:02.477141	187.5	74.6	-67.7	5.0
2026-01-26 07:19:03.598476	187.8	74.0	-68.0	5.6
2026-01-26 07:19:04.719242	188.2	73.5	-67.5	5.5
2026-01-26 07:19:05.839014	188.5	73.0	-67.1	5.5
2026-01-26 07:19:06.961300	188.7	72.4	-67.4	6.7
2026-01-26 07:19:08.082066	189.0	71.9	-67.4	6.7
2026-01-26 07:19:09.207329	189.3	71.4	-67.5	6.4
2026-01-26 07:19:10.329582	189.5	70.8	-67.3	5.6
2026-01-26 07:19:11.449851	189.7	70.3	-67.8	6.0
2026-01-26 07:19:12.572105	190.0	69.8	-67.4	5.4
2026-01-26 07:19:13.694395	190.2	69.3	-67.2	6.1
2026-01-26 07:19:14.816155	190.4	68.8	-66.7	6.0
2026-01-26 07:19:15.937912	190.5	68.2	-66.7	5.3
2026-01-26 07:19:17.060183	190.7	67.7	-66.4	4.7
2026-01-26 07:19:18.182436	190.9	67.2	-66.4	5.7
2026-01-26 07:19:19.303727	191.0	66.7	-66.5	5.1
2026-01-26 07:19:20.424990	191.2	66.2	-66.4	5.2
2026-01-26 07:19:21.546766	191.3	65.7	-66.6	4.8
2026-01-26 07:19:22.669019	191.5	65.2	-66.2	5.5
2026-01-26 07:19:23.790777	191.6	64.7	-66.4	5.7
2026-01-26 07:19:24.911580	191.7	64.2	-66.3	4.5
2026-01-26 07:19:26.033338	191.9	63.7	-66.3	4.8
2026-01-26 07:19:27.155102	192.0	63.2	-66.9	4.4
2026-01-26 07:19:28.277356	192.1	62.8	-66.6	4.3
2026-01-26 07:19:29.398652	192.2	62.3	-66.5	3.8
2026-01-26 07:19:30.520916	192.3	61.8	-66.9	4.5
2026-01-26 07:19:31.642682	192.4	61.3	-66.9	3.5
2026-01-26 07:19:32.763449	192.5	60.9	-66.6	2.7
2026-01-26 07:19:33.885749	192.6	60.4	-66.5	2.4
2026-01-26 07:19:35.007010	192.7	59.9	-66.4	2.4
2026-01-26 07:19:36.129264	192.8	59.5	-66.6	1.6
2026-01-26 07:19:37.251021	192.8	59.0	-66.7	2.8
2026-01-26 07:19:38.372289	192.9	58.6	-66.5	2.0
2026-01-26 07:19:39.494543	193.0	58.1	-66.7	1.9
2026-01-26 07:19:40.616343	193.1	57.7	-66.1	2.0
2026-01-26 07:19:41.738109	193.2	57.2	-65.9	2.8
2026-01-26 07:19:42.859876	193.2	56.8	-65.6	3.1
2026-01-26 07:19:43.981633	193.3	56.4	-65.3	3.5
2026-01-26 07:19:45.103391	193.4	55.9	-65.0	4.8
2026-01-26 07:19:46.225683	193.4	55.5	-65.3	4.9
2026-01-26 07:19:47.347937	193.5	55.1	-65.1	4.7
2026-01-26 07:19:48.469702	193.6	54.7	-65.2	5.9
2026-01-26 07:19:49.594964	193.6	54.2	-64.7	5.9
2026-01-26 07:19:50.717218	193.7	53.8	-64.3	4.9
2026-01-26 07:19:51.838025	193.7	53.4	-64.6	6.6
2026-01-26 07:19:52.959782	193.8	53.0	-64.0	6.0
2026-01-26 07:19:54.081540	193.8	52.6	-64.8	5.8
2026-01-26 07:19:55.202801	193.9	52.2	-64.0	5.0
2026-01-26 07:19:56.325574	194.0	51.8	-64.1	6.4
2026-01-26 07:19:57.447365	194.0	51.4	-63.7	5.8
2026-01-26 07:19:58.573619	194.1	51.0	-63.7	5.3
2026-01-26 07:19:59.694889	194.1	50.6	-63.7	6.8
2026-01-26 07:20:00.817142	194.1	50.2	-63.3	4.6
2026-01-26 07:20:01.938452	194.2	49.8	-62.8	3.9
2026-01-26 07:20:03.060209	194.2	49.5	-63.2	5.5
2026-01-26 07:20:04.182463	194.3	49.1	-63.5	5.6
2026-01-26 07:20:05.302741	194.3	48.7	-63.5	4.6
2026-01-26 07:20:06.427506	194.4	48.3	-63.5	4.3
2026-01-26 07:20:07.548798	194.4	48.0	-64.1	4.7
2026-01-26 07:20:08.670556	194.4	47.6	-64.3	5.2
2026-01-26 07:20:09.792323	194.5	47.3	-63.7	5.8
2026-01-26 07:20:10.914576	194.5	46.9	-63.6	6.4
2026-01-26 07:20:12.035837	194.6	46.5	-63.3	4.3
2026-01-26 07:20:13.157129	194.6	46.2	-63.2	4.6
2026-01-26 07:20:14.277411	194.6	45.8	-63.1	5.2
2026-01-26 07:20:15.399166	194.7	45.5	-62.9	5.7
2026-01-26 07:20:16.520451	194.7	45.2	-62.6	4.7
2026-01-26 07:20:17.641715	194.7	44.8	-62.4	4.6
2026-01-26 07:20:18.762976	194.8	44.5	-62.8	5.8
2026-01-26 07:20:19.884733	194.8	44.1	-62.4	5.3
2026-01-26 07:20:21.006994	194.8	43.8	-62.2	3.9
2026-01-26 07:20:22.129752	194.9	43.5	-62.0	5.7
2026-01-26 07:20:23.252006	194.9	43.2	-62.0	5.7
2026-01-26 07:20:24.374259	194.9	42.8	-61.7	6.3
2026-01-26 07:20:25.496017	195.0	42.5	-62.2	5.6
2026-01-26 07:20:26.618282	195.0	42.2	-61.5	5.1
2026-01-26 07:20:27.740535	195.0	41.9	-61.9	5.5
2026-01-26 07:20:28.863789	195.1	41.6	-61.3	5.1
2026-01-26 07:20:29.985546	195.1	41.3	-61.9	4.2
2026-01-26 07:20:31.109809	195.1	41.0	-61.9	3.8
2026-01-26 07:20:32.230576	195.1	40.7	-61.8	5.1
2026-01-26 07:20:33.352332	195.2	40.3	-61.5	5.9
2026-01-26 07:20:34.473098	195.2	40.1	-62.0	3.1
2026-01-26 07:20:35.594359	195.2	39.8	-62.1	5.7
2026-01-26 07:20:36.716165	195.2	39.5	-62.3	5.9
2026-01-26 07:20:37.837923	195.3	39.2	-62.3	5.9
2026-01-26 07:20:38.958740	195.3	38.9	-62.0	4.8
2026-01-26 07:20:40.081009	195.3	38.6	-62.3	5.1
2026-01-26 07:20:41.202766	195.3	38.3	-62.0	5.2
2026-01-26 07:20:42.324524	195.4	38.0	-61.9	4.7
2026-01-26 07:20:43.446777	195.4	37.7	-61.4	3.3
2026-01-26 07:20:44.568534	195.4	37.5	-61.5	5.9
2026-01-26 07:20:45.690303	195.4	37.2	-61.7	0.0
2026-01-26 07:20:46.812073	195.5	36.9	-61.4	3.6
2026-01-26 07:20:47.933831	195.5	36.7	-62.2	5.7
2026-01-26 07:20:49.055122	195.5	36.4	-61.6	6.2
2026-01-26 07:20:50.176887	195.5	36.1	-62.1	5.1
2026-01-26 07:20:51.298149	195.5	35.9	-61.6	5.8
2026-01-26 07:20:52.420411	195.6	35.6	-61.8	6.9
2026-01-26 07:20:53.541671	195.6	35.3	-62.0	6.5
2026-01-26 07:20:54.661971	195.6	35.1	-61.4	6.3
2026-01-26 07:20:55.783729	195.6	34.8	-62.0	7.3
2026-01-26 07:20:56.905990	195.6	34.6	-61.4	6.1
2026-01-26 07:20:58.027747	195.7	34.3	-62.3	5.8
2026-01-26 07:20:59.150037	195.7	34.1	-62.3	6.4
2026-01-26 07:21:00.272291	195.7	33.8	-61.7	6.4
2026-01-26 07:21:01.393056	195.7	33.6	-62.6	4.4
2026-01-26 07:21:02.514342	195.7	33.3	-62.7	6.7
2026-01-26 07:21:03.639101	195.8	33.1	-61.5	4.0
2026-01-26 07:21:04.761354	195.8	32.8	-61.9	4.8
2026-01-26 07:21:05.882616	195.8	32.6	-61.5	4.5
2026-01-26 07:21:07.004381	195.8	32.4	-61.4	4.7
2026-01-26 07:21:08.126139	195.8	32.1	-61.2	4.0
2026-01-26 07:21:09.248392	195.8	31.9	-62.1	3.7
2026-01-26 07:21:10.370181	195.9	31.7	-61.0	3.3
2026-01-26 07:21:11.491948	195.9	31.4	-61.6	3.6
2026-01-26 07:21:12.614201	195.9	31.2	-61.0	4.0
2026-01-26 07:21:13.735464	195.9	31.0	-61.3	4.5
2026-01-26 07:21:14.857222	195.9	30.8	-61.9	4.9
2026-01-26 07:21:15.979010	195.9	30.6	-61.5	5.7
2026-01-26 07:21:17.100768	196.0	30.3	-61.8	5.6
2026-01-26 07:21:18.222534	196.0	30.1	-61.5	5.4
2026-01-26 07:21:19.344796	196.0	29.9	-61.1	4.6
2026-01-26 07:21:20.466058	196.0	29.7	-61.2	2.2
2026-01-26 07:21:21.586861	196.0	29.5	-61.9	3.7
2026-01-26 07:21:22.708618	196.0	29.3	-60.7	2.0
2026-01-26 07:21:23.829393	196.1	29.0	-62.1	5.1
2026-01-26 07:21:24.950653	196.1	28.8	-61.6	4.0
2026-01-26 07:21:26.071956	196.1	28.6	-62.5	5.2
2026-01-26 07:21:27.193722	196.1	28.4	-62.1	4.5
2026-01-26 07:21:28.315479	196.1	28.2	-62.1	6.3
2026-01-26 07:21:29.436750	196.1	28.0	-62.4	7.8
2026-01-26 07:21:30.559003	196.1	27.8	-60.9	6.6
2026-01-26 07:21:31.680312	196.2	27.6	-61.8	5.6
2026-01-26 07:21:32.802565	196.2	27.4	-62.5	4.9
2026-01-26 07:21:33.923828	196.2	27.2	-61.9	4.4
2026-01-26 07:21:35.045090	196.2	27.0	-61.4	5.6
2026-01-26 07:21:36.166876	196.2	26.8	-61.9	6.2
2026-01-26 07:21:37.288634	196.2	26.6	-62.1	7.2
2026-01-26 07:21:38.409902	196.2	26.5	-62.2	6.8
2026-01-26 07:21:39.531163	196.2	26.3	-60.5	0.0
2026-01-26 07:21:40.652921	196.3	26.1	-62.2	5.5
2026-01-26 07:21:41.774702	196.3	25.9	-62.3	7.3
2026-01-26 07:21:42.896955	196.3	25.7	-62.5	6.6
2026-01-26 07:21:44.021731	196.3	25.5	-61.1	5.4
2026-01-26 07:21:45.143496	196.3	25.3	-62.4	5.3
2026-01-26 07:21:46.266750	196.3	25.2	-62.2	5.5
2026-01-26 07:21:47.388539	196.3	25.0	-62.1	6.7
2026-01-26 07:21:48.510296	196.3	24.8	-61.7	4.9
2026-01-26 07:21:49.632054	196.4	24.6	-61.7	3.7
2026-01-26 07:21:50.754317	196.4	24.4	-62.2	5.8
2026-01-26 07:21:51.879075	196.4	24.3	-62.0	4.9
2026-01-26 07:21:53.000338	196.4	24.1	-63.2	5.3
2026-01-26 07:21:54.121608	196.4	23.9	-63.2	5.8
2026-01-26 07:21:55.242882	196.4	23.7	-62.3	2.8
2026-01-26 07:21:56.364639	196.4	23.6	-62.6	3.8
2026-01-26 07:21:57.485950	196.4	23.4	-62.7	6.0
2026-01-26 07:21:58.607708	196.5	23.2	-62.9	4.7
2026-01-26 07:21:59.733549	196.5	23.1	-62.5	4.6
2026-01-26 07:22:00.855812	196.5	22.9	-62.9	4.6
2026-01-26 07:22:01.977572	196.5	22.7	-61.8	4.0
2026-01-26 07:22:03.098902	196.5	22.6	-62.6	4.3
2026-01-26 07:22:04.220672	196.5	22.4	-61.8	3.4
2026-01-26 07:22:05.343418	196.5	22.2	-62.3	4.4
2026-01-26 07:22:06.465687	196.5	22.1	-62.7	4.6
2026-01-26 07:22:07.587445	196.5	21.9	-62.0	4.0
2026-01-26 07:22:08.710203	196.6	21.8	-61.3	4.2
2026-01-26 07:22:09.831960	196.6	21.6	-61.8	5.4
2026-01-26 07:22:10.954221	196.6	21.4	-62.8	5.6
2026-01-26 07:22:12.075505	196.6	21.3	-62.6	6.2
2026-01-26 07:22:13.198263	196.6	21.1	-62.8	3.8
2026-01-26 07:22:14.320516	196.6	21.0	-62.6	3.0
2026-01-26 07:22:15.443786	196.6	20.8	-62.7	4.7
2026-01-26 07:22:16.565047	196.6	20.7	-62.8	6.0
2026-01-26 07:22:17.686814	196.6	20.5	-62.5	3.9
2026-01-26 07:22:18.808117	196.6	20.4	-63.2	4.9
2026-01-26 07:22:19.928882	196.7	20.2	-63.1	5.0
2026-01-26 07:22:21.049656	196.7	20.1	-63.5	5.8
2026-01-26 07:22:22.171414	196.7	19.9	-63.1	4.6
2026-01-26 07:22:23.292676	196.7	19.8	-62.7	3.1
2026-01-26 07:22:24.414464	196.7	19.6	-63.2	6.4
2026-01-26 07:22:25.537222	196.7	19.5	-62.9	6.4
2026-01-26 07:22:26.658492	196.7	19.3	-62.5	4.5
2026-01-26 07:22:27.780250	196.7	19.2	-62.4	1.4
2026-01-26 07:22:28.902007	196.7	19.0	-61.1	0.0
2026-01-26 07:22:30.023308	196.7	18.9	-62.4	4.6
2026-01-26 07:22:31.145575	196.8	18.8	-61.9	3.1
2026-01-26 07:22:32.268829	196.8	18.6	-61.5	5.8
2026-01-26 07:22:33.391082	196.8	18.5	-62.0	0.8
2026-01-26 07:22:34.512373	196.8	18.3	-62.1	4.0
2026-01-26 07:22:35.634626	196.8	18.2	-62.2	3.9
2026-01-26 07:22:36.756384	196.8	18.1	-61.7	3.9
2026-01-26 07:22:37.878638	196.8	17.9	-61.5	5.0
2026-01-26 07:22:39.000403	196.8	17.8	-62.7	3.4
2026-01-26 07:22:40.123208	196.8	17.7	-60.3	0.0
2026-01-26 07:22:41.245462	196.8	17.5	-58.7	0.0
2026-01-26 07:22:42.366731	196.8	17.4	-59.6	0.0
2026-01-26 07:22:43.488003	196.9	17.3	-60.9	0.0
2026-01-26 07:22:44.609264	196.9	17.1	-61.0	0.0
2026-01-26 07:22:45.729563	196.9	17.0	-60.9	0.0
2026-01-26 07:22:46.851816	196.9	16.9	-60.5	0.0
2026-01-26 07:22:47.977087	196.9	16.7	-60.6	0.0
2026-01-26 07:22:49.098845	196.9	16.6	-60.4	0.0
2026-01-26 07:22:50.220106	196.9	16.5	-60.1	0.0
2026-01-26 07:22:51.340901	196.9	16.3	-59.4	0.0
2026-01-26 07:22:52.462659	196.9	16.2	-59.8	0.0
2026-01-26 07:22:53.583936	196.9	16.1	-59.6	0.0
2026-01-26 07:22:54.706199	196.9	16.0	-60.0	0.0
2026-01-26 07:22:55.827957	196.9	15.8	-59.9	0.0
2026-01-26 07:22:56.952249	197.0	15.7	-61.7	2.9
2026-01-26 07:22:58.074008	197.0	15.6	-62.9	5.5
2026-01-26 07:22:59.195269	197.0	15.5	-62.4	3.4
2026-01-26 07:23:00.317027	197.0	15.3	-62.4	4.0
2026-01-26 07:23:01.439280	197.0	15.2	-62.8	4.0
2026-01-26 07:23:02.559598	197.0	15.1	-62.5	5.3
2026-01-26 07:23:03.681365	197.0	15.0	-62.4	1.0
2026-01-26 07:23:04.803123	197.0	14.9	-63.0	3.4
2026-01-26 07:23:05.924882	197.0	14.7	-62.2	2.6
2026-01-26 07:23:07.046179	197.0	14.6	-62.3	2.5
2026-01-26 07:23:08.169455	197.0	14.5	-62.0	0.9
2026-01-26 07:23:09.291709	197.0	14.4	-62.1	2.4
2026-01-26 07:23:10.413467	197.1	14.3	-61.8	0.0
2026-01-26 07:23:11.536225	197.1	14.2	-60.9	3.1
2026-01-26 07:23:12.657023	197.1	14.0	-62.2	0.0
2026-01-26 07:23:13.778781	197.1	13.9	-61.7	0.0
2026-01-26 07:23:14.901044	197.1	13.8	-61.6	3.7
2026-01-26 07:23:16.023298	197.1	13.7	-61.3	0.0
2026-01-26 07:23:17.145560	197.1	13.6	-61.6	1.0
2026-01-26 07:23:18.267853	197.1	13.5	-63.4	1.2
2026-01-26 07:23:19.390106	197.1	13.3	-63.0	0.6
2026-01-26 07:23:20.511894	197.1	13.2	-62.2	0.0
2026-01-26 07:23:21.633156	197.1	13.1	-59.2	0.0
2026-01-26 07:23:22.753952	197.1	13.0	-60.7	0.0
2026-01-26 07:23:23.874719	197.1	12.9	-62.4	1.9
2026-01-26 07:23:24.996988	197.2	12.8	-59.9	0.0
2026-01-26 07:23:26.118250	197.2	12.7	-62.1	1.1
2026-01-26 07:23:27.240008	197.2	12.6	-60.2	0.0
2026-01-26 07:23:28.360841	197.2	12.5	-59.6	0.0
2026-01-26 07:23:29.482598	197.2	12.4	-61.2	0.0
2026-01-26 07:23:30.604859	197.2	12.2	-62.3	0.0
2026-01-26 07:23:31.727122	197.2	12.1	-61.4	0.0
2026-01-26 07:23:32.848880	197.2	12.0	-62.0	0.0
2026-01-26 07:23:33.971667	197.2	11.9	-59.4	0.0
2026-01-26 07:23:35.093425	197.2	11.8	-61.2	0.0
2026-01-26 07:23:36.215189	197.2	11.7	-61.3	0.0
2026-01-26 07:23:37.336947	197.2	11.6	-61.0	0.0
2026-01-26 07:23:38.458239	197.2	11.5	-59.8	0.0
2026-01-26 07:23:39.580493	197.2	11.4	-59.8	0.0
2026-01-26 07:23:40.702746	197.3	11.3	-61.3	0.0
2026-01-26 07:23:41.824029	197.3	11.2	-61.9	0.0
2026-01-26 07:23:42.945787	197.3	11.1	-61.5	0.0
2026-01-26 07:23:44.067544	197.3	11.0	-62.3	0.0
2026-01-26 07:23:45.188311	197.3	10.9	-62.1	0.0
2026-01-26 07:23:46.312093	197.3	10.8	-61.3	0.0
2026-01-26 07:23:47.434347	197.3	10.7	-62.7	0.0
2026-01-26 07:23:48.555647	197.3	10.6	-59.6	0.0
2026-01-26 07:23:49.677405	197.3	10.5	-62.0	0.0
2026-01-26 07:23:50.799666	197.3	10.4	-60.2	0.0
2026-01-26 07:23:51.921424	197.3	10.3	-61.0	0.0
2026-01-26 07:23:53.043677	197.3	10.2	-62.0	0.0
2026-01-26 07:23:54.165479	197.3	10.1	-60.1	0.0
2026-01-26 07:23:55.287733	197.3	10.0	-61.8	0.0
2026-01-26 07:23:56.409002	197.3	9.9	-59.6	0.0
2026-01-26 07:23:57.531256	197.4	9.8	-61.6	0.0
2026-01-26 07:23:58.651557	197.4	9.7	-61.7	0.0
2026-01-26 07:23:59.773819	197.4	9.6	-61.3	0.0
2026-01-26 07:24:00.895086	197.4	9.5	-61.0	0.0
2026-01-26 07:24:02.016844	197.4	9.4	-61.3	0.0
2026-01-26 07:24:03.139097	197.4	9.3	-61.7	0.0
2026-01-26 07:24:04.259925	197.4	9.2	-60.6	0.0
2026-01-26 07:24:05.381683	197.4	9.1	-61.5	0.0
2026-01-26 07:24:06.503943	197.4	9.0	-61.4	0.0
2026-01-26 07:24:07.626701	197.4	8.9	-61.3	0.0
2026-01-26 07:24:08.747963	197.4	8.8	-60.3	0.0
2026-01-26 07:24:09.872793	197.4	8.7	-61.2	0.0
2026-01-26 07:24:10.994559	197.4	8.6	-60.3	0.0
2026-01-26 07:24:12.116812	197.4	8.6	-58.8	0.0
2026-01-26 07:24:13.239065	197.4	8.5	-61.2	0.0
2026-01-26 07:24:14.361318	197.4	8.4	-61.2	0.0
2026-01-26 07:24:15.483076	197.5	8.3	-60.3	0.0
2026-01-26 07:24:16.605330	197.5	8.2	-59.2	0.0
2026-01-26 07:24:17.726600	197.5	8.1	-60.5	0.0
2026-01-26 07:24:18.848365	197.5	8.0	-61.0	0.0
2026-01-26 07:24:19.970122	197.5	7.9	-59.7	0.0
2026-01-26 07:24:21.092889	197.5	7.8	-61.1	0.0
2026-01-26 07:24:22.214646	197.5	7.7	-60.8	0.0
2026-01-26 07:24:23.335909	197.5	7.6	-59.5	0.0
2026-01-26 07:24:24.457675	197.5	7.6	-56.6	0.0
2026-01-26 07:24:25.578936	197.5	7.5	-58.4	0.0
2026-01-26 07:24:26.700198	197.5	7.4	-58.7	0.0
2026-01-26 07:24:27.822451	197.5	7.3	-60.5	0.0
2026-01-26 07:24:28.944208	197.5	7.2	-60.2	0.0
2026-01-26 07:24:30.065967	197.5	7.1	-60.0	0.0
2026-01-26 07:24:31.188220	197.5	7.0	-59.4	0.0
2026-01-26 07:24:32.310483	197.5	6.9	-58.3	0.0
2026-01-26 07:24:33.431745	197.6	6.8	-59.3	0.0
2026-01-26 07:24:34.558007	197.6	6.8	-57.4	0.0
2026-01-26 07:24:35.680261	197.6	6.7	-57.6	0.0
2026-01-26 07:24:36.802514	197.6	6.6	-60.3	0.0
2026-01-26 07:24:37.924273	197.6	6.5	-57.7	0.0
2026-01-26 07:24:39.046526	197.6	6.4	-59.9	0.0
2026-01-26 07:24:40.168284	197.6	6.3	-56.0	0.0
2026-01-26 07:24:41.289050	197.6	6.2	-61.0	0.0
2026-01-26 07:24:42.415809	197.6	6.2	-61.1	0.0
2026-01-26 07:24:43.538567	197.6	6.1	-60.1	0.0
2026-01-26 07:24:44.660821	197.6	6.0	-61.0	0.0
2026-01-26 07:24:45.782579	197.6	5.9	-63.4	0.0
2026-01-26 07:24:46.904832	197.6	5.8	-66.5	0.0
2026-01-26 07:24:48.026598	197.6	5.7	-68.1	0.0
2026-01-26 07:24:49.147860	197.6	5.7	-68.7	0.0
2026-01-26 07:24:50.272617	197.6	5.6	-69.7	0.0
2026-01-26 07:24:51.396871	197.6	5.5	-69.8	0.0
2026-01-26 07:24:52.518630	197.6	5.4	-70.6	0.0
2026-01-26 07:24:53.640388	197.7	5.3	-70.7	0.0
2026-01-26 07:24:54.762641	197.7	5.3	-70.2	0.0
2026-01-26 07:24:55.883409	197.7	5.2	-70.5	0.0
2026-01-26 07:24:57.005662	197.7	5.1	-70.7	0.0
2026-01-26 07:24:58.127420	197.7	5.0	-70.5	0.0
2026-01-26 07:24:59.249178	197.7	4.9	-70.6	0.0
#Closed at: 2026-01-26 07:11:59.255355