passes_logs/2025/01/12/SPB_Silybum_02/SPB_Silybum_02__20250112_031435_AQUA_rec.log

#Pass ID: 20250112_031435_AQUA
#Satellite: AQUA
#Configuration: AQUA
#Start time: 2025-01-12 03:14:35

#Version: 2.0.20230423
#Station: SPB_Silybum_02
#Location: 30.233357 lon 59.946436 lat
#TLE: 1 27424U 02022A   25010.89862733  .00001944  00000+0  40909-3 0  9991
#TLE: 2 27424  98.3577 327.5256 0001581 116.2883 319.2080 14.60667727207024

#Time	Az	El	Level	Level2	SNR	BER	Gain	Gain2
2025-01-12 03:14:37.11	9.72	4.07	
2025-01-12 03:14:37.31	9.70	4.09	
2025-01-12 03:14:37.52	9.68	4.10	
2025-01-12 03:14:37.72	9.66	4.11	
2025-01-12 03:14:37.93	9.64	4.12	
2025-01-12 03:14:38.14	9.62	4.14	
2025-01-12 03:14:38.34	9.61	4.15	
2025-01-12 03:14:38.55	9.59	4.16	
2025-01-12 03:14:38.75	9.57	4.17	
2025-01-12 03:14:38.95	9.55	4.18	
2025-01-12 03:14:39.16	9.53	4.20	
2025-01-12 03:14:39.36	9.51	4.21	
2025-01-12 03:14:39.57	9.49	4.22	
2025-01-12 03:14:39.77	9.47	4.23	
2025-01-12 03:14:39.98	9.46	4.25	
2025-01-12 03:14:40.18	9.44	4.26	
2025-01-12 03:14:40.39	9.42	4.27	
2025-01-12 03:14:40.60	9.40	4.28	
2025-01-12 03:14:40.80	9.38	4.29	
2025-01-12 03:14:41.01	9.36	4.31	
2025-01-12 03:14:41.22	9.34	4.32	
2025-01-12 03:14:41.43	9.32	4.33	
2025-01-12 03:14:41.64	9.30	4.34	
2025-01-12 03:14:41.84	9.28	4.36	
2025-01-12 03:14:42.05	9.26	4.37	
2025-01-12 03:14:42.25	9.24	4.38	
2025-01-12 03:14:42.46	9.23	4.39	
2025-01-12 03:14:42.66	9.21	4.41	
2025-01-12 03:14:42.87	9.19	4.42	
2025-01-12 03:14:43.07	9.17	4.43	
2025-01-12 03:14:43.28	9.15	4.44	
2025-01-12 03:14:43.48	9.13	4.45	
2025-01-12 03:14:43.69	9.11	4.47	
2025-01-12 03:14:43.90	9.09	4.48	
2025-01-12 03:14:44.10	9.07	4.49	
2025-01-12 03:14:44.30	9.05	4.50	
2025-01-12 03:14:44.51	9.03	4.52	
2025-01-12 03:14:44.71	9.01	4.53	
2025-01-12 03:14:44.92	8.99	4.54	
2025-01-12 03:14:45.12	8.98	4.55	
2025-01-12 03:14:45.33	8.96	4.57	
2025-01-12 03:14:45.53	8.94	4.58	
2025-01-12 03:14:45.74	8.92	4.59	
2025-01-12 03:14:45.95	8.90	4.60	
2025-01-12 03:14:46.15	8.88	4.62	
2025-01-12 03:14:46.36	8.86	4.63	
2025-01-12 03:14:46.56	8.84	4.64	
2025-01-12 03:14:46.77	8.82	4.65	
2025-01-12 03:14:46.97	8.80	4.67	
2025-01-12 03:14:47.18	8.78	4.68	
2025-01-12 03:14:47.38	8.76	4.69	
2025-01-12 03:14:47.59	8.74	4.70	
2025-01-12 03:14:47.79	8.72	4.71	
2025-01-12 03:14:48.00	8.70	4.73	
2025-01-12 03:14:48.20	8.68	4.74	
2025-01-12 03:14:48.41	8.66	4.75	
2025-01-12 03:14:48.61	8.64	4.76	
2025-01-12 03:14:48.82	8.62	4.78	
2025-01-12 03:14:49.03	8.60	4.79	
2025-01-12 03:14:49.23	8.58	4.80	
2025-01-12 03:14:49.44	8.56	4.81	
2025-01-12 03:14:49.64	8.54	4.83	
2025-01-12 03:14:49.85	8.52	4.84	
2025-01-12 03:14:50.05	8.50	4.85	
2025-01-12 03:14:50.26	8.48	4.86	
2025-01-12 03:14:50.46	8.46	4.88	
2025-01-12 03:14:50.67	8.44	4.89	
2025-01-12 03:14:50.88	8.42	4.90	
2025-01-12 03:14:51.09	8.40	4.91	
2025-01-12 03:14:51.30	8.38	4.93	
2025-01-12 03:14:51.50	8.36	4.94	
2025-01-12 03:14:51.71	8.34	4.95	
2025-01-12 03:14:51.91	8.32	4.96	
2025-01-12 03:14:52.12	8.30	4.98	
2025-01-12 03:14:52.32	8.28	4.99	
2025-01-12 03:14:52.53	8.26	5.00	
2025-01-12 03:14:52.73	8.24	5.01	
2025-01-12 03:14:52.94	8.22	5.03	
2025-01-12 03:14:53.14	8.20	5.04	
2025-01-12 03:14:53.35	8.18	5.05	
2025-01-12 03:14:53.56	8.16	5.06	
2025-01-12 03:14:53.76	8.14	5.08	
2025-01-12 03:14:53.97	8.12	5.09	
2025-01-12 03:14:54.17	8.10	5.10	
2025-01-12 03:14:54.38	8.08	5.11	
2025-01-12 03:14:54.58	8.06	5.13	
2025-01-12 03:14:54.79	8.04	5.14	
2025-01-12 03:14:54.99	8.02	5.15	
2025-01-12 03:14:55.19	8.00	5.16	
2025-01-12 03:14:55.40	7.98	5.18	
2025-01-12 03:14:55.61	7.96	5.19	
2025-01-12 03:14:55.81	7.94	5.20	
2025-01-12 03:14:56.02	7.92	5.21	
2025-01-12 03:14:56.22	7.90	5.23	
2025-01-12 03:14:56.43	7.88	5.24	
2025-01-12 03:14:56.63	7.86	5.25	
2025-01-12 03:14:56.84	7.84	5.26	
2025-01-12 03:14:57.04	7.82	5.28	
2025-01-12 03:14:57.26	7.79	5.29	
2025-01-12 03:14:57.46	7.77	5.30	
2025-01-12 03:14:57.67	7.75	5.32	
2025-01-12 03:14:57.88	7.73	5.33	
2025-01-12 03:14:58.08	7.71	5.34	
2025-01-12 03:14:58.28	7.69	5.35	
2025-01-12 03:14:58.49	7.67	5.37	
2025-01-12 03:14:58.70	7.65	5.38	
2025-01-12 03:14:58.90	7.63	5.39	
2025-01-12 03:14:59.11	7.61	5.40	
2025-01-12 03:14:59.31	7.59	5.42	
2025-01-12 03:14:59.51	7.57	5.43	
2025-01-12 03:14:59.72	7.55	5.44	
2025-01-12 03:14:59.92	7.53	5.45	
2025-01-12 03:15:00.13	7.50	5.47	
2025-01-12 03:15:00.33	7.48	5.48	
2025-01-12 03:15:00.53	7.46	5.49	
2025-01-12 03:15:00.74	7.44	5.50	
2025-01-12 03:15:00.95	7.42	5.52	
2025-01-12 03:15:01.15	7.40	5.53	
2025-01-12 03:15:01.36	7.38	5.54	
2025-01-12 03:15:01.56	7.36	5.55	
2025-01-12 03:15:01.77	7.34	5.57	
2025-01-12 03:15:01.97	7.32	5.58	
2025-01-12 03:15:02.18	7.30	5.59	
2025-01-12 03:15:02.38	7.28	5.60	
2025-01-12 03:15:02.59	7.25	5.62	
2025-01-12 03:15:02.79	7.23	5.63	
2025-01-12 03:15:03.00	7.21	5.64	
2025-01-12 03:15:03.20	7.19	5.66	
2025-01-12 03:15:03.41	7.17	5.67	
2025-01-12 03:15:03.61	7.15	5.68	
2025-01-12 03:15:03.82	7.13	5.69	
2025-01-12 03:15:04.04	7.10	5.71	
2025-01-12 03:15:04.24	7.08	5.72	
2025-01-12 03:15:04.45	7.06	5.73	
2025-01-12 03:15:04.65	7.04	5.74	
2025-01-12 03:15:04.86	7.02	5.76	
2025-01-12 03:15:05.06	7.00	5.77	
2025-01-12 03:15:05.27	6.98	5.78	
2025-01-12 03:15:05.47	6.96	5.80	
2025-01-12 03:15:05.67	6.94	5.81	
2025-01-12 03:15:05.88	6.91	5.82	
2025-01-12 03:15:06.08	6.89	5.83	
2025-01-12 03:15:06.29	6.87	5.85	
2025-01-12 03:15:06.49	6.85	5.86	
2025-01-12 03:15:06.70	6.83	5.87	
2025-01-12 03:15:06.90	6.81	5.88	
2025-01-12 03:15:07.11	6.78	5.90	
2025-01-12 03:15:07.31	6.76	5.91	
2025-01-12 03:15:07.52	6.74	5.92	
2025-01-12 03:15:07.72	6.72	5.93	
2025-01-12 03:15:07.93	6.70	5.95	
2025-01-12 03:15:08.13	6.68	5.96	
2025-01-12 03:15:08.34	6.66	5.97	
2025-01-12 03:15:08.54	6.63	5.99	
2025-01-12 03:15:08.75	6.61	6.00	
2025-01-12 03:15:08.95	6.59	6.01	
2025-01-12 03:15:09.16	6.57	6.02	
2025-01-12 03:15:09.37	6.55	6.04	
2025-01-12 03:15:09.57	6.53	6.05	
2025-01-12 03:15:09.78	6.50	6.06	
2025-01-12 03:15:09.98	6.48	6.08	
2025-01-12 03:15:10.19	6.46	6.09	
2025-01-12 03:15:10.39	6.44	6.10	
2025-01-12 03:15:10.60	6.42	6.11	
2025-01-12 03:15:10.80	6.39	6.13	
2025-01-12 03:15:11.01	6.37	6.14	
2025-01-12 03:15:11.21	6.35	6.15	
2025-01-12 03:15:11.42	6.33	6.16	
2025-01-12 03:15:11.62	6.31	6.18	
2025-01-12 03:15:11.83	6.28	6.19	
2025-01-12 03:15:12.03	6.26	6.20	
2025-01-12 03:15:12.24	6.24	6.22	
2025-01-12 03:15:12.44	6.22	6.23	
2025-01-12 03:15:12.65	6.20	6.24	
2025-01-12 03:15:12.85	6.17	6.25	
2025-01-12 03:15:13.06	6.15	6.27	
2025-01-12 03:15:13.26	6.13	6.28	
2025-01-12 03:15:13.47	6.11	6.29	
2025-01-12 03:15:13.68	6.08	6.31	
2025-01-12 03:15:13.88	6.06	6.32	
2025-01-12 03:15:14.09	6.04	6.33	
2025-01-12 03:15:14.29	6.02	6.34	
2025-01-12 03:15:14.49	6.00	6.36	
2025-01-12 03:15:14.70	5.97	6.37	
2025-01-12 03:15:14.91	5.95	6.38	
2025-01-12 03:15:15.11	5.93	6.40	
2025-01-12 03:15:15.32	5.91	6.41	
2025-01-12 03:15:15.52	5.88	6.42	
2025-01-12 03:15:15.73	5.86	6.43	
2025-01-12 03:15:15.93	5.84	6.45	
2025-01-12 03:15:16.14	5.82	6.46	
2025-01-12 03:15:16.34	5.79	6.47	
2025-01-12 03:15:16.55	5.77	6.49	
2025-01-12 03:15:16.75	5.75	6.50	
2025-01-12 03:15:16.96	5.73	6.51	
2025-01-12 03:15:17.16	5.70	6.52	
2025-01-12 03:15:17.37	5.68	6.54	
2025-01-12 03:15:17.57	5.66	6.55	
2025-01-12 03:15:17.78	5.64	6.56	
2025-01-12 03:15:17.98	5.61	6.58	
2025-01-12 03:15:18.19	5.59	6.59	
2025-01-12 03:15:18.40	5.57	6.60	
2025-01-12 03:15:18.60	5.55	6.61	
2025-01-12 03:15:18.80	5.52	6.63	
2025-01-12 03:15:19.01	5.50	6.64	
2025-01-12 03:15:19.21	5.48	6.65	
2025-01-12 03:15:19.42	5.45	6.67	
2025-01-12 03:15:19.62	5.43	6.68	
2025-01-12 03:15:19.83	5.41	6.69	
2025-01-12 03:15:20.04	5.39	6.70	
2025-01-12 03:15:20.24	5.36	6.72	
2025-01-12 03:15:20.45	5.34	6.73	
2025-01-12 03:15:20.65	5.32	6.74	
2025-01-12 03:15:20.86	5.29	6.76	
2025-01-12 03:15:21.06	5.27	6.77	
2025-01-12 03:15:21.27	5.25	6.78	
2025-01-12 03:15:21.47	5.22	6.79	
2025-01-12 03:15:21.68	5.20	6.81	
2025-01-12 03:15:21.88	5.18	6.82	
2025-01-12 03:15:22.09	5.16	6.83	
2025-01-12 03:15:22.29	5.13	6.85	
2025-01-12 03:15:22.50	5.11	6.86	
2025-01-12 03:15:22.70	5.09	6.87	
2025-01-12 03:15:22.91	5.06	6.89	
2025-01-12 03:15:23.11	5.04	6.90	
2025-01-12 03:15:23.32	5.02	6.91	
2025-01-12 03:15:23.53	4.99	6.92	
2025-01-12 03:15:23.73	4.97	6.94	
2025-01-12 03:15:23.94	4.95	6.95	
2025-01-12 03:15:24.14	4.92	6.96	
2025-01-12 03:15:24.34	4.90	6.98	
2025-01-12 03:15:24.55	4.88	6.99	
2025-01-12 03:15:24.76	4.85	7.00	
2025-01-12 03:15:24.96	4.83	7.02	
2025-01-12 03:15:25.16	4.81	7.03	
2025-01-12 03:15:25.37	4.78	7.04	
2025-01-12 03:15:25.57	4.76	7.05	
2025-01-12 03:15:25.78	4.74	7.07	
2025-01-12 03:15:25.98	4.71	7.08	
2025-01-12 03:15:26.19	4.69	7.09	
2025-01-12 03:15:26.40	4.66	7.11	
2025-01-12 03:15:26.60	4.64	7.12	
2025-01-12 03:15:26.81	4.62	7.13	
2025-01-12 03:15:27.01	4.59	7.14	
2025-01-12 03:15:27.21	4.57	7.16	
2025-01-12 03:15:27.42	4.55	7.17	
2025-01-12 03:15:27.62	4.52	7.18	
2025-01-12 03:15:27.83	4.50	7.20	
2025-01-12 03:15:28.03	4.48	7.21	
2025-01-12 03:15:28.25	4.45	7.22	
2025-01-12 03:15:28.46	4.43	7.24	
2025-01-12 03:15:28.66	4.40	7.25	
2025-01-12 03:15:28.87	4.38	7.26	
2025-01-12 03:15:29.07	4.35	7.28	
2025-01-12 03:15:29.28	4.33	7.29	
2025-01-12 03:15:29.48	4.31	7.30	
2025-01-12 03:15:29.69	4.28	7.32	
2025-01-12 03:15:29.89	4.26	7.33	
2025-01-12 03:15:30.10	4.23	7.34	
2025-01-12 03:15:30.30	4.21	7.35	
2025-01-12 03:15:30.51	4.19	7.37	
2025-01-12 03:15:30.71	4.16	7.38	
2025-01-12 03:15:30.92	4.14	7.39	
2025-01-12 03:15:31.12	4.11	7.41	
2025-01-12 03:15:31.33	4.09	7.42	
2025-01-12 03:15:31.53	4.07	7.43	
2025-01-12 03:15:31.73	4.04	7.45	
2025-01-12 03:15:31.94	4.02	7.46	
2025-01-12 03:15:32.15	3.99	7.47	
2025-01-12 03:15:32.35	3.97	7.48	
2025-01-12 03:15:32.56	3.94	7.50	
2025-01-12 03:15:32.76	3.92	7.51	
2025-01-12 03:15:32.97	3.89	7.52	
2025-01-12 03:15:33.18	3.87	7.54	
2025-01-12 03:15:33.39	3.84	7.55	
2025-01-12 03:15:33.59	3.82	7.56	
2025-01-12 03:15:33.80	3.80	7.58	
2025-01-12 03:15:34.00	3.77	7.59	
2025-01-12 03:15:34.20	3.75	7.60	
2025-01-12 03:15:34.41	3.72	7.62	
2025-01-12 03:15:34.61	3.70	7.63	
2025-01-12 03:15:34.82	3.67	7.64	
2025-01-12 03:15:35.03	3.65	7.66	
2025-01-12 03:15:35.23	3.62	7.67	
2025-01-12 03:15:35.44	3.60	7.68	
2025-01-12 03:15:35.64	3.58	7.69	
2025-01-12 03:15:35.85	3.55	7.71	
2025-01-12 03:15:36.05	3.53	7.72	
2025-01-12 03:15:36.26	3.50	7.73	
2025-01-12 03:15:36.47	3.48	7.75	
2025-01-12 03:15:36.67	3.45	7.76	
2025-01-12 03:15:36.87	3.43	7.77	
2025-01-12 03:15:37.08	3.40	7.79	
2025-01-12 03:15:37.28	3.38	7.80	
2025-01-12 03:15:37.49	3.35	7.81	
2025-01-12 03:15:37.70	3.33	7.83	
2025-01-12 03:15:37.90	3.30	7.84	
2025-01-12 03:15:38.10	3.28	7.85	
2025-01-12 03:15:38.31	3.25	7.87	
2025-01-12 03:15:38.52	3.23	7.88	
2025-01-12 03:15:38.72	3.20	7.89	
2025-01-12 03:15:38.93	3.18	7.91	
2025-01-12 03:15:39.13	3.15	7.92	
2025-01-12 03:15:39.34	3.13	7.93	
2025-01-12 03:15:39.55	3.10	7.95	
2025-01-12 03:15:39.75	3.08	7.96	
2025-01-12 03:15:39.97	3.05	7.97	
2025-01-12 03:15:40.17	3.02	7.99	
2025-01-12 03:15:40.38	3.00	8.00	
2025-01-12 03:15:40.58	2.97	8.01	
2025-01-12 03:15:40.79	2.95	8.03	
2025-01-12 03:15:40.99	2.92	8.04	
2025-01-12 03:15:41.20	2.90	8.05	
2025-01-12 03:15:41.40	2.87	8.06	
2025-01-12 03:15:41.61	2.85	8.08	
2025-01-12 03:15:41.81	2.82	8.09	
2025-01-12 03:15:42.01	2.80	8.10	
2025-01-12 03:15:42.22	2.77	8.12	
2025-01-12 03:15:42.43	2.74	8.13	
2025-01-12 03:15:42.63	2.72	8.14	
2025-01-12 03:15:42.84	2.69	8.16	
2025-01-12 03:15:43.04	2.67	8.17	
2025-01-12 03:15:43.24	2.64	8.18	
2025-01-12 03:15:43.45	2.62	8.20	
2025-01-12 03:15:43.65	2.59	8.21	
2025-01-12 03:15:43.86	2.56	8.22	
2025-01-12 03:15:44.07	2.54	8.24	
2025-01-12 03:15:44.28	2.51	8.25	
2025-01-12 03:15:44.49	2.49	8.26	
2025-01-12 03:15:44.69	2.46	8.28	
2025-01-12 03:15:44.90	2.43	8.29	
2025-01-12 03:15:45.11	2.41	8.30	
2025-01-12 03:15:45.31	2.38	8.32	
2025-01-12 03:15:45.52	2.36	8.33	
2025-01-12 03:15:45.72	2.33	8.34	
2025-01-12 03:15:45.93	2.30	8.36	
2025-01-12 03:15:46.13	2.28	8.37	
2025-01-12 03:15:46.33	2.25	8.38	
2025-01-12 03:15:46.54	2.23	8.40	
2025-01-12 03:15:46.74	2.20	8.41	
2025-01-12 03:15:46.95	2.17	8.42	
2025-01-12 03:15:47.15	2.15	8.44	
2025-01-12 03:15:47.36	2.12	8.45	
2025-01-12 03:15:47.56	2.10	8.46	
2025-01-12 03:15:47.77	2.07	8.48	
2025-01-12 03:15:47.97	2.04	8.49	
2025-01-12 03:15:48.18	2.02	8.50	
2025-01-12 03:15:48.39	1.99	8.52	
2025-01-12 03:15:48.59	1.96	8.53	
2025-01-12 03:15:48.80	1.94	8.54	
2025-01-12 03:15:49.00	1.91	8.56	
2025-01-12 03:15:49.20	1.89	8.57	
2025-01-12 03:15:49.41	1.86	8.58	
2025-01-12 03:15:49.61	1.83	8.60	
2025-01-12 03:15:49.82	1.81	8.61	
2025-01-12 03:15:50.03	1.78	8.62	
2025-01-12 03:15:50.23	1.75	8.64	
2025-01-12 03:15:50.44	1.73	8.65	
2025-01-12 03:15:50.65	1.70	8.66	
2025-01-12 03:15:50.86	1.67	8.68	
2025-01-12 03:15:51.06	1.64	8.69	
2025-01-12 03:15:51.27	1.62	8.70	
2025-01-12 03:15:51.48	1.59	8.72	
2025-01-12 03:15:51.68	1.56	8.73	
2025-01-12 03:15:51.89	1.54	8.74	
2025-01-12 03:15:52.09	1.51	8.76	
2025-01-12 03:15:52.30	1.48	8.77	
2025-01-12 03:15:52.50	1.46	8.78	
2025-01-12 03:15:52.70	1.43	8.80	
2025-01-12 03:15:52.91	1.40	8.81	
2025-01-12 03:15:53.11	1.38	8.82	
2025-01-12 03:15:53.32	1.35	8.84	
2025-01-12 03:15:53.53	1.32	8.85	
2025-01-12 03:15:53.73	1.30	8.86	
2025-01-12 03:15:53.94	1.27	8.88	
2025-01-12 03:15:54.14	1.24	8.89	
2025-01-12 03:15:54.35	1.21	8.90	
2025-01-12 03:15:54.55	1.19	8.92	
2025-01-12 03:15:54.76	1.16	8.93	
2025-01-12 03:15:54.98	1.13	8.94	
2025-01-12 03:15:55.18	1.10	8.96	
2025-01-12 03:15:55.39	1.08	8.97	
2025-01-12 03:15:55.59	1.05	8.98	
2025-01-12 03:15:55.80	1.02	9.00	
2025-01-12 03:15:56.00	0.99	9.01	
2025-01-12 03:15:56.21	0.97	9.02	
2025-01-12 03:15:56.42	0.94	9.04	
2025-01-12 03:15:56.62	0.91	9.05	
2025-01-12 03:15:56.82	0.89	9.06	
2025-01-12 03:15:57.03	0.86	9.08	
2025-01-12 03:15:57.23	0.83	9.09	
2025-01-12 03:15:57.44	0.80	9.10	
2025-01-12 03:15:57.65	0.77	9.12	
2025-01-12 03:15:57.85	0.75	9.13	
2025-01-12 03:15:58.05	0.72	9.14	
2025-01-12 03:15:58.26	0.69	9.16	
2025-01-12 03:15:58.47	0.66	9.17	
2025-01-12 03:15:58.67	0.64	9.18	
2025-01-12 03:15:58.88	0.61	9.20	
2025-01-12 03:15:59.08	0.58	9.21	
2025-01-12 03:15:59.29	0.55	9.23	
2025-01-12 03:15:59.49	0.53	9.24	
2025-01-12 03:15:59.70	0.50	9.25	
2025-01-12 03:15:59.90	0.47	9.27	
2025-01-12 03:16:00.11	0.44	9.28	
2025-01-12 03:16:00.31	0.41	9.29	
2025-01-12 03:16:00.53	0.38	9.31	
2025-01-12 03:16:00.73	0.36	9.32	
2025-01-12 03:16:00.94	0.33	9.33	
2025-01-12 03:16:01.14	0.30	9.35	
2025-01-12 03:16:01.35	0.27	9.36	
2025-01-12 03:16:01.55	0.24	9.37	
2025-01-12 03:16:01.76	0.22	9.39	
2025-01-12 03:16:01.96	0.19	9.40	
2025-01-12 03:16:02.17	0.16	9.41	
2025-01-12 03:16:02.37	0.13	9.43	
2025-01-12 03:16:02.58	0.10	9.44	
2025-01-12 03:16:02.78	0.08	9.45	
2025-01-12 03:16:02.99	0.05	9.47	
2025-01-12 03:16:03.19	0.02	9.48	
2025-01-12 03:16:03.40	359.99	9.49	
2025-01-12 03:16:03.60	359.96	9.51	
2025-01-12 03:16:03.81	359.93	9.52	
2025-01-12 03:16:04.02	359.90	9.53	
2025-01-12 03:16:04.22	359.88	9.55	
2025-01-12 03:16:04.43	359.85	9.56	
2025-01-12 03:16:04.63	359.82	9.57	
2025-01-12 03:16:04.84	359.79	9.59	
2025-01-12 03:16:05.04	359.76	9.60	
2025-01-12 03:16:05.25	359.73	9.62	
2025-01-12 03:16:05.46	359.70	9.63	
2025-01-12 03:16:05.66	359.68	9.64	
2025-01-12 03:16:05.86	359.65	9.66	
2025-01-12 03:16:06.07	359.62	9.67	
2025-01-12 03:16:06.28	359.59	9.68	
2025-01-12 03:16:06.48	359.56	9.70	
2025-01-12 03:16:06.70	359.53	9.71	
2025-01-12 03:16:06.91	359.50	9.72	
2025-01-12 03:16:07.11	359.47	9.74	
2025-01-12 03:16:07.32	359.44	9.75	
2025-01-12 03:16:07.53	359.41	9.76	
2025-01-12 03:16:07.73	359.39	9.78	
2025-01-12 03:16:07.94	359.36	9.79	
2025-01-12 03:16:08.14	359.33	9.81	
2025-01-12 03:16:08.35	359.30	9.82	
2025-01-12 03:16:08.56	359.27	9.83	
2025-01-12 03:16:08.76	359.24	9.85	
2025-01-12 03:16:08.96	359.21	9.86	
2025-01-12 03:16:09.17	359.18	9.87	
2025-01-12 03:16:09.38	359.15	9.89	
2025-01-12 03:16:09.58	359.12	9.90	
2025-01-12 03:16:09.79	359.09	9.91	
2025-01-12 03:16:09.99	359.06	9.93	
2025-01-12 03:16:10.20	359.03	9.94	
2025-01-12 03:16:10.41	359.00	9.95	
2025-01-12 03:16:10.61	358.98	9.97	
2025-01-12 03:16:10.82	358.95	9.98	
2025-01-12 03:16:11.02	358.92	9.99	
2025-01-12 03:16:11.22	358.89	10.01	
2025-01-12 03:16:11.43	358.86	10.02	
2025-01-12 03:16:11.64	358.83	10.04	
2025-01-12 03:16:11.84	358.80	10.05	
2025-01-12 03:16:12.05	358.77	10.06	
2025-01-12 03:16:12.25	358.74	10.08	
2025-01-12 03:16:12.46	358.71	10.09	
2025-01-12 03:16:12.66	358.68	10.10	
2025-01-12 03:16:12.87	358.65	10.12	
2025-01-12 03:16:13.07	358.62	10.13	
2025-01-12 03:16:13.28	358.59	10.14	
2025-01-12 03:16:13.48	358.56	10.16	
2025-01-12 03:16:13.69	358.53	10.17	
2025-01-12 03:16:13.89	358.50	10.18	
2025-01-12 03:16:14.10	358.47	10.20	
2025-01-12 03:16:14.30	358.44	10.21	
2025-01-12 03:16:14.51	358.41	10.22	
2025-01-12 03:16:14.71	358.38	10.24	
2025-01-12 03:16:14.92	358.35	10.25	
2025-01-12 03:16:15.12	358.32	10.26	
2025-01-12 03:16:15.33	358.29	10.28	
2025-01-12 03:16:15.53	358.26	10.29	
2025-01-12 03:16:15.74	358.23	10.30	
2025-01-12 03:16:15.94	358.20	10.32	
2025-01-12 03:16:16.15	358.17	10.33	
2025-01-12 03:16:16.35	358.14	10.35	
2025-01-12 03:16:16.56	358.11	10.36	
2025-01-12 03:16:16.77	358.08	10.37	
2025-01-12 03:16:16.97	358.05	10.39	
2025-01-12 03:16:17.18	358.02	10.40	
2025-01-12 03:16:17.38	357.99	10.41	
2025-01-12 03:16:17.58	357.96	10.43	
2025-01-12 03:16:17.79	357.93	10.44	
2025-01-12 03:16:17.99	357.90	10.45	
2025-01-12 03:16:18.20	357.87	10.47	
2025-01-12 03:16:18.40	357.84	10.48	
2025-01-12 03:16:18.61	357.81	10.49	
2025-01-12 03:16:18.81	357.78	10.51	
2025-01-12 03:16:19.02	357.75	10.52	
2025-01-12 03:16:19.23	357.71	10.53	
2025-01-12 03:16:19.43	357.68	10.55	
2025-01-12 03:16:19.64	357.65	10.56	
2025-01-12 03:16:19.84	357.62	10.58	
2025-01-12 03:16:20.05	357.59	10.59	
2025-01-12 03:16:20.25	357.56	10.60	
2025-01-12 03:16:20.46	357.53	10.62	
2025-01-12 03:16:20.66	357.50	10.63	
2025-01-12 03:16:20.87	357.47	10.64	
2025-01-12 03:16:21.07	357.44	10.66	
2025-01-12 03:16:21.28	357.41	10.67	
2025-01-12 03:16:21.49	357.37	10.68	
2025-01-12 03:16:21.69	357.34	10.70	
2025-01-12 03:16:21.89	357.31	10.71	
2025-01-12 03:16:22.10	357.28	10.72	
2025-01-12 03:16:22.31	357.25	10.74	
2025-01-12 03:16:22.51	357.22	10.75	
2025-01-12 03:16:22.72	357.19	10.77	
2025-01-12 03:16:22.92	357.16	10.78	
2025-01-12 03:16:23.13	357.13	10.79	
2025-01-12 03:16:23.33	357.09	10.81	
2025-01-12 03:16:23.54	357.06	10.82	
2025-01-12 03:16:23.74	357.03	10.83	
2025-01-12 03:16:23.95	357.00	10.85	
2025-01-12 03:16:24.15	356.97	10.86	
2025-01-12 03:16:24.36	356.94	10.87	
2025-01-12 03:16:24.56	356.91	10.89	
2025-01-12 03:16:24.77	356.87	10.90	
2025-01-12 03:16:24.98	356.84	10.91	
2025-01-12 03:16:25.18	356.81	10.93	
2025-01-12 03:16:25.39	356.78	10.94	
2025-01-12 03:16:25.59	356.75	10.95	
2025-01-12 03:16:25.80	356.72	10.97	
2025-01-12 03:16:26.00	356.68	10.98	
2025-01-12 03:16:26.21	356.65	11.00	
2025-01-12 03:16:26.41	356.62	11.01	
2025-01-12 03:16:26.62	356.59	11.02	
2025-01-12 03:16:26.83	356.56	11.04	
2025-01-12 03:16:27.03	356.52	11.05	
2025-01-12 03:16:27.23	356.49	11.06	
2025-01-12 03:16:27.44	356.46	11.08	
2025-01-12 03:16:27.64	356.43	11.09	
2025-01-12 03:16:27.85	356.40	11.10	
2025-01-12 03:16:28.06	356.36	11.12	
2025-01-12 03:16:28.27	356.33	11.13	
2025-01-12 03:16:28.47	356.30	11.14	
2025-01-12 03:16:28.68	356.27	11.16	
2025-01-12 03:16:28.88	356.24	11.17	
2025-01-12 03:16:29.08	356.20	11.19	
2025-01-12 03:16:29.29	356.17	11.20	
2025-01-12 03:16:29.50	356.14	11.21	
2025-01-12 03:16:29.70	356.11	11.23	
2025-01-12 03:16:29.91	356.07	11.24	
2025-01-12 03:16:30.11	356.04	11.25	
2025-01-12 03:16:30.32	356.01	11.27	
2025-01-12 03:16:30.52	355.98	11.28	
2025-01-12 03:16:30.73	355.94	11.29	
2025-01-12 03:16:30.93	355.91	11.31	
2025-01-12 03:16:31.14	355.88	11.32	
2025-01-12 03:16:31.36	355.84	11.34	
2025-01-12 03:16:31.56	355.81	11.35	
2025-01-12 03:16:31.77	355.78	11.36	
2025-01-12 03:16:31.97	355.75	11.38	
2025-01-12 03:16:32.18	355.71	11.39	
2025-01-12 03:16:32.38	355.68	11.40	
2025-01-12 03:16:32.59	355.65	11.42	
2025-01-12 03:16:32.79	355.62	11.43	
2025-01-12 03:16:33.00	355.58	11.44	
2025-01-12 03:16:33.20	355.55	11.46	
2025-01-12 03:16:33.41	355.52	11.47	
2025-01-12 03:16:33.61	355.48	11.48	
2025-01-12 03:16:33.82	355.45	11.50	
2025-01-12 03:16:34.02	355.42	11.51	
2025-01-12 03:16:34.23	355.39	11.52	
2025-01-12 03:16:34.43	355.35	11.54	
2025-01-12 03:16:34.64	355.32	11.55	
2025-01-12 03:16:34.84	355.29	11.57	
2025-01-12 03:16:35.05	355.25	11.58	
2025-01-12 03:16:35.25	355.22	11.59	
2025-01-12 03:16:35.46	355.19	11.61	
2025-01-12 03:16:35.66	355.15	11.62	
2025-01-12 03:16:35.87	355.12	11.63	
2025-01-12 03:16:36.07	355.09	11.65	
2025-01-12 03:16:36.28	355.05	11.66	
2025-01-12 03:16:36.49	355.02	11.67	
2025-01-12 03:16:36.70	354.98	11.69	
2025-01-12 03:16:36.91	354.95	11.70	
2025-01-12 03:16:37.12	354.92	11.72	
2025-01-12 03:16:37.32	354.88	11.73	
2025-01-12 03:16:37.53	354.85	11.74	
2025-01-12 03:16:37.73	354.82	11.76	
2025-01-12 03:16:37.94	354.78	11.77	
2025-01-12 03:16:38.14	354.75	11.78	
2025-01-12 03:16:38.35	354.71	11.80	
2025-01-12 03:16:38.55	354.68	11.81	
2025-01-12 03:16:38.77	354.65	11.82	
2025-01-12 03:16:38.98	354.61	11.84	
2025-01-12 03:16:39.18	354.58	11.85	
2025-01-12 03:16:39.39	354.54	11.87	
2025-01-12 03:16:39.60	354.51	11.88	
2025-01-12 03:16:39.80	354.48	11.89	
2025-01-12 03:16:40.00	354.44	11.91	
2025-01-12 03:16:40.21	354.41	11.92	
2025-01-12 03:16:40.42	354.37	11.93	
2025-01-12 03:16:40.62	354.34	11.95	
2025-01-12 03:16:40.83	354.30	11.96	
2025-01-12 03:16:41.03	354.27	11.97	
2025-01-12 03:16:41.24	354.24	11.99	
2025-01-12 03:16:41.44	354.20	12.00	
2025-01-12 03:16:41.65	354.17	12.01	
2025-01-12 03:16:41.85	354.13	12.03	
2025-01-12 03:16:42.06	354.10	12.04	
2025-01-12 03:16:42.26	354.07	12.05	
2025-01-12 03:16:42.47	354.03	12.07	
2025-01-12 03:16:42.67	354.00	12.08	
2025-01-12 03:16:42.88	353.96	12.09	
2025-01-12 03:16:43.08	353.93	12.11	
2025-01-12 03:16:43.29	353.89	12.12	
2025-01-12 03:16:43.50	353.86	12.14	
2025-01-12 03:16:43.70	353.82	12.15	
2025-01-12 03:16:43.91	353.79	12.16	
2025-01-12 03:16:44.11	353.75	12.18	
2025-01-12 03:16:44.32	353.72	12.19	
2025-01-12 03:16:44.52	353.69	12.20	
2025-01-12 03:16:44.73	353.65	12.22	
2025-01-12 03:16:44.93	353.62	12.23	
2025-01-12 03:16:45.14	353.58	12.24	
2025-01-12 03:16:45.34	353.55	12.26	
2025-01-12 03:16:45.55	353.51	12.27	
2025-01-12 03:16:45.75	353.48	12.28	
2025-01-12 03:16:45.96	353.44	12.30	
2025-01-12 03:16:46.17	353.40	12.31	
2025-01-12 03:16:46.37	353.37	12.32	
2025-01-12 03:16:46.58	353.33	12.34	
2025-01-12 03:16:46.78	353.30	12.35	
2025-01-12 03:16:46.99	353.26	12.36	
2025-01-12 03:16:47.19	353.23	12.38	
2025-01-12 03:16:47.40	353.19	12.39	
2025-01-12 03:16:47.60	353.16	12.40	
2025-01-12 03:16:47.81	353.12	12.42	
2025-01-12 03:16:48.02	353.09	12.43	
2025-01-12 03:16:48.22	353.05	12.45	
2025-01-12 03:16:48.43	353.02	12.46	
2025-01-12 03:16:48.63	352.98	12.47	
2025-01-12 03:16:48.84	352.95	12.49	
2025-01-12 03:16:49.04	352.91	12.50	
2025-01-12 03:16:49.25	352.87	12.51	
2025-01-12 03:16:49.45	352.84	12.53	
2025-01-12 03:16:49.66	352.80	12.54	
2025-01-12 03:16:49.87	352.77	12.55	
2025-01-12 03:16:50.07	352.73	12.57	
2025-01-12 03:16:50.28	352.70	12.58	
2025-01-12 03:16:50.48	352.66	12.59	
2025-01-12 03:16:50.69	352.62	12.61	
2025-01-12 03:16:50.89	352.59	12.62	
2025-01-12 03:16:51.10	352.55	12.63	
2025-01-12 03:16:51.30	352.52	12.65	
2025-01-12 03:16:51.51	352.48	12.66	
2025-01-12 03:16:51.71	352.45	12.67	
2025-01-12 03:16:51.92	352.41	12.69	
2025-01-12 03:16:52.12	352.37	12.70	
2025-01-12 03:16:52.33	352.34	12.71	
2025-01-12 03:16:52.53	352.30	12.73	
2025-01-12 03:16:52.74	352.26	12.74	
2025-01-12 03:16:52.94	352.23	12.75	
2025-01-12 03:16:53.15	352.19	12.77	
2025-01-12 03:16:53.35	352.16	12.78	
2025-01-12 03:16:53.56	352.12	12.80	
2025-01-12 03:16:53.76	352.08	12.81	
2025-01-12 03:16:53.97	352.05	12.82	
2025-01-12 03:16:54.17	352.01	12.83	
2025-01-12 03:16:54.39	351.97	12.85	
2025-01-12 03:16:54.60	351.93	12.86	
2025-01-12 03:16:54.80	351.90	12.88	
2025-01-12 03:16:55.01	351.86	12.89	
2025-01-12 03:16:55.21	351.83	12.90	
2025-01-12 03:16:55.42	351.79	12.92	
2025-01-12 03:16:55.62	351.75	12.93	
2025-01-12 03:16:55.82	351.72	12.94	
2025-01-12 03:16:56.03	351.68	12.96	
2025-01-12 03:16:56.24	351.64	12.97	
2025-01-12 03:16:56.44	351.61	12.98	
2025-01-12 03:16:56.65	351.57	13.00	
2025-01-12 03:16:56.85	351.53	13.01	
2025-01-12 03:16:57.05	351.50	13.02	
2025-01-12 03:16:57.26	351.46	13.04	
2025-01-12 03:16:57.47	351.42	13.05	
2025-01-12 03:16:57.67	351.38	13.06	
2025-01-12 03:16:57.88	351.35	13.08	
2025-01-12 03:16:58.08	351.31	13.09	
2025-01-12 03:16:58.29	351.27	13.10	
2025-01-12 03:16:58.50	351.23	13.12	
2025-01-12 03:16:58.70	351.20	13.13	
2025-01-12 03:16:58.90	351.16	13.14	
2025-01-12 03:16:59.11	351.12	13.16	
2025-01-12 03:16:59.31	351.09	13.17	
2025-01-12 03:16:59.52	351.05	13.18	
2025-01-12 03:16:59.72	351.01	13.20	
2025-01-12 03:16:59.93	350.97	13.21	
2025-01-12 03:17:00.15	350.93	13.22	
2025-01-12 03:17:00.35	350.90	13.24	
2025-01-12 03:17:00.56	350.86	13.25	
2025-01-12 03:17:00.76	350.82	13.26	
2025-01-12 03:17:00.97	350.78	13.28	
2025-01-12 03:17:01.17	350.75	13.29	
2025-01-12 03:17:01.38	350.71	13.30	
2025-01-12 03:17:01.58	350.67	13.32	
2025-01-12 03:17:01.79	350.63	13.33	
2025-01-12 03:17:01.99	350.60	13.34	
2025-01-12 03:17:02.20	350.56	13.36	
2025-01-12 03:17:02.40	350.52	13.37	
2025-01-12 03:17:02.61	350.48	13.38	
2025-01-12 03:17:02.81	350.44	13.40	
2025-01-12 03:17:03.02	350.41	13.41	
2025-01-12 03:17:03.22	350.37	13.42	
2025-01-12 03:17:03.43	350.33	13.44	
2025-01-12 03:17:03.63	350.29	13.45	
2025-01-12 03:17:03.84	350.25	13.46	
2025-01-12 03:17:04.05	350.21	13.48	
2025-01-12 03:17:04.25	350.18	13.49	
2025-01-12 03:17:04.46	350.14	13.50	
2025-01-12 03:17:04.66	350.10	13.51	
2025-01-12 03:17:04.87	350.06	13.53	
2025-01-12 03:17:05.07	350.02	13.54	
2025-01-12 03:17:05.28	349.98	13.55	
2025-01-12 03:17:05.48	349.95	13.57	
2025-01-12 03:17:05.68	349.91	13.58	
2025-01-12 03:17:05.89	349.87	13.59	
2025-01-12 03:17:06.10	349.83	13.61	
2025-01-12 03:17:06.30	349.79	13.62	
2025-01-12 03:17:06.50	349.76	13.63	
2025-01-12 03:17:06.71	349.72	13.65	
2025-01-12 03:17:06.93	349.67	13.66	
2025-01-12 03:17:07.13	349.64	13.67	
2025-01-12 03:17:07.34	349.60	13.69	
2025-01-12 03:17:07.55	349.56	13.70	
2025-01-12 03:17:07.76	349.52	13.71	
2025-01-12 03:17:07.97	349.48	13.73	
2025-01-12 03:17:08.17	349.44	13.74	
2025-01-12 03:17:08.38	349.40	13.75	
2025-01-12 03:17:08.58	349.36	13.77	
2025-01-12 03:17:08.79	349.32	13.78	
2025-01-12 03:17:08.99	349.28	13.79	
2025-01-12 03:17:09.20	349.24	13.81	
2025-01-12 03:17:09.40	349.21	13.82	
2025-01-12 03:17:09.61	349.17	13.83	
2025-01-12 03:17:09.81	349.13	13.85	
2025-01-12 03:17:10.02	349.09	13.86	
2025-01-12 03:17:10.22	349.05	13.87	
2025-01-12 03:17:10.43	349.01	13.88	
2025-01-12 03:17:10.63	348.97	13.90	
2025-01-12 03:17:10.84	348.93	13.91	
2025-01-12 03:17:11.04	348.89	13.92	
2025-01-12 03:17:11.25	348.85	13.94	
2025-01-12 03:17:11.45	348.81	13.95	
2025-01-12 03:17:11.66	348.77	13.96	
2025-01-12 03:17:11.86	348.73	13.98	
2025-01-12 03:17:12.07	348.69	13.99	
2025-01-12 03:17:12.28	348.65	14.00	
2025-01-12 03:17:12.48	348.61	14.01	
2025-01-12 03:17:12.69	348.57	14.03	
2025-01-12 03:17:12.89	348.53	14.04	
2025-01-12 03:17:13.09	348.49	14.05	
2025-01-12 03:17:13.30	348.45	14.07	
2025-01-12 03:17:13.51	348.41	14.08	
2025-01-12 03:17:13.71	348.37	14.09	
2025-01-12 03:17:13.91	348.34	14.11	
2025-01-12 03:17:14.12	348.29	14.12	
2025-01-12 03:17:14.33	348.25	14.13	
2025-01-12 03:17:14.53	348.21	14.14	
2025-01-12 03:17:14.74	348.17	14.16	
2025-01-12 03:17:14.95	348.13	14.17	
2025-01-12 03:17:15.16	348.09	14.18	
2025-01-12 03:17:15.37	348.05	14.20	
2025-01-12 03:17:15.57	348.01	14.21	
2025-01-12 03:17:15.78	347.97	14.22	
2025-01-12 03:17:15.98	347.93	14.24	
2025-01-12 03:17:16.19	347.89	14.25	
2025-01-12 03:17:16.39	347.85	14.26	
2025-01-12 03:17:16.60	347.81	14.28	
2025-01-12 03:17:16.80	347.77	14.29	
2025-01-12 03:17:17.01	347.73	14.30	
2025-01-12 03:17:17.21	347.69	14.31	
2025-01-12 03:17:17.42	347.65	14.33	
2025-01-12 03:17:17.62	347.61	14.34	
2025-01-12 03:17:17.83	347.56	14.35	
2025-01-12 03:17:18.03	347.52	14.37	
2025-01-12 03:17:18.25	347.48	14.38	
2025-01-12 03:17:18.46	347.44	14.39	
2025-01-12 03:17:18.66	347.40	14.40	
2025-01-12 03:17:18.87	347.36	14.42	
2025-01-12 03:17:19.07	347.32	14.43	
2025-01-12 03:17:19.28	347.28	14.44	
2025-01-12 03:17:19.48	347.24	14.46	
2025-01-12 03:17:19.69	347.19	14.47	
2025-01-12 03:17:19.89	347.15	14.48	
2025-01-12 03:17:20.10	347.11	14.49	
2025-01-12 03:17:20.30	347.07	14.51	
2025-01-12 03:17:20.51	347.03	14.52	
2025-01-12 03:17:20.72	346.99	14.53	
2025-01-12 03:17:20.92	346.95	14.55	
2025-01-12 03:17:21.13	346.90	14.56	
2025-01-12 03:17:21.33	346.86	14.57	
2025-01-12 03:17:21.54	346.82	14.58	
2025-01-12 03:17:21.75	346.78	14.60	
2025-01-12 03:17:21.95	346.74	14.61	
2025-01-12 03:17:22.16	346.70	14.62	
2025-01-12 03:17:22.36	346.66	14.64	
2025-01-12 03:17:22.57	346.61	14.65	
2025-01-12 03:17:22.77	346.57	14.66	
2025-01-12 03:17:22.98	346.53	14.67	
2025-01-12 03:17:23.19	346.49	14.69	
2025-01-12 03:17:23.39	346.45	14.70	
2025-01-12 03:17:23.60	346.40	14.71	
2025-01-12 03:17:23.80	346.36	14.72	
2025-01-12 03:17:24.01	346.32	14.74	
2025-01-12 03:17:24.21	346.28	14.75	
2025-01-12 03:17:24.42	346.24	14.76	
2025-01-12 03:17:24.62	346.19	14.78	
2025-01-12 03:17:24.83	346.15	14.79	
2025-01-12 03:17:25.03	346.11	14.80	
2025-01-12 03:17:25.24	346.07	14.81	
2025-01-12 03:17:25.44	346.03	14.83	
2025-01-12 03:17:25.65	345.98	14.84	
2025-01-12 03:17:25.85	345.94	14.85	
2025-01-12 03:17:26.06	345.90	14.86	
2025-01-12 03:17:26.26	345.86	14.88	
2025-01-12 03:17:26.47	345.81	14.89	
2025-01-12 03:17:26.67	345.77	14.90	
2025-01-12 03:17:26.88	345.73	14.91	
2025-01-12 03:17:27.08	345.69	14.93	
2025-01-12 03:17:27.29	345.64	14.94	
2025-01-12 03:17:27.50	345.60	14.95	
2025-01-12 03:17:27.70	345.56	14.96	
2025-01-12 03:17:27.91	345.52	14.98	
2025-01-12 03:17:28.11	345.47	14.99	
2025-01-12 03:17:28.32	345.43	15.00	
2025-01-12 03:17:28.52	345.39	15.01	
2025-01-12 03:17:28.73	345.35	15.03	
2025-01-12 03:17:28.93	345.30	15.04	
2025-01-12 03:17:29.14	345.26	15.05	
2025-01-12 03:17:29.34	345.22	15.06	
2025-01-12 03:17:29.55	345.17	15.08	
2025-01-12 03:17:29.75	345.13	15.09	
2025-01-12 03:17:29.97	345.09	15.10	
2025-01-12 03:17:30.18	345.04	15.12	
2025-01-12 03:17:30.38	345.00	15.13	
2025-01-12 03:17:30.59	344.96	15.14	
2025-01-12 03:17:30.79	344.91	15.15	
2025-01-12 03:17:30.99	344.87	15.16	
2025-01-12 03:17:31.20	344.83	15.18	
2025-01-12 03:17:31.41	344.78	15.19	
2025-01-12 03:17:31.61	344.74	15.20	
2025-01-12 03:17:31.82	344.70	15.21	
2025-01-12 03:17:32.02	344.65	15.23	
2025-01-12 03:17:32.23	344.61	15.24	
2025-01-12 03:17:32.43	344.57	15.25	
2025-01-12 03:17:32.64	344.52	15.26	
2025-01-12 03:17:32.84	344.48	15.28	
2025-01-12 03:17:33.05	344.44	15.29	
2025-01-12 03:17:33.25	344.39	15.30	
2025-01-12 03:17:33.46	344.35	15.31	
2025-01-12 03:17:33.66	344.31	15.32	
2025-01-12 03:17:33.87	344.26	15.34	
2025-01-12 03:17:34.08	344.22	15.35	
2025-01-12 03:17:34.28	344.17	15.36	
2025-01-12 03:17:34.49	344.13	15.37	
2025-01-12 03:17:34.69	344.09	15.39	
2025-01-12 03:17:34.90	344.04	15.40	
2025-01-12 03:17:35.11	344.00	15.41	
2025-01-12 03:17:35.31	343.95	15.42	
2025-01-12 03:17:35.52	343.91	15.44	
2025-01-12 03:17:35.73	343.86	15.45	
2025-01-12 03:17:35.93	343.82	15.46	
2025-01-12 03:17:36.14	343.77	15.47	
2025-01-12 03:17:36.34	343.73	15.48	
2025-01-12 03:17:36.55	343.69	15.50	
2025-01-12 03:17:36.76	343.64	15.51	
2025-01-12 03:17:36.96	343.60	15.52	
2025-01-12 03:17:37.17	343.55	15.53	
2025-01-12 03:17:37.37	343.51	15.55	
2025-01-12 03:17:37.58	343.46	15.56	
2025-01-12 03:17:37.78	343.42	15.57	
2025-01-12 03:17:38.00	343.37	15.58	
2025-01-12 03:17:38.20	343.33	15.59	
2025-01-12 03:17:38.41	343.28	15.61	
2025-01-12 03:17:38.61	343.24	15.62	
2025-01-12 03:17:38.82	343.19	15.63	
2025-01-12 03:17:39.03	343.15	15.64	
2025-01-12 03:17:39.23	343.10	15.65	
2025-01-12 03:17:39.44	343.06	15.67	
2025-01-12 03:17:39.64	343.02	15.68	
2025-01-12 03:17:39.85	342.97	15.69	
2025-01-12 03:17:40.05	342.93	15.70	
2025-01-12 03:17:40.25	342.88	15.71	
2025-01-12 03:17:40.46	342.84	15.73	
2025-01-12 03:17:40.66	342.79	15.74	
2025-01-12 03:17:40.87	342.75	15.75	
2025-01-12 03:17:41.08	342.70	15.76	
2025-01-12 03:17:41.28	342.66	15.77	
2025-01-12 03:17:41.48	342.61	15.79	
2025-01-12 03:17:41.69	342.56	15.80	
2025-01-12 03:17:41.89	342.52	15.81	
2025-01-12 03:17:42.10	342.47	15.82	
2025-01-12 03:17:42.30	342.43	15.83	
2025-01-12 03:17:42.51	342.38	15.85	
2025-01-12 03:17:42.71	342.34	15.86	
2025-01-12 03:17:42.92	342.29	15.87	
2025-01-12 03:17:43.12	342.25	15.88	
2025-01-12 03:17:43.33	342.20	15.89	
2025-01-12 03:17:43.54	342.16	15.90	
2025-01-12 03:17:43.74	342.11	15.92	
2025-01-12 03:17:43.95	342.06	15.93	
2025-01-12 03:17:44.15	342.02	15.94	
2025-01-12 03:17:44.36	341.97	15.95	
2025-01-12 03:17:44.56	341.93	15.96	
2025-01-12 03:17:44.77	341.88	15.98	
2025-01-12 03:17:44.97	341.84	15.99	
2025-01-12 03:17:45.18	341.79	16.00	
2025-01-12 03:17:45.38	341.74	16.01	
2025-01-12 03:17:45.59	341.70	16.02	
2025-01-12 03:17:45.79	341.65	16.03	
2025-01-12 03:17:46.00	341.61	16.05	
2025-01-12 03:17:46.20	341.56	16.06	
2025-01-12 03:17:46.41	341.51	16.07	
2025-01-12 03:17:46.61	341.47	16.08	
2025-01-12 03:17:46.82	341.42	16.09	
2025-01-12 03:17:47.02	341.38	16.10	
2025-01-12 03:17:47.23	341.33	16.12	
2025-01-12 03:17:47.43	341.28	16.13	
2025-01-12 03:17:47.64	341.24	16.14	
2025-01-12 03:17:47.84	341.19	16.15	
2025-01-12 03:17:48.05	341.14	16.16	
2025-01-12 03:17:48.26	341.10	16.17	
2025-01-12 03:17:48.46	341.05	16.18	
2025-01-12 03:17:48.67	341.00	16.20	
2025-01-12 03:17:48.87	340.96	16.21	
2025-01-12 03:17:49.07	340.91	16.22	
2025-01-12 03:17:49.28	340.86	16.23	
2025-01-12 03:17:49.49	340.82	16.24	
2025-01-12 03:17:49.69	340.77	16.25	
2025-01-12 03:17:49.90	340.72	16.26	
2025-01-12 03:17:50.10	340.68	16.28	
2025-01-12 03:17:50.31	340.63	16.29	
2025-01-12 03:17:50.51	340.58	16.30	
2025-01-12 03:17:50.72	340.54	16.31	
2025-01-12 03:17:50.92	340.49	16.32	
2025-01-12 03:17:51.13	340.44	16.33	
2025-01-12 03:17:51.33	340.40	16.34	
2025-01-12 03:17:51.54	340.35	16.36	
2025-01-12 03:17:51.74	340.30	16.37	
2025-01-12 03:17:51.95	340.25	16.38	
2025-01-12 03:17:52.16	340.21	16.39	
2025-01-12 03:17:52.36	340.16	16.40	
2025-01-12 03:17:52.56	340.11	16.41	
2025-01-12 03:17:52.77	340.07	16.42	
2025-01-12 03:17:52.97	340.02	16.43	
2025-01-12 03:17:53.18	339.97	16.45	
2025-01-12 03:17:53.38	339.92	16.46	
2025-01-12 03:17:53.59	339.88	16.47	
2025-01-12 03:17:53.79	339.83	16.48	
2025-01-12 03:17:54.00	339.78	16.49	
2025-01-12 03:17:54.21	339.73	16.50	
2025-01-12 03:17:54.41	339.69	16.51	
2025-01-12 03:17:54.62	339.64	16.52	
2025-01-12 03:17:54.82	339.59	16.53	
2025-01-12 03:17:55.03	339.54	16.55	
2025-01-12 03:17:55.23	339.49	16.56	
2025-01-12 03:17:55.44	339.45	16.57	
2025-01-12 03:17:55.64	339.40	16.58	
2025-01-12 03:17:55.85	339.35	16.59	
2025-01-12 03:17:56.06	339.30	16.60	
2025-01-12 03:17:56.26	339.25	16.61	
2025-01-12 03:17:56.47	339.21	16.62	
2025-01-12 03:17:56.67	339.16	16.63	
2025-01-12 03:17:56.88	339.11	16.65	
2025-01-12 03:17:57.08	339.06	16.66	
2025-01-12 03:17:57.29	339.01	16.67	
2025-01-12 03:17:57.49	338.97	16.68	
2025-01-12 03:17:57.70	338.92	16.69	
2025-01-12 03:17:57.90	338.87	16.70	
2025-01-12 03:17:58.11	338.82	16.71	
2025-01-12 03:17:58.32	338.77	16.72	
2025-01-12 03:17:58.52	338.72	16.73	
2025-01-12 03:17:58.72	338.68	16.74	
2025-01-12 03:17:58.93	338.63	16.75	
2025-01-12 03:17:59.14	338.58	16.77	
2025-01-12 03:17:59.34	338.53	16.78	
2025-01-12 03:17:59.55	338.48	16.79	
2025-01-12 03:17:59.75	338.43	16.80	
2025-01-12 03:17:59.96	338.38	16.81	
2025-01-12 03:18:00.16	338.34	16.82	
2025-01-12 03:18:00.37	338.29	16.83	
2025-01-12 03:18:00.57	338.24	16.84	
2025-01-12 03:18:00.78	338.19	16.85	
2025-01-12 03:18:00.98	338.14	16.86	
2025-01-12 03:18:01.19	338.09	16.87	
2025-01-12 03:18:01.39	338.04	16.88	
2025-01-12 03:18:01.60	337.99	16.89	
2025-01-12 03:18:01.81	337.94	16.91	
2025-01-12 03:18:02.01	337.90	16.92	
2025-01-12 03:18:02.21	337.85	16.93	
2025-01-12 03:18:02.42	337.80	16.94	
2025-01-12 03:18:02.62	337.75	16.95	
2025-01-12 03:18:02.83	337.70	16.96	
2025-01-12 03:18:03.03	337.65	16.97	
2025-01-12 03:18:03.24	337.60	16.98	
2025-01-12 03:18:03.44	337.55	16.99	
2025-01-12 03:18:03.65	337.50	17.00	
2025-01-12 03:18:03.86	337.45	17.01	
2025-01-12 03:18:04.06	337.40	17.02	
2025-01-12 03:18:04.26	337.36	17.03	
2025-01-12 03:18:04.47	337.30	17.04	
2025-01-12 03:18:04.67	337.26	17.05	
2025-01-12 03:18:04.88	337.21	17.06	
2025-01-12 03:18:05.08	337.16	17.07	
2025-01-12 03:18:05.29	337.11	17.08	
2025-01-12 03:18:05.50	337.06	17.09	
2025-01-12 03:18:05.70	337.01	17.10	
2025-01-12 03:18:05.91	336.96	17.11	
2025-01-12 03:18:06.11	336.91	17.12	
2025-01-12 03:18:06.32	336.86	17.13	
2025-01-12 03:18:06.53	336.81	17.15	
2025-01-12 03:18:06.74	336.76	17.16	
2025-01-12 03:18:06.94	336.71	17.17	
2025-01-12 03:18:07.15	336.66	17.18	
2025-01-12 03:18:07.37	336.60	17.19	
2025-01-12 03:18:07.57	336.55	17.20	
2025-01-12 03:18:07.78	336.50	17.21	
2025-01-12 03:18:07.98	336.45	17.22	
2025-01-12 03:18:08.19	336.40	17.23	
2025-01-12 03:18:08.39	336.35	17.24	
2025-01-12 03:18:08.60	336.30	17.25	
2025-01-12 03:18:08.80	336.25	17.26	
2025-01-12 03:18:09.01	336.20	17.27	
2025-01-12 03:18:09.21	336.15	17.28	
2025-01-12 03:18:09.43	336.10	17.29	
2025-01-12 03:18:09.64	336.05	17.30	
2025-01-12 03:18:09.85	335.99	17.31	
2025-01-12 03:18:10.05	335.95	17.32	
2025-01-12 03:18:10.26	335.89	17.33	
2025-01-12 03:18:10.46	335.84	17.34	
2025-01-12 03:18:10.67	335.79	17.35	
2025-01-12 03:18:10.87	335.74	17.36	
2025-01-12 03:18:11.08	335.69	17.37	
2025-01-12 03:18:11.28	335.64	17.38	
2025-01-12 03:18:11.49	335.59	17.39	
2025-01-12 03:18:11.69	335.54	17.40	
2025-01-12 03:18:11.90	335.49	17.41	
2025-01-12 03:18:12.10	335.44	17.42	
2025-01-12 03:18:12.31	335.39	17.43	
2025-01-12 03:18:12.51	335.34	17.44	
2025-01-12 03:18:12.72	335.29	17.45	
2025-01-12 03:18:12.92	335.24	17.46	
2025-01-12 03:18:13.13	335.18	17.47	
2025-01-12 03:18:13.34	335.13	17.48	
2025-01-12 03:18:13.54	335.08	17.49	
2025-01-12 03:18:13.75	335.03	17.50	
2025-01-12 03:18:13.96	334.98	17.50	
2025-01-12 03:18:14.17	334.93	17.51	
2025-01-12 03:18:14.38	334.87	17.52	
2025-01-12 03:18:14.58	334.82	17.53	
2025-01-12 03:18:14.80	334.77	17.54	
2025-01-12 03:18:15.00	334.72	17.55	
2025-01-12 03:18:15.21	334.67	17.56	
2025-01-12 03:18:15.42	334.61	17.57	
2025-01-12 03:18:15.62	334.56	17.58	
2025-01-12 03:18:15.83	334.51	17.59	
2025-01-12 03:18:16.03	334.46	17.60	
2025-01-12 03:18:16.24	334.41	17.61	
2025-01-12 03:18:16.44	334.36	17.62	
2025-01-12 03:18:16.65	334.30	17.63	
2025-01-12 03:18:16.85	334.25	17.64	
2025-01-12 03:18:17.06	334.20	17.65	
2025-01-12 03:18:17.27	334.15	17.66	
2025-01-12 03:18:17.47	334.10	17.67	
2025-01-12 03:18:17.68	334.04	17.68	
2025-01-12 03:18:17.88	333.99	17.69	
2025-01-12 03:18:18.09	333.94	17.69	
2025-01-12 03:18:18.29	333.89	17.70	
2025-01-12 03:18:18.49	333.84	17.71	
2025-01-12 03:18:18.70	333.79	17.72	
2025-01-12 03:18:18.91	333.73	17.73	
2025-01-12 03:18:19.11	333.68	17.74	
2025-01-12 03:18:19.31	333.63	17.75	
2025-01-12 03:18:19.52	333.58	17.76	
2025-01-12 03:18:19.73	333.53	17.77	
2025-01-12 03:18:19.93	333.48	17.78	
2025-01-12 03:18:20.15	333.42	17.79	
2025-01-12 03:18:20.35	333.37	17.80	
2025-01-12 03:18:20.56	333.31	17.80	
2025-01-12 03:18:20.76	333.26	17.81	
2025-01-12 03:18:20.97	333.21	17.82	
2025-01-12 03:18:21.19	333.15	17.83	
2025-01-12 03:18:21.40	333.10	17.84	
2025-01-12 03:18:21.60	333.05	17.85	
2025-01-12 03:18:21.81	333.00	17.86	
2025-01-12 03:18:22.01	332.94	17.87	
2025-01-12 03:18:22.21	332.89	17.88	
2025-01-12 03:18:22.42	332.84	17.89	
2025-01-12 03:18:22.62	332.79	17.89	
2025-01-12 03:18:22.83	332.73	17.90	
2025-01-12 03:18:23.04	332.68	17.91	
2025-01-12 03:18:23.24	332.63	17.92	
2025-01-12 03:18:23.45	332.58	17.93	
2025-01-12 03:18:23.65	332.52	17.94	
2025-01-12 03:18:23.86	332.47	17.95	
2025-01-12 03:18:24.06	332.42	17.96	
2025-01-12 03:18:24.27	332.36	17.96	
2025-01-12 03:18:24.47	332.31	17.97	
2025-01-12 03:18:24.68	332.26	17.98	
2025-01-12 03:18:24.88	332.21	17.99	
2025-01-12 03:18:25.09	332.15	18.00	
2025-01-12 03:18:25.29	332.10	18.01	
2025-01-12 03:18:25.51	332.04	18.02	
2025-01-12 03:18:25.72	331.99	18.02	
2025-01-12 03:18:25.92	331.94	18.03	
2025-01-12 03:18:26.13	331.88	18.04	
2025-01-12 03:18:26.33	331.83	18.05	
2025-01-12 03:18:26.54	331.78	18.06	
2025-01-12 03:18:26.74	331.73	18.07	
2025-01-12 03:18:26.95	331.67	18.08	
2025-01-12 03:18:27.15	331.62	18.08	
2025-01-12 03:18:27.36	331.57	18.09	
2025-01-12 03:18:27.56	331.51	18.10	
2025-01-12 03:18:27.77	331.46	18.11	
2025-01-12 03:18:27.97	331.41	18.12	
2025-01-12 03:18:28.18	331.35	18.13	
2025-01-12 03:18:28.38	331.30	18.13	
2025-01-12 03:18:28.59	331.25	18.14	
2025-01-12 03:18:28.80	331.19	18.15	
2025-01-12 03:18:29.00	331.14	18.16	
2025-01-12 03:18:29.21	331.08	18.17	
2025-01-12 03:18:29.41	331.03	18.17	
2025-01-12 03:18:29.62	330.98	18.18	
2025-01-12 03:18:29.82	330.92	18.19	
2025-01-12 03:18:30.03	330.87	18.20	
2025-01-12 03:18:30.24	330.81	18.21	
2025-01-12 03:18:30.44	330.76	18.21	
2025-01-12 03:18:30.65	330.71	18.22	
2025-01-12 03:18:30.85	330.65	18.23	
2025-01-12 03:18:31.06	330.60	18.24	
2025-01-12 03:18:31.26	330.55	18.25	
2025-01-12 03:18:31.47	330.49	18.25	
2025-01-12 03:18:31.67	330.44	18.26	
2025-01-12 03:18:31.88	330.38	18.27	
2025-01-12 03:18:32.08	330.33	18.28	
2025-01-12 03:18:32.29	330.28	18.29	
2025-01-12 03:18:32.49	330.22	18.29	
2025-01-12 03:18:32.70	330.17	18.30	
2025-01-12 03:18:32.92	330.11	18.31	
2025-01-12 03:18:33.13	330.05	18.32	
2025-01-12 03:18:33.33	330.00	18.32	
2025-01-12 03:18:33.54	329.95	18.33	
2025-01-12 03:18:33.75	329.89	18.34	
2025-01-12 03:18:33.95	329.84	18.35	
2025-01-12 03:18:34.16	329.78	18.36	
2025-01-12 03:18:34.36	329.73	18.36	
2025-01-12 03:18:34.57	329.67	18.37	
2025-01-12 03:18:34.77	329.62	18.38	
2025-01-12 03:18:34.98	329.56	18.39	
2025-01-12 03:18:35.18	329.51	18.39	
2025-01-12 03:18:35.39	329.46	18.40	
2025-01-12 03:18:35.59	329.40	18.41	
2025-01-12 03:18:35.80	329.35	18.42	
2025-01-12 03:18:36.01	329.29	18.42	
2025-01-12 03:18:36.21	329.24	18.43	
2025-01-12 03:18:36.42	329.18	18.44	
2025-01-12 03:18:36.62	329.13	18.45	
2025-01-12 03:18:36.83	329.07	18.45	
2025-01-12 03:18:37.03	329.02	18.46	
2025-01-12 03:18:37.24	328.96	18.47	
2025-01-12 03:18:37.44	328.91	18.47	
2025-01-12 03:18:37.65	328.85	18.48	
2025-01-12 03:18:37.85	328.80	18.49	
2025-01-12 03:18:38.06	328.74	18.50	
2025-01-12 03:18:38.28	328.69	18.50	
2025-01-12 03:18:38.48	328.63	18.51	
2025-01-12 03:18:38.69	328.58	18.52	
2025-01-12 03:18:38.89	328.52	18.52	
2025-01-12 03:18:39.10	328.47	18.53	
2025-01-12 03:18:39.30	328.41	18.54	
2025-01-12 03:18:39.51	328.36	18.55	
2025-01-12 03:18:39.72	328.30	18.55	
2025-01-12 03:18:39.92	328.25	18.56	
2025-01-12 03:18:40.13	328.19	18.57	
2025-01-12 03:18:40.33	328.14	18.57	
2025-01-12 03:18:40.54	328.08	18.58	
2025-01-12 03:18:40.74	328.03	18.59	
2025-01-12 03:18:40.95	327.97	18.59	
2025-01-12 03:18:41.15	327.91	18.60	
2025-01-12 03:18:41.36	327.86	18.61	
2025-01-12 03:18:41.56	327.80	18.61	
2025-01-12 03:18:41.77	327.75	18.62	
2025-01-12 03:18:41.97	327.69	18.63	
2025-01-12 03:18:42.18	327.64	18.63	
2025-01-12 03:18:42.39	327.58	18.64	
2025-01-12 03:18:42.60	327.52	18.65	
2025-01-12 03:18:42.81	327.47	18.66	
2025-01-12 03:18:43.02	327.41	18.66	
2025-01-12 03:18:43.22	327.36	18.67	
2025-01-12 03:18:43.43	327.30	18.67	
2025-01-12 03:18:43.63	327.24	18.68	
2025-01-12 03:18:43.84	327.19	18.69	
2025-01-12 03:18:44.04	327.13	18.69	
2025-01-12 03:18:39.68	328.31	18.55	
2025-01-12 03:18:39.89	328.25	18.56	
2025-01-12 03:18:40.09	328.20	18.57	
2025-01-12 03:18:40.29	328.15	18.57	
2025-01-12 03:18:40.50	328.09	18.58	
2025-01-12 03:18:40.71	328.03	18.59	
2025-01-12 03:18:40.91	327.98	18.59	
2025-01-12 03:18:41.11	327.93	18.60	
2025-01-12 03:18:41.32	327.87	18.61	
2025-01-12 03:18:41.53	327.81	18.61	
2025-01-12 03:18:41.73	327.76	18.62	
2025-01-12 03:18:41.94	327.70	18.63	
2025-01-12 03:18:42.14	327.65	18.63	
2025-01-12 03:18:42.35	327.59	18.64	
2025-01-12 03:18:42.56	327.53	18.65	
2025-01-12 03:18:42.76	327.48	18.65	
2025-01-12 03:18:42.97	327.42	18.66	
2025-01-12 03:18:43.17	327.37	18.67	
2025-01-12 03:18:43.38	327.31	18.67	
2025-01-12 03:18:43.58	327.26	18.68	
2025-01-12 03:18:43.79	327.20	18.69	
2025-01-12 03:18:43.99	327.15	18.69	
2025-01-12 03:18:44.20	327.09	18.70	
2025-01-12 03:18:44.42	327.03	18.71	
2025-01-12 03:18:44.62	326.98	18.71	
2025-01-12 03:18:44.83	326.92	18.72	
2025-01-12 03:18:45.04	326.86	18.73	
2025-01-12 03:18:45.24	326.81	18.73	
2025-01-12 03:18:45.44	326.75	18.74	
2025-01-12 03:18:45.65	326.70	18.74	
2025-01-12 03:18:45.86	326.64	18.75	
2025-01-12 03:18:46.06	326.58	18.76	
2025-01-12 03:18:46.27	326.53	18.76	
2025-01-12 03:18:46.47	326.47	18.77	
2025-01-12 03:18:46.68	326.42	18.77	
2025-01-12 03:18:46.88	326.36	18.78	
2025-01-12 03:18:47.09	326.30	18.79	
2025-01-12 03:18:47.29	326.25	18.79	
2025-01-12 03:18:47.50	326.19	18.80	
2025-01-12 03:18:47.70	326.14	18.80	
2025-01-12 03:18:47.91	326.08	18.81	
2025-01-12 03:18:48.11	326.03	18.82	
2025-01-12 03:18:48.32	325.97	18.82	
2025-01-12 03:18:48.52	325.91	18.83	
2025-01-12 03:18:48.73	325.86	18.83	
2025-01-12 03:18:48.93	325.80	18.84	
2025-01-12 03:18:49.14	325.74	18.85	
2025-01-12 03:18:49.34	325.69	18.85	
2025-01-12 03:18:49.55	325.63	18.86	
2025-01-12 03:18:49.77	325.57	18.86	
2025-01-12 03:18:49.97	325.52	18.87	
2025-01-12 03:18:50.18	325.46	18.88	
2025-01-12 03:18:50.38	325.40	18.88	
2025-01-12 03:18:50.59	325.35	18.89	
2025-01-12 03:18:50.79	325.29	18.89	
2025-01-12 03:18:51.00	325.23	18.90	
2025-01-12 03:18:51.20	325.18	18.90	
2025-01-12 03:18:51.41	325.12	18.91	
2025-01-12 03:18:51.62	325.06	18.91	
2025-01-12 03:18:51.82	325.01	18.92	
2025-01-12 03:18:52.03	324.95	18.93	
2025-01-12 03:18:52.23	324.89	18.93	
2025-01-12 03:18:52.44	324.84	18.94	
2025-01-12 03:18:52.64	324.78	18.94	
2025-01-12 03:18:52.85	324.72	18.95	
2025-01-12 03:18:53.05	324.67	18.95	
2025-01-12 03:18:53.26	324.61	18.96	
2025-01-12 03:18:53.46	324.55	18.96	
2025-01-12 03:18:53.67	324.50	18.97	
2025-01-12 03:18:53.87	324.44	18.97	
2025-01-12 03:18:54.08	324.38	18.98	
2025-01-12 03:18:54.28	324.33	18.98	
2025-01-12 03:18:54.49	324.27	18.99	
2025-01-12 03:18:54.69	324.21	18.99	
2025-01-12 03:18:54.90	324.16	19.00	
2025-01-12 03:18:55.12	324.09	19.00	
2025-01-12 03:18:55.32	324.04	19.01	
2025-01-12 03:18:55.52	323.98	19.01	
2025-01-12 03:18:55.73	323.93	19.02	
2025-01-12 03:18:55.93	323.87	19.02	
2025-01-12 03:18:56.14	323.81	19.03	
2025-01-12 03:18:56.34	323.76	19.03	
2025-01-12 03:18:56.55	323.70	19.04	
2025-01-12 03:18:56.75	323.64	19.04	
2025-01-12 03:18:56.96	323.58	19.05	
2025-01-12 03:18:57.16	323.53	19.05	
2025-01-12 03:18:57.37	323.47	19.06	
2025-01-12 03:18:57.57	323.41	19.06	
2025-01-12 03:18:57.78	323.36	19.07	
2025-01-12 03:18:57.99	323.30	19.07	
2025-01-12 03:18:58.19	323.24	19.08	
2025-01-12 03:18:58.39	323.19	19.08	
2025-01-12 03:18:58.60	323.13	19.09	
2025-01-12 03:18:58.81	323.07	19.09	
2025-01-12 03:18:59.01	323.01	19.09	
2025-01-12 03:18:59.22	322.95	19.10	
2025-01-12 03:18:59.42	322.90	19.10	
2025-01-12 03:18:59.62	322.84	19.11	
2025-01-12 03:18:59.83	322.78	19.11	
2025-01-12 03:19:00.03	322.73	19.12	
2025-01-12 03:19:00.24	322.67	19.12	
2025-01-12 03:19:00.44	322.61	19.13	
2025-01-12 03:19:00.65	322.56	19.13	
2025-01-12 03:19:00.85	322.50	19.13	
2025-01-12 03:19:01.06	322.44	19.14	
2025-01-12 03:19:01.26	322.38	19.14	
2025-01-12 03:19:01.46	322.33	19.15	
2025-01-12 03:19:01.67	322.27	19.15	
2025-01-12 03:19:01.89	322.21	19.16	
2025-01-12 03:19:02.09	322.15	19.16	
2025-01-12 03:19:02.30	322.09	19.16	
2025-01-12 03:19:02.50	322.04	19.17	
2025-01-12 03:19:02.71	321.98	19.17	
2025-01-12 03:19:02.91	321.92	19.18	
2025-01-12 03:19:03.12	321.86	19.18	
2025-01-12 03:19:03.32	321.81	19.18	
2025-01-12 03:19:03.52	321.75	19.19	
2025-01-12 03:19:03.73	321.69	19.19	
2025-01-12 03:19:03.94	321.63	19.20	
2025-01-12 03:19:04.14	321.58	19.20	
2025-01-12 03:19:04.35	321.52	19.20	
2025-01-12 03:19:04.55	321.46	19.21	
2025-01-12 03:19:04.76	321.40	19.21	
2025-01-12 03:19:04.96	321.35	19.21	
2025-01-12 03:19:05.17	321.29	19.22	
2025-01-12 03:19:05.37	321.23	19.22	
2025-01-12 03:19:05.58	321.17	19.23	
2025-01-12 03:19:05.78	321.12	19.23	
2025-01-12 03:19:05.99	321.06	19.23	
2025-01-12 03:19:06.19	321.00	19.24	
2025-01-12 03:19:06.40	320.94	19.24	
2025-01-12 03:19:06.61	320.88	19.24	
2025-01-12 03:19:06.82	320.82	19.25	
2025-01-12 03:19:07.03	320.76	19.25	
2025-01-12 03:19:07.24	320.70	19.25	
2025-01-12 03:19:07.44	320.65	19.26	
2025-01-12 03:19:07.65	320.59	19.26	
2025-01-12 03:19:07.87	320.53	19.26	
2025-01-12 03:19:08.07	320.47	19.27	
2025-01-12 03:19:08.28	320.41	19.27	
2025-01-12 03:19:08.48	320.35	19.27	
2025-01-12 03:19:08.69	320.29	19.28	
2025-01-12 03:19:08.89	320.24	19.28	
2025-01-12 03:19:09.10	320.18	19.28	
2025-01-12 03:19:09.31	320.12	19.29	
2025-01-12 03:19:09.51	320.06	19.29	
2025-01-12 03:19:09.72	320.00	19.29	
2025-01-12 03:19:09.92	319.95	19.30	
2025-01-12 03:19:10.13	319.89	19.30	
2025-01-12 03:19:10.33	319.83	19.30	
2025-01-12 03:19:10.54	319.77	19.30	
2025-01-12 03:19:10.74	319.71	19.31	
2025-01-12 03:19:10.96	319.65	19.31	
2025-01-12 03:19:11.16	319.60	19.31	
2025-01-12 03:19:11.37	319.54	19.32	
2025-01-12 03:19:11.58	319.48	19.32	
2025-01-12 03:19:11.78	319.42	19.32	
2025-01-12 03:19:11.99	319.36	19.32	
2025-01-12 03:19:12.19	319.30	19.33	
2025-01-12 03:19:12.40	319.24	19.33	
2025-01-12 03:19:12.61	319.18	19.33	
2025-01-12 03:19:12.81	319.13	19.34	
2025-01-12 03:19:13.02	319.07	19.34	
2025-01-12 03:19:13.23	319.01	19.34	
2025-01-12 03:19:13.44	318.95	19.34	
2025-01-12 03:19:13.64	318.89	19.35	
2025-01-12 03:19:13.85	318.83	19.35	
2025-01-12 03:19:14.05	318.78	19.35	
2025-01-12 03:19:14.27	318.71	19.35	
2025-01-12 03:19:14.48	318.65	19.36	
2025-01-12 03:19:14.68	318.60	19.36	
2025-01-12 03:19:14.89	318.54	19.36	
2025-01-12 03:19:15.09	318.48	19.36	
2025-01-12 03:19:15.31	318.42	19.36	
2025-01-12 03:19:15.51	318.36	19.37	
2025-01-12 03:19:15.72	318.30	19.37	
2025-01-12 03:19:15.92	318.24	19.37	
2025-01-12 03:19:16.13	318.18	19.37	
2025-01-12 03:19:16.34	318.13	19.38	
2025-01-12 03:19:16.54	318.07	19.38	
2025-01-12 03:19:16.75	318.01	19.38	
2025-01-12 03:19:16.95	317.95	19.38	
2025-01-12 03:19:17.16	317.89	19.38	
2025-01-12 03:19:17.36	317.83	19.39	
2025-01-12 03:19:17.57	317.77	19.39	
2025-01-12 03:19:17.77	317.72	19.39	
2025-01-12 03:19:17.98	317.66	19.39	
2025-01-12 03:19:18.18	317.60	19.39	
2025-01-12 03:19:18.39	317.54	19.40	
2025-01-12 03:19:18.59	317.48	19.40	
2025-01-12 03:19:18.80	317.42	19.40	
2025-01-12 03:19:19.01	317.36	19.40	
2025-01-12 03:19:19.21	317.31	19.40	
2025-01-12 03:19:19.42	317.25	19.40	
2025-01-12 03:19:19.64	317.19	19.41	
2025-01-12 03:19:19.84	317.13	19.41	
2025-01-12 03:19:20.05	317.07	19.41	
2025-01-12 03:19:20.25	317.01	19.41	
2025-01-12 03:19:20.46	316.95	19.41	
2025-01-12 03:19:20.66	316.89	19.41	
2025-01-12 03:19:20.87	316.83	19.41	
2025-01-12 03:19:21.07	316.78	19.42	
2025-01-12 03:19:21.28	316.72	19.42	
2025-01-12 03:19:21.49	316.66	19.42	
2025-01-12 03:19:21.69	316.60	19.42	
2025-01-12 03:19:21.89	316.54	19.42	
2025-01-12 03:19:22.10	316.48	19.42	
2025-01-12 03:19:22.31	316.42	19.42	
2025-01-12 03:19:22.51	316.37	19.43	
2025-01-12 03:19:22.72	316.31	19.43	
2025-01-12 03:19:22.92	316.25	19.43	
2025-01-12 03:19:23.13	316.19	19.43	
2025-01-12 03:19:23.33	316.13	19.43	
2025-01-12 03:19:23.54	316.07	19.43	
2025-01-12 03:19:23.75	316.01	19.43	
2025-01-12 03:19:23.95	315.95	19.43	
2025-01-12 03:19:24.15	315.90	19.43	
2025-01-12 03:19:24.36	315.84	19.44	
2025-01-12 03:19:24.57	315.78	19.44	
2025-01-12 03:19:24.77	315.72	19.44	
2025-01-12 03:19:24.98	315.66	19.44	
2025-01-12 03:19:25.18	315.60	19.44	
2025-01-12 03:19:25.40	315.54	19.44	
2025-01-12 03:19:25.60	315.48	19.44	
2025-01-12 03:19:25.81	315.42	19.44	
2025-01-12 03:19:26.03	315.36	19.44	
2025-01-12 03:19:26.23	315.30	19.44	
2025-01-12 03:19:26.44	315.24	19.44	
2025-01-12 03:19:26.64	315.19	19.44	
2025-01-12 03:19:26.85	315.13	19.44	
2025-01-12 03:19:27.05	315.07	19.44	
2025-01-12 03:19:27.26	315.01	19.45	
2025-01-12 03:19:27.46	314.95	19.45	
2025-01-12 03:19:27.67	314.89	19.45	
2025-01-12 03:19:27.88	314.83	19.45	
2025-01-12 03:19:28.08	314.77	19.45	
2025-01-12 03:19:28.29	314.71	19.45	
2025-01-12 03:19:28.49	314.66	19.45	
2025-01-12 03:19:28.70	314.60	19.45	
2025-01-12 03:19:28.90	314.54	19.45	
2025-01-12 03:19:29.10	314.48	19.45	
2025-01-12 03:19:29.31	314.42	19.45	
2025-01-12 03:19:29.52	314.36	19.45	
2025-01-12 03:19:29.72	314.30	19.45	
2025-01-12 03:19:29.93	314.24	19.45	
2025-01-12 03:19:30.13	314.19	19.45	
2025-01-12 03:19:30.34	314.13	19.45	
2025-01-12 03:19:30.55	314.07	19.45	
2025-01-12 03:19:30.75	314.01	19.45	
2025-01-12 03:19:30.96	313.95	19.45	
2025-01-12 03:19:31.16	313.89	19.45	
2025-01-12 03:19:31.37	313.83	19.45	
2025-01-12 03:19:31.57	313.78	19.45	
2025-01-12 03:19:31.78	313.72	19.45	
2025-01-12 03:19:31.99	313.66	19.45	
2025-01-12 03:19:32.19	313.60	19.45	
2025-01-12 03:19:32.41	313.54	19.45	
2025-01-12 03:19:32.62	313.47	19.45	
2025-01-12 03:19:32.82	313.42	19.45	
2025-01-12 03:19:33.03	313.36	19.45	
2025-01-12 03:19:33.23	313.30	19.45	
2025-01-12 03:19:33.43	313.24	19.45	
2025-01-12 03:19:33.64	313.18	19.45	
2025-01-12 03:19:33.85	313.12	19.45	
2025-01-12 03:19:34.05	313.07	19.45	
2025-01-12 03:19:34.26	313.01	19.45	
2025-01-12 03:19:34.47	312.95	19.45	
2025-01-12 03:19:34.68	312.89	19.44	
2025-01-12 03:19:34.89	312.83	19.44	
2025-01-12 03:19:35.09	312.77	19.44	
2025-01-12 03:19:35.29	312.71	19.44	
2025-01-12 03:19:35.50	312.65	19.44	
2025-01-12 03:19:35.70	312.59	19.44	
2025-01-12 03:19:35.91	312.53	19.44	
2025-01-12 03:19:36.12	312.47	19.44	
2025-01-12 03:19:36.32	312.42	19.44	
2025-01-12 03:19:36.53	312.36	19.44	
2025-01-12 03:19:36.73	312.30	19.44	
2025-01-12 03:19:36.93	312.24	19.44	
2025-01-12 03:19:37.14	312.18	19.44	
2025-01-12 03:19:37.35	312.12	19.43	
2025-01-12 03:19:37.55	312.07	19.43	
2025-01-12 03:19:37.76	312.01	19.43	
2025-01-12 03:19:37.96	311.95	19.43	
2025-01-12 03:19:38.17	311.89	19.43	
2025-01-12 03:19:38.38	311.83	19.43	
2025-01-12 03:19:38.58	311.77	19.43	
2025-01-12 03:19:38.79	311.71	19.43	
2025-01-12 03:19:38.99	311.65	19.43	
2025-01-12 03:19:39.20	311.59	19.42	
2025-01-12 03:19:39.40	311.54	19.42	
2025-01-12 03:19:39.61	311.48	19.42	
2025-01-12 03:19:39.81	311.42	19.42	
2025-01-12 03:19:40.02	311.36	19.42	
2025-01-12 03:19:40.22	311.30	19.42	
2025-01-12 03:19:40.43	311.24	19.42	
2025-01-12 03:19:40.64	311.18	19.42	
2025-01-12 03:19:40.84	311.13	19.41	
2025-01-12 03:19:41.04	311.07	19.41	
2025-01-12 03:19:41.25	311.01	19.41	
2025-01-12 03:19:41.46	310.95	19.41	
2025-01-12 03:19:41.66	310.89	19.41	
2025-01-12 03:19:41.87	310.83	19.41	
2025-01-12 03:19:42.07	310.77	19.40	
2025-01-12 03:19:42.28	310.71	19.40	
2025-01-12 03:19:42.48	310.66	19.40	
2025-01-12 03:19:42.69	310.60	19.40	
2025-01-12 03:19:42.89	310.54	19.40	
2025-01-12 03:19:43.11	310.48	19.40	
2025-01-12 03:19:43.31	310.42	19.39	
2025-01-12 03:19:43.52	310.36	19.39	
2025-01-12 03:19:43.72	310.30	19.39	
2025-01-12 03:19:43.93	310.24	19.39	
2025-01-12 03:19:44.13	310.19	19.39	
2025-01-12 03:19:44.34	310.13	19.38	
2025-01-12 03:19:44.54	310.07	19.38	
2025-01-12 03:19:44.75	310.01	19.38	
2025-01-12 03:19:44.96	309.95	19.38	
2025-01-12 03:19:45.16	309.89	19.38	
2025-01-12 03:19:45.37	309.83	19.37	
2025-01-12 03:19:45.57	309.78	19.37	
2025-01-12 03:19:45.78	309.72	19.37	
2025-01-12 03:19:45.98	309.66	19.37	
2025-01-12 03:19:46.19	309.60	19.37	
2025-01-12 03:19:46.39	309.54	19.36	
2025-01-12 03:19:46.60	309.48	19.36	
2025-01-12 03:19:46.80	309.43	19.36	
2025-01-12 03:19:47.01	309.37	19.36	
2025-01-12 03:19:47.21	309.31	19.35	
2025-01-12 03:19:47.42	309.25	19.35	
2025-01-12 03:19:47.62	309.19	19.35	
2025-01-12 03:19:47.83	309.13	19.35	
2025-01-12 03:19:48.04	309.07	19.34	
2025-01-12 03:19:48.24	309.02	19.34	
2025-01-12 03:19:48.44	308.96	19.34	
2025-01-12 03:19:48.65	308.90	19.34	
2025-01-12 03:19:48.86	308.84	19.33	
2025-01-12 03:19:49.06	308.78	19.33	
2025-01-12 03:19:49.27	308.73	19.33	
2025-01-12 03:19:49.48	308.67	19.33	
2025-01-12 03:19:49.69	308.61	19.32	
2025-01-12 03:19:49.89	308.55	19.32	
2025-01-12 03:19:50.10	308.49	19.32	
2025-01-12 03:19:50.31	308.43	19.31	
2025-01-12 03:19:50.51	308.37	19.31	
2025-01-12 03:19:50.71	308.32	19.31	
2025-01-12 03:19:50.92	308.26	19.31	
2025-01-12 03:19:51.13	308.20	19.30	
2025-01-12 03:19:51.33	308.14	19.30	
2025-01-12 03:19:51.54	308.08	19.30	
2025-01-12 03:19:51.74	308.02	19.29	
2025-01-12 03:19:51.95	307.97	19.29	
2025-01-12 03:19:52.15	307.91	19.29	
2025-01-12 03:19:52.36	307.85	19.28	
2025-01-12 03:19:52.56	307.79	19.28	
2025-01-12 03:19:52.76	307.74	19.28	
2025-01-12 03:19:52.97	307.68	19.28	
2025-01-12 03:19:53.17	307.62	19.27	
2025-01-12 03:19:53.38	307.56	19.27	
2025-01-12 03:19:53.59	307.50	19.27	
2025-01-12 03:19:53.79	307.44	19.26	
2025-01-12 03:19:54.00	307.39	19.26	
2025-01-12 03:19:54.20	307.33	19.26	
2025-01-12 03:19:54.41	307.27	19.25	
2025-01-12 03:19:54.61	307.21	19.25	
2025-01-12 03:19:54.82	307.15	19.25	
2025-01-12 03:19:55.02	307.10	19.24	
2025-01-12 03:19:55.23	307.04	19.24	
2025-01-12 03:19:55.43	306.98	19.23	
2025-01-12 03:19:55.64	306.92	19.23	
2025-01-12 03:19:55.84	306.87	19.23	
2025-01-12 03:19:56.05	306.81	19.22	
2025-01-12 03:19:56.26	306.75	19.22	
2025-01-12 03:19:56.46	306.69	19.22	
2025-01-12 03:19:56.67	306.63	19.21	
2025-01-12 03:19:56.87	306.58	19.21	
2025-01-12 03:19:57.08	306.52	19.21	
2025-01-12 03:19:57.28	306.46	19.20	
2025-01-12 03:19:57.49	306.40	19.20	
2025-01-12 03:19:57.69	306.35	19.19	
2025-01-12 03:19:57.90	306.29	19.19	
2025-01-12 03:19:58.10	306.23	19.19	
2025-01-12 03:19:58.31	306.17	19.18	
2025-01-12 03:19:58.51	306.11	19.18	
2025-01-12 03:19:58.72	306.06	19.17	
2025-01-12 03:19:58.92	306.00	19.17	
2025-01-12 03:19:59.12	305.94	19.17	
2025-01-12 03:19:59.33	305.88	19.16	
2025-01-12 03:19:59.54	305.83	19.16	
2025-01-12 03:19:59.74	305.77	19.15	
2025-01-12 03:19:59.95	305.71	19.15	
2025-01-12 03:20:00.15	305.65	19.15	
2025-01-12 03:20:00.36	305.60	19.14	
2025-01-12 03:20:00.56	305.54	19.14	
2025-01-12 03:20:00.77	305.48	19.13	
2025-01-12 03:20:00.97	305.43	19.13	
2025-01-12 03:20:01.18	305.37	19.12	
2025-01-12 03:20:01.38	305.31	19.12	
2025-01-12 03:20:01.59	305.25	19.12	
2025-01-12 03:20:01.79	305.20	19.11	
2025-01-12 03:20:02.00	305.14	19.11	
2025-01-12 03:20:02.20	305.08	19.10	
2025-01-12 03:20:02.41	305.02	19.10	
2025-01-12 03:20:02.62	304.96	19.09	
2025-01-12 03:20:02.82	304.91	19.09	
2025-01-12 03:20:03.03	304.85	19.08	
2025-01-12 03:20:03.23	304.79	19.08	
2025-01-12 03:20:03.43	304.74	19.07	
2025-01-12 03:20:03.64	304.68	19.07	
2025-01-12 03:20:03.85	304.62	19.07	
2025-01-12 03:20:04.05	304.56	19.06	
2025-01-12 03:20:04.26	304.51	19.06	
2025-01-12 03:20:04.46	304.45	19.05	
2025-01-12 03:20:04.67	304.39	19.05	
2025-01-12 03:20:04.87	304.34	19.04	
2025-01-12 03:20:05.08	304.28	19.04	
2025-01-12 03:20:05.29	304.22	19.03	
2025-01-12 03:20:05.49	304.16	19.03	
2025-01-12 03:20:05.69	304.11	19.02	
2025-01-12 03:20:05.90	304.05	19.02	
2025-01-12 03:20:06.10	303.99	19.01	
2025-01-12 03:20:06.31	303.94	19.01	
2025-01-12 03:20:06.51	303.88	19.00	
2025-01-12 03:20:06.72	303.82	19.00	
2025-01-12 03:20:06.93	303.76	18.99	
2025-01-12 03:20:07.13	303.71	18.99	
2025-01-12 03:20:07.33	303.65	18.98	
2025-01-12 03:20:07.54	303.59	18.98	
2025-01-12 03:20:07.74	303.54	18.97	
2025-01-12 03:20:07.95	303.48	18.97	
2025-01-12 03:20:08.16	303.42	18.96	
2025-01-12 03:20:08.36	303.37	18.96	
2025-01-12 03:20:08.57	303.31	18.95	
2025-01-12 03:20:08.77	303.25	18.94	
2025-01-12 03:20:08.98	303.20	18.94	
2025-01-12 03:20:09.18	303.14	18.93	
2025-01-12 03:20:09.39	303.08	18.93	
2025-01-12 03:20:09.59	303.03	18.92	
2025-01-12 03:20:09.80	302.97	18.92	
2025-01-12 03:20:10.00	302.91	18.91	
2025-01-12 03:20:10.21	302.86	18.91	
2025-01-12 03:20:10.41	302.80	18.90	
2025-01-12 03:20:10.62	302.74	18.90	
2025-01-12 03:20:10.82	302.69	18.89	
