passes_logs/2025/01/12/SPB_Silybum_02/SPB_Silybum_02__20250112_171545_TERRA_rec.log

#Pass ID: 20250112_171545_TERRA
#Satellite: TERRA
#Configuration: TERRA
#Start time: 2025-01-12 17:15:44

#Version: 2.0.20230423
#Station: SPB_Silybum_02
#Location: 30.233357 lon 59.946436 lat
#TLE: 1 25994U 99068A   25011.77277381  .00000769  00000+0  16824-3 0  9997
#TLE: 2 25994  98.0222  74.9057 0003526  79.1717  32.7508 14.60388914333608

#Time	Az	El	Level	Level2	SNR	BER	Gain	Gain2
2025-01-12 17:15:46.05	122.44	4.03	
2025-01-12 17:15:46.26	122.43	4.04	
2025-01-12 17:15:46.46	122.41	4.06	
2025-01-12 17:15:46.66	122.40	4.07	
2025-01-12 17:15:46.87	122.39	4.08	
2025-01-12 17:15:47.07	122.37	4.10	
2025-01-12 17:15:47.28	122.36	4.11	
2025-01-12 17:15:47.49	122.35	4.13	
2025-01-12 17:15:47.69	122.33	4.14	
2025-01-12 17:15:47.90	122.32	4.15	
2025-01-12 17:15:48.10	122.31	4.17	
2025-01-12 17:15:48.31	122.30	4.18	
2025-01-12 17:15:48.51	122.28	4.19	
2025-01-12 17:15:48.72	122.27	4.21	
2025-01-12 17:15:48.92	122.26	4.22	
2025-01-12 17:15:49.12	122.24	4.24	
2025-01-12 17:15:49.33	122.23	4.25	
2025-01-12 17:15:49.53	122.22	4.26	
2025-01-12 17:15:49.74	122.20	4.28	
2025-01-12 17:15:49.94	122.19	4.29	
2025-01-12 17:15:50.15	122.18	4.30	
2025-01-12 17:15:50.35	122.16	4.32	
2025-01-12 17:15:50.56	122.15	4.33	
2025-01-12 17:15:50.77	122.14	4.35	
2025-01-12 17:15:50.98	122.12	4.36	
2025-01-12 17:15:51.19	122.11	4.37	
2025-01-12 17:15:51.39	122.10	4.39	
2025-01-12 17:15:51.60	122.08	4.40	
2025-01-12 17:15:51.81	122.07	4.42	
2025-01-12 17:15:52.01	122.06	4.43	
2025-01-12 17:15:52.21	122.04	4.44	
2025-01-12 17:15:52.42	122.03	4.46	
2025-01-12 17:15:52.62	122.02	4.47	
2025-01-12 17:15:52.83	122.00	4.49	
2025-01-12 17:15:53.03	121.99	4.50	
2025-01-12 17:15:53.24	121.98	4.51	
2025-01-12 17:15:53.44	121.96	4.53	
2025-01-12 17:15:53.65	121.95	4.54	
2025-01-12 17:15:53.86	121.94	4.56	
2025-01-12 17:15:54.06	121.92	4.57	
2025-01-12 17:15:54.26	121.91	4.58	
2025-01-12 17:15:54.47	121.90	4.60	
2025-01-12 17:15:54.67	121.88	4.61	
2025-01-12 17:15:54.88	121.87	4.62	
2025-01-12 17:15:55.08	121.86	4.64	
2025-01-12 17:15:55.29	121.84	4.65	
2025-01-12 17:15:55.49	121.83	4.67	
2025-01-12 17:15:55.70	121.81	4.68	
2025-01-12 17:15:55.90	121.80	4.69	
2025-01-12 17:15:56.11	121.79	4.71	
2025-01-12 17:15:56.31	121.77	4.72	
2025-01-12 17:15:56.52	121.76	4.74	
2025-01-12 17:15:56.72	121.75	4.75	
2025-01-12 17:15:56.93	121.73	4.76	
2025-01-12 17:15:57.13	121.72	4.78	
2025-01-12 17:15:57.34	121.71	4.79	
2025-01-12 17:15:57.54	121.69	4.81	
2025-01-12 17:15:57.75	121.68	4.82	
2025-01-12 17:15:57.95	121.66	4.83	
2025-01-12 17:15:58.16	121.65	4.85	
2025-01-12 17:15:58.38	121.64	4.86	
2025-01-12 17:15:58.58	121.62	4.88	
2025-01-12 17:15:58.79	121.61	4.89	
2025-01-12 17:15:58.99	121.59	4.91	
2025-01-12 17:15:59.20	121.58	4.92	
2025-01-12 17:15:59.40	121.57	4.93	
2025-01-12 17:15:59.61	121.55	4.95	
2025-01-12 17:15:59.81	121.54	4.96	
2025-01-12 17:16:00.01	121.53	4.98	
2025-01-12 17:16:00.22	121.51	4.99	
2025-01-12 17:16:00.42	121.50	5.00	
2025-01-12 17:16:00.64	121.48	5.02	
2025-01-12 17:16:00.85	121.47	5.03	
2025-01-12 17:16:01.05	121.46	5.05	
2025-01-12 17:16:01.26	121.44	5.06	
2025-01-12 17:16:01.47	121.43	5.08	
2025-01-12 17:16:01.67	121.41	5.09	
2025-01-12 17:16:01.88	121.40	5.10	
2025-01-12 17:16:02.08	121.38	5.12	
2025-01-12 17:16:02.29	121.37	5.13	
2025-01-12 17:16:02.49	121.36	5.15	
2025-01-12 17:16:02.69	121.34	5.16	
2025-01-12 17:16:02.90	121.33	5.18	
2025-01-12 17:16:03.10	121.31	5.19	
2025-01-12 17:16:03.31	121.30	5.20	
2025-01-12 17:16:03.51	121.29	5.22	
2025-01-12 17:16:03.72	121.27	5.23	
2025-01-12 17:16:03.92	121.26	5.25	
2025-01-12 17:16:04.13	121.24	5.26	
2025-01-12 17:16:04.34	121.23	5.28	
2025-01-12 17:16:04.54	121.21	5.29	
2025-01-12 17:16:04.75	121.20	5.30	
2025-01-12 17:16:04.95	121.19	5.32	
2025-01-12 17:16:05.16	121.17	5.33	
2025-01-12 17:16:05.36	121.16	5.35	
2025-01-12 17:16:05.57	121.14	5.36	
2025-01-12 17:16:05.77	121.13	5.37	
2025-01-12 17:16:05.99	121.11	5.39	
2025-01-12 17:16:06.20	121.10	5.41	
2025-01-12 17:16:06.40	121.08	5.42	
2025-01-12 17:16:06.61	121.07	5.43	
2025-01-12 17:16:06.81	121.06	5.45	
2025-01-12 17:16:07.03	121.04	5.46	
2025-01-12 17:16:07.23	121.03	5.48	
2025-01-12 17:16:07.44	121.01	5.49	
2025-01-12 17:16:07.64	121.00	5.51	
2025-01-12 17:16:07.85	120.98	5.52	
2025-01-12 17:16:08.07	120.97	5.54	
2025-01-12 17:16:08.27	120.95	5.55	
2025-01-12 17:16:08.48	120.94	5.56	
2025-01-12 17:16:08.68	120.92	5.58	
2025-01-12 17:16:08.89	120.91	5.59	
2025-01-12 17:16:09.09	120.89	5.61	
2025-01-12 17:16:09.30	120.88	5.62	
2025-01-12 17:16:09.51	120.86	5.64	
2025-01-12 17:16:09.71	120.85	5.65	
2025-01-12 17:16:09.92	120.84	5.67	
2025-01-12 17:16:10.12	120.82	5.68	
2025-01-12 17:16:10.33	120.81	5.70	
2025-01-12 17:16:10.53	120.79	5.71	
2025-01-12 17:16:10.74	120.78	5.72	
2025-01-12 17:16:10.94	120.76	5.74	
2025-01-12 17:16:11.15	120.75	5.75	
2025-01-12 17:16:11.35	120.73	5.77	
2025-01-12 17:16:11.56	120.72	5.78	
2025-01-12 17:16:11.76	120.70	5.80	
2025-01-12 17:16:11.97	120.69	5.81	
2025-01-12 17:16:12.18	120.67	5.83	
2025-01-12 17:16:12.38	120.66	5.84	
2025-01-12 17:16:12.59	120.64	5.85	
2025-01-12 17:16:12.79	120.63	5.87	
2025-01-12 17:16:13.00	120.61	5.88	
2025-01-12 17:16:13.20	120.60	5.90	
2025-01-12 17:16:13.41	120.58	5.91	
2025-01-12 17:16:13.61	120.57	5.93	
2025-01-12 17:16:13.82	120.55	5.94	
2025-01-12 17:16:14.02	120.54	5.96	
2025-01-12 17:16:14.23	120.52	5.97	
2025-01-12 17:16:14.43	120.51	5.99	
2025-01-12 17:16:14.64	120.49	6.00	
2025-01-12 17:16:14.84	120.48	6.02	
2025-01-12 17:16:15.05	120.46	6.03	
2025-01-12 17:16:15.26	120.45	6.05	
2025-01-12 17:16:15.46	120.43	6.06	
2025-01-12 17:16:15.66	120.42	6.07	
2025-01-12 17:16:15.87	120.40	6.09	
2025-01-12 17:16:16.08	120.39	6.10	
2025-01-12 17:16:16.28	120.37	6.12	
2025-01-12 17:16:16.48	120.36	6.13	
2025-01-12 17:16:16.69	120.34	6.15	
2025-01-12 17:16:16.90	120.33	6.16	
2025-01-12 17:16:17.10	120.31	6.18	
2025-01-12 17:16:17.31	120.30	6.19	
2025-01-12 17:16:17.51	120.28	6.21	
2025-01-12 17:16:17.71	120.27	6.22	
2025-01-12 17:16:17.92	120.25	6.24	
2025-01-12 17:16:18.13	120.23	6.25	
2025-01-12 17:16:18.33	120.22	6.27	
2025-01-12 17:16:18.54	120.20	6.28	
2025-01-12 17:16:18.74	120.19	6.29	
2025-01-12 17:16:18.95	120.17	6.31	
2025-01-12 17:16:19.15	120.16	6.32	
2025-01-12 17:16:19.36	120.14	6.34	
2025-01-12 17:16:19.56	120.13	6.35	
2025-01-12 17:16:19.78	120.11	6.37	
2025-01-12 17:16:19.99	120.10	6.38	
2025-01-12 17:16:20.19	120.08	6.40	
2025-01-12 17:16:20.40	120.06	6.41	
2025-01-12 17:16:20.60	120.05	6.43	
2025-01-12 17:16:20.81	120.03	6.44	
2025-01-12 17:16:21.01	120.02	6.46	
2025-01-12 17:16:21.22	120.00	6.47	
2025-01-12 17:16:21.42	119.99	6.49	
2025-01-12 17:16:21.63	119.97	6.50	
2025-01-12 17:16:21.83	119.96	6.52	
2025-01-12 17:16:22.04	119.94	6.53	
2025-01-12 17:16:22.24	119.92	6.55	
2025-01-12 17:16:22.45	119.91	6.56	
2025-01-12 17:16:22.66	119.89	6.58	
2025-01-12 17:16:22.86	119.88	6.59	
2025-01-12 17:16:23.07	119.86	6.61	
2025-01-12 17:16:23.27	119.84	6.62	
2025-01-12 17:16:23.48	119.83	6.64	
2025-01-12 17:16:23.68	119.81	6.65	
2025-01-12 17:16:23.89	119.80	6.67	
2025-01-12 17:16:24.09	119.78	6.68	
2025-01-12 17:16:24.30	119.77	6.70	
2025-01-12 17:16:24.50	119.75	6.71	
2025-01-12 17:16:24.71	119.73	6.73	
2025-01-12 17:16:24.92	119.72	6.74	
2025-01-12 17:16:25.12	119.70	6.76	
2025-01-12 17:16:25.32	119.69	6.77	
2025-01-12 17:16:25.53	119.67	6.79	
2025-01-12 17:16:25.74	119.65	6.80	
2025-01-12 17:16:25.94	119.64	6.82	
2025-01-12 17:16:26.14	119.62	6.83	
2025-01-12 17:16:26.35	119.61	6.85	
2025-01-12 17:16:26.55	119.59	6.86	
2025-01-12 17:16:26.76	119.57	6.88	
2025-01-12 17:16:26.96	119.56	6.89	
2025-01-12 17:16:27.17	119.54	6.91	
2025-01-12 17:16:27.37	119.53	6.92	
2025-01-12 17:16:27.58	119.51	6.94	
2025-01-12 17:16:27.78	119.49	6.95	
2025-01-12 17:16:27.99	119.48	6.97	
2025-01-12 17:16:28.19	119.46	6.98	
2025-01-12 17:16:28.41	119.44	7.00	
2025-01-12 17:16:28.61	119.43	7.01	
2025-01-12 17:16:28.82	119.41	7.03	
2025-01-12 17:16:29.02	119.39	7.04	
2025-01-12 17:16:29.23	119.38	7.06	
2025-01-12 17:16:29.45	119.36	7.08	
2025-01-12 17:16:29.65	119.34	7.09	
2025-01-12 17:16:29.85	119.33	7.11	
2025-01-12 17:16:30.06	119.31	7.12	
2025-01-12 17:16:30.26	119.30	7.14	
2025-01-12 17:16:30.47	119.28	7.15	
2025-01-12 17:16:30.67	119.26	7.17	
2025-01-12 17:16:30.87	119.25	7.18	
2025-01-12 17:16:31.08	119.23	7.20	
2025-01-12 17:16:31.29	119.21	7.21	
2025-01-12 17:16:31.49	119.20	7.23	
2025-01-12 17:16:31.70	119.18	7.24	
2025-01-12 17:16:31.90	119.16	7.26	
2025-01-12 17:16:32.11	119.15	7.27	
2025-01-12 17:16:32.31	119.13	7.29	
2025-01-12 17:16:32.52	119.11	7.30	
2025-01-12 17:16:32.73	119.10	7.32	
2025-01-12 17:16:32.94	119.08	7.34	
2025-01-12 17:16:33.14	119.06	7.35	
2025-01-12 17:16:33.35	119.05	7.37	
2025-01-12 17:16:33.56	119.03	7.38	
2025-01-12 17:16:33.76	119.01	7.40	
2025-01-12 17:16:33.97	119.00	7.41	
2025-01-12 17:16:34.17	118.98	7.43	
2025-01-12 17:16:34.37	118.96	7.44	
2025-01-12 17:16:34.58	118.95	7.46	
2025-01-12 17:16:34.78	118.93	7.47	
2025-01-12 17:16:34.99	118.91	7.49	
2025-01-12 17:16:35.19	118.90	7.50	
2025-01-12 17:16:35.40	118.88	7.52	
2025-01-12 17:16:35.60	118.86	7.54	
2025-01-12 17:16:35.80	118.84	7.55	
2025-01-12 17:16:36.01	118.83	7.57	
2025-01-12 17:16:36.22	118.81	7.58	
2025-01-12 17:16:36.42	118.79	7.60	
2025-01-12 17:16:36.63	118.78	7.61	
2025-01-12 17:16:36.84	118.76	7.63	
2025-01-12 17:16:37.04	118.74	7.64	
2025-01-12 17:16:37.25	118.72	7.66	
2025-01-12 17:16:37.45	118.71	7.67	
2025-01-12 17:16:37.66	118.69	7.69	
2025-01-12 17:16:37.86	118.67	7.71	
2025-01-12 17:16:38.08	118.65	7.72	
2025-01-12 17:16:38.28	118.64	7.74	
2025-01-12 17:16:38.49	118.62	7.75	
2025-01-12 17:16:38.70	118.60	7.77	
2025-01-12 17:16:38.90	118.59	7.78	
2025-01-12 17:16:39.11	118.57	7.80	
2025-01-12 17:16:39.31	118.55	7.82	
2025-01-12 17:16:39.52	118.53	7.83	
2025-01-12 17:16:39.72	118.52	7.85	
2025-01-12 17:16:39.93	118.50	7.86	
2025-01-12 17:16:40.13	118.48	7.88	
2025-01-12 17:16:40.34	118.46	7.89	
2025-01-12 17:16:40.54	118.45	7.91	
2025-01-12 17:16:40.75	118.43	7.93	
2025-01-12 17:16:40.96	118.41	7.94	
2025-01-12 17:16:41.16	118.39	7.96	
2025-01-12 17:16:41.37	118.38	7.97	
2025-01-12 17:16:41.57	118.36	7.99	
2025-01-12 17:16:41.78	118.34	8.00	
2025-01-12 17:16:41.98	118.32	8.02	
2025-01-12 17:16:42.19	118.31	8.04	
2025-01-12 17:16:42.39	118.29	8.05	
2025-01-12 17:16:42.59	118.27	8.07	
2025-01-12 17:16:42.80	118.25	8.08	
2025-01-12 17:16:43.00	118.24	8.10	
2025-01-12 17:16:43.21	118.22	8.11	
2025-01-12 17:16:43.41	118.20	8.13	
2025-01-12 17:16:43.62	118.18	8.14	
2025-01-12 17:16:43.82	118.17	8.16	
2025-01-12 17:16:44.03	118.15	8.18	
2025-01-12 17:16:44.24	118.13	8.19	
2025-01-12 17:16:44.44	118.11	8.21	
2025-01-12 17:16:44.65	118.09	8.22	
2025-01-12 17:16:44.85	118.08	8.24	
2025-01-12 17:16:45.06	118.06	8.26	
2025-01-12 17:16:45.26	118.04	8.27	
2025-01-12 17:16:45.47	118.02	8.29	
2025-01-12 17:16:45.67	118.00	8.30	
2025-01-12 17:16:45.88	117.99	8.32	
2025-01-12 17:16:46.09	117.97	8.33	
2025-01-12 17:16:46.29	117.95	8.35	
2025-01-12 17:16:46.50	117.93	8.37	
2025-01-12 17:16:46.70	117.91	8.38	
2025-01-12 17:16:46.91	117.90	8.40	
2025-01-12 17:16:47.11	117.88	8.41	
2025-01-12 17:16:47.31	117.86	8.43	
2025-01-12 17:16:47.52	117.84	8.45	
2025-01-12 17:16:47.72	117.82	8.46	
2025-01-12 17:16:47.93	117.81	8.48	
2025-01-12 17:16:48.14	117.79	8.49	
2025-01-12 17:16:48.34	117.77	8.51	
2025-01-12 17:16:48.55	117.75	8.53	
2025-01-12 17:16:48.75	117.73	8.54	
2025-01-12 17:16:48.96	117.71	8.56	
2025-01-12 17:16:49.16	117.70	8.57	
2025-01-12 17:16:49.37	117.68	8.59	
2025-01-12 17:16:49.57	117.66	8.60	
2025-01-12 17:16:49.77	117.64	8.62	
2025-01-12 17:16:49.98	117.62	8.64	
2025-01-12 17:16:50.19	117.60	8.65	
2025-01-12 17:16:50.39	117.59	8.67	
2025-01-12 17:16:50.60	117.57	8.69	
2025-01-12 17:16:50.80	117.55	8.70	
2025-01-12 17:16:51.01	117.53	8.72	
2025-01-12 17:16:51.21	117.51	8.73	
2025-01-12 17:16:51.42	117.49	8.75	
2025-01-12 17:16:51.63	117.47	8.77	
2025-01-12 17:16:51.83	117.45	8.78	
2025-01-12 17:16:52.04	117.44	8.80	
2025-01-12 17:16:52.24	117.42	8.81	
2025-01-12 17:16:52.45	117.40	8.83	
2025-01-12 17:16:52.65	117.38	8.85	
2025-01-12 17:16:52.86	117.36	8.86	
2025-01-12 17:16:53.08	117.34	8.88	
2025-01-12 17:16:53.28	117.32	8.90	
2025-01-12 17:16:53.49	117.30	8.91	
2025-01-12 17:16:53.69	117.28	8.93	
2025-01-12 17:16:53.90	117.27	8.94	
2025-01-12 17:16:54.11	117.25	8.96	
2025-01-12 17:16:54.32	117.23	8.98	
2025-01-12 17:16:54.53	117.21	8.99	
2025-01-12 17:16:54.73	117.19	9.01	
2025-01-12 17:16:54.94	117.17	9.03	
2025-01-12 17:16:55.14	117.15	9.04	
2025-01-12 17:16:55.35	117.13	9.06	
2025-01-12 17:16:55.55	117.11	9.07	
2025-01-12 17:16:55.76	117.09	9.09	
2025-01-12 17:16:55.97	117.07	9.11	
2025-01-12 17:16:56.18	117.05	9.12	
2025-01-12 17:16:56.39	117.03	9.14	
2025-01-12 17:16:56.59	117.02	9.16	
2025-01-12 17:16:56.80	117.00	9.17	
2025-01-12 17:16:57.00	116.98	9.19	
2025-01-12 17:16:57.21	116.96	9.21	
2025-01-12 17:16:57.41	116.94	9.22	
2025-01-12 17:16:57.62	116.92	9.24	
2025-01-12 17:16:57.82	116.90	9.26	
2025-01-12 17:16:58.03	116.88	9.27	
2025-01-12 17:16:58.23	116.86	9.29	
2025-01-12 17:16:58.44	116.84	9.30	
2025-01-12 17:16:58.65	116.82	9.32	
2025-01-12 17:16:58.85	116.80	9.34	
2025-01-12 17:16:59.05	116.78	9.35	
2025-01-12 17:16:59.26	116.76	9.37	
2025-01-12 17:16:59.47	116.74	9.39	
2025-01-12 17:16:59.67	116.73	9.40	
2025-01-12 17:16:59.88	116.71	9.42	
2025-01-12 17:17:00.08	116.69	9.44	
2025-01-12 17:17:00.29	116.67	9.45	
2025-01-12 17:17:00.50	116.65	9.47	
2025-01-12 17:17:00.71	116.63	9.49	
2025-01-12 17:17:00.91	116.61	9.50	
2025-01-12 17:17:01.12	116.59	9.52	
2025-01-12 17:17:01.33	116.57	9.54	
2025-01-12 17:17:01.53	116.55	9.55	
2025-01-12 17:17:01.73	116.53	9.57	
2025-01-12 17:17:01.94	116.51	9.59	
2025-01-12 17:17:02.15	116.49	9.60	
2025-01-12 17:17:02.35	116.47	9.62	
2025-01-12 17:17:02.56	116.45	9.64	
2025-01-12 17:17:02.76	116.43	9.65	
2025-01-12 17:17:02.97	116.41	9.67	
2025-01-12 17:17:03.17	116.39	9.68	
2025-01-12 17:17:03.38	116.37	9.70	
2025-01-12 17:17:03.58	116.35	9.72	
2025-01-12 17:17:03.78	116.33	9.73	
2025-01-12 17:17:03.99	116.31	9.75	
2025-01-12 17:17:04.19	116.29	9.77	
2025-01-12 17:17:04.40	116.27	9.78	
2025-01-12 17:17:04.60	116.25	9.80	
2025-01-12 17:17:04.81	116.23	9.82	
2025-01-12 17:17:05.02	116.21	9.83	
2025-01-12 17:17:05.22	116.19	9.85	
2025-01-12 17:17:05.43	116.17	9.87	
2025-01-12 17:17:05.63	116.15	9.88	
2025-01-12 17:17:05.85	116.13	9.90	
2025-01-12 17:17:06.06	116.10	9.92	
2025-01-12 17:17:06.26	116.08	9.94	
2025-01-12 17:17:06.47	116.06	9.95	
2025-01-12 17:17:06.67	116.04	9.97	
2025-01-12 17:17:06.88	116.02	9.99	
2025-01-12 17:17:07.08	116.00	10.00	
2025-01-12 17:17:07.29	115.98	10.02	
2025-01-12 17:17:07.49	115.96	10.04	
2025-01-12 17:17:07.70	115.94	10.05	
2025-01-12 17:17:07.90	115.92	10.07	
2025-01-12 17:17:08.11	115.90	10.09	
2025-01-12 17:17:08.31	115.88	10.10	
2025-01-12 17:17:08.52	115.86	10.12	
2025-01-12 17:17:08.72	115.84	10.14	
2025-01-12 17:17:08.93	115.82	10.15	
2025-01-12 17:17:09.13	115.80	10.17	
2025-01-12 17:17:09.34	115.78	10.19	
2025-01-12 17:17:09.55	115.75	10.20	
2025-01-12 17:17:09.75	115.73	10.22	
2025-01-12 17:17:09.95	115.71	10.24	
2025-01-12 17:17:10.16	115.69	10.26	
2025-01-12 17:17:10.36	115.67	10.27	
2025-01-12 17:17:10.57	115.65	10.29	
2025-01-12 17:17:10.78	115.63	10.31	
2025-01-12 17:17:10.98	115.61	10.32	
2025-01-12 17:17:11.18	115.59	10.34	
2025-01-12 17:17:11.39	115.57	10.36	
2025-01-12 17:17:11.60	115.55	10.37	
2025-01-12 17:17:11.80	115.53	10.39	
2025-01-12 17:17:12.01	115.50	10.41	
2025-01-12 17:17:12.23	115.48	10.43	
2025-01-12 17:17:12.43	115.46	10.44	
2025-01-12 17:17:12.63	115.44	10.46	
2025-01-12 17:17:12.84	115.42	10.48	
2025-01-12 17:17:13.05	115.40	10.49	
2025-01-12 17:17:13.25	115.38	10.51	
2025-01-12 17:17:13.46	115.35	10.53	
2025-01-12 17:17:13.66	115.33	10.54	
2025-01-12 17:17:13.87	115.31	10.56	
2025-01-12 17:17:14.08	115.29	10.58	
2025-01-12 17:17:14.28	115.27	10.60	
2025-01-12 17:17:14.49	115.25	10.61	
2025-01-12 17:17:14.69	115.23	10.63	
2025-01-12 17:17:14.90	115.20	10.65	
2025-01-12 17:17:15.10	115.18	10.66	
2025-01-12 17:17:15.31	115.16	10.68	
2025-01-12 17:17:15.51	115.14	10.70	
2025-01-12 17:17:15.72	115.12	10.72	
2025-01-12 17:17:15.92	115.10	10.73	
2025-01-12 17:17:16.13	115.07	10.75	
2025-01-12 17:17:16.33	115.05	10.77	
2025-01-12 17:17:16.54	115.03	10.79	
2025-01-12 17:17:16.74	115.01	10.80	
2025-01-12 17:17:16.95	114.99	10.82	
2025-01-12 17:17:17.15	114.97	10.84	
2025-01-12 17:17:17.36	114.94	10.85	
2025-01-12 17:17:17.56	114.92	10.87	
2025-01-12 17:17:17.77	114.90	10.89	
2025-01-12 17:17:17.98	114.88	10.91	
2025-01-12 17:17:18.18	114.86	10.92	
2025-01-12 17:17:18.39	114.83	10.94	
2025-01-12 17:17:18.59	114.81	10.96	
2025-01-12 17:17:18.80	114.79	10.98	
2025-01-12 17:17:19.00	114.77	10.99	
2025-01-12 17:17:19.21	114.75	11.01	
2025-01-12 17:17:19.42	114.72	11.03	
2025-01-12 17:17:19.62	114.70	11.04	
2025-01-12 17:17:19.83	114.68	11.06	
2025-01-12 17:17:20.03	114.66	11.08	
2025-01-12 17:17:20.24	114.64	11.10	
2025-01-12 17:17:20.44	114.61	11.11	
2025-01-12 17:17:20.66	114.59	11.13	
2025-01-12 17:17:20.86	114.57	11.15	
2025-01-12 17:17:21.07	114.55	11.17	
2025-01-12 17:17:21.28	114.52	11.18	
2025-01-12 17:17:21.48	114.50	11.20	
2025-01-12 17:17:21.69	114.48	11.22	
2025-01-12 17:17:21.89	114.46	11.24	
2025-01-12 17:17:22.10	114.43	11.25	
2025-01-12 17:17:22.30	114.41	11.27	
2025-01-12 17:17:22.51	114.39	11.29	
2025-01-12 17:17:22.71	114.37	11.31	
2025-01-12 17:17:22.93	114.34	11.33	
2025-01-12 17:17:23.13	114.32	11.34	
2025-01-12 17:17:23.34	114.30	11.36	
2025-01-12 17:17:23.54	114.27	11.38	
2025-01-12 17:17:23.75	114.25	11.40	
2025-01-12 17:17:23.95	114.23	11.41	
2025-01-12 17:17:24.16	114.21	11.43	
2025-01-12 17:17:24.36	114.18	11.45	
2025-01-12 17:17:24.57	114.16	11.47	
2025-01-12 17:17:24.78	114.14	11.48	
2025-01-12 17:17:24.98	114.11	11.50	
2025-01-12 17:17:25.19	114.09	11.52	
2025-01-12 17:17:25.39	114.07	11.54	
2025-01-12 17:17:25.60	114.05	11.55	
2025-01-12 17:17:25.80	114.02	11.57	
2025-01-12 17:17:26.00	114.00	11.59	
2025-01-12 17:17:26.21	113.98	11.61	
2025-01-12 17:17:26.42	113.95	11.62	
2025-01-12 17:17:26.62	113.93	11.64	
2025-01-12 17:17:26.83	113.91	11.66	
2025-01-12 17:17:27.03	113.88	11.68	
2025-01-12 17:17:27.23	113.86	11.69	
2025-01-12 17:17:27.44	113.84	11.71	
2025-01-12 17:17:27.65	113.81	11.73	
2025-01-12 17:17:27.85	113.79	11.75	
2025-01-12 17:17:28.05	113.77	11.76	
2025-01-12 17:17:28.26	113.74	11.78	
2025-01-12 17:17:28.46	113.72	11.80	
2025-01-12 17:17:28.67	113.70	11.82	
2025-01-12 17:17:28.87	113.68	11.84	
2025-01-12 17:17:29.08	113.65	11.85	
2025-01-12 17:17:29.28	113.63	11.87	
2025-01-12 17:17:29.49	113.60	11.89	
2025-01-12 17:17:29.69	113.58	11.91	
2025-01-12 17:17:29.90	113.56	11.93	
2025-01-12 17:17:30.11	113.53	11.94	
2025-01-12 17:17:30.31	113.51	11.96	
2025-01-12 17:17:30.52	113.49	11.98	
2025-01-12 17:17:30.72	113.46	12.00	
2025-01-12 17:17:30.93	113.44	12.01	
2025-01-12 17:17:31.13	113.41	12.03	
2025-01-12 17:17:31.34	113.39	12.05	
2025-01-12 17:17:31.54	113.37	12.07	
2025-01-12 17:17:31.75	113.34	12.09	
2025-01-12 17:17:31.95	113.32	12.10	
2025-01-12 17:17:32.16	113.29	12.12	
2025-01-12 17:17:32.36	113.27	12.14	
2025-01-12 17:17:32.57	113.25	12.16	
2025-01-12 17:17:32.77	113.22	12.18	
2025-01-12 17:17:32.98	113.20	12.19	
2025-01-12 17:17:33.19	113.17	12.21	
2025-01-12 17:17:33.39	113.15	12.23	
2025-01-12 17:17:33.61	113.12	12.25	
2025-01-12 17:17:33.81	113.10	12.27	
2025-01-12 17:17:34.03	113.07	12.29	
2025-01-12 17:17:34.23	113.05	12.30	
2025-01-12 17:17:34.44	113.03	12.32	
2025-01-12 17:17:34.64	113.00	12.34	
2025-01-12 17:17:34.84	112.98	12.36	
2025-01-12 17:17:35.05	112.95	12.38	
2025-01-12 17:17:35.26	112.93	12.39	
2025-01-12 17:17:35.46	112.90	12.41	
2025-01-12 17:17:35.66	112.88	12.43	
2025-01-12 17:17:35.87	112.86	12.45	
2025-01-12 17:17:36.08	112.83	12.47	
2025-01-12 17:17:36.28	112.81	12.48	
2025-01-12 17:17:36.49	112.78	12.50	
2025-01-12 17:17:36.69	112.76	12.52	
2025-01-12 17:17:36.90	112.73	12.54	
2025-01-12 17:17:37.10	112.71	12.56	
2025-01-12 17:17:37.31	112.68	12.58	
2025-01-12 17:17:37.52	112.66	12.59	
2025-01-12 17:17:37.72	112.63	12.61	
2025-01-12 17:17:37.93	112.61	12.63	
2025-01-12 17:17:38.13	112.58	12.65	
2025-01-12 17:17:38.34	112.56	12.67	
2025-01-12 17:17:38.54	112.53	12.68	
2025-01-12 17:17:38.75	112.51	12.70	
2025-01-12 17:17:38.95	112.48	12.72	
2025-01-12 17:17:39.16	112.46	12.74	
2025-01-12 17:17:39.36	112.43	12.76	
2025-01-12 17:17:39.57	112.41	12.78	
2025-01-12 17:17:39.78	112.38	12.79	
2025-01-12 17:17:39.98	112.36	12.81	
2025-01-12 17:17:40.19	112.33	12.83	
2025-01-12 17:17:40.39	112.31	12.85	
2025-01-12 17:17:40.60	112.28	12.87	
2025-01-12 17:17:40.80	112.26	12.89	
2025-01-12 17:17:41.00	112.23	12.90	
2025-01-12 17:17:41.21	112.21	12.92	
2025-01-12 17:17:41.42	112.18	12.94	
2025-01-12 17:17:41.62	112.15	12.96	
2025-01-12 17:17:41.83	112.13	12.98	
2025-01-12 17:17:42.03	112.10	13.00	
2025-01-12 17:17:42.24	112.08	13.02	
2025-01-12 17:17:42.44	112.05	13.03	
2025-01-12 17:17:42.65	112.03	13.05	
2025-01-12 17:17:42.85	112.00	13.07	
2025-01-12 17:17:43.06	111.97	13.09	
2025-01-12 17:17:43.26	111.95	13.11	
2025-01-12 17:17:43.47	111.92	13.13	
2025-01-12 17:17:43.67	111.90	13.14	
2025-01-12 17:17:43.88	111.87	13.16	
2025-01-12 17:17:44.08	111.85	13.18	
2025-01-12 17:17:44.30	111.82	13.20	
2025-01-12 17:17:44.50	111.79	13.22	
2025-01-12 17:17:44.71	111.77	13.24	
2025-01-12 17:17:44.91	111.74	13.26	
2025-01-12 17:17:45.12	111.71	13.27	
2025-01-12 17:17:45.34	111.69	13.29	
2025-01-12 17:17:45.55	111.66	13.31	
2025-01-12 17:17:45.75	111.63	13.33	
2025-01-12 17:17:45.96	111.61	13.35	
2025-01-12 17:17:46.16	111.58	13.37	
2025-01-12 17:17:46.38	111.55	13.39	
2025-01-12 17:17:46.59	111.53	13.41	
2025-01-12 17:17:46.79	111.50	13.43	
2025-01-12 17:17:47.00	111.47	13.45	
2025-01-12 17:17:47.20	111.45	13.46	
2025-01-12 17:17:47.41	111.42	13.48	
2025-01-12 17:17:47.61	111.39	13.50	
2025-01-12 17:17:47.82	111.37	13.52	
2025-01-12 17:17:48.02	111.34	13.54	
2025-01-12 17:17:48.24	111.31	13.56	
2025-01-12 17:17:48.44	111.29	13.58	
2025-01-12 17:17:48.65	111.26	13.60	
2025-01-12 17:17:48.86	111.23	13.61	
2025-01-12 17:17:49.06	111.21	13.63	
2025-01-12 17:17:49.27	111.18	13.65	
2025-01-12 17:17:49.47	111.15	13.67	
2025-01-12 17:17:49.68	111.12	13.69	
2025-01-12 17:17:49.88	111.10	13.71	
2025-01-12 17:17:50.09	111.07	13.73	
2025-01-12 17:17:50.30	111.04	13.75	
2025-01-12 17:17:50.50	111.02	13.76	
2025-01-12 17:17:50.70	110.99	13.78	
2025-01-12 17:17:50.91	110.96	13.80	
2025-01-12 17:17:51.11	110.94	13.82	
2025-01-12 17:17:51.32	110.91	13.84	
2025-01-12 17:17:51.53	110.88	13.86	
2025-01-12 17:17:51.74	110.85	13.88	
2025-01-12 17:17:51.95	110.82	13.90	
2025-01-12 17:17:52.15	110.80	13.92	
2025-01-12 17:17:52.36	110.77	13.94	
2025-01-12 17:17:52.57	110.74	13.96	
2025-01-12 17:17:52.77	110.71	13.97	
2025-01-12 17:17:52.98	110.69	13.99	
2025-01-12 17:17:53.18	110.66	14.01	
2025-01-12 17:17:53.39	110.63	14.03	
2025-01-12 17:17:53.59	110.60	14.05	
2025-01-12 17:17:53.80	110.58	14.07	
2025-01-12 17:17:54.01	110.55	14.09	
2025-01-12 17:17:54.21	110.52	14.11	
2025-01-12 17:17:54.42	110.49	14.13	
2025-01-12 17:17:54.62	110.47	14.15	
2025-01-12 17:17:54.84	110.44	14.17	
2025-01-12 17:17:55.04	110.41	14.18	
2025-01-12 17:17:55.25	110.38	14.20	
2025-01-12 17:17:55.45	110.35	14.22	
2025-01-12 17:17:55.66	110.32	14.24	
2025-01-12 17:17:55.86	110.30	14.26	
2025-01-12 17:17:56.07	110.27	14.28	
2025-01-12 17:17:56.27	110.24	14.30	
2025-01-12 17:17:56.48	110.21	14.32	
2025-01-12 17:17:56.69	110.18	14.34	
2025-01-12 17:17:56.89	110.15	14.36	
2025-01-12 17:17:57.10	110.13	14.38	
2025-01-12 17:17:57.30	110.10	14.39	
2025-01-12 17:17:57.51	110.07	14.41	
2025-01-12 17:17:57.71	110.04	14.43	
2025-01-12 17:17:57.92	110.01	14.45	
2025-01-12 17:17:58.12	109.98	14.47	
2025-01-12 17:17:58.33	109.96	14.49	
2025-01-12 17:17:58.53	109.93	14.51	
2025-01-12 17:17:58.74	109.90	14.53	
2025-01-12 17:17:58.94	109.87	14.55	
2025-01-12 17:17:59.15	109.84	14.57	
2025-01-12 17:17:59.35	109.81	14.59	
2025-01-12 17:17:59.56	109.78	14.61	
2025-01-12 17:17:59.76	109.76	14.62	
2025-01-12 17:17:59.97	109.73	14.64	
2025-01-12 17:18:00.19	109.69	14.67	
2025-01-12 17:18:00.39	109.67	14.68	
2025-01-12 17:18:00.60	109.64	14.70	
2025-01-12 17:18:00.80	109.61	14.72	
2025-01-12 17:18:01.01	109.58	14.74	
2025-01-12 17:18:01.21	109.55	14.76	
2025-01-12 17:18:01.42	109.52	14.78	
2025-01-12 17:18:01.62	109.49	14.80	
2025-01-12 17:18:01.83	109.46	14.82	
2025-01-12 17:18:02.04	109.43	14.84	
2025-01-12 17:18:02.24	109.40	14.86	
2025-01-12 17:18:02.45	109.37	14.88	
2025-01-12 17:18:02.65	109.35	14.90	
2025-01-12 17:18:02.86	109.32	14.92	
2025-01-12 17:18:03.07	109.28	14.94	
2025-01-12 17:18:03.27	109.26	14.96	
2025-01-12 17:18:03.49	109.22	14.98	
2025-01-12 17:18:03.70	109.19	15.00	
2025-01-12 17:18:03.90	109.17	15.02	
2025-01-12 17:18:04.11	109.13	15.04	
2025-01-12 17:18:04.31	109.11	15.05	
2025-01-12 17:18:04.52	109.08	15.07	
2025-01-12 17:18:04.72	109.05	15.09	
2025-01-12 17:18:04.93	109.02	15.11	
2025-01-12 17:18:05.13	108.99	15.13	
2025-01-12 17:18:05.34	108.96	15.15	
2025-01-12 17:18:05.54	108.93	15.17	
2025-01-12 17:18:05.75	108.90	15.19	
2025-01-12 17:18:05.95	108.87	15.21	
2025-01-12 17:18:06.16	108.84	15.23	
2025-01-12 17:18:06.37	108.81	15.25	
2025-01-12 17:18:06.57	108.78	15.27	
2025-01-12 17:18:06.78	108.74	15.29	
2025-01-12 17:18:06.98	108.72	15.31	
2025-01-12 17:18:07.19	108.68	15.33	
2025-01-12 17:18:07.39	108.65	15.35	
2025-01-12 17:18:07.60	108.62	15.37	
2025-01-12 17:18:07.80	108.59	15.39	
2025-01-12 17:18:08.01	108.56	15.41	
2025-01-12 17:18:08.22	108.53	15.43	
2025-01-12 17:18:08.42	108.50	15.45	
2025-01-12 17:18:08.63	108.47	15.47	
2025-01-12 17:18:08.83	108.44	15.49	
2025-01-12 17:18:09.04	108.41	15.51	
2025-01-12 17:18:09.24	108.38	15.53	
2025-01-12 17:18:09.44	108.35	15.55	
2025-01-12 17:18:09.65	108.32	15.57	
2025-01-12 17:18:09.85	108.29	15.58	
2025-01-12 17:18:10.06	108.26	15.60	
2025-01-12 17:18:10.26	108.23	15.62	
2025-01-12 17:18:10.47	108.19	15.64	
2025-01-12 17:18:10.67	108.16	15.66	
2025-01-12 17:18:10.88	108.13	15.68	
2025-01-12 17:18:11.08	108.10	15.70	
2025-01-12 17:18:11.29	108.07	15.72	
2025-01-12 17:18:11.50	108.04	15.74	
2025-01-12 17:18:11.70	108.01	15.76	
2025-01-12 17:18:11.90	107.98	15.78	
2025-01-12 17:18:12.11	107.94	15.80	
2025-01-12 17:18:12.32	107.91	15.82	
2025-01-12 17:18:12.52	107.88	15.84	
2025-01-12 17:18:12.73	107.85	15.86	
2025-01-12 17:18:12.93	107.82	15.88	
2025-01-12 17:18:13.13	107.79	15.90	
2025-01-12 17:18:13.34	107.76	15.92	
2025-01-12 17:18:13.55	107.72	15.94	
2025-01-12 17:18:13.75	107.69	15.96	
2025-01-12 17:18:13.96	107.66	15.98	
2025-01-12 17:18:14.16	107.63	16.00	
2025-01-12 17:18:14.37	107.60	16.02	
2025-01-12 17:18:14.57	107.56	16.04	
2025-01-12 17:18:14.77	107.53	16.06	
2025-01-12 17:18:14.98	107.50	16.08	
2025-01-12 17:18:15.20	107.47	16.10	
2025-01-12 17:18:15.40	107.43	16.12	
2025-01-12 17:18:15.61	107.40	16.14	
2025-01-12 17:18:15.81	107.37	16.16	
2025-01-12 17:18:16.02	107.34	16.18	
2025-01-12 17:18:16.23	107.30	16.20	
2025-01-12 17:18:16.43	107.27	16.22	
2025-01-12 17:18:16.64	107.24	16.24	
2025-01-12 17:18:16.85	107.21	16.26	
2025-01-12 17:18:17.05	107.17	16.28	
2025-01-12 17:18:17.26	107.14	16.30	
2025-01-12 17:18:17.46	107.11	16.32	
2025-01-12 17:18:17.67	107.08	16.34	
2025-01-12 17:18:17.87	107.04	16.36	
2025-01-12 17:18:18.08	107.01	16.38	
2025-01-12 17:18:18.30	106.98	16.41	
2025-01-12 17:18:18.50	106.94	16.43	
2025-01-12 17:18:18.71	106.91	16.45	
2025-01-12 17:18:18.91	106.88	16.47	
2025-01-12 17:18:19.12	106.84	16.49	
2025-01-12 17:18:19.32	106.81	16.51	
2025-01-12 17:18:19.53	106.78	16.53	
2025-01-12 17:18:19.74	106.74	16.55	
2025-01-12 17:18:19.94	106.71	16.57	
2025-01-12 17:18:20.15	106.68	16.59	
2025-01-12 17:18:20.35	106.65	16.61	
2025-01-12 17:18:20.56	106.61	16.63	
2025-01-12 17:18:20.76	106.58	16.65	
2025-01-12 17:18:20.97	106.55	16.67	
2025-01-12 17:18:21.17	106.51	16.69	
2025-01-12 17:18:21.38	106.48	16.71	
2025-01-12 17:18:21.58	106.45	16.73	
2025-01-12 17:18:21.79	106.41	16.75	
2025-01-12 17:18:21.99	106.38	16.77	
2025-01-12 17:18:22.20	106.34	16.79	
2025-01-12 17:18:22.40	106.31	16.81	
2025-01-12 17:18:22.62	106.28	16.83	
2025-01-12 17:18:22.83	106.24	16.85	
2025-01-12 17:18:23.03	106.21	16.87	
2025-01-12 17:18:23.24	106.17	16.89	
2025-01-12 17:18:23.44	106.14	16.91	
2025-01-12 17:18:23.65	106.10	16.93	
2025-01-12 17:18:23.85	106.07	16.95	
2025-01-12 17:18:24.06	106.04	16.98	
2025-01-12 17:18:24.26	106.00	17.00	
2025-01-12 17:18:24.47	105.97	17.02	
2025-01-12 17:18:24.67	105.93	17.04	
2025-01-12 17:18:24.88	105.90	17.06	
2025-01-12 17:18:25.08	105.87	17.08	
2025-01-12 17:18:25.29	105.83	17.10	
2025-01-12 17:18:25.50	105.80	17.12	
2025-01-12 17:18:25.70	105.76	17.14	
2025-01-12 17:18:25.91	105.73	17.16	
2025-01-12 17:18:26.12	105.69	17.18	
2025-01-12 17:18:26.33	105.66	17.20	
2025-01-12 17:18:26.53	105.62	17.22	
2025-01-12 17:18:26.74	105.59	17.24	
2025-01-12 17:18:26.95	105.55	17.26	
2025-01-12 17:18:27.15	105.52	17.28	
2025-01-12 17:18:27.36	105.48	17.30	
2025-01-12 17:18:27.56	105.45	17.32	
2025-01-12 17:18:27.77	105.41	17.35	
2025-01-12 17:18:27.97	105.38	17.37	
2025-01-12 17:18:28.18	105.34	17.39	
2025-01-12 17:18:28.38	105.31	17.41	
2025-01-12 17:18:28.59	105.27	17.43	
2025-01-12 17:18:28.79	105.24	17.45	
2025-01-12 17:18:29.00	105.20	17.47	
2025-01-12 17:18:29.20	105.17	17.49	
2025-01-12 17:18:29.41	105.13	17.51	
2025-01-12 17:18:29.61	105.09	17.53	
2025-01-12 17:18:29.82	105.06	17.55	
2025-01-12 17:18:30.02	105.02	17.57	
2025-01-12 17:18:30.23	104.99	17.59	
2025-01-12 17:18:30.44	104.95	17.61	
2025-01-12 17:18:30.64	104.92	17.63	
2025-01-12 17:18:30.85	104.88	17.65	
2025-01-12 17:18:31.05	104.84	17.67	
2025-01-12 17:18:31.26	104.81	17.70	
2025-01-12 17:18:31.46	104.77	17.72	
2025-01-12 17:18:31.67	104.74	17.74	
2025-01-12 17:18:31.87	104.70	17.76	
2025-01-12 17:18:32.08	104.66	17.78	
2025-01-12 17:18:32.28	104.63	17.80	
2025-01-12 17:18:32.49	104.59	17.82	
2025-01-12 17:18:32.69	104.56	17.84	
2025-01-12 17:18:32.90	104.52	17.86	
2025-01-12 17:18:33.10	104.48	17.88	
2025-01-12 17:18:33.31	104.45	17.90	
2025-01-12 17:18:33.51	104.41	17.92	
2025-01-12 17:18:33.72	104.37	17.94	
2025-01-12 17:18:33.93	104.33	17.97	
2025-01-12 17:18:34.13	104.30	17.99	
2025-01-12 17:18:34.35	104.26	18.01	
2025-01-12 17:18:34.56	104.22	18.03	
2025-01-12 17:18:34.76	104.19	18.05	
2025-01-12 17:18:34.97	104.15	18.07	
2025-01-12 17:18:35.17	104.11	18.09	
2025-01-12 17:18:35.38	104.07	18.11	
2025-01-12 17:18:35.58	104.04	18.13	
2025-01-12 17:18:35.79	104.00	18.15	
2025-01-12 17:18:35.99	103.96	18.18	
2025-01-12 17:18:36.20	103.93	18.20	
2025-01-12 17:18:36.40	103.89	18.22	
2025-01-12 17:18:36.61	103.85	18.24	
2025-01-12 17:18:36.81	103.82	18.26	
2025-01-12 17:18:37.01	103.78	18.28	
2025-01-12 17:18:37.22	103.74	18.30	
2025-01-12 17:18:37.43	103.70	18.32	
2025-01-12 17:18:37.63	103.67	18.34	
2025-01-12 17:18:37.83	103.63	18.36	
2025-01-12 17:18:38.04	103.59	18.38	
2025-01-12 17:18:38.24	103.55	18.40	
2025-01-12 17:18:38.45	103.51	18.43	
2025-01-12 17:18:38.65	103.48	18.45	
2025-01-12 17:18:38.86	103.44	18.47	
2025-01-12 17:18:39.06	103.40	18.49	
2025-01-12 17:18:39.27	103.36	18.51	
2025-01-12 17:18:39.47	103.33	18.53	
2025-01-12 17:18:39.68	103.29	18.55	
2025-01-12 17:18:39.88	103.25	18.57	
2025-01-12 17:18:40.09	103.21	18.59	
2025-01-12 17:18:40.29	103.17	18.61	
2025-01-12 17:18:40.50	103.13	18.64	
2025-01-12 17:18:40.70	103.10	18.66	
2025-01-12 17:18:40.91	103.06	18.68	
2025-01-12 17:18:41.11	103.02	18.70	
2025-01-12 17:18:41.32	102.98	18.72	
2025-01-12 17:18:41.53	102.94	18.74	
2025-01-12 17:18:41.73	102.90	18.76	
2025-01-12 17:18:41.93	102.86	18.78	
2025-01-12 17:18:42.14	102.83	18.80	
2025-01-12 17:18:42.35	102.79	18.83	
2025-01-12 17:18:42.55	102.75	18.85	
2025-01-12 17:18:42.75	102.71	18.87	
2025-01-12 17:18:42.96	102.67	18.89	
2025-01-12 17:18:43.17	102.63	18.91	
2025-01-12 17:18:43.37	102.59	18.93	
2025-01-12 17:18:43.58	102.55	18.95	
2025-01-12 17:18:43.78	102.51	18.97	
2025-01-12 17:18:43.99	102.47	18.99	
2025-01-12 17:18:44.19	102.43	19.01	
2025-01-12 17:18:44.40	102.39	19.04	
2025-01-12 17:18:44.61	102.35	19.06	
2025-01-12 17:18:44.81	102.31	19.08	
2025-01-12 17:18:45.02	102.27	19.10	
2025-01-12 17:18:45.22	102.24	19.12	
2025-01-12 17:18:45.43	102.19	19.14	
2025-01-12 17:18:45.63	102.16	19.16	
2025-01-12 17:18:45.84	102.12	19.18	
2025-01-12 17:18:46.06	102.07	19.21	
2025-01-12 17:18:46.26	102.03	19.23	
2025-01-12 17:18:46.47	101.99	19.25	
2025-01-12 17:18:46.67	101.95	19.27	
2025-01-12 17:18:46.88	101.91	19.29	
2025-01-12 17:18:47.08	101.87	19.31	
2025-01-12 17:18:47.29	101.83	19.33	
2025-01-12 17:18:47.50	101.79	19.36	
2025-01-12 17:18:47.70	101.75	19.38	
2025-01-12 17:18:47.90	101.71	19.40	
2025-01-12 17:18:48.11	101.67	19.42	
2025-01-12 17:18:48.31	101.63	19.44	
2025-01-12 17:18:48.52	101.59	19.46	
2025-01-12 17:18:48.73	101.55	19.48	
2025-01-12 17:18:48.93	101.51	19.50	
2025-01-12 17:18:49.14	101.47	19.53	
2025-01-12 17:18:49.34	101.43	19.55	
2025-01-12 17:18:49.55	101.38	19.57	
2025-01-12 17:18:49.75	101.34	19.59	
2025-01-12 17:18:49.96	101.30	19.61	
2025-01-12 17:18:50.16	101.26	19.63	
2025-01-12 17:18:50.37	101.22	19.65	
2025-01-12 17:18:50.58	101.18	19.68	
2025-01-12 17:18:50.78	101.14	19.70	
2025-01-12 17:18:50.99	101.09	19.72	
2025-01-12 17:18:51.19	101.05	19.74	
2025-01-12 17:18:51.40	101.01	19.76	
2025-01-12 17:18:51.60	100.97	19.78	
2025-01-12 17:18:51.81	100.93	19.80	
2025-01-12 17:18:52.01	100.89	19.82	
2025-01-12 17:18:52.22	100.85	19.85	
2025-01-12 17:18:52.42	100.80	19.87	
2025-01-12 17:18:52.63	100.76	19.89	
2025-01-12 17:18:52.83	100.72	19.91	
2025-01-12 17:18:53.04	100.68	19.93	
2025-01-12 17:18:53.24	100.64	19.95	
2025-01-12 17:18:53.45	100.59	19.97	
2025-01-12 17:18:53.65	100.55	19.99	
2025-01-12 17:18:53.86	100.51	20.02	
2025-01-12 17:18:54.06	100.47	20.04	
2025-01-12 17:18:54.27	100.42	20.06	
2025-01-12 17:18:54.47	100.38	20.08	
2025-01-12 17:18:54.67	100.34	20.10	
2025-01-12 17:18:54.88	100.30	20.12	
2025-01-12 17:18:55.09	100.26	20.14	
2025-01-12 17:18:55.29	100.21	20.17	
2025-01-12 17:18:55.50	100.17	20.19	
2025-01-12 17:18:55.70	100.13	20.21	
2025-01-12 17:18:55.91	100.08	20.23	
2025-01-12 17:18:56.11	100.04	20.25	
2025-01-12 17:18:56.32	100.00	20.27	
2025-01-12 17:18:56.52	99.96	20.29	
2025-01-12 17:18:56.74	99.91	20.32	
2025-01-12 17:18:56.95	99.87	20.34	
2025-01-12 17:18:57.15	99.82	20.36	
2025-01-12 17:18:57.36	99.78	20.38	
2025-01-12 17:18:57.57	99.73	20.40	
2025-01-12 17:18:57.77	99.69	20.42	
2025-01-12 17:18:57.97	99.65	20.45	
2025-01-12 17:18:58.18	99.61	20.47	
2025-01-12 17:18:58.38	99.56	20.49	
2025-01-12 17:18:58.59	99.52	20.51	
2025-01-12 17:18:58.79	99.48	20.53	
2025-01-12 17:18:59.00	99.43	20.55	
2025-01-12 17:18:59.20	99.39	20.57	
2025-01-12 17:18:59.41	99.34	20.60	
2025-01-12 17:18:59.61	99.30	20.62	
2025-01-12 17:18:59.83	99.25	20.64	
2025-01-12 17:19:00.04	99.21	20.66	
2025-01-12 17:19:00.25	99.16	20.68	
2025-01-12 17:19:00.46	99.12	20.71	
2025-01-12 17:19:00.67	99.07	20.73	
2025-01-12 17:19:00.87	99.03	20.75	
2025-01-12 17:19:01.08	98.98	20.77	
2025-01-12 17:19:01.29	98.94	20.79	
2025-01-12 17:19:01.49	98.89	20.81	
2025-01-12 17:19:01.70	98.85	20.84	
2025-01-12 17:19:01.90	98.80	20.86	
2025-01-12 17:19:02.11	98.76	20.88	
2025-01-12 17:19:02.31	98.71	20.90	
2025-01-12 17:19:02.52	98.67	20.92	
2025-01-12 17:19:02.73	98.62	20.94	
2025-01-12 17:19:02.93	98.58	20.96	
2025-01-12 17:19:03.13	98.53	20.99	
2025-01-12 17:19:03.34	98.49	21.01	
2025-01-12 17:19:03.55	98.44	21.03	
2025-01-12 17:19:03.75	98.40	21.05	
2025-01-12 17:19:03.96	98.35	21.07	
2025-01-12 17:19:04.16	98.31	21.09	
2025-01-12 17:19:04.37	98.26	21.12	
2025-01-12 17:19:04.57	98.22	21.14	
2025-01-12 17:19:04.78	98.17	21.16	
2025-01-12 17:19:04.98	98.12	21.18	
2025-01-12 17:19:05.19	98.08	21.20	
2025-01-12 17:19:05.39	98.03	21.22	
2025-01-12 17:19:05.60	97.99	21.25	
2025-01-12 17:19:05.80	97.94	21.27	
2025-01-12 17:19:06.01	97.89	21.29	
2025-01-12 17:19:06.22	97.85	21.31	
2025-01-12 17:19:06.42	97.80	21.33	
2025-01-12 17:19:06.63	97.75	21.35	
2025-01-12 17:19:06.83	97.71	21.37	
2025-01-12 17:19:07.04	97.66	21.40	
2025-01-12 17:19:07.24	97.62	21.42	
2025-01-12 17:19:07.46	97.57	21.44	
2025-01-12 17:19:07.67	97.52	21.46	
2025-01-12 17:19:07.87	97.47	21.48	
2025-01-12 17:19:08.08	97.42	21.51	
2025-01-12 17:19:08.28	97.38	21.53	
2025-01-12 17:19:08.49	97.33	21.55	
2025-01-12 17:19:08.69	97.28	21.57	
2025-01-12 17:19:08.90	97.24	21.59	
2025-01-12 17:19:09.11	97.19	21.61	
2025-01-12 17:19:09.31	97.14	21.63	
2025-01-12 17:19:09.51	97.10	21.66	
2025-01-12 17:19:09.73	97.05	21.68	
2025-01-12 17:19:05.37	98.04	21.22	
2025-01-12 17:19:05.57	97.99	21.24	
2025-01-12 17:19:05.78	97.95	21.26	
2025-01-12 17:19:05.98	97.90	21.28	
2025-01-12 17:19:06.19	97.85	21.31	
2025-01-12 17:19:06.39	97.81	21.33	
2025-01-12 17:19:06.60	97.76	21.35	
2025-01-12 17:19:06.80	97.72	21.37	
2025-01-12 17:19:07.00	97.67	21.39	
2025-01-12 17:19:07.21	97.62	21.41	
2025-01-12 17:19:07.41	97.58	21.44	
2025-01-12 17:19:07.62	97.53	21.46	
2025-01-12 17:19:07.82	97.48	21.48	
2025-01-12 17:19:08.03	97.44	21.50	
2025-01-12 17:19:08.23	97.39	21.52	
2025-01-12 17:19:08.44	97.34	21.54	
2025-01-12 17:19:08.65	97.29	21.57	
2025-01-12 17:19:08.85	97.25	21.59	
2025-01-12 17:19:09.05	97.20	21.61	
2025-01-12 17:19:09.26	97.15	21.63	
2025-01-12 17:19:09.46	97.11	21.65	
2025-01-12 17:19:09.67	97.06	21.67	
2025-01-12 17:19:09.87	97.01	21.69	
2025-01-12 17:19:10.08	96.96	21.72	
2025-01-12 17:19:10.28	96.92	21.74	
2025-01-12 17:19:10.49	96.87	21.76	
2025-01-12 17:19:10.70	96.82	21.78	
2025-01-12 17:19:10.90	96.77	21.80	
2025-01-12 17:19:11.11	96.73	21.82	
2025-01-12 17:19:11.31	96.68	21.84	
2025-01-12 17:19:11.52	96.63	21.87	
2025-01-12 17:19:11.74	96.58	21.89	
2025-01-12 17:19:11.94	96.53	21.91	
2025-01-12 17:19:12.15	96.48	21.93	
2025-01-12 17:19:12.35	96.43	21.95	
2025-01-12 17:19:12.55	96.39	21.97	
2025-01-12 17:19:12.76	96.34	22.00	
2025-01-12 17:19:12.96	96.29	22.02	
2025-01-12 17:19:13.17	96.24	22.04	
2025-01-12 17:19:13.37	96.19	22.06	
2025-01-12 17:19:13.58	96.14	22.08	
2025-01-12 17:19:13.78	96.10	22.10	
2025-01-12 17:19:13.99	96.05	22.13	
2025-01-12 17:19:14.19	96.00	22.15	
2025-01-12 17:19:14.40	95.95	22.17	
2025-01-12 17:19:14.60	95.90	22.19	
2025-01-12 17:19:14.81	95.85	22.21	
2025-01-12 17:19:15.01	95.80	22.23	
2025-01-12 17:19:15.22	95.75	22.25	
2025-01-12 17:19:15.42	95.70	22.28	
2025-01-12 17:19:15.63	95.65	22.30	
2025-01-12 17:19:15.83	95.61	22.32	
2025-01-12 17:19:16.04	95.55	22.34	
2025-01-12 17:19:16.24	95.51	22.36	
2025-01-12 17:19:16.45	95.46	22.38	
2025-01-12 17:19:16.65	95.41	22.40	
2025-01-12 17:19:16.86	95.36	22.43	
2025-01-12 17:19:17.06	95.31	22.45	
2025-01-12 17:19:17.27	95.26	22.47	
2025-01-12 17:19:17.47	95.21	22.49	
2025-01-12 17:19:17.68	95.16	22.51	
2025-01-12 17:19:17.88	95.11	22.53	
2025-01-12 17:19:18.09	95.06	22.56	
2025-01-12 17:19:18.29	95.01	22.58	
2025-01-12 17:19:18.50	94.96	22.60	
2025-01-12 17:19:18.70	94.91	22.62	
2025-01-12 17:19:18.91	94.85	22.64	
2025-01-12 17:19:19.11	94.81	22.66	
2025-01-12 17:19:19.32	94.75	22.68	
2025-01-12 17:19:19.52	94.70	22.70	
2025-01-12 17:19:19.73	94.65	22.73	
2025-01-12 17:19:19.93	94.60	22.75	
2025-01-12 17:19:20.14	94.55	22.77	
2025-01-12 17:19:20.35	94.50	22.79	
2025-01-12 17:19:20.55	94.45	22.81	
2025-01-12 17:19:20.76	94.40	22.83	
2025-01-12 17:19:20.96	94.35	22.86	
2025-01-12 17:19:21.17	94.29	22.88	
2025-01-12 17:19:21.37	94.24	22.90	
2025-01-12 17:19:21.58	94.19	22.92	
2025-01-12 17:19:21.79	94.14	22.94	
2025-01-12 17:19:21.99	94.09	22.96	
2025-01-12 17:19:22.19	94.04	22.98	
2025-01-12 17:19:22.40	93.98	23.01	
2025-01-12 17:19:22.60	93.93	23.03	
2025-01-12 17:19:22.81	93.88	23.05	
2025-01-12 17:19:23.02	93.83	23.07	
2025-01-12 17:19:23.22	93.78	23.09	
2025-01-12 17:19:23.43	93.72	23.11	
2025-01-12 17:19:23.63	93.67	23.13	
2025-01-12 17:19:23.84	93.62	23.16	
2025-01-12 17:19:24.04	93.57	23.18	
2025-01-12 17:19:24.25	93.51	23.20	
2025-01-12 17:19:24.45	93.46	23.22	
2025-01-12 17:19:24.66	93.41	23.24	
2025-01-12 17:19:24.86	93.36	23.26	
2025-01-12 17:19:25.06	93.30	23.28	
2025-01-12 17:19:25.27	93.25	23.30	
2025-01-12 17:19:25.48	93.20	23.33	
2025-01-12 17:19:25.68	93.15	23.35	
2025-01-12 17:19:25.88	93.09	23.37	
2025-01-12 17:19:26.09	93.04	23.39	
2025-01-12 17:19:26.30	92.98	23.41	
2025-01-12 17:19:26.50	92.93	23.43	
2025-01-12 17:19:26.71	92.88	23.45	
2025-01-12 17:19:26.91	92.83	23.47	
2025-01-12 17:19:27.12	92.77	23.50	
2025-01-12 17:19:27.32	92.72	23.52	
2025-01-12 17:19:27.53	92.66	23.54	
2025-01-12 17:19:27.73	92.61	23.56	
2025-01-12 17:19:27.94	92.56	23.58	
2025-01-12 17:19:28.14	92.50	23.60	
2025-01-12 17:19:28.35	92.45	23.62	
2025-01-12 17:19:28.55	92.40	23.64	
2025-01-12 17:19:28.76	92.34	23.67	
2025-01-12 17:19:28.96	92.29	23.69	
2025-01-12 17:19:29.17	92.23	23.71	
2025-01-12 17:19:29.38	92.18	23.73	
2025-01-12 17:19:29.58	92.12	23.75	
2025-01-12 17:19:29.79	92.07	23.77	
2025-01-12 17:19:29.99	92.01	23.79	
2025-01-12 17:19:30.20	91.96	23.81	
2025-01-12 17:19:30.40	91.90	23.83	
2025-01-12 17:19:30.61	91.85	23.86	
2025-01-12 17:19:30.81	91.79	23.88	
2025-01-12 17:19:31.02	91.74	23.90	
2025-01-12 17:19:31.22	91.68	23.92	
2025-01-12 17:19:31.43	91.63	23.94	
2025-01-12 17:19:31.63	91.57	23.96	
2025-01-12 17:19:31.84	91.52	23.98	
2025-01-12 17:19:32.04	91.46	24.00	
2025-01-12 17:19:32.25	91.41	24.02	
2025-01-12 17:19:32.45	91.35	24.05	
2025-01-12 17:19:32.66	91.30	24.07	
2025-01-12 17:19:32.86	91.24	24.09	
2025-01-12 17:19:33.07	91.18	24.11	
2025-01-12 17:19:33.27	91.13	24.13	
2025-01-12 17:19:33.48	91.07	24.15	
2025-01-12 17:19:33.68	91.02	24.17	
2025-01-12 17:19:33.89	90.96	24.19	
2025-01-12 17:19:34.09	90.91	24.21	
2025-01-12 17:19:34.30	90.85	24.23	
2025-01-12 17:19:34.50	90.79	24.25	
2025-01-12 17:19:34.71	90.74	24.28	
2025-01-12 17:19:34.91	90.68	24.30	
2025-01-12 17:19:35.12	90.62	24.32	
2025-01-12 17:19:35.32	90.57	24.34	
2025-01-12 17:19:35.53	90.51	24.36	
2025-01-12 17:19:35.74	90.45	24.38	
2025-01-12 17:19:35.94	90.40	24.40	
2025-01-12 17:19:36.15	90.34	24.42	
2025-01-12 17:19:36.35	90.28	24.44	
2025-01-12 17:19:36.56	90.22	24.46	
2025-01-12 17:19:36.76	90.17	24.48	
2025-01-12 17:19:36.97	90.11	24.51	
2025-01-12 17:19:37.17	90.05	24.53	
2025-01-12 17:19:37.38	89.99	24.55	
2025-01-12 17:19:37.58	89.94	24.57	
2025-01-12 17:19:37.79	89.88	24.59	
2025-01-12 17:19:37.99	89.82	24.61	
2025-01-12 17:19:38.20	89.76	24.63	
2025-01-12 17:19:38.40	89.71	24.65	
2025-01-12 17:19:38.61	89.65	24.67	
2025-01-12 17:19:38.81	89.59	24.69	
2025-01-12 17:19:39.02	89.53	24.71	
2025-01-12 17:19:39.22	89.48	24.73	
2025-01-12 17:19:39.43	89.42	24.75	
2025-01-12 17:19:39.63	89.36	24.77	
2025-01-12 17:19:39.84	89.30	24.79	
2025-01-12 17:19:40.05	89.24	24.82	
2025-01-12 17:19:40.25	89.18	24.84	
2025-01-12 17:19:40.45	89.13	24.86	
2025-01-12 17:19:40.66	89.07	24.88	
2025-01-12 17:19:40.88	89.00	24.90	
2025-01-12 17:19:41.08	88.95	24.92	
2025-01-12 17:19:41.29	88.88	24.94	
2025-01-12 17:19:41.49	88.83	24.96	
2025-01-12 17:19:41.70	88.77	24.98	
2025-01-12 17:19:41.90	88.71	25.00	
2025-01-12 17:19:42.11	88.65	25.02	
2025-01-12 17:19:42.31	88.59	25.04	
2025-01-12 17:19:42.52	88.53	25.06	
2025-01-12 17:19:42.72	88.47	25.08	
2025-01-12 17:19:42.93	88.41	25.10	
2025-01-12 17:19:43.14	88.35	25.12	
2025-01-12 17:19:43.34	88.29	25.14	
2025-01-12 17:19:43.54	88.23	25.16	
2025-01-12 17:19:43.75	88.17	25.18	
2025-01-12 17:19:43.96	88.11	25.21	
2025-01-12 17:19:44.16	88.05	25.23	
2025-01-12 17:19:44.37	87.99	25.25	
2025-01-12 17:19:44.57	87.93	25.27	
2025-01-12 17:19:44.78	87.87	25.29	
2025-01-12 17:19:44.98	87.81	25.31	
2025-01-12 17:19:45.19	87.75	25.33	
2025-01-12 17:19:45.39	87.69	25.35	
2025-01-12 17:19:45.61	87.63	25.37	
2025-01-12 17:19:45.82	87.56	25.39	
2025-01-12 17:19:46.02	87.50	25.41	
2025-01-12 17:19:46.23	87.44	25.43	
2025-01-12 17:19:46.43	87.38	25.45	
2025-01-12 17:19:46.64	87.32	25.47	
2025-01-12 17:19:46.84	87.26	25.49	
2025-01-12 17:19:47.05	87.20	25.51	
2025-01-12 17:19:47.26	87.13	25.53	
2025-01-12 17:19:47.46	87.07	25.55	
2025-01-12 17:19:47.66	87.01	25.57	
2025-01-12 17:19:47.87	86.95	25.59	
2025-01-12 17:19:48.07	86.89	25.61	
2025-01-12 17:19:48.28	86.83	25.63	
2025-01-12 17:19:48.48	86.77	25.65	
2025-01-12 17:19:48.68	86.71	25.67	
2025-01-12 17:19:48.89	86.64	25.69	
2025-01-12 17:19:49.09	86.58	25.71	
2025-01-12 17:19:49.30	86.52	25.73	
2025-01-12 17:19:49.51	86.46	25.75	
2025-01-12 17:19:49.71	86.40	25.77	
2025-01-12 17:19:49.93	86.33	25.79	
2025-01-12 17:19:50.13	86.27	25.81	
2025-01-12 17:19:50.34	86.20	25.83	
2025-01-12 17:19:50.54	86.14	25.85	
2025-01-12 17:19:50.75	86.08	25.87	
2025-01-12 17:19:50.95	86.02	25.89	
2025-01-12 17:19:51.16	85.95	25.91	
2025-01-12 17:19:51.36	85.89	25.93	
2025-01-12 17:19:51.57	85.83	25.95	
2025-01-12 17:19:51.78	85.76	25.97	
2025-01-12 17:19:51.98	85.70	25.98	
2025-01-12 17:19:52.19	85.64	26.00	
2025-01-12 17:19:52.40	85.57	26.02	
2025-01-12 17:19:52.60	85.51	26.04	
2025-01-12 17:19:52.81	85.45	26.06	
2025-01-12 17:19:53.01	85.38	26.08	
2025-01-12 17:19:53.22	85.32	26.10	
2025-01-12 17:19:53.42	85.26	26.12	
2025-01-12 17:19:53.63	85.19	26.14	
2025-01-12 17:19:53.84	85.13	26.16	
2025-01-12 17:19:54.04	85.06	26.18	
2025-01-12 17:19:54.25	85.00	26.20	
2025-01-12 17:19:54.45	84.94	26.22	
2025-01-12 17:19:54.66	84.87	26.24	
2025-01-12 17:19:54.86	84.81	26.26	
2025-01-12 17:19:55.07	84.74	26.28	
2025-01-12 17:19:55.27	84.68	26.29	
2025-01-12 17:19:55.48	84.61	26.31	
2025-01-12 17:19:55.69	84.55	26.33	
2025-01-12 17:19:55.91	84.48	26.35	
2025-01-12 17:19:56.12	84.41	26.37	
2025-01-12 17:19:56.33	84.34	26.39	
2025-01-12 17:19:56.53	84.28	26.41	
2025-01-12 17:19:56.74	84.21	26.43	
2025-01-12 17:19:56.94	84.15	26.45	
2025-01-12 17:19:57.15	84.08	26.47	
2025-01-12 17:19:57.35	84.02	26.49	
2025-01-12 17:19:57.56	83.95	26.51	
2025-01-12 17:19:57.76	83.89	26.53	
2025-01-12 17:19:57.97	83.82	26.54	
2025-01-12 17:19:58.17	83.76	26.56	
2025-01-12 17:19:58.38	83.69	26.58	
2025-01-12 17:19:58.58	83.63	26.60	
2025-01-12 17:19:58.79	83.56	26.62	
2025-01-12 17:19:58.99	83.50	26.64	
2025-01-12 17:19:59.20	83.43	26.66	
2025-01-12 17:19:59.40	83.36	26.68	
2025-01-12 17:19:59.61	83.30	26.69	
2025-01-12 17:19:59.81	83.23	26.71	
2025-01-12 17:20:00.02	83.16	26.73	
2025-01-12 17:20:00.22	83.10	26.75	
2025-01-12 17:20:00.43	83.03	26.77	
2025-01-12 17:20:00.63	82.97	26.79	
2025-01-12 17:20:00.83	82.90	26.80	
2025-01-12 17:20:01.04	82.83	26.82	
2025-01-12 17:20:01.25	82.76	26.84	
2025-01-12 17:20:01.45	82.70	26.86	
2025-01-12 17:20:01.66	82.63	26.88	
2025-01-12 17:20:01.86	82.56	26.90	
2025-01-12 17:20:02.07	82.50	26.92	
2025-01-12 17:20:02.27	82.43	26.93	
2025-01-12 17:20:02.48	82.36	26.95	
2025-01-12 17:20:02.68	82.30	26.97	
2025-01-12 17:20:02.89	82.23	26.99	
2025-01-12 17:20:03.09	82.16	27.01	
2025-01-12 17:20:03.30	82.09	27.02	
2025-01-12 17:20:03.50	82.03	27.04	
2025-01-12 17:20:03.70	81.96	27.06	
2025-01-12 17:20:03.91	81.89	27.08	
2025-01-12 17:20:04.12	81.82	27.10	
2025-01-12 17:20:04.32	81.75	27.11	
2025-01-12 17:20:04.53	81.68	27.13	
2025-01-12 17:20:04.73	81.62	27.15	
2025-01-12 17:20:04.94	81.55	27.17	
2025-01-12 17:20:05.14	81.48	27.19	
2025-01-12 17:20:05.35	81.41	27.20	
2025-01-12 17:20:05.55	81.34	27.22	
2025-01-12 17:20:05.76	81.27	27.24	
2025-01-12 17:20:05.96	81.21	27.26	
2025-01-12 17:20:06.17	81.14	27.28	
2025-01-12 17:20:06.37	81.07	27.29	
2025-01-12 17:20:06.58	81.00	27.31	
2025-01-12 17:20:06.78	80.93	27.33	
2025-01-12 17:20:06.99	80.86	27.35	
2025-01-12 17:20:07.19	80.79	27.36	
2025-01-12 17:20:07.40	80.72	27.38	
2025-01-12 17:20:07.61	80.65	27.40	
2025-01-12 17:20:07.81	80.59	27.42	
2025-01-12 17:20:08.01	80.52	27.43	
2025-01-12 17:20:08.22	80.45	27.45	
2025-01-12 17:20:08.42	80.38	27.47	
2025-01-12 17:20:08.63	80.31	27.49	
2025-01-12 17:20:08.84	80.24	27.50	
2025-01-12 17:20:09.04	80.17	27.52	
2025-01-12 17:20:09.24	80.10	27.54	
2025-01-12 17:20:09.45	80.03	27.55	
2025-01-12 17:20:09.65	79.96	27.57	
2025-01-12 17:20:09.86	79.89	27.59	
2025-01-12 17:20:10.07	79.82	27.61	
2025-01-12 17:20:10.27	79.75	27.62	
2025-01-12 17:20:10.48	79.68	27.64	
2025-01-12 17:20:10.68	79.61	27.66	
2025-01-12 17:20:10.89	79.53	27.67	
2025-01-12 17:20:11.09	79.47	27.69	
2025-01-12 17:20:11.31	79.39	27.71	
2025-01-12 17:20:11.51	79.32	27.72	
2025-01-12 17:20:11.72	79.25	27.74	
2025-01-12 17:20:11.92	79.18	27.76	
2025-01-12 17:20:12.13	79.11	27.77	
2025-01-12 17:20:12.33	79.04	27.79	
2025-01-12 17:20:12.54	78.96	27.81	
2025-01-12 17:20:12.74	78.89	27.82	
2025-01-12 17:20:12.95	78.82	27.84	
2025-01-12 17:20:13.15	78.75	27.86	
2025-01-12 17:20:13.36	78.68	27.87	
2025-01-12 17:20:13.57	78.61	27.89	
2025-01-12 17:20:13.77	78.54	27.91	
2025-01-12 17:20:13.98	78.46	27.92	
2025-01-12 17:20:14.19	78.39	27.94	
2025-01-12 17:20:14.39	78.32	27.96	
2025-01-12 17:20:14.59	78.25	27.97	
2025-01-12 17:20:14.80	78.18	27.99	
2025-01-12 17:20:15.00	78.11	28.00	
2025-01-12 17:20:15.21	78.03	28.02	
2025-01-12 17:20:15.42	77.96	28.04	
2025-01-12 17:20:15.63	77.88	28.05	
2025-01-12 17:20:15.84	77.81	28.07	
2025-01-12 17:20:16.04	77.74	28.09	
2025-01-12 17:20:16.25	77.66	28.10	
2025-01-12 17:20:16.46	77.59	28.12	
2025-01-12 17:20:16.67	77.52	28.13	
2025-01-12 17:20:16.88	77.44	28.15	
2025-01-12 17:20:17.09	77.37	28.17	
2025-01-12 17:20:17.29	77.30	28.18	
2025-01-12 17:20:17.50	77.22	28.20	
2025-01-12 17:20:17.70	77.15	28.21	
2025-01-12 17:20:17.91	77.08	28.23	
2025-01-12 17:20:18.11	77.00	28.25	
2025-01-12 17:20:18.32	76.93	28.26	
2025-01-12 17:20:18.52	76.86	28.28	
2025-01-12 17:20:18.73	76.78	28.29	
2025-01-12 17:20:18.93	76.71	28.31	
2025-01-12 17:20:19.14	76.64	28.32	
2025-01-12 17:20:19.34	76.56	28.34	
2025-01-12 17:20:19.55	76.49	28.35	
2025-01-12 17:20:19.75	76.42	28.37	
2025-01-12 17:20:19.96	76.34	28.38	
2025-01-12 17:20:20.17	76.26	28.40	
2025-01-12 17:20:20.37	76.19	28.41	
2025-01-12 17:20:20.58	76.12	28.43	
2025-01-12 17:20:20.78	76.04	28.44	
2025-01-12 17:20:20.99	75.97	28.46	
2025-01-12 17:20:21.19	75.90	28.47	
2025-01-12 17:20:21.40	75.82	28.49	
2025-01-12 17:20:21.60	75.75	28.50	
2025-01-12 17:20:21.81	75.67	28.52	
2025-01-12 17:20:22.01	75.60	28.53	
2025-01-12 17:20:22.22	75.52	28.55	
2025-01-12 17:20:22.42	75.45	28.56	
2025-01-12 17:20:22.63	75.37	28.58	
2025-01-12 17:20:22.84	75.30	28.59	
2025-01-12 17:20:23.04	75.22	28.61	
2025-01-12 17:20:23.25	75.15	28.62	
2025-01-12 17:20:23.45	75.07	28.64	
2025-01-12 17:20:23.66	75.00	28.65	
2025-01-12 17:20:23.87	74.92	28.66	
2025-01-12 17:20:24.07	74.85	28.68	
2025-01-12 17:20:24.28	74.77	28.69	
2025-01-12 17:20:24.48	74.70	28.71	
2025-01-12 17:20:24.69	74.62	28.72	
2025-01-12 17:20:24.89	74.54	28.74	
2025-01-12 17:20:25.10	74.47	28.75	
2025-01-12 17:20:25.30	74.39	28.76	
2025-01-12 17:20:25.51	74.32	28.78	
2025-01-12 17:20:25.72	74.24	28.79	
2025-01-12 17:20:25.92	74.16	28.81	
2025-01-12 17:20:26.13	74.09	28.82	
2025-01-12 17:20:26.33	74.01	28.83	
2025-01-12 17:20:26.54	73.93	28.85	
2025-01-12 17:20:26.75	73.86	28.86	
2025-01-12 17:20:26.95	73.78	28.87	
2025-01-12 17:20:27.16	73.70	28.89	
2025-01-12 17:20:27.36	73.63	28.90	
2025-01-12 17:20:27.57	73.55	28.92	
2025-01-12 17:20:27.77	73.48	28.93	
2025-01-12 17:20:27.98	73.40	28.94	
2025-01-12 17:20:28.18	73.32	28.96	
2025-01-12 17:20:28.38	73.25	28.97	
2025-01-12 17:20:28.59	73.17	28.98	
2025-01-12 17:20:28.80	73.09	29.00	
2025-01-12 17:20:29.00	73.02	29.01	
2025-01-12 17:20:29.21	72.94	29.02	
2025-01-12 17:20:29.41	72.86	29.03	
2025-01-12 17:20:29.62	72.78	29.05	
2025-01-12 17:20:29.82	72.71	29.06	
2025-01-12 17:20:30.03	72.63	29.07	
2025-01-12 17:20:30.23	72.55	29.09	
2025-01-12 17:20:30.44	72.48	29.10	
2025-01-12 17:20:30.64	72.40	29.11	
2025-01-12 17:20:30.85	72.32	29.12	
2025-01-12 17:20:31.05	72.24	29.14	
2025-01-12 17:20:31.26	72.17	29.15	
2025-01-12 17:20:31.46	72.09	29.16	
2025-01-12 17:20:31.68	72.01	29.18	
2025-01-12 17:20:31.89	71.93	29.19	
2025-01-12 17:20:32.09	71.85	29.20	
2025-01-12 17:20:32.30	71.77	29.21	
2025-01-12 17:20:32.51	71.69	29.23	
2025-01-12 17:20:32.71	71.62	29.24	
2025-01-12 17:20:32.92	71.54	29.25	
2025-01-12 17:20:33.12	71.46	29.26	
2025-01-12 17:20:33.33	71.38	29.27	
2025-01-12 17:20:33.54	71.30	29.29	
2025-01-12 17:20:33.74	71.22	29.30	
2025-01-12 17:20:33.95	71.14	29.31	
2025-01-12 17:20:34.15	71.07	29.32	
2025-01-12 17:20:34.36	70.99	29.33	
2025-01-12 17:20:34.56	70.91	29.35	
2025-01-12 17:20:34.77	70.83	29.36	
2025-01-12 17:20:34.98	70.75	29.37	
2025-01-12 17:20:35.18	70.67	29.38	
2025-01-12 17:20:35.39	70.59	29.39	
2025-01-12 17:20:35.59	70.51	29.40	
2025-01-12 17:20:35.80	70.43	29.42	
2025-01-12 17:20:36.00	70.36	29.43	
2025-01-12 17:20:36.21	70.27	29.44	
2025-01-12 17:20:36.41	70.20	29.45	
2025-01-12 17:20:36.62	70.12	29.46	
2025-01-12 17:20:36.83	70.04	29.47	
2025-01-12 17:20:37.05	69.95	29.48	
2025-01-12 17:20:37.25	69.87	29.50	
2025-01-12 17:20:37.46	69.79	29.51	
2025-01-12 17:20:37.66	69.71	29.52	
2025-01-12 17:20:37.87	69.63	29.53	
2025-01-12 17:20:38.07	69.56	29.54	
2025-01-12 17:20:38.28	69.47	29.55	
2025-01-12 17:20:38.48	69.40	29.56	
2025-01-12 17:20:38.69	69.31	29.57	
2025-01-12 17:20:38.89	69.24	29.58	
2025-01-12 17:20:39.10	69.16	29.59	
2025-01-12 17:20:39.30	69.08	29.60	
2025-01-12 17:20:39.51	69.00	29.61	
2025-01-12 17:20:39.72	68.91	29.62	
2025-01-12 17:20:39.92	68.84	29.63	
2025-01-12 17:20:40.13	68.75	29.64	
2025-01-12 17:20:40.33	68.68	29.65	
2025-01-12 17:20:40.54	68.59	29.67	
2025-01-12 17:20:40.74	68.52	29.67	
2025-01-12 17:20:40.95	68.43	29.69	
2025-01-12 17:20:41.15	68.35	29.69	
2025-01-12 17:20:41.36	68.27	29.71	
2025-01-12 17:20:41.56	68.19	29.71	
2025-01-12 17:20:41.77	68.11	29.72	
2025-01-12 17:20:41.97	68.03	29.73	
2025-01-12 17:20:42.18	67.95	29.74	
2025-01-12 17:20:42.38	67.87	29.75	
2025-01-12 17:20:42.59	67.79	29.76	
2025-01-12 17:20:42.80	67.71	29.77	
2025-01-12 17:20:43.00	67.63	29.78	
2025-01-12 17:20:43.21	67.55	29.79	
2025-01-12 17:20:43.43	67.46	29.80	
2025-01-12 17:20:43.63	67.38	29.81	
2025-01-12 17:20:43.84	67.30	29.82	
2025-01-12 17:20:44.05	67.21	29.83	
2025-01-12 17:20:44.25	67.13	29.84	
2025-01-12 17:20:44.46	67.05	29.85	
2025-01-12 17:20:44.66	66.97	29.86	
2025-01-12 17:20:44.87	66.89	29.87	
2025-01-12 17:20:45.08	66.81	29.88	
2025-01-12 17:20:45.28	66.73	29.88	
2025-01-12 17:20:45.48	66.65	29.89	
2025-01-12 17:20:45.69	66.56	29.90	
2025-01-12 17:20:45.89	66.48	29.91	
2025-01-12 17:20:46.10	66.40	29.92	
2025-01-12 17:20:46.30	66.32	29.93	
2025-01-12 17:20:46.51	66.24	29.94	
2025-01-12 17:20:46.71	66.16	29.94	
2025-01-12 17:20:46.92	66.07	29.95	
2025-01-12 17:20:47.12	66.00	29.96	
2025-01-12 17:20:47.33	65.91	29.97	
2025-01-12 17:20:47.54	65.83	29.98	
2025-01-12 17:20:47.74	65.75	29.98	
2025-01-12 17:20:47.94	65.67	29.99	
2025-01-12 17:20:48.15	65.58	30.00	
2025-01-12 17:20:48.36	65.50	30.01	
2025-01-12 17:20:48.56	65.42	30.02	
2025-01-12 17:20:48.77	65.34	30.02	
2025-01-12 17:20:48.97	65.26	30.03	
2025-01-12 17:20:49.18	65.17	30.04	
2025-01-12 17:20:49.39	65.09	30.05	
2025-01-12 17:20:49.59	65.01	30.05	
2025-01-12 17:20:49.79	64.93	30.06	
2025-01-12 17:20:50.00	64.84	30.07	
2025-01-12 17:20:50.20	64.76	30.08	
2025-01-12 17:20:50.41	64.68	30.08	
2025-01-12 17:20:50.62	64.59	30.09	
2025-01-12 17:20:50.82	64.51	30.10	
2025-01-12 17:20:51.02	64.43	30.11	
2025-01-12 17:20:51.23	64.35	30.11	
2025-01-12 17:20:51.44	64.26	30.12	
2025-01-12 17:20:51.64	64.18	30.13	
2025-01-12 17:20:51.85	64.10	30.13	
2025-01-12 17:20:52.05	64.02	30.14	
2025-01-12 17:20:52.26	63.93	30.15	
2025-01-12 17:20:52.46	63.85	30.15	
2025-01-12 17:20:52.67	63.77	30.16	
2025-01-12 17:20:52.87	63.69	30.17	
2025-01-12 17:20:53.07	63.61	30.17	
2025-01-12 17:20:53.28	63.52	30.18	
2025-01-12 17:20:53.48	63.44	30.19	
2025-01-12 17:20:53.69	63.36	30.19	
2025-01-12 17:20:53.90	63.27	30.20	
2025-01-12 17:20:54.10	63.19	30.20	
2025-01-12 17:20:54.31	63.11	30.21	
2025-01-12 17:20:54.51	63.03	30.22	
2025-01-12 17:20:54.72	62.94	30.22	
2025-01-12 17:20:54.92	62.86	30.23	
2025-01-12 17:20:55.13	62.77	30.23	
2025-01-12 17:20:55.33	62.69	30.24	
2025-01-12 17:20:55.54	62.61	30.25	
2025-01-12 17:20:55.74	62.53	30.25	
2025-01-12 17:20:55.95	62.44	30.26	
2025-01-12 17:20:56.15	62.36	30.26	
2025-01-12 17:20:56.36	62.27	30.27	
2025-01-12 17:20:56.56	62.19	30.27	
2025-01-12 17:20:56.77	62.11	30.28	
2025-01-12 17:20:56.98	62.02	30.28	
2025-01-12 17:20:57.18	61.94	30.29	
2025-01-12 17:20:57.39	61.86	30.29	
2025-01-12 17:20:57.59	61.77	30.30	
2025-01-12 17:20:57.80	61.69	30.30	
2025-01-12 17:20:58.00	61.61	30.31	
2025-01-12 17:20:58.21	61.52	30.31	
2025-01-12 17:20:58.41	61.44	30.32	
2025-01-12 17:20:58.62	61.35	30.32	
2025-01-12 17:20:58.83	61.27	30.33	
2025-01-12 17:20:59.03	61.19	30.33	
2025-01-12 17:20:59.24	61.10	30.34	
2025-01-12 17:20:59.44	61.02	30.34	
2025-01-12 17:20:59.65	60.93	30.34	
2025-01-12 17:20:59.85	60.85	30.35	
2025-01-12 17:21:00.06	60.77	30.35	
2025-01-12 17:21:00.26	60.69	30.36	
2025-01-12 17:21:00.46	60.60	30.36	
2025-01-12 17:21:00.67	60.52	30.37	
2025-01-12 17:21:00.87	60.44	30.37	
2025-01-12 17:21:01.08	60.35	30.37	
2025-01-12 17:21:01.29	60.26	30.38	
2025-01-12 17:21:01.49	60.18	30.38	
2025-01-12 17:21:01.70	60.10	30.38	
2025-01-12 17:21:01.90	60.01	30.39	
2025-01-12 17:21:02.11	59.93	30.39	
2025-01-12 17:21:02.31	59.85	30.40	
2025-01-12 17:21:02.51	59.76	30.40	
2025-01-12 17:21:02.73	59.67	30.40	
2025-01-12 17:21:02.94	59.59	30.41	
2025-01-12 17:21:03.14	59.51	30.41	
2025-01-12 17:21:03.35	59.42	30.41	
2025-01-12 17:21:03.56	59.33	30.42	
2025-01-12 17:21:03.76	59.25	30.42	
2025-01-12 17:21:03.97	59.17	30.42	
2025-01-12 17:21:04.17	59.08	30.42	
2025-01-12 17:21:04.38	59.00	30.43	
2025-01-12 17:21:04.59	58.91	30.43	
2025-01-12 17:21:04.79	58.83	30.43	
2025-01-12 17:21:04.99	58.75	30.43	
2025-01-12 17:21:05.20	58.66	30.44	
2025-01-12 17:21:05.41	58.58	30.44	
2025-01-12 17:21:05.61	58.49	30.44	
2025-01-12 17:21:05.82	58.41	30.44	
2025-01-12 17:21:06.02	58.32	30.45	
2025-01-12 17:21:06.22	58.24	30.45	
2025-01-12 17:21:06.43	58.16	30.45	
2025-01-12 17:21:06.64	58.07	30.45	
2025-01-12 17:21:06.84	57.99	30.46	
2025-01-12 17:21:07.06	57.90	30.46	
2025-01-12 17:21:07.27	57.81	30.46	
2025-01-12 17:21:07.47	57.73	30.46	
2025-01-12 17:21:07.68	57.64	30.46	
2025-01-12 17:21:07.88	57.56	30.46	
2025-01-12 17:21:08.09	57.47	30.47	
2025-01-12 17:21:08.29	57.39	30.47	
2025-01-12 17:21:08.50	57.30	30.47	
2025-01-12 17:21:08.70	57.22	30.47	
2025-01-12 17:21:08.91	57.14	30.47	
2025-01-12 17:21:09.11	57.05	30.47	
2025-01-12 17:21:09.32	56.97	30.47	
2025-01-12 17:21:09.52	56.88	30.48	
2025-01-12 17:21:09.73	56.80	30.48	
2025-01-12 17:21:09.93	56.72	30.48	
2025-01-12 17:21:10.14	56.63	30.48	
2025-01-12 17:21:10.34	56.55	30.48	
2025-01-12 17:21:10.55	56.46	30.48	
2025-01-12 17:21:10.75	56.38	30.48	
2025-01-12 17:21:10.96	56.29	30.48	
2025-01-12 17:21:11.16	56.21	30.48	
2025-01-12 17:21:11.37	56.12	30.48	
2025-01-12 17:21:11.57	56.04	30.48	
2025-01-12 17:21:11.77	55.96	30.48	
2025-01-12 17:21:11.98	55.87	30.48	
2025-01-12 17:21:12.19	55.79	30.48	
2025-01-12 17:21:12.39	55.70	30.48	
2025-01-12 17:21:12.60	55.62	30.48	
2025-01-12 17:21:12.80	55.53	30.48	
2025-01-12 17:21:13.00	55.45	30.48	
2025-01-12 17:21:13.21	55.37	30.48	
2025-01-12 17:21:13.41	55.28	30.48	
2025-01-12 17:21:13.62	55.20	30.48	
2025-01-12 17:21:13.83	55.11	30.48	
2025-01-12 17:21:14.03	55.03	30.48	
2025-01-12 17:21:14.24	54.94	30.48	
2025-01-12 17:21:14.44	54.86	30.48	
2025-01-12 17:21:14.65	54.77	30.48	
2025-01-12 17:21:14.85	54.69	30.48	
2025-01-12 17:21:15.06	54.60	30.48	
2025-01-12 17:21:15.27	54.52	30.48	
2025-01-12 17:21:15.47	54.43	30.48	
2025-01-12 17:21:15.67	54.35	30.48	
2025-01-12 17:21:15.88	54.27	30.48	
2025-01-12 17:21:16.09	54.18	30.48	
2025-01-12 17:21:16.29	54.10	30.47	
2025-01-12 17:21:16.50	54.01	30.47	
2025-01-12 17:21:16.70	53.93	30.47	
2025-01-12 17:21:16.91	53.84	30.47	
2025-01-12 17:21:17.11	53.76	30.47	
2025-01-12 17:21:17.32	53.67	30.47	
2025-01-12 17:21:17.52	53.59	30.47	
2025-01-12 17:21:17.73	53.50	30.46	
2025-01-12 17:21:17.93	53.42	30.46	
2025-01-12 17:21:18.14	53.34	30.46	
2025-01-12 17:21:18.34	53.25	30.46	
2025-01-12 17:21:18.55	53.17	30.46	
2025-01-12 17:21:18.75	53.09	30.46	
