passes_logs/2025/01/12/SPB_Silybum_02/SPB_Silybum_02__20250112_110221_SUOMI_NPP_rec.log

#Pass ID: 20250112_110221_SUOMI NPP
#Satellite: SUOMI NPP
#Configuration: NPP
#Start time: 2025-01-12 11:02:49

#Version: 2.0.20230423
#Station: SPB_Silybum_02
#Location: 30.233357 lon 59.946436 lat
#TLE: 1 37849U 11061A   25011.81852258  .00000147  00000+0  90749-4 0  9992
#TLE: 2 37849  98.7442 312.8475 0001799  45.9067 314.2257 14.19536766684464

#Time	Az	El	Level	Level2	SNR	BER	Gain	Gain2
2025-01-12 11:02:51.50	183.00	6.07	
2025-01-12 11:02:51.71	183.01	6.08	
2025-01-12 11:02:51.91	183.02	6.10	
2025-01-12 11:02:52.12	183.03	6.11	
2025-01-12 11:02:52.32	183.04	6.13	
2025-01-12 11:02:52.53	183.05	6.14	
2025-01-12 11:02:52.73	183.06	6.16	
2025-01-12 11:02:52.94	183.06	6.17	
2025-01-12 11:02:53.14	183.07	6.19	
2025-01-12 11:02:53.35	183.08	6.20	
2025-01-12 11:02:53.55	183.09	6.22	
2025-01-12 11:02:53.76	183.10	6.23	
2025-01-12 11:02:53.96	183.11	6.24	
2025-01-12 11:02:54.17	183.12	6.26	
2025-01-12 11:02:54.37	183.13	6.27	
2025-01-12 11:02:54.58	183.14	6.29	
2025-01-12 11:02:54.79	183.15	6.31	
2025-01-12 11:02:54.99	183.16	6.32	
2025-01-12 11:02:55.19	183.16	6.33	
2025-01-12 11:02:55.40	183.17	6.35	
2025-01-12 11:02:55.60	183.18	6.36	
2025-01-12 11:02:55.81	183.19	6.38	
2025-01-12 11:02:56.01	183.20	6.39	
2025-01-12 11:02:56.23	183.21	6.41	
2025-01-12 11:02:56.44	183.22	6.42	
2025-01-12 11:02:56.64	183.23	6.44	
2025-01-12 11:02:56.85	183.24	6.45	
2025-01-12 11:02:57.06	183.25	6.47	
2025-01-12 11:02:57.28	183.26	6.49	
2025-01-12 11:02:57.48	183.27	6.50	
2025-01-12 11:02:57.69	183.28	6.52	
2025-01-12 11:02:57.90	183.29	6.53	
2025-01-12 11:02:58.10	183.29	6.55	
2025-01-12 11:02:58.30	183.30	6.56	
2025-01-12 11:02:58.51	183.31	6.58	
2025-01-12 11:02:58.72	183.32	6.59	
2025-01-12 11:02:58.92	183.33	6.61	
2025-01-12 11:02:59.12	183.34	6.62	
2025-01-12 11:02:59.33	183.35	6.64	
2025-01-12 11:02:59.53	183.36	6.65	
2025-01-12 11:02:59.74	183.37	6.67	
2025-01-12 11:02:59.95	183.38	6.68	
2025-01-12 11:03:00.16	183.39	6.70	
2025-01-12 11:03:00.37	183.40	6.71	
2025-01-12 11:03:00.57	183.41	6.73	
2025-01-12 11:03:00.78	183.42	6.74	
2025-01-12 11:03:00.99	183.43	6.76	
2025-01-12 11:03:01.19	183.43	6.77	
2025-01-12 11:03:01.40	183.44	6.79	
2025-01-12 11:03:01.60	183.45	6.80	
2025-01-12 11:03:01.80	183.46	6.82	
2025-01-12 11:03:02.01	183.47	6.83	
2025-01-12 11:03:02.21	183.48	6.85	
2025-01-12 11:03:02.42	183.49	6.86	
2025-01-12 11:03:02.62	183.50	6.88	
2025-01-12 11:03:02.83	183.51	6.89	
2025-01-12 11:03:03.03	183.52	6.91	
2025-01-12 11:03:03.24	183.53	6.92	
2025-01-12 11:03:03.45	183.54	6.94	
2025-01-12 11:03:03.65	183.55	6.96	
2025-01-12 11:03:03.86	183.56	6.97	
2025-01-12 11:03:04.06	183.57	6.99	
2025-01-12 11:03:04.27	183.58	7.00	
2025-01-12 11:03:04.47	183.58	7.02	
2025-01-12 11:03:04.68	183.59	7.03	
2025-01-12 11:03:04.88	183.60	7.05	
2025-01-12 11:03:05.08	183.61	7.06	
2025-01-12 11:03:05.29	183.62	7.08	
2025-01-12 11:03:05.50	183.63	7.09	
2025-01-12 11:03:05.70	183.64	7.11	
2025-01-12 11:03:05.90	183.65	7.12	
2025-01-12 11:03:06.11	183.66	7.14	
2025-01-12 11:03:06.31	183.67	7.15	
2025-01-12 11:03:06.52	183.68	7.17	
2025-01-12 11:03:06.72	183.69	7.18	
2025-01-12 11:03:06.93	183.70	7.20	
2025-01-12 11:03:07.13	183.71	7.21	
2025-01-12 11:03:07.34	183.72	7.23	
2025-01-12 11:03:07.54	183.73	7.25	
2025-01-12 11:03:07.75	183.74	7.26	
2025-01-12 11:03:07.97	183.75	7.28	
2025-01-12 11:03:08.17	183.76	7.29	
2025-01-12 11:03:08.38	183.77	7.31	
2025-01-12 11:03:08.58	183.78	7.32	
2025-01-12 11:03:08.79	183.79	7.34	
2025-01-12 11:03:08.99	183.80	7.35	
2025-01-12 11:03:09.20	183.81	7.37	
2025-01-12 11:03:09.40	183.82	7.39	
2025-01-12 11:03:09.61	183.83	7.40	
2025-01-12 11:03:09.81	183.84	7.42	
2025-01-12 11:03:10.02	183.85	7.43	
2025-01-12 11:03:10.22	183.86	7.45	
2025-01-12 11:03:10.43	183.87	7.46	
2025-01-12 11:03:10.63	183.87	7.48	
2025-01-12 11:03:10.84	183.88	7.49	
2025-01-12 11:03:11.04	183.89	7.51	
2025-01-12 11:03:11.25	183.90	7.53	
2025-01-12 11:03:11.45	183.91	7.54	
2025-01-12 11:03:11.66	183.92	7.56	
2025-01-12 11:03:11.87	183.93	7.57	
2025-01-12 11:03:12.07	183.94	7.59	
2025-01-12 11:03:12.28	183.95	7.60	
2025-01-12 11:03:12.48	183.96	7.62	
2025-01-12 11:03:12.69	183.97	7.63	
2025-01-12 11:03:12.90	183.98	7.65	
2025-01-12 11:03:13.10	183.99	7.67	
2025-01-12 11:03:13.30	184.00	7.68	
2025-01-12 11:03:13.51	184.01	7.70	
2025-01-12 11:03:13.72	184.02	7.71	
2025-01-12 11:03:13.92	184.03	7.73	
2025-01-12 11:03:14.13	184.04	7.74	
2025-01-12 11:03:14.33	184.05	7.76	
2025-01-12 11:03:14.54	184.06	7.78	
2025-01-12 11:03:14.74	184.07	7.79	
2025-01-12 11:03:14.95	184.08	7.81	
2025-01-12 11:03:15.15	184.09	7.82	
2025-01-12 11:03:15.36	184.10	7.84	
2025-01-12 11:03:15.57	184.11	7.85	
2025-01-12 11:03:15.78	184.12	7.87	
2025-01-12 11:03:15.98	184.13	7.89	
2025-01-12 11:03:16.19	184.14	7.90	
2025-01-12 11:03:16.39	184.15	7.92	
2025-01-12 11:03:16.60	184.16	7.93	
2025-01-12 11:03:16.80	184.17	7.95	
2025-01-12 11:03:17.01	184.18	7.97	
2025-01-12 11:03:17.22	184.19	7.98	
2025-01-12 11:03:17.42	184.20	8.00	
2025-01-12 11:03:17.62	184.21	8.01	
2025-01-12 11:03:17.83	184.22	8.03	
2025-01-12 11:03:18.04	184.23	8.05	
2025-01-12 11:03:18.24	184.24	8.06	
2025-01-12 11:03:18.45	184.26	8.08	
2025-01-12 11:03:18.65	184.26	8.09	
2025-01-12 11:03:18.85	184.27	8.11	
2025-01-12 11:03:19.06	184.29	8.12	
2025-01-12 11:03:19.27	184.30	8.14	
2025-01-12 11:03:19.47	184.31	8.16	
2025-01-12 11:03:19.69	184.32	8.17	
2025-01-12 11:03:19.89	184.33	8.19	
2025-01-12 11:03:20.10	184.34	8.20	
2025-01-12 11:03:20.31	184.35	8.22	
2025-01-12 11:03:20.51	184.36	8.24	
2025-01-12 11:03:20.71	184.37	8.25	
2025-01-12 11:03:20.92	184.38	8.27	
2025-01-12 11:03:21.13	184.39	8.28	
2025-01-12 11:03:21.33	184.40	8.30	
2025-01-12 11:03:21.54	184.41	8.32	
2025-01-12 11:03:21.74	184.42	8.33	
2025-01-12 11:03:21.94	184.43	8.35	
2025-01-12 11:03:22.15	184.44	8.36	
2025-01-12 11:03:22.35	184.45	8.38	
2025-01-12 11:03:22.56	184.46	8.40	
2025-01-12 11:03:22.76	184.47	8.41	
2025-01-12 11:03:22.97	184.48	8.43	
2025-01-12 11:03:23.17	184.49	8.44	
2025-01-12 11:03:23.38	184.50	8.46	
2025-01-12 11:03:23.58	184.51	8.48	
2025-01-12 11:03:23.79	184.52	8.49	
2025-01-12 11:03:23.99	184.53	8.51	
2025-01-12 11:03:24.20	184.54	8.53	
2025-01-12 11:03:24.40	184.55	8.54	
2025-01-12 11:03:24.61	184.57	8.56	
2025-01-12 11:03:24.81	184.58	8.57	
2025-01-12 11:03:25.02	184.59	8.59	
2025-01-12 11:03:25.22	184.60	8.61	
2025-01-12 11:03:25.43	184.61	8.62	
2025-01-12 11:03:25.63	184.62	8.64	
2025-01-12 11:03:25.84	184.63	8.65	
2025-01-12 11:03:26.04	184.64	8.67	
2025-01-12 11:03:26.25	184.65	8.69	
2025-01-12 11:03:26.45	184.66	8.70	
2025-01-12 11:03:26.66	184.67	8.72	
2025-01-12 11:03:26.87	184.68	8.74	
2025-01-12 11:03:27.07	184.69	8.75	
2025-01-12 11:03:27.28	184.70	8.77	
2025-01-12 11:03:27.48	184.71	8.78	
2025-01-12 11:03:27.69	184.72	8.80	
2025-01-12 11:03:27.89	184.73	8.82	
2025-01-12 11:03:28.10	184.75	8.83	
2025-01-12 11:03:28.30	184.76	8.85	
2025-01-12 11:03:28.51	184.77	8.87	
2025-01-12 11:03:28.71	184.78	8.88	
2025-01-12 11:03:28.92	184.79	8.90	
2025-01-12 11:03:29.12	184.80	8.92	
2025-01-12 11:03:29.33	184.81	8.93	
2025-01-12 11:03:29.53	184.82	8.95	
2025-01-12 11:03:29.74	184.83	8.96	
2025-01-12 11:03:29.94	184.84	8.98	
2025-01-12 11:03:30.15	184.85	9.00	
2025-01-12 11:03:30.35	184.86	9.01	
2025-01-12 11:03:30.56	184.87	9.03	
2025-01-12 11:03:30.76	184.88	9.05	
2025-01-12 11:03:30.97	184.90	9.06	
2025-01-12 11:03:31.17	184.91	9.08	
2025-01-12 11:03:31.38	184.92	9.10	
2025-01-12 11:03:31.58	184.93	9.11	
2025-01-12 11:03:31.79	184.94	9.13	
2025-01-12 11:03:31.99	184.95	9.15	
2025-01-12 11:03:32.20	184.96	9.16	
2025-01-12 11:03:32.40	184.97	9.18	
2025-01-12 11:03:32.61	184.98	9.20	
2025-01-12 11:03:32.81	184.99	9.21	
2025-01-12 11:03:33.02	185.00	9.23	
2025-01-12 11:03:33.22	185.02	9.24	
2025-01-12 11:03:33.43	185.03	9.26	
2025-01-12 11:03:33.65	185.04	9.28	
2025-01-12 11:03:33.85	185.05	9.30	
2025-01-12 11:03:34.06	185.06	9.31	
2025-01-12 11:03:34.26	185.07	9.33	
2025-01-12 11:03:34.47	185.08	9.35	
2025-01-12 11:03:34.68	185.09	9.36	
2025-01-12 11:03:34.89	185.11	9.38	
2025-01-12 11:03:35.10	185.12	9.40	
2025-01-12 11:03:35.30	185.13	9.41	
2025-01-12 11:03:35.51	185.14	9.43	
2025-01-12 11:03:35.71	185.15	9.45	
2025-01-12 11:03:35.91	185.16	9.46	
2025-01-12 11:03:36.12	185.17	9.48	
2025-01-12 11:03:36.33	185.18	9.50	
2025-01-12 11:03:36.53	185.19	9.51	
2025-01-12 11:03:36.75	185.21	9.53	
2025-01-12 11:03:36.96	185.22	9.55	
2025-01-12 11:03:37.16	185.23	9.56	
2025-01-12 11:03:37.37	185.24	9.58	
2025-01-12 11:03:37.57	185.25	9.60	
2025-01-12 11:03:37.78	185.26	9.62	
2025-01-12 11:03:37.98	185.27	9.63	
2025-01-12 11:03:38.18	185.28	9.65	
2025-01-12 11:03:38.39	185.30	9.67	
2025-01-12 11:03:38.59	185.31	9.68	
2025-01-12 11:03:38.80	185.32	9.70	
2025-01-12 11:03:39.02	185.33	9.72	
2025-01-12 11:03:39.22	185.34	9.73	
2025-01-12 11:03:39.43	185.35	9.75	
2025-01-12 11:03:39.63	185.36	9.77	
2025-01-12 11:03:39.84	185.38	9.78	
2025-01-12 11:03:40.04	185.39	9.80	
2025-01-12 11:03:40.25	185.40	9.82	
2025-01-12 11:03:40.45	185.41	9.83	
2025-01-12 11:03:40.66	185.42	9.85	
2025-01-12 11:03:40.86	185.43	9.87	
2025-01-12 11:03:41.06	185.44	9.89	
2025-01-12 11:03:41.27	185.46	9.90	
2025-01-12 11:03:41.47	185.47	9.92	
2025-01-12 11:03:41.68	185.48	9.94	
2025-01-12 11:03:41.88	185.49	9.95	
2025-01-12 11:03:42.09	185.50	9.97	
2025-01-12 11:03:42.29	185.51	9.99	
2025-01-12 11:03:42.50	185.52	10.00	
2025-01-12 11:03:42.70	185.54	10.02	
2025-01-12 11:03:42.91	185.55	10.04	
2025-01-12 11:03:43.11	185.56	10.06	
2025-01-12 11:03:43.32	185.57	10.07	
2025-01-12 11:03:43.52	185.58	10.09	
2025-01-12 11:03:43.73	185.59	10.11	
2025-01-12 11:03:43.93	185.60	10.12	
2025-01-12 11:03:44.14	185.62	10.14	
2025-01-12 11:03:44.34	185.63	10.16	
2025-01-12 11:03:44.55	185.64	10.18	
2025-01-12 11:03:44.76	185.65	10.19	
2025-01-12 11:03:44.96	185.66	10.21	
2025-01-12 11:03:45.17	185.67	10.23	
2025-01-12 11:03:45.39	185.69	10.25	
2025-01-12 11:03:45.59	185.70	10.26	
2025-01-12 11:03:45.80	185.71	10.28	
2025-01-12 11:03:46.00	185.72	10.30	
2025-01-12 11:03:46.21	185.73	10.31	
2025-01-12 11:03:46.41	185.75	10.33	
2025-01-12 11:03:46.61	185.76	10.35	
2025-01-12 11:03:46.82	185.77	10.37	
2025-01-12 11:03:47.02	185.78	10.38	
2025-01-12 11:03:47.23	185.79	10.40	
2025-01-12 11:03:47.44	185.80	10.42	
2025-01-12 11:03:47.65	185.82	10.44	
2025-01-12 11:03:47.86	185.83	10.45	
2025-01-12 11:03:48.06	185.84	10.47	
2025-01-12 11:03:48.27	185.85	10.49	
2025-01-12 11:03:48.47	185.86	10.51	
2025-01-12 11:03:48.67	185.88	10.52	
2025-01-12 11:03:48.88	185.89	10.54	
2025-01-12 11:03:49.09	185.90	10.56	
2025-01-12 11:03:49.29	185.91	10.57	
2025-01-12 11:03:49.50	185.92	10.59	
2025-01-12 11:03:49.70	185.94	10.61	
2025-01-12 11:03:49.91	185.95	10.63	
2025-01-12 11:03:50.11	185.96	10.64	
2025-01-12 11:03:50.32	185.97	10.66	
2025-01-12 11:03:50.52	185.98	10.68	
2025-01-12 11:03:50.73	186.00	10.70	
2025-01-12 11:03:50.93	186.01	10.71	
2025-01-12 11:03:51.14	186.02	10.73	
2025-01-12 11:03:51.34	186.03	10.75	
2025-01-12 11:03:51.55	186.04	10.77	
2025-01-12 11:03:51.75	186.06	10.78	
2025-01-12 11:03:51.96	186.07	10.80	
2025-01-12 11:03:52.16	186.08	10.82	
2025-01-12 11:03:52.37	186.09	10.84	
2025-01-12 11:03:52.57	186.10	10.85	
2025-01-12 11:03:52.78	186.12	10.87	
2025-01-12 11:03:52.98	186.13	10.89	
2025-01-12 11:03:53.19	186.14	10.91	
2025-01-12 11:03:53.40	186.15	10.93	
2025-01-12 11:03:53.60	186.17	10.94	
2025-01-12 11:03:53.81	186.18	10.96	
2025-01-12 11:03:54.01	186.19	10.98	
2025-01-12 11:03:54.22	186.20	11.00	
2025-01-12 11:03:54.42	186.22	11.01	
2025-01-12 11:03:54.63	186.23	11.03	
2025-01-12 11:03:54.83	186.24	11.05	
2025-01-12 11:03:55.03	186.25	11.07	
2025-01-12 11:03:55.24	186.26	11.08	
2025-01-12 11:03:55.45	186.28	11.10	
2025-01-12 11:03:55.65	186.29	11.12	
2025-01-12 11:03:55.86	186.30	11.14	
2025-01-12 11:03:56.06	186.31	11.16	
2025-01-12 11:03:56.26	186.33	11.17	
2025-01-12 11:03:56.47	186.34	11.19	
2025-01-12 11:03:56.68	186.35	11.21	
2025-01-12 11:03:56.88	186.36	11.23	
2025-01-12 11:03:57.10	186.38	11.25	
2025-01-12 11:03:57.30	186.39	11.26	
2025-01-12 11:03:57.51	186.40	11.28	
2025-01-12 11:03:57.71	186.41	11.30	
2025-01-12 11:03:57.92	186.43	11.32	
2025-01-12 11:03:58.14	186.44	11.34	
2025-01-12 11:03:58.34	186.45	11.35	
2025-01-12 11:03:58.55	186.47	11.37	
2025-01-12 11:03:58.75	186.48	11.39	
2025-01-12 11:03:58.96	186.49	11.41	
2025-01-12 11:03:59.16	186.50	11.43	
2025-01-12 11:03:59.37	186.52	11.44	
2025-01-12 11:03:59.57	186.53	11.46	
2025-01-12 11:03:59.78	186.54	11.48	
2025-01-12 11:03:59.98	186.55	11.50	
2025-01-12 11:04:00.19	186.57	11.52	
2025-01-12 11:04:00.39	186.58	11.53	
2025-01-12 11:04:00.60	186.59	11.55	
2025-01-12 11:04:00.80	186.60	11.57	
2025-01-12 11:04:01.01	186.62	11.59	
2025-01-12 11:04:01.21	186.63	11.61	
2025-01-12 11:04:01.43	186.64	11.63	
2025-01-12 11:04:01.64	186.66	11.64	
2025-01-12 11:04:01.85	186.67	11.66	
2025-01-12 11:04:02.05	186.68	11.68	
2025-01-12 11:04:02.26	186.70	11.70	
2025-01-12 11:04:02.46	186.71	11.72	
2025-01-12 11:04:02.67	186.72	11.74	
2025-01-12 11:04:02.87	186.73	11.75	
2025-01-12 11:04:03.08	186.75	11.77	
2025-01-12 11:04:03.28	186.76	11.79	
2025-01-12 11:04:03.49	186.77	11.81	
2025-01-12 11:04:03.69	186.78	11.83	
2025-01-12 11:04:03.90	186.80	11.84	
2025-01-12 11:04:04.10	186.81	11.86	
2025-01-12 11:04:04.31	186.82	11.88	
2025-01-12 11:04:04.51	186.84	11.90	
2025-01-12 11:04:04.72	186.85	11.92	
2025-01-12 11:04:04.92	186.86	11.94	
2025-01-12 11:04:05.13	186.88	11.95	
2025-01-12 11:04:05.34	186.89	11.97	
2025-01-12 11:04:05.54	186.90	11.99	
2025-01-12 11:04:05.75	186.92	12.01	
2025-01-12 11:04:05.95	186.93	12.03	
2025-01-12 11:04:06.16	186.94	12.05	
2025-01-12 11:04:06.36	186.95	12.06	
2025-01-12 11:04:06.57	186.97	12.08	
2025-01-12 11:04:06.77	186.98	12.10	
2025-01-12 11:04:06.98	186.99	12.12	
2025-01-12 11:04:07.19	187.01	12.14	
2025-01-12 11:04:07.39	187.02	12.16	
2025-01-12 11:04:07.60	187.03	12.18	
2025-01-12 11:04:07.81	187.05	12.20	
2025-01-12 11:04:08.02	187.06	12.21	
2025-01-12 11:04:08.22	187.07	12.23	
2025-01-12 11:04:08.43	187.09	12.25	
2025-01-12 11:04:08.63	187.10	12.27	
2025-01-12 11:04:08.84	187.11	12.29	
2025-01-12 11:04:09.04	187.13	12.31	
2025-01-12 11:04:09.25	187.14	12.33	
2025-01-12 11:04:09.45	187.15	12.34	
2025-01-12 11:04:09.66	187.17	12.36	
2025-01-12 11:04:09.86	187.18	12.38	
2025-01-12 11:04:10.07	187.20	12.40	
2025-01-12 11:04:10.28	187.21	12.42	
2025-01-12 11:04:10.48	187.22	12.44	
2025-01-12 11:04:10.69	187.24	12.46	
2025-01-12 11:04:10.89	187.25	12.47	
2025-01-12 11:04:11.10	187.26	12.49	
2025-01-12 11:04:11.30	187.28	12.51	
2025-01-12 11:04:11.51	187.29	12.53	
2025-01-12 11:04:11.71	187.30	12.55	
2025-01-12 11:04:11.92	187.32	12.57	
2025-01-12 11:04:12.12	187.33	12.59	
2025-01-12 11:04:12.33	187.34	12.61	
2025-01-12 11:04:12.53	187.36	12.62	
2025-01-12 11:04:12.74	187.37	12.64	
2025-01-12 11:04:12.94	187.38	12.66	
2025-01-12 11:04:13.15	187.40	12.68	
2025-01-12 11:04:13.35	187.41	12.70	
2025-01-12 11:04:13.56	187.43	12.72	
2025-01-12 11:04:13.77	187.44	12.74	
2025-01-12 11:04:13.98	187.45	12.76	
2025-01-12 11:04:14.18	187.47	12.78	
2025-01-12 11:04:14.39	187.48	12.80	
2025-01-12 11:04:14.60	187.50	12.81	
2025-01-12 11:04:14.80	187.51	12.83	
2025-01-12 11:04:15.01	187.52	12.85	
2025-01-12 11:04:15.21	187.54	12.87	
2025-01-12 11:04:15.41	187.55	12.89	
2025-01-12 11:04:15.62	187.56	12.91	
2025-01-12 11:04:15.82	187.58	12.93	
2025-01-12 11:04:16.03	187.59	12.95	
2025-01-12 11:04:16.23	187.61	12.97	
2025-01-12 11:04:16.43	187.62	12.98	
2025-01-12 11:04:16.64	187.63	13.00	
2025-01-12 11:04:16.84	187.65	13.02	
2025-01-12 11:04:17.05	187.66	13.04	
2025-01-12 11:04:17.25	187.68	13.06	
2025-01-12 11:04:17.46	187.69	13.08	
2025-01-12 11:04:17.66	187.70	13.10	
2025-01-12 11:04:17.87	187.72	13.12	
2025-01-12 11:04:18.07	187.73	13.14	
2025-01-12 11:04:18.28	187.75	13.16	
2025-01-12 11:04:18.48	187.76	13.17	
2025-01-12 11:04:18.69	187.77	13.19	
2025-01-12 11:04:18.89	187.79	13.21	
2025-01-12 11:04:19.10	187.80	13.23	
2025-01-12 11:04:19.30	187.82	13.25	
2025-01-12 11:04:19.51	187.83	13.27	
2025-01-12 11:04:19.71	187.84	13.29	
2025-01-12 11:04:19.92	187.86	13.31	
2025-01-12 11:04:20.13	187.87	13.33	
2025-01-12 11:04:20.33	187.89	13.35	
2025-01-12 11:04:20.53	187.90	13.37	
2025-01-12 11:04:20.74	187.92	13.39	
2025-01-12 11:04:20.94	187.93	13.41	
2025-01-12 11:04:21.15	187.95	13.43	
2025-01-12 11:04:21.36	187.96	13.45	
2025-01-12 11:04:21.56	187.97	13.46	
2025-01-12 11:04:21.76	187.99	13.48	
2025-01-12 11:04:21.97	188.00	13.50	
2025-01-12 11:04:22.17	188.02	13.52	
2025-01-12 11:04:22.38	188.03	13.54	
2025-01-12 11:04:22.58	188.05	13.56	
2025-01-12 11:04:22.79	188.06	13.58	
2025-01-12 11:04:23.00	188.08	13.60	
2025-01-12 11:04:23.20	188.09	13.62	
2025-01-12 11:04:23.41	188.10	13.64	
2025-01-12 11:04:23.61	188.12	13.66	
2025-01-12 11:04:23.81	188.13	13.68	
2025-01-12 11:04:24.02	188.15	13.70	
2025-01-12 11:04:24.22	188.16	13.72	
2025-01-12 11:04:24.43	188.18	13.74	
2025-01-12 11:04:24.64	188.19	13.76	
2025-01-12 11:04:24.85	188.21	13.78	
2025-01-12 11:04:25.06	188.22	13.80	
2025-01-12 11:04:25.26	188.24	13.82	
2025-01-12 11:04:25.47	188.25	13.84	
2025-01-12 11:04:25.67	188.27	13.86	
2025-01-12 11:04:25.88	188.28	13.88	
2025-01-12 11:04:26.08	188.30	13.90	
2025-01-12 11:04:26.29	188.31	13.92	
2025-01-12 11:04:26.49	188.32	13.93	
2025-01-12 11:04:26.70	188.34	13.95	
2025-01-12 11:04:26.92	188.36	13.98	
2025-01-12 11:04:27.13	188.37	14.00	
2025-01-12 11:04:27.33	188.39	14.02	
2025-01-12 11:04:27.54	188.40	14.04	
2025-01-12 11:04:27.74	188.42	14.06	
2025-01-12 11:04:27.95	188.43	14.08	
2025-01-12 11:04:28.16	188.45	14.10	
2025-01-12 11:04:28.36	188.46	14.12	
2025-01-12 11:04:28.57	188.48	14.14	
2025-01-12 11:04:28.77	188.49	14.15	
2025-01-12 11:04:28.98	188.51	14.18	
2025-01-12 11:04:29.18	188.52	14.19	
2025-01-12 11:04:29.38	188.54	14.21	
2025-01-12 11:04:29.59	188.55	14.23	
2025-01-12 11:04:29.80	188.57	14.25	
2025-01-12 11:04:30.00	188.58	14.27	
2025-01-12 11:04:30.21	188.60	14.29	
2025-01-12 11:04:30.41	188.61	14.31	
2025-01-12 11:04:30.62	188.63	14.33	
2025-01-12 11:04:30.82	188.64	14.35	
2025-01-12 11:04:31.03	188.66	14.37	
2025-01-12 11:04:31.23	188.67	14.39	
2025-01-12 11:04:31.44	188.69	14.41	
2025-01-12 11:04:31.65	188.70	14.44	
2025-01-12 11:04:31.85	188.72	14.46	
2025-01-12 11:04:32.06	188.73	14.48	
2025-01-12 11:04:32.28	188.75	14.50	
2025-01-12 11:04:32.48	188.77	14.52	
2025-01-12 11:04:32.69	188.78	14.54	
2025-01-12 11:04:32.89	188.80	14.56	
2025-01-12 11:04:33.10	188.81	14.58	
2025-01-12 11:04:33.30	188.83	14.60	
2025-01-12 11:04:33.51	188.84	14.62	
2025-01-12 11:04:33.72	188.86	14.64	
2025-01-12 11:04:33.92	188.87	14.66	
2025-01-12 11:04:34.13	188.89	14.68	
2025-01-12 11:04:34.33	188.91	14.70	
2025-01-12 11:04:34.54	188.92	14.72	
2025-01-12 11:04:34.74	188.94	14.74	
2025-01-12 11:04:34.95	188.95	14.76	
2025-01-12 11:04:35.15	188.97	14.78	
2025-01-12 11:04:35.36	188.98	14.80	
2025-01-12 11:04:35.56	189.00	14.82	
2025-01-12 11:04:35.77	189.02	14.84	
2025-01-12 11:04:35.97	189.03	14.86	
2025-01-12 11:04:36.18	189.05	14.88	
2025-01-12 11:04:36.38	189.06	14.90	
2025-01-12 11:04:36.60	189.08	14.92	
2025-01-12 11:04:36.81	189.09	14.95	
2025-01-12 11:04:37.01	189.11	14.97	
2025-01-12 11:04:37.22	189.13	14.99	
2025-01-12 11:04:37.42	189.14	15.01	
2025-01-12 11:04:37.63	189.16	15.03	
2025-01-12 11:04:37.83	189.17	15.05	
2025-01-12 11:04:38.04	189.19	15.07	
2025-01-12 11:04:38.24	189.21	15.09	
2025-01-12 11:04:38.45	189.22	15.11	
2025-01-12 11:04:38.67	189.24	15.13	
2025-01-12 11:04:38.87	189.25	15.15	
2025-01-12 11:04:39.08	189.27	15.17	
2025-01-12 11:04:39.28	189.29	15.19	
2025-01-12 11:04:39.49	189.30	15.21	
2025-01-12 11:04:39.69	189.32	15.23	
2025-01-12 11:04:39.90	189.34	15.26	
2025-01-12 11:04:40.10	189.35	15.28	
2025-01-12 11:04:40.31	189.37	15.30	
2025-01-12 11:04:40.52	189.38	15.32	
2025-01-12 11:04:40.72	189.40	15.34	
2025-01-12 11:04:40.92	189.42	15.36	
2025-01-12 11:04:41.13	189.43	15.38	
2025-01-12 11:04:41.33	189.45	15.40	
2025-01-12 11:04:41.54	189.47	15.42	
2025-01-12 11:04:41.75	189.48	15.44	
2025-01-12 11:04:41.95	189.50	15.46	
2025-01-12 11:04:42.15	189.51	15.48	
2025-01-12 11:04:42.36	189.53	15.51	
2025-01-12 11:04:42.57	189.55	15.53	
2025-01-12 11:04:42.77	189.56	15.55	
2025-01-12 11:04:42.97	189.58	15.57	
2025-01-12 11:04:43.18	189.60	15.59	
2025-01-12 11:04:43.39	189.61	15.61	
2025-01-12 11:04:43.59	189.63	15.63	
2025-01-12 11:04:43.80	189.65	15.65	
2025-01-12 11:04:44.00	189.66	15.67	
2025-01-12 11:04:44.20	189.68	15.69	
2025-01-12 11:04:44.41	189.70	15.72	
2025-01-12 11:04:44.61	189.71	15.74	
2025-01-12 11:04:44.82	189.73	15.76	
2025-01-12 11:04:45.02	189.75	15.78	
2025-01-12 11:04:45.23	189.76	15.80	
2025-01-12 11:04:45.43	189.78	15.82	
2025-01-12 11:04:45.64	189.80	15.84	
2025-01-12 11:04:45.84	189.81	15.86	
2025-01-12 11:04:46.05	189.83	15.88	
2025-01-12 11:04:46.25	189.85	15.90	
2025-01-12 11:04:46.46	189.86	15.93	
2025-01-12 11:04:46.66	189.88	15.95	
2025-01-12 11:04:46.87	189.90	15.97	
2025-01-12 11:04:47.07	189.91	15.99	
2025-01-12 11:04:47.28	189.93	16.01	
2025-01-12 11:04:47.48	189.95	16.03	
2025-01-12 11:04:47.69	189.96	16.05	
2025-01-12 11:04:47.89	189.98	16.07	
2025-01-12 11:04:48.10	190.00	16.10	
2025-01-12 11:04:48.30	190.01	16.12	
2025-01-12 11:04:48.51	190.03	16.14	
2025-01-12 11:04:48.71	190.05	16.16	
2025-01-12 11:04:48.92	190.07	16.18	
2025-01-12 11:04:49.12	190.08	16.20	
2025-01-12 11:04:49.33	190.10	16.23	
2025-01-12 11:04:49.53	190.12	16.25	
2025-01-12 11:04:49.74	190.13	16.27	
2025-01-12 11:04:49.95	190.15	16.29	
2025-01-12 11:04:50.15	190.17	16.31	
2025-01-12 11:04:50.35	190.19	16.33	
2025-01-12 11:04:50.56	190.20	16.35	
2025-01-12 11:04:50.77	190.22	16.38	
2025-01-12 11:04:50.97	190.24	16.40	
2025-01-12 11:04:51.18	190.26	16.42	
2025-01-12 11:04:51.38	190.27	16.44	
2025-01-12 11:04:51.59	190.29	16.46	
2025-01-12 11:04:51.79	190.31	16.48	
2025-01-12 11:04:52.00	190.33	16.51	
2025-01-12 11:04:52.20	190.34	16.53	
2025-01-12 11:04:52.41	190.36	16.55	
2025-01-12 11:04:52.61	190.38	16.57	
2025-01-12 11:04:52.82	190.40	16.59	
2025-01-12 11:04:53.02	190.41	16.61	
2025-01-12 11:04:53.23	190.43	16.64	
2025-01-12 11:04:53.44	190.45	16.66	
2025-01-12 11:04:53.66	190.47	16.68	
2025-01-12 11:04:53.86	190.49	16.70	
2025-01-12 11:04:54.07	190.50	16.73	
2025-01-12 11:04:54.27	190.52	16.75	
2025-01-12 11:04:54.48	190.54	16.77	
2025-01-12 11:04:54.69	190.56	16.79	
2025-01-12 11:04:54.90	190.58	16.81	
2025-01-12 11:04:55.10	190.59	16.84	
2025-01-12 11:04:55.31	190.61	16.86	
2025-01-12 11:04:55.52	190.63	16.88	
2025-01-12 11:04:55.72	190.65	16.90	
2025-01-12 11:04:55.92	190.66	16.92	
2025-01-12 11:04:56.13	190.68	16.95	
2025-01-12 11:04:56.34	190.70	16.97	
2025-01-12 11:04:56.54	190.72	16.99	
2025-01-12 11:04:56.74	190.74	17.01	
2025-01-12 11:04:56.95	190.75	17.03	
2025-01-12 11:04:57.16	190.77	17.06	
2025-01-12 11:04:57.36	190.79	17.08	
2025-01-12 11:04:57.57	190.81	17.10	
2025-01-12 11:04:57.77	190.83	17.12	
2025-01-12 11:04:57.98	190.85	17.14	
2025-01-12 11:04:58.18	190.86	17.17	
2025-01-12 11:04:58.39	190.88	17.19	
2025-01-12 11:04:58.59	190.90	17.21	
2025-01-12 11:04:58.80	190.92	17.23	
2025-01-12 11:04:59.00	190.94	17.26	
2025-01-12 11:04:59.21	190.96	17.28	
2025-01-12 11:04:59.42	190.97	17.30	
2025-01-12 11:04:59.62	190.99	17.32	
2025-01-12 11:04:59.83	191.01	17.35	
2025-01-12 11:05:00.03	191.03	17.37	
2025-01-12 11:05:00.23	191.05	17.39	
2025-01-12 11:05:00.44	191.07	17.41	
2025-01-12 11:05:00.64	191.08	17.43	
2025-01-12 11:05:00.85	191.10	17.46	
2025-01-12 11:05:01.07	191.12	17.48	
2025-01-12 11:05:01.27	191.14	17.50	
2025-01-12 11:05:01.48	191.16	17.53	
2025-01-12 11:05:01.68	191.18	17.55	
2025-01-12 11:05:01.89	191.20	17.57	
2025-01-12 11:05:02.09	191.22	17.59	
2025-01-12 11:05:02.30	191.23	17.62	
2025-01-12 11:05:02.50	191.25	17.64	
2025-01-12 11:05:02.71	191.27	17.66	
2025-01-12 11:05:02.92	191.29	17.68	
2025-01-12 11:05:03.12	191.31	17.71	
2025-01-12 11:05:03.32	191.33	17.73	
2025-01-12 11:05:03.54	191.35	17.75	
2025-01-12 11:05:03.74	191.37	17.77	
2025-01-12 11:05:03.95	191.39	17.80	
2025-01-12 11:05:04.15	191.40	17.82	
2025-01-12 11:05:04.36	191.42	17.84	
2025-01-12 11:05:04.56	191.44	17.86	
2025-01-12 11:05:04.77	191.46	17.89	
2025-01-12 11:05:04.98	191.48	17.91	
2025-01-12 11:05:05.18	191.50	17.93	
2025-01-12 11:05:05.39	191.52	17.96	
2025-01-12 11:05:05.59	191.54	17.98	
2025-01-12 11:05:05.80	191.56	18.00	
2025-01-12 11:05:06.00	191.58	18.02	
2025-01-12 11:05:06.21	191.60	18.05	
2025-01-12 11:05:06.41	191.62	18.07	
2025-01-12 11:05:06.62	191.64	18.09	
2025-01-12 11:05:06.83	191.66	18.12	
2025-01-12 11:05:07.03	191.67	18.14	
2025-01-12 11:05:07.24	191.69	18.16	
2025-01-12 11:05:07.44	191.71	18.19	
2025-01-12 11:05:07.64	191.73	18.21	
2025-01-12 11:05:07.85	191.75	18.23	
2025-01-12 11:05:08.06	191.77	18.26	
2025-01-12 11:05:08.26	191.79	18.28	
2025-01-12 11:05:08.46	191.81	18.30	
2025-01-12 11:05:08.67	191.83	18.32	
2025-01-12 11:05:08.87	191.85	18.35	
2025-01-12 11:05:09.08	191.87	18.37	
2025-01-12 11:05:09.29	191.89	18.39	
2025-01-12 11:05:09.49	191.91	18.42	
2025-01-12 11:05:09.70	191.93	18.44	
2025-01-12 11:05:09.90	191.95	18.46	
2025-01-12 11:05:10.11	191.97	18.49	
2025-01-12 11:05:10.31	191.99	18.51	
2025-01-12 11:05:10.52	192.01	18.53	
2025-01-12 11:05:10.74	192.03	18.56	
2025-01-12 11:05:10.94	192.05	18.58	
2025-01-12 11:05:11.15	192.07	18.60	
2025-01-12 11:05:11.35	192.09	18.63	
2025-01-12 11:05:11.56	192.11	18.65	
2025-01-12 11:05:11.76	192.13	18.67	
2025-01-12 11:05:11.97	192.15	18.70	
2025-01-12 11:05:12.17	192.17	18.72	
2025-01-12 11:05:12.38	192.19	18.75	
2025-01-12 11:05:12.58	192.21	18.77	
2025-01-12 11:05:12.78	192.23	18.79	
2025-01-12 11:05:12.99	192.25	18.81	
2025-01-12 11:05:13.19	192.27	18.84	
2025-01-12 11:05:13.40	192.29	18.86	
2025-01-12 11:05:13.60	192.31	18.88	
2025-01-12 11:05:13.81	192.33	18.91	
2025-01-12 11:05:14.01	192.35	18.93	
2025-01-12 11:05:14.22	192.37	18.96	
2025-01-12 11:05:14.43	192.39	18.98	
2025-01-12 11:05:14.63	192.41	19.00	
2025-01-12 11:05:14.84	192.43	19.03	
2025-01-12 11:05:15.04	192.45	19.05	
2025-01-12 11:05:15.24	192.47	19.07	
2025-01-12 11:05:15.45	192.49	19.10	
2025-01-12 11:05:15.66	192.51	19.12	
2025-01-12 11:05:15.86	192.53	19.15	
2025-01-12 11:05:16.08	192.56	19.17	
2025-01-12 11:05:16.29	192.58	19.20	
2025-01-12 11:05:16.49	192.60	19.22	
2025-01-12 11:05:16.70	192.62	19.24	
2025-01-12 11:05:16.90	192.64	19.27	
2025-01-12 11:05:17.11	192.66	19.29	
2025-01-12 11:05:17.31	192.68	19.31	
2025-01-12 11:05:17.52	192.70	19.34	
2025-01-12 11:05:17.72	192.72	19.36	
2025-01-12 11:05:17.93	192.74	19.39	
2025-01-12 11:05:18.13	192.77	19.41	
2025-01-12 11:05:18.34	192.79	19.43	
2025-01-12 11:05:18.54	192.81	19.46	
2025-01-12 11:05:18.75	192.83	19.48	
2025-01-12 11:05:18.95	192.85	19.51	
2025-01-12 11:05:19.15	192.87	19.53	
2025-01-12 11:05:19.36	192.89	19.55	
2025-01-12 11:05:19.56	192.91	19.58	
2025-01-12 11:05:19.77	192.93	19.60	
2025-01-12 11:05:19.98	192.96	19.63	
2025-01-12 11:05:20.18	192.98	19.65	
2025-01-12 11:05:20.39	193.00	19.68	
2025-01-12 11:05:20.59	193.02	19.70	
2025-01-12 11:05:20.80	193.04	19.72	
2025-01-12 11:05:21.00	193.06	19.75	
2025-01-12 11:05:21.21	193.08	19.77	
2025-01-12 11:05:21.43	193.11	19.80	
2025-01-12 11:05:21.63	193.13	19.82	
2025-01-12 11:05:21.84	193.15	19.85	
2025-01-12 11:05:22.04	193.17	19.87	
2025-01-12 11:05:22.25	193.19	19.90	
2025-01-12 11:05:22.47	193.22	19.92	
2025-01-12 11:05:22.67	193.24	19.95	
2025-01-12 11:05:22.88	193.26	19.97	
2025-01-12 11:05:23.09	193.28	20.00	
2025-01-12 11:05:23.29	193.30	20.02	
2025-01-12 11:05:23.51	193.33	20.05	
2025-01-12 11:05:23.71	193.35	20.07	
2025-01-12 11:05:23.92	193.37	20.09	
2025-01-12 11:05:24.13	193.39	20.12	
2025-01-12 11:05:24.33	193.41	20.14	
2025-01-12 11:05:24.54	193.44	20.17	
2025-01-12 11:05:24.74	193.46	20.19	
2025-01-12 11:05:24.95	193.48	20.22	
2025-01-12 11:05:25.15	193.50	20.24	
2025-01-12 11:05:25.35	193.52	20.27	
2025-01-12 11:05:25.56	193.55	20.29	
2025-01-12 11:05:25.76	193.57	20.32	
2025-01-12 11:05:25.97	193.59	20.34	
2025-01-12 11:05:26.17	193.61	20.37	
2025-01-12 11:05:26.38	193.64	20.39	
2025-01-12 11:05:26.58	193.66	20.41	
2025-01-12 11:05:26.79	193.68	20.44	
2025-01-12 11:05:26.99	193.70	20.46	
2025-01-12 11:05:27.20	193.73	20.49	
2025-01-12 11:05:27.41	193.75	20.52	
2025-01-12 11:05:27.61	193.77	20.54	
2025-01-12 11:05:27.81	193.79	20.56	
2025-01-12 11:05:28.02	193.82	20.59	
2025-01-12 11:05:28.23	193.84	20.61	
2025-01-12 11:05:28.43	193.86	20.64	
2025-01-12 11:05:28.64	193.88	20.66	
2025-01-12 11:05:28.84	193.91	20.69	
2025-01-12 11:05:29.05	193.93	20.71	
2025-01-12 11:05:29.25	193.95	20.74	
2025-01-12 11:05:29.46	193.98	20.77	
2025-01-12 11:05:29.66	194.00	20.79	
2025-01-12 11:05:29.87	194.02	20.82	
2025-01-12 11:05:30.07	194.04	20.84	
2025-01-12 11:05:30.28	194.07	20.87	
2025-01-12 11:05:30.48	194.09	20.89	
2025-01-12 11:05:30.69	194.11	20.92	
2025-01-12 11:05:30.89	194.14	20.94	
2025-01-12 11:05:31.10	194.16	20.97	
2025-01-12 11:05:31.30	194.18	20.99	
2025-01-12 11:05:31.51	194.21	21.02	
2025-01-12 11:05:31.71	194.23	21.04	
2025-01-12 11:05:31.92	194.25	21.07	
2025-01-12 11:05:32.12	194.27	21.09	
2025-01-12 11:05:32.32	194.30	21.12	
2025-01-12 11:05:32.53	194.32	21.14	
2025-01-12 11:05:32.74	194.35	21.17	
2025-01-12 11:05:32.94	194.37	21.19	
2025-01-12 11:05:33.15	194.39	21.22	
2025-01-12 11:05:33.35	194.42	21.24	
2025-01-12 11:05:33.56	194.44	21.27	
2025-01-12 11:05:33.76	194.46	21.30	
2025-01-12 11:05:33.97	194.49	21.32	
2025-01-12 11:05:34.17	194.51	21.35	
2025-01-12 11:05:34.38	194.53	21.37	
2025-01-12 11:05:34.58	194.56	21.40	
2025-01-12 11:05:34.79	194.58	21.42	
2025-01-12 11:05:34.99	194.60	21.45	
2025-01-12 11:05:35.20	194.63	21.48	
2025-01-12 11:05:35.40	194.65	21.50	
2025-01-12 11:05:35.61	194.68	21.53	
2025-01-12 11:05:35.81	194.70	21.55	
2025-01-12 11:05:36.02	194.73	21.58	
2025-01-12 11:05:36.23	194.75	21.60	
2025-01-12 11:05:36.43	194.77	21.63	
2025-01-12 11:05:36.64	194.80	21.66	
2025-01-12 11:05:36.84	194.82	21.68	
2025-01-12 11:05:37.05	194.85	21.71	
2025-01-12 11:05:37.25	194.87	21.73	
2025-01-12 11:05:37.46	194.89	21.76	
2025-01-12 11:05:37.66	194.92	21.79	
2025-01-12 11:05:37.87	194.94	21.81	
2025-01-12 11:05:38.08	194.97	21.84	
2025-01-12 11:05:38.28	194.99	21.86	
2025-01-12 11:05:38.48	195.02	21.89	
2025-01-12 11:05:38.69	195.04	21.92	
2025-01-12 11:05:38.89	195.07	21.94	
2025-01-12 11:05:39.10	195.09	21.97	
2025-01-12 11:05:39.31	195.12	21.99	
2025-01-12 11:05:39.51	195.14	22.02	
2025-01-12 11:05:39.72	195.17	22.05	
2025-01-12 11:05:39.92	195.19	22.07	
2025-01-12 11:05:40.13	195.21	22.10	
2025-01-12 11:05:40.34	195.24	22.13	
2025-01-12 11:05:40.54	195.26	22.15	
2025-01-12 11:05:40.74	195.29	22.18	
2025-01-12 11:05:40.95	195.31	22.20	
2025-01-12 11:05:41.16	195.34	22.23	
2025-01-12 11:05:41.36	195.36	22.26	
2025-01-12 11:05:41.58	195.39	22.28	
2025-01-12 11:05:41.78	195.42	22.31	
2025-01-12 11:05:41.99	195.44	22.34	
2025-01-12 11:05:42.20	195.47	22.36	
2025-01-12 11:05:42.40	195.49	22.39	
2025-01-12 11:05:42.60	195.52	22.42	
2025-01-12 11:05:42.81	195.54	22.44	
2025-01-12 11:05:43.02	195.57	22.47	
2025-01-12 11:05:43.22	195.59	22.50	
2025-01-12 11:05:43.43	195.62	22.52	
2025-01-12 11:05:43.63	195.64	22.55	
2025-01-12 11:05:43.84	195.67	22.58	
2025-01-12 11:05:44.04	195.70	22.60	
2025-01-12 11:05:44.25	195.72	22.63	
2025-01-12 11:05:44.45	195.75	22.66	
2025-01-12 11:05:44.66	195.77	22.68	
2025-01-12 11:05:44.86	195.80	22.71	
2025-01-12 11:05:45.06	195.82	22.73	
2025-01-12 11:05:45.27	195.85	22.76	
2025-01-12 11:05:45.47	195.88	22.79	
2025-01-12 11:05:45.68	195.90	22.82	
2025-01-12 11:05:45.88	195.93	22.84	
2025-01-12 11:05:46.09	195.95	22.87	
2025-01-12 11:05:46.29	195.98	22.90	
2025-01-12 11:05:46.51	196.01	22.92	
2025-01-12 11:05:46.72	196.03	22.95	
2025-01-12 11:05:46.92	196.06	22.98	
2025-01-12 11:05:47.13	196.09	23.01	
2025-01-12 11:05:47.33	196.11	23.03	
2025-01-12 11:05:47.54	196.14	23.06	
2025-01-12 11:05:47.75	196.17	23.09	
2025-01-12 11:05:47.95	196.19	23.11	
2025-01-12 11:05:48.15	196.22	23.14	
2025-01-12 11:05:48.36	196.25	23.17	
2025-01-12 11:05:48.57	196.27	23.20	
2025-01-12 11:05:48.77	196.30	23.22	
2025-01-12 11:05:48.97	196.32	23.25	
2025-01-12 11:05:49.18	196.35	23.28	
2025-01-12 11:05:49.38	196.38	23.30	
2025-01-12 11:05:49.59	196.40	23.33	
2025-01-12 11:05:49.79	196.43	23.36	
2025-01-12 11:05:50.00	196.46	23.38	
2025-01-12 11:05:50.20	196.48	23.41	
2025-01-12 11:05:50.41	196.51	23.44	
2025-01-12 11:05:50.61	196.54	23.47	
2025-01-12 11:05:50.82	196.57	23.49	
2025-01-12 11:05:51.03	196.59	23.52	
2025-01-12 11:05:51.23	196.62	23.55	
2025-01-12 11:05:51.43	196.65	23.58	
2025-01-12 11:05:51.64	196.68	23.60	
2025-01-12 11:05:51.85	196.70	23.63	
2025-01-12 11:05:52.05	196.73	23.66	
2025-01-12 11:05:52.26	196.76	23.69	
2025-01-12 11:05:52.46	196.78	23.71	
2025-01-12 11:05:52.67	196.81	23.74	
2025-01-12 11:05:52.87	196.84	23.77	
2025-01-12 11:05:53.08	196.87	23.80	
2025-01-12 11:05:53.28	196.89	23.82	
2025-01-12 11:05:53.49	196.92	23.85	
2025-01-12 11:05:53.69	196.95	23.88	
2025-01-12 11:05:53.90	196.98	23.91	
2025-01-12 11:05:54.11	197.01	23.94	
2025-01-12 11:05:54.31	197.03	23.96	
2025-01-12 11:05:54.51	197.06	23.99	
2025-01-12 11:05:54.72	197.09	24.02	
2025-01-12 11:05:54.93	197.12	24.05	
2025-01-12 11:05:55.13	197.15	24.07	
2025-01-12 11:05:55.34	197.17	24.10	
2025-01-12 11:05:55.54	197.20	24.13	
2025-01-12 11:05:55.74	197.23	24.16	
2025-01-12 11:05:55.95	197.26	24.19	
2025-01-12 11:05:56.16	197.29	24.21	
2025-01-12 11:05:56.36	197.32	24.24	
2025-01-12 11:05:56.57	197.34	24.27	
2025-01-12 11:05:56.77	197.37	24.30	
2025-01-12 11:05:56.98	197.40	24.33	
2025-01-12 11:05:57.18	197.43	24.35	
2025-01-12 11:05:57.39	197.46	24.38	
2025-01-12 11:05:57.61	197.49	24.41	
2025-01-12 11:05:57.81	197.52	24.44	
2025-01-12 11:05:58.02	197.55	24.47	
2025-01-12 11:05:58.22	197.57	24.50	
2025-01-12 11:05:58.43	197.60	24.52	
2025-01-12 11:05:58.63	197.63	24.55	
2025-01-12 11:05:58.84	197.66	24.58	
2025-01-12 11:05:59.04	197.69	24.61	
2025-01-12 11:05:59.25	197.72	24.64	
2025-01-12 11:05:59.45	197.75	24.66	
2025-01-12 11:05:59.66	197.78	24.69	
2025-01-12 11:05:59.86	197.81	24.72	
2025-01-12 11:06:00.07	197.84	24.75	
2025-01-12 11:06:00.27	197.86	24.78	
2025-01-12 11:06:00.48	197.89	24.81	
2025-01-12 11:06:00.68	197.92	24.84	
2025-01-12 11:06:00.89	197.95	24.86	
2025-01-12 11:06:01.10	197.98	24.89	
2025-01-12 11:06:01.30	198.01	24.92	
2025-01-12 11:06:01.50	198.04	24.95	
2025-01-12 11:06:01.71	198.07	24.98	
2025-01-12 11:06:01.91	198.10	25.01	
2025-01-12 11:06:02.12	198.13	25.04	
2025-01-12 11:06:02.32	198.16	25.06	
2025-01-12 11:06:02.53	198.19	25.09	
2025-01-12 11:06:02.74	198.22	25.12	
2025-01-12 11:06:02.94	198.25	25.15	
2025-01-12 11:06:03.14	198.28	25.18	
2025-01-12 11:06:03.35	198.31	25.21	
2025-01-12 11:06:03.56	198.34	25.24	
2025-01-12 11:06:03.76	198.37	25.26	
2025-01-12 11:06:03.97	198.40	25.29	
2025-01-12 11:06:04.17	198.43	25.32	
2025-01-12 11:06:04.38	198.46	25.35	
2025-01-12 11:06:04.58	198.49	25.38	
2025-01-12 11:06:04.79	198.52	25.41	
2025-01-12 11:06:04.99	198.55	25.44	
2025-01-12 11:06:05.20	198.58	25.47	
2025-01-12 11:06:05.40	198.61	25.50	
2025-01-12 11:06:05.61	198.65	25.53	
2025-01-12 11:06:05.82	198.68	25.56	
2025-01-12 11:06:06.02	198.71	25.58	
2025-01-12 11:06:06.24	198.74	25.61	
2025-01-12 11:06:06.44	198.77	25.64	
2025-01-12 11:06:06.65	198.80	25.67	
2025-01-12 11:06:06.86	198.83	25.70	
2025-01-12 11:06:07.06	198.86	25.73	
2025-01-12 11:06:07.27	198.90	25.76	
2025-01-12 11:06:07.47	198.93	25.79	
2025-01-12 11:06:07.68	198.96	25.82	
2025-01-12 11:06:07.88	198.99	25.85	
2025-01-12 11:06:08.09	199.02	25.88	
2025-01-12 11:06:08.29	199.05	25.91	
2025-01-12 11:06:08.50	199.08	25.94	
2025-01-12 11:06:08.70	199.11	25.97	
2025-01-12 11:06:08.91	199.15	26.00	
2025-01-12 11:06:09.11	199.18	26.02	
2025-01-12 11:06:09.32	199.21	26.05	
2025-01-12 11:06:09.52	199.24	26.08	
2025-01-12 11:06:09.73	199.27	26.11	
2025-01-12 11:06:09.94	199.31	26.14	
2025-01-12 11:06:10.14	199.34	26.17	
2025-01-12 11:06:10.35	199.37	26.20	
2025-01-12 11:06:10.55	199.40	26.23	
2025-01-12 11:06:10.76	199.43	26.26	
2025-01-12 11:06:10.96	199.47	26.29	
2025-01-12 11:06:11.17	199.50	26.32	
2025-01-12 11:06:11.37	199.53	26.35	
2025-01-12 11:06:11.58	199.56	26.38	
2025-01-12 11:06:11.78	199.59	26.41	
2025-01-12 11:06:11.99	199.63	26.44	
2025-01-12 11:06:12.19	199.66	26.47	
2025-01-12 11:06:12.40	199.69	26.50	
2025-01-12 11:06:12.60	199.72	26.53	
2025-01-12 11:06:12.81	199.76	26.56	
2025-01-12 11:06:13.02	199.79	26.59	
2025-01-12 11:06:13.22	199.82	26.62	
2025-01-12 11:06:13.43	199.86	26.65	
2025-01-12 11:06:13.63	199.89	26.68	
2025-01-12 11:06:13.84	199.92	26.71	
2025-01-12 11:06:14.04	199.96	26.74	
2025-01-12 11:06:14.25	199.99	26.77	
2025-01-12 11:06:14.45	200.02	26.80	
2025-01-12 11:06:14.66	200.06	26.83	
2025-01-12 11:06:14.86	200.09	26.86	
2025-01-12 11:06:15.07	200.12	26.89	
2025-01-12 11:06:15.27	200.15	26.92	
2025-01-12 11:06:15.48	200.19	26.95	
2025-01-12 11:06:15.68	200.22	26.98	
2025-01-12 11:06:15.89	200.26	27.01	
2025-01-12 11:06:16.09	200.29	27.04	
2025-01-12 11:06:16.30	200.32	27.07	
2025-01-12 11:06:16.50	200.36	27.10	
2025-01-12 11:06:16.71	200.39	27.13	
2025-01-12 11:06:16.93	200.43	27.16	
2025-01-12 11:06:17.13	200.46	27.19	
2025-01-12 11:06:17.34	200.49	27.22	
2025-01-12 11:06:17.54	200.53	27.25	
2025-01-12 11:06:17.75	200.56	27.28	
2025-01-12 11:06:17.95	200.60	27.31	
2025-01-12 11:06:18.16	200.63	27.34	
2025-01-12 11:06:18.36	200.66	27.37	
2025-01-12 11:06:18.57	200.70	27.40	
2025-01-12 11:06:18.78	200.74	27.44	
2025-01-12 11:06:18.98	200.77	27.47	
2025-01-12 11:06:19.19	200.80	27.50	
2025-01-12 11:06:19.39	200.84	27.53	
2025-01-12 11:06:19.60	200.87	27.56	
2025-01-12 11:06:19.80	200.91	27.59	
2025-01-12 11:06:20.01	200.94	27.62	
2025-01-12 11:06:20.22	200.98	27.65	
2025-01-12 11:06:20.42	201.01	27.68	
2025-01-12 11:06:20.63	201.05	27.71	
2025-01-12 11:06:20.83	201.08	27.74	
2025-01-12 11:06:21.04	201.12	27.77	
2025-01-12 11:06:21.24	201.15	27.80	
2025-01-12 11:06:21.45	201.19	27.83	
2025-01-12 11:06:21.65	201.22	27.86	
2025-01-12 11:06:21.86	201.26	27.90	
2025-01-12 11:06:22.07	201.30	27.93	
2025-01-12 11:06:22.27	201.33	27.96	
2025-01-12 11:06:22.47	201.37	27.99	
2025-01-12 11:06:22.68	201.40	28.02	
2025-01-12 11:06:22.88	201.44	28.05	
2025-01-12 11:06:23.09	201.47	28.08	
2025-01-12 11:06:23.31	201.51	28.11	
2025-01-12 11:06:23.51	201.55	28.15	
2025-01-12 11:06:23.72	201.59	28.18	
2025-01-12 11:06:23.92	201.62	28.21	
2025-01-12 11:06:24.13	201.66	28.24	
2025-01-12 11:06:24.35	201.70	28.27	
2025-01-12 11:06:24.55	201.73	28.30	
2025-01-12 11:06:24.76	201.77	28.33	
2025-01-12 11:06:24.96	201.80	28.36	
2025-01-12 11:06:25.17	201.84	28.40	
2025-01-12 11:06:25.37	201.88	28.43	
2025-01-12 11:06:25.58	201.92	28.46	
2025-01-12 11:06:25.79	201.95	28.49	
2025-01-12 11:06:25.99	201.99	28.52	
2025-01-12 11:06:26.20	202.03	28.55	
2025-01-12 11:06:26.40	202.06	28.58	
2025-01-12 11:06:26.60	202.10	28.62	
2025-01-12 11:06:26.81	202.14	28.65	
2025-01-12 11:06:27.02	202.17	28.68	
2025-01-12 11:06:27.22	202.21	28.71	
2025-01-12 11:06:27.42	202.25	28.74	
2025-01-12 11:06:27.63	202.29	28.77	
2025-01-12 11:06:27.84	202.32	28.81	
2025-01-12 11:06:28.04	202.36	28.84	
2025-01-12 11:06:28.25	202.40	28.87	
2025-01-12 11:06:28.45	202.44	28.90	
2025-01-12 11:06:28.66	202.47	28.93	
2025-01-12 11:06:28.86	202.51	28.96	
2025-01-12 11:06:29.07	202.55	28.99	
2025-01-12 11:06:29.27	202.59	29.03	
2025-01-12 11:06:29.48	202.63	29.06	
2025-01-12 11:06:29.68	202.66	29.09	
2025-01-12 11:06:29.89	202.70	29.12	
2025-01-12 11:06:30.09	202.74	29.15	
2025-01-12 11:06:30.30	202.78	29.18	
2025-01-12 11:06:30.50	202.82	29.22	
2025-01-12 11:06:30.71	202.86	29.25	
2025-01-12 11:06:30.91	202.89	29.28	
2025-01-12 11:06:31.12	202.93	29.31	
2025-01-12 11:06:31.32	202.97	29.34	
2025-01-12 11:06:31.53	203.01	29.38	
2025-01-12 11:06:31.73	203.05	29.41	
2025-01-12 11:06:31.94	203.09	29.44	
2025-01-12 11:06:32.14	203.13	29.47	
2025-01-12 11:06:32.35	203.17	29.50	
2025-01-12 11:06:32.56	203.21	29.54	
2025-01-12 11:06:32.76	203.24	29.57	
2025-01-12 11:06:32.97	203.28	29.60	
2025-01-12 11:06:33.17	203.32	29.63	
2025-01-12 11:06:33.38	203.36	29.66	
2025-01-12 11:06:33.58	203.40	29.70	
2025-01-12 11:06:33.79	203.44	29.73	
2025-01-12 11:06:34.01	203.49	29.76	
2025-01-12 11:06:34.21	203.52	29.79	
2025-01-12 11:06:34.42	203.56	29.83	
2025-01-12 11:06:34.62	203.60	29.86	
2025-01-12 11:06:34.83	203.64	29.89	
2025-01-12 11:06:35.05	203.69	29.93	
2025-01-12 11:06:35.25	203.73	29.96	
2025-01-12 11:06:35.46	203.77	29.99	
2025-01-12 11:06:35.66	203.81	30.02	
2025-01-12 11:06:35.87	203.85	30.06	
2025-01-12 11:06:36.07	203.89	30.09	
2025-01-12 11:06:36.28	203.93	30.12	
2025-01-12 11:06:36.48	203.97	30.15	
2025-01-12 11:06:36.69	204.01	30.19	
2025-01-12 11:06:36.89	204.05	30.22	
2025-01-12 11:06:37.11	204.09	30.25	
2025-01-12 11:06:37.31	204.13	30.28	
2025-01-12 11:06:37.52	204.18	30.32	
2025-01-12 11:06:37.72	204.22	30.35	
2025-01-12 11:06:37.93	204.26	30.38	
2025-01-12 11:06:38.13	204.30	30.41	
2025-01-12 11:06:38.34	204.34	30.45	
2025-01-12 11:06:38.54	204.38	30.48	
2025-01-12 11:06:38.75	204.42	30.51	
2025-01-12 11:06:38.95	204.47	30.54	
2025-01-12 11:06:39.16	204.51	30.58	
2025-01-12 11:06:39.36	204.55	30.61	
2025-01-12 11:06:39.57	204.59	30.64	
2025-01-12 11:06:39.78	204.63	30.68	
2025-01-12 11:06:39.98	204.68	30.71	
2025-01-12 11:06:40.19	204.72	30.74	
2025-01-12 11:06:40.40	204.76	30.78	
2025-01-12 11:06:40.61	204.81	30.81	
2025-01-12 11:06:40.82	204.85	30.84	
2025-01-12 11:06:41.02	204.89	30.88	
2025-01-12 11:06:41.23	204.93	30.91	
2025-01-12 11:06:41.45	204.98	30.94	
2025-01-12 11:06:41.65	205.02	30.98	
2025-01-12 11:06:41.86	205.06	31.01	
2025-01-12 11:06:42.06	205.11	31.04	
2025-01-12 11:06:42.27	205.15	31.08	
2025-01-12 11:06:42.47	205.19	31.11	
2025-01-12 11:06:42.68	205.24	31.14	
2025-01-12 11:06:42.89	205.28	31.18	
2025-01-12 11:06:43.09	205.32	31.21	
2025-01-12 11:06:43.30	205.37	31.24	
2025-01-12 11:06:43.50	205.41	31.27	
2025-01-12 11:06:43.71	205.45	31.31	
2025-01-12 11:06:43.91	205.50	31.34	
2025-01-12 11:06:44.12	205.54	31.37	
2025-01-12 11:06:44.32	205.58	31.41	
2025-01-12 11:06:44.53	205.63	31.44	
2025-01-12 11:06:44.73	205.67	31.47	
2025-01-12 11:06:44.94	205.72	31.51	
2025-01-12 11:06:45.14	205.76	31.54	
2025-01-12 11:06:45.35	205.81	31.57	
2025-01-12 11:06:45.56	205.85	31.61	
2025-01-12 11:06:45.76	205.89	31.64	
2025-01-12 11:06:45.97	205.94	31.67	
2025-01-12 11:06:46.17	205.98	31.71	
2025-01-12 11:06:46.38	206.03	31.74	
2025-01-12 11:06:46.58	206.07	31.77	
2025-01-12 11:06:46.80	206.12	31.81	
2025-01-12 11:06:47.01	206.17	31.84	
2025-01-12 11:06:47.21	206.21	31.88	
2025-01-12 11:06:47.42	206.26	31.91	
2025-01-12 11:06:47.62	206.30	31.94	
2025-01-12 11:06:47.83	206.35	31.98	
2025-01-12 11:06:48.03	206.39	32.01	
2025-01-12 11:06:48.24	206.44	32.05	
2025-01-12 11:06:48.44	206.48	32.08	
2025-01-12 11:06:48.65	206.53	32.11	
2025-01-12 11:06:48.85	206.58	32.15	
2025-01-12 11:06:49.06	206.62	32.18	
2025-01-12 11:06:49.26	206.67	32.21	
2025-01-12 11:06:49.47	206.71	32.25	
2025-01-12 11:06:49.67	206.76	32.28	
2025-01-12 11:06:49.88	206.81	32.31	
2025-01-12 11:06:50.08	206.85	32.35	
2025-01-12 11:06:50.29	206.90	32.38	
2025-01-12 11:06:50.49	206.95	32.41	
2025-01-12 11:06:50.70	206.99	32.45	
2025-01-12 11:06:50.90	207.04	32.48	
2025-01-12 11:06:51.11	207.09	32.52	
2025-01-12 11:06:51.31	207.13	32.55	
2025-01-12 11:06:51.52	207.18	32.58	
2025-01-12 11:06:51.72	207.23	32.62	
2025-01-12 11:06:51.93	207.28	32.65	
2025-01-12 11:06:52.13	207.32	32.69	
2025-01-12 11:06:52.33	207.37	32.72	
2025-01-12 11:06:52.54	207.42	32.75	
2025-01-12 11:06:52.75	207.47	32.79	
2025-01-12 11:06:52.95	207.51	32.82	
2025-01-12 11:06:53.15	207.56	32.85	
2025-01-12 11:06:53.36	207.61	32.89	
2025-01-12 11:06:53.56	207.65	32.92	
2025-01-12 11:06:53.77	207.70	32.96	
2025-01-12 11:06:53.97	207.75	32.99	
2025-01-12 11:06:54.18	207.80	33.02	
2025-01-12 11:06:54.38	207.85	33.06	
2025-01-12 11:06:54.59	207.90	33.09	
2025-01-12 11:06:54.79	207.94	33.13	
2025-01-12 11:06:55.00	207.99	33.16	
2025-01-12 11:06:55.20	208.04	33.19	
2025-01-12 11:06:55.41	208.09	33.23	
2025-01-12 11:06:55.61	208.14	33.26	
2025-01-12 11:06:55.82	208.19	33.30	
2025-01-12 11:06:56.02	208.24	33.33	
2025-01-12 11:06:56.23	208.29	33.37	
2025-01-12 11:06:56.43	208.34	33.40	
2025-01-12 11:06:56.64	208.39	33.43	
2025-01-12 11:06:56.84	208.44	33.47	
2025-01-12 11:06:57.05	208.49	33.50	
2025-01-12 11:06:57.25	208.54	33.54	
2025-01-12 11:06:57.46	208.59	33.57	
2025-01-12 11:06:57.66	208.64	33.61	
2025-01-12 11:06:57.87	208.69	33.64	
2025-01-12 11:06:58.07	208.74	33.67	
2025-01-12 11:06:58.28	208.79	33.71	
2025-01-12 11:06:58.48	208.84	33.74	
2025-01-12 11:06:58.69	208.89	33.78	
2025-01-12 11:06:58.89	208.94	33.81	
2025-01-12 11:06:59.10	208.99	33.85	
2025-01-12 11:06:59.31	209.04	33.88	
2025-01-12 11:06:59.51	209.09	33.92	
2025-01-12 11:06:59.72	209.14	33.95	
2025-01-12 11:06:59.92	209.19	33.98	
2025-01-12 11:07:00.13	209.25	34.02	
2025-01-12 11:07:00.33	209.30	34.05	
2025-01-12 11:07:00.53	209.35	34.09	
2025-01-12 11:07:00.74	209.40	34.12	
2025-01-12 11:07:00.94	209.45	34.16	
2025-01-12 11:07:01.15	209.50	34.19	
2025-01-12 11:07:01.35	209.55	34.23	
2025-01-12 11:07:01.56	209.61	34.26	
2025-01-12 11:07:01.76	209.66	34.29	
2025-01-12 11:07:01.97	209.71	34.33	
2025-01-12 11:07:02.18	209.77	34.37	
2025-01-12 11:07:02.38	209.82	34.40	
2025-01-12 11:07:02.59	209.87	34.44	
2025-01-12 11:07:02.79	209.92	34.47	
2025-01-12 11:07:02.99	209.97	34.50	
2025-01-12 11:07:03.20	210.03	34.54	
2025-01-12 11:07:03.40	210.08	34.57	
2025-01-12 11:07:03.61	210.13	34.61	
2025-01-12 11:07:03.81	210.19	34.64	
2025-01-12 11:07:04.02	210.24	34.68	
2025-01-12 11:07:04.22	210.29	34.71	
2025-01-12 11:07:04.43	210.35	34.75	
2025-01-12 11:07:04.63	210.40	34.78	
2025-01-12 11:07:04.84	210.45	34.82	
2025-01-12 11:07:05.04	210.51	34.85	
2025-01-12 11:07:05.25	210.56	34.89	
2025-01-12 11:07:05.45	210.62	34.92	
2025-01-12 11:07:05.66	210.67	34.96	
2025-01-12 11:07:05.86	210.72	34.99	
2025-01-12 11:07:06.07	210.78	35.02	
2025-01-12 11:07:06.28	210.84	35.06	
2025-01-12 11:07:06.49	210.89	35.10	
2025-01-12 11:07:06.69	210.95	35.13	
2025-01-12 11:07:06.90	211.00	35.17	
2025-01-12 11:07:07.10	211.06	35.20	
2025-01-12 11:07:07.31	211.11	35.24	
2025-01-12 11:07:07.51	211.17	35.27	
2025-01-12 11:07:07.72	211.22	35.31	
2025-01-12 11:07:07.92	211.28	35.34	
2025-01-12 11:07:08.13	211.33	35.38	
2025-01-12 11:07:08.33	211.39	35.41	
2025-01-12 11:07:08.54	211.45	35.45	
2025-01-12 11:07:08.74	211.50	35.48	
2025-01-12 11:07:08.95	211.56	35.52	
2025-01-12 11:07:09.15	211.61	35.55	
2025-01-12 11:07:09.36	211.67	35.59	
2025-01-12 11:07:09.56	211.73	35.62	
2025-01-12 11:07:09.77	211.78	35.66	
2025-01-12 11:07:09.97	211.84	35.69	
2025-01-12 11:07:10.18	211.90	35.73	
2025-01-12 11:07:10.38	211.95	35.76	
2025-01-12 11:07:10.59	212.01	35.80	
2025-01-12 11:07:10.79	212.07	35.83	
2025-01-12 11:07:11.00	212.13	35.87	
2025-01-12 11:07:11.20	212.18	35.90	
2025-01-12 11:07:11.41	212.24	35.94	
2025-01-12 11:07:11.61	212.30	35.97	
2025-01-12 11:07:11.82	212.36	36.01	
2025-01-12 11:07:12.02	212.41	36.04	
2025-01-12 11:07:12.23	212.47	36.08	
2025-01-12 11:07:12.43	212.53	36.11	
2025-01-12 11:07:12.64	212.59	36.15	
2025-01-12 11:07:12.84	212.65	36.18	
2025-01-12 11:07:13.05	212.71	36.22	
2025-01-12 11:07:13.25	212.76	36.25	
2025-01-12 11:07:13.47	212.83	36.29	
2025-01-12 11:07:13.68	212.89	36.32	
2025-01-12 11:07:13.88	212.94	36.36	
2025-01-12 11:07:14.09	213.00	36.39	
2025-01-12 11:07:14.30	213.07	36.43	
2025-01-12 11:07:14.50	213.12	36.46	
2025-01-12 11:07:14.70	213.18	36.50	
2025-01-12 11:07:14.91	213.24	36.53	
2025-01-12 11:07:15.12	213.30	36.57	
2025-01-12 11:07:15.32	213.36	36.61	
2025-01-12 11:07:15.52	213.42	36.64	
2025-01-12 11:07:15.73	213.48	36.68	
2025-01-12 11:07:15.94	213.54	36.71	
2025-01-12 11:07:16.14	213.60	36.75	
2025-01-12 11:07:16.35	213.66	36.78	
2025-01-12 11:07:16.55	213.72	36.82	
2025-01-12 11:07:16.76	213.79	36.85	
2025-01-12 11:07:16.96	213.85	36.89	
2025-01-12 11:07:17.17	213.91	36.92	
2025-01-12 11:07:17.38	213.97	36.96	
2025-01-12 11:07:17.58	214.03	36.99	
2025-01-12 11:07:17.80	214.10	37.03	
2025-01-12 11:07:18.01	214.16	37.07	
2025-01-12 11:07:18.21	214.22	37.10	
2025-01-12 11:07:18.42	214.28	37.14	
2025-01-12 11:07:18.62	214.34	37.17	
2025-01-12 11:07:18.84	214.41	37.21	
2025-01-12 11:07:19.05	214.47	37.25	
2025-01-12 11:07:19.25	214.54	37.28	
2025-01-12 11:07:19.47	214.60	37.32	
2025-01-12 11:07:19.68	214.67	37.35	
2025-01-12 11:07:19.89	214.73	37.39	
2025-01-12 11:07:20.10	214.80	37.43	
2025-01-12 11:07:20.30	214.86	37.46	
2025-01-12 11:07:20.51	214.92	37.50	
2025-01-12 11:07:20.72	214.99	37.53	
2025-01-12 11:07:20.92	215.05	37.57	
2025-01-12 11:07:21.13	215.11	37.60	
2025-01-12 11:07:21.33	215.18	37.64	
2025-01-12 11:07:21.54	215.24	37.67	
2025-01-12 11:07:21.74	215.30	37.71	
2025-01-12 11:07:21.94	215.37	37.74	
2025-01-12 11:07:22.15	215.43	37.78	
2025-01-12 11:07:22.36	215.50	37.81	
2025-01-12 11:07:22.56	215.56	37.85	
2025-01-12 11:07:22.77	215.63	37.88	
2025-01-12 11:07:22.97	215.69	37.92	
2025-01-12 11:07:23.17	215.75	37.95	
2025-01-12 11:07:23.38	215.82	37.99	
2025-01-12 11:07:23.59	215.89	38.02	
2025-01-12 11:07:23.79	215.95	38.06	
2025-01-12 11:07:24.00	216.02	38.09	
2025-01-12 11:07:24.20	216.08	38.13	
2025-01-12 11:07:24.41	216.15	38.16	
2025-01-12 11:07:24.62	216.22	38.20	
2025-01-12 11:07:24.82	216.28	38.24	
2025-01-12 11:07:25.03	216.35	38.27	
2025-01-12 11:07:25.23	216.42	38.31	
2025-01-12 11:07:25.44	216.48	38.34	
2025-01-12 11:07:25.64	216.55	38.38	
2025-01-12 11:07:25.85	216.62	38.41	
2025-01-12 11:07:26.05	216.68	38.45	
2025-01-12 11:07:26.26	216.75	38.48	
2025-01-12 11:07:26.46	216.82	38.52	
2025-01-12 11:07:26.67	216.89	38.55	
2025-01-12 11:07:26.88	216.96	38.59	
2025-01-12 11:07:27.08	217.02	38.62	
2025-01-12 11:07:27.28	217.09	38.66	
2025-01-12 11:07:27.49	217.16	38.69	
2025-01-12 11:07:27.70	217.23	38.73	
2025-01-12 11:07:27.90	217.29	38.76	
2025-01-12 11:07:28.11	217.36	38.80	
2025-01-12 11:07:28.31	217.43	38.83	
2025-01-12 11:07:28.52	217.50	38.87	
2025-01-12 11:07:28.72	217.57	38.90	
2025-01-12 11:07:28.93	217.64	38.94	
2025-01-12 11:07:29.13	217.71	38.97	
2025-01-12 11:07:29.34	217.78	39.01	
2025-01-12 11:07:29.54	217.84	39.04	
2025-01-12 11:07:29.75	217.92	39.08	
2025-01-12 11:07:29.95	217.98	39.11	
2025-01-12 11:07:30.16	218.06	39.15	
2025-01-12 11:07:30.36	218.12	39.18	
2025-01-12 11:07:30.58	218.20	39.22	
2025-01-12 11:07:30.79	218.27	39.25	
2025-01-12 11:07:30.99	218.34	39.29	
2025-01-12 11:07:31.20	218.41	39.32	
2025-01-12 11:07:31.40	218.48	39.36	
2025-01-12 11:07:31.61	218.55	39.39	
2025-01-12 11:07:31.81	218.62	39.43	
2025-01-12 11:07:32.02	218.70	39.46	
2025-01-12 11:07:32.23	218.77	39.50	
2025-01-12 11:07:32.43	218.84	39.53	
2025-01-12 11:07:32.64	218.91	39.57	
2025-01-12 11:07:32.84	218.98	39.60	
2025-01-12 11:07:33.05	219.06	39.64	
2025-01-12 11:07:33.25	219.13	39.67	
2025-01-12 11:07:33.46	219.20	39.71	
2025-01-12 11:07:33.66	219.27	39.74	
2025-01-12 11:07:33.87	219.35	39.78	
2025-01-12 11:07:34.07	219.42	39.81	
2025-01-12 11:07:34.28	219.49	39.85	
2025-01-12 11:07:34.48	219.56	39.88	
2025-01-12 11:07:34.69	219.64	39.92	
2025-01-12 11:07:34.89	219.71	39.95	
2025-01-12 11:07:35.10	219.78	39.98	
2025-01-12 11:07:35.31	219.86	40.02	
2025-01-12 11:07:35.51	219.93	40.05	
2025-01-12 11:07:35.72	220.01	40.09	
2025-01-12 11:07:35.92	220.08	40.12	
2025-01-12 11:07:36.13	220.16	40.16	
2025-01-12 11:07:36.33	220.23	40.19	
2025-01-12 11:07:36.54	220.30	40.23	
2025-01-12 11:07:36.74	220.38	40.26	
2025-01-12 11:07:36.95	220.45	40.30	
2025-01-12 11:07:37.15	220.53	40.33	
2025-01-12 11:07:37.36	220.60	40.36	
2025-01-12 11:07:37.56	220.68	40.40	
2025-01-12 11:07:37.77	220.76	40.43	
2025-01-12 11:07:37.97	220.83	40.47	
2025-01-12 11:07:38.18	220.91	40.50	
2025-01-12 11:07:38.38	220.98	40.53	
2025-01-12 11:07:38.59	221.06	40.57	
2025-01-12 11:07:38.80	221.14	40.60	
2025-01-12 11:07:39.00	221.21	40.64	
2025-01-12 11:07:39.22	221.29	40.67	
2025-01-12 11:07:39.43	221.37	40.71	
2025-01-12 11:07:39.63	221.45	40.74	
2025-01-12 11:07:39.84	221.53	40.78	
2025-01-12 11:07:40.04	221.60	40.81	
2025-01-12 11:07:40.25	221.68	40.85	
2025-01-12 11:07:40.45	221.76	40.88	
2025-01-12 11:07:40.66	221.84	40.91	
2025-01-12 11:07:40.86	221.91	40.95	
2025-01-12 11:07:41.07	221.99	40.98	
2025-01-12 11:07:41.27	222.07	41.01	
2025-01-12 11:07:41.48	222.15	41.05	
2025-01-12 11:07:41.69	222.23	41.08	
2025-01-12 11:07:41.89	222.31	41.12	
2025-01-12 11:07:42.10	222.39	41.15	
2025-01-12 11:07:42.30	222.47	41.18	
2025-01-12 11:07:42.51	222.55	41.22	
2025-01-12 11:07:42.71	222.62	41.25	
2025-01-12 11:07:42.92	222.71	41.29	
2025-01-12 11:07:43.12	222.78	41.32	
2025-01-12 11:07:43.33	222.86	41.35	
2025-01-12 11:07:43.53	222.94	41.39	
2025-01-12 11:07:43.74	223.03	41.42	
2025-01-12 11:07:43.94	223.10	41.45	
2025-01-12 11:07:44.15	223.19	41.49	
2025-01-12 11:07:44.36	223.27	41.52	
2025-01-12 11:07:44.56	223.35	41.55	
2025-01-12 11:07:44.76	223.43	41.59	
2025-01-12 11:07:44.97	223.51	41.62	
2025-01-12 11:07:45.18	223.59	41.66	
2025-01-12 11:07:45.38	223.67	41.69	
2025-01-12 11:07:45.58	223.75	41.72	
2025-01-12 11:07:45.79	223.84	41.75	
2025-01-12 11:07:46.00	223.92	41.79	
2025-01-12 11:07:46.20	224.00	41.82	
2025-01-12 11:07:46.41	224.08	41.85	
2025-01-12 11:07:46.63	224.17	41.89	
2025-01-12 11:07:46.83	224.25	41.92	
2025-01-12 11:07:47.04	224.34	41.96	
2025-01-12 11:07:47.24	224.42	41.99	
2025-01-12 11:07:47.45	224.51	42.02	
2025-01-12 11:07:47.65	224.59	42.05	
2025-01-12 11:07:47.86	224.67	42.09	
2025-01-12 11:07:48.07	224.76	42.12	
2025-01-12 11:07:48.27	224.84	42.15	
2025-01-12 11:07:48.48	224.93	42.19	
2025-01-12 11:07:48.68	225.01	42.22	
2025-01-12 11:07:48.89	225.09	42.25	
2025-01-12 11:07:49.10	225.18	42.29	
2025-01-12 11:07:49.30	225.26	42.32	
2025-01-12 11:07:49.51	225.35	42.35	
2025-01-12 11:07:49.71	225.43	42.38	
2025-01-12 11:07:49.92	225.52	42.42	
2025-01-12 11:07:50.12	225.60	42.45	
2025-01-12 11:07:50.33	225.69	42.48	
2025-01-12 11:07:50.53	225.78	42.51	
2025-01-12 11:07:50.74	225.86	42.54	
2025-01-12 11:07:50.94	225.95	42.58	
2025-01-12 11:07:51.15	226.04	42.61	
2025-01-12 11:07:51.35	226.12	42.64	
2025-01-12 11:07:51.56	226.21	42.67	
2025-01-12 11:07:51.76	226.29	42.70	
2025-01-12 11:07:51.97	226.38	42.74	
2025-01-12 11:07:52.17	226.47	42.77	
2025-01-12 11:07:52.38	226.56	42.80	
2025-01-12 11:07:52.58	226.64	42.83	
2025-01-12 11:07:52.79	226.73	42.87	
2025-01-12 11:07:52.99	226.82	42.90	
2025-01-12 11:07:53.20	226.91	42.93	
2025-01-12 11:07:53.40	226.99	42.96	
2025-01-12 11:07:53.61	227.08	42.99	
2025-01-12 11:07:53.82	227.18	43.02	
2025-01-12 11:07:54.02	227.26	43.06	
2025-01-12 11:07:54.22	227.35	43.09	
2025-01-12 11:07:54.43	227.44	43.12	
2025-01-12 11:07:54.63	227.53	43.15	
2025-01-12 11:07:54.84	227.62	43.18	
2025-01-12 11:07:55.04	227.71	43.21	
2025-01-12 11:07:55.25	227.80	43.24	
2025-01-12 11:07:55.45	227.88	43.27	
2025-01-12 11:07:55.66	227.98	43.31	
2025-01-12 11:07:55.86	228.07	43.34	
2025-01-12 11:07:56.07	228.16	43.37	
2025-01-12 11:07:56.27	228.25	43.40	
2025-01-12 11:07:56.48	228.34	43.43	
2025-01-12 11:07:56.68	228.43	43.46	
2025-01-12 11:07:56.89	228.52	43.49	
2025-01-12 11:07:57.10	228.61	43.52	
2025-01-12 11:07:57.30	228.70	43.55	
2025-01-12 11:07:57.51	228.80	43.58	
2025-01-12 11:07:57.71	228.89	43.61	
2025-01-12 11:07:57.92	228.98	43.65	
2025-01-12 11:07:58.12	229.07	43.68	
2025-01-12 11:07:58.33	229.17	43.71	
2025-01-12 11:07:58.53	229.26	43.74	
2025-01-12 11:07:58.74	229.35	43.77	
2025-01-12 11:07:58.94	229.44	43.80	
2025-01-12 11:07:59.15	229.54	43.83	
2025-01-12 11:07:59.35	229.63	43.86	
2025-01-12 11:07:59.56	229.72	43.89	
2025-01-12 11:07:59.76	229.81	43.92	
2025-01-12 11:07:59.97	229.91	43.95	
2025-01-12 11:08:00.18	230.01	43.98	
2025-01-12 11:08:00.38	230.10	44.01	
2025-01-12 11:08:00.59	230.19	44.04	
2025-01-12 11:08:00.80	230.29	44.07	
2025-01-12 11:08:01.00	230.38	44.10	
2025-01-12 11:08:01.21	230.48	44.13	
2025-01-12 11:08:01.41	230.57	44.16	
2025-01-12 11:08:01.61	230.67	44.19	
2025-01-12 11:08:01.82	230.76	44.22	
2025-01-12 11:08:02.03	230.86	44.25	
2025-01-12 11:08:02.23	230.95	44.27	
2025-01-12 11:08:02.44	231.05	44.30	
2025-01-12 11:08:02.64	231.15	44.33	
2025-01-12 11:08:02.85	231.24	44.36	
2025-01-12 11:08:03.05	231.34	44.39	
2025-01-12 11:08:03.26	231.44	44.42	
2025-01-12 11:08:03.46	231.53	44.45	
2025-01-12 11:08:03.67	231.63	44.48	
2025-01-12 11:08:03.87	231.73	44.51	
2025-01-12 11:08:04.08	231.82	44.54	
2025-01-12 11:08:04.28	231.92	44.56	
2025-01-12 11:08:04.49	232.02	44.59	
2025-01-12 11:08:04.69	232.11	44.62	
2025-01-12 11:08:04.90	232.22	44.65	
2025-01-12 11:08:05.10	232.31	44.68	
2025-01-12 11:08:05.31	232.41	44.71	
2025-01-12 11:08:05.52	232.51	44.74	
2025-01-12 11:08:05.72	232.61	44.76	
2025-01-12 11:08:05.92	232.70	44.79	
2025-01-12 11:08:06.13	232.81	44.82	
2025-01-12 11:08:06.33	232.90	44.85	
2025-01-12 11:08:06.54	233.00	44.88	
2025-01-12 11:08:06.75	233.11	44.90	
2025-01-12 11:08:06.95	233.20	44.93	
2025-01-12 11:08:07.15	233.30	44.96	
2025-01-12 11:08:07.36	233.40	44.99	
2025-01-12 11:08:07.56	233.50	45.01	
2025-01-12 11:08:07.77	233.60	45.04	
2025-01-12 11:08:07.99	233.71	45.07	
2025-01-12 11:08:08.19	233.81	45.10	
2025-01-12 11:08:08.40	233.91	45.12	
2025-01-12 11:08:08.60	234.01	45.15	
2025-01-12 11:08:08.81	234.11	45.18	
2025-01-12 11:08:09.01	234.21	45.20	
2025-01-12 11:08:09.22	234.32	45.23	
2025-01-12 11:08:09.42	234.42	45.26	
2025-01-12 11:08:09.63	234.52	45.29	
2025-01-12 11:08:09.83	234.62	45.31	
2025-01-12 11:08:10.04	234.72	45.34	
2025-01-12 11:08:10.24	234.82	45.36	
2025-01-12 11:08:10.45	234.93	45.39	
2025-01-12 11:08:10.65	235.03	45.42	
2025-01-12 11:08:10.86	235.13	45.44	
2025-01-12 11:08:11.06	235.23	45.47	
2025-01-12 11:08:11.27	235.34	45.50	
2025-01-12 11:08:11.47	235.44	45.52	
2025-01-12 11:08:11.68	235.55	45.55	
2025-01-12 11:08:11.88	235.65	45.57	
2025-01-12 11:08:12.09	235.75	45.60	
2025-01-12 11:08:12.29	235.86	45.62	
2025-01-12 11:08:12.50	235.96	45.65	
2025-01-12 11:08:12.70	236.06	45.68	
2025-01-12 11:08:12.91	236.17	45.70	
2025-01-12 11:08:13.11	236.27	45.73	
2025-01-12 11:08:13.33	236.39	45.75	
2025-01-12 11:08:13.54	236.49	45.78	
2025-01-12 11:08:13.74	236.60	45.80	
2025-01-12 11:08:13.95	236.70	45.83	
2025-01-12 11:08:14.15	236.81	45.85	
2025-01-12 11:08:14.36	236.92	45.88	
2025-01-12 11:08:14.56	237.02	45.90	
2025-01-12 11:08:14.77	237.13	45.93	
2025-01-12 11:08:14.98	237.24	45.95	
2025-01-12 11:08:15.18	237.34	45.98	
2025-01-12 11:08:15.40	237.45	46.00	
2025-01-12 11:08:15.60	237.56	46.03	
2025-01-12 11:08:15.81	237.67	46.05	
2025-01-12 11:08:16.01	237.77	46.07	
2025-01-12 11:08:16.22	237.88	46.10	
2025-01-12 11:08:16.42	237.99	46.12	
2025-01-12 11:08:16.63	238.10	46.15	
2025-01-12 11:08:16.83	238.20	46.17	
2025-01-12 11:08:17.04	238.31	46.19	
2025-01-12 11:08:17.25	238.42	46.22	
2025-01-12 11:08:17.45	238.53	46.24	
2025-01-12 11:08:17.66	238.64	46.26	
2025-01-12 11:08:17.86	238.74	46.29	
2025-01-12 11:08:18.07	238.85	46.31	
2025-01-12 11:08:18.27	238.96	46.33	
2025-01-12 11:08:18.48	239.07	46.36	
2025-01-12 11:08:18.70	239.19	46.38	
2025-01-12 11:08:18.90	239.30	46.40	
2025-01-12 11:08:19.11	239.41	46.42	
2025-01-12 11:08:19.32	239.52	46.45	
2025-01-12 11:08:19.52	239.63	46.47	
2025-01-12 11:08:19.73	239.74	46.49	
2025-01-12 11:08:19.93	239.85	46.51	
2025-01-12 11:08:20.14	239.96	46.54	
2025-01-12 11:08:20.34	240.07	46.56	
2025-01-12 11:08:20.55	240.18	46.58	
2025-01-12 11:08:20.75	240.29	46.60	
2025-01-12 11:08:20.96	240.40	46.62	
2025-01-12 11:08:21.16	240.51	46.64	
2025-01-12 11:08:21.37	240.62	46.67	
2025-01-12 11:08:21.58	240.74	46.69	
2025-01-12 11:08:21.78	240.85	46.71	
2025-01-12 11:08:21.99	240.96	46.73	
2025-01-12 11:08:22.19	241.07	46.75	
2025-01-12 11:08:22.40	241.18	46.77	
2025-01-12 11:08:22.60	241.29	46.79	
2025-01-12 11:08:22.80	241.40	46.81	
2025-01-12 11:08:23.01	241.52	46.83	
2025-01-12 11:08:23.21	241.63	46.85	
2025-01-12 11:08:23.42	241.74	46.87	
2025-01-12 11:08:23.62	241.85	46.89	
2025-01-12 11:08:23.83	241.97	46.91	
