passes_logs/2025/01/12/SPB_Silybum_02/SPB_Silybum_02__20250112_124558_SUOMI_NPP_rec.log

#Pass ID: 20250112_124558_SUOMI NPP
#Satellite: SUOMI NPP
#Configuration: NPP
#Start time: 2025-01-12 12:45:58

#Version: 2.0.20230423
#Station: SPB_Silybum_02
#Location: 30.233357 lon 59.946436 lat
#TLE: 1 37849U 11061A   25011.81852258  .00000147  00000+0  90749-4 0  9992
#TLE: 2 37849  98.7442 312.8475 0001799  45.9067 314.2257 14.19536766684464

#Time	Az	El	Level	Level2	SNR	BER	Gain	Gain2
2025-01-12 12:46:00.94	239.45	4.09	
2025-01-12 12:46:01.15	239.47	4.10	
2025-01-12 12:46:01.35	239.49	4.11	
2025-01-12 12:46:01.56	239.52	4.12	
2025-01-12 12:46:01.77	239.54	4.13	
2025-01-12 12:46:01.97	239.57	4.14	
2025-01-12 12:46:02.17	239.59	4.15	
2025-01-12 12:46:02.38	239.61	4.16	
2025-01-12 12:46:02.59	239.64	4.17	
2025-01-12 12:46:02.79	239.66	4.17	
2025-01-12 12:46:02.99	239.68	4.18	
2025-01-12 12:46:03.20	239.71	4.19	
2025-01-12 12:46:03.40	239.73	4.20	
2025-01-12 12:46:03.61	239.76	4.21	
2025-01-12 12:46:03.81	239.78	4.22	
2025-01-12 12:46:04.02	239.80	4.23	
2025-01-12 12:46:04.22	239.83	4.24	
2025-01-12 12:46:04.43	239.85	4.25	
2025-01-12 12:46:04.64	239.87	4.25	
2025-01-12 12:46:04.84	239.90	4.26	
2025-01-12 12:46:05.05	239.92	4.27	
2025-01-12 12:46:05.26	239.95	4.28	
2025-01-12 12:46:05.47	239.97	4.29	
2025-01-12 12:46:05.67	239.99	4.30	
2025-01-12 12:46:05.88	240.02	4.31	
2025-01-12 12:46:06.09	240.04	4.32	
2025-01-12 12:46:06.29	240.07	4.33	
2025-01-12 12:46:06.50	240.09	4.34	
2025-01-12 12:46:06.70	240.11	4.34	
2025-01-12 12:46:06.91	240.14	4.35	
2025-01-12 12:46:07.11	240.16	4.36	
2025-01-12 12:46:07.31	240.19	4.37	
2025-01-12 12:46:07.52	240.21	4.38	
2025-01-12 12:46:07.73	240.24	4.39	
2025-01-12 12:46:07.93	240.26	4.40	
2025-01-12 12:46:08.14	240.28	4.41	
2025-01-12 12:46:08.34	240.31	4.41	
2025-01-12 12:46:08.55	240.33	4.42	
2025-01-12 12:46:08.75	240.35	4.43	
2025-01-12 12:46:08.96	240.38	4.44	
2025-01-12 12:46:09.16	240.40	4.45	
2025-01-12 12:46:09.37	240.43	4.46	
2025-01-12 12:46:09.57	240.45	4.47	
2025-01-12 12:46:09.77	240.47	4.48	
2025-01-12 12:46:09.98	240.50	4.49	
2025-01-12 12:46:10.19	240.52	4.49	
2025-01-12 12:46:10.39	240.55	4.50	
2025-01-12 12:46:10.59	240.57	4.51	
2025-01-12 12:46:10.80	240.60	4.52	
2025-01-12 12:46:11.01	240.62	4.53	
2025-01-12 12:46:11.21	240.64	4.54	
2025-01-12 12:46:11.41	240.67	4.55	
2025-01-12 12:46:11.62	240.69	4.56	
2025-01-12 12:46:11.82	240.72	4.57	
2025-01-12 12:46:12.03	240.74	4.57	
2025-01-12 12:46:12.24	240.77	4.58	
2025-01-12 12:46:12.44	240.79	4.59	
2025-01-12 12:46:12.65	240.82	4.60	
2025-01-12 12:46:12.85	240.84	4.61	
2025-01-12 12:46:13.06	240.86	4.62	
2025-01-12 12:46:13.26	240.89	4.63	
2025-01-12 12:46:13.47	240.91	4.64	
2025-01-12 12:46:13.67	240.94	4.64	
2025-01-12 12:46:13.88	240.96	4.65	
2025-01-12 12:46:14.08	240.99	4.66	
2025-01-12 12:46:14.29	241.01	4.67	
2025-01-12 12:46:14.49	241.03	4.68	
2025-01-12 12:46:14.70	241.06	4.69	
2025-01-12 12:46:14.90	241.08	4.70	
2025-01-12 12:46:15.11	241.11	4.71	
2025-01-12 12:46:15.31	241.13	4.72	
2025-01-12 12:46:15.52	241.16	4.72	
2025-01-12 12:46:15.73	241.18	4.73	
2025-01-12 12:46:15.93	241.21	4.74	
2025-01-12 12:46:16.14	241.23	4.75	
2025-01-12 12:46:16.34	241.26	4.76	
2025-01-12 12:46:16.55	241.28	4.77	
2025-01-12 12:46:16.75	241.31	4.78	
2025-01-12 12:46:16.96	241.33	4.79	
2025-01-12 12:46:17.16	241.36	4.79	
2025-01-12 12:46:17.37	241.38	4.80	
2025-01-12 12:46:17.57	241.40	4.81	
2025-01-12 12:46:17.78	241.43	4.82	
2025-01-12 12:46:17.98	241.45	4.83	
2025-01-12 12:46:18.19	241.48	4.84	
2025-01-12 12:46:18.39	241.50	4.85	
2025-01-12 12:46:18.60	241.53	4.86	
2025-01-12 12:46:18.80	241.55	4.87	
2025-01-12 12:46:19.01	241.58	4.87	
2025-01-12 12:46:19.21	241.60	4.88	
2025-01-12 12:46:19.42	241.63	4.89	
2025-01-12 12:46:19.62	241.65	4.90	
2025-01-12 12:46:19.83	241.68	4.91	
2025-01-12 12:46:20.03	241.70	4.92	
2025-01-12 12:46:20.24	241.73	4.93	
2025-01-12 12:46:20.44	241.75	4.94	
2025-01-12 12:46:20.65	241.78	4.94	
2025-01-12 12:46:20.85	241.80	4.95	
2025-01-12 12:46:21.06	241.83	4.96	
2025-01-12 12:46:21.28	241.85	4.97	
2025-01-12 12:46:21.49	241.88	4.98	
2025-01-12 12:46:21.69	241.90	4.99	
2025-01-12 12:46:21.90	241.93	5.00	
2025-01-12 12:46:22.10	241.95	5.01	
2025-01-12 12:46:22.32	241.98	5.02	
2025-01-12 12:46:22.53	242.01	5.02	
2025-01-12 12:46:22.73	242.03	5.03	
2025-01-12 12:46:22.94	242.06	5.04	
2025-01-12 12:46:23.14	242.08	5.05	
2025-01-12 12:46:23.35	242.11	5.06	
2025-01-12 12:46:23.55	242.13	5.07	
2025-01-12 12:46:23.76	242.16	5.08	
2025-01-12 12:46:23.96	242.18	5.09	
2025-01-12 12:46:24.17	242.21	5.10	
2025-01-12 12:46:24.37	242.23	5.10	
2025-01-12 12:46:24.58	242.26	5.11	
2025-01-12 12:46:24.78	242.28	5.12	
2025-01-12 12:46:24.99	242.31	5.13	
2025-01-12 12:46:25.19	242.33	5.14	
2025-01-12 12:46:25.40	242.36	5.15	
2025-01-12 12:46:25.60	242.38	5.16	
2025-01-12 12:46:25.81	242.41	5.16	
2025-01-12 12:46:26.01	242.43	5.17	
2025-01-12 12:46:26.22	242.46	5.18	
2025-01-12 12:46:26.43	242.49	5.19	
2025-01-12 12:46:26.64	242.51	5.20	
2025-01-12 12:46:26.85	242.54	5.21	
2025-01-12 12:46:27.06	242.56	5.22	
2025-01-12 12:46:27.26	242.59	5.23	
2025-01-12 12:46:27.47	242.61	5.24	
2025-01-12 12:46:27.67	242.64	5.24	
2025-01-12 12:46:27.88	242.66	5.25	
2025-01-12 12:46:28.08	242.69	5.26	
2025-01-12 12:46:28.29	242.72	5.27	
2025-01-12 12:46:28.50	242.74	5.28	
2025-01-12 12:46:28.70	242.77	5.29	
2025-01-12 12:46:28.90	242.79	5.30	
2025-01-12 12:46:29.11	242.82	5.31	
2025-01-12 12:46:29.31	242.84	5.31	
2025-01-12 12:46:29.52	242.87	5.32	
2025-01-12 12:46:29.72	242.89	5.33	
2025-01-12 12:46:29.93	242.92	5.34	
2025-01-12 12:46:30.13	242.94	5.35	
2025-01-12 12:46:30.34	242.97	5.36	
2025-01-12 12:46:30.54	243.00	5.37	
2025-01-12 12:46:30.75	243.02	5.37	
2025-01-12 12:46:30.95	243.05	5.38	
2025-01-12 12:46:31.15	243.07	5.39	
2025-01-12 12:46:31.36	243.10	5.40	
2025-01-12 12:46:31.57	243.12	5.41	
2025-01-12 12:46:31.77	243.15	5.42	
2025-01-12 12:46:31.99	243.18	5.43	
2025-01-12 12:46:32.19	243.20	5.44	
2025-01-12 12:46:32.40	243.23	5.44	
2025-01-12 12:46:32.60	243.25	5.45	
2025-01-12 12:46:32.81	243.28	5.46	
2025-01-12 12:46:33.01	243.31	5.47	
2025-01-12 12:46:33.21	243.33	5.48	
2025-01-12 12:46:33.42	243.36	5.49	
2025-01-12 12:46:33.62	243.38	5.50	
2025-01-12 12:46:33.83	243.41	5.51	
2025-01-12 12:46:34.03	243.43	5.51	
2025-01-12 12:46:34.24	243.46	5.52	
2025-01-12 12:46:34.44	243.49	5.53	
2025-01-12 12:46:34.65	243.51	5.54	
2025-01-12 12:46:34.86	243.54	5.55	
2025-01-12 12:46:35.06	243.56	5.56	
2025-01-12 12:46:35.27	243.59	5.57	
2025-01-12 12:46:35.47	243.62	5.57	
2025-01-12 12:46:35.68	243.64	5.58	
2025-01-12 12:46:35.88	243.67	5.59	
2025-01-12 12:46:36.09	243.69	5.60	
2025-01-12 12:46:36.29	243.72	5.61	
2025-01-12 12:46:36.50	243.75	5.62	
2025-01-12 12:46:36.70	243.77	5.63	
2025-01-12 12:46:36.91	243.80	5.64	
2025-01-12 12:46:37.11	243.82	5.64	
2025-01-12 12:46:37.32	243.85	5.65	
2025-01-12 12:46:37.52	243.88	5.66	
2025-01-12 12:46:37.73	243.90	5.67	
2025-01-12 12:46:37.93	243.93	5.68	
2025-01-12 12:46:38.14	243.96	5.69	
2025-01-12 12:46:38.34	243.98	5.70	
2025-01-12 12:46:38.55	244.01	5.70	
2025-01-12 12:46:38.75	244.03	5.71	
2025-01-12 12:46:38.96	244.06	5.72	
2025-01-12 12:46:39.16	244.09	5.73	
2025-01-12 12:46:39.37	244.11	5.74	
2025-01-12 12:46:39.57	244.14	5.75	
2025-01-12 12:46:39.78	244.17	5.76	
2025-01-12 12:46:39.98	244.19	5.76	
2025-01-12 12:46:40.19	244.22	5.77	
2025-01-12 12:46:40.39	244.24	5.78	
2025-01-12 12:46:40.60	244.27	5.79	
2025-01-12 12:46:40.80	244.30	5.80	
2025-01-12 12:46:41.01	244.32	5.81	
2025-01-12 12:46:41.22	244.35	5.82	
2025-01-12 12:46:41.42	244.38	5.82	
2025-01-12 12:46:41.62	244.40	5.83	
2025-01-12 12:46:41.83	244.43	5.84	
2025-01-12 12:46:42.03	244.45	5.85	
2025-01-12 12:46:42.24	244.48	5.86	
2025-01-12 12:46:42.45	244.51	5.87	
2025-01-12 12:46:42.65	244.53	5.88	
2025-01-12 12:46:42.85	244.56	5.88	
2025-01-12 12:46:43.06	244.59	5.89	
2025-01-12 12:46:43.26	244.61	5.90	
2025-01-12 12:46:43.47	244.64	5.91	
2025-01-12 12:46:43.67	244.67	5.92	
2025-01-12 12:46:43.87	244.69	5.93	
2025-01-12 12:46:44.08	244.72	5.94	
2025-01-12 12:46:44.28	244.75	5.94	
2025-01-12 12:46:44.49	244.77	5.95	
2025-01-12 12:46:44.69	244.80	5.96	
2025-01-12 12:46:44.90	244.83	5.97	
2025-01-12 12:46:45.10	244.85	5.98	
2025-01-12 12:46:45.31	244.88	5.99	
2025-01-12 12:46:45.51	244.91	6.00	
2025-01-12 12:46:45.72	244.93	6.00	
2025-01-12 12:46:45.92	244.96	6.01	
2025-01-12 12:46:46.13	244.99	6.02	
2025-01-12 12:46:46.33	245.01	6.03	
2025-01-12 12:46:46.54	245.04	6.04	
2025-01-12 12:46:46.74	245.07	6.05	
2025-01-12 12:46:46.95	245.09	6.06	
2025-01-12 12:46:47.15	245.12	6.06	
2025-01-12 12:46:47.36	245.15	6.07	
2025-01-12 12:46:47.56	245.17	6.08	
2025-01-12 12:46:47.76	245.20	6.09	
2025-01-12 12:46:47.97	245.23	6.10	
2025-01-12 12:46:48.17	245.25	6.11	
2025-01-12 12:46:48.38	245.28	6.11	
2025-01-12 12:46:48.58	245.31	6.12	
2025-01-12 12:46:48.79	245.34	6.13	
2025-01-12 12:46:48.99	245.36	6.14	
2025-01-12 12:46:49.20	245.39	6.15	
2025-01-12 12:46:49.40	245.42	6.16	
2025-01-12 12:46:49.61	245.44	6.17	
2025-01-12 12:46:49.82	245.47	6.17	
2025-01-12 12:46:50.02	245.50	6.18	
2025-01-12 12:46:50.22	245.52	6.19	
2025-01-12 12:46:50.43	245.55	6.20	
2025-01-12 12:46:50.63	245.58	6.21	
2025-01-12 12:46:50.84	245.61	6.22	
2025-01-12 12:46:51.04	245.63	6.23	
2025-01-12 12:46:51.25	245.66	6.23	
2025-01-12 12:46:51.45	245.69	6.24	
2025-01-12 12:46:51.66	245.71	6.25	
2025-01-12 12:46:51.86	245.74	6.26	
2025-01-12 12:46:52.07	245.77	6.27	
2025-01-12 12:46:52.29	245.80	6.28	
2025-01-12 12:46:52.49	245.82	6.29	
2025-01-12 12:46:52.70	245.85	6.29	
2025-01-12 12:46:52.90	245.88	6.30	
2025-01-12 12:46:53.11	245.91	6.31	
2025-01-12 12:46:53.31	245.93	6.32	
2025-01-12 12:46:53.52	245.96	6.33	
2025-01-12 12:46:53.72	245.99	6.34	
2025-01-12 12:46:53.93	246.02	6.34	
2025-01-12 12:46:54.13	246.04	6.35	
2025-01-12 12:46:54.33	246.07	6.36	
2025-01-12 12:46:54.54	246.10	6.37	
2025-01-12 12:46:54.75	246.12	6.38	
2025-01-12 12:46:54.95	246.15	6.39	
2025-01-12 12:46:55.16	246.18	6.39	
2025-01-12 12:46:55.36	246.21	6.40	
2025-01-12 12:46:55.57	246.23	6.41	
2025-01-12 12:46:55.77	246.26	6.42	
2025-01-12 12:46:55.98	246.29	6.43	
2025-01-12 12:46:56.18	246.32	6.44	
2025-01-12 12:46:56.39	246.34	6.45	
2025-01-12 12:46:56.59	246.37	6.45	
2025-01-12 12:46:56.80	246.40	6.46	
2025-01-12 12:46:57.00	246.43	6.47	
2025-01-12 12:46:57.21	246.45	6.48	
2025-01-12 12:46:57.42	246.48	6.49	
2025-01-12 12:46:57.62	246.51	6.50	
2025-01-12 12:46:57.83	246.54	6.50	
2025-01-12 12:46:58.03	246.57	6.51	
2025-01-12 12:46:58.24	246.59	6.52	
2025-01-12 12:46:58.44	246.62	6.53	
2025-01-12 12:46:58.65	246.65	6.54	
2025-01-12 12:46:58.85	246.68	6.55	
2025-01-12 12:46:59.06	246.70	6.55	
2025-01-12 12:46:59.26	246.73	6.56	
2025-01-12 12:46:59.47	246.76	6.57	
2025-01-12 12:46:59.68	246.79	6.58	
2025-01-12 12:46:59.88	246.82	6.59	
2025-01-12 12:47:00.08	246.84	6.60	
2025-01-12 12:47:00.29	246.87	6.60	
2025-01-12 12:47:00.49	246.90	6.61	
2025-01-12 12:47:00.70	246.93	6.62	
2025-01-12 12:47:00.90	246.95	6.63	
2025-01-12 12:47:01.11	246.98	6.64	
2025-01-12 12:47:01.31	247.01	6.65	
2025-01-12 12:47:01.52	247.04	6.65	
2025-01-12 12:47:01.72	247.06	6.66	
2025-01-12 12:47:01.93	247.09	6.67	
2025-01-12 12:47:02.14	247.12	6.68	
2025-01-12 12:47:02.35	247.15	6.69	
2025-01-12 12:47:02.56	247.18	6.70	
2025-01-12 12:47:02.76	247.21	6.71	
2025-01-12 12:47:02.96	247.23	6.71	
2025-01-12 12:47:03.17	247.26	6.72	
2025-01-12 12:47:03.37	247.29	6.73	
2025-01-12 12:47:03.58	247.32	6.74	
2025-01-12 12:47:03.78	247.35	6.75	
2025-01-12 12:47:04.00	247.38	6.76	
2025-01-12 12:47:04.20	247.40	6.76	
2025-01-12 12:47:04.41	247.43	6.77	
2025-01-12 12:47:04.61	247.46	6.78	
2025-01-12 12:47:04.82	247.49	6.79	
2025-01-12 12:47:05.04	247.52	6.80	
2025-01-12 12:47:05.24	247.55	6.81	
2025-01-12 12:47:05.45	247.58	6.81	
2025-01-12 12:47:05.65	247.60	6.82	
2025-01-12 12:47:05.86	247.63	6.83	
2025-01-12 12:47:06.06	247.66	6.84	
2025-01-12 12:47:06.27	247.69	6.85	
2025-01-12 12:47:06.47	247.72	6.86	
2025-01-12 12:47:06.68	247.74	6.86	
2025-01-12 12:47:06.88	247.77	6.87	
2025-01-12 12:47:07.09	247.80	6.88	
2025-01-12 12:47:07.29	247.83	6.89	
2025-01-12 12:47:07.50	247.86	6.90	
2025-01-12 12:47:07.70	247.89	6.90	
2025-01-12 12:47:07.91	247.91	6.91	
2025-01-12 12:47:08.11	247.94	6.92	
2025-01-12 12:47:08.32	247.97	6.93	
2025-01-12 12:47:08.52	248.00	6.94	
2025-01-12 12:47:08.72	248.03	6.95	
2025-01-12 12:47:08.93	248.06	6.95	
2025-01-12 12:47:09.13	248.08	6.96	
2025-01-12 12:47:09.34	248.11	6.97	
2025-01-12 12:47:09.54	248.14	6.98	
2025-01-12 12:47:09.75	248.17	6.99	
2025-01-12 12:47:09.95	248.20	6.99	
2025-01-12 12:47:10.16	248.23	7.00	
2025-01-12 12:47:10.36	248.25	7.01	
2025-01-12 12:47:10.57	248.28	7.02	
2025-01-12 12:47:10.77	248.31	7.03	
2025-01-12 12:47:10.97	248.34	7.04	
2025-01-12 12:47:11.18	248.37	7.04	
2025-01-12 12:47:11.38	248.40	7.05	
2025-01-12 12:47:11.59	248.43	7.06	
2025-01-12 12:47:11.79	248.45	7.07	
2025-01-12 12:47:12.00	248.48	7.08	
2025-01-12 12:47:12.20	248.51	7.08	
2025-01-12 12:47:12.40	248.54	7.09	
2025-01-12 12:47:12.61	248.57	7.10	
2025-01-12 12:47:12.81	248.60	7.11	
2025-01-12 12:47:13.02	248.63	7.12	
2025-01-12 12:47:13.22	248.65	7.13	
2025-01-12 12:47:13.43	248.68	7.13	
2025-01-12 12:47:13.63	248.71	7.14	
2025-01-12 12:47:13.84	248.74	7.15	
2025-01-12 12:47:14.04	248.77	7.16	
2025-01-12 12:47:14.25	248.80	7.17	
2025-01-12 12:47:14.46	248.83	7.17	
2025-01-12 12:47:14.68	248.86	7.18	
2025-01-12 12:47:14.88	248.89	7.19	
2025-01-12 12:47:15.09	248.92	7.20	
2025-01-12 12:47:15.29	248.95	7.21	
2025-01-12 12:47:15.50	248.98	7.22	
2025-01-12 12:47:15.70	249.00	7.22	
2025-01-12 12:47:15.91	249.03	7.23	
2025-01-12 12:47:16.11	249.06	7.24	
2025-01-12 12:47:16.32	249.09	7.25	
2025-01-12 12:47:16.52	249.12	7.26	
2025-01-12 12:47:16.74	249.15	7.26	
2025-01-12 12:47:16.95	249.18	7.27	
2025-01-12 12:47:17.15	249.21	7.28	
2025-01-12 12:47:17.36	249.24	7.29	
2025-01-12 12:47:17.56	249.27	7.30	
2025-01-12 12:47:17.78	249.30	7.31	
2025-01-12 12:47:17.99	249.33	7.31	
2025-01-12 12:47:18.19	249.36	7.32	
2025-01-12 12:47:18.40	249.39	7.33	
2025-01-12 12:47:18.60	249.41	7.34	
2025-01-12 12:47:18.81	249.44	7.35	
2025-01-12 12:47:19.01	249.47	7.35	
2025-01-12 12:47:19.22	249.50	7.36	
2025-01-12 12:47:19.42	249.53	7.37	
2025-01-12 12:47:19.63	249.56	7.38	
2025-01-12 12:47:19.83	249.59	7.39	
2025-01-12 12:47:20.04	249.62	7.39	
2025-01-12 12:47:20.24	249.65	7.40	
2025-01-12 12:47:20.45	249.68	7.41	
2025-01-12 12:47:20.65	249.71	7.42	
2025-01-12 12:47:20.86	249.74	7.43	
2025-01-12 12:47:21.06	249.77	7.43	
2025-01-12 12:47:21.27	249.80	7.44	
2025-01-12 12:47:21.47	249.82	7.45	
2025-01-12 12:47:21.68	249.86	7.46	
2025-01-12 12:47:21.88	249.88	7.47	
2025-01-12 12:47:22.10	249.92	7.47	
2025-01-12 12:47:22.31	249.95	7.48	
2025-01-12 12:47:22.51	249.97	7.49	
2025-01-12 12:47:22.72	250.00	7.50	
2025-01-12 12:47:22.92	250.03	7.51	
2025-01-12 12:47:23.13	250.06	7.51	
2025-01-12 12:47:23.34	250.09	7.52	
2025-01-12 12:47:23.54	250.12	7.53	
2025-01-12 12:47:23.74	250.15	7.54	
2025-01-12 12:47:23.95	250.18	7.55	
2025-01-12 12:47:24.15	250.21	7.55	
2025-01-12 12:47:24.36	250.24	7.56	
2025-01-12 12:47:24.56	250.27	7.57	
2025-01-12 12:47:24.77	250.30	7.58	
2025-01-12 12:47:24.97	250.33	7.59	
2025-01-12 12:47:25.18	250.36	7.59	
2025-01-12 12:47:25.38	250.39	7.60	
2025-01-12 12:47:25.58	250.42	7.61	
2025-01-12 12:47:25.79	250.45	7.62	
2025-01-12 12:47:26.00	250.48	7.63	
2025-01-12 12:47:26.20	250.51	7.63	
2025-01-12 12:47:26.41	250.54	7.64	
2025-01-12 12:47:26.61	250.57	7.65	
2025-01-12 12:47:26.81	250.60	7.66	
2025-01-12 12:47:27.02	250.63	7.67	
2025-01-12 12:47:27.23	250.66	7.67	
2025-01-12 12:47:27.45	250.69	7.68	
2025-01-12 12:47:27.65	250.72	7.69	
2025-01-12 12:47:27.86	250.75	7.70	
2025-01-12 12:47:28.06	250.78	7.70	
2025-01-12 12:47:28.27	250.81	7.71	
2025-01-12 12:47:28.47	250.84	7.72	
2025-01-12 12:47:28.68	250.87	7.73	
2025-01-12 12:47:28.89	250.90	7.74	
2025-01-12 12:47:29.09	250.93	7.74	
2025-01-12 12:47:29.30	250.96	7.75	
2025-01-12 12:47:29.50	250.99	7.76	
2025-01-12 12:47:29.71	251.02	7.77	
2025-01-12 12:47:29.91	251.05	7.78	
2025-01-12 12:47:30.12	251.08	7.78	
2025-01-12 12:47:30.32	251.11	7.79	
2025-01-12 12:47:30.53	251.14	7.80	
2025-01-12 12:47:30.73	251.17	7.81	
2025-01-12 12:47:30.94	251.20	7.82	
2025-01-12 12:47:31.14	251.23	7.82	
2025-01-12 12:47:31.35	251.26	7.83	
2025-01-12 12:47:31.55	251.29	7.84	
2025-01-12 12:47:31.75	251.32	7.85	
2025-01-12 12:47:31.96	251.35	7.85	
2025-01-12 12:47:32.17	251.38	7.86	
2025-01-12 12:47:32.37	251.41	7.87	
2025-01-12 12:47:32.57	251.44	7.88	
2025-01-12 12:47:32.78	251.47	7.88	
2025-01-12 12:47:32.98	251.50	7.89	
2025-01-12 12:47:33.19	251.53	7.90	
2025-01-12 12:47:33.39	251.56	7.91	
2025-01-12 12:47:33.60	251.59	7.92	
2025-01-12 12:47:33.81	251.62	7.92	
2025-01-12 12:47:34.02	251.65	7.93	
2025-01-12 12:47:34.22	251.68	7.94	
2025-01-12 12:47:34.43	251.71	7.95	
2025-01-12 12:47:34.64	251.75	7.96	
2025-01-12 12:47:34.84	251.78	7.96	
2025-01-12 12:47:35.05	251.81	7.97	
2025-01-12 12:47:35.25	251.84	7.98	
2025-01-12 12:47:35.46	251.87	7.99	
2025-01-12 12:47:35.66	251.90	7.99	
2025-01-12 12:47:35.87	251.93	8.00	
2025-01-12 12:47:36.07	251.96	8.01	
2025-01-12 12:47:36.28	251.99	8.02	
2025-01-12 12:47:36.48	252.02	8.02	
2025-01-12 12:47:36.69	252.05	8.03	
2025-01-12 12:47:36.89	252.08	8.04	
2025-01-12 12:47:37.10	252.11	8.05	
2025-01-12 12:47:37.30	252.14	8.06	
2025-01-12 12:47:37.51	252.17	8.06	
2025-01-12 12:47:37.71	252.20	8.07	
2025-01-12 12:47:37.92	252.23	8.08	
2025-01-12 12:47:38.14	252.27	8.09	
2025-01-12 12:47:38.34	252.30	8.09	
2025-01-12 12:47:38.55	252.33	8.10	
2025-01-12 12:47:38.76	252.36	8.11	
2025-01-12 12:47:38.96	252.39	8.12	
2025-01-12 12:47:39.16	252.42	8.12	
2025-01-12 12:47:39.37	252.45	8.13	
2025-01-12 12:47:39.58	252.48	8.14	
2025-01-12 12:47:39.79	252.51	8.15	
2025-01-12 12:47:39.99	252.54	8.16	
2025-01-12 12:47:40.20	252.58	8.16	
2025-01-12 12:47:40.40	252.61	8.17	
2025-01-12 12:47:40.61	252.64	8.18	
2025-01-12 12:47:40.81	252.67	8.19	
2025-01-12 12:47:41.01	252.70	8.19	
2025-01-12 12:47:41.22	252.73	8.20	
2025-01-12 12:47:41.42	252.76	8.21	
2025-01-12 12:47:41.63	252.79	8.22	
2025-01-12 12:47:41.83	252.82	8.22	
2025-01-12 12:47:42.04	252.85	8.23	
2025-01-12 12:47:42.24	252.88	8.24	
2025-01-12 12:47:42.45	252.91	8.25	
2025-01-12 12:47:42.66	252.95	8.25	
2025-01-12 12:47:42.86	252.98	8.26	
2025-01-12 12:47:43.07	253.01	8.27	
2025-01-12 12:47:43.27	253.04	8.28	
2025-01-12 12:47:43.47	253.07	8.28	
2025-01-12 12:47:43.68	253.10	8.29	
2025-01-12 12:47:43.89	253.13	8.30	
2025-01-12 12:47:44.09	253.16	8.31	
2025-01-12 12:47:44.30	253.19	8.31	
2025-01-12 12:47:44.52	253.23	8.32	
2025-01-12 12:47:44.72	253.26	8.33	
2025-01-12 12:47:44.92	253.29	8.34	
2025-01-12 12:47:45.13	253.32	8.34	
2025-01-12 12:47:45.33	253.35	8.35	
2025-01-12 12:47:45.54	253.38	8.36	
2025-01-12 12:47:45.74	253.41	8.37	
2025-01-12 12:47:45.95	253.45	8.37	
2025-01-12 12:47:46.15	253.48	8.38	
2025-01-12 12:47:46.36	253.51	8.39	
2025-01-12 12:47:46.56	253.54	8.40	
2025-01-12 12:47:46.77	253.57	8.40	
2025-01-12 12:47:46.97	253.60	8.41	
2025-01-12 12:47:47.18	253.63	8.42	
2025-01-12 12:47:47.38	253.66	8.43	
2025-01-12 12:47:47.59	253.70	8.43	
2025-01-12 12:47:47.79	253.73	8.44	
2025-01-12 12:47:48.00	253.76	8.45	
2025-01-12 12:47:48.20	253.79	8.46	
2025-01-12 12:47:48.41	253.82	8.46	
2025-01-12 12:47:48.61	253.85	8.47	
2025-01-12 12:47:48.81	253.88	8.48	
2025-01-12 12:47:49.02	253.92	8.49	
2025-01-12 12:47:49.22	253.95	8.49	
2025-01-12 12:47:49.43	253.98	8.50	
2025-01-12 12:47:49.63	254.01	8.51	
2025-01-12 12:47:49.85	254.04	8.52	
2025-01-12 12:47:50.06	254.08	8.52	
2025-01-12 12:47:50.26	254.11	8.53	
2025-01-12 12:47:50.47	254.14	8.54	
2025-01-12 12:47:50.67	254.17	8.54	
2025-01-12 12:47:50.88	254.20	8.55	
2025-01-12 12:47:51.08	254.23	8.56	
2025-01-12 12:47:51.29	254.27	8.57	
2025-01-12 12:47:51.49	254.30	8.57	
2025-01-12 12:47:51.70	254.33	8.58	
2025-01-12 12:47:51.90	254.36	8.59	
2025-01-12 12:47:52.11	254.39	8.60	
2025-01-12 12:47:52.31	254.42	8.60	
2025-01-12 12:47:52.51	254.45	8.61	
2025-01-12 12:47:52.72	254.49	8.62	
2025-01-12 12:47:52.92	254.52	8.63	
2025-01-12 12:47:53.14	254.55	8.63	
2025-01-12 12:47:53.34	254.58	8.64	
2025-01-12 12:47:53.55	254.61	8.65	
2025-01-12 12:47:53.75	254.65	8.65	
2025-01-12 12:47:53.95	254.68	8.66	
2025-01-12 12:47:54.16	254.71	8.67	
2025-01-12 12:47:54.36	254.74	8.68	
2025-01-12 12:47:54.57	254.77	8.68	
2025-01-12 12:47:54.77	254.80	8.69	
2025-01-12 12:47:54.98	254.84	8.70	
2025-01-12 12:47:55.18	254.87	8.70	
2025-01-12 12:47:55.39	254.90	8.71	
2025-01-12 12:47:55.59	254.93	8.72	
2025-01-12 12:47:55.80	254.97	8.73	
2025-01-12 12:47:56.00	255.00	8.73	
2025-01-12 12:47:56.21	255.03	8.74	
2025-01-12 12:47:56.41	255.06	8.75	
2025-01-12 12:47:56.62	255.09	8.76	
2025-01-12 12:47:56.82	255.12	8.76	
2025-01-12 12:47:57.03	255.16	8.77	
2025-01-12 12:47:57.23	255.19	8.78	
2025-01-12 12:47:57.44	255.22	8.78	
2025-01-12 12:47:57.64	255.25	8.79	
2025-01-12 12:47:57.85	255.29	8.80	
2025-01-12 12:47:58.05	255.32	8.81	
2025-01-12 12:47:58.25	255.35	8.81	
2025-01-12 12:47:58.46	255.38	8.82	
2025-01-12 12:47:58.67	255.41	8.83	
2025-01-12 12:47:58.87	255.45	8.83	
2025-01-12 12:47:59.08	255.48	8.84	
2025-01-12 12:47:59.28	255.51	8.85	
2025-01-12 12:47:59.49	255.54	8.86	
2025-01-12 12:47:59.69	255.57	8.86	
2025-01-12 12:47:59.90	255.61	8.87	
2025-01-12 12:48:00.10	255.64	8.88	
2025-01-12 12:48:00.31	255.67	8.88	
2025-01-12 12:48:00.51	255.70	8.89	
2025-01-12 12:48:00.72	255.74	8.90	
2025-01-12 12:48:00.92	255.77	8.90	
2025-01-12 12:48:01.13	255.80	8.91	
2025-01-12 12:48:01.33	255.83	8.92	
2025-01-12 12:48:01.54	255.87	8.93	
2025-01-12 12:48:01.75	255.90	8.93	
2025-01-12 12:48:01.95	255.93	8.94	
2025-01-12 12:48:02.15	255.96	8.95	
2025-01-12 12:48:02.36	256.00	8.95	
2025-01-12 12:48:02.56	256.03	8.96	
2025-01-12 12:48:02.76	256.06	8.97	
2025-01-12 12:48:02.97	256.09	8.98	
2025-01-12 12:48:03.18	256.13	8.98	
2025-01-12 12:48:03.38	256.16	8.99	
2025-01-12 12:48:03.58	256.19	9.00	
2025-01-12 12:48:03.79	256.22	9.00	
2025-01-12 12:48:03.99	256.25	9.01	
2025-01-12 12:48:04.20	256.29	9.02	
2025-01-12 12:48:04.40	256.32	9.02	
2025-01-12 12:48:04.61	256.35	9.03	
2025-01-12 12:48:04.81	256.39	9.04	
2025-01-12 12:48:05.02	256.42	9.04	
2025-01-12 12:48:05.22	256.45	9.05	
2025-01-12 12:48:05.43	256.48	9.06	
2025-01-12 12:48:05.63	256.52	9.07	
2025-01-12 12:48:05.84	256.55	9.07	
2025-01-12 12:48:06.04	256.58	9.08	
2025-01-12 12:48:06.25	256.62	9.09	
2025-01-12 12:48:06.46	256.65	9.09	
2025-01-12 12:48:06.66	256.68	9.10	
2025-01-12 12:48:06.86	256.71	9.11	
2025-01-12 12:48:07.07	256.75	9.11	
2025-01-12 12:48:07.27	256.78	9.12	
2025-01-12 12:48:07.48	256.81	9.13	
2025-01-12 12:48:07.68	256.84	9.13	
2025-01-12 12:48:07.89	256.88	9.14	
2025-01-12 12:48:08.09	256.91	9.15	
2025-01-12 12:48:08.30	256.94	9.16	
2025-01-12 12:48:08.50	256.98	9.16	
2025-01-12 12:48:08.71	257.01	9.17	
2025-01-12 12:48:08.92	257.04	9.18	
2025-01-12 12:48:09.13	257.08	9.18	
2025-01-12 12:48:09.33	257.11	9.19	
2025-01-12 12:48:09.54	257.14	9.20	
2025-01-12 12:48:09.74	257.17	9.20	
2025-01-12 12:48:09.94	257.21	9.21	
2025-01-12 12:48:10.15	257.24	9.22	
2025-01-12 12:48:10.36	257.27	9.22	
2025-01-12 12:48:10.56	257.31	9.23	
2025-01-12 12:48:10.77	257.34	9.24	
2025-01-12 12:48:10.97	257.37	9.24	
2025-01-12 12:48:11.17	257.41	9.25	
2025-01-12 12:48:11.38	257.44	9.26	
2025-01-12 12:48:11.59	257.47	9.26	
2025-01-12 12:48:11.79	257.51	9.27	
2025-01-12 12:48:12.00	257.54	9.28	
2025-01-12 12:48:12.22	257.58	9.28	
2025-01-12 12:48:12.42	257.61	9.29	
2025-01-12 12:48:12.63	257.64	9.30	
2025-01-12 12:48:12.83	257.67	9.30	
2025-01-12 12:48:13.04	257.71	9.31	
2025-01-12 12:48:13.26	257.74	9.32	
2025-01-12 12:48:13.46	257.78	9.33	
2025-01-12 12:48:13.67	257.81	9.33	
2025-01-12 12:48:13.87	257.84	9.34	
2025-01-12 12:48:14.08	257.88	9.35	
2025-01-12 12:48:14.28	257.91	9.35	
2025-01-12 12:48:14.49	257.94	9.36	
2025-01-12 12:48:14.69	257.98	9.37	
2025-01-12 12:48:14.90	258.01	9.37	
2025-01-12 12:48:15.11	258.04	9.38	
2025-01-12 12:48:15.32	258.08	9.39	
2025-01-12 12:48:15.53	258.11	9.39	
2025-01-12 12:48:15.73	258.15	9.40	
2025-01-12 12:48:15.94	258.18	9.41	
2025-01-12 12:48:16.14	258.21	9.41	
2025-01-12 12:48:16.35	258.25	9.42	
2025-01-12 12:48:16.55	258.28	9.43	
2025-01-12 12:48:16.76	258.31	9.43	
2025-01-12 12:48:16.97	258.35	9.44	
2025-01-12 12:48:17.17	258.38	9.44	
2025-01-12 12:48:17.38	258.41	9.45	
2025-01-12 12:48:17.58	258.45	9.46	
2025-01-12 12:48:17.79	258.48	9.46	
2025-01-12 12:48:17.99	258.51	9.47	
2025-01-12 12:48:18.20	258.55	9.48	
2025-01-12 12:48:18.40	258.58	9.48	
2025-01-12 12:48:18.61	258.62	9.49	
2025-01-12 12:48:18.81	258.65	9.50	
2025-01-12 12:48:19.02	258.68	9.50	
2025-01-12 12:48:19.22	258.72	9.51	
2025-01-12 12:48:19.43	258.75	9.52	
2025-01-12 12:48:19.63	258.78	9.52	
2025-01-12 12:48:19.83	258.82	9.53	
2025-01-12 12:48:20.04	258.85	9.54	
2025-01-12 12:48:20.25	258.89	9.54	
2025-01-12 12:48:20.45	258.92	9.55	
2025-01-12 12:48:20.66	258.95	9.56	
2025-01-12 12:48:20.86	258.99	9.56	
2025-01-12 12:48:21.07	259.02	9.57	
2025-01-12 12:48:21.27	259.05	9.57	
2025-01-12 12:48:21.48	259.09	9.58	
2025-01-12 12:48:21.68	259.12	9.59	
2025-01-12 12:48:21.89	259.16	9.59	
2025-01-12 12:48:22.09	259.19	9.60	
2025-01-12 12:48:22.30	259.22	9.61	
2025-01-12 12:48:22.51	259.26	9.61	
2025-01-12 12:48:22.71	259.29	9.62	
2025-01-12 12:48:22.91	259.33	9.63	
2025-01-12 12:48:23.12	259.36	9.63	
2025-01-12 12:48:23.33	259.39	9.64	
2025-01-12 12:48:23.53	259.43	9.64	
2025-01-12 12:48:23.74	259.46	9.65	
2025-01-12 12:48:23.94	259.50	9.66	
2025-01-12 12:48:24.15	259.53	9.66	
2025-01-12 12:48:24.36	259.57	9.67	
2025-01-12 12:48:24.56	259.60	9.68	
2025-01-12 12:48:24.76	259.63	9.68	
2025-01-12 12:48:24.98	259.67	9.69	
2025-01-12 12:48:25.19	259.70	9.70	
2025-01-12 12:48:25.39	259.74	9.70	
2025-01-12 12:48:25.60	259.77	9.71	
2025-01-12 12:48:25.80	259.81	9.71	
2025-01-12 12:48:26.00	259.84	9.72	
2025-01-12 12:48:26.21	259.87	9.73	
2025-01-12 12:48:26.41	259.91	9.73	
2025-01-12 12:48:26.62	259.94	9.74	
2025-01-12 12:48:26.83	259.98	9.75	
2025-01-12 12:48:27.04	260.01	9.75	
2025-01-12 12:48:27.25	260.05	9.76	
2025-01-12 12:48:27.45	260.08	9.76	
2025-01-12 12:48:27.66	260.12	9.77	
2025-01-12 12:48:27.86	260.15	9.78	
2025-01-12 12:48:28.07	260.18	9.78	
2025-01-12 12:48:28.27	260.22	9.79	
2025-01-12 12:48:28.48	260.25	9.80	
2025-01-12 12:48:28.68	260.29	9.80	
2025-01-12 12:48:28.89	260.32	9.81	
2025-01-12 12:48:29.09	260.35	9.81	
2025-01-12 12:48:29.30	260.39	9.82	
2025-01-12 12:48:29.50	260.42	9.83	
2025-01-12 12:48:29.71	260.46	9.83	
2025-01-12 12:48:29.91	260.49	9.84	
2025-01-12 12:48:30.12	260.53	9.84	
2025-01-12 12:48:30.32	260.56	9.85	
2025-01-12 12:48:30.53	260.60	9.86	
2025-01-12 12:48:30.73	260.63	9.86	
2025-01-12 12:48:30.94	260.67	9.87	
2025-01-12 12:48:31.15	260.70	9.88	
2025-01-12 12:48:31.35	260.73	9.88	
2025-01-12 12:48:31.56	260.77	9.89	
2025-01-12 12:48:31.76	260.80	9.89	
2025-01-12 12:48:31.97	260.84	9.90	
2025-01-12 12:48:32.17	260.87	9.91	
2025-01-12 12:48:32.38	260.91	9.91	
2025-01-12 12:48:32.58	260.94	9.92	
2025-01-12 12:48:32.79	260.98	9.92	
2025-01-12 12:48:33.00	261.01	9.93	
2025-01-12 12:48:33.20	261.05	9.94	
2025-01-12 12:48:33.40	261.08	9.94	
2025-01-12 12:48:33.61	261.12	9.95	
2025-01-12 12:48:33.81	261.15	9.95	
2025-01-12 12:48:34.03	261.19	9.96	
2025-01-12 12:48:34.24	261.22	9.97	
2025-01-12 12:48:34.44	261.26	9.97	
2025-01-12 12:48:34.64	261.29	9.98	
2025-01-12 12:48:34.85	261.33	9.98	
2025-01-12 12:48:35.06	261.36	9.99	
2025-01-12 12:48:35.26	261.40	10.00	
2025-01-12 12:48:35.47	261.43	10.00	
2025-01-12 12:48:35.67	261.46	10.01	
2025-01-12 12:48:35.88	261.50	10.01	
2025-01-12 12:48:36.08	261.53	10.02	
2025-01-12 12:48:36.29	261.57	10.03	
2025-01-12 12:48:36.49	261.60	10.03	
2025-01-12 12:48:36.70	261.64	10.04	
2025-01-12 12:48:36.90	261.67	10.04	
2025-01-12 12:48:37.11	261.71	10.05	
2025-01-12 12:48:37.31	261.74	10.05	
2025-01-12 12:48:37.52	261.78	10.06	
2025-01-12 12:48:37.74	261.82	10.07	
2025-01-12 12:48:37.94	261.85	10.07	
2025-01-12 12:48:38.15	261.89	10.08	
2025-01-12 12:48:38.36	261.92	10.08	
2025-01-12 12:48:38.56	261.96	10.09	
2025-01-12 12:48:38.76	261.99	10.10	
2025-01-12 12:48:38.97	262.03	10.10	
2025-01-12 12:48:39.17	262.06	10.11	
2025-01-12 12:48:39.38	262.10	10.11	
2025-01-12 12:48:39.58	262.13	10.12	
2025-01-12 12:48:39.79	262.17	10.12	
2025-01-12 12:48:39.99	262.20	10.13	
2025-01-12 12:48:40.20	262.24	10.14	
2025-01-12 12:48:40.40	262.27	10.14	
2025-01-12 12:48:40.60	262.31	10.15	
2025-01-12 12:48:40.81	262.34	10.15	
2025-01-12 12:48:41.01	262.38	10.16	
2025-01-12 12:48:41.22	262.41	10.16	
2025-01-12 12:48:41.43	262.45	10.17	
2025-01-12 12:48:41.63	262.48	10.18	
2025-01-12 12:48:41.84	262.52	10.18	
2025-01-12 12:48:42.04	262.55	10.19	
2025-01-12 12:48:42.25	262.59	10.19	
2025-01-12 12:48:42.45	262.62	10.20	
2025-01-12 12:48:42.66	262.66	10.20	
2025-01-12 12:48:42.87	262.70	10.21	
2025-01-12 12:48:43.07	262.73	10.21	
2025-01-12 12:48:43.28	262.77	10.22	
2025-01-12 12:48:43.48	262.80	10.23	
2025-01-12 12:48:43.68	262.83	10.23	
2025-01-12 12:48:43.89	262.87	10.24	
2025-01-12 12:48:44.09	262.91	10.24	
2025-01-12 12:48:44.30	262.94	10.25	
2025-01-12 12:48:44.50	262.98	10.25	
2025-01-12 12:48:44.71	263.01	10.26	
2025-01-12 12:48:44.91	263.05	10.26	
2025-01-12 12:48:45.12	263.08	10.27	
2025-01-12 12:48:45.33	263.12	10.28	
2025-01-12 12:48:45.54	263.16	10.28	
2025-01-12 12:48:45.75	263.19	10.29	
2025-01-12 12:48:45.95	263.23	10.29	
2025-01-12 12:48:46.16	263.26	10.30	
2025-01-12 12:48:46.36	263.30	10.30	
2025-01-12 12:48:46.57	263.33	10.31	
2025-01-12 12:48:46.77	263.37	10.31	
2025-01-12 12:48:46.98	263.40	10.32	
2025-01-12 12:48:47.18	263.44	10.33	
2025-01-12 12:48:47.39	263.48	10.33	
2025-01-12 12:48:47.59	263.51	10.34	
2025-01-12 12:48:47.80	263.55	10.34	
2025-01-12 12:48:48.00	263.58	10.35	
2025-01-12 12:48:48.21	263.62	10.35	
2025-01-12 12:48:48.41	263.65	10.36	
2025-01-12 12:48:48.62	263.69	10.36	
2025-01-12 12:48:48.82	263.72	10.37	
2025-01-12 12:48:49.03	263.76	10.37	
2025-01-12 12:48:49.24	263.80	10.38	
2025-01-12 12:48:49.44	263.83	10.38	
2025-01-12 12:48:49.64	263.87	10.39	
2025-01-12 12:48:49.85	263.90	10.40	
2025-01-12 12:48:50.06	263.94	10.40	
2025-01-12 12:48:50.26	263.97	10.41	
2025-01-12 12:48:50.47	264.01	10.41	
2025-01-12 12:48:50.67	264.05	10.42	
2025-01-12 12:48:50.88	264.08	10.42	
2025-01-12 12:48:51.08	264.12	10.43	
2025-01-12 12:48:51.29	264.15	10.43	
2025-01-12 12:48:51.49	264.19	10.44	
2025-01-12 12:48:51.70	264.23	10.44	
2025-01-12 12:48:51.90	264.26	10.45	
2025-01-12 12:48:52.11	264.30	10.45	
2025-01-12 12:48:52.31	264.33	10.46	
2025-01-12 12:48:52.52	264.37	10.46	
2025-01-12 12:48:52.74	264.41	10.47	
2025-01-12 12:48:52.94	264.44	10.47	
2025-01-12 12:48:53.15	264.48	10.48	
2025-01-12 12:48:53.35	264.51	10.48	
2025-01-12 12:48:53.56	264.55	10.49	
2025-01-12 12:48:53.76	264.59	10.50	
2025-01-12 12:48:53.97	264.62	10.50	
2025-01-12 12:48:54.17	264.66	10.51	
2025-01-12 12:48:54.38	264.70	10.51	
2025-01-12 12:48:54.58	264.73	10.52	
2025-01-12 12:48:54.79	264.77	10.52	
2025-01-12 12:48:55.00	264.80	10.53	
2025-01-12 12:48:55.20	264.84	10.53	
2025-01-12 12:48:55.41	264.88	10.54	
2025-01-12 12:48:55.61	264.91	10.54	
2025-01-12 12:48:55.82	264.95	10.55	
2025-01-12 12:48:56.02	264.98	10.55	
2025-01-12 12:48:56.23	265.02	10.56	
2025-01-12 12:48:56.43	265.06	10.56	
2025-01-12 12:48:56.64	265.09	10.57	
2025-01-12 12:48:56.84	265.13	10.57	
2025-01-12 12:48:57.05	265.16	10.58	
2025-01-12 12:48:57.25	265.20	10.58	
2025-01-12 12:48:57.46	265.24	10.59	
2025-01-12 12:48:57.67	265.27	10.59	
2025-01-12 12:48:57.87	265.31	10.60	
2025-01-12 12:48:58.08	265.35	10.60	
2025-01-12 12:48:58.28	265.38	10.61	
2025-01-12 12:48:58.49	265.42	10.61	
2025-01-12 12:48:58.70	265.46	10.62	
2025-01-12 12:48:58.90	265.49	10.62	
2025-01-12 12:48:59.10	265.53	10.63	
2025-01-12 12:48:59.31	265.56	10.63	
2025-01-12 12:48:59.51	265.60	10.64	
2025-01-12 12:48:59.71	265.63	10.64	
2025-01-12 12:48:59.92	265.67	10.65	
2025-01-12 12:49:00.12	265.71	10.65	
2025-01-12 12:49:00.33	265.74	10.66	
2025-01-12 12:49:00.53	265.78	10.66	
2025-01-12 12:49:00.74	265.82	10.67	
2025-01-12 12:49:00.95	265.85	10.67	
2025-01-12 12:49:01.15	265.89	10.68	
2025-01-12 12:49:01.36	265.93	10.68	
2025-01-12 12:49:01.56	265.96	10.68	
2025-01-12 12:49:01.77	266.00	10.69	
2025-01-12 12:49:01.97	266.04	10.69	
2025-01-12 12:49:02.17	266.07	10.70	
2025-01-12 12:49:02.39	266.11	10.70	
2025-01-12 12:49:02.60	266.15	10.71	
2025-01-12 12:49:02.80	266.18	10.71	
2025-01-12 12:49:03.01	266.22	10.72	
2025-01-12 12:49:03.21	266.26	10.72	
2025-01-12 12:49:03.42	266.29	10.73	
2025-01-12 12:49:03.62	266.33	10.73	
2025-01-12 12:49:03.83	266.37	10.74	
2025-01-12 12:49:04.03	266.40	10.74	
2025-01-12 12:49:04.24	266.44	10.75	
2025-01-12 12:49:04.44	266.47	10.75	
2025-01-12 12:49:04.65	266.51	10.76	
2025-01-12 12:49:04.85	266.55	10.76	
2025-01-12 12:49:05.06	266.59	10.77	
2025-01-12 12:49:05.26	266.62	10.77	
2025-01-12 12:49:05.47	266.66	10.77	
2025-01-12 12:49:05.67	266.69	10.78	
2025-01-12 12:49:05.88	266.73	10.78	
2025-01-12 12:49:06.08	266.77	10.79	
2025-01-12 12:49:06.29	266.81	10.79	
2025-01-12 12:49:06.49	266.84	10.80	
2025-01-12 12:49:06.70	266.88	10.80	
2025-01-12 12:49:06.90	266.91	10.81	
2025-01-12 12:49:07.11	266.95	10.81	
2025-01-12 12:49:07.31	266.99	10.82	
2025-01-12 12:49:07.52	267.03	10.82	
2025-01-12 12:49:07.72	267.06	10.83	
2025-01-12 12:49:07.93	267.10	10.83	
2025-01-12 12:49:08.13	267.13	10.83	
2025-01-12 12:49:08.34	267.17	10.84	
2025-01-12 12:49:08.54	267.21	10.84	
2025-01-12 12:49:08.75	267.25	10.85	
2025-01-12 12:49:08.96	267.28	10.85	
2025-01-12 12:49:09.16	267.32	10.86	
2025-01-12 12:49:09.37	267.36	10.86	
2025-01-12 12:49:09.57	267.39	10.87	
2025-01-12 12:49:09.78	267.43	10.87	
2025-01-12 12:49:09.98	267.47	10.87	
2025-01-12 12:49:10.19	267.50	10.88	
2025-01-12 12:49:10.39	267.54	10.88	
2025-01-12 12:49:10.60	267.58	10.89	
2025-01-12 12:49:10.80	267.61	10.89	
2025-01-12 12:49:11.01	267.65	10.90	
2025-01-12 12:49:11.21	267.69	10.90	
2025-01-12 12:49:11.42	267.73	10.91	
2025-01-12 12:49:11.62	267.76	10.91	
2025-01-12 12:49:11.83	267.80	10.91	
2025-01-12 12:49:12.03	267.84	10.92	
2025-01-12 12:49:12.24	267.87	10.92	
2025-01-12 12:49:12.44	267.91	10.93	
2025-01-12 12:49:12.65	267.95	10.93	
2025-01-12 12:49:12.85	267.98	10.94	
2025-01-12 12:49:13.06	268.02	10.94	
2025-01-12 12:49:13.26	268.06	10.94	
2025-01-12 12:49:13.47	268.10	10.95	
2025-01-12 12:49:13.68	268.13	10.95	
2025-01-12 12:49:13.88	268.17	10.96	
2025-01-12 12:49:14.08	268.21	10.96	
2025-01-12 12:49:14.29	268.24	10.97	
2025-01-12 12:49:14.50	268.28	10.97	
2025-01-12 12:49:14.70	268.32	10.97	
2025-01-12 12:49:14.90	268.35	10.98	
2025-01-12 12:49:15.11	268.39	10.98	
2025-01-12 12:49:15.31	268.43	10.99	
2025-01-12 12:49:15.52	268.47	10.99	
2025-01-12 12:49:15.72	268.50	10.99	
2025-01-12 12:49:15.93	268.54	11.00	
2025-01-12 12:49:16.14	268.58	11.00	
2025-01-12 12:49:16.34	268.61	11.01	
2025-01-12 12:49:16.54	268.65	11.01	
2025-01-12 12:49:16.75	268.69	11.01	
2025-01-12 12:49:16.95	268.73	11.02	
2025-01-12 12:49:17.16	268.76	11.02	
2025-01-12 12:49:17.36	268.80	11.03	
2025-01-12 12:49:17.57	268.84	11.03	
2025-01-12 12:49:17.77	268.87	11.04	
2025-01-12 12:49:17.98	268.91	11.04	
2025-01-12 12:49:18.18	268.95	11.04	
2025-01-12 12:49:18.39	268.99	11.05	
2025-01-12 12:49:18.59	269.02	11.05	
2025-01-12 12:49:18.80	269.06	11.06	
2025-01-12 12:49:19.00	269.10	11.06	
2025-01-12 12:49:19.21	269.14	11.06	
2025-01-12 12:49:19.41	269.17	11.07	
2025-01-12 12:49:19.62	269.21	11.07	
2025-01-12 12:49:19.82	269.25	11.08	
2025-01-12 12:49:20.03	269.28	11.08	
2025-01-12 12:49:20.23	269.32	11.08	
2025-01-12 12:49:20.44	269.36	11.09	
2025-01-12 12:49:20.64	269.40	11.09	
2025-01-12 12:49:20.85	269.43	11.09	
2025-01-12 12:49:21.05	269.47	11.10	
2025-01-12 12:49:21.26	269.51	11.10	
2025-01-12 12:49:21.46	269.55	11.11	
2025-01-12 12:49:21.67	269.58	11.11	
2025-01-12 12:49:21.87	269.62	11.11	
2025-01-12 12:49:22.08	269.66	11.12	
2025-01-12 12:49:22.29	269.70	11.12	
2025-01-12 12:49:22.49	269.73	11.13	
2025-01-12 12:49:22.71	269.77	11.13	
2025-01-12 12:49:22.91	269.81	11.13	
2025-01-12 12:49:23.12	269.85	11.14	
2025-01-12 12:49:23.32	269.89	11.14	
2025-01-12 12:49:23.53	269.92	11.14	
2025-01-12 12:49:23.73	269.96	11.15	
2025-01-12 12:49:23.94	270.00	11.15	
2025-01-12 12:49:24.14	270.04	11.16	
2025-01-12 12:49:24.35	270.07	11.16	
2025-01-12 12:49:24.56	270.11	11.16	
2025-01-12 12:49:24.76	270.15	11.17	
2025-01-12 12:49:24.97	270.19	11.17	
2025-01-12 12:49:25.17	270.22	11.17	
2025-01-12 12:49:25.38	270.26	11.18	
2025-01-12 12:49:25.58	270.30	11.18	
2025-01-12 12:49:25.79	270.34	11.19	
2025-01-12 12:49:25.99	270.37	11.19	
2025-01-12 12:49:26.20	270.41	11.19	
2025-01-12 12:49:26.41	270.45	11.20	
2025-01-12 12:49:26.61	270.49	11.20	
2025-01-12 12:49:26.82	270.53	11.20	
2025-01-12 12:49:27.02	270.56	11.21	
2025-01-12 12:49:27.22	270.60	11.21	
2025-01-12 12:49:27.43	270.64	11.21	
2025-01-12 12:49:27.63	270.68	11.22	
2025-01-12 12:49:27.84	270.71	11.22	
2025-01-12 12:49:28.06	270.75	11.23	
2025-01-12 12:49:28.26	270.79	11.23	
2025-01-12 12:49:28.47	270.83	11.23	
2025-01-12 12:49:28.68	270.87	11.24	
2025-01-12 12:49:28.88	270.91	11.24	
2025-01-12 12:49:29.09	270.94	11.24	
2025-01-12 12:49:29.29	270.98	11.25	
2025-01-12 12:49:29.50	271.02	11.25	
2025-01-12 12:49:29.70	271.06	11.25	
2025-01-12 12:49:29.91	271.09	11.26	
2025-01-12 12:49:30.11	271.13	11.26	
2025-01-12 12:49:30.32	271.17	11.26	
2025-01-12 12:49:30.53	271.21	11.27	
2025-01-12 12:49:30.73	271.25	11.27	
2025-01-12 12:49:30.94	271.28	11.27	
2025-01-12 12:49:31.15	271.32	11.28	
2025-01-12 12:49:31.36	271.36	11.28	
2025-01-12 12:49:31.57	271.40	11.28	
2025-01-12 12:49:31.77	271.44	11.29	
2025-01-12 12:49:31.98	271.48	11.29	
2025-01-12 12:49:32.18	271.51	11.29	
2025-01-12 12:49:32.38	271.55	11.30	
2025-01-12 12:49:32.59	271.59	11.30	
2025-01-12 12:49:32.79	271.63	11.30	
2025-01-12 12:49:33.00	271.67	11.31	
2025-01-12 12:49:33.20	271.70	11.31	
2025-01-12 12:49:33.41	271.74	11.31	
2025-01-12 12:49:33.61	271.78	11.32	
2025-01-12 12:49:33.81	271.82	11.32	
2025-01-12 12:49:34.02	271.85	11.32	
2025-01-12 12:49:34.22	271.89	11.33	
2025-01-12 12:49:34.44	271.93	11.33	
2025-01-12 12:49:34.65	271.97	11.33	
2025-01-12 12:49:34.86	272.01	11.34	
2025-01-12 12:49:35.06	272.05	11.34	
2025-01-12 12:49:35.27	272.09	11.34	
2025-01-12 12:49:35.47	272.12	11.35	
2025-01-12 12:49:35.67	272.16	11.35	
2025-01-12 12:49:35.88	272.20	11.35	
2025-01-12 12:49:36.08	272.24	11.35	
2025-01-12 12:49:36.29	272.27	11.36	
2025-01-12 12:49:36.49	272.31	11.36	
2025-01-12 12:49:36.70	272.35	11.36	
2025-01-12 12:49:36.91	272.39	11.37	
2025-01-12 12:49:37.11	272.43	11.37	
2025-01-12 12:49:37.32	272.47	11.37	
2025-01-12 12:49:37.52	272.50	11.38	
2025-01-12 12:49:37.72	272.54	11.38	
2025-01-12 12:49:37.93	272.58	11.38	
2025-01-12 12:49:38.13	272.62	11.39	
2025-01-12 12:49:38.34	272.65	11.39	
2025-01-12 12:49:38.54	272.69	11.39	
2025-01-12 12:49:38.76	272.73	11.39	
2025-01-12 12:49:38.97	272.77	11.40	
2025-01-12 12:49:39.18	272.81	11.40	
2025-01-12 12:49:39.38	272.85	11.40	
2025-01-12 12:49:39.59	272.89	11.41	
2025-01-12 12:49:39.79	272.92	11.41	
2025-01-12 12:49:39.99	272.96	11.41	
2025-01-12 12:49:40.20	273.00	11.42	
2025-01-12 12:49:40.40	273.04	11.42	
2025-01-12 12:49:40.61	273.08	11.42	
2025-01-12 12:49:40.81	273.11	11.42	
2025-01-12 12:49:41.02	273.15	11.43	
2025-01-12 12:49:41.22	273.19	11.43	
2025-01-12 12:49:41.43	273.23	11.43	
2025-01-12 12:49:41.64	273.27	11.44	
2025-01-12 12:49:41.84	273.31	11.44	
2025-01-12 12:49:42.05	273.35	11.44	
2025-01-12 12:49:42.25	273.38	11.44	
2025-01-12 12:49:42.46	273.42	11.45	
2025-01-12 12:49:42.66	273.46	11.45	
2025-01-12 12:49:42.87	273.50	11.45	
2025-01-12 12:49:43.07	273.54	11.45	
2025-01-12 12:49:43.28	273.58	11.46	
2025-01-12 12:49:43.48	273.61	11.46	
2025-01-12 12:49:43.69	273.65	11.46	
2025-01-12 12:49:43.89	273.69	11.47	
2025-01-12 12:49:44.10	273.73	11.47	
2025-01-12 12:49:44.30	273.77	11.47	
2025-01-12 12:49:44.51	273.80	11.47	
2025-01-12 12:49:44.71	273.84	11.48	
2025-01-12 12:49:44.92	273.88	11.48	
2025-01-12 12:49:45.13	273.92	11.48	
2025-01-12 12:49:45.34	273.96	11.48	
2025-01-12 12:49:45.54	274.00	11.49	
2025-01-12 12:49:45.75	274.04	11.49	
2025-01-12 12:49:45.95	274.07	11.49	
2025-01-12 12:49:46.16	274.11	11.49	
2025-01-12 12:49:46.36	274.15	11.50	
2025-01-12 12:49:46.57	274.19	11.50	
2025-01-12 12:49:46.77	274.23	11.50	
2025-01-12 12:49:46.98	274.27	11.50	
2025-01-12 12:49:47.18	274.30	11.51	
2025-01-12 12:49:47.39	274.34	11.51	
2025-01-12 12:49:47.59	274.38	11.51	
2025-01-12 12:49:47.80	274.42	11.51	
2025-01-12 12:49:48.01	274.46	11.52	
2025-01-12 12:49:48.21	274.50	11.52	
2025-01-12 12:49:48.42	274.54	11.52	
2025-01-12 12:49:48.62	274.57	11.52	
2025-01-12 12:49:48.83	274.61	11.53	
2025-01-12 12:49:49.03	274.65	11.53	
2025-01-12 12:49:49.24	274.69	11.53	
2025-01-12 12:49:49.44	274.73	11.53	
2025-01-12 12:49:49.65	274.77	11.54	
2025-01-12 12:49:49.85	274.80	11.54	
2025-01-12 12:49:50.06	274.84	11.54	
2025-01-12 12:49:50.26	274.88	11.54	
2025-01-12 12:49:50.46	274.92	11.55	
2025-01-12 12:49:50.67	274.96	11.55	
2025-01-12 12:49:50.87	275.00	11.55	
2025-01-12 12:49:51.08	275.04	11.55	
2025-01-12 12:49:51.28	275.07	11.55	
2025-01-12 12:49:51.50	275.11	11.56	
2025-01-12 12:49:51.71	275.15	11.56	
2025-01-12 12:49:51.91	275.19	11.56	
2025-01-12 12:49:52.12	275.23	11.56	
2025-01-12 12:49:52.33	275.27	11.57	
2025-01-12 12:49:52.53	275.31	11.57	
2025-01-12 12:49:52.73	275.35	11.57	
2025-01-12 12:49:52.94	275.39	11.57	
2025-01-12 12:49:53.14	275.42	11.58	
2025-01-12 12:49:53.35	275.46	11.58	
2025-01-12 12:49:53.55	275.50	11.58	
2025-01-12 12:49:53.76	275.54	11.58	
2025-01-12 12:49:53.97	275.58	11.58	
2025-01-12 12:49:54.17	275.62	11.59	
2025-01-12 12:49:54.38	275.66	11.59	
2025-01-12 12:49:54.58	275.69	11.59	
2025-01-12 12:49:54.79	275.73	11.59	
2025-01-12 12:49:54.99	275.77	11.59	
2025-01-12 12:49:55.20	275.81	11.60	
2025-01-12 12:49:55.40	275.85	11.60	
2025-01-12 12:49:55.61	275.89	11.60	
2025-01-12 12:49:55.83	275.93	11.60	
2025-01-12 12:49:56.03	275.97	11.60	
2025-01-12 12:49:56.23	276.00	11.61	
2025-01-12 12:49:56.44	276.04	11.61	
2025-01-12 12:49:56.64	276.08	11.61	
2025-01-12 12:49:56.86	276.12	11.61	
2025-01-12 12:49:57.07	276.16	11.61	
2025-01-12 12:49:57.27	276.20	11.62	
2025-01-12 12:49:57.48	276.24	11.62	
2025-01-12 12:49:57.68	276.28	11.62	
2025-01-12 12:49:57.90	276.32	11.62	
2025-01-12 12:49:58.11	276.36	11.62	
2025-01-12 12:49:58.31	276.40	11.63	
2025-01-12 12:49:58.52	276.44	11.63	
2025-01-12 12:49:58.72	276.47	11.63	
2025-01-12 12:49:58.93	276.51	11.63	
2025-01-12 12:49:59.13	276.55	11.63	
2025-01-12 12:49:59.34	276.59	11.64	
2025-01-12 12:49:59.54	276.63	11.64	
2025-01-12 12:49:59.75	276.67	11.64	
2025-01-12 12:49:59.95	276.71	11.64	
2025-01-12 12:50:00.15	276.74	11.64	
2025-01-12 12:50:00.36	276.78	11.64	
2025-01-12 12:50:00.56	276.82	11.65	
2025-01-12 12:50:00.77	276.86	11.65	
2025-01-12 12:50:00.97	276.90	11.65	
2025-01-12 12:50:01.18	276.94	11.65	
2025-01-12 12:50:01.38	276.98	11.65	
2025-01-12 12:50:01.59	277.02	11.66	
2025-01-12 12:50:01.79	277.05	11.66	
2025-01-12 12:50:02.00	277.09	11.66	
2025-01-12 12:50:02.20	277.13	11.66	
2025-01-12 12:50:02.41	277.17	11.66	
2025-01-12 12:50:02.61	277.21	11.66	
2025-01-12 12:50:02.82	277.25	11.67	
2025-01-12 12:50:03.02	277.29	11.67	
2025-01-12 12:50:03.24	277.33	11.67	
2025-01-12 12:50:03.44	277.37	11.67	
2025-01-12 12:50:03.65	277.41	11.67	
2025-01-12 12:50:03.85	277.44	11.67	
2025-01-12 12:50:04.06	277.48	11.67	
2025-01-12 12:50:04.28	277.53	11.68	
2025-01-12 12:50:04.48	277.56	11.68	
2025-01-12 12:50:04.69	277.60	11.68	
2025-01-12 12:50:04.89	277.64	11.68	
2025-01-12 12:50:05.10	277.68	11.68	
2025-01-12 12:50:05.30	277.72	11.68	
2025-01-12 12:50:05.51	277.76	11.69	
2025-01-12 12:50:05.71	277.80	11.69	
2025-01-12 12:50:05.92	277.84	11.69	
2025-01-12 12:50:06.12	277.87	11.69	
2025-01-12 12:50:06.33	277.91	11.69	
2025-01-12 12:50:06.54	277.95	11.69	
2025-01-12 12:50:06.74	277.99	11.69	
2025-01-12 12:50:06.95	278.03	11.70	
2025-01-12 12:50:07.15	278.07	11.70	
2025-01-12 12:50:07.36	278.11	11.70	
2025-01-12 12:50:07.57	278.15	11.70	
2025-01-12 12:50:07.77	278.19	11.70	
2025-01-12 12:50:07.98	278.23	11.70	
2025-01-12 12:50:08.18	278.26	11.70	
2025-01-12 12:50:08.39	278.30	11.71	
2025-01-12 12:50:08.59	278.34	11.71	
2025-01-12 12:50:08.80	278.38	11.71	
2025-01-12 12:50:09.00	278.42	11.71	
2025-01-12 12:50:09.21	278.46	11.71	
2025-01-12 12:50:09.41	278.50	11.71	
2025-01-12 12:50:09.62	278.54	11.71	
2025-01-12 12:50:09.82	278.58	11.71	
2025-01-12 12:50:10.03	278.61	11.72	
2025-01-12 12:50:10.24	278.65	11.72	
2025-01-12 12:50:10.44	278.69	11.72	
2025-01-12 12:50:10.65	278.73	11.72	
2025-01-12 12:50:10.85	278.77	11.72	
2025-01-12 12:50:11.06	278.81	11.72	
2025-01-12 12:50:11.26	278.85	11.72	
2025-01-12 12:50:11.47	278.89	11.72	
2025-01-12 12:50:11.67	278.93	11.73	
2025-01-12 12:50:11.87	278.96	11.73	
2025-01-12 12:50:12.08	279.00	11.73	
2025-01-12 12:50:12.28	279.04	11.73	
2025-01-12 12:50:12.49	279.08	11.73	
2025-01-12 12:50:12.69	279.12	11.73	
2025-01-12 12:50:12.90	279.16	11.73	
2025-01-12 12:50:13.10	279.20	11.73	
2025-01-12 12:50:13.31	279.24	11.73	
2025-01-12 12:50:13.52	279.28	11.73	
2025-01-12 12:50:13.72	279.32	11.74	
2025-01-12 12:50:13.92	279.35	11.74	
2025-01-12 12:50:14.14	279.40	11.74	
2025-01-12 12:50:14.35	279.44	11.74	
2025-01-12 12:50:14.55	279.47	11.74	
2025-01-12 12:50:14.76	279.51	11.74	
2025-01-12 12:50:14.98	279.56	11.74	
2025-01-12 12:50:15.18	279.59	11.74	
2025-01-12 12:50:15.39	279.63	11.74	
2025-01-12 12:50:15.59	279.67	11.74	
2025-01-12 12:50:15.80	279.71	11.75	
2025-01-12 12:50:16.00	279.75	11.75	
2025-01-12 12:50:16.21	279.79	11.75	
2025-01-12 12:50:16.41	279.83	11.75	
2025-01-12 12:50:16.62	279.87	11.75	
2025-01-12 12:50:16.83	279.91	11.75	
2025-01-12 12:50:17.03	279.94	11.75	
2025-01-12 12:50:17.23	279.98	11.75	
2025-01-12 12:50:17.44	280.02	11.75	
2025-01-12 12:50:17.64	280.06	11.75	
2025-01-12 12:50:17.85	280.10	11.75	
2025-01-12 12:50:18.05	280.14	11.75	
2025-01-12 12:50:18.26	280.18	11.76	
2025-01-12 12:50:18.46	280.22	11.76	
2025-01-12 12:50:18.67	280.26	11.76	
2025-01-12 12:50:18.88	280.30	11.76	
2025-01-12 12:50:19.08	280.33	11.76	
2025-01-12 12:50:19.28	280.37	11.76	
2025-01-12 12:50:19.49	280.41	11.76	
2025-01-12 12:50:19.70	280.45	11.76	
2025-01-12 12:50:19.90	280.49	11.76	
2025-01-12 12:50:20.11	280.53	11.76	
2025-01-12 12:50:20.32	280.57	11.76	
2025-01-12 12:50:20.53	280.61	11.76	
2025-01-12 12:50:20.73	280.65	11.76	
2025-01-12 12:50:20.94	280.69	11.76	
2025-01-12 12:50:21.14	280.73	11.76	
2025-01-12 12:50:21.34	280.76	11.77	
2025-01-12 12:50:21.55	280.80	11.77	
2025-01-12 12:50:21.76	280.84	11.77	
2025-01-12 12:50:21.96	280.88	11.77	
2025-01-12 12:50:22.17	280.92	11.77	
2025-01-12 12:50:22.37	280.96	11.77	
2025-01-12 12:50:22.58	281.00	11.77	
2025-01-12 12:50:22.79	281.04	11.77	
2025-01-12 12:50:22.99	281.08	11.77	
2025-01-12 12:50:23.20	281.12	11.77	
2025-01-12 12:50:23.40	281.16	11.77	
2025-01-12 12:50:23.60	281.20	11.77	
2025-01-12 12:50:23.81	281.24	11.77	
2025-01-12 12:50:24.02	281.28	11.77	
2025-01-12 12:50:24.22	281.31	11.77	
2025-01-12 12:50:24.43	281.35	11.77	
2025-01-12 12:50:24.63	281.39	11.77	
2025-01-12 12:50:24.84	281.43	11.77	
2025-01-12 12:50:25.04	281.47	11.77	
2025-01-12 12:50:25.25	281.51	11.77	
2025-01-12 12:50:25.45	281.55	11.77	
2025-01-12 12:50:25.66	281.59	11.77	
2025-01-12 12:50:25.86	281.63	11.77	
2025-01-12 12:50:26.07	281.67	11.78	
2025-01-12 12:50:26.27	281.70	11.78	
2025-01-12 12:50:26.48	281.74	11.78	
2025-01-12 12:50:26.68	281.78	11.78	
2025-01-12 12:50:26.88	281.82	11.78	
2025-01-12 12:50:27.09	281.86	11.78	
2025-01-12 12:50:27.29	281.90	11.78	
2025-01-12 12:50:27.50	281.94	11.78	
2025-01-12 12:50:27.70	281.98	11.78	
2025-01-12 12:50:27.91	282.02	11.78	
2025-01-12 12:50:28.11	282.05	11.78	
2025-01-12 12:50:28.32	282.09	11.78	
2025-01-12 12:50:28.52	282.13	11.78	
2025-01-12 12:50:28.73	282.17	11.78	
2025-01-12 12:50:28.93	282.21	11.78	
2025-01-12 12:50:29.14	282.25	11.78	
2025-01-12 12:50:29.34	282.29	11.78	
2025-01-12 12:50:29.55	282.33	11.78	
2025-01-12 12:50:29.75	282.37	11.78	
2025-01-12 12:50:29.96	282.41	11.78	
2025-01-12 12:50:30.16	282.44	11.78	
2025-01-12 12:50:30.37	282.48	11.78	
2025-01-12 12:50:30.57	282.52	11.78	
2025-01-12 12:50:30.78	282.56	11.78	
2025-01-12 12:50:31.00	282.60	11.78	
2025-01-12 12:50:31.20	282.64	11.78	
2025-01-12 12:50:31.41	282.68	11.78	
2025-01-12 12:50:31.61	282.72	11.78	
2025-01-12 12:50:31.82	282.76	11.78	
2025-01-12 12:50:32.02	282.80	11.78	
2025-01-12 12:50:32.23	282.84	11.78	
2025-01-12 12:50:32.43	282.88	11.78	
2025-01-12 12:50:32.64	282.92	11.78	
2025-01-12 12:50:32.84	282.95	11.78	
2025-01-12 12:50:33.06	283.00	11.78	
2025-01-12 12:50:33.27	283.04	11.78	
2025-01-12 12:50:33.47	283.07	11.78	
2025-01-12 12:50:33.69	283.12	11.78	
2025-01-12 12:50:33.89	283.15	11.78	
2025-01-12 12:50:34.10	283.19	11.78	
2025-01-12 12:50:34.30	283.23	11.78	
2025-01-12 12:50:34.51	283.27	11.78	
2025-01-12 12:50:34.71	283.31	11.78	
2025-01-12 12:50:34.92	283.35	11.78	
2025-01-12 12:50:35.12	283.39	11.78	
2025-01-12 12:50:35.33	283.43	11.78	
2025-01-12 12:50:35.53	283.47	11.78	
2025-01-12 12:50:35.74	283.51	11.78	
2025-01-12 12:50:35.95	283.55	11.78	
2025-01-12 12:50:36.15	283.59	11.78	
2025-01-12 12:50:36.35	283.62	11.78	
2025-01-12 12:50:36.56	283.66	11.77	
2025-01-12 12:50:36.77	283.70	11.77	
2025-01-12 12:50:36.97	283.74	11.77	
2025-01-12 12:50:37.18	283.78	11.77	
2025-01-12 12:50:37.38	283.82	11.77	
2025-01-12 12:50:37.59	283.86	11.77	
2025-01-12 12:50:37.79	283.90	11.77	
2025-01-12 12:50:38.00	283.94	11.77	
2025-01-12 12:50:38.20	283.98	11.77	
2025-01-12 12:50:38.41	284.02	11.77	
2025-01-12 12:50:38.61	284.05	11.77	
2025-01-12 12:50:38.82	284.09	11.77	
2025-01-12 12:50:39.02	284.13	11.77	
2025-01-12 12:50:39.23	284.17	11.77	
2025-01-12 12:50:39.43	284.21	11.77	
2025-01-12 12:50:39.64	284.25	11.77	
2025-01-12 12:50:39.84	284.29	11.77	
2025-01-12 12:50:40.05	284.33	11.77	
2025-01-12 12:50:40.26	284.37	11.77	
2025-01-12 12:50:40.46	284.41	11.77	
2025-01-12 12:50:40.66	284.44	11.77	
2025-01-12 12:50:40.87	284.48	11.77	
2025-01-12 12:50:41.07	284.52	11.77	
2025-01-12 12:50:41.28	284.56	11.76	
2025-01-12 12:50:41.48	284.60	11.76	
2025-01-12 12:50:41.69	284.64	11.76	
2025-01-12 12:50:41.89	284.68	11.76	
2025-01-12 12:50:42.09	284.72	11.76	
2025-01-12 12:50:42.30	284.76	11.76	
2025-01-12 12:50:42.51	284.80	11.76	
2025-01-12 12:50:42.71	284.83	11.76	
2025-01-12 12:50:42.92	284.87	11.76	
2025-01-12 12:50:43.12	284.91	11.76	
2025-01-12 12:50:43.33	284.95	11.76	
2025-01-12 12:50:43.53	284.99	11.76	
2025-01-12 12:50:43.73	285.03	11.76	
2025-01-12 12:50:43.94	285.07	11.76	
2025-01-12 12:50:44.14	285.11	11.76	
2025-01-12 12:50:44.35	285.15	11.75	
2025-01-12 12:50:44.55	285.18	11.75	
2025-01-12 12:50:44.76	285.22	11.75	
2025-01-12 12:50:44.96	285.26	11.75	
2025-01-12 12:50:45.17	285.30	11.75	
2025-01-12 12:50:45.37	285.34	11.75	
2025-01-12 12:50:45.58	285.38	11.75	
2025-01-12 12:50:45.78	285.42	11.75	
2025-01-12 12:50:45.99	285.46	11.75	
2025-01-12 12:50:46.20	285.50	11.75	
2025-01-12 12:50:46.40	285.54	11.75	
2025-01-12 12:50:46.61	285.58	11.75	
2025-01-12 12:50:46.81	285.61	11.74	
2025-01-12 12:50:47.02	285.65	11.74	
2025-01-12 12:50:47.22	285.69	11.74	
2025-01-12 12:50:47.43	285.73	11.74	
2025-01-12 12:50:47.63	285.77	11.74	
2025-01-12 12:50:47.84	285.81	11.74	
2025-01-12 12:50:48.04	285.85	11.74	
2025-01-12 12:50:48.25	285.89	11.74	
2025-01-12 12:50:48.46	285.93	11.74	
2025-01-12 12:50:48.66	285.96	11.74	
2025-01-12 12:50:48.87	286.00	11.73	
2025-01-12 12:50:49.08	286.04	11.73	
2025-01-12 12:50:49.29	286.08	11.73	
2025-01-12 12:50:49.49	286.12	11.73	
2025-01-12 12:50:49.70	286.16	11.73	
2025-01-12 12:50:49.90	286.20	11.73	
2025-01-12 12:50:50.11	286.24	11.73	
2025-01-12 12:50:50.31	286.28	11.73	
2025-01-12 12:50:50.52	286.32	11.73	
2025-01-12 12:50:50.73	286.36	11.72	
2025-01-12 12:50:50.93	286.40	11.72	
2025-01-12 12:50:51.14	286.44	11.72	
2025-01-12 12:50:51.34	286.47	11.72	
2025-01-12 12:50:51.54	286.51	11.72	
2025-01-12 12:50:51.75	286.55	11.72	
2025-01-12 12:50:51.95	286.59	11.72	
2025-01-12 12:50:52.16	286.63	11.72	
2025-01-12 12:50:52.36	286.67	11.72	
2025-01-12 12:50:52.57	286.71	11.71	
2025-01-12 12:50:52.77	286.74	11.71	
2025-01-12 12:50:52.98	286.78	11.71	
2025-01-12 12:50:53.18	286.82	11.71	
2025-01-12 12:50:53.38	286.86	11.71	
2025-01-12 12:50:53.59	286.90	11.71	
2025-01-12 12:50:53.79	286.94	11.71	
2025-01-12 12:50:54.00	286.98	11.71	
2025-01-12 12:50:54.20	287.02	11.70	
2025-01-12 12:50:54.41	287.05	11.70	
2025-01-12 12:50:54.61	287.09	11.70	
2025-01-12 12:50:54.82	287.13	11.70	
2025-01-12 12:50:55.02	287.17	11.70	
2025-01-12 12:50:55.23	287.21	11.70	
2025-01-12 12:50:55.43	287.25	11.70	
2025-01-12 12:50:55.64	287.29	11.69	
2025-01-12 12:50:55.84	287.33	11.69	
2025-01-12 12:50:56.05	287.37	11.69	
2025-01-12 12:50:56.26	287.41	11.69	
2025-01-12 12:50:56.47	287.44	11.69	
2025-01-12 12:50:56.68	287.48	11.69	
2025-01-12 12:50:56.88	287.52	11.69	
2025-01-12 12:50:57.09	287.56	11.68	
2025-01-12 12:50:57.29	287.60	11.68	
2025-01-12 12:50:57.51	287.64	11.68	
2025-01-12 12:50:57.72	287.68	11.68	
2025-01-12 12:50:57.92	287.72	11.68	
2025-01-12 12:50:58.13	287.76	11.68	
2025-01-12 12:50:58.33	287.80	11.67	
2025-01-12 12:50:58.54	287.84	11.67	
2025-01-12 12:50:58.74	287.87	11.67	
2025-01-12 12:50:58.95	287.91	11.67	
2025-01-12 12:50:59.15	287.95	11.67	
2025-01-12 12:50:59.36	287.99	11.67	
2025-01-12 12:50:59.56	288.03	11.67	
2025-01-12 12:50:59.76	288.07	11.66	
2025-01-12 12:50:59.97	288.11	11.66	
2025-01-12 12:51:00.17	288.14	11.66	
2025-01-12 12:51:00.38	288.18	11.66	
2025-01-12 12:51:00.58	288.22	11.66	
2025-01-12 12:51:00.79	288.26	11.66	
2025-01-12 12:51:00.99	288.30	11.65	
2025-01-12 12:51:01.20	288.34	11.65	
2025-01-12 12:51:01.41	288.38	11.65	
2025-01-12 12:51:01.62	288.42	11.65	
2025-01-12 12:51:01.82	288.46	11.65	
2025-01-12 12:51:02.02	288.49	11.64	
2025-01-12 12:51:02.23	288.53	11.64	
2025-01-12 12:51:02.43	288.57	11.64	
2025-01-12 12:51:02.64	288.61	11.64	
2025-01-12 12:51:02.84	288.65	11.64	
2025-01-12 12:51:03.05	288.69	11.64	
2025-01-12 12:51:03.25	288.73	11.63	
2025-01-12 12:51:03.46	288.77	11.63	
2025-01-12 12:51:03.66	288.80	11.63	
2025-01-12 12:51:03.87	288.84	11.63	
2025-01-12 12:51:04.07	288.88	11.63	
2025-01-12 12:51:04.28	288.92	11.62	
2025-01-12 12:51:04.48	288.96	11.62	
2025-01-12 12:51:04.69	289.00	11.62	
2025-01-12 12:51:04.89	289.03	11.62	
2025-01-12 12:51:05.10	289.07	11.62	
2025-01-12 12:51:05.30	289.11	11.62	
2025-01-12 12:51:05.50	289.15	11.61	
2025-01-12 12:51:05.71	289.19	11.61	
2025-01-12 12:51:05.92	289.23	11.61	
2025-01-12 12:51:06.13	289.27	11.61	
2025-01-12 12:51:06.34	289.31	11.60	
2025-01-12 12:51:06.55	289.35	11.60	
2025-01-12 12:51:06.75	289.38	11.60	
2025-01-12 12:51:06.95	289.42	11.60	
2025-01-12 12:51:07.16	289.46	11.60	
2025-01-12 12:51:07.36	289.50	11.59	
2025-01-12 12:51:07.57	289.54	11.59	
2025-01-12 12:51:07.78	289.58	11.59	
2025-01-12 12:51:07.98	289.62	11.59	
2025-01-12 12:51:08.19	289.66	11.59	
2025-01-12 12:51:08.39	289.69	11.58	
2025-01-12 12:51:08.60	289.73	11.58	
2025-01-12 12:51:08.80	289.77	11.58	
2025-01-12 12:51:09.01	289.81	11.58	
2025-01-12 12:51:09.21	289.85	11.58	
2025-01-12 12:51:09.42	289.89	11.57	
2025-01-12 12:51:09.62	289.92	11.57	
2025-01-12 12:51:09.83	289.96	11.57	
2025-01-12 12:51:10.03	290.00	11.57	
2025-01-12 12:51:10.24	290.04	11.56	
2025-01-12 12:51:10.44	290.08	11.56	
2025-01-12 12:51:10.65	290.12	11.56	
2025-01-12 12:51:10.85	290.15	11.56	
2025-01-12 12:51:11.06	290.19	11.56	
2025-01-12 12:51:11.27	290.23	11.55	
2025-01-12 12:51:11.47	290.27	11.55	
2025-01-12 12:51:11.67	290.31	11.55	
2025-01-12 12:51:11.88	290.35	11.55	
2025-01-12 12:51:12.08	290.39	11.54	
2025-01-12 12:51:12.29	290.42	11.54	
2025-01-12 12:51:12.49	290.46	11.54	
2025-01-12 12:51:12.70	290.50	11.54	
2025-01-12 12:51:12.90	290.54	11.53	
2025-01-12 12:51:13.11	290.58	11.53	
2025-01-12 12:51:13.31	290.62	11.53	
2025-01-12 12:51:13.52	290.65	11.53	
2025-01-12 12:51:13.72	290.69	11.53	
2025-01-12 12:51:13.93	290.73	11.52	
2025-01-12 12:51:14.13	290.77	11.52	
2025-01-12 12:51:14.34	290.81	11.52	
2025-01-12 12:51:14.54	290.85	11.52	
2025-01-12 12:51:14.75	290.89	11.51	
2025-01-12 12:51:14.95	290.92	11.51	
2025-01-12 12:51:15.16	290.96	11.51	
2025-01-12 12:51:15.36	291.00	11.51	
2025-01-12 12:51:15.57	291.04	11.50	
2025-01-12 12:51:15.77	291.08	11.50	
2025-01-12 12:51:15.98	291.11	11.50	
2025-01-12 12:51:16.18	291.15	11.50	
2025-01-12 12:51:16.39	291.19	11.49	
2025-01-12 12:51:16.59	291.23	11.49	
2025-01-12 12:51:16.80	291.27	11.49	
2025-01-12 12:51:17.00	291.31	11.48	
2025-01-12 12:51:17.21	291.34	11.48	
2025-01-12 12:51:17.41	291.38	11.48	
2025-01-12 12:51:17.62	291.42	11.48	
2025-01-12 12:51:17.82	291.46	11.47	
2025-01-12 12:51:18.02	291.50	11.47	
2025-01-12 12:51:18.23	291.53	11.47	
2025-01-12 12:51:18.44	291.57	11.47	
2025-01-12 12:51:18.64	291.61	11.46	
2025-01-12 12:51:18.84	291.65	11.46	
2025-01-12 12:51:19.05	291.69	11.46	
2025-01-12 12:51:19.26	291.73	11.46	
2025-01-12 12:51:19.46	291.76	11.45	
2025-01-12 12:51:19.67	291.80	11.45	
2025-01-12 12:51:19.87	291.84	11.45	
2025-01-12 12:51:20.09	291.88	11.44	
2025-01-12 12:51:20.29	291.92	11.44	
2025-01-12 12:51:20.50	291.96	11.44	
2025-01-12 12:51:20.71	292.00	11.44	
2025-01-12 12:51:20.91	292.03	11.43	
2025-01-12 12:51:21.11	292.07	11.43	
2025-01-12 12:51:21.32	292.11	11.43	
2025-01-12 12:51:21.52	292.15	11.42	
2025-01-12 12:51:21.73	292.19	11.42	
2025-01-12 12:51:21.94	292.23	11.42	
2025-01-12 12:51:22.14	292.26	11.42	
2025-01-12 12:51:22.35	292.30	11.41	
2025-01-12 12:51:22.55	292.34	11.41	
2025-01-12 12:51:22.76	292.38	11.41	
2025-01-12 12:51:22.96	292.41	11.40	
2025-01-12 12:51:23.16	292.45	11.40	
2025-01-12 12:51:23.37	292.49	11.40	
2025-01-12 12:51:23.57	292.53	11.40	
2025-01-12 12:51:23.78	292.57	11.39	
2025-01-12 12:51:23.98	292.60	11.39	
2025-01-12 12:51:24.19	292.64	11.39	
2025-01-12 12:51:24.39	292.68	11.38	
2025-01-12 12:51:24.59	292.72	11.38	
2025-01-12 12:51:24.80	292.76	11.38	
2025-01-12 12:51:25.00	292.79	11.38	
2025-01-12 12:51:25.21	292.83	11.37	
2025-01-12 12:51:25.41	292.87	11.37	
2025-01-12 12:51:25.62	292.91	11.37	
2025-01-12 12:51:25.83	292.95	11.36	
2025-01-12 12:51:26.03	292.98	11.36	
2025-01-12 12:51:26.24	293.02	11.36	
2025-01-12 12:51:26.44	293.06	11.35	
2025-01-12 12:51:26.64	293.10	11.35	
2025-01-12 12:51:26.85	293.14	11.35	
2025-01-12 12:51:27.06	293.17	11.34	
2025-01-12 12:51:27.26	293.21	11.34	
2025-01-12 12:51:27.48	293.25	11.34	
2025-01-12 12:51:27.68	293.29	11.33	
2025-01-12 12:51:27.89	293.33	11.33	
2025-01-12 12:51:28.09	293.36	11.33	
2025-01-12 12:51:28.30	293.40	11.33	
2025-01-12 12:51:28.50	293.44	11.32	
2025-01-12 12:51:28.71	293.48	11.32	
2025-01-12 12:51:28.91	293.52	11.32	
2025-01-12 12:51:29.12	293.55	11.31	
2025-01-12 12:51:29.33	293.59	11.31	
2025-01-12 12:51:29.53	293.63	11.31	
2025-01-12 12:51:29.73	293.67	11.30	
2025-01-12 12:51:29.94	293.71	11.30	
2025-01-12 12:51:30.15	293.74	11.30	
2025-01-12 12:51:30.35	293.78	11.29	
2025-01-12 12:51:30.56	293.82	11.29	
2025-01-12 12:51:30.76	293.86	11.29	
2025-01-12 12:51:30.97	293.90	11.28	
2025-01-12 12:51:31.18	293.93	11.28	
2025-01-12 12:51:31.38	293.97	11.28	
2025-01-12 12:51:31.59	294.01	11.27	
2025-01-12 12:51:31.79	294.05	11.27	
2025-01-12 12:51:32.00	294.08	11.27	
2025-01-12 12:51:32.20	294.12	11.26	
2025-01-12 12:51:32.41	294.16	11.26	
2025-01-12 12:51:32.61	294.20	11.26	
2025-01-12 12:51:32.82	294.24	11.25	
2025-01-12 12:51:33.02	294.27	11.25	
2025-01-12 12:51:33.23	294.31	11.25	
2025-01-12 12:51:33.43	294.35	11.24	
2025-01-12 12:51:33.64	294.39	11.24	
2025-01-12 12:51:33.84	294.42	11.23	
2025-01-12 12:51:34.05	294.46	11.23	
2025-01-12 12:51:34.25	294.50	11.23	
2025-01-12 12:51:34.46	294.54	11.22	
2025-01-12 12:51:34.66	294.57	11.22	
2025-01-12 12:51:34.87	294.61	11.22	
2025-01-12 12:51:35.07	294.65	11.21	
2025-01-12 12:51:35.28	294.69	11.21	
2025-01-12 12:51:35.48	294.72	11.21	
2025-01-12 12:51:35.69	294.76	11.20	
2025-01-12 12:51:35.89	294.80	11.20	
