passes_logs/2025/01/12/SPB_Silybum_02/SPB_Silybum_02__20250112_111300_AQUA_rec.log

#Pass ID: 20250112_111300_AQUA
#Satellite: AQUA
#Configuration: AQUA
#Start time: 2025-01-12 11:15:39

#Version: 2.0.20230423
#Station: SPB_Silybum_02
#Location: 30.233357 lon 59.946436 lat
#TLE: 1 27424U 02022A   25011.85338958  .00001740  00000+0  36730-3 0  9996
#TLE: 2 27424  98.3583 328.4891 0001585 114.5213 298.5366 14.60670077207161

#Time	Az	El	Level	Level2	SNR	BER	Gain	Gain2
2025-01-12 11:15:41.18	153.48	20.17	
2025-01-12 11:15:41.39	153.48	20.20	
2025-01-12 11:15:41.59	153.47	20.23	
2025-01-12 11:15:41.80	153.47	20.26	
2025-01-12 11:15:42.00	153.46	20.29	
2025-01-12 11:15:42.21	153.46	20.32	
2025-01-12 11:15:42.41	153.45	20.35	
2025-01-12 11:15:42.62	153.45	20.39	
2025-01-12 11:15:42.82	153.44	20.41	
2025-01-12 11:15:43.03	153.44	20.45	
2025-01-12 11:15:43.23	153.43	20.48	
2025-01-12 11:15:43.44	153.43	20.51	
2025-01-12 11:15:43.64	153.42	20.54	
2025-01-12 11:15:43.85	153.42	20.57	
2025-01-12 11:15:44.05	153.41	20.60	
2025-01-12 11:15:44.26	153.41	20.63	
2025-01-12 11:15:44.46	153.40	20.66	
2025-01-12 11:15:44.67	153.40	20.69	
2025-01-12 11:15:44.87	153.39	20.72	
2025-01-12 11:15:45.08	153.39	20.75	
2025-01-12 11:15:45.29	153.38	20.79	
2025-01-12 11:15:45.49	153.38	20.82	
2025-01-12 11:15:45.70	153.37	20.85	
2025-01-12 11:15:45.90	153.37	20.88	
2025-01-12 11:15:46.12	153.36	20.91	
2025-01-12 11:15:46.33	153.36	20.94	
2025-01-12 11:15:46.53	153.35	20.97	
2025-01-12 11:15:46.74	153.35	21.01	
2025-01-12 11:15:46.94	153.34	21.04	
2025-01-12 11:15:47.15	153.34	21.07	
2025-01-12 11:15:47.35	153.33	21.10	
2025-01-12 11:15:47.56	153.33	21.13	
2025-01-12 11:15:47.76	153.32	21.16	
2025-01-12 11:15:47.97	153.32	21.19	
2025-01-12 11:15:48.17	153.31	21.23	
2025-01-12 11:15:48.38	153.30	21.26	
2025-01-12 11:15:48.59	153.30	21.29	
2025-01-12 11:15:48.79	153.29	21.32	
2025-01-12 11:15:49.00	153.29	21.35	
2025-01-12 11:15:49.20	153.28	21.38	
2025-01-12 11:15:49.41	153.28	21.42	
2025-01-12 11:15:49.61	153.27	21.45	
2025-01-12 11:15:49.82	153.27	21.48	
2025-01-12 11:15:50.02	153.26	21.51	
2025-01-12 11:15:50.23	153.26	21.55	
2025-01-12 11:15:50.43	153.25	21.58	
2025-01-12 11:15:50.64	153.25	21.61	
2025-01-12 11:15:50.84	153.24	21.64	
2025-01-12 11:15:51.05	153.23	21.67	
2025-01-12 11:15:51.25	153.23	21.71	
2025-01-12 11:15:51.46	153.22	21.74	
2025-01-12 11:15:51.66	153.22	21.77	
2025-01-12 11:15:51.87	153.21	21.80	
2025-01-12 11:15:52.07	153.21	21.83	
2025-01-12 11:15:52.27	153.20	21.87	
2025-01-12 11:15:52.48	153.20	21.90	
2025-01-12 11:15:52.68	153.19	21.93	
2025-01-12 11:15:52.89	153.18	21.96	
2025-01-12 11:15:53.09	153.18	22.00	
2025-01-12 11:15:53.30	153.17	22.03	
2025-01-12 11:15:53.50	153.17	22.06	
2025-01-12 11:15:53.71	153.16	22.10	
2025-01-12 11:15:53.92	153.16	22.13	
2025-01-12 11:15:54.12	153.15	22.16	
2025-01-12 11:15:54.33	153.14	22.20	
2025-01-12 11:15:54.53	153.14	22.23	
2025-01-12 11:15:54.74	153.13	22.26	
2025-01-12 11:15:54.94	153.13	22.29	
2025-01-12 11:15:55.15	153.12	22.33	
2025-01-12 11:15:55.35	153.12	22.36	
2025-01-12 11:15:55.56	153.11	22.39	
2025-01-12 11:15:55.76	153.10	22.43	
2025-01-12 11:15:55.97	153.10	22.46	
2025-01-12 11:15:56.17	153.09	22.49	
2025-01-12 11:15:56.38	153.09	22.53	
2025-01-12 11:15:56.59	153.08	22.56	
2025-01-12 11:15:56.80	153.07	22.60	
2025-01-12 11:15:57.01	153.07	22.63	
2025-01-12 11:15:57.22	153.06	22.66	
2025-01-12 11:15:57.42	153.06	22.70	
2025-01-12 11:15:57.63	153.05	22.73	
2025-01-12 11:15:57.83	153.05	22.76	
2025-01-12 11:15:58.03	153.04	22.80	
2025-01-12 11:15:58.24	153.03	22.83	
2025-01-12 11:15:58.46	153.03	22.87	
2025-01-12 11:15:58.66	153.02	22.90	
2025-01-12 11:15:58.86	153.02	22.93	
2025-01-12 11:15:59.07	153.01	22.97	
2025-01-12 11:15:59.27	153.00	23.00	
2025-01-12 11:15:59.48	153.00	23.04	
2025-01-12 11:15:59.69	152.99	23.07	
2025-01-12 11:15:59.89	152.98	23.11	
2025-01-12 11:16:00.09	152.98	23.14	
2025-01-12 11:16:00.30	152.97	23.17	
2025-01-12 11:16:00.51	152.97	23.21	
2025-01-12 11:16:00.71	152.96	23.24	
2025-01-12 11:16:00.92	152.95	23.28	
2025-01-12 11:16:01.12	152.95	23.31	
2025-01-12 11:16:01.33	152.94	23.35	
2025-01-12 11:16:01.53	152.94	23.38	
2025-01-12 11:16:01.74	152.93	23.42	
2025-01-12 11:16:01.94	152.92	23.45	
2025-01-12 11:16:02.15	152.92	23.49	
2025-01-12 11:16:02.35	152.91	23.52	
2025-01-12 11:16:02.56	152.90	23.56	
2025-01-12 11:16:02.76	152.90	23.59	
2025-01-12 11:16:02.97	152.89	23.63	
2025-01-12 11:16:03.17	152.88	23.66	
2025-01-12 11:16:03.38	152.88	23.70	
2025-01-12 11:16:03.58	152.87	23.73	
2025-01-12 11:16:03.79	152.87	23.77	
2025-01-12 11:16:03.99	152.86	23.80	
2025-01-12 11:16:04.21	152.85	23.84	
2025-01-12 11:16:04.42	152.85	23.87	
2025-01-12 11:16:04.62	152.84	23.91	
2025-01-12 11:16:04.82	152.83	23.94	
2025-01-12 11:16:05.03	152.83	23.98	
2025-01-12 11:16:05.23	152.82	24.01	
2025-01-12 11:16:05.44	152.81	24.05	
2025-01-12 11:16:05.65	152.81	24.09	
2025-01-12 11:16:05.85	152.80	24.12	
2025-01-12 11:16:06.06	152.79	24.16	
2025-01-12 11:16:06.26	152.79	24.19	
2025-01-12 11:16:06.47	152.78	24.23	
2025-01-12 11:16:06.67	152.77	24.27	
2025-01-12 11:16:06.88	152.77	24.30	
2025-01-12 11:16:07.09	152.76	24.34	
2025-01-12 11:16:07.29	152.75	24.37	
2025-01-12 11:16:07.49	152.75	24.41	
2025-01-12 11:16:07.70	152.74	24.45	
2025-01-12 11:16:07.90	152.73	24.48	
2025-01-12 11:16:08.11	152.73	24.52	
2025-01-12 11:16:08.32	152.72	24.56	
2025-01-12 11:16:08.52	152.71	24.59	
2025-01-12 11:16:08.72	152.71	24.63	
2025-01-12 11:16:08.93	152.70	24.66	
2025-01-12 11:16:09.14	152.69	24.70	
2025-01-12 11:16:09.34	152.69	24.74	
2025-01-12 11:16:09.54	152.68	24.77	
2025-01-12 11:16:09.75	152.67	24.81	
2025-01-12 11:16:09.95	152.67	24.85	
2025-01-12 11:16:10.16	152.66	24.88	
2025-01-12 11:16:10.37	152.65	24.92	
2025-01-12 11:16:10.57	152.64	24.96	
2025-01-12 11:16:10.78	152.64	25.00	
2025-01-12 11:16:10.98	152.63	25.03	
2025-01-12 11:16:11.19	152.62	25.07	
2025-01-12 11:16:11.39	152.62	25.11	
2025-01-12 11:16:11.60	152.61	25.14	
2025-01-12 11:16:11.80	152.60	25.18	
2025-01-12 11:16:12.01	152.59	25.22	
2025-01-12 11:16:12.21	152.59	25.26	
2025-01-12 11:16:12.42	152.58	25.29	
2025-01-12 11:16:12.62	152.57	25.33	
2025-01-12 11:16:12.84	152.57	25.37	
2025-01-12 11:16:13.05	152.56	25.41	
2025-01-12 11:16:13.25	152.55	25.45	
2025-01-12 11:16:13.46	152.54	25.48	
2025-01-12 11:16:13.66	152.54	25.52	
2025-01-12 11:16:13.87	152.53	25.56	
2025-01-12 11:16:14.07	152.52	25.60	
2025-01-12 11:16:14.28	152.51	25.64	
2025-01-12 11:16:14.49	152.51	25.67	
2025-01-12 11:16:14.69	152.50	25.71	
2025-01-12 11:16:14.91	152.49	25.75	
2025-01-12 11:16:15.11	152.48	25.79	
2025-01-12 11:16:15.32	152.48	25.83	
2025-01-12 11:16:15.52	152.47	25.87	
2025-01-12 11:16:15.73	152.46	25.91	
2025-01-12 11:16:15.93	152.45	25.94	
2025-01-12 11:16:16.13	152.45	25.98	
2025-01-12 11:16:16.34	152.44	26.02	
2025-01-12 11:16:16.54	152.43	26.06	
2025-01-12 11:16:16.75	152.42	26.10	
2025-01-12 11:16:16.95	152.42	26.14	
2025-01-12 11:16:17.16	152.41	26.18	
2025-01-12 11:16:17.36	152.40	26.21	
2025-01-12 11:16:17.57	152.39	26.25	
2025-01-12 11:16:17.77	152.39	26.29	
2025-01-12 11:16:17.98	152.38	26.33	
2025-01-12 11:16:18.18	152.37	26.37	
2025-01-12 11:16:18.39	152.36	26.41	
2025-01-12 11:16:18.59	152.36	26.45	
2025-01-12 11:16:18.80	152.35	26.49	
2025-01-12 11:16:19.00	152.34	26.53	
2025-01-12 11:16:19.21	152.33	26.57	
2025-01-12 11:16:19.41	152.32	26.60	
2025-01-12 11:16:19.62	152.32	26.64	
2025-01-12 11:16:19.83	152.31	26.69	
2025-01-12 11:16:20.03	152.30	26.72	
2025-01-12 11:16:20.23	152.29	26.76	
2025-01-12 11:16:20.44	152.28	26.80	
2025-01-12 11:16:20.65	152.28	26.84	
2025-01-12 11:16:20.85	152.27	26.88	
2025-01-12 11:16:21.06	152.26	26.92	
2025-01-12 11:16:21.26	152.25	26.96	
2025-01-12 11:16:21.47	152.24	27.00	
2025-01-12 11:16:21.67	152.24	27.04	
2025-01-12 11:16:21.88	152.23	27.08	
2025-01-12 11:16:22.09	152.22	27.13	
2025-01-12 11:16:22.29	152.21	27.16	
2025-01-12 11:16:22.49	152.20	27.20	
2025-01-12 11:16:22.70	152.20	27.25	
2025-01-12 11:16:22.91	152.19	27.29	
2025-01-12 11:16:23.11	152.18	27.33	
2025-01-12 11:16:23.32	152.17	27.37	
2025-01-12 11:16:23.52	152.16	27.41	
2025-01-12 11:16:23.73	152.15	27.45	
2025-01-12 11:16:23.93	152.15	27.49	
2025-01-12 11:16:24.14	152.14	27.53	
2025-01-12 11:16:24.34	152.13	27.57	
2025-01-12 11:16:24.55	152.12	27.61	
2025-01-12 11:16:24.75	152.11	27.65	
2025-01-12 11:16:24.96	152.10	27.70	
2025-01-12 11:16:25.17	152.09	27.74	
2025-01-12 11:16:25.37	152.09	27.78	
2025-01-12 11:16:25.57	152.08	27.82	
2025-01-12 11:16:25.78	152.07	27.86	
2025-01-12 11:16:25.99	152.06	27.90	
2025-01-12 11:16:26.19	152.05	27.94	
2025-01-12 11:16:26.40	152.04	27.99	
2025-01-12 11:16:26.60	152.03	28.03	
2025-01-12 11:16:26.81	152.03	28.07	
2025-01-12 11:16:27.01	152.02	28.11	
2025-01-12 11:16:27.22	152.01	28.15	
2025-01-12 11:16:27.43	152.00	28.20	
2025-01-12 11:16:27.63	151.99	28.24	
2025-01-12 11:16:27.83	151.98	28.28	
2025-01-12 11:16:28.04	151.97	28.32	
2025-01-12 11:16:28.25	151.96	28.36	
2025-01-12 11:16:28.45	151.96	28.41	
2025-01-12 11:16:28.66	151.95	28.45	
2025-01-12 11:16:28.86	151.94	28.49	
2025-01-12 11:16:29.07	151.93	28.53	
2025-01-12 11:16:29.27	151.92	28.58	
2025-01-12 11:16:29.48	151.91	28.62	
2025-01-12 11:16:29.68	151.90	28.66	
2025-01-12 11:16:29.89	151.89	28.70	
2025-01-12 11:16:30.09	151.88	28.75	
2025-01-12 11:16:30.30	151.87	28.79	
2025-01-12 11:16:30.51	151.86	28.83	
2025-01-12 11:16:30.71	151.86	28.88	
2025-01-12 11:16:30.91	151.85	28.92	
2025-01-12 11:16:31.12	151.84	28.96	
2025-01-12 11:16:31.33	151.83	29.01	
2025-01-12 11:16:31.53	151.82	29.05	
2025-01-12 11:16:31.74	151.81	29.09	
2025-01-12 11:16:31.94	151.80	29.14	
2025-01-12 11:16:32.15	151.79	29.18	
2025-01-12 11:16:32.35	151.78	29.22	
2025-01-12 11:16:32.56	151.77	29.27	
2025-01-12 11:16:32.76	151.76	29.31	
2025-01-12 11:16:32.97	151.75	29.36	
2025-01-12 11:16:33.17	151.74	29.40	
2025-01-12 11:16:33.38	151.73	29.44	
2025-01-12 11:16:33.58	151.72	29.49	
2025-01-12 11:16:33.79	151.71	29.53	
2025-01-12 11:16:33.99	151.70	29.57	
2025-01-12 11:16:34.20	151.69	29.62	
2025-01-12 11:16:34.40	151.69	29.66	
2025-01-12 11:16:34.61	151.68	29.71	
2025-01-12 11:16:34.81	151.67	29.75	
2025-01-12 11:16:35.02	151.66	29.80	
2025-01-12 11:16:35.22	151.65	29.84	
2025-01-12 11:16:35.43	151.64	29.89	
2025-01-12 11:16:35.63	151.63	29.93	
2025-01-12 11:16:35.84	151.62	29.98	
2025-01-12 11:16:36.04	151.61	30.02	
2025-01-12 11:16:36.25	151.60	30.07	
2025-01-12 11:16:36.45	151.59	30.11	
2025-01-12 11:16:36.66	151.58	30.16	
2025-01-12 11:16:36.86	151.57	30.20	
2025-01-12 11:16:37.07	151.56	30.25	
2025-01-12 11:16:37.27	151.55	30.29	
2025-01-12 11:16:37.48	151.54	30.34	
2025-01-12 11:16:37.68	151.53	30.38	
2025-01-12 11:16:37.89	151.52	30.43	
2025-01-12 11:16:38.10	151.50	30.48	
2025-01-12 11:16:38.30	151.49	30.52	
2025-01-12 11:16:38.50	151.48	30.56	
2025-01-12 11:16:38.71	151.47	30.61	
2025-01-12 11:16:38.92	151.46	30.66	
2025-01-12 11:16:39.13	151.45	30.71	
2025-01-12 11:16:39.33	151.44	30.75	
2025-01-12 11:16:39.53	151.43	30.80	
2025-01-12 11:16:39.74	151.42	30.84	
2025-01-12 11:16:39.95	151.41	30.89	
2025-01-12 11:16:40.15	151.40	30.94	
2025-01-12 11:16:40.36	151.39	30.98	
2025-01-12 11:16:40.56	151.38	31.03	
2025-01-12 11:16:40.77	151.37	31.08	
2025-01-12 11:16:40.97	151.36	31.12	
2025-01-12 11:16:41.18	151.35	31.17	
2025-01-12 11:16:41.38	151.34	31.22	
2025-01-12 11:16:41.59	151.33	31.26	
2025-01-12 11:16:41.79	151.31	31.31	
2025-01-12 11:16:42.00	151.30	31.36	
2025-01-12 11:16:42.20	151.29	31.40	
2025-01-12 11:16:42.41	151.28	31.45	
2025-01-12 11:16:42.61	151.27	31.50	
2025-01-12 11:16:42.82	151.26	31.55	
2025-01-12 11:16:43.03	151.25	31.60	
2025-01-12 11:16:43.23	151.24	31.64	
2025-01-12 11:16:43.44	151.23	31.69	
2025-01-12 11:16:43.64	151.22	31.74	
2025-01-12 11:16:43.85	151.20	31.79	
2025-01-12 11:16:44.05	151.19	31.83	
2025-01-12 11:16:44.26	151.18	31.88	
2025-01-12 11:16:44.46	151.17	31.93	
2025-01-12 11:16:44.67	151.16	31.98	
2025-01-12 11:16:44.89	151.15	32.03	
2025-01-12 11:16:45.09	151.14	32.08	
2025-01-12 11:16:45.30	151.12	32.13	
2025-01-12 11:16:45.50	151.11	32.18	
2025-01-12 11:16:45.71	151.10	32.23	
2025-01-12 11:16:45.91	151.09	32.27	
2025-01-12 11:16:46.12	151.08	32.32	
2025-01-12 11:16:46.32	151.07	32.37	
2025-01-12 11:16:46.53	151.05	32.42	
2025-01-12 11:16:46.73	151.04	32.47	
2025-01-12 11:16:46.94	151.03	32.52	
2025-01-12 11:16:47.14	151.02	32.57	
2025-01-12 11:16:47.35	151.01	32.62	
2025-01-12 11:16:47.56	151.00	32.67	
2025-01-12 11:16:47.76	150.98	32.72	
2025-01-12 11:16:47.97	150.97	32.77	
2025-01-12 11:16:48.17	150.96	32.82	
2025-01-12 11:16:48.38	150.95	32.87	
2025-01-12 11:16:48.58	150.94	32.92	
2025-01-12 11:16:48.79	150.92	32.97	
2025-01-12 11:16:49.00	150.91	33.02	
2025-01-12 11:16:49.20	150.90	33.07	
2025-01-12 11:16:49.40	150.89	33.12	
2025-01-12 11:16:49.61	150.87	33.17	
2025-01-12 11:16:49.82	150.86	33.22	
2025-01-12 11:16:50.02	150.85	33.27	
2025-01-12 11:16:50.23	150.84	33.32	
2025-01-12 11:16:50.43	150.82	33.37	
2025-01-12 11:16:50.64	150.81	33.42	
2025-01-12 11:16:50.84	150.80	33.47	
2025-01-12 11:16:51.05	150.79	33.52	
2025-01-12 11:16:51.25	150.77	33.57	
2025-01-12 11:16:51.46	150.76	33.62	
2025-01-12 11:16:51.66	150.75	33.67	
2025-01-12 11:16:51.87	150.74	33.73	
2025-01-12 11:16:52.07	150.72	33.78	
2025-01-12 11:16:52.28	150.71	33.83	
2025-01-12 11:16:52.48	150.70	33.88	
2025-01-12 11:16:52.69	150.68	33.93	
2025-01-12 11:16:52.90	150.67	33.98	
2025-01-12 11:16:53.10	150.66	34.04	
2025-01-12 11:16:53.31	150.65	34.09	
2025-01-12 11:16:53.51	150.63	34.14	
2025-01-12 11:16:53.72	150.62	34.19	
2025-01-12 11:16:53.92	150.61	34.24	
2025-01-12 11:16:54.13	150.59	34.30	
2025-01-12 11:16:54.33	150.58	34.35	
2025-01-12 11:16:54.54	150.57	34.40	
2025-01-12 11:16:54.74	150.55	34.45	
2025-01-12 11:16:54.95	150.54	34.51	
2025-01-12 11:16:55.15	150.53	34.56	
2025-01-12 11:16:55.36	150.51	34.61	
2025-01-12 11:16:55.56	150.50	34.66	
2025-01-12 11:16:55.77	150.49	34.72	
2025-01-12 11:16:55.97	150.47	34.77	
2025-01-12 11:16:56.18	150.46	34.82	
2025-01-12 11:16:56.38	150.44	34.88	
2025-01-12 11:16:56.59	150.43	34.93	
2025-01-12 11:16:56.79	150.42	34.98	
2025-01-12 11:16:57.00	150.40	35.04	
2025-01-12 11:16:57.20	150.39	35.09	
2025-01-12 11:16:57.41	150.37	35.14	
2025-01-12 11:16:57.63	150.36	35.20	
2025-01-12 11:16:57.83	150.35	35.25	
2025-01-12 11:16:58.04	150.33	35.31	
2025-01-12 11:16:58.24	150.32	35.36	
2025-01-12 11:16:58.45	150.30	35.42	
2025-01-12 11:16:58.65	150.29	35.47	
2025-01-12 11:16:58.86	150.27	35.53	
2025-01-12 11:16:59.06	150.26	35.58	
2025-01-12 11:16:59.27	150.25	35.64	
2025-01-12 11:16:59.47	150.23	35.69	
2025-01-12 11:16:59.68	150.22	35.74	
2025-01-12 11:16:59.90	150.20	35.80	
2025-01-12 11:17:00.10	150.19	35.86	
2025-01-12 11:17:00.31	150.17	35.91	
2025-01-12 11:17:00.52	150.16	35.97	
2025-01-12 11:17:00.72	150.14	36.02	
2025-01-12 11:17:00.93	150.13	36.08	
2025-01-12 11:17:01.13	150.11	36.13	
2025-01-12 11:17:01.34	150.10	36.19	
2025-01-12 11:17:01.54	150.08	36.25	
2025-01-12 11:17:01.75	150.07	36.30	
2025-01-12 11:17:01.95	150.05	36.36	
2025-01-12 11:17:02.15	150.04	36.41	
2025-01-12 11:17:02.36	150.02	36.47	
2025-01-12 11:17:02.56	150.01	36.52	
2025-01-12 11:17:02.77	149.99	36.58	
2025-01-12 11:17:02.97	149.98	36.64	
2025-01-12 11:17:03.18	149.96	36.69	
2025-01-12 11:17:03.39	149.94	36.75	
2025-01-12 11:17:03.59	149.93	36.81	
2025-01-12 11:17:03.80	149.91	36.87	
2025-01-12 11:17:04.00	149.90	36.92	
2025-01-12 11:17:04.21	149.88	36.98	
2025-01-12 11:17:04.41	149.87	37.03	
2025-01-12 11:17:04.62	149.85	37.09	
2025-01-12 11:17:04.82	149.83	37.15	
2025-01-12 11:17:05.03	149.82	37.21	
2025-01-12 11:17:05.23	149.80	37.26	
2025-01-12 11:17:05.44	149.79	37.32	
2025-01-12 11:17:05.64	149.77	37.38	
2025-01-12 11:17:05.85	149.75	37.44	
2025-01-12 11:17:06.06	149.74	37.50	
2025-01-12 11:17:06.27	149.72	37.56	
2025-01-12 11:17:06.48	149.70	37.62	
2025-01-12 11:17:06.69	149.69	37.68	
2025-01-12 11:17:06.89	149.67	37.73	
2025-01-12 11:17:07.10	149.65	37.79	
2025-01-12 11:17:07.32	149.64	37.86	
2025-01-12 11:17:07.52	149.62	37.91	
2025-01-12 11:17:07.73	149.60	37.97	
2025-01-12 11:17:07.93	149.59	38.03	
2025-01-12 11:17:08.14	149.57	38.09	
2025-01-12 11:17:08.34	149.55	38.15	
2025-01-12 11:17:08.55	149.53	38.21	
2025-01-12 11:17:08.75	149.52	38.27	
2025-01-12 11:17:08.96	149.50	38.33	
2025-01-12 11:17:09.16	149.48	38.39	
2025-01-12 11:17:09.36	149.47	38.44	
2025-01-12 11:17:09.57	149.45	38.50	
2025-01-12 11:17:09.78	149.43	38.57	
2025-01-12 11:17:09.98	149.41	38.62	
2025-01-12 11:17:10.19	149.39	38.69	
2025-01-12 11:17:10.40	149.38	38.75	
2025-01-12 11:17:10.61	149.36	38.81	
2025-01-12 11:17:10.81	149.34	38.87	
2025-01-12 11:17:11.02	149.32	38.93	
2025-01-12 11:17:11.23	149.30	38.99	
2025-01-12 11:17:11.43	149.29	39.05	
2025-01-12 11:17:11.63	149.27	39.11	
2025-01-12 11:17:11.84	149.25	39.17	
2025-01-12 11:17:12.04	149.23	39.23	
2025-01-12 11:17:12.25	149.21	39.29	
2025-01-12 11:17:12.46	149.20	39.36	
2025-01-12 11:17:12.66	149.18	39.42	
2025-01-12 11:17:12.86	149.16	39.48	
2025-01-12 11:17:13.07	149.14	39.54	
2025-01-12 11:17:13.28	149.12	39.60	
2025-01-12 11:17:13.48	149.10	39.66	
2025-01-12 11:17:13.68	149.08	39.72	
2025-01-12 11:17:13.89	149.06	39.79	
2025-01-12 11:17:14.09	149.05	39.85	
2025-01-12 11:17:14.30	149.03	39.91	
2025-01-12 11:17:14.50	149.01	39.97	
2025-01-12 11:17:14.71	148.99	40.04	
2025-01-12 11:17:14.91	148.97	40.10	
2025-01-12 11:17:15.12	148.95	40.16	
2025-01-12 11:17:15.32	148.93	40.22	
2025-01-12 11:17:15.53	148.91	40.29	
2025-01-12 11:17:15.73	148.89	40.35	
2025-01-12 11:17:15.94	148.87	40.41	
2025-01-12 11:17:16.14	148.85	40.47	
2025-01-12 11:17:16.34	148.83	40.54	
2025-01-12 11:17:16.55	148.81	40.60	
2025-01-12 11:17:16.76	148.79	40.67	
2025-01-12 11:17:16.96	148.77	40.73	
2025-01-12 11:17:17.16	148.75	40.79	
2025-01-12 11:17:17.37	148.73	40.86	
2025-01-12 11:17:17.57	148.71	40.92	
2025-01-12 11:17:17.78	148.69	40.98	
2025-01-12 11:17:17.98	148.67	41.05	
2025-01-12 11:17:18.19	148.65	41.11	
2025-01-12 11:17:18.40	148.63	41.18	
2025-01-12 11:17:18.60	148.61	41.24	
2025-01-12 11:17:18.81	148.59	41.31	
2025-01-12 11:17:19.02	148.57	41.37	
2025-01-12 11:17:19.23	148.54	41.44	
2025-01-12 11:17:19.44	148.52	41.51	
2025-01-12 11:17:19.64	148.50	41.57	
2025-01-12 11:17:19.85	148.48	41.64	
2025-01-12 11:17:20.05	148.46	41.70	
2025-01-12 11:17:20.25	148.44	41.77	
2025-01-12 11:17:20.46	148.42	41.83	
2025-01-12 11:17:20.66	148.40	41.90	
2025-01-12 11:17:20.87	148.37	41.96	
2025-01-12 11:17:21.07	148.35	42.03	
2025-01-12 11:17:21.28	148.33	42.10	
2025-01-12 11:17:21.48	148.31	42.16	
2025-01-12 11:17:21.69	148.28	42.23	
2025-01-12 11:17:21.91	148.26	42.30	
2025-01-12 11:17:22.11	148.24	42.37	
2025-01-12 11:17:22.32	148.22	42.43	
2025-01-12 11:17:22.52	148.19	42.50	
2025-01-12 11:17:22.73	148.17	42.57	
2025-01-12 11:17:22.94	148.15	42.64	
2025-01-12 11:17:23.14	148.13	42.70	
2025-01-12 11:17:23.34	148.10	42.77	
2025-01-12 11:17:23.55	148.08	42.84	
2025-01-12 11:17:23.75	148.06	42.90	
2025-01-12 11:17:23.96	148.03	42.97	
2025-01-12 11:17:24.17	148.01	43.04	
2025-01-12 11:17:24.37	147.99	43.11	
2025-01-12 11:17:24.58	147.96	43.18	
2025-01-12 11:17:24.78	147.94	43.24	
2025-01-12 11:17:24.99	147.91	43.31	
2025-01-12 11:17:25.19	147.89	43.38	
2025-01-12 11:17:25.40	147.87	43.45	
2025-01-12 11:17:25.60	147.84	43.52	
2025-01-12 11:17:25.81	147.82	43.59	
2025-01-12 11:17:26.01	147.80	43.66	
2025-01-12 11:17:26.22	147.77	43.73	
2025-01-12 11:17:26.42	147.75	43.79	
2025-01-12 11:17:26.63	147.72	43.87	
2025-01-12 11:17:26.83	147.70	43.93	
2025-01-12 11:17:27.04	147.67	44.00	
2025-01-12 11:17:27.24	147.65	44.07	
2025-01-12 11:17:27.45	147.62	44.14	
2025-01-12 11:17:27.65	147.60	44.21	
2025-01-12 11:17:27.86	147.57	44.28	
2025-01-12 11:17:28.06	147.55	44.35	
2025-01-12 11:17:28.27	147.52	44.42	
2025-01-12 11:17:28.47	147.49	44.49	
2025-01-12 11:17:28.68	147.47	44.57	
2025-01-12 11:17:28.88	147.44	44.63	
2025-01-12 11:17:29.09	147.42	44.71	
2025-01-12 11:17:29.29	147.39	44.78	
2025-01-12 11:17:29.50	147.36	44.85	
2025-01-12 11:17:29.70	147.34	44.92	
2025-01-12 11:17:29.91	147.31	44.99	
2025-01-12 11:17:30.11	147.29	45.06	
2025-01-12 11:17:30.32	147.26	45.13	
2025-01-12 11:17:30.53	147.23	45.21	
2025-01-12 11:17:30.73	147.20	45.28	
2025-01-12 11:17:30.94	147.18	45.35	
2025-01-12 11:17:31.14	147.15	45.42	
2025-01-12 11:17:31.35	147.12	45.50	
2025-01-12 11:17:31.56	147.09	45.57	
2025-01-12 11:17:31.76	147.07	45.64	
2025-01-12 11:17:31.96	147.04	45.71	
2025-01-12 11:17:32.17	147.01	45.79	
2025-01-12 11:17:32.37	146.98	45.86	
2025-01-12 11:17:32.58	146.95	45.93	
2025-01-12 11:17:32.78	146.93	46.00	
2025-01-12 11:17:32.99	146.90	46.08	
2025-01-12 11:17:33.19	146.87	46.15	
2025-01-12 11:17:33.40	146.84	46.22	
2025-01-12 11:17:33.60	146.81	46.30	
2025-01-12 11:17:33.81	146.78	46.37	
2025-01-12 11:17:34.01	146.75	46.44	
2025-01-12 11:17:34.22	146.72	46.52	
2025-01-12 11:17:34.42	146.70	46.59	
2025-01-12 11:17:34.63	146.67	46.67	
2025-01-12 11:17:34.83	146.64	46.74	
2025-01-12 11:17:35.04	146.61	46.82	
2025-01-12 11:17:35.24	146.58	46.89	
2025-01-12 11:17:35.45	146.55	46.97	
2025-01-12 11:17:35.66	146.51	47.04	
2025-01-12 11:17:35.86	146.48	47.12	
2025-01-12 11:17:36.08	146.45	47.20	
2025-01-12 11:17:36.28	146.42	47.27	
2025-01-12 11:17:36.49	146.39	47.35	
2025-01-12 11:17:36.70	146.36	47.43	
2025-01-12 11:17:36.90	146.33	47.50	
2025-01-12 11:17:37.11	146.30	47.58	
2025-01-12 11:17:37.31	146.26	47.65	
2025-01-12 11:17:37.52	146.23	47.73	
2025-01-12 11:17:37.72	146.20	47.80	
2025-01-12 11:17:37.93	146.17	47.88	
2025-01-12 11:17:38.13	146.14	47.96	
2025-01-12 11:17:38.34	146.10	48.03	
2025-01-12 11:17:38.54	146.07	48.11	
2025-01-12 11:17:38.75	146.04	48.19	
2025-01-12 11:17:38.95	146.01	48.26	
2025-01-12 11:17:39.16	145.97	48.34	
2025-01-12 11:17:39.36	145.94	48.42	
2025-01-12 11:17:39.57	145.91	48.50	
2025-01-12 11:17:39.78	145.87	48.58	
2025-01-12 11:17:39.98	145.84	48.65	
2025-01-12 11:17:40.19	145.80	48.73	
2025-01-12 11:17:40.39	145.77	48.81	
2025-01-12 11:17:40.60	145.74	48.89	
2025-01-12 11:17:40.80	145.70	48.96	
2025-01-12 11:17:41.01	145.67	49.05	
2025-01-12 11:17:41.21	145.63	49.12	
2025-01-12 11:17:41.42	145.60	49.20	
2025-01-12 11:17:41.62	145.56	49.28	
2025-01-12 11:17:41.83	145.53	49.36	
2025-01-12 11:17:42.03	145.49	49.44	
2025-01-12 11:17:42.24	145.45	49.52	
2025-01-12 11:17:42.44	145.42	49.60	
2025-01-12 11:17:42.65	145.38	49.68	
2025-01-12 11:17:42.86	145.35	49.76	
2025-01-12 11:17:43.06	145.31	49.84	
2025-01-12 11:17:43.27	145.27	49.92	
2025-01-12 11:17:43.47	145.24	50.00	
2025-01-12 11:17:43.68	145.20	50.08	
2025-01-12 11:17:43.88	145.16	50.16	
2025-01-12 11:17:44.09	145.12	50.24	
2025-01-12 11:17:44.29	145.09	50.32	
2025-01-12 11:17:44.50	145.05	50.40	
2025-01-12 11:17:44.70	145.01	50.48	
2025-01-12 11:17:44.91	144.97	50.56	
2025-01-12 11:17:45.12	144.93	50.64	
2025-01-12 11:17:45.32	144.89	50.72	
2025-01-12 11:17:45.53	144.85	50.81	
2025-01-12 11:17:45.73	144.82	50.89	
2025-01-12 11:17:45.94	144.78	50.97	
2025-01-12 11:17:46.14	144.74	51.05	
2025-01-12 11:17:46.35	144.70	51.13	
2025-01-12 11:17:46.55	144.66	51.21	
2025-01-12 11:17:46.76	144.62	51.30	
2025-01-12 11:17:46.96	144.58	51.38	
2025-01-12 11:17:47.17	144.53	51.46	
2025-01-12 11:17:47.37	144.49	51.54	
2025-01-12 11:17:47.58	144.45	51.63	
2025-01-12 11:17:47.78	144.41	51.71	
2025-01-12 11:17:47.99	144.37	51.79	
2025-01-12 11:17:48.19	144.33	51.87	
2025-01-12 11:17:48.40	144.28	51.96	
2025-01-12 11:17:48.61	144.24	52.04	
2025-01-12 11:17:48.82	144.20	52.13	
2025-01-12 11:17:49.02	144.16	52.21	
2025-01-12 11:17:49.23	144.11	52.30	
2025-01-12 11:17:49.44	144.07	52.38	
2025-01-12 11:17:49.64	144.02	52.46	
2025-01-12 11:17:49.84	143.98	52.55	
2025-01-12 11:17:50.05	143.94	52.63	
2025-01-12 11:17:50.25	143.89	52.72	
2025-01-12 11:17:50.46	143.85	52.80	
2025-01-12 11:17:50.66	143.80	52.88	
2025-01-12 11:17:50.87	143.76	52.97	
2025-01-12 11:17:51.07	143.71	53.05	
2025-01-12 11:17:51.27	143.67	53.14	
2025-01-12 11:17:51.48	143.62	53.22	
2025-01-12 11:17:51.69	143.57	53.31	
2025-01-12 11:17:51.89	143.53	53.39	
2025-01-12 11:17:52.10	143.48	53.48	
2025-01-12 11:17:52.30	143.43	53.57	
2025-01-12 11:17:52.50	143.39	53.65	
2025-01-12 11:17:52.71	143.34	53.74	
2025-01-12 11:17:52.92	143.29	53.83	
2025-01-12 11:17:53.13	143.24	53.91	
2025-01-12 11:17:53.34	143.19	54.00	
2025-01-12 11:17:53.55	143.14	54.09	
2025-01-12 11:17:53.75	143.09	54.18	
2025-01-12 11:17:53.96	143.04	54.26	
2025-01-12 11:17:54.16	142.99	54.35	
2025-01-12 11:17:54.37	142.94	54.44	
2025-01-12 11:17:54.58	142.89	54.53	
2025-01-12 11:17:54.78	142.84	54.61	
2025-01-12 11:17:54.99	142.79	54.70	
2025-01-12 11:17:55.20	142.73	54.79	
2025-01-12 11:17:55.41	142.68	54.88	
2025-01-12 11:17:55.62	142.63	54.97	
2025-01-12 11:17:55.82	142.58	55.06	
2025-01-12 11:17:56.03	142.52	55.15	
2025-01-12 11:17:56.23	142.47	55.23	
2025-01-12 11:17:56.44	142.42	55.32	
2025-01-12 11:17:56.64	142.36	55.41	
2025-01-12 11:17:56.85	142.31	55.50	
2025-01-12 11:17:57.05	142.25	55.59	
2025-01-12 11:17:57.26	142.20	55.68	
2025-01-12 11:17:57.48	142.14	55.77	
2025-01-12 11:17:57.68	142.08	55.86	
2025-01-12 11:17:57.89	142.03	55.95	
2025-01-12 11:17:58.09	141.97	56.04	
2025-01-12 11:17:58.30	141.91	56.13	
2025-01-12 11:17:58.50	141.86	56.22	
2025-01-12 11:17:58.71	141.80	56.31	
2025-01-12 11:17:58.91	141.74	56.40	
2025-01-12 11:17:59.12	141.68	56.49	
2025-01-12 11:17:59.33	141.62	56.58	
2025-01-12 11:17:59.53	141.57	56.67	
2025-01-12 11:17:59.74	141.51	56.76	
2025-01-12 11:17:59.94	141.45	56.85	
2025-01-12 11:18:00.15	141.39	56.94	
2025-01-12 11:18:00.35	141.33	57.03	
2025-01-12 11:18:00.57	141.26	57.13	
2025-01-12 11:18:00.77	141.20	57.22	
2025-01-12 11:18:00.98	141.14	57.31	
2025-01-12 11:18:01.19	141.07	57.40	
2025-01-12 11:18:01.39	141.01	57.49	
2025-01-12 11:18:01.59	140.95	57.58	
2025-01-12 11:18:01.80	140.89	57.67	
2025-01-12 11:18:02.01	140.82	57.77	
2025-01-12 11:18:02.21	140.76	57.86	
2025-01-12 11:18:02.42	140.69	57.95	
2025-01-12 11:18:02.62	140.63	58.04	
2025-01-12 11:18:02.83	140.56	58.14	
2025-01-12 11:18:03.04	140.49	58.23	
2025-01-12 11:18:03.24	140.43	58.32	
2025-01-12 11:18:03.45	140.36	58.41	
2025-01-12 11:18:03.65	140.29	58.50	
2025-01-12 11:18:03.86	140.22	58.60	
2025-01-12 11:18:04.06	140.15	58.69	
2025-01-12 11:18:04.27	140.08	58.79	
2025-01-12 11:18:04.47	140.02	58.88	
2025-01-12 11:18:04.68	139.94	58.97	
2025-01-12 11:18:04.90	139.87	59.07	
2025-01-12 11:18:05.10	139.80	59.16	
2025-01-12 11:18:05.31	139.73	59.26	
2025-01-12 11:18:05.51	139.65	59.35	
2025-01-12 11:18:05.72	139.58	59.44	
2025-01-12 11:18:05.94	139.50	59.54	
2025-01-12 11:18:06.14	139.43	59.64	
2025-01-12 11:18:06.35	139.35	59.73	
2025-01-12 11:18:06.55	139.28	59.82	
2025-01-12 11:18:06.76	139.20	59.92	
2025-01-12 11:18:06.96	139.13	60.01	
2025-01-12 11:18:07.17	139.05	60.11	
2025-01-12 11:18:07.37	138.98	60.20	
2025-01-12 11:18:07.58	138.90	60.30	
2025-01-12 11:18:07.78	138.82	60.39	
2025-01-12 11:18:07.98	138.74	60.48	
2025-01-12 11:18:08.19	138.66	60.58	
2025-01-12 11:18:08.39	138.58	60.67	
2025-01-12 11:18:08.60	138.50	60.77	
2025-01-12 11:18:08.81	138.42	60.87	
2025-01-12 11:18:09.01	138.34	60.96	
2025-01-12 11:18:09.21	138.26	61.05	
2025-01-12 11:18:09.42	138.17	61.15	
2025-01-12 11:18:09.63	138.08	61.25	
2025-01-12 11:18:09.83	138.00	61.34	
2025-01-12 11:18:10.04	137.91	61.44	
2025-01-12 11:18:10.24	137.83	61.53	
2025-01-12 11:18:10.44	137.75	61.63	
2025-01-12 11:18:10.65	137.66	61.72	
2025-01-12 11:18:10.86	137.57	61.82	
2025-01-12 11:18:11.06	137.48	61.92	
2025-01-12 11:18:11.27	137.39	62.01	
2025-01-12 11:18:11.47	137.30	62.11	
2025-01-12 11:18:11.68	137.21	62.21	
2025-01-12 11:18:11.88	137.12	62.30	
2025-01-12 11:18:12.09	137.02	62.40	
2025-01-12 11:18:12.30	136.93	62.50	
2025-01-12 11:18:12.51	136.83	62.60	
2025-01-12 11:18:12.72	136.74	62.70	
2025-01-12 11:18:12.92	136.64	62.79	
2025-01-12 11:18:13.13	136.54	62.89	
2025-01-12 11:18:13.33	136.45	62.98	
2025-01-12 11:18:13.54	136.35	63.08	
2025-01-12 11:18:13.74	136.25	63.18	
2025-01-12 11:18:13.95	136.15	63.28	
2025-01-12 11:18:14.16	136.05	63.38	
2025-01-12 11:18:14.36	135.95	63.47	
2025-01-12 11:18:14.56	135.85	63.57	
2025-01-12 11:18:14.77	135.75	63.67	
2025-01-12 11:18:14.97	135.65	63.76	
2025-01-12 11:18:15.18	135.54	63.86	
2025-01-12 11:18:15.39	135.43	63.96	
2025-01-12 11:18:15.59	135.33	64.05	
2025-01-12 11:18:15.80	135.22	64.15	
2025-01-12 11:18:16.00	135.11	64.25	
2025-01-12 11:18:16.21	135.00	64.35	
2025-01-12 11:18:16.41	134.89	64.45	
2025-01-12 11:18:16.62	134.78	64.55	
2025-01-12 11:18:16.82	134.67	64.64	
2025-01-12 11:18:17.03	134.55	64.74	
2025-01-12 11:18:17.24	134.44	64.84	
2025-01-12 11:18:17.44	134.33	64.94	
2025-01-12 11:18:17.64	134.21	65.03	
2025-01-12 11:18:17.85	134.09	65.13	
2025-01-12 11:18:18.05	133.98	65.23	
2025-01-12 11:18:18.26	133.86	65.33	
2025-01-12 11:18:18.47	133.73	65.43	
2025-01-12 11:18:18.67	133.62	65.52	
2025-01-12 11:18:18.88	133.49	65.63	
2025-01-12 11:18:19.08	133.37	65.72	
2025-01-12 11:18:19.29	133.24	65.82	
2025-01-12 11:18:19.49	133.12	65.92	
2025-01-12 11:18:19.70	132.99	66.02	
2025-01-12 11:18:19.90	132.87	66.11	
2025-01-12 11:18:20.11	132.73	66.21	
2025-01-12 11:18:20.32	132.60	66.32	
2025-01-12 11:18:20.52	132.47	66.41	
2025-01-12 11:18:20.73	132.34	66.51	
2025-01-12 11:18:20.93	132.21	66.61	
2025-01-12 11:18:21.14	132.07	66.71	
2025-01-12 11:18:21.35	131.93	66.81	
2025-01-12 11:18:21.56	131.79	66.91	
2025-01-12 11:18:21.76	131.65	67.01	
2025-01-12 11:18:21.96	131.51	67.10	
2025-01-12 11:18:22.17	131.37	67.20	
2025-01-12 11:18:22.37	131.23	67.30	
2025-01-12 11:18:22.58	131.08	67.40	
2025-01-12 11:18:22.79	130.93	67.50	
2025-01-12 11:18:23.00	130.78	67.60	
2025-01-12 11:18:23.21	130.63	67.70	
2025-01-12 11:18:23.42	130.48	67.80	
2025-01-12 11:18:23.62	130.33	67.90	
2025-01-12 11:18:23.83	130.17	68.00	
2025-01-12 11:18:24.03	130.02	68.09	
2025-01-12 11:18:24.24	129.86	68.19	
2025-01-12 11:18:24.44	129.71	68.29	
2025-01-12 11:18:24.65	129.54	68.39	
2025-01-12 11:18:24.85	129.39	68.48	
2025-01-12 11:18:25.06	129.22	68.58	
2025-01-12 11:18:25.26	129.06	68.68	
2025-01-12 11:18:25.47	128.89	68.78	
2025-01-12 11:18:25.67	128.73	68.88	
2025-01-12 11:18:25.88	128.55	68.98	
2025-01-12 11:18:26.08	128.39	69.07	
2025-01-12 11:18:26.29	128.21	69.17	
2025-01-12 11:18:26.49	128.04	69.27	
2025-01-12 11:18:26.70	127.86	69.37	
2025-01-12 11:18:26.90	127.69	69.46	
2025-01-12 11:18:27.11	127.50	69.56	
2025-01-12 11:18:27.31	127.33	69.65	
2025-01-12 11:18:27.51	127.15	69.75	
2025-01-12 11:18:27.72	126.96	69.85	
2025-01-12 11:18:27.93	126.77	69.95	
2025-01-12 11:18:28.13	126.58	70.04	
2025-01-12 11:18:28.33	126.40	70.14	
2025-01-12 11:18:28.54	126.20	70.24	
2025-01-12 11:18:28.74	126.01	70.33	
2025-01-12 11:18:28.95	125.81	70.43	
2025-01-12 11:18:29.15	125.61	70.52	
2025-01-12 11:18:29.36	125.41	70.62	
2025-01-12 11:18:29.56	125.21	70.71	
2025-01-12 11:18:29.77	125.00	70.81	
2025-01-12 11:18:29.97	124.79	70.90	
2025-01-12 11:18:30.18	124.58	71.00	
2025-01-12 11:18:30.38	124.37	71.10	
2025-01-12 11:18:30.59	124.15	71.19	
2025-01-12 11:18:30.79	123.94	71.29	
2025-01-12 11:18:31.00	123.71	71.38	
2025-01-12 11:18:31.20	123.50	71.47	
2025-01-12 11:18:31.41	123.27	71.57	
2025-01-12 11:18:31.61	123.05	71.66	
2025-01-12 11:18:31.82	122.81	71.76	
2025-01-12 11:18:32.02	122.59	71.85	
2025-01-12 11:18:32.23	122.35	71.95	
2025-01-12 11:18:32.44	122.11	72.04	
2025-01-12 11:18:32.64	121.87	72.13	
2025-01-12 11:18:32.84	121.64	72.22	
2025-01-12 11:18:33.05	121.38	72.32	
2025-01-12 11:18:33.25	121.14	72.41	
2025-01-12 11:18:33.46	120.89	72.50	
2025-01-12 11:18:33.66	120.64	72.59	
2025-01-12 11:18:33.87	120.38	72.69	
2025-01-12 11:18:34.08	120.11	72.78	
2025-01-12 11:18:34.28	119.86	72.87	
2025-01-12 11:18:34.49	119.59	72.96	
2025-01-12 11:18:34.69	119.33	73.05	
2025-01-12 11:18:34.90	119.05	73.15	
2025-01-12 11:18:35.10	118.78	73.23	
2025-01-12 11:18:35.31	118.50	73.33	
2025-01-12 11:18:35.51	118.22	73.41	
2025-01-12 11:18:35.72	117.93	73.51	
2025-01-12 11:18:35.92	117.65	73.59	
2025-01-12 11:18:36.13	117.36	73.68	
2025-01-12 11:18:36.34	117.06	73.77	
2025-01-12 11:18:36.54	116.77	73.86	
2025-01-12 11:18:36.74	116.48	73.94	
2025-01-12 11:18:36.96	116.15	74.04	
2025-01-12 11:18:37.17	115.84	74.13	
2025-01-12 11:18:37.37	115.53	74.21	
2025-01-12 11:18:37.58	115.21	74.30	
2025-01-12 11:18:37.79	114.89	74.39	
2025-01-12 11:18:37.99	114.57	74.47	
2025-01-12 11:18:38.19	114.26	74.55	
2025-01-12 11:18:38.40	113.92	74.64	
2025-01-12 11:18:38.61	113.58	74.73	
2025-01-12 11:18:38.81	113.25	74.81	
2025-01-12 11:18:39.01	112.92	74.89	
2025-01-12 11:18:39.22	112.56	74.97	
2025-01-12 11:18:39.43	112.21	75.06	
2025-01-12 11:18:39.63	111.86	75.14	
2025-01-12 11:18:39.84	111.50	75.22	
2025-01-12 11:18:40.04	111.15	75.30	
2025-01-12 11:18:40.24	110.79	75.38	
2025-01-12 11:18:40.45	110.42	75.46	
2025-01-12 11:18:40.66	110.03	75.54	
2025-01-12 11:18:40.86	109.67	75.62	
2025-01-12 11:18:41.07	109.27	75.70	
2025-01-12 11:18:41.27	108.90	75.77	
2025-01-12 11:18:41.48	108.50	75.85	
2025-01-12 11:18:41.68	108.11	75.92	
2025-01-12 11:18:41.89	107.71	76.00	
2025-01-12 11:18:42.09	107.31	76.07	
2025-01-12 11:18:42.30	106.89	76.15	
2025-01-12 11:18:42.50	106.49	76.22	
2025-01-12 11:18:42.71	106.07	76.30	
2025-01-12 11:18:42.91	105.65	76.37	
2025-01-12 11:18:43.12	105.22	76.44	
2025-01-12 11:18:43.32	104.80	76.51	
2025-01-12 11:18:43.53	104.35	76.58	
2025-01-12 11:18:43.73	103.92	76.65	
2025-01-12 11:18:43.94	103.47	76.72	
2025-01-12 11:18:44.15	103.01	76.79	
2025-01-12 11:18:44.35	102.56	76.86	
2025-01-12 11:18:44.56	102.09	76.92	
2025-01-12 11:18:44.76	101.64	76.99	
2025-01-12 11:18:44.96	101.18	77.05	
2025-01-12 11:18:45.17	100.70	77.12	
2025-01-12 11:18:45.37	100.23	77.18	
2025-01-12 11:18:45.58	99.73	77.24	
2025-01-12 11:18:45.78	99.26	77.30	
2025-01-12 11:18:45.99	98.75	77.36	
2025-01-12 11:18:46.19	98.27	77.42	
2025-01-12 11:18:46.40	97.75	77.48	
2025-01-12 11:18:46.60	97.26	77.54	
2025-01-12 11:18:46.81	96.73	77.60	
2025-01-12 11:18:47.02	96.20	77.65	
2025-01-12 11:18:47.22	95.69	77.71	
2025-01-12 11:18:47.43	95.15	77.76	
2025-01-12 11:18:47.65	94.58	77.82	
2025-01-12 11:18:47.85	94.06	77.87	
2025-01-12 11:18:48.06	93.50	77.92	
2025-01-12 11:18:48.26	92.97	77.97	
2025-01-12 11:18:48.47	92.41	78.02	
2025-01-12 11:18:48.67	91.87	78.07	
2025-01-12 11:18:48.88	91.29	78.11	
2025-01-12 11:18:49.08	90.74	78.16	
2025-01-12 11:18:49.29	90.16	78.20	
2025-01-12 11:18:49.49	89.60	78.25	
2025-01-12 11:18:49.70	89.01	78.29	
2025-01-12 11:18:49.90	88.44	78.33	
2025-01-12 11:18:50.10	87.87	78.37	
2025-01-12 11:18:50.31	87.27	78.41	
2025-01-12 11:18:50.51	86.69	78.44	
2025-01-12 11:18:50.72	86.08	78.48	
2025-01-12 11:18:50.92	85.49	78.52	
2025-01-12 11:18:51.13	84.87	78.55	
2025-01-12 11:18:51.34	84.25	78.58	
2025-01-12 11:18:51.54	83.65	78.61	
2025-01-12 11:18:51.75	83.02	78.64	
2025-01-12 11:18:51.95	82.42	78.67	
2025-01-12 11:18:52.15	81.81	78.70	
2025-01-12 11:18:52.36	81.17	78.72	
2025-01-12 11:18:52.56	80.56	78.75	
2025-01-12 11:18:52.77	79.91	78.77	
2025-01-12 11:18:52.97	79.30	78.79	
2025-01-12 11:18:53.18	78.65	78.82	
2025-01-12 11:18:53.39	77.99	78.84	
2025-01-12 11:18:53.59	77.37	78.85	
2025-01-12 11:18:53.80	76.71	78.87	
2025-01-12 11:18:54.00	76.08	78.88	
2025-01-12 11:18:54.21	75.42	78.90	
2025-01-12 11:18:54.41	74.79	78.91	
2025-01-12 11:18:54.62	74.13	78.92	
2025-01-12 11:18:54.82	73.49	78.93	
2025-01-12 11:18:55.02	72.86	78.94	
2025-01-12 11:18:55.23	72.19	78.95	
2025-01-12 11:18:55.44	71.52	78.95	
2025-01-12 11:18:55.64	70.89	78.96	
2025-01-12 11:18:55.85	70.22	78.96	
2025-01-12 11:18:56.05	69.58	78.96	
2025-01-12 11:18:56.26	68.91	78.96	
2025-01-12 11:18:56.46	68.27	78.96	
2025-01-12 11:18:56.67	67.60	78.96	
2025-01-12 11:18:56.87	66.97	78.95	
2025-01-12 11:18:57.08	66.30	78.94	
2025-01-12 11:18:57.28	65.66	78.94	
2025-01-12 11:18:57.49	65.00	78.93	
2025-01-12 11:18:57.69	64.36	78.92	
2025-01-12 11:18:57.90	63.70	78.91	
2025-01-12 11:18:58.10	63.07	78.90	
2025-01-12 11:18:58.31	62.41	78.88	
2025-01-12 11:18:58.51	61.78	78.87	
2025-01-12 11:18:58.72	61.12	78.85	
2025-01-12 11:18:58.92	60.50	78.83	
2025-01-12 11:18:59.13	59.85	78.81	
2025-01-12 11:18:59.33	59.23	78.79	
2025-01-12 11:18:59.54	58.58	78.77	
2025-01-12 11:18:59.75	57.94	78.74	
2025-01-12 11:18:59.95	57.33	78.72	
2025-01-12 11:19:00.16	56.69	78.69	
2025-01-12 11:19:00.36	56.08	78.66	
2025-01-12 11:19:00.56	55.48	78.64	
2025-01-12 11:19:00.77	54.85	78.61	
2025-01-12 11:19:00.98	54.23	78.57	
2025-01-12 11:19:01.18	53.63	78.54	
2025-01-12 11:19:01.39	53.01	78.51	
2025-01-12 11:19:01.59	52.43	78.47	
2025-01-12 11:19:01.80	51.82	78.43	
2025-01-12 11:19:02.01	51.21	78.40	
2025-01-12 11:19:02.21	50.64	78.36	
2025-01-12 11:19:02.42	50.04	78.32	
2025-01-12 11:19:02.62	49.47	78.28	
2025-01-12 11:19:02.83	48.89	78.23	
2025-01-12 11:19:03.03	48.33	78.19	
2025-01-12 11:19:03.24	47.75	78.15	
2025-01-12 11:19:03.44	47.20	78.10	
2025-01-12 11:19:03.64	46.65	78.05	
2025-01-12 11:19:03.85	46.09	78.01	
2025-01-12 11:19:04.06	45.52	77.96	
2025-01-12 11:19:04.26	44.99	77.91	
2025-01-12 11:19:04.47	44.44	77.85	
2025-01-12 11:19:04.69	43.87	77.80	
2025-01-12 11:19:04.89	43.35	77.75	
2025-01-12 11:19:05.10	42.81	77.69	
2025-01-12 11:19:05.30	42.30	77.64	
2025-01-12 11:19:05.51	41.78	77.58	
2025-01-12 11:19:05.71	41.28	77.52	
2025-01-12 11:19:05.92	40.76	77.46	
2025-01-12 11:19:06.12	40.27	77.41	
2025-01-12 11:19:06.33	39.76	77.35	
2025-01-12 11:19:06.54	39.26	77.28	
2025-01-12 11:19:06.74	38.78	77.22	
2025-01-12 11:19:06.94	38.31	77.16	
2025-01-12 11:19:07.15	37.83	77.10	
2025-01-12 11:19:07.35	37.37	77.03	
2025-01-12 11:19:07.56	36.89	76.97	
2025-01-12 11:19:07.76	36.44	76.90	
2025-01-12 11:19:07.97	35.97	76.84	
2025-01-12 11:19:08.17	35.53	76.77	
2025-01-12 11:19:08.38	35.07	76.70	
2025-01-12 11:19:08.59	34.61	76.63	
2025-01-12 11:19:08.79	34.19	76.56	
2025-01-12 11:19:09.00	33.74	76.49	
2025-01-12 11:19:09.20	33.32	76.42	
2025-01-12 11:19:09.41	32.89	76.35	
2025-01-12 11:19:09.61	32.48	76.28	
2025-01-12 11:19:09.82	32.05	76.20	
2025-01-12 11:19:10.02	31.65	76.13	
2025-01-12 11:19:10.23	31.24	76.05	
2025-01-12 11:19:10.43	30.84	75.98	
2025-01-12 11:19:10.64	30.44	75.90	
2025-01-12 11:19:10.84	30.05	75.83	
2025-01-12 11:19:11.05	29.66	75.75	
2025-01-12 11:19:11.25	29.28	75.67	
2025-01-12 11:19:11.46	28.89	75.59	
2025-01-12 11:19:11.66	28.53	75.52	
2025-01-12 11:19:11.87	28.15	75.44	
2025-01-12 11:19:12.07	27.79	75.36	
2025-01-12 11:19:12.28	27.42	75.28	
2025-01-12 11:19:12.49	27.05	75.19	
2025-01-12 11:19:12.69	26.70	75.11	
2025-01-12 11:19:12.90	26.34	75.03	
2025-01-12 11:19:13.10	26.01	74.95	
2025-01-12 11:19:13.31	25.65	74.87	
2025-01-12 11:19:13.51	25.32	74.78	
2025-01-12 11:19:13.72	24.98	74.70	
2025-01-12 11:19:13.93	24.64	74.61	
2025-01-12 11:19:14.13	24.32	74.53	
2025-01-12 11:19:14.33	24.01	74.45	
2025-01-12 11:19:14.54	23.68	74.36	
2025-01-12 11:19:14.74	23.37	74.28	
2025-01-12 11:19:14.95	23.05	74.19	
2025-01-12 11:19:15.15	22.75	74.10	
2025-01-12 11:19:15.37	22.42	74.01	
2025-01-12 11:19:15.58	22.11	73.92	
2025-01-12 11:19:15.78	21.82	73.84	
2025-01-12 11:19:15.99	21.52	73.75	
2025-01-12 11:19:16.19	21.23	73.66	
2025-01-12 11:19:16.40	20.94	73.57	
2025-01-12 11:19:16.60	20.66	73.48	
2025-01-12 11:19:16.81	20.37	73.39	
2025-01-12 11:19:17.01	20.10	73.30	
2025-01-12 11:19:17.22	19.82	73.21	
2025-01-12 11:19:17.42	19.55	73.12	
2025-01-12 11:19:17.63	19.27	73.03	
2025-01-12 11:19:17.83	19.01	72.94	
2025-01-12 11:19:18.04	18.74	72.85	
2025-01-12 11:19:18.25	18.48	72.76	
2025-01-12 11:19:18.45	18.23	72.67	
2025-01-12 11:19:18.66	17.96	72.57	
2025-01-12 11:19:18.86	17.72	72.48	
2025-01-12 11:19:19.07	17.46	72.39	
2025-01-12 11:19:19.27	17.22	72.30	
2025-01-12 11:19:19.48	16.97	72.20	
2025-01-12 11:19:19.68	16.74	72.11	
2025-01-12 11:19:19.89	16.49	72.02	
2025-01-12 11:19:20.09	16.26	71.93	
2025-01-12 11:19:20.30	16.03	71.83	
2025-01-12 11:19:20.50	15.80	71.74	
2025-01-12 11:19:20.72	15.56	71.64	
2025-01-12 11:19:20.93	15.32	71.54	
2025-01-12 11:19:21.13	15.11	71.45	
2025-01-12 11:19:21.34	14.88	71.35	
2025-01-12 11:19:21.54	14.67	71.26	
2025-01-12 11:19:21.75	14.45	71.16	
2025-01-12 11:19:21.95	14.24	71.07	
2025-01-12 11:19:22.16	14.02	70.97	
2025-01-12 11:19:22.36	13.82	70.88	
2025-01-12 11:19:22.57	13.61	70.78	
2025-01-12 11:19:22.77	13.41	70.69	
2025-01-12 11:19:22.98	13.20	70.59	
2025-01-12 11:19:23.18	13.00	70.50	
2025-01-12 11:19:23.39	12.80	70.40	
2025-01-12 11:19:23.59	12.61	70.31	
2025-01-12 11:19:23.80	12.41	70.21	
2025-01-12 11:19:24.00	12.22	70.11	
2025-01-12 11:19:24.21	12.03	70.01	
2025-01-12 11:19:24.41	11.84	69.92	
2025-01-12 11:19:24.62	11.65	69.82	
2025-01-12 11:19:24.82	11.47	69.73	
2025-01-12 11:19:25.04	11.28	69.62	
2025-01-12 11:19:25.25	11.09	69.52	
2025-01-12 11:19:25.45	10.92	69.43	
2025-01-12 11:19:25.66	10.74	69.33	
2025-01-12 11:19:25.86	10.57	69.23	
2025-01-12 11:19:26.07	10.39	69.13	
2025-01-12 11:19:26.27	10.22	69.04	
2025-01-12 11:19:26.48	10.05	68.94	
2025-01-12 11:19:26.68	9.89	68.84	
2025-01-12 11:19:26.89	9.71	68.74	
2025-01-12 11:19:27.09	9.55	68.65	
2025-01-12 11:19:27.30	9.39	68.55	
2025-01-12 11:19:27.50	9.23	68.45	
2025-01-12 11:19:27.71	9.07	68.35	
2025-01-12 11:19:27.91	8.91	68.26	
2025-01-12 11:19:28.12	8.75	68.16	
2025-01-12 11:19:28.32	8.60	68.06	
2025-01-12 11:19:28.53	8.44	67.96	
2025-01-12 11:19:28.73	8.29	67.87	
2025-01-12 11:19:28.94	8.14	67.77	
2025-01-12 11:19:29.14	7.99	67.67	
2025-01-12 11:19:29.35	7.84	67.57	
2025-01-12 11:19:29.56	7.69	67.47	
2025-01-12 11:19:29.76	7.55	67.38	
2025-01-12 11:19:29.97	7.40	67.27	
2025-01-12 11:19:30.17	7.26	67.18	
2025-01-12 11:19:30.38	7.12	67.08	
2025-01-12 11:19:30.58	6.98	66.98	
2025-01-12 11:19:30.79	6.84	66.88	
2025-01-12 11:19:31.00	6.70	66.78	
2025-01-12 11:19:31.20	6.57	66.69	
2025-01-12 11:19:31.40	6.44	66.59	
2025-01-12 11:19:31.61	6.30	66.49	
2025-01-12 11:19:31.82	6.17	66.39	
2025-01-12 11:19:32.02	6.04	66.29	
2025-01-12 11:19:32.23	5.91	66.19	
2025-01-12 11:19:32.43	5.78	66.10	
2025-01-12 11:19:32.64	5.65	66.00	
2025-01-12 11:19:32.84	5.53	65.90	
2025-01-12 11:19:33.04	5.40	65.81	
2025-01-12 11:19:33.25	5.28	65.71	
2025-01-12 11:19:33.46	5.15	65.61	
2025-01-12 11:19:33.66	5.03	65.51	
2025-01-12 11:19:33.87	4.91	65.41	
2025-01-12 11:19:34.07	4.79	65.31	
2025-01-12 11:19:34.28	4.67	65.21	
2025-01-12 11:19:34.48	4.56	65.12	
2025-01-12 11:19:34.69	4.44	65.02	
2025-01-12 11:19:34.89	4.33	64.92	
2025-01-12 11:19:35.10	4.21	64.82	
2025-01-12 11:19:35.30	4.10	64.73	
2025-01-12 11:19:35.51	3.98	64.63	
2025-01-12 11:19:35.71	3.87	64.53	
2025-01-12 11:19:35.92	3.76	64.43	
2025-01-12 11:19:36.12	3.65	64.34	
2025-01-12 11:19:36.33	3.54	64.24	
2025-01-12 11:19:36.53	3.44	64.14	
2025-01-12 11:19:36.74	3.33	64.04	
2025-01-12 11:19:36.94	3.23	63.95	
2025-01-12 11:19:37.15	3.12	63.85	
2025-01-12 11:19:37.35	3.02	63.75	
2025-01-12 11:19:37.56	2.91	63.66	
2025-01-12 11:19:37.77	2.81	63.56	
2025-01-12 11:19:37.97	2.71	63.46	
2025-01-12 11:19:38.18	2.60	63.36	
2025-01-12 11:19:38.38	2.51	63.27	
2025-01-12 11:19:38.58	2.41	63.17	
2025-01-12 11:19:38.79	2.31	63.07	
2025-01-12 11:19:38.99	2.21	62.98	
2025-01-12 11:19:39.20	2.12	62.88	
2025-01-12 11:19:39.40	2.02	62.79	
2025-01-12 11:19:39.61	1.92	62.69	
2025-01-12 11:19:39.81	1.83	62.59	
2025-01-12 11:19:40.02	1.74	62.50	
2025-01-12 11:19:40.23	1.64	62.40	
2025-01-12 11:19:40.43	1.55	62.30	
2025-01-12 11:19:40.64	1.46	62.20	
2025-01-12 11:19:40.84	1.37	62.11	
2025-01-12 11:19:41.05	1.28	62.01	
2025-01-12 11:19:41.25	1.19	61.92	
2025-01-12 11:19:41.45	1.11	61.83	
2025-01-12 11:19:41.66	1.02	61.73	
2025-01-12 11:19:41.87	0.93	61.63	
2025-01-12 11:19:42.07	0.84	61.54	
2025-01-12 11:19:42.27	0.76	61.44	
2025-01-12 11:19:42.48	0.67	61.35	
2025-01-12 11:19:42.69	0.59	61.25	
2025-01-12 11:19:42.89	0.50	61.16	
2025-01-12 11:19:43.09	0.42	61.06	
2025-01-12 11:19:43.30	0.34	60.97	
2025-01-12 11:19:43.51	0.25	60.87	
2025-01-12 11:19:43.71	0.18	60.78	
2025-01-12 11:19:43.92	0.09	60.68	
2025-01-12 11:19:44.12	0.01	60.59	
2025-01-12 11:19:44.33	359.93	60.49	
2025-01-12 11:19:44.53	359.86	60.40	
2025-01-12 11:19:44.74	359.78	60.30	
2025-01-12 11:19:44.94	359.70	60.21	
2025-01-12 11:19:45.14	359.63	60.12	
2025-01-12 11:19:45.35	359.55	60.02	
2025-01-12 11:19:45.56	359.47	59.93	
2025-01-12 11:19:45.76	359.40	59.83	
2025-01-12 11:19:45.97	359.32	59.74	
2025-01-12 11:19:46.17	359.25	59.65	
2025-01-12 11:19:46.38	359.17	59.55	
2025-01-12 11:19:46.58	359.10	59.46	
2025-01-12 11:19:46.78	359.03	59.37	
2025-01-12 11:19:46.99	358.96	59.27	
2025-01-12 11:19:47.19	358.89	59.18	
2025-01-12 11:19:47.40	358.81	59.09	
2025-01-12 11:19:47.60	358.74	59.00	
2025-01-12 11:19:47.81	358.67	58.90	
2025-01-12 11:19:48.01	358.61	58.81	
2025-01-12 11:19:48.22	358.53	58.72	
2025-01-12 11:19:48.42	358.47	58.63	
2025-01-12 11:19:48.63	358.40	58.53	
2025-01-12 11:19:48.83	358.33	58.44	
2025-01-12 11:19:49.04	358.26	58.35	
2025-01-12 11:19:49.24	358.20	58.26	
2025-01-12 11:19:49.44	358.13	58.17	
2025-01-12 11:19:49.65	358.07	58.08	
2025-01-12 11:19:49.86	358.00	57.98	
2025-01-12 11:19:50.06	357.94	57.89	
2025-01-12 11:19:50.27	357.87	57.80	
2025-01-12 11:19:50.47	357.81	57.71	
2025-01-12 11:19:50.67	357.75	57.62	
2025-01-12 11:19:50.88	357.68	57.53	
2025-01-12 11:19:51.09	357.62	57.43	
2025-01-12 11:19:51.29	357.56	57.35	
2025-01-12 11:19:51.50	357.49	57.25	
2025-01-12 11:19:51.70	357.43	57.16	
2025-01-12 11:19:51.91	357.37	57.07	
2025-01-12 11:19:52.11	357.31	56.98	
2025-01-12 11:19:52.32	357.25	56.89	
2025-01-12 11:19:52.52	357.19	56.80	
2025-01-12 11:19:52.73	357.13	56.71	
2025-01-12 11:19:52.93	357.07	56.62	
2025-01-12 11:19:53.14	357.01	56.53	
2025-01-12 11:19:53.34	356.96	56.44	
2025-01-12 11:19:53.55	356.90	56.35	
2025-01-12 11:19:53.75	356.84	56.27	
2025-01-12 11:19:53.96	356.78	56.17	
2025-01-12 11:19:54.16	356.73	56.09	
2025-01-12 11:19:54.37	356.67	56.00	
2025-01-12 11:19:54.57	356.62	55.91	
2025-01-12 11:19:54.78	356.56	55.82	
2025-01-12 11:19:54.98	356.51	55.73	
2025-01-12 11:19:55.19	356.45	55.64	
2025-01-12 11:19:55.39	356.40	55.55	
2025-01-12 11:19:55.60	356.34	55.46	
2025-01-12 11:19:55.80	356.29	55.38	
2025-01-12 11:19:56.00	356.24	55.29	
2025-01-12 11:19:56.21	356.18	55.20	
2025-01-12 11:19:56.42	356.13	55.11	
2025-01-12 11:19:56.62	356.08	55.03	
2025-01-12 11:19:56.82	356.03	54.94	
2025-01-12 11:19:57.03	355.97	54.85	
2025-01-12 11:19:57.23	355.92	54.77	
2025-01-12 11:19:57.44	355.87	54.68	
2025-01-12 11:19:57.64	355.82	54.59	
2025-01-12 11:19:57.85	355.77	54.50	
2025-01-12 11:19:58.07	355.71	54.41	
2025-01-12 11:19:58.27	355.67	54.33	
2025-01-12 11:19:58.48	355.62	54.24	
2025-01-12 11:19:58.69	355.56	54.15	
2025-01-12 11:19:58.89	355.52	54.07	
2025-01-12 11:19:59.09	355.47	53.98	
2025-01-12 11:19:59.30	355.42	53.89	
2025-01-12 11:19:59.50	355.37	53.81	
2025-01-12 11:19:59.71	355.32	53.72	
2025-01-12 11:19:59.91	355.28	53.64	
2025-01-12 11:20:00.12	355.23	53.55	
2025-01-12 11:20:00.32	355.18	53.47	
2025-01-12 11:20:00.53	355.14	53.38	
2025-01-12 11:20:00.73	355.09	53.30	
2025-01-12 11:20:00.94	355.04	53.21	
2025-01-12 11:20:01.14	355.00	53.13	
2025-01-12 11:20:01.35	354.95	53.04	
2025-01-12 11:20:01.56	354.91	52.95	
2025-01-12 11:20:01.76	354.86	52.87	
2025-01-12 11:20:01.97	354.82	52.79	
2025-01-12 11:20:02.17	354.77	52.70	
2025-01-12 11:20:02.37	354.73	52.62	
2025-01-12 11:20:02.58	354.68	52.54	
2025-01-12 11:20:02.78	354.64	52.45	
2025-01-12 11:20:02.99	354.60	52.37	
2025-01-12 11:20:03.19	354.56	52.29	
2025-01-12 11:20:03.40	354.51	52.20	
2025-01-12 11:20:03.60	354.47	52.12	
2025-01-12 11:20:03.81	354.43	52.04	
2025-01-12 11:20:04.02	354.38	51.95	
2025-01-12 11:20:04.22	354.34	51.87	
2025-01-12 11:20:04.42	354.30	51.79	
2025-01-12 11:20:04.63	354.26	51.70	
2025-01-12 11:20:04.84	354.22	51.62	
2025-01-12 11:20:05.04	354.18	51.54	
2025-01-12 11:20:05.25	354.13	51.46	
2025-01-12 11:20:05.45	354.10	51.38	
2025-01-12 11:20:05.66	354.05	51.29	
2025-01-12 11:20:05.86	354.01	51.21	
2025-01-12 11:20:06.07	353.97	51.13	
2025-01-12 11:20:06.28	353.93	51.04	
2025-01-12 11:20:06.48	353.89	50.97	
2025-01-12 11:20:06.69	353.85	50.88	
2025-01-12 11:20:06.89	353.82	50.80	
2025-01-12 11:20:07.10	353.78	50.72	
2025-01-12 11:20:07.30	353.74	50.64	
2025-01-12 11:20:07.50	353.70	50.56	
2025-01-12 11:20:07.71	353.66	50.48	
2025-01-12 11:20:07.91	353.63	50.40	
2025-01-12 11:20:08.12	353.59	50.32	
2025-01-12 11:20:08.32	353.55	50.24	
2025-01-12 11:20:08.53	353.51	50.16	
2025-01-12 11:20:08.75	353.47	50.07	
2025-01-12 11:20:08.95	353.44	50.00	
2025-01-12 11:20:09.16	353.40	49.91	
2025-01-12 11:20:09.36	353.36	49.84	
2025-01-12 11:20:09.57	353.33	49.76	
2025-01-12 11:20:09.77	353.29	49.68	
2025-01-12 11:20:09.98	353.25	49.60	
2025-01-12 11:20:10.18	353.22	49.52	
2025-01-12 11:20:10.39	353.18	49.44	
2025-01-12 11:20:10.59	353.15	49.36	
2025-01-12 11:20:10.80	353.11	49.28	
2025-01-12 11:20:11.00	353.08	49.21	
2025-01-12 11:20:11.21	353.04	49.13	
2025-01-12 11:20:11.41	353.01	49.05	
2025-01-12 11:20:11.62	352.97	48.97	
2025-01-12 11:20:11.82	352.94	48.89	
2025-01-12 11:20:12.03	352.91	48.81	
2025-01-12 11:20:12.23	352.87	48.74	
2025-01-12 11:20:12.44	352.84	48.66	
2025-01-12 11:20:12.65	352.80	48.58	
2025-01-12 11:20:12.85	352.77	48.50	
2025-01-12 11:20:13.06	352.74	48.43	
2025-01-12 11:20:13.26	352.70	48.35	
2025-01-12 11:20:13.47	352.67	48.27	
2025-01-12 11:20:13.67	352.64	48.20	
2025-01-12 11:20:13.88	352.61	48.12	
2025-01-12 11:20:14.08	352.57	48.04	
2025-01-12 11:20:14.29	352.54	47.97	
2025-01-12 11:20:14.50	352.51	47.89	
2025-01-12 11:20:14.70	352.48	47.81	
2025-01-12 11:20:14.91	352.44	47.74	
2025-01-12 11:20:15.11	352.41	47.66	
2025-01-12 11:20:15.32	352.38	47.58	
2025-01-12 11:20:15.52	352.35	47.51	
2025-01-12 11:20:15.73	352.32	47.43	
2025-01-12 11:20:15.93	352.29	47.36	
2025-01-12 11:20:16.15	352.26	47.28	
2025-01-12 11:20:16.35	352.23	47.21	
2025-01-12 11:20:16.56	352.20	47.13	
2025-01-12 11:20:16.76	352.17	47.06	
2025-01-12 11:20:16.97	352.14	46.98	
2025-01-12 11:20:17.17	352.11	46.91	
2025-01-12 11:20:17.38	352.08	46.83	
2025-01-12 11:20:17.58	352.05	46.76	
2025-01-12 11:20:17.79	352.02	46.68	
2025-01-12 11:20:18.00	351.99	46.61	
2025-01-12 11:20:18.20	351.96	46.54	
2025-01-12 11:20:18.41	351.93	46.46	
2025-01-12 11:20:18.61	351.90	46.39	
2025-01-12 11:20:18.82	351.87	46.31	
2025-01-12 11:20:19.02	351.84	46.24	
2025-01-12 11:20:19.23	351.81	46.17	
2025-01-12 11:20:19.43	351.78	46.10	
2025-01-12 11:20:19.64	351.76	46.02	
2025-01-12 11:20:19.85	351.73	45.95	
2025-01-12 11:20:20.05	351.70	45.88	
2025-01-12 11:20:20.25	351.67	45.80	
2025-01-12 11:20:20.46	351.64	45.73	
2025-01-12 11:20:20.66	351.62	45.66	
2025-01-12 11:20:20.87	351.59	45.59	
2025-01-12 11:20:21.08	351.56	45.51	
2025-01-12 11:20:21.28	351.53	45.44	
2025-01-12 11:20:21.48	351.51	45.37	
2025-01-12 11:20:21.69	351.48	45.30	
2025-01-12 11:20:21.89	351.45	45.23	
2025-01-12 11:20:22.10	351.43	45.16	
2025-01-12 11:20:22.31	351.40	45.08	
2025-01-12 11:20:22.51	351.37	45.01	
2025-01-12 11:20:22.71	351.35	44.94	
2025-01-12 11:20:22.92	351.32	44.87	
2025-01-12 11:20:23.13	351.29	44.80	
2025-01-12 11:20:23.33	351.27	44.73	
2025-01-12 11:20:23.54	351.24	44.66	
2025-01-12 11:20:23.74	351.22	44.59	
2025-01-12 11:20:23.95	351.19	44.52	
2025-01-12 11:20:24.15	351.17	44.45	
2025-01-12 11:20:24.36	351.14	44.38	
2025-01-12 11:20:24.56	351.12	44.31	
2025-01-12 11:20:24.77	351.09	44.24	
2025-01-12 11:20:24.97	351.07	44.17	
2025-01-12 11:20:25.18	351.04	44.10	
2025-01-12 11:20:25.38	351.02	44.03	
2025-01-12 11:20:25.59	350.99	43.96	
2025-01-12 11:20:25.81	350.96	43.89	
2025-01-12 11:20:26.01	350.94	43.82	
2025-01-12 11:20:26.22	350.92	43.75	
2025-01-12 11:20:26.43	350.89	43.68	
2025-01-12 11:20:26.63	350.87	43.61	
2025-01-12 11:20:26.83	350.84	43.54	
2025-01-12 11:20:27.04	350.82	43.47	
2025-01-12 11:20:27.24	350.80	43.41	
2025-01-12 11:20:27.45	350.77	43.34	
2025-01-12 11:20:27.66	350.75	43.27	
2025-01-12 11:20:27.86	350.72	43.20	
2025-01-12 11:20:28.07	350.70	43.13	
2025-01-12 11:20:28.27	350.68	43.07	
2025-01-12 11:20:28.48	350.65	43.00	
2025-01-12 11:20:28.68	350.63	42.93	
2025-01-12 11:20:28.89	350.61	42.86	
2025-01-12 11:20:29.09	350.59	42.80	
2025-01-12 11:20:29.30	350.56	42.73	
2025-01-12 11:20:29.50	350.54	42.66	
2025-01-12 11:20:29.71	350.52	42.60	
2025-01-12 11:20:29.92	350.49	42.53	
2025-01-12 11:20:30.12	350.47	42.46	
2025-01-12 11:20:30.32	350.45	42.40	
2025-01-12 11:20:30.53	350.43	42.33	
2025-01-12 11:20:30.73	350.41	42.26	
2025-01-12 11:20:30.94	350.38	42.20	
2025-01-12 11:20:31.14	350.36	42.13	
2025-01-12 11:20:31.35	350.34	42.07	
2025-01-12 11:20:31.55	350.32	42.00	
2025-01-12 11:20:31.76	350.30	41.93	
2025-01-12 11:20:31.97	350.27	41.87	
2025-01-12 11:20:32.17	350.25	41.80	
2025-01-12 11:20:32.37	350.23	41.74	
2025-01-12 11:20:32.58	350.21	41.67	
2025-01-12 11:20:32.78	350.19	41.61	
2025-01-12 11:20:32.99	350.17	41.54	
2025-01-12 11:20:33.19	350.15	41.48	
2025-01-12 11:20:33.40	350.13	41.41	
2025-01-12 11:20:33.61	350.11	41.35	
2025-01-12 11:20:33.81	350.08	41.28	
2025-01-12 11:20:34.01	350.06	41.22	
2025-01-12 11:20:34.22	350.04	41.16	
2025-01-12 11:20:34.42	350.02	41.09	
2025-01-12 11:20:34.63	350.00	41.03	
2025-01-12 11:20:34.83	349.98	40.97	
2025-01-12 11:20:35.04	349.96	40.90	
2025-01-12 11:20:35.24	349.94	40.84	
2025-01-12 11:20:35.45	349.92	40.77	
2025-01-12 11:20:35.65	349.90	40.71	
2025-01-12 11:20:35.86	349.88	40.65	
2025-01-12 11:20:36.06	349.86	40.59	
2025-01-12 11:20:36.27	349.84	40.52	
2025-01-12 11:20:36.47	349.82	40.46	
2025-01-12 11:20:36.67	349.80	40.40	
2025-01-12 11:20:36.88	349.78	40.33	
2025-01-12 11:20:37.09	349.76	40.27	
2025-01-12 11:20:37.29	349.75	40.21	
2025-01-12 11:20:37.49	349.73	40.15	
2025-01-12 11:20:37.70	349.71	40.08	
2025-01-12 11:20:37.90	349.69	40.02	
2025-01-12 11:20:38.11	349.67	39.96	
2025-01-12 11:20:38.31	349.65	39.90	
2025-01-12 11:20:38.52	349.63	39.84	
2025-01-12 11:20:38.72	349.61	39.78	
2025-01-12 11:20:38.93	349.59	39.71	
2025-01-12 11:20:39.13	349.58	39.65	
2025-01-12 11:20:39.34	349.56	39.59	
2025-01-12 11:20:39.54	349.54	39.53	
2025-01-12 11:20:39.75	349.52	39.47	
2025-01-12 11:20:39.95	349.50	39.41	
2025-01-12 11:20:40.16	349.48	39.35	
2025-01-12 11:20:40.36	349.47	39.29	
2025-01-12 11:20:40.57	349.45	39.22	
2025-01-12 11:20:40.77	349.43	39.17	
2025-01-12 11:20:40.98	349.41	39.10	
2025-01-12 11:20:41.18	349.39	39.04	
2025-01-12 11:20:41.39	349.38	38.98	
2025-01-12 11:20:41.59	349.36	38.92	
2025-01-12 11:20:41.79	349.34	38.87	
2025-01-12 11:20:42.00	349.32	38.80	
2025-01-12 11:20:42.21	349.30	38.74	
2025-01-12 11:20:42.41	349.29	38.68	
2025-01-12 11:20:42.62	349.27	38.62	
2025-01-12 11:20:42.82	349.25	38.57	
2025-01-12 11:20:43.03	349.24	38.50	
2025-01-12 11:20:43.23	349.22	38.45	
2025-01-12 11:20:43.44	349.20	38.39	
2025-01-12 11:20:43.65	349.18	38.33	
2025-01-12 11:20:43.85	349.17	38.27	
2025-01-12 11:20:44.05	349.15	38.21	
2025-01-12 11:20:44.26	349.13	38.15	
2025-01-12 11:20:44.47	349.12	38.09	
2025-01-12 11:20:44.67	349.10	38.03	
2025-01-12 11:20:44.88	349.08	37.97	
2025-01-12 11:20:45.08	349.07	37.92	
2025-01-12 11:20:45.29	349.05	37.86	
2025-01-12 11:20:45.49	349.03	37.80	
2025-01-12 11:20:45.70	349.02	37.74	
2025-01-12 11:20:45.90	349.00	37.68	
2025-01-12 11:20:46.11	348.98	37.62	
2025-01-12 11:20:46.31	348.97	37.57	
2025-01-12 11:20:46.52	348.95	37.51	
2025-01-12 11:20:46.72	348.94	37.45	
2025-01-12 11:20:46.93	348.92	37.39	
2025-01-12 11:20:47.13	348.90	37.34	
2025-01-12 11:20:47.34	348.89	37.28	
2025-01-12 11:20:47.54	348.87	37.22	
2025-01-12 11:20:47.75	348.85	37.17	
2025-01-12 11:20:47.95	348.84	37.11	
2025-01-12 11:20:48.17	348.82	37.05	
2025-01-12 11:20:48.38	348.81	36.99	
2025-01-12 11:20:48.58	348.79	36.94	
2025-01-12 11:20:48.79	348.78	36.88	
2025-01-12 11:20:48.99	348.76	36.82	
2025-01-12 11:20:49.20	348.74	36.77	
2025-01-12 11:20:49.40	348.73	36.71	
2025-01-12 11:20:49.60	348.71	36.66	
2025-01-12 11:20:49.81	348.70	36.60	
2025-01-12 11:20:50.02	348.68	36.54	
2025-01-12 11:20:50.22	348.67	36.49	
2025-01-12 11:20:50.42	348.65	36.43	
2025-01-12 11:20:50.63	348.64	36.38	
2025-01-12 11:20:50.83	348.62	36.32	
2025-01-12 11:20:51.04	348.61	36.27	
2025-01-12 11:20:51.24	348.59	36.21	
2025-01-12 11:20:51.45	348.58	36.15	
2025-01-12 11:20:51.65	348.56	36.10	
2025-01-12 11:20:51.86	348.55	36.04	
2025-01-12 11:20:52.06	348.54	35.99	
2025-01-12 11:20:52.27	348.52	35.93	
2025-01-12 11:20:52.47	348.51	35.88	
2025-01-12 11:20:52.68	348.49	35.83	
2025-01-12 11:20:52.88	348.48	35.77	
2025-01-12 11:20:53.09	348.46	35.72	
2025-01-12 11:20:53.29	348.45	35.66	
2025-01-12 11:20:53.50	348.43	35.61	
2025-01-12 11:20:53.70	348.42	35.56	
2025-01-12 11:20:53.91	348.41	35.50	
2025-01-12 11:20:54.11	348.39	35.45	
2025-01-12 11:20:54.32	348.38	35.39	
2025-01-12 11:20:54.53	348.36	35.34	
2025-01-12 11:20:54.74	348.35	35.28	
2025-01-12 11:20:54.95	348.33	35.23	
2025-01-12 11:20:55.15	348.32	35.17	
2025-01-12 11:20:55.36	348.31	35.12	
2025-01-12 11:20:55.56	348.29	35.07	
2025-01-12 11:20:55.77	348.28	35.01	
2025-01-12 11:20:55.97	348.27	34.96	
2025-01-12 11:20:56.18	348.25	34.91	
2025-01-12 11:20:56.38	348.24	34.86	
2025-01-12 11:20:56.58	348.23	34.80	
2025-01-12 11:20:56.79	348.21	34.75	
2025-01-12 11:20:57.00	348.20	34.70	
2025-01-12 11:20:57.20	348.18	34.65	
2025-01-12 11:20:57.41	348.17	34.59	
2025-01-12 11:20:57.61	348.16	34.54	
2025-01-12 11:20:57.82	348.14	34.49	
2025-01-12 11:20:58.03	348.13	34.43	
2025-01-12 11:20:58.23	348.12	34.38	
2025-01-12 11:20:58.43	348.10	34.33	
2025-01-12 11:20:58.64	348.09	34.28	
2025-01-12 11:20:58.86	348.08	34.22	
2025-01-12 11:20:59.06	348.06	34.17	
2025-01-12 11:20:59.27	348.05	34.12	
2025-01-12 11:20:59.47	348.04	34.07	
2025-01-12 11:20:59.68	348.03	34.02	
2025-01-12 11:20:59.88	348.01	33.97	
2025-01-12 11:21:00.10	348.00	33.91	
2025-01-12 11:21:00.30	347.99	33.86	
2025-01-12 11:21:00.51	347.97	33.81	
2025-01-12 11:21:00.71	347.96	33.76	
2025-01-12 11:21:00.93	347.95	33.71	
2025-01-12 11:21:01.14	347.94	33.65	
2025-01-12 11:21:01.34	347.92	33.60	
2025-01-12 11:21:01.55	347.91	33.55	
2025-01-12 11:21:01.75	347.90	33.50	
2025-01-12 11:21:01.96	347.89	33.45	
2025-01-12 11:21:02.16	347.87	33.40	
2025-01-12 11:21:02.37	347.86	33.35	
2025-01-12 11:21:02.57	347.85	33.30	
2025-01-12 11:21:02.78	347.84	33.25	
2025-01-12 11:21:02.98	347.82	33.20	
2025-01-12 11:21:03.19	347.81	33.15	
2025-01-12 11:21:03.39	347.80	33.10	
2025-01-12 11:21:03.60	347.79	33.05	
2025-01-12 11:21:03.81	347.78	33.00	
2025-01-12 11:21:04.03	347.76	32.95	
2025-01-12 11:21:04.23	347.75	32.90	
2025-01-12 11:21:04.44	347.74	32.85	
2025-01-12 11:21:04.64	347.73	32.80	
2025-01-12 11:21:04.85	347.72	32.75	
2025-01-12 11:21:05.05	347.70	32.70	
2025-01-12 11:21:05.26	347.69	32.65	
2025-01-12 11:21:05.46	347.68	32.60	
2025-01-12 11:21:05.67	347.67	32.55	
2025-01-12 11:21:05.88	347.66	32.50	
2025-01-12 11:21:06.08	347.65	32.46	
2025-01-12 11:21:06.30	347.63	32.40	
2025-01-12 11:21:06.51	347.62	32.35	
2025-01-12 11:21:06.71	347.61	32.31	
2025-01-12 11:21:06.92	347.60	32.26	
2025-01-12 11:21:07.12	347.59	32.21	
2025-01-12 11:21:07.33	347.58	32.16	
2025-01-12 11:21:07.53	347.56	32.11	
2025-01-12 11:21:07.74	347.55	32.06	
2025-01-12 11:21:07.94	347.54	32.02	
2025-01-12 11:21:08.15	347.53	31.97	
2025-01-12 11:21:08.35	347.52	31.92	
2025-01-12 11:21:08.56	347.51	31.87	
2025-01-12 11:21:08.76	347.50	31.83	
2025-01-12 11:21:08.97	347.49	31.78	
2025-01-12 11:21:09.17	347.48	31.73	
2025-01-12 11:21:09.37	347.47	31.68	
2025-01-12 11:21:09.58	347.45	31.64	
2025-01-12 11:21:09.78	347.44	31.59	
2025-01-12 11:21:09.99	347.43	31.54	
2025-01-12 11:21:10.19	347.42	31.50	
2025-01-12 11:21:10.40	347.41	31.45	
2025-01-12 11:21:10.60	347.40	31.40	
2025-01-12 11:21:10.81	347.39	31.35	
2025-01-12 11:21:11.01	347.38	31.31	
2025-01-12 11:21:11.22	347.37	31.26	
2025-01-12 11:21:11.42	347.36	31.21	
2025-01-12 11:21:11.64	347.35	31.16	
2025-01-12 11:21:11.85	347.33	31.12	
2025-01-12 11:21:12.06	347.32	31.07	
2025-01-12 11:21:12.26	347.31	31.02	
2025-01-12 11:21:12.47	347.30	30.98	
2025-01-12 11:21:12.67	347.29	30.93	
2025-01-12 11:21:12.87	347.28	30.89	
2025-01-12 11:21:13.08	347.27	30.84	
2025-01-12 11:21:13.29	347.26	30.79	
2025-01-12 11:21:13.49	347.25	30.75	
2025-01-12 11:21:13.70	347.24	30.70	
2025-01-12 11:21:13.90	347.23	30.66	
2025-01-12 11:21:14.11	347.22	30.61	
