passes_logs/2025/01/12/SPB_Silybum_02/SPB_Silybum_02__20250112_074424_SUOMI_NPP_rec.log

#Pass ID: 20250112_074424_SUOMI NPP
#Satellite: SUOMI NPP
#Configuration: NPP
#Start time: 2025-01-12 07:50:19

#Version: 2.0.20230423
#Station: SPB_Silybum_02
#Location: 30.233357 lon 59.946436 lat
#TLE: 1 37849U 11061A   25011.81852258  .00000147  00000+0  90749-4 0  9992
#TLE: 2 37849  98.7442 312.8475 0001799  45.9067 314.2257 14.19536766684464

#Time	Az	El	Level	Level2	SNR	BER	Gain	Gain2
2025-01-12 07:50:21.43	25.14	15.95	
2025-01-12 07:50:21.63	25.10	15.95	
2025-01-12 07:50:21.84	25.05	15.94	
2025-01-12 07:50:22.04	25.01	15.94	
2025-01-12 07:50:22.25	24.96	15.93	
2025-01-12 07:50:22.45	24.92	15.93	
2025-01-12 07:50:22.66	24.88	15.93	
2025-01-12 07:50:22.86	24.83	15.92	
2025-01-12 07:50:23.07	24.79	15.92	
2025-01-12 07:50:23.27	24.75	15.91	
2025-01-12 07:50:23.48	24.70	15.91	
2025-01-12 07:50:23.68	24.66	15.90	
2025-01-12 07:50:23.89	24.61	15.90	
2025-01-12 07:50:24.09	24.57	15.89	
2025-01-12 07:50:24.30	24.53	15.89	
2025-01-12 07:50:24.50	24.48	15.89	
2025-01-12 07:50:24.71	24.44	15.88	
2025-01-12 07:50:24.91	24.40	15.88	
2025-01-12 07:50:25.12	24.35	15.87	
2025-01-12 07:50:25.32	24.31	15.87	
2025-01-12 07:50:25.52	24.27	15.86	
2025-01-12 07:50:25.73	24.22	15.86	
2025-01-12 07:50:25.93	24.18	15.85	
2025-01-12 07:50:26.14	24.13	15.85	
2025-01-12 07:50:26.34	24.09	15.84	
2025-01-12 07:50:26.55	24.05	15.84	
2025-01-12 07:50:26.75	24.00	15.84	
2025-01-12 07:50:26.96	23.96	15.83	
2025-01-12 07:50:27.16	23.92	15.83	
2025-01-12 07:50:27.37	23.87	15.82	
2025-01-12 07:50:27.57	23.83	15.82	
2025-01-12 07:50:27.78	23.78	15.81	
2025-01-12 07:50:27.98	23.74	15.81	
2025-01-12 07:50:28.19	23.70	15.80	
2025-01-12 07:50:28.39	23.66	15.80	
2025-01-12 07:50:28.60	23.61	15.79	
2025-01-12 07:50:28.80	23.57	15.79	
2025-01-12 07:50:29.01	23.52	15.78	
2025-01-12 07:50:29.21	23.48	15.78	
2025-01-12 07:50:29.42	23.44	15.77	
2025-01-12 07:50:29.62	23.39	15.77	
2025-01-12 07:50:29.83	23.35	15.76	
2025-01-12 07:50:30.03	23.31	15.76	
2025-01-12 07:50:30.24	23.26	15.75	
2025-01-12 07:50:30.44	23.22	15.75	
2025-01-12 07:50:30.65	23.18	15.74	
2025-01-12 07:50:30.85	23.13	15.74	
2025-01-12 07:50:31.06	23.09	15.73	
2025-01-12 07:50:31.26	23.05	15.73	
2025-01-12 07:50:31.47	23.00	15.72	
2025-01-12 07:50:31.67	22.96	15.72	
2025-01-12 07:50:31.88	22.92	15.71	
2025-01-12 07:50:32.08	22.87	15.71	
2025-01-12 07:50:32.29	22.83	15.70	
2025-01-12 07:50:32.49	22.79	15.70	
2025-01-12 07:50:32.70	22.74	15.69	
2025-01-12 07:50:32.90	22.70	15.69	
2025-01-12 07:50:33.11	22.66	15.68	
2025-01-12 07:50:33.32	22.61	15.68	
2025-01-12 07:50:33.52	22.57	15.67	
2025-01-12 07:50:33.73	22.53	15.67	
2025-01-12 07:50:33.94	22.48	15.66	
2025-01-12 07:50:34.14	22.44	15.65	
2025-01-12 07:50:34.35	22.40	15.65	
2025-01-12 07:50:34.55	22.35	15.64	
2025-01-12 07:50:34.76	22.31	15.64	
2025-01-12 07:50:34.96	22.27	15.63	
2025-01-12 07:50:35.17	22.22	15.63	
2025-01-12 07:50:35.37	22.18	15.62	
2025-01-12 07:50:35.57	22.14	15.62	
2025-01-12 07:50:35.78	22.10	15.61	
2025-01-12 07:50:35.98	22.06	15.61	
2025-01-12 07:50:36.19	22.01	15.60	
2025-01-12 07:50:36.40	21.97	15.60	
2025-01-12 07:50:36.60	21.93	15.59	
2025-01-12 07:50:36.81	21.88	15.58	
2025-01-12 07:50:37.01	21.84	15.58	
2025-01-12 07:50:37.22	21.80	15.57	
2025-01-12 07:50:37.43	21.75	15.57	
2025-01-12 07:50:37.63	21.71	15.56	
2025-01-12 07:50:37.83	21.67	15.56	
2025-01-12 07:50:38.04	21.62	15.55	
2025-01-12 07:50:38.24	21.58	15.55	
2025-01-12 07:50:38.45	21.54	15.54	
2025-01-12 07:50:38.65	21.50	15.53	
2025-01-12 07:50:38.86	21.45	15.53	
2025-01-12 07:50:39.06	21.41	15.52	
2025-01-12 07:50:39.27	21.37	15.52	
2025-01-12 07:50:39.47	21.33	15.51	
2025-01-12 07:50:39.68	21.28	15.51	
2025-01-12 07:50:39.88	21.24	15.50	
2025-01-12 07:50:40.09	21.20	15.50	
2025-01-12 07:50:40.29	21.16	15.49	
2025-01-12 07:50:40.50	21.11	15.48	
2025-01-12 07:50:40.70	21.07	15.48	
2025-01-12 07:50:40.92	21.03	15.47	
2025-01-12 07:50:41.13	20.98	15.47	
2025-01-12 07:50:41.33	20.94	15.46	
2025-01-12 07:50:41.53	20.90	15.45	
2025-01-12 07:50:41.74	20.86	15.45	
2025-01-12 07:50:41.94	20.81	15.44	
2025-01-12 07:50:42.15	20.77	15.44	
2025-01-12 07:50:42.36	20.73	15.43	
2025-01-12 07:50:42.56	20.69	15.43	
2025-01-12 07:50:42.77	20.64	15.42	
2025-01-12 07:50:42.97	20.60	15.41	
2025-01-12 07:50:43.17	20.56	15.41	
2025-01-12 07:50:43.38	20.52	15.40	
2025-01-12 07:50:43.58	20.47	15.40	
2025-01-12 07:50:43.79	20.43	15.39	
2025-01-12 07:50:44.00	20.39	15.38	
2025-01-12 07:50:44.20	20.35	15.38	
2025-01-12 07:50:44.41	20.30	15.37	
2025-01-12 07:50:44.61	20.26	15.37	
2025-01-12 07:50:44.82	20.22	15.36	
2025-01-12 07:50:45.02	20.18	15.35	
2025-01-12 07:50:45.22	20.14	15.35	
2025-01-12 07:50:45.43	20.09	15.34	
2025-01-12 07:50:45.63	20.05	15.34	
2025-01-12 07:50:45.84	20.01	15.33	
2025-01-12 07:50:46.04	19.97	15.32	
2025-01-12 07:50:46.25	19.92	15.32	
2025-01-12 07:50:46.45	19.88	15.31	
2025-01-12 07:50:46.66	19.84	15.30	
2025-01-12 07:50:46.86	19.80	15.30	
2025-01-12 07:50:47.07	19.76	15.29	
2025-01-12 07:50:47.28	19.71	15.29	
2025-01-12 07:50:47.49	19.67	15.28	
2025-01-12 07:50:47.69	19.63	15.27	
2025-01-12 07:50:47.90	19.59	15.27	
2025-01-12 07:50:48.10	19.55	15.26	
2025-01-12 07:50:48.31	19.50	15.25	
2025-01-12 07:50:48.51	19.46	15.25	
2025-01-12 07:50:48.71	19.42	15.24	
2025-01-12 07:50:48.92	19.38	15.24	
2025-01-12 07:50:49.12	19.34	15.23	
2025-01-12 07:50:49.33	19.29	15.22	
2025-01-12 07:50:49.53	19.25	15.22	
2025-01-12 07:50:49.74	19.21	15.21	
2025-01-12 07:50:49.94	19.17	15.20	
2025-01-12 07:50:50.15	19.13	15.20	
2025-01-12 07:50:50.36	19.08	15.19	
2025-01-12 07:50:50.56	19.04	15.18	
2025-01-12 07:50:50.77	19.00	15.18	
2025-01-12 07:50:50.97	18.96	15.17	
2025-01-12 07:50:51.18	18.92	15.17	
2025-01-12 07:50:51.38	18.88	15.16	
2025-01-12 07:50:51.59	18.83	15.15	
2025-01-12 07:50:51.79	18.79	15.15	
2025-01-12 07:50:52.00	18.75	15.14	
2025-01-12 07:50:52.20	18.71	15.13	
2025-01-12 07:50:52.41	18.67	15.13	
2025-01-12 07:50:52.62	18.63	15.12	
2025-01-12 07:50:52.82	18.59	15.11	
2025-01-12 07:50:53.02	18.54	15.11	
2025-01-12 07:50:53.23	18.50	15.10	
2025-01-12 07:50:53.44	18.46	15.09	
2025-01-12 07:50:53.64	18.42	15.09	
2025-01-12 07:50:53.85	18.38	15.08	
2025-01-12 07:50:54.05	18.34	15.07	
2025-01-12 07:50:54.26	18.29	15.07	
2025-01-12 07:50:54.46	18.25	15.06	
2025-01-12 07:50:54.67	18.21	15.05	
2025-01-12 07:50:54.88	18.17	15.05	
2025-01-12 07:50:55.09	18.13	15.04	
2025-01-12 07:50:55.30	18.08	15.03	
2025-01-12 07:50:55.50	18.04	15.03	
2025-01-12 07:50:55.71	18.00	15.02	
2025-01-12 07:50:55.91	17.96	15.01	
2025-01-12 07:50:56.12	17.92	15.01	
2025-01-12 07:50:56.32	17.88	15.00	
2025-01-12 07:50:56.53	17.84	14.99	
2025-01-12 07:50:56.73	17.80	14.98	
2025-01-12 07:50:56.94	17.75	14.98	
2025-01-12 07:50:57.15	17.71	14.97	
2025-01-12 07:50:57.35	17.67	14.96	
2025-01-12 07:50:57.56	17.63	14.96	
2025-01-12 07:50:57.76	17.59	14.95	
2025-01-12 07:50:57.97	17.55	14.94	
2025-01-12 07:50:58.17	17.51	14.94	
2025-01-12 07:50:58.38	17.47	14.93	
2025-01-12 07:50:58.58	17.43	14.92	
2025-01-12 07:50:58.79	17.38	14.92	
2025-01-12 07:50:58.99	17.34	14.91	
2025-01-12 07:50:59.20	17.30	14.90	
2025-01-12 07:50:59.40	17.26	14.89	
2025-01-12 07:50:59.61	17.22	14.89	
2025-01-12 07:50:59.81	17.18	14.88	
2025-01-12 07:51:00.02	17.14	14.87	
2025-01-12 07:51:00.23	17.10	14.87	
2025-01-12 07:51:00.43	17.06	14.86	
2025-01-12 07:51:00.64	17.02	14.85	
2025-01-12 07:51:00.85	16.97	14.84	
2025-01-12 07:51:01.05	16.93	14.84	
2025-01-12 07:51:01.27	16.89	14.83	
2025-01-12 07:51:01.47	16.85	14.82	
2025-01-12 07:51:01.68	16.81	14.82	
2025-01-12 07:51:01.88	16.77	14.81	
2025-01-12 07:51:02.09	16.73	14.80	
2025-01-12 07:51:02.29	16.69	14.79	
2025-01-12 07:51:02.50	16.65	14.79	
2025-01-12 07:51:02.70	16.61	14.78	
2025-01-12 07:51:02.91	16.57	14.77	
2025-01-12 07:51:03.11	16.53	14.77	
2025-01-12 07:51:03.32	16.48	14.76	
2025-01-12 07:51:03.52	16.44	14.75	
2025-01-12 07:51:03.73	16.40	14.74	
2025-01-12 07:51:03.93	16.36	14.74	
2025-01-12 07:51:04.13	16.32	14.73	
2025-01-12 07:51:04.34	16.28	14.72	
2025-01-12 07:51:04.56	16.24	14.71	
2025-01-12 07:51:04.76	16.20	14.71	
2025-01-12 07:51:04.97	16.16	14.70	
2025-01-12 07:51:05.17	16.12	14.69	
2025-01-12 07:51:05.38	16.08	14.69	
2025-01-12 07:51:05.58	16.04	14.68	
2025-01-12 07:51:05.79	16.00	14.67	
2025-01-12 07:51:05.99	15.96	14.66	
2025-01-12 07:51:06.20	15.92	14.66	
2025-01-12 07:51:06.40	15.88	14.65	
2025-01-12 07:51:06.61	15.84	14.64	
2025-01-12 07:51:06.81	15.80	14.63	
2025-01-12 07:51:07.02	15.76	14.63	
2025-01-12 07:51:07.23	15.72	14.62	
2025-01-12 07:51:07.43	15.68	14.61	
2025-01-12 07:51:07.64	15.63	14.60	
2025-01-12 07:51:07.84	15.60	14.60	
2025-01-12 07:51:08.05	15.55	14.59	
2025-01-12 07:51:08.25	15.52	14.58	
2025-01-12 07:51:08.46	15.47	14.57	
2025-01-12 07:51:08.66	15.44	14.57	
2025-01-12 07:51:08.87	15.39	14.56	
2025-01-12 07:51:09.08	15.35	14.55	
2025-01-12 07:51:09.28	15.31	14.54	
2025-01-12 07:51:09.48	15.28	14.54	
2025-01-12 07:51:09.69	15.23	14.53	
2025-01-12 07:51:09.89	15.20	14.52	
2025-01-12 07:51:10.10	15.16	14.51	
2025-01-12 07:51:10.31	15.11	14.50	
2025-01-12 07:51:10.51	15.08	14.50	
2025-01-12 07:51:10.72	15.03	14.49	
2025-01-12 07:51:10.92	15.00	14.48	
2025-01-12 07:51:11.13	14.96	14.47	
2025-01-12 07:51:11.33	14.92	14.47	
2025-01-12 07:51:11.54	14.88	14.46	
2025-01-12 07:51:11.74	14.84	14.45	
2025-01-12 07:51:11.95	14.80	14.44	
2025-01-12 07:51:12.15	14.76	14.44	
2025-01-12 07:51:12.36	14.72	14.43	
2025-01-12 07:51:12.56	14.68	14.42	
2025-01-12 07:51:12.77	14.64	14.41	
2025-01-12 07:51:12.99	14.60	14.40	
2025-01-12 07:51:13.19	14.56	14.40	
2025-01-12 07:51:13.40	14.52	14.39	
2025-01-12 07:51:13.60	14.48	14.38	
2025-01-12 07:51:13.81	14.44	14.37	
2025-01-12 07:51:14.01	14.40	14.36	
2025-01-12 07:51:14.22	14.36	14.36	
2025-01-12 07:51:14.42	14.32	14.35	
2025-01-12 07:51:14.63	14.28	14.34	
2025-01-12 07:51:14.83	14.24	14.33	
2025-01-12 07:51:15.04	14.20	14.33	
2025-01-12 07:51:15.24	14.16	14.32	
2025-01-12 07:51:15.45	14.12	14.31	
2025-01-12 07:51:15.65	14.08	14.30	
2025-01-12 07:51:15.86	14.04	14.29	
2025-01-12 07:51:16.07	14.00	14.29	
2025-01-12 07:51:16.28	13.96	14.28	
2025-01-12 07:51:16.49	13.92	14.27	
2025-01-12 07:51:16.70	13.88	14.26	
2025-01-12 07:51:16.90	13.85	14.25	
2025-01-12 07:51:17.11	13.81	14.25	
2025-01-12 07:51:17.33	13.76	14.24	
2025-01-12 07:51:17.53	13.73	14.23	
2025-01-12 07:51:17.74	13.69	14.22	
2025-01-12 07:51:17.94	13.65	14.21	
2025-01-12 07:51:18.15	13.61	14.20	
2025-01-12 07:51:18.37	13.57	14.20	
2025-01-12 07:51:18.57	13.53	14.19	
2025-01-12 07:51:18.78	13.49	14.18	
2025-01-12 07:51:18.98	13.45	14.17	
2025-01-12 07:51:19.19	13.41	14.16	
2025-01-12 07:51:19.39	13.37	14.16	
2025-01-12 07:51:19.60	13.33	14.15	
2025-01-12 07:51:19.81	13.29	14.14	
2025-01-12 07:51:20.01	13.25	14.13	
2025-01-12 07:51:20.22	13.21	14.12	
2025-01-12 07:51:20.43	13.17	14.11	
2025-01-12 07:51:20.64	13.13	14.11	
2025-01-12 07:51:20.84	13.10	14.10	
2025-01-12 07:51:21.05	13.06	14.09	
2025-01-12 07:51:21.25	13.02	14.08	
2025-01-12 07:51:21.46	12.98	14.07	
2025-01-12 07:51:21.66	12.94	14.06	
2025-01-12 07:51:21.87	12.90	14.06	
2025-01-12 07:51:22.07	12.87	14.05	
2025-01-12 07:51:22.28	12.83	14.04	
2025-01-12 07:51:22.49	12.79	14.03	
2025-01-12 07:51:22.69	12.75	14.02	
2025-01-12 07:51:22.89	12.71	14.02	
2025-01-12 07:51:23.10	12.67	14.01	
2025-01-12 07:51:23.31	12.63	14.00	
2025-01-12 07:51:23.51	12.59	13.99	
2025-01-12 07:51:23.73	12.55	13.98	
2025-01-12 07:51:23.93	12.52	13.97	
2025-01-12 07:51:24.14	12.48	13.96	
2025-01-12 07:51:24.34	12.44	13.96	
2025-01-12 07:51:24.55	12.40	13.95	
2025-01-12 07:51:24.75	12.36	13.94	
2025-01-12 07:51:24.96	12.32	13.93	
2025-01-12 07:51:25.16	12.29	13.92	
2025-01-12 07:51:25.37	12.25	13.91	
2025-01-12 07:51:25.58	12.21	13.91	
2025-01-12 07:51:25.78	12.17	13.90	
2025-01-12 07:51:25.98	12.13	13.89	
2025-01-12 07:51:26.19	12.09	13.88	
2025-01-12 07:51:26.39	12.06	13.87	
2025-01-12 07:51:26.60	12.02	13.86	
2025-01-12 07:51:26.80	11.98	13.85	
2025-01-12 07:51:27.01	11.94	13.85	
2025-01-12 07:51:27.21	11.90	13.84	
2025-01-12 07:51:27.42	11.87	13.83	
2025-01-12 07:51:27.62	11.83	13.82	
2025-01-12 07:51:27.82	11.79	13.81	
2025-01-12 07:51:28.03	11.75	13.80	
2025-01-12 07:51:28.23	11.72	13.80	
2025-01-12 07:51:28.44	11.68	13.79	
2025-01-12 07:51:28.65	11.64	13.78	
2025-01-12 07:51:28.85	11.60	13.77	
2025-01-12 07:51:29.05	11.56	13.76	
2025-01-12 07:51:29.26	11.53	13.75	
2025-01-12 07:51:29.47	11.49	13.74	
2025-01-12 07:51:29.67	11.45	13.74	
2025-01-12 07:51:29.87	11.41	13.73	
2025-01-12 07:51:30.08	11.37	13.72	
2025-01-12 07:51:30.28	11.34	13.71	
2025-01-12 07:51:30.49	11.30	13.70	
2025-01-12 07:51:30.69	11.26	13.69	
2025-01-12 07:51:30.90	11.22	13.68	
2025-01-12 07:51:31.10	11.19	13.67	
2025-01-12 07:51:31.30	11.15	13.67	
2025-01-12 07:51:31.51	11.11	13.66	
2025-01-12 07:51:31.72	11.07	13.65	
2025-01-12 07:51:31.92	11.04	13.64	
2025-01-12 07:51:32.12	11.00	13.63	
2025-01-12 07:51:32.33	10.96	13.62	
2025-01-12 07:51:32.53	10.92	13.61	
2025-01-12 07:51:32.74	10.89	13.60	
2025-01-12 07:51:32.94	10.85	13.60	
2025-01-12 07:51:33.15	10.81	13.59	
2025-01-12 07:51:33.35	10.78	13.58	
2025-01-12 07:51:33.56	10.74	13.57	
2025-01-12 07:51:33.76	10.70	13.56	
2025-01-12 07:51:33.97	10.66	13.55	
2025-01-12 07:51:34.18	10.62	13.54	
2025-01-12 07:51:34.38	10.59	13.53	
2025-01-12 07:51:34.59	10.55	13.53	
2025-01-12 07:51:34.79	10.51	13.52	
2025-01-12 07:51:35.00	10.48	13.51	
2025-01-12 07:51:35.20	10.44	13.50	
2025-01-12 07:51:35.40	10.40	13.49	
2025-01-12 07:51:35.61	10.36	13.48	
2025-01-12 07:51:35.82	10.33	13.47	
2025-01-12 07:51:36.02	10.29	13.46	
2025-01-12 07:51:36.23	10.25	13.45	
2025-01-12 07:51:36.43	10.22	13.45	
2025-01-12 07:51:36.64	10.18	13.44	
2025-01-12 07:51:36.84	10.14	13.43	
2025-01-12 07:51:37.05	10.10	13.42	
2025-01-12 07:51:37.26	10.07	13.41	
2025-01-12 07:51:37.46	10.03	13.40	
2025-01-12 07:51:37.67	9.99	13.39	
2025-01-12 07:51:37.87	9.96	13.38	
2025-01-12 07:51:38.08	9.92	13.37	
2025-01-12 07:51:38.28	9.88	13.36	
2025-01-12 07:51:38.49	9.85	13.36	
2025-01-12 07:51:38.69	9.81	13.35	
2025-01-12 07:51:38.90	9.77	13.34	
2025-01-12 07:51:39.10	9.74	13.33	
2025-01-12 07:51:39.31	9.70	13.32	
2025-01-12 07:51:39.52	9.66	13.31	
2025-01-12 07:51:39.73	9.62	13.30	
2025-01-12 07:51:39.94	9.59	13.29	
2025-01-12 07:51:40.14	9.55	13.28	
2025-01-12 07:51:40.35	9.51	13.27	
2025-01-12 07:51:40.55	9.48	13.26	
2025-01-12 07:51:40.76	9.44	13.26	
2025-01-12 07:51:40.96	9.40	13.25	
2025-01-12 07:51:41.17	9.37	13.24	
2025-01-12 07:51:41.37	9.33	13.23	
2025-01-12 07:51:41.58	9.29	13.22	
2025-01-12 07:51:41.79	9.26	13.21	
2025-01-12 07:51:42.00	9.22	13.20	
2025-01-12 07:51:42.21	9.18	13.19	
2025-01-12 07:51:42.41	9.15	13.18	
2025-01-12 07:51:42.62	9.11	13.17	
2025-01-12 07:51:42.84	9.07	13.16	
2025-01-12 07:51:43.04	9.03	13.15	
2025-01-12 07:51:43.25	9.00	13.14	
2025-01-12 07:51:43.46	8.96	13.13	
2025-01-12 07:51:43.66	8.92	13.13	
2025-01-12 07:51:43.86	8.89	13.12	
2025-01-12 07:51:44.07	8.85	13.11	
2025-01-12 07:51:44.27	8.82	13.10	
2025-01-12 07:51:44.48	8.78	13.09	
2025-01-12 07:51:44.69	8.74	13.08	
2025-01-12 07:51:44.89	8.71	13.07	
2025-01-12 07:51:45.09	8.67	13.06	
2025-01-12 07:51:45.30	8.64	13.05	
2025-01-12 07:51:45.50	8.60	13.04	
2025-01-12 07:51:45.71	8.56	13.03	
2025-01-12 07:51:45.91	8.53	13.02	
2025-01-12 07:51:46.12	8.49	13.01	
2025-01-12 07:51:46.32	8.46	13.01	
2025-01-12 07:51:46.53	8.42	13.00	
2025-01-12 07:51:46.73	8.39	12.99	
2025-01-12 07:51:46.94	8.35	12.98	
2025-01-12 07:51:47.14	8.31	12.97	
2025-01-12 07:51:47.35	8.28	12.96	
2025-01-12 07:51:47.55	8.24	12.95	
2025-01-12 07:51:47.76	8.21	12.94	
2025-01-12 07:51:47.96	8.17	12.93	
2025-01-12 07:51:48.17	8.13	12.92	
2025-01-12 07:51:48.37	8.10	12.91	
2025-01-12 07:51:48.58	8.06	12.90	
2025-01-12 07:51:48.79	8.03	12.89	
2025-01-12 07:51:48.99	7.99	12.88	
2025-01-12 07:51:49.19	7.96	12.87	
2025-01-12 07:51:49.40	7.92	12.87	
2025-01-12 07:51:49.60	7.89	12.86	
2025-01-12 07:51:49.81	7.85	12.85	
2025-01-12 07:51:50.01	7.81	12.84	
2025-01-12 07:51:50.22	7.78	12.83	
2025-01-12 07:51:50.42	7.74	12.82	
2025-01-12 07:51:50.63	7.71	12.81	
2025-01-12 07:51:50.83	7.67	12.80	
2025-01-12 07:51:51.04	7.64	12.79	
2025-01-12 07:51:51.24	7.60	12.78	
2025-01-12 07:51:51.45	7.57	12.77	
2025-01-12 07:51:51.65	7.53	12.76	
2025-01-12 07:51:51.86	7.49	12.75	
2025-01-12 07:51:52.06	7.46	12.74	
2025-01-12 07:51:52.27	7.42	12.73	
2025-01-12 07:51:52.49	7.39	12.72	
2025-01-12 07:51:52.69	7.35	12.71	
2025-01-12 07:51:52.89	7.32	12.70	
2025-01-12 07:51:53.10	7.28	12.69	
2025-01-12 07:51:53.30	7.25	12.68	
2025-01-12 07:51:53.52	7.21	12.67	
2025-01-12 07:51:53.73	7.17	12.66	
2025-01-12 07:51:53.93	7.14	12.66	
2025-01-12 07:51:54.14	7.10	12.65	
2025-01-12 07:51:54.34	7.07	12.64	
2025-01-12 07:51:54.55	7.03	12.63	
2025-01-12 07:51:54.77	7.00	12.62	
2025-01-12 07:51:54.97	6.96	12.61	
2025-01-12 07:51:55.18	6.93	12.60	
2025-01-12 07:51:55.38	6.89	12.59	
2025-01-12 07:51:55.59	6.86	12.58	
2025-01-12 07:51:55.79	6.82	12.57	
2025-01-12 07:51:56.00	6.79	12.56	
2025-01-12 07:51:56.20	6.75	12.55	
2025-01-12 07:51:56.41	6.72	12.54	
2025-01-12 07:51:56.61	6.68	12.53	
2025-01-12 07:51:56.82	6.65	12.52	
2025-01-12 07:51:57.02	6.61	12.51	
2025-01-12 07:51:57.23	6.58	12.50	
2025-01-12 07:51:57.43	6.54	12.49	
2025-01-12 07:51:57.64	6.51	12.48	
2025-01-12 07:51:57.84	6.48	12.47	
2025-01-12 07:51:58.05	6.44	12.46	
2025-01-12 07:51:58.25	6.41	12.45	
2025-01-12 07:51:58.46	6.37	12.44	
2025-01-12 07:51:58.66	6.34	12.43	
2025-01-12 07:51:58.87	6.30	12.42	
2025-01-12 07:51:59.07	6.27	12.41	
2025-01-12 07:51:59.28	6.23	12.40	
2025-01-12 07:51:59.48	6.20	12.39	
2025-01-12 07:51:59.69	6.16	12.38	
2025-01-12 07:51:59.89	6.13	12.37	
2025-01-12 07:52:00.10	6.10	12.36	
2025-01-12 07:52:00.30	6.06	12.35	
2025-01-12 07:52:00.51	6.03	12.34	
2025-01-12 07:52:00.71	5.99	12.33	
2025-01-12 07:52:00.92	5.96	12.32	
2025-01-12 07:52:01.12	5.92	12.32	
2025-01-12 07:52:01.33	5.89	12.31	
2025-01-12 07:52:01.54	5.85	12.29	
2025-01-12 07:52:01.74	5.82	12.29	
2025-01-12 07:52:01.95	5.79	12.28	
2025-01-12 07:52:02.15	5.75	12.27	
2025-01-12 07:52:02.35	5.72	12.26	
2025-01-12 07:52:02.56	5.68	12.25	
2025-01-12 07:52:02.77	5.65	12.24	
2025-01-12 07:52:02.97	5.62	12.23	
2025-01-12 07:52:03.17	5.58	12.22	
2025-01-12 07:52:03.38	5.55	12.21	
2025-01-12 07:52:03.59	5.51	12.20	
2025-01-12 07:52:03.79	5.48	12.19	
2025-01-12 07:52:04.00	5.45	12.18	
2025-01-12 07:52:04.22	5.41	12.17	
2025-01-12 07:52:04.42	5.38	12.16	
2025-01-12 07:52:04.63	5.34	12.15	
2025-01-12 07:52:04.84	5.31	12.14	
2025-01-12 07:52:05.04	5.27	12.13	
2025-01-12 07:52:05.26	5.24	12.12	
2025-01-12 07:52:05.46	5.20	12.11	
2025-01-12 07:52:05.67	5.17	12.10	
2025-01-12 07:52:05.87	5.14	12.09	
2025-01-12 07:52:06.08	5.10	12.08	
2025-01-12 07:52:06.28	5.07	12.07	
2025-01-12 07:52:06.49	5.04	12.06	
2025-01-12 07:52:06.69	5.00	12.05	
2025-01-12 07:52:06.90	4.97	12.04	
2025-01-12 07:52:07.11	4.93	12.03	
2025-01-12 07:52:07.31	4.90	12.02	
2025-01-12 07:52:07.51	4.87	12.01	
2025-01-12 07:52:07.72	4.83	12.00	
2025-01-12 07:52:07.92	4.80	11.99	
2025-01-12 07:52:08.13	4.77	11.98	
2025-01-12 07:52:08.33	4.73	11.97	
2025-01-12 07:52:08.53	4.70	11.96	
2025-01-12 07:52:08.74	4.67	11.95	
2025-01-12 07:52:08.95	4.63	11.94	
2025-01-12 07:52:09.15	4.60	11.93	
2025-01-12 07:52:09.36	4.57	11.92	
2025-01-12 07:52:09.56	4.53	11.91	
2025-01-12 07:52:09.76	4.50	11.90	
2025-01-12 07:52:09.97	4.47	11.89	
2025-01-12 07:52:10.18	4.43	11.88	
2025-01-12 07:52:10.38	4.40	11.87	
2025-01-12 07:52:10.58	4.37	11.86	
2025-01-12 07:52:10.79	4.34	11.85	
2025-01-12 07:52:10.99	4.30	11.84	
2025-01-12 07:52:11.20	4.27	11.83	
2025-01-12 07:52:11.40	4.24	11.82	
2025-01-12 07:52:11.61	4.20	11.81	
2025-01-12 07:52:11.81	4.17	11.80	
2025-01-12 07:52:12.02	4.14	11.79	
2025-01-12 07:52:12.23	4.10	11.78	
2025-01-12 07:52:12.43	4.07	11.77	
2025-01-12 07:52:12.64	4.04	11.75	
2025-01-12 07:52:12.84	4.01	11.75	
2025-01-12 07:52:13.05	3.97	11.73	
2025-01-12 07:52:13.26	3.94	11.72	
2025-01-12 07:52:13.46	3.91	11.71	
2025-01-12 07:52:13.66	3.87	11.70	
2025-01-12 07:52:13.87	3.84	11.69	
2025-01-12 07:52:14.07	3.81	11.68	
2025-01-12 07:52:14.28	3.77	11.67	
2025-01-12 07:52:14.48	3.74	11.66	
2025-01-12 07:52:14.69	3.71	11.65	
2025-01-12 07:52:14.89	3.68	11.64	
2025-01-12 07:52:15.10	3.64	11.63	
2025-01-12 07:52:15.30	3.61	11.62	
2025-01-12 07:52:15.51	3.58	11.61	
2025-01-12 07:52:15.71	3.55	11.60	
2025-01-12 07:52:15.92	3.51	11.59	
2025-01-12 07:52:16.12	3.48	11.58	
2025-01-12 07:52:16.33	3.45	11.57	
2025-01-12 07:52:16.54	3.41	11.56	
2025-01-12 07:52:16.74	3.38	11.55	
2025-01-12 07:52:16.96	3.35	11.54	
2025-01-12 07:52:17.16	3.32	11.53	
2025-01-12 07:52:17.37	3.28	11.52	
2025-01-12 07:52:17.58	3.25	11.51	
2025-01-12 07:52:17.78	3.22	11.50	
2025-01-12 07:52:17.99	3.19	11.49	
2025-01-12 07:52:18.19	3.15	11.48	
2025-01-12 07:52:18.40	3.12	11.47	
2025-01-12 07:52:18.60	3.09	11.46	
2025-01-12 07:52:18.81	3.06	11.45	
2025-01-12 07:52:19.01	3.02	11.44	
2025-01-12 07:52:19.22	2.99	11.43	
2025-01-12 07:52:19.42	2.96	11.42	
2025-01-12 07:52:19.63	2.93	11.41	
2025-01-12 07:52:19.84	2.89	11.40	
2025-01-12 07:52:20.04	2.86	11.39	
2025-01-12 07:52:20.26	2.83	11.38	
2025-01-12 07:52:20.46	2.80	11.37	
2025-01-12 07:52:20.67	2.76	11.35	
2025-01-12 07:52:20.88	2.73	11.34	
2025-01-12 07:52:21.08	2.70	11.33	
2025-01-12 07:52:21.28	2.67	11.32	
2025-01-12 07:52:21.49	2.64	11.31	
2025-01-12 07:52:21.69	2.61	11.30	
2025-01-12 07:52:21.90	2.57	11.29	
2025-01-12 07:52:22.10	2.54	11.28	
2025-01-12 07:52:22.30	2.51	11.27	
2025-01-12 07:52:22.51	2.48	11.26	
2025-01-12 07:52:22.71	2.45	11.25	
2025-01-12 07:52:22.92	2.41	11.24	
2025-01-12 07:52:23.12	2.38	11.23	
2025-01-12 07:52:23.32	2.35	11.22	
2025-01-12 07:52:23.53	2.32	11.21	
2025-01-12 07:52:23.74	2.29	11.20	
2025-01-12 07:52:23.94	2.26	11.19	
2025-01-12 07:52:24.14	2.23	11.18	
2025-01-12 07:52:24.35	2.19	11.17	
2025-01-12 07:52:24.55	2.16	11.16	
2025-01-12 07:52:24.76	2.13	11.15	
2025-01-12 07:52:24.96	2.10	11.14	
2025-01-12 07:52:25.17	2.07	11.13	
2025-01-12 07:52:25.38	2.04	11.12	
2025-01-12 07:52:25.58	2.00	11.11	
2025-01-12 07:52:25.79	1.97	11.10	
2025-01-12 07:52:25.99	1.94	11.09	
2025-01-12 07:52:26.20	1.91	11.08	
2025-01-12 07:52:26.40	1.88	11.07	
2025-01-12 07:52:26.61	1.85	11.05	
2025-01-12 07:52:26.81	1.82	11.04	
2025-01-12 07:52:27.02	1.78	11.03	
2025-01-12 07:52:27.22	1.75	11.02	
2025-01-12 07:52:27.43	1.72	11.01	
2025-01-12 07:52:27.63	1.69	11.00	
2025-01-12 07:52:27.84	1.66	10.99	
2025-01-12 07:52:28.04	1.63	10.98	
2025-01-12 07:52:28.25	1.60	10.97	
2025-01-12 07:52:28.45	1.57	10.96	
2025-01-12 07:52:28.66	1.53	10.95	
2025-01-12 07:52:28.86	1.50	10.94	
2025-01-12 07:52:29.07	1.47	10.93	
2025-01-12 07:52:29.27	1.44	10.92	
2025-01-12 07:52:29.48	1.41	10.91	
2025-01-12 07:52:29.68	1.38	10.90	
2025-01-12 07:52:29.89	1.35	10.89	
2025-01-12 07:52:30.09	1.32	10.88	
2025-01-12 07:52:30.30	1.29	10.87	
2025-01-12 07:52:30.52	1.25	10.85	
2025-01-12 07:52:30.72	1.22	10.84	
2025-01-12 07:52:30.93	1.19	10.83	
2025-01-12 07:52:31.13	1.16	10.82	
2025-01-12 07:52:31.34	1.13	10.81	
2025-01-12 07:52:31.54	1.10	10.80	
2025-01-12 07:52:31.75	1.07	10.79	
2025-01-12 07:52:31.95	1.04	10.78	
2025-01-12 07:52:32.16	1.01	10.77	
2025-01-12 07:52:32.36	0.98	10.76	
2025-01-12 07:52:32.57	0.94	10.75	
2025-01-12 07:52:32.77	0.91	10.74	
2025-01-12 07:52:32.98	0.88	10.73	
2025-01-12 07:52:33.18	0.85	10.72	
2025-01-12 07:52:33.39	0.82	10.71	
2025-01-12 07:52:33.60	0.79	10.70	
2025-01-12 07:52:33.80	0.76	10.69	
2025-01-12 07:52:34.01	0.73	10.68	
2025-01-12 07:52:34.21	0.70	10.67	
2025-01-12 07:52:34.42	0.67	10.65	
2025-01-12 07:52:34.62	0.64	10.64	
2025-01-12 07:52:34.83	0.61	10.63	
2025-01-12 07:52:35.03	0.58	10.62	
2025-01-12 07:52:35.24	0.55	10.61	
2025-01-12 07:52:35.44	0.52	10.60	
2025-01-12 07:52:35.65	0.49	10.59	
2025-01-12 07:52:35.85	0.46	10.58	
2025-01-12 07:52:36.06	0.42	10.57	
2025-01-12 07:52:36.26	0.40	10.56	
2025-01-12 07:52:36.47	0.36	10.55	
2025-01-12 07:52:36.67	0.33	10.54	
2025-01-12 07:52:36.88	0.30	10.53	
2025-01-12 07:52:37.08	0.27	10.52	
2025-01-12 07:52:37.29	0.24	10.51	
2025-01-12 07:52:37.49	0.21	10.50	
2025-01-12 07:52:37.70	0.18	10.48	
2025-01-12 07:52:37.90	0.15	10.47	
2025-01-12 07:52:38.11	0.12	10.46	
2025-01-12 07:52:38.33	0.09	10.45	
2025-01-12 07:52:38.53	0.06	10.44	
2025-01-12 07:52:38.74	0.03	10.43	
2025-01-12 07:52:38.94	0.00	10.42	
2025-01-12 07:52:39.15	359.97	10.41	
2025-01-12 07:52:39.35	359.94	10.40	
2025-01-12 07:52:39.56	359.91	10.39	
2025-01-12 07:52:39.76	359.88	10.38	
2025-01-12 07:52:39.97	359.85	10.37	
2025-01-12 07:52:40.17	359.82	10.36	
2025-01-12 07:52:40.38	359.79	10.35	
2025-01-12 07:52:40.58	359.76	10.34	
2025-01-12 07:52:40.79	359.73	10.32	
2025-01-12 07:52:40.99	359.70	10.31	
2025-01-12 07:52:41.20	359.67	10.30	
2025-01-12 07:52:41.41	359.64	10.29	
2025-01-12 07:52:41.61	359.61	10.28	
2025-01-12 07:52:41.82	359.58	10.27	
2025-01-12 07:52:42.02	359.55	10.26	
2025-01-12 07:52:42.23	359.52	10.25	
2025-01-12 07:52:42.43	359.49	10.24	
2025-01-12 07:52:42.63	359.46	10.23	
2025-01-12 07:52:42.84	359.43	10.22	
2025-01-12 07:52:43.05	359.40	10.21	
2025-01-12 07:52:43.25	359.38	10.20	
2025-01-12 07:52:43.46	359.34	10.19	
2025-01-12 07:52:43.66	359.32	10.17	
2025-01-12 07:52:43.86	359.29	10.16	
2025-01-12 07:52:44.07	359.26	10.15	
2025-01-12 07:52:44.28	359.23	10.14	
2025-01-12 07:52:44.48	359.20	10.13	
2025-01-12 07:52:44.68	359.17	10.12	
2025-01-12 07:52:44.89	359.14	10.11	
2025-01-12 07:52:45.10	359.11	10.10	
2025-01-12 07:52:45.30	359.08	10.09	
2025-01-12 07:52:45.51	359.05	10.08	
2025-01-12 07:52:45.71	359.02	10.07	
2025-01-12 07:52:45.92	358.99	10.06	
2025-01-12 07:52:46.12	358.96	10.05	
2025-01-12 07:52:46.33	358.93	10.04	
2025-01-12 07:52:46.53	358.91	10.02	
2025-01-12 07:52:46.74	358.88	10.01	
2025-01-12 07:52:46.94	358.85	10.00	
2025-01-12 07:52:47.15	358.82	9.99	
2025-01-12 07:52:47.35	358.79	9.98	
2025-01-12 07:52:47.56	358.76	9.97	
2025-01-12 07:52:47.76	358.73	9.96	
2025-01-12 07:52:47.97	358.70	9.95	
2025-01-12 07:52:48.17	358.67	9.94	
2025-01-12 07:52:48.37	358.64	9.93	
2025-01-12 07:52:48.58	358.61	9.92	
2025-01-12 07:52:48.79	358.58	9.91	
2025-01-12 07:52:48.99	358.56	9.90	
2025-01-12 07:52:49.20	358.53	9.88	
2025-01-12 07:52:49.40	358.50	9.87	
2025-01-12 07:52:49.61	358.47	9.86	
2025-01-12 07:52:49.81	358.44	9.85	
2025-01-12 07:52:50.01	358.41	9.84	
2025-01-12 07:52:50.22	358.38	9.83	
2025-01-12 07:52:50.42	358.36	9.82	
2025-01-12 07:52:50.63	358.33	9.81	
2025-01-12 07:52:50.84	358.30	9.80	
2025-01-12 07:52:51.04	358.27	9.79	
2025-01-12 07:52:51.24	358.24	9.78	
2025-01-12 07:52:51.45	358.21	9.77	
2025-01-12 07:52:51.66	358.18	9.76	
2025-01-12 07:52:51.86	358.15	9.74	
2025-01-12 07:52:52.07	358.12	9.73	
2025-01-12 07:52:52.27	358.10	9.72	
2025-01-12 07:52:52.48	358.07	9.71	
2025-01-12 07:52:52.68	358.04	9.70	
2025-01-12 07:52:52.89	358.01	9.69	
2025-01-12 07:52:53.09	357.98	9.68	
2025-01-12 07:52:53.30	357.95	9.67	
2025-01-12 07:52:53.50	357.93	9.66	
2025-01-12 07:52:53.71	357.90	9.65	
2025-01-12 07:52:53.91	357.87	9.64	
2025-01-12 07:52:54.12	357.84	9.63	
2025-01-12 07:52:54.34	357.81	9.61	
2025-01-12 07:52:54.54	357.78	9.60	
2025-01-12 07:52:54.75	357.75	9.59	
2025-01-12 07:52:54.95	357.72	9.58	
2025-01-12 07:52:55.16	357.70	9.57	
2025-01-12 07:52:55.37	357.67	9.56	
2025-01-12 07:52:55.57	357.64	9.55	
2025-01-12 07:52:55.78	357.61	9.54	
2025-01-12 07:52:55.98	357.58	9.53	
2025-01-12 07:52:56.19	357.55	9.52	
2025-01-12 07:52:56.41	357.52	9.50	
2025-01-12 07:52:56.61	357.50	9.49	
2025-01-12 07:52:56.82	357.47	9.48	
2025-01-12 07:52:57.02	357.44	9.47	
2025-01-12 07:52:57.23	357.41	9.46	
2025-01-12 07:52:57.43	357.38	9.45	
2025-01-12 07:52:57.64	357.36	9.44	
2025-01-12 07:52:57.85	357.33	9.43	
2025-01-12 07:52:58.05	357.30	9.42	
2025-01-12 07:52:58.26	357.27	9.41	
2025-01-12 07:52:58.46	357.24	9.40	
2025-01-12 07:52:58.67	357.22	9.38	
2025-01-12 07:52:58.87	357.19	9.37	
2025-01-12 07:52:59.08	357.16	9.36	
2025-01-12 07:52:59.28	357.13	9.35	
2025-01-12 07:52:59.49	357.10	9.34	
2025-01-12 07:52:59.69	357.08	9.33	
2025-01-12 07:52:59.90	357.05	9.32	
2025-01-12 07:53:00.10	357.02	9.31	
2025-01-12 07:53:00.31	356.99	9.30	
2025-01-12 07:53:00.51	356.97	9.29	
2025-01-12 07:53:00.72	356.94	9.28	
2025-01-12 07:53:00.92	356.91	9.27	
2025-01-12 07:53:01.13	356.88	9.25	
2025-01-12 07:53:01.34	356.85	9.24	
2025-01-12 07:53:01.54	356.83	9.23	
2025-01-12 07:53:01.75	356.80	9.22	
2025-01-12 07:53:01.95	356.77	9.21	
2025-01-12 07:53:02.16	356.74	9.20	
2025-01-12 07:53:02.36	356.72	9.19	
2025-01-12 07:53:02.57	356.69	9.18	
2025-01-12 07:53:02.78	356.66	9.17	
2025-01-12 07:53:02.99	356.63	9.16	
2025-01-12 07:53:03.20	356.60	9.14	
2025-01-12 07:53:03.40	356.58	9.13	
2025-01-12 07:53:03.61	356.55	9.12	
2025-01-12 07:53:03.81	356.52	9.11	
2025-01-12 07:53:04.02	356.49	9.10	
2025-01-12 07:53:04.22	356.47	9.09	
2025-01-12 07:53:04.43	356.44	9.08	
2025-01-12 07:53:04.63	356.41	9.07	
2025-01-12 07:53:04.84	356.38	9.06	
2025-01-12 07:53:05.06	356.36	9.04	
2025-01-12 07:53:05.26	356.33	9.03	
2025-01-12 07:53:05.47	356.30	9.02	
2025-01-12 07:53:05.67	356.27	9.01	
2025-01-12 07:53:05.88	356.25	9.00	
2025-01-12 07:53:06.10	356.22	8.99	
2025-01-12 07:53:06.30	356.19	8.98	
2025-01-12 07:53:06.51	356.16	8.97	
2025-01-12 07:53:06.71	356.14	8.96	
2025-01-12 07:53:06.92	356.11	8.95	
2025-01-12 07:53:07.12	356.08	8.94	
2025-01-12 07:53:07.33	356.06	8.92	
2025-01-12 07:53:07.53	356.03	8.91	
2025-01-12 07:53:07.74	356.00	8.90	
2025-01-12 07:53:07.94	355.97	8.89	
2025-01-12 07:53:08.15	355.95	8.88	
2025-01-12 07:53:08.35	355.92	8.87	
2025-01-12 07:53:08.56	355.89	8.86	
2025-01-12 07:53:08.76	355.87	8.85	
2025-01-12 07:53:08.97	355.84	8.84	
2025-01-12 07:53:09.18	355.81	8.83	
2025-01-12 07:53:09.38	355.79	8.81	
2025-01-12 07:53:09.59	355.76	8.80	
2025-01-12 07:53:09.79	355.73	8.79	
2025-01-12 07:53:10.00	355.71	8.78	
2025-01-12 07:53:10.20	355.68	8.77	
2025-01-12 07:53:10.41	355.65	8.76	
2025-01-12 07:53:10.61	355.63	8.75	
2025-01-12 07:53:10.81	355.60	8.74	
2025-01-12 07:53:11.02	355.57	8.73	
2025-01-12 07:53:11.23	355.55	8.72	
2025-01-12 07:53:11.44	355.52	8.70	
2025-01-12 07:53:11.65	355.49	8.69	
2025-01-12 07:53:11.85	355.46	8.68	
2025-01-12 07:53:12.06	355.44	8.67	
2025-01-12 07:53:12.26	355.41	8.66	
2025-01-12 07:53:12.47	355.38	8.65	
2025-01-12 07:53:12.67	355.36	8.64	
2025-01-12 07:53:12.87	355.33	8.63	
2025-01-12 07:53:13.08	355.31	8.62	
2025-01-12 07:53:13.29	355.28	8.61	
2025-01-12 07:53:13.49	355.25	8.59	
2025-01-12 07:53:13.69	355.23	8.58	
2025-01-12 07:53:13.90	355.20	8.57	
2025-01-12 07:53:14.11	355.17	8.56	
2025-01-12 07:53:14.31	355.15	8.55	
2025-01-12 07:53:14.52	355.12	8.54	
2025-01-12 07:53:14.72	355.09	8.53	
2025-01-12 07:53:14.93	355.07	8.52	
2025-01-12 07:53:15.13	355.04	8.51	
2025-01-12 07:53:15.34	355.02	8.50	
2025-01-12 07:53:15.54	354.99	8.48	
2025-01-12 07:53:15.75	354.96	8.47	
2025-01-12 07:53:15.95	354.94	8.46	
2025-01-12 07:53:16.16	354.91	8.45	
2025-01-12 07:53:16.36	354.89	8.44	
2025-01-12 07:53:16.57	354.86	8.43	
2025-01-12 07:53:16.78	354.83	8.42	
2025-01-12 07:53:16.98	354.81	8.41	
2025-01-12 07:53:17.18	354.78	8.40	
2025-01-12 07:53:17.39	354.75	8.39	
2025-01-12 07:53:17.59	354.73	8.38	
2025-01-12 07:53:17.80	354.70	8.36	
2025-01-12 07:53:18.00	354.68	8.35	
2025-01-12 07:53:18.21	354.65	8.34	
2025-01-12 07:53:18.41	354.63	8.33	
2025-01-12 07:53:18.62	354.60	8.32	
2025-01-12 07:53:18.82	354.57	8.31	
2025-01-12 07:53:19.03	354.55	8.30	
2025-01-12 07:53:19.23	354.52	8.29	
2025-01-12 07:53:19.44	354.50	8.28	
2025-01-12 07:53:19.64	354.47	8.27	
2025-01-12 07:53:19.85	354.44	8.25	
2025-01-12 07:53:20.05	354.42	8.24	
2025-01-12 07:53:20.26	354.39	8.23	
2025-01-12 07:53:20.46	354.37	8.22	
2025-01-12 07:53:20.67	354.34	8.21	
2025-01-12 07:53:20.87	354.32	8.20	
2025-01-12 07:53:21.09	354.29	8.19	
2025-01-12 07:53:21.30	354.26	8.18	
2025-01-12 07:53:21.50	354.24	8.17	
2025-01-12 07:53:21.71	354.21	8.15	
2025-01-12 07:53:21.92	354.18	8.14	
2025-01-12 07:53:22.12	354.16	8.13	
2025-01-12 07:53:22.32	354.13	8.12	
2025-01-12 07:53:22.53	354.11	8.11	
2025-01-12 07:53:22.73	354.08	8.10	
2025-01-12 07:53:22.94	354.06	8.09	
2025-01-12 07:53:23.14	354.03	8.08	
2025-01-12 07:53:23.35	354.01	8.07	
2025-01-12 07:53:23.55	353.98	8.06	
2025-01-12 07:53:23.76	353.96	8.04	
2025-01-12 07:53:23.96	353.93	8.03	
2025-01-12 07:53:24.17	353.91	8.02	
2025-01-12 07:53:24.37	353.88	8.01	
2025-01-12 07:53:24.58	353.85	8.00	
2025-01-12 07:53:24.78	353.83	7.99	
2025-01-12 07:53:24.99	353.80	7.98	
2025-01-12 07:53:25.19	353.78	7.97	
2025-01-12 07:53:25.39	353.75	7.96	
2025-01-12 07:53:25.60	353.73	7.95	
2025-01-12 07:53:25.81	353.70	7.93	
2025-01-12 07:53:26.01	353.68	7.92	
2025-01-12 07:53:26.22	353.65	7.91	
2025-01-12 07:53:26.42	353.63	7.90	
2025-01-12 07:53:26.62	353.60	7.89	
2025-01-12 07:53:26.83	353.58	7.88	
2025-01-12 07:53:27.04	353.55	7.87	
2025-01-12 07:53:27.24	353.53	7.86	
2025-01-12 07:53:27.46	353.50	7.85	
2025-01-12 07:53:27.66	353.48	7.83	
2025-01-12 07:53:27.87	353.45	7.82	
2025-01-12 07:53:28.08	353.43	7.81	
2025-01-12 07:53:28.28	353.40	7.80	
2025-01-12 07:53:28.48	353.38	7.79	
2025-01-12 07:53:28.69	353.35	7.78	
2025-01-12 07:53:28.89	353.33	7.77	
2025-01-12 07:53:29.10	353.30	7.76	
2025-01-12 07:53:29.30	353.28	7.75	
2025-01-12 07:53:29.51	353.25	7.73	
2025-01-12 07:53:29.71	353.23	7.72	
2025-01-12 07:53:29.92	353.20	7.71	
2025-01-12 07:53:30.12	353.18	7.70	
2025-01-12 07:53:30.33	353.15	7.69	
2025-01-12 07:53:30.53	353.13	7.68	
2025-01-12 07:53:30.74	353.10	7.67	
2025-01-12 07:53:30.94	353.08	7.66	
2025-01-12 07:53:31.15	353.05	7.65	
2025-01-12 07:53:31.35	353.03	7.64	
2025-01-12 07:53:31.57	353.00	7.62	
2025-01-12 07:53:31.78	352.98	7.61	
2025-01-12 07:53:31.98	352.95	7.60	
2025-01-12 07:53:32.19	352.93	7.59	
2025-01-12 07:53:32.39	352.90	7.58	
2025-01-12 07:53:32.60	352.88	7.57	
2025-01-12 07:53:32.80	352.86	7.56	
2025-01-12 07:53:33.01	352.83	7.55	
2025-01-12 07:53:33.21	352.81	7.54	
2025-01-12 07:53:33.42	352.78	7.52	
2025-01-12 07:53:33.62	352.76	7.51	
2025-01-12 07:53:33.83	352.73	7.50	
2025-01-12 07:53:34.03	352.71	7.49	
2025-01-12 07:53:34.24	352.68	7.48	
2025-01-12 07:53:34.44	352.66	7.47	
2025-01-12 07:53:34.65	352.63	7.46	
2025-01-12 07:53:34.87	352.61	7.45	
2025-01-12 07:53:35.07	352.58	7.44	
2025-01-12 07:53:35.28	352.56	7.42	
2025-01-12 07:53:35.48	352.54	7.41	
2025-01-12 07:53:35.69	352.51	7.40	
2025-01-12 07:53:35.89	352.49	7.39	
2025-01-12 07:53:36.10	352.46	7.38	
2025-01-12 07:53:36.30	352.44	7.37	
2025-01-12 07:53:36.51	352.41	7.36	
2025-01-12 07:53:36.71	352.39	7.35	
2025-01-12 07:53:36.93	352.37	7.34	
2025-01-12 07:53:37.13	352.34	7.32	
2025-01-12 07:53:37.34	352.32	7.31	
2025-01-12 07:53:37.54	352.29	7.30	
2025-01-12 07:53:37.75	352.27	7.29	
2025-01-12 07:53:37.95	352.25	7.28	
2025-01-12 07:53:38.16	352.22	7.27	
2025-01-12 07:53:38.37	352.20	7.26	
2025-01-12 07:53:38.57	352.17	7.25	
2025-01-12 07:53:38.78	352.15	7.24	
2025-01-12 07:53:38.98	352.12	7.23	
2025-01-12 07:53:39.19	352.10	7.21	
2025-01-12 07:53:39.39	352.08	7.20	
2025-01-12 07:53:39.60	352.05	7.19	
2025-01-12 07:53:39.80	352.03	7.18	
2025-01-12 07:53:40.01	352.00	7.17	
2025-01-12 07:53:40.23	351.98	7.16	
2025-01-12 07:53:40.43	351.96	7.15	
2025-01-12 07:53:40.64	351.93	7.14	
2025-01-12 07:53:40.84	351.91	7.12	
2025-01-12 07:53:41.05	351.88	7.11	
2025-01-12 07:53:41.25	351.86	7.10	
2025-01-12 07:53:41.46	351.84	7.09	
2025-01-12 07:53:41.66	351.81	7.08	
2025-01-12 07:53:41.87	351.79	7.07	
2025-01-12 07:53:42.07	351.77	7.06	
2025-01-12 07:53:42.28	351.74	7.05	
2025-01-12 07:53:42.48	351.72	7.04	
2025-01-12 07:53:42.69	351.69	7.03	
2025-01-12 07:53:42.89	351.67	7.01	
2025-01-12 07:53:43.10	351.65	7.00	
2025-01-12 07:53:43.32	351.62	6.99	
2025-01-12 07:53:43.52	351.60	6.98	
2025-01-12 07:53:43.73	351.57	6.97	
2025-01-12 07:53:43.94	351.55	6.96	
2025-01-12 07:53:44.15	351.53	6.95	
2025-01-12 07:53:44.36	351.50	6.94	
2025-01-12 07:53:44.56	351.48	6.92	
2025-01-12 07:53:44.77	351.46	6.91	
2025-01-12 07:53:44.97	351.43	6.90	
2025-01-12 07:53:45.18	351.41	6.89	
2025-01-12 07:53:45.38	351.39	6.88	
2025-01-12 07:53:45.58	351.36	6.87	
2025-01-12 07:53:45.79	351.34	6.86	
2025-01-12 07:53:46.00	351.31	6.85	
2025-01-12 07:53:46.20	351.29	6.84	
2025-01-12 07:53:46.41	351.27	6.83	
2025-01-12 07:53:46.61	351.25	6.81	
2025-01-12 07:53:46.82	351.22	6.80	
2025-01-12 07:53:47.02	351.20	6.79	
2025-01-12 07:53:47.23	351.18	6.78	
2025-01-12 07:53:47.43	351.15	6.77	
2025-01-12 07:53:47.64	351.13	6.76	
2025-01-12 07:53:47.84	351.11	6.75	
2025-01-12 07:53:48.05	351.08	6.74	
2025-01-12 07:53:48.25	351.06	6.73	
2025-01-12 07:53:48.46	351.04	6.71	
2025-01-12 07:53:48.66	351.01	6.70	
2025-01-12 07:53:48.87	350.99	6.69	
2025-01-12 07:53:49.07	350.97	6.68	
2025-01-12 07:53:49.28	350.94	6.67	
2025-01-12 07:53:49.48	350.92	6.66	
2025-01-12 07:53:49.68	350.90	6.65	
2025-01-12 07:53:49.89	350.88	6.64	
2025-01-12 07:53:50.09	350.85	6.63	
2025-01-12 07:53:50.29	350.83	6.62	
2025-01-12 07:53:50.50	350.81	6.61	
2025-01-12 07:53:50.70	350.78	6.59	
2025-01-12 07:53:50.91	350.76	6.58	
2025-01-12 07:53:51.11	350.74	6.57	
2025-01-12 07:53:51.32	350.72	6.56	
2025-01-12 07:53:51.53	350.69	6.55	
2025-01-12 07:53:51.73	350.67	6.54	
2025-01-12 07:53:51.93	350.65	6.53	
2025-01-12 07:53:52.14	350.62	6.52	
2025-01-12 07:53:52.35	350.60	6.51	
2025-01-12 07:53:52.55	350.58	6.49	
2025-01-12 07:53:52.76	350.56	6.48	
2025-01-12 07:53:52.96	350.53	6.47	
2025-01-12 07:53:53.17	350.51	6.46	
2025-01-12 07:53:53.37	350.49	6.45	
2025-01-12 07:53:53.58	350.46	6.44	
2025-01-12 07:53:53.78	350.44	6.43	
2025-01-12 07:53:53.99	350.42	6.42	
2025-01-12 07:53:54.19	350.40	6.41	
2025-01-12 07:53:54.39	350.38	6.40	
2025-01-12 07:53:54.60	350.35	6.38	
2025-01-12 07:53:54.81	350.33	6.37	
2025-01-12 07:53:55.01	350.31	6.36	
2025-01-12 07:53:55.22	350.28	6.35	
2025-01-12 07:53:55.42	350.26	6.34	
2025-01-12 07:53:55.63	350.24	6.33	
2025-01-12 07:53:55.83	350.22	6.32	
2025-01-12 07:53:56.04	350.19	6.31	
2025-01-12 07:53:56.24	350.17	6.30	
2025-01-12 07:53:56.45	350.15	6.29	
2025-01-12 07:53:56.65	350.13	6.27	
2025-01-12 07:53:56.86	350.10	6.26	
2025-01-12 07:53:57.07	350.08	6.25	
2025-01-12 07:53:57.27	350.06	6.24	
2025-01-12 07:53:57.48	350.04	6.23	
2025-01-12 07:53:57.68	350.02	6.22	
2025-01-12 07:53:57.89	349.99	6.21	
2025-01-12 07:53:58.09	349.97	6.20	
2025-01-12 07:53:58.31	349.95	6.19	
2025-01-12 07:53:58.51	349.92	6.17	
2025-01-12 07:53:58.72	349.90	6.16	
2025-01-12 07:53:58.93	349.88	6.15	
2025-01-12 07:53:59.13	349.86	6.14	
2025-01-12 07:53:59.34	349.83	6.13	
2025-01-12 07:53:59.54	349.81	6.12	
2025-01-12 07:53:59.75	349.79	6.11	
2025-01-12 07:53:59.95	349.77	6.10	
2025-01-12 07:54:00.17	349.75	6.09	
2025-01-12 07:54:00.37	349.72	6.07	
2025-01-12 07:54:00.58	349.70	6.06	
2025-01-12 07:54:00.78	349.68	6.05	
2025-01-12 07:54:00.99	349.66	6.04	
2025-01-12 07:54:01.20	349.63	6.03	
2025-01-12 07:54:01.40	349.61	6.02	
2025-01-12 07:54:01.60	349.59	6.01	
2025-01-12 07:54:01.81	349.57	6.00	
2025-01-12 07:54:02.01	349.55	5.99	
2025-01-12 07:54:02.22	349.53	5.98	
2025-01-12 07:54:02.43	349.50	5.96	
2025-01-12 07:54:02.64	349.48	5.95	
2025-01-12 07:54:02.85	349.46	5.94	
2025-01-12 07:54:03.05	349.44	5.93	
2025-01-12 07:54:03.26	349.41	5.92	
2025-01-12 07:54:03.46	349.39	5.91	
2025-01-12 07:54:03.67	349.37	5.90	
2025-01-12 07:54:03.87	349.35	5.89	
2025-01-12 07:54:04.08	349.33	5.88	
2025-01-12 07:54:04.28	349.31	5.86	
2025-01-12 07:54:04.49	349.28	5.85	
2025-01-12 07:54:04.69	349.26	5.84	
2025-01-12 07:54:04.90	349.24	5.83	
2025-01-12 07:54:05.11	349.22	5.82	
2025-01-12 07:54:05.31	349.20	5.81	
2025-01-12 07:54:05.52	349.17	5.80	
2025-01-12 07:54:05.72	349.15	5.79	
2025-01-12 07:54:05.92	349.13	5.78	
2025-01-12 07:54:06.13	349.11	5.77	
2025-01-12 07:54:06.34	349.09	5.75	
2025-01-12 07:54:06.54	349.07	5.74	
2025-01-12 07:54:06.75	349.04	5.73	
2025-01-12 07:54:06.95	349.02	5.72	
2025-01-12 07:54:07.16	349.00	5.71	
2025-01-12 07:54:07.36	348.98	5.70	
2025-01-12 07:54:07.57	348.96	5.69	
2025-01-12 07:54:07.77	348.94	5.68	
2025-01-12 07:54:07.98	348.92	5.67	
2025-01-12 07:54:08.18	348.89	5.66	
2025-01-12 07:54:08.39	348.87	5.64	
2025-01-12 07:54:08.60	348.85	5.63	
2025-01-12 07:54:08.80	348.83	5.62	
2025-01-12 07:54:09.01	348.81	5.61	
2025-01-12 07:54:09.22	348.79	5.60	
2025-01-12 07:54:09.42	348.77	5.59	
2025-01-12 07:54:09.63	348.74	5.58	
2025-01-12 07:54:09.83	348.72	5.57	
2025-01-12 07:54:10.04	348.70	5.56	
2025-01-12 07:54:10.24	348.68	5.55	
2025-01-12 07:54:10.45	348.66	5.53	
2025-01-12 07:54:10.66	348.64	5.52	
2025-01-12 07:54:10.86	348.62	5.51	
2025-01-12 07:54:11.07	348.59	5.50	
2025-01-12 07:54:11.27	348.57	5.49	
2025-01-12 07:54:11.47	348.55	5.48	
2025-01-12 07:54:11.68	348.53	5.47	
2025-01-12 07:54:11.89	348.51	5.46	
2025-01-12 07:54:12.09	348.49	5.45	
2025-01-12 07:54:12.29	348.47	5.44	
2025-01-12 07:54:12.50	348.45	5.42	
2025-01-12 07:54:12.71	348.43	5.41	
2025-01-12 07:54:12.91	348.40	5.40	
2025-01-12 07:54:13.12	348.38	5.39	
2025-01-12 07:54:13.32	348.36	5.38	
2025-01-12 07:54:13.52	348.34	5.37	
2025-01-12 07:54:13.73	348.32	5.36	
2025-01-12 07:54:13.94	348.30	5.35	
2025-01-12 07:54:14.14	348.28	5.34	
2025-01-12 07:54:14.34	348.26	5.33	
2025-01-12 07:54:14.55	348.24	5.32	
2025-01-12 07:54:14.75	348.22	5.30	
2025-01-12 07:54:14.96	348.19	5.29	
2025-01-12 07:54:15.16	348.17	5.28	
2025-01-12 07:54:15.37	348.15	5.27	
2025-01-12 07:54:15.57	348.13	5.26	
2025-01-12 07:54:15.78	348.11	5.25	
2025-01-12 07:54:15.98	348.09	5.24	
2025-01-12 07:54:16.19	348.07	5.23	
2025-01-12 07:54:16.39	348.05	5.22	
2025-01-12 07:54:16.60	348.03	5.21	
2025-01-12 07:54:16.80	348.01	5.20	
2025-01-12 07:54:17.01	347.99	5.18	
2025-01-12 07:54:17.22	347.97	5.17	
2025-01-12 07:54:17.42	347.95	5.16	
2025-01-12 07:54:17.63	347.92	5.15	
2025-01-12 07:54:17.83	347.90	5.14	
2025-01-12 07:54:18.04	347.88	5.13	
2025-01-12 07:54:18.24	347.86	5.12	
2025-01-12 07:54:18.45	347.84	5.11	
2025-01-12 07:54:18.65	347.82	5.10	
2025-01-12 07:54:18.86	347.80	5.09	
2025-01-12 07:54:19.07	347.78	5.07	
2025-01-12 07:54:19.27	347.76	5.06	
2025-01-12 07:54:19.47	347.74	5.05	
2025-01-12 07:54:19.68	347.72	5.04	
2025-01-12 07:54:19.88	347.70	5.03	
2025-01-12 07:54:20.09	347.68	5.02	
2025-01-12 07:54:20.29	347.66	5.01	
2025-01-12 07:54:20.50	347.64	5.00	
2025-01-12 07:54:20.70	347.62	4.99	
2025-01-12 07:54:20.91	347.60	4.98	
2025-01-12 07:54:21.11	347.58	4.97	
2025-01-12 07:54:21.32	347.55	4.95	
2025-01-12 07:54:21.53	347.53	4.94	
2025-01-12 07:54:21.73	347.51	4.93	
2025-01-12 07:54:21.93	347.49	4.92	
2025-01-12 07:54:22.14	347.47	4.91	
2025-01-12 07:54:22.35	347.45	4.90	
2025-01-12 07:54:22.55	347.43	4.89	
2025-01-12 07:54:22.76	347.41	4.88	
2025-01-12 07:54:22.96	347.39	4.87	
2025-01-12 07:54:23.17	347.37	4.86	
2025-01-12 07:54:23.37	347.35	4.85	
2025-01-12 07:54:23.58	347.33	4.83	
2025-01-12 07:54:23.78	347.31	4.82	
2025-01-12 07:54:23.99	347.29	4.81	
2025-01-12 07:54:24.19	347.27	4.80	
2025-01-12 07:54:24.40	347.25	4.79	
2025-01-12 07:54:24.61	347.23	4.78	
2025-01-12 07:54:24.81	347.21	4.77	
2025-01-12 07:54:25.01	347.19	4.76	
2025-01-12 07:54:25.22	347.17	4.75	
2025-01-12 07:54:25.43	347.15	4.74	
2025-01-12 07:54:25.63	347.13	4.72	
2025-01-12 07:54:25.84	347.11	4.71	
2025-01-12 07:54:26.04	347.09	4.70	
2025-01-12 07:54:26.24	347.07	4.69	
2025-01-12 07:54:26.45	347.05	4.68	
2025-01-12 07:54:26.66	347.03	4.67	
2025-01-12 07:54:26.86	347.01	4.66	
2025-01-12 07:54:27.07	346.99	4.65	
2025-01-12 07:54:27.28	346.97	4.64	
2025-01-12 07:54:27.49	346.95	4.63	
2025-01-12 07:54:27.69	346.93	4.62	
2025-01-12 07:54:27.90	346.91	4.60	
2025-01-12 07:54:28.10	346.89	4.59	
2025-01-12 07:54:28.31	346.87	4.58	
2025-01-12 07:54:28.51	346.85	4.57	
2025-01-12 07:54:28.72	346.83	4.56	
2025-01-12 07:54:28.93	346.81	4.55	
2025-01-12 07:54:29.13	346.79	4.54	
2025-01-12 07:54:29.34	346.77	4.53	
2025-01-12 07:54:29.54	346.75	4.52	
2025-01-12 07:54:29.75	346.73	4.51	
2025-01-12 07:54:29.95	346.71	4.50	
2025-01-12 07:54:30.16	346.69	4.48	
2025-01-12 07:54:30.38	346.67	4.47	
2025-01-12 07:54:30.58	346.65	4.46	
2025-01-12 07:54:30.79	346.63	4.45	
2025-01-12 07:54:30.99	346.61	4.44	
2025-01-12 07:54:31.20	346.59	4.43	
2025-01-12 07:54:31.40	346.57	4.42	
2025-01-12 07:54:31.61	346.55	4.41	
2025-01-12 07:54:31.81	346.53	4.40	
2025-01-12 07:54:32.02	346.51	4.39	
2025-01-12 07:54:32.22	346.49	4.38	
2025-01-12 07:54:32.43	346.47	4.36	
2025-01-12 07:54:32.63	346.45	4.35	
2025-01-12 07:54:32.84	346.43	4.34	
2025-01-12 07:54:33.04	346.41	4.33	
2025-01-12 07:54:33.25	346.39	4.32	
2025-01-12 07:54:33.45	346.37	4.31	
2025-01-12 07:54:33.67	346.35	4.30	
2025-01-12 07:54:33.88	346.33	4.29	
2025-01-12 07:54:34.08	346.32	4.28	
2025-01-12 07:54:34.29	346.30	4.27	
2025-01-12 07:54:34.49	346.28	4.26	
2025-01-12 07:54:34.70	346.26	4.24	
2025-01-12 07:54:34.91	346.24	4.23	
2025-01-12 07:54:35.12	346.22	4.22	
2025-01-12 07:54:35.32	346.20	4.21	
2025-01-12 07:54:35.53	346.18	4.20	
2025-01-12 07:54:35.73	346.16	4.19	
2025-01-12 07:54:35.94	346.14	4.18	
2025-01-12 07:54:36.14	346.12	4.17	
2025-01-12 07:54:36.35	346.10	4.16	
2025-01-12 07:54:36.55	346.08	4.15	
2025-01-12 07:54:36.77	346.06	4.13	
2025-01-12 07:54:36.97	346.04	4.12	
2025-01-12 07:54:37.18	346.02	4.11	
2025-01-12 07:54:37.39	346.00	4.10	
2025-01-12 07:54:37.59	345.98	4.09	
2025-01-12 07:54:37.80	345.96	4.08	
2025-01-12 07:54:38.00	345.95	4.07	
2025-01-12 07:54:38.21	345.93	4.06	
2025-01-12 07:54:38.41	345.91	4.05	
2025-01-12 07:54:38.62	345.89	4.04	
2025-01-12 07:54:38.83	345.87	4.03	
2025-01-12 07:54:39.03	345.85	4.02	
2025-01-12 07:54:39.24	345.83	4.00	

#Closed at: 2025-01-12 07:54:39