passes_logs/2025/01/12/SPB_Silybum_02/SPB_Silybum_02__20250112_231015_SUOMI_NPP_rec.log

#Pass ID: 20250112_231015_SUOMI NPP
#Satellite: SUOMI NPP
#Configuration: NPP
#Start time: 2025-01-12 23:10:15

#Version: 2.0.20230423
#Station: SPB_Silybum_02
#Location: 30.233357 lon 59.946436 lat
#TLE: 1 37849U 11061A   25012.17094835  .00000145  00000+0  89644-4 0  9991
#TLE: 2 37849  98.7443 313.1954 0001789  45.3429 314.7892 14.19536935684510

#Time	Az	El	Level	Level2	SNR	BER	Gain	Gain2
2025-01-12 23:10:17.84	22.87	4.14	
2025-01-12 23:10:18.05	22.88	4.15	
2025-01-12 23:10:18.25	22.90	4.17	
2025-01-12 23:10:18.46	22.91	4.18	
2025-01-12 23:10:18.66	22.92	4.19	
2025-01-12 23:10:18.87	22.93	4.21	
2025-01-12 23:10:19.07	22.94	4.22	
2025-01-12 23:10:19.28	22.95	4.23	
2025-01-12 23:10:19.49	22.97	4.25	
2025-01-12 23:10:19.69	22.98	4.26	
2025-01-12 23:10:19.90	22.99	4.27	
2025-01-12 23:10:20.10	23.00	4.29	
2025-01-12 23:10:20.30	23.01	4.30	
2025-01-12 23:10:20.51	23.02	4.31	
2025-01-12 23:10:20.72	23.04	4.33	
2025-01-12 23:10:20.92	23.05	4.34	
2025-01-12 23:10:21.13	23.06	4.35	
2025-01-12 23:10:21.33	23.07	4.36	
2025-01-12 23:10:21.54	23.08	4.38	
2025-01-12 23:10:21.74	23.09	4.39	
2025-01-12 23:10:21.95	23.11	4.40	
2025-01-12 23:10:22.15	23.12	4.42	
2025-01-12 23:10:22.36	23.13	4.43	
2025-01-12 23:10:22.56	23.14	4.44	
2025-01-12 23:10:22.77	23.15	4.46	
2025-01-12 23:10:22.97	23.17	4.47	
2025-01-12 23:10:23.18	23.18	4.48	
2025-01-12 23:10:23.38	23.19	4.50	
2025-01-12 23:10:23.59	23.20	4.51	
2025-01-12 23:10:23.79	23.21	4.52	
2025-01-12 23:10:24.00	23.23	4.54	
2025-01-12 23:10:24.20	23.24	4.55	
2025-01-12 23:10:24.42	23.25	4.56	
2025-01-12 23:10:24.62	23.26	4.58	
2025-01-12 23:10:24.83	23.27	4.59	
2025-01-12 23:10:25.04	23.29	4.60	
2025-01-12 23:10:25.24	23.30	4.62	
2025-01-12 23:10:25.44	23.31	4.63	
2025-01-12 23:10:25.65	23.32	4.64	
2025-01-12 23:10:25.85	23.33	4.65	
2025-01-12 23:10:26.06	23.35	4.67	
2025-01-12 23:10:26.26	23.36	4.68	
2025-01-12 23:10:26.47	23.37	4.69	
2025-01-12 23:10:26.67	23.38	4.71	
2025-01-12 23:10:26.88	23.39	4.72	
2025-01-12 23:10:27.08	23.41	4.73	
2025-01-12 23:10:27.29	23.42	4.75	
2025-01-12 23:10:27.49	23.43	4.76	
2025-01-12 23:10:27.70	23.44	4.77	
2025-01-12 23:10:27.91	23.45	4.79	
2025-01-12 23:10:28.11	23.47	4.80	
2025-01-12 23:10:28.32	23.48	4.81	
2025-01-12 23:10:28.52	23.49	4.83	
2025-01-12 23:10:28.73	23.50	4.84	
2025-01-12 23:10:28.93	23.51	4.85	
2025-01-12 23:10:29.14	23.53	4.87	
2025-01-12 23:10:29.34	23.54	4.88	
2025-01-12 23:10:29.55	23.55	4.89	
2025-01-12 23:10:29.75	23.56	4.91	
2025-01-12 23:10:29.96	23.58	4.92	
2025-01-12 23:10:30.16	23.59	4.93	
2025-01-12 23:10:30.37	23.60	4.95	
2025-01-12 23:10:30.59	23.61	4.96	
2025-01-12 23:10:30.79	23.62	4.97	
2025-01-12 23:10:30.99	23.64	4.99	
2025-01-12 23:10:31.20	23.65	5.00	
2025-01-12 23:10:31.40	23.66	5.01	
2025-01-12 23:10:31.61	23.67	5.03	
2025-01-12 23:10:31.81	23.69	5.04	
2025-01-12 23:10:32.02	23.70	5.06	
2025-01-12 23:10:32.23	23.71	5.07	
2025-01-12 23:10:32.43	23.72	5.08	
2025-01-12 23:10:32.64	23.74	5.10	
2025-01-12 23:10:32.84	23.75	5.11	
2025-01-12 23:10:33.05	23.76	5.12	
2025-01-12 23:10:33.25	23.77	5.14	
2025-01-12 23:10:33.46	23.78	5.15	
2025-01-12 23:10:33.67	23.80	5.16	
2025-01-12 23:10:33.87	23.81	5.18	
2025-01-12 23:10:34.08	23.82	5.19	
2025-01-12 23:10:34.28	23.83	5.20	
2025-01-12 23:10:34.49	23.85	5.22	
2025-01-12 23:10:34.70	23.86	5.23	
2025-01-12 23:10:34.90	23.87	5.24	
2025-01-12 23:10:35.11	23.88	5.26	
2025-01-12 23:10:35.31	23.90	5.27	
2025-01-12 23:10:35.52	23.91	5.28	
2025-01-12 23:10:35.72	23.92	5.30	
2025-01-12 23:10:35.93	23.93	5.31	
2025-01-12 23:10:36.13	23.95	5.33	
2025-01-12 23:10:36.34	23.96	5.34	
2025-01-12 23:10:36.54	23.97	5.35	
2025-01-12 23:10:36.75	23.98	5.37	
2025-01-12 23:10:36.96	24.00	5.38	
2025-01-12 23:10:37.16	24.01	5.39	
2025-01-12 23:10:37.37	24.02	5.41	
2025-01-12 23:10:37.57	24.03	5.42	
2025-01-12 23:10:37.78	24.05	5.43	
2025-01-12 23:10:37.98	24.06	5.45	
2025-01-12 23:10:38.19	24.07	5.46	
2025-01-12 23:10:38.39	24.09	5.47	
2025-01-12 23:10:38.60	24.10	5.49	
2025-01-12 23:10:38.80	24.11	5.50	
2025-01-12 23:10:39.01	24.12	5.52	
2025-01-12 23:10:39.22	24.14	5.53	
2025-01-12 23:10:39.42	24.15	5.54	
2025-01-12 23:10:39.62	24.16	5.56	
2025-01-12 23:10:39.83	24.17	5.57	
2025-01-12 23:10:40.03	24.19	5.58	
2025-01-12 23:10:40.24	24.20	5.60	
2025-01-12 23:10:40.44	24.21	5.61	
2025-01-12 23:10:40.65	24.22	5.62	
2025-01-12 23:10:40.85	24.24	5.64	
2025-01-12 23:10:41.06	24.25	5.65	
2025-01-12 23:10:41.26	24.26	5.67	
2025-01-12 23:10:41.47	24.28	5.68	
2025-01-12 23:10:41.67	24.29	5.69	
2025-01-12 23:10:41.88	24.30	5.71	
2025-01-12 23:10:42.08	24.31	5.72	
2025-01-12 23:10:42.29	24.33	5.73	
2025-01-12 23:10:42.49	24.34	5.75	
2025-01-12 23:10:42.70	24.35	5.76	
2025-01-12 23:10:42.90	24.37	5.77	
2025-01-12 23:10:43.11	24.38	5.79	
2025-01-12 23:10:43.32	24.39	5.80	
2025-01-12 23:10:43.52	24.40	5.82	
2025-01-12 23:10:43.73	24.42	5.83	
2025-01-12 23:10:43.93	24.43	5.84	
2025-01-12 23:10:44.13	24.44	5.86	
2025-01-12 23:10:44.34	24.46	5.87	
2025-01-12 23:10:44.55	24.47	5.89	
2025-01-12 23:10:44.75	24.48	5.90	
2025-01-12 23:10:44.96	24.50	5.91	
2025-01-12 23:10:45.16	24.51	5.93	
2025-01-12 23:10:45.37	24.52	5.94	
2025-01-12 23:10:45.57	24.53	5.95	
2025-01-12 23:10:45.78	24.55	5.97	
2025-01-12 23:10:45.98	24.56	5.98	
2025-01-12 23:10:46.19	24.57	6.00	
2025-01-12 23:10:46.39	24.59	6.01	
2025-01-12 23:10:46.59	24.60	6.02	
2025-01-12 23:10:46.80	24.61	6.04	
2025-01-12 23:10:47.00	24.62	6.05	
2025-01-12 23:10:47.21	24.64	6.06	
2025-01-12 23:10:47.42	24.65	6.08	
2025-01-12 23:10:47.62	24.66	6.09	
2025-01-12 23:10:47.82	24.68	6.11	
2025-01-12 23:10:48.03	24.69	6.12	
2025-01-12 23:10:48.23	24.70	6.13	
2025-01-12 23:10:48.44	24.72	6.15	
2025-01-12 23:10:48.64	24.73	6.16	
2025-01-12 23:10:48.85	24.74	6.18	
2025-01-12 23:10:49.05	24.76	6.19	
2025-01-12 23:10:49.26	24.77	6.20	
2025-01-12 23:10:49.46	24.78	6.22	
2025-01-12 23:10:49.68	24.80	6.23	
2025-01-12 23:10:49.88	24.81	6.25	
2025-01-12 23:10:50.09	24.82	6.26	
2025-01-12 23:10:50.29	24.84	6.27	
2025-01-12 23:10:50.49	24.85	6.29	
2025-01-12 23:10:50.70	24.86	6.30	
2025-01-12 23:10:50.90	24.88	6.32	
2025-01-12 23:10:51.12	24.89	6.33	
2025-01-12 23:10:51.32	24.90	6.34	
2025-01-12 23:10:51.53	24.92	6.36	
2025-01-12 23:10:51.74	24.93	6.37	
2025-01-12 23:10:51.94	24.94	6.39	
2025-01-12 23:10:52.14	24.96	6.40	
2025-01-12 23:10:52.35	24.97	6.41	
2025-01-12 23:10:52.55	24.98	6.43	
2025-01-12 23:10:52.76	25.00	6.44	
2025-01-12 23:10:52.96	25.01	6.46	
2025-01-12 23:10:53.17	25.02	6.47	
2025-01-12 23:10:53.37	25.04	6.48	
2025-01-12 23:10:53.58	25.05	6.50	
2025-01-12 23:10:53.78	25.06	6.51	
2025-01-12 23:10:53.99	25.08	6.53	
2025-01-12 23:10:54.19	25.09	6.54	
2025-01-12 23:10:54.40	25.10	6.55	
2025-01-12 23:10:54.60	25.12	6.57	
2025-01-12 23:10:54.81	25.13	6.58	
2025-01-12 23:10:55.01	25.14	6.60	
2025-01-12 23:10:55.21	25.16	6.61	
2025-01-12 23:10:55.42	25.17	6.62	
2025-01-12 23:10:55.62	25.19	6.64	
2025-01-12 23:10:55.83	25.20	6.65	
2025-01-12 23:10:56.03	25.21	6.67	
2025-01-12 23:10:56.24	25.23	6.68	
2025-01-12 23:10:56.44	25.24	6.69	
2025-01-12 23:10:56.65	25.25	6.71	
2025-01-12 23:10:56.85	25.27	6.72	
2025-01-12 23:10:57.06	25.28	6.74	
2025-01-12 23:10:57.27	25.30	6.75	
2025-01-12 23:10:57.47	25.31	6.77	
2025-01-12 23:10:57.68	25.32	6.78	
2025-01-12 23:10:57.88	25.34	6.79	
2025-01-12 23:10:58.09	25.35	6.81	
2025-01-12 23:10:58.29	25.36	6.82	
2025-01-12 23:10:58.50	25.38	6.84	
2025-01-12 23:10:58.70	25.39	6.85	
2025-01-12 23:10:58.91	25.40	6.87	
2025-01-12 23:10:59.12	25.42	6.88	
2025-01-12 23:10:59.32	25.43	6.89	
2025-01-12 23:10:59.52	25.45	6.91	
2025-01-12 23:10:59.73	25.46	6.92	
2025-01-12 23:10:59.94	25.47	6.94	
2025-01-12 23:11:00.15	25.49	6.95	
2025-01-12 23:11:00.36	25.50	6.97	
2025-01-12 23:11:00.56	25.52	6.98	
2025-01-12 23:11:00.76	25.53	6.99	
2025-01-12 23:11:00.97	25.54	7.01	
2025-01-12 23:11:01.17	25.56	7.02	
2025-01-12 23:11:01.38	25.57	7.04	
2025-01-12 23:11:01.59	25.59	7.05	
2025-01-12 23:11:01.79	25.60	7.07	
2025-01-12 23:11:02.00	25.61	7.08	
2025-01-12 23:11:02.20	25.63	7.09	
2025-01-12 23:11:02.41	25.64	7.11	
2025-01-12 23:11:02.61	25.66	7.12	
2025-01-12 23:11:02.82	25.67	7.14	
2025-01-12 23:11:03.02	25.68	7.15	
2025-01-12 23:11:03.23	25.70	7.17	
2025-01-12 23:11:03.43	25.71	7.18	
2025-01-12 23:11:03.64	25.73	7.20	
2025-01-12 23:11:03.84	25.74	7.21	
2025-01-12 23:11:04.05	25.75	7.22	
2025-01-12 23:11:04.25	25.77	7.24	
2025-01-12 23:11:04.46	25.78	7.25	
2025-01-12 23:11:04.66	25.80	7.27	
2025-01-12 23:11:04.87	25.81	7.28	
2025-01-12 23:11:05.07	25.82	7.30	
2025-01-12 23:11:05.28	25.84	7.31	
2025-01-12 23:11:05.48	25.85	7.32	
2025-01-12 23:11:05.69	25.87	7.34	
2025-01-12 23:11:05.89	25.88	7.35	
2025-01-12 23:11:06.10	25.90	7.37	
2025-01-12 23:11:06.30	25.91	7.38	
2025-01-12 23:11:06.51	25.92	7.40	
2025-01-12 23:11:06.71	25.94	7.41	
2025-01-12 23:11:06.92	25.95	7.43	
2025-01-12 23:11:07.12	25.97	7.44	
2025-01-12 23:11:07.33	25.98	7.46	
2025-01-12 23:11:07.53	26.00	7.47	
2025-01-12 23:11:07.74	26.01	7.48	
2025-01-12 23:11:07.94	26.02	7.50	
2025-01-12 23:11:08.15	26.04	7.51	
2025-01-12 23:11:08.35	26.05	7.53	
2025-01-12 23:11:08.56	26.07	7.54	
2025-01-12 23:11:08.77	26.08	7.56	
2025-01-12 23:11:08.97	26.10	7.57	
2025-01-12 23:11:09.19	26.11	7.59	
2025-01-12 23:11:09.39	26.13	7.60	
2025-01-12 23:11:09.60	26.14	7.62	
2025-01-12 23:11:09.81	26.16	7.63	
2025-01-12 23:11:10.01	26.17	7.65	
2025-01-12 23:11:10.22	26.18	7.66	
2025-01-12 23:11:10.42	26.20	7.67	
2025-01-12 23:11:10.63	26.21	7.69	
2025-01-12 23:11:10.83	26.23	7.70	
2025-01-12 23:11:11.04	26.24	7.72	
2025-01-12 23:11:11.24	26.26	7.73	
2025-01-12 23:11:11.45	26.27	7.75	
2025-01-12 23:11:11.65	26.29	7.76	
2025-01-12 23:11:11.86	26.30	7.78	
2025-01-12 23:11:12.07	26.32	7.79	
2025-01-12 23:11:12.27	26.33	7.81	
2025-01-12 23:11:12.47	26.34	7.82	
2025-01-12 23:11:12.68	26.36	7.84	
2025-01-12 23:11:12.88	26.37	7.85	
2025-01-12 23:11:13.09	26.39	7.87	
2025-01-12 23:11:13.29	26.40	7.88	
2025-01-12 23:11:13.50	26.42	7.89	
2025-01-12 23:11:13.70	26.43	7.91	
2025-01-12 23:11:13.91	26.45	7.92	
2025-01-12 23:11:14.11	26.46	7.94	
2025-01-12 23:11:14.32	26.48	7.95	
2025-01-12 23:11:14.52	26.49	7.97	
2025-01-12 23:11:14.73	26.51	7.98	
2025-01-12 23:11:14.93	26.52	8.00	
2025-01-12 23:11:15.14	26.54	8.01	
2025-01-12 23:11:15.34	26.55	8.03	
2025-01-12 23:11:15.55	26.57	8.04	
2025-01-12 23:11:15.75	26.58	8.06	
2025-01-12 23:11:15.96	26.60	8.07	
2025-01-12 23:11:16.16	26.61	8.09	
2025-01-12 23:11:16.37	26.63	8.10	
2025-01-12 23:11:16.57	26.64	8.12	
2025-01-12 23:11:16.78	26.66	8.13	
2025-01-12 23:11:16.98	26.67	8.15	
2025-01-12 23:11:17.19	26.69	8.16	
2025-01-12 23:11:17.39	26.70	8.17	
2025-01-12 23:11:17.60	26.72	8.19	
2025-01-12 23:11:17.82	26.73	8.21	
2025-01-12 23:11:18.02	26.75	8.22	
2025-01-12 23:11:18.23	26.76	8.24	
2025-01-12 23:11:18.43	26.78	8.25	
2025-01-12 23:11:18.64	26.79	8.27	
2025-01-12 23:11:18.85	26.81	8.28	
2025-01-12 23:11:19.06	26.82	8.30	
2025-01-12 23:11:19.28	26.84	8.31	
2025-01-12 23:11:19.48	26.85	8.33	
2025-01-12 23:11:19.69	26.87	8.34	
2025-01-12 23:11:19.89	26.88	8.36	
2025-01-12 23:11:20.10	26.90	8.37	
2025-01-12 23:11:20.30	26.91	8.39	
2025-01-12 23:11:20.51	26.93	8.40	
2025-01-12 23:11:20.71	26.94	8.42	
2025-01-12 23:11:20.92	26.96	8.43	
2025-01-12 23:11:21.12	26.98	8.45	
2025-01-12 23:11:21.33	26.99	8.46	
2025-01-12 23:11:21.53	27.01	8.48	
2025-01-12 23:11:21.74	27.02	8.49	
2025-01-12 23:11:21.94	27.04	8.51	
2025-01-12 23:11:22.14	27.05	8.52	
2025-01-12 23:11:22.35	27.07	8.54	
2025-01-12 23:11:22.56	27.08	8.55	
2025-01-12 23:11:22.76	27.10	8.57	
2025-01-12 23:11:22.97	27.11	8.58	
2025-01-12 23:11:23.17	27.13	8.60	
2025-01-12 23:11:23.38	27.14	8.61	
2025-01-12 23:11:23.58	27.16	8.63	
2025-01-12 23:11:23.79	27.18	8.64	
2025-01-12 23:11:23.99	27.19	8.66	
2025-01-12 23:11:24.20	27.21	8.67	
2025-01-12 23:11:24.40	27.22	8.69	
2025-01-12 23:11:24.61	27.24	8.70	
2025-01-12 23:11:24.81	27.25	8.72	
2025-01-12 23:11:25.02	27.27	8.73	
2025-01-12 23:11:25.22	27.28	8.75	
2025-01-12 23:11:25.43	27.30	8.76	
2025-01-12 23:11:25.63	27.31	8.78	
2025-01-12 23:11:25.84	27.33	8.79	
2025-01-12 23:11:26.04	27.35	8.81	
2025-01-12 23:11:26.26	27.36	8.82	
2025-01-12 23:11:26.46	27.38	8.84	
2025-01-12 23:11:26.67	27.39	8.85	
2025-01-12 23:11:26.88	27.41	8.87	
2025-01-12 23:11:27.08	27.42	8.88	
2025-01-12 23:11:27.29	27.44	8.90	
2025-01-12 23:11:27.49	27.46	8.91	
2025-01-12 23:11:27.70	27.47	8.93	
2025-01-12 23:11:27.91	27.49	8.95	
2025-01-12 23:11:28.11	27.50	8.96	
2025-01-12 23:11:28.31	27.52	8.98	
2025-01-12 23:11:28.52	27.54	8.99	
2025-01-12 23:11:28.72	27.55	9.01	
2025-01-12 23:11:28.93	27.57	9.02	
2025-01-12 23:11:29.13	27.58	9.04	
2025-01-12 23:11:29.34	27.60	9.05	
2025-01-12 23:11:29.54	27.61	9.07	
2025-01-12 23:11:29.75	27.63	9.08	
2025-01-12 23:11:29.95	27.65	9.10	
2025-01-12 23:11:30.16	27.66	9.11	
2025-01-12 23:11:30.36	27.68	9.13	
2025-01-12 23:11:30.57	27.69	9.14	
2025-01-12 23:11:30.77	27.71	9.16	
2025-01-12 23:11:30.97	27.73	9.17	
2025-01-12 23:11:31.18	27.74	9.19	
2025-01-12 23:11:31.39	27.76	9.21	
2025-01-12 23:11:31.60	27.77	9.22	
2025-01-12 23:11:31.81	27.79	9.24	
2025-01-12 23:11:32.01	27.81	9.25	
2025-01-12 23:11:32.22	27.82	9.27	
2025-01-12 23:11:32.42	27.84	9.28	
2025-01-12 23:11:32.63	27.86	9.30	
2025-01-12 23:11:32.83	27.87	9.31	
2025-01-12 23:11:33.04	27.89	9.33	
2025-01-12 23:11:33.24	27.90	9.34	
2025-01-12 23:11:33.45	27.92	9.36	
2025-01-12 23:11:33.65	27.94	9.37	
2025-01-12 23:11:33.86	27.95	9.39	
2025-01-12 23:11:34.07	27.97	9.41	
2025-01-12 23:11:34.27	27.98	9.42	
2025-01-12 23:11:34.48	28.00	9.44	
2025-01-12 23:11:34.68	28.02	9.45	
2025-01-12 23:11:34.89	28.03	9.47	
2025-01-12 23:11:35.10	28.05	9.48	
2025-01-12 23:11:35.30	28.07	9.50	
2025-01-12 23:11:35.51	28.08	9.52	
2025-01-12 23:11:35.71	28.10	9.53	
2025-01-12 23:11:35.93	28.12	9.55	
2025-01-12 23:11:36.14	28.13	9.56	
2025-01-12 23:11:36.34	28.15	9.58	
2025-01-12 23:11:36.55	28.17	9.59	
2025-01-12 23:11:36.75	28.18	9.61	
2025-01-12 23:11:36.96	28.20	9.63	
2025-01-12 23:11:37.16	28.22	9.64	
2025-01-12 23:11:37.37	28.23	9.66	
2025-01-12 23:11:37.58	28.25	9.67	
2025-01-12 23:11:37.78	28.27	9.69	
2025-01-12 23:11:37.99	28.28	9.70	
2025-01-12 23:11:38.19	28.30	9.72	
2025-01-12 23:11:38.40	28.32	9.73	
2025-01-12 23:11:38.60	28.33	9.75	
2025-01-12 23:11:38.81	28.35	9.77	
2025-01-12 23:11:39.01	28.36	9.78	
2025-01-12 23:11:39.22	28.38	9.80	
2025-01-12 23:11:39.42	28.40	9.81	
2025-01-12 23:11:39.63	28.41	9.83	
2025-01-12 23:11:39.83	28.43	9.84	
2025-01-12 23:11:40.04	28.45	9.86	
2025-01-12 23:11:40.24	28.46	9.87	
2025-01-12 23:11:40.45	28.48	9.89	
2025-01-12 23:11:40.66	28.50	9.91	
2025-01-12 23:11:40.86	28.52	9.92	
2025-01-12 23:11:41.07	28.53	9.94	
2025-01-12 23:11:41.27	28.55	9.95	
2025-01-12 23:11:41.48	28.57	9.97	
2025-01-12 23:11:41.68	28.58	9.99	
2025-01-12 23:11:41.89	28.60	10.00	
2025-01-12 23:11:42.09	28.62	10.02	
2025-01-12 23:11:42.31	28.63	10.03	
2025-01-12 23:11:42.52	28.65	10.05	
2025-01-12 23:11:42.72	28.67	10.07	
2025-01-12 23:11:42.93	28.69	10.08	
2025-01-12 23:11:43.13	28.70	10.10	
2025-01-12 23:11:43.34	28.72	10.11	
2025-01-12 23:11:43.54	28.74	10.13	
2025-01-12 23:11:43.75	28.75	10.14	
2025-01-12 23:11:43.95	28.77	10.16	
2025-01-12 23:11:44.16	28.79	10.18	
2025-01-12 23:11:44.36	28.80	10.19	
2025-01-12 23:11:44.57	28.82	10.21	
2025-01-12 23:11:44.77	28.84	10.22	
2025-01-12 23:11:44.98	28.86	10.24	
2025-01-12 23:11:45.19	28.87	10.26	
2025-01-12 23:11:45.39	28.89	10.27	
2025-01-12 23:11:45.60	28.91	10.29	
2025-01-12 23:11:45.80	28.92	10.30	
2025-01-12 23:11:46.00	28.94	10.32	
2025-01-12 23:11:46.21	28.96	10.34	
2025-01-12 23:11:46.41	28.98	10.35	
2025-01-12 23:11:46.62	28.99	10.37	
2025-01-12 23:11:46.82	29.01	10.38	
2025-01-12 23:11:47.03	29.03	10.40	
2025-01-12 23:11:47.23	29.04	10.41	
2025-01-12 23:11:47.44	29.06	10.43	
2025-01-12 23:11:47.64	29.08	10.45	
2025-01-12 23:11:47.85	29.10	10.46	
2025-01-12 23:11:48.05	29.11	10.48	
2025-01-12 23:11:48.26	29.13	10.49	
2025-01-12 23:11:48.46	29.15	10.51	
2025-01-12 23:11:48.67	29.17	10.53	
2025-01-12 23:11:48.87	29.18	10.54	
2025-01-12 23:11:49.08	29.20	10.56	
2025-01-12 23:11:49.28	29.22	10.57	
2025-01-12 23:11:49.49	29.24	10.59	
2025-01-12 23:11:49.69	29.25	10.61	
2025-01-12 23:11:49.90	29.27	10.62	
2025-01-12 23:11:50.10	29.29	10.64	
2025-01-12 23:11:50.31	29.31	10.65	
2025-01-12 23:11:50.51	29.32	10.67	
2025-01-12 23:11:50.72	29.34	10.69	
2025-01-12 23:11:50.92	29.36	10.70	
2025-01-12 23:11:51.13	29.38	10.72	
2025-01-12 23:11:51.34	29.40	10.74	
2025-01-12 23:11:51.54	29.41	10.75	
2025-01-12 23:11:51.75	29.43	10.77	
2025-01-12 23:11:51.95	29.45	10.78	
2025-01-12 23:11:52.16	29.47	10.80	
2025-01-12 23:11:52.36	29.48	10.82	
2025-01-12 23:11:52.57	29.50	10.83	
2025-01-12 23:11:52.77	29.52	10.85	
2025-01-12 23:11:52.98	29.54	10.87	
2025-01-12 23:11:53.18	29.55	10.88	
2025-01-12 23:11:53.39	29.57	10.90	
2025-01-12 23:11:53.59	29.59	10.91	
2025-01-12 23:11:53.80	29.61	10.93	
2025-01-12 23:11:54.00	29.63	10.95	
2025-01-12 23:11:54.21	29.64	10.96	
2025-01-12 23:11:54.41	29.66	10.98	
2025-01-12 23:11:54.62	29.68	10.99	
2025-01-12 23:11:54.83	29.70	11.01	
2025-01-12 23:11:55.03	29.72	11.03	
2025-01-12 23:11:55.23	29.73	11.04	
2025-01-12 23:11:55.44	29.75	11.06	
2025-01-12 23:11:55.64	29.77	11.08	
2025-01-12 23:11:55.86	29.79	11.09	
2025-01-12 23:11:56.07	29.81	11.11	
2025-01-12 23:11:56.27	29.83	11.13	
2025-01-12 23:11:56.47	29.84	11.14	
2025-01-12 23:11:56.68	29.86	11.16	
2025-01-12 23:11:56.88	29.88	11.17	
2025-01-12 23:11:57.09	29.90	11.19	
2025-01-12 23:11:57.29	29.92	11.21	
2025-01-12 23:11:57.50	29.93	11.22	
2025-01-12 23:11:57.70	29.95	11.24	
2025-01-12 23:11:57.91	29.97	11.26	
2025-01-12 23:11:58.11	29.99	11.27	
2025-01-12 23:11:58.33	30.01	11.29	
2025-01-12 23:11:58.54	30.03	11.31	
2025-01-12 23:11:58.74	30.05	11.32	
2025-01-12 23:11:58.95	30.06	11.34	
2025-01-12 23:11:59.15	30.08	11.36	
2025-01-12 23:11:59.36	30.10	11.37	
2025-01-12 23:11:59.56	30.12	11.39	
2025-01-12 23:11:59.77	30.14	11.41	
2025-01-12 23:11:59.97	30.16	11.42	
2025-01-12 23:12:00.18	30.17	11.44	
2025-01-12 23:12:00.38	30.19	11.46	
2025-01-12 23:12:00.59	30.21	11.47	
2025-01-12 23:12:00.79	30.23	11.49	
2025-01-12 23:12:01.00	30.25	11.50	
2025-01-12 23:12:01.20	30.27	11.52	
2025-01-12 23:12:01.40	30.29	11.54	
2025-01-12 23:12:01.61	30.30	11.55	
2025-01-12 23:12:01.82	30.32	11.57	
2025-01-12 23:12:02.03	30.34	11.59	
2025-01-12 23:12:02.24	30.36	11.61	
2025-01-12 23:12:02.44	30.38	11.62	
2025-01-12 23:12:02.65	30.40	11.64	
2025-01-12 23:12:02.85	30.42	11.65	
2025-01-12 23:12:03.06	30.44	11.67	
2025-01-12 23:12:03.26	30.45	11.69	
2025-01-12 23:12:03.46	30.47	11.70	
2025-01-12 23:12:03.67	30.49	11.72	
2025-01-12 23:12:03.87	30.51	11.74	
2025-01-12 23:12:04.08	30.53	11.75	
2025-01-12 23:12:04.28	30.55	11.77	
2025-01-12 23:12:04.49	30.57	11.79	
2025-01-12 23:12:04.69	30.59	11.80	
2025-01-12 23:12:04.90	30.61	11.82	
2025-01-12 23:12:05.11	30.63	11.84	
2025-01-12 23:12:05.31	30.64	11.85	
2025-01-12 23:12:05.52	30.66	11.87	
2025-01-12 23:12:05.72	30.68	11.89	
2025-01-12 23:12:05.93	30.70	11.90	
2025-01-12 23:12:06.13	30.72	11.92	
2025-01-12 23:12:06.34	30.74	11.94	
2025-01-12 23:12:06.54	30.76	11.95	
2025-01-12 23:12:06.75	30.78	11.97	
2025-01-12 23:12:06.95	30.80	11.99	
2025-01-12 23:12:07.16	30.82	12.01	
2025-01-12 23:12:07.36	30.83	12.02	
2025-01-12 23:12:07.57	30.85	12.04	
2025-01-12 23:12:07.77	30.87	12.06	
2025-01-12 23:12:07.97	30.89	12.07	
2025-01-12 23:12:08.18	30.91	12.09	
2025-01-12 23:12:08.38	30.93	12.11	
2025-01-12 23:12:08.59	30.95	12.12	
2025-01-12 23:12:08.80	30.97	12.14	
2025-01-12 23:12:09.00	30.99	12.16	
2025-01-12 23:12:09.20	31.01	12.17	
2025-01-12 23:12:09.41	31.03	12.19	
2025-01-12 23:12:09.62	31.05	12.21	
2025-01-12 23:12:09.82	31.07	12.22	
2025-01-12 23:12:10.03	31.09	12.24	
2025-01-12 23:12:10.23	31.11	12.26	
2025-01-12 23:12:10.44	31.13	12.28	
2025-01-12 23:12:10.64	31.14	12.29	
2025-01-12 23:12:10.85	31.16	12.31	
2025-01-12 23:12:11.05	31.18	12.33	
2025-01-12 23:12:11.25	31.20	12.34	
2025-01-12 23:12:11.46	31.22	12.36	
2025-01-12 23:12:11.66	31.24	12.38	
2025-01-12 23:12:11.87	31.26	12.39	
2025-01-12 23:12:12.07	31.28	12.41	
2025-01-12 23:12:12.28	31.30	12.43	
2025-01-12 23:12:12.48	31.32	12.44	
2025-01-12 23:12:12.69	31.34	12.46	
2025-01-12 23:12:12.89	31.36	12.48	
2025-01-12 23:12:13.10	31.38	12.50	
2025-01-12 23:12:13.30	31.40	12.51	
2025-01-12 23:12:13.51	31.42	12.53	
2025-01-12 23:12:13.72	31.44	12.55	
2025-01-12 23:12:13.92	31.46	12.56	
2025-01-12 23:12:14.13	31.48	12.58	
2025-01-12 23:12:14.33	31.50	12.60	
2025-01-12 23:12:14.53	31.52	12.61	
2025-01-12 23:12:14.74	31.54	12.63	
2025-01-12 23:12:14.95	31.56	12.65	
2025-01-12 23:12:15.15	31.58	12.67	
2025-01-12 23:12:15.37	31.60	12.68	
2025-01-12 23:12:15.58	31.62	12.70	
2025-01-12 23:12:15.78	31.64	12.72	
2025-01-12 23:12:15.99	31.66	12.74	
2025-01-12 23:12:16.19	31.68	12.75	
2025-01-12 23:12:16.40	31.70	12.77	
2025-01-12 23:12:16.60	31.72	12.79	
2025-01-12 23:12:16.81	31.74	12.81	
2025-01-12 23:12:17.01	31.76	12.82	
2025-01-12 23:12:17.22	31.78	12.84	
2025-01-12 23:12:17.42	31.80	12.86	
2025-01-12 23:12:17.63	31.82	12.87	
2025-01-12 23:12:17.83	31.84	12.89	
2025-01-12 23:12:18.04	31.86	12.91	
2025-01-12 23:12:18.24	31.88	12.93	
2025-01-12 23:12:18.45	31.91	12.94	
2025-01-12 23:12:18.65	31.92	12.96	
2025-01-12 23:12:18.86	31.95	12.98	
2025-01-12 23:12:19.06	31.97	12.99	
2025-01-12 23:12:19.27	31.99	13.01	
2025-01-12 23:12:19.47	32.01	13.03	
2025-01-12 23:12:19.69	32.03	13.05	
2025-01-12 23:12:19.89	32.05	13.06	
2025-01-12 23:12:20.10	32.07	13.08	
2025-01-12 23:12:20.30	32.09	13.10	
2025-01-12 23:12:20.51	32.11	13.12	
2025-01-12 23:12:20.71	32.13	13.13	
2025-01-12 23:12:20.92	32.15	13.15	
2025-01-12 23:12:21.12	32.17	13.17	
2025-01-12 23:12:21.33	32.19	13.19	
2025-01-12 23:12:21.53	32.21	13.20	
2025-01-12 23:12:21.74	32.24	13.22	
2025-01-12 23:12:21.94	32.26	13.24	
2025-01-12 23:12:22.15	32.28	13.26	
2025-01-12 23:12:22.35	32.30	13.27	
2025-01-12 23:12:22.56	32.32	13.29	
2025-01-12 23:12:22.76	32.34	13.31	
2025-01-12 23:12:22.97	32.36	13.33	
2025-01-12 23:12:23.17	32.38	13.34	
2025-01-12 23:12:23.38	32.40	13.36	
2025-01-12 23:12:23.58	32.42	13.38	
2025-01-12 23:12:23.79	32.44	13.40	
2025-01-12 23:12:24.01	32.47	13.42	
2025-01-12 23:12:24.21	32.49	13.43	
2025-01-12 23:12:24.42	32.51	13.45	
2025-01-12 23:12:24.62	32.53	13.47	
2025-01-12 23:12:24.83	32.55	13.49	
2025-01-12 23:12:25.03	32.57	13.50	
2025-01-12 23:12:25.24	32.59	13.52	
2025-01-12 23:12:25.44	32.61	13.54	
2025-01-12 23:12:25.65	32.64	13.56	
2025-01-12 23:12:25.85	32.66	13.57	
2025-01-12 23:12:26.07	32.68	13.59	
2025-01-12 23:12:26.28	32.70	13.61	
2025-01-12 23:12:26.48	32.72	13.63	
2025-01-12 23:12:26.69	32.74	13.65	
2025-01-12 23:12:26.89	32.76	13.66	
2025-01-12 23:12:27.10	32.79	13.68	
2025-01-12 23:12:27.30	32.81	13.70	
2025-01-12 23:12:27.51	32.83	13.72	
2025-01-12 23:12:27.72	32.85	13.73	
2025-01-12 23:12:27.92	32.87	13.75	
2025-01-12 23:12:28.12	32.89	13.77	
2025-01-12 23:12:28.33	32.91	13.79	
2025-01-12 23:12:28.53	32.94	13.80	
2025-01-12 23:12:28.74	32.96	13.82	
2025-01-12 23:12:28.94	32.98	13.84	
2025-01-12 23:12:29.15	33.00	13.86	
2025-01-12 23:12:29.35	33.02	13.88	
2025-01-12 23:12:29.56	33.04	13.89	
2025-01-12 23:12:29.76	33.07	13.91	
2025-01-12 23:12:29.97	33.09	13.93	
2025-01-12 23:12:30.18	33.11	13.95	
2025-01-12 23:12:30.38	33.13	13.96	
2025-01-12 23:12:30.59	33.15	13.98	
2025-01-12 23:12:30.79	33.17	14.00	
2025-01-12 23:12:31.00	33.20	14.02	
2025-01-12 23:12:31.20	33.22	14.04	
2025-01-12 23:12:31.40	33.24	14.05	
2025-01-12 23:12:31.61	33.26	14.07	
2025-01-12 23:12:31.82	33.28	14.09	
2025-01-12 23:12:32.02	33.31	14.11	
2025-01-12 23:12:32.22	33.33	14.12	
2025-01-12 23:12:32.43	33.35	14.14	
2025-01-12 23:12:32.63	33.37	14.16	
2025-01-12 23:12:32.84	33.39	14.18	
2025-01-12 23:12:33.05	33.42	14.20	
2025-01-12 23:12:33.25	33.44	14.22	
2025-01-12 23:12:33.46	33.46	14.23	
2025-01-12 23:12:33.66	33.48	14.25	
2025-01-12 23:12:33.87	33.51	14.27	
2025-01-12 23:12:34.07	33.53	14.29	
2025-01-12 23:12:34.28	33.55	14.31	
2025-01-12 23:12:34.49	33.57	14.32	
2025-01-12 23:12:34.69	33.59	14.34	
2025-01-12 23:12:34.90	33.62	14.36	
2025-01-12 23:12:35.10	33.64	14.38	
2025-01-12 23:12:35.31	33.66	14.40	
2025-01-12 23:12:35.51	33.68	14.41	
2025-01-12 23:12:35.72	33.71	14.43	
2025-01-12 23:12:35.92	33.73	14.45	
2025-01-12 23:12:36.13	33.75	14.47	
2025-01-12 23:12:36.34	33.77	14.49	
2025-01-12 23:12:36.54	33.80	14.50	
2025-01-12 23:12:36.75	33.82	14.52	
2025-01-12 23:12:36.95	33.84	14.54	
2025-01-12 23:12:37.16	33.86	14.56	
2025-01-12 23:12:37.36	33.89	14.58	
2025-01-12 23:12:37.57	33.91	14.60	
2025-01-12 23:12:37.79	33.93	14.62	
2025-01-12 23:12:37.99	33.96	14.63	
2025-01-12 23:12:38.20	33.98	14.65	
2025-01-12 23:12:38.41	34.00	14.67	
2025-01-12 23:12:38.61	34.03	14.69	
2025-01-12 23:12:38.81	34.05	14.71	
2025-01-12 23:12:39.02	34.07	14.72	
2025-01-12 23:12:39.22	34.09	14.74	
2025-01-12 23:12:39.43	34.12	14.76	
2025-01-12 23:12:39.63	34.14	14.78	
2025-01-12 23:12:39.85	34.16	14.80	
2025-01-12 23:12:40.06	34.19	14.82	
2025-01-12 23:12:40.26	34.21	14.83	
2025-01-12 23:12:40.47	34.23	14.85	
2025-01-12 23:12:40.67	34.26	14.87	
2025-01-12 23:12:40.87	34.28	14.89	
2025-01-12 23:12:41.08	34.30	14.91	
2025-01-12 23:12:41.28	34.32	14.93	
2025-01-12 23:12:41.49	34.35	14.94	
2025-01-12 23:12:41.69	34.37	14.96	
2025-01-12 23:12:41.90	34.39	14.98	
2025-01-12 23:12:42.10	34.42	15.00	
2025-01-12 23:12:42.31	34.44	15.02	
2025-01-12 23:12:42.52	34.47	15.04	
2025-01-12 23:12:42.72	34.49	15.05	
2025-01-12 23:12:42.93	34.51	15.07	
2025-01-12 23:12:43.13	34.53	15.09	
2025-01-12 23:12:43.33	34.56	15.11	
2025-01-12 23:12:43.54	34.58	15.13	
2025-01-12 23:12:43.74	34.60	15.15	
2025-01-12 23:12:43.95	34.63	15.17	
2025-01-12 23:12:44.15	34.65	15.18	
2025-01-12 23:12:44.36	34.68	15.20	
2025-01-12 23:12:44.57	34.70	15.22	
2025-01-12 23:12:44.77	34.72	15.24	
2025-01-12 23:12:44.98	34.75	15.26	
2025-01-12 23:12:45.18	34.77	15.28	
2025-01-12 23:12:45.38	34.79	15.29	
2025-01-12 23:12:45.59	34.82	15.31	
2025-01-12 23:12:45.79	34.84	15.33	
2025-01-12 23:12:46.00	34.87	15.35	
2025-01-12 23:12:46.20	34.89	15.37	
2025-01-12 23:12:46.41	34.91	15.39	
2025-01-12 23:12:46.61	34.94	15.41	
2025-01-12 23:12:46.82	34.96	15.42	
2025-01-12 23:12:47.02	34.98	15.44	
2025-01-12 23:12:47.23	35.01	15.46	
2025-01-12 23:12:47.43	35.03	15.48	
2025-01-12 23:12:47.64	35.06	15.50	
2025-01-12 23:12:47.85	35.08	15.52	
2025-01-12 23:12:48.05	35.10	15.54	
2025-01-12 23:12:48.26	35.13	15.56	
2025-01-12 23:12:48.46	35.15	15.57	
2025-01-12 23:12:48.67	35.18	15.59	
2025-01-12 23:12:48.87	35.20	15.61	
2025-01-12 23:12:49.08	35.23	15.63	
2025-01-12 23:12:49.28	35.25	15.65	
2025-01-12 23:12:49.49	35.27	15.67	
2025-01-12 23:12:49.69	35.30	15.69	
2025-01-12 23:12:49.90	35.32	15.71	
2025-01-12 23:12:50.10	35.35	15.72	
2025-01-12 23:12:50.31	35.37	15.74	
2025-01-12 23:12:50.51	35.40	15.76	
2025-01-12 23:12:50.72	35.42	15.78	
2025-01-12 23:12:50.92	35.44	15.80	
2025-01-12 23:12:51.13	35.47	15.82	
2025-01-12 23:12:51.33	35.49	15.84	
2025-01-12 23:12:51.54	35.52	15.86	
2025-01-12 23:12:51.74	35.54	15.87	
2025-01-12 23:12:51.95	35.57	15.89	
2025-01-12 23:12:52.15	35.59	15.91	
2025-01-12 23:12:52.36	35.62	15.93	
2025-01-12 23:12:52.56	35.64	15.95	
2025-01-12 23:12:52.77	35.67	15.97	
2025-01-12 23:12:52.97	35.69	15.99	
2025-01-12 23:12:53.18	35.72	16.01	
2025-01-12 23:12:53.38	35.74	16.02	
2025-01-12 23:12:53.59	35.77	16.04	
2025-01-12 23:12:53.79	35.79	16.06	
2025-01-12 23:12:54.00	35.82	16.08	
2025-01-12 23:12:54.20	35.84	16.10	
2025-01-12 23:12:54.41	35.87	16.12	
2025-01-12 23:12:54.61	35.89	16.14	
2025-01-12 23:12:54.82	35.92	16.16	
2025-01-12 23:12:55.02	35.94	16.18	
2025-01-12 23:12:55.23	35.97	16.20	
2025-01-12 23:12:55.43	35.99	16.21	
2025-01-12 23:12:55.64	36.02	16.23	
2025-01-12 23:12:55.84	36.04	16.25	
2025-01-12 23:12:56.05	36.07	16.27	
2025-01-12 23:12:56.25	36.09	16.29	
2025-01-12 23:12:56.46	36.12	16.31	
2025-01-12 23:12:56.66	36.14	16.33	
2025-01-12 23:12:56.87	36.17	16.35	
2025-01-12 23:12:57.07	36.19	16.37	
2025-01-12 23:12:57.28	36.22	16.39	
2025-01-12 23:12:57.48	36.24	16.40	
2025-01-12 23:12:57.69	36.27	16.42	
2025-01-12 23:12:57.89	36.30	16.44	
2025-01-12 23:12:58.10	36.32	16.46	
2025-01-12 23:12:58.30	36.35	16.48	
2025-01-12 23:12:58.51	36.37	16.50	
2025-01-12 23:12:58.71	36.40	16.52	
2025-01-12 23:12:58.92	36.42	16.54	
2025-01-12 23:12:59.12	36.45	16.56	
2025-01-12 23:12:59.33	36.48	16.58	
2025-01-12 23:12:59.53	36.50	16.60	
2025-01-12 23:12:59.74	36.53	16.62	
2025-01-12 23:12:59.94	36.55	16.63	
2025-01-12 23:13:00.16	36.58	16.66	
2025-01-12 23:13:00.37	36.61	16.68	
2025-01-12 23:13:00.57	36.63	16.69	
2025-01-12 23:13:00.78	36.66	16.71	
2025-01-12 23:13:00.98	36.68	16.73	
2025-01-12 23:13:01.19	36.71	16.75	
2025-01-12 23:13:01.39	36.74	16.77	
2025-01-12 23:13:01.60	36.76	16.79	
2025-01-12 23:13:01.80	36.79	16.81	
2025-01-12 23:13:02.01	36.81	16.83	
2025-01-12 23:13:02.21	36.84	16.85	
2025-01-12 23:13:02.42	36.87	16.87	
2025-01-12 23:13:02.62	36.89	16.89	
2025-01-12 23:13:02.83	36.92	16.91	
2025-01-12 23:13:03.03	36.95	16.93	
2025-01-12 23:13:03.24	36.97	16.95	
2025-01-12 23:13:03.46	37.00	16.97	
2025-01-12 23:13:03.66	37.03	16.99	
2025-01-12 23:13:03.87	37.05	17.01	
2025-01-12 23:13:04.07	37.08	17.02	
2025-01-12 23:13:04.28	37.11	17.04	
2025-01-12 23:13:04.48	37.13	17.06	
2025-01-12 23:13:04.69	37.16	17.08	
2025-01-12 23:13:04.89	37.19	17.10	
2025-01-12 23:13:05.10	37.21	17.12	
2025-01-12 23:13:05.30	37.24	17.14	
2025-01-12 23:13:05.51	37.27	17.16	
2025-01-12 23:13:05.71	37.29	17.18	
2025-01-12 23:13:05.92	37.32	17.20	
2025-01-12 23:13:06.12	37.35	17.22	
2025-01-12 23:13:06.33	37.37	17.24	
2025-01-12 23:13:06.53	37.40	17.26	
2025-01-12 23:13:06.74	37.43	17.28	
2025-01-12 23:13:06.94	37.45	17.30	
2025-01-12 23:13:07.15	37.48	17.32	
2025-01-12 23:13:07.35	37.51	17.34	
2025-01-12 23:13:07.56	37.54	17.36	
2025-01-12 23:13:07.77	37.56	17.38	
2025-01-12 23:13:07.98	37.59	17.40	
2025-01-12 23:13:08.19	37.62	17.42	
2025-01-12 23:13:08.39	37.65	17.44	
2025-01-12 23:13:08.60	37.67	17.46	
2025-01-12 23:13:08.80	37.70	17.47	
2025-01-12 23:13:09.01	37.73	17.49	
2025-01-12 23:13:09.21	37.75	17.51	
2025-01-12 23:13:09.42	37.78	17.53	
2025-01-12 23:13:09.63	37.81	17.55	
2025-01-12 23:13:09.83	37.84	17.57	
2025-01-12 23:13:10.03	37.86	17.59	
2025-01-12 23:13:10.24	37.89	17.61	
2025-01-12 23:13:10.45	37.92	17.63	
2025-01-12 23:13:10.65	37.95	17.65	
2025-01-12 23:13:10.86	37.98	17.67	
2025-01-12 23:13:11.06	38.00	17.69	
2025-01-12 23:13:11.27	38.03	17.71	
2025-01-12 23:13:11.48	38.06	17.73	
2025-01-12 23:13:11.68	38.09	17.75	
2025-01-12 23:13:11.88	38.11	17.77	
2025-01-12 23:13:12.09	38.14	17.79	
2025-01-12 23:13:12.29	38.17	17.81	
2025-01-12 23:13:12.50	38.20	17.83	
2025-01-12 23:13:12.70	38.22	17.85	
2025-01-12 23:13:12.91	38.25	17.87	
2025-01-12 23:13:13.11	38.28	17.89	
2025-01-12 23:13:13.32	38.31	17.91	
2025-01-12 23:13:13.52	38.34	17.93	
2025-01-12 23:13:13.73	38.37	17.95	
2025-01-12 23:13:13.93	38.39	17.97	
2025-01-12 23:13:14.14	38.42	17.99	
2025-01-12 23:13:14.34	38.45	18.01	
2025-01-12 23:13:14.55	38.48	18.03	
2025-01-12 23:13:14.75	38.51	18.05	
2025-01-12 23:13:14.96	38.53	18.07	
2025-01-12 23:13:15.16	38.56	18.09	
2025-01-12 23:13:15.37	38.59	18.11	
2025-01-12 23:13:15.57	38.62	18.13	
2025-01-12 23:13:15.78	38.65	18.15	
2025-01-12 23:13:15.99	38.68	18.17	
2025-01-12 23:13:16.19	38.71	18.19	
2025-01-12 23:13:16.39	38.73	18.21	
2025-01-12 23:13:16.60	38.76	18.23	
2025-01-12 23:13:16.81	38.79	18.25	
2025-01-12 23:13:17.01	38.82	18.27	
2025-01-12 23:13:17.21	38.85	18.29	
2025-01-12 23:13:17.42	38.88	18.31	
2025-01-12 23:13:17.63	38.91	18.33	
2025-01-12 23:13:17.83	38.94	18.35	
2025-01-12 23:13:18.04	38.96	18.37	
2025-01-12 23:13:18.24	38.99	18.39	
2025-01-12 23:13:18.45	39.02	18.41	
2025-01-12 23:13:18.65	39.05	18.43	
2025-01-12 23:13:18.86	39.08	18.45	
2025-01-12 23:13:19.06	39.11	18.47	
2025-01-12 23:13:19.27	39.14	18.49	
2025-01-12 23:13:19.47	39.17	18.51	
2025-01-12 23:13:19.68	39.20	18.53	
2025-01-12 23:13:19.88	39.23	18.55	
2025-01-12 23:13:20.09	39.26	18.57	
2025-01-12 23:13:20.29	39.28	18.59	
2025-01-12 23:13:20.51	39.32	18.61	
2025-01-12 23:13:20.72	39.35	18.63	
2025-01-12 23:13:20.92	39.37	18.65	
2025-01-12 23:13:21.13	39.40	18.67	
2025-01-12 23:13:21.34	39.43	18.69	
2025-01-12 23:13:21.54	39.46	18.71	
2025-01-12 23:13:21.75	39.49	18.74	
2025-01-12 23:13:21.95	39.52	18.75	
2025-01-12 23:13:22.16	39.55	18.78	
2025-01-12 23:13:22.36	39.58	18.80	
2025-01-12 23:13:22.57	39.61	18.82	
2025-01-12 23:13:22.77	39.64	18.84	
2025-01-12 23:13:22.98	39.67	18.86	
2025-01-12 23:13:23.18	39.70	18.88	
2025-01-12 23:13:23.39	39.73	18.90	
2025-01-12 23:13:23.59	39.76	18.92	
2025-01-12 23:13:23.79	39.79	18.94	
2025-01-12 23:13:24.00	39.82	18.96	
2025-01-12 23:13:24.21	39.85	18.98	
2025-01-12 23:13:24.41	39.88	19.00	
2025-01-12 23:13:24.62	39.91	19.02	
2025-01-12 23:13:24.82	39.94	19.04	
2025-01-12 23:13:25.03	39.97	19.06	
2025-01-12 23:13:25.23	40.00	19.08	
2025-01-12 23:13:25.44	40.03	19.10	
2025-01-12 23:13:25.64	40.06	19.12	
2025-01-12 23:13:25.85	40.09	19.14	
2025-01-12 23:13:26.05	40.12	19.16	
2025-01-12 23:13:26.26	40.15	19.18	
2025-01-12 23:13:26.47	40.18	19.20	
2025-01-12 23:13:26.67	40.21	19.22	
2025-01-12 23:13:26.88	40.24	19.24	
2025-01-12 23:13:27.08	40.27	19.26	
2025-01-12 23:13:27.29	40.31	19.29	
2025-01-12 23:13:27.49	40.34	19.31	
2025-01-12 23:13:27.70	40.37	19.33	
2025-01-12 23:13:27.90	40.40	19.35	
2025-01-12 23:13:28.11	40.43	19.37	
2025-01-12 23:13:28.31	40.46	19.39	
2025-01-12 23:13:28.52	40.49	19.41	
2025-01-12 23:13:28.72	40.52	19.43	
2025-01-12 23:13:28.93	40.55	19.45	
2025-01-12 23:13:29.13	40.58	19.47	
2025-01-12 23:13:29.34	40.61	19.49	
2025-01-12 23:13:29.55	40.65	19.51	
2025-01-12 23:13:29.75	40.68	19.53	
2025-01-12 23:13:29.96	40.71	19.55	
2025-01-12 23:13:30.16	40.74	19.57	
2025-01-12 23:13:30.37	40.77	19.59	
2025-01-12 23:13:30.57	40.80	19.62	
2025-01-12 23:13:30.78	40.83	19.64	
2025-01-12 23:13:30.98	40.86	19.66	
2025-01-12 23:13:31.19	40.90	19.68	
2025-01-12 23:13:31.39	40.93	19.70	
2025-01-12 23:13:31.60	40.96	19.72	
2025-01-12 23:13:31.80	40.99	19.74	
2025-01-12 23:13:32.00	41.02	19.76	
2025-01-12 23:13:32.21	41.05	19.78	
2025-01-12 23:13:32.41	41.08	19.80	
2025-01-12 23:13:32.62	41.12	19.82	
2025-01-12 23:13:32.82	41.15	19.84	
2025-01-12 23:13:33.03	41.18	19.86	
2025-01-12 23:13:33.23	41.21	19.88	
2025-01-12 23:13:33.44	41.24	19.91	
2025-01-12 23:13:33.64	41.27	19.93	
2025-01-12 23:13:33.85	41.31	19.95	
2025-01-12 23:13:34.05	41.34	19.97	
2025-01-12 23:13:34.26	41.37	19.99	
2025-01-12 23:13:34.47	41.40	20.01	
2025-01-12 23:13:34.68	41.44	20.03	
2025-01-12 23:13:34.88	41.47	20.05	
2025-01-12 23:13:35.09	41.50	20.07	
2025-01-12 23:13:35.30	41.53	20.09	
2025-01-12 23:13:35.52	41.57	20.12	
2025-01-12 23:13:35.72	41.60	20.14	
2025-01-12 23:13:35.93	41.63	20.16	
2025-01-12 23:13:36.13	41.66	20.18	
2025-01-12 23:13:36.34	41.70	20.20	
2025-01-12 23:13:36.54	41.73	20.22	
2025-01-12 23:13:36.75	41.76	20.24	
2025-01-12 23:13:36.95	41.79	20.26	
2025-01-12 23:13:37.16	41.83	20.28	
2025-01-12 23:13:37.36	41.86	20.30	
2025-01-12 23:13:37.57	41.89	20.33	
2025-01-12 23:13:37.77	41.92	20.35	
2025-01-12 23:13:37.98	41.96	20.37	
2025-01-12 23:13:38.18	41.99	20.39	
2025-01-12 23:13:38.39	42.02	20.41	
2025-01-12 23:13:38.59	42.06	20.43	
2025-01-12 23:13:38.80	42.09	20.45	
2025-01-12 23:13:39.00	42.12	20.47	
2025-01-12 23:13:39.21	42.16	20.49	
2025-01-12 23:13:39.42	42.19	20.51	
2025-01-12 23:13:39.62	42.22	20.54	
2025-01-12 23:13:39.82	42.25	20.56	
2025-01-12 23:13:40.03	42.29	20.58	
2025-01-12 23:13:40.24	42.32	20.60	
2025-01-12 23:13:40.44	42.35	20.62	
2025-01-12 23:13:40.65	42.39	20.64	
2025-01-12 23:13:40.86	42.42	20.66	
2025-01-12 23:13:41.07	42.46	20.68	
2025-01-12 23:13:41.28	42.49	20.71	
2025-01-12 23:13:41.48	42.52	20.73	
2025-01-12 23:13:41.69	42.56	20.75	
2025-01-12 23:13:41.90	42.59	20.77	
2025-01-12 23:13:42.11	42.63	20.79	
2025-01-12 23:13:42.32	42.66	20.81	
2025-01-12 23:13:42.52	42.69	20.83	
2025-01-12 23:13:42.73	42.73	20.86	
2025-01-12 23:13:42.93	42.76	20.88	
2025-01-12 23:13:43.14	42.80	20.90	
2025-01-12 23:13:43.34	42.83	20.92	
2025-01-12 23:13:43.55	42.86	20.94	
2025-01-12 23:13:43.75	42.90	20.96	
2025-01-12 23:13:43.96	42.93	20.98	
2025-01-12 23:13:44.16	42.97	21.00	
2025-01-12 23:13:44.37	43.00	21.03	
2025-01-12 23:13:44.57	43.03	21.05	
2025-01-12 23:13:44.78	43.07	21.07	
2025-01-12 23:13:44.98	43.10	21.09	
2025-01-12 23:13:45.19	43.14	21.11	
2025-01-12 23:13:45.39	43.17	21.13	
2025-01-12 23:13:45.60	43.21	21.15	
2025-01-12 23:13:45.80	43.24	21.17	
2025-01-12 23:13:46.01	43.28	21.20	
2025-01-12 23:13:46.23	43.31	21.22	
2025-01-12 23:13:46.43	43.35	21.24	
2025-01-12 23:13:46.64	43.38	21.26	
2025-01-12 23:13:46.84	43.42	21.28	
2025-01-12 23:13:47.05	43.45	21.30	
2025-01-12 23:13:47.25	43.49	21.32	
2025-01-12 23:13:47.46	43.52	21.35	
2025-01-12 23:13:47.66	43.56	21.37	
2025-01-12 23:13:47.87	43.59	21.39	
2025-01-12 23:13:48.07	43.63	21.41	
2025-01-12 23:13:48.28	43.66	21.43	
2025-01-12 23:13:48.48	43.70	21.45	
2025-01-12 23:13:48.69	43.73	21.47	
2025-01-12 23:13:48.89	43.77	21.50	
2025-01-12 23:13:49.10	43.80	21.52	
2025-01-12 23:13:49.30	43.84	21.54	
2025-01-12 23:13:49.50	43.87	21.56	
2025-01-12 23:13:49.71	43.91	21.58	
2025-01-12 23:13:49.92	43.94	21.60	
2025-01-12 23:13:50.12	43.98	21.62	
2025-01-12 23:13:50.33	44.01	21.65	
2025-01-12 23:13:50.53	44.05	21.67	
2025-01-12 23:13:50.73	44.08	21.69	
2025-01-12 23:13:50.94	44.12	21.71	
2025-01-12 23:13:51.14	44.15	21.73	
2025-01-12 23:13:51.35	44.19	21.75	
2025-01-12 23:13:51.55	44.23	21.77	
2025-01-12 23:13:51.75	44.26	21.79	
2025-01-12 23:13:51.96	44.30	21.82	
2025-01-12 23:13:52.17	44.33	21.84	
2025-01-12 23:13:52.37	44.37	21.86	
2025-01-12 23:13:52.58	44.41	21.88	
2025-01-12 23:13:52.78	44.44	21.90	
2025-01-12 23:13:52.98	44.48	21.92	
2025-01-12 23:13:53.19	44.51	21.95	
2025-01-12 23:13:53.40	44.55	21.97	
2025-01-12 23:13:53.60	44.59	21.99	
2025-01-12 23:13:53.80	44.62	22.01	
2025-01-12 23:13:54.01	44.66	22.03	
2025-01-12 23:13:54.22	44.70	22.05	
2025-01-12 23:13:54.42	44.73	22.08	
2025-01-12 23:13:54.63	44.77	22.10	
2025-01-12 23:13:54.83	44.81	22.12	
2025-01-12 23:13:55.04	44.84	22.14	
2025-01-12 23:13:55.24	44.88	22.16	
2025-01-12 23:13:55.45	44.92	22.18	
2025-01-12 23:13:55.65	44.95	22.20	
2025-01-12 23:13:55.86	44.99	22.23	
2025-01-12 23:13:56.06	45.03	22.25	
2025-01-12 23:13:56.27	45.06	22.27	
2025-01-12 23:13:56.47	45.10	22.29	
2025-01-12 23:13:56.68	45.14	22.31	
2025-01-12 23:13:56.88	45.17	22.33	
2025-01-12 23:13:57.09	45.21	22.36	
2025-01-12 23:13:57.30	45.25	22.38	
2025-01-12 23:13:57.50	45.29	22.40	
2025-01-12 23:13:57.71	45.32	22.42	
2025-01-12 23:13:57.93	45.36	22.45	
2025-01-12 23:13:58.13	45.40	22.47	
2025-01-12 23:13:58.33	45.44	22.49	
2025-01-12 23:13:58.54	45.48	22.51	
2025-01-12 23:13:58.74	45.51	22.53	
2025-01-12 23:13:58.95	45.55	22.55	
2025-01-12 23:13:59.15	45.59	22.58	
2025-01-12 23:13:59.36	45.63	22.60	
2025-01-12 23:13:59.56	45.66	22.62	
2025-01-12 23:13:59.77	45.70	22.64	
2025-01-12 23:13:59.97	45.74	22.66	
2025-01-12 23:14:00.18	45.78	22.68	
2025-01-12 23:14:00.38	45.81	22.71	
2025-01-12 23:14:00.59	45.85	22.73	
2025-01-12 23:14:00.79	45.89	22.75	
2025-01-12 23:14:01.00	45.93	22.77	
2025-01-12 23:14:01.20	45.97	22.79	
2025-01-12 23:14:01.41	46.01	22.82	
2025-01-12 23:14:01.61	46.04	22.84	
2025-01-12 23:14:01.82	46.08	22.86	
2025-01-12 23:14:02.02	46.12	22.88	
2025-01-12 23:14:02.23	46.16	22.90	
2025-01-12 23:14:02.43	46.20	22.92	
2025-01-12 23:14:02.64	46.24	22.95	
2025-01-12 23:14:02.84	46.27	22.97	
2025-01-12 23:14:03.05	46.31	22.99	
2025-01-12 23:14:03.25	46.35	23.01	
2025-01-12 23:14:03.46	46.39	23.03	
2025-01-12 23:14:03.67	46.43	23.06	
2025-01-12 23:14:03.87	46.47	23.08	
2025-01-12 23:14:04.08	46.51	23.10	
2025-01-12 23:14:04.28	46.55	23.12	
2025-01-12 23:14:04.49	46.59	23.14	
2025-01-12 23:14:04.69	46.62	23.17	
2025-01-12 23:14:04.90	46.66	23.19	
2025-01-12 23:14:05.10	46.70	23.21	
2025-01-12 23:14:05.31	46.74	23.23	
2025-01-12 23:14:05.51	46.78	23.25	
2025-01-12 23:14:05.72	46.82	23.28	
2025-01-12 23:14:05.94	46.86	23.30	
2025-01-12 23:14:06.14	46.90	23.32	
2025-01-12 23:14:06.35	46.94	23.34	
2025-01-12 23:14:06.55	46.98	23.36	
2025-01-12 23:14:06.76	47.02	23.39	
2025-01-12 23:14:06.96	47.06	23.41	
2025-01-12 23:14:07.17	47.10	23.43	
2025-01-12 23:14:07.38	47.14	23.45	
2025-01-12 23:14:07.58	47.18	23.47	
2025-01-12 23:14:07.79	47.22	23.50	
2025-01-12 23:14:07.99	47.26	23.52	
2025-01-12 23:14:08.20	47.30	23.54	
2025-01-12 23:14:08.40	47.34	23.56	
2025-01-12 23:14:08.62	47.38	23.59	
2025-01-12 23:14:08.83	47.43	23.61	
2025-01-12 23:14:09.03	47.46	23.63	
2025-01-12 23:14:09.24	47.51	23.65	
2025-01-12 23:14:09.44	47.54	23.67	
2025-01-12 23:14:09.65	47.59	23.70	
2025-01-12 23:14:09.85	47.63	23.72	
2025-01-12 23:14:10.06	47.67	23.74	
2025-01-12 23:14:10.26	47.71	23.76	
2025-01-12 23:14:10.47	47.75	23.78	
2025-01-12 23:14:10.67	47.79	23.81	
2025-01-12 23:14:10.88	47.83	23.83	
2025-01-12 23:14:11.08	47.87	23.85	
2025-01-12 23:14:11.29	47.91	23.87	
2025-01-12 23:14:11.49	47.95	23.89	
2025-01-12 23:14:11.70	47.99	23.92	
2025-01-12 23:14:11.90	48.03	23.94	
2025-01-12 23:14:12.11	48.08	23.96	
2025-01-12 23:14:12.31	48.12	23.98	
2025-01-12 23:14:12.52	48.16	24.01	
2025-01-12 23:14:12.72	48.20	24.03	
2025-01-12 23:14:12.93	48.24	24.05	
2025-01-12 23:14:13.13	48.28	24.07	
2025-01-12 23:14:13.34	48.32	24.09	
2025-01-12 23:14:13.54	48.36	24.12	
2025-01-12 23:14:13.75	48.41	24.14	
2025-01-12 23:14:13.95	48.45	24.16	
2025-01-12 23:14:14.16	48.49	24.18	
2025-01-12 23:14:14.36	48.53	24.20	
2025-01-12 23:14:14.57	48.57	24.23	
2025-01-12 23:14:14.77	48.61	24.25	
2025-01-12 23:14:14.98	48.66	24.27	
2025-01-12 23:14:15.18	48.70	24.29	
2025-01-12 23:14:15.39	48.74	24.31	
2025-01-12 23:14:15.59	48.78	24.34	
2025-01-12 23:14:15.80	48.82	24.36	
2025-01-12 23:14:16.00	48.86	24.38	
2025-01-12 23:14:16.21	48.91	24.40	
2025-01-12 23:14:16.41	48.95	24.43	
2025-01-12 23:14:16.62	48.99	24.45	
2025-01-12 23:14:16.82	49.03	24.47	
2025-01-12 23:14:17.03	49.08	24.49	
2025-01-12 23:14:17.23	49.12	24.51	
2025-01-12 23:14:17.44	49.16	24.54	
2025-01-12 23:14:17.64	49.20	24.56	
2025-01-12 23:14:17.85	49.25	24.58	
2025-01-12 23:14:18.06	49.29	24.60	
2025-01-12 23:14:18.26	49.33	24.63	
2025-01-12 23:14:18.47	49.38	24.65	
2025-01-12 23:14:18.67	49.42	24.67	
2025-01-12 23:14:18.88	49.46	24.69	
2025-01-12 23:14:19.08	49.50	24.71	
2025-01-12 23:14:19.29	49.55	24.74	
2025-01-12 23:14:19.49	49.59	24.76	
2025-01-12 23:14:19.70	49.63	24.78	
2025-01-12 23:14:19.91	49.68	24.80	
2025-01-12 23:14:20.11	49.72	24.83	
2025-01-12 23:14:20.31	49.76	24.85	
2025-01-12 23:14:20.52	49.81	24.87	
2025-01-12 23:14:20.72	49.85	24.89	
2025-01-12 23:14:20.93	49.90	24.91	
2025-01-12 23:14:21.14	49.94	24.94	
2025-01-12 23:14:21.34	49.98	24.96	
2025-01-12 23:14:21.55	50.03	24.98	
2025-01-12 23:14:21.75	50.07	25.00	
2025-01-12 23:14:21.96	50.12	25.03	
2025-01-12 23:14:22.17	50.16	25.05	
2025-01-12 23:14:22.37	50.20	25.07	
2025-01-12 23:14:22.57	50.25	25.09	
2025-01-12 23:14:22.78	50.29	25.11	
2025-01-12 23:14:22.98	50.33	25.14	
2025-01-12 23:14:23.19	50.38	25.16	
2025-01-12 23:14:23.39	50.42	25.18	
2025-01-12 23:14:23.60	50.47	25.20	
2025-01-12 23:14:23.80	50.51	25.22	
2025-01-12 23:14:24.01	50.56	25.25	
2025-01-12 23:14:24.22	50.60	25.27	
2025-01-12 23:14:24.42	50.65	25.29	
2025-01-12 23:14:24.62	50.69	25.31	
2025-01-12 23:14:24.83	50.74	25.34	
2025-01-12 23:14:25.04	50.78	25.36	
2025-01-12 23:14:25.24	50.82	25.38	
2025-01-12 23:14:25.45	50.87	25.40	
2025-01-12 23:14:25.65	50.91	25.43	
2025-01-12 23:14:25.86	50.96	25.45	
2025-01-12 23:14:26.06	51.00	25.47	
2025-01-12 23:14:26.27	51.05	25.49	
2025-01-12 23:14:26.47	51.10	25.51	
2025-01-12 23:14:26.68	51.14	25.54	
2025-01-12 23:14:26.88	51.19	25.56	
2025-01-12 23:14:27.09	51.23	25.58	
2025-01-12 23:14:27.29	51.28	25.60	
2025-01-12 23:14:27.50	51.32	25.63	
2025-01-12 23:14:27.71	51.37	25.65	
2025-01-12 23:14:27.91	51.41	25.67	
2025-01-12 23:14:28.12	51.46	25.69	
2025-01-12 23:14:28.32	51.51	25.71	
2025-01-12 23:14:28.53	51.55	25.74	
2025-01-12 23:14:28.73	51.60	25.76	
2025-01-12 23:14:28.95	51.65	25.78	
2025-01-12 23:14:29.16	51.69	25.81	
2025-01-12 23:14:29.36	51.74	25.83	
2025-01-12 23:14:29.57	51.79	25.85	
2025-01-12 23:14:29.77	51.83	25.87	
2025-01-12 23:14:29.97	51.88	25.89	
2025-01-12 23:14:30.18	51.92	25.92	
2025-01-12 23:14:30.39	51.97	25.94	
2025-01-12 23:14:30.59	52.02	25.96	
2025-01-12 23:14:30.80	52.06	25.98	
2025-01-12 23:14:31.00	52.11	26.01	
2025-01-12 23:14:31.21	52.16	26.03	
2025-01-12 23:14:31.41	52.20	26.05	
2025-01-12 23:14:31.62	52.25	26.07	
2025-01-12 23:14:31.82	52.30	26.09	
2025-01-12 23:14:32.03	52.34	26.12	
2025-01-12 23:14:32.23	52.39	26.14	
2025-01-12 23:14:32.44	52.44	26.16	
2025-01-12 23:14:32.64	52.48	26.18	
2025-01-12 23:14:32.85	52.53	26.21	
2025-01-12 23:14:33.05	52.58	26.23	
2025-01-12 23:14:33.27	52.63	26.25	
2025-01-12 23:14:33.48	52.68	26.27	
2025-01-12 23:14:33.68	52.72	26.30	
2025-01-12 23:14:33.89	52.77	26.32	
2025-01-12 23:14:34.09	52.82	26.34	
2025-01-12 23:14:34.30	52.87	26.36	
2025-01-12 23:14:34.50	52.92	26.38	
2025-01-12 23:14:34.71	52.96	26.41	
2025-01-12 23:14:34.91	53.01	26.43	
2025-01-12 23:14:35.12	53.06	26.45	
2025-01-12 23:14:35.32	53.11	26.47	
2025-01-12 23:14:35.52	53.15	26.49	
2025-01-12 23:14:35.73	53.20	26.52	
2025-01-12 23:14:35.93	53.25	26.54	
2025-01-12 23:14:36.14	53.30	26.56	
2025-01-12 23:14:36.34	53.35	26.58	
2025-01-12 23:14:36.55	53.40	26.61	
2025-01-12 23:14:36.75	53.44	26.63	
2025-01-12 23:14:36.96	53.49	26.65	
2025-01-12 23:14:37.16	53.54	26.67	
2025-01-12 23:14:37.36	53.59	26.69	
2025-01-12 23:14:37.57	53.64	26.72	
2025-01-12 23:14:37.77	53.68	26.74	
2025-01-12 23:14:37.98	53.73	26.76	
2025-01-12 23:14:38.18	53.78	26.78	
2025-01-12 23:14:38.39	53.83	26.81	
2025-01-12 23:14:38.61	53.89	26.83	
2025-01-12 23:14:38.81	53.93	26.85	
2025-01-12 23:14:39.02	53.98	26.87	
2025-01-12 23:14:39.22	54.03	26.89	
2025-01-12 23:14:39.43	54.08	26.92	
2025-01-12 23:14:39.63	54.13	26.94	
2025-01-12 23:14:39.84	54.18	26.96	
2025-01-12 23:14:40.04	54.23	26.98	
2025-01-12 23:14:40.25	54.28	27.01	
2025-01-12 23:14:40.46	54.33	27.03	
2025-01-12 23:14:40.66	54.38	27.05	
2025-01-12 23:14:40.86	54.43	27.07	
2025-01-12 23:14:41.07	54.48	27.09	
2025-01-12 23:14:41.27	54.53	27.12	
2025-01-12 23:14:41.48	54.58	27.14	
2025-01-12 23:14:41.68	54.63	27.16	
2025-01-12 23:14:41.89	54.68	27.18	
2025-01-12 23:14:42.09	54.73	27.20	
2025-01-12 23:14:42.30	54.78	27.23	
2025-01-12 23:14:42.50	54.83	27.25	
2025-01-12 23:14:42.70	54.88	27.27	
2025-01-12 23:14:42.91	54.93	27.29	
2025-01-12 23:14:43.11	54.98	27.31	
2025-01-12 23:14:43.32	55.03	27.34	
2025-01-12 23:14:43.52	55.08	27.36	
2025-01-12 23:14:43.73	55.13	27.38	
2025-01-12 23:14:43.93	55.18	27.40	
2025-01-12 23:14:44.14	55.23	27.42	
2025-01-12 23:14:44.34	55.28	27.45	
2025-01-12 23:14:44.55	55.34	27.47	
2025-01-12 23:14:44.75	55.38	27.49	
2025-01-12 23:14:44.96	55.44	27.51	
2025-01-12 23:14:45.16	55.49	27.53	
2025-01-12 23:14:45.37	55.54	27.56	
2025-01-12 23:14:45.57	55.59	27.58	
2025-01-12 23:14:45.78	55.64	27.60	
2025-01-12 23:14:45.98	55.69	27.62	
2025-01-12 23:14:46.19	55.75	27.64	
2025-01-12 23:14:46.40	55.80	27.67	
2025-01-12 23:14:46.60	55.85	27.69	
2025-01-12 23:14:46.81	55.90	27.71	
2025-01-12 23:14:47.01	55.95	27.73	
2025-01-12 23:14:47.21	56.00	27.75	
2025-01-12 23:14:47.42	56.06	27.78	
2025-01-12 23:14:47.62	56.11	27.80	
2025-01-12 23:14:47.83	56.16	27.82	
2025-01-12 23:14:48.04	56.21	27.84	
2025-01-12 23:14:48.24	56.26	27.86	
2025-01-12 23:14:48.44	56.32	27.88	
2025-01-12 23:14:48.65	56.37	27.91	
2025-01-12 23:14:48.85	56.42	27.93	
2025-01-12 23:14:49.06	56.47	27.95	
2025-01-12 23:14:49.26	56.53	27.97	
2025-01-12 23:14:49.47	56.58	27.99	
2025-01-12 23:14:49.67	56.63	28.02	
2025-01-12 23:14:49.88	56.69	28.04	
2025-01-12 23:14:50.08	56.74	28.06	
2025-01-12 23:14:50.29	56.79	28.08	
2025-01-12 23:14:50.49	56.84	28.10	
2025-01-12 23:14:50.70	56.90	28.12	
2025-01-12 23:14:50.90	56.95	28.15	
2025-01-12 23:14:51.11	57.00	28.17	
2025-01-12 23:14:51.31	57.06	28.19	
2025-01-12 23:14:51.52	57.11	28.21	
2025-01-12 23:14:51.72	57.16	28.23	
2025-01-12 23:14:51.93	57.22	28.26	
2025-01-12 23:14:52.13	57.27	28.28	
2025-01-12 23:14:52.34	57.32	28.30	
2025-01-12 23:14:52.54	57.38	28.32	
2025-01-12 23:14:52.75	57.43	28.34	
2025-01-12 23:14:52.95	57.48	28.36	
2025-01-12 23:14:53.16	57.54	28.39	
2025-01-12 23:14:53.37	57.60	28.41	
2025-01-12 23:14:53.57	57.65	28.43	
2025-01-12 23:14:53.77	57.70	28.45	
2025-01-12 23:14:53.98	57.76	28.47	
2025-01-12 23:14:54.18	57.81	28.49	
2025-01-12 23:14:54.39	57.86	28.52	
2025-01-12 23:14:54.59	57.92	28.54	
2025-01-12 23:14:54.80	57.97	28.56	
2025-01-12 23:14:55.00	58.03	28.58	
2025-01-12 23:14:55.21	58.08	28.60	
2025-01-12 23:14:55.41	58.14	28.62	
2025-01-12 23:14:55.62	58.19	28.64	
2025-01-12 23:14:55.82	58.25	28.67	
2025-01-12 23:14:56.03	58.30	28.69	
2025-01-12 23:14:56.23	58.36	28.71	
2025-01-12 23:14:56.44	58.41	28.73	
2025-01-12 23:14:56.64	58.47	28.75	
2025-01-12 23:14:56.85	58.52	28.77	
2025-01-12 23:14:57.05	58.58	28.79	
2025-01-12 23:14:57.26	58.63	28.82	
2025-01-12 23:14:57.46	58.69	28.84	
2025-01-12 23:14:57.67	58.74	28.86	
2025-01-12 23:14:57.87	58.80	28.88	
2025-01-12 23:14:58.08	58.86	28.90	
2025-01-12 23:14:58.28	58.91	28.92	
2025-01-12 23:14:58.49	58.97	28.94	
2025-01-12 23:14:58.69	59.02	28.97	
2025-01-12 23:14:58.90	59.08	28.99	
2025-01-12 23:14:59.10	59.13	29.01	
2025-01-12 23:14:59.31	59.19	29.03	
2025-01-12 23:14:59.51	59.25	29.05	
2025-01-12 23:14:59.72	59.30	29.07	
2025-01-12 23:14:59.92	59.36	29.09	
2025-01-12 23:15:00.13	59.42	29.12	
2025-01-12 23:15:00.33	59.47	29.14	
2025-01-12 23:15:00.54	59.53	29.16	
2025-01-12 23:15:00.74	59.59	29.18	
2025-01-12 23:15:00.94	59.64	29.20	
2025-01-12 23:15:01.15	59.70	29.22	
2025-01-12 23:15:01.35	59.75	29.24	
2025-01-12 23:15:01.56	59.81	29.26	
2025-01-12 23:15:01.77	59.87	29.29	
2025-01-12 23:15:01.98	59.93	29.31	
2025-01-12 23:15:02.19	59.99	29.33	
2025-01-12 23:15:02.39	60.04	29.35	
2025-01-12 23:15:02.60	60.10	29.37	
2025-01-12 23:15:02.81	60.16	29.39	
2025-01-12 23:15:03.02	60.22	29.41	
2025-01-12 23:15:03.23	60.28	29.44	
2025-01-12 23:15:03.44	60.34	29.46	
2025-01-12 23:15:03.64	60.39	29.48	
2025-01-12 23:15:03.85	60.45	29.50	
2025-01-12 23:15:04.05	60.51	29.52	
2025-01-12 23:15:04.25	60.57	29.54	
2025-01-12 23:15:04.46	60.63	29.56	
2025-01-12 23:15:04.66	60.68	29.58	
2025-01-12 23:15:04.87	60.74	29.60	
2025-01-12 23:15:05.07	60.80	29.62	
2025-01-12 23:15:05.28	60.86	29.64	
2025-01-12 23:15:05.48	60.92	29.67	
2025-01-12 23:15:05.69	60.98	29.69	
2025-01-12 23:15:05.90	61.04	29.71	
2025-01-12 23:15:06.10	61.09	29.73	
2025-01-12 23:15:06.32	61.16	29.75	
2025-01-12 23:15:06.52	61.21	29.77	
2025-01-12 23:15:06.73	61.27	29.79	
2025-01-12 23:15:06.93	61.33	29.81	
2025-01-12 23:15:07.14	61.39	29.83	
2025-01-12 23:15:07.34	61.45	29.85	
2025-01-12 23:15:07.55	61.51	29.88	
2025-01-12 23:15:07.76	61.57	29.90	
2025-01-12 23:15:07.96	61.63	29.92	
2025-01-12 23:15:08.17	61.69	29.94	
2025-01-12 23:15:08.37	61.75	29.96	
2025-01-12 23:15:08.58	61.81	29.98	
2025-01-12 23:15:08.78	61.86	30.00	
2025-01-12 23:15:08.99	61.93	30.02	
2025-01-12 23:15:09.19	61.98	30.04	
2025-01-12 23:15:09.40	62.05	30.06	
2025-01-12 23:15:09.60	62.10	30.08	
2025-01-12 23:15:09.81	62.17	30.10	
2025-01-12 23:15:10.01	62.22	30.12	
2025-01-12 23:15:10.22	62.29	30.14	
2025-01-12 23:15:10.43	62.35	30.16	
2025-01-12 23:15:10.63	62.41	30.18	
2025-01-12 23:15:10.83	62.46	30.20	
2025-01-12 23:15:11.04	62.53	30.23	
2025-01-12 23:15:11.25	62.59	30.25	
2025-01-12 23:15:11.45	62.65	30.27	
2025-01-12 23:15:11.65	62.71	30.29	
2025-01-12 23:15:11.86	62.77	30.31	
2025-01-12 23:15:12.07	62.83	30.33	
2025-01-12 23:15:12.27	62.89	30.35	
2025-01-12 23:15:12.48	62.95	30.37	
2025-01-12 23:15:12.69	63.02	30.39	
2025-01-12 23:15:12.90	63.08	30.41	
2025-01-12 23:15:13.10	63.14	30.43	
2025-01-12 23:15:13.31	63.20	30.45	
2025-01-12 23:15:13.52	63.26	30.47	
2025-01-12 23:15:13.72	63.32	30.49	
2025-01-12 23:15:13.92	63.38	30.51	
2025-01-12 23:15:14.13	63.45	30.53	
2025-01-12 23:15:14.34	63.51	30.55	
2025-01-12 23:15:14.54	63.57	30.57	
2025-01-12 23:15:14.75	63.63	30.59	
2025-01-12 23:15:14.95	63.69	30.61	
2025-01-12 23:15:15.16	63.76	30.63	
2025-01-12 23:15:15.36	63.82	30.65	
2025-01-12 23:15:15.57	63.88	30.67	
2025-01-12 23:15:15.77	63.94	30.69	
2025-01-12 23:15:15.97	64.00	30.71	
2025-01-12 23:15:16.18	64.06	30.73	
2025-01-12 23:15:16.39	64.13	30.75	
2025-01-12 23:15:16.59	64.19	30.77	
2025-01-12 23:15:16.80	64.25	30.79	
2025-01-12 23:15:17.02	64.32	30.81	
2025-01-12 23:15:17.22	64.38	30.83	
2025-01-12 23:15:17.43	64.45	30.85	
2025-01-12 23:15:17.63	64.51	30.87	
2025-01-12 23:15:17.84	64.57	30.89	
2025-01-12 23:15:18.05	64.64	30.91	
2025-01-12 23:15:18.25	64.70	30.93	
2025-01-12 23:15:18.45	64.76	30.95	
2025-01-12 23:15:18.66	64.82	30.97	
2025-01-12 23:15:18.87	64.89	30.99	
2025-01-12 23:15:19.08	64.95	31.01	
2025-01-12 23:15:19.29	65.02	31.03	
2025-01-12 23:15:19.49	65.08	31.05	
2025-01-12 23:15:19.70	65.15	31.07	
2025-01-12 23:15:19.91	65.21	31.09	
2025-01-12 23:15:20.11	65.27	31.11	
2025-01-12 23:15:20.32	65.34	31.13	
2025-01-12 23:15:20.52	65.40	31.15	
2025-01-12 23:15:20.73	65.47	31.16	
2025-01-12 23:15:20.93	65.53	31.18	
2025-01-12 23:15:21.13	65.59	31.20	
2025-01-12 23:15:21.34	65.66	31.22	
2025-01-12 23:15:21.55	65.72	31.24	
2025-01-12 23:15:21.75	65.79	31.26	
2025-01-12 23:15:21.96	65.85	31.28	
2025-01-12 23:15:22.18	65.92	31.30	
2025-01-12 23:15:22.38	65.98	31.32	
2025-01-12 23:15:22.59	66.05	31.34	
2025-01-12 23:15:22.79	66.11	31.36	
2025-01-12 23:15:23.00	66.18	31.38	
2025-01-12 23:15:23.20	66.24	31.40	
2025-01-12 23:15:23.40	66.31	31.41	
2025-01-12 23:15:23.61	66.37	31.43	
2025-01-12 23:15:23.82	66.44	31.45	
2025-01-12 23:15:24.02	66.50	31.47	
2025-01-12 23:15:24.23	66.57	31.49	
2025-01-12 23:15:24.43	66.63	31.51	
2025-01-12 23:15:24.64	66.70	31.53	
2025-01-12 23:15:24.84	66.76	31.55	
2025-01-12 23:15:25.05	66.83	31.57	
2025-01-12 23:15:25.25	66.90	31.58	
2025-01-12 23:15:25.46	66.96	31.60	
2025-01-12 23:15:25.66	67.03	31.62	
2025-01-12 23:15:25.87	67.09	31.64	
2025-01-12 23:15:26.07	67.16	31.66	
2025-01-12 23:15:26.28	67.23	31.68	
2025-01-12 23:15:26.48	67.29	31.70	
2025-01-12 23:15:26.69	67.36	31.72	
2025-01-12 23:15:26.89	67.42	31.73	
2025-01-12 23:15:27.10	67.49	31.75	
2025-01-12 23:15:27.30	67.56	31.77	
2025-01-12 23:15:27.51	67.62	31.79	
2025-01-12 23:15:27.71	67.69	31.81	
2025-01-12 23:15:27.92	67.76	31.83	
2025-01-12 23:15:28.12	67.82	31.84	
2025-01-12 23:15:28.33	67.89	31.86	
2025-01-12 23:15:28.54	67.96	31.88	
2025-01-12 23:15:28.75	68.03	31.90	
2025-01-12 23:15:28.96	68.10	31.92	
2025-01-12 23:15:29.16	68.16	31.94	
2025-01-12 23:15:29.37	68.23	31.95	
2025-01-12 23:15:29.57	68.30	31.97	
2025-01-12 23:15:29.78	68.36	31.99	
2025-01-12 23:15:29.99	68.43	32.01	
2025-01-12 23:15:30.19	68.50	32.03	
2025-01-12 23:15:30.40	68.57	32.05	
2025-01-12 23:15:30.60	68.63	32.06	
2025-01-12 23:15:30.81	68.70	32.08	
2025-01-12 23:15:31.01	68.77	32.10	
2025-01-12 23:15:31.22	68.84	32.12	
2025-01-12 23:15:31.42	68.90	32.13	
2025-01-12 23:15:31.63	68.97	32.15	
2025-01-12 23:15:31.83	69.04	32.17	
2025-01-12 23:15:32.04	69.11	32.19	
2025-01-12 23:15:32.24	69.18	32.21	
2025-01-12 23:15:32.45	69.25	32.22	
2025-01-12 23:15:32.65	69.31	32.24	
2025-01-12 23:15:32.86	69.38	32.26	
2025-01-12 23:15:33.06	69.45	32.28	
2025-01-12 23:15:33.27	69.52	32.29	
2025-01-12 23:15:33.47	69.59	32.31	
2025-01-12 23:15:33.68	69.66	32.33	
2025-01-12 23:15:33.88	69.72	32.35	
2025-01-12 23:15:34.09	69.80	32.36	
2025-01-12 23:15:34.29	69.86	32.38	
2025-01-12 23:15:34.50	69.93	32.40	
2025-01-12 23:15:34.71	70.00	32.42	
2025-01-12 23:15:34.91	70.07	32.43	
2025-01-12 23:15:35.13	70.15	32.45	
2025-01-12 23:15:35.34	70.22	32.47	
2025-01-12 23:15:35.54	70.28	32.49	
2025-01-12 23:15:35.75	70.35	32.50	
2025-01-12 23:15:35.95	70.42	32.52	
2025-01-12 23:15:36.16	70.49	32.54	
2025-01-12 23:15:36.36	70.56	32.55	
2025-01-12 23:15:36.57	70.63	32.57	
2025-01-12 23:15:36.77	70.70	32.59	
2025-01-12 23:15:36.98	70.77	32.60	
2025-01-12 23:15:37.20	70.85	32.62	
2025-01-12 23:15:37.40	70.92	32.64	
2025-01-12 23:15:37.61	70.99	32.66	
2025-01-12 23:15:37.81	71.06	32.67	
2025-01-12 23:15:38.02	71.13	32.69	
2025-01-12 23:15:38.22	71.20	32.71	
2025-01-12 23:15:38.42	71.26	32.72	
2025-01-12 23:15:38.63	71.34	32.74	
2025-01-12 23:15:38.84	71.41	32.76	
2025-01-12 23:15:39.04	71.48	32.77	
2025-01-12 23:15:39.25	71.55	32.79	
2025-01-12 23:15:39.45	71.62	32.81	
2025-01-12 23:15:39.66	71.69	32.82	
2025-01-12 23:15:39.86	71.76	32.84	
2025-01-12 23:15:40.07	71.83	32.85	
2025-01-12 23:15:40.27	71.90	32.87	
2025-01-12 23:15:40.47	71.97	32.89	
2025-01-12 23:15:40.68	72.04	32.90	
2025-01-12 23:15:40.88	72.11	32.92	
2025-01-12 23:15:41.09	72.19	32.94	
2025-01-12 23:15:41.29	72.26	32.95	
2025-01-12 23:15:41.51	72.33	32.97	
2025-01-12 23:15:41.72	72.41	32.98	
2025-01-12 23:15:41.92	72.48	33.00	
2025-01-12 23:15:42.13	72.55	33.02	
2025-01-12 23:15:42.33	72.62	33.03	
2025-01-12 23:15:42.54	72.69	33.05	
2025-01-12 23:15:42.74	72.76	33.06	
2025-01-12 23:15:42.95	72.84	33.08	
2025-01-12 23:15:43.15	72.91	33.10	
2025-01-12 23:15:43.36	72.98	33.11	
2025-01-12 23:15:43.56	73.05	33.13	
2025-01-12 23:15:43.77	73.12	33.14	
2025-01-12 23:15:43.97	73.20	33.16	
2025-01-12 23:15:44.18	73.27	33.17	
2025-01-12 23:15:44.38	73.34	33.19	
2025-01-12 23:15:44.59	73.41	33.20	
2025-01-12 23:15:44.81	73.49	33.22	
2025-01-12 23:15:45.01	73.56	33.24	
2025-01-12 23:15:45.22	73.64	33.25	
2025-01-12 23:15:45.43	73.71	33.27	
2025-01-12 23:15:45.63	73.78	33.28	
2025-01-12 23:15:45.83	73.85	33.30	
2025-01-12 23:15:46.03	73.92	33.31	
2025-01-12 23:15:46.23	74.00	33.33	
2025-01-12 23:15:46.44	74.07	33.34	
2025-01-12 23:15:46.64	74.14	33.36	
2025-01-12 23:15:46.85	74.22	33.37	
2025-01-12 23:15:47.05	74.29	33.39	
2025-01-12 23:15:47.26	74.36	33.40	
2025-01-12 23:15:47.46	74.44	33.42	
2025-01-12 23:15:47.67	74.51	33.43	
2025-01-12 23:15:47.87	74.58	33.45	
2025-01-12 23:15:48.08	74.66	33.46	
2025-01-12 23:15:48.29	74.73	33.48	
2025-01-12 23:15:48.49	74.80	33.49	
2025-01-12 23:15:48.70	74.88	33.50	
2025-01-12 23:15:48.90	74.95	33.52	
2025-01-12 23:15:49.11	75.03	33.53	
2025-01-12 23:15:49.31	75.10	33.55	
2025-01-12 23:15:49.52	75.18	33.56	
2025-01-12 23:15:49.72	75.25	33.58	
2025-01-12 23:15:49.93	75.32	33.59	
2025-01-12 23:15:50.13	75.40	33.60	
2025-01-12 23:15:50.34	75.47	33.62	
2025-01-12 23:15:50.54	75.54	33.63	
2025-01-12 23:15:50.75	75.62	33.65	
2025-01-12 23:15:50.95	75.69	33.66	
2025-01-12 23:15:51.16	75.77	33.68	
2025-01-12 23:15:51.36	75.84	33.69	
2025-01-12 23:15:51.57	75.92	33.70	
2025-01-12 23:15:51.77	75.99	33.72	
2025-01-12 23:15:51.98	76.07	33.73	
2025-01-12 23:15:52.18	76.14	33.74	
2025-01-12 23:15:52.38	76.21	33.76	
2025-01-12 23:15:52.59	76.29	33.77	
2025-01-12 23:15:52.80	76.37	33.79	
2025-01-12 23:15:53.00	76.44	33.80	
2025-01-12 23:15:53.21	76.52	33.81	
2025-01-12 23:15:53.41	76.59	33.83	
2025-01-12 23:15:53.62	76.67	33.84	
2025-01-12 23:15:53.82	76.74	33.85	
2025-01-12 23:15:54.03	76.82	33.87	
2025-01-12 23:15:54.23	76.89	33.88	
2025-01-12 23:15:54.43	76.97	33.89	
2025-01-12 23:15:54.64	77.04	33.91	
2025-01-12 23:15:54.85	77.12	33.92	
2025-01-12 23:15:55.05	77.20	33.93	
2025-01-12 23:15:55.26	77.27	33.95	
2025-01-12 23:15:55.46	77.35	33.96	
2025-01-12 23:15:55.67	77.43	33.97	
2025-01-12 23:15:55.87	77.50	33.98	
2025-01-12 23:15:56.08	77.58	34.00	
2025-01-12 23:15:56.29	77.66	34.01	
2025-01-12 23:15:56.49	77.73	34.02	
2025-01-12 23:15:56.70	77.81	34.04	
2025-01-12 23:15:56.90	77.88	34.05	
2025-01-12 23:15:57.11	77.96	34.06	
2025-01-12 23:15:57.31	78.03	34.07	
2025-01-12 23:15:57.51	78.11	34.09	
2025-01-12 23:15:57.72	78.19	34.10	
2025-01-12 23:15:57.92	78.26	34.11	
2025-01-12 23:15:58.13	78.34	34.12	
2025-01-12 23:15:58.33	78.42	34.14	
2025-01-12 23:15:58.53	78.49	34.15	
2025-01-12 23:15:58.74	78.57	34.16	
2025-01-12 23:15:58.95	78.65	34.17	
2025-01-12 23:15:59.15	78.72	34.18	
2025-01-12 23:15:59.36	78.80	34.20	
2025-01-12 23:15:59.56	78.88	34.21	
2025-01-12 23:15:59.77	78.96	34.22	
2025-01-12 23:15:59.97	79.03	34.23	
2025-01-12 23:16:00.19	79.11	34.24	
