passes_logs/2025/01/12/SPB_Silybum_02/SPB_Silybum_02__20250112_013644_AQUA_rec.log

#Pass ID: 20250112_013644_AQUA
#Satellite: AQUA
#Configuration: AQUA
#Start time: 2025-01-12 01:36:44

#Version: 2.0.20230423
#Station: SPB_Silybum_02
#Location: 30.233357 lon 59.946436 lat
#TLE: 1 27424U 02022A   25010.89862733  .00001944  00000+0  40909-3 0  9991
#TLE: 2 27424  98.3577 327.5256 0001581 116.2883 319.2080 14.60667727207024

#Time	Az	El	Level	Level2	SNR	BER	Gain	Gain2
2025-01-12 01:36:46.39	15.87	4.14	
2025-01-12 01:36:46.59	15.87	4.16	
2025-01-12 01:36:46.80	15.87	4.17	
2025-01-12 01:36:47.00	15.86	4.19	
2025-01-12 01:36:47.21	15.86	4.20	
2025-01-12 01:36:47.41	15.86	4.22	
2025-01-12 01:36:47.62	15.86	4.23	
2025-01-12 01:36:47.82	15.85	4.24	
2025-01-12 01:36:48.03	15.85	4.26	
2025-01-12 01:36:48.24	15.85	4.28	
2025-01-12 01:36:48.44	15.85	4.29	
2025-01-12 01:36:48.64	15.84	4.30	
2025-01-12 01:36:48.85	15.84	4.32	
2025-01-12 01:36:49.05	15.84	4.33	
2025-01-12 01:36:49.26	15.84	4.35	
2025-01-12 01:36:49.46	15.83	4.36	
2025-01-12 01:36:49.67	15.83	4.38	
2025-01-12 01:36:49.88	15.83	4.39	
2025-01-12 01:36:50.08	15.83	4.41	
2025-01-12 01:36:50.29	15.82	4.42	
2025-01-12 01:36:50.49	15.82	4.44	
2025-01-12 01:36:50.70	15.82	4.45	
2025-01-12 01:36:50.90	15.82	4.47	
2025-01-12 01:36:51.11	15.81	4.48	
2025-01-12 01:36:51.31	15.81	4.50	
2025-01-12 01:36:51.52	15.81	4.51	
2025-01-12 01:36:51.72	15.81	4.53	
2025-01-12 01:36:51.93	15.80	4.54	
2025-01-12 01:36:52.13	15.80	4.56	
2025-01-12 01:36:52.34	15.80	4.57	
2025-01-12 01:36:52.54	15.80	4.59	
2025-01-12 01:36:52.75	15.79	4.60	
2025-01-12 01:36:52.95	15.79	4.62	
2025-01-12 01:36:53.16	15.79	4.63	
2025-01-12 01:36:53.36	15.79	4.65	
2025-01-12 01:36:53.57	15.78	4.66	
2025-01-12 01:36:53.78	15.78	4.68	
2025-01-12 01:36:53.99	15.78	4.69	
2025-01-12 01:36:54.20	15.78	4.71	
2025-01-12 01:36:54.40	15.77	4.72	
2025-01-12 01:36:54.61	15.77	4.74	
2025-01-12 01:36:54.82	15.77	4.75	
2025-01-12 01:36:55.03	15.76	4.77	
2025-01-12 01:36:55.24	15.76	4.78	
2025-01-12 01:36:55.44	15.76	4.80	
2025-01-12 01:36:55.65	15.76	4.81	
2025-01-12 01:36:55.85	15.75	4.83	
2025-01-12 01:36:56.06	15.75	4.85	
2025-01-12 01:36:56.26	15.75	4.86	
2025-01-12 01:36:56.47	15.75	4.88	
2025-01-12 01:36:56.67	15.74	4.89	
2025-01-12 01:36:56.88	15.74	4.91	
2025-01-12 01:36:57.08	15.74	4.92	
2025-01-12 01:36:57.29	15.74	4.94	
2025-01-12 01:36:57.49	15.73	4.95	
2025-01-12 01:36:57.70	15.73	4.97	
2025-01-12 01:36:57.90	15.73	4.98	
2025-01-12 01:36:58.11	15.73	5.00	
2025-01-12 01:36:58.31	15.72	5.01	
2025-01-12 01:36:58.52	15.72	5.03	
2025-01-12 01:36:58.72	15.72	5.04	
2025-01-12 01:36:58.93	15.71	5.06	
2025-01-12 01:36:59.13	15.71	5.07	
2025-01-12 01:36:59.34	15.71	5.09	
2025-01-12 01:36:59.54	15.71	5.10	
2025-01-12 01:36:59.75	15.70	5.12	
2025-01-12 01:36:59.95	15.70	5.13	
2025-01-12 01:37:00.16	15.70	5.15	
2025-01-12 01:37:00.36	15.70	5.16	
2025-01-12 01:37:00.57	15.69	5.18	
2025-01-12 01:37:00.77	15.69	5.20	
2025-01-12 01:37:00.98	15.69	5.21	
2025-01-12 01:37:01.18	15.69	5.23	
2025-01-12 01:37:01.39	15.68	5.24	
2025-01-12 01:37:01.59	15.68	5.26	
2025-01-12 01:37:01.80	15.68	5.27	
2025-01-12 01:37:02.00	15.67	5.29	
2025-01-12 01:37:02.21	15.67	5.30	
2025-01-12 01:37:02.41	15.67	5.32	
2025-01-12 01:37:02.62	15.67	5.33	
2025-01-12 01:37:02.82	15.66	5.35	
2025-01-12 01:37:03.03	15.66	5.36	
2025-01-12 01:37:03.24	15.66	5.38	
2025-01-12 01:37:03.44	15.65	5.40	
2025-01-12 01:37:03.65	15.65	5.41	
2025-01-12 01:37:03.85	15.65	5.43	
2025-01-12 01:37:04.06	15.65	5.44	
2025-01-12 01:37:04.26	15.64	5.46	
2025-01-12 01:37:04.47	15.64	5.47	
2025-01-12 01:37:04.67	15.64	5.49	
2025-01-12 01:37:04.87	15.64	5.50	
2025-01-12 01:37:05.08	15.63	5.52	
2025-01-12 01:37:05.29	15.63	5.54	
2025-01-12 01:37:05.49	15.63	5.55	
2025-01-12 01:37:05.71	15.62	5.57	
2025-01-12 01:37:05.92	15.62	5.58	
2025-01-12 01:37:06.12	15.62	5.60	
2025-01-12 01:37:06.33	15.62	5.61	
2025-01-12 01:37:06.53	15.61	5.63	
2025-01-12 01:37:06.74	15.61	5.65	
2025-01-12 01:37:06.94	15.61	5.66	
2025-01-12 01:37:07.15	15.60	5.68	
2025-01-12 01:37:07.36	15.60	5.69	
2025-01-12 01:37:07.56	15.60	5.71	
2025-01-12 01:37:07.77	15.60	5.72	
2025-01-12 01:37:07.97	15.59	5.74	
2025-01-12 01:37:08.17	15.59	5.76	
2025-01-12 01:37:08.38	15.59	5.77	
2025-01-12 01:37:08.59	15.58	5.79	
2025-01-12 01:37:08.79	15.58	5.80	
2025-01-12 01:37:09.00	15.58	5.82	
2025-01-12 01:37:09.20	15.58	5.83	
2025-01-12 01:37:09.41	15.57	5.85	
2025-01-12 01:37:09.61	15.57	5.87	
2025-01-12 01:37:09.82	15.57	5.88	
2025-01-12 01:37:10.02	15.56	5.90	
2025-01-12 01:37:10.23	15.56	5.91	
2025-01-12 01:37:10.43	15.56	5.93	
2025-01-12 01:37:10.64	15.56	5.95	
2025-01-12 01:37:10.85	15.55	5.96	
2025-01-12 01:37:11.05	15.55	5.98	
2025-01-12 01:37:11.26	15.55	5.99	
2025-01-12 01:37:11.46	15.54	6.01	
2025-01-12 01:37:11.67	15.54	6.02	
2025-01-12 01:37:11.87	15.54	6.04	
2025-01-12 01:37:12.08	15.53	6.06	
2025-01-12 01:37:12.28	15.53	6.07	
2025-01-12 01:37:12.49	15.53	6.09	
2025-01-12 01:37:12.70	15.53	6.10	
2025-01-12 01:37:12.90	15.52	6.12	
2025-01-12 01:37:13.10	15.52	6.14	
2025-01-12 01:37:13.31	15.52	6.15	
2025-01-12 01:37:13.51	15.51	6.17	
2025-01-12 01:37:13.72	15.51	6.18	
2025-01-12 01:37:13.92	15.51	6.20	
2025-01-12 01:37:14.13	15.50	6.22	
2025-01-12 01:37:14.34	15.50	6.23	
2025-01-12 01:37:14.54	15.50	6.25	
2025-01-12 01:37:14.74	15.50	6.26	
2025-01-12 01:37:14.95	15.49	6.28	
2025-01-12 01:37:15.15	15.49	6.30	
2025-01-12 01:37:15.36	15.49	6.31	
2025-01-12 01:37:15.56	15.48	6.33	
2025-01-12 01:37:15.77	15.48	6.34	
2025-01-12 01:37:15.97	15.48	6.36	
2025-01-12 01:37:16.18	15.47	6.38	
2025-01-12 01:37:16.40	15.47	6.39	
2025-01-12 01:37:16.60	15.47	6.41	
2025-01-12 01:37:16.81	15.47	6.43	
2025-01-12 01:37:17.02	15.46	6.44	
2025-01-12 01:37:17.22	15.46	6.46	
2025-01-12 01:37:17.42	15.46	6.47	
2025-01-12 01:37:17.63	15.45	6.49	
2025-01-12 01:37:17.84	15.45	6.51	
2025-01-12 01:37:18.04	15.45	6.52	
2025-01-12 01:37:18.25	15.44	6.54	
2025-01-12 01:37:18.45	15.44	6.56	
2025-01-12 01:37:18.66	15.44	6.57	
2025-01-12 01:37:18.86	15.43	6.59	
2025-01-12 01:37:19.07	15.43	6.61	
2025-01-12 01:37:19.28	15.43	6.62	
2025-01-12 01:37:19.49	15.43	6.64	
2025-01-12 01:37:19.70	15.42	6.66	
2025-01-12 01:37:19.91	15.42	6.67	
2025-01-12 01:37:20.11	15.42	6.69	
2025-01-12 01:37:20.32	15.41	6.70	
2025-01-12 01:37:20.52	15.41	6.72	
2025-01-12 01:37:20.72	15.41	6.74	
2025-01-12 01:37:20.93	15.40	6.75	
2025-01-12 01:37:21.14	15.40	6.77	
2025-01-12 01:37:21.34	15.40	6.79	
2025-01-12 01:37:21.55	15.39	6.80	
2025-01-12 01:37:21.75	15.39	6.82	
2025-01-12 01:37:21.96	15.39	6.84	
2025-01-12 01:37:22.16	15.38	6.85	
2025-01-12 01:37:22.37	15.38	6.87	
2025-01-12 01:37:22.57	15.38	6.89	
2025-01-12 01:37:22.78	15.37	6.90	
2025-01-12 01:37:22.98	15.37	6.92	
2025-01-12 01:37:23.19	15.37	6.94	
2025-01-12 01:37:23.39	15.36	6.95	
2025-01-12 01:37:23.60	15.36	6.97	
2025-01-12 01:37:23.80	15.36	6.98	
2025-01-12 01:37:24.01	15.36	7.00	
2025-01-12 01:37:24.22	15.35	7.02	
2025-01-12 01:37:24.42	15.35	7.03	
2025-01-12 01:37:24.63	15.35	7.05	
2025-01-12 01:37:24.83	15.34	7.07	
2025-01-12 01:37:25.03	15.34	7.08	
2025-01-12 01:37:25.24	15.34	7.10	
2025-01-12 01:37:25.45	15.33	7.12	
2025-01-12 01:37:25.65	15.33	7.13	
2025-01-12 01:37:25.86	15.33	7.15	
2025-01-12 01:37:26.06	15.32	7.17	
2025-01-12 01:37:26.27	15.32	7.18	
2025-01-12 01:37:26.47	15.32	7.20	
2025-01-12 01:37:26.68	15.31	7.22	
2025-01-12 01:37:26.88	15.31	7.23	
2025-01-12 01:37:27.10	15.31	7.25	
2025-01-12 01:37:27.30	15.30	7.27	
2025-01-12 01:37:27.51	15.30	7.29	
2025-01-12 01:37:27.72	15.30	7.30	
2025-01-12 01:37:27.92	15.29	7.32	
2025-01-12 01:37:28.13	15.29	7.34	
2025-01-12 01:37:28.34	15.29	7.35	
2025-01-12 01:37:28.54	15.28	7.37	
2025-01-12 01:37:28.75	15.28	7.39	
2025-01-12 01:37:28.95	15.28	7.40	
2025-01-12 01:37:29.16	15.27	7.42	
2025-01-12 01:37:29.36	15.27	7.44	
2025-01-12 01:37:29.57	15.27	7.45	
2025-01-12 01:37:29.77	15.26	7.47	
2025-01-12 01:37:29.98	15.26	7.49	
2025-01-12 01:37:30.18	15.26	7.51	
2025-01-12 01:37:30.39	15.25	7.52	
2025-01-12 01:37:30.60	15.25	7.54	
2025-01-12 01:37:30.80	15.25	7.56	
2025-01-12 01:37:31.01	15.24	7.57	
2025-01-12 01:37:31.21	15.24	7.59	
2025-01-12 01:37:31.42	15.24	7.61	
2025-01-12 01:37:31.62	15.23	7.62	
2025-01-12 01:37:31.83	15.23	7.64	
2025-01-12 01:37:32.03	15.22	7.66	
2025-01-12 01:37:32.24	15.22	7.68	
2025-01-12 01:37:32.45	15.22	7.69	
2025-01-12 01:37:32.66	15.21	7.71	
2025-01-12 01:37:32.87	15.21	7.73	
2025-01-12 01:37:33.07	15.21	7.74	
2025-01-12 01:37:33.28	15.20	7.76	
2025-01-12 01:37:33.48	15.20	7.78	
2025-01-12 01:37:33.69	15.20	7.80	
2025-01-12 01:37:33.90	15.19	7.81	
2025-01-12 01:37:34.10	15.19	7.83	
2025-01-12 01:37:34.31	15.19	7.85	
2025-01-12 01:37:34.51	15.18	7.87	
2025-01-12 01:37:34.72	15.18	7.88	
2025-01-12 01:37:34.92	15.18	7.90	
2025-01-12 01:37:35.13	15.17	7.92	
2025-01-12 01:37:35.33	15.17	7.93	
2025-01-12 01:37:35.54	15.17	7.95	
2025-01-12 01:37:35.74	15.16	7.97	
2025-01-12 01:37:35.95	15.16	7.99	
2025-01-12 01:37:36.15	15.15	8.00	
2025-01-12 01:37:36.36	15.15	8.02	
2025-01-12 01:37:36.56	15.15	8.04	
2025-01-12 01:37:36.77	15.14	8.06	
2025-01-12 01:37:36.98	15.14	8.07	
2025-01-12 01:37:37.18	15.14	8.09	
2025-01-12 01:37:37.39	15.13	8.11	
2025-01-12 01:37:37.59	15.13	8.13	
2025-01-12 01:37:37.80	15.13	8.14	
2025-01-12 01:37:38.00	15.12	8.16	
2025-01-12 01:37:38.21	15.12	8.18	
2025-01-12 01:37:38.42	15.12	8.20	
2025-01-12 01:37:38.62	15.11	8.21	
2025-01-12 01:37:38.82	15.11	8.23	
2025-01-12 01:37:39.03	15.10	8.25	
2025-01-12 01:37:39.24	15.10	8.27	
2025-01-12 01:37:39.44	15.10	8.28	
2025-01-12 01:37:39.65	15.09	8.30	
2025-01-12 01:37:39.86	15.09	8.32	
2025-01-12 01:37:40.07	15.09	8.34	
2025-01-12 01:37:40.27	15.08	8.35	
2025-01-12 01:37:40.48	15.08	8.37	
2025-01-12 01:37:40.69	15.08	8.39	
2025-01-12 01:37:40.89	15.07	8.41	
2025-01-12 01:37:41.10	15.07	8.42	
2025-01-12 01:37:41.30	15.06	8.44	
2025-01-12 01:37:41.51	15.06	8.46	
2025-01-12 01:37:41.71	15.06	8.48	
2025-01-12 01:37:41.92	15.05	8.50	
2025-01-12 01:37:42.12	15.05	8.51	
2025-01-12 01:37:42.33	15.05	8.53	
2025-01-12 01:37:42.53	15.04	8.55	
2025-01-12 01:37:42.74	15.04	8.57	
2025-01-12 01:37:42.94	15.03	8.58	
2025-01-12 01:37:43.15	15.03	8.60	
2025-01-12 01:37:43.35	15.03	8.62	
2025-01-12 01:37:43.56	15.02	8.64	
2025-01-12 01:37:43.76	15.02	8.65	
2025-01-12 01:37:43.97	15.02	8.67	
2025-01-12 01:37:44.17	15.01	8.69	
2025-01-12 01:37:44.38	15.01	8.71	
2025-01-12 01:37:44.58	15.00	8.73	
2025-01-12 01:37:44.79	15.00	8.74	
2025-01-12 01:37:44.99	15.00	8.76	
2025-01-12 01:37:45.20	14.99	8.78	
2025-01-12 01:37:45.40	14.99	8.80	
2025-01-12 01:37:45.61	14.99	8.82	
2025-01-12 01:37:45.82	14.98	8.83	
2025-01-12 01:37:46.02	14.98	8.85	
2025-01-12 01:37:46.23	14.97	8.87	
2025-01-12 01:37:46.43	14.97	8.89	
2025-01-12 01:37:46.64	14.97	8.91	
2025-01-12 01:37:46.84	14.96	8.92	
2025-01-12 01:37:47.05	14.96	8.94	
2025-01-12 01:37:47.25	14.95	8.96	
2025-01-12 01:37:47.46	14.95	8.98	
2025-01-12 01:37:47.66	14.95	9.00	
2025-01-12 01:37:47.87	14.94	9.01	
2025-01-12 01:37:48.07	14.94	9.03	
2025-01-12 01:37:48.28	14.94	9.05	
2025-01-12 01:37:48.48	14.93	9.07	
2025-01-12 01:37:48.69	14.93	9.09	
2025-01-12 01:37:48.90	14.92	9.10	
2025-01-12 01:37:49.10	14.92	9.12	
2025-01-12 01:37:49.31	14.92	9.14	
2025-01-12 01:37:49.51	14.91	9.16	
2025-01-12 01:37:49.71	14.91	9.18	
2025-01-12 01:37:49.92	14.90	9.20	
2025-01-12 01:37:50.12	14.90	9.21	
2025-01-12 01:37:50.33	14.90	9.23	
2025-01-12 01:37:50.53	14.89	9.25	
2025-01-12 01:37:50.74	14.89	9.27	
2025-01-12 01:37:50.94	14.88	9.29	
2025-01-12 01:37:51.15	14.88	9.31	
2025-01-12 01:37:51.35	14.88	9.32	
2025-01-12 01:37:51.56	14.87	9.34	
2025-01-12 01:37:51.76	14.87	9.36	
2025-01-12 01:37:51.97	14.86	9.38	
2025-01-12 01:37:52.17	14.86	9.40	
2025-01-12 01:37:52.38	14.86	9.42	
2025-01-12 01:37:52.59	14.85	9.43	
2025-01-12 01:37:52.79	14.85	9.45	
2025-01-12 01:37:53.00	14.84	9.47	
2025-01-12 01:37:53.20	14.84	9.49	
2025-01-12 01:37:53.41	14.84	9.51	
2025-01-12 01:37:53.61	14.83	9.53	
2025-01-12 01:37:53.82	14.83	9.54	
2025-01-12 01:37:54.02	14.82	9.56	
2025-01-12 01:37:54.23	14.82	9.58	
2025-01-12 01:37:54.44	14.81	9.60	
2025-01-12 01:37:54.64	14.81	9.62	
2025-01-12 01:37:54.84	14.81	9.64	
2025-01-12 01:37:55.05	14.80	9.66	
2025-01-12 01:37:55.25	14.80	9.67	
2025-01-12 01:37:55.46	14.79	9.69	
2025-01-12 01:37:55.67	14.79	9.71	
2025-01-12 01:37:55.87	14.79	9.73	
2025-01-12 01:37:56.08	14.78	9.75	
2025-01-12 01:37:56.28	14.78	9.77	
2025-01-12 01:37:56.49	14.77	9.79	
2025-01-12 01:37:56.69	14.77	9.81	
2025-01-12 01:37:56.90	14.77	9.82	
2025-01-12 01:37:57.10	14.76	9.84	
2025-01-12 01:37:57.31	14.76	9.86	
2025-01-12 01:37:57.52	14.75	9.88	
2025-01-12 01:37:57.72	14.75	9.90	
2025-01-12 01:37:57.93	14.74	9.92	
2025-01-12 01:37:58.13	14.74	9.94	
2025-01-12 01:37:58.34	14.74	9.96	
2025-01-12 01:37:58.54	14.73	9.97	
2025-01-12 01:37:58.75	14.73	9.99	
2025-01-12 01:37:58.95	14.72	10.01	
2025-01-12 01:37:59.16	14.72	10.03	
2025-01-12 01:37:59.36	14.71	10.05	
2025-01-12 01:37:59.57	14.71	10.07	
2025-01-12 01:37:59.77	14.71	10.09	
2025-01-12 01:37:59.98	14.70	10.11	
2025-01-12 01:38:00.18	14.70	10.13	
2025-01-12 01:38:00.39	14.69	10.15	
2025-01-12 01:38:00.59	14.69	10.16	
2025-01-12 01:38:00.80	14.68	10.18	
2025-01-12 01:38:01.00	14.68	10.20	
2025-01-12 01:38:01.21	14.68	10.22	
2025-01-12 01:38:01.41	14.67	10.24	
2025-01-12 01:38:01.62	14.67	10.26	
2025-01-12 01:38:01.82	14.66	10.28	
2025-01-12 01:38:02.03	14.66	10.30	
2025-01-12 01:38:02.23	14.65	10.32	
2025-01-12 01:38:02.44	14.65	10.34	
2025-01-12 01:38:02.65	14.65	10.36	
2025-01-12 01:38:02.85	14.64	10.38	
2025-01-12 01:38:03.06	14.64	10.39	
2025-01-12 01:38:03.26	14.63	10.41	
2025-01-12 01:38:03.47	14.63	10.43	
2025-01-12 01:38:03.67	14.62	10.45	
2025-01-12 01:38:03.88	14.62	10.47	
2025-01-12 01:38:04.08	14.61	10.49	
2025-01-12 01:38:04.29	14.61	10.51	
2025-01-12 01:38:04.50	14.61	10.53	
2025-01-12 01:38:04.70	14.60	10.55	
2025-01-12 01:38:04.90	14.60	10.57	
2025-01-12 01:38:05.11	14.59	10.59	
2025-01-12 01:38:05.32	14.59	10.61	
2025-01-12 01:38:05.52	14.58	10.63	
2025-01-12 01:38:05.72	14.58	10.65	
2025-01-12 01:38:05.93	14.57	10.67	
2025-01-12 01:38:06.14	14.57	10.69	
2025-01-12 01:38:06.34	14.57	10.70	
2025-01-12 01:38:06.55	14.56	10.72	
2025-01-12 01:38:06.75	14.56	10.74	
2025-01-12 01:38:06.96	14.55	10.76	
2025-01-12 01:38:07.16	14.55	10.78	
2025-01-12 01:38:07.37	14.54	10.80	
2025-01-12 01:38:07.57	14.54	10.82	
2025-01-12 01:38:07.78	14.53	10.84	
2025-01-12 01:38:07.98	14.53	10.86	
2025-01-12 01:38:08.19	14.52	10.88	
2025-01-12 01:38:08.39	14.52	10.90	
2025-01-12 01:38:08.60	14.52	10.92	
2025-01-12 01:38:08.80	14.51	10.94	
2025-01-12 01:38:09.01	14.51	10.96	
2025-01-12 01:38:09.22	14.50	10.98	
2025-01-12 01:38:09.42	14.50	11.00	
2025-01-12 01:38:09.63	14.49	11.02	
2025-01-12 01:38:09.83	14.49	11.04	
2025-01-12 01:38:10.04	14.48	11.06	
2025-01-12 01:38:10.25	14.48	11.08	
2025-01-12 01:38:10.45	14.47	11.10	
2025-01-12 01:38:10.66	14.47	11.12	
2025-01-12 01:38:10.86	14.46	11.14	
2025-01-12 01:38:11.07	14.46	11.16	
2025-01-12 01:38:11.27	14.45	11.18	
2025-01-12 01:38:11.48	14.45	11.20	
2025-01-12 01:38:11.69	14.44	11.22	
2025-01-12 01:38:11.89	14.44	11.24	
2025-01-12 01:38:12.09	14.44	11.26	
2025-01-12 01:38:12.30	14.43	11.28	
2025-01-12 01:38:12.51	14.43	11.30	
2025-01-12 01:38:12.71	14.42	11.32	
2025-01-12 01:38:12.91	14.42	11.34	
2025-01-12 01:38:13.12	14.41	11.36	
2025-01-12 01:38:13.32	14.41	11.38	
2025-01-12 01:38:13.53	14.40	11.40	
2025-01-12 01:38:13.74	14.40	11.42	
2025-01-12 01:38:13.94	14.39	11.44	
2025-01-12 01:38:14.15	14.39	11.46	
2025-01-12 01:38:14.35	14.38	11.48	
2025-01-12 01:38:14.55	14.38	11.50	
2025-01-12 01:38:14.76	14.37	11.52	
2025-01-12 01:38:14.96	14.37	11.54	
2025-01-12 01:38:15.17	14.36	11.56	
2025-01-12 01:38:15.37	14.36	11.58	
2025-01-12 01:38:15.58	14.35	11.60	
2025-01-12 01:38:15.78	14.35	11.62	
2025-01-12 01:38:15.99	14.34	11.64	
2025-01-12 01:38:16.19	14.34	11.66	
2025-01-12 01:38:16.40	14.33	11.68	
2025-01-12 01:38:16.60	14.33	11.70	
2025-01-12 01:38:16.81	14.32	11.72	
2025-01-12 01:38:17.01	14.32	11.74	
2025-01-12 01:38:17.22	14.31	11.76	
2025-01-12 01:38:17.42	14.31	11.78	
2025-01-12 01:38:17.63	14.30	11.80	
2025-01-12 01:38:17.83	14.30	11.82	
2025-01-12 01:38:18.04	14.29	11.84	
2025-01-12 01:38:18.25	14.29	11.87	
2025-01-12 01:38:18.45	14.28	11.89	
2025-01-12 01:38:18.66	14.28	11.91	
2025-01-12 01:38:18.86	14.27	11.93	
2025-01-12 01:38:19.07	14.27	11.95	
2025-01-12 01:38:19.27	14.26	11.97	
2025-01-12 01:38:19.47	14.26	11.99	
2025-01-12 01:38:19.68	14.25	12.01	
2025-01-12 01:38:19.89	14.25	12.03	
2025-01-12 01:38:20.09	14.24	12.05	
2025-01-12 01:38:20.31	14.24	12.07	
2025-01-12 01:38:20.51	14.23	12.09	
2025-01-12 01:38:20.72	14.23	12.11	
2025-01-12 01:38:20.92	14.22	12.13	
2025-01-12 01:38:21.13	14.22	12.16	
2025-01-12 01:38:21.33	14.21	12.18	
2025-01-12 01:38:21.54	14.21	12.20	
2025-01-12 01:38:21.74	14.20	12.22	
2025-01-12 01:38:21.95	14.20	12.24	
2025-01-12 01:38:22.15	14.19	12.26	
2025-01-12 01:38:22.36	14.19	12.28	
2025-01-12 01:38:22.56	14.18	12.30	
2025-01-12 01:38:22.77	14.18	12.32	
2025-01-12 01:38:22.97	14.17	12.34	
2025-01-12 01:38:23.18	14.17	12.37	
2025-01-12 01:38:23.39	14.16	12.39	
2025-01-12 01:38:23.59	14.16	12.41	
2025-01-12 01:38:23.79	14.15	12.43	
2025-01-12 01:38:24.00	14.15	12.45	
2025-01-12 01:38:24.21	14.14	12.47	
2025-01-12 01:38:24.41	14.14	12.49	
2025-01-12 01:38:24.62	14.13	12.51	
2025-01-12 01:38:24.84	14.12	12.54	
2025-01-12 01:38:25.04	14.12	12.56	
2025-01-12 01:38:25.25	14.11	12.58	
2025-01-12 01:38:25.46	14.11	12.60	
2025-01-12 01:38:25.66	14.10	12.62	
2025-01-12 01:38:25.87	14.10	12.64	
2025-01-12 01:38:26.07	14.09	12.66	
2025-01-12 01:38:26.28	14.09	12.68	
2025-01-12 01:38:26.48	14.08	12.71	
2025-01-12 01:38:26.69	14.08	12.73	
2025-01-12 01:38:26.89	14.07	12.75	
2025-01-12 01:38:27.10	14.07	12.77	
2025-01-12 01:38:27.31	14.06	12.79	
2025-01-12 01:38:27.51	14.06	12.81	
2025-01-12 01:38:27.72	14.05	12.83	
2025-01-12 01:38:27.92	14.04	12.86	
2025-01-12 01:38:28.13	14.04	12.88	
2025-01-12 01:38:28.34	14.03	12.90	
2025-01-12 01:38:28.55	14.03	12.92	
2025-01-12 01:38:28.76	14.02	12.94	
2025-01-12 01:38:28.96	14.02	12.96	
2025-01-12 01:38:29.16	14.01	12.99	
2025-01-12 01:38:29.37	14.01	13.01	
2025-01-12 01:38:29.58	14.00	13.03	
2025-01-12 01:38:29.78	13.99	13.05	
2025-01-12 01:38:29.99	13.99	13.07	
2025-01-12 01:38:30.19	13.98	13.09	
2025-01-12 01:38:30.40	13.98	13.12	
2025-01-12 01:38:30.60	13.97	13.14	
2025-01-12 01:38:30.81	13.97	13.16	
2025-01-12 01:38:31.01	13.96	13.18	
2025-01-12 01:38:31.22	13.96	13.20	
2025-01-12 01:38:31.42	13.95	13.23	
2025-01-12 01:38:31.63	13.94	13.25	
2025-01-12 01:38:31.83	13.94	13.27	
2025-01-12 01:38:32.05	13.93	13.29	
2025-01-12 01:38:32.26	13.93	13.31	
2025-01-12 01:38:32.46	13.92	13.34	
2025-01-12 01:38:32.67	13.92	13.36	
2025-01-12 01:38:32.87	13.91	13.38	
2025-01-12 01:38:33.08	13.90	13.40	
2025-01-12 01:38:33.28	13.90	13.42	
2025-01-12 01:38:33.49	13.89	13.45	
2025-01-12 01:38:33.70	13.89	13.47	
2025-01-12 01:38:33.90	13.88	13.49	
2025-01-12 01:38:34.11	13.88	13.51	
2025-01-12 01:38:34.31	13.87	13.53	
2025-01-12 01:38:34.52	13.86	13.56	
2025-01-12 01:38:34.72	13.86	13.58	
2025-01-12 01:38:34.92	13.85	13.60	
2025-01-12 01:38:35.13	13.85	13.62	
2025-01-12 01:38:35.33	13.84	13.65	
2025-01-12 01:38:35.54	13.84	13.67	
2025-01-12 01:38:35.75	13.83	13.69	
2025-01-12 01:38:35.95	13.82	13.71	
2025-01-12 01:38:36.16	13.82	13.74	
2025-01-12 01:38:36.36	13.81	13.76	
2025-01-12 01:38:36.57	13.81	13.78	
2025-01-12 01:38:36.77	13.80	13.80	
2025-01-12 01:38:36.98	13.79	13.82	
2025-01-12 01:38:37.18	13.79	13.85	
2025-01-12 01:38:37.39	13.78	13.87	
2025-01-12 01:38:37.59	13.78	13.89	
2025-01-12 01:38:37.80	13.77	13.91	
2025-01-12 01:38:38.01	13.76	13.94	
2025-01-12 01:38:38.21	13.76	13.96	
2025-01-12 01:38:38.42	13.75	13.98	
2025-01-12 01:38:38.63	13.75	14.01	
2025-01-12 01:38:38.83	13.74	14.03	
2025-01-12 01:38:39.04	13.74	14.05	
2025-01-12 01:38:39.25	13.73	14.07	
2025-01-12 01:38:39.45	13.72	14.10	
2025-01-12 01:38:39.66	13.72	14.12	
2025-01-12 01:38:39.86	13.71	14.14	
2025-01-12 01:38:40.07	13.70	14.17	
2025-01-12 01:38:40.27	13.70	14.19	
2025-01-12 01:38:40.48	13.69	14.21	
2025-01-12 01:38:40.68	13.69	14.23	
2025-01-12 01:38:40.88	13.68	14.26	
2025-01-12 01:38:41.09	13.67	14.28	
2025-01-12 01:38:41.30	13.67	14.30	
2025-01-12 01:38:41.50	13.66	14.32	
2025-01-12 01:38:41.71	13.66	14.35	
2025-01-12 01:38:41.91	13.65	14.37	
2025-01-12 01:38:42.11	13.64	14.39	
2025-01-12 01:38:42.32	13.64	14.42	
2025-01-12 01:38:42.53	13.63	14.44	
2025-01-12 01:38:42.73	13.63	14.46	
2025-01-12 01:38:42.95	13.62	14.49	
2025-01-12 01:38:43.15	13.61	14.51	
2025-01-12 01:38:43.36	13.61	14.53	
2025-01-12 01:38:43.57	13.60	14.56	
2025-01-12 01:38:43.77	13.59	14.58	
2025-01-12 01:38:43.98	13.59	14.60	
2025-01-12 01:38:44.18	13.58	14.63	
2025-01-12 01:38:44.39	13.57	14.65	
2025-01-12 01:38:44.59	13.57	14.67	
2025-01-12 01:38:44.80	13.56	14.70	
2025-01-12 01:38:45.00	13.56	14.72	
2025-01-12 01:38:45.21	13.55	14.74	
2025-01-12 01:38:45.42	13.54	14.77	
2025-01-12 01:38:45.62	13.54	14.79	
2025-01-12 01:38:45.83	13.53	14.81	
2025-01-12 01:38:46.03	13.52	14.84	
2025-01-12 01:38:46.24	13.52	14.86	
2025-01-12 01:38:46.44	13.51	14.88	
2025-01-12 01:38:46.65	13.50	14.91	
2025-01-12 01:38:46.86	13.50	14.93	
2025-01-12 01:38:47.06	13.49	14.95	
2025-01-12 01:38:47.27	13.49	14.98	
2025-01-12 01:38:47.47	13.48	15.00	
2025-01-12 01:38:47.68	13.47	15.03	
2025-01-12 01:38:47.88	13.47	15.05	
2025-01-12 01:38:48.09	13.46	15.07	
2025-01-12 01:38:48.29	13.45	15.10	
2025-01-12 01:38:48.49	13.45	15.12	
2025-01-12 01:38:48.70	13.44	15.14	
2025-01-12 01:38:48.90	13.43	15.17	
2025-01-12 01:38:49.11	13.43	15.19	
2025-01-12 01:38:49.31	13.42	15.22	
2025-01-12 01:38:49.52	13.41	15.24	
2025-01-12 01:38:49.72	13.41	15.26	
2025-01-12 01:38:49.93	13.40	15.29	
2025-01-12 01:38:50.13	13.39	15.31	
2025-01-12 01:38:50.34	13.39	15.34	
2025-01-12 01:38:50.54	13.38	15.36	
2025-01-12 01:38:50.75	13.37	15.38	
2025-01-12 01:38:50.95	13.37	15.41	
2025-01-12 01:38:51.16	13.36	15.43	
2025-01-12 01:38:51.37	13.35	15.46	
2025-01-12 01:38:51.57	13.35	15.48	
2025-01-12 01:38:51.78	13.34	15.50	
2025-01-12 01:38:51.98	13.33	15.53	
2025-01-12 01:38:52.19	13.33	15.55	
2025-01-12 01:38:52.39	13.32	15.58	
2025-01-12 01:38:52.61	13.31	15.60	
2025-01-12 01:38:52.82	13.31	15.63	
2025-01-12 01:38:53.02	13.30	15.65	
2025-01-12 01:38:53.23	13.29	15.68	
2025-01-12 01:38:53.43	13.29	15.70	
2025-01-12 01:38:53.65	13.28	15.73	
2025-01-12 01:38:53.86	13.27	15.75	
2025-01-12 01:38:54.06	13.26	15.77	
2025-01-12 01:38:54.27	13.26	15.80	
2025-01-12 01:38:54.48	13.25	15.82	
2025-01-12 01:38:54.68	13.24	15.85	
2025-01-12 01:38:54.89	13.24	15.87	
2025-01-12 01:38:55.09	13.23	15.90	
2025-01-12 01:38:55.30	13.22	15.92	
2025-01-12 01:38:55.50	13.22	15.95	
2025-01-12 01:38:55.71	13.21	15.97	
2025-01-12 01:38:55.91	13.20	16.00	
2025-01-12 01:38:56.12	13.19	16.02	
2025-01-12 01:38:56.32	13.19	16.05	
2025-01-12 01:38:56.53	13.18	16.07	
2025-01-12 01:38:56.73	13.17	16.10	
2025-01-12 01:38:56.94	13.17	16.12	
2025-01-12 01:38:57.14	13.16	16.15	
2025-01-12 01:38:57.35	13.15	16.17	
2025-01-12 01:38:57.55	13.15	16.19	
2025-01-12 01:38:57.76	13.14	16.22	
2025-01-12 01:38:57.96	13.13	16.24	
2025-01-12 01:38:58.17	13.12	16.27	
2025-01-12 01:38:58.37	13.12	16.29	
2025-01-12 01:38:58.58	13.11	16.32	
2025-01-12 01:38:58.79	13.10	16.35	
2025-01-12 01:38:58.99	13.10	16.37	
2025-01-12 01:38:59.20	13.09	16.40	
2025-01-12 01:38:59.40	13.08	16.42	
2025-01-12 01:38:59.61	13.07	16.45	
2025-01-12 01:38:59.81	13.07	16.47	
2025-01-12 01:39:00.02	13.06	16.50	
2025-01-12 01:39:00.22	13.05	16.52	
2025-01-12 01:39:00.42	13.04	16.55	
2025-01-12 01:39:00.63	13.04	16.57	
2025-01-12 01:39:00.83	13.03	16.60	
2025-01-12 01:39:01.04	13.02	16.62	
2025-01-12 01:39:01.24	13.02	16.65	
2025-01-12 01:39:01.45	13.01	16.67	
2025-01-12 01:39:01.65	13.00	16.70	
2025-01-12 01:39:01.86	12.99	16.72	
2025-01-12 01:39:02.06	12.99	16.75	
2025-01-12 01:39:02.27	12.98	16.78	
2025-01-12 01:39:02.47	12.97	16.80	
2025-01-12 01:39:02.68	12.96	16.83	
2025-01-12 01:39:02.89	12.96	16.85	
2025-01-12 01:39:03.09	12.95	16.88	
2025-01-12 01:39:03.30	12.94	16.90	
2025-01-12 01:39:03.50	12.93	16.93	
2025-01-12 01:39:03.71	12.93	16.96	
2025-01-12 01:39:03.91	12.92	16.98	
2025-01-12 01:39:04.12	12.91	17.01	
2025-01-12 01:39:04.32	12.90	17.03	
2025-01-12 01:39:04.53	12.89	17.06	
2025-01-12 01:39:04.73	12.89	17.08	
2025-01-12 01:39:04.94	12.88	17.11	
2025-01-12 01:39:05.14	12.87	17.14	
2025-01-12 01:39:05.36	12.86	17.16	
2025-01-12 01:39:05.56	12.86	17.19	
2025-01-12 01:39:05.77	12.85	17.22	
2025-01-12 01:39:05.98	12.84	17.24	
2025-01-12 01:39:06.18	12.83	17.27	
2025-01-12 01:39:06.39	12.83	17.30	
2025-01-12 01:39:06.59	12.82	17.32	
2025-01-12 01:39:06.80	12.81	17.35	
2025-01-12 01:39:07.01	12.80	17.37	
2025-01-12 01:39:07.21	12.79	17.40	
2025-01-12 01:39:07.42	12.79	17.43	
2025-01-12 01:39:07.62	12.78	17.45	
2025-01-12 01:39:07.83	12.77	17.48	
2025-01-12 01:39:08.03	12.76	17.51	
2025-01-12 01:39:08.23	12.76	17.53	
2025-01-12 01:39:08.44	12.75	17.56	
2025-01-12 01:39:08.64	12.74	17.58	
2025-01-12 01:39:08.85	12.73	17.61	
2025-01-12 01:39:09.06	12.72	17.64	
2025-01-12 01:39:09.26	12.72	17.66	
2025-01-12 01:39:09.47	12.71	17.69	
2025-01-12 01:39:09.67	12.70	17.72	
2025-01-12 01:39:09.88	12.69	17.75	
2025-01-12 01:39:10.08	12.68	17.77	
2025-01-12 01:39:10.29	12.67	17.80	
2025-01-12 01:39:10.49	12.67	17.82	
2025-01-12 01:39:10.70	12.66	17.85	
2025-01-12 01:39:10.90	12.65	17.88	
2025-01-12 01:39:11.11	12.64	17.91	
2025-01-12 01:39:11.32	12.63	17.93	
2025-01-12 01:39:11.52	12.63	17.96	
2025-01-12 01:39:11.72	12.62	17.99	
2025-01-12 01:39:11.93	12.61	18.01	
2025-01-12 01:39:12.14	12.60	18.04	
2025-01-12 01:39:12.35	12.59	18.07	
2025-01-12 01:39:12.55	12.59	18.10	
2025-01-12 01:39:12.76	12.58	18.12	
2025-01-12 01:39:12.96	12.57	18.15	
2025-01-12 01:39:13.17	12.56	18.18	
2025-01-12 01:39:13.37	12.55	18.20	
2025-01-12 01:39:13.58	12.54	18.23	
2025-01-12 01:39:13.78	12.54	18.26	
2025-01-12 01:39:14.00	12.53	18.29	
2025-01-12 01:39:14.21	12.52	18.32	
2025-01-12 01:39:14.41	12.51	18.34	
2025-01-12 01:39:14.62	12.50	18.37	
2025-01-12 01:39:14.82	12.49	18.40	
2025-01-12 01:39:15.03	12.48	18.43	
2025-01-12 01:39:15.23	12.48	18.45	
2025-01-12 01:39:15.44	12.47	18.48	
2025-01-12 01:39:15.64	12.46	18.51	
2025-01-12 01:39:15.85	12.45	18.54	
2025-01-12 01:39:16.05	12.44	18.56	
2025-01-12 01:39:16.26	12.43	18.59	
2025-01-12 01:39:16.47	12.42	18.62	
2025-01-12 01:39:16.67	12.42	18.65	
2025-01-12 01:39:16.88	12.41	18.68	
2025-01-12 01:39:17.08	12.40	18.70	
2025-01-12 01:39:17.29	12.39	18.73	
2025-01-12 01:39:17.49	12.38	18.76	
2025-01-12 01:39:17.70	12.37	18.79	
2025-01-12 01:39:17.90	12.36	18.81	
2025-01-12 01:39:18.11	12.36	18.84	
2025-01-12 01:39:18.31	12.35	18.87	
2025-01-12 01:39:18.52	12.34	18.90	
2025-01-12 01:39:18.72	12.33	18.93	
2025-01-12 01:39:18.93	12.32	18.95	
2025-01-12 01:39:19.14	12.31	18.98	
2025-01-12 01:39:19.35	12.30	19.01	
2025-01-12 01:39:19.56	12.29	19.04	
2025-01-12 01:39:19.76	12.28	19.07	
2025-01-12 01:39:19.97	12.28	19.10	
2025-01-12 01:39:20.18	12.27	19.13	
2025-01-12 01:39:20.38	12.26	19.15	
2025-01-12 01:39:20.59	12.25	19.18	
2025-01-12 01:39:20.79	12.24	19.21	
2025-01-12 01:39:21.00	12.23	19.24	
2025-01-12 01:39:21.20	12.22	19.27	
2025-01-12 01:39:21.41	12.21	19.30	
2025-01-12 01:39:21.61	12.20	19.33	
2025-01-12 01:39:21.82	12.19	19.35	
2025-01-12 01:39:22.02	12.19	19.38	
2025-01-12 01:39:22.23	12.18	19.41	
2025-01-12 01:39:22.43	12.17	19.44	
2025-01-12 01:39:22.64	12.16	19.47	
2025-01-12 01:39:22.84	12.15	19.50	
2025-01-12 01:39:23.05	12.14	19.53	
2025-01-12 01:39:23.25	12.13	19.56	
2025-01-12 01:39:23.46	12.12	19.58	
2025-01-12 01:39:23.68	12.11	19.62	
2025-01-12 01:39:23.88	12.10	19.64	
2025-01-12 01:39:24.09	12.09	19.67	
2025-01-12 01:39:24.30	12.08	19.70	
2025-01-12 01:39:24.50	12.07	19.73	
2025-01-12 01:39:24.71	12.06	19.76	
2025-01-12 01:39:24.91	12.06	19.79	
2025-01-12 01:39:25.12	12.05	19.82	
2025-01-12 01:39:25.32	12.04	19.85	
2025-01-12 01:39:25.53	12.03	19.88	
2025-01-12 01:39:25.73	12.02	19.91	
2025-01-12 01:39:25.94	12.01	19.94	
2025-01-12 01:39:26.14	12.00	19.97	
2025-01-12 01:39:26.35	11.99	20.00	
2025-01-12 01:39:26.56	11.98	20.03	
2025-01-12 01:39:26.76	11.97	20.05	
2025-01-12 01:39:26.97	11.96	20.08	
2025-01-12 01:39:27.17	11.95	20.11	
2025-01-12 01:39:27.38	11.94	20.14	
2025-01-12 01:39:27.58	11.93	20.17	
2025-01-12 01:39:27.79	11.92	20.20	
2025-01-12 01:39:27.99	11.91	20.23	
2025-01-12 01:39:28.20	11.90	20.26	
2025-01-12 01:39:28.41	11.89	20.29	
2025-01-12 01:39:28.61	11.88	20.32	
2025-01-12 01:39:28.82	11.87	20.35	
2025-01-12 01:39:29.02	11.86	20.38	
2025-01-12 01:39:29.23	11.85	20.41	
2025-01-12 01:39:29.43	11.84	20.44	
2025-01-12 01:39:29.64	11.83	20.47	
2025-01-12 01:39:29.84	11.82	20.50	
2025-01-12 01:39:30.05	11.81	20.53	
2025-01-12 01:39:30.25	11.80	20.56	
2025-01-12 01:39:30.46	11.79	20.59	
2025-01-12 01:39:30.66	11.78	20.62	
2025-01-12 01:39:30.86	11.77	20.65	
2025-01-12 01:39:31.07	11.76	20.68	
2025-01-12 01:39:31.27	11.75	20.71	
2025-01-12 01:39:31.48	11.74	20.74	
2025-01-12 01:39:31.69	11.73	20.77	
2025-01-12 01:39:31.89	11.72	20.80	
2025-01-12 01:39:32.11	11.71	20.84	
2025-01-12 01:39:32.31	11.70	20.87	
2025-01-12 01:39:32.52	11.69	20.90	
2025-01-12 01:39:32.73	11.68	20.93	
2025-01-12 01:39:32.93	11.67	20.96	
2025-01-12 01:39:33.13	11.66	20.99	
2025-01-12 01:39:33.34	11.65	21.02	
2025-01-12 01:39:33.55	11.64	21.05	
2025-01-12 01:39:33.75	11.63	21.08	
2025-01-12 01:39:33.96	11.62	21.11	
2025-01-12 01:39:34.16	11.61	21.14	
2025-01-12 01:39:34.37	11.60	21.18	
2025-01-12 01:39:34.57	11.59	21.21	
2025-01-12 01:39:34.78	11.58	21.24	
2025-01-12 01:39:34.98	11.57	21.27	
2025-01-12 01:39:35.19	11.56	21.30	
2025-01-12 01:39:35.39	11.55	21.33	
2025-01-12 01:39:35.60	11.54	21.36	
2025-01-12 01:39:35.80	11.53	21.39	
2025-01-12 01:39:36.01	11.52	21.42	
2025-01-12 01:39:36.22	11.51	21.46	
2025-01-12 01:39:36.42	11.49	21.49	
2025-01-12 01:39:36.62	11.48	21.52	
2025-01-12 01:39:36.83	11.47	21.55	
2025-01-12 01:39:37.04	11.46	21.58	
2025-01-12 01:39:37.25	11.45	21.61	
2025-01-12 01:39:37.47	11.44	21.65	
2025-01-12 01:39:37.67	11.43	21.68	
2025-01-12 01:39:37.88	11.42	21.71	
2025-01-12 01:39:38.09	11.41	21.74	
2025-01-12 01:39:38.29	11.40	21.77	
2025-01-12 01:39:38.49	11.39	21.81	
2025-01-12 01:39:38.70	11.38	21.84	
2025-01-12 01:39:38.91	11.36	21.87	
2025-01-12 01:39:39.11	11.35	21.90	
2025-01-12 01:39:39.32	11.34	21.93	
2025-01-12 01:39:39.52	11.33	21.97	
2025-01-12 01:39:39.73	11.32	22.00	
2025-01-12 01:39:39.93	11.31	22.03	
2025-01-12 01:39:40.14	11.30	22.06	
2025-01-12 01:39:40.35	11.29	22.10	
2025-01-12 01:39:40.55	11.28	22.13	
2025-01-12 01:39:40.75	11.27	22.16	
2025-01-12 01:39:40.96	11.25	22.19	
2025-01-12 01:39:41.18	11.24	22.23	
2025-01-12 01:39:41.38	11.23	22.26	
2025-01-12 01:39:41.59	11.22	22.29	
2025-01-12 01:39:41.79	11.21	22.32	
2025-01-12 01:39:42.00	11.20	22.36	
2025-01-12 01:39:42.21	11.19	22.39	
2025-01-12 01:39:42.41	11.17	22.42	
2025-01-12 01:39:42.62	11.16	22.45	
2025-01-12 01:39:42.82	11.15	22.49	
2025-01-12 01:39:43.03	11.14	22.52	
2025-01-12 01:39:43.23	11.13	22.55	
2025-01-12 01:39:43.44	11.12	22.59	
2025-01-12 01:39:43.64	11.11	22.62	
2025-01-12 01:39:43.86	11.09	22.65	
2025-01-12 01:39:44.06	11.08	22.68	
2025-01-12 01:39:44.27	11.07	22.72	
2025-01-12 01:39:44.47	11.06	22.75	
2025-01-12 01:39:44.68	11.05	22.78	
2025-01-12 01:39:44.88	11.04	22.82	
2025-01-12 01:39:45.09	11.02	22.85	
2025-01-12 01:39:45.29	11.01	22.88	
2025-01-12 01:39:45.50	11.00	22.92	
2025-01-12 01:39:45.71	10.99	22.95	
2025-01-12 01:39:45.91	10.98	22.98	
2025-01-12 01:39:46.12	10.96	23.02	
2025-01-12 01:39:46.32	10.95	23.05	
2025-01-12 01:39:46.53	10.94	23.09	
2025-01-12 01:39:46.74	10.93	23.12	
2025-01-12 01:39:46.94	10.92	23.15	
2025-01-12 01:39:47.15	10.90	23.19	
2025-01-12 01:39:47.35	10.89	23.22	
2025-01-12 01:39:47.56	10.88	23.25	
2025-01-12 01:39:47.76	10.87	23.29	
2025-01-12 01:39:47.97	10.86	23.32	
2025-01-12 01:39:48.17	10.84	23.35	
2025-01-12 01:39:48.38	10.83	23.39	
2025-01-12 01:39:48.59	10.82	23.42	
2025-01-12 01:39:48.80	10.81	23.46	
2025-01-12 01:39:49.00	10.79	23.49	
2025-01-12 01:39:49.20	10.78	23.53	
2025-01-12 01:39:49.41	10.77	23.56	
2025-01-12 01:39:49.61	10.76	23.59	
2025-01-12 01:39:49.82	10.75	23.63	
2025-01-12 01:39:50.03	10.73	23.66	
2025-01-12 01:39:50.24	10.72	23.70	
2025-01-12 01:39:50.45	10.71	23.73	
2025-01-12 01:39:50.65	10.69	23.77	
2025-01-12 01:39:50.87	10.68	23.80	
2025-01-12 01:39:51.07	10.67	23.84	
2025-01-12 01:39:51.28	10.66	23.87	
2025-01-12 01:39:51.48	10.64	23.91	
2025-01-12 01:39:51.69	10.63	23.94	
2025-01-12 01:39:51.89	10.62	23.98	
2025-01-12 01:39:52.10	10.61	24.01	
2025-01-12 01:39:52.31	10.59	24.05	
2025-01-12 01:39:52.51	10.58	24.08	
2025-01-12 01:39:52.72	10.57	24.12	
2025-01-12 01:39:52.92	10.55	24.15	
2025-01-12 01:39:53.13	10.54	24.19	
2025-01-12 01:39:53.33	10.53	24.22	
2025-01-12 01:39:53.54	10.52	24.26	
2025-01-12 01:39:53.74	10.50	24.29	
2025-01-12 01:39:53.95	10.49	24.33	
2025-01-12 01:39:54.15	10.48	24.36	
2025-01-12 01:39:54.36	10.46	24.40	
2025-01-12 01:39:54.56	10.45	24.43	
2025-01-12 01:39:54.77	10.44	24.47	
2025-01-12 01:39:54.97	10.42	24.50	
2025-01-12 01:39:55.18	10.41	24.54	
2025-01-12 01:39:55.38	10.40	24.58	
2025-01-12 01:39:55.59	10.38	24.61	
2025-01-12 01:39:55.79	10.37	24.65	
2025-01-12 01:39:56.00	10.36	24.68	
2025-01-12 01:39:56.21	10.34	24.72	
2025-01-12 01:39:56.41	10.33	24.75	
2025-01-12 01:39:56.62	10.32	24.79	
2025-01-12 01:39:56.82	10.30	24.83	
2025-01-12 01:39:57.03	10.29	24.86	
2025-01-12 01:39:57.23	10.28	24.90	
2025-01-12 01:39:57.44	10.26	24.94	
2025-01-12 01:39:57.64	10.25	24.97	
2025-01-12 01:39:57.85	10.24	25.01	
2025-01-12 01:39:58.05	10.22	25.04	
2025-01-12 01:39:58.26	10.21	25.08	
2025-01-12 01:39:58.46	10.20	25.12	
2025-01-12 01:39:58.67	10.18	25.15	
2025-01-12 01:39:58.89	10.17	25.19	
2025-01-12 01:39:59.09	10.15	25.23	
2025-01-12 01:39:59.30	10.14	25.26	
2025-01-12 01:39:59.50	10.13	25.30	
2025-01-12 01:39:59.71	10.11	25.34	
2025-01-12 01:39:59.93	10.10	25.38	
2025-01-12 01:40:00.13	10.08	25.41	
2025-01-12 01:40:00.34	10.07	25.45	
2025-01-12 01:40:00.54	10.05	25.49	
2025-01-12 01:40:00.75	10.04	25.52	
2025-01-12 01:40:00.95	10.03	25.56	
2025-01-12 01:40:01.16	10.01	25.60	
2025-01-12 01:40:01.36	10.00	25.63	
2025-01-12 01:40:01.57	9.98	25.67	
2025-01-12 01:40:01.78	9.97	25.71	
2025-01-12 01:40:01.98	9.95	25.75	
2025-01-12 01:40:02.18	9.94	25.78	
2025-01-12 01:40:02.39	9.93	25.82	
2025-01-12 01:40:02.59	9.91	25.86	
2025-01-12 01:40:02.80	9.90	25.90	
2025-01-12 01:40:03.00	9.88	25.93	
2025-01-12 01:40:03.21	9.87	25.97	
2025-01-12 01:40:03.42	9.85	26.01	
2025-01-12 01:40:03.63	9.84	26.05	
2025-01-12 01:40:03.84	9.82	26.09	
2025-01-12 01:40:04.04	9.81	26.12	
2025-01-12 01:40:04.25	9.79	26.16	
2025-01-12 01:40:04.45	9.78	26.20	
2025-01-12 01:40:04.66	9.76	26.24	
2025-01-12 01:40:04.87	9.75	26.28	
2025-01-12 01:40:05.07	9.73	26.32	
2025-01-12 01:40:05.27	9.72	26.35	
2025-01-12 01:40:05.48	9.70	26.39	
2025-01-12 01:40:05.69	9.69	26.43	
2025-01-12 01:40:05.89	9.67	26.47	
2025-01-12 01:40:06.10	9.66	26.51	
2025-01-12 01:40:06.32	9.64	26.55	
2025-01-12 01:40:06.52	9.63	26.59	
2025-01-12 01:40:06.73	9.61	26.63	
2025-01-12 01:40:06.93	9.60	26.66	
2025-01-12 01:40:07.14	9.58	26.70	
2025-01-12 01:40:07.34	9.57	26.74	
2025-01-12 01:40:07.55	9.55	26.78	
2025-01-12 01:40:07.76	9.53	26.82	
2025-01-12 01:40:07.96	9.52	26.86	
2025-01-12 01:40:08.17	9.50	26.90	
2025-01-12 01:40:08.37	9.49	26.94	
2025-01-12 01:40:08.58	9.47	26.98	
2025-01-12 01:40:08.78	9.46	27.01	
2025-01-12 01:40:08.99	9.44	27.05	
2025-01-12 01:40:09.19	9.43	27.09	
2025-01-12 01:40:09.40	9.41	27.13	
2025-01-12 01:40:09.60	9.39	27.17	
2025-01-12 01:40:09.81	9.38	27.21	
2025-01-12 01:40:10.02	9.36	27.25	
2025-01-12 01:40:10.22	9.35	27.29	
2025-01-12 01:40:10.43	9.33	27.33	
2025-01-12 01:40:10.63	9.31	27.37	
2025-01-12 01:40:10.84	9.30	27.41	
2025-01-12 01:40:11.04	9.28	27.45	
2025-01-12 01:40:11.25	9.26	27.49	
2025-01-12 01:40:11.45	9.25	27.53	
2025-01-12 01:40:11.66	9.23	27.57	
2025-01-12 01:40:11.86	9.22	27.61	
2025-01-12 01:40:12.07	9.20	27.65	
2025-01-12 01:40:12.28	9.18	27.69	
2025-01-12 01:40:12.48	9.17	27.73	
2025-01-12 01:40:12.69	9.15	27.77	
2025-01-12 01:40:12.89	9.13	27.81	
2025-01-12 01:40:13.10	9.12	27.85	
2025-01-12 01:40:13.30	9.10	27.89	
2025-01-12 01:40:13.51	9.08	27.93	
2025-01-12 01:40:13.72	9.07	27.97	
2025-01-12 01:40:13.92	9.05	28.01	
2025-01-12 01:40:14.13	9.03	28.06	
2025-01-12 01:40:14.33	9.02	28.09	
2025-01-12 01:40:14.54	9.00	28.14	
2025-01-12 01:40:14.74	8.98	28.18	
2025-01-12 01:40:14.95	8.97	28.22	
2025-01-12 01:40:15.15	8.95	28.26	
2025-01-12 01:40:15.36	8.93	28.30	
2025-01-12 01:40:15.56	8.91	28.34	
2025-01-12 01:40:15.77	8.90	28.38	
2025-01-12 01:40:15.99	8.88	28.43	
2025-01-12 01:40:16.19	8.86	28.47	
2025-01-12 01:40:16.40	8.84	28.51	
2025-01-12 01:40:16.60	8.83	28.55	
2025-01-12 01:40:16.81	8.81	28.59	
2025-01-12 01:40:17.01	8.79	28.63	
2025-01-12 01:40:17.22	8.77	28.68	
2025-01-12 01:40:17.42	8.76	28.72	
2025-01-12 01:40:17.63	8.74	28.76	
2025-01-12 01:40:17.84	8.72	28.80	
2025-01-12 01:40:18.04	8.70	28.84	
2025-01-12 01:40:18.25	8.69	28.89	
2025-01-12 01:40:18.45	8.67	28.93	
2025-01-12 01:40:18.66	8.65	28.97	
2025-01-12 01:40:18.86	8.63	29.01	
2025-01-12 01:40:19.07	8.61	29.05	
2025-01-12 01:40:19.28	8.60	29.10	
2025-01-12 01:40:19.48	8.58	29.14	
2025-01-12 01:40:19.69	8.56	29.18	
2025-01-12 01:40:19.90	8.54	29.23	
2025-01-12 01:40:20.10	8.52	29.27	
2025-01-12 01:40:20.30	8.51	29.31	
2025-01-12 01:40:20.51	8.49	29.35	
2025-01-12 01:40:20.71	8.47	29.39	
2025-01-12 01:40:20.92	8.45	29.44	
2025-01-12 01:40:21.13	8.43	29.48	
2025-01-12 01:40:21.33	8.41	29.52	
2025-01-12 01:40:21.54	8.39	29.57	
2025-01-12 01:40:21.74	8.38	29.61	
2025-01-12 01:40:21.95	8.36	29.65	
2025-01-12 01:40:22.15	8.34	29.70	
2025-01-12 01:40:22.35	8.32	29.74	
2025-01-12 01:40:22.56	8.30	29.78	
2025-01-12 01:40:22.77	8.28	29.83	
2025-01-12 01:40:22.97	8.26	29.87	
2025-01-12 01:40:23.18	8.24	29.91	
2025-01-12 01:40:23.38	8.22	29.96	
2025-01-12 01:40:23.59	8.20	30.00	
2025-01-12 01:40:23.79	8.19	30.04	
2025-01-12 01:40:24.00	8.17	30.09	
2025-01-12 01:40:24.21	8.15	30.13	
2025-01-12 01:40:24.41	8.13	30.18	
2025-01-12 01:40:24.62	8.11	30.22	
2025-01-12 01:40:24.82	8.09	30.26	
2025-01-12 01:40:25.03	8.07	30.31	
2025-01-12 01:40:25.23	8.05	30.35	
2025-01-12 01:40:25.44	8.03	30.40	
2025-01-12 01:40:25.64	8.01	30.44	
2025-01-12 01:40:25.85	7.99	30.49	
2025-01-12 01:40:26.05	7.97	30.53	
2025-01-12 01:40:26.26	7.95	30.58	
2025-01-12 01:40:26.46	7.93	30.62	
2025-01-12 01:40:26.67	7.91	30.66	
2025-01-12 01:40:26.87	7.89	30.71	
2025-01-12 01:40:27.08	7.87	30.75	
2025-01-12 01:40:27.28	7.85	30.80	
2025-01-12 01:40:27.49	7.83	30.84	
2025-01-12 01:40:27.69	7.81	30.89	
2025-01-12 01:40:27.90	7.79	30.93	
2025-01-12 01:40:28.11	7.77	30.98	
2025-01-12 01:40:28.31	7.75	31.02	
2025-01-12 01:40:28.52	7.73	31.07	
2025-01-12 01:40:28.72	7.71	31.12	
2025-01-12 01:40:28.92	7.69	31.16	
2025-01-12 01:40:29.13	7.67	31.21	
2025-01-12 01:40:29.34	7.64	31.25	
2025-01-12 01:40:29.54	7.62	31.30	
2025-01-12 01:40:29.75	7.60	31.34	
2025-01-12 01:40:29.95	7.58	31.39	
2025-01-12 01:40:30.15	7.56	31.43	
2025-01-12 01:40:30.36	7.54	31.48	
2025-01-12 01:40:30.56	7.52	31.53	
2025-01-12 01:40:30.77	7.50	31.57	
2025-01-12 01:40:30.97	7.48	31.62	
2025-01-12 01:40:31.18	7.46	31.67	
2025-01-12 01:40:31.38	7.43	31.71	
2025-01-12 01:40:31.59	7.41	31.76	
2025-01-12 01:40:31.80	7.39	31.81	
2025-01-12 01:40:32.00	7.37	31.85	
2025-01-12 01:40:32.21	7.35	31.90	
2025-01-12 01:40:32.41	7.33	31.94	
2025-01-12 01:40:32.61	7.30	31.99	
2025-01-12 01:40:32.82	7.28	32.04	
2025-01-12 01:40:33.03	7.26	32.09	
2025-01-12 01:40:33.23	7.24	32.13	
2025-01-12 01:40:33.44	7.22	32.18	
2025-01-12 01:40:33.64	7.19	32.23	
2025-01-12 01:40:33.85	7.17	32.27	
2025-01-12 01:40:34.05	7.15	32.32	
2025-01-12 01:40:34.25	7.13	32.37	
2025-01-12 01:40:34.46	7.10	32.42	
2025-01-12 01:40:34.67	7.08	32.46	
2025-01-12 01:40:34.87	7.06	32.51	
2025-01-12 01:40:35.08	7.04	32.56	
2025-01-12 01:40:35.28	7.01	32.61	
2025-01-12 01:40:35.49	6.99	32.66	
2025-01-12 01:40:35.69	6.97	32.70	
2025-01-12 01:40:35.90	6.94	32.75	
2025-01-12 01:40:36.10	6.92	32.80	
2025-01-12 01:40:36.31	6.90	32.85	
2025-01-12 01:40:36.51	6.88	32.89	
2025-01-12 01:40:36.72	6.85	32.94	
2025-01-12 01:40:36.92	6.83	32.99	
2025-01-12 01:40:37.13	6.81	33.04	
2025-01-12 01:40:37.33	6.78	33.09	
2025-01-12 01:40:37.54	6.76	33.14	
2025-01-12 01:40:37.75	6.73	33.19	
2025-01-12 01:40:37.95	6.71	33.24	
2025-01-12 01:40:38.16	6.69	33.29	
2025-01-12 01:40:38.36	6.66	33.33	
2025-01-12 01:40:38.57	6.64	33.38	
2025-01-12 01:40:38.77	6.62	33.43	
2025-01-12 01:40:38.98	6.59	33.48	
2025-01-12 01:40:39.18	6.57	33.53	
2025-01-12 01:40:39.39	6.54	33.58	
2025-01-12 01:40:39.59	6.52	33.63	
2025-01-12 01:40:39.80	6.49	33.68	
2025-01-12 01:40:40.01	6.47	33.73	
2025-01-12 01:40:40.21	6.45	33.78	
2025-01-12 01:40:40.42	6.42	33.83	
2025-01-12 01:40:40.62	6.40	33.88	
2025-01-12 01:40:40.82	6.37	33.93	
2025-01-12 01:40:41.03	6.35	33.98	
2025-01-12 01:40:41.24	6.32	34.03	
2025-01-12 01:40:41.44	6.30	34.08	
2025-01-12 01:40:41.65	6.27	34.13	
2025-01-12 01:40:41.85	6.25	34.18	
2025-01-12 01:40:42.06	6.22	34.23	
2025-01-12 01:40:42.26	6.20	34.28	
2025-01-12 01:40:42.47	6.17	34.33	
2025-01-12 01:40:42.67	6.15	34.38	
2025-01-12 01:40:42.88	6.12	34.43	
2025-01-12 01:40:43.08	6.09	34.48	
2025-01-12 01:40:43.29	6.07	34.53	
2025-01-12 01:40:43.50	6.04	34.58	
2025-01-12 01:40:43.70	6.02	34.63	
2025-01-12 01:40:43.91	5.99	34.69	
2025-01-12 01:40:44.11	5.96	34.74	
2025-01-12 01:40:44.32	5.94	34.79	
2025-01-12 01:40:44.53	5.91	34.84	
2025-01-12 01:40:44.73	5.88	34.89	
2025-01-12 01:40:44.93	5.86	34.94	
2025-01-12 01:40:45.14	5.83	35.00	
2025-01-12 01:40:45.34	5.81	35.05	
2025-01-12 01:40:45.55	5.78	35.10	
2025-01-12 01:40:45.75	5.75	35.15	
2025-01-12 01:40:45.96	5.72	35.20	
2025-01-12 01:40:46.17	5.70	35.26	
2025-01-12 01:40:46.37	5.67	35.31	
2025-01-12 01:40:46.58	5.64	35.36	
2025-01-12 01:40:46.78	5.62	35.41	
2025-01-12 01:40:46.99	5.59	35.46	
2025-01-12 01:40:47.19	5.56	35.52	
2025-01-12 01:40:47.40	5.53	35.57	
2025-01-12 01:40:47.60	5.51	35.62	
2025-01-12 01:40:47.81	5.48	35.67	
2025-01-12 01:40:48.02	5.45	35.73	
2025-01-12 01:40:48.22	5.42	35.78	
2025-01-12 01:40:48.43	5.39	35.83	
2025-01-12 01:40:48.63	5.37	35.89	
2025-01-12 01:40:48.84	5.34	35.94	
2025-01-12 01:40:49.06	5.31	36.00	
2025-01-12 01:40:49.26	5.28	36.05	
2025-01-12 01:40:49.47	5.25	36.10	
2025-01-12 01:40:49.67	5.22	36.16	
2025-01-12 01:40:49.88	5.19	36.21	
2025-01-12 01:40:50.08	5.16	36.26	
2025-01-12 01:40:50.29	5.13	36.32	
2025-01-12 01:40:50.50	5.11	36.37	
2025-01-12 01:40:50.70	5.08	36.43	
2025-01-12 01:40:50.91	5.05	36.48	
2025-01-12 01:40:51.11	5.02	36.53	
2025-01-12 01:40:51.32	4.99	36.59	
2025-01-12 01:40:51.53	4.96	36.64	
2025-01-12 01:40:51.73	4.93	36.70	
2025-01-12 01:40:51.94	4.90	36.75	
2025-01-12 01:40:52.14	4.87	36.81	
2025-01-12 01:40:52.34	4.84	36.86	
2025-01-12 01:40:52.55	4.81	36.92	
2025-01-12 01:40:52.76	4.78	36.97	
2025-01-12 01:40:52.96	4.75	37.03	
2025-01-12 01:40:53.17	4.72	37.08	
2025-01-12 01:40:53.37	4.69	37.14	
2025-01-12 01:40:53.58	4.66	37.19	
2025-01-12 01:40:53.78	4.63	37.25	
2025-01-12 01:40:53.99	4.60	37.30	
2025-01-12 01:40:54.19	4.57	37.36	
2025-01-12 01:40:54.40	4.53	37.41	
2025-01-12 01:40:54.60	4.50	37.47	
2025-01-12 01:40:54.81	4.47	37.52	
2025-01-12 01:40:55.01	4.44	37.58	
2025-01-12 01:40:55.22	4.41	37.64	
2025-01-12 01:40:55.42	4.38	37.69	
2025-01-12 01:40:55.63	4.35	37.75	
2025-01-12 01:40:55.83	4.31	37.80	
2025-01-12 01:40:56.04	4.28	37.86	
2025-01-12 01:40:56.24	4.25	37.91	
2025-01-12 01:40:56.46	4.22	37.97	
2025-01-12 01:40:56.66	4.19	38.03	
2025-01-12 01:40:56.87	4.15	38.09	
2025-01-12 01:40:57.07	4.12	38.14	
2025-01-12 01:40:57.28	4.09	38.20	
2025-01-12 01:40:57.49	4.05	38.26	
2025-01-12 01:40:57.69	4.02	38.31	
2025-01-12 01:40:57.90	3.99	38.37	
2025-01-12 01:40:58.10	3.96	38.43	
2025-01-12 01:40:58.31	3.92	38.49	
2025-01-12 01:40:58.51	3.89	38.54	
2025-01-12 01:40:58.73	3.85	38.60	
2025-01-12 01:40:58.93	3.82	38.66	
2025-01-12 01:40:59.14	3.79	38.72	
2025-01-12 01:40:59.35	3.75	38.78	
2025-01-12 01:40:59.55	3.72	38.84	
2025-01-12 01:40:59.75	3.68	38.89	
2025-01-12 01:40:59.96	3.65	38.95	
2025-01-12 01:41:00.16	3.62	39.01	
2025-01-12 01:41:00.37	3.58	39.07	
2025-01-12 01:41:00.57	3.55	39.12	
2025-01-12 01:41:00.78	3.51	39.18	
2025-01-12 01:41:00.98	3.48	39.24	
2025-01-12 01:41:01.19	3.44	39.30	
2025-01-12 01:41:01.39	3.41	39.36	
2025-01-12 01:41:01.60	3.37	39.42	
2025-01-12 01:41:01.80	3.34	39.47	
2025-01-12 01:41:02.01	3.30	39.53	
2025-01-12 01:41:02.21	3.27	39.59	
2025-01-12 01:41:02.42	3.23	39.65	
2025-01-12 01:41:02.62	3.19	39.71	
2025-01-12 01:41:02.83	3.16	39.77	
2025-01-12 01:41:03.03	3.12	39.83	
2025-01-12 01:41:03.24	3.08	39.89	
2025-01-12 01:41:03.45	3.05	39.95	
2025-01-12 01:41:03.65	3.01	40.01	
2025-01-12 01:41:03.86	2.97	40.07	
2025-01-12 01:41:04.06	2.94	40.13	
2025-01-12 01:41:04.27	2.90	40.19	
2025-01-12 01:41:04.47	2.86	40.25	
2025-01-12 01:41:04.68	2.83	40.31	
2025-01-12 01:41:04.88	2.79	40.37	
2025-01-12 01:41:05.09	2.75	40.43	
2025-01-12 01:41:05.29	2.71	40.49	
2025-01-12 01:41:05.50	2.68	40.55	
2025-01-12 01:41:05.70	2.64	40.61	
2025-01-12 01:41:05.91	2.60	40.67	
2025-01-12 01:41:06.11	2.56	40.73	
2025-01-12 01:41:06.32	2.52	40.79	
2025-01-12 01:41:06.52	2.48	40.85	
2025-01-12 01:41:06.73	2.44	40.91	
2025-01-12 01:41:06.93	2.41	40.97	
2025-01-12 01:41:07.14	2.37	41.04	
2025-01-12 01:41:07.34	2.33	41.10	
2025-01-12 01:41:07.55	2.29	41.16	
2025-01-12 01:41:07.76	2.25	41.22	
2025-01-12 01:41:07.96	2.21	41.28	
2025-01-12 01:41:08.17	2.17	41.35	
2025-01-12 01:41:08.37	2.13	41.41	
2025-01-12 01:41:08.58	2.09	41.47	
2025-01-12 01:41:08.78	2.05	41.53	
2025-01-12 01:41:08.99	2.01	41.59	
2025-01-12 01:41:09.19	1.97	41.65	
2025-01-12 01:41:09.39	1.93	41.71	
2025-01-12 01:41:09.60	1.89	41.78	
2025-01-12 01:41:09.80	1.85	41.84	
2025-01-12 01:41:10.01	1.80	41.90	
2025-01-12 01:41:10.22	1.76	41.97	
2025-01-12 01:41:10.42	1.72	42.03	
2025-01-12 01:41:10.63	1.68	42.09	
2025-01-12 01:41:10.83	1.64	42.15	
2025-01-12 01:41:11.04	1.59	42.22	
2025-01-12 01:41:11.24	1.55	42.28	
2025-01-12 01:41:11.45	1.51	42.34	
2025-01-12 01:41:11.65	1.47	42.41	
2025-01-12 01:41:11.86	1.42	42.47	
2025-01-12 01:41:12.07	1.38	42.54	
2025-01-12 01:41:12.27	1.34	42.60	
2025-01-12 01:41:12.48	1.29	42.66	
2025-01-12 01:41:12.68	1.25	42.72	
2025-01-12 01:41:12.89	1.21	42.79	
2025-01-12 01:41:13.09	1.16	42.85	
2025-01-12 01:41:13.30	1.12	42.92	
2025-01-12 01:41:13.50	1.07	42.98	
2025-01-12 01:41:13.71	1.03	43.05	
2025-01-12 01:41:13.91	0.98	43.11	
2025-01-12 01:41:14.12	0.94	43.18	
2025-01-12 01:41:14.33	0.89	43.24	
2025-01-12 01:41:14.54	0.85	43.31	
2025-01-12 01:41:14.75	0.80	43.37	
2025-01-12 01:41:14.95	0.76	43.44	
2025-01-12 01:41:15.16	0.71	43.50	
2025-01-12 01:41:15.36	0.66	43.57	
2025-01-12 01:41:15.57	0.62	43.63	
2025-01-12 01:41:15.77	0.57	43.70	
2025-01-12 01:41:15.98	0.52	43.76	
2025-01-12 01:41:16.18	0.48	43.83	
2025-01-12 01:41:16.39	0.43	43.89	
2025-01-12 01:41:16.59	0.38	43.96	
2025-01-12 01:41:16.80	0.34	44.03	
2025-01-12 01:41:17.00	0.29	44.09	
2025-01-12 01:41:17.21	0.24	44.16	
2025-01-12 01:41:17.41	0.19	44.22	
2025-01-12 01:41:17.62	0.14	44.29	
2025-01-12 01:41:17.82	0.10	44.35	
2025-01-12 01:41:18.03	0.05	44.42	
2025-01-12 01:41:18.23	360.00	44.49	
2025-01-12 01:41:18.44	359.95	44.55	
2025-01-12 01:41:18.64	359.90	44.62	
2025-01-12 01:41:18.85	359.85	44.69	
2025-01-12 01:41:19.05	359.80	44.75	
2025-01-12 01:41:19.26	359.75	44.82	
2025-01-12 01:41:19.46	359.70	44.89	
2025-01-12 01:41:19.67	359.65	44.95	
2025-01-12 01:41:19.88	359.60	45.02	
2025-01-12 01:41:20.08	359.55	45.09	
2025-01-12 01:41:20.29	359.50	45.16	
2025-01-12 01:41:20.49	359.45	45.22	
2025-01-12 01:41:20.70	359.40	45.29	
2025-01-12 01:41:20.90	359.34	45.36	
2025-01-12 01:41:21.12	359.29	45.43	
2025-01-12 01:41:21.33	359.24	45.50	
2025-01-12 01:41:21.53	359.18	45.57	
2025-01-12 01:41:21.74	359.13	45.64	
2025-01-12 01:41:21.94	359.08	45.70	
2025-01-12 01:41:22.15	359.03	45.77	
2025-01-12 01:41:22.35	358.97	45.84	
2025-01-12 01:41:22.56	358.92	45.91	
2025-01-12 01:41:22.76	358.87	45.97	
2025-01-12 01:41:22.97	358.81	46.04	
2025-01-12 01:41:23.17	358.76	46.11	
2025-01-12 01:41:23.38	358.70	46.18	
2025-01-12 01:41:23.59	358.65	46.25	
2025-01-12 01:41:23.79	358.59	46.32	
2025-01-12 01:41:24.00	358.54	46.39	
2025-01-12 01:41:24.20	358.48	46.46	
2025-01-12 01:41:24.41	358.42	46.53	
2025-01-12 01:41:24.61	358.37	46.60	
2025-01-12 01:41:24.82	358.31	46.67	
2025-01-12 01:41:25.02	358.26	46.73	
2025-01-12 01:41:25.23	358.20	46.81	
2025-01-12 01:41:25.43	358.14	46.87	
2025-01-12 01:41:25.64	358.09	46.94	
2025-01-12 01:41:25.84	358.03	47.01	
2025-01-12 01:41:26.05	357.97	47.08	
2025-01-12 01:41:26.26	357.91	47.16	
2025-01-12 01:41:26.46	357.85	47.22	
2025-01-12 01:41:26.66	357.80	47.29	
2025-01-12 01:41:26.87	357.74	47.36	
2025-01-12 01:41:27.08	357.68	47.44	
2025-01-12 01:41:27.28	357.62	47.51	
2025-01-12 01:41:27.50	357.55	47.58	
2025-01-12 01:41:27.71	357.49	47.65	
2025-01-12 01:41:27.91	357.43	47.72	
2025-01-12 01:41:28.12	357.37	47.79	
2025-01-12 01:41:28.33	357.31	47.87	
2025-01-12 01:41:28.53	357.25	47.94	
2025-01-12 01:41:28.73	357.19	48.01	
2025-01-12 01:41:28.94	357.13	48.08	
2025-01-12 01:41:29.15	357.06	48.15	
2025-01-12 01:41:29.35	357.00	48.22	
2025-01-12 01:41:29.56	356.94	48.29	
2025-01-12 01:41:29.76	356.88	48.36	
2025-01-12 01:41:29.96	356.82	48.43	
2025-01-12 01:41:30.17	356.75	48.51	
2025-01-12 01:41:30.38	356.69	48.58	
2025-01-12 01:41:30.58	356.62	48.65	
2025-01-12 01:41:30.79	356.56	48.72	
2025-01-12 01:41:30.99	356.49	48.79	
2025-01-12 01:41:31.20	356.43	48.87	
2025-01-12 01:41:31.41	356.36	48.94	
2025-01-12 01:41:31.61	356.30	49.01	
2025-01-12 01:41:31.83	356.23	49.09	
2025-01-12 01:41:32.03	356.16	49.16	
2025-01-12 01:41:32.24	356.09	49.23	
2025-01-12 01:41:32.45	356.02	49.31	
2025-01-12 01:41:32.65	355.96	49.38	
2025-01-12 01:41:32.86	355.89	49.45	
2025-01-12 01:41:33.06	355.82	49.52	
2025-01-12 01:41:33.27	355.75	49.60	
2025-01-12 01:41:33.47	355.69	49.67	
2025-01-12 01:41:33.68	355.62	49.74	
2025-01-12 01:41:33.88	355.55	49.82	
2025-01-12 01:41:34.08	355.48	49.89	
2025-01-12 01:41:34.29	355.41	49.96	
2025-01-12 01:41:34.50	355.34	50.04	
2025-01-12 01:41:34.70	355.27	50.11	
2025-01-12 01:41:34.91	355.20	50.18	
2025-01-12 01:41:35.11	355.13	50.26	
2025-01-12 01:41:35.32	355.05	50.33	
2025-01-12 01:41:35.52	354.98	50.40	
2025-01-12 01:41:35.73	354.91	50.48	
2025-01-12 01:41:35.93	354.84	50.55	
2025-01-12 01:41:36.14	354.76	50.63	
2025-01-12 01:41:36.34	354.69	50.70	
2025-01-12 01:41:36.55	354.62	50.77	
2025-01-12 01:41:36.75	354.54	50.85	
2025-01-12 01:41:36.96	354.47	50.92	
2025-01-12 01:41:37.16	354.39	51.00	
2025-01-12 01:41:37.37	354.32	51.07	
2025-01-12 01:41:37.58	354.24	51.15	
2025-01-12 01:41:37.78	354.16	51.22	
2025-01-12 01:41:37.99	354.09	51.30	
2025-01-12 01:41:38.19	354.01	51.37	
2025-01-12 01:41:38.40	353.93	51.45	
2025-01-12 01:41:38.60	353.86	51.52	
2025-01-12 01:41:38.81	353.78	51.60	
2025-01-12 01:41:39.02	353.70	51.67	
2025-01-12 01:41:39.22	353.62	51.75	
2025-01-12 01:41:39.43	353.54	51.82	
2025-01-12 01:41:39.63	353.46	51.90	
2025-01-12 01:41:39.84	353.38	51.97	
2025-01-12 01:41:40.04	353.30	52.05	
2025-01-12 01:41:40.25	353.22	52.12	
2025-01-12 01:41:40.45	353.14	52.20	
2025-01-12 01:41:40.65	353.06	52.27	
2025-01-12 01:41:40.86	352.97	52.35	
2025-01-12 01:41:41.07	352.89	52.42	
2025-01-12 01:41:41.27	352.81	52.50	
2025-01-12 01:41:41.48	352.72	52.58	
2025-01-12 01:41:41.68	352.64	52.65	
2025-01-12 01:41:41.89	352.55	52.73	
2025-01-12 01:41:42.09	352.47	52.80	
2025-01-12 01:41:42.30	352.38	52.88	
2025-01-12 01:41:42.52	352.29	52.96	
2025-01-12 01:41:42.72	352.21	53.03	
2025-01-12 01:41:42.93	352.12	53.11	
2025-01-12 01:41:43.14	352.03	53.19	
2025-01-12 01:41:43.34	351.94	53.27	
2025-01-12 01:41:43.54	351.86	53.34	
2025-01-12 01:41:43.75	351.77	53.42	
2025-01-12 01:41:43.95	351.68	53.49	
2025-01-12 01:41:44.16	351.59	53.57	
2025-01-12 01:41:44.37	351.50	53.65	
2025-01-12 01:41:44.57	351.41	53.72	
2025-01-12 01:41:44.78	351.31	53.80	
2025-01-12 01:41:44.98	351.23	53.88	
2025-01-12 01:41:45.19	351.13	53.95	
2025-01-12 01:41:45.39	351.04	54.03	
2025-01-12 01:41:45.60	350.95	54.11	
2025-01-12 01:41:45.80	350.86	54.18	
2025-01-12 01:41:46.01	350.76	54.26	
2025-01-12 01:41:46.21	350.67	54.34	
2025-01-12 01:41:46.42	350.57	54.42	
2025-01-12 01:41:46.62	350.48	54.49	
2025-01-12 01:41:46.83	350.38	54.57	
2025-01-12 01:41:47.03	350.28	54.64	
2025-01-12 01:41:47.24	350.18	54.72	
2025-01-12 01:41:47.45	350.08	54.80	
2025-01-12 01:41:47.65	349.99	54.88	
2025-01-12 01:41:47.85	349.89	54.95	
2025-01-12 01:41:48.06	349.79	55.03	
2025-01-12 01:41:48.27	349.69	55.11	
2025-01-12 01:41:48.47	349.59	55.19	
2025-01-12 01:41:48.68	349.49	55.26	
2025-01-12 01:41:48.89	349.38	55.34	
2025-01-12 01:41:49.09	349.28	55.42	
2025-01-12 01:41:49.30	349.18	55.50	
2025-01-12 01:41:49.50	349.08	55.57	
2025-01-12 01:41:49.71	348.97	55.65	
2025-01-12 01:41:49.91	348.87	55.73	
2025-01-12 01:41:50.12	348.76	55.81	
2025-01-12 01:41:50.32	348.66	55.88	
2025-01-12 01:41:50.53	348.55	55.96	
2025-01-12 01:41:50.74	348.44	56.04	
2025-01-12 01:41:50.94	348.34	56.12	
2025-01-12 01:41:51.15	348.23	56.20	
2025-01-12 01:41:51.35	348.12	56.27	
2025-01-12 01:41:51.56	348.01	56.35	
2025-01-12 01:41:51.77	347.90	56.43	
2025-01-12 01:41:51.97	347.79	56.51	
2025-01-12 01:41:52.18	347.67	56.59	
2025-01-12 01:41:52.38	347.57	56.66	
2025-01-12 01:41:52.59	347.45	56.74	
2025-01-12 01:41:52.79	347.34	56.82	
2025-01-12 01:41:53.00	347.22	56.90	
2025-01-12 01:41:53.20	347.11	56.97	
2025-01-12 01:41:53.41	346.99	57.05	
2025-01-12 01:41:53.61	346.88	57.13	
2025-01-12 01:41:53.82	346.76	57.21	
2025-01-12 01:41:54.02	346.65	57.28	
2025-01-12 01:41:54.23	346.53	57.36	
2025-01-12 01:41:54.43	346.41	57.44	
2025-01-12 01:41:54.64	346.29	57.52	
2025-01-12 01:41:54.84	346.17	57.59	
2025-01-12 01:41:55.05	346.05	57.67	
2025-01-12 01:41:55.25	345.93	57.75	
2025-01-12 01:41:55.46	345.81	57.83	
2025-01-12 01:41:55.67	345.68	57.91	
2025-01-12 01:41:55.87	345.56	57.98	
2025-01-12 01:41:56.08	345.43	58.06	
2025-01-12 01:41:56.28	345.31	58.14	
2025-01-12 01:41:56.49	345.18	58.22	
2025-01-12 01:41:56.69	345.06	58.29	
2025-01-12 01:41:56.90	344.93	58.37	
2025-01-12 01:41:57.10	344.81	58.45	
2025-01-12 01:41:57.31	344.68	58.53	
2025-01-12 01:41:57.52	344.54	58.60	
2025-01-12 01:41:57.73	344.41	58.68	
2025-01-12 01:41:57.93	344.28	58.76	
2025-01-12 01:41:58.13	344.15	58.83	
2025-01-12 01:41:58.34	344.02	58.91	
2025-01-12 01:41:58.55	343.88	58.99	
2025-01-12 01:41:58.76	343.75	59.07	
2025-01-12 01:41:58.97	343.61	59.15	
2025-01-12 01:41:59.17	343.48	59.23	
2025-01-12 01:41:59.37	343.34	59.30	
2025-01-12 01:41:59.58	343.20	59.38	
2025-01-12 01:41:59.78	343.07	59.45	
2025-01-12 01:41:59.99	342.93	59.53	
2025-01-12 01:42:00.19	342.79	59.61	
2025-01-12 01:42:00.41	342.64	59.69	
2025-01-12 01:42:00.61	342.50	59.76	
2025-01-12 01:42:00.82	342.36	59.84	
2025-01-12 01:42:01.03	342.21	59.92	
2025-01-12 01:42:01.24	342.06	60.00	
2025-01-12 01:42:01.45	341.91	60.08	
2025-01-12 01:42:01.65	341.77	60.15	
2025-01-12 01:42:01.86	341.62	60.23	
2025-01-12 01:42:02.06	341.48	60.30	
2025-01-12 01:42:02.27	341.33	60.38	
2025-01-12 01:42:02.47	341.18	60.46	
2025-01-12 01:42:02.67	341.03	60.53	
2025-01-12 01:42:02.88	340.88	60.61	
2025-01-12 01:42:03.09	340.72	60.69	
2025-01-12 01:42:03.29	340.57	60.76	
2025-01-12 01:42:03.49	340.42	60.83	
2025-01-12 01:42:03.70	340.27	60.91	
2025-01-12 01:42:03.90	340.11	60.98	
2025-01-12 01:42:04.11	339.95	61.06	
2025-01-12 01:42:04.31	339.80	61.13	
2025-01-12 01:42:04.52	339.64	61.21	
2025-01-12 01:42:04.72	339.48	61.28	
2025-01-12 01:42:04.93	339.32	61.36	
2025-01-12 01:42:05.13	339.16	61.43	
2025-01-12 01:42:05.34	338.99	61.51	
2025-01-12 01:42:05.54	338.83	61.58	
2025-01-12 01:42:05.74	338.67	61.66	
2025-01-12 01:42:05.95	338.50	61.73	
2025-01-12 01:42:06.15	338.34	61.80	
2025-01-12 01:42:06.36	338.17	61.88	
2025-01-12 01:42:06.57	338.00	61.96	
2025-01-12 01:42:06.77	337.83	62.03	
2025-01-12 01:42:06.97	337.67	62.10	
2025-01-12 01:42:07.18	337.49	62.18	
2025-01-12 01:42:07.39	337.32	62.25	
2025-01-12 01:42:07.59	337.15	62.32	
2025-01-12 01:42:07.80	336.97	62.40	
2025-01-12 01:42:08.00	336.80	62.47	
2025-01-12 01:42:08.20	336.62	62.54	
2025-01-12 01:42:08.41	336.44	62.61	
2025-01-12 01:42:08.61	336.27	62.68	
2025-01-12 01:42:08.82	336.08	62.76	
2025-01-12 01:42:09.02	335.91	62.83	
2025-01-12 01:42:09.23	335.72	62.90	
2025-01-12 01:42:09.43	335.54	62.97	
2025-01-12 01:42:09.64	335.35	63.05	
2025-01-12 01:42:09.84	335.17	63.12	
2025-01-12 01:42:10.05	334.98	63.19	
2025-01-12 01:42:10.27	334.78	63.27	
2025-01-12 01:42:10.47	334.59	63.33	
2025-01-12 01:42:10.68	334.40	63.41	
2025-01-12 01:42:10.89	334.20	63.48	
2025-01-12 01:42:11.09	334.01	63.55	
2025-01-12 01:42:11.29	333.83	63.62	
2025-01-12 01:42:11.50	333.63	63.69	
2025-01-12 01:42:11.71	333.42	63.76	
2025-01-12 01:42:11.91	333.23	63.83	
2025-01-12 01:42:12.12	333.03	63.90	
2025-01-12 01:42:12.32	332.83	63.97	
2025-01-12 01:42:12.53	332.63	64.04	
2025-01-12 01:42:12.73	332.43	64.10	
2025-01-12 01:42:12.94	332.22	64.17	
2025-01-12 01:42:13.14	332.02	64.24	
2025-01-12 01:42:13.35	331.81	64.31	
2025-01-12 01:42:13.57	331.59	64.38	
2025-01-12 01:42:13.77	331.39	64.45	
2025-01-12 01:42:13.98	331.17	64.52	
2025-01-12 01:42:14.18	330.97	64.58	
2025-01-12 01:42:14.39	330.75	64.65	
2025-01-12 01:42:14.59	330.54	64.72	
2025-01-12 01:42:14.80	330.32	64.78	
2025-01-12 01:42:15.00	330.11	64.85	
2025-01-12 01:42:15.21	329.89	64.92	
2025-01-12 01:42:15.42	329.67	64.98	
2025-01-12 01:42:15.62	329.45	65.05	
2025-01-12 01:42:15.82	329.24	65.11	
2025-01-12 01:42:16.03	329.01	65.18	
2025-01-12 01:42:16.24	328.78	65.24	
2025-01-12 01:42:16.44	328.56	65.31	
2025-01-12 01:42:16.64	328.34	65.37	
2025-01-12 01:42:16.85	328.11	65.43	
2025-01-12 01:42:17.05	327.88	65.49	
2025-01-12 01:42:17.26	327.65	65.56	
2025-01-12 01:42:17.47	327.41	65.62	
2025-01-12 01:42:17.67	327.19	65.68	
2025-01-12 01:42:17.88	326.95	65.75	
2025-01-12 01:42:18.08	326.72	65.81	
2025-01-12 01:42:18.29	326.47	65.87	
2025-01-12 01:42:18.49	326.24	65.93	
2025-01-12 01:42:18.70	326.00	65.99	
2025-01-12 01:42:18.90	325.76	66.05	
2025-01-12 01:42:19.11	325.51	66.11	
2025-01-12 01:42:19.32	325.26	66.17	
2025-01-12 01:42:19.52	325.03	66.23	
2025-01-12 01:42:19.73	324.77	66.29	
2025-01-12 01:42:19.93	324.53	66.35	
2025-01-12 01:42:20.14	324.28	66.41	
2025-01-12 01:42:20.34	324.03	66.47	
2025-01-12 01:42:20.55	323.77	66.52	
2025-01-12 01:42:20.75	323.53	66.58	
2025-01-12 01:42:20.95	323.28	66.64	
2025-01-12 01:42:21.16	323.02	66.69	
2025-01-12 01:42:21.36	322.77	66.75	
2025-01-12 01:42:21.57	322.50	66.80	
2025-01-12 01:42:21.78	322.24	66.86	
2025-01-12 01:42:21.98	321.98	66.91	
2025-01-12 01:42:22.18	321.73	66.97	
2025-01-12 01:42:22.39	321.46	67.02	
2025-01-12 01:42:22.59	321.20	67.08	
2025-01-12 01:42:22.80	320.92	67.13	
2025-01-12 01:42:23.00	320.66	67.18	
2025-01-12 01:42:23.20	320.40	67.23	
2025-01-12 01:42:23.41	320.12	67.29	
2025-01-12 01:42:23.62	319.84	67.34	
2025-01-12 01:42:23.82	319.58	67.39	
2025-01-12 01:42:24.03	319.30	67.44	
2025-01-12 01:42:24.23	319.03	67.49	
2025-01-12 01:42:24.44	318.74	67.54	
2025-01-12 01:42:24.64	318.47	67.59	
2025-01-12 01:42:24.85	318.18	67.64	
2025-01-12 01:42:25.05	317.91	67.69	
2025-01-12 01:42:25.27	317.61	67.74	
2025-01-12 01:42:25.48	317.31	67.79	
2025-01-12 01:42:25.68	317.04	67.83	
2025-01-12 01:42:25.89	316.74	67.88	
2025-01-12 01:42:26.09	316.46	67.92	
2025-01-12 01:42:26.30	316.16	67.97	
2025-01-12 01:42:26.50	315.88	68.01	
2025-01-12 01:42:26.71	315.58	68.06	
2025-01-12 01:42:26.91	315.30	68.10	
2025-01-12 01:42:27.12	314.99	68.15	
2025-01-12 01:42:27.32	314.71	68.19	
2025-01-12 01:42:27.53	314.40	68.23	
2025-01-12 01:42:27.74	314.10	68.27	
2025-01-12 01:42:27.94	313.80	68.31	
2025-01-12 01:42:28.15	313.49	68.36	
2025-01-12 01:42:28.35	313.20	68.40	
2025-01-12 01:42:28.56	312.89	68.44	
2025-01-12 01:42:28.77	312.58	68.48	
