passes_logs/2025/01/12/SPB_Silybum_02/SPB_Silybum_02__20250112_203234_TERRA_rec.log

#Pass ID: 20250112_203234_TERRA
#Satellite: TERRA
#Configuration: TERRA
#Start time: 2025-01-12 20:32:34

#Version: 2.0.20230423
#Station: SPB_Silybum_02
#Location: 30.233357 lon 59.946436 lat
#TLE: 1 25994U 99068A   25011.77277381  .00000769  00000+0  16824-3 0  9997
#TLE: 2 25994  98.0222  74.9057 0003526  79.1717  32.7508 14.60388914333608

#Time	Az	El	Level	Level2	SNR	BER	Gain	Gain2
2025-01-12 20:32:36.06	228.90	4.07	
2025-01-12 20:32:36.27	228.92	4.08	
2025-01-12 20:32:36.48	228.95	4.09	
2025-01-12 20:32:36.68	228.97	4.10	
2025-01-12 20:32:36.89	229.00	4.11	
2025-01-12 20:32:37.09	229.02	4.12	
2025-01-12 20:32:37.30	229.04	4.13	
2025-01-12 20:32:37.50	229.07	4.14	
2025-01-12 20:32:37.71	229.09	4.15	
2025-01-12 20:32:37.91	229.11	4.16	
2025-01-12 20:32:38.12	229.14	4.17	
2025-01-12 20:32:38.33	229.16	4.18	
2025-01-12 20:32:38.53	229.19	4.19	
2025-01-12 20:32:38.73	229.21	4.20	
2025-01-12 20:32:38.94	229.24	4.21	
2025-01-12 20:32:39.14	229.26	4.22	
2025-01-12 20:32:39.35	229.28	4.23	
2025-01-12 20:32:39.56	229.31	4.25	
2025-01-12 20:32:39.77	229.33	4.26	
2025-01-12 20:32:39.98	229.36	4.27	
2025-01-12 20:32:40.18	229.38	4.28	
2025-01-12 20:32:40.39	229.41	4.29	
2025-01-12 20:32:40.59	229.43	4.30	
2025-01-12 20:32:40.80	229.45	4.31	
2025-01-12 20:32:41.00	229.48	4.32	
2025-01-12 20:32:41.21	229.50	4.33	
2025-01-12 20:32:41.41	229.53	4.34	
2025-01-12 20:32:41.62	229.55	4.35	
2025-01-12 20:32:41.82	229.58	4.36	
2025-01-12 20:32:42.03	229.60	4.37	
2025-01-12 20:32:42.23	229.62	4.38	
2025-01-12 20:32:42.44	229.65	4.39	
2025-01-12 20:32:42.65	229.67	4.40	
2025-01-12 20:32:42.85	229.70	4.42	
2025-01-12 20:32:43.06	229.72	4.43	
2025-01-12 20:32:43.26	229.75	4.44	
2025-01-12 20:32:43.47	229.77	4.45	
2025-01-12 20:32:43.67	229.80	4.46	
2025-01-12 20:32:43.88	229.82	4.47	
2025-01-12 20:32:44.08	229.85	4.48	
2025-01-12 20:32:44.29	229.87	4.49	
2025-01-12 20:32:44.49	229.89	4.50	
2025-01-12 20:32:44.70	229.92	4.51	
2025-01-12 20:32:44.90	229.94	4.52	
2025-01-12 20:32:45.10	229.97	4.53	
2025-01-12 20:32:45.31	229.99	4.54	
2025-01-12 20:32:45.51	230.02	4.55	
2025-01-12 20:32:45.72	230.04	4.56	
2025-01-12 20:32:45.93	230.07	4.57	
2025-01-12 20:32:46.13	230.09	4.58	
2025-01-12 20:32:46.33	230.12	4.59	
2025-01-12 20:32:46.54	230.14	4.61	
2025-01-12 20:32:46.75	230.17	4.62	
2025-01-12 20:32:46.95	230.19	4.63	
2025-01-12 20:32:47.15	230.22	4.64	
2025-01-12 20:32:47.36	230.24	4.65	
2025-01-12 20:32:47.56	230.27	4.66	
2025-01-12 20:32:47.77	230.29	4.67	
2025-01-12 20:32:47.97	230.31	4.68	
2025-01-12 20:32:48.18	230.34	4.69	
2025-01-12 20:32:48.38	230.36	4.70	
2025-01-12 20:32:48.59	230.39	4.71	
2025-01-12 20:32:48.79	230.41	4.72	
2025-01-12 20:32:49.00	230.44	4.73	
2025-01-12 20:32:49.21	230.47	4.74	
2025-01-12 20:32:49.41	230.49	4.75	
2025-01-12 20:32:49.62	230.52	4.76	
2025-01-12 20:32:49.82	230.54	4.77	
2025-01-12 20:32:50.03	230.57	4.79	
2025-01-12 20:32:50.24	230.59	4.80	
2025-01-12 20:32:50.44	230.62	4.81	
2025-01-12 20:32:50.65	230.64	4.82	
2025-01-12 20:32:50.85	230.67	4.83	
2025-01-12 20:32:51.06	230.69	4.84	
2025-01-12 20:32:51.26	230.72	4.85	
2025-01-12 20:32:51.46	230.74	4.86	
2025-01-12 20:32:51.67	230.77	4.87	
2025-01-12 20:32:51.88	230.79	4.88	
2025-01-12 20:32:52.08	230.82	4.89	
2025-01-12 20:32:52.28	230.84	4.90	
2025-01-12 20:32:52.49	230.87	4.91	
2025-01-12 20:32:52.69	230.89	4.92	
2025-01-12 20:32:52.90	230.92	4.93	
2025-01-12 20:32:53.11	230.95	4.94	
2025-01-12 20:32:53.31	230.97	4.95	
2025-01-12 20:32:53.52	231.00	4.97	
2025-01-12 20:32:53.72	231.02	4.98	
2025-01-12 20:32:53.93	231.05	4.99	
2025-01-12 20:32:54.13	231.07	5.00	
2025-01-12 20:32:54.34	231.10	5.01	
2025-01-12 20:32:54.54	231.12	5.02	
2025-01-12 20:32:54.75	231.15	5.03	
2025-01-12 20:32:54.95	231.17	5.04	
2025-01-12 20:32:55.16	231.20	5.05	
2025-01-12 20:32:55.36	231.23	5.06	
2025-01-12 20:32:55.57	231.25	5.07	
2025-01-12 20:32:55.77	231.28	5.08	
2025-01-12 20:32:55.98	231.30	5.09	
2025-01-12 20:32:56.18	231.33	5.10	
2025-01-12 20:32:56.39	231.35	5.11	
2025-01-12 20:32:56.59	231.38	5.12	
2025-01-12 20:32:56.80	231.41	5.13	
2025-01-12 20:32:57.00	231.43	5.14	
2025-01-12 20:32:57.21	231.46	5.16	
2025-01-12 20:32:57.41	231.48	5.17	
2025-01-12 20:32:57.62	231.51	5.18	
2025-01-12 20:32:57.82	231.53	5.19	
2025-01-12 20:32:58.03	231.56	5.20	
2025-01-12 20:32:58.23	231.59	5.21	
2025-01-12 20:32:58.44	231.61	5.22	
2025-01-12 20:32:58.65	231.64	5.23	
2025-01-12 20:32:58.85	231.66	5.24	
2025-01-12 20:32:59.07	231.69	5.25	
2025-01-12 20:32:59.28	231.72	5.26	
2025-01-12 20:32:59.48	231.74	5.27	
2025-01-12 20:32:59.69	231.77	5.28	
2025-01-12 20:32:59.89	231.80	5.29	
2025-01-12 20:33:00.10	231.82	5.30	
2025-01-12 20:33:00.30	231.85	5.32	
2025-01-12 20:33:00.51	231.87	5.33	
2025-01-12 20:33:00.71	231.90	5.34	
2025-01-12 20:33:00.92	231.93	5.35	
2025-01-12 20:33:01.12	231.95	5.36	
2025-01-12 20:33:01.32	231.98	5.37	
2025-01-12 20:33:01.53	232.01	5.38	
2025-01-12 20:33:01.74	232.03	5.39	
2025-01-12 20:33:01.94	232.06	5.40	
2025-01-12 20:33:02.14	232.08	5.41	
2025-01-12 20:33:02.35	232.11	5.42	
2025-01-12 20:33:02.56	232.14	5.43	
2025-01-12 20:33:02.76	232.16	5.44	
2025-01-12 20:33:02.97	232.19	5.45	
2025-01-12 20:33:03.17	232.22	5.46	
2025-01-12 20:33:03.38	232.24	5.47	
2025-01-12 20:33:03.58	232.27	5.48	
2025-01-12 20:33:03.79	232.30	5.50	
2025-01-12 20:33:03.99	232.32	5.51	
2025-01-12 20:33:04.20	232.35	5.52	
2025-01-12 20:33:04.40	232.37	5.53	
2025-01-12 20:33:04.61	232.40	5.54	
2025-01-12 20:33:04.81	232.43	5.55	
2025-01-12 20:33:05.02	232.45	5.56	
2025-01-12 20:33:05.22	232.48	5.57	
2025-01-12 20:33:05.43	232.51	5.58	
2025-01-12 20:33:05.63	232.53	5.59	
2025-01-12 20:33:05.84	232.56	5.60	
2025-01-12 20:33:06.04	232.59	5.61	
2025-01-12 20:33:06.25	232.61	5.62	
2025-01-12 20:33:06.45	232.64	5.63	
2025-01-12 20:33:06.66	232.67	5.64	
2025-01-12 20:33:06.87	232.69	5.65	
2025-01-12 20:33:07.07	232.72	5.66	
2025-01-12 20:33:07.28	232.75	5.68	
2025-01-12 20:33:07.48	232.77	5.69	
2025-01-12 20:33:07.69	232.80	5.70	
2025-01-12 20:33:07.89	232.83	5.71	
2025-01-12 20:33:08.10	232.86	5.72	
2025-01-12 20:33:08.30	232.88	5.73	
2025-01-12 20:33:08.50	232.91	5.74	
2025-01-12 20:33:08.71	232.94	5.75	
2025-01-12 20:33:08.92	232.96	5.76	
2025-01-12 20:33:09.12	232.99	5.77	
2025-01-12 20:33:09.33	233.02	5.78	
2025-01-12 20:33:09.53	233.04	5.79	
2025-01-12 20:33:09.74	233.07	5.80	
2025-01-12 20:33:09.94	233.10	5.81	
2025-01-12 20:33:10.15	233.12	5.82	
2025-01-12 20:33:10.35	233.15	5.83	
2025-01-12 20:33:10.56	233.18	5.85	
2025-01-12 20:33:10.76	233.21	5.86	
2025-01-12 20:33:10.97	233.23	5.87	
2025-01-12 20:33:11.18	233.26	5.88	
2025-01-12 20:33:11.38	233.29	5.89	
2025-01-12 20:33:11.59	233.32	5.90	
2025-01-12 20:33:11.80	233.34	5.91	
2025-01-12 20:33:12.01	233.37	5.92	
2025-01-12 20:33:12.22	233.40	5.93	
2025-01-12 20:33:12.42	233.43	5.94	
2025-01-12 20:33:12.62	233.45	5.95	
2025-01-12 20:33:12.83	233.48	5.96	
2025-01-12 20:33:13.04	233.51	5.97	
2025-01-12 20:33:13.24	233.53	5.98	
2025-01-12 20:33:13.45	233.56	5.99	
2025-01-12 20:33:13.65	233.59	6.00	
2025-01-12 20:33:13.85	233.62	6.01	
2025-01-12 20:33:14.06	233.64	6.03	
2025-01-12 20:33:14.27	233.67	6.04	
2025-01-12 20:33:14.47	233.70	6.05	
2025-01-12 20:33:14.68	233.73	6.06	
2025-01-12 20:33:14.88	233.75	6.07	
2025-01-12 20:33:15.08	233.78	6.08	
2025-01-12 20:33:15.29	233.81	6.09	
2025-01-12 20:33:15.50	233.84	6.10	
2025-01-12 20:33:15.70	233.86	6.11	
2025-01-12 20:33:15.91	233.89	6.12	
2025-01-12 20:33:16.11	233.92	6.13	
2025-01-12 20:33:16.32	233.95	6.14	
2025-01-12 20:33:16.53	233.98	6.15	
2025-01-12 20:33:16.73	234.00	6.16	
2025-01-12 20:33:16.94	234.03	6.17	
2025-01-12 20:33:17.15	234.06	6.18	
2025-01-12 20:33:17.36	234.09	6.20	
2025-01-12 20:33:17.56	234.12	6.21	
2025-01-12 20:33:17.77	234.14	6.22	
2025-01-12 20:33:17.97	234.17	6.23	
2025-01-12 20:33:18.18	234.20	6.24	
2025-01-12 20:33:18.39	234.23	6.25	
2025-01-12 20:33:18.59	234.26	6.26	
2025-01-12 20:33:18.79	234.28	6.27	
2025-01-12 20:33:19.00	234.31	6.28	
2025-01-12 20:33:19.20	234.34	6.29	
2025-01-12 20:33:19.41	234.37	6.30	
2025-01-12 20:33:19.61	234.40	6.31	
2025-01-12 20:33:19.82	234.42	6.32	
2025-01-12 20:33:20.02	234.45	6.33	
2025-01-12 20:33:20.23	234.48	6.34	
2025-01-12 20:33:20.43	234.51	6.35	
2025-01-12 20:33:20.64	234.54	6.36	
2025-01-12 20:33:20.85	234.57	6.38	
2025-01-12 20:33:21.06	234.59	6.39	
2025-01-12 20:33:21.26	234.62	6.40	
2025-01-12 20:33:21.47	234.65	6.41	
2025-01-12 20:33:21.67	234.68	6.42	
2025-01-12 20:33:21.88	234.71	6.43	
2025-01-12 20:33:22.08	234.73	6.44	
2025-01-12 20:33:22.29	234.76	6.45	
2025-01-12 20:33:22.49	234.79	6.46	
2025-01-12 20:33:22.70	234.82	6.47	
2025-01-12 20:33:22.90	234.85	6.48	
2025-01-12 20:33:23.11	234.88	6.49	
2025-01-12 20:33:23.31	234.90	6.50	
2025-01-12 20:33:23.53	234.94	6.51	
2025-01-12 20:33:23.73	234.96	6.52	
2025-01-12 20:33:23.94	234.99	6.53	
2025-01-12 20:33:24.15	235.02	6.55	
2025-01-12 20:33:24.35	235.05	6.56	
2025-01-12 20:33:24.56	235.08	6.57	
2025-01-12 20:33:24.76	235.11	6.58	
2025-01-12 20:33:24.97	235.14	6.59	
2025-01-12 20:33:25.18	235.17	6.60	
2025-01-12 20:33:25.38	235.19	6.61	
2025-01-12 20:33:25.60	235.22	6.62	
2025-01-12 20:33:25.80	235.25	6.63	
2025-01-12 20:33:26.01	235.28	6.64	
2025-01-12 20:33:26.21	235.31	6.65	
2025-01-12 20:33:26.42	235.34	6.66	
2025-01-12 20:33:26.62	235.37	6.67	
2025-01-12 20:33:26.83	235.40	6.68	
2025-01-12 20:33:27.03	235.42	6.69	
2025-01-12 20:33:27.24	235.45	6.70	
2025-01-12 20:33:27.45	235.48	6.72	
2025-01-12 20:33:27.65	235.51	6.73	
2025-01-12 20:33:27.85	235.54	6.74	
2025-01-12 20:33:28.06	235.57	6.75	
2025-01-12 20:33:28.26	235.60	6.76	
2025-01-12 20:33:28.47	235.63	6.77	
2025-01-12 20:33:28.67	235.66	6.78	
2025-01-12 20:33:28.88	235.68	6.79	
2025-01-12 20:33:29.08	235.71	6.80	
2025-01-12 20:33:29.29	235.74	6.81	
2025-01-12 20:33:29.49	235.77	6.82	
2025-01-12 20:33:29.70	235.80	6.83	
2025-01-12 20:33:29.90	235.83	6.84	
2025-01-12 20:33:30.12	235.86	6.85	
2025-01-12 20:33:30.32	235.89	6.86	
2025-01-12 20:33:30.53	235.92	6.87	
2025-01-12 20:33:30.74	235.95	6.88	
2025-01-12 20:33:30.94	235.98	6.89	
2025-01-12 20:33:31.14	236.01	6.90	
2025-01-12 20:33:31.35	236.04	6.92	
2025-01-12 20:33:31.55	236.06	6.93	
2025-01-12 20:33:31.76	236.09	6.94	
2025-01-12 20:33:31.97	236.12	6.95	
2025-01-12 20:33:32.17	236.15	6.96	
2025-01-12 20:33:32.38	236.18	6.97	
2025-01-12 20:33:32.58	236.21	6.98	
2025-01-12 20:33:32.78	236.24	6.99	
2025-01-12 20:33:32.99	236.27	7.00	
2025-01-12 20:33:33.19	236.30	7.01	
2025-01-12 20:33:33.40	236.33	7.02	
2025-01-12 20:33:33.60	236.36	7.03	
2025-01-12 20:33:33.81	236.39	7.04	
2025-01-12 20:33:34.02	236.42	7.05	
2025-01-12 20:33:34.22	236.45	7.06	
2025-01-12 20:33:34.43	236.48	7.07	
2025-01-12 20:33:34.63	236.51	7.08	
2025-01-12 20:33:34.84	236.54	7.09	
2025-01-12 20:33:35.04	236.57	7.10	
2025-01-12 20:33:35.25	236.60	7.11	
2025-01-12 20:33:35.45	236.63	7.13	
2025-01-12 20:33:35.66	236.66	7.14	
2025-01-12 20:33:35.86	236.69	7.15	
2025-01-12 20:33:36.06	236.71	7.16	
2025-01-12 20:33:36.27	236.75	7.17	
2025-01-12 20:33:36.47	236.77	7.18	
2025-01-12 20:33:36.68	236.80	7.19	
2025-01-12 20:33:36.89	236.84	7.20	
2025-01-12 20:33:37.09	236.86	7.21	
2025-01-12 20:33:37.30	236.90	7.22	
2025-01-12 20:33:37.50	236.92	7.23	
2025-01-12 20:33:37.70	236.95	7.24	
2025-01-12 20:33:37.91	236.98	7.25	
2025-01-12 20:33:38.11	237.01	7.26	
2025-01-12 20:33:38.32	237.04	7.27	
2025-01-12 20:33:38.52	237.07	7.28	
2025-01-12 20:33:38.72	237.10	7.29	
2025-01-12 20:33:38.93	237.13	7.30	
2025-01-12 20:33:39.14	237.16	7.31	
2025-01-12 20:33:39.34	237.19	7.32	
2025-01-12 20:33:39.55	237.22	7.33	
2025-01-12 20:33:39.75	237.25	7.34	
2025-01-12 20:33:39.96	237.29	7.36	
2025-01-12 20:33:40.16	237.31	7.37	
2025-01-12 20:33:40.37	237.35	7.38	
2025-01-12 20:33:40.57	237.38	7.39	
2025-01-12 20:33:40.78	237.41	7.40	
2025-01-12 20:33:40.98	237.44	7.41	
2025-01-12 20:33:41.19	237.47	7.42	
2025-01-12 20:33:41.39	237.50	7.43	
2025-01-12 20:33:41.60	237.53	7.44	
2025-01-12 20:33:41.80	237.56	7.45	
2025-01-12 20:33:42.00	237.59	7.46	
2025-01-12 20:33:42.21	237.62	7.47	
2025-01-12 20:33:42.41	237.65	7.48	
2025-01-12 20:33:42.62	237.68	7.49	
2025-01-12 20:33:42.82	237.71	7.50	
2025-01-12 20:33:43.03	237.74	7.51	
2025-01-12 20:33:43.25	237.77	7.52	
2025-01-12 20:33:43.45	237.80	7.53	
2025-01-12 20:33:43.66	237.83	7.54	
2025-01-12 20:33:43.87	237.87	7.55	
2025-01-12 20:33:44.08	237.90	7.57	
2025-01-12 20:33:44.29	237.93	7.58	
2025-01-12 20:33:44.49	237.96	7.59	
2025-01-12 20:33:44.70	237.99	7.60	
2025-01-12 20:33:44.92	238.02	7.61	
2025-01-12 20:33:45.12	238.05	7.62	
2025-01-12 20:33:45.33	238.08	7.63	
2025-01-12 20:33:45.53	238.11	7.64	
2025-01-12 20:33:45.74	238.15	7.65	
2025-01-12 20:33:45.94	238.18	7.66	
2025-01-12 20:33:46.15	238.21	7.67	
2025-01-12 20:33:46.35	238.24	7.68	
2025-01-12 20:33:46.56	238.27	7.69	
2025-01-12 20:33:46.76	238.30	7.70	
2025-01-12 20:33:46.97	238.33	7.71	
2025-01-12 20:33:47.17	238.36	7.72	
2025-01-12 20:33:47.38	238.39	7.73	
2025-01-12 20:33:47.58	238.42	7.74	
2025-01-12 20:33:47.79	238.46	7.75	
2025-01-12 20:33:47.99	238.49	7.76	
2025-01-12 20:33:48.20	238.52	7.77	
2025-01-12 20:33:48.40	238.55	7.78	
2025-01-12 20:33:48.61	238.58	7.79	
2025-01-12 20:33:48.81	238.61	7.80	
2025-01-12 20:33:49.02	238.64	7.82	
2025-01-12 20:33:49.24	238.68	7.83	
2025-01-12 20:33:49.44	238.71	7.84	
2025-01-12 20:33:49.65	238.74	7.85	
2025-01-12 20:33:49.85	238.77	7.86	
2025-01-12 20:33:50.06	238.80	7.87	
2025-01-12 20:33:50.27	238.83	7.88	
2025-01-12 20:33:50.48	238.87	7.89	
2025-01-12 20:33:50.68	238.90	7.90	
2025-01-12 20:33:50.89	238.93	7.91	
2025-01-12 20:33:51.09	238.96	7.92	
2025-01-12 20:33:51.30	238.99	7.93	
2025-01-12 20:33:51.50	239.02	7.94	
2025-01-12 20:33:51.71	239.05	7.95	
2025-01-12 20:33:51.91	239.09	7.96	
2025-01-12 20:33:52.12	239.12	7.97	
2025-01-12 20:33:52.32	239.15	7.98	
2025-01-12 20:33:52.53	239.18	7.99	
2025-01-12 20:33:52.73	239.21	8.00	
2025-01-12 20:33:52.94	239.24	8.01	
2025-01-12 20:33:53.14	239.28	8.02	
2025-01-12 20:33:53.35	239.31	8.03	
2025-01-12 20:33:53.55	239.34	8.04	
2025-01-12 20:33:53.75	239.37	8.05	
2025-01-12 20:33:53.96	239.40	8.06	
2025-01-12 20:33:54.17	239.44	8.08	
2025-01-12 20:33:54.37	239.47	8.09	
2025-01-12 20:33:54.57	239.50	8.10	
2025-01-12 20:33:54.78	239.53	8.11	
2025-01-12 20:33:54.99	239.56	8.12	
2025-01-12 20:33:55.19	239.59	8.13	
2025-01-12 20:33:55.40	239.63	8.14	
2025-01-12 20:33:55.60	239.66	8.15	
2025-01-12 20:33:55.81	239.69	8.16	
2025-01-12 20:33:56.01	239.72	8.17	
2025-01-12 20:33:56.21	239.75	8.18	
2025-01-12 20:33:56.42	239.79	8.19	
2025-01-12 20:33:56.63	239.82	8.20	
2025-01-12 20:33:56.83	239.85	8.21	
2025-01-12 20:33:57.03	239.88	8.22	
2025-01-12 20:33:57.24	239.91	8.23	
2025-01-12 20:33:57.45	239.95	8.24	
2025-01-12 20:33:57.65	239.98	8.25	
2025-01-12 20:33:57.86	240.01	8.26	
2025-01-12 20:33:58.06	240.04	8.27	
2025-01-12 20:33:58.27	240.08	8.28	
2025-01-12 20:33:58.47	240.11	8.29	
2025-01-12 20:33:58.67	240.14	8.30	
2025-01-12 20:33:58.88	240.17	8.31	
2025-01-12 20:33:59.08	240.20	8.32	
2025-01-12 20:33:59.29	240.24	8.33	
2025-01-12 20:33:59.49	240.27	8.34	
2025-01-12 20:33:59.70	240.30	8.35	
2025-01-12 20:33:59.90	240.33	8.36	
2025-01-12 20:34:00.12	240.37	8.37	
2025-01-12 20:34:00.32	240.40	8.38	
2025-01-12 20:34:00.53	240.43	8.39	
2025-01-12 20:34:00.73	240.47	8.40	
2025-01-12 20:34:00.94	240.50	8.41	
2025-01-12 20:34:01.14	240.53	8.42	
2025-01-12 20:34:01.35	240.56	8.43	
2025-01-12 20:34:01.56	240.60	8.45	
2025-01-12 20:34:01.76	240.63	8.45	
2025-01-12 20:34:01.96	240.66	8.46	
2025-01-12 20:34:02.17	240.70	8.48	
2025-01-12 20:34:02.38	240.73	8.49	
2025-01-12 20:34:02.58	240.76	8.50	
2025-01-12 20:34:02.79	240.79	8.51	
2025-01-12 20:34:02.99	240.83	8.52	
2025-01-12 20:34:03.20	240.86	8.53	
2025-01-12 20:34:03.40	240.89	8.54	
2025-01-12 20:34:03.61	240.93	8.55	
2025-01-12 20:34:03.81	240.96	8.56	
2025-01-12 20:34:04.01	240.99	8.57	
2025-01-12 20:34:04.22	241.02	8.58	
2025-01-12 20:34:04.43	241.06	8.59	
2025-01-12 20:34:04.63	241.09	8.60	
2025-01-12 20:34:04.83	241.12	8.61	
2025-01-12 20:34:05.04	241.16	8.62	
2025-01-12 20:34:05.24	241.19	8.63	
2025-01-12 20:34:05.45	241.22	8.64	
2025-01-12 20:34:05.65	241.25	8.65	
2025-01-12 20:34:05.86	241.29	8.66	
2025-01-12 20:34:06.06	241.32	8.67	
2025-01-12 20:34:06.28	241.36	8.68	
2025-01-12 20:34:06.49	241.39	8.69	
2025-01-12 20:34:06.69	241.42	8.70	
2025-01-12 20:34:06.90	241.46	8.71	
2025-01-12 20:34:07.11	241.49	8.72	
2025-01-12 20:34:07.31	241.52	8.73	
2025-01-12 20:34:07.52	241.56	8.74	
2025-01-12 20:34:07.72	241.59	8.75	
2025-01-12 20:34:07.93	241.62	8.76	
2025-01-12 20:34:08.13	241.66	8.77	
2025-01-12 20:34:08.34	241.69	8.78	
2025-01-12 20:34:08.54	241.72	8.79	
2025-01-12 20:34:08.75	241.76	8.80	
2025-01-12 20:34:08.95	241.79	8.81	
2025-01-12 20:34:09.16	241.83	8.82	
2025-01-12 20:34:09.36	241.86	8.83	
2025-01-12 20:34:09.57	241.89	8.84	
2025-01-12 20:34:09.77	241.93	8.85	
2025-01-12 20:34:09.98	241.96	8.86	
2025-01-12 20:34:10.18	241.99	8.87	
2025-01-12 20:34:10.39	242.03	8.88	
2025-01-12 20:34:10.59	242.06	8.89	
2025-01-12 20:34:10.80	242.10	8.90	
2025-01-12 20:34:11.00	242.13	8.91	
2025-01-12 20:34:11.21	242.16	8.92	
2025-01-12 20:34:11.41	242.20	8.93	
2025-01-12 20:34:11.62	242.23	8.94	
2025-01-12 20:34:11.82	242.26	8.95	
2025-01-12 20:34:12.03	242.30	8.96	
2025-01-12 20:34:12.24	242.33	8.97	
2025-01-12 20:34:12.44	242.37	8.98	
2025-01-12 20:34:12.65	242.40	8.99	
2025-01-12 20:34:12.85	242.43	9.00	
2025-01-12 20:34:13.06	242.47	9.01	
2025-01-12 20:34:13.26	242.50	9.02	
2025-01-12 20:34:13.47	242.54	9.03	
2025-01-12 20:34:13.68	242.57	9.04	
2025-01-12 20:34:13.89	242.61	9.05	
2025-01-12 20:34:14.09	242.64	9.06	
2025-01-12 20:34:14.30	242.68	9.07	
2025-01-12 20:34:14.50	242.71	9.08	
2025-01-12 20:34:14.70	242.74	9.09	
2025-01-12 20:34:14.91	242.78	9.10	
2025-01-12 20:34:15.12	242.81	9.11	
2025-01-12 20:34:15.32	242.85	9.12	
2025-01-12 20:34:15.53	242.88	9.13	
2025-01-12 20:34:15.73	242.91	9.14	
2025-01-12 20:34:15.94	242.95	9.15	
2025-01-12 20:34:16.14	242.98	9.16	
2025-01-12 20:34:16.35	243.02	9.17	
2025-01-12 20:34:16.55	243.05	9.18	
2025-01-12 20:34:16.75	243.09	9.19	
2025-01-12 20:34:16.96	243.12	9.20	
2025-01-12 20:34:17.17	243.16	9.21	
2025-01-12 20:34:17.37	243.19	9.22	
2025-01-12 20:34:17.58	243.23	9.23	
2025-01-12 20:34:17.79	243.26	9.24	
2025-01-12 20:34:18.00	243.30	9.25	
2025-01-12 20:34:18.21	243.33	9.26	
2025-01-12 20:34:18.41	243.37	9.27	
2025-01-12 20:34:18.62	243.40	9.28	
2025-01-12 20:34:18.83	243.44	9.29	
2025-01-12 20:34:19.03	243.47	9.30	
2025-01-12 20:34:19.24	243.51	9.31	
2025-01-12 20:34:19.44	243.54	9.32	
2025-01-12 20:34:19.64	243.57	9.33	
2025-01-12 20:34:19.85	243.61	9.34	
2025-01-12 20:34:20.05	243.64	9.35	
2025-01-12 20:34:20.26	243.68	9.36	
2025-01-12 20:34:20.46	243.71	9.37	
2025-01-12 20:34:20.66	243.75	9.38	
2025-01-12 20:34:20.87	243.78	9.39	
2025-01-12 20:34:21.08	243.82	9.40	
2025-01-12 20:34:21.28	243.85	9.41	
2025-01-12 20:34:21.49	243.89	9.42	
2025-01-12 20:34:21.69	243.92	9.43	
2025-01-12 20:34:21.90	243.96	9.44	
2025-01-12 20:34:22.10	243.99	9.45	
2025-01-12 20:34:22.31	244.03	9.46	
2025-01-12 20:34:22.51	244.06	9.47	
2025-01-12 20:34:22.72	244.10	9.48	
2025-01-12 20:34:22.92	244.13	9.49	
2025-01-12 20:34:23.13	244.17	9.50	
2025-01-12 20:34:23.33	244.21	9.51	
2025-01-12 20:34:23.54	244.24	9.52	
2025-01-12 20:34:23.74	244.28	9.53	
2025-01-12 20:34:23.95	244.31	9.54	
2025-01-12 20:34:24.15	244.35	9.55	
2025-01-12 20:34:24.36	244.38	9.56	
2025-01-12 20:34:24.56	244.42	9.57	
2025-01-12 20:34:24.77	244.45	9.58	
2025-01-12 20:34:24.97	244.49	9.59	
2025-01-12 20:34:25.18	244.52	9.60	
2025-01-12 20:34:25.38	244.56	9.61	
2025-01-12 20:34:25.58	244.59	9.62	
2025-01-12 20:34:25.79	244.63	9.63	
2025-01-12 20:34:26.00	244.67	9.64	
2025-01-12 20:34:26.20	244.70	9.65	
2025-01-12 20:34:26.41	244.74	9.66	
2025-01-12 20:34:26.61	244.77	9.67	
2025-01-12 20:34:26.82	244.81	9.68	
2025-01-12 20:34:27.02	244.84	9.68	
2025-01-12 20:34:27.23	244.88	9.69	
2025-01-12 20:34:27.43	244.92	9.70	
2025-01-12 20:34:27.64	244.95	9.71	
2025-01-12 20:34:27.84	244.99	9.72	
2025-01-12 20:34:28.04	245.02	9.73	
2025-01-12 20:34:28.25	245.06	9.74	
2025-01-12 20:34:28.46	245.10	9.75	
2025-01-12 20:34:28.67	245.13	9.76	
2025-01-12 20:34:28.88	245.17	9.77	
2025-01-12 20:34:29.09	245.21	9.78	
2025-01-12 20:34:29.29	245.24	9.79	
2025-01-12 20:34:29.50	245.28	9.80	
2025-01-12 20:34:29.70	245.31	9.81	
2025-01-12 20:34:29.91	245.35	9.82	
2025-01-12 20:34:30.11	245.39	9.83	
2025-01-12 20:34:30.32	245.42	9.84	
2025-01-12 20:34:30.53	245.46	9.85	
2025-01-12 20:34:30.73	245.49	9.86	
2025-01-12 20:34:30.93	245.53	9.87	
2025-01-12 20:34:31.14	245.57	9.88	
2025-01-12 20:34:31.34	245.60	9.89	
2025-01-12 20:34:31.55	245.64	9.90	
2025-01-12 20:34:31.75	245.68	9.91	
2025-01-12 20:34:31.96	245.71	9.92	
2025-01-12 20:34:32.16	245.75	9.93	
2025-01-12 20:34:32.37	245.79	9.94	
2025-01-12 20:34:32.58	245.82	9.95	
2025-01-12 20:34:32.78	245.86	9.96	
2025-01-12 20:34:32.99	245.90	9.97	
2025-01-12 20:34:33.19	245.93	9.97	
2025-01-12 20:34:33.40	245.97	9.98	
2025-01-12 20:34:33.60	246.00	9.99	
2025-01-12 20:34:33.81	246.04	10.00	
2025-01-12 20:34:34.01	246.08	10.01	
2025-01-12 20:34:34.21	246.11	10.02	
2025-01-12 20:34:34.42	246.15	10.03	
2025-01-12 20:34:34.63	246.19	10.04	
2025-01-12 20:34:34.83	246.22	10.05	
2025-01-12 20:34:35.04	246.26	10.06	
2025-01-12 20:34:35.24	246.30	10.07	
2025-01-12 20:34:35.45	246.33	10.08	
2025-01-12 20:34:35.65	246.37	10.09	
2025-01-12 20:34:35.86	246.41	10.10	
2025-01-12 20:34:36.06	246.44	10.11	
2025-01-12 20:34:36.27	246.48	10.12	
2025-01-12 20:34:36.47	246.52	10.13	
2025-01-12 20:34:36.68	246.56	10.14	
2025-01-12 20:34:36.88	246.59	10.15	
2025-01-12 20:34:37.09	246.63	10.16	
2025-01-12 20:34:37.29	246.67	10.16	
2025-01-12 20:34:37.50	246.70	10.17	
2025-01-12 20:34:37.70	246.74	10.18	
2025-01-12 20:34:37.91	246.78	10.19	
2025-01-12 20:34:38.11	246.81	10.20	
2025-01-12 20:34:38.32	246.85	10.21	
2025-01-12 20:34:38.52	246.89	10.22	
2025-01-12 20:34:38.73	246.93	10.23	
2025-01-12 20:34:38.94	246.96	10.24	
2025-01-12 20:34:39.14	247.00	10.25	
2025-01-12 20:34:39.35	247.04	10.26	
2025-01-12 20:34:39.55	247.07	10.27	
2025-01-12 20:34:39.76	247.11	10.28	
2025-01-12 20:34:39.96	247.15	10.29	
2025-01-12 20:34:40.17	247.19	10.30	
2025-01-12 20:34:40.37	247.22	10.31	
2025-01-12 20:34:40.58	247.26	10.32	
2025-01-12 20:34:40.78	247.30	10.32	
2025-01-12 20:34:40.99	247.34	10.33	
2025-01-12 20:34:41.20	247.37	10.34	
2025-01-12 20:34:41.40	247.41	10.35	
2025-01-12 20:34:41.60	247.45	10.36	
2025-01-12 20:34:41.81	247.49	10.37	
2025-01-12 20:34:42.02	247.52	10.38	
2025-01-12 20:34:42.22	247.56	10.39	
2025-01-12 20:34:42.43	247.60	10.40	
2025-01-12 20:34:42.63	247.64	10.41	
2025-01-12 20:34:42.84	247.68	10.42	
2025-01-12 20:34:43.04	247.71	10.43	
2025-01-12 20:34:43.25	247.75	10.44	
2025-01-12 20:34:43.45	247.79	10.45	
2025-01-12 20:34:43.66	247.83	10.46	
2025-01-12 20:34:43.87	247.86	10.46	
2025-01-12 20:34:44.07	247.90	10.47	
2025-01-12 20:34:44.28	247.94	10.48	
2025-01-12 20:34:44.48	247.98	10.49	
2025-01-12 20:34:44.69	248.02	10.50	
2025-01-12 20:34:44.89	248.05	10.51	
2025-01-12 20:34:45.10	248.09	10.52	
2025-01-12 20:34:45.31	248.13	10.53	
2025-01-12 20:34:45.51	248.17	10.54	
2025-01-12 20:34:45.73	248.21	10.55	
2025-01-12 20:34:45.94	248.25	10.56	
2025-01-12 20:34:46.14	248.28	10.57	
2025-01-12 20:34:46.35	248.32	10.58	
2025-01-12 20:34:46.55	248.36	10.58	
2025-01-12 20:34:46.76	248.40	10.59	
2025-01-12 20:34:46.96	248.44	10.60	
2025-01-12 20:34:47.17	248.48	10.61	
2025-01-12 20:34:47.37	248.51	10.62	
2025-01-12 20:34:47.59	248.55	10.63	
2025-01-12 20:34:47.79	248.59	10.64	
2025-01-12 20:34:48.00	248.63	10.65	
2025-01-12 20:34:48.20	248.67	10.66	
2025-01-12 20:34:48.41	248.71	10.67	
2025-01-12 20:34:48.61	248.74	10.68	
2025-01-12 20:34:48.82	248.78	10.69	
2025-01-12 20:34:49.02	248.82	10.69	
2025-01-12 20:34:49.23	248.86	10.70	
2025-01-12 20:34:49.43	248.90	10.71	
2025-01-12 20:34:49.64	248.94	10.72	
2025-01-12 20:34:49.84	248.98	10.73	
2025-01-12 20:34:50.05	249.01	10.74	
2025-01-12 20:34:50.27	249.06	10.75	
2025-01-12 20:34:50.47	249.09	10.76	
2025-01-12 20:34:50.68	249.13	10.77	
2025-01-12 20:34:50.88	249.17	10.78	
2025-01-12 20:34:51.08	249.21	10.79	
2025-01-12 20:34:51.29	249.25	10.79	
2025-01-12 20:34:51.50	249.29	10.80	
2025-01-12 20:34:51.70	249.33	10.81	
2025-01-12 20:34:51.91	249.37	10.82	
2025-01-12 20:34:52.11	249.40	10.83	
2025-01-12 20:34:52.32	249.44	10.84	
2025-01-12 20:34:52.52	249.48	10.85	
2025-01-12 20:34:52.73	249.52	10.86	
2025-01-12 20:34:52.94	249.56	10.87	
2025-01-12 20:34:53.15	249.60	10.88	
2025-01-12 20:34:53.36	249.64	10.88	
2025-01-12 20:34:53.56	249.68	10.89	
2025-01-12 20:34:53.77	249.72	10.90	
2025-01-12 20:34:53.98	249.76	10.91	
2025-01-12 20:34:54.18	249.80	10.92	
2025-01-12 20:34:54.39	249.84	10.93	
2025-01-12 20:34:54.59	249.87	10.94	
2025-01-12 20:34:54.80	249.91	10.95	
2025-01-12 20:34:55.00	249.95	10.96	
2025-01-12 20:34:55.21	249.99	10.97	
2025-01-12 20:34:55.41	250.03	10.97	
2025-01-12 20:34:55.62	250.07	10.98	
2025-01-12 20:34:55.82	250.11	10.99	
2025-01-12 20:34:56.03	250.15	11.00	
2025-01-12 20:34:56.23	250.19	11.01	
2025-01-12 20:34:56.44	250.23	11.02	
2025-01-12 20:34:56.64	250.27	11.03	
2025-01-12 20:34:56.85	250.31	11.04	
2025-01-12 20:34:57.05	250.34	11.04	
2025-01-12 20:34:57.26	250.38	11.05	
2025-01-12 20:34:57.46	250.42	11.06	
2025-01-12 20:34:57.67	250.46	11.07	
2025-01-12 20:34:57.87	250.50	11.08	
2025-01-12 20:34:58.08	250.54	11.09	
2025-01-12 20:34:58.28	250.58	11.10	
2025-01-12 20:34:58.48	250.62	11.11	
2025-01-12 20:34:58.69	250.66	11.11	
2025-01-12 20:34:58.89	250.70	11.12	
2025-01-12 20:34:59.10	250.74	11.13	
2025-01-12 20:34:59.31	250.78	11.14	
2025-01-12 20:34:59.51	250.82	11.15	
2025-01-12 20:34:59.71	250.86	11.16	
2025-01-12 20:34:59.92	250.90	11.17	
2025-01-12 20:35:00.12	250.94	11.17	
2025-01-12 20:35:00.33	250.98	11.18	
2025-01-12 20:35:00.53	251.02	11.19	
2025-01-12 20:35:00.73	251.06	11.20	
2025-01-12 20:35:00.94	251.10	11.21	
2025-01-12 20:35:01.14	251.13	11.22	
2025-01-12 20:35:01.35	251.18	11.23	
2025-01-12 20:35:01.55	251.21	11.23	
2025-01-12 20:35:01.76	251.26	11.24	
2025-01-12 20:35:01.96	251.29	11.25	
2025-01-12 20:35:02.17	251.34	11.26	
2025-01-12 20:35:02.37	251.37	11.27	
2025-01-12 20:35:02.58	251.42	11.28	
2025-01-12 20:35:02.78	251.45	11.29	
2025-01-12 20:35:02.99	251.50	11.29	
2025-01-12 20:35:03.19	251.53	11.30	
2025-01-12 20:35:03.40	251.58	11.31	
2025-01-12 20:35:03.60	251.61	11.32	
2025-01-12 20:35:03.80	251.65	11.33	
2025-01-12 20:35:04.01	251.69	11.34	
2025-01-12 20:35:04.21	251.73	11.35	
2025-01-12 20:35:04.42	251.78	11.35	
2025-01-12 20:35:04.62	251.81	11.36	
2025-01-12 20:35:04.83	251.86	11.37	
2025-01-12 20:35:05.03	251.90	11.38	
2025-01-12 20:35:05.24	251.94	11.39	
2025-01-12 20:35:05.44	251.98	11.40	
2025-01-12 20:35:05.65	252.02	11.40	
2025-01-12 20:35:05.86	252.06	11.41	
2025-01-12 20:35:06.07	252.10	11.42	
2025-01-12 20:35:06.28	252.14	11.43	
2025-01-12 20:35:06.48	252.18	11.44	
2025-01-12 20:35:06.69	252.22	11.45	
2025-01-12 20:35:06.89	252.26	11.46	
2025-01-12 20:35:07.10	252.30	11.46	
2025-01-12 20:35:07.30	252.34	11.47	
2025-01-12 20:35:07.51	252.38	11.48	
2025-01-12 20:35:07.72	252.43	11.49	
2025-01-12 20:35:07.92	252.47	11.50	
2025-01-12 20:35:08.12	252.51	11.51	
2025-01-12 20:35:08.33	252.55	11.51	
2025-01-12 20:35:08.53	252.59	11.52	
2025-01-12 20:35:08.74	252.63	11.53	
2025-01-12 20:35:08.94	252.67	11.54	
2025-01-12 20:35:09.15	252.71	11.55	
2025-01-12 20:35:09.36	252.75	11.56	
2025-01-12 20:35:09.56	252.79	11.56	
2025-01-12 20:35:09.77	252.83	11.57	
2025-01-12 20:35:09.97	252.87	11.58	
2025-01-12 20:35:10.18	252.92	11.59	
2025-01-12 20:35:10.38	252.96	11.60	
2025-01-12 20:35:10.58	253.00	11.60	
2025-01-12 20:35:10.79	253.04	11.61	
2025-01-12 20:35:11.00	253.08	11.62	
2025-01-12 20:35:11.20	253.12	11.63	
2025-01-12 20:35:11.41	253.16	11.64	
2025-01-12 20:35:11.61	253.20	11.65	
2025-01-12 20:35:11.82	253.24	11.65	
2025-01-12 20:35:12.02	253.28	11.66	
2025-01-12 20:35:12.23	253.33	11.67	
2025-01-12 20:35:12.43	253.37	11.68	
2025-01-12 20:35:12.64	253.41	11.69	
2025-01-12 20:35:12.84	253.45	11.69	
2025-01-12 20:35:13.05	253.49	11.70	
2025-01-12 20:35:13.25	253.53	11.71	
2025-01-12 20:35:13.46	253.57	11.72	
2025-01-12 20:35:13.66	253.61	11.73	
2025-01-12 20:35:13.87	253.66	11.73	
2025-01-12 20:35:14.07	253.70	11.74	
2025-01-12 20:35:14.28	253.74	11.75	
2025-01-12 20:35:14.49	253.78	11.76	
2025-01-12 20:35:14.70	253.82	11.77	
2025-01-12 20:35:14.90	253.86	11.78	
2025-01-12 20:35:15.11	253.91	11.78	
2025-01-12 20:35:15.31	253.95	11.79	
2025-01-12 20:35:15.52	253.99	11.80	
2025-01-12 20:35:15.72	254.03	11.81	
2025-01-12 20:35:15.93	254.07	11.82	
2025-01-12 20:35:16.13	254.11	11.82	
2025-01-12 20:35:16.34	254.16	11.83	
2025-01-12 20:35:16.54	254.20	11.84	
2025-01-12 20:35:16.76	254.24	11.85	
2025-01-12 20:35:16.97	254.28	11.86	
2025-01-12 20:35:17.17	254.32	11.86	
2025-01-12 20:35:17.38	254.37	11.87	
2025-01-12 20:35:17.58	254.41	11.88	
2025-01-12 20:35:17.80	254.45	11.89	
2025-01-12 20:35:18.00	254.49	11.89	
2025-01-12 20:35:18.21	254.54	11.90	
2025-01-12 20:35:18.41	254.58	11.91	
2025-01-12 20:35:18.62	254.62	11.92	
2025-01-12 20:35:18.83	254.66	11.93	
2025-01-12 20:35:19.03	254.70	11.93	
2025-01-12 20:35:19.24	254.75	11.94	
2025-01-12 20:35:19.44	254.79	11.95	
2025-01-12 20:35:19.65	254.83	11.96	
2025-01-12 20:35:19.85	254.87	11.97	
2025-01-12 20:35:20.06	254.91	11.97	
2025-01-12 20:35:20.26	254.96	11.98	
2025-01-12 20:35:20.47	255.00	11.99	
2025-01-12 20:35:20.67	255.04	12.00	
2025-01-12 20:35:20.87	255.08	12.00	
2025-01-12 20:35:21.08	255.12	12.01	
2025-01-12 20:35:21.28	255.17	12.02	
2025-01-12 20:35:21.49	255.21	12.03	
2025-01-12 20:35:21.69	255.25	12.03	
2025-01-12 20:35:21.90	255.29	12.04	
2025-01-12 20:35:22.10	255.33	12.05	
2025-01-12 20:35:22.31	255.38	12.06	
2025-01-12 20:35:22.51	255.42	12.06	
2025-01-12 20:35:22.72	255.46	12.07	
2025-01-12 20:35:22.92	255.50	12.08	
2025-01-12 20:35:23.13	255.55	12.09	
2025-01-12 20:35:23.33	255.59	12.09	
2025-01-12 20:35:23.54	255.63	12.10	
2025-01-12 20:35:23.74	255.67	12.11	
2025-01-12 20:35:23.95	255.72	12.12	
2025-01-12 20:35:24.17	255.76	12.13	
2025-01-12 20:35:24.37	255.80	12.13	
2025-01-12 20:35:24.58	255.85	12.14	
2025-01-12 20:35:24.78	255.89	12.15	
2025-01-12 20:35:24.99	255.93	12.16	
2025-01-12 20:35:25.19	255.97	12.16	
2025-01-12 20:35:25.40	256.02	12.17	
2025-01-12 20:35:25.60	256.06	12.18	
2025-01-12 20:35:25.81	256.10	12.19	
2025-01-12 20:35:26.01	256.14	12.19	
2025-01-12 20:35:26.22	256.19	12.20	
2025-01-12 20:35:26.42	256.23	12.21	
2025-01-12 20:35:26.63	256.27	12.22	
2025-01-12 20:35:26.83	256.32	12.22	
2025-01-12 20:35:27.05	256.36	12.23	
2025-01-12 20:35:27.25	256.40	12.24	
2025-01-12 20:35:27.46	256.45	12.25	
2025-01-12 20:35:27.66	256.49	12.25	
2025-01-12 20:35:27.86	256.53	12.26	
2025-01-12 20:35:28.07	256.57	12.27	
2025-01-12 20:35:28.28	256.62	12.27	
2025-01-12 20:35:28.48	256.66	12.28	
2025-01-12 20:35:28.69	256.70	12.29	
2025-01-12 20:35:28.89	256.75	12.30	
2025-01-12 20:35:29.10	256.79	12.30	
2025-01-12 20:35:29.30	256.83	12.31	
2025-01-12 20:35:29.50	256.87	12.32	
2025-01-12 20:35:29.71	256.92	12.32	
2025-01-12 20:35:29.91	256.96	12.33	
2025-01-12 20:35:30.12	257.01	12.34	
2025-01-12 20:35:30.32	257.05	12.35	
2025-01-12 20:35:30.53	257.09	12.35	
2025-01-12 20:35:30.73	257.13	12.36	
2025-01-12 20:35:30.94	257.18	12.37	
2025-01-12 20:35:31.14	257.22	12.37	
2025-01-12 20:35:31.35	257.26	12.38	
2025-01-12 20:35:31.55	257.31	12.39	
2025-01-12 20:35:31.76	257.35	12.40	
2025-01-12 20:35:31.96	257.39	12.40	
2025-01-12 20:35:32.17	257.44	12.41	
2025-01-12 20:35:32.38	257.48	12.42	
2025-01-12 20:35:32.58	257.52	12.42	
2025-01-12 20:35:32.78	257.57	12.43	
2025-01-12 20:35:32.99	257.61	12.44	
2025-01-12 20:35:33.19	257.65	12.45	
2025-01-12 20:35:33.40	257.70	12.45	
2025-01-12 20:35:33.60	257.74	12.46	
2025-01-12 20:35:33.81	257.79	12.47	
2025-01-12 20:35:34.01	257.83	12.47	
2025-01-12 20:35:34.22	257.87	12.48	
2025-01-12 20:35:34.42	257.91	12.49	
2025-01-12 20:35:34.62	257.96	12.49	
2025-01-12 20:35:34.83	258.00	12.50	
2025-01-12 20:35:35.03	258.04	12.51	
2025-01-12 20:35:35.24	258.09	12.52	
2025-01-12 20:35:35.44	258.13	12.52	
2025-01-12 20:35:35.65	258.18	12.53	
2025-01-12 20:35:35.85	258.22	12.54	
2025-01-12 20:35:36.06	258.26	12.54	
2025-01-12 20:35:36.26	258.31	12.55	
2025-01-12 20:35:36.47	258.35	12.56	
2025-01-12 20:35:36.67	258.39	12.56	
2025-01-12 20:35:36.88	258.44	12.57	
2025-01-12 20:35:37.08	258.48	12.58	
2025-01-12 20:35:37.29	258.53	12.58	
2025-01-12 20:35:37.49	258.57	12.59	
2025-01-12 20:35:37.70	258.62	12.60	
2025-01-12 20:35:37.90	258.66	12.60	
2025-01-12 20:35:38.11	258.70	12.61	
2025-01-12 20:35:38.31	258.75	12.62	
2025-01-12 20:35:38.52	258.79	12.62	
2025-01-12 20:35:38.73	258.84	12.63	
2025-01-12 20:35:38.93	258.88	12.64	
2025-01-12 20:35:39.14	258.92	12.64	
2025-01-12 20:35:39.34	258.97	12.65	
2025-01-12 20:35:39.55	259.01	12.66	
2025-01-12 20:35:39.75	259.06	12.66	
2025-01-12 20:35:39.95	259.10	12.67	
2025-01-12 20:35:40.16	259.14	12.68	
2025-01-12 20:35:40.37	259.19	12.68	
2025-01-12 20:35:40.57	259.23	12.69	
2025-01-12 20:35:40.78	259.28	12.70	
2025-01-12 20:35:40.98	259.32	12.70	
2025-01-12 20:35:41.19	259.37	12.71	
2025-01-12 20:35:41.39	259.41	12.72	
2025-01-12 20:35:41.60	259.45	12.72	
2025-01-12 20:35:41.80	259.50	12.73	
2025-01-12 20:35:42.01	259.54	12.74	
2025-01-12 20:35:42.21	259.59	12.74	
2025-01-12 20:35:42.42	259.63	12.75	
2025-01-12 20:35:42.64	259.68	12.76	
2025-01-12 20:35:42.84	259.72	12.76	
2025-01-12 20:35:43.05	259.77	12.77	
2025-01-12 20:35:43.25	259.81	12.77	
2025-01-12 20:35:43.46	259.86	12.78	
2025-01-12 20:35:43.66	259.90	12.79	
2025-01-12 20:35:43.87	259.95	12.79	
2025-01-12 20:35:44.07	259.99	12.80	
2025-01-12 20:35:44.28	260.04	12.81	
2025-01-12 20:35:44.48	260.08	12.81	
2025-01-12 20:35:44.69	260.13	12.82	
2025-01-12 20:35:44.89	260.17	12.83	
2025-01-12 20:35:45.10	260.21	12.83	
2025-01-12 20:35:45.31	260.26	12.84	
2025-01-12 20:35:45.51	260.30	12.84	
2025-01-12 20:35:45.72	260.35	12.85	
2025-01-12 20:35:45.92	260.39	12.86	
2025-01-12 20:35:46.13	260.44	12.86	
2025-01-12 20:35:46.33	260.48	12.87	
2025-01-12 20:35:46.54	260.53	12.88	
2025-01-12 20:35:46.74	260.57	12.88	
2025-01-12 20:35:46.95	260.62	12.89	
2025-01-12 20:35:47.15	260.66	12.89	
2025-01-12 20:35:47.36	260.71	12.90	
2025-01-12 20:35:47.56	260.75	12.91	
2025-01-12 20:35:47.77	260.80	12.91	
2025-01-12 20:35:47.97	260.84	12.92	
2025-01-12 20:35:48.18	260.89	12.92	
2025-01-12 20:35:48.38	260.93	12.93	
2025-01-12 20:35:48.59	260.98	12.94	
2025-01-12 20:35:48.79	261.02	12.94	
2025-01-12 20:35:49.00	261.07	12.95	
2025-01-12 20:35:49.20	261.11	12.95	
2025-01-12 20:35:49.41	261.16	12.96	
2025-01-12 20:35:49.61	261.20	12.97	
2025-01-12 20:35:49.82	261.25	12.97	
2025-01-12 20:35:50.02	261.29	12.98	
2025-01-12 20:35:50.23	261.34	12.98	
2025-01-12 20:35:50.44	261.38	12.99	
2025-01-12 20:35:50.64	261.43	13.00	
2025-01-12 20:35:50.84	261.47	13.00	
2025-01-12 20:35:51.05	261.52	13.01	
2025-01-12 20:35:51.25	261.56	13.01	
2025-01-12 20:35:51.46	261.61	13.02	
2025-01-12 20:35:51.66	261.65	13.03	
2025-01-12 20:35:51.87	261.70	13.03	
2025-01-12 20:35:52.07	261.74	13.04	
2025-01-12 20:35:52.28	261.79	13.04	
2025-01-12 20:35:52.48	261.83	13.05	
2025-01-12 20:35:52.69	261.88	13.05	
2025-01-12 20:35:52.89	261.93	13.06	
2025-01-12 20:35:53.10	261.97	13.07	
2025-01-12 20:35:53.32	262.02	13.07	
2025-01-12 20:35:53.52	262.07	13.08	
2025-01-12 20:35:53.73	262.11	13.08	
2025-01-12 20:35:53.95	262.16	13.09	
2025-01-12 20:35:54.15	262.20	13.10	
2025-01-12 20:35:54.36	262.25	13.10	
2025-01-12 20:35:54.56	262.30	13.11	
2025-01-12 20:35:54.77	262.34	13.11	
2025-01-12 20:35:54.98	262.39	13.12	
2025-01-12 20:35:55.19	262.44	13.12	
2025-01-12 20:35:55.39	262.48	13.13	
2025-01-12 20:35:55.60	262.53	13.14	
2025-01-12 20:35:55.81	262.57	13.14	
2025-01-12 20:35:56.01	262.62	13.15	
2025-01-12 20:35:56.21	262.66	13.15	
2025-01-12 20:35:56.42	262.71	13.16	
2025-01-12 20:35:56.62	262.75	13.16	
2025-01-12 20:35:56.83	262.80	13.17	
2025-01-12 20:35:57.03	262.85	13.17	
2025-01-12 20:35:57.25	262.89	13.18	
2025-01-12 20:35:57.45	262.94	13.19	
2025-01-12 20:35:57.66	262.99	13.19	
2025-01-12 20:35:57.87	263.03	13.20	
2025-01-12 20:35:58.07	263.08	13.20	
2025-01-12 20:35:58.28	263.13	13.21	
2025-01-12 20:35:58.48	263.17	13.21	
2025-01-12 20:35:58.69	263.22	13.22	
2025-01-12 20:35:58.89	263.26	13.22	
2025-01-12 20:35:59.10	263.31	13.23	
2025-01-12 20:35:59.30	263.35	13.23	
2025-01-12 20:35:59.51	263.40	13.24	
2025-01-12 20:35:59.71	263.45	13.24	
2025-01-12 20:35:59.92	263.49	13.25	
2025-01-12 20:36:00.12	263.54	13.25	
2025-01-12 20:36:00.32	263.58	13.26	
2025-01-12 20:36:00.53	263.63	13.26	
2025-01-12 20:36:00.74	263.68	13.27	
2025-01-12 20:36:00.94	263.72	13.28	
2025-01-12 20:36:01.15	263.77	13.28	
2025-01-12 20:36:01.35	263.81	13.29	
2025-01-12 20:36:01.56	263.86	13.29	
2025-01-12 20:36:01.76	263.91	13.30	
2025-01-12 20:36:01.97	263.95	13.30	
2025-01-12 20:36:02.17	264.00	13.31	
2025-01-12 20:36:02.38	264.05	13.31	
2025-01-12 20:36:02.58	264.09	13.32	
2025-01-12 20:36:02.78	264.14	13.32	
2025-01-12 20:36:02.99	264.18	13.33	
2025-01-12 20:36:03.19	264.23	13.33	
2025-01-12 20:36:03.40	264.28	13.34	
2025-01-12 20:36:03.61	264.32	13.34	
2025-01-12 20:36:03.81	264.37	13.35	
2025-01-12 20:36:04.02	264.42	13.35	
2025-01-12 20:36:04.22	264.46	13.36	
2025-01-12 20:36:04.43	264.51	13.36	
2025-01-12 20:36:04.63	264.55	13.37	
2025-01-12 20:36:04.84	264.60	13.37	
2025-01-12 20:36:05.04	264.65	13.38	
2025-01-12 20:36:05.25	264.69	13.38	
2025-01-12 20:36:05.45	264.74	13.39	
2025-01-12 20:36:05.66	264.79	13.39	
2025-01-12 20:36:05.86	264.83	13.40	
2025-01-12 20:36:06.07	264.88	13.40	
2025-01-12 20:36:06.27	264.92	13.40	
2025-01-12 20:36:06.48	264.97	13.41	
2025-01-12 20:36:06.68	265.02	13.41	
2025-01-12 20:36:06.88	265.06	13.42	
2025-01-12 20:36:07.09	265.11	13.42	
2025-01-12 20:36:07.30	265.16	13.43	
2025-01-12 20:36:07.50	265.20	13.43	
2025-01-12 20:36:07.71	265.25	13.44	
2025-01-12 20:36:07.93	265.30	13.44	
2025-01-12 20:36:08.13	265.35	13.45	
2025-01-12 20:36:08.34	265.40	13.45	
2025-01-12 20:36:08.55	265.44	13.46	
2025-01-12 20:36:08.75	265.49	13.46	
2025-01-12 20:36:08.95	265.53	13.47	
2025-01-12 20:36:09.16	265.58	13.47	
2025-01-12 20:36:09.36	265.63	13.48	
2025-01-12 20:36:09.57	265.68	13.48	
2025-01-12 20:36:09.78	265.72	13.48	
2025-01-12 20:36:09.98	265.77	13.49	
2025-01-12 20:36:10.18	265.81	13.49	
2025-01-12 20:36:10.39	265.86	13.50	
2025-01-12 20:36:10.59	265.91	13.50	
2025-01-12 20:36:10.80	265.96	13.51	
2025-01-12 20:36:11.00	266.00	13.51	
2025-01-12 20:36:11.21	266.05	13.52	
2025-01-12 20:36:11.41	266.10	13.52	
2025-01-12 20:36:11.62	266.14	13.52	
2025-01-12 20:36:11.82	266.19	13.53	
2025-01-12 20:36:12.03	266.24	13.53	
2025-01-12 20:36:12.23	266.28	13.54	
2025-01-12 20:36:12.44	266.33	13.54	
2025-01-12 20:36:12.64	266.38	13.55	
2025-01-12 20:36:12.85	266.42	13.55	
2025-01-12 20:36:13.05	266.47	13.55	
2025-01-12 20:36:13.26	266.52	13.56	
2025-01-12 20:36:13.46	266.56	13.56	
2025-01-12 20:36:13.67	266.61	13.57	
2025-01-12 20:36:13.87	266.66	13.57	
2025-01-12 20:36:14.08	266.71	13.58	
2025-01-12 20:36:14.28	266.75	13.58	
2025-01-12 20:36:14.49	266.80	13.58	
2025-01-12 20:36:14.69	266.85	13.59	
2025-01-12 20:36:14.90	266.90	13.59	
2025-01-12 20:36:15.10	266.94	13.60	
2025-01-12 20:36:15.31	266.99	13.60	
2025-01-12 20:36:15.51	267.04	13.60	
2025-01-12 20:36:15.72	267.08	13.61	
2025-01-12 20:36:15.92	267.13	13.61	
2025-01-12 20:36:16.13	267.18	13.62	
2025-01-12 20:36:16.33	267.22	13.62	
2025-01-12 20:36:16.55	267.27	13.63	
2025-01-12 20:36:16.76	267.32	13.63	
2025-01-12 20:36:16.96	267.37	13.63	
2025-01-12 20:36:17.17	267.42	13.64	
2025-01-12 20:36:17.37	267.46	13.64	
2025-01-12 20:36:17.58	267.51	13.64	
2025-01-12 20:36:17.78	267.56	13.65	
2025-01-12 20:36:17.99	267.61	13.65	
2025-01-12 20:36:18.20	267.66	13.66	
2025-01-12 20:36:18.40	267.70	13.66	
2025-01-12 20:36:18.62	267.75	13.66	
2025-01-12 20:36:18.82	267.80	13.67	
2025-01-12 20:36:19.03	267.85	13.67	
2025-01-12 20:36:19.23	267.89	13.68	
2025-01-12 20:36:19.44	267.94	13.68	
2025-01-12 20:36:19.66	267.99	13.68	
2025-01-12 20:36:19.86	268.04	13.69	
2025-01-12 20:36:20.06	268.08	13.69	
2025-01-12 20:36:20.27	268.13	13.69	
2025-01-12 20:36:20.48	268.18	13.70	
2025-01-12 20:36:20.69	268.23	13.70	
2025-01-12 20:36:20.90	268.28	13.71	
2025-01-12 20:36:21.11	268.33	13.71	
2025-01-12 20:36:21.31	268.37	13.71	
2025-01-12 20:36:21.52	268.42	13.72	
2025-01-12 20:36:21.72	268.47	13.72	
2025-01-12 20:36:21.93	268.52	13.72	
2025-01-12 20:36:22.13	268.56	13.73	
2025-01-12 20:36:22.34	268.61	13.73	
2025-01-12 20:36:22.54	268.66	13.73	
2025-01-12 20:36:22.75	268.71	13.74	
2025-01-12 20:36:22.96	268.76	13.74	
2025-01-12 20:36:23.16	268.80	13.75	
2025-01-12 20:36:23.37	268.85	13.75	
2025-01-12 20:36:23.57	268.90	13.75	
2025-01-12 20:36:23.78	268.95	13.76	
2025-01-12 20:36:23.98	268.99	13.76	
2025-01-12 20:36:24.19	269.04	13.76	
2025-01-12 20:36:24.39	269.09	13.77	
2025-01-12 20:36:24.60	269.14	13.77	
2025-01-12 20:36:24.81	269.19	13.77	
2025-01-12 20:36:25.01	269.23	13.78	
2025-01-12 20:36:25.22	269.28	13.78	
2025-01-12 20:36:25.42	269.33	13.78	
2025-01-12 20:36:25.63	269.38	13.79	
2025-01-12 20:36:25.84	269.43	13.79	
2025-01-12 20:36:26.04	269.47	13.79	
2025-01-12 20:36:26.25	269.52	13.80	
2025-01-12 20:36:26.45	269.57	13.80	
2025-01-12 20:36:26.66	269.62	13.80	
2025-01-12 20:36:26.86	269.66	13.80	
2025-01-12 20:36:27.07	269.71	13.81	
2025-01-12 20:36:27.27	269.76	13.81	
2025-01-12 20:36:27.48	269.81	13.81	
2025-01-12 20:36:27.68	269.86	13.82	
2025-01-12 20:36:27.89	269.90	13.82	
2025-01-12 20:36:28.09	269.95	13.82	
2025-01-12 20:36:28.30	270.00	13.83	
2025-01-12 20:36:28.50	270.05	13.83	
2025-01-12 20:36:28.71	270.10	13.83	
2025-01-12 20:36:28.92	270.15	13.84	
2025-01-12 20:36:29.12	270.19	13.84	
2025-01-12 20:36:29.34	270.24	13.84	
2025-01-12 20:36:29.55	270.29	13.84	
2025-01-12 20:36:29.75	270.34	13.85	
2025-01-12 20:36:29.96	270.39	13.85	
2025-01-12 20:36:30.16	270.44	13.85	
2025-01-12 20:36:30.37	270.48	13.86	
2025-01-12 20:36:30.57	270.53	13.86	
2025-01-12 20:36:30.78	270.58	13.86	
2025-01-12 20:36:30.99	270.63	13.86	
2025-01-12 20:36:31.19	270.68	13.87	
2025-01-12 20:36:31.39	270.72	13.87	
2025-01-12 20:36:31.60	270.77	13.87	
2025-01-12 20:36:31.80	270.82	13.88	
2025-01-12 20:36:32.01	270.87	13.88	
2025-01-12 20:36:32.22	270.92	13.88	
2025-01-12 20:36:32.42	270.96	13.88	
2025-01-12 20:36:32.62	271.01	13.89	
2025-01-12 20:36:32.83	271.06	13.89	
2025-01-12 20:36:33.04	271.11	13.89	
2025-01-12 20:36:33.24	271.16	13.89	
2025-01-12 20:36:33.45	271.21	13.90	
2025-01-12 20:36:33.65	271.25	13.90	
2025-01-12 20:36:33.86	271.30	13.90	
2025-01-12 20:36:34.06	271.35	13.90	
2025-01-12 20:36:34.27	271.40	13.91	
2025-01-12 20:36:34.47	271.45	13.91	
2025-01-12 20:36:34.68	271.49	13.91	
2025-01-12 20:36:34.88	271.54	13.91	
2025-01-12 20:36:35.09	271.59	13.92	
2025-01-12 20:36:35.30	271.64	13.92	
2025-01-12 20:36:35.50	271.69	13.92	
2025-01-12 20:36:35.70	271.73	13.92	
2025-01-12 20:36:35.91	271.78	13.93	
2025-01-12 20:36:36.11	271.83	13.93	
2025-01-12 20:36:36.32	271.88	13.93	
2025-01-12 20:36:36.53	271.93	13.93	
2025-01-12 20:36:36.73	271.98	13.94	
2025-01-12 20:36:36.93	272.02	13.94	
2025-01-12 20:36:37.14	272.07	13.94	
2025-01-12 20:36:37.35	272.12	13.94	
2025-01-12 20:36:37.55	272.17	13.94	
2025-01-12 20:36:37.76	272.22	13.95	
2025-01-12 20:36:37.96	272.27	13.95	
2025-01-12 20:36:38.17	272.32	13.95	
2025-01-12 20:36:38.37	272.36	13.95	
2025-01-12 20:36:38.58	272.41	13.96	
2025-01-12 20:36:38.78	272.46	13.96	
2025-01-12 20:36:38.99	272.51	13.96	
2025-01-12 20:36:39.19	272.56	13.96	
2025-01-12 20:36:39.40	272.61	13.96	
2025-01-12 20:36:39.60	272.65	13.97	
2025-01-12 20:36:39.81	272.70	13.97	
2025-01-12 20:36:40.01	272.75	13.97	
2025-01-12 20:36:40.22	272.80	13.97	
2025-01-12 20:36:40.42	272.85	13.97	
2025-01-12 20:36:40.63	272.90	13.98	
2025-01-12 20:36:40.84	272.94	13.98	
2025-01-12 20:36:41.05	272.99	13.98	
2025-01-12 20:36:41.26	273.04	13.98	
2025-01-12 20:36:41.47	273.09	13.98	
2025-01-12 20:36:41.68	273.14	13.99	
2025-01-12 20:36:41.89	273.19	13.99	
2025-01-12 20:36:42.11	273.24	13.99	
2025-01-12 20:36:42.31	273.29	13.99	
2025-01-12 20:36:42.51	273.34	13.99	
2025-01-12 20:36:42.72	273.39	14.00	
2025-01-12 20:36:42.93	273.44	14.00	
2025-01-12 20:36:43.13	273.49	14.00	
2025-01-12 20:36:43.33	273.53	14.00	
2025-01-12 20:36:43.54	273.58	14.00	
2025-01-12 20:36:43.75	273.63	14.00	
2025-01-12 20:36:43.95	273.68	14.01	
2025-01-12 20:36:44.16	273.73	14.01	
2025-01-12 20:36:44.36	273.78	14.01	
2025-01-12 20:36:44.57	273.83	14.01	
2025-01-12 20:36:44.77	273.87	14.01	
2025-01-12 20:36:44.98	273.92	14.01	
2025-01-12 20:36:45.18	273.97	14.02	
2025-01-12 20:36:45.39	274.02	14.02	
2025-01-12 20:36:45.59	274.07	14.02	
2025-01-12 20:36:45.80	274.12	14.02	
2025-01-12 20:36:46.01	274.17	14.02	
2025-01-12 20:36:46.21	274.21	14.02	
2025-01-12 20:36:46.42	274.26	14.03	
2025-01-12 20:36:46.62	274.31	14.03	
2025-01-12 20:36:46.83	274.36	14.03	
2025-01-12 20:36:47.03	274.41	14.03	
2025-01-12 20:36:47.24	274.46	14.03	
2025-01-12 20:36:47.44	274.51	14.03	
2025-01-12 20:36:47.65	274.55	14.03	
2025-01-12 20:36:47.85	274.60	14.03	
2025-01-12 20:36:48.06	274.65	14.04	
2025-01-12 20:36:48.26	274.70	14.04	
2025-01-12 20:36:48.47	274.75	14.04	
2025-01-12 20:36:48.67	274.80	14.04	
2025-01-12 20:36:48.88	274.85	14.04	
2025-01-12 20:36:49.09	274.90	14.04	
2025-01-12 20:36:49.29	274.94	14.04	
2025-01-12 20:36:49.49	274.99	14.04	
2025-01-12 20:36:49.70	275.04	14.05	
2025-01-12 20:36:49.91	275.09	14.05	
2025-01-12 20:36:50.11	275.14	14.05	
2025-01-12 20:36:50.31	275.19	14.05	
2025-01-12 20:36:50.52	275.23	14.05	
2025-01-12 20:36:50.72	275.28	14.05	
2025-01-12 20:36:50.93	275.33	14.05	
2025-01-12 20:36:51.14	275.38	14.05	
2025-01-12 20:36:51.34	275.43	14.05	
2025-01-12 20:36:51.55	275.48	14.06	
2025-01-12 20:36:51.76	275.53	14.06	
2025-01-12 20:36:51.97	275.58	14.06	
2025-01-12 20:36:52.17	275.63	14.06	
2025-01-12 20:36:52.38	275.68	14.06	
2025-01-12 20:36:52.58	275.72	14.06	
2025-01-12 20:36:52.79	275.77	14.06	
2025-01-12 20:36:52.99	275.82	14.06	
2025-01-12 20:36:53.20	275.87	14.06	
2025-01-12 20:36:53.41	275.92	14.06	
2025-01-12 20:36:53.61	275.97	14.07	
2025-01-12 20:36:53.83	276.02	14.07	
2025-01-12 20:36:54.03	276.07	14.07	
2025-01-12 20:36:54.24	276.12	14.07	
2025-01-12 20:36:54.46	276.17	14.07	
2025-01-12 20:36:54.66	276.22	14.07	
2025-01-12 20:36:54.88	276.27	14.07	
2025-01-12 20:36:55.08	276.32	14.07	
2025-01-12 20:36:55.29	276.37	14.07	
2025-01-12 20:36:55.49	276.41	14.07	
2025-01-12 20:36:55.70	276.46	14.07	
2025-01-12 20:36:55.90	276.51	14.07	
2025-01-12 20:36:56.11	276.56	14.07	
2025-01-12 20:36:56.32	276.61	14.07	
2025-01-12 20:36:56.52	276.66	14.08	
2025-01-12 20:36:56.73	276.71	14.08	
2025-01-12 20:36:56.93	276.76	14.08	
2025-01-12 20:36:57.14	276.81	14.08	
2025-01-12 20:36:57.34	276.85	14.08	
2025-01-12 20:36:57.55	276.90	14.08	
2025-01-12 20:36:57.76	276.95	14.08	
2025-01-12 20:36:57.96	277.00	14.08	
2025-01-12 20:36:58.17	277.05	14.08	
2025-01-12 20:36:58.37	277.10	14.08	
2025-01-12 20:36:58.58	277.15	14.08	
2025-01-12 20:36:58.78	277.20	14.08	
2025-01-12 20:36:58.99	277.25	14.08	
2025-01-12 20:36:59.19	277.29	14.08	
2025-01-12 20:36:59.40	277.34	14.08	
2025-01-12 20:36:59.60	277.39	14.08	
2025-01-12 20:36:59.81	277.44	14.08	
2025-01-12 20:37:00.01	277.49	14.08	
2025-01-12 20:37:00.21	277.54	14.08	
2025-01-12 20:37:00.42	277.59	14.08	
2025-01-12 20:37:00.63	277.63	14.08	
2025-01-12 20:37:00.83	277.68	14.08	
2025-01-12 20:37:01.04	277.73	14.08	
2025-01-12 20:37:01.24	277.78	14.08	
2025-01-12 20:37:01.44	277.83	14.08	
2025-01-12 20:37:01.65	277.88	14.08	
2025-01-12 20:37:01.86	277.93	14.08	
2025-01-12 20:37:02.06	277.97	14.08	
2025-01-12 20:37:02.27	278.02	14.08	
2025-01-12 20:37:02.47	278.07	14.08	
2025-01-12 20:37:02.68	278.12	14.08	
2025-01-12 20:37:02.88	278.17	14.08	
2025-01-12 20:37:03.09	278.22	14.08	
2025-01-12 20:37:03.29	278.27	14.08	
2025-01-12 20:37:03.50	278.32	14.08	
2025-01-12 20:37:03.70	278.36	14.08	
2025-01-12 20:37:03.91	278.41	14.08	
2025-01-12 20:37:04.12	278.46	14.08	
2025-01-12 20:37:04.32	278.51	14.08	
2025-01-12 20:37:04.52	278.56	14.08	
2025-01-12 20:37:04.73	278.61	14.08	
2025-01-12 20:37:04.94	278.66	14.08	
2025-01-12 20:37:05.14	278.71	14.08	
2025-01-12 20:37:05.35	278.76	14.08	
2025-01-12 20:37:05.55	278.80	14.08	
2025-01-12 20:37:05.75	278.85	14.08	
2025-01-12 20:37:05.96	278.90	14.08	
2025-01-12 20:37:06.17	278.95	14.08	
2025-01-12 20:37:06.37	279.00	14.08	
2025-01-12 20:37:06.57	279.05	14.08	
2025-01-12 20:37:06.78	279.10	14.08	
2025-01-12 20:37:06.99	279.15	14.08	
2025-01-12 20:37:07.19	279.19	14.08	
2025-01-12 20:37:07.40	279.24	14.08	
2025-01-12 20:37:07.60	279.29	14.08	
2025-01-12 20:37:07.81	279.34	14.08	
2025-01-12 20:37:08.01	279.39	14.08	
2025-01-12 20:37:08.22	279.44	14.08	
2025-01-12 20:37:08.42	279.49	14.08	
2025-01-12 20:37:08.63	279.54	14.08	
2025-01-12 20:37:08.83	279.58	14.08	
2025-01-12 20:37:09.04	279.63	14.08	
2025-01-12 20:37:09.24	279.68	14.08	
2025-01-12 20:37:09.45	279.73	14.07	
2025-01-12 20:37:09.65	279.78	14.07	
2025-01-12 20:37:09.86	279.83	14.07	
2025-01-12 20:37:10.07	279.88	14.07	
2025-01-12 20:37:10.27	279.92	14.07	
2025-01-12 20:37:10.48	279.97	14.07	
2025-01-12 20:37:10.68	280.02	14.07	
2025-01-12 20:37:10.89	280.07	14.07	
2025-01-12 20:37:11.09	280.12	14.07	
2025-01-12 20:37:11.29	280.17	14.07	
2025-01-12 20:37:11.50	280.22	14.07	
2025-01-12 20:37:11.70	280.26	14.07	
2025-01-12 20:37:11.91	280.31	14.07	
2025-01-12 20:37:12.11	280.36	14.07	
2025-01-12 20:37:12.32	280.41	14.06	
2025-01-12 20:37:12.52	280.46	14.06	
2025-01-12 20:37:12.73	280.51	14.06	
2025-01-12 20:37:12.93	280.56	14.06	
2025-01-12 20:37:13.13	280.60	14.06	
2025-01-12 20:37:13.34	280.65	14.06	
2025-01-12 20:37:13.55	280.70	14.06	
2025-01-12 20:37:13.75	280.75	14.06	
2025-01-12 20:37:13.96	280.80	14.06	
2025-01-12 20:37:14.16	280.85	14.06	
2025-01-12 20:37:14.36	280.89	14.06	
2025-01-12 20:37:14.57	280.94	14.05	
2025-01-12 20:37:14.78	280.99	14.05	
2025-01-12 20:37:14.98	281.04	14.05	
2025-01-12 20:37:15.19	281.09	14.05	
2025-01-12 20:37:15.39	281.14	14.05	
2025-01-12 20:37:15.60	281.19	14.05	
2025-01-12 20:37:15.80	281.24	14.05	
2025-01-12 20:37:16.01	281.29	14.05	
2025-01-12 20:37:16.21	281.33	14.05	
2025-01-12 20:37:16.42	281.38	14.04	
2025-01-12 20:37:16.63	281.43	14.04	
2025-01-12 20:37:16.83	281.48	14.04	
2025-01-12 20:37:17.04	281.53	14.04	
2025-01-12 20:37:17.24	281.58	14.04	
2025-01-12 20:37:17.45	281.63	14.04	
2025-01-12 20:37:17.65	281.67	14.04	
2025-01-12 20:37:17.86	281.72	14.04	
2025-01-12 20:37:18.06	281.77	14.03	
2025-01-12 20:37:18.27	281.82	14.03	
2025-01-12 20:37:18.47	281.87	14.03	
2025-01-12 20:37:18.68	281.92	14.03	
2025-01-12 20:37:18.88	281.96	14.03	
2025-01-12 20:37:19.09	282.01	14.03	
2025-01-12 20:37:19.29	282.06	14.03	
2025-01-12 20:37:19.50	282.11	14.02	
2025-01-12 20:37:19.70	282.16	14.02	
2025-01-12 20:37:19.91	282.21	14.02	
2025-01-12 20:37:20.11	282.26	14.02	
2025-01-12 20:37:20.32	282.31	14.02	
2025-01-12 20:37:20.52	282.35	14.02	
2025-01-12 20:37:20.73	282.40	14.02	
2025-01-12 20:37:20.94	282.45	14.01	
2025-01-12 20:37:21.14	282.50	14.01	
2025-01-12 20:37:21.35	282.55	14.01	
2025-01-12 20:37:21.56	282.60	14.01	
2025-01-12 20:37:21.77	282.65	14.01	
2025-01-12 20:37:21.97	282.70	14.01	
2025-01-12 20:37:22.18	282.74	14.00	
2025-01-12 20:37:22.38	282.79	14.00	
2025-01-12 20:37:22.59	282.84	14.00	
2025-01-12 20:37:22.79	282.89	14.00	
2025-01-12 20:37:23.00	282.94	14.00	
2025-01-12 20:37:23.20	282.99	13.99	
2025-01-12 20:37:23.41	283.04	13.99	
2025-01-12 20:37:23.61	283.08	13.99	
2025-01-12 20:37:23.81	283.13	13.99	
2025-01-12 20:37:24.02	283.18	13.99	
2025-01-12 20:37:24.23	283.23	13.99	
2025-01-12 20:37:24.43	283.28	13.98	
2025-01-12 20:37:24.64	283.33	13.98	
2025-01-12 20:37:24.84	283.37	13.98	
2025-01-12 20:37:25.05	283.42	13.98	
2025-01-12 20:37:25.25	283.47	13.98	
2025-01-12 20:37:25.46	283.52	13.97	
2025-01-12 20:37:25.66	283.57	13.97	
2025-01-12 20:37:25.87	283.61	13.97	
2025-01-12 20:37:26.07	283.66	13.97	
2025-01-12 20:37:26.28	283.71	13.97	
2025-01-12 20:37:26.48	283.76	13.96	
2025-01-12 20:37:26.69	283.81	13.96	
2025-01-12 20:37:26.89	283.86	13.96	
2025-01-12 20:37:27.10	283.90	13.96	
2025-01-12 20:37:27.30	283.95	13.96	
2025-01-12 20:37:27.51	284.00	13.95	
2025-01-12 20:37:27.72	284.05	13.95	
2025-01-12 20:37:27.92	284.10	13.95	
2025-01-12 20:37:28.13	284.15	13.95	
2025-01-12 20:37:28.33	284.19	13.94	
2025-01-12 20:37:28.54	284.24	13.94	
2025-01-12 20:37:28.74	284.29	13.94	
2025-01-12 20:37:28.95	284.34	13.94	
2025-01-12 20:37:29.15	284.39	13.94	
2025-01-12 20:37:29.36	284.44	13.93	
2025-01-12 20:37:29.56	284.48	13.93	
2025-01-12 20:37:29.77	284.53	13.93	
2025-01-12 20:37:29.97	284.58	13.93	
2025-01-12 20:37:30.18	284.63	13.92	
2025-01-12 20:37:30.38	284.68	13.92	
2025-01-12 20:37:30.59	284.72	13.92	
2025-01-12 20:37:30.79	284.77	13.92	
2025-01-12 20:37:31.00	284.82	13.91	
2025-01-12 20:37:31.20	284.87	13.91	
2025-01-12 20:37:31.40	284.91	13.91	
2025-01-12 20:37:31.61	284.96	13.91	
2025-01-12 20:37:31.82	285.01	13.90	
2025-01-12 20:37:32.02	285.06	13.90	
2025-01-12 20:37:32.22	285.11	13.90	
2025-01-12 20:37:32.43	285.16	13.90	
2025-01-12 20:37:32.63	285.20	13.89	
2025-01-12 20:37:32.84	285.25	13.89	
2025-01-12 20:37:33.04	285.30	13.89	
2025-01-12 20:37:33.25	285.35	13.89	
2025-01-12 20:37:33.45	285.39	13.88	
2025-01-12 20:37:33.66	285.44	13.88	
2025-01-12 20:37:33.86	285.49	13.88	
2025-01-12 20:37:34.07	285.54	13.88	
2025-01-12 20:37:34.27	285.59	13.87	
2025-01-12 20:37:34.48	285.64	13.87	
2025-01-12 20:37:34.68	285.68	13.87	
2025-01-12 20:37:34.89	285.73	13.86	
2025-01-12 20:37:35.10	285.78	13.86	
2025-01-12 20:37:35.30	285.83	13.86	
2025-01-12 20:37:35.52	285.88	13.86	
2025-01-12 20:37:35.72	285.93	13.85	
2025-01-12 20:37:35.93	285.97	13.85	
2025-01-12 20:37:36.14	286.02	13.85	
2025-01-12 20:37:36.34	286.07	13.84	
2025-01-12 20:37:36.55	286.12	13.84	
2025-01-12 20:37:36.75	286.17	13.84	
2025-01-12 20:37:36.96	286.21	13.83	
2025-01-12 20:37:37.16	286.26	13.83	
2025-01-12 20:37:37.37	286.31	13.83	
2025-01-12 20:37:37.57	286.36	13.83	
2025-01-12 20:37:37.78	286.41	13.82	
2025-01-12 20:37:37.98	286.45	13.82	
2025-01-12 20:37:38.18	286.50	13.82	
2025-01-12 20:37:38.39	286.55	13.81	
2025-01-12 20:37:38.59	286.59	13.81	
2025-01-12 20:37:38.80	286.64	13.81	
2025-01-12 20:37:39.01	286.69	13.80	
2025-01-12 20:37:39.21	286.74	13.80	
2025-01-12 20:37:39.42	286.79	13.80	
2025-01-12 20:37:39.62	286.83	13.79	
2025-01-12 20:37:39.83	286.88	13.79	
2025-01-12 20:37:40.03	286.93	13.79	
2025-01-12 20:37:40.24	286.98	13.79	
2025-01-12 20:37:40.44	287.02	13.78	
2025-01-12 20:37:40.65	287.07	13.78	
2025-01-12 20:37:40.85	287.12	13.78	
2025-01-12 20:37:41.06	287.17	13.77	
2025-01-12 20:37:41.26	287.22	13.77	
2025-01-12 20:37:41.47	287.26	13.77	
2025-01-12 20:37:41.67	287.31	13.76	
2025-01-12 20:37:41.88	287.36	13.76	
2025-01-12 20:37:42.08	287.41	13.76	
2025-01-12 20:37:42.29	287.45	13.75	
2025-01-12 20:37:42.49	287.50	13.75	
2025-01-12 20:37:42.70	287.55	13.75	
2025-01-12 20:37:42.90	287.60	13.74	
2025-01-12 20:37:43.11	287.64	13.74	
2025-01-12 20:37:43.31	287.69	13.73	
2025-01-12 20:37:43.52	287.74	13.73	
2025-01-12 20:37:43.72	287.79	13.73	
2025-01-12 20:37:43.93	287.83	13.72	
2025-01-12 20:37:44.13	287.88	13.72	
2025-01-12 20:37:44.34	287.93	13.72	
2025-01-12 20:37:44.55	287.98	13.71	
2025-01-12 20:37:44.75	288.02	13.71	
2025-01-12 20:37:44.95	288.07	13.71	
2025-01-12 20:37:45.16	288.12	13.70	
2025-01-12 20:37:45.36	288.16	13.70	
2025-01-12 20:37:45.57	288.21	13.70	
2025-01-12 20:37:45.77	288.26	13.69	
2025-01-12 20:37:45.98	288.31	13.69	
2025-01-12 20:37:46.18	288.35	13.68	
2025-01-12 20:37:46.39	288.40	13.68	
2025-01-12 20:37:46.59	288.45	13.68	
2025-01-12 20:37:46.80	288.50	13.67	
2025-01-12 20:37:47.00	288.54	13.67	
2025-01-12 20:37:47.21	288.59	13.67	
2025-01-12 20:37:47.41	288.64	13.66	
2025-01-12 20:37:47.62	288.69	13.66	
2025-01-12 20:37:47.82	288.73	13.65	
2025-01-12 20:37:48.03	288.78	13.65	
2025-01-12 20:37:48.23	288.83	13.65	
2025-01-12 20:37:48.43	288.87	13.64	
2025-01-12 20:37:48.64	288.92	13.64	
2025-01-12 20:37:48.85	288.97	13.63	
2025-01-12 20:37:49.05	289.01	13.63	
2025-01-12 20:37:49.26	289.06	13.63	
2025-01-12 20:37:49.46	289.11	13.62	
2025-01-12 20:37:49.67	289.16	13.62	
2025-01-12 20:37:49.87	289.20	13.61	
2025-01-12 20:37:50.08	289.25	13.61	
2025-01-12 20:37:50.28	289.30	13.61	
2025-01-12 20:37:50.49	289.35	13.60	
2025-01-12 20:37:50.69	289.39	13.60	
2025-01-12 20:37:50.90	289.44	13.59	
2025-01-12 20:37:51.10	289.49	13.59	
2025-01-12 20:37:51.30	289.53	13.59	
2025-01-12 20:37:51.51	289.58	13.58	
2025-01-12 20:37:51.71	289.62	13.58	
2025-01-12 20:37:51.92	289.67	13.57	
2025-01-12 20:37:52.12	289.72	13.57	
2025-01-12 20:37:52.33	289.77	13.57	
2025-01-12 20:37:52.53	289.81	13.56	
2025-01-12 20:37:52.74	289.86	13.56	
2025-01-12 20:37:52.94	289.91	13.55	
2025-01-12 20:37:53.15	289.95	13.55	
2025-01-12 20:37:53.35	290.00	13.54	
2025-01-12 20:37:53.55	290.05	13.54	
2025-01-12 20:37:53.76	290.09	13.54	
2025-01-12 20:37:53.97	290.14	13.53	
2025-01-12 20:37:54.17	290.19	13.53	
2025-01-12 20:37:54.38	290.24	13.52	
2025-01-12 20:37:54.58	290.28	13.52	
2025-01-12 20:37:54.78	290.33	13.51	
2025-01-12 20:37:54.99	290.37	13.51	
2025-01-12 20:37:55.19	290.42	13.50	
2025-01-12 20:37:55.40	290.47	13.50	
2025-01-12 20:37:55.60	290.51	13.50	
2025-01-12 20:37:55.81	290.56	13.49	
2025-01-12 20:37:56.01	290.61	13.49	
2025-01-12 20:37:56.22	290.65	13.48	
2025-01-12 20:37:56.42	290.70	13.48	
2025-01-12 20:37:56.63	290.75	13.47	
2025-01-12 20:37:56.85	290.80	13.47	
2025-01-12 20:37:57.05	290.84	13.46	
2025-01-12 20:37:57.26	290.89	13.46	
2025-01-12 20:37:57.47	290.94	13.45	
2025-01-12 20:37:57.67	290.98	13.45	
2025-01-12 20:37:57.89	291.03	13.45	
2025-01-12 20:37:58.10	291.08	13.44	
2025-01-12 20:37:58.30	291.13	13.44	
2025-01-12 20:37:58.51	291.17	13.43	
2025-01-12 20:37:58.71	291.22	13.43	
2025-01-12 20:37:58.92	291.27	13.42	
2025-01-12 20:37:59.12	291.31	13.42	
2025-01-12 20:37:59.33	291.36	13.41	
2025-01-12 20:37:59.53	291.40	13.41	
2025-01-12 20:37:59.74	291.45	13.40	
2025-01-12 20:37:59.94	291.50	13.40	
2025-01-12 20:38:00.14	291.54	13.39	
2025-01-12 20:38:00.35	291.59	13.39	
2025-01-12 20:38:00.55	291.64	13.38	
2025-01-12 20:38:00.76	291.68	13.38	
2025-01-12 20:38:00.96	291.73	13.37	
2025-01-12 20:38:01.17	291.78	13.37	
2025-01-12 20:38:01.37	291.82	13.36	
2025-01-12 20:38:01.58	291.87	13.36	
2025-01-12 20:38:01.78	291.91	13.35	
2025-01-12 20:38:01.99	291.96	13.35	
2025-01-12 20:38:02.20	292.01	13.34	
2025-01-12 20:38:02.40	292.05	13.34	
2025-01-12 20:38:02.61	292.10	13.33	
2025-01-12 20:38:02.81	292.14	13.33	
2025-01-12 20:38:03.02	292.19	13.32	
2025-01-12 20:38:03.24	292.24	13.32	
2025-01-12 20:38:03.44	292.29	13.31	
2025-01-12 20:38:03.65	292.33	13.31	
2025-01-12 20:38:03.85	292.38	13.30	
2025-01-12 20:38:04.06	292.43	13.30	
2025-01-12 20:38:04.26	292.47	13.29	
2025-01-12 20:38:04.47	292.52	13.29	
2025-01-12 20:38:04.67	292.56	13.28	
2025-01-12 20:38:04.88	292.61	13.28	
2025-01-12 20:38:05.08	292.65	13.27	
2025-01-12 20:38:05.29	292.70	13.27	
2025-01-12 20:38:05.49	292.75	13.26	
2025-01-12 20:38:05.70	292.79	13.26	
2025-01-12 20:38:05.90	292.84	13.25	
2025-01-12 20:38:06.11	292.88	13.25	
2025-01-12 20:38:06.31	292.93	13.24	
2025-01-12 20:38:06.51	292.97	13.24	
2025-01-12 20:38:06.72	293.02	13.23	
2025-01-12 20:38:06.93	293.07	13.23	
2025-01-12 20:38:07.13	293.11	13.22	
2025-01-12 20:38:07.34	293.16	13.22	
2025-01-12 20:38:07.56	293.21	13.21	
2025-01-12 20:38:07.76	293.25	13.20	
2025-01-12 20:38:07.97	293.30	13.20	
2025-01-12 20:38:08.17	293.34	13.19	
2025-01-12 20:38:08.38	293.39	13.19	
2025-01-12 20:38:08.58	293.44	13.18	
2025-01-12 20:38:08.79	293.48	13.18	
2025-01-12 20:38:09.00	293.53	13.17	
2025-01-12 20:38:09.20	293.57	13.17	
2025-01-12 20:38:09.41	293.62	13.16	
2025-01-12 20:38:09.63	293.67	13.15	
2025-01-12 20:38:09.83	293.71	13.15	
2025-01-12 20:38:10.04	293.76	13.14	
