passes_logs/2025/01/12/SPB_Silybum_02/SPB_Silybum_02__20250112_154113_TERRA_rec.log

#Pass ID: 20250112_154113_TERRA
#Satellite: TERRA
#Configuration: TERRA
#Start time: 2025-01-12 15:41:11

#Version: 2.0.20230423
#Station: SPB_Silybum_02
#Location: 30.233357 lon 59.946436 lat
#TLE: 1 25994U 99068A   25011.77277381  .00000769  00000+0  16824-3 0  9997
#TLE: 2 25994  98.0222  74.9057 0003526  79.1717  32.7508 14.60388914333608

#Time	Az	El	Level	Level2	SNR	BER	Gain	Gain2
2025-01-12 15:41:13.50	72.29	4.01	
2025-01-12 15:41:13.71	72.26	4.02	
2025-01-12 15:41:13.91	72.24	4.03	
2025-01-12 15:41:14.12	72.21	4.04	
2025-01-12 15:41:14.32	72.19	4.05	
2025-01-12 15:41:14.53	72.16	4.06	
2025-01-12 15:41:14.73	72.13	4.07	
2025-01-12 15:41:14.94	72.11	4.08	
2025-01-12 15:41:15.14	72.08	4.09	
2025-01-12 15:41:15.35	72.05	4.10	
2025-01-12 15:41:15.57	72.03	4.11	
2025-01-12 15:41:15.77	72.00	4.12	
2025-01-12 15:41:15.98	71.97	4.13	
2025-01-12 15:41:16.18	71.95	4.13	
2025-01-12 15:41:16.39	71.92	4.14	
2025-01-12 15:41:16.59	71.89	4.15	
2025-01-12 15:41:16.80	71.87	4.16	
2025-01-12 15:41:17.00	71.84	4.17	
2025-01-12 15:41:17.21	71.81	4.18	
2025-01-12 15:41:17.41	71.79	4.19	
2025-01-12 15:41:17.62	71.76	4.20	
2025-01-12 15:41:17.83	71.73	4.21	
2025-01-12 15:41:18.03	71.71	4.22	
2025-01-12 15:41:18.24	71.68	4.23	
2025-01-12 15:41:18.44	71.65	4.24	
2025-01-12 15:41:18.65	71.63	4.25	
2025-01-12 15:41:18.85	71.60	4.25	
2025-01-12 15:41:19.06	71.57	4.26	
2025-01-12 15:41:19.26	71.55	4.27	
2025-01-12 15:41:19.47	71.52	4.28	
2025-01-12 15:41:19.68	71.49	4.29	
2025-01-12 15:41:19.88	71.46	4.30	
2025-01-12 15:41:20.09	71.44	4.31	
2025-01-12 15:41:20.29	71.41	4.32	
2025-01-12 15:41:20.50	71.38	4.33	
2025-01-12 15:41:20.70	71.36	4.34	
2025-01-12 15:41:20.92	71.33	4.35	
2025-01-12 15:41:21.12	71.30	4.36	
2025-01-12 15:41:21.33	71.27	4.36	
2025-01-12 15:41:21.54	71.25	4.37	
2025-01-12 15:41:21.74	71.22	4.38	
2025-01-12 15:41:21.94	71.19	4.39	
2025-01-12 15:41:22.15	71.17	4.40	
2025-01-12 15:41:22.36	71.14	4.41	
2025-01-12 15:41:22.56	71.11	4.42	
2025-01-12 15:41:22.77	71.08	4.43	
2025-01-12 15:41:22.97	71.06	4.44	
2025-01-12 15:41:23.18	71.03	4.45	
2025-01-12 15:41:23.38	71.00	4.46	
2025-01-12 15:41:23.59	70.98	4.47	
2025-01-12 15:41:23.80	70.95	4.47	
2025-01-12 15:41:24.00	70.92	4.48	
2025-01-12 15:41:24.22	70.89	4.49	
2025-01-12 15:41:24.42	70.87	4.50	
2025-01-12 15:41:24.63	70.84	4.51	
2025-01-12 15:41:24.84	70.81	4.52	
2025-01-12 15:41:25.04	70.78	4.53	
2025-01-12 15:41:25.24	70.76	4.54	
2025-01-12 15:41:25.45	70.73	4.55	
2025-01-12 15:41:25.66	70.70	4.56	
2025-01-12 15:41:25.86	70.67	4.57	
2025-01-12 15:41:26.07	70.64	4.58	
2025-01-12 15:41:26.27	70.62	4.58	
2025-01-12 15:41:26.48	70.59	4.59	
2025-01-12 15:41:26.68	70.56	4.60	
2025-01-12 15:41:26.89	70.53	4.61	
2025-01-12 15:41:27.10	70.51	4.62	
2025-01-12 15:41:27.31	70.48	4.63	
2025-01-12 15:41:27.52	70.45	4.64	
2025-01-12 15:41:27.72	70.42	4.65	
2025-01-12 15:41:27.93	70.40	4.66	
2025-01-12 15:41:28.13	70.37	4.67	
2025-01-12 15:41:28.34	70.34	4.68	
2025-01-12 15:41:28.55	70.31	4.69	
2025-01-12 15:41:28.75	70.28	4.69	
2025-01-12 15:41:28.95	70.26	4.70	
2025-01-12 15:41:29.16	70.23	4.71	
2025-01-12 15:41:29.36	70.20	4.72	
2025-01-12 15:41:29.57	70.17	4.73	
2025-01-12 15:41:29.77	70.15	4.74	
2025-01-12 15:41:29.98	70.12	4.75	
2025-01-12 15:41:30.19	70.09	4.76	
2025-01-12 15:41:30.39	70.06	4.77	
2025-01-12 15:41:30.60	70.03	4.78	
2025-01-12 15:41:30.80	70.01	4.78	
2025-01-12 15:41:31.01	69.98	4.79	
2025-01-12 15:41:31.21	69.95	4.80	
2025-01-12 15:41:31.42	69.92	4.81	
2025-01-12 15:41:31.62	69.90	4.82	
2025-01-12 15:41:31.83	69.87	4.83	
2025-01-12 15:41:32.03	69.84	4.84	
2025-01-12 15:41:32.24	69.81	4.85	
2025-01-12 15:41:32.44	69.78	4.86	
2025-01-12 15:41:32.65	69.75	4.87	
2025-01-12 15:41:32.86	69.73	4.88	
2025-01-12 15:41:33.06	69.70	4.88	
2025-01-12 15:41:33.27	69.67	4.89	
2025-01-12 15:41:33.47	69.64	4.90	
2025-01-12 15:41:33.67	69.61	4.91	
2025-01-12 15:41:33.88	69.59	4.92	
2025-01-12 15:41:34.09	69.56	4.93	
2025-01-12 15:41:34.29	69.53	4.94	
2025-01-12 15:41:34.50	69.50	4.95	
2025-01-12 15:41:34.70	69.47	4.96	
2025-01-12 15:41:34.90	69.45	4.96	
2025-01-12 15:41:35.11	69.42	4.97	
2025-01-12 15:41:35.32	69.39	4.98	
2025-01-12 15:41:35.52	69.36	4.99	
2025-01-12 15:41:35.73	69.33	5.00	
2025-01-12 15:41:35.93	69.30	5.01	
2025-01-12 15:41:36.14	69.27	5.02	
2025-01-12 15:41:36.34	69.25	5.03	
2025-01-12 15:41:36.55	69.22	5.04	
2025-01-12 15:41:36.75	69.19	5.05	
2025-01-12 15:41:36.97	69.16	5.06	
2025-01-12 15:41:37.18	69.13	5.06	
2025-01-12 15:41:37.38	69.10	5.07	
2025-01-12 15:41:37.59	69.07	5.08	
2025-01-12 15:41:37.79	69.05	5.09	
2025-01-12 15:41:38.00	69.02	5.10	
2025-01-12 15:41:38.20	68.99	5.11	
2025-01-12 15:41:38.41	68.96	5.12	
2025-01-12 15:41:38.61	68.93	5.13	
2025-01-12 15:41:38.82	68.90	5.14	
2025-01-12 15:41:39.02	68.87	5.14	
2025-01-12 15:41:39.22	68.85	5.15	
2025-01-12 15:41:39.43	68.82	5.16	
2025-01-12 15:41:39.64	68.79	5.17	
2025-01-12 15:41:39.84	68.76	5.18	
2025-01-12 15:41:40.04	68.73	5.19	
2025-01-12 15:41:40.25	68.70	5.20	
2025-01-12 15:41:40.45	68.67	5.21	
2025-01-12 15:41:40.66	68.64	5.22	
2025-01-12 15:41:40.87	68.61	5.22	
2025-01-12 15:41:41.07	68.59	5.23	
2025-01-12 15:41:41.27	68.56	5.24	
2025-01-12 15:41:41.48	68.53	5.25	
2025-01-12 15:41:41.69	68.50	5.26	
2025-01-12 15:41:41.89	68.47	5.27	
2025-01-12 15:41:42.10	68.44	5.28	
2025-01-12 15:41:42.30	68.41	5.29	
2025-01-12 15:41:42.51	68.38	5.30	
2025-01-12 15:41:42.71	68.36	5.30	
2025-01-12 15:41:42.92	68.33	5.31	
2025-01-12 15:41:43.13	68.30	5.32	
2025-01-12 15:41:43.34	68.27	5.33	
2025-01-12 15:41:43.55	68.24	5.34	
2025-01-12 15:41:43.75	68.21	5.35	
2025-01-12 15:41:43.96	68.18	5.36	
2025-01-12 15:41:44.17	68.15	5.37	
2025-01-12 15:41:44.37	68.12	5.38	
2025-01-12 15:41:44.58	68.09	5.39	
2025-01-12 15:41:44.78	68.06	5.39	
2025-01-12 15:41:44.99	68.03	5.40	
2025-01-12 15:41:45.20	68.00	5.41	
2025-01-12 15:41:45.40	67.97	5.42	
2025-01-12 15:41:45.60	67.94	5.43	
2025-01-12 15:41:45.81	67.91	5.44	
2025-01-12 15:41:46.01	67.89	5.45	
2025-01-12 15:41:46.22	67.86	5.46	
2025-01-12 15:41:46.42	67.83	5.46	
2025-01-12 15:41:46.64	67.80	5.47	
2025-01-12 15:41:46.85	67.77	5.48	
2025-01-12 15:41:47.05	67.74	5.49	
2025-01-12 15:41:47.26	67.71	5.50	
2025-01-12 15:41:47.46	67.68	5.51	
2025-01-12 15:41:47.67	67.65	5.52	
2025-01-12 15:41:47.87	67.62	5.53	
2025-01-12 15:41:48.08	67.59	5.54	
2025-01-12 15:41:48.28	67.56	5.54	
2025-01-12 15:41:48.49	67.53	5.55	
2025-01-12 15:41:48.71	67.50	5.56	
2025-01-12 15:41:48.91	67.47	5.57	
2025-01-12 15:41:49.12	67.44	5.58	
2025-01-12 15:41:49.32	67.41	5.59	
2025-01-12 15:41:49.53	67.38	5.60	
2025-01-12 15:41:49.73	67.35	5.61	
2025-01-12 15:41:49.94	67.32	5.62	
2025-01-12 15:41:50.14	67.29	5.62	
2025-01-12 15:41:50.35	67.26	5.63	
2025-01-12 15:41:50.55	67.23	5.64	
2025-01-12 15:41:50.76	67.20	5.65	
2025-01-12 15:41:50.96	67.17	5.66	
2025-01-12 15:41:51.17	67.14	5.67	
2025-01-12 15:41:51.37	67.11	5.68	
2025-01-12 15:41:51.58	67.08	5.69	
2025-01-12 15:41:51.78	67.05	5.69	
2025-01-12 15:41:51.99	67.02	5.70	
2025-01-12 15:41:52.19	66.99	5.71	
2025-01-12 15:41:52.40	66.96	5.72	
2025-01-12 15:41:52.61	66.93	5.73	
2025-01-12 15:41:52.81	66.90	5.74	
2025-01-12 15:41:53.01	66.87	5.75	
2025-01-12 15:41:53.22	66.84	5.76	
2025-01-12 15:41:53.43	66.81	5.76	
2025-01-12 15:41:53.63	66.78	5.77	
2025-01-12 15:41:53.84	66.75	5.78	
2025-01-12 15:41:54.04	66.72	5.79	
2025-01-12 15:41:54.25	66.69	5.80	
2025-01-12 15:41:54.45	66.66	5.81	
2025-01-12 15:41:54.66	66.63	5.82	
2025-01-12 15:41:54.86	66.60	5.82	
2025-01-12 15:41:55.08	66.57	5.83	
2025-01-12 15:41:55.29	66.54	5.84	
2025-01-12 15:41:55.49	66.51	5.85	
2025-01-12 15:41:55.70	66.48	5.86	
2025-01-12 15:41:55.90	66.45	5.87	
2025-01-12 15:41:56.11	66.42	5.88	
2025-01-12 15:41:56.31	66.39	5.89	
2025-01-12 15:41:56.52	66.36	5.89	
2025-01-12 15:41:56.73	66.33	5.90	
2025-01-12 15:41:56.93	66.30	5.91	
2025-01-12 15:41:57.14	66.27	5.92	
2025-01-12 15:41:57.34	66.24	5.93	
2025-01-12 15:41:57.55	66.20	5.94	
2025-01-12 15:41:57.75	66.18	5.95	
2025-01-12 15:41:57.96	66.14	5.96	
2025-01-12 15:41:58.16	66.11	5.96	
2025-01-12 15:41:58.37	66.08	5.97	
2025-01-12 15:41:58.57	66.05	5.98	
2025-01-12 15:41:58.78	66.02	5.99	
2025-01-12 15:41:58.99	65.99	6.00	
2025-01-12 15:41:59.20	65.96	6.01	
2025-01-12 15:41:59.40	65.93	6.02	
2025-01-12 15:41:59.60	65.90	6.02	
2025-01-12 15:41:59.80	65.87	6.03	
2025-01-12 15:42:00.01	65.84	6.04	
2025-01-12 15:42:00.21	65.81	6.05	
2025-01-12 15:42:00.41	65.78	6.06	
2025-01-12 15:42:00.62	65.75	6.07	
2025-01-12 15:42:00.82	65.72	6.08	
2025-01-12 15:42:01.03	65.69	6.08	
2025-01-12 15:42:01.23	65.66	6.09	
2025-01-12 15:42:01.44	65.62	6.10	
2025-01-12 15:42:01.64	65.59	6.11	
2025-01-12 15:42:01.85	65.56	6.12	
2025-01-12 15:42:02.05	65.53	6.13	
2025-01-12 15:42:02.26	65.50	6.14	
2025-01-12 15:42:02.46	65.47	6.14	
2025-01-12 15:42:02.67	65.44	6.15	
2025-01-12 15:42:02.87	65.41	6.16	
2025-01-12 15:42:03.08	65.38	6.17	
2025-01-12 15:42:03.28	65.35	6.18	
2025-01-12 15:42:03.49	65.32	6.19	
2025-01-12 15:42:03.69	65.28	6.19	
2025-01-12 15:42:03.89	65.25	6.20	
2025-01-12 15:42:04.10	65.22	6.21	
2025-01-12 15:42:04.30	65.19	6.22	
2025-01-12 15:42:04.51	65.16	6.23	
2025-01-12 15:42:04.71	65.13	6.24	
2025-01-12 15:42:04.92	65.10	6.25	
2025-01-12 15:42:05.12	65.07	6.25	
2025-01-12 15:42:05.33	65.04	6.26	
2025-01-12 15:42:05.53	65.01	6.27	
2025-01-12 15:42:05.73	64.98	6.28	
2025-01-12 15:42:05.94	64.94	6.29	
2025-01-12 15:42:06.14	64.91	6.30	
2025-01-12 15:42:06.35	64.88	6.30	
2025-01-12 15:42:06.56	64.85	6.31	
2025-01-12 15:42:06.76	64.82	6.32	
2025-01-12 15:42:06.96	64.79	6.33	
2025-01-12 15:42:07.17	64.76	6.34	
2025-01-12 15:42:07.38	64.72	6.35	
2025-01-12 15:42:07.58	64.69	6.35	
2025-01-12 15:42:07.78	64.66	6.36	
2025-01-12 15:42:07.99	64.63	6.37	
2025-01-12 15:42:08.19	64.60	6.38	
2025-01-12 15:42:08.41	64.57	6.39	
2025-01-12 15:42:08.62	64.53	6.40	
2025-01-12 15:42:08.82	64.50	6.41	
2025-01-12 15:42:09.03	64.47	6.41	
2025-01-12 15:42:09.23	64.44	6.42	
2025-01-12 15:42:09.44	64.41	6.43	
2025-01-12 15:42:09.64	64.38	6.44	
2025-01-12 15:42:09.85	64.34	6.45	
2025-01-12 15:42:10.05	64.31	6.46	
2025-01-12 15:42:10.26	64.28	6.46	
2025-01-12 15:42:10.46	64.25	6.47	
2025-01-12 15:42:10.67	64.22	6.48	
2025-01-12 15:42:10.87	64.19	6.49	
2025-01-12 15:42:11.08	64.15	6.50	
2025-01-12 15:42:11.28	64.12	6.51	
2025-01-12 15:42:11.49	64.09	6.51	
2025-01-12 15:42:11.70	64.06	6.52	
2025-01-12 15:42:11.90	64.03	6.53	
2025-01-12 15:42:12.10	64.00	6.54	
2025-01-12 15:42:12.31	63.96	6.55	
2025-01-12 15:42:12.51	63.93	6.56	
2025-01-12 15:42:12.72	63.90	6.56	
2025-01-12 15:42:12.92	63.87	6.57	
2025-01-12 15:42:13.13	63.84	6.58	
2025-01-12 15:42:13.33	63.80	6.59	
2025-01-12 15:42:13.54	63.77	6.60	
2025-01-12 15:42:13.74	63.74	6.61	
2025-01-12 15:42:13.95	63.71	6.61	
2025-01-12 15:42:14.15	63.68	6.62	
2025-01-12 15:42:14.36	63.64	6.63	
2025-01-12 15:42:14.56	63.61	6.64	
2025-01-12 15:42:14.77	63.58	6.65	
2025-01-12 15:42:14.98	63.55	6.66	
2025-01-12 15:42:15.18	63.52	6.66	
2025-01-12 15:42:15.40	63.48	6.67	
2025-01-12 15:42:15.61	63.45	6.68	
2025-01-12 15:42:15.81	63.42	6.69	
2025-01-12 15:42:16.02	63.38	6.70	
2025-01-12 15:42:16.22	63.35	6.71	
2025-01-12 15:42:16.43	63.32	6.71	
2025-01-12 15:42:16.63	63.29	6.72	
2025-01-12 15:42:16.84	63.25	6.73	
2025-01-12 15:42:17.04	63.22	6.74	
2025-01-12 15:42:17.25	63.19	6.75	
2025-01-12 15:42:17.45	63.16	6.75	
2025-01-12 15:42:17.66	63.12	6.76	
2025-01-12 15:42:17.86	63.09	6.77	
2025-01-12 15:42:18.07	63.06	6.78	
2025-01-12 15:42:18.28	63.03	6.79	
2025-01-12 15:42:18.48	63.00	6.80	
2025-01-12 15:42:18.69	62.96	6.80	
2025-01-12 15:42:18.89	62.93	6.81	
2025-01-12 15:42:19.10	62.90	6.82	
2025-01-12 15:42:19.30	62.87	6.83	
2025-01-12 15:42:19.51	62.83	6.84	
2025-01-12 15:42:19.71	62.80	6.84	
2025-01-12 15:42:19.91	62.77	6.85	
2025-01-12 15:42:20.12	62.73	6.86	
2025-01-12 15:42:20.33	62.70	6.87	
2025-01-12 15:42:20.54	62.67	6.88	
2025-01-12 15:42:20.75	62.63	6.89	
2025-01-12 15:42:20.95	62.60	6.89	
2025-01-12 15:42:21.16	62.57	6.90	
2025-01-12 15:42:21.37	62.54	6.91	
2025-01-12 15:42:21.57	62.50	6.92	
2025-01-12 15:42:21.77	62.47	6.93	
2025-01-12 15:42:21.98	62.44	6.93	
2025-01-12 15:42:22.18	62.41	6.94	
2025-01-12 15:42:22.39	62.37	6.95	
2025-01-12 15:42:22.59	62.34	6.96	
2025-01-12 15:42:22.80	62.31	6.97	
2025-01-12 15:42:23.00	62.27	6.97	
2025-01-12 15:42:23.21	62.24	6.98	
2025-01-12 15:42:23.42	62.21	6.99	
2025-01-12 15:42:23.63	62.17	7.00	
2025-01-12 15:42:23.83	62.14	7.01	
2025-01-12 15:42:24.04	62.11	7.01	
2025-01-12 15:42:24.24	62.08	7.02	
2025-01-12 15:42:24.45	62.04	7.03	
2025-01-12 15:42:24.66	62.01	7.04	
2025-01-12 15:42:24.86	61.98	7.05	
2025-01-12 15:42:25.07	61.94	7.06	
2025-01-12 15:42:25.27	61.91	7.06	
2025-01-12 15:42:25.48	61.88	7.07	
2025-01-12 15:42:25.68	61.84	7.08	
2025-01-12 15:42:25.89	61.81	7.09	
2025-01-12 15:42:26.09	61.78	7.09	
2025-01-12 15:42:26.30	61.74	7.10	
2025-01-12 15:42:26.51	61.71	7.11	
2025-01-12 15:42:26.71	61.68	7.12	
2025-01-12 15:42:26.92	61.64	7.13	
2025-01-12 15:42:27.14	61.61	7.14	
2025-01-12 15:42:27.34	61.57	7.14	
2025-01-12 15:42:27.55	61.54	7.15	
2025-01-12 15:42:27.75	61.51	7.16	
2025-01-12 15:42:27.96	61.47	7.17	
2025-01-12 15:42:28.16	61.44	7.17	
2025-01-12 15:42:28.37	61.41	7.18	
2025-01-12 15:42:28.57	61.37	7.19	
2025-01-12 15:42:28.78	61.34	7.20	
2025-01-12 15:42:28.98	61.31	7.21	
2025-01-12 15:42:29.18	61.27	7.21	
2025-01-12 15:42:29.39	61.24	7.22	
2025-01-12 15:42:29.59	61.21	7.23	
2025-01-12 15:42:29.80	61.17	7.24	
2025-01-12 15:42:30.01	61.14	7.25	
2025-01-12 15:42:30.21	61.11	7.25	
2025-01-12 15:42:30.42	61.07	7.26	
2025-01-12 15:42:30.62	61.04	7.27	
2025-01-12 15:42:30.83	61.00	7.28	
2025-01-12 15:42:31.03	60.97	7.28	
2025-01-12 15:42:31.24	60.94	7.29	
2025-01-12 15:42:31.44	60.90	7.30	
2025-01-12 15:42:31.64	60.87	7.31	
2025-01-12 15:42:31.86	60.83	7.32	
2025-01-12 15:42:32.07	60.80	7.32	
2025-01-12 15:42:32.27	60.77	7.33	
2025-01-12 15:42:32.48	60.73	7.34	
2025-01-12 15:42:32.68	60.70	7.35	
2025-01-12 15:42:32.89	60.66	7.36	
2025-01-12 15:42:33.09	60.63	7.36	
2025-01-12 15:42:33.30	60.60	7.37	
2025-01-12 15:42:33.50	60.56	7.38	
2025-01-12 15:42:33.71	60.53	7.39	
2025-01-12 15:42:33.91	60.50	7.39	
2025-01-12 15:42:34.12	60.46	7.40	
2025-01-12 15:42:34.33	60.43	7.41	
2025-01-12 15:42:34.54	60.39	7.42	
2025-01-12 15:42:34.75	60.36	7.43	
2025-01-12 15:42:34.96	60.32	7.43	
2025-01-12 15:42:35.16	60.29	7.44	
2025-01-12 15:42:35.37	60.25	7.45	
2025-01-12 15:42:35.58	60.22	7.46	
2025-01-12 15:42:35.79	60.18	7.46	
2025-01-12 15:42:36.00	60.15	7.47	
2025-01-12 15:42:36.20	60.12	7.48	
2025-01-12 15:42:36.41	60.08	7.49	
2025-01-12 15:42:36.61	60.05	7.50	
2025-01-12 15:42:36.81	60.01	7.50	
2025-01-12 15:42:37.02	59.98	7.51	
2025-01-12 15:42:37.22	59.94	7.52	
2025-01-12 15:42:37.43	59.91	7.53	
2025-01-12 15:42:37.63	59.88	7.53	
2025-01-12 15:42:37.84	59.84	7.54	
2025-01-12 15:42:38.04	59.81	7.55	
2025-01-12 15:42:38.25	59.77	7.56	
2025-01-12 15:42:38.45	59.74	7.56	
2025-01-12 15:42:38.66	59.70	7.57	
2025-01-12 15:42:38.86	59.67	7.58	
2025-01-12 15:42:39.07	59.63	7.59	
2025-01-12 15:42:39.27	59.60	7.59	
2025-01-12 15:42:39.48	59.57	7.60	
2025-01-12 15:42:39.68	59.53	7.61	
2025-01-12 15:42:39.90	59.50	7.62	
2025-01-12 15:42:40.11	59.46	7.62	
2025-01-12 15:42:40.31	59.43	7.63	
2025-01-12 15:42:40.52	59.39	7.64	
2025-01-12 15:42:40.73	59.36	7.65	
2025-01-12 15:42:40.93	59.32	7.65	
2025-01-12 15:42:41.14	59.29	7.66	
2025-01-12 15:42:41.34	59.25	7.67	
2025-01-12 15:42:41.55	59.22	7.68	
2025-01-12 15:42:41.75	59.18	7.68	
2025-01-12 15:42:41.96	59.15	7.69	
2025-01-12 15:42:42.16	59.11	7.70	
2025-01-12 15:42:42.37	59.08	7.71	
2025-01-12 15:42:42.57	59.04	7.71	
2025-01-12 15:42:42.78	59.01	7.72	
2025-01-12 15:42:42.98	58.97	7.73	
2025-01-12 15:42:43.19	58.94	7.74	
2025-01-12 15:42:43.39	58.90	7.74	
2025-01-12 15:42:43.59	58.87	7.75	
2025-01-12 15:42:43.80	58.83	7.76	
2025-01-12 15:42:44.01	58.80	7.77	
2025-01-12 15:42:44.21	58.76	7.77	
2025-01-12 15:42:44.43	58.73	7.78	
2025-01-12 15:42:44.63	58.69	7.79	
2025-01-12 15:42:44.84	58.66	7.80	
2025-01-12 15:42:45.04	58.62	7.80	
2025-01-12 15:42:45.25	58.59	7.81	
2025-01-12 15:42:45.45	58.55	7.82	
2025-01-12 15:42:45.66	58.52	7.83	
2025-01-12 15:42:45.86	58.48	7.83	
2025-01-12 15:42:46.07	58.45	7.84	
2025-01-12 15:42:46.27	58.41	7.85	
2025-01-12 15:42:46.48	58.38	7.86	
2025-01-12 15:42:46.69	58.34	7.86	
2025-01-12 15:42:46.89	58.31	7.87	
2025-01-12 15:42:47.10	58.27	7.88	
2025-01-12 15:42:47.30	58.24	7.88	
2025-01-12 15:42:47.51	58.20	7.89	
2025-01-12 15:42:47.71	58.17	7.90	
2025-01-12 15:42:47.92	58.13	7.91	
2025-01-12 15:42:48.12	58.09	7.91	
2025-01-12 15:42:48.33	58.06	7.92	
2025-01-12 15:42:48.53	58.02	7.93	
2025-01-12 15:42:48.74	57.99	7.94	
2025-01-12 15:42:48.95	57.95	7.94	
2025-01-12 15:42:49.15	57.92	7.95	
2025-01-12 15:42:49.36	57.88	7.96	
2025-01-12 15:42:49.56	57.85	7.96	
2025-01-12 15:42:49.77	57.81	7.97	
2025-01-12 15:42:49.97	57.78	7.98	
2025-01-12 15:42:50.18	57.74	7.99	
2025-01-12 15:42:50.38	57.70	7.99	
2025-01-12 15:42:50.59	57.67	8.00	
2025-01-12 15:42:50.79	57.63	8.01	
2025-01-12 15:42:51.00	57.60	8.01	
2025-01-12 15:42:51.21	57.56	8.02	
2025-01-12 15:42:51.41	57.53	8.03	
2025-01-12 15:42:51.61	57.49	8.04	
2025-01-12 15:42:51.82	57.45	8.04	
2025-01-12 15:42:52.03	57.42	8.05	
2025-01-12 15:42:52.23	57.38	8.06	
2025-01-12 15:42:52.44	57.35	8.06	
2025-01-12 15:42:52.66	57.31	8.07	
2025-01-12 15:42:52.86	57.27	8.08	
2025-01-12 15:42:53.07	57.24	8.09	
2025-01-12 15:42:53.27	57.20	8.09	
2025-01-12 15:42:53.49	57.16	8.10	
2025-01-12 15:42:53.69	57.13	8.11	
2025-01-12 15:42:53.90	57.09	8.12	
2025-01-12 15:42:54.11	57.05	8.12	
2025-01-12 15:42:54.31	57.02	8.13	
2025-01-12 15:42:54.52	56.98	8.14	
2025-01-12 15:42:54.72	56.95	8.14	
2025-01-12 15:42:54.92	56.91	8.15	
2025-01-12 15:42:55.13	56.88	8.16	
2025-01-12 15:42:55.34	56.84	8.16	
2025-01-12 15:42:55.54	56.80	8.17	
2025-01-12 15:42:55.75	56.77	8.18	
2025-01-12 15:42:55.96	56.73	8.19	
2025-01-12 15:42:56.17	56.69	8.19	
2025-01-12 15:42:56.37	56.66	8.20	
2025-01-12 15:42:56.58	56.62	8.21	
2025-01-12 15:42:56.79	56.58	8.21	
2025-01-12 15:42:56.99	56.55	8.22	
2025-01-12 15:42:57.20	56.51	8.23	
2025-01-12 15:42:57.40	56.48	8.23	
2025-01-12 15:42:57.61	56.44	8.24	
2025-01-12 15:42:57.81	56.40	8.25	
2025-01-12 15:42:58.02	56.37	8.26	
2025-01-12 15:42:58.22	56.33	8.26	
2025-01-12 15:42:58.43	56.29	8.27	
2025-01-12 15:42:58.64	56.26	8.28	
2025-01-12 15:42:58.84	56.22	8.28	
2025-01-12 15:42:59.05	56.19	8.29	
2025-01-12 15:42:59.25	56.15	8.30	
2025-01-12 15:42:59.47	56.11	8.30	
2025-01-12 15:42:59.68	56.07	8.31	
2025-01-12 15:42:59.88	56.04	8.32	
2025-01-12 15:43:00.09	56.00	8.32	
2025-01-12 15:43:00.29	55.97	8.33	
2025-01-12 15:43:00.49	55.93	8.34	
2025-01-12 15:43:00.70	55.89	8.34	
2025-01-12 15:43:00.91	55.85	8.35	
2025-01-12 15:43:01.11	55.82	8.36	
2025-01-12 15:43:01.32	55.78	8.36	
2025-01-12 15:43:01.52	55.75	8.37	
2025-01-12 15:43:01.73	55.71	8.38	
2025-01-12 15:43:01.93	55.67	8.38	
2025-01-12 15:43:02.14	55.64	8.39	
2025-01-12 15:43:02.34	55.60	8.40	
2025-01-12 15:43:02.55	55.56	8.41	
2025-01-12 15:43:02.75	55.53	8.41	
2025-01-12 15:43:02.96	55.49	8.42	
2025-01-12 15:43:03.16	55.45	8.43	
2025-01-12 15:43:03.37	55.42	8.43	
2025-01-12 15:43:03.57	55.38	8.44	
2025-01-12 15:43:03.78	55.34	8.45	
2025-01-12 15:43:03.99	55.30	8.45	
2025-01-12 15:43:04.19	55.27	8.46	
2025-01-12 15:43:04.40	55.23	8.47	
2025-01-12 15:43:04.60	55.20	8.47	
2025-01-12 15:43:04.81	55.16	8.48	
2025-01-12 15:43:05.01	55.12	8.49	
2025-01-12 15:43:05.22	55.08	8.49	
2025-01-12 15:43:05.43	55.05	8.50	
2025-01-12 15:43:05.63	55.01	8.50	
2025-01-12 15:43:05.83	54.97	8.51	
2025-01-12 15:43:06.04	54.94	8.52	
2025-01-12 15:43:06.25	54.90	8.52	
2025-01-12 15:43:06.45	54.86	8.53	
2025-01-12 15:43:06.67	54.82	8.54	
2025-01-12 15:43:06.88	54.78	8.54	
2025-01-12 15:43:07.08	54.75	8.55	
2025-01-12 15:43:07.29	54.71	8.56	
2025-01-12 15:43:07.49	54.67	8.56	
2025-01-12 15:43:07.70	54.64	8.57	
2025-01-12 15:43:07.90	54.60	8.58	
2025-01-12 15:43:08.11	54.56	8.58	
2025-01-12 15:43:08.32	54.52	8.59	
2025-01-12 15:43:08.52	54.49	8.60	
2025-01-12 15:43:08.74	54.45	8.60	
2025-01-12 15:43:08.94	54.41	8.61	
2025-01-12 15:43:09.15	54.37	8.62	
2025-01-12 15:43:09.35	54.34	8.62	
2025-01-12 15:43:09.56	54.30	8.63	
2025-01-12 15:43:09.76	54.26	8.64	
2025-01-12 15:43:09.97	54.22	8.64	
2025-01-12 15:43:10.17	54.19	8.65	
2025-01-12 15:43:10.38	54.15	8.65	
2025-01-12 15:43:10.58	54.11	8.66	
2025-01-12 15:43:10.79	54.08	8.67	
2025-01-12 15:43:10.99	54.04	8.67	
2025-01-12 15:43:11.20	54.00	8.68	
2025-01-12 15:43:11.40	53.96	8.69	
2025-01-12 15:43:11.61	53.93	8.69	
2025-01-12 15:43:11.81	53.89	8.70	
2025-01-12 15:43:12.02	53.85	8.71	
2025-01-12 15:43:12.22	53.81	8.71	
2025-01-12 15:43:12.43	53.78	8.72	
2025-01-12 15:43:12.63	53.74	8.72	
2025-01-12 15:43:12.84	53.70	8.73	
2025-01-12 15:43:13.04	53.66	8.74	
2025-01-12 15:43:13.24	53.63	8.74	
2025-01-12 15:43:13.45	53.59	8.75	
2025-01-12 15:43:13.66	53.55	8.76	
2025-01-12 15:43:13.86	53.51	8.76	
2025-01-12 15:43:14.06	53.48	8.77	
2025-01-12 15:43:14.27	53.44	8.77	
2025-01-12 15:43:14.48	53.40	8.78	
2025-01-12 15:43:14.68	53.36	8.79	
2025-01-12 15:43:14.89	53.32	8.79	
2025-01-12 15:43:15.09	53.29	8.80	
2025-01-12 15:43:15.30	53.25	8.81	
2025-01-12 15:43:15.50	53.21	8.81	
2025-01-12 15:43:15.71	53.17	8.82	
2025-01-12 15:43:15.91	53.14	8.82	
2025-01-12 15:43:16.12	53.10	8.83	
2025-01-12 15:43:16.32	53.06	8.84	
2025-01-12 15:43:16.53	53.02	8.84	
2025-01-12 15:43:16.73	52.98	8.85	
2025-01-12 15:43:16.94	52.95	8.85	
2025-01-12 15:43:17.14	52.91	8.86	
2025-01-12 15:43:17.35	52.87	8.87	
2025-01-12 15:43:17.55	52.83	8.87	
2025-01-12 15:43:17.76	52.79	8.88	
2025-01-12 15:43:17.96	52.76	8.88	
2025-01-12 15:43:18.17	52.72	8.89	
2025-01-12 15:43:18.39	52.68	8.90	
2025-01-12 15:43:18.59	52.64	8.90	
2025-01-12 15:43:18.80	52.60	8.91	
2025-01-12 15:43:19.00	52.56	8.91	
2025-01-12 15:43:19.21	52.53	8.92	
2025-01-12 15:43:19.42	52.49	8.93	
2025-01-12 15:43:19.62	52.45	8.93	
2025-01-12 15:43:19.83	52.41	8.94	
2025-01-12 15:43:20.03	52.37	8.94	
2025-01-12 15:43:20.24	52.33	8.95	
2025-01-12 15:43:20.44	52.30	8.96	
2025-01-12 15:43:20.65	52.26	8.96	
2025-01-12 15:43:20.85	52.22	8.97	
2025-01-12 15:43:21.06	52.18	8.97	
2025-01-12 15:43:21.27	52.14	8.98	
2025-01-12 15:43:21.47	52.10	8.99	
2025-01-12 15:43:21.67	52.07	8.99	
2025-01-12 15:43:21.88	52.03	9.00	
2025-01-12 15:43:22.09	51.99	9.00	
2025-01-12 15:43:22.29	51.95	9.01	
2025-01-12 15:43:22.50	51.91	9.01	
2025-01-12 15:43:22.70	51.87	9.02	
2025-01-12 15:43:22.91	51.84	9.03	
2025-01-12 15:43:23.11	51.80	9.03	
2025-01-12 15:43:23.32	51.76	9.04	
2025-01-12 15:43:23.53	51.72	9.04	
2025-01-12 15:43:23.74	51.68	9.05	
2025-01-12 15:43:23.95	51.64	9.06	
2025-01-12 15:43:24.16	51.60	9.06	
2025-01-12 15:43:24.36	51.56	9.07	
2025-01-12 15:43:24.57	51.52	9.07	
2025-01-12 15:43:24.77	51.49	9.08	
2025-01-12 15:43:24.98	51.45	9.08	
2025-01-12 15:43:25.18	51.41	9.09	
2025-01-12 15:43:25.39	51.37	9.10	
2025-01-12 15:43:25.60	51.33	9.10	
2025-01-12 15:43:25.80	51.29	9.11	
2025-01-12 15:43:26.00	51.26	9.11	
2025-01-12 15:43:26.21	51.22	9.12	
2025-01-12 15:43:26.42	51.18	9.12	
2025-01-12 15:43:26.62	51.14	9.13	
2025-01-12 15:43:26.83	51.10	9.14	
2025-01-12 15:43:27.03	51.06	9.14	
2025-01-12 15:43:27.24	51.02	9.15	
2025-01-12 15:43:27.44	50.98	9.15	
2025-01-12 15:43:27.65	50.94	9.16	
2025-01-12 15:43:27.85	50.91	9.16	
2025-01-12 15:43:28.06	50.87	9.17	
2025-01-12 15:43:28.27	50.83	9.17	
2025-01-12 15:43:28.47	50.79	9.18	
2025-01-12 15:43:28.68	50.75	9.19	
2025-01-12 15:43:28.88	50.71	9.19	
2025-01-12 15:43:29.08	50.67	9.20	
2025-01-12 15:43:29.29	50.63	9.20	
2025-01-12 15:43:29.50	50.59	9.21	
2025-01-12 15:43:29.70	50.56	9.21	
2025-01-12 15:43:29.91	50.52	9.22	
2025-01-12 15:43:30.11	50.48	9.22	
2025-01-12 15:43:30.32	50.44	9.23	
2025-01-12 15:43:30.52	50.40	9.23	
2025-01-12 15:43:30.73	50.36	9.24	
2025-01-12 15:43:30.93	50.32	9.24	
2025-01-12 15:43:31.14	50.28	9.25	
2025-01-12 15:43:31.34	50.24	9.26	
2025-01-12 15:43:31.55	50.20	9.26	
2025-01-12 15:43:31.75	50.17	9.27	
2025-01-12 15:43:31.96	50.13	9.27	
2025-01-12 15:43:32.16	50.09	9.28	
2025-01-12 15:43:32.37	50.05	9.28	
2025-01-12 15:43:32.57	50.01	9.29	
2025-01-12 15:43:32.78	49.97	9.29	
2025-01-12 15:43:32.98	49.93	9.30	
2025-01-12 15:43:33.19	49.89	9.30	
2025-01-12 15:43:33.39	49.85	9.31	
2025-01-12 15:43:33.60	49.81	9.31	
2025-01-12 15:43:33.80	49.77	9.32	
2025-01-12 15:43:34.01	49.73	9.32	
2025-01-12 15:43:34.22	49.69	9.33	
2025-01-12 15:43:34.42	49.66	9.33	
2025-01-12 15:43:34.62	49.62	9.34	
2025-01-12 15:43:34.83	49.58	9.35	
2025-01-12 15:43:35.04	49.54	9.35	
2025-01-12 15:43:35.24	49.50	9.36	
2025-01-12 15:43:35.44	49.46	9.36	
2025-01-12 15:43:35.65	49.42	9.37	
2025-01-12 15:43:35.86	49.38	9.37	
2025-01-12 15:43:36.06	49.34	9.38	
2025-01-12 15:43:36.26	49.30	9.38	
2025-01-12 15:43:36.47	49.26	9.39	
2025-01-12 15:43:36.67	49.22	9.39	
2025-01-12 15:43:36.88	49.18	9.40	
2025-01-12 15:43:37.09	49.14	9.40	
2025-01-12 15:43:37.29	49.10	9.41	
2025-01-12 15:43:37.49	49.07	9.41	
2025-01-12 15:43:37.70	49.03	9.42	
2025-01-12 15:43:37.90	48.99	9.42	
2025-01-12 15:43:38.11	48.95	9.43	
2025-01-12 15:43:38.32	48.91	9.43	
2025-01-12 15:43:38.52	48.87	9.44	
2025-01-12 15:43:38.74	48.82	9.44	
2025-01-12 15:43:38.94	48.79	9.45	
2025-01-12 15:43:39.15	48.75	9.45	
2025-01-12 15:43:39.35	48.71	9.46	
2025-01-12 15:43:39.56	48.67	9.46	
2025-01-12 15:43:39.78	48.62	9.47	
2025-01-12 15:43:39.98	48.58	9.47	
2025-01-12 15:43:40.19	48.54	9.48	
2025-01-12 15:43:40.40	48.50	9.48	
2025-01-12 15:43:40.60	48.46	9.49	
2025-01-12 15:43:40.81	48.42	9.49	
2025-01-12 15:43:41.01	48.39	9.50	
2025-01-12 15:43:41.22	48.34	9.50	
2025-01-12 15:43:41.42	48.31	9.51	
2025-01-12 15:43:41.63	48.26	9.51	
2025-01-12 15:43:41.83	48.23	9.52	
2025-01-12 15:43:42.04	48.19	9.52	
2025-01-12 15:43:42.24	48.15	9.53	
2025-01-12 15:43:42.45	48.11	9.53	
2025-01-12 15:43:42.66	48.06	9.53	
2025-01-12 15:43:42.86	48.03	9.54	
2025-01-12 15:43:43.06	47.99	9.54	
2025-01-12 15:43:43.27	47.95	9.55	
2025-01-12 15:43:43.48	47.91	9.55	
2025-01-12 15:43:43.68	47.87	9.56	
2025-01-12 15:43:43.89	47.83	9.56	
2025-01-12 15:43:44.09	47.79	9.57	
2025-01-12 15:43:44.30	47.75	9.57	
2025-01-12 15:43:44.50	47.71	9.58	
2025-01-12 15:43:44.71	47.67	9.58	
2025-01-12 15:43:44.91	47.63	9.59	
2025-01-12 15:43:45.13	47.58	9.59	
2025-01-12 15:43:45.34	47.54	9.60	
2025-01-12 15:43:45.55	47.50	9.60	
2025-01-12 15:43:45.75	47.46	9.61	
2025-01-12 15:43:45.96	47.42	9.61	
2025-01-12 15:43:46.17	47.38	9.61	
2025-01-12 15:43:46.37	47.34	9.62	
2025-01-12 15:43:46.58	47.30	9.62	
2025-01-12 15:43:46.78	47.26	9.63	
2025-01-12 15:43:46.99	47.22	9.63	
2025-01-12 15:43:47.19	47.18	9.64	
2025-01-12 15:43:47.40	47.14	9.64	
2025-01-12 15:43:47.61	47.10	9.65	
2025-01-12 15:43:47.81	47.06	9.65	
2025-01-12 15:43:48.02	47.02	9.66	
2025-01-12 15:43:48.22	46.98	9.66	
2025-01-12 15:43:48.43	46.94	9.66	
2025-01-12 15:43:48.63	46.90	9.67	
2025-01-12 15:43:48.84	46.86	9.67	
2025-01-12 15:43:49.04	46.82	9.68	
2025-01-12 15:43:49.25	46.78	9.68	
2025-01-12 15:43:49.45	46.74	9.69	
2025-01-12 15:43:49.66	46.70	9.69	
2025-01-12 15:43:49.86	46.66	9.69	
2025-01-12 15:43:50.07	46.62	9.70	
2025-01-12 15:43:50.27	46.58	9.70	
2025-01-12 15:43:50.48	46.53	9.71	
2025-01-12 15:43:50.68	46.49	9.71	
2025-01-12 15:43:50.89	46.45	9.72	
2025-01-12 15:43:51.10	46.41	9.72	
2025-01-12 15:43:51.30	46.37	9.72	
2025-01-12 15:43:51.51	46.33	9.73	
2025-01-12 15:43:51.71	46.29	9.73	
2025-01-12 15:43:51.92	46.25	9.74	
2025-01-12 15:43:52.12	46.21	9.74	
2025-01-12 15:43:52.33	46.17	9.75	
2025-01-12 15:43:52.55	46.13	9.75	
2025-01-12 15:43:52.75	46.09	9.75	
2025-01-12 15:43:52.96	46.05	9.76	
2025-01-12 15:43:53.16	46.01	9.76	
2025-01-12 15:43:53.37	45.96	9.77	
2025-01-12 15:43:53.57	45.92	9.77	
2025-01-12 15:43:53.78	45.88	9.78	
2025-01-12 15:43:53.99	45.84	9.78	
2025-01-12 15:43:54.19	45.80	9.78	
2025-01-12 15:43:54.40	45.76	9.79	
2025-01-12 15:43:54.60	45.72	9.79	
2025-01-12 15:43:54.81	45.68	9.80	
2025-01-12 15:43:55.01	45.64	9.80	
2025-01-12 15:43:55.22	45.60	9.80	
2025-01-12 15:43:55.42	45.56	9.81	
2025-01-12 15:43:55.63	45.52	9.81	
2025-01-12 15:43:55.83	45.48	9.82	
2025-01-12 15:43:56.04	45.43	9.82	
2025-01-12 15:43:56.24	45.40	9.82	
2025-01-12 15:43:56.45	45.35	9.83	
2025-01-12 15:43:56.66	45.31	9.83	
2025-01-12 15:43:56.87	45.27	9.84	
2025-01-12 15:43:57.08	45.23	9.84	
2025-01-12 15:43:57.29	45.19	9.84	
2025-01-12 15:43:57.49	45.15	9.85	
2025-01-12 15:43:57.70	45.10	9.85	
2025-01-12 15:43:57.90	45.06	9.86	
2025-01-12 15:43:58.11	45.02	9.86	
2025-01-12 15:43:58.31	44.98	9.86	
2025-01-12 15:43:58.52	44.94	9.87	
2025-01-12 15:43:58.73	44.90	9.87	
2025-01-12 15:43:58.93	44.86	9.87	
2025-01-12 15:43:59.14	44.82	9.88	
2025-01-12 15:43:59.34	44.78	9.88	
2025-01-12 15:43:59.55	44.74	9.89	
2025-01-12 15:43:59.76	44.69	9.89	
2025-01-12 15:43:59.96	44.65	9.89	
2025-01-12 15:44:00.16	44.61	9.90	
2025-01-12 15:44:00.37	44.57	9.90	
2025-01-12 15:44:00.58	44.53	9.90	
2025-01-12 15:44:00.78	44.49	9.91	
2025-01-12 15:44:00.99	44.45	9.91	
2025-01-12 15:44:01.19	44.41	9.92	
2025-01-12 15:44:01.40	44.37	9.92	
2025-01-12 15:44:01.61	44.32	9.92	
2025-01-12 15:44:01.81	44.28	9.93	
2025-01-12 15:44:02.02	44.24	9.93	
2025-01-12 15:44:02.24	44.20	9.93	
2025-01-12 15:44:02.44	44.16	9.94	
2025-01-12 15:44:02.65	44.12	9.94	
2025-01-12 15:44:02.85	44.08	9.94	
2025-01-12 15:44:03.06	44.03	9.95	
2025-01-12 15:44:03.26	43.99	9.95	
2025-01-12 15:44:03.47	43.95	9.96	
2025-01-12 15:44:03.67	43.91	9.96	
2025-01-12 15:44:03.88	43.87	9.96	
2025-01-12 15:44:04.09	43.83	9.97	
2025-01-12 15:44:04.29	43.79	9.97	
2025-01-12 15:44:04.50	43.74	9.97	
2025-01-12 15:44:04.70	43.70	9.98	
2025-01-12 15:44:04.91	43.66	9.98	
2025-01-12 15:44:05.12	43.62	9.98	
2025-01-12 15:44:05.32	43.58	9.99	
2025-01-12 15:44:05.52	43.54	9.99	
2025-01-12 15:44:05.73	43.50	9.99	
2025-01-12 15:44:05.93	43.46	10.00	
2025-01-12 15:44:06.14	43.42	10.00	
2025-01-12 15:44:06.34	43.37	10.00	
2025-01-12 15:44:06.55	43.33	10.01	
2025-01-12 15:44:06.75	43.29	10.01	
2025-01-12 15:44:06.96	43.25	10.01	
2025-01-12 15:44:07.16	43.21	10.02	
2025-01-12 15:44:07.37	43.17	10.02	
2025-01-12 15:44:07.57	43.13	10.02	
2025-01-12 15:44:07.78	43.08	10.03	
2025-01-12 15:44:07.98	43.04	10.03	
2025-01-12 15:44:08.19	43.00	10.03	
2025-01-12 15:44:08.39	42.96	10.04	
2025-01-12 15:44:08.60	42.92	10.04	
2025-01-12 15:44:08.80	42.88	10.04	
2025-01-12 15:44:09.01	42.84	10.05	
2025-01-12 15:44:09.21	42.80	10.05	
2025-01-12 15:44:09.42	42.75	10.05	
2025-01-12 15:44:09.62	42.71	10.06	
2025-01-12 15:44:09.83	42.67	10.06	
2025-01-12 15:44:10.03	42.63	10.06	
2025-01-12 15:44:10.24	42.59	10.06	
2025-01-12 15:44:10.45	42.55	10.07	
2025-01-12 15:44:10.65	42.51	10.07	
2025-01-12 15:44:10.85	42.46	10.07	
2025-01-12 15:44:11.06	42.42	10.08	
2025-01-12 15:44:11.26	42.38	10.08	
2025-01-12 15:44:11.47	42.34	10.08	
2025-01-12 15:44:11.67	42.30	10.09	
2025-01-12 15:44:11.88	42.26	10.09	
2025-01-12 15:44:12.08	42.22	10.09	
2025-01-12 15:44:12.29	42.17	10.09	
2025-01-12 15:44:12.49	42.13	10.10	
2025-01-12 15:44:12.70	42.09	10.10	
2025-01-12 15:44:12.91	42.05	10.10	
2025-01-12 15:44:13.11	42.01	10.11	
2025-01-12 15:44:13.32	41.96	10.11	
2025-01-12 15:44:13.52	41.92	10.11	
2025-01-12 15:44:13.73	41.88	10.12	
2025-01-12 15:44:13.93	41.84	10.12	
2025-01-12 15:44:14.13	41.80	10.12	
2025-01-12 15:44:14.34	41.76	10.12	
2025-01-12 15:44:14.55	41.71	10.13	
2025-01-12 15:44:14.75	41.67	10.13	
2025-01-12 15:44:14.97	41.63	10.13	
2025-01-12 15:44:15.18	41.59	10.14	
2025-01-12 15:44:15.38	41.55	10.14	
2025-01-12 15:44:15.59	41.50	10.14	
2025-01-12 15:44:15.80	41.46	10.14	
2025-01-12 15:44:16.00	41.42	10.15	
2025-01-12 15:44:16.21	41.38	10.15	
2025-01-12 15:44:16.41	41.34	10.15	
2025-01-12 15:44:16.62	41.29	10.15	
2025-01-12 15:44:16.82	41.25	10.16	
2025-01-12 15:44:17.03	41.21	10.16	
2025-01-12 15:44:17.23	41.17	10.16	
2025-01-12 15:44:17.44	41.13	10.16	
2025-01-12 15:44:17.65	41.08	10.17	
2025-01-12 15:44:17.86	41.04	10.17	
2025-01-12 15:44:18.06	41.00	10.17	
2025-01-12 15:44:18.27	40.96	10.18	
2025-01-12 15:44:18.48	40.91	10.18	
2025-01-12 15:44:18.68	40.87	10.18	
2025-01-12 15:44:18.89	40.83	10.18	
2025-01-12 15:44:19.09	40.79	10.19	
2025-01-12 15:44:19.30	40.75	10.19	
2025-01-12 15:44:19.50	40.71	10.19	
2025-01-12 15:44:19.71	40.66	10.19	
2025-01-12 15:44:19.91	40.62	10.20	
2025-01-12 15:44:20.12	40.58	10.20	
2025-01-12 15:44:20.32	40.54	10.20	
2025-01-12 15:44:20.53	40.50	10.20	
2025-01-12 15:44:20.74	40.45	10.21	
2025-01-12 15:44:20.94	40.41	10.21	
2025-01-12 15:44:21.15	40.37	10.21	
2025-01-12 15:44:21.35	40.33	10.21	
2025-01-12 15:44:21.56	40.29	10.21	
2025-01-12 15:44:21.76	40.24	10.22	
2025-01-12 15:44:21.97	40.20	10.22	
2025-01-12 15:44:22.17	40.16	10.22	
2025-01-12 15:44:22.38	40.12	10.22	
2025-01-12 15:44:22.58	40.08	10.23	
2025-01-12 15:44:22.79	40.03	10.23	
2025-01-12 15:44:22.99	39.99	10.23	
2025-01-12 15:44:23.20	39.95	10.23	
2025-01-12 15:44:23.40	39.91	10.24	
2025-01-12 15:44:23.61	39.87	10.24	
2025-01-12 15:44:23.81	39.83	10.24	
2025-01-12 15:44:24.02	39.78	10.24	
2025-01-12 15:44:24.22	39.74	10.24	
2025-01-12 15:44:24.43	39.70	10.25	
2025-01-12 15:44:24.63	39.66	10.25	
2025-01-12 15:44:24.84	39.61	10.25	
2025-01-12 15:44:25.04	39.57	10.25	
2025-01-12 15:44:25.25	39.53	10.26	
2025-01-12 15:44:25.45	39.49	10.26	
2025-01-12 15:44:25.67	39.44	10.26	
2025-01-12 15:44:25.88	39.40	10.26	
2025-01-12 15:44:26.08	39.36	10.26	
2025-01-12 15:44:26.29	39.32	10.27	
2025-01-12 15:44:26.49	39.28	10.27	
2025-01-12 15:44:26.70	39.23	10.27	
2025-01-12 15:44:26.90	39.19	10.27	
2025-01-12 15:44:27.11	39.15	10.27	
2025-01-12 15:44:27.31	39.11	10.28	
2025-01-12 15:44:27.52	39.06	10.28	
2025-01-12 15:44:27.73	39.02	10.28	
2025-01-12 15:44:27.94	38.98	10.28	
2025-01-12 15:44:28.15	38.93	10.28	
2025-01-12 15:44:28.35	38.89	10.29	
2025-01-12 15:44:28.56	38.85	10.29	
2025-01-12 15:44:28.76	38.81	10.29	
2025-01-12 15:44:28.97	38.77	10.29	
2025-01-12 15:44:29.17	38.72	10.29	
2025-01-12 15:44:29.38	38.68	10.29	
2025-01-12 15:44:29.58	38.64	10.30	
2025-01-12 15:44:29.79	38.60	10.30	
2025-01-12 15:44:29.99	38.56	10.30	
2025-01-12 15:44:30.20	38.51	10.30	
2025-01-12 15:44:30.40	38.47	10.30	
2025-01-12 15:44:30.61	38.43	10.31	
2025-01-12 15:44:30.82	38.39	10.31	
2025-01-12 15:44:31.02	38.34	10.31	
2025-01-12 15:44:31.23	38.30	10.31	
2025-01-12 15:44:31.43	38.26	10.31	
2025-01-12 15:44:31.64	38.22	10.31	
2025-01-12 15:44:31.84	38.18	10.32	
2025-01-12 15:44:32.06	38.13	10.32	
2025-01-12 15:44:32.26	38.09	10.32	
2025-01-12 15:44:32.47	38.05	10.32	
2025-01-12 15:44:32.68	38.00	10.32	
2025-01-12 15:44:32.88	37.96	10.32	
2025-01-12 15:44:33.08	37.92	10.33	
2025-01-12 15:44:33.29	37.88	10.33	
2025-01-12 15:44:33.49	37.84	10.33	
2025-01-12 15:44:33.70	37.79	10.33	
2025-01-12 15:44:33.90	37.75	10.33	
2025-01-12 15:44:34.11	37.71	10.33	
2025-01-12 15:44:34.31	37.67	10.33	
2025-01-12 15:44:34.52	37.62	10.34	
2025-01-12 15:44:34.73	37.58	10.34	
2025-01-12 15:44:34.93	37.54	10.34	
2025-01-12 15:44:35.13	37.50	10.34	
2025-01-12 15:44:35.34	37.45	10.34	
2025-01-12 15:44:35.54	37.41	10.34	
2025-01-12 15:44:35.75	37.37	10.34	
2025-01-12 15:44:35.95	37.33	10.35	
2025-01-12 15:44:36.16	37.28	10.35	
2025-01-12 15:44:36.36	37.24	10.35	
2025-01-12 15:44:36.57	37.20	10.35	
2025-01-12 15:44:36.77	37.16	10.35	
2025-01-12 15:44:36.98	37.12	10.35	
2025-01-12 15:44:37.19	37.07	10.35	
2025-01-12 15:44:37.39	37.03	10.36	
2025-01-12 15:44:37.60	36.99	10.36	
2025-01-12 15:44:37.80	36.95	10.36	
2025-01-12 15:44:38.01	36.90	10.36	
2025-01-12 15:44:38.21	36.86	10.36	
2025-01-12 15:44:38.42	36.82	10.36	
2025-01-12 15:44:38.62	36.78	10.36	
2025-01-12 15:44:38.83	36.73	10.36	
2025-01-12 15:44:39.03	36.69	10.36	
2025-01-12 15:44:39.24	36.65	10.37	
2025-01-12 15:44:39.44	36.61	10.37	
2025-01-12 15:44:39.65	36.56	10.37	
2025-01-12 15:44:39.85	36.52	10.37	
2025-01-12 15:44:40.06	36.48	10.37	
2025-01-12 15:44:40.27	36.44	10.37	
2025-01-12 15:44:40.47	36.39	10.37	
2025-01-12 15:44:40.67	36.35	10.37	
2025-01-12 15:44:40.88	36.31	10.37	
2025-01-12 15:44:41.08	36.27	10.38	
2025-01-12 15:44:41.29	36.22	10.38	
2025-01-12 15:44:41.50	36.18	10.38	
2025-01-12 15:44:41.70	36.14	10.38	
2025-01-12 15:44:41.91	36.10	10.38	
2025-01-12 15:44:42.11	36.05	10.38	
2025-01-12 15:44:42.32	36.01	10.38	
2025-01-12 15:44:42.52	35.97	10.38	
2025-01-12 15:44:42.73	35.93	10.38	
2025-01-12 15:44:42.93	35.88	10.38	
2025-01-12 15:44:43.13	35.84	10.39	
2025-01-12 15:44:43.34	35.80	10.39	
2025-01-12 15:44:43.55	35.76	10.39	
2025-01-12 15:44:43.75	35.72	10.39	
2025-01-12 15:44:43.96	35.67	10.39	
2025-01-12 15:44:44.16	35.63	10.39	
2025-01-12 15:44:44.37	35.59	10.39	
2025-01-12 15:44:44.57	35.55	10.39	
2025-01-12 15:44:44.78	35.50	10.39	
2025-01-12 15:44:44.98	35.46	10.39	
2025-01-12 15:44:45.19	35.42	10.39	
2025-01-12 15:44:45.40	35.37	10.39	
2025-01-12 15:44:45.60	35.33	10.40	
2025-01-12 15:44:45.81	35.29	10.40	
2025-01-12 15:44:46.01	35.25	10.40	
2025-01-12 15:44:46.22	35.20	10.40	
2025-01-12 15:44:46.42	35.16	10.40	
2025-01-12 15:44:46.63	35.12	10.40	
2025-01-12 15:44:46.83	35.08	10.40	
2025-01-12 15:44:47.04	35.03	10.40	
2025-01-12 15:44:47.24	34.99	10.40	
2025-01-12 15:44:47.45	34.95	10.40	
2025-01-12 15:44:47.65	34.91	10.40	
2025-01-12 15:44:47.86	34.86	10.40	
2025-01-12 15:44:48.06	34.82	10.40	
2025-01-12 15:44:48.27	34.78	10.40	
2025-01-12 15:44:48.47	34.74	10.40	
2025-01-12 15:44:48.68	34.69	10.40	
2025-01-12 15:44:48.88	34.65	10.40	
2025-01-12 15:44:49.09	34.61	10.41	
2025-01-12 15:44:49.29	34.57	10.41	
2025-01-12 15:44:49.50	34.52	10.41	
2025-01-12 15:44:49.71	34.48	10.41	
2025-01-12 15:44:49.91	34.44	10.41	
2025-01-12 15:44:50.12	34.40	10.41	
2025-01-12 15:44:50.32	34.35	10.41	
2025-01-12 15:44:50.52	34.31	10.41	
2025-01-12 15:44:50.73	34.27	10.41	
2025-01-12 15:44:50.94	34.23	10.41	
2025-01-12 15:44:51.14	34.18	10.41	
2025-01-12 15:44:51.35	34.14	10.41	
2025-01-12 15:44:51.55	34.10	10.41	
2025-01-12 15:44:51.76	34.06	10.41	
2025-01-12 15:44:51.96	34.01	10.41	
2025-01-12 15:44:52.16	33.97	10.41	
2025-01-12 15:44:52.37	33.93	10.41	
2025-01-12 15:44:52.57	33.89	10.41	
2025-01-12 15:44:52.77	33.85	10.41	
2025-01-12 15:44:52.98	33.80	10.41	
2025-01-12 15:44:53.18	33.76	10.41	
2025-01-12 15:44:53.39	33.72	10.41	
2025-01-12 15:44:53.59	33.68	10.41	
2025-01-12 15:44:53.80	33.63	10.41	
2025-01-12 15:44:54.00	33.59	10.41	
2025-01-12 15:44:54.21	33.55	10.41	
2025-01-12 15:44:54.41	33.51	10.41	
2025-01-12 15:44:54.62	33.46	10.41	
2025-01-12 15:44:54.82	33.42	10.41	
2025-01-12 15:44:55.03	33.38	10.41	
2025-01-12 15:44:55.23	33.34	10.41	
2025-01-12 15:44:55.44	33.29	10.41	
2025-01-12 15:44:55.64	33.25	10.41	
2025-01-12 15:44:55.84	33.21	10.41	
2025-01-12 15:44:56.05	33.17	10.41	
2025-01-12 15:44:56.26	33.12	10.41	
2025-01-12 15:44:56.46	33.08	10.41	
2025-01-12 15:44:56.67	33.04	10.41	
2025-01-12 15:44:56.87	33.00	10.41	
2025-01-12 15:44:57.08	32.95	10.41	
2025-01-12 15:44:57.29	32.91	10.41	
2025-01-12 15:44:57.49	32.87	10.41	
2025-01-12 15:44:57.71	32.82	10.41	
2025-01-12 15:44:57.92	32.78	10.41	
2025-01-12 15:44:58.12	32.74	10.41	
2025-01-12 15:44:58.33	32.69	10.41	
2025-01-12 15:44:58.54	32.65	10.41	
2025-01-12 15:44:58.74	32.61	10.41	
2025-01-12 15:44:58.94	32.57	10.41	
2025-01-12 15:44:59.15	32.52	10.41	
2025-01-12 15:44:59.35	32.48	10.41	
2025-01-12 15:44:59.56	32.44	10.41	
2025-01-12 15:44:59.76	32.40	10.41	
2025-01-12 15:44:59.96	32.35	10.41	
2025-01-12 15:45:00.17	32.31	10.41	
2025-01-12 15:45:00.37	32.27	10.41	
2025-01-12 15:45:00.58	32.23	10.41	
2025-01-12 15:45:00.78	32.18	10.41	
2025-01-12 15:45:00.99	32.14	10.41	
2025-01-12 15:45:01.19	32.10	10.41	
2025-01-12 15:45:01.40	32.06	10.41	
2025-01-12 15:45:01.60	32.01	10.41	
2025-01-12 15:45:01.81	31.97	10.41	
2025-01-12 15:45:02.01	31.93	10.41	
2025-01-12 15:45:02.22	31.89	10.41	
2025-01-12 15:45:02.43	31.84	10.41	
2025-01-12 15:45:02.63	31.80	10.40	
2025-01-12 15:45:02.84	31.76	10.40	
2025-01-12 15:45:03.04	31.72	10.40	
2025-01-12 15:45:03.25	31.67	10.40	
2025-01-12 15:45:03.45	31.63	10.40	
2025-01-12 15:45:03.66	31.59	10.40	
2025-01-12 15:45:03.87	31.54	10.40	
2025-01-12 15:45:04.07	31.50	10.40	
2025-01-12 15:45:04.28	31.46	10.40	
2025-01-12 15:45:04.48	31.42	10.40	
2025-01-12 15:45:04.69	31.37	10.40	
2025-01-12 15:45:04.89	31.33	10.40	
2025-01-12 15:45:05.10	31.29	10.40	
2025-01-12 15:45:05.30	31.25	10.40	
2025-01-12 15:45:05.51	31.20	10.40	
2025-01-12 15:45:05.72	31.16	10.40	
2025-01-12 15:45:05.92	31.12	10.40	
2025-01-12 15:45:06.13	31.08	10.39	
2025-01-12 15:45:06.33	31.03	10.39	
2025-01-12 15:45:06.53	30.99	10.39	
2025-01-12 15:45:06.74	30.95	10.39	
2025-01-12 15:45:06.95	30.91	10.39	
2025-01-12 15:45:07.15	30.86	10.39	
2025-01-12 15:45:07.36	30.82	10.39	
2025-01-12 15:45:07.56	30.78	10.39	
2025-01-12 15:45:07.77	30.74	10.39	
2025-01-12 15:45:07.97	30.69	10.39	
2025-01-12 15:45:08.18	30.65	10.39	
2025-01-12 15:45:08.39	30.61	10.39	
2025-01-12 15:45:08.59	30.57	10.38	
2025-01-12 15:45:08.80	30.52	10.38	
2025-01-12 15:45:09.00	30.48	10.38	
2025-01-12 15:45:09.21	30.44	10.38	
2025-01-12 15:45:09.41	30.40	10.38	
2025-01-12 15:45:09.62	30.35	10.38	
2025-01-12 15:45:09.82	30.31	10.38	
2025-01-12 15:45:10.03	30.27	10.38	
2025-01-12 15:45:10.24	30.23	10.38	
2025-01-12 15:45:10.44	30.18	10.38	
2025-01-12 15:45:10.65	30.14	10.38	
2025-01-12 15:45:10.85	30.10	10.37	
2025-01-12 15:45:11.06	30.06	10.37	
2025-01-12 15:45:11.27	30.01	10.37	
2025-01-12 15:45:11.47	29.97	10.37	
2025-01-12 15:45:11.68	29.93	10.37	
2025-01-12 15:45:11.88	29.89	10.37	
2025-01-12 15:45:12.09	29.84	10.37	
2025-01-12 15:45:12.29	29.80	10.37	
2025-01-12 15:45:12.50	29.76	10.37	
2025-01-12 15:45:12.72	29.71	10.36	
2025-01-12 15:45:12.92	29.67	10.36	
2025-01-12 15:45:13.13	29.63	10.36	
2025-01-12 15:45:13.34	29.58	10.36	
2025-01-12 15:45:13.54	29.54	10.36	
2025-01-12 15:45:13.75	29.50	10.36	
2025-01-12 15:45:13.95	29.46	10.36	
2025-01-12 15:45:14.16	29.42	10.36	
2025-01-12 15:45:14.36	29.37	10.35	
2025-01-12 15:45:14.57	29.33	10.35	
2025-01-12 15:45:14.77	29.29	10.35	
2025-01-12 15:45:14.98	29.25	10.35	
2025-01-12 15:45:15.19	29.20	10.35	
2025-01-12 15:45:15.39	29.16	10.35	
2025-01-12 15:45:15.60	29.12	10.35	
2025-01-12 15:45:15.80	29.08	10.34	
2025-01-12 15:45:16.00	29.04	10.34	
2025-01-12 15:45:16.21	28.99	10.34	
2025-01-12 15:45:16.42	28.95	10.34	
2025-01-12 15:45:16.62	28.91	10.34	
2025-01-12 15:45:16.83	28.86	10.34	
2025-01-12 15:45:17.04	28.82	10.34	
2025-01-12 15:45:17.25	28.78	10.33	
2025-01-12 15:45:17.46	28.73	10.33	
2025-01-12 15:45:17.66	28.69	10.33	
2025-01-12 15:45:17.87	28.65	10.33	
2025-01-12 15:45:18.07	28.61	10.33	
2025-01-12 15:45:18.28	28.57	10.33	
2025-01-12 15:45:18.48	28.52	10.33	
2025-01-12 15:45:18.69	28.48	10.32	
2025-01-12 15:45:18.89	28.44	10.32	
2025-01-12 15:45:19.11	28.39	10.32	
2025-01-12 15:45:19.31	28.35	10.32	
2025-01-12 15:45:19.52	28.31	10.32	
2025-01-12 15:45:19.72	28.27	10.32	
2025-01-12 15:45:19.93	28.23	10.31	
2025-01-12 15:45:20.15	28.18	10.31	
2025-01-12 15:45:20.35	28.14	10.31	
2025-01-12 15:45:20.56	28.10	10.31	
2025-01-12 15:45:20.76	28.06	10.31	
2025-01-12 15:45:20.97	28.01	10.31	
2025-01-12 15:45:21.17	27.97	10.30	
2025-01-12 15:45:21.38	27.93	10.30	
2025-01-12 15:45:21.59	27.88	10.30	
2025-01-12 15:45:21.79	27.84	10.30	
2025-01-12 15:45:21.99	27.80	10.30	
2025-01-12 15:45:22.20	27.76	10.29	
2025-01-12 15:45:22.40	27.72	10.29	
2025-01-12 15:45:22.61	27.67	10.29	
2025-01-12 15:45:22.82	27.63	10.29	
2025-01-12 15:45:23.02	27.59	10.29	
2025-01-12 15:45:23.23	27.55	10.29	
2025-01-12 15:45:23.43	27.51	10.28	
2025-01-12 15:45:23.64	27.46	10.28	
2025-01-12 15:45:23.84	27.42	10.28	
2025-01-12 15:45:24.05	27.38	10.28	
2025-01-12 15:45:24.25	27.34	10.28	
2025-01-12 15:45:24.47	27.29	10.27	
2025-01-12 15:45:24.68	27.25	10.27	
2025-01-12 15:45:24.88	27.21	10.27	
2025-01-12 15:45:25.09	27.17	10.27	
2025-01-12 15:45:25.30	27.12	10.27	
2025-01-12 15:45:25.50	27.08	10.26	
2025-01-12 15:45:25.70	27.04	10.26	
2025-01-12 15:45:25.91	27.00	10.26	
2025-01-12 15:45:26.12	26.95	10.26	
2025-01-12 15:45:26.32	26.91	10.26	
2025-01-12 15:45:26.53	26.87	10.25	
2025-01-12 15:45:26.73	26.83	10.25	
2025-01-12 15:45:26.94	26.79	10.25	
2025-01-12 15:45:27.15	26.74	10.25	
2025-01-12 15:45:27.35	26.70	10.24	
2025-01-12 15:45:27.56	26.66	10.24	
2025-01-12 15:45:27.76	26.62	10.24	
2025-01-12 15:45:27.97	26.58	10.24	
2025-01-12 15:45:28.18	26.53	10.24	
2025-01-12 15:45:28.38	26.49	10.23	
2025-01-12 15:45:28.59	26.45	10.23	
2025-01-12 15:45:28.79	26.41	10.23	
2025-01-12 15:45:29.00	26.37	10.23	
2025-01-12 15:45:29.20	26.32	10.22	
2025-01-12 15:45:29.41	26.28	10.22	
2025-01-12 15:45:29.61	26.24	10.22	
2025-01-12 15:45:29.83	26.20	10.22	
2025-01-12 15:45:30.04	26.15	10.21	
2025-01-12 15:45:30.24	26.11	10.21	
2025-01-12 15:45:30.45	26.07	10.21	
2025-01-12 15:45:30.66	26.03	10.21	
2025-01-12 15:45:30.86	25.99	10.21	
2025-01-12 15:45:31.06	25.94	10.20	
2025-01-12 15:45:31.27	25.90	10.20	
2025-01-12 15:45:31.48	25.86	10.20	
2025-01-12 15:45:31.68	25.82	10.20	
2025-01-12 15:45:31.89	25.77	10.19	
2025-01-12 15:45:32.09	25.73	10.19	
2025-01-12 15:45:32.30	25.69	10.19	
2025-01-12 15:45:32.51	25.65	10.19	
2025-01-12 15:45:32.71	25.61	10.18	
2025-01-12 15:45:32.91	25.57	10.18	
2025-01-12 15:45:33.12	25.52	10.18	
2025-01-12 15:45:33.32	25.48	10.18	
2025-01-12 15:45:33.53	25.44	10.17	
2025-01-12 15:45:33.74	25.40	10.17	
2025-01-12 15:45:33.94	25.36	10.17	
2025-01-12 15:45:34.15	25.31	10.16	
2025-01-12 15:45:34.35	25.27	10.16	
2025-01-12 15:45:34.56	25.23	10.16	
2025-01-12 15:45:34.77	25.19	10.16	
2025-01-12 15:45:34.97	25.15	10.15	
2025-01-12 15:45:35.18	25.11	10.15	
2025-01-12 15:45:35.38	25.06	10.15	
2025-01-12 15:45:35.59	25.02	10.15	
2025-01-12 15:45:35.79	24.98	10.14	
2025-01-12 15:45:36.00	24.94	10.14	
2025-01-12 15:45:36.21	24.90	10.14	
2025-01-12 15:45:36.41	24.86	10.14	
2025-01-12 15:45:36.62	24.81	10.13	
2025-01-12 15:45:36.82	24.77	10.13	
2025-01-12 15:45:37.04	24.73	10.13	
2025-01-12 15:45:37.26	24.68	10.12	
2025-01-12 15:45:37.46	24.64	10.12	
2025-01-12 15:45:37.67	24.60	10.12	
2025-01-12 15:45:37.88	24.56	10.11	
2025-01-12 15:45:38.08	24.52	10.11	
2025-01-12 15:45:38.29	24.47	10.11	
2025-01-12 15:45:38.49	24.43	10.11	
2025-01-12 15:45:38.70	24.39	10.10	
2025-01-12 15:45:38.90	24.35	10.10	
2025-01-12 15:45:39.11	24.31	10.10	
2025-01-12 15:45:39.31	24.27	10.09	
2025-01-12 15:45:39.51	24.23	10.09	
2025-01-12 15:45:39.72	24.18	10.09	
2025-01-12 15:45:39.93	24.14	10.09	
2025-01-12 15:45:40.13	24.10	10.08	
2025-01-12 15:45:40.34	24.06	10.08	
2025-01-12 15:45:40.56	24.01	10.08	
2025-01-12 15:45:40.76	23.97	10.07	
2025-01-12 15:45:40.97	23.93	10.07	
2025-01-12 15:45:41.17	23.89	10.07	
2025-01-12 15:45:41.38	23.85	10.06	
2025-01-12 15:45:41.58	23.81	10.06	
2025-01-12 15:45:41.79	23.77	10.06	
2025-01-12 15:45:41.99	23.73	10.05	
2025-01-12 15:45:42.20	23.68	10.05	
2025-01-12 15:45:42.41	23.64	10.05	
2025-01-12 15:45:42.61	23.60	10.05	
2025-01-12 15:45:42.82	23.56	10.04	
2025-01-12 15:45:43.02	23.52	10.04	
2025-01-12 15:45:43.23	23.48	10.04	
2025-01-12 15:45:43.43	23.44	10.03	
2025-01-12 15:45:43.63	23.39	10.03	
2025-01-12 15:45:43.84	23.35	10.03	
2025-01-12 15:45:44.05	23.31	10.02	
2025-01-12 15:45:44.25	23.27	10.02	
2025-01-12 15:45:44.46	23.23	10.02	
2025-01-12 15:45:44.66	23.19	10.01	
2025-01-12 15:45:44.87	23.15	10.01	
2025-01-12 15:45:45.07	23.11	10.01	
2025-01-12 15:45:45.28	23.06	10.00	
2025-01-12 15:45:45.49	23.02	10.00	
2025-01-12 15:45:45.69	22.98	10.00	
2025-01-12 15:45:45.90	22.94	9.99	
2025-01-12 15:45:46.10	22.90	9.99	
2025-01-12 15:45:46.31	22.86	9.99	
2025-01-12 15:45:46.51	22.82	9.98	
2025-01-12 15:45:46.72	22.77	9.98	
2025-01-12 15:45:46.94	22.73	9.98	
2025-01-12 15:45:47.14	22.69	9.97	
2025-01-12 15:45:47.35	22.65	9.97	
2025-01-12 15:45:47.55	22.61	9.97	
2025-01-12 15:45:47.76	22.57	9.96	
2025-01-12 15:45:47.97	22.52	9.96	
2025-01-12 15:45:48.18	22.48	9.95	
2025-01-12 15:45:48.39	22.44	9.95	
2025-01-12 15:45:48.59	22.40	9.95	
2025-01-12 15:45:48.79	22.36	9.94	
2025-01-12 15:45:49.00	22.32	9.94	
2025-01-12 15:45:49.21	22.27	9.94	
2025-01-12 15:45:49.41	22.23	9.93	
2025-01-12 15:45:49.62	22.19	9.93	
2025-01-12 15:45:49.82	22.15	9.93	
2025-01-12 15:45:50.03	22.11	9.92	
2025-01-12 15:45:50.23	22.07	9.92	
2025-01-12 15:45:50.44	22.03	9.91	
2025-01-12 15:45:50.64	21.99	9.91	
2025-01-12 15:45:50.85	21.95	9.91	
2025-01-12 15:45:51.06	21.91	9.90	
2025-01-12 15:45:51.26	21.87	9.90	
2025-01-12 15:45:51.46	21.83	9.90	
2025-01-12 15:45:51.67	21.78	9.89	
2025-01-12 15:45:51.88	21.74	9.89	
2025-01-12 15:45:52.08	21.70	9.89	
2025-01-12 15:45:52.30	21.66	9.88	
2025-01-12 15:45:52.50	21.62	9.88	
2025-01-12 15:45:52.71	21.58	9.87	
2025-01-12 15:45:52.91	21.54	9.87	
2025-01-12 15:45:53.12	21.50	9.87	
2025-01-12 15:45:53.32	21.46	9.86	
2025-01-12 15:45:53.53	21.41	9.86	
2025-01-12 15:45:53.74	21.37	9.85	
2025-01-12 15:45:53.94	21.33	9.85	
2025-01-12 15:45:54.15	21.29	9.85	
2025-01-12 15:45:54.35	21.25	9.84	
2025-01-12 15:45:54.55	21.21	9.84	
2025-01-12 15:45:54.76	21.17	9.84	
2025-01-12 15:45:54.97	21.13	9.83	
2025-01-12 15:45:55.17	21.09	9.83	
2025-01-12 15:45:55.38	21.05	9.82	
2025-01-12 15:45:55.58	21.01	9.82	
2025-01-12 15:45:55.79	20.96	9.82	
2025-01-12 15:45:55.99	20.93	9.81	
2025-01-12 15:45:56.20	20.88	9.81	
2025-01-12 15:45:56.40	20.84	9.80	
2025-01-12 15:45:56.61	20.80	9.80	
2025-01-12 15:45:56.81	20.76	9.80	
2025-01-12 15:45:57.02	20.72	9.79	
2025-01-12 15:45:57.22	20.68	9.79	
2025-01-12 15:45:57.43	20.64	9.78	
2025-01-12 15:45:57.63	20.60	9.78	
2025-01-12 15:45:57.84	20.56	9.77	
2025-01-12 15:45:58.05	20.52	9.77	
2025-01-12 15:45:58.25	20.48	9.77	
2025-01-12 15:45:58.46	20.44	9.76	
2025-01-12 15:45:58.66	20.40	9.76	
2025-01-12 15:45:58.87	20.36	9.75	
2025-01-12 15:45:59.07	20.32	9.75	
2025-01-12 15:45:59.28	20.28	9.75	
2025-01-12 15:45:59.48	20.24	9.74	
2025-01-12 15:45:59.69	20.19	9.74	
2025-01-12 15:45:59.89	20.15	9.73	
2025-01-12 15:46:00.10	20.11	9.73	
2025-01-12 15:46:00.30	20.07	9.72	
2025-01-12 15:46:00.51	20.03	9.72	
2025-01-12 15:46:00.71	19.99	9.72	
2025-01-12 15:46:00.92	19.95	9.71	
2025-01-12 15:46:01.12	19.91	9.71	
2025-01-12 15:46:01.33	19.87	9.70	
2025-01-12 15:46:01.53	19.83	9.70	
2025-01-12 15:46:01.74	19.79	9.69	
2025-01-12 15:46:01.94	19.75	9.69	
2025-01-12 15:46:02.15	19.71	9.69	
2025-01-12 15:46:02.35	19.67	9.68	
2025-01-12 15:46:02.56	19.63	9.68	
2025-01-12 15:46:02.77	19.59	9.67	
2025-01-12 15:46:02.97	19.55	9.67	
2025-01-12 15:46:03.18	19.51	9.66	
2025-01-12 15:46:03.38	19.47	9.66	
2025-01-12 15:46:03.60	19.43	9.65	
2025-01-12 15:46:03.81	19.39	9.65	
2025-01-12 15:46:04.01	19.35	9.65	
2025-01-12 15:46:04.21	19.31	9.64	
2025-01-12 15:46:04.42	19.27	9.64	
2025-01-12 15:46:04.62	19.23	9.63	
2025-01-12 15:46:04.83	19.19	9.63	
2025-01-12 15:46:05.03	19.15	9.62	
2025-01-12 15:46:05.24	19.11	9.62	
2025-01-12 15:46:05.44	19.07	9.61	
2025-01-12 15:46:05.65	19.03	9.61	
2025-01-12 15:46:05.85	18.99	9.61	
2025-01-12 15:46:06.06	18.95	9.60	
2025-01-12 15:46:06.26	18.91	9.60	
2025-01-12 15:46:06.46	18.87	9.59	
2025-01-12 15:46:06.67	18.83	9.59	
2025-01-12 15:46:06.88	18.79	9.58	
2025-01-12 15:46:07.08	18.75	9.58	
2025-01-12 15:46:07.29	18.71	9.57	
2025-01-12 15:46:07.49	18.67	9.57	
2025-01-12 15:46:07.70	18.63	9.56	
2025-01-12 15:46:07.90	18.59	9.56	
2025-01-12 15:46:08.11	18.55	9.55	
2025-01-12 15:46:08.33	18.50	9.55	
2025-01-12 15:46:08.53	18.46	9.54	
2025-01-12 15:46:08.74	18.42	9.54	
2025-01-12 15:46:08.95	18.38	9.53	
2025-01-12 15:46:09.15	18.34	9.53	
2025-01-12 15:46:09.35	18.31	9.53	
2025-01-12 15:46:09.56	18.27	9.52	
2025-01-12 15:46:09.77	18.22	9.52	
2025-01-12 15:46:09.97	18.19	9.51	
2025-01-12 15:46:10.18	18.15	9.51	
2025-01-12 15:46:10.38	18.11	9.50	
2025-01-12 15:46:10.59	18.07	9.50	
2025-01-12 15:46:10.81	18.02	9.49	
2025-01-12 15:46:11.01	17.98	9.49	
2025-01-12 15:46:11.22	17.94	9.48	
2025-01-12 15:46:11.42	17.91	9.48	
2025-01-12 15:46:11.63	17.86	9.47	
2025-01-12 15:46:11.83	17.83	9.47	
2025-01-12 15:46:12.04	17.79	9.46	
2025-01-12 15:46:12.25	17.75	9.46	
2025-01-12 15:46:12.45	17.71	9.45	
2025-01-12 15:46:12.67	17.66	9.45	
2025-01-12 15:46:12.88	17.62	9.44	
2025-01-12 15:46:13.08	17.59	9.44	
2025-01-12 15:46:13.29	17.54	9.43	
2025-01-12 15:46:13.49	17.51	9.43	
2025-01-12 15:46:13.70	17.47	9.42	
2025-01-12 15:46:13.91	17.43	9.42	
2025-01-12 15:46:14.11	17.39	9.41	
2025-01-12 15:46:14.32	17.35	9.41	
2025-01-12 15:46:14.52	17.31	9.40	
2025-01-12 15:46:14.73	17.27	9.40	
2025-01-12 15:46:14.93	17.23	9.39	
2025-01-12 15:46:15.14	17.19	9.39	
2025-01-12 15:46:15.34	17.15	9.38	
2025-01-12 15:46:15.55	17.11	9.38	
2025-01-12 15:46:15.75	17.07	9.37	
2025-01-12 15:46:15.96	17.03	9.37	
2025-01-12 15:46:16.16	16.99	9.36	
2025-01-12 15:46:16.37	16.95	9.36	
2025-01-12 15:46:16.57	16.92	9.35	
2025-01-12 15:46:16.78	16.87	9.35	
2025-01-12 15:46:16.98	16.84	9.34	
2025-01-12 15:46:17.19	16.80	9.34	
2025-01-12 15:46:17.39	16.76	9.33	
2025-01-12 15:46:17.60	16.72	9.32	
2025-01-12 15:46:17.80	16.68	9.32	
2025-01-12 15:46:18.01	16.64	9.31	
2025-01-12 15:46:18.21	16.60	9.31	
2025-01-12 15:46:18.42	16.56	9.30	
2025-01-12 15:46:18.63	16.52	9.30	
2025-01-12 15:46:18.83	16.48	9.29	
2025-01-12 15:46:19.05	16.44	9.29	
2025-01-12 15:46:19.25	16.40	9.28	
2025-01-12 15:46:19.46	16.36	9.28	
2025-01-12 15:46:19.67	16.32	9.27	
2025-01-12 15:46:19.87	16.29	9.27	
2025-01-12 15:46:20.08	16.25	9.26	
2025-01-12 15:46:20.28	16.21	9.26	
2025-01-12 15:46:20.49	16.17	9.25	
2025-01-12 15:46:20.69	16.13	9.24	
2025-01-12 15:46:20.90	16.09	9.24	
2025-01-12 15:46:21.10	16.05	9.23	
2025-01-12 15:46:21.31	16.01	9.23	
2025-01-12 15:46:21.52	15.97	9.22	
2025-01-12 15:46:21.72	15.93	9.22	
2025-01-12 15:46:21.93	15.89	9.21	
2025-01-12 15:46:22.13	15.86	9.21	
2025-01-12 15:46:22.34	15.82	9.20	
2025-01-12 15:46:22.54	15.78	9.20	
2025-01-12 15:46:22.75	15.74	9.19	
2025-01-12 15:46:22.95	15.70	9.18	
2025-01-12 15:46:23.16	15.66	9.18	
2025-01-12 15:46:23.36	15.62	9.17	
2025-01-12 15:46:23.57	15.58	9.17	
2025-01-12 15:46:23.77	15.55	9.16	
2025-01-12 15:46:23.98	15.51	9.16	
2025-01-12 15:46:24.18	15.47	9.15	
2025-01-12 15:46:24.39	15.43	9.15	
2025-01-12 15:46:24.60	15.39	9.14	
2025-01-12 15:46:24.81	15.35	9.13	
2025-01-12 15:46:25.01	15.31	9.13	
2025-01-12 15:46:25.22	15.27	9.12	
2025-01-12 15:46:25.42	15.24	9.12	
2025-01-12 15:46:25.63	15.20	9.11	
2025-01-12 15:46:25.83	15.16	9.11	
2025-01-12 15:46:26.04	15.12	9.10	
2025-01-12 15:46:26.24	15.08	9.10	
2025-01-12 15:46:26.45	15.04	9.09	
2025-01-12 15:46:26.66	15.00	9.08	
2025-01-12 15:46:26.86	14.97	9.08	
2025-01-12 15:46:27.07	14.93	9.07	
2025-01-12 15:46:27.28	14.89	9.07	
2025-01-12 15:46:27.48	14.85	9.06	
2025-01-12 15:46:27.68	14.81	9.06	
2025-01-12 15:46:27.89	14.77	9.05	
2025-01-12 15:46:28.09	14.74	9.04	
2025-01-12 15:46:28.30	14.70	9.04	
2025-01-12 15:46:28.50	14.66	9.03	
2025-01-12 15:46:28.70	14.62	9.03	
2025-01-12 15:46:28.91	14.58	9.02	
2025-01-12 15:46:29.12	14.54	9.02	
2025-01-12 15:46:29.32	14.51	9.01	
2025-01-12 15:46:29.53	14.47	9.00	
2025-01-12 15:46:29.73	14.43	9.00	
2025-01-12 15:46:29.94	14.39	8.99	
2025-01-12 15:46:30.14	14.35	8.99	
2025-01-12 15:46:30.35	14.31	8.98	
2025-01-12 15:46:30.56	14.28	8.97	
2025-01-12 15:46:30.76	14.24	8.97	
2025-01-12 15:46:30.97	14.20	8.96	
2025-01-12 15:46:31.17	14.16	8.96	
2025-01-12 15:46:31.37	14.12	8.95	
2025-01-12 15:46:31.58	14.09	8.94	
2025-01-12 15:46:31.78	14.05	8.94	
2025-01-12 15:46:31.99	14.01	8.93	
2025-01-12 15:46:32.19	13.97	8.93	
2025-01-12 15:46:32.40	13.93	8.92	
2025-01-12 15:46:32.60	13.90	8.92	
2025-01-12 15:46:32.81	13.86	8.91	
2025-01-12 15:46:33.01	13.82	8.90	
2025-01-12 15:46:33.22	13.78	8.90	
2025-01-12 15:46:33.43	13.74	8.89	
2025-01-12 15:46:33.63	13.71	8.89	
2025-01-12 15:46:33.84	13.67	8.88	
2025-01-12 15:46:34.04	13.63	8.87	
2025-01-12 15:46:34.25	13.59	8.87	
2025-01-12 15:46:34.45	13.55	8.86	
2025-01-12 15:46:34.66	13.52	8.85	
2025-01-12 15:46:34.86	13.48	8.85	
2025-01-12 15:46:35.07	13.44	8.84	
2025-01-12 15:46:35.27	13.40	8.84	
2025-01-12 15:46:35.48	13.37	8.83	
2025-01-12 15:46:35.68	13.33	8.82	
2025-01-12 15:46:35.89	13.29	8.82	
2025-01-12 15:46:36.09	13.25	8.81	
2025-01-12 15:46:36.29	13.22	8.81	
2025-01-12 15:46:36.50	13.18	8.80	
2025-01-12 15:46:36.71	13.14	8.79	
2025-01-12 15:46:36.91	13.10	8.79	
2025-01-12 15:46:37.12	13.06	8.78	
2025-01-12 15:46:37.32	13.03	8.78	
2025-01-12 15:46:37.52	12.99	8.77	
2025-01-12 15:46:37.73	12.95	8.76	
2025-01-12 15:46:37.94	12.91	8.76	
2025-01-12 15:46:38.14	12.88	8.75	
2025-01-12 15:46:38.36	12.84	8.74	
2025-01-12 15:46:38.56	12.80	8.74	
2025-01-12 15:46:38.77	12.76	8.73	
2025-01-12 15:46:38.98	12.72	8.73	
2025-01-12 15:46:39.18	12.69	8.72	
2025-01-12 15:46:39.39	12.65	8.71	
2025-01-12 15:46:39.59	12.61	8.71	
2025-01-12 15:46:39.80	12.57	8.70	
2025-01-12 15:46:40.00	12.54	8.69	
2025-01-12 15:46:40.20	12.50	8.69	
2025-01-12 15:46:40.41	12.46	8.68	
2025-01-12 15:46:40.62	12.43	8.67	
2025-01-12 15:46:40.82	12.39	8.67	
2025-01-12 15:46:41.03	12.35	8.66	
2025-01-12 15:46:41.23	12.31	8.66	
2025-01-12 15:46:41.44	12.28	8.65	
2025-01-12 15:46:41.64	12.24	8.64	
2025-01-12 15:46:41.85	12.20	8.64	
2025-01-12 15:46:42.05	12.17	8.63	
2025-01-12 15:46:42.26	12.13	8.62	
2025-01-12 15:46:42.47	12.09	8.62	
2025-01-12 15:46:42.67	12.05	8.61	
2025-01-12 15:46:42.87	12.02	8.60	
2025-01-12 15:46:43.08	11.98	8.60	
2025-01-12 15:46:43.28	11.94	8.59	
2025-01-12 15:46:43.49	11.91	8.59	
2025-01-12 15:46:43.69	11.87	8.58	
2025-01-12 15:46:43.90	11.83	8.57	
2025-01-12 15:46:44.11	11.79	8.57	
2025-01-12 15:46:44.31	11.76	8.56	
2025-01-12 15:46:44.52	11.72	8.55	
2025-01-12 15:46:44.72	11.68	8.55	
2025-01-12 15:46:44.93	11.65	8.54	
2025-01-12 15:46:45.13	11.61	8.53	
2025-01-12 15:46:45.34	11.57	8.53	
2025-01-12 15:46:45.54	11.54	8.52	
2025-01-12 15:46:45.75	11.50	8.51	
2025-01-12 15:46:45.95	11.46	8.51	
2025-01-12 15:46:46.16	11.42	8.50	
2025-01-12 15:46:46.37	11.39	8.49	
2025-01-12 15:46:46.57	11.35	8.49	
2025-01-12 15:46:46.77	11.32	8.48	
2025-01-12 15:46:46.98	11.28	8.47	
2025-01-12 15:46:47.18	11.24	8.47	
2025-01-12 15:46:47.39	11.20	8.46	
2025-01-12 15:46:47.60	11.17	8.45	
2025-01-12 15:46:47.80	11.13	8.45	
2025-01-12 15:46:48.00	11.10	8.44	
2025-01-12 15:46:48.21	11.06	8.43	
2025-01-12 15:46:48.42	11.02	8.43	
2025-01-12 15:46:48.62	10.98	8.42	
2025-01-12 15:46:48.83	10.95	8.41	
2025-01-12 15:46:49.03	10.91	8.41	
2025-01-12 15:46:49.24	10.87	8.40	
2025-01-12 15:46:49.44	10.84	8.39	
2025-01-12 15:46:49.65	10.80	8.39	
2025-01-12 15:46:49.85	10.77	8.38	
2025-01-12 15:46:50.06	10.73	8.37	
2025-01-12 15:46:50.27	10.69	8.37	
2025-01-12 15:46:50.47	10.66	8.36	
2025-01-12 15:46:50.68	10.62	8.35	
2025-01-12 15:46:50.88	10.58	8.35	
2025-01-12 15:46:51.09	10.55	8.34	
2025-01-12 15:46:51.29	10.51	8.33	
2025-01-12 15:46:51.50	10.47	8.33	
2025-01-12 15:46:51.70	10.44	8.32	
2025-01-12 15:46:51.91	10.40	8.31	
2025-01-12 15:46:52.11	10.36	8.31	
2025-01-12 15:46:52.32	10.33	8.30	
2025-01-12 15:46:52.53	10.29	8.29	
2025-01-12 15:46:52.73	10.26	8.29	
2025-01-12 15:46:52.94	10.22	8.28	
2025-01-12 15:46:53.15	10.18	8.27	
2025-01-12 15:46:53.35	10.15	8.26	
2025-01-12 15:46:53.55	10.11	8.26	
2025-01-12 15:46:53.76	10.07	8.25	
2025-01-12 15:46:53.97	10.04	8.24	
2025-01-12 15:46:54.17	10.00	8.24	
2025-01-12 15:46:54.38	9.96	8.23	
2025-01-12 15:46:54.58	9.93	8.22	
2025-01-12 15:46:54.79	9.89	8.22	
2025-01-12 15:46:54.99	9.86	8.21	
2025-01-12 15:46:55.20	9.82	8.20	
2025-01-12 15:46:55.40	9.79	8.20	
2025-01-12 15:46:55.61	9.75	8.19	
2025-01-12 15:46:55.81	9.71	8.18	
2025-01-12 15:46:56.02	9.68	8.17	
2025-01-12 15:46:56.22	9.64	8.17	
2025-01-12 15:46:56.42	9.61	8.16	
2025-01-12 15:46:56.63	9.57	8.15	
2025-01-12 15:46:56.84	9.53	8.15	
2025-01-12 15:46:57.04	9.50	8.14	
2025-01-12 15:46:57.25	9.46	8.13	
2025-01-12 15:46:57.45	9.43	8.13	
2025-01-12 15:46:57.66	9.39	8.12	
2025-01-12 15:46:57.87	9.35	8.11	
2025-01-12 15:46:58.07	9.32	8.10	
2025-01-12 15:46:58.28	9.28	8.10	
2025-01-12 15:46:58.48	9.25	8.09	
2025-01-12 15:46:58.69	9.21	8.08	
2025-01-12 15:46:58.89	9.18	8.08	
2025-01-12 15:46:59.10	9.14	8.07	
2025-01-12 15:46:59.30	9.11	8.06	
2025-01-12 15:46:59.51	9.07	8.06	
2025-01-12 15:46:59.71	9.03	8.05	
2025-01-12 15:46:59.92	9.00	8.04	
2025-01-12 15:47:00.12	8.96	8.03	
2025-01-12 15:47:00.33	8.93	8.03	
2025-01-12 15:47:00.53	8.89	8.02	
2025-01-12 15:47:00.74	8.86	8.01	
2025-01-12 15:47:00.94	8.82	8.01	
