passes_logs/2025/01/12/SPB_Silybum_02/SPB_Silybum_02__20250112_185237_TERRA_rec.log

#Pass ID: 20250112_185237_TERRA
#Satellite: TERRA
#Configuration: TERRA
#Start time: 2025-01-12 18:52:37

#Version: 2.0.20230423
#Station: SPB_Silybum_02
#Location: 30.233357 lon 59.946436 lat
#TLE: 1 25994U 99068A   25011.77277381  .00000769  00000+0  16824-3 0  9997
#TLE: 2 25994  98.0222  74.9057 0003526  79.1717  32.7508 14.60388914333608

#Time	Az	El	Level	Level2	SNR	BER	Gain	Gain2
2025-01-12 18:52:39.93	172.32	4.19	
2025-01-12 18:52:40.13	172.32	4.20	
2025-01-12 18:52:40.34	172.33	4.22	
2025-01-12 18:52:40.54	172.33	4.23	
2025-01-12 18:52:40.75	172.34	4.25	
2025-01-12 18:52:40.96	172.34	4.26	
2025-01-12 18:52:41.16	172.35	4.28	
2025-01-12 18:52:41.37	172.35	4.29	
2025-01-12 18:52:41.59	172.36	4.31	
2025-01-12 18:52:41.79	172.36	4.32	
2025-01-12 18:52:42.00	172.37	4.34	
2025-01-12 18:52:42.20	172.37	4.35	
2025-01-12 18:52:42.41	172.38	4.37	
2025-01-12 18:52:42.61	172.38	4.38	
2025-01-12 18:52:42.82	172.39	4.40	
2025-01-12 18:52:43.02	172.39	4.41	
2025-01-12 18:52:43.23	172.40	4.43	
2025-01-12 18:52:43.43	172.40	4.44	
2025-01-12 18:52:43.64	172.41	4.46	
2025-01-12 18:52:43.84	172.41	4.47	
2025-01-12 18:52:44.05	172.42	4.49	
2025-01-12 18:52:44.25	172.42	4.50	
2025-01-12 18:52:44.46	172.43	4.52	
2025-01-12 18:52:44.66	172.43	4.53	
2025-01-12 18:52:44.87	172.44	4.55	
2025-01-12 18:52:45.07	172.44	4.56	
2025-01-12 18:52:45.28	172.45	4.58	
2025-01-12 18:52:45.49	172.45	4.59	
2025-01-12 18:52:45.69	172.46	4.61	
2025-01-12 18:52:45.90	172.47	4.62	
2025-01-12 18:52:46.10	172.47	4.64	
2025-01-12 18:52:46.31	172.48	4.65	
2025-01-12 18:52:46.51	172.48	4.67	
2025-01-12 18:52:46.72	172.49	4.68	
2025-01-12 18:52:46.94	172.49	4.70	
2025-01-12 18:52:47.14	172.50	4.71	
2025-01-12 18:52:47.35	172.50	4.73	
2025-01-12 18:52:47.55	172.51	4.74	
2025-01-12 18:52:47.76	172.51	4.76	
2025-01-12 18:52:47.96	172.52	4.77	
2025-01-12 18:52:48.17	172.52	4.79	
2025-01-12 18:52:48.37	172.53	4.80	
2025-01-12 18:52:48.58	172.53	4.82	
2025-01-12 18:52:48.78	172.54	4.83	
2025-01-12 18:52:48.99	172.54	4.85	
2025-01-12 18:52:49.19	172.55	4.86	
2025-01-12 18:52:49.40	172.55	4.88	
2025-01-12 18:52:49.60	172.56	4.90	
2025-01-12 18:52:49.81	172.56	4.91	
2025-01-12 18:52:50.01	172.57	4.93	
2025-01-12 18:52:50.22	172.57	4.94	
2025-01-12 18:52:50.43	172.58	4.96	
2025-01-12 18:52:50.63	172.58	4.97	
2025-01-12 18:52:50.84	172.59	4.99	
2025-01-12 18:52:51.05	172.59	5.00	
2025-01-12 18:52:51.26	172.60	5.02	
2025-01-12 18:52:51.47	172.60	5.03	
2025-01-12 18:52:51.68	172.61	5.05	
2025-01-12 18:52:51.88	172.62	5.06	
2025-01-12 18:52:52.09	172.62	5.08	
2025-01-12 18:52:52.29	172.63	5.10	
2025-01-12 18:52:52.50	172.63	5.11	
2025-01-12 18:52:52.70	172.64	5.13	
2025-01-12 18:52:52.91	172.64	5.14	
2025-01-12 18:52:53.11	172.65	5.16	
2025-01-12 18:52:53.32	172.65	5.17	
2025-01-12 18:52:53.52	172.66	5.19	
2025-01-12 18:52:53.73	172.66	5.20	
2025-01-12 18:52:53.94	172.67	5.22	
2025-01-12 18:52:54.14	172.67	5.23	
2025-01-12 18:52:54.35	172.68	5.25	
2025-01-12 18:52:54.55	172.68	5.26	
2025-01-12 18:52:54.75	172.69	5.28	
2025-01-12 18:52:54.96	172.69	5.30	
2025-01-12 18:52:55.17	172.70	5.31	
2025-01-12 18:52:55.37	172.71	5.33	
2025-01-12 18:52:55.58	172.71	5.34	
2025-01-12 18:52:55.78	172.72	5.36	
2025-01-12 18:52:55.99	172.72	5.37	
2025-01-12 18:52:56.19	172.73	5.39	
2025-01-12 18:52:56.40	172.73	5.40	
2025-01-12 18:52:56.60	172.74	5.42	
2025-01-12 18:52:56.81	172.74	5.43	
2025-01-12 18:52:57.01	172.75	5.45	
2025-01-12 18:52:57.22	172.75	5.47	
2025-01-12 18:52:57.42	172.76	5.48	
2025-01-12 18:52:57.64	172.76	5.50	
2025-01-12 18:52:57.84	172.77	5.51	
2025-01-12 18:52:58.05	172.78	5.53	
2025-01-12 18:52:58.26	172.78	5.55	
2025-01-12 18:52:58.46	172.79	5.56	
2025-01-12 18:52:58.68	172.79	5.58	
2025-01-12 18:52:58.89	172.80	5.59	
2025-01-12 18:52:59.09	172.80	5.61	
2025-01-12 18:52:59.30	172.81	5.62	
2025-01-12 18:52:59.50	172.81	5.64	
2025-01-12 18:52:59.71	172.82	5.66	
2025-01-12 18:52:59.91	172.82	5.67	
2025-01-12 18:53:00.11	172.83	5.69	
2025-01-12 18:53:00.32	172.84	5.70	
2025-01-12 18:53:00.53	172.84	5.72	
2025-01-12 18:53:00.73	172.85	5.73	
2025-01-12 18:53:00.94	172.85	5.75	
2025-01-12 18:53:01.14	172.86	5.77	
2025-01-12 18:53:01.34	172.86	5.78	
2025-01-12 18:53:01.55	172.87	5.80	
2025-01-12 18:53:01.76	172.87	5.81	
2025-01-12 18:53:01.96	172.88	5.83	
2025-01-12 18:53:02.17	172.88	5.84	
2025-01-12 18:53:02.37	172.89	5.86	
2025-01-12 18:53:02.58	172.90	5.88	
2025-01-12 18:53:02.78	172.90	5.89	
2025-01-12 18:53:03.00	172.91	5.91	
2025-01-12 18:53:03.21	172.91	5.92	
2025-01-12 18:53:03.41	172.92	5.94	
2025-01-12 18:53:03.62	172.92	5.96	
2025-01-12 18:53:03.82	172.93	5.97	
2025-01-12 18:53:04.04	172.93	5.99	
2025-01-12 18:53:04.25	172.94	6.01	
2025-01-12 18:53:04.46	172.95	6.02	
2025-01-12 18:53:04.66	172.95	6.04	
2025-01-12 18:53:04.87	172.96	6.05	
2025-01-12 18:53:05.07	172.96	6.07	
2025-01-12 18:53:05.27	172.97	6.08	
2025-01-12 18:53:05.48	172.97	6.10	
2025-01-12 18:53:05.69	172.98	6.12	
2025-01-12 18:53:05.89	172.99	6.13	
2025-01-12 18:53:06.09	172.99	6.15	
2025-01-12 18:53:06.30	173.00	6.16	
2025-01-12 18:53:06.50	173.00	6.18	
2025-01-12 18:53:06.71	173.01	6.20	
2025-01-12 18:53:06.91	173.01	6.21	
2025-01-12 18:53:07.12	173.02	6.23	
2025-01-12 18:53:07.33	173.02	6.25	
2025-01-12 18:53:07.54	173.03	6.26	
2025-01-12 18:53:07.75	173.04	6.28	
2025-01-12 18:53:07.95	173.04	6.29	
2025-01-12 18:53:08.16	173.05	6.31	
2025-01-12 18:53:08.38	173.05	6.33	
2025-01-12 18:53:08.58	173.06	6.34	
2025-01-12 18:53:08.79	173.07	6.36	
2025-01-12 18:53:08.99	173.07	6.38	
2025-01-12 18:53:09.20	173.08	6.39	
2025-01-12 18:53:09.40	173.08	6.41	
2025-01-12 18:53:09.61	173.09	6.42	
2025-01-12 18:53:09.81	173.09	6.44	
2025-01-12 18:53:10.02	173.10	6.46	
2025-01-12 18:53:10.22	173.11	6.47	
2025-01-12 18:53:10.42	173.11	6.49	
2025-01-12 18:53:10.63	173.12	6.50	
2025-01-12 18:53:10.83	173.12	6.52	
2025-01-12 18:53:11.04	173.13	6.54	
2025-01-12 18:53:11.25	173.13	6.55	
2025-01-12 18:53:11.45	173.14	6.57	
2025-01-12 18:53:11.65	173.15	6.59	
2025-01-12 18:53:11.86	173.15	6.60	
2025-01-12 18:53:12.07	173.16	6.62	
2025-01-12 18:53:12.27	173.16	6.64	
2025-01-12 18:53:12.48	173.17	6.65	
2025-01-12 18:53:12.68	173.17	6.67	
2025-01-12 18:53:12.89	173.18	6.68	
2025-01-12 18:53:13.10	173.19	6.70	
2025-01-12 18:53:13.30	173.19	6.72	
2025-01-12 18:53:13.50	173.20	6.73	
2025-01-12 18:53:13.71	173.20	6.75	
2025-01-12 18:53:13.91	173.21	6.77	
2025-01-12 18:53:14.12	173.22	6.78	
2025-01-12 18:53:14.32	173.22	6.80	
2025-01-12 18:53:14.53	173.23	6.82	
2025-01-12 18:53:14.73	173.23	6.83	
2025-01-12 18:53:14.94	173.24	6.85	
2025-01-12 18:53:15.14	173.24	6.86	
2025-01-12 18:53:15.35	173.25	6.88	
2025-01-12 18:53:15.56	173.26	6.90	
2025-01-12 18:53:15.76	173.26	6.91	
2025-01-12 18:53:15.96	173.27	6.93	
2025-01-12 18:53:16.17	173.27	6.95	
2025-01-12 18:53:16.38	173.28	6.96	
2025-01-12 18:53:16.58	173.29	6.98	
2025-01-12 18:53:16.78	173.29	7.00	
2025-01-12 18:53:16.99	173.30	7.01	
2025-01-12 18:53:17.19	173.30	7.03	
2025-01-12 18:53:17.40	173.31	7.05	
2025-01-12 18:53:17.61	173.32	7.06	
2025-01-12 18:53:17.81	173.32	7.08	
2025-01-12 18:53:18.01	173.33	7.10	
2025-01-12 18:53:18.22	173.33	7.11	
2025-01-12 18:53:18.42	173.34	7.13	
2025-01-12 18:53:18.63	173.35	7.15	
2025-01-12 18:53:18.84	173.35	7.16	
2025-01-12 18:53:19.04	173.36	7.18	
2025-01-12 18:53:19.25	173.36	7.20	
2025-01-12 18:53:19.45	173.37	7.21	
2025-01-12 18:53:19.66	173.38	7.23	
2025-01-12 18:53:19.86	173.38	7.25	
2025-01-12 18:53:20.08	173.39	7.27	
2025-01-12 18:53:20.29	173.39	7.28	
2025-01-12 18:53:20.49	173.40	7.30	
2025-01-12 18:53:20.70	173.41	7.32	
2025-01-12 18:53:20.90	173.41	7.33	
2025-01-12 18:53:21.11	173.42	7.35	
2025-01-12 18:53:21.31	173.42	7.37	
2025-01-12 18:53:21.51	173.43	7.38	
2025-01-12 18:53:21.72	173.44	7.40	
2025-01-12 18:53:21.93	173.44	7.42	
2025-01-12 18:53:22.14	173.45	7.43	
2025-01-12 18:53:22.35	173.46	7.45	
2025-01-12 18:53:22.55	173.46	7.47	
2025-01-12 18:53:22.76	173.47	7.49	
2025-01-12 18:53:22.96	173.47	7.50	
2025-01-12 18:53:23.18	173.48	7.52	
2025-01-12 18:53:23.39	173.49	7.54	
2025-01-12 18:53:23.59	173.49	7.55	
2025-01-12 18:53:23.80	173.50	7.57	
2025-01-12 18:53:24.00	173.51	7.59	
2025-01-12 18:53:24.21	173.51	7.61	
2025-01-12 18:53:24.41	173.52	7.62	
2025-01-12 18:53:24.62	173.52	7.64	
2025-01-12 18:53:24.82	173.53	7.66	
2025-01-12 18:53:25.03	173.54	7.67	
2025-01-12 18:53:25.23	173.54	7.69	
2025-01-12 18:53:25.45	173.55	7.71	
2025-01-12 18:53:25.66	173.56	7.73	
2025-01-12 18:53:25.86	173.56	7.74	
2025-01-12 18:53:26.07	173.57	7.76	
2025-01-12 18:53:26.27	173.57	7.78	
2025-01-12 18:53:26.48	173.58	7.80	
2025-01-12 18:53:26.68	173.59	7.81	
2025-01-12 18:53:26.89	173.59	7.83	
2025-01-12 18:53:27.10	173.60	7.85	
2025-01-12 18:53:27.30	173.61	7.86	
2025-01-12 18:53:27.52	173.61	7.88	
2025-01-12 18:53:27.73	173.62	7.90	
2025-01-12 18:53:27.93	173.62	7.92	
2025-01-12 18:53:28.14	173.63	7.93	
2025-01-12 18:53:28.34	173.64	7.95	
2025-01-12 18:53:28.55	173.64	7.97	
2025-01-12 18:53:28.75	173.65	7.99	
2025-01-12 18:53:28.96	173.66	8.00	
2025-01-12 18:53:29.16	173.66	8.02	
2025-01-12 18:53:29.37	173.67	8.04	
2025-01-12 18:53:29.57	173.68	8.06	
2025-01-12 18:53:29.77	173.68	8.07	
2025-01-12 18:53:29.98	173.69	8.09	
2025-01-12 18:53:30.19	173.69	8.11	
2025-01-12 18:53:30.39	173.70	8.12	
2025-01-12 18:53:30.60	173.71	8.14	
2025-01-12 18:53:30.80	173.71	8.16	
2025-01-12 18:53:31.01	173.72	8.18	
2025-01-12 18:53:31.21	173.73	8.19	
2025-01-12 18:53:31.42	173.73	8.21	
2025-01-12 18:53:31.62	173.74	8.23	
2025-01-12 18:53:31.83	173.75	8.25	
2025-01-12 18:53:32.03	173.75	8.26	
2025-01-12 18:53:32.24	173.76	8.28	
2025-01-12 18:53:32.44	173.77	8.30	
2025-01-12 18:53:32.65	173.77	8.32	
2025-01-12 18:53:32.85	173.78	8.33	
2025-01-12 18:53:33.06	173.79	8.35	
2025-01-12 18:53:33.27	173.79	8.37	
2025-01-12 18:53:33.47	173.80	8.39	
2025-01-12 18:53:33.68	173.80	8.41	
2025-01-12 18:53:33.88	173.81	8.42	
2025-01-12 18:53:34.08	173.82	8.44	
2025-01-12 18:53:34.31	173.83	8.46	
2025-01-12 18:53:34.52	173.83	8.48	
2025-01-12 18:53:34.72	173.84	8.50	
2025-01-12 18:53:34.93	173.84	8.51	
2025-01-12 18:53:35.14	173.85	8.53	
2025-01-12 18:53:35.34	173.86	8.55	
2025-01-12 18:53:35.54	173.86	8.57	
2025-01-12 18:53:35.75	173.87	8.58	
2025-01-12 18:53:35.95	173.88	8.60	
2025-01-12 18:53:36.16	173.88	8.62	
2025-01-12 18:53:36.36	173.89	8.64	
2025-01-12 18:53:36.57	173.90	8.66	
2025-01-12 18:53:36.78	173.90	8.67	
2025-01-12 18:53:36.98	173.91	8.69	
2025-01-12 18:53:37.19	173.92	8.71	
2025-01-12 18:53:37.39	173.92	8.73	
2025-01-12 18:53:37.60	173.93	8.75	
2025-01-12 18:53:37.80	173.94	8.76	
2025-01-12 18:53:38.01	173.94	8.78	
2025-01-12 18:53:38.21	173.95	8.80	
2025-01-12 18:53:38.42	173.96	8.82	
2025-01-12 18:53:38.62	173.96	8.83	
2025-01-12 18:53:38.83	173.97	8.85	
2025-01-12 18:53:39.03	173.98	8.87	
2025-01-12 18:53:39.24	173.98	8.89	
2025-01-12 18:53:39.44	173.99	8.91	
2025-01-12 18:53:39.65	174.00	8.92	
2025-01-12 18:53:39.85	174.00	8.94	
2025-01-12 18:53:40.06	174.01	8.96	
2025-01-12 18:53:40.26	174.02	8.98	
2025-01-12 18:53:40.47	174.03	9.00	
2025-01-12 18:53:40.67	174.03	9.01	
2025-01-12 18:53:40.88	174.04	9.03	
2025-01-12 18:53:41.08	174.05	9.05	
2025-01-12 18:53:41.29	174.05	9.07	
2025-01-12 18:53:41.49	174.06	9.09	
2025-01-12 18:53:41.70	174.07	9.11	
2025-01-12 18:53:41.90	174.07	9.12	
2025-01-12 18:53:42.11	174.08	9.14	
2025-01-12 18:53:42.31	174.09	9.16	
2025-01-12 18:53:42.52	174.09	9.18	
2025-01-12 18:53:42.72	174.10	9.20	
2025-01-12 18:53:42.93	174.11	9.21	
2025-01-12 18:53:43.14	174.11	9.23	
2025-01-12 18:53:43.34	174.12	9.25	
2025-01-12 18:53:43.55	174.13	9.27	
2025-01-12 18:53:43.75	174.14	9.29	
2025-01-12 18:53:43.96	174.14	9.31	
2025-01-12 18:53:44.16	174.15	9.32	
2025-01-12 18:53:44.37	174.16	9.34	
2025-01-12 18:53:44.57	174.16	9.36	
2025-01-12 18:53:44.77	174.17	9.38	
2025-01-12 18:53:44.98	174.18	9.40	
2025-01-12 18:53:45.18	174.18	9.42	
2025-01-12 18:53:45.39	174.19	9.43	
2025-01-12 18:53:45.59	174.20	9.45	
2025-01-12 18:53:45.79	174.20	9.47	
2025-01-12 18:53:46.00	174.21	9.49	
2025-01-12 18:53:46.20	174.22	9.51	
2025-01-12 18:53:46.41	174.23	9.53	
2025-01-12 18:53:46.61	174.23	9.54	
2025-01-12 18:53:46.82	174.24	9.56	
2025-01-12 18:53:47.02	174.25	9.58	
2025-01-12 18:53:47.23	174.25	9.60	
2025-01-12 18:53:47.44	174.26	9.62	
2025-01-12 18:53:47.64	174.27	9.64	
2025-01-12 18:53:47.85	174.28	9.66	
2025-01-12 18:53:48.05	174.28	9.68	
2025-01-12 18:53:48.26	174.29	9.69	
2025-01-12 18:53:48.46	174.30	9.71	
2025-01-12 18:53:48.67	174.30	9.73	
2025-01-12 18:53:48.87	174.31	9.75	
2025-01-12 18:53:49.08	174.32	9.77	
2025-01-12 18:53:49.28	174.33	9.79	
2025-01-12 18:53:49.49	174.33	9.81	
2025-01-12 18:53:49.69	174.34	9.82	
2025-01-12 18:53:49.90	174.35	9.84	
2025-01-12 18:53:50.10	174.35	9.86	
2025-01-12 18:53:50.31	174.36	9.88	
2025-01-12 18:53:50.52	174.37	9.90	
2025-01-12 18:53:50.72	174.38	9.92	
2025-01-12 18:53:50.92	174.38	9.94	
2025-01-12 18:53:51.13	174.39	9.96	
2025-01-12 18:53:51.34	174.40	9.98	
2025-01-12 18:53:51.54	174.40	9.99	
2025-01-12 18:53:51.75	174.41	10.01	
2025-01-12 18:53:51.95	174.42	10.03	
2025-01-12 18:53:52.16	174.43	10.05	
2025-01-12 18:53:52.36	174.43	10.07	
2025-01-12 18:53:52.56	174.44	10.09	
2025-01-12 18:53:52.77	174.45	10.11	
2025-01-12 18:53:52.98	174.46	10.13	
2025-01-12 18:53:53.18	174.46	10.15	
2025-01-12 18:53:53.39	174.47	10.17	
2025-01-12 18:53:53.59	174.48	10.18	
2025-01-12 18:53:53.80	174.49	10.20	
2025-01-12 18:53:54.00	174.49	10.22	
2025-01-12 18:53:54.20	174.50	10.24	
2025-01-12 18:53:54.41	174.51	10.26	
2025-01-12 18:53:54.62	174.51	10.28	
2025-01-12 18:53:54.82	174.52	10.30	
2025-01-12 18:53:55.03	174.53	10.32	
2025-01-12 18:53:55.23	174.54	10.34	
2025-01-12 18:53:55.44	174.54	10.36	
2025-01-12 18:53:55.64	174.55	10.38	
2025-01-12 18:53:55.85	174.56	10.40	
2025-01-12 18:53:56.06	174.57	10.41	
2025-01-12 18:53:56.26	174.57	10.43	
2025-01-12 18:53:56.46	174.58	10.45	
2025-01-12 18:53:56.67	174.59	10.47	
2025-01-12 18:53:56.87	174.60	10.49	
2025-01-12 18:53:57.08	174.60	10.51	
2025-01-12 18:53:57.29	174.61	10.53	
2025-01-12 18:53:57.49	174.62	10.55	
2025-01-12 18:53:57.69	174.63	10.57	
2025-01-12 18:53:57.91	174.63	10.59	
2025-01-12 18:53:58.11	174.64	10.61	
2025-01-12 18:53:58.31	174.65	10.63	
2025-01-12 18:53:58.52	174.66	10.65	
2025-01-12 18:53:58.72	174.66	10.67	
2025-01-12 18:53:58.92	174.67	10.68	
2025-01-12 18:53:59.13	174.68	10.70	
2025-01-12 18:53:59.33	174.69	10.72	
2025-01-12 18:53:59.53	174.69	10.74	
2025-01-12 18:53:59.74	174.70	10.76	
2025-01-12 18:53:59.94	174.71	10.78	
2025-01-12 18:54:00.15	174.72	10.80	
2025-01-12 18:54:00.35	174.73	10.82	
2025-01-12 18:54:00.56	174.73	10.84	
2025-01-12 18:54:00.76	174.74	10.86	
2025-01-12 18:54:00.97	174.75	10.88	
2025-01-12 18:54:01.18	174.76	10.90	
2025-01-12 18:54:01.38	174.76	10.92	
2025-01-12 18:54:01.58	174.77	10.94	
2025-01-12 18:54:01.79	174.78	10.96	
2025-01-12 18:54:02.00	174.79	10.98	
2025-01-12 18:54:02.20	174.79	11.00	
2025-01-12 18:54:02.41	174.80	11.02	
2025-01-12 18:54:02.61	174.81	11.04	
2025-01-12 18:54:02.83	174.82	11.06	
2025-01-12 18:54:03.03	174.83	11.08	
2025-01-12 18:54:03.24	174.83	11.10	
2025-01-12 18:54:03.44	174.84	11.12	
2025-01-12 18:54:03.65	174.85	11.14	
2025-01-12 18:54:03.85	174.86	11.16	
2025-01-12 18:54:04.06	174.87	11.18	
2025-01-12 18:54:04.26	174.87	11.20	
2025-01-12 18:54:04.47	174.88	11.22	
2025-01-12 18:54:04.67	174.89	11.24	
2025-01-12 18:54:04.88	174.90	11.26	
2025-01-12 18:54:05.08	174.91	11.28	
2025-01-12 18:54:05.29	174.91	11.30	
2025-01-12 18:54:05.49	174.92	11.32	
2025-01-12 18:54:05.70	174.93	11.34	
2025-01-12 18:54:05.90	174.94	11.36	
2025-01-12 18:54:06.11	174.94	11.38	
2025-01-12 18:54:06.31	174.95	11.40	
2025-01-12 18:54:06.52	174.96	11.42	
2025-01-12 18:54:06.72	174.97	11.44	
2025-01-12 18:54:06.92	174.98	11.46	
2025-01-12 18:54:07.13	174.98	11.48	
2025-01-12 18:54:07.34	174.99	11.50	
2025-01-12 18:54:07.54	175.00	11.52	
2025-01-12 18:54:07.75	175.01	11.54	
2025-01-12 18:54:07.95	175.02	11.56	
2025-01-12 18:54:08.16	175.03	11.58	
2025-01-12 18:54:08.36	175.03	11.60	
2025-01-12 18:54:08.57	175.04	11.62	
2025-01-12 18:54:08.77	175.05	11.64	
2025-01-12 18:54:08.98	175.06	11.66	
2025-01-12 18:54:09.19	175.07	11.68	
2025-01-12 18:54:09.40	175.07	11.70	
2025-01-12 18:54:09.60	175.08	11.72	
2025-01-12 18:54:09.81	175.09	11.74	
2025-01-12 18:54:10.01	175.10	11.76	
2025-01-12 18:54:10.22	175.11	11.78	
2025-01-12 18:54:10.43	175.12	11.81	
2025-01-12 18:54:10.63	175.12	11.83	
2025-01-12 18:54:10.84	175.13	11.85	
2025-01-12 18:54:11.04	175.14	11.87	
2025-01-12 18:54:11.25	175.15	11.89	
2025-01-12 18:54:11.45	175.16	11.91	
2025-01-12 18:54:11.66	175.16	11.93	
2025-01-12 18:54:11.86	175.17	11.95	
2025-01-12 18:54:12.07	175.18	11.97	
2025-01-12 18:54:12.27	175.19	11.99	
2025-01-12 18:54:12.48	175.20	12.01	
2025-01-12 18:54:12.68	175.21	12.03	
2025-01-12 18:54:12.89	175.21	12.05	
2025-01-12 18:54:13.10	175.22	12.07	
2025-01-12 18:54:13.30	175.23	12.09	
2025-01-12 18:54:13.51	175.24	12.12	
2025-01-12 18:54:13.71	175.25	12.14	
2025-01-12 18:54:13.92	175.26	12.16	
2025-01-12 18:54:14.12	175.26	12.18	
2025-01-12 18:54:14.33	175.27	12.20	
2025-01-12 18:54:14.53	175.28	12.22	
2025-01-12 18:54:14.74	175.29	12.24	
2025-01-12 18:54:14.94	175.30	12.26	
2025-01-12 18:54:15.15	175.31	12.28	
2025-01-12 18:54:15.35	175.32	12.30	
2025-01-12 18:54:15.55	175.32	12.32	
2025-01-12 18:54:15.76	175.33	12.34	
2025-01-12 18:54:15.97	175.34	12.37	
2025-01-12 18:54:16.17	175.35	12.39	
2025-01-12 18:54:16.37	175.36	12.41	
2025-01-12 18:54:16.58	175.37	12.43	
2025-01-12 18:54:16.78	175.37	12.45	
2025-01-12 18:54:16.99	175.38	12.47	
2025-01-12 18:54:17.19	175.39	12.49	
2025-01-12 18:54:17.40	175.40	12.51	
2025-01-12 18:54:17.60	175.41	12.53	
2025-01-12 18:54:17.81	175.42	12.55	
2025-01-12 18:54:18.02	175.43	12.58	
2025-01-12 18:54:18.22	175.44	12.60	
2025-01-12 18:54:18.43	175.44	12.62	
2025-01-12 18:54:18.63	175.45	12.64	
2025-01-12 18:54:18.83	175.46	12.66	
2025-01-12 18:54:19.04	175.47	12.68	
2025-01-12 18:54:19.25	175.48	12.70	
2025-01-12 18:54:19.45	175.49	12.72	
2025-01-12 18:54:19.66	175.50	12.75	
2025-01-12 18:54:19.86	175.50	12.77	
2025-01-12 18:54:20.07	175.51	12.79	
2025-01-12 18:54:20.27	175.52	12.81	
2025-01-12 18:54:20.48	175.53	12.83	
2025-01-12 18:54:20.69	175.54	12.85	
2025-01-12 18:54:20.90	175.55	12.88	
2025-01-12 18:54:21.11	175.56	12.90	
2025-01-12 18:54:21.32	175.57	12.92	
2025-01-12 18:54:21.52	175.58	12.94	
2025-01-12 18:54:21.73	175.58	12.96	
2025-01-12 18:54:21.93	175.59	12.98	
2025-01-12 18:54:22.14	175.60	13.01	
2025-01-12 18:54:22.34	175.61	13.03	
2025-01-12 18:54:22.55	175.62	13.05	
2025-01-12 18:54:22.75	175.63	13.07	
2025-01-12 18:54:22.95	175.64	13.09	
2025-01-12 18:54:23.16	175.65	13.11	
2025-01-12 18:54:23.37	175.66	13.14	
2025-01-12 18:54:23.57	175.66	13.16	
2025-01-12 18:54:23.78	175.67	13.18	
2025-01-12 18:54:23.98	175.68	13.20	
2025-01-12 18:54:24.19	175.69	13.22	
2025-01-12 18:54:24.39	175.70	13.24	
2025-01-12 18:54:24.60	175.71	13.27	
2025-01-12 18:54:24.81	175.72	13.29	
2025-01-12 18:54:25.01	175.73	13.31	
2025-01-12 18:54:25.21	175.74	13.33	
2025-01-12 18:54:25.42	175.75	13.35	
2025-01-12 18:54:25.63	175.76	13.38	
2025-01-12 18:54:25.83	175.76	13.40	
2025-01-12 18:54:26.04	175.77	13.42	
2025-01-12 18:54:26.24	175.78	13.44	
2025-01-12 18:54:26.44	175.79	13.46	
2025-01-12 18:54:26.65	175.80	13.49	
2025-01-12 18:54:26.85	175.81	13.51	
2025-01-12 18:54:27.06	175.82	13.53	
2025-01-12 18:54:27.26	175.83	13.55	
2025-01-12 18:54:27.47	175.84	13.57	
2025-01-12 18:54:27.67	175.85	13.60	
2025-01-12 18:54:27.88	175.86	13.62	
2025-01-12 18:54:28.08	175.87	13.64	
2025-01-12 18:54:28.29	175.88	13.66	
2025-01-12 18:54:28.49	175.88	13.68	
2025-01-12 18:54:28.70	175.89	13.71	
2025-01-12 18:54:28.91	175.90	13.73	
2025-01-12 18:54:29.11	175.91	13.75	
2025-01-12 18:54:29.32	175.92	13.77	
2025-01-12 18:54:29.52	175.93	13.80	
2025-01-12 18:54:29.72	175.94	13.82	
2025-01-12 18:54:29.93	175.95	13.84	
2025-01-12 18:54:30.14	175.96	13.86	
2025-01-12 18:54:30.34	175.97	13.89	
2025-01-12 18:54:30.55	175.98	13.91	
2025-01-12 18:54:30.75	175.99	13.93	
2025-01-12 18:54:30.96	176.00	13.95	
2025-01-12 18:54:31.17	176.01	13.98	
2025-01-12 18:54:31.37	176.02	14.00	
2025-01-12 18:54:31.58	176.03	14.02	
2025-01-12 18:54:31.78	176.04	14.04	
2025-01-12 18:54:31.99	176.04	14.07	
2025-01-12 18:54:32.19	176.05	14.09	
2025-01-12 18:54:32.40	176.06	14.11	
2025-01-12 18:54:32.60	176.07	14.14	
2025-01-12 18:54:32.81	176.08	14.16	
2025-01-12 18:54:33.01	176.09	14.18	
2025-01-12 18:54:33.22	176.10	14.20	
2025-01-12 18:54:33.43	176.11	14.23	
2025-01-12 18:54:33.63	176.12	14.25	
2025-01-12 18:54:33.83	176.13	14.27	
2025-01-12 18:54:34.04	176.14	14.30	
2025-01-12 18:54:34.24	176.15	14.32	
2025-01-12 18:54:34.45	176.16	14.34	
2025-01-12 18:54:34.67	176.17	14.37	
2025-01-12 18:54:34.87	176.18	14.39	
2025-01-12 18:54:35.08	176.19	14.41	
2025-01-12 18:54:35.28	176.20	14.43	
2025-01-12 18:54:35.49	176.21	14.46	
2025-01-12 18:54:35.69	176.22	14.48	
2025-01-12 18:54:35.90	176.23	14.50	
2025-01-12 18:54:36.11	176.24	14.53	
2025-01-12 18:54:36.31	176.25	14.55	
2025-01-12 18:54:36.52	176.26	14.57	
2025-01-12 18:54:36.72	176.27	14.60	
2025-01-12 18:54:36.93	176.28	14.62	
2025-01-12 18:54:37.13	176.29	14.64	
2025-01-12 18:54:37.34	176.30	14.67	
2025-01-12 18:54:37.55	176.31	14.69	
2025-01-12 18:54:37.75	176.32	14.71	
2025-01-12 18:54:37.97	176.33	14.74	
2025-01-12 18:54:38.18	176.34	14.76	
2025-01-12 18:54:38.38	176.35	14.78	
2025-01-12 18:54:38.59	176.36	14.81	
2025-01-12 18:54:38.80	176.37	14.83	
2025-01-12 18:54:39.00	176.38	14.85	
2025-01-12 18:54:39.20	176.39	14.88	
2025-01-12 18:54:39.41	176.40	14.90	
2025-01-12 18:54:39.62	176.41	14.93	
2025-01-12 18:54:39.82	176.42	14.95	
2025-01-12 18:54:40.04	176.43	14.97	
2025-01-12 18:54:40.25	176.44	15.00	
2025-01-12 18:54:40.46	176.45	15.02	
2025-01-12 18:54:40.67	176.46	15.05	
2025-01-12 18:54:40.88	176.47	15.07	
2025-01-12 18:54:41.08	176.48	15.09	
2025-01-12 18:54:41.28	176.49	15.12	
2025-01-12 18:54:41.49	176.50	15.14	
2025-01-12 18:54:41.70	176.51	15.17	
2025-01-12 18:54:41.90	176.52	15.19	
2025-01-12 18:54:42.10	176.53	15.21	
2025-01-12 18:54:42.31	176.54	15.24	
2025-01-12 18:54:42.52	176.55	15.26	
2025-01-12 18:54:42.72	176.56	15.28	
2025-01-12 18:54:42.93	176.58	15.31	
2025-01-12 18:54:43.13	176.59	15.33	
2025-01-12 18:54:43.34	176.60	15.36	
2025-01-12 18:54:43.54	176.61	15.38	
2025-01-12 18:54:43.75	176.62	15.40	
2025-01-12 18:54:43.95	176.63	15.43	
2025-01-12 18:54:44.16	176.64	15.45	
2025-01-12 18:54:44.36	176.65	15.48	
2025-01-12 18:54:44.57	176.66	15.50	
2025-01-12 18:54:44.77	176.67	15.52	
2025-01-12 18:54:44.98	176.68	15.55	
2025-01-12 18:54:45.18	176.69	15.57	
2025-01-12 18:54:45.38	176.70	15.60	
2025-01-12 18:54:45.59	176.71	15.62	
2025-01-12 18:54:45.80	176.72	15.65	
2025-01-12 18:54:46.00	176.73	15.67	
2025-01-12 18:54:46.21	176.74	15.69	
2025-01-12 18:54:46.41	176.75	15.72	
2025-01-12 18:54:46.62	176.76	15.74	
2025-01-12 18:54:46.82	176.77	15.77	
2025-01-12 18:54:47.03	176.79	15.79	
2025-01-12 18:54:47.24	176.80	15.82	
2025-01-12 18:54:47.44	176.81	15.84	
2025-01-12 18:54:47.65	176.82	15.87	
2025-01-12 18:54:47.85	176.83	15.89	
2025-01-12 18:54:48.06	176.84	15.91	
2025-01-12 18:54:48.26	176.85	15.94	
2025-01-12 18:54:48.47	176.86	15.96	
2025-01-12 18:54:48.67	176.87	15.99	
2025-01-12 18:54:48.88	176.88	16.01	
2025-01-12 18:54:49.08	176.89	16.04	
2025-01-12 18:54:49.29	176.90	16.06	
2025-01-12 18:54:49.49	176.92	16.09	
2025-01-12 18:54:49.70	176.93	16.11	
2025-01-12 18:54:49.90	176.94	16.14	
2025-01-12 18:54:50.11	176.95	16.16	
2025-01-12 18:54:50.31	176.96	16.19	
2025-01-12 18:54:50.52	176.97	16.21	
2025-01-12 18:54:50.72	176.98	16.24	
2025-01-12 18:54:50.93	176.99	16.26	
2025-01-12 18:54:51.13	177.00	16.29	
2025-01-12 18:54:51.34	177.01	16.31	
2025-01-12 18:54:51.54	177.03	16.34	
2025-01-12 18:54:51.75	177.04	16.36	
2025-01-12 18:54:51.95	177.05	16.39	
2025-01-12 18:54:52.16	177.06	16.41	
2025-01-12 18:54:52.36	177.07	16.44	
2025-01-12 18:54:52.57	177.08	16.46	
2025-01-12 18:54:52.77	177.09	16.49	
2025-01-12 18:54:52.99	177.10	16.51	
2025-01-12 18:54:53.20	177.12	16.54	
2025-01-12 18:54:53.40	177.13	16.56	
2025-01-12 18:54:53.60	177.14	16.59	
2025-01-12 18:54:53.81	177.15	16.61	
2025-01-12 18:54:54.01	177.16	16.64	
2025-01-12 18:54:54.22	177.17	16.66	
2025-01-12 18:54:54.43	177.18	16.69	
2025-01-12 18:54:54.63	177.19	16.72	
2025-01-12 18:54:54.84	177.21	16.74	
2025-01-12 18:54:55.04	177.22	16.77	
2025-01-12 18:54:55.25	177.23	16.79	
2025-01-12 18:54:55.45	177.24	16.82	
2025-01-12 18:54:55.66	177.25	16.84	
2025-01-12 18:54:55.86	177.26	16.87	
2025-01-12 18:54:56.08	177.28	16.90	
2025-01-12 18:54:56.29	177.29	16.92	
2025-01-12 18:54:56.49	177.30	16.95	
2025-01-12 18:54:56.70	177.31	16.97	
2025-01-12 18:54:56.90	177.32	17.00	
2025-01-12 18:54:57.11	177.33	17.02	
2025-01-12 18:54:57.31	177.35	17.05	
2025-01-12 18:54:57.52	177.36	17.08	
2025-01-12 18:54:57.72	177.37	17.10	
2025-01-12 18:54:57.93	177.38	17.13	
2025-01-12 18:54:58.14	177.39	17.15	
2025-01-12 18:54:58.34	177.40	17.18	
2025-01-12 18:54:58.55	177.42	17.21	
2025-01-12 18:54:58.75	177.43	17.23	
2025-01-12 18:54:58.96	177.44	17.26	
2025-01-12 18:54:59.16	177.45	17.28	
2025-01-12 18:54:59.38	177.46	17.31	
2025-01-12 18:54:59.59	177.48	17.34	
2025-01-12 18:54:59.80	177.49	17.37	
2025-01-12 18:55:00.00	177.50	17.39	
2025-01-12 18:55:00.20	177.51	17.42	
2025-01-12 18:55:00.42	177.52	17.44	
2025-01-12 18:55:00.63	177.54	17.47	
2025-01-12 18:55:00.83	177.55	17.50	
2025-01-12 18:55:01.04	177.56	17.52	
2025-01-12 18:55:01.24	177.57	17.55	
2025-01-12 18:55:01.45	177.58	17.58	
2025-01-12 18:55:01.65	177.60	17.60	
2025-01-12 18:55:01.86	177.61	17.63	
2025-01-12 18:55:02.06	177.62	17.66	
2025-01-12 18:55:02.27	177.63	17.68	
2025-01-12 18:55:02.47	177.64	17.71	
2025-01-12 18:55:02.68	177.66	17.74	
2025-01-12 18:55:02.88	177.67	17.76	
2025-01-12 18:55:03.09	177.68	17.79	
2025-01-12 18:55:03.29	177.69	17.81	
2025-01-12 18:55:03.49	177.70	17.84	
2025-01-12 18:55:03.70	177.72	17.87	
2025-01-12 18:55:03.91	177.73	17.90	
2025-01-12 18:55:04.11	177.74	17.92	
2025-01-12 18:55:04.32	177.75	17.95	
2025-01-12 18:55:04.52	177.77	17.98	
2025-01-12 18:55:04.73	177.78	18.00	
2025-01-12 18:55:04.93	177.79	18.03	
2025-01-12 18:55:05.14	177.80	18.06	
2025-01-12 18:55:05.34	177.82	18.08	
2025-01-12 18:55:05.55	177.83	18.11	
2025-01-12 18:55:05.75	177.84	18.14	
2025-01-12 18:55:05.96	177.85	18.16	
2025-01-12 18:55:06.17	177.87	18.19	
2025-01-12 18:55:06.37	177.88	18.22	
2025-01-12 18:55:06.58	177.89	18.25	
2025-01-12 18:55:06.78	177.90	18.27	
2025-01-12 18:55:06.99	177.92	18.30	
2025-01-12 18:55:07.19	177.93	18.33	
2025-01-12 18:55:07.39	177.94	18.35	
2025-01-12 18:55:07.60	177.95	18.38	
2025-01-12 18:55:07.80	177.97	18.41	
2025-01-12 18:55:08.01	177.98	18.44	
2025-01-12 18:55:08.21	177.99	18.46	
2025-01-12 18:55:08.42	178.01	18.49	
2025-01-12 18:55:08.62	178.02	18.52	
2025-01-12 18:55:08.83	178.03	18.55	
2025-01-12 18:55:09.03	178.04	18.57	
2025-01-12 18:55:09.24	178.06	18.60	
2025-01-12 18:55:09.45	178.07	18.63	
2025-01-12 18:55:09.65	178.08	18.66	
2025-01-12 18:55:09.85	178.10	18.68	
2025-01-12 18:55:10.06	178.11	18.71	
2025-01-12 18:55:10.27	178.12	18.74	
2025-01-12 18:55:10.47	178.13	18.77	
2025-01-12 18:55:10.68	178.15	18.80	
2025-01-12 18:55:10.88	178.16	18.82	
2025-01-12 18:55:11.10	178.17	18.85	
2025-01-12 18:55:11.31	178.19	18.88	
2025-01-12 18:55:11.51	178.20	18.91	
2025-01-12 18:55:11.72	178.21	18.94	
2025-01-12 18:55:11.93	178.23	18.97	
2025-01-12 18:55:12.14	178.24	19.00	
2025-01-12 18:55:12.35	178.26	19.02	
2025-01-12 18:55:12.56	178.27	19.05	
2025-01-12 18:55:12.76	178.28	19.08	
2025-01-12 18:55:12.97	178.30	19.11	
2025-01-12 18:55:13.17	178.31	19.14	
2025-01-12 18:55:13.37	178.32	19.16	
2025-01-12 18:55:13.58	178.33	19.19	
2025-01-12 18:55:13.79	178.35	19.22	
2025-01-12 18:55:13.99	178.36	19.25	
2025-01-12 18:55:14.20	178.38	19.28	
2025-01-12 18:55:14.40	178.39	19.31	
2025-01-12 18:55:14.61	178.40	19.34	
2025-01-12 18:55:14.81	178.42	19.36	
2025-01-12 18:55:15.02	178.43	19.39	
2025-01-12 18:55:15.22	178.44	19.42	
2025-01-12 18:55:15.43	178.46	19.45	
2025-01-12 18:55:15.64	178.47	19.48	
2025-01-12 18:55:15.85	178.48	19.51	
2025-01-12 18:55:16.06	178.50	19.54	
2025-01-12 18:55:16.26	178.51	19.57	
2025-01-12 18:55:16.47	178.53	19.60	
2025-01-12 18:55:16.67	178.54	19.62	
2025-01-12 18:55:16.88	178.55	19.65	
2025-01-12 18:55:17.08	178.57	19.68	
2025-01-12 18:55:17.29	178.58	19.71	
2025-01-12 18:55:17.51	178.60	19.74	
2025-01-12 18:55:17.71	178.61	19.77	
2025-01-12 18:55:17.92	178.62	19.80	
2025-01-12 18:55:18.12	178.64	19.83	
2025-01-12 18:55:18.33	178.65	19.86	
2025-01-12 18:55:18.55	178.67	19.89	
2025-01-12 18:55:18.75	178.68	19.92	
2025-01-12 18:55:18.95	178.69	19.95	
2025-01-12 18:55:19.16	178.71	19.98	
2025-01-12 18:55:19.36	178.72	20.00	
2025-01-12 18:55:19.56	178.74	20.03	
2025-01-12 18:55:19.77	178.75	20.06	
2025-01-12 18:55:19.98	178.77	20.09	
2025-01-12 18:55:20.18	178.78	20.12	
2025-01-12 18:55:20.39	178.79	20.15	
2025-01-12 18:55:20.59	178.81	20.18	
2025-01-12 18:55:20.80	178.82	20.21	
2025-01-12 18:55:21.00	178.84	20.24	
2025-01-12 18:55:21.21	178.85	20.27	
2025-01-12 18:55:21.41	178.86	20.30	
2025-01-12 18:55:21.62	178.88	20.33	
2025-01-12 18:55:21.82	178.89	20.36	
2025-01-12 18:55:22.03	178.91	20.39	
2025-01-12 18:55:22.23	178.92	20.42	
2025-01-12 18:55:22.44	178.94	20.45	
2025-01-12 18:55:22.64	178.95	20.48	
2025-01-12 18:55:22.85	178.97	20.51	
2025-01-12 18:55:23.05	178.98	20.54	
2025-01-12 18:55:23.26	179.00	20.57	
2025-01-12 18:55:23.46	179.01	20.60	
2025-01-12 18:55:23.67	179.02	20.63	
2025-01-12 18:55:23.87	179.04	20.66	
2025-01-12 18:55:24.08	179.05	20.69	
2025-01-12 18:55:24.29	179.07	20.72	
2025-01-12 18:55:24.49	179.08	20.75	
2025-01-12 18:55:24.70	179.10	20.78	
2025-01-12 18:55:24.90	179.11	20.81	
2025-01-12 18:55:25.11	179.13	20.84	
2025-01-12 18:55:25.31	179.14	20.87	
2025-01-12 18:55:25.52	179.16	20.90	
2025-01-12 18:55:25.72	179.17	20.93	
2025-01-12 18:55:25.93	179.19	20.96	
2025-01-12 18:55:26.14	179.20	20.99	
2025-01-12 18:55:26.34	179.22	21.02	
2025-01-12 18:55:26.55	179.23	21.05	
2025-01-12 18:55:26.76	179.25	21.09	
2025-01-12 18:55:26.96	179.26	21.11	
2025-01-12 18:55:27.17	179.28	21.15	
2025-01-12 18:55:27.37	179.29	21.18	
2025-01-12 18:55:27.58	179.31	21.21	
2025-01-12 18:55:27.79	179.33	21.24	
2025-01-12 18:55:27.99	179.34	21.27	
2025-01-12 18:55:28.20	179.36	21.30	
2025-01-12 18:55:28.41	179.37	21.33	
2025-01-12 18:55:28.61	179.39	21.36	
2025-01-12 18:55:28.82	179.40	21.39	
2025-01-12 18:55:29.02	179.42	21.42	
2025-01-12 18:55:29.22	179.43	21.46	
2025-01-12 18:55:29.43	179.45	21.49	
2025-01-12 18:55:29.64	179.47	21.52	
2025-01-12 18:55:29.84	179.48	21.55	
2025-01-12 18:55:30.05	179.50	21.58	
2025-01-12 18:55:30.25	179.51	21.61	
2025-01-12 18:55:30.45	179.53	21.64	
2025-01-12 18:55:30.66	179.54	21.67	
2025-01-12 18:55:30.87	179.56	21.71	
2025-01-12 18:55:31.07	179.57	21.74	
2025-01-12 18:55:31.28	179.59	21.77	
2025-01-12 18:55:31.48	179.61	21.80	
2025-01-12 18:55:31.69	179.62	21.83	
2025-01-12 18:55:31.89	179.64	21.86	
2025-01-12 18:55:32.10	179.65	21.90	
2025-01-12 18:55:32.30	179.67	21.93	
2025-01-12 18:55:32.51	179.69	21.96	
2025-01-12 18:55:32.72	179.70	21.99	
2025-01-12 18:55:32.92	179.72	22.02	
2025-01-12 18:55:33.13	179.73	22.06	
2025-01-12 18:55:33.33	179.75	22.09	
2025-01-12 18:55:33.54	179.77	22.12	
2025-01-12 18:55:33.74	179.78	22.15	
2025-01-12 18:55:33.95	179.80	22.18	
2025-01-12 18:55:34.16	179.82	22.22	
2025-01-12 18:55:34.36	179.83	22.25	
2025-01-12 18:55:34.57	179.85	22.28	
2025-01-12 18:55:34.77	179.86	22.31	
2025-01-12 18:55:34.98	179.88	22.34	
2025-01-12 18:55:35.18	179.90	22.38	
2025-01-12 18:55:35.39	179.91	22.41	
2025-01-12 18:55:35.61	179.93	22.44	
2025-01-12 18:55:35.81	179.95	22.48	
2025-01-12 18:55:36.02	179.97	22.51	
2025-01-12 18:55:36.23	179.98	22.54	
2025-01-12 18:55:36.43	180.00	22.57	
2025-01-12 18:55:36.64	180.02	22.61	
2025-01-12 18:55:36.84	180.03	22.64	
2025-01-12 18:55:37.05	180.05	22.67	
2025-01-12 18:55:37.26	180.07	22.71	
2025-01-12 18:55:37.46	180.08	22.74	
2025-01-12 18:55:37.67	180.10	22.77	
2025-01-12 18:55:37.87	180.12	22.80	
2025-01-12 18:55:38.08	180.13	22.84	
2025-01-12 18:55:38.28	180.15	22.87	
2025-01-12 18:55:38.49	180.17	22.90	
2025-01-12 18:55:38.69	180.18	22.94	
2025-01-12 18:55:38.89	180.20	22.97	
2025-01-12 18:55:39.10	180.22	23.00	
2025-01-12 18:55:39.31	180.24	23.04	
2025-01-12 18:55:39.51	180.25	23.07	
2025-01-12 18:55:39.72	180.27	23.10	
2025-01-12 18:55:39.92	180.29	23.13	
2025-01-12 18:55:40.13	180.30	23.17	
2025-01-12 18:55:40.33	180.32	23.20	
2025-01-12 18:55:40.54	180.34	23.23	
2025-01-12 18:55:40.75	180.36	23.27	
2025-01-12 18:55:40.96	180.38	23.30	
2025-01-12 18:55:41.17	180.39	23.34	
2025-01-12 18:55:41.38	180.41	23.37	
2025-01-12 18:55:41.58	180.43	23.40	
2025-01-12 18:55:41.79	180.45	23.44	
2025-01-12 18:55:41.99	180.46	23.47	
2025-01-12 18:55:42.20	180.48	23.51	
2025-01-12 18:55:42.40	180.50	23.54	
2025-01-12 18:55:42.61	180.52	23.57	
2025-01-12 18:55:42.81	180.53	23.61	
2025-01-12 18:55:43.01	180.55	23.64	
2025-01-12 18:55:43.22	180.57	23.68	
2025-01-12 18:55:43.42	180.59	23.71	
2025-01-12 18:55:43.63	180.61	23.74	
2025-01-12 18:55:43.84	180.62	23.78	
2025-01-12 18:55:44.04	180.64	23.81	
2025-01-12 18:55:44.25	180.66	23.85	
2025-01-12 18:55:44.45	180.68	23.88	
2025-01-12 18:55:44.66	180.70	23.92	
2025-01-12 18:55:44.86	180.71	23.95	
2025-01-12 18:55:45.07	180.73	23.98	
2025-01-12 18:55:45.27	180.75	24.02	
2025-01-12 18:55:45.48	180.77	24.05	
2025-01-12 18:55:45.68	180.79	24.09	
2025-01-12 18:55:45.89	180.81	24.12	
2025-01-12 18:55:46.09	180.82	24.16	
2025-01-12 18:55:46.30	180.84	24.19	
2025-01-12 18:55:46.51	180.86	24.23	
2025-01-12 18:55:46.71	180.88	24.26	
2025-01-12 18:55:46.91	180.90	24.29	
2025-01-12 18:55:47.12	180.92	24.33	
2025-01-12 18:55:47.32	180.93	24.36	
2025-01-12 18:55:47.53	180.95	24.40	
2025-01-12 18:55:47.74	180.97	24.44	
2025-01-12 18:55:47.94	180.99	24.47	
2025-01-12 18:55:48.15	181.01	24.51	
2025-01-12 18:55:48.35	181.03	24.54	
2025-01-12 18:55:48.55	181.05	24.58	
2025-01-12 18:55:48.76	181.07	24.61	
2025-01-12 18:55:48.97	181.09	24.65	
2025-01-12 18:55:49.17	181.11	24.68	
2025-01-12 18:55:49.38	181.12	24.72	
2025-01-12 18:55:49.58	181.14	24.75	
2025-01-12 18:55:49.79	181.16	24.79	
2025-01-12 18:55:49.99	181.18	24.82	
2025-01-12 18:55:50.20	181.20	24.86	
2025-01-12 18:55:50.40	181.22	24.89	
2025-01-12 18:55:50.62	181.24	24.93	
2025-01-12 18:55:50.82	181.26	24.97	
2025-01-12 18:55:51.03	181.28	25.00	
2025-01-12 18:55:51.24	181.30	25.04	
2025-01-12 18:55:51.44	181.32	25.08	
2025-01-12 18:55:51.64	181.34	25.11	
2025-01-12 18:55:51.85	181.36	25.15	
2025-01-12 18:55:52.05	181.38	25.18	
2025-01-12 18:55:52.26	181.40	25.22	
2025-01-12 18:55:52.46	181.42	25.26	
2025-01-12 18:55:52.67	181.44	25.29	
2025-01-12 18:55:52.87	181.46	25.33	
2025-01-12 18:55:53.08	181.48	25.37	
2025-01-12 18:55:53.28	181.50	25.40	
2025-01-12 18:55:53.49	181.52	25.44	
2025-01-12 18:55:53.69	181.54	25.47	
2025-01-12 18:55:53.90	181.56	25.51	
2025-01-12 18:55:54.10	181.58	25.55	
2025-01-12 18:55:54.31	181.60	25.58	
2025-01-12 18:55:54.51	181.62	25.62	
2025-01-12 18:55:54.72	181.64	25.66	
2025-01-12 18:55:54.92	181.66	25.69	
2025-01-12 18:55:55.13	181.68	25.73	
2025-01-12 18:55:55.33	181.70	25.77	
2025-01-12 18:55:55.54	181.72	25.80	
2025-01-12 18:55:55.74	181.74	25.84	
2025-01-12 18:55:55.95	181.76	25.88	
2025-01-12 18:55:56.15	181.78	25.91	
2025-01-12 18:55:56.36	181.80	25.95	
2025-01-12 18:55:56.56	181.82	25.99	
2025-01-12 18:55:56.77	181.84	26.03	
2025-01-12 18:55:56.97	181.86	26.06	
2025-01-12 18:55:57.18	181.88	26.10	
2025-01-12 18:55:57.38	181.90	26.14	
2025-01-12 18:55:57.59	181.93	26.18	
2025-01-12 18:55:57.80	181.95	26.21	
2025-01-12 18:55:58.01	181.97	26.25	
2025-01-12 18:55:58.22	181.99	26.29	
2025-01-12 18:55:58.43	182.01	26.33	
2025-01-12 18:55:58.63	182.03	26.37	
2025-01-12 18:55:58.84	182.05	26.41	
2025-01-12 18:55:59.04	182.07	26.44	
2025-01-12 18:55:59.25	182.10	26.48	
2025-01-12 18:55:59.45	182.12	26.52	
2025-01-12 18:55:59.66	182.14	26.56	
2025-01-12 18:55:59.86	182.16	26.59	
2025-01-12 18:56:00.07	182.18	26.63	
2025-01-12 18:56:00.27	182.20	26.67	
2025-01-12 18:56:00.48	182.23	26.71	
2025-01-12 18:56:00.68	182.25	26.75	
2025-01-12 18:56:00.89	182.27	26.79	
2025-01-12 18:56:01.09	182.29	26.82	
2025-01-12 18:56:01.30	182.31	26.86	
2025-01-12 18:56:01.50	182.33	26.90	
2025-01-12 18:56:01.71	182.36	26.94	
2025-01-12 18:56:01.92	182.38	26.98	
2025-01-12 18:56:02.12	182.40	27.02	
2025-01-12 18:56:02.33	182.42	27.06	
2025-01-12 18:56:02.53	182.44	27.09	
2025-01-12 18:56:02.74	182.47	27.13	
2025-01-12 18:56:02.95	182.49	27.17	
2025-01-12 18:56:03.15	182.51	27.21	
2025-01-12 18:56:03.37	182.54	27.25	
2025-01-12 18:56:03.57	182.56	27.29	
2025-01-12 18:56:03.78	182.58	27.33	
2025-01-12 18:56:03.98	182.60	27.37	
2025-01-12 18:56:04.19	182.63	27.41	
2025-01-12 18:56:04.41	182.65	27.45	
2025-01-12 18:56:04.61	182.67	27.49	
2025-01-12 18:56:04.82	182.70	27.53	
2025-01-12 18:56:05.02	182.72	27.57	
2025-01-12 18:56:05.23	182.74	27.61	
2025-01-12 18:56:05.43	182.76	27.65	
2025-01-12 18:56:05.64	182.79	27.69	
2025-01-12 18:56:05.85	182.81	27.73	
2025-01-12 18:56:06.05	182.83	27.77	
2025-01-12 18:56:06.26	182.86	27.81	
2025-01-12 18:56:06.46	182.88	27.85	
2025-01-12 18:56:06.66	182.90	27.89	
2025-01-12 18:56:06.87	182.93	27.93	
2025-01-12 18:56:07.08	182.95	27.97	
2025-01-12 18:56:07.28	182.97	28.01	
2025-01-12 18:56:07.49	183.00	28.05	
2025-01-12 18:56:07.69	183.02	28.09	
2025-01-12 18:56:07.90	183.04	28.13	
2025-01-12 18:56:08.10	183.07	28.17	
2025-01-12 18:56:08.31	183.09	28.21	
2025-01-12 18:56:08.51	183.12	28.25	
2025-01-12 18:56:08.73	183.14	28.29	
2025-01-12 18:56:08.94	183.17	28.33	
2025-01-12 18:56:09.14	183.19	28.37	
2025-01-12 18:56:09.35	183.21	28.41	
2025-01-12 18:56:09.55	183.24	28.45	
2025-01-12 18:56:09.76	183.26	28.49	
2025-01-12 18:56:09.96	183.29	28.53	
2025-01-12 18:56:10.17	183.31	28.58	
2025-01-12 18:56:10.38	183.34	28.62	
2025-01-12 18:56:10.58	183.36	28.66	
2025-01-12 18:56:10.78	183.38	28.70	
2025-01-12 18:56:10.99	183.41	28.74	
2025-01-12 18:56:11.20	183.43	28.78	
2025-01-12 18:56:11.40	183.46	28.82	
2025-01-12 18:56:11.61	183.48	28.86	
2025-01-12 18:56:11.81	183.51	28.91	
2025-01-12 18:56:12.01	183.53	28.95	
2025-01-12 18:56:12.22	183.56	28.99	
2025-01-12 18:56:12.42	183.58	29.03	
2025-01-12 18:56:12.63	183.61	29.07	
2025-01-12 18:56:12.84	183.63	29.11	
2025-01-12 18:56:13.04	183.66	29.15	
2025-01-12 18:56:13.25	183.68	29.20	
2025-01-12 18:56:13.45	183.71	29.24	
2025-01-12 18:56:13.66	183.73	29.28	
2025-01-12 18:56:13.87	183.76	29.32	
2025-01-12 18:56:14.07	183.78	29.36	
2025-01-12 18:56:14.28	183.81	29.41	
2025-01-12 18:56:14.48	183.84	29.45	
2025-01-12 18:56:14.69	183.86	29.49	
2025-01-12 18:56:14.89	183.89	29.53	
2025-01-12 18:56:15.10	183.91	29.58	
2025-01-12 18:56:15.30	183.94	29.62	
2025-01-12 18:56:15.51	183.97	29.66	
2025-01-12 18:56:15.71	183.99	29.70	
2025-01-12 18:56:15.92	184.02	29.75	
2025-01-12 18:56:16.12	184.04	29.79	
2025-01-12 18:56:16.33	184.07	29.83	
2025-01-12 18:56:16.53	184.10	29.87	
2025-01-12 18:56:16.74	184.12	29.92	
2025-01-12 18:56:16.94	184.15	29.96	
2025-01-12 18:56:17.15	184.18	30.00	
2025-01-12 18:56:17.35	184.20	30.04	
2025-01-12 18:56:17.56	184.23	30.09	
2025-01-12 18:56:17.76	184.26	30.13	
2025-01-12 18:56:17.97	184.28	30.17	
2025-01-12 18:56:18.17	184.31	30.22	
2025-01-12 18:56:18.39	184.34	30.26	
2025-01-12 18:56:18.60	184.37	30.31	
2025-01-12 18:56:18.80	184.39	30.35	
2025-01-12 18:56:19.01	184.42	30.39	
2025-01-12 18:56:19.22	184.45	30.44	
2025-01-12 18:56:19.44	184.48	30.49	
2025-01-12 18:56:19.64	184.50	30.53	
2025-01-12 18:56:19.85	184.53	30.57	
2025-01-12 18:56:20.05	184.56	30.62	
2025-01-12 18:56:20.26	184.59	30.66	
2025-01-12 18:56:20.48	184.62	30.71	
2025-01-12 18:56:20.68	184.64	30.75	
2025-01-12 18:56:20.89	184.67	30.80	
2025-01-12 18:56:21.09	184.70	30.84	
2025-01-12 18:56:21.30	184.73	30.88	
2025-01-12 18:56:21.52	184.76	30.93	
2025-01-12 18:56:21.72	184.79	30.97	
2025-01-12 18:56:21.93	184.82	31.02	
2025-01-12 18:56:22.13	184.84	31.06	
2025-01-12 18:56:22.34	184.87	31.11	
2025-01-12 18:56:22.54	184.90	31.15	
2025-01-12 18:56:22.75	184.93	31.20	
2025-01-12 18:56:22.95	184.96	31.24	
2025-01-12 18:56:23.16	184.99	31.29	
2025-01-12 18:56:23.36	185.02	31.33	
2025-01-12 18:56:23.57	185.04	31.38	
2025-01-12 18:56:23.77	185.07	31.42	
2025-01-12 18:56:23.97	185.10	31.47	
2025-01-12 18:56:24.18	185.13	31.51	
2025-01-12 18:56:24.39	185.16	31.56	
2025-01-12 18:56:24.60	185.19	31.60	
2025-01-12 18:56:24.81	185.22	31.65	
2025-01-12 18:56:25.01	185.25	31.69	
2025-01-12 18:56:25.22	185.28	31.74	
2025-01-12 18:56:25.42	185.31	31.79	
2025-01-12 18:56:25.63	185.34	31.83	
2025-01-12 18:56:25.85	185.37	31.88	
2025-01-12 18:56:26.05	185.40	31.93	
2025-01-12 18:56:26.26	185.43	31.97	
2025-01-12 18:56:26.46	185.46	32.02	
2025-01-12 18:56:26.67	185.49	32.06	
2025-01-12 18:56:26.87	185.52	32.11	
2025-01-12 18:56:27.08	185.55	32.16	
2025-01-12 18:56:27.28	185.58	32.20	
2025-01-12 18:56:27.49	185.61	32.25	
2025-01-12 18:56:27.70	185.64	32.30	
2025-01-12 18:56:27.90	185.67	32.34	
2025-01-12 18:56:28.10	185.70	32.39	
2025-01-12 18:56:28.31	185.74	32.43	
2025-01-12 18:56:28.52	185.77	32.48	
2025-01-12 18:56:28.72	185.80	32.53	
2025-01-12 18:56:28.93	185.83	32.58	
2025-01-12 18:56:29.13	185.86	32.62	
2025-01-12 18:56:29.34	185.89	32.67	
2025-01-12 18:56:29.54	185.92	32.71	
2025-01-12 18:56:29.75	185.96	32.76	
2025-01-12 18:56:29.95	185.99	32.81	
2025-01-12 18:56:30.17	186.02	32.86	
2025-01-12 18:56:30.38	186.05	32.91	
2025-01-12 18:56:30.58	186.08	32.95	
2025-01-12 18:56:30.79	186.12	33.00	
2025-01-12 18:56:31.00	186.15	33.05	
2025-01-12 18:56:31.21	186.18	33.10	
2025-01-12 18:56:31.42	186.22	33.15	
2025-01-12 18:56:31.63	186.25	33.20	
2025-01-12 18:56:31.83	186.28	33.24	
2025-01-12 18:56:32.04	186.31	33.29	
2025-01-12 18:56:32.24	186.35	33.34	
2025-01-12 18:56:32.45	186.38	33.39	
2025-01-12 18:56:32.65	186.41	33.43	
2025-01-12 18:56:32.86	186.44	33.48	
2025-01-12 18:56:33.06	186.48	33.53	
2025-01-12 18:56:33.27	186.51	33.58	
2025-01-12 18:56:33.47	186.54	33.63	
2025-01-12 18:56:33.68	186.58	33.68	
2025-01-12 18:56:33.88	186.61	33.72	
2025-01-12 18:56:34.09	186.64	33.77	
2025-01-12 18:56:34.29	186.68	33.82	
2025-01-12 18:56:34.49	186.71	33.87	
2025-01-12 18:56:34.70	186.74	33.92	
2025-01-12 18:56:34.90	186.78	33.96	
2025-01-12 18:56:35.11	186.81	34.01	
2025-01-12 18:56:35.31	186.85	34.06	
2025-01-12 18:56:35.52	186.88	34.11	
2025-01-12 18:56:35.72	186.91	34.16	
2025-01-12 18:56:35.93	186.95	34.21	
2025-01-12 18:56:36.13	186.98	34.26	
2025-01-12 18:56:36.34	187.02	34.31	
2025-01-12 18:56:36.54	187.05	34.36	
2025-01-12 18:56:36.74	187.09	34.40	
2025-01-12 18:56:36.95	187.12	34.46	
2025-01-12 18:56:37.16	187.16	34.51	
2025-01-12 18:56:37.36	187.19	34.55	
2025-01-12 18:56:37.57	187.23	34.61	
2025-01-12 18:56:37.77	187.26	34.65	
2025-01-12 18:56:37.98	187.30	34.70	
2025-01-12 18:56:38.18	187.33	34.75	
2025-01-12 18:56:38.39	187.37	34.80	
2025-01-12 18:56:38.59	187.40	34.85	
2025-01-12 18:56:38.80	187.44	34.90	
2025-01-12 18:56:39.01	187.48	34.96	
2025-01-12 18:56:39.21	187.51	35.00	
2025-01-12 18:56:39.42	187.55	35.06	
2025-01-12 18:56:39.63	187.59	35.11	
2025-01-12 18:56:39.83	187.62	35.16	
2025-01-12 18:56:40.04	187.66	35.21	
2025-01-12 18:56:40.24	187.70	35.26	
2025-01-12 18:56:40.45	187.73	35.31	
2025-01-12 18:56:40.65	187.77	35.36	
2025-01-12 18:56:40.86	187.81	35.41	
2025-01-12 18:56:41.06	187.84	35.46	
2025-01-12 18:56:41.27	187.88	35.51	
2025-01-12 18:56:41.47	187.92	35.56	
2025-01-12 18:56:41.68	187.96	35.62	
2025-01-12 18:56:41.90	188.00	35.67	
2025-01-12 18:56:42.10	188.03	35.72	
2025-01-12 18:56:42.31	188.07	35.77	
2025-01-12 18:56:42.51	188.11	35.82	
2025-01-12 18:56:42.71	188.15	35.87	
2025-01-12 18:56:42.92	188.19	35.93	
2025-01-12 18:56:43.13	188.23	35.98	
2025-01-12 18:56:43.33	188.26	36.03	
2025-01-12 18:56:43.54	188.30	36.08	
2025-01-12 18:56:43.74	188.34	36.13	
2025-01-12 18:56:43.94	188.38	36.18	
2025-01-12 18:56:44.15	188.42	36.24	
2025-01-12 18:56:44.36	188.46	36.29	
2025-01-12 18:56:44.56	188.50	36.34	
2025-01-12 18:56:44.77	188.54	36.39	
2025-01-12 18:56:44.97	188.58	36.45	
2025-01-12 18:56:45.18	188.62	36.50	
2025-01-12 18:56:45.38	188.66	36.55	
2025-01-12 18:56:45.59	188.70	36.60	
2025-01-12 18:56:45.79	188.74	36.66	
2025-01-12 18:56:46.00	188.78	36.71	
2025-01-12 18:56:46.20	188.82	36.76	
2025-01-12 18:56:46.41	188.86	36.81	
2025-01-12 18:56:46.61	188.90	36.87	
2025-01-12 18:56:46.82	188.94	36.92	
2025-01-12 18:56:47.03	188.98	36.98	
2025-01-12 18:56:47.24	189.02	37.03	
2025-01-12 18:56:47.45	189.06	37.08	
2025-01-12 18:56:47.65	189.10	37.14	
2025-01-12 18:56:47.86	189.15	37.19	
2025-01-12 18:56:48.06	189.19	37.24	
2025-01-12 18:56:48.27	189.23	37.30	
2025-01-12 18:56:48.47	189.27	37.35	
2025-01-12 18:56:48.68	189.31	37.40	
2025-01-12 18:56:48.88	189.35	37.46	
2025-01-12 18:56:49.09	189.40	37.51	
2025-01-12 18:56:49.29	189.44	37.56	
2025-01-12 18:56:49.50	189.48	37.62	
2025-01-12 18:56:49.71	189.52	37.68	
2025-01-12 18:56:49.91	189.57	37.73	
2025-01-12 18:56:50.12	189.61	37.78	
2025-01-12 18:56:50.32	189.65	37.84	
2025-01-12 18:56:50.53	189.70	37.89	
2025-01-12 18:56:50.73	189.74	37.95	
2025-01-12 18:56:50.94	189.78	38.00	
2025-01-12 18:56:51.14	189.83	38.05	
2025-01-12 18:56:51.35	189.87	38.11	
2025-01-12 18:56:51.55	189.91	38.16	
2025-01-12 18:56:51.76	189.96	38.22	
2025-01-12 18:56:51.96	190.00	38.27	
2025-01-12 18:56:52.17	190.05	38.33	
2025-01-12 18:56:52.38	190.09	38.39	
2025-01-12 18:56:52.58	190.14	38.44	
2025-01-12 18:56:52.79	190.18	38.50	
2025-01-12 18:56:52.99	190.23	38.55	
2025-01-12 18:56:53.20	190.27	38.61	
2025-01-12 18:56:53.40	190.32	38.66	
2025-01-12 18:56:53.61	190.36	38.72	
2025-01-12 18:56:53.81	190.41	38.77	
2025-01-12 18:56:54.02	190.45	38.83	
2025-01-12 18:56:54.22	190.50	38.88	
2025-01-12 18:56:54.43	190.54	38.94	
2025-01-12 18:56:54.63	190.59	38.99	
2025-01-12 18:56:54.84	190.64	39.05	
2025-01-12 18:56:55.04	190.68	39.11	
2025-01-12 18:56:55.25	190.73	39.16	
2025-01-12 18:56:55.46	190.78	39.22	
2025-01-12 18:56:55.66	190.82	39.28	
2025-01-12 18:56:55.87	190.87	39.33	
2025-01-12 18:56:56.07	190.92	39.39	
2025-01-12 18:56:56.28	190.97	39.45	
2025-01-12 18:56:56.48	191.01	39.50	
2025-01-12 18:56:56.69	191.06	39.56	
2025-01-12 18:56:56.89	191.11	39.61	
2025-01-12 18:56:57.10	191.16	39.67	
2025-01-12 18:56:57.30	191.21	39.73	
2025-01-12 18:56:57.51	191.25	39.79	
2025-01-12 18:56:57.72	191.30	39.84	
2025-01-12 18:56:57.92	191.35	39.90	
2025-01-12 18:56:58.13	191.40	39.96	
2025-01-12 18:56:58.33	191.45	40.01	
2025-01-12 18:56:58.54	191.50	40.07	
2025-01-12 18:56:58.74	191.55	40.13	
2025-01-12 18:56:58.94	191.60	40.19	
2025-01-12 18:56:59.15	191.65	40.24	
2025-01-12 18:56:59.35	191.70	40.30	
2025-01-12 18:56:59.56	191.75	40.36	
2025-01-12 18:56:59.76	191.80	40.42	
2025-01-12 18:56:59.97	191.85	40.47	
2025-01-12 18:57:00.17	191.90	40.53	
2025-01-12 18:57:00.37	191.95	40.59	
2025-01-12 18:57:00.58	192.00	40.65	
2025-01-12 18:57:00.79	192.05	40.71	
2025-01-12 18:57:00.99	192.10	40.76	
2025-01-12 18:57:01.20	192.16	40.82	
2025-01-12 18:57:01.40	192.21	40.88	
2025-01-12 18:57:01.61	192.26	40.94	
2025-01-12 18:57:01.81	192.31	41.00	
2025-01-12 18:57:02.02	192.36	41.06	
2025-01-12 18:57:02.22	192.42	41.11	
2025-01-12 18:57:02.43	192.47	41.17	
2025-01-12 18:57:02.64	192.52	41.23	
2025-01-12 18:57:02.84	192.58	41.29	
2025-01-12 18:57:03.05	192.63	41.35	
2025-01-12 18:57:03.25	192.68	41.41	
2025-01-12 18:57:03.45	192.74	41.47	
2025-01-12 18:57:03.66	192.79	41.53	
2025-01-12 18:57:03.87	192.85	41.59	
2025-01-12 18:57:04.07	192.90	41.65	
2025-01-12 18:57:04.28	192.96	41.71	
2025-01-12 18:57:04.48	193.01	41.77	
2025-01-12 18:57:04.69	193.06	41.83	
2025-01-12 18:57:04.89	193.12	41.88	
2025-01-12 18:57:05.10	193.18	41.95	
2025-01-12 18:57:05.30	193.23	42.00	
2025-01-12 18:57:05.51	193.29	42.06	
2025-01-12 18:57:05.71	193.34	42.12	
2025-01-12 18:57:05.92	193.40	42.18	
2025-01-12 18:57:06.12	193.45	42.24	
2025-01-12 18:57:06.33	193.51	42.30	
2025-01-12 18:57:06.53	193.57	42.36	
2025-01-12 18:57:06.74	193.63	42.43	
2025-01-12 18:57:06.94	193.68	42.48	
2025-01-12 18:57:07.15	193.74	42.55	
2025-01-12 18:57:07.36	193.80	42.61	
2025-01-12 18:57:07.56	193.86	42.67	
2025-01-12 18:57:07.77	193.92	42.73	
2025-01-12 18:57:07.97	193.97	42.79	
2025-01-12 18:57:08.18	194.03	42.85	
2025-01-12 18:57:08.38	194.09	42.91	
2025-01-12 18:57:08.59	194.15	42.97	
2025-01-12 18:57:08.79	194.21	43.03	
2025-01-12 18:57:09.00	194.27	43.09	
2025-01-12 18:57:09.20	194.33	43.15	
2025-01-12 18:57:09.41	194.39	43.22	
2025-01-12 18:57:09.61	194.45	43.28	
2025-01-12 18:57:09.82	194.51	43.34	
2025-01-12 18:57:10.02	194.57	43.40	
2025-01-12 18:57:10.23	194.63	43.46	
2025-01-12 18:57:10.44	194.69	43.52	
2025-01-12 18:57:10.64	194.75	43.58	
2025-01-12 18:57:10.85	194.81	43.65	
2025-01-12 18:57:11.05	194.88	43.71	
2025-01-12 18:57:11.26	194.94	43.77	
2025-01-12 18:57:11.46	195.00	43.83	
2025-01-12 18:57:11.67	195.06	43.89	
2025-01-12 18:57:11.88	195.13	43.96	
2025-01-12 18:57:12.09	195.19	44.02	
2025-01-12 18:57:12.29	195.25	44.08	
2025-01-12 18:57:12.50	195.32	44.15	
2025-01-12 18:57:12.70	195.38	44.21	
2025-01-12 18:57:12.92	195.45	44.27	
2025-01-12 18:57:13.13	195.52	44.34	
2025-01-12 18:57:13.33	195.58	44.40	
2025-01-12 18:57:13.54	195.64	44.46	
2025-01-12 18:57:13.74	195.71	44.52	
2025-01-12 18:57:13.95	195.77	44.59	
2025-01-12 18:57:14.15	195.84	44.65	
2025-01-12 18:57:14.36	195.91	44.71	
2025-01-12 18:57:14.56	195.97	44.77	
2025-01-12 18:57:14.77	196.04	44.84	
2025-01-12 18:57:14.97	196.10	44.90	
2025-01-12 18:57:15.18	196.17	44.96	
2025-01-12 18:57:15.38	196.24	45.03	
2025-01-12 18:57:15.59	196.31	45.09	
2025-01-12 18:57:15.80	196.38	45.16	
2025-01-12 18:57:16.00	196.44	45.22	
2025-01-12 18:57:16.21	196.51	45.28	
2025-01-12 18:57:16.41	196.58	45.34	
2025-01-12 18:57:16.62	196.65	45.41	
2025-01-12 18:57:16.82	196.72	45.47	
2025-01-12 18:57:17.03	196.79	45.54	
2025-01-12 18:57:17.23	196.85	45.60	
2025-01-12 18:57:17.44	196.93	45.66	
2025-01-12 18:57:17.64	196.99	45.73	
2025-01-12 18:57:17.85	197.07	45.79	
2025-01-12 18:57:18.05	197.14	45.85	
2025-01-12 18:57:18.26	197.21	45.92	
2025-01-12 18:57:18.46	197.28	45.98	
2025-01-12 18:57:18.67	197.35	46.05	
2025-01-12 18:57:18.87	197.42	46.11	
2025-01-12 18:57:19.08	197.49	46.17	
2025-01-12 18:57:19.28	197.57	46.24	
2025-01-12 18:57:19.49	197.64	46.30	
2025-01-12 18:57:19.69	197.71	46.37	
2025-01-12 18:57:19.90	197.79	46.43	
2025-01-12 18:57:20.10	197.86	46.49	
2025-01-12 18:57:20.31	197.93	46.56	
2025-01-12 18:57:20.51	198.01	46.62	
2025-01-12 18:57:20.72	198.08	46.69	
2025-01-12 18:57:20.92	198.16	46.75	
2025-01-12 18:57:21.13	198.23	46.82	
2025-01-12 18:57:21.34	198.31	46.89	
2025-01-12 18:57:21.54	198.38	46.95	
2025-01-12 18:57:21.75	198.46	47.02	
2025-01-12 18:57:21.95	198.54	47.08	
2025-01-12 18:57:22.16	198.61	47.15	
2025-01-12 18:57:22.37	198.69	47.21	
2025-01-12 18:57:22.57	198.77	47.28	
2025-01-12 18:57:22.77	198.84	47.34	
2025-01-12 18:57:22.98	198.92	47.41	
2025-01-12 18:57:23.18	199.00	47.47	
2025-01-12 18:57:23.39	199.08	47.54	
2025-01-12 18:57:23.60	199.16	47.60	
2025-01-12 18:57:23.80	199.24	47.67	
2025-01-12 18:57:24.00	199.32	47.73	
2025-01-12 18:57:24.21	199.40	47.80	
2025-01-12 18:57:24.42	199.48	47.86	
2025-01-12 18:57:24.62	199.56	47.93	
2025-01-12 18:57:24.82	199.64	47.99	
2025-01-12 18:57:25.03	199.72	48.06	
2025-01-12 18:57:25.24	199.81	48.13	
2025-01-12 18:57:25.44	199.89	48.19	
2025-01-12 18:57:25.64	199.97	48.26	
2025-01-12 18:57:25.85	200.05	48.32	
2025-01-12 18:57:26.06	200.14	48.39	
2025-01-12 18:57:26.26	200.22	48.45	
2025-01-12 18:57:26.47	200.30	48.52	
2025-01-12 18:57:26.67	200.39	48.59	
2025-01-12 18:57:26.89	200.48	48.66	
2025-01-12 18:57:27.10	200.56	48.73	
2025-01-12 18:57:27.30	200.65	48.79	
2025-01-12 18:57:27.51	200.74	48.86	
2025-01-12 18:57:27.72	200.82	48.92	
2025-01-12 18:57:27.92	200.91	48.99	
2025-01-12 18:57:28.12	200.99	49.05	
2025-01-12 18:57:28.33	201.08	49.12	
2025-01-12 18:57:28.54	201.17	49.19	
2025-01-12 18:57:28.74	201.26	49.25	
2025-01-12 18:57:28.94	201.34	49.32	
2025-01-12 18:57:29.15	201.43	49.39	
2025-01-12 18:57:29.35	201.52	49.45	
2025-01-12 18:57:29.56	201.61	49.52	
2025-01-12 18:57:29.76	201.70	49.59	
2025-01-12 18:57:29.97	201.79	49.65	
2025-01-12 18:57:30.17	201.88	49.72	
2025-01-12 18:57:30.38	201.97	49.79	
2025-01-12 18:57:30.58	202.06	49.85	
2025-01-12 18:57:30.79	202.16	49.92	
2025-01-12 18:57:30.99	202.25	49.98	
2025-01-12 18:57:31.20	202.34	50.05	
2025-01-12 18:57:31.40	202.43	50.12	
2025-01-12 18:57:31.61	202.53	50.19	
2025-01-12 18:57:31.82	202.62	50.25	
2025-01-12 18:57:32.02	202.72	50.32	
2025-01-12 18:57:32.22	202.81	50.38	
2025-01-12 18:57:32.43	202.91	50.45	
2025-01-12 18:57:32.64	203.00	50.52	
2025-01-12 18:57:32.84	203.10	50.59	
2025-01-12 18:57:33.05	203.20	50.66	
2025-01-12 18:57:33.25	203.29	50.72	
2025-01-12 18:57:33.45	203.39	50.79	
2025-01-12 18:57:33.66	203.49	50.85	
2025-01-12 18:57:33.87	203.59	50.92	
2025-01-12 18:57:34.07	203.68	50.99	
2025-01-12 18:57:34.27	203.78	51.05	
2025-01-12 18:57:34.48	203.88	51.12	
2025-01-12 18:57:34.69	203.98	51.19	
2025-01-12 18:57:34.89	204.08	51.26	
2025-01-12 18:57:35.10	204.18	51.32	
2025-01-12 18:57:35.30	204.28	51.39	
2025-01-12 18:57:35.51	204.39	51.46	
2025-01-12 18:57:35.71	204.49	51.52	
2025-01-12 18:57:35.92	204.59	51.59	
2025-01-12 18:57:36.12	204.69	51.66	
2025-01-12 18:57:36.33	204.80	51.73	
2025-01-12 18:57:36.53	204.90	51.79	
2025-01-12 18:57:36.74	205.01	51.86	
2025-01-12 18:57:36.94	205.11	51.93	
2025-01-12 18:57:37.15	205.22	51.99	
2025-01-12 18:57:37.35	205.32	52.06	
2025-01-12 18:57:37.56	205.43	52.13	
2025-01-12 18:57:37.76	205.53	52.19	
2025-01-12 18:57:37.97	205.64	52.26	
2025-01-12 18:57:38.18	205.75	52.33	
2025-01-12 18:57:38.38	205.86	52.40	
2025-01-12 18:57:38.59	205.97	52.47	
2025-01-12 18:57:38.79	206.08	52.53	
2025-01-12 18:57:39.00	206.19	52.60	
2025-01-12 18:57:39.20	206.30	52.66	
2025-01-12 18:57:39.41	206.41	52.73	
2025-01-12 18:57:39.61	206.52	52.80	
2025-01-12 18:57:39.82	206.64	52.87	
2025-01-12 18:57:40.02	206.74	52.93	
2025-01-12 18:57:40.23	206.86	53.00	
2025-01-12 18:57:40.43	206.97	53.07	
2025-01-12 18:57:40.63	207.08	53.13	
2025-01-12 18:57:40.84	207.20	53.20	
2025-01-12 18:57:41.04	207.31	53.27	
2025-01-12 18:57:41.25	207.43	53.33	
2025-01-12 18:57:41.45	207.54	53.40	
2025-01-12 18:57:41.66	207.66	53.47	
2025-01-12 18:57:41.86	207.78	53.53	
2025-01-12 18:57:42.07	207.90	53.60	
2025-01-12 18:57:42.27	208.01	53.67	
2025-01-12 18:57:42.48	208.13	53.73	
2025-01-12 18:57:42.68	208.25	53.80	
2025-01-12 18:57:42.89	208.37	53.87	
2025-01-12 18:57:43.09	208.49	53.93	
2025-01-12 18:57:43.30	208.61	54.00	
2025-01-12 18:57:43.50	208.73	54.06	
2025-01-12 18:57:43.71	208.86	54.13	
2025-01-12 18:57:43.91	208.98	54.20	
2025-01-12 18:57:44.12	209.10	54.27	
2025-01-12 18:57:44.32	209.22	54.33	
2025-01-12 18:57:44.53	209.35	54.40	
2025-01-12 18:57:44.73	209.47	54.46	
2025-01-12 18:57:44.94	209.60	54.53	
2025-01-12 18:57:45.14	209.72	54.59	
2025-01-12 18:57:45.35	209.85	54.66	
2025-01-12 18:57:45.55	209.98	54.73	
2025-01-12 18:57:45.76	210.11	54.79	
2025-01-12 18:57:45.96	210.23	54.86	
2025-01-12 18:57:46.17	210.37	54.93	
2025-01-12 18:57:46.37	210.49	54.99	
2025-01-12 18:57:46.58	210.63	55.06	
2025-01-12 18:57:46.79	210.76	55.12	
2025-01-12 18:57:46.99	210.89	55.19	
2025-01-12 18:57:47.20	211.02	55.26	
2025-01-12 18:57:47.40	211.15	55.32	
2025-01-12 18:57:47.61	211.29	55.39	
2025-01-12 18:57:47.81	211.42	55.45	
2025-01-12 18:57:48.02	211.56	55.52	
2025-01-12 18:57:48.22	211.69	55.58	
2025-01-12 18:57:48.43	211.83	55.65	
2025-01-12 18:57:48.63	211.96	55.71	
2025-01-12 18:57:48.84	212.10	55.78	
2025-01-12 18:57:49.05	212.24	55.84	
2025-01-12 18:57:49.25	212.38	55.91	
2025-01-12 18:57:49.46	212.52	55.97	
2025-01-12 18:57:49.66	212.66	56.04	
2025-01-12 18:57:49.87	212.80	56.10	
2025-01-12 18:57:50.08	212.94	56.17	
2025-01-12 18:57:50.28	213.08	56.23	
2025-01-12 18:57:50.48	213.22	56.29	
2025-01-12 18:57:50.69	213.37	56.36	
2025-01-12 18:57:50.89	213.51	56.42	
2025-01-12 18:57:51.10	213.65	56.49	
2025-01-12 18:57:51.30	213.80	56.55	
2025-01-12 18:57:51.51	213.94	56.62	
2025-01-12 18:57:51.71	214.09	56.68	
2025-01-12 18:57:51.92	214.24	56.74	
2025-01-12 18:57:52.12	214.38	56.81	
2025-01-12 18:57:52.34	214.54	56.87	
2025-01-12 18:57:52.54	214.69	56.94	
2025-01-12 18:57:52.74	214.83	57.00	
2025-01-12 18:57:52.95	214.99	57.06	
2025-01-12 18:57:53.16	215.14	57.13	
2025-01-12 18:57:53.36	215.29	57.19	
2025-01-12 18:57:53.58	215.45	57.26	
2025-01-12 18:57:53.78	215.60	57.32	
2025-01-12 18:57:53.99	215.76	57.38	
2025-01-12 18:57:54.20	215.92	57.44	
2025-01-12 18:57:54.40	216.07	57.51	
2025-01-12 18:57:54.61	216.23	57.57	
2025-01-12 18:57:54.81	216.38	57.63	
2025-01-12 18:57:55.02	216.54	57.69	
2025-01-12 18:57:55.22	216.70	57.75	
2025-01-12 18:57:55.43	216.86	57.82	
2025-01-12 18:57:55.63	217.02	57.88	
2025-01-12 18:57:55.84	217.18	57.94	
2025-01-12 18:57:56.04	217.34	58.00	
2025-01-12 18:57:56.25	217.50	58.06	
2025-01-12 18:57:56.45	217.66	58.12	
2025-01-12 18:57:56.65	217.82	58.18	
2025-01-12 18:57:56.86	217.99	58.24	
2025-01-12 18:57:57.06	218.15	58.30	
2025-01-12 18:57:57.27	218.32	58.36	
2025-01-12 18:57:57.48	218.49	58.42	
2025-01-12 18:57:57.68	218.65	58.48	
2025-01-12 18:57:57.88	218.81	58.54	
2025-01-12 18:57:58.09	218.99	58.60	
2025-01-12 18:57:58.29	219.15	58.66	
2025-01-12 18:57:58.50	219.33	58.72	
2025-01-12 18:57:58.71	219.50	58.78	
2025-01-12 18:57:58.91	219.67	58.84	
2025-01-12 18:57:59.11	219.84	58.90	
2025-01-12 18:57:59.32	220.01	58.96	
2025-01-12 18:57:59.53	220.19	59.02	
2025-01-12 18:57:59.73	220.36	59.07	
2025-01-12 18:57:59.94	220.54	59.13	
2025-01-12 18:58:00.14	220.71	59.19	
2025-01-12 18:58:00.34	220.89	59.25	
2025-01-12 18:58:00.55	221.07	59.30	
2025-01-12 18:58:00.75	221.24	59.36	
2025-01-12 18:58:00.96	221.43	59.42	
2025-01-12 18:58:01.16	221.60	59.47	
2025-01-12 18:58:01.37	221.79	59.53	
2025-01-12 18:58:01.58	221.97	59.59	
2025-01-12 18:58:01.78	222.15	59.65	
2025-01-12 18:58:01.99	222.34	59.70	
2025-01-12 18:58:02.19	222.52	59.76	
2025-01-12 18:58:02.39	222.70	59.81	
2025-01-12 18:58:02.60	222.89	59.87	
2025-01-12 18:58:02.81	223.08	59.93	
2025-01-12 18:58:03.01	223.26	59.98	
2025-01-12 18:58:03.21	223.45	60.03	
2025-01-12 18:58:03.42	223.64	60.09	
2025-01-12 18:58:03.63	223.83	60.14	
2025-01-12 18:58:03.83	224.02	60.20	
2025-01-12 18:58:04.04	224.22	60.25	
2025-01-12 18:58:04.24	224.40	60.30	
2025-01-12 18:58:04.44	224.59	60.36	
2025-01-12 18:58:04.65	224.79	60.41	
2025-01-12 18:58:04.86	224.99	60.47	
2025-01-12 18:58:05.06	225.18	60.52	
2025-01-12 18:58:05.28	225.39	60.57	
2025-01-12 18:58:05.49	225.59	60.63	
2025-01-12 18:58:05.69	225.78	60.68	
2025-01-12 18:58:05.91	226.00	60.73	
2025-01-12 18:58:06.11	226.19	60.78	
2025-01-12 18:58:06.33	226.41	60.84	
2025-01-12 18:58:06.54	226.61	60.89	
2025-01-12 18:58:06.74	226.81	60.94	
2025-01-12 18:58:06.95	227.02	60.99	
2025-01-12 18:58:07.15	227.22	61.04	
2025-01-12 18:58:07.36	227.42	61.09	
2025-01-12 18:58:07.56	227.62	61.14	
2025-01-12 18:58:07.77	227.84	61.19	
2025-01-12 18:58:07.97	228.04	61.24	
2025-01-12 18:58:08.18	228.25	61.29	
2025-01-12 18:58:08.39	228.46	61.34	
2025-01-12 18:58:08.59	228.67	61.38	
2025-01-12 18:58:08.79	228.87	61.43	
2025-01-12 18:58:09.00	229.09	61.48	
2025-01-12 18:58:09.20	229.29	61.52	
2025-01-12 18:58:09.41	229.51	61.57	
2025-01-12 18:58:09.63	229.74	61.62	
2025-01-12 18:58:09.84	229.96	61.67	
2025-01-12 18:58:10.04	230.17	61.71	
2025-01-12 18:58:10.25	230.39	61.76	
2025-01-12 18:58:10.45	230.60	61.81	
2025-01-12 18:58:10.67	230.84	61.85	
2025-01-12 18:58:10.88	231.06	61.90	
2025-01-12 18:58:11.08	231.27	61.94	
2025-01-12 18:58:11.29	231.50	61.99	
2025-01-12 18:58:11.49	231.71	62.03	
2025-01-12 18:58:11.70	231.94	62.07	
2025-01-12 18:58:11.91	232.17	62.12	
2025-01-12 18:58:12.12	232.39	62.16	
2025-01-12 18:58:12.32	232.61	62.20	
2025-01-12 18:58:12.53	232.84	62.25	
2025-01-12 18:58:12.73	233.06	62.29	
2025-01-12 18:58:12.94	233.29	62.33	
