passes_logs/2025/01/12/SPB_Silybum_02/SPB_Silybum_02__20250112_060156_TERRA_rec.log

#Pass ID: 20250112_060156_TERRA
#Satellite: TERRA
#Configuration: TERRA
#Start time: 2025-01-12 06:01:54

#Version: 2.0.20230423
#Station: SPB_Silybum_02
#Location: 30.233357 lon 59.946436 lat
#TLE: 1 25994U 99068A   25011.77277381  .00000769  00000+0  16824-3 0  9997
#TLE: 2 25994  98.0222  74.9057 0003526  79.1717  32.7508 14.60388914333608

#Time	Az	El	Level	Level2	SNR	BER	Gain	Gain2
2025-01-12 06:01:56.96	38.35	4.01	
2025-01-12 06:01:57.18	38.38	4.02	
2025-01-12 06:01:57.39	38.40	4.03	
2025-01-12 06:01:57.59	38.43	4.04	
2025-01-12 06:01:57.80	38.46	4.05	
2025-01-12 06:01:58.00	38.49	4.06	
2025-01-12 06:01:58.21	38.51	4.07	
2025-01-12 06:01:58.41	38.54	4.07	
2025-01-12 06:01:58.62	38.57	4.08	
2025-01-12 06:01:58.83	38.60	4.09	
2025-01-12 06:01:59.03	38.62	4.10	
2025-01-12 06:01:59.24	38.65	4.11	
2025-01-12 06:01:59.44	38.68	4.12	
2025-01-12 06:01:59.65	38.71	4.12	
2025-01-12 06:01:59.85	38.74	4.13	
2025-01-12 06:02:00.06	38.76	4.14	
2025-01-12 06:02:00.26	38.79	4.15	
2025-01-12 06:02:00.47	38.82	4.16	
2025-01-12 06:02:00.67	38.85	4.17	
2025-01-12 06:02:00.87	38.87	4.17	
2025-01-12 06:02:01.08	38.90	4.18	
2025-01-12 06:02:01.29	38.93	4.19	
2025-01-12 06:02:01.49	38.96	4.20	
2025-01-12 06:02:01.70	38.99	4.21	
2025-01-12 06:02:01.90	39.01	4.21	
2025-01-12 06:02:02.11	39.04	4.22	
2025-01-12 06:02:02.31	39.07	4.23	
2025-01-12 06:02:02.51	39.10	4.24	
2025-01-12 06:02:02.72	39.13	4.25	
2025-01-12 06:02:02.93	39.15	4.26	
2025-01-12 06:02:03.13	39.18	4.26	
2025-01-12 06:02:03.34	39.21	4.27	
2025-01-12 06:02:03.54	39.24	4.28	
2025-01-12 06:02:03.75	39.27	4.29	
2025-01-12 06:02:03.95	39.29	4.30	
2025-01-12 06:02:04.15	39.32	4.31	
2025-01-12 06:02:04.36	39.35	4.31	
2025-01-12 06:02:04.56	39.38	4.32	
2025-01-12 06:02:04.77	39.41	4.33	
2025-01-12 06:02:04.97	39.43	4.34	
2025-01-12 06:02:05.18	39.46	4.35	
2025-01-12 06:02:05.39	39.49	4.36	
2025-01-12 06:02:05.59	39.52	4.36	
2025-01-12 06:02:05.80	39.55	4.37	
2025-01-12 06:02:06.00	39.58	4.38	
2025-01-12 06:02:06.21	39.61	4.39	
2025-01-12 06:02:06.41	39.63	4.40	
2025-01-12 06:02:06.62	39.66	4.41	
2025-01-12 06:02:06.84	39.69	4.41	
2025-01-12 06:02:07.04	39.72	4.42	
2025-01-12 06:02:07.25	39.75	4.43	
2025-01-12 06:02:07.45	39.78	4.44	
2025-01-12 06:02:07.66	39.81	4.45	
2025-01-12 06:02:07.86	39.83	4.46	
2025-01-12 06:02:08.07	39.86	4.46	
2025-01-12 06:02:08.27	39.89	4.47	
2025-01-12 06:02:08.48	39.92	4.48	
2025-01-12 06:02:08.69	39.95	4.49	
2025-01-12 06:02:08.89	39.98	4.50	
2025-01-12 06:02:09.10	40.01	4.50	
2025-01-12 06:02:09.30	40.03	4.51	
2025-01-12 06:02:09.51	40.06	4.52	
2025-01-12 06:02:09.71	40.09	4.53	
2025-01-12 06:02:09.92	40.12	4.54	
2025-01-12 06:02:10.12	40.15	4.55	
2025-01-12 06:02:10.33	40.18	4.55	
2025-01-12 06:02:10.53	40.21	4.56	
2025-01-12 06:02:10.74	40.24	4.57	
2025-01-12 06:02:10.94	40.26	4.58	
2025-01-12 06:02:11.15	40.29	4.59	
2025-01-12 06:02:11.36	40.32	4.60	
2025-01-12 06:02:11.56	40.35	4.60	
2025-01-12 06:02:11.77	40.38	4.61	
2025-01-12 06:02:11.97	40.41	4.62	
2025-01-12 06:02:12.18	40.44	4.63	
2025-01-12 06:02:12.38	40.47	4.64	
2025-01-12 06:02:12.59	40.49	4.64	
2025-01-12 06:02:12.79	40.52	4.65	
2025-01-12 06:02:13.00	40.55	4.66	
2025-01-12 06:02:13.21	40.58	4.67	
2025-01-12 06:02:13.41	40.61	4.68	
2025-01-12 06:02:13.61	40.64	4.68	
2025-01-12 06:02:13.82	40.67	4.69	
2025-01-12 06:02:14.03	40.70	4.70	
2025-01-12 06:02:14.23	40.73	4.71	
2025-01-12 06:02:14.43	40.75	4.72	
2025-01-12 06:02:14.64	40.78	4.73	
2025-01-12 06:02:14.85	40.81	4.73	
2025-01-12 06:02:15.05	40.84	4.74	
2025-01-12 06:02:15.26	40.87	4.75	
2025-01-12 06:02:15.46	40.90	4.76	
2025-01-12 06:02:15.67	40.93	4.77	
2025-01-12 06:02:15.88	40.96	4.77	
2025-01-12 06:02:16.08	40.99	4.78	
2025-01-12 06:02:16.28	41.02	4.79	
2025-01-12 06:02:16.49	41.05	4.80	
2025-01-12 06:02:16.69	41.07	4.81	
2025-01-12 06:02:16.90	41.10	4.82	
2025-01-12 06:02:17.11	41.13	4.82	
2025-01-12 06:02:17.31	41.16	4.83	
2025-01-12 06:02:17.52	41.19	4.84	
2025-01-12 06:02:17.72	41.22	4.85	
2025-01-12 06:02:17.93	41.25	4.86	
2025-01-12 06:02:18.13	41.28	4.86	
2025-01-12 06:02:18.34	41.31	4.87	
2025-01-12 06:02:18.54	41.34	4.88	
2025-01-12 06:02:18.75	41.37	4.89	
2025-01-12 06:02:18.96	41.40	4.90	
2025-01-12 06:02:19.16	41.43	4.90	
2025-01-12 06:02:19.37	41.46	4.91	
2025-01-12 06:02:19.57	41.49	4.92	
2025-01-12 06:02:19.78	41.52	4.93	
2025-01-12 06:02:19.99	41.55	4.94	
2025-01-12 06:02:20.19	41.57	4.94	
2025-01-12 06:02:20.40	41.61	4.95	
2025-01-12 06:02:20.60	41.63	4.96	
2025-01-12 06:02:20.81	41.66	4.97	
2025-01-12 06:02:21.01	41.69	4.98	
2025-01-12 06:02:21.22	41.72	4.99	
2025-01-12 06:02:21.42	41.75	4.99	
2025-01-12 06:02:21.63	41.78	5.00	
2025-01-12 06:02:21.83	41.81	5.01	
2025-01-12 06:02:22.04	41.84	5.02	
2025-01-12 06:02:22.24	41.87	5.03	
2025-01-12 06:02:22.45	41.90	5.03	
2025-01-12 06:02:22.66	41.93	5.04	
2025-01-12 06:02:22.86	41.96	5.05	
2025-01-12 06:02:23.06	41.99	5.06	
2025-01-12 06:02:23.27	42.02	5.07	
2025-01-12 06:02:23.48	42.05	5.07	
2025-01-12 06:02:23.68	42.08	5.08	
2025-01-12 06:02:23.89	42.11	5.09	
2025-01-12 06:02:24.09	42.14	5.10	
2025-01-12 06:02:24.30	42.17	5.11	
2025-01-12 06:02:24.50	42.20	5.11	
2025-01-12 06:02:24.71	42.23	5.12	
2025-01-12 06:02:24.92	42.26	5.13	
2025-01-12 06:02:25.12	42.29	5.14	
2025-01-12 06:02:25.33	42.32	5.15	
2025-01-12 06:02:25.53	42.35	5.15	
2025-01-12 06:02:25.74	42.38	5.16	
2025-01-12 06:02:25.96	42.41	5.17	
2025-01-12 06:02:26.16	42.44	5.18	
2025-01-12 06:02:26.36	42.47	5.19	
2025-01-12 06:02:26.57	42.50	5.19	
2025-01-12 06:02:26.78	42.53	5.20	
2025-01-12 06:02:26.98	42.56	5.21	
2025-01-12 06:02:27.19	42.59	5.22	
2025-01-12 06:02:27.40	42.62	5.23	
2025-01-12 06:02:27.60	42.65	5.23	
2025-01-12 06:02:27.81	42.68	5.24	
2025-01-12 06:02:28.01	42.71	5.25	
2025-01-12 06:02:28.22	42.74	5.26	
2025-01-12 06:02:28.42	42.77	5.27	
2025-01-12 06:02:28.63	42.80	5.27	
2025-01-12 06:02:28.83	42.83	5.28	
2025-01-12 06:02:29.04	42.86	5.29	
2025-01-12 06:02:29.24	42.89	5.30	
2025-01-12 06:02:29.45	42.92	5.31	
2025-01-12 06:02:29.65	42.95	5.31	
2025-01-12 06:02:29.86	42.98	5.32	
2025-01-12 06:02:30.06	43.01	5.33	
2025-01-12 06:02:30.28	43.05	5.34	
2025-01-12 06:02:30.49	43.08	5.35	
2025-01-12 06:02:30.69	43.11	5.35	
2025-01-12 06:02:30.90	43.14	5.36	
2025-01-12 06:02:31.10	43.17	5.37	
2025-01-12 06:02:31.31	43.20	5.38	
2025-01-12 06:02:31.51	43.23	5.38	
2025-01-12 06:02:31.72	43.26	5.39	
2025-01-12 06:02:31.92	43.29	5.40	
2025-01-12 06:02:32.13	43.32	5.41	
2025-01-12 06:02:32.33	43.35	5.42	
2025-01-12 06:02:32.54	43.38	5.42	
2025-01-12 06:02:32.74	43.41	5.43	
2025-01-12 06:02:32.95	43.44	5.44	
2025-01-12 06:02:33.16	43.47	5.45	
2025-01-12 06:02:33.36	43.50	5.46	
2025-01-12 06:02:33.57	43.53	5.46	
2025-01-12 06:02:33.77	43.56	5.47	
2025-01-12 06:02:33.98	43.60	5.48	
2025-01-12 06:02:34.18	43.63	5.49	
2025-01-12 06:02:34.39	43.66	5.49	
2025-01-12 06:02:34.61	43.69	5.50	
2025-01-12 06:02:34.81	43.72	5.51	
2025-01-12 06:02:35.02	43.75	5.52	
2025-01-12 06:02:35.22	43.78	5.53	
2025-01-12 06:02:35.43	43.81	5.53	
2025-01-12 06:02:35.63	43.84	5.54	
2025-01-12 06:02:35.84	43.87	5.55	
2025-01-12 06:02:36.05	43.91	5.56	
2025-01-12 06:02:36.25	43.94	5.57	
2025-01-12 06:02:36.46	43.97	5.57	
2025-01-12 06:02:36.67	44.00	5.58	
2025-01-12 06:02:36.87	44.03	5.59	
2025-01-12 06:02:37.08	44.06	5.60	
2025-01-12 06:02:37.29	44.09	5.60	
2025-01-12 06:02:37.49	44.12	5.61	
2025-01-12 06:02:37.69	44.15	5.62	
2025-01-12 06:02:37.90	44.18	5.63	
2025-01-12 06:02:38.11	44.22	5.64	
2025-01-12 06:02:38.31	44.25	5.64	
2025-01-12 06:02:38.52	44.28	5.65	
2025-01-12 06:02:38.72	44.31	5.66	
2025-01-12 06:02:38.93	44.34	5.67	
2025-01-12 06:02:39.13	44.37	5.67	
2025-01-12 06:02:39.34	44.40	5.68	
2025-01-12 06:02:39.54	44.43	5.69	
2025-01-12 06:02:39.75	44.46	5.70	
2025-01-12 06:02:39.95	44.49	5.71	
2025-01-12 06:02:40.16	44.53	5.71	
2025-01-12 06:02:40.36	44.56	5.72	
2025-01-12 06:02:40.57	44.59	5.73	
2025-01-12 06:02:40.77	44.62	5.74	
2025-01-12 06:02:40.98	44.65	5.74	
2025-01-12 06:02:41.18	44.68	5.75	
2025-01-12 06:02:41.39	44.71	5.76	
2025-01-12 06:02:41.59	44.74	5.77	
2025-01-12 06:02:41.80	44.78	5.77	
2025-01-12 06:02:42.02	44.81	5.78	
2025-01-12 06:02:42.22	44.84	5.79	
2025-01-12 06:02:42.43	44.87	5.80	
2025-01-12 06:02:42.63	44.90	5.81	
2025-01-12 06:02:42.84	44.94	5.81	
2025-01-12 06:02:43.04	44.97	5.82	
2025-01-12 06:02:43.25	45.00	5.83	
2025-01-12 06:02:43.45	45.03	5.84	
2025-01-12 06:02:43.66	45.06	5.84	
2025-01-12 06:02:43.86	45.09	5.85	
2025-01-12 06:02:44.07	45.12	5.86	
2025-01-12 06:02:44.27	45.15	5.87	
2025-01-12 06:02:44.48	45.19	5.87	
2025-01-12 06:02:44.69	45.22	5.88	
2025-01-12 06:02:44.89	45.25	5.89	
2025-01-12 06:02:45.10	45.28	5.90	
2025-01-12 06:02:45.30	45.31	5.90	
2025-01-12 06:02:45.51	45.35	5.91	
2025-01-12 06:02:45.71	45.38	5.92	
2025-01-12 06:02:45.92	45.41	5.93	
2025-01-12 06:02:46.13	45.44	5.94	
2025-01-12 06:02:46.33	45.47	5.94	
2025-01-12 06:02:46.53	45.50	5.95	
2025-01-12 06:02:46.74	45.53	5.96	
2025-01-12 06:02:46.94	45.57	5.97	
2025-01-12 06:02:47.15	45.60	5.97	
2025-01-12 06:02:47.35	45.63	5.98	
2025-01-12 06:02:47.56	45.66	5.99	
2025-01-12 06:02:47.76	45.69	6.00	
2025-01-12 06:02:47.97	45.73	6.00	
2025-01-12 06:02:48.17	45.76	6.01	
2025-01-12 06:02:48.39	45.79	6.02	
2025-01-12 06:02:48.60	45.82	6.03	
2025-01-12 06:02:48.80	45.85	6.03	
2025-01-12 06:02:49.01	45.89	6.04	
2025-01-12 06:02:49.22	45.92	6.05	
2025-01-12 06:02:49.42	45.95	6.06	
2025-01-12 06:02:49.62	45.98	6.06	
2025-01-12 06:02:49.83	46.01	6.07	
2025-01-12 06:02:50.04	46.05	6.08	
2025-01-12 06:02:50.24	46.08	6.09	
2025-01-12 06:02:50.45	46.11	6.09	
2025-01-12 06:02:50.65	46.14	6.10	
2025-01-12 06:02:50.86	46.18	6.11	
2025-01-12 06:02:51.07	46.21	6.12	
2025-01-12 06:02:51.27	46.24	6.12	
2025-01-12 06:02:51.48	46.27	6.13	
2025-01-12 06:02:51.68	46.30	6.14	
2025-01-12 06:02:51.89	46.34	6.15	
2025-01-12 06:02:52.09	46.37	6.15	
2025-01-12 06:02:52.30	46.40	6.16	
2025-01-12 06:02:52.50	46.43	6.17	
2025-01-12 06:02:52.72	46.47	6.18	
2025-01-12 06:02:52.93	46.50	6.18	
2025-01-12 06:02:53.13	46.53	6.19	
2025-01-12 06:02:53.34	46.56	6.20	
2025-01-12 06:02:53.54	46.60	6.21	
2025-01-12 06:02:53.75	46.63	6.21	
2025-01-12 06:02:53.95	46.66	6.22	
2025-01-12 06:02:54.16	46.69	6.23	
2025-01-12 06:02:54.36	46.73	6.24	
2025-01-12 06:02:54.57	46.76	6.24	
2025-01-12 06:02:54.77	46.79	6.25	
2025-01-12 06:02:54.98	46.82	6.26	
2025-01-12 06:02:55.18	46.85	6.27	
2025-01-12 06:02:55.39	46.89	6.27	
2025-01-12 06:02:55.59	46.92	6.28	
2025-01-12 06:02:55.80	46.95	6.29	
2025-01-12 06:02:56.00	46.98	6.29	
2025-01-12 06:02:56.21	47.02	6.30	
2025-01-12 06:02:56.42	47.05	6.31	
2025-01-12 06:02:56.62	47.08	6.32	
2025-01-12 06:02:56.83	47.12	6.32	
2025-01-12 06:02:57.03	47.15	6.33	
2025-01-12 06:02:57.24	47.18	6.34	
2025-01-12 06:02:57.44	47.21	6.35	
2025-01-12 06:02:57.65	47.25	6.35	
2025-01-12 06:02:57.85	47.28	6.36	
2025-01-12 06:02:58.06	47.31	6.37	
2025-01-12 06:02:58.26	47.34	6.38	
2025-01-12 06:02:58.47	47.38	6.38	
2025-01-12 06:02:58.67	47.41	6.39	
2025-01-12 06:02:58.88	47.44	6.40	
2025-01-12 06:02:59.08	47.47	6.40	
2025-01-12 06:02:59.29	47.51	6.41	
2025-01-12 06:02:59.49	47.54	6.42	
2025-01-12 06:02:59.70	47.57	6.43	
2025-01-12 06:02:59.90	47.61	6.43	
2025-01-12 06:03:00.11	47.64	6.44	
2025-01-12 06:03:00.31	47.67	6.45	
2025-01-12 06:03:00.52	47.71	6.46	
2025-01-12 06:03:00.73	47.74	6.46	
2025-01-12 06:03:00.93	47.77	6.47	
2025-01-12 06:03:01.14	47.80	6.48	
2025-01-12 06:03:01.34	47.84	6.48	
2025-01-12 06:03:01.54	47.87	6.49	
2025-01-12 06:03:01.75	47.90	6.50	
2025-01-12 06:03:01.96	47.94	6.51	
2025-01-12 06:03:02.16	47.97	6.51	
2025-01-12 06:03:02.38	48.00	6.52	
2025-01-12 06:03:02.58	48.04	6.53	
2025-01-12 06:03:02.79	48.07	6.54	
2025-01-12 06:03:03.00	48.10	6.54	
2025-01-12 06:03:03.20	48.14	6.55	
2025-01-12 06:03:03.41	48.17	6.56	
2025-01-12 06:03:03.61	48.20	6.56	
2025-01-12 06:03:03.82	48.24	6.57	
2025-01-12 06:03:04.02	48.27	6.58	
2025-01-12 06:03:04.22	48.30	6.59	
2025-01-12 06:03:04.43	48.34	6.59	
2025-01-12 06:03:04.63	48.37	6.60	
2025-01-12 06:03:04.84	48.40	6.61	
2025-01-12 06:03:05.05	48.44	6.61	
2025-01-12 06:03:05.25	48.47	6.62	
2025-01-12 06:03:05.46	48.50	6.63	
2025-01-12 06:03:05.66	48.53	6.64	
2025-01-12 06:03:05.87	48.57	6.64	
2025-01-12 06:03:06.07	48.60	6.65	
2025-01-12 06:03:06.28	48.64	6.66	
2025-01-12 06:03:06.48	48.67	6.66	
2025-01-12 06:03:06.69	48.70	6.67	
2025-01-12 06:03:06.89	48.73	6.68	
2025-01-12 06:03:07.10	48.77	6.69	
2025-01-12 06:03:07.30	48.80	6.69	
2025-01-12 06:03:07.51	48.84	6.70	
2025-01-12 06:03:07.71	48.87	6.71	
2025-01-12 06:03:07.92	48.90	6.71	
2025-01-12 06:03:08.13	48.94	6.72	
2025-01-12 06:03:08.33	48.97	6.73	
2025-01-12 06:03:08.54	49.00	6.74	
2025-01-12 06:03:08.74	49.04	6.74	
2025-01-12 06:03:08.95	49.07	6.75	
2025-01-12 06:03:09.15	49.10	6.76	
2025-01-12 06:03:09.36	49.14	6.76	
2025-01-12 06:03:09.57	49.17	6.77	
2025-01-12 06:03:09.77	49.21	6.78	
2025-01-12 06:03:09.98	49.24	6.78	
2025-01-12 06:03:10.18	49.27	6.79	
2025-01-12 06:03:10.39	49.31	6.80	
2025-01-12 06:03:10.59	49.34	6.81	
2025-01-12 06:03:10.80	49.37	6.81	
2025-01-12 06:03:11.00	49.41	6.82	
2025-01-12 06:03:11.21	49.44	6.83	
2025-01-12 06:03:11.41	49.48	6.83	
2025-01-12 06:03:11.62	49.51	6.84	
2025-01-12 06:03:11.82	49.54	6.85	
2025-01-12 06:03:12.03	49.58	6.85	
2025-01-12 06:03:12.24	49.61	6.86	
2025-01-12 06:03:12.44	49.65	6.87	
2025-01-12 06:03:12.65	49.68	6.87	
2025-01-12 06:03:12.85	49.71	6.88	
2025-01-12 06:03:13.06	49.75	6.89	
2025-01-12 06:03:13.26	49.78	6.90	
2025-01-12 06:03:13.47	49.82	6.90	
2025-01-12 06:03:13.67	49.85	6.91	
2025-01-12 06:03:13.88	49.88	6.92	
2025-01-12 06:03:14.08	49.92	6.92	
2025-01-12 06:03:14.29	49.95	6.93	
2025-01-12 06:03:14.49	49.98	6.94	
2025-01-12 06:03:14.70	50.02	6.94	
2025-01-12 06:03:14.91	50.05	6.95	
2025-01-12 06:03:15.12	50.09	6.96	
2025-01-12 06:03:15.33	50.12	6.96	
2025-01-12 06:03:15.54	50.16	6.97	
2025-01-12 06:03:15.74	50.19	6.98	
2025-01-12 06:03:15.95	50.23	6.99	
2025-01-12 06:03:16.15	50.26	6.99	
2025-01-12 06:03:16.36	50.30	7.00	
2025-01-12 06:03:16.56	50.33	7.01	
2025-01-12 06:03:16.77	50.36	7.01	
2025-01-12 06:03:16.97	50.40	7.02	
2025-01-12 06:03:17.18	50.43	7.03	
2025-01-12 06:03:17.38	50.47	7.03	
2025-01-12 06:03:17.59	50.50	7.04	
2025-01-12 06:03:17.79	50.53	7.05	
2025-01-12 06:03:18.00	50.57	7.05	
2025-01-12 06:03:18.20	50.60	7.06	
2025-01-12 06:03:18.42	50.64	7.07	
2025-01-12 06:03:18.63	50.68	7.07	
2025-01-12 06:03:18.83	50.71	7.08	
2025-01-12 06:03:19.04	50.74	7.09	
2025-01-12 06:03:19.24	50.78	7.09	
2025-01-12 06:03:19.45	50.81	7.10	
2025-01-12 06:03:19.65	50.85	7.11	
2025-01-12 06:03:19.86	50.88	7.11	
2025-01-12 06:03:20.06	50.92	7.12	
2025-01-12 06:03:20.27	50.95	7.13	
2025-01-12 06:03:20.47	50.98	7.13	
2025-01-12 06:03:20.68	51.02	7.14	
2025-01-12 06:03:20.88	51.05	7.15	
2025-01-12 06:03:21.09	51.09	7.15	
2025-01-12 06:03:21.30	51.12	7.16	
2025-01-12 06:03:21.50	51.16	7.17	
2025-01-12 06:03:21.71	51.19	7.17	
2025-01-12 06:03:21.91	51.23	7.18	
2025-01-12 06:03:22.12	51.26	7.19	
2025-01-12 06:03:22.32	51.30	7.19	
2025-01-12 06:03:22.52	51.33	7.20	
2025-01-12 06:03:22.73	51.37	7.21	
2025-01-12 06:03:22.94	51.40	7.21	
2025-01-12 06:03:23.14	51.44	7.22	
2025-01-12 06:03:23.35	51.47	7.23	
2025-01-12 06:03:23.55	51.51	7.23	
2025-01-12 06:03:23.76	51.54	7.24	
2025-01-12 06:03:23.96	51.58	7.25	
2025-01-12 06:03:24.16	51.61	7.25	
2025-01-12 06:03:24.37	51.64	7.26	
2025-01-12 06:03:24.57	51.68	7.27	
2025-01-12 06:03:24.78	51.71	7.27	
2025-01-12 06:03:24.98	51.75	7.28	
2025-01-12 06:03:25.19	51.78	7.29	
2025-01-12 06:03:25.39	51.82	7.29	
2025-01-12 06:03:25.60	51.85	7.30	
2025-01-12 06:03:25.80	51.89	7.31	
2025-01-12 06:03:26.01	51.92	7.31	
2025-01-12 06:03:26.21	51.96	7.32	
2025-01-12 06:03:26.42	51.99	7.33	
2025-01-12 06:03:26.63	52.03	7.33	
2025-01-12 06:03:26.83	52.06	7.34	
2025-01-12 06:03:27.04	52.10	7.35	
2025-01-12 06:03:27.24	52.13	7.35	
2025-01-12 06:03:27.45	52.17	7.36	
2025-01-12 06:03:27.65	52.20	7.36	
2025-01-12 06:03:27.86	52.24	7.37	
2025-01-12 06:03:28.06	52.27	7.38	
2025-01-12 06:03:28.27	52.31	7.38	
2025-01-12 06:03:28.48	52.35	7.39	
2025-01-12 06:03:28.68	52.38	7.40	
2025-01-12 06:03:28.89	52.42	7.40	
2025-01-12 06:03:29.09	52.45	7.41	
2025-01-12 06:03:29.29	52.49	7.42	
2025-01-12 06:03:29.50	52.52	7.42	
2025-01-12 06:03:29.70	52.56	7.43	
2025-01-12 06:03:29.91	52.59	7.43	
2025-01-12 06:03:30.11	52.63	7.44	
2025-01-12 06:03:30.31	52.66	7.45	
2025-01-12 06:03:30.52	52.70	7.45	
2025-01-12 06:03:30.72	52.73	7.46	
2025-01-12 06:03:30.93	52.77	7.47	
2025-01-12 06:03:31.13	52.80	7.47	
2025-01-12 06:03:31.34	52.84	7.48	
2025-01-12 06:03:31.54	52.87	7.49	
2025-01-12 06:03:31.75	52.91	7.49	
2025-01-12 06:03:31.96	52.95	7.50	
2025-01-12 06:03:32.16	52.98	7.50	
2025-01-12 06:03:32.37	53.02	7.51	
2025-01-12 06:03:32.57	53.05	7.52	
2025-01-12 06:03:32.78	53.09	7.52	
2025-01-12 06:03:32.98	53.12	7.53	
2025-01-12 06:03:33.19	53.16	7.54	
2025-01-12 06:03:33.41	53.20	7.54	
2025-01-12 06:03:33.61	53.23	7.55	
2025-01-12 06:03:33.82	53.27	7.56	
2025-01-12 06:03:34.03	53.31	7.56	
2025-01-12 06:03:34.23	53.34	7.57	
2025-01-12 06:03:34.43	53.37	7.57	
2025-01-12 06:03:34.64	53.41	7.58	
2025-01-12 06:03:34.84	53.45	7.59	
2025-01-12 06:03:35.05	53.48	7.59	
2025-01-12 06:03:35.25	53.52	7.60	
2025-01-12 06:03:35.46	53.55	7.60	
2025-01-12 06:03:35.66	53.59	7.61	
2025-01-12 06:03:35.87	53.63	7.62	
2025-01-12 06:03:36.07	53.66	7.62	
2025-01-12 06:03:36.28	53.70	7.63	
2025-01-12 06:03:36.48	53.73	7.64	
2025-01-12 06:03:36.69	53.77	7.64	
2025-01-12 06:03:36.90	53.81	7.65	
2025-01-12 06:03:37.11	53.84	7.65	
2025-01-12 06:03:37.31	53.88	7.66	
2025-01-12 06:03:37.52	53.91	7.67	
2025-01-12 06:03:37.72	53.95	7.67	
2025-01-12 06:03:37.92	53.98	7.68	
2025-01-12 06:03:38.13	54.02	7.68	
2025-01-12 06:03:38.33	54.06	7.69	
2025-01-12 06:03:38.54	54.09	7.70	
2025-01-12 06:03:38.76	54.13	7.70	
2025-01-12 06:03:38.96	54.17	7.71	
2025-01-12 06:03:39.17	54.20	7.72	
2025-01-12 06:03:39.37	54.24	7.72	
2025-01-12 06:03:39.58	54.28	7.73	
2025-01-12 06:03:39.80	54.31	7.73	
2025-01-12 06:03:40.00	54.35	7.74	
2025-01-12 06:03:40.21	54.39	7.75	
2025-01-12 06:03:40.41	54.42	7.75	
2025-01-12 06:03:40.62	54.46	7.76	
2025-01-12 06:03:40.82	54.49	7.76	
2025-01-12 06:03:41.03	54.53	7.77	
2025-01-12 06:03:41.23	54.57	7.78	
2025-01-12 06:03:41.44	54.60	7.78	
2025-01-12 06:03:41.64	54.64	7.79	
2025-01-12 06:03:41.84	54.67	7.79	
2025-01-12 06:03:42.05	54.71	7.80	
2025-01-12 06:03:42.26	54.75	7.81	
2025-01-12 06:03:42.46	54.78	7.81	
2025-01-12 06:03:42.67	54.82	7.82	
2025-01-12 06:03:42.87	54.86	7.82	
2025-01-12 06:03:43.08	54.89	7.83	
2025-01-12 06:03:43.28	54.93	7.84	
2025-01-12 06:03:43.49	54.97	7.84	
2025-01-12 06:03:43.69	55.00	7.85	
2025-01-12 06:03:43.90	55.04	7.85	
2025-01-12 06:03:44.10	55.07	7.86	
2025-01-12 06:03:44.31	55.11	7.86	
2025-01-12 06:03:44.51	55.15	7.87	
2025-01-12 06:03:44.72	55.18	7.88	
2025-01-12 06:03:44.93	55.22	7.88	
2025-01-12 06:03:45.13	55.26	7.89	
2025-01-12 06:03:45.34	55.29	7.89	
2025-01-12 06:03:45.54	55.33	7.90	
2025-01-12 06:03:45.75	55.37	7.91	
2025-01-12 06:03:45.95	55.40	7.91	
2025-01-12 06:03:46.16	55.44	7.92	
2025-01-12 06:03:46.36	55.48	7.92	
2025-01-12 06:03:46.57	55.51	7.93	
2025-01-12 06:03:46.78	55.55	7.93	
2025-01-12 06:03:46.98	55.59	7.94	
2025-01-12 06:03:47.18	55.62	7.95	
2025-01-12 06:03:47.39	55.66	7.95	
2025-01-12 06:03:47.60	55.70	7.96	
2025-01-12 06:03:47.80	55.73	7.96	
2025-01-12 06:03:48.01	55.77	7.97	
2025-01-12 06:03:48.21	55.81	7.97	
2025-01-12 06:03:48.42	55.84	7.98	
2025-01-12 06:03:48.62	55.88	7.99	
2025-01-12 06:03:48.83	55.92	7.99	
2025-01-12 06:03:49.03	55.95	8.00	
2025-01-12 06:03:49.24	55.99	8.00	
2025-01-12 06:03:49.44	56.03	8.01	
2025-01-12 06:03:49.65	56.07	8.01	
2025-01-12 06:03:49.85	56.10	8.02	
2025-01-12 06:03:50.06	56.14	8.03	
2025-01-12 06:03:50.26	56.17	8.03	
2025-01-12 06:03:50.47	56.21	8.04	
2025-01-12 06:03:50.67	56.25	8.04	
2025-01-12 06:03:50.88	56.29	8.05	
2025-01-12 06:03:51.08	56.32	8.05	
2025-01-12 06:03:51.29	56.36	8.06	
2025-01-12 06:03:51.50	56.40	8.07	
2025-01-12 06:03:51.71	56.44	8.07	
2025-01-12 06:03:51.91	56.47	8.08	
2025-01-12 06:03:52.12	56.51	8.08	
2025-01-12 06:03:52.33	56.55	8.09	
2025-01-12 06:03:52.53	56.58	8.09	
2025-01-12 06:03:52.74	56.62	8.10	
2025-01-12 06:03:52.94	56.66	8.10	
2025-01-12 06:03:53.15	56.70	8.11	
2025-01-12 06:03:53.35	56.73	8.12	
2025-01-12 06:03:53.57	56.77	8.12	
2025-01-12 06:03:53.77	56.81	8.13	
2025-01-12 06:03:53.98	56.85	8.13	
2025-01-12 06:03:54.19	56.88	8.14	
2025-01-12 06:03:54.39	56.92	8.14	
2025-01-12 06:03:54.60	56.96	8.15	
2025-01-12 06:03:54.80	56.99	8.15	
2025-01-12 06:03:55.01	57.03	8.16	
2025-01-12 06:03:55.21	57.07	8.16	
2025-01-12 06:03:55.42	57.11	8.17	
2025-01-12 06:03:55.62	57.14	8.18	
2025-01-12 06:03:55.84	57.18	8.18	
2025-01-12 06:03:56.05	57.22	8.19	
2025-01-12 06:03:56.25	57.26	8.19	
2025-01-12 06:03:56.46	57.30	8.20	
2025-01-12 06:03:56.66	57.33	8.20	
2025-01-12 06:03:56.87	57.37	8.21	
2025-01-12 06:03:57.07	57.41	8.21	
2025-01-12 06:03:57.28	57.45	8.22	
2025-01-12 06:03:57.48	57.48	8.22	
2025-01-12 06:03:57.69	57.52	8.23	
2025-01-12 06:03:57.89	57.56	8.23	
2025-01-12 06:03:58.10	57.60	8.24	
2025-01-12 06:03:58.30	57.63	8.25	
2025-01-12 06:03:58.51	57.67	8.25	
2025-01-12 06:03:58.71	57.71	8.26	
2025-01-12 06:03:58.92	57.75	8.26	
2025-01-12 06:03:59.12	57.78	8.27	
2025-01-12 06:03:59.33	57.82	8.27	
2025-01-12 06:03:59.53	57.86	8.28	
2025-01-12 06:03:59.74	57.90	8.28	
2025-01-12 06:03:59.94	57.93	8.29	
2025-01-12 06:04:00.15	57.97	8.29	
2025-01-12 06:04:00.35	58.01	8.30	
2025-01-12 06:04:00.56	58.05	8.30	
2025-01-12 06:04:00.76	58.08	8.31	
2025-01-12 06:04:00.97	58.12	8.31	
2025-01-12 06:04:01.18	58.16	8.32	
2025-01-12 06:04:01.38	58.20	8.32	
2025-01-12 06:04:01.59	58.23	8.33	
2025-01-12 06:04:01.79	58.27	8.33	
2025-01-12 06:04:02.00	58.31	8.34	
2025-01-12 06:04:02.20	58.35	8.34	
2025-01-12 06:04:02.41	58.39	8.35	
2025-01-12 06:04:02.62	58.42	8.36	
2025-01-12 06:04:02.82	58.46	8.36	
2025-01-12 06:04:03.02	58.50	8.37	
2025-01-12 06:04:03.23	58.54	8.37	
2025-01-12 06:04:03.43	58.57	8.38	
2025-01-12 06:04:03.64	58.61	8.38	
2025-01-12 06:04:03.84	58.65	8.39	
2025-01-12 06:04:04.05	58.69	8.39	
2025-01-12 06:04:04.26	58.73	8.40	
2025-01-12 06:04:04.46	58.76	8.40	
2025-01-12 06:04:04.67	58.80	8.41	
2025-01-12 06:04:04.87	58.84	8.41	
2025-01-12 06:04:05.08	58.88	8.42	
2025-01-12 06:04:05.28	58.91	8.42	
2025-01-12 06:04:05.49	58.95	8.43	
2025-01-12 06:04:05.70	58.99	8.43	
2025-01-12 06:04:05.90	59.03	8.44	
2025-01-12 06:04:06.10	59.07	8.44	
2025-01-12 06:04:06.31	59.11	8.45	
2025-01-12 06:04:06.51	59.14	8.45	
2025-01-12 06:04:06.72	59.18	8.46	
2025-01-12 06:04:06.92	59.22	8.46	
2025-01-12 06:04:07.13	59.26	8.47	
2025-01-12 06:04:07.33	59.29	8.47	
2025-01-12 06:04:07.54	59.33	8.48	
2025-01-12 06:04:07.74	59.37	8.48	
2025-01-12 06:04:07.95	59.41	8.48	
2025-01-12 06:04:08.16	59.45	8.49	
2025-01-12 06:04:08.36	59.49	8.49	
2025-01-12 06:04:08.58	59.53	8.50	
2025-01-12 06:04:08.79	59.57	8.50	
2025-01-12 06:04:08.99	59.60	8.51	
2025-01-12 06:04:09.20	59.64	8.51	
2025-01-12 06:04:09.41	59.68	8.52	
2025-01-12 06:04:09.61	59.72	8.52	
2025-01-12 06:04:09.82	59.76	8.53	
2025-01-12 06:04:10.02	59.80	8.53	
2025-01-12 06:04:10.23	59.83	8.54	
2025-01-12 06:04:10.44	59.87	8.54	
2025-01-12 06:04:10.64	59.91	8.55	
2025-01-12 06:04:10.85	59.95	8.55	
2025-01-12 06:04:11.06	59.99	8.56	
2025-01-12 06:04:11.27	60.03	8.56	
2025-01-12 06:04:11.47	60.07	8.57	
2025-01-12 06:04:11.68	60.11	8.57	
2025-01-12 06:04:11.88	60.14	8.58	
2025-01-12 06:04:12.09	60.18	8.58	
2025-01-12 06:04:12.30	60.22	8.59	
2025-01-12 06:04:12.50	60.26	8.59	
2025-01-12 06:04:12.71	60.30	8.60	
2025-01-12 06:04:12.91	60.34	8.60	
2025-01-12 06:04:13.12	60.38	8.60	
2025-01-12 06:04:13.32	60.41	8.61	
2025-01-12 06:04:13.53	60.45	8.61	
2025-01-12 06:04:13.74	60.49	8.62	
2025-01-12 06:04:13.96	60.53	8.62	
2025-01-12 06:04:14.16	60.57	8.63	
2025-01-12 06:04:14.37	60.61	8.63	
2025-01-12 06:04:14.57	60.65	8.64	
2025-01-12 06:04:14.78	60.69	8.64	
2025-01-12 06:04:14.98	60.72	8.65	
2025-01-12 06:04:15.18	60.76	8.65	
2025-01-12 06:04:15.39	60.80	8.66	
2025-01-12 06:04:15.60	60.84	8.66	
2025-01-12 06:04:15.80	60.88	8.66	
2025-01-12 06:04:16.01	60.92	8.67	
2025-01-12 06:04:16.21	60.96	8.67	
2025-01-12 06:04:16.42	61.00	8.68	
2025-01-12 06:04:16.62	61.03	8.68	
2025-01-12 06:04:16.83	61.07	8.69	
2025-01-12 06:04:17.03	61.11	8.69	
2025-01-12 06:04:17.23	61.15	8.70	
2025-01-12 06:04:17.44	61.19	8.70	
2025-01-12 06:04:17.65	61.23	8.70	
2025-01-12 06:04:17.85	61.27	8.71	
2025-01-12 06:04:18.06	61.30	8.71	
2025-01-12 06:04:18.26	61.34	8.72	
2025-01-12 06:04:18.47	61.38	8.72	
2025-01-12 06:04:18.67	61.42	8.73	
2025-01-12 06:04:18.88	61.46	8.73	
2025-01-12 06:04:19.08	61.50	8.74	
2025-01-12 06:04:19.29	61.54	8.74	
2025-01-12 06:04:19.49	61.58	8.74	
2025-01-12 06:04:19.70	61.62	8.75	
2025-01-12 06:04:19.90	61.65	8.75	
2025-01-12 06:04:20.11	61.69	8.76	
2025-01-12 06:04:20.31	61.73	8.76	
2025-01-12 06:04:20.52	61.77	8.77	
2025-01-12 06:04:20.73	61.81	8.77	
2025-01-12 06:04:20.93	61.85	8.77	
2025-01-12 06:04:21.14	61.89	8.78	
2025-01-12 06:04:21.34	61.93	8.78	
2025-01-12 06:04:21.55	61.97	8.79	
2025-01-12 06:04:21.75	62.00	8.79	
2025-01-12 06:04:21.96	62.04	8.80	
2025-01-12 06:04:22.17	62.08	8.80	
2025-01-12 06:04:22.37	62.12	8.80	
2025-01-12 06:04:22.57	62.16	8.81	
2025-01-12 06:04:22.78	62.20	8.81	
2025-01-12 06:04:22.99	62.24	8.82	
2025-01-12 06:04:23.19	62.28	8.82	
2025-01-12 06:04:23.40	62.32	8.82	
2025-01-12 06:04:23.60	62.36	8.83	
2025-01-12 06:04:23.81	62.40	8.83	
2025-01-12 06:04:24.01	62.43	8.84	
2025-01-12 06:04:24.22	62.47	8.84	
2025-01-12 06:04:24.42	62.51	8.84	
2025-01-12 06:04:24.63	62.55	8.85	
2025-01-12 06:04:24.83	62.59	8.85	
2025-01-12 06:04:25.03	62.63	8.86	
2025-01-12 06:04:25.24	62.67	8.86	
2025-01-12 06:04:25.44	62.71	8.87	
2025-01-12 06:04:25.65	62.75	8.87	
2025-01-12 06:04:25.85	62.79	8.87	
2025-01-12 06:04:26.06	62.83	8.88	
2025-01-12 06:04:26.27	62.87	8.88	
2025-01-12 06:04:26.47	62.90	8.89	
2025-01-12 06:04:26.69	62.95	8.89	
2025-01-12 06:04:26.89	62.98	8.89	
2025-01-12 06:04:27.10	63.03	8.90	
2025-01-12 06:04:27.31	63.07	8.90	
2025-01-12 06:04:27.51	63.10	8.91	
2025-01-12 06:04:27.72	63.14	8.91	
2025-01-12 06:04:27.92	63.18	8.91	
2025-01-12 06:04:28.13	63.22	8.92	
2025-01-12 06:04:28.33	63.26	8.92	
2025-01-12 06:04:28.54	63.30	8.92	
2025-01-12 06:04:28.74	63.34	8.93	
2025-01-12 06:04:28.95	63.38	8.93	
2025-01-12 06:04:29.15	63.42	8.94	
2025-01-12 06:04:29.36	63.46	8.94	
2025-01-12 06:04:29.56	63.50	8.94	
2025-01-12 06:04:29.77	63.54	8.95	
2025-01-12 06:04:29.97	63.58	8.95	
2025-01-12 06:04:30.18	63.62	8.96	
2025-01-12 06:04:30.38	63.65	8.96	
2025-01-12 06:04:30.59	63.70	8.96	
2025-01-12 06:04:30.79	63.73	8.97	
2025-01-12 06:04:31.00	63.77	8.97	
2025-01-12 06:04:31.20	63.81	8.97	
2025-01-12 06:04:31.41	63.85	8.98	
2025-01-12 06:04:31.62	63.89	8.98	
2025-01-12 06:04:31.82	63.93	8.99	
2025-01-12 06:04:32.03	63.97	8.99	
2025-01-12 06:04:32.23	64.01	8.99	
2025-01-12 06:04:32.44	64.05	9.00	
2025-01-12 06:04:32.64	64.09	9.00	
2025-01-12 06:04:32.85	64.13	9.00	
2025-01-12 06:04:33.05	64.17	9.01	
2025-01-12 06:04:33.26	64.21	9.01	
2025-01-12 06:04:33.47	64.25	9.02	
2025-01-12 06:04:33.67	64.29	9.02	
2025-01-12 06:04:33.88	64.33	9.02	
2025-01-12 06:04:34.08	64.37	9.03	
2025-01-12 06:04:34.29	64.41	9.03	
2025-01-12 06:04:34.49	64.45	9.03	
2025-01-12 06:04:34.70	64.49	9.04	
2025-01-12 06:04:34.90	64.53	9.04	
2025-01-12 06:04:35.11	64.57	9.04	
2025-01-12 06:04:35.31	64.61	9.05	
2025-01-12 06:04:35.52	64.65	9.05	
2025-01-12 06:04:35.72	64.69	9.05	
2025-01-12 06:04:35.93	64.73	9.06	
2025-01-12 06:04:36.13	64.77	9.06	
2025-01-12 06:04:36.34	64.81	9.06	
2025-01-12 06:04:36.54	64.84	9.07	
2025-01-12 06:04:36.75	64.89	9.07	
2025-01-12 06:04:36.96	64.93	9.08	
2025-01-12 06:04:37.16	64.97	9.08	
2025-01-12 06:04:37.36	65.00	9.08	
2025-01-12 06:04:37.57	65.04	9.09	
2025-01-12 06:04:37.77	65.08	9.09	
2025-01-12 06:04:37.98	65.12	9.09	
2025-01-12 06:04:38.18	65.16	9.10	
2025-01-12 06:04:38.39	65.20	9.10	
2025-01-12 06:04:38.59	65.24	9.10	
2025-01-12 06:04:38.80	65.28	9.11	
2025-01-12 06:04:39.00	65.32	9.11	
2025-01-12 06:04:39.21	65.36	9.11	
2025-01-12 06:04:39.41	65.40	9.12	
2025-01-12 06:04:39.62	65.44	9.12	
2025-01-12 06:04:39.82	65.48	9.12	
2025-01-12 06:04:40.03	65.52	9.13	
2025-01-12 06:04:40.24	65.56	9.13	
2025-01-12 06:04:40.44	65.60	9.13	
2025-01-12 06:04:40.64	65.64	9.14	
2025-01-12 06:04:40.85	65.68	9.14	
2025-01-12 06:04:41.06	65.72	9.14	
2025-01-12 06:04:41.26	65.76	9.15	
2025-01-12 06:04:41.47	65.80	9.15	
2025-01-12 06:04:41.67	65.84	9.15	
2025-01-12 06:04:41.88	65.88	9.15	
2025-01-12 06:04:42.08	65.92	9.16	
2025-01-12 06:04:42.29	65.96	9.16	
2025-01-12 06:04:42.49	66.00	9.16	
2025-01-12 06:04:42.70	66.04	9.17	
2025-01-12 06:04:42.90	66.08	9.17	
2025-01-12 06:04:43.11	66.12	9.17	
2025-01-12 06:04:43.31	66.16	9.18	
2025-01-12 06:04:43.52	66.20	9.18	
2025-01-12 06:04:43.72	66.24	9.18	
2025-01-12 06:04:43.93	66.28	9.19	
2025-01-12 06:04:44.13	66.32	9.19	
2025-01-12 06:04:44.34	66.36	9.19	
2025-01-12 06:04:44.55	66.41	9.20	
2025-01-12 06:04:44.75	66.44	9.20	
2025-01-12 06:04:44.95	66.48	9.20	
2025-01-12 06:04:45.16	66.53	9.20	
2025-01-12 06:04:45.38	66.57	9.21	
2025-01-12 06:04:45.58	66.61	9.21	
2025-01-12 06:04:45.79	66.65	9.21	
2025-01-12 06:04:45.99	66.69	9.22	
2025-01-12 06:04:46.20	66.73	9.22	
2025-01-12 06:04:46.40	66.77	9.22	
2025-01-12 06:04:46.61	66.81	9.23	
2025-01-12 06:04:46.82	66.85	9.23	
2025-01-12 06:04:47.02	66.89	9.23	
2025-01-12 06:04:47.22	66.93	9.23	
2025-01-12 06:04:47.43	66.97	9.24	
2025-01-12 06:04:47.64	67.01	9.24	
2025-01-12 06:04:47.84	67.05	9.24	
2025-01-12 06:04:48.04	67.09	9.25	
2025-01-12 06:04:48.25	67.13	9.25	
2025-01-12 06:04:48.46	67.17	9.25	
2025-01-12 06:04:48.66	67.21	9.25	
2025-01-12 06:04:48.87	67.25	9.26	
2025-01-12 06:04:49.07	67.29	9.26	
2025-01-12 06:04:49.28	67.33	9.26	
2025-01-12 06:04:49.48	67.37	9.26	
2025-01-12 06:04:49.69	67.41	9.27	
2025-01-12 06:04:49.90	67.46	9.27	
2025-01-12 06:04:50.10	67.50	9.27	
2025-01-12 06:04:50.30	67.53	9.28	
2025-01-12 06:04:50.51	67.58	9.28	
2025-01-12 06:04:50.72	67.62	9.28	
2025-01-12 06:04:50.92	67.66	9.28	
2025-01-12 06:04:51.13	67.70	9.29	
2025-01-12 06:04:51.35	67.74	9.29	
2025-01-12 06:04:51.55	67.78	9.29	
2025-01-12 06:04:51.76	67.82	9.29	
2025-01-12 06:04:51.96	67.86	9.30	
2025-01-12 06:04:52.17	67.90	9.30	
2025-01-12 06:04:52.38	67.94	9.30	
2025-01-12 06:04:52.58	67.98	9.31	
2025-01-12 06:04:52.79	68.03	9.31	
2025-01-12 06:04:52.99	68.07	9.31	
2025-01-12 06:04:53.20	68.11	9.31	
2025-01-12 06:04:53.42	68.15	9.32	
2025-01-12 06:04:53.62	68.19	9.32	
2025-01-12 06:04:53.83	68.23	9.32	
2025-01-12 06:04:54.03	68.27	9.32	
2025-01-12 06:04:54.24	68.31	9.33	
2025-01-12 06:04:54.45	68.35	9.33	
2025-01-12 06:04:54.65	68.39	9.33	
2025-01-12 06:04:54.86	68.43	9.33	
2025-01-12 06:04:55.06	68.47	9.34	
2025-01-12 06:04:55.27	68.52	9.34	
2025-01-12 06:04:55.47	68.56	9.34	
2025-01-12 06:04:55.68	68.60	9.34	
2025-01-12 06:04:55.88	68.64	9.35	
2025-01-12 06:04:56.09	68.68	9.35	
2025-01-12 06:04:56.30	68.72	9.35	
2025-01-12 06:04:56.50	68.76	9.35	
2025-01-12 06:04:56.71	68.80	9.36	
2025-01-12 06:04:56.91	68.84	9.36	
2025-01-12 06:04:57.12	68.88	9.36	
2025-01-12 06:04:57.32	68.92	9.36	
2025-01-12 06:04:57.53	68.96	9.36	
2025-01-12 06:04:57.75	69.01	9.37	
2025-01-12 06:04:57.95	69.05	9.37	
2025-01-12 06:04:58.16	69.09	9.37	
2025-01-12 06:04:58.36	69.13	9.37	
2025-01-12 06:04:58.57	69.17	9.38	
2025-01-12 06:04:58.77	69.21	9.38	
2025-01-12 06:04:58.98	69.25	9.38	
2025-01-12 06:04:59.19	69.29	9.38	
2025-01-12 06:04:59.39	69.33	9.38	
2025-01-12 06:04:59.60	69.37	9.39	
2025-01-12 06:04:59.80	69.41	9.39	
2025-01-12 06:05:00.00	69.45	9.39	
2025-01-12 06:05:00.21	69.50	9.39	
2025-01-12 06:05:00.41	69.54	9.40	
2025-01-12 06:05:00.62	69.58	9.40	
2025-01-12 06:05:00.82	69.62	9.40	
2025-01-12 06:05:01.03	69.66	9.40	
2025-01-12 06:05:01.23	69.70	9.40	
2025-01-12 06:05:01.44	69.74	9.41	
2025-01-12 06:05:01.64	69.78	9.41	
2025-01-12 06:05:01.85	69.82	9.41	
2025-01-12 06:05:02.05	69.86	9.41	
2025-01-12 06:05:02.26	69.90	9.41	
2025-01-12 06:05:02.46	69.94	9.42	
2025-01-12 06:05:02.67	69.98	9.42	
2025-01-12 06:05:02.87	70.02	9.42	
2025-01-12 06:05:03.08	70.07	9.42	
2025-01-12 06:05:03.28	70.11	9.42	
2025-01-12 06:05:03.49	70.15	9.43	
2025-01-12 06:05:03.69	70.19	9.43	
2025-01-12 06:05:03.90	70.23	9.43	
2025-01-12 06:05:04.11	70.27	9.43	
2025-01-12 06:05:04.31	70.31	9.43	
2025-01-12 06:05:04.51	70.35	9.44	
2025-01-12 06:05:04.72	70.39	9.44	
2025-01-12 06:05:04.92	70.43	9.44	
2025-01-12 06:05:05.13	70.47	9.44	
2025-01-12 06:05:05.33	70.51	9.44	
2025-01-12 06:05:05.54	70.56	9.45	
2025-01-12 06:05:05.74	70.60	9.45	
2025-01-12 06:05:05.95	70.64	9.45	
2025-01-12 06:05:06.15	70.68	9.45	
2025-01-12 06:05:06.36	70.72	9.45	
2025-01-12 06:05:06.56	70.76	9.45	
2025-01-12 06:05:06.77	70.80	9.46	
2025-01-12 06:05:06.97	70.84	9.46	
2025-01-12 06:05:07.18	70.88	9.46	
2025-01-12 06:05:07.39	70.93	9.46	
2025-01-12 06:05:07.60	70.97	9.46	
2025-01-12 06:05:07.80	71.01	9.47	
2025-01-12 06:05:08.01	71.05	9.47	
2025-01-12 06:05:08.22	71.09	9.47	
2025-01-12 06:05:08.42	71.13	9.47	
2025-01-12 06:05:08.63	71.17	9.47	
2025-01-12 06:05:08.83	71.21	9.47	
2025-01-12 06:05:09.04	71.25	9.48	
2025-01-12 06:05:09.24	71.29	9.48	
2025-01-12 06:05:09.46	71.34	9.48	
2025-01-12 06:05:09.67	71.38	9.48	
2025-01-12 06:05:09.87	71.42	9.48	
2025-01-12 06:05:10.08	71.46	9.48	
2025-01-12 06:05:10.28	71.50	9.49	
2025-01-12 06:05:10.49	71.54	9.49	
2025-01-12 06:05:10.69	71.58	9.49	
2025-01-12 06:05:10.90	71.63	9.49	
2025-01-12 06:05:11.10	71.67	9.49	
2025-01-12 06:05:11.31	71.71	9.49	
2025-01-12 06:05:11.51	71.75	9.49	
2025-01-12 06:05:11.72	71.79	9.50	
2025-01-12 06:05:11.92	71.83	9.50	
2025-01-12 06:05:12.13	71.87	9.50	
2025-01-12 06:05:12.33	71.91	9.50	
2025-01-12 06:05:12.54	71.96	9.50	
2025-01-12 06:05:12.74	72.00	9.50	
2025-01-12 06:05:12.95	72.04	9.50	
2025-01-12 06:05:13.15	72.08	9.51	
2025-01-12 06:05:13.36	72.12	9.51	
2025-01-12 06:05:13.57	72.16	9.51	
2025-01-12 06:05:13.77	72.20	9.51	
2025-01-12 06:05:13.97	72.24	9.51	
2025-01-12 06:05:14.18	72.28	9.51	
2025-01-12 06:05:14.39	72.33	9.51	
2025-01-12 06:05:14.59	72.37	9.52	
2025-01-12 06:05:14.80	72.41	9.52	
2025-01-12 06:05:15.00	72.45	9.52	
2025-01-12 06:05:15.21	72.49	9.52	
2025-01-12 06:05:15.41	72.53	9.52	
2025-01-12 06:05:15.62	72.57	9.52	
2025-01-12 06:05:15.82	72.61	9.52	
2025-01-12 06:05:16.03	72.65	9.52	
2025-01-12 06:05:16.24	72.70	9.53	
2025-01-12 06:05:16.44	72.74	9.53	
2025-01-12 06:05:16.65	72.78	9.53	
2025-01-12 06:05:16.85	72.82	9.53	
2025-01-12 06:05:17.05	72.86	9.53	
2025-01-12 06:05:17.26	72.90	9.53	
2025-01-12 06:05:17.47	72.94	9.53	
2025-01-12 06:05:17.67	72.98	9.53	
2025-01-12 06:05:17.88	73.03	9.54	
2025-01-12 06:05:18.08	73.07	9.54	
2025-01-12 06:05:18.29	73.11	9.54	
2025-01-12 06:05:18.50	73.15	9.54	
2025-01-12 06:05:18.70	73.19	9.54	
2025-01-12 06:05:18.92	73.23	9.54	
2025-01-12 06:05:19.12	73.27	9.54	
2025-01-12 06:05:19.33	73.32	9.54	
2025-01-12 06:05:19.53	73.36	9.54	
2025-01-12 06:05:19.74	73.40	9.54	
2025-01-12 06:05:19.94	73.44	9.55	
2025-01-12 06:05:20.15	73.48	9.55	
2025-01-12 06:05:20.36	73.52	9.55	
2025-01-12 06:05:20.56	73.56	9.55	
2025-01-12 06:05:20.77	73.61	9.55	
2025-01-12 06:05:20.97	73.65	9.55	
2025-01-12 06:05:21.18	73.69	9.55	
2025-01-12 06:05:21.38	73.73	9.55	
2025-01-12 06:05:21.59	73.77	9.55	
2025-01-12 06:05:21.80	73.81	9.55	
2025-01-12 06:05:22.00	73.85	9.56	
2025-01-12 06:05:22.20	73.89	9.56	
2025-01-12 06:05:22.41	73.94	9.56	
2025-01-12 06:05:22.62	73.98	9.56	
2025-01-12 06:05:22.82	74.02	9.56	
2025-01-12 06:05:23.03	74.06	9.56	
2025-01-12 06:05:23.23	74.10	9.56	
2025-01-12 06:05:23.44	74.14	9.56	
2025-01-12 06:05:23.64	74.18	9.56	
2025-01-12 06:05:23.85	74.23	9.56	
2025-01-12 06:05:24.05	74.27	9.56	
2025-01-12 06:05:24.26	74.31	9.56	
2025-01-12 06:05:24.48	74.35	9.56	
2025-01-12 06:05:24.68	74.39	9.57	
2025-01-12 06:05:24.89	74.44	9.57	
2025-01-12 06:05:25.09	74.48	9.57	
2025-01-12 06:05:25.30	74.52	9.57	
2025-01-12 06:05:25.52	74.56	9.57	
2025-01-12 06:05:25.72	74.60	9.57	
2025-01-12 06:05:25.93	74.64	9.57	
2025-01-12 06:05:26.14	74.69	9.57	
2025-01-12 06:05:26.34	74.73	9.57	
2025-01-12 06:05:26.54	74.77	9.57	
2025-01-12 06:05:26.75	74.81	9.57	
2025-01-12 06:05:26.95	74.85	9.57	
2025-01-12 06:05:27.16	74.89	9.57	
2025-01-12 06:05:27.36	74.93	9.57	
2025-01-12 06:05:27.57	74.97	9.57	
2025-01-12 06:05:27.77	75.01	9.57	
2025-01-12 06:05:27.98	75.06	9.58	
2025-01-12 06:05:28.19	75.10	9.58	
2025-01-12 06:05:28.39	75.14	9.58	
2025-01-12 06:05:28.60	75.18	9.58	
2025-01-12 06:05:28.80	75.22	9.58	
2025-01-12 06:05:29.00	75.26	9.58	
2025-01-12 06:05:29.21	75.30	9.58	
2025-01-12 06:05:29.42	75.35	9.58	
2025-01-12 06:05:29.62	75.39	9.58	
2025-01-12 06:05:29.83	75.43	9.58	
2025-01-12 06:05:30.03	75.47	9.58	
2025-01-12 06:05:30.24	75.51	9.58	
2025-01-12 06:05:30.44	75.55	9.58	
2025-01-12 06:05:30.65	75.60	9.58	
2025-01-12 06:05:30.85	75.64	9.58	
2025-01-12 06:05:31.06	75.68	9.58	
2025-01-12 06:05:31.27	75.72	9.58	
2025-01-12 06:05:31.47	75.76	9.58	
2025-01-12 06:05:31.68	75.80	9.58	
2025-01-12 06:05:31.89	75.84	9.58	
2025-01-12 06:05:32.10	75.89	9.58	
2025-01-12 06:05:32.30	75.93	9.58	
2025-01-12 06:05:32.51	75.97	9.58	
2025-01-12 06:05:32.71	76.01	9.58	
2025-01-12 06:05:32.91	76.05	9.58	
2025-01-12 06:05:33.12	76.09	9.58	
2025-01-12 06:05:33.32	76.13	9.58	
2025-01-12 06:05:33.53	76.18	9.58	
2025-01-12 06:05:33.74	76.22	9.59	
2025-01-12 06:05:33.94	76.26	9.59	
2025-01-12 06:05:34.14	76.30	9.59	
2025-01-12 06:05:34.35	76.34	9.59	
2025-01-12 06:05:34.55	76.38	9.59	
2025-01-12 06:05:34.76	76.42	9.59	
2025-01-12 06:05:34.96	76.46	9.59	
2025-01-12 06:05:35.17	76.51	9.59	
2025-01-12 06:05:35.39	76.55	9.59	
2025-01-12 06:05:35.59	76.59	9.59	
2025-01-12 06:05:35.79	76.63	9.59	
2025-01-12 06:05:36.00	76.67	9.59	
2025-01-12 06:05:36.20	76.71	9.59	
2025-01-12 06:05:36.41	76.76	9.59	
2025-01-12 06:05:36.62	76.80	9.59	
2025-01-12 06:05:36.82	76.84	9.59	
2025-01-12 06:05:37.03	76.88	9.59	
2025-01-12 06:05:37.23	76.92	9.59	
2025-01-12 06:05:37.44	76.96	9.59	
2025-01-12 06:05:37.64	77.00	9.59	
2025-01-12 06:05:37.85	77.05	9.59	
2025-01-12 06:05:38.06	77.09	9.59	
2025-01-12 06:05:38.26	77.13	9.59	
2025-01-12 06:05:38.47	77.17	9.59	
2025-01-12 06:05:38.67	77.21	9.59	
2025-01-12 06:05:38.88	77.25	9.59	
2025-01-12 06:05:39.08	77.29	9.59	
2025-01-12 06:05:39.29	77.34	9.59	
2025-01-12 06:05:39.49	77.38	9.58	
2025-01-12 06:05:39.70	77.42	9.58	
2025-01-12 06:05:39.91	77.46	9.58	
2025-01-12 06:05:40.11	77.50	9.58	
2025-01-12 06:05:40.32	77.54	9.58	
2025-01-12 06:05:40.52	77.58	9.58	
2025-01-12 06:05:40.73	77.63	9.58	
2025-01-12 06:05:40.93	77.67	9.58	
2025-01-12 06:05:41.14	77.71	9.58	
2025-01-12 06:05:41.35	77.75	9.58	
2025-01-12 06:05:41.55	77.79	9.58	
2025-01-12 06:05:41.76	77.83	9.58	
2025-01-12 06:05:41.96	77.87	9.58	
2025-01-12 06:05:42.17	77.92	9.58	
2025-01-12 06:05:42.37	77.96	9.58	
2025-01-12 06:05:42.58	78.00	9.58	
2025-01-12 06:05:42.78	78.04	9.58	
2025-01-12 06:05:42.99	78.08	9.58	
2025-01-12 06:05:43.19	78.12	9.58	
2025-01-12 06:05:43.40	78.16	9.58	
2025-01-12 06:05:43.60	78.21	9.58	
2025-01-12 06:05:43.81	78.25	9.58	
2025-01-12 06:05:44.01	78.29	9.58	
2025-01-12 06:05:44.22	78.33	9.58	
2025-01-12 06:05:44.43	78.37	9.58	
2025-01-12 06:05:44.63	78.41	9.58	
2025-01-12 06:05:44.84	78.46	9.58	
2025-01-12 06:05:45.04	78.50	9.58	
2025-01-12 06:05:45.25	78.54	9.58	
2025-01-12 06:05:45.45	78.58	9.57	
2025-01-12 06:05:45.66	78.62	9.57	
2025-01-12 06:05:45.86	78.66	9.57	
2025-01-12 06:05:46.07	78.70	9.57	
2025-01-12 06:05:46.27	78.74	9.57	
2025-01-12 06:05:46.48	78.79	9.57	
2025-01-12 06:05:46.68	78.83	9.57	
2025-01-12 06:05:46.90	78.87	9.57	
2025-01-12 06:05:47.11	78.91	9.57	
2025-01-12 06:05:47.31	78.95	9.57	
2025-01-12 06:05:47.51	78.99	9.57	
2025-01-12 06:05:47.72	79.04	9.57	
2025-01-12 06:05:47.92	79.08	9.57	
2025-01-12 06:05:48.13	79.12	9.57	
2025-01-12 06:05:48.34	79.16	9.57	
2025-01-12 06:05:48.54	79.20	9.56	
2025-01-12 06:05:48.75	79.24	9.56	
2025-01-12 06:05:48.95	79.28	9.56	
2025-01-12 06:05:49.16	79.33	9.56	
2025-01-12 06:05:49.36	79.37	9.56	
2025-01-12 06:05:49.57	79.41	9.56	
2025-01-12 06:05:49.77	79.45	9.56	
2025-01-12 06:05:49.98	79.49	9.56	
2025-01-12 06:05:50.18	79.53	9.56	
2025-01-12 06:05:50.39	79.57	9.56	
2025-01-12 06:05:50.59	79.61	9.56	
2025-01-12 06:05:50.80	79.66	9.56	
2025-01-12 06:05:51.00	79.70	9.56	
2025-01-12 06:05:51.20	79.74	9.55	
2025-01-12 06:05:51.41	79.78	9.55	
2025-01-12 06:05:51.62	79.82	9.55	
2025-01-12 06:05:51.82	79.86	9.55	
2025-01-12 06:05:52.03	79.90	9.55	
2025-01-12 06:05:52.25	79.95	9.55	
2025-01-12 06:05:52.45	79.99	9.55	
2025-01-12 06:05:52.66	80.03	9.55	
2025-01-12 06:05:52.86	80.07	9.55	
2025-01-12 06:05:53.07	80.11	9.55	
2025-01-12 06:05:53.27	80.15	9.54	
2025-01-12 06:05:53.48	80.19	9.54	
2025-01-12 06:05:53.68	80.23	9.54	
2025-01-12 06:05:53.89	80.28	9.54	
2025-01-12 06:05:54.09	80.32	9.54	
2025-01-12 06:05:54.30	80.36	9.54	
2025-01-12 06:05:54.50	80.40	9.54	
2025-01-12 06:05:54.71	80.44	9.54	
2025-01-12 06:05:54.91	80.48	9.54	
2025-01-12 06:05:55.12	80.52	9.54	
2025-01-12 06:05:55.32	80.56	9.53	
2025-01-12 06:05:55.53	80.61	9.53	
2025-01-12 06:05:55.73	80.65	9.53	
2025-01-12 06:05:55.94	80.69	9.53	
2025-01-12 06:05:56.14	80.73	9.53	
2025-01-12 06:05:56.35	80.77	9.53	
2025-01-12 06:05:56.55	80.81	9.53	
2025-01-12 06:05:56.76	80.85	9.53	
2025-01-12 06:05:56.96	80.89	9.52	
2025-01-12 06:05:57.17	80.94	9.52	
2025-01-12 06:05:57.38	80.98	9.52	
2025-01-12 06:05:57.58	81.02	9.52	
2025-01-12 06:05:57.79	81.06	9.52	
2025-01-12 06:05:57.99	81.10	9.52	
2025-01-12 06:05:58.20	81.14	9.52	
2025-01-12 06:05:58.40	81.18	9.52	
2025-01-12 06:05:58.60	81.22	9.51	
2025-01-12 06:05:58.81	81.26	9.51	
2025-01-12 06:05:59.02	81.31	9.51	
2025-01-12 06:05:59.22	81.35	9.51	
2025-01-12 06:05:59.43	81.39	9.51	
2025-01-12 06:05:59.63	81.43	9.51	
2025-01-12 06:05:59.84	81.47	9.51	
2025-01-12 06:06:00.05	81.51	9.50	
2025-01-12 06:06:00.26	81.56	9.50	
2025-01-12 06:06:00.47	81.60	9.50	
2025-01-12 06:06:00.67	81.64	9.50	
2025-01-12 06:06:00.88	81.68	9.50	
2025-01-12 06:06:01.08	81.72	9.50	
2025-01-12 06:06:01.29	81.76	9.50	
2025-01-12 06:06:01.50	81.80	9.49	
2025-01-12 06:06:01.70	81.84	9.49	
2025-01-12 06:06:01.91	81.89	9.49	
2025-01-12 06:06:02.11	81.93	9.49	
2025-01-12 06:06:02.32	81.97	9.49	
2025-01-12 06:06:02.52	82.01	9.49	
2025-01-12 06:06:02.73	82.05	9.49	
2025-01-12 06:06:02.93	82.09	9.48	
2025-01-12 06:06:03.14	82.13	9.48	
2025-01-12 06:06:03.34	82.17	9.48	
2025-01-12 06:06:03.55	82.21	9.48	
2025-01-12 06:06:03.75	82.25	9.48	
2025-01-12 06:06:03.96	82.30	9.48	
2025-01-12 06:06:04.16	82.34	9.47	
2025-01-12 06:06:04.37	82.38	9.47	
2025-01-12 06:06:04.57	82.42	9.47	
2025-01-12 06:06:04.78	82.46	9.47	
2025-01-12 06:06:04.98	82.50	9.47	
2025-01-12 06:06:05.19	82.54	9.47	
2025-01-12 06:06:05.39	82.58	9.46	
2025-01-12 06:06:05.60	82.62	9.46	
2025-01-12 06:06:05.81	82.67	9.46	
2025-01-12 06:06:06.01	82.71	9.46	
2025-01-12 06:06:06.22	82.75	9.46	
2025-01-12 06:06:06.42	82.79	9.46	
2025-01-12 06:06:06.63	82.83	9.45	
2025-01-12 06:06:06.83	82.87	9.45	
2025-01-12 06:06:07.04	82.91	9.45	
2025-01-12 06:06:07.24	82.95	9.45	
2025-01-12 06:06:07.45	82.99	9.45	
2025-01-12 06:06:07.65	83.03	9.44	
2025-01-12 06:06:07.86	83.08	9.44	
2025-01-12 06:06:08.07	83.12	9.44	
2025-01-12 06:06:08.27	83.16	9.44	
2025-01-12 06:06:08.48	83.20	9.44	
2025-01-12 06:06:08.68	83.24	9.43	
2025-01-12 06:06:08.89	83.28	9.43	
2025-01-12 06:06:09.09	83.32	9.43	
2025-01-12 06:06:09.30	83.36	9.43	
2025-01-12 06:06:09.50	83.40	9.43	
2025-01-12 06:06:09.71	83.45	9.42	
2025-01-12 06:06:09.92	83.49	9.42	
2025-01-12 06:06:10.12	83.53	9.42	
2025-01-12 06:06:10.32	83.57	9.42	
2025-01-12 06:06:10.53	83.61	9.42	
2025-01-12 06:06:10.73	83.65	9.41	
2025-01-12 06:06:10.94	83.69	9.41	
2025-01-12 06:06:11.15	83.73	9.41	
2025-01-12 06:06:11.35	83.77	9.41	
2025-01-12 06:06:11.55	83.81	9.41	
2025-01-12 06:06:11.76	83.85	9.40	
2025-01-12 06:06:11.96	83.89	9.40	
2025-01-12 06:06:12.17	83.94	9.40	
2025-01-12 06:06:12.37	83.98	9.40	
2025-01-12 06:06:12.58	84.02	9.40	
2025-01-12 06:06:12.79	84.06	9.39	
2025-01-12 06:06:12.99	84.10	9.39	
2025-01-12 06:06:13.20	84.14	9.39	
2025-01-12 06:06:13.40	84.18	9.39	
2025-01-12 06:06:13.61	84.22	9.39	
2025-01-12 06:06:13.81	84.26	9.38	
2025-01-12 06:06:14.02	84.30	9.38	
2025-01-12 06:06:14.22	84.34	9.38	
2025-01-12 06:06:14.43	84.38	9.38	
2025-01-12 06:06:14.64	84.43	9.37	
2025-01-12 06:06:14.85	84.47	9.37	
2025-01-12 06:06:15.06	84.51	9.37	
2025-01-12 06:06:15.26	84.55	9.37	
2025-01-12 06:06:15.47	84.59	9.36	
2025-01-12 06:06:15.67	84.63	9.36	
2025-01-12 06:06:15.88	84.67	9.36	
2025-01-12 06:06:16.08	84.71	9.36	
2025-01-12 06:06:16.29	84.75	9.36	
2025-01-12 06:06:16.50	84.80	9.35	
2025-01-12 06:06:16.70	84.84	9.35	
2025-01-12 06:06:16.90	84.88	9.35	
2025-01-12 06:06:17.11	84.92	9.35	
2025-01-12 06:06:17.31	84.96	9.34	
2025-01-12 06:06:17.52	85.00	9.34	
2025-01-12 06:06:17.74	85.04	9.34	
2025-01-12 06:06:17.94	85.08	9.34	
2025-01-12 06:06:18.15	85.12	9.33	
2025-01-12 06:06:18.35	85.16	9.33	
2025-01-12 06:06:18.56	85.20	9.33	
2025-01-12 06:06:18.76	85.24	9.33	
2025-01-12 06:06:18.96	85.28	9.32	
2025-01-12 06:06:19.17	85.33	9.32	
2025-01-12 06:06:19.38	85.37	9.32	
2025-01-12 06:06:19.58	85.41	9.32	
2025-01-12 06:06:19.79	85.45	9.31	
2025-01-12 06:06:19.99	85.49	9.31	
2025-01-12 06:06:20.20	85.53	9.31	
2025-01-12 06:06:20.41	85.57	9.31	
2025-01-12 06:06:20.61	85.61	9.30	
2025-01-12 06:06:20.82	85.65	9.30	
2025-01-12 06:06:21.02	85.69	9.30	
2025-01-12 06:06:21.23	85.73	9.30	
2025-01-12 06:06:21.43	85.77	9.29	
2025-01-12 06:06:21.64	85.81	9.29	
2025-01-12 06:06:21.85	85.86	9.29	
2025-01-12 06:06:22.05	85.89	9.28	
2025-01-12 06:06:22.26	85.94	9.28	
2025-01-12 06:06:22.46	85.98	9.28	
2025-01-12 06:06:22.67	86.02	9.28	
2025-01-12 06:06:22.87	86.06	9.27	
2025-01-12 06:06:23.07	86.10	9.27	
2025-01-12 06:06:23.28	86.14	9.27	
2025-01-12 06:06:23.48	86.18	9.27	
2025-01-12 06:06:23.69	86.22	9.26	
2025-01-12 06:06:23.90	86.26	9.26	
2025-01-12 06:06:24.10	86.30	9.26	
2025-01-12 06:06:24.31	86.34	9.25	
2025-01-12 06:06:24.51	86.38	9.25	
2025-01-12 06:06:24.72	86.42	9.25	
2025-01-12 06:06:24.92	86.46	9.25	
2025-01-12 06:06:25.13	86.50	9.24	
2025-01-12 06:06:25.33	86.54	9.24	
2025-01-12 06:06:25.54	86.58	9.24	
2025-01-12 06:06:25.75	86.62	9.23	
2025-01-12 06:06:25.95	86.66	9.23	
2025-01-12 06:06:26.16	86.70	9.23	
2025-01-12 06:06:26.36	86.74	9.23	
2025-01-12 06:06:26.57	86.79	9.22	
2025-01-12 06:06:26.77	86.82	9.22	
2025-01-12 06:06:26.98	86.87	9.22	
2025-01-12 06:06:27.19	86.91	9.21	
2025-01-12 06:06:27.40	86.95	9.21	
2025-01-12 06:06:27.61	86.99	9.21	
2025-01-12 06:06:27.81	87.03	9.20	
2025-01-12 06:06:28.02	87.07	9.20	
2025-01-12 06:06:28.23	87.11	9.20	
2025-01-12 06:06:28.43	87.15	9.20	
2025-01-12 06:06:28.64	87.19	9.19	
2025-01-12 06:06:28.84	87.23	9.19	
2025-01-12 06:06:29.05	87.27	9.19	
2025-01-12 06:06:29.25	87.31	9.18	
2025-01-12 06:06:29.46	87.35	9.18	
2025-01-12 06:06:29.66	87.39	9.18	
2025-01-12 06:06:29.87	87.43	9.17	
2025-01-12 06:06:30.07	87.47	9.17	
2025-01-12 06:06:30.28	87.51	9.17	
2025-01-12 06:06:30.48	87.55	9.16	
2025-01-12 06:06:30.69	87.59	9.16	
2025-01-12 06:06:30.90	87.63	9.16	
2025-01-12 06:06:31.10	87.67	9.15	
2025-01-12 06:06:31.30	87.71	9.15	
2025-01-12 06:06:31.51	87.75	9.15	
2025-01-12 06:06:31.71	87.79	9.15	
2025-01-12 06:06:31.92	87.83	9.14	
2025-01-12 06:06:32.13	87.87	9.14	
2025-01-12 06:06:32.33	87.91	9.14	
2025-01-12 06:06:32.54	87.95	9.13	
2025-01-12 06:06:32.74	87.99	9.13	
2025-01-12 06:06:32.95	88.04	9.13	
2025-01-12 06:06:33.16	88.08	9.12	
2025-01-12 06:06:33.36	88.12	9.12	
2025-01-12 06:06:33.57	88.16	9.12	
2025-01-12 06:06:33.77	88.20	9.11	
2025-01-12 06:06:33.97	88.23	9.11	
2025-01-12 06:06:34.18	88.28	9.11	
2025-01-12 06:06:34.39	88.32	9.10	
2025-01-12 06:06:34.59	88.35	9.10	
2025-01-12 06:06:34.80	88.40	9.10	
2025-01-12 06:06:35.00	88.43	9.09	
2025-01-12 06:06:35.21	88.48	9.09	
2025-01-12 06:06:35.41	88.51	9.09	
2025-01-12 06:06:35.62	88.56	9.08	
2025-01-12 06:06:35.82	88.59	9.08	
2025-01-12 06:06:36.04	88.64	9.07	
2025-01-12 06:06:36.25	88.68	9.07	
2025-01-12 06:06:36.45	88.72	9.07	
2025-01-12 06:06:36.66	88.76	9.06	
2025-01-12 06:06:36.86	88.80	9.06	
2025-01-12 06:06:37.07	88.84	9.06	
2025-01-12 06:06:37.27	88.88	9.05	
2025-01-12 06:06:37.48	88.92	9.05	
2025-01-12 06:06:37.69	88.96	9.05	
2025-01-12 06:06:37.89	89.00	9.04	
2025-01-12 06:06:38.11	89.04	9.04	
2025-01-12 06:06:38.31	89.08	9.04	
2025-01-12 06:06:38.52	89.12	9.03	
2025-01-12 06:06:38.72	89.16	9.03	
2025-01-12 06:06:38.93	89.20	9.03	
2025-01-12 06:06:39.14	89.24	9.02	
2025-01-12 06:06:39.34	89.28	9.02	
2025-01-12 06:06:39.55	89.32	9.01	
2025-01-12 06:06:39.75	89.36	9.01	
2025-01-12 06:06:39.96	89.40	9.01	
2025-01-12 06:06:40.16	89.44	9.00	
2025-01-12 06:06:40.37	89.48	9.00	
2025-01-12 06:06:40.58	89.52	9.00	
2025-01-12 06:06:40.78	89.56	8.99	
2025-01-12 06:06:40.99	89.60	8.99	
2025-01-12 06:06:41.19	89.64	8.98	
2025-01-12 06:06:41.40	89.68	8.98	
2025-01-12 06:06:41.60	89.72	8.98	
2025-01-12 06:06:41.81	89.76	8.97	
2025-01-12 06:06:42.02	89.80	8.97	
2025-01-12 06:06:42.22	89.83	8.97	
2025-01-12 06:06:42.43	89.88	8.96	
2025-01-12 06:06:42.63	89.91	8.96	
2025-01-12 06:06:42.84	89.95	8.95	
2025-01-12 06:06:43.04	89.99	8.95	
2025-01-12 06:06:43.25	90.03	8.95	
2025-01-12 06:06:43.46	90.07	8.94	
2025-01-12 06:06:43.66	90.11	8.94	
2025-01-12 06:06:43.87	90.15	8.94	
2025-01-12 06:06:44.07	90.19	8.93	
2025-01-12 06:06:44.28	90.23	8.93	
2025-01-12 06:06:44.48	90.27	8.92	
2025-01-12 06:06:44.69	90.31	8.92	
2025-01-12 06:06:44.89	90.35	8.92	
2025-01-12 06:06:45.10	90.39	8.91	
2025-01-12 06:06:45.30	90.43	8.91	
2025-01-12 06:06:45.51	90.47	8.90	
2025-01-12 06:06:45.72	90.51	8.90	
2025-01-12 06:06:45.92	90.55	8.90	
2025-01-12 06:06:46.13	90.59	8.89	
2025-01-12 06:06:46.33	90.63	8.89	
2025-01-12 06:06:46.54	90.67	8.88	
2025-01-12 06:06:46.74	90.70	8.88	
2025-01-12 06:06:46.95	90.75	8.88	
2025-01-12 06:06:47.15	90.78	8.87	
2025-01-12 06:06:47.36	90.82	8.87	
2025-01-12 06:06:47.56	90.86	8.86	
2025-01-12 06:06:47.77	90.90	8.86	
2025-01-12 06:06:47.97	90.94	8.86	
2025-01-12 06:06:48.18	90.98	8.85	
2025-01-12 06:06:48.38	91.02	8.85	
2025-01-12 06:06:48.59	91.06	8.84	
2025-01-12 06:06:48.79	91.10	8.84	
2025-01-12 06:06:49.00	91.14	8.84	
2025-01-12 06:06:49.20	91.18	8.83	
2025-01-12 06:06:49.41	91.22	8.83	
2025-01-12 06:06:49.62	91.26	8.82	
2025-01-12 06:06:49.82	91.29	8.82	
2025-01-12 06:06:50.02	91.33	8.81	
2025-01-12 06:06:50.23	91.37	8.81	
2025-01-12 06:06:50.43	91.41	8.81	
2025-01-12 06:06:50.64	91.45	8.80	
2025-01-12 06:06:50.84	91.49	8.80	
2025-01-12 06:06:51.05	91.53	8.79	
2025-01-12 06:06:51.25	91.57	8.79	
2025-01-12 06:06:51.46	91.61	8.78	
2025-01-12 06:06:51.66	91.65	8.78	
2025-01-12 06:06:51.87	91.69	8.78	
2025-01-12 06:06:52.07	91.72	8.77	
2025-01-12 06:06:52.28	91.76	8.77	
2025-01-12 06:06:52.48	91.80	8.76	
2025-01-12 06:06:52.69	91.84	8.76	
2025-01-12 06:06:52.89	91.88	8.76	
2025-01-12 06:06:53.09	91.92	8.75	
2025-01-12 06:06:53.30	91.96	8.75	
2025-01-12 06:06:53.50	92.00	8.74	
2025-01-12 06:06:53.71	92.04	8.74	
2025-01-12 06:06:53.92	92.08	8.73	
2025-01-12 06:06:54.12	92.11	8.73	
2025-01-12 06:06:54.33	92.15	8.72	
2025-01-12 06:06:54.53	92.19	8.72	
2025-01-12 06:06:54.74	92.23	8.72	
2025-01-12 06:06:54.94	92.27	8.71	
2025-01-12 06:06:55.14	92.31	8.71	
2025-01-12 06:06:55.35	92.35	8.70	
2025-01-12 06:06:55.56	92.39	8.70	
2025-01-12 06:06:55.76	92.42	8.69	
2025-01-12 06:06:55.97	92.46	8.69	
2025-01-12 06:06:56.17	92.50	8.68	
2025-01-12 06:06:56.37	92.54	8.68	
2025-01-12 06:06:56.58	92.58	8.68	
2025-01-12 06:06:56.79	92.62	8.67	
2025-01-12 06:06:56.99	92.66	8.67	
2025-01-12 06:06:57.20	92.70	8.66	
2025-01-12 06:06:57.40	92.73	8.66	
2025-01-12 06:06:57.61	92.77	8.65	
2025-01-12 06:06:57.81	92.81	8.65	
2025-01-12 06:06:58.02	92.85	8.64	
2025-01-12 06:06:58.23	92.89	8.64	
2025-01-12 06:06:58.43	92.93	8.63	
2025-01-12 06:06:58.64	92.97	8.63	
2025-01-12 06:06:58.84	93.01	8.63	
2025-01-12 06:06:59.05	93.05	8.62	
2025-01-12 06:06:59.25	93.08	8.62	
2025-01-12 06:06:59.46	93.12	8.61	
2025-01-12 06:06:59.66	93.16	8.61	
2025-01-12 06:06:59.87	93.20	8.60	
2025-01-12 06:07:00.07	93.24	8.60	
2025-01-12 06:07:00.27	93.28	8.59	
2025-01-12 06:07:00.48	93.31	8.59	
2025-01-12 06:07:00.68	93.35	8.58	
2025-01-12 06:07:00.89	93.39	8.58	
2025-01-12 06:07:01.09	93.43	8.57	
2025-01-12 06:07:01.30	93.47	8.57	
2025-01-12 06:07:01.51	93.51	8.56	
2025-01-12 06:07:01.71	93.55	8.56	
2025-01-12 06:07:01.91	93.58	8.56	
2025-01-12 06:07:02.12	93.62	8.55	
2025-01-12 06:07:02.33	93.66	8.55	
2025-01-12 06:07:02.53	93.70	8.54	
2025-01-12 06:07:02.74	93.74	8.54	
2025-01-12 06:07:02.94	93.78	8.53	
2025-01-12 06:07:03.15	93.82	8.53	
2025-01-12 06:07:03.35	93.85	8.52	
2025-01-12 06:07:03.55	93.89	8.52	
2025-01-12 06:07:03.76	93.93	8.51	
2025-01-12 06:07:03.96	93.97	8.51	
2025-01-12 06:07:04.17	94.01	8.50	
2025-01-12 06:07:04.37	94.04	8.50	
2025-01-12 06:07:04.58	94.08	8.49	
2025-01-12 06:07:04.78	94.12	8.49	
2025-01-12 06:07:04.99	94.16	8.48	
2025-01-12 06:07:05.19	94.20	8.48	
2025-01-12 06:07:05.40	94.24	8.47	
2025-01-12 06:07:05.60	94.27	8.47	
2025-01-12 06:07:05.81	94.31	8.46	
2025-01-12 06:07:06.01	94.35	8.46	
2025-01-12 06:07:06.22	94.39	8.45	
2025-01-12 06:07:06.42	94.43	8.45	
2025-01-12 06:07:06.63	94.46	8.44	
2025-01-12 06:07:06.83	94.50	8.44	
2025-01-12 06:07:07.04	94.54	8.43	
2025-01-12 06:07:07.24	94.58	8.43	
2025-01-12 06:07:07.45	94.62	8.42	
2025-01-12 06:07:07.65	94.65	8.42	
2025-01-12 06:07:07.86	94.69	8.41	
2025-01-12 06:07:08.06	94.73	8.41	
2025-01-12 06:07:08.27	94.77	8.40	
2025-01-12 06:07:08.47	94.81	8.40	
2025-01-12 06:07:08.68	94.84	8.39	
2025-01-12 06:07:08.89	94.88	8.39	
2025-01-12 06:07:09.09	94.92	8.38	
2025-01-12 06:07:09.30	94.96	8.38	
2025-01-12 06:07:09.50	95.00	8.37	
2025-01-12 06:07:09.71	95.04	8.37	
2025-01-12 06:07:09.91	95.07	8.36	
2025-01-12 06:07:10.12	95.11	8.36	
2025-01-12 06:07:10.32	95.15	8.35	
2025-01-12 06:07:10.53	95.19	8.35	
2025-01-12 06:07:10.73	95.22	8.34	
2025-01-12 06:07:10.94	95.26	8.34	
2025-01-12 06:07:11.15	95.30	8.33	
2025-01-12 06:07:11.35	95.34	8.33	
2025-01-12 06:07:11.56	95.38	8.32	
2025-01-12 06:07:11.76	95.41	8.32	
2025-01-12 06:07:11.97	95.45	8.31	
2025-01-12 06:07:12.17	95.49	8.31	
2025-01-12 06:07:12.38	95.53	8.30	
2025-01-12 06:07:12.58	95.57	8.30	
2025-01-12 06:07:12.79	95.60	8.29	
2025-01-12 06:07:12.99	95.64	8.29	
2025-01-12 06:07:13.20	95.68	8.28	
2025-01-12 06:07:13.40	95.72	8.27	
2025-01-12 06:07:13.61	95.75	8.27	
2025-01-12 06:07:13.82	95.79	8.26	
2025-01-12 06:07:14.02	95.83	8.26	
2025-01-12 06:07:14.23	95.87	8.25	
2025-01-12 06:07:14.43	95.90	8.25	
2025-01-12 06:07:14.64	95.94	8.24	
2025-01-12 06:07:14.84	95.98	8.24	
2025-01-12 06:07:15.05	96.02	8.23	
2025-01-12 06:07:15.26	96.06	8.23	
2025-01-12 06:07:15.46	96.09	8.22	
2025-01-12 06:07:15.66	96.13	8.22	
2025-01-12 06:07:15.87	96.17	8.21	
2025-01-12 06:07:16.07	96.21	8.21	
2025-01-12 06:07:16.28	96.24	8.20	
2025-01-12 06:07:16.49	96.28	8.19	
2025-01-12 06:07:16.69	96.32	8.19	
2025-01-12 06:07:16.89	96.36	8.18	
2025-01-12 06:07:17.10	96.39	8.18	
2025-01-12 06:07:17.31	96.43	8.17	
2025-01-12 06:07:17.51	96.47	8.17	
2025-01-12 06:07:17.72	96.51	8.16	
2025-01-12 06:07:17.92	96.54	8.16	
2025-01-12 06:07:18.13	96.58	8.15	
2025-01-12 06:07:18.33	96.62	8.15	
2025-01-12 06:07:18.54	96.66	8.14	
2025-01-12 06:07:18.74	96.69	8.13	
2025-01-12 06:07:18.95	96.73	8.13	
2025-01-12 06:07:19.15	96.77	8.12	
2025-01-12 06:07:19.36	96.80	8.12	
2025-01-12 06:07:19.56	96.84	8.11	
2025-01-12 06:07:19.77	96.88	8.11	
2025-01-12 06:07:19.97	96.92	8.10	
2025-01-12 06:07:20.17	96.95	8.10	
2025-01-12 06:07:20.38	96.99	8.09	
2025-01-12 06:07:20.59	97.03	8.08	
2025-01-12 06:07:20.79	97.06	8.08	
2025-01-12 06:07:20.99	97.10	8.07	
2025-01-12 06:07:21.20	97.14	8.07	
2025-01-12 06:07:21.40	97.17	8.06	
2025-01-12 06:07:21.61	97.21	8.06	
2025-01-12 06:07:21.81	97.25	8.05	
2025-01-12 06:07:22.02	97.29	8.05	
2025-01-12 06:07:22.22	97.32	8.04	
2025-01-12 06:07:22.43	97.36	8.03	
2025-01-12 06:07:22.64	97.40	8.03	
2025-01-12 06:07:22.84	97.44	8.02	
2025-01-12 06:07:23.05	97.47	8.02	
2025-01-12 06:07:23.25	97.51	8.01	
2025-01-12 06:07:23.46	97.55	8.01	
2025-01-12 06:07:23.66	97.58	8.00	
2025-01-12 06:07:23.87	97.62	7.99	
2025-01-12 06:07:24.07	97.66	7.99	
2025-01-12 06:07:24.28	97.69	7.98	
2025-01-12 06:07:24.48	97.73	7.98	
2025-01-12 06:07:24.69	97.77	7.97	
2025-01-12 06:07:24.90	97.81	7.97	
2025-01-12 06:07:25.10	97.84	7.96	
2025-01-12 06:07:25.31	97.88	7.95	
2025-01-12 06:07:25.51	97.92	7.95	
2025-01-12 06:07:25.72	97.95	7.94	
2025-01-12 06:07:25.93	97.99	7.94	
2025-01-12 06:07:26.13	98.03	7.93	
2025-01-12 06:07:26.33	98.06	7.93	
2025-01-12 06:07:26.54	98.10	7.92	
2025-01-12 06:07:26.75	98.14	7.91	
2025-01-12 06:07:26.95	98.17	7.91	
2025-01-12 06:07:27.16	98.21	7.90	
2025-01-12 06:07:27.36	98.25	7.90	
2025-01-12 06:07:27.57	98.28	7.89	
2025-01-12 06:07:27.77	98.32	7.88	
2025-01-12 06:07:27.98	98.36	7.88	
2025-01-12 06:07:28.18	98.39	7.87	
2025-01-12 06:07:28.40	98.43	7.87	
2025-01-12 06:07:28.61	98.47	7.86	
2025-01-12 06:07:28.81	98.51	7.85	
2025-01-12 06:07:29.02	98.54	7.85	
2025-01-12 06:07:29.22	98.58	7.84	
2025-01-12 06:07:29.43	98.62	7.84	
2025-01-12 06:07:29.63	98.65	7.83	
2025-01-12 06:07:29.84	98.69	7.82	
2025-01-12 06:07:30.05	98.73	7.82	
2025-01-12 06:07:30.25	98.76	7.81	
2025-01-12 06:07:30.45	98.80	7.81	
2025-01-12 06:07:30.66	98.84	7.80	
2025-01-12 06:07:30.86	98.87	7.80	
2025-01-12 06:07:31.07	98.91	7.79	
2025-01-12 06:07:31.27	98.94	7.78	
2025-01-12 06:07:31.48	98.98	7.78	
2025-01-12 06:07:31.70	99.02	7.77	
2025-01-12 06:07:31.90	99.06	7.76	
2025-01-12 06:07:32.11	99.09	7.76	
2025-01-12 06:07:32.32	99.13	7.75	
2025-01-12 06:07:32.52	99.16	7.75	
2025-01-12 06:07:32.73	99.20	7.74	
2025-01-12 06:07:32.93	99.24	7.73	
2025-01-12 06:07:33.14	99.27	7.73	
2025-01-12 06:07:33.34	99.31	7.72	
2025-01-12 06:07:33.55	99.35	7.72	
2025-01-12 06:07:33.75	99.38	7.71	
2025-01-12 06:07:33.95	99.42	7.70	
2025-01-12 06:07:34.16	99.45	7.70	
2025-01-12 06:07:34.37	99.49	7.69	
2025-01-12 06:07:34.57	99.53	7.69	
2025-01-12 06:07:34.78	99.56	7.68	
2025-01-12 06:07:34.98	99.60	7.67	
2025-01-12 06:07:35.19	99.64	7.67	
2025-01-12 06:07:35.40	99.67	7.66	
2025-01-12 06:07:35.60	99.71	7.65	
2025-01-12 06:07:35.80	99.74	7.65	
2025-01-12 06:07:36.01	99.78	7.64	
2025-01-12 06:07:36.22	99.82	7.64	
2025-01-12 06:07:36.42	99.85	7.63	
2025-01-12 06:07:36.63	99.89	7.62	
2025-01-12 06:07:36.83	99.92	7.62	
2025-01-12 06:07:37.03	99.96	7.61	
2025-01-12 06:07:37.24	100.00	7.61	
2025-01-12 06:07:37.45	100.03	7.60	
2025-01-12 06:07:37.65	100.07	7.59	
2025-01-12 06:07:37.86	100.10	7.59	
2025-01-12 06:07:38.07	100.14	7.58	
2025-01-12 06:07:38.28	100.18	7.57	
2025-01-12 06:07:38.48	100.21	7.57	
2025-01-12 06:07:38.69	100.25	7.56	
2025-01-12 06:07:38.90	100.29	7.55	
2025-01-12 06:07:39.11	100.32	7.55	
2025-01-12 06:07:39.32	100.36	7.54	
2025-01-12 06:07:39.53	100.40	7.54	
2025-01-12 06:07:39.73	100.43	7.53	
2025-01-12 06:07:39.94	100.47	7.52	
2025-01-12 06:07:40.14	100.50	7.52	
2025-01-12 06:07:40.35	100.54	7.51	
2025-01-12 06:07:40.56	100.58	7.50	
2025-01-12 06:07:40.76	100.61	7.50	
2025-01-12 06:07:40.97	100.65	7.49	
2025-01-12 06:07:41.17	100.68	7.48	
2025-01-12 06:07:41.38	100.72	7.48	
2025-01-12 06:07:41.58	100.75	7.47	
2025-01-12 06:07:41.79	100.79	7.47	
2025-01-12 06:07:41.99	100.82	7.46	
2025-01-12 06:07:42.20	100.86	7.45	
2025-01-12 06:07:42.40	100.89	7.45	
2025-01-12 06:07:42.61	100.93	7.44	
2025-01-12 06:07:42.81	100.97	7.43	
2025-01-12 06:07:43.02	101.00	7.43	
2025-01-12 06:07:43.22	101.04	7.42	
2025-01-12 06:07:43.43	101.07	7.41	
2025-01-12 06:07:43.63	101.11	7.41	
2025-01-12 06:07:43.84	101.14	7.40	
2025-01-12 06:07:44.04	101.18	7.39	
2025-01-12 06:07:44.25	101.21	7.39	
2025-01-12 06:07:44.45	101.25	7.38	
2025-01-12 06:07:44.66	101.28	7.38	
2025-01-12 06:07:44.86	101.32	7.37	
2025-01-12 06:07:45.07	101.36	7.36	
2025-01-12 06:07:45.27	101.39	7.36	
2025-01-12 06:07:45.48	101.43	7.35	
2025-01-12 06:07:45.68	101.46	7.34	
2025-01-12 06:07:45.89	101.50	7.34	
2025-01-12 06:07:46.09	101.53	7.33	
2025-01-12 06:07:46.30	101.57	7.32	
2025-01-12 06:07:46.50	101.60	7.32	
