passes_logs/2025/01/12/SPB_Silybum_02/SPB_Silybum_02__20250112_230143_AQUA_rec.log

#Pass ID: 20250112_230143_AQUA
#Satellite: AQUA
#Configuration: AQUA
#Start time: 2025-01-12 23:01:41

#Version: 2.0.20230423
#Station: SPB_Silybum_02
#Location: 30.233357 lon 59.946436 lat
#TLE: 1 27424U 02022A   25012.20730597  .00001826  00000+0  38477-3 0  9996
#TLE: 2 27424  98.3584 328.8461 0001605 114.2253 358.7733 14.60671943207219

#Time	Az	El	Level	Level2	SNR	BER	Gain	Gain2
2025-01-12 23:01:44.00	37.98	4.01	
2025-01-12 23:01:44.21	38.01	4.01	
2025-01-12 23:01:44.41	38.03	4.02	
2025-01-12 23:01:44.61	38.06	4.03	
2025-01-12 23:01:44.82	38.09	4.04	
2025-01-12 23:01:45.03	38.11	4.05	
2025-01-12 23:01:45.23	38.14	4.06	
2025-01-12 23:01:45.44	38.17	4.07	
2025-01-12 23:01:45.64	38.19	4.08	
2025-01-12 23:01:45.84	38.22	4.08	
2025-01-12 23:01:46.05	38.25	4.09	
2025-01-12 23:01:46.26	38.28	4.10	
2025-01-12 23:01:46.46	38.30	4.11	
2025-01-12 23:01:46.66	38.33	4.12	
2025-01-12 23:01:46.87	38.36	4.13	
2025-01-12 23:01:47.08	38.38	4.14	
2025-01-12 23:01:47.28	38.41	4.15	
2025-01-12 23:01:47.49	38.44	4.15	
2025-01-12 23:01:47.69	38.47	4.16	
2025-01-12 23:01:47.90	38.49	4.17	
2025-01-12 23:01:48.11	38.52	4.18	
2025-01-12 23:01:48.31	38.55	4.19	
2025-01-12 23:01:48.52	38.58	4.20	
2025-01-12 23:01:48.72	38.60	4.21	
2025-01-12 23:01:48.93	38.63	4.22	
2025-01-12 23:01:49.13	38.66	4.22	
2025-01-12 23:01:49.34	38.69	4.23	
2025-01-12 23:01:49.54	38.71	4.24	
2025-01-12 23:01:49.75	38.74	4.25	
2025-01-12 23:01:49.95	38.77	4.26	
2025-01-12 23:01:50.16	38.80	4.27	
2025-01-12 23:01:50.36	38.82	4.28	
2025-01-12 23:01:50.57	38.85	4.28	
2025-01-12 23:01:50.77	38.88	4.29	
2025-01-12 23:01:50.98	38.91	4.30	
2025-01-12 23:01:51.18	38.93	4.31	
2025-01-12 23:01:51.39	38.96	4.32	
2025-01-12 23:01:51.59	38.99	4.33	
2025-01-12 23:01:51.80	39.02	4.34	
2025-01-12 23:01:52.00	39.04	4.34	
2025-01-12 23:01:52.21	39.07	4.35	
2025-01-12 23:01:52.41	39.10	4.36	
2025-01-12 23:01:52.62	39.13	4.37	
2025-01-12 23:01:52.83	39.15	4.38	
2025-01-12 23:01:53.04	39.18	4.39	
2025-01-12 23:01:53.25	39.21	4.40	
2025-01-12 23:01:53.45	39.24	4.41	
2025-01-12 23:01:53.66	39.27	4.41	
2025-01-12 23:01:53.87	39.30	4.42	
2025-01-12 23:01:54.07	39.32	4.43	
2025-01-12 23:01:54.27	39.35	4.44	
2025-01-12 23:01:54.48	39.38	4.45	
2025-01-12 23:01:54.69	39.41	4.46	
2025-01-12 23:01:54.89	39.43	4.47	
2025-01-12 23:01:55.09	39.46	4.47	
2025-01-12 23:01:55.30	39.49	4.48	
2025-01-12 23:01:55.50	39.52	4.49	
2025-01-12 23:01:55.71	39.55	4.50	
2025-01-12 23:01:55.92	39.57	4.51	
2025-01-12 23:01:56.12	39.60	4.52	
2025-01-12 23:01:56.32	39.63	4.53	
2025-01-12 23:01:56.53	39.66	4.54	
2025-01-12 23:01:56.74	39.69	4.54	
2025-01-12 23:01:56.94	39.71	4.55	
2025-01-12 23:01:57.15	39.74	4.56	
2025-01-12 23:01:57.35	39.77	4.57	
2025-01-12 23:01:57.55	39.80	4.58	
2025-01-12 23:01:57.76	39.83	4.59	
2025-01-12 23:01:57.96	39.85	4.59	
2025-01-12 23:01:58.17	39.88	4.60	
2025-01-12 23:01:58.37	39.91	4.61	
2025-01-12 23:01:58.58	39.94	4.62	
2025-01-12 23:01:58.78	39.97	4.63	
2025-01-12 23:01:58.99	39.99	4.64	
2025-01-12 23:01:59.19	40.02	4.65	
2025-01-12 23:01:59.40	40.05	4.66	
2025-01-12 23:01:59.60	40.08	4.66	
2025-01-12 23:01:59.81	40.11	4.67	
2025-01-12 23:02:00.01	40.13	4.68	
2025-01-12 23:02:00.23	40.16	4.69	
2025-01-12 23:02:00.43	40.19	4.70	
2025-01-12 23:02:00.64	40.22	4.71	
2025-01-12 23:02:00.84	40.25	4.72	
2025-01-12 23:02:01.05	40.28	4.72	
2025-01-12 23:02:01.26	40.31	4.73	
2025-01-12 23:02:01.46	40.34	4.74	
2025-01-12 23:02:01.66	40.36	4.75	
2025-01-12 23:02:01.87	40.39	4.76	
2025-01-12 23:02:02.07	40.42	4.77	
2025-01-12 23:02:02.28	40.45	4.78	
2025-01-12 23:02:02.48	40.48	4.78	
2025-01-12 23:02:02.69	40.51	4.79	
2025-01-12 23:02:02.89	40.53	4.80	
2025-01-12 23:02:03.09	40.56	4.81	
2025-01-12 23:02:03.30	40.59	4.82	
2025-01-12 23:02:03.50	40.62	4.83	
2025-01-12 23:02:03.72	40.65	4.83	
2025-01-12 23:02:03.93	40.68	4.84	
2025-01-12 23:02:04.13	40.71	4.85	
2025-01-12 23:02:04.34	40.74	4.86	
2025-01-12 23:02:04.54	40.76	4.87	
2025-01-12 23:02:04.76	40.79	4.88	
2025-01-12 23:02:04.97	40.82	4.89	
2025-01-12 23:02:05.17	40.85	4.90	
2025-01-12 23:02:05.38	40.88	4.90	
2025-01-12 23:02:05.58	40.91	4.91	
2025-01-12 23:02:05.79	40.94	4.92	
2025-01-12 23:02:05.99	40.97	4.93	
2025-01-12 23:02:06.20	41.00	4.94	
2025-01-12 23:02:06.40	41.02	4.95	
2025-01-12 23:02:06.61	41.05	4.95	
2025-01-12 23:02:06.81	41.08	4.96	
2025-01-12 23:02:07.02	41.11	4.97	
2025-01-12 23:02:07.22	41.14	4.98	
2025-01-12 23:02:07.43	41.17	4.99	
2025-01-12 23:02:07.63	41.20	5.00	
2025-01-12 23:02:07.84	41.23	5.01	
2025-01-12 23:02:08.06	41.26	5.01	
2025-01-12 23:02:08.26	41.29	5.02	
2025-01-12 23:02:08.47	41.32	5.03	
2025-01-12 23:02:08.67	41.35	5.04	
2025-01-12 23:02:08.88	41.37	5.05	
2025-01-12 23:02:09.08	41.40	5.06	
2025-01-12 23:02:09.29	41.43	5.07	
2025-01-12 23:02:09.49	41.46	5.07	
2025-01-12 23:02:09.70	41.49	5.08	
2025-01-12 23:02:09.91	41.52	5.09	
2025-01-12 23:02:10.11	41.55	5.10	
2025-01-12 23:02:10.31	41.58	5.11	
2025-01-12 23:02:10.52	41.61	5.12	
2025-01-12 23:02:10.72	41.64	5.12	
2025-01-12 23:02:10.93	41.67	5.13	
2025-01-12 23:02:11.13	41.69	5.14	
2025-01-12 23:02:11.34	41.72	5.15	
2025-01-12 23:02:11.54	41.75	5.16	
2025-01-12 23:02:11.75	41.78	5.17	
2025-01-12 23:02:11.95	41.81	5.17	
2025-01-12 23:02:12.16	41.84	5.18	
2025-01-12 23:02:12.36	41.87	5.19	
2025-01-12 23:02:12.57	41.90	5.20	
2025-01-12 23:02:12.77	41.93	5.21	
2025-01-12 23:02:12.98	41.96	5.22	
2025-01-12 23:02:13.18	41.99	5.22	
2025-01-12 23:02:13.39	42.02	5.23	
2025-01-12 23:02:13.59	42.05	5.24	
2025-01-12 23:02:13.80	42.08	5.25	
2025-01-12 23:02:14.00	42.11	5.26	
2025-01-12 23:02:14.21	42.14	5.27	
2025-01-12 23:02:14.41	42.16	5.28	
2025-01-12 23:02:14.62	42.20	5.28	
2025-01-12 23:02:14.82	42.22	5.29	
2025-01-12 23:02:15.02	42.25	5.30	
2025-01-12 23:02:15.23	42.28	5.31	
2025-01-12 23:02:15.43	42.31	5.32	
2025-01-12 23:02:15.64	42.34	5.33	
2025-01-12 23:02:15.85	42.37	5.33	
2025-01-12 23:02:16.05	42.40	5.34	
2025-01-12 23:02:16.26	42.43	5.35	
2025-01-12 23:02:16.46	42.46	5.36	
2025-01-12 23:02:16.67	42.49	5.37	
2025-01-12 23:02:16.87	42.52	5.38	
2025-01-12 23:02:17.08	42.55	5.38	
2025-01-12 23:02:17.29	42.58	5.39	
2025-01-12 23:02:17.49	42.61	5.40	
2025-01-12 23:02:17.69	42.64	5.41	
2025-01-12 23:02:17.90	42.67	5.42	
2025-01-12 23:02:18.11	42.70	5.43	
2025-01-12 23:02:18.31	42.73	5.43	
2025-01-12 23:02:18.52	42.76	5.44	
2025-01-12 23:02:18.72	42.79	5.45	
2025-01-12 23:02:18.92	42.82	5.46	
2025-01-12 23:02:19.13	42.85	5.47	
2025-01-12 23:02:19.34	42.88	5.48	
2025-01-12 23:02:19.54	42.91	5.48	
2025-01-12 23:02:19.76	42.94	5.49	
2025-01-12 23:02:19.97	42.97	5.50	
2025-01-12 23:02:20.17	43.00	5.51	
2025-01-12 23:02:20.38	43.03	5.52	
2025-01-12 23:02:20.58	43.06	5.53	
2025-01-12 23:02:20.80	43.09	5.53	
2025-01-12 23:02:21.01	43.12	5.54	
2025-01-12 23:02:21.21	43.15	5.55	
2025-01-12 23:02:21.42	43.19	5.56	
2025-01-12 23:02:21.62	43.21	5.57	
2025-01-12 23:02:21.82	43.24	5.58	
2025-01-12 23:02:22.03	43.27	5.58	
2025-01-12 23:02:22.23	43.30	5.59	
2025-01-12 23:02:22.44	43.34	5.60	
2025-01-12 23:02:22.64	43.36	5.61	
2025-01-12 23:02:22.85	43.40	5.62	
2025-01-12 23:02:23.05	43.43	5.63	
2025-01-12 23:02:23.26	43.46	5.63	
2025-01-12 23:02:23.47	43.49	5.64	
2025-01-12 23:02:23.67	43.52	5.65	
2025-01-12 23:02:23.88	43.55	5.66	
2025-01-12 23:02:24.08	43.58	5.67	
2025-01-12 23:02:24.29	43.61	5.67	
2025-01-12 23:02:24.49	43.64	5.68	
2025-01-12 23:02:24.70	43.67	5.69	
2025-01-12 23:02:24.90	43.70	5.70	
2025-01-12 23:02:25.11	43.73	5.71	
2025-01-12 23:02:25.31	43.76	5.72	
2025-01-12 23:02:25.52	43.79	5.72	
2025-01-12 23:02:25.72	43.82	5.73	
2025-01-12 23:02:25.93	43.85	5.74	
2025-01-12 23:02:26.15	43.89	5.75	
2025-01-12 23:02:26.35	43.92	5.76	
2025-01-12 23:02:26.56	43.95	5.77	
2025-01-12 23:02:26.76	43.98	5.77	
2025-01-12 23:02:26.97	44.01	5.78	
2025-01-12 23:02:27.17	44.04	5.79	
2025-01-12 23:02:27.38	44.07	5.80	
2025-01-12 23:02:27.58	44.10	5.81	
2025-01-12 23:02:27.79	44.13	5.81	
2025-01-12 23:02:27.99	44.16	5.82	
2025-01-12 23:02:28.20	44.19	5.83	
2025-01-12 23:02:28.40	44.22	5.84	
2025-01-12 23:02:28.61	44.25	5.85	
2025-01-12 23:02:28.82	44.29	5.86	
2025-01-12 23:02:29.02	44.32	5.86	
2025-01-12 23:02:29.23	44.35	5.87	
2025-01-12 23:02:29.43	44.38	5.88	
2025-01-12 23:02:29.64	44.41	5.89	
2025-01-12 23:02:29.84	44.44	5.90	
2025-01-12 23:02:30.05	44.47	5.90	
2025-01-12 23:02:30.25	44.50	5.91	
2025-01-12 23:02:30.45	44.53	5.92	
2025-01-12 23:02:30.66	44.56	5.93	
2025-01-12 23:02:30.87	44.59	5.94	
2025-01-12 23:02:31.07	44.62	5.94	
2025-01-12 23:02:31.28	44.66	5.95	
2025-01-12 23:02:31.48	44.69	5.96	
2025-01-12 23:02:31.68	44.72	5.97	
2025-01-12 23:02:31.89	44.75	5.98	
2025-01-12 23:02:32.09	44.78	5.99	
2025-01-12 23:02:32.30	44.81	5.99	
2025-01-12 23:02:32.50	44.84	6.00	
2025-01-12 23:02:32.71	44.87	6.01	
2025-01-12 23:02:32.91	44.90	6.02	
2025-01-12 23:02:33.12	44.93	6.03	
2025-01-12 23:02:33.32	44.97	6.03	
2025-01-12 23:02:33.52	45.00	6.04	
2025-01-12 23:02:33.73	45.03	6.05	
2025-01-12 23:02:33.94	45.06	6.06	
2025-01-12 23:02:34.14	45.09	6.07	
2025-01-12 23:02:34.36	45.12	6.07	
2025-01-12 23:02:34.57	45.16	6.08	
2025-01-12 23:02:34.77	45.19	6.09	
2025-01-12 23:02:34.97	45.22	6.10	
2025-01-12 23:02:35.18	45.25	6.11	
2025-01-12 23:02:35.39	45.28	6.11	
2025-01-12 23:02:35.59	45.31	6.12	
2025-01-12 23:02:35.81	45.35	6.13	
2025-01-12 23:02:36.02	45.38	6.14	
2025-01-12 23:02:36.22	45.41	6.15	
2025-01-12 23:02:36.43	45.44	6.16	
2025-01-12 23:02:36.63	45.47	6.16	
2025-01-12 23:02:36.85	45.51	6.17	
2025-01-12 23:02:37.06	45.54	6.18	
2025-01-12 23:02:37.26	45.57	6.19	
2025-01-12 23:02:37.47	45.60	6.20	
2025-01-12 23:02:37.67	45.63	6.20	
2025-01-12 23:02:37.89	45.67	6.21	
2025-01-12 23:02:38.10	45.70	6.22	
2025-01-12 23:02:38.30	45.73	6.23	
2025-01-12 23:02:38.51	45.76	6.24	
2025-01-12 23:02:38.71	45.79	6.24	
2025-01-12 23:02:38.92	45.82	6.25	
2025-01-12 23:02:39.12	45.86	6.26	
2025-01-12 23:02:39.33	45.89	6.27	
2025-01-12 23:02:39.53	45.92	6.28	
2025-01-12 23:02:39.74	45.95	6.28	
2025-01-12 23:02:39.94	45.98	6.29	
2025-01-12 23:02:40.15	46.01	6.30	
2025-01-12 23:02:40.36	46.05	6.31	
2025-01-12 23:02:40.56	46.08	6.32	
2025-01-12 23:02:40.77	46.11	6.32	
2025-01-12 23:02:40.97	46.14	6.33	
2025-01-12 23:02:41.18	46.17	6.34	
2025-01-12 23:02:41.38	46.21	6.35	
2025-01-12 23:02:41.59	46.24	6.36	
2025-01-12 23:02:41.79	46.27	6.36	
2025-01-12 23:02:42.00	46.30	6.37	
2025-01-12 23:02:42.20	46.33	6.38	
2025-01-12 23:02:42.41	46.37	6.39	
2025-01-12 23:02:42.61	46.40	6.39	
2025-01-12 23:02:42.82	46.43	6.40	
2025-01-12 23:02:43.03	46.46	6.41	
2025-01-12 23:02:43.23	46.49	6.42	
2025-01-12 23:02:43.43	46.53	6.43	
2025-01-12 23:02:43.64	46.56	6.43	
2025-01-12 23:02:43.84	46.59	6.44	
2025-01-12 23:02:44.05	46.62	6.45	
2025-01-12 23:02:44.25	46.65	6.46	
2025-01-12 23:02:44.46	46.69	6.47	
2025-01-12 23:02:44.66	46.72	6.47	
2025-01-12 23:02:44.87	46.75	6.48	
2025-01-12 23:02:45.07	46.78	6.49	
2025-01-12 23:02:45.28	46.82	6.50	
2025-01-12 23:02:45.48	46.85	6.50	
2025-01-12 23:02:45.69	46.88	6.51	
2025-01-12 23:02:45.90	46.91	6.52	
2025-01-12 23:02:46.10	46.95	6.53	
2025-01-12 23:02:46.31	46.98	6.54	
2025-01-12 23:02:46.51	47.01	6.54	
2025-01-12 23:02:46.72	47.04	6.55	
2025-01-12 23:02:46.92	47.08	6.56	
2025-01-12 23:02:47.13	47.11	6.57	
2025-01-12 23:02:47.34	47.14	6.57	
2025-01-12 23:02:47.54	47.17	6.58	
2025-01-12 23:02:47.74	47.20	6.59	
2025-01-12 23:02:47.95	47.24	6.60	
2025-01-12 23:02:48.16	47.27	6.61	
2025-01-12 23:02:48.36	47.30	6.61	
2025-01-12 23:02:48.57	47.34	6.62	
2025-01-12 23:02:48.77	47.37	6.63	
2025-01-12 23:02:48.97	47.40	6.64	
2025-01-12 23:02:49.18	47.43	6.64	
2025-01-12 23:02:49.39	47.47	6.65	
2025-01-12 23:02:49.59	47.50	6.66	
2025-01-12 23:02:49.80	47.53	6.67	
2025-01-12 23:02:50.00	47.56	6.68	
2025-01-12 23:02:50.21	47.60	6.68	
2025-01-12 23:02:50.41	47.63	6.69	
2025-01-12 23:02:50.62	47.66	6.70	
2025-01-12 23:02:50.82	47.70	6.71	
2025-01-12 23:02:51.03	47.73	6.71	
2025-01-12 23:02:51.23	47.76	6.72	
2025-01-12 23:02:51.44	47.79	6.73	
2025-01-12 23:02:51.64	47.83	6.74	
2025-01-12 23:02:51.85	47.86	6.74	
2025-01-12 23:02:52.05	47.89	6.75	
2025-01-12 23:02:52.26	47.93	6.76	
2025-01-12 23:02:52.47	47.96	6.77	
2025-01-12 23:02:52.67	47.99	6.77	
2025-01-12 23:02:52.88	48.03	6.78	
2025-01-12 23:02:53.08	48.06	6.79	
2025-01-12 23:02:53.29	48.09	6.80	
2025-01-12 23:02:53.49	48.12	6.81	
2025-01-12 23:02:53.70	48.16	6.81	
2025-01-12 23:02:53.91	48.19	6.82	
2025-01-12 23:02:54.12	48.22	6.83	
2025-01-12 23:02:54.33	48.26	6.84	
2025-01-12 23:02:54.53	48.29	6.84	
2025-01-12 23:02:54.74	48.32	6.85	
2025-01-12 23:02:54.95	48.36	6.86	
2025-01-12 23:02:55.16	48.39	6.87	
2025-01-12 23:02:55.36	48.42	6.87	
2025-01-12 23:02:55.57	48.46	6.88	
2025-01-12 23:02:55.77	48.49	6.89	
2025-01-12 23:02:55.98	48.53	6.90	
2025-01-12 23:02:56.18	48.56	6.90	
2025-01-12 23:02:56.39	48.59	6.91	
2025-01-12 23:02:56.60	48.63	6.92	
2025-01-12 23:02:56.80	48.66	6.93	
2025-01-12 23:02:57.01	48.69	6.94	
2025-01-12 23:02:57.21	48.72	6.94	
2025-01-12 23:02:57.42	48.76	6.95	
2025-01-12 23:02:57.62	48.79	6.96	
2025-01-12 23:02:57.83	48.83	6.97	
2025-01-12 23:02:58.03	48.86	6.97	
2025-01-12 23:02:58.24	48.89	6.98	
2025-01-12 23:02:58.45	48.93	6.99	
2025-01-12 23:02:58.65	48.96	7.00	
2025-01-12 23:02:58.85	48.99	7.00	
2025-01-12 23:02:59.06	49.03	7.01	
2025-01-12 23:02:59.27	49.06	7.02	
2025-01-12 23:02:59.47	49.09	7.03	
2025-01-12 23:02:59.68	49.13	7.03	
2025-01-12 23:02:59.88	49.16	7.04	
2025-01-12 23:03:00.10	49.20	7.05	
2025-01-12 23:03:00.30	49.23	7.06	
2025-01-12 23:03:00.51	49.26	7.06	
2025-01-12 23:03:00.71	49.30	7.07	
2025-01-12 23:03:00.92	49.33	7.08	
2025-01-12 23:03:01.12	49.36	7.09	
2025-01-12 23:03:01.32	49.40	7.09	
2025-01-12 23:03:01.53	49.43	7.10	
2025-01-12 23:03:01.74	49.47	7.11	
2025-01-12 23:03:01.94	49.50	7.12	
2025-01-12 23:03:02.15	49.53	7.12	
2025-01-12 23:03:02.35	49.57	7.13	
2025-01-12 23:03:02.56	49.60	7.14	
2025-01-12 23:03:02.76	49.63	7.14	
2025-01-12 23:03:02.97	49.67	7.15	
2025-01-12 23:03:03.18	49.70	7.16	
2025-01-12 23:03:03.38	49.74	7.17	
2025-01-12 23:03:03.59	49.77	7.17	
2025-01-12 23:03:03.79	49.80	7.18	
2025-01-12 23:03:04.00	49.84	7.19	
2025-01-12 23:03:04.20	49.87	7.20	
2025-01-12 23:03:04.41	49.91	7.20	
2025-01-12 23:03:04.62	49.94	7.21	
2025-01-12 23:03:04.83	49.98	7.22	
2025-01-12 23:03:05.03	50.01	7.23	
2025-01-12 23:03:05.24	50.04	7.23	
2025-01-12 23:03:05.44	50.08	7.24	
2025-01-12 23:03:05.65	50.11	7.25	
2025-01-12 23:03:05.85	50.15	7.26	
2025-01-12 23:03:06.06	50.18	7.26	
2025-01-12 23:03:06.27	50.22	7.27	
2025-01-12 23:03:06.47	50.25	7.28	
2025-01-12 23:03:06.67	50.28	7.28	
2025-01-12 23:03:06.88	50.32	7.29	
2025-01-12 23:03:07.09	50.35	7.30	
2025-01-12 23:03:07.29	50.39	7.31	
2025-01-12 23:03:07.50	50.42	7.31	
2025-01-12 23:03:07.70	50.45	7.32	
2025-01-12 23:03:07.91	50.49	7.33	
2025-01-12 23:03:08.11	50.52	7.34	
2025-01-12 23:03:08.32	50.56	7.34	
2025-01-12 23:03:08.53	50.59	7.35	
2025-01-12 23:03:08.73	50.63	7.36	
2025-01-12 23:03:08.93	50.66	7.36	
2025-01-12 23:03:09.14	50.70	7.37	
2025-01-12 23:03:09.35	50.73	7.38	
2025-01-12 23:03:09.55	50.76	7.39	
2025-01-12 23:03:09.76	50.80	7.39	
2025-01-12 23:03:09.96	50.83	7.40	
2025-01-12 23:03:10.17	50.87	7.41	
2025-01-12 23:03:10.37	50.90	7.41	
2025-01-12 23:03:10.58	50.94	7.42	
2025-01-12 23:03:10.79	50.97	7.43	
2025-01-12 23:03:10.99	51.01	7.44	
2025-01-12 23:03:11.19	51.04	7.44	
2025-01-12 23:03:11.40	51.08	7.45	
2025-01-12 23:03:11.61	51.11	7.46	
2025-01-12 23:03:11.81	51.14	7.46	
2025-01-12 23:03:12.01	51.18	7.47	
2025-01-12 23:03:12.22	51.21	7.48	
2025-01-12 23:03:12.43	51.25	7.49	
2025-01-12 23:03:12.63	51.28	7.49	
2025-01-12 23:03:12.84	51.32	7.50	
2025-01-12 23:03:13.04	51.35	7.51	
2025-01-12 23:03:13.25	51.39	7.51	
2025-01-12 23:03:13.45	51.42	7.52	
2025-01-12 23:03:13.66	51.46	7.53	
2025-01-12 23:03:13.86	51.49	7.54	
2025-01-12 23:03:14.07	51.53	7.54	
2025-01-12 23:03:14.27	51.56	7.55	
2025-01-12 23:03:14.48	51.60	7.56	
2025-01-12 23:03:14.68	51.63	7.56	
2025-01-12 23:03:14.89	51.67	7.57	
2025-01-12 23:03:15.09	51.70	7.58	
2025-01-12 23:03:15.30	51.74	7.59	
2025-01-12 23:03:15.50	51.77	7.59	
2025-01-12 23:03:15.71	51.81	7.60	
2025-01-12 23:03:15.91	51.84	7.61	
2025-01-12 23:03:16.12	51.88	7.61	
2025-01-12 23:03:16.32	51.91	7.62	
2025-01-12 23:03:16.53	51.95	7.63	
2025-01-12 23:03:16.73	51.98	7.63	
2025-01-12 23:03:16.94	52.02	7.64	
2025-01-12 23:03:17.15	52.05	7.65	
2025-01-12 23:03:17.35	52.09	7.65	
2025-01-12 23:03:17.56	52.12	7.66	
2025-01-12 23:03:17.76	52.16	7.67	
2025-01-12 23:03:17.96	52.19	7.68	
2025-01-12 23:03:18.17	52.23	7.68	
2025-01-12 23:03:18.37	52.26	7.69	
2025-01-12 23:03:18.58	52.30	7.70	
2025-01-12 23:03:18.79	52.33	7.70	
2025-01-12 23:03:19.00	52.37	7.71	
2025-01-12 23:03:19.20	52.40	7.72	
2025-01-12 23:03:19.41	52.44	7.72	
2025-01-12 23:03:19.61	52.47	7.73	
2025-01-12 23:03:19.82	52.51	7.74	
2025-01-12 23:03:20.02	52.55	7.74	
2025-01-12 23:03:20.23	52.58	7.75	
2025-01-12 23:03:20.43	52.62	7.76	
2025-01-12 23:03:20.64	52.65	7.77	
2025-01-12 23:03:20.84	52.69	7.77	
2025-01-12 23:03:21.05	52.72	7.78	
2025-01-12 23:03:21.26	52.76	7.79	
2025-01-12 23:03:21.46	52.79	7.79	
2025-01-12 23:03:21.67	52.83	7.80	
2025-01-12 23:03:21.87	52.86	7.81	
2025-01-12 23:03:22.08	52.90	7.81	
2025-01-12 23:03:22.28	52.94	7.82	
2025-01-12 23:03:22.49	52.97	7.83	
2025-01-12 23:03:22.69	53.01	7.83	
2025-01-12 23:03:22.90	53.04	7.84	
2025-01-12 23:03:23.10	53.08	7.85	
2025-01-12 23:03:23.31	53.11	7.85	
2025-01-12 23:03:23.51	53.15	7.86	
2025-01-12 23:03:23.71	53.18	7.87	
2025-01-12 23:03:23.92	53.22	7.87	
2025-01-12 23:03:24.12	53.26	7.88	
2025-01-12 23:03:24.33	53.29	7.89	
2025-01-12 23:03:24.54	53.33	7.89	
2025-01-12 23:03:24.74	53.36	7.90	
2025-01-12 23:03:24.95	53.40	7.91	
2025-01-12 23:03:25.15	53.43	7.91	
2025-01-12 23:03:25.36	53.47	7.92	
2025-01-12 23:03:25.56	53.51	7.93	
2025-01-12 23:03:25.77	53.54	7.93	
2025-01-12 23:03:25.97	53.58	7.94	
2025-01-12 23:03:26.18	53.61	7.95	
2025-01-12 23:03:26.38	53.65	7.95	
2025-01-12 23:03:26.59	53.69	7.96	
2025-01-12 23:03:26.79	53.72	7.97	
2025-01-12 23:03:27.00	53.76	7.97	
2025-01-12 23:03:27.20	53.79	7.98	
2025-01-12 23:03:27.41	53.83	7.99	
2025-01-12 23:03:27.61	53.87	7.99	
2025-01-12 23:03:27.82	53.90	8.00	
2025-01-12 23:03:28.02	53.94	8.01	
2025-01-12 23:03:28.23	53.97	8.01	
2025-01-12 23:03:28.43	54.01	8.02	
2025-01-12 23:03:28.64	54.05	8.03	
2025-01-12 23:03:28.84	54.08	8.03	
2025-01-12 23:03:29.05	54.12	8.04	
2025-01-12 23:03:29.25	54.15	8.05	
2025-01-12 23:03:29.46	54.19	8.05	
2025-01-12 23:03:29.67	54.23	8.06	
2025-01-12 23:03:29.87	54.26	8.07	
2025-01-12 23:03:30.08	54.30	8.07	
2025-01-12 23:03:30.30	54.34	8.08	
2025-01-12 23:03:30.50	54.37	8.09	
2025-01-12 23:03:30.71	54.41	8.09	
2025-01-12 23:03:30.91	54.45	8.10	
2025-01-12 23:03:31.12	54.48	8.11	
2025-01-12 23:03:31.32	54.52	8.11	
2025-01-12 23:03:31.53	54.56	8.12	
2025-01-12 23:03:31.75	54.60	8.13	
2025-01-12 23:03:31.97	54.63	8.13	
2025-01-12 23:03:32.17	54.67	8.14	
2025-01-12 23:03:32.38	54.71	8.15	
2025-01-12 23:03:32.58	54.74	8.15	
2025-01-12 23:03:32.79	54.78	8.16	
2025-01-12 23:03:32.99	54.82	8.16	
2025-01-12 23:03:33.20	54.85	8.17	
2025-01-12 23:03:33.40	54.89	8.18	
2025-01-12 23:03:33.61	54.93	8.18	
2025-01-12 23:03:33.82	54.96	8.19	
2025-01-12 23:03:34.02	55.00	8.20	
2025-01-12 23:03:34.23	55.04	8.20	
2025-01-12 23:03:34.43	55.07	8.21	
2025-01-12 23:03:34.64	55.11	8.22	
2025-01-12 23:03:34.84	55.14	8.22	
2025-01-12 23:03:35.05	55.18	8.23	
2025-01-12 23:03:35.26	55.22	8.24	
2025-01-12 23:03:35.46	55.26	8.24	
2025-01-12 23:03:35.66	55.29	8.25	
2025-01-12 23:03:35.87	55.33	8.25	
2025-01-12 23:03:36.08	55.37	8.26	
2025-01-12 23:03:36.28	55.40	8.27	
2025-01-12 23:03:36.49	55.44	8.27	
2025-01-12 23:03:36.70	55.48	8.28	
2025-01-12 23:03:36.90	55.51	8.29	
2025-01-12 23:03:37.11	55.55	8.29	
2025-01-12 23:03:37.31	55.59	8.30	
2025-01-12 23:03:37.52	55.62	8.30	
2025-01-12 23:03:37.73	55.66	8.31	
2025-01-12 23:03:37.93	55.70	8.32	
2025-01-12 23:03:38.13	55.73	8.32	
2025-01-12 23:03:38.34	55.77	8.33	
2025-01-12 23:03:38.54	55.81	8.34	
2025-01-12 23:03:38.75	55.85	8.34	
2025-01-12 23:03:38.95	55.88	8.35	
2025-01-12 23:03:39.16	55.92	8.35	
2025-01-12 23:03:39.36	55.96	8.36	
2025-01-12 23:03:39.57	55.99	8.37	
2025-01-12 23:03:39.77	56.03	8.37	
2025-01-12 23:03:39.98	56.07	8.38	
2025-01-12 23:03:40.18	56.10	8.39	
2025-01-12 23:03:40.39	56.14	8.39	
2025-01-12 23:03:40.59	56.18	8.40	
2025-01-12 23:03:40.80	56.22	8.40	
2025-01-12 23:03:41.00	56.25	8.41	
2025-01-12 23:03:41.21	56.29	8.42	
2025-01-12 23:03:41.41	56.33	8.42	
2025-01-12 23:03:41.62	56.36	8.43	
2025-01-12 23:03:41.83	56.40	8.43	
2025-01-12 23:03:42.03	56.44	8.44	
2025-01-12 23:03:42.24	56.48	8.45	
2025-01-12 23:03:42.44	56.51	8.45	
2025-01-12 23:03:42.65	56.55	8.46	
2025-01-12 23:03:42.85	56.59	8.46	
2025-01-12 23:03:43.06	56.62	8.47	
2025-01-12 23:03:43.26	56.66	8.48	
2025-01-12 23:03:43.47	56.70	8.48	
2025-01-12 23:03:43.67	56.74	8.49	
2025-01-12 23:03:43.88	56.77	8.49	
2025-01-12 23:03:44.08	56.81	8.50	
2025-01-12 23:03:44.29	56.85	8.51	
2025-01-12 23:03:44.49	56.88	8.51	
2025-01-12 23:03:44.70	56.92	8.52	
2025-01-12 23:03:44.90	56.96	8.52	
2025-01-12 23:03:45.11	57.00	8.53	
2025-01-12 23:03:45.31	57.03	8.54	
2025-01-12 23:03:45.52	57.07	8.54	
2025-01-12 23:03:45.73	57.11	8.55	
2025-01-12 23:03:45.93	57.15	8.55	
2025-01-12 23:03:46.14	57.19	8.56	
2025-01-12 23:03:46.34	57.22	8.57	
2025-01-12 23:03:46.55	57.26	8.57	
2025-01-12 23:03:46.75	57.30	8.58	
2025-01-12 23:03:46.96	57.34	8.58	
2025-01-12 23:03:47.16	57.37	8.59	
2025-01-12 23:03:47.36	57.41	8.60	
2025-01-12 23:03:47.57	57.45	8.60	
2025-01-12 23:03:47.77	57.48	8.61	
2025-01-12 23:03:47.98	57.52	8.61	
2025-01-12 23:03:48.19	57.56	8.62	
2025-01-12 23:03:48.39	57.60	8.62	
2025-01-12 23:03:48.60	57.64	8.63	
2025-01-12 23:03:48.80	57.67	8.64	
2025-01-12 23:03:49.00	57.71	8.64	
2025-01-12 23:03:49.21	57.75	8.65	
2025-01-12 23:03:49.41	57.79	8.65	
2025-01-12 23:03:49.62	57.82	8.66	
2025-01-12 23:03:49.82	57.86	8.66	
2025-01-12 23:03:50.03	57.90	8.67	
2025-01-12 23:03:50.24	57.94	8.68	
2025-01-12 23:03:50.44	57.98	8.68	
2025-01-12 23:03:50.65	58.01	8.69	
2025-01-12 23:03:50.85	58.05	8.69	
2025-01-12 23:03:51.06	58.09	8.70	
2025-01-12 23:03:51.26	58.13	8.70	
2025-01-12 23:03:51.47	58.17	8.71	
2025-01-12 23:03:51.67	58.20	8.72	
2025-01-12 23:03:51.88	58.24	8.72	
2025-01-12 23:03:52.08	58.28	8.73	
2025-01-12 23:03:52.29	58.32	8.73	
2025-01-12 23:03:52.50	58.36	8.74	
2025-01-12 23:03:52.70	58.39	8.74	
2025-01-12 23:03:52.91	58.43	8.75	
2025-01-12 23:03:53.11	58.47	8.76	
2025-01-12 23:03:53.32	58.51	8.76	
2025-01-12 23:03:53.52	58.55	8.77	
2025-01-12 23:03:53.74	58.59	8.77	
2025-01-12 23:03:53.94	58.62	8.78	
2025-01-12 23:03:54.15	58.66	8.78	
2025-01-12 23:03:54.35	58.70	8.79	
2025-01-12 23:03:54.56	58.74	8.80	
2025-01-12 23:03:54.76	58.78	8.80	
2025-01-12 23:03:54.97	58.82	8.81	
2025-01-12 23:03:55.17	58.85	8.81	
2025-01-12 23:03:55.38	58.89	8.82	
2025-01-12 23:03:55.58	58.93	8.82	
2025-01-12 23:03:55.79	58.97	8.83	
2025-01-12 23:03:55.99	59.01	8.83	
2025-01-12 23:03:56.19	59.04	8.84	
2025-01-12 23:03:56.40	59.08	8.84	
2025-01-12 23:03:56.61	59.12	8.85	
2025-01-12 23:03:56.81	59.16	8.86	
2025-01-12 23:03:57.01	59.20	8.86	
2025-01-12 23:03:57.22	59.24	8.87	
2025-01-12 23:03:57.43	59.27	8.87	
2025-01-12 23:03:57.63	59.31	8.88	
2025-01-12 23:03:57.84	59.35	8.88	
2025-01-12 23:03:58.04	59.39	8.89	
2025-01-12 23:03:58.25	59.43	8.89	
2025-01-12 23:03:58.45	59.47	8.90	
2025-01-12 23:03:58.66	59.51	8.90	
2025-01-12 23:03:58.86	59.54	8.91	
2025-01-12 23:03:59.07	59.58	8.91	
2025-01-12 23:03:59.27	59.62	8.92	
2025-01-12 23:03:59.48	59.66	8.93	
2025-01-12 23:03:59.68	59.70	8.93	
2025-01-12 23:03:59.89	59.74	8.94	
2025-01-12 23:04:00.09	59.77	8.94	
2025-01-12 23:04:00.30	59.81	8.95	
2025-01-12 23:04:00.50	59.85	8.95	
2025-01-12 23:04:00.71	59.89	8.96	
2025-01-12 23:04:00.92	59.93	8.96	
2025-01-12 23:04:01.12	59.97	8.97	
2025-01-12 23:04:01.33	60.01	8.97	
2025-01-12 23:04:01.53	60.04	8.98	
2025-01-12 23:04:01.74	60.08	8.98	
2025-01-12 23:04:01.94	60.12	8.99	
2025-01-12 23:04:02.15	60.16	8.99	
2025-01-12 23:04:02.35	60.20	9.00	
2025-01-12 23:04:02.55	60.24	9.00	
2025-01-12 23:04:02.76	60.28	9.01	
2025-01-12 23:04:02.97	60.32	9.01	
2025-01-12 23:04:03.17	60.35	9.02	
2025-01-12 23:04:03.38	60.39	9.02	
2025-01-12 23:04:03.58	60.43	9.03	
2025-01-12 23:04:03.79	60.47	9.04	
2025-01-12 23:04:03.99	60.51	9.04	
2025-01-12 23:04:04.20	60.55	9.05	
2025-01-12 23:04:04.40	60.59	9.05	
2025-01-12 23:04:04.61	60.63	9.06	
2025-01-12 23:04:04.82	60.67	9.06	
2025-01-12 23:04:05.02	60.70	9.07	
2025-01-12 23:04:05.23	60.74	9.07	
2025-01-12 23:04:05.45	60.79	9.08	
2025-01-12 23:04:05.65	60.82	9.08	
2025-01-12 23:04:05.86	60.86	9.09	
2025-01-12 23:04:06.07	60.90	9.09	
2025-01-12 23:04:06.27	60.94	9.10	
2025-01-12 23:04:06.47	60.98	9.10	
2025-01-12 23:04:06.68	61.02	9.11	
2025-01-12 23:04:06.88	61.06	9.11	
2025-01-12 23:04:07.09	61.10	9.12	
2025-01-12 23:04:07.29	61.14	9.12	
2025-01-12 23:04:07.50	61.18	9.13	
2025-01-12 23:04:07.70	61.21	9.13	
2025-01-12 23:04:07.91	61.25	9.14	
2025-01-12 23:04:08.12	61.29	9.14	
2025-01-12 23:04:08.32	61.33	9.15	
2025-01-12 23:04:08.53	61.37	9.15	
2025-01-12 23:04:08.73	61.41	9.16	
2025-01-12 23:04:08.93	61.45	9.16	
2025-01-12 23:04:09.14	61.49	9.17	
2025-01-12 23:04:09.34	61.53	9.17	
2025-01-12 23:04:09.55	61.57	9.18	
2025-01-12 23:04:09.75	61.61	9.18	
2025-01-12 23:04:09.96	61.65	9.18	
2025-01-12 23:04:10.16	61.68	9.19	
2025-01-12 23:04:10.37	61.72	9.19	
2025-01-12 23:04:10.58	61.76	9.20	
2025-01-12 23:04:10.78	61.80	9.20	
2025-01-12 23:04:10.98	61.84	9.21	
2025-01-12 23:04:11.19	61.88	9.21	
2025-01-12 23:04:11.39	61.92	9.22	
2025-01-12 23:04:11.60	61.96	9.22	
2025-01-12 23:04:11.82	62.00	9.23	
2025-01-12 23:04:12.02	62.04	9.23	
2025-01-12 23:04:12.23	62.08	9.24	
2025-01-12 23:04:12.43	62.12	9.24	
2025-01-12 23:04:12.64	62.16	9.25	
2025-01-12 23:04:12.84	62.20	9.25	
2025-01-12 23:04:13.05	62.24	9.26	
2025-01-12 23:04:13.26	62.28	9.26	
2025-01-12 23:04:13.46	62.32	9.27	
2025-01-12 23:04:13.67	62.36	9.27	
2025-01-12 23:04:13.87	62.40	9.27	
2025-01-12 23:04:14.08	62.44	9.28	
2025-01-12 23:04:14.28	62.48	9.28	
2025-01-12 23:04:14.49	62.52	9.29	
2025-01-12 23:04:14.69	62.56	9.29	
2025-01-12 23:04:14.90	62.60	9.30	
2025-01-12 23:04:15.12	62.64	9.30	
2025-01-12 23:04:15.32	62.68	9.31	
2025-01-12 23:04:15.53	62.72	9.31	
2025-01-12 23:04:15.73	62.76	9.32	
2025-01-12 23:04:15.94	62.80	9.32	
2025-01-12 23:04:16.14	62.84	9.33	
2025-01-12 23:04:16.35	62.88	9.33	
2025-01-12 23:04:16.55	62.91	9.33	
2025-01-12 23:04:16.76	62.96	9.34	
2025-01-12 23:04:16.96	62.99	9.34	
2025-01-12 23:04:17.17	63.03	9.35	
2025-01-12 23:04:17.37	63.07	9.35	
2025-01-12 23:04:17.58	63.11	9.36	
2025-01-12 23:04:17.79	63.15	9.36	
2025-01-12 23:04:17.99	63.19	9.37	
2025-01-12 23:04:18.20	63.23	9.37	
2025-01-12 23:04:18.40	63.27	9.37	
2025-01-12 23:04:18.61	63.31	9.38	
2025-01-12 23:04:18.81	63.35	9.38	
2025-01-12 23:04:19.02	63.39	9.39	
2025-01-12 23:04:19.22	63.43	9.39	
2025-01-12 23:04:19.43	63.47	9.40	
2025-01-12 23:04:19.63	63.51	9.40	
2025-01-12 23:04:19.84	63.55	9.41	
2025-01-12 23:04:20.04	63.59	9.41	
2025-01-12 23:04:20.25	63.63	9.41	
2025-01-12 23:04:20.47	63.68	9.42	
2025-01-12 23:04:20.67	63.71	9.42	
2025-01-12 23:04:20.88	63.76	9.43	
2025-01-12 23:04:21.08	63.79	9.43	
2025-01-12 23:04:21.29	63.84	9.44	
2025-01-12 23:04:21.49	63.87	9.44	
2025-01-12 23:04:21.70	63.92	9.44	
2025-01-12 23:04:21.90	63.95	9.45	
2025-01-12 23:04:22.11	64.00	9.45	
2025-01-12 23:04:22.31	64.03	9.46	
2025-01-12 23:04:22.53	64.08	9.46	
2025-01-12 23:04:22.74	64.12	9.47	
2025-01-12 23:04:22.94	64.16	9.47	
2025-01-12 23:04:23.15	64.20	9.47	
2025-01-12 23:04:23.35	64.24	9.48	
2025-01-12 23:04:23.57	64.28	9.48	
2025-01-12 23:04:23.77	64.32	9.49	
2025-01-12 23:04:23.98	64.36	9.49	
2025-01-12 23:04:24.18	64.40	9.49	
2025-01-12 23:04:24.39	64.44	9.50	
2025-01-12 23:04:24.59	64.48	9.50	
2025-01-12 23:04:24.80	64.52	9.51	
2025-01-12 23:04:25.01	64.56	9.51	
2025-01-12 23:04:25.21	64.60	9.51	
2025-01-12 23:04:25.42	64.64	9.52	
2025-01-12 23:04:25.62	64.68	9.52	
2025-01-12 23:04:25.83	64.72	9.53	
2025-01-12 23:04:26.03	64.76	9.53	
2025-01-12 23:04:26.24	64.80	9.54	
2025-01-12 23:04:26.44	64.84	9.54	
2025-01-12 23:04:26.65	64.88	9.54	
2025-01-12 23:04:26.85	64.92	9.55	
2025-01-12 23:04:27.06	64.96	9.55	
2025-01-12 23:04:27.26	65.00	9.55	
2025-01-12 23:04:27.47	65.05	9.56	
2025-01-12 23:04:27.68	65.09	9.56	
2025-01-12 23:04:27.88	65.13	9.57	
2025-01-12 23:04:28.08	65.17	9.57	
2025-01-12 23:04:28.29	65.21	9.57	
2025-01-12 23:04:28.49	65.25	9.58	
2025-01-12 23:04:28.70	65.29	9.58	
2025-01-12 23:04:28.90	65.33	9.59	
2025-01-12 23:04:29.11	65.37	9.59	
2025-01-12 23:04:29.31	65.41	9.59	
2025-01-12 23:04:29.52	65.45	9.60	
2025-01-12 23:04:29.72	65.49	9.60	
2025-01-12 23:04:29.93	65.53	9.61	
2025-01-12 23:04:30.13	65.57	9.61	
2025-01-12 23:04:30.34	65.61	9.61	
2025-01-12 23:04:30.54	65.65	9.62	
2025-01-12 23:04:30.75	65.69	9.62	
2025-01-12 23:04:30.95	65.73	9.62	
2025-01-12 23:04:31.16	65.77	9.63	
2025-01-12 23:04:31.36	65.81	9.63	
2025-01-12 23:04:31.56	65.85	9.63	
2025-01-12 23:04:31.77	65.89	9.64	
2025-01-12 23:04:31.97	65.93	9.64	
2025-01-12 23:04:32.18	65.97	9.65	
2025-01-12 23:04:32.38	66.01	9.65	
2025-01-12 23:04:32.59	66.06	9.65	
2025-01-12 23:04:32.79	66.10	9.66	
2025-01-12 23:04:33.00	66.14	9.66	
2025-01-12 23:04:33.21	66.18	9.66	
2025-01-12 23:04:33.41	66.22	9.67	
2025-01-12 23:04:33.62	66.26	9.67	
2025-01-12 23:04:33.82	66.30	9.67	
2025-01-12 23:04:34.03	66.34	9.68	
2025-01-12 23:04:34.23	66.38	9.68	
2025-01-12 23:04:34.44	66.42	9.69	
2025-01-12 23:04:34.64	66.46	9.69	
2025-01-12 23:04:34.85	66.50	9.69	
2025-01-12 23:04:35.06	66.55	9.70	
2025-01-12 23:04:35.26	66.59	9.70	
2025-01-12 23:04:35.46	66.63	9.70	
2025-01-12 23:04:35.67	66.67	9.71	
2025-01-12 23:04:35.88	66.71	9.71	
2025-01-12 23:04:36.08	66.75	9.71	
2025-01-12 23:04:36.29	66.79	9.72	
2025-01-12 23:04:36.49	66.83	9.72	
2025-01-12 23:04:36.70	66.87	9.72	
2025-01-12 23:04:36.90	66.91	9.73	
2025-01-12 23:04:37.11	66.95	9.73	
2025-01-12 23:04:37.31	66.99	9.73	
2025-01-12 23:04:37.53	67.04	9.74	
2025-01-12 23:04:37.74	67.08	9.74	
2025-01-12 23:04:37.94	67.12	9.74	
2025-01-12 23:04:38.15	67.16	9.75	
2025-01-12 23:04:38.35	67.20	9.75	
2025-01-12 23:04:38.56	67.24	9.75	
2025-01-12 23:04:38.76	67.28	9.76	
2025-01-12 23:04:38.97	67.32	9.76	
2025-01-12 23:04:39.17	67.36	9.76	
2025-01-12 23:04:39.38	67.41	9.77	
2025-01-12 23:04:39.58	67.45	9.77	
2025-01-12 23:04:39.79	67.49	9.77	
2025-01-12 23:04:39.99	67.53	9.78	
2025-01-12 23:04:40.20	67.57	9.78	
2025-01-12 23:04:40.41	67.61	9.78	
2025-01-12 23:04:40.61	67.65	9.79	
2025-01-12 23:04:40.82	67.69	9.79	
2025-01-12 23:04:41.02	67.73	9.79	
2025-01-12 23:04:41.23	67.78	9.80	
2025-01-12 23:04:41.43	67.82	9.80	
2025-01-12 23:04:41.63	67.86	9.80	
2025-01-12 23:04:41.84	67.90	9.81	
2025-01-12 23:04:42.04	67.94	9.81	
2025-01-12 23:04:42.25	67.98	9.81	
2025-01-12 23:04:42.45	68.02	9.82	
2025-01-12 23:04:42.66	68.06	9.82	
2025-01-12 23:04:42.86	68.10	9.82	
2025-01-12 23:04:43.07	68.15	9.82	
2025-01-12 23:04:43.27	68.19	9.83	
2025-01-12 23:04:43.48	68.23	9.83	
2025-01-12 23:04:43.68	68.27	9.83	
2025-01-12 23:04:43.89	68.31	9.84	
2025-01-12 23:04:44.09	68.35	9.84	
2025-01-12 23:04:44.30	68.39	9.84	
2025-01-12 23:04:44.50	68.43	9.85	
2025-01-12 23:04:44.71	68.47	9.85	
2025-01-12 23:04:44.91	68.51	9.85	
2025-01-12 23:04:45.11	68.56	9.85	
2025-01-12 23:04:45.32	68.60	9.86	
2025-01-12 23:04:45.53	68.64	9.86	
2025-01-12 23:04:45.73	68.68	9.86	
2025-01-12 23:04:45.93	68.72	9.87	
2025-01-12 23:04:46.14	68.76	9.87	
2025-01-12 23:04:46.34	68.80	9.87	
2025-01-12 23:04:46.55	68.84	9.87	
2025-01-12 23:04:46.75	68.89	9.88	
2025-01-12 23:04:46.96	68.93	9.88	
2025-01-12 23:04:47.16	68.97	9.88	
2025-01-12 23:04:47.37	69.01	9.89	
2025-01-12 23:04:47.57	69.05	9.89	
2025-01-12 23:04:47.78	69.09	9.89	
2025-01-12 23:04:47.98	69.13	9.89	
2025-01-12 23:04:48.20	69.18	9.90	
2025-01-12 23:04:48.41	69.22	9.90	
2025-01-12 23:04:48.61	69.26	9.90	
2025-01-12 23:04:48.82	69.30	9.91	
2025-01-12 23:04:49.02	69.34	9.91	
2025-01-12 23:04:49.24	69.39	9.91	
2025-01-12 23:04:49.44	69.43	9.91	
2025-01-12 23:04:49.65	69.47	9.92	
2025-01-12 23:04:49.85	69.51	9.92	
2025-01-12 23:04:50.06	69.55	9.92	
2025-01-12 23:04:50.26	69.59	9.92	
2025-01-12 23:04:50.47	69.64	9.93	
2025-01-12 23:04:50.67	69.68	9.93	
2025-01-12 23:04:50.88	69.72	9.93	
2025-01-12 23:04:51.08	69.76	9.93	
2025-01-12 23:04:51.28	69.80	9.94	
2025-01-12 23:04:51.49	69.84	9.94	
2025-01-12 23:04:51.69	69.88	9.94	
2025-01-12 23:04:51.90	69.92	9.94	
2025-01-12 23:04:52.11	69.97	9.95	
2025-01-12 23:04:52.31	70.01	9.95	
2025-01-12 23:04:52.52	70.05	9.95	
2025-01-12 23:04:52.72	70.09	9.95	
2025-01-12 23:04:52.93	70.13	9.96	
2025-01-12 23:04:53.13	70.17	9.96	
2025-01-12 23:04:53.34	70.22	9.96	
2025-01-12 23:04:53.54	70.26	9.96	
2025-01-12 23:04:53.75	70.30	9.97	
2025-01-12 23:04:53.95	70.34	9.97	
2025-01-12 23:04:54.16	70.38	9.97	
2025-01-12 23:04:54.37	70.43	9.97	
2025-01-12 23:04:54.58	70.47	9.98	
2025-01-12 23:04:54.79	70.51	9.98	
2025-01-12 23:04:54.99	70.55	9.98	
2025-01-12 23:04:55.20	70.59	9.98	
2025-01-12 23:04:55.40	70.63	9.99	
2025-01-12 23:04:55.61	70.68	9.99	
2025-01-12 23:04:55.81	70.72	9.99	
2025-01-12 23:04:56.02	70.76	9.99	
2025-01-12 23:04:56.22	70.80	10.00	
2025-01-12 23:04:56.43	70.84	10.00	
2025-01-12 23:04:56.63	70.88	10.00	
2025-01-12 23:04:56.84	70.93	10.00	
2025-01-12 23:04:57.04	70.97	10.00	
2025-01-12 23:04:57.25	71.01	10.01	
2025-01-12 23:04:57.45	71.05	10.01	
2025-01-12 23:04:57.66	71.09	10.01	
2025-01-12 23:04:57.86	71.13	10.01	
2025-01-12 23:04:58.07	71.18	10.02	
2025-01-12 23:04:58.27	71.22	10.02	
2025-01-12 23:04:58.48	71.26	10.02	
2025-01-12 23:04:58.68	71.30	10.02	
2025-01-12 23:04:58.89	71.34	10.02	
2025-01-12 23:04:59.09	71.38	10.03	
2025-01-12 23:04:59.30	71.43	10.03	
2025-01-12 23:04:59.51	71.47	10.03	
2025-01-12 23:04:59.71	71.51	10.03	
2025-01-12 23:04:59.92	71.55	10.03	
2025-01-12 23:05:00.12	71.59	10.04	
2025-01-12 23:05:00.33	71.64	10.04	
2025-01-12 23:05:00.53	71.68	10.04	
2025-01-12 23:05:00.74	71.72	10.04	
2025-01-12 23:05:00.94	71.76	10.04	
2025-01-12 23:05:01.14	71.80	10.05	
2025-01-12 23:05:01.35	71.84	10.05	
2025-01-12 23:05:01.55	71.89	10.05	
2025-01-12 23:05:01.76	71.93	10.05	
2025-01-12 23:05:01.96	71.97	10.05	
2025-01-12 23:05:02.17	72.01	10.06	
2025-01-12 23:05:02.37	72.05	10.06	
2025-01-12 23:05:02.58	72.10	10.06	
2025-01-12 23:05:02.78	72.14	10.06	
2025-01-12 23:05:02.99	72.18	10.06	
2025-01-12 23:05:03.19	72.22	10.07	
2025-01-12 23:05:03.40	72.26	10.07	
2025-01-12 23:05:03.60	72.30	10.07	
2025-01-12 23:05:03.81	72.35	10.07	
2025-01-12 23:05:04.02	72.39	10.07	
2025-01-12 23:05:04.22	72.43	10.07	
2025-01-12 23:05:04.43	72.47	10.08	
2025-01-12 23:05:04.63	72.51	10.08	
2025-01-12 23:05:04.84	72.56	10.08	
2025-01-12 23:05:05.04	72.60	10.08	
2025-01-12 23:05:05.25	72.64	10.08	
2025-01-12 23:05:05.45	72.68	10.08	
2025-01-12 23:05:05.66	72.72	10.09	
2025-01-12 23:05:05.86	72.77	10.09	
2025-01-12 23:05:06.07	72.81	10.09	
2025-01-12 23:05:06.29	72.85	10.09	
2025-01-12 23:05:06.49	72.89	10.09	
2025-01-12 23:05:06.70	72.94	10.10	
2025-01-12 23:05:06.91	72.98	10.10	
2025-01-12 23:05:07.11	73.02	10.10	
2025-01-12 23:05:07.31	73.06	10.10	
2025-01-12 23:05:07.52	73.11	10.10	
2025-01-12 23:05:07.73	73.15	10.10	
2025-01-12 23:05:07.93	73.19	10.10	
2025-01-12 23:05:08.14	73.23	10.11	
2025-01-12 23:05:08.34	73.27	10.11	
2025-01-12 23:05:08.55	73.32	10.11	
2025-01-12 23:05:08.75	73.36	10.11	
2025-01-12 23:05:08.96	73.40	10.11	
2025-01-12 23:05:09.17	73.44	10.11	
2025-01-12 23:05:09.37	73.48	10.12	
2025-01-12 23:05:09.57	73.53	10.12	
2025-01-12 23:05:09.78	73.57	10.12	
2025-01-12 23:05:09.99	73.61	10.12	
2025-01-12 23:05:10.19	73.65	10.12	
2025-01-12 23:05:10.39	73.69	10.12	
2025-01-12 23:05:10.61	73.74	10.12	
2025-01-12 23:05:10.82	73.78	10.13	
2025-01-12 23:05:11.02	73.82	10.13	
2025-01-12 23:05:11.23	73.87	10.13	
2025-01-12 23:05:11.43	73.91	10.13	
2025-01-12 23:05:11.64	73.95	10.13	
2025-01-12 23:05:11.84	73.99	10.13	
2025-01-12 23:05:12.05	74.03	10.13	
2025-01-12 23:05:12.25	74.08	10.13	
2025-01-12 23:05:12.46	74.12	10.14	
2025-01-12 23:05:12.68	74.16	10.14	
2025-01-12 23:05:12.88	74.20	10.14	
2025-01-12 23:05:13.09	74.25	10.14	
2025-01-12 23:05:13.29	74.29	10.14	
2025-01-12 23:05:13.49	74.33	10.14	
2025-01-12 23:05:13.71	74.38	10.14	
2025-01-12 23:05:13.92	74.42	10.14	
2025-01-12 23:05:14.12	74.46	10.15	
2025-01-12 23:05:14.33	74.50	10.15	
2025-01-12 23:05:14.54	74.55	10.15	
2025-01-12 23:05:14.74	74.59	10.15	
2025-01-12 23:05:14.94	74.63	10.15	
2025-01-12 23:05:15.15	74.67	10.15	
2025-01-12 23:05:15.36	74.71	10.15	
2025-01-12 23:05:15.56	74.76	10.15	
2025-01-12 23:05:15.77	74.80	10.15	
2025-01-12 23:05:15.97	74.84	10.16	
2025-01-12 23:05:16.18	74.88	10.16	
2025-01-12 23:05:16.38	74.92	10.16	
2025-01-12 23:05:16.59	74.97	10.16	
2025-01-12 23:05:16.79	75.01	10.16	
2025-01-12 23:05:17.01	75.05	10.16	
2025-01-12 23:05:17.22	75.10	10.16	
2025-01-12 23:05:17.42	75.14	10.16	
2025-01-12 23:05:17.63	75.18	10.16	
2025-01-12 23:05:17.84	75.22	10.16	
2025-01-12 23:05:18.04	75.27	10.17	
2025-01-12 23:05:18.24	75.31	10.17	
2025-01-12 23:05:18.45	75.35	10.17	
2025-01-12 23:05:18.66	75.39	10.17	
2025-01-12 23:05:18.86	75.43	10.17	
2025-01-12 23:05:19.08	75.48	10.17	
2025-01-12 23:05:19.28	75.52	10.17	
2025-01-12 23:05:19.49	75.56	10.17	
2025-01-12 23:05:19.70	75.61	10.17	
2025-01-12 23:05:19.90	75.65	10.17	
2025-01-12 23:05:20.11	75.69	10.17	
2025-01-12 23:05:20.31	75.73	10.17	
2025-01-12 23:05:20.52	75.78	10.18	
2025-01-12 23:05:20.72	75.82	10.18	
2025-01-12 23:05:20.93	75.86	10.18	
2025-01-12 23:05:21.13	75.90	10.18	
2025-01-12 23:05:21.34	75.94	10.18	
2025-01-12 23:05:21.54	75.99	10.18	
2025-01-12 23:05:21.75	76.03	10.18	
2025-01-12 23:05:21.96	76.07	10.18	
2025-01-12 23:05:22.16	76.11	10.18	
2025-01-12 23:05:22.37	76.16	10.18	
2025-01-12 23:05:22.57	76.20	10.18	
2025-01-12 23:05:22.78	76.24	10.18	
2025-01-12 23:05:22.98	76.28	10.18	
2025-01-12 23:05:23.19	76.33	10.18	
2025-01-12 23:05:23.41	76.37	10.19	
2025-01-12 23:05:23.61	76.41	10.19	
2025-01-12 23:05:23.82	76.46	10.19	
2025-01-12 23:05:24.03	76.50	10.19	
2025-01-12 23:05:24.23	76.54	10.19	
2025-01-12 23:05:24.44	76.58	10.19	
2025-01-12 23:05:24.64	76.62	10.19	
2025-01-12 23:05:24.85	76.67	10.19	
2025-01-12 23:05:25.05	76.71	10.19	
2025-01-12 23:05:25.26	76.75	10.19	
2025-01-12 23:05:25.46	76.79	10.19	
2025-01-12 23:05:25.67	76.84	10.19	
2025-01-12 23:05:25.87	76.88	10.19	
2025-01-12 23:05:26.08	76.92	10.19	
2025-01-12 23:05:26.28	76.96	10.19	
2025-01-12 23:05:26.49	77.01	10.19	
2025-01-12 23:05:26.69	77.05	10.19	
2025-01-12 23:05:26.90	77.09	10.19	
2025-01-12 23:05:27.10	77.13	10.19	
2025-01-12 23:05:27.31	77.17	10.19	
2025-01-12 23:05:27.51	77.22	10.19	
2025-01-12 23:05:27.71	77.26	10.19	
2025-01-12 23:05:27.92	77.30	10.19	
2025-01-12 23:05:28.13	77.34	10.20	
2025-01-12 23:05:28.33	77.39	10.20	
2025-01-12 23:05:28.54	77.43	10.20	
2025-01-12 23:05:28.75	77.47	10.20	
2025-01-12 23:05:28.95	77.51	10.20	
2025-01-12 23:05:29.16	77.56	10.20	
2025-01-12 23:05:29.36	77.60	10.20	
2025-01-12 23:05:29.57	77.64	10.20	
2025-01-12 23:05:29.77	77.68	10.20	
2025-01-12 23:05:29.97	77.72	10.20	
2025-01-12 23:05:30.18	77.77	10.20	
2025-01-12 23:05:30.38	77.81	10.20	
2025-01-12 23:05:30.59	77.85	10.20	
2025-01-12 23:05:30.81	77.90	10.20	
2025-01-12 23:05:31.01	77.94	10.20	
2025-01-12 23:05:31.22	77.98	10.20	
2025-01-12 23:05:31.42	78.02	10.20	
2025-01-12 23:05:31.63	78.07	10.20	
2025-01-12 23:05:31.83	78.11	10.20	
2025-01-12 23:05:32.04	78.15	10.20	
2025-01-12 23:05:32.24	78.19	10.20	
2025-01-12 23:05:32.45	78.24	10.20	
2025-01-12 23:05:32.65	78.28	10.20	
2025-01-12 23:05:32.86	78.32	10.20	
2025-01-12 23:05:33.06	78.36	10.20	
2025-01-12 23:05:33.27	78.40	10.20	
2025-01-12 23:05:33.47	78.45	10.20	
2025-01-12 23:05:33.68	78.49	10.20	
2025-01-12 23:05:33.89	78.53	10.20	
2025-01-12 23:05:34.09	78.57	10.20	
2025-01-12 23:05:34.30	78.62	10.20	
2025-01-12 23:05:34.50	78.66	10.20	
2025-01-12 23:05:34.71	78.70	10.20	
2025-01-12 23:05:34.91	78.74	10.20	
2025-01-12 23:05:35.12	78.79	10.20	
2025-01-12 23:05:35.32	78.83	10.20	
2025-01-12 23:05:35.53	78.87	10.20	
2025-01-12 23:05:35.73	78.91	10.20	
2025-01-12 23:05:35.94	78.96	10.20	
2025-01-12 23:05:36.14	79.00	10.20	
2025-01-12 23:05:36.35	79.04	10.20	
2025-01-12 23:05:36.55	79.08	10.20	
2025-01-12 23:05:36.76	79.12	10.20	
2025-01-12 23:05:36.96	79.17	10.19	
2025-01-12 23:05:37.18	79.21	10.19	
2025-01-12 23:05:37.39	79.25	10.19	
2025-01-12 23:05:37.59	79.30	10.19	
2025-01-12 23:05:37.79	79.34	10.19	
2025-01-12 23:05:38.00	79.38	10.19	
2025-01-12 23:05:38.20	79.42	10.19	
2025-01-12 23:05:38.41	79.46	10.19	
2025-01-12 23:05:38.61	79.51	10.19	
2025-01-12 23:05:38.82	79.55	10.19	
2025-01-12 23:05:39.03	79.59	10.19	
2025-01-12 23:05:39.23	79.63	10.19	
2025-01-12 23:05:39.44	79.68	10.19	
2025-01-12 23:05:39.64	79.72	10.19	
2025-01-12 23:05:39.85	79.76	10.19	
2025-01-12 23:05:40.05	79.80	10.19	
2025-01-12 23:05:40.26	79.85	10.19	
2025-01-12 23:05:40.46	79.89	10.19	
2025-01-12 23:05:40.67	79.93	10.19	
2025-01-12 23:05:40.87	79.97	10.19	
2025-01-12 23:05:41.08	80.02	10.19	
2025-01-12 23:05:41.28	80.06	10.19	
2025-01-12 23:05:41.48	80.10	10.19	
2025-01-12 23:05:41.69	80.14	10.18	
2025-01-12 23:05:41.90	80.18	10.18	
2025-01-12 23:05:42.10	80.23	10.18	
2025-01-12 23:05:42.30	80.27	10.18	
2025-01-12 23:05:42.51	80.31	10.18	
2025-01-12 23:05:42.71	80.35	10.18	
2025-01-12 23:05:42.92	80.39	10.18	
2025-01-12 23:05:43.13	80.44	10.18	
2025-01-12 23:05:43.33	80.48	10.18	
2025-01-12 23:05:43.54	80.52	10.18	
2025-01-12 23:05:43.74	80.56	10.18	
2025-01-12 23:05:43.95	80.61	10.18	
2025-01-12 23:05:44.15	80.65	10.18	
2025-01-12 23:05:44.36	80.69	10.18	
2025-01-12 23:05:44.56	80.73	10.18	
2025-01-12 23:05:44.76	80.77	10.17	
2025-01-12 23:05:44.96	80.81	10.17	
2025-01-12 23:05:45.18	80.86	10.17	
2025-01-12 23:05:45.38	80.90	10.17	
2025-01-12 23:05:45.59	80.94	10.17	
2025-01-12 23:05:45.81	80.99	10.17	
2025-01-12 23:05:46.01	81.03	10.17	
2025-01-12 23:05:46.22	81.07	10.17	
2025-01-12 23:05:46.42	81.12	10.17	
2025-01-12 23:05:46.63	81.16	10.17	
2025-01-12 23:05:46.83	81.20	10.17	
2025-01-12 23:05:47.04	81.24	10.17	
2025-01-12 23:05:47.24	81.28	10.16	
2025-01-12 23:05:47.45	81.33	10.16	
2025-01-12 23:05:47.65	81.37	10.16	
2025-01-12 23:05:47.86	81.41	10.16	
2025-01-12 23:05:48.06	81.45	10.16	
2025-01-12 23:05:48.27	81.50	10.16	
2025-01-12 23:05:48.47	81.54	10.16	
2025-01-12 23:05:48.68	81.58	10.16	
2025-01-12 23:05:48.88	81.62	10.16	
2025-01-12 23:05:49.09	81.67	10.16	
2025-01-12 23:05:49.29	81.71	10.15	
2025-01-12 23:05:49.50	81.75	10.15	
2025-01-12 23:05:49.71	81.79	10.15	
2025-01-12 23:05:49.91	81.83	10.15	
2025-01-12 23:05:50.12	81.88	10.15	
2025-01-12 23:05:50.32	81.92	10.15	
2025-01-12 23:05:50.53	81.96	10.15	
2025-01-12 23:05:50.73	82.00	10.15	
2025-01-12 23:05:50.94	82.05	10.15	
2025-01-12 23:05:51.16	82.09	10.14	
2025-01-12 23:05:51.36	82.13	10.14	
2025-01-12 23:05:51.57	82.18	10.14	
2025-01-12 23:05:51.77	82.22	10.14	
2025-01-12 23:05:51.98	82.26	10.14	
2025-01-12 23:05:52.20	82.30	10.14	
2025-01-12 23:05:52.40	82.35	10.14	
2025-01-12 23:05:52.61	82.39	10.14	
2025-01-12 23:05:52.81	82.43	10.13	
2025-01-12 23:05:53.02	82.47	10.13	
2025-01-12 23:05:53.22	82.51	10.13	
2025-01-12 23:05:53.42	82.56	10.13	
2025-01-12 23:05:53.63	82.60	10.13	
2025-01-12 23:05:53.84	82.64	10.13	
2025-01-12 23:05:54.04	82.68	10.13	
2025-01-12 23:05:54.25	82.73	10.12	
2025-01-12 23:05:54.45	82.77	10.12	
2025-01-12 23:05:54.66	82.81	10.12	
2025-01-12 23:05:54.86	82.85	10.12	
2025-01-12 23:05:55.07	82.89	10.12	
2025-01-12 23:05:55.27	82.94	10.12	
2025-01-12 23:05:55.48	82.98	10.12	
2025-01-12 23:05:55.68	83.02	10.11	
2025-01-12 23:05:55.89	83.06	10.11	
2025-01-12 23:05:56.09	83.10	10.11	
2025-01-12 23:05:56.30	83.15	10.11	
2025-01-12 23:05:56.50	83.19	10.11	
2025-01-12 23:05:56.71	83.23	10.11	
2025-01-12 23:05:56.91	83.27	10.11	
2025-01-12 23:05:57.12	83.31	10.10	
2025-01-12 23:05:57.33	83.36	10.10	
2025-01-12 23:05:57.53	83.40	10.10	
2025-01-12 23:05:57.73	83.44	10.10	
2025-01-12 23:05:57.94	83.48	10.10	
2025-01-12 23:05:58.14	83.52	10.10	
2025-01-12 23:05:58.35	83.57	10.09	
2025-01-12 23:05:58.55	83.61	10.09	
2025-01-12 23:05:58.76	83.65	10.09	
2025-01-12 23:05:58.96	83.69	10.09	
2025-01-12 23:05:59.17	83.73	10.09	
2025-01-12 23:05:59.38	83.78	10.09	
2025-01-12 23:05:59.58	83.82	10.08	
2025-01-12 23:05:59.78	83.86	10.08	
2025-01-12 23:05:59.99	83.90	10.08	
2025-01-12 23:06:00.21	83.95	10.08	
2025-01-12 23:06:00.41	83.99	10.08	
2025-01-12 23:06:00.62	84.03	10.08	
2025-01-12 23:06:00.82	84.07	10.07	
2025-01-12 23:06:01.03	84.12	10.07	
2025-01-12 23:06:01.23	84.16	10.07	
2025-01-12 23:06:01.44	84.20	10.07	
2025-01-12 23:06:01.64	84.24	10.07	
2025-01-12 23:06:01.85	84.28	10.06	
2025-01-12 23:06:02.05	84.32	10.06	
2025-01-12 23:06:02.25	84.36	10.06	
2025-01-12 23:06:02.46	84.41	10.06	
2025-01-12 23:06:02.67	84.45	10.06	
2025-01-12 23:06:02.87	84.49	10.06	
2025-01-12 23:06:03.07	84.53	10.05	
2025-01-12 23:06:03.28	84.58	10.05	
2025-01-12 23:06:03.49	84.62	10.05	
2025-01-12 23:06:03.69	84.66	10.05	
2025-01-12 23:06:03.91	84.70	10.05	
2025-01-12 23:06:04.12	84.75	10.04	
2025-01-12 23:06:04.32	84.79	10.04	
2025-01-12 23:06:04.53	84.83	10.04	
2025-01-12 23:06:04.73	84.87	10.04	
2025-01-12 23:06:04.94	84.91	10.04	
2025-01-12 23:06:05.14	84.96	10.03	
2025-01-12 23:06:05.35	85.00	10.03	
2025-01-12 23:06:05.55	85.04	10.03	
2025-01-12 23:06:05.76	85.08	10.03	
2025-01-12 23:06:05.96	85.12	10.02	
2025-01-12 23:06:06.17	85.17	10.02	
2025-01-12 23:06:06.38	85.21	10.02	
2025-01-12 23:06:06.58	85.25	10.02	
2025-01-12 23:06:06.79	85.29	10.02	
2025-01-12 23:06:07.00	85.33	10.01	
2025-01-12 23:06:07.21	85.38	10.01	
2025-01-12 23:06:07.42	85.42	10.01	
2025-01-12 23:06:07.62	85.46	10.01	
2025-01-12 23:06:07.83	85.50	10.01	
2025-01-12 23:06:08.03	85.54	10.00	
2025-01-12 23:06:08.24	85.59	10.00	
2025-01-12 23:06:08.44	85.63	10.00	
2025-01-12 23:06:08.65	85.67	10.00	
2025-01-12 23:06:08.85	85.71	9.99	
2025-01-12 23:06:09.06	85.75	9.99	
2025-01-12 23:06:09.26	85.79	9.99	
2025-01-12 23:06:09.47	85.84	9.99	
2025-01-12 23:06:09.67	85.88	9.98	
2025-01-12 23:06:09.88	85.92	9.98	
2025-01-12 23:06:10.08	85.96	9.98	
2025-01-12 23:06:10.29	86.00	9.98	
2025-01-12 23:06:10.49	86.04	9.98	
2025-01-12 23:06:10.69	86.09	9.97	
2025-01-12 23:06:10.90	86.13	9.97	
2025-01-12 23:06:11.11	86.17	9.97	
2025-01-12 23:06:11.31	86.21	9.97	
2025-01-12 23:06:11.52	86.25	9.96	
2025-01-12 23:06:11.72	86.29	9.96	
2025-01-12 23:06:11.93	86.34	9.96	
2025-01-12 23:06:12.14	86.38	9.96	
2025-01-12 23:06:12.34	86.42	9.95	
2025-01-12 23:06:12.54	86.46	9.95	
2025-01-12 23:06:12.75	86.50	9.95	
2025-01-12 23:06:12.96	86.55	9.95	
2025-01-12 23:06:13.16	86.59	9.94	
2025-01-12 23:06:13.37	86.63	9.94	
2025-01-12 23:06:13.57	86.67	9.94	
2025-01-12 23:06:13.77	86.71	9.94	
2025-01-12 23:06:13.98	86.75	9.93	
2025-01-12 23:06:14.19	86.80	9.93	
2025-01-12 23:06:14.39	86.84	9.93	
2025-01-12 23:06:14.61	86.88	9.92	
2025-01-12 23:06:14.81	86.92	9.92	
2025-01-12 23:06:15.02	86.96	9.92	
2025-01-12 23:06:15.22	87.00	9.92	
2025-01-12 23:06:15.43	87.05	9.91	
2025-01-12 23:06:15.63	87.09	9.91	
2025-01-12 23:06:15.84	87.13	9.91	
2025-01-12 23:06:16.04	87.17	9.91	
2025-01-12 23:06:16.25	87.21	9.90	
2025-01-12 23:06:16.46	87.25	9.90	
2025-01-12 23:06:16.66	87.30	9.90	
2025-01-12 23:06:16.87	87.34	9.90	
2025-01-12 23:06:17.07	87.38	9.89	
2025-01-12 23:06:17.29	87.42	9.89	
2025-01-12 23:06:17.49	87.46	9.89	
2025-01-12 23:06:17.70	87.51	9.88	
2025-01-12 23:06:17.90	87.55	9.88	
2025-01-12 23:06:18.11	87.59	9.88	
2025-01-12 23:06:18.31	87.63	9.88	
2025-01-12 23:06:18.52	87.67	9.87	
2025-01-12 23:06:18.72	87.71	9.87	
2025-01-12 23:06:18.94	87.76	9.87	
2025-01-12 23:06:19.15	87.80	9.86	
2025-01-12 23:06:19.35	87.84	9.86	
2025-01-12 23:06:19.56	87.88	9.86	
2025-01-12 23:06:19.76	87.92	9.85	
2025-01-12 23:06:19.97	87.96	9.85	
2025-01-12 23:06:20.17	88.00	9.85	
2025-01-12 23:06:20.38	88.05	9.85	
2025-01-12 23:06:20.58	88.09	9.84	
2025-01-12 23:06:20.79	88.13	9.84	
2025-01-12 23:06:20.99	88.17	9.84	
2025-01-12 23:06:21.20	88.21	9.83	
2025-01-12 23:06:21.40	88.25	9.83	
2025-01-12 23:06:21.61	88.29	9.83	
2025-01-12 23:06:21.81	88.33	9.82	
2025-01-12 23:06:22.02	88.38	9.82	
2025-01-12 23:06:22.22	88.42	9.82	
2025-01-12 23:06:22.43	88.46	9.82	
2025-01-12 23:06:22.63	88.50	9.81	
2025-01-12 23:06:22.84	88.54	9.81	
2025-01-12 23:06:23.04	88.58	9.81	
2025-01-12 23:06:23.25	88.62	9.80	
2025-01-12 23:06:23.45	88.66	9.80	
2025-01-12 23:06:23.66	88.71	9.80	
2025-01-12 23:06:23.87	88.75	9.79	
2025-01-12 23:06:24.07	88.79	9.79	
2025-01-12 23:06:24.28	88.83	9.79	
2025-01-12 23:06:24.48	88.87	9.78	
2025-01-12 23:06:24.69	88.91	9.78	
2025-01-12 23:06:24.89	88.95	9.78	
2025-01-12 23:06:25.10	88.99	9.77	
2025-01-12 23:06:25.30	89.03	9.77	
2025-01-12 23:06:25.51	89.08	9.77	
2025-01-12 23:06:25.71	89.12	9.76	
2025-01-12 23:06:25.92	89.16	9.76	
2025-01-12 23:06:26.13	89.20	9.76	
2025-01-12 23:06:26.34	89.24	9.75	
2025-01-12 23:06:26.55	89.28	9.75	
2025-01-12 23:06:26.75	89.32	9.75	
2025-01-12 23:06:26.96	89.37	9.74	
2025-01-12 23:06:27.16	89.41	9.74	
2025-01-12 23:06:27.37	89.45	9.74	
2025-01-12 23:06:27.57	89.49	9.73	
2025-01-12 23:06:27.78	89.53	9.73	
2025-01-12 23:06:27.99	89.57	9.73	
2025-01-12 23:06:28.19	89.61	9.72	
2025-01-12 23:06:28.39	89.65	9.72	
2025-01-12 23:06:28.60	89.69	9.72	
2025-01-12 23:06:28.81	89.74	9.71	
2025-01-12 23:06:29.01	89.78	9.71	
2025-01-12 23:06:29.22	89.82	9.71	
2025-01-12 23:06:29.42	89.86	9.70	
2025-01-12 23:06:29.62	89.90	9.70	
2025-01-12 23:06:29.83	89.94	9.70	
2025-01-12 23:06:30.03	89.98	9.69	
2025-01-12 23:06:30.24	90.02	9.69	
2025-01-12 23:06:30.44	90.06	9.69	
2025-01-12 23:06:30.65	90.10	9.68	
2025-01-12 23:06:30.85	90.14	9.68	
2025-01-12 23:06:31.06	90.18	9.67	
2025-01-12 23:06:31.26	90.22	9.67	
2025-01-12 23:06:31.47	90.27	9.67	
2025-01-12 23:06:31.67	90.31	9.66	
2025-01-12 23:06:31.88	90.35	9.66	
2025-01-12 23:06:32.09	90.39	9.66	
2025-01-12 23:06:32.29	90.43	9.65	
2025-01-12 23:06:32.50	90.47	9.65	
2025-01-12 23:06:32.70	90.51	9.65	
2025-01-12 23:06:32.91	90.55	9.64	
2025-01-12 23:06:33.11	90.59	9.64	
2025-01-12 23:06:33.32	90.63	9.63	
2025-01-12 23:06:33.52	90.67	9.63	
2025-01-12 23:06:33.73	90.71	9.63	
2025-01-12 23:06:33.93	90.75	9.62	
2025-01-12 23:06:34.14	90.80	9.62	
2025-01-12 23:06:34.34	90.84	9.62	
2025-01-12 23:06:34.55	90.88	9.61	
2025-01-12 23:06:34.75	90.92	9.61	
2025-01-12 23:06:34.96	90.96	9.60	
2025-01-12 23:06:35.16	91.00	9.60	
2025-01-12 23:06:35.37	91.04	9.60	
2025-01-12 23:06:35.57	91.08	9.59	
2025-01-12 23:06:35.78	91.12	9.59	
2025-01-12 23:06:36.00	91.16	9.59	
2025-01-12 23:06:36.20	91.20	9.58	
2025-01-12 23:06:36.41	91.24	9.58	
2025-01-12 23:06:36.61	91.28	9.57	
2025-01-12 23:06:36.82	91.33	9.57	
2025-01-12 23:06:37.02	91.37	9.57	
2025-01-12 23:06:37.23	91.41	9.56	
2025-01-12 23:06:37.44	91.45	9.56	
2025-01-12 23:06:37.64	91.49	9.55	
2025-01-12 23:06:37.85	91.53	9.55	
2025-01-12 23:06:38.05	91.57	9.55	
2025-01-12 23:06:38.26	91.61	9.54	
2025-01-12 23:06:38.46	91.65	9.54	
2025-01-12 23:06:38.67	91.69	9.53	
2025-01-12 23:06:38.88	91.73	9.53	
2025-01-12 23:06:39.08	91.77	9.53	
2025-01-12 23:06:39.28	91.81	9.52	
2025-01-12 23:06:39.49	91.85	9.52	
2025-01-12 23:06:39.70	91.89	9.51	
2025-01-12 23:06:39.90	91.93	9.51	
2025-01-12 23:06:40.11	91.97	9.51	
2025-01-12 23:06:40.31	92.01	9.50	
2025-01-12 23:06:40.52	92.05	9.50	
2025-01-12 23:06:40.72	92.09	9.49	
2025-01-12 23:06:40.93	92.14	9.49	
2025-01-12 23:06:41.13	92.17	9.49	
2025-01-12 23:06:41.34	92.22	9.48	
2025-01-12 23:06:41.54	92.26	9.48	
2025-01-12 23:06:41.75	92.30	9.47	
2025-01-12 23:06:41.95	92.34	9.47	
2025-01-12 23:06:42.16	92.38	9.46	
2025-01-12 23:06:42.36	92.42	9.46	
2025-01-12 23:06:42.57	92.46	9.46	
2025-01-12 23:06:42.77	92.50	9.45	
2025-01-12 23:06:42.98	92.54	9.45	
2025-01-12 23:06:43.18	92.58	9.44	
2025-01-12 23:06:43.39	92.62	9.44	
2025-01-12 23:06:43.59	92.66	9.43	
2025-01-12 23:06:43.80	92.70	9.43	
2025-01-12 23:06:44.01	92.74	9.43	
2025-01-12 23:06:44.21	92.78	9.42	
2025-01-12 23:06:44.42	92.82	9.42	
2025-01-12 23:06:44.62	92.86	9.41	
2025-01-12 23:06:44.83	92.90	9.41	
2025-01-12 23:06:45.03	92.94	9.40	
2025-01-12 23:06:45.24	92.98	9.40	
2025-01-12 23:06:45.44	93.02	9.40	
2025-01-12 23:06:45.65	93.06	9.39	
2025-01-12 23:06:45.85	93.10	9.39	
2025-01-12 23:06:46.06	93.14	9.38	
2025-01-12 23:06:46.27	93.18	9.38	
2025-01-12 23:06:46.47	93.22	9.37	
2025-01-12 23:06:46.69	93.26	9.37	
2025-01-12 23:06:46.89	93.30	9.36	
2025-01-12 23:06:47.10	93.34	9.36	
2025-01-12 23:06:47.31	93.38	9.36	
2025-01-12 23:06:47.51	93.42	9.35	
2025-01-12 23:06:47.73	93.46	9.35	
2025-01-12 23:06:47.94	93.50	9.34	
2025-01-12 23:06:48.16	93.55	9.34	
2025-01-12 23:06:48.36	93.59	9.33	
2025-01-12 23:06:48.57	93.63	9.33	
2025-01-12 23:06:48.77	93.67	9.32	
2025-01-12 23:06:48.98	93.71	9.32	
2025-01-12 23:06:49.18	93.75	9.31	
2025-01-12 23:06:49.39	93.79	9.31	
2025-01-12 23:06:49.59	93.83	9.31	
2025-01-12 23:06:49.80	93.87	9.30	
2025-01-12 23:06:50.00	93.90	9.30	
2025-01-12 23:06:50.21	93.95	9.29	
2025-01-12 23:06:50.42	93.99	9.29	
2025-01-12 23:06:50.62	94.02	9.28	
2025-01-12 23:06:50.83	94.07	9.28	
2025-01-12 23:06:51.03	94.10	9.27	
2025-01-12 23:06:51.24	94.14	9.27	
2025-01-12 23:06:51.44	94.18	9.26	
2025-01-12 23:06:51.65	94.22	9.26	
2025-01-12 23:06:51.85	94.26	9.25	
2025-01-12 23:06:52.06	94.30	9.25	
2025-01-12 23:06:52.26	94.34	9.24	
2025-01-12 23:06:52.47	94.38	9.24	
2025-01-12 23:06:52.67	94.42	9.24	
2025-01-12 23:06:52.88	94.46	9.23	
2025-01-12 23:06:53.10	94.50	9.23	
2025-01-12 23:06:53.30	94.54	9.22	
2025-01-12 23:06:53.51	94.58	9.22	
2025-01-12 23:06:53.71	94.62	9.21	
2025-01-12 23:06:53.92	94.66	9.21	
2025-01-12 23:06:54.12	94.70	9.20	
2025-01-12 23:06:54.33	94.74	9.20	
2025-01-12 23:06:54.53	94.78	9.19	
2025-01-12 23:06:54.74	94.82	9.19	
2025-01-12 23:06:54.95	94.86	9.18	
2025-01-12 23:06:55.15	94.90	9.18	
2025-01-12 23:06:55.36	94.94	9.17	
2025-01-12 23:06:55.56	94.98	9.17	
2025-01-12 23:06:55.77	95.02	9.16	
2025-01-12 23:06:55.97	95.06	9.16	
2025-01-12 23:06:56.18	95.10	9.15	
2025-01-12 23:06:56.38	95.13	9.15	
2025-01-12 23:06:56.59	95.17	9.14	
2025-01-12 23:06:56.79	95.21	9.14	
2025-01-12 23:06:57.00	95.25	9.13	
2025-01-12 23:06:57.20	95.29	9.13	
2025-01-12 23:06:57.41	95.33	9.12	
2025-01-12 23:06:57.61	95.37	9.12	
2025-01-12 23:06:57.82	95.41	9.11	
2025-01-12 23:06:58.02	95.45	9.11	
2025-01-12 23:06:58.23	95.49	9.10	
2025-01-12 23:06:58.43	95.53	9.10	
2025-01-12 23:06:58.64	95.57	9.09	
2025-01-12 23:06:58.84	95.60	9.09	
2025-01-12 23:06:59.05	95.64	9.08	
2025-01-12 23:06:59.25	95.68	9.08	
2025-01-12 23:06:59.45	95.72	9.07	
2025-01-12 23:06:59.66	95.76	9.07	
2025-01-12 23:06:59.86	95.80	9.06	
2025-01-12 23:07:00.07	95.84	9.06	
2025-01-12 23:07:00.27	95.88	9.05	
2025-01-12 23:07:00.48	95.92	9.05	
2025-01-12 23:07:00.68	95.95	9.04	
2025-01-12 23:07:00.89	95.99	9.04	
2025-01-12 23:07:01.09	96.03	9.03	
2025-01-12 23:07:01.30	96.07	9.03	
2025-01-12 23:07:01.50	96.11	9.02	
2025-01-12 23:07:01.71	96.15	9.02	
2025-01-12 23:07:01.92	96.19	9.01	
2025-01-12 23:07:02.12	96.23	9.01	
2025-01-12 23:07:02.33	96.27	9.00	
2025-01-12 23:07:02.53	96.31	9.00	
2025-01-12 23:07:02.74	96.35	8.99	
2025-01-12 23:07:02.94	96.38	8.99	
2025-01-12 23:07:03.15	96.42	8.98	
2025-01-12 23:07:03.35	96.46	8.97	
2025-01-12 23:07:03.55	96.50	8.97	
2025-01-12 23:07:03.76	96.54	8.96	
2025-01-12 23:07:03.97	96.58	8.96	
2025-01-12 23:07:04.17	96.62	8.95	
2025-01-12 23:07:04.38	96.66	8.95	
2025-01-12 23:07:04.58	96.69	8.94	
2025-01-12 23:07:04.80	96.74	8.94	
2025-01-12 23:07:05.00	96.77	8.93	
2025-01-12 23:07:05.21	96.81	8.93	
2025-01-12 23:07:05.42	96.85	8.92	
2025-01-12 23:07:05.62	96.89	8.92	
2025-01-12 23:07:05.83	96.93	8.91	
2025-01-12 23:07:06.03	96.97	8.91	
2025-01-12 23:07:06.24	97.01	8.90	
2025-01-12 23:07:06.44	97.04	8.89	
2025-01-12 23:07:06.65	97.08	8.89	
2025-01-12 23:07:06.85	97.12	8.88	
2025-01-12 23:07:07.06	97.16	8.88	
2025-01-12 23:07:07.26	97.20	8.87	
2025-01-12 23:07:07.47	97.24	8.87	
2025-01-12 23:07:07.67	97.28	8.86	
2025-01-12 23:07:07.88	97.32	8.86	
2025-01-12 23:07:08.08	97.35	8.85	
2025-01-12 23:07:08.29	97.39	8.85	
2025-01-12 23:07:08.49	97.43	8.84	
2025-01-12 23:07:08.70	97.47	8.83	
2025-01-12 23:07:08.90	97.51	8.83	
2025-01-12 23:07:09.11	97.55	8.82	
2025-01-12 23:07:09.32	97.59	8.82	
2025-01-12 23:07:09.52	97.62	8.81	
2025-01-12 23:07:09.73	97.66	8.81	
2025-01-12 23:07:09.93	97.70	8.80	
2025-01-12 23:07:10.14	97.74	8.80	
2025-01-12 23:07:10.35	97.78	8.79	
2025-01-12 23:07:10.55	97.82	8.78	
2025-01-12 23:07:10.76	97.85	8.78	
2025-01-12 23:07:10.96	97.89	8.77	
2025-01-12 23:07:11.17	97.93	8.77	
2025-01-12 23:07:11.37	97.97	8.76	
2025-01-12 23:07:11.58	98.01	8.76	
2025-01-12 23:07:11.78	98.05	8.75	
2025-01-12 23:07:11.99	98.08	8.74	
2025-01-12 23:07:12.19	98.12	8.74	
2025-01-12 23:07:12.40	98.16	8.73	
2025-01-12 23:07:12.60	98.20	8.73	
2025-01-12 23:07:12.81	98.24	8.72	
2025-01-12 23:07:13.02	98.28	8.72	
2025-01-12 23:07:13.22	98.31	8.71	
2025-01-12 23:07:13.43	98.35	8.71	
2025-01-12 23:07:13.63	98.39	8.70	
2025-01-12 23:07:13.84	98.43	8.69	
2025-01-12 23:07:14.05	98.47	8.69	
2025-01-12 23:07:14.25	98.50	8.68	
2025-01-12 23:07:14.45	98.54	8.68	
2025-01-12 23:07:14.66	98.58	8.67	
2025-01-12 23:07:14.87	98.62	8.66	
2025-01-12 23:07:15.07	98.66	8.66	
2025-01-12 23:07:15.28	98.69	8.65	
2025-01-12 23:07:15.48	98.73	8.65	
2025-01-12 23:07:15.69	98.77	8.64	
2025-01-12 23:07:15.89	98.81	8.64	
2025-01-12 23:07:16.10	98.85	8.63	
2025-01-12 23:07:16.31	98.89	8.62	
2025-01-12 23:07:16.53	98.93	8.62	
2025-01-12 23:07:16.73	98.96	8.61	
2025-01-12 23:07:16.94	99.00	8.61	
2025-01-12 23:07:17.14	99.04	8.60	
2025-01-12 23:07:17.35	99.08	8.59	
2025-01-12 23:07:17.55	99.11	8.59	
2025-01-12 23:07:17.76	99.15	8.58	
2025-01-12 23:07:17.96	99.19	8.58	
2025-01-12 23:07:18.17	99.23	8.57	
2025-01-12 23:07:18.37	99.26	8.56	
2025-01-12 23:07:18.58	99.30	8.56	
2025-01-12 23:07:18.78	99.34	8.55	
2025-01-12 23:07:18.99	99.38	8.55	
2025-01-12 23:07:19.19	99.42	8.54	
2025-01-12 23:07:19.39	99.45	8.54	
2025-01-12 23:07:19.60	99.49	8.53	
2025-01-12 23:07:19.80	99.53	8.52	
2025-01-12 23:07:20.01	99.57	8.52	
2025-01-12 23:07:20.21	99.60	8.51	
2025-01-12 23:07:20.42	99.64	8.51	
2025-01-12 23:07:20.62	99.68	8.50	
2025-01-12 23:07:20.83	99.72	8.49	
2025-01-12 23:07:21.03	99.75	8.49	
2025-01-12 23:07:21.24	99.79	8.48	
2025-01-12 23:07:21.44	99.83	8.48	
2025-01-12 23:07:21.65	99.87	8.47	
2025-01-12 23:07:21.87	99.91	8.46	
2025-01-12 23:07:22.07	99.94	8.46	
2025-01-12 23:07:22.28	99.98	8.45	
2025-01-12 23:07:22.48	100.02	8.44	
2025-01-12 23:07:22.69	100.06	8.44	
2025-01-12 23:07:22.89	100.09	8.43	
2025-01-12 23:07:23.10	100.13	8.43	
2025-01-12 23:07:23.30	100.17	8.42	
2025-01-12 23:07:23.51	100.20	8.41	
2025-01-12 23:07:23.71	100.24	8.41	
2025-01-12 23:07:23.92	100.28	8.40	
2025-01-12 23:07:24.13	100.32	8.40	
2025-01-12 23:07:24.33	100.35	8.39	
2025-01-12 23:07:24.54	100.39	8.38	
2025-01-12 23:07:24.75	100.43	8.38	
2025-01-12 23:07:24.95	100.47	8.37	
2025-01-12 23:07:25.16	100.50	8.36	
2025-01-12 23:07:25.36	100.54	8.36	
2025-01-12 23:07:25.57	100.58	8.35	
2025-01-12 23:07:25.77	100.61	8.35	
2025-01-12 23:07:25.98	100.65	8.34	
2025-01-12 23:07:26.18	100.69	8.33	
2025-01-12 23:07:26.39	100.73	8.33	
2025-01-12 23:07:26.59	100.76	8.32	
2025-01-12 23:07:26.80	100.80	8.31	
2025-01-12 23:07:27.01	100.84	8.31	
2025-01-12 23:07:27.21	100.87	8.30	
2025-01-12 23:07:27.42	100.91	8.30	
2025-01-12 23:07:27.62	100.95	8.29	
2025-01-12 23:07:27.83	100.99	8.28	
2025-01-12 23:07:28.03	101.02	8.28	
2025-01-12 23:07:28.24	101.06	8.27	
2025-01-12 23:07:28.44	101.10	8.26	
2025-01-12 23:07:28.65	101.13	8.26	
2025-01-12 23:07:28.85	101.17	8.25	
2025-01-12 23:07:29.06	101.21	8.24	
2025-01-12 23:07:29.28	101.25	8.24	
2025-01-12 23:07:29.48	101.28	8.23	
2025-01-12 23:07:29.69	101.32	8.22	
2025-01-12 23:07:29.89	101.36	8.22	
2025-01-12 23:07:30.10	101.39	8.21	
2025-01-12 23:07:30.30	101.43	8.21	
2025-01-12 23:07:30.51	101.47	8.20	
2025-01-12 23:07:30.71	101.50	8.19	
2025-01-12 23:07:30.92	101.54	8.19	
2025-01-12 23:07:31.13	101.58	8.18	
2025-01-12 23:07:31.33	101.61	8.17	
2025-01-12 23:07:31.53	101.65	8.17	
