passes_logs/2025/01/12/SPB_Silybum_02/SPB_Silybum_02__20250112_010923_SUOMI_NPP_rec.log

#Pass ID: 20250112_010923_SUOMI NPP
#Satellite: SUOMI NPP
#Configuration: NPP
#Start time: 2025-01-12 01:09:23

#Version: 2.0.20230423
#Station: SPB_Silybum_02
#Location: 30.233357 lon 59.946436 lat
#TLE: 1 37849U 11061A   25010.83173011  .00000170  00000+0  10148-3 0  9996
#TLE: 2 37849  98.7441 311.8732 0001811  47.3940 312.7388 14.19536379684322

#Time	Az	El	Level	Level2	SNR	BER	Gain	Gain2
2025-01-12 01:09:25.80	15.69	4.14	
2025-01-12 01:09:26.00	15.68	4.15	
2025-01-12 01:09:26.21	15.68	4.16	
2025-01-12 01:09:26.41	15.67	4.18	
2025-01-12 01:09:26.62	15.66	4.19	
2025-01-12 01:09:26.82	15.66	4.21	
2025-01-12 01:09:27.03	15.65	4.22	
2025-01-12 01:09:27.23	15.64	4.23	
2025-01-12 01:09:27.44	15.64	4.25	
2025-01-12 01:09:27.64	15.63	4.26	
2025-01-12 01:09:27.85	15.62	4.28	
2025-01-12 01:09:28.05	15.62	4.29	
2025-01-12 01:09:28.26	15.61	4.30	
2025-01-12 01:09:28.46	15.60	4.32	
2025-01-12 01:09:28.67	15.60	4.33	
2025-01-12 01:09:28.87	15.59	4.34	
2025-01-12 01:09:29.08	15.58	4.36	
2025-01-12 01:09:29.28	15.58	4.37	
2025-01-12 01:09:29.49	15.57	4.39	
2025-01-12 01:09:29.69	15.56	4.40	
2025-01-12 01:09:29.90	15.56	4.41	
2025-01-12 01:09:30.10	15.55	4.43	
2025-01-12 01:09:30.31	15.54	4.44	
2025-01-12 01:09:30.51	15.54	4.46	
2025-01-12 01:09:30.72	15.53	4.47	
2025-01-12 01:09:30.92	15.52	4.48	
2025-01-12 01:09:31.13	15.52	4.50	
2025-01-12 01:09:31.33	15.51	4.51	
2025-01-12 01:09:31.54	15.50	4.53	
2025-01-12 01:09:31.74	15.50	4.54	
2025-01-12 01:09:31.95	15.49	4.55	
2025-01-12 01:09:32.15	15.48	4.57	
2025-01-12 01:09:32.36	15.47	4.58	
2025-01-12 01:09:32.56	15.47	4.59	
2025-01-12 01:09:32.77	15.46	4.61	
2025-01-12 01:09:32.97	15.45	4.62	
2025-01-12 01:09:33.18	15.45	4.64	
2025-01-12 01:09:33.38	15.44	4.65	
2025-01-12 01:09:33.59	15.43	4.67	
2025-01-12 01:09:33.80	15.43	4.68	
2025-01-12 01:09:34.00	15.42	4.69	
2025-01-12 01:09:34.20	15.41	4.71	
2025-01-12 01:09:34.41	15.41	4.72	
2025-01-12 01:09:34.62	15.40	4.74	
2025-01-12 01:09:34.82	15.39	4.75	
2025-01-12 01:09:35.02	15.38	4.76	
2025-01-12 01:09:35.23	15.38	4.78	
2025-01-12 01:09:35.44	15.37	4.79	
2025-01-12 01:09:35.64	15.36	4.81	
2025-01-12 01:09:35.84	15.36	4.82	
2025-01-12 01:09:36.05	15.35	4.83	
2025-01-12 01:09:36.25	15.34	4.85	
2025-01-12 01:09:36.46	15.34	4.86	
2025-01-12 01:09:36.66	15.33	4.88	
2025-01-12 01:09:36.87	15.32	4.89	
2025-01-12 01:09:37.07	15.31	4.90	
2025-01-12 01:09:37.28	15.31	4.92	
2025-01-12 01:09:37.48	15.30	4.93	
2025-01-12 01:09:37.69	15.29	4.95	
2025-01-12 01:09:37.89	15.29	4.96	
2025-01-12 01:09:38.10	15.28	4.98	
2025-01-12 01:09:38.30	15.27	4.99	
2025-01-12 01:09:38.51	15.27	5.00	
2025-01-12 01:09:38.71	15.26	5.02	
2025-01-12 01:09:38.92	15.25	5.03	
2025-01-12 01:09:39.12	15.24	5.05	
2025-01-12 01:09:39.33	15.24	5.06	
2025-01-12 01:09:39.53	15.23	5.07	
2025-01-12 01:09:39.74	15.22	5.09	
2025-01-12 01:09:39.94	15.22	5.10	
2025-01-12 01:09:40.15	15.21	5.12	
2025-01-12 01:09:40.35	15.20	5.13	
2025-01-12 01:09:40.56	15.19	5.15	
2025-01-12 01:09:40.77	15.19	5.16	
2025-01-12 01:09:40.97	15.18	5.17	
2025-01-12 01:09:41.18	15.17	5.19	
2025-01-12 01:09:41.38	15.17	5.20	
2025-01-12 01:09:41.58	15.16	5.22	
2025-01-12 01:09:41.79	15.15	5.23	
2025-01-12 01:09:42.00	15.14	5.25	
2025-01-12 01:09:42.20	15.14	5.26	
2025-01-12 01:09:42.42	15.13	5.28	
2025-01-12 01:09:42.62	15.12	5.29	
2025-01-12 01:09:42.83	15.11	5.30	
2025-01-12 01:09:43.03	15.11	5.32	
2025-01-12 01:09:43.24	15.10	5.33	
2025-01-12 01:09:43.46	15.09	5.35	
2025-01-12 01:09:43.66	15.08	5.36	
2025-01-12 01:09:43.87	15.08	5.38	
2025-01-12 01:09:44.07	15.07	5.39	
2025-01-12 01:09:44.28	15.06	5.41	
2025-01-12 01:09:44.50	15.05	5.42	
2025-01-12 01:09:44.70	15.05	5.44	
2025-01-12 01:09:44.91	15.04	5.45	
2025-01-12 01:09:45.11	15.03	5.46	
2025-01-12 01:09:45.32	15.03	5.48	
2025-01-12 01:09:45.52	15.02	5.49	
2025-01-12 01:09:45.73	15.01	5.51	
2025-01-12 01:09:45.94	15.00	5.52	
2025-01-12 01:09:46.14	15.00	5.54	
2025-01-12 01:09:46.35	14.99	5.55	
2025-01-12 01:09:46.57	14.98	5.57	
2025-01-12 01:09:46.77	14.97	5.58	
2025-01-12 01:09:46.98	14.97	5.60	
2025-01-12 01:09:47.18	14.96	5.61	
2025-01-12 01:09:47.39	14.95	5.63	
2025-01-12 01:09:47.59	14.94	5.64	
2025-01-12 01:09:47.80	14.94	5.65	
2025-01-12 01:09:48.00	14.93	5.67	
2025-01-12 01:09:48.21	14.92	5.68	
2025-01-12 01:09:48.42	14.91	5.70	
2025-01-12 01:09:48.62	14.91	5.71	
2025-01-12 01:09:48.82	14.90	5.73	
2025-01-12 01:09:49.03	14.89	5.74	
2025-01-12 01:09:49.24	14.88	5.76	
2025-01-12 01:09:49.44	14.88	5.77	
2025-01-12 01:09:49.65	14.87	5.79	
2025-01-12 01:09:49.85	14.86	5.80	
2025-01-12 01:09:50.05	14.85	5.81	
2025-01-12 01:09:50.26	14.85	5.83	
2025-01-12 01:09:50.47	14.84	5.84	
2025-01-12 01:09:50.67	14.83	5.86	
2025-01-12 01:09:50.87	14.82	5.87	
2025-01-12 01:09:51.08	14.82	5.89	
2025-01-12 01:09:51.29	14.81	5.90	
2025-01-12 01:09:51.49	14.80	5.92	
2025-01-12 01:09:51.69	14.79	5.93	
2025-01-12 01:09:51.91	14.78	5.95	
2025-01-12 01:09:52.12	14.78	5.96	
2025-01-12 01:09:52.32	14.77	5.98	
2025-01-12 01:09:52.53	14.76	5.99	
2025-01-12 01:09:52.74	14.75	6.01	
2025-01-12 01:09:52.94	14.75	6.02	
2025-01-12 01:09:53.14	14.74	6.04	
2025-01-12 01:09:53.35	14.73	6.05	
2025-01-12 01:09:53.56	14.72	6.07	
2025-01-12 01:09:53.76	14.72	6.08	
2025-01-12 01:09:53.96	14.71	6.09	
2025-01-12 01:09:54.17	14.70	6.11	
2025-01-12 01:09:54.37	14.69	6.12	
2025-01-12 01:09:54.58	14.68	6.14	
2025-01-12 01:09:54.79	14.68	6.15	
2025-01-12 01:09:54.99	14.67	6.17	
2025-01-12 01:09:55.21	14.66	6.18	
2025-01-12 01:09:55.42	14.65	6.20	
2025-01-12 01:09:55.62	14.65	6.21	
2025-01-12 01:09:55.83	14.64	6.23	
2025-01-12 01:09:56.03	14.63	6.24	
2025-01-12 01:09:56.24	14.62	6.26	
2025-01-12 01:09:56.45	14.61	6.27	
2025-01-12 01:09:56.65	14.61	6.29	
2025-01-12 01:09:56.86	14.60	6.30	
2025-01-12 01:09:57.06	14.59	6.32	
2025-01-12 01:09:57.26	14.58	6.33	
2025-01-12 01:09:57.47	14.57	6.35	
2025-01-12 01:09:57.67	14.57	6.36	
2025-01-12 01:09:57.88	14.56	6.38	
2025-01-12 01:09:58.09	14.55	6.39	
2025-01-12 01:09:58.29	14.54	6.41	
2025-01-12 01:09:58.50	14.54	6.42	
2025-01-12 01:09:58.70	14.53	6.44	
2025-01-12 01:09:58.91	14.52	6.45	
2025-01-12 01:09:59.11	14.51	6.47	
2025-01-12 01:09:59.32	14.50	6.48	
2025-01-12 01:09:59.53	14.50	6.50	
2025-01-12 01:09:59.73	14.49	6.51	
2025-01-12 01:09:59.94	14.48	6.53	
2025-01-12 01:10:00.14	14.47	6.54	
2025-01-12 01:10:00.36	14.46	6.56	
2025-01-12 01:10:00.57	14.45	6.57	
2025-01-12 01:10:00.78	14.45	6.59	
2025-01-12 01:10:01.00	14.44	6.61	
2025-01-12 01:10:01.20	14.43	6.62	
2025-01-12 01:10:01.41	14.42	6.64	
2025-01-12 01:10:01.63	14.41	6.65	
2025-01-12 01:10:01.83	14.41	6.67	
2025-01-12 01:10:02.04	14.40	6.68	
2025-01-12 01:10:02.25	14.39	6.70	
2025-01-12 01:10:02.45	14.38	6.71	
2025-01-12 01:10:02.65	14.37	6.73	
2025-01-12 01:10:02.86	14.37	6.74	
2025-01-12 01:10:03.06	14.36	6.76	
2025-01-12 01:10:03.27	14.35	6.77	
2025-01-12 01:10:03.47	14.34	6.79	
2025-01-12 01:10:03.68	14.33	6.80	
2025-01-12 01:10:03.88	14.32	6.82	
2025-01-12 01:10:04.09	14.32	6.83	
2025-01-12 01:10:04.29	14.31	6.85	
2025-01-12 01:10:04.50	14.30	6.86	
2025-01-12 01:10:04.70	14.29	6.88	
2025-01-12 01:10:04.91	14.28	6.89	
2025-01-12 01:10:05.11	14.28	6.91	
2025-01-12 01:10:05.32	14.27	6.92	
2025-01-12 01:10:05.53	14.26	6.94	
2025-01-12 01:10:05.73	14.25	6.95	
2025-01-12 01:10:05.93	14.24	6.97	
2025-01-12 01:10:06.14	14.23	6.98	
2025-01-12 01:10:06.34	14.23	7.00	
2025-01-12 01:10:06.55	14.22	7.02	
2025-01-12 01:10:06.75	14.21	7.03	
2025-01-12 01:10:06.96	14.20	7.05	
2025-01-12 01:10:07.16	14.19	7.06	
2025-01-12 01:10:07.37	14.18	7.08	
2025-01-12 01:10:07.57	14.18	7.09	
2025-01-12 01:10:07.78	14.17	7.11	
2025-01-12 01:10:07.98	14.16	7.12	
2025-01-12 01:10:08.19	14.15	7.14	
2025-01-12 01:10:08.39	14.14	7.15	
2025-01-12 01:10:08.60	14.13	7.17	
2025-01-12 01:10:08.80	14.13	7.18	
2025-01-12 01:10:09.01	14.12	7.20	
2025-01-12 01:10:09.21	14.11	7.21	
2025-01-12 01:10:09.42	14.10	7.23	
2025-01-12 01:10:09.62	14.09	7.24	
2025-01-12 01:10:09.83	14.08	7.26	
2025-01-12 01:10:10.03	14.08	7.28	
2025-01-12 01:10:10.24	14.07	7.29	
2025-01-12 01:10:10.44	14.06	7.31	
2025-01-12 01:10:10.65	14.05	7.32	
2025-01-12 01:10:10.86	14.04	7.34	
2025-01-12 01:10:11.06	14.03	7.35	
2025-01-12 01:10:11.27	14.03	7.37	
2025-01-12 01:10:11.47	14.02	7.38	
2025-01-12 01:10:11.67	14.01	7.40	
2025-01-12 01:10:11.88	14.00	7.41	
2025-01-12 01:10:12.09	13.99	7.43	
2025-01-12 01:10:12.29	13.98	7.45	
2025-01-12 01:10:12.50	13.97	7.46	
2025-01-12 01:10:12.71	13.97	7.48	
2025-01-12 01:10:12.91	13.96	7.49	
2025-01-12 01:10:13.12	13.95	7.51	
2025-01-12 01:10:13.32	13.94	7.52	
2025-01-12 01:10:13.52	13.93	7.54	
2025-01-12 01:10:13.73	13.92	7.55	
2025-01-12 01:10:13.93	13.91	7.57	
2025-01-12 01:10:14.14	13.91	7.59	
2025-01-12 01:10:14.34	13.90	7.60	
2025-01-12 01:10:14.55	13.89	7.62	
2025-01-12 01:10:14.76	13.88	7.63	
2025-01-12 01:10:14.96	13.87	7.65	
2025-01-12 01:10:15.17	13.86	7.66	
2025-01-12 01:10:15.37	13.85	7.68	
2025-01-12 01:10:15.57	13.84	7.69	
2025-01-12 01:10:15.78	13.84	7.71	
2025-01-12 01:10:15.99	13.83	7.73	
2025-01-12 01:10:16.19	13.82	7.74	
2025-01-12 01:10:16.40	13.81	7.76	
2025-01-12 01:10:16.61	13.80	7.77	
2025-01-12 01:10:16.82	13.79	7.79	
2025-01-12 01:10:17.02	13.78	7.81	
2025-01-12 01:10:17.23	13.77	7.82	
2025-01-12 01:10:17.43	13.77	7.84	
2025-01-12 01:10:17.64	13.76	7.85	
2025-01-12 01:10:17.84	13.75	7.87	
2025-01-12 01:10:18.05	13.74	7.88	
2025-01-12 01:10:18.26	13.73	7.90	
2025-01-12 01:10:18.46	13.72	7.92	
2025-01-12 01:10:18.66	13.71	7.93	
2025-01-12 01:10:18.87	13.70	7.95	
2025-01-12 01:10:19.07	13.69	7.96	
2025-01-12 01:10:19.28	13.69	7.98	
2025-01-12 01:10:19.49	13.68	8.00	
2025-01-12 01:10:19.69	13.67	8.01	
2025-01-12 01:10:19.89	13.66	8.03	
2025-01-12 01:10:20.10	13.65	8.04	
2025-01-12 01:10:20.31	13.64	8.06	
2025-01-12 01:10:20.51	13.63	8.07	
2025-01-12 01:10:20.71	13.62	8.09	
2025-01-12 01:10:20.92	13.61	8.11	
2025-01-12 01:10:21.12	13.61	8.12	
2025-01-12 01:10:21.33	13.60	8.14	
2025-01-12 01:10:21.53	13.59	8.15	
2025-01-12 01:10:21.74	13.58	8.17	
2025-01-12 01:10:21.94	13.57	8.19	
2025-01-12 01:10:22.15	13.56	8.20	
2025-01-12 01:10:22.36	13.55	8.22	
2025-01-12 01:10:22.56	13.54	8.23	
2025-01-12 01:10:22.77	13.53	8.25	
2025-01-12 01:10:22.97	13.52	8.27	
2025-01-12 01:10:23.18	13.51	8.28	
2025-01-12 01:10:23.38	13.51	8.30	
2025-01-12 01:10:23.59	13.50	8.31	
2025-01-12 01:10:23.80	13.49	8.33	
2025-01-12 01:10:24.00	13.48	8.35	
2025-01-12 01:10:24.21	13.47	8.36	
2025-01-12 01:10:24.41	13.46	8.38	
2025-01-12 01:10:24.62	13.45	8.39	
2025-01-12 01:10:24.82	13.44	8.41	
2025-01-12 01:10:25.03	13.43	8.43	
2025-01-12 01:10:25.23	13.42	8.44	
2025-01-12 01:10:25.44	13.41	8.46	
2025-01-12 01:10:25.65	13.40	8.47	
2025-01-12 01:10:25.85	13.40	8.49	
2025-01-12 01:10:26.06	13.39	8.51	
2025-01-12 01:10:26.26	13.38	8.52	
2025-01-12 01:10:26.47	13.37	8.54	
2025-01-12 01:10:26.67	13.36	8.55	
2025-01-12 01:10:26.88	13.35	8.57	
2025-01-12 01:10:27.09	13.34	8.59	
2025-01-12 01:10:27.29	13.33	8.60	
2025-01-12 01:10:27.50	13.32	8.62	
2025-01-12 01:10:27.71	13.31	8.64	
2025-01-12 01:10:27.91	13.30	8.65	
2025-01-12 01:10:28.12	13.29	8.67	
2025-01-12 01:10:28.32	13.28	8.69	
2025-01-12 01:10:28.53	13.27	8.70	
2025-01-12 01:10:28.73	13.26	8.72	
2025-01-12 01:10:28.94	13.25	8.73	
2025-01-12 01:10:29.15	13.25	8.75	
2025-01-12 01:10:29.35	13.24	8.77	
2025-01-12 01:10:29.56	13.23	8.78	
2025-01-12 01:10:29.76	13.22	8.80	
2025-01-12 01:10:29.96	13.21	8.82	
2025-01-12 01:10:30.17	13.20	8.83	
2025-01-12 01:10:30.37	13.19	8.85	
2025-01-12 01:10:30.58	13.18	8.86	
2025-01-12 01:10:30.78	13.17	8.88	
2025-01-12 01:10:30.99	13.16	8.90	
2025-01-12 01:10:31.19	13.15	8.91	
2025-01-12 01:10:31.40	13.14	8.93	
2025-01-12 01:10:31.60	13.13	8.95	
2025-01-12 01:10:31.81	13.12	8.96	
2025-01-12 01:10:32.01	13.11	8.98	
2025-01-12 01:10:32.22	13.10	9.00	
2025-01-12 01:10:32.42	13.09	9.01	
2025-01-12 01:10:32.64	13.08	9.03	
2025-01-12 01:10:32.85	13.07	9.05	
2025-01-12 01:10:33.05	13.06	9.06	
2025-01-12 01:10:33.26	13.05	9.08	
2025-01-12 01:10:33.46	13.04	9.09	
2025-01-12 01:10:33.68	13.03	9.11	
2025-01-12 01:10:33.89	13.02	9.13	
2025-01-12 01:10:34.09	13.01	9.15	
2025-01-12 01:10:34.30	13.00	9.16	
2025-01-12 01:10:34.50	13.00	9.18	
2025-01-12 01:10:34.72	12.99	9.20	
2025-01-12 01:10:34.92	12.98	9.21	
2025-01-12 01:10:35.13	12.97	9.23	
2025-01-12 01:10:35.33	12.96	9.25	
2025-01-12 01:10:35.54	12.95	9.26	
2025-01-12 01:10:35.74	12.94	9.28	
2025-01-12 01:10:35.95	12.93	9.30	
2025-01-12 01:10:36.15	12.92	9.31	
2025-01-12 01:10:36.36	12.91	9.33	
2025-01-12 01:10:36.56	12.90	9.34	
2025-01-12 01:10:36.77	12.89	9.36	
2025-01-12 01:10:36.97	12.88	9.38	
2025-01-12 01:10:37.18	12.87	9.40	
2025-01-12 01:10:37.39	12.86	9.41	
2025-01-12 01:10:37.59	12.85	9.43	
2025-01-12 01:10:37.79	12.84	9.44	
2025-01-12 01:10:38.00	12.83	9.46	
2025-01-12 01:10:38.20	12.82	9.48	
2025-01-12 01:10:38.41	12.81	9.50	
2025-01-12 01:10:38.61	12.80	9.51	
2025-01-12 01:10:38.82	12.79	9.53	
2025-01-12 01:10:39.04	12.78	9.55	
2025-01-12 01:10:39.24	12.77	9.56	
2025-01-12 01:10:39.45	12.76	9.58	
2025-01-12 01:10:39.65	12.75	9.60	
2025-01-12 01:10:39.86	12.74	9.61	
2025-01-12 01:10:40.06	12.73	9.63	
2025-01-12 01:10:40.27	12.72	9.65	
2025-01-12 01:10:40.47	12.71	9.66	
2025-01-12 01:10:40.68	12.70	9.68	
2025-01-12 01:10:40.88	12.69	9.70	
2025-01-12 01:10:41.09	12.68	9.71	
2025-01-12 01:10:41.29	12.67	9.73	
2025-01-12 01:10:41.50	12.66	9.75	
2025-01-12 01:10:41.71	12.65	9.77	
2025-01-12 01:10:41.91	12.64	9.78	
2025-01-12 01:10:42.11	12.63	9.80	
2025-01-12 01:10:42.32	12.62	9.82	
2025-01-12 01:10:42.52	12.61	9.83	
2025-01-12 01:10:42.73	12.60	9.85	
2025-01-12 01:10:42.93	12.59	9.87	
2025-01-12 01:10:43.14	12.57	9.88	
2025-01-12 01:10:43.34	12.56	9.90	
2025-01-12 01:10:43.55	12.55	9.92	
2025-01-12 01:10:43.75	12.54	9.93	
2025-01-12 01:10:43.96	12.53	9.95	
2025-01-12 01:10:44.17	12.52	9.97	
2025-01-12 01:10:44.37	12.51	9.99	
2025-01-12 01:10:44.57	12.50	10.00	
2025-01-12 01:10:44.78	12.49	10.02	
2025-01-12 01:10:44.99	12.48	10.04	
2025-01-12 01:10:45.19	12.47	10.05	
2025-01-12 01:10:45.40	12.46	10.07	
2025-01-12 01:10:45.60	12.45	10.09	
2025-01-12 01:10:45.81	12.44	10.10	
2025-01-12 01:10:46.01	12.43	10.12	
2025-01-12 01:10:46.22	12.42	10.14	
2025-01-12 01:10:46.42	12.41	10.16	
2025-01-12 01:10:46.63	12.40	10.17	
2025-01-12 01:10:46.83	12.39	10.19	
2025-01-12 01:10:47.04	12.38	10.21	
2025-01-12 01:10:47.24	12.37	10.22	
2025-01-12 01:10:47.45	12.36	10.24	
2025-01-12 01:10:47.65	12.35	10.26	
2025-01-12 01:10:47.86	12.34	10.28	
2025-01-12 01:10:48.06	12.33	10.29	
2025-01-12 01:10:48.27	12.31	10.31	
2025-01-12 01:10:48.48	12.30	10.33	
2025-01-12 01:10:48.68	12.29	10.35	
2025-01-12 01:10:48.89	12.28	10.36	
2025-01-12 01:10:49.09	12.27	10.38	
2025-01-12 01:10:49.30	12.26	10.40	
2025-01-12 01:10:49.50	12.25	10.41	
2025-01-12 01:10:49.71	12.24	10.43	
2025-01-12 01:10:49.91	12.23	10.45	
2025-01-12 01:10:50.12	12.22	10.47	
2025-01-12 01:10:50.33	12.21	10.48	
2025-01-12 01:10:50.53	12.20	10.50	
2025-01-12 01:10:50.73	12.19	10.52	
2025-01-12 01:10:50.94	12.18	10.54	
2025-01-12 01:10:51.14	12.17	10.55	
2025-01-12 01:10:51.35	12.15	10.57	
2025-01-12 01:10:51.55	12.14	10.59	
2025-01-12 01:10:51.76	12.13	10.61	
2025-01-12 01:10:51.96	12.12	10.62	
2025-01-12 01:10:52.17	12.11	10.64	
2025-01-12 01:10:52.37	12.10	10.66	
2025-01-12 01:10:52.58	12.09	10.68	
2025-01-12 01:10:52.78	12.08	10.69	
2025-01-12 01:10:52.99	12.07	10.71	
2025-01-12 01:10:53.19	12.06	10.73	
2025-01-12 01:10:53.40	12.05	10.75	
2025-01-12 01:10:53.60	12.04	10.76	
2025-01-12 01:10:53.81	12.02	10.78	
2025-01-12 01:10:54.01	12.01	10.80	
2025-01-12 01:10:54.22	12.00	10.82	
2025-01-12 01:10:54.42	11.99	10.83	
2025-01-12 01:10:54.63	11.98	10.85	
2025-01-12 01:10:54.83	11.97	10.87	
2025-01-12 01:10:55.05	11.96	10.89	
2025-01-12 01:10:55.25	11.95	10.90	
2025-01-12 01:10:55.46	11.94	10.92	
2025-01-12 01:10:55.67	11.92	10.94	
2025-01-12 01:10:55.87	11.91	10.96	
2025-01-12 01:10:56.08	11.90	10.97	
2025-01-12 01:10:56.28	11.89	10.99	
2025-01-12 01:10:56.49	11.88	11.01	
2025-01-12 01:10:56.69	11.87	11.03	
2025-01-12 01:10:56.90	11.86	11.05	
2025-01-12 01:10:57.10	11.85	11.06	
2025-01-12 01:10:57.31	11.84	11.08	
2025-01-12 01:10:57.51	11.82	11.10	
2025-01-12 01:10:57.71	11.81	11.12	
2025-01-12 01:10:57.92	11.80	11.13	
2025-01-12 01:10:58.12	11.79	11.15	
2025-01-12 01:10:58.33	11.78	11.17	
2025-01-12 01:10:58.53	11.77	11.19	
2025-01-12 01:10:58.74	11.76	11.20	
2025-01-12 01:10:58.95	11.75	11.22	
2025-01-12 01:10:59.15	11.73	11.24	
2025-01-12 01:10:59.35	11.72	11.26	
2025-01-12 01:10:59.56	11.71	11.28	
2025-01-12 01:10:59.77	11.70	11.29	
2025-01-12 01:10:59.97	11.69	11.31	
2025-01-12 01:11:00.19	11.68	11.33	
2025-01-12 01:11:00.41	11.66	11.35	
2025-01-12 01:11:00.61	11.65	11.37	
2025-01-12 01:11:00.82	11.64	11.39	
2025-01-12 01:11:01.02	11.63	11.40	
2025-01-12 01:11:01.23	11.62	11.42	
2025-01-12 01:11:01.43	11.61	11.44	
2025-01-12 01:11:01.64	11.60	11.46	
2025-01-12 01:11:01.84	11.58	11.48	
2025-01-12 01:11:02.05	11.57	11.49	
2025-01-12 01:11:02.25	11.56	11.51	
2025-01-12 01:11:02.45	11.55	11.53	
2025-01-12 01:11:02.66	11.54	11.55	
2025-01-12 01:11:02.87	11.53	11.57	
2025-01-12 01:11:03.07	11.52	11.58	
2025-01-12 01:11:03.28	11.50	11.60	
2025-01-12 01:11:03.48	11.49	11.62	
2025-01-12 01:11:03.68	11.48	11.64	
2025-01-12 01:11:03.89	11.47	11.66	
2025-01-12 01:11:04.10	11.46	11.67	
2025-01-12 01:11:04.30	11.45	11.69	
2025-01-12 01:11:04.51	11.43	11.71	
2025-01-12 01:11:04.71	11.42	11.73	
2025-01-12 01:11:04.92	11.41	11.75	
2025-01-12 01:11:05.12	11.40	11.76	
2025-01-12 01:11:05.33	11.39	11.78	
2025-01-12 01:11:05.53	11.37	11.80	
2025-01-12 01:11:05.74	11.36	11.82	
2025-01-12 01:11:05.94	11.35	11.84	
2025-01-12 01:11:06.15	11.34	11.86	
2025-01-12 01:11:06.35	11.33	11.87	
2025-01-12 01:11:06.56	11.32	11.89	
2025-01-12 01:11:06.76	11.30	11.91	
2025-01-12 01:11:06.96	11.29	11.93	
2025-01-12 01:11:07.17	11.28	11.95	
2025-01-12 01:11:07.37	11.27	11.96	
2025-01-12 01:11:07.58	11.26	11.98	
2025-01-12 01:11:07.78	11.24	12.00	
2025-01-12 01:11:07.99	11.23	12.02	
2025-01-12 01:11:08.19	11.22	12.04	
2025-01-12 01:11:08.40	11.21	12.06	
2025-01-12 01:11:08.60	11.20	12.07	
2025-01-12 01:11:08.81	11.18	12.09	
2025-01-12 01:11:09.01	11.17	12.11	
2025-01-12 01:11:09.22	11.16	12.13	
2025-01-12 01:11:09.42	11.15	12.15	
2025-01-12 01:11:09.63	11.14	12.17	
2025-01-12 01:11:09.83	11.12	12.19	
2025-01-12 01:11:10.04	11.11	12.20	
2025-01-12 01:11:10.24	11.10	12.22	
2025-01-12 01:11:10.45	11.09	12.24	
2025-01-12 01:11:10.65	11.08	12.26	
2025-01-12 01:11:10.86	11.06	12.28	
2025-01-12 01:11:11.06	11.05	12.30	
2025-01-12 01:11:11.27	11.04	12.32	
2025-01-12 01:11:11.47	11.03	12.33	
2025-01-12 01:11:11.68	11.01	12.35	
2025-01-12 01:11:11.88	11.00	12.37	
2025-01-12 01:11:12.09	10.99	12.39	
2025-01-12 01:11:12.29	10.98	12.41	
2025-01-12 01:11:12.50	10.96	12.43	
2025-01-12 01:11:12.70	10.95	12.44	
2025-01-12 01:11:12.91	10.94	12.46	
2025-01-12 01:11:13.11	10.93	12.48	
2025-01-12 01:11:13.32	10.92	12.50	
2025-01-12 01:11:13.52	10.90	12.52	
2025-01-12 01:11:13.73	10.89	12.54	
2025-01-12 01:11:13.93	10.88	12.56	
2025-01-12 01:11:14.14	10.87	12.58	
2025-01-12 01:11:14.34	10.85	12.59	
2025-01-12 01:11:14.55	10.84	12.61	
2025-01-12 01:11:14.75	10.83	12.63	
2025-01-12 01:11:14.96	10.82	12.65	
2025-01-12 01:11:15.17	10.80	12.67	
2025-01-12 01:11:15.37	10.79	12.69	
2025-01-12 01:11:15.57	10.78	12.71	
2025-01-12 01:11:15.78	10.77	12.73	
2025-01-12 01:11:15.99	10.75	12.75	
2025-01-12 01:11:16.19	10.74	12.76	
2025-01-12 01:11:16.40	10.73	12.78	
2025-01-12 01:11:16.60	10.71	12.80	
2025-01-12 01:11:16.81	10.70	12.82	
2025-01-12 01:11:17.01	10.69	12.84	
2025-01-12 01:11:17.22	10.68	12.86	
2025-01-12 01:11:17.42	10.66	12.88	
2025-01-12 01:11:17.63	10.65	12.90	
2025-01-12 01:11:17.83	10.64	12.92	
2025-01-12 01:11:18.04	10.63	12.93	
2025-01-12 01:11:18.25	10.61	12.95	
2025-01-12 01:11:18.45	10.60	12.97	
2025-01-12 01:11:18.65	10.59	12.99	
2025-01-12 01:11:18.86	10.57	13.01	
2025-01-12 01:11:19.06	10.56	13.03	
2025-01-12 01:11:19.27	10.55	13.05	
2025-01-12 01:11:19.47	10.54	13.07	
2025-01-12 01:11:19.68	10.52	13.09	
2025-01-12 01:11:19.88	10.51	13.11	
2025-01-12 01:11:20.09	10.50	13.12	
2025-01-12 01:11:20.29	10.48	13.14	
2025-01-12 01:11:20.50	10.47	13.16	
2025-01-12 01:11:20.70	10.46	13.18	
2025-01-12 01:11:20.91	10.44	13.20	
2025-01-12 01:11:21.11	10.43	13.22	
2025-01-12 01:11:21.31	10.42	13.24	
2025-01-12 01:11:21.52	10.41	13.26	
2025-01-12 01:11:21.72	10.39	13.28	
2025-01-12 01:11:21.93	10.38	13.30	
2025-01-12 01:11:22.13	10.37	13.32	
2025-01-12 01:11:22.34	10.35	13.34	
2025-01-12 01:11:22.55	10.34	13.36	
2025-01-12 01:11:22.75	10.33	13.37	
2025-01-12 01:11:22.96	10.31	13.39	
2025-01-12 01:11:23.16	10.30	13.41	
2025-01-12 01:11:23.37	10.29	13.43	
2025-01-12 01:11:23.57	10.27	13.45	
2025-01-12 01:11:23.78	10.26	13.47	
2025-01-12 01:11:23.98	10.25	13.49	
2025-01-12 01:11:24.19	10.23	13.51	
2025-01-12 01:11:24.40	10.22	13.53	
2025-01-12 01:11:24.60	10.21	13.55	
2025-01-12 01:11:24.81	10.19	13.57	
2025-01-12 01:11:25.01	10.18	13.59	
2025-01-12 01:11:25.22	10.17	13.61	
2025-01-12 01:11:25.42	10.15	13.63	
2025-01-12 01:11:25.63	10.14	13.65	
2025-01-12 01:11:25.83	10.13	13.67	
2025-01-12 01:11:26.04	10.11	13.69	
2025-01-12 01:11:26.24	10.10	13.70	
2025-01-12 01:11:26.45	10.09	13.72	
2025-01-12 01:11:26.65	10.07	13.74	
2025-01-12 01:11:26.86	10.06	13.76	
2025-01-12 01:11:27.06	10.05	13.78	
2025-01-12 01:11:27.27	10.03	13.80	
2025-01-12 01:11:27.48	10.02	13.82	
2025-01-12 01:11:27.68	10.00	13.84	
2025-01-12 01:11:27.89	9.99	13.86	
2025-01-12 01:11:28.09	9.98	13.88	
2025-01-12 01:11:28.30	9.96	13.90	
2025-01-12 01:11:28.50	9.95	13.92	
2025-01-12 01:11:28.71	9.94	13.94	
2025-01-12 01:11:28.91	9.92	13.96	
2025-01-12 01:11:29.12	9.91	13.98	
2025-01-12 01:11:29.32	9.89	14.00	
2025-01-12 01:11:29.53	9.88	14.02	
2025-01-12 01:11:29.73	9.87	14.04	
2025-01-12 01:11:29.94	9.85	14.06	
2025-01-12 01:11:30.14	9.84	14.08	
2025-01-12 01:11:30.35	9.82	14.10	
2025-01-12 01:11:30.55	9.81	14.12	
2025-01-12 01:11:30.76	9.80	14.14	
2025-01-12 01:11:30.96	9.78	14.16	
2025-01-12 01:11:31.17	9.77	14.18	
2025-01-12 01:11:31.37	9.76	14.20	
2025-01-12 01:11:31.58	9.74	14.22	
2025-01-12 01:11:31.79	9.73	14.24	
2025-01-12 01:11:31.99	9.71	14.26	
2025-01-12 01:11:32.20	9.70	14.28	
2025-01-12 01:11:32.41	9.68	14.30	
2025-01-12 01:11:32.62	9.67	14.32	
2025-01-12 01:11:32.83	9.65	14.34	
2025-01-12 01:11:33.03	9.64	14.36	
2025-01-12 01:11:33.24	9.63	14.38	
2025-01-12 01:11:33.44	9.61	14.40	
2025-01-12 01:11:33.64	9.60	14.42	
2025-01-12 01:11:33.85	9.58	14.44	
2025-01-12 01:11:34.05	9.57	14.46	
2025-01-12 01:11:34.26	9.56	14.48	
2025-01-12 01:11:34.46	9.54	14.50	
2025-01-12 01:11:34.67	9.53	14.52	
2025-01-12 01:11:34.88	9.51	14.54	
2025-01-12 01:11:35.08	9.50	14.56	
2025-01-12 01:11:35.29	9.48	14.58	
2025-01-12 01:11:35.49	9.47	14.60	
2025-01-12 01:11:35.70	9.45	14.62	
2025-01-12 01:11:35.90	9.44	14.64	
2025-01-12 01:11:36.11	9.43	14.66	
2025-01-12 01:11:36.31	9.41	14.68	
2025-01-12 01:11:36.52	9.40	14.70	
2025-01-12 01:11:36.72	9.38	14.72	
2025-01-12 01:11:36.93	9.37	14.74	
2025-01-12 01:11:37.13	9.35	14.76	
2025-01-12 01:11:37.34	9.34	14.78	
2025-01-12 01:11:37.55	9.32	14.80	
2025-01-12 01:11:37.75	9.31	14.82	
2025-01-12 01:11:37.95	9.30	14.84	
2025-01-12 01:11:38.16	9.28	14.86	
2025-01-12 01:11:38.37	9.27	14.88	
2025-01-12 01:11:38.57	9.25	14.90	
2025-01-12 01:11:38.77	9.24	14.92	
2025-01-12 01:11:38.98	9.22	14.95	
2025-01-12 01:11:39.19	9.21	14.97	
2025-01-12 01:11:39.39	9.19	14.99	
2025-01-12 01:11:39.60	9.18	15.01	
2025-01-12 01:11:39.80	9.16	15.03	
2025-01-12 01:11:40.01	9.15	15.05	
2025-01-12 01:11:40.21	9.13	15.07	
2025-01-12 01:11:40.42	9.12	15.09	
2025-01-12 01:11:40.62	9.10	15.11	
2025-01-12 01:11:40.83	9.09	15.13	
2025-01-12 01:11:41.05	9.07	15.15	
2025-01-12 01:11:41.25	9.06	15.17	
2025-01-12 01:11:41.46	9.04	15.19	
2025-01-12 01:11:41.66	9.03	15.21	
2025-01-12 01:11:41.88	9.01	15.24	
2025-01-12 01:11:42.09	8.99	15.26	
2025-01-12 01:11:42.29	8.98	15.28	
2025-01-12 01:11:42.50	8.96	15.30	
2025-01-12 01:11:42.70	8.95	15.32	
2025-01-12 01:11:42.91	8.93	15.34	
2025-01-12 01:11:43.11	8.92	15.36	
2025-01-12 01:11:43.32	8.90	15.38	
2025-01-12 01:11:43.52	8.89	15.40	
2025-01-12 01:11:43.73	8.87	15.42	
2025-01-12 01:11:43.93	8.86	15.44	
2025-01-12 01:11:44.14	8.84	15.46	
2025-01-12 01:11:44.34	8.83	15.48	
2025-01-12 01:11:44.55	8.81	15.51	
2025-01-12 01:11:44.75	8.80	15.53	
2025-01-12 01:11:44.97	8.78	15.55	
2025-01-12 01:11:45.17	8.77	15.57	
2025-01-12 01:11:45.38	8.75	15.59	
2025-01-12 01:11:45.58	8.73	15.61	
2025-01-12 01:11:45.79	8.72	15.63	
2025-01-12 01:11:45.99	8.70	15.65	
2025-01-12 01:11:46.20	8.69	15.67	
2025-01-12 01:11:46.40	8.67	15.69	
2025-01-12 01:11:46.61	8.66	15.72	
2025-01-12 01:11:46.81	8.64	15.74	
2025-01-12 01:11:47.02	8.63	15.76	
2025-01-12 01:11:47.23	8.61	15.78	
2025-01-12 01:11:47.44	8.59	15.80	
2025-01-12 01:11:47.65	8.58	15.82	
2025-01-12 01:11:47.86	8.56	15.84	
2025-01-12 01:11:48.06	8.55	15.86	
2025-01-12 01:11:48.27	8.53	15.89	
2025-01-12 01:11:48.49	8.51	15.91	
2025-01-12 01:11:48.69	8.50	15.93	
2025-01-12 01:11:48.89	8.48	15.95	
2025-01-12 01:11:49.10	8.47	15.97	
2025-01-12 01:11:49.31	8.45	15.99	
2025-01-12 01:11:49.51	8.43	16.01	
2025-01-12 01:11:49.71	8.42	16.04	
2025-01-12 01:11:49.92	8.40	16.06	
2025-01-12 01:11:50.13	8.39	16.08	
2025-01-12 01:11:50.33	8.37	16.10	
2025-01-12 01:11:50.55	8.35	16.12	
2025-01-12 01:11:50.76	8.34	16.14	
2025-01-12 01:11:50.96	8.32	16.17	
2025-01-12 01:11:51.17	8.30	16.19	
2025-01-12 01:11:51.37	8.29	16.21	
2025-01-12 01:11:51.58	8.27	16.23	
2025-01-12 01:11:51.78	8.26	16.25	
2025-01-12 01:11:51.99	8.24	16.27	
2025-01-12 01:11:52.19	8.22	16.29	
2025-01-12 01:11:52.40	8.21	16.32	
2025-01-12 01:11:52.61	8.19	16.34	
2025-01-12 01:11:52.82	8.17	16.36	
2025-01-12 01:11:53.03	8.16	16.38	
2025-01-12 01:11:53.24	8.14	16.40	
2025-01-12 01:11:53.44	8.12	16.42	
2025-01-12 01:11:53.65	8.11	16.45	
2025-01-12 01:11:53.85	8.09	16.47	
2025-01-12 01:11:54.06	8.07	16.49	
2025-01-12 01:11:54.26	8.06	16.51	
2025-01-12 01:11:54.47	8.04	16.53	
2025-01-12 01:11:54.67	8.03	16.55	
2025-01-12 01:11:54.89	8.01	16.58	
2025-01-12 01:11:55.10	7.99	16.60	
2025-01-12 01:11:55.31	7.97	16.62	
2025-01-12 01:11:55.52	7.96	16.64	
2025-01-12 01:11:55.72	7.94	16.67	
2025-01-12 01:11:55.93	7.92	16.69	
2025-01-12 01:11:56.13	7.91	16.71	
2025-01-12 01:11:56.34	7.89	16.73	
2025-01-12 01:11:56.54	7.87	16.75	
2025-01-12 01:11:56.75	7.86	16.77	
2025-01-12 01:11:56.95	7.84	16.80	
2025-01-12 01:11:57.16	7.82	16.82	
2025-01-12 01:11:57.37	7.81	16.84	
2025-01-12 01:11:57.57	7.79	16.86	
2025-01-12 01:11:57.77	7.77	16.88	
2025-01-12 01:11:57.98	7.76	16.91	
2025-01-12 01:11:58.18	7.74	16.93	
2025-01-12 01:11:58.39	7.72	16.95	
2025-01-12 01:11:58.59	7.71	16.97	
2025-01-12 01:11:58.80	7.69	16.99	
2025-01-12 01:11:59.00	7.67	17.01	
2025-01-12 01:11:59.21	7.65	17.04	
2025-01-12 01:11:59.41	7.64	17.06	
2025-01-12 01:11:59.62	7.62	17.08	
2025-01-12 01:11:59.82	7.60	17.10	
2025-01-12 01:12:00.03	7.59	17.13	
2025-01-12 01:12:00.23	7.57	17.15	
2025-01-12 01:12:00.44	7.55	17.17	
2025-01-12 01:12:00.64	7.53	17.19	
2025-01-12 01:12:00.85	7.52	17.21	
2025-01-12 01:12:01.05	7.50	17.24	
2025-01-12 01:12:01.25	7.48	17.26	
2025-01-12 01:12:01.46	7.46	17.28	
2025-01-12 01:12:01.66	7.45	17.30	
2025-01-12 01:12:01.87	7.43	17.32	
2025-01-12 01:12:02.08	7.41	17.35	
2025-01-12 01:12:02.28	7.39	17.37	
2025-01-12 01:12:02.48	7.38	17.39	
2025-01-12 01:12:02.69	7.36	17.41	
2025-01-12 01:12:02.89	7.34	17.44	
2025-01-12 01:12:03.10	7.32	17.46	
2025-01-12 01:12:03.30	7.31	17.48	
2025-01-12 01:12:03.51	7.29	17.50	
2025-01-12 01:12:03.71	7.27	17.52	
2025-01-12 01:12:03.92	7.25	17.55	
2025-01-12 01:12:04.12	7.24	17.57	
2025-01-12 01:12:04.33	7.22	17.59	
2025-01-12 01:12:04.53	7.20	17.61	
2025-01-12 01:12:04.74	7.18	17.64	
2025-01-12 01:12:04.94	7.17	17.66	
2025-01-12 01:12:05.15	7.15	17.68	
2025-01-12 01:12:05.35	7.13	17.70	
2025-01-12 01:12:05.57	7.11	17.73	
2025-01-12 01:12:05.77	7.09	17.75	
2025-01-12 01:12:05.98	7.07	17.77	
2025-01-12 01:12:06.19	7.06	17.80	
2025-01-12 01:12:06.39	7.04	17.82	
2025-01-12 01:12:06.60	7.02	17.84	
2025-01-12 01:12:06.80	7.00	17.86	
2025-01-12 01:12:07.00	6.98	17.89	
2025-01-12 01:12:07.21	6.97	17.91	
2025-01-12 01:12:07.42	6.95	17.93	
2025-01-12 01:12:07.63	6.93	17.96	
2025-01-12 01:12:07.84	6.91	17.98	
2025-01-12 01:12:08.04	6.89	18.00	
2025-01-12 01:12:08.25	6.87	18.03	
2025-01-12 01:12:08.46	6.86	18.05	
2025-01-12 01:12:08.66	6.84	18.07	
2025-01-12 01:12:08.86	6.82	18.09	
2025-01-12 01:12:09.07	6.80	18.12	
2025-01-12 01:12:09.28	6.78	18.14	
2025-01-12 01:12:09.48	6.76	18.16	
2025-01-12 01:12:09.68	6.75	18.18	
2025-01-12 01:12:09.89	6.73	18.21	
2025-01-12 01:12:10.09	6.71	18.23	
2025-01-12 01:12:10.30	6.69	18.25	
2025-01-12 01:12:10.51	6.67	18.28	
2025-01-12 01:12:10.71	6.65	18.30	
2025-01-12 01:12:10.91	6.63	18.32	
2025-01-12 01:12:11.12	6.61	18.35	
2025-01-12 01:12:11.33	6.60	18.37	
2025-01-12 01:12:11.53	6.58	18.39	
2025-01-12 01:12:11.74	6.56	18.42	
2025-01-12 01:12:11.94	6.54	18.44	
2025-01-12 01:12:12.15	6.52	18.46	
2025-01-12 01:12:12.35	6.50	18.48	
2025-01-12 01:12:12.56	6.48	18.51	
2025-01-12 01:12:12.76	6.46	18.53	
2025-01-12 01:12:12.97	6.44	18.55	
2025-01-12 01:12:13.18	6.43	18.58	
2025-01-12 01:12:13.38	6.41	18.60	
2025-01-12 01:12:13.59	6.39	18.62	
2025-01-12 01:12:13.79	6.37	18.65	
2025-01-12 01:12:13.99	6.35	18.67	
2025-01-12 01:12:14.20	6.33	18.69	
2025-01-12 01:12:14.40	6.31	18.72	
2025-01-12 01:12:14.61	6.29	18.74	
2025-01-12 01:12:14.82	6.27	18.76	
2025-01-12 01:12:15.02	6.25	18.79	
2025-01-12 01:12:15.23	6.23	18.81	
2025-01-12 01:12:15.43	6.22	18.83	
2025-01-12 01:12:15.63	6.20	18.86	
2025-01-12 01:12:15.84	6.18	18.88	
2025-01-12 01:12:16.04	6.16	18.90	
2025-01-12 01:12:16.25	6.14	18.93	
2025-01-12 01:12:16.45	6.12	18.95	
2025-01-12 01:12:16.66	6.10	18.98	
2025-01-12 01:12:16.86	6.08	19.00	
2025-01-12 01:12:17.07	6.06	19.02	
2025-01-12 01:12:17.27	6.04	19.05	
2025-01-12 01:12:17.48	6.02	19.07	
2025-01-12 01:12:17.68	6.00	19.09	
2025-01-12 01:12:17.89	5.98	19.12	
2025-01-12 01:12:18.09	5.96	19.14	
2025-01-12 01:12:18.30	5.94	19.16	
2025-01-12 01:12:18.50	5.92	19.19	
2025-01-12 01:12:18.71	5.90	19.21	
2025-01-12 01:12:18.91	5.88	19.23	
2025-01-12 01:12:19.12	5.86	19.26	
2025-01-12 01:12:19.34	5.84	19.28	
2025-01-12 01:12:19.54	5.82	19.31	
2025-01-12 01:12:19.75	5.80	19.33	
2025-01-12 01:12:19.95	5.78	19.36	
2025-01-12 01:12:20.16	5.76	19.38	
2025-01-12 01:12:20.36	5.74	19.40	
2025-01-12 01:12:20.57	5.72	19.43	
2025-01-12 01:12:20.77	5.70	19.45	
2025-01-12 01:12:20.98	5.68	19.48	
2025-01-12 01:12:21.19	5.66	19.50	
2025-01-12 01:12:21.39	5.64	19.52	
2025-01-12 01:12:21.59	5.62	19.55	
2025-01-12 01:12:21.80	5.60	19.57	
2025-01-12 01:12:22.01	5.58	19.60	
2025-01-12 01:12:22.22	5.56	19.62	
2025-01-12 01:12:22.43	5.54	19.65	
2025-01-12 01:12:22.63	5.52	19.67	
2025-01-12 01:12:22.83	5.50	19.69	
2025-01-12 01:12:23.04	5.48	19.72	
2025-01-12 01:12:23.24	5.46	19.74	
2025-01-12 01:12:23.45	5.43	19.77	
2025-01-12 01:12:23.65	5.41	19.79	
2025-01-12 01:12:23.86	5.39	19.81	
2025-01-12 01:12:24.06	5.37	19.84	
2025-01-12 01:12:24.27	5.35	19.86	
2025-01-12 01:12:24.48	5.33	19.89	
2025-01-12 01:12:24.69	5.31	19.91	
2025-01-12 01:12:24.90	5.29	19.94	
2025-01-12 01:12:25.10	5.27	19.96	
2025-01-12 01:12:25.31	5.25	19.99	
2025-01-12 01:12:25.52	5.22	20.01	
2025-01-12 01:12:25.72	5.20	20.03	
2025-01-12 01:12:25.92	5.18	20.06	
2025-01-12 01:12:26.13	5.16	20.08	
2025-01-12 01:12:26.33	5.14	20.11	
2025-01-12 01:12:26.54	5.12	20.13	
2025-01-12 01:12:26.75	5.10	20.16	
2025-01-12 01:12:26.95	5.08	20.18	
2025-01-12 01:12:27.15	5.06	20.21	
2025-01-12 01:12:27.36	5.04	20.23	
2025-01-12 01:12:27.56	5.01	20.25	
2025-01-12 01:12:27.77	4.99	20.28	
2025-01-12 01:12:27.97	4.97	20.30	
2025-01-12 01:12:28.18	4.95	20.33	
2025-01-12 01:12:28.38	4.93	20.35	
2025-01-12 01:12:28.59	4.91	20.38	
2025-01-12 01:12:28.80	4.88	20.40	
2025-01-12 01:12:29.00	4.86	20.43	
2025-01-12 01:12:29.20	4.84	20.45	
2025-01-12 01:12:29.41	4.82	20.48	
2025-01-12 01:12:29.62	4.80	20.50	
2025-01-12 01:12:29.82	4.78	20.53	
2025-01-12 01:12:30.03	4.76	20.55	
2025-01-12 01:12:30.23	4.73	20.58	
2025-01-12 01:12:30.44	4.71	20.60	
2025-01-12 01:12:30.64	4.69	20.63	
2025-01-12 01:12:30.85	4.67	20.65	
2025-01-12 01:12:31.05	4.65	20.68	
2025-01-12 01:12:31.26	4.62	20.70	
2025-01-12 01:12:31.47	4.60	20.73	
2025-01-12 01:12:31.67	4.58	20.75	
2025-01-12 01:12:31.88	4.56	20.78	
2025-01-12 01:12:32.08	4.54	20.80	
2025-01-12 01:12:32.29	4.51	20.83	
2025-01-12 01:12:32.49	4.49	20.85	
2025-01-12 01:12:32.70	4.47	20.88	
2025-01-12 01:12:32.90	4.45	20.90	
2025-01-12 01:12:33.11	4.42	20.93	
2025-01-12 01:12:33.31	4.40	20.95	
2025-01-12 01:12:33.52	4.38	20.98	
2025-01-12 01:12:33.72	4.36	21.00	
2025-01-12 01:12:33.93	4.34	21.03	
2025-01-12 01:12:34.14	4.31	21.05	
2025-01-12 01:12:34.34	4.29	21.08	
2025-01-12 01:12:34.54	4.27	21.10	
2025-01-12 01:12:34.75	4.25	21.13	
2025-01-12 01:12:34.95	4.22	21.15	
2025-01-12 01:12:35.16	4.20	21.18	
2025-01-12 01:12:35.36	4.18	21.20	
2025-01-12 01:12:35.57	4.15	21.23	
2025-01-12 01:12:35.77	4.13	21.25	
2025-01-12 01:12:35.98	4.11	21.28	
2025-01-12 01:12:36.19	4.09	21.31	
2025-01-12 01:12:36.39	4.06	21.33	
2025-01-12 01:12:36.59	4.04	21.36	
2025-01-12 01:12:36.80	4.02	21.38	
2025-01-12 01:12:37.01	3.99	21.41	
2025-01-12 01:12:37.21	3.97	21.43	
2025-01-12 01:12:37.41	3.95	21.46	
2025-01-12 01:12:37.62	3.93	21.48	
2025-01-12 01:12:37.82	3.90	21.51	
2025-01-12 01:12:38.03	3.88	21.54	
2025-01-12 01:12:38.23	3.86	21.56	
2025-01-12 01:12:38.44	3.83	21.59	
2025-01-12 01:12:38.64	3.81	21.61	
2025-01-12 01:12:38.85	3.79	21.64	
2025-01-12 01:12:39.05	3.76	21.66	
2025-01-12 01:12:39.26	3.74	21.69	
2025-01-12 01:12:39.47	3.72	21.72	
2025-01-12 01:12:39.67	3.69	21.74	
2025-01-12 01:12:39.88	3.67	21.77	
2025-01-12 01:12:40.08	3.65	21.79	
2025-01-12 01:12:40.29	3.62	21.82	
2025-01-12 01:12:40.49	3.60	21.84	
2025-01-12 01:12:40.70	3.57	21.87	
2025-01-12 01:12:40.90	3.55	21.90	
2025-01-12 01:12:41.11	3.53	21.92	
2025-01-12 01:12:41.32	3.50	21.95	
2025-01-12 01:12:41.52	3.48	21.97	
2025-01-12 01:12:41.73	3.45	22.00	
2025-01-12 01:12:41.93	3.43	22.03	
2025-01-12 01:12:42.14	3.41	22.05	
2025-01-12 01:12:42.34	3.38	22.08	
2025-01-12 01:12:42.55	3.36	22.11	
2025-01-12 01:12:42.76	3.33	22.13	
2025-01-12 01:12:42.97	3.31	22.16	
2025-01-12 01:12:43.18	3.28	22.19	
2025-01-12 01:12:43.38	3.26	22.21	
2025-01-12 01:12:43.59	3.24	22.24	
2025-01-12 01:12:43.79	3.21	22.26	
2025-01-12 01:12:44.00	3.19	22.29	
2025-01-12 01:12:44.20	3.16	22.32	
2025-01-12 01:12:44.41	3.14	22.34	
2025-01-12 01:12:44.61	3.11	22.37	
2025-01-12 01:12:44.82	3.09	22.40	
2025-01-12 01:12:45.02	3.06	22.42	
2025-01-12 01:12:45.23	3.04	22.45	
2025-01-12 01:12:45.43	3.02	22.47	
2025-01-12 01:12:45.64	2.99	22.50	
2025-01-12 01:12:45.84	2.97	22.53	
2025-01-12 01:12:46.05	2.94	22.55	
2025-01-12 01:12:46.25	2.92	22.58	
2025-01-12 01:12:46.46	2.89	22.61	
2025-01-12 01:12:46.66	2.87	22.63	
2025-01-12 01:12:46.87	2.84	22.66	
2025-01-12 01:12:47.08	2.82	22.69	
2025-01-12 01:12:47.28	2.79	22.71	
2025-01-12 01:12:47.48	2.77	22.74	
2025-01-12 01:12:47.69	2.74	22.77	
2025-01-12 01:12:47.89	2.72	22.79	
2025-01-12 01:12:48.10	2.69	22.82	
2025-01-12 01:12:48.32	2.66	22.85	
2025-01-12 01:12:48.52	2.64	22.87	
2025-01-12 01:12:48.73	2.61	22.90	
2025-01-12 01:12:48.93	2.59	22.93	
2025-01-12 01:12:49.14	2.56	22.95	
2025-01-12 01:12:49.34	2.54	22.98	
2025-01-12 01:12:49.55	2.51	23.01	
2025-01-12 01:12:49.75	2.49	23.03	
2025-01-12 01:12:49.96	2.46	23.06	
2025-01-12 01:12:50.17	2.43	23.09	
2025-01-12 01:12:50.38	2.41	23.12	
2025-01-12 01:12:50.59	2.38	23.14	
2025-01-12 01:12:50.79	2.35	23.17	
2025-01-12 01:12:51.00	2.33	23.20	
2025-01-12 01:12:51.20	2.30	23.22	
2025-01-12 01:12:51.41	2.28	23.25	
2025-01-12 01:12:51.61	2.25	23.28	
2025-01-12 01:12:51.82	2.22	23.31	
2025-01-12 01:12:52.02	2.20	23.33	
2025-01-12 01:12:52.23	2.17	23.36	
2025-01-12 01:12:52.43	2.15	23.39	
2025-01-12 01:12:52.64	2.12	23.41	
2025-01-12 01:12:52.84	2.09	23.44	
2025-01-12 01:12:53.05	2.07	23.47	
2025-01-12 01:12:53.25	2.04	23.50	
2025-01-12 01:12:53.46	2.01	23.52	
2025-01-12 01:12:53.66	1.99	23.55	
2025-01-12 01:12:53.87	1.96	23.58	
2025-01-12 01:12:54.08	1.93	23.61	
2025-01-12 01:12:54.28	1.91	23.63	
2025-01-12 01:12:54.49	1.88	23.66	
2025-01-12 01:12:54.69	1.85	23.69	
2025-01-12 01:12:54.90	1.83	23.72	
2025-01-12 01:12:55.11	1.80	23.74	
2025-01-12 01:12:55.32	1.77	23.77	
2025-01-12 01:12:55.52	1.75	23.80	
2025-01-12 01:12:55.72	1.72	23.82	
2025-01-12 01:12:55.93	1.69	23.85	
2025-01-12 01:12:56.14	1.66	23.88	
2025-01-12 01:12:56.34	1.64	23.91	
2025-01-12 01:12:56.55	1.61	23.94	
2025-01-12 01:12:56.75	1.58	23.96	
2025-01-12 01:12:56.96	1.56	23.99	
2025-01-12 01:12:57.16	1.53	24.02	
2025-01-12 01:12:57.37	1.50	24.05	
2025-01-12 01:12:57.57	1.47	24.07	
2025-01-12 01:12:57.78	1.45	24.10	
2025-01-12 01:12:57.98	1.42	24.13	
2025-01-12 01:12:58.19	1.39	24.16	
2025-01-12 01:12:58.39	1.36	24.18	
2025-01-12 01:12:58.60	1.34	24.21	
2025-01-12 01:12:58.81	1.31	24.24	
2025-01-12 01:12:59.01	1.28	24.27	
2025-01-12 01:12:59.21	1.25	24.30	
2025-01-12 01:12:59.42	1.22	24.32	
2025-01-12 01:12:59.62	1.20	24.35	
2025-01-12 01:12:59.83	1.17	24.38	
2025-01-12 01:13:00.03	1.14	24.41	
2025-01-12 01:13:00.24	1.11	24.44	
2025-01-12 01:13:00.45	1.08	24.46	
2025-01-12 01:13:00.65	1.06	24.49	
2025-01-12 01:13:00.86	1.03	24.52	
2025-01-12 01:13:01.06	1.00	24.55	
2025-01-12 01:13:01.27	0.97	24.58	
2025-01-12 01:13:01.47	0.94	24.60	
2025-01-12 01:13:01.68	0.91	24.63	
2025-01-12 01:13:01.88	0.89	24.66	
2025-01-12 01:13:02.09	0.86	24.69	
2025-01-12 01:13:02.29	0.83	24.72	
2025-01-12 01:13:02.50	0.80	24.75	
2025-01-12 01:13:02.70	0.77	24.77	
2025-01-12 01:13:02.91	0.74	24.80	
2025-01-12 01:13:03.11	0.71	24.83	
2025-01-12 01:13:03.31	0.69	24.86	
2025-01-12 01:13:03.52	0.66	24.89	
2025-01-12 01:13:03.73	0.63	24.91	
2025-01-12 01:13:03.93	0.60	24.94	
2025-01-12 01:13:04.14	0.57	24.97	
2025-01-12 01:13:04.34	0.54	25.00	
2025-01-12 01:13:04.55	0.51	25.03	
2025-01-12 01:13:04.75	0.48	25.06	
2025-01-12 01:13:04.96	0.45	25.09	
2025-01-12 01:13:05.16	0.42	25.11	
2025-01-12 01:13:05.37	0.39	25.14	
2025-01-12 01:13:05.57	0.37	25.17	
2025-01-12 01:13:05.78	0.33	25.20	
2025-01-12 01:13:05.98	0.31	25.23	
2025-01-12 01:13:06.19	0.28	25.26	
2025-01-12 01:13:06.41	0.24	25.29	
2025-01-12 01:13:06.61	0.21	25.31	
2025-01-12 01:13:06.82	0.18	25.34	
2025-01-12 01:13:07.02	0.16	25.37	
2025-01-12 01:13:07.23	0.12	25.40	
2025-01-12 01:13:07.43	0.10	25.43	
2025-01-12 01:13:07.64	0.06	25.46	
2025-01-12 01:13:07.84	0.04	25.49	
2025-01-12 01:13:08.05	0.00	25.52	
2025-01-12 01:13:08.25	359.98	25.54	
2025-01-12 01:13:08.47	359.94	25.58	
2025-01-12 01:13:08.67	359.91	25.60	
2025-01-12 01:13:08.88	359.88	25.63	
2025-01-12 01:13:09.08	359.85	25.66	
2025-01-12 01:13:09.29	359.82	25.69	
2025-01-12 01:13:09.49	359.79	25.72	
2025-01-12 01:13:09.70	359.76	25.75	
2025-01-12 01:13:09.91	359.73	25.78	
2025-01-12 01:13:10.12	359.70	25.81	
2025-01-12 01:13:10.32	359.67	25.84	
2025-01-12 01:13:10.53	359.64	25.87	
2025-01-12 01:13:10.74	359.60	25.90	
2025-01-12 01:13:10.94	359.57	25.92	
2025-01-12 01:13:11.15	359.54	25.95	
2025-01-12 01:13:11.35	359.51	25.98	
2025-01-12 01:13:11.56	359.48	26.01	
2025-01-12 01:13:11.76	359.45	26.04	
2025-01-12 01:13:11.96	359.42	26.07	
2025-01-12 01:13:12.17	359.39	26.10	
2025-01-12 01:13:12.38	359.36	26.13	
2025-01-12 01:13:12.58	359.33	26.16	
2025-01-12 01:13:12.79	359.29	26.19	
2025-01-12 01:13:12.99	359.26	26.22	
2025-01-12 01:13:13.20	359.23	26.25	
2025-01-12 01:13:13.40	359.20	26.28	
2025-01-12 01:13:13.61	359.17	26.31	
2025-01-12 01:13:13.81	359.14	26.33	
2025-01-12 01:13:14.02	359.10	26.36	
2025-01-12 01:13:14.22	359.07	26.39	
2025-01-12 01:13:14.43	359.04	26.42	
2025-01-12 01:13:14.63	359.01	26.45	
2025-01-12 01:13:14.84	358.98	26.48	
2025-01-12 01:13:15.04	358.94	26.51	
2025-01-12 01:13:15.25	358.91	26.54	
2025-01-12 01:13:15.46	358.88	26.57	
2025-01-12 01:13:15.66	358.85	26.60	
2025-01-12 01:13:15.87	358.81	26.63	
2025-01-12 01:13:16.07	358.78	26.66	
2025-01-12 01:13:16.28	358.75	26.69	
2025-01-12 01:13:16.48	358.72	26.72	
2025-01-12 01:13:16.69	358.68	26.75	
2025-01-12 01:13:16.89	358.65	26.78	
2025-01-12 01:13:17.10	358.62	26.81	
2025-01-12 01:13:17.30	358.59	26.84	
2025-01-12 01:13:17.51	358.55	26.87	
2025-01-12 01:13:17.71	358.52	26.90	
2025-01-12 01:13:17.92	358.49	26.93	
2025-01-12 01:13:18.12	358.45	26.96	
2025-01-12 01:13:18.33	358.42	26.99	
2025-01-12 01:13:18.53	358.39	27.02	
2025-01-12 01:13:18.74	358.35	27.05	
2025-01-12 01:13:18.95	358.32	27.08	
2025-01-12 01:13:19.15	358.29	27.11	
2025-01-12 01:13:19.36	358.25	27.14	
2025-01-12 01:13:19.56	358.22	27.17	
2025-01-12 01:13:19.77	358.19	27.20	
2025-01-12 01:13:19.97	358.15	27.23	
2025-01-12 01:13:20.18	358.12	27.26	
2025-01-12 01:13:20.40	358.08	27.29	
2025-01-12 01:13:20.60	358.05	27.32	
2025-01-12 01:13:20.81	358.02	27.35	
2025-01-12 01:13:21.01	357.98	27.38	
2025-01-12 01:13:21.22	357.95	27.41	
2025-01-12 01:13:21.43	357.91	27.44	
2025-01-12 01:13:21.63	357.88	27.47	
2025-01-12 01:13:21.84	357.84	27.50	
2025-01-12 01:13:22.04	357.81	27.53	
2025-01-12 01:13:22.25	357.78	27.57	
2025-01-12 01:13:22.45	357.74	27.59	
2025-01-12 01:13:22.66	357.71	27.63	
2025-01-12 01:13:22.86	357.67	27.66	
2025-01-12 01:13:23.07	357.64	27.69	
2025-01-12 01:13:23.27	357.60	27.72	
2025-01-12 01:13:23.47	357.57	27.75	
2025-01-12 01:13:23.68	357.53	27.78	
2025-01-12 01:13:23.89	357.50	27.81	
2025-01-12 01:13:24.09	357.46	27.84	
2025-01-12 01:13:24.30	357.43	27.87	
2025-01-12 01:13:24.50	357.39	27.90	
2025-01-12 01:13:24.72	357.36	27.93	
2025-01-12 01:13:24.93	357.32	27.96	
2025-01-12 01:13:25.13	357.29	27.99	
2025-01-12 01:13:25.34	357.25	28.03	
2025-01-12 01:13:25.54	357.22	28.05	
2025-01-12 01:13:25.75	357.18	28.09	
2025-01-12 01:13:25.95	357.14	28.12	
2025-01-12 01:13:26.16	357.11	28.15	
2025-01-12 01:13:26.36	357.07	28.18	
2025-01-12 01:13:26.57	357.04	28.21	
2025-01-12 01:13:26.79	357.00	28.24	
2025-01-12 01:13:26.99	356.96	28.27	
2025-01-12 01:13:27.20	356.93	28.30	
2025-01-12 01:13:27.40	356.89	28.33	
2025-01-12 01:13:27.61	356.85	28.37	
2025-01-12 01:13:27.81	356.82	28.40	
2025-01-12 01:13:28.02	356.78	28.43	
2025-01-12 01:13:28.22	356.75	28.46	
2025-01-12 01:13:28.43	356.71	28.49	
2025-01-12 01:13:28.63	356.67	28.52	
2025-01-12 01:13:28.84	356.64	28.55	
2025-01-12 01:13:29.04	356.60	28.58	
2025-01-12 01:13:29.25	356.56	28.61	
2025-01-12 01:13:29.45	356.53	28.64	
2025-01-12 01:13:29.66	356.49	28.68	
2025-01-12 01:13:29.86	356.45	28.71	
2025-01-12 01:13:30.07	356.42	28.74	
2025-01-12 01:13:30.27	356.38	28.77	
2025-01-12 01:13:30.48	356.34	28.80	
2025-01-12 01:13:30.68	356.30	28.83	
2025-01-12 01:13:30.89	356.27	28.86	
2025-01-12 01:13:31.09	356.23	28.89	
2025-01-12 01:13:31.30	356.19	28.93	
2025-01-12 01:13:31.50	356.15	28.96	
2025-01-12 01:13:31.71	356.12	28.99	
2025-01-12 01:13:31.91	356.08	29.02	
2025-01-12 01:13:32.12	356.04	29.05	
2025-01-12 01:13:32.32	356.00	29.08	
2025-01-12 01:13:32.53	355.97	29.11	
2025-01-12 01:13:32.74	355.93	29.15	
2025-01-12 01:13:32.94	355.89	29.18	
2025-01-12 01:13:33.16	355.85	29.21	
2025-01-12 01:13:33.36	355.81	29.24	
2025-01-12 01:13:33.57	355.77	29.27	
2025-01-12 01:13:33.78	355.73	29.31	
2025-01-12 01:13:33.98	355.70	29.34	
2025-01-12 01:13:34.19	355.66	29.37	
2025-01-12 01:13:34.39	355.62	29.40	
2025-01-12 01:13:34.60	355.58	29.43	
2025-01-12 01:13:34.81	355.54	29.46	
2025-01-12 01:13:35.01	355.50	29.50	
2025-01-12 01:13:35.21	355.46	29.53	
2025-01-12 01:13:35.42	355.42	29.56	
2025-01-12 01:13:35.63	355.38	29.59	
2025-01-12 01:13:35.83	355.35	29.62	
2025-01-12 01:13:36.04	355.31	29.66	
2025-01-12 01:13:36.24	355.27	29.69	
2025-01-12 01:13:36.45	355.23	29.72	
2025-01-12 01:13:36.65	355.19	29.75	
2025-01-12 01:13:36.86	355.15	29.78	
2025-01-12 01:13:37.07	355.11	29.82	
2025-01-12 01:13:37.27	355.07	29.85	
2025-01-12 01:13:37.47	355.03	29.88	
2025-01-12 01:13:37.68	354.99	29.91	
2025-01-12 01:13:37.88	354.95	29.94	
2025-01-12 01:13:38.09	354.91	29.97	
2025-01-12 01:13:38.30	354.87	30.01	
2025-01-12 01:13:38.50	354.83	30.04	
2025-01-12 01:13:38.71	354.79	30.07	
2025-01-12 01:13:38.91	354.75	30.10	
2025-01-12 01:13:39.12	354.71	30.13	
2025-01-12 01:13:39.32	354.67	30.17	
2025-01-12 01:13:39.53	354.63	30.20	
2025-01-12 01:13:39.75	354.58	30.23	
2025-01-12 01:13:39.95	354.54	30.26	
2025-01-12 01:13:40.16	354.50	30.30	
2025-01-12 01:13:40.36	354.46	30.33	
2025-01-12 01:13:40.56	354.42	30.36	
2025-01-12 01:13:40.77	354.38	30.39	
2025-01-12 01:13:40.97	354.34	30.43	
2025-01-12 01:13:41.18	354.30	30.46	
2025-01-12 01:13:41.39	354.25	30.49	
2025-01-12 01:13:41.59	354.21	30.52	
2025-01-12 01:13:41.79	354.17	30.55	
2025-01-12 01:13:42.00	354.13	30.59	
2025-01-12 01:13:42.20	354.09	30.62	
2025-01-12 01:13:42.41	354.05	30.65	
2025-01-12 01:13:42.62	354.00	30.69	
2025-01-12 01:13:42.82	353.96	30.72	
2025-01-12 01:13:43.03	353.92	30.75	
2025-01-12 01:13:43.23	353.88	30.78	
2025-01-12 01:13:43.43	353.84	30.81	
2025-01-12 01:13:43.64	353.79	30.85	
2025-01-12 01:13:43.84	353.75	30.88	
2025-01-12 01:13:44.05	353.71	30.91	
2025-01-12 01:13:44.26	353.67	30.95	
2025-01-12 01:13:44.46	353.62	30.98	
2025-01-12 01:13:44.67	353.58	31.01	
2025-01-12 01:13:44.87	353.54	31.04	
2025-01-12 01:13:45.08	353.50	31.08	
2025-01-12 01:13:45.28	353.45	31.11	
2025-01-12 01:13:45.49	353.41	31.14	
2025-01-12 01:13:45.69	353.37	31.17	
2025-01-12 01:13:45.90	353.32	31.21	
2025-01-12 01:13:46.10	353.28	31.24	
2025-01-12 01:13:46.31	353.24	31.27	
2025-01-12 01:13:46.51	353.19	31.30	
2025-01-12 01:13:46.72	353.15	31.34	
2025-01-12 01:13:46.92	353.11	31.37	
2025-01-12 01:13:47.13	353.06	31.40	
2025-01-12 01:13:47.33	353.02	31.43	
2025-01-12 01:13:47.54	352.97	31.47	
2025-01-12 01:13:47.74	352.93	31.50	
2025-01-12 01:13:47.95	352.89	31.53	
2025-01-12 01:13:48.15	352.84	31.57	
2025-01-12 01:13:48.36	352.80	31.60	
2025-01-12 01:13:48.56	352.75	31.63	
2025-01-12 01:13:48.77	352.71	31.67	
2025-01-12 01:13:48.97	352.67	31.70	
2025-01-12 01:13:49.19	352.62	31.73	
2025-01-12 01:13:49.39	352.57	31.77	
2025-01-12 01:13:49.60	352.53	31.80	
2025-01-12 01:13:49.81	352.48	31.83	
2025-01-12 01:13:50.01	352.44	31.87	
2025-01-12 01:13:50.22	352.39	31.90	
2025-01-12 01:13:50.42	352.35	31.93	
2025-01-12 01:13:50.63	352.30	31.97	
2025-01-12 01:13:50.83	352.26	32.00	
2025-01-12 01:13:51.04	352.21	32.03	
2025-01-12 01:13:51.24	352.17	32.06	
2025-01-12 01:13:51.45	352.12	32.10	
2025-01-12 01:13:51.65	352.07	32.13	
2025-01-12 01:13:51.86	352.03	32.16	
2025-01-12 01:13:52.07	351.98	32.20	
2025-01-12 01:13:52.27	351.94	32.23	
2025-01-12 01:13:52.47	351.89	32.26	
2025-01-12 01:13:52.68	351.84	32.30	
2025-01-12 01:13:52.88	351.80	32.33	
2025-01-12 01:13:53.09	351.75	32.36	
2025-01-12 01:13:53.29	351.70	32.40	
2025-01-12 01:13:53.50	351.66	32.43	
2025-01-12 01:13:53.70	351.61	32.46	
2025-01-12 01:13:53.91	351.56	32.50	
2025-01-12 01:13:54.11	351.52	32.53	
2025-01-12 01:13:54.32	351.47	32.56	
2025-01-12 01:13:54.52	351.42	32.60	
2025-01-12 01:13:54.73	351.37	32.63	
2025-01-12 01:13:54.93	351.33	32.66	
2025-01-12 01:13:55.14	351.28	32.70	
2025-01-12 01:13:55.34	351.23	32.73	
2025-01-12 01:13:55.56	351.18	32.77	
2025-01-12 01:13:55.77	351.13	32.80	
2025-01-12 01:13:55.97	351.09	32.83	
2025-01-12 01:13:56.18	351.04	32.87	
2025-01-12 01:13:56.38	350.99	32.90	
2025-01-12 01:13:56.59	350.94	32.93	
2025-01-12 01:13:56.79	350.89	32.97	
2025-01-12 01:13:57.00	350.84	33.00	
2025-01-12 01:13:57.20	350.80	33.03	
2025-01-12 01:13:57.41	350.75	33.07	
2025-01-12 01:13:57.61	350.70	33.10	
2025-01-12 01:13:57.82	350.65	33.14	
2025-01-12 01:13:58.02	350.60	33.17	
2025-01-12 01:13:58.23	350.55	33.20	
2025-01-12 01:13:58.44	350.50	33.24	
2025-01-12 01:13:58.64	350.45	33.27	
2025-01-12 01:13:58.86	350.40	33.31	
2025-01-12 01:13:59.07	350.35	33.34	
2025-01-12 01:13:59.27	350.30	33.37	
2025-01-12 01:13:59.48	350.25	33.41	
2025-01-12 01:13:59.68	350.20	33.44	
2025-01-12 01:13:59.89	350.15	33.48	
2025-01-12 01:14:00.09	350.10	33.51	
2025-01-12 01:14:00.30	350.05	33.54	
2025-01-12 01:14:00.50	350.00	33.58	
2025-01-12 01:14:00.70	349.95	33.61	
2025-01-12 01:14:00.91	349.90	33.64	
2025-01-12 01:14:01.12	349.85	33.68	
2025-01-12 01:14:01.32	349.80	33.71	
2025-01-12 01:14:01.53	349.75	33.75	
2025-01-12 01:14:01.73	349.70	33.78	
2025-01-12 01:14:01.94	349.65	33.81	
2025-01-12 01:14:02.14	349.60	33.85	
2025-01-12 01:14:02.35	349.55	33.88	
2025-01-12 01:14:02.55	349.50	33.92	
2025-01-12 01:14:02.76	349.44	33.95	
2025-01-12 01:14:02.96	349.39	33.98	
2025-01-12 01:14:03.16	349.34	34.02	
2025-01-12 01:14:03.37	349.29	34.05	
2025-01-12 01:14:03.58	349.24	34.09	
2025-01-12 01:14:03.78	349.19	34.12	
2025-01-12 01:14:03.99	349.13	34.15	
2025-01-12 01:14:04.19	349.08	34.19	
2025-01-12 01:14:04.40	349.03	34.22	
2025-01-12 01:14:04.60	348.98	34.26	
2025-01-12 01:14:04.81	348.93	34.29	
2025-01-12 01:14:05.01	348.87	34.32	
2025-01-12 01:14:05.22	348.82	34.36	
2025-01-12 01:14:05.42	348.77	34.39	
2025-01-12 01:14:05.63	348.71	34.43	
2025-01-12 01:14:05.83	348.66	34.46	
2025-01-12 01:14:06.04	348.61	34.49	
2025-01-12 01:14:06.24	348.56	34.53	
2025-01-12 01:14:06.45	348.50	34.56	
2025-01-12 01:14:06.65	348.45	34.60	
2025-01-12 01:14:06.86	348.40	34.63	
2025-01-12 01:14:07.06	348.34	34.66	
2025-01-12 01:14:07.27	348.29	34.70	
2025-01-12 01:14:07.47	348.24	34.73	
2025-01-12 01:14:07.68	348.18	34.77	
2025-01-12 01:14:07.88	348.13	34.80	
2025-01-12 01:14:08.09	348.07	34.84	
2025-01-12 01:14:08.29	348.02	34.87	
2025-01-12 01:14:08.50	347.96	34.90	
2025-01-12 01:14:08.70	347.91	34.94	
2025-01-12 01:14:08.91	347.85	34.97	
2025-01-12 01:14:09.11	347.80	35.01	
2025-01-12 01:14:09.32	347.74	35.04	
2025-01-12 01:14:09.52	347.69	35.07	
2025-01-12 01:14:09.73	347.63	35.11	
2025-01-12 01:14:09.94	347.58	35.14	
2025-01-12 01:14:10.14	347.52	35.18	
2025-01-12 01:14:10.35	347.47	35.21	
2025-01-12 01:14:10.55	347.41	35.25	
2025-01-12 01:14:10.76	347.36	35.28	
2025-01-12 01:14:10.97	347.30	35.32	
2025-01-12 01:14:11.17	347.24	35.35	
2025-01-12 01:14:11.38	347.19	35.39	
2025-01-12 01:14:11.58	347.13	35.42	
2025-01-12 01:14:11.78	347.08	35.45	
2025-01-12 01:14:11.99	347.02	35.49	
2025-01-12 01:14:12.19	346.96	35.52	
2025-01-12 01:14:12.40	346.91	35.56	
2025-01-12 01:14:12.60	346.85	35.59	
2025-01-12 01:14:12.81	346.79	35.62	
2025-01-12 01:14:13.01	346.74	35.66	
2025-01-12 01:14:13.22	346.68	35.69	
2025-01-12 01:14:13.42	346.62	35.73	
2025-01-12 01:14:13.63	346.56	35.76	
2025-01-12 01:14:13.85	346.50	35.80	
2025-01-12 01:14:14.05	346.44	35.83	
2025-01-12 01:14:14.26	346.39	35.87	
2025-01-12 01:14:14.46	346.33	35.90	
2025-01-12 01:14:14.67	346.27	35.94	
2025-01-12 01:14:14.87	346.21	35.97	
2025-01-12 01:14:15.08	346.15	36.00	
2025-01-12 01:14:15.29	346.09	36.04	
2025-01-12 01:14:15.49	346.04	36.07	
2025-01-12 01:14:15.70	345.98	36.11	
2025-01-12 01:14:15.90	345.92	36.14	
2025-01-12 01:14:16.11	345.86	36.18	
2025-01-12 01:14:16.31	345.80	36.21	
2025-01-12 01:14:16.52	345.74	36.25	
2025-01-12 01:14:16.72	345.68	36.28	
2025-01-12 01:14:16.93	345.62	36.31	
2025-01-12 01:14:17.13	345.56	36.35	
2025-01-12 01:14:17.34	345.50	36.38	
2025-01-12 01:14:17.55	345.44	36.42	
2025-01-12 01:14:17.75	345.38	36.45	
2025-01-12 01:14:17.95	345.32	36.49	
2025-01-12 01:14:18.16	345.26	36.52	
2025-01-12 01:14:18.37	345.20	36.56	
2025-01-12 01:14:18.57	345.14	36.59	
2025-01-12 01:14:18.78	345.08	36.63	
2025-01-12 01:14:18.98	345.02	36.66	
2025-01-12 01:14:19.19	344.96	36.69	
2025-01-12 01:14:19.39	344.90	36.73	
2025-01-12 01:14:19.60	344.84	36.76	
2025-01-12 01:14:19.80	344.78	36.80	
2025-01-12 01:14:20.01	344.71	36.83	
2025-01-12 01:14:20.22	344.65	36.87	
2025-01-12 01:14:20.43	344.59	36.90	
2025-01-12 01:14:20.64	344.52	36.94	
2025-01-12 01:14:20.84	344.46	36.97	
2025-01-12 01:14:21.05	344.40	37.01	
2025-01-12 01:14:21.25	344.34	37.04	
2025-01-12 01:14:21.46	344.28	37.07	
2025-01-12 01:14:21.66	344.22	37.11	
2025-01-12 01:14:21.87	344.15	37.14	
2025-01-12 01:14:22.07	344.09	37.18	
2025-01-12 01:14:22.29	344.02	37.21	
2025-01-12 01:14:22.50	343.96	37.25	
2025-01-12 01:14:22.70	343.90	37.28	
2025-01-12 01:14:22.91	343.83	37.32	
2025-01-12 01:14:23.11	343.77	37.35	
2025-01-12 01:14:23.32	343.71	37.39	
2025-01-12 01:14:23.52	343.64	37.42	
2025-01-12 01:14:23.73	343.58	37.45	
2025-01-12 01:14:23.93	343.52	37.49	
2025-01-12 01:14:24.14	343.45	37.52	
2025-01-12 01:14:24.35	343.38	37.56	
2025-01-12 01:14:24.56	343.32	37.59	
2025-01-12 01:14:24.77	343.25	37.63	
2025-01-12 01:14:24.97	343.19	37.66	
2025-01-12 01:14:25.18	343.12	37.70	
2025-01-12 01:14:25.38	343.06	37.73	
2025-01-12 01:14:25.59	342.99	37.77	
2025-01-12 01:14:25.79	342.93	37.80	
2025-01-12 01:14:25.99	342.87	37.83	
2025-01-12 01:14:26.20	342.80	37.87	
2025-01-12 01:14:26.41	342.73	37.90	
2025-01-12 01:14:26.61	342.67	37.94	
2025-01-12 01:14:26.81	342.60	37.97	
2025-01-12 01:14:27.02	342.54	38.00	
2025-01-12 01:14:27.23	342.47	38.04	
2025-01-12 01:14:27.43	342.40	38.07	
2025-01-12 01:14:27.64	342.34	38.11	
2025-01-12 01:14:27.84	342.27	38.14	
2025-01-12 01:14:28.05	342.20	38.18	
2025-01-12 01:14:28.25	342.14	38.21	
2025-01-12 01:14:28.46	342.07	38.24	
2025-01-12 01:14:28.66	342.00	38.28	
2025-01-12 01:14:28.87	341.93	38.31	
2025-01-12 01:14:29.07	341.87	38.35	
2025-01-12 01:14:29.28	341.80	38.38	
2025-01-12 01:14:29.48	341.73	38.41	
2025-01-12 01:14:29.69	341.66	38.45	
2025-01-12 01:14:29.89	341.60	38.48	
2025-01-12 01:14:30.10	341.53	38.52	
2025-01-12 01:14:30.30	341.46	38.55	
2025-01-12 01:14:30.51	341.39	38.59	
2025-01-12 01:14:30.71	341.32	38.62	
2025-01-12 01:14:30.92	341.25	38.65	
2025-01-12 01:14:31.12	341.19	38.69	
2025-01-12 01:14:31.33	341.12	38.72	
2025-01-12 01:14:31.53	341.05	38.75	
2025-01-12 01:14:31.74	340.98	38.79	
2025-01-12 01:14:31.94	340.91	38.82	
2025-01-12 01:14:32.15	340.84	38.86	
2025-01-12 01:14:32.36	340.77	38.89	
2025-01-12 01:14:32.56	340.70	38.92	
2025-01-12 01:14:32.77	340.63	38.96	
2025-01-12 01:14:32.98	340.56	38.99	
2025-01-12 01:14:33.18	340.49	39.03	
2025-01-12 01:14:33.39	340.42	39.06	
2025-01-12 01:14:33.59	340.35	39.09	
2025-01-12 01:14:33.80	340.27	39.13	
2025-01-12 01:14:34.00	340.21	39.16	
2025-01-12 01:14:34.21	340.13	39.20	
2025-01-12 01:14:34.41	340.06	39.23	
2025-01-12 01:14:34.62	339.99	39.26	
2025-01-12 01:14:34.82	339.92	39.30	
2025-01-12 01:14:35.03	339.85	39.33	
2025-01-12 01:14:35.23	339.78	39.36	
2025-01-12 01:14:35.44	339.70	39.40	
2025-01-12 01:14:35.64	339.63	39.43	
2025-01-12 01:14:35.85	339.56	39.47	
2025-01-12 01:14:36.05	339.49	39.50	
2025-01-12 01:14:36.26	339.41	39.53	
2025-01-12 01:14:36.46	339.34	39.57	
2025-01-12 01:14:36.67	339.27	39.60	
2025-01-12 01:14:36.88	339.19	39.63	
2025-01-12 01:14:37.08	339.12	39.67	
2025-01-12 01:14:37.28	339.05	39.70	
2025-01-12 01:14:37.49	338.98	39.73	
2025-01-12 01:14:37.70	338.90	39.77	
2025-01-12 01:14:37.90	338.83	39.80	
2025-01-12 01:14:38.11	338.75	39.84	
2025-01-12 01:14:38.33	338.67	39.87	
2025-01-12 01:14:38.53	338.60	39.90	
2025-01-12 01:14:38.74	338.52	39.94	
2025-01-12 01:14:38.94	338.45	39.97	
2025-01-12 01:14:39.15	338.38	40.00	
2025-01-12 01:14:39.35	338.30	40.04	
2025-01-12 01:14:39.56	338.23	40.07	
2025-01-12 01:14:39.76	338.15	40.10	
2025-01-12 01:14:39.97	338.07	40.14	
2025-01-12 01:14:40.17	338.00	40.17	
2025-01-12 01:14:40.38	337.92	40.20	
2025-01-12 01:14:40.58	337.85	40.24	
2025-01-12 01:14:40.79	337.77	40.27	
2025-01-12 01:14:40.99	337.70	40.30	
2025-01-12 01:14:41.20	337.62	40.34	
2025-01-12 01:14:41.40	337.55	40.37	
2025-01-12 01:14:41.61	337.47	40.40	
2025-01-12 01:14:41.81	337.39	40.43	
2025-01-12 01:14:42.02	337.31	40.47	
2025-01-12 01:14:42.22	337.24	40.50	
2025-01-12 01:14:42.43	337.16	40.53	
2025-01-12 01:14:42.63	337.08	40.57	
2025-01-12 01:14:42.84	337.00	40.60	
2025-01-12 01:14:43.04	336.93	40.63	
2025-01-12 01:14:43.25	336.85	40.66	
2025-01-12 01:14:43.45	336.77	40.70	
2025-01-12 01:14:43.66	336.69	40.73	
2025-01-12 01:14:43.87	336.61	40.76	
2025-01-12 01:14:44.07	336.54	40.79	
2025-01-12 01:14:44.28	336.46	40.83	
2025-01-12 01:14:44.48	336.38	40.86	
2025-01-12 01:14:44.69	336.30	40.89	
2025-01-12 01:14:44.89	336.22	40.92	
2025-01-12 01:14:45.10	336.14	40.96	
2025-01-12 01:14:45.30	336.06	40.99	
2025-01-12 01:14:45.51	335.98	41.02	
2025-01-12 01:14:45.71	335.90	41.05	
2025-01-12 01:14:45.92	335.82	41.09	
2025-01-12 01:14:46.12	335.74	41.12	
2025-01-12 01:14:46.33	335.66	41.15	
2025-01-12 01:14:46.53	335.58	41.18	
2025-01-12 01:14:46.74	335.50	41.22	
2025-01-12 01:14:46.94	335.42	41.25	
2025-01-12 01:14:47.15	335.34	41.28	
2025-01-12 01:14:47.35	335.26	41.31	
2025-01-12 01:14:47.56	335.18	41.34	
2025-01-12 01:14:47.77	335.09	41.38	
2025-01-12 01:14:47.97	335.01	41.41	
2025-01-12 01:14:48.18	334.93	41.44	
2025-01-12 01:14:48.38	334.85	41.47	
2025-01-12 01:14:48.59	334.77	41.50	
2025-01-12 01:14:48.79	334.69	41.54	
2025-01-12 01:14:49.00	334.60	41.57	
2025-01-12 01:14:49.20	334.52	41.60	
2025-01-12 01:14:49.41	334.44	41.63	
2025-01-12 01:14:49.61	334.35	41.66	
2025-01-12 01:14:49.82	334.27	41.70	
2025-01-12 01:14:50.02	334.19	41.73	
2025-01-12 01:14:50.23	334.10	41.76	
2025-01-12 01:14:50.43	334.02	41.79	
2025-01-12 01:14:50.64	333.94	41.82	
2025-01-12 01:14:50.84	333.85	41.85	
2025-01-12 01:14:51.05	333.77	41.88	
2025-01-12 01:14:51.25	333.69	41.91	
2025-01-12 01:14:51.46	333.60	41.95	
2025-01-12 01:14:51.66	333.52	41.98	
2025-01-12 01:14:51.87	333.43	42.01	
2025-01-12 01:14:52.08	333.34	42.04	
2025-01-12 01:14:52.28	333.26	42.07	
2025-01-12 01:14:52.48	333.18	42.10	
2025-01-12 01:14:52.69	333.09	42.13	
2025-01-12 01:14:52.90	333.00	42.16	
2025-01-12 01:14:53.10	332.92	42.19	
2025-01-12 01:14:53.31	332.83	42.23	
2025-01-12 01:14:53.51	332.75	42.26	
2025-01-12 01:14:53.72	332.66	42.29	
2025-01-12 01:14:53.92	332.58	42.32	
2025-01-12 01:14:54.13	332.49	42.35	
2025-01-12 01:14:54.33	332.40	42.38	
2025-01-12 01:14:54.54	332.31	42.41	
2025-01-12 01:14:54.74	332.23	42.44	
2025-01-12 01:14:54.95	332.14	42.47	
2025-01-12 01:14:55.16	332.05	42.50	
2025-01-12 01:14:55.36	331.96	42.53	
2025-01-12 01:14:55.57	331.87	42.56	
2025-01-12 01:14:55.77	331.79	42.59	
2025-01-12 01:14:55.97	331.70	42.62	
2025-01-12 01:14:56.18	331.61	42.65	
2025-01-12 01:14:56.39	331.52	42.68	
2025-01-12 01:14:56.59	331.44	42.71	
2025-01-12 01:14:56.80	331.35	42.74	
2025-01-12 01:14:57.00	331.26	42.77	
2025-01-12 01:14:57.21	331.17	42.80	
2025-01-12 01:14:57.42	331.08	42.83	
2025-01-12 01:14:57.62	330.99	42.86	
2025-01-12 01:14:57.82	330.90	42.89	
2025-01-12 01:14:58.03	330.81	42.92	
2025-01-12 01:14:58.25	330.71	42.95	
2025-01-12 01:14:58.46	330.62	42.98	
2025-01-12 01:14:58.66	330.53	43.01	
2025-01-12 01:14:58.87	330.44	43.04	
2025-01-12 01:14:59.07	330.35	43.07	
2025-01-12 01:14:59.28	330.26	43.10	
2025-01-12 01:14:59.48	330.17	43.13	
2025-01-12 01:14:59.69	330.08	43.16	
2025-01-12 01:14:59.89	329.99	43.19	
2025-01-12 01:15:00.10	329.90	43.22	
2025-01-12 01:15:00.30	329.81	43.25	
2025-01-12 01:15:00.51	329.71	43.28	
2025-01-12 01:15:00.71	329.62	43.31	
2025-01-12 01:15:00.92	329.53	43.33	
2025-01-12 01:15:01.12	329.44	43.36	
2025-01-12 01:15:01.33	329.34	43.39	
2025-01-12 01:15:01.53	329.25	43.42	
2025-01-12 01:15:01.74	329.16	43.45	
2025-01-12 01:15:01.94	329.07	43.48	
2025-01-12 01:15:02.15	328.97	43.51	
2025-01-12 01:15:02.35	328.88	43.53	
2025-01-12 01:15:02.56	328.79	43.56	
2025-01-12 01:15:02.76	328.70	43.59	
2025-01-12 01:15:02.96	328.60	43.62	
2025-01-12 01:15:03.17	328.51	43.65	
2025-01-12 01:15:03.38	328.41	43.68	
2025-01-12 01:15:03.58	328.32	43.70	
2025-01-12 01:15:03.79	328.22	43.73	
2025-01-12 01:15:03.99	328.13	43.76	
2025-01-12 01:15:04.20	328.03	43.79	
2025-01-12 01:15:04.40	327.94	43.81	
2025-01-12 01:15:04.60	327.85	43.84	
2025-01-12 01:15:04.81	327.75	43.87	
2025-01-12 01:15:05.01	327.66	43.90	
2025-01-12 01:15:05.22	327.56	43.92	
2025-01-12 01:15:05.42	327.47	43.95	
2025-01-12 01:15:05.63	327.37	43.98	
2025-01-12 01:15:05.84	327.27	44.01	
2025-01-12 01:15:06.04	327.18	44.03	
2025-01-12 01:15:06.24	327.08	44.06	
2025-01-12 01:15:06.45	326.99	44.09	
2025-01-12 01:15:06.65	326.89	44.11	
2025-01-12 01:15:06.86	326.79	44.14	
2025-01-12 01:15:07.06	326.70	44.17	
2025-01-12 01:15:07.27	326.60	44.20	
2025-01-12 01:15:07.47	326.50	44.22	
