passes_logs/2025/01/12/SPB_Silybum_02/SPB_Silybum_02__20250112_042951_SUOMI_NPP_rec.log

#Pass ID: 20250112_042951_SUOMI NPP
#Satellite: SUOMI NPP
#Configuration: NPP
#Start time: 2025-01-12 04:29:52

#Version: 2.0.20230423
#Station: SPB_Silybum_02
#Location: 30.233357 lon 59.946436 lat
#TLE: 1 37849U 11061A   25010.83173011  .00000170  00000+0  10148-3 0  9996
#TLE: 2 37849  98.7441 311.8732 0001811  47.3940 312.7388 14.19536379684322

#Time	Az	El	Level	Level2	SNR	BER	Gain	Gain2
2025-01-12 04:29:54.13	18.75	4.09	
2025-01-12 04:29:54.33	18.72	4.10	
2025-01-12 04:29:54.54	18.70	4.11	
2025-01-12 04:29:54.74	18.67	4.12	
2025-01-12 04:29:54.94	18.65	4.12	
2025-01-12 04:29:55.15	18.62	4.13	
2025-01-12 04:29:55.36	18.60	4.14	
2025-01-12 04:29:55.56	18.57	4.15	
2025-01-12 04:29:55.77	18.54	4.15	
2025-01-12 04:29:55.97	18.52	4.16	
2025-01-12 04:29:56.18	18.49	4.17	
2025-01-12 04:29:56.38	18.47	4.17	
2025-01-12 04:29:56.59	18.44	4.18	
2025-01-12 04:29:56.80	18.41	4.19	
2025-01-12 04:29:57.00	18.39	4.20	
2025-01-12 04:29:57.20	18.36	4.20	
2025-01-12 04:29:57.41	18.34	4.21	
2025-01-12 04:29:57.62	18.31	4.22	
2025-01-12 04:29:57.82	18.29	4.23	
2025-01-12 04:29:58.03	18.26	4.23	
2025-01-12 04:29:58.23	18.23	4.24	
2025-01-12 04:29:58.44	18.21	4.25	
2025-01-12 04:29:58.64	18.18	4.25	
2025-01-12 04:29:58.85	18.16	4.26	
2025-01-12 04:29:59.05	18.13	4.27	
2025-01-12 04:29:59.25	18.10	4.28	
2025-01-12 04:29:59.46	18.08	4.28	
2025-01-12 04:29:59.66	18.05	4.29	
2025-01-12 04:29:59.87	18.03	4.30	
2025-01-12 04:30:00.08	18.00	4.30	
2025-01-12 04:30:00.28	17.97	4.31	
2025-01-12 04:30:00.48	17.95	4.32	
2025-01-12 04:30:00.69	17.92	4.33	
2025-01-12 04:30:00.90	17.90	4.33	
2025-01-12 04:30:01.10	17.87	4.34	
2025-01-12 04:30:01.31	17.84	4.35	
2025-01-12 04:30:01.51	17.82	4.36	
2025-01-12 04:30:01.72	17.79	4.36	
2025-01-12 04:30:01.92	17.77	4.37	
2025-01-12 04:30:02.13	17.74	4.38	
2025-01-12 04:30:02.34	17.71	4.38	
2025-01-12 04:30:02.54	17.69	4.39	
2025-01-12 04:30:02.74	17.66	4.40	
2025-01-12 04:30:02.95	17.63	4.41	
2025-01-12 04:30:03.15	17.61	4.41	
2025-01-12 04:30:03.36	17.58	4.42	
2025-01-12 04:30:03.56	17.56	4.43	
2025-01-12 04:30:03.77	17.53	4.43	
2025-01-12 04:30:03.97	17.50	4.44	
2025-01-12 04:30:04.18	17.48	4.45	
2025-01-12 04:30:04.38	17.45	4.46	
2025-01-12 04:30:04.59	17.42	4.46	
2025-01-12 04:30:04.79	17.40	4.47	
2025-01-12 04:30:05.00	17.37	4.48	
2025-01-12 04:30:05.20	17.35	4.48	
2025-01-12 04:30:05.41	17.32	4.49	
2025-01-12 04:30:05.61	17.29	4.50	
2025-01-12 04:30:05.82	17.27	4.51	
2025-01-12 04:30:06.03	17.24	4.51	
2025-01-12 04:30:06.23	17.21	4.52	
2025-01-12 04:30:06.44	17.19	4.53	
2025-01-12 04:30:06.64	17.16	4.53	
2025-01-12 04:30:06.84	17.13	4.54	
2025-01-12 04:30:07.05	17.11	4.55	
2025-01-12 04:30:07.25	17.08	4.55	
2025-01-12 04:30:07.46	17.05	4.56	
2025-01-12 04:30:07.66	17.03	4.57	
2025-01-12 04:30:07.88	17.00	4.58	
2025-01-12 04:30:08.09	16.97	4.58	
2025-01-12 04:30:08.29	16.95	4.59	
2025-01-12 04:30:08.50	16.92	4.60	
2025-01-12 04:30:08.70	16.89	4.60	
2025-01-12 04:30:08.91	16.87	4.61	
2025-01-12 04:30:09.11	16.84	4.62	
2025-01-12 04:30:09.32	16.81	4.63	
2025-01-12 04:30:09.52	16.79	4.63	
2025-01-12 04:30:09.73	16.76	4.64	
2025-01-12 04:30:09.93	16.73	4.65	
2025-01-12 04:30:10.14	16.71	4.65	
2025-01-12 04:30:10.35	16.68	4.66	
2025-01-12 04:30:10.55	16.65	4.67	
2025-01-12 04:30:10.76	16.63	4.68	
2025-01-12 04:30:10.96	16.60	4.68	
2025-01-12 04:30:11.17	16.57	4.69	
2025-01-12 04:30:11.37	16.55	4.70	
2025-01-12 04:30:11.58	16.52	4.70	
2025-01-12 04:30:11.78	16.49	4.71	
2025-01-12 04:30:11.99	16.47	4.72	
2025-01-12 04:30:12.19	16.44	4.72	
2025-01-12 04:30:12.40	16.41	4.73	
2025-01-12 04:30:12.60	16.39	4.74	
2025-01-12 04:30:12.81	16.36	4.75	
2025-01-12 04:30:13.01	16.33	4.75	
2025-01-12 04:30:13.22	16.30	4.76	
2025-01-12 04:30:13.43	16.28	4.77	
2025-01-12 04:30:13.63	16.25	4.77	
2025-01-12 04:30:13.84	16.22	4.78	
2025-01-12 04:30:14.04	16.20	4.79	
2025-01-12 04:30:14.26	16.17	4.79	
2025-01-12 04:30:14.47	16.14	4.80	
2025-01-12 04:30:14.67	16.11	4.81	
2025-01-12 04:30:14.88	16.09	4.82	
2025-01-12 04:30:15.09	16.06	4.82	
2025-01-12 04:30:15.29	16.03	4.83	
2025-01-12 04:30:15.50	16.00	4.84	
2025-01-12 04:30:15.70	15.98	4.84	
2025-01-12 04:30:15.90	15.95	4.85	
2025-01-12 04:30:16.11	15.92	4.86	
2025-01-12 04:30:16.31	15.90	4.86	
2025-01-12 04:30:16.52	15.87	4.87	
2025-01-12 04:30:16.72	15.84	4.88	
2025-01-12 04:30:16.93	15.82	4.88	
2025-01-12 04:30:17.14	15.79	4.89	
2025-01-12 04:30:17.34	15.76	4.90	
2025-01-12 04:30:17.54	15.74	4.90	
2025-01-12 04:30:17.75	15.71	4.91	
2025-01-12 04:30:17.96	15.68	4.92	
2025-01-12 04:30:18.16	15.65	4.93	
2025-01-12 04:30:18.37	15.63	4.93	
2025-01-12 04:30:18.57	15.60	4.94	
2025-01-12 04:30:18.78	15.57	4.95	
2025-01-12 04:30:18.98	15.54	4.95	
2025-01-12 04:30:19.19	15.52	4.96	
2025-01-12 04:30:19.39	15.49	4.97	
2025-01-12 04:30:19.59	15.46	4.97	
2025-01-12 04:30:19.80	15.43	4.98	
2025-01-12 04:30:20.00	15.41	4.99	
2025-01-12 04:30:20.21	15.38	4.99	
2025-01-12 04:30:20.42	15.35	5.00	
2025-01-12 04:30:20.62	15.33	5.01	
2025-01-12 04:30:20.82	15.30	5.01	
2025-01-12 04:30:21.03	15.27	5.02	
2025-01-12 04:30:21.24	15.24	5.03	
2025-01-12 04:30:21.44	15.22	5.03	
2025-01-12 04:30:21.64	15.19	5.04	
2025-01-12 04:30:21.85	15.16	5.05	
2025-01-12 04:30:22.05	15.13	5.06	
2025-01-12 04:30:22.26	15.11	5.06	
2025-01-12 04:30:22.46	15.08	5.07	
2025-01-12 04:30:22.67	15.05	5.08	
2025-01-12 04:30:22.87	15.02	5.08	
2025-01-12 04:30:23.08	15.00	5.09	
2025-01-12 04:30:23.29	14.97	5.10	
2025-01-12 04:30:23.49	14.94	5.10	
2025-01-12 04:30:23.70	14.91	5.11	
2025-01-12 04:30:23.90	14.89	5.12	
2025-01-12 04:30:24.11	14.86	5.12	
2025-01-12 04:30:24.31	14.83	5.13	
2025-01-12 04:30:24.52	14.80	5.14	
2025-01-12 04:30:24.72	14.78	5.14	
2025-01-12 04:30:24.93	14.75	5.15	
2025-01-12 04:30:25.13	14.72	5.16	
2025-01-12 04:30:25.34	14.69	5.16	
2025-01-12 04:30:25.54	14.67	5.17	
2025-01-12 04:30:25.75	14.64	5.18	
2025-01-12 04:30:25.95	14.61	5.18	
2025-01-12 04:30:26.16	14.58	5.19	
2025-01-12 04:30:26.36	14.56	5.20	
2025-01-12 04:30:26.57	14.53	5.20	
2025-01-12 04:30:26.77	14.50	5.21	
2025-01-12 04:30:26.98	14.47	5.22	
2025-01-12 04:30:27.18	14.44	5.22	
2025-01-12 04:30:27.39	14.42	5.23	
2025-01-12 04:30:27.59	14.39	5.24	
2025-01-12 04:30:27.80	14.36	5.24	
2025-01-12 04:30:28.00	14.33	5.25	
2025-01-12 04:30:28.21	14.30	5.26	
2025-01-12 04:30:28.41	14.28	5.26	
2025-01-12 04:30:28.62	14.25	5.27	
2025-01-12 04:30:28.82	14.22	5.28	
2025-01-12 04:30:29.03	14.19	5.28	
2025-01-12 04:30:29.23	14.17	5.29	
2025-01-12 04:30:29.44	14.14	5.30	
2025-01-12 04:30:29.64	14.11	5.30	
2025-01-12 04:30:29.85	14.08	5.31	
2025-01-12 04:30:30.05	14.05	5.32	
2025-01-12 04:30:30.26	14.03	5.32	
2025-01-12 04:30:30.46	14.00	5.33	
2025-01-12 04:30:30.67	13.97	5.34	
2025-01-12 04:30:30.88	13.94	5.34	
2025-01-12 04:30:31.08	13.91	5.35	
2025-01-12 04:30:31.28	13.89	5.36	
2025-01-12 04:30:31.49	13.86	5.36	
2025-01-12 04:30:31.70	13.83	5.37	
2025-01-12 04:30:31.90	13.80	5.38	
2025-01-12 04:30:32.11	13.77	5.38	
2025-01-12 04:30:32.31	13.75	5.39	
2025-01-12 04:30:32.51	13.72	5.40	
2025-01-12 04:30:32.72	13.69	5.40	
2025-01-12 04:30:32.93	13.66	5.41	
2025-01-12 04:30:33.13	13.63	5.42	
2025-01-12 04:30:33.34	13.60	5.42	
2025-01-12 04:30:33.54	13.58	5.43	
2025-01-12 04:30:33.75	13.55	5.43	
2025-01-12 04:30:33.95	13.52	5.44	
2025-01-12 04:30:34.16	13.49	5.45	
2025-01-12 04:30:34.36	13.46	5.45	
2025-01-12 04:30:34.57	13.44	5.46	
2025-01-12 04:30:34.77	13.41	5.47	
2025-01-12 04:30:34.98	13.38	5.47	
2025-01-12 04:30:35.18	13.35	5.48	
2025-01-12 04:30:35.39	13.32	5.49	
2025-01-12 04:30:35.59	13.29	5.49	
2025-01-12 04:30:35.80	13.27	5.50	
2025-01-12 04:30:36.00	13.24	5.51	
2025-01-12 04:30:36.21	13.21	5.51	
2025-01-12 04:30:36.42	13.18	5.52	
2025-01-12 04:30:36.62	13.15	5.53	
2025-01-12 04:30:36.83	13.12	5.53	
2025-01-12 04:30:37.03	13.10	5.54	
2025-01-12 04:30:37.23	13.07	5.54	
2025-01-12 04:30:37.44	13.04	5.55	
2025-01-12 04:30:37.64	13.01	5.56	
2025-01-12 04:30:37.85	12.98	5.56	
2025-01-12 04:30:38.06	12.95	5.57	
2025-01-12 04:30:38.26	12.93	5.58	
2025-01-12 04:30:38.47	12.90	5.58	
2025-01-12 04:30:38.67	12.87	5.59	
2025-01-12 04:30:38.88	12.84	5.60	
2025-01-12 04:30:39.08	12.81	5.60	
2025-01-12 04:30:39.29	12.78	5.61	
2025-01-12 04:30:39.49	12.75	5.62	
2025-01-12 04:30:39.70	12.72	5.62	
2025-01-12 04:30:39.90	12.70	5.63	
2025-01-12 04:30:40.11	12.67	5.63	
2025-01-12 04:30:40.32	12.64	5.64	
2025-01-12 04:30:40.52	12.61	5.65	
2025-01-12 04:30:40.73	12.58	5.65	
2025-01-12 04:30:40.93	12.55	5.66	
2025-01-12 04:30:41.14	12.52	5.67	
2025-01-12 04:30:41.34	12.50	5.67	
2025-01-12 04:30:41.55	12.47	5.68	
2025-01-12 04:30:41.76	12.44	5.69	
2025-01-12 04:30:41.96	12.41	5.69	
2025-01-12 04:30:42.17	12.38	5.70	
2025-01-12 04:30:42.37	12.35	5.70	
2025-01-12 04:30:42.58	12.32	5.71	
2025-01-12 04:30:42.78	12.29	5.72	
2025-01-12 04:30:42.99	12.27	5.72	
2025-01-12 04:30:43.19	12.24	5.73	
2025-01-12 04:30:43.40	12.21	5.74	
2025-01-12 04:30:43.60	12.18	5.74	
2025-01-12 04:30:43.81	12.15	5.75	
2025-01-12 04:30:44.01	12.12	5.76	
2025-01-12 04:30:44.22	12.09	5.76	
2025-01-12 04:30:44.43	12.06	5.77	
2025-01-12 04:30:44.63	12.03	5.77	
2025-01-12 04:30:44.84	12.01	5.78	
2025-01-12 04:30:45.04	11.98	5.79	
2025-01-12 04:30:45.24	11.95	5.79	
2025-01-12 04:30:45.45	11.92	5.80	
2025-01-12 04:30:45.66	11.89	5.81	
2025-01-12 04:30:45.86	11.86	5.81	
2025-01-12 04:30:46.07	11.83	5.82	
2025-01-12 04:30:46.27	11.80	5.82	
2025-01-12 04:30:46.47	11.78	5.83	
2025-01-12 04:30:46.68	11.75	5.84	
2025-01-12 04:30:46.88	11.72	5.84	
2025-01-12 04:30:47.09	11.69	5.85	
2025-01-12 04:30:47.29	11.66	5.85	
2025-01-12 04:30:47.50	11.63	5.86	
2025-01-12 04:30:47.70	11.60	5.87	
2025-01-12 04:30:47.91	11.57	5.87	
2025-01-12 04:30:48.11	11.54	5.88	
2025-01-12 04:30:48.32	11.51	5.89	
2025-01-12 04:30:48.52	11.49	5.89	
2025-01-12 04:30:48.73	11.46	5.90	
2025-01-12 04:30:48.93	11.43	5.90	
2025-01-12 04:30:49.14	11.40	5.91	
2025-01-12 04:30:49.34	11.37	5.92	
2025-01-12 04:30:49.55	11.34	5.92	
2025-01-12 04:30:49.75	11.31	5.93	
2025-01-12 04:30:49.96	11.28	5.93	
2025-01-12 04:30:50.16	11.25	5.94	
2025-01-12 04:30:50.37	11.22	5.95	
2025-01-12 04:30:50.58	11.19	5.95	
2025-01-12 04:30:50.78	11.16	5.96	
2025-01-12 04:30:50.99	11.13	5.97	
2025-01-12 04:30:51.19	11.11	5.97	
2025-01-12 04:30:51.40	11.08	5.98	
2025-01-12 04:30:51.62	11.04	5.98	
2025-01-12 04:30:51.82	11.02	5.99	
2025-01-12 04:30:52.03	10.99	6.00	
2025-01-12 04:30:52.23	10.96	6.00	
2025-01-12 04:30:52.44	10.93	6.01	
2025-01-12 04:30:52.64	10.90	6.01	
2025-01-12 04:30:52.85	10.87	6.02	
2025-01-12 04:30:53.05	10.84	6.03	
2025-01-12 04:30:53.26	10.81	6.03	
2025-01-12 04:30:53.46	10.78	6.04	
2025-01-12 04:30:53.68	10.75	6.04	
2025-01-12 04:30:53.88	10.72	6.05	
2025-01-12 04:30:54.09	10.69	6.06	
2025-01-12 04:30:54.30	10.66	6.06	
2025-01-12 04:30:54.50	10.63	6.07	
2025-01-12 04:30:54.70	10.60	6.07	
2025-01-12 04:30:54.91	10.57	6.08	
2025-01-12 04:30:55.11	10.54	6.09	
2025-01-12 04:30:55.32	10.51	6.09	
2025-01-12 04:30:55.52	10.48	6.10	
2025-01-12 04:30:55.73	10.45	6.10	
2025-01-12 04:30:55.93	10.43	6.11	
2025-01-12 04:30:56.14	10.40	6.12	
2025-01-12 04:30:56.35	10.36	6.12	
2025-01-12 04:30:56.55	10.34	6.13	
2025-01-12 04:30:56.76	10.31	6.13	
2025-01-12 04:30:56.98	10.27	6.14	
2025-01-12 04:30:57.18	10.25	6.15	
2025-01-12 04:30:57.39	10.21	6.15	
2025-01-12 04:30:57.59	10.19	6.16	
2025-01-12 04:30:57.80	10.16	6.16	
2025-01-12 04:30:58.02	10.12	6.17	
2025-01-12 04:30:58.22	10.09	6.18	
2025-01-12 04:30:58.43	10.06	6.18	
2025-01-12 04:30:58.63	10.04	6.19	
2025-01-12 04:30:58.84	10.00	6.19	
2025-01-12 04:30:59.04	9.98	6.20	
2025-01-12 04:30:59.25	9.95	6.21	
2025-01-12 04:30:59.45	9.92	6.21	
2025-01-12 04:30:59.67	9.88	6.22	
2025-01-12 04:30:59.88	9.85	6.22	
2025-01-12 04:31:00.08	9.83	6.23	
2025-01-12 04:31:00.29	9.79	6.24	
2025-01-12 04:31:00.49	9.77	6.24	
2025-01-12 04:31:00.70	9.73	6.25	
2025-01-12 04:31:00.91	9.70	6.25	
2025-01-12 04:31:01.11	9.68	6.26	
2025-01-12 04:31:01.31	9.65	6.26	
2025-01-12 04:31:01.52	9.62	6.27	
2025-01-12 04:31:01.72	9.59	6.28	
2025-01-12 04:31:01.93	9.56	6.28	
2025-01-12 04:31:02.13	9.53	6.29	
2025-01-12 04:31:02.34	9.50	6.29	
2025-01-12 04:31:02.54	9.47	6.30	
2025-01-12 04:31:02.75	9.44	6.31	
2025-01-12 04:31:02.95	9.41	6.31	
2025-01-12 04:31:03.16	9.38	6.32	
2025-01-12 04:31:03.36	9.35	6.32	
2025-01-12 04:31:03.57	9.32	6.33	
2025-01-12 04:31:03.77	9.29	6.33	
2025-01-12 04:31:03.98	9.26	6.34	
2025-01-12 04:31:04.18	9.23	6.35	
2025-01-12 04:31:04.39	9.20	6.35	
2025-01-12 04:31:04.59	9.17	6.36	
2025-01-12 04:31:04.80	9.14	6.36	
2025-01-12 04:31:05.00	9.11	6.37	
2025-01-12 04:31:05.21	9.08	6.37	
2025-01-12 04:31:05.41	9.05	6.38	
2025-01-12 04:31:05.61	9.02	6.38	
2025-01-12 04:31:05.82	8.99	6.39	
2025-01-12 04:31:06.02	8.96	6.40	
2025-01-12 04:31:06.22	8.93	6.40	
2025-01-12 04:31:06.43	8.90	6.41	
2025-01-12 04:31:06.63	8.87	6.41	
2025-01-12 04:31:06.84	8.84	6.42	
2025-01-12 04:31:07.04	8.81	6.42	
2025-01-12 04:31:07.25	8.78	6.43	
2025-01-12 04:31:07.45	8.75	6.44	
2025-01-12 04:31:07.66	8.72	6.44	
2025-01-12 04:31:07.86	8.69	6.45	
2025-01-12 04:31:08.07	8.65	6.45	
2025-01-12 04:31:08.28	8.62	6.46	
2025-01-12 04:31:08.48	8.59	6.46	
2025-01-12 04:31:08.68	8.56	6.47	
2025-01-12 04:31:08.89	8.53	6.47	
2025-01-12 04:31:09.09	8.50	6.48	
2025-01-12 04:31:09.30	8.47	6.49	
2025-01-12 04:31:09.51	8.44	6.49	
2025-01-12 04:31:09.71	8.41	6.50	
2025-01-12 04:31:09.92	8.38	6.50	
2025-01-12 04:31:10.12	8.35	6.51	
2025-01-12 04:31:10.33	8.32	6.51	
2025-01-12 04:31:10.53	8.29	6.52	
2025-01-12 04:31:10.74	8.26	6.52	
2025-01-12 04:31:10.94	8.23	6.53	
2025-01-12 04:31:11.15	8.20	6.54	
2025-01-12 04:31:11.35	8.17	6.54	
2025-01-12 04:31:11.56	8.14	6.55	
2025-01-12 04:31:11.76	8.11	6.55	
2025-01-12 04:31:11.97	8.08	6.56	
2025-01-12 04:31:12.17	8.05	6.56	
2025-01-12 04:31:12.38	8.02	6.57	
2025-01-12 04:31:12.58	7.99	6.57	
2025-01-12 04:31:12.79	7.96	6.58	
2025-01-12 04:31:12.99	7.93	6.58	
2025-01-12 04:31:13.20	7.89	6.59	
2025-01-12 04:31:13.40	7.86	6.60	
2025-01-12 04:31:13.61	7.83	6.60	
2025-01-12 04:31:13.81	7.80	6.61	
2025-01-12 04:31:14.02	7.77	6.61	
2025-01-12 04:31:14.22	7.74	6.62	
2025-01-12 04:31:14.43	7.71	6.62	
2025-01-12 04:31:14.63	7.68	6.63	
2025-01-12 04:31:14.84	7.65	6.63	
2025-01-12 04:31:15.04	7.62	6.64	
2025-01-12 04:31:15.25	7.59	6.64	
2025-01-12 04:31:15.45	7.56	6.65	
2025-01-12 04:31:15.66	7.53	6.66	
2025-01-12 04:31:15.87	7.50	6.66	
2025-01-12 04:31:16.07	7.47	6.67	
2025-01-12 04:31:16.27	7.44	6.67	
2025-01-12 04:31:16.48	7.40	6.68	
2025-01-12 04:31:16.69	7.37	6.68	
2025-01-12 04:31:16.89	7.34	6.69	
2025-01-12 04:31:17.10	7.31	6.69	
2025-01-12 04:31:17.30	7.28	6.70	
2025-01-12 04:31:17.51	7.25	6.70	
2025-01-12 04:31:17.71	7.22	6.71	
2025-01-12 04:31:17.92	7.19	6.71	
2025-01-12 04:31:18.13	7.16	6.72	
2025-01-12 04:31:18.33	7.13	6.72	
2025-01-12 04:31:18.54	7.09	6.73	
2025-01-12 04:31:18.74	7.06	6.73	
2025-01-12 04:31:18.95	7.03	6.74	
2025-01-12 04:31:19.16	7.00	6.75	
2025-01-12 04:31:19.36	6.97	6.75	
2025-01-12 04:31:19.57	6.94	6.76	
2025-01-12 04:31:19.77	6.91	6.76	
2025-01-12 04:31:19.98	6.88	6.77	
2025-01-12 04:31:20.19	6.85	6.77	
2025-01-12 04:31:20.39	6.82	6.78	
2025-01-12 04:31:20.60	6.78	6.78	
2025-01-12 04:31:20.80	6.75	6.79	
2025-01-12 04:31:21.01	6.72	6.79	
2025-01-12 04:31:21.22	6.69	6.80	
2025-01-12 04:31:21.42	6.66	6.80	
2025-01-12 04:31:21.63	6.63	6.81	
2025-01-12 04:31:21.84	6.60	6.81	
2025-01-12 04:31:22.05	6.56	6.82	
2025-01-12 04:31:22.25	6.53	6.82	
2025-01-12 04:31:22.46	6.50	6.83	
2025-01-12 04:31:22.66	6.47	6.83	
2025-01-12 04:31:22.87	6.44	6.84	
2025-01-12 04:31:23.07	6.41	6.84	
2025-01-12 04:31:23.28	6.38	6.85	
2025-01-12 04:31:23.48	6.35	6.85	
2025-01-12 04:31:23.68	6.32	6.86	
2025-01-12 04:31:23.89	6.29	6.86	
2025-01-12 04:31:24.09	6.26	6.87	
2025-01-12 04:31:24.30	6.22	6.87	
2025-01-12 04:31:24.51	6.19	6.88	
2025-01-12 04:31:24.71	6.16	6.88	
2025-01-12 04:31:24.92	6.13	6.89	
2025-01-12 04:31:25.13	6.10	6.90	
2025-01-12 04:31:25.33	6.07	6.90	
2025-01-12 04:31:25.54	6.03	6.91	
2025-01-12 04:31:25.75	6.00	6.91	
2025-01-12 04:31:25.95	5.97	6.92	
2025-01-12 04:31:26.16	5.94	6.92	
2025-01-12 04:31:26.36	5.91	6.93	
2025-01-12 04:31:26.57	5.88	6.93	
2025-01-12 04:31:26.77	5.85	6.94	
2025-01-12 04:31:26.98	5.82	6.94	
2025-01-12 04:31:27.19	5.78	6.95	
2025-01-12 04:31:27.39	5.75	6.95	
2025-01-12 04:31:27.60	5.72	6.96	
2025-01-12 04:31:27.80	5.69	6.96	
2025-01-12 04:31:28.01	5.66	6.97	
2025-01-12 04:31:28.21	5.63	6.97	
2025-01-12 04:31:28.42	5.59	6.98	
2025-01-12 04:31:28.63	5.56	6.98	
2025-01-12 04:31:28.83	5.53	6.99	
2025-01-12 04:31:29.04	5.50	6.99	
2025-01-12 04:31:29.24	5.47	6.99	
2025-01-12 04:31:29.45	5.44	7.00	
2025-01-12 04:31:29.66	5.40	7.00	
2025-01-12 04:31:29.86	5.37	7.01	
2025-01-12 04:31:30.07	5.34	7.01	
2025-01-12 04:31:30.27	5.31	7.02	
2025-01-12 04:31:30.48	5.28	7.02	
2025-01-12 04:31:30.69	5.25	7.03	
2025-01-12 04:31:30.89	5.22	7.03	
2025-01-12 04:31:31.10	5.18	7.04	
2025-01-12 04:31:31.30	5.15	7.04	
2025-01-12 04:31:31.51	5.12	7.05	
2025-01-12 04:31:31.71	5.09	7.05	
2025-01-12 04:31:31.92	5.06	7.06	
2025-01-12 04:31:32.13	5.03	7.06	
2025-01-12 04:31:32.34	4.99	7.07	
2025-01-12 04:31:32.55	4.96	7.07	
2025-01-12 04:31:32.75	4.93	7.08	
2025-01-12 04:31:32.96	4.90	7.08	
2025-01-12 04:31:33.16	4.87	7.09	
2025-01-12 04:31:33.38	4.83	7.09	
2025-01-12 04:31:33.59	4.80	7.10	
2025-01-12 04:31:33.79	4.77	7.10	
2025-01-12 04:31:34.00	4.74	7.11	
2025-01-12 04:31:34.20	4.71	7.11	
2025-01-12 04:31:34.41	4.67	7.12	
2025-01-12 04:31:34.61	4.64	7.12	
2025-01-12 04:31:34.82	4.61	7.13	
2025-01-12 04:31:35.02	4.58	7.13	
2025-01-12 04:31:35.23	4.55	7.14	
2025-01-12 04:31:35.43	4.52	7.14	
2025-01-12 04:31:35.63	4.48	7.14	
2025-01-12 04:31:35.84	4.45	7.15	
2025-01-12 04:31:36.05	4.42	7.15	
2025-01-12 04:31:36.25	4.39	7.16	
2025-01-12 04:31:36.46	4.36	7.16	
2025-01-12 04:31:36.66	4.32	7.17	
2025-01-12 04:31:36.87	4.29	7.17	
2025-01-12 04:31:37.08	4.26	7.18	
2025-01-12 04:31:37.28	4.23	7.18	
2025-01-12 04:31:37.49	4.20	7.19	
2025-01-12 04:31:37.69	4.16	7.19	
2025-01-12 04:31:37.90	4.13	7.20	
2025-01-12 04:31:38.10	4.10	7.20	
2025-01-12 04:31:38.31	4.07	7.20	
2025-01-12 04:31:38.52	4.04	7.21	
2025-01-12 04:31:38.72	4.00	7.21	
2025-01-12 04:31:38.93	3.97	7.22	
2025-01-12 04:31:39.13	3.94	7.22	
2025-01-12 04:31:39.33	3.91	7.23	
2025-01-12 04:31:39.54	3.88	7.23	
2025-01-12 04:31:39.76	3.84	7.24	
2025-01-12 04:31:39.96	3.81	7.24	
2025-01-12 04:31:40.17	3.78	7.25	
2025-01-12 04:31:40.38	3.75	7.25	
2025-01-12 04:31:40.58	3.71	7.25	
2025-01-12 04:31:40.78	3.68	7.26	
2025-01-12 04:31:40.99	3.65	7.26	
2025-01-12 04:31:41.20	3.62	7.27	
2025-01-12 04:31:41.40	3.59	7.27	
2025-01-12 04:31:41.61	3.55	7.28	
2025-01-12 04:31:41.81	3.52	7.28	
2025-01-12 04:31:42.02	3.49	7.29	
2025-01-12 04:31:42.22	3.46	7.29	
2025-01-12 04:31:42.43	3.43	7.30	
2025-01-12 04:31:42.64	3.39	7.30	
2025-01-12 04:31:42.84	3.36	7.30	
2025-01-12 04:31:43.05	3.33	7.31	
2025-01-12 04:31:43.25	3.30	7.31	
2025-01-12 04:31:43.46	3.26	7.32	
2025-01-12 04:31:43.66	3.23	7.32	
2025-01-12 04:31:43.87	3.20	7.33	
2025-01-12 04:31:44.09	3.17	7.33	
2025-01-12 04:31:44.29	3.13	7.33	
2025-01-12 04:31:44.50	3.10	7.34	
2025-01-12 04:31:44.71	3.07	7.34	
2025-01-12 04:31:44.91	3.04	7.35	
2025-01-12 04:31:45.13	3.00	7.35	
2025-01-12 04:31:45.33	2.97	7.36	
2025-01-12 04:31:45.54	2.94	7.36	
2025-01-12 04:31:45.75	2.90	7.37	
2025-01-12 04:31:45.95	2.87	7.37	
2025-01-12 04:31:46.17	2.84	7.37	
2025-01-12 04:31:46.37	2.81	7.38	
2025-01-12 04:31:46.58	2.77	7.38	
2025-01-12 04:31:46.78	2.74	7.39	
2025-01-12 04:31:46.99	2.71	7.39	
2025-01-12 04:31:47.19	2.68	7.40	
2025-01-12 04:31:47.39	2.65	7.40	
2025-01-12 04:31:47.60	2.61	7.40	
2025-01-12 04:31:47.81	2.58	7.41	
2025-01-12 04:31:48.01	2.55	7.41	
2025-01-12 04:31:48.22	2.52	7.42	
2025-01-12 04:31:48.42	2.48	7.42	
2025-01-12 04:31:48.63	2.45	7.43	
2025-01-12 04:31:48.83	2.42	7.43	
2025-01-12 04:31:49.04	2.39	7.43	
2025-01-12 04:31:49.24	2.35	7.44	
2025-01-12 04:31:49.45	2.32	7.44	
2025-01-12 04:31:49.65	2.29	7.45	
2025-01-12 04:31:49.86	2.26	7.45	
2025-01-12 04:31:50.07	2.22	7.45	
2025-01-12 04:31:50.27	2.19	7.46	
2025-01-12 04:31:50.48	2.16	7.46	
2025-01-12 04:31:50.68	2.13	7.47	
2025-01-12 04:31:50.89	2.09	7.47	
2025-01-12 04:31:51.09	2.06	7.48	
2025-01-12 04:31:51.30	2.03	7.48	
2025-01-12 04:31:51.50	2.00	7.48	
2025-01-12 04:31:51.71	1.96	7.49	
2025-01-12 04:31:51.91	1.93	7.49	
2025-01-12 04:31:52.12	1.90	7.50	
2025-01-12 04:31:52.33	1.86	7.50	
2025-01-12 04:31:52.53	1.83	7.50	
2025-01-12 04:31:52.73	1.80	7.51	
2025-01-12 04:31:52.94	1.77	7.51	
2025-01-12 04:31:53.15	1.73	7.52	
2025-01-12 04:31:53.35	1.70	7.52	
2025-01-12 04:31:53.56	1.67	7.52	
2025-01-12 04:31:53.76	1.64	7.53	
2025-01-12 04:31:53.96	1.61	7.53	
2025-01-12 04:31:54.17	1.57	7.54	
2025-01-12 04:31:54.38	1.54	7.54	
2025-01-12 04:31:54.58	1.51	7.54	
2025-01-12 04:31:54.80	1.47	7.55	
2025-01-12 04:31:55.00	1.44	7.55	
2025-01-12 04:31:55.21	1.41	7.56	
2025-01-12 04:31:55.41	1.37	7.56	
2025-01-12 04:31:55.62	1.34	7.56	
2025-01-12 04:31:55.82	1.31	7.57	
2025-01-12 04:31:56.03	1.28	7.57	
2025-01-12 04:31:56.23	1.24	7.58	
2025-01-12 04:31:56.44	1.21	7.58	
2025-01-12 04:31:56.65	1.18	7.58	
2025-01-12 04:31:56.85	1.14	7.59	
2025-01-12 04:31:57.05	1.11	7.59	
2025-01-12 04:31:57.26	1.08	7.59	
2025-01-12 04:31:57.47	1.05	7.60	
2025-01-12 04:31:57.67	1.01	7.60	
2025-01-12 04:31:57.87	0.98	7.61	
2025-01-12 04:31:58.08	0.95	7.61	
2025-01-12 04:31:58.28	0.92	7.61	
2025-01-12 04:31:58.49	0.88	7.62	
2025-01-12 04:31:58.70	0.85	7.62	
2025-01-12 04:31:58.90	0.82	7.63	
2025-01-12 04:31:59.10	0.78	7.63	
2025-01-12 04:31:59.31	0.75	7.63	
2025-01-12 04:31:59.51	0.72	7.64	
2025-01-12 04:31:59.72	0.68	7.64	
2025-01-12 04:31:59.92	0.65	7.64	
2025-01-12 04:32:00.12	0.62	7.65	
2025-01-12 04:32:00.33	0.59	7.65	
2025-01-12 04:32:00.53	0.55	7.65	
2025-01-12 04:32:00.74	0.52	7.66	
2025-01-12 04:32:00.95	0.49	7.66	
2025-01-12 04:32:01.15	0.46	7.67	
2025-01-12 04:32:01.36	0.42	7.67	
2025-01-12 04:32:01.56	0.39	7.67	
2025-01-12 04:32:01.77	0.36	7.68	
2025-01-12 04:32:01.97	0.32	7.68	
2025-01-12 04:32:02.18	0.29	7.68	
2025-01-12 04:32:02.38	0.26	7.69	
2025-01-12 04:32:02.59	0.22	7.69	
2025-01-12 04:32:02.79	0.19	7.70	
2025-01-12 04:32:03.00	0.16	7.70	
2025-01-12 04:32:03.20	0.13	7.70	
2025-01-12 04:32:03.41	0.09	7.71	
2025-01-12 04:32:03.62	0.06	7.71	
2025-01-12 04:32:03.82	0.03	7.71	
2025-01-12 04:32:04.03	359.99	7.72	
2025-01-12 04:32:04.23	359.96	7.72	
2025-01-12 04:32:04.44	359.93	7.72	
2025-01-12 04:32:04.65	359.89	7.73	
2025-01-12 04:32:04.85	359.86	7.73	
2025-01-12 04:32:05.06	359.83	7.73	
2025-01-12 04:32:05.26	359.79	7.74	
2025-01-12 04:32:05.48	359.76	7.74	
2025-01-12 04:32:05.69	359.72	7.75	
2025-01-12 04:32:05.89	359.69	7.75	
2025-01-12 04:32:06.10	359.66	7.75	
2025-01-12 04:32:06.30	359.63	7.76	
2025-01-12 04:32:06.52	359.59	7.76	
2025-01-12 04:32:06.73	359.56	7.76	
2025-01-12 04:32:06.93	359.52	7.77	
2025-01-12 04:32:07.14	359.49	7.77	
2025-01-12 04:32:07.34	359.46	7.77	
2025-01-12 04:32:07.55	359.42	7.78	
2025-01-12 04:32:07.75	359.39	7.78	
2025-01-12 04:32:07.96	359.36	7.78	
2025-01-12 04:32:08.16	359.32	7.79	
2025-01-12 04:32:08.37	359.29	7.79	
2025-01-12 04:32:08.57	359.26	7.79	
2025-01-12 04:32:08.78	359.22	7.80	
2025-01-12 04:32:08.99	359.19	7.80	
2025-01-12 04:32:09.19	359.16	7.80	
2025-01-12 04:32:09.40	359.12	7.81	
2025-01-12 04:32:09.60	359.09	7.81	
2025-01-12 04:32:09.80	359.06	7.81	
2025-01-12 04:32:10.01	359.02	7.82	
2025-01-12 04:32:10.22	358.99	7.82	
2025-01-12 04:32:10.42	358.96	7.82	
2025-01-12 04:32:10.64	358.92	7.83	
2025-01-12 04:32:10.84	358.89	7.83	
2025-01-12 04:32:11.05	358.86	7.83	
2025-01-12 04:32:11.26	358.82	7.84	
2025-01-12 04:32:11.46	358.79	7.84	
2025-01-12 04:32:11.67	358.75	7.84	
2025-01-12 04:32:11.87	358.72	7.85	
2025-01-12 04:32:12.08	358.69	7.85	
2025-01-12 04:32:12.29	358.65	7.85	
2025-01-12 04:32:12.49	358.62	7.86	
2025-01-12 04:32:12.70	358.59	7.86	
2025-01-12 04:32:12.92	358.55	7.86	
2025-01-12 04:32:13.12	358.52	7.87	
2025-01-12 04:32:13.33	358.48	7.87	
2025-01-12 04:32:13.53	358.45	7.87	
2025-01-12 04:32:13.74	358.42	7.88	
2025-01-12 04:32:13.94	358.38	7.88	
2025-01-12 04:32:14.14	358.35	7.88	
2025-01-12 04:32:14.35	358.32	7.89	
2025-01-12 04:32:14.56	358.28	7.89	
2025-01-12 04:32:14.76	358.25	7.89	
2025-01-12 04:32:14.97	358.22	7.90	
2025-01-12 04:32:15.17	358.18	7.90	
2025-01-12 04:32:15.38	358.15	7.90	
2025-01-12 04:32:15.58	358.12	7.90	
2025-01-12 04:32:15.79	358.08	7.91	
2025-01-12 04:32:16.00	358.05	7.91	
2025-01-12 04:32:16.20	358.02	7.91	
2025-01-12 04:32:16.41	357.98	7.92	
2025-01-12 04:32:16.61	357.95	7.92	
2025-01-12 04:32:16.82	357.91	7.92	
2025-01-12 04:32:17.02	357.88	7.93	
2025-01-12 04:32:17.24	357.85	7.93	
2025-01-12 04:32:17.45	357.81	7.93	
2025-01-12 04:32:17.65	357.78	7.94	
2025-01-12 04:32:17.86	357.74	7.94	
2025-01-12 04:32:18.06	357.71	7.94	
2025-01-12 04:32:18.27	357.68	7.94	
2025-01-12 04:32:18.47	357.64	7.95	
2025-01-12 04:32:18.68	357.61	7.95	
2025-01-12 04:32:18.88	357.58	7.95	
2025-01-12 04:32:19.09	357.54	7.96	
2025-01-12 04:32:19.29	357.51	7.96	
2025-01-12 04:32:19.50	357.48	7.96	
2025-01-12 04:32:19.70	357.44	7.96	
2025-01-12 04:32:19.91	357.41	7.97	
2025-01-12 04:32:20.12	357.37	7.97	
2025-01-12 04:32:20.32	357.34	7.97	
2025-01-12 04:32:20.53	357.31	7.98	
2025-01-12 04:32:20.73	357.27	7.98	
2025-01-12 04:32:20.94	357.24	7.98	
2025-01-12 04:32:21.14	357.21	7.98	
2025-01-12 04:32:21.35	357.17	7.99	
2025-01-12 04:32:21.55	357.14	7.99	
2025-01-12 04:32:21.76	357.10	7.99	
2025-01-12 04:32:21.96	357.07	8.00	
2025-01-12 04:32:22.17	357.04	8.00	
2025-01-12 04:32:22.37	357.00	8.00	
2025-01-12 04:32:22.59	356.97	8.00	
2025-01-12 04:32:22.79	356.93	8.01	
2025-01-12 04:32:23.00	356.90	8.01	
2025-01-12 04:32:23.21	356.87	8.01	
2025-01-12 04:32:23.41	356.83	8.02	
2025-01-12 04:32:23.62	356.80	8.02	
2025-01-12 04:32:23.82	356.77	8.02	
2025-01-12 04:32:24.03	356.73	8.02	
2025-01-12 04:32:24.23	356.70	8.03	
2025-01-12 04:32:24.44	356.66	8.03	
2025-01-12 04:32:24.65	356.63	8.03	
2025-01-12 04:32:24.86	356.59	8.03	
2025-01-12 04:32:25.07	356.56	8.04	
2025-01-12 04:32:25.27	356.53	8.04	
2025-01-12 04:32:25.48	356.49	8.04	
2025-01-12 04:32:25.68	356.46	8.05	
2025-01-12 04:32:25.89	356.42	8.05	
2025-01-12 04:32:26.09	356.39	8.05	
2025-01-12 04:32:26.30	356.36	8.05	
2025-01-12 04:32:26.50	356.32	8.06	
2025-01-12 04:32:26.71	356.29	8.06	
2025-01-12 04:32:26.91	356.26	8.06	
2025-01-12 04:32:27.12	356.22	8.06	
2025-01-12 04:32:27.32	356.19	8.07	
2025-01-12 04:32:27.53	356.15	8.07	
2025-01-12 04:32:27.73	356.12	8.07	
2025-01-12 04:32:27.94	356.09	8.07	
2025-01-12 04:32:28.14	356.05	8.08	
2025-01-12 04:32:28.35	356.02	8.08	
2025-01-12 04:32:28.55	355.98	8.08	
2025-01-12 04:32:28.76	355.95	8.08	
2025-01-12 04:32:28.96	355.92	8.09	
2025-01-12 04:32:29.17	355.88	8.09	
2025-01-12 04:32:29.37	355.85	8.09	
2025-01-12 04:32:29.58	355.81	8.09	
2025-01-12 04:32:29.78	355.78	8.10	
2025-01-12 04:32:29.99	355.75	8.10	
2025-01-12 04:32:30.19	355.71	8.10	
2025-01-12 04:32:30.40	355.68	8.10	
2025-01-12 04:32:30.60	355.64	8.11	
2025-01-12 04:32:30.81	355.61	8.11	
2025-01-12 04:32:31.01	355.58	8.11	
2025-01-12 04:32:31.22	355.54	8.11	
2025-01-12 04:32:31.42	355.51	8.12	
2025-01-12 04:32:31.63	355.47	8.12	
2025-01-12 04:32:31.84	355.44	8.12	
2025-01-12 04:32:32.04	355.41	8.12	
2025-01-12 04:32:32.24	355.37	8.13	
2025-01-12 04:32:32.45	355.34	8.13	
2025-01-12 04:32:32.65	355.30	8.13	
2025-01-12 04:32:32.86	355.27	8.13	
2025-01-12 04:32:33.06	355.24	8.13	
2025-01-12 04:32:33.27	355.20	8.14	
2025-01-12 04:32:33.47	355.17	8.14	
2025-01-12 04:32:33.68	355.13	8.14	
2025-01-12 04:32:33.88	355.10	8.14	
2025-01-12 04:32:34.09	355.07	8.15	
2025-01-12 04:32:34.30	355.03	8.15	
2025-01-12 04:32:34.51	355.00	8.15	
2025-01-12 04:32:34.71	354.96	8.15	
2025-01-12 04:32:34.92	354.93	8.16	
2025-01-12 04:32:35.13	354.89	8.16	
2025-01-12 04:32:35.33	354.86	8.16	
2025-01-12 04:32:35.53	354.83	8.16	
2025-01-12 04:32:35.74	354.79	8.16	
2025-01-12 04:32:35.94	354.76	8.17	
2025-01-12 04:32:36.15	354.72	8.17	
2025-01-12 04:32:36.35	354.69	8.17	
2025-01-12 04:32:36.56	354.65	8.17	
2025-01-12 04:32:36.76	354.62	8.17	
2025-01-12 04:32:36.97	354.59	8.18	
2025-01-12 04:32:37.17	354.55	8.18	
2025-01-12 04:32:37.39	354.52	8.18	
2025-01-12 04:32:37.59	354.48	8.18	
2025-01-12 04:32:37.80	354.45	8.19	
2025-01-12 04:32:38.00	354.42	8.19	
2025-01-12 04:32:38.21	354.38	8.19	
2025-01-12 04:32:38.41	354.35	8.19	
2025-01-12 04:32:38.62	354.31	8.19	
2025-01-12 04:32:38.82	354.28	8.20	
2025-01-12 04:32:39.03	354.24	8.20	
2025-01-12 04:32:39.24	354.21	8.20	
2025-01-12 04:32:39.44	354.18	8.20	
2025-01-12 04:32:39.65	354.14	8.20	
2025-01-12 04:32:39.85	354.11	8.21	
2025-01-12 04:32:40.06	354.07	8.21	
2025-01-12 04:32:40.26	354.04	8.21	
2025-01-12 04:32:40.47	354.00	8.21	
2025-01-12 04:32:40.67	353.97	8.21	
2025-01-12 04:32:40.88	353.93	8.22	
2025-01-12 04:32:41.08	353.90	8.22	
2025-01-12 04:32:41.29	353.87	8.22	
2025-01-12 04:32:41.50	353.83	8.22	
2025-01-12 04:32:41.70	353.80	8.22	
2025-01-12 04:32:41.91	353.76	8.23	
2025-01-12 04:32:42.11	353.73	8.23	
2025-01-12 04:32:42.32	353.69	8.23	
2025-01-12 04:32:42.52	353.66	8.23	
2025-01-12 04:32:42.73	353.63	8.23	
2025-01-12 04:32:42.93	353.59	8.23	
2025-01-12 04:32:43.14	353.56	8.24	
2025-01-12 04:32:43.34	353.52	8.24	
2025-01-12 04:32:43.55	353.49	8.24	
2025-01-12 04:32:43.75	353.46	8.24	
2025-01-12 04:32:43.96	353.42	8.24	
2025-01-12 04:32:44.16	353.39	8.25	
2025-01-12 04:32:44.37	353.35	8.25	
2025-01-12 04:32:44.57	353.32	8.25	
2025-01-12 04:32:44.78	353.28	8.25	
2025-01-12 04:32:44.98	353.25	8.25	
2025-01-12 04:32:45.19	353.21	8.25	
2025-01-12 04:32:45.39	353.18	8.26	
2025-01-12 04:32:45.60	353.15	8.26	
2025-01-12 04:32:45.80	353.11	8.26	
2025-01-12 04:32:46.01	353.08	8.26	
2025-01-12 04:32:46.21	353.04	8.26	
2025-01-12 04:32:46.42	353.01	8.26	
2025-01-12 04:32:46.62	352.97	8.27	
2025-01-12 04:32:46.83	352.94	8.27	
2025-01-12 04:32:47.04	352.90	8.27	
2025-01-12 04:32:47.24	352.87	8.27	
2025-01-12 04:32:47.45	352.84	8.27	
2025-01-12 04:32:47.65	352.80	8.27	
2025-01-12 04:32:47.86	352.77	8.28	
2025-01-12 04:32:48.06	352.73	8.28	
2025-01-12 04:32:48.27	352.70	8.28	
2025-01-12 04:32:48.47	352.66	8.28	
2025-01-12 04:32:48.68	352.63	8.28	
2025-01-12 04:32:48.88	352.60	8.28	
2025-01-12 04:32:49.09	352.56	8.29	
2025-01-12 04:32:49.29	352.53	8.29	
2025-01-12 04:32:49.50	352.49	8.29	
2025-01-12 04:32:49.71	352.46	8.29	
2025-01-12 04:32:49.91	352.42	8.29	
2025-01-12 04:32:50.12	352.39	8.29	
2025-01-12 04:32:50.33	352.35	8.30	
2025-01-12 04:32:50.54	352.32	8.30	
2025-01-12 04:32:50.75	352.28	8.30	
2025-01-12 04:32:50.95	352.25	8.30	
2025-01-12 04:32:51.16	352.21	8.30	
2025-01-12 04:32:51.36	352.18	8.30	
2025-01-12 04:32:51.56	352.15	8.30	
2025-01-12 04:32:51.77	352.11	8.31	
2025-01-12 04:32:51.98	352.08	8.31	
2025-01-12 04:32:52.18	352.04	8.31	
2025-01-12 04:32:52.38	352.01	8.31	
2025-01-12 04:32:52.59	351.97	8.31	
2025-01-12 04:32:52.80	351.94	8.31	
2025-01-12 04:32:53.00	351.90	8.31	
2025-01-12 04:32:53.21	351.87	8.32	
2025-01-12 04:32:53.41	351.83	8.32	
2025-01-12 04:32:53.62	351.80	8.32	
2025-01-12 04:32:53.82	351.77	8.32	
2025-01-12 04:32:54.03	351.73	8.32	
2025-01-12 04:32:54.23	351.70	8.32	
2025-01-12 04:32:54.44	351.66	8.32	
2025-01-12 04:32:54.64	351.63	8.32	
2025-01-12 04:32:54.85	351.59	8.33	
2025-01-12 04:32:55.05	351.56	8.33	
2025-01-12 04:32:55.26	351.52	8.33	
2025-01-12 04:32:55.47	351.49	8.33	
2025-01-12 04:32:55.67	351.45	8.33	
2025-01-12 04:32:55.88	351.42	8.33	
2025-01-12 04:32:56.08	351.39	8.33	
2025-01-12 04:32:56.29	351.35	8.33	
2025-01-12 04:32:56.49	351.32	8.34	
2025-01-12 04:32:56.71	351.28	8.34	
2025-01-12 04:32:56.92	351.24	8.34	
2025-01-12 04:32:57.12	351.21	8.34	
2025-01-12 04:32:57.33	351.18	8.34	
2025-01-12 04:32:57.53	351.14	8.34	
2025-01-12 04:32:57.73	351.11	8.34	
2025-01-12 04:32:57.94	351.07	8.34	
2025-01-12 04:32:58.14	351.04	8.35	
2025-01-12 04:32:58.35	351.00	8.35	
2025-01-12 04:32:58.55	350.97	8.35	
2025-01-12 04:32:58.76	350.93	8.35	
2025-01-12 04:32:58.96	350.90	8.35	
2025-01-12 04:32:59.17	350.86	8.35	
2025-01-12 04:32:59.38	350.83	8.35	
2025-01-12 04:32:59.58	350.80	8.35	
2025-01-12 04:32:59.79	350.76	8.35	
2025-01-12 04:32:59.99	350.73	8.36	
2025-01-12 04:33:00.19	350.69	8.36	
2025-01-12 04:33:00.40	350.66	8.36	
2025-01-12 04:33:00.61	350.62	8.36	
2025-01-12 04:33:00.81	350.59	8.36	
2025-01-12 04:33:01.01	350.55	8.36	
2025-01-12 04:33:01.22	350.52	8.36	
2025-01-12 04:33:01.43	350.48	8.36	
2025-01-12 04:33:01.63	350.45	8.36	
2025-01-12 04:33:01.83	350.42	8.36	
2025-01-12 04:33:02.04	350.38	8.37	
2025-01-12 04:33:02.24	350.35	8.37	
2025-01-12 04:33:02.45	350.31	8.37	
2025-01-12 04:33:02.65	350.28	8.37	
2025-01-12 04:33:02.86	350.24	8.37	
2025-01-12 04:33:03.06	350.21	8.37	
2025-01-12 04:33:03.28	350.17	8.37	
2025-01-12 04:33:03.48	350.14	8.37	
2025-01-12 04:33:03.69	350.10	8.37	
2025-01-12 04:33:03.89	350.07	8.37	
2025-01-12 04:33:04.10	350.03	8.37	
2025-01-12 04:33:04.30	350.00	8.37	
2025-01-12 04:33:04.51	349.96	8.38	
2025-01-12 04:33:04.72	349.93	8.38	
2025-01-12 04:33:04.92	349.89	8.38	
2025-01-12 04:33:05.13	349.86	8.38	
2025-01-12 04:33:05.35	349.82	8.38	
2025-01-12 04:33:05.55	349.79	8.38	
2025-01-12 04:33:05.76	349.75	8.38	
2025-01-12 04:33:05.96	349.72	8.38	
2025-01-12 04:33:06.17	349.68	8.38	
2025-01-12 04:33:06.37	349.65	8.38	
2025-01-12 04:33:06.58	349.61	8.38	
2025-01-12 04:33:06.78	349.58	8.38	
2025-01-12 04:33:06.99	349.55	8.39	
2025-01-12 04:33:07.20	349.51	8.39	
2025-01-12 04:33:07.40	349.48	8.39	
2025-01-12 04:33:07.61	349.44	8.39	
2025-01-12 04:33:07.81	349.41	8.39	
2025-01-12 04:33:08.02	349.37	8.39	
2025-01-12 04:33:08.22	349.34	8.39	
2025-01-12 04:33:08.44	349.30	8.39	
2025-01-12 04:33:08.65	349.26	8.39	
2025-01-12 04:33:08.85	349.23	8.39	
2025-01-12 04:33:09.06	349.20	8.39	
2025-01-12 04:33:09.26	349.16	8.39	
2025-01-12 04:33:09.47	349.13	8.39	
2025-01-12 04:33:09.68	349.09	8.39	
2025-01-12 04:33:09.88	349.06	8.39	
2025-01-12 04:33:10.09	349.02	8.39	
2025-01-12 04:33:10.29	348.99	8.40	
2025-01-12 04:33:10.50	348.95	8.40	
2025-01-12 04:33:10.70	348.92	8.40	
2025-01-12 04:33:10.91	348.88	8.40	
2025-01-12 04:33:11.11	348.85	8.40	
2025-01-12 04:33:11.32	348.81	8.40	
2025-01-12 04:33:11.52	348.78	8.40	
2025-01-12 04:33:11.73	348.74	8.40	
2025-01-12 04:33:11.93	348.71	8.40	
2025-01-12 04:33:12.14	348.67	8.40	
2025-01-12 04:33:12.35	348.64	8.40	
2025-01-12 04:33:12.55	348.61	8.40	
2025-01-12 04:33:12.75	348.57	8.40	
2025-01-12 04:33:12.96	348.54	8.40	
2025-01-12 04:33:13.16	348.50	8.40	
2025-01-12 04:33:13.37	348.47	8.40	
2025-01-12 04:33:13.58	348.43	8.40	
2025-01-12 04:33:13.78	348.40	8.40	
2025-01-12 04:33:13.99	348.36	8.40	
2025-01-12 04:33:14.19	348.33	8.40	
2025-01-12 04:33:14.40	348.29	8.40	
2025-01-12 04:33:14.60	348.26	8.40	
2025-01-12 04:33:14.81	348.22	8.40	
2025-01-12 04:33:15.01	348.19	8.41	
2025-01-12 04:33:15.22	348.15	8.41	
2025-01-12 04:33:15.42	348.12	8.41	
2025-01-12 04:33:15.63	348.08	8.41	
2025-01-12 04:33:15.83	348.05	8.41	
2025-01-12 04:33:16.04	348.01	8.41	
2025-01-12 04:33:16.24	347.98	8.41	
2025-01-12 04:33:16.45	347.95	8.41	
2025-01-12 04:33:16.65	347.91	8.41	
2025-01-12 04:33:16.86	347.88	8.41	
2025-01-12 04:33:17.06	347.84	8.41	
2025-01-12 04:33:17.27	347.81	8.41	
2025-01-12 04:33:17.47	347.77	8.41	
2025-01-12 04:33:17.68	347.74	8.41	
2025-01-12 04:33:17.89	347.70	8.41	
2025-01-12 04:33:18.09	347.67	8.41	
2025-01-12 04:33:18.29	347.63	8.41	
2025-01-12 04:33:18.50	347.60	8.41	
2025-01-12 04:33:18.70	347.56	8.41	
2025-01-12 04:33:18.91	347.53	8.41	
2025-01-12 04:33:19.12	347.49	8.41	
2025-01-12 04:33:19.33	347.46	8.41	
2025-01-12 04:33:19.54	347.42	8.41	
2025-01-12 04:33:19.74	347.39	8.41	
2025-01-12 04:33:19.95	347.35	8.41	
2025-01-12 04:33:20.16	347.32	8.41	
2025-01-12 04:33:20.36	347.28	8.41	
2025-01-12 04:33:20.57	347.25	8.41	
2025-01-12 04:33:20.77	347.21	8.41	
2025-01-12 04:33:20.97	347.18	8.41	
2025-01-12 04:33:21.18	347.14	8.41	
2025-01-12 04:33:21.38	347.11	8.41	
2025-01-12 04:33:21.59	347.08	8.41	
2025-01-12 04:33:21.79	347.04	8.41	
2025-01-12 04:33:22.00	347.01	8.41	
2025-01-12 04:33:22.21	346.97	8.41	
2025-01-12 04:33:22.41	346.94	8.41	
2025-01-12 04:33:22.62	346.90	8.41	
2025-01-12 04:33:22.82	346.87	8.41	
2025-01-12 04:33:23.03	346.83	8.41	
2025-01-12 04:33:23.23	346.80	8.41	
2025-01-12 04:33:23.44	346.76	8.41	
2025-01-12 04:33:23.64	346.73	8.41	
2025-01-12 04:33:23.85	346.69	8.41	
2025-01-12 04:33:24.05	346.66	8.41	
2025-01-12 04:33:24.26	346.62	8.41	
2025-01-12 04:33:24.47	346.59	8.41	
2025-01-12 04:33:24.67	346.55	8.41	
2025-01-12 04:33:24.88	346.52	8.41	
2025-01-12 04:33:25.08	346.48	8.41	
2025-01-12 04:33:25.29	346.45	8.41	
2025-01-12 04:33:25.49	346.42	8.41	
2025-01-12 04:33:25.70	346.38	8.41	
2025-01-12 04:33:25.90	346.35	8.41	
2025-01-12 04:33:26.11	346.31	8.41	
2025-01-12 04:33:26.31	346.28	8.41	
2025-01-12 04:33:26.51	346.24	8.41	
2025-01-12 04:33:26.71	346.21	8.41	
2025-01-12 04:33:26.92	346.17	8.41	
2025-01-12 04:33:27.13	346.14	8.41	
2025-01-12 04:33:27.33	346.10	8.41	
2025-01-12 04:33:27.54	346.07	8.41	
2025-01-12 04:33:27.74	346.03	8.41	
2025-01-12 04:33:27.95	346.00	8.41	
2025-01-12 04:33:28.16	345.96	8.41	
2025-01-12 04:33:28.36	345.93	8.40	
2025-01-12 04:33:28.57	345.89	8.40	
2025-01-12 04:33:28.77	345.86	8.40	
2025-01-12 04:33:28.98	345.82	8.40	
2025-01-12 04:33:29.18	345.79	8.40	
2025-01-12 04:33:29.38	345.76	8.40	
2025-01-12 04:33:29.59	345.72	8.40	
2025-01-12 04:33:29.80	345.69	8.40	
2025-01-12 04:33:30.00	345.65	8.40	
2025-01-12 04:33:30.21	345.62	8.40	
2025-01-12 04:33:30.41	345.58	8.40	
2025-01-12 04:33:30.62	345.55	8.40	
2025-01-12 04:33:30.83	345.51	8.40	
2025-01-12 04:33:31.03	345.48	8.40	
2025-01-12 04:33:31.25	345.44	8.40	
2025-01-12 04:33:31.46	345.41	8.40	
2025-01-12 04:33:31.66	345.37	8.40	
2025-01-12 04:33:31.87	345.34	8.40	
2025-01-12 04:33:32.07	345.30	8.40	
2025-01-12 04:33:32.27	345.27	8.40	
2025-01-12 04:33:32.48	345.23	8.40	
2025-01-12 04:33:32.69	345.20	8.40	
2025-01-12 04:33:32.89	345.16	8.40	
2025-01-12 04:33:33.09	345.13	8.39	
2025-01-12 04:33:33.30	345.09	8.39	
2025-01-12 04:33:33.51	345.06	8.39	
2025-01-12 04:33:33.71	345.02	8.39	
2025-01-12 04:33:33.92	344.99	8.39	
2025-01-12 04:33:34.12	344.96	8.39	
2025-01-12 04:33:34.33	344.92	8.39	
2025-01-12 04:33:34.54	344.88	8.39	
2025-01-12 04:33:34.74	344.85	8.39	
2025-01-12 04:33:34.95	344.81	8.39	
2025-01-12 04:33:35.16	344.78	8.39	
2025-01-12 04:33:35.37	344.74	8.39	
2025-01-12 04:33:35.58	344.71	8.39	
2025-01-12 04:33:35.78	344.67	8.39	
2025-01-12 04:33:35.99	344.64	8.39	
2025-01-12 04:33:36.19	344.61	8.38	
2025-01-12 04:33:36.40	344.57	8.38	
2025-01-12 04:33:36.62	344.53	8.38	
2025-01-12 04:33:36.82	344.50	8.38	
2025-01-12 04:33:37.03	344.46	8.38	
2025-01-12 04:33:37.23	344.43	8.38	
2025-01-12 04:33:37.45	344.39	8.38	
2025-01-12 04:33:37.66	344.36	8.38	
2025-01-12 04:33:37.86	344.32	8.38	
2025-01-12 04:33:38.07	344.29	8.38	
2025-01-12 04:33:38.28	344.25	8.38	
2025-01-12 04:33:38.48	344.22	8.38	
2025-01-12 04:33:38.68	344.18	8.38	
2025-01-12 04:33:38.89	344.15	8.37	
2025-01-12 04:33:39.09	344.12	8.37	
2025-01-12 04:33:39.30	344.08	8.37	
2025-01-12 04:33:39.50	344.05	8.37	
2025-01-12 04:33:39.70	344.01	8.37	
2025-01-12 04:33:39.91	343.98	8.37	
2025-01-12 04:33:40.12	343.94	8.37	
2025-01-12 04:33:40.32	343.91	8.37	
2025-01-12 04:33:40.53	343.87	8.37	
2025-01-12 04:33:40.73	343.84	8.37	
2025-01-12 04:33:40.93	343.80	8.37	
2025-01-12 04:33:41.14	343.77	8.36	
2025-01-12 04:33:41.34	343.74	8.36	
2025-01-12 04:33:41.55	343.70	8.36	
2025-01-12 04:33:41.75	343.67	8.36	
2025-01-12 04:33:41.96	343.63	8.36	
2025-01-12 04:33:42.17	343.60	8.36	
2025-01-12 04:33:42.37	343.56	8.36	
2025-01-12 04:33:42.58	343.53	8.36	
2025-01-12 04:33:42.79	343.49	8.36	
2025-01-12 04:33:43.00	343.46	8.36	
2025-01-12 04:33:43.22	343.42	8.35	
2025-01-12 04:33:43.42	343.38	8.35	
2025-01-12 04:33:43.63	343.35	8.35	
2025-01-12 04:33:43.83	343.32	8.35	
2025-01-12 04:33:44.04	343.28	8.35	
2025-01-12 04:33:44.24	343.25	8.35	
2025-01-12 04:33:44.45	343.21	8.35	
2025-01-12 04:33:44.66	343.18	8.35	
2025-01-12 04:33:44.86	343.14	8.35	
2025-01-12 04:33:45.07	343.11	8.35	
2025-01-12 04:33:45.27	343.07	8.34	
2025-01-12 04:33:45.48	343.04	8.34	
2025-01-12 04:33:45.69	343.00	8.34	
2025-01-12 04:33:45.89	342.97	8.34	
2025-01-12 04:33:46.09	342.93	8.34	
2025-01-12 04:33:46.30	342.90	8.34	
2025-01-12 04:33:46.50	342.87	8.34	
2025-01-12 04:33:46.71	342.83	8.34	
2025-01-12 04:33:46.91	342.80	8.33	
2025-01-12 04:33:47.12	342.76	8.33	
2025-01-12 04:33:47.32	342.73	8.33	
2025-01-12 04:33:47.53	342.69	8.33	
2025-01-12 04:33:47.73	342.66	8.33	
2025-01-12 04:33:47.94	342.62	8.33	
2025-01-12 04:33:48.14	342.59	8.33	
2025-01-12 04:33:48.35	342.55	8.33	
2025-01-12 04:33:48.56	342.52	8.32	
2025-01-12 04:33:48.76	342.49	8.32	
2025-01-12 04:33:48.97	342.45	8.32	
2025-01-12 04:33:49.17	342.42	8.32	
2025-01-12 04:33:49.38	342.38	8.32	
2025-01-12 04:33:49.58	342.35	8.32	
2025-01-12 04:33:49.79	342.31	8.32	
2025-01-12 04:33:50.00	342.28	8.31	
2025-01-12 04:33:50.20	342.24	8.31	
2025-01-12 04:33:50.41	342.21	8.31	
2025-01-12 04:33:50.61	342.17	8.31	
2025-01-12 04:33:50.82	342.14	8.31	
2025-01-12 04:33:51.03	342.10	8.31	
2025-01-12 04:33:51.23	342.07	8.31	
2025-01-12 04:33:51.43	342.04	8.31	
2025-01-12 04:33:51.64	342.00	8.30	
2025-01-12 04:33:51.84	341.97	8.30	
2025-01-12 04:33:52.05	341.93	8.30	
2025-01-12 04:33:52.26	341.90	8.30	
2025-01-12 04:33:52.47	341.86	8.30	
2025-01-12 04:33:52.68	341.83	8.30	
2025-01-12 04:33:52.88	341.79	8.29	
2025-01-12 04:33:53.09	341.76	8.29	
2025-01-12 04:33:53.30	341.72	8.29	
2025-01-12 04:33:53.50	341.69	8.29	
2025-01-12 04:33:53.70	341.66	8.29	
2025-01-12 04:33:53.91	341.62	8.29	
2025-01-12 04:33:54.11	341.59	8.29	
2025-01-12 04:33:54.32	341.55	8.28	
2025-01-12 04:33:54.52	341.52	8.28	
2025-01-12 04:33:54.73	341.48	8.28	
2025-01-12 04:33:54.94	341.45	8.28	
2025-01-12 04:33:55.14	341.41	8.28	
2025-01-12 04:33:55.35	341.38	8.28	
2025-01-12 04:33:55.55	341.34	8.27	
2025-01-12 04:33:55.76	341.31	8.27	
2025-01-12 04:33:55.96	341.28	8.27	
2025-01-12 04:33:56.17	341.24	8.27	
2025-01-12 04:33:56.37	341.21	8.27	
2025-01-12 04:33:56.58	341.17	8.27	
2025-01-12 04:33:56.78	341.14	8.26	
2025-01-12 04:33:56.99	341.10	8.26	
2025-01-12 04:33:57.19	341.07	8.26	
2025-01-12 04:33:57.40	341.03	8.26	
2025-01-12 04:33:57.61	341.00	8.26	
2025-01-12 04:33:57.81	340.97	8.26	
2025-01-12 04:33:58.02	340.93	8.25	
2025-01-12 04:33:58.22	340.90	8.25	
2025-01-12 04:33:58.43	340.86	8.25	
2025-01-12 04:33:58.63	340.83	8.25	
2025-01-12 04:33:58.83	340.80	8.25	
2025-01-12 04:33:59.04	340.76	8.25	
2025-01-12 04:33:59.24	340.73	8.24	
2025-01-12 04:33:59.45	340.69	8.24	
2025-01-12 04:33:59.66	340.66	8.24	
2025-01-12 04:33:59.86	340.62	8.24	
2025-01-12 04:34:00.07	340.59	8.24	
2025-01-12 04:34:00.27	340.55	8.23	
2025-01-12 04:34:00.47	340.52	8.23	
2025-01-12 04:34:00.68	340.49	8.23	
2025-01-12 04:34:00.88	340.45	8.23	
2025-01-12 04:34:01.09	340.42	8.23	
2025-01-12 04:34:01.31	340.38	8.22	
2025-01-12 04:34:01.51	340.35	8.22	
2025-01-12 04:34:01.72	340.31	8.22	
2025-01-12 04:34:01.92	340.28	8.22	
2025-01-12 04:34:02.12	340.25	8.22	
2025-01-12 04:34:02.33	340.21	8.22	
2025-01-12 04:34:02.54	340.17	8.21	
2025-01-12 04:34:02.74	340.14	8.21	
2025-01-12 04:34:02.95	340.11	8.21	
2025-01-12 04:34:03.15	340.07	8.21	
2025-01-12 04:34:03.36	340.04	8.21	
2025-01-12 04:34:03.57	340.00	8.20	
2025-01-12 04:34:03.77	339.97	8.20	
2025-01-12 04:34:03.98	339.93	8.20	
2025-01-12 04:34:04.18	339.90	8.20	
2025-01-12 04:34:04.39	339.87	8.19	
2025-01-12 04:34:04.59	339.83	8.19	
2025-01-12 04:34:04.80	339.80	8.19	
2025-01-12 04:34:05.00	339.76	8.19	
2025-01-12 04:34:05.21	339.73	8.19	
2025-01-12 04:34:05.41	339.70	8.18	
2025-01-12 04:34:05.62	339.66	8.18	
2025-01-12 04:34:05.82	339.63	8.18	
2025-01-12 04:34:06.03	339.59	8.18	
2025-01-12 04:34:06.23	339.56	8.18	
2025-01-12 04:34:06.44	339.52	8.17	
2025-01-12 04:34:06.64	339.49	8.17	
2025-01-12 04:34:06.85	339.46	8.17	
2025-01-12 04:34:07.06	339.42	8.17	
2025-01-12 04:34:07.26	339.39	8.17	
2025-01-12 04:34:07.47	339.35	8.16	
2025-01-12 04:34:07.67	339.32	8.16	
2025-01-12 04:34:07.88	339.28	8.16	
2025-01-12 04:34:08.09	339.25	8.16	
2025-01-12 04:34:08.29	339.22	8.15	
2025-01-12 04:34:08.49	339.18	8.15	
2025-01-12 04:34:08.70	339.15	8.15	
2025-01-12 04:34:08.90	339.12	8.15	
2025-01-12 04:34:09.11	339.08	8.15	
2025-01-12 04:34:09.31	339.05	8.14	
2025-01-12 04:34:09.52	339.01	8.14	
2025-01-12 04:34:09.73	338.98	8.14	
2025-01-12 04:34:09.93	338.94	8.14	
2025-01-12 04:34:10.14	338.91	8.13	
2025-01-12 04:34:10.34	338.88	8.13	
2025-01-12 04:34:10.55	338.84	8.13	
2025-01-12 04:34:10.75	338.81	8.13	
2025-01-12 04:34:10.96	338.77	8.12	
2025-01-12 04:34:11.16	338.74	8.12	
2025-01-12 04:34:11.37	338.71	8.12	
2025-01-12 04:34:11.57	338.67	8.12	
2025-01-12 04:34:11.78	338.64	8.12	
2025-01-12 04:34:11.98	338.60	8.11	
2025-01-12 04:34:12.19	338.57	8.11	
2025-01-12 04:34:12.39	338.54	8.11	
2025-01-12 04:34:12.60	338.50	8.11	
2025-01-12 04:34:12.80	338.47	8.10	
2025-01-12 04:34:13.01	338.43	8.10	
2025-01-12 04:34:13.22	338.40	8.10	
2025-01-12 04:34:13.42	338.37	8.10	
2025-01-12 04:34:13.63	338.33	8.09	
2025-01-12 04:34:13.83	338.30	8.09	
2025-01-12 04:34:14.03	338.26	8.09	
2025-01-12 04:34:14.24	338.23	8.09	
2025-01-12 04:34:14.44	338.20	8.08	
2025-01-12 04:34:14.66	338.16	8.08	
2025-01-12 04:34:14.86	338.13	8.08	
2025-01-12 04:34:15.06	338.09	8.08	
2025-01-12 04:34:15.27	338.06	8.07	
2025-01-12 04:34:15.48	338.02	8.07	
2025-01-12 04:34:15.68	337.99	8.07	
2025-01-12 04:34:15.89	337.96	8.07	
2025-01-12 04:34:16.09	337.92	8.06	
2025-01-12 04:34:16.30	337.89	8.06	
2025-01-12 04:34:16.50	337.86	8.06	
2025-01-12 04:34:16.71	337.82	8.06	
2025-01-12 04:34:16.91	337.79	8.05	
2025-01-12 04:34:17.11	337.76	8.05	
2025-01-12 04:34:17.32	337.72	8.05	
2025-01-12 04:34:17.53	337.69	8.04	
2025-01-12 04:34:17.73	337.65	8.04	
2025-01-12 04:34:17.94	337.62	8.04	
2025-01-12 04:34:18.14	337.59	8.04	
2025-01-12 04:34:18.35	337.55	8.03	
2025-01-12 04:34:18.56	337.52	8.03	
2025-01-12 04:34:18.76	337.48	8.03	
2025-01-12 04:34:18.97	337.45	8.03	
2025-01-12 04:34:19.17	337.42	8.02	
2025-01-12 04:34:19.38	337.38	8.02	
2025-01-12 04:34:19.58	337.35	8.02	
2025-01-12 04:34:19.79	337.31	8.02	
2025-01-12 04:34:19.99	337.28	8.01	
2025-01-12 04:34:20.20	337.25	8.01	
2025-01-12 04:34:20.40	337.21	8.01	
2025-01-12 04:34:20.61	337.18	8.00	
2025-01-12 04:34:20.81	337.15	8.00	
2025-01-12 04:34:21.02	337.11	8.00	
2025-01-12 04:34:21.22	337.08	8.00	
2025-01-12 04:34:21.43	337.04	7.99	
2025-01-12 04:34:21.63	337.01	7.99	
2025-01-12 04:34:21.84	336.98	7.99	
2025-01-12 04:34:22.04	336.94	7.98	
2025-01-12 04:34:22.25	336.91	7.98	
2025-01-12 04:34:22.45	336.88	7.98	
2025-01-12 04:34:22.66	336.84	7.98	
2025-01-12 04:34:22.87	336.81	7.97	
2025-01-12 04:34:23.07	336.77	7.97	
2025-01-12 04:34:23.28	336.74	7.97	
2025-01-12 04:34:23.48	336.71	7.96	
2025-01-12 04:34:23.69	336.67	7.96	
2025-01-12 04:34:23.89	336.64	7.96	
2025-01-12 04:34:24.10	336.60	7.96	
2025-01-12 04:34:24.30	336.57	7.95	
2025-01-12 04:34:24.51	336.54	7.95	
2025-01-12 04:34:24.71	336.50	7.95	
2025-01-12 04:34:24.92	336.47	7.94	
2025-01-12 04:34:25.12	336.44	7.94	
2025-01-12 04:34:25.33	336.40	7.94	
2025-01-12 04:34:25.53	336.37	7.93	
2025-01-12 04:34:25.74	336.34	7.93	
2025-01-12 04:34:25.95	336.30	7.93	
2025-01-12 04:34:26.15	336.27	7.93	
2025-01-12 04:34:26.36	336.23	7.92	
2025-01-12 04:34:26.56	336.20	7.92	
2025-01-12 04:34:26.77	336.17	7.92	
2025-01-12 04:34:26.97	336.13	7.91	
2025-01-12 04:34:27.18	336.10	7.91	
2025-01-12 04:34:27.38	336.07	7.91	
2025-01-12 04:34:27.59	336.03	7.90	
2025-01-12 04:34:27.79	336.00	7.90	
2025-01-12 04:34:28.00	335.97	7.90	
2025-01-12 04:34:28.20	335.93	7.90	
2025-01-12 04:34:28.41	335.90	7.89	
2025-01-12 04:34:28.61	335.87	7.89	
2025-01-12 04:34:28.82	335.83	7.89	
2025-01-12 04:34:29.02	335.80	7.88	
2025-01-12 04:34:29.23	335.77	7.88	
2025-01-12 04:34:29.43	335.73	7.88	
2025-01-12 04:34:29.64	335.70	7.87	
2025-01-12 04:34:29.85	335.66	7.87	
2025-01-12 04:34:30.05	335.63	7.87	
2025-01-12 04:34:30.26	335.60	7.86	
2025-01-12 04:34:30.46	335.57	7.86	
2025-01-12 04:34:30.67	335.53	7.86	
2025-01-12 04:34:30.87	335.50	7.85	
2025-01-12 04:34:31.08	335.46	7.85	
2025-01-12 04:34:31.28	335.43	7.85	
2025-01-12 04:34:31.49	335.40	7.84	
2025-01-12 04:34:31.69	335.36	7.84	
2025-01-12 04:34:31.90	335.33	7.84	
2025-01-12 04:34:32.10	335.30	7.83	
2025-01-12 04:34:32.31	335.26	7.83	
2025-01-12 04:34:32.51	335.23	7.83	
2025-01-12 04:34:32.72	335.20	7.82	
2025-01-12 04:34:32.92	335.16	7.82	
2025-01-12 04:34:33.13	335.13	7.82	
2025-01-12 04:34:33.34	335.10	7.81	
2025-01-12 04:34:33.54	335.06	7.81	
2025-01-12 04:34:33.75	335.03	7.81	
2025-01-12 04:34:33.95	335.00	7.80	
2025-01-12 04:34:34.16	334.96	7.80	
2025-01-12 04:34:34.36	334.93	7.80	
2025-01-12 04:34:34.57	334.90	7.79	
2025-01-12 04:34:34.78	334.86	7.79	
2025-01-12 04:34:34.98	334.83	7.79	
2025-01-12 04:34:35.19	334.80	7.78	
2025-01-12 04:34:35.39	334.76	7.78	
2025-01-12 04:34:35.60	334.73	7.78	
2025-01-12 04:34:35.80	334.70	7.77	
2025-01-12 04:34:36.01	334.66	7.77	
2025-01-12 04:34:36.21	334.63	7.77	
2025-01-12 04:34:36.42	334.60	7.76	
2025-01-12 04:34:36.62	334.56	7.76	
2025-01-12 04:34:36.83	334.53	7.76	
2025-01-12 04:34:37.03	334.50	7.75	
2025-01-12 04:34:37.24	334.46	7.75	
2025-01-12 04:34:37.44	334.43	7.75	
2025-01-12 04:34:37.65	334.40	7.74	
2025-01-12 04:34:37.85	334.37	7.74	
2025-01-12 04:34:38.06	334.33	7.74	
2025-01-12 04:34:38.27	334.30	7.73	
2025-01-12 04:34:38.47	334.27	7.73	
2025-01-12 04:34:38.68	334.23	7.72	
2025-01-12 04:34:38.88	334.20	7.72	
2025-01-12 04:34:39.09	334.17	7.72	
2025-01-12 04:34:39.29	334.13	7.71	
2025-01-12 04:34:39.50	334.10	7.71	
2025-01-12 04:34:39.70	334.07	7.71	
2025-01-12 04:34:39.91	334.03	7.70	
2025-01-12 04:34:40.11	334.00	7.70	
2025-01-12 04:34:40.32	333.97	7.70	
2025-01-12 04:34:40.52	333.94	7.69	
2025-01-12 04:34:40.73	333.90	7.69	
2025-01-12 04:34:40.93	333.87	7.69	
2025-01-12 04:34:41.14	333.84	7.68	
2025-01-12 04:34:41.35	333.80	7.68	
2025-01-12 04:34:41.55	333.77	7.67	
2025-01-12 04:34:41.76	333.74	7.67	
2025-01-12 04:34:41.96	333.70	7.67	
2025-01-12 04:34:42.17	333.67	7.66	
2025-01-12 04:34:42.38	333.64	7.66	
2025-01-12 04:34:42.58	333.60	7.66	
2025-01-12 04:34:42.79	333.57	7.65	
2025-01-12 04:34:42.99	333.54	7.65	
2025-01-12 04:34:43.20	333.50	7.64	
2025-01-12 04:34:43.40	333.47	7.64	
2025-01-12 04:34:43.61	333.44	7.64	
2025-01-12 04:34:43.83	333.40	7.63	
2025-01-12 04:34:44.03	333.37	7.63	
2025-01-12 04:34:44.24	333.34	7.63	
2025-01-12 04:34:44.44	333.31	7.62	
2025-01-12 04:34:44.65	333.27	7.62	
2025-01-12 04:34:44.87	333.24	7.61	
2025-01-12 04:34:45.07	333.20	7.61	
2025-01-12 04:34:45.28	333.17	7.61	
2025-01-12 04:34:45.48	333.14	7.60	
2025-01-12 04:34:45.69	333.11	7.60	
2025-01-12 04:34:45.91	333.07	7.59	
2025-01-12 04:34:46.11	333.04	7.59	
2025-01-12 04:34:46.32	333.00	7.59	
2025-01-12 04:34:46.53	332.97	7.58	
2025-01-12 04:34:46.73	332.94	7.58	
2025-01-12 04:34:46.95	332.90	7.57	
2025-01-12 04:34:47.15	332.87	7.57	
2025-01-12 04:34:47.36	332.84	7.57	
2025-01-12 04:34:47.57	332.80	7.56	
2025-01-12 04:34:47.77	332.77	7.56	
2025-01-12 04:34:47.98	332.74	7.55	
2025-01-12 04:34:48.18	332.71	7.55	
2025-01-12 04:34:48.39	332.67	7.55	
2025-01-12 04:34:48.60	332.64	7.54	
2025-01-12 04:34:48.80	332.61	7.54	
2025-01-12 04:34:49.00	332.58	7.54	
2025-01-12 04:34:49.21	332.54	7.53	
2025-01-12 04:34:49.42	332.51	7.53	
2025-01-12 04:34:49.62	332.48	7.52	
2025-01-12 04:34:49.83	332.44	7.52	
2025-01-12 04:34:50.03	332.41	7.52	
2025-01-12 04:34:50.24	332.38	7.51	
2025-01-12 04:34:50.44	332.35	7.51	
2025-01-12 04:34:50.65	332.31	7.50	
2025-01-12 04:34:50.85	332.28	7.50	
2025-01-12 04:34:51.06	332.25	7.49	
2025-01-12 04:34:51.26	332.22	7.49	
2025-01-12 04:34:51.47	332.18	7.49	
2025-01-12 04:34:51.67	332.15	7.48	
2025-01-12 04:34:51.88	332.12	7.48	
2025-01-12 04:34:52.09	332.09	7.47	
2025-01-12 04:34:52.29	332.05	7.47	
2025-01-12 04:34:52.50	332.02	7.47	
2025-01-12 04:34:52.70	331.99	7.46	
2025-01-12 04:34:52.91	331.96	7.46	
2025-01-12 04:34:53.12	331.92	7.45	
2025-01-12 04:34:53.32	331.89	7.45	
2025-01-12 04:34:53.52	331.86	7.45	
2025-01-12 04:34:53.73	331.83	7.44	
2025-01-12 04:34:53.94	331.79	7.44	
2025-01-12 04:34:54.14	331.76	7.43	
2025-01-12 04:34:54.35	331.73	7.43	
2025-01-12 04:34:54.55	331.70	7.42	
2025-01-12 04:34:54.75	331.66	7.42	
2025-01-12 04:34:54.96	331.63	7.42	
2025-01-12 04:34:55.17	331.60	7.41	
2025-01-12 04:34:55.37	331.57	7.41	
2025-01-12 04:34:55.59	331.53	7.40	
2025-01-12 04:34:55.80	331.50	7.40	
2025-01-12 04:34:56.00	331.47	7.39	
2025-01-12 04:34:56.21	331.43	7.39	
2025-01-12 04:34:56.41	331.40	7.39	
2025-01-12 04:34:56.62	331.37	7.38	
2025-01-12 04:34:56.82	331.34	7.38	
2025-01-12 04:34:57.03	331.30	7.37	
2025-01-12 04:34:57.23	331.27	7.37	
2025-01-12 04:34:57.44	331.24	7.36	
2025-01-12 04:34:57.64	331.21	7.36	
2025-01-12 04:34:57.85	331.18	7.36	
2025-01-12 04:34:58.05	331.14	7.35	
2025-01-12 04:34:58.26	331.11	7.35	
2025-01-12 04:34:58.46	331.08	7.34	
2025-01-12 04:34:58.67	331.05	7.34	
2025-01-12 04:34:58.87	331.02	7.33	
2025-01-12 04:34:59.07	330.98	7.33	
2025-01-12 04:34:59.28	330.95	7.33	
2025-01-12 04:34:59.49	330.92	7.32	
2025-01-12 04:34:59.69	330.89	7.32	
2025-01-12 04:34:59.89	330.86	7.31	
2025-01-12 04:35:00.10	330.82	7.31	
2025-01-12 04:35:00.30	330.79	7.30	
2025-01-12 04:35:00.51	330.76	7.30	
2025-01-12 04:35:00.71	330.73	7.30	
2025-01-12 04:35:00.92	330.69	7.29	
2025-01-12 04:35:01.12	330.66	7.29	
2025-01-12 04:35:01.33	330.63	7.28	
2025-01-12 04:35:01.54	330.60	7.28	
2025-01-12 04:35:01.74	330.57	7.27	
2025-01-12 04:35:01.95	330.53	7.27	
2025-01-12 04:35:02.15	330.50	7.26	
2025-01-12 04:35:02.36	330.47	7.26	
2025-01-12 04:35:02.57	330.44	7.25	
2025-01-12 04:35:02.77	330.40	7.25	
2025-01-12 04:35:02.97	330.37	7.25	
2025-01-12 04:35:03.18	330.34	7.24	
2025-01-12 04:35:03.38	330.31	7.24	
2025-01-12 04:35:03.59	330.28	7.23	
2025-01-12 04:35:03.80	330.24	7.23	
2025-01-12 04:35:04.00	330.21	7.22	
2025-01-12 04:35:04.20	330.18	7.22	
2025-01-12 04:35:04.41	330.15	7.21	
2025-01-12 04:35:04.61	330.12	7.21	
2025-01-12 04:35:04.82	330.09	7.21	
2025-01-12 04:35:05.02	330.05	7.20	
2025-01-12 04:35:05.23	330.02	7.20	
2025-01-12 04:35:05.44	329.99	7.19	
2025-01-12 04:35:05.65	329.96	7.19	
2025-01-12 04:35:05.86	329.92	7.18	
2025-01-12 04:35:06.06	329.89	7.18	
2025-01-12 04:35:06.26	329.86	7.17	
2025-01-12 04:35:06.47	329.83	7.17	
2025-01-12 04:35:06.68	329.80	7.16	
2025-01-12 04:35:06.88	329.76	7.16	
2025-01-12 04:35:07.08	329.73	7.15	
2025-01-12 04:35:07.29	329.70	7.15	
2025-01-12 04:35:07.49	329.67	7.14	
2025-01-12 04:35:07.70	329.64	7.14	
2025-01-12 04:35:07.90	329.61	7.14	
2025-01-12 04:35:08.11	329.57	7.13	
2025-01-12 04:35:08.31	329.54	7.13	
2025-01-12 04:35:08.52	329.51	7.12	
2025-01-12 04:35:08.72	329.48	7.12	
2025-01-12 04:35:08.93	329.45	7.11	
2025-01-12 04:35:09.14	329.41	7.11	
2025-01-12 04:35:09.34	329.38	7.10	
2025-01-12 04:35:09.55	329.35	7.10	
2025-01-12 04:35:09.75	329.32	7.09	
2025-01-12 04:35:09.96	329.29	7.09	
2025-01-12 04:35:10.16	329.26	7.08	
2025-01-12 04:35:10.37	329.22	7.08	
2025-01-12 04:35:10.57	329.19	7.07	
2025-01-12 04:35:10.78	329.16	7.07	
2025-01-12 04:35:10.99	329.13	7.06	
2025-01-12 04:35:11.19	329.10	7.06	
2025-01-12 04:35:11.40	329.07	7.05	
2025-01-12 04:35:11.60	329.04	7.05	
2025-01-12 04:35:11.81	329.00	7.04	
2025-01-12 04:35:12.01	328.97	7.04	
2025-01-12 04:35:12.22	328.94	7.03	
2025-01-12 04:35:12.42	328.91	7.03	
2025-01-12 04:35:12.64	328.88	7.03	
2025-01-12 04:35:12.85	328.84	7.02	
2025-01-12 04:35:13.06	328.81	7.02	
2025-01-12 04:35:13.26	328.78	7.01	
2025-01-12 04:35:13.47	328.75	7.01	
2025-01-12 04:35:13.67	328.72	7.00	
2025-01-12 04:35:13.88	328.68	7.00	
2025-01-12 04:35:14.08	328.65	6.99	
2025-01-12 04:35:14.29	328.62	6.99	
2025-01-12 04:35:14.49	328.59	6.98	
2025-01-12 04:35:14.70	328.56	6.98	
2025-01-12 04:35:14.90	328.53	6.97	
2025-01-12 04:35:15.11	328.50	6.97	
2025-01-12 04:35:15.32	328.46	6.96	
2025-01-12 04:35:15.52	328.43	6.96	
2025-01-12 04:35:15.73	328.40	6.95	
2025-01-12 04:35:15.93	328.37	6.95	
2025-01-12 04:35:16.14	328.34	6.94	
2025-01-12 04:35:16.35	328.31	6.94	
2025-01-12 04:35:16.55	328.28	6.93	
2025-01-12 04:35:16.76	328.24	6.93	
2025-01-12 04:35:16.96	328.21	6.92	
2025-01-12 04:35:17.17	328.18	6.92	
2025-01-12 04:35:17.37	328.15	6.91	
2025-01-12 04:35:17.58	328.12	6.91	
2025-01-12 04:35:17.78	328.09	6.90	
2025-01-12 04:35:17.99	328.06	6.90	
2025-01-12 04:35:18.19	328.03	6.89	
2025-01-12 04:35:18.39	328.00	6.89	
2025-01-12 04:35:18.60	327.96	6.88	
2025-01-12 04:35:18.81	327.93	6.88	
2025-01-12 04:35:19.01	327.90	6.87	
2025-01-12 04:35:19.21	327.87	6.87	
2025-01-12 04:35:19.42	327.84	6.86	
2025-01-12 04:35:19.63	327.81	6.86	
2025-01-12 04:35:19.83	327.78	6.85	
2025-01-12 04:35:20.04	327.74	6.85	
2025-01-12 04:35:20.24	327.71	6.84	
2025-01-12 04:35:20.45	327.68	6.83	
2025-01-12 04:35:20.66	327.65	6.83	
2025-01-12 04:35:20.86	327.62	6.82	
2025-01-12 04:35:21.07	327.59	6.82	
2025-01-12 04:35:21.27	327.56	6.81	
2025-01-12 04:35:21.47	327.53	6.81	
2025-01-12 04:35:21.68	327.50	6.80	
2025-01-12 04:35:21.89	327.46	6.80	
2025-01-12 04:35:22.09	327.43	6.79	
2025-01-12 04:35:22.29	327.40	6.79	
2025-01-12 04:35:22.50	327.37	6.78	
2025-01-12 04:35:22.71	327.34	6.78	
2025-01-12 04:35:22.91	327.31	6.77	
2025-01-12 04:35:23.12	327.28	6.77	
2025-01-12 04:35:23.32	327.25	6.76	
2025-01-12 04:35:23.53	327.22	6.76	
2025-01-12 04:35:23.73	327.19	6.75	
2025-01-12 04:35:23.94	327.15	6.75	
2025-01-12 04:35:24.14	327.12	6.74	
2025-01-12 04:35:24.35	327.09	6.74	
2025-01-12 04:35:24.55	327.06	6.73	
2025-01-12 04:35:24.76	327.03	6.73	
2025-01-12 04:35:24.96	327.00	6.72	
2025-01-12 04:35:25.17	326.97	6.72	
2025-01-12 04:35:25.37	326.94	6.71	
2025-01-12 04:35:25.58	326.91	6.70	
2025-01-12 04:35:25.78	326.88	6.70	
2025-01-12 04:35:25.99	326.85	6.69	
2025-01-12 04:35:26.19	326.82	6.69	
2025-01-12 04:35:26.40	326.78	6.68	
2025-01-12 04:35:26.60	326.75	6.68	
2025-01-12 04:35:26.81	326.72	6.67	
2025-01-12 04:35:27.02	326.69	6.67	
2025-01-12 04:35:27.22	326.66	6.66	
2025-01-12 04:35:27.43	326.63	6.66	
2025-01-12 04:35:27.63	326.60	6.65	
2025-01-12 04:35:27.84	326.57	6.65	
2025-01-12 04:35:28.05	326.54	6.64	
2025-01-12 04:35:28.25	326.51	6.63	
2025-01-12 04:35:28.46	326.48	6.63	
2025-01-12 04:35:28.66	326.45	6.62	
2025-01-12 04:35:28.87	326.41	6.62	
2025-01-12 04:35:29.07	326.38	6.61	
2025-01-12 04:35:29.28	326.35	6.61	
2025-01-12 04:35:29.48	326.32	6.60	
2025-01-12 04:35:29.69	326.29	6.60	
2025-01-12 04:35:29.89	326.26	6.59	
2025-01-12 04:35:30.10	326.23	6.59	
2025-01-12 04:35:30.30	326.20	6.58	
2025-01-12 04:35:30.51	326.17	6.58	
2025-01-12 04:35:30.71	326.14	6.57	
2025-01-12 04:35:30.92	326.11	6.56	
2025-01-12 04:35:31.12	326.08	6.56	
2025-01-12 04:35:31.33	326.05	6.55	
2025-01-12 04:35:31.53	326.02	6.55	
2025-01-12 04:35:31.74	325.99	6.54	
2025-01-12 04:35:31.94	325.96	6.54	
2025-01-12 04:35:32.15	325.93	6.53	
2025-01-12 04:35:32.36	325.89	6.53	
2025-01-12 04:35:32.56	325.87	6.52	
2025-01-12 04:35:32.77	325.83	6.51	
2025-01-12 04:35:32.97	325.80	6.51	
2025-01-12 04:35:33.18	325.77	6.50	
2025-01-12 04:35:33.38	325.74	6.50	
2025-01-12 04:35:33.59	325.71	6.49	
2025-01-12 04:35:33.79	325.68	6.49	
2025-01-12 04:35:34.00	325.65	6.48	
2025-01-12 04:35:34.20	325.62	6.48	
2025-01-12 04:35:34.41	325.59	6.47	
2025-01-12 04:35:34.61	325.56	6.46	
2025-01-12 04:35:34.82	325.53	6.46	
2025-01-12 04:35:35.02	325.50	6.45	
2025-01-12 04:35:35.23	325.47	6.45	
2025-01-12 04:35:35.43	325.44	6.44	
2025-01-12 04:35:35.64	325.41	6.44	
2025-01-12 04:35:35.84	325.38	6.43	
2025-01-12 04:35:36.05	325.35	6.43	
2025-01-12 04:35:36.25	325.32	6.42	
2025-01-12 04:35:36.46	325.29	6.41	
2025-01-12 04:35:36.66	325.26	6.41	
2025-01-12 04:35:36.87	325.23	6.40	
2025-01-12 04:35:37.07	325.20	6.40	
2025-01-12 04:35:37.28	325.17	6.39	
2025-01-12 04:35:37.49	325.14	6.39	
2025-01-12 04:35:37.69	325.11	6.38	
2025-01-12 04:35:37.90	325.08	6.37	
2025-01-12 04:35:38.10	325.05	6.37	
2025-01-12 04:35:38.31	325.02	6.36	
2025-01-12 04:35:38.51	324.99	6.36	
2025-01-12 04:35:38.72	324.96	6.35	
2025-01-12 04:35:38.92	324.93	6.35	
2025-01-12 04:35:39.13	324.90	6.34	
2025-01-12 04:35:39.33	324.87	6.33	
2025-01-12 04:35:39.54	324.84	6.33	
2025-01-12 04:35:39.75	324.81	6.32	
