passes_logs/2025/01/12/SPB_Silybum_02/SPB_Silybum_02__20250112_060749_SUOMI_NPP_rec.log

#Pass ID: 20250112_060749_SUOMI NPP
#Satellite: SUOMI NPP
#Configuration: NPP
#Start time: 2025-01-12 06:09:21

#Version: 2.0.20230423
#Station: SPB_Silybum_02
#Location: 30.233357 lon 59.946436 lat
#TLE: 1 37849U 11061A   25011.81852258  .00000147  00000+0  90749-4 0  9992
#TLE: 2 37849  98.7442 312.8475 0001799  45.9067 314.2257 14.19536766684464

#Time	Az	El	Level	Level2	SNR	BER	Gain	Gain2
2025-01-12 06:09:23.75	30.33	6.85	
2025-01-12 06:09:23.95	30.30	6.86	
2025-01-12 06:09:24.16	30.26	6.86	
2025-01-12 06:09:24.36	30.23	6.87	
2025-01-12 06:09:24.57	30.20	6.87	
2025-01-12 06:09:24.77	30.17	6.88	
2025-01-12 06:09:24.98	30.14	6.88	
2025-01-12 06:09:25.18	30.11	6.88	
2025-01-12 06:09:25.39	30.08	6.89	
2025-01-12 06:09:25.59	30.04	6.89	
2025-01-12 06:09:25.80	30.01	6.90	
2025-01-12 06:09:26.00	29.98	6.90	
2025-01-12 06:09:26.21	29.95	6.91	
2025-01-12 06:09:26.41	29.92	6.91	
2025-01-12 06:09:26.62	29.89	6.92	
2025-01-12 06:09:26.82	29.86	6.92	
2025-01-12 06:09:27.03	29.82	6.93	
2025-01-12 06:09:27.23	29.79	6.93	
2025-01-12 06:09:27.44	29.76	6.94	
2025-01-12 06:09:27.65	29.73	6.94	
2025-01-12 06:09:27.85	29.70	6.95	
2025-01-12 06:09:28.05	29.67	6.95	
2025-01-12 06:09:28.26	29.63	6.96	
2025-01-12 06:09:28.46	29.60	6.96	
2025-01-12 06:09:28.67	29.57	6.97	
2025-01-12 06:09:28.87	29.54	6.97	
2025-01-12 06:09:29.08	29.51	6.98	
2025-01-12 06:09:29.28	29.48	6.98	
2025-01-12 06:09:29.49	29.45	6.98	
2025-01-12 06:09:29.69	29.41	6.99	
2025-01-12 06:09:29.90	29.38	6.99	
2025-01-12 06:09:30.10	29.35	7.00	
2025-01-12 06:09:30.31	29.32	7.00	
2025-01-12 06:09:30.52	29.29	7.01	
2025-01-12 06:09:30.72	29.26	7.01	
2025-01-12 06:09:30.93	29.22	7.02	
2025-01-12 06:09:31.13	29.19	7.02	
2025-01-12 06:09:31.34	29.16	7.03	
2025-01-12 06:09:31.54	29.13	7.03	
2025-01-12 06:09:31.75	29.10	7.04	
2025-01-12 06:09:31.95	29.07	7.04	
2025-01-12 06:09:32.16	29.03	7.04	
2025-01-12 06:09:32.38	29.00	7.05	
2025-01-12 06:09:32.58	28.97	7.05	
2025-01-12 06:09:32.79	28.94	7.06	
2025-01-12 06:09:32.99	28.90	7.06	
2025-01-12 06:09:33.20	28.87	7.07	
2025-01-12 06:09:33.40	28.84	7.07	
2025-01-12 06:09:33.61	28.81	7.08	
2025-01-12 06:09:33.81	28.78	7.08	
2025-01-12 06:09:34.02	28.74	7.09	
2025-01-12 06:09:34.22	28.71	7.09	
2025-01-12 06:09:34.43	28.68	7.09	
2025-01-12 06:09:34.63	28.65	7.10	
2025-01-12 06:09:34.84	28.62	7.10	
2025-01-12 06:09:35.04	28.59	7.11	
2025-01-12 06:09:35.25	28.55	7.11	
2025-01-12 06:09:35.45	28.52	7.12	
2025-01-12 06:09:35.66	28.49	7.12	
2025-01-12 06:09:35.87	28.46	7.13	
2025-01-12 06:09:36.07	28.43	7.13	
2025-01-12 06:09:36.28	28.39	7.14	
2025-01-12 06:09:36.49	28.36	7.14	
2025-01-12 06:09:36.69	28.33	7.14	
2025-01-12 06:09:36.89	28.30	7.15	
2025-01-12 06:09:37.10	28.27	7.15	
2025-01-12 06:09:37.31	28.23	7.16	
2025-01-12 06:09:37.51	28.20	7.16	
2025-01-12 06:09:37.72	28.17	7.17	
2025-01-12 06:09:37.92	28.14	7.17	
2025-01-12 06:09:38.13	28.10	7.17	
2025-01-12 06:09:38.33	28.07	7.18	
2025-01-12 06:09:38.54	28.04	7.18	
2025-01-12 06:09:38.74	28.01	7.19	
2025-01-12 06:09:38.95	27.98	7.19	
2025-01-12 06:09:39.15	27.94	7.20	
2025-01-12 06:09:39.36	27.91	7.20	
2025-01-12 06:09:39.56	27.88	7.20	
2025-01-12 06:09:39.78	27.85	7.21	
2025-01-12 06:09:39.99	27.81	7.21	
2025-01-12 06:09:40.19	27.78	7.22	
2025-01-12 06:09:40.40	27.75	7.22	
2025-01-12 06:09:40.60	27.72	7.23	
2025-01-12 06:09:40.81	27.68	7.23	
2025-01-12 06:09:41.01	27.65	7.24	
2025-01-12 06:09:41.22	27.62	7.24	
2025-01-12 06:09:41.43	27.59	7.24	
2025-01-12 06:09:41.63	27.56	7.25	
2025-01-12 06:09:41.84	27.52	7.25	
2025-01-12 06:09:42.04	27.49	7.26	
2025-01-12 06:09:42.25	27.46	7.26	
2025-01-12 06:09:42.45	27.43	7.26	
2025-01-12 06:09:42.66	27.39	7.27	
2025-01-12 06:09:42.87	27.36	7.27	
2025-01-12 06:09:43.07	27.33	7.28	
2025-01-12 06:09:43.27	27.30	7.28	
2025-01-12 06:09:43.48	27.27	7.29	
2025-01-12 06:09:43.69	27.23	7.29	
2025-01-12 06:09:43.89	27.20	7.29	
2025-01-12 06:09:44.10	27.17	7.30	
2025-01-12 06:09:44.30	27.14	7.30	
2025-01-12 06:09:44.50	27.10	7.31	
2025-01-12 06:09:44.71	27.07	7.31	
2025-01-12 06:09:44.92	27.04	7.31	
2025-01-12 06:09:45.13	27.01	7.32	
2025-01-12 06:09:45.34	26.97	7.32	
2025-01-12 06:09:45.54	26.94	7.33	
2025-01-12 06:09:45.75	26.91	7.33	
2025-01-12 06:09:45.95	26.88	7.34	
2025-01-12 06:09:46.16	26.84	7.34	
2025-01-12 06:09:46.36	26.81	7.34	
2025-01-12 06:09:46.57	26.78	7.35	
2025-01-12 06:09:46.77	26.75	7.35	
2025-01-12 06:09:46.98	26.71	7.36	
2025-01-12 06:09:47.18	26.68	7.36	
2025-01-12 06:09:47.39	26.65	7.36	
2025-01-12 06:09:47.59	26.62	7.37	
2025-01-12 06:09:47.80	26.58	7.37	
2025-01-12 06:09:48.00	26.55	7.38	
2025-01-12 06:09:48.21	26.52	7.38	
2025-01-12 06:09:48.42	26.48	7.38	
2025-01-12 06:09:48.62	26.45	7.39	
2025-01-12 06:09:48.82	26.42	7.39	
2025-01-12 06:09:49.03	26.39	7.40	
2025-01-12 06:09:49.24	26.35	7.40	
2025-01-12 06:09:49.44	26.32	7.40	
2025-01-12 06:09:49.64	26.29	7.41	
2025-01-12 06:09:49.85	26.26	7.41	
2025-01-12 06:09:50.06	26.22	7.41	
2025-01-12 06:09:50.26	26.19	7.42	
2025-01-12 06:09:50.48	26.16	7.42	
2025-01-12 06:09:50.68	26.13	7.43	
2025-01-12 06:09:50.89	26.09	7.43	
2025-01-12 06:09:51.10	26.06	7.43	
2025-01-12 06:09:51.30	26.03	7.44	
2025-01-12 06:09:51.50	26.00	7.44	
2025-01-12 06:09:51.71	25.96	7.45	
2025-01-12 06:09:51.91	25.93	7.45	
2025-01-12 06:09:52.13	25.90	7.45	
2025-01-12 06:09:52.33	25.86	7.46	
2025-01-12 06:09:52.54	25.83	7.46	
2025-01-12 06:09:52.74	25.80	7.47	
2025-01-12 06:09:52.95	25.76	7.47	
2025-01-12 06:09:53.16	25.73	7.47	
2025-01-12 06:09:53.36	25.70	7.48	
2025-01-12 06:09:53.57	25.67	7.48	
2025-01-12 06:09:53.78	25.63	7.48	
2025-01-12 06:09:53.99	25.60	7.49	
2025-01-12 06:09:54.20	25.57	7.49	
2025-01-12 06:09:54.41	25.53	7.50	
2025-01-12 06:09:54.62	25.50	7.50	
2025-01-12 06:09:54.83	25.46	7.50	
2025-01-12 06:09:55.03	25.43	7.51	
2025-01-12 06:09:55.24	25.40	7.51	
2025-01-12 06:09:55.44	25.37	7.51	
2025-01-12 06:09:55.65	25.33	7.52	
2025-01-12 06:09:55.87	25.30	7.52	
2025-01-12 06:09:56.07	25.27	7.53	
2025-01-12 06:09:56.28	25.23	7.53	
2025-01-12 06:09:56.49	25.20	7.53	
2025-01-12 06:09:56.69	25.17	7.54	
2025-01-12 06:09:56.90	25.13	7.54	
2025-01-12 06:09:57.10	25.10	7.54	
2025-01-12 06:09:57.31	25.07	7.55	
2025-01-12 06:09:57.51	25.04	7.55	
2025-01-12 06:09:57.72	25.00	7.55	
2025-01-12 06:09:57.92	24.97	7.56	
2025-01-12 06:09:58.13	24.94	7.56	
2025-01-12 06:09:58.33	24.90	7.57	
2025-01-12 06:09:58.54	24.87	7.57	
2025-01-12 06:09:58.74	24.84	7.57	
2025-01-12 06:09:58.95	24.80	7.58	
2025-01-12 06:09:59.16	24.77	7.58	
2025-01-12 06:09:59.36	24.74	7.58	
2025-01-12 06:09:59.57	24.70	7.59	
2025-01-12 06:09:59.77	24.67	7.59	
2025-01-12 06:09:59.98	24.64	7.59	
2025-01-12 06:10:00.20	24.60	7.60	
2025-01-12 06:10:00.40	24.57	7.60	
2025-01-12 06:10:00.61	24.54	7.60	
2025-01-12 06:10:00.82	24.50	7.61	
2025-01-12 06:10:01.02	24.47	7.61	
2025-01-12 06:10:01.23	24.44	7.61	
2025-01-12 06:10:01.43	24.41	7.62	
2025-01-12 06:10:01.64	24.37	7.62	
2025-01-12 06:10:01.84	24.34	7.63	
2025-01-12 06:10:02.05	24.31	7.63	
2025-01-12 06:10:02.25	24.27	7.63	
2025-01-12 06:10:02.46	24.24	7.64	
2025-01-12 06:10:02.67	24.21	7.64	
2025-01-12 06:10:02.87	24.17	7.64	
2025-01-12 06:10:03.08	24.14	7.65	
2025-01-12 06:10:03.28	24.11	7.65	
2025-01-12 06:10:03.49	24.07	7.65	
2025-01-12 06:10:03.70	24.04	7.66	
2025-01-12 06:10:03.90	24.01	7.66	
2025-01-12 06:10:04.10	23.97	7.66	
2025-01-12 06:10:04.31	23.94	7.67	
2025-01-12 06:10:04.51	23.91	7.67	
2025-01-12 06:10:04.72	23.87	7.67	
2025-01-12 06:10:04.93	23.84	7.68	
2025-01-12 06:10:05.13	23.81	7.68	
2025-01-12 06:10:05.34	23.77	7.68	
2025-01-12 06:10:05.55	23.74	7.69	
2025-01-12 06:10:05.76	23.71	7.69	
2025-01-12 06:10:05.96	23.67	7.69	
2025-01-12 06:10:06.17	23.64	7.70	
2025-01-12 06:10:06.37	23.61	7.70	
2025-01-12 06:10:06.58	23.57	7.70	
2025-01-12 06:10:06.78	23.54	7.70	
2025-01-12 06:10:06.99	23.51	7.71	
2025-01-12 06:10:07.19	23.47	7.71	
2025-01-12 06:10:07.40	23.44	7.71	
2025-01-12 06:10:07.60	23.41	7.72	
2025-01-12 06:10:07.81	23.37	7.72	
2025-01-12 06:10:08.02	23.34	7.72	
2025-01-12 06:10:08.22	23.31	7.73	
2025-01-12 06:10:08.43	23.27	7.73	
2025-01-12 06:10:08.63	23.24	7.73	
2025-01-12 06:10:08.83	23.21	7.74	
2025-01-12 06:10:09.04	23.17	7.74	
2025-01-12 06:10:09.25	23.14	7.74	
2025-01-12 06:10:09.45	23.11	7.75	
2025-01-12 06:10:09.66	23.07	7.75	
2025-01-12 06:10:09.86	23.04	7.75	
2025-01-12 06:10:10.07	23.01	7.76	
2025-01-12 06:10:10.27	22.97	7.76	
2025-01-12 06:10:10.48	22.94	7.76	
2025-01-12 06:10:10.68	22.91	7.76	
2025-01-12 06:10:10.89	22.87	7.77	
2025-01-12 06:10:11.09	22.84	7.77	
2025-01-12 06:10:11.30	22.81	7.77	
2025-01-12 06:10:11.51	22.77	7.78	
2025-01-12 06:10:11.71	22.74	7.78	
2025-01-12 06:10:11.92	22.71	7.78	
2025-01-12 06:10:12.12	22.67	7.79	
2025-01-12 06:10:12.33	22.64	7.79	
2025-01-12 06:10:12.53	22.61	7.79	
2025-01-12 06:10:12.74	22.57	7.79	
2025-01-12 06:10:12.94	22.54	7.80	
2025-01-12 06:10:13.15	22.50	7.80	
2025-01-12 06:10:13.35	22.47	7.80	
2025-01-12 06:10:13.56	22.44	7.81	
2025-01-12 06:10:13.76	22.41	7.81	
2025-01-12 06:10:13.96	22.37	7.81	
2025-01-12 06:10:14.17	22.34	7.81	
2025-01-12 06:10:14.38	22.30	7.82	
2025-01-12 06:10:14.58	22.27	7.82	
2025-01-12 06:10:14.79	22.24	7.82	
2025-01-12 06:10:14.99	22.20	7.83	
2025-01-12 06:10:15.20	22.17	7.83	
2025-01-12 06:10:15.40	22.14	7.83	
2025-01-12 06:10:15.61	22.10	7.84	
2025-01-12 06:10:15.81	22.07	7.84	
2025-01-12 06:10:16.02	22.04	7.84	
2025-01-12 06:10:16.22	22.00	7.84	
2025-01-12 06:10:16.43	21.97	7.85	
2025-01-12 06:10:16.63	21.94	7.85	
2025-01-12 06:10:16.84	21.90	7.85	
2025-01-12 06:10:17.05	21.87	7.85	
2025-01-12 06:10:17.26	21.83	7.86	
2025-01-12 06:10:17.47	21.80	7.86	
2025-01-12 06:10:17.68	21.76	7.86	
2025-01-12 06:10:17.88	21.73	7.87	
2025-01-12 06:10:18.09	21.70	7.87	
2025-01-12 06:10:18.29	21.66	7.87	
2025-01-12 06:10:18.49	21.63	7.87	
2025-01-12 06:10:18.70	21.60	7.88	
2025-01-12 06:10:18.90	21.56	7.88	
2025-01-12 06:10:19.11	21.53	7.88	
2025-01-12 06:10:19.31	21.50	7.88	
2025-01-12 06:10:19.52	21.46	7.89	
2025-01-12 06:10:19.73	21.43	7.89	
2025-01-12 06:10:19.93	21.39	7.89	
2025-01-12 06:10:20.14	21.36	7.90	
2025-01-12 06:10:20.34	21.33	7.90	
2025-01-12 06:10:20.55	21.29	7.90	
2025-01-12 06:10:20.75	21.26	7.90	
2025-01-12 06:10:20.96	21.23	7.91	
2025-01-12 06:10:21.16	21.19	7.91	
2025-01-12 06:10:21.37	21.16	7.91	
2025-01-12 06:10:21.57	21.13	7.91	
2025-01-12 06:10:21.78	21.09	7.92	
2025-01-12 06:10:21.99	21.06	7.92	
2025-01-12 06:10:22.19	21.02	7.92	
2025-01-12 06:10:22.40	20.99	7.92	
2025-01-12 06:10:22.62	20.95	7.93	
2025-01-12 06:10:22.82	20.92	7.93	
2025-01-12 06:10:23.03	20.89	7.93	
2025-01-12 06:10:23.23	20.85	7.93	
2025-01-12 06:10:23.44	20.82	7.94	
2025-01-12 06:10:23.64	20.78	7.94	
2025-01-12 06:10:23.85	20.75	7.94	
2025-01-12 06:10:24.05	20.72	7.94	
2025-01-12 06:10:24.26	20.68	7.95	
2025-01-12 06:10:24.46	20.65	7.95	
2025-01-12 06:10:24.67	20.61	7.95	
2025-01-12 06:10:24.87	20.58	7.95	
2025-01-12 06:10:25.08	20.55	7.96	
2025-01-12 06:10:25.28	20.51	7.96	
2025-01-12 06:10:25.48	20.48	7.96	
2025-01-12 06:10:25.69	20.45	7.96	
2025-01-12 06:10:25.89	20.41	7.97	
2025-01-12 06:10:26.10	20.38	7.97	
2025-01-12 06:10:26.31	20.34	7.97	
2025-01-12 06:10:26.51	20.31	7.97	
2025-01-12 06:10:26.71	20.28	7.98	
2025-01-12 06:10:26.92	20.24	7.98	
2025-01-12 06:10:27.12	20.21	7.98	
2025-01-12 06:10:27.33	20.18	7.98	
2025-01-12 06:10:27.53	20.14	7.98	
2025-01-12 06:10:27.74	20.11	7.99	
2025-01-12 06:10:27.94	20.07	7.99	
2025-01-12 06:10:28.15	20.04	7.99	
2025-01-12 06:10:28.36	20.01	7.99	
2025-01-12 06:10:28.56	19.97	8.00	
2025-01-12 06:10:28.77	19.94	8.00	
2025-01-12 06:10:28.97	19.90	8.00	
2025-01-12 06:10:29.18	19.87	8.00	
2025-01-12 06:10:29.38	19.84	8.00	
2025-01-12 06:10:29.59	19.80	8.01	
2025-01-12 06:10:29.79	19.77	8.01	
2025-01-12 06:10:29.99	19.74	8.01	
2025-01-12 06:10:30.20	19.70	8.01	
2025-01-12 06:10:30.40	19.67	8.02	
2025-01-12 06:10:30.61	19.63	8.02	
2025-01-12 06:10:30.82	19.60	8.02	
2025-01-12 06:10:31.02	19.57	8.02	
2025-01-12 06:10:31.22	19.53	8.02	
2025-01-12 06:10:31.43	19.50	8.03	
2025-01-12 06:10:31.63	19.46	8.03	
2025-01-12 06:10:31.84	19.43	8.03	
2025-01-12 06:10:32.04	19.40	8.03	
2025-01-12 06:10:32.25	19.36	8.03	
2025-01-12 06:10:32.45	19.33	8.04	
2025-01-12 06:10:32.66	19.29	8.04	
2025-01-12 06:10:32.87	19.26	8.04	
2025-01-12 06:10:33.07	19.23	8.04	
2025-01-12 06:10:33.28	19.19	8.05	
2025-01-12 06:10:33.48	19.16	8.05	
2025-01-12 06:10:33.69	19.12	8.05	
2025-01-12 06:10:33.89	19.09	8.05	
2025-01-12 06:10:34.10	19.05	8.05	
2025-01-12 06:10:34.32	19.02	8.06	
2025-01-12 06:10:34.52	18.98	8.06	
2025-01-12 06:10:34.73	18.95	8.06	
2025-01-12 06:10:34.93	18.92	8.06	
2025-01-12 06:10:35.14	18.88	8.06	
2025-01-12 06:10:35.34	18.85	8.07	
2025-01-12 06:10:35.55	18.81	8.07	
2025-01-12 06:10:35.75	18.78	8.07	
2025-01-12 06:10:35.96	18.75	8.07	
2025-01-12 06:10:36.17	18.71	8.07	
2025-01-12 06:10:36.37	18.68	8.08	
2025-01-12 06:10:36.58	18.64	8.08	
2025-01-12 06:10:36.78	18.61	8.08	
2025-01-12 06:10:36.99	18.57	8.08	
2025-01-12 06:10:37.19	18.54	8.08	
2025-01-12 06:10:37.40	18.51	8.08	
2025-01-12 06:10:37.60	18.47	8.09	
2025-01-12 06:10:37.81	18.44	8.09	
2025-01-12 06:10:38.01	18.40	8.09	
2025-01-12 06:10:38.22	18.37	8.09	
2025-01-12 06:10:38.42	18.34	8.09	
2025-01-12 06:10:38.62	18.30	8.10	
2025-01-12 06:10:38.83	18.27	8.10	
2025-01-12 06:10:39.04	18.23	8.10	
2025-01-12 06:10:39.24	18.20	8.10	
2025-01-12 06:10:39.45	18.16	8.10	
2025-01-12 06:10:39.65	18.13	8.10	
2025-01-12 06:10:39.86	18.10	8.11	
2025-01-12 06:10:40.06	18.06	8.11	
2025-01-12 06:10:40.27	18.03	8.11	
2025-01-12 06:10:40.47	17.99	8.11	
2025-01-12 06:10:40.68	17.96	8.11	
2025-01-12 06:10:40.88	17.93	8.11	
2025-01-12 06:10:41.09	17.89	8.12	
2025-01-12 06:10:41.29	17.86	8.12	
2025-01-12 06:10:41.50	17.82	8.12	
2025-01-12 06:10:41.70	17.79	8.12	
2025-01-12 06:10:41.91	17.75	8.12	
2025-01-12 06:10:42.11	17.72	8.12	
2025-01-12 06:10:42.32	17.69	8.13	
2025-01-12 06:10:42.53	17.65	8.13	
2025-01-12 06:10:42.73	17.62	8.13	
2025-01-12 06:10:42.93	17.58	8.13	
2025-01-12 06:10:43.14	17.55	8.13	
2025-01-12 06:10:43.34	17.52	8.13	
2025-01-12 06:10:43.55	17.48	8.14	
2025-01-12 06:10:43.75	17.45	8.14	
2025-01-12 06:10:43.96	17.41	8.14	
2025-01-12 06:10:44.16	17.38	8.14	
2025-01-12 06:10:44.37	17.34	8.14	
2025-01-12 06:10:44.57	17.31	8.14	
2025-01-12 06:10:44.78	17.27	8.15	
2025-01-12 06:10:45.00	17.24	8.15	
2025-01-12 06:10:45.20	17.20	8.15	
2025-01-12 06:10:45.41	17.17	8.15	
2025-01-12 06:10:45.61	17.14	8.15	
2025-01-12 06:10:45.81	17.10	8.15	
2025-01-12 06:10:46.02	17.07	8.15	
2025-01-12 06:10:46.22	17.03	8.16	
2025-01-12 06:10:46.43	17.00	8.16	
2025-01-12 06:10:46.64	16.96	8.16	
2025-01-12 06:10:46.84	16.93	8.16	
2025-01-12 06:10:47.04	16.90	8.16	
2025-01-12 06:10:47.25	16.86	8.16	
2025-01-12 06:10:47.46	16.83	8.16	
2025-01-12 06:10:47.66	16.79	8.17	
2025-01-12 06:10:47.87	16.76	8.17	
2025-01-12 06:10:48.07	16.72	8.17	
2025-01-12 06:10:48.27	16.69	8.17	
2025-01-12 06:10:48.48	16.66	8.17	
2025-01-12 06:10:48.69	16.62	8.17	
2025-01-12 06:10:48.89	16.59	8.17	
2025-01-12 06:10:49.10	16.55	8.17	
2025-01-12 06:10:49.32	16.52	8.18	
2025-01-12 06:10:49.52	16.48	8.18	
2025-01-12 06:10:49.73	16.45	8.18	
2025-01-12 06:10:49.93	16.41	8.18	
2025-01-12 06:10:50.14	16.38	8.18	
2025-01-12 06:10:50.34	16.34	8.18	
2025-01-12 06:10:50.55	16.31	8.18	
2025-01-12 06:10:50.75	16.28	8.18	
2025-01-12 06:10:50.96	16.24	8.19	
2025-01-12 06:10:51.17	16.21	8.19	
2025-01-12 06:10:51.37	16.17	8.19	
2025-01-12 06:10:51.58	16.14	8.19	
2025-01-12 06:10:51.78	16.10	8.19	
2025-01-12 06:10:51.99	16.07	8.19	
2025-01-12 06:10:52.19	16.03	8.19	
2025-01-12 06:10:52.40	16.00	8.19	
2025-01-12 06:10:52.60	15.97	8.20	
2025-01-12 06:10:52.81	15.93	8.20	
2025-01-12 06:10:53.01	15.90	8.20	
2025-01-12 06:10:53.22	15.86	8.20	
2025-01-12 06:10:53.42	15.83	8.20	
2025-01-12 06:10:53.63	15.79	8.20	
2025-01-12 06:10:53.83	15.76	8.20	
2025-01-12 06:10:54.04	15.72	8.20	
2025-01-12 06:10:54.24	15.69	8.20	
2025-01-12 06:10:54.45	15.66	8.21	
2025-01-12 06:10:54.65	15.62	8.21	
2025-01-12 06:10:54.86	15.59	8.21	
2025-01-12 06:10:55.07	15.55	8.21	
2025-01-12 06:10:55.28	15.52	8.21	
2025-01-12 06:10:55.48	15.48	8.21	
2025-01-12 06:10:55.70	15.45	8.21	
2025-01-12 06:10:55.91	15.41	8.21	
2025-01-12 06:10:56.11	15.38	8.21	
2025-01-12 06:10:56.32	15.34	8.21	
2025-01-12 06:10:56.52	15.31	8.22	
2025-01-12 06:10:56.73	15.27	8.22	
2025-01-12 06:10:56.93	15.24	8.22	
2025-01-12 06:10:57.13	15.21	8.22	
2025-01-12 06:10:57.34	15.17	8.22	
2025-01-12 06:10:57.54	15.14	8.22	
2025-01-12 06:10:57.75	15.10	8.22	
2025-01-12 06:10:57.95	15.07	8.22	
2025-01-12 06:10:58.16	15.03	8.22	
2025-01-12 06:10:58.36	15.00	8.22	
2025-01-12 06:10:58.57	14.96	8.22	
2025-01-12 06:10:58.77	14.93	8.23	
2025-01-12 06:10:58.98	14.89	8.23	
2025-01-12 06:10:59.19	14.86	8.23	
2025-01-12 06:10:59.39	14.83	8.23	
2025-01-12 06:10:59.60	14.79	8.23	
2025-01-12 06:10:59.80	14.76	8.23	
2025-01-12 06:11:00.01	14.72	8.23	
2025-01-12 06:11:00.21	14.69	8.23	
2025-01-12 06:11:00.42	14.65	8.23	
2025-01-12 06:11:00.63	14.62	8.23	
2025-01-12 06:11:00.83	14.58	8.23	
2025-01-12 06:11:01.04	14.55	8.23	
2025-01-12 06:11:01.24	14.51	8.24	
2025-01-12 06:11:01.45	14.48	8.24	
2025-01-12 06:11:01.66	14.44	8.24	
2025-01-12 06:11:01.86	14.41	8.24	
2025-01-12 06:11:02.07	14.38	8.24	
2025-01-12 06:11:02.28	14.34	8.24	
2025-01-12 06:11:02.49	14.30	8.24	
2025-01-12 06:11:02.69	14.27	8.24	
2025-01-12 06:11:02.90	14.24	8.24	
2025-01-12 06:11:03.10	14.20	8.24	
2025-01-12 06:11:03.31	14.17	8.24	
2025-01-12 06:11:03.52	14.13	8.24	
2025-01-12 06:11:03.72	14.10	8.24	
2025-01-12 06:11:03.93	14.06	8.24	
2025-01-12 06:11:04.13	14.03	8.24	
2025-01-12 06:11:04.34	13.99	8.25	
2025-01-12 06:11:04.54	13.96	8.25	
2025-01-12 06:11:04.74	13.93	8.25	
2025-01-12 06:11:04.95	13.89	8.25	
2025-01-12 06:11:05.15	13.86	8.25	
2025-01-12 06:11:05.36	13.82	8.25	
2025-01-12 06:11:05.57	13.79	8.25	
2025-01-12 06:11:05.77	13.75	8.25	
2025-01-12 06:11:05.98	13.72	8.25	
2025-01-12 06:11:06.18	13.68	8.25	
2025-01-12 06:11:06.39	13.65	8.25	
2025-01-12 06:11:06.59	13.61	8.25	
2025-01-12 06:11:06.80	13.58	8.25	
2025-01-12 06:11:07.01	13.54	8.25	
2025-01-12 06:11:07.21	13.51	8.25	
2025-01-12 06:11:07.41	13.48	8.25	
2025-01-12 06:11:07.62	13.44	8.25	
2025-01-12 06:11:07.82	13.41	8.25	
2025-01-12 06:11:08.03	13.37	8.25	
2025-01-12 06:11:08.23	13.34	8.25	
2025-01-12 06:11:08.44	13.30	8.25	
2025-01-12 06:11:08.65	13.27	8.26	
2025-01-12 06:11:08.85	13.23	8.26	
2025-01-12 06:11:09.06	13.20	8.26	
2025-01-12 06:11:09.26	13.17	8.26	
2025-01-12 06:11:09.47	13.13	8.26	
2025-01-12 06:11:09.67	13.10	8.26	
2025-01-12 06:11:09.88	13.06	8.26	
2025-01-12 06:11:10.08	13.03	8.26	
2025-01-12 06:11:10.29	12.99	8.26	
2025-01-12 06:11:10.50	12.96	8.26	
2025-01-12 06:11:10.70	12.92	8.26	
2025-01-12 06:11:10.90	12.89	8.26	
2025-01-12 06:11:11.11	12.85	8.26	
2025-01-12 06:11:11.32	12.82	8.26	
2025-01-12 06:11:11.52	12.78	8.26	
2025-01-12 06:11:11.73	12.75	8.26	
2025-01-12 06:11:11.93	12.72	8.26	
2025-01-12 06:11:12.14	12.68	8.26	
2025-01-12 06:11:12.34	12.65	8.26	
2025-01-12 06:11:12.55	12.61	8.26	
2025-01-12 06:11:12.75	12.58	8.26	
2025-01-12 06:11:12.96	12.54	8.26	
2025-01-12 06:11:13.17	12.51	8.26	
2025-01-12 06:11:13.37	12.47	8.26	
2025-01-12 06:11:13.58	12.44	8.26	
2025-01-12 06:11:13.79	12.40	8.26	
2025-01-12 06:11:14.00	12.37	8.26	
2025-01-12 06:11:14.20	12.33	8.26	
2025-01-12 06:11:14.41	12.30	8.26	
2025-01-12 06:11:14.62	12.26	8.26	
2025-01-12 06:11:14.82	12.23	8.26	
2025-01-12 06:11:15.02	12.20	8.26	
2025-01-12 06:11:15.23	12.16	8.26	
2025-01-12 06:11:15.44	12.12	8.26	
2025-01-12 06:11:15.64	12.09	8.26	
2025-01-12 06:11:15.85	12.06	8.26	
2025-01-12 06:11:16.06	12.02	8.26	
2025-01-12 06:11:16.26	11.99	8.26	
2025-01-12 06:11:16.47	11.95	8.26	
2025-01-12 06:11:16.68	11.92	8.26	
2025-01-12 06:11:16.88	11.88	8.26	
2025-01-12 06:11:17.09	11.85	8.26	
2025-01-12 06:11:17.29	11.81	8.26	
2025-01-12 06:11:17.50	11.78	8.26	
2025-01-12 06:11:17.70	11.74	8.26	
2025-01-12 06:11:17.91	11.71	8.26	
2025-01-12 06:11:18.11	11.67	8.26	
2025-01-12 06:11:18.32	11.64	8.26	
2025-01-12 06:11:18.52	11.61	8.26	
2025-01-12 06:11:18.73	11.57	8.26	
2025-01-12 06:11:18.93	11.54	8.26	
2025-01-12 06:11:19.14	11.50	8.26	
2025-01-12 06:11:19.34	11.47	8.26	
2025-01-12 06:11:19.55	11.43	8.26	
2025-01-12 06:11:19.75	11.40	8.26	
2025-01-12 06:11:19.96	11.36	8.26	
2025-01-12 06:11:20.16	11.33	8.26	
2025-01-12 06:11:20.37	11.29	8.26	
2025-01-12 06:11:20.58	11.26	8.26	
2025-01-12 06:11:20.78	11.22	8.26	
2025-01-12 06:11:20.99	11.19	8.26	
2025-01-12 06:11:21.19	11.16	8.26	
2025-01-12 06:11:21.40	11.12	8.26	
2025-01-12 06:11:21.61	11.09	8.26	
2025-01-12 06:11:21.81	11.05	8.26	
2025-01-12 06:11:22.02	11.02	8.26	
2025-01-12 06:11:22.23	10.98	8.26	
2025-01-12 06:11:22.44	10.95	8.26	
2025-01-12 06:11:22.64	10.91	8.26	
2025-01-12 06:11:22.85	10.88	8.26	
2025-01-12 06:11:23.05	10.84	8.26	
2025-01-12 06:11:23.26	10.81	8.26	
2025-01-12 06:11:23.48	10.77	8.26	
2025-01-12 06:11:23.68	10.74	8.26	
2025-01-12 06:11:23.89	10.70	8.26	
2025-01-12 06:11:24.10	10.67	8.26	
2025-01-12 06:11:24.30	10.63	8.26	
2025-01-12 06:11:24.50	10.60	8.26	
2025-01-12 06:11:24.71	10.56	8.25	
2025-01-12 06:11:24.92	10.53	8.25	
2025-01-12 06:11:25.12	10.49	8.25	
2025-01-12 06:11:25.33	10.46	8.25	
2025-01-12 06:11:25.53	10.43	8.25	
2025-01-12 06:11:25.74	10.39	8.25	
2025-01-12 06:11:25.94	10.36	8.25	
2025-01-12 06:11:26.15	10.32	8.25	
2025-01-12 06:11:26.35	10.29	8.25	
2025-01-12 06:11:26.56	10.25	8.25	
2025-01-12 06:11:26.76	10.22	8.25	
2025-01-12 06:11:26.97	10.18	8.25	
2025-01-12 06:11:27.18	10.15	8.25	
2025-01-12 06:11:27.38	10.11	8.25	
2025-01-12 06:11:27.59	10.08	8.25	
2025-01-12 06:11:27.79	10.04	8.25	
2025-01-12 06:11:28.00	10.01	8.25	
2025-01-12 06:11:28.20	9.98	8.25	
2025-01-12 06:11:28.41	9.94	8.25	
2025-01-12 06:11:28.61	9.91	8.25	
2025-01-12 06:11:28.82	9.87	8.24	
2025-01-12 06:11:29.02	9.84	8.24	
2025-01-12 06:11:29.23	9.80	8.24	
2025-01-12 06:11:29.43	9.77	8.24	
2025-01-12 06:11:29.64	9.73	8.24	
2025-01-12 06:11:29.86	9.70	8.24	
2025-01-12 06:11:30.06	9.66	8.24	
2025-01-12 06:11:30.27	9.63	8.24	
2025-01-12 06:11:30.48	9.59	8.24	
2025-01-12 06:11:30.68	9.56	8.24	
2025-01-12 06:11:30.88	9.52	8.24	
2025-01-12 06:11:31.09	9.49	8.24	
2025-01-12 06:11:31.30	9.45	8.24	
2025-01-12 06:11:31.50	9.42	8.24	
2025-01-12 06:11:31.71	9.39	8.24	
2025-01-12 06:11:31.91	9.35	8.23	
2025-01-12 06:11:32.12	9.32	8.23	
2025-01-12 06:11:32.32	9.28	8.23	
2025-01-12 06:11:32.53	9.25	8.23	
2025-01-12 06:11:32.74	9.21	8.23	
2025-01-12 06:11:32.94	9.18	8.23	
2025-01-12 06:11:33.15	9.14	8.23	
2025-01-12 06:11:33.35	9.11	8.23	
2025-01-12 06:11:33.56	9.07	8.23	
2025-01-12 06:11:33.76	9.04	8.23	
2025-01-12 06:11:33.97	9.01	8.23	
2025-01-12 06:11:34.17	8.97	8.23	
2025-01-12 06:11:34.38	8.94	8.23	
2025-01-12 06:11:34.58	8.90	8.22	
2025-01-12 06:11:34.79	8.87	8.22	
2025-01-12 06:11:34.99	8.83	8.22	
2025-01-12 06:11:35.20	8.80	8.22	
2025-01-12 06:11:35.41	8.76	8.22	
2025-01-12 06:11:35.61	8.73	8.22	
2025-01-12 06:11:35.82	8.69	8.22	
2025-01-12 06:11:36.02	8.66	8.22	
2025-01-12 06:11:36.22	8.63	8.22	
2025-01-12 06:11:36.43	8.59	8.22	
2025-01-12 06:11:36.63	8.56	8.22	
2025-01-12 06:11:36.84	8.52	8.21	
2025-01-12 06:11:37.05	8.49	8.21	
2025-01-12 06:11:37.25	8.45	8.21	
2025-01-12 06:11:37.46	8.42	8.21	
2025-01-12 06:11:37.66	8.39	8.21	
2025-01-12 06:11:37.87	8.35	8.21	
2025-01-12 06:11:38.07	8.32	8.21	
2025-01-12 06:11:38.28	8.28	8.21	
2025-01-12 06:11:38.48	8.25	8.21	
2025-01-12 06:11:38.69	8.21	8.21	
2025-01-12 06:11:38.89	8.18	8.20	
2025-01-12 06:11:39.10	8.14	8.20	
2025-01-12 06:11:39.30	8.11	8.20	
2025-01-12 06:11:39.51	8.08	8.20	
2025-01-12 06:11:39.71	8.04	8.20	
2025-01-12 06:11:39.92	8.01	8.20	
2025-01-12 06:11:40.13	7.97	8.20	
2025-01-12 06:11:40.33	7.94	8.20	
2025-01-12 06:11:40.54	7.90	8.20	
2025-01-12 06:11:40.74	7.87	8.19	
2025-01-12 06:11:40.95	7.83	8.19	
2025-01-12 06:11:41.15	7.80	8.19	
2025-01-12 06:11:41.36	7.77	8.19	
2025-01-12 06:11:41.56	7.73	8.19	
2025-01-12 06:11:41.77	7.70	8.19	
2025-01-12 06:11:41.97	7.66	8.19	
2025-01-12 06:11:42.18	7.63	8.19	
2025-01-12 06:11:42.38	7.59	8.18	
2025-01-12 06:11:42.59	7.56	8.18	
2025-01-12 06:11:42.79	7.53	8.18	
2025-01-12 06:11:43.00	7.49	8.18	
2025-01-12 06:11:43.20	7.46	8.18	
2025-01-12 06:11:43.41	7.42	8.18	
2025-01-12 06:11:43.61	7.39	8.18	
2025-01-12 06:11:43.82	7.35	8.18	
2025-01-12 06:11:44.02	7.32	8.17	
2025-01-12 06:11:44.23	7.28	8.17	
2025-01-12 06:11:44.44	7.25	8.17	
2025-01-12 06:11:44.64	7.22	8.17	
2025-01-12 06:11:44.84	7.18	8.17	
2025-01-12 06:11:45.05	7.15	8.17	
2025-01-12 06:11:45.26	7.11	8.17	
2025-01-12 06:11:45.46	7.08	8.16	
2025-01-12 06:11:45.67	7.04	8.16	
2025-01-12 06:11:45.87	7.01	8.16	
2025-01-12 06:11:46.08	6.98	8.16	
2025-01-12 06:11:46.28	6.94	8.16	
2025-01-12 06:11:46.49	6.91	8.16	
2025-01-12 06:11:46.69	6.87	8.16	
2025-01-12 06:11:46.90	6.84	8.15	
2025-01-12 06:11:47.10	6.80	8.15	
2025-01-12 06:11:47.30	6.77	8.15	
2025-01-12 06:11:47.51	6.74	8.15	
2025-01-12 06:11:47.72	6.70	8.15	
2025-01-12 06:11:47.92	6.67	8.15	
2025-01-12 06:11:48.13	6.63	8.15	
2025-01-12 06:11:48.33	6.60	8.14	
2025-01-12 06:11:48.54	6.56	8.14	
2025-01-12 06:11:48.74	6.53	8.14	
2025-01-12 06:11:48.95	6.50	8.14	
2025-01-12 06:11:49.15	6.46	8.14	
2025-01-12 06:11:49.36	6.43	8.14	
2025-01-12 06:11:49.56	6.39	8.14	
2025-01-12 06:11:49.77	6.36	8.13	
2025-01-12 06:11:49.98	6.32	8.13	
2025-01-12 06:11:50.18	6.29	8.13	
2025-01-12 06:11:50.39	6.26	8.13	
2025-01-12 06:11:50.59	6.22	8.13	
2025-01-12 06:11:50.80	6.19	8.13	
2025-01-12 06:11:51.00	6.15	8.12	
2025-01-12 06:11:51.21	6.12	8.12	
2025-01-12 06:11:51.41	6.09	8.12	
2025-01-12 06:11:51.62	6.05	8.12	
2025-01-12 06:11:51.83	6.02	8.12	
2025-01-12 06:11:52.03	5.98	8.12	
2025-01-12 06:11:52.23	5.95	8.11	
2025-01-12 06:11:52.44	5.91	8.11	
2025-01-12 06:11:52.65	5.88	8.11	
2025-01-12 06:11:52.85	5.84	8.11	
2025-01-12 06:11:53.06	5.81	8.11	
2025-01-12 06:11:53.26	5.78	8.11	
2025-01-12 06:11:53.47	5.74	8.10	
2025-01-12 06:11:53.67	5.71	8.10	
2025-01-12 06:11:53.88	5.67	8.10	
2025-01-12 06:11:54.08	5.64	8.10	
2025-01-12 06:11:54.29	5.61	8.10	
2025-01-12 06:11:54.49	5.57	8.09	
2025-01-12 06:11:54.70	5.54	8.09	
2025-01-12 06:11:54.91	5.50	8.09	
2025-01-12 06:11:55.11	5.47	8.09	
2025-01-12 06:11:55.32	5.43	8.09	
2025-01-12 06:11:55.52	5.40	8.09	
2025-01-12 06:11:55.73	5.37	8.08	
2025-01-12 06:11:55.93	5.33	8.08	
2025-01-12 06:11:56.14	5.30	8.08	
2025-01-12 06:11:56.35	5.26	8.08	
2025-01-12 06:11:56.55	5.23	8.08	
2025-01-12 06:11:56.75	5.20	8.07	
2025-01-12 06:11:56.96	5.16	8.07	
2025-01-12 06:11:57.17	5.13	8.07	
2025-01-12 06:11:57.37	5.09	8.07	
2025-01-12 06:11:57.58	5.06	8.07	
2025-01-12 06:11:57.78	5.02	8.06	
2025-01-12 06:11:57.99	4.99	8.06	
2025-01-12 06:11:58.19	4.96	8.06	
2025-01-12 06:11:58.40	4.92	8.06	
2025-01-12 06:11:58.60	4.89	8.06	
2025-01-12 06:11:58.81	4.85	8.05	
2025-01-12 06:11:59.02	4.82	8.05	
2025-01-12 06:11:59.22	4.79	8.05	
2025-01-12 06:11:59.43	4.75	8.05	
2025-01-12 06:11:59.63	4.72	8.05	
2025-01-12 06:11:59.84	4.68	8.04	
2025-01-12 06:12:00.04	4.65	8.04	
2025-01-12 06:12:00.26	4.61	8.04	
2025-01-12 06:12:00.47	4.58	8.04	
2025-01-12 06:12:00.67	4.55	8.04	
2025-01-12 06:12:00.88	4.51	8.03	
2025-01-12 06:12:01.08	4.48	8.03	
2025-01-12 06:12:01.29	4.44	8.03	
2025-01-12 06:12:01.50	4.41	8.03	
2025-01-12 06:12:01.70	4.37	8.03	
2025-01-12 06:12:01.90	4.34	8.02	
2025-01-12 06:12:02.11	4.31	8.02	
2025-01-12 06:12:02.32	4.27	8.02	
2025-01-12 06:12:02.52	4.24	8.02	
2025-01-12 06:12:02.73	4.20	8.01	
2025-01-12 06:12:02.93	4.17	8.01	
2025-01-12 06:12:03.14	4.14	8.01	
2025-01-12 06:12:03.34	4.10	8.01	
2025-01-12 06:12:03.55	4.07	8.01	
2025-01-12 06:12:03.75	4.04	8.00	
2025-01-12 06:12:03.96	4.00	8.00	
2025-01-12 06:12:04.16	3.97	8.00	
2025-01-12 06:12:04.37	3.93	8.00	
2025-01-12 06:12:04.57	3.90	8.00	
2025-01-12 06:12:04.78	3.86	7.99	
2025-01-12 06:12:04.99	3.83	7.99	
2025-01-12 06:12:05.19	3.80	7.99	
2025-01-12 06:12:05.40	3.76	7.99	
2025-01-12 06:12:05.60	3.73	7.98	
2025-01-12 06:12:05.81	3.69	7.98	
2025-01-12 06:12:06.01	3.66	7.98	
2025-01-12 06:12:06.23	3.63	7.98	
2025-01-12 06:12:06.44	3.59	7.97	
2025-01-12 06:12:06.64	3.56	7.97	
2025-01-12 06:12:06.85	3.52	7.97	
2025-01-12 06:12:07.05	3.49	7.97	
2025-01-12 06:12:07.26	3.46	7.96	
2025-01-12 06:12:07.47	3.42	7.96	
2025-01-12 06:12:07.67	3.39	7.96	
2025-01-12 06:12:07.88	3.35	7.96	
2025-01-12 06:12:08.08	3.32	7.96	
2025-01-12 06:12:08.29	3.29	7.95	
2025-01-12 06:12:08.49	3.25	7.95	
2025-01-12 06:12:08.70	3.22	7.95	
2025-01-12 06:12:08.91	3.18	7.95	
2025-01-12 06:12:09.11	3.15	7.94	
2025-01-12 06:12:09.33	3.11	7.94	
2025-01-12 06:12:09.54	3.08	7.94	
2025-01-12 06:12:09.74	3.05	7.94	
2025-01-12 06:12:09.95	3.01	7.93	
2025-01-12 06:12:10.15	2.98	7.93	
2025-01-12 06:12:10.36	2.94	7.93	
2025-01-12 06:12:10.56	2.91	7.93	
2025-01-12 06:12:10.77	2.88	7.92	
2025-01-12 06:12:10.98	2.84	7.92	
2025-01-12 06:12:11.18	2.81	7.92	
2025-01-12 06:12:11.39	2.78	7.91	
2025-01-12 06:12:11.59	2.74	7.91	
2025-01-12 06:12:11.80	2.71	7.91	
2025-01-12 06:12:12.00	2.68	7.91	
2025-01-12 06:12:12.21	2.64	7.90	
2025-01-12 06:12:12.41	2.61	7.90	
2025-01-12 06:12:12.62	2.57	7.90	
2025-01-12 06:12:12.82	2.54	7.90	
2025-01-12 06:12:13.03	2.51	7.89	
2025-01-12 06:12:13.23	2.47	7.89	
2025-01-12 06:12:13.44	2.44	7.89	
2025-01-12 06:12:13.66	2.40	7.89	
2025-01-12 06:12:13.86	2.37	7.88	
2025-01-12 06:12:14.07	2.34	7.88	
2025-01-12 06:12:14.27	2.30	7.88	
2025-01-12 06:12:14.48	2.27	7.88	
2025-01-12 06:12:14.69	2.23	7.87	
2025-01-12 06:12:14.90	2.20	7.87	
2025-01-12 06:12:15.11	2.17	7.87	
2025-01-12 06:12:15.31	2.13	7.86	
2025-01-12 06:12:15.52	2.10	7.86	
2025-01-12 06:12:15.72	2.07	7.86	
2025-01-12 06:12:15.93	2.03	7.86	
2025-01-12 06:12:16.14	2.00	7.85	
2025-01-12 06:12:16.34	1.96	7.85	
2025-01-12 06:12:16.55	1.93	7.85	
2025-01-12 06:12:16.75	1.90	7.84	
2025-01-12 06:12:16.96	1.86	7.84	
2025-01-12 06:12:17.16	1.83	7.84	
2025-01-12 06:12:17.37	1.80	7.84	
2025-01-12 06:12:17.57	1.76	7.83	
2025-01-12 06:12:17.78	1.73	7.83	
2025-01-12 06:12:17.98	1.70	7.83	
2025-01-12 06:12:18.18	1.66	7.82	
2025-01-12 06:12:18.39	1.63	7.82	
2025-01-12 06:12:18.59	1.60	7.82	
2025-01-12 06:12:18.80	1.56	7.82	
2025-01-12 06:12:19.02	1.53	7.81	
2025-01-12 06:12:19.22	1.49	7.81	
2025-01-12 06:12:19.43	1.46	7.81	
2025-01-12 06:12:19.63	1.43	7.80	
2025-01-12 06:12:19.84	1.39	7.80	
2025-01-12 06:12:20.04	1.36	7.80	
2025-01-12 06:12:20.25	1.33	7.80	
2025-01-12 06:12:20.45	1.29	7.79	
2025-01-12 06:12:20.66	1.26	7.79	
2025-01-12 06:12:20.86	1.23	7.79	
2025-01-12 06:12:21.07	1.19	7.78	
2025-01-12 06:12:21.27	1.16	7.78	
2025-01-12 06:12:21.48	1.12	7.78	
2025-01-12 06:12:21.68	1.09	7.77	
2025-01-12 06:12:21.89	1.06	7.77	
2025-01-12 06:12:22.09	1.03	7.77	
2025-01-12 06:12:22.30	0.99	7.77	
2025-01-12 06:12:22.50	0.96	7.76	
2025-01-12 06:12:22.71	0.92	7.76	
2025-01-12 06:12:22.91	0.89	7.76	
2025-01-12 06:12:23.12	0.86	7.75	
2025-01-12 06:12:23.32	0.83	7.75	
2025-01-12 06:12:23.53	0.79	7.75	
2025-01-12 06:12:23.73	0.76	7.74	
2025-01-12 06:12:23.94	0.72	7.74	
2025-01-12 06:12:24.15	0.69	7.74	
2025-01-12 06:12:24.36	0.66	7.73	
2025-01-12 06:12:24.57	0.62	7.73	
2025-01-12 06:12:24.78	0.59	7.73	
2025-01-12 06:12:24.98	0.56	7.73	
2025-01-12 06:12:25.19	0.52	7.72	
2025-01-12 06:12:25.39	0.49	7.72	
2025-01-12 06:12:25.60	0.46	7.72	
2025-01-12 06:12:25.80	0.42	7.71	
2025-01-12 06:12:26.01	0.39	7.71	
2025-01-12 06:12:26.21	0.36	7.71	
2025-01-12 06:12:26.42	0.32	7.70	
2025-01-12 06:12:26.62	0.29	7.70	
2025-01-12 06:12:26.83	0.26	7.70	
2025-01-12 06:12:27.03	0.22	7.69	
2025-01-12 06:12:27.24	0.19	7.69	
2025-01-12 06:12:27.44	0.16	7.69	
2025-01-12 06:12:27.65	0.12	7.68	
2025-01-12 06:12:27.85	0.09	7.68	
2025-01-12 06:12:28.06	0.06	7.68	
2025-01-12 06:12:28.26	0.02	7.67	
2025-01-12 06:12:28.47	359.99	7.67	
2025-01-12 06:12:28.67	359.96	7.67	
2025-01-12 06:12:28.88	359.92	7.66	
2025-01-12 06:12:29.08	359.89	7.66	
2025-01-12 06:12:29.29	359.86	7.66	
2025-01-12 06:12:29.49	359.83	7.65	
2025-01-12 06:12:29.70	359.79	7.65	
2025-01-12 06:12:29.91	359.76	7.65	
2025-01-12 06:12:30.11	359.73	7.64	
2025-01-12 06:12:30.32	359.69	7.64	
2025-01-12 06:12:30.53	359.66	7.64	
2025-01-12 06:12:30.74	359.62	7.63	
2025-01-12 06:12:30.94	359.59	7.63	
2025-01-12 06:12:31.15	359.56	7.63	
2025-01-12 06:12:31.35	359.53	7.62	
2025-01-12 06:12:31.56	359.49	7.62	
2025-01-12 06:12:31.76	359.46	7.62	
2025-01-12 06:12:31.97	359.43	7.61	
2025-01-12 06:12:32.17	359.39	7.61	
2025-01-12 06:12:32.38	359.36	7.61	
2025-01-12 06:12:32.58	359.33	7.60	
2025-01-12 06:12:32.79	359.29	7.60	
2025-01-12 06:12:32.99	359.26	7.60	
2025-01-12 06:12:33.20	359.23	7.59	
2025-01-12 06:12:33.40	359.20	7.59	
2025-01-12 06:12:33.61	359.16	7.58	
2025-01-12 06:12:33.81	359.13	7.58	
2025-01-12 06:12:34.03	359.10	7.58	
2025-01-12 06:12:34.24	359.06	7.57	
2025-01-12 06:12:34.44	359.03	7.57	
2025-01-12 06:12:34.65	359.00	7.57	
2025-01-12 06:12:34.86	358.96	7.56	
2025-01-12 06:12:35.06	358.93	7.56	
2025-01-12 06:12:35.26	358.90	7.56	
2025-01-12 06:12:35.47	358.86	7.55	
2025-01-12 06:12:35.67	358.83	7.55	
2025-01-12 06:12:35.88	358.80	7.55	
2025-01-12 06:12:36.08	358.77	7.54	
2025-01-12 06:12:36.29	358.73	7.54	
2025-01-12 06:12:36.49	358.70	7.53	
2025-01-12 06:12:36.70	358.67	7.53	
2025-01-12 06:12:36.90	358.64	7.53	
2025-01-12 06:12:37.11	358.60	7.52	
2025-01-12 06:12:37.31	358.57	7.52	
2025-01-12 06:12:37.52	358.54	7.52	
2025-01-12 06:12:37.73	358.50	7.51	
2025-01-12 06:12:37.93	358.47	7.51	
2025-01-12 06:12:38.14	358.44	7.51	
2025-01-12 06:12:38.34	358.41	7.50	
2025-01-12 06:12:38.55	358.37	7.50	
2025-01-12 06:12:38.76	358.34	7.49	
2025-01-12 06:12:38.96	358.31	7.49	
2025-01-12 06:12:39.17	358.27	7.49	
2025-01-12 06:12:39.37	358.24	7.48	
2025-01-12 06:12:39.58	358.21	7.48	
2025-01-12 06:12:39.78	358.18	7.48	
2025-01-12 06:12:39.99	358.14	7.47	
2025-01-12 06:12:40.20	358.11	7.47	
2025-01-12 06:12:40.40	358.08	7.46	
2025-01-12 06:12:40.61	358.04	7.46	
2025-01-12 06:12:40.81	358.01	7.46	
2025-01-12 06:12:41.02	357.98	7.45	
2025-01-12 06:12:41.22	357.95	7.45	
2025-01-12 06:12:41.43	357.91	7.44	
2025-01-12 06:12:41.63	357.88	7.44	
2025-01-12 06:12:41.84	357.85	7.44	
2025-01-12 06:12:42.04	357.82	7.43	
2025-01-12 06:12:42.25	357.78	7.43	
2025-01-12 06:12:42.45	357.75	7.43	
2025-01-12 06:12:42.66	357.72	7.42	
2025-01-12 06:12:42.87	357.68	7.42	
2025-01-12 06:12:43.07	357.65	7.41	
2025-01-12 06:12:43.28	357.62	7.41	
2025-01-12 06:12:43.49	357.59	7.41	
2025-01-12 06:12:43.69	357.55	7.40	
2025-01-12 06:12:43.90	357.52	7.40	
2025-01-12 06:12:44.10	357.49	7.39	
2025-01-12 06:12:44.31	357.46	7.39	
2025-01-12 06:12:44.51	357.42	7.39	
2025-01-12 06:12:44.72	357.39	7.38	
2025-01-12 06:12:44.92	357.36	7.38	
2025-01-12 06:12:45.13	357.33	7.37	
2025-01-12 06:12:45.33	357.29	7.37	
2025-01-12 06:12:45.54	357.26	7.37	
2025-01-12 06:12:45.74	357.23	7.36	
2025-01-12 06:12:45.95	357.20	7.36	
2025-01-12 06:12:46.15	357.16	7.35	
2025-01-12 06:12:46.36	357.13	7.35	
2025-01-12 06:12:46.57	357.10	7.35	
2025-01-12 06:12:46.77	357.07	7.34	
2025-01-12 06:12:46.98	357.03	7.34	
2025-01-12 06:12:47.18	357.00	7.33	
2025-01-12 06:12:47.39	356.97	7.33	
2025-01-12 06:12:47.59	356.94	7.33	
2025-01-12 06:12:47.80	356.90	7.32	
2025-01-12 06:12:48.00	356.87	7.32	
2025-01-12 06:12:48.21	356.84	7.31	
2025-01-12 06:12:48.42	356.81	7.31	
2025-01-12 06:12:48.62	356.78	7.31	
2025-01-12 06:12:48.83	356.74	7.30	
2025-01-12 06:12:49.03	356.71	7.30	
2025-01-12 06:12:49.24	356.68	7.29	
2025-01-12 06:12:49.44	356.65	7.29	
2025-01-12 06:12:49.65	356.61	7.28	
2025-01-12 06:12:49.85	356.58	7.28	
2025-01-12 06:12:50.07	356.55	7.28	
2025-01-12 06:12:50.28	356.51	7.27	
2025-01-12 06:12:50.48	356.48	7.27	
2025-01-12 06:12:50.69	356.45	7.26	
2025-01-12 06:12:50.89	356.42	7.26	
2025-01-12 06:12:51.10	356.39	7.26	
2025-01-12 06:12:51.30	356.35	7.25	
2025-01-12 06:12:51.51	356.32	7.25	
2025-01-12 06:12:51.72	356.29	7.24	
2025-01-12 06:12:51.92	356.26	7.24	
2025-01-12 06:12:52.13	356.22	7.23	
2025-01-12 06:12:52.33	356.19	7.23	
2025-01-12 06:12:52.54	356.16	7.23	
2025-01-12 06:12:52.74	356.13	7.22	
2025-01-12 06:12:52.95	356.10	7.22	
2025-01-12 06:12:53.16	356.06	7.21	
2025-01-12 06:12:53.36	356.03	7.21	
2025-01-12 06:12:53.57	356.00	7.20	
2025-01-12 06:12:53.77	355.97	7.20	
2025-01-12 06:12:53.98	355.93	7.20	
2025-01-12 06:12:54.18	355.90	7.19	
2025-01-12 06:12:54.39	355.87	7.19	
2025-01-12 06:12:54.60	355.84	7.18	
2025-01-12 06:12:54.80	355.81	7.18	
2025-01-12 06:12:55.01	355.77	7.17	
2025-01-12 06:12:55.22	355.74	7.17	
2025-01-12 06:12:55.42	355.71	7.16	
2025-01-12 06:12:55.63	355.68	7.16	
2025-01-12 06:12:55.83	355.65	7.16	
2025-01-12 06:12:56.04	355.61	7.15	
2025-01-12 06:12:56.24	355.58	7.15	
2025-01-12 06:12:56.45	355.55	7.14	
2025-01-12 06:12:56.65	355.52	7.14	
2025-01-12 06:12:56.86	355.49	7.13	
2025-01-12 06:12:57.06	355.45	7.13	
2025-01-12 06:12:57.27	355.42	7.12	
2025-01-12 06:12:57.47	355.39	7.12	
2025-01-12 06:12:57.68	355.36	7.12	
2025-01-12 06:12:57.88	355.33	7.11	
2025-01-12 06:12:58.09	355.29	7.11	
2025-01-12 06:12:58.29	355.26	7.10	
2025-01-12 06:12:58.50	355.23	7.10	
2025-01-12 06:12:58.71	355.20	7.09	
2025-01-12 06:12:58.91	355.17	7.09	
2025-01-12 06:12:59.12	355.13	7.08	
2025-01-12 06:12:59.32	355.10	7.08	
2025-01-12 06:12:59.53	355.07	7.08	
2025-01-12 06:12:59.73	355.04	7.07	
2025-01-12 06:12:59.94	355.01	7.07	
2025-01-12 06:13:00.14	354.98	7.06	
2025-01-12 06:13:00.36	354.94	7.06	
2025-01-12 06:13:00.57	354.91	7.05	
2025-01-12 06:13:00.79	354.88	7.05	
2025-01-12 06:13:00.99	354.84	7.04	
2025-01-12 06:13:01.20	354.81	7.04	
2025-01-12 06:13:01.41	354.78	7.03	
2025-01-12 06:13:01.61	354.75	7.03	
2025-01-12 06:13:01.82	354.72	7.02	
2025-01-12 06:13:02.02	354.69	7.02	
2025-01-12 06:13:02.23	354.65	7.02	
2025-01-12 06:13:02.43	354.62	7.01	
2025-01-12 06:13:02.64	354.59	7.01	
2025-01-12 06:13:02.84	354.56	7.00	
2025-01-12 06:13:03.05	354.53	7.00	
2025-01-12 06:13:03.25	354.50	6.99	
2025-01-12 06:13:03.46	354.46	6.99	
2025-01-12 06:13:03.67	354.43	6.98	
2025-01-12 06:13:03.87	354.40	6.98	
2025-01-12 06:13:04.07	354.37	6.97	
2025-01-12 06:13:04.28	354.34	6.97	
2025-01-12 06:13:04.48	354.31	6.96	
2025-01-12 06:13:04.69	354.27	6.96	
2025-01-12 06:13:04.89	354.24	6.95	
2025-01-12 06:13:05.10	354.21	6.95	
2025-01-12 06:13:05.30	354.18	6.95	
2025-01-12 06:13:05.51	354.15	6.94	
2025-01-12 06:13:05.71	354.12	6.94	
2025-01-12 06:13:05.92	354.09	6.93	
2025-01-12 06:13:06.13	354.05	6.93	
2025-01-12 06:13:06.33	354.02	6.92	
2025-01-12 06:13:06.54	353.99	6.92	
2025-01-12 06:13:06.74	353.96	6.91	
2025-01-12 06:13:06.95	353.93	6.91	
2025-01-12 06:13:07.15	353.90	6.90	
2025-01-12 06:13:07.36	353.86	6.90	
2025-01-12 06:13:07.56	353.83	6.89	
2025-01-12 06:13:07.77	353.80	6.89	
2025-01-12 06:13:07.97	353.77	6.88	
2025-01-12 06:13:08.18	353.74	6.88	
2025-01-12 06:13:08.38	353.71	6.87	
2025-01-12 06:13:08.60	353.68	6.87	
2025-01-12 06:13:08.81	353.64	6.86	
2025-01-12 06:13:09.01	353.61	6.86	
2025-01-12 06:13:09.22	353.58	6.85	
2025-01-12 06:13:09.42	353.55	6.85	
2025-01-12 06:13:09.63	353.52	6.84	
2025-01-12 06:13:09.84	353.49	6.84	
2025-01-12 06:13:10.04	353.46	6.83	
2025-01-12 06:13:10.25	353.42	6.83	
2025-01-12 06:13:10.45	353.39	6.82	
2025-01-12 06:13:10.66	353.36	6.82	
2025-01-12 06:13:10.86	353.33	6.81	
2025-01-12 06:13:11.07	353.30	6.81	
2025-01-12 06:13:11.28	353.27	6.80	
2025-01-12 06:13:11.48	353.24	6.80	
2025-01-12 06:13:11.69	353.20	6.79	
2025-01-12 06:13:11.89	353.17	6.79	
2025-01-12 06:13:12.10	353.14	6.78	
2025-01-12 06:13:12.30	353.11	6.78	
2025-01-12 06:13:12.51	353.08	6.77	
2025-01-12 06:13:12.71	353.05	6.77	
2025-01-12 06:13:12.92	353.02	6.76	
2025-01-12 06:13:13.12	352.99	6.76	
2025-01-12 06:13:13.33	352.96	6.75	
2025-01-12 06:13:13.55	352.92	6.75	
2025-01-12 06:13:13.75	352.89	6.74	
2025-01-12 06:13:13.96	352.86	6.74	
2025-01-12 06:13:14.16	352.83	6.73	
2025-01-12 06:13:14.37	352.80	6.73	
2025-01-12 06:13:14.57	352.77	6.72	
2025-01-12 06:13:14.78	352.74	6.72	
2025-01-12 06:13:14.99	352.70	6.71	
2025-01-12 06:13:15.19	352.67	6.71	
2025-01-12 06:13:15.40	352.64	6.70	
2025-01-12 06:13:15.60	352.61	6.70	
2025-01-12 06:13:15.80	352.58	6.69	
2025-01-12 06:13:16.01	352.55	6.69	
2025-01-12 06:13:16.22	352.52	6.68	
2025-01-12 06:13:16.42	352.49	6.68	
2025-01-12 06:13:16.63	352.46	6.67	
2025-01-12 06:13:16.83	352.43	6.67	
2025-01-12 06:13:17.04	352.40	6.66	
2025-01-12 06:13:17.24	352.37	6.66	
2025-01-12 06:13:17.45	352.33	6.65	
2025-01-12 06:13:17.65	352.30	6.65	
2025-01-12 06:13:17.86	352.27	6.64	
2025-01-12 06:13:18.06	352.24	6.64	
2025-01-12 06:13:18.27	352.21	6.63	
2025-01-12 06:13:18.47	352.18	6.63	
2025-01-12 06:13:18.68	352.15	6.62	
2025-01-12 06:13:18.89	352.12	6.62	
2025-01-12 06:13:19.09	352.09	6.61	
2025-01-12 06:13:19.30	352.06	6.61	
2025-01-12 06:13:19.50	352.03	6.60	
2025-01-12 06:13:19.71	351.99	6.60	
2025-01-12 06:13:19.93	351.96	6.59	
2025-01-12 06:13:20.13	351.93	6.59	
2025-01-12 06:13:20.34	351.90	6.58	
2025-01-12 06:13:20.54	351.87	6.57	
2025-01-12 06:13:20.75	351.84	6.57	
2025-01-12 06:13:20.95	351.81	6.56	
2025-01-12 06:13:21.16	351.78	6.56	
2025-01-12 06:13:21.36	351.75	6.55	
2025-01-12 06:13:21.57	351.72	6.55	
2025-01-12 06:13:21.77	351.69	6.54	
2025-01-12 06:13:21.98	351.65	6.54	
2025-01-12 06:13:22.18	351.63	6.53	
2025-01-12 06:13:22.39	351.59	6.53	
2025-01-12 06:13:22.59	351.56	6.52	
2025-01-12 06:13:22.80	351.53	6.52	
2025-01-12 06:13:23.00	351.50	6.51	
2025-01-12 06:13:23.21	351.47	6.51	
2025-01-12 06:13:23.42	351.44	6.50	
2025-01-12 06:13:23.62	351.41	6.50	
2025-01-12 06:13:23.83	351.38	6.49	
2025-01-12 06:13:24.03	351.35	6.48	
2025-01-12 06:13:24.25	351.32	6.48	
2025-01-12 06:13:24.46	351.29	6.47	
2025-01-12 06:13:24.66	351.26	6.47	
2025-01-12 06:13:24.87	351.22	6.46	
2025-01-12 06:13:25.07	351.20	6.46	
2025-01-12 06:13:25.29	351.16	6.45	
2025-01-12 06:13:25.50	351.13	6.45	
2025-01-12 06:13:25.70	351.10	6.44	
2025-01-12 06:13:25.91	351.07	6.44	
2025-01-12 06:13:26.11	351.04	6.43	
2025-01-12 06:13:26.33	351.01	6.42	
2025-01-12 06:13:26.54	350.98	6.42	
2025-01-12 06:13:26.74	350.95	6.41	
2025-01-12 06:13:26.95	350.92	6.41	
2025-01-12 06:13:27.15	350.89	6.40	
2025-01-12 06:13:27.36	350.86	6.40	
2025-01-12 06:13:27.56	350.83	6.39	
2025-01-12 06:13:27.77	350.80	6.39	
2025-01-12 06:13:27.97	350.77	6.38	
2025-01-12 06:13:28.18	350.73	6.37	
2025-01-12 06:13:28.38	350.71	6.37	
2025-01-12 06:13:28.59	350.67	6.36	
2025-01-12 06:13:28.79	350.64	6.36	
2025-01-12 06:13:29.00	350.61	6.35	
2025-01-12 06:13:29.20	350.58	6.35	
2025-01-12 06:13:29.41	350.55	6.34	
2025-01-12 06:13:29.61	350.52	6.34	
2025-01-12 06:13:29.82	350.49	6.33	
2025-01-12 06:13:30.03	350.46	6.33	
2025-01-12 06:13:30.23	350.43	6.32	
2025-01-12 06:13:30.44	350.40	6.31	
2025-01-12 06:13:30.66	350.37	6.31	
2025-01-12 06:13:30.86	350.34	6.30	
2025-01-12 06:13:31.07	350.31	6.30	
2025-01-12 06:13:31.27	350.28	6.29	
2025-01-12 06:13:31.48	350.25	6.29	
2025-01-12 06:13:31.70	350.22	6.28	
2025-01-12 06:13:31.90	350.19	6.27	
2025-01-12 06:13:32.11	350.16	6.27	
2025-01-12 06:13:32.31	350.13	6.26	
2025-01-12 06:13:32.52	350.10	6.26	
2025-01-12 06:13:32.72	350.07	6.25	
2025-01-12 06:13:32.93	350.04	6.25	
2025-01-12 06:13:33.13	350.01	6.24	
2025-01-12 06:13:33.34	349.98	6.23	
2025-01-12 06:13:33.54	349.95	6.23	
2025-01-12 06:13:33.75	349.92	6.22	
2025-01-12 06:13:33.95	349.89	6.22	
2025-01-12 06:13:34.16	349.86	6.21	
2025-01-12 06:13:34.37	349.83	6.21	
2025-01-12 06:13:34.57	349.80	6.20	
2025-01-12 06:13:34.78	349.77	6.20	
2025-01-12 06:13:34.98	349.74	6.19	
2025-01-12 06:13:35.19	349.71	6.18	
2025-01-12 06:13:35.39	349.68	6.18	
2025-01-12 06:13:35.60	349.65	6.17	
2025-01-12 06:13:35.80	349.62	6.17	
2025-01-12 06:13:36.01	349.59	6.16	
2025-01-12 06:13:36.21	349.56	6.16	
2025-01-12 06:13:36.42	349.53	6.15	
2025-01-12 06:13:36.63	349.50	6.14	
2025-01-12 06:13:36.83	349.47	6.14	
2025-01-12 06:13:37.03	349.44	6.13	
2025-01-12 06:13:37.24	349.41	6.13	
2025-01-12 06:13:37.44	349.38	6.12	
2025-01-12 06:13:37.65	349.35	6.11	
2025-01-12 06:13:37.86	349.32	6.11	
2025-01-12 06:13:38.06	349.29	6.10	
2025-01-12 06:13:38.26	349.26	6.10	
2025-01-12 06:13:38.47	349.23	6.09	
2025-01-12 06:13:38.67	349.20	6.09	
2025-01-12 06:13:38.89	349.17	6.08	
2025-01-12 06:13:39.11	349.14	6.07	
2025-01-12 06:13:39.31	349.11	6.07	
2025-01-12 06:13:39.52	349.08	6.06	
2025-01-12 06:13:39.72	349.05	6.06	
2025-01-12 06:13:39.93	349.02	6.05	
2025-01-12 06:13:40.13	348.99	6.04	
2025-01-12 06:13:40.34	348.96	6.04	
2025-01-12 06:13:40.55	348.93	6.03	
2025-01-12 06:13:40.75	348.90	6.03	
2025-01-12 06:13:40.96	348.87	6.02	
2025-01-12 06:13:41.16	348.84	6.02	
2025-01-12 06:13:41.37	348.81	6.01	
2025-01-12 06:13:41.57	348.78	6.00	
2025-01-12 06:13:41.78	348.75	6.00	
2025-01-12 06:13:41.98	348.73	5.99	
2025-01-12 06:13:42.19	348.70	5.99	
2025-01-12 06:13:42.39	348.67	5.98	
2025-01-12 06:13:42.60	348.64	5.97	
2025-01-12 06:13:42.80	348.61	5.97	
2025-01-12 06:13:43.01	348.58	5.96	
2025-01-12 06:13:43.22	348.55	5.96	
2025-01-12 06:13:43.43	348.52	5.95	
2025-01-12 06:13:43.64	348.49	5.94	
2025-01-12 06:13:43.84	348.46	5.94	
2025-01-12 06:13:44.05	348.43	5.93	
2025-01-12 06:13:44.25	348.40	5.93	
2025-01-12 06:13:44.46	348.37	5.92	
2025-01-12 06:13:44.66	348.34	5.91	
2025-01-12 06:13:44.87	348.31	5.91	
2025-01-12 06:13:45.07	348.28	5.90	
2025-01-12 06:13:45.28	348.25	5.90	
2025-01-12 06:13:45.48	348.22	5.89	
2025-01-12 06:13:45.69	348.19	5.88	
2025-01-12 06:13:45.89	348.17	5.88	
2025-01-12 06:13:46.10	348.14	5.87	
2025-01-12 06:13:46.31	348.11	5.87	
2025-01-12 06:13:46.51	348.08	5.86	
2025-01-12 06:13:46.72	348.05	5.85	
2025-01-12 06:13:46.92	348.02	5.85	
2025-01-12 06:13:47.13	347.99	5.84	
2025-01-12 06:13:47.34	347.96	5.84	
2025-01-12 06:13:47.54	347.93	5.83	
2025-01-12 06:13:47.74	347.90	5.82	
2025-01-12 06:13:47.95	347.87	5.82	
2025-01-12 06:13:48.16	347.84	5.81	
2025-01-12 06:13:48.36	347.82	5.81	
2025-01-12 06:13:48.57	347.79	5.80	
2025-01-12 06:13:48.77	347.76	5.79	
2025-01-12 06:13:48.98	347.73	5.79	
2025-01-12 06:13:49.18	347.70	5.78	
2025-01-12 06:13:49.39	347.67	5.78	
2025-01-12 06:13:49.59	347.64	5.77	
2025-01-12 06:13:49.80	347.61	5.76	
2025-01-12 06:13:50.00	347.58	5.76	
2025-01-12 06:13:50.21	347.55	5.75	
2025-01-12 06:13:50.42	347.52	5.74	
2025-01-12 06:13:50.62	347.50	5.74	
2025-01-12 06:13:50.83	347.47	5.73	
2025-01-12 06:13:51.03	347.44	5.73	
2025-01-12 06:13:51.24	347.41	5.72	
2025-01-12 06:13:51.44	347.38	5.71	
2025-01-12 06:13:51.65	347.35	5.71	
2025-01-12 06:13:51.85	347.32	5.70	
2025-01-12 06:13:52.06	347.29	5.70	
2025-01-12 06:13:52.27	347.26	5.69	
2025-01-12 06:13:52.47	347.24	5.68	
2025-01-12 06:13:52.68	347.21	5.68	
2025-01-12 06:13:52.89	347.18	5.67	
2025-01-12 06:13:53.09	347.15	5.66	
2025-01-12 06:13:53.30	347.12	5.66	
2025-01-12 06:13:53.50	347.09	5.65	
2025-01-12 06:13:53.71	347.06	5.65	
2025-01-12 06:13:53.92	347.03	5.64	
2025-01-12 06:13:54.13	347.00	5.63	
2025-01-12 06:13:54.34	346.97	5.63	
2025-01-12 06:13:54.55	346.94	5.62	
2025-01-12 06:13:54.75	346.92	5.61	
2025-01-12 06:13:54.96	346.89	5.61	
2025-01-12 06:13:55.16	346.86	5.60	
2025-01-12 06:13:55.37	346.83	5.60	
2025-01-12 06:13:55.57	346.80	5.59	
2025-01-12 06:13:55.78	346.77	5.58	
2025-01-12 06:13:55.99	346.74	5.58	
2025-01-12 06:13:56.19	346.71	5.57	
2025-01-12 06:13:56.40	346.69	5.56	
2025-01-12 06:13:56.60	346.66	5.56	
2025-01-12 06:13:56.81	346.63	5.55	
2025-01-12 06:13:57.01	346.60	5.55	
2025-01-12 06:13:57.22	346.57	5.54	
2025-01-12 06:13:57.42	346.54	5.53	
2025-01-12 06:13:57.63	346.51	5.53	
2025-01-12 06:13:57.83	346.49	5.52	
2025-01-12 06:13:58.03	346.46	5.51	
2025-01-12 06:13:58.24	346.43	5.51	
2025-01-12 06:13:58.44	346.40	5.50	
2025-01-12 06:13:58.65	346.37	5.49	
2025-01-12 06:13:58.85	346.34	5.49	
2025-01-12 06:13:59.06	346.32	5.48	
2025-01-12 06:13:59.27	346.29	5.48	
2025-01-12 06:13:59.48	346.26	5.47	
2025-01-12 06:13:59.69	346.23	5.46	
2025-01-12 06:13:59.90	346.20	5.46	
2025-01-12 06:14:00.10	346.17	5.45	
2025-01-12 06:14:00.31	346.14	5.44	
2025-01-12 06:14:00.51	346.11	5.44	
2025-01-12 06:14:00.71	346.09	5.43	
2025-01-12 06:14:00.92	346.06	5.42	
2025-01-12 06:14:01.12	346.03	5.42	
2025-01-12 06:14:01.33	346.00	5.41	
2025-01-12 06:14:01.54	345.97	5.41	
2025-01-12 06:14:01.74	345.95	5.40	
2025-01-12 06:14:01.95	345.92	5.39	
2025-01-12 06:14:02.15	345.89	5.39	
2025-01-12 06:14:02.36	345.86	5.38	
2025-01-12 06:14:02.56	345.83	5.37	
2025-01-12 06:14:02.77	345.80	5.37	
2025-01-12 06:14:02.97	345.78	5.36	
2025-01-12 06:14:03.18	345.75	5.35	
2025-01-12 06:14:03.38	345.72	5.35	
2025-01-12 06:14:03.59	345.69	5.34	
2025-01-12 06:14:03.79	345.66	5.33	
2025-01-12 06:14:04.00	345.63	5.33	
2025-01-12 06:14:04.20	345.61	5.32	
2025-01-12 06:14:04.41	345.58	5.32	
2025-01-12 06:14:04.61	345.55	5.31	
2025-01-12 06:14:04.82	345.52	5.30	
2025-01-12 06:14:05.03	345.49	5.30	
2025-01-12 06:14:05.23	345.47	5.29	
2025-01-12 06:14:05.44	345.44	5.28	
2025-01-12 06:14:05.64	345.41	5.28	
2025-01-12 06:14:05.84	345.38	5.27	
2025-01-12 06:14:06.05	345.35	5.26	
2025-01-12 06:14:06.26	345.33	5.26	
2025-01-12 06:14:06.46	345.30	5.25	
2025-01-12 06:14:06.67	345.27	5.24	
2025-01-12 06:14:06.88	345.24	5.24	
2025-01-12 06:14:07.08	345.21	5.23	
2025-01-12 06:14:07.29	345.19	5.22	
2025-01-12 06:14:07.49	345.16	5.22	
2025-01-12 06:14:07.70	345.13	5.21	
2025-01-12 06:14:07.90	345.10	5.20	
2025-01-12 06:14:08.11	345.07	5.20	
2025-01-12 06:14:08.32	345.05	5.19	
2025-01-12 06:14:08.52	345.02	5.18	
2025-01-12 06:14:08.73	344.99	5.18	
2025-01-12 06:14:08.93	344.96	5.17	
2025-01-12 06:14:09.14	344.93	5.16	
2025-01-12 06:14:09.34	344.91	5.16	
2025-01-12 06:14:09.55	344.88	5.15	
2025-01-12 06:14:09.75	344.85	5.15	
2025-01-12 06:14:09.96	344.82	5.14	
2025-01-12 06:14:10.16	344.80	5.13	
2025-01-12 06:14:10.37	344.77	5.13	
2025-01-12 06:14:10.57	344.74	5.12	
2025-01-12 06:14:10.78	344.71	5.11	
2025-01-12 06:14:10.99	344.68	5.11	
2025-01-12 06:14:11.19	344.66	5.10	
2025-01-12 06:14:11.39	344.63	5.09	
2025-01-12 06:14:11.60	344.60	5.09	
2025-01-12 06:14:11.81	344.57	5.08	
2025-01-12 06:14:12.01	344.55	5.07	
2025-01-12 06:14:12.21	344.52	5.07	
2025-01-12 06:14:12.42	344.49	5.06	
2025-01-12 06:14:12.63	344.46	5.05	
2025-01-12 06:14:12.83	344.44	5.05	
2025-01-12 06:14:13.04	344.41	5.04	
2025-01-12 06:14:13.25	344.38	5.03	
2025-01-12 06:14:13.46	344.35	5.03	
2025-01-12 06:14:13.67	344.32	5.02	
2025-01-12 06:14:13.88	344.30	5.01	
2025-01-12 06:14:14.08	344.27	5.01	
2025-01-12 06:14:14.29	344.24	5.00	
2025-01-12 06:14:14.50	344.21	4.99	
2025-01-12 06:14:14.71	344.18	4.98	
2025-01-12 06:14:14.92	344.16	4.98	
2025-01-12 06:14:15.13	344.13	4.97	
2025-01-12 06:14:15.33	344.10	4.96	
2025-01-12 06:14:15.54	344.07	4.96	
2025-01-12 06:14:15.75	344.04	4.95	
2025-01-12 06:14:15.95	344.02	4.94	
2025-01-12 06:14:16.15	343.99	4.94	
2025-01-12 06:14:16.36	343.96	4.93	
2025-01-12 06:14:16.57	343.94	4.92	
2025-01-12 06:14:16.77	343.91	4.92	
2025-01-12 06:14:16.98	343.88	4.91	
2025-01-12 06:14:17.18	343.85	4.90	
2025-01-12 06:14:17.39	343.83	4.90	
2025-01-12 06:14:17.59	343.80	4.89	
2025-01-12 06:14:17.80	343.77	4.88	
2025-01-12 06:14:18.01	343.74	4.88	
2025-01-12 06:14:18.21	343.72	4.87	
2025-01-12 06:14:18.42	343.69	4.86	
2025-01-12 06:14:18.62	343.66	4.86	
2025-01-12 06:14:18.83	343.64	4.85	
2025-01-12 06:14:19.03	343.61	4.84	
2025-01-12 06:14:19.24	343.58	4.84	
2025-01-12 06:14:19.44	343.55	4.83	
2025-01-12 06:14:19.65	343.53	4.82	
2025-01-12 06:14:19.85	343.50	4.82	
2025-01-12 06:14:20.06	343.47	4.81	
2025-01-12 06:14:20.26	343.45	4.80	
2025-01-12 06:14:20.47	343.42	4.79	
2025-01-12 06:14:20.68	343.39	4.79	
2025-01-12 06:14:20.88	343.36	4.78	
2025-01-12 06:14:21.09	343.34	4.77	
2025-01-12 06:14:21.29	343.31	4.77	
2025-01-12 06:14:21.50	343.28	4.76	
2025-01-12 06:14:21.70	343.26	4.75	
2025-01-12 06:14:21.91	343.23	4.75	
2025-01-12 06:14:22.11	343.20	4.74	
2025-01-12 06:14:22.32	343.17	4.73	
2025-01-12 06:14:22.53	343.15	4.73	
2025-01-12 06:14:22.74	343.12	4.72	
2025-01-12 06:14:22.95	343.09	4.71	
2025-01-12 06:14:23.15	343.07	4.71	
2025-01-12 06:14:23.36	343.04	4.70	
2025-01-12 06:14:23.56	343.01	4.69	
2025-01-12 06:14:23.77	342.98	4.68	
2025-01-12 06:14:23.98	342.96	4.68	
2025-01-12 06:14:24.18	342.93	4.67	
2025-01-12 06:14:24.38	342.90	4.66	
2025-01-12 06:14:24.59	342.88	4.66	
2025-01-12 06:14:24.79	342.85	4.65	
2025-01-12 06:14:25.00	342.82	4.64	
2025-01-12 06:14:25.22	342.79	4.64	
2025-01-12 06:14:25.43	342.77	4.63	
2025-01-12 06:14:25.63	342.74	4.62	
2025-01-12 06:14:25.84	342.71	4.61	
2025-01-12 06:14:26.04	342.69	4.61	
2025-01-12 06:14:26.25	342.66	4.60	
2025-01-12 06:14:26.45	342.63	4.59	
2025-01-12 06:14:26.66	342.61	4.59	
2025-01-12 06:14:26.86	342.58	4.58	
2025-01-12 06:14:27.07	342.55	4.57	
2025-01-12 06:14:27.27	342.53	4.57	
2025-01-12 06:14:27.48	342.50	4.56	
2025-01-12 06:14:27.68	342.47	4.55	
2025-01-12 06:14:27.89	342.45	4.55	
2025-01-12 06:14:28.09	342.42	4.54	
2025-01-12 06:14:28.30	342.39	4.53	
2025-01-12 06:14:28.50	342.37	4.52	
2025-01-12 06:14:28.71	342.34	4.52	
2025-01-12 06:14:28.92	342.31	4.51	
2025-01-12 06:14:29.12	342.29	4.50	
2025-01-12 06:14:29.33	342.26	4.50	
2025-01-12 06:14:29.53	342.23	4.49	
2025-01-12 06:14:29.74	342.21	4.48	
2025-01-12 06:14:29.94	342.18	4.48	
2025-01-12 06:14:30.15	342.15	4.47	
2025-01-12 06:14:30.35	342.13	4.46	
2025-01-12 06:14:30.56	342.10	4.45	
2025-01-12 06:14:30.76	342.08	4.45	
2025-01-12 06:14:30.97	342.05	4.44	
2025-01-12 06:14:31.18	342.02	4.43	
2025-01-12 06:14:31.38	342.00	4.43	
2025-01-12 06:14:31.60	341.97	4.42	
2025-01-12 06:14:31.80	341.94	4.41	
2025-01-12 06:14:32.01	341.91	4.40	
2025-01-12 06:14:32.22	341.89	4.40	
2025-01-12 06:14:32.42	341.86	4.39	
2025-01-12 06:14:32.63	341.84	4.38	
2025-01-12 06:14:32.83	341.81	4.38	
2025-01-12 06:14:33.04	341.78	4.37	
2025-01-12 06:14:33.25	341.76	4.36	
2025-01-12 06:14:33.45	341.73	4.36	
2025-01-12 06:14:33.66	341.70	4.35	
2025-01-12 06:14:33.86	341.68	4.34	
2025-01-12 06:14:34.07	341.65	4.33	
2025-01-12 06:14:34.27	341.63	4.33	
2025-01-12 06:14:34.48	341.60	4.32	
2025-01-12 06:14:34.68	341.57	4.31	
2025-01-12 06:14:34.89	341.55	4.31	
2025-01-12 06:14:35.09	341.52	4.30	
2025-01-12 06:14:35.30	341.49	4.29	
2025-01-12 06:14:35.50	341.47	4.28	
2025-01-12 06:14:35.71	341.44	4.28	
2025-01-12 06:14:35.91	341.42	4.27	
2025-01-12 06:14:36.12	341.39	4.26	
2025-01-12 06:14:36.33	341.36	4.26	
2025-01-12 06:14:36.53	341.34	4.25	
2025-01-12 06:14:36.74	341.31	4.24	
2025-01-12 06:14:36.94	341.29	4.23	
2025-01-12 06:14:37.15	341.26	4.23	
2025-01-12 06:14:37.35	341.23	4.22	
2025-01-12 06:14:37.56	341.21	4.21	
2025-01-12 06:14:37.76	341.18	4.21	
2025-01-12 06:14:37.97	341.15	4.20	
2025-01-12 06:14:38.17	341.13	4.19	
2025-01-12 06:14:38.38	341.10	4.18	
2025-01-12 06:14:38.58	341.08	4.18	
2025-01-12 06:14:38.79	341.05	4.17	
2025-01-12 06:14:38.99	341.03	4.16	
2025-01-12 06:14:39.20	341.00	4.16	
2025-01-12 06:14:39.40	340.97	4.15	
2025-01-12 06:14:39.61	340.95	4.14	
2025-01-12 06:14:39.82	340.92	4.13	
2025-01-12 06:14:40.02	340.90	4.13	
2025-01-12 06:14:40.23	340.87	4.12	
2025-01-12 06:14:40.43	340.84	4.11	
2025-01-12 06:14:40.64	340.82	4.11	
2025-01-12 06:14:40.84	340.79	4.10	
2025-01-12 06:14:41.05	340.77	4.09	
2025-01-12 06:14:41.25	340.74	4.08	
2025-01-12 06:14:41.46	340.71	4.08	
2025-01-12 06:14:41.66	340.69	4.07	
2025-01-12 06:14:41.87	340.66	4.06	
2025-01-12 06:14:42.08	340.64	4.05	
2025-01-12 06:14:42.28	340.61	4.05	
2025-01-12 06:14:42.49	340.59	4.04	
2025-01-12 06:14:42.69	340.56	4.03	
2025-01-12 06:14:42.90	340.53	4.03	
2025-01-12 06:14:43.10	340.51	4.02	
2025-01-12 06:14:43.31	340.48	4.01	
2025-01-12 06:14:43.51	340.46	4.00	

#Closed at: 2025-01-12 06:14:43