passes_logs/2025/01/12/SPB_Silybum_02/SPB_Silybum_02__20250112_093658_AQUA_rec.log

#Pass ID: 20250112_093658_AQUA
#Satellite: AQUA
#Configuration: AQUA
#Start time: 2025-01-12 09:36:57

#Version: 2.0.20230423
#Station: SPB_Silybum_02
#Location: 30.233357 lon 59.946436 lat
#TLE: 1 27424U 02022A   25011.85338958  .00001740  00000+0  36730-3 0  9996
#TLE: 2 27424  98.3583 328.4891 0001585 114.5213 298.5366 14.60670077207161

#Time	Az	El	Level	Level2	SNR	BER	Gain	Gain2
2025-01-12 09:36:59.81	106.13	4.05	
2025-01-12 09:37:00.02	106.11	4.06	
2025-01-12 09:37:00.23	106.09	4.08	
2025-01-12 09:37:00.44	106.07	4.09	
2025-01-12 09:37:00.65	106.05	4.10	
2025-01-12 09:37:00.85	106.04	4.11	
2025-01-12 09:37:01.06	106.02	4.13	
2025-01-12 09:37:01.26	106.00	4.14	
2025-01-12 09:37:01.47	105.98	4.15	
2025-01-12 09:37:01.67	105.97	4.16	
2025-01-12 09:37:01.88	105.95	4.18	
2025-01-12 09:37:02.08	105.93	4.19	
2025-01-12 09:37:02.29	105.91	4.20	
2025-01-12 09:37:02.49	105.89	4.22	
2025-01-12 09:37:02.69	105.88	4.23	
2025-01-12 09:37:02.90	105.86	4.24	
2025-01-12 09:37:03.10	105.84	4.25	
2025-01-12 09:37:03.30	105.82	4.27	
2025-01-12 09:37:03.51	105.81	4.28	
2025-01-12 09:37:03.72	105.79	4.29	
2025-01-12 09:37:03.92	105.77	4.30	
2025-01-12 09:37:04.12	105.75	4.32	
2025-01-12 09:37:04.33	105.73	4.33	
2025-01-12 09:37:04.53	105.72	4.34	
2025-01-12 09:37:04.74	105.70	4.35	
2025-01-12 09:37:04.94	105.68	4.37	
2025-01-12 09:37:05.15	105.66	4.38	
2025-01-12 09:37:05.36	105.64	4.39	
2025-01-12 09:37:05.56	105.62	4.41	
2025-01-12 09:37:05.77	105.61	4.42	
2025-01-12 09:37:05.97	105.59	4.43	
2025-01-12 09:37:06.18	105.57	4.44	
2025-01-12 09:37:06.38	105.55	4.46	
2025-01-12 09:37:06.59	105.53	4.47	
2025-01-12 09:37:06.79	105.52	4.48	
2025-01-12 09:37:07.00	105.50	4.49	
2025-01-12 09:37:07.20	105.48	4.51	
2025-01-12 09:37:07.41	105.46	4.52	
2025-01-12 09:37:07.61	105.44	4.53	
2025-01-12 09:37:07.81	105.42	4.55	
2025-01-12 09:37:08.02	105.40	4.56	
2025-01-12 09:37:08.22	105.39	4.57	
2025-01-12 09:37:08.43	105.37	4.58	
2025-01-12 09:37:08.63	105.35	4.60	
2025-01-12 09:37:08.84	105.33	4.61	
2025-01-12 09:37:09.05	105.31	4.62	
2025-01-12 09:37:09.25	105.29	4.63	
2025-01-12 09:37:09.46	105.28	4.65	
2025-01-12 09:37:09.66	105.26	4.66	
2025-01-12 09:37:09.87	105.24	4.67	
2025-01-12 09:37:10.07	105.22	4.69	
2025-01-12 09:37:10.28	105.20	4.70	
2025-01-12 09:37:10.48	105.18	4.71	
2025-01-12 09:37:10.69	105.16	4.72	
2025-01-12 09:37:10.89	105.15	4.74	
2025-01-12 09:37:11.10	105.13	4.75	
2025-01-12 09:37:11.30	105.11	4.76	
2025-01-12 09:37:11.51	105.09	4.78	
2025-01-12 09:37:11.71	105.07	4.79	
2025-01-12 09:37:11.93	105.05	4.80	
2025-01-12 09:37:12.13	105.03	4.81	
2025-01-12 09:37:12.34	105.01	4.83	
2025-01-12 09:37:12.55	104.99	4.84	
2025-01-12 09:37:12.75	104.98	4.85	
2025-01-12 09:37:12.95	104.96	4.87	
2025-01-12 09:37:13.16	104.94	4.88	
2025-01-12 09:37:13.37	104.92	4.89	
2025-01-12 09:37:13.57	104.90	4.91	
2025-01-12 09:37:13.78	104.88	4.92	
2025-01-12 09:37:13.98	104.86	4.93	
2025-01-12 09:37:14.19	104.84	4.94	
2025-01-12 09:37:14.39	104.82	4.96	
2025-01-12 09:37:14.60	104.80	4.97	
2025-01-12 09:37:14.80	104.79	4.98	
2025-01-12 09:37:15.01	104.77	5.00	
2025-01-12 09:37:15.21	104.75	5.01	
2025-01-12 09:37:15.42	104.73	5.02	
2025-01-12 09:37:15.63	104.71	5.03	
2025-01-12 09:37:15.83	104.69	5.05	
2025-01-12 09:37:16.03	104.67	5.06	
2025-01-12 09:37:16.24	104.65	5.07	
2025-01-12 09:37:16.44	104.63	5.09	
2025-01-12 09:37:16.65	104.61	5.10	
2025-01-12 09:37:16.86	104.59	5.11	
2025-01-12 09:37:17.06	104.58	5.13	
2025-01-12 09:37:17.27	104.56	5.14	
2025-01-12 09:37:17.47	104.54	5.15	
2025-01-12 09:37:17.68	104.52	5.16	
2025-01-12 09:37:17.89	104.50	5.18	
2025-01-12 09:37:18.09	104.48	5.19	
2025-01-12 09:37:18.29	104.46	5.20	
2025-01-12 09:37:18.50	104.44	5.22	
2025-01-12 09:37:18.70	104.42	5.23	
2025-01-12 09:37:18.91	104.40	5.24	
2025-01-12 09:37:19.11	104.38	5.25	
2025-01-12 09:37:19.32	104.36	5.27	
2025-01-12 09:37:19.53	104.34	5.28	
2025-01-12 09:37:19.73	104.32	5.29	
2025-01-12 09:37:19.94	104.30	5.31	
2025-01-12 09:37:20.14	104.28	5.32	
2025-01-12 09:37:20.35	104.26	5.33	
2025-01-12 09:37:20.55	104.25	5.35	
2025-01-12 09:37:20.76	104.23	5.36	
2025-01-12 09:37:20.96	104.21	5.37	
2025-01-12 09:37:21.17	104.19	5.39	
2025-01-12 09:37:21.37	104.17	5.40	
2025-01-12 09:37:21.57	104.15	5.41	
2025-01-12 09:37:21.78	104.13	5.42	
2025-01-12 09:37:21.99	104.11	5.44	
2025-01-12 09:37:22.19	104.09	5.45	
2025-01-12 09:37:22.40	104.07	5.46	
2025-01-12 09:37:22.60	104.05	5.48	
2025-01-12 09:37:22.81	104.03	5.49	
2025-01-12 09:37:23.01	104.01	5.50	
2025-01-12 09:37:23.22	103.99	5.52	
2025-01-12 09:37:23.42	103.97	5.53	
2025-01-12 09:37:23.63	103.95	5.54	
2025-01-12 09:37:23.83	103.93	5.55	
2025-01-12 09:37:24.04	103.91	5.57	
2025-01-12 09:37:24.24	103.89	5.58	
2025-01-12 09:37:24.45	103.87	5.59	
2025-01-12 09:37:24.65	103.85	5.61	
2025-01-12 09:37:24.86	103.83	5.62	
2025-01-12 09:37:25.06	103.81	5.63	
2025-01-12 09:37:25.27	103.79	5.65	
2025-01-12 09:37:25.47	103.77	5.66	
2025-01-12 09:37:25.68	103.75	5.67	
2025-01-12 09:37:25.90	103.73	5.69	
2025-01-12 09:37:26.10	103.71	5.70	
2025-01-12 09:37:26.31	103.69	5.71	
2025-01-12 09:37:26.51	103.67	5.73	
2025-01-12 09:37:26.72	103.65	5.74	
2025-01-12 09:37:26.92	103.63	5.75	
2025-01-12 09:37:27.13	103.61	5.77	
2025-01-12 09:37:27.34	103.59	5.78	
2025-01-12 09:37:27.54	103.57	5.79	
2025-01-12 09:37:27.75	103.55	5.81	
2025-01-12 09:37:27.96	103.53	5.82	
2025-01-12 09:37:28.17	103.51	5.83	
2025-01-12 09:37:28.38	103.48	5.85	
2025-01-12 09:37:28.58	103.47	5.86	
2025-01-12 09:37:28.79	103.44	5.87	
2025-01-12 09:37:28.99	103.42	5.89	
2025-01-12 09:37:29.20	103.40	5.90	
2025-01-12 09:37:29.40	103.38	5.91	
2025-01-12 09:37:29.61	103.36	5.93	
2025-01-12 09:37:29.81	103.34	5.94	
2025-01-12 09:37:30.02	103.32	5.95	
2025-01-12 09:37:30.22	103.30	5.96	
2025-01-12 09:37:30.43	103.28	5.98	
2025-01-12 09:37:30.63	103.26	5.99	
2025-01-12 09:37:30.84	103.24	6.00	
2025-01-12 09:37:31.05	103.22	6.02	
2025-01-12 09:37:31.25	103.20	6.03	
2025-01-12 09:37:31.46	103.18	6.04	
2025-01-12 09:37:31.66	103.16	6.06	
2025-01-12 09:37:31.87	103.14	6.07	
2025-01-12 09:37:32.07	103.12	6.08	
2025-01-12 09:37:32.28	103.09	6.10	
2025-01-12 09:37:32.48	103.07	6.11	
2025-01-12 09:37:32.69	103.05	6.12	
2025-01-12 09:37:32.90	103.03	6.14	
2025-01-12 09:37:33.10	103.01	6.15	
2025-01-12 09:37:33.30	102.99	6.16	
2025-01-12 09:37:33.51	102.97	6.18	
2025-01-12 09:37:33.71	102.95	6.19	
2025-01-12 09:37:33.92	102.93	6.20	
2025-01-12 09:37:34.13	102.91	6.22	
2025-01-12 09:37:34.33	102.89	6.23	
2025-01-12 09:37:34.54	102.87	6.24	
2025-01-12 09:37:34.74	102.84	6.26	
2025-01-12 09:37:34.95	102.82	6.27	
2025-01-12 09:37:35.15	102.80	6.28	
2025-01-12 09:37:35.35	102.78	6.30	
2025-01-12 09:37:35.56	102.76	6.31	
2025-01-12 09:37:35.77	102.74	6.32	
2025-01-12 09:37:35.97	102.72	6.34	
2025-01-12 09:37:36.18	102.70	6.35	
2025-01-12 09:37:36.38	102.68	6.36	
2025-01-12 09:37:36.59	102.65	6.38	
2025-01-12 09:37:36.79	102.63	6.39	
2025-01-12 09:37:37.00	102.61	6.40	
2025-01-12 09:37:37.21	102.59	6.42	
2025-01-12 09:37:37.41	102.57	6.43	
2025-01-12 09:37:37.62	102.55	6.44	
2025-01-12 09:37:37.82	102.53	6.46	
2025-01-12 09:37:38.03	102.51	6.47	
2025-01-12 09:37:38.23	102.49	6.48	
2025-01-12 09:37:38.44	102.46	6.50	
2025-01-12 09:37:38.66	102.44	6.51	
2025-01-12 09:37:38.86	102.42	6.53	
2025-01-12 09:37:39.07	102.40	6.54	
2025-01-12 09:37:39.28	102.38	6.55	
2025-01-12 09:37:39.48	102.35	6.57	
2025-01-12 09:37:39.68	102.33	6.58	
2025-01-12 09:37:39.89	102.31	6.59	
2025-01-12 09:37:40.10	102.29	6.61	
2025-01-12 09:37:40.30	102.27	6.62	
2025-01-12 09:37:40.51	102.25	6.63	
2025-01-12 09:37:40.71	102.23	6.65	
2025-01-12 09:37:40.92	102.20	6.66	
2025-01-12 09:37:41.12	102.18	6.67	
2025-01-12 09:37:41.33	102.16	6.69	
2025-01-12 09:37:41.53	102.14	6.70	
2025-01-12 09:37:41.74	102.12	6.71	
2025-01-12 09:37:41.94	102.10	6.73	
2025-01-12 09:37:42.15	102.07	6.74	
2025-01-12 09:37:42.35	102.05	6.75	
2025-01-12 09:37:42.56	102.03	6.77	
2025-01-12 09:37:42.77	102.01	6.78	
2025-01-12 09:37:42.97	101.99	6.80	
2025-01-12 09:37:43.18	101.96	6.81	
2025-01-12 09:37:43.38	101.94	6.82	
2025-01-12 09:37:43.59	101.92	6.84	
2025-01-12 09:37:43.79	101.90	6.85	
2025-01-12 09:37:43.99	101.88	6.86	
2025-01-12 09:37:44.20	101.85	6.88	
2025-01-12 09:37:44.41	101.83	6.89	
2025-01-12 09:37:44.61	101.81	6.90	
2025-01-12 09:37:44.82	101.79	6.92	
2025-01-12 09:37:45.02	101.77	6.93	
2025-01-12 09:37:45.23	101.74	6.94	
2025-01-12 09:37:45.43	101.72	6.96	
2025-01-12 09:37:45.64	101.70	6.97	
2025-01-12 09:37:45.84	101.68	6.98	
2025-01-12 09:37:46.05	101.66	7.00	
2025-01-12 09:37:46.26	101.63	7.01	
2025-01-12 09:37:46.46	101.61	7.03	
2025-01-12 09:37:46.67	101.59	7.04	
2025-01-12 09:37:46.87	101.57	7.05	
2025-01-12 09:37:47.08	101.54	7.07	
2025-01-12 09:37:47.28	101.52	7.08	
2025-01-12 09:37:47.49	101.50	7.09	
2025-01-12 09:37:47.69	101.48	7.11	
2025-01-12 09:37:47.90	101.45	7.12	
2025-01-12 09:37:48.10	101.43	7.13	
2025-01-12 09:37:48.31	101.41	7.15	
2025-01-12 09:37:48.51	101.39	7.16	
2025-01-12 09:37:48.72	101.36	7.17	
2025-01-12 09:37:48.92	101.34	7.19	
2025-01-12 09:37:49.13	101.32	7.20	
2025-01-12 09:37:49.33	101.30	7.22	
2025-01-12 09:37:49.54	101.27	7.23	
2025-01-12 09:37:49.74	101.25	7.24	
2025-01-12 09:37:49.95	101.23	7.26	
2025-01-12 09:37:50.16	101.21	7.27	
2025-01-12 09:37:50.36	101.18	7.28	
2025-01-12 09:37:50.56	101.16	7.30	
2025-01-12 09:37:50.77	101.14	7.31	
2025-01-12 09:37:50.97	101.12	7.32	
2025-01-12 09:37:51.18	101.09	7.34	
2025-01-12 09:37:51.39	101.07	7.35	
2025-01-12 09:37:51.59	101.05	7.37	
2025-01-12 09:37:51.79	101.03	7.38	
2025-01-12 09:37:52.00	101.00	7.39	
2025-01-12 09:37:52.21	100.98	7.41	
2025-01-12 09:37:52.41	100.96	7.42	
2025-01-12 09:37:52.61	100.93	7.43	
2025-01-12 09:37:52.82	100.91	7.45	
2025-01-12 09:37:53.02	100.89	7.46	
2025-01-12 09:37:53.23	100.86	7.47	
2025-01-12 09:37:53.44	100.84	7.49	
2025-01-12 09:37:53.64	100.82	7.50	
2025-01-12 09:37:53.85	100.80	7.52	
2025-01-12 09:37:54.05	100.77	7.53	
2025-01-12 09:37:54.26	100.75	7.54	
2025-01-12 09:37:54.46	100.73	7.56	
2025-01-12 09:37:54.68	100.70	7.57	
2025-01-12 09:37:54.88	100.68	7.59	
2025-01-12 09:37:55.09	100.66	7.60	
2025-01-12 09:37:55.29	100.63	7.61	
2025-01-12 09:37:55.50	100.61	7.63	
2025-01-12 09:37:55.70	100.59	7.64	
2025-01-12 09:37:55.91	100.56	7.65	
2025-01-12 09:37:56.11	100.54	7.67	
2025-01-12 09:37:56.32	100.52	7.68	
2025-01-12 09:37:56.53	100.49	7.70	
2025-01-12 09:37:56.73	100.47	7.71	
2025-01-12 09:37:56.93	100.45	7.72	
2025-01-12 09:37:57.14	100.42	7.74	
2025-01-12 09:37:57.35	100.40	7.75	
2025-01-12 09:37:57.55	100.37	7.76	
2025-01-12 09:37:57.76	100.35	7.78	
2025-01-12 09:37:57.96	100.33	7.79	
2025-01-12 09:37:58.17	100.30	7.81	
2025-01-12 09:37:58.37	100.28	7.82	
2025-01-12 09:37:58.58	100.26	7.83	
2025-01-12 09:37:58.79	100.23	7.85	
2025-01-12 09:37:58.99	100.21	7.86	
2025-01-12 09:37:59.19	100.19	7.87	
2025-01-12 09:37:59.40	100.16	7.89	
2025-01-12 09:37:59.61	100.14	7.90	
2025-01-12 09:37:59.81	100.11	7.92	
2025-01-12 09:38:00.01	100.09	7.93	
2025-01-12 09:38:00.22	100.07	7.94	
2025-01-12 09:38:00.42	100.04	7.96	
2025-01-12 09:38:00.63	100.02	7.97	
2025-01-12 09:38:00.83	100.00	7.98	
2025-01-12 09:38:01.04	99.97	8.00	
2025-01-12 09:38:01.25	99.95	8.01	
2025-01-12 09:38:01.46	99.92	8.03	
2025-01-12 09:38:01.66	99.90	8.04	
2025-01-12 09:38:01.87	99.87	8.06	
2025-01-12 09:38:02.07	99.85	8.07	
2025-01-12 09:38:02.28	99.83	8.08	
2025-01-12 09:38:02.48	99.80	8.10	
2025-01-12 09:38:02.69	99.78	8.11	
2025-01-12 09:38:02.89	99.75	8.12	
2025-01-12 09:38:03.10	99.73	8.14	
2025-01-12 09:38:03.30	99.71	8.15	
2025-01-12 09:38:03.51	99.68	8.17	
2025-01-12 09:38:03.71	99.66	8.18	
2025-01-12 09:38:03.92	99.63	8.19	
2025-01-12 09:38:04.12	99.61	8.21	
2025-01-12 09:38:04.33	99.58	8.22	
2025-01-12 09:38:04.53	99.56	8.24	
2025-01-12 09:38:04.74	99.54	8.25	
2025-01-12 09:38:04.94	99.51	8.26	
2025-01-12 09:38:05.15	99.49	8.28	
2025-01-12 09:38:05.35	99.46	8.29	
2025-01-12 09:38:05.56	99.44	8.31	
2025-01-12 09:38:05.77	99.41	8.32	
2025-01-12 09:38:05.97	99.39	8.33	
2025-01-12 09:38:06.18	99.36	8.35	
2025-01-12 09:38:06.38	99.34	8.36	
2025-01-12 09:38:06.58	99.32	8.37	
2025-01-12 09:38:06.79	99.29	8.39	
2025-01-12 09:38:07.00	99.26	8.40	
2025-01-12 09:38:07.20	99.24	8.42	
2025-01-12 09:38:07.41	99.22	8.43	
2025-01-12 09:38:07.61	99.19	8.44	
2025-01-12 09:38:07.82	99.17	8.46	
2025-01-12 09:38:08.02	99.14	8.47	
2025-01-12 09:38:08.23	99.12	8.49	
2025-01-12 09:38:08.43	99.09	8.50	
2025-01-12 09:38:08.65	99.07	8.52	
2025-01-12 09:38:08.86	99.04	8.53	
2025-01-12 09:38:09.06	99.02	8.54	
2025-01-12 09:38:09.27	98.99	8.56	
2025-01-12 09:38:09.47	98.97	8.57	
2025-01-12 09:38:09.67	98.94	8.58	
2025-01-12 09:38:09.88	98.92	8.60	
2025-01-12 09:38:10.08	98.89	8.61	
2025-01-12 09:38:10.29	98.87	8.63	
2025-01-12 09:38:10.50	98.84	8.64	
2025-01-12 09:38:10.70	98.82	8.66	
2025-01-12 09:38:10.91	98.79	8.67	
2025-01-12 09:38:11.11	98.76	8.68	
2025-01-12 09:38:11.32	98.74	8.70	
2025-01-12 09:38:11.52	98.71	8.71	
2025-01-12 09:38:11.73	98.69	8.73	
2025-01-12 09:38:11.93	98.66	8.74	
2025-01-12 09:38:12.14	98.64	8.75	
2025-01-12 09:38:12.34	98.61	8.77	
2025-01-12 09:38:12.55	98.59	8.78	
2025-01-12 09:38:12.75	98.56	8.80	
2025-01-12 09:38:12.96	98.54	8.81	
2025-01-12 09:38:13.16	98.51	8.82	
2025-01-12 09:38:13.37	98.49	8.84	
2025-01-12 09:38:13.57	98.46	8.85	
2025-01-12 09:38:13.78	98.43	8.87	
2025-01-12 09:38:13.98	98.41	8.88	
2025-01-12 09:38:14.19	98.38	8.89	
2025-01-12 09:38:14.39	98.36	8.91	
2025-01-12 09:38:14.60	98.33	8.92	
2025-01-12 09:38:14.80	98.31	8.94	
2025-01-12 09:38:15.01	98.28	8.95	
2025-01-12 09:38:15.21	98.26	8.96	
2025-01-12 09:38:15.42	98.23	8.98	
2025-01-12 09:38:15.63	98.20	8.99	
2025-01-12 09:38:15.83	98.18	9.01	
2025-01-12 09:38:16.04	98.15	9.02	
2025-01-12 09:38:16.24	98.13	9.04	
2025-01-12 09:38:16.45	98.10	9.05	
2025-01-12 09:38:16.65	98.07	9.06	
2025-01-12 09:38:16.86	98.05	9.08	
2025-01-12 09:38:17.06	98.02	9.09	
2025-01-12 09:38:17.27	98.00	9.11	
2025-01-12 09:38:17.47	97.97	9.12	
2025-01-12 09:38:17.68	97.94	9.13	
2025-01-12 09:38:17.89	97.92	9.15	
2025-01-12 09:38:18.09	97.89	9.16	
2025-01-12 09:38:18.31	97.86	9.18	
2025-01-12 09:38:18.52	97.84	9.19	
2025-01-12 09:38:18.72	97.81	9.21	
2025-01-12 09:38:18.93	97.78	9.22	
2025-01-12 09:38:19.13	97.76	9.23	
2025-01-12 09:38:19.34	97.73	9.25	
2025-01-12 09:38:19.54	97.71	9.26	
2025-01-12 09:38:19.75	97.68	9.28	
2025-01-12 09:38:19.95	97.65	9.29	
2025-01-12 09:38:20.16	97.63	9.31	
2025-01-12 09:38:20.36	97.60	9.32	
2025-01-12 09:38:20.57	97.57	9.33	
2025-01-12 09:38:20.77	97.55	9.35	
2025-01-12 09:38:20.98	97.52	9.36	
2025-01-12 09:38:21.19	97.49	9.38	
2025-01-12 09:38:21.39	97.47	9.39	
2025-01-12 09:38:21.59	97.44	9.40	
2025-01-12 09:38:21.80	97.41	9.42	
2025-01-12 09:38:22.00	97.39	9.43	
2025-01-12 09:38:22.21	97.36	9.45	
2025-01-12 09:38:22.41	97.33	9.46	
2025-01-12 09:38:22.62	97.31	9.48	
2025-01-12 09:38:22.82	97.28	9.49	
2025-01-12 09:38:23.03	97.25	9.50	
2025-01-12 09:38:23.23	97.23	9.52	
2025-01-12 09:38:23.44	97.20	9.53	
2025-01-12 09:38:23.64	97.17	9.55	
2025-01-12 09:38:23.85	97.15	9.56	
2025-01-12 09:38:24.05	97.12	9.58	
2025-01-12 09:38:24.26	97.09	9.59	
2025-01-12 09:38:24.46	97.07	9.60	
2025-01-12 09:38:24.67	97.04	9.62	
2025-01-12 09:38:24.87	97.01	9.63	
2025-01-12 09:38:25.08	96.98	9.65	
2025-01-12 09:38:25.28	96.96	9.66	
2025-01-12 09:38:25.49	96.93	9.68	
2025-01-12 09:38:25.69	96.90	9.69	
2025-01-12 09:38:25.90	96.88	9.70	
2025-01-12 09:38:26.10	96.85	9.72	
2025-01-12 09:38:26.31	96.82	9.73	
2025-01-12 09:38:26.51	96.79	9.75	
2025-01-12 09:38:26.72	96.77	9.76	
2025-01-12 09:38:26.92	96.74	9.78	
2025-01-12 09:38:27.12	96.71	9.79	
2025-01-12 09:38:27.33	96.68	9.80	
2025-01-12 09:38:27.53	96.66	9.82	
2025-01-12 09:38:27.74	96.63	9.83	
2025-01-12 09:38:27.94	96.60	9.85	
2025-01-12 09:38:28.15	96.57	9.86	
2025-01-12 09:38:28.36	96.55	9.88	
2025-01-12 09:38:28.56	96.52	9.89	
2025-01-12 09:38:28.77	96.49	9.90	
2025-01-12 09:38:28.97	96.46	9.92	
2025-01-12 09:38:29.17	96.44	9.93	
2025-01-12 09:38:29.38	96.41	9.95	
2025-01-12 09:38:29.58	96.38	9.96	
2025-01-12 09:38:29.79	96.35	9.98	
2025-01-12 09:38:29.99	96.33	9.99	
2025-01-12 09:38:30.20	96.30	10.00	
2025-01-12 09:38:30.40	96.27	10.02	
2025-01-12 09:38:30.61	96.24	10.03	
2025-01-12 09:38:30.82	96.21	10.05	
2025-01-12 09:38:31.03	96.19	10.06	
2025-01-12 09:38:31.24	96.16	10.08	
2025-01-12 09:38:31.44	96.13	10.09	
2025-01-12 09:38:31.65	96.10	10.11	
2025-01-12 09:38:31.85	96.07	10.12	
2025-01-12 09:38:32.06	96.04	10.13	
2025-01-12 09:38:32.26	96.02	10.15	
2025-01-12 09:38:32.47	95.99	10.16	
2025-01-12 09:38:32.67	95.96	10.18	
2025-01-12 09:38:32.88	95.93	10.19	
2025-01-12 09:38:33.08	95.90	10.21	
2025-01-12 09:38:33.29	95.88	10.22	
2025-01-12 09:38:33.50	95.85	10.24	
2025-01-12 09:38:33.70	95.82	10.25	
2025-01-12 09:38:33.90	95.79	10.26	
2025-01-12 09:38:34.11	95.76	10.28	
2025-01-12 09:38:34.31	95.73	10.29	
2025-01-12 09:38:34.52	95.70	10.31	
2025-01-12 09:38:34.73	95.68	10.32	
2025-01-12 09:38:34.93	95.65	10.34	
2025-01-12 09:38:35.14	95.62	10.35	
2025-01-12 09:38:35.34	95.59	10.37	
2025-01-12 09:38:35.55	95.56	10.38	
2025-01-12 09:38:35.75	95.53	10.39	
2025-01-12 09:38:35.96	95.50	10.41	
2025-01-12 09:38:36.16	95.48	10.42	
2025-01-12 09:38:36.37	95.45	10.44	
2025-01-12 09:38:36.57	95.42	10.45	
2025-01-12 09:38:36.78	95.39	10.47	
2025-01-12 09:38:36.98	95.36	10.48	
2025-01-12 09:38:37.19	95.33	10.50	
2025-01-12 09:38:37.39	95.30	10.51	
2025-01-12 09:38:37.60	95.27	10.52	
2025-01-12 09:38:37.80	95.25	10.54	
2025-01-12 09:38:38.01	95.22	10.55	
2025-01-12 09:38:38.22	95.19	10.57	
2025-01-12 09:38:38.42	95.16	10.58	
2025-01-12 09:38:38.62	95.13	10.60	
2025-01-12 09:38:38.83	95.10	10.61	
2025-01-12 09:38:39.04	95.07	10.63	
2025-01-12 09:38:39.24	95.04	10.64	
2025-01-12 09:38:39.45	95.01	10.65	
2025-01-12 09:38:39.65	94.98	10.67	
2025-01-12 09:38:39.85	94.95	10.68	
2025-01-12 09:38:40.06	94.92	10.70	
2025-01-12 09:38:40.27	94.89	10.71	
2025-01-12 09:38:40.47	94.87	10.73	
2025-01-12 09:38:40.68	94.84	10.74	
2025-01-12 09:38:40.88	94.81	10.76	
2025-01-12 09:38:41.09	94.78	10.77	
2025-01-12 09:38:41.29	94.75	10.78	
2025-01-12 09:38:41.50	94.72	10.80	
2025-01-12 09:38:41.70	94.69	10.81	
2025-01-12 09:38:41.91	94.66	10.83	
2025-01-12 09:38:42.11	94.63	10.84	
2025-01-12 09:38:42.32	94.60	10.86	
2025-01-12 09:38:42.52	94.57	10.87	
2025-01-12 09:38:42.73	94.54	10.89	
2025-01-12 09:38:42.93	94.51	10.90	
2025-01-12 09:38:43.14	94.48	10.92	
2025-01-12 09:38:43.34	94.45	10.93	
2025-01-12 09:38:43.55	94.42	10.94	
2025-01-12 09:38:43.75	94.39	10.96	
2025-01-12 09:38:43.96	94.36	10.97	
2025-01-12 09:38:44.16	94.33	10.99	
2025-01-12 09:38:44.37	94.30	11.00	
2025-01-12 09:38:44.57	94.27	11.02	
2025-01-12 09:38:44.78	94.24	11.03	
2025-01-12 09:38:44.98	94.21	11.05	
2025-01-12 09:38:45.18	94.18	11.06	
2025-01-12 09:38:45.39	94.15	11.07	
2025-01-12 09:38:45.60	94.12	11.09	
2025-01-12 09:38:45.80	94.09	11.10	
2025-01-12 09:38:46.01	94.06	11.12	
2025-01-12 09:38:46.21	94.03	11.13	
2025-01-12 09:38:46.42	94.00	11.15	
2025-01-12 09:38:46.62	93.97	11.16	
2025-01-12 09:38:46.83	93.94	11.18	
2025-01-12 09:38:47.03	93.91	11.19	
2025-01-12 09:38:47.24	93.88	11.21	
2025-01-12 09:38:47.45	93.85	11.22	
2025-01-12 09:38:47.65	93.82	11.24	
2025-01-12 09:38:47.86	93.79	11.25	
2025-01-12 09:38:48.08	93.75	11.27	
2025-01-12 09:38:48.28	93.72	11.28	
2025-01-12 09:38:48.49	93.69	11.30	
2025-01-12 09:38:48.69	93.66	11.31	
2025-01-12 09:38:48.90	93.63	11.32	
2025-01-12 09:38:49.10	93.60	11.34	
2025-01-12 09:38:49.31	93.57	11.35	
2025-01-12 09:38:49.51	93.54	11.37	
2025-01-12 09:38:49.72	93.51	11.38	
2025-01-12 09:38:49.92	93.48	11.40	
2025-01-12 09:38:50.13	93.45	11.41	
2025-01-12 09:38:50.33	93.41	11.43	
2025-01-12 09:38:50.54	93.38	11.44	
2025-01-12 09:38:50.74	93.35	11.46	
2025-01-12 09:38:50.95	93.32	11.47	
2025-01-12 09:38:51.15	93.29	11.48	
2025-01-12 09:38:51.36	93.26	11.50	
2025-01-12 09:38:51.56	93.23	11.51	
2025-01-12 09:38:51.77	93.20	11.53	
2025-01-12 09:38:51.97	93.17	11.54	
2025-01-12 09:38:52.18	93.13	11.56	
2025-01-12 09:38:52.38	93.10	11.57	
2025-01-12 09:38:52.59	93.07	11.59	
2025-01-12 09:38:52.80	93.04	11.60	
2025-01-12 09:38:53.00	93.01	11.62	
2025-01-12 09:38:53.21	92.98	11.63	
2025-01-12 09:38:53.41	92.95	11.65	
2025-01-12 09:38:53.61	92.92	11.66	
2025-01-12 09:38:53.82	92.88	11.67	
2025-01-12 09:38:54.03	92.85	11.69	
2025-01-12 09:38:54.23	92.82	11.70	
2025-01-12 09:38:54.44	92.79	11.72	
2025-01-12 09:38:54.64	92.76	11.73	
2025-01-12 09:38:54.84	92.73	11.75	
2025-01-12 09:38:55.05	92.69	11.76	
2025-01-12 09:38:55.26	92.66	11.78	
2025-01-12 09:38:55.46	92.63	11.79	
2025-01-12 09:38:55.68	92.60	11.81	
2025-01-12 09:38:55.88	92.56	11.82	
2025-01-12 09:38:56.09	92.53	11.84	
2025-01-12 09:38:56.30	92.50	11.85	
2025-01-12 09:38:56.50	92.47	11.87	
2025-01-12 09:38:56.70	92.44	11.88	
2025-01-12 09:38:56.91	92.40	11.90	
2025-01-12 09:38:57.12	92.37	11.91	
2025-01-12 09:38:57.32	92.34	11.92	
2025-01-12 09:38:57.53	92.31	11.94	
2025-01-12 09:38:57.73	92.28	11.95	
2025-01-12 09:38:57.94	92.24	11.97	
2025-01-12 09:38:58.14	92.21	11.98	
2025-01-12 09:38:58.35	92.18	12.00	
2025-01-12 09:38:58.55	92.15	12.01	
2025-01-12 09:38:58.76	92.11	12.03	
2025-01-12 09:38:58.96	92.08	12.04	
2025-01-12 09:38:59.17	92.05	12.06	
2025-01-12 09:38:59.37	92.02	12.07	
2025-01-12 09:38:59.58	91.98	12.09	
2025-01-12 09:38:59.78	91.95	12.10	
2025-01-12 09:38:59.99	91.92	12.12	
2025-01-12 09:39:00.19	91.89	12.13	
2025-01-12 09:39:00.40	91.85	12.14	
2025-01-12 09:39:00.60	91.82	12.16	
2025-01-12 09:39:00.81	91.79	12.17	
2025-01-12 09:39:01.02	91.75	12.19	
2025-01-12 09:39:01.22	91.72	12.20	
2025-01-12 09:39:01.43	91.69	12.22	
2025-01-12 09:39:01.63	91.66	12.23	
2025-01-12 09:39:01.84	91.62	12.25	
2025-01-12 09:39:02.04	91.59	12.26	
2025-01-12 09:39:02.25	91.56	12.28	
2025-01-12 09:39:02.45	91.53	12.29	
2025-01-12 09:39:02.66	91.49	12.31	
2025-01-12 09:39:02.87	91.46	12.32	
2025-01-12 09:39:03.08	91.42	12.34	
2025-01-12 09:39:03.29	91.39	12.35	
2025-01-12 09:39:03.49	91.36	12.37	
2025-01-12 09:39:03.70	91.32	12.38	
2025-01-12 09:39:03.90	91.29	12.40	
2025-01-12 09:39:04.11	91.26	12.41	
2025-01-12 09:39:04.31	91.22	12.42	
2025-01-12 09:39:04.52	91.19	12.44	
2025-01-12 09:39:04.72	91.16	12.45	
2025-01-12 09:39:04.93	91.12	12.47	
2025-01-12 09:39:05.13	91.09	12.48	
2025-01-12 09:39:05.35	91.06	12.50	
2025-01-12 09:39:05.56	91.02	12.51	
2025-01-12 09:39:05.76	90.99	12.53	
2025-01-12 09:39:05.97	90.95	12.54	
2025-01-12 09:39:06.17	90.92	12.56	
2025-01-12 09:39:06.39	90.88	12.57	
2025-01-12 09:39:06.60	90.85	12.59	
2025-01-12 09:39:06.80	90.82	12.60	
2025-01-12 09:39:07.01	90.78	12.62	
2025-01-12 09:39:07.21	90.75	12.63	
2025-01-12 09:39:07.42	90.72	12.65	
2025-01-12 09:39:07.62	90.68	12.66	
2025-01-12 09:39:07.83	90.65	12.68	
2025-01-12 09:39:08.03	90.61	12.69	
2025-01-12 09:39:08.24	90.58	12.71	
2025-01-12 09:39:08.46	90.54	12.72	
2025-01-12 09:39:08.66	90.51	12.74	
2025-01-12 09:39:08.87	90.47	12.75	
2025-01-12 09:39:09.08	90.44	12.77	
2025-01-12 09:39:09.28	90.41	12.78	
2025-01-12 09:39:09.48	90.37	12.79	
2025-01-12 09:39:09.69	90.34	12.81	
2025-01-12 09:39:09.90	90.30	12.83	
2025-01-12 09:39:10.10	90.27	12.84	
2025-01-12 09:39:10.31	90.23	12.85	
2025-01-12 09:39:10.51	90.20	12.87	
2025-01-12 09:39:10.72	90.17	12.88	
2025-01-12 09:39:10.92	90.13	12.90	
2025-01-12 09:39:11.13	90.10	12.91	
2025-01-12 09:39:11.33	90.06	12.93	
2025-01-12 09:39:11.53	90.03	12.94	
2025-01-12 09:39:11.74	89.99	12.96	
2025-01-12 09:39:11.94	89.96	12.97	
2025-01-12 09:39:12.15	89.92	12.99	
2025-01-12 09:39:12.36	89.89	13.00	
2025-01-12 09:39:12.56	89.85	13.02	
2025-01-12 09:39:12.76	89.82	13.03	
2025-01-12 09:39:12.97	89.78	13.05	
2025-01-12 09:39:13.17	89.75	13.06	
2025-01-12 09:39:13.38	89.71	13.07	
2025-01-12 09:39:13.58	89.68	13.09	
2025-01-12 09:39:13.79	89.64	13.10	
2025-01-12 09:39:13.99	89.61	13.12	
2025-01-12 09:39:14.20	89.57	13.13	
2025-01-12 09:39:14.40	89.54	13.15	
2025-01-12 09:39:14.61	89.50	13.16	
2025-01-12 09:39:14.81	89.47	13.18	
2025-01-12 09:39:15.02	89.43	13.19	
2025-01-12 09:39:15.22	89.40	13.21	
2025-01-12 09:39:15.43	89.36	13.22	
2025-01-12 09:39:15.64	89.33	13.24	
2025-01-12 09:39:15.84	89.29	13.25	
2025-01-12 09:39:16.05	89.26	13.27	
2025-01-12 09:39:16.25	89.22	13.28	
2025-01-12 09:39:16.46	89.19	13.30	
2025-01-12 09:39:16.66	89.15	13.31	
2025-01-12 09:39:16.87	89.11	13.32	
2025-01-12 09:39:17.07	89.08	13.34	
2025-01-12 09:39:17.28	89.04	13.35	
2025-01-12 09:39:17.48	89.01	13.37	
2025-01-12 09:39:17.69	88.97	13.38	
2025-01-12 09:39:17.89	88.94	13.40	
2025-01-12 09:39:18.10	88.90	13.41	
2025-01-12 09:39:18.30	88.87	13.43	
2025-01-12 09:39:18.51	88.83	13.44	
2025-01-12 09:39:18.71	88.79	13.46	
2025-01-12 09:39:18.92	88.76	13.47	
2025-01-12 09:39:19.12	88.72	13.49	
2025-01-12 09:39:19.32	88.69	13.50	
2025-01-12 09:39:19.53	88.65	13.52	
2025-01-12 09:39:19.73	88.61	13.53	
2025-01-12 09:39:19.94	88.58	13.54	
2025-01-12 09:39:20.14	88.54	13.56	
2025-01-12 09:39:20.35	88.50	13.57	
2025-01-12 09:39:20.55	88.47	13.59	
2025-01-12 09:39:20.76	88.43	13.60	
2025-01-12 09:39:20.96	88.40	13.62	
2025-01-12 09:39:21.17	88.36	13.63	
2025-01-12 09:39:21.37	88.32	13.65	
2025-01-12 09:39:21.58	88.29	13.66	
2025-01-12 09:39:21.78	88.25	13.68	
2025-01-12 09:39:21.99	88.21	13.69	
2025-01-12 09:39:22.19	88.18	13.71	
2025-01-12 09:39:22.41	88.14	13.72	
2025-01-12 09:39:22.62	88.10	13.74	
2025-01-12 09:39:22.82	88.06	13.75	
2025-01-12 09:39:23.03	88.03	13.77	
2025-01-12 09:39:23.23	87.99	13.78	
2025-01-12 09:39:23.44	87.95	13.79	
2025-01-12 09:39:23.64	87.92	13.81	
2025-01-12 09:39:23.85	87.88	13.82	
2025-01-12 09:39:24.05	87.84	13.84	
2025-01-12 09:39:24.26	87.81	13.85	
2025-01-12 09:39:24.47	87.77	13.87	
2025-01-12 09:39:24.67	87.73	13.88	
2025-01-12 09:39:24.88	87.69	13.90	
2025-01-12 09:39:25.08	87.66	13.91	
2025-01-12 09:39:25.29	87.62	13.93	
2025-01-12 09:39:25.49	87.58	13.94	
2025-01-12 09:39:25.70	87.55	13.96	
2025-01-12 09:39:25.90	87.51	13.97	
2025-01-12 09:39:26.11	87.47	13.99	
2025-01-12 09:39:26.32	87.43	14.00	
2025-01-12 09:39:26.52	87.40	14.01	
2025-01-12 09:39:26.74	87.36	14.03	
2025-01-12 09:39:26.94	87.32	14.04	
2025-01-12 09:39:27.15	87.28	14.06	
2025-01-12 09:39:27.36	87.24	14.07	
2025-01-12 09:39:27.56	87.21	14.09	
2025-01-12 09:39:27.78	87.17	14.10	
2025-01-12 09:39:27.99	87.13	14.12	
2025-01-12 09:39:28.19	87.09	14.13	
2025-01-12 09:39:28.40	87.05	14.15	
2025-01-12 09:39:28.60	87.01	14.16	
2025-01-12 09:39:28.80	86.98	14.18	
2025-01-12 09:39:29.01	86.94	14.19	
2025-01-12 09:39:29.22	86.90	14.21	
2025-01-12 09:39:29.42	86.86	14.22	
2025-01-12 09:39:29.63	86.82	14.24	
2025-01-12 09:39:29.83	86.79	14.25	
2025-01-12 09:39:30.03	86.75	14.27	
2025-01-12 09:39:30.24	86.71	14.28	
2025-01-12 09:39:30.44	86.67	14.29	
2025-01-12 09:39:30.65	86.63	14.31	
2025-01-12 09:39:30.85	86.60	14.32	
2025-01-12 09:39:31.06	86.56	14.34	
2025-01-12 09:39:31.26	86.52	14.35	
2025-01-12 09:39:31.47	86.48	14.37	
2025-01-12 09:39:31.68	86.44	14.38	
2025-01-12 09:39:31.88	86.40	14.40	
2025-01-12 09:39:32.09	86.36	14.41	
2025-01-12 09:39:32.29	86.33	14.43	
2025-01-12 09:39:32.50	86.29	14.44	
2025-01-12 09:39:32.70	86.25	14.46	
2025-01-12 09:39:32.91	86.21	14.47	
2025-01-12 09:39:33.11	86.17	14.48	
2025-01-12 09:39:33.32	86.13	14.50	
2025-01-12 09:39:33.52	86.09	14.51	
2025-01-12 09:39:33.73	86.05	14.53	
2025-01-12 09:39:33.93	86.02	14.54	
2025-01-12 09:39:34.14	85.98	14.56	
2025-01-12 09:39:34.34	85.94	14.57	
2025-01-12 09:39:34.55	85.90	14.59	
2025-01-12 09:39:34.75	85.86	14.60	
2025-01-12 09:39:34.96	85.82	14.62	
2025-01-12 09:39:35.16	85.78	14.63	
2025-01-12 09:39:35.37	85.74	14.64	
2025-01-12 09:39:35.57	85.70	14.66	
2025-01-12 09:39:35.78	85.66	14.67	
2025-01-12 09:39:35.98	85.63	14.69	
2025-01-12 09:39:36.19	85.59	14.70	
2025-01-12 09:39:36.39	85.55	14.72	
2025-01-12 09:39:36.60	85.51	14.73	
2025-01-12 09:39:36.80	85.47	14.75	
2025-01-12 09:39:37.01	85.43	14.76	
2025-01-12 09:39:37.21	85.39	14.77	
2025-01-12 09:39:37.42	85.35	14.79	
2025-01-12 09:39:37.62	85.31	14.80	
2025-01-12 09:39:37.83	85.27	14.82	
2025-01-12 09:39:38.03	85.23	14.83	
2025-01-12 09:39:38.24	85.19	14.85	
2025-01-12 09:39:38.44	85.15	14.86	
2025-01-12 09:39:38.65	85.11	14.88	
2025-01-12 09:39:38.85	85.07	14.89	
2025-01-12 09:39:39.06	85.03	14.91	
2025-01-12 09:39:39.26	84.99	14.92	
2025-01-12 09:39:39.48	84.95	14.93	
2025-01-12 09:39:39.68	84.91	14.95	
2025-01-12 09:39:39.89	84.87	14.96	
2025-01-12 09:39:40.10	84.83	14.98	
2025-01-12 09:39:40.30	84.79	14.99	
2025-01-12 09:39:40.52	84.75	15.01	
2025-01-12 09:39:40.72	84.71	15.02	
2025-01-12 09:39:40.93	84.66	15.04	
2025-01-12 09:39:41.14	84.62	15.05	
2025-01-12 09:39:41.34	84.58	15.07	
2025-01-12 09:39:41.55	84.54	15.08	
2025-01-12 09:39:41.75	84.50	15.09	
2025-01-12 09:39:41.96	84.46	15.11	
2025-01-12 09:39:42.17	84.42	15.12	
2025-01-12 09:39:42.37	84.38	15.14	
2025-01-12 09:39:42.58	84.34	15.15	
2025-01-12 09:39:42.78	84.30	15.17	
2025-01-12 09:39:42.99	84.26	15.18	
2025-01-12 09:39:43.19	84.22	15.20	
2025-01-12 09:39:43.40	84.18	15.21	
2025-01-12 09:39:43.60	84.14	15.22	
2025-01-12 09:39:43.81	84.09	15.24	
2025-01-12 09:39:44.01	84.05	15.25	
2025-01-12 09:39:44.22	84.01	15.27	
2025-01-12 09:39:44.42	83.97	15.28	
2025-01-12 09:39:44.63	83.93	15.30	
2025-01-12 09:39:44.83	83.89	15.31	
2025-01-12 09:39:45.03	83.85	15.32	
2025-01-12 09:39:45.24	83.81	15.34	
2025-01-12 09:39:45.44	83.77	15.35	
2025-01-12 09:39:45.65	83.73	15.37	
2025-01-12 09:39:45.85	83.69	15.38	
2025-01-12 09:39:46.06	83.64	15.40	
2025-01-12 09:39:46.26	83.60	15.41	
2025-01-12 09:39:46.47	83.56	15.43	
2025-01-12 09:39:46.67	83.52	15.44	
2025-01-12 09:39:46.88	83.48	15.45	
2025-01-12 09:39:47.08	83.44	15.47	
2025-01-12 09:39:47.29	83.39	15.48	
2025-01-12 09:39:47.49	83.35	15.50	
2025-01-12 09:39:47.70	83.31	15.51	
2025-01-12 09:39:47.90	83.27	15.52	
2025-01-12 09:39:48.11	83.23	15.54	
2025-01-12 09:39:48.31	83.19	15.55	
2025-01-12 09:39:48.52	83.14	15.57	
2025-01-12 09:39:48.72	83.10	15.58	
2025-01-12 09:39:48.93	83.06	15.60	
2025-01-12 09:39:49.15	83.01	15.61	
2025-01-12 09:39:49.35	82.97	15.63	
2025-01-12 09:39:49.56	82.93	15.64	
2025-01-12 09:39:49.76	82.89	15.65	
2025-01-12 09:39:49.97	82.85	15.67	
2025-01-12 09:39:50.19	82.80	15.68	
2025-01-12 09:39:50.39	82.76	15.70	
2025-01-12 09:39:50.60	82.72	15.71	
2025-01-12 09:39:50.80	82.68	15.73	
2025-01-12 09:39:51.01	82.63	15.74	
2025-01-12 09:39:51.21	82.59	15.75	
2025-01-12 09:39:51.42	82.55	15.77	
2025-01-12 09:39:51.62	82.51	15.78	
2025-01-12 09:39:51.83	82.46	15.80	
2025-01-12 09:39:52.03	82.42	15.81	
2025-01-12 09:39:52.24	82.38	15.83	
2025-01-12 09:39:52.44	82.34	15.84	
2025-01-12 09:39:52.65	82.29	15.85	
2025-01-12 09:39:52.85	82.25	15.87	
2025-01-12 09:39:53.06	82.21	15.88	
2025-01-12 09:39:53.26	82.16	15.90	
2025-01-12 09:39:53.47	82.12	15.91	
2025-01-12 09:39:53.68	82.08	15.92	
2025-01-12 09:39:53.88	82.03	15.94	
2025-01-12 09:39:54.09	81.99	15.95	
2025-01-12 09:39:54.29	81.95	15.97	
2025-01-12 09:39:54.50	81.90	15.98	
2025-01-12 09:39:54.70	81.86	15.99	
2025-01-12 09:39:54.91	81.82	16.01	
2025-01-12 09:39:55.11	81.78	16.02	
2025-01-12 09:39:55.32	81.73	16.04	
2025-01-12 09:39:55.52	81.69	16.05	
2025-01-12 09:39:55.73	81.64	16.07	
2025-01-12 09:39:55.94	81.60	16.08	
2025-01-12 09:39:56.14	81.56	16.09	
2025-01-12 09:39:56.35	81.51	16.11	
2025-01-12 09:39:56.55	81.47	16.12	
2025-01-12 09:39:56.75	81.43	16.13	
2025-01-12 09:39:56.96	81.38	16.15	
2025-01-12 09:39:57.17	81.34	16.16	
2025-01-12 09:39:57.37	81.30	16.18	
2025-01-12 09:39:57.58	81.25	16.19	
2025-01-12 09:39:57.78	81.21	16.20	
2025-01-12 09:39:57.99	81.16	16.22	
2025-01-12 09:39:58.19	81.12	16.23	
2025-01-12 09:39:58.40	81.08	16.25	
2025-01-12 09:39:58.60	81.03	16.26	
2025-01-12 09:39:58.81	80.99	16.27	
2025-01-12 09:39:59.01	80.94	16.29	
2025-01-12 09:39:59.22	80.90	16.30	
2025-01-12 09:39:59.43	80.85	16.32	
2025-01-12 09:39:59.63	80.81	16.33	
2025-01-12 09:39:59.83	80.77	16.34	
2025-01-12 09:40:00.04	80.72	16.36	
2025-01-12 09:40:00.24	80.68	16.37	
2025-01-12 09:40:00.45	80.63	16.39	
2025-01-12 09:40:00.65	80.59	16.40	
2025-01-12 09:40:00.86	80.55	16.41	
2025-01-12 09:40:01.06	80.50	16.43	
2025-01-12 09:40:01.27	80.46	16.44	
2025-01-12 09:40:01.47	80.41	16.45	
2025-01-12 09:40:01.68	80.37	16.47	
2025-01-12 09:40:01.88	80.32	16.48	
2025-01-12 09:40:02.09	80.28	16.50	
2025-01-12 09:40:02.29	80.23	16.51	
2025-01-12 09:40:02.49	80.19	16.52	
2025-01-12 09:40:02.70	80.14	16.54	
2025-01-12 09:40:02.90	80.10	16.55	
2025-01-12 09:40:03.11	80.05	16.56	
2025-01-12 09:40:03.31	80.01	16.58	
2025-01-12 09:40:03.52	79.96	16.59	
2025-01-12 09:40:03.72	79.92	16.61	
2025-01-12 09:40:03.93	79.87	16.62	
2025-01-12 09:40:04.13	79.83	16.63	
2025-01-12 09:40:04.34	79.78	16.65	
2025-01-12 09:40:04.55	79.74	16.66	
2025-01-12 09:40:04.75	79.69	16.67	
2025-01-12 09:40:04.95	79.65	16.69	
2025-01-12 09:40:05.16	79.60	16.70	
2025-01-12 09:40:05.37	79.56	16.72	
2025-01-12 09:40:05.57	79.51	16.73	
2025-01-12 09:40:05.78	79.46	16.74	
2025-01-12 09:40:05.98	79.42	16.76	
2025-01-12 09:40:06.19	79.37	16.77	
2025-01-12 09:40:06.39	79.33	16.78	
2025-01-12 09:40:06.60	79.28	16.80	
2025-01-12 09:40:06.80	79.24	16.81	
2025-01-12 09:40:07.01	79.19	16.82	
2025-01-12 09:40:07.21	79.15	16.84	
2025-01-12 09:40:07.42	79.10	16.85	
2025-01-12 09:40:07.62	79.05	16.87	
2025-01-12 09:40:07.83	79.01	16.88	
2025-01-12 09:40:08.03	78.96	16.89	
2025-01-12 09:40:08.25	78.91	16.91	
2025-01-12 09:40:08.46	78.87	16.92	
2025-01-12 09:40:08.66	78.82	16.93	
2025-01-12 09:40:08.86	78.78	16.95	
2025-01-12 09:40:09.07	78.73	16.96	
2025-01-12 09:40:09.28	78.68	16.97	
2025-01-12 09:40:09.48	78.64	16.99	
2025-01-12 09:40:09.69	78.59	17.00	
2025-01-12 09:40:09.90	78.54	17.02	
2025-01-12 09:40:10.10	78.50	17.03	
2025-01-12 09:40:10.30	78.45	17.04	
2025-01-12 09:40:10.51	78.40	17.05	
2025-01-12 09:40:10.71	78.36	17.07	
2025-01-12 09:40:10.92	78.31	17.08	
2025-01-12 09:40:11.12	78.26	17.09	
2025-01-12 09:40:11.33	78.22	17.11	
2025-01-12 09:40:11.53	78.17	17.12	
2025-01-12 09:40:11.74	78.12	17.14	
2025-01-12 09:40:11.95	78.07	17.15	
2025-01-12 09:40:12.15	78.03	17.16	
2025-01-12 09:40:12.36	77.98	17.18	
2025-01-12 09:40:12.56	77.94	17.19	
2025-01-12 09:40:12.77	77.89	17.20	
2025-01-12 09:40:12.97	77.84	17.21	
2025-01-12 09:40:13.18	77.79	17.23	
2025-01-12 09:40:13.39	77.74	17.24	
2025-01-12 09:40:13.59	77.70	17.26	
2025-01-12 09:40:13.79	77.65	17.27	
2025-01-12 09:40:14.00	77.60	17.28	
2025-01-12 09:40:14.21	77.56	17.30	
2025-01-12 09:40:14.41	77.51	17.31	
2025-01-12 09:40:14.61	77.46	17.32	
2025-01-12 09:40:14.82	77.41	17.33	
2025-01-12 09:40:15.03	77.37	17.35	
2025-01-12 09:40:15.23	77.32	17.36	
2025-01-12 09:40:15.44	77.27	17.37	
2025-01-12 09:40:15.64	77.22	17.39	
2025-01-12 09:40:15.84	77.18	17.40	
2025-01-12 09:40:16.05	77.13	17.41	
2025-01-12 09:40:16.26	77.08	17.43	
2025-01-12 09:40:16.46	77.03	17.44	
2025-01-12 09:40:16.66	76.99	17.45	
2025-01-12 09:40:16.87	76.94	17.47	
2025-01-12 09:40:17.07	76.89	17.48	
2025-01-12 09:40:17.28	76.84	17.49	
2025-01-12 09:40:17.49	76.79	17.50	
2025-01-12 09:40:17.69	76.75	17.52	
2025-01-12 09:40:17.89	76.70	17.53	
2025-01-12 09:40:18.10	76.65	17.54	
2025-01-12 09:40:18.30	76.60	17.56	
2025-01-12 09:40:18.51	76.55	17.57	
2025-01-12 09:40:18.71	76.51	17.58	
2025-01-12 09:40:18.92	76.46	17.60	
2025-01-12 09:40:19.13	76.41	17.61	
2025-01-12 09:40:19.33	76.36	17.62	
2025-01-12 09:40:19.54	76.31	17.63	
2025-01-12 09:40:19.74	76.26	17.65	
2025-01-12 09:40:19.96	76.21	17.66	
2025-01-12 09:40:20.17	76.16	17.67	
2025-01-12 09:40:20.37	76.11	17.69	
2025-01-12 09:40:20.58	76.06	17.70	
2025-01-12 09:40:20.78	76.02	17.71	
2025-01-12 09:40:21.00	75.96	17.73	
2025-01-12 09:40:21.21	75.91	17.74	
2025-01-12 09:40:21.41	75.87	17.75	
2025-01-12 09:40:21.62	75.82	17.76	
2025-01-12 09:40:21.82	75.77	17.78	
2025-01-12 09:40:22.02	75.72	17.79	
2025-01-12 09:40:22.23	75.67	17.80	
2025-01-12 09:40:22.44	75.62	17.82	
2025-01-12 09:40:22.64	75.57	17.83	
2025-01-12 09:40:22.85	75.52	17.84	
2025-01-12 09:40:23.05	75.47	17.85	
2025-01-12 09:40:23.26	75.42	17.87	
2025-01-12 09:40:23.46	75.37	17.88	
2025-01-12 09:40:23.67	75.32	17.89	
2025-01-12 09:40:23.87	75.28	17.90	
2025-01-12 09:40:24.08	75.23	17.92	
2025-01-12 09:40:24.29	75.17	17.93	
2025-01-12 09:40:24.49	75.13	17.94	
2025-01-12 09:40:24.70	75.08	17.95	
2025-01-12 09:40:24.91	75.02	17.97	
2025-01-12 09:40:25.11	74.98	17.98	
2025-01-12 09:40:25.31	74.93	17.99	
2025-01-12 09:40:25.52	74.88	18.00	
2025-01-12 09:40:25.73	74.83	18.02	
2025-01-12 09:40:25.93	74.78	18.03	
2025-01-12 09:40:26.14	74.73	18.04	
2025-01-12 09:40:26.34	74.68	18.05	
2025-01-12 09:40:26.55	74.63	18.07	
2025-01-12 09:40:26.75	74.58	18.08	
2025-01-12 09:40:26.96	74.53	18.09	
2025-01-12 09:40:27.16	74.48	18.10	
2025-01-12 09:40:27.37	74.43	18.12	
2025-01-12 09:40:27.57	74.38	18.13	
2025-01-12 09:40:27.78	74.33	18.14	
2025-01-12 09:40:27.98	74.28	18.15	
2025-01-12 09:40:28.19	74.22	18.17	
2025-01-12 09:40:28.39	74.18	18.18	
2025-01-12 09:40:28.60	74.12	18.19	
2025-01-12 09:40:28.80	74.07	18.20	
2025-01-12 09:40:29.01	74.02	18.22	
2025-01-12 09:40:29.21	73.97	18.23	
2025-01-12 09:40:29.42	73.92	18.24	
2025-01-12 09:40:29.64	73.87	18.25	
2025-01-12 09:40:29.84	73.82	18.26	
2025-01-12 09:40:30.05	73.77	18.28	
2025-01-12 09:40:30.25	73.72	18.29	
2025-01-12 09:40:30.46	73.66	18.30	
2025-01-12 09:40:30.66	73.62	18.31	
2025-01-12 09:40:30.87	73.56	18.33	
2025-01-12 09:40:31.08	73.51	18.34	
2025-01-12 09:40:31.28	73.46	18.35	
2025-01-12 09:40:31.49	73.41	18.36	
2025-01-12 09:40:31.69	73.36	18.37	
2025-01-12 09:40:31.89	73.31	18.39	
2025-01-12 09:40:32.10	73.26	18.40	
2025-01-12 09:40:32.30	73.21	18.41	
2025-01-12 09:40:32.51	73.15	18.42	
2025-01-12 09:40:32.71	73.10	18.43	
2025-01-12 09:40:32.92	73.05	18.45	
2025-01-12 09:40:33.12	73.00	18.46	
2025-01-12 09:40:33.33	72.95	18.47	
2025-01-12 09:40:33.53	72.90	18.48	
2025-01-12 09:40:33.74	72.85	18.49	
2025-01-12 09:40:33.96	72.79	18.51	
2025-01-12 09:40:34.16	72.74	18.52	
2025-01-12 09:40:34.37	72.69	18.53	
2025-01-12 09:40:34.57	72.64	18.54	
2025-01-12 09:40:34.78	72.58	18.55	
2025-01-12 09:40:34.98	72.53	18.56	
2025-01-12 09:40:35.19	72.48	18.58	
2025-01-12 09:40:35.40	72.43	18.59	
2025-01-12 09:40:35.60	72.38	18.60	
2025-01-12 09:40:35.81	72.32	18.61	
2025-01-12 09:40:36.01	72.27	18.62	
2025-01-12 09:40:36.21	72.22	18.64	
2025-01-12 09:40:36.42	72.17	18.65	
2025-01-12 09:40:36.62	72.12	18.66	
2025-01-12 09:40:36.83	72.07	18.67	
2025-01-12 09:40:37.03	72.01	18.68	
2025-01-12 09:40:37.24	71.96	18.69	
2025-01-12 09:40:37.44	71.91	18.70	
2025-01-12 09:40:37.65	71.86	18.72	
2025-01-12 09:40:37.85	71.81	18.73	
2025-01-12 09:40:38.06	71.75	18.74	
2025-01-12 09:40:38.26	71.70	18.75	
2025-01-12 09:40:38.47	71.65	18.76	
2025-01-12 09:40:38.67	71.60	18.77	
2025-01-12 09:40:38.88	71.54	18.79	
2025-01-12 09:40:39.09	71.49	18.80	
2025-01-12 09:40:39.30	71.43	18.81	
2025-01-12 09:40:39.51	71.38	18.82	
2025-01-12 09:40:39.72	71.33	18.83	
2025-01-12 09:40:39.92	71.27	18.84	
2025-01-12 09:40:40.13	71.22	18.86	
2025-01-12 09:40:40.33	71.17	18.87	
2025-01-12 09:40:40.54	71.12	18.88	
2025-01-12 09:40:40.74	71.06	18.89	
2025-01-12 09:40:40.95	71.01	18.90	
2025-01-12 09:40:41.15	70.96	18.91	
2025-01-12 09:40:41.36	70.90	18.92	
2025-01-12 09:40:41.57	70.85	18.93	
2025-01-12 09:40:41.77	70.80	18.94	
2025-01-12 09:40:41.98	70.74	18.96	
2025-01-12 09:40:42.18	70.69	18.97	
2025-01-12 09:40:42.38	70.64	18.98	
2025-01-12 09:40:42.59	70.58	18.99	
2025-01-12 09:40:42.80	70.53	19.00	
2025-01-12 09:40:43.00	70.48	19.01	
2025-01-12 09:40:43.21	70.42	19.02	
2025-01-12 09:40:43.41	70.37	19.03	
2025-01-12 09:40:43.62	70.32	19.05	
2025-01-12 09:40:43.82	70.26	19.06	
2025-01-12 09:40:44.03	70.21	19.07	
2025-01-12 09:40:44.24	70.15	19.08	
2025-01-12 09:40:44.44	70.10	19.09	
2025-01-12 09:40:44.64	70.05	19.10	
2025-01-12 09:40:44.85	69.99	19.11	
2025-01-12 09:40:45.05	69.94	19.12	
2025-01-12 09:40:45.26	69.89	19.13	
2025-01-12 09:40:45.46	69.83	19.14	
2025-01-12 09:40:45.67	69.78	19.15	
2025-01-12 09:40:45.87	69.73	19.16	
2025-01-12 09:40:46.08	69.67	19.18	
2025-01-12 09:40:46.28	69.62	19.19	
2025-01-12 09:40:46.49	69.56	19.20	
2025-01-12 09:40:46.71	69.50	19.21	
2025-01-12 09:40:46.91	69.45	19.22	
2025-01-12 09:40:47.12	69.40	19.23	
2025-01-12 09:40:47.32	69.34	19.24	
2025-01-12 09:40:47.53	69.29	19.25	
2025-01-12 09:40:47.73	69.23	19.26	
2025-01-12 09:40:47.94	69.18	19.27	
2025-01-12 09:40:48.14	69.13	19.28	
2025-01-12 09:40:48.35	69.07	19.29	
2025-01-12 09:40:48.55	69.02	19.30	
2025-01-12 09:40:48.76	68.96	19.31	
2025-01-12 09:40:48.96	68.91	19.32	
2025-01-12 09:40:49.17	68.85	19.34	
2025-01-12 09:40:49.37	68.80	19.35	
2025-01-12 09:40:49.58	68.74	19.36	
2025-01-12 09:40:49.78	68.69	19.37	
2025-01-12 09:40:49.99	68.63	19.38	
2025-01-12 09:40:50.20	68.58	19.39	
2025-01-12 09:40:50.40	68.52	19.40	
2025-01-12 09:40:50.61	68.47	19.41	
2025-01-12 09:40:50.81	68.41	19.42	
2025-01-12 09:40:51.02	68.36	19.43	
2025-01-12 09:40:51.22	68.30	19.44	
2025-01-12 09:40:51.43	68.25	19.45	
2025-01-12 09:40:51.64	68.19	19.46	
2025-01-12 09:40:51.84	68.14	19.47	
2025-01-12 09:40:52.06	68.08	19.48	
2025-01-12 09:40:52.26	68.03	19.49	
2025-01-12 09:40:52.47	67.97	19.50	
2025-01-12 09:40:52.67	67.91	19.51	
2025-01-12 09:40:52.88	67.86	19.52	
2025-01-12 09:40:53.08	67.80	19.53	
2025-01-12 09:40:53.28	67.75	19.54	
2025-01-12 09:40:53.49	67.69	19.55	
2025-01-12 09:40:53.69	67.64	19.56	
2025-01-12 09:40:53.90	67.58	19.57	
2025-01-12 09:40:54.10	67.53	19.58	
2025-01-12 09:40:54.31	67.47	19.59	
2025-01-12 09:40:54.51	67.42	19.60	
2025-01-12 09:40:54.72	67.36	19.61	
2025-01-12 09:40:54.92	67.31	19.62	
2025-01-12 09:40:55.13	67.25	19.63	
2025-01-12 09:40:55.35	67.19	19.64	
2025-01-12 09:40:55.55	67.13	19.65	
2025-01-12 09:40:55.76	67.08	19.66	
2025-01-12 09:40:55.96	67.02	19.67	
2025-01-12 09:40:56.17	66.97	19.68	
2025-01-12 09:40:56.37	66.91	19.69	
2025-01-12 09:40:56.58	66.85	19.70	
2025-01-12 09:40:56.78	66.80	19.71	
2025-01-12 09:40:56.99	66.74	19.72	
2025-01-12 09:40:57.19	66.69	19.73	
2025-01-12 09:40:57.40	66.63	19.74	
2025-01-12 09:40:57.60	66.57	19.75	
2025-01-12 09:40:57.81	66.52	19.76	
2025-01-12 09:40:58.02	66.46	19.77	
2025-01-12 09:40:58.22	66.40	19.78	
2025-01-12 09:40:58.42	66.35	19.78	
2025-01-12 09:40:58.63	66.29	19.79	
2025-01-12 09:40:58.84	66.23	19.80	
2025-01-12 09:40:59.04	66.18	19.81	
2025-01-12 09:40:59.24	66.12	19.82	
2025-01-12 09:40:59.45	66.07	19.83	
2025-01-12 09:40:59.65	66.01	19.84	
2025-01-12 09:40:59.86	65.95	19.85	
2025-01-12 09:41:00.06	65.90	19.86	
2025-01-12 09:41:00.27	65.84	19.87	
2025-01-12 09:41:00.47	65.78	19.88	
2025-01-12 09:41:00.67	65.73	19.89	
2025-01-12 09:41:00.88	65.67	19.90	
2025-01-12 09:41:01.09	65.61	19.91	
2025-01-12 09:41:01.29	65.56	19.91	
2025-01-12 09:41:01.50	65.50	19.92	
2025-01-12 09:41:01.70	65.44	19.93	
2025-01-12 09:41:01.90	65.39	19.94	
2025-01-12 09:41:02.11	65.33	19.95	
2025-01-12 09:41:02.32	65.27	19.96	
2025-01-12 09:41:02.52	65.22	19.97	
2025-01-12 09:41:02.73	65.16	19.98	
2025-01-12 09:41:02.93	65.10	19.99	
2025-01-12 09:41:03.13	65.05	19.99	
2025-01-12 09:41:03.34	64.99	20.00	
2025-01-12 09:41:03.54	64.93	20.01	
2025-01-12 09:41:03.75	64.87	20.02	
2025-01-12 09:41:03.95	64.82	20.03	
2025-01-12 09:41:04.16	64.76	20.04	
2025-01-12 09:41:04.36	64.70	20.05	
2025-01-12 09:41:04.57	64.64	20.06	
2025-01-12 09:41:04.78	64.59	20.07	
2025-01-12 09:41:04.98	64.53	20.07	
2025-01-12 09:41:05.18	64.47	20.08	
2025-01-12 09:41:05.39	64.41	20.09	
2025-01-12 09:41:05.59	64.36	20.10	
2025-01-12 09:41:05.80	64.30	20.11	
2025-01-12 09:41:06.00	64.24	20.12	
2025-01-12 09:41:06.21	64.18	20.12	
2025-01-12 09:41:06.42	64.13	20.13	
2025-01-12 09:41:06.62	64.07	20.14	
2025-01-12 09:41:06.83	64.01	20.15	
2025-01-12 09:41:07.03	63.95	20.16	
2025-01-12 09:41:07.24	63.89	20.17	
2025-01-12 09:41:07.44	63.84	20.18	
2025-01-12 09:41:07.65	63.78	20.18	
2025-01-12 09:41:07.86	63.72	20.19	
2025-01-12 09:41:08.06	63.66	20.20	
2025-01-12 09:41:08.27	63.60	20.21	
2025-01-12 09:41:08.47	63.55	20.22	
2025-01-12 09:41:08.68	63.49	20.23	
2025-01-12 09:41:08.88	63.43	20.23	
2025-01-12 09:41:09.09	63.37	20.24	
2025-01-12 09:41:09.29	63.31	20.25	
2025-01-12 09:41:09.50	63.25	20.26	
2025-01-12 09:41:09.70	63.20	20.27	
2025-01-12 09:41:09.91	63.14	20.27	
2025-01-12 09:41:10.12	63.08	20.28	
2025-01-12 09:41:10.32	63.02	20.29	
2025-01-12 09:41:10.52	62.97	20.30	
2025-01-12 09:41:10.73	62.91	20.31	
2025-01-12 09:41:10.93	62.85	20.31	
2025-01-12 09:41:11.14	62.79	20.32	
2025-01-12 09:41:11.34	62.73	20.33	
2025-01-12 09:41:11.55	62.67	20.34	
2025-01-12 09:41:11.75	62.61	20.34	
2025-01-12 09:41:11.96	62.55	20.35	
2025-01-12 09:41:12.16	62.50	20.36	
2025-01-12 09:41:12.37	62.44	20.37	
2025-01-12 09:41:12.57	62.38	20.38	
2025-01-12 09:41:12.78	62.32	20.38	
2025-01-12 09:41:12.99	62.26	20.39	
2025-01-12 09:41:13.19	62.20	20.40	
2025-01-12 09:41:13.40	62.14	20.41	
2025-01-12 09:41:13.60	62.09	20.41	
2025-01-12 09:41:13.81	62.03	20.42	
2025-01-12 09:41:14.01	61.97	20.43	
2025-01-12 09:41:14.22	61.91	20.44	
2025-01-12 09:41:14.42	61.85	20.44	
2025-01-12 09:41:14.63	61.79	20.45	
2025-01-12 09:41:14.84	61.73	20.46	
2025-01-12 09:41:15.04	61.67	20.47	
2025-01-12 09:41:15.25	61.61	20.47	
2025-01-12 09:41:15.45	61.55	20.48	
2025-01-12 09:41:15.65	61.50	20.49	
2025-01-12 09:41:15.86	61.44	20.49	
2025-01-12 09:41:16.07	61.37	20.50	
2025-01-12 09:41:16.27	61.32	20.51	
2025-01-12 09:41:16.48	61.26	20.52	
2025-01-12 09:41:16.69	61.20	20.52	
2025-01-12 09:41:16.90	61.14	20.53	
2025-01-12 09:41:17.11	61.07	20.54	
2025-01-12 09:41:17.31	61.02	20.54	
2025-01-12 09:41:17.52	60.96	20.55	
2025-01-12 09:41:17.72	60.90	20.56	
2025-01-12 09:41:17.93	60.84	20.57	
2025-01-12 09:41:18.13	60.78	20.57	
2025-01-12 09:41:18.34	60.72	20.58	
2025-01-12 09:41:18.54	60.66	20.59	
2025-01-12 09:41:18.75	60.60	20.59	
2025-01-12 09:41:18.95	60.54	20.60	
2025-01-12 09:41:19.16	60.48	20.61	
2025-01-12 09:41:19.36	60.42	20.61	
2025-01-12 09:41:19.57	60.36	20.62	
2025-01-12 09:41:19.77	60.30	20.63	
2025-01-12 09:41:19.98	60.24	20.63	
2025-01-12 09:41:20.18	60.18	20.64	
2025-01-12 09:41:20.39	60.12	20.65	
2025-01-12 09:41:20.59	60.06	20.65	
2025-01-12 09:41:20.80	60.00	20.66	
2025-01-12 09:41:21.00	59.94	20.67	
2025-01-12 09:41:21.21	59.88	20.67	
2025-01-12 09:41:21.41	59.82	20.68	
2025-01-12 09:41:21.62	59.76	20.69	
2025-01-12 09:41:21.82	59.70	20.69	
2025-01-12 09:41:22.03	59.64	20.70	
2025-01-12 09:41:22.23	59.58	20.70	
2025-01-12 09:41:22.44	59.52	20.71	
2025-01-12 09:41:22.64	59.46	20.72	
2025-01-12 09:41:22.85	59.40	20.72	
2025-01-12 09:41:23.05	59.34	20.73	
2025-01-12 09:41:23.26	59.28	20.74	
2025-01-12 09:41:23.46	59.22	20.74	
2025-01-12 09:41:23.67	59.16	20.75	
2025-01-12 09:41:23.87	59.10	20.75	
2025-01-12 09:41:24.08	59.04	20.76	
2025-01-12 09:41:24.29	58.98	20.77	
2025-01-12 09:41:24.49	58.92	20.77	
2025-01-12 09:41:24.70	58.86	20.78	
2025-01-12 09:41:24.90	58.80	20.78	
2025-01-12 09:41:25.10	58.74	20.79	
2025-01-12 09:41:25.31	58.68	20.79	
2025-01-12 09:41:25.51	58.62	20.80	
2025-01-12 09:41:25.72	58.56	20.81	
2025-01-12 09:41:25.93	58.50	20.81	
2025-01-12 09:41:26.13	58.44	20.82	
2025-01-12 09:41:26.34	58.38	20.82	
2025-01-12 09:41:26.55	58.32	20.83	
2025-01-12 09:41:26.75	58.26	20.84	
2025-01-12 09:41:26.96	58.19	20.84	
2025-01-12 09:41:27.16	58.14	20.85	
2025-01-12 09:41:27.37	58.07	20.85	
2025-01-12 09:41:27.57	58.01	20.86	
2025-01-12 09:41:27.78	57.95	20.86	
2025-01-12 09:41:27.98	57.89	20.87	
2025-01-12 09:41:28.19	57.83	20.87	
2025-01-12 09:41:28.39	57.77	20.88	
2025-01-12 09:41:28.60	57.71	20.88	
2025-01-12 09:41:28.80	57.65	20.89	
2025-01-12 09:41:29.01	57.59	20.90	
2025-01-12 09:41:29.21	57.53	20.90	
2025-01-12 09:41:29.42	57.47	20.91	
2025-01-12 09:41:29.62	57.41	20.91	
2025-01-12 09:41:29.83	57.35	20.92	
2025-01-12 09:41:30.03	57.29	20.92	
2025-01-12 09:41:30.24	57.22	20.93	
2025-01-12 09:41:30.44	57.16	20.93	
2025-01-12 09:41:30.65	57.10	20.94	
2025-01-12 09:41:30.85	57.04	20.94	
2025-01-12 09:41:31.06	56.98	20.95	
2025-01-12 09:41:31.27	56.92	20.95	
2025-01-12 09:41:31.47	56.86	20.96	
2025-01-12 09:41:31.68	56.80	20.96	
2025-01-12 09:41:31.88	56.74	20.97	
2025-01-12 09:41:32.09	56.67	20.97	
2025-01-12 09:41:32.29	56.61	20.98	
2025-01-12 09:41:32.50	56.55	20.98	
2025-01-12 09:41:32.70	56.49	20.98	
2025-01-12 09:41:32.91	56.43	20.99	
2025-01-12 09:41:33.11	56.37	20.99	
2025-01-12 09:41:33.32	56.31	21.00	
2025-01-12 09:41:33.52	56.25	21.00	
2025-01-12 09:41:33.73	56.18	21.01	
2025-01-12 09:41:33.94	56.12	21.01	
2025-01-12 09:41:34.14	56.06	21.02	
2025-01-12 09:41:34.35	56.00	21.02	
2025-01-12 09:41:34.55	55.94	21.03	
2025-01-12 09:41:34.75	55.88	21.03	
2025-01-12 09:41:34.96	55.82	21.03	
2025-01-12 09:41:35.16	55.76	21.04	
2025-01-12 09:41:35.37	55.69	21.04	
2025-01-12 09:41:35.58	55.63	21.05	
2025-01-12 09:41:35.78	55.57	21.05	
2025-01-12 09:41:35.99	55.51	21.06	
2025-01-12 09:41:36.19	55.45	21.06	
2025-01-12 09:41:36.40	55.39	21.06	
2025-01-12 09:41:36.60	55.33	21.07	
2025-01-12 09:41:36.81	55.26	21.07	
2025-01-12 09:41:37.01	55.20	21.08	
2025-01-12 09:41:37.22	55.14	21.08	
2025-01-12 09:41:37.42	55.08	21.08	
2025-01-12 09:41:37.62	55.02	21.09	
2025-01-12 09:41:37.83	54.96	21.09	
2025-01-12 09:41:38.03	54.90	21.10	
2025-01-12 09:41:38.24	54.83	21.10	
2025-01-12 09:41:38.45	54.77	21.10	
2025-01-12 09:41:38.65	54.71	21.11	
2025-01-12 09:41:38.86	54.65	21.11	
2025-01-12 09:41:39.06	54.59	21.11	
2025-01-12 09:41:39.27	54.52	21.12	
2025-01-12 09:41:39.47	54.46	21.12	
2025-01-12 09:41:39.68	54.40	21.13	
2025-01-12 09:41:39.88	54.34	21.13	
2025-01-12 09:41:40.09	54.28	21.13	
2025-01-12 09:41:40.29	54.22	21.14	
2025-01-12 09:41:40.50	54.15	21.14	
2025-01-12 09:41:40.71	54.09	21.14	
2025-01-12 09:41:40.91	54.03	21.15	
2025-01-12 09:41:41.12	53.97	21.15	
2025-01-12 09:41:41.32	53.91	21.15	
2025-01-12 09:41:41.53	53.84	21.16	
2025-01-12 09:41:41.73	53.78	21.16	
2025-01-12 09:41:41.94	53.72	21.16	
2025-01-12 09:41:42.14	53.66	21.17	
2025-01-12 09:41:42.34	53.60	21.17	
2025-01-12 09:41:42.55	53.53	21.17	
2025-01-12 09:41:42.76	53.47	21.18	
2025-01-12 09:41:42.96	53.41	21.18	
2025-01-12 09:41:43.17	53.35	21.18	
2025-01-12 09:41:43.37	53.29	21.18	
2025-01-12 09:41:43.58	53.22	21.19	
2025-01-12 09:41:43.78	53.16	21.19	
2025-01-12 09:41:43.99	53.10	21.19	
2025-01-12 09:41:44.20	53.04	21.20	
2025-01-12 09:41:44.40	52.98	21.20	
2025-01-12 09:41:44.61	52.91	21.20	
2025-01-12 09:41:44.81	52.85	21.20	
2025-01-12 09:41:45.02	52.79	21.21	
2025-01-12 09:41:45.22	52.73	21.21	
2025-01-12 09:41:45.42	52.67	21.21	
2025-01-12 09:41:45.63	52.60	21.22	
2025-01-12 09:41:45.83	52.54	21.22	
2025-01-12 09:41:46.04	52.48	21.22	
2025-01-12 09:41:46.24	52.42	21.22	
2025-01-12 09:41:46.45	52.35	21.23	
2025-01-12 09:41:46.65	52.29	21.23	
2025-01-12 09:41:46.86	52.23	21.23	
2025-01-12 09:41:47.06	52.17	21.23	
2025-01-12 09:41:47.27	52.11	21.24	
2025-01-12 09:41:47.47	52.05	21.24	
2025-01-12 09:41:47.69	51.98	21.24	
2025-01-12 09:41:47.90	51.92	21.24	
2025-01-12 09:41:48.10	51.85	21.24	
2025-01-12 09:41:48.31	51.79	21.25	
2025-01-12 09:41:48.51	51.73	21.25	
2025-01-12 09:41:48.72	51.67	21.25	
2025-01-12 09:41:48.92	51.61	21.25	
2025-01-12 09:41:49.13	51.54	21.26	
2025-01-12 09:41:49.33	51.48	21.26	
2025-01-12 09:41:49.54	51.42	21.26	
2025-01-12 09:41:49.74	51.36	21.26	
2025-01-12 09:41:49.95	51.29	21.26	
2025-01-12 09:41:50.16	51.23	21.26	
2025-01-12 09:41:50.36	51.17	21.27	
2025-01-12 09:41:50.57	51.10	21.27	
2025-01-12 09:41:50.77	51.04	21.27	
2025-01-12 09:41:50.98	50.98	21.27	
2025-01-12 09:41:51.18	50.92	21.27	
2025-01-12 09:41:51.39	50.86	21.28	
2025-01-12 09:41:51.60	50.79	21.28	
2025-01-12 09:41:51.80	50.73	21.28	
2025-01-12 09:41:52.01	50.67	21.28	
2025-01-12 09:41:52.21	50.61	21.28	
2025-01-12 09:41:52.42	50.54	21.28	
2025-01-12 09:41:52.62	50.48	21.28	
2025-01-12 09:41:52.83	50.42	21.29	
2025-01-12 09:41:53.05	50.35	21.29	
2025-01-12 09:41:53.25	50.29	21.29	
2025-01-12 09:41:53.46	50.23	21.29	
2025-01-12 09:41:53.67	50.16	21.29	
2025-01-12 09:41:53.87	50.10	21.29	
2025-01-12 09:41:54.09	50.03	21.29	
2025-01-12 09:41:54.29	49.97	21.30	
2025-01-12 09:41:54.50	49.91	21.30	
2025-01-12 09:41:54.71	49.85	21.30	
2025-01-12 09:41:54.91	49.78	21.30	
2025-01-12 09:41:55.11	49.72	21.30	
2025-01-12 09:41:55.32	49.66	21.30	
2025-01-12 09:41:55.53	49.60	21.30	
2025-01-12 09:41:55.73	49.53	21.30	
2025-01-12 09:41:55.94	49.47	21.30	
2025-01-12 09:41:56.14	49.41	21.30	
2025-01-12 09:41:56.35	49.35	21.30	
2025-01-12 09:41:56.55	49.28	21.31	
2025-01-12 09:41:56.76	49.22	21.31	
2025-01-12 09:41:56.96	49.16	21.31	
2025-01-12 09:41:57.17	49.10	21.31	
2025-01-12 09:41:57.37	49.04	21.31	
2025-01-12 09:41:57.57	48.97	21.31	
2025-01-12 09:41:57.78	48.91	21.31	
2025-01-12 09:41:57.98	48.85	21.31	
2025-01-12 09:41:58.18	48.79	21.31	
2025-01-12 09:41:58.39	48.72	21.31	
2025-01-12 09:41:58.59	48.66	21.31	
2025-01-12 09:41:58.80	48.60	21.31	
2025-01-12 09:41:59.00	48.54	21.31	
2025-01-12 09:41:59.21	48.47	21.31	
2025-01-12 09:41:59.41	48.41	21.31	
2025-01-12 09:41:59.61	48.35	21.31	
2025-01-12 09:41:59.82	48.29	21.31	
2025-01-12 09:42:00.02	48.23	21.31	
2025-01-12 09:42:00.23	48.16	21.31	
2025-01-12 09:42:00.43	48.10	21.31	
2025-01-12 09:42:00.64	48.04	21.31	
2025-01-12 09:42:00.84	47.98	21.31	
2025-01-12 09:42:01.05	47.91	21.31	
2025-01-12 09:42:01.25	47.85	21.31	
2025-01-12 09:42:01.45	47.79	21.31	
2025-01-12 09:42:01.66	47.73	21.31	
2025-01-12 09:42:01.87	47.66	21.31	
2025-01-12 09:42:02.07	47.60	21.31	
2025-01-12 09:42:02.28	47.54	21.31	
2025-01-12 09:42:02.48	47.48	21.31	
2025-01-12 09:42:02.69	47.41	21.31	
2025-01-12 09:42:02.89	47.35	21.31	
2025-01-12 09:42:03.10	47.29	21.31	
2025-01-12 09:42:03.30	47.23	21.31	
2025-01-12 09:42:03.51	47.16	21.31	
2025-01-12 09:42:03.72	47.10	21.31	
2025-01-12 09:42:03.93	47.04	21.31	
2025-01-12 09:42:04.13	46.97	21.31	
2025-01-12 09:42:04.34	46.91	21.31	
2025-01-12 09:42:04.55	46.85	21.31	
2025-01-12 09:42:04.76	46.78	21.31	
2025-01-12 09:42:04.97	46.72	21.31	
2025-01-12 09:42:05.17	46.66	21.31	
2025-01-12 09:42:05.38	46.59	21.31	
2025-01-12 09:42:05.59	46.53	21.31	
2025-01-12 09:42:05.79	46.47	21.31	
2025-01-12 09:42:06.00	46.41	21.30	
2025-01-12 09:42:06.20	46.34	21.30	
2025-01-12 09:42:06.41	46.28	21.30	
2025-01-12 09:42:06.61	46.22	21.30	
2025-01-12 09:42:06.81	46.16	21.30	
2025-01-12 09:42:07.02	46.09	21.30	
2025-01-12 09:42:07.22	46.03	21.30	
2025-01-12 09:42:07.43	45.97	21.30	
2025-01-12 09:42:07.63	45.91	21.30	
2025-01-12 09:42:07.84	45.85	21.30	
2025-01-12 09:42:08.04	45.78	21.29	
2025-01-12 09:42:08.25	45.72	21.29	
2025-01-12 09:42:08.45	45.66	21.29	
2025-01-12 09:42:08.66	45.60	21.29	
2025-01-12 09:42:08.86	45.53	21.29	
2025-01-12 09:42:09.07	45.47	21.29	
2025-01-12 09:42:09.27	45.41	21.29	
2025-01-12 09:42:09.48	45.35	21.29	
2025-01-12 09:42:09.69	45.28	21.28	
2025-01-12 09:42:09.89	45.22	21.28	
2025-01-12 09:42:10.10	45.16	21.28	
2025-01-12 09:42:10.30	45.10	21.28	
2025-01-12 09:42:10.51	45.03	21.28	
2025-01-12 09:42:10.71	44.97	21.28	
2025-01-12 09:42:10.92	44.91	21.28	
2025-01-12 09:42:11.12	44.85	21.27	
2025-01-12 09:42:11.32	44.79	21.27	
2025-01-12 09:42:11.53	44.72	21.27	
2025-01-12 09:42:11.73	44.66	21.27	
2025-01-12 09:42:11.94	44.60	21.27	
2025-01-12 09:42:12.14	44.54	21.26	
2025-01-12 09:42:12.35	44.47	21.26	
2025-01-12 09:42:12.55	44.41	21.26	
2025-01-12 09:42:12.76	44.35	21.26	
2025-01-12 09:42:12.96	44.29	21.26	
2025-01-12 09:42:13.17	44.23	21.25	
2025-01-12 09:42:13.37	44.16	21.25	
2025-01-12 09:42:13.58	44.10	21.25	
2025-01-12 09:42:13.78	44.04	21.25	
2025-01-12 09:42:13.99	43.98	21.25	
2025-01-12 09:42:14.19	43.92	21.24	
2025-01-12 09:42:14.41	43.85	21.24	
2025-01-12 09:42:14.62	43.79	21.24	
2025-01-12 09:42:14.82	43.72	21.24	
2025-01-12 09:42:15.03	43.66	21.24	
2025-01-12 09:42:15.23	43.60	21.23	
2025-01-12 09:42:15.44	43.54	21.23	
2025-01-12 09:42:15.64	43.48	21.23	
2025-01-12 09:42:15.85	43.41	21.23	
2025-01-12 09:42:16.05	43.35	21.22	
2025-01-12 09:42:16.26	43.29	21.22	
2025-01-12 09:42:16.46	43.23	21.22	
2025-01-12 09:42:16.67	43.16	21.22	
2025-01-12 09:42:16.87	43.10	21.21	
2025-01-12 09:42:17.08	43.04	21.21	
2025-01-12 09:42:17.28	42.98	21.21	
2025-01-12 09:42:17.49	42.92	21.20	
2025-01-12 09:42:17.69	42.86	21.20	
2025-01-12 09:42:17.90	42.79	21.20	
2025-01-12 09:42:18.10	42.73	21.20	
2025-01-12 09:42:18.31	42.67	21.19	
2025-01-12 09:42:18.51	42.61	21.19	
2025-01-12 09:42:18.72	42.54	21.19	
2025-01-12 09:42:18.92	42.48	21.18	
2025-01-12 09:42:19.13	42.42	21.18	
2025-01-12 09:42:19.34	42.36	21.18	
2025-01-12 09:42:19.54	42.30	21.18	
2025-01-12 09:42:19.74	42.24	21.17	
2025-01-12 09:42:19.95	42.17	21.17	
2025-01-12 09:42:20.15	42.11	21.17	
2025-01-12 09:42:20.36	42.05	21.16	
2025-01-12 09:42:20.57	41.99	21.16	
2025-01-12 09:42:20.77	41.93	21.16	
2025-01-12 09:42:20.98	41.86	21.15	
2025-01-12 09:42:21.18	41.80	21.15	
2025-01-12 09:42:21.39	41.74	21.15	
2025-01-12 09:42:21.59	41.68	21.14	
2025-01-12 09:42:21.79	41.62	21.14	
2025-01-12 09:42:22.00	41.56	21.14	
2025-01-12 09:42:22.21	41.49	21.13	
2025-01-12 09:42:22.41	41.43	21.13	
2025-01-12 09:42:22.62	41.37	21.13	
2025-01-12 09:42:22.82	41.31	21.12	
2025-01-12 09:42:23.03	41.25	21.12	
2025-01-12 09:42:23.23	41.19	21.11	
2025-01-12 09:42:23.44	41.12	21.11	
2025-01-12 09:42:23.64	41.06	21.11	
2025-01-12 09:42:23.85	41.00	21.10	
2025-01-12 09:42:24.05	40.94	21.10	
2025-01-12 09:42:24.26	40.88	21.10	
2025-01-12 09:42:24.46	40.82	21.09	
2025-01-12 09:42:24.67	40.75	21.09	
2025-01-12 09:42:24.87	40.69	21.08	
2025-01-12 09:42:25.08	40.63	21.08	
2025-01-12 09:42:25.28	40.57	21.08	
2025-01-12 09:42:25.49	40.51	21.07	
2025-01-12 09:42:25.70	40.44	21.07	
2025-01-12 09:42:25.90	40.39	21.06	
2025-01-12 09:42:26.10	40.33	21.06	
2025-01-12 09:42:26.31	40.26	21.06	
2025-01-12 09:42:26.51	40.20	21.05	
2025-01-12 09:42:26.72	40.14	21.05	
2025-01-12 09:42:26.92	40.08	21.04	
2025-01-12 09:42:27.14	40.01	21.04	
2025-01-12 09:42:27.35	39.95	21.03	
2025-01-12 09:42:27.55	39.89	21.03	
2025-01-12 09:42:27.76	39.83	21.03	
2025-01-12 09:42:27.97	39.77	21.02	
2025-01-12 09:42:28.17	39.71	21.02	
2025-01-12 09:42:28.38	39.64	21.01	
2025-01-12 09:42:28.58	39.58	21.01	
2025-01-12 09:42:28.79	39.52	21.00	
2025-01-12 09:42:28.99	39.46	21.00	
2025-01-12 09:42:29.20	39.40	20.99	
2025-01-12 09:42:29.40	39.34	20.99	
2025-01-12 09:42:29.61	39.28	20.98	
2025-01-12 09:42:29.81	39.22	20.98	
2025-01-12 09:42:30.02	39.16	20.98	
2025-01-12 09:42:30.22	39.10	20.97	
2025-01-12 09:42:30.43	39.03	20.97	
2025-01-12 09:42:30.63	38.97	20.96	
2025-01-12 09:42:30.84	38.91	20.96	
2025-01-12 09:42:31.05	38.85	20.95	
2025-01-12 09:42:31.25	38.79	20.95	
2025-01-12 09:42:31.45	38.73	20.94	
2025-01-12 09:42:31.66	38.67	20.94	
2025-01-12 09:42:31.87	38.61	20.93	
2025-01-12 09:42:32.07	38.55	20.93	
2025-01-12 09:42:32.28	38.48	20.92	
2025-01-12 09:42:32.48	38.42	20.92	
2025-01-12 09:42:32.69	38.36	20.91	
2025-01-12 09:42:32.89	38.30	20.91	
2025-01-12 09:42:33.10	38.24	20.90	
2025-01-12 09:42:33.31	38.18	20.89	
2025-01-12 09:42:33.51	38.12	20.89	
2025-01-12 09:42:33.72	38.06	20.88	
2025-01-12 09:42:33.92	38.00	20.88	
2025-01-12 09:42:34.13	37.94	20.87	
2025-01-12 09:42:34.33	37.88	20.87	
2025-01-12 09:42:34.54	37.82	20.86	
2025-01-12 09:42:34.74	37.76	20.86	
2025-01-12 09:42:34.95	37.69	20.85	
2025-01-12 09:42:35.16	37.63	20.85	
2025-01-12 09:42:35.36	37.57	20.84	
2025-01-12 09:42:35.57	37.51	20.83	
2025-01-12 09:42:35.77	37.45	20.83	
2025-01-12 09:42:35.97	37.39	20.82	
2025-01-12 09:42:36.18	37.33	20.82	
2025-01-12 09:42:36.39	37.27	20.81	
2025-01-12 09:42:36.59	37.21	20.81	
2025-01-12 09:42:36.80	37.15	20.80	
2025-01-12 09:42:37.00	37.09	20.79	
2025-01-12 09:42:37.21	37.03	20.79	
2025-01-12 09:42:37.41	36.97	20.78	
2025-01-12 09:42:37.62	36.91	20.78	
2025-01-12 09:42:37.82	36.85	20.77	
2025-01-12 09:42:38.03	36.79	20.77	
2025-01-12 09:42:38.23	36.73	20.76	
2025-01-12 09:42:38.44	36.67	20.75	
2025-01-12 09:42:38.64	36.61	20.75	
2025-01-12 09:42:38.85	36.55	20.74	
2025-01-12 09:42:39.05	36.49	20.74	
2025-01-12 09:42:39.26	36.43	20.73	
2025-01-12 09:42:39.46	36.37	20.72	
2025-01-12 09:42:39.67	36.31	20.72	
2025-01-12 09:42:39.87	36.25	20.71	
2025-01-12 09:42:40.08	36.19	20.70	
2025-01-12 09:42:40.29	36.13	20.70	
2025-01-12 09:42:40.49	36.07	20.69	
